passes_logs/2026/01/23/R4.6S_Anadyr/R4.6S_Anadyr__20260123_000838_SUOMI_NPP_rec.log

#Pass ID: 20260123_000838_SUOMI NPP
#Satellite: SUOMI NPP
#Configuration: NPP
#almurnet v.1.7.20251203
#Start time: 2026-01-23 00:08:41

#Version: 2.2.20231116
#Station: R4.6S_Anadyr
#Location: 177.4865 lon 64.73178 lat
#TLE: 1 37849U 11061A   26022.50498765  .00000208  00000+0  11976-3 0  9992
#TLE: 2 37849  98.7820 324.4892 0002275  50.8149 309.3229 14.19528284737775

#Time	Az	El	Level	Level2	SNR	BER	BlckErr	Temp	State	Recorded	gain1	gain2
2026-01-23 00:08:41.67	152.51	0.19	-51.5	-65.3	3.3	1.54e+00	0	40	0	0	60	66295
2026-01-23 00:08:42.68	152.51	0.25	-51.4	-66.6	3.6	1.51e+00	0	40	104	0	60	77266
2026-01-23 00:08:43.69	152.51	0.31	-51.4	-66.7	3.6	1.51e+00	0	40	104	0	60	78136
2026-01-23 00:08:44.70	152.51	0.37	-51.5	-66.7	3.6	1.51e+00	0	40	104	0	60	78358
2026-01-23 00:08:45.71	152.51	0.43	-51.4	-66.6	3.6	1.51e+00	0	40	104	0	60	77722
2026-01-23 00:08:46.72	152.51	0.50	-51.4	-66.6	3.6	1.51e+00	0	40	104	0	60	77695
2026-01-23 00:08:47.73	152.51	0.56	-51.5	-66.7	3.6	1.51e+00	0	40	104	0	60	77856
2026-01-23 00:08:48.74	152.51	0.62	-51.4	-66.6	3.6	1.51e+00	0	40	104	0	60	77491
2026-01-23 00:08:49.75	152.51	0.68	-51.3	-66.6	3.6	1.51e+00	0	40	104	0	60	77105
2026-01-23 00:08:50.76	152.51	0.74	-51.3	-66.6	3.6	1.51e+00	0	40	104	0	60	76877
2026-01-23 00:08:51.77	152.51	0.81	-51.3	-66.5	3.6	1.51e+00	0	40	104	0	60	76443
2026-01-23 00:08:52.78	152.51	0.87	-51.2	-66.4	3.6	1.51e+00	0	40	104	0	60	75882
2026-01-23 00:08:53.78	152.50	0.93	-51.2	-66.4	3.6	1.51e+00	0	40	104	0	60	75346
2026-01-23 00:08:54.80	152.50	0.99	-51.1	-66.3	3.6	1.51e+00	0	40	104	0	60	74681
2026-01-23 00:08:55.80	152.50	1.06	-50.9	-66.1	3.6	1.51e+00	0	40	104	0	60	73210
2026-01-23 00:08:56.81	152.50	1.12	-50.8	-66.0	3.6	1.51e+00	0	41	104	0	60	72487
2026-01-23 00:08:57.82	152.50	1.18	-50.7	-65.9	3.6	1.51e+00	0	40	104	0	60	71340
2026-01-23 00:08:58.83	152.50	1.24	-50.2	-65.4	3.6	1.51e+00	0	40	104	0	60	67434
2026-01-23 00:08:59.84	152.50	1.31	-50.1	-65.3	3.6	1.51e+00	0	40	104	0	60	66575
2026-01-23 00:09:00.85	152.50	1.37	-50.1	-65.3	3.6	1.51e+00	0	41	104	0	60	66896
2026-01-23 00:09:01.86	152.50	1.44	-50.0	-65.2	3.6	1.51e+00	0	40	104	0	60	66075
2026-01-23 00:09:02.87	152.50	1.50	-49.9	-65.0	3.6	1.51e+00	0	41	104	0	60	64022
2026-01-23 00:09:03.88	152.49	1.56	-49.9	-64.9	3.6	1.51e+00	0	40	104	0	60	63686
2026-01-23 00:09:04.89	152.49	1.63	-49.9	-64.9	3.6	1.51e+00	0	41	104	0	60	63376
2026-01-23 00:09:05.90	152.49	1.69	-49.8	-64.9	3.6	1.51e+00	0	41	104	0	60	63890
2026-01-23 00:09:06.91	152.49	1.76	-49.9	-64.9	3.6	1.51e+00	0	41	104	0	60	63553
2026-01-23 00:09:07.92	152.49	1.82	-49.9	-64.9	3.6	1.51e+00	0	41	104	0	60	63516
2026-01-23 00:09:08.93	152.49	1.88	-49.8	-64.9	3.6	1.51e+00	0	41	104	0	60	63366
2026-01-23 00:09:09.94	152.49	1.95	-49.8	-64.9	3.6	1.51e+00	0	41	104	0	60	63765
2026-01-23 00:09:10.95	152.49	2.01	-49.8	-64.9	3.6	1.51e+00	0	41	104	0	60	63664
2026-01-23 00:09:11.96	152.48	2.08	-49.9	-65.0	3.6	1.51e+00	0	41	104	0	60	63983
2026-01-23 00:09:12.97	152.48	2.14	-49.9	-65.0	3.6	1.51e+00	0	41	104	0	60	64079
2026-01-23 00:09:13.98	152.48	2.21	-49.8	-65.0	3.6	1.51e+00	0	41	104	0	60	64274
2026-01-23 00:09:14.99	152.48	2.28	-49.9	-65.0	3.6	1.51e+00	0	41	104	0	60	64526
2026-01-23 00:09:16.00	152.48	2.34	-49.9	-65.0	3.6	1.51e+00	0	41	104	0	60	64649
2026-01-23 00:09:17.01	152.48	2.41	-49.8	-65.0	3.6	1.51e+00	0	41	104	0	60	64016
2026-01-23 00:09:18.02	152.48	2.47	-49.9	-65.0	3.6	1.51e+00	0	41	104	0	60	63982
2026-01-23 00:09:19.03	152.48	2.54	-49.8	-64.9	3.6	1.51e+00	0	41	104	0	60	63404
2026-01-23 00:09:20.04	152.47	2.61	-49.8	-64.8	3.6	1.51e+00	0	41	104	0	60	62928
2026-01-23 00:09:21.05	152.47	2.67	-49.8	-64.7	3.6	1.51e+00	0	41	104	0	60	62400
2026-01-23 00:09:22.06	152.47	2.74	-49.8	-64.7	3.6	1.51e+00	0	41	104	0	60	61941
2026-01-23 00:09:23.07	152.47	2.80	-49.8	-64.7	3.6	1.51e+00	0	41	104	0	60	61953
2026-01-23 00:09:24.08	152.47	2.87	-49.8	-64.8	3.6	1.51e+00	0	41	104	0	60	63149
2026-01-23 00:09:25.09	152.47	2.94	-49.8	-65.0	3.6	1.51e+00	0	41	104	0	60	64127
2026-01-23 00:09:26.10	152.47	3.01	-49.8	-64.9	3.6	1.51e+00	0	41	104	0	60	63784
2026-01-23 00:09:27.11	152.46	3.07	-49.8	-64.3	3.6	1.51e+00	0	41	104	0	60	59135
2026-01-23 00:09:28.12	152.46	3.14	-49.8	-63.0	3.6	1.51e+00	0	41	104	0	60	51020
2026-01-23 00:09:29.13	152.46	3.21	-49.6	-60.3	4.2	1.33e+00	75	41	0	0	60	37229
2026-01-23 00:09:30.14	152.46	3.28	-49.4	-57.8	5.4	7.22e-01	90	41	0	2097152	60	27993
2026-01-23 00:09:31.15	152.46	3.34	-49.2	-56.4	7.0	3.26e-01	58	41	0	3145728	60	23764
2026-01-23 00:09:32.16	152.46	3.41	-48.9	-55.0	8.5	1.03e-01	90	41	0	5242880	60	20396
2026-01-23 00:09:33.17	152.45	3.48	-48.6	-54.4	9.0	3.76e-02	92	41	0	6291456	60	18895
2026-01-23 00:09:34.18	152.45	3.55	-48.5	-54.0	9.5	1.00e-02	0	41	0	8388608	60	18040
2026-01-23 00:09:35.19	152.45	3.62	-48.3	-53.3	10.3	1.11e-02	91	41	0	10485760	60	16624
2026-01-23 00:09:36.20	152.45	3.69	-48.3	-53.5	9.9	4.76e-03	0	41	0	12582912	60	17087
2026-01-23 00:09:37.21	152.45	3.76	-50.0	-64.9	3.6	1.39e+00	0	41	104	12582912	60	63518
2026-01-23 00:09:38.22	152.45	3.83	-45.1	-47.3	16.0	1.42e+00	86	41	104	12582912	60	8403
2026-01-23 00:09:39.23	152.44	3.90	-49.9	-64.4	3.6	1.43e+00	0	41	104	12582912	60	60270
2026-01-23 00:09:40.24	152.44	3.97	-49.4	-57.5	8.5	1.48e+00	92	41	104	12582912	60	27216
2026-01-23 00:09:41.25	152.44	4.03	-49.6	-60.8	4.0	9.35e-03	0	41	104	12582912	60	39504
2026-01-23 00:09:42.26	152.44	4.10	-46.3	-49.2	14.8	1.50e-06	74	41	0	12582912	60	10439
2026-01-23 00:09:43.27	152.44	4.17	-46.8	-50.1	14.0	0.00e+00	0	41	0	14680064	60	11598
2026-01-23 00:09:44.28	152.43	4.25	-46.1	-48.8	15.3	0.00e+00	92	41	0	15728640	60	9902
2026-01-23 00:09:45.29	152.43	4.32	-46.2	-48.9	15.2	0.00e+00	0	41	0	17825792	60	10106
2026-01-23 00:09:46.30	152.43	4.39	-45.9	-48.4	15.7	0.00e+00	92	41	0	19922944	60	9522
2026-01-23 00:09:47.31	152.43	4.46	-45.4	-47.8	16.3	0.00e+00	90	41	0	22020096	60	8840
2026-01-23 00:09:48.32	152.43	4.53	-45.6	-48.1	16.1	0.00e+00	0	41	0	24117248	60	9162
2026-01-23 00:09:49.32	152.42	4.60	-45.3	-47.5	16.6	0.00e+00	90	41	0	25165824	60	8587
2026-01-23 00:09:50.33	152.42	4.67	-45.7	-48.2	15.9	0.00e+00	0	41	0	27262976	60	9290
2026-01-23 00:09:51.34	152.42	4.74	-45.3	-47.6	16.6	0.00e+00	92	41	0	29360128	60	8644
2026-01-23 00:09:52.35	152.42	4.81	-45.7	-48.1	16.0	0.00e+00	0	41	0	31457280	60	9225
2026-01-23 00:09:53.37	152.42	4.89	-45.2	-47.4	16.7	0.00e+00	92	41	0	33554432	60	8482
2026-01-23 00:09:54.38	152.41	4.96	-45.1	-47.1	17.4	0.00e+00	89	41	0	34603008	60	8219
2026-01-23 00:09:55.39	152.41	5.03	-45.0	-47.1	17.2	0.00e+00	31	41	0	36700160	60	8187
2026-01-23 00:09:56.40	152.41	5.10	-44.7	-46.7	17.5	0.00e+00	92	41	0	38797312	60	7785
2026-01-23 00:09:57.41	152.41	5.18	-44.7	-46.6	17.5	0.00e+00	0	41	0	40894464	60	7705
2026-01-23 00:09:58.42	152.41	5.25	-44.6	-46.6	17.7	0.00e+00	92	41	0	42991616	60	7692
2026-01-23 00:09:59.43	152.40	5.32	-44.8	-46.8	17.3	0.00e+00	0	41	0	44040192	60	7914
2026-01-23 00:10:00.44	152.40	5.40	-44.6	-46.5	17.7	0.00e+00	91	41	0	46137344	60	7658
2026-01-23 00:10:01.45	152.40	5.47	-44.7	-46.7	17.6	0.00e+00	91	41	0	48234496	60	7783
2026-01-23 00:10:02.46	152.40	5.54	-44.6	-46.5	17.7	0.00e+00	0	41	0	50331648	60	7675
2026-01-23 00:10:03.47	152.39	5.62	-44.6	-46.4	17.8	0.00e+00	85	41	0	52428800	60	7572
2026-01-23 00:10:04.48	152.39	5.69	-44.9	-47.0	17.3	0.00e+00	0	41	0	53477376	60	8063
2026-01-23 00:10:05.49	152.39	5.77	-44.4	-46.2	18.0	0.00e+00	92	41	0	55574528	60	7363
2026-01-23 00:10:06.50	152.39	5.84	-44.5	-46.3	17.9	0.00e+00	0	41	0	57671680	60	7471
2026-01-23 00:10:07.51	152.38	5.92	-44.5	-46.4	18.0	0.00e+00	92	41	0	59768832	60	7558
2026-01-23 00:10:08.51	152.38	5.99	-44.6	-46.5	17.9	0.00e+00	0	41	0	61865984	60	7637
2026-01-23 00:10:09.52	152.38	6.07	-44.7	-46.6	17.7	0.00e+00	29	41	0	62914560	60	7702
2026-01-23 00:10:10.53	152.38	6.14	-44.5	-46.3	17.9	0.00e+00	92	41	0	65011712	60	7453
2026-01-23 00:10:11.54	152.37	6.22	-44.7	-46.7	17.7	0.00e+00	0	41	0	67108864	60	7789
2026-01-23 00:10:12.55	152.37	6.29	-44.4	-46.3	18.0	0.00e+00	92	41	0	69206016	60	7427
2026-01-23 00:10:13.56	152.37	6.37	-44.5	-46.3	18.1	0.00e+00	0	41	0	71303168	60	7439
2026-01-23 00:10:14.57	152.37	6.45	-44.4	-46.2	18.1	0.00e+00	87	41	0	72351744	60	7391
2026-01-23 00:10:15.58	152.36	6.52	-44.5	-46.4	17.9	0.00e+00	33	41	0	74448896	60	7521
2026-01-23 00:10:16.59	152.36	6.60	-44.5	-46.3	18.0	0.00e+00	92	41	0	76546048	60	7426
2026-01-23 00:10:17.60	152.36	6.68	-44.2	-45.9	18.3	0.00e+00	92	41	0	78643200	60	7159
2026-01-23 00:10:18.61	152.35	6.75	-43.9	-45.5	18.8	0.00e+00	0	41	0	80740352	60	6832
2026-01-23 00:10:19.62	152.35	6.83	-44.1	-45.7	18.6	0.00e+00	83	41	0	82837504	60	7001
2026-01-23 00:10:20.63	152.35	6.91	-44.1	-45.8	18.6	0.00e+00	0	41	0	83886080	60	7027
2026-01-23 00:10:21.64	152.35	6.99	-43.9	-45.5	18.8	0.00e+00	88	41	0	85983232	60	6801
2026-01-23 00:10:22.65	152.34	7.07	-43.9	-45.5	18.8	0.00e+00	17	41	0	88080384	60	6847
2026-01-23 00:10:23.66	152.34	7.14	-44.1	-45.7	18.8	0.00e+00	92	41	0	90177536	60	6993
2026-01-23 00:10:24.67	152.34	7.22	-43.9	-45.5	18.7	0.00e+00	92	41	0	92274688	60	6838
2026-01-23 00:10:25.68	152.33	7.30	-44.1	-45.7	18.7	0.00e+00	0	41	0	93323264	60	6976
2026-01-23 00:10:26.69	152.33	7.38	-43.9	-45.6	18.8	0.00e+00	72	41	0	95420416	60	6869
2026-01-23 00:10:27.70	152.33	7.46	-44.1	-45.8	18.6	0.00e+00	0	41	0	97517568	60	7051
2026-01-23 00:10:28.71	152.32	7.54	-43.7	-45.3	19.1	0.00e+00	77	41	0	99614720	60	6673
2026-01-23 00:10:29.72	152.32	7.62	-43.8	-45.4	19.0	0.00e+00	0	41	0	101711872	60	6764
2026-01-23 00:10:30.73	152.32	7.70	-43.9	-45.6	18.8	0.00e+00	92	41	0	102760448	60	6856
2026-01-23 00:10:31.74	152.31	7.78	-43.9	-45.5	18.9	0.00e+00	92	41	0	104857600	60	6832
2026-01-23 00:10:32.75	152.31	7.86	-44.0	-45.6	18.9	0.00e+00	0	41	0	106954752	60	6888
2026-01-23 00:10:33.76	152.31	7.94	-43.8	-45.4	19.1	0.00e+00	92	41	0	109051904	60	6756
2026-01-23 00:10:34.77	152.30	8.03	-43.5	-45.0	19.5	0.00e+00	0	41	0	111149056	60	6396
2026-01-23 00:10:35.78	152.30	8.11	-43.7	-45.3	19.1	0.00e+00	91	41	0	112197632	60	6674
2026-01-23 00:10:36.79	152.30	8.19	-43.9	-45.5	19.1	0.00e+00	0	41	0	114294784	60	6793
2026-01-23 00:10:37.80	152.29	8.27	-43.4	-45.0	19.4	0.00e+00	92	41	0	116391936	60	6393
2026-01-23 00:10:38.81	152.29	8.35	-43.6	-45.2	19.3	0.00e+00	92	41	0	118489088	60	6548
2026-01-23 00:10:39.82	152.29	8.44	-43.3	-44.7	19.7	0.00e+00	0	41	0	120586240	60	6224
2026-01-23 00:10:40.83	152.28	8.52	-43.6	-45.1	19.3	0.00e+00	92	41	0	121634816	60	6505
2026-01-23 00:10:41.84	152.28	8.60	-43.1	-44.6	19.8	0.00e+00	0	41	0	123731968	60	6121
2026-01-23 00:10:42.85	152.28	8.69	-43.1	-44.6	19.8	0.00e+00	92	41	0	125829120	60	6108
2026-01-23 00:10:43.85	152.27	8.77	-43.2	-44.7	19.7	0.00e+00	0	41	0	127926272	60	6195
2026-01-23 00:10:44.86	152.27	8.85	-43.2	-44.6	19.8	0.00e+00	92	41	0	130023424	60	6160
2026-01-23 00:10:45.87	152.26	8.94	-43.1	-44.6	19.8	0.00e+00	70	41	0	131072000	60	6122
2026-01-23 00:10:46.88	152.26	9.02	-43.1	-44.6	19.8	0.00e+00	5	41	0	133169152	60	6125
2026-01-23 00:10:47.89	152.26	9.11	-42.9	-44.3	20.0	0.00e+00	90	41	0	135266304	60	5940
2026-01-23 00:10:48.90	152.25	9.19	-43.1	-44.5	20.0	0.00e+00	0	41	0	137363456	60	6037
2026-01-23 00:10:49.91	152.25	9.28	-42.9	-44.2	20.2	0.00e+00	90	41	0	139460608	60	5892
2026-01-23 00:10:50.92	152.25	9.36	-43.0	-44.4	19.9	0.00e+00	0	41	0	140509184	60	5991
2026-01-23 00:10:51.93	152.24	9.45	-43.3	-44.8	19.7	0.00e+00	90	41	0	142606336	60	6265
2026-01-23 00:10:52.94	152.24	9.54	-43.1	-44.5	19.9	0.00e+00	29	41	0	144703488	60	6066
2026-01-23 00:10:53.95	152.23	9.62	-43.1	-44.5	19.9	0.00e+00	53	41	0	146800640	60	6071
2026-01-23 00:10:54.96	152.23	9.71	-43.2	-44.6	19.9	0.00e+00	92	41	0	148897792	60	6155
2026-01-23 00:10:55.97	152.22	9.80	-42.8	-44.2	20.3	0.00e+00	0	41	0	150994944	60	5835
2026-01-23 00:10:56.98	152.22	9.88	-43.0	-44.4	20.0	0.00e+00	72	41	0	152043520	60	6015
2026-01-23 00:10:57.99	152.22	9.97	-42.9	-44.2	20.2	0.00e+00	0	41	0	154140672	60	5875
2026-01-23 00:10:59.00	152.21	10.06	-43.1	-44.5	20.0	0.00e+00	92	41	0	156237824	60	6039
2026-01-23 00:11:00.01	152.21	10.15	-43.0	-44.3	20.2	0.00e+00	2	41	0	158334976	60	5964
2026-01-23 00:11:01.02	152.20	10.24	-42.7	-44.1	20.3	0.00e+00	92	41	0	160432128	58	6471
2026-01-23 00:11:02.03	152.20	10.33	-42.5	-43.8	20.6	0.00e+00	92	41	0	161480704	58	6271
2026-01-23 00:11:03.04	152.19	10.42	-42.5	-43.8	20.6	0.00e+00	0	41	0	163577856	58	6259
2026-01-23 00:11:04.05	152.19	10.51	-42.4	-43.6	20.7	0.00e+00	92	41	0	165675008	58	6143
2026-01-23 00:11:05.06	152.18	10.60	-42.4	-43.7	20.6	0.00e+00	0	41	0	167772160	58	6207
2026-01-23 00:11:06.07	152.18	10.69	-42.5	-43.8	20.7	0.00e+00	92	41	0	169869312	58	6261
2026-01-23 00:11:07.08	152.18	10.78	-42.4	-43.6	20.7	0.00e+00	0	41	0	170917888	58	6168
2026-01-23 00:11:08.09	152.17	10.87	-42.4	-43.7	20.7	0.00e+00	92	41	0	173015040	58	6181
2026-01-23 00:11:09.10	152.17	10.96	-42.4	-43.6	20.8	0.00e+00	93	41	0	175112192	58	6170
2026-01-23 00:11:10.11	152.16	11.05	-42.4	-43.7	20.7	0.00e+00	0	41	0	177209344	58	6196
2026-01-23 00:11:11.12	152.16	11.14	-42.5	-43.8	20.6	0.00e+00	89	41	0	179306496	58	6285
2026-01-23 00:11:12.13	152.15	11.24	-42.3	-43.5	20.8	0.00e+00	0	41	0	180355072	58	6075
2026-01-23 00:11:13.14	152.15	11.33	-42.2	-43.5	20.9	0.00e+00	77	41	0	182452224	58	6039
2026-01-23 00:11:14.15	152.14	11.42	-42.3	-43.5	20.9	0.00e+00	0	41	0	184549376	58	6089
2026-01-23 00:11:15.16	152.14	11.52	-42.3	-43.5	20.9	0.00e+00	90	41	0	186646528	58	6050
2026-01-23 00:11:16.17	152.13	11.61	-42.0	-43.2	21.1	0.00e+00	67	41	0	188743680	58	5855
2026-01-23 00:11:17.18	152.12	11.70	-42.0	-43.2	21.3	0.00e+00	22	41	0	189792256	58	5879
2026-01-23 00:11:18.19	152.12	11.80	-42.1	-43.3	21.1	0.00e+00	92	41	0	191889408	58	5903
2026-01-23 00:11:19.20	152.11	11.89	-42.0	-43.3	21.2	0.00e+00	0	41	0	193986560	58	5902
2026-01-23 00:11:20.21	152.11	11.99	-41.8	-43.0	21.3	0.00e+00	92	41	0	196083712	58	5737
2026-01-23 00:11:21.22	152.10	12.09	-41.9	-43.1	21.2	0.00e+00	0	41	0	198180864	58	5823
2026-01-23 00:11:22.23	152.10	12.18	-41.7	-42.8	21.5	0.00e+00	92	41	0	199229440	56	6317
2026-01-23 00:11:23.24	152.09	12.28	-41.9	-43.1	21.3	0.00e+00	92	41	0	201326592	56	6504
2026-01-23 00:11:24.25	152.09	12.38	-41.8	-43.0	21.5	0.00e+00	53	41	0	203423744	56	6410
2026-01-23 00:11:25.26	152.08	12.47	-41.5	-42.7	21.7	0.00e+00	92	41	0	205520896	56	6178
2026-01-23 00:11:26.27	152.07	12.57	-41.6	-42.8	21.6	0.00e+00	0	41	0	207618048	56	6275
2026-01-23 00:11:27.27	152.07	12.67	-41.8	-43.0	21.5	0.00e+00	90	41	0	208666624	56	6404
2026-01-23 00:11:28.29	152.06	12.77	-41.7	-42.8	21.6	0.00e+00	0	41	0	210763776	56	6289
2026-01-23 00:11:29.29	152.06	12.86	-41.7	-42.9	21.5	0.00e+00	92	41	0	212860928	56	6320
2026-01-23 00:11:30.31	152.05	12.96	-41.8	-42.9	21.5	0.00e+00	92	41	0	214958080	56	6389
2026-01-23 00:11:31.31	152.05	13.06	-41.8	-43.0	21.6	0.00e+00	92	41	0	217055232	56	6406
2026-01-23 00:11:32.32	152.04	13.16	-41.7	-42.8	21.6	0.00e+00	90	41	0	219152384	56	6309
2026-01-23 00:11:33.33	152.03	13.26	-41.6	-42.7	21.7	0.00e+00	0	41	0	220200960	56	6199
2026-01-23 00:11:34.34	152.03	13.37	-41.6	-42.7	21.8	0.00e+00	92	41	0	222298112	56	6195
2026-01-23 00:11:35.35	152.02	13.47	-41.6	-42.7	21.7	0.00e+00	0	41	0	224395264	56	6188
2026-01-23 00:11:36.37	152.01	13.57	-41.3	-42.4	22.0	0.00e+00	93	41	0	226492416	56	6011
2026-01-23 00:11:37.37	152.01	13.67	-41.3	-42.4	22.0	0.00e+00	0	41	0	228589568	56	6001
2026-01-23 00:11:38.38	152.00	13.77	-41.2	-42.2	22.1	0.00e+00	92	41	0	229638144	56	5869
2026-01-23 00:11:39.40	151.99	13.88	-41.1	-42.2	22.1	0.00e+00	92	41	0	231735296	56	5855
2026-01-23 00:11:40.40	151.99	13.98	-41.2	-42.3	22.1	0.00e+00	0	41	0	233832448	56	5924
2026-01-23 00:11:41.41	151.98	14.08	-41.1	-42.1	22.2	0.00e+00	75	41	0	235929600	56	5807
2026-01-23 00:11:42.42	151.97	14.19	-41.1	-42.1	22.1	0.00e+00	0	41	0	238026752	56	5821
2026-01-23 00:11:43.43	151.97	14.29	-41.1	-42.2	22.1	0.00e+00	92	41	0	239075328	56	5846
2026-01-23 00:11:44.44	151.96	14.40	-41.1	-42.1	22.1	0.00e+00	0	41	0	241172480	56	5803
2026-01-23 00:11:45.45	151.95	14.50	-41.1	-42.2	22.1	0.00e+00	92	41	0	243269632	56	5861
2026-01-23 00:11:46.46	151.95	14.61	-41.1	-42.2	22.2	0.00e+00	92	41	0	245366784	56	5864
2026-01-23 00:11:47.47	151.94	14.72	-41.0	-42.1	22.3	0.00e+00	0	41	0	247463936	56	5780
2026-01-23 00:11:48.48	151.93	14.82	-41.0	-42.1	22.3	0.00e+00	92	41	0	248512512	56	5784
2026-01-23 00:11:49.48	151.92	14.93	-40.9	-42.0	22.3	0.00e+00	0	41	0	250609664	56	5711
2026-01-23 00:11:50.49	151.92	15.04	-40.9	-41.9	22.3	0.00e+00	90	41	0	252706816	56	5677
2026-01-23 00:11:51.50	151.91	15.15	-40.9	-41.9	22.3	0.00e+00	0	41	0	254803968	56	5668
2026-01-23 00:11:52.51	151.90	15.26	-40.7	-41.8	22.5	0.00e+00	92	41	0	256901120	54	6249
2026-01-23 00:11:53.52	151.89	15.37	-40.5	-41.5	22.6	0.00e+00	42	41	0	257949696	54	6082
2026-01-23 00:11:54.53	151.89	15.48	-40.4	-41.3	22.3	0.00e+00	0	41	0	260046848	54	5964
2026-01-23 00:11:55.54	151.88	15.59	-40.3	-41.3	22.8	0.00e+00	37	41	0	262144000	54	5931
2026-01-23 00:11:56.55	151.87	15.70	-40.3	-41.3	22.6	0.00e+00	0	41	0	264241152	54	5900
2026-01-23 00:11:57.56	151.86	15.81	-40.2	-41.2	22.9	0.00e+00	92	41	0	266338304	54	5831
2026-01-23 00:11:58.57	151.85	15.92	-40.2	-41.2	22.8	0.00e+00	0	41	0	267386880	54	5857
2026-01-23 00:11:59.58	151.85	16.03	-40.2	-41.2	22.9	0.00e+00	92	41	0	269484032	54	5846
2026-01-23 00:12:00.59	151.84	16.15	-40.2	-41.1	23.0	0.00e+00	92	41	0	271581184	54	5808
2026-01-23 00:12:01.60	151.83	16.26	-39.9	-40.8	23.2	0.00e+00	0	41	0	273678336	54	5612
2026-01-23 00:12:02.61	151.82	16.38	-40.1	-41.0	23.1	0.00e+00	92	41	0	275775488	54	5744
2026-01-23 00:12:03.62	151.81	16.49	-40.0	-40.9	23.1	0.00e+00	31	41	0	276824064	54	5654
2026-01-23 00:12:04.63	151.80	16.61	-40.0	-40.9	23.0	0.00e+00	86	41	0	278921216	54	5670
2026-01-23 00:12:05.64	151.80	16.72	-40.1	-41.1	23.1	0.00e+00	0	41	0	281018368	54	5768
2026-01-23 00:12:06.65	151.79	16.84	-40.1	-41.0	23.0	0.00e+00	92	41	0	283115520	54	5734
2026-01-23 00:12:07.66	151.78	16.95	-40.1	-41.1	23.1	0.00e+00	2	41	0	285212672	54	5765
2026-01-23 00:12:08.67	151.77	17.07	-40.2	-41.1	22.9	0.00e+00	13	41	0	287309824	54	5824
2026-01-23 00:12:09.68	151.76	17.19	-40.3	-41.2	22.9	0.00e+00	92	41	0	288358400	54	5880
2026-01-23 00:12:10.68	151.75	17.31	-40.4	-41.4	22.8	0.00e+00	0	41	0	290455552	54	6011
2026-01-23 00:12:11.69	151.74	17.43	-39.9	-40.8	23.2	0.00e+00	60	41	0	292552704	54	5618
2026-01-23 00:12:12.70	151.73	17.55	-40.1	-41.0	23.1	0.00e+00	0	41	0	294649856	54	5738
2026-01-23 00:12:13.71	151.72	17.67	-40.1	-41.1	23.0	0.00e+00	92	41	0	296747008	54	5774
2026-01-23 00:12:14.72	151.71	17.79	-40.1	-41.0	23.1	0.00e+00	30	41	0	297795584	54	5751
2026-01-23 00:12:15.73	151.70	17.91	-40.2	-41.1	23.0	0.00e+00	90	41	0	299892736	54	5797
2026-01-23 00:12:16.74	151.69	18.03	-40.1	-41.0	23.0	0.00e+00	92	41	0	301989888	54	5761
2026-01-23 00:12:17.75	151.68	18.15	-40.0	-41.0	23.2	0.00e+00	0	41	0	304087040	54	5709
2026-01-23 00:12:18.76	151.67	18.28	-40.0	-40.9	23.2	0.00e+00	88	41	0	306184192	54	5663
2026-01-23 00:12:19.77	151.66	18.40	-40.0	-40.9	23.3	0.00e+00	0	41	0	307232768	54	5692
2026-01-23 00:12:20.78	151.65	18.53	-40.0	-41.0	23.2	0.00e+00	90	41	0	309329920	54	5697
2026-01-23 00:12:21.79	151.64	18.65	-40.0	-40.9	23.2	0.00e+00	5	41	0	311427072	54	5652
2026-01-23 00:12:22.80	151.63	18.78	-40.1	-41.0	23.2	0.00e+00	92	41	0	313524224	54	5720
2026-01-23 00:12:23.81	151.62	18.90	-40.1	-41.0	23.1	0.00e+00	90	41	0	315621376	54	5727
2026-01-23 00:12:24.82	151.61	19.03	-39.8	-40.7	23.4	0.00e+00	0	41	0	316669952	54	5511
2026-01-23 00:12:25.83	151.60	19.16	-39.9	-40.8	23.4	0.00e+00	59	41	0	318767104	52	6304
2026-01-23 00:12:26.83	151.59	19.29	-39.8	-40.7	23.5	0.00e+00	0	41	0	320864256	52	6233
2026-01-23 00:12:27.84	151.58	19.42	-39.6	-40.5	23.5	0.00e+00	91	41	0	322961408	52	6093
2026-01-23 00:12:28.85	151.57	19.55	-39.8	-40.7	23.5	0.00e+00	0	41	0	325058560	52	6194
2026-01-23 00:12:29.86	151.56	19.68	-39.9	-40.8	23.3	0.00e+00	92	41	0	326107136	52	6268
2026-01-23 00:12:30.87	151.55	19.81	-39.9	-40.8	23.3	0.00e+00	90	41	0	328204288	52	6267
2026-01-23 00:12:31.88	151.54	19.94	-40.0	-40.9	23.3	0.00e+00	0	41	0	330301440	52	6356
2026-01-23 00:12:32.89	151.52	20.07	-40.0	-41.0	23.3	0.00e+00	69	41	0	332398592	52	6413
2026-01-23 00:12:33.90	151.51	20.21	-40.2	-41.1	23.2	0.00e+00	0	41	0	334495744	52	6523
2026-01-23 00:12:34.91	151.50	20.34	-40.3	-41.2	23.0	0.00e+00	92	41	0	335544320	52	6584
2026-01-23 00:12:35.92	151.49	20.47	-40.2	-41.2	23.1	0.00e+00	0	41	0	337641472	52	6553
2026-01-23 00:12:36.93	151.48	20.61	-40.5	-41.5	23.0	0.00e+00	92	41	0	339738624	52	6798
2026-01-23 00:12:37.94	151.46	20.75	-40.4	-41.4	22.9	0.00e+00	92	41	0	341835776	52	6706
2026-01-23 00:12:38.95	151.45	20.88	-40.5	-41.4	22.9	0.00e+00	0	41	0	343932928	52	6763
2026-01-23 00:12:39.96	151.44	21.02	-40.4	-41.4	22.8	0.00e+00	92	41	0	344981504	52	6756
2026-01-23 00:12:40.97	151.43	21.16	-40.5	-41.5	22.8	0.00e+00	0	41	0	347078656	52	6805
2026-01-23 00:12:41.98	151.41	21.30	-40.5	-41.5	22.8	0.00e+00	92	41	0	349175808	52	6823
2026-01-23 00:12:42.99	151.40	21.44	-40.5	-41.5	22.9	0.00e+00	0	41	0	351272960	52	6796
2026-01-23 00:12:44.00	151.39	21.58	-40.5	-41.5	22.8	0.00e+00	92	41	0	353370112	54	6067
2026-01-23 00:12:45.01	151.37	21.72	-40.2	-41.2	23.0	0.00e+00	92	41	0	355467264	54	5858
2026-01-23 00:12:46.02	151.36	21.86	-40.4	-41.4	23.0	0.00e+00	54	41	0	356515840	54	5967
2026-01-23 00:12:47.03	151.35	22.01	-40.2	-41.1	23.1	0.00e+00	91	41	0	358612992	54	5825
2026-01-23 00:12:48.04	151.33	22.15	-40.4	-41.3	23.0	0.00e+00	0	41	0	360710144	54	5952
2026-01-23 00:12:49.05	151.32	22.29	-40.3	-41.3	23.0	0.00e+00	63	41	0	362807296	54	5925
2026-01-23 00:12:50.06	151.30	22.44	-40.5	-41.5	22.8	0.00e+00	0	41	0	364904448	54	6045
2026-01-23 00:12:51.07	151.29	22.59	-40.4	-41.4	22.9	0.00e+00	92	41	0	365953024	54	5996
2026-01-23 00:12:52.08	151.28	22.73	-40.4	-41.4	22.9	0.00e+00	0	41	0	368050176	54	5981
2026-01-23 00:12:53.09	151.26	22.88	-40.4	-41.4	22.8	0.00e+00	92	41	0	370147328	54	5987
2026-01-23 00:12:54.10	151.25	23.03	-40.5	-41.5	22.8	0.00e+00	92	41	0	372244480	54	6074
2026-01-23 00:12:55.11	151.23	23.18	-40.3	-41.3	22.9	0.00e+00	0	41	0	374341632	54	5941
2026-01-23 00:12:56.12	151.22	23.33	-40.4	-41.4	22.9	0.00e+00	65	41	0	375390208	54	6019
2026-01-23 00:12:57.13	151.20	23.48	-40.2	-41.1	23.2	0.00e+00	0	41	0	377487360	54	5817
2026-01-23 00:12:58.14	151.19	23.64	-40.0	-40.9	23.3	0.00e+00	92	41	0	379584512	54	5682
2026-01-23 00:12:59.15	151.17	23.79	-39.8	-40.7	23.4	0.00e+00	0	41	0	381681664	54	5540
2026-01-23 00:13:00.16	151.15	23.94	-40.0	-40.9	23.3	0.00e+00	92	41	0	383778816	54	5659
2026-01-23 00:13:01.17	151.14	24.10	-40.0	-40.9	23.3	0.00e+00	90	41	0	384827392	54	5673
2026-01-23 00:13:02.17	151.12	24.25	-39.9	-40.8	23.5	0.00e+00	0	41	0	386924544	54	5605
2026-01-23 00:13:03.18	151.11	24.41	-40.0	-40.9	23.3	0.00e+00	23	41	0	389021696	54	5652
2026-01-23 00:13:04.19	151.09	24.57	-40.1	-41.0	23.2	0.00e+00	7	41	0	391118848	52	6455
2026-01-23 00:13:05.20	151.07	24.73	-40.2	-41.1	23.3	0.00e+00	92	41	0	393216000	52	6510
2026-01-23 00:13:06.22	151.06	24.89	-40.4	-41.4	23.0	0.00e+00	0	41	0	394264576	52	6732
2026-01-23 00:13:07.23	151.04	25.05	-40.6	-41.6	22.8	0.00e+00	91	41	0	396361728	52	6864
2026-01-23 00:13:08.23	151.02	25.21	-40.6	-41.6	22.9	0.00e+00	9	41	0	398458880	52	6854
2026-01-23 00:13:09.24	151.00	25.37	-40.8	-41.8	22.6	0.00e+00	0	41	0	400556032	52	7027
2026-01-23 00:13:10.25	150.99	25.54	-40.4	-41.4	23.0	0.00e+00	91	41	0	402653184	54	5978
2026-01-23 00:13:11.26	150.97	25.70	-40.2	-41.2	23.2	0.00e+00	0	41	0	403701760	54	5830
2026-01-23 00:13:12.27	150.95	25.87	-40.3	-41.2	23.2	0.00e+00	91	41	0	405798912	54	5887
2026-01-23 00:13:13.28	150.93	26.03	-40.0	-41.0	23.4	0.00e+00	0	41	0	407896064	54	5708
2026-01-23 00:13:14.29	150.91	26.20	-40.1	-41.0	23.3	0.00e+00	91	41	0	409993216	54	5708
2026-01-23 00:13:15.30	150.89	26.37	-40.1	-41.0	23.2	0.00e+00	92	41	0	412090368	54	5758
2026-01-23 00:13:16.31	150.87	26.54	-40.4	-41.3	23.1	0.00e+00	0	41	0	413138944	54	5943
2026-01-23 00:13:17.32	150.85	26.71	-40.7	-41.7	22.7	0.00e+00	92	41	0	415236096	54	6182
2026-01-23 00:13:18.32	150.83	26.88	-40.4	-41.3	22.9	0.00e+00	0	41	0	417333248	54	5953
2026-01-23 00:13:19.33	150.81	27.06	-40.7	-41.7	22.8	0.00e+00	92	41	0	419430400	54	6204
2026-01-23 00:13:20.34	150.79	27.23	-40.9	-41.9	22.7	0.00e+00	0	41	0	421527552	54	6345
2026-01-23 00:13:21.35	150.77	27.41	-41.1	-42.2	22.4	0.00e+00	90	41	0	423624704	54	6544
2026-01-23 00:13:22.36	150.75	27.58	-41.5	-42.5	22.0	0.00e+00	7	41	0	424673280	54	6848
2026-01-23 00:13:23.37	150.73	27.76	-41.5	-42.5	22.1	0.00e+00	64	41	0	426770432	54	6838
2026-01-23 00:13:24.38	150.71	27.94	-41.4	-42.5	22.2	0.00e+00	92	41	0	428867584	54	6788
2026-01-23 00:13:25.39	150.69	28.12	-41.3	-42.3	22.1	0.00e+00	0	41	0	430964736	54	6670
2026-01-23 00:13:26.40	150.67	28.30	-41.1	-42.1	22.5	0.00e+00	69	41	0	433061888	54	6490
2026-01-23 00:13:27.41	150.65	28.48	-41.2	-42.2	22.4	0.00e+00	0	41	0	434110464	54	6576
2026-01-23 00:13:28.42	150.62	28.67	-41.2	-42.2	22.3	0.00e+00	92	41	0	436207616	54	6553
2026-01-23 00:13:29.43	150.60	28.85	-41.0	-42.0	22.5	0.00e+00	9	41	0	438304768	54	6438
2026-01-23 00:13:30.44	150.58	29.04	-41.1	-42.1	22.5	0.00e+00	92	41	0	440401920	54	6466
2026-01-23 00:13:31.45	150.55	29.23	-41.3	-42.3	22.3	0.00e+00	92	41	0	442499072	54	6649
2026-01-23 00:13:32.46	150.53	29.41	-41.4	-42.4	22.1	0.00e+00	0	41	0	443547648	54	6719
2026-01-23 00:13:33.47	150.51	29.60	-41.5	-42.6	22.0	0.00e+00	92	41	0	445644800	56	6116
2026-01-23 00:13:34.48	150.48	29.80	-41.9	-43.0	21.7	0.00e+00	0	41	0	447741952	56	6442
2026-01-23 00:13:35.49	150.46	29.99	-42.1	-43.3	21.6	0.00e+00	88	41	0	449839104	56	6619
2026-01-23 00:13:36.50	150.43	30.18	-42.1	-43.2	21.7	0.00e+00	0	41	0	451936256	56	6609
2026-01-23 00:13:37.51	150.41	30.38	-41.9	-43.0	21.7	0.00e+00	90	41	0	452984832	56	6443
2026-01-23 00:13:38.52	150.38	30.57	-41.8	-42.8	22.0	0.00e+00	92	41	0	455081984	56	6287
2026-01-23 00:13:39.53	150.36	30.77	-41.8	-42.9	22.0	0.00e+00	0	41	0	457179136	56	6326
2026-01-23 00:13:40.54	150.33	30.97	-41.7	-42.7	22.0	0.00e+00	64	41	0	459276288	56	6237
2026-01-23 00:13:41.55	150.30	31.17	-41.8	-42.9	21.8	0.00e+00	0	41	0	461373440	56	6340
2026-01-23 00:13:42.56	150.27	31.37	-42.2	-43.3	21.6	0.00e+00	92	41	0	462422016	56	6643
2026-01-23 00:13:43.57	150.25	31.58	-42.4	-43.6	21.2	0.00e+00	0	41	0	464519168	56	6860
2026-01-23 00:13:44.58	150.22	31.78	-42.7	-43.9	21.0	0.00e+00	92	41	0	466616320	58	6324
2026-01-23 00:13:45.59	150.19	31.99	-43.2	-44.4	20.5	0.00e+00	92	41	0	468713472	58	6767
2026-01-23 00:13:46.60	150.16	32.19	-43.5	-44.9	20.5	0.00e+00	0	41	0	470810624	60	6335
2026-01-23 00:13:47.61	150.13	32.40	-43.8	-45.2	20.0	0.00e+00	73	41	0	471859200	60	6578
2026-01-23 00:13:48.62	150.10	32.61	-43.8	-45.2	20.0	0.00e+00	0	41	0	473956352	60	6587
2026-01-23 00:13:49.63	150.07	32.82	-43.7	-45.1	20.0	0.00e+00	92	41	0	476053504	60	6466
2026-01-23 00:13:50.64	150.04	33.04	-43.7	-45.1	20.0	0.00e+00	0	41	0	478150656	60	6537
2026-01-23 00:13:51.65	150.01	33.25	-43.7	-45.1	20.0	0.00e+00	92	41	0	480247808	60	6496
2026-01-23 00:13:52.66	149.98	33.47	-43.4	-44.7	20.4	0.00e+00	92	41	0	481296384	60	6224
2026-01-23 00:13:53.67	149.95	33.69	-43.3	-44.6	20.5	0.00e+00	8	41	0	483393536	60	6159
2026-01-23 00:13:54.68	149.92	33.91	-43.2	-44.5	20.6	0.00e+00	90	41	0	485490688	60	6091
2026-01-23 00:13:55.69	149.88	34.13	-43.5	-44.8	20.6	0.00e+00	0	41	0	487587840	60	6307
2026-01-23 00:13:56.69	149.85	34.35	-43.3	-44.6	20.5	0.00e+00	78	41	0	489684992	60	6144
2026-01-23 00:13:57.70	149.82	34.57	-42.7	-43.9	21.1	0.00e+00	0	41	0	491782144	58	6386
2026-01-23 00:13:58.71	149.78	34.80	-42.2	-43.4	21.5	0.00e+00	92	41	0	492830720	58	5976
2026-01-23 00:13:59.72	149.75	35.02	-41.4	-42.4	22.2	0.00e+00	75	41	0	494927872	56	6024
2026-01-23 00:14:00.73	149.71	35.25	-41.0	-42.0	22.6	0.00e+00	3	41	0	497025024	56	5759
2026-01-23 00:14:01.74	149.68	35.48	-40.5	-41.4	23.1	0.00e+00	91	41	0	499122176	54	6024
2026-01-23 00:14:02.75	149.64	35.72	-39.9	-40.7	23.6	0.00e+00	0	41	0	501219328	54	5552
2026-01-23 00:14:03.76	149.60	35.95	-40.1	-41.0	23.4	0.00e+00	92	41	0	502267904	52	6452
2026-01-23 00:14:04.77	149.57	36.19	-39.9	-40.7	23.7	0.00e+00	0	41	0	504365056	52	6237
2026-01-23 00:14:05.77	149.53	36.42	-39.8	-40.7	23.7	0.00e+00	92	41	0	506462208	52	6174
2026-01-23 00:14:06.78	149.49	36.66	-39.7	-40.5	23.7	0.00e+00	7	41	0	508559360	52	6102
2026-01-23 00:14:07.79	149.45	36.90	-39.2	-40.0	24.2	0.00e+00	92	41	0	510656512	52	5745
2026-01-23 00:14:08.80	149.41	37.14	-39.0	-39.8	24.2	0.00e+00	92	41	0	511705088	52	5616
2026-01-23 00:14:09.81	149.37	37.39	-38.9	-39.7	24.3	0.00e+00	0	41	0	513802240	52	5539
2026-01-23 00:14:10.82	149.33	37.63	-38.8	-39.6	24.4	0.00e+00	92	41	0	515899392	50	6120
2026-01-23 00:14:11.83	149.29	37.88	-38.7	-39.5	24.5	0.00e+00	0	41	0	517996544	50	6051
2026-01-23 00:14:12.84	149.24	38.13	-39.0	-39.9	24.1	0.00e+00	92	41	0	520093696	50	6341
2026-01-23 00:14:13.85	149.20	38.38	-39.4	-40.3	23.9	0.00e+00	5	41	0	521142272	50	6643
2026-01-23 00:14:14.86	149.16	38.64	-39.8	-40.7	23.6	0.00e+00	90	41	0	523239424	52	6212
2026-01-23 00:14:15.87	149.11	38.89	-40.4	-41.4	23.1	0.00e+00	92	41	0	525336576	52	6702
2026-01-23 00:14:16.88	149.07	39.15	-40.1	-41.1	23.3	0.00e+00	0	41	0	527433728	54	5774
2026-01-23 00:14:17.89	149.02	39.41	-40.4	-41.4	23.1	0.00e+00	69	41	0	529530880	54	6011
2026-01-23 00:14:18.90	148.97	39.67	-40.7	-41.7	23.1	0.00e+00	0	41	0	530579456	54	6174
2026-01-23 00:14:19.91	148.92	39.93	-40.0	-40.9	23.4	0.00e+00	92	41	0	532676608	54	5683
2026-01-23 00:14:20.92	148.87	40.20	-40.1	-41.1	23.3	0.00e+00	0	41	0	534773760	54	5804
2026-01-23 00:14:21.93	148.82	40.46	-40.7	-41.7	22.7	0.00e+00	92	41	0	536870912	54	6214
2026-01-23 00:14:22.94	148.77	40.73	-41.0	-42.0	22.7	0.00e+00	92	41	0	538968064	54	6436
2026-01-23 00:14:23.95	148.72	41.00	-41.2	-42.3	22.3	0.00e+00	0	41	0	540016640	54	6629
2026-01-23 00:14:24.95	148.67	41.27	-41.0	-42.1	22.6	0.00e+00	92	41	0	542113792	54	6473
2026-01-23 00:14:25.96	148.62	41.55	-41.5	-42.6	22.1	0.00e+00	0	41	0	544210944	54	6860
2026-01-23 00:14:26.97	148.56	41.83	-41.3	-42.3	22.3	0.00e+00	76	41	0	546308096	54	6674
2026-01-23 00:14:27.98	148.51	42.10	-41.7	-42.8	22.0	0.00e+00	0	41	0	548405248	56	6295
2026-01-23 00:14:28.99	148.45	42.39	-41.4	-42.4	22.3	0.00e+00	92	41	0	549453824	56	6025
2026-01-23 00:14:30.00	148.39	42.67	-41.6	-42.7	21.9	0.00e+00	90	41	0	551550976	56	6177
2026-01-23 00:14:31.01	148.33	42.95	-42.1	-43.3	21.8	0.00e+00	41	41	0	553648128	56	6627
2026-01-23 00:14:32.02	148.27	43.24	-41.9	-43.0	21.9	0.00e+00	92	41	0	555745280	56	6399
2026-01-23 00:14:33.03	148.21	43.53	-42.4	-43.6	21.4	0.00e+00	0	41	0	557842432	56	6906
2026-01-23 00:14:34.04	148.15	43.82	-42.7	-44.0	21.4	0.00e+00	76	41	0	559939584	58	6447
2026-01-23 00:14:35.05	148.09	44.12	-42.5	-43.7	21.4	0.00e+00	0	41	0	560988160	58	6216
2026-01-23 00:14:36.06	148.02	44.41	-42.2	-43.4	21.7	0.00e+00	92	41	0	563085312	58	5996
2026-01-23 00:14:37.07	147.96	44.71	-42.3	-43.5	21.7	0.00e+00	0	41	0	565182464	58	6034
2026-01-23 00:14:38.08	147.89	45.01	-41.6	-42.7	22.2	0.00e+00	67	41	0	567279616	56	6185
2026-01-23 00:14:39.09	147.82	45.31	-41.2	-42.2	22.5	0.00e+00	92	41	0	569376768	56	5872
2026-01-23 00:14:40.10	147.75	45.62	-41.0	-42.0	22.7	0.00e+00	0	41	0	570425344	56	5708
2026-01-23 00:14:41.11	147.68	45.93	-41.4	-42.4	22.6	0.00e+00	76	41	0	572522496	56	6029
2026-01-23 00:14:42.12	147.61	46.24	-41.6	-42.7	22.0	0.00e+00	0	41	0	574619648	56	6195
2026-01-23 00:14:43.13	147.53	46.55	-42.3	-43.5	21.9	0.00e+00	68	41	0	576716800	56	6807
2026-01-23 00:14:44.14	147.46	46.86	-42.9	-44.2	20.9	0.00e+00	0	41	0	578813952	58	6595
2026-01-23 00:14:45.14	147.38	47.18	-42.9	-44.1	21.0	0.00e+00	87	41	0	579862528	58	6512
2026-01-23 00:14:46.15	147.30	47.49	-42.3	-43.4	21.5	0.00e+00	92	41	0	581959680	58	6022
2026-01-23 00:14:47.16	147.22	47.82	-41.9	-42.9	21.9	0.00e+00	0	41	0	584056832	58	5676
2026-01-23 00:14:48.17	147.14	48.14	-41.9	-43.0	21.8	0.00e+00	38	41	0	586153984	56	6407
2026-01-23 00:14:49.18	147.05	48.47	-42.4	-43.6	21.4	0.00e+00	0	41	0	588251136	56	6888
2026-01-23 00:14:50.19	146.97	48.79	-43.1	-44.4	20.7	0.00e+00	92	41	0	589299712	58	6746
2026-01-23 00:14:51.20	146.88	49.12	-43.2	-44.5	20.5	0.00e+00	27	41	0	591396864	58	6839
2026-01-23 00:14:52.21	146.79	49.46	-43.0	-44.3	21.1	0.00e+00	92	41	0	593494016	58	6656
2026-01-23 00:14:53.22	146.70	49.79	-42.1	-43.2	21.6	0.00e+00	69	41	0	595591168	58	5850
2026-01-23 00:14:54.23	146.60	50.13	-42.3	-43.4	21.7	0.00e+00	6	41	0	597688320	58	6032
2026-01-23 00:14:55.24	146.50	50.47	-41.7	-42.7	22.3	0.00e+00	92	41	0	598736896	56	6240
2026-01-23 00:14:56.25	146.41	50.81	-41.0	-42.1	22.6	0.00e+00	0	41	0	600834048	54	6492
2026-01-23 00:14:57.26	146.30	51.16	-41.2	-42.2	22.6	0.00e+00	90	41	0	602931200	54	6600
2026-01-23 00:14:58.27	146.20	51.51	-41.0	-42.1	22.5	0.00e+00	27	41	0	605028352	54	6518
2026-01-23 00:14:59.28	146.09	51.86	-40.5	-41.5	23.2	0.00e+00	92	41	0	607125504	54	6047
2026-01-23 00:15:00.29	145.98	52.21	-39.8	-40.7	23.6	0.00e+00	92	41	0	608174080	54	5526
2026-01-23 00:15:01.30	145.87	52.56	-40.6	-41.6	23.0	0.00e+00	0	41	0	610271232	52	6902
2026-01-23 00:15:02.31	145.76	52.92	-40.9	-41.9	22.7	0.00e+00	92	41	0	612368384	54	6378
2026-01-23 00:15:03.32	145.64	53.28	-41.9	-43.0	22.0	0.00e+00	0	41	0	614465536	56	6439
2026-01-23 00:15:04.33	145.52	53.64	-42.1	-43.3	21.6	0.00e+00	92	41	0	616562688	56	6626
2026-01-23 00:15:05.34	145.40	54.01	-41.4	-42.4	22.6	0.00e+00	0	41	0	617611264	56	6027
2026-01-23 00:15:06.35	145.27	54.37	-39.8	-40.6	23.6	0.00e+00	92	41	0	619708416	54	5502
2026-01-23 00:15:07.36	145.14	54.74	-40.3	-41.2	23.2	0.00e+00	10	41	0	621805568	54	5894
2026-01-23 00:15:08.37	145.01	55.12	-40.0	-40.9	23.6	0.00e+00	50	41	0	623902720	52	6339
2026-01-23 00:15:09.38	144.87	55.49	-40.1	-41.1	23.4	0.00e+00	92	41	0	625999872	52	6466
2026-01-23 00:15:10.39	144.73	55.87	-40.4	-41.4	23.3	0.00e+00	0	41	0	628097024	54	6007
2026-01-23 00:15:11.39	144.58	56.24	-40.2	-41.1	23.2	0.00e+00	45	41	0	629145600	54	5804
2026-01-23 00:15:12.40	144.43	56.62	-40.1	-41.0	23.1	0.00e+00	0	41	0	631242752	54	5735
2026-01-23 00:15:13.41	144.28	57.01	-40.5	-41.5	22.8	0.00e+00	92	41	0	633339904	54	6053
2026-01-23 00:15:14.42	144.12	57.40	-41.1	-42.1	22.4	0.00e+00	11	41	0	635437056	54	6483
2026-01-23 00:15:15.43	143.96	57.78	-41.9	-43.0	21.9	0.00e+00	92	41	0	636485632	56	6411
2026-01-23 00:15:16.44	143.79	58.18	-42.6	-43.9	21.1	0.00e+00	91	41	0	638582784	56	7112
2026-01-23 00:15:17.45	143.62	58.57	-43.5	-45.0	20.2	0.00e+00	0	41	0	640679936	58	7224
2026-01-23 00:15:18.46	143.44	58.97	-43.8	-45.3	19.9	0.00e+00	92	41	0	642777088	60	6637
2026-01-23 00:15:19.47	143.26	59.36	-43.2	-44.4	20.6	0.00e+00	0	41	0	644874240	60	6029
2026-01-23 00:15:20.48	143.07	59.77	-41.8	-42.8	22.0	0.00e+00	91	41	0	645922816	58	5630
2026-01-23 00:15:21.49	142.87	60.17	-41.2	-42.2	22.5	0.00e+00	5	41	0	648019968	56	5864
2026-01-23 00:15:22.50	142.67	60.57	-40.7	-41.7	22.9	0.00e+00	91	41	0	650117120	54	6222
2026-01-23 00:15:23.51	142.46	60.98	-41.0	-42.1	22.6	0.00e+00	92	41	0	652214272	54	6515
2026-01-23 00:15:24.52	142.25	61.39	-41.2	-42.3	22.4	0.00e+00	0	41	0	654311424	54	6647
2026-01-23 00:15:25.53	142.02	61.80	-39.8	-40.7	23.8	0.00e+00	86	41	0	656408576	54	5543
2026-01-23 00:15:26.54	141.79	62.22	-39.0	-39.8	24.4	0.00e+00	0	41	0	657457152	52	5596
2026-01-23 00:15:27.55	141.55	62.63	-39.0	-39.8	24.4	0.00e+00	90	41	0	659554304	52	5599
2026-01-23 00:15:28.56	141.31	63.05	-39.4	-40.3	24.0	0.00e+00	0	41	0	661651456	52	5898
2026-01-23 00:15:29.57	141.05	63.47	-39.7	-40.6	23.6	0.00e+00	92	41	0	663748608	52	6146
2026-01-23 00:15:30.58	140.78	63.89	-39.7	-40.6	23.8	0.00e+00	92	41	0	665845760	52	6164
2026-01-23 00:15:31.59	140.51	64.32	-40.1	-41.0	23.4	0.00e+00	0	41	0	666894336	52	6435
2026-01-23 00:15:32.60	140.22	64.74	-40.7	-41.7	22.9	0.00e+00	92	41	0	668991488	52	6943
2026-01-23 00:15:33.61	139.92	65.17	-40.6	-41.6	23.0	0.00e+00	0	41	0	671088640	54	6114
2026-01-23 00:15:34.62	139.61	65.60	-40.6	-41.5	23.0	0.00e+00	90	41	0	673185792	54	6081
2026-01-23 00:15:35.63	139.29	66.03	-41.2	-42.2	22.5	0.00e+00	0	41	0	675282944	54	6591
2026-01-23 00:15:36.64	138.96	66.46	-42.0	-43.2	21.6	0.00e+00	92	41	0	676331520	56	6544
2026-01-23 00:15:37.64	138.61	66.89	-41.9	-43.1	21.8	0.00e+00	70	41	0	678428672	56	6471
2026-01-23 00:15:38.65	138.25	67.33	-40.6	-41.5	23.0	0.00e+00	0	41	0	680525824	54	6062
2026-01-23 00:15:39.66	137.87	67.77	-40.5	-41.5	23.0	0.00e+00	92	41	0	682622976	54	6048
2026-01-23 00:15:40.67	137.47	68.20	-42.0	-43.2	21.6	0.00e+00	0	41	0	684720128	54	7378
2026-01-23 00:15:41.68	137.06	68.64	-42.3	-43.6	21.4	0.00e+00	92	41	0	685768704	56	6857
2026-01-23 00:15:42.69	136.63	69.08	-42.4	-43.6	21.6	0.00e+00	0	41	0	687865856	56	6871
2026-01-23 00:15:43.70	136.17	69.53	-41.3	-42.3	22.8	0.00e+00	91	41	0	689963008	56	5908
2026-01-23 00:15:44.71	135.70	69.97	-42.0	-43.1	21.8	0.00e+00	92	41	0	692060160	56	6525
2026-01-23 00:15:45.72	135.20	70.41	-42.5	-43.7	21.4	0.00e+00	0	41	0	694157312	56	6941
2026-01-23 00:15:46.73	134.68	70.85	-42.7	-44.0	21.1	0.00e+00	90	41	0	695205888	58	6391
2026-01-23 00:15:47.74	134.13	71.30	-42.6	-43.8	21.3	0.00e+00	0	41	0	697303040	58	6294
2026-01-23 00:15:48.75	133.55	71.74	-41.2	-42.3	22.7	0.00e+00	91	41	0	699400192	56	5909
2026-01-23 00:15:49.75	132.95	72.18	-39.6	-40.4	23.8	0.00e+00	0	41	0	701497344	52	6023
2026-01-23 00:15:50.76	132.31	72.62	-38.6	-39.4	24.5	0.00e+00	90	41	0	703594496	50	6005
2026-01-23 00:15:51.77	131.63	73.07	-39.7	-40.6	23.7	0.00e+00	10	41	0	704643072	50	6883
2026-01-23 00:15:52.78	130.92	73.51	-39.2	-40.1	24.1	0.00e+00	92	41	0	706740224	52	5765
2026-01-23 00:15:53.79	130.16	73.95	-38.6	-39.3	24.6	0.00e+00	92	41	0	708837376	50	5956
2026-01-23 00:15:54.80	129.36	74.39	-40.0	-40.9	23.5	0.00e+00	0	41	0	710934528	52	6331
2026-01-23 00:15:55.82	128.50	74.83	-41.0	-42.0	22.5	0.00e+00	36	41	0	713031680	54	6456
2026-01-23 00:15:56.83	127.60	75.27	-41.3	-42.4	22.1	0.00e+00	0	41	0	714080256	54	6697
2026-01-23 00:15:57.83	126.65	75.70	-41.2	-42.2	22.5	0.00e+00	91	41	0	716177408	54	6587
2026-01-23 00:15:58.84	125.63	76.13	-42.7	-43.9	20.9	0.00e+00	12	41	0	718274560	58	6368
2026-01-23 00:15:59.85	124.53	76.56	-44.1	-45.7	19.1	0.00e+00	90	41	0	720371712	58	7818
2026-01-23 00:16:00.87	123.36	76.99	-43.3	-44.6	20.8	0.00e+00	92	41	0	722468864	60	6123
2026-01-23 00:16:01.87	122.13	77.41	-42.8	-44.0	20.6	0.00e+00	0	41	0	724566016	60	5756
2026-01-23 00:16:02.88	120.79	77.82	-42.9	-44.2	20.8	0.00e+00	46	41	0	725614592	58	6555
2026-01-23 00:16:03.89	119.36	78.23	-43.2	-44.5	20.4	0.00e+00	0	41	0	727711744	58	6788
2026-01-23 00:16:04.90	117.83	78.63	-43.2	-44.5	21.2	0.00e+00	92	41	0	729808896	58	6796
2026-01-23 00:16:05.91	116.18	79.03	-41.1	-42.0	22.6	0.00e+00	0	41	0	731906048	56	5754
2026-01-23 00:16:06.92	114.41	79.41	-41.3	-42.2	22.4	0.00e+00	90	41	0	734003200	56	5872
2026-01-23 00:16:07.93	112.51	79.79	-42.8	-44.0	21.3	0.00e+00	11	41	0	735051776	56	7187
2026-01-23 00:16:08.94	110.45	80.15	-40.9	-41.8	22.9	0.00e+00	0	41	0	737148928	56	5627
2026-01-23 00:16:09.95	108.24	80.50	-40.0	-40.9	23.5	0.00e+00	59	41	0	739246080	54	5645
2026-01-23 00:16:10.96	105.86	80.84	-39.3	-40.1	24.2	0.00e+00	0	41	0	741343232	52	5805
2026-01-23 00:16:11.97	103.30	81.16	-39.4	-40.3	24.1	0.00e+00	92	41	0	743440384	52	5917
2026-01-23 00:16:12.98	100.55	81.46	-40.1	-41.0	23.5	0.00e+00	0	41	0	744488960	52	6428
2026-01-23 00:16:13.99	97.61	81.75	-40.3	-41.2	23.5	0.00e+00	92	41	0	746586112	54	5895
2026-01-23 00:16:15.00	94.46	82.01	-40.5	-41.4	23.2	0.00e+00	11	41	0	748683264	54	5996
2026-01-23 00:16:16.01	91.10	82.24	-41.8	-42.9	21.6	0.00e+00	0	41	0	750780416	54	7166
2026-01-23 00:16:17.02	87.55	82.45	-42.2	-43.4	21.8	0.00e+00	92	41	0	752877568	58	5982
2026-01-23 00:16:18.03	83.82	82.62	-41.6	-42.6	22.4	0.00e+00	0	41	0	753926144	56	6153
2026-01-23 00:16:19.04	79.92	82.76	-41.8	-42.9	21.9	0.00e+00	75	41	0	756023296	56	6319
2026-01-23 00:16:20.04	75.91	82.87	-42.3	-43.4	21.8	0.00e+00	0	41	0	758120448	56	6766
2026-01-23 00:16:21.05	71.77	82.95	-41.6	-42.7	22.3	0.00e+00	92	41	0	760217600	56	6194
2026-01-23 00:16:22.06	67.56	82.98	-41.8	-42.8	22.3	0.00e+00	0	41	0	762314752	56	6307
2026-01-23 00:16:23.07	63.32	82.98	-40.3	-41.2	23.5	0.00e+00	68	41	0	763363328	54	5843
2026-01-23 00:16:24.08	59.12	82.94	-40.4	-41.4	23.0	0.00e+00	90	41	0	765460480	52	6708
2026-01-23 00:16:25.09	54.98	82.86	-41.3	-42.3	22.6	0.00e+00	0	41	0	767557632	56	5919
2026-01-23 00:16:26.10	50.96	82.75	-39.8	-40.7	23.7	0.00e+00	71	41	0	769654784	52	6179
2026-01-23 00:16:27.11	47.08	82.60	-40.5	-41.4	23.1	0.00e+00	0	41	0	771751936	52	6752
2026-01-23 00:16:28.12	43.36	82.42	-41.8	-42.8	22.0	0.00e+00	87	41	0	772800512	54	7074
2026-01-23 00:16:29.13	39.84	82.21	-42.2	-43.2	21.7	0.00e+00	0	41	0	774897664	56	6606
2026-01-23 00:16:30.14	36.51	81.97	-42.3	-43.4	21.3	0.00e+00	0	41	0	776994816	56	6700
2026-01-23 00:16:31.15	33.39	81.71	-42.5	-43.7	21.4	0.00e+00	91	41	0	779091968	56	6961
2026-01-23 00:16:32.16	30.47	81.43	-42.5	-43.6	21.3	0.00e+00	0	41	0	781189120	56	6925
2026-01-23 00:16:33.17	27.75	81.12	-43.1	-44.4	20.7	0.00e+00	63	41	0	782237696	58	6742
2026-01-23 00:16:34.17	25.24	80.80	-43.6	-45.0	20.2	0.00e+00	9	41	0	784334848	60	6421
2026-01-23 00:16:35.18	22.88	80.46	-44.1	-45.7	19.6	0.00e+00	79	41	0	786432000	60	6934
2026-01-23 00:16:36.19	20.69	80.11	-43.9	-45.3	20.1	0.00e+00	0	41	0	788529152	60	6646
2026-01-23 00:16:37.20	18.65	79.75	-43.5	-44.8	20.1	0.00e+00	92	41	0	790626304	60	6291
2026-01-23 00:16:38.21	16.76	79.37	-44.1	-45.6	20.1	0.00e+00	92	41	0	792723456	60	6866
2026-01-23 00:16:39.22	15.01	78.98	-44.8	-46.4	18.9	0.00e+00	0	41	0	793772032	60	7591
2026-01-23 00:16:40.23	13.37	78.59	-44.8	-46.3	18.7	0.00e+00	34	41	0	795869184	60	7500
2026-01-23 00:16:41.24	11.85	78.18	-43.0	-44.1	21.0	0.00e+00	0	41	0	797966336	60	5818
2026-01-23 00:16:42.25	10.44	77.78	-41.4	-42.4	22.4	0.00e+00	90	41	0	800063488	56	5971
2026-01-23 00:16:43.26	9.12	77.36	-41.5	-42.5	22.4	0.00e+00	0	41	0	802160640	56	6043
2026-01-23 00:16:44.27	7.88	76.94	-41.5	-42.5	21.9	0.00e+00	92	41	0	803209216	56	6094
2026-01-23 00:16:45.28	6.73	76.52	-41.3	-42.3	22.5	0.00e+00	72	41	0	805306368	56	5926
2026-01-23 00:16:46.29	5.65	76.09	-41.4	-42.4	22.6	0.00e+00	0	41	0	807403520	56	5993
2026-01-23 00:16:47.30	4.63	75.66	-42.1	-43.2	21.7	0.00e+00	80	41	0	809500672	56	6602
2026-01-23 00:16:48.31	3.68	75.22	-42.4	-43.6	21.5	0.00e+00	0	41	0	811597824	58	6141
2026-01-23 00:16:49.32	2.78	74.79	-41.5	-42.5	22.3	0.00e+00	91	41	0	812646400	56	6098
2026-01-23 00:16:50.32	1.95	74.35	-40.7	-41.6	23.2	0.00e+00	0	41	0	814743552	54	6151
2026-01-23 00:16:51.33	1.15	73.91	-41.0	-42.0	22.7	0.00e+00	91	41	0	816840704	54	6402
2026-01-23 00:16:52.34	0.40	73.47	-41.7	-42.8	21.9	0.00e+00	15	41	0	818937856	56	6284
2026-01-23 00:16:53.35	359.69	73.03	-42.2	-43.4	21.3	0.00e+00	0	41	0	821035008	56	6700
2026-01-23 00:16:54.36	359.02	72.59	-43.5	-44.9	20.0	0.00e+00	92	41	0	822083584	58	7123
2026-01-23 00:16:55.37	358.38	72.15	-44.4	-46.2	19.1	0.00e+00	0	41	0	824180736	60	7369
2026-01-23 00:16:56.38	357.78	71.70	-42.2	-43.5	21.3	0.00e+00	92	41	0	826277888	58	6086
2026-01-23 00:16:57.39	357.20	71.26	-41.7	-42.8	22.0	0.00e+00	0	41	0	828375040	56	6265
2026-01-23 00:16:58.40	356.66	70.82	-41.7	-42.7	22.1	0.00e+00	92	41	0	830472192	56	6223
2026-01-23 00:16:59.41	356.14	70.37	-41.7	-42.8	22.3	0.00e+00	11	41	0	831520768	56	6247
2026-01-23 00:17:00.42	355.64	69.93	-42.0	-43.1	21.8	0.00e+00	78	41	0	833617920	56	6465
2026-01-23 00:17:01.43	355.17	69.49	-44.0	-45.5	20.0	0.00e+00	92	41	0	835715072	60	6846
2026-01-23 00:17:02.44	354.72	69.05	-42.3	-43.5	21.6	0.00e+00	0	41	0	837812224	58	6054
2026-01-23 00:17:03.45	354.29	68.61	-40.3	-41.2	23.3	0.00e+00	92	41	0	839909376	54	5844
2026-01-23 00:17:04.46	353.88	68.17	-39.8	-40.6	23.5	0.00e+00	0	41	0	840957952	52	6166
2026-01-23 00:17:05.47	353.48	67.74	-40.2	-41.1	23.3	0.00e+00	90	41	0	843055104	52	6527
2026-01-23 00:17:06.48	353.11	67.30	-40.0	-40.9	23.4	0.00e+00	0	41	0	845152256	52	6344
2026-01-23 00:17:07.49	352.75	66.87	-39.8	-40.7	23.7	0.00e+00	46	41	0	847249408	52	6182
2026-01-23 00:17:08.50	352.40	66.43	-40.4	-41.4	23.1	0.00e+00	92	41	0	849346560	52	6707
2026-01-23 00:17:09.51	352.07	66.00	-39.1	-39.9	24.2	0.00e+00	0	41	0	850395136	52	5664
2026-01-23 00:17:10.52	351.75	65.57	-38.4	-39.2	24.8	0.00e+00	92	41	0	852492288	50	5852
2026-01-23 00:17:11.53	351.44	65.14	-39.6	-40.5	23.7	0.00e+00	0	41	0	854589440	50	6792
2026-01-23 00:17:12.54	351.14	64.72	-40.4	-41.4	23.1	0.00e+00	92	41	0	856686592	52	6732
2026-01-23 00:17:13.55	350.86	64.29	-40.5	-41.5	22.7	0.00e+00	0	41	0	858783744	54	6052
2026-01-23 00:17:14.56	350.58	63.87	-40.9	-41.9	22.5	0.00e+00	72	41	0	860880896	54	6381
2026-01-23 00:17:15.57	350.32	63.45	-41.9	-43.0	22.0	0.00e+00	91	41	0	861929472	56	6442
2026-01-23 00:17:16.58	350.06	63.03	-41.8	-42.9	22.5	0.00e+00	0	41	0	864026624	56	6345
2026-01-23 00:17:17.59	349.82	62.61	-41.4	-42.4	22.3	0.00e+00	4	41	0	866123776	56	6010
2026-01-23 00:17:18.60	349.58	62.20	-40.9	-41.9	22.9	0.00e+00	0	41	0	868220928	56	5656
2026-01-23 00:17:19.61	349.35	61.78	-40.5	-41.4	23.1	0.00e+00	92	41	0	870318080	54	6030
2026-01-23 00:17:20.62	349.13	61.37	-39.6	-40.5	23.9	0.00e+00	6	41	0	871366656	52	6039
2026-01-23 00:17:21.63	348.92	60.97	-40.1	-41.0	23.5	0.00e+00	82	41	0	873463808	52	6429
2026-01-23 00:17:22.64	348.71	60.56	-40.7	-41.7	22.7	0.00e+00	92	41	0	875560960	52	6965
2026-01-23 00:17:23.65	348.51	60.16	-40.7	-41.7	22.9	0.00e+00	0	41	0	877658112	54	6243
2026-01-23 00:17:24.66	348.31	59.75	-40.0	-41.0	23.4	0.00e+00	11	41	0	879755264	54	5697
2026-01-23 00:17:25.67	348.12	59.35	-40.4	-41.3	23.4	0.00e+00	0	41	0	880803840	54	5951
2026-01-23 00:17:26.67	347.94	58.96	-39.2	-40.0	24.2	0.00e+00	70	41	0	882900992	52	5754
2026-01-23 00:17:27.69	347.76	58.56	-37.8	-38.5	25.3	0.00e+00	0	41	0	884998144	50	5426
2026-01-23 00:17:28.69	347.59	58.17	-37.6	-38.4	25.3	0.00e+00	92	41	0	887095296	48	5992
2026-01-23 00:17:29.71	347.42	57.78	-38.8	-39.6	24.3	0.00e+00	7	41	0	889192448	48	6926
2026-01-23 00:17:30.72	347.26	57.39	-40.4	-41.4	23.3	0.00e+00	0	41	0	890241024	52	6727
2026-01-23 00:17:31.72	347.11	57.01	-40.3	-41.3	23.2	0.00e+00	92	41	0	892338176	52	6640
2026-01-23 00:17:32.73	346.95	56.63	-40.7	-41.8	22.7	0.00e+00	0	41	0	894435328	54	6260
2026-01-23 00:17:33.75	346.80	56.24	-40.2	-41.2	23.3	0.00e+00	92	41	0	896532480	54	5835
2026-01-23 00:17:34.76	346.66	55.87	-39.2	-40.0	24.1	0.00e+00	0	41	0	898629632	52	5739
2026-01-23 00:17:35.76	346.52	55.49	-39.1	-39.9	24.2	0.00e+00	92	41	0	899678208	52	5674
2026-01-23 00:17:36.77	346.38	55.12	-39.6	-40.5	23.8	0.00e+00	0	41	0	901775360	52	6047
2026-01-23 00:17:37.78	346.25	54.75	-41.2	-42.2	22.3	0.00e+00	0	41	0	903872512	54	6603
2026-01-23 00:17:38.79	346.12	54.38	-40.8	-41.8	22.9	0.00e+00	73	41	0	905969664	54	6295
2026-01-23 00:17:39.80	345.99	54.02	-39.9	-40.8	23.6	0.00e+00	0	41	0	908066816	54	5616
2026-01-23 00:17:40.81	345.87	53.65	-40.3	-41.3	23.2	0.00e+00	91	41	0	909115392	52	6640
2026-01-23 00:17:41.82	345.75	53.29	-41.7	-42.9	21.9	0.00e+00	0	41	0	911212544	54	7167
2026-01-23 00:17:42.83	345.63	52.93	-41.0	-42.0	22.6	0.00e+00	91	41	0	913309696	56	5759
2026-01-23 00:17:43.84	345.52	52.58	-39.4	-40.3	24.1	0.00e+00	0	41	0	915406848	52	5909
2026-01-23 00:17:44.85	345.41	52.22	-39.4	-40.2	24.1	0.00e+00	0	41	0	917504000	52	5876
2026-01-23 00:17:45.86	345.30	51.87	-40.4	-41.4	23.0	0.00e+00	92	41	0	918552576	52	6725
2026-01-23 00:17:46.87	345.19	51.52	-41.0	-42.1	22.8	0.00e+00	0	41	0	920649728	54	6484
2026-01-23 00:17:47.88	345.09	51.18	-40.2	-41.2	23.3	0.00e+00	70	41	0	922746880	54	5864
2026-01-23 00:17:48.89	344.99	50.83	-40.0	-41.0	23.3	0.00e+00	0	41	0	924844032	54	5716
2026-01-23 00:17:49.90	344.89	50.49	-41.4	-42.6	22.2	0.00e+00	92	41	0	926941184	54	6889
2026-01-23 00:17:50.91	344.80	50.15	-42.1	-43.4	21.5	0.00e+00	0	41	0	929038336	56	6713
2026-01-23 00:17:51.92	344.70	49.82	-41.9	-43.1	21.9	0.00e+00	0	41	0	930086912	56	6475
2026-01-23 00:17:52.92	344.61	49.49	-41.0	-42.0	22.9	0.00e+00	91	41	0	932184064	56	5751
2026-01-23 00:17:53.93	344.52	49.16	-41.0	-42.0	22.7	0.00e+00	0	41	0	934281216	54	6436
2026-01-23 00:17:54.94	344.43	48.83	-41.8	-42.9	21.6	0.00e+00	90	41	0	936378368	58	5686
2026-01-23 00:17:55.95	344.35	48.50	-43.8	-45.2	19.9	0.00e+00	0	41	0	938475520	58	7397
2026-01-23 00:17:56.96	344.26	48.17	-43.3	-44.6	20.3	0.00e+00	91	41	0	939524096	60	6130
2026-01-23 00:17:57.97	344.18	47.85	-43.0	-44.3	20.9	0.00e+00	0	41	0	941621248	60	5903
2026-01-23 00:17:58.98	344.10	47.53	-41.8	-42.9	22.0	0.00e+00	4	41	0	943718400	58	5673
2026-01-23 00:17:59.99	344.02	47.21	-41.7	-42.8	22.5	0.00e+00	90	41	0	945815552	56	6296
2026-01-23 00:18:00.97	343.95	46.91	-41.2	-42.3	22.4	0.00e+00	0	41	0	946864128	56	5924
2026-01-23 00:18:01.98	343.87	46.60	-41.0	-42.0	22.6	0.00e+00	71	41	0	948961280	56	5758
2026-01-23 00:18:02.99	343.80	46.28	-41.1	-42.1	22.5	0.00e+00	0	41	0	951058432	54	6493
2026-01-23 00:18:04.00	343.72	45.98	-41.2	-42.2	22.5	0.00e+00	85	41	0	953155584	54	6597
2026-01-23 00:18:05.01	343.65	45.67	-41.6	-42.7	21.5	0.00e+00	0	41	0	955252736	54	6978
2026-01-23 00:18:06.02	343.58	45.37	-43.2	-44.5	20.4	0.00e+00	92	41	0	957349888	58	6848
2026-01-23 00:18:07.03	343.52	45.06	-44.5	-46.2	19.1	0.00e+00	9	41	0	958398464	60	7386
2026-01-23 00:18:08.04	343.45	44.77	-44.9	-46.8	18.9	0.00e+00	0	41	0	960495616	60	7910
2026-01-23 00:18:09.05	343.38	44.47	-44.7	-46.5	18.8	0.00e+00	0	41	0	962592768	60	7631
2026-01-23 00:18:10.05	343.32	44.18	-44.3	-46.0	19.2	0.00e+00	0	41	0	964689920	60	7216
2026-01-23 00:18:11.06	343.26	43.88	-43.9	-45.5	19.7	0.00e+00	92	41	0	966787072	60	6770
2026-01-23 00:18:12.07	343.20	43.59	-43.2	-44.5	20.5	0.00e+00	0	41	0	967835648	60	6091
2026-01-23 00:18:13.08	343.13	43.30	-42.8	-44.0	20.9	0.00e+00	92	41	0	969932800	58	6449
2026-01-23 00:18:14.09	343.08	43.02	-42.0	-43.1	21.8	0.00e+00	57	41	0	972029952	58	5789
2026-01-23 00:18:15.10	343.02	42.73	-41.2	-42.2	22.6	0.00e+00	0	41	0	974127104	56	5868
2026-01-23 00:18:16.11	342.96	42.45	-41.2	-42.3	22.4	0.00e+00	77	41	0	976224256	56	5909
2026-01-23 00:18:17.12	342.90	42.17	-41.7	-42.8	21.8	0.00e+00	0	41	0	977272832	56	6296
2026-01-23 00:18:18.13	342.85	41.89	-42.9	-44.2	20.8	0.00e+00	4	41	0	979369984	58	6573
2026-01-23 00:18:19.14	342.79	41.62	-44.6	-46.4	18.8	0.00e+00	0	41	0	981467136	60	7555
2026-01-23 00:18:20.15	342.74	41.34	-44.3	-45.9	19.2	0.00e+00	82	41	0	983564288	60	7139
2026-01-23 00:18:21.16	342.69	41.07	-43.8	-45.3	20.0	0.00e+00	0	41	0	985661440	60	6623
2026-01-23 00:18:22.16	342.64	40.80	-42.0	-43.1	21.8	0.00e+00	0	41	0	986710016	58	5811
2026-01-23 00:18:23.17	342.59	40.54	-41.3	-42.3	22.4	0.00e+00	76	41	0	988807168	56	5963
2026-01-23 00:18:24.18	342.54	40.27	-41.4	-42.5	22.4	0.00e+00	0	41	0	990904320	56	6069
2026-01-23 00:18:25.19	342.49	40.01	-41.9	-43.1	21.8	0.00e+00	90	41	0	993001472	56	6494
2026-01-23 00:18:26.20	342.44	39.74	-42.6	-43.9	21.5	0.00e+00	0	41	0	995098624	56	7106
2026-01-23 00:18:27.21	342.39	39.48	-42.2	-43.4	21.6	0.00e+00	92	41	0	996147200	56	6695
2026-01-23 00:18:28.22	342.35	39.23	-42.3	-43.4	21.5	0.00e+00	0	41	0	998244352	56	6766
2026-01-23 00:18:29.23	342.30	38.97	-42.2	-43.4	21.4	0.00e+00	19	41	0	1000341504	56	6732
2026-01-23 00:18:30.24	342.26	38.72	-42.3	-43.5	21.4	0.00e+00	89	41	0	1002438656	56	6800
2026-01-23 00:18:31.25	342.21	38.46	-42.6	-43.8	21.1	0.00e+00	0	41	0	1004535808	56	7075
2026-01-23 00:18:32.26	342.17	38.21	-43.8	-45.3	19.8	0.00e+00	90	41	0	1005584384	60	6684
2026-01-23 00:18:33.27	342.13	37.96	-43.8	-45.4	19.8	0.00e+00	0	41	0	1007681536	60	6693
2026-01-23 00:18:34.28	342.09	37.72	-43.3	-44.6	20.2	0.00e+00	92	41	0	1009778688	60	6138
2026-01-23 00:18:35.29	342.05	37.47	-43.3	-44.7	20.6	0.00e+00	0	41	0	1011875840	60	6182
2026-01-23 00:18:36.30	342.01	37.23	-43.0	-44.4	20.7	0.00e+00	45	41	0	1013972992	60	5981
2026-01-23 00:18:37.31	341.97	36.99	-42.4	-43.7	21.3	0.00e+00	9	41	0	1015021568	56	6962
2026-01-23 00:18:38.32	341.93	36.75	-43.1	-44.5	20.5	0.00e+00	0	41	0	1017118720	58	6837
2026-01-23 00:18:39.32	341.89	36.51	-43.8	-45.3	19.7	0.00e+00	91	41	0	1019215872	58	7476
2026-01-23 00:18:40.34	341.85	36.27	-43.3	-44.7	20.3	0.00e+00	0	41	0	1021313024	60	6217
2026-01-23 00:18:41.35	341.81	36.04	-43.3	-44.6	20.5	0.00e+00	70	41	0	1023410176	60	6153
2026-01-23 00:18:42.35	341.78	35.81	-42.9	-44.2	21.0	0.00e+00	0	41	0	1025507328	60	5842
2026-01-23 00:18:43.36	341.74	35.57	-42.2	-43.3	21.7	0.00e+00	90	41	0	1026555904	58	5953
2026-01-23 00:18:44.37	341.71	35.34	-41.5	-42.6	22.2	0.00e+00	7	41	0	1028653056	56	6136
2026-01-23 00:18:45.38	341.67	35.12	-41.8	-43.0	21.9	0.00e+00	0	41	0	1030750208	56	6402
2026-01-23 00:18:46.39	341.64	34.89	-42.6	-43.8	20.9	0.00e+00	66	41	0	1032847360	56	7041
2026-01-23 00:18:47.40	341.60	34.67	-43.3	-44.7	20.1	0.00e+00	0	41	0	1034944512	58	6990
2026-01-23 00:18:48.41	341.57	34.44	-44.9	-46.7	18.5	0.00e+00	77	41	0	1035993088	60	7858
2026-01-23 00:18:49.42	341.54	34.22	-46.3	-48.7	16.7	0.00e+00	0	41	0	1038090240	60	9810
2026-01-23 00:18:50.43	341.50	34.00	-47.4	-50.4	14.8	0.00e+00	86	41	0	1040187392	60	11918
2026-01-23 00:18:51.44	341.47	33.78	-47.8	-51.2	13.9	6.80e-06	0	41	0	1042284544	60	13117
2026-01-23 00:18:52.45	341.44	33.56	-47.5	-50.6	14.8	3.80e-06	0	41	0	1044381696	60	12181
2026-01-23 00:18:53.46	341.41	33.35	-46.6	-49.2	16.2	0.00e+00	92	41	0	1045430272	60	10373
2026-01-23 00:18:54.47	341.38	33.13	-46.1	-48.3	17.0	0.00e+00	0	41	0	1047527424	60	9392
2026-01-23 00:18:55.47	341.35	32.92	-45.1	-46.8	18.7	0.00e+00	55	41	0	1049624576	60	7933
2026-01-23 00:18:56.48	341.32	32.71	-44.1	-45.6	19.6	0.00e+00	0	41	0	1051721728	60	6862
2026-01-23 00:18:57.49	341.29	32.50	-43.6	-44.9	20.3	0.00e+00	91	41	0	1053818880	60	6369
2026-01-23 00:18:58.50	341.26	32.30	-42.4	-43.5	21.4	0.00e+00	0	41	0	1054867456	58	6101
2026-01-23 00:18:59.51	341.23	32.09	-42.6	-43.8	21.2	0.00e+00	0	41	0	1056964608	58	6276
2026-01-23 00:19:00.52	341.21	31.88	-42.3	-43.5	21.5	0.00e+00	47	41	0	1059061760	58	6072
2026-01-23 00:19:01.53	341.18	31.68	-42.5	-43.7	21.1	0.00e+00	0	41	0	1061158912	58	6200
2026-01-23 00:19:02.54	341.15	31.48	-43.3	-44.6	20.3	0.00e+00	61	41	0	1063256064	58	6883
2026-01-23 00:19:03.55	341.12	31.28	-43.3	-44.7	20.2	0.00e+00	0	41	0	1064304640	58	6942
2026-01-23 00:19:04.56	341.10	31.08	-43.4	-44.8	20.5	0.00e+00	77	41	0	1066401792	58	7047
2026-01-23 00:19:05.57	341.07	30.88	-43.1	-44.4	20.6	0.00e+00	0	41	0	1068498944	58	6756
2026-01-23 00:19:06.58	341.05	30.68	-42.6	-43.8	21.1	0.00e+00	0	41	0	1070596096	58	6251
2026-01-23 00:19:07.59	341.02	30.49	-42.5	-43.7	21.3	0.00e+00	90	41	0	1072693248	58	6189
2026-01-23 00:19:08.60	341.00	30.29	-42.8	-44.1	20.8	0.00e+00	0	41	0	1073741824	58	6474
2026-01-23 00:19:09.61	340.97	30.10	-43.3	-44.6	20.4	0.00e+00	2	41	0	1075838976	58	6900
2026-01-23 00:19:10.62	340.95	29.91	-43.7	-45.1	19.9	0.00e+00	0	41	0	1077936128	58	7289
2026-01-23 00:19:11.63	340.92	29.72	-44.7	-46.3	18.9	0.00e+00	91	41	0	1080033280	60	7502
2026-01-23 00:19:12.64	340.90	29.53	-45.1	-46.9	18.2	0.00e+00	0	41	0	1082130432	60	7969
2026-01-23 00:19:13.65	340.88	29.34	-45.5	-47.5	17.7	0.00e+00	7	41	0	1083179008	60	8579
2026-01-23 00:19:14.66	340.85	29.15	-46.3	-48.6	16.7	0.00e+00	76	41	0	1085276160	60	9776
2026-01-23 00:19:15.67	340.83	28.97	-45.9	-48.0	17.2	0.00e+00	0	41	0	1087373312	60	9128
2026-01-23 00:19:16.67	340.81	28.78	-45.3	-47.2	18.1	0.00e+00	12	41	0	1089470464	60	8289
2026-01-23 00:19:17.68	340.79	28.60	-44.7	-46.4	18.7	0.00e+00	0	41	0	1091567616	60	7541
2026-01-23 00:19:18.69	340.77	28.42	-43.6	-45.0	20.2	0.00e+00	80	41	0	1093664768	60	6458
2026-01-23 00:19:19.70	340.74	28.24	-42.7	-43.9	21.0	0.00e+00	0	41	0	1094713344	58	6386
2026-01-23 00:19:20.71	340.72	28.06	-41.7	-42.8	22.2	0.00e+00	92	41	0	1096810496	56	6275
2026-01-23 00:19:21.72	340.70	27.88	-41.0	-42.0	22.6	0.00e+00	51	41	0	1098907648	56	5730
2026-01-23 00:19:22.73	340.68	27.70	-40.5	-41.5	23.0	0.00e+00	0	41	0	1101004800	54	6063
2026-01-23 00:19:23.74	340.66	27.53	-40.3	-41.3	23.1	0.00e+00	92	41	0	1103101952	54	5927
2026-01-23 00:19:24.75	340.64	27.35	-40.0	-40.9	23.4	0.00e+00	0	41	0	1104150528	54	5657
2026-01-23 00:19:25.76	340.62	27.18	-40.0	-40.9	23.3	0.00e+00	92	41	0	1106247680	54	5668
2026-01-23 00:19:26.77	340.60	27.01	-40.2	-41.1	23.3	0.00e+00	0	41	0	1108344832	54	5808
2026-01-23 00:19:27.78	340.58	26.83	-40.1	-41.1	23.2	0.00e+00	59	41	0	1110441984	54	5767
2026-01-23 00:19:28.79	340.56	26.66	-40.2	-41.1	23.3	0.00e+00	5	41	0	1112539136	54	5780
2026-01-23 00:19:29.80	340.54	26.49	-40.1	-41.1	23.2	0.00e+00	0	41	0	1113587712	54	5770
2026-01-23 00:19:30.80	340.53	26.33	-40.4	-41.3	23.0	0.00e+00	69	41	0	1115684864	54	5949
2026-01-23 00:19:31.81	340.51	26.16	-40.5	-41.5	22.9	0.00e+00	0	41	0	1117782016	54	6034
2026-01-23 00:19:32.82	340.49	25.99	-40.5	-41.4	22.8	0.00e+00	3	41	0	1119879168	54	6015
2026-01-23 00:19:33.83	340.47	25.83	-40.5	-41.5	22.9	0.00e+00	0	41	0	1121976320	54	6084
2026-01-23 00:19:34.84	340.45	25.66	-40.7	-41.7	22.8	0.00e+00	92	41	0	1123024896	54	6210
2026-01-23 00:19:35.85	340.44	25.50	-41.0	-42.1	22.2	0.00e+00	0	41	0	1125122048	54	6480
2026-01-23 00:19:36.86	340.42	25.34	-41.2	-42.3	22.4	0.00e+00	0	41	0	1127219200	54	6675
2026-01-23 00:19:37.87	340.40	25.18	-41.2	-42.3	22.1	0.00e+00	92	41	0	1129316352	54	6659
2026-01-23 00:19:38.88	340.39	25.02	-41.1	-42.1	22.3	0.00e+00	0	41	0	1131413504	54	6520
2026-01-23 00:19:39.88	340.37	24.86	-41.0	-42.1	22.4	0.00e+00	5	41	0	1132462080	54	6467
2026-01-23 00:19:40.89	340.35	24.70	-40.8	-41.9	22.6	0.00e+00	0	41	0	1134559232	54	6351
2026-01-23 00:19:41.90	340.34	24.54	-41.0	-42.1	22.6	0.00e+00	79	41	0	1136656384	54	6470
2026-01-23 00:19:42.91	340.32	24.38	-40.8	-41.9	22.6	0.00e+00	0	41	0	1138753536	54	6337
2026-01-23 00:19:43.92	340.31	24.23	-40.7	-41.8	22.7	0.00e+00	16	41	0	1140850688	54	6270
2026-01-23 00:19:44.93	340.29	24.07	-40.5	-41.6	22.8	0.00e+00	68	41	0	1141899264	54	6127
2026-01-23 00:19:45.94	340.27	23.92	-40.6	-41.7	22.8	0.00e+00	0	41	0	1143996416	54	6212
2026-01-23 00:19:46.95	340.26	23.77	-40.6	-41.6	22.7	0.00e+00	92	41	0	1146093568	54	6151
2026-01-23 00:19:47.96	340.24	23.62	-40.7	-41.8	22.7	0.00e+00	0	41	0	1148190720	54	6248
2026-01-23 00:19:48.97	340.23	23.46	-40.9	-42.0	22.5	0.00e+00	0	41	0	1150287872	54	6410
2026-01-23 00:19:49.98	340.22	23.31	-41.1	-42.2	22.3	0.00e+00	0	41	0	1151336448	54	6547
2026-01-23 00:19:50.99	340.20	23.16	-41.4	-42.6	22.0	0.00e+00	0	41	0	1153433600	54	6866
2026-01-23 00:19:52.00	340.19	23.02	-41.5	-42.6	22.0	0.00e+00	59	41	0	1155530752	54	6888
2026-01-23 00:19:53.01	340.17	22.87	-41.6	-42.8	21.9	0.00e+00	0	41	0	1157627904	54	7035
2026-01-23 00:19:54.02	340.16	22.72	-41.6	-42.8	21.7	0.00e+00	74	41	0	1159725056	54	7024
2026-01-23 00:19:55.03	340.15	22.58	-41.4	-42.5	21.9	0.00e+00	0	41	0	1160773632	54	6805
2026-01-23 00:19:56.04	340.13	22.43	-41.3	-42.3	22.2	0.00e+00	0	41	0	1162870784	56	5961
2026-01-23 00:19:57.05	340.12	22.29	-41.3	-42.3	22.2	0.00e+00	0	41	0	1164967936	56	5964
2026-01-23 00:19:58.06	340.10	22.14	-40.6	-41.6	22.7	0.00e+00	0	41	0	1167065088	54	6113
2026-01-23 00:19:59.07	340.09	22.00	-40.5	-41.5	22.9	0.00e+00	5	41	0	1169162240	54	6063
2026-01-23 00:20:00.08	340.08	21.86	-40.1	-41.0	23.1	0.00e+00	0	41	0	1170210816	54	5721
2026-01-23 00:20:01.08	340.07	21.72	-40.0	-40.9	23.4	0.00e+00	92	41	0	1172307968	54	5694
2026-01-23 00:20:02.09	340.05	21.58	-39.7	-40.6	23.6	0.00e+00	0	41	0	1174405120	52	6131
2026-01-23 00:20:03.10	340.04	21.44	-39.6	-40.5	23.6	0.00e+00	33	41	0	1176502272	52	6103
2026-01-23 00:20:04.11	340.03	21.30	-39.6	-40.5	23.6	0.00e+00	0	41	0	1178599424	52	6095
2026-01-23 00:20:05.12	340.02	21.16	-39.8	-40.7	23.5	0.00e+00	0	41	0	1179648000	52	6187
2026-01-23 00:20:06.13	340.00	21.02	-39.7	-40.6	23.5	0.00e+00	0	41	0	1181745152	52	6166
2026-01-23 00:20:07.14	339.99	20.89	-39.9	-40.9	23.4	0.00e+00	0	41	0	1183842304	52	6335
2026-01-23 00:20:08.15	339.98	20.75	-39.9	-40.8	23.4	0.00e+00	67	41	0	1185939456	52	6316
2026-01-23 00:20:09.16	339.97	20.62	-39.7	-40.6	23.5	0.00e+00	0	41	0	1188036608	52	6169
2026-01-23 00:20:10.17	339.96	20.48	-39.9	-40.8	23.3	0.00e+00	68	41	0	1190133760	52	6291
2026-01-23 00:20:11.17	339.95	20.35	-40.0	-41.0	23.1	0.00e+00	0	41	0	1191182336	52	6425
2026-01-23 00:20:12.18	339.94	20.22	-39.9	-40.8	23.2	0.00e+00	0	41	0	1193279488	52	6314
