passes_logs/2026/01/23/R4.6S_Anadyr/R4.6S_Anadyr__20260123_214142_NOAA_21_JPSS-2_rec.log

#Pass ID: 20260123_214142_NOAA 21 (JPSS-2)
#Satellite: NOAA 21 (JPSS-2)
#Configuration: NOAA-21
#almurnet v.1.7.20251203
#Start time: 2026-01-23 21:41:45

#Version: 2.2.20231116
#Station: R4.6S_Anadyr
#Location: 177.4865 lon 64.73178 lat
#TLE: 1 54234U 22150A   26022.90705406  .00000208  00000+0  11937-3 0  9994
#TLE: 2 54234  98.7507 323.7115 0000669 231.3756 128.7360 14.19537879165931

#Time	Az	El	Level	Level2	SNR	BER	BlckErr	Temp	State	Recorded	gain1	gain2
2026-01-23 21:41:45.54	96.07	0.14	-50.9	-65.8	3.6	1.51e+00	0	38	0	0	60	70683
2026-01-23 21:41:46.55	96.02	0.20	-51.0	-63.9	3.5	1.52e+00	0	39	104	0	60	54980
2026-01-23 21:41:47.56	95.96	0.25	-51.0	-63.9	3.5	1.52e+00	0	40	104	0	60	54752
2026-01-23 21:41:48.57	95.90	0.31	-51.0	-63.9	3.5	1.52e+00	0	40	104	0	60	54785
2026-01-23 21:41:49.58	95.84	0.36	-51.0	-63.9	3.5	1.52e+00	0	40	104	0	60	54960
2026-01-23 21:41:50.59	95.78	0.42	-51.0	-63.9	3.5	1.52e+00	0	40	104	0	60	54694
2026-01-23 21:41:51.60	95.73	0.47	-51.0	-63.9	3.5	1.52e+00	0	40	104	0	60	55045
2026-01-23 21:41:52.61	95.67	0.53	-51.0	-63.9	3.5	1.52e+00	0	40	104	0	60	54757
2026-01-23 21:41:53.62	95.61	0.58	-51.0	-63.9	3.5	1.51e+00	0	40	104	0	60	55024
2026-01-23 21:41:54.63	95.55	0.64	-51.0	-63.8	3.5	1.52e+00	0	40	104	0	60	54621
2026-01-23 21:41:55.64	95.49	0.69	-51.0	-63.8	3.5	1.52e+00	0	40	104	0	60	54537
2026-01-23 21:41:56.65	95.43	0.75	-51.0	-63.9	3.5	1.52e+00	0	40	104	0	60	54680
2026-01-23 21:41:57.67	95.37	0.80	-51.0	-63.9	3.5	1.52e+00	0	40	104	0	60	54884
2026-01-23 21:41:58.67	95.31	0.86	-51.0	-63.9	3.5	1.52e+00	0	40	104	0	60	54865
2026-01-23 21:41:59.68	95.25	0.91	-51.0	-63.9	3.5	1.52e+00	0	40	104	0	60	54983
2026-01-23 21:42:00.69	95.19	0.97	-51.0	-63.9	3.5	1.52e+00	0	40	104	0	60	54974
2026-01-23 21:42:01.71	95.13	1.02	-51.0	-63.9	3.5	1.52e+00	0	40	104	0	60	55006
2026-01-23 21:42:02.71	95.07	1.08	-51.0	-63.9	3.5	1.52e+00	0	40	104	0	60	54890
2026-01-23 21:42:03.73	95.00	1.14	-51.0	-63.9	3.5	1.52e+00	0	40	104	0	60	54839
2026-01-23 21:42:04.74	94.94	1.19	-51.0	-63.9	3.5	1.52e+00	0	40	104	0	60	54811
2026-01-23 21:42:05.75	94.88	1.25	-51.0	-63.9	3.5	1.52e+00	0	40	104	0	60	54714
2026-01-23 21:42:06.75	94.82	1.30	-51.0	-63.9	3.5	1.52e+00	0	40	104	0	60	54884
2026-01-23 21:42:07.76	94.76	1.36	-51.0	-63.9	3.5	1.52e+00	0	40	104	0	60	54921
2026-01-23 21:42:08.77	94.69	1.42	-51.0	-63.9	3.5	1.52e+00	0	40	104	0	60	54908
2026-01-23 21:42:09.78	94.63	1.47	-51.0	-63.9	3.5	1.52e+00	0	40	104	0	60	54797
2026-01-23 21:42:10.79	94.57	1.53	-51.0	-63.9	3.5	1.52e+00	0	40	104	0	60	54858
2026-01-23 21:42:11.80	94.50	1.58	-51.0	-63.9	3.5	1.52e+00	0	40	104	0	60	54823
2026-01-23 21:42:12.81	94.44	1.64	-51.0	-63.9	3.5	1.52e+00	0	40	104	0	60	54766
2026-01-23 21:42:13.82	94.38	1.70	-51.0	-63.9	3.5	1.52e+00	0	40	104	0	60	55209
2026-01-23 21:42:14.83	94.31	1.75	-51.0	-63.9	3.5	1.52e+00	0	40	104	0	60	54876
2026-01-23 21:42:15.84	94.25	1.81	-51.0	-63.9	3.5	1.51e+00	0	40	104	0	60	54996
2026-01-23 21:42:16.85	94.18	1.87	-51.0	-63.9	3.5	1.52e+00	0	40	104	0	60	54910
2026-01-23 21:42:17.86	94.12	1.92	-51.0	-63.8	3.5	1.52e+00	0	40	104	0	60	54674
2026-01-23 21:42:18.87	94.05	1.98	-51.0	-63.9	3.5	1.52e+00	0	40	104	0	60	54960
2026-01-23 21:42:19.88	93.99	2.04	-51.0	-63.9	3.5	1.52e+00	0	40	104	0	60	54734
2026-01-23 21:42:20.89	93.92	2.10	-51.0	-63.9	3.5	1.52e+00	0	40	104	0	60	54811
2026-01-23 21:42:21.90	93.86	2.15	-51.0	-63.9	3.5	1.52e+00	0	40	104	0	60	54912
2026-01-23 21:42:22.91	93.79	2.21	-51.0	-63.9	3.5	1.51e+00	0	40	104	0	60	55054
2026-01-23 21:42:23.91	93.72	2.27	-51.0	-63.9	3.5	1.51e+00	0	40	104	0	60	54720
2026-01-23 21:42:24.92	93.66	2.32	-51.0	-63.9	3.5	1.52e+00	0	40	104	0	60	54786
2026-01-23 21:42:25.93	93.59	2.38	-51.0	-63.9	3.5	1.51e+00	0	40	104	0	60	54999
2026-01-23 21:42:26.94	93.52	2.44	-51.0	-63.9	3.5	1.52e+00	0	40	104	0	60	55003
2026-01-23 21:42:27.95	93.46	2.50	-51.0	-63.9	3.5	1.52e+00	0	40	104	0	60	54733
2026-01-23 21:42:28.96	93.39	2.55	-51.0	-63.9	3.5	1.52e+00	0	40	104	0	60	54989
2026-01-23 21:42:29.97	93.32	2.61	-51.0	-63.9	3.5	1.52e+00	0	40	104	0	60	54899
2026-01-23 21:42:30.98	93.25	2.67	-51.0	-63.9	3.5	1.51e+00	0	41	104	0	60	55037
2026-01-23 21:42:31.99	93.18	2.73	-51.0	-63.9	3.5	1.52e+00	0	41	104	0	60	54706
2026-01-23 21:42:33.00	93.11	2.79	-51.0	-63.9	3.5	1.52e+00	0	40	104	0	60	54867
2026-01-23 21:42:34.01	93.04	2.84	-51.0	-63.9	3.5	1.51e+00	0	41	104	0	60	54895
2026-01-23 21:42:35.02	92.97	2.90	-51.0	-63.9	3.5	1.52e+00	0	41	104	0	60	54853
2026-01-23 21:42:36.04	92.90	2.96	-51.0	-63.9	3.5	1.52e+00	0	41	104	0	60	54871
2026-01-23 21:42:37.05	92.83	3.02	-51.0	-63.9	3.5	1.52e+00	0	41	104	0	60	54956
2026-01-23 21:42:38.05	92.76	3.08	-51.0	-63.9	3.5	1.52e+00	0	41	104	0	60	54760
2026-01-23 21:42:39.07	92.69	3.14	-51.0	-63.9	3.5	1.52e+00	0	41	104	0	60	54805
2026-01-23 21:42:40.07	92.62	3.20	-51.0	-63.9	3.5	1.52e+00	0	41	104	0	60	54796
2026-01-23 21:42:41.09	92.55	3.25	-51.0	-63.9	3.5	1.52e+00	0	41	104	0	60	54979
2026-01-23 21:42:42.10	92.48	3.31	-51.0	-63.9	3.5	1.52e+00	0	41	104	0	60	54684
2026-01-23 21:42:43.10	92.41	3.37	-51.0	-63.9	3.5	1.51e+00	0	41	104	0	60	54969
2026-01-23 21:42:44.12	92.33	3.43	-51.0	-63.9	3.5	1.52e+00	0	41	104	0	60	55238
2026-01-23 21:42:45.13	92.26	3.49	-51.0	-63.9	3.5	1.52e+00	0	41	104	0	60	54931
2026-01-23 21:42:46.13	92.19	3.55	-51.0	-63.9	3.5	1.52e+00	0	41	104	0	60	54739
2026-01-23 21:42:47.15	92.12	3.61	-51.0	-63.9	3.5	1.52e+00	0	41	104	0	60	54835
2026-01-23 21:42:48.15	92.04	3.67	-51.0	-63.9	3.5	1.52e+00	0	41	104	0	60	54876
2026-01-23 21:42:49.17	91.97	3.73	-51.0	-63.9	3.5	1.52e+00	0	41	104	0	60	54886
2026-01-23 21:42:50.18	91.89	3.79	-51.0	-63.9	3.5	1.52e+00	0	41	104	0	60	54818
2026-01-23 21:42:51.19	91.82	3.85	-51.0	-63.9	3.5	1.52e+00	0	41	104	0	60	54835
2026-01-23 21:42:52.20	91.75	3.91	-51.0	-63.9	3.5	1.52e+00	0	41	104	0	60	54895
2026-01-23 21:42:53.21	91.67	3.97	-51.0	-63.9	3.5	1.51e+00	0	41	104	0	60	54915
2026-01-23 21:42:54.22	91.60	4.03	-51.0	-63.9	3.5	1.52e+00	0	41	104	0	60	54998
2026-01-23 21:42:55.23	91.52	4.09	-51.0	-63.9	3.5	1.52e+00	0	41	104	0	60	54757
2026-01-23 21:42:56.24	91.44	4.15	-51.0	-63.9	3.5	1.52e+00	0	41	104	0	60	54936
2026-01-23 21:42:57.24	91.37	4.21	-51.0	-63.9	3.5	1.52e+00	0	41	104	0	60	54913
2026-01-23 21:42:58.25	91.29	4.27	-51.0	-63.9	3.5	1.52e+00	0	41	104	0	60	55214
2026-01-23 21:42:59.26	91.21	4.33	-51.0	-63.9	3.5	1.52e+00	0	41	104	0	60	55097
2026-01-23 21:43:00.27	91.14	4.39	-51.0	-63.9	3.5	1.52e+00	0	41	104	0	60	54809
2026-01-23 21:43:01.28	91.06	4.45	-51.0	-63.9	3.5	1.52e+00	0	41	104	0	60	55018
2026-01-23 21:43:02.29	90.98	4.51	-51.0	-63.9	3.5	1.52e+00	0	41	104	0	60	55134
2026-01-23 21:43:03.30	90.90	4.57	-51.0	-63.9	3.5	1.52e+00	0	41	104	0	60	54945
2026-01-23 21:43:04.31	90.82	4.63	-51.0	-63.9	3.5	1.52e+00	0	41	104	0	60	55154
2026-01-23 21:43:05.32	90.75	4.69	-51.0	-63.9	3.5	1.52e+00	0	41	104	0	60	55110
2026-01-23 21:43:06.33	90.67	4.75	-51.0	-63.9	3.5	1.52e+00	0	41	104	0	60	55013
2026-01-23 21:43:07.34	90.59	4.81	-51.0	-63.9	3.5	1.52e+00	0	41	104	0	60	55081
2026-01-23 21:43:08.35	90.51	4.87	-51.0	-63.9	3.5	1.52e+00	0	41	104	0	60	54913
2026-01-23 21:43:09.36	90.43	4.93	-51.0	-63.9	3.5	1.52e+00	0	41	104	0	60	54897
2026-01-23 21:43:10.37	90.35	4.99	-51.0	-63.9	3.5	1.52e+00	0	41	104	0	60	55109
2026-01-23 21:43:11.38	90.26	5.06	-51.0	-63.9	3.5	1.52e+00	0	41	104	0	60	55051
2026-01-23 21:43:12.39	90.18	5.12	-51.0	-64.0	3.5	1.51e+00	0	41	104	0	60	55323
2026-01-23 21:43:13.40	90.10	5.18	-51.0	-64.0	3.5	1.51e+00	0	41	104	0	60	55365
2026-01-23 21:43:14.41	90.02	5.24	-51.0	-63.9	3.5	1.52e+00	0	41	104	0	60	55066
2026-01-23 21:43:15.42	89.94	5.30	-51.0	-63.9	3.5	1.52e+00	0	41	104	0	60	55062
2026-01-23 21:43:16.43	89.85	5.36	-51.0	-63.9	3.5	1.52e+00	0	41	104	0	60	55048
2026-01-23 21:43:17.44	89.77	5.42	-51.0	-63.9	3.5	1.52e+00	0	41	104	0	60	55138
2026-01-23 21:43:18.45	89.69	5.49	-51.0	-63.9	3.5	1.52e+00	0	41	104	0	60	55239
2026-01-23 21:43:19.46	89.60	5.55	-51.0	-63.9	3.5	1.52e+00	0	41	104	0	60	54839
2026-01-23 21:43:20.47	89.52	5.61	-51.0	-63.9	3.5	1.52e+00	0	41	104	0	60	55202
2026-01-23 21:43:21.48	89.44	5.67	-51.0	-63.9	3.5	1.52e+00	0	41	104	0	60	55259
2026-01-23 21:43:22.49	89.35	5.74	-51.0	-63.9	3.5	1.52e+00	0	41	104	0	60	55168
2026-01-23 21:43:23.50	89.26	5.80	-51.0	-63.9	3.5	1.52e+00	0	41	104	0	60	55214
2026-01-23 21:43:24.51	89.18	5.86	-51.0	-63.9	3.5	1.51e+00	0	41	104	0	60	55050
2026-01-23 21:43:25.52	89.09	5.92	-51.0	-63.9	3.5	1.52e+00	0	41	104	0	60	54788
2026-01-23 21:43:26.53	89.01	5.99	-51.0	-63.9	3.5	1.52e+00	0	41	104	0	60	54969
2026-01-23 21:43:27.54	88.92	6.05	-51.0	-63.9	3.5	1.52e+00	0	41	104	0	60	55122
2026-01-23 21:43:28.55	88.83	6.11	-51.0	-63.9	3.5	1.52e+00	0	41	104	0	60	55273
2026-01-23 21:43:29.56	88.74	6.17	-51.0	-63.9	3.5	1.52e+00	0	41	104	0	60	55261
2026-01-23 21:43:30.57	88.66	6.24	-51.0	-63.9	3.5	1.52e+00	0	41	104	0	60	54999
2026-01-23 21:43:31.58	88.57	6.30	-51.0	-63.9	3.5	1.52e+00	0	41	104	0	60	54898
2026-01-23 21:43:32.59	88.48	6.36	-51.0	-63.9	3.5	1.52e+00	0	41	104	0	60	54922
2026-01-23 21:43:33.60	88.39	6.43	-51.0	-63.9	3.5	1.52e+00	0	41	104	0	60	54981
2026-01-23 21:43:34.61	88.30	6.49	-51.0	-63.9	3.5	1.52e+00	0	41	104	0	60	55191
2026-01-23 21:43:35.62	88.21	6.55	-51.0	-63.9	3.5	1.52e+00	0	41	104	0	60	55097
2026-01-23 21:43:36.63	88.12	6.62	-51.0	-63.9	3.5	1.52e+00	0	41	104	0	60	55226
2026-01-23 21:43:37.64	88.03	6.68	-51.0	-63.9	3.5	1.52e+00	0	41	104	0	60	55234
2026-01-23 21:43:38.65	87.94	6.74	-51.0	-63.9	3.5	1.52e+00	0	41	104	0	60	55186
2026-01-23 21:43:39.66	87.85	6.81	-51.0	-63.9	3.5	1.52e+00	0	41	104	0	60	54925
2026-01-23 21:43:40.67	87.75	6.87	-51.0	-63.9	3.5	1.52e+00	0	41	104	0	60	54943
2026-01-23 21:43:41.68	87.66	6.93	-51.0	-63.9	3.5	1.52e+00	0	41	104	0	60	55049
2026-01-23 21:43:42.69	87.57	7.00	-51.0	-63.9	3.5	1.51e+00	0	41	104	0	60	54862
2026-01-23 21:43:43.70	87.47	7.06	-51.0	-63.9	3.5	1.52e+00	0	41	104	0	60	55069
2026-01-23 21:43:44.71	87.38	7.13	-51.0	-63.9	3.5	1.52e+00	0	41	104	0	60	54957
2026-01-23 21:43:45.72	87.29	7.19	-51.0	-63.9	3.5	1.52e+00	0	41	104	0	60	54832
2026-01-23 21:43:46.73	87.19	7.26	-51.0	-63.9	3.5	1.52e+00	0	41	104	0	60	55122
2026-01-23 21:43:47.74	87.10	7.32	-51.0	-63.9	3.5	1.52e+00	0	41	104	0	60	55099
2026-01-23 21:43:48.75	87.00	7.38	-51.0	-63.9	3.5	1.52e+00	0	41	104	0	60	55007
2026-01-23 21:43:49.76	86.91	7.45	-51.0	-63.9	3.5	1.52e+00	0	41	104	0	60	55238
2026-01-23 21:43:50.77	86.81	7.51	-51.0	-63.9	3.5	1.51e+00	0	41	104	0	60	55078
2026-01-23 21:43:51.78	86.71	7.58	-51.0	-64.0	3.5	1.52e+00	0	41	104	0	60	55538
2026-01-23 21:43:52.79	86.61	7.64	-51.0	-63.9	3.5	1.52e+00	0	41	104	0	60	55264
2026-01-23 21:43:53.80	86.52	7.71	-51.0	-63.9	3.5	1.52e+00	0	41	104	0	60	55193
2026-01-23 21:43:54.81	86.42	7.77	-51.0	-63.9	3.5	1.52e+00	0	41	104	0	60	54967
2026-01-23 21:43:55.82	86.32	7.84	-51.0	-63.9	3.5	1.51e+00	0	41	104	0	60	55130
2026-01-23 21:43:56.83	86.22	7.90	-51.0	-64.0	3.5	1.52e+00	0	41	104	0	60	55343
2026-01-23 21:43:57.84	86.12	7.97	-51.0	-63.9	3.5	1.52e+00	0	41	104	0	60	55226
2026-01-23 21:43:58.85	86.02	8.03	-51.0	-63.9	3.5	1.52e+00	0	41	104	0	60	55117
2026-01-23 21:43:59.86	85.92	8.10	-51.0	-63.9	3.5	1.52e+00	0	41	104	0	60	55009
2026-01-23 21:44:00.87	85.82	8.17	-51.0	-63.9	3.5	1.52e+00	0	41	104	0	60	55131
2026-01-23 21:44:01.88	85.72	8.23	-51.0	-63.9	3.5	1.52e+00	0	41	104	0	60	55216
2026-01-23 21:44:02.89	85.62	8.30	-51.0	-64.0	3.5	1.52e+00	0	41	104	0	60	55350
2026-01-23 21:44:03.90	85.51	8.36	-51.0	-63.9	3.5	1.52e+00	0	41	104	0	60	55205
2026-01-23 21:44:04.91	85.41	8.43	-51.0	-64.0	3.5	1.52e+00	0	41	104	0	60	55351
2026-01-23 21:44:05.92	85.31	8.49	-51.0	-64.0	3.5	1.52e+00	0	41	104	0	60	55310
2026-01-23 21:44:06.93	85.20	8.56	-51.0	-63.9	3.5	1.51e+00	0	41	104	0	60	55264
2026-01-23 21:44:07.94	85.10	8.63	-51.0	-63.9	3.5	1.52e+00	0	41	104	0	60	55202
2026-01-23 21:44:08.94	85.00	8.69	-51.0	-63.9	3.5	1.52e+00	0	41	104	0	60	55041
2026-01-23 21:44:09.95	84.89	8.76	-51.0	-64.0	3.5	1.52e+00	0	41	104	0	60	55359
2026-01-23 21:44:10.96	84.79	8.82	-51.0	-64.0	3.5	1.52e+00	0	41	104	0	60	55397
2026-01-23 21:44:11.97	84.68	8.89	-51.0	-63.9	3.5	1.52e+00	0	41	104	0	60	55069
2026-01-23 21:44:12.98	84.57	8.96	-51.0	-63.9	3.5	1.52e+00	0	41	104	0	60	55266
2026-01-23 21:44:13.99	84.47	9.02	-51.0	-64.0	3.5	1.52e+00	0	41	104	0	60	55350
2026-01-23 21:44:15.00	84.36	9.09	-51.0	-63.9	3.5	1.52e+00	0	41	104	0	60	55022
2026-01-23 21:44:16.01	84.25	9.16	-51.0	-63.9	3.5	1.52e+00	0	41	104	0	60	55275
2026-01-23 21:44:17.02	84.14	9.22	-51.0	-64.0	3.5	1.52e+00	0	41	104	0	60	55484
2026-01-23 21:44:18.03	84.03	9.29	-51.0	-64.0	3.5	1.52e+00	0	41	104	0	60	55321
2026-01-23 21:44:19.04	83.92	9.36	-51.0	-63.9	3.5	1.52e+00	0	41	104	0	60	55304
2026-01-23 21:44:20.05	83.81	9.43	-51.0	-64.0	3.5	1.52e+00	0	41	104	0	60	55409
2026-01-23 21:44:21.06	83.70	9.49	-51.0	-63.9	3.5	1.52e+00	0	41	104	0	60	55104
2026-01-23 21:44:22.07	83.59	9.56	-51.0	-64.0	3.5	1.52e+00	0	41	104	0	60	55499
2026-01-23 21:44:23.08	83.48	9.63	-51.0	-63.9	3.5	1.51e+00	0	41	104	0	60	55263
2026-01-23 21:44:24.09	83.37	9.69	-51.0	-64.0	3.5	1.52e+00	0	41	104	0	60	55316
2026-01-23 21:44:25.10	83.25	9.76	-51.0	-64.0	3.5	1.52e+00	0	41	104	0	60	55422
2026-01-23 21:44:26.11	83.14	9.83	-51.0	-63.9	3.5	1.52e+00	0	41	104	0	60	55262
2026-01-23 21:44:27.12	83.03	9.90	-51.0	-64.0	3.5	1.52e+00	0	41	104	0	60	55489
2026-01-23 21:44:28.13	82.91	9.96	-51.0	-63.9	3.5	1.51e+00	0	41	104	0	60	55222
2026-01-23 21:44:29.14	82.80	10.03	-51.1	-64.0	3.5	1.51e+00	0	41	104	0	60	55352
2026-01-23 21:44:30.15	82.68	10.10	-51.1	-64.0	3.5	1.52e+00	0	42	104	0	60	55411
2026-01-23 21:44:31.16	82.56	10.17	-51.1	-64.0	3.5	1.51e+00	0	41	104	0	60	55457
2026-01-23 21:44:32.17	82.45	10.24	-51.0	-64.0	3.5	1.52e+00	0	42	104	0	60	55353
2026-01-23 21:44:33.18	82.33	10.30	-51.0	-63.9	3.5	1.52e+00	0	42	104	0	60	55282
2026-01-23 21:44:34.19	82.21	10.37	-51.0	-64.0	3.5	1.52e+00	0	41	104	0	60	55505
2026-01-23 21:44:35.20	82.09	10.44	-51.0	-64.0	3.5	1.51e+00	0	41	104	0	60	55445
2026-01-23 21:44:36.21	81.98	10.51	-51.0	-64.0	3.5	1.52e+00	0	41	104	0	60	55434
2026-01-23 21:44:37.22	81.86	10.58	-51.0	-64.0	3.5	1.52e+00	0	42	104	0	60	55328
2026-01-23 21:44:38.23	81.74	10.65	-51.0	-64.0	3.5	1.52e+00	0	41	104	0	60	55386
2026-01-23 21:44:39.24	81.61	10.71	-51.0	-64.0	3.5	1.52e+00	0	41	104	0	60	55374
2026-01-23 21:44:40.25	81.49	10.78	-51.0	-64.0	3.5	1.52e+00	0	41	104	0	60	55365
2026-01-23 21:44:41.25	81.37	10.85	-51.0	-64.0	3.5	1.52e+00	0	41	104	0	60	55613
2026-01-23 21:44:42.26	81.25	10.92	-51.1	-64.0	3.5	1.52e+00	0	41	104	0	60	55526
2026-01-23 21:44:43.27	81.13	10.99	-51.1	-64.0	3.5	1.52e+00	0	41	104	0	60	55700
2026-01-23 21:44:44.28	81.00	11.06	-51.1	-63.9	3.5	1.52e+00	0	41	104	0	60	55306
2026-01-23 21:44:45.29	80.88	11.12	-51.0	-63.9	3.5	1.52e+00	0	41	104	0	60	55278
2026-01-23 21:44:46.31	80.75	11.19	-51.0	-63.9	3.5	1.52e+00	0	42	104	0	60	55297
2026-01-23 21:44:47.32	80.63	11.26	-51.1	-64.0	3.5	1.51e+00	0	41	104	0	60	55483
2026-01-23 21:44:48.32	80.50	11.33	-51.1	-64.0	3.5	1.52e+00	0	41	104	0	60	55561
2026-01-23 21:44:49.33	80.38	11.40	-51.1	-64.0	3.4	1.52e+00	0	42	104	0	60	55514
2026-01-23 21:44:50.35	80.25	11.47	-51.1	-63.9	3.5	1.52e+00	0	41	104	0	60	55269
2026-01-23 21:44:51.36	80.12	11.54	-51.1	-64.0	3.5	1.52e+00	0	42	104	0	60	55486
2026-01-23 21:44:52.36	79.99	11.61	-51.1	-64.0	3.5	1.52e+00	0	41	104	0	60	55333
2026-01-23 21:44:53.37	79.87	11.68	-51.1	-64.0	3.5	1.52e+00	0	42	104	0	60	55421
2026-01-23 21:44:54.38	79.74	11.75	-51.1	-64.0	3.5	1.52e+00	0	42	104	0	60	55580
2026-01-23 21:44:55.39	79.61	11.82	-51.1	-64.0	3.5	1.52e+00	0	42	104	0	60	55580
2026-01-23 21:44:56.40	79.47	11.89	-51.1	-64.0	3.5	1.52e+00	0	42	104	0	60	55527
2026-01-23 21:44:57.41	79.34	11.95	-51.1	-64.0	3.5	1.51e+00	0	41	104	0	60	55313
2026-01-23 21:44:58.42	79.21	12.02	-51.1	-64.0	3.5	1.52e+00	0	41	104	0	60	55505
2026-01-23 21:44:59.43	79.08	12.09	-51.1	-64.0	3.5	1.52e+00	0	41	104	0	60	55447
2026-01-23 21:45:00.44	78.94	12.16	-51.1	-64.0	3.5	1.52e+00	0	42	104	0	60	55401
2026-01-23 21:45:01.45	78.81	12.23	-51.1	-64.0	3.5	1.52e+00	0	41	104	0	60	55486
2026-01-23 21:45:02.46	78.68	12.30	-51.1	-64.0	3.5	1.52e+00	0	42	104	0	60	55428
2026-01-23 21:45:03.46	78.54	12.37	-51.0	-63.9	3.5	1.51e+00	0	42	104	0	60	55222
2026-01-23 21:45:04.47	78.41	12.44	-51.1	-64.0	3.5	1.52e+00	0	41	104	0	60	55668
2026-01-23 21:45:05.48	78.27	12.51	-51.1	-64.0	3.5	1.52e+00	0	42	104	0	60	55419
2026-01-23 21:45:06.49	78.13	12.58	-51.1	-64.0	3.5	1.51e+00	0	41	104	0	60	55548
2026-01-23 21:45:07.50	77.99	12.65	-51.1	-63.9	3.5	1.52e+00	0	42	104	0	60	55146
2026-01-23 21:45:08.51	77.85	12.72	-51.1	-64.0	3.5	1.51e+00	0	42	104	0	60	55372
2026-01-23 21:45:09.52	77.72	12.79	-51.1	-64.0	3.5	1.51e+00	0	42	104	0	60	55415
2026-01-23 21:45:10.53	77.58	12.86	-51.1	-64.0	3.5	1.52e+00	0	42	104	0	60	55518
2026-01-23 21:45:11.54	77.43	12.93	-51.1	-64.0	3.5	1.52e+00	0	41	104	0	60	55706
2026-01-23 21:45:12.55	77.29	13.00	-51.1	-64.0	3.5	1.52e+00	0	42	104	0	60	55458
2026-01-23 21:45:13.56	77.15	13.07	-51.1	-63.9	3.5	1.52e+00	0	42	104	0	60	55285
2026-01-23 21:45:14.57	77.01	13.14	-51.1	-63.9	3.5	1.52e+00	0	42	104	0	60	55283
2026-01-23 21:45:15.58	76.87	13.21	-51.1	-64.0	3.5	1.51e+00	0	42	104	0	60	55503
2026-01-23 21:45:16.59	76.72	13.28	-51.1	-64.0	3.5	1.52e+00	0	42	104	0	60	55508
2026-01-23 21:45:17.60	76.58	13.35	-51.1	-64.0	3.5	1.52e+00	0	42	104	0	60	55392
2026-01-23 21:45:18.61	76.43	13.42	-51.1	-64.0	3.5	1.52e+00	0	42	104	0	60	55389
2026-01-23 21:45:19.62	76.28	13.49	-51.1	-63.9	3.5	1.52e+00	0	42	104	0	60	55087
2026-01-23 21:45:20.63	76.14	13.56	-51.1	-64.0	3.5	1.52e+00	0	42	104	0	60	55380
2026-01-23 21:45:21.64	75.99	13.63	-51.1	-63.9	3.5	1.51e+00	0	42	104	0	60	55209
2026-01-23 21:45:22.65	75.84	13.70	-51.1	-64.0	3.5	1.52e+00	0	42	104	0	60	55668
2026-01-23 21:45:23.66	75.69	13.77	-51.0	-64.0	3.5	1.51e+00	0	42	104	0	60	55513
2026-01-23 21:45:24.67	75.54	13.84	-51.0	-63.9	3.5	1.52e+00	0	42	104	0	60	55200
2026-01-23 21:45:25.69	75.39	13.91	-51.0	-63.9	3.5	1.52e+00	0	42	104	0	60	55262
2026-01-23 21:45:26.70	75.24	13.98	-51.1	-63.9	3.5	1.52e+00	0	42	104	0	60	55198
2026-01-23 21:45:27.71	75.09	14.05	-51.0	-64.0	3.5	1.52e+00	0	42	104	0	60	55681
2026-01-23 21:45:28.72	74.93	14.12	-51.0	-63.9	3.5	1.52e+00	0	42	104	0	60	55260
2026-01-23 21:45:29.73	74.78	14.19	-51.0	-63.9	3.5	1.52e+00	0	42	104	0	60	55267
2026-01-23 21:45:30.74	74.63	14.26	-51.0	-63.9	3.5	1.52e+00	0	42	104	0	60	55040
2026-01-23 21:45:31.75	74.47	14.34	-51.0	-63.9	3.5	1.52e+00	0	42	104	0	60	55057
2026-01-23 21:45:32.76	74.32	14.41	-51.0	-64.0	3.5	1.52e+00	0	42	104	0	60	55467
2026-01-23 21:45:33.77	74.16	14.48	-51.0	-63.9	3.5	1.51e+00	0	42	104	0	60	55248
2026-01-23 21:45:34.78	74.00	14.55	-51.0	-64.0	3.5	1.52e+00	0	42	104	0	60	55494
2026-01-23 21:45:35.79	73.85	14.62	-51.0	-64.0	3.5	1.52e+00	0	42	104	0	60	55371
2026-01-23 21:45:36.80	73.69	14.69	-51.0	-64.0	3.5	1.52e+00	0	42	104	0	60	55447
2026-01-23 21:45:37.81	73.53	14.76	-51.0	-63.9	3.5	1.52e+00	0	42	104	0	60	55296
2026-01-23 21:45:38.82	73.37	14.83	-51.0	-63.9	3.5	1.52e+00	0	42	104	0	60	55236
2026-01-23 21:45:39.83	73.21	14.90	-51.0	-64.0	3.5	1.52e+00	0	42	104	0	60	55605
2026-01-23 21:45:40.84	73.04	14.97	-51.0	-64.0	3.5	1.51e+00	0	42	104	0	60	55338
2026-01-23 21:45:41.85	72.88	15.04	-51.0	-63.9	3.5	1.52e+00	0	42	104	0	60	55287
2026-01-23 21:45:42.86	72.72	15.11	-51.0	-63.9	3.5	1.52e+00	0	42	104	0	60	55303
2026-01-23 21:45:43.87	72.55	15.18	-51.0	-63.9	3.5	1.52e+00	0	42	104	0	60	55192
2026-01-23 21:45:44.88	72.39	15.25	-51.0	-63.9	3.5	1.52e+00	0	42	104	0	60	55257
2026-01-23 21:45:45.89	72.22	15.32	-51.0	-64.0	3.5	1.52e+00	0	42	104	0	60	55405
2026-01-23 21:45:46.90	72.06	15.39	-51.0	-63.9	3.5	1.52e+00	0	42	104	0	60	55010
2026-01-23 21:45:47.91	71.89	15.46	-51.0	-63.9	3.5	1.52e+00	0	42	104	0	60	55199
2026-01-23 21:45:48.92	71.72	15.53	-51.0	-63.9	3.5	1.52e+00	0	42	104	0	60	55048
2026-01-23 21:45:49.93	71.55	15.60	-51.0	-64.0	3.5	1.52e+00	0	42	104	0	60	55372
2026-01-23 21:45:50.94	71.38	15.66	-51.0	-63.9	3.5	1.52e+00	0	42	104	0	60	55225
2026-01-23 21:45:51.95	71.21	15.73	-51.0	-63.9	3.5	1.52e+00	0	42	104	0	60	55051
2026-01-23 21:45:52.96	71.04	15.80	-51.0	-63.9	3.5	1.52e+00	0	42	104	0	60	55149
2026-01-23 21:45:53.97	70.87	15.87	-51.0	-63.9	3.5	1.52e+00	0	42	104	0	60	55087
2026-01-23 21:45:54.98	70.70	15.94	-51.0	-63.9	3.5	1.52e+00	0	42	104	0	60	55173
2026-01-23 21:45:55.99	70.52	16.01	-51.0	-64.0	3.5	1.52e+00	0	42	104	0	60	55322
2026-01-23 21:45:57.00	70.35	16.08	-51.0	-63.9	3.5	1.52e+00	0	42	104	0	60	55000
2026-01-23 21:45:58.01	70.17	16.15	-51.0	-63.9	3.5	1.52e+00	0	42	104	0	60	55206
2026-01-23 21:45:59.02	70.00	16.22	-51.0	-63.9	3.5	1.52e+00	0	42	104	0	60	55036
2026-01-23 21:46:00.03	69.82	16.29	-51.0	-63.9	3.5	1.52e+00	0	42	104	0	60	55306
2026-01-23 21:46:01.04	69.64	16.36	-51.0	-63.9	3.5	1.52e+00	0	42	104	0	60	55148
2026-01-23 21:46:02.05	69.47	16.43	-51.0	-63.9	3.5	1.52e+00	0	42	104	0	60	55088
2026-01-23 21:46:03.06	69.29	16.49	-51.0	-63.9	3.5	1.52e+00	0	42	104	0	60	55077
2026-01-23 21:46:04.07	69.11	16.56	-51.0	-63.9	3.5	1.52e+00	0	42	104	0	60	55071
2026-01-23 21:46:05.08	68.92	16.63	-51.0	-63.9	3.5	1.52e+00	0	42	104	0	60	55053
2026-01-23 21:46:06.09	68.74	16.70	-51.0	-64.0	3.5	1.51e+00	0	42	104	0	60	55431
2026-01-23 21:46:07.10	68.56	16.77	-51.0	-63.9	3.5	1.52e+00	0	42	104	0	60	55057
2026-01-23 21:46:08.11	68.38	16.84	-51.0	-63.9	3.5	1.52e+00	0	42	104	0	60	55231
2026-01-23 21:46:09.12	68.19	16.90	-51.0	-63.9	3.5	1.51e+00	0	42	104	0	60	55233
2026-01-23 21:46:10.13	68.01	16.97	-51.0	-64.0	3.5	1.52e+00	0	42	104	0	60	55318
2026-01-23 21:46:11.14	67.82	17.04	-51.0	-63.9	3.5	1.52e+00	0	42	104	0	60	55123
2026-01-23 21:46:12.15	67.63	17.11	-51.0	-63.9	3.5	1.52e+00	0	42	104	0	60	54953
2026-01-23 21:46:13.16	67.45	17.18	-51.0	-63.9	3.5	1.52e+00	0	42	104	0	60	54858
2026-01-23 21:46:14.17	67.26	17.24	-51.0	-63.9	3.5	1.52e+00	0	42	104	0	60	54842
2026-01-23 21:46:15.18	67.07	17.31	-51.0	-64.0	3.5	1.52e+00	0	42	104	0	60	55366
2026-01-23 21:46:16.19	66.88	17.38	-51.0	-63.9	3.5	1.52e+00	0	42	104	0	60	54894
2026-01-23 21:46:17.20	66.69	17.45	-51.0	-64.0	3.5	1.52e+00	0	42	104	0	60	55322
2026-01-23 21:46:18.21	66.49	17.51	-51.0	-63.9	3.5	1.52e+00	0	42	104	0	60	55303
2026-01-23 21:46:19.22	66.30	17.58	-51.0	-63.9	3.5	1.52e+00	0	42	104	0	60	55213
2026-01-23 21:46:20.23	66.11	17.65	-51.0	-63.9	3.5	1.52e+00	0	42	104	0	60	55171
2026-01-23 21:46:21.24	65.91	17.71	-51.0	-63.9	3.5	1.52e+00	0	42	104	0	60	55180
2026-01-23 21:46:22.25	65.72	17.78	-51.0	-63.9	3.5	1.52e+00	0	42	104	0	60	55263
2026-01-23 21:46:23.26	65.52	17.84	-51.0	-63.9	3.5	1.52e+00	0	42	104	0	60	55204
2026-01-23 21:46:24.27	65.32	17.91	-51.0	-63.9	3.5	1.52e+00	0	42	104	0	60	55110
2026-01-23 21:46:25.28	65.13	17.98	-51.0	-64.0	3.5	1.52e+00	0	42	104	0	60	55331
2026-01-23 21:46:26.29	64.93	18.04	-51.0	-63.9	3.5	1.52e+00	0	42	104	0	60	55067
2026-01-23 21:46:27.30	64.73	18.11	-51.0	-63.9	3.5	1.52e+00	0	42	104	0	60	55244
2026-01-23 21:46:28.31	64.53	18.17	-51.0	-63.9	3.5	1.52e+00	0	42	104	0	60	54847
2026-01-23 21:46:29.32	64.33	18.24	-51.0	-64.0	3.5	1.52e+00	0	42	104	0	60	55387
2026-01-23 21:46:30.33	64.12	18.30	-51.0	-63.9	3.5	1.52e+00	0	42	104	0	60	54975
2026-01-23 21:46:31.34	63.92	18.37	-51.0	-63.9	3.5	1.52e+00	0	42	104	0	60	54947
2026-01-23 21:46:32.35	63.72	18.43	-51.0	-63.9	3.5	1.52e+00	0	42	104	0	60	55182
2026-01-23 21:46:33.35	63.51	18.49	-51.0	-63.9	3.5	1.52e+00	0	42	104	0	60	55025
2026-01-23 21:46:34.36	63.31	18.56	-51.0	-63.9	3.5	1.52e+00	0	42	104	0	60	55146
2026-01-23 21:46:35.37	63.10	18.62	-51.0	-63.9	3.5	1.52e+00	0	42	104	0	60	55036
2026-01-23 21:46:36.38	62.89	18.69	-51.0	-63.9	3.5	1.52e+00	0	42	104	0	60	55130
2026-01-23 21:46:37.39	62.68	18.75	-51.0	-63.9	3.5	1.52e+00	0	42	104	0	60	55109
2026-01-23 21:46:38.40	62.47	18.81	-51.0	-64.0	3.5	1.52e+00	0	42	104	0	60	55407
2026-01-23 21:46:39.41	62.26	18.87	-51.0	-63.9	3.5	1.52e+00	0	42	104	0	60	55225
2026-01-23 21:46:40.42	62.05	18.94	-51.0	-63.9	3.5	1.52e+00	0	42	104	0	60	55008
2026-01-23 21:46:41.43	61.84	19.00	-51.0	-63.9	3.5	1.52e+00	0	42	104	0	60	54900
2026-01-23 21:46:42.44	61.63	19.06	-51.0	-64.0	3.5	1.51e+00	0	42	104	0	60	55327
2026-01-23 21:46:43.45	61.41	19.12	-51.0	-63.9	3.5	1.52e+00	0	42	104	0	60	55035
2026-01-23 21:46:44.46	61.20	19.18	-51.0	-63.9	3.5	1.52e+00	0	42	104	0	60	55174
2026-01-23 21:46:45.47	60.98	19.25	-51.0	-63.9	3.5	1.52e+00	0	42	104	0	60	55217
2026-01-23 21:46:46.48	60.77	19.31	-51.0	-63.9	3.5	1.51e+00	0	42	104	0	60	55014
2026-01-23 21:46:47.49	60.55	19.37	-51.0	-63.9	3.5	1.52e+00	0	42	104	0	60	54909
2026-01-23 21:46:48.50	60.33	19.43	-51.0	-63.9	3.5	1.52e+00	0	42	104	0	60	55061
2026-01-23 21:46:49.51	60.11	19.49	-51.0	-63.9	3.5	1.52e+00	0	42	104	0	60	55083
2026-01-23 21:46:50.52	59.89	19.55	-51.0	-63.9	3.5	1.52e+00	0	42	104	0	60	55152
2026-01-23 21:46:51.53	59.67	19.61	-51.0	-63.9	3.5	1.52e+00	0	42	104	0	60	55241
2026-01-23 21:46:52.54	59.45	19.67	-51.0	-63.9	3.5	1.52e+00	0	42	104	0	60	55077
2026-01-23 21:46:53.55	59.23	19.72	-51.0	-63.9	3.5	1.52e+00	0	42	104	0	60	55157
2026-01-23 21:46:54.56	59.01	19.78	-51.0	-63.9	3.5	1.52e+00	0	42	104	0	60	55076
2026-01-23 21:46:55.57	58.78	19.84	-51.0	-63.9	3.5	1.52e+00	0	42	104	0	60	55277
2026-01-23 21:46:56.58	58.56	19.90	-51.0	-63.9	3.5	1.52e+00	0	42	104	0	60	54876
2026-01-23 21:46:57.59	58.33	19.96	-51.0	-63.9	3.5	1.52e+00	0	42	104	0	60	55022
2026-01-23 21:46:58.60	58.10	20.01	-51.0	-63.9	3.5	1.52e+00	0	42	104	0	60	54794
2026-01-23 21:46:59.61	57.88	20.07	-51.0	-63.9	3.5	1.52e+00	0	42	104	0	60	54935
2026-01-23 21:47:00.62	57.65	20.13	-51.0	-63.9	3.5	1.52e+00	0	42	104	0	60	55179
2026-01-23 21:47:01.63	57.42	20.18	-51.0	-63.9	3.5	1.52e+00	0	42	104	0	60	54952
2026-01-23 21:47:02.64	57.19	20.24	-51.0	-63.9	3.5	1.52e+00	0	42	104	0	60	55109
2026-01-23 21:47:03.65	56.96	20.30	-51.0	-63.9	3.5	1.52e+00	0	42	104	0	60	54916
2026-01-23 21:47:04.66	56.73	20.35	-51.0	-63.9	3.5	1.52e+00	0	42	104	0	60	54679
2026-01-23 21:47:05.67	56.49	20.41	-51.0	-63.9	3.5	1.52e+00	0	42	104	0	60	55015
2026-01-23 21:47:06.68	56.26	20.46	-51.0	-63.9	3.5	1.52e+00	0	42	104	0	60	54938
2026-01-23 21:47:07.69	56.03	20.51	-51.0	-63.9	3.5	1.52e+00	0	42	104	0	60	55051
2026-01-23 21:47:08.70	55.79	20.57	-51.0	-63.9	3.5	1.51e+00	0	42	104	0	60	55196
2026-01-23 21:47:09.71	55.55	20.62	-51.0	-64.0	3.5	1.52e+00	0	42	104	0	60	55326
2026-01-23 21:47:10.72	55.32	20.67	-51.0	-63.9	3.5	1.52e+00	0	42	104	0	60	55158
2026-01-23 21:47:11.73	55.08	20.73	-51.0	-64.0	3.5	1.52e+00	0	42	104	0	60	55311
2026-01-23 21:47:12.74	54.84	20.78	-51.0	-63.9	3.5	1.52e+00	0	42	104	0	60	55034
2026-01-23 21:47:13.75	54.60	20.83	-51.0	-63.9	3.5	1.52e+00	0	42	104	0	60	54984
2026-01-23 21:47:14.76	54.36	20.88	-51.0	-63.9	3.5	1.52e+00	0	42	104	0	60	55104
2026-01-23 21:47:15.77	54.12	20.93	-51.0	-64.0	3.5	1.52e+00	0	42	104	0	60	55550
2026-01-23 21:47:16.78	53.88	20.98	-51.0	-63.9	3.5	1.52e+00	0	42	104	0	60	54983
2026-01-23 21:47:17.79	53.64	21.03	-51.0	-63.9	3.5	1.52e+00	0	42	104	0	60	54921
2026-01-23 21:47:18.80	53.39	21.08	-51.0	-63.9	3.5	1.52e+00	0	42	104	0	60	54940
2026-01-23 21:47:19.81	53.15	21.13	-51.0	-63.9	3.5	1.52e+00	0	42	104	0	60	55222
2026-01-23 21:47:20.82	52.91	21.18	-51.0	-63.9	3.5	1.52e+00	0	42	104	0	60	55133
2026-01-23 21:47:21.83	52.66	21.22	-51.0	-64.0	3.5	1.52e+00	0	42	104	0	60	55402
2026-01-23 21:47:22.84	52.41	21.27	-51.0	-63.9	3.5	1.52e+00	0	42	104	0	60	55151
2026-01-23 21:47:23.85	52.17	21.32	-51.0	-63.9	3.5	1.52e+00	0	42	104	0	60	55069
2026-01-23 21:47:24.86	51.92	21.37	-51.0	-64.0	3.5	1.51e+00	0	42	104	0	60	55554
2026-01-23 21:47:25.87	51.67	21.41	-51.0	-63.9	3.5	1.52e+00	0	42	104	0	60	54909
2026-01-23 21:47:26.88	51.42	21.46	-51.0	-63.9	3.5	1.52e+00	0	42	104	0	60	55164
2026-01-23 21:47:27.89	51.17	21.50	-51.0	-63.9	3.5	1.52e+00	0	42	104	0	60	55007
2026-01-23 21:47:28.89	50.92	21.55	-51.0	-63.9	3.5	1.51e+00	0	42	104	0	60	55120
2026-01-23 21:47:29.90	50.67	21.59	-51.0	-63.9	3.5	1.52e+00	0	42	104	0	60	55018
2026-01-23 21:47:30.91	50.42	21.63	-51.0	-63.9	3.5	1.52e+00	0	42	104	0	60	55174
2026-01-23 21:47:31.92	50.17	21.68	-51.0	-63.9	3.5	1.52e+00	0	42	104	0	60	55021
2026-01-23 21:47:32.93	49.91	21.72	-51.0	-63.9	3.5	1.52e+00	0	42	104	0	60	55083
2026-01-23 21:47:33.94	49.66	21.76	-51.0	-63.9	3.5	1.52e+00	0	42	104	0	60	55121
2026-01-23 21:47:34.95	49.41	21.80	-51.0	-63.9	3.5	1.52e+00	0	42	104	0	60	55090
2026-01-23 21:47:35.96	49.15	21.84	-51.1	-63.9	3.5	1.52e+00	0	42	104	0	60	55274
2026-01-23 21:47:36.97	48.89	21.88	-51.0	-63.9	3.5	1.52e+00	0	42	104	0	60	55286
2026-01-23 21:47:37.98	48.64	21.92	-51.1	-63.9	3.5	1.52e+00	0	42	104	0	60	55226
2026-01-23 21:47:38.99	48.38	21.96	-51.0	-64.0	3.5	1.51e+00	0	42	104	0	60	55335
2026-01-23 21:47:40.00	48.12	22.00	-51.0	-63.9	3.5	1.52e+00	0	42	104	0	60	55206
2026-01-23 21:47:41.01	47.86	22.04	-51.1	-64.0	3.5	1.52e+00	0	42	104	0	60	55393
2026-01-23 21:47:42.02	47.60	22.08	-51.1	-64.0	3.5	1.52e+00	0	42	104	0	60	55458
2026-01-23 21:47:43.03	47.34	22.11	-51.1	-63.9	3.5	1.52e+00	0	42	104	0	60	55144
2026-01-23 21:47:44.04	47.08	22.15	-51.1	-64.0	3.5	1.52e+00	0	42	104	0	60	55393
2026-01-23 21:47:45.06	46.82	22.19	-51.1	-64.0	3.5	1.52e+00	0	42	104	0	60	55467
2026-01-23 21:47:46.07	46.56	22.22	-51.1	-63.9	3.5	1.52e+00	0	42	104	0	60	55282
2026-01-23 21:47:47.08	46.29	22.26	-51.1	-64.0	3.5	1.51e+00	0	42	104	0	60	55563
2026-01-23 21:47:48.08	46.03	22.29	-51.1	-63.9	3.5	1.52e+00	0	42	104	0	60	55252
2026-01-23 21:47:49.10	45.77	22.32	-51.1	-63.9	3.5	1.52e+00	0	42	104	0	60	55297
2026-01-23 21:47:50.10	45.50	22.36	-51.1	-63.9	3.5	1.52e+00	0	42	104	0	60	54970
2026-01-23 21:47:51.11	45.24	22.39	-51.1	-64.0	3.5	1.51e+00	0	42	104	0	60	55358
2026-01-23 21:47:52.12	44.97	22.42	-51.1	-63.9	3.5	1.52e+00	0	42	104	0	60	55303
2026-01-23 21:47:53.13	44.71	22.45	-51.1	-64.0	3.5	1.52e+00	0	42	104	0	60	55338
2026-01-23 21:47:54.14	44.44	22.48	-51.1	-64.0	3.5	1.52e+00	0	42	104	0	60	55368
2026-01-23 21:47:55.15	44.18	22.51	-51.1	-64.0	3.5	1.52e+00	0	42	104	0	60	55594
2026-01-23 21:47:56.16	43.91	22.54	-51.1	-64.0	3.5	1.52e+00	0	42	104	0	60	55389
2026-01-23 21:47:57.17	43.64	22.57	-51.1	-64.0	3.5	1.51e+00	0	42	104	0	60	55327
2026-01-23 21:47:58.18	43.37	22.59	-51.1	-64.0	3.5	1.52e+00	0	42	104	0	60	55504
2026-01-23 21:47:59.19	43.10	22.62	-51.1	-64.0	3.5	1.52e+00	0	42	104	0	60	55556
2026-01-23 21:48:00.20	42.83	22.65	-51.1	-64.0	3.5	1.51e+00	0	42	104	0	60	55359
2026-01-23 21:48:01.21	42.56	22.67	-51.1	-64.0	3.5	1.52e+00	0	42	104	0	60	55472
2026-01-23 21:48:02.22	42.29	22.70	-51.1	-64.0	3.5	1.52e+00	0	42	104	0	60	55496
2026-01-23 21:48:03.23	42.02	22.72	-51.1	-64.0	3.5	1.51e+00	0	42	104	0	60	55502
2026-01-23 21:48:04.24	41.75	22.75	-51.1	-64.0	3.5	1.52e+00	0	42	104	0	60	55419
2026-01-23 21:48:05.25	41.48	22.77	-51.1	-64.0	3.5	1.52e+00	0	42	104	0	60	55686
2026-01-23 21:48:06.26	41.21	22.79	-51.1	-64.0	3.5	1.52e+00	0	42	104	0	60	55599
2026-01-23 21:48:07.27	40.94	22.81	-51.1	-64.0	3.5	1.52e+00	0	42	104	0	60	55412
2026-01-23 21:48:08.28	40.66	22.84	-51.1	-64.0	3.5	1.52e+00	0	42	104	0	60	55479
2026-01-23 21:48:09.29	40.39	22.86	-51.1	-64.0	3.5	1.52e+00	0	42	104	0	60	55466
2026-01-23 21:48:10.30	40.12	22.88	-51.1	-64.0	3.5	1.52e+00	0	42	104	0	60	55550
2026-01-23 21:48:11.31	39.84	22.89	-51.1	-64.0	3.5	1.52e+00	0	42	104	0	60	55507
2026-01-23 21:48:12.32	39.57	22.91	-51.1	-64.0	3.5	1.52e+00	0	42	104	0	60	55564
2026-01-23 21:48:13.33	39.30	22.93	-51.1	-64.0	3.5	1.52e+00	0	42	104	0	60	55407
2026-01-23 21:48:14.34	39.02	22.95	-51.1	-64.0	3.5	1.52e+00	0	42	104	0	60	55557
2026-01-23 21:48:15.35	38.75	22.96	-51.1	-64.0	3.5	1.52e+00	0	42	104	0	60	55629
2026-01-23 21:48:16.36	38.47	22.98	-51.1	-64.0	3.5	1.52e+00	0	42	104	0	60	55392
2026-01-23 21:48:17.37	38.20	22.99	-51.1	-64.0	3.4	1.52e+00	0	42	104	0	60	55581
2026-01-23 21:48:18.37	37.92	23.01	-51.1	-64.0	3.5	1.52e+00	0	42	104	0	60	55614
2026-01-23 21:48:19.39	37.64	23.02	-51.1	-63.9	3.5	1.52e+00	0	42	104	0	60	55278
2026-01-23 21:48:20.40	37.37	23.03	-51.1	-64.0	3.5	1.52e+00	0	42	104	0	60	55390
2026-01-23 21:48:21.41	37.09	23.05	-51.1	-64.0	3.5	1.52e+00	0	42	104	0	60	55517
2026-01-23 21:48:22.42	36.81	23.06	-51.1	-64.0	3.5	1.52e+00	0	42	104	0	60	55443
2026-01-23 21:48:23.43	36.54	23.07	-51.1	-64.0	3.5	1.52e+00	0	42	104	0	60	55708
2026-01-23 21:48:24.44	36.26	23.08	-51.1	-64.0	3.5	1.52e+00	0	42	104	0	60	55776
2026-01-23 21:48:25.45	35.98	23.09	-51.1	-64.0	3.5	1.52e+00	0	42	104	0	60	55533
2026-01-23 21:48:26.45	35.71	23.10	-51.1	-64.0	3.5	1.52e+00	0	42	104	0	60	55847
2026-01-23 21:48:27.46	35.43	23.10	-51.1	-64.0	3.5	1.51e+00	0	42	104	0	60	55625
2026-01-23 21:48:28.47	35.15	23.11	-51.1	-64.0	3.5	1.51e+00	0	42	104	0	60	55493
2026-01-23 21:48:29.48	34.88	23.12	-51.1	-64.0	3.5	1.52e+00	0	42	104	0	60	55645
2026-01-23 21:48:30.49	34.60	23.12	-51.1	-64.0	3.5	1.52e+00	0	42	104	0	60	55606
2026-01-23 21:48:31.50	34.32	23.13	-51.1	-64.0	3.5	1.52e+00	0	42	104	0	60	55520
2026-01-23 21:48:32.51	34.04	23.13	-51.1	-64.0	3.5	1.52e+00	0	42	104	0	60	55415
2026-01-23 21:48:33.52	33.76	23.13	-51.1	-64.0	3.5	1.52e+00	0	42	104	0	60	55690
2026-01-23 21:48:34.53	33.49	23.14	-51.1	-64.0	3.5	1.52e+00	0	42	104	0	60	55674
2026-01-23 21:48:35.54	33.21	23.14	-51.1	-64.0	3.5	1.52e+00	0	42	104	0	60	55621
2026-01-23 21:48:36.55	32.93	23.14	-51.1	-64.0	3.5	1.51e+00	0	42	104	0	60	55762
2026-01-23 21:48:37.56	32.65	23.14	-51.1	-64.0	3.5	1.52e+00	0	42	104	0	60	55440
2026-01-23 21:48:38.57	32.37	23.14	-51.1	-64.0	3.5	1.51e+00	0	42	104	0	60	55325
2026-01-23 21:48:39.58	32.10	23.14	-51.1	-64.0	3.5	1.52e+00	0	42	104	0	60	55485
2026-01-23 21:48:40.59	31.82	23.14	-51.1	-63.9	3.5	1.51e+00	0	42	104	0	60	55296
2026-01-23 21:48:41.60	31.54	23.14	-51.1	-64.0	3.5	1.52e+00	0	42	104	0	60	55358
2026-01-23 21:48:42.61	31.26	23.13	-51.1	-63.9	3.5	1.52e+00	0	42	104	0	60	55285
2026-01-23 21:48:43.62	30.98	23.13	-51.1	-64.0	3.5	1.52e+00	0	42	104	0	60	55742
2026-01-23 21:48:44.63	30.71	23.12	-51.1	-64.0	3.5	1.51e+00	0	42	104	0	60	55598
2026-01-23 21:48:45.64	30.43	23.12	-51.1	-64.0	3.5	1.52e+00	0	42	104	0	60	55397
2026-01-23 21:48:46.65	30.15	23.11	-51.1	-63.9	3.5	1.52e+00	0	42	104	0	60	55306
2026-01-23 21:48:47.66	29.87	23.11	-51.1	-64.0	3.5	1.52e+00	0	42	104	0	60	55583
2026-01-23 21:48:48.67	29.60	23.10	-51.1	-63.9	3.5	1.52e+00	0	42	104	0	60	55199
2026-01-23 21:48:49.68	29.32	23.09	-51.1	-64.0	3.5	1.52e+00	0	42	104	0	60	55472
2026-01-23 21:48:50.69	29.04	23.08	-51.1	-64.0	3.5	1.52e+00	0	42	104	0	60	55473
2026-01-23 21:48:51.70	28.76	23.07	-51.1	-64.0	3.5	1.52e+00	0	42	104	0	60	55600
2026-01-23 21:48:52.71	28.49	23.06	-51.1	-64.0	3.5	1.51e+00	0	42	104	0	60	55585
2026-01-23 21:48:53.72	28.21	23.05	-51.1	-64.0	3.5	1.52e+00	0	42	104	0	60	55490
2026-01-23 21:48:54.73	27.94	23.04	-51.1	-64.0	3.5	1.52e+00	0	42	104	0	60	55613
2026-01-23 21:48:55.74	27.66	23.03	-51.1	-63.9	3.5	1.52e+00	0	42	104	0	60	55240
2026-01-23 21:48:56.75	27.38	23.01	-51.1	-63.9	3.5	1.51e+00	0	42	104	0	60	55201
2026-01-23 21:48:57.76	27.11	23.00	-51.1	-64.0	3.5	1.52e+00	0	42	104	0	60	55689
2026-01-23 21:48:58.77	26.83	22.98	-51.1	-64.0	3.5	1.52e+00	0	42	104	0	60	55802
2026-01-23 21:48:59.78	26.56	22.97	-51.1	-64.0	3.5	1.52e+00	0	42	104	0	60	55458
2026-01-23 21:49:00.79	26.28	22.95	-51.1	-64.0	3.5	1.52e+00	0	42	104	0	60	55754
2026-01-23 21:49:01.80	26.01	22.94	-51.1	-64.0	3.5	1.52e+00	0	42	104	0	60	55920
2026-01-23 21:49:02.81	25.73	22.92	-51.1	-64.0	3.5	1.52e+00	0	42	104	0	60	55459
2026-01-23 21:49:03.82	25.46	22.90	-51.1	-64.0	3.5	1.51e+00	0	42	104	0	60	55772
2026-01-23 21:49:04.83	25.19	22.88	-51.1	-64.0	3.5	1.52e+00	0	42	104	0	60	55549
2026-01-23 21:49:05.84	24.91	22.86	-51.1	-64.0	3.5	1.52e+00	0	42	104	0	60	55694
2026-01-23 21:49:06.85	24.64	22.84	-51.1	-64.1	3.5	1.52e+00	0	42	104	0	60	55993
2026-01-23 21:49:07.86	24.37	22.82	-51.1	-64.0	3.5	1.52e+00	0	42	104	0	60	55689
2026-01-23 21:49:08.87	24.10	22.80	-51.1	-64.0	3.5	1.52e+00	0	42	104	0	60	55682
2026-01-23 21:49:09.88	23.82	22.78	-51.1	-64.0	3.5	1.52e+00	0	42	104	0	60	55742
2026-01-23 21:49:10.89	23.55	22.75	-51.1	-64.0	3.5	1.51e+00	0	42	104	0	60	55799
2026-01-23 21:49:11.90	23.28	22.73	-51.1	-64.0	3.5	1.52e+00	0	42	104	0	60	55575
2026-01-23 21:49:12.91	23.01	22.71	-51.1	-64.0	3.5	1.52e+00	0	42	104	0	60	55827
2026-01-23 21:49:13.92	22.74	22.68	-51.1	-64.0	3.5	1.52e+00	0	42	104	0	60	55559
2026-01-23 21:49:14.93	22.47	22.65	-51.1	-64.0	3.5	1.52e+00	0	42	104	0	60	55477
2026-01-23 21:49:15.94	22.20	22.63	-51.1	-64.1	3.5	1.52e+00	0	42	104	0	60	55997
2026-01-23 21:49:16.95	21.93	22.60	-51.1	-64.0	3.5	1.52e+00	0	42	104	0	60	55705
2026-01-23 21:49:17.96	21.66	22.57	-51.1	-64.0	3.5	1.52e+00	0	42	104	0	60	55766
2026-01-23 21:49:18.97	21.40	22.55	-51.1	-64.0	3.5	1.52e+00	0	42	104	0	60	55646
2026-01-23 21:49:19.98	21.13	22.52	-51.1	-64.0	3.5	1.52e+00	0	42	104	0	60	55563
2026-01-23 21:49:20.99	20.86	22.49	-51.1	-64.0	3.5	1.52e+00	0	42	104	0	60	55527
2026-01-23 21:49:22.00	20.60	22.46	-51.1	-64.0	3.5	1.52e+00	0	42	104	0	60	55764
2026-01-23 21:49:23.01	20.33	22.43	-51.1	-64.0	3.5	1.52e+00	0	42	104	0	60	55673
2026-01-23 21:49:24.02	20.07	22.40	-51.1	-64.0	3.5	1.52e+00	0	42	104	0	60	55428
2026-01-23 21:49:25.03	19.80	22.36	-51.1	-64.0	3.5	1.52e+00	0	42	104	0	60	55522
2026-01-23 21:49:26.03	19.54	22.33	-51.1	-64.0	3.5	1.52e+00	0	42	104	0	60	55323
2026-01-23 21:49:27.04	19.28	22.30	-51.1	-64.0	3.5	1.52e+00	0	42	104	0	60	55768
2026-01-23 21:49:28.06	19.01	22.26	-51.1	-64.0	3.5	1.51e+00	0	42	104	0	60	55748
2026-01-23 21:49:29.07	18.75	22.23	-51.1	-64.0	3.5	1.52e+00	0	42	104	0	60	55494
2026-01-23 21:49:30.08	18.49	22.19	-51.1	-64.0	3.5	1.52e+00	0	42	104	0	60	55633
2026-01-23 21:49:31.08	18.23	22.16	-51.1	-64.0	3.5	1.52e+00	0	42	104	0	60	55675
2026-01-23 21:49:32.09	17.97	22.12	-51.1	-63.9	3.5	1.52e+00	0	42	104	0	60	55164
2026-01-23 21:49:33.10	17.71	22.09	-51.1	-63.9	3.5	1.52e+00	0	42	104	0	60	55050
2026-01-23 21:49:34.11	17.45	22.05	-51.1	-63.9	3.5	1.52e+00	0	42	104	0	60	55195
2026-01-23 21:49:35.12	17.19	22.01	-51.1	-63.9	3.5	1.51e+00	0	42	104	0	60	55183
2026-01-23 21:49:36.13	16.93	21.97	-51.1	-64.0	3.5	1.52e+00	0	42	104	0	60	55376
2026-01-23 21:49:37.14	16.67	21.93	-51.1	-64.0	3.5	1.52e+00	0	42	104	0	60	55679
2026-01-23 21:49:38.15	16.42	21.89	-51.1	-64.0	3.5	1.52e+00	0	42	104	0	60	55647
2026-01-23 21:49:39.16	16.16	21.85	-51.1	-64.0	3.5	1.52e+00	0	42	104	0	60	55640
2026-01-23 21:49:40.17	15.91	21.81	-51.1	-64.0	3.5	1.52e+00	0	42	104	0	60	55615
2026-01-23 21:49:41.18	15.65	21.77	-51.1	-64.0	3.5	1.52e+00	0	42	104	0	60	55635
2026-01-23 21:49:42.19	15.40	21.73	-51.1	-64.0	3.5	1.52e+00	0	42	104	0	60	55367
2026-01-23 21:49:43.20	15.14	21.69	-51.1	-64.0	3.5	1.52e+00	0	42	104	0	60	55338
2026-01-23 21:49:44.20	14.89	21.65	-51.1	-64.0	3.5	1.51e+00	0	42	104	0	60	55748
2026-01-23 21:49:45.21	14.64	21.60	-51.1	-64.0	3.5	1.52e+00	0	42	104	0	60	55649
2026-01-23 21:49:46.22	14.39	21.56	-51.1	-64.0	3.5	1.52e+00	0	42	104	0	60	55485
2026-01-23 21:49:47.23	14.14	21.51	-51.1	-64.0	3.5	1.52e+00	0	42	104	0	60	55675
2026-01-23 21:49:48.24	13.89	21.47	-51.1	-64.0	3.5	1.52e+00	0	42	104	0	60	55579
2026-01-23 21:49:49.25	13.64	21.42	-51.1	-64.0	3.5	1.52e+00	0	42	104	0	60	55528
2026-01-23 21:49:50.26	13.39	21.38	-51.1	-64.0	3.5	1.52e+00	0	42	104	0	60	55823
2026-01-23 21:49:51.27	13.15	21.33	-51.1	-64.0	3.5	1.52e+00	0	42	104	0	60	55786
2026-01-23 21:49:52.28	12.90	21.29	-51.1	-64.0	3.5	1.52e+00	0	42	104	0	60	55799
2026-01-23 21:49:53.29	12.65	21.24	-51.1	-64.0	3.5	1.52e+00	0	42	104	0	60	55561
2026-01-23 21:49:54.30	12.41	21.19	-51.1	-64.0	3.5	1.52e+00	0	42	104	0	60	55691
2026-01-23 21:49:55.31	12.16	21.14	-51.1	-64.0	3.5	1.52e+00	0	42	104	0	60	55406
2026-01-23 21:49:56.32	11.92	21.09	-51.1	-64.0	3.5	1.52e+00	0	42	104	0	60	55393
2026-01-23 21:49:57.33	11.68	21.04	-51.1	-64.0	3.5	1.52e+00	0	42	104	0	60	55690
2026-01-23 21:49:58.34	11.44	21.00	-51.1	-64.0	3.5	1.52e+00	0	42	104	0	60	55826
2026-01-23 21:49:59.35	11.19	20.95	-51.1	-64.0	3.5	1.52e+00	0	42	104	0	60	55523
2026-01-23 21:50:00.36	10.95	20.89	-51.1	-64.0	3.5	1.52e+00	0	42	104	0	60	55622
2026-01-23 21:50:01.38	10.71	20.84	-51.1	-64.0	3.5	1.52e+00	0	42	104	0	60	55451
2026-01-23 21:50:02.38	10.48	20.79	-51.1	-64.0	3.5	1.52e+00	0	42	104	0	60	55537
2026-01-23 21:50:03.39	10.24	20.74	-51.1	-64.0	3.5	1.52e+00	0	42	104	0	60	55745
2026-01-23 21:50:04.40	10.00	20.69	-51.1	-64.0	3.5	1.52e+00	0	42	104	0	60	55543
2026-01-23 21:50:05.42	9.76	20.64	-51.1	-64.0	3.5	1.52e+00	0	42	104	0	60	55775
2026-01-23 21:50:06.43	9.53	20.58	-51.1	-64.0	3.5	1.52e+00	0	42	104	0	60	55592
2026-01-23 21:50:07.43	9.29	20.53	-51.1	-64.0	3.5	1.52e+00	0	42	104	0	60	55568
2026-01-23 21:50:08.45	9.06	20.48	-51.1	-64.0	3.5	1.52e+00	0	42	104	0	60	55544
2026-01-23 21:50:09.46	8.82	20.42	-51.1	-64.0	3.5	1.52e+00	0	42	104	0	60	55464
2026-01-23 21:50:10.47	8.59	20.37	-51.1	-64.0	3.5	1.52e+00	0	42	104	0	60	55682
2026-01-23 21:50:11.47	8.36	20.31	-51.1	-63.9	3.5	1.52e+00	0	42	104	0	60	55272
2026-01-23 21:50:12.48	8.13	20.26	-51.1	-64.0	3.5	1.52e+00	0	42	104	0	60	55450
2026-01-23 21:50:13.50	7.90	20.20	-51.1	-63.9	3.5	1.52e+00	0	42	104	0	60	55032
2026-01-23 21:50:14.51	7.67	20.15	-51.1	-63.9	3.5	1.52e+00	0	42	104	0	60	55243
2026-01-23 21:50:15.52	7.44	20.09	-51.1	-64.0	3.5	1.51e+00	0	42	104	0	60	55606
2026-01-23 21:50:16.53	7.21	20.03	-51.1	-64.0	3.5	1.52e+00	0	42	104	0	60	55661
2026-01-23 21:50:17.54	6.99	19.97	-51.1	-64.0	3.5	1.52e+00	0	42	104	0	60	55607
2026-01-23 21:50:18.54	6.76	19.92	-51.1	-64.0	3.5	1.52e+00	0	42	104	0	60	55465
2026-01-23 21:50:19.55	6.54	19.86	-51.1	-63.9	3.5	1.52e+00	0	42	104	0	60	55194
2026-01-23 21:50:20.56	6.32	19.80	-51.1	-64.0	3.5	1.51e+00	0	42	104	0	60	55517
2026-01-23 21:50:21.57	6.09	19.74	-51.1	-64.0	3.5	1.52e+00	0	42	104	0	60	55536
2026-01-23 21:50:22.58	5.87	19.69	-51.1	-64.0	3.5	1.52e+00	0	42	104	0	60	55566
2026-01-23 21:50:23.59	5.65	19.63	-51.1	-64.0	3.5	1.52e+00	0	42	104	0	60	55407
2026-01-23 21:50:24.60	5.43	19.57	-51.1	-64.0	3.5	1.52e+00	0	42	104	0	60	55413
2026-01-23 21:50:25.61	5.21	19.51	-51.1	-63.9	3.5	1.52e+00	0	42	104	0	60	55146
2026-01-23 21:50:26.62	4.99	19.45	-51.1	-64.0	3.5	1.52e+00	0	42	104	0	60	55396
2026-01-23 21:50:27.62	4.78	19.39	-51.1	-63.9	3.5	1.52e+00	0	42	104	0	60	55212
2026-01-23 21:50:28.64	4.56	19.33	-51.1	-64.0	3.5	1.52e+00	0	42	104	0	60	55517
2026-01-23 21:50:29.64	4.34	19.27	-51.1	-63.9	3.5	1.52e+00	0	42	104	0	60	55299
2026-01-23 21:50:30.65	4.13	19.21	-51.1	-64.0	3.5	1.52e+00	0	42	104	0	60	55382
2026-01-23 21:50:31.66	3.91	19.14	-51.1	-64.0	3.5	1.52e+00	0	42	104	0	60	55750
2026-01-23 21:50:32.67	3.70	19.08	-51.1	-63.9	3.5	1.52e+00	0	42	104	0	60	55254
2026-01-23 21:50:33.68	3.49	19.02	-51.1	-63.9	3.5	1.52e+00	0	42	104	0	60	54888
2026-01-23 21:50:34.69	3.28	18.96	-51.1	-63.9	3.5	1.52e+00	0	42	104	0	60	55026
2026-01-23 21:50:35.70	3.06	18.90	-51.1	-64.0	3.5	1.51e+00	0	42	104	0	60	55360
2026-01-23 21:50:36.71	2.85	18.83	-51.1	-64.0	3.5	1.52e+00	0	42	104	0	60	55509
2026-01-23 21:50:37.72	2.65	18.77	-51.1	-64.0	3.5	1.52e+00	0	42	104	0	60	55604
2026-01-23 21:50:38.73	2.44	18.71	-51.1	-63.9	3.5	1.52e+00	0	42	104	0	60	55297
2026-01-23 21:50:39.74	2.23	18.64	-51.1	-63.9	3.5	1.52e+00	0	42	104	0	60	55196
2026-01-23 21:50:40.75	2.02	18.58	-51.1	-63.9	3.5	1.52e+00	0	42	104	0	60	54981
2026-01-23 21:50:41.76	1.82	18.52	-51.1	-64.0	3.5	1.52e+00	0	42	104	0	60	55340
2026-01-23 21:50:42.77	1.61	18.45	-51.1	-64.0	3.5	1.52e+00	0	42	104	0	60	55408
2026-01-23 21:50:43.78	1.41	18.39	-51.1	-64.0	3.5	1.51e+00	0	42	104	0	60	55395
2026-01-23 21:50:44.78	1.21	18.33	-51.1	-64.0	3.5	1.52e+00	0	42	104	0	60	55333
2026-01-23 21:50:45.80	1.00	18.26	-51.1	-63.9	3.5	1.52e+00	0	42	104	0	60	55272
2026-01-23 21:50:46.80	0.81	18.20	-51.1	-64.0	3.5	1.52e+00	0	42	104	0	60	55375
2026-01-23 21:50:47.82	0.60	18.13	-51.1	-64.0	3.5	1.52e+00	0	42	104	0	60	55489
2026-01-23 21:50:48.82	0.41	18.07	-51.0	-64.0	3.5	1.52e+00	0	42	104	0	60	55315
2026-01-23 21:50:49.83	0.21	18.00	-51.1	-64.0	3.5	1.52e+00	0	42	104	0	60	55346
2026-01-23 21:50:50.85	0.01	17.93	-51.1	-64.0	3.5	1.52e+00	0	42	104	0	60	55334
2026-01-23 21:50:51.86	359.81	17.87	-51.1	-63.9	3.5	1.51e+00	0	42	104	0	60	55267
2026-01-23 21:50:52.86	359.62	17.80	-51.1	-63.9	3.5	1.52e+00	0	42	104	0	60	55253
2026-01-23 21:50:53.87	359.42	17.74	-51.1	-63.9	3.5	1.51e+00	0	42	104	0	60	55117
2026-01-23 21:50:54.88	359.23	17.67	-51.1	-64.0	3.5	1.52e+00	0	42	104	0	60	55346
2026-01-23 21:50:55.89	359.03	17.61	-51.1	-63.9	3.5	1.52e+00	0	42	104	0	60	55028
2026-01-23 21:50:56.90	358.84	17.54	-51.1	-63.9	3.5	1.52e+00	0	42	104	0	60	55027
2026-01-23 21:50:57.91	358.65	17.47	-51.0	-63.9	3.5	1.52e+00	0	42	104	0	60	55179
2026-01-23 21:50:58.92	358.46	17.41	-51.1	-64.0	3.5	1.52e+00	0	42	104	0	60	55368
2026-01-23 21:50:59.93	358.27	17.34	-51.0	-63.9	3.5	1.52e+00	0	42	104	0	60	55236
2026-01-23 21:51:00.94	358.08	17.27	-51.1	-64.0	3.5	1.52e+00	0	43	104	0	60	55381
2026-01-23 21:51:01.95	357.89	17.20	-51.0	-63.9	3.5	1.52e+00	0	42	104	0	60	55240
2026-01-23 21:51:02.96	357.70	17.14	-51.0	-63.9	3.5	1.52e+00	0	42	104	0	60	54843
2026-01-23 21:51:03.97	357.52	17.07	-51.0	-63.9	3.5	1.52e+00	0	42	104	0	60	54885
2026-01-23 21:51:04.98	357.33	17.00	-51.0	-64.0	3.5	1.52e+00	0	43	104	0	60	55378
2026-01-23 21:51:06.00	357.14	16.93	-51.0	-63.9	3.5	1.52e+00	0	42	104	0	60	55290
2026-01-23 21:51:07.01	356.96	16.86	-51.0	-63.9	3.5	1.52e+00	0	42	104	0	60	55256
2026-01-23 21:51:08.02	356.78	16.80	-51.1	-64.0	3.5	1.52e+00	0	42	104	0	60	55766
2026-01-23 21:51:09.03	356.60	16.73	-51.0	-64.0	3.5	1.52e+00	0	42	104	0	60	55333
2026-01-23 21:51:10.04	356.41	16.66	-51.0	-64.0	3.5	1.52e+00	0	42	104	0	60	55667
2026-01-23 21:51:11.05	356.23	16.59	-51.0	-64.0	3.5	1.52e+00	0	42	104	0	60	55360
2026-01-23 21:51:12.06	356.05	16.52	-51.1	-63.9	3.5	1.52e+00	0	42	104	0	60	55269
2026-01-23 21:51:13.07	355.87	16.46	-51.0	-64.0	3.5	1.52e+00	0	42	104	0	60	55390
2026-01-23 21:51:14.08	355.70	16.39	-51.0	-64.0	3.5	1.52e+00	0	42	104	0	60	55358
2026-01-23 21:51:15.09	355.52	16.32	-51.1	-64.0	3.5	1.52e+00	0	42	104	0	60	55325
2026-01-23 21:51:16.10	355.34	16.25	-51.1	-64.0	3.5	1.52e+00	0	42	104	0	60	55357
2026-01-23 21:51:17.11	355.17	16.18	-51.0	-63.9	3.5	1.52e+00	0	42	104	0	60	54929
2026-01-23 21:51:18.12	354.99	16.11	-51.0	-63.9	3.5	1.52e+00	0	42	104	0	60	54963
2026-01-23 21:51:19.13	354.82	16.04	-51.0	-63.9	3.5	1.52e+00	0	42	104	0	60	55296
2026-01-23 21:51:20.14	354.64	15.97	-51.1	-63.9	3.5	1.51e+00	0	42	104	0	60	55226
2026-01-23 21:51:21.15	354.47	15.90	-51.0	-63.9	3.5	1.52e+00	0	42	104	0	60	55304
2026-01-23 21:51:22.16	354.30	15.83	-51.0	-63.9	3.5	1.52e+00	0	42	104	0	60	55097
2026-01-23 21:51:23.17	354.13	15.77	-51.1	-63.9	3.5	1.52e+00	0	42	104	0	60	55066
2026-01-23 21:51:24.18	353.96	15.70	-51.1	-64.0	3.5	1.52e+00	0	42	104	0	60	55346
2026-01-23 21:51:25.19	353.79	15.63	-51.0	-63.9	3.5	1.52e+00	0	42	104	0	60	55252
2026-01-23 21:51:26.20	353.62	15.56	-51.0	-63.9	3.5	1.52e+00	0	42	104	0	60	55146
2026-01-23 21:51:27.21	353.45	15.49	-51.1	-64.0	3.5	1.52e+00	0	42	104	0	60	55583
2026-01-23 21:51:28.22	353.29	15.42	-51.1	-63.9	3.5	1.52e+00	0	42	104	0	60	55119
2026-01-23 21:51:29.23	353.12	15.35	-51.0	-63.9	3.5	1.52e+00	0	42	104	0	60	55130
2026-01-23 21:51:30.24	352.96	15.28	-51.0	-63.9	3.5	1.52e+00	0	42	104	0	60	55214
2026-01-23 21:51:31.25	352.79	15.21	-51.1	-63.9	3.5	1.52e+00	0	42	104	0	60	55166
2026-01-23 21:51:32.26	352.63	15.14	-51.0	-63.9	3.5	1.52e+00	0	42	104	0	60	55166
2026-01-23 21:51:33.27	352.47	15.07	-51.0	-63.9	3.5	1.52e+00	0	42	104	0	60	55246
2026-01-23 21:51:34.28	352.30	15.00	-51.0	-63.9	3.5	1.52e+00	0	42	104	0	60	55088
2026-01-23 21:51:35.29	352.14	14.93	-51.0	-63.9	3.5	1.52e+00	0	42	104	0	60	55163
2026-01-23 21:51:36.30	351.98	14.86	-51.0	-63.9	3.5	1.51e+00	0	42	104	0	60	55202
2026-01-23 21:51:37.31	351.82	14.79	-51.0	-63.9	3.5	1.52e+00	0	42	104	0	60	55161
2026-01-23 21:51:38.32	351.66	14.72	-51.0	-64.0	3.5	1.52e+00	0	42	104	0	60	55453
2026-01-23 21:51:39.33	351.50	14.65	-51.0	-63.9	3.5	1.52e+00	0	42	104	0	60	55152
2026-01-23 21:51:40.34	351.35	14.58	-51.0	-64.0	3.5	1.52e+00	0	42	104	0	60	55377
2026-01-23 21:51:41.35	351.19	14.51	-51.1	-64.0	3.5	1.52e+00	0	42	104	0	60	55425
2026-01-23 21:51:42.36	351.03	14.44	-51.0	-64.0	3.5	1.52e+00	0	42	104	0	60	55391
2026-01-23 21:51:43.37	350.88	14.37	-51.0	-64.0	3.5	1.52e+00	0	42	104	0	60	55388
2026-01-23 21:51:44.38	350.72	14.30	-51.1	-64.0	3.5	1.52e+00	0	42	104	0	60	55338
2026-01-23 21:51:45.39	350.57	14.23	-51.0	-63.9	3.5	1.52e+00	0	42	104	0	60	54992
2026-01-23 21:51:46.40	350.42	14.16	-51.0	-63.9	3.5	1.52e+00	0	42	104	0	60	55263
2026-01-23 21:51:47.41	350.26	14.09	-51.0	-63.9	3.5	1.51e+00	0	42	104	0	60	55123
2026-01-23 21:51:48.42	350.11	14.02	-51.0	-63.9	3.5	1.52e+00	0	42	104	0	60	55245
2026-01-23 21:51:49.42	349.96	13.95	-51.0	-63.9	3.5	1.52e+00	0	42	104	0	60	55082
2026-01-23 21:51:50.43	349.81	13.88	-51.0	-64.0	3.5	1.52e+00	0	42	104	0	60	55630
2026-01-23 21:51:51.45	349.66	13.81	-51.0	-64.0	3.5	1.52e+00	0	42	104	0	60	55442
2026-01-23 21:51:52.46	349.51	13.74	-51.0	-63.9	3.5	1.52e+00	0	42	104	0	60	55213
2026-01-23 21:51:53.46	349.37	13.67	-51.1	-64.0	3.5	1.52e+00	0	42	104	0	60	55328
2026-01-23 21:51:54.48	349.22	13.60	-51.0	-64.0	3.5	1.52e+00	0	42	104	0	60	55465
2026-01-23 21:51:55.48	349.07	13.53	-51.1	-63.9	3.5	1.51e+00	0	42	104	0	60	55127
2026-01-23 21:51:56.49	348.93	13.46	-51.1	-63.9	3.5	1.52e+00	0	42	104	0	60	55246
2026-01-23 21:51:57.50	348.78	13.39	-51.1	-64.0	3.5	1.52e+00	0	42	104	0	60	55385
2026-01-23 21:51:58.51	348.64	13.32	-51.0	-63.9	3.5	1.52e+00	0	43	104	0	60	55284
2026-01-23 21:51:59.52	348.49	13.25	-51.0	-64.0	3.5	1.52e+00	0	42	104	0	60	55321
2026-01-23 21:52:00.53	348.35	13.18	-51.0	-64.0	3.5	1.51e+00	0	42	104	0	60	55350
2026-01-23 21:52:01.54	348.21	13.11	-51.0	-64.0	3.5	1.51e+00	0	42	104	0	60	55383
2026-01-23 21:52:02.55	348.07	13.04	-51.0	-63.9	3.6	1.51e+00	0	42	104	0	60	55165
2026-01-23 21:52:03.56	347.93	12.97	-51.1	-64.0	3.5	1.52e+00	0	42	104	0	60	55388
2026-01-23 21:52:04.57	347.79	12.90	-51.0	-63.9	3.5	1.52e+00	0	43	104	0	60	55124
2026-01-23 21:52:05.58	347.65	12.83	-51.0	-63.9	3.5	1.52e+00	0	42	104	0	60	55221
2026-01-23 21:52:06.59	347.51	12.76	-51.0	-63.9	3.5	1.52e+00	0	42	104	0	60	55169
2026-01-23 21:52:07.60	347.37	12.69	-51.0	-63.9	3.5	1.51e+00	0	42	104	0	60	55054
2026-01-23 21:52:08.61	347.23	12.62	-51.0	-63.9	3.5	1.52e+00	0	42	104	0	60	55100
2026-01-23 21:52:09.62	347.10	12.55	-51.0	-63.9	3.5	1.52e+00	0	42	104	0	60	55205
2026-01-23 21:52:10.63	346.96	12.48	-51.0	-63.9	3.5	1.51e+00	0	42	104	0	60	55050
2026-01-23 21:52:11.64	346.82	12.41	-51.0	-63.9	3.5	1.52e+00	0	43	104	0	60	54957
2026-01-23 21:52:12.65	346.69	12.34	-51.0	-63.9	3.5	1.52e+00	0	42	104	0	60	55052
2026-01-23 21:52:13.66	346.55	12.27	-51.0	-63.9	3.5	1.52e+00	0	42	104	0	60	54956
2026-01-23 21:52:14.67	346.42	12.20	-51.0	-63.9	3.5	1.52e+00	0	42	104	0	60	54973
2026-01-23 21:52:15.68	346.29	12.13	-51.0	-63.9	3.5	1.52e+00	0	42	104	0	60	55059
2026-01-23 21:52:16.69	346.15	12.06	-51.0	-63.9	3.5	1.52e+00	0	42	104	0	60	55249
2026-01-23 21:52:17.70	346.02	12.00	-51.0	-63.9	3.5	1.52e+00	0	42	104	0	60	54946
2026-01-23 21:52:18.71	345.89	11.93	-51.0	-63.9	3.5	1.52e+00	0	42	104	0	60	55250
2026-01-23 21:52:19.72	345.76	11.86	-51.0	-64.0	3.5	1.52e+00	0	42	104	0	60	55343
2026-01-23 21:52:20.73	345.63	11.79	-51.0	-63.9	3.5	1.52e+00	0	42	104	0	60	54839
2026-01-23 21:52:21.74	345.50	11.72	-51.0	-63.9	3.5	1.52e+00	0	42	104	0	60	55067
2026-01-23 21:52:22.75	345.37	11.65	-51.0	-63.9	3.5	1.52e+00	0	42	104	0	60	55243
2026-01-23 21:52:23.76	345.25	11.58	-51.0	-63.9	3.5	1.52e+00	0	42	104	0	60	55282
2026-01-23 21:52:24.77	345.12	11.51	-51.0	-63.9	3.5	1.52e+00	0	42	104	0	60	55200
2026-01-23 21:52:25.78	344.99	11.44	-51.0	-63.9	3.5	1.51e+00	0	42	104	0	60	55126
2026-01-23 21:52:26.79	344.87	11.37	-51.0	-63.9	3.5	1.52e+00	0	42	104	0	60	55247
2026-01-23 21:52:27.80	344.74	11.30	-51.0	-64.0	3.5	1.52e+00	0	42	104	0	60	55400
2026-01-23 21:52:28.81	344.62	11.24	-51.1	-63.9	3.5	1.52e+00	0	42	104	0	60	55025
2026-01-23 21:52:29.82	344.49	11.17	-51.0	-64.0	3.5	1.52e+00	0	42	104	0	60	55530
2026-01-23 21:52:30.83	344.37	11.10	-51.0	-63.9	3.5	1.52e+00	0	42	104	0	60	55082
2026-01-23 21:52:31.84	344.24	11.03	-51.0	-64.0	3.5	1.52e+00	0	43	104	0	60	55356
2026-01-23 21:52:32.85	344.12	10.96	-51.0	-63.9	3.5	1.52e+00	0	42	104	0	60	55038
2026-01-23 21:52:33.86	344.00	10.89	-51.0	-63.9	3.5	1.52e+00	0	43	104	0	60	55205
2026-01-23 21:52:34.86	343.88	10.82	-51.0	-63.9	3.5	1.52e+00	0	42	104	0	60	55230
2026-01-23 21:52:35.88	343.76	10.76	-51.1	-63.9	3.5	1.52e+00	0	42	104	0	60	55279
2026-01-23 21:52:36.89	343.64	10.69	-51.0	-64.0	3.5	1.51e+00	0	42	104	0	60	55691
2026-01-23 21:52:37.90	343.52	10.62	-51.0	-64.0	3.5	1.52e+00	0	43	104	0	60	55320
2026-01-23 21:52:38.91	343.40	10.55	-51.1	-64.0	3.5	1.52e+00	0	43	104	0	60	55403
2026-01-23 21:52:39.92	343.28	10.48	-51.0	-64.0	3.5	1.52e+00	0	42	104	0	60	55328
2026-01-23 21:52:40.93	343.16	10.42	-51.0	-63.9	3.5	1.52e+00	0	42	104	0	60	55067
2026-01-23 21:52:41.94	343.04	10.35	-51.1	-63.9	3.5	1.52e+00	0	43	104	0	60	55015
2026-01-23 21:52:42.95	342.93	10.28	-51.1	-63.9	3.5	1.52e+00	0	43	104	0	60	55234
2026-01-23 21:52:43.96	342.81	10.21	-51.0	-64.0	3.5	1.52e+00	0	43	104	0	60	55362
2026-01-23 21:52:44.97	342.70	10.14	-51.1	-64.0	3.5	1.52e+00	0	43	104	0	60	55389
2026-01-23 21:52:45.98	342.58	10.08	-51.0	-64.0	3.5	1.51e+00	0	43	104	0	60	55321
2026-01-23 21:52:46.99	342.47	10.01	-51.1	-63.9	3.5	1.52e+00	0	43	104	0	60	55245
2026-01-23 21:52:48.00	342.35	9.94	-51.0	-64.0	3.5	1.52e+00	0	43	104	0	60	55364
2026-01-23 21:52:49.01	342.24	9.87	-51.0	-64.0	3.5	1.52e+00	0	43	104	0	60	55336
2026-01-23 21:52:50.02	342.13	9.81	-51.0	-64.0	3.5	1.52e+00	0	43	104	0	60	55352
2026-01-23 21:52:51.03	342.01	9.74	-51.0	-63.9	3.5	1.52e+00	0	43	104	0	60	55138
2026-01-23 21:52:52.04	341.90	9.67	-51.0	-63.9	3.5	1.52e+00	0	43	104	0	60	55148
2026-01-23 21:52:53.05	341.79	9.60	-51.1	-64.0	3.5	1.52e+00	0	43	104	0	60	55512
2026-01-23 21:52:54.06	341.68	9.54	-51.1	-64.0	3.5	1.52e+00	0	42	104	0	60	55669
2026-01-23 21:52:55.07	341.57	9.47	-51.1	-64.0	3.5	1.52e+00	0	42	104	0	60	55331
2026-01-23 21:52:56.08	341.46	9.40	-51.1	-63.9	3.5	1.52e+00	0	42	104	0	60	55241
2026-01-23 21:52:57.09	341.35	9.34	-51.0	-64.0	3.5	1.52e+00	0	43	104	0	60	55403
2026-01-23 21:52:58.10	341.24	9.27	-51.1	-64.0	3.5	1.51e+00	0	43	104	0	60	55363
2026-01-23 21:52:59.10	341.13	9.20	-51.0	-63.9	3.5	1.52e+00	0	42	104	0	60	55089
2026-01-23 21:53:00.11	341.03	9.14	-51.0	-64.0	3.5	1.52e+00	0	42	104	0	60	55411
2026-01-23 21:53:01.12	340.92	9.07	-51.1	-64.0	3.5	1.52e+00	0	43	104	0	60	55309
2026-01-23 21:53:02.13	340.81	9.00	-51.0	-63.9	3.5	1.51e+00	0	43	104	0	60	55260
2026-01-23 21:53:03.14	340.71	8.94	-51.0	-63.9	3.5	1.52e+00	0	43	104	0	60	55257
2026-01-23 21:53:04.15	340.60	8.87	-51.0	-64.0	3.5	1.52e+00	0	42	104	0	60	55344
2026-01-23 21:53:05.16	340.49	8.80	-51.0	-64.0	3.5	1.52e+00	0	43	104	0	60	55432
2026-01-23 21:53:06.17	340.39	8.74	-51.0	-64.0	3.5	1.52e+00	0	42	104	0	60	55425
2026-01-23 21:53:07.18	340.29	8.67	-51.0	-64.0	3.5	1.52e+00	0	43	104	0	60	55316
2026-01-23 21:53:08.19	340.18	8.61	-51.0	-63.9	3.5	1.51e+00	0	42	104	0	60	55201
2026-01-23 21:53:09.20	340.08	8.54	-51.0	-64.0	3.5	1.51e+00	0	42	104	0	60	55450
2026-01-23 21:53:10.21	339.98	8.47	-51.0	-64.0	3.5	1.52e+00	0	42	104	0	60	55346
2026-01-23 21:53:11.22	339.87	8.41	-51.0	-63.9	3.5	1.52e+00	0	42	104	0	60	55196
2026-01-23 21:53:12.23	339.77	8.34	-51.0	-64.0	3.5	1.52e+00	0	42	104	0	60	55419
2026-01-23 21:53:13.24	339.67	8.28	-51.0	-63.9	3.5	1.52e+00	0	42	104	0	60	55228
2026-01-23 21:53:14.25	339.57	8.21	-51.0	-64.0	3.5	1.52e+00	0	43	104	0	60	55381
2026-01-23 21:53:15.26	339.47	8.15	-51.0	-63.9	3.5	1.52e+00	0	42	104	0	60	55283
2026-01-23 21:53:16.27	339.37	8.08	-51.0	-63.9	3.5	1.52e+00	0	42	104	0	60	55250
2026-01-23 21:53:17.28	339.27	8.02	-51.0	-63.9	3.5	1.52e+00	0	42	104	0	60	55303
2026-01-23 21:53:18.29	339.17	7.95	-51.0	-63.9	3.5	1.52e+00	0	42	104	0	60	55103
2026-01-23 21:53:19.29	339.07	7.89	-51.0	-64.0	3.5	1.52e+00	0	42	104	0	60	55358
2026-01-23 21:53:20.31	338.97	7.82	-51.0	-64.0	3.5	1.52e+00	0	42	104	0	60	55370
2026-01-23 21:53:21.32	338.88	7.76	-51.0	-63.9	3.5	1.52e+00	0	42	104	0	60	55074
2026-01-23 21:53:22.33	338.78	7.69	-51.0	-63.9	3.5	1.52e+00	0	42	104	0	60	55210
2026-01-23 21:53:23.34	338.68	7.63	-51.0	-63.9	3.5	1.52e+00	0	42	104	0	60	55289
2026-01-23 21:53:24.35	338.58	7.56	-51.0	-64.0	3.5	1.52e+00	0	42	104	0	60	55331
2026-01-23 21:53:25.36	338.49	7.50	-51.0	-63.9	3.5	1.52e+00	0	42	104	0	60	55297
2026-01-23 21:53:26.37	338.39	7.43	-51.0	-64.0	3.5	1.52e+00	0	42	104	0	60	55360
2026-01-23 21:53:27.38	338.30	7.37	-51.0	-63.9	3.5	1.52e+00	0	42	104	0	60	55110
2026-01-23 21:53:28.39	338.20	7.30	-51.0	-63.9	3.5	1.51e+00	0	42	104	0	60	55190
2026-01-23 21:53:29.40	338.11	7.24	-51.0	-63.9	3.5	1.51e+00	0	42	104	0	60	55049
2026-01-23 21:53:30.41	338.02	7.18	-51.0	-63.9	3.5	1.52e+00	0	42	104	0	60	55255
2026-01-23 21:53:31.42	337.92	7.11	-51.0	-64.0	3.5	1.52e+00	0	42	104	0	60	55628
2026-01-23 21:53:32.43	337.83	7.05	-51.0	-63.9	3.5	1.52e+00	0	42	104	0	60	55109
2026-01-23 21:53:33.44	337.74	6.98	-51.0	-63.9	3.5	1.52e+00	0	42	104	0	60	55124
2026-01-23 21:53:34.45	337.65	6.92	-51.0	-64.0	3.5	1.52e+00	0	42	104	0	60	55418
2026-01-23 21:53:35.46	337.55	6.86	-51.0	-64.0	3.5	1.52e+00	0	42	104	0	60	55341
2026-01-23 21:53:36.47	337.46	6.79	-51.0	-64.0	3.5	1.52e+00	0	42	104	0	60	55345
2026-01-23 21:53:37.48	337.37	6.73	-51.0	-64.0	3.5	1.51e+00	0	42	104	0	60	55323
2026-01-23 21:53:38.49	337.28	6.67	-51.0	-64.0	3.5	1.52e+00	0	42	104	0	60	55452
2026-01-23 21:53:39.50	337.19	6.60	-51.0	-63.9	3.5	1.52e+00	0	42	104	0	60	55207
2026-01-23 21:53:40.51	337.10	6.54	-51.0	-63.9	3.5	1.52e+00	0	42	104	0	60	55087
2026-01-23 21:53:41.52	337.01	6.48	-51.0	-63.9	3.5	1.52e+00	0	42	104	0	60	55153
2026-01-23 21:53:42.53	336.92	6.41	-51.0	-64.0	3.5	1.52e+00	0	42	104	0	60	55343
2026-01-23 21:53:43.54	336.84	6.35	-51.0	-63.9	3.5	1.52e+00	0	42	104	0	60	55072
2026-01-23 21:53:44.55	336.75	6.29	-51.0	-64.0	3.5	1.52e+00	0	42	104	0	60	55342
2026-01-23 21:53:45.56	336.66	6.22	-51.0	-64.0	3.5	1.52e+00	0	42	104	0	60	55405
2026-01-23 21:53:46.57	336.57	6.16	-51.0	-63.9	3.5	1.52e+00	0	42	104	0	60	55047
2026-01-23 21:53:47.58	336.49	6.10	-51.0	-64.0	3.5	1.52e+00	0	42	104	0	60	55381
2026-01-23 21:53:48.59	336.40	6.04	-51.0	-64.0	3.5	1.52e+00	0	42	104	0	60	55437
2026-01-23 21:53:49.60	336.31	5.97	-51.0	-63.9	3.5	1.52e+00	0	42	104	0	60	55124
2026-01-23 21:53:50.61	336.23	5.91	-51.0	-63.9	3.5	1.52e+00	0	42	104	0	60	55257
2026-01-23 21:53:51.62	336.14	5.85	-51.0	-63.9	3.5	1.52e+00	0	42	104	0	60	55175
2026-01-23 21:53:52.63	336.06	5.79	-51.0	-64.0	3.5	1.52e+00	0	42	104	0	60	55445
2026-01-23 21:53:53.64	335.97	5.72	-51.0	-63.9	3.5	1.52e+00	0	42	104	0	60	55261
2026-01-23 21:53:54.65	335.89	5.66	-51.0	-64.0	3.5	1.51e+00	0	42	104	0	60	55480
2026-01-23 21:53:55.66	335.80	5.60	-51.0	-64.0	3.5	1.52e+00	0	42	104	0	60	55439
2026-01-23 21:53:56.67	335.72	5.54	-51.0	-64.0	3.5	1.52e+00	0	42	104	0	60	55432
2026-01-23 21:53:57.68	335.64	5.48	-51.0	-64.0	3.5	1.52e+00	0	42	104	0	60	55458
2026-01-23 21:53:58.69	335.56	5.41	-51.0	-63.9	3.5	1.52e+00	0	42	104	0	60	55271
2026-01-23 21:53:59.69	335.47	5.35	-51.0	-64.0	3.5	1.52e+00	0	42	104	0	60	55365
2026-01-23 21:54:00.71	335.39	5.29	-51.0	-64.0	3.5	1.52e+00	0	42	104	0	60	55417
2026-01-23 21:54:01.71	335.31	5.23	-51.0	-64.0	3.5	1.51e+00	0	42	104	0	60	55574
2026-01-23 21:54:02.73	335.23	5.17	-51.0	-64.0	3.5	1.51e+00	0	42	104	0	60	55589
2026-01-23 21:54:03.73	335.15	5.11	-51.0	-63.9	3.5	1.52e+00	0	42	104	0	60	55058
2026-01-23 21:54:04.74	335.07	5.05	-51.0	-64.0	3.5	1.52e+00	0	42	104	0	60	55350
2026-01-23 21:54:05.75	334.99	4.99	-51.0	-63.9	3.5	1.52e+00	0	42	104	0	60	55299
2026-01-23 21:54:06.76	334.91	4.92	-51.0	-64.0	3.5	1.52e+00	0	42	104	0	60	55378
2026-01-23 21:54:07.77	334.83	4.86	-51.0	-64.0	3.5	1.52e+00	0	42	104	0	60	55704
2026-01-23 21:54:08.78	334.75	4.80	-51.0	-64.0	3.5	1.52e+00	0	42	104	0	60	55369
2026-01-23 21:54:09.79	334.67	4.74	-51.0	-64.0	3.5	1.52e+00	0	42	104	0	60	55548
2026-01-23 21:54:10.80	334.59	4.68	-51.0	-64.0	3.5	1.51e+00	0	42	104	0	60	55639
2026-01-23 21:54:11.81	334.51	4.62	-51.0	-64.0	3.5	1.52e+00	0	42	104	0	60	55420
2026-01-23 21:54:12.82	334.44	4.56	-51.0	-63.9	3.5	1.52e+00	0	42	104	0	60	54977
2026-01-23 21:54:13.83	334.36	4.50	-51.0	-63.9	3.5	1.52e+00	0	42	104	0	60	55156
2026-01-23 21:54:14.84	334.28	4.44	-51.0	-63.9	3.5	1.51e+00	0	42	104	0	60	55196
2026-01-23 21:54:15.85	334.21	4.38	-51.0	-63.9	3.5	1.51e+00	0	42	104	0	60	55244
2026-01-23 21:54:16.86	334.13	4.32	-51.0	-63.9	3.5	1.52e+00	0	42	104	0	60	55240
