passes_logs/2026/01/23/R4.6S_Anadyr/R4.6S_Anadyr__20260123_205250_NOAA_20_JPSS-1_rec.log

#Pass ID: 20260123_205250_NOAA 20 (JPSS-1)
#Satellite: NOAA 20 (JPSS-1)
#Configuration: NOAA 20
#almurnet v.1.7.20251203
#Start time: 2026-01-23 20:52:53

#Version: 2.2.20231116
#Station: R4.6S_Anadyr
#Location: 177.4865 lon 64.73178 lat
#TLE: 1 43013U 17073A   26022.94240312  .00000200  00000+0  11574-3 0  9998
#TLE: 2 43013  98.7645 323.7982 0001179  28.0279 332.0961 14.19539020423863

#Time	Az	El	Level	Level2	SNR	BER	BlckErr	Temp	State	Recorded	gain1	gain2
2026-01-23 20:52:53.25	78.56	0.15	-50.9	-64.6	3.3	1.54e+00	0	39	0	0	60	61222
2026-01-23 20:52:54.26	78.50	0.20	-50.9	-66.1	3.6	1.51e+00	0	39	104	0	60	73011
2026-01-23 20:52:55.27	78.43	0.26	-50.9	-66.1	3.6	1.51e+00	0	40	104	0	60	73050
2026-01-23 20:52:56.28	78.36	0.31	-50.9	-66.0	3.6	1.51e+00	0	39	104	0	60	72495
2026-01-23 20:52:57.29	78.29	0.36	-50.9	-66.0	3.6	1.51e+00	0	39	104	0	60	72439
2026-01-23 20:52:58.30	78.22	0.41	-50.9	-66.1	3.6	1.51e+00	0	40	104	0	60	72598
2026-01-23 20:52:59.31	78.15	0.46	-50.9	-66.0	3.6	1.51e+00	0	40	104	0	60	72459
2026-01-23 20:53:00.32	78.08	0.51	-50.9	-66.0	3.6	1.51e+00	0	40	104	0	60	72449
2026-01-23 20:53:01.33	78.00	0.57	-50.9	-66.1	3.6	1.51e+00	0	40	104	0	60	72804
2026-01-23 20:53:02.33	77.93	0.62	-50.9	-66.1	3.6	1.51e+00	0	40	104	0	60	72953
2026-01-23 20:53:03.34	77.86	0.67	-50.9	-66.1	3.6	1.51e+00	0	40	104	0	60	72727
2026-01-23 20:53:04.35	77.79	0.72	-50.9	-66.1	3.6	1.51e+00	0	40	104	0	60	72543
2026-01-23 20:53:05.36	77.72	0.77	-50.9	-66.1	3.6	1.51e+00	0	40	104	0	60	72684
2026-01-23 20:53:06.37	77.65	0.83	-50.9	-66.1	3.6	1.51e+00	0	40	104	0	60	72557
2026-01-23 20:53:07.38	77.57	0.88	-50.9	-66.0	3.6	1.51e+00	0	40	104	0	60	72381
2026-01-23 20:53:08.39	77.50	0.93	-50.9	-66.1	3.6	1.51e+00	0	40	104	0	60	72548
2026-01-23 20:53:09.40	77.43	0.98	-50.9	-66.0	3.6	1.51e+00	0	40	104	0	60	72505
2026-01-23 20:53:10.41	77.36	1.03	-50.9	-66.1	3.6	1.51e+00	0	40	104	0	60	72632
2026-01-23 20:53:11.43	77.28	1.09	-50.9	-66.1	3.6	1.51e+00	0	40	104	0	60	72681
2026-01-23 20:53:12.44	77.21	1.14	-50.9	-66.1	3.6	1.51e+00	0	40	104	0	60	72776
2026-01-23 20:53:13.45	77.13	1.19	-50.9	-66.1	3.6	1.51e+00	0	40	104	0	60	72739
2026-01-23 20:53:14.46	77.06	1.24	-50.9	-66.0	3.6	1.51e+00	0	40	104	0	60	72272
2026-01-23 20:53:15.47	76.98	1.30	-50.9	-66.1	3.6	1.51e+00	0	40	104	0	60	72725
2026-01-23 20:53:16.48	76.91	1.35	-50.9	-66.0	3.6	1.51e+00	0	40	104	0	60	72495
2026-01-23 20:53:17.49	76.83	1.40	-50.9	-66.1	3.5	1.51e+00	0	40	104	0	60	72735
2026-01-23 20:53:18.50	76.76	1.45	-50.9	-66.1	3.6	1.51e+00	0	40	104	0	60	72705
2026-01-23 20:53:19.51	76.68	1.51	-50.9	-66.0	3.6	1.51e+00	0	40	104	0	60	72508
2026-01-23 20:53:20.52	76.61	1.56	-50.9	-66.1	3.6	1.51e+00	0	40	104	0	60	72689
2026-01-23 20:53:21.53	76.53	1.61	-50.9	-66.0	3.6	1.51e+00	0	40	104	0	60	72361
2026-01-23 20:53:22.54	76.45	1.67	-50.9	-66.1	3.6	1.51e+00	0	40	104	0	60	72688
2026-01-23 20:53:23.55	76.38	1.72	-50.9	-66.1	3.6	1.51e+00	0	40	104	0	60	72565
2026-01-23 20:53:24.55	76.30	1.77	-50.9	-66.0	3.6	1.51e+00	0	40	104	0	60	72400
2026-01-23 20:53:25.56	76.22	1.82	-50.9	-66.1	3.6	1.51e+00	0	40	104	0	60	72857
2026-01-23 20:53:26.57	76.15	1.88	-50.9	-66.0	3.6	1.51e+00	0	40	104	0	60	72508
2026-01-23 20:53:27.58	76.07	1.93	-50.9	-66.1	3.6	1.51e+00	0	40	104	0	60	72683
2026-01-23 20:53:28.60	75.99	1.98	-50.9	-66.1	3.6	1.51e+00	0	40	104	0	60	72545
2026-01-23 20:53:29.60	75.91	2.04	-50.9	-66.1	3.6	1.51e+00	0	40	104	0	60	72607
2026-01-23 20:53:30.61	75.83	2.09	-50.9	-66.0	3.6	1.51e+00	0	40	104	0	60	72487
2026-01-23 20:53:31.62	75.75	2.14	-50.9	-66.1	3.6	1.51e+00	0	40	104	0	60	72866
2026-01-23 20:53:32.64	75.67	2.20	-50.9	-66.1	3.6	1.51e+00	0	40	104	0	60	72557
2026-01-23 20:53:33.64	75.59	2.25	-50.9	-66.1	3.6	1.51e+00	0	40	104	0	60	73103
2026-01-23 20:53:34.65	75.51	2.30	-50.9	-66.1	3.6	1.51e+00	0	40	104	0	60	72587
2026-01-23 20:53:35.66	75.43	2.36	-50.9	-66.1	3.6	1.51e+00	0	40	104	0	60	72749
2026-01-23 20:53:36.67	75.35	2.41	-50.9	-66.1	3.6	1.51e+00	0	40	104	0	60	72751
2026-01-23 20:53:37.69	75.27	2.46	-50.9	-66.1	3.6	1.51e+00	0	40	104	0	60	72749
2026-01-23 20:53:38.70	75.19	2.52	-50.9	-66.1	3.6	1.51e+00	0	40	104	0	60	72621
2026-01-23 20:53:39.70	75.11	2.57	-50.9	-66.1	3.6	1.51e+00	0	40	104	0	60	72628
2026-01-23 20:53:40.72	75.02	2.63	-50.9	-66.1	3.6	1.51e+00	0	40	104	0	60	72830
2026-01-23 20:53:41.73	74.94	2.68	-50.9	-66.1	3.6	1.51e+00	0	40	104	0	60	72768
2026-01-23 20:53:42.74	74.86	2.73	-50.9	-66.1	3.6	1.51e+00	0	40	104	0	60	72554
2026-01-23 20:53:43.75	74.78	2.79	-50.9	-66.0	3.6	1.51e+00	0	40	104	0	60	72480
2026-01-23 20:53:44.76	74.69	2.84	-50.9	-66.1	3.6	1.51e+00	0	40	104	0	60	72833
2026-01-23 20:53:45.77	74.61	2.90	-50.9	-66.1	3.6	1.51e+00	0	40	104	0	60	72873
2026-01-23 20:53:46.78	74.53	2.95	-50.9	-66.1	3.6	1.51e+00	0	40	104	0	60	72655
2026-01-23 20:53:47.79	74.44	3.00	-50.9	-66.1	3.6	1.51e+00	0	40	104	0	60	72748
2026-01-23 20:53:48.80	74.36	3.06	-50.9	-66.1	3.6	1.51e+00	0	40	104	0	60	72955
2026-01-23 20:53:49.81	74.27	3.11	-50.9	-66.1	3.6	1.51e+00	0	40	104	0	60	72952
2026-01-23 20:53:50.82	74.19	3.17	-50.9	-66.1	3.6	1.51e+00	0	40	104	0	60	72577
2026-01-23 20:53:51.83	74.10	3.22	-50.9	-66.1	3.6	1.51e+00	0	40	104	0	60	72768
2026-01-23 20:53:52.84	74.02	3.27	-50.9	-66.1	3.6	1.51e+00	0	40	104	0	60	73035
2026-01-23 20:53:53.85	73.93	3.33	-50.9	-66.0	3.6	1.51e+00	0	40	104	0	60	72442
2026-01-23 20:53:54.86	73.84	3.38	-50.9	-66.1	3.6	1.51e+00	0	40	104	0	60	72722
2026-01-23 20:53:55.87	73.76	3.44	-50.9	-66.1	3.6	1.51e+00	0	40	104	0	60	72837
2026-01-23 20:53:56.88	73.67	3.49	-50.9	-66.1	3.6	1.51e+00	0	40	104	0	60	72643
2026-01-23 20:53:57.89	73.58	3.55	-50.9	-66.1	3.6	1.51e+00	0	40	104	0	60	72878
2026-01-23 20:53:58.90	73.49	3.60	-50.9	-66.0	3.6	1.51e+00	0	40	104	0	60	72515
2026-01-23 20:53:59.91	73.41	3.66	-50.9	-66.1	3.6	1.51e+00	0	40	104	0	60	72820
2026-01-23 20:54:00.91	73.32	3.71	-50.9	-66.1	3.6	1.51e+00	0	40	104	0	60	72900
2026-01-23 20:54:01.93	73.23	3.77	-50.9	-66.1	3.6	1.51e+00	0	40	104	0	60	73252
2026-01-23 20:54:02.94	73.14	3.82	-50.9	-66.1	3.6	1.51e+00	0	40	104	0	60	72841
2026-01-23 20:54:03.94	73.05	3.87	-50.9	-66.1	3.6	1.51e+00	0	40	104	0	60	72896
2026-01-23 20:54:04.95	72.96	3.93	-50.9	-66.0	3.6	1.51e+00	0	40	104	0	60	72452
2026-01-23 20:54:05.96	72.87	3.98	-50.9	-66.1	3.6	1.51e+00	0	40	104	0	60	72540
2026-01-23 20:54:06.97	72.78	4.04	-50.9	-66.1	3.6	1.51e+00	0	40	104	0	60	72762
2026-01-23 20:54:07.98	72.69	4.09	-50.9	-66.0	3.6	1.51e+00	0	40	104	0	60	72487
2026-01-23 20:54:08.99	72.60	4.15	-50.9	-66.1	3.6	1.51e+00	0	40	104	0	60	72936
2026-01-23 20:54:10.00	72.51	4.20	-50.9	-66.1	3.6	1.51e+00	0	40	104	0	60	72853
2026-01-23 20:54:11.01	72.42	4.26	-50.9	-66.1	3.6	1.51e+00	0	40	104	0	60	72617
2026-01-23 20:54:12.02	72.32	4.31	-50.9	-66.1	3.6	1.51e+00	0	40	104	0	60	72816
2026-01-23 20:54:13.03	72.23	4.37	-50.9	-66.0	3.6	1.51e+00	0	40	104	0	60	72356
2026-01-23 20:54:14.04	72.14	4.43	-50.9	-66.1	3.6	1.51e+00	0	40	104	0	60	72744
2026-01-23 20:54:15.05	72.04	4.48	-50.9	-66.1	3.6	1.51e+00	0	40	104	0	60	72894
2026-01-23 20:54:16.06	71.95	4.54	-50.9	-66.1	3.6	1.51e+00	0	40	104	0	60	72816
2026-01-23 20:54:17.07	71.86	4.59	-50.9	-66.1	3.6	1.51e+00	0	40	104	0	60	72753
2026-01-23 20:54:18.08	71.76	4.65	-50.9	-66.1	3.6	1.51e+00	0	40	104	0	60	72686
2026-01-23 20:54:19.09	71.67	4.70	-50.9	-66.1	3.6	1.51e+00	0	40	104	0	60	72767
2026-01-23 20:54:20.10	71.57	4.76	-50.9	-66.1	3.6	1.51e+00	0	40	104	0	60	73219
2026-01-23 20:54:21.10	71.48	4.81	-50.9	-66.1	3.6	1.51e+00	0	40	104	0	60	72688
2026-01-23 20:54:22.11	71.38	4.87	-50.9	-66.1	3.6	1.51e+00	0	40	104	0	60	72727
2026-01-23 20:54:23.12	71.29	4.92	-50.9	-66.1	3.6	1.51e+00	0	40	104	0	60	72804
2026-01-23 20:54:24.13	71.19	4.98	-50.9	-66.1	3.6	1.51e+00	0	40	104	0	60	72666
2026-01-23 20:54:25.14	71.09	5.04	-50.9	-66.1	3.6	1.51e+00	0	41	104	0	60	72731
2026-01-23 20:54:26.15	70.99	5.09	-50.9	-66.1	3.6	1.51e+00	0	40	104	0	60	73007
2026-01-23 20:54:27.16	70.90	5.15	-50.9	-66.1	3.6	1.51e+00	0	40	104	0	60	72933
2026-01-23 20:54:28.17	70.80	5.20	-50.9	-66.1	3.6	1.51e+00	0	40	104	0	60	73177
2026-01-23 20:54:29.18	70.70	5.26	-50.9	-66.1	3.6	1.51e+00	0	40	104	0	60	73177
2026-01-23 20:54:30.19	70.60	5.31	-50.9	-66.1	3.6	1.51e+00	0	40	104	0	60	72591
2026-01-23 20:54:31.20	70.50	5.37	-50.9	-66.0	3.6	1.51e+00	0	40	104	0	60	72442
2026-01-23 20:54:32.21	70.40	5.43	-50.9	-66.1	3.6	1.51e+00	0	41	104	0	60	72810
2026-01-23 20:54:33.22	70.30	5.48	-50.9	-66.1	3.6	1.51e+00	0	41	104	0	60	72930
2026-01-23 20:54:34.23	70.20	5.54	-50.9	-66.1	3.6	1.51e+00	0	41	104	0	60	73026
2026-01-23 20:54:35.24	70.10	5.59	-50.9	-66.0	3.6	1.51e+00	0	41	104	0	60	72140
2026-01-23 20:54:36.25	70.00	5.65	-50.9	-66.1	3.6	1.51e+00	0	41	104	0	60	72761
2026-01-23 20:54:37.26	69.90	5.71	-50.9	-66.1	3.6	1.51e+00	0	41	104	0	60	73032
2026-01-23 20:54:38.27	69.79	5.76	-50.9	-66.1	3.6	1.51e+00	0	40	104	0	60	72856
2026-01-23 20:54:39.28	69.69	5.82	-50.9	-66.1	3.6	1.51e+00	0	41	104	0	60	72718
2026-01-23 20:54:40.29	69.59	5.88	-50.9	-66.1	3.6	1.51e+00	0	41	104	0	60	72670
2026-01-23 20:54:41.30	69.48	5.93	-50.9	-66.0	3.6	1.51e+00	0	41	104	0	60	72424
2026-01-23 20:54:42.31	69.38	5.99	-50.9	-66.1	3.6	1.51e+00	0	41	104	0	60	72814
2026-01-23 20:54:43.32	69.28	6.04	-50.9	-66.1	3.6	1.51e+00	0	41	104	0	60	72873
2026-01-23 20:54:44.33	69.17	6.10	-50.9	-66.1	3.6	1.51e+00	0	40	104	0	60	73082
2026-01-23 20:54:45.34	69.07	6.16	-50.9	-66.1	3.6	1.51e+00	0	41	104	0	60	72763
2026-01-23 20:54:46.35	68.96	6.21	-50.9	-66.1	3.6	1.51e+00	0	40	104	0	60	73108
2026-01-23 20:54:47.36	68.86	6.27	-50.9	-66.1	3.6	1.51e+00	0	41	104	0	60	72653
2026-01-23 20:54:48.36	68.75	6.33	-50.9	-66.1	3.6	1.51e+00	0	41	104	0	60	72577
2026-01-23 20:54:49.37	68.64	6.38	-50.9	-66.1	3.6	1.51e+00	0	41	104	0	60	72708
2026-01-23 20:54:50.38	68.54	6.44	-50.9	-66.1	3.6	1.51e+00	0	41	104	0	60	72541
2026-01-23 20:54:51.39	68.43	6.50	-50.9	-66.0	3.6	1.51e+00	0	41	104	0	60	72190
2026-01-23 20:54:52.40	68.32	6.55	-50.9	-66.1	3.6	1.51e+00	0	41	104	0	60	73058
2026-01-23 20:54:53.41	68.21	6.61	-50.9	-66.1	3.6	1.51e+00	0	40	104	0	60	72824
2026-01-23 20:54:54.42	68.10	6.67	-50.9	-66.1	3.5	1.51e+00	0	41	104	0	60	72916
2026-01-23 20:54:55.43	67.99	6.72	-50.9	-66.1	3.6	1.51e+00	0	41	104	0	60	72552
2026-01-23 20:54:56.44	67.88	6.78	-50.9	-66.1	3.6	1.51e+00	0	40	104	0	60	73044
2026-01-23 20:54:57.45	67.77	6.84	-50.9	-66.1	3.6	1.51e+00	0	41	104	0	60	72918
2026-01-23 20:54:58.46	67.66	6.89	-50.9	-66.1	3.6	1.51e+00	0	41	104	0	60	72799
2026-01-23 20:54:59.47	67.55	6.95	-50.9	-66.1	3.6	1.51e+00	0	41	104	0	60	72727
2026-01-23 20:55:00.48	67.44	7.01	-50.9	-66.1	3.6	1.51e+00	0	41	104	0	60	73063
2026-01-23 20:55:01.49	67.33	7.06	-50.9	-66.1	3.6	1.51e+00	0	41	104	0	60	73084
2026-01-23 20:55:02.50	67.22	7.12	-50.9	-66.0	3.6	1.51e+00	0	41	104	0	60	72396
2026-01-23 20:55:03.51	67.10	7.18	-50.9	-66.1	3.6	1.51e+00	0	41	104	0	60	73081
2026-01-23 20:55:04.52	66.99	7.23	-50.9	-66.1	3.6	1.51e+00	0	41	104	0	60	73145
2026-01-23 20:55:05.53	66.88	7.29	-50.9	-66.1	3.6	1.51e+00	0	41	104	0	60	72701
2026-01-23 20:55:06.54	66.76	7.35	-50.9	-66.1	3.6	1.51e+00	0	41	104	0	60	73098
2026-01-23 20:55:07.55	66.65	7.40	-50.9	-66.1	3.6	1.51e+00	0	41	104	0	60	73086
2026-01-23 20:55:08.56	66.53	7.46	-50.9	-66.1	3.6	1.51e+00	0	41	104	0	60	72912
2026-01-23 20:55:09.57	66.42	7.52	-50.9	-66.1	3.6	1.51e+00	0	41	104	0	60	72577
2026-01-23 20:55:10.58	66.30	7.58	-50.9	-66.1	3.6	1.51e+00	0	41	104	0	60	73075
2026-01-23 20:55:11.59	66.18	7.63	-50.9	-66.1	3.6	1.51e+00	0	41	104	0	60	72944
2026-01-23 20:55:12.61	66.06	7.69	-50.9	-66.1	3.6	1.51e+00	0	41	104	0	60	72820
2026-01-23 20:55:13.62	65.95	7.75	-50.9	-66.1	3.6	1.51e+00	0	41	104	0	60	73042
2026-01-23 20:55:14.63	65.83	7.80	-50.9	-66.1	3.6	1.51e+00	0	41	104	0	60	72933
2026-01-23 20:55:15.64	65.71	7.86	-50.9	-66.1	3.6	1.51e+00	0	41	104	0	60	72778
2026-01-23 20:55:16.65	65.59	7.92	-50.9	-66.1	3.6	1.51e+00	0	41	104	0	60	72970
2026-01-23 20:55:17.66	65.47	7.98	-50.9	-66.0	3.6	1.51e+00	0	41	104	0	60	72456
2026-01-23 20:55:18.67	65.35	8.03	-50.9	-66.1	3.6	1.51e+00	0	41	104	0	60	73159
2026-01-23 20:55:19.67	65.23	8.09	-50.9	-66.1	3.6	1.51e+00	0	41	104	0	60	72831
2026-01-23 20:55:20.68	65.11	8.15	-50.9	-66.1	3.6	1.51e+00	0	41	104	0	60	73072
2026-01-23 20:55:21.69	64.99	8.20	-50.9	-66.1	3.6	1.51e+00	0	41	104	0	60	72882
2026-01-23 20:55:22.70	64.87	8.26	-50.9	-66.1	3.6	1.51e+00	0	41	104	0	60	73325
2026-01-23 20:55:23.71	64.75	8.32	-50.9	-66.1	3.6	1.51e+00	0	41	104	0	60	72925
2026-01-23 20:55:24.72	64.62	8.37	-50.9	-66.1	3.6	1.51e+00	0	41	104	0	60	73024
2026-01-23 20:55:25.73	64.50	8.43	-50.9	-66.1	3.6	1.51e+00	0	41	104	0	60	72812
2026-01-23 20:55:26.75	64.38	8.49	-50.9	-66.0	3.6	1.51e+00	0	41	104	0	60	72485
2026-01-23 20:55:27.75	64.25	8.55	-50.9	-66.1	3.6	1.51e+00	0	41	104	0	60	73025
2026-01-23 20:55:28.76	64.13	8.60	-50.9	-66.1	3.6	1.51e+00	0	41	104	0	60	72604
2026-01-23 20:55:29.77	64.00	8.66	-50.9	-66.1	3.6	1.51e+00	0	41	104	0	60	73090
2026-01-23 20:55:30.78	63.88	8.72	-50.9	-66.1	3.6	1.51e+00	0	41	104	0	60	72907
2026-01-23 20:55:31.79	63.75	8.77	-50.9	-66.1	3.6	1.51e+00	0	41	104	0	60	73010
2026-01-23 20:55:32.80	63.62	8.83	-50.9	-66.1	3.6	1.51e+00	0	41	104	0	60	72828
2026-01-23 20:55:33.81	63.50	8.89	-50.9	-66.1	3.6	1.51e+00	0	41	104	0	60	73137
2026-01-23 20:55:34.82	63.37	8.95	-50.9	-66.1	3.6	1.51e+00	0	41	104	0	60	72767
2026-01-23 20:55:35.83	63.24	9.00	-50.9	-66.1	3.6	1.51e+00	0	41	104	0	60	72601
2026-01-23 20:55:36.84	63.11	9.06	-50.9	-66.1	3.6	1.51e+00	0	41	104	0	60	72765
2026-01-23 20:55:37.85	62.98	9.12	-50.9	-66.1	3.6	1.51e+00	0	41	104	0	60	72739
2026-01-23 20:55:38.86	62.85	9.17	-50.9	-66.1	3.6	1.51e+00	0	41	104	0	60	73091
2026-01-23 20:55:39.87	62.72	9.23	-50.9	-66.1	3.5	1.51e+00	0	41	104	0	60	72999
2026-01-23 20:55:40.88	62.59	9.29	-50.9	-66.1	3.6	1.51e+00	0	41	104	0	60	73323
2026-01-23 20:55:41.89	62.46	9.35	-50.9	-66.1	3.6	1.51e+00	0	41	104	0	60	72938
2026-01-23 20:55:42.90	62.33	9.40	-50.9	-66.1	3.6	1.51e+00	0	41	104	0	60	72900
2026-01-23 20:55:43.91	62.19	9.46	-50.9	-66.1	3.6	1.51e+00	0	41	104	0	60	72952
2026-01-23 20:55:44.92	62.06	9.52	-50.9	-66.1	3.6	1.51e+00	0	41	104	0	60	72753
2026-01-23 20:55:45.93	61.93	9.57	-50.9	-66.1	3.6	1.51e+00	0	41	104	0	60	73020
2026-01-23 20:55:46.94	61.79	9.63	-50.9	-66.1	3.6	1.51e+00	0	41	104	0	60	73287
2026-01-23 20:55:47.94	61.66	9.69	-50.9	-66.1	3.6	1.51e+00	0	41	104	0	60	72624
2026-01-23 20:55:48.95	61.53	9.74	-50.9	-66.2	3.6	1.51e+00	0	41	104	0	60	73444
2026-01-23 20:55:49.96	61.39	9.80	-50.9	-66.2	3.6	1.51e+00	0	41	104	0	60	73499
2026-01-23 20:55:50.97	61.25	9.86	-50.9	-66.1	3.6	1.51e+00	0	41	104	0	60	72873
2026-01-23 20:55:51.98	61.12	9.91	-50.9	-66.1	3.6	1.51e+00	0	41	104	0	60	73168
2026-01-23 20:55:52.99	60.98	9.97	-50.9	-66.1	3.6	1.51e+00	0	41	104	0	60	73175
2026-01-23 20:55:54.00	60.84	10.03	-50.9	-66.1	3.6	1.51e+00	0	41	104	0	60	72718
2026-01-23 20:55:55.01	60.70	10.08	-50.9	-66.1	3.6	1.51e+00	0	41	104	0	60	72939
2026-01-23 20:55:56.02	60.56	10.14	-50.9	-66.1	3.6	1.51e+00	0	41	104	0	60	72948
2026-01-23 20:55:57.03	60.42	10.20	-50.9	-66.1	3.6	1.51e+00	0	41	104	0	60	72738
2026-01-23 20:55:58.05	60.28	10.25	-50.9	-66.1	3.6	1.51e+00	0	41	104	0	60	73247
2026-01-23 20:55:59.05	60.14	10.31	-50.9	-66.1	3.6	1.51e+00	0	41	104	0	60	73123
2026-01-23 20:56:00.06	60.00	10.37	-50.9	-66.1	3.6	1.51e+00	0	41	104	0	60	73005
2026-01-23 20:56:01.07	59.86	10.42	-50.9	-66.1	3.6	1.51e+00	0	41	104	0	60	73115
2026-01-23 20:56:02.08	59.72	10.48	-50.9	-66.1	3.6	1.51e+00	0	41	104	0	60	72943
2026-01-23 20:56:03.09	59.58	10.54	-50.9	-66.1	3.6	1.51e+00	0	41	104	0	60	72669
2026-01-23 20:56:04.10	59.43	10.59	-50.9	-66.1	3.6	1.51e+00	0	41	104	0	60	72961
2026-01-23 20:56:05.11	59.29	10.65	-50.9	-66.1	3.6	1.51e+00	0	41	104	0	60	73230
2026-01-23 20:56:06.12	59.14	10.71	-50.9	-66.1	3.6	1.51e+00	0	41	104	0	60	72765
2026-01-23 20:56:07.12	59.00	10.76	-50.9	-66.1	3.6	1.51e+00	0	41	104	0	60	72729
2026-01-23 20:56:08.14	58.85	10.82	-50.9	-66.1	3.6	1.51e+00	0	41	104	0	60	72730
2026-01-23 20:56:09.14	58.71	10.87	-50.9	-66.1	3.6	1.51e+00	0	41	104	0	60	72838
2026-01-23 20:56:10.15	58.56	10.93	-50.9	-66.1	3.6	1.51e+00	0	41	104	0	60	72691
2026-01-23 20:56:11.16	58.41	10.99	-50.9	-66.1	3.6	1.51e+00	0	41	104	0	60	73211
2026-01-23 20:56:12.17	58.27	11.04	-50.9	-66.1	3.6	1.51e+00	0	41	104	0	60	73152
2026-01-23 20:56:13.18	58.12	11.10	-50.9	-66.1	3.6	1.51e+00	0	41	104	0	60	73067
2026-01-23 20:56:14.20	57.97	11.15	-50.9	-66.1	3.6	1.51e+00	0	41	104	0	60	73071
2026-01-23 20:56:15.21	57.82	11.21	-50.9	-66.1	3.6	1.51e+00	0	41	104	0	60	73253
2026-01-23 20:56:16.22	57.67	11.27	-50.9	-66.1	3.5	1.51e+00	0	41	104	0	60	72820
2026-01-23 20:56:17.22	57.52	11.32	-50.9	-66.1	3.6	1.51e+00	0	41	104	0	60	72931
2026-01-23 20:56:18.23	57.37	11.38	-50.9	-66.1	3.6	1.51e+00	0	41	104	0	60	72985
2026-01-23 20:56:19.25	57.21	11.43	-50.9	-66.1	3.6	1.51e+00	0	41	104	0	60	73150
2026-01-23 20:56:20.25	57.06	11.49	-50.9	-66.1	3.6	1.51e+00	0	41	104	0	60	73140
2026-01-23 20:56:21.26	56.91	11.54	-50.9	-66.1	3.6	1.51e+00	0	41	104	0	60	73075
2026-01-23 20:56:22.27	56.76	11.60	-50.9	-66.1	3.6	1.51e+00	0	41	104	0	60	73037
2026-01-23 20:56:23.28	56.60	11.65	-50.9	-66.1	3.6	1.51e+00	0	41	104	0	60	72807
2026-01-23 20:56:24.29	56.45	11.71	-50.9	-66.1	3.6	1.51e+00	0	41	104	0	60	73203
2026-01-23 20:56:25.30	56.29	11.76	-50.9	-66.1	3.6	1.51e+00	0	41	104	0	60	73071
2026-01-23 20:56:26.31	56.13	11.82	-50.9	-66.1	3.6	1.51e+00	0	41	104	0	60	72954
2026-01-23 20:56:27.32	55.98	11.87	-50.9	-66.1	3.6	1.51e+00	0	41	104	0	60	72878
2026-01-23 20:56:28.33	55.82	11.93	-50.9	-66.1	3.6	1.51e+00	0	41	104	0	60	72800
2026-01-23 20:56:29.33	55.66	11.98	-50.9	-66.1	3.6	1.51e+00	0	41	104	0	60	73039
2026-01-23 20:56:30.34	55.51	12.04	-50.9	-66.1	3.6	1.51e+00	0	41	104	0	60	73249
2026-01-23 20:56:31.35	55.35	12.09	-50.9	-66.1	3.6	1.51e+00	0	41	104	0	60	73059
2026-01-23 20:56:32.37	55.19	12.15	-50.9	-66.1	3.6	1.51e+00	0	41	104	0	60	72889
2026-01-23 20:56:33.37	55.03	12.20	-50.9	-66.1	3.6	1.51e+00	0	41	104	0	60	72877
2026-01-23 20:56:34.39	54.86	12.25	-50.9	-66.1	3.6	1.51e+00	0	41	104	0	60	73186
2026-01-23 20:56:35.40	54.70	12.31	-50.9	-66.1	3.6	1.51e+00	0	41	104	0	60	73070
2026-01-23 20:56:36.41	54.54	12.36	-50.9	-66.1	3.6	1.51e+00	0	41	104	0	60	73023
2026-01-23 20:56:37.42	54.38	12.42	-50.9	-66.1	3.6	1.51e+00	0	41	104	0	60	72968
2026-01-23 20:56:38.43	54.21	12.47	-50.9	-66.1	3.6	1.51e+00	0	41	104	0	60	72824
2026-01-23 20:56:39.44	54.05	12.52	-50.9	-66.1	3.6	1.51e+00	0	41	104	0	60	72841
2026-01-23 20:56:40.45	53.89	12.58	-50.9	-66.2	3.6	1.51e+00	0	41	104	0	60	73575
2026-01-23 20:56:41.45	53.72	12.63	-50.9	-66.1	3.6	1.51e+00	0	41	104	0	60	73245
2026-01-23 20:56:42.46	53.56	12.68	-50.9	-66.1	3.6	1.51e+00	0	41	104	0	60	73018
2026-01-23 20:56:43.47	53.39	12.74	-50.9	-66.1	3.5	1.51e+00	0	41	104	0	60	73301
2026-01-23 20:56:44.48	53.22	12.79	-50.9	-66.1	3.6	1.51e+00	0	41	104	0	60	73348
2026-01-23 20:56:45.49	53.06	12.84	-50.9	-66.1	3.6	1.51e+00	0	41	104	0	60	72935
2026-01-23 20:56:46.50	52.89	12.90	-50.9	-66.1	3.6	1.51e+00	0	41	104	0	60	73183
2026-01-23 20:56:47.51	52.72	12.95	-50.9	-66.1	3.6	1.51e+00	0	41	104	0	60	72596
2026-01-23 20:56:48.52	52.55	13.00	-50.9	-66.1	3.6	1.51e+00	0	41	104	0	60	73029
2026-01-23 20:56:49.53	52.38	13.05	-50.9	-66.2	3.6	1.51e+00	0	41	104	0	60	73384
2026-01-23 20:56:50.54	52.21	13.11	-50.9	-66.1	3.6	1.51e+00	0	41	104	0	60	73172
2026-01-23 20:56:51.55	52.04	13.16	-50.9	-66.2	3.6	1.51e+00	0	41	104	0	60	73507
2026-01-23 20:56:52.56	51.87	13.21	-50.9	-66.1	3.6	1.51e+00	0	41	104	0	60	73001
2026-01-23 20:56:53.57	51.69	13.26	-50.9	-66.1	3.5	1.51e+00	0	41	104	0	60	72967
2026-01-23 20:56:54.58	51.52	13.31	-50.9	-66.1	3.6	1.51e+00	0	41	104	0	60	73126
2026-01-23 20:56:55.59	51.35	13.36	-50.9	-66.1	3.6	1.51e+00	0	41	104	0	60	72771
2026-01-23 20:56:56.59	51.17	13.42	-50.9	-66.1	3.6	1.51e+00	0	41	104	0	60	73194
2026-01-23 20:56:57.60	51.00	13.47	-50.9	-66.1	3.6	1.51e+00	0	41	104	0	60	73120
2026-01-23 20:56:58.62	50.82	13.52	-50.9	-66.1	3.6	1.51e+00	0	41	104	0	60	72762
2026-01-23 20:56:59.63	50.65	13.57	-50.9	-66.1	3.6	1.51e+00	0	41	104	0	60	73130
2026-01-23 20:57:00.63	50.47	13.62	-50.9	-66.1	3.6	1.51e+00	0	41	104	0	60	72936
2026-01-23 20:57:01.64	50.29	13.67	-50.9	-66.1	3.6	1.51e+00	0	41	104	0	60	72963
2026-01-23 20:57:02.66	50.11	13.72	-50.9	-66.1	3.6	1.51e+00	0	41	104	0	60	72860
2026-01-23 20:57:03.66	49.94	13.77	-50.9	-66.1	3.6	1.51e+00	0	41	104	0	60	73170
2026-01-23 20:57:04.67	49.76	13.82	-50.9	-66.1	3.6	1.51e+00	0	41	104	0	60	72794
2026-01-23 20:57:05.68	49.58	13.87	-50.9	-66.1	3.6	1.51e+00	0	41	104	0	60	72847
2026-01-23 20:57:06.69	49.40	13.92	-50.9	-66.1	3.6	1.51e+00	0	41	104	0	60	73185
2026-01-23 20:57:07.70	49.22	13.97	-50.9	-66.1	3.6	1.51e+00	0	41	104	0	60	73032
2026-01-23 20:57:08.71	49.04	14.02	-50.9	-66.1	3.6	1.51e+00	0	41	104	0	60	73072
2026-01-23 20:57:09.72	48.85	14.07	-50.9	-66.1	3.6	1.51e+00	0	41	104	0	60	73042
2026-01-23 20:57:10.73	48.67	14.12	-50.9	-66.1	3.6	1.51e+00	0	41	104	0	60	72952
2026-01-23 20:57:11.74	48.49	14.17	-50.9	-66.1	3.6	1.51e+00	0	41	104	0	60	72784
2026-01-23 20:57:12.75	48.30	14.21	-50.9	-66.2	3.6	1.51e+00	0	41	104	0	60	73486
2026-01-23 20:57:13.76	48.12	14.26	-50.9	-66.1	3.6	1.51e+00	0	41	104	0	60	72940
2026-01-23 20:57:14.77	47.93	14.31	-50.9	-66.1	3.6	1.51e+00	0	41	104	0	60	72944
2026-01-23 20:57:15.78	47.75	14.36	-50.9	-66.1	3.6	1.51e+00	0	41	104	0	60	73186
2026-01-23 20:57:16.79	47.56	14.41	-50.9	-66.1	3.6	1.51e+00	0	41	104	0	60	72760
2026-01-23 20:57:17.80	47.37	14.45	-50.9	-66.1	3.6	1.51e+00	0	41	104	0	60	73253
2026-01-23 20:57:18.81	47.19	14.50	-50.9	-66.1	3.6	1.51e+00	0	41	104	0	60	73080
2026-01-23 20:57:19.82	47.00	14.55	-50.9	-66.1	3.6	1.51e+00	0	41	104	0	60	72812
2026-01-23 20:57:20.82	46.81	14.59	-50.9	-66.1	3.6	1.51e+00	0	41	104	0	60	73260
2026-01-23 20:57:21.83	46.62	14.64	-50.9	-66.1	3.6	1.51e+00	0	41	104	0	60	72946
2026-01-23 20:57:22.84	46.43	14.69	-50.9	-66.1	3.6	1.51e+00	0	41	104	0	60	72926
2026-01-23 20:57:23.85	46.24	14.73	-50.9	-66.1	3.6	1.51e+00	0	41	104	0	60	72681
2026-01-23 20:57:24.86	46.05	14.78	-50.9	-66.1	3.6	1.51e+00	0	41	104	0	60	72771
2026-01-23 20:57:25.87	45.86	14.83	-50.9	-66.1	3.5	1.51e+00	0	41	104	0	60	73243
2026-01-23 20:57:26.88	45.66	14.87	-50.9	-66.1	3.6	1.51e+00	0	41	104	0	60	72814
2026-01-23 20:57:27.89	45.47	14.92	-50.9	-66.1	3.6	1.51e+00	0	41	104	0	60	72750
2026-01-23 20:57:28.90	45.28	14.96	-50.9	-66.1	3.6	1.51e+00	0	41	104	0	60	73263
2026-01-23 20:57:29.91	45.08	15.01	-50.9	-66.1	3.6	1.51e+00	0	41	104	0	60	73306
2026-01-23 20:57:30.92	44.89	15.05	-50.9	-66.1	3.6	1.51e+00	0	41	104	0	60	72865
2026-01-23 20:57:31.93	44.69	15.09	-50.9	-66.1	3.6	1.51e+00	0	41	104	0	60	73204
2026-01-23 20:57:32.94	44.50	15.14	-50.9	-66.1	3.6	1.51e+00	0	41	104	0	60	73127
2026-01-23 20:57:33.95	44.30	15.18	-50.9	-66.1	3.6	1.51e+00	0	41	104	0	60	72722
2026-01-23 20:57:34.96	44.10	15.23	-50.9	-66.1	3.6	1.51e+00	0	41	104	0	60	73078
2026-01-23 20:57:35.97	43.91	15.27	-50.9	-66.1	3.5	1.51e+00	0	41	104	0	60	72714
2026-01-23 20:57:36.98	43.71	15.31	-50.9	-66.1	3.6	1.51e+00	0	41	104	0	60	73174
2026-01-23 20:57:37.99	43.51	15.35	-50.9	-66.1	3.6	1.51e+00	0	41	104	0	60	72854
2026-01-23 20:57:39.00	43.31	15.40	-50.9	-66.1	3.6	1.51e+00	0	41	104	0	60	73150
2026-01-23 20:57:40.01	43.11	15.44	-50.9	-66.1	3.6	1.51e+00	0	41	104	0	60	72949
2026-01-23 20:57:41.02	42.91	15.48	-50.9	-66.1	3.6	1.51e+00	0	41	104	0	60	72953
2026-01-23 20:57:42.03	42.71	15.52	-50.9	-66.1	3.6	1.51e+00	0	41	104	0	60	73172
2026-01-23 20:57:43.04	42.51	15.56	-50.9	-66.1	3.6	1.51e+00	0	41	104	0	60	72876
2026-01-23 20:57:44.05	42.30	15.60	-50.9	-66.1	3.6	1.51e+00	0	41	104	0	60	73033
2026-01-23 20:57:45.06	42.10	15.65	-50.9	-66.1	3.6	1.51e+00	0	41	104	0	60	73125
2026-01-23 20:57:46.07	41.90	15.69	-50.9	-66.1	3.6	1.51e+00	0	41	104	0	60	73161
2026-01-23 20:57:47.08	41.69	15.73	-50.9	-66.1	3.6	1.51e+00	0	41	104	0	60	72899
2026-01-23 20:57:48.09	41.49	15.77	-50.9	-66.1	3.6	1.51e+00	0	41	104	0	60	72997
2026-01-23 20:57:49.10	41.28	15.80	-50.9	-66.1	3.6	1.51e+00	0	41	104	0	60	72981
2026-01-23 20:57:50.11	41.08	15.84	-50.9	-66.1	3.6	1.51e+00	0	41	104	0	60	73049
2026-01-23 20:57:51.12	40.87	15.88	-50.9	-66.0	3.6	1.51e+00	0	41	104	0	60	72421
2026-01-23 20:57:52.13	40.67	15.92	-50.9	-66.1	3.6	1.51e+00	0	41	104	0	60	72782
2026-01-23 20:57:53.14	40.46	15.96	-50.9	-66.1	3.6	1.51e+00	0	41	104	0	60	73332
2026-01-23 20:57:54.16	40.25	16.00	-50.9	-66.1	3.5	1.51e+00	0	41	104	0	60	72926
2026-01-23 20:57:55.17	40.04	16.04	-50.9	-66.1	3.6	1.51e+00	0	41	104	0	60	72876
2026-01-23 20:57:56.18	39.83	16.07	-50.9	-66.1	3.6	1.51e+00	0	41	104	0	60	72836
2026-01-23 20:57:57.19	39.62	16.11	-50.9	-66.1	3.6	1.51e+00	0	41	104	0	60	72962
2026-01-23 20:57:58.20	39.41	16.15	-50.9	-66.1	3.6	1.51e+00	0	41	104	0	60	73071
2026-01-23 20:57:59.21	39.20	16.18	-50.9	-66.1	3.5	1.51e+00	0	41	104	0	60	73115
2026-01-23 20:58:00.22	38.99	16.22	-50.9	-66.1	3.6	1.51e+00	0	41	104	0	60	72917
2026-01-23 20:58:01.22	38.78	16.25	-50.9	-66.1	3.6	1.51e+00	0	41	104	0	60	73103
2026-01-23 20:58:02.24	38.57	16.29	-50.9	-66.1	3.6	1.51e+00	0	41	104	0	60	73231
2026-01-23 20:58:03.24	38.36	16.32	-50.9	-66.1	3.6	1.51e+00	0	41	104	0	60	73226
2026-01-23 20:58:04.26	38.14	16.36	-50.9	-66.1	3.6	1.51e+00	0	41	104	0	60	72778
2026-01-23 20:58:05.27	37.93	16.39	-50.9	-66.1	3.6	1.51e+00	0	41	104	0	60	73006
2026-01-23 20:58:06.28	37.72	16.43	-50.9	-66.1	3.6	1.51e+00	0	41	104	0	60	72960
2026-01-23 20:58:07.29	37.50	16.46	-50.9	-66.1	3.6	1.51e+00	0	41	104	0	60	72988
2026-01-23 20:58:08.29	37.29	16.49	-50.9	-66.1	3.6	1.51e+00	0	41	104	0	60	73138
2026-01-23 20:58:09.30	37.07	16.52	-50.9	-66.1	3.6	1.51e+00	0	41	104	0	60	73300
2026-01-23 20:58:10.31	36.86	16.56	-50.9	-66.1	3.6	1.51e+00	0	41	104	0	60	73342
2026-01-23 20:58:11.32	36.64	16.59	-50.9	-66.2	3.6	1.51e+00	0	41	104	0	60	73474
2026-01-23 20:58:12.33	36.42	16.62	-50.9	-66.1	3.6	1.51e+00	0	41	104	0	60	73251
2026-01-23 20:58:13.34	36.21	16.65	-50.9	-66.1	3.6	1.51e+00	0	41	104	0	60	72778
2026-01-23 20:58:14.35	35.99	16.68	-50.9	-66.1	3.6	1.51e+00	0	41	104	0	60	72873
2026-01-23 20:58:15.36	35.77	16.71	-50.9	-66.1	3.6	1.51e+00	0	41	104	0	60	73023
2026-01-23 20:58:16.38	35.55	16.74	-50.9	-66.2	3.6	1.51e+00	0	41	104	0	60	73483
2026-01-23 20:58:17.39	35.33	16.77	-50.9	-66.1	3.6	1.51e+00	0	41	104	0	60	73158
2026-01-23 20:58:18.40	35.11	16.80	-50.9	-66.1	3.6	1.51e+00	0	41	104	0	60	72912
2026-01-23 20:58:19.41	34.89	16.83	-50.9	-66.1	3.6	1.51e+00	0	41	104	0	60	72903
2026-01-23 20:58:20.42	34.67	16.86	-50.9	-66.1	3.6	1.51e+00	0	41	104	0	60	72785
2026-01-23 20:58:21.43	34.45	16.89	-50.9	-66.1	3.6	1.51e+00	0	41	104	0	60	73140
2026-01-23 20:58:22.44	34.23	16.91	-50.9	-66.1	3.6	1.51e+00	0	41	104	0	60	73127
2026-01-23 20:58:23.45	34.01	16.94	-50.9	-66.1	3.6	1.51e+00	0	41	104	0	60	73198
2026-01-23 20:58:24.46	33.79	16.97	-50.9	-66.1	3.6	1.51e+00	0	41	104	0	60	73192
2026-01-23 20:58:25.47	33.57	17.00	-50.9	-66.1	3.6	1.51e+00	0	41	104	0	60	73327
2026-01-23 20:58:26.48	33.34	17.02	-50.9	-66.1	3.6	1.51e+00	0	41	104	0	60	73277
2026-01-23 20:58:27.49	33.12	17.05	-50.9	-66.1	3.6	1.51e+00	0	41	104	0	60	73329
2026-01-23 20:58:28.50	32.90	17.07	-50.9	-66.2	3.6	1.51e+00	0	41	104	0	60	73513
2026-01-23 20:58:29.51	32.67	17.10	-50.9	-66.1	3.6	1.51e+00	0	41	104	0	60	73115
2026-01-23 20:58:30.52	32.45	17.12	-50.9	-66.1	3.6	1.51e+00	0	41	104	0	60	73030
2026-01-23 20:58:31.53	32.22	17.14	-50.9	-66.1	3.6	1.51e+00	0	41	104	0	60	72904
2026-01-23 20:58:32.54	32.00	17.17	-50.9	-66.1	3.6	1.51e+00	0	41	104	0	60	72948
2026-01-23 20:58:33.55	31.78	17.19	-50.9	-66.1	3.6	1.51e+00	0	41	104	0	60	73161
2026-01-23 20:58:34.56	31.55	17.21	-50.9	-66.1	3.6	1.51e+00	0	41	104	0	60	73058
2026-01-23 20:58:35.57	31.32	17.24	-50.9	-66.1	3.6	1.51e+00	0	41	104	0	60	72951
2026-01-23 20:58:36.58	31.10	17.26	-50.9	-66.1	3.6	1.51e+00	0	41	104	0	60	72939
2026-01-23 20:58:37.59	30.87	17.28	-50.9	-66.1	3.6	1.51e+00	0	41	104	0	60	72802
2026-01-23 20:58:38.60	30.64	17.30	-50.9	-66.1	3.6	1.51e+00	0	41	104	0	60	73104
2026-01-23 20:58:39.61	30.42	17.32	-50.9	-66.1	3.6	1.51e+00	0	41	104	0	60	72806
2026-01-23 20:58:40.62	30.19	17.34	-50.9	-66.1	3.6	1.51e+00	0	41	104	0	60	72918
2026-01-23 20:58:41.63	29.96	17.36	-50.9	-66.1	3.6	1.51e+00	0	41	104	0	60	72831
2026-01-23 20:58:42.64	29.73	17.38	-50.9	-66.1	3.6	1.51e+00	0	41	104	0	60	73174
2026-01-23 20:58:43.64	29.51	17.40	-50.9	-66.1	3.6	1.51e+00	0	41	104	0	60	72857
2026-01-23 20:58:44.65	29.28	17.41	-50.9	-66.1	3.6	1.51e+00	0	41	104	0	60	73082
2026-01-23 20:58:45.66	29.05	17.43	-50.9	-66.1	3.6	1.51e+00	0	41	104	0	60	72707
2026-01-23 20:58:46.67	28.82	17.45	-50.9	-66.1	3.6	1.51e+00	0	41	104	0	60	72935
2026-01-23 20:58:47.68	28.59	17.47	-50.9	-66.1	3.6	1.51e+00	0	41	104	0	60	73164
2026-01-23 20:58:48.69	28.36	17.48	-50.9	-66.1	3.6	1.51e+00	0	41	104	0	60	73362
2026-01-23 20:58:49.70	28.13	17.50	-50.9	-66.1	3.6	1.51e+00	0	41	104	0	60	72998
2026-01-23 20:58:50.71	27.90	17.51	-50.9	-66.1	3.6	1.51e+00	0	41	104	0	60	73157
2026-01-23 20:58:51.72	27.67	17.53	-50.9	-66.1	3.6	1.51e+00	0	41	104	0	60	72827
2026-01-23 20:58:52.74	27.44	17.54	-50.9	-66.1	3.6	1.51e+00	0	41	104	0	60	72994
2026-01-23 20:58:53.74	27.21	17.56	-50.9	-66.1	3.6	1.51e+00	0	41	104	0	60	72914
2026-01-23 20:58:54.75	26.98	17.57	-50.9	-66.1	3.6	1.51e+00	0	41	104	0	60	72966
2026-01-23 20:58:55.76	26.75	17.58	-50.9	-66.1	3.6	1.51e+00	0	41	104	0	60	73261
2026-01-23 20:58:56.77	26.52	17.60	-50.9	-66.1	3.6	1.51e+00	0	41	104	0	60	72834
2026-01-23 20:58:57.78	26.29	17.61	-50.9	-66.1	3.6	1.51e+00	0	41	104	0	60	73067
2026-01-23 20:58:58.79	26.05	17.62	-50.9	-66.1	3.6	1.51e+00	0	41	104	0	60	73235
2026-01-23 20:58:59.80	25.82	17.63	-50.9	-66.2	3.6	1.51e+00	0	41	104	0	60	73514
2026-01-23 20:59:00.81	25.59	17.64	-50.9	-66.1	3.6	1.51e+00	0	41	104	0	60	73232
2026-01-23 20:59:01.82	25.36	17.65	-50.9	-66.1	3.5	1.51e+00	0	41	104	0	60	73065
2026-01-23 20:59:02.83	25.13	17.66	-50.9	-66.1	3.6	1.51e+00	0	41	104	0	60	73017
2026-01-23 20:59:03.84	24.89	17.67	-50.9	-66.1	3.6	1.51e+00	0	41	104	0	60	73260
2026-01-23 20:59:04.85	24.66	17.68	-50.9	-66.1	3.6	1.51e+00	0	41	104	0	60	73335
2026-01-23 20:59:05.86	24.43	17.69	-50.9	-66.1	3.6	1.51e+00	0	41	104	0	60	73110
2026-01-23 20:59:06.87	24.20	17.70	-50.9	-66.1	3.6	1.51e+00	0	41	104	0	60	72991
2026-01-23 20:59:07.87	23.96	17.70	-50.9	-66.1	3.6	1.51e+00	0	41	104	0	60	73299
2026-01-23 20:59:08.88	23.73	17.71	-50.9	-66.1	3.6	1.51e+00	0	41	104	0	60	73115
2026-01-23 20:59:09.89	23.50	17.72	-50.9	-66.1	3.6	1.51e+00	0	41	104	0	60	73163
2026-01-23 20:59:10.90	23.26	17.72	-50.9	-66.1	3.6	1.51e+00	0	41	104	0	60	72892
2026-01-23 20:59:11.91	23.03	17.73	-50.9	-66.1	3.6	1.51e+00	0	41	104	0	60	73262
2026-01-23 20:59:12.92	22.80	17.73	-50.9	-66.1	3.6	1.51e+00	0	41	104	0	60	73362
2026-01-23 20:59:13.93	22.56	17.74	-50.9	-66.1	3.6	1.51e+00	0	41	104	0	60	73243
2026-01-23 20:59:14.94	22.33	17.74	-50.9	-66.1	3.6	1.51e+00	0	41	104	0	60	73054
2026-01-23 20:59:15.95	22.10	17.74	-50.9	-66.1	3.6	1.51e+00	0	41	104	0	60	73133
2026-01-23 20:59:16.96	21.86	17.75	-50.9	-66.1	3.6	1.51e+00	0	41	104	0	60	72708
2026-01-23 20:59:17.97	21.63	17.75	-50.9	-66.1	3.6	1.51e+00	0	41	104	0	60	73155
2026-01-23 20:59:18.98	21.40	17.75	-50.9	-66.1	3.6	1.51e+00	0	41	104	0	60	72849
2026-01-23 20:59:19.99	21.16	17.75	-50.9	-66.1	3.6	1.51e+00	0	41	104	0	60	73030
2026-01-23 20:59:21.00	20.93	17.75	-50.9	-66.1	3.6	1.51e+00	0	41	104	0	60	73321
2026-01-23 20:59:22.01	20.69	17.75	-50.9	-66.1	3.6	1.51e+00	0	41	104	0	60	73076
2026-01-23 20:59:23.02	20.46	17.75	-50.9	-66.1	3.6	1.51e+00	0	41	104	0	60	73244
2026-01-23 20:59:24.03	20.23	17.75	-50.9	-66.1	3.6	1.51e+00	0	41	104	0	60	72853
2026-01-23 20:59:25.04	19.99	17.75	-50.9	-66.1	3.6	1.51e+00	0	41	104	0	60	72656
2026-01-23 20:59:26.05	19.76	17.75	-50.9	-66.1	3.6	1.51e+00	0	41	104	0	60	73135
2026-01-23 20:59:27.06	19.53	17.75	-50.9	-66.1	3.6	1.51e+00	0	41	104	0	60	73125
2026-01-23 20:59:28.07	19.29	17.75	-50.9	-66.1	3.6	1.51e+00	0	41	104	0	60	73064
2026-01-23 20:59:29.08	19.06	17.74	-50.9	-66.1	3.6	1.51e+00	0	41	104	0	60	73133
2026-01-23 20:59:30.08	18.83	17.74	-50.9	-66.1	3.6	1.51e+00	0	41	104	0	60	73039
2026-01-23 20:59:31.10	18.59	17.73	-50.9	-66.1	3.6	1.51e+00	0	41	104	0	60	73052
2026-01-23 20:59:32.11	18.36	17.73	-50.9	-66.1	3.6	1.51e+00	0	41	104	0	60	73148
2026-01-23 20:59:33.11	18.13	17.73	-50.9	-66.1	3.6	1.51e+00	0	41	104	0	60	72721
2026-01-23 20:59:34.12	17.89	17.72	-50.9	-66.1	3.6	1.51e+00	0	41	104	0	60	72978
2026-01-23 20:59:35.13	17.66	17.71	-50.9	-66.1	3.6	1.51e+00	0	41	104	0	60	73300
2026-01-23 20:59:36.14	17.43	17.71	-50.9	-66.1	3.6	1.51e+00	0	41	104	0	60	73099
2026-01-23 20:59:37.15	17.19	17.70	-50.9	-66.1	3.6	1.51e+00	0	41	104	0	60	73261
2026-01-23 20:59:38.16	16.96	17.69	-50.9	-66.1	3.6	1.51e+00	0	41	104	0	60	72865
2026-01-23 20:59:39.17	16.73	17.68	-50.9	-66.1	3.6	1.51e+00	0	41	104	0	60	73214
2026-01-23 20:59:40.18	16.50	17.68	-50.9	-66.1	3.6	1.51e+00	0	41	104	0	60	72905
2026-01-23 20:59:41.19	16.26	17.67	-50.9	-66.1	3.6	1.51e+00	0	41	104	0	60	73105
2026-01-23 20:59:42.20	16.03	17.66	-50.9	-66.1	3.6	1.51e+00	0	41	104	0	60	73375
2026-01-23 20:59:43.21	15.80	17.65	-50.9	-66.2	3.6	1.51e+00	0	41	104	0	60	73435
2026-01-23 20:59:44.22	15.57	17.64	-50.9	-66.1	3.6	1.51e+00	0	41	104	0	60	73189
2026-01-23 20:59:45.23	15.33	17.63	-50.9	-66.1	3.6	1.51e+00	0	41	104	0	60	73325
2026-01-23 20:59:46.24	15.10	17.62	-50.9	-66.1	3.6	1.51e+00	0	41	104	0	60	72857
2026-01-23 20:59:47.25	14.87	17.60	-50.9	-66.1	3.6	1.51e+00	0	41	104	0	60	73086
2026-01-23 20:59:48.26	14.64	17.59	-50.9	-66.1	3.6	1.51e+00	0	41	104	0	60	72894
2026-01-23 20:59:49.27	14.41	17.58	-50.9	-66.1	3.6	1.51e+00	0	41	104	0	60	72724
2026-01-23 20:59:50.28	14.18	17.57	-50.9	-66.1	3.6	1.51e+00	0	41	104	0	60	72960
2026-01-23 20:59:51.28	13.95	17.55	-50.9	-66.1	3.6	1.51e+00	0	41	104	0	60	73355
2026-01-23 20:59:52.29	13.72	17.54	-50.9	-66.1	3.6	1.51e+00	0	41	104	0	60	73059
2026-01-23 20:59:53.30	13.49	17.52	-50.9	-66.2	3.6	1.51e+00	0	41	104	0	60	73391
2026-01-23 20:59:54.32	13.26	17.51	-50.9	-66.1	3.6	1.51e+00	0	41	104	0	60	73071
2026-01-23 20:59:55.32	13.03	17.49	-50.9	-66.1	3.6	1.51e+00	0	41	104	0	60	73145
2026-01-23 20:59:56.34	12.80	17.48	-50.9	-66.1	3.6	1.51e+00	0	41	104	0	60	73045
2026-01-23 20:59:57.34	12.57	17.46	-50.9	-66.1	3.6	1.51e+00	0	41	104	0	60	73319
2026-01-23 20:59:58.36	12.34	17.44	-50.9	-66.1	3.6	1.51e+00	0	41	104	0	60	73295
2026-01-23 20:59:59.36	12.11	17.43	-50.9	-66.1	3.6	1.51e+00	0	41	104	0	60	73345
2026-01-23 21:00:00.38	11.88	17.41	-50.9	-66.1	3.6	1.51e+00	0	41	104	0	60	73004
2026-01-23 21:00:01.38	11.65	17.39	-50.9	-66.1	3.6	1.51e+00	0	41	104	0	60	72935
2026-01-23 21:00:02.39	11.43	17.37	-50.9	-66.1	3.6	1.51e+00	0	41	104	0	60	73063
2026-01-23 21:00:03.40	11.20	17.35	-50.9	-66.1	3.6	1.51e+00	0	41	104	0	60	72868
2026-01-23 21:00:04.41	10.97	17.33	-50.9	-66.1	3.6	1.51e+00	0	41	104	0	60	73133
2026-01-23 21:00:05.42	10.74	17.31	-50.9	-66.1	3.6	1.51e+00	0	41	104	0	60	72559
2026-01-23 21:00:06.43	10.52	17.29	-50.9	-66.0	3.6	1.51e+00	0	41	104	0	60	72514
2026-01-23 21:00:07.44	10.29	17.27	-50.9	-66.1	3.6	1.51e+00	0	41	104	0	60	72648
2026-01-23 21:00:08.45	10.06	17.25	-50.9	-66.1	3.6	1.51e+00	0	41	104	0	60	72853
2026-01-23 21:00:09.45	9.84	17.23	-50.9	-66.1	3.6	1.51e+00	0	41	104	0	60	73291
2026-01-23 21:00:10.47	9.61	17.21	-50.9	-66.1	3.6	1.51e+00	0	41	104	0	60	73271
2026-01-23 21:00:11.48	9.39	17.18	-50.9	-66.2	3.6	1.51e+00	0	41	104	0	60	73426
2026-01-23 21:00:12.49	9.16	17.16	-50.9	-66.1	3.6	1.51e+00	0	41	104	0	60	72983
2026-01-23 21:00:13.50	8.94	17.14	-50.9	-66.1	3.6	1.51e+00	0	41	104	0	60	73176
2026-01-23 21:00:14.51	8.72	17.11	-50.9	-66.1	3.6	1.51e+00	0	41	104	0	60	73279
2026-01-23 21:00:15.52	8.49	17.09	-50.9	-66.1	3.6	1.51e+00	0	41	104	0	60	73136
2026-01-23 21:00:16.53	8.27	17.06	-50.9	-66.1	3.6	1.51e+00	0	41	104	0	60	73075
2026-01-23 21:00:17.53	8.05	17.04	-50.9	-66.1	3.6	1.51e+00	0	41	104	0	60	73196
2026-01-23 21:00:18.54	7.82	17.01	-50.9	-66.1	3.6	1.51e+00	0	41	104	0	60	73127
2026-01-23 21:00:19.55	7.60	16.99	-50.9	-66.1	3.6	1.51e+00	0	41	104	0	60	73101
2026-01-23 21:00:20.56	7.38	16.96	-50.9	-66.1	3.6	1.51e+00	0	41	104	0	60	73222
2026-01-23 21:00:21.57	7.16	16.93	-50.9	-66.1	3.6	1.51e+00	0	41	104	0	60	73231
2026-01-23 21:00:22.58	6.94	16.91	-50.9	-66.1	3.5	1.51e+00	0	41	104	0	60	73024
2026-01-23 21:00:23.59	6.72	16.88	-50.9	-66.1	3.6	1.51e+00	0	41	104	0	60	73083
2026-01-23 21:00:24.60	6.50	16.85	-50.9	-66.1	3.6	1.51e+00	0	41	104	0	60	73367
2026-01-23 21:00:25.61	6.28	16.82	-50.9	-66.2	3.6	1.51e+00	0	41	104	0	60	73621
2026-01-23 21:00:26.62	6.06	16.79	-50.9	-66.1	3.6	1.51e+00	0	41	104	0	60	73235
2026-01-23 21:00:27.63	5.84	16.76	-50.9	-66.1	3.6	1.51e+00	0	42	104	0	60	73166
2026-01-23 21:00:28.64	5.62	16.73	-50.9	-66.1	3.6	1.51e+00	0	41	104	0	60	73181
2026-01-23 21:00:29.65	5.40	16.70	-50.9	-66.1	3.6	1.51e+00	0	41	104	0	60	73019
2026-01-23 21:00:30.66	5.19	16.67	-50.9	-66.2	3.6	1.51e+00	0	41	104	0	60	73587
2026-01-23 21:00:31.67	4.97	16.64	-50.9	-66.1	3.6	1.51e+00	0	41	104	0	60	73137
2026-01-23 21:00:32.68	4.75	16.61	-50.9	-66.1	3.5	1.51e+00	0	41	104	0	60	73165
2026-01-23 21:00:33.69	4.54	16.58	-50.9	-66.1	3.6	1.51e+00	0	41	104	0	60	73029
2026-01-23 21:00:34.70	4.32	16.55	-50.9	-66.1	3.6	1.51e+00	0	41	104	0	60	73102
2026-01-23 21:00:35.71	4.10	16.51	-50.9	-66.2	3.6	1.51e+00	0	41	104	0	60	73613
2026-01-23 21:00:36.72	3.89	16.48	-50.9	-66.1	3.6	1.51e+00	0	41	104	0	60	73110
2026-01-23 21:00:37.73	3.67	16.45	-50.9	-66.2	3.6	1.51e+00	0	41	104	0	60	73390
2026-01-23 21:00:38.74	3.46	16.42	-50.9	-66.1	3.6	1.51e+00	0	41	104	0	60	72927
2026-01-23 21:00:39.74	3.25	16.38	-50.9	-66.1	3.6	1.51e+00	0	41	104	0	60	73197
2026-01-23 21:00:40.76	3.03	16.35	-50.9	-66.1	3.5	1.51e+00	0	41	104	0	60	73058
2026-01-23 21:00:41.77	2.82	16.31	-50.9	-66.1	3.6	1.51e+00	0	41	104	0	60	73207
2026-01-23 21:00:42.78	2.61	16.28	-50.9	-66.1	3.6	1.51e+00	0	41	104	0	60	73000
2026-01-23 21:00:43.79	2.40	16.24	-50.9	-66.1	3.6	1.51e+00	0	41	104	0	60	73242
2026-01-23 21:00:44.80	2.19	16.21	-50.9	-66.1	3.6	1.51e+00	0	41	104	0	60	73300
2026-01-23 21:00:45.81	1.98	16.17	-50.9	-66.1	3.6	1.51e+00	0	41	104	0	60	73220
2026-01-23 21:00:46.82	1.77	16.13	-50.9	-66.1	3.6	1.51e+00	0	41	104	0	60	73244
2026-01-23 21:00:47.83	1.56	16.10	-50.9	-66.1	3.6	1.51e+00	0	41	104	0	60	73209
2026-01-23 21:00:48.84	1.35	16.06	-50.9	-66.1	3.6	1.51e+00	0	41	104	0	60	73089
2026-01-23 21:00:49.85	1.14	16.02	-50.9	-66.1	3.6	1.51e+00	0	41	104	0	60	73261
2026-01-23 21:00:50.86	0.93	15.99	-50.9	-66.1	3.5	1.51e+00	0	41	104	0	60	73101
2026-01-23 21:00:51.87	0.73	15.95	-50.9	-66.1	3.6	1.51e+00	0	41	104	0	60	73194
2026-01-23 21:00:52.88	0.52	15.91	-50.9	-66.1	3.6	1.51e+00	0	41	104	0	60	72858
2026-01-23 21:00:53.89	0.31	15.87	-50.9	-66.1	3.6	1.51e+00	0	41	104	0	60	73041
2026-01-23 21:00:54.90	0.11	15.83	-50.9	-66.1	3.6	1.51e+00	0	41	104	0	60	72987
2026-01-23 21:00:55.91	359.90	15.79	-50.9	-66.1	3.6	1.51e+00	0	41	104	0	60	72851
2026-01-23 21:00:56.91	359.70	15.75	-50.9	-66.1	3.6	1.51e+00	0	41	104	0	60	72780
2026-01-23 21:00:57.93	359.49	15.71	-50.9	-66.1	3.6	1.51e+00	0	41	104	0	60	72998
2026-01-23 21:00:58.93	359.29	15.67	-50.9	-66.1	3.6	1.51e+00	0	41	104	0	60	73310
2026-01-23 21:00:59.95	359.09	15.63	-50.9	-66.1	3.6	1.51e+00	0	41	104	0	60	73150
2026-01-23 21:01:00.96	358.89	15.59	-50.9	-66.1	3.6	1.51e+00	0	41	104	0	60	73155
2026-01-23 21:01:01.97	358.68	15.55	-50.9	-66.1	3.6	1.51e+00	0	41	104	0	60	73234
2026-01-23 21:01:02.98	358.48	15.51	-50.9	-66.1	3.6	1.51e+00	0	41	104	0	60	73042
2026-01-23 21:01:03.98	358.28	15.47	-50.9	-66.1	3.6	1.51e+00	0	41	104	0	60	72964
2026-01-23 21:01:04.99	358.08	15.43	-50.9	-66.1	3.6	1.51e+00	0	41	104	0	60	73151
2026-01-23 21:01:06.00	357.88	15.39	-50.9	-66.1	3.6	1.51e+00	0	41	104	0	60	72931
2026-01-23 21:01:07.01	357.69	15.34	-50.9	-66.1	3.6	1.51e+00	0	41	104	0	60	72902
2026-01-23 21:01:08.02	357.49	15.30	-50.9	-66.1	3.6	1.51e+00	0	41	104	0	60	73307
2026-01-23 21:01:09.03	357.29	15.26	-50.9	-66.1	3.6	1.51e+00	0	41	104	0	60	73097
2026-01-23 21:01:10.04	357.09	15.21	-50.9	-66.1	3.6	1.51e+00	0	41	104	0	60	73069
2026-01-23 21:01:11.05	356.90	15.17	-50.9	-66.1	3.6	1.51e+00	0	41	104	0	60	73206
2026-01-23 21:01:12.06	356.70	15.13	-50.9	-66.1	3.6	1.51e+00	0	41	104	0	60	73251
2026-01-23 21:01:13.08	356.50	15.08	-50.9	-66.2	3.6	1.51e+00	0	41	104	0	60	73444
2026-01-23 21:01:14.09	356.31	15.04	-50.9	-66.1	3.6	1.51e+00	0	41	104	0	60	73174
2026-01-23 21:01:15.10	356.11	14.99	-50.9	-66.1	3.6	1.51e+00	0	41	104	0	60	73227
2026-01-23 21:01:16.11	355.92	14.95	-50.9	-66.1	3.6	1.51e+00	0	41	104	0	60	73020
2026-01-23 21:01:17.12	355.73	14.90	-50.9	-66.1	3.6	1.51e+00	0	41	104	0	60	73096
2026-01-23 21:01:18.13	355.53	14.86	-50.9	-66.1	3.6	1.51e+00	0	41	104	0	60	73107
2026-01-23 21:01:19.13	355.34	14.81	-50.9	-66.1	3.6	1.51e+00	0	42	104	0	60	73036
2026-01-23 21:01:20.14	355.15	14.77	-50.9	-66.1	3.5	1.51e+00	0	41	104	0	60	73091
2026-01-23 21:01:21.15	354.96	14.72	-50.9	-66.1	3.6	1.51e+00	0	41	104	0	60	73022
2026-01-23 21:01:22.16	354.77	14.68	-50.9	-66.2	3.6	1.51e+00	0	41	104	0	60	73393
2026-01-23 21:01:23.17	354.58	14.63	-50.9	-66.1	3.6	1.51e+00	0	41	104	0	60	73249
2026-01-23 21:01:24.18	354.39	14.58	-50.9	-66.1	3.6	1.51e+00	0	41	104	0	60	73283
2026-01-23 21:01:25.19	354.21	14.54	-50.9	-66.2	3.6	1.51e+00	0	41	104	0	60	73382
2026-01-23 21:01:26.20	354.02	14.49	-50.9	-66.1	3.6	1.51e+00	0	41	104	0	60	72667
2026-01-23 21:01:27.21	353.83	14.44	-50.9	-66.1	3.6	1.51e+00	0	41	104	0	60	73297
2026-01-23 21:01:28.22	353.64	14.39	-50.9	-66.1	3.6	1.51e+00	0	41	104	0	60	73059
2026-01-23 21:01:29.23	353.46	14.35	-50.9	-66.1	3.6	1.51e+00	0	41	104	0	60	73019
2026-01-23 21:01:30.24	353.27	14.30	-50.9	-66.2	3.6	1.51e+00	0	41	104	0	60	73456
2026-01-23 21:01:31.25	353.09	14.25	-50.9	-66.1	3.6	1.51e+00	0	41	104	0	60	73204
2026-01-23 21:01:32.26	352.90	14.20	-50.9	-66.1	3.6	1.51e+00	0	41	104	0	60	73267
2026-01-23 21:01:33.27	352.72	14.15	-50.9	-66.1	3.6	1.51e+00	0	41	104	0	60	73141
2026-01-23 21:01:34.28	352.54	14.11	-50.9	-66.1	3.6	1.51e+00	0	41	104	0	60	73277
2026-01-23 21:01:35.29	352.36	14.06	-50.9	-66.1	3.6	1.51e+00	0	41	104	0	60	73195
2026-01-23 21:01:36.30	352.17	14.01	-50.9	-66.1	3.6	1.51e+00	0	41	104	0	60	73019
2026-01-23 21:01:37.31	351.99	13.96	-50.9	-66.1	3.6	1.51e+00	0	41	104	0	60	73306
2026-01-23 21:01:38.32	351.81	13.91	-50.9	-66.1	3.6	1.51e+00	0	41	104	0	60	72602
2026-01-23 21:01:39.33	351.63	13.86	-50.9	-66.1	3.6	1.51e+00	0	41	104	0	60	73224
2026-01-23 21:01:40.34	351.45	13.81	-50.9	-66.1	3.6	1.51e+00	0	41	104	0	60	72906
2026-01-23 21:01:41.35	351.27	13.76	-50.9	-66.1	3.6	1.51e+00	0	41	104	0	60	73330
2026-01-23 21:01:42.36	351.10	13.71	-50.9	-66.1	3.6	1.51e+00	0	41	104	0	60	72996
2026-01-23 21:01:43.37	350.92	13.66	-50.9	-66.2	3.6	1.51e+00	0	41	104	0	60	73497
2026-01-23 21:01:44.38	350.74	13.61	-50.9	-66.1	3.6	1.51e+00	0	41	104	0	60	73015
2026-01-23 21:01:45.39	350.57	13.56	-50.9	-66.1	3.6	1.51e+00	0	41	104	0	60	73056
2026-01-23 21:01:46.40	350.39	13.51	-50.9	-66.1	3.6	1.51e+00	0	41	104	0	60	73252
2026-01-23 21:01:47.41	350.22	13.46	-50.9	-66.1	3.5	1.51e+00	0	41	104	0	60	73164
2026-01-23 21:01:48.42	350.04	13.40	-50.9	-66.1	3.6	1.51e+00	0	41	104	0	60	73226
2026-01-23 21:01:49.43	349.87	13.35	-50.9	-66.1	3.6	1.51e+00	0	41	104	0	60	73152
2026-01-23 21:01:50.44	349.70	13.30	-50.9	-66.1	3.6	1.51e+00	0	41	104	0	60	73287
2026-01-23 21:01:51.45	349.52	13.25	-50.9	-66.1	3.5	1.51e+00	0	41	104	0	60	73083
2026-01-23 21:01:52.46	349.35	13.20	-50.9	-66.1	3.6	1.51e+00	0	41	104	0	60	73213
2026-01-23 21:01:53.47	349.18	13.15	-50.9	-66.1	3.6	1.51e+00	0	41	104	0	60	72846
2026-01-23 21:01:54.48	349.01	13.09	-50.9	-66.1	3.6	1.51e+00	0	41	104	0	60	73110
2026-01-23 21:01:55.49	348.84	13.04	-50.9	-66.1	3.6	1.51e+00	0	41	104	0	60	72951
2026-01-23 21:01:56.51	348.67	12.99	-50.9	-66.1	3.6	1.51e+00	0	42	104	0	60	73055
2026-01-23 21:01:57.52	348.50	12.94	-50.9	-66.1	3.6	1.51e+00	0	42	104	0	60	73078
2026-01-23 21:01:58.53	348.33	12.88	-50.9	-66.1	3.6	1.51e+00	0	42	104	0	60	73290
2026-01-23 21:01:59.54	348.16	12.83	-50.9	-66.1	3.6	1.51e+00	0	41	104	0	60	72914
2026-01-23 21:02:00.54	348.00	12.78	-50.9	-66.1	3.6	1.51e+00	0	41	104	0	60	72968
2026-01-23 21:02:01.56	347.83	12.73	-50.9	-66.1	3.6	1.51e+00	0	41	104	0	60	72956
2026-01-23 21:02:02.57	347.67	12.67	-50.9	-66.1	3.6	1.51e+00	0	41	104	0	60	73021
2026-01-23 21:02:03.57	347.50	12.62	-50.9	-66.1	3.6	1.51e+00	0	41	104	0	60	73278
2026-01-23 21:02:04.58	347.34	12.57	-50.9	-66.1	3.6	1.51e+00	0	42	104	0	60	72982
2026-01-23 21:02:05.59	347.17	12.51	-50.9	-66.1	3.6	1.51e+00	0	41	104	0	60	73190
2026-01-23 21:02:06.60	347.01	12.46	-50.9	-66.1	3.6	1.51e+00	0	41	104	0	60	72932
2026-01-23 21:02:07.61	346.85	12.41	-50.9	-66.1	3.6	1.51e+00	0	41	104	0	60	73373
2026-01-23 21:02:08.62	346.69	12.35	-50.9	-66.1	3.6	1.51e+00	0	41	104	0	60	73323
2026-01-23 21:02:09.63	346.52	12.30	-50.9	-66.1	3.6	1.51e+00	0	41	104	0	60	73188
2026-01-23 21:02:10.64	346.36	12.24	-50.9	-66.1	3.6	1.51e+00	0	42	104	0	60	73362
2026-01-23 21:02:11.65	346.20	12.19	-50.9	-66.1	3.6	1.51e+00	0	41	104	0	60	72861
2026-01-23 21:02:12.66	346.04	12.13	-50.9	-66.1	3.6	1.51e+00	0	41	104	0	60	73150
2026-01-23 21:02:13.67	345.88	12.08	-50.9	-66.1	3.6	1.51e+00	0	42	104	0	60	72966
2026-01-23 21:02:14.68	345.73	12.03	-50.9	-66.1	3.6	1.51e+00	0	41	104	0	60	73040
2026-01-23 21:02:15.69	345.57	11.97	-50.9	-66.1	3.6	1.51e+00	0	42	104	0	60	73063
2026-01-23 21:02:16.70	345.41	11.92	-50.9	-66.1	3.6	1.51e+00	0	42	104	0	60	73137
2026-01-23 21:02:17.71	345.25	11.86	-50.9	-66.1	3.6	1.51e+00	0	41	104	0	60	73195
2026-01-23 21:02:18.73	345.10	11.81	-50.9	-66.1	3.6	1.51e+00	0	41	104	0	60	73073
2026-01-23 21:02:19.74	344.94	11.75	-50.9	-66.1	3.5	1.51e+00	0	42	104	0	60	73070
2026-01-23 21:02:20.75	344.79	11.70	-50.9	-66.1	3.6	1.51e+00	0	41	104	0	60	73150
2026-01-23 21:02:21.76	344.63	11.64	-50.9	-66.2	3.6	1.51e+00	0	42	104	0	60	73723
2026-01-23 21:02:22.77	344.48	11.59	-50.9	-66.1	3.6	1.51e+00	0	41	104	0	60	73083
2026-01-23 21:02:23.78	344.32	11.53	-50.9	-66.1	3.6	1.51e+00	0	41	104	0	60	73293
2026-01-23 21:02:24.78	344.17	11.48	-50.9	-66.1	3.6	1.51e+00	0	41	104	0	60	73058
2026-01-23 21:02:25.79	344.02	11.42	-50.9	-66.1	3.6	1.51e+00	0	41	104	0	60	73074
2026-01-23 21:02:26.80	343.87	11.37	-50.9	-66.1	3.6	1.51e+00	0	42	104	0	60	73143
2026-01-23 21:02:27.81	343.72	11.31	-50.9	-66.1	3.6	1.51e+00	0	41	104	0	60	73220
2026-01-23 21:02:28.82	343.57	11.26	-50.9	-66.1	3.6	1.51e+00	0	41	104	0	60	73074
2026-01-23 21:02:29.83	343.42	11.20	-50.9	-66.1	3.6	1.51e+00	0	41	104	0	60	73011
2026-01-23 21:02:30.84	343.27	11.14	-50.9	-66.1	3.6	1.51e+00	0	41	104	0	60	73217
2026-01-23 21:02:31.85	343.12	11.09	-50.9	-66.1	3.6	1.51e+00	0	41	104	0	60	73238
2026-01-23 21:02:32.86	342.97	11.03	-50.9	-66.1	3.6	1.51e+00	0	42	104	0	60	73270
2026-01-23 21:02:33.87	342.83	10.98	-50.9	-66.1	3.6	1.51e+00	0	42	104	0	60	73337
2026-01-23 21:02:34.88	342.68	10.92	-50.9	-66.1	3.6	1.51e+00	0	41	104	0	60	73376
2026-01-23 21:02:35.89	342.53	10.86	-50.9	-66.2	3.6	1.51e+00	0	42	104	0	60	73479
2026-01-23 21:02:36.90	342.39	10.81	-50.9	-66.2	3.6	1.51e+00	0	42	104	0	60	73579
2026-01-23 21:02:37.91	342.24	10.75	-50.9	-66.1	3.6	1.51e+00	0	42	104	0	60	73024
2026-01-23 21:02:38.92	342.10	10.70	-50.9	-66.1	3.6	1.51e+00	0	42	104	0	60	73312
2026-01-23 21:02:39.93	341.96	10.64	-50.9	-66.1	3.6	1.51e+00	0	42	104	0	60	72996
2026-01-23 21:02:40.94	341.81	10.58	-50.9	-66.2	3.6	1.51e+00	0	42	104	0	60	73463
2026-01-23 21:02:41.95	341.67	10.53	-50.9	-66.1	3.6	1.51e+00	0	42	104	0	60	73298
2026-01-23 21:02:42.96	341.53	10.47	-50.9	-66.1	3.6	1.51e+00	0	41	104	0	60	73291
2026-01-23 21:02:43.97	341.39	10.41	-50.9	-66.1	3.6	1.51e+00	0	41	104	0	60	73213
2026-01-23 21:02:44.98	341.24	10.36	-50.9	-66.2	3.6	1.51e+00	0	41	104	0	60	73404
2026-01-23 21:02:45.99	341.10	10.30	-50.9	-66.1	3.6	1.51e+00	0	42	104	0	60	73168
2026-01-23 21:02:46.99	340.96	10.25	-50.9	-66.1	3.6	1.51e+00	0	42	104	0	60	73177
2026-01-23 21:02:48.00	340.83	10.19	-50.9	-66.1	3.6	1.51e+00	0	42	104	0	60	73198
2026-01-23 21:02:49.01	340.69	10.13	-50.9	-66.2	3.6	1.51e+00	0	41	104	0	60	73429
2026-01-23 21:02:50.02	340.55	10.08	-50.9	-66.1	3.6	1.51e+00	0	41	104	0	60	73347
2026-01-23 21:02:51.03	340.41	10.02	-50.9	-66.1	3.6	1.51e+00	0	42	104	0	60	73084
2026-01-23 21:02:52.04	340.27	9.96	-50.9	-66.2	3.6	1.51e+00	0	42	104	0	60	73430
2026-01-23 21:02:53.05	340.14	9.91	-50.9	-66.1	3.6	1.51e+00	0	42	104	0	60	73247
2026-01-23 21:02:54.06	340.00	9.85	-50.9	-66.1	3.6	1.51e+00	0	42	104	0	60	73137
2026-01-23 21:02:55.07	339.86	9.79	-50.9	-66.1	3.6	1.51e+00	0	41	104	0	60	73349
2026-01-23 21:02:56.08	339.73	9.74	-50.9	-66.1	3.6	1.51e+00	0	42	104	0	60	73312
2026-01-23 21:02:57.09	339.60	9.68	-50.9	-66.2	3.6	1.51e+00	0	42	104	0	60	73460
2026-01-23 21:02:58.10	339.46	9.62	-50.9	-66.1	3.6	1.51e+00	0	41	104	0	60	73069
2026-01-23 21:02:59.11	339.33	9.57	-50.9	-66.1	3.6	1.51e+00	0	42	104	0	60	73209
2026-01-23 21:03:00.13	339.19	9.51	-50.9	-66.1	3.6	1.51e+00	0	42	104	0	60	73138
2026-01-23 21:03:01.13	339.06	9.45	-50.9	-66.1	3.6	1.51e+00	0	41	104	0	60	72926
2026-01-23 21:03:02.15	338.93	9.39	-50.9	-66.1	3.6	1.51e+00	0	41	104	0	60	73276
2026-01-23 21:03:03.16	338.80	9.34	-50.9	-66.2	3.6	1.51e+00	0	42	104	0	60	73451
2026-01-23 21:03:04.17	338.67	9.28	-50.9	-66.1	3.6	1.51e+00	0	42	104	0	60	72736
2026-01-23 21:03:05.17	338.54	9.22	-50.9	-66.1	3.6	1.51e+00	0	42	104	0	60	73114
2026-01-23 21:03:06.18	338.41	9.17	-50.9	-66.1	3.6	1.51e+00	0	42	104	0	60	72967
2026-01-23 21:03:07.19	338.28	9.11	-50.9	-66.1	3.6	1.51e+00	0	42	104	0	60	72885
2026-01-23 21:03:08.20	338.15	9.05	-50.9	-66.1	3.6	1.51e+00	0	42	104	0	60	73194
2026-01-23 21:03:09.22	338.02	9.00	-50.9	-66.1	3.6	1.51e+00	0	41	104	0	60	73131
2026-01-23 21:03:10.23	337.89	8.94	-50.9	-66.1	3.6	1.51e+00	0	41	104	0	60	73017
2026-01-23 21:03:11.23	337.77	8.88	-50.9	-66.1	3.6	1.51e+00	0	41	104	0	60	73363
2026-01-23 21:03:12.25	337.64	8.82	-50.9	-66.2	3.6	1.51e+00	0	41	104	0	60	73577
2026-01-23 21:03:13.26	337.51	8.77	-50.9	-66.1	3.6	1.51e+00	0	41	104	0	60	72955
2026-01-23 21:03:14.27	337.39	8.71	-50.9	-66.1	3.6	1.51e+00	0	42	104	0	60	72862
2026-01-23 21:03:15.28	337.26	8.65	-50.9	-66.2	3.6	1.51e+00	0	42	104	0	60	73472
2026-01-23 21:03:16.29	337.14	8.60	-50.9	-66.1	3.6	1.51e+00	0	42	104	0	60	73217
2026-01-23 21:03:17.30	337.01	8.54	-50.9	-66.2	3.6	1.51e+00	0	41	104	0	60	73417
2026-01-23 21:03:18.31	336.89	8.48	-50.9	-66.1	3.6	1.51e+00	0	42	104	0	60	73091
2026-01-23 21:03:19.32	336.77	8.43	-50.9	-66.1	3.6	1.51e+00	0	42	104	0	60	72994
2026-01-23 21:03:20.33	336.64	8.37	-50.9	-66.1	3.6	1.51e+00	0	42	104	0	60	72963
2026-01-23 21:03:21.34	336.52	8.31	-50.9	-66.1	3.5	1.51e+00	0	41	104	0	60	73071
2026-01-23 21:03:22.35	336.40	8.25	-50.9	-66.1	3.6	1.51e+00	0	41	104	0	60	73121
2026-01-23 21:03:23.36	336.28	8.20	-50.9	-66.1	3.6	1.51e+00	0	42	104	0	60	73294
2026-01-23 21:03:24.37	336.16	8.14	-50.9	-66.1	3.6	1.51e+00	0	42	104	0	60	73184
2026-01-23 21:03:25.38	336.04	8.08	-50.9	-66.1	3.6	1.51e+00	0	42	104	0	60	73208
2026-01-23 21:03:26.39	335.92	8.03	-50.9	-66.1	3.6	1.51e+00	0	42	104	0	60	72954
2026-01-23 21:03:27.40	335.80	7.97	-50.9	-66.1	3.6	1.51e+00	0	42	104	0	60	72928
2026-01-23 21:03:28.41	335.68	7.91	-50.9	-66.1	3.6	1.51e+00	0	42	104	0	60	73037
2026-01-23 21:03:29.41	335.56	7.86	-50.9	-66.1	3.6	1.51e+00	0	42	104	0	60	73257
2026-01-23 21:03:30.42	335.44	7.80	-50.9	-66.1	3.6	1.51e+00	0	41	104	0	60	73084
2026-01-23 21:03:31.43	335.33	7.74	-50.9	-66.2	3.6	1.51e+00	0	41	104	0	60	73742
2026-01-23 21:03:32.44	335.21	7.68	-50.9	-66.1	3.6	1.51e+00	0	41	104	0	60	73128
2026-01-23 21:03:33.45	335.09	7.63	-50.9	-66.1	3.6	1.51e+00	0	42	104	0	60	72799
2026-01-23 21:03:34.46	334.98	7.57	-50.9	-66.2	3.6	1.51e+00	0	41	104	0	60	73630
2026-01-23 21:03:35.47	334.86	7.51	-50.9	-66.1	3.6	1.51e+00	0	42	104	0	60	73169
2026-01-23 21:03:36.48	334.75	7.46	-50.9	-66.1	3.6	1.51e+00	0	42	104	0	60	73296
2026-01-23 21:03:37.49	334.63	7.40	-50.9	-66.1	3.6	1.51e+00	0	42	104	0	60	73209
2026-01-23 21:03:38.50	334.52	7.34	-50.9	-66.1	3.6	1.51e+00	0	42	104	0	60	72753
2026-01-23 21:03:39.51	334.40	7.29	-50.9	-66.1	3.6	1.51e+00	0	42	104	0	60	73308
2026-01-23 21:03:40.52	334.29	7.23	-50.9	-66.1	3.6	1.51e+00	0	42	104	0	60	73109
2026-01-23 21:03:41.53	334.18	7.17	-50.9	-66.2	3.6	1.51e+00	0	41	104	0	60	73428
2026-01-23 21:03:42.54	334.07	7.12	-50.9	-66.1	3.6	1.51e+00	0	42	104	0	60	73076
2026-01-23 21:03:43.55	333.95	7.06	-50.9	-66.1	3.6	1.51e+00	0	42	104	0	60	72977
2026-01-23 21:03:44.56	333.84	7.00	-50.9	-66.1	3.6	1.51e+00	0	42	104	0	60	73156
2026-01-23 21:03:45.57	333.73	6.95	-50.9	-66.1	3.6	1.51e+00	0	41	104	0	60	73001
2026-01-23 21:03:46.58	333.62	6.89	-50.9	-66.2	3.6	1.51e+00	0	42	104	0	60	73380
2026-01-23 21:03:47.59	333.51	6.83	-50.9	-66.1	3.6	1.51e+00	0	42	104	0	60	73245
2026-01-23 21:03:48.60	333.40	6.78	-50.9	-66.1	3.6	1.51e+00	0	42	104	0	60	73308
2026-01-23 21:03:49.61	333.29	6.72	-50.9	-66.1	3.6	1.51e+00	0	42	104	0	60	72935
2026-01-23 21:03:50.62	333.18	6.66	-50.9	-66.1	3.6	1.51e+00	0	42	104	0	60	73240
2026-01-23 21:03:51.63	333.08	6.61	-50.9	-66.1	3.6	1.51e+00	0	42	104	0	60	73282
2026-01-23 21:03:52.64	332.97	6.55	-50.9	-66.1	3.6	1.51e+00	0	42	104	0	60	73130
2026-01-23 21:03:53.65	332.86	6.49	-50.9	-66.1	3.6	1.51e+00	0	42	104	0	60	73208
2026-01-23 21:03:54.66	332.75	6.44	-50.9	-66.1	3.6	1.51e+00	0	42	104	0	60	73231
2026-01-23 21:03:55.67	332.65	6.38	-50.9	-66.1	3.6	1.51e+00	0	42	104	0	60	73156
2026-01-23 21:03:56.68	332.54	6.32	-50.9	-66.1	3.6	1.51e+00	0	42	104	0	60	72708
2026-01-23 21:03:57.69	332.43	6.27	-50.9	-66.1	3.6	1.51e+00	0	42	104	0	60	73314
2026-01-23 21:03:58.70	332.33	6.21	-50.9	-66.1	3.6	1.51e+00	0	42	104	0	60	73237
2026-01-23 21:03:59.71	332.22	6.16	-50.9	-66.1	3.6	1.51e+00	0	42	104	0	60	73353
2026-01-23 21:04:00.71	332.12	6.10	-50.9	-66.1	3.6	1.51e+00	0	42	104	0	60	73152
2026-01-23 21:04:01.72	332.02	6.04	-50.9	-66.1	3.6	1.51e+00	0	42	104	0	60	73076
2026-01-23 21:04:02.73	331.91	5.99	-50.9	-66.1	3.6	1.51e+00	0	42	104	0	60	72717
2026-01-23 21:04:03.74	331.81	5.93	-50.9	-66.1	3.6	1.51e+00	0	42	104	0	60	73352
2026-01-23 21:04:04.75	331.71	5.87	-50.9	-66.1	3.6	1.51e+00	0	42	104	0	60	73035
2026-01-23 21:04:05.76	331.60	5.82	-50.9	-66.1	3.6	1.51e+00	0	42	104	0	60	73032
2026-01-23 21:04:06.77	331.50	5.76	-50.9	-66.1	3.6	1.51e+00	0	42	104	0	60	73199
2026-01-23 21:04:07.78	331.40	5.71	-50.9	-66.1	3.6	1.51e+00	0	42	104	0	60	72981
2026-01-23 21:04:08.79	331.30	5.65	-50.9	-66.1	3.6	1.51e+00	0	42	104	0	60	73231
2026-01-23 21:04:09.79	331.20	5.59	-50.9	-66.2	3.6	1.51e+00	0	42	104	0	60	73386
2026-01-23 21:04:10.80	331.10	5.54	-50.9	-66.1	3.6	1.51e+00	0	42	104	0	60	73258
2026-01-23 21:04:11.82	331.00	5.48	-50.9	-66.2	3.6	1.51e+00	0	42	104	0	60	73508
2026-01-23 21:04:12.82	330.90	5.43	-50.9	-66.1	3.6	1.51e+00	0	42	104	0	60	73163
2026-01-23 21:04:13.84	330.80	5.37	-50.9	-66.1	3.6	1.51e+00	0	42	104	0	60	73115
2026-01-23 21:04:14.84	330.70	5.32	-50.9	-66.1	3.6	1.51e+00	0	42	104	0	60	73138
2026-01-23 21:04:15.85	330.60	5.26	-50.9	-66.1	3.6	1.51e+00	0	42	104	0	60	73021
2026-01-23 21:04:16.86	330.51	5.20	-50.9	-66.2	3.6	1.51e+00	0	42	104	0	60	73383
2026-01-23 21:04:17.87	330.41	5.15	-50.9	-66.1	3.6	1.51e+00	0	42	104	0	60	72861
2026-01-23 21:04:18.88	330.31	5.09	-50.9	-66.1	3.6	1.51e+00	0	42	104	0	60	73046
2026-01-23 21:04:19.89	330.21	5.04	-50.9	-66.1	3.6	1.51e+00	0	42	104	0	60	72786
2026-01-23 21:04:20.90	330.12	4.98	-50.9	-66.1	3.6	1.51e+00	0	42	104	0	60	72951
2026-01-23 21:04:21.91	330.02	4.93	-50.9	-66.1	3.6	1.51e+00	0	42	104	0	60	72905
2026-01-23 21:04:22.92	329.93	4.87	-50.9	-66.2	3.6	1.51e+00	0	42	104	0	60	73411
2026-01-23 21:04:23.93	329.83	4.81	-50.9	-66.1	3.6	1.51e+00	0	42	104	0	60	73175
2026-01-23 21:04:24.94	329.73	4.76	-50.9	-66.1	3.6	1.51e+00	0	42	104	0	60	72687
2026-01-23 21:04:25.95	329.64	4.70	-50.9	-66.1	3.6	1.51e+00	0	42	104	0	60	73056
2026-01-23 21:04:26.96	329.55	4.65	-50.9	-66.1	3.6	1.51e+00	0	42	104	0	60	72974
2026-01-23 21:04:27.97	329.45	4.59	-50.9	-66.1	3.6	1.51e+00	0	42	104	0	60	72681
2026-01-23 21:04:28.98	329.36	4.54	-50.9	-66.1	3.6	1.51e+00	0	42	104	0	60	73102
2026-01-23 21:04:29.99	329.27	4.48	-50.9	-66.1	3.6	1.51e+00	0	42	104	0	60	73286
2026-01-23 21:04:31.00	329.17	4.43	-50.9	-66.1	3.6	1.51e+00	0	42	104	0	60	72845
2026-01-23 21:04:32.01	329.08	4.37	-50.9	-66.1	3.5	1.51e+00	0	42	104	0	60	72992
2026-01-23 21:04:33.02	328.99	4.32	-50.9	-66.1	3.6	1.51e+00	0	42	104	0	60	73103
2026-01-23 21:04:34.03	328.90	4.26	-50.9	-66.1	3.6	1.51e+00	0	42	104	0	60	72741
2026-01-23 21:04:35.04	328.80	4.21	-50.9	-66.1	3.6	1.51e+00	0	42	104	0	60	73061
2026-01-23 21:04:36.05	328.71	4.15	-50.9	-66.1	3.6	1.51e+00	0	42	104	0	60	72854
2026-01-23 21:04:37.06	328.62	4.10	-50.9	-66.1	3.6	1.51e+00	0	42	104	0	60	72683
2026-01-23 21:04:38.07	328.53	4.04	-50.9	-66.1	3.6	1.51e+00	0	42	104	0	60	73052
2026-01-23 21:04:39.08	328.44	3.99	-50.9	-66.1	3.6	1.51e+00	0	42	104	0	60	72884
2026-01-23 21:04:40.09	328.35	3.93	-50.9	-66.1	3.6	1.51e+00	0	42	104	0	60	72591
2026-01-23 21:04:41.10	328.26	3.88	-50.9	-66.1	3.6	1.51e+00	0	42	104	0	60	72681
2026-01-23 21:04:42.11	328.18	3.82	-50.9	-66.1	3.6	1.51e+00	0	42	104	0	60	72907
2026-01-23 21:04:43.12	328.09	3.77	-50.9	-66.1	3.6	1.51e+00	0	42	104	0	60	73082
2026-01-23 21:04:44.13	328.00	3.71	-50.9	-66.1	3.5	1.51e+00	0	42	104	0	60	73017
2026-01-23 21:04:45.14	327.91	3.66	-50.9	-66.1	3.6	1.51e+00	0	42	104	0	60	72992
2026-01-23 21:04:46.15	327.82	3.60	-50.9	-66.1	3.6	1.51e+00	0	42	104	0	60	72853
2026-01-23 21:04:47.16	327.74	3.55	-50.9	-66.1	3.6	1.51e+00	0	42	104	0	60	72962
2026-01-23 21:04:48.17	327.65	3.50	-50.9	-66.1	3.6	1.51e+00	0	42	104	0	60	73097
2026-01-23 21:04:49.18	327.56	3.44	-50.9	-66.1	3.6	1.51e+00	0	42	104	0	60	73007
2026-01-23 21:04:50.19	327.48	3.39	-50.9	-66.2	3.6	1.51e+00	0	42	104	0	60	73482
2026-01-23 21:04:51.20	327.39	3.33	-50.9	-66.1	3.6	1.51e+00	0	42	104	0	60	73069
2026-01-23 21:04:52.21	327.30	3.28	-50.9	-66.1	3.6	1.51e+00	0	42	104	0	60	73131
2026-01-23 21:04:53.22	327.22	3.22	-50.9	-66.2	3.6	1.51e+00	0	42	104	0	60	73668
2026-01-23 21:04:54.23	327.13	3.17	-50.9	-66.1	3.6	1.51e+00	0	42	104	0	60	73306
2026-01-23 21:04:55.24	327.05	3.12	-50.9	-66.1	3.6	1.51e+00	0	42	104	0	60	73102
2026-01-23 21:04:56.25	326.97	3.06	-50.9	-66.1	3.6	1.51e+00	0	42	104	0	60	73052
2026-01-23 21:04:57.26	326.88	3.01	-50.9	-66.1	3.6	1.51e+00	0	42	104	0	60	72850
2026-01-23 21:04:58.27	326.80	2.95	-50.9	-66.1	3.6	1.51e+00	0	42	104	0	60	73322
2026-01-23 21:04:59.28	326.72	2.90	-50.9	-66.1	3.6	1.51e+00	0	42	104	0	60	73200
2026-01-23 21:05:00.29	326.63	2.85	-50.9	-66.2	3.6	1.51e+00	0	42	104	0	60	73393
2026-01-23 21:05:01.30	326.55	2.79	-50.9	-66.1	3.6	1.51e+00	0	42	104	0	60	72995
2026-01-23 21:05:02.31	326.47	2.74	-50.9	-66.1	3.6	1.51e+00	0	42	104	0	60	72950
2026-01-23 21:05:03.32	326.39	2.68	-50.9	-66.2	3.6	1.51e+00	0	42	104	0	60	73413
2026-01-23 21:05:04.33	326.30	2.63	-50.9	-66.2	3.6	1.51e+00	0	42	104	0	60	73470
2026-01-23 21:05:05.34	326.22	2.58	-50.9	-66.1	3.6	1.51e+00	0	42	104	0	60	72998
2026-01-23 21:05:06.35	326.14	2.52	-50.9	-66.1	3.6	1.51e+00	0	42	104	0	60	73178
2026-01-23 21:05:07.36	326.06	2.47	-50.9	-66.1	3.6	1.51e+00	0	42	104	0	60	73314
2026-01-23 21:05:08.37	325.98	2.42	-50.9	-66.2	3.6	1.51e+00	0	42	104	0	60	73455
2026-01-23 21:05:09.38	325.90	2.36	-50.9	-66.1	3.6	1.51e+00	0	42	104	0	60	73351
2026-01-23 21:05:10.39	325.82	2.31	-50.9	-66.1	3.6	1.51e+00	0	42	104	0	60	73178
2026-01-23 21:05:11.40	325.74	2.26	-50.9	-66.2	3.6	1.51e+00	0	42	104	0	60	73437
2026-01-23 21:05:12.41	325.66	2.20	-50.9	-66.2	3.6	1.51e+00	0	42	104	0	60	73493
2026-01-23 21:05:13.42	325.58	2.15	-50.9	-66.1	3.6	1.51e+00	0	42	104	0	60	73104
2026-01-23 21:05:14.43	325.50	2.10	-50.9	-66.1	3.6	1.51e+00	0	42	104	0	60	73295
2026-01-23 21:05:15.44	325.43	2.04	-50.9	-66.2	3.6	1.51e+00	0	42	104	0	60	73380
2026-01-23 21:05:16.45	325.35	1.99	-50.9	-66.1	3.6	1.51e+00	0	42	104	0	60	73157
2026-01-23 21:05:17.46	325.27	1.94	-50.9	-66.1	3.6	1.51e+00	0	42	104	0	60	72938
2026-01-23 21:05:18.47	325.19	1.88	-50.9	-66.2	3.6	1.51e+00	0	42	104	0	60	73389
2026-01-23 21:05:19.47	325.12	1.83	-50.9	-66.1	3.6	1.51e+00	0	42	104	0	60	73079
2026-01-23 21:05:20.48	325.04	1.78	-50.9	-66.1	3.6	1.51e+00	0	42	104	0	60	73193
2026-01-23 21:05:21.49	324.96	1.73	-50.9	-66.1	3.6	1.51e+00	0	42	104	0	60	73058
2026-01-23 21:05:22.51	324.88	1.67	-50.9	-66.1	3.6	1.51e+00	0	42	104	0	60	73283
2026-01-23 21:05:23.51	324.81	1.62	-50.9	-66.1	3.6	1.51e+00	0	42	104	0	60	73026
2026-01-23 21:05:24.52	324.73	1.57	-50.9	-66.1	3.6	1.51e+00	0	42	104	0	60	73210
