passes_logs/2026/01/23/R4.6S_Anadyr/R4.6S_Anadyr__20260123_163226_FENGYUN_3D_rec.log

#Pass ID: 20260123_163226_FENGYUN 3D
#Satellite: FENGYUN 3D
#Configuration: FENGYUN 3D
#almurnet v.1.7.20251203
#Start time: 2026-01-23 16:32:30

#Version: 2.2.20231116
#Station: R4.6S_Anadyr
#Location: 177.4865 lon 64.73178 lat
#TLE: 1 43010U 17072A   26022.47411728  .00000617  00000+0  31375-3 0  9996
#TLE: 2 43010  98.9952 354.4060 0002481  95.7964 264.3494 14.19699924424319

#Time	Az	El	Level	Level2	SNR	BER	BlckErr	Temp	State	Recorded	gain1	gain2
2026-01-23 16:32:30.04	20.55	0.20	-50.8	-61.6	3.3	8.41e-01	0	39	0	0	60	43314
2026-01-23 16:32:31.05	20.57	0.26	-50.9	-63.0	3.6	8.46e-01	0	40	104	0	60	51290
2026-01-23 16:32:32.06	20.58	0.32	-50.9	-63.1	3.6	8.46e-01	0	40	104	0	60	51434
2026-01-23 16:32:33.07	20.59	0.38	-50.9	-63.1	3.6	8.46e-01	0	40	104	0	60	51406
2026-01-23 16:32:34.08	20.61	0.44	-50.9	-63.1	3.6	8.46e-01	0	40	104	0	60	51607
2026-01-23 16:32:35.09	20.62	0.50	-50.9	-63.1	3.6	8.44e-01	0	40	104	0	60	51746
2026-01-23 16:32:36.10	20.63	0.56	-50.9	-63.1	3.6	8.45e-01	0	40	104	0	60	51763
2026-01-23 16:32:37.11	20.65	0.62	-50.9	-63.1	3.6	8.45e-01	0	40	104	0	60	51506
2026-01-23 16:32:38.11	20.66	0.68	-50.9	-63.1	3.6	8.45e-01	0	40	104	0	60	51365
2026-01-23 16:32:39.12	20.67	0.74	-50.8	-63.0	3.6	8.47e-01	0	40	104	0	60	51023
2026-01-23 16:32:40.13	20.69	0.80	-50.8	-63.0	3.6	8.45e-01	0	40	104	0	60	50859
2026-01-23 16:32:41.14	20.70	0.86	-50.8	-62.9	3.6	8.45e-01	0	40	104	0	60	50643
2026-01-23 16:32:42.15	20.71	0.93	-50.7	-62.9	3.6	8.45e-01	0	40	104	0	60	50215
2026-01-23 16:32:43.16	20.73	0.99	-50.6	-62.7	3.6	8.46e-01	0	40	104	0	60	49321
2026-01-23 16:32:44.17	20.74	1.05	-50.5	-62.6	3.6	8.45e-01	0	40	104	0	60	48918
2026-01-23 16:32:45.18	20.76	1.11	-50.4	-62.5	3.6	8.45e-01	0	40	104	0	60	48165
2026-01-23 16:32:46.19	20.77	1.17	-50.3	-62.4	3.6	8.45e-01	0	40	104	0	60	47570
2026-01-23 16:32:47.20	20.78	1.24	-50.2	-62.3	3.6	8.46e-01	0	40	104	0	60	47272
2026-01-23 16:32:48.21	20.80	1.30	-50.1	-62.2	3.6	8.45e-01	0	40	104	0	60	46496
2026-01-23 16:32:49.22	20.81	1.36	-49.9	-62.0	3.6	8.46e-01	0	40	104	0	60	45479
2026-01-23 16:32:50.23	20.83	1.42	-49.7	-61.7	3.6	8.45e-01	0	40	104	0	60	44099
2026-01-23 16:32:51.24	20.84	1.49	-49.5	-61.3	3.6	8.47e-01	0	40	104	0	60	42104
2026-01-23 16:32:52.25	20.85	1.55	-49.5	-61.2	3.6	8.45e-01	0	40	104	0	60	41504
2026-01-23 16:32:53.26	20.87	1.61	-49.5	-61.3	3.5	8.45e-01	0	40	104	0	60	42105
2026-01-23 16:32:54.27	20.88	1.68	-49.5	-61.5	3.6	8.44e-01	0	40	104	0	60	42717
2026-01-23 16:32:55.28	20.90	1.74	-49.5	-61.5	3.6	8.45e-01	0	40	104	0	60	43121
2026-01-23 16:32:56.29	20.91	1.80	-49.5	-61.6	3.6	8.45e-01	0	40	104	0	60	43572
2026-01-23 16:32:57.30	20.92	1.87	-49.5	-61.6	3.6	8.45e-01	0	40	104	0	60	43304
2026-01-23 16:32:58.31	20.94	1.93	-49.5	-61.6	3.6	8.45e-01	0	40	104	0	60	43312
2026-01-23 16:32:59.33	20.95	2.00	-49.5	-61.6	3.6	8.45e-01	0	40	104	0	60	43653
2026-01-23 16:33:00.34	20.97	2.06	-49.5	-61.5	3.6	8.46e-01	0	40	104	0	60	43191
2026-01-23 16:33:01.34	20.98	2.12	-49.5	-61.4	3.5	8.45e-01	0	40	104	0	60	42687
2026-01-23 16:33:02.35	21.00	2.19	-49.4	-61.2	3.6	8.45e-01	0	40	104	0	60	41633
2026-01-23 16:33:03.36	21.01	2.25	-49.4	-60.6	3.6	8.45e-01	0	40	104	0	60	38804
2026-01-23 16:33:04.37	21.03	2.32	-49.3	-59.5	3.6	8.44e-01	0	40	104	0	60	34320
2026-01-23 16:33:05.38	21.04	2.38	-49.2	-59.1	3.8	8.44e-01	0	40	104	0	60	32539
2026-01-23 16:33:06.39	21.06	2.45	-49.2	-58.6	3.7	8.40e-01	0	40	104	0	60	30854
2026-01-23 16:33:07.40	21.07	2.51	-49.1	-57.3	3.8	8.39e-01	0	40	0	0	60	26586
2026-01-23 16:33:08.41	21.08	2.58	-49.1	-58.2	4.0	8.39e-01	0	40	104	0	60	29366
2026-01-23 16:33:09.42	21.10	2.64	-49.2	-58.4	3.9	8.41e-01	0	40	104	0	60	30219
2026-01-23 16:33:10.43	21.11	2.71	-49.2	-58.6	3.9	8.42e-01	0	40	104	0	60	30790
2026-01-23 16:33:11.44	21.13	2.78	-49.1	-56.4	3.9	8.34e-01	0	40	0	0	60	24000
2026-01-23 16:33:12.45	21.14	2.84	-48.5	-53.9	5.6	5.96e-01	0	40	0	0	60	17872
2026-01-23 16:33:13.46	21.16	2.91	-47.9	-52.2	7.7	1.83e-01	0	40	0	6291456	60	14740
2026-01-23 16:33:14.47	21.17	2.97	-47.0	-50.2	10.0	1.25e-02	0	40	0	11534336	60	11736
2026-01-23 16:33:15.48	21.19	3.04	-45.8	-48.3	12.4	1.75e-03	0	40	0	17825792	60	9430
2026-01-23 16:33:16.49	21.20	3.11	-44.9	-46.9	13.7	3.08e-05	0	40	0	23068672	60	7997
2026-01-23 16:33:17.50	21.22	3.17	-44.7	-46.6	13.9	1.02e-05	0	40	0	29360128	60	7744
2026-01-23 16:33:18.51	21.23	3.24	-44.0	-45.8	14.9	1.10e-06	0	40	0	34603008	60	7021
2026-01-23 16:33:19.52	21.25	3.31	-43.7	-45.3	15.5	0.00e+00	0	40	0	40894464	60	6634
2026-01-23 16:33:20.53	21.27	3.37	-43.5	-45.2	15.5	0.00e+00	0	40	0	46137344	60	6540
2026-01-23 16:33:21.55	21.28	3.44	-44.0	-45.8	14.8	1.10e-06	0	40	0	51380224	60	7060
2026-01-23 16:33:22.56	21.30	3.51	-45.0	-47.1	13.5	1.14e-05	0	40	0	57671680	60	8175
2026-01-23 16:33:23.57	21.31	3.58	-45.5	-47.8	12.7	4.57e-05	0	40	0	62914560	60	8861
2026-01-23 16:33:24.58	21.33	3.65	-46.6	-49.6	10.6	1.58e-03	0	40	0	69206016	60	10904
2026-01-23 16:33:25.59	21.34	3.71	-39.4	-40.3	20.5	1.48e-05	0	40	0	74448896	54	5269
2026-01-23 16:33:26.59	21.36	3.78	-39.9	-41.0	19.5	0.00e+00	0	40	0	79691776	50	7185
2026-01-23 16:33:27.60	21.37	3.85	-46.8	-50.2	4.4	1.10e-06	0	40	0	85983232	60	11669
2026-01-23 16:33:28.61	21.39	3.92	-42.9	-44.4	16.8	7.57e-01	0	40	104	85983232	60	5981
2026-01-23 16:33:29.63	21.41	3.99	-48.2	-53.8	3.7	0.00e+00	0	40	0	90177536	60	17703
2026-01-23 16:33:30.64	21.42	4.06	-42.1	-43.4	6.1	8.40e-01	0	40	104	90177536	60	5364
2026-01-23 16:33:31.65	21.44	4.13	-38.5	-39.3	21.1	0.00e+00	0	40	0	90177536	50	5940
2026-01-23 16:33:32.65	21.45	4.19	-38.5	-39.4	21.4	0.00e+00	0	40	0	95420416	50	5993
2026-01-23 16:33:33.66	21.47	4.26	-38.5	-39.3	21.1	0.00e+00	0	40	0	101711872	50	5955
2026-01-23 16:33:34.67	21.48	4.33	-38.7	-39.6	21.2	0.00e+00	0	40	0	106954752	50	6150
2026-01-23 16:33:35.68	21.50	4.40	-38.7	-39.5	21.1	0.00e+00	0	40	0	112197632	50	6090
2026-01-23 16:33:36.69	21.52	4.47	-38.6	-39.4	21.3	0.00e+00	0	40	0	118489088	50	6023
2026-01-23 16:33:37.70	21.53	4.54	-39.0	-39.9	20.9	0.00e+00	0	40	0	123731968	50	6367
2026-01-23 16:33:38.71	21.55	4.61	-38.2	-39.0	21.8	0.00e+00	0	40	0	130023424	50	5718
2026-01-23 16:33:39.72	21.57	4.68	-38.5	-39.3	21.5	0.00e+00	0	41	0	135266304	50	5961
2026-01-23 16:33:40.73	21.58	4.76	-38.3	-39.1	21.5	0.00e+00	0	40	0	140509184	50	5781
2026-01-23 16:33:41.74	21.60	4.83	-37.9	-38.8	21.8	0.00e+00	0	40	0	146800640	50	5575
2026-01-23 16:33:42.75	21.62	4.90	-38.1	-38.9	21.7	0.00e+00	0	40	0	152043520	50	5654
2026-01-23 16:33:43.76	21.63	4.97	-37.5	-38.3	22.4	0.00e+00	0	40	0	158334976	48	5945
2026-01-23 16:33:44.77	21.65	5.04	-37.6	-38.4	22.4	0.00e+00	0	40	0	163577856	48	6001
2026-01-23 16:33:45.78	21.67	5.11	-37.5	-38.3	22.5	0.00e+00	0	40	0	169869312	48	5939
2026-01-23 16:33:46.79	21.68	5.18	-37.3	-38.1	22.7	0.00e+00	0	40	0	175112192	48	5777
2026-01-23 16:33:47.81	21.70	5.26	-37.1	-37.9	22.9	0.00e+00	0	41	0	181403648	48	5651
2026-01-23 16:33:48.81	21.72	5.33	-37.6	-38.4	22.5	0.00e+00	0	40	0	186646528	48	5972
2026-01-23 16:33:49.82	21.73	5.40	-37.4	-38.2	22.8	0.00e+00	0	41	0	191889408	48	5850
2026-01-23 16:33:50.83	21.75	5.47	-37.2	-38.0	22.8	0.00e+00	0	41	0	198180864	48	5726
2026-01-23 16:33:51.84	21.77	5.55	-37.1	-37.9	22.9	0.00e+00	0	41	0	203423744	48	5641
2026-01-23 16:33:52.85	21.78	5.62	-37.0	-37.8	23.0	0.00e+00	0	40	0	208666624	48	5588
2026-01-23 16:33:53.86	21.80	5.69	-36.9	-37.6	23.2	0.00e+00	0	41	0	214958080	48	5453
2026-01-23 16:33:54.87	21.82	5.77	-37.2	-38.0	22.9	0.00e+00	0	41	0	220200960	48	5697
2026-01-23 16:33:55.88	21.84	5.84	-37.3	-38.0	23.0	0.00e+00	0	41	0	226492416	48	5737
2026-01-23 16:33:56.89	21.85	5.91	-37.1	-37.8	22.8	0.00e+00	0	40	0	231735296	48	5611
2026-01-23 16:33:57.90	21.87	5.99	-37.1	-37.8	23.0	0.00e+00	0	41	0	236978176	48	5615
2026-01-23 16:33:58.91	21.89	6.06	-37.2	-38.0	22.9	0.00e+00	0	40	0	243269632	48	5704
2026-01-23 16:33:59.92	21.90	6.14	-36.9	-37.7	23.2	0.00e+00	0	40	0	248512512	48	5516
2026-01-23 16:34:00.93	21.92	6.21	-36.9	-37.6	23.2	0.00e+00	0	41	0	254803968	48	5480
2026-01-23 16:34:01.94	21.94	6.29	-36.8	-37.5	23.3	0.00e+00	0	40	0	260046848	46	6082
2026-01-23 16:34:02.95	21.96	6.36	-36.9	-37.7	23.2	0.00e+00	0	41	0	266338304	46	6179
2026-01-23 16:34:03.96	21.98	6.44	-36.6	-37.4	23.5	0.00e+00	0	41	0	271581184	46	5967
2026-01-23 16:34:04.97	21.99	6.51	-36.8	-37.5	23.3	0.00e+00	0	41	0	277872640	46	6080
2026-01-23 16:34:05.98	22.01	6.59	-36.5	-37.2	23.7	0.00e+00	0	41	0	283115520	46	5883
2026-01-23 16:34:06.99	22.03	6.66	-36.7	-37.5	23.4	2.20e-06	0	41	0	288358400	46	6036
2026-01-23 16:34:08.00	22.05	6.74	-36.9	-37.6	23.2	0.00e+00	0	41	0	294649856	46	6158
2026-01-23 16:34:09.01	22.07	6.82	-36.8	-37.5	23.5	0.00e+00	0	41	0	299892736	46	6100
2026-01-23 16:34:10.02	22.08	6.89	-36.8	-37.6	23.4	0.00e+00	0	41	0	306184192	46	6117
2026-01-23 16:34:11.03	22.10	6.97	-36.9	-37.6	23.3	0.00e+00	0	41	0	311427072	46	6156
2026-01-23 16:34:12.04	22.12	7.05	-36.9	-37.7	23.0	0.00e+00	0	40	0	316669952	46	6174
2026-01-23 16:34:13.05	22.14	7.12	-37.1	-37.9	23.3	0.00e+00	0	41	0	322961408	46	6328
2026-01-23 16:34:14.06	22.16	7.20	-36.7	-37.5	23.5	0.00e+00	0	41	0	328204288	46	6042
2026-01-23 16:34:15.07	22.18	7.28	-36.6	-37.3	23.6	0.00e+00	0	41	0	334495744	46	5926
2026-01-23 16:34:16.08	22.19	7.36	-37.0	-37.7	23.4	0.00e+00	0	41	0	339738624	46	6212
2026-01-23 16:34:17.09	22.21	7.44	-36.6	-37.3	23.6	0.00e+00	0	41	0	344981504	46	5951
2026-01-23 16:34:18.10	22.23	7.51	-36.6	-37.3	23.6	0.00e+00	0	41	0	351272960	46	5929
2026-01-23 16:34:19.11	22.25	7.59	-36.6	-37.4	23.6	0.00e+00	0	41	0	356515840	46	5973
2026-01-23 16:34:20.12	22.27	7.67	-36.6	-37.4	23.6	0.00e+00	0	41	0	362807296	46	5990
2026-01-23 16:34:21.13	22.29	7.75	-36.5	-37.2	23.8	0.00e+00	0	41	0	368050176	46	5892
2026-01-23 16:34:22.13	22.31	7.83	-36.7	-37.4	23.5	0.00e+00	0	41	0	374341632	46	6018
2026-01-23 16:34:23.14	22.33	7.91	-36.9	-37.7	23.5	0.00e+00	0	41	0	379584512	46	6182
2026-01-23 16:34:24.15	22.35	7.99	-36.6	-37.3	23.5	0.00e+00	0	41	0	384827392	46	5957
2026-01-23 16:34:25.16	22.37	8.07	-36.8	-37.5	23.4	0.00e+00	0	41	0	391118848	46	6082
2026-01-23 16:34:26.17	22.39	8.15	-36.6	-37.3	23.5	0.00e+00	0	41	0	396361728	46	5953
2026-01-23 16:34:27.18	22.41	8.23	-36.8	-37.5	23.6	0.00e+00	0	41	0	402653184	46	6098
2026-01-23 16:34:28.19	22.42	8.31	-36.6	-37.3	23.6	0.00e+00	0	41	0	407896064	46	5925
2026-01-23 16:34:29.20	22.44	8.39	-36.3	-37.1	24.0	0.00e+00	0	41	0	413138944	46	5768
2026-01-23 16:34:30.21	22.46	8.48	-36.3	-37.0	24.0	0.00e+00	0	41	0	419430400	46	5754
2026-01-23 16:34:31.22	22.48	8.56	-36.2	-36.9	24.1	0.00e+00	0	41	0	424673280	46	5641
2026-01-23 16:34:32.23	22.50	8.64	-36.1	-36.9	24.2	0.00e+00	0	41	0	430964736	46	5646
2026-01-23 16:34:33.24	22.52	8.72	-36.1	-36.8	24.2	0.00e+00	0	41	0	436207616	46	5622
2026-01-23 16:34:34.25	22.54	8.80	-35.9	-36.6	24.4	0.00e+00	0	41	0	441450496	46	5440
2026-01-23 16:34:35.26	22.56	8.89	-36.0	-36.7	24.3	0.00e+00	0	41	0	447741952	46	5505
2026-01-23 16:34:36.27	22.58	8.97	-36.0	-36.7	24.3	0.00e+00	0	41	0	452984832	46	5555
2026-01-23 16:34:37.28	22.61	9.05	-36.1	-36.8	24.2	0.00e+00	0	41	0	459276288	46	5581
2026-01-23 16:34:38.29	22.63	9.14	-36.1	-36.8	24.1	0.00e+00	0	41	0	464519168	46	5600
2026-01-23 16:34:39.31	22.65	9.22	-35.8	-36.5	24.4	0.00e+00	0	41	0	470810624	46	5430
2026-01-23 16:34:40.32	22.67	9.31	-35.9	-36.6	24.3	0.00e+00	0	41	0	476053504	46	5472
2026-01-23 16:34:41.33	22.69	9.39	-36.1	-36.8	24.2	0.00e+00	0	41	0	482344960	46	5603
2026-01-23 16:34:42.33	22.71	9.48	-36.2	-36.9	24.2	0.00e+00	0	41	0	487587840	46	5693
2026-01-23 16:34:43.34	22.73	9.56	-35.9	-36.6	24.4	0.00e+00	0	41	0	492830720	46	5487
2026-01-23 16:34:44.35	22.75	9.65	-35.9	-36.6	24.4	0.00e+00	0	41	0	499122176	46	5487
2026-01-23 16:34:45.36	22.77	9.73	-35.9	-36.6	24.4	0.00e+00	0	41	0	504365056	46	5465
2026-01-23 16:34:46.37	22.79	9.82	-35.8	-36.5	24.5	0.00e+00	0	41	0	510656512	46	5399
2026-01-23 16:34:47.38	22.81	9.90	-35.9	-36.6	24.4	0.00e+00	0	41	0	515899392	44	6111
2026-01-23 16:34:48.39	22.84	9.99	-35.8	-36.5	24.6	0.00e+00	0	41	0	521142272	44	6038
2026-01-23 16:34:49.40	22.86	10.08	-35.8	-36.6	24.4	0.00e+00	0	41	0	527433728	44	6113
2026-01-23 16:34:50.41	22.88	10.17	-35.7	-36.4	24.6	0.00e+00	0	41	0	532676608	44	6008
2026-01-23 16:34:51.42	22.90	10.25	-35.7	-36.4	24.6	0.00e+00	0	41	0	538968064	44	5975
2026-01-23 16:34:52.43	22.92	10.34	-35.8	-36.5	24.5	0.00e+00	0	41	0	544210944	44	6052
2026-01-23 16:34:53.44	22.94	10.43	-35.6	-36.3	24.7	0.00e+00	0	41	0	549453824	44	5920
2026-01-23 16:34:54.45	22.97	10.52	-35.7	-36.4	24.7	0.00e+00	0	41	0	555745280	44	5994
2026-01-23 16:34:55.46	22.99	10.61	-35.6	-36.3	24.7	0.00e+00	0	41	0	560988160	44	5944
2026-01-23 16:34:56.47	23.01	10.70	-35.6	-36.3	24.7	0.00e+00	0	41	0	567279616	44	5904
2026-01-23 16:34:57.48	23.03	10.79	-35.6	-36.3	24.7	0.00e+00	0	41	0	572522496	44	5912
2026-01-23 16:34:58.49	23.06	10.88	-35.7	-36.4	24.6	0.00e+00	0	41	0	578813952	44	5969
2026-01-23 16:34:59.50	23.08	10.97	-35.6	-36.3	24.7	0.00e+00	0	41	0	584056832	44	5909
2026-01-23 16:35:00.50	23.10	11.06	-35.6	-36.3	24.6	0.00e+00	0	41	0	589299712	44	5926
2026-01-23 16:35:01.52	23.12	11.15	-35.6	-36.3	24.7	0.00e+00	0	41	0	595591168	44	5917
2026-01-23 16:35:02.52	23.15	11.24	-35.6	-36.3	24.7	0.00e+00	0	41	0	600834048	44	5901
2026-01-23 16:35:03.53	23.17	11.33	-35.7	-36.5	24.5	0.00e+00	0	41	0	607125504	44	6039
2026-01-23 16:35:04.54	23.19	11.42	-35.8	-36.5	24.5	0.00e+00	0	41	0	612368384	44	6075
2026-01-23 16:35:05.55	23.22	11.51	-35.8	-36.5	24.5	0.00e+00	0	41	0	617611264	44	6053
2026-01-23 16:35:06.56	23.24	11.60	-35.8	-36.5	24.5	0.00e+00	0	41	0	623902720	44	6095
2026-01-23 16:35:07.57	23.26	11.70	-36.0	-36.7	24.3	0.00e+00	0	41	0	629145600	44	6198
2026-01-23 16:35:08.59	23.29	11.79	-35.8	-36.5	24.5	0.00e+00	0	41	0	635437056	44	6069
2026-01-23 16:35:09.59	23.31	11.88	-35.9	-36.6	24.5	0.00e+00	0	41	0	640679936	44	6158
2026-01-23 16:35:10.60	23.34	11.98	-35.9	-36.6	24.5	0.00e+00	0	41	0	645922816	44	6141
2026-01-23 16:35:11.61	23.36	12.07	-35.8	-36.6	24.6	0.00e+00	0	41	0	652214272	44	6104
2026-01-23 16:35:12.62	23.38	12.17	-35.8	-36.5	24.5	0.00e+00	0	41	0	657457152	44	6080
2026-01-23 16:35:13.63	23.41	12.26	-35.8	-36.6	24.5	0.00e+00	0	41	0	663748608	44	6111
2026-01-23 16:35:14.64	23.43	12.36	-35.8	-36.5	24.6	0.00e+00	0	41	0	668991488	44	6080
2026-01-23 16:35:15.65	23.46	12.45	-35.8	-36.5	24.6	0.00e+00	0	41	0	675282944	44	6067
2026-01-23 16:35:16.67	23.48	12.55	-35.7	-36.4	24.6	0.00e+00	0	41	0	680525824	44	6029
2026-01-23 16:35:17.67	23.51	12.65	-35.7	-36.5	24.5	0.00e+00	0	41	0	686817280	44	6052
2026-01-23 16:35:18.68	23.53	12.74	-35.7	-36.4	24.7	0.00e+00	0	41	0	692060160	44	6007
2026-01-23 16:35:19.69	23.56	12.84	-35.7	-36.4	24.6	0.00e+00	0	41	0	697303040	44	6012
2026-01-23 16:35:20.70	23.58	12.94	-35.5	-36.2	24.8	0.00e+00	0	41	0	703594496	44	5892
2026-01-23 16:35:21.71	23.61	13.04	-35.6	-36.3	24.8	0.00e+00	0	41	0	708837376	44	5955
2026-01-23 16:35:22.72	23.63	13.13	-35.7	-36.4	24.8	0.00e+00	0	41	0	715128832	44	5994
2026-01-23 16:35:23.73	23.66	13.23	-35.7	-36.4	24.7	0.00e+00	0	41	0	720371712	44	5973
2026-01-23 16:35:24.74	23.68	13.33	-35.7	-36.4	24.8	0.00e+00	0	41	0	725614592	44	5999
2026-01-23 16:35:25.75	23.71	13.43	-35.4	-36.1	25.0	0.00e+00	0	41	0	731906048	44	5780
2026-01-23 16:35:26.76	23.74	13.53	-35.3	-36.0	25.1	0.00e+00	0	41	0	737148928	44	5716
2026-01-23 16:35:27.77	23.76	13.63	-35.2	-35.9	25.1	0.00e+00	0	41	0	743440384	44	5683
2026-01-23 16:35:28.77	23.79	13.73	-35.3	-36.0	25.0	0.00e+00	0	41	0	748683264	44	5748
2026-01-23 16:35:29.79	23.82	13.83	-35.2	-35.9	25.2	0.00e+00	0	41	0	753926144	44	5671
2026-01-23 16:35:30.79	23.84	13.94	-35.2	-35.9	25.2	0.00e+00	0	41	0	760217600	44	5677
2026-01-23 16:35:31.80	23.87	14.04	-35.1	-35.8	25.3	0.00e+00	0	41	0	765460480	44	5598
2026-01-23 16:35:32.82	23.90	14.14	-35.0	-35.7	25.3	0.00e+00	0	41	0	771751936	44	5519
2026-01-23 16:35:33.83	23.92	14.24	-35.2	-35.9	25.2	0.00e+00	0	41	0	776994816	44	5636
2026-01-23 16:35:34.83	23.95	14.35	-35.2	-35.9	25.2	0.00e+00	0	41	0	783286272	44	5660
2026-01-23 16:35:35.84	23.98	14.45	-35.0	-35.7	25.5	0.00e+00	0	41	0	788529152	44	5527
2026-01-23 16:35:36.85	24.01	14.55	-34.9	-35.5	25.5	0.00e+00	0	41	0	793772032	44	5432
2026-01-23 16:35:37.86	24.03	14.66	-34.8	-35.4	25.7	0.00e+00	0	41	0	800063488	44	5338
2026-01-23 16:35:38.87	24.06	14.76	-34.8	-35.5	25.6	0.00e+00	0	41	0	805306368	42	6041
2026-01-23 16:35:39.88	24.09	14.87	-34.8	-35.4	25.6	0.00e+00	0	41	0	811597824	42	6029
2026-01-23 16:35:40.89	24.12	14.98	-34.7	-35.4	25.7	0.00e+00	0	41	0	816840704	42	5984
2026-01-23 16:35:41.90	24.15	15.08	-34.7	-35.3	25.7	0.00e+00	0	41	0	822083584	42	5939
2026-01-23 16:35:42.91	24.17	15.19	-34.6	-35.3	25.8	0.00e+00	0	41	0	828375040	42	5939
2026-01-23 16:35:43.92	24.20	15.30	-34.5	-35.2	25.9	0.00e+00	0	41	0	833617920	42	5859
2026-01-23 16:35:44.93	24.23	15.41	-34.4	-35.0	26.0	0.00e+00	0	41	0	839909376	42	5740
2026-01-23 16:35:45.94	24.26	15.51	-34.4	-35.1	26.0	0.00e+00	0	41	0	845152256	42	5784
2026-01-23 16:35:46.95	24.29	15.62	-34.3	-35.0	26.1	0.00e+00	0	41	0	850395136	42	5704
2026-01-23 16:35:47.95	24.32	15.73	-34.3	-34.9	26.1	0.00e+00	0	41	0	856686592	42	5675
2026-01-23 16:35:48.96	24.35	15.84	-34.2	-34.9	26.0	0.00e+00	0	41	0	861929472	42	5644
2026-01-23 16:35:49.97	24.38	15.95	-34.3	-34.9	26.1	0.00e+00	0	41	0	868220928	42	5683
2026-01-23 16:35:50.98	24.41	16.06	-34.1	-34.7	26.4	0.00e+00	0	41	0	873463808	42	5556
2026-01-23 16:35:51.99	24.44	16.17	-34.1	-34.7	26.3	0.00e+00	0	41	0	879755264	42	5544
2026-01-23 16:35:53.00	24.47	16.29	-34.0	-34.6	26.4	0.00e+00	0	41	0	884998144	42	5479
2026-01-23 16:35:54.01	24.50	16.40	-34.0	-34.7	26.3	0.00e+00	0	41	0	891289600	42	5514
2026-01-23 16:35:55.02	24.53	16.51	-34.0	-34.7	26.4	0.00e+00	0	41	0	896532480	42	5517
2026-01-23 16:35:56.03	24.56	16.62	-34.0	-34.7	26.3	0.00e+00	0	41	0	901775360	42	5537
2026-01-23 16:35:57.04	24.59	16.74	-33.9	-34.6	26.5	0.00e+00	0	41	0	908066816	42	5459
2026-01-23 16:35:58.05	24.63	16.85	-33.9	-34.5	26.5	0.00e+00	0	41	0	913309696	42	5412
2026-01-23 16:35:59.06	24.66	16.97	-33.9	-34.6	26.5	0.00e+00	0	41	0	919601152	42	5441
2026-01-23 16:36:00.07	24.69	17.08	-33.8	-34.5	26.5	0.00e+00	0	41	0	924844032	42	5403
2026-01-23 16:36:01.08	24.72	17.20	-33.9	-34.5	26.5	0.00e+00	0	41	0	930086912	42	5411
2026-01-23 16:36:02.09	24.75	17.32	-33.8	-34.5	26.6	0.00e+00	0	41	0	936378368	42	5384
2026-01-23 16:36:03.10	24.79	17.43	-33.8	-34.5	26.6	0.00e+00	0	41	0	941621248	42	5382
2026-01-23 16:36:04.11	24.82	17.55	-33.8	-34.4	26.7	0.00e+00	0	41	0	947912704	42	5356
2026-01-23 16:36:05.12	24.85	17.67	-33.7	-34.3	26.6	0.00e+00	0	41	0	953155584	40	5956
2026-01-23 16:36:06.13	24.89	17.79	-33.7	-34.3	26.6	0.00e+00	0	41	0	958398464	40	5944
2026-01-23 16:36:07.14	24.92	17.91	-33.7	-34.3	26.6	0.00e+00	0	41	0	964689920	40	5934
2026-01-23 16:36:08.15	24.95	18.03	-33.6	-34.2	26.7	0.00e+00	0	41	0	969932800	40	5892
2026-01-23 16:36:09.16	24.99	18.15	-33.6	-34.2	26.7	0.00e+00	0	41	0	976224256	40	5863
2026-01-23 16:36:10.17	25.02	18.27	-33.7	-34.3	26.7	0.00e+00	0	41	0	981467136	40	5943
2026-01-23 16:36:11.18	25.06	18.39	-33.5	-34.1	26.8	0.00e+00	0	41	0	987758592	40	5823
2026-01-23 16:36:12.19	25.09	18.52	-33.6	-34.2	26.7	0.00e+00	0	41	0	993001472	40	5892
2026-01-23 16:36:13.20	25.12	18.64	-33.6	-34.2	26.7	0.00e+00	0	41	0	998244352	40	5887
2026-01-23 16:36:14.21	25.16	18.76	-33.6	-34.3	26.8	0.00e+00	0	41	0	1004535808	40	5899
2026-01-23 16:36:15.22	25.20	18.89	-33.8	-34.5	26.6	0.00e+00	0	41	0	1009778688	40	6053
2026-01-23 16:36:16.23	25.23	19.01	-33.9	-34.5	26.6	0.00e+00	0	41	0	1016070144	40	6075
2026-01-23 16:36:17.24	25.27	19.14	-33.7	-34.3	26.7	0.00e+00	0	41	0	1021313024	40	5936
2026-01-23 16:36:18.25	25.30	19.26	-33.7	-34.4	26.7	0.00e+00	0	41	0	1026555904	40	6001
2026-01-23 16:36:19.26	25.34	19.39	-33.7	-34.4	26.7	0.00e+00	0	41	0	1032847360	40	6012
2026-01-23 16:36:20.27	25.38	19.52	-33.7	-34.4	26.7	0.00e+00	0	41	0	1038090240	40	5971
2026-01-23 16:36:21.28	25.41	19.65	-33.7	-34.3	26.7	0.00e+00	0	41	0	1044381696	40	5959
2026-01-23 16:36:22.29	25.45	19.77	-33.6	-34.2	26.8	0.00e+00	0	41	0	1049624576	40	5866
2026-01-23 16:36:23.30	25.49	19.90	-33.5	-34.1	26.8	0.00e+00	0	41	0	1054867456	40	5828
2026-01-23 16:36:24.31	25.53	20.03	-33.4	-34.0	27.0	0.00e+00	0	41	0	1061158912	40	5721
2026-01-23 16:36:25.32	25.56	20.16	-33.4	-34.0	27.0	0.00e+00	0	41	0	1066401792	40	5755
2026-01-23 16:36:26.33	25.60	20.30	-33.2	-33.8	27.1	0.00e+00	0	41	0	1072693248	40	5591
2026-01-23 16:36:27.34	25.64	20.43	-33.3	-34.0	27.0	0.00e+00	0	41	0	1077936128	40	5696
2026-01-23 16:36:28.35	25.68	20.56	-33.0	-33.6	27.3	0.00e+00	0	41	0	1084227584	40	5460
2026-01-23 16:36:29.36	25.72	20.69	-33.1	-33.7	27.2	0.00e+00	0	41	0	1089470464	40	5566
2026-01-23 16:36:30.37	25.76	20.83	-32.9	-33.5	27.4	0.00e+00	0	41	0	1095761920	40	5431
2026-01-23 16:36:31.38	25.80	20.96	-32.9	-33.5	27.4	0.00e+00	0	41	0	1101004800	40	5402
2026-01-23 16:36:32.37	25.84	21.10	-33.0	-33.7	27.3	0.00e+00	0	41	0	1106247680	40	5522
2026-01-23 16:36:33.38	25.88	21.23	-32.8	-33.5	27.5	0.00e+00	0	41	0	1112539136	40	5379
2026-01-23 16:36:34.39	25.92	21.37	-32.9	-33.5	27.5	0.00e+00	0	41	0	1117782016	40	5381
2026-01-23 16:36:35.40	25.96	21.51	-32.9	-33.5	27.4	0.00e+00	0	41	0	1124073472	40	5416
2026-01-23 16:36:36.41	26.00	21.65	-32.8	-33.5	27.5	0.00e+00	0	41	0	1129316352	40	5387
2026-01-23 16:36:37.42	26.04	21.79	-33.0	-33.6	27.4	0.00e+00	0	41	0	1134559232	40	5500
2026-01-23 16:36:38.43	26.08	21.93	-33.0	-33.6	27.4	0.00e+00	0	41	0	1140850688	40	5452
2026-01-23 16:36:39.44	26.13	22.07	-32.9	-33.5	27.3	0.00e+00	0	41	0	1146093568	40	5423
2026-01-23 16:36:40.45	26.17	22.21	-33.0	-33.6	27.3	0.00e+00	0	41	0	1152385024	40	5460
2026-01-23 16:36:41.46	26.21	22.35	-33.0	-33.6	27.3	0.00e+00	0	41	0	1157627904	40	5484
2026-01-23 16:36:42.47	26.26	22.49	-33.2	-33.8	27.3	0.00e+00	0	41	0	1162870784	40	5628
2026-01-23 16:36:43.48	26.30	22.64	-33.1	-33.7	27.4	0.00e+00	0	41	0	1169162240	40	5529
2026-01-23 16:36:44.49	26.35	22.78	-33.1	-33.7	27.3	0.00e+00	0	41	0	1174405120	40	5538
2026-01-23 16:36:45.50	26.39	22.93	-33.1	-33.7	27.3	0.00e+00	0	41	0	1180696576	40	5538
2026-01-23 16:36:46.51	26.43	23.08	-33.0	-33.7	27.3	0.00e+00	0	41	0	1185939456	40	5506
2026-01-23 16:36:47.52	26.48	23.22	-33.0	-33.6	27.4	0.00e+00	0	41	0	1192230912	40	5468
2026-01-23 16:36:48.53	26.53	23.37	-32.9	-33.5	27.4	0.00e+00	0	41	0	1197473792	40	5420
2026-01-23 16:36:49.54	26.57	23.52	-32.8	-33.4	27.5	0.00e+00	0	41	0	1202716672	40	5342
2026-01-23 16:36:50.55	26.62	23.67	-32.8	-33.4	27.5	0.00e+00	0	41	0	1209008128	38	6019
2026-01-23 16:36:51.56	26.67	23.82	-32.7	-33.3	27.6	0.00e+00	0	41	0	1214251008	38	5944
2026-01-23 16:36:52.57	26.71	23.97	-32.7	-33.3	27.7	0.00e+00	0	41	0	1220542464	38	5934
2026-01-23 16:36:53.57	26.76	24.12	-32.8	-33.4	27.5	0.00e+00	0	41	0	1225785344	38	6023
2026-01-23 16:36:54.59	26.81	24.28	-32.7	-33.3	27.7	0.00e+00	0	41	0	1231028224	38	5942
2026-01-23 16:36:55.59	26.86	24.43	-32.5	-33.2	27.8	0.00e+00	0	41	0	1237319680	38	5836
2026-01-23 16:36:56.60	26.91	24.58	-32.6	-33.2	27.7	0.00e+00	0	41	0	1242562560	38	5895
2026-01-23 16:36:57.61	26.96	24.74	-32.5	-33.1	27.8	0.00e+00	0	41	0	1248854016	38	5779
2026-01-23 16:36:58.62	27.01	24.90	-32.5	-33.1	27.8	0.00e+00	0	41	0	1254096896	38	5823
2026-01-23 16:36:59.63	27.06	25.06	-32.4	-33.1	27.8	0.00e+00	0	41	0	1259339776	38	5762
2026-01-23 16:37:00.64	27.11	25.21	-32.6	-33.3	27.7	0.00e+00	0	41	0	1265631232	38	5915
2026-01-23 16:37:01.65	27.16	25.37	-32.4	-33.0	27.9	0.00e+00	0	41	0	1270874112	38	5737
2026-01-23 16:37:02.66	27.21	25.53	-32.6	-33.2	27.7	0.00e+00	0	41	0	1277165568	38	5863
2026-01-23 16:37:03.67	27.26	25.70	-32.4	-33.0	27.8	0.00e+00	0	41	0	1282408448	38	5740
2026-01-23 16:37:04.68	27.32	25.86	-32.5	-33.1	27.8	0.00e+00	0	41	0	1288699904	38	5806
2026-01-23 16:37:05.69	27.37	26.02	-32.3	-32.9	28.0	0.00e+00	0	41	0	1293942784	38	5672
2026-01-23 16:37:06.70	27.42	26.19	-32.3	-32.9	28.0	0.00e+00	0	41	0	1300234240	38	5683
2026-01-23 16:37:07.71	27.48	26.35	-32.2	-32.8	28.0	0.00e+00	0	41	0	1305477120	38	5628
2026-01-23 16:37:08.72	27.53	26.52	-32.3	-32.9	28.0	0.00e+00	0	41	0	1310720000	38	5654
2026-01-23 16:37:09.73	27.59	26.69	-32.3	-33.0	28.0	0.00e+00	0	41	0	1317011456	38	5700
2026-01-23 16:37:10.73	27.64	26.85	-32.3	-32.9	28.0	0.00e+00	0	41	0	1322254336	38	5665
2026-01-23 16:37:11.74	27.70	27.02	-32.4	-33.1	27.9	0.00e+00	0	41	0	1328545792	38	5790
2026-01-23 16:37:12.75	27.76	27.19	-32.4	-33.1	27.9	0.00e+00	0	41	0	1333788672	38	5772
2026-01-23 16:37:13.76	27.81	27.36	-32.5	-33.1	27.8	0.00e+00	0	41	0	1339031552	38	5805
2026-01-23 16:37:14.77	27.87	27.54	-32.5	-33.1	27.8	0.00e+00	0	41	0	1345323008	38	5802
2026-01-23 16:37:15.78	27.93	27.71	-32.5	-33.2	27.8	0.00e+00	0	41	0	1350565888	38	5835
2026-01-23 16:37:16.79	27.99	27.89	-32.6	-33.2	27.8	0.00e+00	0	41	0	1356857344	38	5860
2026-01-23 16:37:17.80	28.05	28.06	-32.4	-33.1	27.9	0.00e+00	0	41	0	1362100224	38	5766
2026-01-23 16:37:18.81	28.11	28.24	-32.5	-33.1	27.7	0.00e+00	0	41	0	1367343104	38	5818
2026-01-23 16:37:19.82	28.17	28.42	-32.5	-33.1	27.9	0.00e+00	0	41	0	1373634560	38	5825
2026-01-23 16:37:20.84	28.24	28.60	-32.2	-32.8	28.0	0.00e+00	0	41	0	1378877440	38	5581
2026-01-23 16:37:21.85	28.30	28.78	-32.2	-32.9	28.1	0.00e+00	0	41	0	1385168896	38	5632
2026-01-23 16:37:22.85	28.36	28.96	-32.2	-32.8	28.0	0.00e+00	0	41	0	1390411776	38	5619
2026-01-23 16:37:23.86	28.43	29.14	-32.1	-32.7	28.2	0.00e+00	0	41	0	1396703232	38	5548
2026-01-23 16:37:24.87	28.49	29.33	-32.1	-32.7	28.1	0.00e+00	0	41	0	1401946112	38	5536
2026-01-23 16:37:25.88	28.55	29.51	-32.2	-32.8	28.0	0.00e+00	0	41	0	1407188992	38	5607
2026-01-23 16:37:26.89	28.62	29.70	-32.4	-33.1	27.8	0.00e+00	0	41	0	1413480448	38	5762
2026-01-23 16:37:27.90	28.69	29.88	-32.3	-33.0	28.0	0.00e+00	0	41	0	1418723328	38	5714
2026-01-23 16:37:28.91	28.76	30.07	-32.5	-33.1	27.7	0.00e+00	0	41	0	1425014784	38	5778
2026-01-23 16:37:29.92	28.82	30.26	-32.4	-33.0	27.9	0.00e+00	0	41	0	1430257664	38	5748
2026-01-23 16:37:30.93	28.89	30.45	-32.4	-33.1	27.8	0.00e+00	0	41	0	1435500544	38	5773
2026-01-23 16:37:31.94	28.96	30.65	-32.4	-33.0	27.9	0.00e+00	0	41	0	1441792000	38	5755
2026-01-23 16:37:32.95	29.03	30.84	-32.1	-32.7	28.2	0.00e+00	0	41	0	1447034880	38	5542
2026-01-23 16:37:33.96	29.10	31.03	-32.0	-32.6	28.2	0.00e+00	0	41	0	1453326336	38	5479
2026-01-23 16:37:34.97	29.18	31.23	-32.2	-32.8	28.1	0.00e+00	0	41	0	1458569216	38	5625
2026-01-23 16:37:35.98	29.25	31.43	-31.9	-32.6	28.2	0.00e+00	0	41	0	1463812096	38	5446
2026-01-23 16:37:36.99	29.32	31.63	-32.1	-32.7	28.1	0.00e+00	0	41	0	1470103552	38	5564
2026-01-23 16:37:38.00	29.40	31.83	-32.1	-32.7	28.2	0.00e+00	0	41	0	1475346432	38	5521
2026-01-23 16:37:39.01	29.47	32.03	-32.2	-32.8	28.1	0.00e+00	0	41	0	1481637888	38	5609
2026-01-23 16:37:40.02	29.55	32.23	-32.3	-32.9	28.0	0.00e+00	0	41	0	1486880768	38	5669
2026-01-23 16:37:41.03	29.63	32.43	-32.2	-32.8	28.1	0.00e+00	0	41	0	1493172224	38	5627
2026-01-23 16:37:42.04	29.71	32.64	-32.2	-32.8	28.2	0.00e+00	0	41	0	1498415104	38	5586
2026-01-23 16:37:43.05	29.78	32.85	-32.2	-32.8	28.2	0.00e+00	0	41	0	1504706560	38	5588
2026-01-23 16:37:44.05	29.86	33.05	-32.0	-32.6	28.2	0.00e+00	0	41	0	1509949440	38	5471
2026-01-23 16:37:45.07	29.95	33.26	-32.0	-32.6	28.2	0.00e+00	0	41	0	1515192320	38	5448
2026-01-23 16:37:46.07	30.03	33.47	-32.0	-32.6	28.2	0.00e+00	0	41	0	1521483776	38	5497
2026-01-23 16:37:47.08	30.11	33.69	-32.1	-32.7	28.1	0.00e+00	0	41	0	1526726656	38	5537
2026-01-23 16:37:48.09	30.19	33.90	-32.2	-32.8	28.1	0.00e+00	0	41	0	1533018112	38	5626
2026-01-23 16:37:49.10	30.28	34.11	-32.2	-32.8	28.1	0.00e+00	0	41	0	1538260992	38	5619
2026-01-23 16:37:50.11	30.37	34.33	-32.1	-32.8	28.2	0.00e+00	0	41	0	1543503872	38	5567
2026-01-23 16:37:51.12	30.45	34.55	-32.2	-32.8	28.1	0.00e+00	0	41	0	1549795328	38	5610
2026-01-23 16:37:52.13	30.54	34.77	-32.2	-32.8	28.2	0.00e+00	0	41	0	1555038208	38	5590
2026-01-23 16:37:53.14	30.63	34.99	-32.0	-32.6	28.2	0.00e+00	0	41	0	1561329664	38	5467
2026-01-23 16:37:54.15	30.72	35.21	-32.0	-32.6	28.2	0.00e+00	0	41	0	1566572544	38	5476
2026-01-23 16:37:55.16	30.81	35.44	-31.9	-32.5	28.2	0.00e+00	0	41	0	1571815424	38	5422
2026-01-23 16:37:56.17	30.91	35.66	-31.9	-32.6	28.3	0.00e+00	0	41	0	1578106880	38	5440
2026-01-23 16:37:57.18	31.00	35.89	-31.9	-32.5	28.3	0.00e+00	0	41	0	1583349760	38	5405
2026-01-23 16:37:58.19	31.10	36.12	-31.9	-32.5	28.3	0.00e+00	0	41	0	1589641216	38	5402
2026-01-23 16:37:59.20	31.20	36.35	-31.8	-32.4	28.4	0.00e+00	0	41	0	1594884096	38	5347
2026-01-23 16:38:00.21	31.29	36.58	-31.9	-32.5	28.3	0.00e+00	0	41	0	1601175552	36	6088
2026-01-23 16:38:01.22	31.39	36.81	-31.6	-32.2	28.4	0.00e+00	0	41	0	1606418432	36	5888
2026-01-23 16:38:02.23	31.49	37.05	-31.4	-32.0	28.6	0.00e+00	0	41	0	1611661312	36	5740
2026-01-23 16:38:03.23	31.60	37.28	-31.3	-31.9	28.7	0.00e+00	0	41	0	1617952768	36	5693
2026-01-23 16:38:04.24	31.70	37.52	-31.4	-32.1	28.7	0.00e+00	0	41	0	1623195648	36	5765
2026-01-23 16:38:05.25	31.81	37.76	-31.5	-32.2	28.6	0.00e+00	0	41	0	1629487104	36	5844
2026-01-23 16:38:06.26	31.91	38.00	-31.6	-32.2	28.5	0.00e+00	0	41	0	1634729984	36	5876
2026-01-23 16:38:07.27	32.02	38.24	-31.6	-32.2	28.6	0.00e+00	0	41	0	1639972864	36	5843
2026-01-23 16:38:08.28	32.13	38.49	-31.4	-32.0	28.6	0.00e+00	0	41	0	1646264320	36	5732
2026-01-23 16:38:09.29	32.24	38.73	-31.5	-32.2	28.6	0.00e+00	0	41	0	1651507200	36	5835
2026-01-23 16:38:10.30	32.36	38.98	-31.6	-32.3	28.5	0.00e+00	0	41	0	1657798656	36	5900
2026-01-23 16:38:11.31	32.47	39.23	-31.7	-32.3	28.5	0.00e+00	0	41	0	1663041536	36	5899
2026-01-23 16:38:12.31	32.59	39.48	-31.9	-32.5	28.4	0.00e+00	0	41	0	1668284416	36	6084
2026-01-23 16:38:13.32	32.71	39.73	-31.8	-32.4	28.4	0.00e+00	0	41	0	1674575872	36	6007
2026-01-23 16:38:14.33	32.83	39.99	-31.9	-32.5	28.3	0.00e+00	0	41	0	1679818752	36	6092
2026-01-23 16:38:15.34	32.95	40.25	-32.0	-32.6	28.3	0.00e+00	0	41	0	1686110208	36	6136
2026-01-23 16:38:16.35	33.07	40.50	-31.9	-32.5	28.3	0.00e+00	0	41	0	1691353088	36	6076
2026-01-23 16:38:17.36	33.20	40.76	-31.6	-32.3	28.5	0.00e+00	0	41	0	1697644544	36	5899
2026-01-23 16:38:18.37	33.33	41.03	-31.6	-32.1	28.6	0.00e+00	0	41	0	1702887424	36	5825
2026-01-23 16:38:19.38	33.46	41.29	-31.6	-32.3	28.5	0.00e+00	0	41	0	1708130304	36	5909
2026-01-23 16:38:20.39	33.59	41.55	-32.0	-32.6	28.3	0.00e+00	0	41	0	1714421760	36	6138
2026-01-23 16:38:21.40	33.72	41.82	-31.9	-32.5	28.2	0.00e+00	0	41	0	1719664640	36	6059
2026-01-23 16:38:22.41	33.86	42.09	-32.1	-32.8	28.1	0.00e+00	0	41	0	1725956096	36	6270
2026-01-23 16:38:23.42	34.00	42.36	-32.2	-32.9	28.1	0.00e+00	0	41	0	1731198976	36	6341
2026-01-23 16:38:24.43	34.14	42.63	-32.4	-33.0	28.0	0.00e+00	0	41	0	1736441856	36	6426
2026-01-23 16:38:25.43	34.28	42.91	-32.3	-33.0	28.0	0.00e+00	0	41	0	1742733312	36	6419
2026-01-23 16:38:26.45	34.43	43.18	-32.3	-32.9	28.1	0.00e+00	0	41	0	1747976192	36	6354
2026-01-23 16:38:27.45	34.57	43.46	-32.3	-32.9	28.0	0.00e+00	0	41	0	1754267648	36	6369
2026-01-23 16:38:28.46	34.72	43.74	-32.3	-32.9	28.0	0.00e+00	0	41	0	1759510528	36	6343
2026-01-23 16:38:29.47	34.88	44.02	-32.3	-32.9	28.1	0.00e+00	0	41	0	1764753408	36	6346
2026-01-23 16:38:30.49	35.03	44.31	-32.1	-32.8	28.2	0.00e+00	0	41	0	1771044864	36	6250
2026-01-23 16:38:31.50	35.19	44.59	-32.1	-32.7	28.1	0.00e+00	0	41	0	1776287744	36	6231
2026-01-23 16:38:32.51	35.35	44.88	-32.1	-32.8	28.1	0.00e+00	0	41	0	1782579200	36	6249
2026-01-23 16:38:33.52	35.52	45.17	-32.2	-32.8	28.1	0.00e+00	0	41	0	1787822080	36	6287
2026-01-23 16:38:34.52	35.68	45.46	-32.3	-32.9	28.1	0.00e+00	0	41	0	1794113536	36	6355
2026-01-23 16:38:35.53	35.85	45.75	-32.5	-33.1	28.0	0.00e+00	0	41	0	1799356416	36	6475
2026-01-23 16:38:36.54	36.03	46.04	-32.6	-33.2	27.9	0.00e+00	0	41	0	1805647872	36	6541
2026-01-23 16:38:37.55	36.20	46.34	-32.5	-33.1	27.9	0.00e+00	0	41	0	1810890752	36	6535
2026-01-23 16:38:38.56	36.38	46.64	-32.3	-33.0	28.1	0.00e+00	0	41	0	1816133632	36	6403
2026-01-23 16:38:39.57	36.57	46.94	-32.2	-32.8	28.2	0.00e+00	0	41	0	1822425088	36	6274
2026-01-23 16:38:40.58	36.75	47.24	-32.2	-32.8	28.1	0.00e+00	0	41	0	1827667968	36	6306
2026-01-23 16:38:41.59	36.95	47.55	-32.4	-33.1	27.9	0.00e+00	0	41	0	1833959424	36	6465
2026-01-23 16:38:42.60	37.14	47.85	-32.4	-33.0	27.9	0.00e+00	0	41	0	1839202304	36	6433
2026-01-23 16:38:43.61	37.34	48.16	-32.5	-33.2	27.9	0.00e+00	0	41	0	1844445184	36	6547
2026-01-23 16:38:44.62	37.54	48.47	-32.5	-33.2	27.9	0.00e+00	0	41	0	1850736640	36	6566
2026-01-23 16:38:45.63	37.74	48.78	-32.7	-33.3	27.8	0.00e+00	0	41	0	1855979520	36	6658
2026-01-23 16:38:46.64	37.95	49.09	-32.7	-33.3	27.8	0.00e+00	0	41	0	1862270976	38	5931
2026-01-23 16:38:47.65	38.17	49.41	-32.7	-33.3	27.7	0.00e+00	0	41	0	1867513856	38	5961
2026-01-23 16:38:48.66	38.39	49.73	-32.7	-33.3	27.8	0.00e+00	0	41	0	1872756736	38	5963
2026-01-23 16:38:49.67	38.61	50.04	-32.6	-33.3	27.8	0.00e+00	0	41	0	1879048192	38	5899
2026-01-23 16:38:50.68	38.84	50.37	-32.4	-33.1	27.9	0.00e+00	0	41	0	1884291072	38	5780
2026-01-23 16:38:51.69	39.07	50.69	-32.5	-33.1	27.8	0.00e+00	0	41	0	1890582528	38	5786
2026-01-23 16:38:52.70	39.31	51.01	-32.5	-33.1	27.8	0.00e+00	0	41	0	1895825408	38	5828
2026-01-23 16:38:53.71	39.55	51.34	-32.7	-33.3	27.8	0.00e+00	0	41	0	1902116864	38	5915
2026-01-23 16:38:54.72	39.80	51.67	-32.8	-33.4	27.6	0.00e+00	0	41	0	1907359744	38	6026
2026-01-23 16:38:55.73	40.05	51.99	-33.0	-33.6	27.6	0.00e+00	0	41	0	1912602624	38	6107
2026-01-23 16:38:56.74	40.31	52.33	-33.0	-33.6	27.6	0.00e+00	0	41	0	1918894080	38	6120
2026-01-23 16:38:57.75	40.57	52.66	-33.1	-33.7	27.5	0.00e+00	0	41	0	1924136960	38	6224
2026-01-23 16:38:58.76	40.84	52.99	-33.4	-34.0	27.1	0.00e+00	0	41	0	1930428416	38	6437
2026-01-23 16:38:59.77	41.12	53.33	-33.4	-34.0	27.2	0.00e+00	0	41	0	1935671296	38	6460
2026-01-23 16:39:00.79	41.41	53.67	-33.0	-33.6	27.4	0.00e+00	0	41	0	1940914176	38	6159
2026-01-23 16:39:01.79	41.69	54.01	-32.8	-33.4	27.6	0.00e+00	0	41	0	1947205632	38	6033
2026-01-23 16:39:02.80	41.99	54.35	-33.0	-33.6	27.5	0.00e+00	0	41	0	1952448512	38	6127
2026-01-23 16:39:03.81	42.29	54.69	-33.2	-33.8	27.4	0.00e+00	0	41	0	1958739968	38	6303
2026-01-23 16:39:04.82	42.61	55.03	-33.5	-34.2	27.2	0.00e+00	0	41	0	1963982848	38	6555
2026-01-23 16:39:05.83	42.92	55.38	-33.7	-34.4	26.9	0.00e+00	0	41	0	1969225728	38	6730
2026-01-23 16:39:06.84	43.25	55.72	-33.6	-34.2	27.0	0.00e+00	0	41	0	1975517184	40	5863
2026-01-23 16:39:07.85	43.58	56.07	-33.1	-33.8	27.4	0.00e+00	0	41	0	1980760064	40	5580
2026-01-23 16:39:08.86	43.93	56.42	-33.0	-33.6	27.6	0.00e+00	0	41	0	1987051520	40	5458
2026-01-23 16:39:09.87	44.28	56.77	-32.8	-33.5	27.6	0.00e+00	0	41	0	1992294400	40	5380
2026-01-23 16:39:10.88	44.64	57.12	-33.3	-33.9	27.3	0.00e+00	0	41	0	1998585856	40	5687
2026-01-23 16:39:11.89	45.01	57.47	-33.5	-34.1	27.1	0.00e+00	0	41	0	2003828736	40	5815
2026-01-23 16:39:12.90	45.39	57.83	-33.4	-34.0	27.1	0.00e+00	0	41	0	2010120192	40	5749
2026-01-23 16:39:13.91	45.78	58.18	-33.2	-33.9	27.3	0.00e+00	0	41	0	2015363072	40	5661
2026-01-23 16:39:14.92	46.18	58.54	-32.6	-33.2	27.9	0.00e+00	0	41	0	2020605952	38	5836
2026-01-23 16:39:15.93	46.59	58.89	-32.6	-33.2	27.7	0.00e+00	0	41	0	2026897408	38	5880
2026-01-23 16:39:16.94	47.01	59.25	-33.0	-33.7	27.6	0.00e+00	0	41	0	2032140288	38	6181
2026-01-23 16:39:17.95	47.44	59.61	-32.5	-33.1	27.8	0.00e+00	0	41	0	2038431744	38	5813
2026-01-23 16:39:18.96	47.89	59.97	-32.4	-33.0	27.9	0.00e+00	0	41	0	2043674624	38	5732
2026-01-23 16:39:19.97	48.34	60.33	-32.3	-32.9	28.0	0.00e+00	0	41	0	2048917504	38	5662
2026-01-23 16:39:20.98	48.82	60.68	-32.5	-33.1	27.9	0.00e+00	0	41	0	2055208960	38	5804
2026-01-23 16:39:21.99	49.30	61.04	-32.3	-33.0	28.0	0.00e+00	0	41	0	2060451840	38	5700
2026-01-23 16:39:23.00	49.80	61.40	-32.1	-32.7	28.2	0.00e+00	0	41	0	2066743296	38	5542
2026-01-23 16:39:24.01	50.31	61.76	-31.9	-32.5	28.3	0.00e+00	0	41	0	2071986176	38	5439
2026-01-23 16:39:25.01	50.83	62.12	-31.9	-32.5	28.4	0.00e+00	0	41	0	2077229056	38	5420
2026-01-23 16:39:26.02	51.37	62.48	-31.9	-32.5	28.3	0.00e+00	0	41	0	2083520512	36	6035
2026-01-23 16:39:27.03	51.93	62.84	-32.0	-32.6	28.3	0.00e+00	0	41	0	2088763392	36	6117
2026-01-23 16:39:28.04	52.51	63.20	-32.1	-32.7	28.2	0.00e+00	0	41	0	2095054848	36	6216
2026-01-23 16:39:29.05	53.10	63.56	-31.7	-32.3	28.6	0.00e+00	0	41	0	2100297728	36	5939
2026-01-23 16:39:30.06	53.72	63.91	-31.7	-32.3	28.5	0.00e+00	0	41	0	2106589184	36	5909
2026-01-23 16:39:31.07	54.35	64.27	-31.8	-32.4	28.4	0.00e+00	0	41	0	2111832064	36	5966
2026-01-23 16:39:32.08	55.00	64.62	-31.5	-32.1	28.7	0.00e+00	0	41	0	2117074944	36	5783
2026-01-23 16:39:33.09	55.67	64.98	-31.5	-32.1	28.6	0.00e+00	0	41	0	2123366400	36	5820
2026-01-23 16:39:34.10	56.36	65.33	-31.6	-32.2	28.6	0.00e+00	0	41	0	2128609280	36	5883
2026-01-23 16:39:35.11	57.07	65.68	-31.4	-32.0	28.7	0.00e+00	0	41	0	2134900736	36	5744
2026-01-23 16:39:36.12	57.81	66.03	-31.4	-32.1	28.7	0.00e+00	0	41	0	2140143616	36	5766
2026-01-23 16:39:37.13	58.57	66.38	-31.4	-32.0	28.7	0.00e+00	0	41	0	2145386496	36	5756
2026-01-23 16:39:38.14	59.36	66.72	-31.3	-31.9	28.8	0.00e+00	0	41	0	2151677952	36	5687
2026-01-23 16:39:39.15	60.17	67.06	-31.4	-32.0	28.7	0.00e+00	0	41	0	2156920832	36	5756
2026-01-23 16:39:40.16	61.01	67.40	-31.5	-32.2	28.6	0.00e+00	0	41	0	2163212288	36	5865
2026-01-23 16:39:41.17	61.88	67.74	-31.4	-32.0	28.7	0.00e+00	0	41	0	2168455168	36	5751
2026-01-23 16:39:42.18	62.77	68.07	-31.4	-32.0	28.7	0.00e+00	0	41	0	2173698048	36	5714
2026-01-23 16:39:43.19	63.69	68.40	-31.4	-32.0	28.7	0.00e+00	0	41	0	2179989504	36	5712
2026-01-23 16:39:44.20	64.65	68.72	-31.1	-31.7	28.9	0.00e+00	0	41	0	2185232384	36	5553
2026-01-23 16:39:45.21	65.64	69.04	-31.0	-31.6	29.1	0.00e+00	0	41	0	2191523840	36	5469
2026-01-23 16:39:46.22	66.66	69.36	-31.2	-31.9	28.8	0.00e+00	0	41	0	2196766720	36	5652
2026-01-23 16:39:47.23	67.71	69.67	-31.3	-31.9	28.7	0.00e+00	0	41	0	2203058176	36	5673
2026-01-23 16:39:48.23	68.78	69.97	-31.4	-31.9	28.7	0.00e+00	0	41	0	2208301056	36	5687
2026-01-23 16:39:49.25	69.92	70.27	-31.4	-32.0	28.8	0.00e+00	0	41	0	2214592512	36	5700
2026-01-23 16:39:50.26	71.08	70.56	-31.1	-31.6	28.9	0.00e+00	0	41	0	2219835392	36	5499
2026-01-23 16:39:51.27	72.27	70.85	-30.9	-31.5	29.0	0.00e+00	0	41	0	2225078272	36	5391
2026-01-23 16:39:52.28	73.51	71.12	-30.9	-31.6	29.0	0.00e+00	0	41	0	2231369728	36	5461
2026-01-23 16:39:53.29	74.78	71.39	-30.9	-31.4	29.1	0.00e+00	0	41	0	2236612608	36	5375
2026-01-23 16:39:54.30	76.09	71.66	-30.6	-31.3	29.1	0.00e+00	0	41	0	2242904064	34	5899
2026-01-23 16:39:55.31	77.44	71.91	-30.7	-31.3	29.2	0.00e+00	0	41	0	2248146944	34	5935
2026-01-23 16:39:56.32	78.83	72.15	-30.5	-31.0	29.4	0.00e+00	0	41	0	2253389824	34	5759
2026-01-23 16:39:57.33	80.26	72.39	-30.4	-31.1	29.3	0.00e+00	0	41	0	2259681280	34	5776
2026-01-23 16:39:58.34	81.74	72.61	-30.7	-31.4	29.1	0.00e+00	0	41	0	2264924160	34	5973
2026-01-23 16:39:59.35	83.25	72.83	-30.9	-31.5	28.9	0.00e+00	0	41	0	2271215616	34	6069
2026-01-23 16:40:00.36	84.79	73.03	-30.5	-31.2	29.2	0.00e+00	0	41	0	2276458496	34	5832
2026-01-23 16:40:01.37	86.38	73.22	-30.7	-31.4	29.1	0.00e+00	0	41	0	2281701376	34	5972
2026-01-23 16:40:02.38	88.01	73.40	-30.7	-31.4	29.1	0.00e+00	0	41	0	2287992832	34	5979
2026-01-23 16:40:03.39	89.67	73.56	-30.5	-31.1	29.4	0.00e+00	0	41	0	2293235712	34	5776
2026-01-23 16:40:04.40	91.36	73.72	-30.5	-31.0	29.3	0.00e+00	0	41	0	2299527168	34	5740
2026-01-23 16:40:05.41	93.09	73.86	-30.6	-31.2	29.1	0.00e+00	0	41	0	2304770048	34	5891
2026-01-23 16:40:06.42	94.84	73.98	-30.5	-31.1	29.4	0.00e+00	0	41	0	2311061504	34	5800
2026-01-23 16:40:07.43	96.62	74.09	-30.1	-30.7	29.5	0.00e+00	0	41	0	2316304384	34	5540
2026-01-23 16:40:08.44	98.43	74.19	-30.2	-30.8	29.5	0.00e+00	0	41	0	2322595840	34	5605
2026-01-23 16:40:09.45	100.26	74.27	-30.4	-31.0	29.4	0.00e+00	0	41	0	2327838720	34	5744
2026-01-23 16:40:10.46	102.11	74.33	-30.4	-30.9	29.4	0.00e+00	0	41	0	2333081600	34	5688
2026-01-23 16:40:11.47	103.97	74.38	-30.7	-31.3	29.2	0.00e+00	0	41	0	2339373056	34	5942
2026-01-23 16:40:12.48	105.84	74.42	-30.5	-31.1	29.2	0.00e+00	0	41	0	2344615936	34	5781
2026-01-23 16:40:13.49	107.71	74.44	-30.4	-31.0	29.4	0.00e+00	0	41	0	2349858816	34	5705
2026-01-23 16:40:14.50	109.59	74.44	-30.6	-31.2	29.1	0.00e+00	0	41	0	2356150272	34	5885
2026-01-23 16:40:15.50	111.45	74.42	-30.5	-31.2	29.2	0.00e+00	0	41	0	2361393152	34	5831
2026-01-23 16:40:16.51	113.33	74.40	-30.2	-30.8	29.5	0.00e+00	0	41	0	2367684608	34	5591
2026-01-23 16:40:17.52	115.19	74.35	-30.1	-30.6	29.4	0.00e+00	0	41	0	2372927488	34	5479
2026-01-23 16:40:18.53	117.04	74.29	-30.1	-30.7	29.3	0.00e+00	0	41	0	2378170368	34	5504
2026-01-23 16:40:19.54	118.88	74.21	-30.3	-31.0	29.1	0.00e+00	0	41	0	2384461824	34	5703
2026-01-23 16:40:20.55	120.69	74.12	-30.5	-31.1	29.1	0.00e+00	0	41	0	2389704704	34	5819
2026-01-23 16:40:21.55	122.46	74.01	-30.6	-31.2	29.1	0.00e+00	0	41	0	2395996160	34	5855
2026-01-23 16:40:22.56	124.23	73.89	-30.7	-31.2	29.2	0.00e+00	0	41	0	2401239040	34	5880
2026-01-23 16:40:23.58	125.98	73.76	-30.8	-31.4	28.9	0.00e+00	0	41	0	2407530496	34	6009
2026-01-23 16:40:24.59	127.68	73.61	-30.9	-31.5	28.9	0.00e+00	0	41	0	2412773376	34	6060
2026-01-23 16:40:25.60	129.35	73.44	-30.5	-31.2	29.2	0.00e+00	0	41	0	2419064832	34	5832
2026-01-23 16:40:26.61	130.99	73.27	-30.4	-31.0	29.3	0.00e+00	0	41	0	2424307712	34	5716
2026-01-23 16:40:27.62	132.58	73.08	-30.5	-31.1	29.3	0.00e+00	0	41	0	2429550592	34	5795
2026-01-23 16:40:28.63	134.15	72.88	-30.4	-31.0	29.3	0.00e+00	0	41	0	2435842048	34	5733
2026-01-23 16:40:29.64	135.67	72.67	-30.5	-31.1	29.1	0.00e+00	0	41	0	2441084928	34	5822
2026-01-23 16:40:30.65	137.15	72.45	-30.8	-31.3	29.0	0.00e+00	0	41	0	2447376384	34	5917
2026-01-23 16:40:31.66	138.59	72.22	-30.9	-31.6	28.9	0.00e+00	0	41	0	2452619264	34	6126
2026-01-23 16:40:32.67	139.99	71.97	-31.0	-31.7	28.8	0.00e+00	0	41	0	2457862144	34	6181
2026-01-23 16:40:33.68	141.36	71.72	-30.9	-31.5	28.9	0.00e+00	0	41	0	2464153600	34	6045
2026-01-23 16:40:34.69	142.68	71.46	-31.1	-31.7	28.8	0.00e+00	0	41	0	2469396480	34	6226
2026-01-23 16:40:35.70	143.96	71.19	-31.4	-31.9	28.7	0.00e+00	0	41	0	2475687936	34	6372
2026-01-23 16:40:36.71	145.21	70.92	-31.1	-31.8	28.8	0.00e+00	0	41	0	2480930816	34	6256
2026-01-23 16:40:37.72	146.42	70.63	-31.2	-31.9	28.8	0.00e+00	0	41	0	2486173696	34	6318
2026-01-23 16:40:38.73	147.59	70.34	-31.4	-32.0	28.6	0.00e+00	0	41	0	2492465152	34	6403
2026-01-23 16:40:39.74	148.72	70.05	-31.3	-31.9	28.7	0.00e+00	0	41	0	2497708032	34	6373
2026-01-23 16:40:40.75	149.82	69.74	-31.2	-31.9	28.7	0.00e+00	0	41	0	2503999488	34	6339
2026-01-23 16:40:41.75	150.87	69.44	-31.0	-31.6	28.8	0.00e+00	0	41	0	2509242368	34	6152
2026-01-23 16:40:42.77	151.91	69.12	-31.0	-31.6	28.8	0.00e+00	0	41	0	2515533824	34	6163
2026-01-23 16:40:43.77	152.90	68.80	-31.2	-31.8	28.7	0.00e+00	0	41	0	2520776704	34	6289
2026-01-23 16:40:44.79	153.87	68.48	-31.0	-31.5	28.8	0.00e+00	0	41	0	2526019584	34	6061
2026-01-23 16:40:45.79	154.79	68.15	-31.1	-31.8	28.8	0.00e+00	0	41	0	2532311040	34	6295
2026-01-23 16:40:46.81	155.70	67.82	-31.4	-32.0	28.5	0.00e+00	0	41	0	2537553920	34	6410
2026-01-23 16:40:47.82	156.58	67.48	-31.6	-32.3	28.4	0.00e+00	0	41	0	2543845376	34	6617
2026-01-23 16:40:48.83	157.43	67.14	-31.6	-32.3	28.5	0.00e+00	0	41	0	2549088256	34	6646
2026-01-23 16:40:49.84	158.24	66.80	-31.2	-31.9	28.8	0.00e+00	0	41	0	2554331136	34	6329
2026-01-23 16:40:50.85	159.04	66.46	-31.1	-31.6	28.8	0.00e+00	0	41	0	2560622592	34	6146
2026-01-23 16:40:51.86	159.81	66.11	-31.1	-31.7	28.7	0.00e+00	0	41	0	2565865472	34	6215
2026-01-23 16:40:52.87	160.55	65.76	-31.0	-31.6	28.8	0.00e+00	0	41	0	2572156928	34	6131
2026-01-23 16:40:53.88	161.27	65.41	-31.1	-31.7	28.8	0.00e+00	0	41	0	2577399808	34	6177
2026-01-23 16:40:54.89	161.97	65.06	-31.2	-31.8	28.7	0.00e+00	0	41	0	2582642688	34	6261
2026-01-23 16:40:55.90	162.65	64.70	-31.4	-31.9	28.5	0.00e+00	0	41	0	2588934144	34	6371
2026-01-23 16:40:56.91	163.30	64.35	-31.3	-31.8	28.8	0.00e+00	0	41	0	2594177024	34	6303
2026-01-23 16:40:57.92	163.94	63.99	-31.4	-32.0	28.5	0.00e+00	0	41	0	2600468480	34	6400
2026-01-23 16:40:58.93	164.56	63.63	-31.4	-31.9	28.6	0.00e+00	0	41	0	2605711360	34	6357
2026-01-23 16:40:59.94	165.16	63.27	-31.0	-31.6	28.8	0.00e+00	0	41	0	2612002816	34	6123
2026-01-23 16:41:00.95	165.74	62.92	-31.2	-31.8	28.6	0.00e+00	0	41	0	2617245696	34	6299
2026-01-23 16:41:01.96	166.30	62.56	-31.4	-31.9	28.5	0.00e+00	0	41	0	2623537152	34	6371
2026-01-23 16:41:02.97	166.85	62.19	-31.7	-32.4	28.3	0.00e+00	0	41	0	2628780032	34	6701
2026-01-23 16:41:03.98	167.38	61.83	-31.7	-32.4	28.4	0.00e+00	0	41	0	2634022912	36	5987
2026-01-23 16:41:04.99	167.90	61.47	-31.4	-32.0	28.6	0.00e+00	0	41	0	2640314368	36	5704
2026-01-23 16:41:06.00	168.40	61.11	-31.6	-32.1	28.5	0.00e+00	0	41	0	2645557248	36	5797
2026-01-23 16:41:07.01	168.89	60.75	-31.9	-32.5	28.2	0.00e+00	0	41	0	2651848704	36	6053
2026-01-23 16:41:08.02	169.36	60.39	-32.2	-32.9	28.0	0.00e+00	0	41	0	2657091584	36	6349
2026-01-23 16:41:09.03	169.82	60.03	-32.2	-32.8	28.0	0.00e+00	0	41	0	2662334464	36	6263
2026-01-23 16:41:10.04	170.27	59.67	-32.0	-32.5	28.2	0.00e+00	0	41	0	2668625920	36	6076
2026-01-23 16:41:11.05	170.71	59.31	-32.1	-32.7	28.1	0.00e+00	0	40	0	2673868800	36	6183
2026-01-23 16:41:12.06	171.13	58.96	-32.3	-33.0	27.9	0.00e+00	0	41	0	2680160256	36	6453
2026-01-23 16:41:13.07	171.54	58.60	-32.2	-32.9	27.9	0.00e+00	0	41	0	2685403136	36	6356
2026-01-23 16:41:14.08	171.95	58.24	-32.2	-32.7	28.0	0.00e+00	0	41	0	2690646016	36	6240
2026-01-23 16:41:15.09	172.34	57.89	-32.6	-33.1	27.6	0.00e+00	0	41	0	2696937472	36	6523
2026-01-23 16:41:16.10	172.72	57.53	-32.8	-33.4	27.5	0.00e+00	0	40	0	2702180352	36	6693
2026-01-23 16:41:17.11	173.09	57.18	-32.8	-33.3	27.6	0.00e+00	0	41	0	2708471808	38	5940
2026-01-23 16:41:18.12	173.46	56.83	-32.8	-33.5	27.5	0.00e+00	0	41	0	2713714688	38	6084
2026-01-23 16:41:19.12	173.81	56.48	-33.1	-33.8	27.2	0.00e+00	0	41	0	2720006144	38	6294
2026-01-23 16:41:20.13	174.15	56.13	-33.1	-33.7	27.2	0.00e+00	0	41	0	2725249024	38	6216
2026-01-23 16:41:21.14	174.49	55.78	-32.9	-33.6	27.5	0.00e+00	0	41	0	2731540480	38	6145
2026-01-23 16:41:22.15	174.82	55.43	-32.8	-33.5	27.5	0.00e+00	0	41	0	2736783360	38	6090
2026-01-23 16:41:23.17	175.14	55.08	-32.8	-33.4	27.5	0.00e+00	0	40	0	2742026240	38	5996
2026-01-23 16:41:24.18	175.45	54.74	-32.8	-33.3	27.6	0.00e+00	0	41	0	2748317696	38	5938
2026-01-23 16:41:25.19	175.76	54.39	-32.5	-33.2	27.7	0.00e+00	0	40	0	2753560576	38	5840
2026-01-23 16:41:26.19	176.05	54.05	-32.6	-33.1	27.5	0.00e+00	0	41	0	2759852032	38	5802
2026-01-23 16:41:27.20	176.35	53.71	-32.6	-33.2	27.6	0.00e+00	0	41	0	2765094912	38	5836
2026-01-23 16:41:28.22	176.63	53.37	-32.8	-33.3	27.4	0.00e+00	0	41	0	2770337792	38	5948
2026-01-23 16:41:29.23	176.91	53.03	-32.8	-33.4	27.3	0.00e+00	0	40	0	2776629248	38	6022
2026-01-23 16:41:30.24	177.18	52.70	-32.6	-33.3	27.6	0.00e+00	0	40	0	2781872128	38	5948
2026-01-23 16:41:31.25	177.45	52.36	-32.5	-33.2	27.7	0.00e+00	0	41	0	2788163584	38	5857
2026-01-23 16:41:32.26	177.71	52.03	-32.4	-33.1	27.3	0.00e+00	0	41	0	2793406464	38	5772
2026-01-23 16:41:33.27	177.96	51.70	-32.4	-33.0	27.6	0.00e+00	0	41	0	2798649344	38	5729
2026-01-23 16:41:34.28	178.21	51.37	-32.9	-33.5	27.3	0.00e+00	0	40	0	2804940800	38	6056
2026-01-23 16:41:35.29	178.46	51.04	-33.2	-33.8	27.1	0.00e+00	0	40	0	2810183680	38	6294
2026-01-23 16:41:36.30	178.70	50.72	-33.2	-33.9	27.1	0.00e+00	0	41	0	2816475136	38	6323
2026-01-23 16:41:37.31	178.93	50.39	-32.9	-33.6	27.4	0.00e+00	0	40	0	2821718016	38	6153
2026-01-23 16:41:38.32	179.16	50.07	-32.5	-33.0	27.8	0.00e+00	0	40	0	2828009472	38	5730
2026-01-23 16:41:39.33	179.38	49.75	-32.0	-32.5	28.1	0.00e+00	0	41	0	2833252352	38	5417
2026-01-23 16:41:40.34	179.60	49.43	-32.2	-32.7	28.0	0.00e+00	0	41	0	2839543808	38	5551
2026-01-23 16:41:41.35	179.82	49.12	-32.3	-33.0	27.9	0.00e+00	0	40	0	2844786688	38	5710
2026-01-23 16:41:42.36	180.03	48.80	-32.2	-32.8	28.0	0.00e+00	0	41	0	2850029568	38	5586
2026-01-23 16:41:43.37	180.23	48.49	-32.0	-32.7	28.2	0.00e+00	0	40	0	2856321024	38	5504
2026-01-23 16:41:44.38	180.44	48.18	-31.8	-32.5	28.3	0.00e+00	0	40	0	2861563904	36	6036
2026-01-23 16:41:45.39	180.64	47.87	-31.8	-32.5	28.4	0.00e+00	0	40	0	2867855360	36	6047
2026-01-23 16:41:46.40	180.83	47.56	-31.8	-32.5	28.3	0.00e+00	0	40	0	2873098240	36	6069
2026-01-23 16:41:47.41	181.02	47.26	-32.0	-32.7	28.2	0.00e+00	0	40	0	2878341120	36	6183
2026-01-23 16:41:48.42	181.21	46.95	-32.0	-32.6	28.1	0.00e+00	0	40	0	2884632576	36	6120
2026-01-23 16:41:49.43	181.39	46.65	-32.0	-32.6	28.1	0.00e+00	0	40	0	2889875456	36	6121
2026-01-23 16:41:50.44	181.57	46.35	-32.0	-32.7	28.1	0.00e+00	0	41	0	2896166912	36	6184
2026-01-23 16:41:51.45	181.75	46.05	-32.0	-32.7	28.1	0.00e+00	0	40	0	2901409792	36	6198
2026-01-23 16:41:52.46	181.93	45.76	-32.0	-32.6	28.2	0.00e+00	0	40	0	2906652672	36	6123
2026-01-23 16:41:53.47	182.10	45.46	-32.0	-32.5	28.2	0.00e+00	0	40	0	2912944128	36	6103
2026-01-23 16:41:54.48	182.26	45.17	-31.8	-32.4	28.2	0.00e+00	0	40	0	2918187008	36	5985
2026-01-23 16:41:55.50	182.43	44.88	-31.9	-32.5	28.2	0.00e+00	0	41	0	2924478464	36	6041
2026-01-23 16:41:56.51	182.59	44.59	-31.8	-32.3	28.3	0.00e+00	0	40	0	2929721344	36	5936
2026-01-23 16:41:57.51	182.75	44.30	-31.8	-32.5	28.3	0.00e+00	0	41	0	2936012800	36	6044
2026-01-23 16:41:58.52	182.91	44.02	-31.6	-32.2	28.4	0.00e+00	0	40	0	2941255680	36	5845
2026-01-23 16:41:59.54	183.06	43.73	-31.6	-32.3	28.4	0.00e+00	0	40	0	2946498560	36	5904
2026-01-23 16:42:00.55	183.21	43.45	-31.6	-32.2	28.4	0.00e+00	0	40	0	2952790016	36	5829
2026-01-23 16:42:01.56	183.36	43.17	-31.6	-32.2	28.3	0.00e+00	0	40	0	2958032896	36	5857
2026-01-23 16:42:02.57	183.51	42.90	-31.7	-32.2	28.4	0.00e+00	0	41	0	2964324352	36	5858
2026-01-23 16:42:03.58	183.65	42.62	-31.8	-32.4	28.3	0.00e+00	0	41	0	2969567232	36	5990
2026-01-23 16:42:04.59	183.79	42.35	-31.8	-32.4	28.1	0.00e+00	0	40	0	2974810112	36	5991
2026-01-23 16:42:05.60	183.93	42.07	-31.9	-32.4	28.2	0.00e+00	0	41	0	2981101568	36	6033
2026-01-23 16:42:06.61	184.07	41.80	-31.7	-32.4	28.4	0.00e+00	0	40	0	2986344448	36	6014
2026-01-23 16:42:07.62	184.20	41.54	-31.7	-32.4	28.3	0.00e+00	0	40	0	2992635904	36	6021
2026-01-23 16:42:08.63	184.33	41.27	-31.7	-32.3	28.3	0.00e+00	0	40	0	2997878784	36	5931
2026-01-23 16:42:09.64	184.46	41.00	-31.5	-32.2	28.4	0.00e+00	0	40	0	3003121664	36	5867
2026-01-23 16:42:10.65	184.59	40.74	-31.6	-32.1	28.4	0.00e+00	0	41	0	3009413120	36	5828
2026-01-23 16:42:11.66	184.72	40.48	-31.2	-31.7	28.7	0.00e+00	0	41	0	3014656000	36	5534
2026-01-23 16:42:12.67	184.84	40.22	-31.0	-31.6	28.8	0.00e+00	0	41	0	3020947456	36	5447
2026-01-23 16:42:13.68	184.97	39.96	-30.9	-31.4	28.9	0.00e+00	0	40	0	3026190336	36	5336
2026-01-23 16:42:14.69	185.09	39.71	-30.9	-31.4	28.9	0.00e+00	0	41	0	3032481792	36	5341
2026-01-23 16:42:15.69	185.20	39.45	-30.8	-31.3	29.0	0.00e+00	0	40	0	3037724672	36	5309
2026-01-23 16:42:16.70	185.32	39.20	-31.0	-31.5	28.8	0.00e+00	0	40	0	3044016128	36	5422
2026-01-23 16:42:17.71	185.44	38.95	-31.1	-31.6	28.8	0.00e+00	0	40	0	3049259008	36	5468
2026-01-23 16:42:18.72	185.55	38.70	-31.3	-31.8	28.7	0.00e+00	0	40	0	3054501888	36	5599
2026-01-23 16:42:19.73	185.66	38.45	-31.3	-31.9	28.6	0.00e+00	0	40	0	3060793344	36	5664
2026-01-23 16:42:20.74	185.77	38.21	-31.3	-32.0	28.5	0.00e+00	0	40	0	3066036224	36	5711
2026-01-23 16:42:21.75	185.88	37.96	-31.4	-32.0	28.4	0.00e+00	0	41	0	3072327680	36	5716
2026-01-23 16:42:22.76	185.99	37.72	-31.3	-31.9	28.5	0.00e+00	0	40	0	3077570560	36	5651
2026-01-23 16:42:23.77	186.09	37.48	-31.3	-31.8	28.6	0.00e+00	0	41	0	3082813440	36	5625
2026-01-23 16:42:24.78	186.20	37.24	-31.3	-31.8	28.5	0.00e+00	0	41	0	3089104896	36	5591
2026-01-23 16:42:25.79	186.30	37.00	-31.2	-31.9	28.5	0.00e+00	0	41	0	3094347776	36	5683
2026-01-23 16:42:26.80	186.40	36.77	-31.4	-32.1	28.5	0.00e+00	0	40	0	3100639232	36	5795
2026-01-23 16:42:27.82	186.50	36.53	-31.4	-32.1	28.5	0.00e+00	0	40	0	3105882112	36	5767
2026-01-23 16:42:28.82	186.60	36.30	-31.4	-32.1	28.6	0.00e+00	0	41	0	3111124992	36	5762
2026-01-23 16:42:29.83	186.70	36.07	-31.5	-32.2	28.4	0.00e+00	0	41	0	3117416448	36	5858
2026-01-23 16:42:30.84	186.79	35.84	-31.5	-32.2	28.4	0.00e+00	0	41	0	3122659328	36	5859
2026-01-23 16:42:31.85	186.89	35.61	-31.6	-32.3	28.3	0.00e+00	0	41	0	3128950784	36	5918
2026-01-23 16:42:32.87	186.98	35.38	-31.6	-32.3	28.3	0.00e+00	0	41	0	3134193664	36	5915
2026-01-23 16:42:33.87	187.07	35.16	-31.5	-32.1	28.4	0.00e+00	0	41	0	3140485120	36	5795
2026-01-23 16:42:34.88	187.16	34.94	-31.6	-32.1	28.3	0.00e+00	0	41	0	3145728000	36	5811
2026-01-23 16:42:35.89	187.25	34.72	-31.5	-32.2	28.3	0.00e+00	0	41	0	3152019456	36	5877
2026-01-23 16:42:36.90	187.34	34.49	-31.5	-32.1	28.4	0.00e+00	0	41	0	3157262336	36	5828
2026-01-23 16:42:37.91	187.43	34.28	-31.5	-32.2	28.4	0.00e+00	0	40	0	3162505216	36	5870
2026-01-23 16:42:38.92	187.51	34.06	-31.7	-32.3	28.3	0.00e+00	0	41	0	3168796672	36	5902
2026-01-23 16:42:39.93	187.60	33.84	-31.5	-32.1	28.4	0.00e+00	0	41	0	3174039552	36	5773
2026-01-23 16:42:40.94	187.68	33.63	-31.6	-32.2	28.3	0.00e+00	0	40	0	3180331008	36	5834
2026-01-23 16:42:41.95	187.77	33.41	-31.5	-32.1	28.4	0.00e+00	0	40	0	3185573888	36	5778
2026-01-23 16:42:42.96	187.85	33.20	-31.5	-32.1	28.5	0.00e+00	0	41	0	3190816768	36	5765
2026-01-23 16:42:43.97	187.93	32.99	-31.6	-32.1	28.4	0.00e+00	0	41	0	3197108224	36	5793
2026-01-23 16:42:44.98	188.01	32.78	-31.4	-32.0	28.4	0.00e+00	0	41	0	3202351104	36	5709
2026-01-23 16:42:45.99	188.09	32.57	-31.4	-32.1	28.4	0.00e+00	0	41	0	3208642560	36	5788
2026-01-23 16:42:47.00	188.17	32.37	-31.5	-32.1	28.4	0.00e+00	0	41	0	3213885440	36	5827
2026-01-23 16:42:48.01	188.24	32.16	-31.4	-32.1	28.3	0.00e+00	0	40	0	3219128320	36	5796
2026-01-23 16:42:49.02	188.32	31.96	-31.4	-32.0	28.4	0.00e+00	0	40	0	3225419776	36	5707
2026-01-23 16:42:50.03	188.40	31.76	-31.4	-31.9	28.5	0.00e+00	0	40	0	3230662656	36	5693
2026-01-23 16:42:51.04	188.47	31.56	-31.4	-32.0	28.4	0.00e+00	0	40	0	3236954112	36	5718
2026-01-23 16:42:52.05	188.54	31.36	-31.6	-32.1	28.3	0.00e+00	0	40	0	3242196992	36	5811
2026-01-23 16:42:53.06	188.62	31.16	-31.5	-32.1	28.4	0.00e+00	0	41	0	3248488448	36	5775
2026-01-23 16:42:54.07	188.69	30.96	-31.6	-32.2	28.3	0.00e+00	0	41	0	3253731328	36	5847
2026-01-23 16:42:55.08	188.76	30.77	-31.7	-32.2	28.3	0.00e+00	0	41	0	3258974208	36	5870
2026-01-23 16:42:56.09	188.83	30.57	-31.6	-32.2	28.3	0.00e+00	0	41	0	3265265664	36	5855
2026-01-23 16:42:57.10	188.90	30.38	-31.7	-32.2	28.3	0.00e+00	0	41	0	3270508544	36	5894
2026-01-23 16:42:58.10	188.97	30.19	-31.7	-32.3	28.2	0.00e+00	0	41	0	3276800000	36	5899
2026-01-23 16:42:59.11	189.04	30.00	-31.8	-32.3	28.2	0.00e+00	0	41	0	3282042880	36	5935
2026-01-23 16:43:00.12	189.10	29.81	-31.9	-32.5	28.0	0.00e+00	0	41	0	3287285760	36	6056
2026-01-23 16:43:01.13	189.17	29.62	-31.8	-32.3	28.3	0.00e+00	0	41	0	3293577216	36	5943
2026-01-23 16:43:02.14	189.24	29.43	-31.9	-32.4	28.1	0.00e+00	0	41	0	3298820096	36	6015
2026-01-23 16:43:03.15	189.30	29.25	-31.9	-32.4	28.1	0.00e+00	0	40	0	3305111552	36	6013
2026-01-23 16:43:04.16	189.37	29.06	-31.9	-32.4	28.1	0.00e+00	0	41	0	3310354432	36	6008
2026-01-23 16:43:05.17	189.43	28.88	-31.8	-32.3	28.2	0.00e+00	0	40	0	3315597312	36	5955
2026-01-23 16:43:06.19	189.49	28.70	-31.8	-32.3	28.2	0.00e+00	0	41	0	3321888768	36	5933
2026-01-23 16:43:07.19	189.55	28.52	-31.9	-32.4	28.1	0.00e+00	0	40	0	3327131648	36	6016
2026-01-23 16:43:08.21	189.62	28.33	-31.8	-32.4	28.2	0.00e+00	0	41	0	3333423104	36	5993
2026-01-23 16:43:09.21	189.68	28.16	-31.9	-32.6	28.1	0.00e+00	0	41	0	3338665984	36	6155
2026-01-23 16:43:10.23	189.74	27.98	-31.8	-32.5	28.1	0.00e+00	0	41	0	3344957440	36	6084
2026-01-23 16:43:11.23	189.80	27.80	-31.8	-32.5	28.1	0.00e+00	0	40	0	3350200320	36	6081
2026-01-23 16:43:12.25	189.86	27.62	-31.8	-32.5	28.1	0.00e+00	0	41	0	3356491776	36	6085
2026-01-23 16:43:13.26	189.92	27.45	-31.9	-32.4	28.1	0.00e+00	0	40	0	3361734656	36	6006
2026-01-23 16:43:14.27	189.97	27.28	-31.8	-32.3	28.2	0.00e+00	0	41	0	3366977536	36	5963
2026-01-23 16:43:15.28	190.03	27.10	-31.8	-32.4	28.2	0.00e+00	0	40	0	3373268992	36	6004
2026-01-23 16:43:16.29	190.09	26.93	-31.9	-32.4	28.1	0.00e+00	0	40	0	3378511872	36	6022
2026-01-23 16:43:17.30	190.14	26.76	-31.9	-32.5	27.9	0.00e+00	0	41	0	3384803328	36	6050
2026-01-23 16:43:18.31	190.20	26.59	-31.9	-32.6	28.1	0.00e+00	0	41	0	3390046208	36	6138
2026-01-23 16:43:19.32	190.26	26.43	-31.8	-32.4	28.0	0.00e+00	0	41	0	3395289088	36	5993
2026-01-23 16:43:20.33	190.31	26.26	-32.1	-32.6	27.9	0.00e+00	0	41	0	3401580544	36	6156
2026-01-23 16:43:21.34	190.36	26.09	-31.8	-32.4	28.1	0.00e+00	0	41	0	3406823424	36	5976
2026-01-23 16:43:22.35	190.42	25.93	-31.8	-32.3	28.1	0.00e+00	0	40	0	3413114880	36	5954
2026-01-23 16:43:23.36	190.47	25.76	-31.8	-32.5	28.1	0.00e+00	0	40	0	3418357760	36	6037
2026-01-23 16:43:24.37	190.52	25.60	-31.9	-32.6	28.1	0.00e+00	0	41	0	3423600640	36	6122
2026-01-23 16:43:25.38	190.57	25.44	-31.8	-32.5	28.1	0.00e+00	0	41	0	3429892096	36	6086
2026-01-23 16:43:26.39	190.63	25.28	-31.9	-32.6	28.1	0.00e+00	0	41	0	3435134976	36	6151
2026-01-23 16:43:27.40	190.68	25.12	-32.0	-32.7	28.0	0.00e+00	0	41	0	3441426432	36	6201
2026-01-23 16:43:28.41	190.73	24.96	-31.9	-32.6	28.1	0.00e+00	0	41	0	3446669312	36	6117
2026-01-23 16:43:29.42	190.78	24.80	-32.0	-32.7	28.0	0.00e+00	0	41	0	3452960768	36	6178
2026-01-23 16:43:30.43	190.83	24.64	-32.0	-32.7	28.0	0.00e+00	0	40	0	3458203648	36	6194
2026-01-23 16:43:31.44	190.88	24.48	-32.0	-32.7	28.0	0.00e+00	0	41	0	3464495104	36	6220
2026-01-23 16:43:32.45	190.93	24.33	-32.1	-32.7	27.9	0.00e+00	0	41	0	3469737984	36	6185
2026-01-23 16:43:33.46	190.97	24.17	-32.1	-32.6	28.0	0.00e+00	0	41	0	3474980864	36	6155
2026-01-23 16:43:34.47	191.02	24.02	-32.3	-32.8	27.8	0.00e+00	0	40	0	3481272320	36	6287
2026-01-23 16:43:35.48	191.07	23.87	-32.2	-32.8	27.8	0.00e+00	0	41	0	3486515200	36	6275
2026-01-23 16:43:36.49	191.12	23.71	-32.3	-32.9	27.8	0.00e+00	0	40	0	3492806656	36	6333
2026-01-23 16:43:37.50	191.16	23.56	-32.3	-32.8	27.8	0.00e+00	0	41	0	3498049536	36	6297
2026-01-23 16:43:38.51	191.21	23.41	-32.4	-33.0	27.7	0.00e+00	0	41	0	3503292416	36	6426
2026-01-23 16:43:39.52	191.26	23.26	-32.4	-33.0	27.6	0.00e+00	0	41	0	3509583872	36	6429
2026-01-23 16:43:40.53	191.30	23.11	-32.5	-33.0	27.6	0.00e+00	0	41	0	3514826752	36	6463
2026-01-23 16:43:41.54	191.35	22.97	-32.5	-33.1	27.6	0.00e+00	0	41	0	3521118208	36	6472
2026-01-23 16:43:42.55	191.39	22.82	-32.6	-33.1	27.6	0.00e+00	0	41	0	3526361088	36	6517
2026-01-23 16:43:43.56	191.43	22.67	-32.6	-33.1	27.6	0.00e+00	0	41	0	3531603968	36	6532
2026-01-23 16:43:44.57	191.48	22.53	-32.6	-33.2	27.5	0.00e+00	0	41	0	3537895424	36	6567
2026-01-23 16:43:45.58	191.52	22.38	-32.7	-33.2	27.5	0.00e+00	0	41	0	3543138304	38	5893
2026-01-23 16:43:46.59	191.56	22.24	-32.8	-33.4	27.4	0.00e+00	0	41	0	3549429760	38	5982
2026-01-23 16:43:47.60	191.61	22.10	-32.6	-33.4	27.5	0.00e+00	0	41	0	3554672640	38	5967
2026-01-23 16:43:48.61	191.65	21.95	-32.7	-33.4	27.3	0.00e+00	0	41	0	3560964096	38	5999
2026-01-23 16:43:49.62	191.69	21.81	-32.7	-33.5	27.4	0.00e+00	0	41	0	3566206976	38	6046
2026-01-23 16:43:50.63	191.73	21.67	-33.0	-33.7	27.3	0.00e+00	0	41	0	3571449856	38	6196
2026-01-23 16:43:51.64	191.77	21.53	-32.8	-33.5	27.4	0.00e+00	0	41	0	3577741312	38	6051
2026-01-23 16:43:52.65	191.82	21.39	-32.9	-33.6	27.3	0.00e+00	0	41	0	3582984192	38	6154
2026-01-23 16:43:53.66	191.86	21.26	-32.9	-33.4	27.3	0.00e+00	0	41	0	3589275648	38	6029
2026-01-23 16:43:54.67	191.90	21.12	-33.0	-33.7	27.1	0.00e+00	0	41	0	3594518528	38	6236
2026-01-23 16:43:55.68	191.94	20.98	-32.8	-33.5	27.3	0.00e+00	0	41	0	3599761408	38	6103
2026-01-23 16:43:56.69	191.98	20.84	-32.8	-33.5	27.3	0.00e+00	0	41	0	3606052864	38	6076
2026-01-23 16:43:57.70	192.02	20.71	-32.8	-33.5	27.4	0.00e+00	0	41	0	3611295744	38	6100
2026-01-23 16:43:58.71	192.06	20.57	-33.0	-33.7	27.2	0.00e+00	0	41	0	3617587200	38	6198
2026-01-23 16:43:59.72	192.09	20.44	-33.0	-33.5	27.2	0.00e+00	0	41	0	3622830080	38	6103
2026-01-23 16:44:00.73	192.13	20.31	-32.9	-33.5	27.2	0.00e+00	0	41	0	3628072960	38	6058
2026-01-23 16:44:01.74	192.17	20.17	-32.9	-33.5	27.3	0.00e+00	0	41	0	3634364416	38	6049
2026-01-23 16:44:02.75	192.21	20.04	-32.9	-33.5	27.3	0.00e+00	0	41	0	3639607296	38	6046
2026-01-23 16:44:03.76	192.25	19.91	-32.9	-33.5	27.3	0.00e+00	0	41	0	3645898752	38	6053
2026-01-23 16:44:04.77	192.28	19.78	-33.0	-33.6	27.2	0.00e+00	0	41	0	3651141632	38	6105
