passes_logs/2026/01/23/R4.6S_Anadyr/R4.6S_Anadyr__20260123_033342_SUOMI_NPP_rec.log

#Pass ID: 20260123_033342_SUOMI NPP
#Satellite: SUOMI NPP
#Configuration: NPP
#almurnet v.1.7.20251203
#Start time: 2026-01-23 03:33:44

#Version: 2.2.20231116
#Station: R4.6S_Anadyr
#Location: 177.4865 lon 64.73178 lat
#TLE: 1 37849U 11061A   26022.50498765  .00000208  00000+0  11976-3 0  9992
#TLE: 2 37849  98.7820 324.4892 0002275  50.8149 309.3229 14.19528284737775

#Time	Az	El	Level	Level2	SNR	BER	BlckErr	Temp	State	Recorded	gain1	gain2
2026-01-23 03:33:44.53	245.44	0.07	-51.0	-63.6	3.4	1.51e+00	0	38	0	0	60	52924
2026-01-23 03:33:45.54	245.54	0.11	-50.9	-66.2	3.6	1.51e+00	0	39	104	0	60	73737
2026-01-23 03:33:46.55	245.64	0.15	-50.7	-66.2	3.6	1.51e+00	0	39	104	0	60	73406
2026-01-23 03:33:47.56	245.74	0.19	-50.9	-66.1	3.6	1.51e+00	0	39	104	0	60	73096
2026-01-23 03:33:48.57	245.84	0.23	-50.9	-66.1	3.6	1.51e+00	0	40	104	0	60	73369
2026-01-23 03:33:49.58	245.94	0.27	-50.9	-66.2	3.6	1.51e+00	0	40	104	0	60	73552
2026-01-23 03:33:50.59	246.04	0.31	-51.0	-66.1	3.6	1.51e+00	0	40	104	0	60	73212
2026-01-23 03:33:51.60	246.14	0.35	-51.0	-66.2	3.6	1.51e+00	0	40	104	0	60	73533
2026-01-23 03:33:52.61	246.24	0.39	-51.0	-66.2	3.6	1.51e+00	0	40	104	0	60	74132
2026-01-23 03:33:53.62	246.34	0.43	-51.0	-66.2	3.6	1.51e+00	0	40	104	0	60	74103
2026-01-23 03:33:54.63	246.44	0.47	-50.9	-66.3	3.6	1.51e+00	0	40	104	0	60	74426
2026-01-23 03:33:55.64	246.54	0.51	-51.0	-66.3	3.6	1.51e+00	0	40	104	0	60	74858
2026-01-23 03:33:56.65	246.64	0.55	-51.1	-66.3	3.6	1.51e+00	0	40	104	0	60	74941
2026-01-23 03:33:57.66	246.74	0.59	-51.1	-66.3	3.6	1.51e+00	0	40	104	0	60	75000
2026-01-23 03:33:58.67	246.84	0.63	-51.1	-66.4	3.6	1.51e+00	0	40	104	0	60	75114
2026-01-23 03:33:59.68	246.95	0.67	-51.2	-66.4	3.6	1.51e+00	0	40	104	0	60	75506
2026-01-23 03:34:00.69	247.05	0.71	-51.1	-66.4	3.6	1.51e+00	0	40	104	0	60	75128
2026-01-23 03:34:01.70	247.15	0.75	-51.1	-66.3	3.6	1.51e+00	0	40	104	0	60	74927
2026-01-23 03:34:02.71	247.25	0.79	-51.1	-66.3	3.6	1.51e+00	0	40	104	0	60	74452
2026-01-23 03:34:03.72	247.36	0.82	-51.0	-66.2	3.6	1.51e+00	0	40	104	0	60	74117
2026-01-23 03:34:04.73	247.46	0.86	-51.0	-66.2	3.6	1.51e+00	0	40	104	0	60	74013
2026-01-23 03:34:05.74	247.56	0.90	-50.9	-66.1	3.6	1.51e+00	0	40	104	0	60	73242
2026-01-23 03:34:06.75	247.67	0.94	-50.8	-66.0	3.6	1.51e+00	0	40	104	0	60	72075
2026-01-23 03:34:07.76	247.77	0.98	-50.6	-65.8	3.6	1.51e+00	0	40	104	0	60	70726
2026-01-23 03:34:08.77	247.88	1.02	-50.4	-65.6	3.6	1.51e+00	0	40	104	0	60	68913
2026-01-23 03:34:09.78	247.98	1.06	-49.9	-65.1	3.6	1.51e+00	0	40	104	0	60	65180
2026-01-23 03:34:10.79	248.09	1.10	-49.5	-64.7	3.6	1.51e+00	0	40	104	0	60	62388
2026-01-23 03:34:11.80	248.19	1.14	-49.5	-64.7	3.6	1.51e+00	0	40	104	0	60	62136
2026-01-23 03:34:12.81	248.30	1.18	-49.5	-64.7	3.6	1.51e+00	0	40	104	0	60	61952
2026-01-23 03:34:13.82	248.40	1.22	-49.5	-64.7	3.6	1.51e+00	0	40	104	0	60	62000
2026-01-23 03:34:14.83	248.51	1.26	-49.5	-64.7	3.6	1.51e+00	0	40	104	0	60	62056
2026-01-23 03:34:15.84	248.61	1.30	-49.5	-64.7	3.6	1.51e+00	0	40	104	0	60	62018
2026-01-23 03:34:16.85	248.72	1.34	-49.5	-64.6	3.6	1.51e+00	0	40	104	0	60	61676
2026-01-23 03:34:17.86	248.83	1.37	-49.5	-64.7	3.6	1.51e+00	0	40	104	0	60	61920
2026-01-23 03:34:18.87	248.93	1.41	-49.5	-64.6	3.6	1.51e+00	0	40	104	0	60	61550
2026-01-23 03:34:19.88	249.04	1.45	-49.5	-64.7	3.6	1.51e+00	0	40	104	0	60	62051
2026-01-23 03:34:20.89	249.15	1.49	-49.5	-64.7	3.6	1.51e+00	0	40	104	0	60	61853
2026-01-23 03:34:21.90	249.26	1.53	-49.5	-64.7	3.5	1.51e+00	0	40	104	0	60	61981
2026-01-23 03:34:22.91	249.36	1.57	-49.5	-64.6	3.6	1.51e+00	0	40	104	0	60	61668
2026-01-23 03:34:23.92	249.47	1.61	-49.5	-64.6	3.6	1.51e+00	0	40	104	0	60	61691
2026-01-23 03:34:24.94	249.58	1.65	-49.5	-64.7	3.6	1.51e+00	0	40	104	0	60	61847
2026-01-23 03:34:25.94	249.69	1.69	-49.5	-64.7	3.6	1.51e+00	0	40	104	0	60	62163
2026-01-23 03:34:26.95	249.80	1.73	-49.5	-64.7	3.6	1.51e+00	0	40	104	0	60	61745
2026-01-23 03:34:27.96	249.91	1.76	-49.5	-64.6	3.6	1.51e+00	0	40	104	0	60	61690
2026-01-23 03:34:28.97	250.02	1.80	-49.5	-64.7	3.6	1.51e+00	0	40	104	0	60	61746
2026-01-23 03:34:29.98	250.13	1.84	-49.5	-64.6	3.6	1.51e+00	0	40	104	0	60	61698
2026-01-23 03:34:30.99	250.24	1.88	-49.5	-64.7	3.6	1.51e+00	0	40	104	0	60	61836
2026-01-23 03:34:32.01	250.35	1.92	-49.5	-64.6	3.6	1.51e+00	0	40	104	0	60	61653
2026-01-23 03:34:33.01	250.46	1.96	-49.5	-64.6	3.6	1.51e+00	0	40	104	0	60	61505
2026-01-23 03:34:34.02	250.57	2.00	-49.5	-64.5	3.6	1.51e+00	0	40	104	0	60	60967
2026-01-23 03:34:35.03	250.68	2.04	-49.5	-64.6	3.6	1.51e+00	0	40	104	0	60	61142
2026-01-23 03:34:36.04	250.79	2.07	-49.5	-64.7	3.6	1.51e+00	0	40	104	0	60	61751
2026-01-23 03:34:37.05	250.91	2.11	-49.5	-64.7	3.6	1.51e+00	0	40	104	0	60	61772
2026-01-23 03:34:38.06	251.02	2.15	-49.5	-64.6	3.6	1.51e+00	0	40	104	0	60	61632
2026-01-23 03:34:39.07	251.13	2.19	-49.5	-64.6	3.6	1.51e+00	0	40	104	0	60	61572
2026-01-23 03:34:40.08	251.24	2.23	-49.5	-64.7	3.5	1.51e+00	0	40	104	0	60	61835
2026-01-23 03:34:41.09	251.36	2.27	-49.5	-64.7	3.6	1.51e+00	0	40	104	0	60	61833
2026-01-23 03:34:42.10	251.47	2.30	-49.5	-64.7	3.5	1.51e+00	0	40	104	0	60	61791
2026-01-23 03:34:43.11	251.58	2.34	-49.5	-64.6	3.6	1.51e+00	0	40	104	0	60	61384
2026-01-23 03:34:44.12	251.70	2.38	-49.5	-64.5	3.6	1.51e+00	0	40	104	0	60	61002
2026-01-23 03:34:45.13	251.81	2.42	-49.5	-64.4	3.6	1.51e+00	0	40	104	0	60	59890
2026-01-23 03:34:46.14	251.93	2.46	-49.5	-64.4	3.6	1.51e+00	0	40	104	0	60	60212
2026-01-23 03:34:47.15	252.04	2.50	-49.5	-64.6	3.6	1.51e+00	0	40	104	0	60	61041
2026-01-23 03:34:48.16	252.16	2.53	-49.5	-64.7	3.6	1.51e+00	0	40	104	0	60	61780
2026-01-23 03:34:49.17	252.27	2.57	-49.5	-64.6	3.6	1.51e+00	0	40	104	0	60	61506
2026-01-23 03:34:50.18	252.39	2.61	-49.5	-64.4	3.6	1.51e+00	0	40	104	0	60	59688
2026-01-23 03:34:51.19	252.50	2.65	-49.5	-64.5	3.6	1.51e+00	0	40	104	0	60	60565
2026-01-23 03:34:52.20	252.62	2.69	-49.5	-64.6	3.6	1.51e+00	0	41	104	0	60	61134
2026-01-23 03:34:53.21	252.74	2.72	-49.4	-64.4	3.6	1.51e+00	0	40	104	0	60	59928
2026-01-23 03:34:54.22	252.85	2.76	-49.4	-63.8	3.6	1.51e+00	0	41	104	0	60	56004
2026-01-23 03:34:55.23	252.97	2.80	-49.4	-63.6	3.6	1.51e+00	0	40	104	0	60	54825
2026-01-23 03:34:56.24	253.09	2.84	-49.4	-63.9	3.6	1.51e+00	0	41	104	0	60	56917
2026-01-23 03:34:57.25	253.21	2.88	-49.4	-64.7	3.6	1.51e+00	0	41	104	0	60	61772
2026-01-23 03:34:58.26	253.32	2.91	-49.4	-63.2	3.6	1.51e+00	0	40	104	0	60	52529
2026-01-23 03:34:59.27	253.44	2.95	-49.1	-59.4	4.8	1.39e+00	0	41	104	0	60	33769
2026-01-23 03:35:00.28	253.56	2.99	-48.9	-56.6	6.1	4.08e-01	92	41	0	1048576	60	24435
2026-01-23 03:35:01.29	253.68	3.03	-48.4	-54.4	8.7	1.82e-01	0	41	0	2097152	60	18875
2026-01-23 03:35:02.30	253.80	3.06	-49.6	-64.3	3.6	1.51e+00	0	41	104	3145728	60	59590
2026-01-23 03:35:03.31	253.92	3.10	-49.3	-61.0	4.1	1.51e+00	0	41	104	3145728	60	40327
2026-01-23 03:35:04.32	254.04	3.14	-49.4	-63.0	3.6	1.47e+00	0	41	104	3145728	60	51327
2026-01-23 03:35:05.33	254.16	3.18	-49.3	-63.0	3.6	1.51e+00	0	41	104	3145728	60	51156
2026-01-23 03:35:06.34	254.28	3.21	-43.1	-44.7	17.9	1.46e+00	0	41	104	3145728	60	6175
2026-01-23 03:35:07.35	254.40	3.25	-43.2	-44.8	18.9	0.00e+00	92	41	0	3145728	60	6275
2026-01-23 03:35:08.36	254.52	3.29	-43.6	-45.3	18.3	0.00e+00	0	41	0	5242880	60	6644
2026-01-23 03:35:09.37	254.64	3.32	-43.7	-45.4	18.2	0.00e+00	91	41	0	7340032	60	6733
2026-01-23 03:35:10.38	254.76	3.36	-43.8	-45.6	18.0	0.00e+00	92	41	0	9437184	60	6858
2026-01-23 03:35:11.39	254.88	3.40	-44.0	-45.7	18.1	0.00e+00	75	41	0	10485760	60	6982
2026-01-23 03:35:12.40	255.00	3.44	-43.6	-45.3	18.5	0.00e+00	92	41	0	12582912	60	6642
2026-01-23 03:35:13.41	255.13	3.47	-43.1	-44.7	19.0	0.00e+00	0	41	0	14680064	60	6217
2026-01-23 03:35:14.42	255.25	3.51	-43.1	-44.6	19.2	0.00e+00	92	41	0	16777216	60	6129
2026-01-23 03:35:15.43	255.37	3.55	-43.1	-44.7	19.1	0.00e+00	0	41	0	18874368	60	6197
2026-01-23 03:35:16.44	255.50	3.58	-43.6	-45.3	18.5	0.00e+00	92	41	0	19922944	60	6639
2026-01-23 03:35:17.45	255.62	3.62	-42.8	-44.2	19.4	0.00e+00	90	41	0	22020096	58	6593
2026-01-23 03:35:18.46	255.74	3.66	-42.9	-44.4	19.4	0.00e+00	92	41	0	24117248	58	6701
2026-01-23 03:35:19.47	255.87	3.69	-43.2	-44.7	19.1	0.00e+00	92	41	0	26214400	58	6964
2026-01-23 03:35:20.48	255.99	3.73	-42.8	-44.3	19.5	0.00e+00	0	41	0	28311552	58	6652
2026-01-23 03:35:21.49	256.12	3.77	-43.4	-45.1	18.9	0.00e+00	90	41	0	29360128	58	7265
2026-01-23 03:35:22.49	256.24	3.80	-43.2	-44.7	19.1	0.00e+00	0	41	0	31457280	58	6981
2026-01-23 03:35:23.50	256.37	3.84	-42.7	-44.1	19.6	0.00e+00	90	41	0	33554432	58	6503
2026-01-23 03:35:24.51	256.49	3.87	-42.6	-44.1	19.7	0.00e+00	14	41	0	35651584	58	6474
2026-01-23 03:35:25.52	256.62	3.91	-42.7	-44.1	19.6	0.00e+00	92	41	0	37748736	58	6503
2026-01-23 03:35:26.53	256.74	3.95	-42.8	-44.3	19.4	0.00e+00	92	41	0	39845888	58	6652
2026-01-23 03:35:27.53	256.87	3.98	-43.2	-44.8	19.1	0.00e+00	0	41	0	40894464	58	7032
2026-01-23 03:35:28.54	256.99	4.02	-42.9	-44.3	19.4	0.00e+00	92	41	0	42991616	58	6677
2026-01-23 03:35:29.55	257.12	4.05	-42.9	-44.4	19.4	0.00e+00	0	41	0	45088768	58	6708
2026-01-23 03:35:30.56	257.25	4.09	-42.9	-44.3	19.5	0.00e+00	91	41	0	47185920	58	6668
2026-01-23 03:35:31.57	257.38	4.13	-43.0	-44.5	19.3	0.00e+00	0	41	0	49283072	58	6846
2026-01-23 03:35:32.58	257.50	4.16	-42.6	-44.0	19.8	0.00e+00	92	41	0	50331648	58	6411
2026-01-23 03:35:33.59	257.63	4.20	-42.7	-44.1	19.7	0.00e+00	92	41	0	52428800	58	6499
2026-01-23 03:35:34.60	257.76	4.23	-42.7	-44.1	19.7	0.00e+00	0	41	0	54525952	58	6520
2026-01-23 03:35:35.61	257.89	4.27	-42.5	-43.9	20.0	0.00e+00	91	41	0	56623104	58	6320
2026-01-23 03:35:36.62	258.02	4.30	-42.7	-44.1	19.7	0.00e+00	0	41	0	58720256	58	6497
2026-01-23 03:35:37.63	258.15	4.34	-42.2	-43.5	20.4	0.00e+00	92	41	0	59768832	58	6082
2026-01-23 03:35:38.65	258.28	4.38	-42.2	-43.5	20.2	0.00e+00	0	41	0	61865984	58	6088
2026-01-23 03:35:39.66	258.41	4.41	-42.7	-44.1	19.6	0.00e+00	91	41	0	63963136	58	6517
2026-01-23 03:35:40.66	258.54	4.45	-42.8	-44.2	19.5	0.00e+00	91	41	0	66060288	58	6590
2026-01-23 03:35:41.67	258.67	4.48	-42.6	-43.9	19.8	0.00e+00	0	41	0	68157440	58	6388
2026-01-23 03:35:42.67	258.80	4.52	-42.8	-44.3	19.6	0.00e+00	91	41	0	69206016	58	6646
2026-01-23 03:35:43.69	258.93	4.55	-42.4	-43.8	19.9	0.00e+00	0	41	0	71303168	58	6289
2026-01-23 03:35:44.70	259.06	4.59	-42.3	-43.6	20.2	0.00e+00	92	41	0	73400320	58	6127
2026-01-23 03:35:45.70	259.19	4.62	-42.7	-44.1	19.8	0.00e+00	0	41	0	75497472	58	6494
2026-01-23 03:35:46.71	259.33	4.66	-42.7	-44.1	19.7	0.00e+00	90	41	0	77594624	58	6534
2026-01-23 03:35:47.72	259.46	4.69	-42.8	-44.3	19.6	0.00e+00	92	41	0	78643200	58	6616
2026-01-23 03:35:48.73	259.59	4.72	-42.7	-44.1	19.7	0.00e+00	92	41	0	80740352	58	6502
2026-01-23 03:35:49.74	259.72	4.76	-42.9	-44.3	19.5	0.00e+00	92	41	0	82837504	58	6648
2026-01-23 03:35:50.75	259.86	4.79	-42.9	-44.4	19.5	0.00e+00	0	41	0	84934656	58	6716
2026-01-23 03:35:51.76	259.99	4.83	-42.7	-44.0	19.9	0.00e+00	90	41	0	87031808	58	6452
2026-01-23 03:35:52.76	260.12	4.86	-42.8	-44.3	19.6	0.00e+00	0	41	0	88080384	58	6638
2026-01-23 03:35:53.77	260.26	4.90	-43.0	-44.5	19.4	0.00e+00	92	41	0	90177536	58	6807
2026-01-23 03:35:54.78	260.39	4.93	-43.0	-44.5	19.4	0.00e+00	33	41	0	92274688	58	6822
2026-01-23 03:35:55.79	260.53	4.96	-42.9	-44.4	19.5	0.00e+00	92	41	0	94371840	58	6725
2026-01-23 03:35:56.80	260.66	5.00	-43.0	-44.4	19.5	0.00e+00	92	41	0	96468992	58	6769
2026-01-23 03:35:57.81	260.80	5.03	-42.9	-44.3	19.6	0.00e+00	0	41	0	97517568	58	6646
2026-01-23 03:35:58.82	260.93	5.07	-42.8	-44.2	19.8	0.00e+00	65	41	0	99614720	58	6585
2026-01-23 03:35:59.83	261.07	5.10	-43.0	-44.5	19.4	0.00e+00	0	41	0	101711872	58	6789
2026-01-23 03:36:00.84	261.21	5.13	-43.1	-44.6	19.4	0.00e+00	92	41	0	103809024	58	6863
2026-01-23 03:36:01.85	261.34	5.17	-42.7	-44.1	19.7	0.00e+00	70	41	0	105906176	58	6503
2026-01-23 03:36:02.86	261.48	5.20	-43.2	-44.7	19.4	0.00e+00	92	41	0	108003328	58	6930
2026-01-23 03:36:03.87	261.62	5.23	-43.1	-44.6	19.4	0.00e+00	92	41	0	109051904	58	6896
2026-01-23 03:36:04.88	261.75	5.27	-42.8	-44.2	19.8	0.00e+00	0	41	0	111149056	58	6548
2026-01-23 03:36:05.89	261.89	5.30	-43.2	-44.7	19.2	0.00e+00	90	41	0	113246208	58	6984
2026-01-23 03:36:06.90	262.03	5.33	-42.9	-44.3	19.7	0.00e+00	0	41	0	115343360	58	6663
2026-01-23 03:36:07.91	262.17	5.36	-43.1	-44.5	19.4	0.00e+00	92	41	0	117440512	58	6827
2026-01-23 03:36:08.92	262.31	5.40	-43.3	-44.8	19.3	0.00e+00	44	41	0	118489088	58	7070
2026-01-23 03:36:09.92	262.45	5.43	-43.0	-44.5	19.5	0.00e+00	92	41	0	120586240	58	6776
2026-01-23 03:36:10.93	262.59	5.46	-43.3	-44.8	19.2	0.00e+00	90	41	0	122683392	58	7068
2026-01-23 03:36:11.94	262.72	5.49	-43.3	-44.8	19.2	0.00e+00	0	41	0	124780544	58	7081
2026-01-23 03:36:12.95	262.86	5.53	-43.0	-44.5	19.5	0.00e+00	92	41	0	126877696	58	6787
2026-01-23 03:36:13.96	263.00	5.56	-42.9	-44.3	19.7	0.00e+00	0	41	0	127926272	58	6687
2026-01-23 03:36:14.97	263.15	5.59	-43.0	-44.4	19.7	0.00e+00	90	41	0	130023424	58	6724
2026-01-23 03:36:15.98	263.29	5.62	-42.7	-44.1	19.8	0.00e+00	0	41	0	132120576	58	6517
2026-01-23 03:36:16.99	263.43	5.66	-42.7	-44.0	20.1	0.00e+00	92	41	0	134217728	58	6453
2026-01-23 03:36:18.00	263.57	5.69	-42.7	-44.1	19.8	0.00e+00	92	41	0	136314880	58	6508
2026-01-23 03:36:19.01	263.71	5.72	-42.8	-44.2	19.8	0.00e+00	0	41	0	137363456	58	6546
2026-01-23 03:36:20.02	263.85	5.75	-42.6	-43.9	20.1	0.00e+00	90	41	0	139460608	58	6357
2026-01-23 03:36:21.02	263.99	5.78	-42.5	-43.9	20.1	0.00e+00	0	41	0	141557760	58	6337
2026-01-23 03:36:22.03	264.14	5.81	-42.6	-43.9	20.1	0.00e+00	90	41	0	143654912	58	6374
2026-01-23 03:36:23.04	264.28	5.85	-42.8	-44.1	19.6	0.00e+00	0	41	0	145752064	58	6529
2026-01-23 03:36:24.05	264.42	5.88	-42.7	-44.1	19.9	0.00e+00	92	41	0	146800640	58	6522
2026-01-23 03:36:25.06	264.57	5.91	-42.9	-44.4	19.7	0.00e+00	92	41	0	148897792	58	6700
2026-01-23 03:36:26.07	264.71	5.94	-43.9	-45.5	18.7	0.00e+00	15	41	0	150994944	60	6834
2026-01-23 03:36:27.08	264.85	5.97	-43.0	-44.4	19.7	0.00e+00	90	41	0	153092096	60	5996
2026-01-23 03:36:28.09	265.00	6.00	-42.9	-44.3	19.8	0.00e+00	0	41	0	155189248	60	5954
2026-01-23 03:36:29.10	265.14	6.03	-42.9	-44.3	19.9	0.00e+00	90	41	0	156237824	60	5939
2026-01-23 03:36:30.10	265.29	6.06	-42.6	-43.9	20.1	0.00e+00	0	41	0	158334976	58	6377
2026-01-23 03:36:31.11	265.43	6.09	-43.0	-44.4	19.7	0.00e+00	90	41	0	160432128	58	6695
2026-01-23 03:36:32.12	265.58	6.12	-43.0	-44.4	19.7	0.00e+00	41	41	0	162529280	58	6694
2026-01-23 03:36:33.13	265.72	6.15	-42.9	-44.3	19.8	0.00e+00	90	41	0	164626432	58	6633
2026-01-23 03:36:34.14	265.87	6.18	-43.2	-44.7	19.4	0.00e+00	92	41	0	165675008	58	6957
2026-01-23 03:36:35.15	266.02	6.21	-43.1	-44.5	19.7	0.00e+00	0	41	0	167772160	58	6788
2026-01-23 03:36:36.16	266.16	6.24	-43.3	-44.7	19.4	0.00e+00	87	41	0	169869312	58	6996
2026-01-23 03:36:37.17	266.31	6.27	-43.4	-44.9	19.4	0.00e+00	0	41	0	171966464	58	7113
2026-01-23 03:36:38.18	266.46	6.30	-43.0	-44.4	19.7	0.00e+00	92	41	0	174063616	58	6751
2026-01-23 03:36:39.19	266.60	6.33	-43.2	-44.7	19.4	0.00e+00	44	41	0	176160768	58	6943
2026-01-23 03:36:40.20	266.75	6.36	-43.3	-44.7	19.4	0.00e+00	92	41	0	177209344	58	6994
2026-01-23 03:36:41.21	266.90	6.39	-43.1	-44.5	19.6	0.00e+00	92	41	0	179306496	58	6825
2026-01-23 03:36:42.22	267.05	6.42	-43.0	-44.5	19.7	0.00e+00	0	41	0	181403648	58	6783
2026-01-23 03:36:43.23	267.20	6.45	-43.1	-44.6	19.6	0.00e+00	92	41	0	183500800	58	6865
2026-01-23 03:36:44.24	267.35	6.48	-43.0	-44.4	19.6	0.00e+00	0	41	0	185597952	58	6740
2026-01-23 03:36:45.25	267.49	6.50	-43.0	-44.4	19.8	0.00e+00	92	41	0	186646528	58	6699
2026-01-23 03:36:46.26	267.64	6.53	-42.7	-44.1	20.0	0.00e+00	0	41	0	188743680	58	6513
2026-01-23 03:36:47.27	267.79	6.56	-43.0	-44.4	19.7	0.00e+00	92	41	0	190840832	58	6752
2026-01-23 03:36:48.28	267.94	6.59	-43.2	-44.6	19.4	0.00e+00	92	41	0	192937984	58	6921
2026-01-23 03:36:49.29	268.09	6.62	-43.0	-44.5	19.6	0.00e+00	0	41	0	195035136	58	6789
2026-01-23 03:36:50.30	268.25	6.65	-43.0	-44.4	19.7	0.00e+00	92	41	0	196083712	58	6733
2026-01-23 03:36:51.31	268.40	6.67	-43.1	-44.5	19.7	0.00e+00	0	41	0	198180864	58	6796
2026-01-23 03:36:52.32	268.55	6.70	-43.1	-44.5	19.6	0.00e+00	92	41	0	200278016	58	6846
2026-01-23 03:36:53.33	268.70	6.73	-43.0	-44.4	19.8	0.00e+00	0	41	0	202375168	58	6760
2026-01-23 03:36:54.34	268.85	6.76	-43.1	-44.5	19.6	0.00e+00	92	41	0	204472320	58	6840
2026-01-23 03:36:55.35	269.00	6.78	-43.3	-44.8	19.4	0.00e+00	92	41	0	205520896	58	7036
2026-01-23 03:36:56.36	269.15	6.81	-42.9	-44.3	19.8	0.00e+00	0	41	0	207618048	58	6669
2026-01-23 03:36:57.37	269.31	6.84	-43.2	-44.6	19.6	0.00e+00	92	41	0	209715200	58	6900
2026-01-23 03:36:58.38	269.46	6.87	-43.5	-45.0	19.3	0.00e+00	0	41	0	211812352	58	7195
2026-01-23 03:36:59.39	269.61	6.89	-43.5	-45.0	19.3	0.00e+00	70	41	0	213909504	58	7176
2026-01-23 03:37:00.40	269.77	6.92	-43.5	-45.0	19.1	0.00e+00	0	41	0	214958080	58	7212
2026-01-23 03:37:01.40	269.92	6.94	-43.4	-44.9	19.3	0.00e+00	92	41	0	217055232	58	7150
2026-01-23 03:37:02.41	270.07	6.97	-43.4	-44.9	19.4	0.00e+00	67	41	0	219152384	58	7090
2026-01-23 03:37:03.42	270.23	7.00	-43.3	-44.8	19.3	0.00e+00	0	41	0	221249536	58	7027
2026-01-23 03:37:04.43	270.38	7.02	-43.3	-44.7	19.6	0.00e+00	92	41	0	223346688	58	6998
2026-01-23 03:37:05.44	270.54	7.05	-43.0	-44.4	19.8	0.00e+00	0	41	0	224395264	58	6743
2026-01-23 03:37:06.45	270.69	7.07	-42.9	-44.3	19.9	0.00e+00	92	41	0	226492416	58	6619
2026-01-23 03:37:07.46	270.85	7.10	-42.8	-44.2	19.9	0.00e+00	0	41	0	228589568	58	6557
2026-01-23 03:37:08.47	271.00	7.13	-42.8	-44.2	19.9	0.00e+00	92	41	0	230686720	58	6547
2026-01-23 03:37:09.48	271.16	7.15	-43.2	-44.7	19.5	0.00e+00	42	41	0	232783872	58	6935
2026-01-23 03:37:10.49	271.31	7.18	-43.2	-44.7	19.4	0.00e+00	0	41	0	233832448	58	6978
2026-01-23 03:37:11.50	271.47	7.20	-43.4	-44.9	19.3	0.00e+00	92	41	0	235929600	58	7153
2026-01-23 03:37:12.51	271.63	7.23	-43.6	-45.2	19.2	0.00e+00	0	41	0	238026752	58	7367
2026-01-23 03:37:13.52	271.78	7.25	-43.6	-45.2	19.1	0.00e+00	48	41	0	240123904	60	6559
2026-01-23 03:37:14.52	271.94	7.27	-43.8	-45.4	19.0	0.00e+00	0	41	0	242221056	60	6714
2026-01-23 03:37:15.54	272.10	7.30	-43.7	-45.2	19.1	0.00e+00	92	41	0	244318208	60	6575
2026-01-23 03:37:16.54	272.25	7.32	-43.8	-45.4	19.0	0.00e+00	41	41	0	245366784	60	6738
2026-01-23 03:37:17.56	272.41	7.35	-43.4	-44.9	19.4	0.00e+00	92	41	0	247463936	60	6367
2026-01-23 03:37:18.56	272.57	7.37	-43.7	-45.2	19.1	0.00e+00	92	41	0	249561088	60	6594
2026-01-23 03:37:19.58	272.73	7.40	-43.8	-45.4	18.9	0.00e+00	0	41	0	251658240	60	6737
2026-01-23 03:37:20.59	272.89	7.42	-43.6	-45.2	19.1	0.00e+00	92	41	0	253755392	60	6560
2026-01-23 03:37:21.60	273.05	7.44	-43.6	-45.1	18.9	0.00e+00	0	41	0	254803968	60	6528
2026-01-23 03:37:22.61	273.21	7.47	-43.4	-44.9	19.4	0.00e+00	92	41	0	256901120	60	6343
2026-01-23 03:37:23.62	273.36	7.49	-43.7	-45.2	19.1	0.00e+00	42	41	0	258998272	60	6594
2026-01-23 03:37:24.63	273.52	7.51	-43.6	-45.1	19.2	0.00e+00	92	41	0	261095424	60	6506
2026-01-23 03:37:25.63	273.68	7.53	-43.6	-45.1	19.4	0.00e+00	92	41	0	263192576	60	6481
2026-01-23 03:37:26.64	273.84	7.56	-43.3	-44.7	19.6	0.00e+00	0	41	0	264241152	60	6238
2026-01-23 03:37:27.65	274.00	7.58	-43.2	-44.7	19.7	0.00e+00	60	41	0	266338304	60	6182
2026-01-23 03:37:28.66	274.16	7.60	-43.2	-44.6	19.7	0.00e+00	0	41	0	268435456	60	6113
2026-01-23 03:37:29.67	274.32	7.62	-43.0	-44.3	19.9	0.00e+00	90	41	0	270532608	60	5953
2026-01-23 03:37:30.68	274.48	7.64	-42.9	-44.2	20.1	0.00e+00	17	41	0	272629760	60	5863
2026-01-23 03:37:31.69	274.65	7.67	-43.1	-44.5	19.8	0.00e+00	92	41	0	273678336	60	6092
2026-01-23 03:37:32.70	274.81	7.69	-43.6	-45.1	19.2	0.00e+00	91	41	0	275775488	60	6511
2026-01-23 03:37:33.71	274.97	7.71	-44.0	-45.6	18.7	0.00e+00	0	41	0	277872640	60	6924
2026-01-23 03:37:34.72	275.13	7.73	-44.4	-46.1	18.3	0.00e+00	45	41	0	279969792	60	7330
2026-01-23 03:37:35.73	275.29	7.75	-44.5	-46.2	18.1	0.00e+00	0	41	0	282066944	60	7409
2026-01-23 03:37:36.74	275.45	7.77	-44.6	-46.4	18.0	0.00e+00	92	41	0	283115520	60	7544
2026-01-23 03:37:37.75	275.62	7.79	-44.6	-46.4	18.1	0.00e+00	0	41	0	285212672	60	7563
2026-01-23 03:37:38.76	275.78	7.81	-44.6	-46.4	18.0	0.00e+00	91	41	0	287309824	60	7563
2026-01-23 03:37:39.77	275.94	7.83	-44.8	-46.6	17.9	0.00e+00	41	41	0	289406976	60	7771
2026-01-23 03:37:40.78	276.11	7.85	-44.7	-46.5	17.9	0.00e+00	0	41	0	291504128	60	7648
2026-01-23 03:37:41.79	276.27	7.87	-44.1	-45.7	18.8	0.00e+00	92	41	0	292552704	60	6987
2026-01-23 03:37:42.80	276.43	7.89	-44.0	-45.7	18.7	0.00e+00	0	41	0	294649856	60	6944
2026-01-23 03:37:43.81	276.60	7.91	-43.7	-45.2	19.2	0.00e+00	90	41	0	296747008	60	6585
2026-01-23 03:37:44.82	276.76	7.93	-43.6	-45.1	19.3	0.00e+00	0	41	0	298844160	60	6478
2026-01-23 03:37:45.83	276.92	7.95	-43.4	-44.9	19.4	0.00e+00	92	41	0	300941312	60	6359
2026-01-23 03:37:46.84	277.09	7.97	-43.0	-44.4	20.0	0.00e+00	92	41	0	301989888	60	6001
2026-01-23 03:37:47.85	277.25	7.99	-43.2	-44.7	19.7	0.00e+00	0	41	0	304087040	60	6204
2026-01-23 03:37:48.86	277.42	8.01	-43.3	-44.8	19.5	0.00e+00	92	41	0	306184192	60	6286
2026-01-23 03:37:49.87	277.58	8.03	-43.4	-44.9	19.5	0.00e+00	0	41	0	308281344	60	6337
2026-01-23 03:37:50.88	277.75	8.04	-43.2	-44.7	19.6	0.00e+00	92	41	0	310378496	60	6193
2026-01-23 03:37:51.89	277.91	8.06	-43.3	-44.8	19.6	0.00e+00	0	41	0	312475648	60	6258
2026-01-23 03:37:52.90	278.08	8.08	-43.2	-44.6	19.8	0.00e+00	92	41	0	313524224	60	6169
2026-01-23 03:37:53.91	278.24	8.10	-43.1	-44.4	19.9	0.00e+00	0	41	0	315621376	60	6022
2026-01-23 03:37:54.92	278.41	8.11	-43.0	-44.4	20.0	0.00e+00	90	41	0	317718528	60	5980
2026-01-23 03:37:55.93	278.58	8.13	-42.9	-44.3	20.0	0.00e+00	92	41	0	319815680	60	5923
2026-01-23 03:37:56.94	278.74	8.15	-43.2	-44.5	19.6	0.00e+00	0	41	0	321912832	60	6092
2026-01-23 03:37:57.95	278.91	8.17	-43.3	-44.8	19.6	0.00e+00	92	41	0	322961408	60	6248
2026-01-23 03:37:58.96	279.08	8.18	-43.5	-45.0	19.2	0.00e+00	0	41	0	325058560	60	6452
2026-01-23 03:37:59.96	279.24	8.20	-43.9	-45.5	19.0	0.00e+00	63	41	0	327155712	60	6808
2026-01-23 03:38:00.97	279.41	8.21	-43.9	-45.5	18.9	0.00e+00	0	41	0	329252864	60	6847
2026-01-23 03:38:01.98	279.58	8.23	-44.1	-45.7	18.7	0.00e+00	92	41	0	331350016	60	7007
2026-01-23 03:38:02.99	279.74	8.25	-43.8	-45.4	19.1	0.00e+00	72	41	0	332398592	60	6701
2026-01-23 03:38:04.00	279.91	8.26	-43.9	-45.4	19.0	0.00e+00	0	41	0	334495744	60	6750
2026-01-23 03:38:05.01	280.08	8.28	-43.3	-44.7	19.7	0.00e+00	92	41	0	336592896	60	6191
2026-01-23 03:38:06.02	280.25	8.29	-43.0	-44.3	20.0	0.00e+00	0	41	0	338690048	60	5944
2026-01-23 03:38:07.03	280.41	8.31	-42.7	-44.1	20.2	0.00e+00	92	41	0	340787200	58	6475
2026-01-23 03:38:08.04	280.58	8.32	-42.6	-43.9	20.4	0.00e+00	0	41	0	341835776	58	6323
2026-01-23 03:38:09.05	280.75	8.34	-42.8	-44.2	20.1	0.00e+00	90	41	0	343932928	58	6565
2026-01-23 03:38:10.06	280.92	8.35	-43.0	-44.3	19.9	0.00e+00	7	41	0	346030080	58	6677
2026-01-23 03:38:11.07	281.09	8.37	-43.0	-44.4	19.9	0.00e+00	0	41	0	348127232	58	6749
2026-01-23 03:38:12.08	281.26	8.38	-43.3	-44.7	19.7	0.00e+00	47	41	0	350224384	58	6963
2026-01-23 03:38:13.08	281.42	8.39	-42.9	-44.3	20.0	0.00e+00	0	41	0	351272960	58	6623
2026-01-23 03:38:14.10	281.60	8.41	-42.8	-44.1	20.2	0.00e+00	92	41	0	353370112	58	6514
2026-01-23 03:38:15.11	281.76	8.42	-42.6	-43.9	20.4	0.00e+00	0	41	0	355467264	58	6357
2026-01-23 03:38:16.12	281.93	8.43	-42.7	-44.0	20.3	0.00e+00	92	41	0	357564416	58	6442
2026-01-23 03:38:17.13	282.10	8.45	-42.4	-43.7	20.6	0.00e+00	42	41	0	359661568	58	6203
2026-01-23 03:38:18.14	282.27	8.46	-42.3	-43.5	20.6	0.00e+00	0	41	0	360710144	58	6095
2026-01-23 03:38:19.15	282.44	8.47	-42.5	-43.7	20.5	0.00e+00	92	41	0	362807296	58	6236
2026-01-23 03:38:20.16	282.61	8.49	-42.3	-43.5	20.7	0.00e+00	0	41	0	364904448	58	6067
2026-01-23 03:38:21.17	282.78	8.50	-42.4	-43.6	20.5	0.00e+00	92	41	0	367001600	58	6156
2026-01-23 03:38:22.18	282.95	8.51	-42.8	-44.1	20.2	0.00e+00	0	41	0	369098752	58	6482
2026-01-23 03:38:23.19	283.12	8.52	-43.0	-44.4	20.0	0.00e+00	92	41	0	370147328	58	6699
2026-01-23 03:38:24.20	283.30	8.53	-42.6	-44.0	20.2	0.00e+00	40	41	0	372244480	58	6392
2026-01-23 03:38:25.21	283.47	8.54	-42.5	-43.8	20.5	0.00e+00	0	41	0	374341632	58	6281
2026-01-23 03:38:26.22	283.64	8.56	-42.2	-43.5	20.8	0.00e+00	92	41	0	376438784	58	6040
2026-01-23 03:38:27.23	283.81	8.57	-42.3	-43.5	20.7	0.00e+00	0	41	0	378535936	58	6095
2026-01-23 03:38:28.23	283.98	8.58	-42.6	-43.9	20.3	0.00e+00	91	41	0	380633088	58	6336
2026-01-23 03:38:29.25	284.15	8.59	-42.7	-44.0	20.2	0.00e+00	0	41	0	381681664	58	6403
2026-01-23 03:38:30.26	284.32	8.60	-42.8	-44.2	20.1	0.00e+00	91	41	0	383778816	58	6545
2026-01-23 03:38:31.26	284.49	8.61	-43.2	-44.6	19.7	0.00e+00	9	41	0	385875968	58	6901
2026-01-23 03:38:32.27	284.66	8.62	-43.7	-45.2	19.1	0.00e+00	92	41	0	387973120	58	7411
2026-01-23 03:38:33.28	284.83	8.63	-43.8	-45.4	19.1	0.00e+00	91	41	0	390070272	60	6727
2026-01-23 03:38:34.29	285.01	8.64	-44.1	-45.7	18.8	0.00e+00	0	41	0	391118848	60	6946
2026-01-23 03:38:35.30	285.18	8.65	-44.0	-45.6	19.0	0.00e+00	91	41	0	393216000	60	6868
2026-01-23 03:38:36.31	285.35	8.65	-44.1	-45.7	18.8	0.00e+00	0	41	0	395313152	60	6993
2026-01-23 03:38:37.32	285.52	8.66	-43.7	-45.2	19.2	0.00e+00	90	41	0	397410304	60	6574
2026-01-23 03:38:38.33	285.69	8.67	-43.7	-45.2	19.3	0.00e+00	0	41	0	399507456	60	6603
2026-01-23 03:38:39.34	285.87	8.68	-43.7	-45.2	19.3	0.00e+00	92	41	0	400556032	60	6577
2026-01-23 03:38:40.35	286.04	8.69	-43.7	-45.2	19.2	0.00e+00	91	41	0	402653184	60	6586
2026-01-23 03:38:41.36	286.21	8.70	-43.8	-45.3	19.2	0.00e+00	0	41	0	404750336	60	6642
2026-01-23 03:38:42.36	286.38	8.70	-43.6	-45.1	19.4	0.00e+00	92	41	0	406847488	60	6466
2026-01-23 03:38:43.38	286.56	8.71	-43.6	-45.1	19.3	0.00e+00	0	41	0	408944640	60	6511
2026-01-23 03:38:44.38	286.73	8.72	-43.7	-45.3	19.3	0.00e+00	92	41	0	409993216	60	6616
2026-01-23 03:38:45.39	286.90	8.72	-43.9	-45.5	19.1	0.00e+00	0	41	0	412090368	60	6787
2026-01-23 03:38:46.40	287.07	8.73	-43.9	-45.5	19.0	0.00e+00	92	41	0	414187520	60	6783
2026-01-23 03:38:47.41	287.24	8.74	-43.9	-45.5	19.0	0.00e+00	92	41	0	416284672	60	6815
2026-01-23 03:38:48.42	287.42	8.74	-43.9	-45.5	19.1	0.00e+00	34	41	0	418381824	60	6789
2026-01-23 03:38:49.43	287.59	8.75	-44.0	-45.6	18.9	0.00e+00	90	41	0	419430400	60	6918
2026-01-23 03:38:50.44	287.76	8.76	-44.2	-45.8	18.7	0.00e+00	0	41	0	421527552	60	7058
2026-01-23 03:38:51.45	287.94	8.76	-44.5	-46.3	18.3	0.00e+00	91	41	0	423624704	60	7437
2026-01-23 03:38:52.46	288.11	8.77	-44.2	-45.9	18.7	0.00e+00	0	41	0	425721856	60	7145
2026-01-23 03:38:53.46	288.28	8.77	-44.5	-46.2	18.2	0.00e+00	92	41	0	427819008	60	7381
2026-01-23 03:38:54.48	288.46	8.78	-44.4	-46.1	18.4	0.00e+00	36	41	0	428867584	60	7254
2026-01-23 03:38:55.49	288.63	8.78	-44.5	-46.2	18.3	0.00e+00	0	41	0	430964736	60	7416
2026-01-23 03:38:56.50	288.80	8.79	-44.2	-45.9	18.7	0.00e+00	92	41	0	433061888	60	7113
2026-01-23 03:38:57.51	288.98	8.79	-44.0	-45.6	19.0	0.00e+00	0	41	0	435159040	60	6897
2026-01-23 03:38:58.52	289.15	8.79	-43.9	-45.4	19.1	0.00e+00	91	41	0	437256192	60	6760
2026-01-23 03:38:59.53	289.32	8.80	-43.6	-45.1	19.3	0.00e+00	0	41	0	438304768	60	6485
2026-01-23 03:39:00.54	289.50	8.80	-43.6	-45.1	19.4	0.00e+00	92	41	0	440401920	60	6479
2026-01-23 03:39:01.54	289.67	8.81	-43.6	-45.1	19.3	0.00e+00	38	41	0	442499072	60	6520
2026-01-23 03:39:02.55	289.84	8.81	-43.8	-45.3	19.1	0.00e+00	0	41	0	444596224	60	6682
2026-01-23 03:39:03.56	290.02	8.81	-43.8	-45.3	19.1	0.00e+00	92	41	0	446693376	60	6684
2026-01-23 03:39:04.57	290.19	8.81	-43.9	-45.4	19.1	0.00e+00	0	41	0	447741952	60	6766
2026-01-23 03:39:05.58	290.36	8.82	-44.0	-45.5	18.8	0.00e+00	80	41	0	449839104	60	6837
2026-01-23 03:39:06.59	290.54	8.82	-43.9	-45.5	19.1	0.00e+00	0	41	0	451936256	60	6790
2026-01-23 03:39:07.60	290.71	8.82	-43.9	-45.5	19.0	0.00e+00	90	41	0	454033408	60	6813
2026-01-23 03:39:08.61	290.89	8.82	-43.8	-45.3	19.2	0.00e+00	41	41	0	456130560	60	6679
2026-01-23 03:39:09.63	291.06	8.82	-43.6	-45.1	19.5	0.00e+00	92	41	0	457179136	60	6494
2026-01-23 03:39:10.64	291.24	8.83	-43.5	-44.9	19.6	0.00e+00	92	41	0	459276288	60	6355
2026-01-23 03:39:11.65	291.41	8.83	-43.3	-44.7	19.7	0.00e+00	0	41	0	461373440	60	6237
2026-01-23 03:39:12.66	291.58	8.83	-43.4	-44.9	19.6	0.00e+00	90	41	0	463470592	60	6339
2026-01-23 03:39:13.66	291.75	8.83	-43.6	-45.1	19.3	0.00e+00	0	41	0	465567744	60	6522
2026-01-23 03:39:14.67	291.93	8.83	-43.7	-45.2	19.3	0.00e+00	92	41	0	466616320	60	6614
2026-01-23 03:39:15.68	292.10	8.83	-43.7	-45.2	19.3	0.00e+00	0	41	0	468713472	60	6547
2026-01-23 03:39:16.70	292.28	8.83	-43.8	-45.4	19.2	0.00e+00	69	41	0	470810624	60	6696
2026-01-23 03:39:17.70	292.45	8.83	-43.8	-45.3	19.2	0.00e+00	90	41	0	472907776	60	6635
2026-01-23 03:39:18.71	292.62	8.83	-43.5	-45.0	19.6	0.00e+00	0	41	0	475004928	60	6399
2026-01-23 03:39:19.72	292.80	8.83	-43.3	-44.7	19.7	0.00e+00	44	41	0	477102080	60	6217
2026-01-23 03:39:20.73	292.97	8.83	-43.3	-44.7	19.8	0.00e+00	0	41	0	478150656	60	6215
2026-01-23 03:39:21.74	293.15	8.83	-43.2	-44.6	19.8	0.00e+00	92	41	0	480247808	60	6145
2026-01-23 03:39:22.75	293.32	8.82	-43.1	-44.5	19.9	0.00e+00	0	41	0	482344960	60	6073
2026-01-23 03:39:23.76	293.49	8.82	-43.0	-44.4	20.2	0.00e+00	92	41	0	484442112	60	5988
2026-01-23 03:39:24.77	293.67	8.82	-42.8	-44.1	20.1	0.00e+00	92	41	0	486539264	60	5825
2026-01-23 03:39:25.78	293.84	8.82	-42.8	-44.1	20.4	0.00e+00	0	41	0	487587840	60	5776
2026-01-23 03:39:26.79	294.01	8.82	-42.8	-44.1	20.3	0.00e+00	46	41	0	489684992	60	5790
2026-01-23 03:39:27.80	294.19	8.81	-42.6	-43.9	20.4	0.00e+00	0	41	0	491782144	58	6341
2026-01-23 03:39:28.81	294.36	8.81	-42.4	-43.6	20.7	0.00e+00	92	41	0	493879296	58	6167
2026-01-23 03:39:29.82	294.54	8.81	-42.2	-43.4	20.8	0.00e+00	0	41	0	495976448	58	5993
2026-01-23 03:39:30.83	294.71	8.80	-42.2	-43.4	20.9	0.00e+00	92	41	0	497025024	58	5991
2026-01-23 03:39:31.84	294.88	8.80	-41.9	-43.1	21.1	0.00e+00	45	41	0	499122176	58	5778
2026-01-23 03:39:32.85	295.06	8.80	-42.1	-43.3	20.8	0.00e+00	0	41	0	501219328	58	5934
2026-01-23 03:39:33.85	295.23	8.79	-42.3	-43.5	20.2	0.00e+00	92	41	0	503316480	58	6066
2026-01-23 03:39:34.86	295.40	8.79	-42.4	-43.6	20.5	0.00e+00	0	41	0	505413632	58	6143
2026-01-23 03:39:35.87	295.57	8.79	-42.3	-43.6	20.7	0.00e+00	91	41	0	506462208	58	6119
2026-01-23 03:39:36.88	295.75	8.78	-42.5	-43.7	20.6	0.00e+00	0	41	0	508559360	58	6226
2026-01-23 03:39:37.90	295.92	8.78	-42.6	-43.8	20.3	0.00e+00	95	41	0	510656512	58	6314
2026-01-23 03:39:38.90	296.09	8.77	-42.5	-43.8	20.4	0.00e+00	0	41	0	512753664	58	6297
2026-01-23 03:39:39.91	296.27	8.77	-42.5	-43.8	20.5	0.00e+00	0	41	0	514850816	58	6258
2026-01-23 03:39:40.92	296.44	8.76	-42.2	-43.4	20.8	0.00e+00	92	41	0	515899392	58	5989
2026-01-23 03:39:41.93	296.61	8.75	-42.3	-43.5	20.8	0.00e+00	0	41	0	517996544	58	6049
2026-01-23 03:39:42.94	296.79	8.75	-42.5	-43.8	20.6	0.00e+00	53	41	0	520093696	58	6267
2026-01-23 03:39:43.96	296.96	8.74	-42.4	-43.7	20.8	0.00e+00	0	41	0	522190848	58	6198
2026-01-23 03:39:44.96	297.13	8.74	-42.2	-43.5	20.7	0.00e+00	92	41	0	524288000	58	6049
2026-01-23 03:39:45.97	297.30	8.73	-42.4	-43.6	20.6	0.00e+00	9	41	0	525336576	58	6151
2026-01-23 03:39:46.98	297.48	8.72	-42.6	-43.9	20.4	0.00e+00	22	41	0	527433728	58	6351
2026-01-23 03:39:47.99	297.65	8.72	-42.6	-43.9	20.4	0.00e+00	90	41	0	529530880	58	6344
2026-01-23 03:39:49.00	297.82	8.71	-42.5	-43.8	20.5	0.00e+00	0	41	0	531628032	58	6254
2026-01-23 03:39:50.01	297.99	8.70	-42.4	-43.6	20.6	0.00e+00	13	41	0	533725184	58	6153
2026-01-23 03:39:51.02	298.17	8.69	-42.3	-43.6	20.7	0.00e+00	0	41	0	534773760	58	6111
2026-01-23 03:39:52.03	298.34	8.69	-42.2	-43.4	20.8	0.00e+00	92	41	0	536870912	58	6033
2026-01-23 03:39:53.04	298.51	8.68	-42.2	-43.4	20.9	0.00e+00	0	41	0	538968064	58	5980
2026-01-23 03:39:54.05	298.68	8.67	-41.9	-43.0	21.1	0.00e+00	32	41	0	541065216	58	5755
2026-01-23 03:39:55.06	298.85	8.66	-41.8	-43.0	21.2	0.00e+00	91	41	0	543162368	58	5713
2026-01-23 03:39:56.07	299.03	8.65	-42.1	-43.3	21.0	0.00e+00	0	41	0	545259520	58	5914
2026-01-23 03:39:57.08	299.20	8.64	-42.2	-43.5	20.8	0.00e+00	67	41	0	546308096	58	6045
2026-01-23 03:39:58.09	299.37	8.63	-42.1	-43.4	20.9	0.00e+00	0	41	0	548405248	58	5965
2026-01-23 03:39:59.10	299.54	8.62	-42.3	-43.6	20.7	0.00e+00	92	41	0	550502400	58	6147
2026-01-23 03:40:00.10	299.71	8.61	-42.3	-43.5	20.8	0.00e+00	33	41	0	552599552	58	6075
2026-01-23 03:40:01.11	299.88	8.61	-42.0	-43.2	21.1	0.00e+00	92	41	0	554696704	58	5837
2026-01-23 03:40:02.12	300.05	8.60	-41.8	-43.0	21.2	0.00e+00	92	41	0	555745280	58	5708
2026-01-23 03:40:03.13	300.22	8.58	-41.7	-42.9	21.3	0.00e+00	42	41	0	557842432	56	6348
2026-01-23 03:40:04.14	300.39	8.57	-41.7	-42.8	21.4	0.00e+00	44	41	0	559939584	56	6302
2026-01-23 03:40:05.15	300.57	8.56	-41.6	-42.7	21.4	0.00e+00	0	41	0	562036736	56	6219
2026-01-23 03:40:06.16	300.74	8.55	-41.1	-42.1	21.9	0.00e+00	91	41	0	564133888	56	5819
2026-01-23 03:40:07.17	300.91	8.54	-41.0	-42.1	22.0	0.00e+00	0	41	0	565182464	56	5784
2026-01-23 03:40:08.18	301.08	8.53	-41.2	-42.2	21.9	0.00e+00	90	41	0	567279616	56	5891
2026-01-23 03:40:09.20	301.25	8.52	-41.3	-42.3	21.8	0.00e+00	88	41	0	569376768	56	5945
2026-01-23 03:40:10.20	301.42	8.51	-41.2	-42.2	21.7	0.00e+00	0	41	0	571473920	56	5890
2026-01-23 03:40:11.21	301.59	8.49	-41.5	-42.6	21.6	0.00e+00	74	41	0	573571072	56	6112
2026-01-23 03:40:12.22	301.76	8.48	-41.6	-42.8	21.4	0.00e+00	0	41	0	574619648	56	6257
2026-01-23 03:40:13.23	301.93	8.47	-41.6	-42.7	21.4	0.00e+00	90	41	0	576716800	56	6237
2026-01-23 03:40:14.24	302.10	8.46	-41.8	-43.0	21.1	0.00e+00	0	41	0	578813952	56	6405
2026-01-23 03:40:15.25	302.27	8.44	-41.8	-42.9	21.2	0.00e+00	92	41	0	580911104	56	6384
2026-01-23 03:40:16.26	302.43	8.43	-41.8	-43.0	21.2	0.00e+00	44	41	0	583008256	56	6426
2026-01-23 03:40:17.27	302.60	8.42	-42.0	-43.2	21.1	0.00e+00	0	41	0	584056832	56	6556
2026-01-23 03:40:18.28	302.77	8.41	-42.1	-43.3	20.9	0.00e+00	75	41	0	586153984	56	6671
2026-01-23 03:40:19.29	302.94	8.39	-41.9	-43.1	21.1	0.00e+00	0	41	0	588251136	56	6503
2026-01-23 03:40:20.30	303.11	8.38	-42.0	-43.2	21.0	0.00e+00	90	41	0	590348288	56	6545
2026-01-23 03:40:21.31	303.28	8.36	-42.0	-43.2	21.1	0.00e+00	0	41	0	592445440	56	6552
2026-01-23 03:40:22.32	303.45	8.35	-41.9	-43.0	21.2	0.00e+00	92	41	0	593494016	56	6459
2026-01-23 03:40:23.33	303.61	8.34	-42.1	-43.3	20.8	0.00e+00	38	41	0	595591168	56	6679
2026-01-23 03:40:24.35	303.78	8.32	-41.9	-43.1	21.1	0.00e+00	0	41	0	597688320	56	6512
2026-01-23 03:40:25.35	303.95	8.31	-41.9	-43.1	21.2	0.00e+00	92	41	0	599785472	56	6485
2026-01-23 03:40:26.36	304.12	8.29	-41.9	-43.1	21.1	0.00e+00	0	41	0	601882624	56	6504
2026-01-23 03:40:27.38	304.29	8.28	-41.8	-42.9	21.3	0.00e+00	38	41	0	602931200	56	6365
2026-01-23 03:40:28.38	304.45	8.26	-41.7	-42.8	21.4	0.00e+00	0	41	0	605028352	56	6285
2026-01-23 03:40:29.39	304.62	8.24	-41.5	-42.6	21.6	0.00e+00	90	41	0	607125504	56	6123
2026-01-23 03:40:30.40	304.79	8.23	-41.3	-42.3	21.7	0.00e+00	0	41	0	609222656	56	5962
2026-01-23 03:40:31.41	304.95	8.21	-41.3	-42.4	21.6	0.00e+00	0	41	0	611319808	56	6004
2026-01-23 03:40:32.42	305.12	8.20	-41.5	-42.6	21.4	0.00e+00	92	41	0	613416960	56	6125
2026-01-23 03:40:33.43	305.29	8.18	-42.0	-43.1	21.1	0.00e+00	0	41	0	614465536	56	6519
2026-01-23 03:40:34.44	305.45	8.16	-41.8	-42.9	21.2	0.00e+00	90	41	0	616562688	56	6366
2026-01-23 03:40:35.45	305.62	8.15	-42.1	-43.3	20.9	0.00e+00	0	41	0	618659840	56	6628
2026-01-23 03:40:36.46	305.78	8.13	-41.8	-43.0	21.1	0.00e+00	90	41	0	620756992	56	6419
2026-01-23 03:40:37.47	305.95	8.11	-42.0	-43.3	20.9	0.00e+00	0	41	0	622854144	56	6619
2026-01-23 03:40:38.48	306.12	8.09	-42.2	-43.4	20.8	0.00e+00	58	41	0	623902720	56	6744
2026-01-23 03:40:39.49	306.28	8.08	-42.2	-43.5	20.8	0.00e+00	92	41	0	625999872	56	6778
2026-01-23 03:40:40.50	306.45	8.06	-42.1	-43.3	20.8	0.00e+00	0	41	0	628097024	56	6671
2026-01-23 03:40:41.51	306.61	8.04	-42.4	-43.6	20.7	0.00e+00	38	41	0	630194176	56	6906
2026-01-23 03:40:42.52	306.78	8.02	-42.4	-43.7	20.5	0.00e+00	0	41	0	632291328	56	6960
2026-01-23 03:40:43.53	306.94	8.00	-42.5	-43.8	20.5	0.00e+00	58	41	0	633339904	56	7058
2026-01-23 03:40:44.54	307.10	7.99	-42.5	-43.8	20.4	0.00e+00	0	41	0	635437056	56	7060
2026-01-23 03:40:45.55	307.27	7.97	-42.6	-43.9	20.3	0.00e+00	92	41	0	637534208	56	7096
2026-01-23 03:40:46.56	307.43	7.95	-42.7	-44.0	20.2	0.00e+00	92	41	0	639631360	58	6422
2026-01-23 03:40:47.56	307.59	7.93	-42.3	-43.6	20.6	0.00e+00	0	41	0	641728512	58	6149
2026-01-23 03:40:48.57	307.76	7.91	-42.1	-43.4	20.7	0.00e+00	92	41	0	642777088	58	5988
2026-01-23 03:40:49.58	307.92	7.89	-42.0	-43.3	20.9	0.00e+00	0	41	0	644874240	58	5901
2026-01-23 03:40:50.59	308.08	7.87	-41.8	-43.0	21.2	0.00e+00	92	41	0	646971392	56	6415
2026-01-23 03:40:51.60	308.25	7.85	-41.5	-42.6	21.5	0.00e+00	0	41	0	649068544	56	6141
2026-01-23 03:40:52.61	308.41	7.83	-41.3	-42.4	21.6	0.00e+00	92	41	0	651165696	56	6030
2026-01-23 03:40:53.62	308.57	7.81	-40.9	-42.0	22.0	0.00e+00	39	41	0	652214272	56	5713
2026-01-23 03:40:54.63	308.73	7.79	-40.9	-41.9	22.0	0.00e+00	0	41	0	654311424	56	5673
2026-01-23 03:40:55.64	308.90	7.77	-40.9	-41.9	22.0	0.00e+00	30	41	0	656408576	56	5692
2026-01-23 03:40:56.65	309.06	7.75	-40.6	-41.6	22.1	0.00e+00	0	41	0	658505728	54	6160
2026-01-23 03:40:57.66	309.22	7.73	-40.6	-41.7	22.2	0.00e+00	90	41	0	660602880	54	6181
2026-01-23 03:40:58.67	309.38	7.71	-40.7	-41.7	22.0	0.00e+00	0	41	0	661651456	54	6245
2026-01-23 03:40:59.68	309.54	7.69	-40.9	-41.9	22.0	0.00e+00	74	41	0	663748608	54	6359
2026-01-23 03:41:00.69	309.70	7.67	-40.8	-41.9	21.9	0.00e+00	42	41	0	665845760	54	6343
2026-01-23 03:41:01.69	309.86	7.64	-40.8	-41.9	21.9	0.00e+00	0	41	0	667942912	54	6362
2026-01-23 03:41:02.70	310.02	7.62	-41.1	-42.2	21.7	0.00e+00	89	41	0	670040064	54	6583
2026-01-23 03:41:03.71	310.18	7.60	-40.7	-41.8	22.1	0.00e+00	0	41	0	671088640	54	6262
2026-01-23 03:41:04.72	310.34	7.58	-40.8	-41.8	21.9	0.00e+00	49	41	0	673185792	54	6301
2026-01-23 03:41:05.73	310.50	7.56	-40.8	-41.9	22.0	0.00e+00	0	41	0	675282944	54	6347
2026-01-23 03:41:06.74	310.66	7.53	-40.7	-41.8	22.0	0.00e+00	92	41	0	677380096	54	6267
2026-01-23 03:41:07.75	310.82	7.51	-40.8	-41.9	21.9	0.00e+00	0	41	0	679477248	54	6343
2026-01-23 03:41:08.76	310.98	7.49	-40.6	-41.7	22.1	0.00e+00	0	41	0	680525824	54	6194
2026-01-23 03:41:09.77	311.14	7.47	-40.7	-41.8	21.9	0.00e+00	46	41	0	682622976	54	6282
2026-01-23 03:41:10.78	311.29	7.44	-40.9	-42.0	21.9	0.00e+00	0	41	0	684720128	54	6403
2026-01-23 03:41:11.78	311.45	7.42	-41.0	-42.1	21.7	0.00e+00	55	41	0	686817280	54	6525
2026-01-23 03:41:12.79	311.61	7.40	-41.1	-42.2	21.7	0.00e+00	0	41	0	688914432	54	6603
2026-01-23 03:41:13.80	311.77	7.37	-41.2	-42.3	21.6	0.00e+00	88	41	0	691011584	54	6630
2026-01-23 03:41:14.81	311.92	7.35	-41.1	-42.2	21.7	0.00e+00	0	41	0	692060160	54	6547
2026-01-23 03:41:15.82	312.08	7.32	-41.3	-42.4	21.6	0.00e+00	54	41	0	694157312	54	6755
2026-01-23 03:41:16.83	312.24	7.30	-41.3	-42.4	21.4	0.00e+00	92	41	0	696254464	54	6747
2026-01-23 03:41:17.84	312.40	7.28	-41.1	-42.2	21.7	0.00e+00	0	41	0	698351616	54	6599
2026-01-23 03:41:18.85	312.55	7.25	-41.5	-42.7	21.3	0.00e+00	68	41	0	700448768	54	6941
2026-01-23 03:41:19.86	312.71	7.23	-41.4	-42.5	21.4	0.00e+00	0	41	0	701497344	54	6844
2026-01-23 03:41:20.86	312.86	7.20	-41.5	-42.6	21.3	0.00e+00	92	41	0	703594496	54	6889
2026-01-23 03:41:21.87	313.02	7.18	-41.2	-42.3	21.6	0.00e+00	0	41	0	705691648	54	6623
2026-01-23 03:41:22.88	313.17	7.15	-40.7	-41.8	22.1	0.00e+00	0	42	0	707788800	54	6262
2026-01-23 03:41:23.89	313.33	7.13	-40.4	-41.4	22.3	0.00e+00	70	41	0	709885952	54	6001
2026-01-23 03:41:24.90	313.48	7.10	-40.6	-41.6	22.1	0.00e+00	0	41	0	710934528	54	6144
2026-01-23 03:41:25.91	313.64	7.08	-40.5	-41.5	22.2	0.00e+00	43	42	0	713031680	54	6053
2026-01-23 03:41:26.92	313.79	7.05	-40.4	-41.4	22.3	0.00e+00	0	41	0	715128832	54	6010
2026-01-23 03:41:27.93	313.95	7.03	-40.5	-41.6	22.1	0.00e+00	70	41	0	717225984	54	6104
2026-01-23 03:41:28.94	314.10	7.00	-40.9	-41.9	21.9	0.00e+00	0	41	0	719323136	54	6375
2026-01-23 03:41:29.95	314.25	6.97	-41.1	-42.2	21.5	0.00e+00	74	41	0	720371712	54	6568
2026-01-23 03:41:30.96	314.41	6.95	-41.2	-42.4	21.4	0.00e+00	43	41	0	722468864	54	6712
2026-01-23 03:41:31.97	314.56	6.92	-41.3	-42.5	21.5	0.00e+00	0	41	0	724566016	54	6772
2026-01-23 03:41:32.98	314.71	6.90	-41.2	-42.4	21.5	0.00e+00	65	41	0	726663168	54	6701
2026-01-23 03:41:33.99	314.86	6.87	-41.3	-42.5	21.2	0.00e+00	0	41	0	728760320	54	6798
2026-01-23 03:41:35.00	315.02	6.84	-41.5	-42.7	21.2	0.00e+00	37	41	0	729808896	54	6932
2026-01-23 03:41:36.00	315.17	6.82	-41.4	-42.5	21.3	0.00e+00	0	41	0	731906048	54	6805
2026-01-23 03:41:37.02	315.32	6.79	-41.7	-42.9	21.0	0.00e+00	27	41	0	734003200	54	7165
2026-01-23 03:41:38.03	315.47	6.76	-41.9	-43.1	21.0	0.00e+00	17	41	0	736100352	56	6500
2026-01-23 03:41:39.04	315.62	6.73	-41.5	-42.7	21.1	0.00e+00	0	41	0	738197504	56	6210
2026-01-23 03:41:40.05	315.77	6.71	-41.6	-42.8	21.1	0.00e+00	91	41	0	739246080	56	6249
2026-01-23 03:41:41.05	315.92	6.68	-41.5	-42.6	21.3	0.00e+00	0	41	0	741343232	56	6160
2026-01-23 03:41:42.07	316.07	6.65	-41.6	-42.8	21.0	0.00e+00	91	41	0	743440384	56	6273
2026-01-23 03:41:43.08	316.22	6.62	-41.7	-42.9	21.1	0.00e+00	0	41	0	745537536	56	6325
2026-01-23 03:41:44.09	316.37	6.60	-41.8	-43.0	21.0	0.00e+00	92	41	0	747634688	56	6426
2026-01-23 03:41:45.10	316.52	6.57	-41.9	-43.1	20.8	0.00e+00	17	41	0	748683264	56	6507
2026-01-23 03:41:46.11	316.67	6.54	-42.2	-43.4	20.5	0.00e+00	0	41	0	750780416	56	6762
2026-01-23 03:41:47.12	316.82	6.51	-42.5	-43.8	20.3	0.00e+00	91	41	0	752877568	56	7057
2026-01-23 03:41:48.13	316.97	6.48	-42.7	-44.1	20.0	0.00e+00	0	41	0	754974720	56	7291
2026-01-23 03:41:49.14	317.12	6.45	-42.8	-44.2	19.9	0.00e+00	92	41	0	757071872	58	6566
2026-01-23 03:41:50.14	317.27	6.43	-42.9	-44.3	19.8	0.00e+00	0	41	0	759169024	58	6684
2026-01-23 03:41:51.15	317.41	6.40	-42.8	-44.2	19.8	0.00e+00	92	41	0	760217600	58	6582
2026-01-23 03:41:52.16	317.56	6.37	-43.2	-44.6	19.5	0.00e+00	0	41	0	762314752	58	6921
2026-01-23 03:41:53.17	317.71	6.34	-42.9	-44.3	19.9	0.00e+00	92	41	0	764411904	58	6656
2026-01-23 03:41:54.18	317.85	6.31	-43.1	-44.6	19.3	0.00e+00	90	42	0	766509056	58	6850
2026-01-23 03:41:55.19	318.00	6.28	-43.2	-44.7	19.3	0.00e+00	0	41	0	768606208	58	6951
2026-01-23 03:41:56.20	318.15	6.25	-43.4	-44.9	19.1	0.00e+00	20	41	0	769654784	58	7124
2026-01-23 03:41:57.21	318.29	6.22	-43.1	-44.5	19.6	0.00e+00	0	41	0	771751936	58	6824
2026-01-23 03:41:58.22	318.44	6.19	-43.4	-44.9	19.1	0.00e+00	90	41	0	773849088	58	7148
2026-01-23 03:41:59.23	318.58	6.16	-43.5	-45.1	19.0	0.00e+00	0	41	0	775946240	58	7279
2026-01-23 03:42:00.24	318.73	6.13	-43.3	-44.8	19.0	0.00e+00	17	41	0	778043392	58	7050
2026-01-23 03:42:01.25	318.87	6.10	-43.6	-45.2	18.8	0.00e+00	42	41	0	779091968	58	7385
2026-01-23 03:42:02.25	319.02	6.07	-43.6	-45.2	19.2	0.00e+00	0	41	0	781189120	58	7355
2026-01-23 03:42:03.26	319.16	6.04	-43.4	-44.9	19.2	0.00e+00	50	41	0	783286272	58	7170
2026-01-23 03:42:04.27	319.31	6.01	-43.1	-44.6	19.3	0.00e+00	0	41	0	785383424	58	6905
2026-01-23 03:42:05.28	319.45	5.98	-43.2	-44.7	19.3	0.00e+00	69	41	0	787480576	58	6976
2026-01-23 03:42:06.29	319.59	5.95	-43.0	-44.5	19.5	0.00e+00	0	41	0	788529152	58	6796
2026-01-23 03:42:07.30	319.74	5.92	-42.7	-44.1	20.0	0.00e+00	90	41	0	790626304	58	6466
2026-01-23 03:42:08.31	319.88	5.89	-43.0	-44.4	19.6	0.00e+00	41	42	0	792723456	58	6736
2026-01-23 03:42:09.32	320.02	5.86	-43.2	-44.7	19.4	0.00e+00	0	42	0	794820608	58	6965
2026-01-23 03:42:10.33	320.16	5.83	-42.9	-44.3	19.8	0.00e+00	82	41	0	796917760	58	6682
2026-01-23 03:42:11.34	320.31	5.79	-43.3	-44.8	19.2	0.00e+00	0	42	0	797966336	58	7088
2026-01-23 03:42:12.35	320.45	5.76	-43.4	-45.0	19.0	0.00e+00	76	41	0	800063488	58	7177
2026-01-23 03:42:13.36	320.59	5.73	-43.6	-45.2	18.9	0.00e+00	0	41	0	802160640	58	7359
2026-01-23 03:42:14.37	320.73	5.70	-43.5	-45.1	18.9	0.00e+00	92	42	0	804257792	58	7303
2026-01-23 03:42:15.37	320.87	5.67	-43.6	-45.2	18.8	0.00e+00	0	41	0	806354944	60	6602
2026-01-23 03:42:16.38	321.01	5.64	-44.1	-45.8	18.4	0.00e+00	0	41	0	807403520	60	7088
2026-01-23 03:42:17.39	321.15	5.61	-43.8	-45.5	18.6	0.00e+00	92	41	0	809500672	60	6795
2026-01-23 03:42:18.40	321.29	5.57	-43.9	-45.6	18.6	0.00e+00	0	41	0	811597824	60	6906
2026-01-23 03:42:19.41	321.43	5.54	-44.1	-45.9	18.3	0.00e+00	92	41	0	813694976	60	7126
2026-01-23 03:42:20.42	321.57	5.51	-44.4	-46.2	17.8	0.00e+00	0	41	0	815792128	60	7377
2026-01-23 03:42:21.43	321.71	5.48	-44.8	-46.7	17.4	0.00e+00	92	42	0	816840704	60	7860
2026-01-23 03:42:22.44	321.85	5.44	-44.8	-46.7	17.4	0.00e+00	0	41	0	818937856	60	7855
2026-01-23 03:42:23.45	321.99	5.41	-45.2	-47.4	16.8	0.00e+00	0	41	0	821035008	60	8463
2026-01-23 03:42:24.46	322.12	5.38	-44.8	-46.8	17.3	0.00e+00	92	41	0	823132160	60	7928
2026-01-23 03:42:25.47	322.26	5.35	-45.1	-47.3	16.8	0.00e+00	0	42	0	825229312	60	8376
2026-01-23 03:42:26.48	322.40	5.31	-45.0	-47.2	16.9	0.00e+00	40	42	0	827326464	60	8301
2026-01-23 03:42:27.49	322.54	5.28	-45.2	-47.5	16.6	0.00e+00	0	41	0	828375040	60	8547
2026-01-23 03:42:28.50	322.67	5.25	-45.6	-48.0	16.2	0.00e+00	92	41	0	830472192	60	9045
2026-01-23 03:42:29.51	322.81	5.22	-45.2	-47.5	16.7	0.00e+00	0	42	0	832569344	60	8548
2026-01-23 03:42:30.52	322.95	5.18	-45.0	-47.2	16.9	0.00e+00	62	41	0	834666496	60	8252
2026-01-23 03:42:31.53	323.08	5.15	-45.0	-47.1	16.8	0.00e+00	90	42	0	836763648	60	8198
2026-01-23 03:42:32.54	323.22	5.12	-44.8	-46.9	17.3	0.00e+00	0	42	0	837812224	60	8012
2026-01-23 03:42:33.55	323.35	5.08	-44.7	-46.8	17.3	0.00e+00	40	42	0	839909376	60	7896
2026-01-23 03:42:34.56	323.49	5.05	-44.1	-45.9	18.1	0.00e+00	0	42	0	842006528	60	7131
2026-01-23 03:42:35.57	323.62	5.02	-44.1	-45.9	18.0	0.00e+00	64	42	0	844103680	60	7138
2026-01-23 03:42:36.58	323.76	4.98	-44.3	-46.1	17.9	0.00e+00	0	42	0	846200832	60	7319
2026-01-23 03:42:37.59	323.89	4.95	-44.6	-46.5	17.6	0.00e+00	75	42	0	847249408	60	7641
2026-01-23 03:42:38.60	324.03	4.92	-44.5	-46.4	17.6	0.00e+00	38	42	0	849346560	60	7518
2026-01-23 03:42:39.61	324.16	4.88	-44.5	-46.4	17.4	0.00e+00	0	42	0	851443712	60	7559
2026-01-23 03:42:40.61	324.29	4.85	-44.8	-46.8	17.3	0.00e+00	78	42	0	853540864	60	7920
2026-01-23 03:42:41.62	324.42	4.81	-44.5	-46.5	17.6	0.00e+00	0	42	0	855638016	60	7632
2026-01-23 03:42:42.63	324.56	4.78	-44.7	-46.7	17.2	0.00e+00	59	42	0	856686592	60	7824
2026-01-23 03:42:43.64	324.69	4.75	-44.9	-47.0	16.9	0.00e+00	0	42	0	858783744	60	8075
2026-01-23 03:42:44.65	324.82	4.71	-44.8	-46.9	17.0	0.00e+00	0	42	0	860880896	60	7992
2026-01-23 03:42:45.66	324.95	4.68	-44.8	-46.9	17.2	0.00e+00	41	42	0	862978048	60	7972
2026-01-23 03:42:46.67	325.09	4.64	-45.3	-47.7	16.4	0.00e+00	0	41	0	865075200	60	8721
2026-01-23 03:42:47.68	325.22	4.61	-44.8	-46.9	17.1	0.00e+00	92	41	0	866123776	60	8010
2026-01-23 03:42:48.69	325.35	4.57	-44.8	-46.9	16.9	0.00e+00	0	41	0	868220928	60	7961
2026-01-23 03:42:49.70	325.48	4.54	-44.6	-46.6	17.5	0.00e+00	0	41	0	870318080	60	7720
2026-01-23 03:42:50.70	325.61	4.50	-44.3	-46.2	17.6	0.00e+00	0	41	0	872415232	60	7378
2026-01-23 03:42:51.71	325.74	4.47	-44.6	-46.6	17.5	0.00e+00	0	41	0	874512384	60	7689
2026-01-23 03:42:52.72	325.87	4.43	-43.9	-45.7	18.2	0.00e+00	0	41	0	875560960	60	6978
2026-01-23 03:42:53.73	326.00	4.40	-44.3	-46.1	18.0	0.00e+00	0	42	0	877658112	60	7324
2026-01-23 03:42:54.74	326.13	4.36	-44.1	-45.9	18.1	0.00e+00	92	41	0	879755264	60	7099
2026-01-23 03:42:55.75	326.25	4.33	-44.3	-46.2	17.8	0.00e+00	0	42	0	881852416	60	7364
2026-01-23 03:42:56.76	326.38	4.29	-44.1	-45.9	18.3	0.00e+00	73	41	0	883949568	60	7130
2026-01-23 03:42:57.77	326.51	4.26	-43.9	-45.6	18.1	0.00e+00	0	41	0	884998144	60	6892
2026-01-23 03:42:58.78	326.64	4.22	-44.1	-45.9	18.0	0.00e+00	0	42	0	887095296	60	7130
2026-01-23 03:42:59.79	326.77	4.19	-44.2	-46.1	17.8	0.00e+00	0	41	0	889192448	60	7293
2026-01-23 03:43:00.79	326.89	4.15	-44.2	-46.1	17.8	0.00e+00	0	41	0	891289600	60	7257
2026-01-23 03:43:01.81	327.02	4.12	-44.1	-46.0	17.9	0.00e+00	38	42	0	893386752	60	7173
2026-01-23 03:43:02.82	327.15	4.08	-44.0	-45.8	18.2	0.00e+00	0	42	0	894435328	60	7023
2026-01-23 03:43:03.82	327.27	4.05	-44.3	-46.2	17.7	0.00e+00	79	41	0	896532480	60	7382
2026-01-23 03:43:04.83	327.40	4.01	-44.9	-47.1	16.8	0.00e+00	0	41	0	898629632	60	8179
2026-01-23 03:43:05.84	327.53	3.98	-44.9	-47.1	16.6	0.00e+00	0	42	0	900726784	60	8184
2026-01-23 03:43:06.85	327.65	3.94	-45.0	-47.3	16.5	0.00e+00	0	42	0	902823936	60	8355
2026-01-23 03:43:07.86	327.78	3.90	-44.8	-46.9	17.0	0.00e+00	0	42	0	903872512	60	7993
2026-01-23 03:43:08.87	327.90	3.87	-44.2	-46.2	17.7	0.00e+00	41	42	0	905969664	60	7348
2026-01-23 03:43:09.88	328.03	3.83	-44.3	-46.3	17.4	0.00e+00	0	42	0	908066816	60	7423
2026-01-23 03:43:10.89	328.15	3.80	-44.0	-45.8	17.8	0.00e+00	45	42	0	910163968	60	7082
2026-01-23 03:43:11.89	328.27	3.76	-44.1	-46.0	17.9	0.00e+00	0	42	0	912261120	60	7217
2026-01-23 03:43:12.90	328.40	3.72	-43.8	-45.5	18.3	0.00e+00	0	42	0	913309696	60	6831
2026-01-23 03:43:13.91	328.52	3.69	-44.6	-46.7	17.2	0.00e+00	0	42	0	915406848	60	7817
2026-01-23 03:43:14.92	328.64	3.65	-43.7	-45.4	18.2	0.00e+00	0	42	0	917504000	60	6718
2026-01-23 03:43:15.93	328.77	3.62	-43.4	-45.1	18.2	0.00e+00	41	42	0	919601152	60	6516
2026-01-23 03:43:16.94	328.89	3.58	-43.9	-45.7	18.0	0.00e+00	0	42	0	921698304	60	6964
2026-01-23 03:43:17.95	329.01	3.54	-43.8	-45.6	18.0	0.00e+00	81	42	0	923795456	60	6866
2026-01-23 03:43:18.96	329.14	3.51	-43.8	-45.6	18.1	0.00e+00	0	42	0	924844032	60	6887
2026-01-23 03:43:19.97	329.26	3.47	-43.6	-45.4	18.0	0.00e+00	77	42	0	926941184	60	6722
2026-01-23 03:43:20.98	329.38	3.43	-44.1	-46.1	17.3	0.00e+00	0	42	0	929038336	60	7302
2026-01-23 03:43:21.99	329.50	3.40	-43.5	-45.3	17.8	0.00e+00	0	42	0	931135488	60	6661
2026-01-23 03:43:23.00	329.62	3.36	-44.2	-46.2	17.1	0.00e+00	0	42	0	933232640	60	7405
2026-01-23 03:43:24.01	329.74	3.32	-44.4	-46.7	16.6	0.00e+00	0	42	0	934281216	60	7795
2026-01-23 03:43:25.02	329.86	3.29	-44.7	-47.2	15.9	0.00e+00	19	41	0	936378368	60	8241
2026-01-23 03:43:26.03	329.98	3.25	-44.6	-47.1	15.7	0.00e+00	0	42	0	938475520	60	8177
2026-01-23 03:43:27.04	330.10	3.21	-44.7	-47.3	15.3	0.00e+00	42	42	0	940572672	60	8363
2026-01-23 03:43:28.05	330.22	3.17	-44.7	-47.3	15.3	7.00e-07	0	42	0	942669824	60	8423
2026-01-23 03:43:29.06	330.34	3.14	-45.2	-48.2	14.6	0.00e+00	0	42	0	943718400	60	9296
2026-01-23 03:43:30.07	330.46	3.10	-45.6	-49.0	13.4	6.10e-06	0	42	0	945815552	60	10174
2026-01-23 03:43:31.08	330.58	3.06	-45.6	-49.3	12.8	4.04e-05	33	42	0	947912704	60	10554
2026-01-23 03:43:32.09	330.70	3.03	-45.7	-50.1	11.4	1.52e-04	92	42	0	950009856	60	11555
2026-01-23 03:43:33.10	330.81	2.99	-49.9	-65.1	3.6	1.53e+00	0	42	104	950009856	60	64876
2026-01-23 03:43:34.11	330.93	2.95	-50.2	-65.4	3.5	1.51e+00	0	42	104	950009856	60	67679
2026-01-23 03:43:35.12	331.05	2.91	-50.5	-65.7	3.6	1.51e+00	0	42	104	950009856	60	69314
2026-01-23 03:43:36.13	331.17	2.88	-50.7	-65.9	3.6	1.51e+00	0	42	104	950009856	60	71071
2026-01-23 03:43:37.14	331.28	2.84	-50.8	-66.0	3.6	1.51e+00	0	42	104	950009856	60	72066
2026-01-23 03:43:38.15	331.40	2.80	-50.9	-66.2	3.6	1.51e+00	0	42	104	950009856	60	73429
2026-01-23 03:43:39.16	331.52	2.77	-51.0	-66.2	3.6	1.51e+00	0	42	104	950009856	60	73506
2026-01-23 03:43:40.17	331.63	2.73	-51.0	-66.2	3.6	1.51e+00	0	42	104	950009856	60	74125
2026-01-23 03:43:41.18	331.75	2.69	-51.0	-66.2	3.6	1.51e+00	0	42	104	950009856	60	73972
2026-01-23 03:43:42.19	331.86	2.65	-51.1	-66.3	3.6	1.51e+00	0	42	104	950009856	60	74734
2026-01-23 03:43:43.20	331.98	2.61	-51.1	-66.3	3.6	1.51e+00	0	42	104	950009856	60	74612
2026-01-23 03:43:44.21	332.09	2.58	-51.1	-66.3	3.6	1.51e+00	0	42	104	950009856	60	74680
2026-01-23 03:43:45.22	332.21	2.54	-51.1	-66.3	3.6	1.51e+00	0	42	104	950009856	60	74765
2026-01-23 03:43:46.23	332.32	2.50	-51.1	-66.3	3.6	1.51e+00	0	42	104	950009856	60	74895
2026-01-23 03:43:47.24	332.44	2.46	-51.1	-66.3	3.6	1.51e+00	0	42	104	950009856	60	74369
2026-01-23 03:43:48.25	332.55	2.43	-51.0	-66.2	3.6	1.51e+00	0	42	104	950009856	60	73821
2026-01-23 03:43:49.26	332.67	2.39	-50.9	-66.2	3.6	1.51e+00	0	42	104	950009856	60	74070
2026-01-23 03:43:50.27	332.78	2.35	-51.0	-66.2	3.6	1.51e+00	0	42	104	950009856	60	73518
2026-01-23 03:43:51.28	332.89	2.31	-50.9	-66.2	3.6	1.51e+00	0	42	104	950009856	60	73955
2026-01-23 03:43:52.29	333.00	2.27	-50.9	-66.2	3.6	1.51e+00	0	42	104	950009856	60	74030
2026-01-23 03:43:53.30	333.12	2.24	-50.9	-66.2	3.6	1.51e+00	0	42	104	950009856	60	73923
2026-01-23 03:43:54.31	333.23	2.20	-50.9	-66.2	3.6	1.51e+00	0	42	104	950009856	60	73526
2026-01-23 03:43:55.32	333.34	2.16	-51.0	-66.2	3.6	1.51e+00	0	42	104	950009856	60	73921
2026-01-23 03:43:56.33	333.45	2.12	-51.0	-66.2	3.6	1.51e+00	0	42	104	950009856	60	74013
2026-01-23 03:43:57.34	333.56	2.08	-51.0	-66.2	3.6	1.51e+00	0	42	104	950009856	60	74151
2026-01-23 03:43:58.35	333.67	2.05	-51.0	-66.2	3.6	1.51e+00	0	42	104	950009856	60	73780
2026-01-23 03:43:59.36	333.79	2.01	-51.0	-66.2	3.6	1.51e+00	0	42	104	950009856	60	73760
2026-01-23 03:44:00.37	333.90	1.97	-51.0	-66.2	3.6	1.51e+00	0	42	104	950009856	60	73742
2026-01-23 03:44:01.38	334.01	1.93	-51.0	-66.2	3.6	1.51e+00	0	42	104	950009856	60	73581
2026-01-23 03:44:02.39	334.12	1.89	-51.0	-66.2	3.6	1.51e+00	0	42	104	950009856	60	73465
2026-01-23 03:44:03.40	334.23	1.85	-51.0	-66.2	3.6	1.51e+00	0	42	104	950009856	60	73598
2026-01-23 03:44:04.41	334.34	1.82	-51.0	-66.2	3.6	1.51e+00	0	42	104	950009856	60	73713
2026-01-23 03:44:05.42	334.44	1.78	-51.0	-66.2	3.6	1.51e+00	0	42	104	950009856	60	73828
2026-01-23 03:44:06.43	334.55	1.74	-51.0	-66.2	3.6	1.51e+00	0	42	104	950009856	60	73543
2026-01-23 03:44:07.44	334.66	1.70	-51.0	-66.2	3.6	1.51e+00	0	42	104	950009856	60	73523
2026-01-23 03:44:08.45	334.77	1.66	-51.0	-66.2	3.6	1.51e+00	0	42	104	950009856	60	73501
2026-01-23 03:44:09.46	334.88	1.62	-51.0	-66.2	3.6	1.51e+00	0	42	104	950009856	60	73674
2026-01-23 03:44:10.47	334.99	1.58	-51.0	-66.2	3.6	1.51e+00	0	42	104	950009856	60	74062
2026-01-23 03:44:11.48	335.09	1.55	-51.0	-66.1	3.6	1.51e+00	0	42	104	950009856	60	73293
2026-01-23 03:44:12.49	335.20	1.51	-51.0	-66.2	3.6	1.51e+00	0	42	104	950009856	60	73784
2026-01-23 03:44:13.50	335.31	1.47	-51.0	-66.2	3.6	1.51e+00	0	42	104	950009856	60	73424
2026-01-23 03:44:14.50	335.41	1.43	-51.0	-66.2	3.6	1.51e+00	0	42	104	950009856	60	73604
2026-01-23 03:44:15.52	335.52	1.39	-50.9	-66.2	3.6	1.51e+00	0	42	104	950009856	60	73712
2026-01-23 03:44:16.53	335.63	1.35	-51.0	-66.2	3.6	1.51e+00	0	42	104	950009856	60	73803
2026-01-23 03:44:17.53	335.73	1.31	-51.0	-66.2	3.6	1.51e+00	0	42	104	950009856	60	73448
2026-01-23 03:44:18.54	335.84	1.28	-51.0	-66.2	3.6	1.51e+00	0	42	104	950009856	60	73855
2026-01-23 03:44:19.56	335.95	1.24	-51.0	-66.2	3.6	1.51e+00	0	42	104	950009856	60	73868
2026-01-23 03:44:20.56	336.05	1.20	-51.0	-66.2	3.6	1.51e+00	0	42	104	950009856	60	73593
2026-01-23 03:44:21.58	336.16	1.16	-51.0	-66.2	3.6	1.51e+00	0	42	104	950009856	60	73555
2026-01-23 03:44:22.59	336.26	1.12	-51.0	-66.2	3.6	1.51e+00	0	42	104	950009856	60	73522
2026-01-23 03:44:23.60	336.36	1.08	-51.0	-66.1	3.6	1.51e+00	0	42	104	950009856	60	73364
2026-01-23 03:44:24.61	336.47	1.04	-51.0	-66.2	3.6	1.51e+00	0	42	104	950009856	60	73726
2026-01-23 03:44:25.62	336.57	1.00	-51.0	-66.2	3.6	1.51e+00	0	42	104	950009856	60	73781
2026-01-23 03:44:26.63	336.68	0.97	-51.0	-66.1	3.6	1.51e+00	0	42	104	950009856	60	73342
2026-01-23 03:44:27.64	336.78	0.93	-50.9	-66.1	3.6	1.51e+00	0	42	104	950009856	60	73356
2026-01-23 03:44:28.65	336.88	0.89	-50.9	-66.2	3.6	1.51e+00	0	42	104	950009856	60	73573
2026-01-23 03:44:29.66	336.99	0.85	-51.0	-66.2	3.6	1.51e+00	0	42	104	950009856	60	73719
2026-01-23 03:44:30.67	337.09	0.81	-51.0	-66.2	3.6	1.51e+00	0	42	104	950009856	60	73413
2026-01-23 03:44:31.68	337.19	0.77	-51.0	-66.1	3.5	1.51e+00	0	42	104	950009856	60	73357
2026-01-23 03:44:32.69	337.29	0.73	-51.0	-66.1	3.6	1.51e+00	0	42	104	950009856	60	73338
2026-01-23 03:44:33.70	337.39	0.69	-51.0	-66.2	3.6	1.51e+00	0	42	104	950009856	60	73638
2026-01-23 03:44:34.71	337.50	0.65	-50.9	-66.1	3.6	1.51e+00	0	42	104	950009856	60	73119
2026-01-23 03:44:35.72	337.60	0.61	-50.9	-66.2	3.6	1.51e+00	0	42	104	950009856	60	73575
2026-01-23 03:44:36.73	337.70	0.57	-51.0	-66.2	3.6	1.51e+00	0	42	104	950009856	60	73450
2026-01-23 03:44:37.74	337.80	0.54	-50.9	-66.1	3.6	1.51e+00	0	42	104	950009856	60	73086
2026-01-23 03:44:38.75	337.90	0.50	-51.0	-66.2	3.6	1.51e+00	0	42	104	950009856	60	73824
2026-01-23 03:44:39.76	338.00	0.46	-51.0	-66.2	3.6	1.51e+00	0	42	104	950009856	60	73933
2026-01-23 03:44:40.77	338.10	0.42	-51.0	-66.1	3.6	1.51e+00	0	42	104	950009856	60	73357
2026-01-23 03:44:41.78	338.20	0.38	-50.9	-66.1	3.6	1.51e+00	0	42	104	950009856	60	73260
2026-01-23 03:44:42.79	338.30	0.34	-51.0	-66.2	3.6	1.51e+00	0	42	104	950009856	60	73473
2026-01-23 03:44:43.80	338.40	0.30	-50.9	-66.1	3.6	1.51e+00	0	42	104	950009856	60	73185
2026-01-23 03:44:44.81	338.50	0.26	-50.9	-66.2	3.6	1.51e+00	0	42	104	950009856	60	73530
2026-01-23 03:44:45.82	338.60	0.22	-50.9	-66.1	3.6	1.51e+00	0	42	104	950009856	60	73173
2026-01-23 03:44:46.83	338.70	0.18	-50.9	-66.2	3.6	1.51e+00	0	42	104	950009856	60	73408
2026-01-23 03:44:47.84	338.79	0.14	-50.9	-66.2	3.6	1.51e+00	0	42	104	950009856	60	73480
2026-01-23 03:44:48.85	338.89	0.10	-50.9	-66.1	3.6	1.51e+00	0	42	104	950009856	60	73041
2026-01-23 03:44:49.86	338.99	0.07	-50.9	-66.1	3.6	1.51e+00	0	42	104	950009856	60	73307
2026-01-23 03:44:50.87	339.09	0.03	-50.9	-66.1	3.6	1.51e+00	0	42	104	950009856	60	73245

#Closed at: 2026-01-23 03:44:51
#Recorded file [950 MB]: D:/lorett/data/35029_260123_153344.dat