passes_logs/2026/01/23/R4.6S_Anadyr/R4.6S_Anadyr__20260123_232022_NOAA_21_JPSS-2_rec.log

#Pass ID: 20260123_232022_NOAA 21 (JPSS-2)
#Satellite: NOAA 21 (JPSS-2)
#Configuration: NOAA-21
#almurnet v.1.7.20251203
#Start time: 2026-01-23 23:20:28

#Version: 2.2.20231116
#Station: R4.6S_Anadyr
#Location: 177.4865 lon 64.73178 lat
#TLE: 1 54234U 22150A   26023.61190495  .00000215  00000+0  12293-3 0  9993
#TLE: 2 54234  98.7508 324.4078 0000700 226.6110 133.5008 14.19538339166032

#Time	Az	El	Level	Level2	SNR	BER	BlckErr	Temp	State	Recorded	gain1	gain2
2026-01-23 23:20:28.42	134.59	0.33	-51.7	-53.3	5.7	0.00e+00	0	39	0	0	60	56478
2026-01-23 23:20:29.43	134.57	0.39	-51.3	-64.2	3.5	1.52e+00	0	41	104	0	60	56717
2026-01-23 23:20:30.44	134.55	0.46	-51.3	-64.2	3.5	1.52e+00	0	41	104	0	60	56928
2026-01-23 23:20:31.45	134.53	0.52	-51.3	-64.1	3.5	1.52e+00	0	41	104	0	60	56411
2026-01-23 23:20:32.46	134.50	0.58	-51.3	-64.2	3.5	1.52e+00	0	41	104	0	60	56597
2026-01-23 23:20:33.47	134.48	0.64	-51.3	-64.2	3.5	1.52e+00	0	41	104	0	60	56690
2026-01-23 23:20:34.48	134.46	0.70	-51.3	-64.2	3.5	1.51e+00	0	41	104	0	60	56663
2026-01-23 23:20:35.49	134.44	0.76	-51.3	-64.1	3.5	1.52e+00	0	41	104	0	60	56519
2026-01-23 23:20:36.50	134.42	0.82	-51.3	-64.1	3.5	1.52e+00	0	41	104	0	60	56108
2026-01-23 23:20:37.51	134.39	0.88	-51.2	-64.0	3.5	1.52e+00	0	41	104	0	60	55528
2026-01-23 23:20:38.52	134.37	0.94	-51.1	-64.0	3.5	1.52e+00	0	41	104	0	60	55500
2026-01-23 23:20:39.53	134.35	1.01	-51.0	-63.9	3.5	1.52e+00	0	41	104	0	60	55062
2026-01-23 23:20:40.54	134.33	1.07	-51.1	-63.8	3.5	1.52e+00	0	41	104	0	60	54648
2026-01-23 23:20:41.55	134.30	1.13	-51.0	-63.8	3.5	1.52e+00	0	41	104	0	60	54365
2026-01-23 23:20:42.56	134.28	1.19	-50.9	-63.6	3.5	1.52e+00	0	41	104	0	60	53221
2026-01-23 23:20:43.57	134.26	1.25	-50.9	-63.7	3.5	1.52e+00	0	41	104	0	60	53510
2026-01-23 23:20:44.58	134.24	1.32	-50.8	-63.5	3.5	1.52e+00	0	41	104	0	60	52804
2026-01-23 23:20:45.59	134.21	1.38	-50.6	-63.4	3.5	1.52e+00	0	41	104	0	60	52064
2026-01-23 23:20:46.60	134.19	1.44	-50.6	-63.3	3.5	1.51e+00	0	41	104	0	60	51603
2026-01-23 23:20:47.61	134.17	1.51	-50.4	-63.2	3.5	1.52e+00	0	41	104	0	60	50553
2026-01-23 23:20:48.62	134.14	1.57	-50.2	-62.9	3.5	1.52e+00	0	41	104	0	60	49169
2026-01-23 23:20:49.63	134.12	1.63	-49.7	-62.6	3.5	1.52e+00	0	41	104	0	60	47277
2026-01-23 23:20:50.64	134.10	1.69	-49.7	-62.6	3.5	1.52e+00	0	41	104	0	60	47295
2026-01-23 23:20:51.65	134.07	1.76	-49.7	-62.6	3.5	1.52e+00	0	41	104	0	60	47393
2026-01-23 23:20:52.66	134.05	1.82	-49.7	-62.7	3.5	1.52e+00	0	41	104	0	60	47839
2026-01-23 23:20:53.67	134.02	1.88	-49.7	-62.6	3.5	1.52e+00	0	41	104	0	60	47584
2026-01-23 23:20:54.68	134.00	1.95	-49.7	-62.6	3.5	1.52e+00	0	41	104	0	60	47499
2026-01-23 23:20:55.69	133.98	2.01	-49.7	-62.6	3.5	1.52e+00	0	41	104	0	60	47274
2026-01-23 23:20:56.70	133.95	2.08	-49.7	-62.5	3.5	1.52e+00	0	41	104	0	60	46969
2026-01-23 23:20:57.71	133.93	2.14	-49.7	-62.3	3.5	1.51e+00	0	41	104	0	60	45892
2026-01-23 23:20:58.72	133.90	2.20	-49.7	-62.3	3.5	1.52e+00	0	41	104	0	60	45651
2026-01-23 23:20:59.73	133.88	2.27	-49.7	-62.2	3.5	1.52e+00	0	41	104	0	60	45385
2026-01-23 23:21:00.74	133.85	2.33	-49.7	-62.3	3.5	1.52e+00	0	41	104	0	60	45831
2026-01-23 23:21:01.75	133.83	2.40	-49.7	-62.4	3.5	1.52e+00	0	41	104	0	60	46494
2026-01-23 23:21:02.76	133.80	2.46	-49.7	-62.6	3.5	1.52e+00	0	41	104	0	60	47163
2026-01-23 23:21:03.77	133.78	2.53	-49.7	-62.7	3.5	1.52e+00	0	41	104	0	60	47651
2026-01-23 23:21:04.78	133.75	2.59	-49.7	-62.6	3.5	1.52e+00	0	41	104	0	60	47604
2026-01-23 23:21:05.79	133.73	2.66	-49.7	-62.5	3.5	1.52e+00	0	41	104	0	60	47035
2026-01-23 23:21:06.80	133.70	2.72	-49.7	-62.4	3.5	1.52e+00	0	41	104	0	60	46324
2026-01-23 23:21:07.81	133.68	2.79	-49.7	-62.2	3.5	1.52e+00	0	41	104	0	60	45316
2026-01-23 23:21:08.82	133.65	2.85	-49.7	-62.0	3.5	1.52e+00	0	41	104	0	60	44232
2026-01-23 23:21:09.83	133.63	2.92	-49.6	-61.9	3.5	1.52e+00	0	41	104	0	60	43464
2026-01-23 23:21:10.84	133.60	2.99	-49.6	-61.6	3.5	1.52e+00	0	41	104	0	60	42111
2026-01-23 23:21:11.85	133.57	3.05	-49.6	-61.5	3.5	1.51e+00	0	41	104	0	60	41675
2026-01-23 23:21:12.86	133.55	3.12	-49.6	-61.5	3.5	1.52e+00	0	41	104	0	60	41737
2026-01-23 23:21:13.87	133.52	3.19	-49.6	-61.7	3.5	1.51e+00	0	41	104	0	60	42932
2026-01-23 23:21:14.88	133.50	3.25	-49.7	-62.3	3.5	1.52e+00	0	41	104	0	60	45704
2026-01-23 23:21:15.89	133.47	3.32	-49.7	-62.6	3.5	1.51e+00	0	41	104	0	60	47211
2026-01-23 23:21:16.90	133.44	3.39	-49.7	-62.0	3.5	1.52e+00	0	41	104	0	60	44439
2026-01-23 23:21:17.91	133.41	3.45	-49.5	-60.0	3.6	1.51e+00	0	41	104	0	60	34998
2026-01-23 23:21:18.92	133.39	3.52	-48.9	-56.6	5.7	4.77e-01	0	41	0	0	60	23859
2026-01-23 23:21:19.93	133.36	3.59	-48.2	-53.0	8.4	9.66e-02	0	41	0	3145728	60	15641
2026-01-23 23:21:20.95	133.33	3.66	-47.1	-50.7	10.9	6.58e-03	0	41	0	6291456	60	12042
2026-01-23 23:21:21.95	133.31	3.72	-46.3	-49.2	12.6	2.82e-04	0	41	0	9437184	60	10121
2026-01-23 23:21:22.96	133.28	3.79	-45.9	-48.6	13.3	2.36e-05	0	41	0	12582912	60	9446
2026-01-23 23:21:23.97	133.25	3.86	-50.3	-63.4	3.5	1.52e+00	0	41	104	13631488	60	51626
2026-01-23 23:21:24.98	133.22	3.93	-44.8	-47.2	5.1	1.48e+00	0	41	104	13631488	60	8021
2026-01-23 23:21:25.99	133.19	3.99	-49.6	-61.7	3.6	1.51e+00	0	42	104	13631488	60	42676
2026-01-23 23:21:27.00	133.17	4.06	-50.0	-62.6	3.5	1.51e+00	0	42	104	13631488	60	47212
2026-01-23 23:21:28.01	133.14	4.13	-44.5	-46.9	14.8	1.41e+00	2	41	104	13631488	60	7783
2026-01-23 23:21:29.02	133.11	4.20	-42.9	-44.5	17.6	0.00e+00	0	41	0	14680064	60	5868
2026-01-23 23:21:30.03	133.08	4.27	-42.5	-44.0	17.7	0.00e+00	0	41	0	17825792	58	6230
2026-01-23 23:21:31.03	133.05	4.34	-42.4	-43.8	18.2	0.00e+00	0	41	0	20971520	58	6128
2026-01-23 23:21:32.04	133.02	4.41	-41.7	-43.1	18.8	0.00e+00	0	41	0	24117248	56	6279
2026-01-23 23:21:33.05	132.99	4.48	-41.4	-42.7	19.6	0.00e+00	0	41	0	27262976	56	6008
2026-01-23 23:21:34.06	132.97	4.55	-41.0	-42.2	19.6	0.00e+00	0	41	0	30408704	56	5697
2026-01-23 23:21:35.07	132.94	4.62	-40.8	-42.1	20.1	0.00e+00	0	41	0	33554432	56	5611
2026-01-23 23:21:36.08	132.91	4.69	-40.3	-41.4	20.4	0.00e+00	0	41	0	36700160	54	5850
2026-01-23 23:21:37.09	132.88	4.76	-40.5	-41.6	20.2	0.00e+00	0	41	0	39845888	54	5992
2026-01-23 23:21:38.10	132.85	4.83	-40.2	-41.4	20.4	0.00e+00	0	41	0	42991616	54	5820
2026-01-23 23:21:39.11	132.82	4.90	-40.1	-41.3	20.5	0.00e+00	0	41	0	46137344	54	5746
2026-01-23 23:21:40.12	132.79	4.97	-40.0	-41.2	20.6	0.00e+00	0	41	0	49283072	54	5671
2026-01-23 23:21:41.13	132.76	5.04	-40.2	-41.4	20.4	0.00e+00	0	41	0	52428800	54	5801
2026-01-23 23:21:42.14	132.73	5.11	-39.9	-41.1	20.8	0.00e+00	0	41	0	55574528	54	5614
2026-01-23 23:21:43.15	132.70	5.18	-40.1	-41.2	20.6	0.00e+00	0	41	0	58720256	54	5704
2026-01-23 23:21:44.16	132.66	5.25	-40.0	-41.1	20.7	0.00e+00	0	41	0	61865984	54	5649
2026-01-23 23:21:45.17	132.63	5.33	-39.8	-40.9	20.9	0.00e+00	0	41	0	65011712	54	5528
2026-01-23 23:21:46.18	132.60	5.40	-39.8	-41.0	20.9	0.00e+00	0	41	0	68157440	54	5531
2026-01-23 23:21:47.19	132.57	5.47	-40.0	-41.2	20.7	0.00e+00	0	41	0	71303168	54	5662
2026-01-23 23:21:48.20	132.54	5.54	-39.9	-41.0	20.9	0.00e+00	0	41	0	74448896	54	5584
2026-01-23 23:21:49.21	132.51	5.61	-39.9	-41.1	20.7	0.00e+00	0	41	0	77594624	54	5618
2026-01-23 23:21:50.22	132.48	5.69	-39.9	-41.1	20.7	0.00e+00	0	41	0	80740352	54	5597
2026-01-23 23:21:51.23	132.44	5.76	-39.8	-40.9	20.8	0.00e+00	0	41	0	83886080	54	5514
2026-01-23 23:21:52.24	132.41	5.83	-39.8	-41.0	20.9	0.00e+00	0	41	0	87031808	54	5543
2026-01-23 23:21:53.25	132.38	5.91	-40.0	-41.1	20.7	0.00e+00	0	41	0	90177536	54	5645
2026-01-23 23:21:54.26	132.35	5.98	-39.8	-41.0	20.8	0.00e+00	0	41	0	93323264	52	6227
2026-01-23 23:21:55.27	132.31	6.05	-39.9	-41.0	20.9	0.00e+00	0	41	0	96468992	52	6261
2026-01-23 23:21:56.28	132.28	6.13	-39.8	-40.9	21.0	0.00e+00	0	41	0	99614720	52	6159
2026-01-23 23:21:57.29	132.25	6.20	-39.8	-40.9	21.0	0.00e+00	0	41	0	102760448	52	6167
2026-01-23 23:21:58.30	132.22	6.27	-39.8	-40.9	20.9	0.00e+00	0	41	0	105906176	52	6195
2026-01-23 23:21:59.31	132.18	6.35	-39.8	-41.0	21.0	0.00e+00	0	41	0	109051904	52	6226
2026-01-23 23:22:00.32	132.15	6.42	-39.8	-40.9	21.0	0.00e+00	0	41	0	112197632	52	6199
2026-01-23 23:22:01.33	132.11	6.50	-39.8	-40.9	21.1	0.00e+00	0	41	0	115343360	52	6170
2026-01-23 23:22:02.33	132.08	6.57	-39.9	-41.1	20.9	0.00e+00	0	41	0	118489088	52	6322
2026-01-23 23:22:03.34	132.05	6.65	-39.6	-40.8	21.2	0.00e+00	0	41	0	121634816	52	6084
2026-01-23 23:22:04.35	132.01	6.72	-39.6	-40.7	21.2	0.00e+00	0	42	0	124780544	52	6055
2026-01-23 23:22:05.36	131.98	6.80	-39.6	-40.8	21.2	0.00e+00	0	41	0	127926272	52	6066
2026-01-23 23:22:06.37	131.94	6.87	-39.7	-40.8	21.1	0.00e+00	0	41	0	131072000	52	6132
2026-01-23 23:22:07.38	131.91	6.95	-40.0	-41.2	20.8	0.00e+00	0	41	0	134217728	52	6378
2026-01-23 23:22:08.39	131.87	7.03	-40.3	-41.4	20.6	0.00e+00	0	41	0	137363456	52	6542
2026-01-23 23:22:09.40	131.84	7.10	-39.8	-40.9	21.2	0.00e+00	0	41	0	140509184	52	6199
2026-01-23 23:22:10.41	131.80	7.18	-39.7	-40.8	21.2	0.00e+00	0	41	0	143654912	52	6085
2026-01-23 23:22:11.42	131.77	7.26	-39.8	-40.9	21.1	0.00e+00	0	42	0	146800640	52	6184
2026-01-23 23:22:12.43	131.73	7.33	-39.9	-41.1	21.0	0.00e+00	0	41	0	149946368	52	6323
2026-01-23 23:22:13.44	131.69	7.41	-39.7	-40.9	21.2	0.00e+00	0	41	0	153092096	52	6156
2026-01-23 23:22:14.44	131.66	7.49	-39.4	-40.4	21.5	0.00e+00	0	41	0	156237824	52	5853
2026-01-23 23:22:15.45	131.62	7.57	-39.3	-40.4	21.7	0.00e+00	0	41	0	159383552	52	5816
2026-01-23 23:22:16.46	131.58	7.64	-39.3	-40.4	21.7	0.00e+00	0	41	0	162529280	52	5802
2026-01-23 23:22:17.47	131.55	7.72	-39.3	-40.3	21.7	0.00e+00	0	41	0	165675008	52	5778
2026-01-23 23:22:18.48	131.51	7.80	-39.3	-40.4	21.6	0.00e+00	0	41	0	168820736	52	5839
2026-01-23 23:22:19.49	131.47	7.88	-39.5	-40.5	21.5	0.00e+00	0	41	0	171966464	52	5922
2026-01-23 23:22:20.50	131.44	7.96	-39.3	-40.4	21.7	0.00e+00	0	41	0	175112192	52	5813
2026-01-23 23:22:21.51	131.40	8.04	-39.4	-40.5	21.6	0.00e+00	0	41	0	178257920	52	5887
2026-01-23 23:22:22.51	131.36	8.12	-39.4	-40.5	21.5	0.00e+00	0	41	0	181403648	52	5915
2026-01-23 23:22:23.53	131.32	8.20	-39.4	-40.5	21.6	0.00e+00	0	41	0	184549376	52	5892
2026-01-23 23:22:24.54	131.28	8.28	-39.3	-40.4	21.6	0.00e+00	0	41	0	187695104	52	5815
2026-01-23 23:22:25.55	131.24	8.36	-39.0	-40.0	22.0	0.00e+00	0	41	0	190840832	52	5591
2026-01-23 23:22:26.56	131.20	8.44	-39.1	-40.1	22.0	0.00e+00	0	41	0	193986560	52	5654
2026-01-23 23:22:27.57	131.17	8.52	-38.9	-40.0	22.1	0.00e+00	0	41	0	197132288	52	5565
2026-01-23 23:22:28.58	131.13	8.60	-39.1	-40.2	22.0	0.00e+00	0	41	0	200278016	52	5673
2026-01-23 23:22:29.59	131.09	8.68	-38.9	-39.9	22.2	0.00e+00	0	41	0	203423744	52	5510
2026-01-23 23:22:30.60	131.05	8.76	-39.0	-40.0	22.1	0.00e+00	0	41	0	206569472	52	5593
2026-01-23 23:22:31.61	131.01	8.84	-38.8	-39.9	22.2	0.00e+00	0	41	0	209715200	52	5480
2026-01-23 23:22:32.62	130.97	8.92	-38.6	-39.7	22.4	0.00e+00	0	41	0	212860928	50	6004
2026-01-23 23:22:33.63	130.93	9.01	-38.7	-39.7	22.4	0.00e+00	0	41	0	216006656	50	6019
2026-01-23 23:22:34.64	130.88	9.09	-38.6	-39.6	22.4	0.00e+00	0	41	0	219152384	50	5981
2026-01-23 23:22:35.65	130.84	9.17	-38.7	-39.7	22.4	0.00e+00	0	41	0	222298112	50	6025
2026-01-23 23:22:36.66	130.80	9.25	-38.8	-39.8	22.3	0.00e+00	0	41	0	225443840	50	6096
2026-01-23 23:22:37.67	130.76	9.34	-38.4	-39.4	22.5	0.00e+00	0	41	0	228589568	50	5845
2026-01-23 23:22:38.68	130.72	9.42	-38.6	-39.6	22.4	0.00e+00	0	41	0	231735296	50	5970
2026-01-23 23:22:39.69	130.68	9.50	-38.3	-39.3	22.7	0.00e+00	0	41	0	234881024	50	5776
2026-01-23 23:22:40.70	130.63	9.59	-38.3	-39.3	22.7	0.00e+00	0	41	0	238026752	50	5746
2026-01-23 23:22:41.71	130.59	9.67	-38.3	-39.3	22.8	0.00e+00	0	41	0	241172480	50	5731
2026-01-23 23:22:42.72	130.55	9.76	-38.4	-39.3	22.6	0.00e+00	0	41	0	244318208	50	5784
2026-01-23 23:22:43.73	130.50	9.84	-38.3	-39.3	22.7	0.00e+00	0	41	0	247463936	50	5760
2026-01-23 23:22:44.74	130.46	9.93	-38.3	-39.3	22.8	0.00e+00	0	41	0	251658240	50	5751
2026-01-23 23:22:45.75	130.42	10.01	-38.2	-39.2	22.9	0.00e+00	0	41	0	254803968	50	5683
2026-01-23 23:22:46.76	130.37	10.10	-38.1	-39.1	22.9	0.00e+00	0	41	0	256901120	50	5638
2026-01-23 23:22:47.77	130.33	10.18	-38.1	-39.0	22.9	0.00e+00	0	41	0	260046848	50	5590
2026-01-23 23:22:48.78	130.28	10.27	-38.0	-39.0	23.0	0.00e+00	0	41	0	263192576	50	5566
2026-01-23 23:22:49.79	130.24	10.36	-38.1	-39.1	22.9	0.00e+00	0	41	0	267386880	50	5626
2026-01-23 23:22:50.80	130.19	10.44	-38.1	-39.0	23.0	0.00e+00	0	41	0	270532608	50	5576
2026-01-23 23:22:51.81	130.15	10.53	-37.9	-38.9	23.1	0.00e+00	0	41	0	273678336	50	5507
2026-01-23 23:22:52.82	130.10	10.62	-37.9	-38.9	23.2	0.00e+00	0	41	0	276824064	50	5508
2026-01-23 23:22:53.83	130.06	10.71	-37.9	-38.8	23.2	0.00e+00	0	41	0	279969792	50	5460
2026-01-23 23:22:54.84	130.01	10.79	-37.8	-38.8	23.2	0.00e+00	0	41	0	283115520	50	5447
2026-01-23 23:22:55.85	129.96	10.88	-37.9	-38.9	23.2	0.00e+00	0	41	0	286261248	50	5468
2026-01-23 23:22:56.86	129.92	10.97	-38.0	-38.9	23.1	0.00e+00	0	41	0	289406976	50	5518
2026-01-23 23:22:57.87	129.87	11.06	-38.0	-39.0	23.1	0.00e+00	0	41	0	292552704	50	5555
2026-01-23 23:22:58.88	129.82	11.15	-38.0	-38.9	23.1	0.00e+00	0	41	0	295698432	50	5512
2026-01-23 23:22:59.89	129.77	11.24	-37.6	-38.5	23.5	0.00e+00	0	41	0	298844160	48	5902
2026-01-23 23:23:00.90	129.73	11.33	-37.7	-38.6	23.3	0.00e+00	0	41	0	301989888	48	5966
2026-01-23 23:23:01.91	129.68	11.42	-37.6	-38.6	23.4	0.00e+00	0	41	0	305135616	48	5935
2026-01-23 23:23:02.92	129.63	11.51	-37.5	-38.5	23.5	0.00e+00	0	41	0	308281344	48	5883
2026-01-23 23:23:03.93	129.58	11.60	-37.5	-38.5	23.5	0.00e+00	0	41	0	311427072	48	5864
2026-01-23 23:23:04.93	129.53	11.69	-37.5	-38.5	23.5	0.00e+00	0	41	0	314572800	48	5866
2026-01-23 23:23:05.94	129.48	11.78	-37.4	-38.4	23.5	0.00e+00	0	41	0	317718528	48	5812
2026-01-23 23:23:06.95	129.43	11.87	-37.5	-38.5	23.5	0.00e+00	0	41	0	320864256	48	5880
2026-01-23 23:23:07.96	129.38	11.96	-37.6	-38.5	23.4	0.00e+00	0	41	0	324009984	48	5917
2026-01-23 23:23:08.97	129.33	12.05	-37.5	-38.5	23.5	0.00e+00	0	41	0	327155712	48	5868
2026-01-23 23:23:09.98	129.28	12.15	-37.6	-38.6	23.3	0.00e+00	0	41	0	330301440	48	5938
2026-01-23 23:23:10.99	129.23	12.24	-37.6	-38.6	23.4	0.00e+00	0	41	0	333447168	48	5934
2026-01-23 23:23:12.00	129.17	12.33	-37.4	-38.3	23.6	0.00e+00	0	41	0	336592896	48	5753
2026-01-23 23:23:13.02	129.12	12.43	-37.4	-38.3	23.6	0.00e+00	0	41	0	339738624	48	5778
2026-01-23 23:23:14.03	129.07	12.52	-37.4	-38.3	23.5	0.00e+00	0	41	0	342884352	48	5756
2026-01-23 23:23:15.04	129.02	12.62	-37.5	-38.5	23.5	0.00e+00	0	41	0	346030080	48	5867
2026-01-23 23:23:16.05	128.96	12.71	-37.3	-38.3	23.6	0.00e+00	0	41	0	349175808	48	5743
2026-01-23 23:23:17.05	128.91	12.80	-37.5	-38.5	23.5	0.00e+00	0	41	0	352321536	48	5867
2026-01-23 23:23:18.06	128.86	12.90	-37.3	-38.2	23.7	0.00e+00	0	41	0	355467264	48	5708
2026-01-23 23:23:19.07	128.80	12.99	-37.3	-38.3	23.6	0.00e+00	0	41	0	358612992	48	5730
2026-01-23 23:23:20.08	128.75	13.09	-37.3	-38.2	23.8	0.00e+00	0	41	0	361758720	48	5676
2026-01-23 23:23:21.09	128.69	13.19	-37.4	-38.3	23.6	0.00e+00	0	41	0	364904448	48	5767
2026-01-23 23:23:22.10	128.64	13.28	-37.3	-38.3	23.6	0.00e+00	0	41	0	368050176	48	5742
2026-01-23 23:23:23.12	128.58	13.38	-37.3	-38.3	23.7	0.00e+00	0	41	0	371195904	48	5728
2026-01-23 23:23:24.12	128.53	13.48	-37.3	-38.2	23.7	0.00e+00	0	41	0	374341632	48	5717
2026-01-23 23:23:25.14	128.47	13.58	-37.4	-38.3	23.6	0.00e+00	0	41	0	377487360	48	5759
2026-01-23 23:23:26.15	128.41	13.67	-37.3	-38.2	23.7	0.00e+00	0	41	0	380633088	48	5688
2026-01-23 23:23:27.16	128.35	13.77	-37.5	-38.4	23.6	0.00e+00	0	41	0	383778816	48	5828
2026-01-23 23:23:28.17	128.30	13.87	-37.3	-38.2	23.6	0.00e+00	0	41	0	386924544	48	5721
2026-01-23 23:23:29.18	128.24	13.97	-37.6	-38.5	23.5	0.00e+00	0	41	0	390070272	48	5895
2026-01-23 23:23:30.19	128.18	14.07	-37.4	-38.3	23.6	0.00e+00	0	41	0	393216000	48	5768
2026-01-23 23:23:31.20	128.12	14.17	-37.4	-38.4	23.6	0.00e+00	0	42	0	396361728	48	5812
2026-01-23 23:23:32.21	128.06	14.27	-37.4	-38.3	23.7	0.00e+00	0	41	0	399507456	48	5752
2026-01-23 23:23:33.22	128.00	14.37	-37.4	-38.4	23.6	0.00e+00	0	41	0	402653184	48	5809
2026-01-23 23:23:34.23	127.94	14.47	-37.3	-38.3	23.7	0.00e+00	0	41	0	405798912	48	5740
2026-01-23 23:23:35.24	127.88	14.57	-37.6	-38.5	23.5	0.00e+00	0	41	0	408944640	48	5910
2026-01-23 23:23:36.25	127.82	14.68	-37.4	-38.4	23.6	0.00e+00	0	41	0	412090368	48	5803
2026-01-23 23:23:37.26	127.76	14.78	-37.4	-38.3	23.7	0.00e+00	0	41	0	415236096	48	5788
2026-01-23 23:23:38.27	127.69	14.88	-37.5	-38.5	23.6	0.00e+00	0	41	0	418381824	48	5861
2026-01-23 23:23:39.28	127.63	14.98	-37.5	-38.4	23.6	0.00e+00	0	41	0	421527552	48	5848
2026-01-23 23:23:40.29	127.57	15.09	-37.4	-38.3	23.7	0.00e+00	0	41	0	424673280	48	5778
2026-01-23 23:23:41.30	127.51	15.19	-37.5	-38.4	23.6	0.00e+00	0	41	0	427819008	48	5825
2026-01-23 23:23:42.31	127.44	15.29	-37.6	-38.5	23.6	0.00e+00	0	41	0	430964736	48	5909
2026-01-23 23:23:43.32	127.38	15.40	-37.5	-38.5	23.6	0.00e+00	0	41	0	434110464	48	5875
2026-01-23 23:23:44.33	127.31	15.50	-37.4	-38.3	23.7	0.00e+00	0	41	0	437256192	48	5749
2026-01-23 23:23:45.34	127.25	15.61	-37.4	-38.4	23.7	0.00e+00	0	41	0	440401920	48	5795
2026-01-23 23:23:46.35	127.18	15.72	-37.5	-38.4	23.7	0.00e+00	0	41	0	443547648	48	5835
2026-01-23 23:23:47.36	127.12	15.82	-37.3	-38.3	23.7	0.00e+00	0	41	0	446693376	48	5745
2026-01-23 23:23:48.37	127.05	15.93	-37.4	-38.3	23.6	0.00e+00	0	41	0	449839104	48	5766
2026-01-23 23:23:49.38	126.98	16.04	-37.4	-38.3	23.6	0.00e+00	0	41	0	452984832	48	5762
2026-01-23 23:23:50.39	126.91	16.14	-37.3	-38.2	23.7	0.00e+00	0	41	0	456130560	48	5719
2026-01-23 23:23:51.40	126.85	16.25	-37.4	-38.3	23.7	0.00e+00	0	41	0	459276288	48	5762
2026-01-23 23:23:52.41	126.78	16.36	-37.5	-38.5	23.6	0.00e+00	0	41	0	462422016	48	5877
2026-01-23 23:23:53.42	126.71	16.47	-37.4	-38.3	23.6	0.00e+00	0	41	0	465567744	48	5790
2026-01-23 23:23:54.43	126.64	16.58	-37.5	-38.5	23.6	0.00e+00	0	41	0	468713472	48	5878
2026-01-23 23:23:55.44	126.57	16.69	-37.6	-38.6	23.4	0.00e+00	0	41	0	471859200	48	5969
2026-01-23 23:23:56.45	126.50	16.80	-37.6	-38.6	23.4	0.00e+00	0	41	0	475004928	48	5932
2026-01-23 23:23:57.46	126.43	16.91	-37.7	-38.6	23.4	0.00e+00	0	41	0	478150656	48	5981
2026-01-23 23:23:58.47	126.35	17.02	-37.7	-38.7	23.5	0.00e+00	0	41	0	481296384	48	6026
2026-01-23 23:23:59.48	126.28	17.13	-37.8	-38.7	23.5	0.00e+00	0	41	0	484442112	48	6047
2026-01-23 23:24:00.49	126.21	17.24	-37.6	-38.6	23.5	0.00e+00	0	41	0	487587840	48	5945
2026-01-23 23:24:01.50	126.13	17.36	-37.7	-38.6	23.5	0.00e+00	0	42	0	490733568	48	5978
2026-01-23 23:24:02.51	126.06	17.47	-37.8	-38.8	23.4	0.00e+00	0	41	0	493879296	48	6085
2026-01-23 23:24:03.52	125.98	17.58	-37.8	-38.8	23.5	0.00e+00	0	42	0	497025024	48	6076
2026-01-23 23:24:04.54	125.91	17.70	-37.9	-38.8	23.4	0.00e+00	0	41	0	500170752	48	6126
2026-01-23 23:24:05.54	125.83	17.81	-37.8	-38.8	23.4	0.00e+00	0	42	0	503316480	48	6090
2026-01-23 23:24:06.55	125.76	17.93	-37.9	-38.9	23.3	0.00e+00	0	41	0	506462208	48	6166
2026-01-23 23:24:07.56	125.68	18.04	-37.9	-38.9	23.2	0.00e+00	0	42	0	509607936	48	6166
2026-01-23 23:24:08.57	125.60	18.16	-38.0	-39.0	23.1	0.00e+00	0	42	0	512753664	48	6223
2026-01-23 23:24:09.58	125.52	18.27	-37.9	-38.9	23.3	0.00e+00	0	41	0	515899392	48	6158
2026-01-23 23:24:10.59	125.44	18.39	-38.1	-39.1	23.2	0.00e+00	0	42	0	519045120	48	6288
2026-01-23 23:24:11.60	125.36	18.51	-37.9	-38.9	23.3	0.00e+00	0	41	0	522190848	48	6168
2026-01-23 23:24:12.61	125.28	18.63	-37.9	-38.9	23.4	0.00e+00	0	42	0	525336576	48	6162
2026-01-23 23:24:13.62	125.20	18.74	-37.8	-38.8	23.4	0.00e+00	0	41	0	528482304	48	6077
2026-01-23 23:24:14.63	125.12	18.86	-37.8	-38.8	23.5	0.00e+00	0	41	0	531628032	48	6081
2026-01-23 23:24:15.64	125.04	18.98	-37.8	-38.7	23.5	0.00e+00	0	42	0	534773760	48	6043
2026-01-23 23:24:16.65	124.96	19.10	-37.7	-38.7	23.5	0.00e+00	0	42	0	537919488	48	5998
2026-01-23 23:24:17.65	124.87	19.22	-37.6	-38.5	23.6	0.00e+00	0	42	0	541065216	48	5916
2026-01-23 23:24:18.67	124.79	19.34	-37.6	-38.6	23.6	0.00e+00	0	42	0	544210944	48	5928
2026-01-23 23:24:19.68	124.70	19.46	-37.5	-38.4	23.8	0.00e+00	0	42	0	547356672	48	5829
2026-01-23 23:24:20.69	124.62	19.59	-37.5	-38.4	23.7	0.00e+00	0	42	0	550502400	48	5836
2026-01-23 23:24:21.70	124.53	19.71	-37.5	-38.5	23.7	0.00e+00	0	41	0	553648128	48	5860
2026-01-23 23:24:22.71	124.44	19.83	-37.3	-38.3	23.9	0.00e+00	0	41	0	556793856	48	5726
2026-01-23 23:24:23.72	124.36	19.96	-37.4	-38.4	23.8	0.00e+00	0	42	0	559939584	48	5796
2026-01-23 23:24:24.73	124.27	20.08	-37.4	-38.3	23.8	0.00e+00	0	41	0	563085312	48	5752
2026-01-23 23:24:25.74	124.18	20.20	-37.2	-38.1	24.0	0.00e+00	0	41	0	567279616	48	5612
2026-01-23 23:24:26.75	124.09	20.33	-37.3	-38.2	23.9	0.00e+00	0	41	0	570425344	48	5702
2026-01-23 23:24:27.76	124.00	20.45	-37.2	-38.1	24.0	0.00e+00	0	41	0	573571072	48	5616
2026-01-23 23:24:28.77	123.91	20.58	-37.2	-38.1	23.9	0.00e+00	0	41	0	575668224	48	5637
2026-01-23 23:24:29.78	123.81	20.71	-37.0	-37.9	24.1	0.00e+00	0	42	0	578813952	48	5500
2026-01-23 23:24:30.79	123.72	20.84	-37.1	-38.0	24.1	0.00e+00	0	42	0	583008256	48	5556
2026-01-23 23:24:31.80	123.63	20.96	-37.1	-38.0	24.1	0.00e+00	0	42	0	586153984	48	5570
2026-01-23 23:24:32.81	123.53	21.09	-36.8	-37.7	24.3	0.00e+00	0	42	0	589299712	48	5389
2026-01-23 23:24:33.82	123.44	21.22	-36.9	-37.8	24.2	0.00e+00	0	42	0	592445440	48	5445
2026-01-23 23:24:34.83	123.34	21.35	-36.7	-37.6	24.4	0.00e+00	0	42	0	595591168	46	5945
2026-01-23 23:24:35.83	123.24	21.48	-36.6	-37.5	24.5	0.00e+00	0	42	0	597688320	46	5905
2026-01-23 23:24:36.84	123.15	21.61	-36.6	-37.5	24.5	0.00e+00	0	42	0	601882624	46	5891
2026-01-23 23:24:37.85	123.05	21.74	-36.4	-37.3	24.6	0.00e+00	0	42	0	605028352	46	5746
2026-01-23 23:24:38.86	122.95	21.87	-36.4	-37.2	24.6	0.00e+00	0	42	0	608174080	46	5716
2026-01-23 23:24:39.87	122.85	22.01	-36.3	-37.2	24.7	0.00e+00	0	42	0	611319808	46	5683
2026-01-23 23:24:40.88	122.74	22.14	-36.3	-37.1	24.7	0.00e+00	0	42	0	614465536	46	5646
2026-01-23 23:24:41.89	122.64	22.27	-36.4	-37.3	24.6	0.00e+00	0	42	0	617611264	46	5741
2026-01-23 23:24:42.90	122.54	22.41	-36.3	-37.2	24.7	0.00e+00	0	42	0	620756992	46	5705
2026-01-23 23:24:43.91	122.43	22.54	-36.1	-37.0	24.8	0.00e+00	0	42	0	623902720	46	5566
2026-01-23 23:24:44.92	122.33	22.68	-36.3	-37.2	24.7	0.00e+00	0	42	0	627048448	46	5660
2026-01-23 23:24:45.93	122.22	22.81	-36.2	-37.1	24.7	0.00e+00	0	42	0	630194176	46	5631
2026-01-23 23:24:46.95	122.11	22.95	-36.2	-37.1	24.6	0.00e+00	0	41	0	633339904	46	5600
2026-01-23 23:24:47.95	122.01	23.09	-36.2	-37.1	24.6	0.00e+00	0	42	0	636485632	46	5642
2026-01-23 23:24:48.96	121.90	23.23	-36.3	-37.2	24.6	0.00e+00	0	42	0	639631360	46	5716
2026-01-23 23:24:49.98	121.79	23.37	-36.4	-37.3	24.6	0.00e+00	0	42	0	642777088	46	5761
2026-01-23 23:24:50.98	121.68	23.50	-36.4	-37.2	24.6	0.00e+00	0	42	0	645922816	46	5720
2026-01-23 23:24:52.00	121.56	23.65	-36.3	-37.2	24.7	0.00e+00	0	42	0	649068544	46	5725
2026-01-23 23:24:53.00	121.45	23.78	-36.4	-37.3	24.7	0.00e+00	0	42	0	652214272	46	5739
2026-01-23 23:24:54.01	121.34	23.93	-36.4	-37.4	24.6	0.00e+00	0	41	0	655360000	46	5810
2026-01-23 23:24:55.02	121.22	24.07	-36.3	-37.2	24.8	0.00e+00	0	42	0	658505728	46	5704
2026-01-23 23:24:56.04	121.10	24.21	-36.3	-37.2	24.7	0.00e+00	0	42	0	661651456	46	5718
2026-01-23 23:24:57.05	120.99	24.35	-36.3	-37.2	24.7	0.00e+00	0	42	0	664797184	46	5673
2026-01-23 23:24:58.06	120.87	24.50	-36.4	-37.3	24.7	0.00e+00	0	41	0	667942912	46	5734
2026-01-23 23:24:59.07	120.75	24.64	-36.4	-37.3	24.7	0.00e+00	0	42	0	671088640	46	5780
2026-01-23 23:25:00.08	120.63	24.79	-36.6	-37.5	24.5	0.00e+00	0	42	0	674234368	46	5874
2026-01-23 23:25:01.08	120.51	24.93	-36.6	-37.5	24.4	0.00e+00	0	42	0	677380096	46	5889
2026-01-23 23:25:02.10	120.38	25.08	-36.6	-37.5	24.4	0.00e+00	0	42	0	680525824	46	5921
2026-01-23 23:25:03.11	120.26	25.23	-36.8	-37.7	24.3	0.00e+00	0	42	0	683671552	46	6041
2026-01-23 23:25:04.12	120.13	25.37	-36.8	-37.7	24.2	0.00e+00	0	42	0	686817280	46	6043
2026-01-23 23:25:05.13	120.01	25.52	-37.0	-37.9	24.1	0.00e+00	0	42	0	689963008	46	6165
2026-01-23 23:25:06.14	119.88	25.67	-36.9	-37.8	24.1	0.00e+00	0	42	0	693108736	46	6126
2026-01-23 23:25:07.15	119.75	25.82	-37.0	-37.9	24.1	0.00e+00	0	42	0	696254464	46	6199
2026-01-23 23:25:08.16	119.62	25.97	-37.1	-38.0	24.1	0.00e+00	0	42	0	699400192	46	6215
2026-01-23 23:25:09.17	119.49	26.12	-37.1	-38.0	24.0	0.00e+00	0	42	0	702545920	46	6248
2026-01-23 23:25:10.18	119.35	26.28	-37.3	-38.2	23.8	0.00e+00	0	42	0	705691648	46	6414
2026-01-23 23:25:11.19	119.22	26.43	-37.2	-38.1	24.0	0.00e+00	0	42	0	708837376	46	6331
2026-01-23 23:25:12.20	119.08	26.58	-37.3	-38.2	23.9	0.00e+00	0	41	0	711983104	46	6375
2026-01-23 23:25:13.21	118.95	26.73	-37.3	-38.2	24.0	0.00e+00	0	41	0	715128832	46	6388
2026-01-23 23:25:14.23	118.81	26.89	-37.5	-38.4	23.8	0.00e+00	0	42	0	718274560	46	6534
2026-01-23 23:25:15.24	118.67	27.05	-37.4	-38.3	23.9	0.00e+00	0	42	0	721420288	46	6442
2026-01-23 23:25:16.25	118.53	27.20	-37.5	-38.4	23.7	0.00e+00	0	42	0	724566016	46	6573
2026-01-23 23:25:17.26	118.38	27.36	-37.4	-38.3	23.7	0.00e+00	0	42	0	727711744	46	6485
2026-01-23 23:25:18.27	118.24	27.52	-37.5	-38.4	23.6	0.00e+00	0	42	0	730857472	46	6548
2026-01-23 23:25:19.28	118.10	27.67	-37.4	-38.3	23.6	0.00e+00	0	42	0	734003200	46	6465
2026-01-23 23:25:20.29	117.95	27.83	-37.5	-38.4	23.4	0.00e+00	0	42	0	737148928	46	6545
2026-01-23 23:25:21.30	117.80	27.99	-37.6	-38.6	23.4	0.00e+00	0	42	0	740294656	46	6658
2026-01-23 23:25:22.31	117.65	28.15	-37.8	-38.7	23.4	0.00e+00	0	42	0	743440384	46	6785
2026-01-23 23:25:23.32	117.50	28.31	-37.7	-38.7	23.5	0.00e+00	0	42	0	746586112	48	6028
2026-01-23 23:25:24.33	117.35	28.47	-37.8	-38.7	23.5	0.00e+00	0	42	0	749731840	48	6060
2026-01-23 23:25:25.34	117.19	28.64	-37.8	-38.8	23.6	0.00e+00	0	42	0	752877568	48	6088
2026-01-23 23:25:26.35	117.04	28.80	-37.7	-38.7	23.7	0.00e+00	0	42	0	756023296	48	6011
2026-01-23 23:25:27.36	116.88	28.96	-37.5	-38.5	23.9	0.00e+00	0	42	0	759169024	48	5860
2026-01-23 23:25:28.36	116.72	29.13	-37.4	-38.3	23.9	0.00e+00	0	42	0	762314752	48	5772
2026-01-23 23:25:29.37	116.56	29.29	-37.4	-38.3	24.0	0.00e+00	0	42	0	765460480	48	5757
2026-01-23 23:25:30.38	116.40	29.46	-37.3	-38.2	24.1	0.00e+00	0	42	0	768606208	48	5670
2026-01-23 23:25:31.39	116.23	29.62	-37.2	-38.1	23.9	0.00e+00	0	42	0	771751936	48	5640
2026-01-23 23:25:32.40	116.07	29.79	-37.2	-38.1	23.7	0.00e+00	0	42	0	774897664	48	5645
2026-01-23 23:25:33.41	115.90	29.96	-37.3	-38.2	23.6	0.00e+00	0	42	0	778043392	48	5717
2026-01-23 23:25:34.42	115.73	30.13	-37.4	-38.3	23.4	0.00e+00	0	42	0	781189120	48	5775
2026-01-23 23:25:35.43	115.56	30.30	-37.5	-38.5	23.3	0.00e+00	0	42	0	784334848	48	5860
2026-01-23 23:25:36.44	115.38	30.47	-37.6	-38.5	23.2	0.00e+00	0	42	0	787480576	48	5920
2026-01-23 23:25:37.45	115.21	30.64	-37.7	-38.7	23.3	0.00e+00	0	42	0	790626304	48	6015
2026-01-23 23:25:38.46	115.03	30.81	-37.7	-38.6	23.6	0.00e+00	0	42	0	793772032	48	5989
2026-01-23 23:25:39.46	114.85	30.98	-37.7	-38.7	23.6	0.00e+00	0	42	0	796917760	48	6017
2026-01-23 23:25:40.47	114.67	31.15	-37.7	-38.6	23.8	0.00e+00	0	42	0	800063488	48	5970
2026-01-23 23:25:41.48	114.49	31.32	-37.5	-38.5	23.9	0.00e+00	0	42	0	803209216	48	5870
2026-01-23 23:25:42.49	114.31	31.50	-37.3	-38.2	24.1	0.00e+00	0	42	0	806354944	48	5714
2026-01-23 23:25:43.50	114.12	31.67	-37.2	-38.1	24.1	0.00e+00	0	42	0	809500672	48	5657
2026-01-23 23:25:44.51	113.93	31.85	-37.0	-37.9	24.2	0.00e+00	0	42	0	812646400	48	5506
2026-01-23 23:25:45.52	113.74	32.02	-37.1	-38.0	24.0	0.00e+00	0	42	0	815792128	48	5568
2026-01-23 23:25:46.53	113.55	32.20	-36.9	-37.8	24.0	0.00e+00	0	42	0	818937856	48	5430
2026-01-23 23:25:47.54	113.35	32.38	-37.1	-38.1	23.8	0.00e+00	0	42	0	822083584	48	5598
2026-01-23 23:25:48.55	113.15	32.56	-37.3	-38.2	23.7	0.00e+00	0	42	0	825229312	48	5692
2026-01-23 23:25:49.56	112.95	32.74	-37.3	-38.2	23.7	0.00e+00	0	42	0	828375040	48	5715
2026-01-23 23:25:50.57	112.75	32.92	-37.5	-38.5	23.7	0.00e+00	0	42	0	831520768	48	5874
2026-01-23 23:25:51.58	112.55	33.10	-37.7	-38.6	23.7	0.00e+00	0	42	0	834666496	48	5967
2026-01-23 23:25:52.59	112.34	33.28	-37.8	-38.8	23.7	0.00e+00	0	42	0	837812224	48	6089
2026-01-23 23:25:53.60	112.13	33.46	-37.8	-38.8	23.7	0.00e+00	0	42	0	840957952	48	6087
2026-01-23 23:25:54.61	111.92	33.64	-37.8	-38.7	23.7	0.00e+00	0	42	0	844103680	48	6042
2026-01-23 23:25:55.62	111.71	33.82	-37.9	-38.8	23.7	0.00e+00	0	42	0	847249408	48	6104
2026-01-23 23:25:56.63	111.49	34.01	-37.9	-38.8	23.7	0.00e+00	0	42	0	850395136	48	6120
2026-01-23 23:25:57.64	111.27	34.19	-37.9	-38.8	23.7	0.00e+00	0	42	0	853540864	48	6132
2026-01-23 23:25:58.65	111.05	34.37	-38.2	-39.1	23.4	0.00e+00	0	42	0	856686592	48	6336
2026-01-23 23:25:59.66	110.83	34.56	-38.3	-39.3	23.3	0.00e+00	0	42	0	859832320	48	6443
2026-01-23 23:26:00.67	110.60	34.75	-38.5	-39.5	23.1	0.00e+00	0	42	0	862978048	48	6578
2026-01-23 23:26:01.68	110.37	34.93	-38.7	-39.7	22.9	0.00e+00	0	42	0	866123776	48	6746
2026-01-23 23:26:02.69	110.14	35.12	-38.8	-39.8	22.9	0.00e+00	0	42	0	869269504	50	6081
2026-01-23 23:26:03.70	109.91	35.31	-38.8	-39.8	22.8	0.00e+00	0	42	0	872415232	50	6119
2026-01-23 23:26:04.71	109.67	35.49	-38.7	-39.7	22.9	0.00e+00	0	42	0	875560960	50	6050
2026-01-23 23:26:05.72	109.43	35.68	-38.8	-39.8	22.9	0.00e+00	0	42	0	878706688	50	6066
2026-01-23 23:26:06.73	109.19	35.87	-38.9	-39.8	22.8	0.00e+00	0	42	0	881852416	50	6130
2026-01-23 23:26:07.74	108.94	36.06	-38.7	-39.7	23.0	0.00e+00	0	42	0	886046720	50	6034
2026-01-23 23:26:08.75	108.69	36.25	-39.0	-40.0	22.7	0.00e+00	0	42	0	889192448	50	6256
2026-01-23 23:26:09.76	108.44	36.44	-39.3	-40.3	22.5	0.00e+00	0	42	0	891289600	50	6440
2026-01-23 23:26:10.77	108.19	36.63	-39.5	-40.6	22.2	0.00e+00	0	42	0	894435328	50	6666
2026-01-23 23:26:11.78	107.93	36.83	-39.7	-40.8	22.1	0.00e+00	0	42	0	897581056	50	6813
2026-01-23 23:26:12.79	107.67	37.02	-39.6	-40.6	22.2	0.00e+00	0	42	0	901775360	52	5967
2026-01-23 23:26:13.80	107.41	37.21	-39.6	-40.7	22.2	0.00e+00	0	42	0	904921088	52	6013
2026-01-23 23:26:14.81	107.14	37.40	-39.5	-40.5	22.3	0.00e+00	0	42	0	908066816	52	5923
2026-01-23 23:26:15.82	106.87	37.60	-39.5	-40.5	22.3	0.00e+00	0	42	0	911212544	52	5923
2026-01-23 23:26:16.83	106.60	37.79	-39.5	-40.5	22.4	0.00e+00	0	42	0	914358272	52	5896
2026-01-23 23:26:17.84	106.32	37.98	-39.4	-40.4	22.4	0.00e+00	0	42	0	917504000	52	5796
2026-01-23 23:26:18.85	106.04	38.18	-39.3	-40.3	22.4	0.00e+00	0	42	0	920649728	52	5742
2026-01-23 23:26:19.86	105.76	38.37	-39.3	-40.3	22.4	0.00e+00	0	42	0	923795456	52	5771
2026-01-23 23:26:20.87	105.47	38.57	-39.2	-40.3	22.4	0.00e+00	0	42	0	926941184	52	5726
2026-01-23 23:26:21.88	105.18	38.76	-39.1	-40.2	22.4	0.00e+00	0	42	0	930086912	52	5666
2026-01-23 23:26:22.89	104.89	38.96	-39.2	-40.3	22.4	0.00e+00	0	42	0	933232640	52	5726
2026-01-23 23:26:23.90	104.59	39.15	-39.1	-40.1	22.4	0.00e+00	0	42	0	936378368	52	5656
2026-01-23 23:26:24.91	104.29	39.35	-39.2	-40.2	22.5	0.00e+00	0	42	0	939524096	52	5663
2026-01-23 23:26:25.92	103.99	39.55	-39.3	-40.4	22.1	0.00e+00	0	42	0	942669824	52	5808
2026-01-23 23:26:26.93	103.68	39.74	-39.5	-40.5	22.1	0.00e+00	0	42	0	945815552	52	5906
2026-01-23 23:26:27.94	103.37	39.94	-39.4	-40.4	22.2	0.00e+00	0	42	0	948961280	52	5825
2026-01-23 23:26:28.95	103.05	40.13	-39.3	-40.4	22.3	0.00e+00	0	42	0	952107008	52	5799
2026-01-23 23:26:29.96	102.73	40.33	-39.5	-40.6	22.2	0.00e+00	0	42	0	955252736	52	5938
2026-01-23 23:26:30.97	102.41	40.53	-39.4	-40.5	22.2	0.00e+00	0	42	0	958398464	52	5863
2026-01-23 23:26:31.97	102.09	40.72	-39.6	-40.6	22.1	0.00e+00	0	42	0	961544192	52	5989
2026-01-23 23:26:32.98	101.75	40.92	-39.8	-40.9	21.8	0.00e+00	0	42	0	964689920	52	6140
2026-01-23 23:26:33.99	101.42	41.12	-40.0	-41.1	21.7	0.00e+00	0	42	0	967835648	52	6286
2026-01-23 23:26:35.00	101.08	41.31	-40.3	-41.4	21.5	0.00e+00	0	42	0	970981376	52	6525
2026-01-23 23:26:36.01	100.74	41.51	-40.3	-41.4	21.5	0.00e+00	0	42	0	974127104	52	6553
2026-01-23 23:26:37.02	100.39	41.71	-40.3	-41.4	21.5	0.00e+00	0	42	0	977272832	52	6567
2026-01-23 23:26:38.03	100.04	41.90	-40.3	-41.3	21.7	0.00e+00	0	42	0	980418560	52	6497
2026-01-23 23:26:39.04	99.68	42.10	-40.3	-41.3	21.6	0.00e+00	0	42	0	983564288	52	6492
2026-01-23 23:26:40.05	99.32	42.29	-40.3	-41.4	21.4	0.00e+00	0	42	0	986710016	52	6553
2026-01-23 23:26:41.06	98.95	42.49	-40.4	-41.5	21.2	0.00e+00	0	42	0	989855744	52	6632
2026-01-23 23:26:42.07	98.58	42.68	-40.4	-41.5	21.4	0.00e+00	0	42	0	993001472	52	6605
2026-01-23 23:26:43.08	98.21	42.88	-40.2	-41.3	21.6	0.00e+00	0	42	0	996147200	52	6459
2026-01-23 23:26:44.09	97.83	43.07	-40.3	-41.4	21.6	0.00e+00	0	42	0	999292928	52	6536
2026-01-23 23:26:45.10	97.45	43.27	-40.1	-41.2	21.8	0.00e+00	0	42	0	1002438656	52	6389
2026-01-23 23:26:46.11	97.06	43.46	-40.0	-41.0	22.0	0.00e+00	0	42	0	1005584384	52	6276
2026-01-23 23:26:47.12	96.66	43.65	-39.8	-40.9	22.1	0.00e+00	0	42	0	1008730112	52	6152
2026-01-23 23:26:48.13	96.27	43.85	-40.0	-41.1	21.9	0.00e+00	0	42	0	1011875840	52	6296
2026-01-23 23:26:49.14	95.86	44.04	-40.3	-41.4	21.6	0.00e+00	0	42	0	1015021568	52	6526
2026-01-23 23:26:50.15	95.46	44.23	-40.3	-41.4	21.6	0.00e+00	0	42	0	1018167296	52	6502
2026-01-23 23:26:51.16	95.04	44.42	-40.4	-41.4	21.6	0.00e+00	0	42	0	1021313024	52	6560
2026-01-23 23:26:52.17	94.63	44.61	-40.4	-41.4	21.7	0.00e+00	0	42	0	1024458752	52	6568
2026-01-23 23:26:53.18	94.20	44.80	-40.2	-41.3	21.7	0.00e+00	0	42	0	1027604480	52	6476
2026-01-23 23:26:54.19	93.78	44.99	-40.0	-41.1	21.8	0.00e+00	0	42	0	1030750208	52	6314
2026-01-23 23:26:55.20	93.34	45.17	-40.1	-41.2	21.7	0.00e+00	0	42	0	1033895936	52	6374
2026-01-23 23:26:56.21	92.91	45.36	-40.1	-41.1	21.8	0.00e+00	0	42	0	1037041664	52	6342
2026-01-23 23:26:57.22	92.46	45.54	-40.0	-41.1	21.9	0.00e+00	0	42	0	1040187392	52	6286
2026-01-23 23:26:58.23	92.01	45.73	-40.3	-41.4	21.6	0.00e+00	0	42	0	1043333120	52	6508
2026-01-23 23:26:59.24	91.56	45.91	-40.3	-41.4	21.7	0.00e+00	0	42	0	1046478848	52	6522
2026-01-23 23:27:00.25	91.10	46.09	-40.6	-41.8	21.4	0.00e+00	0	42	0	1049624576	52	6805
2026-01-23 23:27:01.26	90.64	46.27	-40.7	-41.8	21.4	0.00e+00	0	42	0	1052770304	54	6097
2026-01-23 23:27:02.27	90.17	46.45	-40.2	-41.3	21.7	0.00e+00	0	42	0	1055916032	54	5755
2026-01-23 23:27:03.28	89.69	46.63	-39.9	-41.0	22.0	0.00e+00	0	42	0	1059061760	54	5543
2026-01-23 23:27:04.29	89.21	46.80	-39.8	-40.9	22.1	0.00e+00	0	42	0	1062207488	54	5472
2026-01-23 23:27:05.30	88.73	46.98	-39.9	-40.9	22.1	0.00e+00	0	42	0	1065353216	52	6199
2026-01-23 23:27:06.31	88.24	47.15	-39.8	-40.9	22.1	0.00e+00	0	42	0	1068498944	52	6141
2026-01-23 23:27:07.32	87.74	47.32	-39.7	-40.7	22.3	0.00e+00	0	42	0	1071644672	52	6006
2026-01-23 23:27:08.33	87.24	47.49	-39.3	-40.3	22.6	0.00e+00	0	42	0	1074790400	52	5746
2026-01-23 23:27:09.34	86.73	47.66	-39.0	-40.0	22.8	0.00e+00	0	42	0	1077936128	52	5558
2026-01-23 23:27:10.35	86.22	47.83	-39.3	-40.3	22.6	0.00e+00	0	42	0	1081081856	52	5782
2026-01-23 23:27:11.36	85.70	47.99	-39.5	-40.5	22.3	0.00e+00	0	42	0	1084227584	52	5918
2026-01-23 23:27:12.37	85.17	48.15	-39.8	-40.9	21.9	0.00e+00	0	42	0	1087373312	52	6167
2026-01-23 23:27:13.38	84.65	48.31	-40.0	-41.0	21.8	0.00e+00	0	42	0	1090519040	52	6258
2026-01-23 23:27:14.39	84.11	48.47	-39.7	-40.7	22.2	0.00e+00	0	42	0	1093664768	52	6055
2026-01-23 23:27:15.40	83.57	48.63	-39.5	-40.5	22.4	0.00e+00	0	42	0	1096810496	52	5864
2026-01-23 23:27:16.41	83.02	48.78	-39.7	-40.8	22.1	0.00e+00	0	42	0	1099956224	52	6096
2026-01-23 23:27:17.42	82.47	48.93	-39.9	-40.9	22.0	0.00e+00	0	42	0	1103101952	52	6192
2026-01-23 23:27:18.43	81.92	49.08	-39.7	-40.8	22.2	0.00e+00	0	42	0	1106247680	52	6070
2026-01-23 23:27:19.44	81.35	49.23	-39.7	-40.7	22.2	0.00e+00	0	42	0	1109393408	52	6015
2026-01-23 23:27:20.45	80.79	49.37	-39.9	-40.9	22.0	0.00e+00	0	42	0	1112539136	52	6182
2026-01-23 23:27:21.46	80.21	49.51	-39.5	-40.6	22.2	0.00e+00	0	42	0	1115684864	52	5943
2026-01-23 23:27:22.47	79.63	49.65	-39.6	-40.6	22.3	0.00e+00	0	42	0	1118830592	52	5968
2026-01-23 23:27:23.48	79.05	49.79	-39.5	-40.5	22.4	0.00e+00	0	42	0	1121976320	52	5908
2026-01-23 23:27:24.49	78.46	49.92	-39.3	-40.3	22.5	0.00e+00	0	42	0	1125122048	52	5767
2026-01-23 23:27:25.50	77.87	50.05	-39.5	-40.6	22.3	0.00e+00	0	42	0	1128267776	52	5929
2026-01-23 23:27:26.51	77.27	50.18	-39.8	-40.9	22.1	0.00e+00	0	42	0	1131413504	52	6150
2026-01-23 23:27:27.52	76.67	50.30	-39.7	-40.7	22.2	0.00e+00	0	42	0	1134559232	52	6035
2026-01-23 23:27:28.53	76.06	50.43	-39.7	-40.8	22.0	0.00e+00	0	42	0	1137704960	52	6100
2026-01-23 23:27:29.54	75.44	50.54	-39.7	-40.7	21.9	0.00e+00	0	42	0	1140850688	52	6052
2026-01-23 23:27:30.55	74.82	50.66	-39.7	-40.8	22.0	0.00e+00	0	42	0	1143996416	52	6083
2026-01-23 23:27:31.56	74.20	50.77	-39.7	-40.8	22.2	0.00e+00	0	42	0	1147142144	52	6098
2026-01-23 23:27:32.56	73.58	50.88	-39.6	-40.6	22.3	0.00e+00	0	42	0	1150287872	52	5959
2026-01-23 23:27:33.58	72.94	50.98	-39.7	-40.7	22.1	0.00e+00	0	42	0	1153433600	52	6059
2026-01-23 23:27:34.59	72.31	51.08	-39.9	-40.9	22.1	0.00e+00	0	42	0	1156579328	52	6187
2026-01-23 23:27:35.59	71.67	51.18	-40.0	-41.0	21.9	0.00e+00	0	42	0	1159725056	52	6263
2026-01-23 23:27:36.60	71.03	51.28	-39.9	-41.0	22.1	0.00e+00	0	42	0	1162870784	52	6226
2026-01-23 23:27:37.61	70.38	51.37	-39.8	-40.8	22.3	0.00e+00	0	42	0	1166016512	52	6133
2026-01-23 23:27:38.62	69.72	51.45	-39.7	-40.7	22.4	0.00e+00	0	42	0	1169162240	52	6055
2026-01-23 23:27:39.63	69.07	51.54	-39.9	-40.9	22.1	0.00e+00	0	42	0	1172307968	52	6181
2026-01-23 23:27:40.64	68.41	51.62	-39.8	-40.8	22.0	0.00e+00	0	42	0	1175453696	52	6116
2026-01-23 23:27:41.65	67.74	51.69	-39.9	-40.9	22.0	0.00e+00	0	42	0	1178599424	52	6172
2026-01-23 23:27:42.66	67.08	51.76	-39.6	-40.7	22.0	0.00e+00	0	42	0	1181745152	52	6018
2026-01-23 23:27:43.67	66.41	51.83	-40.0	-41.1	21.6	0.00e+00	0	42	0	1184890880	52	6288
2026-01-23 23:27:44.68	65.74	51.89	-40.0	-41.1	21.3	0.00e+00	0	42	0	1188036608	52	6311
2026-01-23 23:27:45.69	65.06	51.95	-40.0	-41.1	21.4	0.00e+00	0	42	0	1191182336	52	6350
2026-01-23 23:27:46.70	64.38	52.01	-39.8	-40.9	21.9	0.00e+00	0	42	0	1194328064	52	6182
2026-01-23 23:27:47.71	63.70	52.06	-39.8	-40.9	22.1	0.00e+00	0	42	0	1197473792	52	6182
2026-01-23 23:27:48.72	63.02	52.11	-39.1	-40.2	22.7	0.00e+00	0	42	0	1200619520	52	5667
2026-01-23 23:27:49.73	62.33	52.15	-39.3	-40.3	22.4	0.00e+00	0	42	0	1203765248	52	5751
2026-01-23 23:27:50.74	61.65	52.19	-39.1	-40.1	22.8	0.00e+00	0	42	0	1207959552	52	5630
2026-01-23 23:27:51.75	60.96	52.22	-39.0	-40.0	22.7	0.00e+00	0	42	0	1210056704	52	5575
2026-01-23 23:27:52.76	60.27	52.25	-38.7	-39.7	23.2	0.00e+00	0	42	0	1213202432	52	5370
2026-01-23 23:27:53.77	59.58	52.28	-38.4	-39.3	23.2	0.00e+00	0	42	0	1216348160	50	5790
2026-01-23 23:27:54.78	58.88	52.30	-38.4	-39.4	23.3	0.00e+00	0	42	0	1219493888	50	5795
2026-01-23 23:27:55.79	58.19	52.32	-38.6	-39.5	23.3	0.00e+00	0	42	0	1223688192	50	5923
2026-01-23 23:27:56.80	57.50	52.33	-38.5	-39.5	23.3	0.00e+00	0	42	0	1226833920	50	5873
2026-01-23 23:27:57.81	56.80	52.34	-38.6	-39.5	23.0	0.00e+00	0	42	0	1229979648	50	5898
2026-01-23 23:27:58.82	56.11	52.34	-38.5	-39.4	23.1	0.00e+00	0	42	0	1232076800	50	5844
2026-01-23 23:27:59.83	55.41	52.34	-38.1	-39.0	23.4	0.00e+00	0	42	0	1235222528	50	5575
2026-01-23 23:28:00.82	54.73	52.34	-38.0	-38.9	23.5	0.00e+00	0	42	0	1238368256	50	5487
2026-01-23 23:28:01.81	54.05	52.33	-38.3	-39.3	23.2	0.00e+00	0	42	0	1241513984	50	5755
2026-01-23 23:28:02.82	53.36	52.31	-38.7	-39.7	22.9	0.00e+00	0	42	0	1244659712	50	6023
2026-01-23 23:28:03.83	52.67	52.30	-38.6	-39.6	22.9	0.00e+00	0	42	0	1247805440	50	5939
2026-01-23 23:28:04.84	51.97	52.27	-38.3	-39.3	23.2	0.00e+00	0	42	0	1251999744	50	5749
2026-01-23 23:28:05.85	51.28	52.25	-38.1	-39.0	23.3	0.00e+00	0	42	0	1255145472	50	5588
2026-01-23 23:28:06.86	50.59	52.22	-38.0	-39.0	23.2	0.00e+00	0	42	0	1257242624	50	5552
2026-01-23 23:28:07.87	49.90	52.18	-38.1	-39.1	23.3	0.00e+00	0	42	0	1260388352	50	5600
2026-01-23 23:28:08.88	49.22	52.14	-38.0	-38.9	23.2	0.00e+00	0	42	0	1263534080	50	5529
2026-01-23 23:28:09.89	48.53	52.10	-38.5	-39.5	22.9	0.00e+00	0	42	0	1267728384	50	5890
2026-01-23 23:28:10.90	47.85	52.05	-39.1	-40.1	22.5	0.00e+00	0	42	0	1270874112	50	6307
2026-01-23 23:28:11.91	47.17	52.00	-39.1	-40.1	22.5	0.00e+00	0	42	0	1274019840	50	6324
2026-01-23 23:28:12.92	46.49	51.95	-39.0	-39.9	22.8	0.00e+00	0	42	0	1277165568	50	6203
2026-01-23 23:28:13.93	45.82	51.89	-38.9	-39.8	23.0	0.00e+00	0	42	0	1279262720	50	6126
2026-01-23 23:28:14.94	45.15	51.82	-38.9	-39.9	23.0	0.00e+00	0	42	0	1283457024	50	6164
2026-01-23 23:28:15.95	44.48	51.75	-39.1	-40.0	22.9	0.00e+00	0	42	0	1286602752	50	6269
2026-01-23 23:28:16.96	43.81	51.68	-39.3	-40.3	22.3	0.00e+00	0	42	0	1289748480	50	6475
2026-01-23 23:28:17.97	43.15	51.61	-39.5	-40.5	22.1	0.00e+00	0	42	0	1292894208	50	6626
2026-01-23 23:28:18.98	42.49	51.53	-39.3	-40.4	22.3	0.00e+00	0	42	0	1296039936	50	6524
2026-01-23 23:28:19.98	41.84	51.44	-39.1	-40.2	22.3	0.00e+00	0	42	0	1299185664	50	6381
2026-01-23 23:28:20.99	41.19	51.36	-38.8	-39.8	22.9	0.00e+00	0	42	0	1302331392	50	6091
2026-01-23 23:28:22.00	40.54	51.27	-39.0	-40.0	22.8	0.00e+00	0	42	0	1305477120	50	6214
2026-01-23 23:28:23.01	39.90	51.17	-39.6	-40.7	22.3	0.00e+00	0	42	0	1308622848	50	6741
2026-01-23 23:28:24.02	39.26	51.07	-40.2	-41.3	21.8	0.00e+00	0	42	0	1311768576	52	6460
2026-01-23 23:28:25.03	38.62	50.97	-40.3	-41.4	21.3	0.00e+00	0	42	0	1314914304	52	6541
2026-01-23 23:28:26.05	37.99	50.87	-39.9	-41.0	21.8	0.00e+00	0	42	0	1318060032	52	6208
2026-01-23 23:28:27.06	37.36	50.76	-39.5	-40.5	22.2	0.00e+00	0	42	0	1321205760	52	5886
2026-01-23 23:28:28.06	36.74	50.65	-38.9	-39.8	23.0	0.00e+00	0	42	0	1324351488	52	5463
2026-01-23 23:28:29.07	36.13	50.53	-39.1	-40.1	22.6	0.00e+00	0	42	0	1327497216	52	5630
2026-01-23 23:28:30.08	35.51	50.41	-39.7	-40.7	22.3	0.00e+00	0	42	0	1330642944	52	6051
2026-01-23 23:28:31.09	34.91	50.29	-40.4	-41.4	21.5	0.00e+00	0	42	0	1333788672	52	6570
2026-01-23 23:28:32.10	34.30	50.17	-40.4	-41.5	21.3	0.00e+00	0	42	0	1336934400	52	6612
2026-01-23 23:28:33.11	33.71	50.04	-39.8	-40.9	21.7	0.00e+00	0	42	0	1340080128	52	6135
2026-01-23 23:28:34.12	33.11	49.91	-39.0	-40.0	22.6	0.00e+00	0	42	0	1343225856	52	5591
2026-01-23 23:28:35.13	32.53	49.78	-38.7	-39.7	23.0	0.00e+00	0	42	0	1346371584	50	6042
2026-01-23 23:28:36.14	31.95	49.64	-39.4	-40.4	22.6	0.00e+00	0	42	0	1349517312	50	6516
2026-01-23 23:28:37.15	31.37	49.50	-40.2	-41.2	21.8	0.00e+00	0	42	0	1352663040	52	6411
2026-01-23 23:28:38.16	30.80	49.36	-40.4	-41.5	21.7	0.00e+00	0	42	0	1355808768	52	6577
2026-01-23 23:28:39.17	30.23	49.22	-39.6	-40.7	22.4	0.00e+00	0	42	0	1358954496	52	6005
2026-01-23 23:28:40.18	29.67	49.07	-38.9	-39.9	23.0	0.00e+00	0	42	0	1362100224	52	5487
2026-01-23 23:28:41.19	29.11	48.92	-38.3	-39.2	23.6	0.00e+00	0	42	0	1365245952	50	5673
2026-01-23 23:28:42.20	28.56	48.77	-38.4	-39.3	23.4	0.00e+00	0	42	0	1368391680	50	5768
2026-01-23 23:28:43.20	28.03	48.62	-39.5	-40.5	22.5	0.00e+00	0	42	0	1371537408	50	6576
2026-01-23 23:28:44.21	27.49	48.46	-40.5	-41.6	21.3	0.00e+00	0	42	0	1374683136	52	6711
2026-01-23 23:28:45.22	26.95	48.30	-40.1	-41.2	21.3	0.00e+00	0	42	0	1377828864	52	6368
2026-01-23 23:28:46.23	26.42	48.14	-39.5	-40.6	21.9	0.00e+00	0	42	0	1380974592	52	5953
2026-01-23 23:28:47.24	25.90	47.98	-38.8	-39.7	22.3	0.00e+00	0	42	0	1384120320	52	5398
2026-01-23 23:28:48.25	25.38	47.82	-38.3	-39.2	23.5	0.00e+00	0	42	0	1387266048	50	5687
2026-01-23 23:28:49.26	24.87	47.65	-38.8	-39.7	22.8	0.00e+00	0	42	0	1390411776	50	6056
2026-01-23 23:28:50.27	24.37	47.48	-40.2	-41.3	21.5	0.00e+00	0	42	0	1393557504	52	6467
2026-01-23 23:28:51.28	23.87	47.32	-41.1	-42.3	21.0	0.00e+00	0	42	0	1396703232	54	6426
2026-01-23 23:28:52.29	23.37	47.14	-40.5	-41.7	21.3	0.00e+00	0	42	0	1399848960	54	6001
2026-01-23 23:28:53.30	22.88	46.97	-39.9	-40.9	21.7	0.00e+00	0	42	0	1402994688	54	5530
2026-01-23 23:28:54.31	22.40	46.80	-39.3	-40.3	22.1	0.00e+00	0	42	0	1406140416	52	5763
2026-01-23 23:28:55.32	21.92	46.62	-38.5	-39.5	23.0	0.00e+00	0	42	0	1409286144	50	5867
2026-01-23 23:28:56.33	21.45	46.44	-38.3	-39.2	23.5	0.00e+00	0	42	0	1412431872	50	5724
2026-01-23 23:28:57.34	20.98	46.27	-38.9	-39.8	23.0	0.00e+00	0	42	0	1415577600	50	6102
2026-01-23 23:28:58.35	20.51	46.09	-40.3	-41.3	21.6	0.00e+00	0	42	0	1418723328	52	6485
2026-01-23 23:28:59.36	20.06	45.90	-41.4	-42.6	20.5	0.00e+00	0	42	0	1421869056	54	6691
2026-01-23 23:29:00.37	19.61	45.72	-41.2	-42.4	20.5	0.00e+00	0	42	0	1425014784	54	6564
2026-01-23 23:29:01.38	19.16	45.54	-40.8	-42.0	20.7	0.00e+00	0	42	0	1428160512	54	6242
2026-01-23 23:29:02.39	18.72	45.35	-40.3	-41.4	21.3	0.00e+00	0	42	0	1431306240	54	5851
2026-01-23 23:29:03.40	18.28	45.17	-40.3	-41.4	21.6	0.00e+00	0	42	0	1434451968	54	5838
2026-01-23 23:29:04.41	17.85	44.98	-40.1	-41.2	21.8	0.00e+00	0	42	0	1437597696	54	5684
2026-01-23 23:29:05.42	17.42	44.79	-40.8	-41.9	21.1	0.00e+00	0	42	0	1440743424	54	6170
2026-01-23 23:29:06.43	17.00	44.61	-41.6	-42.9	20.4	0.00e+00	0	42	0	1443889152	54	6902
2026-01-23 23:29:07.44	16.59	44.42	-42.4	-43.8	19.6	0.00e+00	0	42	0	1447034880	56	6821
2026-01-23 23:29:08.45	16.17	44.23	-42.2	-43.5	20.0	0.00e+00	0	42	0	1450180608	56	6608
2026-01-23 23:29:09.46	15.77	44.04	-41.0	-42.1	21.1	0.00e+00	0	42	0	1453326336	56	5642
2026-01-23 23:29:10.47	15.37	43.85	-40.4	-41.5	21.6	0.00e+00	0	42	0	1456472064	54	5867
2026-01-23 23:29:11.48	14.97	43.65	-39.9	-40.9	22.3	0.00e+00	0	42	0	1459617792	54	5494
2026-01-23 23:29:12.49	14.58	43.46	-39.2	-40.2	22.6	0.00e+00	0	42	0	1462763520	52	5716
2026-01-23 23:29:13.50	14.19	43.27	-39.8	-40.8	22.0	0.00e+00	0	42	0	1465909248	52	6104
2026-01-23 23:29:14.51	13.81	43.07	-40.8	-41.9	21.1	0.00e+00	0	42	0	1469054976	52	6919
2026-01-23 23:29:15.52	13.43	42.88	-41.6	-42.9	20.4	0.00e+00	0	42	0	1472200704	54	6890
2026-01-23 23:29:16.53	13.06	42.69	-41.9	-43.2	20.0	0.00e+00	0	42	0	1475346432	56	6411
2026-01-23 23:29:17.54	12.69	42.49	-41.6	-42.8	20.0	0.00e+00	0	42	0	1478492160	56	6129
2026-01-23 23:29:18.55	12.32	42.30	-41.0	-42.2	20.5	0.00e+00	0	42	0	1481637888	56	5683
2026-01-23 23:29:19.56	11.97	42.10	-40.6	-41.7	20.7	0.00e+00	0	42	0	1484783616	54	6052
2026-01-23 23:29:20.57	11.61	41.91	-39.7	-40.7	22.2	0.00e+00	0	42	0	1487929344	52	6055
2026-01-23 23:29:21.58	11.26	41.71	-38.6	-39.6	23.1	0.00e+00	0	42	0	1491075072	50	5946
2026-01-23 23:29:22.59	10.91	41.52	-39.0	-40.0	22.9	0.00e+00	0	42	0	1494220800	50	6229
2026-01-23 23:29:23.60	10.57	41.32	-39.8	-40.9	22.1	0.00e+00	0	42	0	1497366528	52	6159
2026-01-23 23:29:24.61	10.23	41.12	-40.6	-41.8	21.4	0.00e+00	0	42	0	1500512256	52	6806
2026-01-23 23:29:25.62	9.90	40.93	-40.8	-42.0	21.1	0.00e+00	0	42	0	1503657984	54	6221
2026-01-23 23:29:26.63	9.57	40.73	-40.5	-41.7	21.4	0.00e+00	0	42	0	1506803712	54	5995
2026-01-23 23:29:27.64	9.24	40.53	-39.7	-40.7	22.1	0.00e+00	0	42	0	1509949440	54	5385
2026-01-23 23:29:28.66	8.91	40.34	-39.1	-40.1	22.8	0.00e+00	0	42	0	1513095168	52	5642
2026-01-23 23:29:29.67	8.60	40.14	-39.0	-39.9	22.9	0.00e+00	0	42	0	1516240896	52	5522
2026-01-23 23:29:30.68	8.28	39.95	-39.0	-40.0	22.8	0.00e+00	0	42	0	1519386624	52	5568
2026-01-23 23:29:31.69	7.97	39.75	-39.0	-40.0	22.9	0.00e+00	0	42	0	1522532352	52	5548
2026-01-23 23:29:32.70	7.66	39.55	-38.5	-39.4	23.3	0.00e+00	0	42	0	1525678080	50	5834
2026-01-23 23:29:33.71	7.36	39.36	-38.7	-39.6	23.1	0.00e+00	0	42	0	1528823808	50	5991
2026-01-23 23:29:34.72	7.06	39.16	-39.2	-40.2	22.6	0.00e+00	0	42	0	1531969536	50	6410
2026-01-23 23:29:35.73	6.77	38.97	-39.9	-40.9	21.9	0.00e+00	0	42	0	1535115264	52	6186
2026-01-23 23:29:36.74	6.47	38.77	-40.3	-41.5	21.3	0.00e+00	0	42	0	1538260992	52	6585
2026-01-23 23:29:37.75	6.19	38.58	-40.1	-41.3	21.2	0.00e+00	0	42	0	1541406720	52	6460
2026-01-23 23:29:38.76	5.90	38.38	-39.6	-40.7	21.6	0.00e+00	0	42	0	1544552448	52	6023
2026-01-23 23:29:39.77	5.62	38.19	-39.0	-40.0	22.3	0.00e+00	0	42	0	1547698176	52	5578
2026-01-23 23:29:40.78	5.34	38.00	-38.6	-39.5	22.9	0.00e+00	0	42	0	1550843904	50	5906
2026-01-23 23:29:41.79	5.06	37.80	-38.5	-39.5	23.2	0.00e+00	0	42	0	1553989632	50	5866
2026-01-23 23:29:42.80	4.79	37.61	-38.8	-39.8	22.9	0.00e+00	0	42	0	1557135360	50	6087
2026-01-23 23:29:43.81	4.52	37.42	-39.2	-40.2	22.6	0.00e+00	0	42	0	1560281088	50	6410
2026-01-23 23:29:44.82	4.26	37.23	-39.3	-40.4	22.4	0.00e+00	0	42	0	1563426816	50	6514
2026-01-23 23:29:45.83	4.00	37.03	-39.2	-40.2	22.5	0.00e+00	0	42	0	1566572544	50	6363
2026-01-23 23:29:46.84	3.74	36.84	-38.9	-39.9	22.7	0.00e+00	0	42	0	1570766848	50	6160
2026-01-23 23:29:47.85	3.48	36.65	-38.4	-39.4	23.2	0.00e+00	0	42	0	1572864000	50	5800
2026-01-23 23:29:48.86	3.23	36.46	-38.4	-39.4	23.3	0.00e+00	0	42	0	1576009728	50	5794
2026-01-23 23:29:49.87	2.98	36.27	-38.5	-39.4	23.2	0.00e+00	0	42	0	1579155456	50	5850
2026-01-23 23:29:50.88	2.73	36.08	-38.6	-39.6	23.0	0.00e+00	0	42	0	1582301184	50	5960
2026-01-23 23:29:51.89	2.49	35.89	-38.3	-39.3	23.0	0.00e+00	0	42	0	1586495488	50	5743
2026-01-23 23:29:52.90	2.24	35.71	-38.2	-39.1	23.1	0.00e+00	0	42	0	1589641216	50	5656
2026-01-23 23:29:53.91	2.01	35.52	-38.1	-39.1	23.1	0.00e+00	0	42	0	1592786944	50	5627
2026-01-23 23:29:54.92	1.77	35.33	-38.2	-39.2	23.3	0.00e+00	0	42	0	1594884096	50	5692
2026-01-23 23:29:55.93	1.54	35.14	-38.7	-39.7	23.0	0.00e+00	0	42	0	1598029824	50	6030
2026-01-23 23:29:56.94	1.31	34.96	-39.2	-40.2	22.6	0.00e+00	0	42	0	1602224128	50	6394
2026-01-23 23:29:57.95	1.08	34.77	-39.5	-40.5	22.4	0.00e+00	0	42	0	1605369856	50	6615
2026-01-23 23:29:58.96	0.85	34.59	-39.6	-40.6	22.3	0.00e+00	0	42	0	1608515584	50	6710
2026-01-23 23:29:59.97	0.63	34.40	-38.9	-39.9	22.8	0.00e+00	0	42	0	1611661312	50	6192
2026-01-23 23:30:00.97	0.41	34.22	-38.7	-39.7	22.8	0.00e+00	0	42	0	1614807040	50	6049
2026-01-23 23:30:01.99	0.19	34.03	-38.2	-39.2	23.2	0.00e+00	0	42	0	1617952768	50	5669
2026-01-23 23:30:02.99	359.98	33.85	-38.1	-39.1	23.4	0.00e+00	0	42	0	1621098496	50	5616
2026-01-23 23:30:04.01	359.76	33.67	-37.8	-38.7	23.7	0.00e+00	0	42	0	1624244224	48	6025
2026-01-23 23:30:05.01	359.56	33.49	-37.6	-38.5	23.9	0.00e+00	0	42	0	1627389952	48	5898
2026-01-23 23:30:06.02	359.35	33.31	-37.9	-38.8	23.7	0.00e+00	0	42	0	1630535680	48	6120
2026-01-23 23:30:07.03	359.14	33.13	-38.0	-39.0	23.5	0.00e+00	0	42	0	1633681408	48	6248
2026-01-23 23:30:08.04	358.94	32.95	-38.2	-39.2	23.4	0.00e+00	0	42	0	1636827136	48	6362
2026-01-23 23:30:09.05	358.74	32.77	-38.3	-39.2	23.3	0.00e+00	0	42	0	1639972864	48	6421
2026-01-23 23:30:10.06	358.54	32.59	-38.3	-39.3	23.2	0.00e+00	0	42	0	1643118592	48	6477
2026-01-23 23:30:11.07	358.34	32.42	-37.9	-38.9	23.6	0.00e+00	0	42	0	1646264320	48	6146
2026-01-23 23:30:12.09	358.15	32.24	-37.8	-38.7	23.7	0.00e+00	0	42	0	1649410048	48	6045
2026-01-23 23:30:13.10	357.95	32.06	-37.6	-38.6	23.7	0.00e+00	0	42	0	1652555776	48	5928
2026-01-23 23:30:14.11	357.76	31.89	-37.7	-38.6	23.6	0.00e+00	0	42	0	1655701504	48	5969
2026-01-23 23:30:15.12	357.58	31.71	-37.7	-38.6	23.6	0.00e+00	0	42	0	1658847232	48	5977
2026-01-23 23:30:16.13	357.39	31.54	-37.6	-38.6	23.5	0.00e+00	0	42	0	1661992960	48	5960
2026-01-23 23:30:17.14	357.21	31.36	-37.7	-38.6	23.5	0.00e+00	0	42	0	1665138688	48	5970
2026-01-23 23:30:18.15	357.02	31.19	-37.7	-38.7	23.6	0.00e+00	0	42	0	1668284416	48	6019
2026-01-23 23:30:19.16	356.84	31.02	-37.8	-38.8	23.6	0.00e+00	0	42	0	1671430144	48	6070
2026-01-23 23:30:20.17	356.67	30.85	-37.7	-38.7	23.7	0.00e+00	0	42	0	1674575872	48	6000
2026-01-23 23:30:21.18	356.49	30.68	-37.9	-38.8	23.6	0.00e+00	0	42	0	1677721600	48	6133
2026-01-23 23:30:22.19	356.31	30.51	-37.8	-38.8	23.6	0.00e+00	0	42	0	1680867328	48	6078
2026-01-23 23:30:23.20	356.14	30.34	-37.9	-38.8	23.7	0.00e+00	0	42	0	1684013056	48	6120
2026-01-23 23:30:24.21	355.97	30.17	-37.8	-38.7	23.8	0.00e+00	0	42	0	1687158784	48	6026
2026-01-23 23:30:25.22	355.80	30.00	-37.8	-38.8	23.7	0.00e+00	0	42	0	1690304512	48	6072
2026-01-23 23:30:26.23	355.64	29.83	-37.7	-38.6	23.8	0.00e+00	0	42	0	1693450240	48	5954
2026-01-23 23:30:27.24	355.47	29.67	-37.5	-38.5	23.8	0.00e+00	0	42	0	1696595968	48	5882
2026-01-23 23:30:28.25	355.31	29.50	-37.6	-38.5	23.7	0.00e+00	0	42	0	1699741696	48	5893
2026-01-23 23:30:29.26	355.14	29.34	-37.4	-38.3	23.7	0.00e+00	0	42	0	1702887424	48	5780
2026-01-23 23:30:30.27	354.98	29.17	-37.1	-38.0	23.8	0.00e+00	0	42	0	1706033152	48	5581
2026-01-23 23:30:31.28	354.83	29.01	-37.0	-37.9	23.9	0.00e+00	0	42	0	1709178880	48	5524
2026-01-23 23:30:32.29	354.67	28.85	-36.8	-37.7	24.0	0.00e+00	0	42	0	1712324608	48	5403
2026-01-23 23:30:33.30	354.51	28.68	-36.9	-37.8	24.0	0.00e+00	0	42	0	1715470336	48	5438
2026-01-23 23:30:34.31	354.36	28.52	-37.1	-38.0	24.0	0.00e+00	0	42	0	1718616064	48	5583
2026-01-23 23:30:35.32	354.21	28.36	-36.8	-37.7	24.3	0.00e+00	0	42	0	1721761792	48	5366
2026-01-23 23:30:36.33	354.06	28.20	-37.0	-37.9	24.2	0.00e+00	0	42	0	1724907520	48	5498
2026-01-23 23:30:37.34	353.91	28.04	-37.0	-37.9	24.2	0.00e+00	0	42	0	1728053248	48	5528
2026-01-23 23:30:38.35	353.76	27.88	-37.1	-38.0	24.1	0.00e+00	0	42	0	1731198976	48	5566
2026-01-23 23:30:39.36	353.61	27.72	-37.1	-38.1	24.2	0.00e+00	0	42	0	1734344704	48	5604
2026-01-23 23:30:40.37	353.47	27.57	-37.1	-38.0	24.1	0.00e+00	0	42	0	1737490432	48	5549
2026-01-23 23:30:41.38	353.33	27.41	-36.9	-37.8	24.3	0.00e+00	0	42	0	1740636160	48	5424
2026-01-23 23:30:42.39	353.18	27.25	-36.9	-37.9	24.3	0.00e+00	0	42	0	1743781888	48	5472
2026-01-23 23:30:43.40	353.04	27.10	-36.8	-37.7	24.2	0.00e+00	0	42	0	1746927616	48	5404
2026-01-23 23:30:44.41	352.91	26.94	-36.8	-37.7	24.3	0.00e+00	0	42	0	1750073344	46	6042
2026-01-23 23:30:45.41	352.77	26.79	-36.8	-37.7	24.2	0.00e+00	0	42	0	1753219072	46	6015
2026-01-23 23:30:46.42	352.63	26.64	-36.7	-37.6	24.2	0.00e+00	0	42	0	1756364800	46	5987
2026-01-23 23:30:47.43	352.50	26.49	-36.7	-37.7	24.2	0.00e+00	0	42	0	1759510528	46	6000
2026-01-23 23:30:48.44	352.36	26.33	-36.7	-37.6	24.2	0.00e+00	0	42	0	1762656256	46	5944
2026-01-23 23:30:49.45	352.23	26.18	-36.8	-37.7	24.2	0.00e+00	0	42	0	1765801984	46	6051
2026-01-23 23:30:50.46	352.10	26.03	-36.7	-37.6	24.3	0.00e+00	0	42	0	1768947712	46	5927
2026-01-23 23:30:51.47	351.97	25.88	-36.6	-37.5	24.5	0.00e+00	0	42	0	1772093440	46	5903
2026-01-23 23:30:52.48	351.84	25.73	-36.7	-37.6	24.4	0.00e+00	0	42	0	1775239168	46	5962
2026-01-23 23:30:53.49	351.72	25.58	-36.7	-37.6	24.5	0.00e+00	0	42	0	1778384896	46	5940
2026-01-23 23:30:54.50	351.59	25.44	-36.7	-37.6	24.4	0.00e+00	0	42	0	1781530624	46	5943
2026-01-23 23:30:55.51	351.47	25.29	-36.7	-37.6	24.5	0.00e+00	0	42	0	1784676352	46	5938
2026-01-23 23:30:56.52	351.34	25.14	-36.8	-37.7	24.4	0.00e+00	0	42	0	1787822080	46	6004
2026-01-23 23:30:57.53	351.22	25.00	-36.8	-37.7	24.5	0.00e+00	0	42	0	1790967808	46	6002
2026-01-23 23:30:58.54	351.10	24.85	-36.7	-37.6	24.6	0.00e+00	0	42	0	1794113536	46	5949
2026-01-23 23:30:59.54	350.98	24.71	-36.6	-37.5	24.6	0.00e+00	0	42	0	1797259264	46	5883
2026-01-23 23:31:00.55	350.86	24.56	-36.6	-37.5	24.7	0.00e+00	0	42	0	1800404992	46	5879
2026-01-23 23:31:01.56	350.74	24.42	-36.6	-37.5	24.6	0.00e+00	0	42	0	1803550720	46	5871
2026-01-23 23:31:02.57	350.63	24.28	-36.6	-37.5	24.6	0.00e+00	0	42	0	1806696448	46	5899
2026-01-23 23:31:03.58	350.51	24.14	-36.6	-37.4	24.7	0.00e+00	0	42	0	1809842176	46	5844
2026-01-23 23:31:04.59	350.40	24.00	-36.7	-37.5	24.5	0.00e+00	0	42	0	1812987904	46	5925
2026-01-23 23:31:05.60	350.28	23.85	-36.5	-37.3	24.7	0.00e+00	0	42	0	1816133632	46	5776
2026-01-23 23:31:06.61	350.17	23.71	-36.6	-37.5	24.6	0.00e+00	0	42	0	1819279360	46	5867
2026-01-23 23:31:07.61	350.06	23.58	-36.8	-37.6	24.5	0.00e+00	0	42	0	1822425088	46	5993
2026-01-23 23:31:08.63	349.95	23.44	-36.8	-37.7	24.5	0.00e+00	0	42	0	1825570816	46	6023
2026-01-23 23:31:09.64	349.84	23.30	-36.9	-37.8	24.4	0.00e+00	0	42	0	1828716544	46	6092
2026-01-23 23:31:10.65	349.73	23.16	-37.0	-38.0	24.2	0.00e+00	0	42	0	1831862272	46	6217
2026-01-23 23:31:11.65	349.62	23.03	-37.1	-38.0	24.2	0.00e+00	0	42	0	1835008000	46	6242
2026-01-23 23:31:12.66	349.52	22.89	-37.1	-38.1	24.2	0.00e+00	0	42	0	1838153728	46	6281
2026-01-23 23:31:13.67	349.41	22.75	-37.2	-38.1	24.1	0.00e+00	0	42	0	1841299456	46	6305
2026-01-23 23:31:14.68	349.31	22.62	-37.3	-38.2	23.9	0.00e+00	0	42	0	1844445184	46	6397
2026-01-23 23:31:15.69	349.20	22.48	-37.3	-38.2	23.8	0.00e+00	0	42	0	1847590912	46	6412
2026-01-23 23:31:16.70	349.10	22.35	-37.3	-38.2	23.7	0.00e+00	0	42	0	1850736640	46	6421
2026-01-23 23:31:17.71	349.00	22.22	-37.4	-38.3	23.7	0.00e+00	0	42	0	1853882368	46	6484
2026-01-23 23:31:18.72	348.90	22.08	-37.5	-38.4	23.6	0.00e+00	0	42	0	1857028096	46	6558
2026-01-23 23:31:19.73	348.80	21.95	-37.2	-38.2	23.7	0.00e+00	0	42	0	1860173824	46	6374
2026-01-23 23:31:20.74	348.70	21.82	-37.1	-38.0	23.8	0.00e+00	0	42	0	1863319552	46	6234
2026-01-23 23:31:21.75	348.60	21.69	-37.1	-38.1	23.7	0.00e+00	0	42	0	1866465280	46	6290
2026-01-23 23:31:22.76	348.50	21.56	-36.8	-37.8	24.0	0.00e+00	0	42	0	1869611008	46	6067
2026-01-23 23:31:23.77	348.40	21.43	-36.8	-37.7	24.1	0.00e+00	0	42	0	1872756736	46	6021
2026-01-23 23:31:24.78	348.31	21.30	-36.6	-37.5	24.3	0.00e+00	0	42	0	1875902464	46	5865
2026-01-23 23:31:25.79	348.21	21.17	-36.5	-37.4	24.4	0.00e+00	0	42	0	1879048192	46	5831
2026-01-23 23:31:26.80	348.12	21.04	-36.3	-37.2	24.5	0.00e+00	0	42	0	1882193920	46	5710
2026-01-23 23:31:27.81	348.03	20.92	-36.2	-37.1	24.6	0.00e+00	0	42	0	1885339648	46	5622
2026-01-23 23:31:28.82	347.93	20.79	-36.1	-37.0	24.7	0.00e+00	0	42	0	1888485376	46	5563
2026-01-23 23:31:29.83	347.84	20.66	-36.1	-37.0	24.7	0.00e+00	0	42	0	1891631104	46	5540
2026-01-23 23:31:30.84	347.75	20.54	-36.0	-36.9	24.8	0.00e+00	0	42	0	1894776832	46	5471
2026-01-23 23:31:31.85	347.66	20.41	-35.9	-36.8	24.8	0.00e+00	0	42	0	1897922560	46	5443
2026-01-23 23:31:32.86	347.57	20.29	-36.0	-36.8	24.8	0.00e+00	0	42	0	1901068288	46	5463
2026-01-23 23:31:33.87	347.48	20.16	-36.0	-36.8	24.8	0.00e+00	0	42	0	1904214016	46	5463
2026-01-23 23:31:34.88	347.39	20.04	-35.9	-36.8	24.8	0.00e+00	0	42	0	1907359744	46	5425
2026-01-23 23:31:35.89	347.31	19.92	-36.0	-36.9	24.8	0.00e+00	0	42	0	1910505472	46	5484
2026-01-23 23:31:36.90	347.22	19.79	-36.0	-36.9	24.8	0.00e+00	0	42	0	1913651200	46	5476
2026-01-23 23:31:37.91	347.14	19.67	-36.0	-36.8	24.8	0.00e+00	0	42	0	1916796928	46	5448
2026-01-23 23:31:38.92	347.05	19.55	-36.1	-36.9	24.8	0.00e+00	0	42	0	1919942656	46	5530
2026-01-23 23:31:39.93	346.97	19.43	-36.1	-37.0	24.7	0.00e+00	0	42	0	1923088384	46	5562
2026-01-23 23:31:40.94	346.88	19.31	-36.2	-37.1	24.7	0.00e+00	0	42	0	1927282688	46	5609
2026-01-23 23:31:41.95	346.80	19.19	-36.3	-37.2	24.5	0.00e+00	0	42	0	1930428416	46	5702
2026-01-23 23:31:42.96	346.72	19.07	-36.4	-37.2	24.5	0.00e+00	0	42	0	1933574144	46	5723
2026-01-23 23:31:43.97	346.63	18.95	-36.5	-37.4	24.4	0.00e+00	0	42	0	1935671296	46	5805
2026-01-23 23:31:44.98	346.55	18.83	-36.6	-37.5	24.3	0.00e+00	0	42	0	1938817024	46	5894
2026-01-23 23:31:46.00	346.47	18.71	-36.6	-37.5	24.3	0.00e+00	0	42	0	1943011328	46	5916
2026-01-23 23:31:47.00	346.39	18.60	-36.7	-37.7	24.2	0.00e+00	0	42	0	1946157056	46	5996
2026-01-23 23:31:48.02	346.31	18.48	-36.8	-37.7	24.1	0.00e+00	0	42	0	1949302784	46	6064
2026-01-23 23:31:49.03	346.24	18.36	-36.9	-37.8	24.0	0.00e+00	0	42	0	1952448512	46	6099
2026-01-23 23:31:50.04	346.16	18.24	-37.0	-37.9	23.9	0.00e+00	0	42	0	1955594240	46	6188
2026-01-23 23:31:51.05	346.08	18.13	-37.0	-38.0	23.9	0.00e+00	0	42	0	1958739968	46	6215
2026-01-23 23:31:52.06	346.00	18.01	-37.2	-38.1	23.7	0.00e+00	0	42	0	1961885696	46	6313
2026-01-23 23:31:53.07	345.93	17.90	-37.1	-38.0	23.8	0.00e+00	0	42	0	1965031424	46	6238
2026-01-23 23:31:54.08	345.85	17.79	-37.2	-38.2	23.6	0.00e+00	0	42	0	1968177152	46	6371
2026-01-23 23:31:55.09	345.78	17.67	-37.2	-38.2	23.6	0.00e+00	0	42	0	1971322880	46	6361
2026-01-23 23:31:56.10	345.70	17.56	-37.3	-38.2	23.6	0.00e+00	0	42	0	1974468608	46	6420
2026-01-23 23:31:57.11	345.63	17.45	-37.3	-38.3	23.5	0.00e+00	0	42	0	1977614336	46	6457
2026-01-23 23:31:58.12	345.56	17.33	-37.3	-38.2	23.5	0.00e+00	0	42	0	1980760064	46	6400
2026-01-23 23:31:59.13	345.48	17.22	-37.4	-38.3	23.4	0.00e+00	0	42	0	1983905792	46	6483
2026-01-23 23:32:00.14	345.41	17.11	-37.4	-38.3	23.4	0.00e+00	0	42	0	1987051520	46	6476
2026-01-23 23:32:01.15	345.34	17.00	-37.4	-38.4	23.4	0.00e+00	0	42	0	1990197248	46	6500
2026-01-23 23:32:02.16	345.27	16.89	-37.5	-38.5	23.4	0.00e+00	0	42	0	1993342976	46	6574
