passes_logs/2025/01/24/LEX_Murmansk/LEX_Murmansk__20250124_084925_NOAA_19_rec.log

#Pass ID: 20250124_084925_NOAA 19
#Satellite: NOAA 19
#Configuration: NOAA 19
#Start time: 2025-01-24 08:49:20.540522

#LorettStation: 1.0.0 05.05.2024
#Station: LEX_Murmansk
#Location: 33.156738 lon 68.926811 lat
#TLE: 1 33591U 09005A   25023.14581638  .00000359  00000+0  21554-3 0  9999
#TLE: 2 33591  99.0183  86.9707 0014184  35.5055 324.7058 14.13266334822690

#Time	Az	El	Level	SNR
2025-01-24 08:49:32.755948	26.4	16.3	-89.2	5.1
2025-01-24 08:49:33.915871	26.4	16.4	-88.9	4.3
2025-01-24 08:49:35.071867	26.4	16.6	-89.2	3.6
2025-01-24 08:49:36.231151	26.4	16.7	-89.4	1.9
2025-01-24 08:49:37.390566	26.4	16.8	-89.3	3.4
2025-01-24 08:49:38.555198	26.4	17.0	-89.1	3.9
2025-01-24 08:49:39.723553	26.4	17.1	-88.6	4.0
2025-01-24 08:49:40.881325	26.5	17.2	-88.7	4.2
2025-01-24 08:49:42.039758	26.5	17.4	-88.4	3.3
2025-01-24 08:49:43.198773	26.5	17.5	-88.5	0.3
2025-01-24 08:49:44.359864	26.5	17.6	-89.0	1.9
2025-01-24 08:49:45.518748	26.5	17.8	-89.2	4.1
2025-01-24 08:49:46.684090	26.5	17.9	-89.2	4.1
2025-01-24 08:49:47.836120	26.6	18.1	-89.3	7.4
2025-01-24 08:49:48.997377	26.6	18.2	-89.3	6.0
2025-01-24 08:49:50.156938	26.6	18.3	-89.4	5.0
2025-01-24 08:49:51.319225	26.6	18.5	-89.6	4.6
2025-01-24 08:49:52.466607	26.6	18.6	-90.0	6.4
2025-01-24 08:49:53.631317	26.6	18.8	-89.9	7.4
2025-01-24 08:49:54.786444	26.6	18.9	-89.6	7.2
2025-01-24 08:49:55.947264	26.7	19.0	-89.7	4.9
2025-01-24 08:49:57.098548	26.7	19.2	-89.9	2.9
2025-01-24 08:49:58.251646	26.7	19.3	-89.4	2.1
2025-01-24 08:49:59.406492	26.7	19.5	-89.5	3.4
2025-01-24 08:50:00.565473	26.7	19.6	-90.0	2.4
2025-01-24 08:50:01.716340	26.7	19.8	-90.0	3.1
2025-01-24 08:50:02.882455	26.8	19.9	-89.9	5.4
2025-01-24 08:50:04.035135	26.8	20.1	-89.8	6.6
2025-01-24 08:50:05.200847	26.8	20.2	-89.4	4.9
2025-01-24 08:50:06.354641	26.8	20.4	-89.8	4.0
2025-01-24 08:50:07.517223	26.8	20.5	-90.0	8.0
2025-01-24 08:50:08.678231	26.8	20.7	-90.0	7.6
2025-01-24 08:50:09.839843	26.9	20.8	-90.0	7.1
2025-01-24 08:50:11.000027	26.9	21.0	-89.6	10.5
2025-01-24 08:50:12.165331	26.9	21.1	-89.6	4.6
2025-01-24 08:50:13.322383	26.9	21.3	-89.5	2.4
2025-01-24 08:50:14.486598	26.9	21.4	-89.7	3.1
2025-01-24 08:50:15.649688	27.0	21.6	-90.0	3.7
2025-01-24 08:50:16.809099	27.0	21.8	-89.9	4.9
2025-01-24 08:50:17.970787	27.0	21.9	-89.7	6.0
2025-01-24 08:50:19.127656	27.0	22.1	-89.6	6.5
2025-01-24 08:50:20.286368	27.0	22.3	-89.5	9.6
2025-01-24 08:50:21.443854	27.0	22.4	-89.9	8.8
2025-01-24 08:50:22.593672	27.1	22.6	-89.6	6.6
2025-01-24 08:50:23.755438	27.1	22.7	-89.3	5.2
2025-01-24 08:50:24.917585	27.1	22.9	-89.2	8.7
2025-01-24 08:50:26.076702	27.1	23.1	-89.3	12.1
2025-01-24 08:50:27.235399	27.1	23.2	-89.3	10.6
2025-01-24 08:50:28.398741	27.2	23.4	-89.4	6.3
2025-01-24 08:50:29.556190	27.2	23.6	-89.4	4.1
2025-01-24 08:50:30.715614	27.2	23.8	-90.0	3.2
2025-01-24 08:50:31.873440	27.2	23.9	-89.5	3.2
2025-01-24 08:50:33.032170	27.2	24.1	-89.2	6.1
2025-01-24 08:50:34.201276	27.3	24.3	-89.3	4.2
2025-01-24 08:50:35.359643	27.3	24.5	-89.8	12.9
2025-01-24 08:50:36.521475	27.3	24.6	-89.9	13.2
2025-01-24 08:50:37.682003	27.3	24.8	-90.1	10.3
2025-01-24 08:50:38.844743	27.3	25.0	-90.0	5.4
2025-01-24 08:50:39.999283	27.4	25.2	-89.9	9.9
2025-01-24 08:50:41.160868	27.4	25.4	-89.6	8.0
2025-01-24 08:50:42.318208	27.4	25.5	-89.7	12.5
2025-01-24 08:50:43.484884	27.4	25.7	-89.9	10.9
2025-01-24 08:50:44.644254	27.4	25.9	-90.2	8.3
2025-01-24 08:50:45.808013	27.5	26.1	-89.9	2.6
2025-01-24 08:50:46.989371	27.5	26.3	-89.9	4.1
2025-01-24 08:50:48.141506	27.5	26.5	-89.4	3.9
2025-01-24 08:50:49.299450	27.5	26.7	-89.4	3.4
2025-01-24 08:50:50.458561	27.6	26.9	-89.4	6.4
2025-01-24 08:50:51.622301	27.6	27.1	-89.5	7.2
2025-01-24 08:50:52.778527	27.6	27.3	-89.4	9.3
2025-01-24 08:50:53.934835	27.6	27.5	-89.7	8.8
2025-01-24 08:50:55.095497	27.7	27.7	-90.0	8.7
2025-01-24 08:50:56.259481	27.7	27.9	-89.5	6.0
2025-01-24 08:50:57.423099	27.7	28.1	-89.7	6.3
2025-01-24 08:50:58.586894	27.7	28.3	-89.3	8.8
2025-01-24 08:50:59.746626	27.8	28.5	-89.7	7.6
2025-01-24 08:51:00.903210	27.8	28.7	-90.3	4.8
2025-01-24 08:51:02.062527	27.8	28.9	-90.1	3.0
2025-01-24 08:51:03.219210	27.8	29.1	-89.4	3.2
2025-01-24 08:51:04.372358	27.9	29.3	-89.3	1.4
2025-01-24 08:51:05.532861	27.9	29.5	-89.6	3.6
2025-01-24 08:51:06.697961	27.9	29.7	-90.2	4.9
2025-01-24 08:51:07.851273	27.9	29.9	-89.6	4.1
2025-01-24 08:51:09.012147	28.0	30.2	-89.7	2.0
2025-01-24 08:51:10.156113	28.0	30.4	-89.3	4.4
2025-01-24 08:51:11.312912	28.0	30.6	-89.7	1.1
2025-01-24 08:51:12.471154	28.0	30.8	-90.2	1.9
2025-01-24 08:51:13.626667	28.1	31.0	-89.8	2.9
2025-01-24 08:51:14.785725	28.1	31.3	-89.7	3.8
2025-01-24 08:51:15.938839	28.1	31.5	-90.1	6.2
2025-01-24 08:51:17.097743	28.2	31.7	-89.8	6.3
2025-01-24 08:51:18.252774	28.2	32.0	-89.8	4.9
2025-01-24 08:51:19.405682	28.2	32.2	-89.5	3.0
2025-01-24 08:51:20.561963	28.3	32.4	-89.9	3.7
2025-01-24 08:51:21.726079	28.3	32.7	-90.3	2.0
2025-01-24 08:51:22.877460	28.3	32.9	-90.0	2.5
2025-01-24 08:51:24.037735	28.3	33.1	-89.6	5.3
2025-01-24 08:51:25.204561	28.4	33.4	-89.2	5.7
2025-01-24 08:51:26.362598	28.4	33.6	-89.4	8.2
2025-01-24 08:51:27.516114	28.4	33.9	-89.4	5.6
2025-01-24 08:51:28.679555	28.5	34.1	-89.6	6.7
2025-01-24 08:51:29.836967	28.5	34.4	-89.7	4.0
2025-01-24 08:51:30.996589	28.5	34.6	-89.8	7.6
2025-01-24 08:51:32.149657	28.6	34.9	-89.6	7.6
2025-01-24 08:51:33.309191	28.6	35.1	-89.6	8.3
2025-01-24 08:51:34.470540	28.7	35.4	-89.5	8.5
2025-01-24 08:51:35.630594	28.7	35.6	-89.7	7.4
2025-01-24 08:51:36.792806	28.7	35.9	-89.7	4.9
2025-01-24 08:51:37.952187	28.8	36.2	-90.0	3.9
2025-01-24 08:51:39.116208	28.8	36.4	-89.4	3.8
2025-01-24 08:51:40.285219	28.8	36.7	-89.7	3.4
2025-01-24 08:51:41.446655	28.9	37.0	-89.6	5.1
2025-01-24 08:51:42.602093	28.9	37.3	-89.7	8.1
2025-01-24 08:51:43.756338	29.0	37.5	-89.6	12.5
2025-01-24 08:51:44.914746	29.0	37.8	-89.7	12.9
2025-01-24 08:51:46.076769	29.0	38.1	-89.8	10.2
2025-01-24 08:51:47.229995	29.1	38.4	-89.7	6.0
2025-01-24 08:51:48.384684	29.1	38.6	-89.8	8.7
2025-01-24 08:51:49.544236	29.2	38.9	-89.7	10.0
2025-01-24 08:51:50.708944	29.2	39.2	-89.7	9.3
2025-01-24 08:51:51.865665	29.3	39.5	-89.6	12.4
2025-01-24 08:51:53.018912	29.3	39.8	-89.4	12.8
2025-01-24 08:51:54.182201	29.3	40.1	-89.3	9.8
2025-01-24 08:51:55.342120	29.4	40.4	-89.3	5.6
2025-01-24 08:51:56.502608	29.4	40.7	-88.9	6.6
2025-01-24 08:51:57.666614	29.5	41.0	-88.3	3.7
2025-01-24 08:51:58.826789	29.5	41.3	-89.5	3.4
2025-01-24 08:51:59.986259	29.6	41.6	-90.0	9.3
2025-01-24 08:52:01.135176	29.6	41.9	-89.8	12.3
2025-01-24 08:52:02.289336	29.7	42.2	-89.8	17.1
2025-01-24 08:52:03.451887	29.7	42.6	-89.6	16.4
2025-01-24 08:52:04.614336	29.8	42.9	-89.6	15.2
2025-01-24 08:52:05.776506	29.8	43.2	-89.0	9.1
2025-01-24 08:52:06.938799	29.9	43.5	-89.4	12.0
2025-01-24 08:52:08.101719	30.0	43.9	-89.3	13.0
2025-01-24 08:52:09.269858	30.0	44.2	-89.3	13.4
2025-01-24 08:52:10.429610	30.1	44.5	-89.7	17.1
2025-01-24 08:52:11.589674	30.1	44.9	-90.0	17.1
2025-01-24 08:52:12.756262	30.2	45.2	-89.7	11.7
2025-01-24 08:52:13.913364	30.3	45.5	-89.6	8.9
2025-01-24 08:52:15.081719	30.3	45.9	-89.5	5.6
2025-01-24 08:52:16.242408	30.4	46.2	-89.5	3.2
2025-01-24 08:52:17.400767	30.5	46.6	-89.5	2.7
2025-01-24 08:52:18.560682	30.5	46.9	-89.6	4.9
2025-01-24 08:52:19.717412	30.6	47.3	-89.8	3.2
2025-01-24 08:52:20.875541	30.7	47.7	-89.5	4.3
2025-01-24 08:52:22.036017	30.7	48.0	-89.6	7.9
2025-01-24 08:52:23.176680	30.8	48.4	-89.6	9.7
2025-01-24 08:52:24.319554	30.9	48.7	-89.7	6.3
2025-01-24 08:52:25.492504	31.0	49.1	-90.0	8.0
2025-01-24 08:52:26.648492	31.0	49.5	-89.7	7.7
2025-01-24 08:52:27.806227	31.1	49.9	-89.7	6.0
2025-01-24 08:52:28.973294	31.2	50.2	-90.0	11.4
2025-01-24 08:52:30.132975	31.3	50.6	-90.0	11.4
2025-01-24 08:52:31.301294	31.4	51.0	-90.1	10.5
2025-01-24 08:52:32.451167	31.5	51.4	-90.3	8.2
2025-01-24 08:52:33.615495	31.6	51.8	-89.7	8.2
2025-01-24 08:52:34.777246	31.6	52.2	-89.5	6.7
2025-01-24 08:52:35.936575	31.7	52.6	-90.2	3.7
2025-01-24 08:52:37.100637	31.8	53.0	-90.0	2.9
2025-01-24 08:52:38.261795	31.9	53.4	-90.1	3.8
2025-01-24 08:52:39.414821	32.0	53.8	-89.9	3.9
2025-01-24 08:52:40.575496	32.1	54.2	-89.9	5.3
2025-01-24 08:52:41.738372	32.3	54.6	-90.1	5.6
2025-01-24 08:52:42.893941	32.4	55.1	-90.3	8.7
2025-01-24 08:52:44.057030	32.5	55.5	-90.2	12.4
2025-01-24 08:52:45.215415	32.6	55.9	-89.9	10.2
2025-01-24 08:52:46.372079	32.7	56.3	-89.9	7.1
2025-01-24 08:52:47.535455	32.9	56.8	-89.8	4.9
2025-01-24 08:52:48.694304	33.0	57.2	-89.9	3.6
2025-01-24 08:52:49.861333	33.1	57.6	-90.0	3.7
2025-01-24 08:52:51.029936	33.3	58.1	-89.8	9.2
2025-01-24 08:52:52.191082	33.4	58.5	-89.5	8.9
2025-01-24 08:52:53.355413	33.5	59.0	-89.7	8.2
2025-01-24 08:52:54.512122	33.7	59.4	-89.9	11.1
2025-01-24 08:52:55.673395	33.9	59.9	-89.9	9.8
2025-01-24 08:52:56.836944	34.0	60.3	-89.9	13.3
2025-01-24 08:52:57.996401	34.2	60.8	-89.8	11.0
2025-01-24 08:52:59.157194	34.4	61.3	-90.0	8.0
2025-01-24 08:53:00.316207	34.5	61.7	-90.3	3.5
2025-01-24 08:53:01.482406	34.7	62.2	-90.1	4.7
2025-01-24 08:53:02.634558	34.9	62.7	-89.8	5.3
2025-01-24 08:53:03.792638	35.1	63.1	-89.8	3.6
2025-01-24 08:53:04.955412	35.3	63.6	-89.7	6.8
2025-01-24 08:53:06.113791	35.6	64.1	-89.8	7.3
2025-01-24 08:53:07.273600	35.8	64.6	-89.7	9.4
2025-01-24 08:53:08.434876	36.0	65.1	-89.4	11.2
2025-01-24 08:53:09.598648	36.3	65.6	-89.5	14.6
2025-01-24 08:53:10.759398	36.5	66.0	-89.5	12.3
2025-01-24 08:53:11.920260	36.8	66.5	-89.8	9.8
2025-01-24 08:53:13.072436	37.1	67.0	-89.9	11.3
2025-01-24 08:53:14.232835	37.4	67.5	-90.1	4.9
2025-01-24 08:53:15.407203	37.7	68.0	-89.8	3.3
2025-01-24 08:53:16.564841	38.0	68.5	-89.8	2.0
2025-01-24 08:53:17.738442	38.4	69.1	-89.8	2.9
2025-01-24 08:53:18.902960	38.8	69.6	-90.1	4.7
2025-01-24 08:53:20.057897	39.1	70.1	-89.9	6.0
2025-01-24 08:53:21.224672	39.6	70.6	-89.8	4.9
2025-01-24 08:53:22.383354	40.0	71.1	-89.9	6.2
2025-01-24 08:53:23.540863	40.4	71.6	-89.9	9.8
2025-01-24 08:53:24.701237	40.9	72.1	-90.0	16.1
2025-01-24 08:53:25.857567	41.4	72.6	-90.1	15.8
2025-01-24 08:53:27.016747	42.0	73.2	-90.2	9.2
2025-01-24 08:53:28.177879	42.5	73.7	-90.2	7.1
2025-01-24 08:53:29.334535	43.2	74.2	-90.0	5.1
2025-01-24 08:53:30.505926	43.8	74.7	-90.3	3.5
2025-01-24 08:53:31.669009	44.6	75.2	-90.3	3.6
2025-01-24 08:53:32.824186	45.3	75.8	-90.3	3.4
2025-01-24 08:53:33.988000	46.1	76.3	-90.5	5.5
2025-01-24 08:53:35.144245	47.0	76.8	-90.0	4.2
2025-01-24 08:53:36.308735	48.0	77.3	-90.0	5.3
2025-01-24 08:53:37.469797	49.1	77.8	-89.8	7.6
2025-01-24 08:53:38.631593	50.2	78.3	-89.8	8.2
2025-01-24 08:53:39.785749	51.4	78.9	-90.0	5.4
2025-01-24 08:53:40.950320	52.8	79.4	-90.1	14.8
2025-01-24 08:53:42.113482	54.3	79.9	-89.9	14.0
2025-01-24 08:53:43.277740	56.0	80.4	-89.9	14.0
2025-01-24 08:53:44.442267	57.9	80.8	-90.1	16.3
2025-01-24 08:53:45.605189	59.9	81.3	-90.2	20.1
2025-01-24 08:53:46.766842	62.2	81.8	-90.0	21.0
2025-01-24 08:53:47.926194	64.8	82.2	-89.9	18.1
2025-01-24 08:53:49.086934	67.7	82.7	-89.7	16.0
2025-01-24 08:53:50.244245	70.9	83.1	-89.4	17.1
2025-01-24 08:53:51.410098	74.6	83.5	-89.8	13.1
2025-01-24 08:53:52.564872	78.7	83.8	-90.2	17.6
2025-01-24 08:53:53.724062	83.2	84.2	-90.0	15.4
2025-01-24 08:53:54.879294	88.3	84.4	-90.2	16.8
2025-01-24 08:53:56.039686	93.9	84.7	-90.0	13.1
2025-01-24 08:53:57.197782	99.9	84.9	-89.7	7.0
2025-01-24 08:53:58.374648	106.4	85.0	-89.6	14.0
2025-01-24 08:53:59.528501	113.0	85.0	-90.0	15.3
2025-01-24 08:54:00.681535	119.7	85.0	-89.6	8.3
2025-01-24 08:54:01.843155	126.3	85.0	-90.2	9.8
2025-01-24 08:54:03.000594	132.6	84.8	-90.0	10.9
2025-01-24 08:54:04.160551	138.5	84.6	-89.7	12.3
2025-01-24 08:54:05.320398	143.9	84.4	-89.7	8.5
2025-01-24 08:54:06.476297	148.8	84.1	-89.7	10.5
2025-01-24 08:54:07.637368	153.3	83.7	-89.6	15.9
2025-01-24 08:54:08.794726	157.2	83.4	-90.0	4.2
2025-01-24 08:54:09.955333	160.7	83.0	-89.9	9.2
2025-01-24 08:54:11.113964	163.9	82.5	-89.7	10.8
2025-01-24 08:54:12.278818	166.7	82.1	-89.6	8.6
2025-01-24 08:54:13.432880	169.1	81.7	-89.8	8.7
2025-01-24 08:54:14.601813	171.4	81.2	-90.0	11.8
2025-01-24 08:54:15.757189	173.4	80.7	-90.0	16.0
2025-01-24 08:54:16.926380	175.2	80.2	-90.0	10.2
2025-01-24 08:54:18.092791	176.8	79.7	-89.6	11.0
2025-01-24 08:54:19.251983	178.3	79.2	-89.8	12.4
2025-01-24 08:54:20.410282	179.6	78.7	-89.7	15.6
2025-01-24 08:54:21.562139	180.8	78.2	-89.4	6.9
2025-01-24 08:54:22.721362	182.0	77.7	-89.3	13.1
2025-01-24 08:54:23.879642	183.0	77.2	-89.7	8.1
2025-01-24 08:54:25.041074	183.9	76.7	-90.0	6.1
2025-01-24 08:54:26.200107	184.8	76.1	-89.9	8.6
2025-01-24 08:54:27.354753	185.6	75.6	-89.6	17.7
2025-01-24 08:54:28.518371	186.4	75.1	-89.9	6.8
2025-01-24 08:54:29.677668	187.1	74.6	-89.9	5.9
2025-01-24 08:54:30.842144	187.7	74.1	-89.9	11.7
2025-01-24 08:54:32.000365	188.3	73.5	-89.8	13.7
2025-01-24 08:54:33.153481	188.9	73.0	-90.0	11.7
2025-01-24 08:54:34.319005	189.4	72.5	-90.1	14.2
2025-01-24 08:54:35.472832	189.9	72.0	-90.0	8.1
2025-01-24 08:54:36.632008	190.4	71.5	-90.1	6.6
2025-01-24 08:54:37.790727	190.9	71.0	-90.2	7.8
2025-01-24 08:54:38.954888	191.3	70.5	-90.4	6.0
2025-01-24 08:54:40.115083	191.7	69.9	-90.1	4.4
2025-01-24 08:54:41.277168	192.1	69.4	-90.0	6.6
2025-01-24 08:54:42.436316	192.4	68.9	-89.9	11.1
2025-01-24 08:54:43.591758	192.8	68.4	-90.2	7.9
2025-01-24 08:54:44.756300	193.1	67.9	-90.4	6.3
2025-01-24 08:54:45.914899	193.4	67.4	-90.3	7.2
2025-01-24 08:54:47.069244	193.7	66.9	-89.9	6.5
2025-01-24 08:54:48.226174	194.0	66.4	-90.0	15.6
2025-01-24 08:54:49.382818	194.2	65.9	-89.5	6.1
2025-01-24 08:54:50.551248	194.5	65.4	-89.8	6.7
2025-01-24 08:54:51.708452	194.7	65.0	-90.2	6.7
2025-01-24 08:54:52.866961	195.0	64.5	-90.3	6.3
2025-01-24 08:54:54.031874	195.2	64.0	-90.1	3.8
2025-01-24 08:54:55.188283	195.4	63.5	-89.5	6.6
2025-01-24 08:54:56.348809	195.6	63.0	-89.5	13.2
2025-01-24 08:54:57.507101	195.8	62.6	-89.7	7.6
2025-01-24 08:54:58.681923	196.0	62.1	-89.8	10.8
2025-01-24 08:54:59.842597	196.2	61.6	-90.1	4.0
2025-01-24 08:55:00.995389	196.4	61.2	-90.0	9.1
2025-01-24 08:55:02.158458	196.6	60.7	-90.0	11.9
2025-01-24 08:55:03.320463	196.7	60.2	-90.0	13.1
2025-01-24 08:55:04.483637	196.9	59.8	-90.0	5.1
2025-01-24 08:55:05.643329	197.1	59.3	-89.6	4.0
2025-01-24 08:55:06.797978	197.2	58.9	-89.8	6.4
2025-01-24 08:55:07.957127	197.4	58.4	-90.0	9.5
2025-01-24 08:55:09.114934	197.5	58.0	-90.0	9.2
2025-01-24 08:55:10.279305	197.6	57.5	-90.0	10.7
2025-01-24 08:55:11.441869	197.8	57.1	-89.8	13.8
2025-01-24 08:55:12.605930	197.9	56.7	-89.8	14.2
2025-01-24 08:55:13.763155	198.0	56.2	-89.6	13.6
2025-01-24 08:55:14.919543	198.1	55.8	-89.5	14.4
2025-01-24 08:55:16.078400	198.3	55.4	-89.6	11.8
2025-01-24 08:55:17.232087	198.4	55.0	-89.8	11.3
2025-01-24 08:55:18.399654	198.5	54.6	-90.0	8.8
2025-01-24 08:55:19.560518	198.6	54.1	-90.1	10.0
2025-01-24 08:55:20.717040	198.7	53.7	-89.9	13.6
2025-01-24 08:55:21.880261	198.8	53.3	-90.1	12.7
2025-01-24 08:55:23.038279	198.9	52.9	-90.1	7.9
2025-01-24 08:55:24.197022	199.0	52.5	-90.0	12.3
2025-01-24 08:55:25.357850	199.1	52.1	-89.9	10.9
2025-01-24 08:55:26.516786	199.2	51.7	-90.2	5.5
2025-01-24 08:55:27.669156	199.3	51.3	-90.1	13.4
2025-01-24 08:55:28.829327	199.4	50.9	-90.0	14.4
2025-01-24 08:55:29.981734	199.5	50.6	-90.2	8.5
2025-01-24 08:55:31.141037	199.5	50.2	-90.2	11.8
2025-01-24 08:55:32.307300	199.6	49.8	-90.0	11.9
2025-01-24 08:55:33.462356	199.7	49.4	-90.2	7.3
2025-01-24 08:55:34.623600	199.8	49.0	-90.4	10.9
2025-01-24 08:55:35.784543	199.9	48.7	-90.4	12.6
2025-01-24 08:55:36.942672	199.9	48.3	-90.3	8.7
2025-01-24 08:55:38.107329	200.0	47.9	-90.0	13.0
2025-01-24 08:55:39.260408	200.1	47.6	-90.3	11.6
2025-01-24 08:55:40.437467	200.1	47.2	-89.9	12.5
2025-01-24 08:55:41.596920	200.2	46.9	-88.7	12.1
2025-01-24 08:55:42.758949	200.3	46.5	-90.1	18.6
2025-01-24 08:55:43.909174	200.3	46.2	-89.9	10.4
2025-01-24 08:55:45.066631	200.4	45.8	-90.0	8.2
2025-01-24 08:55:46.231127	200.5	45.5	-90.1	12.6
2025-01-24 08:55:47.385581	200.5	45.1	-90.0	12.1
2025-01-24 08:55:48.539934	200.6	44.8	-89.7	7.5
2025-01-24 08:55:49.702870	200.7	44.5	-89.5	12.7
2025-01-24 08:55:50.864632	200.7	44.1	-89.8	9.7
2025-01-24 08:55:52.017245	200.8	43.8	-89.6	5.5
2025-01-24 08:55:53.177040	200.8	43.5	-89.6	6.9
2025-01-24 08:55:54.342424	200.9	43.1	-89.2	12.4
2025-01-24 08:55:55.503764	200.9	42.8	-89.8	11.3
2025-01-24 08:55:56.670238	201.0	42.5	-90.2	17.3
2025-01-24 08:55:57.834187	201.0	42.2	-90.1	16.6
2025-01-24 08:55:58.991031	201.1	41.9	-89.4	15.8
2025-01-24 08:56:00.134783	201.1	41.6	-89.8	12.9
2025-01-24 08:56:01.290504	201.2	41.3	-89.9	12.7
2025-01-24 08:56:02.455038	201.2	41.0	-90.2	10.3
2025-01-24 08:56:03.616729	201.3	40.6	-90.1	10.1
2025-01-24 08:56:04.780296	201.3	40.3	-90.6	11.8
2025-01-24 08:56:05.943075	201.4	40.0	-89.8	8.9
2025-01-24 08:56:07.099550	201.4	39.8	-89.8	6.6
2025-01-24 08:56:08.258030	201.5	39.5	-90.3	10.4
2025-01-24 08:56:09.424611	201.5	39.2	-90.2	6.9
2025-01-24 08:56:10.575957	201.6	38.9	-90.0	5.2
2025-01-24 08:56:11.731206	201.6	38.6	-90.3	6.6
2025-01-24 08:56:12.888208	201.6	38.3	-90.0	8.2
2025-01-24 08:56:14.044999	201.7	38.0	-89.9	7.6
2025-01-24 08:56:15.209105	201.7	37.8	-89.9	7.7
2025-01-24 08:56:16.368714	201.8	37.5	-90.1	7.1
2025-01-24 08:56:17.524669	201.8	37.2	-90.0	7.7
2025-01-24 08:56:18.683722	201.8	36.9	-90.3	8.0
2025-01-24 08:56:19.835018	201.9	36.7	-90.3	9.4
2025-01-24 08:56:20.996505	201.9	36.4	-90.1	9.0
2025-01-24 08:56:22.154508	202.0	36.1	-90.2	9.0
2025-01-24 08:56:23.309176	202.0	35.9	-90.5	9.2
2025-01-24 08:56:24.467504	202.0	35.6	-90.4	4.6
2025-01-24 08:56:25.633205	202.1	35.3	-90.4	4.5
2025-01-24 08:56:26.781754	202.1	35.1	-90.2	5.2
2025-01-24 08:56:27.936675	202.1	34.8	-90.5	3.8
2025-01-24 08:56:29.099224	202.2	34.6	-90.3	5.1
2025-01-24 08:56:30.243041	202.2	34.3	-89.7	6.4
2025-01-24 08:56:31.386823	202.2	34.1	-89.9	4.6
2025-01-24 08:56:32.542706	202.3	33.8	-90.1	3.3
2025-01-24 08:56:33.701841	202.3	33.6	-90.1	1.9
2025-01-24 08:56:34.860461	202.3	33.4	-90.2	4.8
2025-01-24 08:56:36.022975	202.4	33.1	-90.4	3.1
2025-01-24 08:56:37.175816	202.4	32.9	-90.1	6.1
2025-01-24 08:56:38.335780	202.4	32.6	-90.1	7.4
2025-01-24 08:56:39.501612	202.5	32.4	-89.9	2.6
2025-01-24 08:56:40.662914	202.5	32.2	-90.0	4.0
2025-01-24 08:56:41.825529	202.5	31.9	-89.5	6.8
2025-01-24 08:56:42.998983	202.5	31.7	-89.8	3.8
2025-01-24 08:56:44.159283	202.6	31.5	-89.4	4.2
2025-01-24 08:56:45.317391	202.6	31.2	-89.3	5.7
2025-01-24 08:56:46.471842	202.6	31.0	-89.7	5.5
2025-01-24 08:56:47.635190	202.7	30.8	-89.4	3.9
2025-01-24 08:56:48.803736	202.7	30.6	-89.7	3.9
2025-01-24 08:56:49.968027	202.7	30.3	-89.7	3.9
2025-01-24 08:56:51.133267	202.7	30.1	-89.7	3.7
2025-01-24 08:56:52.291587	202.8	29.9	-89.6	4.4
2025-01-24 08:56:53.451224	202.8	29.7	-89.5	3.9
2025-01-24 08:56:54.613762	202.8	29.5	-89.4	2.0
2025-01-24 08:56:55.783466	202.8	29.3	-89.3	4.3
2025-01-24 08:56:56.944614	202.9	29.1	-89.8	2.4
2025-01-24 08:56:58.096395	202.9	28.8	-89.5	4.2
2025-01-24 08:56:59.258250	202.9	28.6	-89.5	4.4
2025-01-24 08:57:00.407755	202.9	28.4	-89.4	2.9
2025-01-24 08:57:01.560632	203.0	28.2	-89.7	3.4
2025-01-24 08:57:02.726704	203.0	28.0	-89.5	6.4
2025-01-24 08:57:03.888144	203.0	27.8	-89.4	6.9
2025-01-24 08:57:05.040903	203.0	27.6	-89.6	6.0
2025-01-24 08:57:06.202979	203.1	27.4	-89.1	5.7
2025-01-24 08:57:07.356804	203.1	27.2	-89.1	6.6
2025-01-24 08:57:08.514882	203.1	27.0	-89.2	6.8
2025-01-24 08:57:09.670197	203.1	26.8	-89.6	7.4
2025-01-24 08:57:10.831074	203.2	26.7	-89.8	9.2
2025-01-24 08:57:11.993752	203.2	26.5	-90.2	7.7
2025-01-24 08:57:13.152780	203.2	26.3	-90.1	8.9
2025-01-24 08:57:14.309614	203.2	26.1	-90.1	9.7
2025-01-24 08:57:15.481667	203.2	25.9	-90.2	6.8
2025-01-24 08:57:16.640429	203.3	25.7	-89.8	8.2
2025-01-24 08:57:17.808672	203.3	25.5	-89.8	6.3
2025-01-24 08:57:18.965078	203.3	25.3	-89.7	6.8
2025-01-24 08:57:20.124789	203.3	25.2	-89.8	5.5
2025-01-24 08:57:21.281568	203.4	25.0	-89.8	5.0
2025-01-24 08:57:22.448719	203.4	24.8	-90.2	5.8
2025-01-24 08:57:23.607210	203.4	24.6	-90.0	4.4
2025-01-24 08:57:24.773272	203.4	24.4	-90.5	6.2
2025-01-24 08:57:25.931200	203.4	24.3	-90.3	3.6
2025-01-24 08:57:27.087399	203.5	24.1	-90.2	3.7
2025-01-24 08:57:28.245728	203.5	23.9	-90.1	4.7
2025-01-24 08:57:29.401217	203.5	23.7	-90.1	3.7
2025-01-24 08:57:30.531201	203.5	23.6	-90.5	6.2
2025-01-24 08:57:31.652323	203.5	23.4	-90.3	6.7
2025-01-24 08:57:32.773517	203.5	23.2	-90.0	8.7
2025-01-24 08:57:33.894818	203.6	23.1	-89.7	7.8
2025-01-24 08:57:35.016310	203.6	22.9	-89.8	8.9
2025-01-24 08:57:36.136963	203.6	22.8	-90.1	8.4
2025-01-24 08:57:37.258017	203.6	22.6	-89.8	8.3
2025-01-24 08:57:38.378644	203.6	22.4	-89.7	7.4
2025-01-24 08:57:39.503963	203.7	22.3	-90.2	5.2
2025-01-24 08:57:40.641583	203.7	22.1	-89.9	6.2
2025-01-24 08:57:41.796373	203.7	22.0	-89.8	9.3
2025-01-24 08:57:42.960872	203.7	21.8	-90.1	6.2
2025-01-24 08:57:44.120622	203.7	21.6	-89.9	6.9
2025-01-24 08:57:45.281814	203.7	21.5	-89.9	9.8
2025-01-24 08:57:46.445715	203.8	21.3	-89.9	9.6
2025-01-24 08:57:47.603323	203.8	21.2	-90.1	8.8
2025-01-24 08:57:48.760030	203.8	21.0	-90.0	7.3
2025-01-24 08:57:49.922967	203.8	20.8	-89.6	5.7
2025-01-24 08:57:51.089503	203.8	20.7	-89.5	5.0
2025-01-24 08:57:52.256927	203.8	20.5	-89.8	6.7
2025-01-24 08:57:53.419618	203.9	20.4	-89.9	3.9
2025-01-24 08:57:54.576218	203.9	20.2	-90.2	4.6
2025-01-24 08:57:55.739759	203.9	20.1	-90.1	7.5
2025-01-24 08:57:56.898150	203.9	19.9	-90.1	5.5
2025-01-24 08:57:58.057662	203.9	19.8	-90.0	5.5
2025-01-24 08:57:59.219000	203.9	19.6	-89.9	6.7
2025-01-24 08:58:00.372201	204.0	19.5	-89.9	6.9
2025-01-24 08:58:01.537953	204.0	19.3	-90.2	6.4
2025-01-24 08:58:02.695868	204.0	19.2	-90.1	6.4
2025-01-24 08:58:03.852082	204.0	19.1	-90.5	5.3
2025-01-24 08:58:05.007688	204.0	18.9	-90.3	3.6
2025-01-24 08:58:06.171543	204.0	18.8	-90.0	4.6
2025-01-24 08:58:07.335422	204.1	18.6	-89.9	5.6
2025-01-24 08:58:08.499624	204.1	18.5	-89.6	4.3
2025-01-24 08:58:09.659964	204.1	18.4	-89.8	2.8
2025-01-24 08:58:10.814862	204.1	18.2	-90.0	4.9
2025-01-24 08:58:11.972618	204.1	18.1	-89.9	2.9
2025-01-24 08:58:13.135922	204.1	17.9	-89.8	2.9
2025-01-24 08:58:14.295363	204.1	17.8	-89.3	0.9
2025-01-24 08:58:15.458336	204.2	17.7	-89.5	3.7
2025-01-24 08:58:16.622055	204.2	17.5	-89.7	1.0
2025-01-24 08:58:17.785844	204.2	17.4	-90.1	3.8
2025-01-24 08:58:18.939572	204.2	17.3	-89.5	3.8
2025-01-24 08:58:20.091420	204.2	17.1	-89.3	3.0
2025-01-24 08:58:21.238002	204.2	17.0	-89.5	3.0
2025-01-24 08:58:22.395687	204.2	16.9	-89.9	1.3
2025-01-24 08:58:23.555288	204.3	16.7	-89.8	1.8
2025-01-24 08:58:24.712871	204.3	16.6	-89.7	5.0
2025-01-24 08:58:25.871225	204.3	16.5	-89.9	2.9
2025-01-24 08:58:27.033779	204.3	16.3	-89.7	1.7
2025-01-24 08:58:28.202646	204.3	16.2	-89.6	3.0
2025-01-24 08:58:29.356889	204.3	16.1	-89.7	2.9
2025-01-24 08:58:30.518928	204.3	16.0	-90.0	3.6
2025-01-24 08:58:31.677758	204.4	15.8	-89.9	3.4
2025-01-24 08:58:32.840594	204.4	15.7	-89.7	4.1
2025-01-24 08:58:34.002495	204.4	15.6	-89.8	2.9
2025-01-24 08:58:35.164430	204.4	15.5	-89.8	4.6
2025-01-24 08:58:36.327346	204.4	15.3	-89.9	3.4
2025-01-24 08:58:37.491665	204.4	15.2	-89.9	4.0
2025-01-24 08:58:38.653213	204.4	15.1	-89.6	3.7
2025-01-24 08:58:39.809197	204.4	15.0	-89.6	4.5
2025-01-24 08:58:40.965553	204.5	14.8	-90.1	4.6
2025-01-24 08:58:42.127518	204.5	14.7	-90.3	3.3
2025-01-24 08:58:43.283497	204.5	14.6	-90.1	0.9
#Closed at: 2025-01-24 08:49:25.527462