passes_logs/2025/01/24/LEX_Murmansk/LEX_Murmansk__20250124_091234_NOAA_18_rec.log

#Pass ID: 20250124_091234_NOAA 18
#Satellite: NOAA 18
#Configuration: NOAA 18
#Start time: 2025-01-24 09:12:29.454187

#LorettStation: 1.0.0 05.05.2024
#Station: LEX_Murmansk
#Location: 33.156738 lon 68.926811 lat
#TLE: 1 28654U 05018A   25023.16165176  .00000420  00000+0  24625-3 0  9991
#TLE: 2 28654  98.8554 104.1346 0014722 156.5601 203.6245 14.13494494 14331

#Time	Az	El	Level	SNR
2025-01-24 09:12:41.578741	29.2	16.3	-89.7	4.2
2025-01-24 09:12:42.742153	29.2	16.4	-89.6	3.1
2025-01-24 09:12:43.910588	29.3	16.5	-89.5	5.0
2025-01-24 09:12:45.066688	29.4	16.6	-89.7	5.3
2025-01-24 09:12:46.224024	29.5	16.7	-90.0	9.2
2025-01-24 09:12:47.386642	29.5	16.9	-89.7	8.2
2025-01-24 09:12:48.546841	29.6	17.0	-89.8	8.8
2025-01-24 09:12:49.712168	29.7	17.1	-89.5	5.2
2025-01-24 09:12:50.878541	29.8	17.3	-89.8	5.2
2025-01-24 09:12:52.046317	29.8	17.4	-89.5	2.8
2025-01-24 09:12:53.213565	29.9	17.5	-89.5	4.9
2025-01-24 09:12:54.374700	30.0	17.6	-89.6	4.9
2025-01-24 09:12:55.540349	30.1	17.8	-89.7	6.8
2025-01-24 09:12:56.703032	30.2	17.9	-90.0	6.6
2025-01-24 09:12:57.866366	30.2	18.0	-90.3	5.4
2025-01-24 09:12:59.029038	30.3	18.2	-89.8	7.4
2025-01-24 09:13:00.191061	30.4	18.3	-89.5	6.0
2025-01-24 09:13:01.346956	30.5	18.4	-89.4	6.0
2025-01-24 09:13:02.509686	30.6	18.6	-89.5	7.7
2025-01-24 09:13:03.675947	30.7	18.7	-89.6	7.6
2025-01-24 09:13:04.836066	30.7	18.8	-89.8	7.3
2025-01-24 09:13:05.996322	30.8	19.0	-89.5	6.0
2025-01-24 09:13:07.155613	30.9	19.1	-89.3	5.3
2025-01-24 09:13:08.314698	31.0	19.2	-89.2	7.9
2025-01-24 09:13:09.482454	31.1	19.4	-89.5	4.4
2025-01-24 09:13:10.660475	31.2	19.5	-89.7	6.5
2025-01-24 09:13:11.828639	31.3	19.7	-89.7	11.1
2025-01-24 09:13:12.994614	31.4	19.8	-89.7	10.6
2025-01-24 09:13:14.152935	31.5	19.9	-89.1	10.2
2025-01-24 09:13:15.316166	31.6	20.1	-89.6	9.9
2025-01-24 09:13:16.481822	31.6	20.2	-89.9	8.2
2025-01-24 09:13:17.642864	31.7	20.4	-90.0	9.0
2025-01-24 09:13:18.807812	31.8	20.5	-89.9	8.0
2025-01-24 09:13:19.968933	31.9	20.7	-89.8	10.3
2025-01-24 09:13:21.130672	32.0	20.8	-89.6	9.0
2025-01-24 09:13:22.287495	32.1	20.9	-89.4	9.1
2025-01-24 09:13:23.447827	32.2	21.1	-89.4	3.8
2025-01-24 09:13:24.614817	32.3	21.2	-89.9	7.8
2025-01-24 09:13:25.769159	32.4	21.4	-89.7	11.1
2025-01-24 09:13:26.932370	32.5	21.5	-89.4	8.5
2025-01-24 09:13:28.093130	32.6	21.7	-89.3	9.2
2025-01-24 09:13:29.252029	32.7	21.8	-89.2	10.8
2025-01-24 09:13:30.420245	32.8	22.0	-89.4	12.4
2025-01-24 09:13:31.584331	32.9	22.1	-90.0	8.6
2025-01-24 09:13:32.747588	33.1	22.3	-89.9	11.6
2025-01-24 09:13:33.915838	33.2	22.4	-89.7	10.3
2025-01-24 09:13:35.076791	33.3	22.6	-89.8	10.2
2025-01-24 09:13:36.244919	33.4	22.8	-89.3	10.9
2025-01-24 09:13:37.405368	33.5	22.9	-89.6	9.4
2025-01-24 09:13:38.562189	33.6	23.1	-89.6	7.6
2025-01-24 09:13:39.726269	33.7	23.2	-90.0	9.6
2025-01-24 09:13:40.886747	33.8	23.4	-90.0	6.3
2025-01-24 09:13:42.051640	33.9	23.6	-90.4	4.6
2025-01-24 09:13:43.216132	34.1	23.7	-90.4	10.0
2025-01-24 09:13:44.379429	34.2	23.9	-90.3	8.9
2025-01-24 09:13:45.538641	34.3	24.0	-90.4	11.4
2025-01-24 09:13:46.701892	34.4	24.2	-90.2	9.2
2025-01-24 09:13:47.861849	34.5	24.4	-90.1	8.2
2025-01-24 09:13:49.025670	34.7	24.5	-90.3	6.4
2025-01-24 09:13:50.187148	34.8	24.7	-90.1	7.8
2025-01-24 09:13:51.351522	34.9	24.9	-89.9	6.6
2025-01-24 09:13:52.518916	35.0	25.0	-90.0	7.5
2025-01-24 09:13:53.675096	35.1	25.2	-90.4	8.6
2025-01-24 09:13:54.835070	35.3	25.4	-90.0	10.3
2025-01-24 09:13:55.998919	35.4	25.5	-89.9	6.5
2025-01-24 09:13:57.162620	35.5	25.7	-89.5	7.0
2025-01-24 09:13:58.325214	35.7	25.9	-89.4	7.2
2025-01-24 09:13:59.488650	35.8	26.1	-90.1	4.4
2025-01-24 09:14:00.637361	35.9	26.2	-89.9	4.9
2025-01-24 09:14:01.775917	36.1	26.4	-89.9	7.2
2025-01-24 09:14:02.939738	36.2	26.6	-90.1	8.5
2025-01-24 09:14:04.105434	36.3	26.8	-89.8	8.2
2025-01-24 09:14:05.265625	36.5	26.9	-89.8	8.1
2025-01-24 09:14:06.436135	36.6	27.1	-89.5	6.0
2025-01-24 09:14:07.594436	36.8	27.3	-89.8	6.4
2025-01-24 09:14:08.748080	36.9	27.5	-90.1	5.2
2025-01-24 09:14:09.910709	37.1	27.7	-90.2	5.8
2025-01-24 09:14:11.075431	37.2	27.8	-90.0	6.3
2025-01-24 09:14:12.240805	37.4	28.0	-89.9	6.1
2025-01-24 09:14:13.401791	37.5	28.2	-90.1	7.1
2025-01-24 09:14:14.565690	37.7	28.4	-90.3	5.9
2025-01-24 09:14:15.716618	37.8	28.6	-90.3	10.4
2025-01-24 09:14:16.875821	38.0	28.8	-90.0	8.6
2025-01-24 09:14:18.034549	38.1	29.0	-90.1	6.5
2025-01-24 09:14:19.202285	38.3	29.2	-89.9	9.2
2025-01-24 09:14:20.364720	38.5	29.3	-89.9	11.2
2025-01-24 09:14:21.526413	38.6	29.5	-90.2	8.5
2025-01-24 09:14:22.689304	38.8	29.7	-90.3	13.2
2025-01-24 09:14:23.848133	39.0	29.9	-90.0	11.3
2025-01-24 09:14:25.016657	39.1	30.1	-90.4	8.8
2025-01-24 09:14:26.177990	39.3	30.3	-89.6	11.3
2025-01-24 09:14:27.341756	39.5	30.5	-89.7	14.2
2025-01-24 09:14:28.499115	39.7	30.7	-89.5	13.1
2025-01-24 09:14:29.663001	39.8	30.9	-90.0	14.1
2025-01-24 09:14:30.833600	40.0	31.1	-89.9	11.1
2025-01-24 09:14:31.997012	40.2	31.3	-90.0	8.2
2025-01-24 09:14:33.160893	40.4	31.5	-89.7	11.1
2025-01-24 09:14:34.321673	40.6	31.7	-89.1	13.0
2025-01-24 09:14:35.478550	40.8	31.9	-89.3	7.9
2025-01-24 09:14:36.637449	40.9	32.2	-89.6	12.5
2025-01-24 09:14:37.791577	41.1	32.4	-90.2	14.3
2025-01-24 09:14:38.957380	41.3	32.6	-89.3	13.8
2025-01-24 09:14:40.126245	41.5	32.8	-89.7	14.4
2025-01-24 09:14:41.287258	41.7	33.0	-89.5	15.2
2025-01-24 09:14:42.455236	41.9	33.2	-89.8	15.3
2025-01-24 09:14:43.615122	42.2	33.4	-90.0	15.4
2025-01-24 09:14:44.779491	42.4	33.6	-88.8	15.7
2025-01-24 09:14:45.938607	42.6	33.9	-88.7	13.8
2025-01-24 09:14:47.095241	42.8	34.1	-88.6	15.2
2025-01-24 09:14:48.262702	43.0	34.3	-88.7	16.6
2025-01-24 09:14:49.424507	43.2	34.5	-88.9	13.2
2025-01-24 09:14:50.582656	43.5	34.7	-89.2	11.9
2025-01-24 09:14:51.754158	43.7	34.9	-89.9	12.6
2025-01-24 09:14:52.914585	43.9	35.2	-89.8	7.7
2025-01-24 09:14:54.075472	44.1	35.4	-89.5	6.5
2025-01-24 09:14:55.251228	44.4	35.6	-90.1	11.9
2025-01-24 09:14:56.413571	44.6	35.8	-89.9	9.6
2025-01-24 09:14:57.574895	44.9	36.1	-90.3	11.8
2025-01-24 09:14:58.731845	45.1	36.3	-90.5	15.2
2025-01-24 09:14:59.897350	45.4	36.5	-90.3	14.6
2025-01-24 09:15:01.058316	45.6	36.8	-90.1	16.5
2025-01-24 09:15:02.217494	45.9	37.0	-90.2	17.0
2025-01-24 09:15:03.381734	46.1	37.2	-90.0	11.4
2025-01-24 09:15:04.542408	46.4	37.5	-90.1	11.8
2025-01-24 09:15:05.703990	46.7	37.7	-89.2	13.2
2025-01-24 09:15:06.867383	46.9	37.9	-89.9	14.3
2025-01-24 09:15:08.019451	47.2	38.2	-89.7	17.2
2025-01-24 09:15:09.187758	47.5	38.4	-89.7	14.5
2025-01-24 09:15:10.360225	47.8	38.6	-90.2	14.2
2025-01-24 09:15:11.520224	48.1	38.9	-90.4	9.1
2025-01-24 09:15:12.689832	48.4	39.1	-90.0	14.5
2025-01-24 09:15:13.849604	48.6	39.4	-90.1	11.7
2025-01-24 09:15:15.013177	48.9	39.6	-90.0	9.1
2025-01-24 09:15:16.175223	49.2	39.8	-89.7	16.8
2025-01-24 09:15:17.334776	49.6	40.1	-90.1	14.5
2025-01-24 09:15:18.492614	49.9	40.3	-90.0	11.9
2025-01-24 09:15:19.653585	50.2	40.6	-90.5	14.6
2025-01-24 09:15:20.814288	50.5	40.8	-90.3	16.8
2025-01-24 09:15:21.975939	50.8	41.1	-90.2	18.2
2025-01-24 09:15:23.136575	51.2	41.3	-90.1	18.7
2025-01-24 09:15:24.295070	51.5	41.6	-89.8	17.8
2025-01-24 09:15:25.452648	51.8	41.8	-89.9	15.5
2025-01-24 09:15:26.613074	52.2	42.0	-90.1	13.1
2025-01-24 09:15:27.782185	52.6	42.3	-90.3	15.1
2025-01-24 09:15:28.936411	52.9	42.5	-90.5	14.2
2025-01-24 09:15:30.103528	53.3	42.8	-90.4	15.9
2025-01-24 09:15:31.265895	53.6	43.0	-90.4	10.7
2025-01-24 09:15:32.426852	54.0	43.3	-90.6	16.9
2025-01-24 09:15:33.590822	54.4	43.5	-90.6	12.1
2025-01-24 09:15:34.752400	54.8	43.8	-89.9	15.0
2025-01-24 09:15:35.915111	55.2	44.0	-90.0	8.9
2025-01-24 09:15:37.075482	55.6	44.3	-90.1	7.6
2025-01-24 09:15:38.235639	56.0	44.6	-90.1	14.0
2025-01-24 09:15:39.391283	56.4	44.8	-89.9	9.2
2025-01-24 09:15:40.551150	56.8	45.1	-89.7	7.5
2025-01-24 09:15:41.713198	57.2	45.3	-89.7	16.1
2025-01-24 09:15:42.879842	57.7	45.6	-90.0	17.9
2025-01-24 09:15:44.041567	58.1	45.8	-90.2	16.4
2025-01-24 09:15:45.209940	58.6	46.1	-90.1	15.5
2025-01-24 09:15:46.373019	59.0	46.3	-90.1	13.4
2025-01-24 09:15:47.531945	59.5	46.6	-90.3	12.2
2025-01-24 09:15:48.694777	59.9	46.8	-90.3	7.1
2025-01-24 09:15:49.859307	60.4	47.1	-90.4	4.2
2025-01-24 09:15:51.024249	60.9	47.3	-90.2	9.1
2025-01-24 09:15:52.185596	61.4	47.6	-89.9	8.6
2025-01-24 09:15:53.352336	61.9	47.8	-90.0	7.4
2025-01-24 09:15:54.515057	62.4	48.0	-90.2	6.7
2025-01-24 09:15:55.674938	62.9	48.3	-90.1	5.7
2025-01-24 09:15:56.841341	63.4	48.5	-90.0	6.1
2025-01-24 09:15:57.998666	64.0	48.8	-90.3	5.8
2025-01-24 09:15:59.224183	64.5	49.0	-89.9	5.7
2025-01-24 09:16:00.381053	65.1	49.3	-90.1	6.4
2025-01-24 09:16:01.545834	65.6	49.5	-90.2	5.1
2025-01-24 09:16:02.705879	66.2	49.7	-90.4	6.9
2025-01-24 09:16:03.864582	66.8	50.0	-90.6	5.8
2025-01-24 09:16:05.021788	67.3	50.2	-90.4	4.2
2025-01-24 09:16:06.183896	67.9	50.4	-90.2	7.8
2025-01-24 09:16:07.346514	68.5	50.7	-90.1	8.8
2025-01-24 09:16:08.510589	69.1	50.9	-90.4	10.1
2025-01-24 09:16:09.671597	69.8	51.1	-90.7	7.5
2025-01-24 09:16:10.828762	70.4	51.3	-90.7	11.9
2025-01-24 09:16:11.992957	71.0	51.6	-90.7	12.6
2025-01-24 09:16:13.155094	71.7	51.8	-90.2	13.1
2025-01-24 09:16:14.316817	72.3	52.0	-90.7	15.2
2025-01-24 09:16:15.480657	73.0	52.2	-90.7	7.7
2025-01-24 09:16:16.644039	73.7	52.4	-90.4	8.4
2025-01-24 09:16:17.807104	74.3	52.6	-90.5	14.2
2025-01-24 09:16:18.965031	75.0	52.8	-90.4	7.6
2025-01-24 09:16:20.125035	75.7	53.0	-90.3	12.4
2025-01-24 09:16:21.287634	76.4	53.2	-90.1	12.5
2025-01-24 09:16:22.451208	77.2	53.4	-90.4	11.9
2025-01-24 09:16:23.627222	77.9	53.6	-90.6	17.3
2025-01-24 09:16:24.787250	78.6	53.8	-90.4	13.5
2025-01-24 09:16:25.949322	79.4	54.0	-90.5	11.2
2025-01-24 09:16:27.111555	80.2	54.1	-90.2	13.2
2025-01-24 09:16:28.269583	80.9	54.3	-90.2	13.0
2025-01-24 09:16:29.436856	81.7	54.5	-90.5	9.7
2025-01-24 09:16:30.597414	82.5	54.6	-90.4	13.5
2025-01-24 09:16:31.758135	83.3	54.8	-90.2	13.4
2025-01-24 09:16:32.924832	84.1	54.9	-89.9	11.1
2025-01-24 09:16:34.084606	84.9	55.1	-90.0	7.4
2025-01-24 09:16:35.247713	85.7	55.2	-90.1	7.7
2025-01-24 09:16:36.408888	86.5	55.4	-90.2	6.9
2025-01-24 09:16:37.576938	87.4	55.5	-90.5	7.1
2025-01-24 09:16:38.736304	88.2	55.6	-90.3	15.0
2025-01-24 09:16:39.896776	89.1	55.7	-90.6	8.0
2025-01-24 09:16:41.057374	89.9	55.9	-90.2	7.9
2025-01-24 09:16:42.223228	90.8	56.0	-89.9	15.8
2025-01-24 09:16:43.385653	91.7	56.1	-89.6	10.5
2025-01-24 09:16:44.545224	92.5	56.2	-90.4	11.6
2025-01-24 09:16:45.706765	93.4	56.2	-90.5	15.4
2025-01-24 09:16:46.866416	94.3	56.3	-90.3	12.3
2025-01-24 09:16:48.026015	95.2	56.4	-90.4	9.9
2025-01-24 09:16:49.180995	96.1	56.5	-90.2	11.5
2025-01-24 09:16:50.343673	97.0	56.5	-90.2	10.4
2025-01-24 09:16:51.505963	97.9	56.6	-90.5	15.8
2025-01-24 09:16:52.671427	98.8	56.6	-90.5	18.6
2025-01-24 09:16:53.836076	99.7	56.7	-90.6	12.2
2025-01-24 09:16:54.995232	100.6	56.7	-90.3	14.2
2025-01-24 09:16:56.156978	101.5	56.7	-90.3	21.6
2025-01-24 09:16:57.322327	102.5	56.8	-90.4	8.8
2025-01-24 09:16:58.482013	103.4	56.8	-89.8	15.6
2025-01-24 09:16:59.638463	104.3	56.8	-90.3	23.8
2025-01-24 09:17:00.786203	105.2	56.8	-90.3	21.9
2025-01-24 09:17:01.947556	106.1	56.8	-90.4	12.9
2025-01-24 09:17:03.119176	107.1	56.8	-90.4	17.2
2025-01-24 09:17:04.278667	108.0	56.7	-90.1	17.9
2025-01-24 09:17:05.439862	108.9	56.7	-90.3	13.4
2025-01-24 09:17:06.600069	109.8	56.7	-89.9	12.1
2025-01-24 09:17:07.766772	110.7	56.6	-90.0	17.9
2025-01-24 09:17:08.926247	111.6	56.6	-89.9	11.3
2025-01-24 09:17:10.093269	112.5	56.5	-89.7	10.3
2025-01-24 09:17:11.252951	113.4	56.5	-90.0	15.9
2025-01-24 09:17:12.413490	114.3	56.4	-89.9	12.0
2025-01-24 09:17:13.574318	115.2	56.3	-90.1	10.1
2025-01-24 09:17:14.750467	116.1	56.2	-90.3	15.8
2025-01-24 09:17:15.915597	117.0	56.2	-90.6	9.7
2025-01-24 09:17:17.073466	117.9	56.1	-90.4	6.9
2025-01-24 09:17:18.237297	118.8	56.0	-90.2	7.6
2025-01-24 09:17:19.396074	119.6	55.8	-90.2	6.9
2025-01-24 09:17:20.564395	120.5	55.7	-90.0	7.6
2025-01-24 09:17:21.726617	121.3	55.6	-90.0	8.1
2025-01-24 09:17:22.888902	122.2	55.5	-90.2	10.6
2025-01-24 09:17:24.059162	123.0	55.4	-90.2	5.5
2025-01-24 09:17:25.217579	123.9	55.2	-89.9	16.5
2025-01-24 09:17:26.382066	124.7	55.1	-89.8	8.4
2025-01-24 09:17:27.539082	125.5	54.9	-90.3	7.7
2025-01-24 09:17:28.696028	126.3	54.8	-90.4	10.8
2025-01-24 09:17:29.856313	127.1	54.6	-90.4	12.1
2025-01-24 09:17:31.017271	127.9	54.5	-90.2	12.0
2025-01-24 09:17:32.181025	128.6	54.3	-89.8	16.7
2025-01-24 09:17:33.348694	129.4	54.1	-90.1	12.2
2025-01-24 09:17:34.512146	130.2	54.0	-90.2	9.6
2025-01-24 09:17:35.673765	130.9	53.8	-90.1	14.7
2025-01-24 09:17:36.838281	131.7	53.6	-90.4	17.4
2025-01-24 09:17:38.003292	132.4	53.4	-90.4	9.4
2025-01-24 09:17:39.168099	133.1	53.2	-90.2	14.8
2025-01-24 09:17:40.326843	133.8	53.0	-90.5	13.9
2025-01-24 09:17:41.491328	134.5	52.8	-90.6	10.4
2025-01-24 09:17:42.655705	135.2	52.6	-90.7	12.8
2025-01-24 09:17:43.818064	135.9	52.4	-90.5	12.4
2025-01-24 09:17:44.979962	136.6	52.2	-89.4	7.5
2025-01-24 09:17:46.146355	137.3	52.0	-89.0	12.9
2025-01-24 09:17:47.311925	137.9	51.8	-89.4	13.7
2025-01-24 09:17:48.472078	138.6	51.5	-88.9	8.5
2025-01-24 09:17:49.627520	139.2	51.3	-89.5	10.0
2025-01-24 09:17:50.788437	139.8	51.1	-89.3	11.3
2025-01-24 09:17:51.955572	140.5	50.9	-90.1	8.7
2025-01-24 09:17:53.112621	141.1	50.6	-89.9	7.0
2025-01-24 09:17:54.276677	141.7	50.4	-89.9	7.6
2025-01-24 09:17:55.442718	142.3	50.2	-89.6	4.7
2025-01-24 09:17:56.607322	142.8	49.9	-90.0	4.9
2025-01-24 09:17:57.769460	143.4	49.7	-90.0	3.9
2025-01-24 09:17:58.926851	144.0	49.5	-90.1	4.2
2025-01-24 09:18:00.086662	144.5	49.2	-89.7	5.0
2025-01-24 09:18:01.247029	145.1	49.0	-89.5	11.5
2025-01-24 09:18:02.408741	145.6	48.8	-89.8	6.0
2025-01-24 09:18:03.565522	146.2	48.5	-90.5	7.6
2025-01-24 09:18:04.725150	146.7	48.3	-90.6	5.8
2025-01-24 09:18:05.885289	147.2	48.0	-90.2	5.1
2025-01-24 09:18:07.048236	147.7	47.8	-90.1	6.0
2025-01-24 09:18:08.203752	148.2	47.5	-89.9	8.4
2025-01-24 09:18:09.362740	148.7	47.3	-90.0	13.0
2025-01-24 09:18:10.522333	149.2	47.0	-90.3	7.5
2025-01-24 09:18:11.689785	149.7	46.8	-90.0	6.3
2025-01-24 09:18:12.852734	150.1	46.5	-89.8	10.0
2025-01-24 09:18:14.014973	150.6	46.3	-89.8	11.7
2025-01-24 09:18:15.170803	151.0	46.0	-90.4	14.0
2025-01-24 09:18:16.333648	151.5	45.8	-90.5	14.8
2025-01-24 09:18:17.495127	151.9	45.5	-90.5	16.2
2025-01-24 09:18:18.651867	152.4	45.3	-90.3	10.5
2025-01-24 09:18:19.816977	152.8	45.0	-90.4	13.9
2025-01-24 09:18:20.978004	153.2	44.8	-90.4	16.2
2025-01-24 09:18:22.140855	153.6	44.5	-90.2	13.5
2025-01-24 09:18:23.303911	154.0	44.3	-89.8	13.0
2025-01-24 09:18:24.464737	154.4	44.0	-90.1	11.8
2025-01-24 09:18:25.622715	154.8	43.8	-90.3	12.3
2025-01-24 09:18:26.787680	155.2	43.5	-90.0	15.9
2025-01-24 09:18:27.925130	155.6	43.3	-89.8	12.7
2025-01-24 09:18:29.086187	156.0	43.0	-90.3	10.4
2025-01-24 09:18:30.244892	156.3	42.7	-90.4	15.9
2025-01-24 09:18:31.409793	156.7	42.5	-90.1	9.4
2025-01-24 09:18:32.573465	157.1	42.2	-90.2	8.6
2025-01-24 09:18:33.744458	157.4	42.0	-90.4	16.7
2025-01-24 09:18:34.909465	157.8	41.7	-90.3	9.3
2025-01-24 09:18:36.071154	158.1	41.5	-90.1	8.3
2025-01-24 09:18:37.236237	158.4	41.2	-90.4	7.8
2025-01-24 09:18:38.404580	158.8	41.0	-90.3	9.1
2025-01-24 09:18:39.559083	159.1	40.8	-89.9	8.9
2025-01-24 09:18:40.705700	159.4	40.5	-89.9	12.3
2025-01-24 09:18:41.861256	159.7	40.3	-90.3	10.6
2025-01-24 09:18:43.023993	160.1	40.0	-89.7	9.7
2025-01-24 09:18:44.185608	160.4	39.8	-89.9	9.3
2025-01-24 09:18:45.351691	160.7	39.5	-90.3	10.1
2025-01-24 09:18:46.516375	161.0	39.3	-90.5	12.0
2025-01-24 09:18:47.677091	161.3	39.0	-90.0	12.3
2025-01-24 09:18:48.844341	161.6	38.8	-90.4	12.5
2025-01-24 09:18:50.001082	161.8	38.6	-90.3	11.0
2025-01-24 09:18:51.167166	162.1	38.3	-90.1	10.1
2025-01-24 09:18:52.324756	162.4	38.1	-90.4	10.0
2025-01-24 09:18:53.479557	162.7	37.8	-90.3	7.1
2025-01-24 09:18:54.600204	162.9	37.6	-90.6	7.8
2025-01-24 09:18:55.742426	163.2	37.4	-90.2	10.6
2025-01-24 09:18:56.899826	163.5	37.2	-90.4	6.0
2025-01-24 09:18:58.059343	163.7	36.9	-90.3	5.6
2025-01-24 09:18:59.212479	164.0	36.7	-89.9	9.0
2025-01-24 09:19:00.370770	164.2	36.5	-89.8	6.6
2025-01-24 09:19:01.539163	164.5	36.2	-90.1	7.4
2025-01-24 09:19:02.690896	164.7	36.0	-90.4	11.2
2025-01-24 09:19:03.852449	165.0	35.8	-90.2	13.1
2025-01-24 09:19:05.018631	165.2	35.5	-90.1	10.3
2025-01-24 09:19:06.177395	165.5	35.3	-90.0	9.7
2025-01-24 09:19:07.336050	165.7	35.1	-90.3	7.6
2025-01-24 09:19:08.494142	165.9	34.9	-89.7	8.8
2025-01-24 09:19:09.652578	166.2	34.6	-90.1	10.1
2025-01-24 09:19:10.811107	166.4	34.4	-90.2	12.1
2025-01-24 09:19:11.981205	166.6	34.2	-90.6	11.8
2025-01-24 09:19:13.141358	166.8	34.0	-90.3	11.9
2025-01-24 09:19:14.309561	167.0	33.8	-90.1	12.6
2025-01-24 09:19:15.472911	167.2	33.5	-90.1	7.6
2025-01-24 09:19:16.637100	167.5	33.3	-90.4	10.4
2025-01-24 09:19:17.806389	167.7	33.1	-90.2	13.1
2025-01-24 09:19:18.960675	167.9	32.9	-90.3	8.5
2025-01-24 09:19:20.128041	168.1	32.7	-90.0	12.2
2025-01-24 09:19:21.286821	168.3	32.5	-89.8	13.3
2025-01-24 09:19:22.449565	168.5	32.3	-90.0	8.8
2025-01-24 09:19:23.610102	168.7	32.0	-90.3	10.7
2025-01-24 09:19:24.774336	168.9	31.8	-90.5	11.5
2025-01-24 09:19:25.931876	169.1	31.6	-90.7	13.1
2025-01-24 09:19:27.102159	169.2	31.4	-90.4	11.3
2025-01-24 09:19:28.263828	169.4	31.2	-90.1	9.7
2025-01-24 09:19:29.427387	169.6	31.0	-89.7	8.9
2025-01-24 09:19:30.591815	169.8	30.8	-90.1	10.2
2025-01-24 09:19:31.752253	170.0	30.6	-89.8	8.5
2025-01-24 09:19:32.913788	170.1	30.4	-90.4	7.1
2025-01-24 09:19:34.077945	170.3	30.2	-90.3	4.8
2025-01-24 09:19:35.245247	170.5	30.0	-90.1	5.4
2025-01-24 09:19:36.405765	170.7	29.8	-89.4	4.7
2025-01-24 09:19:37.568322	170.8	29.6	-90.1	6.2
2025-01-24 09:19:38.729613	171.0	29.4	-90.3	9.8
2025-01-24 09:19:39.887800	171.2	29.2	-90.1	5.6
2025-01-24 09:19:41.044924	171.3	29.0	-90.4	7.6
2025-01-24 09:19:42.208264	171.5	28.8	-90.2	11.2
2025-01-24 09:19:43.374442	171.6	28.6	-90.2	9.5
2025-01-24 09:19:44.534499	171.8	28.5	-90.1	12.1
2025-01-24 09:19:45.698127	172.0	28.3	-90.3	12.8
2025-01-24 09:19:46.862874	172.1	28.1	-90.1	12.9
2025-01-24 09:19:48.023755	172.3	27.9	-90.2	11.6
2025-01-24 09:19:49.183394	172.4	27.7	-90.0	12.6
2025-01-24 09:19:50.348282	172.6	27.5	-90.0	10.6
2025-01-24 09:19:51.499284	172.7	27.3	-90.0	8.9
2025-01-24 09:19:52.664233	172.9	27.2	-89.8	9.9
2025-01-24 09:19:53.821610	173.0	27.0	-90.0	9.4
2025-01-24 09:19:54.988808	173.1	26.8	-90.4	9.6
2025-01-24 09:19:56.147229	173.3	26.6	-90.2	8.8
2025-01-24 09:19:57.306439	173.4	26.4	-90.2	8.2
2025-01-24 09:19:58.474165	173.6	26.3	-89.9	6.7
2025-01-24 09:19:59.629128	173.7	26.1	-89.8	7.3
2025-01-24 09:20:00.789209	173.8	25.9	-90.2	9.2
2025-01-24 09:20:01.953306	174.0	25.7	-90.3	7.0
2025-01-24 09:20:03.114357	174.1	25.6	-90.1	9.1
2025-01-24 09:20:04.271085	174.2	25.4	-89.9	8.6
2025-01-24 09:20:05.435360	174.4	25.2	-90.1	6.1
2025-01-24 09:20:06.588390	174.5	25.0	-90.3	7.8
2025-01-24 09:20:07.754595	174.6	24.9	-90.2	9.1
2025-01-24 09:20:08.913686	174.7	24.7	-90.0	6.6
2025-01-24 09:20:10.077844	174.9	24.5	-90.0	6.4
2025-01-24 09:20:11.235696	175.0	24.4	-90.1	10.4
2025-01-24 09:20:12.397178	175.1	24.2	-90.0	7.2
2025-01-24 09:20:13.557708	175.2	24.0	-90.1	7.1
2025-01-24 09:20:14.727614	175.3	23.9	-90.4	10.0
2025-01-24 09:20:15.892903	175.5	23.7	-90.4	8.2
2025-01-24 09:20:17.055396	175.6	23.5	-90.3	10.0
2025-01-24 09:20:18.221036	175.7	23.4	-90.0	9.5
2025-01-24 09:20:19.378788	175.8	23.2	-90.2	9.0
2025-01-24 09:20:20.543895	175.9	23.1	-90.5	7.7
2025-01-24 09:20:21.708915	176.0	22.9	-90.1	10.4
2025-01-24 09:20:22.888207	176.1	22.7	-90.1	8.5
2025-01-24 09:20:24.050729	176.3	22.6	-89.5	8.3
2025-01-24 09:20:25.213277	176.4	22.4	-89.3	8.7
2025-01-24 09:20:26.372989	176.5	22.3	-89.5	9.1
2025-01-24 09:20:27.534346	176.6	22.1	-89.5	9.4
2025-01-24 09:20:28.700547	176.7	22.0	-89.7	13.8
2025-01-24 09:20:29.854092	176.8	21.8	-90.1	14.1
2025-01-24 09:20:31.017499	176.9	21.7	-90.1	11.6
2025-01-24 09:20:32.182540	177.0	21.5	-89.7	11.5
2025-01-24 09:20:33.342918	177.1	21.4	-89.5	9.2
2025-01-24 09:20:34.511270	177.2	21.2	-89.9	9.2
2025-01-24 09:20:35.671724	177.3	21.1	-89.7	7.9
2025-01-24 09:20:36.834101	177.4	20.9	-90.1	5.5
2025-01-24 09:20:37.998968	177.5	20.8	-90.1	6.5
2025-01-24 09:20:39.157153	177.6	20.6	-89.7	6.4
2025-01-24 09:20:40.320555	177.7	20.5	-89.7	6.8
2025-01-24 09:20:41.483382	177.8	20.3	-90.0	5.0
2025-01-24 09:20:42.646607	177.9	20.2	-89.9	7.4
2025-01-24 09:20:43.811191	178.0	20.0	-89.8	10.5
2025-01-24 09:20:44.977243	178.1	19.9	-88.9	10.0
2025-01-24 09:20:46.135258	178.2	19.7	-88.7	10.0
2025-01-24 09:20:47.300317	178.3	19.6	-88.9	9.7
2025-01-24 09:20:48.469165	178.3	19.5	-89.2	9.1
2025-01-24 09:20:49.632253	178.4	19.3	-89.2	9.0
2025-01-24 09:20:50.796065	178.5	19.2	-89.3	10.8
2025-01-24 09:20:51.956179	178.6	19.0	-90.2	6.1
2025-01-24 09:20:53.118420	178.7	18.9	-90.0	8.5
2025-01-24 09:20:54.290803	178.8	18.8	-89.8	6.8
2025-01-24 09:20:55.450865	178.9	18.6	-90.1	6.4
2025-01-24 09:20:56.615346	179.0	18.5	-90.2	6.3
2025-01-24 09:20:57.780546	179.0	18.4	-90.3	4.9
2025-01-24 09:20:58.942818	179.1	18.2	-90.4	5.0
2025-01-24 09:21:00.106729	179.2	18.1	-90.4	4.2
2025-01-24 09:21:01.259526	179.3	18.0	-90.3	4.1
2025-01-24 09:21:02.427854	179.4	17.8	-90.5	5.4
2025-01-24 09:21:03.587946	179.5	17.7	-90.7	6.4
2025-01-24 09:21:04.752860	179.5	17.6	-90.7	7.1
2025-01-24 09:21:05.916398	179.6	17.4	-90.8	5.1
2025-01-24 09:21:07.074514	179.7	17.3	-90.0	5.3
2025-01-24 09:21:08.236115	179.8	17.2	-90.0	2.9
2025-01-24 09:21:09.399684	179.9	17.0	-89.8	5.2
2025-01-24 09:21:10.564600	179.9	16.9	-90.5	4.2
2025-01-24 09:21:11.709694	180.0	16.8	-90.4	5.8
2025-01-24 09:21:12.872665	180.1	16.7	-90.1	3.1
2025-01-24 09:21:14.035936	180.2	16.5	-90.1	3.4
2025-01-24 09:21:15.204776	180.2	16.4	-89.7	6.5
2025-01-24 09:21:16.363766	180.3	16.3	-90.1	5.6
2025-01-24 09:21:17.530389	180.4	16.2	-90.6	4.3
2025-01-24 09:21:18.695548	180.5	16.0	-90.2	6.0
2025-01-24 09:21:19.849825	180.5	15.9	-89.9	5.3
2025-01-24 09:21:21.014527	180.6	15.8	-89.9	8.1
2025-01-24 09:21:22.173038	180.7	15.7	-90.4	6.4
2025-01-24 09:21:23.339130	180.8	15.5	-90.2	4.9
2025-01-24 09:21:24.500879	180.8	15.4	-90.5	6.6
2025-01-24 09:21:25.665904	180.9	15.3	-90.2	6.7
2025-01-24 09:21:26.832742	181.0	15.2	-90.5	7.3
2025-01-24 09:21:27.994479	181.0	15.1	-90.9	9.4
2025-01-24 09:21:29.159379	181.1	14.9	-90.6	6.6
2025-01-24 09:21:30.322590	181.2	14.8	-90.3	6.1
2025-01-24 09:21:31.482228	181.2	14.7	-90.7	7.9
2025-01-24 09:21:32.644687	181.3	14.6	-90.6	3.9
2025-01-24 09:21:33.804357	181.4	14.5	-90.1	5.3
#Closed at: 2025-01-24 09:12:34.380702