passes_logs/2025/01/24/LEX_Murmansk/LEX_Murmansk__20250124_105322_NOAA_18_rec.log

#Pass ID: 20250124_105322_NOAA 18
#Satellite: NOAA 18
#Configuration: NOAA 18
#Start time: 2025-01-24 10:53:17.599788

#LorettStation: 1.0.0 05.05.2024
#Station: LEX_Murmansk
#Location: 33.156738 lon 68.926811 lat
#TLE: 1 28654U 05018A   25023.16165176  .00000420  00000+0  24625-3 0  9991
#TLE: 2 28654  98.8554 104.1346 0014722 156.5601 203.6245 14.13494494 14331

#Time	Az	El	Level	SNR
2025-01-24 10:53:29.908314	23.4	16.3	-89.8	4.1
2025-01-24 10:53:31.074930	23.3	16.4	-89.8	3.3
2025-01-24 10:53:32.229668	23.3	16.5	-89.9	3.7
2025-01-24 10:53:33.391072	23.2	16.7	-89.5	4.6
2025-01-24 10:53:34.554041	23.2	16.8	-89.8	4.4
2025-01-24 10:53:35.718427	23.1	16.9	-89.8	4.0
2025-01-24 10:53:36.881929	23.0	17.1	-89.6	5.2
2025-01-24 10:53:38.045190	23.0	17.2	-89.9	5.4
2025-01-24 10:53:39.210896	22.9	17.3	-89.5	5.3
2025-01-24 10:53:40.369440	22.9	17.4	-90.1	5.3
2025-01-24 10:53:41.531696	22.8	17.6	-90.0	6.7
2025-01-24 10:53:42.702950	22.7	17.7	-90.1	7.9
2025-01-24 10:53:43.877978	22.7	17.8	-89.9	5.3
2025-01-24 10:53:45.044322	22.6	18.0	-89.8	7.1
2025-01-24 10:53:46.203204	22.5	18.1	-89.7	8.9
2025-01-24 10:53:47.365816	22.5	18.2	-90.4	6.9
2025-01-24 10:53:48.535293	22.4	18.4	-90.4	4.6
2025-01-24 10:53:49.702142	22.3	18.5	-90.3	8.3
2025-01-24 10:53:50.866688	22.3	18.7	-90.0	6.4
2025-01-24 10:53:52.030667	22.2	18.8	-90.0	6.2
2025-01-24 10:53:53.193074	22.1	18.9	-89.7	6.4
2025-01-24 10:53:54.366056	22.1	19.1	-90.0	8.0
2025-01-24 10:53:55.532210	22.0	19.2	-90.2	10.8
2025-01-24 10:53:56.695755	21.9	19.4	-90.4	8.8
2025-01-24 10:53:57.859790	21.9	19.5	-90.3	7.2
2025-01-24 10:53:59.020767	21.8	19.6	-90.2	8.1
2025-01-24 10:54:00.181119	21.7	19.8	-89.8	7.1
2025-01-24 10:54:01.345515	21.6	19.9	-88.2	8.2
2025-01-24 10:54:02.506056	21.6	20.1	-88.2	6.4
2025-01-24 10:54:03.667193	21.5	20.2	-88.3	5.4
2025-01-24 10:54:04.825527	21.4	20.4	-88.9	6.9
2025-01-24 10:54:05.995099	21.3	20.5	-89.1	5.5
2025-01-24 10:54:07.157057	21.3	20.7	-88.7	7.3
2025-01-24 10:54:08.316885	21.2	20.8	-88.8	10.1
2025-01-24 10:54:09.475915	21.1	21.0	-89.1	7.0
2025-01-24 10:54:10.646877	21.0	21.1	-88.9	8.6
2025-01-24 10:54:11.790740	20.9	21.2	-89.7	9.9
2025-01-24 10:54:12.948878	20.9	21.4	-90.1	5.8
2025-01-24 10:54:14.113307	20.8	21.6	-90.0	9.7
2025-01-24 10:54:15.296448	20.7	21.7	-89.6	10.6
2025-01-24 10:54:16.463566	20.6	21.9	-90.0	7.8
2025-01-24 10:54:17.626059	20.5	22.0	-90.1	12.4
2025-01-24 10:54:18.790049	20.4	22.2	-90.2	8.9
2025-01-24 10:54:19.945227	20.4	22.3	-90.3	8.9
2025-01-24 10:54:21.117732	20.3	22.5	-89.6	7.7
2025-01-24 10:54:22.281180	20.2	22.6	-89.5	9.1
2025-01-24 10:54:23.443341	20.1	22.8	-90.0	5.9
2025-01-24 10:54:24.604341	20.0	23.0	-90.0	5.5
2025-01-24 10:54:25.784264	19.9	23.1	-90.3	7.4
2025-01-24 10:54:26.950810	19.8	23.3	-89.9	10.6
2025-01-24 10:54:28.118795	19.7	23.5	-89.8	12.3
2025-01-24 10:54:29.277168	19.6	23.6	-89.8	10.3
2025-01-24 10:54:30.436862	19.5	23.8	-90.1	8.1
2025-01-24 10:54:31.596679	19.4	24.0	-89.7	10.0
2025-01-24 10:54:32.758786	19.3	24.1	-89.9	11.7
2025-01-24 10:54:33.920298	19.2	24.3	-89.9	11.1
2025-01-24 10:54:35.088830	19.1	24.5	-88.3	7.9
2025-01-24 10:54:36.250407	19.0	24.6	-89.7	11.6
2025-01-24 10:54:37.418945	18.9	24.8	-90.0	6.3
2025-01-24 10:54:38.578283	18.8	25.0	-90.1	4.3
2025-01-24 10:54:39.747088	18.7	25.1	-89.2	8.7
2025-01-24 10:54:40.908639	18.6	25.3	-89.5	5.2
2025-01-24 10:54:42.065524	18.5	25.5	-89.8	7.0
2025-01-24 10:54:43.220963	18.4	25.7	-89.8	10.1
2025-01-24 10:54:44.381551	18.3	25.8	-89.8	12.1
2025-01-24 10:54:45.534606	18.2	26.0	-90.1	7.9
2025-01-24 10:54:46.693016	18.1	26.2	-90.1	8.6
2025-01-24 10:54:47.856904	18.0	26.4	-89.9	8.8
2025-01-24 10:54:49.019466	17.8	26.6	-90.0	7.4
2025-01-24 10:54:50.183432	17.7	26.7	-89.7	10.0
2025-01-24 10:54:51.347642	17.6	26.9	-89.5	10.2
2025-01-24 10:54:52.499183	17.5	27.1	-90.0	9.7
2025-01-24 10:54:53.650368	17.4	27.3	-90.0	10.2
2025-01-24 10:54:54.809274	17.3	27.5	-90.2	8.4
2025-01-24 10:54:55.972246	17.1	27.7	-89.8	6.0
2025-01-24 10:54:57.127696	17.0	27.9	-89.8	5.7
2025-01-24 10:54:58.289823	16.9	28.0	-89.6	6.6
2025-01-24 10:54:59.456186	16.8	28.2	-89.9	6.4
2025-01-24 10:55:00.612613	16.6	28.4	-89.8	5.7
2025-01-24 10:55:01.776093	16.5	28.6	-89.8	8.1
2025-01-24 10:55:02.932678	16.4	28.8	-89.6	8.1
2025-01-24 10:55:04.093144	16.2	29.0	-89.7	5.9
2025-01-24 10:55:05.259141	16.1	29.2	-89.4	7.7
2025-01-24 10:55:06.423822	16.0	29.4	-89.8	9.1
2025-01-24 10:55:07.585944	15.8	29.6	-90.5	8.9
2025-01-24 10:55:08.748499	15.7	29.8	-90.7	8.2
2025-01-24 10:55:09.913436	15.5	30.0	-90.4	8.7
2025-01-24 10:55:11.078288	15.4	30.2	-90.4	10.9
2025-01-24 10:55:12.230664	15.2	30.4	-90.2	8.6
2025-01-24 10:55:13.393180	15.1	30.6	-90.5	6.6
2025-01-24 10:55:14.561233	14.9	30.8	-90.6	6.5
2025-01-24 10:55:15.723120	14.8	31.0	-90.5	8.6
2025-01-24 10:55:16.889441	14.6	31.2	-90.1	6.6
2025-01-24 10:55:18.053040	14.5	31.5	-90.5	7.6
2025-01-24 10:55:19.207190	14.3	31.7	-90.0	12.6
2025-01-24 10:55:20.375316	14.2	31.9	-89.9	10.5
2025-01-24 10:55:21.539526	14.0	32.1	-90.0	8.3
2025-01-24 10:55:22.701601	13.8	32.3	-90.6	11.8
2025-01-24 10:55:23.864959	13.7	32.5	-90.6	7.6
2025-01-24 10:55:25.029500	13.5	32.7	-90.3	11.5
2025-01-24 10:55:26.192361	13.3	33.0	-90.1	13.5
2025-01-24 10:55:27.355759	13.1	33.2	-90.2	12.0
2025-01-24 10:55:28.519306	13.0	33.4	-90.0	12.9
2025-01-24 10:55:29.678997	12.8	33.6	-90.2	13.0
2025-01-24 10:55:30.844463	12.6	33.9	-90.0	10.2
2025-01-24 10:55:32.008783	12.4	34.1	-89.0	7.5
2025-01-24 10:55:33.166820	12.2	34.3	-89.1	9.4
2025-01-24 10:55:34.326885	12.0	34.5	-90.0	13.5
2025-01-24 10:55:35.493010	11.8	34.8	-90.5	8.6
2025-01-24 10:55:36.644725	11.6	35.0	-89.8	10.8
2025-01-24 10:55:37.812512	11.4	35.2	-90.3	12.7
2025-01-24 10:55:38.975640	11.2	35.5	-89.7	13.3
2025-01-24 10:55:40.150586	11.0	35.7	-90.1	14.8
2025-01-24 10:55:41.313480	10.8	35.9	-89.3	14.1
2025-01-24 10:55:42.473810	10.6	36.2	-89.6	12.4
2025-01-24 10:55:43.639561	10.4	36.4	-90.3	15.2
2025-01-24 10:55:44.810201	10.2	36.7	-90.6	13.0
2025-01-24 10:55:45.975615	10.0	36.9	-90.2	14.2
2025-01-24 10:55:47.137309	9.7	37.1	-89.7	12.4
2025-01-24 10:55:48.311061	9.5	37.4	-89.8	11.3
2025-01-24 10:55:49.473758	9.3	37.6	-90.0	11.0
2025-01-24 10:55:50.638181	9.0	37.9	-90.2	11.5
2025-01-24 10:55:51.802608	8.8	38.1	-90.2	11.7
2025-01-24 10:55:52.969686	8.6	38.4	-89.9	6.5
2025-01-24 10:55:54.130864	8.3	38.6	-90.2	14.8
2025-01-24 10:55:55.300682	8.1	38.9	-89.5	18.2
2025-01-24 10:55:56.461793	7.8	39.1	-89.7	10.6
2025-01-24 10:55:57.625824	7.6	39.4	-90.4	16.7
2025-01-24 10:55:58.783691	7.3	39.6	-90.1	16.4
2025-01-24 10:55:59.944121	7.0	39.9	-90.3	15.6
2025-01-24 10:56:01.100407	6.8	40.2	-89.8	13.9
2025-01-24 10:56:02.258774	6.5	40.4	-89.8	16.9
2025-01-24 10:56:03.428188	6.2	40.7	-90.2	13.7
2025-01-24 10:56:04.587564	5.9	40.9	-90.3	14.7
2025-01-24 10:56:05.750583	5.6	41.2	-90.5	18.3
2025-01-24 10:56:06.917421	5.3	41.5	-90.4	18.8
2025-01-24 10:56:08.078477	5.0	41.7	-90.3	15.7
2025-01-24 10:56:09.245331	4.7	42.0	-90.1	16.7
2025-01-24 10:56:10.409263	4.4	42.3	-90.0	12.1
2025-01-24 10:56:11.570790	4.1	42.5	-90.0	8.6
2025-01-24 10:56:12.731445	3.8	42.8	-90.3	16.0
2025-01-24 10:56:13.899274	3.5	43.1	-90.3	6.9
2025-01-24 10:56:15.069016	3.1	43.3	-90.1	10.2
2025-01-24 10:56:16.227766	2.8	43.6	-90.1	16.2
2025-01-24 10:56:17.393368	2.5	43.9	-90.3	13.3
2025-01-24 10:56:18.565140	2.1	44.1	-90.0	15.4
2025-01-24 10:56:19.729938	1.8	44.4	-90.1	18.7
2025-01-24 10:56:20.895901	1.4	44.7	-90.5	15.5
2025-01-24 10:56:22.060410	1.0	45.0	-89.8	13.1
2025-01-24 10:56:23.220306	0.7	45.2	-89.8	17.2
2025-01-24 10:56:24.389743	0.3	45.5	-90.2	12.2
2025-01-24 10:56:25.555788	359.9	45.8	-89.8	11.9
2025-01-24 10:56:26.715408	359.5	46.1	-90.2	17.7
2025-01-24 10:56:27.886861	359.1	46.4	-90.2	13.8
2025-01-24 10:56:29.041910	358.7	46.6	-89.9	15.6
2025-01-24 10:56:30.204052	358.3	46.9	-90.0	11.7
2025-01-24 10:56:31.366994	357.9	47.2	-90.1	11.9
2025-01-24 10:56:32.525273	357.4	47.5	-90.5	13.3
2025-01-24 10:56:33.688003	357.0	47.7	-90.4	11.8
2025-01-24 10:56:34.851949	356.6	48.0	-90.2	9.8
2025-01-24 10:56:36.018806	356.1	48.3	-90.7	7.8
2025-01-24 10:56:37.183305	355.6	48.6	-90.4	9.5
2025-01-24 10:56:38.351419	355.2	48.8	-90.4	8.6
2025-01-24 10:56:39.513244	354.7	49.1	-90.5	8.8
2025-01-24 10:56:40.669182	354.2	49.4	-90.4	13.9
2025-01-24 10:56:41.830363	353.7	49.7	-90.1	14.6
2025-01-24 10:56:42.991379	353.2	49.9	-90.5	9.0
2025-01-24 10:56:44.152639	352.7	50.2	-90.1	11.2
2025-01-24 10:56:45.317015	352.2	50.5	-90.1	13.3
2025-01-24 10:56:46.485810	351.6	50.8	-90.2	11.2
2025-01-24 10:56:47.639577	351.1	51.0	-90.1	12.6
2025-01-24 10:56:48.809035	350.5	51.3	-90.1	14.5
2025-01-24 10:56:49.965014	350.0	51.6	-90.2	13.9
2025-01-24 10:56:51.132662	349.4	51.8	-89.6	17.9
2025-01-24 10:56:52.292670	348.8	52.1	-89.5	18.6
2025-01-24 10:56:53.455736	348.2	52.4	-89.3	11.4
2025-01-24 10:56:54.615319	347.6	52.6	-90.1	14.5
2025-01-24 10:56:55.781665	347.0	52.9	-90.8	14.1
2025-01-24 10:56:56.943717	346.4	53.1	-89.7	9.1
2025-01-24 10:56:58.080181	345.8	53.4	-89.4	8.0
2025-01-24 10:56:59.224754	345.1	53.6	-89.8	8.6
2025-01-24 10:57:00.365577	344.5	53.9	-90.0	8.4
2025-01-24 10:57:01.528916	343.8	54.1	-88.3	6.8
2025-01-24 10:57:02.693690	343.1	54.4	-88.1	12.8
2025-01-24 10:57:03.858056	342.4	54.6	-88.8	10.5
2025-01-24 10:57:05.024303	341.7	54.9	-88.9	7.9
2025-01-24 10:57:06.185543	341.0	55.1	-88.7	13.4
2025-01-24 10:57:07.354208	340.3	55.3	-88.7	9.4
2025-01-24 10:57:08.509102	339.5	55.5	-89.9	7.5
2025-01-24 10:57:09.671394	338.8	55.8	-90.0	10.0
2025-01-24 10:57:10.834045	338.0	56.0	-90.2	14.0
2025-01-24 10:57:11.994335	337.2	56.2	-90.2	16.3
2025-01-24 10:57:13.157500	336.4	56.4	-89.5	18.1
2025-01-24 10:57:14.320135	335.6	56.6	-89.4	19.8
2025-01-24 10:57:15.487811	334.8	56.8	-89.9	18.8
2025-01-24 10:57:16.650582	334.0	57.0	-89.7	18.1
2025-01-24 10:57:17.820501	333.2	57.2	-89.8	15.0
2025-01-24 10:57:18.975342	332.3	57.4	-89.9	13.6
2025-01-24 10:57:20.142436	331.4	57.6	-90.0	9.8
2025-01-24 10:57:21.308737	330.6	57.8	-90.0	11.4
2025-01-24 10:57:22.474224	329.7	57.9	-90.1	12.0
2025-01-24 10:57:23.637922	328.8	58.1	-90.6	16.0
2025-01-24 10:57:24.794739	327.9	58.2	-90.0	19.5
2025-01-24 10:57:25.960193	327.0	58.4	-90.3	15.2
2025-01-24 10:57:27.127193	326.0	58.5	-89.9	17.3
2025-01-24 10:57:28.283788	325.1	58.7	-89.6	19.2
2025-01-24 10:57:29.447920	324.1	58.8	-90.0	15.6
2025-01-24 10:57:30.610826	323.2	58.9	-90.5	13.9
2025-01-24 10:57:31.774524	322.2	59.0	-90.2	16.2
2025-01-24 10:57:32.935077	321.3	59.2	-90.3	18.1
2025-01-24 10:57:34.097607	320.3	59.3	-89.3	17.1
2025-01-24 10:57:35.261170	319.3	59.3	-89.7	18.6
2025-01-24 10:57:36.428497	318.3	59.4	-89.8	18.9
2025-01-24 10:57:37.589015	317.3	59.5	-90.0	17.3
2025-01-24 10:57:38.751218	316.3	59.6	-90.2	19.3
2025-01-24 10:57:39.902409	315.3	59.6	-89.4	16.6
2025-01-24 10:57:41.068060	314.3	59.7	-89.9	13.9
2025-01-24 10:57:42.222213	313.2	59.7	-89.3	15.9
2025-01-24 10:57:43.386397	312.2	59.8	-89.7	11.4
2025-01-24 10:57:44.550949	311.2	59.8	-90.1	12.4
2025-01-24 10:57:45.721010	310.1	59.8	-90.2	16.1
2025-01-24 10:57:46.884586	309.1	59.8	-89.8	14.5
2025-01-24 10:57:48.052355	308.1	59.8	-90.0	11.0
2025-01-24 10:57:49.216093	307.0	59.8	-89.8	13.4
2025-01-24 10:57:50.374908	306.0	59.8	-90.2	11.4
2025-01-24 10:57:51.540439	305.0	59.8	-90.3	9.5
2025-01-24 10:57:52.700346	304.0	59.8	-90.1	15.3
2025-01-24 10:57:53.862884	302.9	59.7	-90.1	11.1
2025-01-24 10:57:55.021725	301.9	59.7	-90.4	9.8
2025-01-24 10:57:56.188437	300.9	59.6	-90.1	15.7
2025-01-24 10:57:57.347671	299.9	59.6	-89.9	11.4
2025-01-24 10:57:58.516769	298.9	59.5	-90.3	8.1
2025-01-24 10:57:59.680042	297.9	59.4	-90.2	13.7
2025-01-24 10:58:00.850571	296.9	59.3	-89.9	8.6
2025-01-24 10:58:02.007061	295.9	59.2	-90.1	9.4
2025-01-24 10:58:03.171757	294.9	59.1	-90.2	12.2
2025-01-24 10:58:04.332420	293.9	59.0	-89.8	12.5
2025-01-24 10:58:05.496939	293.0	58.9	-90.0	8.3
2025-01-24 10:58:06.660302	292.0	58.8	-90.6	10.6
2025-01-24 10:58:07.824125	291.1	58.6	-90.6	13.2
2025-01-24 10:58:08.992143	290.1	58.5	-90.5	12.7
2025-01-24 10:58:10.160573	289.2	58.4	-89.7	18.4
2025-01-24 10:58:11.325908	288.3	58.2	-90.0	13.7
2025-01-24 10:58:12.486016	287.4	58.1	-89.9	12.4
2025-01-24 10:58:13.647284	286.5	57.9	-90.3	16.2
2025-01-24 10:58:14.808267	285.6	57.7	-90.4	13.6
2025-01-24 10:58:15.973673	284.7	57.5	-90.2	11.6
2025-01-24 10:58:17.141077	283.9	57.4	-90.0	9.9
2025-01-24 10:58:18.304167	283.0	57.2	-89.9	12.4
2025-01-24 10:58:19.464424	282.2	57.0	-90.3	12.9
2025-01-24 10:58:20.632704	281.3	56.8	-90.2	14.7
2025-01-24 10:58:21.796715	280.5	56.6	-90.0	16.7
2025-01-24 10:58:22.959529	279.7	56.4	-90.0	12.2
2025-01-24 10:58:24.123350	278.9	56.2	-90.0	15.1
2025-01-24 10:58:25.288168	278.2	55.9	-90.3	16.4
2025-01-24 10:58:26.452815	277.4	55.7	-90.3	16.3
2025-01-24 10:58:27.612844	276.6	55.5	-90.7	14.0
2025-01-24 10:58:28.763652	275.9	55.3	-90.4	15.0
2025-01-24 10:58:29.936711	275.2	55.0	-90.2	12.1
2025-01-24 10:58:31.097794	274.4	54.8	-90.2	14.8
2025-01-24 10:58:32.272998	273.7	54.6	-90.3	15.5
2025-01-24 10:58:33.428760	273.0	54.3	-90.4	13.9
2025-01-24 10:58:34.600833	272.4	54.1	-90.4	17.9
2025-01-24 10:58:35.761548	271.7	53.8	-90.4	18.8
2025-01-24 10:58:36.918096	271.0	53.6	-90.7	15.2
2025-01-24 10:58:38.085621	270.4	53.3	-90.1	15.6
2025-01-24 10:58:39.241236	269.7	53.1	-90.1	20.6
2025-01-24 10:58:40.406045	269.1	52.8	-90.4	15.8
2025-01-24 10:58:41.573855	268.5	52.5	-90.2	12.3
2025-01-24 10:58:42.733574	267.9	52.3	-90.1	24.2
2025-01-24 10:58:43.898336	267.3	52.0	-90.3	15.8
2025-01-24 10:58:45.057175	266.7	51.7	-89.9	12.4
2025-01-24 10:58:46.215149	266.2	51.5	-89.8	21.0
2025-01-24 10:58:47.377745	265.6	51.2	-90.1	14.8
2025-01-24 10:58:48.536393	265.0	50.9	-89.9	13.7
2025-01-24 10:58:49.698277	264.5	50.7	-89.7	17.5
2025-01-24 10:58:50.858042	264.0	50.4	-89.8	14.2
2025-01-24 10:58:52.022826	263.5	50.1	-90.0	12.3
2025-01-24 10:58:53.186100	262.9	49.8	-90.0	20.7
2025-01-24 10:58:54.352959	262.4	49.6	-90.0	16.6
2025-01-24 10:58:55.522359	261.9	49.3	-89.9	15.3
2025-01-24 10:58:56.680559	261.5	49.0	-90.3	22.2
2025-01-24 10:58:57.840555	261.0	48.7	-90.2	20.4
2025-01-24 10:58:59.009947	260.5	48.5	-90.1	18.2
2025-01-24 10:59:00.169652	260.1	48.2	-89.9	19.9
2025-01-24 10:59:01.325815	259.6	47.9	-90.0	19.9
2025-01-24 10:59:02.484876	259.2	47.6	-90.1	19.7
2025-01-24 10:59:03.645851	258.7	47.3	-90.3	19.9
2025-01-24 10:59:04.803184	258.3	47.1	-89.9	21.9
2025-01-24 10:59:05.963082	257.9	46.8	-89.7	22.3
2025-01-24 10:59:07.126558	257.5	46.5	-90.1	23.5
2025-01-24 10:59:08.286556	257.1	46.2	-90.2	23.5
2025-01-24 10:59:09.454638	256.7	46.0	-90.3	23.5
2025-01-24 10:59:10.622387	256.3	45.7	-90.3	24.7
2025-01-24 10:59:11.786987	255.9	45.4	-90.1	22.3
2025-01-24 10:59:12.950332	255.5	45.1	-90.1	21.3
2025-01-24 10:59:14.112439	255.1	44.8	-89.9	20.6
2025-01-24 10:59:15.272246	254.8	44.6	-89.7	23.8
2025-01-24 10:59:16.430254	254.4	44.3	-89.9	15.9
2025-01-24 10:59:17.592013	254.1	44.0	-90.0	16.9
2025-01-24 10:59:18.759654	253.7	43.7	-90.3	19.4
2025-01-24 10:59:19.921461	253.4	43.5	-89.9	13.1
2025-01-24 10:59:21.085780	253.0	43.2	-90.0	14.0
2025-01-24 10:59:22.254821	252.7	42.9	-90.0	21.8
2025-01-24 10:59:23.410196	252.4	42.7	-89.9	11.8
2025-01-24 10:59:24.575535	252.1	42.4	-90.0	12.7
2025-01-24 10:59:25.733719	251.8	42.1	-90.0	20.5
2025-01-24 10:59:26.907617	251.4	41.9	-90.0	14.5
2025-01-24 10:59:28.065499	251.1	41.6	-90.0	14.2
2025-01-24 10:59:29.239993	250.8	41.3	-90.0	20.9
2025-01-24 10:59:30.406130	250.5	41.1	-90.2	16.6
2025-01-24 10:59:31.562379	250.3	40.8	-90.4	16.8
2025-01-24 10:59:32.723874	250.0	40.5	-90.0	18.2
2025-01-24 10:59:33.875441	249.7	40.3	-90.4	18.0
2025-01-24 10:59:35.037609	249.4	40.0	-90.1	17.1
2025-01-24 10:59:36.202755	249.2	39.8	-90.1	16.0
2025-01-24 10:59:37.370453	248.9	39.5	-90.1	16.5
2025-01-24 10:59:38.532857	248.6	39.2	-90.3	12.8
2025-01-24 10:59:39.693418	248.4	39.0	-90.2	15.7
2025-01-24 10:59:40.840277	248.1	38.7	-90.2	14.0
2025-01-24 10:59:41.995263	247.9	38.5	-90.3	8.6
2025-01-24 10:59:43.160598	247.6	38.2	-90.1	14.6
2025-01-24 10:59:44.320392	247.4	38.0	-90.2	11.8
2025-01-24 10:59:45.484898	247.1	37.7	-90.4	7.2
2025-01-24 10:59:46.650780	246.9	37.5	-90.6	13.1
2025-01-24 10:59:47.809598	246.7	37.2	-90.4	13.5
2025-01-24 10:59:48.974221	246.5	37.0	-90.2	9.1
2025-01-24 10:59:50.133855	246.2	36.7	-89.9	11.9
2025-01-24 10:59:51.295927	246.0	36.5	-90.0	13.0
2025-01-24 10:59:52.463661	245.8	36.3	-90.3	9.6
2025-01-24 10:59:53.622495	245.6	36.0	-89.9	7.4
2025-01-24 10:59:54.780230	245.4	35.8	-90.4	7.6
2025-01-24 10:59:55.945137	245.2	35.5	-90.4	5.6
2025-01-24 10:59:57.098961	245.0	35.3	-90.5	7.5
2025-01-24 10:59:58.263500	244.8	35.1	-90.1	6.7
2025-01-24 10:59:59.419208	244.6	34.8	-90.3	6.3
2025-01-24 11:00:00.567486	244.4	34.6	-90.5	5.7
2025-01-24 11:00:01.728215	244.2	34.4	-89.7	9.5
2025-01-24 11:00:02.891690	244.0	34.2	-89.8	6.5
2025-01-24 11:00:04.051751	243.8	33.9	-89.2	5.8
2025-01-24 11:00:05.206837	243.6	33.7	-88.9	6.6
2025-01-24 11:00:06.367527	243.4	33.5	-89.1	6.1
2025-01-24 11:00:07.528095	243.2	33.3	-89.7	7.5
2025-01-24 11:00:08.691792	243.1	33.0	-90.4	13.3
2025-01-24 11:00:09.850092	242.9	32.8	-90.3	9.7
2025-01-24 11:00:11.014012	242.7	32.6	-90.5	10.1
2025-01-24 11:00:12.176525	242.6	32.4	-90.3	9.4
2025-01-24 11:00:13.337116	242.4	32.2	-90.3	12.5
2025-01-24 11:00:14.497434	242.2	31.9	-90.7	14.2
2025-01-24 11:00:15.661175	242.1	31.7	-90.7	16.2
2025-01-24 11:00:16.822687	241.9	31.5	-90.1	14.1
2025-01-24 11:00:17.981990	241.7	31.3	-90.4	12.1
2025-01-24 11:00:19.144688	241.6	31.1	-90.1	11.0
2025-01-24 11:00:20.309381	241.4	30.9	-90.1	10.9
2025-01-24 11:00:21.480732	241.3	30.7	-90.9	7.9
2025-01-24 11:00:22.643882	241.1	30.5	-91.1	10.2
2025-01-24 11:00:23.809027	241.0	30.2	-90.6	10.0
2025-01-24 11:00:24.980033	240.8	30.0	-90.7	7.3
2025-01-24 11:00:26.131079	240.7	29.8	-90.4	9.1
2025-01-24 11:00:27.288819	240.5	29.6	-90.3	8.1
2025-01-24 11:00:28.448441	240.4	29.4	-90.9	9.7
2025-01-24 11:00:29.612624	240.3	29.2	-90.6	10.2
2025-01-24 11:00:30.772060	240.1	29.0	-90.5	10.4
2025-01-24 11:00:31.938952	240.0	28.8	-90.6	11.7
2025-01-24 11:00:33.102829	239.8	28.6	-90.4	12.1
2025-01-24 11:00:34.265086	239.7	28.4	-90.6	15.2
2025-01-24 11:00:35.428790	239.6	28.3	-90.6	11.5
2025-01-24 11:00:36.593604	239.4	28.1	-90.5	10.4
2025-01-24 11:00:37.762308	239.3	27.9	-90.4	13.4
2025-01-24 11:00:38.926771	239.2	27.7	-90.4	10.0
2025-01-24 11:00:40.092505	239.1	27.5	-90.3	8.4
2025-01-24 11:00:41.259555	238.9	27.3	-89.9	12.2
2025-01-24 11:00:42.419759	238.8	27.1	-90.2	9.9
2025-01-24 11:00:43.582960	238.7	26.9	-90.2	10.9
2025-01-24 11:00:44.745082	238.6	26.7	-90.5	11.6
2025-01-24 11:00:45.904460	238.5	26.6	-90.7	12.7
2025-01-24 11:00:47.067574	238.3	26.4	-90.1	11.9
2025-01-24 11:00:48.232980	238.2	26.2	-90.0	7.9
2025-01-24 11:00:49.411838	238.1	26.0	-90.1	8.6
2025-01-24 11:00:50.576808	238.0	25.8	-90.5	6.7
2025-01-24 11:00:51.737082	237.9	25.6	-90.4	7.7
2025-01-24 11:00:52.903480	237.8	25.5	-90.3	5.1
2025-01-24 11:00:54.071776	237.7	25.3	-89.7	7.2
2025-01-24 11:00:55.231584	237.6	25.1	-90.0	7.7
2025-01-24 11:00:56.386887	237.5	24.9	-90.4	6.5
2025-01-24 11:00:57.550664	237.4	24.8	-90.5	5.9
2025-01-24 11:00:58.716638	237.3	24.6	-90.1	4.8
2025-01-24 11:00:59.881044	237.2	24.4	-90.4	5.4
2025-01-24 11:01:01.040639	237.1	24.3	-90.4	5.7
2025-01-24 11:01:02.196363	237.0	24.1	-90.4	6.3
2025-01-24 11:01:03.362225	236.9	23.9	-90.2	6.1
2025-01-24 11:01:04.519275	236.8	23.7	-90.2	5.1
2025-01-24 11:01:05.683656	236.7	23.6	-90.4	8.8
2025-01-24 11:01:06.845413	236.6	23.4	-90.5	5.3
2025-01-24 11:01:08.009621	236.5	23.3	-90.6	5.0
2025-01-24 11:01:09.175037	236.4	23.1	-90.4	7.5
2025-01-24 11:01:10.340926	236.3	22.9	-90.0	6.2
2025-01-24 11:01:11.503262	236.2	22.8	-90.4	6.3
2025-01-24 11:01:12.657292	236.1	22.6	-90.2	6.0
2025-01-24 11:01:13.821468	236.0	22.4	-90.3	10.9
2025-01-24 11:01:14.965765	235.9	22.3	-90.7	11.3
2025-01-24 11:01:16.131464	235.8	22.1	-90.5	12.2
2025-01-24 11:01:17.295178	235.7	22.0	-90.3	14.1
2025-01-24 11:01:18.464299	235.7	21.8	-90.2	14.5
2025-01-24 11:01:19.621901	235.6	21.7	-90.2	13.0
2025-01-24 11:01:20.777272	235.5	21.5	-90.4	12.0
2025-01-24 11:01:21.933998	235.4	21.4	-90.4	8.5
2025-01-24 11:01:23.098213	235.3	21.2	-89.8	8.8
2025-01-24 11:01:24.261417	235.2	21.0	-89.8	9.7
2025-01-24 11:01:25.422596	235.2	20.9	-90.4	8.2
2025-01-24 11:01:26.586784	235.1	20.7	-90.5	7.1
2025-01-24 11:01:27.751883	235.0	20.6	-90.9	9.9
2025-01-24 11:01:28.920979	234.9	20.4	-90.9	9.7
2025-01-24 11:01:30.085454	234.8	20.3	-90.4	8.4
2025-01-24 11:01:31.252042	234.8	20.1	-90.0	8.6
2025-01-24 11:01:32.417119	234.7	20.0	-90.8	8.4
2025-01-24 11:01:33.584822	234.6	19.9	-90.8	8.1
2025-01-24 11:01:34.751109	234.5	19.7	-90.7	6.7
2025-01-24 11:01:35.910850	234.5	19.6	-91.0	5.9
2025-01-24 11:01:37.078765	234.4	19.4	-90.6	5.4
2025-01-24 11:01:38.240359	234.3	19.3	-89.9	4.5
2025-01-24 11:01:39.405963	234.2	19.1	-90.0	4.3
2025-01-24 11:01:40.567937	234.2	19.0	-89.7	3.2
2025-01-24 11:01:41.734613	234.1	18.9	-90.2	7.1
2025-01-24 11:01:42.895357	234.0	18.7	-89.7	5.5
2025-01-24 11:01:44.059495	234.0	18.6	-89.6	7.1
2025-01-24 11:01:45.227133	233.9	18.4	-89.6	6.9
2025-01-24 11:01:46.386822	233.8	18.3	-89.5	8.7
2025-01-24 11:01:47.552651	233.8	18.2	-89.0	6.3
2025-01-24 11:01:48.713525	233.7	18.0	-89.6	6.2
2025-01-24 11:01:49.876369	233.6	17.9	-89.2	7.3
2025-01-24 11:01:51.042251	233.6	17.8	-89.2	6.9
2025-01-24 11:01:52.206003	233.5	17.6	-89.4	7.3
2025-01-24 11:01:53.364989	233.4	17.5	-89.0	5.2
2025-01-24 11:01:54.526148	233.4	17.4	-89.5	7.0
2025-01-24 11:01:55.688290	233.3	17.2	-89.7	7.3
2025-01-24 11:01:56.854100	233.2	17.1	-90.0	7.9
2025-01-24 11:01:58.014886	233.2	17.0	-90.1	7.0
2025-01-24 11:01:59.175354	233.1	16.8	-89.7	6.5
2025-01-24 11:02:00.333587	233.1	16.7	-89.5	6.1
2025-01-24 11:02:01.496540	233.0	16.6	-89.7	4.7
2025-01-24 11:02:02.662727	232.9	16.5	-88.7	7.2
2025-01-24 11:02:03.822189	232.9	16.3	-89.4	6.6
2025-01-24 11:02:04.980054	232.8	16.2	-89.8	4.0
2025-01-24 11:02:06.145346	232.8	16.1	-89.8	3.9
2025-01-24 11:02:07.308547	232.7	15.9	-90.3	7.1
2025-01-24 11:02:08.463470	232.7	15.8	-90.0	5.1
2025-01-24 11:02:09.616961	232.6	15.7	-90.6	4.5
2025-01-24 11:02:10.774598	232.5	15.6	-90.4	5.3
2025-01-24 11:02:11.941851	232.5	15.5	-90.3	6.3
2025-01-24 11:02:13.102146	232.4	15.3	-90.0	6.6
2025-01-24 11:02:14.262101	232.4	15.2	-90.3	6.4
2025-01-24 11:02:15.424941	232.3	15.1	-90.7	6.0
2025-01-24 11:02:16.593060	232.3	15.0	-90.6	5.3
2025-01-24 11:02:17.753901	232.2	14.8	-90.7	6.7
2025-01-24 11:02:18.916797	232.2	14.7	-90.6	4.8
2025-01-24 11:02:20.077133	232.1	14.6	-90.4	5.2
2025-01-24 11:02:21.237714	232.1	14.5	-90.2	7.0
#Closed at: 2025-01-24 10:53:22.696325