passes_logs/2025/01/24/LEX_Murmansk/LEX_Murmansk__20250124_184953_NOAA_19_rec.log

#Pass ID: 20250124_184953_NOAA 19
#Satellite: NOAA 19
#Configuration: NOAA 19
#Start time: 2025-01-24 18:49:48.764078

#LorettStation: 1.0.0 05.05.2024
#Station: LEX_Murmansk
#Location: 33.156738 lon 68.926811 lat
#TLE: 1 33591U 09005A   25024.13697735  .00000399  00000+0  23694-3 0  9996
#TLE: 2 33591  99.0181  87.9693 0014137  32.7659 327.4387 14.13267470822833

#Time	Az	El	Level	SNR
2025-01-24 18:50:00.906082	187.9	16.2	-90.2	4.1
2025-01-24 18:50:02.062637	188.0	16.4	-90.3	2.8
2025-01-24 18:50:03.228471	188.1	16.5	-89.9	2.0
2025-01-24 18:50:04.391912	188.2	16.6	-90.3	4.0
2025-01-24 18:50:05.558959	188.3	16.7	-89.9	3.5
2025-01-24 18:50:06.721852	188.4	16.8	-90.2	2.8
2025-01-24 18:50:07.879961	188.5	17.0	-90.3	2.3
2025-01-24 18:50:09.040414	188.6	17.1	-90.4	2.1
2025-01-24 18:50:10.203623	188.7	17.2	-90.3	3.6
2025-01-24 18:50:11.362321	188.8	17.3	-90.2	4.7
2025-01-24 18:50:12.529175	188.9	17.5	-90.5	4.0
2025-01-24 18:50:13.689404	189.0	17.6	-90.5	3.7
2025-01-24 18:50:14.858408	189.1	17.7	-90.5	2.9
2025-01-24 18:50:16.018549	189.2	17.8	-90.4	4.4
2025-01-24 18:50:17.178344	189.3	18.0	-90.5	3.9
2025-01-24 18:50:18.334920	189.4	18.1	-90.4	3.6
2025-01-24 18:50:19.491258	189.5	18.2	-89.8	3.2
2025-01-24 18:50:20.648470	189.6	18.4	-90.4	2.3
2025-01-24 18:50:21.824599	189.7	18.5	-90.8	2.4
2025-01-24 18:50:22.993892	189.8	18.6	-90.7	3.9
2025-01-24 18:50:24.156075	189.9	18.7	-90.6	4.7
2025-01-24 18:50:25.321702	190.1	18.9	-90.2	6.0
2025-01-24 18:50:26.483364	190.2	19.0	-90.4	6.8
2025-01-24 18:50:27.647987	190.3	19.1	-90.5	7.4
2025-01-24 18:50:28.807874	190.4	19.3	-90.4	5.8
2025-01-24 18:50:29.979017	190.5	19.4	-90.8	7.4
2025-01-24 18:50:31.144252	190.6	19.6	-90.6	10.4
2025-01-24 18:50:32.300057	190.7	19.7	-90.8	10.2
2025-01-24 18:50:33.461765	190.9	19.8	-90.7	10.4
2025-01-24 18:50:34.621391	191.0	20.0	-90.6	8.5
2025-01-24 18:50:35.790991	191.1	20.1	-90.6	5.6
2025-01-24 18:50:36.955369	191.2	20.2	-90.8	3.4
2025-01-24 18:50:38.122108	191.4	20.4	-90.7	3.2
2025-01-24 18:50:39.278589	191.5	20.5	-90.5	1.9
2025-01-24 18:50:40.445537	191.6	20.7	-90.8	4.7
2025-01-24 18:50:41.604785	191.7	20.8	-90.8	6.6
2025-01-24 18:50:42.766416	191.9	20.9	-90.9	6.2
2025-01-24 18:50:43.919934	192.0	21.1	-91.0	6.2
2025-01-24 18:50:45.082636	192.1	21.2	-91.0	4.2
2025-01-24 18:50:46.246875	192.3	21.4	-90.6	2.8
2025-01-24 18:50:47.409049	192.4	21.5	-90.8	5.5
2025-01-24 18:50:48.567058	192.5	21.7	-90.9	9.7
2025-01-24 18:50:49.732294	192.7	21.8	-90.7	9.5
2025-01-24 18:50:50.895200	192.8	21.9	-90.5	8.6
2025-01-24 18:50:52.059171	192.9	22.1	-90.2	8.8
2025-01-24 18:50:53.223117	193.1	22.2	-90.2	3.9
2025-01-24 18:50:54.379937	193.2	22.4	-90.7	2.7
2025-01-24 18:50:55.511267	193.3	22.5	-91.0	4.2
2025-01-24 18:50:56.635942	193.5	22.7	-90.4	2.4
2025-01-24 18:50:57.757288	193.6	22.8	-90.6	2.5
2025-01-24 18:50:58.878746	193.8	23.0	-90.9	6.3
2025-01-24 18:50:59.999541	193.9	23.1	-90.7	6.7
2025-01-24 18:51:01.120848	194.0	23.3	-90.6	8.6
2025-01-24 18:51:02.241771	194.2	23.4	-90.5	6.3
2025-01-24 18:51:03.362343	194.3	23.5	-90.3	5.2
2025-01-24 18:51:04.487427	194.5	23.7	-90.7	7.4
2025-01-24 18:51:05.649526	194.6	23.9	-90.6	9.1
2025-01-24 18:51:06.802929	194.8	24.0	-90.8	11.0
2025-01-24 18:51:07.966644	194.9	24.2	-89.9	10.5
2025-01-24 18:51:09.122861	195.1	24.3	-89.5	8.6
2025-01-24 18:51:10.281696	195.3	24.5	-89.5	4.6
2025-01-24 18:51:11.446208	195.4	24.6	-89.9	2.9
2025-01-24 18:51:12.612477	195.6	24.8	-89.4	1.4
2025-01-24 18:51:13.771428	195.7	25.0	-89.7	1.6
2025-01-24 18:51:14.942553	195.9	25.1	-90.3	3.9
2025-01-24 18:51:16.106190	196.1	25.3	-90.7	5.0
2025-01-24 18:51:17.261867	196.2	25.4	-90.1	7.2
2025-01-24 18:51:18.408428	196.4	25.6	-90.5	5.2
2025-01-24 18:51:19.539004	196.6	25.8	-90.6	6.1
2025-01-24 18:51:20.705837	196.8	25.9	-90.8	5.3
2025-01-24 18:51:21.854162	196.9	26.1	-90.4	5.3
2025-01-24 18:51:23.012379	197.1	26.2	-90.7	5.2
2025-01-24 18:51:24.163528	197.3	26.4	-90.2	4.8
2025-01-24 18:51:25.322602	197.5	26.6	-90.6	7.1
2025-01-24 18:51:26.484028	197.6	26.7	-90.4	9.6
2025-01-24 18:51:27.637628	197.8	26.9	-90.4	8.5
2025-01-24 18:51:28.801116	198.0	27.1	-90.7	3.7
2025-01-24 18:51:29.966515	198.2	27.3	-90.5	3.2
2025-01-24 18:51:31.129368	198.4	27.4	-90.5	3.8
2025-01-24 18:51:32.288516	198.6	27.6	-90.7	2.5
2025-01-24 18:51:33.436588	198.8	27.8	-90.5	3.1
2025-01-24 18:51:34.598542	199.0	27.9	-90.7	2.1
2025-01-24 18:51:35.751679	199.2	28.1	-90.8	4.3
2025-01-24 18:51:36.897855	199.4	28.3	-90.9	5.9
2025-01-24 18:51:38.028420	199.6	28.4	-90.9	6.0
2025-01-24 18:51:39.177926	199.8	28.6	-90.8	4.5
2025-01-24 18:51:40.317591	200.0	28.8	-90.5	2.9
2025-01-24 18:51:41.440124	200.2	29.0	-91.0	4.1
2025-01-24 18:51:42.572104	200.4	29.1	-90.8	3.8
2025-01-24 18:51:43.732419	200.6	29.3	-91.0	5.5
2025-01-24 18:51:44.875183	200.8	29.5	-90.7	5.2
2025-01-24 18:51:46.025770	201.0	29.7	-90.9	3.2
2025-01-24 18:51:47.168220	201.2	29.8	-91.0	2.9
2025-01-24 18:51:48.324382	201.5	30.0	-90.8	3.5
2025-01-24 18:51:49.479327	201.7	30.2	-90.8	1.5
2025-01-24 18:51:50.641013	201.9	30.4	-90.9	2.6
2025-01-24 18:51:51.803819	202.1	30.6	-91.0	2.6
2025-01-24 18:51:52.965114	202.4	30.8	-91.1	1.3
2025-01-24 18:51:54.127497	202.6	30.9	-90.7	3.6
2025-01-24 18:51:55.300072	202.8	31.1	-91.1	6.0
2025-01-24 18:51:56.463327	203.1	31.3	-91.1	3.7
2025-01-24 18:51:57.632690	203.3	31.5	-91.0	5.3
2025-01-24 18:51:58.793258	203.6	31.7	-91.0	3.1
2025-01-24 18:51:59.957470	203.8	31.9	-91.1	3.5
2025-01-24 18:52:01.109339	204.1	32.1	-90.8	1.9
2025-01-24 18:52:02.262959	204.3	32.2	-90.9	2.3
2025-01-24 18:52:03.419278	204.6	32.4	-91.0	3.2
2025-01-24 18:52:04.582200	204.8	32.6	-90.7	4.1
2025-01-24 18:52:05.747026	205.1	32.8	-90.4	5.8
2025-01-24 18:52:06.911497	205.4	33.0	-90.8	5.9
2025-01-24 18:52:08.072170	205.6	33.2	-90.9	3.5
2025-01-24 18:52:09.230236	205.9	33.4	-90.5	0.5
2025-01-24 18:52:10.392859	206.2	33.6	-90.6	2.2
2025-01-24 18:52:11.558586	206.5	33.8	-90.7	1.2
2025-01-24 18:52:12.719998	206.8	34.0	-90.9	2.3
2025-01-24 18:52:13.878794	207.0	34.2	-91.2	0.3
2025-01-24 18:52:15.036901	207.3	34.4	-90.9	4.0
2025-01-24 18:52:16.195710	207.6	34.5	-90.7	7.3
2025-01-24 18:52:17.355554	207.9	34.7	-90.7	9.2
2025-01-24 18:52:18.520036	208.2	34.9	-91.1	8.8
2025-01-24 18:52:19.678332	208.5	35.1	-91.3	5.6
2025-01-24 18:52:20.839990	208.8	35.3	-91.3	4.5
2025-01-24 18:52:21.997293	209.1	35.5	-91.3	4.1
2025-01-24 18:52:23.154028	209.4	35.7	-91.0	5.3
2025-01-24 18:52:24.307299	209.8	35.9	-90.7	5.0
2025-01-24 18:52:25.468354	210.1	36.1	-90.8	6.3
2025-01-24 18:52:26.608462	210.4	36.3	-90.7	8.3
2025-01-24 18:52:27.729440	210.7	36.5	-90.9	8.5
2025-01-24 18:52:28.849927	211.0	36.7	-90.7	5.2
2025-01-24 18:52:29.970755	211.3	36.9	-90.6	4.3
2025-01-24 18:52:31.095696	211.7	37.1	-90.2	3.3
2025-01-24 18:52:32.216331	212.0	37.3	-90.3	3.0
2025-01-24 18:52:33.337850	212.3	37.5	-90.2	2.4
2025-01-24 18:52:34.457608	212.7	37.6	-90.8	3.3
2025-01-24 18:52:35.579178	213.0	37.8	-90.8	3.9
2025-01-24 18:52:36.706271	213.4	38.0	-90.5	3.5
2025-01-24 18:52:37.854436	213.7	38.2	-90.8	8.5
2025-01-24 18:52:38.999360	214.1	38.4	-91.0	8.8
2025-01-24 18:52:40.156595	214.5	38.6	-90.7	9.8
2025-01-24 18:52:41.302721	214.8	38.8	-90.1	6.6
2025-01-24 18:52:42.464418	215.2	39.0	-90.4	6.9
2025-01-24 18:52:43.616420	215.6	39.2	-90.5	3.9
2025-01-24 18:52:44.781156	216.0	39.4	-90.5	4.1
2025-01-24 18:52:45.947784	216.4	39.6	-90.1	6.5
2025-01-24 18:52:47.106313	216.8	39.8	-90.2	5.3
2025-01-24 18:52:48.259324	217.2	40.0	-90.0	4.3
2025-01-24 18:52:49.383973	217.6	40.2	-90.2	2.8
2025-01-24 18:52:50.536765	218.0	40.4	-90.1	3.7
2025-01-24 18:52:51.683245	218.4	40.5	-90.4	4.4
2025-01-24 18:52:52.841575	218.8	40.7	-90.2	1.6
2025-01-24 18:52:53.990825	219.3	40.9	-90.1	3.4
2025-01-24 18:52:55.140800	219.7	41.1	-90.1	4.0
2025-01-24 18:52:56.300109	220.1	41.3	-90.2	2.5
2025-01-24 18:52:57.460388	220.6	41.5	-90.3	1.5
2025-01-24 18:52:58.613819	221.0	41.7	-90.1	3.2
2025-01-24 18:52:59.771737	221.5	41.9	-90.5	2.6
2025-01-24 18:53:00.925049	221.9	42.1	-90.7	3.8
2025-01-24 18:53:02.093468	222.4	42.2	-90.4	4.4
2025-01-24 18:53:03.259359	222.8	42.4	-90.3	4.7
2025-01-24 18:53:04.416606	223.3	42.6	-90.7	8.1
2025-01-24 18:53:05.576377	223.8	42.8	-90.2	9.0
2025-01-24 18:53:06.728169	224.3	43.0	-90.0	6.7
2025-01-24 18:53:07.892717	224.8	43.2	-90.2	7.7
2025-01-24 18:53:09.049863	225.3	43.3	-90.1	4.6
2025-01-24 18:53:10.215053	225.8	43.5	-89.7	2.9
2025-01-24 18:53:11.375109	226.3	43.7	-89.9	4.0
2025-01-24 18:53:12.534444	226.8	43.8	-90.0	5.9
2025-01-24 18:53:13.694414	227.3	44.0	-90.0	0.5
2025-01-24 18:53:14.861946	227.8	44.2	-89.8	3.1
2025-01-24 18:53:16.026363	228.4	44.4	-90.2	4.3
2025-01-24 18:53:17.195325	228.9	44.5	-89.9	4.8
2025-01-24 18:53:18.360378	229.4	44.7	-90.1	3.1
2025-01-24 18:53:19.511963	230.0	44.8	-90.0	4.5
2025-01-24 18:53:20.678167	230.5	45.0	-90.1	4.2
2025-01-24 18:53:21.830425	231.1	45.2	-90.5	1.5
2025-01-24 18:53:22.991556	231.6	45.3	-90.5	3.5
2025-01-24 18:53:24.148184	232.2	45.5	-90.5	3.9
2025-01-24 18:53:25.313892	232.8	45.6	-90.4	2.3
2025-01-24 18:53:26.478207	233.4	45.8	-90.4	0.7
2025-01-24 18:53:27.644627	233.9	45.9	-90.5	3.7
2025-01-24 18:53:28.814295	234.5	46.1	-90.7	1.5
2025-01-24 18:53:29.971194	235.1	46.2	-90.9	2.9
2025-01-24 18:53:31.131807	235.7	46.3	-90.7	3.3
2025-01-24 18:53:32.293620	236.3	46.5	-90.2	3.7
2025-01-24 18:53:33.453507	236.9	46.6	-90.1	5.7
2025-01-24 18:53:34.616957	237.5	46.7	-90.4	7.9
2025-01-24 18:53:35.785673	238.2	46.8	-90.2	8.6
2025-01-24 18:53:36.946099	238.8	47.0	-90.0	10.2
2025-01-24 18:53:38.111607	239.4	47.1	-90.0	12.6
2025-01-24 18:53:39.264395	240.0	47.2	-89.9	13.1
2025-01-24 18:53:40.426195	240.7	47.3	-90.4	11.6
2025-01-24 18:53:41.585985	241.3	47.4	-89.9	11.8
2025-01-24 18:53:42.746167	242.0	47.5	-90.3	10.3
2025-01-24 18:53:43.906631	242.6	47.6	-90.4	10.5
2025-01-24 18:53:45.074923	243.3	47.7	-90.5	7.5
2025-01-24 18:53:46.233242	243.9	47.8	-90.1	4.8
2025-01-24 18:53:47.399761	244.6	47.9	-90.5	7.2
2025-01-24 18:53:48.530607	245.2	48.0	-90.6	9.2
2025-01-24 18:53:49.650935	245.9	48.0	-90.4	8.1
2025-01-24 18:53:50.771916	246.5	48.1	-89.4	5.8
2025-01-24 18:53:51.894380	247.2	48.2	-90.5	8.6
2025-01-24 18:53:53.014693	247.8	48.3	-90.2	9.5
2025-01-24 18:53:54.134789	248.5	48.3	-90.0	13.9
2025-01-24 18:53:55.254939	249.1	48.4	-90.0	11.1
2025-01-24 18:53:56.375340	249.8	48.4	-89.8	12.8
2025-01-24 18:53:57.500520	250.5	48.5	-90.3	16.5
2025-01-24 18:53:58.639456	251.1	48.5	-90.9	18.4
2025-01-24 18:53:59.798385	251.8	48.6	-90.7	17.7
2025-01-24 18:54:00.948703	252.5	48.6	-90.5	18.2
2025-01-24 18:54:02.114103	253.2	48.6	-90.6	18.4
2025-01-24 18:54:03.271214	253.9	48.7	-90.4	18.6
2025-01-24 18:54:04.415027	254.6	48.7	-90.7	18.5
2025-01-24 18:54:05.550002	255.3	48.7	-90.4	18.5
2025-01-24 18:54:06.703586	256.0	48.7	-90.3	16.5
2025-01-24 18:54:07.848904	256.6	48.8	-90.5	15.6
2025-01-24 18:54:08.998410	257.3	48.8	-90.4	16.0
2025-01-24 18:54:10.148029	258.0	48.8	-90.2	14.7
2025-01-24 18:54:11.315571	258.7	48.8	-90.5	11.6
2025-01-24 18:54:12.471380	259.4	48.8	-90.9	13.1
2025-01-24 18:54:13.642611	260.1	48.8	-90.1	11.3
2025-01-24 18:54:14.802316	260.8	48.7	-90.7	7.9
2025-01-24 18:54:15.967237	261.5	48.7	-90.4	11.3
2025-01-24 18:54:17.129674	262.2	48.7	-90.1	13.9
2025-01-24 18:54:18.283910	262.9	48.7	-90.5	6.1
2025-01-24 18:54:19.444200	263.6	48.6	-90.5	8.9
2025-01-24 18:54:20.604727	264.3	48.6	-90.4	9.1
2025-01-24 18:54:21.769704	265.0	48.6	-90.2	5.2
2025-01-24 18:54:22.929192	265.7	48.5	-90.3	8.5
2025-01-24 18:54:24.091975	266.4	48.5	-90.6	10.4
2025-01-24 18:54:25.253955	267.1	48.4	-90.2	3.0
2025-01-24 18:54:26.415806	267.7	48.4	-90.3	6.5
2025-01-24 18:54:27.577375	268.4	48.3	-90.1	9.2
2025-01-24 18:54:28.734668	269.1	48.2	-90.0	8.0
2025-01-24 18:54:29.894047	269.8	48.2	-90.1	3.8
2025-01-24 18:54:31.053680	270.4	48.1	-90.0	9.6
2025-01-24 18:54:32.217781	271.1	48.0	-90.0	6.9
2025-01-24 18:54:33.372996	271.8	47.9	-90.1	4.9
2025-01-24 18:54:34.537389	272.4	47.8	-90.1	9.7
2025-01-24 18:54:35.696700	273.1	47.8	-89.9	6.6
2025-01-24 18:54:36.860524	273.7	47.7	-90.3	6.6
2025-01-24 18:54:38.015428	274.4	47.6	-90.2	7.0
2025-01-24 18:54:39.191700	275.0	47.5	-90.1	7.7
2025-01-24 18:54:40.351782	275.7	47.4	-90.2	5.5
2025-01-24 18:54:41.512120	276.3	47.2	-90.6	9.4
2025-01-24 18:54:42.672779	276.9	47.1	-90.3	8.3
2025-01-24 18:54:43.837464	277.6	47.0	-90.4	7.7
2025-01-24 18:54:44.997221	278.2	46.9	-90.6	7.2
2025-01-24 18:54:46.156915	278.8	46.8	-90.2	8.9
2025-01-24 18:54:47.320263	279.4	46.7	-90.3	7.1
2025-01-24 18:54:48.476254	280.0	46.5	-90.5	11.6
2025-01-24 18:54:49.641946	280.6	46.4	-91.0	12.8
2025-01-24 18:54:50.802208	281.2	46.3	-90.8	8.0
2025-01-24 18:54:51.962273	281.8	46.1	-90.6	9.3
2025-01-24 18:54:53.124180	282.4	46.0	-90.5	8.9
2025-01-24 18:54:54.295565	283.0	45.8	-90.6	7.7
2025-01-24 18:54:55.456319	283.6	45.7	-90.5	7.9
2025-01-24 18:54:56.617502	284.2	45.6	-90.4	9.6
2025-01-24 18:54:57.772306	284.7	45.4	-90.3	8.6
2025-01-24 18:54:58.936349	285.3	45.3	-90.5	8.4
2025-01-24 18:55:00.098026	285.8	45.1	-90.2	9.8
2025-01-24 18:55:01.252567	286.4	44.9	-90.4	8.1
2025-01-24 18:55:02.416261	286.9	44.8	-90.1	9.2
2025-01-24 18:55:03.575991	287.5	44.6	-90.5	11.1
2025-01-24 18:55:04.743780	288.0	44.5	-90.7	7.4
2025-01-24 18:55:05.904182	288.5	44.3	-90.8	6.2
2025-01-24 18:55:07.063130	289.1	44.1	-90.6	8.0
2025-01-24 18:55:08.227593	289.6	44.0	-90.3	5.2
2025-01-24 18:55:09.397088	290.1	43.8	-90.7	7.3
2025-01-24 18:55:10.564509	290.6	43.6	-90.4	9.7
2025-01-24 18:55:11.726328	291.1	43.4	-90.4	4.4
2025-01-24 18:55:12.891707	291.6	43.3	-90.6	5.3
2025-01-24 18:55:14.049537	292.1	43.1	-90.4	8.1
2025-01-24 18:55:15.206356	292.6	42.9	-90.4	3.2
2025-01-24 18:55:16.365413	293.1	42.7	-90.2	4.6
2025-01-24 18:55:17.530831	293.5	42.5	-90.1	9.7
2025-01-24 18:55:18.689749	294.0	42.4	-90.3	6.2
2025-01-24 18:55:19.850042	294.5	42.2	-90.4	7.0
2025-01-24 18:55:21.013916	294.9	42.0	-90.8	10.2
2025-01-24 18:55:22.173041	295.4	41.8	-90.0	8.5
2025-01-24 18:55:23.320901	295.8	41.6	-89.7	7.7
2025-01-24 18:55:24.446560	296.3	41.4	-90.2	8.7
2025-01-24 18:55:25.567186	296.7	41.3	-90.3	10.8
2025-01-24 18:55:26.689077	297.1	41.1	-90.2	8.8
2025-01-24 18:55:27.809616	297.5	40.9	-90.3	7.8
2025-01-24 18:55:28.930735	297.9	40.7	-90.3	11.0
2025-01-24 18:55:30.050794	298.3	40.5	-90.3	10.1
2025-01-24 18:55:31.171197	298.7	40.3	-90.0	10.3
2025-01-24 18:55:32.292207	299.1	40.2	-89.9	9.9
2025-01-24 18:55:33.417153	299.5	40.0	-90.4	13.5
2025-01-24 18:55:34.559667	299.9	39.8	-91.1	14.5
2025-01-24 18:55:35.739909	300.3	39.6	-91.3	15.2
2025-01-24 18:55:36.893724	300.7	39.4	-91.3	14.5
2025-01-24 18:55:38.054859	301.1	39.2	-91.2	14.0
2025-01-24 18:55:39.212872	301.5	39.0	-91.4	11.4
2025-01-24 18:55:40.371550	301.9	38.8	-91.0	10.6
2025-01-24 18:55:41.531806	302.2	38.6	-90.8	12.2
2025-01-24 18:55:42.697076	302.6	38.4	-90.6	10.5
2025-01-24 18:55:43.857518	303.0	38.2	-91.2	9.3
2025-01-24 18:55:45.020003	303.3	38.0	-91.3	9.4
2025-01-24 18:55:46.181268	303.7	37.8	-91.0	7.7
2025-01-24 18:55:47.348054	304.1	37.6	-90.7	4.6
2025-01-24 18:55:48.507835	304.4	37.4	-91.0	6.0
2025-01-24 18:55:49.665930	304.7	37.2	-90.9	6.5
2025-01-24 18:55:50.801779	305.1	37.0	-90.6	3.3
2025-01-24 18:55:51.942720	305.4	36.9	-91.0	5.7
2025-01-24 18:55:53.089246	305.7	36.7	-90.2	4.4
2025-01-24 18:55:54.237346	306.1	36.5	-90.7	2.9
2025-01-24 18:55:55.390203	306.4	36.3	-90.8	4.8
2025-01-24 18:55:56.546599	306.7	36.1	-91.0	4.8
2025-01-24 18:55:57.697414	307.0	35.9	-91.3	5.4
2025-01-24 18:55:58.858419	307.3	35.7	-91.2	4.6
2025-01-24 18:56:00.008864	307.6	35.5	-91.2	8.3
2025-01-24 18:56:01.167912	307.9	35.3	-90.6	5.3
2025-01-24 18:56:02.336547	308.2	35.1	-90.9	5.6
2025-01-24 18:56:03.494724	308.5	34.9	-91.3	7.9
2025-01-24 18:56:04.656561	308.8	34.7	-91.1	9.0
2025-01-24 18:56:05.821483	309.1	34.5	-90.9	10.9
2025-01-24 18:56:06.979003	309.4	34.3	-91.5	11.2
2025-01-24 18:56:08.138150	309.7	34.1	-91.1	11.6
2025-01-24 18:56:09.301778	310.0	33.9	-90.9	9.1
2025-01-24 18:56:10.461115	310.3	33.8	-90.9	11.7
2025-01-24 18:56:11.615601	310.5	33.6	-90.9	9.6
2025-01-24 18:56:12.777843	310.8	33.4	-90.9	6.3
2025-01-24 18:56:13.941054	311.1	33.2	-91.1	7.2
2025-01-24 18:56:15.105399	311.4	33.0	-90.9	5.5
2025-01-24 18:56:16.265831	311.6	32.8	-90.6	3.4
2025-01-24 18:56:17.441125	311.9	32.6	-91.0	7.2
2025-01-24 18:56:18.604318	312.1	32.4	-91.3	8.4
2025-01-24 18:56:19.765476	312.4	32.2	-91.0	6.3
2025-01-24 18:56:20.934180	312.6	32.1	-90.9	7.9
2025-01-24 18:56:22.094443	312.9	31.9	-91.0	9.2
2025-01-24 18:56:23.252938	313.1	31.7	-90.8	8.4
2025-01-24 18:56:24.410251	313.4	31.5	-91.1	10.1
2025-01-24 18:56:25.575874	313.6	31.3	-90.6	10.0
2025-01-24 18:56:26.738277	313.9	31.1	-91.0	12.8
2025-01-24 18:56:27.902157	314.1	30.9	-91.0	12.4
2025-01-24 18:56:29.064699	314.3	30.8	-90.9	13.4
2025-01-24 18:56:30.215823	314.6	30.6	-90.7	11.3
2025-01-24 18:56:31.376924	314.8	30.4	-90.4	9.6
2025-01-24 18:56:32.536966	315.0	30.2	-90.4	7.2
2025-01-24 18:56:33.697024	315.2	30.0	-90.9	5.6
2025-01-24 18:56:34.857213	315.5	29.9	-90.9	5.4
2025-01-24 18:56:36.020082	315.7	29.7	-91.1	4.9
2025-01-24 18:56:37.181983	315.9	29.5	-90.5	2.3
2025-01-24 18:56:38.318488	316.1	29.3	-90.2	3.1
2025-01-24 18:56:39.441674	316.3	29.2	-90.2	6.2
2025-01-24 18:56:40.561862	316.5	29.0	-90.7	5.2
2025-01-24 18:56:41.683656	316.7	28.8	-90.8	3.1
2025-01-24 18:56:42.804113	316.9	28.7	-90.6	5.9
2025-01-24 18:56:43.925169	317.1	28.5	-90.9	5.3
2025-01-24 18:56:45.047285	317.3	28.3	-90.3	6.8
2025-01-24 18:56:46.167199	317.5	28.2	-90.2	7.3
2025-01-24 18:56:47.289965	317.7	28.0	-90.3	8.7
2025-01-24 18:56:48.423195	317.9	27.8	-90.6	8.3
2025-01-24 18:56:49.586921	318.1	27.7	-90.8	7.8
2025-01-24 18:56:50.740785	318.3	27.5	-90.5	6.2
2025-01-24 18:56:51.901184	318.4	27.3	-91.2	7.5
2025-01-24 18:56:53.050184	318.6	27.1	-91.1	8.4
2025-01-24 18:56:54.212749	318.8	27.0	-90.7	4.1
2025-01-24 18:56:55.374350	319.0	26.8	-90.4	5.2
2025-01-24 18:56:56.539163	319.2	26.6	-91.2	2.8
2025-01-24 18:56:57.698285	319.4	26.5	-91.4	3.9
2025-01-24 18:56:58.856815	319.5	26.3	-90.9	5.5
2025-01-24 18:57:00.015044	319.7	26.2	-90.4	7.8
2025-01-24 18:57:01.179267	319.9	26.0	-90.5	6.9
2025-01-24 18:57:02.336552	320.1	25.8	-90.6	5.3
2025-01-24 18:57:03.494852	320.2	25.7	-90.9	7.5
2025-01-24 18:57:04.664858	320.4	25.5	-90.9	9.3
2025-01-24 18:57:05.824533	320.6	25.3	-90.5	10.6
2025-01-24 18:57:06.987444	320.7	25.2	-91.0	9.9
2025-01-24 18:57:08.140101	320.9	25.0	-90.7	8.0
2025-01-24 18:57:09.285761	321.1	24.9	-89.9	5.8
2025-01-24 18:57:10.419442	321.2	24.7	-91.1	3.2
2025-01-24 18:57:11.571207	321.4	24.6	-91.0	4.7
2025-01-24 18:57:12.723278	321.5	24.4	-90.3	3.2
2025-01-24 18:57:13.878722	321.7	24.3	-90.6	1.1
2025-01-24 18:57:15.029961	321.8	24.1	-90.9	4.2
2025-01-24 18:57:16.187722	322.0	23.9	-90.9	1.2
2025-01-24 18:57:17.343986	322.1	23.8	-90.6	1.5
2025-01-24 18:57:18.504801	322.3	23.6	-90.5	3.3
2025-01-24 18:57:19.669780	322.4	23.5	-90.7	5.4
2025-01-24 18:57:20.827627	322.6	23.3	-90.8	2.2
2025-01-24 18:57:21.984691	322.7	23.2	-90.7	3.4
2025-01-24 18:57:23.144958	322.9	23.0	-90.9	3.0
2025-01-24 18:57:24.306025	323.0	22.9	-90.8	6.7
2025-01-24 18:57:25.457156	323.2	22.7	-91.1	5.4
2025-01-24 18:57:26.583332	323.3	22.6	-90.9	0.6
2025-01-24 18:57:27.749513	323.5	22.5	-90.8	1.1
2025-01-24 18:57:28.895524	323.6	22.3	-90.8	2.3
2025-01-24 18:57:30.035305	323.7	22.2	-91.3	3.9
2025-01-24 18:57:31.192893	323.9	22.0	-90.8	3.8
2025-01-24 18:57:32.347810	324.0	21.9	-90.5	1.2
2025-01-24 18:57:33.499664	324.1	21.7	-90.9	4.2
2025-01-24 18:57:34.661246	324.3	21.6	-91.0	2.6
2025-01-24 18:57:35.820815	324.4	21.5	-91.1	3.0
2025-01-24 18:57:36.982752	324.5	21.3	-90.8	9.3
2025-01-24 18:57:38.139971	324.7	21.2	-91.0	2.9
2025-01-24 18:57:39.303696	324.8	21.0	-90.8	3.2
2025-01-24 18:57:40.449166	324.9	20.9	-91.4	5.5
2025-01-24 18:57:41.575127	325.0	20.8	-91.2	4.2
2025-01-24 18:57:42.737498	325.2	20.6	-91.0	2.0
2025-01-24 18:57:43.883571	325.3	20.5	-91.1	2.9
2025-01-24 18:57:45.040330	325.4	20.3	-90.9	2.9
2025-01-24 18:57:46.199574	325.5	20.2	-91.0	2.2
2025-01-24 18:57:47.341941	325.6	20.1	-90.2	1.4
2025-01-24 18:57:48.503742	325.8	19.9	-90.7	1.6
2025-01-24 18:57:49.669474	325.9	19.8	-90.9	1.2
2025-01-24 18:57:50.825421	326.0	19.7	-91.0	2.2
2025-01-24 18:57:51.984057	326.1	19.5	-90.7	2.0
2025-01-24 18:57:53.112802	326.2	19.4	-90.9	2.2
2025-01-24 18:57:54.260616	326.3	19.3	-90.7	1.7
2025-01-24 18:57:55.411778	326.5	19.1	-90.7	1.4
2025-01-24 18:57:56.562251	326.6	19.0	-90.9	4.2
2025-01-24 18:57:57.714290	326.7	18.9	-90.8	2.9
2025-01-24 18:57:58.868476	326.8	18.8	-90.9	4.9
2025-01-24 18:58:00.024242	326.9	18.6	-90.8	3.3
2025-01-24 18:58:01.175968	327.0	18.5	-90.6	2.4
2025-01-24 18:58:02.342077	327.1	18.4	-90.0	1.1
2025-01-24 18:58:03.608080	327.2	18.2	-90.5	3.2
2025-01-24 18:58:04.775649	327.3	18.1	-90.7	2.3
2025-01-24 18:58:05.932666	327.5	18.0	-90.8	2.4
2025-01-24 18:58:07.098916	327.6	17.8	-90.6	2.8
2025-01-24 18:58:08.260881	327.7	17.7	-90.9	2.3
2025-01-24 18:58:09.417844	327.8	17.6	-90.3	1.7
2025-01-24 18:58:10.573559	327.9	17.5	-91.3	3.6
2025-01-24 18:58:11.706426	328.0	17.4	-91.3	1.6
2025-01-24 18:58:12.851262	328.1	17.2	-90.8	1.6
2025-01-24 18:58:13.992948	328.2	17.1	-91.0	1.4
2025-01-24 18:58:15.141414	328.3	17.0	-91.1	2.0
2025-01-24 18:58:16.292806	328.4	16.9	-90.8	0.0
2025-01-24 18:58:17.445853	328.5	16.7	-90.8	2.8
2025-01-24 18:58:18.600236	328.6	16.6	-91.1	3.9
2025-01-24 18:58:19.756137	328.7	16.5	-91.1	3.8
2025-01-24 18:58:20.909904	328.8	16.4	-90.9	1.2
2025-01-24 18:58:22.074670	328.8	16.3	-91.2	1.6
2025-01-24 18:58:23.236347	328.9	16.2	-90.5	2.2
2025-01-24 18:58:24.397573	329.0	16.0	-90.4	1.3
2025-01-24 18:58:25.559357	329.1	15.9	-91.0	5.0
2025-01-24 18:58:26.723216	329.2	15.8	-91.1	4.2
2025-01-24 18:58:27.887492	329.3	15.7	-91.2	4.9
2025-01-24 18:58:29.049230	329.4	15.6	-91.1	2.3
2025-01-24 18:58:30.208908	329.5	15.4	-90.8	1.0
2025-01-24 18:58:31.366818	329.6	15.3	-91.1	3.9
2025-01-24 18:58:32.526561	329.7	15.2	-91.2	1.5
2025-01-24 18:58:33.687580	329.8	15.1	-91.3	3.5
2025-01-24 18:58:34.847080	329.9	15.0	-91.3	0.7
2025-01-24 18:58:36.005138	329.9	14.9	-91.6	2.4
2025-01-24 18:58:37.168680	330.0	14.8	-91.4	2.7
2025-01-24 18:58:38.333107	330.1	14.7	-91.4	4.8
2025-01-24 18:58:39.492250	330.2	14.5	-91.4	8.4
2025-01-24 18:58:40.632959	330.3	14.4	-91.4	4.8
#Closed at: 2025-01-24 18:49:53.702926