passes_logs/2025/01/24/LEX_Murmansk/LEX_Murmansk__20250124_191228_NOAA_18_rec.log

#Pass ID: 20250124_191228_NOAA 18
#Satellite: NOAA 18
#Configuration: NOAA 18
#Start time: 2025-01-24 19:12:22.985630

#LorettStation: 1.0.0 05.05.2024
#Station: LEX_Murmansk
#Location: 33.156738 lon 68.926811 lat
#TLE: 1 28654U 05018A   25024.15265828  .00000479  00000+0  27770-3 0  9994
#TLE: 2 28654  98.8553 105.1156 0014763 153.8328 206.3593 14.13495781 14472

#Time	Az	El	Level	SNR
2025-01-24 19:12:35.199614	162.3	16.3	-89.1	5.1
2025-01-24 19:12:36.328628	162.4	16.4	-89.2	7.8
2025-01-24 19:12:37.467798	162.4	16.6	-89.0	5.0
2025-01-24 19:12:38.621049	162.4	16.7	-89.7	7.9
2025-01-24 19:12:39.764759	162.5	16.8	-89.9	6.8
2025-01-24 19:12:40.913935	162.5	17.0	-89.7	5.4
2025-01-24 19:12:42.056208	162.5	17.1	-89.9	4.5
2025-01-24 19:12:43.203155	162.5	17.2	-90.1	5.1
2025-01-24 19:12:44.354916	162.6	17.3	-90.1	2.8
2025-01-24 19:12:45.497954	162.6	17.5	-90.3	4.6
2025-01-24 19:12:46.649570	162.6	17.6	-90.4	3.4
2025-01-24 19:12:47.794388	162.7	17.7	-90.2	5.2
2025-01-24 19:12:48.947464	162.7	17.9	-90.1	4.0
2025-01-24 19:12:50.092755	162.7	18.0	-89.8	4.7
2025-01-24 19:12:51.237426	162.8	18.1	-90.0	4.8
2025-01-24 19:12:52.364046	162.8	18.3	-90.0	4.8
2025-01-24 19:12:53.501141	162.8	18.4	-89.2	4.2
2025-01-24 19:12:54.648442	162.9	18.6	-88.8	4.9
2025-01-24 19:12:55.787961	162.9	18.7	-89.7	6.2
2025-01-24 19:12:56.933776	162.9	18.8	-90.2	3.7
2025-01-24 19:12:58.074855	163.0	19.0	-89.8	4.9
2025-01-24 19:12:59.222441	163.0	19.1	-89.5	6.4
2025-01-24 19:13:00.360641	163.0	19.3	-89.8	6.4
2025-01-24 19:13:01.507066	163.1	19.4	-90.3	2.8
2025-01-24 19:13:02.652703	163.1	19.5	-90.3	5.9
2025-01-24 19:13:03.799699	163.1	19.7	-90.1	5.7
2025-01-24 19:13:04.949933	163.2	19.8	-90.2	3.9
2025-01-24 19:13:06.099566	163.2	20.0	-90.2	6.1
2025-01-24 19:13:07.253629	163.2	20.1	-90.2	4.5
2025-01-24 19:13:08.398000	163.3	20.3	-90.3	4.5
2025-01-24 19:13:09.551869	163.3	20.4	-90.7	3.6
2025-01-24 19:13:10.700201	163.4	20.6	-90.4	5.3
2025-01-24 19:13:11.845565	163.4	20.7	-90.7	7.1
2025-01-24 19:13:12.996656	163.4	20.9	-90.7	5.9
2025-01-24 19:13:14.140386	163.5	21.0	-89.8	6.1
2025-01-24 19:13:15.297838	163.5	21.2	-89.6	7.2
2025-01-24 19:13:16.448334	163.5	21.3	-89.9	5.8
2025-01-24 19:13:17.599375	163.6	21.5	-90.5	4.1
2025-01-24 19:13:18.747317	163.6	21.6	-90.2	5.9
2025-01-24 19:13:19.896093	163.7	21.8	-89.9	5.8
2025-01-24 19:13:21.043626	163.7	22.0	-89.9	3.4
2025-01-24 19:13:22.190521	163.7	22.1	-89.9	6.5
2025-01-24 19:13:23.337185	163.8	22.3	-89.8	4.2
2025-01-24 19:13:24.486096	163.8	22.4	-89.7	4.3
2025-01-24 19:13:25.630755	163.9	22.6	-90.1	6.0
2025-01-24 19:13:26.774559	163.9	22.8	-90.0	5.8
2025-01-24 19:13:27.920053	163.9	22.9	-90.1	8.5
2025-01-24 19:13:29.061722	164.0	23.1	-90.3	9.8
2025-01-24 19:13:30.207622	164.0	23.3	-89.9	6.8
2025-01-24 19:13:31.353406	164.1	23.4	-90.4	6.1
2025-01-24 19:13:32.499153	164.1	23.6	-90.0	4.7
2025-01-24 19:13:33.656760	164.2	23.8	-89.7	8.0
2025-01-24 19:13:34.806659	164.2	23.9	-90.0	8.2
2025-01-24 19:13:35.955139	164.3	24.1	-90.2	6.8
2025-01-24 19:13:37.105330	164.3	24.3	-90.6	7.8
2025-01-24 19:13:38.256945	164.3	24.4	-90.3	7.8
2025-01-24 19:13:39.406947	164.4	24.6	-90.6	6.8
2025-01-24 19:13:40.555392	164.4	24.8	-90.8	10.1
2025-01-24 19:13:41.709225	164.5	25.0	-90.7	10.6
2025-01-24 19:13:42.865627	164.5	25.2	-90.7	10.5
2025-01-24 19:13:44.010070	164.6	25.3	-90.2	9.9
2025-01-24 19:13:45.155022	164.6	25.5	-90.2	9.2
2025-01-24 19:13:46.309595	164.7	25.7	-90.6	11.4
2025-01-24 19:13:47.465405	164.7	25.9	-90.8	8.4
2025-01-24 19:13:48.620857	164.8	26.1	-90.8	7.5
2025-01-24 19:13:49.770259	164.8	26.3	-90.6	10.1
2025-01-24 19:13:50.920173	164.9	26.4	-90.3	5.4
2025-01-24 19:13:52.076825	164.9	26.6	-90.5	5.9
2025-01-24 19:13:53.227189	165.0	26.8	-90.3	7.8
2025-01-24 19:13:54.369059	165.0	27.0	-90.1	9.0
2025-01-24 19:13:55.514538	165.1	27.2	-90.4	10.7
2025-01-24 19:13:56.660001	165.1	27.4	-90.4	11.0
2025-01-24 19:13:57.817516	165.2	27.6	-90.5	11.6
2025-01-24 19:13:58.968516	165.3	27.8	-90.2	10.0
2025-01-24 19:14:00.123425	165.3	28.0	-90.2	11.1
2025-01-24 19:14:01.272624	165.4	28.2	-89.8	9.9
2025-01-24 19:14:02.423644	165.4	28.4	-90.0	8.5
2025-01-24 19:14:03.575767	165.5	28.6	-90.4	7.2
2025-01-24 19:14:04.723369	165.5	28.8	-90.0	10.0
2025-01-24 19:14:05.870337	165.6	29.0	-90.0	5.9
2025-01-24 19:14:07.018917	165.7	29.2	-90.7	6.2
2025-01-24 19:14:08.171824	165.7	29.4	-89.8	9.8
2025-01-24 19:14:09.323985	165.8	29.6	-89.4	8.4
2025-01-24 19:14:10.469383	165.8	29.8	-89.8	7.7
2025-01-24 19:14:11.618691	165.9	30.0	-89.6	7.6
2025-01-24 19:14:12.769347	166.0	30.2	-89.1	8.6
2025-01-24 19:14:13.915409	166.0	30.5	-89.5	8.7
2025-01-24 19:14:15.056387	166.1	30.7	-88.8	8.6
2025-01-24 19:14:16.201180	166.2	30.9	-89.4	8.4
2025-01-24 19:14:17.349958	166.2	31.1	-89.5	9.3
2025-01-24 19:14:18.511700	166.3	31.3	-89.6	8.5
2025-01-24 19:14:19.657458	166.4	31.6	-90.0	10.8
2025-01-24 19:14:20.804537	166.4	31.8	-90.0	8.5
2025-01-24 19:14:21.953829	166.5	32.0	-90.0	5.1
2025-01-24 19:14:23.105303	166.6	32.2	-89.3	4.5
2025-01-24 19:14:24.247813	166.7	32.5	-90.1	10.6
2025-01-24 19:14:25.403163	166.7	32.7	-90.4	6.4
2025-01-24 19:14:26.556310	166.8	32.9	-90.2	9.0
2025-01-24 19:14:27.701645	166.9	33.2	-90.4	11.2
2025-01-24 19:14:28.851327	167.0	33.4	-90.2	13.0
2025-01-24 19:14:29.996078	167.0	33.6	-90.3	11.1
2025-01-24 19:14:31.119238	167.1	33.9	-89.8	10.9
2025-01-24 19:14:32.238379	167.2	34.1	-89.8	11.6
2025-01-24 19:14:33.360573	167.3	34.3	-90.2	8.6
2025-01-24 19:14:34.480523	167.4	34.6	-90.7	9.1
2025-01-24 19:14:35.601268	167.4	34.8	-90.5	10.5
2025-01-24 19:14:36.722552	167.5	35.1	-90.5	7.8
2025-01-24 19:14:37.843931	167.6	35.3	-90.5	6.0
2025-01-24 19:14:38.964776	167.7	35.6	-90.5	6.1
2025-01-24 19:14:40.088515	167.8	35.8	-90.0	4.9
2025-01-24 19:14:41.215528	167.9	36.1	-90.4	8.5
2025-01-24 19:14:42.360597	167.9	36.3	-90.5	4.1
2025-01-24 19:14:43.505712	168.0	36.6	-90.2	7.2
2025-01-24 19:14:44.652243	168.1	36.8	-90.8	10.3
2025-01-24 19:14:45.794132	168.2	37.1	-90.5	10.6
2025-01-24 19:14:46.931505	168.3	37.4	-90.3	9.0
2025-01-24 19:14:48.070182	168.4	37.6	-89.4	6.7
2025-01-24 19:14:49.217367	168.5	37.9	-89.0	6.7
2025-01-24 19:14:50.370389	168.6	38.2	-90.0	7.7
2025-01-24 19:14:51.521054	168.7	38.4	-90.3	6.7
2025-01-24 19:14:52.673383	168.8	38.7	-90.6	10.2
2025-01-24 19:14:53.821818	168.9	39.0	-90.6	8.9
2025-01-24 19:14:54.970010	169.0	39.3	-90.8	9.8
2025-01-24 19:14:56.124454	169.2	39.6	-90.1	6.6
2025-01-24 19:14:57.269800	169.3	39.9	-90.0	9.8
2025-01-24 19:14:58.412825	169.4	40.1	-89.7	5.6
2025-01-24 19:14:59.551904	169.5	40.4	-90.0	6.2
2025-01-24 19:15:00.696595	169.6	40.7	-90.1	11.5
2025-01-24 19:15:01.850464	169.7	41.0	-90.7	11.7
2025-01-24 19:15:02.988078	169.8	41.3	-90.6	10.6
2025-01-24 19:15:04.125426	170.0	41.6	-90.3	13.0
2025-01-24 19:15:05.250948	170.1	41.9	-90.5	12.9
2025-01-24 19:15:06.395284	170.2	42.2	-90.4	13.4
2025-01-24 19:15:07.536206	170.3	42.5	-90.8	13.2
2025-01-24 19:15:08.684713	170.5	42.8	-90.6	17.1
2025-01-24 19:15:09.829402	170.6	43.1	-90.6	17.6
2025-01-24 19:15:10.973745	170.8	43.4	-90.8	13.2
2025-01-24 19:15:12.116158	170.9	43.8	-90.5	14.8
2025-01-24 19:15:13.262044	171.0	44.1	-90.0	14.3
2025-01-24 19:15:14.406318	171.2	44.4	-90.6	13.5
2025-01-24 19:15:15.558505	171.3	44.7	-90.7	10.1
2025-01-24 19:15:16.715387	171.5	45.0	-90.7	12.3
2025-01-24 19:15:17.862902	171.6	45.4	-90.7	9.0
2025-01-24 19:15:19.016533	171.8	45.7	-90.8	6.7
2025-01-24 19:15:20.162982	172.0	46.0	-90.0	11.4
2025-01-24 19:15:21.307167	172.1	46.4	-89.6	13.0
2025-01-24 19:15:22.452088	172.3	46.7	-90.0	10.2
2025-01-24 19:15:23.602695	172.5	47.0	-90.3	12.9
2025-01-24 19:15:24.754451	172.6	47.4	-90.4	14.8
2025-01-24 19:15:25.905829	172.8	47.7	-90.5	16.4
2025-01-24 19:15:27.055495	173.0	48.1	-90.6	13.0
2025-01-24 19:15:28.202414	173.2	48.4	-90.6	14.0
2025-01-24 19:15:29.350256	173.4	48.8	-90.3	8.0
2025-01-24 19:15:30.495303	173.6	49.1	-90.7	8.5
2025-01-24 19:15:31.647135	173.8	49.5	-90.6	8.7
2025-01-24 19:15:32.798685	174.0	49.8	-90.6	9.0
2025-01-24 19:15:33.948625	174.2	50.2	-90.3	11.1
2025-01-24 19:15:35.100883	174.4	50.6	-90.2	11.8
2025-01-24 19:15:36.250507	174.6	50.9	-90.0	11.8
2025-01-24 19:15:37.397980	174.8	51.3	-90.5	7.2
2025-01-24 19:15:38.543497	175.1	51.7	-90.3	6.7
2025-01-24 19:15:39.695379	175.3	52.1	-90.7	11.9
2025-01-24 19:15:40.844378	175.5	52.4	-91.2	8.7
2025-01-24 19:15:41.994313	175.8	52.8	-90.8	6.6
2025-01-24 19:15:43.356391	176.1	53.3	-90.8	10.3
2025-01-24 19:15:44.507700	176.4	53.7	-91.0	12.2
2025-01-24 19:15:45.656549	176.6	54.0	-90.7	14.0
2025-01-24 19:15:46.808149	176.9	54.4	-91.0	11.4
2025-01-24 19:15:47.956115	177.2	54.8	-91.0	7.9
2025-01-24 19:15:49.105686	177.5	55.2	-90.4	9.2
2025-01-24 19:15:50.257749	177.8	55.6	-90.1	11.2
2025-01-24 19:15:51.409083	178.1	56.0	-89.9	8.9
2025-01-24 19:15:52.557058	178.4	56.4	-90.4	9.8
2025-01-24 19:15:53.703529	178.7	56.8	-90.4	15.0
2025-01-24 19:15:54.848478	179.1	57.2	-90.5	13.8
2025-01-24 19:15:56.001018	179.4	57.6	-90.6	14.9
2025-01-24 19:15:57.152471	179.8	58.0	-90.4	15.5
2025-01-24 19:15:58.299991	180.1	58.4	-90.3	15.5
2025-01-24 19:15:59.447171	180.5	58.9	-90.3	14.4
2025-01-24 19:16:00.587578	180.9	59.3	-89.8	12.5
2025-01-24 19:16:01.731722	181.3	59.7	-89.7	13.8
2025-01-24 19:16:02.890219	181.7	60.1	-90.0	10.7
2025-01-24 19:16:04.038888	182.2	60.5	-90.4	6.8
2025-01-24 19:16:05.187537	182.6	60.9	-90.9	13.8
2025-01-24 19:16:06.334986	183.1	61.4	-90.5	12.9
2025-01-24 19:16:07.482320	183.5	61.8	-90.5	10.2
2025-01-24 19:16:08.626018	184.0	62.2	-90.6	16.4
2025-01-24 19:16:09.775346	184.5	62.6	-90.6	18.3
2025-01-24 19:16:10.921829	185.0	63.0	-90.2	14.6
2025-01-24 19:16:12.063432	185.6	63.5	-90.5	17.0
2025-01-24 19:16:13.211127	186.2	63.9	-90.9	15.7
2025-01-24 19:16:14.362943	186.7	64.3	-90.3	12.5
2025-01-24 19:16:15.510657	187.3	64.7	-90.2	13.9
2025-01-24 19:16:16.657564	188.0	65.2	-90.9	19.2
2025-01-24 19:16:17.803710	188.6	65.6	-90.9	18.9
2025-01-24 19:16:18.955888	189.3	66.0	-90.9	12.1
2025-01-24 19:16:20.101538	190.0	66.4	-90.5	13.3
2025-01-24 19:16:21.247170	190.7	66.8	-90.2	15.1
2025-01-24 19:16:22.397556	191.5	67.3	-90.3	11.1
2025-01-24 19:16:23.544369	192.3	67.7	-91.0	12.3
2025-01-24 19:16:24.689494	193.1	68.1	-90.9	10.0
2025-01-24 19:16:25.833026	194.0	68.5	-90.5	14.3
2025-01-24 19:16:26.980640	194.9	68.9	-90.2	16.9
2025-01-24 19:16:28.140745	195.8	69.3	-90.2	11.3
2025-01-24 19:16:29.287719	196.8	69.7	-90.0	8.9
2025-01-24 19:16:30.439902	197.8	70.1	-89.6	11.3
2025-01-24 19:16:31.587330	198.9	70.5	-89.8	11.1
2025-01-24 19:16:32.736646	200.0	70.9	-90.6	14.2
2025-01-24 19:16:33.883802	201.1	71.3	-90.2	11.3
2025-01-24 19:16:35.031664	202.3	71.7	-89.7	7.6
2025-01-24 19:16:36.185216	203.6	72.1	-89.9	16.8
2025-01-24 19:16:37.333023	204.9	72.4	-90.5	16.8
2025-01-24 19:16:38.486126	206.3	72.8	-90.4	9.4
2025-01-24 19:16:39.633070	207.7	73.1	-90.3	16.3
2025-01-24 19:16:40.781685	209.2	73.5	-90.0	17.9
2025-01-24 19:16:41.931188	210.8	73.8	-90.3	11.6
2025-01-24 19:16:43.078298	212.4	74.1	-90.6	12.6
2025-01-24 19:16:44.228661	214.1	74.4	-90.3	18.5
2025-01-24 19:16:45.380261	215.9	74.7	-90.5	19.9
2025-01-24 19:16:46.528791	217.7	75.0	-90.8	19.2
2025-01-24 19:16:47.678456	219.6	75.3	-90.5	18.0
2025-01-24 19:16:48.824341	221.6	75.5	-90.5	22.7
2025-01-24 19:16:49.971442	223.6	75.7	-90.7	18.9
2025-01-24 19:16:51.121477	225.8	76.0	-90.6	16.4
2025-01-24 19:16:52.267443	227.9	76.1	-90.8	15.9
2025-01-24 19:16:53.396675	230.1	76.3	-90.5	20.9
2025-01-24 19:16:54.518734	232.4	76.5	-89.9	15.9
2025-01-24 19:16:55.639672	234.7	76.6	-90.9	21.8
2025-01-24 19:16:56.760621	237.0	76.7	-91.0	19.4
2025-01-24 19:16:57.881688	239.4	76.8	-90.8	14.7
2025-01-24 19:16:59.002742	241.8	76.9	-91.2	16.0
2025-01-24 19:17:00.122630	244.2	76.9	-90.9	18.2
2025-01-24 19:17:01.242816	246.6	76.9	-90.7	22.5
2025-01-24 19:17:02.364202	249.0	76.9	-90.7	17.2
2025-01-24 19:17:03.493064	251.5	76.9	-90.8	14.8
2025-01-24 19:17:04.643580	254.0	76.9	-90.9	22.8
2025-01-24 19:17:05.792859	256.4	76.8	-91.1	25.3
2025-01-24 19:17:06.936613	258.8	76.7	-91.1	16.5
2025-01-24 19:17:08.079329	261.2	76.6	-90.7	18.5
2025-01-24 19:17:09.227751	263.5	76.5	-90.2	24.8
2025-01-24 19:17:10.369297	265.8	76.3	-90.7	17.7
2025-01-24 19:17:11.517660	268.0	76.1	-90.5	16.5
2025-01-24 19:17:12.667545	270.2	75.9	-90.7	22.3
2025-01-24 19:17:13.816795	272.3	75.7	-90.8	24.8
2025-01-24 19:17:14.959199	274.3	75.5	-90.7	18.2
2025-01-24 19:17:16.107044	276.3	75.2	-90.6	20.0
2025-01-24 19:17:17.252648	278.2	75.0	-90.5	23.8
2025-01-24 19:17:18.405105	280.0	74.7	-90.4	18.9
2025-01-24 19:17:19.551868	281.8	74.4	-90.3	18.7
2025-01-24 19:17:20.701802	283.5	74.1	-90.2	22.9
2025-01-24 19:17:21.849055	285.1	73.7	-90.1	20.3
2025-01-24 19:17:22.996165	286.6	73.4	-89.7	20.7
2025-01-24 19:17:24.140730	288.1	73.1	-89.7	22.5
2025-01-24 19:17:25.290594	289.5	72.7	-89.6	23.4
2025-01-24 19:17:26.438907	290.9	72.4	-89.6	21.9
2025-01-24 19:17:27.584640	292.2	72.0	-90.0	21.7
2025-01-24 19:17:28.732208	293.5	71.6	-90.4	22.6
2025-01-24 19:17:29.877067	294.7	71.3	-90.3	18.9
2025-01-24 19:17:31.022105	295.8	70.9	-90.3	18.4
2025-01-24 19:17:32.170274	296.9	70.5	-90.3	19.9
2025-01-24 19:17:33.322133	298.0	70.1	-90.5	19.4
2025-01-24 19:17:34.472813	299.0	69.7	-90.4	16.9
2025-01-24 19:17:35.621447	300.0	69.3	-90.5	16.6
2025-01-24 19:17:36.774184	300.9	68.9	-90.3	15.3
2025-01-24 19:17:37.926684	301.8	68.5	-90.6	13.5
2025-01-24 19:17:39.069250	302.6	68.0	-90.0	12.4
2025-01-24 19:17:40.218606	303.5	67.6	-90.2	14.4
2025-01-24 19:17:41.362768	304.2	67.2	-90.5	10.6
2025-01-24 19:17:42.511664	305.0	66.8	-90.6	9.7
2025-01-24 19:17:43.665539	305.7	66.4	-90.6	13.2
2025-01-24 19:17:44.809919	306.4	65.9	-90.7	15.0
2025-01-24 19:17:45.951780	307.1	65.5	-90.7	10.4
2025-01-24 19:17:47.080656	307.7	65.1	-90.8	7.4
2025-01-24 19:17:48.201285	308.4	64.7	-90.5	15.9
2025-01-24 19:17:49.322294	308.9	64.3	-90.3	15.1
2025-01-24 19:17:50.443050	309.5	63.9	-90.6	10.0
2025-01-24 19:17:51.563411	310.1	63.5	-90.5	11.3
2025-01-24 19:17:52.686775	310.6	63.0	-90.5	17.9
2025-01-24 19:17:53.807780	311.1	62.6	-90.5	16.3
2025-01-24 19:17:54.927732	311.6	62.2	-90.6	12.5
2025-01-24 19:17:56.050504	312.1	61.8	-90.8	11.5
2025-01-24 19:17:57.190514	312.6	61.4	-90.4	16.6
2025-01-24 19:17:58.333120	313.0	61.0	-89.9	14.0
2025-01-24 19:17:59.481776	313.5	60.5	-90.8	10.7
2025-01-24 19:18:00.629641	313.9	60.1	-90.2	14.7
2025-01-24 19:18:01.749884	314.3	59.7	-90.3	15.9
2025-01-24 19:18:02.896915	314.7	59.3	-90.4	12.3
2025-01-24 19:18:04.025190	315.1	58.9	-90.7	13.5
2025-01-24 19:18:05.164889	315.5	58.5	-90.8	18.8
2025-01-24 19:18:06.304368	315.8	58.1	-90.6	20.0
2025-01-24 19:18:07.455761	316.2	57.7	-90.8	12.6
2025-01-24 19:18:08.597573	316.5	57.3	-90.1	14.8
2025-01-24 19:18:09.740595	316.9	56.9	-90.1	17.5
2025-01-24 19:18:10.887807	317.2	56.5	-90.6	12.9
2025-01-24 19:18:12.036396	317.5	56.1	-90.4	13.1
2025-01-24 19:18:13.187005	317.8	55.7	-90.3	15.5
2025-01-24 19:18:14.333273	318.1	55.3	-90.2	16.2
2025-01-24 19:18:15.479946	318.4	54.9	-90.4	13.8
2025-01-24 19:18:16.630661	318.7	54.5	-90.2	15.5
2025-01-24 19:18:17.780804	319.0	54.1	-90.0	16.6
2025-01-24 19:18:18.925663	319.2	53.7	-90.0	15.9
2025-01-24 19:18:20.079217	319.5	53.3	-89.9	10.9
2025-01-24 19:18:21.219344	319.8	52.9	-89.4	10.9
2025-01-24 19:18:22.363742	320.0	52.6	-89.6	13.1
2025-01-24 19:18:23.519500	320.3	52.2	-90.5	11.8
2025-01-24 19:18:24.666917	320.5	51.8	-90.0	9.4
2025-01-24 19:18:25.814121	320.7	51.4	-89.9	10.0
2025-01-24 19:18:26.959757	321.0	51.1	-90.4	9.7
2025-01-24 19:18:28.103823	321.2	50.7	-89.4	13.7
2025-01-24 19:18:29.231301	321.4	50.3	-89.5	16.0
2025-01-24 19:18:30.381356	321.6	50.0	-89.3	8.7
2025-01-24 19:18:31.514035	321.8	49.6	-89.7	8.6
2025-01-24 19:18:32.660367	322.0	49.3	-89.4	12.1
2025-01-24 19:18:33.804345	322.2	48.9	-89.8	15.3
2025-01-24 19:18:34.947458	322.4	48.6	-89.9	11.5
2025-01-24 19:18:36.091841	322.6	48.2	-89.9	10.8
2025-01-24 19:18:37.247739	322.8	47.9	-89.8	13.7
2025-01-24 19:18:38.390486	322.9	47.5	-90.3	10.1
2025-01-24 19:18:39.539972	323.1	47.2	-90.1	10.4
2025-01-24 19:18:40.687278	323.3	46.8	-89.9	14.3
2025-01-24 19:18:41.840515	323.5	46.5	-90.3	9.3
2025-01-24 19:18:42.974153	323.6	46.2	-90.3	14.3
2025-01-24 19:18:44.116704	323.8	45.8	-90.1	17.9
2025-01-24 19:18:45.263114	324.0	45.5	-90.0	19.4
2025-01-24 19:18:46.416013	324.1	45.2	-90.2	16.7
2025-01-24 19:18:47.572935	324.3	44.8	-89.8	15.9
2025-01-24 19:18:48.720804	324.4	44.5	-90.1	17.1
2025-01-24 19:18:49.870885	324.6	44.2	-89.9	12.4
2025-01-24 19:18:51.019720	324.7	43.9	-89.9	8.5
2025-01-24 19:18:52.167183	324.8	43.6	-89.5	15.0
2025-01-24 19:18:53.319055	325.0	43.2	-89.8	18.8
2025-01-24 19:18:54.466349	325.1	42.9	-90.0	8.2
2025-01-24 19:18:55.607807	325.3	42.6	-89.7	13.2
2025-01-24 19:18:56.754065	325.4	42.3	-90.2	15.2
2025-01-24 19:18:57.893065	325.5	42.0	-89.8	6.1
2025-01-24 19:18:59.024588	325.6	41.7	-90.2	9.5
2025-01-24 19:19:00.168859	325.8	41.4	-89.8	16.2
2025-01-24 19:19:01.295920	325.9	41.1	-89.7	18.9
2025-01-24 19:19:02.425430	326.0	40.8	-89.8	11.6
2025-01-24 19:19:03.557827	326.1	40.5	-90.0	12.8
2025-01-24 19:19:04.687039	326.2	40.3	-90.2	14.4
2025-01-24 19:19:05.829349	326.3	40.0	-90.6	17.5
2025-01-24 19:19:06.969963	326.5	39.7	-90.2	12.8
2025-01-24 19:19:08.116045	326.6	39.4	-90.2	15.0
2025-01-24 19:19:09.268033	326.7	39.1	-90.0	17.0
2025-01-24 19:19:10.407124	326.8	38.8	-90.4	18.1
2025-01-24 19:19:11.555933	326.9	38.6	-90.2	13.1
2025-01-24 19:19:12.700941	327.0	38.3	-90.6	14.5
2025-01-24 19:19:13.841966	327.1	38.0	-90.6	15.4
2025-01-24 19:19:14.992459	327.2	37.7	-90.0	9.6
2025-01-24 19:19:16.140875	327.3	37.5	-90.2	10.7
2025-01-24 19:19:17.279906	327.4	37.2	-89.3	8.5
2025-01-24 19:19:18.403630	327.5	37.0	-89.8	8.2
2025-01-24 19:19:19.548550	327.6	36.7	-90.2	8.2
2025-01-24 19:19:20.685820	327.7	36.4	-89.4	15.9
2025-01-24 19:19:21.831596	327.8	36.2	-90.0	15.1
2025-01-24 19:19:22.983019	327.9	35.9	-90.3	6.0
2025-01-24 19:19:24.120884	327.9	35.7	-89.7	11.5
2025-01-24 19:19:25.251935	328.0	35.4	-89.9	12.4
2025-01-24 19:19:26.395048	328.1	35.2	-89.8	15.2
2025-01-24 19:19:27.547540	328.2	34.9	-90.1	20.5
2025-01-24 19:19:28.694690	328.3	34.7	-90.4	15.6
2025-01-24 19:19:29.843013	328.4	34.4	-89.2	16.5
2025-01-24 19:19:30.979402	328.4	34.2	-89.9	10.5
2025-01-24 19:19:32.126823	328.5	33.9	-89.6	6.9
2025-01-24 19:19:33.271572	328.6	33.7	-89.5	7.1
2025-01-24 19:19:34.424500	328.7	33.5	-89.7	7.5
2025-01-24 19:19:35.569556	328.8	33.2	-90.2	15.7
2025-01-24 19:19:36.721805	328.8	33.0	-89.3	17.8
2025-01-24 19:19:37.868227	328.9	32.8	-89.2	12.0
2025-01-24 19:19:39.018553	329.0	32.5	-89.5	7.8
2025-01-24 19:19:40.172236	329.1	32.3	-89.7	18.7
2025-01-24 19:19:41.323184	329.1	32.1	-90.0	17.4
2025-01-24 19:19:42.471561	329.2	31.8	-89.9	15.5
2025-01-24 19:19:43.622210	329.3	31.6	-89.9	16.2
2025-01-24 19:19:44.768466	329.3	31.4	-90.6	5.5
2025-01-24 19:19:45.917712	329.4	31.2	-90.3	14.5
2025-01-24 19:19:47.073045	329.5	30.9	-89.7	13.5
2025-01-24 19:19:48.220212	329.5	30.7	-89.9	8.6
2025-01-24 19:19:49.372388	329.6	30.5	-90.2	6.2
2025-01-24 19:19:50.519179	329.7	30.3	-89.9	5.1
2025-01-24 19:19:51.669621	329.7	30.1	-90.5	12.1
2025-01-24 19:19:52.816964	329.8	29.9	-89.7	10.8
2025-01-24 19:19:53.974793	329.9	29.7	-89.7	7.9
2025-01-24 19:19:55.124464	329.9	29.4	-88.8	8.7
2025-01-24 19:19:56.275443	330.0	29.2	-89.3	16.7
2025-01-24 19:19:57.422618	330.1	29.0	-89.6	9.4
2025-01-24 19:19:58.581223	330.1	28.8	-89.8	7.7
2025-01-24 19:19:59.728851	330.2	28.6	-90.5	5.7
2025-01-24 19:20:00.871528	330.2	28.4	-89.7	4.0
2025-01-24 19:20:02.020991	330.3	28.2	-90.7	5.1
2025-01-24 19:20:03.174575	330.3	28.0	-90.3	6.1
2025-01-24 19:20:04.322184	330.4	27.8	-89.9	4.0
2025-01-24 19:20:05.471752	330.5	27.6	-89.9	6.1
2025-01-24 19:20:06.618718	330.5	27.4	-90.1	5.7
2025-01-24 19:20:07.768350	330.6	27.2	-90.5	7.5
2025-01-24 19:20:08.914289	330.6	27.0	-90.4	4.7
2025-01-24 19:20:10.064232	330.7	26.9	-89.6	3.9
2025-01-24 19:20:11.218358	330.7	26.7	-89.8	4.4
2025-01-24 19:20:12.366951	330.8	26.5	-89.8	7.3
2025-01-24 19:20:13.514601	330.8	26.3	-90.4	10.4
2025-01-24 19:20:14.668559	330.9	26.1	-90.2	8.6
2025-01-24 19:20:15.817157	330.9	25.9	-90.3	12.2
2025-01-24 19:20:16.961327	331.0	25.7	-89.9	9.8
2025-01-24 19:20:18.109607	331.0	25.6	-89.4	10.0
2025-01-24 19:20:19.256793	331.1	25.4	-89.6	7.7
2025-01-24 19:20:20.405300	331.1	25.2	-89.7	3.6
2025-01-24 19:20:21.557982	331.2	25.0	-89.4	5.3
2025-01-24 19:20:22.708660	331.2	24.8	-89.3	5.9
2025-01-24 19:20:23.861560	331.3	24.7	-89.9	8.7
2025-01-24 19:20:25.005516	331.3	24.5	-90.1	6.6
2025-01-24 19:20:26.156444	331.4	24.3	-89.8	7.5
2025-01-24 19:20:27.305316	331.4	24.1	-89.7	8.2
2025-01-24 19:20:28.455059	331.5	24.0	-89.8	5.9
2025-01-24 19:20:29.600044	331.5	23.8	-89.5	12.8
2025-01-24 19:20:30.745758	331.6	23.6	-89.8	12.5
2025-01-24 19:20:31.896683	331.6	23.5	-90.5	13.4
2025-01-24 19:20:33.044391	331.6	23.3	-90.9	7.9
2025-01-24 19:20:34.192753	331.7	23.1	-90.4	12.7
2025-01-24 19:20:35.339217	331.7	23.0	-89.7	8.8
2025-01-24 19:20:36.485355	331.8	22.8	-90.1	8.0
2025-01-24 19:20:37.631864	331.8	22.6	-90.8	6.7
2025-01-24 19:20:38.777488	331.9	22.5	-90.6	14.6
2025-01-24 19:20:39.926133	331.9	22.3	-90.7	9.0
2025-01-24 19:20:41.079393	331.9	22.2	-89.9	10.6
2025-01-24 19:20:42.224752	332.0	22.0	-89.9	4.9
2025-01-24 19:20:43.371197	332.0	21.8	-89.8	7.5
2025-01-24 19:20:44.522713	332.1	21.7	-89.9	6.7
2025-01-24 19:20:45.675063	332.1	21.5	-89.7	10.8
2025-01-24 19:20:46.822676	332.1	21.4	-90.3	5.1
2025-01-24 19:20:47.971799	332.2	21.2	-90.3	6.0
2025-01-24 19:20:49.114057	332.2	21.1	-90.1	7.4
2025-01-24 19:20:50.256002	332.3	20.9	-89.8	4.4
2025-01-24 19:20:51.378624	332.3	20.8	-89.7	3.1
2025-01-24 19:20:52.501020	332.3	20.6	-90.1	3.5
2025-01-24 19:20:53.621480	332.4	20.5	-90.0	7.7
2025-01-24 19:20:54.742566	332.4	20.3	-90.0	9.2
2025-01-24 19:20:55.862765	332.4	20.2	-90.5	6.7
2025-01-24 19:20:56.984060	332.5	20.0	-90.6	7.7
2025-01-24 19:20:58.105034	332.5	19.9	-90.4	4.1
2025-01-24 19:20:59.226757	332.5	19.7	-90.5	4.4
2025-01-24 19:21:00.347644	332.6	19.6	-90.2	4.6
2025-01-24 19:21:01.491557	332.6	19.5	-90.6	5.3
2025-01-24 19:21:02.640282	332.7	19.3	-90.4	5.8
2025-01-24 19:21:03.791105	332.7	19.2	-89.6	8.2
2025-01-24 19:21:04.933542	332.7	19.0	-90.0	4.8
2025-01-24 19:21:06.092038	332.8	18.9	-89.6	5.7
2025-01-24 19:21:07.241216	332.8	18.8	-89.8	5.9
2025-01-24 19:21:08.389497	332.8	18.6	-89.9	3.0
2025-01-24 19:21:09.536907	332.9	18.5	-90.1	6.4
2025-01-24 19:21:10.679791	332.9	18.3	-90.5	5.9
2025-01-24 19:21:11.814630	332.9	18.2	-90.4	5.5
2025-01-24 19:21:12.945525	333.0	18.1	-90.2	6.4
2025-01-24 19:21:14.089101	333.0	17.9	-90.2	6.6
2025-01-24 19:21:15.221898	333.0	17.8	-89.7	3.5
2025-01-24 19:21:16.363605	333.1	17.7	-90.3	5.6
2025-01-24 19:21:17.506860	333.1	17.5	-90.8	6.2
2025-01-24 19:21:18.659985	333.1	17.4	-90.7	5.7
2025-01-24 19:21:19.805189	333.1	17.3	-90.2	5.9
2025-01-24 19:21:20.949825	333.2	17.1	-89.2	3.6
2025-01-24 19:21:22.096072	333.2	17.0	-89.9	5.0
2025-01-24 19:21:23.242710	333.2	16.9	-90.1	5.5
2025-01-24 19:21:24.390222	333.3	16.7	-90.2	4.7
2025-01-24 19:21:25.541647	333.3	16.6	-90.6	5.0
2025-01-24 19:21:26.685582	333.3	16.5	-90.8	5.1
2025-01-24 19:21:27.833801	333.4	16.4	-90.1	5.5
2025-01-24 19:21:28.978930	333.4	16.2	-90.5	5.0
2025-01-24 19:21:30.131994	333.4	16.1	-90.3	3.9
2025-01-24 19:21:31.275620	333.4	16.0	-90.1	7.5
2025-01-24 19:21:32.417594	333.5	15.9	-90.4	7.2
2025-01-24 19:21:33.564266	333.5	15.7	-90.6	5.1
2025-01-24 19:21:34.706311	333.5	15.6	-90.6	5.4
2025-01-24 19:21:35.856558	333.6	15.5	-90.5	5.9
2025-01-24 19:21:37.005339	333.6	15.4	-90.7	5.5
2025-01-24 19:21:38.154778	333.6	15.2	-90.1	5.8
2025-01-24 19:21:39.302363	333.6	15.1	-90.7	8.1
2025-01-24 19:21:40.448633	333.7	15.0	-90.8	5.1
2025-01-24 19:21:41.599537	333.7	14.9	-90.9	2.9
2025-01-24 19:21:42.748164	333.7	14.8	-91.1	5.2
2025-01-24 19:21:43.897825	333.8	14.6	-90.6	3.7
2025-01-24 19:21:45.042406	333.8	14.5	-90.5	4.2
#Closed at: 2025-01-24 19:12:28.039146