passes_logs/2026/01/16/T1/T1__20260116_222804_NOAA_21_JPSS-2_rec.log

#Pass ID: 20260116_222804_NOAA 21 (JPSS-2)
#Satellite: NOAA 21 (JPSS-2)
#Configuration: NOAA 21
#almurnet v.1.7.20251203
#Start time: 2026-01-16 22:28:05

#Version: 2.0.20230620
#Station: T1
#Location: 37.570604 lon 55.790049 lat
#TLE: 1 54234U 22150A   26016.21096038  .00000027  00000+0  33607-4 0  9993
#TLE: 2 54234  98.7500 317.0960 0000625 282.3388  77.7718 14.19534911164985

#Time	Az	El	Level	Level2	SNR	BER	BlckErr	Temp	State	Recorded	gain1	gain2
2026-01-16 22:28:05.40	26.28	5.03	-49.6	-63.0	3.8	1.49e+00	0	37	0	0	71	16254
2026-01-16 22:28:06.39	26.35	5.10	-49.6	-63.0	3.8	1.49e+00	0	37	104	0	69	18240
2026-01-16 22:28:07.38	26.42	5.16	-49.6	-63.0	3.8	1.49e+00	0	37	104	0	69	18210
2026-01-16 22:28:08.38	26.49	5.22	-49.6	-63.0	3.8	1.49e+00	0	37	104	0	69	18225
2026-01-16 22:28:09.37	26.56	5.29	-49.6	-63.0	3.8	1.49e+00	0	37	104	0	69	18210
2026-01-16 22:28:10.36	26.63	5.35	-49.6	-63.0	3.8	1.49e+00	0	37	104	0	69	18262
2026-01-16 22:28:11.36	26.71	5.41	-49.6	-63.0	3.8	1.49e+00	0	37	104	0	69	18214
2026-01-16 22:28:12.35	26.78	5.47	-49.6	-63.0	3.8	1.49e+00	0	37	104	0	69	18197
2026-01-16 22:28:13.34	26.85	5.54	-49.6	-63.0	3.8	1.49e+00	0	37	104	0	69	18178
2026-01-16 22:28:14.33	26.92	5.60	-49.6	-63.0	3.8	1.49e+00	0	37	104	0	69	18197
2026-01-16 22:28:15.33	27.00	5.66	-49.6	-62.9	3.8	1.49e+00	0	37	104	0	69	18032
2026-01-16 22:28:16.32	27.07	5.73	-49.6	-62.9	3.8	1.49e+00	0	37	104	0	69	18044
2026-01-16 22:28:17.31	27.14	5.79	-49.6	-62.9	3.8	1.49e+00	0	37	104	0	69	18065
2026-01-16 22:28:18.31	27.22	5.86	-49.6	-63.0	3.8	1.49e+00	0	37	104	0	69	18100
2026-01-16 22:28:19.30	27.29	5.92	-49.6	-62.9	3.8	1.49e+00	0	37	104	0	69	18061
2026-01-16 22:28:20.30	27.37	5.98	-49.6	-63.0	3.8	1.49e+00	0	37	104	0	69	18097
2026-01-16 22:28:21.29	27.44	6.05	-49.6	-63.0	3.8	1.49e+00	0	37	104	0	69	18125
2026-01-16 22:28:22.28	27.52	6.11	-49.6	-63.0	3.8	1.49e+00	0	37	104	0	69	18131
2026-01-16 22:28:23.28	27.59	6.18	-49.6	-63.0	3.8	1.49e+00	0	37	104	0	69	18174
2026-01-16 22:28:24.27	27.67	6.24	-49.6	-63.0	3.8	1.49e+00	0	37	104	0	69	18159
2026-01-16 22:28:25.26	27.74	6.30	-49.6	-63.0	3.8	1.49e+00	0	37	104	0	69	18162
2026-01-16 22:28:26.25	27.82	6.37	-49.6	-63.0	3.8	1.49e+00	0	37	104	0	69	18113
2026-01-16 22:28:27.25	27.90	6.43	-49.6	-62.9	3.8	1.49e+00	0	38	104	0	69	18073
2026-01-16 22:28:28.24	27.98	6.50	-49.6	-62.9	3.8	1.49e+00	0	37	104	0	69	18083
2026-01-16 22:28:29.23	28.05	6.56	-49.5	-63.0	3.8	1.49e+00	0	37	104	0	69	18123
2026-01-16 22:28:30.22	28.13	6.63	-49.6	-62.9	3.8	1.49e+00	0	37	104	0	69	18060
2026-01-16 22:28:31.22	28.21	6.70	-49.6	-62.9	3.8	1.49e+00	0	37	104	0	69	18018
2026-01-16 22:28:32.21	28.29	6.76	-49.6	-62.9	3.8	1.49e+00	0	37	104	0	69	18021
2026-01-16 22:28:33.20	28.37	6.83	-49.6	-63.0	3.8	1.49e+00	0	37	104	0	69	18123
2026-01-16 22:28:34.20	28.45	6.89	-49.6	-63.0	3.8	1.49e+00	0	38	104	0	69	18130
2026-01-16 22:28:35.19	28.53	6.96	-49.6	-62.9	3.8	1.49e+00	0	38	104	0	69	18073
2026-01-16 22:28:36.18	28.60	7.02	-49.6	-62.9	3.8	1.49e+00	0	38	104	0	69	18006
2026-01-16 22:28:37.18	28.69	7.09	-49.5	-62.8	3.8	1.49e+00	0	38	104	0	69	17886
2026-01-16 22:28:38.17	28.77	7.16	-49.6	-62.8	3.8	1.49e+00	0	38	104	0	69	17756
2026-01-16 22:28:39.16	28.85	7.22	-49.5	-62.7	3.8	1.49e+00	0	38	104	0	69	17641
2026-01-16 22:28:40.16	28.93	7.29	-49.5	-62.7	3.8	1.49e+00	0	38	104	0	69	17671
2026-01-16 22:28:41.15	29.01	7.36	-49.6	-62.7	3.8	1.49e+00	0	38	104	0	69	17638
2026-01-16 22:28:42.14	29.09	7.42	-49.6	-62.7	3.8	1.49e+00	0	38	104	0	69	17626
2026-01-16 22:28:43.14	29.17	7.49	-49.6	-62.8	3.8	1.49e+00	0	38	104	0	69	17745
2026-01-16 22:28:44.13	29.26	7.56	-49.5	-62.9	3.8	1.49e+00	0	38	104	0	69	17990
2026-01-16 22:28:45.12	29.34	7.62	-49.6	-62.9	3.8	1.49e+00	0	38	104	0	69	18031
2026-01-16 22:28:46.11	29.42	7.69	-49.5	-62.9	3.8	1.49e+00	0	38	104	0	69	18051
2026-01-16 22:28:47.11	29.51	7.76	-49.5	-63.0	3.8	1.49e+00	0	38	104	0	69	18184
2026-01-16 22:28:48.10	29.59	7.83	-49.5	-62.9	3.8	1.49e+00	0	38	104	0	69	17999
2026-01-16 22:28:49.09	29.67	7.89	-49.5	-62.9	3.8	1.49e+00	0	38	104	0	69	17925
2026-01-16 22:28:50.09	29.76	7.96	-49.6	-62.9	3.8	1.49e+00	0	38	104	0	69	17905
2026-01-16 22:28:51.08	29.85	8.03	-49.5	-62.8	3.8	1.49e+00	0	38	104	0	69	17864
2026-01-16 22:28:52.07	29.93	8.10	-49.5	-62.7	3.8	1.49e+00	0	38	104	0	69	17620
2026-01-16 22:28:53.07	30.02	8.17	-49.5	-62.7	3.8	1.49e+00	0	38	104	0	69	17549
2026-01-16 22:28:54.06	30.10	8.23	-49.5	-62.6	3.8	1.49e+00	0	38	104	0	69	17311
2026-01-16 22:28:55.05	30.19	8.30	-49.5	-62.4	3.8	1.49e+00	0	38	104	0	69	17006
2026-01-16 22:28:56.05	30.28	8.37	-49.5	-62.2	3.8	1.49e+00	0	38	104	0	69	16673
2026-01-16 22:28:57.04	30.36	8.44	-49.5	-62.1	3.8	1.49e+00	0	38	104	0	69	16354
2026-01-16 22:28:58.03	30.45	8.51	-49.5	-61.9	3.8	1.49e+00	0	38	104	0	69	15945
2026-01-16 22:28:59.02	30.54	8.58	-49.4	-61.3	3.8	1.49e+00	0	38	104	0	69	15024
2026-01-16 22:29:00.02	30.63	8.65	-49.3	-60.5	3.9	1.48e+00	0	38	104	0	69	13699
2026-01-16 22:29:01.01	30.72	8.72	-49.1	-59.4	3.9	1.45e+00	0	38	104	0	69	11983
2026-01-16 22:29:02.01	30.81	8.79	-48.8	-56.7	5.4	6.12e-01	0	38	0	0	69	8822
2026-01-16 22:29:03.00	30.90	8.85	-48.3	-54.7	6.9	2.46e-01	0	38	0	0	68	7440
2026-01-16 22:29:03.99	30.99	8.92	-47.4	-52.6	8.8	5.20e-02	0	38	0	0	66	6558
2026-01-16 22:29:04.99	31.08	8.99	-46.7	-51.0	10.5	5.84e-03	0	38	0	0	65	5750
2026-01-16 22:29:05.98	31.17	9.06	-46.0	-49.7	11.9	5.67e-04	0	38	0	0	64	5233
2026-01-16 22:29:06.97	31.26	9.13	-46.1	-49.8	11.9	4.68e-04	0	39	0	0	63	5649
2026-01-16 22:29:07.97	31.35	9.20	-48.9	-57.2	5.1	1.14e-01	0	38	0	0	68	9851
2026-01-16 22:29:08.96	31.45	9.28	-44.1	-46.7	15.1	1.52e-05	0	39	0	0	60	4656
2026-01-16 22:29:09.96	31.54	9.35	-47.2	-52.2	9.4	3.71e-03	0	38	0	0	65	6640
2026-01-16 22:29:10.95	31.63	9.42	-42.0	-44.1	17.5	0.00e+00	0	39	0	0	56	4373
2026-01-16 22:29:11.95	31.73	9.49	-41.8	-43.8	17.6	0.00e+00	0	38	0	0	55	4479
2026-01-16 22:29:12.94	31.82	9.56	-41.7	-43.8	17.7	0.00e+00	0	39	0	0	55	4456
2026-01-16 22:29:13.93	31.92	9.63	-41.7	-43.7	17.7	0.00e+00	0	39	0	0	55	4419
2026-01-16 22:29:14.93	32.01	9.70	-41.6	-43.7	17.8	0.00e+00	0	39	0	0	55	4394
2026-01-16 22:29:15.95	32.11	9.77	-41.6	-43.7	17.8	0.00e+00	0	39	0	0	55	4393
2026-01-16 22:29:16.97	32.21	9.85	-41.7	-43.8	17.7	0.00e+00	0	39	0	0	55	4445
2026-01-16 22:29:17.98	32.31	9.92	-41.5	-43.5	18.0	0.00e+00	0	39	0	0	54	4559
2026-01-16 22:29:18.97	32.40	9.99	-41.4	-43.5	18.0	0.00e+00	0	39	0	0	54	4546
2026-01-16 22:29:19.97	32.50	10.06	-41.3	-43.3	18.1	0.00e+00	0	39	0	0	54	4492
2026-01-16 22:29:20.96	32.60	10.14	-41.3	-43.3	18.2	0.00e+00	0	38	0	0	54	4453
2026-01-16 22:29:21.96	32.70	10.21	-41.3	-43.3	18.1	0.00e+00	0	39	0	0	54	4480
2026-01-16 22:29:22.95	32.79	10.28	-41.4	-43.4	18.1	0.00e+00	0	39	0	0	54	4498
2026-01-16 22:29:23.94	32.89	10.35	-41.3	-43.3	18.2	0.00e+00	0	39	0	0	54	4464
2026-01-16 22:29:24.94	32.99	10.43	-41.4	-43.3	18.1	0.00e+00	0	39	0	0	54	4482
2026-01-16 22:29:25.94	33.09	10.50	-41.4	-43.3	18.1	0.00e+00	0	38	0	0	54	4489
2026-01-16 22:29:26.93	33.20	10.57	-41.4	-43.3	18.1	0.00e+00	0	39	0	0	54	4481
2026-01-16 22:29:27.92	33.30	10.64	-41.3	-43.2	18.2	0.00e+00	0	39	0	0	54	4425
2026-01-16 22:29:28.92	33.40	10.72	-41.2	-43.2	18.3	0.00e+00	0	39	0	0	54	4400
2026-01-16 22:29:29.92	33.50	10.79	-41.2	-43.2	18.3	0.00e+00	0	39	0	0	54	4392
2026-01-16 22:29:30.91	33.60	10.87	-41.3	-43.2	18.2	0.00e+00	0	38	0	0	54	4424
2026-01-16 22:29:31.91	33.71	10.94	-41.3	-43.2	18.2	0.00e+00	0	39	0	0	54	4433
2026-01-16 22:29:32.90	33.81	11.01	-41.3	-43.3	18.2	0.00e+00	0	39	0	0	54	4456
2026-01-16 22:29:33.90	33.91	11.09	-41.3	-43.3	18.1	0.00e+00	0	39	0	0	54	4453
2026-01-16 22:29:34.96	34.03	11.17	-41.2	-43.1	18.3	0.00e+00	0	39	0	0	54	4350
2026-01-16 22:29:35.89	34.12	11.24	-41.0	-42.9	18.4	0.00e+00	0	39	0	0	54	4289
2026-01-16 22:29:37.03	34.25	11.32	-41.1	-43.0	18.4	0.00e+00	0	39	0	0	54	4318
2026-01-16 22:29:37.88	34.34	11.39	-41.0	-42.9	18.5	0.00e+00	0	39	0	0	54	4270
2026-01-16 22:29:39.02	34.46	11.47	-41.0	-42.9	18.4	0.00e+00	0	39	0	0	54	4273
2026-01-16 22:29:39.87	34.55	11.53	-41.0	-42.9	18.4	0.00e+00	0	39	0	0	53	4532
2026-01-16 22:29:41.01	34.67	11.62	-41.0	-42.9	18.5	0.00e+00	0	39	0	0	53	4497
2026-01-16 22:29:41.86	34.77	11.68	-41.0	-42.8	18.5	0.00e+00	0	39	0	0	53	4486
2026-01-16 22:29:43.00	34.89	11.77	-40.9	-42.8	18.6	0.00e+00	0	39	0	0	53	4452
2026-01-16 22:29:43.85	34.98	11.84	-40.8	-42.7	18.7	0.00e+00	0	39	0	0	53	4397
2026-01-16 22:29:44.99	35.11	11.92	-40.8	-42.7	18.7	0.00e+00	0	39	0	0	53	4393
2026-01-16 22:29:45.84	35.21	11.99	-40.8	-42.7	18.7	0.00e+00	0	39	0	0	53	4395
2026-01-16 22:29:46.98	35.33	12.07	-40.7	-42.5	18.9	0.00e+00	0	39	0	0	53	4315
2026-01-16 22:29:47.83	35.43	12.14	-40.7	-42.6	18.8	0.00e+00	0	39	0	0	53	4345
2026-01-16 22:29:49.00	35.56	12.23	-40.7	-42.5	18.8	0.00e+00	0	39	0	0	53	4331
2026-01-16 22:29:49.86	35.66	12.29	-40.7	-42.5	18.9	0.00e+00	0	39	0	0	53	4328
2026-01-16 22:29:50.99	35.79	12.38	-40.7	-42.6	18.8	0.00e+00	0	39	0	0	53	4366
2026-01-16 22:29:51.84	35.88	12.45	-40.7	-42.7	18.7	0.00e+00	0	39	0	0	53	4392
2026-01-16 22:29:52.98	36.01	12.53	-40.8	-42.7	18.7	0.00e+00	0	39	0	0	53	4409
2026-01-16 22:29:53.83	36.11	12.60	-40.8	-42.7	18.6	0.00e+00	0	39	0	0	53	4426
2026-01-16 22:29:54.97	36.24	12.69	-40.8	-42.7	18.7	0.00e+00	0	39	0	0	53	4413
2026-01-16 22:29:55.83	36.35	12.76	-40.8	-42.7	18.6	0.00e+00	0	39	0	0	53	4433
2026-01-16 22:29:56.96	36.48	12.84	-40.7	-42.6	18.8	0.00e+00	0	39	0	0	53	4347
2026-01-16 22:29:57.82	36.58	12.91	-40.8	-42.7	18.7	0.00e+00	0	39	0	0	53	4395
2026-01-16 22:29:58.95	36.71	13.00	-40.8	-42.7	18.7	0.00e+00	0	39	0	0	53	4411
2026-01-16 22:29:59.80	36.81	13.06	-40.7	-42.5	18.7	0.00e+00	0	39	0	0	53	4338
2026-01-16 22:30:00.94	36.95	13.15	-40.6	-42.4	18.8	0.00e+00	0	39	0	0	53	4288
2026-01-16 22:30:01.79	37.05	13.22	-40.6	-42.5	18.8	0.00e+00	0	39	0	0	53	4315
2026-01-16 22:30:02.93	37.19	13.31	-40.7	-42.5	18.8	0.00e+00	0	39	0	0	53	4333
2026-01-16 22:30:03.78	37.29	13.38	-40.7	-42.5	18.8	0.00e+00	0	39	0	0	53	4330
2026-01-16 22:30:04.92	37.43	13.47	-40.8	-42.7	18.7	0.00e+00	0	39	0	0	53	4412
2026-01-16 22:30:05.77	37.54	13.53	-40.8	-42.7	18.7	0.00e+00	0	39	0	0	53	4413
2026-01-16 22:30:06.91	37.68	13.62	-40.8	-42.7	18.8	0.00e+00	0	39	0	0	53	4394
2026-01-16 22:30:07.76	37.78	13.69	-40.8	-42.7	18.7	0.00e+00	0	39	0	0	53	4407
2026-01-16 22:30:08.90	37.93	13.78	-40.9	-42.7	18.7	0.00e+00	0	39	0	0	53	4426
2026-01-16 22:30:09.76	38.03	13.85	-40.9	-42.8	18.6	0.00e+00	0	39	0	0	53	4446
2026-01-16 22:30:10.89	38.18	13.94	-40.8	-42.7	18.7	0.00e+00	0	39	0	0	53	4412
2026-01-16 22:30:11.74	38.28	14.01	-40.8	-42.7	18.7	0.00e+00	0	39	0	0	53	4411
2026-01-16 22:30:12.88	38.43	14.10	-41.0	-42.9	18.6	0.00e+00	0	39	0	0	53	4524
2026-01-16 22:30:13.73	38.54	14.17	-41.1	-43.0	18.5	0.00e+00	0	39	0	0	53	4551
2026-01-16 22:30:14.87	38.69	14.26	-41.0	-42.9	18.6	0.00e+00	0	39	0	0	53	4518
2026-01-16 22:30:15.72	38.80	14.33	-41.2	-43.1	18.4	0.00e+00	0	39	0	0	53	4649
2026-01-16 22:30:16.86	38.94	14.42	-41.0	-42.8	18.7	0.00e+00	0	39	0	0	53	4489
2026-01-16 22:30:17.71	39.05	14.49	-41.0	-42.8	18.7	0.00e+00	0	39	0	0	53	4470
2026-01-16 22:30:18.85	39.20	14.58	-41.0	-42.8	18.7	0.00e+00	0	39	0	0	53	4472
2026-01-16 22:30:19.70	39.32	14.65	-40.8	-42.7	18.8	0.00e+00	0	39	0	0	53	4401
2026-01-16 22:30:20.84	39.47	14.74	-40.9	-42.8	18.7	0.00e+00	0	39	0	0	53	4446
2026-01-16 22:30:21.69	39.58	14.81	-41.0	-42.8	18.7	0.00e+00	0	39	0	0	53	4480
2026-01-16 22:30:22.83	39.73	14.90	-41.0	-42.8	18.7	0.00e+00	0	39	0	0	53	4476
2026-01-16 22:30:23.68	39.85	14.97	-40.9	-42.7	18.8	0.00e+00	0	39	0	0	53	4440
2026-01-16 22:30:24.82	40.00	15.06	-41.0	-42.9	18.7	0.00e+00	0	39	0	0	53	4505
2026-01-16 22:30:25.67	40.12	15.13	-40.9	-42.7	18.8	0.00e+00	0	39	0	0	53	4438
2026-01-16 22:30:26.80	40.27	15.23	-41.0	-42.8	18.7	0.00e+00	0	39	0	0	53	4487
2026-01-16 22:30:27.66	40.39	15.30	-41.0	-42.9	18.7	0.00e+00	0	39	0	0	53	4512
2026-01-16 22:30:28.79	40.55	15.39	-41.1	-42.9	18.6	0.00e+00	0	39	0	0	53	4522
2026-01-16 22:30:29.64	40.67	15.46	-41.1	-42.9	18.6	0.00e+00	0	39	0	0	53	4536
2026-01-16 22:30:30.78	40.83	15.55	-41.0	-42.9	18.6	0.00e+00	0	39	0	0	53	4512
2026-01-16 22:30:31.63	40.95	15.62	-41.1	-42.9	18.5	0.00e+00	0	39	0	0	53	4540
2026-01-16 22:30:32.77	41.11	15.72	-41.0	-42.8	18.7	0.00e+00	0	39	0	0	53	4489
2026-01-16 22:30:33.62	41.23	15.79	-40.8	-42.7	18.8	0.00e+00	0	39	0	0	53	4399
2026-01-16 22:30:34.96	41.42	15.90	-41.0	-42.8	18.7	0.00e+00	0	39	0	0	53	4458
2026-01-16 22:30:35.68	41.52	15.96	-41.0	-42.8	18.7	0.00e+00	0	39	0	0	53	4481
2026-01-16 22:30:36.96	41.71	16.06	-41.0	-42.9	18.7	0.00e+00	0	39	0	0	53	4496
2026-01-16 22:30:37.67	41.81	16.12	-41.1	-42.9	18.6	0.00e+00	0	39	0	0	53	4522
2026-01-16 22:30:38.94	42.00	16.23	-41.1	-43.0	18.5	0.00e+00	0	39	0	0	53	4573
2026-01-16 22:30:39.66	42.10	16.29	-41.2	-43.0	18.5	0.00e+00	0	39	0	0	53	4589
2026-01-16 22:30:41.29	42.34	16.43	-41.2	-43.0	18.5	0.00e+00	0	39	0	0	53	4590
2026-01-16 22:30:41.85	42.43	16.47	-41.2	-43.1	18.4	0.00e+00	0	39	0	0	53	4629
2026-01-16 22:30:43.56	42.68	16.62	-41.3	-43.2	18.3	0.00e+00	0	39	0	0	53	4676
2026-01-16 22:30:44.13	42.77	16.66	-41.4	-43.3	18.3	0.00e+00	0	39	0	0	53	4707
2026-01-16 22:30:45.84	43.03	16.81	-41.3	-43.1	18.4	0.00e+00	0	39	0	0	53	4645
2026-01-16 22:30:46.41	43.12	16.86	-41.3	-43.2	18.3	0.00e+00	0	39	0	0	53	4681
2026-01-16 22:30:48.11	43.38	17.00	-41.2	-43.1	18.4	0.00e+00	0	39	0	0	53	4605
2026-01-16 22:30:48.76	43.48	17.05	-41.2	-43.1	18.4	0.00e+00	0	39	0	0	53	4615
2026-01-16 22:30:50.18	43.70	17.17	-41.3	-43.2	18.3	0.00e+00	0	39	0	0	53	4671
2026-01-16 22:30:50.98	43.82	17.24	-41.3	-43.2	18.3	0.00e+00	0	39	0	0	53	4697
2026-01-16 22:30:52.12	44.00	17.34	-41.3	-43.2	18.4	0.00e+00	0	39	0	0	53	4697
2026-01-16 22:30:52.97	44.14	17.41	-41.5	-43.4	18.2	0.00e+00	0	39	0	0	53	4769
2026-01-16 22:30:54.11	44.32	17.51	-41.4	-43.3	18.3	0.00e+00	0	39	0	0	53	4749
2026-01-16 22:30:54.96	44.45	17.58	-41.3	-43.2	18.4	0.00e+00	0	39	0	0	53	4691
2026-01-16 22:30:56.10	44.64	17.67	-41.4	-43.3	18.3	0.00e+00	0	39	0	0	53	4735
2026-01-16 22:30:56.95	44.77	17.75	-41.4	-43.3	18.3	0.00e+00	0	39	0	0	53	4744
2026-01-16 22:30:58.09	44.96	17.84	-41.4	-43.3	18.3	0.00e+00	0	39	0	0	53	4723
2026-01-16 22:30:58.94	45.10	17.92	-41.5	-43.4	18.2	0.00e+00	0	39	0	0	53	4783
2026-01-16 22:31:00.11	45.29	18.02	-41.3	-43.2	18.4	0.00e+00	0	39	0	0	53	4678
2026-01-16 22:31:00.96	45.43	18.09	-41.1	-43.0	18.6	0.00e+00	0	39	0	0	53	4551
2026-01-16 22:31:02.10	45.62	18.19	-41.0	-42.9	18.7	0.00e+00	0	39	0	0	53	4506
2026-01-16 22:31:02.95	45.76	18.26	-41.1	-42.9	18.6	0.00e+00	0	39	0	0	53	4527
2026-01-16 22:31:04.09	45.95	18.36	-41.0	-42.9	18.7	0.00e+00	0	39	0	0	53	4507
2026-01-16 22:31:04.94	46.09	18.43	-41.1	-42.9	18.7	0.00e+00	0	40	0	0	53	4510
2026-01-16 22:31:06.08	46.29	18.53	-41.0	-42.9	18.7	0.00e+00	0	39	0	0	53	4500
2026-01-16 22:31:07.01	46.44	18.61	-41.0	-42.9	18.7	0.00e+00	0	39	0	0	53	4508
2026-01-16 22:31:08.00	46.61	18.69	-41.2	-43.0	18.6	0.00e+00	0	39	0	0	53	4585
2026-01-16 22:31:09.00	46.79	18.78	-41.0	-42.8	18.8	0.00e+00	0	39	0	0	53	4473
2026-01-16 22:31:09.99	46.96	18.86	-40.9	-42.7	18.8	0.00e+00	0	39	0	0	53	4422
2026-01-16 22:31:10.99	47.13	18.95	-40.9	-42.8	18.8	0.00e+00	0	39	0	0	53	4445
2026-01-16 22:31:11.98	47.31	19.03	-40.8	-42.6	18.9	0.00e+00	0	40	0	0	53	4347
2026-01-16 22:31:12.97	47.48	19.12	-40.6	-42.4	19.1	0.00e+00	0	39	0	0	53	4251
2026-01-16 22:31:13.97	47.66	19.20	-40.5	-42.3	19.2	0.00e+00	0	39	0	0	53	4196
2026-01-16 22:31:14.97	47.84	19.29	-40.4	-42.2	19.2	0.00e+00	0	39	0	0	52	4412
2026-01-16 22:31:15.96	48.01	19.38	-40.3	-42.0	19.4	0.00e+00	0	39	0	0	52	4335
2026-01-16 22:31:17.00	48.20	19.47	-40.3	-42.1	19.3	0.00e+00	0	39	0	0	52	4351
2026-01-16 22:31:17.95	48.37	19.55	-40.3	-42.1	19.3	0.00e+00	0	40	0	0	52	4363
2026-01-16 22:31:18.94	48.55	19.63	-40.4	-42.1	19.3	0.00e+00	0	39	0	0	52	4371
2026-01-16 22:31:19.94	48.73	19.72	-40.4	-42.2	19.2	0.00e+00	0	39	0	0	52	4423
2026-01-16 22:31:20.93	48.92	19.80	-40.5	-42.3	19.1	0.00e+00	0	40	0	0	52	4481
2026-01-16 22:31:21.93	49.10	19.89	-40.4	-42.2	19.3	0.00e+00	0	39	0	0	52	4404
2026-01-16 22:31:22.93	49.29	19.98	-40.6	-42.3	19.2	0.00e+00	0	39	0	0	52	4483
2026-01-16 22:31:23.92	49.47	20.06	-40.4	-42.2	19.3	0.00e+00	0	39	0	0	52	4414
2026-01-16 22:31:24.92	49.66	20.15	-40.3	-42.0	19.4	0.00e+00	0	39	0	0	52	4328
2026-01-16 22:31:25.91	49.85	20.23	-40.3	-42.1	19.4	0.00e+00	0	39	0	0	52	4371
2026-01-16 22:31:26.91	50.04	20.32	-40.4	-42.1	19.4	0.00e+00	0	39	0	0	52	4378
2026-01-16 22:31:27.90	50.23	20.41	-40.2	-42.0	19.5	0.00e+00	0	39	0	0	52	4298
2026-01-16 22:31:28.89	50.42	20.49	-40.2	-42.0	19.5	0.00e+00	0	39	0	0	52	4296
2026-01-16 22:31:29.89	50.61	20.58	-40.3	-42.0	19.4	0.00e+00	0	39	0	0	52	4327
2026-01-16 22:31:30.93	50.81	20.67	-40.2	-41.9	19.5	0.00e+00	0	39	0	0	52	4268
2026-01-16 22:31:31.97	51.02	20.76	-40.1	-41.8	19.6	0.00e+00	0	40	0	0	52	4213
2026-01-16 22:31:32.93	51.21	20.84	-40.0	-41.7	19.7	0.00e+00	0	39	0	0	52	4174
2026-01-16 22:31:33.93	51.40	20.93	-39.9	-41.6	19.9	0.00e+00	0	40	0	0	51	4362
2026-01-16 22:31:34.92	51.60	21.01	-40.0	-41.7	19.8	0.00e+00	0	40	0	0	51	4440
2026-01-16 22:31:35.92	51.80	21.10	-39.7	-41.4	20.1	0.00e+00	0	40	0	0	51	4285
2026-01-16 22:31:36.91	52.00	21.18	-39.7	-41.3	20.1	0.00e+00	0	39	0	0	51	4239
2026-01-16 22:31:37.91	52.20	21.27	-39.6	-41.2	20.2	0.00e+00	0	39	0	0	51	4192
2026-01-16 22:31:38.90	52.40	21.35	-39.6	-41.2	20.2	0.00e+00	0	40	0	0	51	4182
2026-01-16 22:31:39.90	52.61	21.44	-39.6	-41.2	20.2	0.00e+00	0	39	0	0	51	4193
2026-01-16 22:31:40.89	52.81	21.52	-39.5	-41.1	20.2	0.00e+00	0	39	0	0	51	4142
2026-01-16 22:31:41.89	53.01	21.61	-39.4	-41.0	20.3	0.00e+00	0	39	0	0	50	4337
2026-01-16 22:31:42.88	53.22	21.69	-39.5	-41.1	20.3	0.00e+00	0	40	0	0	50	4384
2026-01-16 22:31:43.88	53.43	21.78	-39.4	-41.0	20.4	0.00e+00	0	39	0	0	50	4331
2026-01-16 22:31:44.87	53.64	21.86	-39.4	-41.0	20.4	0.00e+00	0	39	0	0	50	4330
2026-01-16 22:31:45.87	53.85	21.95	-39.5	-41.1	20.4	0.00e+00	0	40	0	0	50	4378
2026-01-16 22:31:46.86	54.06	22.03	-39.5	-41.1	20.4	0.00e+00	0	40	0	0	50	4382
2026-01-16 22:31:47.86	54.27	22.12	-39.5	-41.2	20.3	0.00e+00	0	40	0	0	50	4422
2026-01-16 22:31:48.85	54.48	22.20	-39.3	-41.0	20.5	0.00e+00	0	39	0	0	50	4308
2026-01-16 22:31:49.85	54.70	22.29	-39.4	-41.0	20.5	0.00e+00	0	40	0	0	50	4316
2026-01-16 22:31:51.00	54.95	22.38	-39.3	-41.0	20.5	0.00e+00	0	40	0	0	50	4303
2026-01-16 22:31:51.85	55.13	22.46	-39.3	-41.0	20.5	0.00e+00	0	40	0	0	50	4294
2026-01-16 22:31:52.99	55.38	22.55	-39.3	-41.0	20.5	0.00e+00	0	40	0	0	50	4304
2026-01-16 22:31:53.85	55.57	22.63	-39.3	-41.0	20.5	0.00e+00	0	39	0	0	50	4312
2026-01-16 22:31:54.98	55.82	22.72	-39.3	-40.9	20.5	0.00e+00	0	40	0	0	50	4290
2026-01-16 22:31:55.84	56.01	22.79	-39.3	-41.0	20.5	0.00e+00	0	39	0	0	50	4300
2026-01-16 22:31:56.97	56.26	22.89	-39.3	-41.0	20.5	0.00e+00	0	39	0	0	50	4294
2026-01-16 22:31:57.82	56.46	22.96	-39.3	-40.9	20.5	0.00e+00	0	39	0	0	50	4276
2026-01-16 22:31:58.96	56.71	23.05	-39.4	-41.1	20.4	0.00e+00	0	40	0	0	50	4355
2026-01-16 22:31:59.81	56.91	23.12	-39.5	-41.2	20.3	0.00e+00	0	40	0	0	50	4427
2026-01-16 22:32:01.00	57.18	23.22	-39.5	-41.2	20.3	0.00e+00	0	40	0	0	50	4413
2026-01-16 22:32:01.85	57.37	23.29	-39.6	-41.3	20.2	0.00e+00	0	40	0	0	50	4476
2026-01-16 22:32:02.99	57.64	23.39	-39.6	-41.3	20.3	0.00e+00	0	40	0	0	50	4449
2026-01-16 22:32:03.84	57.83	23.46	-39.6	-41.3	20.3	0.00e+00	0	39	0	0	50	4459
2026-01-16 22:32:04.98	58.10	23.55	-39.7	-41.3	20.2	0.00e+00	0	39	0	0	50	4488
2026-01-16 22:32:05.83	58.30	23.62	-39.7	-41.4	20.2	0.00e+00	0	39	0	0	50	4509
2026-01-16 22:32:06.97	58.57	23.71	-39.7	-41.3	20.2	0.00e+00	0	40	0	0	50	4486
2026-01-16 22:32:07.82	58.77	23.78	-39.6	-41.3	20.2	0.00e+00	0	39	0	0	50	4477
2026-01-16 22:32:08.96	59.04	23.88	-39.6	-41.3	20.2	0.00e+00	0	39	0	0	50	4455
2026-01-16 22:32:09.81	59.24	23.95	-39.7	-41.4	20.1	0.00e+00	0	39	0	0	50	4513
2026-01-16 22:32:10.95	59.52	24.04	-39.7	-41.5	20.1	0.00e+00	0	39	0	0	50	4548
2026-01-16 22:32:11.81	59.72	24.11	-39.7	-41.4	20.1	0.00e+00	0	39	0	0	50	4541
2026-01-16 22:32:12.94	60.00	24.20	-39.8	-41.5	20.0	0.00e+00	0	40	0	0	50	4570
2026-01-16 22:32:13.80	60.21	24.27	-39.8	-41.6	19.9	0.00e+00	0	39	0	0	50	4607
2026-01-16 22:32:14.93	60.49	24.36	-39.9	-41.6	19.8	0.00e+00	0	39	0	0	50	4630
2026-01-16 22:32:15.78	60.70	24.42	-39.8	-41.5	19.9	0.00e+00	0	40	0	0	50	4577
2026-01-16 22:32:16.92	60.98	24.52	-39.8	-41.5	20.0	0.00e+00	0	40	0	0	50	4568
2026-01-16 22:32:17.78	61.19	24.58	-39.8	-41.5	20.0	0.00e+00	0	40	0	0	50	4581
2026-01-16 22:32:18.91	61.47	24.67	-39.9	-41.6	20.0	0.00e+00	0	40	0	0	50	4611
2026-01-16 22:32:19.77	61.69	24.74	-40.0	-41.7	19.9	0.00e+00	0	40	0	0	50	4682
2026-01-16 22:32:21.02	62.01	24.84	-40.2	-41.9	19.6	0.00e+00	0	39	0	0	51	4544
2026-01-16 22:32:21.87	62.22	24.90	-40.2	-42.0	19.5	0.00e+00	0	40	0	0	51	4551
2026-01-16 22:32:23.07	62.53	24.99	-40.5	-42.2	19.3	0.00e+00	0	39	0	0	51	4701
2026-01-16 22:32:23.93	62.75	25.06	-40.5	-42.3	19.3	0.00e+00	0	40	0	0	51	4723
2026-01-16 22:32:25.06	63.04	25.15	-40.5	-42.3	19.3	0.00e+00	0	40	0	0	51	4733
2026-01-16 22:32:25.92	63.26	25.21	-40.6	-42.3	19.2	0.00e+00	0	40	0	0	51	4758
2026-01-16 22:32:27.05	63.56	25.30	-40.3	-42.0	19.6	0.00e+00	0	40	0	0	51	4564
2026-01-16 22:32:27.90	63.78	25.36	-40.2	-41.9	19.7	0.00e+00	0	40	0	0	51	4522
2026-01-16 22:32:29.04	64.08	25.45	-40.0	-41.7	19.9	0.00e+00	0	39	0	0	51	4422
2026-01-16 22:32:29.90	64.31	25.51	-40.1	-41.8	19.8	0.00e+00	0	40	0	0	51	4455
2026-01-16 22:32:31.03	64.61	25.59	-39.9	-41.6	19.9	0.00e+00	0	39	0	0	51	4378
2026-01-16 22:32:31.89	64.83	25.66	-40.1	-41.8	19.8	0.00e+00	0	40	0	0	51	4449
2026-01-16 22:32:33.02	65.14	25.74	-40.0	-41.7	19.8	0.00e+00	0	39	0	0	51	4415
2026-01-16 22:32:33.88	65.37	25.80	-40.1	-41.8	19.8	0.00e+00	0	40	0	0	51	4471
2026-01-16 22:32:35.01	65.67	25.88	-40.1	-41.8	19.8	0.00e+00	0	40	0	0	51	4452
2026-01-16 22:32:35.86	65.90	25.95	-40.1	-41.8	19.8	0.00e+00	0	40	0	0	51	4456
2026-01-16 22:32:37.00	66.21	26.03	-40.1	-41.8	19.8	0.00e+00	0	39	0	0	51	4488
2026-01-16 22:32:37.85	66.45	26.09	-40.0	-41.7	19.9	0.00e+00	0	40	0	0	51	4439
2026-01-16 22:32:38.99	66.76	26.17	-39.9	-41.5	20.0	0.00e+00	0	40	0	0	51	4336
2026-01-16 22:32:39.84	66.99	26.23	-39.8	-41.5	20.0	0.00e+00	0	40	0	0	51	4316
2026-01-16 22:32:40.98	67.31	26.31	-39.9	-41.6	19.9	0.00e+00	0	40	0	0	51	4387
2026-01-16 22:32:41.83	67.55	26.36	-39.9	-41.6	19.9	0.00e+00	0	39	0	0	51	4382
2026-01-16 22:32:42.97	67.86	26.44	-40.0	-41.7	19.8	0.00e+00	0	40	0	0	51	4427
2026-01-16 22:32:43.82	68.10	26.50	-39.9	-41.6	19.9	0.00e+00	0	40	0	0	51	4381
2026-01-16 22:32:44.95	68.42	26.57	-40.0	-41.7	19.9	0.00e+00	0	40	0	0	51	4402
2026-01-16 22:32:45.80	68.66	26.63	-40.0	-41.6	19.9	0.00e+00	0	40	0	0	51	4387
2026-01-16 22:32:46.94	68.99	26.71	-39.8	-41.5	20.1	0.00e+00	0	40	0	0	51	4304
2026-01-16 22:32:47.79	69.23	26.76	-39.8	-41.5	20.1	0.00e+00	0	40	0	0	51	4315
2026-01-16 22:32:48.93	69.55	26.84	-39.8	-41.4	20.1	0.00e+00	0	40	0	0	51	4271
2026-01-16 22:32:49.78	69.80	26.89	-39.8	-41.5	20.0	0.00e+00	0	40	0	0	51	4319
2026-01-16 22:32:50.92	70.13	26.96	-40.0	-41.7	19.9	0.00e+00	0	40	0	0	51	4394
2026-01-16 22:32:51.77	70.37	27.02	-40.0	-41.7	19.8	0.00e+00	0	40	0	0	51	4426
2026-01-16 22:32:52.91	70.71	27.09	-40.0	-41.7	19.9	0.00e+00	0	40	0	0	51	4427
2026-01-16 22:32:53.76	70.95	27.14	-39.9	-41.6	20.0	0.00e+00	0	40	0	0	51	4372
2026-01-16 22:32:54.90	71.29	27.21	-39.7	-41.4	20.2	0.00e+00	0	40	0	0	51	4253
2026-01-16 22:32:55.78	71.55	27.26	-39.8	-41.4	20.1	0.00e+00	0	40	0	0	51	4287
2026-01-16 22:32:57.09	71.93	27.34	-39.9	-41.6	20.0	0.00e+00	0	40	0	0	51	4350
2026-01-16 22:32:57.80	72.15	27.38	-40.0	-41.7	19.9	0.00e+00	0	40	0	0	51	4419
2026-01-16 22:32:59.29	72.59	27.47	-40.1	-41.8	19.8	0.00e+00	0	40	0	0	51	4452
2026-01-16 22:33:00.00	72.80	27.51	-40.0	-41.7	19.8	0.00e+00	0	40	0	0	51	4428
2026-01-16 22:33:01.28	73.19	27.58	-40.0	-41.7	19.8	0.00e+00	0	40	0	0	51	4440
2026-01-16 22:33:02.02	73.41	27.63	-40.0	-41.7	19.9	0.00e+00	0	40	0	0	51	4408
2026-01-16 22:33:03.30	73.79	27.70	-40.0	-41.7	19.9	0.00e+00	0	40	0	0	51	4409
2026-01-16 22:33:04.01	74.01	27.74	-40.1	-41.8	19.9	0.00e+00	0	40	0	0	51	4456
2026-01-16 22:33:05.28	74.40	27.80	-40.1	-41.8	19.8	0.00e+00	0	40	0	0	51	4475
2026-01-16 22:33:06.00	74.62	27.84	-40.2	-42.0	19.7	0.00e+00	0	40	0	0	51	4546
2026-01-16 22:33:07.28	75.01	27.91	-40.3	-42.0	19.6	0.00e+00	0	40	0	0	51	4579
2026-01-16 22:33:07.99	75.23	27.95	-40.3	-42.0	19.6	0.00e+00	0	39	0	0	51	4596
2026-01-16 22:33:09.27	75.62	28.01	-40.2	-41.9	19.7	0.00e+00	0	40	0	0	51	4539
2026-01-16 22:33:10.00	75.85	28.05	-40.2	-41.9	19.7	0.00e+00	0	40	0	0	51	4545
2026-01-16 22:33:11.27	76.24	28.11	-40.2	-41.9	19.7	0.00e+00	0	39	0	0	51	4531
2026-01-16 22:33:12.11	76.50	28.15	-40.2	-41.9	19.7	0.00e+00	0	40	0	0	51	4511
2026-01-16 22:33:13.25	76.86	28.20	-40.3	-42.0	19.7	0.00e+00	0	40	0	0	51	4569
2026-01-16 22:33:14.29	77.18	28.25	-40.3	-42.0	19.6	0.00e+00	0	40	0	0	51	4594
2026-01-16 22:33:15.46	77.55	28.31	-40.2	-42.0	19.7	0.00e+00	0	40	0	0	51	4553
2026-01-16 22:33:16.33	77.82	28.35	-40.1	-41.9	19.8	0.00e+00	0	39	0	0	51	4496
2026-01-16 22:33:17.46	78.18	28.40	-40.1	-41.8	19.8	0.00e+00	0	40	0	0	51	4483
2026-01-16 22:33:18.31	78.45	28.43	-40.2	-41.9	19.7	0.00e+00	0	40	0	0	51	4526
2026-01-16 22:33:19.45	78.81	28.48	-40.2	-41.9	19.7	0.00e+00	0	40	0	0	51	4539
2026-01-16 22:33:20.31	79.08	28.52	-40.2	-41.9	19.8	0.00e+00	0	40	0	0	51	4517
2026-01-16 22:33:21.44	79.45	28.56	-40.2	-42.0	19.8	0.00e+00	0	40	0	0	51	4553
2026-01-16 22:33:22.29	79.72	28.60	-40.2	-41.9	19.8	0.00e+00	0	40	0	0	51	4504
2026-01-16 22:33:23.43	80.08	28.64	-40.2	-42.0	19.8	0.00e+00	0	40	0	0	51	4557
2026-01-16 22:33:24.28	80.36	28.67	-40.2	-42.0	19.7	0.00e+00	0	40	0	0	51	4558
2026-01-16 22:33:25.42	80.72	28.72	-40.3	-42.0	19.6	0.00e+00	0	40	0	0	51	4591
2026-01-16 22:33:26.27	81.00	28.75	-40.4	-42.1	19.6	0.00e+00	0	40	0	0	51	4642
2026-01-16 22:33:27.41	81.37	28.79	-40.5	-42.2	19.5	0.00e+00	0	40	0	0	51	4703
2026-01-16 22:33:28.26	81.64	28.82	-40.4	-42.2	19.5	0.00e+00	0	40	0	0	51	4660
2026-01-16 22:33:29.40	82.01	28.85	-40.4	-42.2	19.5	0.00e+00	0	40	0	0	51	4685
2026-01-16 22:33:30.25	82.29	28.88	-40.4	-42.1	19.5	0.00e+00	0	40	0	0	51	4650
2026-01-16 22:33:31.50	82.70	28.92	-40.2	-41.9	19.7	0.00e+00	0	40	0	0	51	4523
2026-01-16 22:33:32.35	82.97	28.95	-40.2	-42.0	19.6	0.00e+00	0	40	0	0	51	4566
2026-01-16 22:33:33.49	83.35	28.98	-40.3	-42.1	19.5	0.00e+00	0	40	0	0	51	4636
2026-01-16 22:33:34.34	83.63	29.00	-40.3	-42.1	19.6	0.00e+00	0	40	0	0	51	4631
2026-01-16 22:33:35.48	84.00	29.04	-40.1	-41.9	19.8	0.00e+00	0	40	0	0	51	4505
2026-01-16 22:33:36.33	84.28	29.06	-40.1	-41.8	19.9	0.00e+00	0	40	0	0	51	4491
2026-01-16 22:33:37.67	84.72	29.09	-40.1	-41.8	19.9	0.00e+00	0	40	0	0	51	4464
2026-01-16 22:33:38.38	84.96	29.11	-40.1	-41.8	19.8	0.00e+00	0	40	0	0	51	4472
2026-01-16 22:33:39.67	85.39	29.14	-40.2	-41.9	19.7	0.00e+00	0	40	0	0	51	4537
2026-01-16 22:33:40.39	85.62	29.16	-40.3	-42.0	19.6	0.00e+00	0	40	0	0	51	4591
2026-01-16 22:33:41.67	86.05	29.18	-40.5	-42.3	19.5	0.00e+00	0	40	0	0	51	4721
2026-01-16 22:33:42.48	86.32	29.20	-40.4	-42.2	19.5	0.00e+00	0	40	0	0	51	4660
2026-01-16 22:33:43.61	86.69	29.22	-40.2	-41.9	19.7	0.00e+00	0	40	0	0	51	4528
2026-01-16 22:33:44.64	87.04	29.24	-40.2	-41.9	19.7	0.00e+00	0	40	0	0	51	4522
2026-01-16 22:33:45.63	87.37	29.26	-40.2	-42.0	19.6	0.00e+00	0	40	0	0	51	4547
2026-01-16 22:33:46.83	87.77	29.28	-40.2	-41.9	19.6	0.00e+00	0	40	0	0	51	4542
2026-01-16 22:33:47.70	88.06	29.29	-40.2	-41.9	19.6	0.00e+00	0	40	0	0	51	4539
2026-01-16 22:33:49.03	88.50	29.31	-40.1	-41.9	19.7	0.00e+00	0	40	0	0	51	4502
2026-01-16 22:33:49.74	88.74	29.32	-40.1	-41.9	19.7	0.00e+00	0	40	0	0	51	4506
2026-01-16 22:33:51.21	89.23	29.33	-40.1	-41.8	19.7	0.00e+00	0	40	0	0	51	4487
2026-01-16 22:33:51.92	89.47	29.34	-40.1	-41.8	19.7	0.00e+00	0	40	0	0	51	4477
2026-01-16 22:33:53.20	89.90	29.35	-40.1	-41.9	19.6	0.00e+00	0	40	0	0	51	4506
2026-01-16 22:33:53.92	90.14	29.36	-40.1	-41.8	19.7	0.00e+00	0	40	0	0	51	4471
2026-01-16 22:33:55.20	90.57	29.37	-39.9	-41.6	20.0	0.00e+00	0	40	0	0	51	4345
2026-01-16 22:33:55.91	90.81	29.37	-39.9	-41.6	20.0	0.00e+00	0	40	0	0	51	4363
2026-01-16 22:33:57.19	91.24	29.38	-40.0	-41.7	19.8	0.00e+00	0	40	0	0	51	4439
2026-01-16 22:33:57.92	91.49	29.38	-40.3	-42.0	19.6	0.00e+00	0	40	0	0	51	4565
2026-01-16 22:33:59.20	91.92	29.39	-40.4	-42.1	19.5	0.00e+00	0	39	0	0	51	4644
2026-01-16 22:33:59.91	92.16	29.39	-40.4	-42.1	19.6	0.00e+00	0	40	0	0	51	4621
2026-01-16 22:34:01.19	92.59	29.39	-40.4	-42.2	19.5	0.00e+00	0	40	0	0	51	4679
2026-01-16 22:34:02.02	92.87	29.39	-40.5	-42.3	19.4	0.00e+00	0	40	0	0	51	4720
2026-01-16 22:34:03.16	93.25	29.39	-40.3	-42.0	19.6	0.00e+00	0	40	0	0	51	4579
2026-01-16 22:34:04.19	93.60	29.39	-40.3	-42.0	19.7	0.00e+00	0	40	0	0	51	4567
2026-01-16 22:34:05.36	93.99	29.38	-40.4	-42.2	19.6	0.00e+00	0	40	0	0	51	4676
2026-01-16 22:34:06.21	94.28	29.38	-40.6	-42.3	19.4	0.00e+00	0	40	0	0	51	4757
2026-01-16 22:34:07.60	94.74	29.37	-40.5	-42.3	19.4	0.00e+00	0	40	0	0	51	4735
2026-01-16 22:34:08.31	94.98	29.37	-40.6	-42.3	19.4	0.00e+00	0	40	0	0	51	4746
2026-01-16 22:34:09.83	95.49	29.35	-40.5	-42.3	19.4	0.00e+00	0	40	0	0	51	4722
2026-01-16 22:34:10.54	95.73	29.35	-40.4	-42.2	19.5	0.00e+00	0	40	0	0	51	4676
2026-01-16 22:34:11.82	96.16	29.34	-40.4	-42.2	19.5	0.00e+00	0	40	0	0	51	4689
2026-01-16 22:34:12.55	96.41	29.33	-40.4	-42.2	19.5	0.00e+00	0	40	0	0	51	4659
2026-01-16 22:34:13.83	96.83	29.31	-40.4	-42.2	19.5	0.00e+00	0	40	0	0	51	4686
2026-01-16 22:34:14.55	97.08	29.30	-40.4	-42.2	19.5	0.00e+00	0	40	0	0	51	4668
2026-01-16 22:34:15.83	97.50	29.28	-40.5	-42.2	19.5	0.00e+00	0	40	0	0	51	4703
2026-01-16 22:34:16.54	97.74	29.27	-40.5	-42.3	19.5	0.00e+00	0	40	0	0	51	4722
2026-01-16 22:34:17.82	98.17	29.25	-40.3	-42.0	19.7	0.00e+00	0	40	0	0	51	4576
2026-01-16 22:34:18.58	98.42	29.24	-40.3	-42.0	19.7	0.00e+00	0	40	0	0	51	4571
2026-01-16 22:34:19.86	98.85	29.21	-40.4	-42.2	19.6	0.00e+00	0	40	0	0	51	4652
2026-01-16 22:34:20.57	99.09	29.20	-40.4	-42.2	19.5	0.00e+00	0	40	0	0	51	4671
2026-01-16 22:34:21.84	99.51	29.17	-40.2	-42.0	19.8	0.00e+00	0	40	0	0	51	4551
2026-01-16 22:34:22.55	99.74	29.16	-40.2	-41.9	19.8	0.00e+00	0	40	0	0	51	4516
2026-01-16 22:34:23.83	100.17	29.13	-40.2	-41.9	19.8	0.00e+00	0	40	0	0	51	4530
2026-01-16 22:34:24.56	100.41	29.11	-40.3	-42.0	19.7	0.00e+00	0	40	0	0	51	4596
2026-01-16 22:34:25.84	100.83	29.08	-40.4	-42.1	19.6	0.00e+00	0	40	0	0	51	4622
2026-01-16 22:34:26.55	101.07	29.06	-40.3	-42.0	19.7	0.00e+00	0	40	0	0	51	4564
2026-01-16 22:34:27.82	101.49	29.03	-40.3	-42.0	19.6	0.00e+00	0	40	0	0	51	4589
2026-01-16 22:34:28.55	101.73	29.01	-40.2	-41.9	19.8	0.00e+00	0	40	0	0	51	4510
2026-01-16 22:34:29.83	102.15	28.97	-40.2	-41.9	19.8	0.00e+00	0	40	0	0	51	4508
2026-01-16 22:34:30.56	102.39	28.95	-40.2	-42.0	19.7	0.00e+00	0	40	0	0	51	4552
2026-01-16 22:34:31.84	102.81	28.91	-40.3	-42.0	19.6	0.00e+00	0	40	0	0	51	4597
2026-01-16 22:34:32.55	103.04	28.89	-40.3	-42.0	19.7	0.00e+00	0	40	0	0	51	4561
2026-01-16 22:34:33.83	103.46	28.85	-40.1	-41.8	19.8	0.00e+00	0	40	0	0	51	4462
2026-01-16 22:34:34.55	103.69	28.83	-40.0	-41.7	19.9	0.00e+00	0	40	0	0	51	4406
2026-01-16 22:34:35.83	104.11	28.78	-40.0	-41.7	19.9	0.00e+00	0	40	0	0	51	4403
2026-01-16 22:34:36.56	104.34	28.76	-40.0	-41.7	19.9	0.00e+00	0	40	0	0	51	4407
2026-01-16 22:34:37.84	104.76	28.71	-40.1	-41.8	19.7	0.00e+00	0	40	0	0	51	4489
2026-01-16 22:34:38.63	105.01	28.68	-40.2	-41.9	19.6	0.00e+00	0	40	0	0	51	4516
2026-01-16 22:34:39.84	105.40	28.63	-40.3	-42.1	19.5	0.00e+00	0	40	0	0	51	4604
2026-01-16 22:34:40.69	105.68	28.60	-40.3	-42.0	19.5	0.00e+00	0	40	0	0	51	4589
2026-01-16 22:34:41.83	106.04	28.56	-40.3	-42.0	19.6	0.00e+00	0	40	0	0	51	4571
2026-01-16 22:34:42.88	106.38	28.51	-40.3	-42.0	19.5	0.00e+00	0	40	0	0	51	4576
2026-01-16 22:34:43.85	106.69	28.47	-40.3	-42.1	19.4	0.00e+00	0	40	0	0	51	4601
2026-01-16 22:34:44.85	107.00	28.43	-40.3	-42.0	19.5	0.00e+00	0	40	0	0	51	4575
2026-01-16 22:34:45.84	107.32	28.39	-40.2	-42.0	19.6	0.00e+00	0	40	0	0	51	4564
2026-01-16 22:34:46.84	107.63	28.34	-40.2	-42.0	19.6	0.00e+00	0	40	0	0	51	4561
2026-01-16 22:34:47.83	107.95	28.30	-40.2	-41.9	19.6	0.00e+00	0	40	0	0	51	4536
2026-01-16 22:34:48.83	108.26	28.25	-40.2	-42.0	19.6	0.00e+00	0	40	0	0	51	4555
2026-01-16 22:34:49.82	108.57	28.20	-40.2	-41.9	19.7	0.00e+00	0	40	0	0	51	4515
2026-01-16 22:34:50.81	108.88	28.16	-40.1	-41.8	19.7	0.00e+00	0	40	0	0	51	4477
2026-01-16 22:34:51.81	109.19	28.11	-40.2	-41.9	19.7	0.00e+00	0	40	0	0	51	4536
2026-01-16 22:34:52.84	109.51	28.06	-40.1	-41.9	19.7	0.00e+00	0	40	0	0	51	4503
2026-01-16 22:34:53.86	109.83	28.01	-40.1	-41.8	19.8	0.00e+00	0	40	0	0	51	4492
2026-01-16 22:34:54.86	110.14	27.96	-40.2	-41.9	19.8	0.00e+00	0	40	0	0	51	4529
2026-01-16 22:34:55.85	110.44	27.90	-40.2	-41.9	19.7	0.00e+00	0	40	0	0	51	4538
2026-01-16 22:34:56.84	110.75	27.85	-40.1	-41.9	19.8	0.00e+00	0	40	0	0	51	4496
2026-01-16 22:34:57.84	111.05	27.80	-40.2	-41.9	19.8	0.00e+00	0	40	0	0	51	4515
2026-01-16 22:34:58.83	111.36	27.75	-40.3	-42.1	19.6	0.00e+00	0	40	0	0	51	4602
2026-01-16 22:34:59.83	111.66	27.69	-40.1	-41.8	19.8	0.00e+00	0	40	0	0	51	4469
2026-01-16 22:35:00.82	111.96	27.64	-40.1	-41.9	19.7	0.00e+00	0	40	0	0	51	4500
2026-01-16 22:35:01.82	112.26	27.58	-40.1	-41.8	19.8	0.00e+00	0	40	0	0	51	4486
2026-01-16 22:35:02.81	112.56	27.52	-40.0	-41.7	19.9	0.00e+00	0	40	0	0	51	4399
2026-01-16 22:35:03.81	112.86	27.47	-39.8	-41.5	20.1	0.00e+00	0	40	0	0	51	4303
2026-01-16 22:35:04.81	113.16	27.41	-39.9	-41.6	20.1	0.00e+00	0	40	0	0	51	4352
2026-01-16 22:35:05.80	113.46	27.35	-39.9	-41.6	20.0	0.00e+00	0	40	0	0	51	4371
2026-01-16 22:35:06.79	113.75	27.29	-40.0	-41.7	19.9	0.00e+00	0	40	0	0	51	4423
2026-01-16 22:35:07.79	114.05	27.23	-40.2	-41.9	19.8	0.00e+00	0	40	0	0	51	4514
2026-01-16 22:35:08.78	114.34	27.17	-40.1	-41.8	19.9	0.00e+00	0	40	0	0	51	4453
2026-01-16 22:35:09.79	114.63	27.11	-40.0	-41.8	19.9	0.00e+00	0	40	0	0	51	4443
2026-01-16 22:35:10.79	114.93	27.04	-40.0	-41.7	19.9	0.00e+00	0	40	0	0	51	4435
2026-01-16 22:35:11.78	115.21	26.98	-40.0	-41.7	19.9	0.00e+00	0	40	0	0	51	4411
2026-01-16 22:35:12.85	115.52	26.91	-39.9	-41.6	19.9	0.00e+00	0	40	0	0	51	4369
2026-01-16 22:35:13.74	115.78	26.86	-39.9	-41.6	19.9	0.00e+00	0	40	0	0	51	4374
2026-01-16 22:35:14.88	116.11	26.78	-39.9	-41.6	19.9	0.00e+00	0	40	0	0	51	4377
2026-01-16 22:35:15.73	116.35	26.73	-40.0	-41.6	19.9	0.00e+00	0	40	0	0	51	4384
2026-01-16 22:35:16.87	116.68	26.65	-40.0	-41.7	19.9	0.00e+00	0	40	0	0	51	4427
2026-01-16 22:35:17.72	116.92	26.59	-40.0	-41.7	19.9	0.00e+00	0	40	0	0	51	4407
2026-01-16 22:35:18.86	117.24	26.52	-40.1	-41.7	19.9	0.00e+00	0	40	0	0	51	4438
2026-01-16 22:35:19.72	117.49	26.46	-40.1	-41.7	19.8	0.00e+00	0	40	0	0	51	4441
2026-01-16 22:35:20.86	117.81	26.38	-40.2	-41.9	19.6	0.00e+00	0	40	0	0	51	4522
2026-01-16 22:35:21.71	118.05	26.32	-40.3	-42.0	19.5	0.00e+00	0	40	0	0	51	4570
2026-01-16 22:35:22.84	118.36	26.24	-40.1	-41.8	19.6	0.00e+00	0	40	0	0	51	4491
2026-01-16 22:35:23.70	118.60	26.18	-40.1	-41.8	19.7	0.00e+00	0	40	0	0	51	4478
2026-01-16 22:35:24.83	118.91	26.10	-40.1	-41.9	19.7	0.00e+00	0	40	0	0	51	4496
2026-01-16 22:35:25.68	119.14	26.04	-40.0	-41.7	19.9	0.00e+00	0	40	0	0	51	4401
2026-01-16 22:35:26.90	119.48	25.96	-39.9	-41.5	20.1	0.00e+00	0	40	0	0	51	4339
2026-01-16 22:35:27.76	119.71	25.89	-39.9	-41.5	20.1	0.00e+00	0	40	0	0	51	4332
2026-01-16 22:35:28.89	120.02	25.81	-40.0	-41.7	19.9	0.00e+00	0	40	0	0	51	4413
2026-01-16 22:35:29.75	120.25	25.75	-40.0	-41.7	19.9	0.00e+00	0	40	0	0	51	4431
2026-01-16 22:35:30.88	120.56	25.67	-40.0	-41.7	19.9	0.00e+00	0	40	0	0	51	4431
2026-01-16 22:35:31.73	120.78	25.60	-40.0	-41.7	19.9	0.00e+00	0	40	0	0	51	4417
2026-01-16 22:35:32.87	121.09	25.52	-40.0	-41.7	19.8	0.00e+00	0	40	0	0	51	4418
2026-01-16 22:35:33.72	121.31	25.45	-40.0	-41.7	19.8	0.00e+00	0	40	0	0	51	4438
2026-01-16 22:35:34.86	121.61	25.37	-40.0	-41.7	19.9	0.00e+00	0	40	0	0	51	4414
2026-01-16 22:35:35.71	121.84	25.30	-39.9	-41.6	19.9	0.00e+00	0	40	0	0	51	4389
2026-01-16 22:35:36.85	122.14	25.22	-39.8	-41.5	20.1	0.00e+00	0	40	0	0	51	4316
2026-01-16 22:35:37.70	122.36	25.15	-39.7	-41.3	20.2	0.00e+00	0	40	0	0	51	4224
2026-01-16 22:35:38.84	122.65	25.07	-39.6	-41.2	20.3	0.00e+00	0	40	0	0	51	4183
2026-01-16 22:35:39.69	122.87	25.00	-39.5	-41.1	20.4	0.00e+00	0	40	0	0	51	4130
2026-01-16 22:35:40.83	123.16	24.91	-39.5	-41.2	20.3	0.00e+00	0	40	0	0	50	4409
2026-01-16 22:35:41.68	123.38	24.85	-39.7	-41.4	20.1	0.00e+00	0	40	0	0	50	4529
2026-01-16 22:35:42.82	123.67	24.76	-39.8	-41.5	20.0	0.00e+00	0	40	0	0	50	4575
2026-01-16 22:35:43.67	123.89	24.69	-39.9	-41.6	20.0	0.00e+00	0	40	0	0	50	4611
2026-01-16 22:35:44.87	124.19	24.59	-39.8	-41.5	20.1	0.00e+00	0	40	0	0	50	4574
2026-01-16 22:35:45.73	124.40	24.53	-39.7	-41.4	20.2	0.00e+00	0	40	0	0	50	4527
2026-01-16 22:35:46.93	124.70	24.43	-39.8	-41.5	20.1	0.00e+00	0	40	0	0	50	4554
2026-01-16 22:35:47.78	124.91	24.36	-39.8	-41.5	20.1	0.00e+00	0	40	0	0	50	4559
2026-01-16 22:35:48.92	125.19	24.27	-40.0	-41.7	19.9	0.00e+00	0	40	0	0	50	4669
2026-01-16 22:35:49.77	125.40	24.20	-40.0	-41.8	19.8	0.00e+00	0	40	0	0	50	4707
2026-01-16 22:35:50.91	125.68	24.11	-40.0	-41.8	19.8	0.00e+00	0	40	0	0	50	4708
2026-01-16 22:35:51.79	125.90	24.04	-40.0	-41.8	19.7	0.00e+00	0	40	0	0	50	4715
2026-01-16 22:35:53.10	126.21	23.93	-40.0	-41.7	19.8	0.00e+00	0	40	0	0	50	4678
2026-01-16 22:35:53.81	126.38	23.87	-40.1	-41.8	19.7	0.00e+00	0	40	0	0	50	4724
2026-01-16 22:35:55.09	126.69	23.77	-40.0	-41.8	19.7	0.00e+00	0	40	0	0	50	4712
2026-01-16 22:35:55.81	126.86	23.71	-40.0	-41.8	19.8	0.00e+00	0	40	0	0	50	4717
2026-01-16 22:35:57.09	127.16	23.61	-40.0	-41.8	19.8	0.00e+00	0	40	0	0	50	4738
2026-01-16 22:35:57.80	127.33	23.55	-40.1	-41.9	19.7	0.00e+00	0	40	0	0	50	4765
2026-01-16 22:35:59.08	127.63	23.44	-39.9	-41.7	20.0	0.00e+00	0	40	0	0	50	4658
2026-01-16 22:35:59.91	127.82	23.37	-40.0	-41.8	19.9	0.00e+00	0	40	0	0	50	4719
2026-01-16 22:36:01.05	128.09	23.28	-39.8	-41.5	20.0	0.00e+00	0	40	0	0	50	4594
2026-01-16 22:36:01.90	128.29	23.21	-39.8	-41.6	20.0	0.00e+00	0	40	0	0	50	4611
2026-01-16 22:36:03.04	128.55	23.11	-39.9	-41.7	19.9	0.00e+00	0	40	0	0	50	4653
2026-01-16 22:36:03.89	128.74	23.04	-39.9	-41.6	20.0	0.00e+00	0	40	0	0	50	4636
2026-01-16 22:36:05.03	129.00	22.94	-39.8	-41.5	20.1	0.00e+00	0	40	0	0	50	4555
2026-01-16 22:36:05.88	129.19	22.87	-39.8	-41.5	20.0	0.00e+00	0	40	0	0	50	4568
2026-01-16 22:36:07.02	129.45	22.77	-39.7	-41.4	20.1	0.00e+00	0	40	0	0	50	4513
2026-01-16 22:36:07.87	129.64	22.70	-39.8	-41.5	20.0	0.00e+00	0	40	0	0	50	4566
2026-01-16 22:36:09.08	129.91	22.60	-39.6	-41.3	20.2	0.00e+00	0	40	0	0	50	4473
2026-01-16 22:36:09.94	130.10	22.53	-39.6	-41.3	20.2	0.00e+00	0	40	0	0	50	4449
2026-01-16 22:36:11.14	130.36	22.42	-39.7	-41.3	20.2	0.00e+00	0	40	0	0	50	4469
2026-01-16 22:36:11.99	130.55	22.35	-39.7	-41.3	20.2	0.00e+00	0	40	0	0	50	4493
2026-01-16 22:36:13.13	130.80	22.25	-39.7	-41.3	20.2	0.00e+00	0	40	0	0	50	4485
2026-01-16 22:36:13.98	130.98	22.18	-39.9	-41.6	19.9	0.00e+00	0	40	0	0	50	4644
2026-01-16 22:36:15.12	131.22	22.08	-40.0	-41.7	19.8	0.00e+00	0	40	0	0	50	4670
2026-01-16 22:36:16.05	131.42	22.00	-40.1	-41.8	19.8	0.00e+00	0	40	0	0	50	4717
2026-01-16 22:36:17.04	131.63	21.92	-40.0	-41.7	19.8	0.00e+00	0	40	0	0	50	4705
2026-01-16 22:36:18.04	131.85	21.83	-40.1	-41.8	19.7	0.00e+00	0	40	0	0	50	4755
2026-01-16 22:36:19.03	132.06	21.75	-40.1	-41.9	19.7	0.00e+00	0	40	0	0	50	4770
2026-01-16 22:36:20.03	132.26	21.66	-40.1	-41.9	19.5	0.00e+00	0	40	0	0	50	4783
2026-01-16 22:36:21.02	132.47	21.58	-40.1	-41.8	19.7	0.00e+00	0	40	0	0	50	4735
2026-01-16 22:36:22.02	132.68	21.49	-40.1	-41.8	19.7	0.00e+00	0	40	0	0	50	4723
2026-01-16 22:36:23.01	132.88	21.40	-39.9	-41.7	19.8	0.00e+00	0	40	0	0	50	4652
2026-01-16 22:36:24.01	133.09	21.32	-39.8	-41.5	19.9	0.00e+00	0	40	0	0	50	4585
2026-01-16 22:36:25.00	133.29	21.23	-39.8	-41.5	19.9	0.00e+00	0	40	0	0	50	4592
2026-01-16 22:36:26.00	133.49	21.15	-40.0	-41.7	19.7	0.00e+00	0	40	0	0	50	4670
2026-01-16 22:36:26.99	133.69	21.06	-40.0	-41.7	19.7	0.00e+00	0	40	0	0	50	4689
2026-01-16 22:36:28.03	133.90	20.97	-40.0	-41.7	19.7	0.00e+00	0	40	0	0	50	4703
2026-01-16 22:36:29.03	134.10	20.88	-39.9	-41.7	19.8	0.00e+00	0	40	0	0	50	4656
2026-01-16 22:36:30.02	134.30	20.80	-40.1	-41.8	19.7	0.00e+00	0	40	0	0	50	4738
2026-01-16 22:36:31.02	134.49	20.71	-40.2	-41.9	19.6	0.00e+00	0	40	0	0	51	4523
2026-01-16 22:36:32.01	134.69	20.62	-40.2	-41.9	19.6	0.00e+00	0	40	0	0	51	4521
2026-01-16 22:36:33.00	134.88	20.54	-40.2	-41.9	19.6	0.00e+00	0	40	0	0	51	4543
2026-01-16 22:36:34.00	135.08	20.45	-40.0	-41.8	19.8	0.00e+00	0	40	0	0	51	4448
2026-01-16 22:36:34.99	135.27	20.37	-40.1	-41.8	19.7	0.00e+00	0	40	0	0	51	4484
2026-01-16 22:36:35.99	135.46	20.28	-40.2	-41.9	19.6	0.00e+00	0	40	0	0	51	4521
2026-01-16 22:36:36.98	135.65	20.19	-40.2	-41.9	19.6	0.00e+00	0	40	0	0	51	4514
2026-01-16 22:36:37.98	135.84	20.10	-40.2	-41.9	19.6	0.00e+00	0	40	0	0	51	4526
2026-01-16 22:36:38.97	136.03	20.02	-40.2	-41.9	19.6	0.00e+00	0	40	0	0	51	4528
2026-01-16 22:36:39.96	136.21	19.93	-40.1	-41.8	19.7	0.00e+00	0	40	0	0	51	4493
2026-01-16 22:36:40.96	136.40	19.85	-40.2	-41.9	19.6	0.00e+00	0	40	0	0	51	4521
2026-01-16 22:36:41.95	136.58	19.76	-40.3	-42.1	19.5	0.00e+00	0	40	0	0	51	4613
2026-01-16 22:36:42.96	136.77	19.67	-40.2	-42.0	19.6	0.00e+00	0	40	0	0	51	4555
2026-01-16 22:36:43.97	136.95	19.58	-40.3	-42.1	19.5	0.00e+00	0	40	0	0	51	4603
2026-01-16 22:36:44.97	137.14	19.50	-40.5	-42.2	19.3	0.00e+00	0	40	0	0	51	4689
2026-01-16 22:36:46.01	137.33	19.41	-40.6	-42.4	19.2	0.00e+00	0	40	0	0	51	4772
2026-01-16 22:36:46.96	137.50	19.32	-40.5	-42.3	19.2	0.00e+00	0	40	0	0	52	4475
2026-01-16 22:36:47.95	137.68	19.24	-40.4	-42.2	19.3	0.00e+00	0	40	0	0	52	4427
2026-01-16 22:36:48.95	137.85	19.15	-40.4	-42.2	19.2	0.00e+00	0	40	0	0	52	4430
2026-01-16 22:36:49.95	138.03	19.06	-40.4	-42.2	19.2	0.00e+00	0	40	0	0	52	4426
2026-01-16 22:36:50.94	138.21	18.98	-40.4	-42.2	19.2	0.00e+00	0	40	0	0	52	4441
2026-01-16 22:36:51.93	138.38	18.89	-40.4	-42.2	19.2	0.00e+00	0	40	0	0	52	4433
2026-01-16 22:36:52.93	138.56	18.81	-40.2	-42.0	19.4	0.00e+00	0	40	0	0	52	4315
2026-01-16 22:36:53.92	138.73	18.72	-40.3	-42.0	19.3	0.00e+00	0	40	0	0	52	4322
2026-01-16 22:36:54.92	138.90	18.63	-40.2	-42.0	19.4	0.00e+00	0	40	0	0	52	4309
2026-01-16 22:36:55.91	139.07	18.55	-40.3	-42.0	19.3	0.00e+00	0	40	0	0	52	4333
2026-01-16 22:36:56.91	139.24	18.46	-40.2	-42.0	19.4	0.00e+00	0	40	0	0	52	4309
2026-01-16 22:36:57.90	139.41	18.37	-40.1	-41.8	19.5	0.00e+00	0	40	0	0	52	4235
2026-01-16 22:36:58.90	139.58	18.29	-40.2	-41.9	19.5	0.00e+00	0	40	0	0	52	4268
2026-01-16 22:36:59.90	139.75	18.20	-40.1	-41.9	19.5	0.00e+00	0	40	0	0	52	4259
2026-01-16 22:37:00.97	139.93	18.11	-40.2	-41.9	19.5	0.00e+00	0	40	0	0	52	4265
2026-01-16 22:37:01.85	140.07	18.03	-40.2	-41.9	19.5	0.00e+00	0	40	0	0	52	4273
2026-01-16 22:37:02.99	140.26	17.94	-40.2	-42.0	19.5	0.00e+00	0	40	0	0	52	4302
2026-01-16 22:37:03.84	140.40	17.86	-40.2	-42.0	19.4	0.00e+00	0	40	0	0	52	4306
2026-01-16 22:37:04.98	140.59	17.76	-40.1	-41.8	19.6	0.00e+00	0	40	0	0	52	4226
2026-01-16 22:37:05.83	140.73	17.69	-40.1	-41.9	19.6	0.00e+00	0	40	0	0	52	4253
2026-01-16 22:37:06.97	140.91	17.59	-40.0	-41.7	19.7	0.00e+00	0	40	0	0	52	4180
2026-01-16 22:37:07.82	141.05	17.52	-40.0	-41.7	19.7	0.00e+00	0	40	0	0	52	4185
2026-01-16 22:37:08.96	141.23	17.42	-40.0	-41.8	19.6	0.00e+00	0	40	0	0	52	4200
2026-01-16 22:37:09.81	141.37	17.35	-40.2	-41.9	19.5	0.00e+00	0	40	0	0	52	4272
2026-01-16 22:37:10.95	141.55	17.25	-40.2	-41.9	19.4	0.00e+00	0	40	0	0	52	4291
2026-01-16 22:37:11.80	141.68	17.18	-40.2	-42.0	19.4	0.00e+00	0	40	0	0	52	4305
2026-01-16 22:37:12.94	141.86	17.08	-40.2	-42.0	19.4	0.00e+00	0	40	0	0	52	4304
2026-01-16 22:37:13.79	141.99	17.01	-40.3	-42.1	19.3	0.00e+00	0	41	0	0	52	4343
2026-01-16 22:37:14.93	142.17	16.91	-40.3	-42.1	19.3	0.00e+00	0	40	0	0	52	4371
2026-01-16 22:37:15.80	142.30	16.84	-40.2	-42.0	19.5	0.00e+00	0	40	0	0	52	4293
2026-01-16 22:37:17.11	142.50	16.73	-40.3	-42.1	19.4	0.00e+00	0	40	0	0	52	4355
2026-01-16 22:37:17.82	142.61	16.67	-40.2	-42.0	19.4	0.00e+00	0	40	0	0	52	4323
2026-01-16 22:37:19.10	142.80	16.56	-40.1	-41.9	19.5	0.00e+00	0	40	0	0	52	4260
2026-01-16 22:37:19.84	142.92	16.50	-40.1	-41.8	19.6	0.00e+00	0	40	0	0	52	4232
2026-01-16 22:37:21.12	143.11	16.39	-40.1	-41.9	19.5	0.00e+00	0	40	0	0	52	4264
2026-01-16 22:37:21.85	143.22	16.33	-40.2	-42.0	19.4	0.00e+00	0	40	0	0	52	4334
2026-01-16 22:37:23.12	143.41	16.22	-40.1	-41.9	19.5	0.00e+00	0	40	0	0	52	4282
2026-01-16 22:37:23.90	143.52	16.15	-40.2	-42.0	19.4	0.00e+00	0	40	0	0	52	4328
2026-01-16 22:37:25.18	143.71	16.05	-40.3	-42.1	19.3	0.00e+00	0	41	0	0	52	4374
2026-01-16 22:37:25.89	143.81	15.99	-40.4	-42.2	19.2	0.00e+00	0	40	0	0	52	4413
2026-01-16 22:37:27.17	144.00	15.88	-40.5	-42.3	19.1	0.00e+00	0	40	0	0	52	4482
2026-01-16 22:37:27.88	144.10	15.82	-40.6	-42.4	19.0	0.00e+00	0	41	0	0	52	4520
2026-01-16 22:37:29.16	144.28	15.71	-40.7	-42.5	18.9	0.00e+00	0	40	0	0	52	4577
2026-01-16 22:37:29.87	144.38	15.65	-40.7	-42.5	19.0	0.00e+00	0	40	0	0	52	4551
2026-01-16 22:37:31.15	144.57	15.55	-40.8	-42.6	18.9	0.00e+00	0	40	0	0	52	4625
2026-01-16 22:37:32.14	144.71	15.47	-40.8	-42.6	18.9	0.00e+00	0	40	0	0	52	4639
2026-01-16 22:37:33.14	144.85	15.38	-40.8	-42.6	18.9	0.00e+00	0	40	0	0	52	4604
2026-01-16 22:37:34.44	145.03	15.27	-40.8	-42.6	18.9	0.00e+00	0	40	0	0	52	4639
2026-01-16 22:37:35.19	145.13	15.21	-40.9	-42.7	18.8	0.00e+00	0	40	0	0	52	4674
2026-01-16 22:37:36.78	145.35	15.08	-40.9	-42.7	18.8	0.00e+00	0	40	0	0	52	4699
2026-01-16 22:37:37.37	145.43	15.03	-40.9	-42.8	18.7	0.00e+00	0	40	0	0	52	4725
2026-01-16 22:37:38.93	145.64	14.90	-41.1	-43.0	18.6	0.00e+00	0	40	0	0	52	4816
2026-01-16 22:37:39.64	145.74	14.85	-41.0	-42.9	18.7	0.00e+00	0	40	0	0	52	4761
2026-01-16 22:37:40.93	145.91	14.74	-41.1	-43.0	18.6	0.00e+00	0	40	0	0	52	4836
2026-01-16 22:37:41.64	146.01	14.68	-41.1	-43.0	18.6	0.00e+00	0	41	0	0	52	4818
2026-01-16 22:37:42.92	146.18	14.58	-41.0	-42.8	18.7	0.00e+00	0	40	0	0	52	4741
2026-01-16 22:37:43.66	146.28	14.52	-40.9	-42.8	18.7	0.00e+00	0	40	0	0	52	4714
2026-01-16 22:37:45.02	146.46	14.41	-40.9	-42.8	18.7	0.00e+00	0	40	0	0	52	4729
2026-01-16 22:37:45.73	146.55	14.35	-40.9	-42.7	18.7	0.00e+00	0	40	0	0	52	4696
2026-01-16 22:37:47.07	146.72	14.24	-41.1	-43.0	18.5	0.00e+00	0	40	0	0	52	4834
2026-01-16 22:37:47.78	146.82	14.18	-41.1	-43.0	18.5	0.00e+00	0	40	0	0	52	4816
2026-01-16 22:37:49.12	146.99	14.07	-41.2	-43.1	18.3	0.00e+00	0	40	0	0	53	4642
2026-01-16 22:37:49.83	147.08	14.01	-41.3	-43.2	18.2	0.00e+00	0	40	0	0	53	4689
2026-01-16 22:37:51.16	147.25	13.91	-41.4	-43.3	18.1	0.00e+00	0	40	0	0	53	4745
2026-01-16 22:37:51.87	147.34	13.85	-41.4	-43.4	18.1	0.00e+00	0	40	0	0	53	4792
2026-01-16 22:37:53.15	147.50	13.75	-41.5	-43.5	18.0	0.00e+00	0	40	0	0	53	4816
2026-01-16 22:37:53.86	147.59	13.69	-41.5	-43.5	18.0	0.00e+00	0	40	0	0	53	4815
2026-01-16 22:37:55.14	147.75	13.59	-41.3	-43.2	18.3	0.00e+00	0	41	0	0	53	4667
2026-01-16 22:37:55.87	147.84	13.53	-41.3	-43.2	18.3	0.00e+00	0	40	0	0	53	4691
2026-01-16 22:37:57.15	148.00	13.43	-41.4	-43.3	18.2	0.00e+00	0	41	0	0	53	4737
2026-01-16 22:37:57.86	148.09	13.37	-41.4	-43.3	18.2	0.00e+00	0	40	0	0	53	4736
2026-01-16 22:37:59.14	148.24	13.27	-41.4	-43.3	18.2	0.00e+00	0	40	0	0	53	4716
2026-01-16 22:37:59.85	148.33	13.21	-41.2	-43.1	18.4	0.00e+00	0	40	0	0	53	4621
2026-01-16 22:38:01.13	148.48	13.11	-41.0	-42.9	18.6	0.00e+00	0	40	0	0	53	4515
2026-01-16 22:38:02.01	148.59	13.04	-41.2	-43.0	18.4	0.00e+00	0	40	0	0	53	4584
2026-01-16 22:38:03.15	148.73	12.95	-41.1	-43.0	18.4	0.00e+00	0	40	0	0	53	4586
2026-01-16 22:38:04.19	148.85	12.87	-41.3	-43.2	18.3	0.00e+00	0	40	0	0	53	4657
2026-01-16 22:38:05.36	148.99	12.78	-41.3	-43.2	18.3	0.00e+00	0	40	0	0	53	4665
2026-01-16 22:38:06.21	149.09	12.71	-41.4	-43.3	18.2	0.00e+00	0	41	0	0	53	4713
2026-01-16 22:38:07.35	149.22	12.62	-41.4	-43.3	18.2	0.00e+00	0	40	0	0	53	4716
2026-01-16 22:38:08.20	149.32	12.55	-41.4	-43.3	18.1	0.00e+00	0	40	0	0	53	4755
2026-01-16 22:38:09.34	149.45	12.47	-41.5	-43.4	18.1	0.00e+00	0	40	0	0	53	4805
2026-01-16 22:38:10.19	149.55	12.40	-41.5	-43.4	18.0	0.00e+00	0	40	0	0	53	4804
2026-01-16 22:38:11.69	149.72	12.28	-41.6	-43.5	18.0	0.00e+00	0	40	0	0	53	4848
2026-01-16 22:38:12.40	149.80	12.23	-41.3	-43.2	18.2	0.00e+00	0	40	0	0	53	4691
2026-01-16 22:38:13.68	149.95	12.13	-41.3	-43.2	18.2	0.00e+00	0	40	0	0	53	4687
2026-01-16 22:38:14.40	150.03	12.07	-41.3	-43.3	18.2	0.00e+00	0	40	0	0	53	4710
2026-01-16 22:38:15.68	150.17	11.97	-41.2	-43.1	18.3	0.00e+00	0	40	0	0	53	4624
2026-01-16 22:38:16.41	150.26	11.92	-41.2	-43.1	18.3	0.00e+00	0	40	0	0	53	4620
2026-01-16 22:38:17.69	150.40	11.82	-41.2	-43.2	18.3	0.00e+00	0	40	0	0	53	4654
2026-01-16 22:38:18.48	150.49	11.76	-41.2	-43.2	18.2	0.00e+00	0	40	0	0	53	4652
2026-01-16 22:38:19.66	150.62	11.67	-41.3	-43.2	18.2	0.00e+00	0	40	0	0	53	4692
2026-01-16 22:38:20.52	150.71	11.60	-41.3	-43.2	18.2	0.00e+00	0	41	0	0	53	4666
2026-01-16 22:38:21.65	150.83	11.52	-41.3	-43.2	18.2	0.00e+00	0	40	0	0	53	4704
2026-01-16 22:38:22.73	150.95	11.43	-41.4	-43.4	18.1	0.00e+00	0	40	0	0	53	4769
2026-01-16 22:38:23.58	151.04	11.37	-41.5	-43.4	18.0	0.00e+00	0	40	0	0	53	4785
2026-01-16 22:38:24.72	151.16	11.28	-41.5	-43.4	18.0	0.00e+00	0	40	0	0	53	4785
2026-01-16 22:38:25.81	151.28	11.20	-41.5	-43.5	18.0	0.00e+00	0	40	0	0	53	4822
2026-01-16 22:38:26.82	151.39	11.12	-41.5	-43.4	18.0	0.00e+00	0	40	0	0	53	4795
2026-01-16 22:38:27.97	151.51	11.04	-41.6	-43.6	17.8	0.00e+00	0	41	0	0	53	4911
2026-01-16 22:38:28.84	151.60	10.97	-41.5	-43.5	18.0	0.00e+00	0	40	0	0	53	4829
2026-01-16 22:38:30.13	151.73	10.87	-41.5	-43.5	17.9	0.00e+00	0	40	0	0	53	4854
2026-01-16 22:38:30.85	151.81	10.82	-41.7	-43.7	17.8	0.00e+00	0	40	0	0	53	4932
2026-01-16 22:38:32.12	151.94	10.73	-41.8	-43.8	17.7	0.00e+00	0	41	0	0	54	4727
2026-01-16 22:38:32.84	152.02	10.67	-41.7	-43.8	17.7	2.73e-04	0	41	0	0	54	4717
2026-01-16 22:38:34.11	152.15	10.58	-41.7	-43.7	17.7	0.00e+00	0	40	0	0	54	4704
2026-01-16 22:38:34.84	152.22	10.52	-41.9	-43.9	17.6	0.00e+00	0	40	0	0	54	4779
2026-01-16 22:38:36.12	152.35	10.43	-41.9	-43.9	17.6	0.00e+00	0	40	0	0	54	4792
2026-01-16 22:38:36.89	152.43	10.37	-41.8	-43.8	17.6	0.00e+00	0	40	0	0	54	4746
2026-01-16 22:38:38.17	152.56	10.28	-41.9	-44.0	17.1	0.00e+00	0	40	0	0	54	4818
2026-01-16 22:38:38.88	152.63	10.22	-41.9	-44.0	17.4	0.00e+00	0	40	0	0	54	4832
2026-01-16 22:38:40.16	152.75	10.13	-42.0	-44.1	17.4	0.00e+00	0	40	0	0	54	4875
2026-01-16 22:38:40.89	152.83	10.08	-41.8	-43.9	17.5	0.00e+00	0	41	0	0	54	4793
2026-01-16 22:38:42.17	152.95	9.98	-41.8	-43.9	17.5	0.00e+00	0	40	0	0	54	4776
2026-01-16 22:38:43.10	153.04	9.91	-41.8	-43.8	17.6	0.00e+00	0	41	0	0	54	4743
2026-01-16 22:38:44.40	153.17	9.82	-41.8	-43.8	17.5	0.00e+00	0	41	0	0	54	4753
2026-01-16 22:38:45.11	153.24	9.77	-41.7	-43.8	17.6	0.00e+00	0	41	0	0	54	4725
2026-01-16 22:38:46.74	153.40	9.65	-41.8	-43.9	17.5	0.00e+00	0	41	0	0	54	4787
2026-01-16 22:38:47.30	153.45	9.61	-41.9	-43.9	17.4	0.00e+00	0	40	0	0	54	4813
2026-01-16 22:38:49.01	153.61	9.48	-41.9	-43.9	17.5	0.00e+00	0	41	0	0	54	4799
2026-01-16 22:38:49.58	153.67	9.44	-41.9	-43.9	17.4	0.00e+00	0	41	0	0	54	4812
2026-01-16 22:38:51.28	153.83	9.32	-41.7	-43.7	17.7	0.00e+00	0	40	0	0	54	4661
2026-01-16 22:38:51.85	153.88	9.28	-41.7	-43.7	17.7	0.00e+00	0	41	0	0	54	4678
2026-01-16 22:38:53.56	154.04	9.16	-41.6	-43.5	17.8	0.00e+00	0	41	0	0	54	4598
2026-01-16 22:38:54.13	154.09	9.12	-41.6	-43.6	17.8	0.00e+00	0	40	0	0	54	4608
2026-01-16 22:38:55.88	154.26	8.99	-47.8	-53.5	8.7	7.00e-07	0	41	0	0	66	7273
2026-01-16 22:38:56.45	154.31	8.95	-49.8	-62.4	3.8	1.49e+00	0	41	104	0	70	16100
2026-01-16 22:38:58.15	154.46	8.83	-50.1	-63.4	3.8	1.49e+00	0	40	104	0	70	17906
2026-01-16 22:38:58.86	154.53	8.78	-50.3	-63.3	3.8	1.49e+00	0	41	104	0	71	16863
2026-01-16 22:39:00.15	154.65	8.69	-49.9	-63.6	3.8	1.49e+00	0	40	104	0	71	17298
2026-01-16 22:39:01.06	154.73	8.62	-50.3	-63.6	3.8	1.49e+00	0	41	104	0	71	17304
2026-01-16 22:39:02.06	154.82	8.55	-50.5	-63.6	3.8	1.49e+00	0	40	104	0	71	17335
2026-01-16 22:39:03.05	154.91	8.48	-50.6	-63.6	3.8	1.49e+00	0	41	104	0	71	17422
2026-01-16 22:39:04.04	154.99	8.42	-50.6	-63.7	3.8	1.49e+00	0	41	104	0	71	17526
2026-01-16 22:39:05.04	155.08	8.34	-50.6	-63.7	3.8	1.49e+00	0	40	104	0	71	17577
2026-01-16 22:39:06.03	155.17	8.28	-50.5	-63.7	3.8	1.49e+00	0	41	104	0	71	17618
2026-01-16 22:39:07.02	155.26	8.21	-50.7	-63.7	3.8	1.49e+00	0	41	104	0	72	16642
2026-01-16 22:39:08.02	155.34	8.14	-50.7	-63.7	3.8	1.49e+00	0	41	104	0	72	16640
2026-01-16 22:39:09.01	155.43	8.07	-50.7	-63.7	3.8	1.49e+00	0	41	104	0	72	16651
2026-01-16 22:39:10.00	155.51	8.00	-50.8	-63.8	3.8	1.49e+00	0	41	104	0	72	16721
2026-01-16 22:39:11.00	155.60	7.93	-50.6	-63.8	3.8	1.49e+00	0	41	104	0	72	16748
2026-01-16 22:39:11.99	155.68	7.86	-50.5	-63.8	3.8	1.49e+00	0	41	104	0	72	16721
2026-01-16 22:39:12.98	155.77	7.79	-50.8	-63.8	3.8	1.49e+00	0	41	104	0	72	16749
2026-01-16 22:39:13.97	155.85	7.73	-50.7	-63.8	3.8	1.49e+00	0	40	104	0	72	16775
2026-01-16 22:39:14.97	155.94	7.66	-50.8	-63.8	3.8	1.49e+00	0	40	104	0	72	16741
2026-01-16 22:39:15.96	156.02	7.59	-50.7	-63.7	3.8	1.49e+00	0	40	104	0	72	16688
2026-01-16 22:39:16.95	156.10	7.52	-50.6	-63.8	3.8	1.49e+00	0	40	104	0	72	16730
2026-01-16 22:39:17.95	156.19	7.45	-50.5	-63.8	3.8	1.49e+00	0	40	104	0	72	16723
2026-01-16 22:39:18.94	156.27	7.39	-50.2	-63.8	3.8	1.49e+00	0	40	104	0	72	16734
2026-01-16 22:39:19.93	156.35	7.32	-50.3	-63.7	3.8	1.49e+00	0	40	104	0	72	16632
2026-01-16 22:39:20.93	156.43	7.25	-50.3	-63.7	3.8	1.49e+00	0	41	104	0	72	16562
2026-01-16 22:39:21.92	156.51	7.18	-50.3	-63.7	3.8	1.49e+00	0	41	104	0	72	16607
2026-01-16 22:39:22.91	156.59	7.12	-50.3	-63.7	3.8	1.49e+00	0	41	104	0	72	16544
2026-01-16 22:39:23.91	156.68	7.05	-50.3	-63.7	3.8	1.49e+00	0	41	104	0	72	16556
2026-01-16 22:39:24.90	156.76	6.98	-50.3	-63.7	3.8	1.49e+00	0	40	104	0	72	16592
2026-01-16 22:39:25.89	156.84	6.91	-50.3	-63.7	3.8	1.49e+00	0	40	104	0	72	16589
2026-01-16 22:39:26.88	156.91	6.85	-50.3	-63.7	3.8	1.49e+00	0	41	104	0	72	16526
2026-01-16 22:39:27.88	156.99	6.78	-50.3	-63.7	3.8	1.49e+00	0	40	104	0	72	16603
2026-01-16 22:39:28.87	157.07	6.72	-50.3	-63.7	3.8	1.49e+00	0	41	104	0	72	16575
2026-01-16 22:39:29.86	157.15	6.65	-50.3	-63.7	3.8	1.49e+00	0	41	104	0	72	16569
2026-01-16 22:39:30.86	157.23	6.58	-50.3	-63.7	3.8	1.49e+00	0	41	104	0	72	16581
2026-01-16 22:39:31.85	157.31	6.52	-50.3	-63.7	3.8	1.49e+00	0	41	104	0	72	16594
2026-01-16 22:39:32.84	157.38	6.45	-50.3	-63.7	3.8	1.49e+00	0	41	104	0	72	16535
2026-01-16 22:39:33.83	157.46	6.39	-50.3	-63.7	3.8	1.49e+00	0	41	104	0	72	16551
2026-01-16 22:39:34.83	157.54	6.32	-50.3	-63.7	3.8	1.49e+00	0	41	104	0	72	16624
2026-01-16 22:39:35.82	157.62	6.25	-50.3	-63.7	3.8	1.49e+00	0	41	104	0	72	16580
2026-01-16 22:39:36.82	157.69	6.19	-50.3	-63.7	3.8	1.49e+00	0	41	104	0	72	16596
2026-01-16 22:39:37.81	157.77	6.12	-50.3	-63.7	3.8	1.49e+00	0	41	104	0	72	16616
2026-01-16 22:39:38.80	157.84	6.06	-50.3	-63.7	3.8	1.49e+00	0	41	104	0	72	16585
2026-01-16 22:39:39.80	157.92	5.99	-50.3	-63.7	3.8	1.49e+00	0	41	104	0	72	16563
2026-01-16 22:39:40.79	157.99	5.93	-50.3	-63.7	3.8	1.49e+00	0	41	104	0	72	16568
2026-01-16 22:39:41.78	158.07	5.86	-50.3	-63.7	3.8	1.49e+00	0	41	104	0	72	16536
2026-01-16 22:39:42.78	158.14	5.80	-50.3	-63.7	3.8	1.49e+00	0	41	104	0	72	16530
2026-01-16 22:39:43.77	158.22	5.73	-50.3	-63.7	3.8	1.49e+00	0	41	104	0	72	16589
2026-01-16 22:39:44.76	158.29	5.67	-50.3	-63.7	3.8	1.49e+00	0	41	104	0	72	16600
2026-01-16 22:39:45.76	158.36	5.60	-50.3	-63.7	3.8	1.49e+00	0	41	104	0	72	16593
2026-01-16 22:39:46.75	158.44	5.54	-50.3	-63.7	3.8	1.49e+00	0	41	104	0	72	16527
2026-01-16 22:39:47.74	158.51	5.48	-50.3	-63.7	3.8	1.49e+00	0	41	104	0	72	16582
2026-01-16 22:39:48.74	158.58	5.41	-50.3	-63.7	3.8	1.49e+00	0	41	104	0	72	16567
2026-01-16 22:39:49.73	158.65	5.35	-50.3	-63.7	3.8	1.49e+00	0	41	104	0	72	16506
2026-01-16 22:39:50.72	158.72	5.29	-50.3	-63.7	3.8	1.49e+00	0	41	104	0	72	16559
2026-01-16 22:39:51.72	158.80	5.22	-50.3	-63.7	3.8	1.49e+00	0	41	104	0	72	16577
2026-01-16 22:39:52.71	158.87	5.16	-50.3	-63.7	3.8	1.49e+00	0	41	104	0	72	16513
2026-01-16 22:39:53.70	158.94	5.09	-50.3	-63.7	3.8	1.49e+00	0	41	104	0	72	16557
2026-01-16 22:39:54.70	159.01	5.03	-50.3	-63.7	3.8	1.49e+00	0	41	104	0	72	16552
2026-01-16 22:39:55.69	159.08	4.97	-50.3	-63.7	3.8	1.49e+00	0	41	104	0	72	16528

#Closed at: 2026-01-16 22:39:56
#Recorded file [0 MB]: D:/Data/31040_260117_012805.dat