passes_logs/2026/01/16/T1/T1__20260116_110841_NOAA_20_JPSS-1_rec.log

#Pass ID: 20260116_110841_NOAA 20 (JPSS-1)
#Satellite: NOAA 20 (JPSS-1)
#Configuration: NOAA 20
#almurnet v.1.7.20251203
#Start time: 2026-01-16 11:08:42

#Version: 2.0.20230620
#Station: T1
#Location: 37.570604 lon 55.790049 lat
#TLE: 1 43013U 17073A   26015.89389188  .00000026  00000+0  33113-4 0  9999
#TLE: 2 43013  98.7636 316.8238 0001460  37.8997 322.2282 14.19536128422860

#Time	Az	El	Level	Level2	SNR	BER	BlckErr	Temp	State	Recorded	gain1	gain2
2026-01-16 11:08:42.95	199.63	5.07	-49.4	-65.2	3.8	1.49e+00	0	41	0	0	70	22226
2026-01-16 11:08:43.94	199.70	5.13	-49.4	-65.2	3.8	1.49e+00	0	41	104	0	70	22176
2026-01-16 11:08:44.93	199.77	5.20	-49.4	-65.2	3.8	1.49e+00	0	41	104	0	70	22251
2026-01-16 11:08:45.93	199.84	5.26	-49.4	-65.3	3.8	1.49e+00	0	41	104	0	70	22277
2026-01-16 11:08:46.92	199.91	5.33	-49.4	-65.2	3.8	1.49e+00	0	41	104	0	70	22235
2026-01-16 11:08:47.91	199.98	5.39	-49.4	-65.3	3.8	1.49e+00	0	41	104	0	70	22311
2026-01-16 11:08:48.91	200.05	5.46	-49.3	-65.2	3.8	1.49e+00	0	41	104	0	70	22206
2026-01-16 11:08:49.90	200.12	5.52	-49.4	-65.2	3.8	1.49e+00	0	41	104	0	70	22229
2026-01-16 11:08:50.89	200.19	5.58	-49.4	-65.2	3.8	1.49e+00	0	41	104	0	70	22243
2026-01-16 11:08:51.89	200.26	5.65	-49.4	-65.2	3.8	1.49e+00	0	41	104	0	70	22157
2026-01-16 11:08:52.88	200.33	5.71	-49.4	-65.2	3.8	1.49e+00	0	41	104	0	70	22235
2026-01-16 11:08:53.87	200.40	5.78	-49.4	-65.2	3.8	1.49e+00	0	41	104	0	70	22080
2026-01-16 11:08:54.87	200.47	5.85	-49.4	-65.2	3.8	1.49e+00	0	41	104	0	70	22073
2026-01-16 11:08:55.86	200.55	5.91	-49.4	-65.1	3.8	1.49e+00	0	41	104	0	70	21808
2026-01-16 11:08:56.85	200.62	5.98	-49.4	-65.0	3.8	1.49e+00	0	41	104	0	70	21696
2026-01-16 11:08:57.85	200.69	6.04	-49.4	-65.0	3.8	1.49e+00	0	41	104	0	70	21527
2026-01-16 11:08:58.84	200.77	6.11	-49.4	-64.9	3.8	1.49e+00	0	41	104	0	70	21414
2026-01-16 11:08:59.83	200.84	6.17	-49.4	-64.9	3.8	1.49e+00	0	41	104	0	70	21456
2026-01-16 11:09:00.83	200.91	6.24	-49.4	-64.9	3.8	1.49e+00	0	41	104	0	70	21442
2026-01-16 11:09:01.82	200.99	6.31	-49.4	-65.0	3.8	1.49e+00	0	41	104	0	70	21522
2026-01-16 11:09:02.81	201.06	6.37	-49.4	-65.0	3.8	1.49e+00	0	41	104	0	70	21611
2026-01-16 11:09:03.81	201.14	6.44	-49.4	-65.0	3.8	1.49e+00	0	41	104	0	70	21638
2026-01-16 11:09:04.80	201.21	6.51	-49.4	-65.0	3.8	1.49e+00	0	41	104	0	70	21678
2026-01-16 11:09:05.79	201.29	6.57	-49.4	-65.0	3.8	1.49e+00	0	41	104	0	70	21699
2026-01-16 11:09:06.79	201.36	6.64	-49.4	-65.0	3.8	1.49e+00	0	42	104	0	70	21544
2026-01-16 11:09:07.78	201.44	6.71	-49.3	-65.0	3.8	1.49e+00	0	42	104	0	70	21607
2026-01-16 11:09:08.77	201.52	6.77	-49.3	-65.0	3.8	1.49e+00	0	42	104	0	70	21630
2026-01-16 11:09:09.76	201.59	6.84	-49.3	-64.9	3.8	1.49e+00	0	42	104	0	70	21432
2026-01-16 11:09:10.76	201.67	6.91	-49.3	-64.9	3.8	1.49e+00	0	42	104	0	70	21496
2026-01-16 11:09:11.75	201.75	6.97	-49.3	-65.0	3.8	1.49e+00	0	42	104	0	70	21610
2026-01-16 11:09:12.74	201.82	7.04	-49.4	-65.0	3.8	1.49e+00	0	42	104	0	70	21754
2026-01-16 11:09:13.74	201.90	7.11	-49.4	-65.1	3.8	1.49e+00	0	42	104	0	70	21909
2026-01-16 11:09:14.73	201.98	7.18	-49.4	-65.1	3.8	1.49e+00	0	42	104	0	70	21979
2026-01-16 11:09:15.72	202.06	7.25	-49.4	-65.1	3.8	1.49e+00	0	42	104	0	70	21822
2026-01-16 11:09:16.72	202.14	7.31	-49.4	-64.9	3.8	1.49e+00	0	42	104	0	70	21355
2026-01-16 11:09:17.71	202.22	7.38	-49.3	-64.4	3.8	1.49e+00	0	42	104	0	70	20136
2026-01-16 11:09:18.70	202.30	7.45	-49.3	-63.9	3.8	1.49e+00	0	42	104	0	70	19166
2026-01-16 11:09:19.70	202.38	7.52	-49.3	-63.6	3.8	1.49e+00	0	42	104	0	70	18450
2026-01-16 11:09:20.69	202.46	7.59	-49.3	-63.6	3.8	1.49e+00	0	42	104	0	70	18405
2026-01-16 11:09:21.68	202.54	7.66	-49.3	-64.0	3.8	1.49e+00	0	42	104	0	70	19233
2026-01-16 11:09:22.67	202.62	7.73	-49.4	-64.8	3.8	1.49e+00	0	42	104	0	70	21225
2026-01-16 11:09:23.67	202.70	7.80	-49.4	-65.2	3.8	1.49e+00	0	42	104	0	70	22172
2026-01-16 11:09:24.66	202.79	7.86	-49.3	-63.8	3.8	1.49e+00	0	42	104	0	70	18740
2026-01-16 11:09:25.65	202.87	7.93	-49.1	-60.6	4.6	1.46e+00	0	42	0	0	70	12974
2026-01-16 11:09:26.65	202.95	8.00	-48.6	-57.5	6.5	6.19e-01	0	42	0	2097152	69	9612
2026-01-16 11:09:27.64	203.04	8.07	-48.1	-55.0	8.8	5.73e-02	0	42	0	3145728	68	7682
2026-01-16 11:09:28.63	203.12	8.14	-47.2	-52.8	11.0	6.05e-03	0	42	0	5242880	66	6678
2026-01-16 11:09:29.63	203.20	8.21	-46.6	-51.2	12.6	5.87e-04	0	42	0	7340032	65	5913
2026-01-16 11:09:30.62	203.29	8.28	-46.1	-50.3	13.6	1.52e-05	0	42	0	9437184	64	5629
2026-01-16 11:09:31.61	203.37	8.35	-45.7	-49.5	14.5	0.00e+00	0	42	0	10485760	63	5413
2026-01-16 11:09:32.61	203.46	8.42	-45.4	-49.0	14.9	0.00e+00	0	42	0	12582912	62	5455
2026-01-16 11:09:33.60	203.54	8.49	-45.3	-48.9	15.1	0.00e+00	0	42	0	14680064	62	5372
2026-01-16 11:09:34.59	203.63	8.56	-45.5	-49.2	14.8	0.00e+00	0	42	0	16777216	62	5534
2026-01-16 11:09:35.59	203.72	8.64	-45.8	-49.7	14.4	7.00e-07	0	42	0	18874368	62	5861
2026-01-16 11:09:36.58	203.80	8.71	-46.3	-50.6	13.3	2.20e-06	0	42	0	19922944	63	6181
2026-01-16 11:09:37.57	203.89	8.78	-46.7	-51.5	12.4	3.28e-05	0	42	0	22020096	64	6481
2026-01-16 11:09:38.57	203.98	8.85	-47.2	-52.8	11.1	8.80e-04	0	42	0	24117248	65	7049
2026-01-16 11:09:39.56	204.07	8.92	-47.7	-54.1	9.7	5.03e-03	0	42	0	26214400	66	7763
2026-01-16 11:09:40.55	204.15	8.99	-48.1	-55.6	8.1	2.57e-02	0	42	0	27262976	66	9227
2026-01-16 11:09:41.55	204.24	9.06	-48.2	-55.8	7.8	1.15e-01	0	42	0	29360128	67	8918
2026-01-16 11:09:42.54	204.33	9.14	-47.3	-52.9	10.7	4.50e-02	0	42	0	31457280	66	6752
2026-01-16 11:09:43.54	204.42	9.21	-48.3	-56.3	7.6	1.07e-04	0	42	0	33554432	67	9489
2026-01-16 11:09:44.53	204.51	9.28	-48.8	-59.0	5.3	8.08e-01	0	43	0	35651584	68	12199
2026-01-16 11:09:45.53	204.60	9.35	-46.5	-50.8	13.0	1.59e-01	0	42	0	36700160	65	5654
2026-01-16 11:09:46.52	204.69	9.43	-45.9	-49.6	14.6	0.00e+00	0	42	0	38797312	63	5519
2026-01-16 11:09:47.52	204.79	9.50	-45.9	-49.7	14.6	0.00e+00	0	42	0	40894464	63	5559
2026-01-16 11:09:48.51	204.88	9.57	-45.8	-49.5	14.7	0.00e+00	0	42	0	42991616	63	5452
2026-01-16 11:09:49.51	204.97	9.64	-45.3	-48.7	15.5	0.00e+00	0	42	0	44040192	62	5273
2026-01-16 11:09:50.50	205.06	9.72	-45.1	-48.5	15.8	0.00e+00	0	42	0	46137344	62	5125
2026-01-16 11:09:51.50	205.16	9.79	-44.8	-47.9	16.3	0.00e+00	0	42	0	48234496	61	5081
2026-01-16 11:09:52.49	205.25	9.86	-44.5	-47.5	16.8	0.00e+00	0	43	0	50331648	61	4845
2026-01-16 11:09:53.48	205.34	9.94	-44.5	-47.5	16.7	0.00e+00	0	42	0	52428800	61	4826
2026-01-16 11:09:54.48	205.44	10.01	-44.5	-47.6	16.7	0.00e+00	0	42	0	53477376	60	5169
2026-01-16 11:09:55.47	205.53	10.09	-44.5	-47.6	16.6	0.00e+00	0	43	0	55574528	60	5167
2026-01-16 11:09:56.47	205.63	10.16	-44.4	-47.3	16.9	0.00e+00	0	42	0	57671680	60	5009
2026-01-16 11:09:57.47	205.73	10.23	-44.3	-47.2	17.0	0.00e+00	0	42	0	59768832	60	4930
2026-01-16 11:09:58.46	205.82	10.31	-44.3	-47.2	16.9	0.00e+00	0	42	0	60817408	60	4937
2026-01-16 11:09:59.45	205.92	10.38	-44.2	-47.0	17.1	0.00e+00	0	42	0	62914560	60	4853
2026-01-16 11:10:00.45	206.02	10.46	-44.1	-46.9	17.2	0.00e+00	0	42	0	65011712	60	4768
2026-01-16 11:10:01.44	206.12	10.53	-44.1	-46.8	17.3	0.00e+00	0	42	0	67108864	60	4753
2026-01-16 11:10:02.44	206.22	10.61	-44.1	-47.0	17.2	0.00e+00	0	42	0	69206016	60	4825
2026-01-16 11:10:03.43	206.31	10.68	-44.1	-47.0	17.2	0.00e+00	0	42	0	70254592	60	4826
2026-01-16 11:10:04.43	206.41	10.76	-44.1	-46.9	17.4	0.00e+00	0	43	0	72351744	60	4770
2026-01-16 11:10:05.42	206.51	10.83	-44.0	-46.8	17.5	0.00e+00	0	43	0	74448896	60	4723
2026-01-16 11:10:06.42	206.61	10.91	-44.0	-46.7	17.5	0.00e+00	0	42	0	76546048	59	4949
2026-01-16 11:10:07.41	206.72	10.99	-43.9	-46.6	17.6	0.00e+00	0	42	0	78643200	59	4894
2026-01-16 11:10:08.41	206.82	11.06	-44.0	-46.6	17.5	0.00e+00	0	43	0	79691776	59	4926
2026-01-16 11:10:09.41	206.92	11.14	-43.9	-46.5	17.6	0.00e+00	0	43	0	81788928	59	4868
2026-01-16 11:10:10.40	207.02	11.21	-43.9	-46.6	17.5	0.00e+00	0	43	0	83886080	59	4897
2026-01-16 11:10:11.40	207.13	11.29	-44.0	-46.6	17.5	0.00e+00	0	42	0	85983232	59	4907
2026-01-16 11:10:12.39	207.23	11.37	-44.0	-46.7	17.5	0.00e+00	0	43	0	87031808	59	4927
2026-01-16 11:10:13.38	207.33	11.44	-44.0	-46.7	17.5	0.00e+00	0	42	0	89128960	59	4936
2026-01-16 11:10:14.38	207.44	11.52	-44.1	-46.7	17.4	0.00e+00	0	43	0	91226112	59	4980
2026-01-16 11:10:15.38	207.54	11.60	-44.0	-46.7	17.4	0.00e+00	0	43	0	93323264	59	4938
2026-01-16 11:10:16.37	207.65	11.68	-44.0	-46.6	17.5	0.00e+00	0	43	0	95420416	59	4888
2026-01-16 11:10:17.36	207.75	11.75	-44.1	-46.8	17.3	0.00e+00	0	43	0	96468992	59	5017
2026-01-16 11:10:18.36	207.86	11.83	-43.9	-46.5	17.6	0.00e+00	0	42	0	98566144	59	4850
2026-01-16 11:10:19.35	207.97	11.91	-43.9	-46.4	17.7	0.00e+00	0	43	0	100663296	59	4810
2026-01-16 11:10:20.34	208.08	11.99	-43.9	-46.4	17.7	0.00e+00	0	43	0	102760448	59	4811
2026-01-16 11:10:21.34	208.19	12.06	-43.9	-46.5	17.7	0.00e+00	0	43	0	103809024	59	4825
2026-01-16 11:10:22.34	208.29	12.14	-43.9	-46.5	17.8	0.00e+00	0	43	0	105906176	59	4836
2026-01-16 11:10:23.33	208.40	12.22	-43.8	-46.3	17.9	0.00e+00	0	43	0	108003328	59	4749
2026-01-16 11:10:24.33	208.51	12.30	-43.8	-46.4	17.8	0.00e+00	0	42	0	110100480	59	4780
2026-01-16 11:10:25.32	208.62	12.38	-43.7	-46.2	18.0	0.00e+00	0	43	0	112197632	59	4703
2026-01-16 11:10:26.31	208.74	12.46	-43.8	-46.3	18.0	0.00e+00	0	43	0	113246208	59	4745
2026-01-16 11:10:27.31	208.85	12.54	-43.8	-46.3	18.0	0.00e+00	0	43	0	115343360	59	4723
2026-01-16 11:10:28.30	208.96	12.61	-43.8	-46.4	17.9	0.00e+00	0	43	0	117440512	59	4761
2026-01-16 11:10:29.30	209.07	12.69	-43.7	-46.2	18.1	0.00e+00	0	43	0	119537664	59	4663
2026-01-16 11:10:30.29	209.19	12.77	-43.7	-46.2	18.1	0.00e+00	0	43	0	120586240	59	4679
2026-01-16 11:10:31.29	209.30	12.85	-43.8	-46.3	18.0	0.00e+00	0	43	0	122683392	59	4733
2026-01-16 11:10:32.28	209.42	12.93	-43.8	-46.3	17.9	0.00e+00	0	42	0	124780544	59	4752
2026-01-16 11:10:33.28	209.53	13.01	-43.6	-46.1	18.1	0.00e+00	0	43	0	126877696	59	4644
2026-01-16 11:10:34.28	209.65	13.09	-43.8	-46.3	18.0	0.00e+00	0	43	0	128974848	59	4724
2026-01-16 11:10:35.27	209.76	13.17	-43.7	-46.2	18.1	0.00e+00	0	43	0	130023424	59	4661
2026-01-16 11:10:36.27	209.88	13.25	-43.7	-46.2	18.1	0.00e+00	0	43	0	132120576	59	4682
2026-01-16 11:10:37.26	210.00	13.33	-43.7	-46.2	18.0	0.00e+00	0	42	0	134217728	59	4704
2026-01-16 11:10:38.26	210.12	13.42	-43.7	-46.2	18.1	0.00e+00	0	43	0	136314880	59	4676
2026-01-16 11:10:39.25	210.24	13.50	-43.7	-46.1	18.2	0.00e+00	0	43	0	137363456	59	4636
2026-01-16 11:10:40.24	210.36	13.58	-43.8	-46.3	18.0	0.00e+00	0	42	0	139460608	59	4720
2026-01-16 11:10:41.24	210.48	13.66	-43.8	-46.3	18.1	0.00e+00	0	43	0	141557760	59	4717
2026-01-16 11:10:42.23	210.60	13.74	-43.9	-46.4	17.9	0.00e+00	0	43	0	143654912	59	4790
2026-01-16 11:10:43.23	210.72	13.82	-43.9	-46.4	17.9	0.00e+00	0	43	0	145752064	59	4796
2026-01-16 11:10:44.22	210.84	13.90	-43.9	-46.4	17.9	0.00e+00	0	43	0	146800640	59	4786
2026-01-16 11:10:45.22	210.97	13.99	-43.9	-46.4	17.9	0.00e+00	0	43	0	148897792	59	4793
2026-01-16 11:10:46.21	211.09	14.07	-44.0	-46.5	17.8	0.00e+00	0	43	0	150994944	59	4844
2026-01-16 11:10:47.21	211.21	14.15	-44.0	-46.6	17.8	0.00e+00	0	43	0	153092096	59	4882
2026-01-16 11:10:48.20	211.34	14.23	-44.0	-46.6	17.8	0.00e+00	0	43	0	154140672	59	4887
2026-01-16 11:10:49.20	211.46	14.31	-44.1	-46.7	17.6	0.00e+00	0	43	0	156237824	59	4962
2026-01-16 11:10:50.19	211.59	14.40	-44.0	-46.6	17.7	0.00e+00	0	43	0	158334976	59	4916
2026-01-16 11:10:51.19	211.72	14.48	-44.1	-46.7	17.7	0.00e+00	0	43	0	160432128	59	4940
2026-01-16 11:10:52.18	211.84	14.56	-44.1	-46.8	17.6	0.00e+00	0	43	0	162529280	59	4990
2026-01-16 11:10:53.17	211.97	14.64	-44.1	-46.7	17.6	0.00e+00	0	43	0	163577856	59	4955
2026-01-16 11:10:54.17	212.10	14.73	-44.2	-46.8	17.6	0.00e+00	0	43	0	165675008	59	5005
2026-01-16 11:10:55.16	212.23	14.81	-44.1	-46.7	17.7	0.00e+00	0	43	0	167772160	59	4943
2026-01-16 11:10:56.16	212.36	14.90	-44.2	-46.8	17.6	0.00e+00	0	43	0	169869312	59	5009
2026-01-16 11:10:57.15	212.49	14.98	-44.1	-46.7	17.7	0.00e+00	0	43	0	170917888	59	4967
2026-01-16 11:10:58.15	212.63	15.06	-44.1	-46.7	17.7	0.00e+00	0	43	0	173015040	59	4945
2026-01-16 11:10:59.14	212.76	15.15	-44.1	-46.7	17.7	0.00e+00	0	43	0	175112192	59	4946
2026-01-16 11:11:00.14	212.89	15.23	-44.0	-46.6	17.7	0.00e+00	0	43	0	177209344	59	4917
2026-01-16 11:11:01.13	213.03	15.32	-44.0	-46.6	17.8	0.00e+00	0	43	0	179306496	59	4889
2026-01-16 11:11:02.12	213.16	15.40	-44.0	-46.5	17.9	0.00e+00	0	43	0	180355072	59	4835
2026-01-16 11:11:03.12	213.30	15.48	-44.0	-46.6	17.8	0.00e+00	0	43	0	182452224	59	4900
2026-01-16 11:11:04.11	213.43	15.57	-44.0	-46.6	17.8	0.00e+00	0	43	0	184549376	59	4887
2026-01-16 11:11:05.11	213.57	15.65	-44.1	-46.7	17.8	0.00e+00	0	43	0	186646528	59	4927
2026-01-16 11:11:06.10	213.71	15.74	-44.1	-46.7	17.7	0.00e+00	0	43	0	187695104	59	4978
2026-01-16 11:11:07.10	213.85	15.82	-44.2	-46.8	17.6	0.00e+00	0	43	0	189792256	59	5035
2026-01-16 11:11:08.09	213.98	15.91	-44.2	-46.8	17.6	0.00e+00	0	43	0	191889408	59	5024
2026-01-16 11:11:09.09	214.13	15.99	-44.2	-46.8	17.6	0.00e+00	0	43	0	193986560	59	5034
2026-01-16 11:11:10.08	214.27	16.08	-44.2	-46.8	17.6	0.00e+00	0	43	0	196083712	59	5028
2026-01-16 11:11:11.08	214.41	16.17	-44.2	-46.8	17.6	0.00e+00	0	43	0	197132288	59	4999
2026-01-16 11:11:12.07	214.55	16.25	-44.3	-46.9	17.5	0.00e+00	0	43	0	199229440	59	5078
2026-01-16 11:11:13.07	214.69	16.34	-44.3	-46.9	17.5	0.00e+00	0	43	0	201326592	59	5092
2026-01-16 11:11:14.06	214.84	16.42	-44.3	-46.9	17.5	0.00e+00	0	43	0	203423744	59	5081
2026-01-16 11:11:15.06	214.98	16.51	-44.2	-46.9	17.5	0.00e+00	0	43	0	204472320	59	5079
2026-01-16 11:11:16.05	215.13	16.60	-44.2	-46.9	17.6	0.00e+00	0	43	0	206569472	59	5048
2026-01-16 11:11:17.05	215.28	16.68	-44.4	-47.0	17.4	0.00e+00	0	43	0	208666624	59	5145
2026-01-16 11:11:18.04	215.42	16.77	-44.2	-46.8	17.6	0.00e+00	0	43	0	210763776	59	5027
2026-01-16 11:11:19.04	215.57	16.86	-44.2	-46.8	17.6	0.00e+00	0	43	0	212860928	59	5031
2026-01-16 11:11:20.03	215.72	16.94	-44.2	-46.8	17.6	0.00e+00	0	43	0	213909504	59	5018
2026-01-16 11:11:21.02	215.87	17.03	-44.3	-46.9	17.5	0.00e+00	0	42	0	216006656	59	5072
2026-01-16 11:11:22.02	216.02	17.12	-44.2	-46.9	17.5	0.00e+00	0	43	0	218103808	59	5067
2026-01-16 11:11:23.01	216.17	17.20	-44.2	-46.9	17.6	0.00e+00	0	43	0	220200960	59	5051
2026-01-16 11:11:24.01	216.32	17.29	-44.0	-46.6	17.8	0.00e+00	0	43	0	221249536	59	4903
2026-01-16 11:11:25.00	216.48	17.38	-43.9	-46.5	18.0	0.00e+00	0	43	0	223346688	59	4821
2026-01-16 11:11:26.00	216.63	17.47	-43.9	-46.4	18.0	0.00e+00	0	43	0	225443840	59	4809
2026-01-16 11:11:26.99	216.79	17.55	-43.8	-46.4	18.1	0.00e+00	0	43	0	227540992	59	4763
2026-01-16 11:11:27.98	216.94	17.64	-43.9	-46.5	17.9	0.00e+00	0	43	0	229638144	59	4829
2026-01-16 11:11:28.98	217.10	17.73	-43.8	-46.3	18.1	0.00e+00	0	43	0	230686720	59	4743
2026-01-16 11:11:29.97	217.25	17.82	-43.8	-46.3	18.1	0.00e+00	0	43	0	232783872	59	4732
2026-01-16 11:11:30.97	217.41	17.91	-43.8	-46.3	18.1	0.00e+00	0	43	0	234881024	59	4740
2026-01-16 11:11:31.96	217.57	17.99	-43.9	-46.4	18.1	0.00e+00	0	43	0	236978176	59	4786
2026-01-16 11:11:32.96	217.73	18.08	-43.8	-46.4	18.1	0.00e+00	0	43	0	238026752	59	4765
2026-01-16 11:11:33.95	217.89	18.17	-43.9	-46.4	18.0	0.00e+00	0	43	0	240123904	59	4806
2026-01-16 11:11:34.95	218.06	18.26	-43.8	-46.4	18.1	0.00e+00	0	43	0	242221056	59	4763
2026-01-16 11:11:35.94	218.22	18.35	-43.9	-46.5	18.0	0.00e+00	0	43	0	244318208	59	4832
2026-01-16 11:11:36.94	218.38	18.44	-43.8	-46.4	18.1	0.00e+00	0	43	0	246415360	59	4760
2026-01-16 11:11:37.93	218.55	18.53	-43.8	-46.4	18.1	0.00e+00	0	43	0	247463936	59	4775
2026-01-16 11:11:38.93	218.72	18.62	-43.9	-46.4	18.1	0.00e+00	0	43	0	249561088	59	4798
2026-01-16 11:11:39.92	218.88	18.70	-43.7	-46.3	18.2	0.00e+00	0	43	0	251658240	59	4719
2026-01-16 11:11:40.91	219.05	18.79	-43.8	-46.3	18.1	0.00e+00	0	43	0	253755392	59	4751
2026-01-16 11:11:41.91	219.22	18.88	-43.9	-46.4	18.1	0.00e+00	0	43	0	254803968	59	4787
2026-01-16 11:11:42.90	219.39	18.97	-43.9	-46.5	18.0	0.00e+00	0	43	0	256901120	59	4818
2026-01-16 11:11:43.90	219.56	19.06	-43.9	-46.4	18.1	0.00e+00	0	43	0	258998272	59	4802
2026-01-16 11:11:44.89	219.73	19.15	-43.8	-46.3	18.1	0.00e+00	0	43	0	261095424	59	4751
2026-01-16 11:11:45.88	219.90	19.24	-43.8	-46.3	18.2	0.00e+00	0	43	0	263192576	59	4744
2026-01-16 11:11:46.88	220.08	19.33	-43.7	-46.2	18.3	0.00e+00	0	43	0	264241152	59	4659
2026-01-16 11:11:47.88	220.25	19.42	-43.7	-46.1	18.3	0.00e+00	0	43	0	266338304	59	4642
2026-01-16 11:11:48.87	220.43	19.51	-43.5	-45.9	18.6	0.00e+00	0	43	0	268435456	59	4512
2026-01-16 11:11:49.87	220.60	19.60	-43.5	-45.9	18.6	0.00e+00	0	43	0	270532608	59	4503
2026-01-16 11:11:50.86	220.78	19.69	-43.4	-45.8	18.7	0.00e+00	0	43	0	271581184	58	4731
2026-01-16 11:11:51.86	220.96	19.78	-43.5	-45.9	18.6	0.00e+00	0	43	0	273678336	58	4770
2026-01-16 11:11:52.85	221.14	19.87	-43.4	-45.7	18.7	0.00e+00	0	43	0	275775488	58	4700
2026-01-16 11:11:53.85	221.32	19.96	-43.3	-45.6	18.8	0.00e+00	0	43	0	277872640	58	4637
2026-01-16 11:11:54.84	221.50	20.05	-43.4	-45.7	18.7	0.00e+00	0	43	0	279969792	58	4693
2026-01-16 11:11:55.84	221.68	20.14	-43.3	-45.6	18.8	0.00e+00	0	43	0	281018368	58	4648
2026-01-16 11:11:56.83	221.87	20.23	-43.3	-45.7	18.8	0.00e+00	0	43	0	283115520	58	4669
2026-01-16 11:11:57.82	222.05	20.32	-43.2	-45.6	18.9	0.00e+00	0	43	0	285212672	58	4605
2026-01-16 11:11:58.82	222.24	20.41	-43.3	-45.7	18.8	0.00e+00	0	43	0	287309824	58	4652
2026-01-16 11:11:59.81	222.42	20.50	-43.2	-45.5	18.9	0.00e+00	0	43	0	288358400	58	4593
2026-01-16 11:12:00.81	222.61	20.59	-43.3	-45.6	18.8	0.00e+00	0	43	0	290455552	58	4629
2026-01-16 11:12:01.80	222.80	20.68	-43.3	-45.6	18.9	0.00e+00	0	43	0	292552704	58	4625
2026-01-16 11:12:02.79	222.99	20.77	-43.3	-45.6	18.8	0.00e+00	0	43	0	294649856	58	4635
2026-01-16 11:12:03.79	223.18	20.86	-43.2	-45.5	18.9	0.00e+00	0	43	0	296747008	58	4597
2026-01-16 11:12:04.78	223.37	20.95	-43.2	-45.5	19.0	0.00e+00	0	43	0	297795584	58	4561
2026-01-16 11:12:05.78	223.57	21.04	-43.1	-45.4	19.0	0.00e+00	0	43	0	299892736	58	4537
2026-01-16 11:12:06.77	223.76	21.13	-43.1	-45.4	19.0	0.00e+00	0	43	0	301989888	58	4537
2026-01-16 11:12:07.76	223.96	21.22	-43.1	-45.4	19.0	0.00e+00	0	43	0	304087040	58	4530
2026-01-16 11:12:08.76	224.16	21.31	-43.1	-45.4	19.1	0.00e+00	0	43	0	305135616	58	4501
2026-01-16 11:12:09.75	224.35	21.40	-43.1	-45.4	19.0	0.00e+00	0	43	0	307232768	58	4523
2026-01-16 11:12:10.75	224.55	21.49	-43.1	-45.4	19.0	0.00e+00	0	43	0	309329920	58	4533
2026-01-16 11:12:11.75	224.75	21.58	-43.0	-45.3	19.2	0.00e+00	0	43	0	311427072	58	4456
2026-01-16 11:12:12.74	224.95	21.67	-42.9	-45.1	19.3	0.00e+00	0	43	0	313524224	57	4635
2026-01-16 11:12:13.73	225.16	21.76	-42.9	-45.2	19.2	0.00e+00	0	43	0	314572800	57	4656
2026-01-16 11:12:14.73	225.36	21.85	-42.9	-45.1	19.3	0.00e+00	0	43	0	316669952	57	4635
2026-01-16 11:12:15.72	225.56	21.94	-43.0	-45.2	19.2	0.00e+00	0	43	0	318767104	57	4694
2026-01-16 11:12:16.72	225.77	22.03	-42.9	-45.2	19.2	0.00e+00	0	43	0	320864256	57	4674
2026-01-16 11:12:17.71	225.98	22.12	-43.0	-45.2	19.2	0.00e+00	0	43	0	322961408	57	4701
2026-01-16 11:12:18.71	226.19	22.21	-42.8	-45.0	19.4	0.00e+00	0	43	0	324009984	57	4574
2026-01-16 11:12:19.70	226.40	22.30	-42.8	-45.1	19.4	0.00e+00	0	43	0	326107136	57	4599
2026-01-16 11:12:20.70	226.61	22.39	-42.8	-45.1	19.4	0.00e+00	0	43	0	328204288	57	4609
2026-01-16 11:12:21.70	226.82	22.48	-42.8	-45.0	19.4	0.00e+00	0	43	0	330301440	57	4568
2026-01-16 11:12:22.69	227.03	22.57	-42.8	-45.0	19.4	0.00e+00	0	43	0	331350016	57	4584
2026-01-16 11:12:23.69	227.25	22.66	-42.8	-45.0	19.4	0.00e+00	0	43	0	333447168	57	4575
2026-01-16 11:12:24.68	227.46	22.75	-42.8	-45.0	19.4	0.00e+00	0	43	0	335544320	57	4574
2026-01-16 11:12:25.68	227.68	22.84	-42.8	-45.0	19.4	0.00e+00	0	43	0	337641472	57	4564
2026-01-16 11:12:26.67	227.90	22.93	-42.6	-44.8	19.6	0.00e+00	0	43	0	339738624	57	4480
2026-01-16 11:12:27.67	228.12	23.02	-42.6	-44.7	19.7	0.00e+00	0	43	0	340787200	57	4438
2026-01-16 11:12:28.66	228.34	23.11	-42.5	-44.7	19.7	0.00e+00	0	43	0	342884352	56	4679
2026-01-16 11:12:29.66	228.56	23.19	-42.6	-44.8	19.6	0.00e+00	0	43	0	344981504	56	4744
2026-01-16 11:12:30.65	228.78	23.28	-42.7	-44.9	19.5	0.00e+00	0	43	0	347078656	56	4801
2026-01-16 11:12:31.65	229.01	23.37	-42.8	-45.1	19.4	0.00e+00	0	43	0	348127232	56	4888
2026-01-16 11:12:32.64	229.23	23.46	-42.9	-45.2	19.2	0.00e+00	0	43	0	350224384	56	4964
2026-01-16 11:12:33.64	229.46	23.55	-43.0	-45.3	19.2	0.00e+00	0	43	0	352321536	56	5002
2026-01-16 11:12:34.63	229.68	23.64	-42.9	-45.2	19.3	0.00e+00	0	43	0	354418688	56	4946
2026-01-16 11:12:35.62	229.91	23.72	-42.8	-45.1	19.3	0.00e+00	0	43	0	356515840	56	4900
2026-01-16 11:12:36.62	230.14	23.81	-42.9	-45.2	19.3	0.00e+00	0	43	0	357564416	56	4957
2026-01-16 11:12:37.62	230.38	23.90	-42.9	-45.2	19.3	0.00e+00	0	43	0	359661568	56	4948
2026-01-16 11:12:38.61	230.61	23.99	-42.9	-45.1	19.3	0.00e+00	0	43	0	361758720	56	4926
2026-01-16 11:12:39.61	230.84	24.07	-42.7	-45.0	19.5	0.00e+00	0	43	0	363855872	56	4830
2026-01-16 11:12:40.60	231.08	24.16	-42.7	-45.0	19.5	0.00e+00	0	43	0	364904448	56	4817
2026-01-16 11:12:41.60	231.32	24.25	-42.7	-44.9	19.5	0.00e+00	0	43	0	367001600	56	4804
2026-01-16 11:12:42.59	231.55	24.33	-42.8	-45.0	19.4	0.00e+00	0	43	0	369098752	56	4836
2026-01-16 11:12:43.59	231.79	24.42	-42.9	-45.1	19.3	0.00e+00	0	43	0	371195904	56	4904
2026-01-16 11:12:44.58	232.03	24.51	-43.0	-45.3	19.2	0.00e+00	0	43	0	373293056	56	4987
2026-01-16 11:12:45.57	232.27	24.59	-43.0	-45.3	19.1	0.00e+00	0	43	0	374341632	56	5034
2026-01-16 11:12:46.57	232.52	24.68	-43.1	-45.5	19.0	0.00e+00	0	43	0	376438784	56	5110
2026-01-16 11:12:47.56	232.76	24.76	-43.1	-45.4	19.1	0.00e+00	0	43	0	378535936	56	5050
2026-01-16 11:12:48.56	233.01	24.85	-43.1	-45.5	19.0	0.00e+00	0	43	0	380633088	56	5102
2026-01-16 11:12:49.55	233.25	24.93	-43.2	-45.6	18.9	0.00e+00	0	43	0	381681664	57	4875
2026-01-16 11:12:50.55	233.50	25.02	-43.3	-45.7	18.8	0.00e+00	0	43	0	383778816	57	4945
2026-01-16 11:12:51.55	233.75	25.10	-43.5	-45.9	18.6	0.00e+00	0	43	0	385875968	57	5052
2026-01-16 11:12:52.54	234.00	25.19	-43.6	-46.0	18.5	0.00e+00	0	43	0	387973120	57	5138
2026-01-16 11:12:53.54	234.26	25.27	-43.6	-46.1	18.4	0.00e+00	0	43	0	390070272	57	5185
2026-01-16 11:12:54.53	234.51	25.35	-43.7	-46.2	18.3	0.00e+00	0	43	0	391118848	58	4939
2026-01-16 11:12:55.53	234.76	25.44	-43.6	-46.0	18.5	0.00e+00	0	43	0	393216000	58	4859
2026-01-16 11:12:56.52	235.02	25.52	-43.6	-46.0	18.5	0.00e+00	0	43	0	395313152	58	4865
2026-01-16 11:12:57.52	235.28	25.60	-43.6	-46.1	18.4	0.00e+00	0	43	0	397410304	58	4875
2026-01-16 11:12:58.51	235.53	25.68	-43.8	-46.2	18.3	0.00e+00	0	43	0	398458880	58	4947
2026-01-16 11:12:59.51	235.80	25.76	-43.9	-46.4	18.2	0.00e+00	0	43	0	400556032	58	5045
2026-01-16 11:13:00.50	236.06	25.85	-44.0	-46.5	18.0	0.00e+00	0	43	0	402653184	58	5122
2026-01-16 11:13:01.50	236.32	25.93	-44.0	-46.5	18.0	0.00e+00	0	43	0	404750336	58	5145
2026-01-16 11:13:02.49	236.58	26.01	-43.9	-46.3	18.2	0.00e+00	0	43	0	406847488	58	5037
2026-01-16 11:13:03.49	236.85	26.09	-43.7	-46.2	18.3	0.00e+00	0	43	0	407896064	58	4927
2026-01-16 11:13:04.48	237.11	26.17	-43.7	-46.1	18.4	0.00e+00	0	43	0	409993216	58	4902
2026-01-16 11:13:05.48	237.38	26.25	-43.8	-46.3	18.3	0.00e+00	0	43	0	412090368	58	4984
2026-01-16 11:13:06.47	237.65	26.32	-43.9	-46.4	18.2	0.00e+00	0	43	0	414187520	58	5059
2026-01-16 11:13:07.47	237.92	26.40	-44.0	-46.6	18.0	0.00e+00	0	43	0	415236096	58	5165
2026-01-16 11:13:08.46	238.19	26.48	-44.1	-46.7	17.9	0.00e+00	0	43	0	417333248	58	5231
2026-01-16 11:13:09.46	238.47	26.56	-44.4	-47.0	17.6	0.00e+00	0	43	0	419430400	59	5112
2026-01-16 11:13:10.45	238.74	26.63	-44.5	-47.1	17.5	0.00e+00	0	43	0	421527552	59	5176
2026-01-16 11:13:11.44	239.02	26.71	-44.7	-47.4	17.2	0.00e+00	0	43	0	423624704	60	5089
2026-01-16 11:13:12.44	239.29	26.79	-44.9	-47.7	17.0	0.00e+00	0	43	0	424673280	60	5225
2026-01-16 11:13:13.43	239.57	26.86	-44.9	-47.8	16.9	0.00e+00	0	43	0	426770432	60	5287
2026-01-16 11:13:14.43	239.85	26.94	-44.9	-47.8	16.8	0.00e+00	0	43	0	428867584	60	5293
2026-01-16 11:13:15.42	240.13	27.01	-44.9	-47.8	16.8	0.00e+00	0	43	0	430964736	60	5308
2026-01-16 11:13:16.42	240.41	27.09	-44.9	-47.8	16.9	0.00e+00	0	43	0	432013312	60	5307
2026-01-16 11:13:17.41	240.70	27.16	-44.9	-47.8	16.8	0.00e+00	0	43	0	434110464	60	5324
2026-01-16 11:13:18.41	240.98	27.23	-45.0	-47.8	16.9	0.00e+00	0	43	0	436207616	60	5317
2026-01-16 11:13:19.41	241.27	27.31	-45.1	-47.9	16.7	0.00e+00	0	43	0	438304768	60	5391
2026-01-16 11:13:20.40	241.56	27.38	-45.1	-47.9	16.8	0.00e+00	0	43	0	440401920	60	5377
2026-01-16 11:13:21.40	241.85	27.45	-45.2	-48.0	16.6	0.00e+00	0	43	0	441450496	61	5154
2026-01-16 11:13:22.39	242.13	27.52	-45.2	-48.1	16.5	0.00e+00	0	43	0	443547648	61	5184
2026-01-16 11:13:23.39	242.43	27.59	-45.3	-48.2	16.4	0.00e+00	0	43	0	445644800	61	5279
2026-01-16 11:13:24.38	242.72	27.66	-45.5	-48.5	16.2	0.00e+00	0	43	0	447741952	61	5438
2026-01-16 11:13:25.38	243.01	27.73	-45.5	-48.6	16.1	0.00e+00	0	43	0	448790528	61	5485
2026-01-16 11:13:26.37	243.30	27.79	-45.5	-48.5	16.2	0.00e+00	0	43	0	450887680	61	5422
2026-01-16 11:13:27.37	243.60	27.86	-45.4	-48.4	16.3	0.00e+00	0	43	0	452984832	61	5360
2026-01-16 11:13:28.37	243.90	27.93	-45.3	-48.2	16.5	0.00e+00	0	43	0	455081984	61	5224
2026-01-16 11:13:29.36	244.20	28.00	-45.2	-48.1	16.6	0.00e+00	0	43	0	457179136	61	5163
2026-01-16 11:13:30.35	244.50	28.06	-45.0	-47.8	16.8	0.00e+00	0	43	0	458227712	61	5040
2026-01-16 11:13:31.35	244.80	28.13	-45.0	-47.9	16.8	0.00e+00	0	43	0	460324864	61	5046
2026-01-16 11:13:32.34	245.10	28.19	-45.0	-47.8	16.9	0.00e+00	0	43	0	462422016	61	5008
2026-01-16 11:13:33.34	245.40	28.25	-45.1	-47.9	16.8	0.00e+00	0	43	0	464519168	61	5064
2026-01-16 11:13:34.33	245.71	28.32	-45.1	-48.0	16.7	0.00e+00	0	43	0	465567744	61	5111
2026-01-16 11:13:35.33	246.01	28.38	-45.2	-48.1	16.6	0.00e+00	0	43	0	467664896	61	5181
2026-01-16 11:13:36.32	246.32	28.44	-45.1	-47.9	16.8	0.00e+00	0	43	0	469762048	61	5066
2026-01-16 11:13:37.32	246.63	28.50	-45.0	-47.8	16.9	0.00e+00	0	43	0	471859200	61	5002
2026-01-16 11:13:38.31	246.93	28.56	-44.9	-47.7	17.0	0.00e+00	0	43	0	473956352	61	4930
2026-01-16 11:13:39.31	247.25	28.62	-45.0	-47.8	16.9	0.00e+00	0	43	0	475004928	61	5016
2026-01-16 11:13:40.30	247.56	28.68	-44.9	-47.8	16.9	0.00e+00	0	43	0	477102080	61	4996
2026-01-16 11:13:41.30	247.87	28.73	-45.0	-47.9	16.8	0.00e+00	0	43	0	479199232	61	5043
2026-01-16 11:13:42.29	248.18	28.79	-45.0	-47.8	16.8	0.00e+00	0	43	0	481296384	61	5035
2026-01-16 11:13:43.29	248.50	28.85	-45.1	-48.0	16.6	0.00e+00	0	43	0	482344960	61	5147
2026-01-16 11:13:44.28	248.81	28.90	-45.2	-48.1	16.5	0.00e+00	0	43	0	484442112	61	5206
2026-01-16 11:13:45.28	249.13	28.96	-45.4	-48.4	16.3	0.00e+00	0	43	0	486539264	61	5354
2026-01-16 11:13:46.27	249.44	29.01	-45.5	-48.6	16.1	0.00e+00	0	43	0	488636416	61	5473
2026-01-16 11:13:47.27	249.76	29.06	-45.8	-48.9	15.8	0.00e+00	0	43	0	490733568	62	5390
2026-01-16 11:13:48.26	250.08	29.11	-45.8	-48.9	15.8	0.00e+00	0	43	0	491782144	62	5367
2026-01-16 11:13:49.26	250.40	29.16	-45.9	-49.1	15.6	0.00e+00	0	43	0	493879296	62	5491
2026-01-16 11:13:50.25	250.72	29.21	-46.0	-49.4	15.3	0.00e+00	0	43	0	495976448	62	5716
2026-01-16 11:13:51.25	251.05	29.26	-46.1	-49.6	15.1	0.00e+00	0	43	0	498073600	62	5827
2026-01-16 11:13:52.24	251.37	29.31	-46.2	-49.7	15.0	0.00e+00	0	43	0	499122176	63	5590
2026-01-16 11:13:53.24	251.70	29.36	-46.3	-49.8	14.8	0.00e+00	0	43	0	501219328	63	5645
2026-01-16 11:13:54.23	252.02	29.40	-46.6	-50.2	14.5	0.00e+00	0	43	0	503316480	63	5882
2026-01-16 11:13:55.23	252.35	29.45	-46.8	-50.6	14.0	0.00e+00	0	43	0	505413632	64	5817
2026-01-16 11:13:56.22	252.67	29.49	-46.9	-50.8	13.8	3.00e-06	0	43	0	507510784	64	5943
2026-01-16 11:13:57.22	253.00	29.54	-47.0	-51.0	13.6	3.80e-06	0	43	0	508559360	64	6125
2026-01-16 11:13:58.21	253.33	29.58	-46.9	-50.9	13.8	5.30e-06	0	43	0	510656512	64	6003
2026-01-16 11:13:59.21	253.66	29.62	-46.6	-50.6	14.0	4.50e-06	0	43	0	512753664	64	5808
2026-01-16 11:14:00.20	253.99	29.66	-46.7	-50.7	13.9	2.20e-06	0	43	0	514850816	64	5923
2026-01-16 11:14:01.20	254.32	29.70	-46.4	-50.2	14.4	2.20e-06	0	43	0	515899392	64	5555
2026-01-16 11:14:02.19	254.65	29.74	-46.2	-49.9	14.6	7.00e-07	0	43	0	517996544	64	5395
2026-01-16 11:14:03.19	254.99	29.78	-46.3	-50.0	14.7	0.00e+00	0	43	0	520093696	64	5427
2026-01-16 11:14:04.19	255.32	29.82	-46.3	-49.8	14.8	0.00e+00	0	43	0	522190848	64	5323
2026-01-16 11:14:05.19	255.66	29.85	-46.4	-50.0	14.6	7.00e-07	0	43	0	524288000	64	5426
2026-01-16 11:14:06.18	255.99	29.89	-46.3	-49.9	14.7	0.00e+00	0	43	0	525336576	64	5367
2026-01-16 11:14:07.17	256.32	29.92	-46.4	-49.9	14.7	0.00e+00	0	43	0	527433728	64	5375
2026-01-16 11:14:08.17	256.66	29.95	-46.3	-49.8	14.7	0.00e+00	0	43	0	529530880	64	5337
2026-01-16 11:14:09.16	257.00	29.99	-46.4	-50.0	14.7	0.00e+00	0	43	0	531628032	64	5409
2026-01-16 11:14:10.16	257.34	30.02	-46.4	-50.0	14.7	0.00e+00	0	43	0	533725184	64	5410
2026-01-16 11:14:11.15	257.67	30.05	-46.7	-50.3	14.3	0.00e+00	0	43	0	534773760	64	5631
2026-01-16 11:14:12.15	258.01	30.07	-46.5	-50.1	14.5	7.00e-07	0	43	0	536870912	64	5505
2026-01-16 11:14:13.14	258.35	30.10	-46.4	-50.0	14.6	0.00e+00	0	43	0	538968064	64	5450
2026-01-16 11:14:14.14	258.69	30.13	-46.2	-49.6	15.0	1.50e-06	0	43	0	541065216	64	5203
2026-01-16 11:14:15.13	259.03	30.15	-46.0	-49.4	15.2	0.00e+00	0	43	0	542113792	64	5056
2026-01-16 11:14:16.13	259.38	30.18	-46.0	-49.3	15.4	0.00e+00	0	43	0	544210944	63	5283
2026-01-16 11:14:17.12	259.72	30.20	-45.8	-49.0	15.8	0.00e+00	0	43	0	546308096	63	5105
2026-01-16 11:14:18.11	260.06	30.22	-45.6	-48.7	16.0	0.00e+00	0	43	0	548405248	63	4930
2026-01-16 11:14:19.11	260.40	30.24	-45.6	-48.7	16.0	0.00e+00	0	43	0	550502400	63	4979
2026-01-16 11:14:20.10	260.74	30.26	-45.6	-48.7	16.0	0.00e+00	0	43	0	551550976	63	4951
2026-01-16 11:14:21.10	261.09	30.28	-45.7	-48.9	15.9	0.00e+00	0	43	0	553648128	63	5043
2026-01-16 11:14:22.09	261.43	30.30	-45.8	-49.0	15.8	0.00e+00	0	43	0	555745280	63	5107
2026-01-16 11:14:23.09	261.77	30.32	-45.9	-49.2	15.5	0.00e+00	0	43	0	557842432	63	5219
2026-01-16 11:14:24.08	262.12	30.33	-45.7	-48.9	15.8	0.00e+00	0	43	0	558891008	63	5063
2026-01-16 11:14:25.08	262.46	30.35	-45.5	-48.6	16.1	0.00e+00	0	43	0	560988160	63	4900
2026-01-16 11:14:26.07	262.80	30.36	-45.4	-48.4	16.3	0.00e+00	0	43	0	563085312	62	5089
2026-01-16 11:14:27.06	263.15	30.37	-45.3	-48.3	16.4	0.00e+00	0	43	0	565182464	62	4997
2026-01-16 11:14:28.06	263.50	30.39	-45.4	-48.5	16.3	0.00e+00	0	43	0	567279616	62	5104
2026-01-16 11:14:29.05	263.84	30.40	-45.6	-48.8	16.0	0.00e+00	0	43	0	568328192	62	5284
2026-01-16 11:14:30.05	264.19	30.40	-45.7	-48.9	15.9	0.00e+00	0	43	0	570425344	62	5345
2026-01-16 11:14:31.04	264.53	30.41	-45.8	-49.0	15.7	0.00e+00	0	43	0	572522496	62	5438
2026-01-16 11:14:32.03	264.87	30.42	-45.8	-48.9	15.7	0.00e+00	0	43	0	574619648	62	5394
2026-01-16 11:14:33.03	265.22	30.42	-45.8	-49.0	15.7	0.00e+00	0	43	0	575668224	62	5408
2026-01-16 11:14:34.02	265.57	30.43	-45.8	-49.0	15.7	0.00e+00	0	43	0	577765376	62	5412
2026-01-16 11:14:35.02	265.92	30.43	-45.8	-49.0	15.7	0.00e+00	0	43	0	579862528	62	5420
2026-01-16 11:14:36.01	266.26	30.43	-45.9	-49.1	15.7	0.00e+00	0	43	0	581959680	62	5470
2026-01-16 11:14:37.01	266.61	30.44	-45.8	-49.0	15.8	0.00e+00	0	43	0	584056832	62	5425
2026-01-16 11:14:38.01	266.96	30.44	-45.8	-49.0	15.8	0.00e+00	0	43	0	585105408	62	5419
2026-01-16 11:14:39.00	267.30	30.43	-45.9	-49.0	15.7	0.00e+00	0	43	0	587202560	62	5457
2026-01-16 11:14:40.00	267.65	30.43	-45.6	-48.7	16.0	0.00e+00	0	43	0	589299712	62	5236
2026-01-16 11:14:40.99	267.99	30.43	-45.3	-48.3	16.5	0.00e+00	0	43	0	591396864	62	4996
2026-01-16 11:14:41.99	268.34	30.42	-44.8	-47.5	17.1	0.00e+00	0	43	0	592445440	61	4865
2026-01-16 11:14:42.98	268.69	30.42	-44.5	-47.2	17.5	0.00e+00	0	43	0	594542592	60	4932
2026-01-16 11:14:43.98	269.03	30.41	-44.4	-47.0	17.6	0.00e+00	0	43	0	596639744	60	4846
2026-01-16 11:14:44.97	269.38	30.40	-44.4	-47.1	17.6	0.00e+00	0	43	0	598736896	60	4886
2026-01-16 11:14:45.97	269.72	30.39	-44.5	-47.2	17.5	0.00e+00	0	43	0	600834048	60	4953
2026-01-16 11:14:46.96	270.07	30.38	-44.6	-47.3	17.4	0.00e+00	0	43	0	601882624	60	5027
2026-01-16 11:14:47.96	270.42	30.37	-44.8	-47.5	17.2	0.00e+00	0	43	0	603979776	60	5138
2026-01-16 11:14:48.95	270.76	30.36	-44.9	-47.6	17.1	0.00e+00	0	43	0	606076928	60	5209
2026-01-16 11:14:49.95	271.10	30.35	-45.0	-47.8	16.9	0.00e+00	0	43	0	608174080	60	5330
2026-01-16 11:14:50.94	271.45	30.33	-45.1	-48.0	16.7	0.00e+00	0	43	0	609222656	60	5445
2026-01-16 11:14:51.93	271.79	30.32	-45.2	-48.1	16.6	0.00e+00	0	43	0	611319808	61	5190
2026-01-16 11:14:52.93	272.13	30.30	-45.2	-48.1	16.6	0.00e+00	0	43	0	613416960	61	5205
2026-01-16 11:14:53.92	272.48	30.28	-45.2	-48.1	16.6	0.00e+00	0	43	0	615514112	61	5180
2026-01-16 11:14:54.92	272.82	30.26	-45.1	-48.0	16.7	0.00e+00	0	43	0	617611264	61	5147
2026-01-16 11:14:55.91	273.16	30.24	-45.2	-48.2	16.5	0.00e+00	0	43	0	618659840	61	5223
2026-01-16 11:14:56.91	273.50	30.22	-45.2	-48.1	16.5	0.00e+00	0	43	0	620756992	61	5210
2026-01-16 11:14:57.90	273.84	30.20	-45.4	-48.5	16.2	0.00e+00	0	43	0	622854144	61	5435
2026-01-16 11:14:58.89	274.18	30.18	-45.7	-49.0	15.9	0.00e+00	0	43	0	624951296	62	5418
2026-01-16 11:14:59.89	274.53	30.15	-46.0	-49.3	15.4	0.00e+00	0	43	0	625999872	62	5654
2026-01-16 11:15:00.88	274.86	30.13	-46.3	-49.7	15.0	0.00e+00	0	43	0	628097024	63	5575
2026-01-16 11:15:01.88	275.21	30.10	-46.4	-49.9	14.9	0.00e+00	0	43	0	630194176	63	5664
2026-01-16 11:15:02.87	275.54	30.07	-46.2	-49.7	15.1	0.00e+00	0	43	0	632291328	63	5544
2026-01-16 11:15:03.87	275.88	30.04	-46.0	-49.3	15.4	0.00e+00	0	43	0	634388480	63	5335
2026-01-16 11:15:04.86	276.22	30.01	-45.9	-49.0	15.7	7.00e-07	0	43	0	635437056	63	5139
2026-01-16 11:15:05.86	276.56	29.98	-45.8	-48.9	15.8	0.00e+00	0	43	0	637534208	63	5057
2026-01-16 11:15:06.85	276.89	29.95	-45.7	-48.8	15.9	0.00e+00	0	43	0	639631360	63	5024
2026-01-16 11:15:07.84	277.23	29.92	-45.7	-48.8	15.9	0.00e+00	0	43	0	641728512	63	5026
2026-01-16 11:15:08.84	277.56	29.89	-45.9	-49.0	15.6	0.00e+00	0	43	0	642777088	63	5154
2026-01-16 11:15:09.83	277.90	29.85	-46.2	-49.5	15.3	0.00e+00	0	43	0	644874240	63	5408
2026-01-16 11:15:10.83	278.23	29.81	-46.4	-49.9	14.8	0.00e+00	0	43	0	646971392	63	5686
2026-01-16 11:15:11.82	278.56	29.78	-46.5	-50.0	14.7	0.00e+00	0	43	0	649068544	63	5756
2026-01-16 11:15:12.82	278.90	29.74	-46.4	-49.8	14.9	7.00e-07	0	43	0	651165696	63	5641
2026-01-16 11:15:13.81	279.22	29.70	-46.2	-49.5	15.1	0.00e+00	0	43	0	652214272	63	5462
2026-01-16 11:15:14.81	279.56	29.66	-46.1	-49.5	15.3	0.00e+00	0	43	0	654311424	63	5417
2026-01-16 11:15:15.80	279.88	29.62	-46.0	-49.3	15.4	0.00e+00	0	43	0	656408576	63	5310
2026-01-16 11:15:16.80	280.22	29.58	-46.2	-49.4	15.3	0.00e+00	0	43	0	658505728	63	5392
2026-01-16 11:15:17.79	280.54	29.54	-46.2	-49.5	15.3	0.00e+00	0	43	0	659554304	63	5403
2026-01-16 11:15:18.79	280.87	29.49	-45.8	-48.9	15.8	0.00e+00	0	43	0	661651456	63	5083
2026-01-16 11:15:19.78	281.19	29.45	-45.7	-48.8	16.0	0.00e+00	0	43	0	663748608	63	4987
2026-01-16 11:15:20.78	281.52	29.40	-45.5	-48.5	16.2	0.00e+00	0	43	0	665845760	63	4861
2026-01-16 11:15:21.77	281.84	29.36	-45.5	-48.5	16.2	0.00e+00	0	43	0	667942912	62	5119
2026-01-16 11:15:22.77	282.17	29.31	-45.7	-48.8	16.0	0.00e+00	0	43	0	668991488	62	5292
2026-01-16 11:15:23.76	282.49	29.26	-46.1	-49.4	15.3	0.00e+00	0	43	0	671088640	62	5693
2026-01-16 11:15:24.76	282.81	29.21	-46.3	-49.7	15.0	0.00e+00	0	43	0	673185792	63	5578
2026-01-16 11:15:25.75	283.13	29.16	-46.5	-49.9	14.9	0.00e+00	0	43	0	675282944	63	5673
2026-01-16 11:15:26.74	283.45	29.11	-46.3	-49.7	15.1	0.00e+00	0	43	0	676331520	63	5538
2026-01-16 11:15:27.74	283.77	29.06	-46.1	-49.3	15.4	0.00e+00	0	43	0	678428672	63	5314
2026-01-16 11:15:28.74	284.09	29.01	-45.7	-48.8	16.0	0.00e+00	0	43	0	680525824	63	5003
2026-01-16 11:15:29.73	284.40	28.96	-45.0	-48.3	16.2	0.00e+00	0	43	0	682622976	62	4996
2026-01-16 11:15:30.72	284.72	28.90	-45.3	-48.2	16.5	0.00e+00	0	43	0	684720128	62	4935
2026-01-16 11:15:31.72	285.03	28.85	-45.1	-48.0	16.8	0.00e+00	0	43	0	685768704	62	4831
2026-01-16 11:15:32.71	285.35	28.79	-44.9	-47.7	17.0	0.00e+00	0	43	0	687865856	61	4957
2026-01-16 11:15:33.71	285.66	28.74	-44.9	-47.7	17.0	0.00e+00	0	43	0	689963008	61	4967
2026-01-16 11:15:34.71	285.97	28.68	-44.9	-47.7	16.9	0.00e+00	0	43	0	692060160	61	4975
2026-01-16 11:15:35.70	286.28	28.62	-44.7	-47.4	17.3	0.00e+00	0	43	0	693108736	61	4813
2026-01-16 11:15:36.69	286.59	28.56	-44.8	-47.5	17.2	0.00e+00	0	43	0	695205888	61	4847
2026-01-16 11:15:37.69	286.90	28.50	-44.8	-47.6	17.1	0.00e+00	0	43	0	697303040	61	4902
2026-01-16 11:15:38.68	287.20	28.44	-45.0	-47.8	16.9	0.00e+00	0	43	0	699400192	61	5020
2026-01-16 11:15:39.68	287.51	28.38	-44.9	-47.6	17.1	0.00e+00	0	43	0	701497344	61	4917
2026-01-16 11:15:40.67	287.81	28.32	-45.0	-47.9	16.8	0.00e+00	0	43	0	702545920	61	5043
2026-01-16 11:15:41.67	288.12	28.26	-45.1	-47.9	16.8	0.00e+00	0	43	0	704643072	61	5079
2026-01-16 11:15:42.66	288.42	28.19	-44.9	-47.8	17.0	0.00e+00	0	43	0	706740224	61	4987
2026-01-16 11:15:43.66	288.72	28.13	-44.7	-47.4	17.2	0.00e+00	0	43	0	708837376	61	4809
2026-01-16 11:15:44.65	289.02	28.06	-44.4	-47.0	17.6	0.00e+00	0	43	0	709885952	60	4869
2026-01-16 11:15:45.65	289.32	28.00	-44.2	-46.8	17.9	0.00e+00	0	43	0	711983104	60	4713
2026-01-16 11:15:46.64	289.61	27.93	-44.1	-46.6	18.0	0.00e+00	0	43	0	714080256	60	4635
2026-01-16 11:15:47.64	289.91	27.87	-44.1	-46.6	18.1	0.00e+00	0	43	0	716177408	60	4615
2026-01-16 11:15:48.63	290.20	27.80	-43.9	-46.4	18.2	0.00e+00	0	43	0	718274560	59	4774
2026-01-16 11:15:49.63	290.50	27.73	-43.9	-46.4	18.2	0.00e+00	0	43	0	719323136	59	4779
2026-01-16 11:15:50.62	290.79	27.66	-44.1	-46.6	18.0	0.00e+00	0	43	0	721420288	59	4903
2026-01-16 11:15:51.62	291.08	27.59	-44.4	-47.1	17.5	0.00e+00	0	43	0	723517440	59	5181
2026-01-16 11:15:52.61	291.37	27.53	-44.8	-47.6	17.1	0.00e+00	0	43	0	725614592	60	5185
2026-01-16 11:15:53.61	291.66	27.45	-45.0	-47.9	16.8	0.00e+00	0	43	0	727711744	60	5362
2026-01-16 11:15:54.60	291.95	27.38	-45.1	-48.1	16.6	0.00e+00	0	43	0	728760320	60	5466
2026-01-16 11:15:55.60	292.23	27.31	-45.2	-48.1	16.6	0.00e+00	0	43	0	730857472	61	5193
2026-01-16 11:15:56.59	292.52	27.24	-45.2	-48.1	16.6	0.00e+00	0	43	0	732954624	61	5217
2026-01-16 11:15:57.59	292.80	27.17	-45.4	-48.4	16.3	0.00e+00	0	43	0	735051776	61	5358
2026-01-16 11:15:58.58	293.08	27.10	-45.5	-48.5	16.2	0.00e+00	0	43	0	736100352	61	5448
2026-01-16 11:15:59.58	293.37	27.02	-45.5	-48.5	16.2	0.00e+00	0	43	0	738197504	61	5423
2026-01-16 11:16:00.57	293.64	26.95	-45.4	-48.4	16.3	0.00e+00	0	43	0	740294656	61	5394
2026-01-16 11:16:01.56	293.92	26.87	-45.2	-48.2	16.5	0.00e+00	0	43	0	742391808	61	5262
2026-01-16 11:16:02.56	294.20	26.80	-44.9	-47.8	16.9	0.00e+00	0	43	0	744488960	61	5018
2026-01-16 11:16:03.55	294.47	26.72	-44.7	-47.4	17.2	0.00e+00	0	43	0	745537536	61	4806
2026-01-16 11:16:04.55	294.75	26.65	-44.6	-47.3	17.3	0.00e+00	0	43	0	747634688	61	4749
2026-01-16 11:16:05.54	295.02	26.57	-44.6	-47.3	17.3	0.00e+00	0	43	0	749731840	61	4746
2026-01-16 11:16:06.54	295.30	26.49	-44.7	-47.4	17.3	0.00e+00	0	43	0	751828992	61	4767
2026-01-16 11:16:07.53	295.57	26.42	-44.8	-47.6	17.1	0.00e+00	0	43	0	752877568	61	4893
2026-01-16 11:16:08.53	295.84	26.34	-44.9	-47.8	17.0	0.00e+00	0	43	0	754974720	61	4991
2026-01-16 11:16:09.52	296.10	26.26	-45.1	-47.9	16.8	0.00e+00	0	43	0	757071872	61	5083
2026-01-16 11:16:10.52	296.37	26.18	-45.1	-48.0	16.7	0.00e+00	0	43	0	759169024	61	5111
2026-01-16 11:16:11.51	296.63	26.10	-45.2	-48.1	16.6	0.00e+00	0	43	0	761266176	61	5217
2026-01-16 11:16:12.51	296.90	26.02	-45.2	-48.2	16.5	0.00e+00	0	43	0	762314752	61	5221
2026-01-16 11:16:13.50	297.16	25.94	-45.3	-48.2	16.5	0.00e+00	0	43	0	764411904	61	5243
2026-01-16 11:16:14.50	297.42	25.86	-45.1	-47.9	16.7	0.00e+00	0	43	0	766509056	61	5083
2026-01-16 11:16:15.49	297.68	25.78	-45.0	-47.9	16.8	0.00e+00	0	43	0	768606208	61	5043
2026-01-16 11:16:16.49	297.94	25.70	-44.8	-47.6	17.1	0.00e+00	0	43	0	769654784	61	4889
2026-01-16 11:16:17.48	298.20	25.62	-44.6	-47.4	17.2	0.00e+00	0	43	0	771751936	61	4804
2026-01-16 11:16:18.47	298.45	25.54	-44.5	-47.2	17.5	0.00e+00	0	43	0	773849088	60	4967
2026-01-16 11:16:19.47	298.71	25.46	-44.2	-46.9	17.8	0.00e+00	0	43	0	775946240	60	4760
2026-01-16 11:16:20.46	298.96	25.37	-44.1	-46.8	17.9	0.00e+00	0	43	0	778043392	60	4718
2026-01-16 11:16:21.46	299.22	25.29	-44.2	-46.9	17.8	0.00e+00	0	43	0	779091968	60	4775
2026-01-16 11:16:22.45	299.47	25.21	-44.2	-46.9	17.8	0.00e+00	0	43	0	781189120	60	4769
2026-01-16 11:16:23.45	299.72	25.13	-44.0	-46.6	18.1	0.00e+00	0	43	0	783286272	60	4608
2026-01-16 11:16:24.45	299.97	25.04	-43.8	-46.3	18.3	0.00e+00	0	43	0	785383424	59	4715
2026-01-16 11:16:25.44	300.21	24.96	-43.7	-46.1	18.5	0.00e+00	0	43	0	786432000	59	4615
2026-01-16 11:16:26.44	300.46	24.87	-43.6	-46.1	18.5	0.00e+00	0	43	0	788529152	59	4618
2026-01-16 11:16:27.43	300.70	24.79	-43.9	-46.4	18.2	0.00e+00	0	43	0	790626304	59	4774
2026-01-16 11:16:28.42	300.95	24.71	-44.1	-46.8	17.9	0.00e+00	0	43	0	792723456	59	4985
2026-01-16 11:16:29.42	301.19	24.62	-44.4	-47.1	17.5	0.00e+00	0	43	0	794820608	59	5168
2026-01-16 11:16:30.41	301.43	24.54	-44.3	-47.0	17.6	0.00e+00	0	43	0	795869184	59	5107
2026-01-16 11:16:31.41	301.67	24.45	-44.2	-46.8	17.8	0.00e+00	0	43	0	797966336	59	4987
2026-01-16 11:16:32.40	301.91	24.36	-44.0	-46.5	18.1	0.00e+00	0	43	0	800063488	59	4820
2026-01-16 11:16:33.40	302.15	24.28	-43.9	-46.4	18.2	0.00e+00	0	43	0	802160640	59	4765
2026-01-16 11:16:34.39	302.38	24.19	-43.8	-46.3	18.3	0.00e+00	0	43	0	803209216	59	4726
2026-01-16 11:16:35.39	302.62	24.11	-44.0	-46.6	18.0	0.00e+00	0	43	0	805306368	59	4880
2026-01-16 11:16:36.38	302.85	24.02	-44.2	-46.8	17.7	0.00e+00	0	43	0	807403520	59	5039
2026-01-16 11:16:37.37	303.08	23.93	-44.3	-46.9	17.7	0.00e+00	0	43	0	809500672	59	5074
2026-01-16 11:16:38.37	303.31	23.85	-44.3	-46.9	17.7	0.00e+00	0	43	0	811597824	59	5044
2026-01-16 11:16:39.36	303.54	23.76	-44.1	-46.6	17.9	0.00e+00	0	43	0	812646400	59	4919
2026-01-16 11:16:40.36	303.77	23.67	-43.9	-46.4	18.2	0.00e+00	0	43	0	814743552	59	4763
2026-01-16 11:16:41.35	303.99	23.58	-43.8	-46.3	18.3	0.00e+00	0	43	0	816840704	59	4712
2026-01-16 11:16:42.35	304.22	23.50	-43.9	-46.3	18.2	0.00e+00	0	43	0	818937856	59	4752
2026-01-16 11:16:43.34	304.44	23.41	-44.3	-46.8	17.8	0.00e+00	0	43	0	819986432	59	5041
2026-01-16 11:16:44.34	304.67	23.32	-44.5	-47.2	17.4	0.00e+00	0	43	0	822083584	59	5262
2026-01-16 11:16:45.33	304.89	23.23	-44.6	-47.4	17.2	0.00e+00	0	43	0	824180736	59	5348
2026-01-16 11:16:46.33	305.11	23.15	-44.7	-47.4	17.2	0.00e+00	0	43	0	826277888	60	5085
2026-01-16 11:16:47.32	305.33	23.06	-44.5	-47.2	17.5	0.00e+00	0	43	0	828375040	60	4939
2026-01-16 11:16:48.32	305.55	22.97	-44.2	-46.8	17.8	0.00e+00	0	43	0	829423616	60	4731
2026-01-16 11:16:49.31	305.76	22.88	-44.2	-46.8	17.8	0.00e+00	0	43	0	831520768	60	4756
2026-01-16 11:16:50.31	305.98	22.79	-44.3	-46.9	17.7	0.00e+00	0	43	0	833617920	60	4809
2026-01-16 11:16:51.30	306.19	22.70	-44.7	-47.4	17.2	0.00e+00	0	43	0	835715072	60	5074
2026-01-16 11:16:52.30	306.41	22.61	-45.1	-48.0	16.6	0.00e+00	0	43	0	836763648	60	5461
2026-01-16 11:16:53.29	306.62	22.53	-45.4	-48.4	16.3	0.00e+00	0	43	0	838860800	61	5382
2026-01-16 11:16:54.29	306.83	22.44	-45.4	-48.4	16.2	0.00e+00	0	43	0	840957952	61	5388
2026-01-16 11:16:55.28	307.04	22.35	-45.2	-48.2	16.5	0.00e+00	0	43	0	843055104	61	5228
2026-01-16 11:16:56.28	307.25	22.26	-44.9	-47.7	16.9	0.00e+00	0	43	0	845152256	61	4964
2026-01-16 11:16:57.27	307.46	22.17	-44.5	-47.3	17.4	0.00e+00	0	43	0	846200832	61	4706
2026-01-16 11:16:58.27	307.66	22.08	-44.3	-47.0	17.6	0.00e+00	0	43	0	848297984	60	4837
2026-01-16 11:16:59.27	307.87	21.99	-44.4	-47.0	17.6	0.00e+00	0	43	0	850395136	60	4851
2026-01-16 11:17:00.26	308.07	21.90	-44.7	-47.4	17.2	0.00e+00	0	43	0	852492288	60	5083
2026-01-16 11:17:01.25	308.28	21.81	-45.1	-48.0	16.7	0.00e+00	0	43	0	854589440	60	5428
2026-01-16 11:17:02.25	308.48	21.72	-45.1	-48.0	16.7	0.00e+00	0	43	0	855638016	60	5429
2026-01-16 11:17:03.24	308.68	21.63	-44.9	-47.8	16.9	0.00e+00	0	43	0	857735168	60	5289
2026-01-16 11:17:04.24	308.88	21.54	-44.8	-47.6	17.0	0.00e+00	0	43	0	859832320	60	5202
2026-01-16 11:17:05.23	309.08	21.46	-44.6	-47.3	17.3	0.00e+00	0	43	0	861929472	60	5041
2026-01-16 11:17:06.23	309.27	21.37	-44.4	-47.0	17.6	0.00e+00	0	43	0	862978048	60	4856
2026-01-16 11:17:07.22	309.47	21.28	-43.9	-46.3	18.2	0.00e+00	0	43	0	865075200	59	4748
2026-01-16 11:17:08.21	309.66	21.19	-43.8	-46.3	18.3	0.00e+00	0	43	0	867172352	59	4717
2026-01-16 11:17:09.21	309.86	21.10	-44.1	-46.7	17.8	0.00e+00	0	43	0	869269504	59	4966
2026-01-16 11:17:10.20	310.05	21.01	-44.7	-47.4	17.2	0.00e+00	0	43	0	871366656	59	5386
2026-01-16 11:17:11.20	310.24	20.92	-44.9	-47.8	16.8	0.00e+00	0	43	0	872415232	60	5336
2026-01-16 11:17:12.20	310.43	20.83	-45.0	-47.9	16.7	0.00e+00	0	43	0	874512384	60	5399
2026-01-16 11:17:13.19	310.62	20.74	-44.9	-47.9	16.7	0.00e+00	0	43	0	876609536	60	5384
2026-01-16 11:17:14.19	310.81	20.65	-44.8	-47.7	16.9	0.00e+00	0	43	0	878706688	60	5272
2026-01-16 11:17:15.18	311.00	20.56	-44.5	-47.4	17.2	0.00e+00	0	43	0	879755264	60	5048
2026-01-16 11:17:16.17	311.18	20.47	-44.3	-47.0	17.6	0.00e+00	0	43	0	881852416	60	4834
2026-01-16 11:17:17.17	311.37	20.38	-44.2	-46.9	17.7	0.00e+00	0	43	0	883949568	60	4779
2026-01-16 11:17:18.16	311.55	20.29	-44.3	-47.1	17.5	0.00e+00	0	43	0	886046720	60	4896
2026-01-16 11:17:19.16	311.74	20.20	-44.7	-47.5	17.1	0.00e+00	0	43	0	888143872	60	5144
2026-01-16 11:17:20.15	311.92	20.11	-44.9	-47.8	16.8	0.00e+00	0	43	0	889192448	60	5298
2026-01-16 11:17:21.15	312.10	20.03	-45.0	-48.0	16.7	0.00e+00	0	43	0	891289600	60	5406
2026-01-16 11:17:22.14	312.28	19.94	-44.8	-47.7	16.9	0.00e+00	0	43	0	893386752	60	5244
2026-01-16 11:17:23.14	312.46	19.85	-44.6	-47.3	17.3	0.00e+00	0	43	0	895483904	60	5025
2026-01-16 11:17:24.13	312.64	19.76	-44.4	-47.0	17.6	0.00e+00	0	43	0	896532480	60	4860
2026-01-16 11:17:25.12	312.81	19.67	-44.0	-46.6	17.9	0.00e+00	0	43	0	898629632	60	4648
2026-01-16 11:17:26.12	312.99	19.58	-44.0	-46.5	18.0	0.00e+00	0	43	0	900726784	59	4870
2026-01-16 11:17:27.11	313.17	19.49	-44.0	-46.5	18.0	0.00e+00	0	43	0	902823936	59	4841
2026-01-16 11:17:28.11	313.34	19.40	-44.1	-46.7	17.8	0.00e+00	0	43	0	904921088	59	4938
2026-01-16 11:17:29.11	313.52	19.31	-44.1	-46.7	17.8	0.00e+00	0	43	0	905969664	59	4978
2026-01-16 11:17:30.10	313.69	19.22	-44.2	-46.9	17.6	0.00e+00	0	43	0	908066816	59	5053
2026-01-16 11:17:31.09	313.86	19.14	-44.3	-47.0	17.5	0.00e+00	0	43	0	910163968	59	5117
2026-01-16 11:17:32.09	314.03	19.05	-44.2	-46.9	17.6	0.00e+00	0	43	0	912261120	59	5089
2026-01-16 11:17:33.08	314.20	18.96	-44.1	-46.8	17.7	0.00e+00	0	43	0	913309696	59	5001
2026-01-16 11:17:34.06	314.36	18.87	-44.1	-46.7	17.8	0.00e+00	0	43	0	915406848	59	4961
2026-01-16 11:17:35.05	314.53	18.78	-44.0	-46.6	17.9	0.00e+00	0	43	0	917504000	59	4886
2026-01-16 11:17:36.05	314.70	18.70	-43.8	-46.3	18.2	0.00e+00	0	43	0	919601152	59	4750
2026-01-16 11:17:37.04	314.86	18.61	-43.8	-46.4	18.1	0.00e+00	0	43	0	921698304	59	4769
2026-01-16 11:17:38.04	315.03	18.52	-44.1	-46.7	17.8	0.00e+00	0	43	0	922746880	59	4952
2026-01-16 11:17:39.03	315.19	18.43	-44.2	-46.8	17.7	0.00e+00	0	43	0	924844032	59	5005
2026-01-16 11:17:40.03	315.35	18.34	-44.3	-47.0	17.5	0.00e+00	0	43	0	926941184	59	5119
2026-01-16 11:17:41.02	315.51	18.26	-44.3	-47.0	17.5	0.00e+00	0	43	0	929038336	59	5145
2026-01-16 11:17:42.02	315.67	18.17	-44.3	-47.0	17.5	0.00e+00	0	43	0	930086912	59	5152
2026-01-16 11:17:43.01	315.83	18.08	-44.3	-47.0	17.5	0.00e+00	0	43	0	932184064	59	5110
2026-01-16 11:17:44.00	315.99	17.99	-44.1	-46.8	17.7	0.00e+00	0	43	0	934281216	59	5005
2026-01-16 11:17:45.00	316.15	17.91	-44.1	-46.7	17.8	0.00e+00	0	43	0	936378368	59	4943
2026-01-16 11:17:45.99	316.31	17.82	-44.1	-46.7	17.8	0.00e+00	0	43	0	938475520	59	4940
2026-01-16 11:17:46.99	316.46	17.73	-43.8	-46.3	18.2	0.00e+00	0	43	0	939524096	59	4734
2026-01-16 11:17:47.98	316.62	17.64	-43.9	-46.4	18.0	0.00e+00	0	43	0	941621248	59	4803
2026-01-16 11:17:48.98	316.78	17.56	-43.7	-46.2	18.2	0.00e+00	0	43	0	943718400	59	4701
2026-01-16 11:17:49.97	316.93	17.47	-43.5	-46.1	18.4	0.00e+00	0	43	0	945815552	59	4600
2026-01-16 11:17:50.97	317.08	17.38	-43.5	-46.0	18.4	0.00e+00	0	43	0	946864128	59	4587
2026-01-16 11:17:51.96	317.23	17.30	-43.6	-46.1	18.3	0.00e+00	0	43	0	948961280	59	4638
2026-01-16 11:17:52.96	317.39	17.21	-43.5	-46.0	18.4	0.00e+00	0	43	0	951058432	59	4591
2026-01-16 11:17:53.95	317.54	17.12	-43.5	-46.0	18.4	0.00e+00	0	43	0	953155584	58	4867
2026-01-16 11:17:54.95	317.69	17.04	-43.4	-46.0	18.5	0.00e+00	0	43	0	955252736	58	4824
2026-01-16 11:17:55.94	317.83	16.95	-43.5	-46.0	18.4	0.00e+00	0	43	0	956301312	58	4861
2026-01-16 11:17:56.94	317.98	16.87	-43.4	-45.9	18.5	0.00e+00	0	43	0	958398464	58	4806
2026-01-16 11:17:57.93	318.13	16.78	-43.5	-45.9	18.5	0.00e+00	0	43	0	960495616	58	4800
2026-01-16 11:17:58.93	318.28	16.69	-43.4	-45.9	18.5	0.00e+00	0	43	0	962592768	58	4788
2026-01-16 11:17:59.92	318.42	16.61	-43.5	-45.9	18.5	0.00e+00	0	43	0	963641344	58	4806
2026-01-16 11:18:00.92	318.57	16.52	-43.6	-46.0	18.4	0.00e+00	0	43	0	965738496	58	4857
2026-01-16 11:18:01.91	318.71	16.44	-43.6	-46.0	18.4	0.00e+00	0	43	0	967835648	58	4853
2026-01-16 11:18:02.91	318.85	16.35	-43.6	-46.0	18.4	0.00e+00	0	43	0	969932800	58	4862
2026-01-16 11:18:03.90	318.99	16.27	-43.7	-46.2	18.3	0.00e+00	0	43	0	972029952	58	4949
2026-01-16 11:18:04.90	319.14	16.18	-43.6	-46.1	18.3	0.00e+00	0	43	0	973078528	58	4892
2026-01-16 11:18:05.89	319.28	16.10	-43.7	-46.3	18.2	0.00e+00	0	43	0	975175680	58	4998
2026-01-16 11:18:06.89	319.42	16.01	-43.8	-46.3	18.1	0.00e+00	0	43	0	977272832	58	5029
2026-01-16 11:18:07.89	319.56	15.93	-43.8	-46.3	18.1	0.00e+00	0	43	0	979369984	58	5034
2026-01-16 11:18:08.88	319.70	15.84	-43.9	-46.5	17.9	0.00e+00	0	43	0	980418560	58	5122
2026-01-16 11:18:09.87	319.83	15.76	-43.9	-46.5	17.9	0.00e+00	0	43	0	982515712	58	5127
2026-01-16 11:18:10.87	319.97	15.68	-44.0	-46.6	17.8	0.00e+00	0	43	0	984612864	58	5195
2026-01-16 11:18:11.86	320.11	15.59	-44.1	-46.7	17.8	0.00e+00	0	43	0	986710016	58	5240
2026-01-16 11:18:12.86	320.24	15.51	-44.1	-46.7	17.8	0.00e+00	0	43	0	988807168	58	5243
2026-01-16 11:18:13.85	320.38	15.42	-44.1	-46.8	17.7	0.00e+00	0	43	0	989855744	58	5309
2026-01-16 11:18:14.84	320.51	15.34	-44.0	-46.7	17.8	0.00e+00	0	43	0	991952896	58	5230
2026-01-16 11:18:15.84	320.64	15.26	-43.9	-46.6	17.9	0.00e+00	0	43	0	994050048	58	5176
2026-01-16 11:18:16.83	320.78	15.17	-43.9	-46.5	17.9	0.00e+00	0	43	0	996147200	58	5132
2026-01-16 11:18:17.82	320.91	15.09	-43.9	-46.6	17.8	0.00e+00	0	43	0	997195776	58	5168
2026-01-16 11:18:18.82	321.04	15.01	-43.9	-46.5	17.9	0.00e+00	0	43	0	999292928	58	5155
2026-01-16 11:18:19.81	321.17	14.93	-43.9	-46.6	17.8	0.00e+00	0	43	0	1001390080	58	5190
2026-01-16 11:18:20.81	321.30	14.84	-43.9	-46.6	17.8	0.00e+00	0	43	0	1003487232	58	5206
2026-01-16 11:18:21.81	321.43	14.76	-43.9	-46.7	17.8	0.00e+00	0	43	0	1005584384	58	5247
2026-01-16 11:18:22.80	321.56	14.68	-43.9	-46.6	17.8	0.00e+00	0	43	0	1006632960	58	5191
2026-01-16 11:18:23.80	321.68	14.60	-43.9	-46.6	17.8	0.00e+00	0	43	0	1008730112	58	5202
2026-01-16 11:18:24.79	321.81	14.51	-44.0	-46.7	17.7	0.00e+00	0	43	0	1010827264	58	5238
2026-01-16 11:18:25.79	321.94	14.43	-43.9	-46.5	17.9	0.00e+00	0	43	0	1012924416	58	5147
2026-01-16 11:18:26.78	322.06	14.35	-44.0	-46.6	17.8	0.00e+00	0	43	0	1013972992	58	5198
2026-01-16 11:18:27.77	322.19	14.27	-44.0	-46.6	17.8	0.00e+00	0	43	0	1016070144	58	5205
2026-01-16 11:18:28.77	322.31	14.19	-44.0	-46.7	17.7	0.00e+00	0	43	0	1018167296	58	5245
2026-01-16 11:18:29.76	322.44	14.11	-44.1	-46.8	17.6	0.00e+00	0	43	0	1020264448	59	5002
2026-01-16 11:18:30.76	322.56	14.03	-44.2	-46.9	17.5	0.00e+00	0	43	0	1022361600	59	5065
2026-01-16 11:18:31.75	322.68	13.94	-44.4	-47.1	17.3	0.00e+00	0	43	0	1023410176	59	5190
2026-01-16 11:18:32.75	322.80	13.86	-44.4	-47.1	17.3	0.00e+00	0	43	0	1025507328	59	5203
2026-01-16 11:18:33.74	322.92	13.78	-44.6	-47.3	17.1	0.00e+00	0	43	0	1027604480	59	5299
2026-01-16 11:18:34.74	323.05	13.70	-44.8	-47.6	16.9	0.00e+00	0	43	0	1029701632	60	5176
2026-01-16 11:18:35.74	323.17	13.62	-44.8	-47.7	16.8	0.00e+00	0	43	0	1031798784	60	5230
2026-01-16 11:18:36.73	323.28	13.54	-44.9	-47.9	16.6	0.00e+00	0	43	0	1032847360	60	5351
2026-01-16 11:18:37.73	323.40	13.46	-45.0	-47.9	16.5	0.00e+00	0	43	0	1034944512	60	5396
2026-01-16 11:18:38.72	323.52	13.38	-45.0	-48.0	16.5	0.00e+00	0	43	0	1037041664	60	5449
2026-01-16 11:18:39.72	323.64	13.30	-45.1	-48.2	16.3	0.00e+00	0	43	0	1039138816	60	5572
2026-01-16 11:18:40.72	323.76	13.22	-44.8	-48.0	16.5	0.00e+00	0	43	0	1040187392	60	5431
2026-01-16 11:18:41.71	323.87	13.14	-44.9	-48.2	16.3	0.00e+00	0	43	0	1042284544	60	5583
2026-01-16 11:18:42.71	323.99	13.06	-44.9	-48.2	16.2	0.00e+00	0	43	0	1044381696	60	5570
2026-01-16 11:18:43.70	324.10	12.98	-44.8	-48.2	16.3	0.00e+00	0	43	0	1046478848	60	5557
2026-01-16 11:18:44.70	324.22	12.90	-44.8	-48.1	16.3	0.00e+00	0	43	0	1048576000	60	5521
2026-01-16 11:18:45.69	324.33	12.83	-44.7	-48.1	16.4	0.00e+00	0	43	0	1049624576	60	5467
2026-01-16 11:18:46.69	324.44	12.75	-44.8	-48.2	16.3	0.00e+00	0	43	0	1051721728	60	5558
2026-01-16 11:18:47.68	324.56	12.67	-44.7	-48.1	16.4	0.00e+00	0	43	0	1053818880	60	5496
2026-01-16 11:18:48.67	324.67	12.59	-44.6	-48.0	16.4	0.00e+00	0	43	0	1055916032	60	5443
2026-01-16 11:18:49.67	324.78	12.51	-44.8	-48.2	16.2	0.00e+00	0	43	0	1056964608	60	5565
2026-01-16 11:18:50.66	324.89	12.43	-44.8	-48.3	16.2	0.00e+00	0	43	0	1059061760	60	5626
2026-01-16 11:18:51.66	325.00	12.36	-44.8	-48.2	16.2	0.00e+00	0	43	0	1061158912	60	5579
2026-01-16 11:18:52.65	325.11	12.28	-44.9	-48.4	16.1	0.00e+00	0	43	0	1063256064	60	5691
2026-01-16 11:18:53.65	325.22	12.20	-44.9	-48.4	16.1	0.00e+00	0	43	0	1065353216	60	5681
2026-01-16 11:18:54.64	325.33	12.12	-44.9	-48.4	16.1	0.00e+00	0	43	0	1066401792	60	5661
2026-01-16 11:18:55.64	325.44	12.05	-44.9	-48.4	16.0	0.00e+00	0	43	0	1068498944	60	5705
2026-01-16 11:18:56.63	325.54	11.97	-44.9	-48.4	16.0	0.00e+00	0	43	0	1070596096	60	5687
2026-01-16 11:18:57.63	325.65	11.89	-44.9	-48.4	16.1	0.00e+00	0	43	0	1072693248	60	5668
2026-01-16 11:18:58.62	325.76	11.82	-44.9	-48.4	16.1	0.00e+00	0	43	0	1073741824	60	5660
2026-01-16 11:18:59.62	325.87	11.74	-44.8	-48.4	16.1	0.00e+00	0	43	0	1075838976	60	5671
2026-01-16 11:19:00.61	325.97	11.66	-44.8	-48.4	16.0	0.00e+00	0	43	0	1077936128	60	5686
2026-01-16 11:19:01.61	326.08	11.59	-44.7	-48.3	16.1	0.00e+00	0	43	0	1080033280	60	5620
2026-01-16 11:19:02.60	326.18	11.51	-44.7	-48.2	16.2	0.00e+00	0	43	0	1082130432	60	5584
2026-01-16 11:19:03.59	326.28	11.44	-44.7	-48.1	16.3	0.00e+00	0	43	0	1083179008	60	5513
2026-01-16 11:19:04.59	326.39	11.36	-44.8	-48.3	16.1	0.00e+00	0	43	0	1085276160	60	5612
2026-01-16 11:19:05.58	326.49	11.28	-44.8	-48.2	16.2	0.00e+00	0	43	0	1087373312	60	5578
2026-01-16 11:19:06.58	326.59	11.21	-44.8	-48.3	16.1	0.00e+00	0	43	0	1089470464	60	5611
2026-01-16 11:19:07.57	326.69	11.13	-44.9	-48.2	16.2	0.00e+00	0	43	0	1090519040	60	5590
2026-01-16 11:19:08.57	326.80	11.06	-45.0	-48.3	16.1	0.00e+00	0	43	0	1092616192	60	5621
2026-01-16 11:19:09.56	326.90	10.98	-45.1	-48.4	16.0	0.00e+00	0	43	0	1094713344	60	5720
2026-01-16 11:19:10.56	327.00	10.91	-45.2	-48.4	16.0	0.00e+00	0	43	0	1096810496	61	5375
2026-01-16 11:19:11.55	327.10	10.83	-45.3	-48.6	15.8	0.00e+00	0	43	0	1098907648	61	5484
2026-01-16 11:19:12.55	327.20	10.76	-45.3	-48.6	15.8	0.00e+00	0	43	0	1099956224	61	5483
2026-01-16 11:19:13.54	327.29	10.68	-45.3	-48.6	15.8	0.00e+00	0	43	0	1102053376	61	5500
2026-01-16 11:19:14.54	327.39	10.61	-45.3	-48.7	15.7	0.00e+00	0	43	0	1104150528	61	5529
2026-01-16 11:19:15.53	327.49	10.54	-45.3	-48.6	15.8	0.00e+00	0	43	0	1106247680	61	5477
2026-01-16 11:19:16.52	327.59	10.46	-45.2	-48.5	15.8	0.00e+00	0	43	0	1107296256	61	5462
2026-01-16 11:19:17.52	327.69	10.39	-45.2	-48.6	15.7	0.00e+00	0	43	0	1109393408	61	5467
2026-01-16 11:19:18.52	327.78	10.31	-45.1	-48.4	15.9	0.00e+00	0	43	0	1111490560	61	5393
2026-01-16 11:19:19.51	327.88	10.24	-45.0	-48.3	16.1	0.00e+00	0	43	0	1113587712	61	5299
2026-01-16 11:19:20.50	327.97	10.17	-45.0	-48.3	16.1	0.00e+00	0	43	0	1115684864	61	5280
2026-01-16 11:19:21.50	328.07	10.09	-45.0	-48.2	16.2	0.00e+00	0	43	0	1116733440	61	5222
2026-01-16 11:19:22.49	328.16	10.02	-44.9	-48.0	16.3	0.00e+00	0	43	0	1118830592	61	5154
2026-01-16 11:19:23.49	328.26	9.95	-44.8	-47.9	16.4	0.00e+00	0	43	0	1120927744	61	5079
2026-01-16 11:19:24.48	328.35	9.88	-44.8	-47.8	16.5	0.00e+00	0	43	0	1123024896	61	5038
2026-01-16 11:19:25.47	328.45	9.80	-44.7	-47.7	16.6	0.00e+00	0	43	0	1124073472	61	4955
2026-01-16 11:19:26.47	328.54	9.73	-44.6	-47.5	16.9	0.00e+00	0	43	0	1126170624	61	4821
2026-01-16 11:19:27.46	328.63	9.66	-44.8	-47.7	16.6	0.00e+00	0	43	0	1128267776	61	4975
2026-01-16 11:19:28.46	328.72	9.59	-44.6	-47.5	16.9	0.00e+00	0	43	0	1130364928	61	4831
2026-01-16 11:19:29.45	328.81	9.51	-44.5	-47.4	16.9	0.00e+00	0	43	0	1132462080	61	4779
2026-01-16 11:19:30.45	328.91	9.44	-44.7	-47.6	16.7	0.00e+00	0	43	0	1133510656	61	4905
2026-01-16 11:19:31.44	329.00	9.37	-44.7	-47.6	16.7	0.00e+00	0	43	0	1135607808	61	4915
2026-01-16 11:19:32.44	329.09	9.30	-44.7	-47.6	16.7	0.00e+00	0	43	0	1137704960	61	4918
2026-01-16 11:19:33.43	329.18	9.23	-44.7	-47.7	16.5	0.00e+00	0	43	0	1139802112	61	4983
2026-01-16 11:19:34.43	329.27	9.16	-44.9	-48.1	16.2	0.00e+00	0	43	0	1140850688	61	5175
2026-01-16 11:19:35.42	329.36	9.09	-45.0	-48.2	16.1	0.00e+00	0	43	0	1142947840	61	5235
2026-01-16 11:19:36.42	329.45	9.01	-45.1	-48.4	15.9	0.00e+00	0	43	0	1145044992	61	5382
2026-01-16 11:19:37.41	329.53	8.94	-49.9	-65.6	3.8	1.41e+00	0	43	104	1146093568	70	23162
2026-01-16 11:19:38.40	329.62	8.87	-49.7	-65.8	3.8	1.49e+00	0	43	104	1146093568	70	23777
2026-01-16 11:19:39.40	329.71	8.80	-50.6	-66.0	3.8	1.49e+00	0	43	104	1146093568	71	22795
2026-01-16 11:19:40.39	329.80	8.73	-50.4	-66.1	3.8	1.49e+00	0	43	104	1146093568	71	23093
2026-01-16 11:19:41.38	329.88	8.66	-49.9	-66.1	3.8	1.49e+00	0	43	104	1146093568	71	23223
2026-01-16 11:19:42.38	329.97	8.59	-50.3	-66.2	3.8	1.49e+00	0	43	104	1146093568	71	23375
2026-01-16 11:19:43.37	330.05	8.52	-50.7	-66.1	3.8	1.49e+00	0	43	104	1146093568	72	21983
2026-01-16 11:19:44.36	330.14	8.45	-50.7	-66.2	3.8	1.49e+00	0	43	104	1146093568	71	23501
2026-01-16 11:19:45.36	330.22	8.38	-50.9	-66.2	3.8	1.49e+00	0	43	104	1146093568	72	22219
2026-01-16 11:19:46.35	330.31	8.31	-50.3	-66.2	3.8	1.49e+00	0	43	104	1146093568	72	22201
2026-01-16 11:19:47.34	330.39	8.24	-50.8	-66.2	3.8	1.49e+00	0	43	104	1146093568	72	22201
2026-01-16 11:19:48.33	330.48	8.18	-50.8	-66.3	3.8	1.49e+00	0	43	104	1146093568	72	22277
2026-01-16 11:19:49.33	330.56	8.11	-50.9	-66.3	3.8	1.49e+00	0	43	104	1146093568	72	22339
2026-01-16 11:19:50.32	330.64	8.04	-50.9	-66.2	3.8	1.49e+00	0	43	104	1146093568	72	22240
2026-01-16 11:19:51.31	330.73	7.97	-51.1	-66.3	3.8	1.49e+00	0	43	104	1146093568	72	22345
2026-01-16 11:19:52.31	330.81	7.90	-51.1	-66.3	3.8	1.49e+00	0	43	104	1146093568	72	22302
2026-01-16 11:19:53.30	330.89	7.83	-51.1	-66.3	3.8	1.49e+00	0	43	104	1146093568	72	22386
2026-01-16 11:19:54.30	330.97	7.76	-51.1	-66.3	3.8	1.49e+00	0	43	104	1146093568	72	22373
2026-01-16 11:19:55.29	331.05	7.70	-51.0	-66.3	3.8	1.49e+00	0	43	104	1146093568	72	22316
2026-01-16 11:19:56.28	331.14	7.63	-50.9	-66.3	3.8	1.49e+00	0	43	104	1146093568	72	22285
2026-01-16 11:19:57.28	331.22	7.56	-50.9	-66.2	3.8	1.49e+00	0	43	104	1146093568	72	22262
2026-01-16 11:19:58.27	331.30	7.49	-50.9	-66.2	3.8	1.49e+00	0	43	104	1146093568	72	22250
2026-01-16 11:19:59.26	331.38	7.42	-50.6	-66.2	3.8	1.49e+00	0	43	104	1146093568	72	22217
2026-01-16 11:20:00.26	331.46	7.36	-50.6	-66.2	3.8	1.49e+00	0	43	104	1146093568	72	22137
2026-01-16 11:20:01.25	331.54	7.29	-50.6	-66.2	3.8	1.49e+00	0	43	104	1146093568	72	22166
2026-01-16 11:20:02.24	331.61	7.22	-50.6	-66.2	3.8	1.49e+00	0	43	104	1146093568	72	22147
2026-01-16 11:20:03.24	331.69	7.15	-50.6	-66.2	3.8	1.49e+00	0	43	104	1146093568	72	22065
2026-01-16 11:20:04.23	331.77	7.09	-50.6	-66.2	3.8	1.49e+00	0	43	104	1146093568	72	22122
2026-01-16 11:20:05.22	331.85	7.02	-50.6	-66.2	3.8	1.49e+00	0	43	104	1146093568	72	22163
