passes_logs/2026/01/16/T1/T1__20260116_104731_SUOMI_NPP_rec.log

#Pass ID: 20260116_104731_SUOMI NPP
#Satellite: SUOMI NPP
#Configuration: NPP
#almurnet v.1.7.20251203
#Start time: 2026-01-16 10:47:31

#Version: 2.0.20230620
#Station: T1
#Location: 37.570604 lon 55.790049 lat
#TLE: 1 37849U 11061A   26015.94982489  .00000054  00000+0  46705-4 0  9991
#TLE: 2 37849  98.7812 317.9902 0002438  62.0366 298.1057 14.19525452736847

#Time	Az	El	Level	Level2	SNR	BER	BlckErr	Temp	State	Recorded	gain1	gain2
2026-01-16 10:47:31.24	185.38	5.00	-49.8	-65.6	3.8	1.49e+00	0	40	0	0	70	23153
2026-01-16 10:47:32.23	185.42	5.07	-49.6	-65.4	3.8	1.49e+00	0	40	104	0	70	22684
2026-01-16 10:47:33.23	185.47	5.14	-49.6	-65.4	3.8	1.49e+00	0	40	104	0	70	22596
2026-01-16 10:47:34.20	185.51	5.21	-49.6	-65.3	3.8	1.49e+00	0	40	104	0	70	22507
2026-01-16 10:47:35.20	185.56	5.28	-49.6	-65.3	3.8	1.49e+00	0	40	104	0	70	22431
2026-01-16 10:47:36.19	185.60	5.35	-49.6	-65.3	3.8	1.49e+00	0	40	104	0	70	22343
2026-01-16 10:47:37.18	185.65	5.42	-49.6	-65.2	3.8	1.49e+00	0	40	104	0	70	22230
2026-01-16 10:47:38.18	185.70	5.48	-49.6	-65.2	3.8	1.49e+00	0	41	104	0	70	22183
2026-01-16 10:47:39.17	185.74	5.55	-49.6	-65.2	3.8	1.49e+00	0	41	104	0	70	22157
2026-01-16 10:47:40.16	185.79	5.62	-49.6	-65.2	3.8	1.49e+00	0	40	104	0	70	22185
2026-01-16 10:47:41.16	185.84	5.69	-49.6	-65.2	3.8	1.49e+00	0	41	104	0	70	22210
2026-01-16 10:47:42.15	185.88	5.76	-49.5	-65.2	3.8	1.49e+00	0	41	104	0	70	22204
2026-01-16 10:47:43.14	185.93	5.83	-49.6	-65.3	3.8	1.49e+00	0	41	104	0	70	22368
2026-01-16 10:47:44.14	185.98	5.90	-49.6	-65.3	3.8	1.49e+00	0	41	104	0	70	22455
2026-01-16 10:47:45.13	186.03	5.97	-49.6	-65.3	3.8	1.49e+00	0	41	104	0	70	22466
2026-01-16 10:47:46.12	186.07	6.04	-49.6	-65.4	3.8	1.49e+00	0	41	104	0	70	22529
2026-01-16 10:47:47.12	186.12	6.12	-49.5	-65.3	3.8	1.49e+00	0	41	104	0	70	22424
2026-01-16 10:47:48.11	186.17	6.19	-49.6	-65.3	3.8	1.49e+00	0	41	104	0	70	22374
2026-01-16 10:47:49.10	186.22	6.26	-49.6	-65.2	3.8	1.49e+00	0	41	104	0	70	22241
2026-01-16 10:47:50.10	186.27	6.33	-49.6	-65.3	3.8	1.49e+00	0	41	104	0	70	22367
2026-01-16 10:47:51.09	186.32	6.40	-49.6	-65.3	3.8	1.49e+00	0	41	104	0	70	22341
2026-01-16 10:47:52.09	186.37	6.47	-49.6	-65.3	3.8	1.49e+00	0	41	104	0	70	22391
2026-01-16 10:47:53.08	186.42	6.54	-49.5	-65.4	3.8	1.49e+00	0	41	104	0	70	22539
2026-01-16 10:47:54.07	186.47	6.62	-49.5	-65.3	3.8	1.49e+00	0	41	104	0	70	22502
2026-01-16 10:47:55.07	186.52	6.69	-49.5	-65.3	3.8	1.49e+00	0	41	104	0	70	22318
2026-01-16 10:47:56.06	186.57	6.76	-49.5	-65.1	3.8	1.49e+00	0	41	104	0	70	21830
2026-01-16 10:47:57.05	186.62	6.83	-49.5	-64.8	3.8	1.49e+00	0	41	104	0	70	21119
2026-01-16 10:47:58.05	186.67	6.91	-49.5	-64.3	3.8	1.49e+00	0	41	104	0	70	19984
2026-01-16 10:47:59.04	186.72	6.98	-49.5	-64.0	3.8	1.49e+00	0	41	104	0	70	19187
2026-01-16 10:48:00.03	186.77	7.05	-49.4	-63.4	3.8	1.49e+00	0	41	104	0	70	18052
2026-01-16 10:48:01.02	186.82	7.13	-49.4	-63.5	3.8	1.49e+00	0	41	104	0	70	18278
2026-01-16 10:48:02.02	186.88	7.20	-49.5	-63.9	3.8	1.49e+00	0	42	104	0	70	19111
2026-01-16 10:48:03.01	186.93	7.27	-49.5	-64.6	3.8	1.49e+00	0	41	104	0	70	20616
2026-01-16 10:48:04.00	186.98	7.35	-49.5	-65.3	3.8	1.49e+00	0	41	104	0	70	22274
2026-01-16 10:48:05.00	187.03	7.42	-49.5	-65.1	3.8	1.49e+00	0	41	104	0	70	21882
2026-01-16 10:48:05.99	187.08	7.50	-49.4	-63.1	3.8	1.49e+00	0	42	104	0	70	17337
2026-01-16 10:48:06.98	187.14	7.57	-49.2	-60.1	4.8	1.38e+00	0	42	0	0	70	12303
2026-01-16 10:48:07.98	187.19	7.65	-48.7	-57.1	6.8	2.63e-01	0	42	0	2097152	69	9279
2026-01-16 10:48:08.97	187.24	7.72	-48.2	-54.9	9.0	5.29e-02	0	42	0	4194304	68	7620
2026-01-16 10:48:09.96	187.30	7.79	-47.4	-52.9	11.0	5.59e-03	0	42	0	6291456	66	6771
2026-01-16 10:48:10.96	187.35	7.87	-46.5	-50.9	13.0	5.60e-04	0	42	0	7340032	65	5709
2026-01-16 10:48:11.95	187.41	7.95	-46.0	-50.0	13.9	7.60e-06	0	42	0	9437184	64	5444
2026-01-16 10:48:12.94	187.46	8.02	-45.5	-49.1	14.9	0.00e+00	0	42	0	11534336	63	5184
2026-01-16 10:48:13.93	187.52	8.10	-45.3	-48.8	15.2	0.00e+00	0	42	0	13631488	62	5290
2026-01-16 10:48:14.93	187.57	8.17	-45.0	-48.4	15.6	0.00e+00	0	42	0	14680064	62	5067
2026-01-16 10:48:15.92	187.63	8.25	-45.0	-48.3	15.7	0.00e+00	0	42	0	16777216	61	5316
2026-01-16 10:48:16.91	187.68	8.33	-44.9	-48.2	15.8	0.00e+00	0	42	0	18874368	61	5255
2026-01-16 10:48:17.91	187.74	8.40	-45.2	-48.6	15.4	0.00e+00	0	42	0	20971520	61	5500
2026-01-16 10:48:18.90	187.79	8.48	-45.7	-49.4	14.6	0.00e+00	0	42	0	23068672	61	6045
2026-01-16 10:48:19.89	187.85	8.56	-46.0	-49.9	14.1	3.00e-06	0	42	0	24117248	62	6049
2026-01-16 10:48:20.89	187.91	8.64	-46.6	-51.1	12.9	1.14e-05	0	42	0	26214400	63	6541
2026-01-16 10:48:21.88	187.97	8.71	-47.1	-52.2	11.7	1.60e-04	0	42	0	28311552	64	6991
2026-01-16 10:48:22.87	188.02	8.79	-47.6	-53.5	10.4	3.13e-03	0	42	0	30408704	65	7631
2026-01-16 10:48:23.87	188.08	8.87	-48.0	-54.9	8.9	1.50e-02	0	42	0	31457280	66	8475
2026-01-16 10:48:24.86	188.14	8.95	-48.4	-56.3	7.5	5.54e-02	0	42	0	33554432	67	9479
2026-01-16 10:48:25.85	188.20	9.03	-48.8	-57.9	6.3	1.47e-01	0	42	0	35651584	68	10694
2026-01-16 10:48:26.85	188.26	9.10	-48.9	-58.2	6.1	3.15e-01	0	42	0	37748736	68	11074
2026-01-16 10:48:27.84	188.31	9.18	-47.0	-52.1	11.9	1.37e-01	0	42	0	39845888	66	6150
2026-01-16 10:48:28.84	188.37	9.26	-49.3	-61.3	4.3	3.03e-02	0	42	0	40894464	69	15039
2026-01-16 10:48:29.83	188.43	9.34	-48.9	-57.9	6.2	5.95e-01	0	42	0	41943040	69	10173
2026-01-16 10:48:30.83	188.49	9.42	-46.4	-50.8	13.2	1.36e-02	0	42	0	44040192	64	5954
2026-01-16 10:48:31.82	188.55	9.50	-46.5	-51.0	13.0	5.03e-05	0	42	0	46137344	64	6112
2026-01-16 10:48:32.82	188.61	9.58	-46.3	-50.6	13.6	1.17e-04	0	42	0	48234496	64	5793
2026-01-16 10:48:33.81	188.68	9.66	-46.4	-50.7	13.3	2.05e-05	0	42	0	50331648	64	5889
2026-01-16 10:48:34.81	188.74	9.74	-45.9	-49.7	14.4	1.50e-06	0	42	0	51380224	63	5547
2026-01-16 10:48:35.80	188.80	9.82	-45.7	-49.4	14.7	7.00e-07	0	42	0	53477376	63	5365
2026-01-16 10:48:36.80	188.86	9.91	-45.8	-49.6	14.5	1.50e-06	0	42	0	55574528	63	5488
2026-01-16 10:48:37.79	188.92	9.99	-45.8	-49.5	14.5	0.00e+00	0	42	0	57671680	63	5463
2026-01-16 10:48:38.79	188.98	10.07	-45.8	-49.5	14.6	0.00e+00	0	42	0	58720256	63	5447
2026-01-16 10:48:39.78	189.05	10.15	-45.9	-49.6	14.5	0.00e+00	0	42	0	60817408	63	5523
2026-01-16 10:48:40.78	189.11	10.23	-45.7	-49.4	14.7	7.00e-07	0	42	0	62914560	63	5361
2026-01-16 10:48:41.77	189.17	10.32	-45.6	-49.2	14.9	0.00e+00	0	42	0	65011712	63	5255
2026-01-16 10:48:42.77	189.24	10.40	-45.4	-48.9	15.2	0.00e+00	0	42	0	67108864	62	5367
2026-01-16 10:48:43.76	189.30	10.48	-45.2	-48.6	15.5	0.00e+00	0	42	0	68157440	62	5177
2026-01-16 10:48:44.76	189.37	10.57	-44.8	-48.1	15.9	0.00e+00	0	42	0	70254592	61	5170
2026-01-16 10:48:45.75	189.43	10.65	-45.0	-48.2	15.8	0.00e+00	0	42	0	72351744	61	5272
2026-01-16 10:48:46.75	189.50	10.73	-45.1	-48.4	15.7	0.00e+00	0	42	0	74448896	61	5359
2026-01-16 10:48:47.74	189.56	10.82	-44.8	-48.1	16.0	0.00e+00	0	42	0	75497472	61	5170
2026-01-16 10:48:48.74	189.63	10.90	-44.7	-47.8	16.2	0.00e+00	0	42	0	77594624	61	5025
2026-01-16 10:48:49.73	189.69	10.98	-44.7	-47.9	16.1	0.00e+00	0	42	0	79691776	61	5084
2026-01-16 10:48:50.72	189.76	11.07	-44.5	-47.6	16.5	0.00e+00	0	42	0	81788928	61	4885
2026-01-16 10:48:51.72	189.83	11.15	-44.6	-47.7	16.4	0.00e+00	0	42	0	83886080	60	5269
2026-01-16 10:48:52.71	189.90	11.24	-44.5	-47.6	16.5	0.00e+00	0	42	0	84934656	60	5188
2026-01-16 10:48:53.71	189.96	11.33	-44.4	-47.5	16.7	0.00e+00	0	42	0	87031808	60	5132
2026-01-16 10:48:54.70	190.03	11.41	-44.4	-47.5	16.6	0.00e+00	0	42	0	89128960	60	5123
2026-01-16 10:48:55.69	190.10	11.50	-44.3	-47.4	16.7	0.00e+00	0	42	0	91226112	60	5067
2026-01-16 10:48:56.69	190.17	11.58	-44.1	-47.1	17.0	0.00e+00	0	42	0	92274688	60	4881
2026-01-16 10:48:57.68	190.24	11.67	-44.0	-46.9	17.1	0.00e+00	0	42	0	94371840	59	5086
2026-01-16 10:48:58.68	190.31	11.76	-44.0	-46.9	17.2	0.00e+00	0	42	0	96468992	59	5070
2026-01-16 10:48:59.67	190.38	11.84	-44.1	-47.0	17.0	0.00e+00	0	42	0	98566144	59	5128
2026-01-16 10:49:00.66	190.45	11.93	-44.0	-46.9	17.2	0.00e+00	0	42	0	100663296	59	5043
2026-01-16 10:49:01.66	190.52	12.02	-44.0	-46.8	17.3	0.00e+00	0	42	0	101711872	59	5000
2026-01-16 10:49:02.65	190.59	12.11	-43.8	-46.6	17.5	0.00e+00	0	42	0	103809024	59	4882
2026-01-16 10:49:03.65	190.66	12.19	-43.8	-46.5	17.5	0.00e+00	0	43	0	105906176	59	4858
2026-01-16 10:49:04.64	190.73	12.28	-43.8	-46.6	17.5	0.00e+00	0	42	0	108003328	59	4893
2026-01-16 10:49:05.64	190.81	12.37	-43.7	-46.3	17.7	0.00e+00	0	42	0	109051904	59	4758
2026-01-16 10:49:06.63	190.88	12.46	-43.7	-46.4	17.6	0.00e+00	0	42	0	111149056	59	4783
2026-01-16 10:49:07.63	190.95	12.55	-43.5	-46.1	17.9	0.00e+00	0	42	0	113246208	58	4879
2026-01-16 10:49:08.62	191.03	12.64	-43.6	-46.2	17.8	0.00e+00	0	42	0	115343360	58	4970
2026-01-16 10:49:09.61	191.10	12.73	-43.7	-46.3	17.7	0.00e+00	0	43	0	117440512	58	5033
2026-01-16 10:49:10.61	191.18	12.82	-43.7	-46.3	17.7	0.00e+00	0	42	0	118489088	58	5019
2026-01-16 10:49:11.60	191.25	12.91	-43.6	-46.2	17.8	0.00e+00	0	42	0	120586240	58	4954
2026-01-16 10:49:12.60	191.33	13.00	-43.6	-46.2	17.8	0.00e+00	0	42	0	122683392	58	4962
2026-01-16 10:49:13.59	191.40	13.09	-43.3	-45.9	18.1	0.00e+00	0	42	0	124780544	58	4784
2026-01-16 10:49:14.59	191.48	13.18	-43.5	-46.1	17.9	0.00e+00	0	42	0	125829120	58	4884
2026-01-16 10:49:15.58	191.56	13.28	-43.4	-46.0	18.0	0.00e+00	0	42	0	127926272	58	4834
2026-01-16 10:49:16.57	191.63	13.37	-43.5	-46.0	18.1	0.00e+00	0	43	0	130023424	58	4845
2026-01-16 10:49:17.57	191.71	13.46	-43.5	-46.0	18.0	0.00e+00	0	43	0	132120576	58	4858
2026-01-16 10:49:18.56	191.79	13.55	-43.4	-46.0	18.1	0.00e+00	0	42	0	134217728	58	4829
2026-01-16 10:49:19.56	191.87	13.65	-43.4	-46.0	18.0	0.00e+00	0	43	0	135266304	58	4824
2026-01-16 10:49:20.55	191.95	13.74	-43.5	-46.1	17.9	0.00e+00	0	42	0	137363456	58	4920
2026-01-16 10:49:21.55	192.03	13.83	-43.4	-45.9	18.0	0.00e+00	0	42	0	139460608	58	4807
2026-01-16 10:49:22.54	192.11	13.93	-43.4	-46.0	18.0	0.00e+00	0	42	0	141557760	58	4827
2026-01-16 10:49:23.54	192.19	14.02	-43.4	-45.9	18.1	0.00e+00	0	42	0	142606336	58	4806
2026-01-16 10:49:24.53	192.27	14.11	-43.4	-46.0	18.0	0.00e+00	0	42	0	144703488	58	4863
2026-01-16 10:49:25.52	192.35	14.21	-43.4	-46.0	18.1	0.00e+00	0	42	0	146800640	58	4827
2026-01-16 10:49:26.52	192.43	14.30	-43.3	-45.9	18.2	0.00e+00	0	42	0	148897792	58	4765
2026-01-16 10:49:27.51	192.52	14.40	-43.2	-45.7	18.3	0.00e+00	0	42	0	150994944	58	4691
2026-01-16 10:49:28.51	192.60	14.50	-43.3	-45.8	18.2	0.00e+00	0	43	0	152043520	58	4732
2026-01-16 10:49:29.50	192.68	14.59	-43.3	-45.9	18.1	0.00e+00	0	42	0	154140672	58	4775
2026-01-16 10:49:30.50	192.77	14.69	-43.1	-45.6	18.4	0.00e+00	0	42	0	156237824	58	4619
2026-01-16 10:49:31.49	192.85	14.79	-43.1	-45.6	18.4	0.00e+00	0	42	0	158334976	58	4607
2026-01-16 10:49:32.48	192.94	14.88	-43.1	-45.5	18.5	0.00e+00	0	43	0	159383552	58	4579
2026-01-16 10:49:33.48	193.02	14.98	-43.1	-45.6	18.5	0.00e+00	0	42	0	161480704	58	4630
2026-01-16 10:49:34.47	193.11	15.08	-43.1	-45.6	18.5	0.00e+00	0	43	0	163577856	58	4628
2026-01-16 10:49:35.47	193.20	15.18	-43.1	-45.6	18.5	0.00e+00	0	42	0	165675008	57	4904
2026-01-16 10:49:36.46	193.28	15.27	-43.0	-45.5	18.6	0.00e+00	0	43	0	167772160	57	4816
2026-01-16 10:49:37.46	193.37	15.37	-43.0	-45.5	18.5	0.00e+00	0	43	0	168820736	57	4832
2026-01-16 10:49:38.45	193.46	15.47	-43.1	-45.6	18.4	0.00e+00	0	43	0	170917888	57	4883
2026-01-16 10:49:39.44	193.55	15.57	-43.0	-45.5	18.5	0.00e+00	0	42	0	173015040	57	4834
2026-01-16 10:49:40.44	193.64	15.67	-43.0	-45.4	18.5	0.00e+00	0	43	0	175112192	57	4797
2026-01-16 10:49:41.43	193.73	15.77	-43.0	-45.4	18.5	0.00e+00	0	43	0	176160768	57	4801
2026-01-16 10:49:42.43	193.82	15.87	-42.9	-45.3	18.6	0.00e+00	0	43	0	178257920	57	4736
2026-01-16 10:49:43.42	193.91	15.97	-42.9	-45.3	18.6	0.00e+00	0	43	0	180355072	57	4735
2026-01-16 10:49:44.42	194.00	16.07	-42.8	-45.2	18.7	0.00e+00	0	43	0	182452224	57	4683
2026-01-16 10:49:45.41	194.10	16.18	-42.7	-45.1	18.8	0.00e+00	0	42	0	184549376	57	4624
2026-01-16 10:49:46.41	194.19	16.28	-42.8	-45.2	18.7	0.00e+00	0	43	0	185597952	57	4680
2026-01-16 10:49:47.40	194.28	16.38	-42.6	-45.0	18.9	0.00e+00	0	43	0	187695104	57	4568
2026-01-16 10:49:48.40	194.38	16.48	-42.7	-45.1	18.9	0.00e+00	0	42	0	189792256	57	4602
2026-01-16 10:49:49.39	194.47	16.59	-42.7	-45.0	18.9	0.00e+00	0	43	0	191889408	57	4580
2026-01-16 10:49:50.38	194.57	16.69	-42.6	-45.0	19.0	0.00e+00	0	43	0	192937984	57	4563
2026-01-16 10:49:51.38	194.67	16.79	-42.7	-45.1	18.9	0.00e+00	0	43	0	195035136	57	4637
2026-01-16 10:49:52.37	194.76	16.90	-42.8	-45.2	18.9	0.00e+00	0	43	0	197132288	57	4657
2026-01-16 10:49:53.37	194.86	17.00	-42.9	-45.3	18.7	0.00e+00	0	43	0	199229440	57	4730
2026-01-16 10:49:54.36	194.96	17.11	-42.8	-45.3	18.8	0.00e+00	0	42	0	201326592	57	4711
2026-01-16 10:49:55.36	195.06	17.21	-42.8	-45.2	18.8	0.00e+00	0	43	0	202375168	57	4696
2026-01-16 10:49:56.35	195.16	17.32	-42.9	-45.3	18.7	0.00e+00	0	43	0	204472320	57	4747
2026-01-16 10:49:57.35	195.26	17.42	-42.7	-45.1	19.0	0.00e+00	0	43	0	206569472	57	4620
2026-01-16 10:49:58.34	195.36	17.53	-43.0	-45.5	18.6	0.00e+00	0	43	0	208666624	57	4816
2026-01-16 10:49:59.34	195.46	17.64	-43.0	-45.4	18.7	0.00e+00	0	42	0	209715200	57	4797
2026-01-16 10:50:00.33	195.56	17.74	-42.9	-45.2	18.8	0.00e+00	0	43	0	211812352	57	4705
2026-01-16 10:50:01.33	195.67	17.85	-43.1	-45.6	18.5	0.00e+00	0	42	0	213909504	57	4879
2026-01-16 10:50:02.32	195.77	17.96	-43.0	-45.5	18.6	0.00e+00	0	43	0	216006656	57	4820
2026-01-16 10:50:03.32	195.88	18.07	-43.1	-45.5	18.6	0.00e+00	0	43	0	218103808	57	4849
2026-01-16 10:50:04.31	195.98	18.17	-43.1	-45.6	18.5	0.00e+00	0	43	0	219152384	57	4880
2026-01-16 10:50:05.30	196.09	18.28	-43.3	-45.7	18.4	0.00e+00	0	43	0	221249536	57	4974
2026-01-16 10:50:06.30	196.19	18.39	-43.2	-45.7	18.5	0.00e+00	0	43	0	223346688	57	4940
2026-01-16 10:50:07.30	196.30	18.50	-43.3	-45.8	18.3	0.00e+00	0	43	0	225443840	57	5018
2026-01-16 10:50:08.29	196.41	18.61	-43.4	-45.9	18.3	0.00e+00	0	42	0	226492416	57	5054
2026-01-16 10:50:09.28	196.52	18.72	-43.4	-45.9	18.3	0.00e+00	0	42	0	228589568	57	5058
2026-01-16 10:50:10.28	196.63	18.84	-43.4	-45.9	18.3	0.00e+00	0	43	0	230686720	57	5051
2026-01-16 10:50:11.27	196.74	18.95	-43.5	-45.9	18.2	0.00e+00	0	43	0	232783872	57	5089
2026-01-16 10:50:12.27	196.85	19.06	-43.4	-45.9	18.3	0.00e+00	0	43	0	234881024	57	5042
2026-01-16 10:50:13.26	196.96	19.17	-43.7	-46.2	18.0	0.00e+00	0	43	0	235929600	57	5230
2026-01-16 10:50:14.25	197.07	19.28	-43.5	-46.0	18.2	0.00e+00	0	43	0	238026752	58	4816
2026-01-16 10:50:15.25	197.19	19.40	-43.6	-46.1	18.0	0.00e+00	0	43	0	240123904	58	4923
2026-01-16 10:50:16.25	197.30	19.51	-43.4	-45.8	18.3	0.00e+00	0	43	0	242221056	58	4727
2026-01-16 10:50:17.24	197.42	19.62	-43.7	-46.2	17.9	0.00e+00	0	43	0	243269632	58	4959
2026-01-16 10:50:18.23	197.53	19.74	-43.3	-45.7	18.4	0.00e+00	0	43	0	245366784	58	4701
2026-01-16 10:50:19.23	197.65	19.85	-43.4	-45.8	18.3	0.00e+00	0	42	0	247463936	58	4750
2026-01-16 10:50:20.22	197.77	19.97	-43.6	-46.1	18.0	0.00e+00	0	43	0	249561088	58	4921
2026-01-16 10:50:21.22	197.89	20.08	-43.4	-45.8	18.3	0.00e+00	0	43	0	251658240	58	4753
2026-01-16 10:50:22.22	198.01	20.20	-43.5	-45.9	18.2	0.00e+00	0	43	0	252706816	58	4814
2026-01-16 10:50:23.21	198.13	20.32	-43.5	-46.0	18.1	0.00e+00	0	43	0	254803968	58	4860
2026-01-16 10:50:24.21	198.25	20.43	-43.6	-46.1	18.1	0.00e+00	0	43	0	256901120	58	4873
2026-01-16 10:50:25.20	198.37	20.55	-43.6	-46.2	18.0	0.00e+00	0	43	0	258998272	58	4928
2026-01-16 10:50:26.20	198.50	20.67	-43.7	-46.2	18.1	0.00e+00	0	43	0	260046848	58	4939
2026-01-16 10:50:27.19	198.62	20.79	-43.8	-46.4	17.8	0.00e+00	0	43	0	262144000	58	5078
2026-01-16 10:50:28.19	198.75	20.90	-43.8	-46.4	17.8	0.00e+00	0	43	0	264241152	58	5093
2026-01-16 10:50:29.18	198.87	21.02	-43.9	-46.5	17.8	0.00e+00	0	43	0	266338304	58	5115
2026-01-16 10:50:30.18	199.00	21.14	-44.0	-46.6	17.6	0.00e+00	0	43	0	268435456	58	5182
2026-01-16 10:50:31.17	199.13	21.26	-44.2	-46.8	17.4	0.00e+00	0	43	0	269484032	58	5336
2026-01-16 10:50:32.17	199.26	21.38	-44.2	-46.8	17.4	0.00e+00	0	43	0	271581184	59	5018
2026-01-16 10:50:33.16	199.39	21.50	-43.8	-46.3	17.9	0.00e+00	0	43	0	273678336	59	4729
2026-01-16 10:50:34.15	199.52	21.62	-43.9	-46.5	17.8	0.00e+00	0	43	0	275775488	59	4825
2026-01-16 10:50:35.15	199.65	21.75	-43.8	-46.4	17.8	0.00e+00	0	43	0	276824064	59	4762
2026-01-16 10:50:36.14	199.78	21.87	-43.8	-46.3	17.9	0.00e+00	0	43	0	278921216	59	4736
2026-01-16 10:50:37.14	199.92	21.99	-43.7	-46.2	18.1	0.00e+00	0	42	0	281018368	59	4671
2026-01-16 10:50:38.13	200.05	22.11	-43.7	-46.2	18.0	0.00e+00	0	43	0	283115520	58	4959
2026-01-16 10:50:39.12	200.19	22.23	-43.5	-46.0	18.2	0.00e+00	0	43	0	285212672	58	4844
2026-01-16 10:50:40.12	200.32	22.36	-43.4	-45.8	18.4	0.00e+00	0	43	0	286261248	58	4757
2026-01-16 10:50:41.12	200.46	22.48	-43.5	-46.0	18.2	0.00e+00	0	43	0	288358400	58	4816
2026-01-16 10:50:42.11	200.60	22.61	-43.6	-46.0	18.2	0.00e+00	0	43	0	290455552	58	4842
2026-01-16 10:50:43.10	200.74	22.73	-43.6	-46.0	18.2	0.00e+00	0	43	0	292552704	58	4858
2026-01-16 10:50:44.10	200.88	22.86	-43.6	-46.0	18.2	0.00e+00	0	43	0	294649856	58	4847
2026-01-16 10:50:45.09	201.02	22.98	-43.7	-46.1	18.1	0.00e+00	0	43	0	295698432	58	4926
2026-01-16 10:50:46.09	201.17	23.11	-43.7	-46.2	18.0	0.00e+00	0	43	0	297795584	58	4955
2026-01-16 10:50:47.08	201.31	23.24	-43.7	-46.2	18.0	0.00e+00	0	43	0	299892736	58	4943
2026-01-16 10:50:48.08	201.46	23.36	-43.9	-46.4	17.9	0.00e+00	0	43	0	301989888	58	5054
2026-01-16 10:50:49.07	201.61	23.49	-43.9	-46.3	17.9	0.00e+00	0	43	0	303038464	58	5040
2026-01-16 10:50:50.07	201.75	23.62	-43.9	-46.4	17.9	0.00e+00	0	43	0	305135616	58	5094
2026-01-16 10:50:51.06	201.90	23.75	-43.7	-46.1	18.2	0.00e+00	0	43	0	307232768	58	4896
2026-01-16 10:50:52.06	202.05	23.88	-43.7	-46.2	18.1	0.00e+00	0	43	0	309329920	58	4947
2026-01-16 10:50:53.06	202.21	24.01	-44.1	-46.6	17.6	0.00e+00	0	43	0	311427072	58	5207
2026-01-16 10:50:54.05	202.36	24.14	-43.7	-46.2	18.1	0.00e+00	0	43	0	312475648	58	4933
2026-01-16 10:50:55.05	202.51	24.27	-43.8	-46.2	18.0	0.00e+00	0	43	0	314572800	58	4975
2026-01-16 10:50:56.04	202.67	24.40	-44.0	-46.6	17.7	0.00e+00	0	43	0	316669952	58	5163
2026-01-16 10:50:57.04	202.83	24.53	-43.8	-46.3	18.0	0.00e+00	0	43	0	318767104	58	5003
2026-01-16 10:50:58.03	202.98	24.66	-43.8	-46.3	17.9	0.00e+00	0	43	0	319815680	58	5005
2026-01-16 10:50:59.03	203.14	24.79	-44.0	-46.5	17.8	0.00e+00	0	43	0	321912832	58	5143
2026-01-16 10:51:00.02	203.30	24.92	-43.8	-46.3	17.9	0.00e+00	0	43	0	324009984	58	5028
2026-01-16 10:51:01.02	203.47	25.06	-43.8	-46.4	17.9	0.00e+00	0	43	0	326107136	58	5044
2026-01-16 10:51:02.02	203.63	25.19	-44.1	-46.7	17.6	0.00e+00	0	43	0	328204288	58	5279
2026-01-16 10:51:03.01	203.80	25.33	-44.2	-46.9	17.4	0.00e+00	0	43	0	329252864	59	5078
2026-01-16 10:51:04.01	203.96	25.46	-44.4	-47.2	17.2	0.00e+00	0	43	0	331350016	59	5220
2026-01-16 10:51:05.00	204.13	25.59	-44.6	-47.3	17.0	0.00e+00	0	43	0	333447168	59	5320
2026-01-16 10:51:06.00	204.30	25.73	-44.7	-47.4	16.9	0.00e+00	0	43	0	335544320	60	5099
2026-01-16 10:51:06.99	204.47	25.86	-44.6	-47.4	17.0	0.00e+00	0	43	0	336592896	60	5075
2026-01-16 10:51:07.98	204.64	26.00	-44.6	-47.4	17.1	0.00e+00	0	43	0	338690048	60	5057
2026-01-16 10:51:08.98	204.81	26.14	-44.4	-47.0	17.4	0.00e+00	0	43	0	340787200	60	4867
2026-01-16 10:51:09.97	204.99	26.27	-44.2	-46.8	17.6	0.00e+00	0	43	0	342884352	60	4725
2026-01-16 10:51:10.97	205.16	26.41	-44.0	-46.5	17.8	0.00e+00	0	43	0	344981504	59	4870
2026-01-16 10:51:11.96	205.34	26.55	-44.0	-46.5	17.8	0.00e+00	0	43	0	346030080	59	4853
2026-01-16 10:51:12.96	205.52	26.69	-44.0	-46.5	17.7	0.00e+00	0	43	0	348127232	59	4866
2026-01-16 10:51:13.95	205.70	26.82	-44.2	-46.8	17.5	0.00e+00	0	43	0	350224384	59	5008
2026-01-16 10:51:14.94	205.88	26.96	-44.2	-46.8	17.5	0.00e+00	0	43	0	352321536	59	5024
2026-01-16 10:51:15.94	206.07	27.10	-44.3	-46.9	17.4	0.00e+00	0	43	0	353370112	59	5080
2026-01-16 10:51:16.93	206.25	27.24	-44.2	-46.8	17.5	0.00e+00	0	43	0	355467264	59	5014
2026-01-16 10:51:17.93	206.44	27.38	-44.4	-47.0	17.3	0.00e+00	0	43	0	357564416	59	5136
2026-01-16 10:51:18.92	206.63	27.52	-44.3	-46.9	17.5	0.00e+00	0	43	0	359661568	59	5058
2026-01-16 10:51:19.92	206.82	27.66	-44.1	-46.6	17.7	0.00e+00	0	43	0	361758720	59	4908
2026-01-16 10:51:20.91	207.01	27.80	-43.9	-46.5	17.8	0.00e+00	0	43	0	362807296	59	4817
2026-01-16 10:51:21.91	207.20	27.95	-43.9	-46.3	18.0	0.00e+00	0	43	0	364904448	59	4736
2026-01-16 10:51:22.90	207.40	28.09	-43.9	-46.4	17.9	0.00e+00	0	43	0	367001600	59	4770
2026-01-16 10:51:23.90	207.59	28.23	-43.9	-46.4	17.9	0.00e+00	0	43	0	369098752	59	4782
2026-01-16 10:51:24.89	207.79	28.37	-44.0	-46.6	17.7	0.00e+00	0	43	0	370147328	59	4891
2026-01-16 10:51:25.89	207.99	28.52	-44.1	-46.6	17.7	0.00e+00	0	43	0	372244480	59	4907
2026-01-16 10:51:26.88	208.19	28.66	-44.1	-46.7	17.6	0.00e+00	0	43	0	374341632	59	4970
2026-01-16 10:51:27.88	208.40	28.80	-44.3	-47.0	17.4	0.00e+00	0	43	0	376438784	59	5119
2026-01-16 10:51:28.87	208.60	28.95	-44.6	-47.3	17.1	0.00e+00	0	43	0	378535936	59	5310
2026-01-16 10:51:29.87	208.81	29.09	-44.7	-47.5	16.9	0.00e+00	0	43	0	379584512	60	5158
2026-01-16 10:51:30.86	209.02	29.24	-45.0	-48.0	16.5	0.00e+00	0	43	0	381681664	60	5425
2026-01-16 10:51:31.86	209.23	29.38	-45.1	-48.0	16.4	0.00e+00	0	43	0	383778816	60	5454
2026-01-16 10:51:32.85	209.44	29.53	-45.0	-48.0	16.6	0.00e+00	0	43	0	385875968	61	5106
2026-01-16 10:51:33.85	209.66	29.67	-45.2	-48.2	16.3	0.00e+00	0	43	0	386924544	61	5233
2026-01-16 10:51:34.85	209.88	29.82	-45.1	-48.1	16.4	0.00e+00	0	43	0	389021696	61	5170
2026-01-16 10:51:35.84	210.10	29.97	-45.2	-48.2	16.3	0.00e+00	0	43	0	391118848	61	5225
2026-01-16 10:51:36.84	210.32	30.11	-45.3	-48.4	16.1	0.00e+00	0	43	0	393216000	61	5362
2026-01-16 10:51:37.83	210.54	30.26	-45.7	-48.8	15.6	0.00e+00	0	43	0	395313152	62	5327
2026-01-16 10:51:38.83	210.76	30.41	-45.4	-48.5	15.9	0.00e+00	0	43	0	396361728	62	5153
2026-01-16 10:51:39.82	210.99	30.56	-45.6	-48.7	15.8	0.00e+00	0	43	0	398458880	62	5270
2026-01-16 10:51:40.81	211.22	30.70	-45.4	-48.4	16.0	0.00e+00	0	43	0	400556032	62	5075
2026-01-16 10:51:41.81	211.45	30.85	-45.1	-48.0	16.5	0.00e+00	0	43	0	402653184	62	4852
2026-01-16 10:51:42.80	211.68	31.00	-45.0	-47.8	16.7	0.00e+00	0	43	0	403701760	61	5005
2026-01-16 10:51:43.80	211.92	31.15	-44.9	-47.7	16.8	0.00e+00	0	43	0	405798912	61	4981
2026-01-16 10:51:44.79	212.15	31.30	-44.9	-47.7	16.7	0.00e+00	0	43	0	407896064	61	4977
2026-01-16 10:51:45.79	212.39	31.45	-44.6	-47.3	17.1	0.00e+00	0	43	0	409993216	61	4757
2026-01-16 10:51:46.78	212.63	31.60	-44.5	-47.2	17.3	0.00e+00	0	43	0	412090368	60	4943
2026-01-16 10:51:47.78	212.88	31.75	-44.6	-47.4	17.1	0.00e+00	0	43	0	413138944	60	5069
2026-01-16 10:51:48.77	213.12	31.90	-44.6	-47.3	17.1	0.00e+00	0	43	0	415236096	60	5039
2026-01-16 10:51:49.77	213.37	32.05	-44.7	-47.5	17.0	0.00e+00	0	43	0	417333248	60	5154
2026-01-16 10:51:50.76	213.62	32.20	-45.0	-47.9	16.6	0.00e+00	0	43	0	419430400	60	5368
2026-01-16 10:51:51.75	213.87	32.35	-45.2	-48.2	16.3	0.00e+00	0	43	0	420478976	61	5260
2026-01-16 10:51:52.75	214.13	32.50	-45.4	-48.5	16.0	0.00e+00	0	43	0	422576128	61	5439
2026-01-16 10:51:53.74	214.39	32.65	-45.5	-48.6	16.0	0.00e+00	0	43	0	424673280	62	5183
2026-01-16 10:51:54.74	214.65	32.80	-45.3	-48.3	16.3	0.00e+00	0	43	0	426770432	62	4987
2026-01-16 10:51:55.74	214.91	32.95	-45.0	-47.9	16.6	0.00e+00	0	43	0	428867584	62	4803
2026-01-16 10:51:56.73	215.17	33.10	-44.8	-47.6	16.8	0.00e+00	0	43	0	429916160	61	4903
2026-01-16 10:51:57.72	215.44	33.25	-44.8	-47.6	16.9	0.00e+00	0	43	0	432013312	61	4871
2026-01-16 10:51:58.72	215.71	33.40	-44.4	-47.1	17.3	0.00e+00	0	43	0	434110464	60	4888
2026-01-16 10:51:59.71	215.98	33.55	-44.5	-47.2	17.3	0.00e+00	0	43	0	436207616	60	4938
2026-01-16 10:52:00.71	216.25	33.70	-44.3	-46.9	17.5	0.00e+00	0	43	0	437256192	60	4781
2026-01-16 10:52:01.70	216.53	33.85	-44.2	-46.8	17.7	0.00e+00	0	43	0	439353344	60	4730
2026-01-16 10:52:02.70	216.81	34.01	-44.5	-47.1	17.3	0.00e+00	0	43	0	441450496	60	4907
2026-01-16 10:52:03.69	217.09	34.16	-44.4	-47.1	17.3	0.00e+00	0	43	0	443547648	60	4907
2026-01-16 10:52:04.69	217.38	34.31	-44.7	-47.6	16.9	0.00e+00	0	43	0	445644800	60	5165
2026-01-16 10:52:05.68	217.66	34.46	-45.3	-48.3	16.3	0.00e+00	0	43	0	446693376	61	5302
2026-01-16 10:52:06.68	217.95	34.61	-45.2	-48.2	16.3	0.00e+00	0	43	0	448790528	61	5259
2026-01-16 10:52:07.67	218.24	34.76	-45.3	-48.3	16.2	0.00e+00	0	43	0	450887680	61	5304
2026-01-16 10:52:08.67	218.54	34.91	-44.9	-47.7	16.8	0.00e+00	0	43	0	452984832	61	4957
2026-01-16 10:52:09.66	218.84	35.06	-44.6	-47.3	17.1	0.00e+00	0	43	0	454033408	61	4741
2026-01-16 10:52:10.66	219.14	35.21	-44.1	-46.6	17.8	0.00e+00	0	43	0	456130560	60	4644
2026-01-16 10:52:11.65	219.44	35.36	-44.0	-46.4	17.9	0.00e+00	0	43	0	458227712	59	4814
2026-01-16 10:52:12.65	219.75	35.52	-44.2	-46.7	17.7	0.00e+00	0	43	0	460324864	59	4970
2026-01-16 10:52:13.64	220.05	35.66	-44.2	-46.8	17.6	0.00e+00	0	43	0	462422016	59	5007
2026-01-16 10:52:14.64	220.37	35.82	-44.8	-47.6	16.9	0.00e+00	0	43	0	463470592	60	5191
2026-01-16 10:52:15.63	220.68	35.96	-45.0	-47.9	16.7	0.00e+00	0	43	0	465567744	60	5343
2026-01-16 10:52:16.62	220.99	36.11	-45.1	-47.9	16.5	0.00e+00	0	43	0	467664896	61	5095
2026-01-16 10:52:17.62	221.32	36.26	-44.6	-47.3	17.3	0.00e+00	0	43	0	469762048	61	4711
2026-01-16 10:52:18.62	221.64	36.41	-44.2	-46.8	17.7	0.00e+00	0	43	0	470810624	60	4741
2026-01-16 10:52:19.61	221.96	36.56	-44.3	-46.9	17.6	0.00e+00	0	43	0	472907776	60	4768
2026-01-16 10:52:20.60	222.29	36.71	-44.0	-46.4	17.9	0.00e+00	0	43	0	475004928	59	4807
2026-01-16 10:52:21.60	222.62	36.86	-44.1	-46.7	17.7	0.00e+00	0	43	0	477102080	59	4947
2026-01-16 10:52:22.59	222.96	37.00	-44.4	-47.1	17.3	0.00e+00	0	43	0	479199232	59	5177
2026-01-16 10:52:23.59	223.30	37.15	-44.5	-47.2	17.2	0.00e+00	0	43	0	480247808	59	5249
2026-01-16 10:52:24.58	223.64	37.30	-44.6	-47.4	17.2	0.00e+00	0	43	0	482344960	60	5046
2026-01-16 10:52:25.58	223.98	37.44	-44.5	-47.3	17.3	0.00e+00	0	43	0	484442112	60	4985
2026-01-16 10:52:26.57	224.33	37.59	-44.6	-47.4	17.1	0.00e+00	0	43	0	486539264	60	5094
2026-01-16 10:52:27.57	224.68	37.73	-44.5	-47.3	17.2	0.00e+00	0	43	0	487587840	60	5012
2026-01-16 10:52:28.56	225.03	37.88	-44.5	-47.3	17.2	0.00e+00	0	43	0	489684992	60	4986
2026-01-16 10:52:29.56	225.39	38.02	-44.7	-47.5	17.0	0.00e+00	0	43	0	491782144	60	5108
2026-01-16 10:52:30.55	225.74	38.16	-44.3	-46.9	17.6	0.00e+00	0	43	0	493879296	60	4776
2026-01-16 10:52:31.55	226.11	38.31	-44.2	-46.8	17.7	0.00e+00	0	43	0	495976448	60	4724
2026-01-16 10:52:32.54	226.47	38.45	-44.1	-46.7	17.8	0.00e+00	0	43	0	497025024	60	4652
2026-01-16 10:52:33.54	226.84	38.59	-44.7	-47.4	17.1	0.00e+00	0	43	0	499122176	60	5064
2026-01-16 10:52:34.53	227.21	38.73	-45.3	-48.2	16.3	0.00e+00	0	43	0	501219328	61	5272
2026-01-16 10:52:35.52	227.58	38.87	-45.9	-49.2	15.4	0.00e+00	0	43	0	503316480	62	5536
2026-01-16 10:52:36.52	227.96	39.01	-45.9	-49.2	15.4	0.00e+00	0	43	0	504365056	62	5553
2026-01-16 10:52:37.52	228.34	39.15	-45.6	-48.7	15.9	0.00e+00	0	43	0	506462208	62	5229
2026-01-16 10:52:38.51	228.73	39.28	-45.1	-47.9	16.6	0.00e+00	0	43	0	508559360	62	4788
2026-01-16 10:52:39.50	229.11	39.42	-44.6	-47.3	16.9	0.00e+00	0	43	0	510656512	61	4735
2026-01-16 10:52:40.50	229.50	39.56	-44.7	-47.4	17.1	0.00e+00	0	43	0	512753664	61	4785
2026-01-16 10:52:41.49	229.90	39.69	-44.9	-47.6	17.0	0.00e+00	0	43	0	513802240	61	4915
2026-01-16 10:52:42.49	230.30	39.82	-44.9	-47.7	16.8	0.00e+00	0	43	0	515899392	61	4933
2026-01-16 10:52:43.48	230.69	39.96	-44.5	-47.1	17.4	0.00e+00	0	43	0	517996544	60	4911
2026-01-16 10:52:44.48	231.10	40.09	-44.4	-47.0	17.5	0.00e+00	0	43	0	520093696	60	4845
2026-01-16 10:52:45.48	231.51	40.22	-44.1	-46.7	17.8	0.00e+00	0	43	0	521142272	60	4663
2026-01-16 10:52:46.47	231.92	40.35	-44.0	-46.5	17.9	0.00e+00	0	43	0	523239424	59	4851
2026-01-16 10:52:47.47	232.33	40.48	-44.0	-46.6	17.8	0.00e+00	0	43	0	525336576	59	4892
2026-01-16 10:52:48.46	232.74	40.60	-43.8	-46.4	18.0	0.00e+00	0	43	0	527433728	59	4782
2026-01-16 10:52:49.46	233.17	40.73	-44.4	-47.1	17.3	0.00e+00	0	43	0	529530880	59	5177
2026-01-16 10:52:50.45	233.59	40.85	-44.6	-47.3	17.1	0.00e+00	0	43	0	530579456	60	5039
2026-01-16 10:52:51.45	234.01	40.98	-44.5	-47.2	17.3	0.00e+00	0	43	0	532676608	60	4946
2026-01-16 10:52:52.44	234.44	41.10	-44.5	-47.2	17.3	0.00e+00	0	43	0	534773760	60	4943
2026-01-16 10:52:53.44	234.88	41.22	-44.5	-47.2	17.3	0.00e+00	0	43	0	536870912	60	4947
2026-01-16 10:52:54.43	235.31	41.34	-44.2	-46.7	17.7	0.00e+00	0	43	0	538968064	60	4695
2026-01-16 10:52:55.43	235.75	41.45	-44.2	-46.8	17.7	0.00e+00	0	43	0	540016640	60	4719
2026-01-16 10:52:56.42	236.19	41.57	-44.0	-46.4	18.0	0.00e+00	0	43	0	542113792	59	4808
2026-01-16 10:52:57.42	236.64	41.68	-44.3	-46.9	17.6	0.00e+00	0	43	0	544210944	59	5064
2026-01-16 10:52:58.41	237.08	41.80	-44.7	-47.4	17.1	0.00e+00	0	43	0	546308096	59	5369
2026-01-16 10:52:59.41	237.54	41.91	-44.6	-47.4	17.1	0.00e+00	0	43	0	547356672	60	5055
2026-01-16 10:53:00.40	237.99	42.02	-44.2	-46.8	17.5	0.00e+00	0	43	0	549453824	60	4744
2026-01-16 10:53:01.39	238.44	42.13	-44.2	-46.7	17.7	0.00e+00	0	43	0	551550976	59	4970
2026-01-16 10:53:02.39	238.90	42.23	-43.7	-46.2	18.2	0.00e+00	0	43	0	553648128	59	4652
2026-01-16 10:53:03.38	239.36	42.34	-43.1	-45.4	18.8	0.00e+00	0	43	0	555745280	58	4542
2026-01-16 10:53:04.38	239.83	42.44	-43.2	-45.5	18.8	0.00e+00	0	43	0	556793856	58	4590
2026-01-16 10:53:05.37	240.30	42.54	-44.0	-46.5	17.9	0.00e+00	0	43	0	558891008	58	5152
2026-01-16 10:53:06.37	240.77	42.64	-44.5	-47.2	17.3	0.00e+00	0	43	0	560988160	59	5225
2026-01-16 10:53:07.36	241.25	42.74	-44.3	-46.8	17.6	0.00e+00	0	43	0	563085312	59	5038
2026-01-16 10:53:08.36	241.73	42.83	-44.0	-46.5	18.0	0.00e+00	0	43	0	564133888	59	4816
2026-01-16 10:53:09.35	242.20	42.93	-44.0	-46.5	17.9	0.00e+00	0	43	0	566231040	59	4832
2026-01-16 10:53:10.35	242.69	43.02	-44.6	-47.3	17.2	0.00e+00	0	43	0	568328192	59	5324
2026-01-16 10:53:11.34	243.17	43.11	-44.9	-47.7	16.8	0.00e+00	0	43	0	570425344	60	5248
2026-01-16 10:53:12.34	243.66	43.19	-44.4	-47.0	17.5	0.00e+00	0	43	0	572522496	60	4836
2026-01-16 10:53:13.33	244.15	43.28	-43.9	-46.4	18.1	0.00e+00	0	43	0	573571072	59	4760
2026-01-16 10:53:14.33	244.65	43.36	-43.9	-46.4	18.0	0.00e+00	0	43	0	575668224	59	4768
2026-01-16 10:53:15.32	245.14	43.44	-44.4	-47.0	17.3	0.00e+00	0	43	0	577765376	59	5149
2026-01-16 10:53:16.32	245.64	43.52	-44.3	-46.8	17.6	0.00e+00	0	43	0	579862528	59	5025
2026-01-16 10:53:17.32	246.14	43.60	-44.5	-47.1	17.3	0.00e+00	0	43	0	580911104	59	5166
2026-01-16 10:53:18.31	246.65	43.67	-44.7	-47.5	17.0	0.00e+00	0	43	0	583008256	60	5124
2026-01-16 10:53:19.31	247.15	43.74	-45.2	-48.1	16.4	0.00e+00	0	43	0	585105408	61	5197
2026-01-16 10:53:20.30	247.66	43.81	-44.9	-47.7	16.8	0.00e+00	0	43	0	587202560	61	4954
2026-01-16 10:53:21.30	248.17	43.88	-44.4	-47.1	17.4	0.00e+00	0	43	0	589299712	60	4880
2026-01-16 10:53:22.29	248.68	43.95	-43.7	-46.1	18.2	0.00e+00	0	43	0	590348288	59	4640
2026-01-16 10:53:23.28	249.19	44.01	-43.7	-46.1	18.2	0.00e+00	0	43	0	592445440	59	4638
2026-01-16 10:53:24.28	249.71	44.07	-43.5	-45.9	18.5	0.00e+00	0	43	0	594542592	59	4513
2026-01-16 10:53:25.27	250.22	44.13	-43.5	-45.8	18.5	0.00e+00	0	43	0	596639744	58	4754
2026-01-16 10:53:26.27	250.75	44.18	-43.5	-45.9	18.4	0.00e+00	0	43	0	597688320	58	4804
2026-01-16 10:53:27.27	251.27	44.24	-43.9	-46.4	18.1	0.00e+00	0	43	0	599785472	58	5046
2026-01-16 10:53:28.26	251.79	44.29	-44.0	-46.5	17.9	0.00e+00	0	43	0	601882624	58	5156
2026-01-16 10:53:29.25	252.31	44.33	-43.7	-46.1	18.3	0.00e+00	0	43	0	603979776	58	4922
2026-01-16 10:53:30.25	252.84	44.38	-43.4	-45.8	18.7	0.00e+00	0	43	0	606076928	58	4713
2026-01-16 10:53:31.24	253.36	44.42	-43.9	-46.4	18.0	0.00e+00	0	43	0	607125504	58	5071
2026-01-16 10:53:32.24	253.90	44.46	-44.1	-46.7	17.8	0.00e+00	0	43	0	609222656	59	4931
2026-01-16 10:53:33.24	254.43	44.50	-43.9	-46.4	17.9	0.00e+00	0	43	0	611319808	59	4783
2026-01-16 10:53:34.23	254.96	44.53	-43.9	-46.4	18.0	0.00e+00	0	43	0	613416960	59	4779
2026-01-16 10:53:35.23	255.49	44.56	-43.8	-46.3	18.1	0.00e+00	0	43	0	614465536	59	4712
2026-01-16 10:53:36.22	256.02	44.59	-43.9	-46.4	18.1	0.00e+00	0	43	0	616562688	59	4762
2026-01-16 10:53:37.22	256.56	44.62	-43.7	-46.1	18.3	0.00e+00	0	43	0	618659840	59	4615
2026-01-16 10:53:38.21	257.09	44.64	-42.8	-45.0	19.2	0.00e+00	0	43	0	620756992	57	4594
2026-01-16 10:53:39.21	257.63	44.67	-42.5	-44.6	19.6	0.00e+00	0	43	0	622854144	56	4650
2026-01-16 10:53:40.20	258.16	44.68	-42.2	-44.3	19.8	0.00e+00	0	43	0	623902720	56	4490
2026-01-16 10:53:41.20	258.70	44.70	-42.9	-45.1	19.2	0.00e+00	0	43	0	625999872	56	4906
2026-01-16 10:53:42.19	259.24	44.71	-43.6	-46.1	18.3	0.00e+00	0	43	0	628097024	57	5161
2026-01-16 10:53:43.19	259.78	44.72	-44.0	-46.5	17.9	0.00e+00	0	43	0	630194176	58	5147
2026-01-16 10:53:44.18	260.31	44.73	-43.8	-46.3	18.1	0.00e+00	0	43	0	632291328	59	4707
2026-01-16 10:53:45.18	260.85	44.74	-43.0	-45.2	19.1	0.00e+00	0	43	0	633339904	58	4438
2026-01-16 10:53:46.17	261.39	44.74	-42.6	-44.8	19.4	0.00e+00	0	43	0	635437056	57	4477
2026-01-16 10:53:47.17	261.93	44.74	-42.5	-44.6	19.6	0.00e+00	0	43	0	637534208	56	4639
2026-01-16 10:53:48.16	262.47	44.74	-42.5	-44.6	19.6	0.00e+00	0	43	0	639631360	56	4643
2026-01-16 10:53:49.16	263.01	44.73	-42.6	-44.8	19.5	0.00e+00	0	43	0	640679936	56	4707
2026-01-16 10:53:50.15	263.54	44.72	-43.0	-45.4	19.0	0.00e+00	0	43	0	642777088	56	5044
2026-01-16 10:53:51.15	264.08	44.71	-43.3	-45.7	18.7	0.00e+00	0	43	0	644874240	57	4955
2026-01-16 10:53:52.15	264.62	44.69	-43.9	-46.4	18.1	0.00e+00	0	43	0	646971392	58	5055
2026-01-16 10:53:53.14	265.16	44.68	-43.9	-46.5	17.9	0.00e+00	0	43	0	649068544	58	5102
2026-01-16 10:53:54.14	265.69	44.66	-43.8	-46.2	18.1	0.00e+00	0	43	0	650117120	58	4965
2026-01-16 10:53:55.13	266.23	44.64	-43.2	-45.5	19.0	0.00e+00	0	43	0	652214272	58	4549
2026-01-16 10:53:56.13	266.76	44.61	-43.0	-45.3	19.0	0.00e+00	0	43	0	654311424	57	4713
2026-01-16 10:53:57.12	267.29	44.58	-43.3	-45.6	18.7	0.00e+00	0	43	0	656408576	57	4920
2026-01-16 10:53:58.12	267.83	44.55	-44.1	-46.7	17.7	0.00e+00	0	43	0	657457152	58	5248
2026-01-16 10:53:59.11	268.36	44.52	-43.8	-46.3	18.3	0.00e+00	0	43	0	659554304	58	4991
2026-01-16 10:54:00.10	268.89	44.48	-43.0	-45.2	19.1	0.00e+00	0	43	0	661651456	58	4441
2026-01-16 10:54:01.10	269.42	44.45	-42.6	-44.8	19.4	0.00e+00	0	43	0	663748608	57	4451
2026-01-16 10:54:02.09	269.94	44.40	-43.3	-45.6	18.8	0.00e+00	0	43	0	665845760	57	4897
2026-01-16 10:54:03.09	270.47	44.36	-43.6	-46.0	18.4	0.00e+00	0	43	0	666894336	57	5128
2026-01-16 10:54:04.08	270.99	44.31	-43.7	-46.1	18.3	0.00e+00	0	43	0	668991488	58	4872
2026-01-16 10:54:05.07	271.51	44.27	-43.2	-45.4	18.9	0.00e+00	0	43	0	671088640	58	4521
2026-01-16 10:54:06.07	272.04	44.22	-43.6	-45.9	18.5	0.00e+00	0	43	0	673185792	58	4783
2026-01-16 10:54:07.07	272.56	44.16	-44.7	-47.5	17.2	0.00e+00	0	43	0	674234368	60	5102
2026-01-16 10:54:08.06	273.08	44.11	-45.8	-48.9	15.8	0.00e+00	0	43	0	676331520	62	5356
2026-01-16 10:54:09.05	273.59	44.05	-45.6	-48.6	16.0	0.00e+00	0	43	0	678428672	62	5184
2026-01-16 10:54:10.05	274.11	43.99	-45.0	-47.8	16.8	0.00e+00	0	43	0	680525824	61	5006
2026-01-16 10:54:11.04	274.62	43.92	-45.3	-48.2	16.4	0.00e+00	0	43	0	682622976	61	5248
2026-01-16 10:54:12.04	275.13	43.86	-45.8	-49.0	15.6	0.00e+00	0	43	0	683671552	62	5448
2026-01-16 10:54:13.04	275.64	43.79	-46.6	-50.3	14.2	7.00e-07	0	43	0	685768704	64	5650
2026-01-16 10:54:14.03	276.14	43.72	-46.1	-49.5	15.2	0.00e+00	0	43	0	687865856	63	5415
2026-01-16 10:54:15.02	276.64	43.65	-45.6	-48.6	16.1	0.00e+00	0	43	0	689963008	62	5168
2026-01-16 10:54:16.02	277.15	43.57	-45.4	-48.3	16.3	0.00e+00	0	43	0	691011584	62	4991
2026-01-16 10:54:17.01	277.64	43.49	-46.2	-49.5	15.2	0.00e+00	0	43	0	693108736	63	5417
2026-01-16 10:54:18.01	278.14	43.41	-46.6	-50.1	14.5	0.00e+00	0	43	0	695205888	63	5822
2026-01-16 10:54:19.00	278.63	43.33	-45.9	-49.0	15.6	0.00e+00	0	43	0	697303040	63	5153
2026-01-16 10:54:20.00	279.13	43.25	-45.4	-48.4	16.3	0.00e+00	0	43	0	699400192	62	5054
2026-01-16 10:54:20.99	279.61	43.16	-45.8	-48.9	15.7	0.00e+00	0	43	0	700448768	62	5365
2026-01-16 10:54:21.99	280.10	43.07	-47.1	-51.1	13.5	0.00e+00	0	43	0	702545920	64	6183
2026-01-16 10:54:22.99	280.59	42.98	-48.0	-52.8	11.8	2.37e-04	0	43	0	704643072	66	6693
2026-01-16 10:54:23.98	281.07	42.89	-48.0	-52.9	11.6	1.28e-03	0	43	0	706740224	67	6354
2026-01-16 10:54:24.98	281.55	42.80	-47.2	-51.3	13.4	5.18e-05	0	43	0	707788800	66	5621
2026-01-16 10:54:25.97	282.02	42.70	-47.0	-50.9	13.7	5.30e-06	0	43	0	709885952	65	5694
2026-01-16 10:54:26.97	282.50	42.61	-47.1	-51.1	13.6	6.10e-06	0	43	0	711983104	65	5810
2026-01-16 10:54:27.96	282.96	42.51	-46.5	-50.0	14.6	2.20e-06	0	43	0	714080256	64	5413
2026-01-16 10:54:28.96	283.43	42.40	-46.0	-49.1	15.5	0.00e+00	0	43	0	716177408	63	5184
2026-01-16 10:54:29.95	283.89	42.30	-46.1	-49.3	15.4	0.00e+00	0	43	0	717225984	63	5297
2026-01-16 10:54:30.95	284.36	42.20	-45.6	-48.6	16.0	0.00e+00	0	43	0	719323136	63	4898
2026-01-16 10:54:31.94	284.81	42.09	-45.0	-47.9	16.7	0.00e+00	0	43	0	721420288	62	4773
2026-01-16 10:54:32.94	285.27	41.98	-44.7	-47.3	17.2	0.00e+00	0	43	0	723517440	61	4751
2026-01-16 10:54:33.93	285.72	41.87	-44.6	-47.3	17.2	0.00e+00	0	43	0	725614592	60	4988
2026-01-16 10:54:34.93	286.17	41.76	-44.6	-47.2	17.4	0.00e+00	0	43	0	726663168	60	4960
2026-01-16 10:54:35.92	286.61	41.65	-44.5	-47.1	17.4	0.00e+00	0	43	0	728760320	60	4913
2026-01-16 10:54:36.91	287.05	41.53	-43.8	-46.2	18.1	0.00e+00	0	43	0	730857472	59	4678
2026-01-16 10:54:37.91	287.50	41.42	-43.5	-45.9	18.4	0.00e+00	0	43	0	732954624	59	4521
2026-01-16 10:54:38.90	287.93	41.30	-43.3	-45.6	18.8	0.00e+00	0	43	0	734003200	58	4633
2026-01-16 10:54:39.90	288.37	41.18	-44.4	-46.9	17.6	0.00e+00	0	43	0	736100352	59	5097
2026-01-16 10:54:40.89	288.79	41.06	-45.2	-48.1	16.4	0.00e+00	0	43	0	738197504	61	5210
2026-01-16 10:54:41.88	289.22	40.94	-45.0	-47.8	16.7	0.00e+00	0	43	0	740294656	61	5032
2026-01-16 10:54:42.88	289.64	40.82	-44.6	-47.3	17.2	0.00e+00	0	43	0	741343232	61	4720
2026-01-16 10:54:43.87	290.06	40.69	-44.3	-46.9	17.7	0.00e+00	0	43	0	743440384	60	4763
2026-01-16 10:54:44.87	290.48	40.57	-44.2	-46.8	17.6	0.00e+00	0	43	0	745537536	59	5006
2026-01-16 10:54:45.86	290.89	40.44	-44.4	-47.0	17.4	0.00e+00	0	43	0	747634688	59	5113
2026-01-16 10:54:46.86	291.31	40.31	-44.2	-46.8	17.6	0.00e+00	0	43	0	749731840	59	5008
2026-01-16 10:54:47.85	291.71	40.18	-43.6	-46.0	18.4	0.00e+00	0	43	0	750780416	59	4549
2026-01-16 10:54:48.85	292.12	40.05	-43.4	-45.8	18.6	0.00e+00	0	43	0	752877568	58	4724
2026-01-16 10:54:49.84	292.52	39.92	-43.7	-46.2	18.3	0.00e+00	0	43	0	754974720	58	4937
2026-01-16 10:54:50.84	292.92	39.79	-44.2	-46.8	17.7	0.00e+00	0	43	0	757071872	59	5018
2026-01-16 10:54:51.83	293.31	39.66	-44.3	-46.9	17.5	0.00e+00	0	43	0	759169024	59	5098
2026-01-16 10:54:52.83	293.70	39.52	-44.5	-47.2	17.3	0.00e+00	0	43	0	760217600	59	5267
2026-01-16 10:54:53.82	294.09	39.39	-44.7	-47.4	17.1	0.00e+00	0	43	0	762314752	59	5378
2026-01-16 10:54:54.82	294.48	39.25	-44.1	-46.6	17.9	0.00e+00	0	43	0	764411904	60	4647
2026-01-16 10:54:55.81	294.86	39.12	-43.4	-45.7	18.6	0.00e+00	0	43	0	766509056	58	4690
2026-01-16 10:54:56.81	295.24	38.98	-42.7	-44.9	19.3	0.00e+00	0	43	0	767557632	57	4521
2026-01-16 10:54:57.81	295.61	38.84	-42.6	-44.9	19.4	0.00e+00	0	43	0	769654784	56	4775
2026-01-16 10:54:58.80	295.98	38.70	-42.9	-45.2	19.1	0.00e+00	0	43	0	771751936	56	4959
2026-01-16 10:54:59.79	296.35	38.56	-43.2	-45.6	18.8	0.00e+00	0	43	0	773849088	57	4912
2026-01-16 10:55:00.79	296.72	38.42	-43.2	-45.6	18.7	0.00e+00	0	43	0	775946240	57	4902
2026-01-16 10:55:01.78	297.08	38.28	-42.9	-45.3	19.1	0.00e+00	0	43	0	776994816	57	4713
2026-01-16 10:55:02.78	297.44	38.14	-42.7	-45.0	19.3	0.00e+00	0	43	0	779091968	57	4552
2026-01-16 10:55:03.77	297.80	37.99	-42.4	-44.5	19.7	0.00e+00	0	43	0	781189120	56	4577
2026-01-16 10:55:04.77	298.15	37.85	-41.6	-43.7	20.3	0.00e+00	0	43	0	783286272	55	4407
2026-01-16 10:55:05.77	298.50	37.70	-41.9	-44.0	20.1	0.00e+00	0	43	0	784334848	55	4569
2026-01-16 10:55:06.76	298.85	37.56	-41.8	-43.9	20.1	0.00e+00	0	43	0	786432000	55	4508
2026-01-16 10:55:07.75	299.19	37.42	-42.0	-44.1	19.9	0.00e+00	0	43	0	788529152	55	4626
2026-01-16 10:55:08.75	299.54	37.27	-41.9	-44.0	20.0	0.00e+00	0	43	0	790626304	55	4567
2026-01-16 10:55:09.74	299.87	37.13	-41.5	-43.5	20.4	0.00e+00	0	43	0	792723456	55	4323
2026-01-16 10:55:10.74	300.21	36.98	-41.2	-43.2	20.7	0.00e+00	0	43	0	793772032	54	4429
2026-01-16 10:55:11.74	300.54	36.83	-41.0	-43.0	20.8	0.00e+00	0	43	0	795869184	54	4335
2026-01-16 10:55:12.73	300.87	36.68	-41.2	-43.3	20.6	0.00e+00	0	43	0	797966336	54	4452
2026-01-16 10:55:13.73	301.20	36.54	-41.0	-43.1	20.8	0.00e+00	0	43	0	800063488	54	4347
2026-01-16 10:55:14.72	301.52	36.39	-41.3	-43.4	20.5	0.00e+00	0	43	0	801112064	54	4509
2026-01-16 10:55:15.71	301.84	36.24	-41.6	-43.7	20.3	0.00e+00	0	43	0	803209216	54	4659
2026-01-16 10:55:16.71	302.16	36.09	-41.8	-43.9	20.1	0.00e+00	0	43	0	805306368	54	4783
2026-01-16 10:55:17.70	302.47	35.95	-41.8	-43.9	20.2	0.00e+00	0	43	0	807403520	54	4762
2026-01-16 10:55:18.70	302.79	35.80	-41.8	-43.9	20.1	0.00e+00	0	43	0	809500672	54	4795
2026-01-16 10:55:19.69	303.10	35.65	-42.0	-44.1	19.9	0.00e+00	0	43	0	810549248	54	4912
2026-01-16 10:55:20.69	303.40	35.50	-42.5	-44.8	19.3	0.00e+00	0	43	0	812646400	55	5028
2026-01-16 10:55:21.68	303.71	35.35	-43.8	-46.4	18.1	0.00e+00	0	43	0	814743552	58	5047
2026-01-16 10:55:22.68	304.01	35.20	-43.8	-46.4	18.1	0.00e+00	0	43	0	816840704	58	5042
2026-01-16 10:55:23.67	304.31	35.05	-43.2	-45.5	18.8	0.00e+00	0	43	0	817889280	58	4593
2026-01-16 10:55:24.67	304.60	34.90	-42.4	-44.6	19.6	0.00e+00	0	43	0	819986432	56	4625
2026-01-16 10:55:25.66	304.90	34.75	-42.4	-44.6	19.6	0.00e+00	0	43	0	822083584	56	4634
2026-01-16 10:55:26.66	305.19	34.60	-42.7	-45.0	19.3	0.00e+00	0	43	0	824180736	56	4823
2026-01-16 10:55:27.66	305.48	34.45	-43.6	-46.1	18.3	0.00e+00	0	43	0	826277888	57	5166
2026-01-16 10:55:28.65	305.76	34.30	-44.4	-47.1	17.5	0.00e+00	0	43	0	827326464	59	5169
2026-01-16 10:55:29.65	306.04	34.15	-44.1	-46.6	17.8	0.00e+00	0	43	0	829423616	59	4921
2026-01-16 10:55:30.64	306.32	34.00	-43.7	-46.1	18.2	0.00e+00	0	43	0	831520768	59	4635
2026-01-16 10:55:31.63	306.60	33.85	-43.3	-45.7	18.7	0.00e+00	0	43	0	833617920	58	4662
2026-01-16 10:55:32.63	306.88	33.70	-43.2	-45.6	18.8	0.00e+00	0	43	0	834666496	58	4606
2026-01-16 10:55:33.62	307.15	33.55	-43.3	-45.7	18.7	0.00e+00	0	43	0	836763648	58	4657
2026-01-16 10:55:34.62	307.42	33.40	-44.1	-46.7	17.7	0.00e+00	0	43	0	838860800	58	5267
2026-01-16 10:55:35.61	307.68	33.25	-45.4	-48.5	16.1	0.00e+00	0	43	0	840957952	61	5424
2026-01-16 10:55:36.61	307.95	33.10	-45.9	-49.3	15.4	0.00e+00	0	43	0	843055104	62	5608
2026-01-16 10:55:37.60	308.21	32.95	-45.6	-48.9	15.7	0.00e+00	0	43	0	844103680	62	5388
2026-01-16 10:55:38.60	308.47	32.80	-44.3	-47.0	17.4	0.00e+00	0	43	0	846200832	60	4863
2026-01-16 10:55:39.59	308.73	32.65	-43.4	-45.8	18.5	0.00e+00	0	43	0	848297984	58	4739
2026-01-16 10:55:40.59	308.99	32.50	-43.3	-45.6	18.7	0.00e+00	0	43	0	850395136	58	4626
2026-01-16 10:55:41.58	309.24	32.35	-43.0	-45.3	19.0	0.00e+00	0	43	0	851443712	57	4747
2026-01-16 10:55:42.57	309.49	32.20	-43.9	-46.4	18.0	0.00e+00	0	43	0	853540864	58	5078
2026-01-16 10:55:43.57	309.74	32.05	-45.5	-48.6	16.1	0.00e+00	0	43	0	855638016	61	5472
2026-01-16 10:55:44.56	309.99	31.90	-46.4	-50.1	14.5	7.00e-07	0	43	0	857735168	63	5802
2026-01-16 10:55:45.56	310.23	31.75	-45.7	-49.0	15.6	0.00e+00	0	43	0	859832320	63	5114
2026-01-16 10:55:46.55	310.47	31.61	-44.6	-47.4	17.2	0.00e+00	0	43	0	860880896	61	4769
2026-01-16 10:55:47.55	310.71	31.46	-43.9	-46.4	17.9	0.00e+00	0	43	0	862978048	59	4787
2026-01-16 10:55:48.54	310.95	31.31	-43.5	-45.9	18.4	0.00e+00	0	43	0	865075200	59	4507
2026-01-16 10:55:49.54	311.19	31.16	-43.3	-45.6	18.7	0.00e+00	0	43	0	867172352	58	4631
2026-01-16 10:55:50.53	311.42	31.01	-43.9	-46.3	18.1	0.00e+00	0	43	0	868220928	58	5026
2026-01-16 10:55:51.53	311.65	30.87	-44.5	-47.1	17.4	0.00e+00	0	43	0	870318080	59	5190
2026-01-16 10:55:52.52	311.88	30.72	-45.2	-48.1	16.5	0.00e+00	0	43	0	872415232	60	5518
2026-01-16 10:55:53.51	312.11	30.57	-45.5	-48.6	15.9	0.00e+00	0	43	0	874512384	61	5517
2026-01-16 10:55:54.51	312.33	30.43	-45.0	-47.9	16.7	0.00e+00	0	43	0	876609536	61	5060
2026-01-16 10:55:55.50	312.56	30.28	-44.1	-46.7	17.8	0.00e+00	0	43	0	877658112	60	4656
2026-01-16 10:55:56.50	312.78	30.13	-43.3	-45.6	18.7	0.00e+00	0	43	0	879755264	58	4646
2026-01-16 10:55:57.50	313.00	29.99	-43.0	-45.2	19.0	0.00e+00	0	43	0	881852416	57	4695
2026-01-16 10:55:58.49	313.22	29.84	-42.8	-45.0	19.2	0.00e+00	0	43	0	883949568	57	4576
2026-01-16 10:55:59.49	313.43	29.70	-43.6	-46.0	18.4	0.00e+00	0	43	0	884998144	57	5136
2026-01-16 10:56:00.48	313.65	29.55	-44.8	-47.5	17.0	0.00e+00	0	43	0	887095296	60	5155
2026-01-16 10:56:01.48	313.86	29.41	-45.6	-48.8	15.8	0.00e+00	0	43	0	889192448	61	5595
2026-01-16 10:56:02.47	314.07	29.26	-46.4	-50.2	14.5	0.00e+00	0	43	0	891289600	63	5876
2026-01-16 10:56:03.47	314.28	29.12	-46.0	-49.6	15.0	0.00e+00	0	43	0	893386752	63	5485
2026-01-16 10:56:04.46	314.48	28.98	-44.9	-47.9	16.5	0.00e+00	0	43	0	894435328	61	5088
2026-01-16 10:56:05.46	314.69	28.83	-43.9	-46.6	17.8	0.00e+00	0	43	0	896532480	59	4871
2026-01-16 10:56:06.45	314.89	28.69	-43.3	-45.9	18.5	0.00e+00	0	43	0	898629632	58	4766
2026-01-16 10:56:07.44	315.09	28.55	-42.6	-44.9	19.3	0.00e+00	0	43	0	900726784	57	4542
2026-01-16 10:56:08.44	315.29	28.41	-42.7	-45.1	19.1	0.00e+00	0	43	0	901775360	57	4635
2026-01-16 10:56:09.43	315.49	28.26	-43.3	-45.8	18.5	0.00e+00	0	43	0	903872512	57	5032
2026-01-16 10:56:10.43	315.68	28.12	-43.9	-46.6	17.8	0.00e+00	0	43	0	905969664	58	5196
2026-01-16 10:56:11.42	315.88	27.98	-44.6	-47.5	16.9	0.00e+00	0	43	0	908066816	59	5460
2026-01-16 10:56:12.42	316.07	27.84	-44.9	-48.0	16.5	0.00e+00	0	43	0	910163968	60	5454
2026-01-16 10:56:13.41	316.26	27.70	-45.1	-48.2	16.3	0.00e+00	0	43	0	911212544	60	5584
2026-01-16 10:56:14.41	316.45	27.56	-44.6	-47.4	17.1	0.00e+00	0	43	0	913309696	60	5070
2026-01-16 10:56:15.40	316.64	27.42	-44.0	-46.6	17.8	0.00e+00	0	43	0	915406848	59	4888
2026-01-16 10:56:16.40	316.82	27.28	-43.6	-46.1	18.2	0.00e+00	0	43	0	917504000	59	4605
2026-01-16 10:56:17.39	317.01	27.15	-43.6	-46.0	18.3	0.00e+00	0	43	0	918552576	58	4843
2026-01-16 10:56:18.39	317.19	27.01	-43.5	-45.9	18.5	0.00e+00	0	43	0	920649728	58	4762
2026-01-16 10:56:19.38	317.37	26.87	-43.6	-46.0	18.3	0.00e+00	0	43	0	922746880	58	4857
2026-01-16 10:56:20.38	317.55	26.73	-43.9	-46.4	17.9	0.00e+00	0	43	0	924844032	58	5097
2026-01-16 10:56:21.37	317.73	26.59	-44.0	-46.6	17.8	0.00e+00	0	43	0	926941184	58	5201
2026-01-16 10:56:22.37	317.91	26.46	-44.3	-47.1	17.4	0.00e+00	0	43	0	927989760	59	5162
2026-01-16 10:56:23.36	318.08	26.32	-44.3	-47.1	17.4	0.00e+00	0	43	0	930086912	59	5201
2026-01-16 10:56:24.36	318.26	26.19	-43.9	-46.6	17.8	0.00e+00	0	43	0	932184064	59	4905
2026-01-16 10:56:25.35	318.43	26.05	-43.7	-46.3	18.0	0.00e+00	0	43	0	934281216	59	4755
2026-01-16 10:56:26.35	318.60	25.92	-43.7	-46.3	18.1	0.00e+00	0	43	0	935329792	59	4714
2026-01-16 10:56:27.34	318.77	25.78	-43.2	-45.6	18.7	0.00e+00	0	43	0	937426944	58	4616
2026-01-16 10:56:28.34	318.94	25.65	-43.0	-45.4	18.9	0.00e+00	0	43	0	939524096	58	4497
2026-01-16 10:56:29.33	319.11	25.51	-42.9	-45.2	19.0	0.00e+00	0	43	0	941621248	57	4700
2026-01-16 10:56:30.33	319.27	25.38	-42.7	-45.0	19.2	0.00e+00	0	43	0	943718400	57	4571
2026-01-16 10:56:31.32	319.44	25.25	-42.7	-45.0	19.3	0.00e+00	0	43	0	944766976	57	4553
2026-01-16 10:56:32.32	319.60	25.12	-42.5	-44.8	19.4	0.00e+00	0	43	0	946864128	57	4476
2026-01-16 10:56:33.31	319.76	24.98	-42.7	-45.0	19.2	0.00e+00	0	43	0	948961280	57	4597
2026-01-16 10:56:34.31	319.92	24.85	-43.0	-45.3	18.9	0.00e+00	0	43	0	951058432	57	4747
2026-01-16 10:56:35.30	320.08	24.72	-43.2	-45.7	18.6	0.00e+00	0	43	0	952107008	57	4950
2026-01-16 10:56:36.30	320.24	24.59	-43.3	-45.8	18.5	0.00e+00	0	43	0	954204160	57	5027
2026-01-16 10:56:37.29	320.39	24.46	-43.6	-46.2	18.1	0.00e+00	0	43	0	956301312	57	5261
2026-01-16 10:56:38.29	320.55	24.33	-43.8	-46.5	17.9	0.00e+00	0	43	0	958398464	58	5115
2026-01-16 10:56:39.28	320.70	24.20	-43.7	-46.4	18.0	0.00e+00	0	43	0	960495616	58	5079
2026-01-16 10:56:40.28	320.86	24.07	-43.7	-46.5	17.9	0.00e+00	0	43	0	961544192	58	5102
2026-01-16 10:56:41.27	321.01	23.94	-43.7	-46.4	17.9	0.00e+00	0	43	0	963641344	58	5096
2026-01-16 10:56:42.27	321.16	23.82	-43.7	-46.4	17.9	0.00e+00	0	43	0	965738496	58	5100
2026-01-16 10:56:43.26	321.31	23.69	-43.5	-46.2	18.2	0.00e+00	0	43	0	967835648	58	4947
2026-01-16 10:56:44.26	321.45	23.56	-43.4	-46.0	18.3	0.00e+00	0	43	0	968884224	58	4841
2026-01-16 10:56:45.25	321.60	23.44	-43.0	-45.5	18.8	0.00e+00	0	43	0	970981376	58	4547
2026-01-16 10:56:46.25	321.75	23.31	-43.1	-45.5	18.8	0.00e+00	0	43	0	973078528	58	4575
2026-01-16 10:56:47.25	321.89	23.18	-43.1	-45.5	18.8	0.00e+00	0	43	0	975175680	57	4823
2026-01-16 10:56:48.24	322.03	23.06	-43.1	-45.5	18.7	0.00e+00	0	43	0	977272832	57	4862
2026-01-16 10:56:49.24	322.18	22.93	-43.3	-45.7	18.6	0.00e+00	0	43	0	978321408	57	4952
2026-01-16 10:56:50.24	322.32	22.81	-43.5	-46.0	18.3	0.00e+00	0	43	0	980418560	57	5137
2026-01-16 10:56:51.23	322.46	22.68	-43.7	-46.2	18.1	0.00e+00	0	43	0	982515712	57	5279
2026-01-16 10:56:52.22	322.60	22.56	-44.0	-46.7	17.7	0.00e+00	0	43	0	984612864	58	5252
2026-01-16 10:56:53.22	322.74	22.44	-44.3	-47.1	17.2	0.00e+00	0	43	0	985661440	59	5185
2026-01-16 10:56:54.22	322.87	22.31	-44.4	-47.2	17.2	0.00e+00	0	43	0	987758592	59	5249
2026-01-16 10:56:55.21	323.01	22.19	-44.6	-47.4	17.0	0.00e+00	0	43	0	989855744	60	5099
2026-01-16 10:56:56.21	323.14	22.07	-44.4	-47.2	17.3	0.00e+00	0	43	0	991952896	60	4940
2026-01-16 10:56:57.21	323.28	21.95	-44.3	-47.1	17.4	0.00e+00	0	43	0	994050048	60	4872
2026-01-16 10:56:58.20	323.41	21.83	-44.4	-47.2	17.2	0.00e+00	0	43	0	995098624	60	4953
2026-01-16 10:56:59.19	323.54	21.71	-44.0	-46.7	17.7	0.00e+00	0	43	0	997195776	59	4955
2026-01-16 10:57:00.19	323.67	21.59	-44.2	-47.0	17.4	0.00e+00	0	43	0	999292928	59	5107
2026-01-16 10:57:01.19	323.80	21.47	-43.9	-46.5	17.8	0.00e+00	0	43	0	1001390080	59	4845
2026-01-16 10:57:02.18	323.93	21.35	-43.9	-46.6	17.8	0.00e+00	0	43	0	1003487232	59	4904
2026-01-16 10:57:03.17	324.06	21.23	-44.2	-46.9	17.4	0.00e+00	0	43	0	1004535808	59	5086
2026-01-16 10:57:04.17	324.19	21.11	-44.1	-46.9	17.5	0.00e+00	0	43	0	1006632960	59	5054
2026-01-16 10:57:05.16	324.31	20.99	-44.2	-47.0	17.3	0.00e+00	0	43	0	1008730112	59	5153
2026-01-16 10:57:06.16	324.44	20.87	-44.5	-47.4	17.0	0.00e+00	0	43	0	1010827264	59	5375
2026-01-16 10:57:07.15	324.56	20.76	-44.2	-47.0	17.4	0.00e+00	0	43	0	1011875840	59	5140
2026-01-16 10:57:08.15	324.68	20.64	-44.6	-47.6	16.8	0.00e+00	0	43	0	1013972992	59	5500
2026-01-16 10:57:09.14	324.81	20.52	-44.3	-47.3	17.0	0.00e+00	0	43	0	1016070144	60	5038
2026-01-16 10:57:10.14	324.93	20.41	-44.2	-47.2	17.3	0.00e+00	0	43	0	1018167296	60	4936
2026-01-16 10:57:11.13	325.05	20.29	-44.3	-47.2	17.2	0.00e+00	0	43	0	1020264448	60	4956
2026-01-16 10:57:12.13	325.17	20.18	-43.9	-46.6	17.7	0.00e+00	0	43	0	1021313024	59	4908
2026-01-16 10:57:13.12	325.29	20.06	-43.8	-46.5	17.8	0.00e+00	0	43	0	1023410176	59	4830
2026-01-16 10:57:14.12	325.41	19.95	-43.9	-46.4	17.9	0.00e+00	0	43	0	1025507328	59	4812
2026-01-16 10:57:15.11	325.52	19.83	-43.4	-45.9	18.4	0.00e+00	0	43	0	1027604480	58	4777
2026-01-16 10:57:16.11	325.64	19.72	-43.6	-46.0	18.3	0.00e+00	0	43	0	1028653056	58	4848
2026-01-16 10:57:17.10	325.75	19.61	-43.5	-45.9	18.3	0.00e+00	0	43	0	1030750208	58	4800
2026-01-16 10:57:18.10	325.87	19.50	-43.1	-45.5	18.8	0.00e+00	0	43	0	1032847360	58	4552
2026-01-16 10:57:19.09	325.98	19.38	-43.3	-45.7	18.6	0.00e+00	0	43	0	1034944512	58	4655
2026-01-16 10:57:20.09	326.10	19.27	-43.1	-45.5	18.7	0.00e+00	0	43	0	1037041664	58	4570
2026-01-16 10:57:21.08	326.21	19.16	-43.4	-45.8	18.4	0.00e+00	0	43	0	1038090240	58	4748
2026-01-16 10:57:22.08	326.32	19.05	-43.5	-46.1	18.2	0.00e+00	0	43	0	1040187392	58	4886
2026-01-16 10:57:23.07	326.43	18.94	-43.6	-46.2	18.1	0.00e+00	0	43	0	1042284544	58	4947
2026-01-16 10:57:24.07	326.54	18.83	-44.1	-46.9	17.5	0.00e+00	0	43	0	1044381696	58	5364
2026-01-16 10:57:25.06	326.65	18.72	-44.4	-47.3	17.0	0.00e+00	0	43	0	1045430272	59	5334
2026-01-16 10:57:26.06	326.76	18.61	-44.3	-47.2	17.2	0.00e+00	0	43	0	1047527424	59	5263
2026-01-16 10:57:27.05	326.87	18.50	-44.5	-47.5	16.9	0.00e+00	0	43	0	1049624576	59	5413
2026-01-16 10:57:28.05	326.97	18.39	-44.3	-47.2	17.1	0.00e+00	0	43	0	1051721728	59	5278
2026-01-16 10:57:29.04	327.08	18.28	-44.6	-47.6	16.7	0.00e+00	0	43	0	1053818880	59	5494
2026-01-16 10:57:30.04	327.18	18.17	-44.3	-47.3	17.1	0.00e+00	0	43	0	1054867456	59	5286
2026-01-16 10:57:31.03	327.29	18.07	-44.1	-46.9	17.5	0.00e+00	0	43	0	1056964608	59	5054
2026-01-16 10:57:32.03	327.39	17.96	-44.0	-46.8	17.5	0.00e+00	0	43	0	1059061760	59	5035
2026-01-16 10:57:33.02	327.50	17.85	-43.9	-46.7	17.6	0.00e+00	0	43	0	1061158912	59	4971
2026-01-16 10:57:34.02	327.60	17.75	-43.9	-46.6	17.6	0.00e+00	0	43	0	1062207488	59	4913
2026-01-16 10:57:35.01	327.70	17.64	-43.6	-46.3	18.0	0.00e+00	0	43	0	1064304640	59	4711
2026-01-16 10:57:36.01	327.80	17.54	-43.6	-46.3	18.0	0.00e+00	0	43	0	1066401792	59	4725
2026-01-16 10:57:37.00	327.90	17.43	-43.4	-46.1	18.1	0.00e+00	0	43	0	1068498944	58	4913
2026-01-16 10:57:38.00	328.00	17.33	-43.4	-46.1	18.2	0.00e+00	0	43	0	1070596096	58	4873
2026-01-16 10:57:38.99	328.10	17.22	-43.4	-46.1	18.2	0.00e+00	0	43	0	1071644672	58	4883
2026-01-16 10:57:39.99	328.20	17.12	-43.5	-46.2	18.1	0.00e+00	0	43	0	1073741824	58	4929
2026-01-16 10:57:40.98	328.30	17.01	-43.8	-46.6	17.8	0.00e+00	0	43	0	1075838976	58	5167
2026-01-16 10:57:41.98	328.40	16.91	-44.0	-46.8	17.5	0.00e+00	0	43	0	1077936128	58	5285
2026-01-16 10:57:42.97	328.49	16.81	-44.2	-47.0	17.3	0.00e+00	0	43	0	1078984704	59	5140
2026-01-16 10:57:43.97	328.59	16.70	-44.4	-47.3	17.1	0.00e+00	0	43	0	1081081856	59	5283
2026-01-16 10:57:44.96	328.68	16.60	-44.6	-47.4	16.9	0.00e+00	0	43	0	1083179008	59	5400
2026-01-16 10:57:45.96	328.78	16.50	-44.9	-47.9	16.6	0.00e+00	0	43	0	1085276160	60	5350
2026-01-16 10:57:46.95	328.87	16.40	-44.9	-47.9	16.4	0.00e+00	0	43	0	1087373312	60	5388
2026-01-16 10:57:47.95	328.97	16.30	-45.2	-48.2	16.2	0.00e+00	0	43	0	1088421888	60	5572
2026-01-16 10:57:48.95	329.06	16.20	-45.1	-48.1	16.2	0.00e+00	0	43	0	1090519040	61	5214
2026-01-16 10:57:49.94	329.15	16.10	-44.9	-47.8	16.6	0.00e+00	0	43	0	1092616192	61	5033
2026-01-16 10:57:50.94	329.25	15.99	-45.1	-48.1	16.3	0.00e+00	0	43	0	1094713344	61	5182
2026-01-16 10:57:51.93	329.34	15.90	-45.2	-48.3	16.1	0.00e+00	0	43	0	1096810496	61	5291
2026-01-16 10:57:52.93	329.43	15.80	-45.0	-47.9	16.5	0.00e+00	0	43	0	1097859072	61	5097
2026-01-16 10:57:53.92	329.52	15.70	-44.9	-47.7	16.6	0.00e+00	0	43	0	1099956224	61	4971
2026-01-16 10:57:54.92	329.61	15.60	-44.9	-47.8	16.6	0.00e+00	0	43	0	1102053376	61	5015
2026-01-16 10:57:55.91	329.70	15.50	-45.0	-48.0	16.4	0.00e+00	0	43	0	1104150528	61	5118
2026-01-16 10:57:56.91	329.78	15.40	-45.0	-47.9	16.5	0.00e+00	0	43	0	1105199104	61	5061
2026-01-16 10:57:57.90	329.87	15.30	-45.0	-47.9	16.4	0.00e+00	0	43	0	1107296256	61	5069
2026-01-16 10:57:58.90	329.96	15.21	-44.9	-47.9	16.5	0.00e+00	0	43	0	1109393408	61	5072
2026-01-16 10:57:59.89	330.05	15.11	-45.1	-48.1	16.2	0.00e+00	0	43	0	1111490560	61	5213
2026-01-16 10:58:00.89	330.13	15.01	-45.0	-48.1	16.3	0.00e+00	0	43	0	1113587712	61	5175
2026-01-16 10:58:01.88	330.22	14.92	-45.0	-48.1	16.3	0.00e+00	0	43	0	1114636288	61	5167
2026-01-16 10:58:02.88	330.30	14.82	-45.0	-48.1	16.2	0.00e+00	0	43	0	1116733440	61	5195
2026-01-16 10:58:03.87	330.39	14.72	-45.1	-48.3	16.1	0.00e+00	0	43	0	1118830592	61	5313
2026-01-16 10:58:04.87	330.47	14.63	-45.2	-48.3	16.1	0.00e+00	0	43	0	1120927744	61	5324
2026-01-16 10:58:05.86	330.56	14.53	-45.1	-48.3	16.1	0.00e+00	0	43	0	1121976320	61	5310
2026-01-16 10:58:06.86	330.64	14.44	-45.0	-48.1	16.3	0.00e+00	0	43	0	1124073472	61	5173
2026-01-16 10:58:07.85	330.72	14.34	-45.1	-48.2	16.1	0.00e+00	0	43	0	1126170624	61	5277
2026-01-16 10:58:08.85	330.80	14.25	-44.9	-48.1	16.3	0.00e+00	0	43	0	1128267776	61	5162
2026-01-16 10:58:09.84	330.89	14.16	-44.9	-48.0	16.4	0.00e+00	0	43	0	1130364928	61	5119
2026-01-16 10:58:10.83	330.97	14.06	-45.0	-48.1	16.3	0.00e+00	0	43	0	1131413504	61	5179
2026-01-16 10:58:11.83	331.05	13.97	-44.9	-47.9	16.4	0.00e+00	0	43	0	1133510656	61	5100
2026-01-16 10:58:12.82	331.13	13.88	-44.6	-47.6	16.8	0.00e+00	0	43	0	1135607808	61	4895
2026-01-16 10:58:13.82	331.21	13.78	-44.9	-47.9	16.4	0.00e+00	0	43	0	1137704960	61	5075
2026-01-16 10:58:14.81	331.29	13.69	-44.6	-47.5	16.8	0.00e+00	0	43	0	1138753536	61	4833
2026-01-16 10:58:15.81	331.37	13.60	-44.6	-47.5	16.9	0.00e+00	0	43	0	1140850688	60	5113
2026-01-16 10:58:16.80	331.44	13.51	-44.4	-47.2	17.1	0.00e+00	0	43	0	1142947840	60	4951
2026-01-16 10:58:17.80	331.52	13.42	-44.3	-47.0	17.3	0.00e+00	0	43	0	1145044992	60	4846
2026-01-16 10:58:18.79	331.60	13.33	-44.2	-46.9	17.4	0.00e+00	0	43	0	1147142144	60	4771
2026-01-16 10:58:19.79	331.68	13.23	-44.0	-46.6	17.7	0.00e+00	0	43	0	1148190720	60	4627
2026-01-16 10:58:20.79	331.75	13.14	-43.9	-46.5	17.8	0.00e+00	0	43	0	1150287872	59	4817
2026-01-16 10:58:21.78	331.83	13.05	-44.0	-46.6	17.6	0.00e+00	0	43	0	1152385024	59	4889
2026-01-16 10:58:22.78	331.90	12.96	-43.9	-46.5	17.7	0.00e+00	0	43	0	1154482176	59	4837
2026-01-16 10:58:23.78	331.98	12.87	-43.9	-46.5	17.7	0.00e+00	0	43	0	1155530752	59	4830
2026-01-16 10:58:24.77	332.05	12.78	-43.8	-46.4	17.7	0.00e+00	0	43	0	1157627904	59	4794
2026-01-16 10:58:25.77	332.13	12.69	-43.7	-46.3	17.8	0.00e+00	0	43	0	1159725056	59	4734
2026-01-16 10:58:26.76	332.20	12.61	-43.8	-46.4	17.8	0.00e+00	0	43	0	1161822208	59	4789
2026-01-16 10:58:27.76	332.28	12.52	-43.8	-46.4	17.8	0.00e+00	0	43	0	1163919360	59	4776
2026-01-16 10:58:28.76	332.35	12.43	-43.8	-46.4	17.8	0.00e+00	0	43	0	1164967936	59	4787
2026-01-16 10:58:29.75	332.42	12.34	-43.8	-46.5	17.7	0.00e+00	0	43	0	1167065088	59	4837
2026-01-16 10:58:30.74	332.49	12.25	-43.9	-46.6	17.7	0.00e+00	0	43	0	1169162240	59	4872
2026-01-16 10:58:31.74	332.57	12.17	-43.9	-46.6	17.6	0.00e+00	0	43	0	1171259392	59	4894
2026-01-16 10:58:32.73	332.64	12.08	-44.0	-46.7	17.5	0.00e+00	0	43	0	1173356544	59	4932
2026-01-16 10:58:33.73	332.71	11.99	-44.0	-46.7	17.4	0.00e+00	0	43	0	1174405120	59	4980
2026-01-16 10:58:34.72	332.78	11.91	-44.1	-46.8	17.3	0.00e+00	0	43	0	1176502272	59	5030
2026-01-16 10:58:35.71	332.85	11.82	-44.1	-46.8	17.3	0.00e+00	0	43	0	1178599424	59	5035
2026-01-16 10:58:36.71	332.92	11.73	-44.5	-47.3	16.9	0.00e+00	0	43	0	1180696576	59	5313
2026-01-16 10:58:37.71	332.99	11.65	-44.4	-47.3	16.9	0.00e+00	0	43	0	1181745152	59	5281
2026-01-16 10:58:38.70	333.06	11.56	-44.4	-47.2	16.9	0.00e+00	0	43	0	1183842304	59	5277
2026-01-16 10:58:39.69	333.13	11.48	-44.7	-47.6	16.6	0.00e+00	0	43	0	1185939456	60	5186
2026-01-16 10:58:40.69	333.20	11.39	-44.7	-47.6	16.7	0.00e+00	0	43	0	1188036608	60	5207
2026-01-16 10:58:41.69	333.26	11.31	-44.7	-47.7	16.6	0.00e+00	0	43	0	1190133760	60	5232
2026-01-16 10:58:42.68	333.33	11.22	-44.7	-47.7	16.5	0.00e+00	0	43	0	1191182336	60	5271
2026-01-16 10:58:43.67	333.40	11.14	-44.9	-48.0	16.3	0.00e+00	0	43	0	1193279488	60	5436
2026-01-16 10:58:44.67	333.47	11.05	-44.9	-48.0	16.2	0.00e+00	0	43	0	1195376640	60	5455
2026-01-16 10:58:45.66	333.53	10.97	-45.1	-48.3	16.0	0.00e+00	0	43	0	1197473792	60	5602
2026-01-16 10:58:46.66	333.60	10.89	-45.1	-48.4	15.9	0.00e+00	0	43	0	1198522368	61	5347
2026-01-16 10:58:47.65	333.67	10.80	-45.3	-48.7	15.6	0.00e+00	0	43	0	1200619520	61	5535
2026-01-16 10:58:48.65	333.73	10.72	-45.2	-48.6	15.7	0.00e+00	0	43	0	1202716672	61	5473
2026-01-16 10:58:49.64	333.80	10.64	-45.2	-48.6	15.7	0.00e+00	0	43	0	1204813824	61	5471
2026-01-16 10:58:50.64	333.86	10.56	-45.4	-48.8	15.5	0.00e+00	0	43	0	1206910976	61	5638
2026-01-16 10:58:51.63	333.93	10.47	-45.3	-48.7	15.6	0.00e+00	0	43	0	1207959552	61	5539
2026-01-16 10:58:52.63	333.99	10.39	-45.3	-48.7	15.5	0.00e+00	0	43	0	1210056704	61	5587
2026-01-16 10:58:53.63	334.05	10.31	-45.6	-49.1	15.2	0.00e+00	0	43	0	1212153856	61	5827
