passes_logs/2026/01/16/T1/T1__20260116_210632_KHAYYAM_rec.log

#Pass ID: 20260116_210632_KHAYYAM
#Satellite: KHAYYAM
#Configuration: KHAYYAM_480M
#almurnet v.1.7.20251203
#Start time: 2026-01-16 21:06:33

#Version: 2.0.20230620
#Station: T1
#Location: 37.570604 lon 55.790049 lat
#TLE: 1 53370U 22096A   26016.26944296  .00002688  00000+0  11195-3 0  9997
#TLE: 2 53370  97.3563 283.2565 0001591 106.1097 254.0316 15.24586395191431

#Time	Az	El	Level	Level2	SNR	BER	BlckErr	Temp	State	Recorded	gain1	gain2
2026-01-16 21:06:33.66	17.00	4.98	-50.1	-54.5	3.4	0.00e+00	0	45	0	0	72	22989
2026-01-16 21:06:34.64	17.02	5.05	-50.2	-54.5	3.7	0.00e+00	0	46	104	0	71	24431
2026-01-16 21:06:35.64	17.04	5.13	-50.2	-54.6	3.7	0.00e+00	0	46	104	0	71	24531
2026-01-16 21:06:36.63	17.07	5.21	-50.2	-54.5	3.7	0.00e+00	0	46	104	0	71	24472
2026-01-16 21:06:37.62	17.09	5.30	-50.2	-54.5	3.7	0.00e+00	0	46	104	0	71	24461
2026-01-16 21:06:38.62	17.12	5.38	-50.2	-54.5	3.7	0.00e+00	0	46	104	0	71	24497
2026-01-16 21:06:39.61	17.14	5.46	-50.2	-54.6	3.7	0.00e+00	0	46	104	0	71	24536
2026-01-16 21:06:40.61	17.17	5.54	-50.2	-54.6	3.7	0.00e+00	0	47	104	0	71	24538
2026-01-16 21:06:41.60	17.20	5.62	-50.2	-54.5	3.7	0.00e+00	0	46	104	0	71	24503
2026-01-16 21:06:42.59	17.22	5.70	-50.2	-54.6	3.7	0.00e+00	0	47	104	0	71	24538
2026-01-16 21:06:43.59	17.25	5.79	-50.2	-54.5	3.7	0.00e+00	0	47	104	0	71	24472
2026-01-16 21:06:44.58	17.27	5.87	-50.2	-54.5	3.7	0.00e+00	0	47	104	0	71	24482
2026-01-16 21:06:45.57	17.30	5.95	-50.2	-54.5	3.7	0.00e+00	0	47	104	0	71	24480
2026-01-16 21:06:46.57	17.33	6.04	-50.2	-54.6	3.7	0.00e+00	0	47	104	0	71	24544
2026-01-16 21:06:47.56	17.35	6.12	-50.2	-54.5	3.7	0.00e+00	0	47	104	0	71	24504
2026-01-16 21:06:48.55	17.38	6.21	-50.2	-54.5	3.7	0.00e+00	0	47	104	0	71	24500
2026-01-16 21:06:49.55	17.41	6.29	-50.2	-54.5	3.7	0.00e+00	0	47	104	0	71	24436
2026-01-16 21:06:50.54	17.43	6.38	-50.2	-54.6	3.7	0.00e+00	0	47	104	0	71	24576
2026-01-16 21:06:51.54	17.46	6.46	-50.2	-54.5	3.7	0.00e+00	0	47	104	0	71	24485
2026-01-16 21:06:52.53	17.49	6.55	-50.2	-54.5	3.7	0.00e+00	0	47	104	0	71	24516
2026-01-16 21:06:53.52	17.51	6.63	-50.2	-54.5	3.7	0.00e+00	0	47	104	0	71	24441
2026-01-16 21:06:54.52	17.54	6.72	-50.2	-54.5	3.7	0.00e+00	0	48	104	0	71	24453
2026-01-16 21:06:55.51	17.57	6.81	-50.2	-54.5	3.7	0.00e+00	0	47	104	0	71	24510
2026-01-16 21:06:56.51	17.60	6.90	-50.2	-54.5	3.7	0.00e+00	0	48	104	0	71	24472
2026-01-16 21:06:57.50	17.63	6.98	-50.2	-54.5	3.7	0.00e+00	0	48	104	0	71	24463
2026-01-16 21:06:58.49	17.65	7.07	-50.2	-54.5	3.7	0.00e+00	0	48	104	0	71	24443
2026-01-16 21:06:59.48	17.68	7.16	-50.2	-54.6	3.7	0.00e+00	0	48	104	0	71	24554
2026-01-16 21:07:00.48	17.71	7.25	-50.2	-54.6	3.7	0.00e+00	0	48	104	0	71	24527
2026-01-16 21:07:01.47	17.74	7.34	-50.2	-54.6	3.7	0.00e+00	0	48	104	0	71	24558
2026-01-16 21:07:02.47	17.77	7.43	-50.2	-54.5	3.7	0.00e+00	0	48	104	0	71	24417
2026-01-16 21:07:03.46	17.80	7.52	-50.2	-54.5	3.7	0.00e+00	0	48	104	0	71	24432
2026-01-16 21:07:04.45	17.83	7.61	-50.2	-54.6	3.7	0.00e+00	0	48	104	0	71	24525
2026-01-16 21:07:05.45	17.86	7.70	-50.2	-54.5	3.7	0.00e+00	0	48	104	0	71	24409
2026-01-16 21:07:06.44	17.89	7.80	-50.2	-54.5	3.7	0.00e+00	0	48	104	0	71	24457
2026-01-16 21:07:07.43	17.92	7.89	-50.2	-54.5	3.7	0.00e+00	0	48	104	0	71	24514
2026-01-16 21:07:08.43	17.95	7.98	-50.2	-54.5	3.7	0.00e+00	0	48	104	0	71	24504
2026-01-16 21:07:09.42	17.98	8.07	-50.2	-54.5	3.7	0.00e+00	0	48	104	0	71	24520
2026-01-16 21:07:10.41	18.01	8.17	-50.2	-54.6	3.7	0.00e+00	0	48	104	0	71	24526
2026-01-16 21:07:11.41	18.04	8.26	-50.2	-54.5	3.7	0.00e+00	0	49	104	0	71	24474
2026-01-16 21:07:12.40	18.07	8.36	-50.2	-54.5	3.7	0.00e+00	0	48	104	0	71	24510
2026-01-16 21:07:13.39	18.10	8.45	-50.2	-54.6	3.7	0.00e+00	0	48	104	0	71	24581
2026-01-16 21:07:14.38	18.14	8.55	-50.2	-54.6	3.7	0.00e+00	0	48	104	0	71	24563
2026-01-16 21:07:15.38	18.17	8.64	-50.2	-54.5	3.7	0.00e+00	0	49	104	0	71	24511
2026-01-16 21:07:16.37	18.20	8.74	-50.2	-54.5	3.7	0.00e+00	0	48	104	0	71	24522
2026-01-16 21:07:17.36	18.23	8.84	-50.2	-54.6	3.7	0.00e+00	0	49	104	0	71	24574
2026-01-16 21:07:18.36	18.26	8.93	-50.2	-54.6	3.7	0.00e+00	0	49	104	0	71	24626
2026-01-16 21:07:19.35	18.30	9.03	-50.2	-54.5	3.7	0.00e+00	0	49	104	0	71	24477
2026-01-16 21:07:20.34	18.33	9.13	-50.3	-54.7	3.7	0.00e+00	0	49	104	0	71	24994
2026-01-16 21:07:21.34	18.36	9.23	-50.7	-55.5	3.7	0.00e+00	0	49	104	0	72	25965
2026-01-16 21:07:22.33	18.40	9.33	-50.6	-55.3	3.7	0.00e+00	0	49	104	0	72	25151
2026-01-16 21:07:23.33	18.43	9.43	-51.2	-56.4	3.7	0.00e+00	0	49	104	0	73	27138
2026-01-16 21:07:24.32	18.46	9.53	-51.0	-56.1	3.7	0.00e+00	0	49	104	0	73	26266
2026-01-16 21:07:25.32	18.50	9.63	-49.8	-54.0	3.7	0.00e+00	0	49	104	0	71	22890
2026-01-16 21:07:26.31	18.53	9.73	-50.3	-54.6	3.7	0.00e+00	0	49	104	0	71	24574
2026-01-16 21:07:27.37	18.57	9.84	-50.0	-54.2	3.7	0.00e+00	0	49	104	0	71	23615
2026-01-16 21:07:28.26	18.60	9.93	-49.9	-54.0	3.7	0.00e+00	0	49	104	0	71	23040
2026-01-16 21:07:29.59	18.65	10.07	-50.3	-54.6	3.7	0.00e+00	0	49	104	0	71	24694
2026-01-16 21:07:30.30	18.68	10.15	-50.4	-54.8	3.7	0.00e+00	0	49	104	0	71	25316
2026-01-16 21:07:31.58	18.72	10.28	-51.3	-56.5	3.7	0.00e+00	0	49	104	0	73	27507
2026-01-16 21:07:32.29	18.75	10.36	-51.2	-56.2	3.7	0.00e+00	0	49	104	0	73	26451
2026-01-16 21:07:33.57	18.80	10.50	-49.9	-53.7	3.7	0.00e+00	0	49	104	0	71	22216
2026-01-16 21:07:34.28	18.82	10.57	-49.7	-53.4	3.7	0.00e+00	0	49	104	0	71	21550
2026-01-16 21:07:35.56	18.87	10.71	-50.0	-54.0	3.7	0.00e+00	0	49	104	0	72	21841
2026-01-16 21:07:36.28	18.90	10.79	-49.3	-53.1	3.7	0.00e+00	0	49	104	0	70	22084
2026-01-16 21:07:37.56	18.95	10.93	-48.8	-52.7	3.7	0.00e+00	0	49	104	0	69	22137
2026-01-16 21:07:38.27	18.97	11.01	-49.0	-53.0	3.7	0.00e+00	0	49	104	0	69	22927
2026-01-16 21:07:39.55	19.02	11.15	-49.9	-54.5	3.7	0.00e+00	0	49	104	0	70	25738
2026-01-16 21:07:40.28	19.05	11.23	-50.1	-54.9	3.7	0.00e+00	0	49	104	0	70	27092
2026-01-16 21:07:41.56	19.10	11.37	-50.5	-55.0	3.7	0.00e+00	0	49	104	0	71	25864
2026-01-16 21:07:42.27	19.13	11.45	-51.2	-56.2	3.7	0.00e+00	0	49	104	0	73	26478
2026-01-16 21:07:43.54	19.18	11.59	-49.9	-54.5	3.7	0.00e+00	0	50	104	0	71	24247
2026-01-16 21:07:44.27	19.21	11.68	-49.2	-53.0	3.7	0.00e+00	0	50	104	0	70	21715
2026-01-16 21:07:45.55	19.26	11.82	-49.2	-53.0	3.7	0.00e+00	0	49	104	0	70	21852
2026-01-16 21:07:46.28	19.29	11.91	-49.2	-53.0	3.7	0.00e+00	0	50	104	0	70	21674
2026-01-16 21:07:47.55	19.34	12.06	-49.2	-53.2	3.7	0.00e+00	0	50	104	0	70	22243
2026-01-16 21:07:48.28	19.37	12.14	-49.4	-53.6	3.7	0.00e+00	0	49	104	0	70	23235
2026-01-16 21:07:49.56	19.43	12.29	-50.4	-55.8	3.7	0.00e+00	0	50	104	0	71	28333
2026-01-16 21:07:50.27	19.46	12.38	-50.5	-56.0	3.7	0.00e+00	0	50	104	0	71	29095
2026-01-16 21:07:51.55	19.51	12.53	-50.6	-55.8	3.7	0.00e+00	0	50	104	0	72	26620
2026-01-16 21:07:52.28	19.54	12.62	-50.5	-55.7	3.7	0.00e+00	0	50	104	0	72	26322
2026-01-16 21:07:53.56	19.60	12.77	-50.7	-55.9	3.7	0.00e+00	0	50	104	0	72	27098
2026-01-16 21:07:54.28	19.63	12.86	-50.7	-55.9	3.7	0.00e+00	0	50	104	0	72	27042
2026-01-16 21:07:55.56	19.69	13.01	-50.7	-55.7	3.7	0.00e+00	0	50	104	0	72	26435
2026-01-16 21:07:56.29	19.72	13.10	-50.6	-55.6	3.7	0.00e+00	0	50	104	0	72	26138
2026-01-16 21:07:57.57	19.78	13.26	-50.8	-55.9	3.7	0.00e+00	0	50	104	0	72	27092
2026-01-16 21:07:58.28	19.81	13.35	-50.8	-55.5	3.7	0.00e+00	0	50	104	0	72	25704
2026-01-16 21:07:59.56	19.87	13.51	-51.0	-55.4	3.7	0.00e+00	0	50	104	0	72	25629
2026-01-16 21:08:00.29	19.91	13.60	-51.0	-55.4	3.7	0.00e+00	0	50	104	0	72	25575
2026-01-16 21:08:01.57	19.97	13.77	-51.0	-55.5	3.7	0.00e+00	0	50	104	0	72	25793
2026-01-16 21:08:02.28	20.00	13.86	-51.0	-55.5	3.7	0.00e+00	0	50	104	0	72	25830
2026-01-16 21:08:03.56	20.06	14.02	-51.8	-56.9	3.7	0.00e+00	0	50	104	0	74	27140
2026-01-16 21:08:04.28	20.10	14.12	-51.4	-56.3	3.7	0.00e+00	0	50	104	0	74	25249
2026-01-16 21:08:05.64	20.16	14.29	-52.0	-56.9	3.7	0.00e+00	0	50	104	0	75	25616
2026-01-16 21:08:06.35	20.20	14.39	-51.7	-56.8	3.7	0.00e+00	0	50	104	0	75	25281
2026-01-16 21:08:07.63	20.26	14.56	-52.2	-56.8	3.7	0.00e+00	0	50	104	0	75	25258
2026-01-16 21:08:08.69	20.31	14.70	-52.2	-56.8	3.7	0.00e+00	0	50	104	0	75	25274
2026-01-16 21:08:09.84	20.37	14.85	-52.3	-56.8	3.7	0.00e+00	0	50	104	0	75	25347
2026-01-16 21:08:10.69	20.42	14.97	-52.3	-56.8	3.7	0.00e+00	0	50	104	0	75	25235
2026-01-16 21:08:11.83	20.48	15.13	-52.3	-56.4	3.7	0.00e+00	0	50	104	0	75	24144
2026-01-16 21:08:12.68	20.52	15.24	-52.0	-56.0	3.7	0.00e+00	0	50	104	0	75	23045
2026-01-16 21:08:13.81	20.58	15.40	-53.0	-57.5	3.7	0.00e+00	0	50	104	0	76	25855
2026-01-16 21:08:14.66	20.63	15.52	-52.3	-56.3	3.7	0.00e+00	0	50	104	0	76	22431
2026-01-16 21:08:15.80	20.69	15.68	-52.3	-56.2	3.7	0.00e+00	0	50	104	0	76	22147
2026-01-16 21:08:16.65	20.73	15.80	-52.3	-56.2	3.7	0.00e+00	0	50	104	0	76	22258
2026-01-16 21:08:17.79	20.80	15.96	-52.2	-56.1	3.7	0.00e+00	0	50	104	0	76	22062
2026-01-16 21:08:18.64	20.84	16.09	-52.4	-56.3	3.7	0.00e+00	0	50	104	0	76	22562
2026-01-16 21:08:19.78	20.91	16.25	-52.8	-57.2	3.7	0.00e+00	0	50	104	0	76	24841
2026-01-16 21:08:20.63	20.96	16.38	-52.9	-57.5	3.7	0.00e+00	0	50	104	0	76	25702
2026-01-16 21:08:21.77	21.02	16.54	-51.6	-55.9	3.7	0.00e+00	0	50	104	0	75	22634
2026-01-16 21:08:22.62	21.07	16.67	-51.6	-55.9	3.7	0.00e+00	0	50	104	0	75	22821
2026-01-16 21:08:23.76	21.14	16.84	-52.0	-56.6	3.7	0.00e+00	0	50	104	0	75	24800
2026-01-16 21:08:24.61	21.19	16.97	-52.0	-56.4	3.7	0.00e+00	0	50	104	0	75	24216
2026-01-16 21:08:25.75	21.26	17.14	-52.1	-56.6	3.7	0.00e+00	0	50	104	0	75	24736
2026-01-16 21:08:26.60	21.31	17.27	-52.3	-57.0	3.7	0.00e+00	0	50	104	0	75	25735
2026-01-16 21:08:27.74	21.38	17.45	-52.4	-57.1	3.7	0.00e+00	0	50	104	0	75	26228
2026-01-16 21:08:28.78	21.45	17.61	-52.6	-57.4	3.7	0.00e+00	0	50	104	0	75	27033
2026-01-16 21:08:29.90	21.52	17.79	-52.3	-57.0	3.7	0.00e+00	0	50	104	0	75	25831
2026-01-16 21:08:30.76	21.57	17.92	-52.5	-57.4	3.7	0.00e+00	0	50	104	0	75	27107
2026-01-16 21:08:31.89	21.64	18.11	-52.8	-57.3	3.7	0.00e+00	0	51	104	0	76	25281
2026-01-16 21:08:32.74	21.70	18.24	-52.6	-57.3	3.6	0.00e+00	0	51	104	0	76	25140
2026-01-16 21:08:33.88	21.77	18.43	-52.8	-57.6	3.7	0.00e+00	0	50	104	0	76	26068
2026-01-16 21:08:34.73	21.83	18.57	-52.4	-57.1	3.7	0.00e+00	0	50	104	0	76	24730
2026-01-16 21:08:35.87	21.91	18.76	-52.6	-57.2	3.7	0.00e+00	0	50	104	0	76	25082
2026-01-16 21:08:36.72	21.97	18.90	-52.7	-57.4	3.7	0.00e+00	0	50	104	0	76	25588
2026-01-16 21:08:37.86	22.05	19.09	-52.7	-57.5	3.7	0.00e+00	0	50	104	0	76	25877
2026-01-16 21:08:38.71	22.11	19.23	-52.7	-57.5	3.7	0.00e+00	0	50	104	0	76	25858
2026-01-16 21:08:39.89	22.19	19.43	-52.8	-57.5	3.7	0.00e+00	0	50	104	0	76	25947
2026-01-16 21:08:40.75	22.25	19.58	-52.9	-57.6	3.7	0.00e+00	0	50	104	0	76	25997
2026-01-16 21:08:41.88	22.33	19.78	-52.9	-57.6	3.7	0.00e+00	0	50	104	0	76	26224
2026-01-16 21:08:42.73	22.40	19.93	-53.0	-57.7	3.7	0.00e+00	0	50	104	0	76	26328
2026-01-16 21:08:44.00	22.49	20.15	-52.7	-57.0	3.7	0.00e+00	0	50	104	0	77	22987
2026-01-16 21:08:44.80	22.55	20.30	-52.1	-56.4	3.7	0.00e+00	0	50	104	0	76	22882
2026-01-16 21:08:46.06	22.65	20.52	-52.1	-55.9	3.7	0.00e+00	0	51	104	0	76	21583
2026-01-16 21:08:46.85	22.71	20.67	-51.7	-55.6	3.7	0.00e+00	0	51	104	0	75	22015
2026-01-16 21:08:48.18	22.81	20.91	-51.5	-55.5	3.7	0.00e+00	0	50	104	0	75	21653
2026-01-16 21:08:48.89	22.87	21.04	-51.5	-55.5	3.7	0.00e+00	0	50	104	0	74	23111
2026-01-16 21:08:50.17	22.97	21.28	-51.5	-55.9	3.7	0.00e+00	0	50	104	0	74	24238
2026-01-16 21:08:50.90	23.03	21.42	-51.6	-56.1	3.7	0.00e+00	0	51	104	0	74	24762
2026-01-16 21:08:52.17	23.14	21.66	-51.5	-55.9	3.7	0.00e+00	0	51	104	0	74	24100
2026-01-16 21:08:52.88	23.20	21.80	-51.9	-56.8	3.7	0.00e+00	0	50	104	0	74	26762
2026-01-16 21:08:54.16	23.31	22.05	-51.9	-56.4	3.7	0.00e+00	0	50	104	0	74	25591
2026-01-16 21:08:54.92	23.37	22.20	-51.6	-56.1	3.7	0.00e+00	0	50	104	0	74	24796
2026-01-16 21:08:56.20	23.49	22.45	-51.7	-56.1	3.7	0.00e+00	0	51	104	0	74	24742
2026-01-16 21:08:56.91	23.55	22.59	-51.5	-55.8	3.7	0.00e+00	0	51	104	0	74	23812
2026-01-16 21:08:58.18	23.66	22.85	-51.4	-55.3	3.7	0.00e+00	0	50	104	0	74	22484
2026-01-16 21:08:58.89	23.73	23.00	-51.3	-54.9	3.7	0.00e+00	0	50	104	0	74	21587
2026-01-16 21:09:00.17	23.85	23.26	-51.4	-54.6	3.7	0.00e+00	0	50	104	0	74	20855
2026-01-16 21:09:01.09	23.93	23.45	-51.3	-54.7	3.7	0.00e+00	0	50	104	0	74	21021
2026-01-16 21:09:02.09	24.03	23.66	-51.5	-55.9	3.7	0.00e+00	0	51	104	0	74	24048
2026-01-16 21:09:03.43	24.16	23.94	-51.4	-54.4	3.7	0.00e+00	0	50	104	0	74	20225
2026-01-16 21:09:04.17	24.23	24.10	-51.7	-54.8	3.7	0.00e+00	0	51	104	0	74	21123
2026-01-16 21:09:05.45	24.36	24.38	-52.1	-55.3	3.7	0.00e+00	0	50	104	0	74	22500
2026-01-16 21:09:06.16	24.43	24.54	-52.4	-55.8	3.7	0.00e+00	0	51	104	0	75	22472
2026-01-16 21:09:07.44	24.56	24.82	-52.9	-56.7	3.7	0.00e+00	0	50	104	0	76	23509
2026-01-16 21:09:08.16	24.64	24.98	-53.1	-57.1	3.7	0.00e+00	0	50	104	0	76	24577
2026-01-16 21:09:09.44	24.78	25.27	-53.5	-58.0	3.6	0.00e+00	0	51	104	0	77	25758
2026-01-16 21:09:10.17	24.85	25.43	-53.5	-58.0	3.7	0.00e+00	0	51	104	0	77	25890
2026-01-16 21:09:11.45	24.99	25.73	-53.0	-56.8	3.7	0.00e+00	0	51	104	0	77	22550
2026-01-16 21:09:12.17	25.07	25.90	-53.2	-57.2	3.7	0.00e+00	0	50	104	0	77	23470
2026-01-16 21:09:13.51	25.23	26.21	-53.5	-58.0	3.7	0.00e+00	0	50	104	0	77	25746
2026-01-16 21:09:14.23	25.31	26.38	-53.6	-58.2	3.7	0.00e+00	0	51	104	0	77	26323
2026-01-16 21:09:15.51	25.46	26.69	-53.4	-57.5	3.7	0.00e+00	0	50	104	0	77	24469
2026-01-16 21:09:16.23	25.54	26.86	-53.1	-57.0	3.7	0.00e+00	0	50	104	0	77	23064
2026-01-16 21:09:17.51	25.70	27.18	-53.0	-56.8	3.7	0.00e+00	0	51	104	0	77	22459
2026-01-16 21:09:18.22	25.79	27.35	-53.1	-57.0	3.7	0.00e+00	0	50	104	0	77	22917
2026-01-16 21:09:19.72	25.97	27.73	-53.7	-57.9	3.7	0.00e+00	0	51	104	0	77	25478
2026-01-16 21:09:20.43	26.06	27.91	-53.7	-58.0	3.7	0.00e+00	0	50	104	0	78	24399
2026-01-16 21:09:21.71	26.23	28.24	-53.3	-57.3	3.7	0.00e+00	0	50	104	0	78	22408
2026-01-16 21:09:22.45	26.33	28.43	-53.2	-57.3	3.7	0.00e+00	0	50	104	0	78	22570
2026-01-16 21:09:23.73	26.50	28.76	-53.1	-57.7	3.7	0.00e+00	0	51	104	0	78	23443
2026-01-16 21:09:24.46	26.60	28.96	-53.0	-57.7	3.7	0.00e+00	0	51	104	0	78	23524
2026-01-16 21:09:25.73	26.78	29.30	-52.9	-57.8	3.7	0.00e+00	0	51	104	0	77	25149
2026-01-16 21:09:26.46	26.88	29.49	-53.0	-57.8	3.7	0.00e+00	0	51	104	0	77	25287
2026-01-16 21:09:27.74	27.06	29.84	-52.9	-57.5	3.7	0.00e+00	0	51	104	0	77	24384
2026-01-16 21:09:28.48	27.17	30.05	-52.9	-57.5	3.7	0.00e+00	0	51	104	0	77	24430
2026-01-16 21:09:29.76	27.36	30.41	-52.9	-57.1	3.7	0.00e+00	0	51	104	0	77	23395
2026-01-16 21:09:30.47	27.47	30.61	-52.8	-57.1	3.7	0.00e+00	0	51	104	0	77	23225
2026-01-16 21:09:31.75	27.67	30.97	-52.8	-57.1	3.7	0.00e+00	0	50	104	0	77	23289
2026-01-16 21:09:32.46	27.78	31.18	-53.0	-57.4	3.7	0.00e+00	0	51	104	0	77	24008
2026-01-16 21:09:33.74	27.99	31.55	-53.2	-57.9	3.7	0.00e+00	0	51	104	0	77	25531
2026-01-16 21:09:34.45	28.10	31.76	-53.2	-57.9	3.7	0.00e+00	0	51	104	0	77	25504
2026-01-16 21:09:35.73	28.32	32.14	-53.1	-57.8	3.7	0.00e+00	0	51	104	0	77	25140
2026-01-16 21:09:36.65	28.47	32.42	-52.6	-56.7	3.7	0.00e+00	0	51	104	0	77	22204
2026-01-16 21:09:37.97	28.70	32.83	-52.7	-56.8	3.7	0.00e+00	0	51	104	0	77	22586
2026-01-16 21:09:38.68	28.83	33.05	-53.1	-57.4	3.7	0.00e+00	0	51	104	0	77	24015
2026-01-16 21:09:39.96	29.06	33.45	-53.3	-57.6	3.7	0.00e+00	0	51	104	0	77	24585
2026-01-16 21:09:40.69	29.20	33.68	-53.5	-57.7	3.7	0.00e+00	0	51	104	0	77	24942
2026-01-16 21:09:41.97	29.44	34.09	-53.5	-57.7	3.7	0.00e+00	0	51	104	0	77	24984
2026-01-16 21:09:42.69	29.58	34.32	-53.8	-58.0	3.7	0.00e+00	0	51	104	0	78	24455
2026-01-16 21:09:43.97	29.83	34.74	-53.6	-57.6	3.7	0.00e+00	0	51	104	0	78	23226
2026-01-16 21:09:44.70	29.98	34.98	-53.6	-57.7	3.7	0.00e+00	0	51	104	0	78	23554
2026-01-16 21:09:45.98	30.24	35.41	-53.9	-58.3	3.7	0.00e+00	0	51	104	0	78	25192
2026-01-16 21:09:46.70	30.40	35.65	-53.7	-58.0	3.7	0.00e+00	0	51	104	0	78	24500
2026-01-16 21:09:48.14	30.71	36.15	-53.1	-56.9	3.7	0.00e+00	0	51	104	0	78	21518
2026-01-16 21:09:48.85	30.86	36.40	-53.1	-56.9	3.7	0.00e+00	0	51	104	0	78	21442
2026-01-16 21:09:50.13	31.15	36.84	-52.6	-56.0	3.7	0.00e+00	0	51	104	0	77	20487
2026-01-16 21:09:50.84	31.32	37.10	-52.7	-56.4	3.7	0.00e+00	0	51	104	0	76	22774
2026-01-16 21:09:52.25	31.65	37.60	-52.6	-56.0	3.7	0.00e+00	0	51	104	0	76	21724
2026-01-16 21:09:52.96	31.82	37.86	-52.6	-56.4	3.7	0.00e+00	0	51	104	0	76	22746
2026-01-16 21:09:54.24	32.14	38.33	-52.4	-56.0	3.7	0.00e+00	0	51	104	0	76	21826
2026-01-16 21:09:55.28	32.40	38.72	-52.0	-55.3	3.7	0.00e+00	0	51	104	0	76	20026
2026-01-16 21:09:56.24	32.66	39.08	-51.5	-54.6	3.8	0.00e+00	0	51	104	0	75	19489
2026-01-16 21:09:57.24	32.92	39.46	-51.5	-54.5	3.9	0.00e+00	0	51	104	0	75	19444
2026-01-16 21:09:58.23	33.19	39.84	-51.7	-54.8	3.8	0.00e+00	0	51	104	0	75	20010
2026-01-16 21:09:59.23	33.47	40.23	-52.8	-56.9	3.7	0.00e+00	0	51	104	0	76	23985
2026-01-16 21:10:00.22	33.76	40.62	-53.3	-57.5	3.7	0.00e+00	0	51	104	0	77	24479
2026-01-16 21:10:01.21	34.05	41.01	-53.6	-57.7	3.7	0.00e+00	0	51	104	0	77	24910
2026-01-16 21:10:02.21	34.35	41.41	-53.6	-57.9	3.7	0.00e+00	0	51	104	0	77	25486
2026-01-16 21:10:03.21	34.66	41.82	-53.0	-56.8	3.7	0.00e+00	0	51	104	0	77	22480
2026-01-16 21:10:04.20	34.98	42.22	-53.4	-57.7	3.6	0.00e+00	0	51	104	0	77	24819
2026-01-16 21:10:05.26	35.33	42.66	-53.9	-58.4	3.7	0.00e+00	0	51	104	0	78	25388
2026-01-16 21:10:06.14	35.62	43.03	-53.9	-58.2	3.7	0.00e+00	0	51	104	0	78	25030
2026-01-16 21:10:07.28	36.02	43.51	-53.9	-58.1	3.7	0.00e+00	0	51	104	0	78	24656
2026-01-16 21:10:08.13	36.32	43.88	-53.9	-58.2	3.7	0.00e+00	0	51	104	0	78	24809
2026-01-16 21:10:09.27	36.73	44.37	-53.9	-58.3	3.7	0.00e+00	0	51	104	0	78	25273
2026-01-16 21:10:10.12	37.05	44.74	-53.9	-58.1	3.7	0.00e+00	0	51	104	0	78	24683
2026-01-16 21:10:11.26	37.49	45.24	-53.9	-58.3	3.7	0.00e+00	0	51	104	0	78	25241
2026-01-16 21:10:12.11	37.83	45.62	-53.7	-57.9	3.7	0.00e+00	0	51	104	0	78	24021
2026-01-16 21:10:13.25	38.29	46.13	-53.6	-57.6	3.7	0.00e+00	0	51	104	0	78	23202
2026-01-16 21:10:14.10	38.65	46.51	-53.7	-57.7	3.7	0.00e+00	0	51	104	0	78	23534
2026-01-16 21:10:15.24	39.15	47.03	-54.0	-58.2	3.7	0.00e+00	0	51	104	0	78	24955
2026-01-16 21:10:16.09	39.53	47.42	-53.9	-58.1	3.7	0.00e+00	0	51	104	0	78	24807
2026-01-16 21:10:17.23	40.05	47.95	-53.8	-58.1	3.7	0.00e+00	0	51	104	0	78	24628
2026-01-16 21:10:18.08	40.45	48.34	-53.8	-58.1	3.7	0.00e+00	0	51	104	0	78	24745
2026-01-16 21:10:19.28	41.04	48.91	-53.7	-58.0	3.7	0.00e+00	0	51	104	0	78	24509
2026-01-16 21:10:20.13	41.47	49.31	-53.5	-57.8	3.7	0.00e+00	0	51	104	0	78	23829
2026-01-16 21:10:21.27	42.06	49.85	-53.7	-58.2	3.7	0.00e+00	0	51	104	0	78	24904
2026-01-16 21:10:22.12	42.52	50.26	-53.6	-58.0	3.7	0.00e+00	0	51	104	0	78	24474
2026-01-16 21:10:23.40	43.23	50.88	-53.8	-58.1	3.7	0.00e+00	0	51	104	0	78	24741
2026-01-16 21:10:24.11	43.64	51.23	-54.1	-58.4	3.7	0.00e+00	0	51	104	0	78	25452
2026-01-16 21:10:25.39	44.41	51.85	-53.7	-58.0	3.7	0.00e+00	0	51	104	0	78	24498
2026-01-16 21:10:26.13	44.86	52.21	-53.7	-57.8	3.7	0.00e+00	0	51	104	0	78	23879
2026-01-16 21:10:27.41	45.68	52.85	-54.0	-58.2	3.7	0.00e+00	0	51	104	0	78	24921
2026-01-16 21:10:28.12	46.14	53.20	-54.1	-58.5	3.7	0.00e+00	0	51	104	0	78	25817
2026-01-16 21:10:29.40	47.02	53.83	-54.0	-58.3	3.7	0.00e+00	0	51	104	0	78	25215
2026-01-16 21:10:30.17	47.56	54.22	-54.0	-58.4	3.7	0.00e+00	0	51	104	0	78	25563
2026-01-16 21:10:31.75	48.73	55.01	-54.1	-58.6	3.7	0.00e+00	0	51	104	0	78	26163
2026-01-16 21:10:32.38	49.21	55.32	-54.2	-58.6	3.7	0.00e+00	0	51	104	0	78	26034
2026-01-16 21:10:33.91	50.43	56.08	-54.1	-58.5	3.7	0.00e+00	0	51	104	0	78	25866
2026-01-16 21:10:34.62	51.02	56.44	-54.2	-58.6	3.7	0.00e+00	0	51	104	0	78	26103
2026-01-16 21:10:35.90	52.12	57.08	-54.0	-58.4	3.7	0.00e+00	0	51	104	0	78	25492
2026-01-16 21:10:36.61	52.76	57.43	-54.0	-58.4	3.7	0.00e+00	0	51	104	0	78	25453
2026-01-16 21:10:37.89	53.94	58.06	-54.1	-58.4	3.7	0.00e+00	0	51	104	0	78	25660
2026-01-16 21:10:38.62	54.65	58.42	-54.2	-58.6	3.7	0.00e+00	0	51	104	0	78	26063
2026-01-16 21:10:39.90	55.92	59.05	-54.1	-58.5	3.7	0.00e+00	0	51	104	0	78	25679
2026-01-16 21:10:40.62	56.67	59.40	-54.1	-58.4	3.7	0.00e+00	0	51	104	0	78	25610
2026-01-16 21:10:41.90	58.05	60.01	-54.0	-58.4	3.7	0.00e+00	0	51	104	0	78	25533
2026-01-16 21:10:42.61	58.84	60.35	-53.9	-58.6	3.7	0.00e+00	0	51	104	0	78	26084
2026-01-16 21:10:44.11	60.59	61.05	-54.1	-58.4	3.7	0.00e+00	0	51	104	0	78	25391
2026-01-16 21:10:44.82	61.45	61.38	-54.1	-58.4	3.7	0.00e+00	0	51	104	0	78	25449
2026-01-16 21:10:46.11	63.08	61.97	-54.0	-58.3	3.7	0.00e+00	0	51	104	0	78	25269
2026-01-16 21:10:46.82	64.01	62.28	-54.2	-58.5	3.7	0.00e+00	0	51	104	0	79	24520
2026-01-16 21:10:48.26	65.96	62.91	-54.1	-58.4	3.7	0.00e+00	0	51	104	0	79	24052
2026-01-16 21:10:48.97	66.97	63.21	-54.0	-58.3	3.7	0.00e+00	0	51	104	0	79	23899
2026-01-16 21:10:50.29	68.90	63.75	-54.1	-58.5	3.7	0.00e+00	0	51	104	0	79	24299
2026-01-16 21:10:51.00	69.98	64.03	-53.8	-57.9	3.7	0.00e+00	0	51	104	0	79	22797
2026-01-16 21:10:52.28	71.99	64.52	-53.9	-58.2	3.7	0.00e+00	0	51	104	0	79	23617
2026-01-16 21:10:52.99	73.14	64.78	-53.9	-58.2	3.7	0.00e+00	0	51	104	0	79	23421
2026-01-16 21:10:54.27	75.29	65.23	-53.6	-57.6	3.7	0.00e+00	0	51	104	0	79	22077
2026-01-16 21:10:54.98	76.51	65.46	-53.4	-57.3	3.7	0.00e+00	0	51	104	0	78	22475
2026-01-16 21:10:56.26	78.79	65.87	-53.8	-58.0	3.7	0.00e+00	0	51	104	0	78	24253
2026-01-16 21:10:56.98	80.11	66.08	-53.7	-58.1	3.7	0.00e+00	0	51	104	0	78	24685
2026-01-16 21:10:58.26	82.51	66.43	-53.0	-57.7	3.7	0.00e+00	0	51	104	0	78	23481
2026-01-16 21:10:58.99	83.92	66.61	-53.0	-57.7	3.7	0.00e+00	0	51	104	0	78	23464
2026-01-16 21:11:00.27	86.44	66.90	-53.4	-58.0	3.7	0.00e+00	0	51	104	0	78	24483
2026-01-16 21:11:00.98	87.86	67.04	-53.7	-58.3	3.7	0.00e+00	0	51	104	0	78	25219
2026-01-16 21:11:02.26	90.48	67.27	-53.7	-58.3	3.7	0.00e+00	0	51	104	0	78	25111
2026-01-16 21:11:03.09	92.21	67.39	-53.2	-58.0	3.7	0.00e+00	0	51	104	0	78	24248
2026-01-16 21:11:04.51	95.21	67.56	-53.9	-58.4	3.7	0.00e+00	0	51	104	0	78	25593
2026-01-16 21:11:05.22	96.72	67.62	-53.8	-58.4	3.7	0.00e+00	0	51	104	0	78	25650
2026-01-16 21:11:06.50	99.47	67.70	-53.4	-58.2	3.6	0.00e+00	0	51	104	0	78	24857
2026-01-16 21:11:07.21	101.01	67.72	-53.6	-58.0	3.7	0.00e+00	0	51	104	0	78	24435
2026-01-16 21:11:08.49	103.78	67.72	-54.1	-58.5	3.7	0.00e+00	0	51	104	0	79	24403
2026-01-16 21:11:09.22	105.35	67.70	-53.9	-58.3	3.7	0.00e+00	0	51	104	0	79	23872
2026-01-16 21:11:10.83	108.81	67.61	-54.1	-58.6	3.7	0.00e+00	0	51	104	0	79	24570
2026-01-16 21:11:11.40	110.03	67.56	-54.1	-58.5	3.7	0.00e+00	0	51	104	0	79	24310
2026-01-16 21:11:13.10	113.61	67.35	-54.1	-58.5	3.7	0.00e+00	0	51	104	0	79	24363
2026-01-16 21:11:13.75	114.96	67.25	-54.2	-58.5	3.7	0.00e+00	0	51	104	0	79	24462
2026-01-16 21:11:15.17	117.86	66.99	-53.7	-58.2	3.7	0.00e+00	0	51	104	0	79	23521
2026-01-16 21:11:15.94	119.40	66.83	-53.6	-58.1	3.7	0.00e+00	0	51	104	0	79	23248
2026-01-16 21:11:17.22	121.91	66.53	-53.4	-57.4	3.7	0.00e+00	0	51	104	0	78	22868
2026-01-16 21:11:17.94	123.29	66.35	-53.4	-57.5	3.7	0.00e+00	0	51	104	0	78	23034
2026-01-16 21:11:19.21	125.66	65.99	-54.1	-58.3	3.7	0.00e+00	0	51	104	0	78	25173
2026-01-16 21:11:19.94	126.98	65.77	-53.9	-57.9	3.7	0.00e+00	0	51	104	0	78	24122
2026-01-16 21:11:21.22	129.24	65.36	-54.0	-58.1	3.7	0.00e+00	0	51	104	0	78	24806
2026-01-16 21:11:22.20	130.91	65.03	-53.9	-58.1	3.7	0.00e+00	0	51	104	0	78	24562
2026-01-16 21:11:23.49	133.04	64.56	-54.0	-58.2	3.7	0.00e+00	0	51	104	0	78	24890
2026-01-16 21:11:24.20	134.17	64.29	-53.6	-57.9	3.7	0.00e+00	0	51	104	0	78	24241
2026-01-16 21:11:25.83	136.67	63.65	-53.7	-58.1	3.7	0.00e+00	0	51	104	0	78	24597
2026-01-16 21:11:26.40	137.51	63.42	-53.7	-58.0	3.7	0.00e+00	0	51	104	0	78	24294
2026-01-16 21:11:28.10	139.92	62.70	-53.5	-57.7	3.7	0.00e+00	0	51	104	0	78	23463
2026-01-16 21:11:28.67	140.69	62.45	-53.5	-57.7	3.7	0.00e+00	0	51	104	0	78	23431
2026-01-16 21:11:30.38	142.93	61.69	-52.6	-57.4	3.7	0.00e+00	0	51	104	0	77	24033
2026-01-16 21:11:30.94	143.63	61.43	-52.8	-57.4	3.7	0.00e+00	0	51	104	0	77	24165
2026-01-16 21:11:32.65	145.68	60.64	-53.6	-57.6	3.7	0.00e+00	0	51	104	0	77	24690
2026-01-16 21:11:33.21	146.32	60.37	-53.6	-57.6	3.7	0.00e+00	0	51	104	0	77	24707
2026-01-16 21:11:35.04	148.33	59.49	-53.8	-57.8	3.7	0.00e+00	0	51	104	0	78	23953
2026-01-16 21:11:35.61	148.93	59.22	-53.5	-57.7	3.7	0.00e+00	0	51	104	0	78	23421
2026-01-16 21:11:37.32	150.66	58.38	-53.8	-58.3	3.6	0.00e+00	0	51	104	0	78	25251
2026-01-16 21:11:38.04	151.35	58.02	-54.1	-58.4	3.7	0.00e+00	0	51	104	0	78	25543
2026-01-16 21:11:39.32	152.53	57.39	-54.0	-58.2	3.7	0.00e+00	0	51	104	0	78	25052
2026-01-16 21:11:40.05	153.19	57.02	-54.0	-58.4	3.7	0.00e+00	0	51	104	0	78	25542
2026-01-16 21:11:41.33	154.29	56.38	-54.1	-58.4	3.7	0.00e+00	0	51	104	0	78	25621
2026-01-16 21:11:42.05	154.89	56.02	-54.3	-58.6	3.7	0.00e+00	0	51	104	0	79	24696
2026-01-16 21:11:43.34	155.92	55.38	-53.8	-58.3	3.7	0.00e+00	0	51	104	0	79	23911
2026-01-16 21:11:44.06	156.47	55.02	-53.9	-58.4	3.7	0.00e+00	0	51	104	0	79	24151
2026-01-16 21:11:45.34	157.43	54.37	-53.9	-58.3	3.7	0.00e+00	0	51	104	0	79	23895
2026-01-16 21:11:46.06	157.94	54.01	-53.9	-58.4	3.7	0.00e+00	0	51	104	0	79	24103
2026-01-16 21:11:47.47	158.92	53.31	-54.0	-58.4	3.7	0.00e+00	0	51	104	0	79	23992
2026-01-16 21:11:48.18	159.39	52.96	-54.0	-58.3	3.7	0.00e+00	0	51	104	0	79	23763
2026-01-16 21:11:49.54	160.27	52.28	-54.0	-58.4	3.7	0.00e+00	0	51	104	0	79	23968
2026-01-16 21:11:50.25	160.71	51.93	-54.1	-58.4	3.7	0.00e+00	0	51	104	0	79	24128
2026-01-16 21:11:51.53	161.48	51.30	-54.1	-58.5	3.7	0.00e+00	0	51	104	0	79	24318
2026-01-16 21:11:52.25	161.90	50.95	-54.1	-58.5	3.7	0.00e+00	0	51	104	0	79	24324
2026-01-16 21:11:53.64	162.68	50.28	-53.8	-58.1	3.7	0.00e+00	0	51	104	0	79	23264
2026-01-16 21:11:54.35	163.06	49.93	-53.8	-58.2	3.7	0.00e+00	0	51	104	0	79	23521
2026-01-16 21:11:55.63	163.74	49.32	-54.0	-58.4	3.7	0.00e+00	0	51	104	0	79	23993
2026-01-16 21:11:56.70	164.28	48.81	-54.1	-58.6	3.7	0.00e+00	0	51	104	0	79	24618
2026-01-16 21:11:57.56	164.70	48.40	-54.0	-58.0	3.7	0.00e+00	0	51	104	0	79	23051
2026-01-16 21:11:58.69	165.24	47.87	-53.9	-58.2	3.7	0.00e+00	0	51	104	0	79	23587
2026-01-16 21:11:59.55	165.64	47.47	-53.9	-58.2	3.7	0.00e+00	0	51	104	0	79	23470
2026-01-16 21:12:00.68	166.14	46.95	-54.0	-58.5	3.7	0.00e+00	0	51	104	0	79	24248
2026-01-16 21:12:01.53	166.51	46.56	-54.0	-58.6	3.7	0.00e+00	0	51	104	0	79	24706
2026-01-16 21:12:02.67	166.99	46.05	-54.0	-58.5	3.7	0.00e+00	0	51	104	0	79	24327
2026-01-16 21:12:03.52	167.34	45.66	-54.1	-58.5	3.7	0.00e+00	0	51	104	0	79	24265
2026-01-16 21:12:04.66	167.80	45.15	-54.1	-58.4	3.7	0.00e+00	0	51	104	0	79	24179
2026-01-16 21:12:05.64	168.18	44.72	-53.9	-58.3	3.7	0.00e+00	0	51	104	0	79	23963
2026-01-16 21:12:06.64	168.55	44.28	-53.8	-58.3	3.7	0.00e+00	0	51	104	0	79	23794
2026-01-16 21:12:07.83	168.99	43.77	-53.8	-58.3	3.7	0.00e+00	0	51	104	0	79	23916
2026-01-16 21:12:08.72	169.30	43.39	-53.8	-58.1	3.7	0.00e+00	0	51	104	0	79	23350
2026-01-16 21:12:10.03	169.75	42.83	-54.0	-58.4	3.7	0.00e+00	0	51	104	0	79	24076
2026-01-16 21:12:10.74	169.99	42.54	-53.9	-58.4	3.7	0.00e+00	0	51	104	0	79	24017
2026-01-16 21:12:12.22	170.47	41.92	-53.9	-58.3	3.7	0.00e+00	0	51	104	0	79	23893
2026-01-16 21:12:12.93	170.69	41.63	-53.8	-58.2	3.7	0.00e+00	0	51	104	0	79	23664
2026-01-16 21:12:14.21	171.09	41.11	-53.6	-57.9	3.7	0.00e+00	0	51	104	0	79	22789
2026-01-16 21:12:14.92	171.30	40.83	-53.9	-58.3	3.7	0.00e+00	0	51	104	0	79	23707
2026-01-16 21:12:16.20	171.67	40.32	-53.7	-58.0	3.7	0.00e+00	0	51	104	0	79	22940
2026-01-16 21:12:16.91	171.88	40.04	-54.0	-58.3	3.7	0.00e+00	0	51	104	0	79	23851
2026-01-16 21:12:18.19	172.23	39.54	-53.9	-58.2	3.7	0.00e+00	0	51	104	0	79	23543
2026-01-16 21:12:18.90	172.43	39.27	-53.8	-58.3	3.7	0.00e+00	0	51	104	0	79	23801
2026-01-16 21:12:20.18	172.76	38.78	-53.9	-58.2	3.7	0.00e+00	0	51	104	0	79	23623
2026-01-16 21:12:20.90	172.95	38.51	-53.7	-58.2	3.7	0.00e+00	0	51	104	0	79	23682
2026-01-16 21:12:22.18	173.27	38.03	-53.6	-58.2	3.7	0.00e+00	0	51	104	0	78	25041
2026-01-16 21:12:22.99	173.47	37.74	-53.8	-58.3	3.7	0.00e+00	0	51	104	0	78	25312
2026-01-16 21:12:24.12	173.75	37.32	-53.6	-58.3	3.7	0.00e+00	0	51	104	0	78	25134
2026-01-16 21:12:24.98	173.95	37.01	-53.8	-58.3	3.6	0.00e+00	0	51	104	0	78	25103
2026-01-16 21:12:26.11	174.21	36.61	-53.7	-58.0	3.7	0.00e+00	0	51	104	0	78	24409
2026-01-16 21:12:27.23	174.46	36.22	-53.7	-58.2	3.7	0.00e+00	0	51	104	0	78	24840
2026-01-16 21:12:28.26	174.69	35.86	-53.6	-58.0	3.7	0.00e+00	0	51	104	0	78	24343
2026-01-16 21:12:29.25	174.90	35.52	-53.9	-58.3	3.7	0.00e+00	0	51	104	0	78	25245
2026-01-16 21:12:30.25	175.11	35.18	-53.7	-58.1	3.7	0.00e+00	0	51	104	0	78	24657
2026-01-16 21:12:31.24	175.31	34.85	-53.9	-58.2	3.7	0.00e+00	0	51	104	0	78	25051
2026-01-16 21:12:32.24	175.51	34.52	-53.9	-58.1	3.7	0.00e+00	0	51	104	0	78	24731
2026-01-16 21:12:33.23	175.71	34.19	-53.9	-58.3	3.7	0.00e+00	0	51	104	0	78	25144
2026-01-16 21:12:34.23	175.90	33.87	-54.0	-58.4	3.7	0.00e+00	0	51	104	0	78	25607
2026-01-16 21:12:35.22	176.08	33.55	-53.8	-58.3	3.7	0.00e+00	0	51	104	0	78	25302
2026-01-16 21:12:36.21	176.27	33.24	-53.9	-58.4	3.7	0.00e+00	0	51	104	0	78	25395
2026-01-16 21:12:37.21	176.45	32.92	-53.8	-58.3	3.7	0.00e+00	0	51	104	0	78	25231
2026-01-16 21:12:38.21	176.63	32.61	-53.7	-58.2	3.7	0.00e+00	0	51	104	0	78	24818
2026-01-16 21:12:39.20	176.80	32.31	-53.7	-58.2	3.7	0.00e+00	0	51	104	0	78	24918
2026-01-16 21:12:40.20	176.97	32.00	-53.7	-58.1	3.7	0.00e+00	0	51	104	0	78	24532
2026-01-16 21:12:41.19	177.13	31.71	-53.6	-58.1	3.7	0.00e+00	0	51	104	0	78	24659
2026-01-16 21:12:42.18	177.30	31.41	-53.5	-58.0	3.7	0.00e+00	0	51	104	0	78	24252
2026-01-16 21:12:43.18	177.46	31.12	-53.2	-57.7	3.7	0.00e+00	0	51	104	0	78	23615
2026-01-16 21:12:44.17	177.61	30.83	-53.2	-57.7	3.7	0.00e+00	0	51	104	0	78	23497
2026-01-16 21:12:45.17	177.77	30.54	-53.6	-57.9	3.7	0.00e+00	0	51	104	0	78	24199
2026-01-16 21:12:46.16	177.92	30.26	-53.5	-57.9	3.7	0.00e+00	0	51	104	0	78	24114
2026-01-16 21:12:47.16	178.07	29.98	-53.7	-58.0	3.7	0.00e+00	0	51	104	0	78	24282
2026-01-16 21:12:48.15	178.22	29.71	-53.7	-58.0	3.7	0.00e+00	0	51	104	0	78	24352
2026-01-16 21:12:49.15	178.36	29.43	-53.7	-57.9	3.7	0.00e+00	0	51	104	0	78	24212
2026-01-16 21:12:50.14	178.50	29.16	-53.8	-58.2	3.7	0.00e+00	0	51	104	0	78	24885
2026-01-16 21:12:51.14	178.64	28.89	-53.4	-57.9	3.7	0.00e+00	0	51	104	0	78	24147
2026-01-16 21:12:52.20	178.78	28.61	-53.8	-58.2	3.7	0.00e+00	0	51	104	0	78	24857
2026-01-16 21:12:53.08	178.90	28.38	-53.5	-57.9	3.7	0.00e+00	0	51	104	0	78	24165
2026-01-16 21:12:54.39	179.07	28.04	-53.4	-57.7	3.7	0.00e+00	0	51	104	0	78	23642
2026-01-16 21:12:55.10	179.17	27.86	-53.9	-58.3	3.7	0.00e+00	0	51	104	0	78	25310
2026-01-16 21:12:56.57	179.35	27.48	-53.4	-57.6	3.7	0.00e+00	0	51	104	0	78	23388
2026-01-16 21:12:57.28	179.44	27.30	-53.4	-57.6	3.7	0.00e+00	0	51	104	0	78	23249
2026-01-16 21:12:58.56	179.60	26.99	-53.7	-58.1	3.7	0.00e+00	0	51	104	0	78	24586
2026-01-16 21:12:59.27	179.68	26.81	-53.7	-58.1	3.7	0.00e+00	0	51	104	0	78	24795
2026-01-16 21:13:00.71	179.86	26.46	-53.6	-58.0	3.7	0.00e+00	0	51	104	0	78	24394
2026-01-16 21:13:01.42	179.94	26.29	-53.6	-58.0	3.7	0.00e+00	0	51	104	0	78	24378
2026-01-16 21:13:02.77	180.09	25.97	-53.6	-58.1	3.7	0.00e+00	0	51	104	0	78	24576
2026-01-16 21:13:03.48	180.17	25.80	-53.6	-58.0	3.7	0.00e+00	0	51	104	0	78	24513
2026-01-16 21:13:04.81	180.32	25.49	-53.6	-58.1	3.7	0.00e+00	0	51	104	0	78	24557
2026-01-16 21:13:05.52	180.40	25.33	-53.5	-57.9	3.7	0.00e+00	0	51	104	0	78	24017
2026-01-16 21:13:06.82	180.54	25.03	-53.5	-58.0	3.7	0.00e+00	0	51	104	0	78	24300
2026-01-16 21:13:07.53	180.61	24.87	-53.3	-57.7	3.7	0.00e+00	0	51	104	0	78	23448
2026-01-16 21:13:08.80	180.75	24.58	-53.0	-57.3	3.7	0.00e+00	0	51	104	0	77	23786
2026-01-16 21:13:09.52	180.82	24.42	-53.0	-57.4	3.7	0.00e+00	0	51	104	0	77	24023
2026-01-16 21:13:10.79	180.95	24.15	-52.8	-57.3	3.7	0.00e+00	0	51	104	0	77	23788
2026-01-16 21:13:11.55	181.02	23.98	-52.7	-57.1	3.7	0.00e+00	0	51	104	0	77	23152
2026-01-16 21:13:12.83	181.15	23.71	-52.6	-56.9	3.7	0.00e+00	0	51	104	0	77	22878
2026-01-16 21:13:13.55	181.22	23.55	-52.7	-57.0	3.7	0.00e+00	0	51	104	0	77	22956
2026-01-16 21:13:14.83	181.34	23.28	-53.0	-57.6	3.7	0.00e+00	0	51	104	0	77	24582
2026-01-16 21:13:15.54	181.41	23.13	-52.7	-57.1	3.7	0.00e+00	0	51	104	0	77	23174
2026-01-16 21:13:16.82	181.53	22.87	-52.7	-56.9	3.7	0.00e+00	0	51	104	0	76	24233
2026-01-16 21:13:17.67	181.60	22.70	-52.6	-57.0	3.7	0.00e+00	0	51	104	0	76	24481
2026-01-16 21:13:19.08	181.73	22.41	-52.8	-57.4	3.7	0.00e+00	0	51	104	0	76	25434
2026-01-16 21:13:19.79	181.79	22.27	-52.7	-57.3	3.7	0.00e+00	0	51	104	0	76	25099
2026-01-16 21:13:21.24	181.92	21.98	-52.6	-57.2	3.7	0.00e+00	0	51	104	0	76	24834
2026-01-16 21:13:21.95	181.98	21.84	-52.7	-57.2	3.7	0.00e+00	0	51	104	0	76	24946
2026-01-16 21:13:23.23	182.09	21.59	-52.8	-57.3	3.7	0.00e+00	0	51	104	0	76	25152
2026-01-16 21:13:23.96	182.15	21.45	-52.7	-57.4	3.7	0.00e+00	0	51	104	0	76	25391
2026-01-16 21:13:25.24	182.25	21.21	-52.9	-57.4	3.7	0.00e+00	0	51	104	0	76	25507
2026-01-16 21:13:25.97	182.31	21.07	-52.9	-57.5	3.7	0.00e+00	0	51	104	0	76	25839
2026-01-16 21:13:27.25	182.42	20.83	-52.9	-57.4	3.7	0.00e+00	0	51	104	0	76	25640
2026-01-16 21:13:27.97	182.47	20.69	-52.7	-57.4	3.7	0.00e+00	0	51	104	0	76	25602
2026-01-16 21:13:29.25	182.57	20.46	-52.9	-57.4	3.7	0.00e+00	0	51	104	0	76	25497
2026-01-16 21:13:29.98	182.63	20.33	-52.8	-57.5	3.7	0.00e+00	0	51	104	0	76	25953
2026-01-16 21:13:31.25	182.72	20.10	-52.7	-57.3	3.7	0.00e+00	0	51	104	0	76	25315
2026-01-16 21:13:31.96	182.78	19.97	-53.0	-57.6	3.7	0.00e+00	0	51	104	0	76	26168
2026-01-16 21:13:33.24	182.87	19.74	-52.6	-57.4	3.7	0.00e+00	0	51	104	0	76	25437
2026-01-16 21:13:33.97	182.93	19.61	-53.1	-57.6	3.7	0.00e+00	0	51	104	0	76	26209
2026-01-16 21:13:35.25	183.02	19.39	-52.8	-57.5	3.7	0.00e+00	0	51	104	0	76	25809
2026-01-16 21:13:35.96	183.07	19.27	-53.3	-57.8	3.7	0.00e+00	0	51	104	0	77	25159
2026-01-16 21:13:37.24	183.16	19.05	-52.6	-57.3	3.7	0.00e+00	0	51	104	0	77	23873
2026-01-16 21:13:37.95	183.21	18.93	-52.9	-57.4	3.7	0.00e+00	0	51	104	0	77	24022
2026-01-16 21:13:39.24	183.30	18.71	-52.5	-57.1	3.7	0.00e+00	0	51	104	0	77	23222
2026-01-16 21:13:39.96	183.35	18.59	-52.9	-57.3	3.7	0.00e+00	0	51	104	0	77	23955
2026-01-16 21:13:41.27	183.44	18.37	-53.0	-57.4	3.7	0.00e+00	0	51	104	0	77	24035
2026-01-16 21:13:41.98	183.48	18.25	-52.9	-57.4	3.7	0.00e+00	0	51	104	0	77	24025
2026-01-16 21:13:43.26	183.57	18.05	-53.0	-57.4	3.7	0.00e+00	0	51	104	0	77	24211
2026-01-16 21:13:43.97	183.61	17.93	-52.9	-57.6	3.7	0.00e+00	0	51	104	0	77	24729
2026-01-16 21:13:45.25	183.69	17.73	-53.0	-57.6	3.7	0.00e+00	0	51	104	0	77	24655
2026-01-16 21:13:45.96	183.74	17.61	-53.0	-57.6	3.7	0.00e+00	0	51	104	0	77	24714
2026-01-16 21:13:47.24	183.82	17.41	-52.8	-57.2	3.7	0.00e+00	0	51	104	0	77	23462
2026-01-16 21:13:47.96	183.86	17.30	-52.9	-57.6	3.7	0.00e+00	0	51	104	0	77	24532
2026-01-16 21:13:49.24	183.94	17.10	-52.8	-57.1	3.7	0.00e+00	0	51	104	0	77	23332
2026-01-16 21:13:49.97	183.99	16.99	-52.7	-57.1	3.7	0.00e+00	0	51	104	0	77	23395
2026-01-16 21:13:51.24	184.06	16.79	-52.8	-57.2	3.7	0.00e+00	0	51	104	0	77	23639
2026-01-16 21:13:51.95	184.10	16.69	-52.9	-57.3	3.7	0.00e+00	0	51	104	0	77	23901
2026-01-16 21:13:53.23	184.18	16.49	-52.9	-57.4	3.7	0.00e+00	0	51	104	0	77	23987
2026-01-16 21:13:53.96	184.22	16.38	-52.9	-57.4	3.7	0.00e+00	0	51	104	0	77	23970
2026-01-16 21:13:55.24	184.29	16.19	-52.1	-56.8	3.7	0.00e+00	0	51	104	0	76	23844
2026-01-16 21:13:55.95	184.33	16.09	-52.0	-56.8	3.7	0.00e+00	0	51	104	0	76	23824
2026-01-16 21:13:57.23	184.41	15.90	-52.2	-56.9	3.7	0.00e+00	0	51	104	0	76	24016
2026-01-16 21:13:57.94	184.45	15.80	-52.0	-56.8	3.7	0.00e+00	0	51	104	0	76	23866
2026-01-16 21:13:59.26	184.52	15.61	-52.1	-56.8	3.7	0.00e+00	0	51	104	0	76	23948
2026-01-16 21:13:59.97	184.56	15.51	-52.0	-56.9	3.7	0.00e+00	0	51	104	0	76	24017
2026-01-16 21:14:01.26	184.63	15.33	-52.0	-56.8	3.7	0.00e+00	0	51	104	0	75	25202
2026-01-16 21:14:01.97	184.66	15.23	-52.0	-56.8	3.7	0.00e+00	0	51	104	0	75	25258
2026-01-16 21:14:03.25	184.73	15.05	-52.0	-56.8	3.7	0.00e+00	0	51	104	0	75	25110
2026-01-16 21:14:03.96	184.77	14.95	-52.3	-56.9	3.7	0.00e+00	0	51	104	0	75	25614
2026-01-16 21:14:05.24	184.83	14.78	-52.1	-56.9	3.7	0.00e+00	0	51	104	0	75	25492
2026-01-16 21:14:05.97	184.87	14.68	-51.9	-56.7	3.7	0.00e+00	0	51	104	0	75	24876
2026-01-16 21:14:07.25	184.93	14.50	-52.0	-56.7	3.7	0.00e+00	0	51	104	0	75	25090
2026-01-16 21:14:08.00	184.97	14.40	-52.3	-57.0	3.7	0.00e+00	0	51	104	0	75	25791
2026-01-16 21:14:09.29	185.04	14.23	-52.0	-56.7	3.7	0.00e+00	0	51	104	0	75	24880
2026-01-16 21:14:10.00	185.07	14.14	-52.1	-56.8	3.7	0.00e+00	0	51	104	0	75	25285
2026-01-16 21:14:11.28	185.13	13.97	-52.1	-56.8	3.7	0.00e+00	0	51	104	0	75	25167
2026-01-16 21:14:12.11	185.17	13.86	-52.2	-56.7	3.7	0.00e+00	0	51	104	0	75	25026
2026-01-16 21:14:13.25	185.23	13.71	-52.0	-56.5	3.7	0.00e+00	0	51	104	0	75	24394
2026-01-16 21:14:14.10	185.27	13.60	-52.1	-56.8	3.7	0.00e+00	0	51	104	0	75	25374
2026-01-16 21:14:15.23	185.32	13.46	-52.0	-56.4	3.7	0.00e+00	0	51	104	0	75	24150
2026-01-16 21:14:16.09	185.36	13.35	-52.1	-56.5	3.7	0.00e+00	0	51	104	0	75	24360
2026-01-16 21:14:17.22	185.41	13.21	-52.2	-56.9	3.7	0.00e+00	0	51	104	0	75	25508
2026-01-16 21:14:18.08	185.45	13.10	-51.9	-56.3	3.7	0.00e+00	0	51	104	0	75	23955
2026-01-16 21:14:19.21	185.50	12.96	-51.9	-56.4	3.7	0.00e+00	0	51	104	0	75	24149
2026-01-16 21:14:20.07	185.54	12.85	-51.9	-56.4	3.7	0.00e+00	0	51	104	0	75	24000
2026-01-16 21:14:21.20	185.59	12.71	-51.9	-56.3	3.7	0.00e+00	0	51	104	0	75	23852
2026-01-16 21:14:22.05	185.62	12.61	-51.9	-56.4	3.7	0.00e+00	0	51	104	0	75	23983
2026-01-16 21:14:23.19	185.67	12.47	-52.0	-56.5	3.7	0.00e+00	0	51	104	0	75	24403
2026-01-16 21:14:24.04	185.71	12.37	-52.2	-56.9	3.7	0.00e+00	0	51	104	0	75	25553
2026-01-16 21:14:25.18	185.76	12.23	-52.1	-56.9	3.7	0.00e+00	0	51	104	0	75	25546
2026-01-16 21:14:26.03	185.79	12.13	-52.1	-57.0	3.7	0.00e+00	0	51	104	0	75	25693
2026-01-16 21:14:27.16	185.84	12.00	-51.9	-56.6	3.7	0.00e+00	0	51	104	0	75	24802
2026-01-16 21:14:28.14	185.88	11.88	-52.1	-57.0	3.7	0.00e+00	0	51	104	0	75	25808
2026-01-16 21:14:29.14	185.92	11.77	-52.1	-56.9	3.7	0.00e+00	0	51	104	0	75	25506
2026-01-16 21:14:30.13	185.96	11.65	-52.2	-57.0	3.7	0.00e+00	0	51	104	0	75	25816
2026-01-16 21:14:31.13	186.00	11.54	-52.0	-56.8	3.7	0.00e+00	0	51	104	0	75	25249
2026-01-16 21:14:32.13	186.04	11.42	-52.2	-57.0	3.7	0.00e+00	0	51	104	0	75	25736
2026-01-16 21:14:33.12	186.08	11.31	-52.0	-56.8	3.7	0.00e+00	0	51	104	0	75	25375
2026-01-16 21:14:34.45	186.13	11.16	-52.2	-57.0	3.7	0.00e+00	0	51	104	0	75	25803
2026-01-16 21:14:35.19	186.16	11.08	-52.2	-56.9	3.7	0.00e+00	0	51	104	0	75	25435
2026-01-16 21:14:36.79	186.22	10.90	-52.2	-57.0	3.7	0.00e+00	0	51	104	0	75	25886
2026-01-16 21:14:37.35	186.24	10.84	-52.1	-57.0	3.7	0.00e+00	0	51	104	0	75	25816
2026-01-16 21:14:39.06	186.31	10.65	-52.0	-56.7	3.7	0.00e+00	0	51	104	0	75	24916
2026-01-16 21:14:39.63	186.33	10.59	-52.1	-56.7	3.7	0.00e+00	0	51	104	0	75	25012
2026-01-16 21:14:41.34	186.39	10.40	-52.2	-56.9	3.7	0.00e+00	0	51	104	0	75	25654
2026-01-16 21:14:41.90	186.41	10.34	-52.0	-56.6	3.7	0.00e+00	0	51	104	0	75	24705
2026-01-16 21:14:43.61	186.47	10.16	-52.4	-57.0	3.7	0.00e+00	0	51	104	0	75	25713
2026-01-16 21:14:44.34	186.50	10.08	-52.3	-57.0	3.7	0.00e+00	0	51	104	0	75	25712
2026-01-16 21:14:45.62	186.55	9.94	-52.0	-56.6	3.7	0.00e+00	0	51	104	0	75	24715
2026-01-16 21:14:46.32	186.57	9.87	-52.1	-56.8	3.7	0.00e+00	0	51	104	0	75	25179
2026-01-16 21:14:47.62	186.62	9.73	-52.3	-57.1	3.7	0.00e+00	0	51	104	0	75	26005
2026-01-16 21:14:48.33	186.64	9.66	-52.3	-57.0	3.7	0.00e+00	0	51	104	0	75	25974
2026-01-16 21:14:49.61	186.68	9.53	-52.2	-56.9	3.7	0.00e+00	0	51	104	0	75	25523
2026-01-16 21:14:50.68	186.72	9.42	-52.3	-57.0	3.7	0.00e+00	0	51	104	0	75	25818
2026-01-16 21:14:51.80	186.76	9.30	-51.9	-56.7	3.7	0.00e+00	0	51	104	0	75	24905
2026-01-16 21:14:52.66	186.79	9.22	-52.3	-57.1	3.7	0.00e+00	0	51	104	0	75	25983
2026-01-16 21:14:53.79	186.83	9.10	-51.9	-56.7	3.7	0.00e+00	0	51	104	0	75	24930
2026-01-16 21:14:54.65	186.85	9.02	-52.1	-56.9	3.7	0.00e+00	0	51	104	0	75	25414
2026-01-16 21:14:55.78	186.89	8.90	-52.4	-57.0	3.7	0.00e+00	0	51	104	0	75	25784
2026-01-16 21:14:56.63	186.92	8.82	-52.1	-56.8	3.7	0.00e+00	0	51	104	0	76	23925
2026-01-16 21:14:57.77	186.95	8.71	-52.5	-57.3	3.7	0.00e+00	0	51	104	0	75	26766
2026-01-16 21:14:58.62	186.98	8.62	-52.7	-57.2	3.7	0.00e+00	0	51	104	0	76	24892
2026-01-16 21:14:59.76	187.02	8.51	-53.5	-58.0	3.7	0.00e+00	0	51	104	0	77	25904
2026-01-16 21:15:00.61	187.04	8.43	-53.7	-58.0	3.7	0.00e+00	0	51	104	0	78	24514
2026-01-16 21:15:01.75	187.08	8.32	-54.0	-58.4	3.7	0.00e+00	0	51	104	0	78	25635
2026-01-16 21:15:02.60	187.11	8.24	-54.0	-58.2	3.7	0.00e+00	0	51	104	0	78	24993
2026-01-16 21:15:03.74	187.14	8.13	-53.7	-58.1	3.7	0.00e+00	0	51	104	0	78	24639
2026-01-16 21:15:04.59	187.17	8.05	-54.2	-58.5	3.7	0.00e+00	0	51	104	0	78	25957
2026-01-16 21:15:05.72	187.20	7.94	-54.0	-58.2	3.7	0.00e+00	0	51	104	0	79	23643
2026-01-16 21:15:06.57	187.23	7.86	-54.2	-58.5	3.7	0.00e+00	0	51	104	0	79	24497
2026-01-16 21:15:07.71	187.26	7.75	-54.0	-58.4	3.7	0.00e+00	0	51	104	0	79	24070
2026-01-16 21:15:08.56	187.29	7.67	-54.1	-58.4	3.7	0.00e+00	0	51	104	0	79	24074
2026-01-16 21:15:09.70	187.32	7.57	-53.7	-58.4	3.7	0.00e+00	0	51	104	0	79	24101
2026-01-16 21:15:10.55	187.35	7.49	-54.3	-58.6	3.7	0.00e+00	0	51	104	0	79	24554
2026-01-16 21:15:11.69	187.38	7.38	-53.8	-58.3	3.7	0.00e+00	0	51	104	0	79	23851
2026-01-16 21:15:12.54	187.40	7.30	-54.3	-58.6	3.7	0.00e+00	0	51	104	0	79	24667
2026-01-16 21:15:13.67	187.44	7.20	-54.1	-58.5	3.7	0.00e+00	0	51	104	0	78	25834
2026-01-16 21:15:14.52	187.46	7.12	-53.6	-58.1	3.7	0.00e+00	0	51	104	0	78	24694
2026-01-16 21:15:15.66	187.49	7.02	-54.1	-58.2	3.7	0.00e+00	0	51	104	0	78	24872
2026-01-16 21:15:16.51	187.52	6.94	-54.1	-58.3	3.7	0.00e+00	0	51	104	0	79	23792
2026-01-16 21:15:17.65	187.55	6.84	-54.0	-58.0	3.7	0.00e+00	0	51	104	0	79	23082
2026-01-16 21:15:18.50	187.57	6.77	-53.8	-57.8	3.7	0.00e+00	0	51	104	0	79	22589
2026-01-16 21:15:19.63	187.60	6.67	-53.4	-57.6	3.7	0.00e+00	0	51	104	0	78	23325
2026-01-16 21:15:20.48	187.63	6.59	-52.9	-57.8	3.7	0.00e+00	0	51	104	0	77	25348
2026-01-16 21:15:21.62	187.66	6.49	-52.9	-57.7	3.7	0.00e+00	0	51	104	0	77	24979
2026-01-16 21:15:22.47	187.68	6.42	-53.1	-57.5	3.7	0.00e+00	0	51	104	0	77	24333
2026-01-16 21:15:23.61	187.71	6.32	-53.1	-57.5	3.7	0.00e+00	0	51	104	0	77	24360
2026-01-16 21:15:24.46	187.73	6.24	-53.1	-57.5	3.7	0.00e+00	0	51	104	0	77	24395
2026-01-16 21:15:25.59	187.76	6.15	-53.1	-57.5	3.7	0.00e+00	0	51	104	0	77	24320
2026-01-16 21:15:26.45	187.79	6.07	-53.1	-57.5	3.7	0.00e+00	0	51	104	0	77	24322
2026-01-16 21:15:27.58	187.81	5.97	-53.0	-57.5	3.7	0.00e+00	0	51	104	0	77	24324
2026-01-16 21:15:28.43	187.84	5.90	-53.1	-57.5	3.7	0.00e+00	0	51	104	0	77	24347
2026-01-16 21:15:29.57	187.87	5.81	-53.1	-57.5	3.7	0.00e+00	0	51	104	0	77	24249
2026-01-16 21:15:30.42	187.89	5.73	-53.1	-57.5	3.7	0.00e+00	0	51	104	0	77	24296
2026-01-16 21:15:31.56	187.92	5.64	-53.1	-57.5	3.7	0.00e+00	0	51	104	0	77	24273
2026-01-16 21:15:32.41	187.94	5.57	-53.1	-57.5	3.7	0.00e+00	0	51	104	0	77	24345
2026-01-16 21:15:33.55	187.97	5.47	-53.1	-57.5	3.7	0.00e+00	0	51	104	0	77	24346
2026-01-16 21:15:34.40	187.99	5.40	-53.1	-57.5	3.7	0.00e+00	0	51	104	0	77	24337
2026-01-16 21:15:35.53	188.02	5.31	-53.1	-57.5	3.7	0.00e+00	0	51	104	0	77	24321
2026-01-16 21:15:36.38	188.04	5.24	-53.1	-57.5	3.7	0.00e+00	0	51	104	0	77	24276
2026-01-16 21:15:37.52	188.06	5.14	-53.0	-57.5	3.7	0.00e+00	0	51	104	0	77	24274

#Closed at: 2026-01-16 21:15:38
#Recorded file [0 MB]: D:/Data/31040_260117_000633.dat