passes_logs/2026/01/16/T1/T1__20260116_015532_FENGYUN_3D_rec.log

#Pass ID: 20260116_015532_FENGYUN 3D
#Satellite: FENGYUN 3D
#Configuration: FENGYUN 3D
#almurnet v.1.7.20251203
#Start time: 2026-01-16 01:55:32

#Version: 2.0.20230620
#Station: T1
#Location: 37.570604 lon 55.790049 lat
#TLE: 1 43010U 17072A   26015.49690188 -.00000192  00000+0 -69217-4 0  9996
#TLE: 2 43010  98.9932 347.3205 0002350 106.2275 253.9159 14.19694721423329

#Time	Az	El	Level	Level2	SNR	BER	BlckErr	Temp	State	Recorded	gain1	gain2
2026-01-16 01:55:32.97	15.78	5.06	-47.2	-60.8	3.8	8.47e-01	0	41	0	0	66	16783
2026-01-16 01:55:33.96	15.78	5.13	-47.2	-61.2	3.8	8.46e-01	0	41	104	0	65	18719
2026-01-16 01:55:34.95	15.78	5.20	-47.2	-61.2	3.8	8.46e-01	0	41	104	0	65	18689
2026-01-16 01:55:35.94	15.77	5.27	-47.2	-61.2	3.8	8.48e-01	0	41	104	0	65	18602
2026-01-16 01:55:36.94	15.77	5.34	-47.2	-61.1	3.8	8.47e-01	0	41	104	0	65	18328
2026-01-16 01:55:37.93	15.76	5.41	-47.2	-61.0	3.8	8.47e-01	0	41	104	0	65	18111
2026-01-16 01:55:38.92	15.76	5.48	-47.2	-60.8	3.8	8.47e-01	0	41	104	0	65	17772
2026-01-16 01:55:39.91	15.75	5.56	-47.2	-60.7	3.8	8.47e-01	0	41	104	0	65	17534
2026-01-16 01:55:40.91	15.75	5.63	-47.2	-60.6	3.8	8.46e-01	0	41	104	0	65	17366
2026-01-16 01:55:41.90	15.74	5.70	-47.2	-60.5	3.8	8.48e-01	0	41	104	0	65	17249
2026-01-16 01:55:42.89	15.74	5.77	-47.2	-60.5	3.8	8.48e-01	0	42	104	0	65	17191
2026-01-16 01:55:43.89	15.73	5.85	-47.2	-60.5	3.8	8.46e-01	0	41	104	0	65	17178
2026-01-16 01:55:44.88	15.73	5.92	-47.2	-60.5	3.8	8.47e-01	0	41	104	0	65	17151
2026-01-16 01:55:45.87	15.73	5.99	-47.2	-60.4	3.8	8.46e-01	0	42	104	0	65	17045
2026-01-16 01:55:46.87	15.72	6.07	-47.2	-60.4	3.8	8.46e-01	0	42	104	0	65	16893
2026-01-16 01:55:47.86	15.72	6.14	-47.2	-60.3	3.8	8.47e-01	0	42	104	0	65	16714
2026-01-16 01:55:48.85	15.71	6.21	-47.2	-60.0	3.8	8.47e-01	0	42	104	0	65	16226
2026-01-16 01:55:49.85	15.71	6.29	-47.1	-59.9	3.8	8.46e-01	0	42	104	0	65	16070
2026-01-16 01:55:50.84	15.70	6.36	-47.1	-59.8	3.8	8.45e-01	0	42	104	0	65	15812
2026-01-16 01:55:51.83	15.70	6.44	-47.1	-59.7	3.9	8.45e-01	0	42	104	0	65	15621
2026-01-16 01:55:52.83	15.69	6.51	-47.1	-59.8	3.8	8.47e-01	0	42	104	0	65	15931
2026-01-16 01:55:53.82	15.69	6.59	-47.2	-60.0	3.8	8.48e-01	0	42	104	0	65	16175
2026-01-16 01:55:54.81	15.68	6.66	-47.2	-60.3	3.8	8.47e-01	0	42	104	0	65	16840
2026-01-16 01:55:55.80	15.68	6.74	-47.2	-60.8	3.8	8.46e-01	0	42	104	0	65	17703
2026-01-16 01:55:56.80	15.67	6.81	-47.2	-61.2	3.8	8.47e-01	0	42	104	0	65	18589
2026-01-16 01:55:57.79	15.67	6.89	-47.2	-61.4	3.8	8.48e-01	0	42	104	0	65	19111
2026-01-16 01:55:58.78	15.66	6.96	-47.2	-61.3	3.8	8.47e-01	0	42	104	0	65	18829
2026-01-16 01:55:59.78	15.65	7.04	-47.2	-60.6	3.8	8.46e-01	0	42	104	0	65	17359
2026-01-16 01:56:00.77	15.65	7.12	-47.1	-59.4	3.9	8.46e-01	0	42	104	0	65	15102
2026-01-16 01:56:01.76	15.64	7.19	-47.0	-57.9	4.2	8.41e-01	0	42	0	0	65	12788
2026-01-16 01:56:02.76	15.64	7.27	-46.8	-56.5	4.7	8.19e-01	0	42	0	0	65	10840
2026-01-16 01:56:03.75	15.63	7.35	-46.5	-55.1	5.5	7.54e-01	0	42	0	0	65	9199
2026-01-16 01:56:04.74	15.63	7.43	-46.3	-53.9	6.3	3.36e-01	0	42	0	4194304	64	8485
2026-01-16 01:56:05.74	15.62	7.50	-46.0	-52.9	7.2	2.01e-01	0	42	0	9437184	64	7621
2026-01-16 01:56:06.73	15.61	7.58	-45.8	-52.1	8.0	9.06e-02	0	43	0	15728640	63	7359
2026-01-16 01:56:07.72	15.61	7.66	-45.6	-51.3	8.9	4.65e-02	0	42	0	20971520	63	6693
2026-01-16 01:56:08.71	15.60	7.74	-45.4	-50.8	9.4	2.59e-02	0	42	0	26214400	62	6688
2026-01-16 01:56:09.71	15.60	7.82	-45.1	-50.2	10.0	1.21e-02	0	42	0	31457280	62	6249
2026-01-16 01:56:10.70	15.59	7.89	-44.9	-49.8	10.5	7.07e-03	0	42	0	37748736	61	6303
2026-01-16 01:56:11.69	15.59	7.97	-44.7	-49.4	10.9	3.29e-03	0	42	0	42991616	61	5998
2026-01-16 01:56:12.69	15.58	8.05	-44.6	-49.0	11.3	1.97e-03	0	42	0	48234496	61	5776
2026-01-16 01:56:13.68	15.57	8.13	-44.4	-48.8	11.5	1.22e-03	0	42	0	54525952	60	5966
2026-01-16 01:56:14.67	15.57	8.21	-44.3	-48.5	11.8	7.60e-04	0	42	0	59768832	60	5783
2026-01-16 01:56:15.67	15.56	8.29	-44.2	-48.3	12.0	5.63e-04	0	42	0	65011712	60	5641
2026-01-16 01:56:16.66	15.55	8.37	-44.1	-48.2	12.1	3.83e-04	0	42	0	71303168	60	5557
2026-01-16 01:56:17.66	15.55	8.45	-44.1	-48.2	12.1	3.94e-04	0	42	0	76546048	60	5556
2026-01-16 01:56:18.65	15.54	8.54	-44.2	-48.4	12.0	4.70e-04	0	43	0	81788928	60	5666
2026-01-16 01:56:19.64	15.53	8.62	-44.3	-48.6	11.7	7.07e-04	0	43	0	88080384	60	5802
2026-01-16 01:56:20.64	15.53	8.70	-44.5	-49.0	11.3	1.19e-03	0	43	0	93323264	60	6095
2026-01-16 01:56:21.63	15.52	8.78	-44.8	-49.6	10.7	3.08e-03	0	43	0	98566144	60	6514
2026-01-16 01:56:22.62	15.52	8.86	-45.2	-50.4	9.9	7.88e-03	0	43	0	104857600	60	7123
2026-01-16 01:56:23.62	15.51	8.94	-45.6	-51.4	8.8	3.07e-02	0	43	0	110100480	61	7554
2026-01-16 01:56:24.61	15.50	9.03	-46.0	-52.6	7.6	7.85e-02	0	43	0	115343360	62	8197
2026-01-16 01:56:25.60	15.49	9.11	-46.6	-55.8	5.1	2.29e-01	0	43	0	120586240	63	11173
2026-01-16 01:56:26.60	15.49	9.19	-46.8	-59.2	3.8	8.42e-01	0	43	104	120586240	64	15589
2026-01-16 01:56:27.59	15.48	9.28	-45.5	-51.5	8.4	8.45e-01	0	43	0	120586240	63	6818
2026-01-16 01:56:28.93	15.47	9.39	-41.3	-43.9	16.4	0.00e+00	0	43	0	127926272	54	4794
2026-01-16 01:56:29.68	15.47	9.45	-45.5	-50.5	9.9	1.25e-03	0	43	0	132120576	61	6817
2026-01-16 01:56:30.95	15.46	9.56	-41.3	-43.9	16.4	0.00e+00	0	43	0	138412032	54	4779
2026-01-16 01:56:31.66	15.45	9.62	-41.3	-43.9	16.4	0.00e+00	0	43	0	142606336	54	4774
2026-01-16 01:56:32.96	15.44	9.73	-41.0	-43.5	16.8	0.00e+00	0	43	0	149946368	54	4547
2026-01-16 01:56:33.67	15.44	9.79	-41.0	-43.5	16.8	0.00e+00	0	43	0	154140672	53	4815
2026-01-16 01:56:34.95	15.43	9.90	-40.7	-43.0	17.2	0.00e+00	0	43	0	161480704	53	4569
2026-01-16 01:56:35.66	15.42	9.96	-40.7	-43.0	17.2	0.00e+00	0	43	0	165675008	53	4583
2026-01-16 01:56:36.94	15.41	10.07	-40.6	-42.9	17.4	0.00e+00	0	43	0	171966464	53	4506
2026-01-16 01:56:37.65	15.41	10.14	-40.5	-42.9	17.4	0.00e+00	0	43	0	176160768	53	4500
2026-01-16 01:56:38.93	15.40	10.25	-40.5	-42.8	17.5	0.00e+00	0	43	0	183500800	52	4727
2026-01-16 01:56:39.67	15.39	10.31	-40.5	-42.8	17.5	0.00e+00	0	43	0	187695104	52	4726
2026-01-16 01:56:40.95	15.38	10.42	-40.4	-42.6	17.6	0.00e+00	0	43	0	195035136	52	4649
2026-01-16 01:56:41.66	15.37	10.49	-40.3	-42.5	17.8	0.00e+00	0	43	0	199229440	52	4577
2026-01-16 01:56:43.16	15.36	10.62	-40.3	-42.5	17.8	0.00e+00	0	43	0	207618048	52	4560
2026-01-16 01:56:43.87	15.36	10.68	-40.3	-42.5	17.8	0.00e+00	0	43	0	211812352	52	4575
2026-01-16 01:56:45.21	15.35	10.80	-40.3	-42.6	17.7	0.00e+00	0	43	0	219152384	52	4600
2026-01-16 01:56:45.92	15.34	10.87	-40.3	-42.6	17.7	0.00e+00	0	43	0	223346688	52	4601
2026-01-16 01:56:47.20	15.33	10.98	-40.2	-42.5	17.8	0.00e+00	0	43	0	229638144	52	4550
2026-01-16 01:56:47.93	15.32	11.05	-40.3	-42.5	17.8	0.00e+00	0	43	0	234881024	52	4569
2026-01-16 01:56:49.21	15.31	11.16	-40.3	-42.5	17.8	0.00e+00	0	43	0	241172480	52	4569
2026-01-16 01:56:49.94	15.31	11.23	-40.2	-42.4	17.9	0.00e+00	0	43	0	245366784	52	4532
2026-01-16 01:56:51.22	15.29	11.35	-40.2	-42.4	17.9	0.00e+00	0	43	0	252706816	52	4528
2026-01-16 01:56:51.94	15.29	11.41	-40.1	-42.3	18.0	0.00e+00	0	43	0	256901120	52	4492
2026-01-16 01:56:53.22	15.28	11.53	-40.2	-42.4	18.0	0.00e+00	0	43	0	264241152	52	4512
2026-01-16 01:56:53.96	15.27	11.60	-40.1	-42.3	18.0	0.00e+00	0	43	0	268435456	52	4477
2026-01-16 01:56:55.24	15.26	11.72	-40.2	-42.4	17.9	0.00e+00	0	43	0	275775488	52	4520
2026-01-16 01:56:55.95	15.25	11.78	-40.1	-42.3	17.9	0.00e+00	0	43	0	278921216	52	4492
2026-01-16 01:56:57.23	15.24	11.90	-40.1	-42.3	18.0	0.00e+00	0	43	0	286261248	52	4486
2026-01-16 01:56:57.95	15.23	11.97	-40.1	-42.3	18.0	0.00e+00	0	43	0	290455552	52	4483
2026-01-16 01:56:59.24	15.22	12.09	-40.1	-42.3	18.0	0.00e+00	0	43	0	297795584	52	4488
2026-01-16 01:56:59.95	15.21	12.16	-40.1	-42.3	18.1	0.00e+00	0	43	0	301989888	52	4462
2026-01-16 01:57:01.22	15.20	12.28	-40.1	-42.3	18.0	0.00e+00	0	43	0	309329920	52	4486
2026-01-16 01:57:02.19	15.19	12.37	-40.0	-42.3	18.1	0.00e+00	0	43	0	314572800	52	4456
2026-01-16 01:57:03.18	15.18	12.46	-40.0	-42.2	18.2	0.00e+00	0	43	0	319815680	51	4701
2026-01-16 01:57:04.18	15.17	12.56	-40.0	-42.2	18.2	0.00e+00	0	43	0	326107136	51	4703
2026-01-16 01:57:05.54	15.16	12.69	-40.0	-42.2	18.2	0.00e+00	0	43	0	333447168	51	4698
2026-01-16 01:57:06.25	15.15	12.76	-39.9	-42.1	18.3	0.00e+00	0	43	0	337641472	51	4648
2026-01-16 01:57:07.52	15.14	12.88	-40.0	-42.2	18.3	0.00e+00	0	43	0	344981504	51	4692
2026-01-16 01:57:08.25	15.13	12.95	-40.1	-42.3	18.2	0.00e+00	0	43	0	348127232	51	4708
2026-01-16 01:57:09.53	15.12	13.08	-40.0	-42.2	18.3	0.00e+00	0	43	0	355467264	51	4661
2026-01-16 01:57:10.25	15.11	13.15	-39.9	-42.1	18.4	0.00e+00	0	43	0	359661568	51	4630
2026-01-16 01:57:11.53	15.10	13.28	-39.8	-42.0	18.4	0.00e+00	0	43	0	367001600	51	4584
2026-01-16 01:57:12.24	15.09	13.35	-39.8	-42.0	18.4	0.00e+00	0	43	0	371195904	51	4581
2026-01-16 01:57:13.55	15.08	13.48	-39.8	-42.0	18.4	0.00e+00	0	43	0	378535936	51	4595
2026-01-16 01:57:14.26	15.07	13.55	-39.8	-42.0	18.5	0.00e+00	0	43	0	382730240	51	4578
2026-01-16 01:57:15.54	15.05	13.68	-39.9	-42.1	18.4	0.00e+00	0	43	0	390070272	51	4612
2026-01-16 01:57:16.25	15.05	13.75	-39.8	-42.0	18.5	0.00e+00	0	43	0	393216000	51	4581
2026-01-16 01:57:17.53	15.03	13.88	-39.6	-41.9	18.6	0.00e+00	0	43	0	400556032	51	4505
2026-01-16 01:57:18.24	15.02	13.95	-39.6	-41.8	18.7	0.00e+00	0	43	0	404750336	51	4478
2026-01-16 01:57:19.52	15.01	14.08	-39.5	-41.7	18.8	0.00e+00	0	43	0	412090368	51	4439
2026-01-16 01:57:20.23	15.00	14.15	-39.5	-41.7	18.8	0.00e+00	0	43	0	416284672	51	4423
2026-01-16 01:57:21.51	14.99	14.28	-39.5	-41.7	18.7	0.00e+00	0	43	0	422576128	51	4441
2026-01-16 01:57:22.22	14.98	14.36	-39.5	-41.7	18.8	0.00e+00	0	43	0	427819008	51	4428
2026-01-16 01:57:23.50	14.96	14.49	-39.6	-41.8	18.7	0.00e+00	0	43	0	434110464	51	4457
2026-01-16 01:57:24.21	14.96	14.56	-39.4	-41.6	18.9	0.00e+00	0	43	0	438304768	50	4649
2026-01-16 01:57:25.49	14.94	14.70	-39.5	-41.6	18.9	0.00e+00	0	43	0	445644800	50	4649
2026-01-16 01:57:26.23	14.93	14.78	-39.4	-41.5	19.0	0.00e+00	0	43	0	449839104	50	4592
2026-01-16 01:57:27.51	14.92	14.91	-39.4	-41.5	19.0	0.00e+00	0	43	0	457179136	50	4583
2026-01-16 01:57:28.24	14.91	14.99	-39.4	-41.5	19.0	0.00e+00	0	43	0	461373440	50	4596
2026-01-16 01:57:29.52	14.89	15.12	-39.2	-41.3	19.2	0.00e+00	0	43	0	467664896	50	4474
2026-01-16 01:57:30.23	14.88	15.20	-39.2	-41.3	19.3	0.00e+00	0	43	0	471859200	50	4449
2026-01-16 01:57:31.54	14.86	15.34	-39.2	-41.2	19.3	0.00e+00	0	43	0	479199232	50	4425
2026-01-16 01:57:32.25	14.86	15.42	-39.2	-41.3	19.3	0.00e+00	0	43	0	483393536	50	4449
2026-01-16 01:57:33.53	14.84	15.56	-39.1	-41.1	19.4	0.00e+00	0	43	0	490733568	50	4364
2026-01-16 01:57:34.25	14.83	15.63	-39.0	-41.1	19.5	0.00e+00	0	43	0	494927872	50	4342
2026-01-16 01:57:35.64	14.81	15.79	-39.1	-41.1	19.4	0.00e+00	0	43	0	502267904	50	4349
2026-01-16 01:57:36.35	14.80	15.86	-39.1	-41.1	19.4	0.00e+00	0	43	0	506462208	50	4344
2026-01-16 01:57:37.63	14.78	16.01	-39.0	-41.0	19.5	0.00e+00	0	43	0	513802240	50	4320
2026-01-16 01:57:38.34	14.77	16.08	-39.0	-41.0	19.5	0.00e+00	0	43	0	517996544	50	4297
2026-01-16 01:57:39.74	14.76	16.24	-38.8	-40.8	19.7	0.00e+00	0	43	0	525336576	49	4447
2026-01-16 01:57:40.46	14.75	16.32	-38.8	-40.7	19.7	0.00e+00	0	43	0	529530880	49	4439
2026-01-16 01:57:41.73	14.73	16.46	-38.8	-40.7	19.8	0.00e+00	0	43	0	536870912	49	4434
2026-01-16 01:57:42.44	14.72	16.54	-38.8	-40.7	19.8	0.00e+00	0	43	0	541065216	49	4416
2026-01-16 01:57:43.72	14.70	16.69	-38.8	-40.7	19.8	0.00e+00	0	43	0	548405248	49	4398
2026-01-16 01:57:44.45	14.69	16.77	-38.7	-40.6	19.9	0.00e+00	0	43	0	552599552	49	4361
2026-01-16 01:57:45.73	14.67	16.92	-38.7	-40.6	19.9	0.00e+00	0	43	0	559939584	49	4365
2026-01-16 01:57:46.44	14.66	17.00	-38.8	-40.7	19.9	0.00e+00	0	43	0	563085312	49	4394
2026-01-16 01:57:47.72	14.64	17.15	-38.6	-40.5	20.0	0.00e+00	0	43	0	570425344	49	4314
2026-01-16 01:57:48.52	14.63	17.24	-38.6	-40.5	20.0	0.00e+00	0	43	0	575668224	49	4303
2026-01-16 01:57:49.66	14.61	17.37	-38.7	-40.6	20.0	0.00e+00	0	43	0	581959680	49	4350
2026-01-16 01:57:50.51	14.60	17.47	-38.6	-40.5	20.0	0.00e+00	0	43	0	586153984	49	4307
2026-01-16 01:57:51.65	14.58	17.61	-38.6	-40.5	20.1	0.00e+00	0	43	0	592445440	49	4299
2026-01-16 01:57:52.50	14.57	17.71	-38.5	-40.4	20.1	0.00e+00	0	43	0	597688320	49	4274
2026-01-16 01:57:53.63	14.55	17.84	-38.5	-40.3	20.2	0.00e+00	0	43	0	603979776	49	4237
2026-01-16 01:57:54.83	14.53	17.99	-38.5	-40.3	20.2	0.00e+00	0	43	0	610271232	48	4482
2026-01-16 01:57:55.86	14.51	18.11	-38.4	-40.3	20.2	0.00e+00	0	43	0	616562688	48	4467
2026-01-16 01:57:56.86	14.50	18.23	-38.5	-40.3	20.2	0.00e+00	0	43	0	621805568	48	4480
2026-01-16 01:57:57.85	14.48	18.35	-38.5	-40.3	20.2	0.00e+00	0	43	0	627048448	48	4486
2026-01-16 01:57:58.85	14.47	18.47	-38.4	-40.3	20.2	0.00e+00	0	43	0	633339904	48	4465
2026-01-16 01:57:59.84	14.45	18.60	-38.4	-40.2	20.3	0.00e+00	0	43	0	638582784	48	4432
2026-01-16 01:58:00.84	14.43	18.72	-38.4	-40.2	20.3	0.00e+00	0	43	0	644874240	48	4412
2026-01-16 01:58:01.83	14.41	18.84	-38.4	-40.2	20.3	0.00e+00	0	43	0	650117120	48	4426
2026-01-16 01:58:02.82	14.40	18.97	-38.4	-40.2	20.3	0.00e+00	0	43	0	655360000	48	4416
2026-01-16 01:58:03.82	14.38	19.09	-38.3	-40.1	20.4	0.00e+00	0	43	0	660602880	48	4383
2026-01-16 01:58:04.83	14.36	19.22	-38.4	-40.3	20.3	0.00e+00	0	43	0	666894336	48	4442
2026-01-16 01:58:05.84	14.34	19.35	-38.4	-40.2	20.3	0.00e+00	0	43	0	672137216	48	4433
2026-01-16 01:58:06.88	14.33	19.48	-38.3	-40.1	20.4	0.00e+00	0	43	0	678428672	48	4377
2026-01-16 01:58:07.87	14.31	19.60	-38.2	-40.0	20.5	0.00e+00	0	43	0	683671552	48	4325
2026-01-16 01:58:08.87	14.29	19.73	-38.2	-39.9	20.6	0.00e+00	0	43	0	689963008	48	4287
2026-01-16 01:58:09.94	14.27	19.87	-38.2	-40.0	20.6	0.00e+00	0	43	0	695205888	48	4297
2026-01-16 01:58:10.83	14.25	19.99	-38.3	-40.1	20.4	0.00e+00	0	43	0	700448768	48	4353
2026-01-16 01:58:11.96	14.23	20.13	-38.3	-40.1	20.4	0.00e+00	0	44	0	706740224	48	4386
2026-01-16 01:58:12.82	14.22	20.25	-38.3	-40.1	20.5	0.00e+00	0	44	0	711983104	48	4343
2026-01-16 01:58:13.96	14.19	20.40	-38.2	-39.9	20.6	0.00e+00	0	43	0	718274560	48	4284
2026-01-16 01:58:14.81	14.18	20.51	-38.3	-40.0	20.5	0.00e+00	0	43	0	722468864	48	4333
2026-01-16 01:58:15.94	14.15	20.66	-38.2	-39.9	20.6	0.00e+00	0	44	0	729808896	48	4287
2026-01-16 01:58:16.80	14.14	20.77	-38.0	-39.8	20.7	0.00e+00	0	43	0	734003200	48	4208
2026-01-16 01:58:17.93	14.11	20.93	-38.0	-39.8	20.8	0.00e+00	0	44	0	740294656	48	4197
2026-01-16 01:58:18.78	14.10	21.04	-37.9	-39.7	20.6	0.00e+00	0	44	0	745537536	47	4407
2026-01-16 01:58:19.92	14.07	21.20	-37.9	-39.7	20.6	0.00e+00	0	43	0	751828992	47	4425
2026-01-16 01:58:20.77	14.06	21.31	-37.9	-39.7	20.5	0.00e+00	0	44	0	757071872	47	4430
2026-01-16 01:58:21.91	14.03	21.47	-37.9	-39.7	20.5	0.00e+00	0	44	0	763363328	47	4421
2026-01-16 01:58:22.76	14.01	21.59	-37.9	-39.7	20.6	0.00e+00	0	44	0	767557632	47	4406
2026-01-16 01:58:23.90	13.99	21.75	-37.8	-39.6	20.7	0.00e+00	0	43	0	773849088	47	4355
2026-01-16 01:58:24.75	13.97	21.87	-37.7	-39.5	20.8	0.00e+00	0	43	0	779091968	47	4294
2026-01-16 01:58:25.89	13.95	22.03	-37.7	-39.4	20.9	0.00e+00	0	44	0	785383424	47	4291
2026-01-16 01:58:26.74	13.93	22.15	-37.6	-39.4	20.9	0.00e+00	0	44	0	790626304	47	4267
2026-01-16 01:58:27.88	13.90	22.31	-37.7	-39.5	20.8	0.00e+00	0	43	0	796917760	47	4301
2026-01-16 01:58:28.89	13.88	22.45	-37.6	-39.3	20.9	0.00e+00	0	44	0	802160640	47	4242
2026-01-16 01:58:29.88	13.86	22.59	-37.6	-39.4	20.9	0.00e+00	0	43	0	807403520	47	4243
2026-01-16 01:58:30.88	13.83	22.74	-37.5	-39.3	21.0	0.00e+00	0	43	0	813694976	47	4217
2026-01-16 01:58:31.87	13.81	22.88	-37.6	-39.3	20.9	0.00e+00	0	43	0	818937856	47	4237
2026-01-16 01:58:32.87	13.79	23.03	-37.6	-39.3	21.0	0.00e+00	0	43	0	825229312	47	4232
2026-01-16 01:58:33.86	13.76	23.18	-37.5	-39.2	21.1	0.00e+00	0	43	0	830472192	46	4421
2026-01-16 01:58:34.86	13.74	23.32	-37.5	-39.2	21.1	0.00e+00	0	44	0	835715072	46	4430
2026-01-16 01:58:35.85	13.72	23.47	-37.4	-39.2	21.1	0.00e+00	0	43	0	840957952	46	4402
2026-01-16 01:58:36.84	13.69	23.62	-37.4	-39.1	21.2	0.00e+00	0	44	0	847249408	46	4374
2026-01-16 01:58:37.87	13.66	23.77	-37.3	-39.1	21.2	0.00e+00	0	44	0	852492288	46	4359
2026-01-16 01:58:38.87	13.64	23.92	-37.4	-39.2	21.2	0.00e+00	0	44	0	857735168	46	4401
2026-01-16 01:58:39.86	13.61	24.08	-37.4	-39.1	21.2	0.00e+00	0	43	0	864026624	46	4379
2026-01-16 01:58:40.95	13.59	24.24	-37.3	-39.0	21.3	0.00e+00	0	44	0	870318080	46	4318
2026-01-16 01:58:41.84	13.56	24.38	-37.3	-39.0	21.3	0.00e+00	0	44	0	875560960	46	4335
2026-01-16 01:58:42.97	13.53	24.55	-37.3	-39.0	21.2	0.00e+00	0	43	0	881852416	46	4334
2026-01-16 01:58:43.83	13.51	24.69	-37.2	-39.0	21.3	0.00e+00	0	44	0	886046720	46	4305
2026-01-16 01:58:44.96	13.48	24.87	-37.2	-39.0	21.4	0.00e+00	0	44	0	892338176	46	4300
2026-01-16 01:58:45.82	13.46	25.00	-37.2	-38.9	21.4	0.00e+00	0	44	0	897581056	46	4270
2026-01-16 01:58:46.96	13.42	25.18	-37.2	-38.9	21.4	0.00e+00	0	44	0	903872512	46	4285
2026-01-16 01:58:47.81	13.40	25.32	-37.1	-38.9	21.5	0.00e+00	0	44	0	908066816	46	4260
2026-01-16 01:58:48.94	13.37	25.50	-37.2	-38.9	21.4	0.00e+00	0	43	0	915406848	46	4265
2026-01-16 01:58:49.80	13.34	25.64	-37.3	-39.0	21.3	0.00e+00	0	44	0	919601152	46	4327
2026-01-16 01:58:50.93	13.31	25.82	-37.2	-39.0	21.3	0.00e+00	0	44	0	925892608	46	4318
2026-01-16 01:58:51.78	13.29	25.96	-37.2	-39.0	21.4	0.00e+00	0	44	0	931135488	46	4306
2026-01-16 01:58:52.98	13.25	26.16	-37.3	-39.1	21.2	0.00e+00	0	43	0	937426944	46	4346
2026-01-16 01:58:53.84	13.23	26.30	-37.2	-39.0	21.3	0.00e+00	0	44	0	942669824	46	4307
2026-01-16 01:58:54.98	13.19	26.49	-37.2	-39.0	21.3	0.00e+00	0	44	0	948961280	46	4314
2026-01-16 01:58:55.83	13.17	26.63	-37.2	-38.9	21.4	0.00e+00	0	43	0	954204160	46	4291
2026-01-16 01:58:56.97	13.13	26.83	-37.2	-38.9	21.4	0.00e+00	0	44	0	960495616	46	4263
2026-01-16 01:58:57.82	13.10	26.97	-37.2	-38.9	21.4	0.00e+00	0	44	0	964689920	46	4281
2026-01-16 01:58:58.96	13.07	27.16	-37.2	-38.9	21.4	0.00e+00	0	43	0	970981376	46	4277
2026-01-16 01:58:59.89	13.04	27.32	-37.2	-38.9	21.4	0.00e+00	0	44	0	976224256	46	4273
2026-01-16 01:59:00.88	13.00	27.50	-37.1	-38.8	21.5	0.00e+00	0	44	0	982515712	46	4234
2026-01-16 01:59:01.88	12.97	27.67	-37.1	-38.9	21.5	0.00e+00	0	44	0	987758592	46	4245
2026-01-16 01:59:02.87	12.94	27.84	-37.2	-39.0	21.4	0.00e+00	0	44	0	993001472	46	4299
2026-01-16 01:59:03.87	12.91	28.02	-37.2	-38.9	21.5	0.00e+00	0	43	0	999292928	46	4263
2026-01-16 01:59:04.87	12.87	28.20	-37.2	-38.9	21.4	0.00e+00	0	44	0	1004535808	46	4264
2026-01-16 01:59:05.86	12.84	28.37	-37.2	-39.0	21.4	0.00e+00	0	44	0	1009778688	46	4309
2026-01-16 01:59:06.85	12.80	28.55	-37.3	-39.0	21.4	0.00e+00	0	44	0	1016070144	46	4314
2026-01-16 01:59:07.85	12.77	28.73	-37.3	-39.0	21.4	0.00e+00	0	44	0	1021313024	46	4306
2026-01-16 01:59:08.84	12.73	28.91	-37.3	-39.1	21.3	0.00e+00	0	44	0	1026555904	46	4355
2026-01-16 01:59:09.93	12.69	29.11	-37.3	-39.0	21.3	0.00e+00	0	44	0	1032847360	46	4330
2026-01-16 01:59:10.82	12.66	29.28	-37.4	-39.1	21.2	0.00e+00	0	44	0	1038090240	46	4382
2026-01-16 01:59:11.95	12.62	29.48	-37.3	-39.0	21.4	0.00e+00	0	43	0	1044381696	46	4335
2026-01-16 01:59:12.81	12.58	29.65	-37.3	-39.1	21.3	0.00e+00	0	44	0	1049624576	46	4342
2026-01-16 01:59:13.94	12.54	29.86	-37.2	-39.0	21.4	0.00e+00	0	43	0	1055916032	46	4301
2026-01-16 01:59:14.79	12.51	30.02	-37.3	-39.1	21.3	0.00e+00	0	43	0	1060110336	46	4344
2026-01-16 01:59:15.93	12.46	30.24	-37.3	-39.0	21.3	0.00e+00	0	44	0	1066401792	46	4340
2026-01-16 01:59:16.78	12.43	30.40	-37.1	-38.9	21.5	0.00e+00	0	43	0	1071644672	46	4248
2026-01-16 01:59:17.92	12.38	30.62	-37.0	-38.8	21.6	0.00e+00	0	44	0	1077936128	46	4217
2026-01-16 01:59:18.77	12.35	30.78	-37.0	-38.8	21.6	0.00e+00	0	44	0	1083179008	46	4211
2026-01-16 01:59:19.91	12.30	31.01	-37.0	-38.8	21.6	0.00e+00	0	44	0	1089470464	46	4204
2026-01-16 01:59:20.76	12.27	31.17	-36.8	-38.6	21.8	0.00e+00	0	43	0	1093664768	45	4358
2026-01-16 01:59:21.90	12.22	31.40	-36.8	-38.5	21.8	0.00e+00	0	44	0	1099956224	45	4332
2026-01-16 01:59:22.75	12.18	31.57	-36.7	-38.4	21.9	0.00e+00	0	44	0	1105199104	45	4279
2026-01-16 01:59:23.89	12.13	31.80	-36.6	-38.3	22.0	0.00e+00	0	44	0	1111490560	45	4232
2026-01-16 01:59:24.74	12.09	31.97	-36.7	-38.4	21.9	0.00e+00	0	43	0	1116733440	45	4271
2026-01-16 01:59:25.87	12.04	32.20	-36.7	-38.4	22.0	0.00e+00	0	44	0	1123024896	45	4248
2026-01-16 01:59:26.73	12.00	32.38	-36.7	-38.4	22.0	0.00e+00	0	44	0	1127219200	45	4261
2026-01-16 01:59:27.86	11.95	32.61	-36.7	-38.4	21.9	0.00e+00	0	44	0	1133510656	45	4277
2026-01-16 01:59:28.72	11.91	32.79	-36.7	-38.3	22.0	0.00e+00	0	44	0	1138753536	45	4242
2026-01-16 01:59:29.85	11.86	33.02	-36.7	-38.4	22.0	0.00e+00	0	43	0	1145044992	45	4250
2026-01-16 01:59:30.71	11.82	33.20	-36.8	-38.5	21.9	0.00e+00	0	44	0	1150287872	45	4301
2026-01-16 01:59:31.84	11.76	33.44	-36.8	-38.5	21.8	0.00e+00	0	44	0	1156579328	45	4323
2026-01-16 01:59:32.70	11.72	33.63	-36.8	-38.5	21.8	0.00e+00	0	43	0	1160773632	45	4332
2026-01-16 01:59:33.83	11.66	33.87	-36.7	-38.4	21.9	0.00e+00	0	44	0	1167065088	45	4280
2026-01-16 01:59:34.69	11.62	34.06	-36.7	-38.4	21.9	0.00e+00	0	44	0	1172307968	45	4283
2026-01-16 01:59:35.82	11.56	34.30	-36.7	-38.4	21.9	0.00e+00	0	44	0	1178599424	45	4264
2026-01-16 01:59:36.68	11.52	34.49	-36.7	-38.4	22.0	0.00e+00	0	44	0	1183842304	45	4264
2026-01-16 01:59:37.82	11.46	34.74	-36.6	-38.2	22.1	0.00e+00	0	44	0	1190133760	45	4192
2026-01-16 01:59:38.67	11.41	34.93	-36.5	-38.2	22.1	0.00e+00	0	44	0	1195376640	45	4164
2026-01-16 01:59:39.96	11.34	35.22	-36.5	-38.2	22.1	0.00e+00	0	44	0	1201668096	45	4163
2026-01-16 01:59:40.67	11.30	35.38	-36.4	-38.1	22.2	0.00e+00	0	44	0	1205862400	44	4363
2026-01-16 01:59:42.16	11.22	35.72	-36.4	-38.1	22.2	0.00e+00	0	44	0	1214251008	44	4379
2026-01-16 01:59:42.87	11.18	35.88	-36.5	-38.2	22.1	0.00e+00	0	43	0	1218445312	44	4403
2026-01-16 01:59:44.15	11.10	36.18	-36.6	-38.3	22.1	0.00e+00	0	44	0	1225785344	44	4450
2026-01-16 01:59:44.88	11.06	36.35	-36.5	-38.1	22.2	0.00e+00	0	44	0	1229979648	44	4385
2026-01-16 01:59:46.25	10.98	36.67	-36.4	-38.1	22.2	0.00e+00	0	44	0	1237319680	44	4362
2026-01-16 01:59:46.96	10.93	36.84	-36.4	-38.1	22.2	0.00e+00	0	44	0	1241513984	44	4360
2026-01-16 01:59:48.24	10.86	37.14	-36.4	-38.1	22.2	0.00e+00	0	44	0	1248854016	44	4376
2026-01-16 01:59:48.98	10.81	37.32	-36.4	-38.1	22.2	0.00e+00	0	44	0	1253048320	44	4361
2026-01-16 01:59:50.26	10.73	37.63	-36.6	-38.3	22.1	0.00e+00	0	44	0	1259339776	44	4442
2026-01-16 01:59:50.98	10.68	37.80	-36.6	-38.3	22.1	0.00e+00	0	43	0	1263534080	44	4458
2026-01-16 01:59:52.26	10.60	38.11	-36.7	-38.4	22.0	0.00e+00	0	44	0	1270874112	44	4501
2026-01-16 01:59:53.00	10.55	38.29	-36.6	-38.3	22.0	0.00e+00	0	44	0	1275068416	44	4481
2026-01-16 01:59:54.27	10.46	38.61	-36.8	-38.5	21.9	0.00e+00	0	44	0	1282408448	44	4552
2026-01-16 01:59:54.98	10.41	38.79	-36.8	-38.5	21.9	0.00e+00	0	44	0	1286602752	44	4589
2026-01-16 01:59:56.26	10.32	39.11	-36.8	-38.5	21.9	0.00e+00	0	44	0	1293942784	44	4555
2026-01-16 01:59:56.98	10.27	39.29	-36.8	-38.4	21.9	0.00e+00	0	44	0	1298137088	44	4545
2026-01-16 01:59:58.26	10.18	39.62	-36.8	-38.5	21.9	0.00e+00	0	44	0	1304428544	44	4555
2026-01-16 01:59:59.08	10.12	39.83	-36.8	-38.5	21.9	0.00e+00	0	44	0	1309671424	44	4568
2026-01-16 02:00:00.51	10.01	40.20	-37.0	-38.7	21.7	0.00e+00	0	44	0	1317011456	44	4680
2026-01-16 02:00:01.22	9.96	40.38	-37.1	-38.9	21.6	0.00e+00	0	44	0	1321205760	44	4764
2026-01-16 02:00:02.50	9.86	40.72	-37.3	-39.1	21.4	0.00e+00	0	44	0	1328545792	45	4599
2026-01-16 02:00:03.23	9.80	40.91	-37.4	-39.1	21.3	0.00e+00	0	44	0	1332740096	45	4645
2026-01-16 02:00:04.76	9.68	41.32	-37.4	-39.1	21.3	0.00e+00	0	44	0	1341128704	45	4642
2026-01-16 02:00:05.47	9.62	41.51	-37.4	-39.1	21.3	0.00e+00	0	44	0	1345323008	45	4649
2026-01-16 02:00:06.75	9.51	41.86	-37.1	-38.9	21.5	0.00e+00	0	44	0	1352663040	45	4530
2026-01-16 02:00:07.46	9.45	42.06	-37.2	-38.9	21.5	0.00e+00	0	44	0	1356857344	45	4538
2026-01-16 02:00:08.74	9.34	42.41	-37.2	-39.0	21.5	0.00e+00	0	44	0	1364197376	45	4565
2026-01-16 02:00:09.45	9.28	42.60	-37.3	-39.0	21.4	0.00e+00	0	44	0	1367343104	45	4580
2026-01-16 02:00:10.73	9.16	42.96	-37.1	-38.9	21.5	0.00e+00	0	43	0	1374683136	45	4510
2026-01-16 02:00:11.47	9.09	43.17	-37.0	-38.8	21.6	0.00e+00	0	44	0	1378877440	45	4447
2026-01-16 02:00:12.75	8.97	43.53	-36.8	-38.5	21.9	0.00e+00	0	44	0	1386217472	45	4298
2026-01-16 02:00:13.51	8.90	43.75	-36.8	-38.5	21.9	0.00e+00	0	44	0	1390411776	45	4302
2026-01-16 02:00:14.79	8.78	44.12	-36.9	-38.6	21.8	0.00e+00	0	44	0	1397751808	45	4361
2026-01-16 02:00:15.51	8.71	44.32	-37.0	-38.6	21.8	0.00e+00	0	43	0	1401946112	45	4390
2026-01-16 02:00:16.79	8.58	44.70	-36.9	-38.6	21.7	0.00e+00	0	43	0	1409286144	45	4389
2026-01-16 02:00:17.61	8.49	44.94	-37.1	-38.8	21.7	0.00e+00	0	44	0	1413480448	45	4448
2026-01-16 02:00:18.75	8.37	45.27	-37.0	-38.8	21.7	0.00e+00	0	44	0	1419771904	45	4447
2026-01-16 02:00:19.79	8.26	45.58	-37.1	-38.8	21.7	0.00e+00	0	44	0	1426063360	45	4466
2026-01-16 02:00:20.92	8.14	45.92	-37.2	-38.9	21.5	0.00e+00	0	44	0	1432354816	45	4530
2026-01-16 02:00:21.78	8.04	46.18	-37.3	-39.0	21.5	0.00e+00	0	44	0	1437597696	45	4567
2026-01-16 02:00:22.91	7.92	46.53	-37.3	-39.0	21.5	0.00e+00	0	44	0	1443889152	45	4567
2026-01-16 02:00:23.76	7.82	46.79	-37.2	-38.9	21.6	0.00e+00	0	44	0	1448083456	45	4512
2026-01-16 02:00:24.90	7.68	47.14	-37.2	-38.9	21.5	0.00e+00	0	44	0	1454374912	45	4512
2026-01-16 02:00:25.75	7.58	47.40	-36.9	-38.6	21.8	0.00e+00	0	44	0	1459617792	45	4368
2026-01-16 02:00:26.89	7.44	47.76	-36.6	-38.3	22.1	0.00e+00	0	44	0	1465909248	45	4221
2026-01-16 02:00:27.74	7.33	48.03	-36.6	-38.3	22.1	0.00e+00	0	44	0	1471152128	45	4225
2026-01-16 02:00:28.88	7.19	48.39	-36.8	-38.5	21.9	0.00e+00	0	44	0	1477443584	45	4325
2026-01-16 02:00:29.73	7.08	48.66	-37.0	-38.7	21.7	0.00e+00	0	44	0	1481637888	45	4430
2026-01-16 02:00:30.87	6.92	49.03	-37.0	-38.8	21.7	0.00e+00	0	44	0	1488977920	45	4456
2026-01-16 02:00:31.72	6.81	49.30	-36.9	-38.6	21.8	0.00e+00	0	44	0	1493172224	45	4387
2026-01-16 02:00:32.98	6.63	49.71	-36.8	-38.5	21.9	0.00e+00	0	44	0	1500512256	45	4300
2026-01-16 02:00:33.80	6.51	49.98	-36.9	-38.6	21.9	0.00e+00	0	44	0	1504706560	45	4354
2026-01-16 02:00:35.03	6.33	50.39	-37.5	-39.3	21.2	0.00e+00	0	44	0	1512046592	45	4717
2026-01-16 02:00:35.88	6.21	50.67	-37.9	-39.7	20.8	0.00e+00	0	44	0	1516240896	46	4666
2026-01-16 02:00:37.10	6.02	51.08	-38.2	-40.0	20.5	0.00e+00	0	44	0	1523580928	47	4589
2026-01-16 02:00:37.95	5.89	51.37	-38.3	-40.2	20.0	0.00e+00	0	44	0	1527775232	47	4688
2026-01-16 02:00:39.09	5.70	51.75	-38.4	-40.3	20.0	0.00e+00	0	44	0	1535115264	47	4709
2026-01-16 02:00:39.94	5.56	52.04	-38.4	-40.3	20.0	0.00e+00	0	44	0	1539309568	47	4743
2026-01-16 02:00:41.08	5.37	52.43	-38.3	-40.1	20.2	0.00e+00	0	43	0	1545601024	47	4643
2026-01-16 02:00:41.95	5.22	52.74	-38.3	-40.1	20.2	0.00e+00	0	44	0	1550843904	47	4646
2026-01-16 02:00:43.09	5.02	53.13	-38.3	-40.2	20.1	0.00e+00	0	44	0	1557135360	47	4683
2026-01-16 02:00:44.02	4.85	53.46	-38.5	-40.4	19.9	0.00e+00	0	44	0	1562378240	47	4796
2026-01-16 02:00:45.01	4.67	53.81	-38.4	-40.3	19.9	0.00e+00	0	44	0	1567621120	47	4741
2026-01-16 02:00:46.01	4.48	54.16	-38.4	-40.3	19.9	0.00e+00	0	43	0	1573912576	47	4736
2026-01-16 02:00:47.00	4.29	54.51	-38.4	-40.3	20.0	0.00e+00	0	43	0	1579155456	47	4719
2026-01-16 02:00:48.00	4.09	54.87	-38.3	-40.2	20.1	0.00e+00	0	43	0	1584398336	47	4681
2026-01-16 02:00:49.00	3.88	55.23	-38.2	-40.1	20.2	0.00e+00	0	44	0	1590689792	47	4624
2026-01-16 02:00:49.99	3.67	55.59	-38.0	-39.9	20.4	0.00e+00	0	43	0	1595932672	47	4508
2026-01-16 02:00:50.99	3.46	55.96	-37.9	-39.7	20.5	0.00e+00	0	44	0	1601175552	47	4440
2026-01-16 02:00:51.98	3.24	56.32	-37.8	-39.7	20.5	0.00e+00	0	44	0	1607467008	47	4398
2026-01-16 02:00:52.97	3.01	56.69	-38.0	-39.9	20.3	0.00e+00	0	44	0	1612709888	47	4516
2026-01-16 02:00:54.01	2.77	57.07	-38.1	-40.0	20.2	0.00e+00	0	44	0	1617952768	47	4576
2026-01-16 02:00:54.95	2.54	57.42	-37.8	-39.6	20.5	0.00e+00	0	44	0	1624244224	47	4382
2026-01-16 02:00:55.94	2.29	57.80	-37.5	-39.3	20.9	0.00e+00	0	43	0	1629487104	47	4218
2026-01-16 02:00:56.93	2.04	58.17	-37.2	-39.0	21.1	0.00e+00	0	44	0	1634729984	46	4334
2026-01-16 02:00:57.93	1.78	58.55	-37.5	-39.4	20.8	0.00e+00	0	44	0	1641021440	46	4505
2026-01-16 02:00:58.92	1.51	58.92	-37.3	-39.1	21.1	0.00e+00	0	44	0	1646264320	46	4351
2026-01-16 02:00:59.92	1.24	59.31	-37.2	-39.0	21.2	0.00e+00	0	44	0	1651507200	46	4311
2026-01-16 02:01:00.91	0.95	59.69	-36.9	-38.6	21.5	0.00e+00	0	44	0	1656750080	45	4380
2026-01-16 02:01:01.91	0.66	60.07	-36.9	-38.6	21.5	0.00e+00	0	44	0	1663041536	45	4379
2026-01-16 02:01:02.90	0.36	60.46	-37.0	-38.7	21.4	0.00e+00	0	43	0	1668284416	45	4441
2026-01-16 02:01:03.90	0.04	60.84	-36.8	-38.5	21.6	0.00e+00	0	44	0	1674575872	45	4314
2026-01-16 02:01:04.89	359.72	61.23	-36.9	-38.6	21.5	0.00e+00	0	44	0	1679818752	45	4391
2026-01-16 02:01:05.89	359.39	61.62	-37.1	-38.9	21.3	0.00e+00	0	43	0	1685061632	45	4527
2026-01-16 02:01:06.96	359.02	62.04	-37.2	-39.0	21.2	0.00e+00	0	44	0	1691353088	45	4552
2026-01-16 02:01:07.85	358.71	62.40	-36.7	-38.4	21.7	0.00e+00	0	44	0	1696595968	45	4286
2026-01-16 02:01:08.98	358.29	62.84	-36.6	-38.4	21.7	0.00e+00	0	44	0	1702887424	45	4264
2026-01-16 02:01:09.84	357.96	63.19	-36.7	-38.5	21.6	0.00e+00	0	44	0	1707081728	45	4297
2026-01-16 02:01:10.97	357.52	63.64	-36.8	-38.6	21.4	0.00e+00	0	44	0	1714421760	45	4386
2026-01-16 02:01:11.83	357.17	63.98	-36.8	-38.6	21.5	0.00e+00	0	44	0	1718616064	45	4364
2026-01-16 02:01:12.96	356.69	64.43	-36.6	-38.4	21.7	0.00e+00	0	43	0	1724907520	45	4243
2026-01-16 02:01:13.81	356.32	64.77	-36.5	-38.3	21.8	0.00e+00	0	43	0	1730150400	45	4203
2026-01-16 02:01:14.95	355.81	65.23	-36.6	-38.4	21.6	0.00e+00	0	44	0	1736441856	45	4272
2026-01-16 02:01:15.81	355.40	65.58	-36.5	-38.3	21.7	0.00e+00	0	44	0	1740636160	45	4206
2026-01-16 02:01:16.95	354.85	66.04	-36.3	-38.1	21.9	0.00e+00	0	43	0	1747976192	44	4349
2026-01-16 02:01:17.80	354.42	66.38	-36.1	-37.9	22.2	0.00e+00	0	44	0	1752170496	44	4247
2026-01-16 02:01:18.94	353.82	66.84	-36.0	-37.8	22.3	0.00e+00	0	44	0	1758461952	44	4214
2026-01-16 02:01:19.79	353.36	67.19	-35.6	-37.3	22.5	0.00e+00	0	44	0	1763704832	43	4211
2026-01-16 02:01:21.00	352.67	67.68	-35.6	-37.3	22.5	0.00e+00	0	44	0	1769996288	43	4230
2026-01-16 02:01:21.86	352.16	68.02	-35.7	-37.4	22.4	0.00e+00	0	44	0	1775239168	43	4274
2026-01-16 02:01:22.99	351.47	68.48	-35.7	-37.4	22.3	0.00e+00	0	44	0	1781530624	43	4290
2026-01-16 02:01:23.85	350.92	68.83	-35.6	-37.3	22.5	0.00e+00	0	44	0	1786773504	43	4213
2026-01-16 02:01:24.98	350.16	69.28	-35.5	-37.2	22.5	0.00e+00	0	44	0	1793064960	43	4189
2026-01-16 02:01:25.83	349.57	69.62	-35.5	-37.2	22.5	0.00e+00	0	44	0	1797259264	42	4421
2026-01-16 02:01:26.97	348.74	70.08	-35.6	-37.4	22.4	0.00e+00	0	44	0	1803550720	42	4502
2026-01-16 02:01:27.83	348.09	70.42	-35.4	-37.1	22.6	0.00e+00	0	44	0	1808793600	42	4385
2026-01-16 02:01:28.97	347.19	70.87	-35.5	-37.2	22.6	0.00e+00	0	44	0	1815085056	42	4420
2026-01-16 02:01:29.82	346.49	71.21	-35.5	-37.2	22.6	0.00e+00	0	44	0	1820327936	42	4406
2026-01-16 02:01:30.95	345.51	71.65	-35.6	-37.4	22.5	0.00e+00	0	44	0	1826619392	42	4498
2026-01-16 02:01:31.81	344.73	71.99	-35.6	-37.3	22.5	0.00e+00	0	44	0	1830813696	42	4463
2026-01-16 02:01:32.95	343.65	72.43	-35.5	-37.3	22.5	0.00e+00	0	44	0	1837105152	42	4444
2026-01-16 02:01:33.80	342.81	72.75	-35.5	-37.3	22.5	0.00e+00	0	44	0	1842348032	42	4444
2026-01-16 02:01:34.98	341.58	73.20	-35.7	-37.4	22.3	0.00e+00	0	44	0	1848639488	42	4519
2026-01-16 02:01:35.84	340.65	73.52	-35.8	-37.5	22.2	0.00e+00	0	44	0	1853882368	42	4587
2026-01-16 02:01:36.98	339.34	73.95	-35.5	-37.2	22.5	0.00e+00	0	44	0	1860173824	42	4402
2026-01-16 02:01:37.83	338.32	74.26	-35.5	-37.3	22.5	0.00e+00	0	44	0	1865416704	42	4459
2026-01-16 02:01:38.96	336.90	74.66	-35.5	-37.2	22.5	0.00e+00	0	44	0	1871708160	42	4431
2026-01-16 02:01:39.82	335.77	74.96	-35.3	-37.0	22.6	0.00e+00	0	44	0	1875902464	42	4340
2026-01-16 02:01:40.96	334.19	75.36	-35.0	-36.7	22.9	0.00e+00	0	44	0	1882193920	42	4178
2026-01-16 02:01:41.81	332.95	75.64	-35.0	-36.8	22.9	0.00e+00	0	44	0	1887436800	42	4197
2026-01-16 02:01:42.94	331.22	76.02	-34.9	-36.6	23.0	0.00e+00	0	44	0	1893728256	41	4353
2026-01-16 02:01:43.80	329.85	76.29	-34.6	-36.3	23.2	0.00e+00	0	44	0	1898971136	41	4201
2026-01-16 02:01:44.93	327.95	76.64	-34.4	-36.0	23.4	0.00e+00	0	44	0	1905262592	40	4321
2026-01-16 02:01:45.79	326.44	76.90	-34.6	-36.2	23.2	0.00e+00	0	44	0	1909456896	40	4436
2026-01-16 02:01:46.92	324.36	77.22	-34.6	-36.3	23.2	0.00e+00	0	44	0	1915748352	40	4451
2026-01-16 02:01:47.78	322.70	77.46	-34.3	-36.0	23.5	0.00e+00	0	44	0	1920991232	40	4293
2026-01-16 02:01:48.92	320.41	77.75	-34.2	-35.8	23.6	0.00e+00	0	44	0	1927282688	40	4240
2026-01-16 02:01:49.77	318.63	77.96	-34.2	-35.9	23.5	0.00e+00	0	43	0	1932525568	40	4281
2026-01-16 02:01:50.91	316.14	78.22	-34.0	-35.7	23.7	0.00e+00	0	44	0	1938817024	40	4180
2026-01-16 02:01:51.76	314.21	78.40	-33.8	-35.5	24.0	0.00e+00	0	44	0	1943011328	39	4307
2026-01-16 02:01:53.03	311.22	78.65	-33.7	-35.4	24.0	0.00e+00	0	43	0	1950351360	39	4270
2026-01-16 02:01:53.84	309.24	78.79	-33.8	-35.5	23.9	0.00e+00	0	43	0	1955594240	39	4318
2026-01-16 02:01:54.98	306.38	78.96	-33.8	-35.5	23.9	0.00e+00	0	44	0	1961885696	39	4315
2026-01-16 02:01:55.83	304.19	79.07	-33.9	-35.6	23.8	0.00e+00	0	44	0	1966080000	39	4369
2026-01-16 02:01:56.97	301.18	79.20	-34.1	-35.8	23.8	0.00e+00	0	44	0	1972371456	39	4442
2026-01-16 02:01:57.82	298.90	79.27	-34.1	-35.8	23.7	0.00e+00	0	43	0	1977614336	39	4443
2026-01-16 02:01:58.96	295.80	79.34	-34.0	-35.6	23.8	0.00e+00	0	43	0	1983905792	39	4380
2026-01-16 02:01:59.82	293.43	79.38	-33.8	-35.5	23.9	0.00e+00	0	44	0	1988100096	39	4309
2026-01-16 02:02:00.95	290.31	79.39	-33.8	-35.5	23.9	0.00e+00	0	44	0	1995440128	39	4297
2026-01-16 02:02:01.80	287.96	79.39	-33.8	-35.5	23.9	0.00e+00	0	44	0	1999634432	39	4311
2026-01-16 02:02:02.94	284.82	79.35	-33.8	-35.5	23.9	0.00e+00	0	44	0	2005925888	39	4298
2026-01-16 02:02:03.79	282.49	79.30	-34.0	-35.7	23.7	0.00e+00	0	44	0	2011168768	39	4402
2026-01-16 02:02:04.98	279.29	79.20	-34.0	-35.7	23.7	0.00e+00	0	44	0	2017460224	39	4403
2026-01-16 02:02:05.83	277.04	79.11	-34.0	-35.7	23.7	0.00e+00	0	44	0	2022703104	39	4400
2026-01-16 02:02:06.97	274.08	78.97	-34.2	-35.9	23.6	0.00e+00	0	44	0	2028994560	39	4511
2026-01-16 02:02:07.82	271.93	78.84	-34.1	-35.7	23.7	0.00e+00	0	44	0	2034237440	39	4441
2026-01-16 02:02:09.08	268.85	78.63	-34.1	-35.7	23.7	0.00e+00	0	43	0	2040528896	39	4434
2026-01-16 02:02:09.88	266.95	78.48	-33.9	-35.6	23.8	0.00e+00	0	43	0	2045771776	39	4359
2026-01-16 02:02:11.02	264.34	78.24	-34.1	-35.7	23.8	0.00e+00	0	44	0	2052063232	39	4431
2026-01-16 02:02:11.88	262.44	78.05	-34.1	-35.8	23.6	0.00e+00	0	44	0	2056257536	39	4481
2026-01-16 02:02:13.01	260.05	77.78	-34.0	-35.7	23.7	0.00e+00	0	43	0	2062548992	39	4423
2026-01-16 02:02:13.87	258.30	77.55	-33.9	-35.6	23.8	0.00e+00	0	44	0	2067791872	39	4359
2026-01-16 02:02:15.01	256.08	77.25	-34.2	-35.8	23.7	0.00e+00	0	44	0	2074083328	39	4490
2026-01-16 02:02:15.86	254.50	77.00	-34.0	-35.7	23.8	0.00e+00	0	44	0	2079326208	39	4407
2026-01-16 02:02:16.99	252.49	76.67	-34.3	-35.9	23.6	0.00e+00	0	44	0	2085617664	39	4542
2026-01-16 02:02:17.84	251.05	76.41	-34.6	-36.3	23.3	0.00e+00	0	44	0	2089811968	39	4721
2026-01-16 02:02:18.98	249.20	76.05	-34.5	-36.1	23.4	0.00e+00	0	43	0	2096103424	39	4645
2026-01-16 02:02:19.83	247.89	75.77	-34.3	-36.0	23.5	0.00e+00	0	44	0	2101346304	39	4572
2026-01-16 02:02:20.97	246.21	75.38	-34.6	-36.2	23.3	0.00e+00	0	44	0	2107637760	39	4704
2026-01-16 02:02:21.82	245.02	75.09	-34.7	-36.4	23.1	0.00e+00	0	44	0	2112880640	40	4522
2026-01-16 02:02:23.01	243.43	74.67	-34.7	-36.4	23.3	0.00e+00	0	43	0	2119172096	40	4511
2026-01-16 02:02:23.86	242.35	74.37	-34.9	-36.6	23.1	0.00e+00	0	44	0	2123366400	40	4601
2026-01-16 02:02:25.08	240.87	73.92	-35.1	-36.8	22.9	0.00e+00	0	43	0	2130706432	40	4732
2026-01-16 02:02:25.93	239.90	73.61	-34.9	-36.6	23.1	0.00e+00	0	44	0	2135949312	40	4599
2026-01-16 02:02:27.11	238.60	73.17	-34.9	-36.6	23.1	0.00e+00	0	43	0	2142240768	40	4603
2026-01-16 02:02:27.96	237.71	72.84	-35.2	-36.9	22.8	0.00e+00	0	43	0	2146435072	40	4774
2026-01-16 02:02:29.10	236.58	72.41	-35.4	-37.1	22.6	0.00e+00	0	44	0	2153775104	41	4638
2026-01-16 02:02:29.95	235.77	72.08	-35.4	-37.1	22.5	0.00e+00	0	44	0	2157969408	41	4643
2026-01-16 02:02:31.09	234.73	71.63	-35.5	-37.2	22.5	0.00e+00	0	44	0	2164260864	41	4675
2026-01-16 02:02:32.02	233.92	71.27	-35.7	-37.4	22.4	0.00e+00	0	44	0	2169503744	42	4513
2026-01-16 02:02:33.02	233.09	70.87	-36.1	-37.9	22.0	0.00e+00	0	43	0	2175795200	42	4760
2026-01-16 02:02:34.01	232.30	70.48	-36.1	-37.9	21.9	0.00e+00	0	44	0	2181038080	43	4517
2026-01-16 02:02:35.01	231.54	70.08	-35.9	-37.6	22.3	0.00e+00	0	44	0	2186280960	43	4354
2026-01-16 02:02:36.00	230.82	69.68	-35.6	-37.3	22.6	0.00e+00	0	43	0	2192572416	43	4205
2026-01-16 02:02:37.00	230.12	69.28	-35.9	-37.6	22.3	0.00e+00	0	43	0	2197815296	43	4385
2026-01-16 02:02:37.99	229.46	68.88	-35.7	-37.4	22.4	0.00e+00	0	44	0	2203058176	43	4267
2026-01-16 02:02:38.98	228.82	68.48	-35.5	-37.2	22.6	0.00e+00	0	43	0	2209349632	42	4397
2026-01-16 02:02:39.98	228.20	68.08	-35.6	-37.3	22.5	0.00e+00	0	43	0	2214592512	42	4460
2026-01-16 02:02:40.97	227.61	67.68	-35.8	-37.6	22.2	0.00e+00	0	43	0	2219835392	42	4619
2026-01-16 02:02:41.97	227.04	67.27	-35.8	-37.6	22.3	0.00e+00	0	43	0	2226126848	42	4600
2026-01-16 02:02:42.96	226.50	66.87	-35.6	-37.3	22.5	0.00e+00	0	43	0	2231369728	42	4487
2026-01-16 02:02:43.96	225.97	66.47	-35.7	-37.4	22.4	0.00e+00	0	44	0	2236612608	42	4529
2026-01-16 02:02:44.95	225.46	66.06	-36.1	-37.8	22.1	0.00e+00	0	44	0	2242904064	42	4746
2026-01-16 02:02:45.95	224.97	65.66	-36.3	-38.1	21.9	0.00e+00	0	44	0	2248146944	43	4601
2026-01-16 02:02:46.94	224.51	65.26	-36.1	-37.8	22.1	0.00e+00	0	43	0	2253389824	43	4487
2026-01-16 02:02:47.93	224.05	64.86	-36.1	-37.8	22.1	0.00e+00	0	43	0	2259681280	43	4463
2026-01-16 02:02:48.93	223.61	64.46	-36.1	-37.8	22.2	0.00e+00	0	44	0	2264924160	43	4453
2026-01-16 02:02:49.92	223.19	64.06	-36.0	-37.8	22.1	0.00e+00	0	44	0	2270167040	43	4455
2026-01-16 02:02:50.91	222.79	63.66	-36.0	-37.7	22.2	0.00e+00	0	44	0	2276458496	43	4421
2026-01-16 02:02:51.91	222.39	63.26	-35.9	-37.6	22.2	0.00e+00	0	43	0	2281701376	43	4364
2026-01-16 02:02:52.91	222.01	62.86	-36.0	-37.7	22.1	0.00e+00	0	43	0	2286944256	43	4428
2026-01-16 02:02:53.90	221.64	62.47	-36.0	-37.7	22.2	0.00e+00	0	43	0	2293235712	43	4416
2026-01-16 02:02:54.90	221.28	62.07	-35.8	-37.5	22.4	0.00e+00	0	44	0	2298478592	43	4310
2026-01-16 02:02:55.89	220.94	61.68	-35.7	-37.4	22.5	0.00e+00	0	43	0	2303721472	43	4253
2026-01-16 02:02:56.93	220.59	61.27	-36.0	-37.7	22.2	0.00e+00	0	44	0	2310012928	43	4435
2026-01-16 02:02:57.96	220.25	60.87	-36.5	-38.2	21.7	0.00e+00	0	43	0	2315255808	43	4700
2026-01-16 02:02:58.96	219.94	60.48	-37.0	-38.8	21.4	0.00e+00	0	44	0	2321547264	44	4712
2026-01-16 02:02:59.95	219.64	60.10	-36.9	-38.7	21.5	0.00e+00	0	44	0	2326790144	44	4673
2026-01-16 02:03:00.95	219.34	59.71	-37.0	-38.7	21.5	0.00e+00	0	43	0	2332033024	44	4696
2026-01-16 02:03:01.94	219.06	59.33	-37.2	-39.0	21.3	0.00e+00	0	44	0	2338324480	45	4566
2026-01-16 02:03:02.94	218.78	58.94	-37.3	-39.1	21.1	0.00e+00	0	44	0	2343567360	45	4636
2026-01-16 02:03:03.93	218.51	58.56	-37.2	-39.0	21.2	0.00e+00	0	44	0	2349858816	45	4556
2026-01-16 02:03:04.93	218.25	58.18	-37.0	-38.8	21.4	0.00e+00	0	44	0	2355101696	45	4469
2026-01-16 02:03:05.92	217.99	57.81	-37.2	-39.0	21.2	0.00e+00	0	44	0	2360344576	45	4559
2026-01-16 02:03:06.92	217.74	57.43	-37.2	-39.0	21.2	0.00e+00	0	44	0	2365587456	45	4560
2026-01-16 02:03:07.91	217.50	57.06	-37.1	-38.9	21.3	0.00e+00	0	44	0	2371878912	45	4520
2026-01-16 02:03:08.91	217.27	56.69	-37.4	-39.1	21.0	0.00e+00	0	43	0	2377121792	45	4637
2026-01-16 02:03:09.90	217.04	56.32	-38.1	-40.0	20.3	0.00e+00	0	44	0	2382364672	46	4817
2026-01-16 02:03:10.90	216.82	55.96	-38.4	-40.3	19.9	0.00e+00	0	44	0	2388656128	47	4749
2026-01-16 02:03:11.90	216.60	55.59	-38.3	-40.2	20.1	0.00e+00	0	43	0	2393899008	47	4656
2026-01-16 02:03:12.89	216.39	55.23	-38.3	-40.1	20.1	0.00e+00	0	43	0	2400190464	47	4632
2026-01-16 02:03:13.89	216.18	54.87	-38.3	-40.2	20.1	0.00e+00	0	43	0	2405433344	47	4681
2026-01-16 02:03:14.94	215.97	54.49	-38.2	-40.1	20.2	0.00e+00	0	44	0	2411724800	47	4599
2026-01-16 02:03:15.83	215.80	54.17	-37.9	-39.7	20.5	0.00e+00	0	43	0	2415919104	47	4429
2026-01-16 02:03:16.97	215.58	53.76	-37.7	-39.4	20.8	0.00e+00	0	44	0	2422210560	47	4282
2026-01-16 02:03:17.82	215.42	53.46	-37.7	-39.4	20.8	0.00e+00	0	43	0	2427453440	47	4277
2026-01-16 02:03:18.95	215.22	53.07	-37.5	-39.3	21.0	0.00e+00	0	43	0	2433744896	46	4450
2026-01-16 02:03:19.81	215.07	52.76	-37.6	-39.5	20.8	0.00e+00	0	43	0	2438987776	46	4555
2026-01-16 02:03:20.94	214.87	52.37	-37.5	-39.3	20.9	0.00e+00	0	43	0	2445279232	46	4479
2026-01-16 02:03:21.80	214.72	52.08	-37.3	-39.1	21.1	0.00e+00	0	43	0	2449473536	46	4364
2026-01-16 02:03:22.93	214.54	51.69	-37.1	-38.9	21.3	0.00e+00	0	43	0	2455764992	46	4256
2026-01-16 02:03:23.78	214.40	51.40	-37.0	-38.8	21.3	0.00e+00	0	44	0	2461007872	46	4207
2026-01-16 02:03:24.92	214.22	51.01	-37.0	-38.7	21.4	0.00e+00	0	43	0	2467299328	45	4423
2026-01-16 02:03:25.78	214.09	50.72	-37.0	-38.8	21.4	0.00e+00	0	44	0	2472542208	45	4446
2026-01-16 02:03:26.99	213.90	50.32	-37.2	-39.0	21.2	0.00e+00	0	43	0	2478833664	45	4546
2026-01-16 02:03:27.84	213.78	50.04	-37.2	-39.0	21.2	0.00e+00	0	44	0	2484076544	45	4562
2026-01-16 02:03:28.98	213.62	49.66	-37.2	-39.0	21.1	0.00e+00	0	43	0	2490368000	45	4587
2026-01-16 02:03:29.83	213.50	49.38	-37.1	-38.8	21.3	0.00e+00	0	43	0	2494562304	45	4486
2026-01-16 02:03:31.10	213.32	48.97	-36.8	-38.5	21.6	0.00e+00	0	44	0	2501902336	45	4338
2026-01-16 02:03:31.90	213.21	48.71	-36.8	-38.5	21.6	0.00e+00	0	44	0	2506096640	45	4323
2026-01-16 02:03:33.04	213.06	48.34	-36.8	-38.5	21.5	0.00e+00	0	44	0	2513436672	45	4327
2026-01-16 02:03:33.89	212.95	48.07	-36.9	-38.6	21.4	0.00e+00	0	43	0	2517630976	45	4383
2026-01-16 02:03:35.02	212.81	47.72	-36.9	-38.7	21.4	0.00e+00	0	43	0	2523922432	45	4401
2026-01-16 02:03:35.88	212.70	47.45	-36.8	-38.6	21.4	0.00e+00	0	43	0	2529165312	45	4372
2026-01-16 02:03:37.02	212.57	47.09	-36.7	-38.5	21.5	0.00e+00	0	43	0	2535456768	45	4319
2026-01-16 02:03:37.87	212.46	46.83	-36.7	-38.4	21.6	0.00e+00	0	43	0	2540699648	45	4272
2026-01-16 02:03:39.01	212.33	46.48	-36.7	-38.4	21.6	0.00e+00	0	44	0	2546991104	45	4283
2026-01-16 02:03:39.86	212.23	46.22	-36.6	-38.4	21.6	0.00e+00	0	44	0	2551185408	45	4258
2026-01-16 02:03:41.00	212.11	45.87	-36.8	-38.6	21.4	0.00e+00	0	43	0	2557476864	45	4372
2026-01-16 02:03:41.85	212.01	45.61	-36.9	-38.7	21.4	0.00e+00	0	43	0	2562719744	45	4416
2026-01-16 02:03:42.99	211.89	45.27	-37.0	-38.8	21.2	0.00e+00	0	44	0	2569011200	45	4481
2026-01-16 02:03:43.84	211.80	45.02	-36.9	-38.7	21.4	0.00e+00	0	43	0	2574254080	45	4420
2026-01-16 02:03:45.02	211.68	44.67	-36.8	-38.5	21.5	0.00e+00	0	44	0	2580545536	45	4334
2026-01-16 02:03:45.88	211.59	44.42	-36.8	-38.5	21.5	0.00e+00	0	43	0	2585788416	45	4335
2026-01-16 02:03:47.01	211.48	44.09	-36.5	-38.3	21.7	0.00e+00	0	43	0	2591031296	45	4219
2026-01-16 02:03:47.87	211.39	43.84	-36.6	-38.4	21.6	0.00e+00	0	43	0	2596274176	45	4266
2026-01-16 02:03:49.11	211.27	43.48	-36.7	-38.5	21.6	0.00e+00	0	43	0	2603614208	45	4294
2026-01-16 02:03:49.96	211.19	43.24	-36.8	-38.6	21.4	0.00e+00	0	43	0	2607808512	45	4360
2026-01-16 02:03:51.10	211.09	42.92	-36.8	-38.6	21.4	0.00e+00	0	44	0	2614099968	45	4372
2026-01-16 02:03:51.95	211.01	42.68	-36.6	-38.5	21.5	0.00e+00	0	43	0	2619342848	45	4298
2026-01-16 02:03:53.09	210.91	42.36	-36.6	-38.4	21.6	0.00e+00	0	43	0	2625634304	45	4269
2026-01-16 02:03:53.94	210.84	42.13	-36.7	-38.4	21.6	0.00e+00	0	43	0	2630877184	45	4286
2026-01-16 02:03:55.08	210.74	41.82	-36.7	-38.5	21.5	0.00e+00	0	43	0	2637168640	45	4296
2026-01-16 02:03:56.01	210.66	41.56	-36.6	-38.3	21.6	0.00e+00	0	43	0	2642411520	45	4236
2026-01-16 02:03:57.01	210.58	41.29	-36.5	-38.2	21.7	0.00e+00	0	43	0	2647654400	45	4186
2026-01-16 02:03:58.01	210.49	41.02	-36.5	-38.3	21.7	0.00e+00	0	43	0	2652897280	44	4451
2026-01-16 02:03:59.00	210.41	40.76	-36.3	-38.1	21.8	0.00e+00	0	43	0	2659188736	44	4345
2026-01-16 02:03:59.99	210.34	40.49	-36.0	-37.8	22.1	0.00e+00	0	43	0	2664431616	44	4204
2026-01-16 02:04:00.99	210.26	40.23	-35.8	-37.5	22.1	0.00e+00	0	43	0	2670723072	43	4338
2026-01-16 02:04:01.98	210.18	39.97	-35.8	-37.6	22.2	0.00e+00	0	43	0	2675965952	43	4341
2026-01-16 02:04:02.98	210.11	39.71	-35.7	-37.5	22.2	0.00e+00	0	43	0	2681208832	43	4303
2026-01-16 02:04:03.97	210.03	39.46	-35.7	-37.5	22.2	0.00e+00	0	43	0	2687500288	43	4303
2026-01-16 02:04:04.96	209.96	39.21	-35.9	-37.6	22.1	0.00e+00	0	43	0	2692743168	43	4374
2026-01-16 02:04:06.01	209.89	38.94	-35.8	-37.6	22.1	0.00e+00	0	43	0	2697986048	43	4363
2026-01-16 02:04:06.97	209.82	38.70	-35.9	-37.7	22.0	0.00e+00	0	43	0	2704277504	43	4399
2026-01-16 02:04:07.96	209.75	38.45	-35.8	-37.6	22.1	0.00e+00	0	43	0	2709520384	43	4348
2026-01-16 02:04:08.96	209.68	38.20	-35.9	-37.7	22.0	0.00e+00	0	43	0	2714763264	43	4392
2026-01-16 02:04:09.95	209.62	37.96	-35.8	-37.6	22.1	0.00e+00	0	43	0	2721054720	43	4347
2026-01-16 02:04:10.95	209.55	37.71	-35.9	-37.7	22.0	0.00e+00	0	43	0	2726297600	43	4395
2026-01-16 02:04:11.94	209.48	37.47	-35.9	-37.6	22.1	0.00e+00	0	43	0	2731540480	43	4359
2026-01-16 02:04:12.94	209.42	37.23	-36.0	-37.8	21.9	0.00e+00	0	43	0	2737831936	43	4447
2026-01-16 02:04:13.93	209.36	36.99	-36.0	-37.7	21.9	0.00e+00	0	43	0	2743074816	43	4427
2026-01-16 02:04:14.92	209.30	36.75	-36.0	-37.7	21.9	0.00e+00	0	43	0	2748317696	43	4437
2026-01-16 02:04:15.92	209.24	36.52	-36.0	-37.7	21.9	0.00e+00	0	43	0	2754609152	43	4427
2026-01-16 02:04:16.91	209.18	36.28	-36.0	-37.7	22.0	0.00e+00	0	43	0	2759852032	43	4419
2026-01-16 02:04:17.91	209.12	36.05	-36.0	-37.7	22.0	0.00e+00	0	43	0	2765094912	43	4420
2026-01-16 02:04:18.94	209.06	35.81	-35.9	-37.7	22.0	0.00e+00	0	43	0	2771386368	43	4407
2026-01-16 02:04:19.98	209.00	35.57	-35.9	-37.6	22.0	0.00e+00	0	43	0	2777677824	43	4386
2026-01-16 02:04:20.97	208.94	35.35	-35.9	-37.6	22.0	0.00e+00	0	43	0	2782920704	43	4388
2026-01-16 02:04:21.96	208.88	35.12	-35.9	-37.7	22.0	0.00e+00	0	44	0	2788163584	43	4412
2026-01-16 02:04:22.96	208.83	34.90	-36.0	-37.8	21.9	0.00e+00	0	43	0	2793406464	43	4478
2026-01-16 02:04:23.95	208.78	34.68	-36.0	-37.8	21.9	0.00e+00	0	43	0	2799697920	43	4470
2026-01-16 02:04:24.95	208.72	34.45	-36.1	-37.9	21.8	0.00e+00	0	43	0	2804940800	43	4497
2026-01-16 02:04:25.94	208.67	34.24	-36.1	-37.9	21.8	0.00e+00	0	43	0	2810183680	43	4498
2026-01-16 02:04:26.94	208.62	34.02	-36.1	-37.9	21.8	0.00e+00	0	43	0	2816475136	43	4506
2026-01-16 02:04:27.93	208.57	33.80	-36.2	-37.9	21.7	0.00e+00	0	43	0	2821718016	43	4533
2026-01-16 02:04:28.93	208.52	33.59	-36.1	-37.9	21.8	0.00e+00	0	43	0	2828009472	43	4514
2026-01-16 02:04:29.93	208.47	33.37	-36.1	-37.9	21.8	0.00e+00	0	44	0	2833252352	43	4500
2026-01-16 02:04:30.92	208.42	33.16	-36.1	-37.8	21.8	0.00e+00	0	43	0	2838495232	43	4492
2026-01-16 02:04:31.93	208.37	32.95	-36.2	-37.9	21.7	0.00e+00	0	44	0	2844786688	43	4539
2026-01-16 02:04:32.99	208.32	32.72	-36.3	-38.1	21.6	0.00e+00	0	43	0	2850029568	43	4607
2026-01-16 02:04:33.87	208.28	32.54	-36.4	-38.1	21.5	0.00e+00	0	43	0	2855272448	43	4648
2026-01-16 02:04:35.01	208.22	32.30	-36.5	-38.3	21.4	0.00e+00	0	43	0	2861563904	43	4715
2026-01-16 02:04:35.86	208.18	32.13	-36.5	-38.3	21.4	0.00e+00	0	43	0	2866806784	43	4744
2026-01-16 02:04:37.00	208.13	31.90	-36.6	-38.4	21.3	0.00e+00	0	43	0	2873098240	43	4801
2026-01-16 02:04:37.85	208.09	31.72	-36.9	-38.7	21.1	0.00e+00	0	43	0	2877292544	44	4672
2026-01-16 02:04:38.99	208.04	31.49	-36.8	-38.7	21.2	0.00e+00	0	43	0	2883584000	44	4654
2026-01-16 02:04:39.84	208.01	31.32	-36.9	-38.7	21.2	0.00e+00	0	43	0	2888826880	44	4685
2026-01-16 02:04:40.97	207.96	31.10	-36.9	-38.7	21.1	0.00e+00	0	43	0	2895118336	44	4702
2026-01-16 02:04:41.82	207.92	30.93	-36.9	-38.7	21.2	0.00e+00	0	43	0	2900361216	44	4674
2026-01-16 02:04:43.04	207.87	30.69	-36.9	-38.7	21.2	0.00e+00	0	43	0	2906652672	44	4673
2026-01-16 02:04:43.89	207.83	30.52	-36.9	-38.7	21.2	0.00e+00	0	43	0	2911895552	44	4690
2026-01-16 02:04:45.11	207.78	30.29	-36.9	-38.7	21.2	0.00e+00	0	43	0	2918187008	44	4693
2026-01-16 02:04:45.96	207.75	30.12	-36.9	-38.7	21.2	0.00e+00	0	43	0	2923429888	44	4688
2026-01-16 02:04:47.10	207.70	29.91	-36.9	-38.7	21.2	0.00e+00	0	43	0	2929721344	44	4701
2026-01-16 02:04:47.96	207.67	29.74	-36.8	-38.5	21.3	0.00e+00	0	43	0	2933915648	44	4598
2026-01-16 02:04:49.09	207.63	29.53	-36.7	-38.5	21.4	0.00e+00	0	43	0	2941255680	44	4574
2026-01-16 02:04:50.02	207.59	29.36	-36.7	-38.5	21.4	0.00e+00	0	43	0	2946498560	44	4576
2026-01-16 02:04:51.02	207.55	29.17	-36.8	-38.6	21.3	0.00e+00	0	43	0	2951741440	44	4607
2026-01-16 02:04:52.01	207.52	28.99	-36.6	-38.4	21.5	0.00e+00	0	43	0	2956984320	44	4497
2026-01-16 02:04:53.01	207.48	28.80	-36.6	-38.4	21.5	0.00e+00	0	43	0	2963275776	44	4533
2026-01-16 02:04:54.00	207.44	28.62	-36.7	-38.4	21.5	0.00e+00	0	43	0	2968518656	44	4532
2026-01-16 02:04:55.00	207.41	28.44	-36.7	-38.4	21.5	0.00e+00	0	43	0	2973761536	44	4539
2026-01-16 02:04:55.99	207.37	28.26	-36.6	-38.4	21.5	0.00e+00	0	43	0	2980052992	44	4507
2026-01-16 02:04:56.98	207.34	28.08	-36.6	-38.4	21.5	0.00e+00	0	43	0	2985295872	44	4511
2026-01-16 02:04:57.98	207.30	27.91	-36.6	-38.4	21.5	0.00e+00	0	43	0	2990538752	44	4528
2026-01-16 02:04:58.97	207.27	27.73	-36.6	-38.4	21.5	0.00e+00	0	43	0	2996830208	44	4522
2026-01-16 02:04:59.97	207.23	27.56	-36.6	-38.4	21.5	0.00e+00	0	43	0	3002073088	44	4515
2026-01-16 02:05:00.99	207.20	27.38	-36.7	-38.5	21.5	0.00e+00	0	43	0	3007315968	44	4546
2026-01-16 02:05:01.99	207.17	27.20	-36.8	-38.6	21.3	0.00e+00	0	43	0	3013607424	44	4631
2026-01-16 02:05:02.98	207.13	27.03	-36.8	-38.6	21.3	0.00e+00	0	43	0	3018850304	44	4650
2026-01-16 02:05:03.98	207.10	26.86	-36.8	-38.6	21.3	0.00e+00	0	43	0	3025141760	44	4626
2026-01-16 02:05:04.97	207.07	26.69	-36.8	-38.7	21.3	0.00e+00	0	43	0	3030384640	44	4654
2026-01-16 02:05:05.97	207.04	26.52	-36.9	-38.8	21.2	0.00e+00	0	43	0	3035627520	44	4722
2026-01-16 02:05:06.96	207.01	26.36	-36.8	-38.7	21.3	0.00e+00	0	43	0	3040870400	44	4652
2026-01-16 02:05:07.96	206.98	26.19	-36.8	-38.7	21.2	0.00e+00	0	43	0	3047161856	44	4653
2026-01-16 02:05:08.95	206.95	26.02	-36.8	-38.6	21.3	0.00e+00	0	43	0	3052404736	44	4638
2026-01-16 02:05:09.94	206.92	25.86	-36.8	-38.6	21.2	0.00e+00	0	43	0	3057647616	44	4651
2026-01-16 02:05:10.94	206.89	25.70	-36.8	-38.6	21.3	0.00e+00	0	43	0	3063939072	44	4615
2026-01-16 02:05:11.93	206.86	25.54	-36.8	-38.6	21.3	0.00e+00	0	43	0	3069181952	44	4608
2026-01-16 02:05:12.93	206.83	25.37	-36.8	-38.5	21.3	0.00e+00	0	43	0	3075473408	44	4587
2026-01-16 02:05:13.92	206.80	25.21	-36.8	-38.6	21.3	0.00e+00	0	43	0	3080716288	44	4599
2026-01-16 02:05:14.97	206.77	25.05	-36.8	-38.6	21.3	0.00e+00	0	43	0	3085959168	44	4618
2026-01-16 02:05:15.94	206.74	24.89	-36.9	-38.6	21.3	0.00e+00	0	43	0	3092250624	44	4645
2026-01-16 02:05:16.94	206.71	24.73	-36.8	-38.6	21.3	0.00e+00	0	43	0	3097493504	44	4626
2026-01-16 02:05:17.93	206.69	24.58	-36.9	-38.7	21.2	0.00e+00	0	43	0	3102736384	44	4658
2026-01-16 02:05:18.93	206.66	24.42	-37.0	-38.8	21.1	0.00e+00	0	43	0	3109027840	44	4715
2026-01-16 02:05:19.92	206.63	24.27	-37.0	-38.8	21.1	0.00e+00	0	43	0	3114270720	44	4741
2026-01-16 02:05:20.92	206.61	24.11	-37.1	-38.8	21.1	0.00e+00	0	43	0	3119513600	44	4757
2026-01-16 02:05:21.92	206.58	23.96	-37.1	-38.9	20.9	0.00e+00	0	43	0	3125805056	45	4541
2026-01-16 02:05:22.91	206.55	23.81	-37.2	-39.0	20.9	0.00e+00	0	43	0	3131047936	45	4564
2026-01-16 02:05:23.90	206.53	23.66	-37.3	-39.1	20.8	0.00e+00	0	43	0	3136290816	45	4613
2026-01-16 02:05:24.90	206.50	23.50	-37.4	-39.2	20.8	0.00e+00	0	43	0	3142582272	45	4672
2026-01-16 02:05:25.89	206.48	23.36	-37.4	-39.2	20.7	0.00e+00	0	43	0	3147825152	45	4705
2026-01-16 02:05:26.89	206.45	23.21	-37.4	-39.3	20.6	0.00e+00	0	43	0	3153068032	45	4727
2026-01-16 02:05:27.89	206.43	23.06	-37.5	-39.4	20.5	0.00e+00	0	43	0	3159359488	45	4793
2026-01-16 02:05:28.94	206.40	22.90	-37.6	-39.4	20.5	0.00e+00	0	43	0	3164602368	45	4799
2026-01-16 02:05:29.84	206.38	22.77	-37.6	-39.4	20.5	0.00e+00	0	43	0	3169845248	45	4799
2026-01-16 02:05:30.86	206.36	22.62	-37.7	-39.5	20.4	0.00e+00	0	43	0	3176136704	45	4861
2026-01-16 02:05:31.85	206.33	22.48	-37.8	-39.6	20.3	0.00e+00	0	43	0	3181379584	46	4643
2026-01-16 02:05:32.85	206.31	22.33	-37.6	-39.5	20.5	0.00e+00	0	43	0	3186622464	46	4565
2026-01-16 02:05:33.84	206.28	22.19	-37.6	-39.5	20.5	0.00e+00	0	43	0	3192913920	46	4567
2026-01-16 02:05:34.84	206.26	22.05	-37.7	-39.5	20.4	0.00e+00	0	43	0	3198156800	46	4594
2026-01-16 02:05:35.83	206.24	21.91	-37.6	-39.5	20.4	0.00e+00	0	43	0	3203399680	46	4568
2026-01-16 02:05:36.82	206.22	21.77	-37.6	-39.5	20.5	0.00e+00	0	43	0	3209691136	46	4547
2026-01-16 02:05:37.82	206.19	21.63	-37.6	-39.5	20.5	0.00e+00	0	43	0	3214934016	46	4565
2026-01-16 02:05:38.81	206.17	21.49	-37.7	-39.6	20.4	0.00e+00	0	43	0	3220176896	46	4602
2026-01-16 02:05:39.81	206.15	21.35	-37.6	-39.5	20.5	0.00e+00	0	43	0	3226468352	46	4555
2026-01-16 02:05:40.81	206.13	21.21	-37.6	-39.4	20.5	0.00e+00	0	43	0	3231711232	46	4544
2026-01-16 02:05:41.80	206.11	21.08	-37.6	-39.4	20.5	0.00e+00	0	43	0	3236954112	46	4533
2026-01-16 02:05:42.79	206.09	20.94	-37.6	-39.5	20.5	0.00e+00	0	43	0	3243245568	46	4556
2026-01-16 02:05:43.79	206.07	20.80	-37.6	-39.4	20.5	0.00e+00	0	43	0	3248488448	46	4544
2026-01-16 02:05:44.79	206.04	20.67	-37.6	-39.5	20.5	0.00e+00	0	43	0	3253731328	46	4572
2026-01-16 02:05:45.78	206.02	20.54	-37.7	-39.5	20.4	0.00e+00	0	43	0	3260022784	46	4593
2026-01-16 02:05:46.78	206.00	20.40	-37.7	-39.5	20.5	0.00e+00	0	43	0	3265265664	46	4568
2026-01-16 02:05:47.96	205.98	20.24	-37.7	-39.6	20.4	0.00e+00	0	43	0	3271557120	46	4610
2026-01-16 02:05:48.84	205.96	20.13	-37.7	-39.6	20.4	0.00e+00	0	43	0	3276800000	46	4600
2026-01-16 02:05:50.14	205.94	19.96	-37.8	-39.6	20.4	0.00e+00	0	43	0	3284140032	46	4631
2026-01-16 02:05:50.85	205.92	19.86	-37.9	-39.7	20.3	0.00e+00	0	43	0	3288334336	46	4685
2026-01-16 02:05:52.13	205.90	19.70	-37.9	-39.7	20.3	0.00e+00	0	43	0	3295674368	46	4693
2026-01-16 02:05:52.86	205.88	19.60	-37.9	-39.7	20.3	0.00e+00	0	43	0	3299868672	46	4694
2026-01-16 02:05:54.14	205.86	19.44	-37.8	-39.6	20.3	0.00e+00	0	43	0	3307208704	46	4641
2026-01-16 02:05:54.89	205.84	19.34	-37.8	-39.6	20.3	0.00e+00	0	43	0	3311403008	46	4651
2026-01-16 02:05:56.17	205.82	19.18	-37.8	-39.7	20.3	0.00e+00	0	43	0	3318743040	46	4664
2026-01-16 02:05:56.95	205.81	19.08	-37.9	-39.7	20.3	0.00e+00	0	43	0	3322937344	46	4690
2026-01-16 02:05:58.23	205.78	18.92	-38.0	-39.8	20.2	0.00e+00	0	43	0	3330277376	46	4753
2026-01-16 02:05:58.98	205.77	18.82	-37.9	-39.8	20.2	0.00e+00	0	43	0	3334471680	46	4715
2026-01-16 02:06:00.26	205.75	18.66	-37.9	-39.7	20.2	0.00e+00	0	43	0	3340763136	46	4704
2026-01-16 02:06:01.04	205.73	18.57	-37.9	-39.7	20.2	0.00e+00	0	43	0	3346006016	46	4693
2026-01-16 02:06:02.32	205.71	18.41	-37.9	-39.8	20.2	0.00e+00	0	43	0	3352297472	46	4712
2026-01-16 02:06:03.07	205.70	18.32	-38.0	-39.9	20.1	0.00e+00	0	43	0	3357540352	46	4760
2026-01-16 02:06:04.69	205.67	18.12	-38.0	-39.9	20.1	0.00e+00	0	43	0	3365928960	46	4761
2026-01-16 02:06:05.27	205.66	18.05	-38.0	-39.8	20.2	0.00e+00	0	43	0	3369074688	46	4743
2026-01-16 02:06:07.04	205.63	17.83	-38.0	-39.9	20.1	0.00e+00	0	43	0	3379560448	46	4787
2026-01-16 02:06:07.61	205.62	17.77	-38.1	-39.9	20.0	0.00e+00	0	43	0	3382706176	46	4809
2026-01-16 02:06:09.31	205.59	17.56	-38.1	-39.9	20.1	0.00e+00	0	43	0	3392143360	46	4795
2026-01-16 02:06:09.88	205.58	17.49	-38.1	-39.9	20.1	0.00e+00	0	43	0	3395289088	46	4802
2026-01-16 02:06:11.59	205.55	17.29	-38.1	-39.9	20.0	0.00e+00	0	43	0	3404726272	46	4805
2026-01-16 02:06:12.16	205.54	17.23	-38.1	-40.0	20.0	0.00e+00	0	43	0	3407872000	46	4818
2026-01-16 02:06:13.85	205.52	17.03	-38.2	-40.0	20.0	0.00e+00	0	43	0	3417309184	47	4585
2026-01-16 02:06:14.41	205.51	16.96	-38.1	-40.0	20.0	0.00e+00	0	43	0	3420454912	47	4578
2026-01-16 02:06:16.12	205.48	16.76	-38.3	-40.2	19.8	0.00e+00	0	43	0	3430940672	47	4657
2026-01-16 02:06:16.69	205.47	16.70	-38.3	-40.1	19.9	0.00e+00	0	43	0	3434086400	47	4640
2026-01-16 02:06:18.46	205.45	16.50	-38.3	-40.2	19.8	0.00e+00	0	43	0	3443523584	47	4677
2026-01-16 02:06:19.03	205.44	16.43	-38.4	-40.3	19.7	0.00e+00	0	43	0	3446669312	47	4711
2026-01-16 02:06:20.73	205.41	16.24	-38.5	-40.4	19.6	0.00e+00	0	43	0	3456106496	47	4810
2026-01-16 02:06:21.30	205.40	16.17	-38.5	-40.4	19.5	0.00e+00	0	43	0	3459252224	47	4795
2026-01-16 02:06:23.07	205.38	15.98	-38.7	-40.6	19.6	0.00e+00	0	43	0	3469737984	48	4646
2026-01-16 02:06:23.98	205.36	15.88	-38.7	-40.6	19.7	0.00e+00	0	43	0	3474980864	48	4605
2026-01-16 02:06:24.98	205.35	15.76	-38.7	-40.6	19.6	0.00e+00	0	43	0	3480223744	48	4625
2026-01-16 02:06:25.97	205.34	15.66	-38.8	-40.7	19.5	0.00e+00	0	43	0	3485466624	48	4675
2026-01-16 02:06:26.97	205.32	15.55	-38.8	-40.7	19.5	0.00e+00	0	43	0	3491758080	48	4687
2026-01-16 02:06:27.96	205.31	15.44	-38.8	-40.7	19.5	0.00e+00	0	43	0	3497000960	48	4695
2026-01-16 02:06:28.96	205.29	15.33	-38.9	-40.8	19.4	0.00e+00	0	43	0	3502243840	48	4750
2026-01-16 02:06:29.95	205.28	15.22	-38.9	-40.9	19.4	0.00e+00	0	43	0	3508535296	48	4770
2026-01-16 02:06:30.95	205.27	15.11	-38.9	-40.9	19.3	0.00e+00	0	43	0	3513778176	48	4777
2026-01-16 02:06:31.94	205.25	15.01	-39.1	-41.0	19.2	0.00e+00	0	43	0	3519021056	48	4841
2026-01-16 02:06:32.94	205.24	14.90	-39.1	-41.0	19.2	0.00e+00	0	43	0	3525312512	48	4870
2026-01-16 02:06:33.93	205.23	14.79	-39.1	-41.0	19.2	0.00e+00	0	43	0	3530555392	48	4863
2026-01-16 02:06:34.93	205.21	14.69	-39.2	-41.1	19.1	0.00e+00	0	43	0	3535798272	49	4637
2026-01-16 02:06:35.92	205.20	14.58	-39.2	-41.2	19.1	0.00e+00	0	43	0	3542089728	49	4660
2026-01-16 02:06:36.91	205.19	14.48	-39.1	-41.1	19.1	0.00e+00	0	43	0	3547332608	49	4628
2026-01-16 02:06:37.91	205.18	14.37	-39.2	-41.1	19.1	0.00e+00	0	43	0	3552575488	49	4650
2026-01-16 02:06:38.90	205.16	14.27	-39.2	-41.2	19.0	0.00e+00	0	43	0	3558866944	49	4684
2026-01-16 02:06:39.90	205.15	14.17	-39.3	-41.3	18.9	0.00e+00	0	43	0	3564109824	49	4718
2026-01-16 02:06:40.90	205.14	14.06	-39.3	-41.3	18.9	0.00e+00	0	43	0	3569352704	49	4735
2026-01-16 02:06:41.89	205.13	13.96	-39.3	-41.3	18.9	0.00e+00	0	43	0	3575644160	49	4738
2026-01-16 02:06:42.95	205.11	13.85	-39.4	-41.3	18.8	0.00e+00	0	43	0	3580887040	49	4755
2026-01-16 02:06:43.85	205.10	13.76	-39.4	-41.3	18.8	0.00e+00	0	43	0	3586129920	49	4753
2026-01-16 02:06:44.88	205.09	13.66	-39.4	-41.4	18.8	0.00e+00	0	43	0	3592421376	49	4810
2026-01-16 02:06:45.87	205.08	13.56	-39.4	-41.4	18.7	0.00e+00	0	43	0	3597664256	49	4809
2026-01-16 02:06:46.87	205.07	13.46	-39.5	-41.4	18.7	0.00e+00	0	43	0	3603955712	49	4813
2026-01-16 02:06:47.86	205.05	13.36	-39.5	-41.5	18.7	0.00e+00	0	43	0	3609198592	49	4870
2026-01-16 02:06:48.86	205.04	13.26	-39.5	-41.5	18.7	0.00e+00	0	43	0	3614441472	49	4842
2026-01-16 02:06:49.85	205.03	13.16	-39.5	-41.5	18.7	0.00e+00	0	43	0	3619684352	49	4836
2026-01-16 02:06:50.85	205.02	13.06	-39.6	-41.6	18.6	0.00e+00	0	43	0	3625975808	49	4875
2026-01-16 02:06:51.84	205.01	12.96	-39.5	-41.5	18.6	0.00e+00	0	43	0	3631218688	49	4869
2026-01-16 02:06:52.84	205.00	12.86	-39.5	-41.6	18.6	0.00e+00	0	43	0	3636461568	49	4874
2026-01-16 02:06:53.83	204.99	12.77	-39.6	-41.6	18.6	0.00e+00	0	43	0	3642753024	49	4872
2026-01-16 02:06:54.82	204.97	12.67	-39.7	-41.7	18.5	0.00e+00	0	43	0	3647995904	49	4938
2026-01-16 02:06:55.82	204.96	12.57	-39.7	-41.7	18.5	0.00e+00	0	43	0	3653238784	49	4953
2026-01-16 02:06:56.86	204.95	12.47	-39.7	-41.7	18.5	0.00e+00	0	43	0	3659530240	50	4667
2026-01-16 02:06:57.88	204.94	12.37	-39.7	-41.7	18.5	0.00e+00	0	43	0	3665821696	50	4677
2026-01-16 02:06:58.91	204.93	12.27	-39.7	-41.7	18.5	0.00e+00	0	43	0	3671064576	50	4694
2026-01-16 02:06:59.92	204.92	12.18	-39.7	-41.8	18.4	0.00e+00	0	43	0	3677356032	50	4712
2026-01-16 02:07:00.92	204.91	12.08	-39.8	-41.8	18.4	0.00e+00	0	43	0	3682598912	50	4714
2026-01-16 02:07:01.94	204.90	11.98	-39.8	-41.8	18.4	0.00e+00	0	43	0	3687841792	50	4717
2026-01-16 02:07:02.97	204.89	11.89	-39.9	-41.9	18.3	0.00e+00	0	43	0	3694133248	50	4778
