passes_logs/2026/01/16/T1/T1__20260116_101734_NOAA_21_JPSS-2_rec.log

#Pass ID: 20260116_101734_NOAA 21 (JPSS-2)
#Satellite: NOAA 21 (JPSS-2)
#Configuration: NOAA 21
#almurnet v.1.7.20251203
#Start time: 2026-01-16 10:17:35

#Version: 2.0.20230620
#Station: T1
#Location: 37.570604 lon 55.790049 lat
#TLE: 1 54234U 22150A   26015.92901934  .00000025  00000+0  32700-4 0  9991
#TLE: 2 54234  98.7499 316.8175 0000634 284.8145  75.2961 14.19534841164946

#Time	Az	El	Level	Level2	SNR	BER	BlckErr	Temp	State	Recorded	gain1	gain2
2026-01-16 10:17:35.42	171.80	5.06	-48.4	-63.3	3.8	1.49e+00	0	40	0	0	68	20050
2026-01-16 10:17:36.41	171.82	5.13	-47.0	-63.1	3.8	1.49e+00	0	40	104	0	64	24520
2026-01-16 10:17:37.41	171.84	5.20	-47.0	-63.1	3.8	1.49e+00	0	40	104	0	64	24557
2026-01-16 10:17:38.40	171.86	5.28	-47.0	-63.1	3.8	1.49e+00	0	40	104	0	64	24472
2026-01-16 10:17:39.40	171.89	5.35	-47.1	-63.0	3.8	1.49e+00	0	40	104	0	64	24394
2026-01-16 10:17:40.39	171.91	5.42	-47.1	-63.0	3.8	1.49e+00	0	40	104	0	64	24354
2026-01-16 10:17:41.39	171.93	5.49	-47.0	-63.0	3.8	1.49e+00	0	40	104	0	64	24197
2026-01-16 10:17:42.38	171.95	5.56	-47.0	-63.0	3.8	1.49e+00	0	40	104	0	64	24173
2026-01-16 10:17:43.38	171.98	5.64	-47.0	-62.9	3.8	1.49e+00	0	40	104	0	64	24020
2026-01-16 10:17:44.37	172.00	5.71	-47.0	-62.9	3.8	1.49e+00	0	40	104	0	64	23873
2026-01-16 10:17:45.37	172.02	5.78	-47.0	-62.8	3.8	1.49e+00	0	40	104	0	64	23597
2026-01-16 10:17:46.36	172.04	5.85	-47.0	-62.7	3.8	1.49e+00	0	40	104	0	64	23433
2026-01-16 10:17:47.36	172.07	5.93	-46.9	-62.6	3.8	1.49e+00	0	40	104	0	64	23083
2026-01-16 10:17:48.36	172.09	6.00	-47.0	-62.5	3.8	1.49e+00	0	40	104	0	64	22877
2026-01-16 10:17:49.35	172.11	6.07	-47.0	-62.4	3.8	1.49e+00	0	40	104	0	64	22576
2026-01-16 10:17:50.35	172.13	6.15	-46.9	-62.3	3.8	1.49e+00	0	40	104	0	64	22433
2026-01-16 10:17:51.34	172.16	6.22	-47.0	-62.3	3.8	1.49e+00	0	40	104	0	64	22329
2026-01-16 10:17:52.34	172.18	6.30	-47.0	-62.4	3.8	1.49e+00	0	40	104	0	64	22634
2026-01-16 10:17:53.34	172.21	6.37	-47.0	-62.5	3.8	1.49e+00	0	40	104	0	64	22929
2026-01-16 10:17:54.33	172.23	6.44	-46.9	-62.7	3.8	1.49e+00	0	40	104	0	64	23418
2026-01-16 10:17:55.33	172.25	6.52	-47.0	-62.9	3.8	1.49e+00	0	41	104	0	64	23902
2026-01-16 10:17:56.33	172.28	6.60	-47.0	-63.0	3.8	1.49e+00	0	41	104	0	64	24257
2026-01-16 10:17:57.32	172.30	6.67	-46.9	-63.0	3.8	1.49e+00	0	40	104	0	64	24329
2026-01-16 10:17:58.32	172.32	6.75	-46.9	-62.9	3.8	1.49e+00	0	40	104	0	64	24037
2026-01-16 10:17:59.32	172.35	6.82	-47.0	-62.7	3.8	1.49e+00	0	41	104	0	64	23368
2026-01-16 10:18:00.31	172.37	6.90	-47.0	-62.4	3.8	1.49e+00	0	41	104	0	64	22662
2026-01-16 10:18:01.31	172.40	6.97	-47.0	-62.2	3.8	1.49e+00	0	41	104	0	64	22013
2026-01-16 10:18:02.30	172.42	7.05	-46.9	-61.7	3.8	1.49e+00	0	41	104	0	64	20973
2026-01-16 10:18:03.30	172.45	7.13	-46.9	-61.4	3.8	1.49e+00	0	41	104	0	64	20289
2026-01-16 10:18:04.30	172.47	7.20	-46.9	-60.7	3.9	1.49e+00	0	41	104	0	64	18609
2026-01-16 10:18:05.29	172.50	7.28	-46.8	-59.9	4.1	1.48e+00	0	41	104	0	64	16899
2026-01-16 10:18:06.29	172.52	7.36	-46.8	-59.0	4.1	1.46e+00	0	41	104	0	64	15294
2026-01-16 10:18:07.28	172.55	7.44	-46.7	-57.7	4.9	1.15e+00	0	41	0	0	64	13218
2026-01-16 10:18:08.28	172.57	7.51	-46.5	-56.3	5.7	5.03e-01	0	41	0	0	64	11240
2026-01-16 10:18:09.28	172.60	7.59	-46.2	-54.7	7.0	2.16e-01	0	41	0	0	64	9377
2026-01-16 10:18:10.27	172.62	7.67	-46.0	-53.4	8.3	6.37e-02	0	41	0	0	63	8549
2026-01-16 10:18:11.27	172.65	7.75	-45.8	-52.3	9.4	2.35e-02	0	41	0	0	63	7531
2026-01-16 10:18:12.26	172.67	7.83	-45.3	-51.2	10.6	5.92e-03	0	41	0	0	62	6981
2026-01-16 10:18:13.26	172.70	7.91	-44.9	-50.1	11.8	8.38e-04	0	41	0	0	61	6509
2026-01-16 10:18:14.25	172.72	7.98	-44.6	-49.2	12.6	1.53e-04	0	41	0	0	61	5919
2026-01-16 10:18:15.25	172.75	8.06	-44.3	-48.7	13.2	3.12e-05	0	41	0	0	60	5865
2026-01-16 10:18:16.24	172.78	8.14	-44.1	-48.4	13.4	1.37e-05	0	41	0	0	60	5710
2026-01-16 10:18:17.24	172.80	8.22	-44.0	-47.9	14.0	4.50e-06	0	41	0	0	59	5662
2026-01-16 10:18:18.23	172.83	8.30	-44.0	-48.0	13.8	3.80e-06	0	41	0	0	59	5748
2026-01-16 10:18:19.23	172.86	8.38	-44.1	-48.0	13.8	6.80e-06	0	41	0	0	59	5753
2026-01-16 10:18:20.22	172.88	8.46	-44.4	-48.6	13.2	2.21e-05	0	41	0	0	59	6169
2026-01-16 10:18:21.22	172.91	8.55	-44.6	-49.1	12.7	4.19e-05	0	41	0	0	59	6528
2026-01-16 10:18:22.21	172.94	8.63	-44.8	-49.9	12.0	2.31e-04	0	41	0	0	60	6786
2026-01-16 10:18:23.21	172.96	8.71	-45.2	-50.8	11.0	1.44e-03	0	42	0	0	61	7064
2026-01-16 10:18:24.20	172.99	8.79	-45.8	-52.4	9.4	1.08e-02	0	41	0	0	62	7993
2026-01-16 10:18:25.20	173.02	8.87	-46.1	-53.8	7.9	5.65e-02	0	41	0	0	62	9485
2026-01-16 10:18:26.20	173.04	8.95	-46.5	-55.8	6.1	1.96e-01	0	41	0	0	63	11279
2026-01-16 10:18:27.19	173.07	9.04	-46.7	-57.5	4.9	6.09e-01	0	41	0	0	64	12932
2026-01-16 10:18:28.19	173.10	9.12	-46.4	-55.6	6.2	3.60e-01	0	41	0	0	64	10303
2026-01-16 10:18:29.19	173.13	9.20	-45.1	-50.7	11.3	1.55e-04	0	41	0	0	61	6971
2026-01-16 10:18:30.19	173.16	9.29	-47.1	-61.8	3.8	1.49e+00	0	42	104	0	65	19978
2026-01-16 10:18:31.20	173.19	9.37	-46.2	-54.2	7.4	2.54e-01	0	41	0	0	64	8862
2026-01-16 10:18:32.20	173.21	9.46	-42.7	-45.5	16.3	0.00e+00	0	41	0	0	57	4840
2026-01-16 10:18:33.19	173.24	9.54	-42.8	-45.5	16.3	0.00e+00	0	41	0	0	57	4850
2026-01-16 10:18:34.19	173.27	9.62	-42.3	-44.8	17.0	0.00e+00	0	42	0	0	56	4757
2026-01-16 10:18:35.20	173.30	9.71	-42.2	-44.6	17.1	0.00e+00	0	41	0	0	56	4643
2026-01-16 10:18:36.19	173.33	9.80	-42.0	-44.4	17.4	0.00e+00	0	41	0	0	56	4512
2026-01-16 10:18:37.19	173.36	9.88	-41.7	-44.0	17.6	0.00e+00	0	42	0	0	55	4587
2026-01-16 10:18:38.19	173.39	9.97	-41.9	-44.3	17.3	0.00e+00	0	42	0	0	55	4730
2026-01-16 10:18:39.19	173.42	10.05	-41.7	-44.1	17.5	0.00e+00	0	42	0	0	55	4647
2026-01-16 10:18:40.19	173.45	10.14	-41.6	-43.9	17.7	0.00e+00	0	41	0	0	55	4534
2026-01-16 10:18:41.20	173.48	10.23	-41.5	-43.8	17.8	0.00e+00	0	42	0	0	55	4475
2026-01-16 10:18:42.20	173.51	10.31	-41.4	-43.6	17.9	0.00e+00	0	42	0	0	54	4648
2026-01-16 10:18:43.20	173.54	10.40	-41.5	-43.8	17.7	0.00e+00	0	42	0	0	54	4757
2026-01-16 10:18:44.20	173.57	10.49	-41.4	-43.8	17.8	0.00e+00	0	42	0	0	54	4714
2026-01-16 10:18:45.20	173.60	10.58	-41.3	-43.6	17.9	0.00e+00	0	42	0	0	54	4646
2026-01-16 10:18:46.20	173.63	10.67	-41.3	-43.6	18.0	0.00e+00	0	42	0	0	54	4622
2026-01-16 10:18:47.20	173.66	10.76	-41.4	-43.7	17.9	0.00e+00	0	42	0	0	54	4678
2026-01-16 10:18:48.20	173.69	10.84	-41.3	-43.6	18.0	0.00e+00	0	42	0	0	54	4612
2026-01-16 10:18:49.20	173.72	10.93	-41.2	-43.5	18.0	0.00e+00	0	42	0	0	54	4581
2026-01-16 10:18:50.20	173.75	11.02	-41.2	-43.5	18.1	0.00e+00	0	42	0	0	54	4563
2026-01-16 10:18:51.19	173.78	11.11	-41.2	-43.4	18.1	0.00e+00	0	42	0	0	54	4526
2026-01-16 10:18:52.20	173.82	11.20	-41.1	-43.3	18.2	0.00e+00	0	42	0	0	54	4483
2026-01-16 10:18:53.19	173.85	11.29	-41.1	-43.3	18.3	0.00e+00	0	42	0	0	54	4467
2026-01-16 10:18:54.19	173.88	11.38	-41.1	-43.2	18.3	0.00e+00	0	42	0	0	54	4418
2026-01-16 10:18:55.19	173.91	11.48	-41.2	-43.3	18.3	0.00e+00	0	41	0	0	54	4473
2026-01-16 10:18:56.19	173.94	11.57	-41.2	-43.3	18.2	0.00e+00	0	42	0	0	54	4486
2026-01-16 10:18:57.20	173.98	11.66	-41.1	-43.2	18.4	0.00e+00	0	42	0	0	54	4415
2026-01-16 10:18:58.20	174.01	11.75	-41.2	-43.2	18.4	0.00e+00	0	42	0	0	54	4408
2026-01-16 10:18:59.20	174.04	11.85	-41.2	-43.2	18.4	0.00e+00	0	42	0	0	54	4430
2026-01-16 10:19:00.20	174.08	11.94	-41.2	-43.1	18.4	0.00e+00	0	42	0	0	54	4390
2026-01-16 10:19:01.20	174.11	12.03	-41.2	-43.1	18.5	0.00e+00	0	42	0	0	54	4375
2026-01-16 10:19:02.21	174.14	12.13	-41.3	-43.2	18.4	0.00e+00	0	42	0	0	54	4415
2026-01-16 10:19:03.21	174.18	12.22	-41.3	-43.2	18.4	0.00e+00	0	42	0	0	54	4440
2026-01-16 10:19:04.21	174.21	12.31	-41.1	-43.0	18.5	0.00e+00	0	42	0	0	54	4334
2026-01-16 10:19:05.21	174.25	12.41	-41.1	-42.9	18.6	0.00e+00	0	42	0	0	54	4290
2026-01-16 10:19:06.22	174.28	12.51	-41.0	-42.9	18.7	0.00e+00	0	42	0	0	54	4274
2026-01-16 10:19:07.22	174.31	12.60	-41.0	-42.9	18.7	0.00e+00	0	42	0	0	54	4261
2026-01-16 10:19:08.22	174.35	12.70	-41.1	-43.0	18.6	0.00e+00	0	42	0	0	54	4332
2026-01-16 10:19:09.22	174.38	12.79	-41.0	-42.9	18.7	0.00e+00	0	42	0	0	54	4261
2026-01-16 10:19:10.22	174.42	12.89	-40.9	-42.7	18.8	0.00e+00	0	42	0	0	53	4430
2026-01-16 10:19:11.22	174.45	12.99	-41.0	-42.9	18.7	0.00e+00	0	42	0	0	53	4494
2026-01-16 10:19:12.22	174.49	13.08	-40.9	-42.7	18.8	0.00e+00	0	42	0	0	53	4438
2026-01-16 10:19:13.22	174.53	13.18	-41.0	-42.8	18.8	0.00e+00	0	42	0	0	53	4490
2026-01-16 10:19:14.23	174.56	13.28	-41.1	-43.0	18.1	0.00e+00	0	42	0	0	53	4574
2026-01-16 10:19:15.23	174.60	13.38	-41.0	-42.9	18.7	0.00e+00	0	42	0	0	53	4506
2026-01-16 10:19:16.23	174.64	13.48	-40.9	-42.8	18.8	0.00e+00	0	42	0	0	53	4465
2026-01-16 10:19:17.24	174.67	13.58	-41.1	-42.9	18.7	0.00e+00	0	42	0	0	53	4543
2026-01-16 10:19:18.24	174.71	13.68	-41.1	-43.0	18.7	0.00e+00	0	42	0	0	53	4548
2026-01-16 10:19:19.24	174.75	13.78	-40.9	-42.8	18.8	0.00e+00	0	42	0	0	53	4474
2026-01-16 10:19:20.24	174.78	13.88	-40.9	-42.8	18.9	0.00e+00	0	42	0	0	53	4450
2026-01-16 10:19:21.23	174.82	13.98	-40.9	-42.7	18.9	0.00e+00	0	42	0	0	53	4432
2026-01-16 10:19:22.23	174.86	14.08	-40.9	-42.8	18.9	0.00e+00	0	42	0	0	53	4454
2026-01-16 10:19:23.24	174.90	14.18	-40.8	-42.7	18.9	0.00e+00	0	42	0	0	53	4407
2026-01-16 10:19:24.24	174.94	14.29	-40.8	-42.7	18.9	0.00e+00	0	42	0	0	53	4420
2026-01-16 10:19:25.24	174.97	14.39	-40.9	-42.8	18.8	0.00e+00	0	42	0	0	53	4474
2026-01-16 10:19:26.24	175.01	14.49	-41.0	-42.8	18.9	0.00e+00	0	42	0	0	53	4478
2026-01-16 10:19:27.24	175.05	14.60	-41.0	-42.9	18.8	0.00e+00	0	42	0	0	53	4507
2026-01-16 10:19:28.24	175.09	14.70	-40.9	-42.8	18.9	0.00e+00	0	42	0	0	53	4447
2026-01-16 10:19:29.24	175.13	14.80	-40.9	-42.7	18.9	0.00e+00	0	42	0	0	53	4437
2026-01-16 10:19:30.24	175.17	14.91	-41.0	-42.9	18.8	0.00e+00	0	42	0	0	53	4508
2026-01-16 10:19:31.25	175.21	15.01	-40.9	-42.8	18.9	0.00e+00	0	42	0	0	53	4457
2026-01-16 10:19:32.25	175.25	15.12	-40.9	-42.8	18.9	0.00e+00	0	42	0	0	53	4453
2026-01-16 10:19:33.25	175.29	15.23	-40.8	-42.7	19.0	0.00e+00	0	42	0	0	53	4417
2026-01-16 10:19:34.25	175.33	15.33	-40.8	-42.6	19.0	0.00e+00	0	42	0	0	53	4378
2026-01-16 10:19:35.25	175.38	15.44	-40.9	-42.7	19.0	0.00e+00	0	42	0	0	53	4420
2026-01-16 10:19:36.25	175.42	15.55	-40.7	-42.6	19.1	0.00e+00	0	42	0	0	53	4354
2026-01-16 10:19:37.26	175.46	15.66	-40.8	-42.6	19.1	0.00e+00	0	42	0	0	53	4355
2026-01-16 10:19:38.26	175.50	15.76	-40.8	-42.6	19.1	0.00e+00	0	42	0	0	53	4373
2026-01-16 10:19:39.26	175.54	15.87	-40.7	-42.5	19.2	0.00e+00	0	42	0	0	53	4339
2026-01-16 10:19:40.27	175.59	15.98	-40.7	-42.5	19.2	0.00e+00	0	42	0	0	53	4306
2026-01-16 10:19:41.27	175.63	16.09	-40.7	-42.5	19.2	0.00e+00	0	42	0	0	53	4320
2026-01-16 10:19:42.27	175.67	16.20	-40.7	-42.6	19.1	0.00e+00	0	42	0	0	53	4345
2026-01-16 10:19:43.27	175.72	16.32	-40.6	-42.4	19.3	0.00e+00	0	42	0	0	53	4264
2026-01-16 10:19:44.27	175.76	16.43	-40.6	-42.5	19.2	0.00e+00	0	42	0	0	53	4298
2026-01-16 10:19:45.27	175.80	16.54	-40.6	-42.4	19.3	0.00e+00	0	42	0	0	53	4282
2026-01-16 10:19:46.27	175.85	16.65	-40.6	-42.4	19.3	0.00e+00	0	42	0	0	53	4249
2026-01-16 10:19:47.28	175.89	16.76	-40.7	-42.5	19.2	0.00e+00	0	42	0	0	53	4298
2026-01-16 10:19:48.27	175.94	16.88	-40.6	-42.4	19.3	0.00e+00	0	42	0	0	53	4276
2026-01-16 10:19:49.28	175.98	16.99	-40.7	-42.5	19.2	0.00e+00	0	42	0	0	53	4309
2026-01-16 10:19:50.28	176.03	17.11	-40.7	-42.5	19.2	0.00e+00	0	42	0	0	53	4307
2026-01-16 10:19:51.28	176.08	17.22	-40.7	-42.5	19.3	0.00e+00	0	42	0	0	53	4292
2026-01-16 10:19:52.29	176.12	17.34	-40.8	-42.6	19.2	0.00e+00	0	42	0	0	53	4364
2026-01-16 10:19:53.29	176.17	17.45	-40.7	-42.5	19.2	0.00e+00	0	42	0	0	53	4332
2026-01-16 10:19:54.29	176.22	17.57	-40.7	-42.5	19.3	0.00e+00	0	42	0	0	53	4298
2026-01-16 10:19:55.29	176.26	17.69	-40.7	-42.4	19.3	0.00e+00	0	42	0	0	53	4291
2026-01-16 10:19:56.29	176.31	17.81	-40.7	-42.5	19.2	0.00e+00	0	42	0	0	53	4293
2026-01-16 10:19:57.28	176.36	17.92	-40.8	-42.6	19.2	0.00e+00	0	42	0	0	53	4354
2026-01-16 10:19:58.29	176.41	18.04	-40.7	-42.5	19.2	0.00e+00	0	42	0	0	53	4339
2026-01-16 10:19:59.29	176.46	18.16	-40.7	-42.5	19.2	0.00e+00	0	42	0	0	53	4326
2026-01-16 10:20:00.29	176.51	18.28	-40.8	-42.7	18.5	0.00e+00	0	42	0	0	53	4399
2026-01-16 10:20:01.28	176.55	18.40	-40.8	-42.6	19.1	0.00e+00	0	42	0	0	53	4369
2026-01-16 10:20:02.29	176.60	18.52	-40.9	-42.7	19.1	0.00e+00	0	42	0	0	53	4413
2026-01-16 10:20:03.28	176.65	18.64	-40.9	-42.7	19.0	0.00e+00	0	42	0	0	53	4427
2026-01-16 10:20:04.29	176.71	18.77	-40.9	-42.7	19.0	0.00e+00	0	42	0	0	53	4432
2026-01-16 10:20:05.29	176.76	18.89	-40.8	-42.7	19.1	0.00e+00	0	42	0	0	53	4398
2026-01-16 10:20:06.29	176.81	19.01	-40.9	-42.7	19.0	0.00e+00	0	42	0	0	53	4420
2026-01-16 10:20:07.29	176.86	19.14	-40.9	-42.8	19.0	0.00e+00	0	42	0	0	53	4449
2026-01-16 10:20:08.30	176.91	19.26	-40.8	-42.6	19.1	0.00e+00	0	42	0	0	53	4390
2026-01-16 10:20:09.29	176.96	19.39	-40.9	-42.7	19.0	0.00e+00	0	42	0	0	53	4421
2026-01-16 10:20:10.29	177.02	19.51	-40.9	-42.7	19.0	0.00e+00	0	42	0	0	53	4407
2026-01-16 10:20:11.30	177.07	19.64	-40.7	-42.5	19.2	0.00e+00	0	42	0	0	53	4292
2026-01-16 10:20:12.30	177.12	19.77	-40.7	-42.5	19.2	0.00e+00	0	42	0	0	53	4335
2026-01-16 10:20:13.30	177.18	19.89	-40.8	-42.6	19.1	0.00e+00	0	42	0	0	53	4379
2026-01-16 10:20:14.30	177.23	20.02	-40.7	-42.5	19.2	0.00e+00	0	42	0	0	53	4319
2026-01-16 10:20:15.30	177.29	20.15	-40.8	-42.6	19.2	0.00e+00	0	42	0	0	53	4344
2026-01-16 10:20:16.30	177.34	20.28	-40.7	-42.5	19.2	0.00e+00	0	42	0	0	53	4310
2026-01-16 10:20:17.31	177.40	20.41	-40.7	-42.5	19.2	0.00e+00	0	42	0	0	53	4306
2026-01-16 10:20:18.31	177.46	20.54	-40.6	-42.4	19.3	0.00e+00	0	42	0	0	53	4260
2026-01-16 10:20:19.31	177.51	20.67	-40.6	-42.4	19.3	0.00e+00	0	42	0	0	53	4243
2026-01-16 10:20:20.31	177.57	20.81	-40.6	-42.4	19.3	0.00e+00	0	42	0	0	53	4268
2026-01-16 10:20:21.31	177.63	20.94	-40.5	-42.3	19.4	0.00e+00	0	42	0	0	52	4446
2026-01-16 10:20:22.31	177.69	21.07	-40.4	-42.2	19.4	0.00e+00	0	42	0	0	52	4425
2026-01-16 10:20:23.31	177.75	21.21	-40.5	-42.3	19.4	0.00e+00	0	42	0	0	52	4461
2026-01-16 10:20:24.31	177.80	21.34	-40.6	-42.4	19.3	0.00e+00	0	42	0	0	52	4514
2026-01-16 10:20:25.32	177.86	21.48	-40.4	-42.2	19.4	0.00e+00	0	42	0	0	52	4417
2026-01-16 10:20:26.32	177.92	21.61	-40.3	-42.0	19.6	0.00e+00	0	42	0	0	52	4313
2026-01-16 10:20:27.32	177.99	21.75	-40.0	-41.7	19.8	0.00e+00	0	42	0	0	52	4189
2026-01-16 10:20:28.31	178.05	21.89	-40.0	-41.8	19.9	0.00e+00	0	42	0	0	51	4448
2026-01-16 10:20:29.31	178.11	22.03	-40.0	-41.7	20.0	0.00e+00	0	42	0	0	51	4403
2026-01-16 10:20:30.32	178.17	22.17	-39.9	-41.6	20.1	0.00e+00	0	42	0	0	51	4358
2026-01-16 10:20:31.32	178.23	22.31	-39.8	-41.5	20.1	0.00e+00	0	42	0	0	51	4338
2026-01-16 10:20:32.32	178.30	22.45	-39.7	-41.4	20.2	0.00e+00	0	42	0	0	51	4270
2026-01-16 10:20:33.32	178.36	22.59	-39.7	-41.3	20.2	0.00e+00	0	42	0	0	51	4230
2026-01-16 10:20:34.32	178.42	22.73	-39.7	-41.3	20.2	0.00e+00	0	42	0	0	51	4239
2026-01-16 10:20:35.33	178.49	22.87	-39.4	-41.1	20.4	0.00e+00	0	42	0	0	50	4358
2026-01-16 10:20:36.32	178.56	23.02	-39.4	-41.1	20.4	0.00e+00	0	42	0	0	50	4362
2026-01-16 10:20:37.33	178.62	23.16	-39.4	-41.1	20.5	0.00e+00	0	42	0	0	50	4360
2026-01-16 10:20:38.33	178.69	23.31	-39.3	-41.0	20.6	0.00e+00	0	42	0	0	50	4295
2026-01-16 10:20:39.33	178.76	23.45	-39.2	-40.8	20.7	0.00e+00	0	42	0	0	50	4230
2026-01-16 10:20:40.32	178.82	23.60	-39.2	-40.8	20.6	0.00e+00	0	42	0	0	50	4239
2026-01-16 10:20:41.33	178.89	23.75	-39.2	-40.8	20.7	0.00e+00	0	42	0	0	50	4228
2026-01-16 10:20:42.33	178.96	23.90	-39.3	-40.9	20.6	0.00e+00	0	42	0	0	50	4273
2026-01-16 10:20:43.33	179.03	24.05	-39.3	-41.0	20.5	0.00e+00	0	42	0	0	50	4293
2026-01-16 10:20:44.33	179.10	24.20	-39.3	-41.0	20.6	0.00e+00	0	42	0	0	50	4294
2026-01-16 10:20:45.32	179.17	24.34	-39.3	-41.0	20.5	0.00e+00	0	42	0	0	50	4292
2026-01-16 10:20:46.33	179.24	24.50	-39.3	-41.0	20.3	0.00e+00	0	42	0	0	50	4304
2026-01-16 10:20:47.33	179.32	24.65	-39.4	-41.1	20.5	0.00e+00	0	42	0	0	50	4346
2026-01-16 10:20:48.33	179.39	24.80	-39.5	-41.2	20.4	0.00e+00	0	42	0	0	50	4403
2026-01-16 10:20:49.33	179.46	24.96	-39.5	-41.1	20.4	0.00e+00	0	42	0	0	50	4368
2026-01-16 10:20:50.33	179.54	25.11	-39.6	-41.3	20.3	0.00e+00	0	42	0	0	50	4444
2026-01-16 10:20:51.33	179.61	25.27	-39.6	-41.2	20.3	0.00e+00	0	42	0	0	50	4439
2026-01-16 10:20:52.33	179.69	25.43	-39.7	-41.4	20.2	0.00e+00	0	42	0	0	50	4512
2026-01-16 10:20:53.33	179.76	25.58	-39.7	-41.4	20.2	0.00e+00	0	42	0	0	50	4500
2026-01-16 10:20:54.33	179.84	25.74	-39.7	-41.4	20.2	0.00e+00	0	42	0	0	50	4516
2026-01-16 10:20:55.34	179.92	25.90	-39.8	-41.5	20.1	0.00e+00	0	42	0	0	50	4560
2026-01-16 10:20:56.34	180.00	26.06	-39.8	-41.5	20.1	0.00e+00	0	42	0	0	50	4575
2026-01-16 10:20:57.34	180.08	26.22	-40.0	-41.6	19.9	0.00e+00	0	42	0	0	50	4646
2026-01-16 10:20:58.34	180.16	26.39	-40.1	-41.8	19.8	0.00e+00	0	42	0	0	50	4729
2026-01-16 10:20:59.34	180.24	26.55	-40.3	-42.0	19.7	0.00e+00	0	42	0	0	51	4568
2026-01-16 10:21:00.34	180.32	26.71	-40.3	-42.0	19.7	0.00e+00	0	42	0	0	51	4574
2026-01-16 10:21:01.34	180.41	26.88	-40.3	-42.0	19.7	0.00e+00	0	42	0	0	51	4594
2026-01-16 10:21:02.33	180.49	27.04	-40.4	-42.1	19.6	0.00e+00	0	42	0	0	51	4651
2026-01-16 10:21:03.33	180.57	27.21	-40.6	-42.3	19.5	0.00e+00	0	42	0	0	51	4744
2026-01-16 10:21:04.33	180.66	27.38	-40.6	-42.4	19.3	0.00e+00	0	42	0	0	52	4505
2026-01-16 10:21:05.34	180.74	27.55	-40.7	-42.5	19.2	0.00e+00	0	42	0	0	52	4559
2026-01-16 10:21:06.34	180.83	27.72	-40.9	-42.7	19.0	0.00e+00	0	42	0	0	52	4688
2026-01-16 10:21:07.34	180.92	27.89	-41.0	-42.9	18.9	0.00e+00	0	42	0	0	52	4763
2026-01-16 10:21:08.34	181.01	28.06	-41.2	-43.0	18.8	0.00e+00	0	42	0	0	52	4854
2026-01-16 10:21:09.34	181.10	28.23	-41.3	-43.1	18.7	0.00e+00	0	42	0	0	53	4640
2026-01-16 10:21:10.34	181.19	28.41	-41.3	-43.1	18.6	0.00e+00	0	42	0	0	53	4641
2026-01-16 10:21:11.34	181.28	28.58	-41.3	-43.1	18.7	0.00e+00	0	42	0	0	53	4636
2026-01-16 10:21:12.34	181.37	28.76	-41.3	-43.1	18.6	0.00e+00	0	42	0	0	53	4638
2026-01-16 10:21:13.34	181.47	28.93	-41.2	-43.1	18.6	0.00e+00	0	42	0	0	53	4618
2026-01-16 10:21:14.35	181.56	29.11	-41.3	-43.1	18.6	0.00e+00	0	42	0	0	53	4644
2026-01-16 10:21:15.34	181.66	29.29	-41.2	-43.0	18.7	0.00e+00	0	42	0	0	53	4586
2026-01-16 10:21:16.35	181.75	29.47	-41.2	-43.0	18.7	0.00e+00	0	42	0	0	53	4567
2026-01-16 10:21:17.35	181.85	29.65	-41.1	-42.9	18.8	0.00e+00	0	42	0	0	53	4506
2026-01-16 10:21:18.36	181.95	29.84	-41.0	-42.8	18.9	0.00e+00	0	42	0	0	53	4484
2026-01-16 10:21:19.36	182.05	30.02	-40.9	-42.8	18.9	0.00e+00	0	42	0	0	53	4448
2026-01-16 10:21:20.36	182.15	30.20	-40.7	-42.5	19.1	0.00e+00	0	42	0	0	53	4335
2026-01-16 10:21:21.37	182.25	30.39	-40.6	-42.3	19.3	0.00e+00	0	42	0	0	53	4239
2026-01-16 10:21:22.37	182.36	30.58	-40.6	-42.3	19.4	0.00e+00	0	42	0	0	53	4232
2026-01-16 10:21:23.37	182.46	30.77	-40.6	-42.3	19.4	0.00e+00	0	43	0	0	53	4233
2026-01-16 10:21:24.37	182.57	30.95	-40.4	-42.2	19.6	0.00e+00	0	42	0	0	52	4400
2026-01-16 10:21:25.37	182.67	31.14	-40.2	-41.9	19.8	0.00e+00	0	42	0	0	52	4285
2026-01-16 10:21:26.37	182.78	31.34	-40.2	-41.9	19.8	0.00e+00	0	42	0	0	52	4273
2026-01-16 10:21:27.37	182.89	31.53	-40.2	-41.9	19.8	0.00e+00	0	42	0	0	52	4288
2026-01-16 10:21:28.37	183.00	31.72	-40.2	-41.9	19.9	0.00e+00	0	42	0	0	52	4249
2026-01-16 10:21:29.37	183.11	31.92	-40.1	-41.8	19.9	0.00e+00	0	42	0	0	52	4221
2026-01-16 10:21:30.37	183.22	32.11	-40.2	-41.8	19.9	0.00e+00	0	42	0	0	52	4240
2026-01-16 10:21:31.37	183.34	32.31	-40.2	-41.9	19.9	0.00e+00	0	42	0	0	52	4274
2026-01-16 10:21:32.38	183.46	32.51	-40.3	-42.0	19.8	0.00e+00	0	42	0	0	52	4305
2026-01-16 10:21:33.38	183.57	32.71	-40.4	-42.1	19.6	0.00e+00	0	42	0	0	52	4390
2026-01-16 10:21:34.37	183.69	32.91	-40.5	-42.3	19.6	0.00e+00	0	42	0	0	52	4450
2026-01-16 10:21:35.37	183.81	33.11	-40.6	-42.4	19.4	0.00e+00	0	42	0	0	52	4515
2026-01-16 10:21:36.37	183.93	33.31	-40.7	-42.5	19.3	0.00e+00	0	42	0	0	52	4567
2026-01-16 10:21:37.37	184.05	33.51	-40.7	-42.5	19.3	0.00e+00	0	42	0	0	52	4568
2026-01-16 10:21:38.37	184.18	33.72	-40.8	-42.5	19.3	0.00e+00	0	42	0	0	52	4597
2026-01-16 10:21:39.37	184.30	33.93	-40.9	-42.6	19.2	0.00e+00	0	42	0	0	52	4641
2026-01-16 10:21:40.38	184.43	34.14	-40.9	-42.7	19.1	0.00e+00	0	42	0	0	52	4697
2026-01-16 10:21:41.38	184.56	34.34	-41.1	-42.9	19.0	0.00e+00	0	42	0	0	52	4786
2026-01-16 10:21:42.38	184.69	34.55	-41.2	-43.1	18.8	0.00e+00	0	42	0	0	53	4605
2026-01-16 10:21:43.37	184.82	34.76	-41.3	-43.2	18.7	0.00e+00	0	43	0	0	53	4663
2026-01-16 10:21:44.37	184.96	34.98	-41.5	-43.3	18.6	0.00e+00	0	42	0	0	53	4750
2026-01-16 10:21:45.38	185.09	35.19	-41.6	-43.5	18.4	0.00e+00	0	42	0	0	53	4823
2026-01-16 10:21:46.38	185.23	35.41	-41.7	-43.5	18.4	0.00e+00	0	42	0	0	54	4594
2026-01-16 10:21:47.38	185.37	35.62	-41.7	-43.6	18.3	0.00e+00	0	42	0	0	54	4635
2026-01-16 10:21:48.38	185.51	35.84	-41.7	-43.6	18.3	0.00e+00	0	42	0	0	54	4616
2026-01-16 10:21:49.38	185.65	36.06	-41.9	-43.7	18.2	0.00e+00	0	42	0	0	54	4702
2026-01-16 10:21:50.38	185.80	36.28	-41.8	-43.7	18.2	0.00e+00	0	42	0	0	54	4694
2026-01-16 10:21:51.38	185.95	36.50	-42.0	-43.9	18.0	0.00e+00	0	42	0	0	54	4795
2026-01-16 10:21:52.38	186.09	36.73	-42.0	-43.9	18.1	0.00e+00	0	42	0	0	54	4780
2026-01-16 10:21:53.38	186.24	36.95	-41.9	-43.8	18.0	0.00e+00	0	42	0	0	54	4756
2026-01-16 10:21:54.38	186.40	37.18	-42.0	-43.9	18.0	0.00e+00	0	42	0	0	54	4804
2026-01-16 10:21:55.38	186.55	37.40	-42.0	-43.9	18.0	0.00e+00	0	42	0	0	54	4786
2026-01-16 10:21:56.39	186.71	37.64	-42.0	-43.9	18.1	0.00e+00	0	42	0	0	54	4801
2026-01-16 10:21:57.39	186.87	37.87	-41.8	-43.7	18.2	0.00e+00	0	42	0	0	54	4699
2026-01-16 10:21:58.39	187.03	38.10	-41.7	-43.6	18.4	0.00e+00	0	43	0	0	54	4631
2026-01-16 10:21:59.39	187.19	38.33	-41.9	-43.8	18.2	0.00e+00	0	42	0	0	54	4729
2026-01-16 10:22:00.39	187.36	38.56	-41.8	-43.7	18.3	0.00e+00	0	42	0	0	54	4692
2026-01-16 10:22:01.39	187.53	38.80	-42.0	-43.9	18.1	0.00e+00	0	42	0	0	54	4791
2026-01-16 10:22:02.39	187.70	39.03	-41.9	-43.8	18.2	0.00e+00	0	42	0	0	54	4722
2026-01-16 10:22:03.39	187.87	39.27	-41.9	-43.8	18.2	0.00e+00	0	42	0	0	54	4714
2026-01-16 10:22:04.39	188.05	39.51	-41.8	-43.7	18.2	0.00e+00	0	42	0	0	54	4681
2026-01-16 10:22:05.39	188.22	39.75	-41.9	-43.8	18.1	0.00e+00	0	42	0	0	54	4706
2026-01-16 10:22:06.39	188.40	39.99	-42.0	-43.9	18.0	0.00e+00	0	42	0	0	54	4769
2026-01-16 10:22:07.39	188.59	40.24	-42.0	-43.9	17.9	0.00e+00	0	42	0	0	54	4789
2026-01-16 10:22:08.39	188.77	40.48	-42.1	-44.0	17.8	0.00e+00	0	42	0	0	54	4870
2026-01-16 10:22:09.39	188.96	40.73	-42.4	-44.4	17.5	0.00e+00	0	42	0	0	55	4782
2026-01-16 10:22:10.39	189.15	40.98	-42.5	-44.6	17.4	0.00e+00	0	42	0	0	55	4879
2026-01-16 10:22:11.39	189.35	41.22	-43.1	-45.2	17.0	0.00e+00	0	43	0	0	56	4972
2026-01-16 10:22:12.39	189.55	41.47	-43.4	-45.6	16.5	0.00e+00	0	43	0	0	57	4891
2026-01-16 10:22:13.39	189.75	41.73	-43.3	-45.4	16.7	0.00e+00	0	42	0	0	57	4802
2026-01-16 10:22:14.39	189.95	41.98	-43.1	-45.2	16.7	0.00e+00	0	42	0	0	57	4702
2026-01-16 10:22:15.39	190.16	42.23	-43.0	-45.1	17.0	0.00e+00	0	42	0	0	57	4601
2026-01-16 10:22:16.39	190.37	42.49	-43.0	-45.1	16.9	0.00e+00	0	42	0	0	57	4637
2026-01-16 10:22:17.39	190.58	42.75	-43.0	-45.0	17.0	0.00e+00	0	42	0	0	57	4586
2026-01-16 10:22:18.40	190.80	43.01	-43.0	-45.1	16.9	0.00e+00	0	42	0	0	57	4647
2026-01-16 10:22:19.39	191.02	43.26	-43.3	-45.5	16.7	0.00e+00	0	42	0	0	57	4844
2026-01-16 10:22:20.39	191.24	43.52	-43.7	-45.9	16.2	0.00e+00	0	42	0	0	58	4811
2026-01-16 10:22:21.40	191.47	43.79	-43.7	-46.0	16.3	0.00e+00	0	42	0	0	58	4818
2026-01-16 10:22:22.39	191.70	44.05	-43.8	-46.1	16.2	0.00e+00	0	42	0	0	58	4878
2026-01-16 10:22:23.40	191.94	44.32	-43.6	-45.8	16.5	0.00e+00	0	42	0	0	58	4706
2026-01-16 10:22:24.40	192.17	44.58	-43.4	-45.5	16.7	0.00e+00	0	42	0	0	58	4583
2026-01-16 10:22:25.40	192.42	44.85	-43.2	-45.3	16.9	0.00e+00	0	42	0	0	58	4451
2026-01-16 10:22:26.40	192.66	45.12	-43.1	-45.1	17.0	0.00e+00	0	42	0	0	58	4378
2026-01-16 10:22:27.40	192.91	45.39	-43.1	-45.2	17.0	0.00e+00	0	42	0	0	58	4397
2026-01-16 10:22:28.40	193.17	45.66	-43.2	-45.3	17.0	0.00e+00	0	43	0	0	58	4470
2026-01-16 10:22:29.41	193.43	45.93	-43.0	-45.0	17.1	0.00e+00	0	42	0	0	58	4329
2026-01-16 10:22:30.41	193.69	46.21	-43.0	-45.1	17.1	0.00e+00	0	42	0	0	57	4599
2026-01-16 10:22:31.41	193.96	46.48	-43.0	-45.1	17.1	0.00e+00	0	42	0	0	57	4620
2026-01-16 10:22:32.41	194.24	46.76	-42.8	-44.9	17.3	0.00e+00	0	42	0	0	57	4495
2026-01-16 10:22:33.42	194.52	47.04	-42.6	-44.6	17.5	0.00e+00	0	42	0	0	57	4380
2026-01-16 10:22:34.41	194.80	47.31	-42.7	-44.7	17.4	0.00e+00	0	42	0	0	57	4432
2026-01-16 10:22:35.42	195.09	47.59	-42.6	-44.6	17.6	0.00e+00	0	43	0	0	57	4364
2026-01-16 10:22:36.42	195.38	47.87	-42.5	-44.5	17.8	0.00e+00	0	42	0	0	56	4549
2026-01-16 10:22:37.42	195.68	48.15	-42.5	-44.5	17.7	0.00e+00	0	43	0	0	56	4557
2026-01-16 10:22:38.42	195.98	48.44	-42.4	-44.4	17.8	0.00e+00	0	43	0	0	56	4496
2026-01-16 10:22:39.42	196.29	48.72	-42.2	-44.1	18.0	0.00e+00	0	42	0	0	56	4382
2026-01-16 10:22:40.42	196.61	49.00	-42.1	-44.0	18.2	0.00e+00	0	42	0	0	56	4303
2026-01-16 10:22:41.42	196.93	49.29	-41.9	-43.8	18.1	0.00e+00	0	42	0	0	55	4483
2026-01-16 10:22:42.43	197.26	49.58	-41.8	-43.7	18.3	0.00e+00	0	42	0	0	55	4422
2026-01-16 10:22:43.43	197.59	49.86	-41.8	-43.8	18.2	0.00e+00	0	42	0	0	55	4451
2026-01-16 10:22:44.43	197.93	50.15	-41.8	-43.8	18.2	0.00e+00	0	42	0	0	55	4452
2026-01-16 10:22:45.43	198.27	50.44	-42.0	-43.9	18.1	0.00e+00	0	42	0	0	55	4528
2026-01-16 10:22:46.43	198.63	50.73	-42.0	-44.0	18.1	0.00e+00	0	42	0	0	55	4547
2026-01-16 10:22:47.43	198.98	51.02	-41.6	-43.5	18.5	0.00e+00	0	42	0	0	55	4313
2026-01-16 10:22:48.43	199.35	51.31	-41.6	-43.4	18.6	0.00e+00	0	42	0	0	55	4267
2026-01-16 10:22:49.43	199.72	51.60	-41.6	-43.5	18.5	0.00e+00	0	42	0	0	55	4302
2026-01-16 10:22:50.43	200.10	51.89	-41.5	-43.3	18.6	0.00e+00	0	42	0	0	54	4470
2026-01-16 10:22:51.43	200.49	52.18	-41.4	-43.2	18.8	0.00e+00	0	42	0	0	54	4426
2026-01-16 10:22:52.43	200.88	52.47	-41.3	-43.1	18.8	0.00e+00	0	42	0	0	54	4388
2026-01-16 10:22:53.43	201.29	52.76	-41.3	-43.1	18.9	0.00e+00	0	42	0	0	54	4366
2026-01-16 10:22:54.43	201.70	53.06	-41.2	-43.0	18.9	0.00e+00	0	42	0	0	54	4304
2026-01-16 10:22:55.43	202.12	53.35	-41.3	-43.1	18.8	0.00e+00	0	42	0	0	54	4353
2026-01-16 10:22:56.43	202.54	53.64	-41.6	-43.4	18.5	0.00e+00	0	42	0	0	54	4537
2026-01-16 10:22:57.43	202.98	53.93	-41.5	-43.4	18.5	0.00e+00	0	42	0	0	54	4517
2026-01-16 10:22:58.43	203.43	54.23	-41.7	-43.5	18.5	0.00e+00	0	42	0	0	54	4591
2026-01-16 10:22:59.43	203.88	54.52	-41.4	-43.2	18.8	0.00e+00	0	42	0	0	54	4416
2026-01-16 10:23:00.43	204.34	54.81	-41.0	-42.8	19.1	0.00e+00	0	42	0	0	54	4237
2026-01-16 10:23:01.43	204.82	55.11	-41.0	-42.7	19.1	0.00e+00	0	43	0	0	53	4429
2026-01-16 10:23:02.43	205.30	55.40	-41.0	-42.8	19.1	0.00e+00	0	43	0	0	53	4448
2026-01-16 10:23:03.43	205.79	55.69	-41.1	-42.8	19.0	0.00e+00	0	42	0	0	53	4487
2026-01-16 10:23:04.43	206.29	55.98	-40.8	-42.5	19.4	0.00e+00	0	42	0	0	53	4327
2026-01-16 10:23:05.43	206.81	56.27	-40.6	-42.3	19.5	0.00e+00	0	42	0	0	53	4231
2026-01-16 10:23:06.43	207.33	56.56	-40.2	-41.9	19.8	0.00e+00	0	42	0	0	52	4260
2026-01-16 10:23:07.43	207.87	56.85	-40.2	-41.9	19.9	0.00e+00	0	42	0	0	52	4263
2026-01-16 10:23:08.43	208.41	57.14	-40.1	-41.8	20.0	0.00e+00	0	43	0	0	51	4464
2026-01-16 10:23:09.43	208.97	57.43	-40.2	-41.9	19.8	0.00e+00	0	42	0	0	51	4502
2026-01-16 10:23:10.44	209.55	57.71	-40.1	-41.8	19.9	0.00e+00	0	42	0	0	51	4476
2026-01-16 10:23:11.43	210.12	58.00	-40.2	-41.9	19.9	0.00e+00	0	42	0	0	51	4507
2026-01-16 10:23:12.43	210.72	58.28	-40.2	-41.9	19.8	0.00e+00	0	43	0	0	51	4537
2026-01-16 10:23:13.44	211.33	58.56	-40.4	-42.2	19.4	0.00e+00	0	42	0	0	51	4669
2026-01-16 10:23:14.44	211.95	58.84	-40.5	-42.3	19.4	0.00e+00	0	42	0	0	51	4734
2026-01-16 10:23:15.44	212.58	59.12	-40.4	-42.2	19.6	0.00e+00	0	42	0	0	51	4671
2026-01-16 10:23:16.44	213.23	59.40	-40.3	-42.0	19.8	0.00e+00	0	42	0	0	51	4581
2026-01-16 10:23:17.44	213.89	59.67	-39.8	-41.4	20.3	0.00e+00	0	42	0	0	51	4279
2026-01-16 10:23:18.44	214.56	59.94	-39.4	-41.0	20.6	0.00e+00	0	42	0	0	50	4312
2026-01-16 10:23:19.45	215.25	60.22	-39.2	-40.8	20.5	0.00e+00	0	42	0	0	50	4206
2026-01-16 10:23:20.45	215.96	60.48	-39.0	-40.6	20.8	0.00e+00	0	42	0	0	50	4140
2026-01-16 10:23:21.45	216.67	60.75	-39.0	-40.6	20.9	0.00e+00	0	42	0	0	49	4344
2026-01-16 10:23:22.45	217.41	61.01	-38.9	-40.5	21.0	0.00e+00	0	42	0	0	49	4323
2026-01-16 10:23:23.46	218.16	61.27	-38.8	-40.4	21.1	0.00e+00	0	42	0	0	49	4246
2026-01-16 10:23:24.46	218.92	61.52	-38.8	-40.3	21.1	0.00e+00	0	42	0	0	49	4226
2026-01-16 10:23:25.46	219.70	61.77	-38.9	-40.5	20.9	0.00e+00	0	43	0	0	49	4327
2026-01-16 10:23:26.46	220.50	62.02	-39.1	-40.7	21.0	0.00e+00	0	43	0	0	49	4403
2026-01-16 10:23:27.45	221.30	62.26	-39.2	-40.8	20.9	0.00e+00	0	42	0	0	49	4484
2026-01-16 10:23:28.45	222.13	62.50	-39.4	-41.0	20.7	0.00e+00	0	42	0	0	49	4573
2026-01-16 10:23:29.46	222.98	62.74	-39.5	-41.1	20.6	0.00e+00	0	42	0	0	49	4642
2026-01-16 10:23:30.46	223.84	62.97	-39.5	-41.2	20.5	0.00e+00	0	42	0	0	49	4672
2026-01-16 10:23:31.46	224.71	63.20	-39.3	-40.9	20.8	0.00e+00	0	42	0	0	49	4516
2026-01-16 10:23:32.46	225.60	63.42	-39.2	-40.8	21.0	0.00e+00	0	42	0	0	49	4447
2026-01-16 10:23:33.46	226.51	63.63	-39.3	-40.9	20.8	0.00e+00	0	42	0	0	49	4537
2026-01-16 10:23:34.46	227.44	63.85	-39.7	-41.4	20.4	0.00e+00	0	42	0	0	49	4769
2026-01-16 10:23:35.47	228.39	64.05	-39.8	-41.5	20.4	0.00e+00	0	43	0	0	50	4549
2026-01-16 10:23:36.47	229.35	64.25	-39.5	-41.1	20.7	0.00e+00	0	42	0	0	50	4386
2026-01-16 10:23:37.46	230.31	64.44	-39.2	-40.8	20.9	0.00e+00	0	42	0	0	50	4224
2026-01-16 10:23:38.47	231.32	64.63	-39.1	-40.7	21.0	0.00e+00	0	42	0	0	50	4187
2026-01-16 10:23:39.47	232.32	64.81	-39.0	-40.5	21.1	0.00e+00	0	42	0	0	49	4337
2026-01-16 10:23:40.47	233.35	64.99	-39.1	-40.7	20.9	0.00e+00	0	43	0	0	49	4428
2026-01-16 10:23:41.48	234.40	65.16	-39.1	-40.7	20.8	0.00e+00	0	42	0	0	49	4411
2026-01-16 10:23:42.48	235.45	65.32	-39.0	-40.6	20.9	0.00e+00	0	43	0	0	49	4380
2026-01-16 10:23:43.48	236.52	65.47	-38.7	-40.3	21.0	0.00e+00	0	42	0	0	49	4220
2026-01-16 10:23:44.48	237.60	65.62	-38.5	-40.0	21.2	0.00e+00	0	42	0	0	49	4092
2026-01-16 10:23:45.49	238.71	65.75	-38.6	-40.2	21.1	0.00e+00	0	42	0	0	48	4414
2026-01-16 10:23:46.49	239.82	65.88	-38.9	-40.5	20.9	0.00e+00	0	43	0	0	48	4585
2026-01-16 10:23:47.48	240.94	66.01	-38.8	-40.4	21.1	0.00e+00	0	42	0	0	48	4532
2026-01-16 10:23:48.49	242.08	66.12	-38.8	-40.3	21.0	0.00e+00	0	42	0	0	48	4480
2026-01-16 10:23:49.49	243.23	66.23	-38.9	-40.5	20.9	0.00e+00	0	42	0	0	48	4576
2026-01-16 10:23:50.49	244.39	66.32	-38.9	-40.5	21.0	0.00e+00	0	42	0	0	48	4581
2026-01-16 10:23:51.49	245.56	66.41	-38.7	-40.3	21.3	0.00e+00	0	42	0	0	48	4462
2026-01-16 10:23:52.49	246.73	66.49	-38.9	-40.5	21.2	0.00e+00	0	42	0	0	48	4555
2026-01-16 10:23:53.49	247.92	66.56	-39.3	-40.9	20.8	0.00e+00	0	43	0	0	49	4536
2026-01-16 10:23:54.49	249.11	66.62	-39.4	-41.0	20.8	0.00e+00	0	43	0	0	49	4577
2026-01-16 10:23:55.49	250.31	66.67	-39.2	-40.9	20.9	0.00e+00	0	42	0	0	49	4497
2026-01-16 10:23:56.49	251.51	66.72	-38.8	-40.3	21.3	0.00e+00	0	42	0	0	49	4242
2026-01-16 10:23:57.49	252.72	66.75	-38.5	-40.1	21.5	0.00e+00	0	42	0	0	49	4118
2026-01-16 10:23:58.49	253.93	66.77	-38.6	-40.1	21.5	0.00e+00	0	42	0	0	48	4382
2026-01-16 10:23:59.49	255.15	66.79	-38.7	-40.3	21.4	0.00e+00	0	43	0	0	48	4474
2026-01-16 10:24:00.49	256.36	66.79	-39.0	-40.6	21.1	0.00e+00	0	42	0	0	48	4614
2026-01-16 10:24:01.49	257.58	66.79	-39.0	-40.6	21.0	0.00e+00	0	42	0	0	48	4644
2026-01-16 10:24:02.49	258.79	66.77	-38.7	-40.2	21.3	0.00e+00	0	43	0	0	48	4439
2026-01-16 10:24:03.49	260.00	66.75	-38.7	-40.3	21.1	0.00e+00	0	42	0	0	48	4490
2026-01-16 10:24:04.49	261.21	66.72	-39.2	-40.9	20.8	0.00e+00	0	42	0	0	49	4512
2026-01-16 10:24:05.49	262.42	66.68	-39.4	-41.0	20.7	0.00e+00	0	43	0	0	49	4598
2026-01-16 10:24:06.49	263.62	66.63	-39.6	-41.3	20.5	0.00e+00	0	42	0	0	49	4716
2026-01-16 10:24:07.49	264.81	66.57	-39.4	-41.0	20.6	0.00e+00	0	42	0	0	49	4585
2026-01-16 10:24:08.50	266.01	66.50	-39.1	-40.7	20.7	0.00e+00	0	42	0	0	49	4414
2026-01-16 10:24:09.50	267.18	66.42	-38.9	-40.5	21.0	0.00e+00	0	43	0	0	49	4296
2026-01-16 10:24:10.50	268.35	66.33	-39.0	-40.6	20.9	0.00e+00	0	43	0	0	49	4344
2026-01-16 10:24:11.50	269.51	66.23	-39.6	-41.3	20.3	0.00e+00	0	42	0	0	49	4729
2026-01-16 10:24:12.50	270.66	66.13	-39.6	-41.3	20.2	0.00e+00	0	43	0	0	50	4462
2026-01-16 10:24:13.50	271.79	66.02	-39.7	-41.3	20.0	0.00e+00	0	42	0	0	50	4492
2026-01-16 10:24:14.51	272.93	65.89	-39.3	-41.0	20.5	0.00e+00	0	43	0	0	50	4301
2026-01-16 10:24:15.51	274.04	65.77	-39.1	-40.7	20.9	0.00e+00	0	42	0	0	50	4175
2026-01-16 10:24:16.51	275.14	65.63	-39.1	-40.7	21.1	0.00e+00	0	43	0	0	50	4154
2026-01-16 10:24:17.51	276.22	65.48	-39.6	-41.3	20.5	0.00e+00	0	43	0	0	50	4456
2026-01-16 10:24:18.51	277.29	65.33	-40.2	-41.9	20.0	0.00e+00	0	43	0	0	51	4503
2026-01-16 10:24:19.51	278.35	65.17	-39.7	-41.4	20.1	0.00e+00	0	42	0	0	51	4252
2026-01-16 10:24:20.51	279.38	65.01	-39.3	-40.9	20.4	0.00e+00	0	42	0	0	50	4263
2026-01-16 10:24:21.51	280.41	64.83	-39.2	-40.8	20.6	0.00e+00	0	42	0	0	50	4219
2026-01-16 10:24:22.51	281.42	64.65	-39.1	-40.7	20.9	0.00e+00	0	43	0	0	50	4170
2026-01-16 10:24:23.51	282.41	64.47	-38.8	-40.3	21.3	0.00e+00	0	42	0	0	49	4240
2026-01-16 10:24:24.51	283.38	64.27	-39.1	-40.7	21.1	0.00e+00	0	43	0	0	49	4409
2026-01-16 10:24:25.51	284.34	64.07	-39.4	-41.0	20.9	0.00e+00	0	43	0	0	49	4560
2026-01-16 10:24:26.51	285.28	63.87	-39.4	-41.1	20.8	0.00e+00	0	43	0	0	49	4604
2026-01-16 10:24:27.52	286.22	63.66	-38.9	-40.4	21.2	0.00e+00	0	43	0	0	49	4290
2026-01-16 10:24:28.51	287.12	63.45	-38.9	-40.4	21.0	0.00e+00	0	43	0	0	49	4285
2026-01-16 10:24:29.52	288.02	63.22	-39.6	-41.3	20.4	0.00e+00	0	42	0	0	49	4707
2026-01-16 10:24:30.51	288.89	63.00	-40.3	-41.9	20.0	0.00e+00	0	42	0	0	51	4544
2026-01-16 10:24:31.51	289.75	62.77	-40.6	-42.3	19.7	0.00e+00	0	42	0	0	51	4721
2026-01-16 10:24:32.51	290.59	62.54	-40.3	-42.0	19.7	0.00e+00	0	43	0	0	51	4567
2026-01-16 10:24:33.51	291.42	62.30	-39.7	-41.3	20.0	0.00e+00	0	42	0	0	51	4237
2026-01-16 10:24:34.51	292.23	62.06	-39.3	-40.9	20.6	0.00e+00	0	42	0	0	50	4271
2026-01-16 10:24:35.51	293.02	61.81	-38.5	-40.0	21.4	0.00e+00	0	42	0	0	49	4077
2026-01-16 10:24:36.52	293.81	61.56	-38.8	-40.3	21.3	0.00e+00	0	43	0	0	48	4478
2026-01-16 10:24:37.51	294.57	61.31	-40.0	-41.6	20.3	0.00e+00	0	42	0	0	50	4630
2026-01-16 10:24:38.52	295.32	61.05	-40.6	-42.4	19.5	0.00e+00	0	42	0	0	52	4517
2026-01-16 10:24:39.52	296.05	60.79	-40.2	-41.9	19.9	0.00e+00	0	42	0	0	52	4285
2026-01-16 10:24:40.51	296.76	60.53	-39.3	-40.9	20.7	0.00e+00	0	42	0	0	50	4274
2026-01-16 10:24:41.52	297.48	60.26	-38.7	-40.3	21.1	0.00e+00	0	42	0	0	49	4212
2026-01-16 10:24:42.52	298.16	59.99	-38.7	-40.2	21.2	0.00e+00	0	42	0	0	49	4178
2026-01-16 10:24:43.52	298.84	59.72	-39.1	-40.6	21.0	0.00e+00	0	43	0	0	49	4385
2026-01-16 10:24:44.52	299.50	59.45	-39.9	-41.6	20.3	0.00e+00	0	42	0	0	50	4600
2026-01-16 10:24:45.52	300.15	59.17	-40.8	-42.5	19.5	0.00e+00	0	43	0	0	52	4581
2026-01-16 10:24:46.52	300.78	58.89	-40.9	-42.7	19.2	0.00e+00	0	43	0	0	52	4687
2026-01-16 10:24:47.52	301.40	58.61	-40.3	-42.0	19.6	0.00e+00	0	42	0	0	52	4325
2026-01-16 10:24:48.52	302.01	58.33	-39.8	-41.4	20.0	0.00e+00	0	42	0	0	51	4275
2026-01-16 10:24:49.53	302.61	58.05	-39.4	-41.0	20.5	0.00e+00	0	42	0	0	50	4301
2026-01-16 10:24:50.53	303.19	57.77	-39.6	-41.2	20.4	0.00e+00	0	43	0	0	50	4411
2026-01-16 10:24:51.53	303.76	57.48	-40.2	-41.9	20.0	0.00e+00	0	43	0	0	51	4500
2026-01-16 10:24:52.53	304.32	57.20	-41.0	-42.8	19.2	0.00e+00	0	43	0	0	52	4754
2026-01-16 10:24:53.53	304.86	56.91	-41.4	-43.2	18.8	0.00e+00	0	43	0	0	53	4690
2026-01-16 10:24:54.54	305.40	56.62	-41.5	-43.4	18.6	0.00e+00	0	42	0	0	53	4788
2026-01-16 10:24:55.54	305.93	56.33	-41.0	-42.9	18.8	0.00e+00	0	43	0	0	53	4508
2026-01-16 10:24:56.54	306.44	56.04	-40.4	-42.5	19.1	0.00e+00	0	42	0	0	52	4568
2026-01-16 10:24:57.54	306.95	55.75	-39.5	-41.6	20.1	0.00e+00	0	43	0	0	51	4353
2026-01-16 10:24:58.54	307.44	55.46	-40.0	-42.0	19.9	0.00e+00	0	42	0	0	51	4558
2026-01-16 10:24:59.54	307.92	55.17	-41.1	-43.1	18.9	0.00e+00	0	43	0	0	52	4871
2026-01-16 10:25:00.54	308.40	54.88	-42.0	-44.0	17.9	0.00e+00	0	43	0	0	54	4836
2026-01-16 10:25:01.54	308.86	54.59	-42.3	-44.2	17.7	0.00e+00	0	42	0	0	55	4684
2026-01-16 10:25:02.54	309.31	54.29	-41.9	-43.9	18.2	0.00e+00	0	43	0	0	55	4494
2026-01-16 10:25:03.54	309.76	54.00	-41.8	-43.7	18.2	0.00e+00	0	42	0	0	55	4404
2026-01-16 10:25:04.55	310.20	53.71	-41.4	-43.2	18.5	0.00e+00	0	43	0	0	54	4441
2026-01-16 10:25:05.55	310.63	53.42	-41.1	-42.9	18.8	0.00e+00	0	42	0	0	54	4248
2026-01-16 10:25:06.55	311.05	53.12	-40.5	-42.2	19.3	0.00e+00	0	43	0	0	52	4419
2026-01-16 10:25:07.55	311.46	52.83	-40.5	-42.3	19.5	0.00e+00	0	43	0	0	52	4451
2026-01-16 10:25:08.55	311.86	52.54	-40.9	-42.7	19.2	0.00e+00	0	43	0	0	52	4683
2026-01-16 10:25:09.55	312.26	52.25	-42.2	-43.7	18.5	0.00e+00	0	43	0	0	54	4701
2026-01-16 10:25:10.54	312.64	51.96	-42.5	-44.5	17.7	0.00e+00	0	43	0	0	55	4844
2026-01-16 10:25:11.54	313.02	51.67	-42.5	-44.6	17.4	0.00e+00	0	43	0	0	55	4874
2026-01-16 10:25:12.55	313.40	51.38	-42.9	-45.0	16.6	0.00e+00	0	43	0	0	56	4865
2026-01-16 10:25:13.55	313.76	51.09	-43.0	-45.2	16.6	0.00e+00	0	43	0	0	56	4960
2026-01-16 10:25:14.55	314.12	50.80	-42.7	-44.8	17.2	0.00e+00	0	43	0	0	56	4738
2026-01-16 10:25:15.56	314.48	50.51	-42.2	-44.2	18.0	0.00e+00	0	42	0	0	56	4406
2026-01-16 10:25:16.56	314.82	50.23	-42.1	-44.0	18.2	0.00e+00	0	43	0	0	56	4324
2026-01-16 10:25:17.56	315.16	49.94	-42.6	-44.6	17.6	0.00e+00	0	43	0	0	56	4602
2026-01-16 10:25:18.56	315.50	49.66	-42.9	-44.9	17.4	0.00e+00	0	43	0	0	56	4799
2026-01-16 10:25:19.56	315.82	49.37	-42.7	-44.7	17.6	0.00e+00	0	43	0	0	56	4664
2026-01-16 10:25:20.57	316.15	49.08	-43.1	-45.1	17.3	0.00e+00	0	43	0	0	56	4907
2026-01-16 10:25:21.57	316.46	48.80	-43.4	-45.5	16.8	0.00e+00	0	43	0	0	57	4865
2026-01-16 10:25:22.57	316.77	48.52	-43.3	-45.5	16.9	0.00e+00	0	43	0	0	57	4851
2026-01-16 10:25:23.57	317.07	48.24	-43.0	-45.0	17.3	0.00e+00	0	43	0	0	57	4585
2026-01-16 10:25:24.57	317.37	47.96	-42.4	-44.3	18.0	0.00e+00	0	43	0	0	56	4476
2026-01-16 10:25:25.57	317.67	47.68	-42.2	-44.1	18.2	0.00e+00	0	42	0	0	56	4354
2026-01-16 10:25:26.58	317.96	47.40	-41.9	-43.8	18.3	0.00e+00	0	43	0	0	55	4478
2026-01-16 10:25:27.58	318.24	47.12	-42.5	-44.5	17.6	0.00e+00	0	43	0	0	55	4859
2026-01-16 10:25:28.57	318.52	46.85	-43.5	-45.8	16.5	0.00e+00	0	43	0	0	57	4989
2026-01-16 10:25:29.58	318.79	46.57	-43.7	-46.0	16.4	0.00e+00	0	42	0	0	58	4820
2026-01-16 10:25:30.58	319.06	46.30	-43.3	-45.5	16.8	0.00e+00	0	42	0	0	58	4559
2026-01-16 10:25:31.58	319.32	46.03	-43.4	-45.5	16.7	0.00e+00	0	43	0	0	58	4586
2026-01-16 10:25:32.58	319.58	45.76	-43.3	-45.5	16.8	0.00e+00	0	43	0	0	58	4582
2026-01-16 10:25:33.58	319.84	45.49	-43.4	-45.6	16.6	0.00e+00	0	43	0	0	58	4646
2026-01-16 10:25:34.58	320.09	45.22	-43.3	-45.6	16.7	0.00e+00	0	43	0	0	58	4626
2026-01-16 10:25:35.58	320.34	44.95	-43.5	-45.8	16.5	0.00e+00	0	43	0	0	58	4738
2026-01-16 10:25:36.58	320.58	44.69	-43.5	-45.8	16.5	0.00e+00	0	43	0	0	58	4740
2026-01-16 10:25:37.58	320.82	44.42	-43.6	-45.8	16.4	0.00e+00	0	43	0	0	58	4744
2026-01-16 10:25:38.58	321.05	44.16	-43.5	-45.6	16.7	0.00e+00	0	43	0	0	58	4642
2026-01-16 10:25:39.58	321.29	43.89	-43.1	-45.2	17.2	0.00e+00	0	43	0	0	58	4394
2026-01-16 10:25:40.58	321.51	43.63	-42.8	-44.8	17.4	0.00e+00	0	42	0	0	57	4483
2026-01-16 10:25:41.58	321.74	43.37	-43.0	-45.0	17.2	0.00e+00	0	43	0	0	57	4585
2026-01-16 10:25:42.58	321.96	43.12	-43.5	-45.7	16.5	0.00e+00	0	43	0	0	57	4927
2026-01-16 10:25:43.58	322.17	42.86	-43.6	-45.9	16.3	0.00e+00	0	43	0	0	58	4770
2026-01-16 10:25:44.58	322.39	42.60	-43.7	-45.9	16.3	0.00e+00	0	43	0	0	58	4778
2026-01-16 10:25:45.58	322.60	42.35	-43.4	-45.5	16.8	0.00e+00	0	43	0	0	58	4575
2026-01-16 10:25:46.58	322.81	42.10	-43.1	-45.1	17.2	0.00e+00	0	43	0	0	58	4382
2026-01-16 10:25:47.58	323.01	41.84	-42.6	-44.5	17.8	0.00e+00	0	43	0	0	57	4320
2026-01-16 10:25:48.58	323.21	41.59	-42.4	-44.4	17.9	0.00e+00	0	43	0	0	56	4496
2026-01-16 10:25:49.58	323.41	41.34	-42.6	-44.6	17.7	0.00e+00	0	43	0	0	56	4600
2026-01-16 10:25:50.59	323.61	41.09	-42.4	-44.4	17.8	0.00e+00	0	43	0	0	56	4516
2026-01-16 10:25:51.59	323.80	40.85	-42.6	-44.7	17.5	0.00e+00	0	43	0	0	56	4668
2026-01-16 10:25:52.59	323.99	40.60	-42.8	-44.9	17.2	0.00e+00	0	43	0	0	56	4764
2026-01-16 10:25:53.59	324.17	40.36	-43.1	-45.2	16.7	0.00e+00	0	43	0	0	56	4978
2026-01-16 10:25:54.60	324.36	40.11	-43.5	-45.8	16.3	0.00e+00	0	43	0	0	57	4988
2026-01-16 10:25:55.60	324.54	39.87	-43.8	-46.1	16.1	0.00e+00	0	43	0	0	58	4907
2026-01-16 10:25:56.60	324.72	39.63	-43.7	-46.0	16.3	0.00e+00	0	43	0	0	58	4837
2026-01-16 10:25:57.60	324.89	39.40	-43.6	-45.9	16.5	0.00e+00	0	43	0	0	58	4775
2026-01-16 10:25:58.60	325.07	39.16	-43.3	-45.5	16.8	0.00e+00	0	43	0	0	58	4584
2026-01-16 10:25:59.60	325.24	38.92	-42.8	-44.9	17.3	0.00e+00	0	42	0	0	57	4543
2026-01-16 10:26:00.61	325.41	38.69	-42.5	-44.7	17.4	0.00e+00	0	43	0	0	57	4424
2026-01-16 10:26:01.60	325.57	38.46	-42.6	-44.8	17.3	0.00e+00	0	43	0	0	57	4451
2026-01-16 10:26:02.61	325.74	38.22	-42.3	-44.5	17.6	0.00e+00	0	43	0	0	56	4554
2026-01-16 10:26:03.61	325.90	37.99	-42.1	-44.2	17.9	0.00e+00	0	43	0	0	56	4424
2026-01-16 10:26:04.61	326.06	37.76	-42.2	-44.2	18.0	0.00e+00	0	43	0	0	56	4409
2026-01-16 10:26:05.61	326.22	37.54	-42.1	-44.0	18.2	0.00e+00	0	43	0	0	56	4337
2026-01-16 10:26:06.61	326.37	37.31	-42.0	-43.9	18.3	0.00e+00	0	43	0	0	56	4282
2026-01-16 10:26:07.61	326.52	37.08	-41.7	-43.5	18.5	0.00e+00	0	43	0	0	55	4336
2026-01-16 10:26:08.61	326.67	36.86	-41.8	-43.7	18.3	0.00e+00	0	43	0	0	55	4430
2026-01-16 10:26:09.61	326.82	36.64	-41.9	-43.8	18.2	0.00e+00	0	43	0	0	55	4475
2026-01-16 10:26:10.61	326.97	36.42	-42.0	-44.0	18.0	0.00e+00	0	42	0	0	55	4569
2026-01-16 10:26:11.61	327.12	36.20	-42.2	-44.2	17.7	0.00e+00	0	43	0	0	55	4700
2026-01-16 10:26:12.61	327.26	35.98	-42.1	-44.2	17.7	0.00e+00	0	42	0	0	55	4656
2026-01-16 10:26:13.61	327.40	35.76	-42.0	-44.0	17.8	0.00e+00	0	43	0	0	55	4591
2026-01-16 10:26:14.62	327.54	35.54	-41.9	-44.0	17.9	0.00e+00	0	43	0	0	55	4553
2026-01-16 10:26:15.62	327.68	35.33	-41.8	-43.9	17.9	0.00e+00	0	43	0	0	55	4508
2026-01-16 10:26:16.62	327.82	35.12	-41.8	-43.9	18.0	0.00e+00	0	43	0	0	55	4502
2026-01-16 10:26:17.62	327.95	34.91	-41.9	-44.0	18.0	0.00e+00	0	43	0	0	55	4567
2026-01-16 10:26:18.62	328.08	34.69	-41.8	-43.8	18.1	0.00e+00	0	43	0	0	55	4465
2026-01-16 10:26:19.62	328.21	34.49	-41.7	-43.6	18.3	0.00e+00	0	43	0	0	55	4370
2026-01-16 10:26:20.62	328.34	34.28	-41.5	-43.3	18.6	0.00e+00	0	43	0	0	54	4489
2026-01-16 10:26:21.62	328.47	34.07	-41.6	-43.5	18.4	0.00e+00	0	43	0	0	54	4574
2026-01-16 10:26:22.62	328.60	33.86	-41.7	-43.6	18.3	0.00e+00	0	43	0	0	54	4641
2026-01-16 10:26:23.62	328.72	33.66	-41.5	-43.4	18.6	0.00e+00	0	43	0	0	54	4505
2026-01-16 10:26:24.62	328.84	33.46	-41.2	-43.0	19.0	0.00e+00	0	43	0	0	54	4323
2026-01-16 10:26:25.63	328.97	33.25	-41.1	-42.9	19.1	0.00e+00	0	43	0	0	54	4254
2026-01-16 10:26:26.63	329.09	33.05	-40.9	-42.7	19.2	0.00e+00	0	43	0	0	53	4414
2026-01-16 10:26:27.63	329.21	32.85	-40.7	-42.5	19.4	0.00e+00	0	43	0	0	53	4308
2026-01-16 10:26:28.63	329.32	32.65	-40.6	-42.4	19.5	0.00e+00	0	43	0	0	53	4268
2026-01-16 10:26:29.63	329.44	32.46	-40.7	-42.5	19.4	0.00e+00	0	43	0	0	53	4294
2026-01-16 10:26:30.63	329.55	32.26	-40.4	-42.2	19.7	0.00e+00	0	43	0	0	52	4407
2026-01-16 10:26:31.63	329.67	32.07	-40.3	-42.1	19.8	0.00e+00	0	43	0	0	52	4348
2026-01-16 10:26:32.63	329.78	31.87	-40.4	-42.2	19.7	0.00e+00	0	43	0	0	52	4423
2026-01-16 10:26:33.63	329.89	31.68	-40.5	-42.3	19.6	0.00e+00	0	43	0	0	52	4465
2026-01-16 10:26:34.63	330.00	31.49	-40.7	-42.5	19.4	0.00e+00	0	43	0	0	52	4559
2026-01-16 10:26:35.63	330.11	31.30	-40.8	-42.6	19.3	0.00e+00	0	43	0	0	52	4639
2026-01-16 10:26:36.63	330.22	31.11	-40.7	-42.5	19.4	0.00e+00	0	43	0	0	52	4579
2026-01-16 10:26:37.63	330.32	30.92	-40.6	-42.5	19.4	0.00e+00	0	43	0	0	52	4550
2026-01-16 10:26:38.64	330.43	30.73	-40.4	-42.3	19.6	0.00e+00	0	42	0	0	52	4451
2026-01-16 10:26:39.64	330.53	30.55	-40.3	-42.2	19.6	0.00e+00	0	43	0	0	52	4399
2026-01-16 10:26:40.64	330.63	30.36	-40.4	-42.2	19.6	0.00e+00	0	42	0	0	52	4441
2026-01-16 10:26:41.64	330.74	30.18	-40.2	-41.9	19.8	0.00e+00	0	43	0	0	52	4286
2026-01-16 10:26:42.64	330.84	30.00	-40.0	-41.8	19.9	0.00e+00	0	43	0	0	52	4205
2026-01-16 10:26:43.64	330.93	29.81	-40.0	-41.7	20.0	0.00e+00	0	43	0	0	51	4417
2026-01-16 10:26:44.64	331.03	29.63	-40.0	-41.7	19.9	0.00e+00	0	43	0	0	51	4440
2026-01-16 10:26:45.64	331.13	29.46	-40.0	-41.7	19.9	0.00e+00	0	43	0	0	51	4426
2026-01-16 10:26:46.64	331.23	29.28	-40.1	-41.8	19.8	0.00e+00	0	43	0	0	51	4468
2026-01-16 10:26:47.64	331.32	29.10	-40.2	-41.9	19.8	0.00e+00	0	43	0	0	51	4525
2026-01-16 10:26:48.64	331.41	28.92	-40.3	-42.1	19.7	0.00e+00	0	43	0	0	51	4601
2026-01-16 10:26:49.65	331.51	28.75	-40.3	-42.1	19.7	0.00e+00	0	43	0	0	51	4612
2026-01-16 10:26:50.65	331.60	28.57	-40.4	-42.1	19.7	0.00e+00	0	43	0	0	51	4643
2026-01-16 10:26:51.65	331.69	28.40	-40.4	-42.2	19.7	0.00e+00	0	43	0	0	51	4665
2026-01-16 10:26:52.65	331.78	28.23	-40.4	-42.2	19.7	0.00e+00	0	43	0	0	51	4698
2026-01-16 10:26:53.65	331.87	28.06	-40.4	-42.2	19.7	0.00e+00	0	43	0	0	51	4670
2026-01-16 10:26:54.65	331.96	27.89	-40.2	-42.0	19.8	0.00e+00	0	43	0	0	51	4591
2026-01-16 10:26:55.65	332.05	27.72	-40.0	-41.8	20.0	0.00e+00	0	42	0	0	51	4481
2026-01-16 10:26:56.66	332.13	27.55	-40.0	-41.8	20.0	0.00e+00	0	42	0	0	51	4489
2026-01-16 10:26:57.66	332.22	27.38	-40.0	-41.9	20.0	0.00e+00	0	43	0	0	51	4496
2026-01-16 10:26:58.66	332.31	27.21	-40.1	-42.0	19.9	0.00e+00	0	43	0	0	51	4548
2026-01-16 10:26:59.66	332.39	27.05	-40.2	-42.1	19.8	0.00e+00	0	43	0	0	51	4599
2026-01-16 10:27:00.67	332.47	26.88	-40.3	-42.1	19.8	0.00e+00	0	42	0	0	51	4621
2026-01-16 10:27:01.66	332.56	26.72	-40.4	-42.2	19.7	0.00e+00	0	43	0	0	51	4665
2026-01-16 10:27:02.67	332.64	26.56	-40.4	-42.2	19.7	0.00e+00	0	43	0	0	51	4681
2026-01-16 10:27:03.67	332.72	26.40	-40.4	-42.2	19.6	0.00e+00	0	43	0	0	51	4687
2026-01-16 10:27:04.67	332.80	26.23	-40.4	-42.2	19.6	0.00e+00	0	43	0	0	51	4669
2026-01-16 10:27:05.67	332.88	26.08	-40.4	-42.2	19.6	0.00e+00	0	43	0	0	51	4662
2026-01-16 10:27:06.67	332.96	25.92	-40.6	-42.3	19.5	0.00e+00	0	43	0	0	51	4731
2026-01-16 10:27:07.67	333.03	25.76	-40.3	-42.1	19.6	0.00e+00	0	43	0	0	51	4607
2026-01-16 10:27:08.67	333.11	25.60	-40.4	-42.2	19.5	0.00e+00	0	43	0	0	51	4658
2026-01-16 10:27:09.68	333.19	25.44	-40.4	-42.2	19.5	0.00e+00	0	43	0	0	51	4677
2026-01-16 10:27:10.68	333.26	25.29	-40.4	-42.2	19.4	0.00e+00	0	43	0	0	51	4659
2026-01-16 10:27:11.69	333.34	25.13	-40.4	-42.1	19.5	0.00e+00	0	43	0	0	51	4644
2026-01-16 10:27:12.68	333.41	24.98	-40.4	-42.1	19.4	0.00e+00	0	43	0	0	51	4645
2026-01-16 10:27:13.68	333.49	24.83	-40.3	-42.1	19.5	0.00e+00	0	43	0	0	51	4637
2026-01-16 10:27:14.68	333.56	24.68	-40.4	-42.2	19.4	0.00e+00	0	43	0	0	51	4677
2026-01-16 10:27:15.68	333.63	24.52	-40.5	-42.3	19.3	0.00e+00	0	43	0	0	51	4723
2026-01-16 10:27:16.69	333.70	24.37	-40.3	-42.1	19.5	0.00e+00	0	43	0	0	51	4642
2026-01-16 10:27:17.69	333.78	24.22	-40.2	-42.0	19.6	0.00e+00	0	43	0	0	51	4571
2026-01-16 10:27:18.69	333.85	24.07	-40.3	-42.1	19.5	0.00e+00	0	43	0	0	51	4599
2026-01-16 10:27:19.69	333.92	23.93	-40.1	-41.9	19.7	0.00e+00	0	43	0	0	51	4539
2026-01-16 10:27:20.69	333.98	23.78	-40.2	-42.0	19.6	0.00e+00	0	43	0	0	51	4567
2026-01-16 10:27:21.69	334.05	23.63	-40.1	-41.9	19.7	0.00e+00	0	43	0	0	51	4514
2026-01-16 10:27:22.69	334.12	23.49	-40.1	-42.0	19.6	0.00e+00	0	43	0	0	51	4553
2026-01-16 10:27:23.69	334.19	23.34	-40.1	-41.9	19.7	0.00e+00	0	43	0	0	51	4520
2026-01-16 10:27:24.70	334.26	23.20	-40.2	-42.0	19.7	0.00e+00	0	42	0	0	51	4555
2026-01-16 10:27:25.70	334.32	23.06	-40.2	-41.9	19.7	0.00e+00	0	43	0	0	51	4537
2026-01-16 10:27:26.70	334.39	22.91	-40.1	-41.9	19.8	0.00e+00	0	43	0	0	51	4498
2026-01-16 10:27:27.70	334.45	22.77	-40.1	-41.9	19.8	0.00e+00	0	43	0	0	51	4503
2026-01-16 10:27:28.70	334.52	22.63	-40.1	-41.8	19.9	0.00e+00	0	43	0	0	51	4487
2026-01-16 10:27:29.71	334.58	22.49	-40.1	-41.8	19.9	0.00e+00	0	42	0	0	51	4493
2026-01-16 10:27:30.71	334.64	22.35	-40.0	-41.7	19.9	0.00e+00	0	43	0	0	51	4439
2026-01-16 10:27:31.71	334.71	22.21	-40.0	-41.7	19.9	0.00e+00	0	43	0	0	51	4431
2026-01-16 10:27:32.71	334.77	22.07	-40.0	-41.7	19.9	0.00e+00	0	43	0	0	51	4441
2026-01-16 10:27:33.71	334.83	21.94	-40.1	-41.8	19.8	0.00e+00	0	43	0	0	51	4477
2026-01-16 10:27:34.71	334.89	21.80	-40.1	-41.9	19.7	0.00e+00	0	43	0	0	51	4512
2026-01-16 10:27:35.72	334.95	21.66	-40.2	-42.0	19.6	0.00e+00	0	43	0	0	51	4588
2026-01-16 10:27:36.72	335.01	21.53	-40.3	-42.1	19.6	0.00e+00	0	43	0	0	51	4614
2026-01-16 10:27:37.72	335.07	21.39	-40.3	-42.2	19.5	0.00e+00	0	43	0	0	51	4652
2026-01-16 10:27:38.72	335.13	21.26	-40.3	-42.1	19.5	0.00e+00	0	43	0	0	51	4645
2026-01-16 10:27:39.72	335.19	21.13	-40.4	-42.3	19.4	0.00e+00	0	43	0	0	51	4731
2026-01-16 10:27:40.72	335.25	20.99	-40.4	-42.4	19.3	0.00e+00	0	43	0	0	51	4761
2026-01-16 10:27:41.72	335.31	20.86	-40.6	-42.6	19.2	0.00e+00	0	42	0	0	51	4882
2026-01-16 10:27:42.72	335.37	20.73	-40.6	-42.5	19.2	0.00e+00	0	43	0	0	52	4584
2026-01-16 10:27:43.72	335.42	20.60	-40.5	-42.5	19.2	0.00e+00	0	43	0	0	52	4568
2026-01-16 10:27:44.72	335.48	20.47	-40.5	-42.4	19.3	0.00e+00	0	43	0	0	52	4535
2026-01-16 10:27:45.72	335.54	20.34	-40.6	-42.5	19.2	0.00e+00	0	42	0	0	52	4560
2026-01-16 10:27:46.72	335.59	20.21	-40.6	-42.5	19.2	0.00e+00	0	43	0	0	52	4578
2026-01-16 10:27:47.72	335.65	20.09	-40.6	-42.5	19.2	0.00e+00	0	43	0	0	52	4558
2026-01-16 10:27:48.72	335.70	19.96	-40.6	-42.4	19.3	0.00e+00	0	43	0	0	52	4542
2026-01-16 10:27:49.72	335.76	19.83	-40.5	-42.4	19.3	0.00e+00	0	43	0	0	52	4524
2026-01-16 10:27:50.72	335.81	19.71	-40.5	-42.4	19.3	0.00e+00	0	43	0	0	52	4498
2026-01-16 10:27:51.72	335.86	19.58	-40.3	-42.2	19.5	0.00e+00	0	43	0	0	52	4405
2026-01-16 10:27:52.72	335.92	19.46	-40.3	-42.2	19.5	0.00e+00	0	42	0	0	52	4424
2026-01-16 10:27:53.72	335.97	19.33	-40.2	-42.1	19.5	0.00e+00	0	43	0	0	52	4385
2026-01-16 10:27:54.72	336.02	19.21	-40.3	-42.2	19.4	0.00e+00	0	43	0	0	52	4411
2026-01-16 10:27:55.72	336.08	19.09	-40.3	-42.2	19.5	0.00e+00	0	43	0	0	52	4401
2026-01-16 10:27:56.72	336.13	18.96	-40.3	-42.2	19.4	0.00e+00	0	43	0	0	52	4413
2026-01-16 10:27:57.72	336.18	18.84	-40.4	-42.3	19.4	0.00e+00	0	43	0	0	52	4450
2026-01-16 10:27:58.72	336.23	18.72	-40.3	-42.2	19.4	0.00e+00	0	43	0	0	52	4416
2026-01-16 10:27:59.72	336.28	18.60	-40.4	-42.3	19.3	0.00e+00	0	43	0	0	52	4481
2026-01-16 10:28:00.72	336.33	18.48	-40.5	-42.4	19.2	0.00e+00	0	43	0	0	52	4517
2026-01-16 10:28:01.72	336.38	18.36	-40.6	-42.4	19.2	0.00e+00	0	43	0	0	52	4541
2026-01-16 10:28:02.72	336.43	18.24	-40.6	-42.5	19.1	0.00e+00	0	43	0	0	52	4578
2026-01-16 10:28:03.72	336.48	18.12	-40.7	-42.6	19.1	0.00e+00	0	43	0	0	52	4621
2026-01-16 10:28:04.73	336.53	18.01	-40.9	-42.7	19.0	0.00e+00	0	42	0	0	52	4691
2026-01-16 10:28:05.72	336.58	17.89	-40.8	-42.7	19.0	0.00e+00	0	43	0	0	52	4681
2026-01-16 10:28:06.72	336.62	17.77	-40.8	-42.7	19.0	0.00e+00	0	43	0	0	52	4666
2026-01-16 10:28:07.72	336.67	17.66	-40.9	-42.7	19.0	0.00e+00	0	43	0	0	52	4694
2026-01-16 10:28:08.72	336.72	17.54	-40.9	-42.8	19.0	0.00e+00	0	43	0	0	52	4729
2026-01-16 10:28:09.72	336.77	17.43	-40.8	-42.7	19.0	0.00e+00	0	43	0	0	52	4691
2026-01-16 10:28:10.73	336.81	17.31	-40.9	-42.8	19.0	0.00e+00	0	43	0	0	52	4726
2026-01-16 10:28:11.73	336.86	17.20	-40.9	-42.8	19.0	0.00e+00	0	43	0	0	52	4708
2026-01-16 10:28:12.73	336.91	17.08	-40.9	-42.8	19.0	0.00e+00	0	43	0	0	52	4736
2026-01-16 10:28:13.73	336.95	16.97	-41.0	-42.9	18.9	0.00e+00	0	43	0	0	52	4808
2026-01-16 10:28:14.73	337.00	16.86	-40.8	-42.7	19.0	0.00e+00	0	43	0	0	52	4689
2026-01-16 10:28:15.74	337.04	16.74	-40.9	-42.8	18.9	0.00e+00	0	43	0	0	52	4746
2026-01-16 10:28:16.74	337.09	16.63	-40.9	-42.8	18.9	0.00e+00	0	43	0	0	52	4750
2026-01-16 10:28:17.74	337.13	16.52	-40.9	-42.7	19.0	0.00e+00	0	43	0	0	52	4705
2026-01-16 10:28:18.74	337.18	16.41	-41.0	-42.8	18.9	0.00e+00	0	43	0	0	52	4742
2026-01-16 10:28:19.74	337.22	16.30	-40.9	-42.8	18.9	0.00e+00	0	43	0	0	52	4734
2026-01-16 10:28:20.74	337.26	16.19	-41.0	-42.9	18.8	0.00e+00	0	43	0	0	52	4787
2026-01-16 10:28:21.74	337.31	16.08	-41.0	-42.9	18.9	0.00e+00	0	43	0	0	52	4760
2026-01-16 10:28:22.74	337.35	15.97	-41.0	-42.9	18.9	0.00e+00	0	43	0	0	52	4767
2026-01-16 10:28:23.75	337.39	15.87	-41.2	-43.1	18.7	0.00e+00	0	43	0	0	53	4617
2026-01-16 10:28:24.75	337.44	15.76	-41.3	-43.2	18.6	0.00e+00	0	43	0	0	53	4673
2026-01-16 10:28:25.75	337.48	15.65	-41.2	-43.1	18.6	0.00e+00	0	43	0	0	53	4634
2026-01-16 10:28:26.75	337.52	15.54	-41.2	-43.1	18.7	0.00e+00	0	43	0	0	53	4604
2026-01-16 10:28:27.75	337.56	15.44	-41.2	-43.1	18.6	0.00e+00	0	43	0	0	53	4648
2026-01-16 10:28:28.75	337.60	15.33	-41.2	-43.1	18.6	0.00e+00	0	43	0	0	53	4636
2026-01-16 10:28:29.75	337.65	15.23	-41.2	-43.2	18.6	0.00e+00	0	43	0	0	53	4665
2026-01-16 10:28:30.75	337.69	15.12	-41.1	-43.1	18.7	0.00e+00	0	43	0	0	53	4612
2026-01-16 10:28:31.75	337.73	15.02	-41.2	-43.2	18.6	0.00e+00	0	43	0	0	53	4660
2026-01-16 10:28:32.74	337.77	14.91	-41.1	-43.1	18.6	0.00e+00	0	43	0	0	53	4642
2026-01-16 10:28:33.74	337.81	14.81	-41.1	-43.1	18.7	0.00e+00	0	43	0	0	53	4608
2026-01-16 10:28:34.73	337.85	14.71	-41.1	-43.1	18.6	0.00e+00	0	43	0	0	53	4637
2026-01-16 10:28:35.73	337.89	14.61	-41.1	-43.1	18.6	0.00e+00	0	43	0	0	53	4622
2026-01-16 10:28:36.72	337.93	14.50	-41.0	-43.1	18.7	0.00e+00	0	43	0	0	53	4605
2026-01-16 10:28:37.71	337.97	14.40	-41.0	-43.0	18.7	0.00e+00	0	43	0	0	53	4568
2026-01-16 10:28:38.71	338.00	14.30	-41.1	-43.1	18.6	0.00e+00	0	42	0	0	53	4621
2026-01-16 10:28:39.70	338.04	14.20	-41.1	-43.1	18.6	0.00e+00	0	43	0	0	53	4640
2026-01-16 10:28:40.70	338.08	14.10	-41.1	-43.1	18.6	0.00e+00	0	43	0	0	53	4629
2026-01-16 10:28:41.69	338.12	14.00	-41.0	-43.0	18.7	0.00e+00	0	43	0	0	53	4551
2026-01-16 10:28:42.68	338.16	13.90	-41.0	-43.1	18.6	0.00e+00	0	43	0	0	53	4603
2026-01-16 10:28:43.68	338.19	13.80	-41.1	-43.1	18.6	0.00e+00	0	43	0	0	53	4620
2026-01-16 10:28:44.67	338.23	13.71	-41.1	-43.1	18.6	0.00e+00	0	43	0	0	53	4620
2026-01-16 10:28:45.67	338.27	13.61	-41.1	-43.2	18.5	0.00e+00	0	43	0	0	53	4660
2026-01-16 10:28:46.66	338.31	13.51	-41.2	-43.3	18.4	0.00e+00	0	43	0	0	53	4722
2026-01-16 10:28:47.66	338.34	13.41	-41.2	-43.3	18.4	0.00e+00	0	43	0	0	53	4722
2026-01-16 10:28:48.65	338.38	13.31	-41.1	-43.2	18.5	0.00e+00	0	43	0	0	53	4673
2026-01-16 10:28:49.64	338.42	13.22	-41.2	-43.4	18.3	0.00e+00	0	43	0	0	53	4763
2026-01-16 10:28:50.64	338.45	13.12	-41.1	-43.2	18.4	0.00e+00	0	43	0	0	53	4693
2026-01-16 10:28:51.63	338.49	13.03	-41.2	-43.4	18.3	0.00e+00	0	43	0	0	53	4808
2026-01-16 10:28:52.63	338.52	12.93	-41.1	-43.3	18.4	0.00e+00	0	43	0	0	53	4721
2026-01-16 10:28:53.62	338.56	12.84	-41.1	-43.2	18.4	0.00e+00	0	43	0	0	53	4697
2026-01-16 10:28:54.62	338.60	12.74	-41.1	-43.3	18.4	0.00e+00	0	43	0	0	53	4708
2026-01-16 10:28:55.61	338.63	12.65	-41.1	-43.2	18.4	0.00e+00	0	43	0	0	53	4699
2026-01-16 10:28:56.60	338.66	12.55	-41.2	-43.3	18.3	0.00e+00	0	42	0	0	53	4734
2026-01-16 10:28:57.60	338.70	12.46	-41.3	-43.4	18.3	0.00e+00	0	43	0	0	53	4791
2026-01-16 10:28:58.60	338.73	12.36	-41.4	-43.4	18.2	0.00e+00	0	43	0	0	53	4806
2026-01-16 10:28:59.59	338.77	12.27	-41.4	-43.4	18.2	0.00e+00	0	43	0	0	53	4800
2026-01-16 10:29:00.58	338.80	12.18	-41.3	-43.3	18.4	0.00e+00	0	43	0	0	53	4719
2026-01-16 10:29:01.58	338.84	12.09	-41.3	-43.3	18.3	0.00e+00	0	43	0	0	53	4724
2026-01-16 10:29:02.57	338.87	12.00	-41.4	-43.3	18.3	0.00e+00	0	43	0	0	53	4755
2026-01-16 10:29:03.57	338.90	11.90	-41.3	-43.3	18.3	0.00e+00	0	43	0	0	53	4734
2026-01-16 10:29:04.57	338.94	11.81	-41.4	-43.5	18.2	0.00e+00	0	43	0	0	53	4817
2026-01-16 10:29:05.56	338.97	11.72	-41.3	-43.3	18.3	0.00e+00	0	42	0	0	53	4740
2026-01-16 10:29:06.56	339.00	11.63	-41.3	-43.4	18.2	0.00e+00	0	42	0	0	53	4801
2026-01-16 10:29:07.55	339.04	11.54	-41.3	-43.4	18.2	0.00e+00	0	43	0	0	53	4811
2026-01-16 10:29:08.55	339.07	11.45	-41.3	-43.3	18.3	0.00e+00	0	43	0	0	53	4758
2026-01-16 10:29:09.54	339.10	11.36	-41.2	-43.3	18.3	0.00e+00	0	43	0	0	53	4751
2026-01-16 10:29:10.54	339.14	11.27	-41.2	-43.4	18.3	0.00e+00	0	43	0	0	53	4762
2026-01-16 10:29:11.53	339.17	11.18	-41.3	-43.5	18.2	0.00e+00	0	43	0	0	53	4815
2026-01-16 10:29:12.53	339.20	11.09	-41.2	-43.3	18.3	0.00e+00	0	43	0	0	53	4734
2026-01-16 10:29:13.52	339.23	11.00	-41.2	-43.3	18.4	0.00e+00	0	43	0	0	53	4717
2026-01-16 10:29:14.52	339.26	10.92	-41.4	-43.4	18.2	0.00e+00	0	43	0	0	53	4813
2026-01-16 10:29:15.51	339.29	10.83	-41.3	-43.4	18.3	0.00e+00	0	43	0	0	53	4761
2026-01-16 10:29:16.50	339.33	10.74	-41.3	-43.3	18.3	0.00e+00	0	43	0	0	53	4745
2026-01-16 10:29:17.50	339.36	10.65	-41.4	-43.4	18.2	0.00e+00	0	43	0	0	53	4802
2026-01-16 10:29:18.49	339.39	10.57	-41.4	-43.4	18.2	0.00e+00	0	43	0	0	53	4801
2026-01-16 10:29:19.49	339.42	10.48	-41.6	-43.6	18.0	0.00e+00	0	43	0	0	53	4893
2026-01-16 10:29:20.48	339.45	10.39	-41.4	-43.4	18.3	0.00e+00	0	43	0	0	53	4775
2026-01-16 10:29:21.47	339.48	10.31	-41.5	-43.4	18.2	0.00e+00	0	43	0	0	53	4806
2026-01-16 10:29:22.47	339.51	10.22	-41.4	-43.3	18.2	0.00e+00	0	43	0	0	53	4759
2026-01-16 10:29:23.46	339.54	10.14	-41.4	-43.4	18.2	0.00e+00	0	43	0	0	53	4776
2026-01-16 10:29:24.45	339.57	10.05	-41.5	-43.5	18.1	0.00e+00	0	43	0	0	53	4841
2026-01-16 10:29:25.45	339.60	9.97	-41.4	-43.4	18.2	0.00e+00	0	43	0	0	53	4780
2026-01-16 10:29:26.44	339.63	9.88	-41.4	-43.4	18.2	0.00e+00	0	43	0	0	53	4780
2026-01-16 10:29:27.44	339.66	9.80	-41.4	-43.5	18.1	0.00e+00	0	43	0	0	53	4850
2026-01-16 10:29:28.43	339.69	9.72	-41.4	-43.5	18.1	0.00e+00	0	43	0	0	53	4819
2026-01-16 10:29:29.42	339.72	9.63	-41.5	-43.5	18.1	0.00e+00	0	43	0	0	53	4855
2026-01-16 10:29:30.42	339.75	9.55	-41.4	-43.4	18.1	0.00e+00	0	43	0	0	53	4810
2026-01-16 10:29:31.41	339.78	9.47	-41.5	-43.5	18.0	0.00e+00	0	43	0	0	53	4861
2026-01-16 10:29:32.41	339.81	9.38	-41.5	-43.6	18.0	0.00e+00	0	43	0	0	53	4896
2026-01-16 10:29:33.40	339.84	9.30	-41.5	-43.6	18.0	0.00e+00	0	43	0	0	53	4878
2026-01-16 10:29:34.40	339.86	9.22	-41.6	-43.7	17.9	0.00e+00	0	43	0	0	53	4937
2026-01-16 10:29:35.39	339.89	9.14	-41.6	-43.7	17.9	0.00e+00	0	43	0	0	54	4655
2026-01-16 10:29:36.39	339.92	9.05	-41.7	-43.7	17.8	0.00e+00	0	43	0	0	54	4701
2026-01-16 10:29:37.38	339.95	8.97	-41.6	-43.6	17.9	0.00e+00	0	43	0	0	54	4648
2026-01-16 10:29:38.37	339.98	8.89	-48.7	-63.0	3.8	1.10e+00	0	43	104	0	69	18229
2026-01-16 10:29:39.37	340.01	8.81	-49.1	-63.5	3.8	1.49e+00	0	43	104	0	68	20319
2026-01-16 10:29:40.36	340.03	8.73	-50.0	-63.6	3.8	1.49e+00	0	43	104	0	71	17398
2026-01-16 10:29:41.35	340.06	8.65	-49.3	-63.7	3.8	1.49e+00	0	43	104	0	70	18641
2026-01-16 10:29:42.34	340.09	8.57	-49.7	-63.7	3.8	1.49e+00	0	43	104	0	71	17650
2026-01-16 10:29:43.34	340.12	8.49	-50.5	-63.8	3.8	1.49e+00	0	43	104	0	71	17809
2026-01-16 10:29:44.33	340.14	8.41	-50.4	-63.9	3.8	1.49e+00	0	43	104	0	71	17916
2026-01-16 10:29:45.32	340.17	8.33	-50.4	-63.9	3.8	1.49e+00	0	43	104	0	71	18038
2026-01-16 10:29:46.32	340.20	8.25	-50.5	-63.9	3.8	1.49e+00	0	43	104	0	72	16981
2026-01-16 10:29:47.31	340.23	8.17	-50.6	-63.9	3.8	1.49e+00	0	43	104	0	72	16922
2026-01-16 10:29:48.30	340.25	8.09	-50.8	-63.9	3.8	1.49e+00	0	43	104	0	72	16986
2026-01-16 10:29:49.30	340.28	8.02	-50.8	-63.9	3.8	1.49e+00	0	42	104	0	72	17051
2026-01-16 10:29:50.29	340.31	7.94	-50.4	-64.0	3.8	1.49e+00	0	43	104	0	72	17151
2026-01-16 10:29:51.28	340.33	7.86	-50.7	-64.0	3.8	1.49e+00	0	43	104	0	72	17107
2026-01-16 10:29:52.28	340.36	7.78	-50.7	-64.0	3.8	1.49e+00	0	43	104	0	72	17151
2026-01-16 10:29:53.27	340.38	7.70	-50.9	-64.0	3.8	1.49e+00	0	43	104	0	72	17125
2026-01-16 10:29:54.26	340.41	7.63	-50.8	-63.9	3.8	1.49e+00	0	43	104	0	72	17078
2026-01-16 10:29:55.26	340.44	7.55	-51.0	-64.0	3.8	1.49e+00	0	43	104	0	72	17174
2026-01-16 10:29:56.25	340.46	7.47	-51.0	-64.0	3.8	1.49e+00	0	43	104	0	72	17103
2026-01-16 10:29:57.24	340.49	7.40	-51.0	-63.9	3.8	1.49e+00	0	43	104	0	72	17055
2026-01-16 10:29:58.24	340.51	7.32	-50.9	-64.0	3.8	1.49e+00	0	43	104	0	72	17105
2026-01-16 10:29:59.23	340.54	7.25	-50.8	-64.0	3.8	1.49e+00	0	43	104	0	72	17098
2026-01-16 10:30:00.22	340.57	7.17	-50.9	-63.9	3.8	1.49e+00	0	43	104	0	72	17047
2026-01-16 10:30:01.22	340.59	7.09	-50.9	-63.9	3.8	1.49e+00	0	43	104	0	72	17059
2026-01-16 10:30:02.21	340.62	7.02	-50.7	-64.0	3.8	1.49e+00	0	43	104	0	72	17087
2026-01-16 10:30:03.20	340.64	6.94	-50.8	-63.9	3.8	1.49e+00	0	43	104	0	72	17083
2026-01-16 10:30:04.19	340.67	6.87	-50.6	-63.9	3.8	1.49e+00	0	43	104	0	72	17021
2026-01-16 10:30:05.19	340.69	6.79	-50.5	-63.9	3.8	1.49e+00	0	43	104	0	72	17006
2026-01-16 10:30:06.18	340.72	6.72	-50.5	-63.9	3.8	1.49e+00	0	43	104	0	72	16943
2026-01-16 10:30:07.17	340.74	6.64	-50.5	-63.9	3.8	1.49e+00	0	43	104	0	72	17026
