passes_logs/2026/01/16/T1/T1__20260116_012435_AQUA_rec.log

#Pass ID: 20260116_012435_AQUA
#Satellite: AQUA
#Configuration: AQUA
#almurnet v.1.7.20251203
#Start time: 2026-01-16 01:24:36

#Version: 2.0.20230620
#Station: T1
#Location: 37.570604 lon 55.790049 lat
#TLE: 1 27424U 02022A   26015.51279194  .00000651  00000+0  14022-3 0  9990
#TLE: 2 27424  98.4082 341.9487 0002034  77.6776  33.2672 14.61821775260965

#Time	Az	El	Level	Level2	SNR	BER	BlckErr	Temp	State	Recorded	gain1	gain2
2026-01-16 01:24:36.27	15.46	5.07	-47.0	-69.0	3.8	7.45e-01	0	41	0	0	65	45938
2026-01-16 01:24:37.26	15.47	5.15	-47.0	-70.2	3.8	7.46e-01	0	41	104	0	64	55293
2026-01-16 01:24:38.26	15.47	5.22	-47.0	-70.3	3.8	7.45e-01	0	41	104	0	64	55945
2026-01-16 01:24:39.25	15.47	5.30	-47.0	-70.2	3.8	7.44e-01	0	41	104	0	64	55295
2026-01-16 01:24:40.24	15.47	5.37	-47.0	-69.8	3.8	7.42e-01	0	41	104	0	64	53230
2026-01-16 01:24:41.24	15.47	5.45	-47.0	-69.4	3.8	7.42e-01	0	41	104	0	64	50763
2026-01-16 01:24:42.23	15.47	5.52	-47.0	-68.8	3.9	7.43e-01	0	41	104	0	64	47547
2026-01-16 01:24:43.22	15.47	5.60	-47.0	-68.1	4.1	7.39e-01	0	41	104	0	64	43904
2026-01-16 01:24:44.22	15.47	5.68	-47.0	-67.8	4.1	7.40e-01	0	41	104	0	64	42117
2026-01-16 01:24:45.21	15.47	5.75	-47.0	-67.6	4.2	7.35e-01	0	41	104	0	64	41447
2026-01-16 01:24:46.20	15.47	5.83	-47.0	-67.8	4.0	7.34e-01	0	41	104	0	64	41966
2026-01-16 01:24:47.20	15.47	5.91	-47.0	-68.2	3.8	7.45e-01	0	41	104	0	64	44354
2026-01-16 01:24:48.19	15.48	5.98	-47.0	-68.1	4.1	7.39e-01	0	41	104	0	64	43906
2026-01-16 01:24:49.18	15.48	6.06	-47.0	-68.5	4.0	7.38e-01	0	41	104	0	64	45642
2026-01-16 01:24:50.17	15.48	6.14	-47.0	-69.0	3.8	7.46e-01	0	41	104	0	64	48239
2026-01-16 01:24:51.17	15.48	6.21	-47.0	-69.0	3.8	7.44e-01	0	42	104	0	64	48401
2026-01-16 01:24:52.16	15.48	6.29	-47.0	-68.4	4.1	7.39e-01	0	42	104	0	64	45422
2026-01-16 01:24:53.15	15.48	6.37	-47.0	-68.0	4.1	7.36e-01	0	41	104	0	64	42999
2026-01-16 01:24:54.15	15.48	6.45	-47.0	-67.5	4.2	7.32e-01	0	42	104	0	64	40768
2026-01-16 01:24:55.14	15.48	6.53	-47.0	-67.5	4.2	7.42e-01	0	42	104	0	64	40611
2026-01-16 01:24:56.13	15.48	6.61	-47.0	-67.0	4.4	7.25e-01	0	42	104	0	64	38315
2026-01-16 01:24:57.13	15.48	6.69	-47.0	-67.2	4.1	7.34e-01	0	42	104	0	64	39437
2026-01-16 01:24:58.12	15.48	6.77	-47.0	-68.1	3.9	7.45e-01	0	41	104	0	64	43672
2026-01-16 01:24:59.11	15.48	6.85	-47.0	-68.8	3.9	7.46e-01	0	42	104	0	64	47089
2026-01-16 01:25:00.10	15.48	6.93	-47.0	-70.0	3.8	7.46e-01	0	42	104	0	64	54229
2026-01-16 01:25:01.10	15.48	7.01	-47.0	-70.8	3.8	7.47e-01	0	42	104	0	64	59259
2026-01-16 01:25:02.09	15.48	7.09	-47.0	-70.5	3.8	7.45e-01	0	42	104	0	64	57251
2026-01-16 01:25:03.08	15.49	7.17	-47.0	-68.4	4.1	7.37e-01	0	42	104	0	64	45318
2026-01-16 01:25:04.08	15.49	7.25	-47.0	-66.5	3.9	7.37e-01	0	42	104	0	64	36486
2026-01-16 01:25:05.07	15.49	7.33	-46.9	-63.8	6.1	6.81e-01	0	42	0	524288	64	26502
2026-01-16 01:25:06.06	15.49	7.41	-46.9	-61.9	7.8	6.49e-01	0	42	0	2097152	64	21374
2026-01-16 01:25:07.06	15.49	7.50	-46.8	-60.4	9.3	6.29e-01	0	42	0	4194304	64	18057
2026-01-16 01:25:08.05	15.49	7.58	-46.7	-59.3	10.5	6.15e-01	0	42	0	6291456	64	15839
2026-01-16 01:25:09.04	15.49	7.66	-46.6	-58.4	11.4	6.09e-01	0	42	0	7864320	64	14364
2026-01-16 01:25:10.04	15.49	7.75	-46.6	-57.7	12.2	6.09e-01	0	42	0	9961472	64	13260
2026-01-16 01:25:11.03	15.49	7.83	-46.5	-57.3	12.7	6.02e-01	0	42	0	11534336	64	12529
2026-01-16 01:25:12.02	15.49	7.91	-46.4	-56.8	13.1	6.06e-01	0	42	0	13631488	64	11950
2026-01-16 01:25:13.02	15.49	8.00	-46.4	-56.5	13.4	6.03e-01	0	42	0	15204352	64	11527
2026-01-16 01:25:14.01	15.49	8.08	-46.3	-56.2	13.7	6.03e-01	0	42	0	17301504	64	11157
2026-01-16 01:25:15.00	15.49	8.17	-46.3	-56.1	13.9	6.05e-01	0	42	0	18874368	64	10937
2026-01-16 01:25:16.00	15.49	8.25	-46.3	-55.9	14.1	6.02e-01	0	42	0	20971520	64	10746
2026-01-16 01:25:16.99	15.49	8.34	-46.3	-55.8	14.2	6.02e-01	0	42	0	23068672	64	10550
2026-01-16 01:25:17.98	15.49	8.42	-46.3	-55.8	14.2	6.04e-01	0	42	0	24641536	64	10552
2026-01-16 01:25:18.97	15.49	8.51	-46.3	-55.8	14.2	6.04e-01	0	42	0	26738688	64	10645
2026-01-16 01:25:19.97	15.49	8.60	-46.3	-56.1	13.9	6.05e-01	0	42	0	28311552	64	10925
2026-01-16 01:25:20.96	15.49	8.68	-46.4	-56.5	13.5	6.03e-01	0	42	0	30408704	64	11501
2026-01-16 01:25:21.95	15.49	8.77	-46.5	-57.0	13.0	6.05e-01	0	42	0	31981568	64	12210
2026-01-16 01:25:22.95	15.49	8.86	-46.6	-58.0	12.0	6.10e-01	0	43	0	34078720	64	13590
2026-01-16 01:25:23.94	15.49	8.94	-46.7	-59.1	10.8	6.14e-01	0	42	0	35651584	64	15497
2026-01-16 01:25:24.94	15.49	9.03	-46.8	-60.6	9.2	6.29e-01	0	42	0	37748736	64	18502
2026-01-16 01:25:25.93	15.49	9.12	-45.5	-51.8	18.3	6.03e-01	0	42	0	39845888	62	7491
2026-01-16 01:25:26.93	15.49	9.21	-46.1	-55.5	14.7	6.01e-01	0	42	0	41418752	62	11542
2026-01-16 01:25:27.92	15.49	9.30	-47.3	-68.6	3.9	7.39e-01	0	42	104	42991616	65	43857
2026-01-16 01:25:28.92	15.49	9.39	-46.5	-66.1	4.8	7.20e-01	0	42	104	42991616	65	32556
2026-01-16 01:25:29.91	15.49	9.48	-46.6	-55.7	12.7	6.01e-01	0	42	104	42991616	65	9879
2026-01-16 01:25:30.91	15.49	9.57	-46.5	-58.7	11.4	6.13e-01	0	42	0	44040192	65	13926
2026-01-16 01:25:31.90	15.49	9.66	-46.6	-59.2	10.3	6.13e-01	0	43	0	46137344	65	14832
2026-01-16 01:25:32.90	15.49	9.75	-46.7	-58.2	12.1	6.10e-01	0	42	0	48234496	65	13244
2026-01-16 01:25:33.89	15.49	9.84	-46.7	-56.7	13.0	6.07e-01	0	43	0	49807360	65	11140
2026-01-16 01:25:34.89	15.49	9.94	-46.5	-56.0	14.0	6.02e-01	0	42	0	51904512	65	10239
2026-01-16 01:25:35.88	15.49	10.03	-46.3	-56.2	14.2	6.05e-01	0	42	0	53477376	64	11128
2026-01-16 01:25:36.96	15.49	10.13	-46.2	-56.9	13.5	6.06e-01	0	43	0	55574528	64	11998
2026-01-16 01:25:37.84	15.49	10.21	-46.1	-55.9	14.4	6.04e-01	0	43	0	57147392	63	11337
2026-01-16 01:25:38.98	15.49	10.32	-46.0	-55.5	14.5	5.99e-01	0	42	0	59244544	63	10894
2026-01-16 01:25:39.83	15.49	10.40	-45.8	-54.3	15.9	6.01e-01	0	42	0	61341696	63	9412
2026-01-16 01:25:40.96	15.48	10.50	-45.6	-53.0	17.2	6.02e-01	0	43	0	62914560	63	8107
2026-01-16 01:25:41.82	15.48	10.59	-45.4	-52.2	17.9	6.01e-01	0	43	0	64487424	62	7877
2026-01-16 01:25:42.95	15.48	10.69	-45.2	-51.3	18.9	6.01e-01	0	42	0	67108864	62	7075
2026-01-16 01:25:43.81	15.48	10.78	-45.0	-50.7	19.5	6.04e-01	0	43	0	68681728	61	6967
2026-01-16 01:25:44.94	15.48	10.89	-44.9	-50.2	19.9	6.00e-01	0	43	0	70778880	61	6576
2026-01-16 01:25:45.79	15.48	10.97	-44.9	-49.9	20.3	6.02e-01	0	43	0	72351744	61	6383
2026-01-16 01:25:46.93	15.48	11.08	-44.9	-49.9	20.2	6.01e-01	0	43	0	74448896	61	6378
2026-01-16 01:25:47.79	15.48	11.16	-44.6	-49.4	20.7	6.03e-01	0	43	0	76021760	61	6013
2026-01-16 01:25:48.93	15.48	11.27	-44.2	-48.6	21.5	6.01e-01	0	43	0	78118912	60	5850
2026-01-16 01:25:49.78	15.48	11.36	-44.2	-48.7	21.6	6.02e-01	0	43	0	79691776	60	5875
2026-01-16 01:25:50.91	15.48	11.47	-44.1	-48.5	21.6	5.98e-01	0	43	0	81788928	60	5770
2026-01-16 01:25:51.77	15.48	11.56	-44.1	-48.3	21.8	6.02e-01	0	43	0	83361792	60	5650
2026-01-16 01:25:52.91	15.48	11.67	-44.2	-48.5	21.8	6.00e-01	0	43	0	85458944	59	6082
2026-01-16 01:25:53.76	15.48	11.76	-44.3	-48.5	21.7	6.00e-01	0	43	0	87031808	59	6110
2026-01-16 01:25:54.90	15.47	11.87	-44.2	-48.3	21.9	6.01e-01	0	43	0	89128960	59	5974
2026-01-16 01:25:55.75	15.47	11.96	-44.0	-48.2	22.1	5.99e-01	0	43	0	90701824	59	5866
2026-01-16 01:25:56.89	15.47	12.07	-44.1	-48.2	22.0	6.02e-01	0	43	0	92798976	59	5919
2026-01-16 01:25:57.74	15.47	12.16	-44.0	-48.2	22.1	6.01e-01	0	43	0	94896128	59	5868
2026-01-16 01:25:58.88	15.47	12.28	-44.0	-48.2	22.0	6.02e-01	0	43	0	96993280	59	5885
2026-01-16 01:25:59.73	15.47	12.36	-43.9	-48.3	22.0	6.01e-01	0	43	0	98566144	59	5926
2026-01-16 01:26:00.86	15.47	12.48	-43.8	-48.3	21.9	6.01e-01	0	43	0	100663296	59	5972
2026-01-16 01:26:01.72	15.47	12.57	-43.8	-48.3	21.9	6.00e-01	0	43	0	102236160	59	5943
2026-01-16 01:26:03.00	15.46	12.70	-43.8	-48.2	22.0	6.02e-01	0	43	0	104333312	59	5921
2026-01-16 01:26:03.71	15.46	12.78	-43.8	-48.2	22.0	6.00e-01	0	43	0	105906176	59	5922
2026-01-16 01:26:04.99	15.46	12.91	-43.8	-48.1	22.1	6.01e-01	0	43	0	108003328	59	5809
2026-01-16 01:26:05.71	15.46	12.99	-43.7	-48.0	22.3	6.01e-01	0	43	0	109576192	59	5751
2026-01-16 01:26:07.25	15.46	13.16	-43.6	-48.0	22.2	6.02e-01	0	43	0	112197632	59	5769
2026-01-16 01:26:07.96	15.46	13.23	-43.6	-47.9	22.3	6.03e-01	0	43	0	113770496	59	5709
2026-01-16 01:26:09.24	15.45	13.37	-43.6	-47.9	22.4	6.00e-01	0	43	0	116391936	59	5668
2026-01-16 01:26:09.96	15.45	13.45	-43.6	-47.9	22.3	6.02e-01	0	43	0	117440512	59	5711
2026-01-16 01:26:11.25	15.45	13.59	-43.4	-47.8	22.5	6.00e-01	0	43	0	120061952	58	5969
2026-01-16 01:26:11.96	15.45	13.67	-43.4	-47.8	22.5	6.00e-01	0	43	0	121110528	58	5953
2026-01-16 01:26:13.23	15.45	13.81	-43.5	-47.7	22.6	6.01e-01	0	43	0	123731968	58	5904
2026-01-16 01:26:13.94	15.45	13.88	-43.5	-47.6	22.7	6.03e-01	0	43	0	124780544	58	5828
2026-01-16 01:26:15.22	15.44	14.03	-43.5	-47.6	22.7	6.02e-01	0	43	0	127401984	58	5812
2026-01-16 01:26:15.93	15.44	14.11	-43.5	-47.7	22.6	6.00e-01	0	43	0	128974848	58	5867
2026-01-16 01:26:17.21	15.44	14.25	-43.4	-47.5	22.9	6.01e-01	0	43	0	131072000	58	5726
2026-01-16 01:26:18.00	15.44	14.34	-43.5	-47.5	22.8	6.02e-01	0	43	0	132644864	58	5734
2026-01-16 01:26:19.17	15.44	14.47	-43.5	-47.5	22.8	6.02e-01	0	43	0	134742016	58	5743
2026-01-16 01:26:20.03	15.43	14.57	-43.4	-47.3	22.9	6.00e-01	0	43	0	136314880	58	5656
2026-01-16 01:26:21.16	15.43	14.70	-43.4	-47.4	22.9	6.03e-01	0	43	0	138412032	58	5683
2026-01-16 01:26:22.02	15.43	14.80	-43.5	-47.5	22.8	6.01e-01	0	43	0	139984896	58	5751
2026-01-16 01:26:23.15	15.43	14.93	-43.7	-47.5	22.9	6.00e-01	0	43	0	142082048	58	5724
2026-01-16 01:26:24.01	15.43	15.03	-43.9	-47.5	22.9	6.01e-01	0	43	0	143654912	58	5746
2026-01-16 01:26:25.14	15.42	15.16	-43.9	-47.4	22.9	6.00e-01	0	43	0	146276352	58	5716
2026-01-16 01:26:26.36	15.42	15.31	-44.0	-47.5	22.8	6.01e-01	0	43	0	148373504	58	5776
2026-01-16 01:26:27.21	15.42	15.41	-44.2	-47.6	22.7	6.00e-01	0	43	0	149946368	58	5850
2026-01-16 01:26:28.35	15.41	15.54	-44.3	-47.7	22.7	6.02e-01	0	43	0	152043520	59	5533
2026-01-16 01:26:29.20	15.41	15.64	-44.3	-47.7	22.7	5.99e-01	0	43	0	153616384	59	5552
2026-01-16 01:26:30.34	15.41	15.78	-44.4	-47.7	22.7	6.03e-01	0	43	0	155713536	59	5547
2026-01-16 01:26:31.20	15.41	15.89	-44.4	-47.7	22.7	6.01e-01	0	43	0	157286400	59	5580
2026-01-16 01:26:32.33	15.40	16.02	-44.4	-47.7	22.7	6.02e-01	0	43	0	159383552	59	5546
2026-01-16 01:26:33.19	15.40	16.13	-44.5	-47.7	22.7	6.01e-01	0	43	0	160956416	59	5583
2026-01-16 01:26:34.32	15.40	16.27	-44.4	-47.7	22.7	6.00e-01	0	43	0	163053568	59	5545
2026-01-16 01:26:35.18	15.40	16.37	-44.4	-47.7	22.7	6.02e-01	0	43	0	164626432	59	5538
2026-01-16 01:26:36.47	15.39	16.53	-44.5	-47.8	22.6	6.02e-01	0	43	0	167247872	59	5611
2026-01-16 01:26:37.18	15.39	16.62	-44.4	-47.7	22.8	6.02e-01	0	43	0	168820736	59	5531
2026-01-16 01:26:38.46	15.39	16.78	-44.3	-47.6	22.8	6.02e-01	0	43	0	170917888	59	5485
2026-01-16 01:26:39.19	15.38	16.88	-44.2	-47.4	23.0	6.01e-01	0	43	0	172490752	59	5399
2026-01-16 01:26:40.72	15.38	17.07	-44.3	-47.4	23.0	5.99e-01	0	43	0	175112192	59	5388
2026-01-16 01:26:41.43	15.38	17.16	-44.3	-47.4	22.9	5.99e-01	0	43	0	176685056	59	5393
2026-01-16 01:26:42.71	15.37	17.33	-44.3	-47.5	23.0	6.02e-01	0	43	0	178782208	59	5407
2026-01-16 01:26:43.44	15.37	17.42	-44.2	-47.4	23.1	6.06e-01	0	43	0	180355072	59	5344
2026-01-16 01:26:44.72	15.36	17.59	-44.2	-47.3	23.1	6.02e-01	0	43	0	182452224	59	5325
2026-01-16 01:26:45.43	15.36	17.68	-44.1	-47.3	23.2	6.02e-01	0	43	0	184025088	59	5280
2026-01-16 01:26:46.71	15.36	17.85	-44.1	-47.2	23.2	5.99e-01	0	43	0	186646528	59	5251
2026-01-16 01:26:47.42	15.35	17.95	-44.1	-47.2	23.3	6.02e-01	0	43	0	187695104	59	5220
2026-01-16 01:26:48.70	15.35	18.12	-44.2	-47.3	23.2	6.02e-01	0	43	0	190316544	59	5282
2026-01-16 01:26:49.43	15.35	18.22	-44.2	-47.2	23.3	6.02e-01	0	43	0	191365120	59	5230
2026-01-16 01:26:50.70	15.34	18.39	-44.4	-47.4	23.1	6.00e-01	0	43	0	193986560	59	5342
2026-01-16 01:26:51.41	15.34	18.49	-44.5	-47.3	23.1	6.00e-01	0	43	0	195035136	59	5338
2026-01-16 01:26:52.70	15.33	18.66	-44.6	-47.5	23.0	6.00e-01	0	43	0	197656576	59	5408
2026-01-16 01:26:53.56	15.33	18.78	-44.7	-47.5	22.9	6.00e-01	0	43	0	199229440	59	5460
2026-01-16 01:26:54.70	15.32	18.94	-44.6	-47.4	22.9	6.02e-01	0	43	0	201326592	60	5100
2026-01-16 01:26:55.73	15.32	19.08	-44.6	-47.4	22.9	6.03e-01	0	43	0	203423744	60	5076
2026-01-16 01:26:56.73	15.32	19.22	-44.5	-47.4	22.9	6.02e-01	0	43	0	204996608	60	5085
2026-01-16 01:26:57.72	15.31	19.36	-44.4	-47.3	23.1	6.03e-01	0	43	0	207093760	60	4989
2026-01-16 01:26:58.95	15.31	19.54	-44.5	-47.3	23.0	6.02e-01	0	43	0	209190912	60	5032
2026-01-16 01:26:59.81	15.30	19.66	-44.4	-47.2	23.1	6.02e-01	0	43	0	210763776	60	4975
2026-01-16 01:27:00.95	15.30	19.83	-44.5	-47.4	23.0	6.02e-01	0	43	0	213385216	60	5044
2026-01-16 01:27:01.80	15.29	19.95	-44.4	-47.3	23.1	6.02e-01	0	43	0	214958080	60	5011
2026-01-16 01:27:02.94	15.29	20.12	-44.5	-47.4	23.0	6.03e-01	0	43	0	217055232	60	5051
2026-01-16 01:27:03.79	15.28	20.24	-44.5	-47.3	23.0	6.02e-01	0	43	0	218628096	60	5028
2026-01-16 01:27:04.93	15.28	20.41	-44.5	-47.3	23.0	6.01e-01	0	43	0	220725248	60	5022
2026-01-16 01:27:05.78	15.27	20.54	-44.5	-47.3	23.0	6.00e-01	0	43	0	222298112	60	5011
2026-01-16 01:27:06.92	15.26	20.71	-44.5	-47.3	23.0	6.00e-01	0	43	0	224395264	60	5039
2026-01-16 01:27:07.77	15.26	20.84	-44.6	-47.5	22.9	6.01e-01	0	43	0	225968128	60	5104
2026-01-16 01:27:08.91	15.25	21.01	-44.7	-47.5	22.9	6.02e-01	0	43	0	228065280	60	5151
2026-01-16 01:27:09.76	15.25	21.14	-44.6	-47.4	22.9	6.00e-01	0	43	0	229638144	60	5098
2026-01-16 01:27:10.90	15.24	21.32	-44.7	-47.5	22.9	6.00e-01	0	43	0	231735296	60	5129
2026-01-16 01:27:11.75	15.24	21.45	-44.7	-47.6	22.8	6.00e-01	0	43	0	233308160	60	5167
2026-01-16 01:27:13.00	15.23	21.64	-44.7	-47.6	22.8	6.02e-01	0	43	0	235929600	60	5213
2026-01-16 01:27:13.85	15.22	21.78	-44.8	-47.8	22.6	6.00e-01	0	43	0	237502464	60	5286
2026-01-16 01:27:14.99	15.22	21.96	-44.7	-47.7	22.8	6.01e-01	0	43	0	239599616	60	5222
2026-01-16 01:27:15.84	15.21	22.09	-44.6	-47.7	22.7	6.00e-01	0	43	0	241172480	60	5228
2026-01-16 01:27:17.10	15.20	22.30	-44.7	-47.8	22.7	6.01e-01	0	43	0	243269632	60	5286
2026-01-16 01:27:17.89	15.20	22.42	-44.7	-47.7	21.9	6.04e-01	0	43	0	244842496	60	5251
2026-01-16 01:27:19.09	15.19	22.62	-44.8	-47.9	22.6	6.03e-01	0	43	0	246939648	60	5350
2026-01-16 01:27:19.94	15.19	22.76	-44.7	-47.8	22.6	6.02e-01	0	43	0	248512512	60	5310
2026-01-16 01:27:21.08	15.18	22.95	-44.5	-47.7	22.8	6.03e-01	0	43	0	251133952	60	5227
2026-01-16 01:27:21.94	15.17	23.09	-44.4	-47.6	22.8	6.03e-01	0	43	0	252706816	60	5190
2026-01-16 01:27:23.07	15.16	23.28	-44.4	-47.7	22.7	6.03e-01	0	43	0	254803968	60	5254
2026-01-16 01:27:24.02	15.16	23.44	-44.4	-47.7	22.8	5.99e-01	0	43	0	256376832	60	5251
2026-01-16 01:27:25.01	15.15	23.61	-44.4	-47.7	22.7	6.03e-01	0	43	0	258473984	60	5271
2026-01-16 01:27:26.01	15.14	23.78	-44.6	-47.8	22.6	6.03e-01	0	43	0	260046848	60	5337
2026-01-16 01:27:27.00	15.13	23.95	-44.7	-47.8	22.6	6.01e-01	0	43	0	262144000	60	5330
2026-01-16 01:27:28.00	15.13	24.12	-44.7	-47.8	22.7	6.04e-01	0	43	0	263716864	60	5296
2026-01-16 01:27:28.99	15.12	24.30	-44.7	-47.7	22.7	6.02e-01	0	43	0	265814016	60	5277
2026-01-16 01:27:29.99	15.11	24.47	-44.6	-47.7	22.8	6.00e-01	0	43	0	267386880	60	5229
2026-01-16 01:27:30.99	15.10	24.65	-44.5	-47.6	22.9	6.01e-01	0	43	0	269484032	60	5162
2026-01-16 01:27:31.98	15.09	24.83	-44.4	-47.4	23.0	6.00e-01	0	43	0	271581184	60	5082
2026-01-16 01:27:32.98	15.09	25.01	-44.4	-47.4	23.0	6.01e-01	0	43	0	273154048	60	5096
2026-01-16 01:27:33.97	15.08	25.19	-44.3	-47.4	22.5	6.03e-01	0	43	0	275251200	60	5085
2026-01-16 01:27:34.96	15.07	25.37	-44.3	-47.5	22.9	6.00e-01	0	43	0	276824064	60	5116
2026-01-16 01:27:35.96	15.06	25.55	-44.3	-47.5	22.9	6.01e-01	0	43	0	278921216	60	5147
2026-01-16 01:27:36.96	15.05	25.74	-44.4	-47.5	23.0	6.01e-01	0	43	0	280494080	60	5122
2026-01-16 01:27:37.95	15.04	25.92	-44.5	-47.5	22.9	6.04e-01	0	43	0	282591232	60	5111
2026-01-16 01:27:38.95	15.03	26.11	-44.5	-47.4	23.0	6.02e-01	0	43	0	284164096	60	5081
2026-01-16 01:27:39.94	15.02	26.30	-44.6	-47.4	23.0	6.02e-01	0	43	0	286261248	60	5097
2026-01-16 01:27:40.94	15.01	26.49	-44.5	-47.3	23.1	6.02e-01	0	43	0	288358400	60	5005
2026-01-16 01:27:41.93	15.00	26.68	-44.5	-47.3	23.2	6.02e-01	0	43	0	289931264	60	5010
2026-01-16 01:27:42.93	14.99	26.87	-44.6	-47.4	23.1	6.04e-01	0	43	0	292028416	60	5055
2026-01-16 01:27:43.92	14.98	27.07	-44.5	-47.3	23.1	6.00e-01	0	43	0	293601280	60	5022
2026-01-16 01:27:44.92	14.97	27.27	-44.4	-47.1	23.3	6.00e-01	0	43	0	295698432	60	4917
2026-01-16 01:27:45.91	14.96	27.46	-44.3	-47.1	23.3	6.01e-01	0	43	0	297271296	60	4917
2026-01-16 01:27:46.91	14.95	27.66	-44.1	-46.9	23.5	6.05e-01	0	43	0	299368448	60	4779
2026-01-16 01:27:47.90	14.94	27.86	-44.0	-46.9	23.6	6.00e-01	0	43	0	300941312	60	4761
2026-01-16 01:27:48.90	14.93	28.07	-44.1	-47.0	23.5	5.99e-01	0	43	0	303038464	60	4818
2026-01-16 01:27:49.94	14.92	28.28	-44.1	-47.0	23.4	6.03e-01	0	43	0	305135616	60	4846
2026-01-16 01:27:50.97	14.91	28.49	-44.1	-47.1	23.3	6.03e-01	0	43	0	306708480	60	4908
2026-01-16 01:27:51.99	14.89	28.71	-44.1	-47.2	23.3	6.01e-01	0	43	0	308805632	60	4947
2026-01-16 01:27:52.99	14.88	28.92	-44.2	-47.3	23.2	6.01e-01	0	43	0	310902784	60	5005
2026-01-16 01:27:53.98	14.87	29.13	-44.1	-47.2	23.3	6.03e-01	0	43	0	312475648	59	5249
2026-01-16 01:27:54.98	14.86	29.34	-44.1	-47.2	23.4	6.01e-01	0	43	0	314572800	59	5247
2026-01-16 01:27:55.97	14.84	29.55	-44.2	-47.2	23.4	6.00e-01	0	43	0	316145664	59	5238
2026-01-16 01:27:56.97	14.83	29.77	-44.0	-47.0	23.5	6.01e-01	0	43	0	318242816	59	5156
2026-01-16 01:27:57.96	14.82	29.99	-43.9	-46.9	23.6	6.04e-01	0	43	0	319815680	59	5084
2026-01-16 01:27:58.95	14.81	30.21	-43.9	-47.0	23.6	6.03e-01	0	43	0	321912832	59	5107
2026-01-16 01:27:59.95	14.79	30.43	-44.1	-47.1	23.5	6.02e-01	0	43	0	324009984	59	5163
2026-01-16 01:28:00.94	14.78	30.65	-44.2	-47.0	23.5	6.00e-01	0	43	0	325582848	59	5149
2026-01-16 01:28:01.94	14.76	30.88	-44.2	-47.0	23.5	6.01e-01	0	43	0	327680000	59	5139
2026-01-16 01:28:02.93	14.75	31.10	-44.3	-47.1	23.5	6.03e-01	0	43	0	329252864	59	5165
2026-01-16 01:28:03.93	14.74	31.33	-44.2	-46.9	23.6	6.00e-01	0	43	0	331350016	59	5061
2026-01-16 01:28:04.92	14.72	31.56	-44.2	-47.0	23.6	6.03e-01	0	43	0	332922880	59	5115
2026-01-16 01:28:05.92	14.71	31.80	-44.2	-46.9	23.4	6.02e-01	0	43	0	335020032	59	5087
2026-01-16 01:28:06.92	14.69	32.03	-44.3	-47.1	23.5	6.01e-01	0	43	0	336592896	59	5166
2026-01-16 01:28:07.91	14.67	32.27	-44.4	-47.2	23.4	6.05e-01	0	43	0	338690048	59	5247
2026-01-16 01:28:08.91	14.66	32.51	-44.4	-47.3	23.3	5.99e-01	0	43	0	340787200	59	5285
2026-01-16 01:28:09.90	14.64	32.75	-44.5	-47.4	23.2	6.00e-01	0	43	0	342360064	59	5376
2026-01-16 01:28:10.89	14.63	32.99	-44.6	-47.5	23.1	6.01e-01	0	43	0	344457216	59	5423
2026-01-16 01:28:11.89	14.61	33.24	-44.6	-47.4	23.2	6.02e-01	0	43	0	346030080	59	5356
2026-01-16 01:28:12.88	14.59	33.48	-44.6	-47.3	23.1	6.03e-01	0	43	0	348127232	60	5041
2026-01-16 01:28:13.87	14.57	33.73	-44.5	-47.3	23.2	5.99e-01	0	43	0	349700096	60	5017
2026-01-16 01:28:14.87	14.56	33.98	-44.5	-47.3	23.2	6.03e-01	0	43	0	351797248	60	5007
2026-01-16 01:28:15.86	14.54	34.24	-44.5	-47.3	23.2	6.02e-01	0	43	0	353370112	60	5040
2026-01-16 01:28:16.86	14.52	34.49	-44.6	-47.5	23.1	6.02e-01	0	43	0	355467264	60	5108
2026-01-16 01:28:17.85	14.50	34.75	-44.6	-47.5	23.0	6.03e-01	0	43	0	357564416	60	5153
2026-01-16 01:28:18.85	14.48	35.01	-44.6	-47.6	22.9	6.03e-01	0	43	0	359137280	60	5183
2026-01-16 01:28:19.86	14.46	35.28	-44.7	-47.6	22.9	6.00e-01	0	43	0	361234432	60	5203
2026-01-16 01:28:20.85	14.44	35.54	-44.9	-47.9	22.7	6.00e-01	0	43	0	362807296	60	5360
2026-01-16 01:28:21.85	14.42	35.81	-45.4	-48.3	22.3	6.00e-01	0	43	0	364904448	61	5324
2026-01-16 01:28:22.93	14.40	36.11	-45.6	-48.7	21.9	6.02e-01	0	43	0	367001600	61	5530
2026-01-16 01:28:23.82	14.38	36.35	-45.7	-48.8	21.8	6.02e-01	0	43	0	368574464	62	5290
2026-01-16 01:28:24.96	14.35	36.67	-45.7	-48.8	21.8	6.02e-01	0	43	0	370671616	62	5333
2026-01-16 01:28:25.81	14.33	36.90	-45.8	-48.9	21.7	6.01e-01	0	43	0	372244480	62	5377
2026-01-16 01:28:26.95	14.31	37.22	-45.9	-49.1	21.6	6.01e-01	0	43	0	374341632	62	5472
2026-01-16 01:28:27.80	14.29	37.47	-45.9	-49.1	21.6	6.00e-01	0	43	0	375914496	62	5468
2026-01-16 01:28:28.94	14.26	37.79	-45.9	-49.0	21.6	6.01e-01	0	44	0	378011648	62	5458
2026-01-16 01:28:29.79	14.24	38.04	-45.8	-49.0	21.7	6.02e-01	0	43	0	379584512	62	5407
2026-01-16 01:28:30.93	14.21	38.37	-45.8	-49.0	21.6	6.01e-01	0	43	0	381681664	62	5448
2026-01-16 01:28:31.78	14.19	38.62	-46.0	-49.3	21.3	6.03e-01	0	43	0	383254528	62	5640
2026-01-16 01:28:32.92	14.16	38.96	-46.2	-49.6	21.0	6.00e-01	0	43	0	385351680	63	5481
2026-01-16 01:28:33.77	14.14	39.22	-46.1	-49.6	21.1	6.02e-01	0	43	0	386924544	63	5465
2026-01-16 01:28:34.91	14.11	39.56	-45.9	-49.5	21.2	6.01e-01	0	43	0	389545984	63	5415
2026-01-16 01:28:35.76	14.09	39.82	-45.7	-49.3	21.3	6.03e-01	0	43	0	391118848	63	5322
2026-01-16 01:28:36.98	14.05	40.20	-45.5	-49.0	21.6	5.99e-01	0	43	0	393216000	63	5123
2026-01-16 01:28:37.83	14.03	40.46	-45.5	-48.9	21.7	6.03e-01	0	43	0	394788864	62	5374
2026-01-16 01:28:39.03	13.99	40.84	-45.5	-48.9	21.8	6.02e-01	0	44	0	396886016	62	5345
2026-01-16 01:28:39.88	13.97	41.11	-45.6	-48.9	21.7	6.01e-01	0	43	0	398458880	62	5362
2026-01-16 01:28:41.10	13.93	41.50	-45.4	-48.5	22.1	6.01e-01	0	43	0	401080320	62	5134
2026-01-16 01:28:42.36	13.89	41.91	-45.2	-48.3	22.3	5.98e-01	0	43	0	403177472	62	4995
2026-01-16 01:28:43.17	13.86	42.18	-45.3	-48.3	22.3	6.02e-01	0	43	0	404750336	62	5011
2026-01-16 01:28:44.30	13.82	42.55	-45.2	-48.2	22.3	6.00e-01	0	43	0	406847488	62	4955
2026-01-16 01:28:45.16	13.79	42.84	-45.2	-48.1	22.5	6.00e-01	0	43	0	408420352	62	4906
2026-01-16 01:28:46.29	13.75	43.22	-45.1	-48.0	22.6	6.04e-01	0	43	0	410517504	62	4854
2026-01-16 01:28:47.15	13.72	43.51	-45.0	-47.9	22.7	6.01e-01	0	43	0	412090368	62	4790
2026-01-16 01:28:48.28	13.68	43.90	-44.9	-47.7	22.9	6.01e-01	0	44	0	414187520	61	4962
2026-01-16 01:28:49.14	13.65	44.19	-44.8	-47.6	23.0	6.03e-01	0	43	0	416284672	61	4899
2026-01-16 01:28:50.27	13.61	44.59	-44.9	-47.7	22.9	6.02e-01	0	43	0	417857536	61	4958
2026-01-16 01:28:51.13	13.57	44.89	-45.0	-47.8	22.8	6.03e-01	0	43	0	419430400	61	4995
2026-01-16 01:28:52.26	13.53	45.29	-44.7	-47.5	23.1	6.01e-01	0	43	0	422051840	61	4819
2026-01-16 01:28:53.21	13.49	45.64	-44.8	-47.5	23.1	6.00e-01	0	43	0	423624704	61	4854
2026-01-16 01:28:54.38	13.44	46.06	-44.8	-47.6	23.0	6.00e-01	0	43	0	425721856	61	4888
2026-01-16 01:28:55.23	13.40	46.37	-44.7	-47.4	23.1	6.01e-01	0	43	0	427294720	61	4806
2026-01-16 01:28:56.37	13.35	46.79	-44.5	-47.2	23.4	6.04e-01	0	43	0	429391872	61	4670
2026-01-16 01:28:57.22	13.31	47.11	-44.7	-47.4	23.2	6.02e-01	0	43	0	430964736	61	4795
2026-01-16 01:28:58.36	13.26	47.54	-44.8	-47.5	23.0	6.01e-01	0	43	0	433061888	61	4864
2026-01-16 01:28:59.21	13.22	47.86	-44.5	-47.2	23.4	6.01e-01	0	43	0	434634752	61	4676
2026-01-16 01:29:00.68	13.14	48.43	-44.6	-47.3	23.2	6.01e-01	0	43	0	437780480	61	4742
2026-01-16 01:29:01.39	13.11	48.70	-44.6	-47.4	23.1	6.02e-01	0	43	0	438829056	61	4773
2026-01-16 01:29:02.67	13.04	49.21	-44.8	-47.6	22.9	6.00e-01	0	43	0	441450496	61	4913
2026-01-16 01:29:03.38	13.00	49.49	-44.6	-47.5	23.1	6.01e-01	0	43	0	442499072	61	4816
2026-01-16 01:29:04.66	12.93	50.00	-44.4	-47.2	23.4	6.03e-01	0	43	0	445120512	60	4941
2026-01-16 01:29:05.37	12.89	50.28	-44.5	-47.3	23.3	6.00e-01	0	43	0	446169088	60	5027
2026-01-16 01:29:06.65	12.81	50.80	-44.7	-47.5	23.1	6.02e-01	0	43	0	448790528	60	5128
2026-01-16 01:29:07.49	12.76	51.15	-44.6	-47.3	23.3	6.02e-01	0	44	0	450363392	60	5011
2026-01-16 01:29:08.62	12.69	51.62	-44.6	-47.2	23.3	6.02e-01	0	43	0	452460544	60	4970
2026-01-16 01:29:09.64	12.63	52.04	-44.1	-46.7	23.8	6.01e-01	0	43	0	454557696	60	4683
2026-01-16 01:29:10.63	12.56	52.46	-44.2	-46.8	23.8	6.02e-01	0	43	0	456130560	59	5035
2026-01-16 01:29:11.63	12.49	52.89	-44.1	-46.7	23.9	6.00e-01	0	43	0	458227712	59	4955
2026-01-16 01:29:12.62	12.42	53.31	-44.1	-46.6	24.0	6.02e-01	0	43	0	459800576	59	4882
2026-01-16 01:29:13.62	12.35	53.75	-44.0	-46.5	24.1	6.00e-01	0	43	0	461897728	59	4840
2026-01-16 01:29:14.61	12.27	54.18	-44.0	-46.6	24.0	6.02e-01	0	43	0	463994880	59	4876
2026-01-16 01:29:15.60	12.20	54.62	-44.2	-46.8	23.9	6.02e-01	0	43	0	465567744	59	4991
2026-01-16 01:29:16.60	12.12	55.06	-44.2	-46.8	23.8	5.98e-01	0	43	0	467664896	59	5008
2026-01-16 01:29:18.00	12.00	55.69	-44.4	-47.0	23.7	6.03e-01	0	43	0	470286336	59	5142
2026-01-16 01:29:18.72	11.94	56.02	-44.5	-47.3	23.3	5.99e-01	0	43	0	471334912	60	4995
2026-01-16 01:29:19.99	11.82	56.60	-44.2	-46.8	23.7	6.03e-01	0	43	0	473956352	60	4744
2026-01-16 01:29:20.71	11.75	56.93	-44.6	-47.3	23.3	6.03e-01	0	43	0	475004928	60	4993
2026-01-16 01:29:21.98	11.63	57.52	-44.6	-47.3	23.3	6.01e-01	0	43	0	477626368	60	5006
2026-01-16 01:29:22.69	11.56	57.85	-44.7	-47.5	23.1	6.02e-01	0	43	0	478674944	60	5122
2026-01-16 01:29:23.97	11.43	58.46	-44.9	-47.7	22.9	6.02e-01	0	43	0	481296384	60	5261
2026-01-16 01:29:24.70	11.35	58.81	-45.1	-47.9	22.7	6.02e-01	0	43	0	482869248	60	5393
2026-01-16 01:29:25.98	11.21	59.42	-45.0	-47.8	22.7	6.01e-01	0	43	0	484966400	61	5028
2026-01-16 01:29:26.69	11.13	59.76	-45.2	-48.1	22.6	6.00e-01	0	43	0	486539264	61	5163
2026-01-16 01:29:27.97	10.97	60.39	-45.4	-48.4	22.2	6.01e-01	0	43	0	488636416	61	5354
2026-01-16 01:29:28.69	10.88	60.74	-45.7	-48.8	21.9	6.01e-01	0	43	0	490209280	62	5294
2026-01-16 01:29:29.97	10.71	61.38	-45.6	-48.5	22.1	6.02e-01	0	43	0	492306432	62	5135
2026-01-16 01:29:30.68	10.62	61.73	-45.8	-48.9	21.8	6.02e-01	0	43	0	493879296	62	5352
2026-01-16 01:29:32.25	10.39	62.52	-46.1	-49.3	21.4	6.03e-01	0	43	0	497025024	62	5621
2026-01-16 01:29:32.89	10.30	62.85	-46.1	-49.3	21.4	6.01e-01	0	43	0	498073600	62	5593
2026-01-16 01:29:34.31	10.08	63.58	-46.6	-49.9	20.8	6.02e-01	0	43	0	500695040	63	5702
2026-01-16 01:29:35.02	9.96	63.94	-46.7	-50.1	20.5	6.01e-01	0	43	0	501743616	64	5522
2026-01-16 01:29:36.30	9.74	64.61	-46.7	-50.4	20.2	6.02e-01	0	43	0	504365056	64	5698
2026-01-16 01:29:37.01	9.61	64.98	-46.7	-50.5	20.1	6.01e-01	0	43	0	505937920	64	5781
2026-01-16 01:29:38.29	9.37	65.65	-47.0	-51.3	19.4	6.02e-01	0	44	0	508035072	64	6305
2026-01-16 01:29:39.02	9.22	66.04	-47.0	-51.2	19.5	6.01e-01	0	43	0	509607936	64	6264
2026-01-16 01:29:40.30	8.96	66.72	-47.3	-51.3	19.4	6.02e-01	0	43	0	511705088	65	5946
2026-01-16 01:29:41.04	8.79	67.12	-48.0	-52.1	18.6	6.01e-01	0	43	0	513277952	66	6183
2026-01-16 01:29:42.32	8.50	67.81	-47.8	-51.8	18.9	6.04e-01	0	43	0	515899392	66	5978
2026-01-16 01:29:43.03	8.32	68.19	-47.9	-51.9	18.8	6.02e-01	0	43	0	516947968	66	6033
2026-01-16 01:29:44.31	7.99	68.89	-48.2	-52.6	18.0	6.01e-01	0	43	0	519569408	67	6195
2026-01-16 01:29:45.08	7.78	69.31	-48.2	-52.8	17.9	6.01e-01	0	43	0	521142272	67	6284
2026-01-16 01:29:46.66	7.32	70.19	-47.9	-52.2	18.5	6.02e-01	0	44	0	523763712	67	5873
2026-01-16 01:29:47.54	7.04	70.68	-48.2	-52.5	18.3	6.00e-01	0	43	0	525336576	67	6071
2026-01-16 01:29:48.68	6.66	71.31	-48.1	-52.3	18.4	5.99e-01	0	43	0	527433728	67	5940
2026-01-16 01:29:49.82	6.25	71.95	-47.7	-51.7	19.0	6.04e-01	0	43	0	529530880	67	5592
2026-01-16 01:29:50.67	5.92	72.43	-47.8	-51.9	18.9	6.03e-01	0	43	0	531103744	67	5670
2026-01-16 01:29:51.81	5.45	73.08	-47.8	-51.7	19.0	6.01e-01	0	43	0	533725184	67	5550
2026-01-16 01:29:52.66	5.07	73.56	-47.6	-51.4	19.3	6.00e-01	0	43	0	535298048	67	5371
2026-01-16 01:29:53.80	4.52	74.21	-47.5	-51.4	19.3	6.00e-01	0	43	0	537395200	66	5685
2026-01-16 01:29:54.65	4.09	74.69	-47.3	-50.9	19.7	6.01e-01	0	43	0	538968064	66	5387
2026-01-16 01:29:55.79	3.45	75.35	-47.0	-50.5	20.2	6.00e-01	0	43	0	541065216	66	5140
2026-01-16 01:29:56.64	2.94	75.83	-47.1	-50.9	19.9	6.01e-01	0	43	0	542638080	66	5356
2026-01-16 01:29:57.78	2.19	76.49	-46.6	-50.1	20.4	6.01e-01	0	43	0	544735232	65	5211
2026-01-16 01:29:58.63	1.58	76.98	-46.8	-50.3	20.4	6.01e-01	0	43	0	546308096	65	5316
2026-01-16 01:29:59.77	0.68	77.63	-46.9	-50.4	20.2	6.01e-01	0	43	0	548405248	65	5354
2026-01-16 01:30:00.62	359.95	78.12	-46.5	-49.9	20.7	6.00e-01	0	43	0	549978112	65	5067
2026-01-16 01:30:01.76	358.86	78.77	-46.2	-49.5	21.1	5.99e-01	0	43	0	552075264	64	5135
2026-01-16 01:30:02.61	357.96	79.26	-46.1	-49.2	21.5	6.01e-01	0	43	0	553648128	63	5257
2026-01-16 01:30:04.08	356.19	80.10	-45.6	-48.5	22.1	6.01e-01	0	43	0	556793856	63	4867
2026-01-16 01:30:04.79	355.22	80.50	-45.6	-48.6	22.0	6.01e-01	0	43	0	557842432	63	4917
2026-01-16 01:30:06.07	353.25	81.22	-45.3	-48.2	22.4	6.02e-01	0	43	0	560463872	62	4983
2026-01-16 01:30:06.79	351.99	81.62	-45.2	-48.2	22.5	5.98e-01	0	43	0	561512448	62	4932
2026-01-16 01:30:08.08	349.39	82.33	-45.2	-48.1	22.6	6.03e-01	0	43	0	564133888	61	5166
2026-01-16 01:30:08.79	347.75	82.71	-45.3	-48.2	22.5	6.04e-01	0	43	0	565182464	61	5221
2026-01-16 01:30:10.07	344.31	83.38	-45.3	-48.2	22.5	6.03e-01	0	43	0	567803904	61	5257
2026-01-16 01:30:10.87	341.79	83.79	-45.4	-48.4	22.2	6.04e-01	0	44	0	569376768	61	5387
2026-01-16 01:30:12.01	337.56	84.35	-45.3	-48.3	22.3	6.00e-01	0	43	0	571473920	61	5315
2026-01-16 01:30:12.86	333.84	84.74	-45.3	-48.4	22.2	6.01e-01	0	43	0	573046784	61	5368
2026-01-16 01:30:14.00	327.92	85.23	-45.0	-48.0	22.6	6.02e-01	0	43	0	575143936	61	5103
2026-01-16 01:30:14.85	322.70	85.55	-45.0	-47.9	22.7	6.02e-01	0	43	0	576716800	61	5076
2026-01-16 01:30:15.98	314.58	85.91	-45.0	-47.8	22.7	6.01e-01	0	43	0	578813952	61	5031
2026-01-16 01:30:16.83	307.57	86.12	-44.4	-47.1	23.4	6.00e-01	0	43	0	580386816	60	4907
2026-01-16 01:30:17.97	297.13	86.30	-44.5	-47.2	23.4	6.01e-01	0	43	0	582483968	60	4944
2026-01-16 01:30:18.82	288.87	86.35	-44.7	-47.5	23.1	6.03e-01	0	43	0	584056832	60	5106
2026-01-16 01:30:20.10	276.45	86.28	-44.2	-46.8	23.6	6.00e-01	0	43	0	586678272	60	4744
2026-01-16 01:30:20.81	269.93	86.17	-44.6	-47.4	23.2	5.99e-01	0	43	0	587726848	60	5076
2026-01-16 01:30:22.09	259.33	85.86	-45.1	-48.0	22.7	6.03e-01	0	43	0	590348288	60	5407
2026-01-16 01:30:22.82	254.08	85.62	-44.7	-47.5	23.1	6.01e-01	0	43	0	591396864	60	5136
2026-01-16 01:30:24.10	246.21	85.14	-45.3	-48.5	22.0	6.01e-01	0	43	0	594018304	61	5431
2026-01-16 01:30:24.81	242.53	84.83	-45.7	-49.2	21.5	6.02e-01	0	43	0	595591168	62	5530
2026-01-16 01:30:26.09	236.92	84.24	-45.0	-48.1	22.5	6.02e-01	0	43	0	597688320	62	4872
2026-01-16 01:30:26.91	233.91	83.84	-45.4	-48.5	22.2	6.00e-01	0	43	0	599261184	61	5454
2026-01-16 01:30:28.05	230.35	83.26	-45.7	-48.9	21.8	6.00e-01	0	43	0	601358336	62	5383
2026-01-16 01:30:28.90	228.07	82.81	-45.2	-48.2	22.4	6.02e-01	0	43	0	602931200	62	4954
2026-01-16 01:30:30.04	225.44	82.19	-45.4	-48.6	22.1	6.02e-01	0	43	0	605028352	62	5180
2026-01-16 01:30:30.90	223.72	81.72	-45.6	-48.7	21.9	6.00e-01	0	43	0	606601216	62	5269
2026-01-16 01:30:32.03	221.74	81.09	-45.6	-48.6	22.2	5.99e-01	0	43	0	609222656	62	5176
2026-01-16 01:30:32.89	220.42	80.61	-45.8	-48.9	21.8	5.99e-01	0	43	0	610795520	62	5352
2026-01-16 01:30:34.02	218.88	79.97	-45.8	-49.0	21.8	6.00e-01	0	43	0	612368384	62	5430
2026-01-16 01:30:34.88	217.83	79.48	-46.1	-49.3	21.4	6.02e-01	0	43	0	614465536	62	5656
2026-01-16 01:30:36.11	216.50	78.77	-46.2	-49.4	21.3	5.99e-01	0	43	0	616562688	63	5387
2026-01-16 01:30:36.96	215.67	78.29	-46.7	-50.0	20.7	6.00e-01	0	43	0	618135552	64	5453
2026-01-16 01:30:38.10	214.67	77.63	-46.8	-50.1	20.6	6.00e-01	0	43	0	620232704	64	5523
2026-01-16 01:30:38.95	214.00	77.14	-47.1	-50.7	20.0	6.00e-01	0	43	0	621805568	64	5888
2026-01-16 01:30:40.09	213.17	76.49	-47.2	-50.7	20.0	6.02e-01	0	43	0	623902720	64	5909
2026-01-16 01:30:41.00	212.56	75.96	-47.4	-51.1	19.7	6.07e-01	0	43	0	625999872	65	5791
2026-01-16 01:30:42.00	211.95	75.39	-48.0	-52.0	18.8	6.02e-01	0	43	0	627572736	66	6064
2026-01-16 01:30:42.99	211.39	74.82	-47.2	-50.9	19.8	6.02e-01	0	43	0	629669888	66	5361
2026-01-16 01:30:43.99	210.87	74.25	-47.1	-50.6	20.1	6.01e-01	0	43	0	631242752	66	5195
2026-01-16 01:30:44.98	210.39	73.68	-48.0	-52.1	18.7	6.00e-01	0	43	0	633339904	66	6169
2026-01-16 01:30:45.98	209.94	73.11	-47.7	-51.4	19.4	6.03e-01	0	43	0	634912768	66	5685
2026-01-16 01:30:46.97	209.52	72.55	-47.3	-50.9	19.8	6.01e-01	0	43	0	637009920	66	5398
2026-01-16 01:30:47.97	209.13	71.99	-47.4	-51.1	19.6	6.02e-01	0	43	0	638582784	66	5483
2026-01-16 01:30:48.96	208.77	71.43	-48.0	-52.1	18.7	6.01e-01	0	43	0	640679936	66	6170
2026-01-16 01:30:49.96	208.43	70.87	-48.1	-52.0	18.7	6.02e-01	0	43	0	642777088	67	5770
2026-01-16 01:30:50.95	208.11	70.32	-47.9	-51.8	19.0	6.00e-01	0	43	0	644349952	67	5626
2026-01-16 01:30:51.95	207.81	69.76	-48.4	-52.8	18.0	6.01e-01	0	43	0	646447104	67	6292
2026-01-16 01:30:52.96	207.52	69.21	-48.6	-53.1	17.7	6.00e-01	0	43	0	648019968	67	6508
2026-01-16 01:30:54.00	207.24	68.63	-48.4	-52.7	18.0	6.02e-01	0	44	0	650117120	67	6241
2026-01-16 01:30:55.00	206.98	68.09	-48.3	-52.6	18.2	6.02e-01	0	44	0	652214272	67	6146
2026-01-16 01:30:55.99	206.74	67.55	-48.4	-52.6	18.2	6.03e-01	0	43	0	653787136	67	6142
2026-01-16 01:30:56.99	206.52	67.01	-48.3	-52.6	18.1	6.01e-01	0	44	0	655884288	67	6167
2026-01-16 01:30:57.98	206.30	66.48	-47.6	-51.6	19.2	6.03e-01	0	43	0	657457152	67	5469
2026-01-16 01:30:58.98	206.10	65.95	-47.5	-51.2	19.5	6.01e-01	0	43	0	659554304	67	5253
2026-01-16 01:30:59.98	205.90	65.42	-47.4	-51.1	19.6	6.00e-01	0	43	0	661127168	66	5520
2026-01-16 01:31:00.97	205.71	64.89	-47.4	-51.2	19.5	6.02e-01	0	43	0	663224320	66	5565
2026-01-16 01:31:01.97	205.54	64.37	-46.8	-50.4	20.3	6.01e-01	0	43	0	664797184	65	5345
2026-01-16 01:31:02.96	205.37	63.86	-46.4	-49.8	20.9	6.02e-01	0	43	0	666894336	64	5281
2026-01-16 01:31:03.96	205.20	63.34	-46.2	-49.5	21.2	6.01e-01	0	43	0	668991488	64	5121
2026-01-16 01:31:04.95	205.05	62.83	-46.5	-49.8	20.9	6.01e-01	0	43	0	670564352	64	5291
2026-01-16 01:31:05.95	204.90	62.33	-46.5	-49.7	21.0	6.00e-01	0	43	0	672661504	64	5267
2026-01-16 01:31:06.94	204.76	61.83	-46.0	-49.1	21.6	6.02e-01	0	43	0	674234368	64	4896
2026-01-16 01:31:07.93	204.63	61.33	-46.1	-49.4	21.4	6.00e-01	0	43	0	676331520	64	5049
2026-01-16 01:31:08.98	204.49	60.81	-46.0	-49.2	21.5	6.04e-01	0	43	0	677904384	63	5262
2026-01-16 01:31:09.92	204.37	60.34	-45.6	-48.8	22.0	6.04e-01	0	43	0	680001536	63	5006
2026-01-16 01:31:10.92	204.25	59.85	-45.5	-48.6	22.1	6.02e-01	0	43	0	681574400	63	4908
2026-01-16 01:31:11.91	204.13	59.37	-45.6	-48.6	22.1	6.02e-01	0	44	0	683671552	63	4915
2026-01-16 01:31:12.91	204.02	58.89	-45.5	-48.5	22.2	6.02e-01	0	43	0	685768704	63	4815
2026-01-16 01:31:13.90	203.91	58.41	-45.5	-48.4	22.3	6.01e-01	0	43	0	687341568	63	4785
2026-01-16 01:31:14.89	203.81	57.94	-45.5	-48.4	22.3	5.99e-01	0	43	0	689438720	63	4808
2026-01-16 01:31:15.89	203.71	57.47	-45.1	-47.8	22.8	6.00e-01	0	43	0	691011584	62	4757
2026-01-16 01:31:16.88	203.61	57.01	-44.5	-47.1	23.5	6.01e-01	0	43	0	693108736	61	4651
2026-01-16 01:31:17.88	203.52	56.55	-44.6	-47.2	23.1	6.02e-01	0	43	0	694681600	61	4704
2026-01-16 01:31:18.87	203.43	56.09	-44.5	-47.2	23.5	6.02e-01	0	43	0	696778752	61	4661
2026-01-16 01:31:19.94	203.34	55.61	-44.4	-47.1	23.5	6.02e-01	0	44	0	698875904	60	4907
2026-01-16 01:31:20.84	203.26	55.20	-44.1	-46.7	23.9	6.01e-01	0	43	0	700448768	60	4655
2026-01-16 01:31:22.11	203.16	54.63	-44.2	-46.8	23.9	5.99e-01	0	44	0	702545920	60	4718
2026-01-16 01:31:22.89	203.09	54.29	-44.1	-46.5	24.1	6.03e-01	0	43	0	704118784	59	4866
2026-01-16 01:31:24.09	203.00	53.76	-44.0	-46.4	24.3	6.02e-01	0	43	0	706740224	59	4793
2026-01-16 01:31:24.95	202.94	53.38	-44.0	-46.5	24.2	6.02e-01	0	43	0	708313088	59	4840
2026-01-16 01:31:26.09	202.86	52.89	-44.1	-46.7	24.0	6.02e-01	0	43	0	710410240	59	4939
2026-01-16 01:31:27.02	202.79	52.49	-44.2	-46.8	23.8	6.04e-01	0	43	0	711983104	59	5029
2026-01-16 01:31:28.01	202.73	52.07	-44.4	-47.0	23.7	6.03e-01	0	43	0	714080256	59	5119
2026-01-16 01:31:29.01	202.66	51.65	-44.4	-47.0	23.7	6.02e-01	0	43	0	715653120	59	5105
2026-01-16 01:31:30.00	202.60	51.24	-44.4	-46.9	23.8	6.01e-01	0	43	0	717750272	59	5068
2026-01-16 01:31:31.00	202.54	50.83	-44.7	-47.3	23.5	6.04e-01	0	43	0	719323136	59	5284
2026-01-16 01:31:31.99	202.48	50.42	-44.8	-47.5	23.1	6.01e-01	0	43	0	721420288	60	5141
2026-01-16 01:31:32.99	202.42	50.02	-44.8	-47.5	23.1	6.04e-01	0	43	0	722993152	60	5149
2026-01-16 01:31:33.98	202.36	49.62	-44.8	-47.5	23.0	6.02e-01	0	43	0	725090304	60	5148
2026-01-16 01:31:34.98	202.31	49.22	-44.6	-47.5	23.1	6.00e-01	0	43	0	727187456	60	5158
2026-01-16 01:31:35.97	202.26	48.83	-44.6	-47.6	23.0	6.03e-01	0	43	0	728760320	60	5180
2026-01-16 01:31:36.97	202.20	48.44	-44.7	-47.7	22.9	6.00e-01	0	43	0	730857472	60	5270
2026-01-16 01:31:37.96	202.15	48.06	-44.6	-47.6	23.0	6.05e-01	0	43	0	732430336	60	5207
2026-01-16 01:31:38.96	202.10	47.67	-44.8	-47.9	22.8	6.04e-01	0	43	0	734527488	60	5351
2026-01-16 01:31:39.95	202.06	47.30	-45.0	-47.9	22.7	6.02e-01	0	43	0	736100352	60	5384
2026-01-16 01:31:40.95	202.01	46.92	-44.9	-47.7	23.0	6.01e-01	0	43	0	738197504	60	5251
2026-01-16 01:31:41.94	201.96	46.55	-44.8	-47.6	23.0	6.00e-01	0	43	0	739770368	60	5172
2026-01-16 01:31:42.94	201.92	46.18	-44.9	-47.7	22.9	6.01e-01	0	43	0	741867520	60	5228
2026-01-16 01:31:43.94	201.88	45.81	-44.7	-47.5	23.2	6.01e-01	0	43	0	743964672	60	5113
2026-01-16 01:31:44.93	201.83	45.45	-44.6	-47.4	23.2	6.01e-01	0	43	0	745537536	60	5050
2026-01-16 01:31:45.93	201.79	45.09	-44.6	-47.2	23.4	6.02e-01	0	43	0	747634688	60	4972
2026-01-16 01:31:46.92	201.75	44.74	-44.6	-47.3	23.3	6.01e-01	0	43	0	749207552	60	5003
2026-01-16 01:31:47.91	201.71	44.39	-44.6	-47.2	23.4	6.00e-01	0	43	0	751304704	60	4961
2026-01-16 01:31:48.94	201.67	44.03	-44.8	-47.5	23.1	6.02e-01	0	43	0	753401856	60	5111
2026-01-16 01:31:49.96	201.64	43.68	-45.3	-48.1	22.6	6.02e-01	0	44	0	754974720	61	5199
2026-01-16 01:31:50.99	201.60	43.32	-45.4	-48.4	22.3	6.01e-01	0	43	0	757071872	61	5348
2026-01-16 01:31:51.98	201.56	42.99	-45.2	-48.1	22.5	6.03e-01	0	43	0	758644736	61	5197
2026-01-16 01:31:52.98	201.53	42.65	-45.0	-47.9	22.7	6.01e-01	0	43	0	760741888	61	5069
2026-01-16 01:31:53.97	201.49	42.32	-45.0	-47.9	22.7	6.01e-01	0	43	0	762314752	61	5080
2026-01-16 01:31:54.97	201.46	41.99	-44.9	-47.8	22.8	6.01e-01	0	43	0	764411904	61	5018
2026-01-16 01:31:55.96	201.43	41.67	-45.1	-48.1	22.6	6.01e-01	0	43	0	766509056	61	5184
2026-01-16 01:31:56.96	201.40	41.34	-45.3	-48.4	22.3	6.01e-01	0	43	0	768081920	61	5351
2026-01-16 01:31:57.95	201.37	41.02	-45.6	-48.8	21.9	6.03e-01	0	43	0	770179072	61	5597
2026-01-16 01:31:58.95	201.34	40.70	-45.8	-48.9	21.8	6.01e-01	0	43	0	771751936	62	5370
2026-01-16 01:31:59.94	201.31	40.39	-45.8	-48.9	21.8	6.02e-01	0	43	0	773849088	62	5384
2026-01-16 01:32:00.94	201.28	40.08	-45.9	-49.0	21.7	6.02e-01	0	43	0	775421952	62	5428
2026-01-16 01:32:01.93	201.25	39.77	-45.8	-49.0	21.7	6.01e-01	0	43	0	777519104	62	5439
2026-01-16 01:32:02.93	201.22	39.47	-45.7	-48.8	21.9	6.02e-01	0	43	0	779091968	62	5319
2026-01-16 01:32:03.92	201.19	39.16	-45.7	-48.9	21.7	6.00e-01	0	43	0	781189120	62	5400
2026-01-16 01:32:04.92	201.17	38.86	-45.9	-49.3	21.4	5.98e-01	0	43	0	783286272	62	5605
2026-01-16 01:32:05.91	201.14	38.57	-45.9	-49.2	21.5	6.03e-01	0	43	0	784859136	62	5562
2026-01-16 01:32:06.91	201.12	38.27	-46.0	-49.3	21.4	6.00e-01	0	43	0	786956288	62	5642
2026-01-16 01:32:07.90	201.09	37.98	-46.1	-49.5	21.2	6.02e-01	0	44	0	788529152	62	5762
2026-01-16 01:32:08.96	201.06	37.67	-46.2	-49.6	21.1	6.02e-01	0	43	0	790626304	63	5486
2026-01-16 01:32:09.84	201.04	37.42	-46.1	-49.5	21.2	6.03e-01	0	43	0	792199168	63	5416
2026-01-16 01:32:11.15	201.01	37.05	-46.1	-49.3	21.3	6.02e-01	0	43	0	794820608	63	5319
2026-01-16 01:32:11.87	201.00	36.84	-46.0	-49.2	21.5	5.99e-01	0	43	0	795869184	63	5229
2026-01-16 01:32:13.14	200.97	36.49	-45.7	-48.7	22.0	6.01e-01	0	43	0	798490624	63	4945
2026-01-16 01:32:13.86	200.95	36.29	-45.5	-48.4	22.2	6.00e-01	0	43	0	800063488	63	4812
2026-01-16 01:32:15.14	200.92	35.94	-45.3	-48.2	22.4	6.00e-01	0	43	0	802160640	62	4960
2026-01-16 01:32:15.86	200.91	35.74	-45.2	-48.0	22.6	6.02e-01	0	43	0	803733504	62	4846
2026-01-16 01:32:17.14	200.88	35.39	-45.0	-47.9	22.8	5.98e-01	0	43	0	805830656	62	4778
2026-01-16 01:32:17.87	200.86	35.20	-44.9	-47.7	22.9	6.02e-01	0	43	0	807403520	61	4960
2026-01-16 01:32:19.14	200.84	34.86	-44.8	-47.7	22.9	6.04e-01	0	43	0	810024960	61	4959
2026-01-16 01:32:20.00	200.82	34.64	-44.7	-47.5	23.1	6.02e-01	0	43	0	811597824	61	4861
2026-01-16 01:32:21.13	200.80	34.34	-44.7	-47.6	23.0	6.02e-01	0	44	0	813694976	61	4891
2026-01-16 01:32:21.99	200.78	34.12	-44.7	-47.5	23.0	6.00e-01	0	43	0	815267840	61	4852
2026-01-16 01:32:23.12	200.76	33.83	-44.6	-47.4	23.2	6.04e-01	0	44	0	817364992	61	4785
2026-01-16 01:32:24.23	200.74	33.55	-44.5	-47.2	23.3	6.00e-01	0	43	0	819462144	60	4970
2026-01-16 01:32:25.08	200.73	33.34	-44.4	-47.2	23.4	5.99e-01	0	43	0	821035008	60	4939
2026-01-16 01:32:26.22	200.71	33.05	-44.5	-47.2	23.3	6.01e-01	0	43	0	823132160	60	4965
2026-01-16 01:32:27.07	200.69	32.84	-44.5	-47.2	23.3	6.03e-01	0	44	0	824705024	60	4977
2026-01-16 01:32:28.21	200.67	32.56	-44.3	-46.9	23.5	6.04e-01	0	43	0	826802176	60	4812
2026-01-16 01:32:29.06	200.66	32.36	-44.2	-46.8	23.6	6.04e-01	0	43	0	828375040	60	4755
2026-01-16 01:32:30.20	200.64	32.08	-44.3	-46.9	23.6	6.02e-01	0	43	0	830472192	60	4795
2026-01-16 01:32:31.05	200.63	31.88	-44.2	-46.8	23.7	6.03e-01	0	43	0	832045056	60	4739
2026-01-16 01:32:32.19	200.61	31.61	-44.0	-46.6	23.9	6.00e-01	0	43	0	834142208	60	4627
2026-01-16 01:32:33.04	200.60	31.41	-44.0	-46.6	23.8	6.01e-01	0	43	0	835715072	60	4648
2026-01-16 01:32:34.17	200.58	31.15	-44.0	-46.6	23.9	6.00e-01	0	43	0	837812224	60	4641
2026-01-16 01:32:35.03	200.56	30.95	-44.2	-46.8	23.8	6.03e-01	0	43	0	839385088	59	5018
2026-01-16 01:32:36.16	200.55	30.69	-44.1	-46.7	23.9	6.04e-01	0	43	0	841482240	59	4953
2026-01-16 01:32:37.02	200.54	30.50	-44.2	-46.7	23.9	6.03e-01	0	43	0	843055104	59	4969
2026-01-16 01:32:38.15	200.52	30.24	-44.1	-46.7	23.9	6.02e-01	0	44	0	845152256	59	4959
2026-01-16 01:32:39.01	200.51	30.05	-44.0	-46.5	24.1	6.02e-01	0	43	0	847249408	59	4864
2026-01-16 01:32:40.15	200.49	29.80	-44.0	-46.5	24.0	6.02e-01	0	43	0	849346560	59	4864
2026-01-16 01:32:41.22	200.48	29.56	-44.1	-46.7	23.9	6.02e-01	0	43	0	850919424	59	4955
2026-01-16 01:32:42.07	200.47	29.38	-44.2	-46.8	23.8	6.01e-01	0	43	0	852492288	59	5012
2026-01-16 01:32:43.21	200.45	29.13	-44.3	-46.9	23.7	6.00e-01	0	43	0	855113728	59	5084
2026-01-16 01:32:44.06	200.44	28.95	-44.3	-47.0	23.6	6.01e-01	0	43	0	856686592	59	5135
2026-01-16 01:32:45.20	200.43	28.71	-44.4	-47.1	23.5	6.03e-01	0	43	0	858783744	59	5170
2026-01-16 01:32:46.06	200.42	28.53	-44.4	-47.2	23.4	6.00e-01	0	43	0	860356608	59	5227
2026-01-16 01:32:47.19	200.40	28.29	-44.5	-47.3	23.3	6.02e-01	0	43	0	862453760	59	5295
2026-01-16 01:32:48.04	200.39	28.12	-44.6	-47.4	23.2	6.03e-01	0	43	0	864026624	59	5363
2026-01-16 01:32:49.18	200.38	27.88	-44.5	-47.3	23.2	6.02e-01	0	43	0	866123776	60	5006
2026-01-16 01:32:50.04	200.37	27.71	-44.6	-47.4	23.1	6.03e-01	0	43	0	867696640	60	5059
2026-01-16 01:32:51.18	200.35	27.48	-44.6	-47.5	23.1	6.00e-01	0	43	0	869793792	60	5104
2026-01-16 01:32:52.03	200.35	27.30	-44.6	-47.4	23.1	6.00e-01	0	43	0	871366656	60	5087
2026-01-16 01:32:53.16	200.33	27.08	-44.6	-47.4	23.1	6.01e-01	0	43	0	873463808	60	5050
2026-01-16 01:32:54.02	200.32	26.91	-44.6	-47.4	23.1	6.02e-01	0	43	0	875036672	60	5049
2026-01-16 01:32:55.15	200.31	26.69	-44.5	-47.3	23.2	6.01e-01	0	43	0	877133824	60	4992
2026-01-16 01:32:56.01	200.30	26.52	-44.5	-47.2	23.2	6.04e-01	0	44	0	878706688	60	4977
2026-01-16 01:32:57.14	200.29	26.30	-44.4	-47.1	23.4	6.00e-01	0	43	0	880803840	60	4887
2026-01-16 01:32:58.00	200.28	26.14	-44.4	-47.1	23.4	6.01e-01	0	43	0	882376704	60	4894
2026-01-16 01:32:59.13	200.27	25.92	-44.5	-47.2	23.3	6.00e-01	0	43	0	884998144	60	4944
2026-01-16 01:32:59.99	200.26	25.76	-44.6	-47.3	23.2	6.03e-01	0	43	0	886571008	60	5004
2026-01-16 01:33:01.12	200.25	25.55	-44.6	-47.4	23.1	6.03e-01	0	43	0	888668160	60	5057
2026-01-16 01:33:01.98	200.24	25.39	-44.6	-47.4	23.1	6.01e-01	0	43	0	890241024	60	5065
2026-01-16 01:33:03.11	200.23	25.18	-44.6	-47.4	23.1	6.00e-01	0	43	0	892338176	60	5091
2026-01-16 01:33:03.97	200.22	25.02	-44.7	-47.5	23.0	6.02e-01	0	43	0	893911040	60	5120
2026-01-16 01:33:05.10	200.21	24.82	-44.8	-47.5	22.9	6.03e-01	0	43	0	896008192	60	5154
2026-01-16 01:33:06.33	200.20	24.60	-44.8	-47.6	22.9	6.01e-01	0	43	0	898105344	60	5197
2026-01-16 01:33:07.36	200.19	24.41	-44.9	-47.7	22.8	6.01e-01	0	43	0	900202496	60	5231
2026-01-16 01:33:08.35	200.18	24.24	-44.9	-47.7	22.7	6.02e-01	0	43	0	901775360	60	5277
2026-01-16 01:33:09.35	200.18	24.06	-45.0	-47.8	22.7	6.00e-01	0	43	0	903872512	60	5329
2026-01-16 01:33:10.34	200.17	23.89	-45.1	-47.9	22.6	6.00e-01	0	43	0	905969664	60	5359
2026-01-16 01:33:11.34	200.16	23.71	-45.0	-47.8	22.7	6.05e-01	0	43	0	907542528	60	5308
2026-01-16 01:33:12.33	200.15	23.54	-45.1	-47.9	22.6	6.02e-01	0	43	0	909639680	60	5357
2026-01-16 01:33:13.33	200.14	23.37	-45.2	-48.0	22.5	6.00e-01	0	43	0	911212544	60	5426
2026-01-16 01:33:14.32	200.14	23.20	-45.1	-48.0	22.5	6.03e-01	0	43	0	913309696	60	5407
2026-01-16 01:33:15.32	200.13	23.04	-45.3	-48.1	22.3	6.03e-01	0	43	0	914882560	61	5187
2026-01-16 01:33:16.31	200.12	22.87	-45.2	-48.1	22.4	6.01e-01	0	43	0	916979712	61	5174
2026-01-16 01:33:17.31	200.11	22.70	-45.3	-48.2	22.3	6.03e-01	0	43	0	918552576	61	5224
2026-01-16 01:33:18.34	200.11	22.53	-45.3	-48.2	22.2	6.00e-01	0	43	0	920649728	61	5273
2026-01-16 01:33:19.36	200.10	22.37	-45.3	-48.2	22.3	6.02e-01	0	43	0	922746880	61	5255
2026-01-16 01:33:20.36	200.09	22.20	-45.3	-48.3	22.2	6.02e-01	0	43	0	924319744	61	5285
2026-01-16 01:33:21.35	200.08	22.04	-45.2	-48.1	22.3	6.03e-01	0	43	0	926416896	61	5202
2026-01-16 01:33:22.35	200.08	21.88	-45.2	-48.1	22.4	6.02e-01	0	43	0	928514048	61	5189
2026-01-16 01:33:23.34	200.07	21.73	-45.2	-48.1	22.4	5.99e-01	0	43	0	930086912	61	5184
2026-01-16 01:33:24.34	200.06	21.57	-45.0	-47.9	22.6	6.02e-01	0	43	0	932184064	61	5072
2026-01-16 01:33:25.33	200.06	21.41	-45.1	-48.0	22.4	6.01e-01	0	43	0	933756928	61	5105
2026-01-16 01:33:26.33	200.05	21.26	-45.0	-47.9	22.6	6.04e-01	0	43	0	935854080	61	5046
2026-01-16 01:33:27.32	200.04	21.10	-44.9	-47.8	22.6	6.01e-01	0	43	0	937426944	61	5021
2026-01-16 01:33:28.32	200.04	20.95	-44.9	-47.8	22.6	6.02e-01	0	44	0	939524096	61	5011
2026-01-16 01:33:29.31	200.03	20.80	-45.0	-47.9	22.6	6.03e-01	0	43	0	941096960	61	5043
2026-01-16 01:33:30.31	200.03	20.64	-44.8	-47.7	22.7	6.03e-01	0	43	0	943194112	61	4955
2026-01-16 01:33:31.30	200.02	20.49	-44.7	-47.6	22.9	6.02e-01	0	43	0	945291264	61	4878
2026-01-16 01:33:32.29	200.01	20.35	-44.6	-47.5	22.9	6.03e-01	0	44	0	946864128	61	4822
2026-01-16 01:33:33.29	200.01	20.20	-44.6	-47.5	23.0	6.02e-01	0	43	0	948961280	61	4820
2026-01-16 01:33:34.28	200.00	20.05	-44.5	-47.4	23.0	6.00e-01	0	43	0	950534144	61	4791
2026-01-16 01:33:35.29	200.00	19.90	-44.6	-47.4	22.9	6.03e-01	0	43	0	952631296	61	4810
2026-01-16 01:33:36.29	199.99	19.75	-44.6	-47.5	22.9	6.01e-01	0	43	0	954204160	61	4820
2026-01-16 01:33:37.28	199.99	19.61	-44.6	-47.5	22.9	6.00e-01	0	43	0	956301312	61	4837
2026-01-16 01:33:38.45	199.98	19.44	-44.6	-47.5	22.9	6.02e-01	0	43	0	958398464	61	4857
2026-01-16 01:33:39.34	199.97	19.31	-44.6	-47.5	22.9	6.00e-01	0	43	0	959971328	61	4845
2026-01-16 01:33:40.47	199.97	19.15	-44.6	-47.5	22.9	6.02e-01	0	43	0	962068480	61	4857
2026-01-16 01:33:41.32	199.96	19.03	-44.7	-47.6	22.7	6.03e-01	0	43	0	963641344	61	4911
2026-01-16 01:33:42.46	199.96	18.87	-44.7	-47.7	22.7	6.03e-01	0	43	0	965738496	61	4927
2026-01-16 01:33:43.31	199.95	18.75	-44.7	-47.8	22.6	6.01e-01	0	43	0	967311360	61	4984
2026-01-16 01:33:44.45	199.95	18.59	-44.7	-47.7	22.7	6.00e-01	0	43	0	969932800	61	4968
2026-01-16 01:33:45.30	199.94	18.48	-44.7	-47.8	22.6	6.00e-01	0	44	0	971505664	61	4994
2026-01-16 01:33:46.44	199.94	18.32	-44.8	-47.8	22.6	6.01e-01	0	43	0	973602816	61	5010
2026-01-16 01:33:47.29	199.93	18.20	-44.8	-47.8	22.5	6.02e-01	0	43	0	975175680	61	5037
2026-01-16 01:33:48.43	199.93	18.05	-44.8	-47.9	22.5	6.02e-01	0	44	0	977272832	61	5064
2026-01-16 01:33:49.28	199.92	17.94	-44.8	-47.9	22.4	6.02e-01	0	43	0	978845696	61	5076
2026-01-16 01:33:50.42	199.92	17.78	-44.8	-47.9	22.4	6.00e-01	0	43	0	980942848	61	5096
2026-01-16 01:33:51.27	199.92	17.67	-44.9	-48.0	22.3	6.04e-01	0	43	0	982515712	61	5142
2026-01-16 01:33:52.41	199.91	17.52	-44.9	-48.1	22.3	6.04e-01	0	43	0	984612864	61	5163
2026-01-16 01:33:53.26	199.91	17.41	-44.9	-48.0	22.3	6.00e-01	0	43	0	986185728	61	5150
2026-01-16 01:33:54.40	199.90	17.26	-45.0	-48.1	22.3	6.03e-01	0	43	0	988282880	61	5190
2026-01-16 01:33:55.30	199.90	17.14	-45.0	-48.1	22.3	6.04e-01	0	43	0	989855744	61	5183
2026-01-16 01:33:56.61	199.89	16.97	-44.9	-48.0	22.3	6.02e-01	0	44	0	992477184	61	5148
2026-01-16 01:33:57.32	199.89	16.88	-44.9	-48.0	22.3	6.03e-01	0	43	0	994050048	61	5131
2026-01-16 01:33:58.60	199.89	16.72	-45.0	-48.1	22.3	6.02e-01	0	43	0	996147200	61	5165
2026-01-16 01:33:59.31	199.88	16.63	-44.9	-48.0	22.3	6.02e-01	0	43	0	997720064	61	5113
2026-01-16 01:34:00.59	199.88	16.46	-45.0	-48.0	22.3	6.01e-01	0	43	0	999817216	61	5138
2026-01-16 01:34:01.30	199.87	16.37	-45.0	-48.1	22.2	6.01e-01	0	43	0	1001390080	61	5170
2026-01-16 01:34:02.58	199.87	16.21	-45.1	-48.1	22.2	6.01e-01	0	43	0	1003487232	61	5217
2026-01-16 01:34:03.29	199.87	16.13	-45.0	-48.0	22.3	6.03e-01	0	43	0	1005060096	61	5142
2026-01-16 01:34:04.57	199.86	15.97	-45.0	-48.1	22.2	6.02e-01	0	43	0	1007157248	61	5160
2026-01-16 01:34:05.29	199.86	15.88	-45.0	-48.1	22.3	5.99e-01	0	43	0	1008730112	61	5186
2026-01-16 01:34:06.57	199.86	15.72	-45.1	-48.1	22.2	5.99e-01	0	43	0	1011351552	61	5203
2026-01-16 01:34:07.28	199.85	15.64	-45.0	-48.1	22.2	6.01e-01	0	43	0	1012400128	61	5180
2026-01-16 01:34:08.56	199.85	15.48	-45.0	-48.1	22.2	5.99e-01	0	43	0	1015021568	61	5194
2026-01-16 01:34:09.27	199.85	15.40	-45.0	-48.0	22.3	6.00e-01	0	44	0	1016070144	61	5159
2026-01-16 01:34:10.55	199.84	15.24	-45.0	-48.0	22.2	6.01e-01	0	43	0	1018691584	61	5158
2026-01-16 01:34:11.29	199.84	15.16	-45.0	-48.0	22.3	6.03e-01	0	43	0	1020264448	61	5135
2026-01-16 01:34:12.76	199.84	14.98	-44.9	-48.0	22.4	6.05e-01	0	43	0	1022885888	61	5108
2026-01-16 01:34:13.47	199.83	14.90	-44.9	-47.9	22.4	6.02e-01	0	43	0	1023934464	61	5081
2026-01-16 01:34:14.75	199.83	14.75	-44.9	-47.9	22.4	6.03e-01	0	43	0	1026555904	61	5088
2026-01-16 01:34:15.47	199.83	14.67	-44.9	-47.9	22.4	6.03e-01	0	43	0	1027604480	61	5077
2026-01-16 01:34:16.75	199.82	14.52	-44.9	-47.9	22.3	6.02e-01	0	43	0	1030225920	61	5085
2026-01-16 01:34:17.48	199.82	14.43	-44.9	-47.8	22.4	6.02e-01	0	44	0	1031798784	61	5038
2026-01-16 01:34:18.76	199.82	14.29	-44.9	-47.9	22.4	6.02e-01	0	44	0	1033895936	61	5056
2026-01-16 01:34:19.50	199.81	14.20	-44.8	-47.8	22.4	6.01e-01	0	43	0	1035468800	61	5014
2026-01-16 01:34:20.77	199.81	14.06	-44.9	-47.8	22.4	6.01e-01	0	44	0	1037565952	61	5028
2026-01-16 01:34:21.51	199.81	13.98	-44.8	-47.8	22.5	6.01e-01	0	43	0	1039138816	61	4984
2026-01-16 01:34:22.79	199.81	13.83	-44.8	-47.7	22.6	6.00e-01	0	44	0	1041760256	61	4947
2026-01-16 01:34:23.50	199.80	13.75	-44.8	-47.8	22.5	5.99e-01	0	44	0	1042808832	61	4992
2026-01-16 01:34:24.79	199.80	13.61	-44.8	-47.7	22.5	6.03e-01	0	43	0	1045430272	61	4962
2026-01-16 01:34:25.50	199.80	13.53	-44.8	-47.7	22.6	6.02e-01	0	43	0	1046478848	61	4944
2026-01-16 01:34:26.77	199.80	13.39	-44.7	-47.6	22.6	6.00e-01	0	43	0	1049100288	61	4889
2026-01-16 01:34:27.67	199.79	13.29	-44.8	-47.7	22.5	6.02e-01	0	43	0	1050673152	61	4943
2026-01-16 01:34:29.08	199.79	13.14	-44.7	-47.7	22.6	6.03e-01	0	44	0	1053294592	61	4932
2026-01-16 01:34:29.79	199.79	13.06	-44.7	-47.6	22.0	6.03e-01	0	44	0	1054867456	61	4898
2026-01-16 01:34:31.07	199.79	12.93	-44.7	-47.7	22.5	6.02e-01	0	43	0	1056964608	61	4943
2026-01-16 01:34:31.79	199.78	12.85	-44.7	-47.6	22.6	6.03e-01	0	44	0	1058537472	61	4895
2026-01-16 01:34:33.07	199.78	12.71	-44.7	-47.7	22.5	6.00e-01	0	43	0	1060634624	61	4942
2026-01-16 01:34:33.78	199.78	12.64	-44.7	-47.7	22.5	6.02e-01	0	43	0	1062207488	61	4937
2026-01-16 01:34:35.06	199.78	12.50	-44.8	-47.7	22.4	5.98e-01	0	44	0	1064828928	61	4978
2026-01-16 01:34:35.77	199.77	12.43	-44.7	-47.7	22.5	6.01e-01	0	43	0	1065877504	61	4952
2026-01-16 01:34:37.05	199.77	12.30	-44.7	-47.7	22.5	6.02e-01	0	43	0	1068498944	61	4973
2026-01-16 01:34:37.76	199.77	12.22	-44.7	-47.7	22.5	6.00e-01	0	43	0	1069547520	61	4966
2026-01-16 01:34:39.04	199.77	12.09	-44.7	-47.7	22.4	6.02e-01	0	44	0	1072168960	61	4966
2026-01-16 01:34:39.77	199.77	12.01	-44.7	-47.7	22.5	5.99e-01	0	43	0	1073217536	61	4951
2026-01-16 01:34:41.16	199.76	11.87	-44.6	-47.7	22.5	6.00e-01	0	43	0	1075838976	61	4936
2026-01-16 01:34:41.87	199.76	11.80	-44.6	-47.7	22.5	6.02e-01	0	43	0	1077411840	61	4938
2026-01-16 01:34:43.15	199.76	11.67	-44.7	-47.8	22.4	6.03e-01	0	43	0	1079508992	61	4989
2026-01-16 01:34:44.20	199.76	11.56	-44.7	-47.8	22.4	6.04e-01	0	44	0	1081606144	61	5007
2026-01-16 01:34:45.37	199.76	11.45	-44.8	-47.9	22.2	6.03e-01	0	44	0	1083703296	61	5065
2026-01-16 01:34:46.22	199.75	11.36	-44.7	-47.8	22.3	6.01e-01	0	43	0	1085276160	61	5023
2026-01-16 01:34:47.36	199.75	11.25	-44.8	-48.0	22.1	6.00e-01	0	43	0	1087897600	61	5129
2026-01-16 01:34:48.21	199.75	11.16	-44.8	-48.0	22.1	6.02e-01	0	44	0	1089470464	61	5115
2026-01-16 01:34:49.35	199.75	11.05	-44.8	-48.0	22.1	6.00e-01	0	43	0	1091567616	61	5122
2026-01-16 01:34:50.20	199.75	10.97	-44.8	-48.0	22.1	6.02e-01	0	43	0	1093140480	61	5145
2026-01-16 01:34:51.34	199.75	10.86	-44.8	-48.0	22.1	6.02e-01	0	43	0	1095237632	61	5150
2026-01-16 01:34:52.19	199.74	10.77	-44.8	-48.0	22.1	6.01e-01	0	43	0	1096810496	61	5148
2026-01-16 01:34:53.33	199.74	10.66	-44.8	-48.0	22.1	6.04e-01	0	43	0	1098907648	61	5138
2026-01-16 01:34:54.18	199.74	10.58	-44.8	-48.1	22.0	6.02e-01	0	43	0	1100480512	61	5170
2026-01-16 01:34:55.32	199.74	10.47	-44.8	-48.1	22.0	6.03e-01	0	43	0	1102577664	61	5205
2026-01-16 01:34:56.17	199.74	10.39	-44.8	-48.1	22.0	6.06e-01	0	44	0	1104150528	61	5194
2026-01-16 01:34:57.30	199.74	10.28	-44.8	-48.1	22.0	6.01e-01	0	44	0	1106247680	61	5182
2026-01-16 01:34:58.16	199.73	10.20	-45.0	-48.3	21.8	6.01e-01	0	44	0	1107820544	61	5283
2026-01-16 01:34:59.51	199.73	10.07	-44.9	-48.2	21.8	5.99e-01	0	43	0	1110441984	61	5278
2026-01-16 01:35:00.22	199.73	10.01	-45.0	-48.3	21.8	6.01e-01	0	44	0	1111490560	61	5300
2026-01-16 01:35:01.50	199.73	9.89	-45.0	-48.3	21.7	6.01e-01	0	43	0	1114112000	61	5328
2026-01-16 01:35:02.21	199.73	9.82	-44.9	-48.3	21.8	6.00e-01	0	44	0	1115684864	61	5284
2026-01-16 01:35:03.49	199.73	9.70	-45.0	-48.3	21.7	6.02e-01	0	44	0	1117782016	61	5325
2026-01-16 01:35:04.21	199.73	9.64	-45.1	-48.4	21.7	6.01e-01	0	44	0	1119354880	61	5398
2026-01-16 01:35:05.49	199.73	9.52	-45.0	-48.3	21.7	6.00e-01	0	44	0	1121452032	61	5340
2026-01-16 01:35:06.21	199.72	9.45	-45.0	-48.4	21.6	6.02e-01	0	44	0	1123024896	61	5382
2026-01-16 01:35:07.49	199.72	9.33	-44.9	-48.4	21.7	6.01e-01	0	44	0	1125646336	61	5350
2026-01-16 01:35:08.20	199.72	9.27	-45.0	-48.4	21.6	6.02e-01	0	44	0	1126694912	61	5402
2026-01-16 01:35:09.48	199.72	9.15	-45.0	-48.5	21.5	6.01e-01	0	43	0	1129316352	61	5428
2026-01-16 01:35:10.19	199.72	9.09	-45.0	-48.5	21.5	5.99e-01	0	44	0	1130364928	61	5449
2026-01-16 01:35:11.55	199.72	8.97	-45.1	-48.7	21.5	6.01e-01	0	43	0	1132986368	61	5560
2026-01-16 01:35:12.26	199.72	8.90	-50.4	-65.7	4.3	7.38e-01	0	44	104	1134034944	71	22085
2026-01-16 01:35:13.62	199.72	8.78	-50.6	-71.3	3.8	7.46e-01	0	44	104	1134034944	71	42347
2026-01-16 01:35:14.33	199.72	8.72	-51.2	-71.7	3.8	7.48e-01	0	43	104	1134034944	73	39307
2026-01-16 01:35:15.65	199.71	8.60	-51.2	-71.8	3.8	7.47e-01	0	44	104	1134034944	73	39786
2026-01-16 01:35:16.36	199.71	8.54	-51.8	-71.9	3.8	7.43e-01	0	43	104	1134034944	74	37952
2026-01-16 01:35:17.71	199.71	8.42	-51.7	-71.9	3.8	7.46e-01	0	43	104	1134034944	74	38179
2026-01-16 01:35:18.42	199.71	8.36	-51.4	-71.9	3.8	7.46e-01	0	44	104	1134034944	74	38220
2026-01-16 01:35:19.76	199.71	8.24	-51.1	-72.0	3.8	7.47e-01	0	44	104	1134034944	73	40689
2026-01-16 01:35:20.47	199.71	8.18	-51.8	-72.0	3.8	7.45e-01	0	43	104	1134034944	74	38632
2026-01-16 01:35:21.80	199.71	8.07	-50.9	-72.0	3.8	7.45e-01	0	43	104	1134034944	73	40878
2026-01-16 01:35:22.51	199.71	8.01	-51.7	-72.0	3.8	7.45e-01	0	43	104	1134034944	74	38594
2026-01-16 01:35:23.79	199.71	7.90	-51.7	-72.1	3.8	7.49e-01	0	43	104	1134034944	74	38725
2026-01-16 01:35:24.50	199.71	7.84	-51.8	-72.1	3.8	7.44e-01	0	44	104	1134034944	74	38691
2026-01-16 01:35:25.77	199.71	7.73	-51.3	-72.1	3.8	7.48e-01	0	44	104	1134034944	74	38689
2026-01-16 01:35:26.50	199.71	7.67	-51.9	-72.1	3.8	7.44e-01	0	43	104	1134034944	74	38758
2026-01-16 01:35:27.78	199.70	7.56	-52.0	-72.0	3.8	7.45e-01	0	43	104	1134034944	74	38682
2026-01-16 01:35:28.50	199.70	7.50	-51.9	-72.1	3.8	7.47e-01	0	43	104	1134034944	75	36534
2026-01-16 01:35:29.78	199.70	7.39	-51.6	-72.1	3.8	7.47e-01	0	43	104	1134034944	75	36586
2026-01-16 01:35:30.49	199.70	7.33	-51.5	-72.0	3.8	7.48e-01	0	43	104	1134034944	75	36492
2026-01-16 01:35:31.76	199.70	7.23	-51.6	-72.0	3.8	7.43e-01	0	44	104	1134034944	75	36481
2026-01-16 01:35:32.47	199.70	7.17	-51.6	-72.0	3.8	7.44e-01	0	43	104	1134034944	74	38540
2026-01-16 01:35:33.75	199.70	7.06	-51.4	-72.0	3.8	7.48e-01	0	43	104	1134034944	73	40831
2026-01-16 01:35:34.46	199.70	7.00	-50.5	-72.0	3.8	7.44e-01	0	43	104	1134034944	72	43121
2026-01-16 01:35:35.74	199.70	6.90	-50.8	-71.9	3.8	7.43e-01	0	43	104	1134034944	72	42807
2026-01-16 01:35:36.46	199.70	6.84	-50.8	-71.9	3.8	7.44e-01	0	43	104	1134034944	72	42895
2026-01-16 01:35:37.74	199.70	6.74	-50.8	-71.9	3.8	7.45e-01	0	43	104	1134034944	72	42840
2026-01-16 01:35:38.45	199.70	6.68	-50.8	-71.9	3.8	7.44e-01	0	44	104	1134034944	72	42884
2026-01-16 01:35:39.73	199.70	6.58	-50.8	-71.9	3.8	7.46e-01	0	44	104	1134034944	72	42797
2026-01-16 01:35:40.43	199.70	6.52	-50.8	-72.0	3.8	7.47e-01	0	44	104	1134034944	72	42930
2026-01-16 01:35:41.71	199.70	6.42	-50.8	-71.9	3.8	7.47e-01	0	44	104	1134034944	72	42903
2026-01-16 01:35:42.42	199.70	6.36	-50.8	-71.9	3.8	7.48e-01	0	43	104	1134034944	72	42854
2026-01-16 01:35:43.70	199.70	6.26	-50.8	-71.9	3.8	7.47e-01	0	43	104	1134034944	72	42840
2026-01-16 01:35:44.41	199.70	6.20	-50.8	-71.9	3.8	7.46e-01	0	43	104	1134034944	72	42828
2026-01-16 01:35:45.68	199.70	6.10	-50.8	-71.9	3.8	7.47e-01	0	44	104	1134034944	72	42794
2026-01-16 01:35:46.39	199.70	6.05	-50.8	-71.9	3.8	7.45e-01	0	43	104	1134034944	72	42846
2026-01-16 01:35:47.67	199.69	5.94	-50.8	-71.9	3.8	7.48e-01	0	44	104	1134034944	72	42879
2026-01-16 01:35:48.40	199.69	5.89	-50.8	-71.9	3.8	7.47e-01	0	43	104	1134034944	72	42790
2026-01-16 01:35:49.67	199.69	5.79	-50.8	-71.9	3.8	7.44e-01	0	44	104	1134034944	72	42835
2026-01-16 01:35:50.38	199.69	5.73	-50.8	-71.9	3.8	7.47e-01	0	43	104	1134034944	72	42819
2026-01-16 01:35:51.68	199.69	5.63	-50.8	-71.9	3.8	7.46e-01	0	44	104	1134034944	72	42827
2026-01-16 01:35:52.38	199.69	5.58	-50.8	-71.9	3.8	7.46e-01	0	44	104	1134034944	72	42728
2026-01-16 01:35:53.66	199.69	5.48	-50.8	-71.9	3.8	7.47e-01	0	43	104	1134034944	72	42825
2026-01-16 01:35:54.39	199.69	5.42	-50.8	-71.9	3.8	7.46e-01	0	43	104	1134034944	72	42815
2026-01-16 01:35:55.66	199.69	5.33	-50.8	-71.9	3.8	7.43e-01	0	44	104	1134034944	72	42743
2026-01-16 01:35:56.37	199.69	5.27	-50.7	-71.9	3.8	7.48e-01	0	44	104	1134034944	72	42880
2026-01-16 01:35:57.65	199.69	5.17	-50.8	-71.9	3.8	7.45e-01	0	44	104	1134034944	72	42749
2026-01-16 01:35:58.36	199.69	5.12	-50.8	-71.9	3.8	7.46e-01	0	44	104	1134034944	72	42757
2026-01-16 01:35:59.64	199.69	5.02	-50.7	-71.9	3.8	7.47e-01	0	44	104	1134034944	72	42738
2026-01-16 01:36:00.36	199.69	4.97	-50.8	-71.9	3.8	7.46e-01	0	44	104	1134034944	72	42733

#Closed at: 2026-01-16 01:36:01
#Recorded file [1134 MB]: D:/Data/31040_260116_042436.dat