passes_logs/2026/01/16/T1/T1__20260116_023756_SUOMI_NPP_rec.log

#Pass ID: 20260116_023756_SUOMI NPP
#Satellite: SUOMI NPP
#Configuration: NPP
#almurnet v.1.7.20251203
#Start time: 2026-01-16 02:37:56

#Version: 2.0.20230620
#Station: T1
#Location: 37.570604 lon 55.790049 lat
#TLE: 1 37849U 11061A   26015.52691075  .00000052  00000+0  45753-4 0  9993
#TLE: 2 37849  98.7811 317.5709 0002448  62.7632 297.3794 14.19525354736784

#Time	Az	El	Level	Level2	SNR	BER	BlckErr	Temp	State	Recorded	gain1	gain2
2026-01-16 02:37:56.37	359.19	4.98	-47.5	-64.5	3.8	1.49e+00	0	37	0	0	67	24394
2026-01-16 02:37:57.36	359.07	5.02	-47.9	-64.4	3.8	1.49e+00	0	37	104	0	67	24093
2026-01-16 02:37:58.35	358.94	5.06	-47.9	-64.4	3.8	1.49e+00	0	37	104	0	67	24088
2026-01-16 02:37:59.35	358.82	5.10	-47.9	-64.4	3.8	1.49e+00	0	37	104	0	67	23995
2026-01-16 02:38:00.34	358.69	5.14	-47.9	-64.4	3.8	1.49e+00	0	37	104	0	67	24033
2026-01-16 02:38:01.33	358.57	5.18	-47.9	-64.4	3.8	1.49e+00	0	37	104	0	67	24042
2026-01-16 02:38:02.33	358.44	5.22	-47.8	-64.4	3.8	1.49e+00	0	37	104	0	67	24060
2026-01-16 02:38:03.32	358.31	5.26	-47.9	-64.4	3.8	1.49e+00	0	37	104	0	67	24048
2026-01-16 02:38:04.31	358.19	5.30	-47.9	-64.4	3.8	1.49e+00	0	37	104	0	67	23936
2026-01-16 02:38:05.31	358.06	5.34	-47.8	-64.4	3.8	1.49e+00	0	37	104	0	67	24074
2026-01-16 02:38:06.30	357.93	5.37	-47.9	-64.4	3.8	1.49e+00	0	37	104	0	67	23951
2026-01-16 02:38:07.29	357.80	5.41	-47.9	-64.4	3.8	1.49e+00	0	38	104	0	67	24116
2026-01-16 02:38:08.28	357.68	5.45	-47.9	-64.4	3.8	1.49e+00	0	38	104	0	67	24085
2026-01-16 02:38:09.28	357.55	5.49	-47.8	-64.4	3.8	1.49e+00	0	38	104	0	67	24013
2026-01-16 02:38:10.27	357.42	5.53	-47.9	-64.4	3.8	1.49e+00	0	38	104	0	67	24051
2026-01-16 02:38:11.27	357.29	5.57	-47.9	-64.4	3.8	1.49e+00	0	38	104	0	67	24010
2026-01-16 02:38:12.26	357.16	5.60	-47.9	-64.4	3.8	1.49e+00	0	38	104	0	67	24055
2026-01-16 02:38:13.25	357.03	5.64	-47.9	-64.4	3.8	1.49e+00	0	38	104	0	67	24073
2026-01-16 02:38:14.24	356.90	5.68	-47.9	-64.4	3.8	1.49e+00	0	38	104	0	67	24072
2026-01-16 02:38:15.24	356.77	5.72	-47.9	-64.4	3.8	1.49e+00	0	38	104	0	67	24057
2026-01-16 02:38:16.23	356.64	5.76	-47.9	-64.4	3.8	1.49e+00	0	38	104	0	67	23986
2026-01-16 02:38:17.22	356.51	5.79	-47.9	-64.4	3.8	1.49e+00	0	38	104	0	67	23985
2026-01-16 02:38:18.21	356.37	5.83	-47.9	-64.4	3.8	1.49e+00	0	38	104	0	67	24006
2026-01-16 02:38:19.21	356.24	5.87	-47.9	-64.4	3.8	1.49e+00	0	38	104	0	67	23932
2026-01-16 02:38:20.20	356.11	5.91	-47.9	-64.4	3.8	1.49e+00	0	38	104	0	67	24067
2026-01-16 02:38:21.19	355.98	5.94	-47.8	-64.4	3.8	1.49e+00	0	38	104	0	67	24015
2026-01-16 02:38:22.19	355.84	5.98	-47.8	-64.4	3.8	1.49e+00	0	38	104	0	67	24065
2026-01-16 02:38:23.18	355.71	6.02	-47.9	-64.4	3.8	1.49e+00	0	38	104	0	67	24075
2026-01-16 02:38:24.17	355.58	6.06	-47.8	-64.4	3.8	1.49e+00	0	38	104	0	67	24066
2026-01-16 02:38:25.17	355.44	6.09	-47.8	-64.5	3.8	1.49e+00	0	38	104	0	67	24141
2026-01-16 02:38:26.16	355.31	6.13	-47.8	-64.4	3.8	1.49e+00	0	38	104	0	67	24048
2026-01-16 02:38:27.15	355.17	6.17	-47.8	-64.4	3.8	1.49e+00	0	38	104	0	67	24125
2026-01-16 02:38:28.15	355.04	6.20	-47.8	-64.4	3.8	1.49e+00	0	38	104	0	67	23995
2026-01-16 02:38:29.14	354.90	6.24	-47.8	-64.4	3.8	1.49e+00	0	38	104	0	67	24079
2026-01-16 02:38:30.13	354.77	6.28	-47.9	-64.5	3.8	1.49e+00	0	38	104	0	67	24147
2026-01-16 02:38:31.13	354.63	6.31	-47.9	-64.4	3.8	1.49e+00	0	38	104	0	67	23935
2026-01-16 02:38:32.12	354.49	6.35	-47.9	-64.4	3.8	1.49e+00	0	38	104	0	67	24009
2026-01-16 02:38:33.11	354.36	6.39	-47.9	-64.4	3.8	1.49e+00	0	38	104	0	67	23977
2026-01-16 02:38:34.11	354.22	6.42	-47.9	-64.4	3.8	1.49e+00	0	38	104	0	67	24030
2026-01-16 02:38:35.10	354.08	6.46	-47.9	-64.4	3.8	1.49e+00	0	38	104	0	67	24094
2026-01-16 02:38:36.09	353.94	6.49	-47.9	-64.4	3.8	1.49e+00	0	38	104	0	67	24069
2026-01-16 02:38:37.09	353.80	6.53	-47.9	-64.4	3.8	1.49e+00	0	38	104	0	67	24087
2026-01-16 02:38:38.08	353.66	6.57	-47.9	-64.4	3.8	1.49e+00	0	38	104	0	67	24006
2026-01-16 02:38:39.07	353.53	6.60	-47.9	-64.4	3.8	1.49e+00	0	39	104	0	67	24061
2026-01-16 02:38:40.06	353.39	6.64	-47.9	-64.4	3.8	1.49e+00	0	38	104	0	67	24095
2026-01-16 02:38:41.06	353.25	6.67	-47.9	-64.4	3.8	1.49e+00	0	38	104	0	67	24094
2026-01-16 02:38:42.05	353.11	6.71	-47.9	-64.4	3.8	1.49e+00	0	39	104	0	67	23960
2026-01-16 02:38:43.04	352.97	6.74	-47.9	-64.4	3.8	1.49e+00	0	39	104	0	67	24066
2026-01-16 02:38:44.04	352.82	6.78	-47.9	-64.4	3.8	1.49e+00	0	39	104	0	67	23932
2026-01-16 02:38:45.03	352.68	6.81	-47.9	-64.4	3.8	1.49e+00	0	39	104	0	67	24064
2026-01-16 02:38:46.02	352.54	6.85	-47.9	-64.4	3.8	1.49e+00	0	39	104	0	67	24026
2026-01-16 02:38:47.02	352.40	6.88	-47.9	-64.4	3.8	1.49e+00	0	39	104	0	67	23937
2026-01-16 02:38:48.01	352.26	6.92	-47.9	-64.4	3.8	1.49e+00	0	39	104	0	67	23983
2026-01-16 02:38:49.00	352.12	6.95	-47.9	-64.4	3.8	1.49e+00	0	39	104	0	67	23989
2026-01-16 02:38:50.00	351.97	6.99	-47.9	-64.4	3.8	1.49e+00	0	39	104	0	67	23955
2026-01-16 02:38:50.99	351.83	7.02	-47.9	-64.4	3.8	1.49e+00	0	39	104	0	67	23883
2026-01-16 02:38:51.98	351.69	7.05	-47.9	-64.4	3.8	1.49e+00	0	39	104	0	67	23890
2026-01-16 02:38:52.97	351.54	7.09	-47.9	-64.4	3.8	1.49e+00	0	39	104	0	67	23918
2026-01-16 02:38:53.97	351.40	7.12	-47.9	-64.4	3.8	1.49e+00	0	39	104	0	67	23925
2026-01-16 02:38:54.96	351.25	7.16	-47.9	-64.4	3.8	1.49e+00	0	39	104	0	67	24040
2026-01-16 02:38:55.96	351.11	7.19	-47.9	-64.4	3.8	1.49e+00	0	39	104	0	67	24027
2026-01-16 02:38:56.95	350.96	7.22	-47.9	-64.4	3.8	1.49e+00	0	39	104	0	67	24038
2026-01-16 02:38:57.94	350.82	7.26	-47.9	-64.4	3.8	1.49e+00	0	39	104	0	67	24086
2026-01-16 02:38:58.94	350.67	7.29	-47.9	-64.4	3.8	1.49e+00	0	39	104	0	67	24056
2026-01-16 02:38:59.93	350.52	7.32	-47.9	-64.4	3.8	1.49e+00	0	39	104	0	67	24014
2026-01-16 02:39:00.92	350.38	7.36	-47.9	-64.4	3.8	1.49e+00	0	39	104	0	67	24112
2026-01-16 02:39:01.92	350.23	7.39	-47.9	-64.4	3.8	1.49e+00	0	39	104	0	67	23925
2026-01-16 02:39:02.91	350.08	7.42	-47.9	-64.4	3.8	1.49e+00	0	39	104	0	67	23963
2026-01-16 02:39:03.91	349.93	7.45	-47.9	-64.4	3.8	1.49e+00	0	39	104	0	67	24021
2026-01-16 02:39:04.90	349.79	7.49	-47.9	-64.4	3.8	1.49e+00	0	39	104	0	67	24101
2026-01-16 02:39:05.89	349.64	7.52	-47.9	-64.4	3.8	1.49e+00	0	39	104	0	67	24013
2026-01-16 02:39:06.89	349.49	7.55	-47.9	-64.4	3.8	1.49e+00	0	39	104	0	67	24031
2026-01-16 02:39:07.88	349.34	7.58	-47.9	-64.4	3.8	1.49e+00	0	39	104	0	67	24025
2026-01-16 02:39:08.87	349.19	7.61	-47.9	-64.4	3.8	1.49e+00	0	39	104	0	67	23956
2026-01-16 02:39:09.87	349.04	7.65	-47.9	-64.4	3.8	1.49e+00	0	39	104	0	67	23909
2026-01-16 02:39:10.86	348.89	7.68	-47.9	-64.4	3.8	1.49e+00	0	39	104	0	67	23960
2026-01-16 02:39:11.85	348.74	7.71	-47.9	-64.3	3.8	1.49e+00	0	39	104	0	67	23837
2026-01-16 02:39:12.85	348.59	7.74	-47.8	-64.4	3.8	1.49e+00	0	39	104	0	67	24044
2026-01-16 02:39:13.84	348.44	7.77	-47.9	-64.4	3.8	1.49e+00	0	39	104	0	67	23963
2026-01-16 02:39:14.83	348.29	7.80	-47.9	-64.4	3.8	1.49e+00	0	39	104	0	67	23978
2026-01-16 02:39:15.82	348.13	7.83	-47.9	-64.4	3.8	1.49e+00	0	39	104	0	67	24033
2026-01-16 02:39:16.82	347.98	7.86	-47.9	-64.5	3.8	1.49e+00	0	39	104	0	67	24155
2026-01-16 02:39:17.81	347.83	7.89	-47.9	-64.4	3.8	1.49e+00	0	39	104	0	67	24068
2026-01-16 02:39:18.81	347.68	7.92	-47.9	-64.4	3.8	1.49e+00	0	39	104	0	67	23952
2026-01-16 02:39:19.80	347.52	7.95	-47.9	-64.4	3.8	1.49e+00	0	39	104	0	67	23984
2026-01-16 02:39:20.79	347.37	7.98	-47.9	-64.4	3.8	1.49e+00	0	39	104	0	67	24017
2026-01-16 02:39:21.79	347.22	8.01	-47.9	-64.4	3.8	1.49e+00	0	39	104	0	67	23930
2026-01-16 02:39:22.78	347.06	8.04	-47.9	-64.4	3.8	1.49e+00	0	39	104	0	67	23996
2026-01-16 02:39:23.78	346.91	8.07	-47.9	-64.4	3.8	1.49e+00	0	39	104	0	67	23949
2026-01-16 02:39:24.77	346.75	8.10	-47.9	-64.4	3.8	1.49e+00	0	39	104	0	67	23966
2026-01-16 02:39:25.76	346.60	8.13	-47.9	-64.4	3.8	1.49e+00	0	39	104	0	67	24043
2026-01-16 02:39:26.76	346.44	8.16	-47.9	-64.4	3.8	1.49e+00	0	39	104	0	67	24047
2026-01-16 02:39:27.75	346.29	8.19	-47.9	-64.4	3.8	1.49e+00	0	39	104	0	67	24122
2026-01-16 02:39:28.74	346.13	8.22	-47.9	-64.4	3.8	1.49e+00	0	39	104	0	67	24033
2026-01-16 02:39:29.74	345.97	8.25	-47.9	-64.4	3.8	1.49e+00	0	39	104	0	67	24102
2026-01-16 02:39:30.73	345.82	8.28	-47.9	-64.4	3.8	1.49e+00	0	39	104	0	67	24043
2026-01-16 02:39:31.72	345.66	8.30	-47.9	-64.4	3.8	1.49e+00	0	39	104	0	67	24007
2026-01-16 02:39:32.71	345.50	8.33	-47.9	-64.4	3.8	1.49e+00	0	39	104	0	67	23970
2026-01-16 02:39:33.71	345.35	8.36	-47.9	-64.4	3.8	1.49e+00	0	39	104	0	67	23925
2026-01-16 02:39:34.70	345.19	8.39	-47.9	-64.4	3.8	1.49e+00	0	39	104	0	67	23881
2026-01-16 02:39:35.70	345.03	8.42	-47.9	-64.4	3.8	1.49e+00	0	39	104	0	67	23885
2026-01-16 02:39:36.69	344.87	8.44	-47.9	-64.4	3.8	1.49e+00	0	39	104	0	67	23912
2026-01-16 02:39:37.68	344.71	8.47	-47.9	-64.4	3.8	1.49e+00	0	39	104	0	67	24032
2026-01-16 02:39:38.68	344.55	8.50	-47.9	-64.4	3.8	1.49e+00	0	39	104	0	67	23894
2026-01-16 02:39:39.67	344.39	8.52	-47.9	-64.4	3.8	1.49e+00	0	39	104	0	67	23858
2026-01-16 02:39:40.66	344.23	8.55	-47.9	-64.3	3.8	1.49e+00	0	39	104	0	67	23756
2026-01-16 02:39:41.65	344.08	8.58	-47.9	-64.2	3.8	1.49e+00	0	39	104	0	67	23316
2026-01-16 02:39:42.65	343.91	8.60	-47.9	-64.1	3.8	1.49e+00	0	39	104	0	67	23254
2026-01-16 02:39:43.64	343.75	8.63	-47.9	-64.2	3.8	1.49e+00	0	39	104	0	67	23572
2026-01-16 02:39:44.64	343.59	8.65	-47.9	-64.2	3.8	1.49e+00	0	39	104	0	67	23565
2026-01-16 02:39:45.63	343.43	8.68	-47.9	-64.2	3.8	1.49e+00	0	39	104	0	67	23323
2026-01-16 02:39:46.62	343.27	8.71	-47.9	-63.8	3.8	1.49e+00	0	39	104	0	67	22348
2026-01-16 02:39:47.62	343.11	8.73	-47.8	-63.3	3.8	1.49e+00	0	39	104	0	67	21225
2026-01-16 02:39:48.61	342.95	8.76	-47.8	-63.1	3.8	1.49e+00	0	39	104	0	67	20565
2026-01-16 02:39:49.60	342.78	8.78	-47.8	-63.0	3.8	1.49e+00	0	39	104	0	67	20381
2026-01-16 02:39:50.60	342.62	8.81	-47.8	-62.6	3.8	1.49e+00	0	39	104	0	67	19506
2026-01-16 02:39:51.59	342.46	8.83	-47.8	-61.8	4.0	1.49e+00	0	39	104	0	67	17795
2026-01-16 02:39:52.58	342.30	8.85	-47.7	-60.8	4.2	1.47e+00	0	39	0	0	67	15777
2026-01-16 02:39:53.58	342.13	8.88	-47.6	-59.6	4.6	1.03e+00	0	39	0	1048576	67	13749
2026-01-16 02:39:54.57	341.97	8.90	-47.5	-58.2	5.3	6.78e-01	0	39	0	2097152	67	11806
2026-01-16 02:39:55.57	341.80	8.93	-47.3	-57.1	6.1	4.28e-01	0	39	0	4194304	66	10937
2026-01-16 02:39:56.56	341.64	8.95	-47.1	-55.6	7.4	2.16e-01	0	39	0	6291456	66	9217
2026-01-16 02:39:57.55	341.48	8.97	-46.6	-53.7	9.3	3.25e-02	0	39	0	8388608	65	7854
2026-01-16 02:39:58.55	341.31	9.00	-46.1	-52.2	10.9	5.60e-03	0	39	0	10485760	64	7005
2026-01-16 02:39:59.54	341.15	9.02	-46.0	-51.6	11.6	6.02e-04	0	39	0	11534336	63	6894
2026-01-16 02:40:00.54	340.98	9.04	-46.7	-53.2	10.0	4.05e-03	0	39	0	13631488	64	7859
2026-01-16 02:40:01.53	340.81	9.07	-45.9	-51.0	12.1	3.00e-02	0	39	0	15728640	63	6443
2026-01-16 02:40:02.53	340.65	9.09	-46.3	-51.8	11.6	7.00e-07	0	39	0	17825792	63	7100
2026-01-16 02:40:03.52	340.48	9.11	-45.1	-49.3	13.7	2.13e-01	0	39	0	18874368	62	5614
2026-01-16 02:40:04.51	340.32	9.13	-44.3	-48.1	15.1	0.00e+00	0	39	0	20971520	60	5501
2026-01-16 02:40:05.51	340.15	9.15	-44.1	-47.7	15.4	0.00e+00	0	39	0	23068672	60	5266
2026-01-16 02:40:06.50	339.98	9.17	-44.1	-47.6	15.6	0.00e+00	0	39	0	25165824	60	5208
2026-01-16 02:40:07.50	339.81	9.20	-44.2	-47.8	15.4	0.00e+00	0	39	0	27262976	60	5306
2026-01-16 02:40:08.49	339.65	9.22	-44.3	-48.0	15.2	0.00e+00	0	39	0	28311552	60	5436
2026-01-16 02:40:09.49	339.48	9.24	-44.3	-47.9	15.3	0.00e+00	0	40	0	30408704	60	5397
2026-01-16 02:40:10.48	339.31	9.26	-44.3	-48.1	15.1	0.00e+00	0	39	0	32505856	60	5466
2026-01-16 02:40:11.48	339.14	9.28	-44.2	-47.9	15.3	0.00e+00	0	39	0	34603008	60	5365
2026-01-16 02:40:12.47	338.97	9.30	-44.1	-47.8	15.4	0.00e+00	0	40	0	35651584	60	5312
2026-01-16 02:40:13.46	338.81	9.32	-44.1	-47.8	15.4	0.00e+00	0	39	0	37748736	60	5294
2026-01-16 02:40:14.48	338.63	9.34	-44.1	-47.8	15.5	0.00e+00	0	40	0	39845888	60	5282
2026-01-16 02:40:15.48	338.46	9.36	-44.4	-48.1	15.1	0.00e+00	0	40	0	41943040	60	5494
2026-01-16 02:40:16.47	338.29	9.38	-44.6	-48.4	14.8	0.00e+00	0	40	0	44040192	60	5662
2026-01-16 02:40:17.47	338.12	9.40	-44.8	-48.7	14.6	0.00e+00	0	39	0	45088768	60	5890
2026-01-16 02:40:18.46	337.95	9.42	-44.8	-48.8	14.4	7.00e-07	0	39	0	47185920	60	5986
2026-01-16 02:40:19.46	337.78	9.43	-45.0	-49.5	13.8	6.80e-06	0	39	0	49283072	60	6424
2026-01-16 02:40:20.45	337.61	9.45	-44.8	-49.5	13.7	5.30e-06	0	39	0	51380224	60	6432
2026-01-16 02:40:21.44	337.44	9.47	-44.6	-49.5	13.7	2.20e-06	0	39	0	53477376	60	6478
2026-01-16 02:40:22.44	337.27	9.49	-44.4	-49.5	13.7	6.10e-06	0	39	0	54525952	60	6491
2026-01-16 02:40:23.44	337.10	9.51	-44.2	-49.4	13.9	3.80e-06	0	39	0	56623104	60	6374
2026-01-16 02:40:24.43	336.93	9.52	-44.0	-49.1	14.1	2.20e-06	0	39	0	58720256	60	6156
2026-01-16 02:40:25.42	336.76	9.54	-44.0	-49.0	14.2	3.00e-06	0	39	0	60817408	60	6111
2026-01-16 02:40:26.42	336.59	9.56	-44.1	-49.1	14.2	2.20e-06	0	39	0	61865984	60	6138
2026-01-16 02:40:27.41	336.42	9.58	-44.2	-49.0	14.2	1.50e-06	0	39	0	63963136	60	6080
2026-01-16 02:40:28.41	336.24	9.59	-44.5	-49.3	14.0	0.00e+00	0	40	0	66060288	60	6278
2026-01-16 02:40:29.40	336.07	9.61	-44.5	-49.1	14.1	0.00e+00	0	39	0	68157440	60	6178
2026-01-16 02:40:30.40	335.90	9.62	-44.5	-49.1	14.1	3.00e-06	0	39	0	70254592	60	6199
2026-01-16 02:40:31.39	335.73	9.64	-44.5	-49.2	14.0	3.00e-06	0	39	0	71303168	60	6266
2026-01-16 02:40:32.39	335.55	9.66	-44.4	-49.3	13.9	1.50e-06	0	39	0	73400320	60	6336
2026-01-16 02:40:33.46	335.37	9.67	-44.3	-49.4	13.8	5.30e-06	0	40	0	75497472	60	6389
2026-01-16 02:40:34.35	335.21	9.69	-44.3	-49.4	13.8	5.30e-06	0	40	0	77594624	60	6359
2026-01-16 02:40:35.48	335.01	9.70	-44.4	-49.5	13.7	2.20e-06	0	39	0	79691776	60	6490
2026-01-16 02:40:36.33	334.87	9.72	-44.4	-49.4	13.9	4.50e-06	0	40	0	80740352	60	6368
2026-01-16 02:40:37.47	334.67	9.73	-44.5	-49.2	14.0	7.00e-07	0	39	0	82837504	60	6268
2026-01-16 02:40:38.33	334.52	9.74	-44.5	-49.1	14.1	4.50e-06	0	40	0	84934656	60	6198
2026-01-16 02:40:39.46	334.32	9.76	-44.6	-49.0	14.2	7.00e-07	0	39	0	87031808	60	6087
2026-01-16 02:40:40.31	334.17	9.77	-44.7	-49.0	14.3	0.00e+00	0	39	0	88080384	60	6064
2026-01-16 02:40:41.45	333.97	9.79	-44.6	-48.9	14.4	7.00e-07	0	40	0	90177536	60	5998
2026-01-16 02:40:42.30	333.82	9.80	-44.5	-48.8	14.5	7.00e-07	0	40	0	92274688	60	5925
2026-01-16 02:40:43.44	333.62	9.81	-44.6	-48.9	14.2	1.50e-06	0	39	0	94371840	60	6034
2026-01-16 02:40:44.29	333.47	9.82	-44.7	-49.0	14.2	7.00e-07	0	39	0	95420416	60	6099
2026-01-16 02:40:45.43	333.27	9.84	-44.8	-49.2	14.1	7.00e-07	0	39	0	97517568	60	6205
2026-01-16 02:40:46.28	333.12	9.85	-44.8	-49.2	14.1	1.50e-06	0	40	0	99614720	60	6207
2026-01-16 02:40:47.42	332.92	9.86	-44.9	-49.3	13.9	5.30e-06	0	39	0	101711872	60	6311
2026-01-16 02:40:48.27	332.77	9.87	-44.8	-49.0	14.2	2.20e-06	0	39	0	103809024	60	6069
2026-01-16 02:40:49.51	332.55	9.89	-44.7	-48.9	14.3	7.00e-07	0	39	0	105906176	60	6021
2026-01-16 02:40:50.36	332.40	9.90	-44.6	-48.8	14.4	0.00e+00	0	39	0	106954752	60	5985
2026-01-16 02:40:51.50	332.20	9.91	-44.5	-48.7	14.5	7.00e-07	0	40	0	109051904	60	5916
2026-01-16 02:40:52.35	332.05	9.92	-44.4	-48.6	14.6	0.00e+00	0	39	0	111149056	60	5828
2026-01-16 02:40:53.49	331.85	9.93	-44.4	-48.4	14.7	0.00e+00	0	40	0	113246208	60	5722
2026-01-16 02:40:54.34	331.69	9.94	-44.4	-48.4	14.8	0.00e+00	0	39	0	114294784	60	5719
2026-01-16 02:40:55.70	331.45	9.95	-44.4	-48.5	14.8	0.00e+00	0	39	0	117440512	60	5735
2026-01-16 02:40:56.41	331.33	9.96	-44.5	-48.7	14.6	0.00e+00	0	40	0	118489088	60	5867
2026-01-16 02:40:57.69	331.10	9.97	-44.6	-48.7	14.5	7.00e-07	0	40	0	120586240	60	5903
2026-01-16 02:40:58.40	330.97	9.98	-44.7	-48.7	14.6	7.00e-07	0	39	0	122683392	60	5867
2026-01-16 02:40:59.68	330.75	9.99	-44.8	-48.7	14.5	0.00e+00	0	40	0	124780544	60	5875
2026-01-16 02:41:00.39	330.62	9.99	-44.8	-48.6	14.6	7.00e-07	0	39	0	125829120	60	5830
2026-01-16 02:41:01.67	330.39	10.00	-44.8	-48.5	14.7	0.00e+00	0	39	0	127926272	60	5772
2026-01-16 02:41:02.38	330.27	10.01	-44.8	-48.4	14.8	0.00e+00	0	39	0	130023424	60	5700
2026-01-16 02:41:03.66	330.04	10.02	-44.7	-48.4	14.8	0.00e+00	0	39	0	132120576	60	5707
2026-01-16 02:41:04.37	329.91	10.03	-44.5	-48.1	15.1	0.00e+00	0	39	0	133169152	60	5519
2026-01-16 02:41:05.65	329.68	10.03	-44.3	-48.1	15.1	7.00e-07	0	39	0	136314880	60	5475
2026-01-16 02:41:06.39	329.55	10.04	-44.4	-48.2	15.0	0.00e+00	0	39	0	137363456	60	5584
2026-01-16 02:41:07.67	329.32	10.05	-44.3	-48.0	15.2	0.00e+00	0	39	0	139460608	60	5458
2026-01-16 02:41:08.67	329.14	10.05	-44.5	-48.1	15.1	0.00e+00	0	39	0	141557760	60	5519
2026-01-16 02:41:09.96	328.91	10.06	-44.6	-48.3	14.9	0.00e+00	0	39	0	143654912	60	5626
2026-01-16 02:41:10.70	328.78	10.07	-44.7	-48.3	14.9	0.00e+00	0	39	0	145752064	60	5626
2026-01-16 02:41:11.98	328.55	10.07	-44.7	-48.4	14.8	0.00e+00	0	39	0	147849216	60	5694
2026-01-16 02:41:12.71	328.42	10.08	-44.7	-48.6	14.6	0.00e+00	0	40	0	148897792	60	5796
2026-01-16 02:41:13.99	328.19	10.08	-44.6	-48.5	14.8	7.00e-07	0	39	0	152043520	60	5729
2026-01-16 02:41:14.70	328.06	10.09	-44.5	-48.3	14.9	0.00e+00	0	39	0	153092096	60	5644
2026-01-16 02:41:15.98	327.83	10.09	-44.4	-48.2	15.0	7.00e-07	0	39	0	155189248	60	5571
2026-01-16 02:41:16.69	327.71	10.10	-44.3	-47.9	15.3	0.00e+00	0	39	0	156237824	60	5358
2026-01-16 02:41:17.97	327.48	10.10	-44.2	-47.7	15.5	0.00e+00	0	40	0	159383552	60	5234
2026-01-16 02:41:18.69	327.35	10.10	-44.1	-47.6	15.7	0.00e+00	0	40	0	160432128	60	5182
2026-01-16 02:41:20.16	327.08	10.11	-44.1	-47.4	15.8	0.00e+00	0	39	0	163577856	60	5072
2026-01-16 02:41:20.87	326.96	10.11	-44.1	-47.4	15.8	0.00e+00	0	39	0	164626432	60	5062
2026-01-16 02:41:22.15	326.73	10.12	-44.0	-47.4	15.8	0.00e+00	0	39	0	166723584	60	5045
2026-01-16 02:41:22.86	326.60	10.12	-44.0	-47.4	15.8	0.00e+00	0	39	0	167772160	59	5344
2026-01-16 02:41:24.23	326.35	10.12	-43.8	-47.3	15.8	0.00e+00	0	39	0	170917888	59	5334
2026-01-16 02:41:24.94	326.22	10.12	-43.8	-47.4	15.8	0.00e+00	0	39	0	171966464	59	5380
2026-01-16 02:41:26.27	325.99	10.12	-43.6	-47.2	16.0	0.00e+00	0	39	0	174063616	59	5223
2026-01-16 02:41:26.98	325.86	10.12	-43.6	-47.1	16.1	0.00e+00	0	40	0	176160768	59	5180
2026-01-16 02:41:28.29	325.62	10.13	-43.7	-47.1	16.1	0.00e+00	0	39	0	178257920	59	5182
2026-01-16 02:41:29.00	325.50	10.13	-43.5	-46.9	16.2	0.00e+00	0	40	0	179306496	59	5069
2026-01-16 02:41:30.28	325.27	10.13	-43.6	-47.1	16.1	0.00e+00	0	40	0	182452224	59	5178
2026-01-16 02:41:31.00	325.14	10.13	-43.6	-47.3	15.9	0.00e+00	0	40	0	183500800	59	5284
2026-01-16 02:41:32.28	324.91	10.13	-43.6	-47.4	15.8	0.00e+00	0	40	0	185597952	59	5345
2026-01-16 02:41:32.99	324.78	10.13	-43.6	-47.4	15.7	0.00e+00	0	40	0	186646528	59	5392
2026-01-16 02:41:34.27	324.55	10.13	-43.7	-47.7	15.5	0.00e+00	0	39	0	189792256	59	5577
2026-01-16 02:41:35.00	324.42	10.13	-43.8	-47.7	15.4	0.00e+00	0	39	0	190840832	59	5589
2026-01-16 02:41:36.28	324.19	10.13	-43.9	-47.9	15.3	0.00e+00	0	40	0	192937984	59	5679
2026-01-16 02:41:37.00	324.06	10.13	-44.0	-47.9	15.3	0.00e+00	0	39	0	195035136	59	5711
2026-01-16 02:41:38.29	323.83	10.12	-44.1	-48.0	15.3	0.00e+00	0	40	0	197132288	59	5723
2026-01-16 02:41:39.00	323.70	10.12	-44.0	-47.9	15.3	0.00e+00	0	39	0	198180864	59	5671
2026-01-16 02:41:40.28	323.47	10.12	-43.9	-47.8	15.3	0.00e+00	0	39	0	201326592	59	5647
2026-01-16 02:41:41.02	323.33	10.12	-43.9	-47.8	15.4	7.00e-07	0	40	0	202375168	59	5632
2026-01-16 02:41:42.30	323.10	10.11	-43.8	-47.7	15.4	0.00e+00	0	40	0	204472320	59	5579
2026-01-16 02:41:43.01	322.98	10.11	-43.8	-47.7	15.4	0.00e+00	0	39	0	205520896	59	5584
2026-01-16 02:41:44.29	322.75	10.11	-43.9	-47.7	15.5	0.00e+00	0	39	0	208666624	59	5529
2026-01-16 02:41:45.00	322.62	10.11	-44.0	-47.7	15.5	0.00e+00	0	40	0	209715200	59	5550
2026-01-16 02:41:46.28	322.39	10.10	-44.2	-47.7	15.5	0.00e+00	0	39	0	211812352	59	5531
2026-01-16 02:41:46.99	322.26	10.10	-44.3	-47.7	15.5	0.00e+00	0	40	0	213909504	59	5533
2026-01-16 02:41:48.27	322.03	10.09	-44.4	-47.7	15.5	0.00e+00	0	40	0	216006656	59	5548
2026-01-16 02:41:49.01	321.90	10.09	-44.3	-47.5	15.7	0.00e+00	0	39	0	217055232	59	5419
2026-01-16 02:41:50.29	321.67	10.08	-44.2	-47.5	15.7	0.00e+00	0	40	0	219152384	59	5411
2026-01-16 02:41:51.01	321.54	10.08	-44.1	-47.4	15.8	0.00e+00	0	40	0	221249536	59	5363
2026-01-16 02:41:52.29	321.31	10.07	-44.2	-47.6	15.6	0.00e+00	0	40	0	223346688	59	5490
2026-01-16 02:41:53.00	321.19	10.07	-44.1	-47.4	15.7	0.00e+00	0	40	0	224395264	59	5389
2026-01-16 02:41:54.29	320.95	10.06	-44.3	-47.7	15.5	0.00e+00	0	39	0	227540992	59	5536
2026-01-16 02:41:55.01	320.83	10.06	-44.4	-47.8	15.4	0.00e+00	0	39	0	228589568	59	5597
2026-01-16 02:41:56.29	320.60	10.05	-44.6	-48.0	15.2	0.00e+00	0	40	0	230686720	59	5768
2026-01-16 02:41:57.00	320.47	10.04	-44.7	-48.3	14.9	0.00e+00	0	40	0	231735296	60	5609
2026-01-16 02:41:58.28	320.24	10.04	-44.7	-48.5	14.7	0.00e+00	0	40	0	234881024	60	5762
2026-01-16 02:41:58.99	320.11	10.03	-44.7	-48.6	14.6	0.00e+00	0	40	0	235929600	60	5839
2026-01-16 02:42:00.27	319.89	10.02	-44.6	-48.7	14.5	0.00e+00	0	39	0	238026752	60	5888
2026-01-16 02:42:00.98	319.76	10.02	-44.7	-49.0	14.3	7.00e-07	0	39	0	240123904	60	6075
2026-01-16 02:42:02.26	319.53	10.01	-44.5	-48.8	14.4	0.00e+00	0	40	0	242221056	60	5944
2026-01-16 02:42:02.97	319.40	10.00	-44.5	-48.7	14.4	1.50e-06	0	39	0	243269632	60	5922
2026-01-16 02:42:04.25	319.18	9.99	-44.4	-48.6	14.7	7.00e-07	0	39	0	245366784	60	5805
2026-01-16 02:42:04.98	319.05	9.98	-44.4	-48.4	14.8	0.00e+00	0	39	0	247463936	60	5671
2026-01-16 02:42:06.26	318.82	9.97	-44.5	-48.2	15.0	0.00e+00	0	40	0	249561088	60	5556
2026-01-16 02:42:06.99	318.69	9.96	-44.5	-48.1	15.1	7.00e-07	0	39	0	250609664	60	5528
2026-01-16 02:42:08.27	318.46	9.95	-44.5	-48.1	15.1	0.00e+00	0	39	0	253755392	60	5475
2026-01-16 02:42:08.99	318.33	9.95	-44.6	-48.1	15.1	0.00e+00	0	39	0	254803968	60	5484
2026-01-16 02:42:10.27	318.11	9.93	-44.6	-48.2	15.0	0.00e+00	0	39	0	256901120	60	5584
2026-01-16 02:42:10.98	317.98	9.93	-44.7	-48.4	14.8	0.00e+00	0	39	0	257949696	60	5667
2026-01-16 02:42:12.26	317.75	9.91	-44.6	-48.3	14.8	0.00e+00	0	39	0	261095424	60	5648
2026-01-16 02:42:12.99	317.62	9.90	-44.6	-48.5	14.8	0.00e+00	0	40	0	262144000	60	5724
2026-01-16 02:42:14.26	317.40	9.89	-44.6	-48.6	14.6	7.00e-07	0	40	0	264241152	60	5789
2026-01-16 02:42:15.10	317.25	9.88	-44.6	-48.7	14.5	0.00e+00	0	39	0	266338304	60	5870
2026-01-16 02:42:16.54	317.00	9.86	-44.7	-48.7	14.5	7.00e-07	0	39	0	268435456	60	5889
2026-01-16 02:42:17.25	316.87	9.86	-44.7	-48.8	14.4	1.50e-06	0	40	0	270532608	60	5992
2026-01-16 02:42:18.53	316.64	9.84	-44.8	-49.0	14.2	7.00e-07	0	40	0	272629760	60	6096
2026-01-16 02:42:19.24	316.52	9.83	-44.9	-49.1	14.2	1.50e-06	0	40	0	273678336	60	6157
2026-01-16 02:42:20.52	316.29	9.82	-45.0	-49.3	13.9	7.00e-07	0	40	0	275775488	60	6275
2026-01-16 02:42:21.23	316.17	9.81	-45.2	-49.5	13.8	3.80e-06	0	40	0	277872640	60	6424
2026-01-16 02:42:22.51	315.94	9.79	-45.3	-49.4	13.8	7.00e-07	0	39	0	279969792	61	6027
2026-01-16 02:42:23.24	315.82	9.78	-45.3	-49.4	13.8	4.50e-06	0	40	0	281018368	61	6035
2026-01-16 02:42:24.51	315.59	9.76	-45.3	-49.2	14.0	2.20e-06	0	39	0	284164096	61	5883
2026-01-16 02:42:25.24	315.46	9.75	-45.3	-49.2	14.0	3.00e-06	0	40	0	285212672	61	5879
2026-01-16 02:42:26.51	315.24	9.73	-45.1	-49.0	14.2	2.20e-06	0	39	0	287309824	61	5735
2026-01-16 02:42:27.22	315.12	9.72	-45.0	-48.9	14.2	3.00e-06	0	39	0	289406976	61	5718
2026-01-16 02:42:28.57	314.88	9.70	-44.9	-48.8	14.4	7.00e-07	0	40	0	291504128	61	5601
2026-01-16 02:42:29.28	314.76	9.69	-44.7	-48.4	14.7	1.50e-06	0	39	0	292552704	61	5399
2026-01-16 02:42:30.56	314.53	9.67	-44.6	-48.3	14.9	0.00e+00	0	39	0	294649856	61	5323
2026-01-16 02:42:31.27	314.41	9.66	-44.6	-48.3	14.9	0.00e+00	0	40	0	296747008	61	5295
2026-01-16 02:42:32.66	314.17	9.64	-44.6	-48.1	15.1	0.00e+00	0	39	0	298844160	61	5176
2026-01-16 02:42:33.37	314.05	9.63	-44.7	-48.2	15.0	0.00e+00	0	39	0	299892736	61	5240
2026-01-16 02:42:34.74	313.81	9.61	-44.6	-48.1	15.1	0.00e+00	0	39	0	303038464	60	5471
2026-01-16 02:42:35.45	313.68	9.60	-44.6	-48.3	14.9	0.00e+00	0	39	0	304087040	60	5598
2026-01-16 02:42:36.78	313.45	9.57	-44.8	-48.4	14.8	0.00e+00	0	40	0	307232768	60	5705
2026-01-16 02:42:37.49	313.33	9.56	-44.7	-48.3	14.9	0.00e+00	0	39	0	308281344	60	5641
2026-01-16 02:42:38.85	313.10	9.54	-44.7	-48.4	14.8	0.00e+00	0	40	0	310378496	60	5667
2026-01-16 02:42:39.56	312.97	9.53	-44.6	-48.4	14.8	0.00e+00	0	40	0	311427072	60	5681
2026-01-16 02:42:40.84	312.75	9.50	-44.6	-48.5	14.7	0.00e+00	0	40	0	314572800	60	5725
2026-01-16 02:42:41.55	312.63	9.49	-44.6	-48.3	14.9	0.00e+00	0	39	0	315621376	60	5632
2026-01-16 02:42:42.83	312.41	9.47	-44.7	-48.5	14.7	7.00e-07	0	40	0	317718528	60	5757
2026-01-16 02:42:43.54	312.29	9.46	-44.7	-48.3	14.9	7.00e-07	0	39	0	319815680	60	5623
2026-01-16 02:42:44.82	312.07	9.43	-44.6	-48.2	15.0	0.00e+00	0	39	0	321912832	60	5567
2026-01-16 02:42:45.54	311.95	9.42	-44.7	-48.5	14.8	0.00e+00	0	39	0	322961408	60	5727
2026-01-16 02:42:46.82	311.73	9.39	-44.6	-48.2	15.0	0.00e+00	0	40	0	326107136	60	5536
2026-01-16 02:42:47.57	311.60	9.38	-44.6	-48.3	14.9	7.00e-07	0	40	0	327155712	60	5596
2026-01-16 02:42:48.85	311.38	9.36	-44.6	-48.1	15.0	0.00e+00	0	40	0	329252864	60	5519
2026-01-16 02:42:49.57	311.26	9.34	-44.7	-48.3	14.9	0.00e+00	0	39	0	330301440	60	5600
2026-01-16 02:42:50.85	311.04	9.32	-44.8	-48.3	14.9	0.00e+00	0	40	0	333447168	60	5622
2026-01-16 02:42:51.69	310.90	9.30	-45.0	-48.6	14.5	0.00e+00	0	40	0	334495744	60	5837
2026-01-16 02:42:52.83	310.70	9.28	-44.9	-48.7	14.4	7.00e-07	0	40	0	336592896	60	5871
2026-01-16 02:42:53.68	310.56	9.26	-45.1	-49.1	14.1	1.50e-06	0	39	0	338690048	61	5800
2026-01-16 02:42:54.82	310.37	9.23	-45.3	-49.4	13.8	3.00e-06	0	40	0	340787200	61	6028
2026-01-16 02:42:55.67	310.22	9.22	-45.3	-49.4	13.8	9.10e-06	0	39	0	341835776	61	6018
2026-01-16 02:42:56.81	310.03	9.19	-45.6	-49.8	13.4	1.29e-05	0	40	0	343932928	61	6298
2026-01-16 02:42:57.66	309.89	9.17	-45.6	-49.7	13.4	1.22e-05	0	40	0	346030080	61	6259
2026-01-16 02:42:58.80	309.70	9.15	-45.4	-49.7	13.4	9.10e-06	0	40	0	348127232	61	6258
2026-01-16 02:42:59.65	309.55	9.13	-45.1	-49.4	13.7	8.30e-06	0	39	0	349175808	61	6035
2026-01-16 02:43:00.77	309.36	9.11	-45.1	-49.4	13.8	6.10e-06	0	40	0	351272960	61	6010
2026-01-16 02:43:01.62	309.22	9.09	-45.1	-49.4	13.8	6.80e-06	0	39	0	353370112	61	6003
2026-01-16 02:43:02.76	309.03	9.06	-44.9	-48.8	14.3	0.00e+00	0	39	0	355467264	61	5641
2026-01-16 02:43:03.61	308.89	9.04	-45.0	-49.0	14.1	1.50e-06	0	39	0	357564416	61	5776
2026-01-16 02:43:04.98	308.66	9.01	-44.8	-48.8	14.3	7.00e-07	0	40	0	359661568	61	5641
2026-01-16 02:43:05.69	308.54	8.99	-47.1	-53.1	10.4	1.50e-06	0	40	0	360710144	64	7739
2026-01-16 02:43:06.97	308.33	8.96	-49.5	-64.7	3.8	1.49e+00	0	40	104	361758720	69	22057
2026-01-16 02:43:07.68	308.21	8.95	-49.5	-64.9	3.8	1.49e+00	0	39	104	361758720	69	22555
2026-01-16 02:43:08.95	308.00	8.92	-49.8	-65.0	3.8	1.49e+00	0	40	104	361758720	70	21679
2026-01-16 02:43:09.68	307.88	8.90	-49.8	-65.1	3.8	1.49e+00	0	40	104	361758720	70	21984
2026-01-16 02:43:10.96	307.67	8.87	-49.8	-65.2	3.8	1.49e+00	0	40	104	361758720	70	22089
2026-01-16 02:43:11.67	307.55	8.85	-50.0	-65.2	3.8	1.49e+00	0	40	104	361758720	70	22254
2026-01-16 02:43:12.94	307.34	8.82	-50.1	-65.3	3.8	1.49e+00	0	40	104	361758720	70	22415
2026-01-16 02:43:13.65	307.23	8.80	-49.9	-65.3	3.8	1.49e+00	0	40	104	361758720	70	22437
2026-01-16 02:43:14.93	307.02	8.77	-50.1	-65.3	3.8	1.49e+00	0	40	104	361758720	70	22425
2026-01-16 02:43:15.64	306.90	8.75	-49.9	-65.3	3.8	1.49e+00	0	39	104	361758720	71	21190
2026-01-16 02:43:16.92	306.69	8.72	-50.1	-65.3	3.8	1.49e+00	0	40	104	361758720	71	21210
2026-01-16 02:43:17.63	306.58	8.70	-50.1	-65.3	3.8	1.49e+00	0	39	104	361758720	71	21234
2026-01-16 02:43:18.91	306.37	8.67	-50.2	-65.4	3.8	1.49e+00	0	39	104	361758720	71	21279
2026-01-16 02:43:19.62	306.25	8.65	-50.0	-65.4	3.8	1.49e+00	0	39	104	361758720	71	21282
2026-01-16 02:43:20.89	306.05	8.62	-50.1	-65.4	3.8	1.49e+00	0	40	104	361758720	71	21268
2026-01-16 02:43:21.60	305.93	8.60	-50.1	-65.4	3.8	1.49e+00	0	39	104	361758720	71	21303
2026-01-16 02:43:22.88	305.72	8.57	-50.1	-65.4	3.8	1.49e+00	0	40	104	361758720	71	21278
2026-01-16 02:43:23.59	305.61	8.55	-50.1	-65.4	3.8	1.49e+00	0	40	104	361758720	71	21305
2026-01-16 02:43:24.87	305.40	8.51	-50.0	-65.3	3.8	1.49e+00	0	39	104	361758720	71	21176
2026-01-16 02:43:25.58	305.29	8.49	-49.9	-65.3	3.8	1.49e+00	0	39	104	361758720	71	21121
2026-01-16 02:43:26.86	305.08	8.46	-49.7	-65.3	3.8	1.49e+00	0	40	104	361758720	71	21125
2026-01-16 02:43:27.57	304.97	8.44	-49.7	-65.3	3.8	1.49e+00	0	40	104	361758720	71	21184
2026-01-16 02:43:28.84	304.77	8.40	-49.7	-65.3	3.8	1.49e+00	0	39	104	361758720	71	21082
2026-01-16 02:43:29.55	304.65	8.38	-49.7	-65.3	3.8	1.49e+00	0	39	104	361758720	71	21110
2026-01-16 02:43:30.85	304.45	8.35	-49.7	-65.3	3.8	1.49e+00	0	40	104	361758720	71	21056
2026-01-16 02:43:31.56	304.33	8.33	-49.7	-65.3	3.8	1.49e+00	0	40	104	361758720	71	21067
2026-01-16 02:43:32.83	304.13	8.29	-49.7	-65.3	3.8	1.49e+00	0	39	104	361758720	71	21054
2026-01-16 02:43:33.54	304.02	8.27	-49.7	-65.3	3.8	1.49e+00	0	40	104	361758720	71	21093
2026-01-16 02:43:34.82	303.82	8.23	-49.7	-65.3	3.8	1.49e+00	0	40	104	361758720	71	21138
2026-01-16 02:43:35.53	303.71	8.21	-49.7	-65.3	3.8	1.49e+00	0	39	104	361758720	71	21038
2026-01-16 02:43:36.81	303.51	8.18	-49.7	-65.3	3.8	1.49e+00	0	40	104	361758720	71	21041
2026-01-16 02:43:37.51	303.40	8.16	-49.7	-65.3	3.8	1.49e+00	0	40	104	361758720	71	21092
2026-01-16 02:43:38.81	303.19	8.12	-49.7	-65.3	3.8	1.49e+00	0	39	104	361758720	71	21129
2026-01-16 02:43:39.52	303.08	8.10	-49.7	-65.3	3.8	1.49e+00	0	39	104	361758720	71	21128
2026-01-16 02:43:40.79	302.88	8.06	-49.7	-65.3	3.8	1.49e+00	0	40	104	361758720	71	21022
2026-01-16 02:43:41.52	302.77	8.04	-49.7	-65.3	3.8	1.49e+00	0	39	104	361758720	71	21031
2026-01-16 02:43:42.79	302.57	8.00	-49.7	-65.2	3.8	1.49e+00	0	39	104	361758720	71	20990
2026-01-16 02:43:43.50	302.46	7.98	-49.7	-65.2	3.8	1.49e+00	0	40	104	361758720	71	20971
2026-01-16 02:43:44.78	302.26	7.94	-49.7	-65.2	3.8	1.49e+00	0	40	104	361758720	71	20984
2026-01-16 02:43:45.49	302.15	7.92	-49.7	-65.2	3.8	1.49e+00	0	39	104	361758720	71	20918
2026-01-16 02:43:46.77	301.96	7.88	-49.7	-65.3	3.8	1.49e+00	0	39	104	361758720	71	21087
2026-01-16 02:43:47.48	301.85	7.86	-49.7	-65.2	3.8	1.49e+00	0	40	104	361758720	71	20981
2026-01-16 02:43:48.76	301.65	7.82	-49.7	-65.2	3.8	1.49e+00	0	40	104	361758720	71	20987
2026-01-16 02:43:49.50	301.54	7.79	-49.7	-65.2	3.8	1.49e+00	0	40	104	361758720	71	20989
2026-01-16 02:43:50.78	301.34	7.75	-49.7	-65.2	3.8	1.49e+00	0	39	104	361758720	71	20973
2026-01-16 02:43:51.50	301.23	7.73	-49.7	-65.2	3.8	1.49e+00	0	40	104	361758720	71	20976
2026-01-16 02:43:52.78	301.04	7.69	-49.7	-65.2	3.8	1.49e+00	0	40	104	361758720	71	20999
2026-01-16 02:43:53.49	300.93	7.67	-49.7	-65.3	3.8	1.49e+00	0	40	104	361758720	71	21022
2026-01-16 02:43:54.77	300.73	7.63	-49.7	-65.2	3.8	1.49e+00	0	40	104	361758720	71	20989
2026-01-16 02:43:55.49	300.63	7.61	-49.7	-65.2	3.8	1.49e+00	0	40	104	361758720	71	20944
2026-01-16 02:43:56.77	300.43	7.56	-49.7	-65.2	3.8	1.49e+00	0	40	104	361758720	71	20977
2026-01-16 02:43:57.49	300.32	7.54	-49.7	-65.3	3.8	1.49e+00	0	40	104	361758720	71	21023
2026-01-16 02:43:58.77	300.13	7.50	-49.7	-65.2	3.8	1.49e+00	0	40	104	361758720	71	20988
2026-01-16 02:43:59.48	300.03	7.48	-49.7	-65.2	3.8	1.49e+00	0	40	104	361758720	71	21010
2026-01-16 02:44:00.76	299.83	7.43	-49.7	-65.3	3.8	1.49e+00	0	40	104	361758720	71	21073
2026-01-16 02:44:01.48	299.73	7.41	-49.7	-65.2	3.8	1.49e+00	0	39	104	361758720	71	20963
2026-01-16 02:44:02.76	299.54	7.37	-49.7	-65.2	3.8	1.49e+00	0	39	104	361758720	71	20940
2026-01-16 02:44:03.47	299.43	7.35	-49.7	-65.3	3.8	1.49e+00	0	40	104	361758720	71	21027
2026-01-16 02:44:04.76	299.24	7.30	-49.7	-65.2	3.8	1.49e+00	0	39	104	361758720	71	20976
2026-01-16 02:44:05.47	299.14	7.28	-49.7	-65.2	3.8	1.49e+00	0	39	104	361758720	71	21017
2026-01-16 02:44:06.75	298.95	7.24	-49.7	-65.2	3.8	1.49e+00	0	40	104	361758720	71	20928
2026-01-16 02:44:07.46	298.84	7.21	-49.7	-65.2	3.8	1.49e+00	0	39	104	361758720	71	20990
2026-01-16 02:44:08.74	298.65	7.17	-49.7	-65.2	3.8	1.49e+00	0	40	104	361758720	71	20997
2026-01-16 02:44:09.45	298.55	7.14	-49.7	-65.2	3.8	1.49e+00	0	39	104	361758720	71	20935
2026-01-16 02:44:10.72	298.36	7.10	-49.7	-65.2	3.8	1.49e+00	0	39	104	361758720	71	20967
2026-01-16 02:44:11.43	298.26	7.08	-49.7	-65.2	3.8	1.49e+00	0	39	104	361758720	71	20931
2026-01-16 02:44:12.71	298.08	7.03	-49.7	-65.2	3.8	1.49e+00	0	40	104	361758720	71	20933
2026-01-16 02:44:13.45	297.97	7.01	-49.7	-65.2	3.8	1.49e+00	0	40	104	361758720	71	20963
2026-01-16 02:44:14.73	297.78	6.96	-49.7	-65.2	3.8	1.49e+00	0	40	104	361758720	71	20946
2026-01-16 02:44:15.44	297.68	6.94	-49.7	-65.2	3.8	1.49e+00	0	39	104	361758720	71	20973
2026-01-16 02:44:16.71	297.50	6.89	-49.7	-65.2	3.8	1.49e+00	0	39	104	361758720	71	20985
2026-01-16 02:44:17.42	297.40	6.87	-49.6	-65.2	3.8	1.49e+00	0	39	104	361758720	71	20953
2026-01-16 02:44:18.70	297.21	6.82	-49.6	-65.2	3.8	1.49e+00	0	39	104	361758720	71	20994
2026-01-16 02:44:19.41	297.11	6.80	-49.6	-65.2	3.8	1.49e+00	0	40	104	361758720	71	20925
2026-01-16 02:44:20.69	296.93	6.75	-49.6	-65.2	3.8	1.49e+00	0	39	104	361758720	71	20913
2026-01-16 02:44:21.40	296.83	6.73	-49.7	-65.2	3.8	1.49e+00	0	40	104	361758720	71	20927
2026-01-16 02:44:22.68	296.65	6.68	-49.6	-65.3	3.8	1.49e+00	0	40	104	361758720	71	21054
2026-01-16 02:44:23.39	296.54	6.66	-49.6	-65.2	3.8	1.49e+00	0	39	104	361758720	71	20911
2026-01-16 02:44:24.66	296.37	6.61	-49.6	-65.2	3.8	1.49e+00	0	39	104	361758720	71	20977
2026-01-16 02:44:25.37	296.27	6.59	-49.6	-65.2	3.8	1.49e+00	0	40	104	361758720	71	20923
2026-01-16 02:44:26.65	296.09	6.54	-49.7	-65.2	3.8	1.49e+00	0	39	104	361758720	71	20909
2026-01-16 02:44:27.36	295.99	6.52	-49.6	-65.2	3.8	1.49e+00	0	40	104	361758720	71	20938
2026-01-16 02:44:28.64	295.81	6.47	-49.6	-65.2	3.8	1.49e+00	0	40	104	361758720	71	20885
2026-01-16 02:44:29.35	295.71	6.44	-49.6	-65.2	3.8	1.49e+00	0	40	104	361758720	71	20984
2026-01-16 02:44:30.63	295.53	6.40	-49.6	-65.2	3.8	1.49e+00	0	40	104	361758720	71	20896
2026-01-16 02:44:31.35	295.43	6.37	-49.6	-65.2	3.8	1.49e+00	0	40	104	361758720	71	20919
2026-01-16 02:44:32.63	295.25	6.32	-49.7	-65.2	3.8	1.49e+00	0	40	104	361758720	71	20975
2026-01-16 02:44:33.34	295.15	6.30	-49.6	-65.2	3.8	1.49e+00	0	40	104	361758720	71	20928
2026-01-16 02:44:34.63	294.98	6.25	-49.6	-65.2	3.8	1.49e+00	0	39	104	361758720	71	20958
2026-01-16 02:44:35.34	294.88	6.22	-49.6	-65.2	3.8	1.49e+00	0	39	104	361758720	71	20894
2026-01-16 02:44:36.62	294.70	6.18	-49.6	-65.2	3.8	1.49e+00	0	39	104	361758720	71	20871
2026-01-16 02:44:37.33	294.61	6.15	-49.6	-65.2	3.8	1.49e+00	0	39	104	361758720	71	20955
2026-01-16 02:44:38.61	294.43	6.10	-49.7	-65.2	3.8	1.49e+00	0	40	104	361758720	71	21011
2026-01-16 02:44:39.32	294.34	6.08	-49.6	-65.2	3.8	1.49e+00	0	39	104	361758720	71	20946
2026-01-16 02:44:40.59	294.16	6.03	-49.6	-65.2	3.8	1.49e+00	0	40	104	361758720	71	20948
2026-01-16 02:44:41.30	294.07	6.00	-49.6	-65.2	3.8	1.49e+00	0	39	104	361758720	71	20984
2026-01-16 02:44:42.58	293.90	5.95	-49.6	-65.2	3.8	1.49e+00	0	40	104	361758720	71	20975
2026-01-16 02:44:43.29	293.80	5.93	-49.6	-65.2	3.8	1.49e+00	0	39	104	361758720	71	20909
2026-01-16 02:44:44.57	293.63	5.88	-49.6	-65.2	3.8	1.49e+00	0	40	104	361758720	71	20938
2026-01-16 02:44:45.28	293.53	5.85	-49.6	-65.2	3.8	1.49e+00	0	39	104	361758720	71	20892
2026-01-16 02:44:46.55	293.36	5.80	-49.6	-65.2	3.8	1.49e+00	0	39	104	361758720	71	20919
2026-01-16 02:44:47.26	293.27	5.78	-49.6	-65.2	3.8	1.49e+00	0	40	104	361758720	71	20954
2026-01-16 02:44:48.54	293.10	5.73	-49.6	-65.2	3.8	1.49e+00	0	40	104	361758720	71	20967
2026-01-16 02:44:49.25	293.01	5.70	-49.6	-65.2	3.8	1.49e+00	0	40	104	361758720	71	20941
2026-01-16 02:44:50.53	292.84	5.65	-49.6	-65.2	3.8	1.49e+00	0	40	104	361758720	71	20885
2026-01-16 02:44:51.24	292.74	5.63	-49.6	-65.2	3.8	1.49e+00	0	39	104	361758720	71	20851
2026-01-16 02:44:52.52	292.57	5.58	-49.6	-65.2	3.8	1.49e+00	0	40	104	361758720	71	20902
2026-01-16 02:44:53.24	292.48	5.55	-49.6	-65.2	3.8	1.49e+00	0	40	104	361758720	71	20916
2026-01-16 02:44:54.52	292.31	5.50	-49.6	-65.2	3.8	1.49e+00	0	40	104	361758720	71	20969
2026-01-16 02:44:55.24	292.22	5.47	-49.6	-65.2	3.8	1.49e+00	0	40	104	361758720	71	20852
2026-01-16 02:44:56.52	292.05	5.42	-49.6	-65.2	3.8	1.49e+00	0	40	104	361758720	71	20907
2026-01-16 02:44:57.23	291.96	5.39	-49.6	-65.2	3.8	1.49e+00	0	40	104	361758720	71	20894
2026-01-16 02:44:58.50	291.80	5.34	-49.6	-65.2	3.8	1.49e+00	0	40	104	361758720	71	20934
2026-01-16 02:44:59.23	291.70	5.32	-49.6	-65.2	3.8	1.49e+00	0	39	104	361758720	71	20901
2026-01-16 02:45:00.50	291.54	5.27	-49.6	-65.2	3.8	1.49e+00	0	40	104	361758720	71	20947
2026-01-16 02:45:01.21	291.45	5.24	-49.6	-65.2	3.8	1.49e+00	0	40	104	361758720	71	20901
2026-01-16 02:45:02.49	291.28	5.19	-49.6	-65.2	3.8	1.49e+00	0	40	104	361758720	71	20910
2026-01-16 02:45:03.20	291.19	5.16	-49.6	-65.2	3.8	1.49e+00	0	39	104	361758720	71	20995
2026-01-16 02:45:04.48	291.03	5.11	-49.6	-65.3	3.8	1.49e+00	0	40	104	361758720	71	21029
2026-01-16 02:45:05.19	290.94	5.08	-49.6	-65.2	3.8	1.49e+00	0	40	104	361758720	71	20974
2026-01-16 02:45:06.47	290.78	5.03	-49.6	-65.2	3.8	1.49e+00	0	40	104	361758720	71	20912
2026-01-16 02:45:07.19	290.69	5.00	-49.6	-65.2	3.8	1.49e+00	0	40	104	361758720	71	20869
2026-01-16 02:45:08.47	290.53	4.95	-49.6	-65.2	3.8	1.49e+00	0	40	104	361758720	71	20899

#Closed at: 2026-01-16 02:45:09
#Recorded file [361 MB]: D:/Data/31040_260116_053756.dat