passes_logs/2026/01/16/T1/T1__20260116_151127_FENGYUN_3E_rec.log

#Pass ID: 20260116_151127_FENGYUN 3E
#Satellite: FENGYUN 3E
#Configuration: FENGYUN 3E
#almurnet v.1.7.20251203
#Start time: 2026-01-16 15:11:29

#Version: 2.0.20230620
#Station: T1
#Location: 37.570604 lon 55.790049 lat
#TLE: 1 49008U 21062A   26015.99225297  .00000062  00000+0  49720-4 0  9994
#TLE: 2 49008  98.7486  21.1092 0002100 136.3389 223.7953 14.19885247234982

#Time	Az	El	Level	Level2	SNR	BER	BlckErr	Temp	State	Recorded	gain1	gain2
2026-01-16 15:11:29.22	191.80	5.13	-49.8	-61.4	3.8	8.46e-01	0	37	0	0	70	13298
2026-01-16 15:11:30.21	191.86	5.20	-49.8	-61.3	3.8	8.48e-01	0	37	104	0	69	14035
2026-01-16 15:11:31.20	191.91	5.27	-49.8	-61.3	3.8	8.46e-01	0	37	104	0	69	14004
2026-01-16 15:11:32.20	191.97	5.34	-49.8	-61.3	3.8	8.47e-01	0	37	104	0	69	13911
2026-01-16 15:11:33.20	192.03	5.40	-49.8	-61.2	3.8	8.48e-01	0	37	104	0	69	13876
2026-01-16 15:11:34.19	192.08	5.47	-49.8	-61.2	3.8	8.47e-01	0	37	104	0	69	13730
2026-01-16 15:11:35.19	192.14	5.54	-49.8	-60.9	3.8	8.46e-01	0	37	104	0	69	13381
2026-01-16 15:11:36.18	192.20	5.61	-49.8	-60.7	3.8	8.47e-01	0	37	104	0	69	12965
2026-01-16 15:11:37.18	192.26	5.67	-49.7	-60.4	3.8	8.47e-01	0	37	104	0	69	12645
2026-01-16 15:11:38.17	192.31	5.74	-49.7	-60.5	3.8	8.46e-01	0	37	104	0	69	12710
2026-01-16 15:11:39.17	192.37	5.81	-49.7	-60.5	3.8	8.45e-01	0	37	104	0	69	12694
2026-01-16 15:11:40.17	192.43	5.88	-49.7	-60.5	3.8	8.48e-01	0	37	104	0	69	12704
2026-01-16 15:11:41.16	192.49	5.95	-49.7	-60.6	3.8	8.46e-01	0	37	104	0	69	12829
2026-01-16 15:11:42.16	192.55	6.02	-49.7	-60.7	3.8	8.47e-01	0	37	104	0	69	12983
2026-01-16 15:11:43.16	192.61	6.08	-49.7	-60.6	3.8	8.46e-01	0	37	104	0	69	12879
2026-01-16 15:11:44.15	192.67	6.15	-49.7	-60.6	3.8	8.46e-01	0	37	104	0	69	12907
2026-01-16 15:11:45.15	192.73	6.22	-49.7	-60.5	3.8	8.46e-01	0	37	104	0	69	12708
2026-01-16 15:11:46.15	192.79	6.29	-49.7	-60.4	3.8	8.45e-01	0	38	104	0	69	12522
2026-01-16 15:11:47.14	192.85	6.36	-49.7	-60.2	3.8	8.45e-01	0	38	104	0	69	12244
2026-01-16 15:11:48.14	192.91	6.43	-49.7	-60.1	3.8	8.46e-01	0	37	104	0	69	12143
2026-01-16 15:11:49.13	192.97	6.50	-49.7	-60.0	3.8	8.46e-01	0	38	104	0	69	12068
2026-01-16 15:11:50.13	193.03	6.57	-49.7	-60.3	3.8	8.46e-01	0	38	104	0	69	12442
2026-01-16 15:11:51.12	193.10	6.64	-49.7	-60.3	3.8	8.47e-01	0	38	104	0	69	12458
2026-01-16 15:11:52.12	193.16	6.71	-49.7	-60.5	3.8	8.46e-01	0	38	104	0	69	12736
2026-01-16 15:11:53.12	193.22	6.78	-49.7	-60.7	3.8	8.48e-01	0	38	104	0	69	13066
2026-01-16 15:11:54.11	193.28	6.85	-49.8	-61.0	3.8	8.47e-01	0	38	104	0	69	13425
2026-01-16 15:11:55.11	193.35	6.92	-49.8	-61.1	3.8	8.47e-01	0	38	104	0	69	13646
2026-01-16 15:11:56.10	193.41	7.00	-49.8	-61.1	3.8	8.47e-01	0	38	104	0	69	13677
2026-01-16 15:11:57.10	193.47	7.07	-49.7	-60.7	3.8	8.48e-01	0	38	104	0	69	13057
2026-01-16 15:11:58.09	193.54	7.14	-49.7	-60.0	3.8	8.47e-01	0	38	104	0	69	12071
2026-01-16 15:11:59.09	193.60	7.21	-49.5	-59.4	3.8	8.45e-01	0	38	104	0	69	11197
2026-01-16 15:12:00.08	193.66	7.28	-49.4	-58.5	4.0	8.44e-01	0	38	0	0	69	10161
2026-01-16 15:12:01.08	193.73	7.35	-49.3	-58.3	4.1	8.39e-01	0	38	0	0	69	9843
2026-01-16 15:12:02.07	193.79	7.42	-49.4	-58.6	3.9	8.42e-01	0	38	104	0	69	10266
2026-01-16 15:12:03.07	193.86	7.50	-49.6	-59.7	3.8	8.46e-01	0	38	104	0	69	11681
2026-01-16 15:12:04.07	193.93	7.57	-49.7	-61.1	3.8	8.47e-01	0	38	104	0	69	13571
2026-01-16 15:12:05.06	193.99	7.64	-49.8	-61.0	3.8	8.48e-01	0	38	104	0	69	13421
2026-01-16 15:12:06.05	194.06	7.71	-49.3	-57.5	4.3	8.45e-01	0	38	104	0	69	8976
2026-01-16 15:12:07.05	194.12	7.79	-48.1	-53.4	6.6	2.91e-01	0	38	0	2097152	67	6323
2026-01-16 15:12:08.05	194.19	7.86	-46.6	-50.2	9.8	2.31e-02	0	38	0	9437184	63	5503
2026-01-16 15:12:09.04	194.26	7.93	-45.0	-47.7	12.4	2.10e-04	0	38	0	16777216	60	4896
2026-01-16 15:12:10.04	194.33	8.01	-43.5	-45.7	14.3	0.00e+00	0	38	0	24117248	57	4616
2026-01-16 15:12:11.03	194.39	8.08	-42.1	-44.0	15.9	0.00e+00	0	38	0	31457280	55	4248
2026-01-16 15:12:12.03	194.46	8.15	-41.0	-42.7	17.0	0.00e+00	0	38	0	37748736	52	4371
2026-01-16 15:12:13.02	194.53	8.23	-40.6	-42.2	17.5	0.00e+00	0	38	0	45088768	51	4374
2026-01-16 15:12:14.02	194.60	8.30	-40.0	-41.7	18.0	0.00e+00	0	38	0	52428800	50	4347
2026-01-16 15:12:15.01	194.67	8.38	-39.8	-41.4	18.3	0.00e+00	0	39	0	59768832	50	4204
2026-01-16 15:12:16.00	194.74	8.45	-39.9	-41.5	18.1	0.00e+00	0	38	0	67108864	50	4287
2026-01-16 15:12:17.00	194.81	8.53	-40.3	-41.9	17.8	0.00e+00	0	38	0	73400320	50	4483
2026-01-16 15:12:18.00	194.88	8.60	-40.7	-42.4	17.4	0.00e+00	0	38	0	80740352	50	4742
2026-01-16 15:12:18.99	194.95	8.68	-41.3	-43.0	16.7	0.00e+00	0	38	0	88080384	52	4540
2026-01-16 15:12:19.99	195.02	8.75	-42.2	-44.2	15.7	0.00e+00	0	38	0	95420416	53	4871
2026-01-16 15:12:20.99	195.09	8.83	-43.1	-45.2	14.6	0.00e+00	0	38	0	102760448	55	4910
2026-01-16 15:12:21.98	195.16	8.90	-44.5	-47.0	13.1	8.00e-06	0	39	0	110100480	58	5073
2026-01-16 15:12:22.98	195.23	8.98	-45.6	-48.5	11.6	3.13e-04	0	38	0	117440512	60	5387
2026-01-16 15:12:23.98	195.31	9.06	-46.5	-50.0	10.1	3.64e-03	0	38	0	124780544	62	5674
2026-01-16 15:12:24.98	195.38	9.13	-46.6	-50.3	9.8	7.55e-03	0	39	0	132120576	62	5875
2026-01-16 15:12:25.98	195.45	9.21	-48.9	-56.0	4.8	3.85e-01	0	39	0	137363456	67	8545
2026-01-16 15:12:26.97	195.52	9.29	-46.6	-50.0	10.2	3.11e-03	0	39	0	142606336	62	5716
2026-01-16 15:12:27.98	195.60	9.36	-41.3	-43.0	16.8	0.00e+00	0	39	0	149946368	53	4289
2026-01-16 15:12:28.98	195.67	9.44	-48.5	-54.7	5.6	8.71e-02	0	39	0	157286400	66	7793
2026-01-16 15:12:29.98	195.75	9.52	-41.4	-43.1	16.7	0.00e+00	0	39	0	164626432	53	4336
2026-01-16 15:12:30.98	195.82	9.60	-40.4	-42.0	17.8	0.00e+00	0	39	0	171966464	51	4273
2026-01-16 15:12:31.98	195.90	9.67	-39.4	-40.9	18.7	0.00e+00	0	39	0	178257920	49	4235
2026-01-16 15:12:32.98	195.98	9.75	-39.1	-40.7	19.0	0.00e+00	0	39	0	185597952	48	4348
2026-01-16 15:12:33.98	196.05	9.83	-39.3	-40.8	18.9	0.00e+00	0	39	0	192937984	48	4423
2026-01-16 15:12:34.98	196.13	9.91	-39.1	-40.6	19.0	0.00e+00	0	39	0	200278016	48	4303
2026-01-16 15:12:35.98	196.21	9.99	-39.3	-40.8	18.9	0.00e+00	0	39	0	207618048	48	4429
2026-01-16 15:12:36.98	196.28	10.07	-39.3	-40.8	18.8	0.00e+00	0	39	0	214958080	48	4417
2026-01-16 15:12:37.98	196.36	10.15	-39.3	-40.8	18.9	0.00e+00	0	39	0	222298112	48	4437
2026-01-16 15:12:38.99	196.44	10.23	-39.2	-40.8	18.9	0.00e+00	0	39	0	229638144	48	4396
2026-01-16 15:12:39.99	196.52	10.31	-39.2	-40.8	18.9	0.00e+00	0	39	0	235929600	48	4394
2026-01-16 15:12:40.99	196.60	10.39	-39.0	-40.5	19.1	0.00e+00	0	39	0	243269632	48	4281
2026-01-16 15:12:41.98	196.68	10.47	-39.0	-40.5	19.1	0.00e+00	0	39	0	250609664	48	4276
2026-01-16 15:12:42.99	196.76	10.55	-39.1	-40.7	19.0	0.00e+00	0	39	0	257949696	48	4346
2026-01-16 15:12:43.99	196.84	10.63	-38.9	-40.4	19.2	0.00e+00	0	39	0	265289728	48	4238
2026-01-16 15:12:44.99	196.92	10.71	-39.0	-40.5	19.1	0.00e+00	0	39	0	272629760	48	4287
2026-01-16 15:12:45.99	197.00	10.79	-38.9	-40.5	19.2	0.00e+00	0	39	0	279969792	48	4249
2026-01-16 15:12:46.99	197.08	10.87	-38.9	-40.4	19.2	0.00e+00	0	39	0	287309824	48	4236
2026-01-16 15:12:47.99	197.16	10.95	-39.0	-40.6	19.1	0.00e+00	0	39	0	294649856	48	4301
2026-01-16 15:12:49.00	197.25	11.03	-39.0	-40.5	19.2	0.00e+00	0	39	0	300941312	48	4268
2026-01-16 15:12:50.00	197.33	11.12	-38.7	-40.2	19.4	0.00e+00	0	39	0	308281344	48	4130
2026-01-16 15:12:51.00	197.41	11.20	-38.9	-40.4	19.3	0.00e+00	0	39	0	315621376	48	4203
2026-01-16 15:12:52.00	197.50	11.28	-38.7	-40.2	19.5	0.00e+00	0	39	0	322961408	48	4100
2026-01-16 15:12:53.00	197.58	11.36	-38.5	-40.0	19.3	0.00e+00	0	39	0	330301440	47	4281
2026-01-16 15:12:54.00	197.67	11.45	-38.5	-40.0	19.3	0.00e+00	0	39	0	337641472	47	4284
2026-01-16 15:12:55.00	197.75	11.53	-38.6	-40.1	19.2	0.00e+00	0	39	0	344981504	47	4312
2026-01-16 15:12:56.00	197.84	11.61	-38.6	-40.1	19.2	0.00e+00	0	39	0	352321536	47	4315
2026-01-16 15:12:57.00	197.92	11.70	-38.4	-40.0	19.3	0.00e+00	0	39	0	359661568	47	4243
2026-01-16 15:12:58.00	198.01	11.78	-38.6	-40.1	19.2	0.00e+00	0	39	0	365953024	47	4338
2026-01-16 15:12:59.00	198.10	11.86	-38.6	-40.2	19.2	0.00e+00	0	39	0	373293056	47	4344
2026-01-16 15:13:00.00	198.19	11.95	-38.6	-40.1	19.2	0.00e+00	0	39	0	380633088	47	4330
2026-01-16 15:13:01.00	198.27	12.03	-38.6	-40.1	19.3	0.00e+00	0	39	0	387973120	47	4293
2026-01-16 15:13:02.01	198.36	12.12	-38.5	-40.0	19.4	0.00e+00	0	39	0	395313152	47	4258
2026-01-16 15:13:03.01	198.45	12.20	-38.4	-39.9	19.4	0.00e+00	0	39	0	402653184	47	4198
2026-01-16 15:13:04.01	198.54	12.29	-38.4	-39.9	19.5	0.00e+00	0	39	0	409993216	47	4214
2026-01-16 15:13:05.01	198.63	12.37	-38.4	-39.9	19.5	0.00e+00	0	39	0	417333248	47	4204
2026-01-16 15:13:06.01	198.72	12.46	-38.4	-39.9	19.4	0.00e+00	0	39	0	423624704	47	4226
2026-01-16 15:13:07.01	198.82	12.54	-38.4	-39.9	19.5	0.00e+00	0	39	0	430964736	47	4200
2026-01-16 15:13:08.02	198.91	12.63	-38.4	-39.9	19.5	0.00e+00	0	39	0	438304768	47	4201
2026-01-16 15:13:09.02	199.00	12.72	-38.3	-39.8	19.5	0.00e+00	0	39	0	445644800	47	4162
2026-01-16 15:13:10.02	199.09	12.80	-38.4	-39.9	19.4	0.00e+00	0	39	0	452984832	47	4211
2026-01-16 15:13:11.02	199.19	12.89	-38.4	-39.9	19.4	0.00e+00	0	39	0	460324864	47	4204
2026-01-16 15:13:12.03	199.28	12.98	-38.4	-39.8	19.5	0.00e+00	0	39	0	467664896	47	4181
2026-01-16 15:13:13.03	199.37	13.07	-38.4	-39.9	19.4	0.00e+00	0	39	0	475004928	47	4210
2026-01-16 15:13:14.03	199.47	13.15	-38.2	-39.6	19.7	0.00e+00	0	39	0	482344960	47	4088
2026-01-16 15:13:15.03	199.57	13.24	-38.4	-39.8	19.5	0.00e+00	0	39	0	489684992	46	4431
2026-01-16 15:13:16.03	199.66	13.33	-38.4	-39.8	19.5	0.00e+00	0	39	0	497025024	46	4411
2026-01-16 15:13:17.03	199.76	13.42	-38.4	-39.8	19.5	0.00e+00	0	39	0	504365056	46	4416
2026-01-16 15:13:18.04	199.86	13.51	-38.3	-39.8	19.5	0.00e+00	0	39	0	510656512	46	4409
2026-01-16 15:13:19.04	199.95	13.60	-38.2	-39.6	19.8	0.00e+00	0	39	0	517996544	46	4302
2026-01-16 15:13:20.03	200.05	13.68	-38.5	-39.9	19.5	0.00e+00	0	39	0	525336576	46	4472
2026-01-16 15:13:21.04	200.15	13.77	-38.3	-39.7	19.6	0.00e+00	0	39	0	532676608	46	4381
2026-01-16 15:13:22.04	200.25	13.86	-38.2	-39.6	19.7	0.00e+00	0	39	0	540016640	46	4339
2026-01-16 15:13:23.04	200.35	13.95	-38.2	-39.6	19.7	0.00e+00	0	39	0	547356672	46	4334
2026-01-16 15:13:24.04	200.45	14.04	-38.2	-39.6	19.7	0.00e+00	0	39	0	554696704	46	4307
2026-01-16 15:13:25.04	200.55	14.13	-38.1	-39.5	19.8	0.00e+00	0	39	0	562036736	46	4263
2026-01-16 15:13:26.04	200.65	14.22	-38.2	-39.6	19.7	0.00e+00	0	40	0	568328192	46	4337
2026-01-16 15:13:27.04	200.76	14.31	-38.2	-39.6	19.7	0.00e+00	0	39	0	575668224	46	4313
2026-01-16 15:13:28.04	200.86	14.41	-38.2	-39.6	19.8	0.00e+00	0	39	0	583008256	46	4294
2026-01-16 15:13:29.05	200.96	14.50	-38.2	-39.5	19.8	0.00e+00	0	39	0	590348288	46	4291
2026-01-16 15:13:30.05	201.07	14.59	-38.4	-39.9	19.5	0.00e+00	0	40	0	597688320	46	4446
2026-01-16 15:13:31.05	201.17	14.68	-38.3	-39.7	19.7	0.00e+00	0	39	0	605028352	46	4372
2026-01-16 15:13:32.05	201.28	14.77	-38.1	-39.4	19.9	0.00e+00	0	39	0	612368384	46	4237
2026-01-16 15:13:33.05	201.38	14.86	-38.1	-39.5	19.9	0.00e+00	0	39	0	619708416	46	4245
2026-01-16 15:13:34.05	201.49	14.96	-38.1	-39.5	19.9	0.00e+00	0	39	0	627048448	46	4257
2026-01-16 15:13:35.06	201.60	15.05	-37.9	-39.3	20.0	0.00e+00	0	39	0	633339904	46	4167
2026-01-16 15:13:36.06	201.71	15.14	-37.9	-39.2	20.1	0.00e+00	0	39	0	640679936	46	4144
2026-01-16 15:13:37.06	201.81	15.24	-38.0	-39.3	20.0	0.00e+00	0	39	0	648019968	46	4162
2026-01-16 15:13:38.06	201.92	15.33	-37.7	-39.1	20.3	0.00e+00	0	40	0	655360000	46	4055
2026-01-16 15:13:39.07	202.03	15.43	-37.7	-39.0	20.3	0.00e+00	0	39	0	662700032	46	4008
2026-01-16 15:13:40.07	202.15	15.52	-37.7	-39.0	20.3	0.00e+00	0	40	0	670040064	46	4037
2026-01-16 15:13:41.07	202.26	15.61	-37.6	-38.9	20.4	0.00e+00	0	39	0	677380096	46	3992
2026-01-16 15:13:42.07	202.37	15.71	-37.7	-38.9	20.4	0.00e+00	0	40	0	684720128	46	4004
2026-01-16 15:13:43.08	202.48	15.81	-37.6	-38.9	20.4	0.00e+00	0	39	0	692060160	46	3977
2026-01-16 15:13:44.08	202.60	15.90	-37.6	-38.8	20.4	0.00e+00	0	39	0	699400192	45	4193
2026-01-16 15:13:45.08	202.71	16.00	-37.6	-38.9	20.4	0.00e+00	0	40	0	706740224	45	4231
2026-01-16 15:13:46.08	202.82	16.09	-37.7	-39.0	20.3	0.00e+00	0	39	0	714080256	45	4257
2026-01-16 15:13:47.08	202.94	16.19	-37.5	-38.8	20.5	0.00e+00	0	40	0	720371712	45	4170
2026-01-16 15:13:48.08	203.06	16.28	-37.6	-38.9	20.4	0.00e+00	0	39	0	727711744	45	4227
2026-01-16 15:13:49.08	203.17	16.38	-37.6	-38.9	20.5	0.00e+00	0	39	0	735051776	45	4212
2026-01-16 15:13:50.08	203.29	16.48	-37.3	-38.7	20.6	0.00e+00	0	39	0	742391808	45	4099
2026-01-16 15:13:51.08	203.41	16.58	-37.3	-38.6	20.6	0.00e+00	0	39	0	749731840	45	4091
2026-01-16 15:13:52.08	203.53	16.67	-37.4	-38.7	20.6	0.00e+00	0	39	0	757071872	45	4140
2026-01-16 15:13:53.08	203.65	16.77	-37.4	-38.8	20.6	0.00e+00	0	39	0	764411904	45	4149
2026-01-16 15:13:54.08	203.77	16.87	-37.5	-38.9	20.5	0.00e+00	0	39	0	771751936	45	4211
2026-01-16 15:13:55.08	203.89	16.97	-37.4	-38.8	20.6	0.00e+00	0	39	0	778043392	45	4154
2026-01-16 15:13:56.08	204.01	17.07	-37.3	-38.6	20.7	0.00e+00	0	40	0	785383424	45	4079
2026-01-16 15:13:57.08	204.14	17.16	-37.2	-38.5	20.8	0.00e+00	0	40	0	792723456	45	4028
2026-01-16 15:13:58.08	204.26	17.26	-37.3	-38.6	20.7	0.00e+00	0	39	0	800063488	45	4092
2026-01-16 15:13:59.09	204.38	17.36	-37.3	-38.7	20.7	0.00e+00	0	40	0	807403520	45	4105
2026-01-16 15:14:00.09	204.51	17.46	-37.2	-38.5	20.8	0.00e+00	0	39	0	814743552	45	4040
2026-01-16 15:14:01.09	204.64	17.56	-37.1	-38.4	20.9	0.00e+00	0	40	0	822083584	45	3981
2026-01-16 15:14:02.09	204.76	17.66	-37.2	-38.5	20.8	0.00e+00	0	39	0	829423616	44	4265
2026-01-16 15:14:03.09	204.89	17.76	-37.2	-38.6	20.8	0.00e+00	0	40	0	836763648	44	4295
2026-01-16 15:14:04.10	205.02	17.87	-37.2	-38.5	20.8	0.00e+00	0	40	0	843055104	44	4269
2026-01-16 15:14:05.10	205.15	17.97	-37.1	-38.4	20.8	0.00e+00	0	40	0	850395136	44	4233
2026-01-16 15:14:06.10	205.28	18.07	-37.1	-38.5	20.8	0.00e+00	0	39	0	857735168	44	4257
2026-01-16 15:14:07.10	205.41	18.17	-36.9	-38.3	21.0	0.00e+00	0	39	0	865075200	44	4164
2026-01-16 15:14:08.10	205.54	18.27	-37.0	-38.3	20.9	0.00e+00	0	40	0	872415232	44	4184
2026-01-16 15:14:09.10	205.68	18.37	-37.0	-38.4	20.9	0.00e+00	0	40	0	879755264	44	4200
2026-01-16 15:14:10.10	205.81	18.48	-37.2	-38.5	20.8	0.00e+00	0	40	0	887095296	44	4289
2026-01-16 15:14:11.10	205.94	18.58	-37.2	-38.5	20.8	0.00e+00	0	40	0	894435328	44	4289
2026-01-16 15:14:12.10	206.08	18.68	-37.1	-38.4	20.8	0.00e+00	0	39	0	901775360	44	4236
2026-01-16 15:14:13.10	206.22	18.78	-37.1	-38.5	20.8	0.00e+00	0	39	0	908066816	44	4271
2026-01-16 15:14:14.11	206.35	18.89	-37.1	-38.5	20.8	0.00e+00	0	40	0	915406848	44	4264
2026-01-16 15:14:15.11	206.49	18.99	-37.2	-38.6	20.7	0.00e+00	0	40	0	922746880	44	4317
2026-01-16 15:14:16.11	206.63	19.10	-37.1	-38.5	20.7	0.00e+00	0	39	0	930086912	44	4279
2026-01-16 15:14:17.11	206.77	19.20	-37.0	-38.3	20.9	0.00e+00	0	40	0	937426944	44	4192
2026-01-16 15:14:18.11	206.91	19.31	-37.0	-38.4	20.8	0.00e+00	0	40	0	944766976	44	4230
2026-01-16 15:14:19.11	207.05	19.41	-37.0	-38.4	20.8	0.00e+00	0	40	0	952107008	44	4240
2026-01-16 15:14:20.12	207.20	19.52	-37.2	-38.6	20.6	0.00e+00	0	40	0	959447040	44	4329
2026-01-16 15:14:21.11	207.34	19.62	-37.2	-38.6	20.7	0.00e+00	0	39	0	965738496	44	4295
2026-01-16 15:14:22.11	207.49	19.73	-37.0	-38.4	20.8	0.00e+00	0	39	0	973078528	44	4216
2026-01-16 15:14:23.11	207.63	19.83	-37.1	-38.4	20.8	0.00e+00	0	40	0	980418560	44	4226
2026-01-16 15:14:24.11	207.78	19.94	-36.7	-38.0	21.1	0.00e+00	0	40	0	987758592	44	4027
2026-01-16 15:14:25.11	207.93	20.05	-36.4	-37.7	21.2	0.00e+00	0	40	0	995098624	43	4132
2026-01-16 15:14:26.11	208.08	20.15	-36.3	-37.6	21.4	0.00e+00	0	40	0	1002438656	43	4072
2026-01-16 15:14:27.11	208.22	20.26	-36.5	-37.8	21.2	0.00e+00	0	40	0	1009778688	43	4156
2026-01-16 15:14:28.11	208.38	20.37	-36.4	-37.7	21.3	0.00e+00	0	40	0	1017118720	43	4108
2026-01-16 15:14:29.11	208.53	20.47	-36.2	-37.5	21.4	0.00e+00	0	40	0	1024458752	43	4042
2026-01-16 15:14:30.11	208.68	20.58	-36.3	-37.6	21.3	0.00e+00	0	40	0	1030750208	43	4077
2026-01-16 15:14:31.11	208.83	20.69	-36.3	-37.6	21.4	0.00e+00	0	40	0	1038090240	43	4054
2026-01-16 15:14:32.11	208.99	20.80	-36.3	-37.6	21.3	0.00e+00	0	40	0	1045430272	43	4091
2026-01-16 15:14:33.11	209.15	20.91	-36.5	-37.8	21.1	0.00e+00	0	40	0	1052770304	43	4182
2026-01-16 15:14:34.11	209.30	21.02	-36.3	-37.6	21.3	0.00e+00	0	40	0	1060110336	43	4068
2026-01-16 15:14:35.11	209.46	21.13	-36.4	-37.7	21.2	0.00e+00	0	40	0	1067450368	43	4118
2026-01-16 15:14:36.11	209.62	21.23	-36.4	-37.7	21.2	0.00e+00	0	40	0	1074790400	43	4139
2026-01-16 15:14:37.12	209.78	21.35	-36.3	-37.7	21.3	0.00e+00	0	40	0	1082130432	43	4099
2026-01-16 15:14:38.11	209.94	21.45	-36.2	-37.5	21.4	0.00e+00	0	40	0	1089470464	43	4035
2026-01-16 15:14:39.12	210.11	21.57	-36.3	-37.6	21.3	0.00e+00	0	40	0	1095761920	43	4066
2026-01-16 15:14:40.12	210.27	21.68	-36.3	-37.6	21.3	0.00e+00	0	40	0	1103101952	43	4063
2026-01-16 15:14:41.12	210.43	21.79	-36.3	-37.6	21.3	0.00e+00	0	40	0	1111490560	43	4083
2026-01-16 15:14:42.12	210.60	21.90	-36.3	-37.6	21.3	0.00e+00	0	40	0	1117782016	43	4082
2026-01-16 15:14:43.12	210.77	22.01	-36.4	-37.7	21.3	0.00e+00	0	40	0	1125122048	43	4117
2026-01-16 15:14:44.12	210.94	22.12	-36.4	-37.7	21.2	0.00e+00	0	40	0	1132462080	43	4129
2026-01-16 15:14:45.12	211.11	22.23	-36.3	-37.6	21.3	0.00e+00	0	40	0	1139802112	43	4077
2026-01-16 15:14:46.12	211.28	22.34	-36.2	-37.6	21.4	0.00e+00	0	40	0	1147142144	43	4054
2026-01-16 15:14:47.12	211.45	22.46	-36.3	-37.7	21.3	0.00e+00	0	40	0	1154482176	43	4099
2026-01-16 15:14:48.12	211.62	22.57	-36.2	-37.5	21.4	0.00e+00	0	40	0	1161822208	43	4017
2026-01-16 15:14:49.12	211.80	22.68	-36.2	-37.6	21.4	0.00e+00	0	40	0	1169162240	43	4052
2026-01-16 15:14:50.13	211.97	22.79	-36.1	-37.4	21.5	0.00e+00	0	40	0	1175453696	42	4213
2026-01-16 15:14:51.13	212.15	22.91	-36.0	-37.3	21.6	0.00e+00	0	40	0	1182793728	42	4166
2026-01-16 15:14:52.13	212.33	23.02	-36.0	-37.3	21.6	0.00e+00	0	40	0	1190133760	42	4178
2026-01-16 15:14:53.12	212.51	23.13	-35.9	-37.2	21.7	0.00e+00	0	40	0	1197473792	42	4139
2026-01-16 15:14:54.12	212.69	23.25	-36.1	-37.4	21.5	0.00e+00	0	40	0	1204813824	42	4221
2026-01-16 15:14:55.12	212.87	23.36	-35.9	-37.2	21.7	0.00e+00	0	40	0	1212153856	42	4130
2026-01-16 15:14:56.13	213.05	23.48	-36.1	-37.4	21.5	0.00e+00	0	40	0	1219493888	42	4234
2026-01-16 15:14:57.12	213.24	23.59	-36.2	-37.5	21.5	0.00e+00	0	40	0	1226833920	42	4284
2026-01-16 15:14:58.12	213.42	23.70	-36.2	-37.5	21.5	0.00e+00	0	40	0	1234173952	42	4283
2026-01-16 15:14:59.12	213.61	23.82	-36.3	-37.6	21.4	0.00e+00	0	40	0	1240465408	42	4310
2026-01-16 15:15:00.12	213.80	23.93	-36.1	-37.4	21.6	0.00e+00	0	40	0	1247805440	42	4218
2026-01-16 15:15:01.12	213.99	24.05	-36.3	-37.6	21.4	0.00e+00	0	40	0	1255145472	42	4295
2026-01-16 15:15:02.12	214.18	24.16	-36.2	-37.5	21.5	0.00e+00	0	40	0	1262485504	42	4264
2026-01-16 15:15:03.12	214.37	24.28	-36.0	-37.3	21.6	0.00e+00	0	40	0	1269825536	42	4183
2026-01-16 15:15:04.12	214.56	24.40	-36.0	-37.3	21.7	0.00e+00	0	40	0	1277165568	42	4156
2026-01-16 15:15:05.13	214.76	24.51	-35.9	-37.2	21.7	0.00e+00	0	40	0	1284505600	42	4112
2026-01-16 15:15:06.12	214.96	24.63	-36.0	-37.3	21.6	0.00e+00	0	40	0	1291845632	42	4151
2026-01-16 15:15:07.13	215.16	24.74	-35.9	-37.2	21.7	0.00e+00	0	40	0	1298137088	42	4107
2026-01-16 15:15:08.13	215.36	24.86	-35.8	-37.1	21.8	0.00e+00	0	40	0	1305477120	42	4078
2026-01-16 15:15:09.13	215.56	24.98	-35.7	-37.0	21.9	0.00e+00	0	40	0	1312817152	42	4026
2026-01-16 15:15:10.13	215.76	25.09	-35.6	-36.9	21.9	0.00e+00	0	40	0	1320157184	41	4216
2026-01-16 15:15:11.13	215.96	25.21	-35.6	-36.9	21.9	0.00e+00	0	40	0	1327497216	41	4210
2026-01-16 15:15:12.13	216.17	25.33	-35.6	-36.9	21.9	0.00e+00	0	40	0	1334837248	41	4201
2026-01-16 15:15:13.13	216.38	25.44	-35.7	-36.9	21.9	0.00e+00	0	40	0	1342177280	41	4241
2026-01-16 15:15:14.13	216.59	25.56	-35.5	-36.8	22.0	0.00e+00	0	40	0	1349517312	41	4163
2026-01-16 15:15:15.13	216.80	25.68	-35.6	-36.9	21.9	0.00e+00	0	40	0	1356857344	41	4212
2026-01-16 15:15:16.13	217.01	25.80	-35.6	-36.9	22.0	0.00e+00	0	40	0	1363148800	41	4215
2026-01-16 15:15:17.14	217.22	25.91	-35.7	-37.0	21.9	0.00e+00	0	40	0	1370488832	41	4276
2026-01-16 15:15:18.13	217.43	26.03	-35.9	-37.1	21.8	0.00e+00	0	40	0	1377828864	41	4333
2026-01-16 15:15:19.14	217.65	26.15	-35.6	-36.9	22.0	0.00e+00	0	40	0	1385168896	41	4209
2026-01-16 15:15:20.14	217.87	26.27	-35.5	-36.7	22.2	0.00e+00	0	40	0	1392508928	41	4121
2026-01-16 15:15:21.14	218.09	26.39	-35.6	-36.9	22.0	0.00e+00	0	40	0	1399848960	41	4212
2026-01-16 15:15:22.14	218.31	26.50	-35.6	-36.8	22.0	0.00e+00	0	40	0	1407188992	41	4184
2026-01-16 15:15:23.14	218.53	26.62	-35.6	-36.9	22.0	0.00e+00	0	40	0	1414529024	41	4204
2026-01-16 15:15:24.14	218.76	26.74	-35.7	-36.9	22.0	0.00e+00	0	40	0	1421869056	41	4224
2026-01-16 15:15:25.14	218.98	26.86	-35.6	-36.9	22.0	0.00e+00	0	40	0	1428160512	41	4214
2026-01-16 15:15:26.15	219.21	26.98	-35.6	-36.9	21.9	0.00e+00	0	40	0	1435500544	41	4222
2026-01-16 15:15:27.14	219.44	27.09	-35.6	-36.9	21.9	0.00e+00	0	40	0	1442840576	41	4227
2026-01-16 15:15:28.14	219.67	27.21	-35.5	-36.8	22.0	0.00e+00	0	40	0	1450180608	41	4176
2026-01-16 15:15:29.14	219.90	27.33	-35.6	-36.9	21.9	0.00e+00	0	40	0	1457520640	41	4225
2026-01-16 15:15:30.14	220.14	27.45	-35.5	-36.8	22.0	0.00e+00	0	40	0	1464860672	41	4167
2026-01-16 15:15:31.15	220.38	27.57	-35.5	-36.8	22.0	0.00e+00	0	40	0	1472200704	41	4154
2026-01-16 15:15:32.15	220.61	27.69	-35.5	-36.8	22.0	0.00e+00	0	40	0	1479540736	41	4155
2026-01-16 15:15:33.15	220.85	27.80	-35.5	-36.7	22.1	0.00e+00	0	40	0	1485832192	41	4138
2026-01-16 15:15:34.15	221.09	27.92	-35.4	-36.7	22.1	0.00e+00	0	40	0	1493172224	41	4126
2026-01-16 15:15:35.16	221.34	28.04	-35.4	-36.6	22.1	0.00e+00	0	40	0	1500512256	41	4097
2026-01-16 15:15:36.16	221.58	28.16	-35.3	-36.6	22.2	0.00e+00	0	40	0	1507852288	41	4062
2026-01-16 15:15:37.16	221.83	28.28	-35.4	-36.7	22.1	0.00e+00	0	40	0	1515192320	41	4116
2026-01-16 15:15:38.15	222.08	28.40	-35.5	-36.7	22.0	0.00e+00	0	40	0	1522532352	41	4134
2026-01-16 15:15:39.16	222.33	28.51	-35.4	-36.7	22.1	0.00e+00	0	40	0	1529872384	41	4106
2026-01-16 15:15:40.16	222.58	28.63	-35.4	-36.7	22.0	0.00e+00	0	40	0	1537212416	41	4125
2026-01-16 15:15:41.16	222.83	28.75	-35.6	-36.9	21.9	0.00e+00	0	40	0	1544552448	41	4198
2026-01-16 15:15:42.16	223.09	28.87	-35.4	-36.7	22.0	0.00e+00	0	40	0	1550843904	41	4124
2026-01-16 15:15:43.16	223.35	28.99	-35.4	-36.7	22.1	0.00e+00	0	40	0	1558183936	41	4099
2026-01-16 15:15:44.16	223.61	29.10	-35.5	-36.8	22.1	0.00e+00	0	40	0	1565523968	41	4160
2026-01-16 15:15:45.16	223.87	29.22	-35.4	-36.6	22.2	0.00e+00	0	40	0	1572864000	41	4060
2026-01-16 15:15:46.16	224.13	29.34	-35.4	-36.6	22.2	0.00e+00	0	40	0	1580204032	41	4091
2026-01-16 15:15:47.17	224.40	29.46	-35.4	-36.6	22.2	0.00e+00	0	40	0	1587544064	41	4081
2026-01-16 15:15:48.17	224.66	29.57	-35.4	-36.6	22.2	0.00e+00	0	40	0	1594884096	41	4084
2026-01-16 15:15:49.17	224.93	29.69	-35.5	-36.8	22.1	0.00e+00	0	40	0	1602224128	41	4146
2026-01-16 15:15:50.17	225.20	29.81	-35.5	-36.7	22.2	0.00e+00	0	40	0	1609564160	41	4132
2026-01-16 15:15:51.17	225.48	29.92	-35.5	-36.7	22.1	0.00e+00	0	40	0	1615855616	41	4141
2026-01-16 15:15:52.17	225.75	30.04	-35.5	-36.7	22.2	0.00e+00	0	40	0	1623195648	41	4132
2026-01-16 15:15:53.17	226.03	30.15	-35.6	-36.9	22.0	0.00e+00	0	40	0	1630535680	41	4216
2026-01-16 15:15:54.17	226.30	30.27	-35.5	-36.8	22.1	0.00e+00	0	40	0	1637875712	41	4166
2026-01-16 15:15:55.17	226.58	30.38	-35.4	-36.7	22.1	0.00e+00	0	40	0	1645215744	41	4127
2026-01-16 15:15:56.17	226.87	30.50	-35.6	-36.9	22.0	0.00e+00	0	40	0	1652555776	41	4195
2026-01-16 15:15:57.17	227.15	30.61	-35.5	-36.8	22.0	0.00e+00	0	40	0	1659895808	41	4185
2026-01-16 15:15:58.17	227.44	30.73	-35.5	-36.8	22.0	0.00e+00	0	40	0	1667235840	41	4166
2026-01-16 15:15:59.17	227.72	30.84	-35.6	-37.0	21.9	0.00e+00	0	40	0	1674575872	41	4260
2026-01-16 15:16:00.17	228.01	30.95	-35.5	-36.8	22.0	0.00e+00	0	40	0	1681915904	41	4179
2026-01-16 15:16:01.18	228.31	31.07	-35.6	-37.0	21.9	0.00e+00	0	40	0	1689255936	41	4248
2026-01-16 15:16:02.18	228.60	31.18	-35.8	-37.2	21.7	0.00e+00	0	40	0	1695547392	41	4347
2026-01-16 15:16:03.18	228.90	31.29	-35.6	-36.9	21.8	0.00e+00	0	40	0	1702887424	41	4234
2026-01-16 15:16:04.18	229.20	31.41	-35.5	-36.8	21.9	0.00e+00	0	40	0	1710227456	41	4190
2026-01-16 15:16:05.18	229.50	31.52	-35.7	-37.0	21.8	0.00e+00	0	40	0	1717567488	41	4256
2026-01-16 15:16:06.18	229.80	31.63	-35.5	-36.9	21.9	0.00e+00	0	40	0	1724907520	41	4207
2026-01-16 15:16:07.18	230.10	31.74	-35.5	-36.9	21.9	0.00e+00	0	40	0	1732247552	41	4194
2026-01-16 15:16:08.18	230.41	31.85	-35.5	-36.8	21.9	0.00e+00	0	40	0	1739587584	41	4191
2026-01-16 15:16:09.18	230.72	31.96	-35.5	-36.8	21.9	0.00e+00	0	40	0	1746927616	41	4160
2026-01-16 15:16:10.18	231.03	32.07	-35.5	-36.8	21.9	0.00e+00	0	40	0	1754267648	41	4182
2026-01-16 15:16:11.19	231.34	32.18	-35.4	-36.7	22.0	0.00e+00	0	40	0	1760559104	41	4125
2026-01-16 15:16:12.19	231.66	32.29	-35.5	-36.7	22.1	0.00e+00	0	40	0	1767899136	41	4135
2026-01-16 15:16:13.19	231.98	32.40	-35.4	-36.7	22.1	0.00e+00	0	40	0	1775239168	41	4112
2026-01-16 15:16:14.19	232.29	32.50	-35.4	-36.7	22.1	0.00e+00	0	40	0	1782579200	41	4114
2026-01-16 15:16:15.19	232.62	32.61	-35.3	-36.6	22.2	0.00e+00	0	40	0	1789919232	41	4059
2026-01-16 15:16:16.19	232.94	32.72	-35.3	-36.6	22.2	0.00e+00	0	40	0	1797259264	41	4064
2026-01-16 15:16:17.19	233.26	32.82	-35.2	-36.5	22.3	0.00e+00	0	40	0	1804599296	41	4017
2026-01-16 15:16:18.19	233.59	32.93	-35.4	-36.7	22.1	0.00e+00	0	40	0	1811939328	41	4135
2026-01-16 15:16:19.20	233.92	33.03	-35.5	-36.8	22.1	0.00e+00	0	40	0	1819279360	41	4154
2026-01-16 15:16:20.20	234.25	33.13	-35.4	-36.7	22.1	0.00e+00	0	40	0	1825570816	41	4115
2026-01-16 15:16:21.20	234.59	33.24	-35.5	-36.8	22.1	0.00e+00	0	40	0	1832910848	41	4155
2026-01-16 15:16:22.20	234.92	33.34	-35.4	-36.7	22.1	0.00e+00	0	40	0	1840250880	41	4134
2026-01-16 15:16:23.20	235.26	33.44	-35.2	-36.5	22.2	0.00e+00	0	40	0	1847590912	41	4032
2026-01-16 15:16:24.20	235.60	33.54	-35.4	-36.7	22.1	0.00e+00	0	40	0	1854930944	41	4111
2026-01-16 15:16:25.20	235.94	33.64	-35.4	-36.8	22.0	0.00e+00	0	40	0	1862270976	41	4150
2026-01-16 15:16:26.20	236.28	33.74	-35.4	-36.7	22.1	0.00e+00	0	40	0	1869611008	41	4107
2026-01-16 15:16:27.20	236.63	33.84	-35.5	-36.8	22.0	0.00e+00	0	40	0	1876951040	41	4174
2026-01-16 15:16:28.21	236.98	33.94	-35.4	-36.7	22.1	0.00e+00	0	40	0	1883242496	41	4122
2026-01-16 15:16:29.21	237.33	34.03	-35.4	-36.7	22.1	0.00e+00	0	40	0	1890582528	41	4117
2026-01-16 15:16:30.21	237.68	34.13	-35.5	-36.7	22.1	0.00e+00	0	40	0	1897922560	41	4135
2026-01-16 15:16:31.21	238.03	34.22	-35.4	-36.6	22.2	0.00e+00	0	40	0	1905262592	41	4090
2026-01-16 15:16:32.21	238.39	34.32	-35.4	-36.6	22.2	0.00e+00	0	40	0	1912602624	41	4097
2026-01-16 15:16:33.21	238.75	34.41	-35.6	-36.8	22.0	0.00e+00	0	40	0	1919942656	41	4187
2026-01-16 15:16:34.21	239.11	34.50	-35.6	-36.9	21.9	0.00e+00	0	40	0	1927282688	41	4232
2026-01-16 15:16:35.21	239.47	34.59	-35.7	-36.9	21.9	0.00e+00	0	40	0	1934622720	41	4242
2026-01-16 15:16:36.22	239.83	34.68	-35.6	-36.9	22.0	0.00e+00	0	40	0	1941962752	41	4231
2026-01-16 15:16:37.22	240.20	34.77	-35.5	-36.8	22.1	0.00e+00	0	40	0	1948254208	41	4161
2026-01-16 15:16:38.22	240.57	34.86	-35.3	-36.5	22.3	0.00e+00	0	40	0	1955594240	41	4038
2026-01-16 15:16:39.22	240.94	34.94	-35.2	-36.4	22.4	0.00e+00	0	40	0	1962934272	41	3988
2026-01-16 15:16:40.22	241.31	35.03	-35.3	-36.5	22.3	0.00e+00	0	40	0	1970274304	41	4046
2026-01-16 15:16:41.22	241.68	35.11	-35.3	-36.6	22.3	0.00e+00	0	40	0	1977614336	41	4052
2026-01-16 15:16:42.22	242.06	35.20	-35.5	-36.7	22.2	0.00e+00	0	40	0	1984954368	41	4143
2026-01-16 15:16:43.22	242.43	35.28	-35.5	-36.8	22.1	0.00e+00	0	40	0	1992294400	41	4157
2026-01-16 15:16:44.22	242.81	35.36	-35.4	-36.6	22.3	0.00e+00	0	40	0	1999634432	41	4090
2026-01-16 15:16:45.22	243.19	35.44	-35.5	-36.7	22.1	0.00e+00	0	40	0	2005925888	41	4142
2026-01-16 15:16:46.22	243.58	35.52	-35.5	-36.8	22.0	0.00e+00	0	40	0	2013265920	41	4183
2026-01-16 15:16:47.22	243.96	35.60	-35.6	-36.9	22.0	0.00e+00	0	40	0	2021654528	41	4203
2026-01-16 15:16:48.22	244.35	35.67	-35.4	-36.6	22.2	0.00e+00	0	40	0	2028994560	41	4095
2026-01-16 15:16:49.22	244.73	35.75	-35.1	-36.4	22.4	0.00e+00	0	40	0	2035286016	40	4209
2026-01-16 15:16:50.22	245.12	35.82	-35.2	-36.4	22.4	0.00e+00	0	40	0	2042626048	40	4216
2026-01-16 15:16:51.22	245.52	35.89	-35.2	-36.5	22.3	0.00e+00	0	40	0	2049966080	40	4243
2026-01-16 15:16:52.22	245.91	35.97	-35.3	-36.6	22.3	0.00e+00	0	40	0	2057306112	40	4292
2026-01-16 15:16:53.23	246.31	36.04	-35.4	-36.6	22.2	0.00e+00	0	40	0	2064646144	40	4325
2026-01-16 15:16:54.23	246.70	36.10	-35.4	-36.6	22.3	0.00e+00	0	40	0	2071986176	40	4333
2026-01-16 15:16:55.23	247.10	36.17	-35.3	-36.5	22.3	0.00e+00	0	40	0	2079326208	40	4272
2026-01-16 15:16:56.23	247.50	36.24	-35.3	-36.5	22.4	0.00e+00	0	40	0	2086666240	40	4276
2026-01-16 15:16:57.23	247.90	36.30	-35.2	-36.4	22.5	0.00e+00	0	40	0	2092957696	40	4227
2026-01-16 15:16:58.23	248.31	36.36	-35.3	-36.5	22.5	0.00e+00	0	40	0	2100297728	40	4254
2026-01-16 15:16:59.24	248.71	36.43	-35.1	-36.3	22.6	0.00e+00	0	40	0	2107637760	40	4157
2026-01-16 15:17:00.24	249.12	36.49	-35.2	-36.4	22.5	0.00e+00	0	40	0	2114977792	40	4204
2026-01-16 15:17:01.24	249.53	36.54	-35.1	-36.3	22.6	0.00e+00	0	40	0	2122317824	40	4166
2026-01-16 15:17:02.24	249.93	36.60	-35.1	-36.3	22.6	0.00e+00	0	40	0	2129657856	40	4186
2026-01-16 15:17:03.24	250.34	36.66	-35.2	-36.4	22.5	0.00e+00	0	40	0	2136997888	40	4236
2026-01-16 15:17:04.24	250.76	36.71	-35.2	-36.5	22.4	0.00e+00	0	40	0	2144337920	40	4250
2026-01-16 15:17:05.25	251.17	36.76	-35.4	-36.7	22.2	0.00e+00	0	40	0	2151677952	40	4383
2026-01-16 15:17:06.25	251.59	36.81	-35.5	-36.8	22.1	0.00e+00	0	40	0	2157969408	40	4418
2026-01-16 15:17:07.25	252.00	36.86	-35.7	-37.0	21.9	0.00e+00	0	40	0	2165309440	40	4502
2026-01-16 15:17:08.25	252.42	36.91	-35.7	-37.0	21.9	0.00e+00	0	40	0	2172649472	40	4537
2026-01-16 15:17:09.25	252.84	36.96	-35.6	-36.9	22.0	0.00e+00	0	40	0	2179989504	40	4450
2026-01-16 15:17:10.25	253.25	37.00	-35.5	-36.7	22.2	0.00e+00	0	40	0	2187329536	40	4376
2026-01-16 15:17:11.26	253.68	37.04	-35.4	-36.6	22.3	0.00e+00	0	40	0	2194669568	40	4316
2026-01-16 15:17:12.25	254.09	37.08	-35.5	-36.7	22.2	0.00e+00	0	40	0	2202009600	40	4378
2026-01-16 15:17:13.26	254.52	37.12	-35.4	-36.7	22.2	0.00e+00	0	40	0	2209349632	40	4356
2026-01-16 15:17:14.26	254.94	37.16	-35.5	-36.8	22.2	0.00e+00	0	40	0	2215641088	40	4400
2026-01-16 15:17:15.26	255.37	37.20	-35.4	-36.6	22.3	0.00e+00	0	40	0	2222981120	40	4335
2026-01-16 15:17:16.26	255.79	37.23	-35.4	-36.6	22.4	0.00e+00	0	40	0	2230321152	40	4307
2026-01-16 15:17:17.26	256.22	37.26	-35.3	-36.5	22.5	0.00e+00	0	40	0	2237661184	40	4255
2026-01-16 15:17:18.26	256.64	37.30	-35.2	-36.4	22.5	0.00e+00	0	40	0	2245001216	40	4221
2026-01-16 15:17:19.27	257.07	37.32	-35.2	-36.4	22.5	0.00e+00	0	40	0	2252341248	40	4214
2026-01-16 15:17:20.27	257.50	37.35	-35.2	-36.4	22.5	0.00e+00	0	40	0	2259681280	40	4225
2026-01-16 15:17:21.27	257.93	37.38	-35.5	-36.3	23.2	0.00e+00	0	40	0	2267021312	40	4193
2026-01-16 15:17:22.27	258.36	37.40	-35.6	-36.5	23.2	0.00e+00	0	40	0	2274361344	40	4253
2026-01-16 15:17:23.27	258.79	37.42	-35.7	-36.5	23.0	0.00e+00	0	40	0	2281701376	40	4284
2026-01-16 15:17:24.27	259.22	37.44	-35.7	-36.5	23.1	0.00e+00	0	40	0	2287992832	40	4275
2026-01-16 15:17:25.27	259.65	37.46	-35.7	-36.5	23.1	0.00e+00	0	40	0	2295332864	40	4281
2026-01-16 15:17:26.28	260.09	37.48	-35.5	-36.4	23.1	0.00e+00	0	40	0	2302672896	40	4198
2026-01-16 15:17:27.27	260.51	37.49	-35.3	-36.1	23.4	0.00e+00	0	40	0	2310012928	40	4089
2026-01-16 15:17:28.28	260.95	37.51	-35.2	-36.0	23.5	0.00e+00	0	40	0	2317352960	40	4048
2026-01-16 15:17:29.28	261.38	37.52	-35.3	-36.1	23.4	0.00e+00	0	40	0	2324692992	40	4083
2026-01-16 15:17:30.28	261.81	37.53	-35.5	-36.3	23.3	0.00e+00	0	40	0	2332033024	40	4161
2026-01-16 15:17:31.28	262.25	37.54	-35.5	-36.4	23.2	0.00e+00	0	40	0	2339373056	40	4197
2026-01-16 15:17:32.28	262.68	37.54	-35.4	-36.3	23.3	0.00e+00	0	40	0	2346713088	40	4152
2026-01-16 15:17:33.28	263.11	37.55	-35.3	-36.1	23.4	0.00e+00	0	40	0	2354053120	40	4094
2026-01-16 15:17:34.27	263.54	37.55	-35.4	-36.2	23.4	0.00e+00	0	40	0	2361393152	40	4110
2026-01-16 15:17:35.27	263.97	37.55	-35.4	-36.2	23.3	0.00e+00	0	40	0	2367684608	40	4137
2026-01-16 15:17:36.27	264.41	37.55	-35.6	-36.4	23.2	0.00e+00	0	40	0	2375024640	40	4197
2026-01-16 15:17:37.27	264.84	37.55	-35.7	-36.5	23.1	0.00e+00	0	40	0	2382364672	40	4258
2026-01-16 15:17:38.27	265.27	37.54	-35.6	-36.4	23.2	0.00e+00	0	40	0	2389704704	41	4001
2026-01-16 15:17:39.27	265.71	37.54	-35.8	-36.6	22.7	0.00e+00	0	40	0	2397044736	42	3843
2026-01-16 15:17:40.27	266.14	37.53	-35.6	-36.4	23.2	0.00e+00	0	40	0	2404384768	42	3780
2026-01-16 15:17:41.27	266.57	37.52	-35.5	-36.3	23.2	0.00e+00	0	40	0	2411724800	41	3953
2026-01-16 15:17:42.28	267.01	37.50	-35.5	-36.3	23.2	0.00e+00	0	40	0	2419064832	41	3942
2026-01-16 15:17:43.28	267.44	37.49	-35.6	-36.4	23.2	0.00e+00	0	40	0	2425356288	41	3992
2026-01-16 15:17:44.28	267.87	37.48	-35.6	-36.5	23.1	0.00e+00	0	40	0	2432696320	41	4006
2026-01-16 15:17:45.28	268.30	37.46	-35.5	-36.3	23.2	0.00e+00	0	40	0	2440036352	41	3947
2026-01-16 15:17:46.28	268.73	37.44	-35.4	-36.2	23.3	0.00e+00	0	40	0	2447376384	41	3902
2026-01-16 15:17:47.29	269.17	37.42	-35.4	-36.2	23.4	0.00e+00	0	40	0	2454716416	41	3883
2026-01-16 15:17:48.28	269.59	37.40	-35.4	-36.2	23.3	0.00e+00	0	40	0	2462056448	41	3911
2026-01-16 15:17:49.29	270.02	37.37	-35.5	-36.4	23.2	0.00e+00	0	40	0	2469396480	41	3963
2026-01-16 15:17:50.29	270.45	37.34	-35.7	-36.5	23.0	0.00e+00	0	40	0	2476736512	41	4044
2026-01-16 15:17:51.29	270.88	37.32	-35.6	-36.4	23.2	0.00e+00	0	40	0	2484076544	41	3997
2026-01-16 15:17:52.29	271.31	37.29	-35.5	-36.3	23.2	0.00e+00	0	40	0	2490368000	41	3944
2026-01-16 15:17:53.29	271.73	37.26	-35.5	-36.2	23.3	0.00e+00	0	40	0	2497708032	41	3912
2026-01-16 15:17:54.29	272.16	37.22	-35.5	-36.3	23.3	0.00e+00	0	40	0	2505048064	41	3915
2026-01-16 15:17:55.30	272.58	37.19	-35.4	-36.1	23.4	0.00e+00	0	40	0	2512388096	41	3862
2026-01-16 15:17:56.30	273.01	37.15	-35.6	-36.4	23.2	0.00e+00	0	40	0	2519728128	41	3974
2026-01-16 15:17:57.30	273.43	37.11	-35.8	-36.6	23.0	0.00e+00	0	40	0	2527068160	41	4070
2026-01-16 15:17:58.30	273.85	37.07	-35.9	-36.7	22.9	0.00e+00	0	40	0	2534408192	41	4133
2026-01-16 15:17:59.30	274.27	37.03	-35.9	-36.7	22.9	0.00e+00	0	40	0	2541748224	41	4129
2026-01-16 15:18:00.30	274.69	36.99	-35.8	-36.6	23.0	0.00e+00	0	40	0	2549088256	41	4074
2026-01-16 15:18:01.30	275.11	36.95	-35.7	-36.5	23.1	0.00e+00	0	40	0	2555379712	41	4027
2026-01-16 15:18:02.30	275.52	36.90	-35.6	-36.4	23.2	0.00e+00	0	40	0	2562719744	41	3985
2026-01-16 15:18:03.30	275.94	36.85	-35.5	-36.4	23.2	0.00e+00	0	40	0	2570059776	41	3960
2026-01-16 15:18:04.30	276.35	36.80	-35.5	-36.3	23.2	0.00e+00	0	40	0	2577399808	41	3955
2026-01-16 15:18:05.31	276.77	36.75	-35.7	-36.5	23.1	0.00e+00	0	40	0	2584739840	41	4047
2026-01-16 15:18:06.31	277.18	36.70	-35.6	-36.4	23.2	0.00e+00	0	40	0	2592079872	41	3991
2026-01-16 15:18:07.31	277.59	36.64	-35.8	-36.6	23.0	0.00e+00	0	40	0	2599419904	41	4079
2026-01-16 15:18:08.31	278.00	36.59	-36.0	-36.8	22.8	0.00e+00	0	40	0	2606759936	41	4185
2026-01-16 15:18:09.31	278.41	36.53	-35.9	-36.7	22.9	0.00e+00	0	41	0	2614099968	41	4124
2026-01-16 15:18:10.31	278.81	36.47	-35.9	-36.8	22.9	0.00e+00	0	40	0	2621440000	41	4151
2026-01-16 15:18:11.32	279.22	36.41	-36.1	-36.9	22.7	0.00e+00	0	40	0	2628780032	41	4235
2026-01-16 15:18:12.32	279.63	36.35	-35.8	-36.6	23.0	0.00e+00	0	40	0	2635071488	41	4087
2026-01-16 15:18:13.32	280.03	36.29	-35.8	-36.6	23.0	0.00e+00	0	40	0	2642411520	41	4086
2026-01-16 15:18:14.32	280.43	36.22	-35.8	-36.6	23.0	0.00e+00	0	40	0	2649751552	41	4069
2026-01-16 15:18:15.32	280.83	36.16	-35.9	-36.7	22.9	0.00e+00	0	40	0	2657091584	41	4145
2026-01-16 15:18:16.32	281.22	36.09	-35.9	-36.7	22.9	0.00e+00	0	40	0	2664431616	41	4144
2026-01-16 15:18:17.32	281.62	36.02	-35.9	-36.7	22.9	0.00e+00	0	40	0	2671771648	41	4138
2026-01-16 15:18:18.32	282.01	35.95	-36.1	-36.9	22.8	0.00e+00	0	40	0	2679111680	41	4210
2026-01-16 15:18:19.32	282.40	35.88	-35.9	-36.7	23.0	0.00e+00	0	40	0	2686451712	41	4112
2026-01-16 15:18:20.32	282.79	35.81	-36.0	-36.8	22.9	0.00e+00	0	40	0	2693791744	41	4166
2026-01-16 15:18:21.32	283.18	35.73	-35.9	-36.7	22.9	0.00e+00	0	40	0	2700083200	41	4136
2026-01-16 15:18:22.32	283.57	35.66	-36.0	-36.8	22.8	0.00e+00	0	40	0	2707423232	41	4185
2026-01-16 15:18:23.32	283.95	35.58	-35.9	-36.7	22.9	0.00e+00	0	40	0	2714763264	41	4144
2026-01-16 15:18:24.32	284.34	35.51	-35.8	-36.6	23.0	0.00e+00	0	40	0	2722103296	41	4095
2026-01-16 15:18:25.32	284.72	35.43	-35.9	-36.7	22.9	0.00e+00	0	40	0	2729443328	41	4139
2026-01-16 15:18:26.32	285.10	35.35	-36.1	-36.9	22.8	0.00e+00	0	40	0	2736783360	41	4206
2026-01-16 15:18:27.32	285.47	35.27	-35.8	-36.6	23.0	0.00e+00	0	40	0	2744123392	41	4088
2026-01-16 15:18:28.32	285.85	35.18	-35.8	-36.6	23.0	0.00e+00	0	41	0	2751463424	41	4093
2026-01-16 15:18:29.33	286.23	35.10	-35.9	-36.7	23.0	0.00e+00	0	41	0	2757754880	41	4131
2026-01-16 15:18:30.33	286.60	35.02	-35.9	-36.7	22.9	0.00e+00	0	40	0	2765094912	41	4136
2026-01-16 15:18:31.33	286.97	34.93	-35.9	-36.7	23.0	0.00e+00	0	40	0	2772434944	41	4110
2026-01-16 15:18:32.33	287.34	34.84	-35.9	-36.7	22.9	0.00e+00	0	40	0	2779774976	41	4118
2026-01-16 15:18:33.33	287.70	34.76	-35.9	-36.7	23.0	0.00e+00	0	40	0	2787115008	41	4124
2026-01-16 15:18:34.33	288.07	34.67	-35.9	-36.7	22.6	0.00e+00	0	40	0	2794455040	41	4124
2026-01-16 15:18:35.33	288.43	34.58	-35.7	-36.5	23.1	0.00e+00	0	40	0	2801795072	41	4043
2026-01-16 15:18:36.33	288.79	34.49	-35.5	-36.4	23.2	0.00e+00	0	40	0	2809135104	41	3960
2026-01-16 15:18:37.33	289.15	34.40	-35.5	-36.3	23.3	0.00e+00	0	40	0	2816475136	41	3951
2026-01-16 15:18:38.33	289.50	34.30	-35.6	-36.4	23.2	0.00e+00	0	40	0	2822766592	41	3988
2026-01-16 15:18:39.33	289.86	34.21	-35.7	-36.5	23.1	0.00e+00	0	40	0	2830106624	41	4043
2026-01-16 15:18:40.33	290.21	34.11	-35.8	-36.6	23.1	0.00e+00	0	41	0	2837446656	41	4067
2026-01-16 15:18:41.34	290.56	34.02	-35.8	-36.6	23.0	0.00e+00	0	40	0	2844786688	41	4088
2026-01-16 15:18:42.34	290.91	33.92	-35.8	-36.6	23.0	0.00e+00	0	40	0	2852126720	41	4091
2026-01-16 15:18:43.34	291.26	33.83	-35.9	-36.8	22.9	0.00e+00	0	40	0	2859466752	41	4149
2026-01-16 15:18:44.34	291.60	33.73	-36.0	-36.8	22.8	0.00e+00	0	40	0	2866806784	41	4166
2026-01-16 15:18:45.34	291.94	33.63	-35.9	-36.7	22.9	0.00e+00	0	40	0	2874146816	41	4131
2026-01-16 15:18:46.34	292.28	33.53	-36.1	-36.9	22.7	0.00e+00	0	40	0	2881486848	41	4217
2026-01-16 15:18:47.35	292.63	33.43	-36.1	-36.9	22.7	0.00e+00	0	40	0	2887778304	41	4232
2026-01-16 15:18:48.35	292.96	33.33	-36.2	-37.0	22.7	0.00e+00	0	40	0	2895118336	41	4266
2026-01-16 15:18:49.35	293.30	33.23	-36.0	-36.8	22.8	0.00e+00	0	40	0	2903506944	41	4182
2026-01-16 15:18:50.36	293.63	33.12	-35.9	-36.8	22.8	0.00e+00	0	40	0	2909798400	41	4151
2026-01-16 15:18:51.36	293.96	33.02	-36.2	-37.0	22.7	0.00e+00	0	40	0	2917138432	41	4273
2026-01-16 15:18:52.36	294.29	32.92	-36.1	-37.0	22.6	0.00e+00	0	40	0	2924478464	41	4260
2026-01-16 15:18:53.36	294.61	32.81	-36.1	-37.0	22.7	0.00e+00	0	40	0	2931818496	41	4250
2026-01-16 15:18:54.37	294.94	32.71	-36.2	-37.0	22.7	0.00e+00	0	40	0	2939158528	41	4266
2026-01-16 15:18:55.37	295.26	32.60	-36.2	-37.1	22.2	0.00e+00	0	40	0	2946498560	41	4308
2026-01-16 15:18:56.37	295.58	32.49	-36.1	-37.0	22.7	0.00e+00	0	40	0	2953838592	41	4262
2026-01-16 15:18:57.37	295.90	32.39	-36.1	-37.0	22.7	0.00e+00	0	40	0	2961178624	41	4251
2026-01-16 15:18:58.37	296.21	32.28	-36.0	-36.9	22.8	0.00e+00	0	40	0	2967470080	41	4202
2026-01-16 15:18:59.37	296.52	32.17	-36.0	-36.8	22.9	0.00e+00	0	40	0	2974810112	41	4175
2026-01-16 15:19:00.37	296.84	32.06	-36.0	-36.8	22.8	0.00e+00	0	40	0	2982150144	41	4170
2026-01-16 15:19:01.37	297.14	31.96	-35.9	-36.7	22.9	0.00e+00	0	40	0	2989490176	41	4109
2026-01-16 15:19:02.37	297.45	31.85	-35.9	-36.7	22.9	0.00e+00	0	40	0	2996830208	41	4130
2026-01-16 15:19:03.37	297.76	31.74	-35.9	-36.7	22.9	0.00e+00	0	41	0	3004170240	41	4123
2026-01-16 15:19:04.37	298.06	31.63	-35.8	-36.6	23.0	0.00e+00	0	40	0	3011510272	41	4079
2026-01-16 15:19:05.38	298.36	31.51	-35.8	-36.6	23.0	0.00e+00	0	40	0	3018850304	41	4065
2026-01-16 15:19:06.38	298.66	31.40	-35.8	-36.6	22.8	0.00e+00	0	40	0	3026190336	41	4073
2026-01-16 15:19:07.38	298.96	31.29	-36.0	-36.8	22.8	0.00e+00	0	40	0	3032481792	41	4174
2026-01-16 15:19:08.39	299.26	31.18	-36.0	-36.8	22.9	0.00e+00	0	40	0	3039821824	41	4166
2026-01-16 15:19:09.39	299.55	31.07	-36.1	-36.9	22.7	0.00e+00	0	40	0	3047161856	41	4226
2026-01-16 15:19:10.39	299.84	30.95	-36.2	-37.0	22.6	0.00e+00	0	40	0	3054501888	41	4272
2026-01-16 15:19:11.39	300.13	30.84	-36.4	-37.2	22.4	0.00e+00	0	40	0	3061841920	42	4137
2026-01-16 15:19:12.39	300.42	30.73	-36.4	-37.3	22.5	0.00e+00	0	40	0	3069181952	42	4149
2026-01-16 15:19:13.39	300.70	30.61	-36.4	-37.3	22.5	0.00e+00	0	41	0	3076521984	42	4175
2026-01-16 15:19:14.39	300.98	30.50	-36.4	-37.3	22.4	0.00e+00	0	40	0	3083862016	42	4174
2026-01-16 15:19:15.39	301.26	30.39	-36.3	-37.2	22.5	0.00e+00	0	40	0	3091202048	42	4112
2026-01-16 15:19:16.39	301.54	30.27	-36.1	-36.9	22.7	0.00e+00	0	40	0	3097493504	42	3987
2026-01-16 15:19:17.39	301.82	30.16	-36.0	-36.8	22.8	0.00e+00	0	40	0	3104833536	42	3945
2026-01-16 15:19:18.40	302.10	30.04	-35.9	-36.8	22.9	0.00e+00	0	40	0	3112173568	42	3922
2026-01-16 15:19:19.40	302.37	29.92	-35.8	-36.6	23.0	0.00e+00	0	40	0	3119513600	42	3836
2026-01-16 15:19:20.40	302.64	29.81	-35.7	-36.5	23.1	0.00e+00	0	41	0	3126853632	42	3813
2026-01-16 15:19:21.40	302.91	29.69	-35.7	-36.5	23.1	0.00e+00	0	41	0	3134193664	42	3813
2026-01-16 15:19:22.40	303.18	29.58	-35.8	-36.6	23.0	0.00e+00	0	41	0	3141533696	42	3865
2026-01-16 15:19:23.40	303.44	29.46	-35.9	-36.8	22.9	0.00e+00	0	40	0	3148873728	42	3918
2026-01-16 15:19:24.40	303.71	29.34	-36.0	-36.9	22.8	0.00e+00	0	41	0	3155165184	42	3969
2026-01-16 15:19:25.41	303.97	29.23	-36.3	-37.1	22.6	0.00e+00	0	40	0	3163553792	42	4083
2026-01-16 15:19:26.41	304.23	29.11	-36.4	-37.3	22.4	0.00e+00	0	41	0	3170893824	42	4147
2026-01-16 15:19:27.41	304.49	28.99	-36.4	-37.3	22.4	0.00e+00	0	40	0	3177185280	42	4158
2026-01-16 15:19:28.41	304.74	28.88	-36.5	-37.4	22.3	0.00e+00	0	40	0	3184525312	42	4212
2026-01-16 15:19:29.41	305.00	28.76	-36.5	-37.4	22.3	0.00e+00	0	40	0	3191865344	42	4230
2026-01-16 15:19:30.41	305.25	28.64	-36.3	-37.2	22.5	0.00e+00	0	41	0	3199205376	42	4124
2026-01-16 15:19:31.41	305.50	28.53	-36.2	-37.0	22.6	0.00e+00	0	41	0	3206545408	42	4033
2026-01-16 15:19:32.41	305.75	28.41	-36.2	-37.0	22.6	0.00e+00	0	41	0	3213885440	42	4041
2026-01-16 15:19:33.41	306.00	28.29	-36.0	-36.8	22.9	0.00e+00	0	40	0	3221225472	42	3923
2026-01-16 15:19:34.41	306.24	28.17	-36.0	-36.8	22.7	0.00e+00	0	41	0	3228565504	42	3937
2026-01-16 15:19:35.41	306.49	28.06	-35.9	-36.7	22.9	0.00e+00	0	40	0	3235905536	42	3912
2026-01-16 15:19:36.41	306.73	27.94	-35.9	-36.7	22.9	0.00e+00	0	40	0	3242196992	42	3903
2026-01-16 15:19:37.41	306.97	27.82	-36.1	-36.9	22.7	0.00e+00	0	40	0	3249537024	42	3976
2026-01-16 15:19:38.41	307.21	27.70	-36.2	-37.0	22.7	0.00e+00	0	40	0	3256877056	42	4026
2026-01-16 15:19:39.41	307.44	27.59	-36.2	-37.1	22.6	0.00e+00	0	40	0	3264217088	42	4062
2026-01-16 15:19:40.42	307.68	27.47	-36.3	-37.2	22.5	0.00e+00	0	40	0	3271557120	42	4119
2026-01-16 15:19:41.42	307.91	27.35	-36.4	-37.2	22.4	0.00e+00	0	41	0	3278897152	42	4141
2026-01-16 15:19:42.42	308.15	27.23	-36.4	-37.3	22.4	0.00e+00	0	41	0	3286237184	42	4146
2026-01-16 15:19:43.42	308.37	27.12	-36.4	-37.2	22.5	0.00e+00	0	41	0	3293577216	42	4125
2026-01-16 15:19:44.42	308.60	27.00	-36.4	-37.2	22.4	0.00e+00	0	41	0	3299868672	42	4134
2026-01-16 15:19:45.42	308.83	26.88	-36.3	-37.2	22.5	0.00e+00	0	41	0	3307208704	42	4104
2026-01-16 15:19:46.43	309.06	26.76	-36.3	-37.1	22.5	0.00e+00	0	41	0	3314548736	42	4095
2026-01-16 15:19:47.43	309.28	26.65	-36.3	-37.2	22.5	0.00e+00	0	41	0	3321888768	42	4106
2026-01-16 15:19:48.43	309.50	26.53	-36.2	-37.0	22.6	0.00e+00	0	41	0	3329228800	42	4016
2026-01-16 15:19:49.44	309.72	26.41	-36.0	-36.9	22.8	0.00e+00	0	40	0	3336568832	42	3967
2026-01-16 15:19:50.44	309.94	26.29	-36.1	-36.9	22.7	0.00e+00	0	41	0	3343908864	42	3983
2026-01-16 15:19:51.44	310.16	26.18	-36.0	-36.8	22.7	0.00e+00	0	41	0	3351248896	42	3954
2026-01-16 15:19:52.44	310.37	26.06	-36.0	-36.8	22.8	0.00e+00	0	40	0	3358588928	42	3934
2026-01-16 15:19:53.45	310.59	25.94	-36.0	-36.9	22.8	0.00e+00	0	41	0	3364880384	42	3968
2026-01-16 15:19:54.45	310.80	25.83	-36.1	-36.9	22.7	0.00e+00	0	40	0	3372220416	42	4001
2026-01-16 15:19:55.45	311.01	25.71	-36.1	-37.0	22.7	0.00e+00	0	41	0	3379560448	42	4009
2026-01-16 15:19:56.45	311.22	25.59	-36.2	-37.0	22.6	0.00e+00	0	41	0	3386900480	42	4045
2026-01-16 15:19:57.45	311.43	25.48	-36.4	-37.3	22.4	0.00e+00	0	41	0	3394240512	42	4153
2026-01-16 15:19:58.45	311.64	25.36	-36.4	-37.3	22.4	0.00e+00	0	41	0	3401580544	42	4151
2026-01-16 15:19:59.45	311.84	25.24	-36.4	-37.3	22.3	0.00e+00	0	41	0	3408920576	42	4178
2026-01-16 15:20:00.45	312.04	25.13	-36.5	-37.3	22.3	0.00e+00	0	41	0	3416260608	42	4183
2026-01-16 15:20:01.45	312.25	25.01	-36.4	-37.3	22.4	0.00e+00	0	41	0	3423600640	42	4169
2026-01-16 15:20:02.45	312.45	24.90	-36.4	-37.3	22.3	0.00e+00	0	40	0	3429892096	42	4176
2026-01-16 15:20:03.45	312.65	24.78	-36.4	-37.3	22.4	0.00e+00	0	40	0	3437232128	42	4168
2026-01-16 15:20:04.45	312.84	24.67	-36.3	-37.2	22.5	0.00e+00	0	40	0	3445620736	42	4126
2026-01-16 15:20:05.46	313.04	24.55	-36.4	-37.2	22.4	0.00e+00	0	41	0	3451912192	42	4143
2026-01-16 15:20:06.46	313.24	24.43	-36.3	-37.2	22.5	0.00e+00	0	41	0	3459252224	42	4110
2026-01-16 15:20:07.46	313.43	24.32	-36.4	-37.2	22.5	0.00e+00	0	41	0	3466592256	42	4131
2026-01-16 15:20:08.47	313.62	24.20	-36.4	-37.3	22.3	0.00e+00	0	41	0	3473932288	42	4155
2026-01-16 15:20:09.46	313.81	24.09	-36.4	-37.3	22.4	0.00e+00	0	40	0	3481272320	42	4146
2026-01-16 15:20:10.47	314.00	23.97	-36.5	-37.3	22.4	0.00e+00	0	41	0	3488612352	42	4172
2026-01-16 15:20:11.47	314.19	23.86	-36.6	-37.4	22.3	0.00e+00	0	41	0	3495952384	42	4224
2026-01-16 15:20:12.47	314.38	23.75	-36.6	-37.5	22.2	0.00e+00	0	41	0	3503292416	42	4250
2026-01-16 15:20:13.47	314.56	23.63	-36.6	-37.5	22.2	0.00e+00	0	40	0	3509583872	42	4261
2026-01-16 15:20:14.47	314.75	23.52	-36.6	-37.5	22.2	0.00e+00	0	41	0	3516923904	42	4247
2026-01-16 15:20:15.48	314.93	23.41	-36.5	-37.4	22.3	0.00e+00	0	41	0	3524263936	42	4198
2026-01-16 15:20:16.47	315.11	23.29	-36.5	-37.3	22.4	0.00e+00	0	41	0	3531603968	42	4191
2026-01-16 15:20:17.48	315.29	23.18	-36.6	-37.4	22.3	0.00e+00	0	41	0	3538944000	42	4220
2026-01-16 15:20:18.48	315.47	23.07	-36.5	-37.4	22.3	0.00e+00	0	41	0	3546284032	42	4197
2026-01-16 15:20:19.48	315.65	22.95	-36.5	-37.4	22.3	0.00e+00	0	40	0	3553624064	42	4194
2026-01-16 15:20:20.48	315.82	22.84	-36.3	-37.2	22.5	0.00e+00	0	41	0	3560964096	42	4101
2026-01-16 15:20:21.48	316.00	22.73	-36.4	-37.3	22.3	0.00e+00	0	41	0	3568304128	42	4155
2026-01-16 15:20:22.48	316.17	22.62	-36.3	-37.2	22.5	0.00e+00	0	41	0	3574595584	42	4101
2026-01-16 15:20:23.49	316.35	22.51	-36.4	-37.2	22.4	0.00e+00	0	41	0	3581935616	42	4140
2026-01-16 15:20:24.49	316.52	22.39	-36.5	-37.3	22.4	0.00e+00	0	41	0	3589275648	42	4185
2026-01-16 15:20:25.49	316.69	22.28	-36.6	-37.5	22.2	0.00e+00	0	41	0	3596615680	42	4255
2026-01-16 15:20:26.49	316.86	22.17	-36.7	-37.6	22.1	0.00e+00	0	41	0	3603955712	42	4305
2026-01-16 15:20:27.49	317.03	22.06	-36.8	-37.7	22.0	0.00e+00	0	41	0	3611295744	43	4112
2026-01-16 15:20:28.50	317.19	21.95	-37.0	-37.9	21.8	0.00e+00	0	41	0	3618635776	43	4196
2026-01-16 15:20:29.50	317.36	21.84	-37.0	-37.9	21.8	0.00e+00	0	41	0	3625975808	43	4237
2026-01-16 15:20:30.50	317.52	21.73	-37.2	-38.1	21.6	0.00e+00	0	41	0	3633315840	43	4313
2026-01-16 15:20:31.51	317.69	21.62	-37.2	-38.2	21.6	0.00e+00	0	40	0	3640655872	43	4345
2026-01-16 15:20:32.51	317.85	21.51	-37.5	-38.4	21.5	0.00e+00	0	41	0	3647995904	44	4208
2026-01-16 15:20:33.51	318.01	21.40	-37.5	-38.4	21.5	0.00e+00	0	41	0	3655335936	44	4213
2026-01-16 15:20:34.51	318.17	21.29	-37.4	-38.3	21.6	0.00e+00	0	41	0	3661627392	44	4181
2026-01-16 15:20:35.51	318.33	21.18	-37.4	-38.3	21.7	0.00e+00	0	40	0	3668967424	44	4161
2026-01-16 15:20:36.51	318.49	21.08	-37.3	-38.2	21.7	0.00e+00	0	41	0	3676307456	44	4122
2026-01-16 15:20:37.51	318.65	20.97	-37.2	-38.1	21.8	0.00e+00	0	41	0	3683647488	44	4083
2026-01-16 15:20:38.52	318.80	20.86	-37.3	-38.2	21.7	0.00e+00	0	41	0	3690987520	44	4127
2026-01-16 15:20:39.52	318.96	20.75	-37.2	-38.2	21.6	0.00e+00	0	41	0	3698327552	44	4105
2026-01-16 15:20:40.52	319.11	20.64	-37.2	-38.1	21.8	0.00e+00	0	41	0	3705667584	44	4068
2026-01-16 15:20:41.52	319.26	20.54	-37.2	-38.2	21.7	0.00e+00	0	41	0	3713007616	44	4109
2026-01-16 15:20:42.52	319.42	20.43	-37.2	-38.1	21.8	0.00e+00	0	41	0	3719299072	44	4082
2026-01-16 15:20:43.52	319.57	20.32	-37.2	-38.1	21.7	0.00e+00	0	40	0	3726639104	44	4083
2026-01-16 15:20:44.52	319.72	20.22	-37.3	-38.2	21.6	0.00e+00	0	40	0	3733979136	44	4140
2026-01-16 15:20:45.52	319.86	20.11	-37.3	-38.2	21.6	0.00e+00	0	41	0	3741319168	44	4145
2026-01-16 15:20:46.53	320.01	20.00	-37.5	-38.4	21.5	0.00e+00	0	41	0	3748659200	44	4210
2026-01-16 15:20:47.53	320.16	19.90	-37.4	-38.4	21.5	0.00e+00	0	41	0	3755999232	44	4194
2026-01-16 15:20:48.53	320.30	19.79	-37.5	-38.4	21.5	0.00e+00	0	41	0	3763339264	44	4230
2026-01-16 15:20:49.53	320.45	19.69	-37.5	-38.4	21.5	0.00e+00	0	41	0	3770679296	44	4221
2026-01-16 15:20:50.53	320.59	19.58	-37.5	-38.5	21.4	0.00e+00	0	41	0	3778019328	44	4256
2026-01-16 15:20:51.53	320.74	19.48	-37.6	-38.6	21.3	0.00e+00	0	41	0	3784310784	44	4307
2026-01-16 15:20:52.53	320.88	19.38	-37.6	-38.5	21.4	0.00e+00	0	40	0	3791650816	44	4281
2026-01-16 15:20:53.54	321.02	19.27	-37.7	-38.6	21.3	0.00e+00	0	41	0	3798990848	44	4310
2026-01-16 15:20:54.53	321.16	19.17	-37.6	-38.5	21.3	0.00e+00	0	41	0	3806330880	44	4288
2026-01-16 15:20:55.54	321.30	19.06	-37.7	-38.6	21.3	0.00e+00	0	41	0	3813670912	44	4326
2026-01-16 15:20:56.54	321.44	18.96	-37.8	-38.7	21.2	0.00e+00	0	41	0	3821010944	45	4135
2026-01-16 15:20:57.54	321.57	18.86	-37.7	-38.6	21.2	0.00e+00	0	41	0	3828350976	45	4089
2026-01-16 15:20:58.54	321.71	18.76	-37.7	-38.6	21.3	0.00e+00	0	41	0	3835691008	45	4090
2026-01-16 15:20:59.54	321.84	18.65	-37.7	-38.6	21.3	0.00e+00	0	41	0	3841982464	45	4089
2026-01-16 15:21:00.54	321.98	18.55	-37.7	-38.6	21.2	0.00e+00	0	41	0	3849322496	45	4071
2026-01-16 15:21:01.55	322.11	18.45	-37.6	-38.6	21.3	0.00e+00	0	41	0	3856662528	45	4057
2026-01-16 15:21:02.55	322.25	18.35	-37.7	-38.6	21.3	0.00e+00	0	41	0	3864002560	45	4058
2026-01-16 15:21:03.55	322.38	18.25	-37.6	-38.5	21.4	0.00e+00	0	41	0	3871342592	45	4030
2026-01-16 15:21:04.55	322.51	18.15	-37.6	-38.5	21.3	0.00e+00	0	41	0	3878682624	45	4020
2026-01-16 15:21:05.55	322.64	18.05	-37.6	-38.5	21.4	0.00e+00	0	41	0	3886022656	45	4037
2026-01-16 15:21:06.55	322.77	17.95	-37.6	-38.5	21.4	0.00e+00	0	41	0	3893362688	45	4019
2026-01-16 15:21:07.56	322.90	17.85	-37.7	-38.6	21.3	0.00e+00	0	41	0	3900702720	45	4081
2026-01-16 15:21:08.56	323.03	17.75	-37.6	-38.5	21.4	0.00e+00	0	41	0	3908042752	45	4020
2026-01-16 15:21:09.56	323.15	17.65	-37.5	-38.5	21.4	0.00e+00	0	41	0	3915382784	45	4013
2026-01-16 15:21:10.56	323.28	17.55	-37.6	-38.5	21.4	0.00e+00	0	41	0	3922722816	45	4040
2026-01-16 15:21:11.56	323.40	17.45	-37.6	-38.6	21.3	0.00e+00	0	41	0	3929014272	45	4054
2026-01-16 15:21:12.56	323.53	17.35	-37.6	-38.5	21.3	0.00e+00	0	41	0	3936354304	45	4047
2026-01-16 15:21:13.56	323.65	17.25	-37.7	-38.6	21.3	0.00e+00	0	41	0	3943694336	45	4062
2026-01-16 15:21:14.56	323.78	17.15	-37.8	-38.7	21.2	0.00e+00	0	40	0	3951034368	45	4110
2026-01-16 15:21:15.56	323.90	17.06	-37.8	-38.7	21.2	0.00e+00	0	41	0	3958374400	45	4129
2026-01-16 15:21:16.56	324.02	16.96	-37.8	-38.7	21.1	0.00e+00	0	41	0	3965714432	45	4122
2026-01-16 15:21:17.56	324.14	16.86	-37.8	-38.7	21.1	0.00e+00	0	40	0	3973054464	45	4130
2026-01-16 15:21:18.56	324.26	16.76	-37.9	-38.8	21.1	0.00e+00	0	41	0	3980394496	45	4154
2026-01-16 15:21:19.57	324.38	16.67	-38.0	-38.9	21.0	0.00e+00	0	41	0	3987734528	45	4204
2026-01-16 15:21:20.57	324.50	16.57	-38.0	-38.9	20.9	0.00e+00	0	41	0	3994025984	45	4226
2026-01-16 15:21:21.57	324.62	16.47	-38.0	-39.0	20.9	0.00e+00	0	41	0	4001366016	45	4253
2026-01-16 15:21:22.57	324.73	16.38	-38.1	-39.0	20.8	0.00e+00	0	41	0	4008706048	45	4276
2026-01-16 15:21:23.58	324.85	16.28	-38.1	-39.1	20.7	0.00e+00	0	41	0	4016046080	45	4306
2026-01-16 15:21:24.58	324.97	16.19	-38.1	-39.1	20.8	0.00e+00	0	41	0	4023386112	45	4315
2026-01-16 15:21:25.58	325.08	16.09	-38.1	-39.1	20.8	0.00e+00	0	41	0	4030726144	45	4318
2026-01-16 15:21:26.58	325.20	16.00	-38.1	-39.1	20.8	0.00e+00	0	41	0	4038066176	45	4308
2026-01-16 15:21:27.58	325.31	15.90	-38.1	-39.2	20.7	0.00e+00	0	41	0	4045406208	45	4346
2026-01-16 15:21:28.59	325.42	15.81	-38.0	-39.0	20.8	0.00e+00	0	41	0	4051697664	45	4280
2026-01-16 15:21:29.59	325.53	15.71	-38.0	-39.1	20.8	0.00e+00	0	41	0	4059037696	45	4299
2026-01-16 15:21:30.59	325.65	15.62	-38.1	-39.1	20.7	0.00e+00	0	41	0	4066377728	45	4339
2026-01-16 15:21:31.60	325.76	15.52	-38.1	-39.1	20.7	0.00e+00	0	41	0	4073717760	45	4328
2026-01-16 15:21:32.60	325.87	15.43	-38.2	-39.2	20.7	0.00e+00	0	41	0	4081057792	45	4355
2026-01-16 15:21:33.60	325.98	15.34	-38.4	-39.4	20.5	0.00e+00	0	41	0	4088397824	46	4224
2026-01-16 15:21:34.60	326.09	15.24	-38.4	-39.4	20.5	0.00e+00	0	41	0	4095737856	46	4232
2026-01-16 15:21:35.60	326.19	15.15	-38.4	-39.4	20.5	0.00e+00	0	41	0	4103077888	46	4212
2026-01-16 15:21:36.60	326.30	15.06	-38.5	-39.5	20.4	0.00e+00	0	41	0	4110417920	46	4286
2026-01-16 15:21:37.61	326.41	14.97	-38.5	-39.5	20.4	0.00e+00	0	41	0	4117757952	46	4246
2026-01-16 15:21:38.61	326.52	14.88	-38.6	-39.6	20.3	0.00e+00	0	41	0	4125097984	46	4328
2026-01-16 15:21:39.61	326.62	14.78	-38.6	-39.6	20.3	0.00e+00	0	41	0	4132438016	46	4322
2026-01-16 15:21:40.62	326.73	14.69	-38.6	-39.7	20.2	0.00e+00	0	41	0	4138729472	46	4347
2026-01-16 15:21:41.62	326.83	14.60	-38.6	-39.7	20.2	0.00e+00	0	41	0	4146069504	46	4346
2026-01-16 15:21:42.62	326.94	14.51	-38.6	-39.7	20.2	0.00e+00	0	41	0	4153409536	46	4353
2026-01-16 15:21:43.62	327.04	14.42	-38.6	-39.7	20.2	0.00e+00	0	41	0	4160749568	46	4359
2026-01-16 15:21:44.62	327.14	14.33	-38.6	-39.6	20.2	0.00e+00	0	41	0	4168089600	46	4325
2026-01-16 15:21:45.62	327.24	14.24	-38.6	-39.6	20.2	0.00e+00	0	41	0	4175429632	46	4338
2026-01-16 15:21:46.62	327.34	14.15	-38.7	-39.7	20.2	0.00e+00	0	41	0	4182769664	46	4369
2026-01-16 15:21:47.62	327.45	14.06	-38.7	-39.7	20.2	0.00e+00	0	41	0	4190109696	46	4377
2026-01-16 15:21:48.62	327.55	13.97	-38.7	-39.7	20.2	0.00e+00	0	41	0	4196401152	46	4379
2026-01-16 15:21:49.62	327.65	13.88	-38.8	-39.8	20.1	0.00e+00	0	41	0	4203741184	47	4183
2026-01-16 15:21:50.62	327.74	13.80	-38.8	-39.8	20.1	0.00e+00	0	41	0	4211081216	47	4177
2026-01-16 15:21:51.62	327.84	13.71	-38.9	-40.0	19.9	0.00e+00	0	41	0	4218421248	47	4250
2026-01-16 15:21:52.62	327.94	13.62	-38.9	-39.9	19.8	0.00e+00	0	41	0	4225761280	47	4228
2026-01-16 15:21:53.63	328.04	13.53	-38.9	-39.8	20.0	0.00e+00	0	41	0	4233101312	47	4190
2026-01-16 15:21:54.63	328.14	13.44	-38.9	-39.8	20.1	0.00e+00	0	41	0	4240441344	47	4184
2026-01-16 15:21:55.63	328.23	13.36	-38.7	-39.7	20.2	0.00e+00	0	41	0	4247781376	47	4122
2026-01-16 15:21:56.63	328.33	13.27	-38.8	-39.8	20.0	0.00e+00	0	41	0	4255121408	47	4178
2026-01-16 15:21:57.63	328.42	13.18	-38.9	-39.9	20.0	0.00e+00	0	41	0	4261412864	47	4222
2026-01-16 15:21:58.63	328.52	13.09	-38.8	-39.8	20.1	0.00e+00	0	41	0	4268752896	47	4173
2026-01-16 15:21:59.64	328.61	13.01	-38.9	-39.9	20.0	0.00e+00	0	41	0	4276092928	47	4198
2026-01-16 15:22:00.64	328.71	12.92	-38.9	-39.9	20.0	0.00e+00	0	41	0	4283432960	47	4227
2026-01-16 15:22:01.64	328.80	12.84	-39.1	-40.1	19.8	0.00e+00	0	41	0	4290772992	47	4314
2026-01-16 15:22:02.64	328.89	12.75	-39.0	-40.0	19.8	0.00e+00	0	41	0	4298113024	47	4291
2026-01-16 15:22:03.64	328.98	12.66	-39.0	-40.0	19.9	0.00e+00	0	41	0	4305453056	47	4274
2026-01-16 15:22:04.64	329.08	12.58	-39.0	-40.0	19.9	0.00e+00	0	41	0	4312793088	47	4258
2026-01-16 15:22:05.64	329.17	12.49	-39.1	-40.1	19.8	0.00e+00	0	41	0	4320133120	47	4304
2026-01-16 15:22:06.65	329.26	12.41	-39.1	-40.1	19.8	0.00e+00	0	41	0	4326424576	47	4312
2026-01-16 15:22:07.65	329.35	12.32	-39.2	-40.2	19.7	0.00e+00	0	41	0	4333764608	47	4371
2026-01-16 15:22:08.65	329.44	12.24	-39.2	-40.2	19.6	0.00e+00	0	41	0	4342153216	47	4358
2026-01-16 15:22:09.65	329.53	12.16	-39.5	-40.5	19.7	0.00e+00	0	41	0	4348444672	48	4267
2026-01-16 15:22:10.65	329.62	12.07	-39.4	-40.3	19.8	0.00e+00	0	41	0	4355784704	48	4192
2026-01-16 15:22:11.66	329.71	11.99	-39.5	-40.5	19.7	0.00e+00	0	41	0	4363124736	48	4253
2026-01-16 15:22:12.66	329.79	11.90	-39.6	-40.6	19.6	0.00e+00	0	41	0	4370464768	48	4307
2026-01-16 15:22:13.66	329.88	11.82	-39.6	-40.6	19.6	0.00e+00	0	41	0	4377804800	48	4312
2026-01-16 15:22:14.66	329.97	11.74	-39.5	-40.5	19.6	0.00e+00	0	41	0	4385144832	48	4288
2026-01-16 15:22:15.67	330.05	11.66	-39.9	-40.9	19.2	0.00e+00	0	41	0	4392484864	49	4240
2026-01-16 15:22:16.67	330.14	11.57	-39.6	-40.6	19.5	0.00e+00	0	41	0	4399824896	49	4092
2026-01-16 15:22:17.67	330.23	11.49	-39.6	-40.6	19.5	0.00e+00	0	41	0	4406116352	49	4070
2026-01-16 15:22:18.67	330.31	11.41	-39.7	-40.7	19.4	0.00e+00	0	41	0	4413456384	49	4137
2026-01-16 15:22:19.67	330.39	11.33	-39.8	-40.8	19.3	0.00e+00	0	41	0	4420796416	49	4181
2026-01-16 15:22:20.67	330.48	11.25	-39.7	-40.7	19.4	0.00e+00	0	41	0	4428136448	49	4116
2026-01-16 15:22:21.67	330.56	11.16	-39.9	-41.0	19.2	0.00e+00	0	41	0	4435476480	49	4258
2026-01-16 15:22:22.67	330.65	11.08	-39.8	-40.8	19.3	0.00e+00	0	41	0	4442816512	49	4178
2026-01-16 15:22:23.68	330.73	11.00	-39.7	-40.7	19.4	0.00e+00	0	41	0	4450156544	49	4135
2026-01-16 15:22:24.68	330.81	10.92	-39.7	-40.8	19.4	0.00e+00	0	41	0	4457496576	49	4147
2026-01-16 15:22:25.68	330.89	10.84	-39.7	-40.8	19.4	0.00e+00	0	41	0	4464836608	49	4149
2026-01-16 15:22:26.68	330.97	10.76	-39.8	-40.9	19.2	0.00e+00	0	41	0	4471128064	49	4211
2026-01-16 15:22:27.68	331.06	10.68	-39.7	-40.7	19.4	0.00e+00	0	41	0	4478468096	49	4135
2026-01-16 15:22:28.68	331.14	10.60	-39.8	-40.9	19.3	0.00e+00	0	41	0	4485808128	49	4196
2026-01-16 15:22:29.68	331.22	10.52	-40.0	-41.1	19.1	0.00e+00	0	41	0	4493148160	49	4309
2026-01-16 15:22:30.68	331.30	10.44	-40.0	-41.1	19.0	0.00e+00	0	41	0	4500488192	49	4297
2026-01-16 15:22:31.69	331.38	10.36	-39.6	-40.6	19.5	0.00e+00	0	41	0	4507828224	49	4085
2026-01-16 15:22:32.69	331.45	10.28	-39.7	-40.8	19.3	0.00e+00	0	41	0	4515168256	49	4162
2026-01-16 15:22:33.69	331.53	10.20	-39.4	-40.5	19.6	0.00e+00	0	41	0	4522508288	49	4012
2026-01-16 15:22:34.69	331.61	10.13	-39.8	-40.9	19.2	0.00e+00	0	41	0	4529848320	49	4203
2026-01-16 15:22:35.70	331.69	10.05	-39.8	-40.9	19.2	0.00e+00	0	41	0	4536139776	49	4204
2026-01-16 15:22:36.69	331.77	9.97	-39.9	-41.0	19.2	0.00e+00	0	41	0	4543479808	49	4246
2026-01-16 15:22:37.70	331.84	9.89	-40.1	-41.2	19.0	0.00e+00	0	41	0	4550819840	49	4348
2026-01-16 15:22:38.70	331.92	9.81	-40.0	-41.1	19.1	0.00e+00	0	41	0	4558159872	49	4297
2026-01-16 15:22:39.70	332.00	9.74	-39.8	-40.8	19.2	0.00e+00	0	41	0	4565499904	49	4188
2026-01-16 15:22:40.70	332.07	9.66	-40.3	-41.5	18.7	0.00e+00	0	41	0	4572839936	50	4255
2026-01-16 15:22:41.70	332.15	9.58	-39.8	-40.9	19.2	0.00e+00	0	41	0	4580179968	50	3983
2026-01-16 15:22:42.70	332.22	9.50	-39.9	-41.0	19.1	0.00e+00	0	41	0	4587520000	50	4027
2026-01-16 15:22:43.70	332.30	9.43	-40.0	-41.1	19.0	0.00e+00	0	41	0	4593811456	50	4083
2026-01-16 15:22:44.70	332.37	9.35	-40.0	-41.1	19.0	0.00e+00	0	41	0	4602200064	50	4068
2026-01-16 15:22:45.70	332.45	9.27	-40.0	-41.1	19.0	0.00e+00	0	41	0	4608491520	50	4096
2026-01-16 15:22:46.71	332.52	9.20	-40.1	-41.2	18.9	0.00e+00	0	41	0	4615831552	50	4126
2026-01-16 15:22:47.71	332.59	9.12	-40.4	-41.5	18.6	0.00e+00	0	41	0	4623171584	50	4279
2026-01-16 15:22:48.71	332.67	9.05	-40.2	-41.3	18.8	0.00e+00	0	41	0	4630511616	50	4184
2026-01-16 15:22:49.71	332.74	8.97	-43.7	-45.4	15.2	0.00e+00	0	41	0	4637851648	56	4710
2026-01-16 15:22:50.71	332.81	8.89	-50.6	-61.5	3.8	8.46e-01	0	41	104	4638900224	70	13537
