passes_logs/2026/01/16/T1/T1__20260116_133059_FENGYUN_3E_rec.log

#Pass ID: 20260116_133059_FENGYUN 3E
#Satellite: FENGYUN 3E
#Configuration: FENGYUN 3E
#almurnet v.1.7.20251203
#Start time: 2026-01-16 13:30:59

#Version: 2.0.20230620
#Station: T1
#Location: 37.570604 lon 55.790049 lat
#TLE: 1 49008U 21062A   26015.99225297  .00000062  00000+0  49720-4 0  9994
#TLE: 2 49008  98.7486  21.1092 0002100 136.3389 223.7953 14.19885247234982

#Time	Az	El	Level	Level2	SNR	BER	BlckErr	Temp	State	Recorded	gain1	gain2
2026-01-16 13:30:59.74	138.58	5.02	-50.5	-61.1	3.8	8.46e-01	0	41	0	0	71	12207
2026-01-16 13:31:00.73	138.54	5.09	-50.5	-61.2	3.8	8.47e-01	0	42	104	0	71	12238
2026-01-16 13:31:01.72	138.51	5.16	-50.4	-61.1	3.8	8.47e-01	0	41	104	0	71	12199
2026-01-16 13:31:02.71	138.47	5.23	-50.4	-61.1	3.8	8.46e-01	0	41	104	0	71	12192
2026-01-16 13:31:03.71	138.43	5.30	-50.4	-61.1	3.8	8.48e-01	0	42	104	0	71	12232
2026-01-16 13:31:04.70	138.40	5.37	-50.4	-61.1	3.8	8.46e-01	0	41	104	0	71	12188
2026-01-16 13:31:05.70	138.36	5.44	-50.4	-61.0	3.8	8.48e-01	0	41	104	0	71	12041
2026-01-16 13:31:06.69	138.32	5.51	-50.4	-60.9	3.8	8.47e-01	0	42	104	0	71	11891
2026-01-16 13:31:07.68	138.29	5.58	-50.4	-60.8	3.8	8.46e-01	0	42	104	0	71	11764
2026-01-16 13:31:08.68	138.25	5.66	-50.4	-60.8	3.8	8.48e-01	0	42	104	0	71	11772
2026-01-16 13:31:09.67	138.21	5.73	-50.3	-60.6	3.8	8.47e-01	0	42	104	0	71	11534
2026-01-16 13:31:10.66	138.18	5.80	-50.3	-60.4	3.8	8.48e-01	0	42	104	0	71	11274
2026-01-16 13:31:11.66	138.14	5.87	-50.3	-60.3	3.8	8.47e-01	0	42	104	0	71	11135
2026-01-16 13:31:12.65	138.10	5.94	-50.3	-60.2	3.8	8.48e-01	0	42	104	0	71	10911
2026-01-16 13:31:13.64	138.06	6.01	-50.3	-60.0	3.8	8.46e-01	0	42	104	0	71	10755
2026-01-16 13:31:14.64	138.02	6.08	-50.2	-59.8	3.8	8.46e-01	0	42	104	0	71	10456
2026-01-16 13:31:15.63	137.99	6.16	-50.2	-59.7	3.8	8.46e-01	0	42	104	0	71	10397
2026-01-16 13:31:16.62	137.95	6.23	-50.2	-59.8	3.8	8.48e-01	0	42	104	0	71	10427
2026-01-16 13:31:17.61	137.91	6.30	-50.2	-59.7	3.8	8.46e-01	0	42	104	0	71	10379
2026-01-16 13:31:18.61	137.87	6.37	-50.2	-59.8	3.8	8.47e-01	0	42	104	0	71	10418
2026-01-16 13:31:19.60	137.83	6.45	-50.3	-60.0	3.8	8.47e-01	0	42	104	0	71	10763
2026-01-16 13:31:20.59	137.79	6.52	-50.3	-60.4	3.8	8.46e-01	0	42	104	0	71	11175
2026-01-16 13:31:21.59	137.75	6.59	-50.3	-60.6	3.8	8.47e-01	0	42	104	0	71	11521
2026-01-16 13:31:22.58	137.71	6.67	-50.4	-60.9	3.8	8.47e-01	0	42	104	0	71	11899
2026-01-16 13:31:23.57	137.67	6.74	-50.4	-61.1	3.8	8.47e-01	0	42	104	0	71	12153
2026-01-16 13:31:24.57	137.63	6.81	-50.4	-61.0	3.8	8.47e-01	0	42	104	0	71	12077
2026-01-16 13:31:25.56	137.59	6.89	-50.4	-60.6	3.8	8.46e-01	0	42	104	0	71	11511
2026-01-16 13:31:26.55	137.55	6.96	-50.3	-60.0	3.8	8.48e-01	0	42	104	0	71	10711
2026-01-16 13:31:27.55	137.51	7.04	-50.2	-59.3	3.8	8.46e-01	0	42	104	0	71	9831
2026-01-16 13:31:28.54	137.47	7.11	-50.0	-58.4	4.0	8.44e-01	0	42	104	0	70	9422
2026-01-16 13:31:29.53	137.43	7.19	-49.9	-57.6	4.2	8.40e-01	0	43	0	0	70	8642
2026-01-16 13:31:30.53	137.39	7.26	-49.7	-56.9	4.4	8.29e-01	0	43	0	0	70	7903
2026-01-16 13:31:31.52	137.35	7.34	-49.5	-56.3	4.7	8.11e-01	0	42	0	0	69	7849
2026-01-16 13:31:32.51	137.30	7.41	-49.2	-55.3	5.2	7.55e-01	0	42	0	0	69	6967
2026-01-16 13:31:33.51	137.26	7.49	-48.7	-53.7	6.3	3.40e-01	0	43	0	3145728	68	6185
2026-01-16 13:31:34.50	137.22	7.56	-47.9	-52.2	7.6	1.47e-01	0	43	0	10485760	66	5824
2026-01-16 13:31:35.49	137.18	7.64	-47.1	-50.6	9.1	3.53e-02	0	43	0	17825792	65	5141
2026-01-16 13:31:36.49	137.13	7.72	-46.0	-48.9	11.0	4.83e-03	0	43	0	24117248	62	4999
2026-01-16 13:31:37.48	137.09	7.79	-45.2	-47.7	12.1	4.80e-04	0	43	0	31457280	61	4637
2026-01-16 13:31:38.47	137.05	7.87	-43.9	-45.9	13.9	9.10e-06	0	43	0	38797312	58	4475
2026-01-16 13:31:39.47	137.00	7.95	-43.2	-45.1	14.7	4.50e-06	0	42	0	46137344	57	4329
2026-01-16 13:31:40.46	136.96	8.02	-42.1	-43.9	15.7	0.00e+00	0	43	0	53477376	55	4241
2026-01-16 13:31:41.45	136.92	8.10	-41.5	-43.2	16.4	0.00e+00	0	43	0	60817408	53	4350
2026-01-16 13:31:42.45	136.87	8.18	-41.0	-42.6	16.9	0.00e+00	0	43	0	68157440	52	4333
2026-01-16 13:31:43.44	136.83	8.26	-40.6	-42.2	17.3	0.00e+00	0	43	0	74448896	51	4376
2026-01-16 13:31:44.43	136.78	8.34	-40.6	-42.2	17.4	0.00e+00	0	43	0	81788928	51	4352
2026-01-16 13:31:45.43	136.74	8.41	-40.6	-42.2	17.3	0.00e+00	0	43	0	89128960	51	4390
2026-01-16 13:31:46.42	136.69	8.49	-41.0	-42.6	17.0	0.00e+00	0	43	0	96468992	51	4569
2026-01-16 13:31:47.41	136.65	8.57	-41.2	-42.8	16.8	0.00e+00	0	43	0	103809024	51	4696
2026-01-16 13:31:48.41	136.60	8.65	-41.5	-43.2	16.4	0.00e+00	0	43	0	111149056	52	4628
2026-01-16 13:31:49.40	136.55	8.73	-42.4	-44.2	15.4	0.00e+00	0	43	0	118489088	54	4641
2026-01-16 13:31:50.39	136.51	8.81	-43.2	-45.2	14.5	0.00e+00	0	43	0	124780544	55	4902
2026-01-16 13:31:51.39	136.46	8.89	-44.5	-46.7	13.1	1.71e-05	0	43	0	132120576	58	4920
2026-01-16 13:31:52.38	136.41	8.97	-45.6	-48.3	11.6	5.02e-04	0	43	0	139460608	60	5234
2026-01-16 13:31:53.37	136.37	9.05	-45.8	-48.5	11.4	3.95e-03	0	43	0	146800640	62	4764
2026-01-16 13:31:54.37	136.32	9.13	-42.6	-44.4	15.3	0.00e+00	0	43	0	154140672	56	4239
2026-01-16 13:31:55.36	136.27	9.21	-43.4	-44.8	15.1	0.00e+00	0	43	0	161480704	55	4666
2026-01-16 13:31:56.36	136.22	9.29	-49.6	-56.7	4.4	8.43e-01	0	43	104	163577856	69	8200
2026-01-16 13:31:57.35	136.17	9.37	-46.1	-48.9	10.9	1.17e-02	0	43	0	168820736	63	4730
2026-01-16 13:31:58.34	136.13	9.45	-47.1	-50.5	9.3	2.10e-02	0	43	0	176160768	63	5712
2026-01-16 13:31:59.34	136.08	9.54	-46.1	-49.0	10.9	2.53e-03	0	43	0	183500800	63	4783
2026-01-16 13:32:00.33	136.03	9.62	-46.1	-48.9	11.0	1.61e-03	0	43	0	190840832	62	5015
2026-01-16 13:32:01.32	135.98	9.70	-44.9	-47.3	12.6	3.32e-04	0	43	0	197132288	60	4694
2026-01-16 13:32:02.32	135.93	9.78	-43.8	-45.8	14.1	6.80e-06	0	43	0	204472320	58	4423
2026-01-16 13:32:03.31	135.88	9.87	-42.7	-44.5	15.4	0.00e+00	0	43	0	211812352	56	4258
2026-01-16 13:32:04.31	135.83	9.95	-41.5	-43.2	16.5	0.00e+00	0	43	0	219152384	53	4357
2026-01-16 13:32:05.30	135.78	10.03	-41.0	-42.6	17.0	0.00e+00	0	43	0	226492416	52	4313
2026-01-16 13:32:06.30	135.73	10.12	-40.9	-42.4	17.2	0.00e+00	0	43	0	233832448	52	4228
2026-01-16 13:32:07.29	135.67	10.20	-40.9	-42.5	17.2	0.00e+00	0	43	0	240123904	52	4244
2026-01-16 13:32:08.29	135.62	10.28	-41.0	-42.5	17.1	0.00e+00	0	43	0	247463936	52	4281
2026-01-16 13:32:09.28	135.57	10.37	-41.0	-42.6	17.1	0.00e+00	0	43	0	254803968	52	4301
2026-01-16 13:32:10.28	135.52	10.45	-40.8	-42.4	17.3	0.00e+00	0	43	0	262144000	52	4214
2026-01-16 13:32:11.27	135.47	10.54	-40.3	-41.7	17.9	0.00e+00	0	43	0	269484032	51	4136
2026-01-16 13:32:12.27	135.41	10.62	-40.0	-41.4	18.2	0.00e+00	0	43	0	276824064	50	4242
2026-01-16 13:32:13.26	135.36	10.71	-39.5	-41.0	18.7	0.00e+00	0	43	0	284164096	49	4243
2026-01-16 13:32:14.26	135.31	10.79	-39.5	-40.9	18.7	0.00e+00	0	43	0	291504128	49	4229
2026-01-16 13:32:15.25	135.25	10.88	-39.3	-40.7	18.9	0.00e+00	0	43	0	297795584	49	4125
2026-01-16 13:32:16.24	135.20	10.97	-39.1	-40.5	19.1	0.00e+00	0	43	0	305135616	48	4279
2026-01-16 13:32:17.24	135.14	11.05	-39.2	-40.6	19.1	0.00e+00	0	43	0	312475648	48	4304
2026-01-16 13:32:18.23	135.09	11.14	-39.1	-40.5	19.1	0.00e+00	0	43	0	319815680	48	4288
2026-01-16 13:32:19.22	135.03	11.23	-39.0	-40.4	19.2	0.00e+00	0	43	0	327155712	48	4219
2026-01-16 13:32:20.22	134.98	11.31	-39.0	-40.4	19.2	0.00e+00	0	43	0	334495744	48	4218
2026-01-16 13:32:21.21	134.92	11.40	-39.0	-40.4	19.2	0.00e+00	0	43	0	340787200	48	4215
2026-01-16 13:32:22.21	134.86	11.49	-39.1	-40.5	19.2	0.00e+00	0	43	0	348127232	48	4245
2026-01-16 13:32:23.20	134.81	11.58	-39.0	-40.4	19.2	0.00e+00	0	43	0	355467264	48	4236
2026-01-16 13:32:24.19	134.75	11.67	-39.0	-40.4	19.2	0.00e+00	0	43	0	362807296	48	4208
2026-01-16 13:32:25.19	134.69	11.75	-38.9	-40.3	19.3	0.00e+00	0	43	0	370147328	48	4170
2026-01-16 13:32:26.18	134.64	11.84	-38.9	-40.3	19.3	0.00e+00	0	43	0	377487360	48	4180
2026-01-16 13:32:27.18	134.58	11.93	-39.1	-40.5	19.1	0.00e+00	0	43	0	383778816	48	4277
2026-01-16 13:32:28.17	134.52	12.02	-39.0	-40.4	19.3	0.00e+00	0	43	0	391118848	48	4207
2026-01-16 13:32:29.17	134.46	12.11	-38.9	-40.3	19.4	0.00e+00	0	44	0	398458880	48	4147
2026-01-16 13:32:30.16	134.40	12.20	-38.9	-40.4	19.3	0.00e+00	0	43	0	405798912	48	4194
2026-01-16 13:32:31.16	134.34	12.29	-38.9	-40.3	19.4	0.00e+00	0	43	0	413138944	48	4154
2026-01-16 13:32:32.15	134.28	12.38	-38.9	-40.4	19.3	0.00e+00	0	43	0	420478976	48	4195
2026-01-16 13:32:33.15	134.22	12.48	-38.9	-40.3	19.3	0.00e+00	0	43	0	427819008	48	4177
2026-01-16 13:32:34.14	134.16	12.57	-38.7	-40.1	19.5	0.00e+00	0	43	0	434110464	48	4071
2026-01-16 13:32:35.14	134.10	12.66	-38.8	-40.2	19.4	0.00e+00	0	43	0	441450496	48	4124
2026-01-16 13:32:36.13	134.04	12.75	-38.8	-40.2	19.4	0.00e+00	0	43	0	448790528	48	4121
2026-01-16 13:32:37.13	133.98	12.84	-38.7	-40.1	19.6	0.00e+00	0	43	0	456130560	48	4055
2026-01-16 13:32:38.12	133.91	12.94	-38.8	-40.2	19.5	0.00e+00	0	43	0	463470592	48	4123
2026-01-16 13:32:39.12	133.85	13.03	-38.7	-40.2	19.5	0.00e+00	0	43	0	470810624	48	4099
2026-01-16 13:32:40.11	133.79	13.12	-38.4	-39.8	19.5	0.00e+00	0	43	0	478150656	47	4185
2026-01-16 13:32:41.11	133.72	13.22	-38.4	-39.9	19.4	0.00e+00	0	44	0	484442112	47	4205
2026-01-16 13:32:42.10	133.66	13.31	-38.5	-39.9	19.4	0.00e+00	0	43	0	491782144	47	4216
2026-01-16 13:32:43.10	133.60	13.41	-38.4	-39.8	19.5	0.00e+00	0	44	0	499122176	47	4169
2026-01-16 13:32:44.09	133.53	13.50	-38.4	-39.8	19.5	0.00e+00	0	44	0	506462208	47	4176
2026-01-16 13:32:45.09	133.47	13.60	-38.3	-39.8	19.5	0.00e+00	0	43	0	513802240	47	4151
2026-01-16 13:32:46.09	133.40	13.69	-38.3	-39.7	19.6	0.00e+00	0	44	0	521142272	47	4117
2026-01-16 13:32:47.08	133.33	13.79	-38.3	-39.7	19.6	0.00e+00	0	44	0	527433728	47	4139
2026-01-16 13:32:48.08	133.27	13.88	-38.1	-39.5	19.7	0.00e+00	0	44	0	534773760	47	4041
2026-01-16 13:32:49.07	133.20	13.98	-38.2	-39.6	19.7	0.00e+00	0	44	0	542113792	47	4088
2026-01-16 13:32:50.07	133.13	14.08	-38.1	-39.5	19.8	0.00e+00	0	44	0	549453824	47	4011
2026-01-16 13:32:51.06	133.06	14.17	-38.1	-39.5	19.8	0.00e+00	0	44	0	556793856	46	4270
2026-01-16 13:32:52.06	133.00	14.27	-38.1	-39.5	19.8	0.00e+00	0	44	0	564133888	46	4259
2026-01-16 13:32:53.05	132.93	14.37	-38.0	-39.4	19.9	0.00e+00	0	44	0	571473920	46	4209
2026-01-16 13:32:54.05	132.86	14.47	-38.2	-39.6	19.8	0.00e+00	0	44	0	578813952	46	4302
2026-01-16 13:32:55.04	132.79	14.57	-37.8	-39.2	20.0	0.00e+00	0	43	0	585105408	46	4140
2026-01-16 13:32:56.04	132.72	14.67	-38.0	-39.4	19.8	0.00e+00	0	44	0	592445440	46	4205
2026-01-16 13:32:57.03	132.65	14.76	-38.1	-39.5	19.7	0.00e+00	0	44	0	599785472	46	4264
2026-01-16 13:32:58.03	132.57	14.86	-37.9	-39.3	19.9	0.00e+00	0	44	0	607125504	46	4164
2026-01-16 13:32:59.02	132.50	14.96	-37.8	-39.2	20.1	0.00e+00	0	44	0	614465536	46	4112
2026-01-16 13:33:00.02	132.43	15.06	-37.9	-39.3	19.9	0.00e+00	0	44	0	621805568	46	4172
2026-01-16 13:33:01.01	132.36	15.17	-37.7	-39.1	20.1	0.00e+00	0	44	0	628097024	45	4337
2026-01-16 13:33:02.01	132.28	15.27	-37.8	-39.2	20.0	0.00e+00	0	44	0	635437056	45	4390
2026-01-16 13:33:03.01	132.21	15.37	-37.8	-39.2	20.0	0.00e+00	0	44	0	642777088	45	4367
2026-01-16 13:33:04.00	132.14	15.47	-37.8	-39.2	20.0	0.00e+00	0	44	0	650117120	45	4389
2026-01-16 13:33:04.99	132.06	15.57	-37.8	-39.3	19.9	0.00e+00	0	44	0	657457152	45	4419
2026-01-16 13:33:05.99	131.99	15.67	-37.8	-39.3	19.9	0.00e+00	0	44	0	664797184	45	4392
2026-01-16 13:33:06.98	131.91	15.78	-37.8	-39.2	20.0	0.00e+00	0	44	0	671088640	45	4358
2026-01-16 13:33:07.98	131.83	15.88	-37.7	-39.2	20.0	0.00e+00	0	44	0	678428672	45	4349
2026-01-16 13:33:08.97	131.76	15.98	-37.8	-39.2	20.0	0.00e+00	0	44	0	685768704	45	4368
2026-01-16 13:33:09.96	131.68	16.09	-37.7	-39.2	20.0	0.00e+00	0	44	0	693108736	45	4354
2026-01-16 13:33:10.96	131.60	16.19	-37.9	-39.3	19.9	0.00e+00	0	44	0	700448768	45	4436
2026-01-16 13:33:11.95	131.52	16.30	-37.7	-39.1	20.1	0.00e+00	0	44	0	707788800	45	4316
2026-01-16 13:33:12.95	131.44	16.40	-37.7	-39.1	20.1	0.00e+00	0	44	0	715128832	45	4330
2026-01-16 13:33:13.94	131.36	16.51	-37.8	-39.2	20.0	0.00e+00	0	44	0	722468864	45	4367
2026-01-16 13:33:14.94	131.28	16.62	-37.7	-39.1	20.1	0.00e+00	0	44	0	728760320	45	4338
2026-01-16 13:33:15.93	131.20	16.72	-37.6	-39.1	20.1	0.00e+00	0	44	0	736100352	45	4310
2026-01-16 13:33:16.93	131.12	16.83	-37.7	-39.2	20.0	0.00e+00	0	44	0	743440384	45	4372
2026-01-16 13:33:17.92	131.04	16.94	-37.6	-39.0	20.2	0.00e+00	0	44	0	750780416	45	4265
2026-01-16 13:33:18.92	130.95	17.04	-37.7	-39.1	20.1	0.00e+00	0	44	0	758120448	45	4332
2026-01-16 13:33:19.91	130.87	17.15	-37.5	-38.9	20.2	0.00e+00	0	44	0	765460480	45	4216
2026-01-16 13:33:20.91	130.79	17.26	-37.5	-38.9	20.2	0.00e+00	0	44	0	771751936	45	4215
2026-01-16 13:33:21.90	130.70	17.37	-37.5	-39.0	20.2	0.00e+00	0	44	0	779091968	45	4250
2026-01-16 13:33:22.90	130.62	17.48	-37.4	-38.8	20.3	0.00e+00	0	44	0	786432000	45	4174
2026-01-16 13:33:23.89	130.53	17.59	-37.2	-38.6	20.6	0.00e+00	0	44	0	793772032	45	4055
2026-01-16 13:33:24.89	130.44	17.70	-37.0	-38.4	20.7	0.00e+00	0	44	0	801112064	44	4196
2026-01-16 13:33:25.88	130.36	17.81	-36.9	-38.3	20.8	0.00e+00	0	44	0	808452096	44	4172
2026-01-16 13:33:26.88	130.27	17.92	-36.7	-38.1	21.0	0.00e+00	0	44	0	814743552	44	4063
2026-01-16 13:33:27.87	130.18	18.03	-36.7	-38.0	21.0	0.00e+00	0	44	0	822083584	44	4041
2026-01-16 13:33:28.86	130.09	18.14	-36.8	-38.2	20.9	0.00e+00	0	44	0	829423616	44	4113
2026-01-16 13:33:29.86	130.00	18.26	-36.9	-38.2	20.8	0.00e+00	0	44	0	836763648	44	4125
2026-01-16 13:33:30.85	129.91	18.37	-36.6	-38.0	21.1	0.00e+00	0	44	0	844103680	44	4011
2026-01-16 13:33:31.84	129.82	18.48	-37.0	-38.4	20.6	0.00e+00	0	44	0	850395136	44	4218
2026-01-16 13:33:32.84	129.73	18.60	-36.6	-37.9	21.1	0.00e+00	0	44	0	857735168	44	3973
2026-01-16 13:33:33.83	129.64	18.71	-36.4	-37.8	21.1	0.00e+00	0	44	0	865075200	43	4161
2026-01-16 13:33:34.83	129.54	18.83	-36.5	-37.8	21.1	0.00e+00	0	44	0	872415232	43	4180
2026-01-16 13:33:35.82	129.45	18.94	-36.3	-37.7	21.2	0.00e+00	0	44	0	879755264	43	4099
2026-01-16 13:33:36.81	129.35	19.06	-36.3	-37.6	21.3	0.00e+00	0	44	0	887095296	43	4070
2026-01-16 13:33:37.81	129.26	19.17	-36.3	-37.7	21.2	0.00e+00	0	44	0	894435328	43	4107
2026-01-16 13:33:38.80	129.16	19.29	-36.3	-37.6	21.3	0.00e+00	0	44	0	901775360	43	4067
2026-01-16 13:33:39.80	129.06	19.41	-36.3	-37.7	21.2	0.00e+00	0	44	0	909115392	43	4106
2026-01-16 13:33:40.79	128.97	19.52	-36.3	-37.6	21.3	0.00e+00	0	44	0	915406848	43	4087
2026-01-16 13:33:41.78	128.87	19.64	-36.3	-37.7	21.2	0.00e+00	0	44	0	922746880	43	4110
2026-01-16 13:33:42.78	128.77	19.76	-36.3	-37.6	21.3	0.00e+00	0	44	0	930086912	43	4086
2026-01-16 13:33:43.77	128.67	19.88	-36.2	-37.5	21.4	0.00e+00	0	44	0	937426944	43	4041
2026-01-16 13:33:44.77	128.57	20.00	-36.4	-37.7	21.2	0.00e+00	0	44	0	944766976	43	4142
2026-01-16 13:33:45.76	128.47	20.12	-36.4	-37.7	21.2	0.00e+00	0	44	0	952107008	43	4136
2026-01-16 13:33:46.75	128.36	20.24	-36.3	-37.6	21.3	0.00e+00	0	44	0	958398464	43	4098
2026-01-16 13:33:47.75	128.26	20.36	-36.3	-37.6	21.4	0.00e+00	0	44	0	965738496	43	4067
2026-01-16 13:33:48.74	128.15	20.48	-36.1	-37.4	21.5	0.00e+00	0	44	0	973078528	43	3997
2026-01-16 13:33:49.74	128.05	20.60	-36.2	-37.4	21.5	0.00e+00	0	44	0	980418560	43	3996
2026-01-16 13:33:50.73	127.94	20.72	-36.0	-37.3	21.6	0.00e+00	0	44	0	987758592	42	4164
2026-01-16 13:33:51.73	127.84	20.85	-36.0	-37.3	21.7	0.00e+00	0	44	0	994050048	42	4150
2026-01-16 13:33:52.72	127.73	20.97	-36.1	-37.3	21.6	0.00e+00	0	44	0	1001390080	42	4186
2026-01-16 13:33:53.72	127.62	21.09	-35.9	-37.1	21.8	0.00e+00	0	44	0	1008730112	42	4068
2026-01-16 13:33:54.71	127.51	21.22	-35.7	-36.9	22.0	0.00e+00	0	44	0	1016070144	42	3974
2026-01-16 13:33:55.71	127.40	21.34	-35.7	-36.9	22.0	0.00e+00	0	44	0	1023410176	42	3984
2026-01-16 13:33:56.70	127.29	21.47	-35.7	-36.9	22.0	0.00e+00	0	44	0	1030750208	42	3959
2026-01-16 13:33:57.70	127.18	21.59	-35.4	-36.6	22.2	0.00e+00	0	44	0	1038090240	41	4076
2026-01-16 13:33:58.69	127.06	21.72	-35.6	-36.8	22.0	0.00e+00	0	44	0	1045430272	41	4192
2026-01-16 13:33:59.68	126.95	21.84	-35.6	-36.9	22.0	0.00e+00	0	44	0	1051721728	41	4196
2026-01-16 13:34:00.68	126.83	21.97	-35.7	-36.9	22.0	0.00e+00	0	44	0	1059061760	41	4205
2026-01-16 13:34:01.67	126.72	22.10	-35.6	-36.8	22.1	0.00e+00	0	44	0	1066401792	41	4153
2026-01-16 13:34:02.66	126.60	22.23	-35.7	-36.9	21.9	0.00e+00	0	44	0	1073741824	41	4242
2026-01-16 13:34:03.66	126.48	22.36	-35.8	-37.0	21.8	0.00e+00	0	44	0	1081081856	41	4270
2026-01-16 13:34:04.65	126.36	22.48	-35.8	-37.0	21.8	0.00e+00	0	44	0	1088421888	41	4263
2026-01-16 13:34:05.65	126.24	22.62	-36.0	-37.3	21.6	0.00e+00	0	44	0	1095761920	41	4397
2026-01-16 13:34:06.64	126.12	22.74	-36.0	-37.3	21.6	0.00e+00	0	44	0	1102053376	41	4417
2026-01-16 13:34:07.64	126.00	22.88	-36.0	-37.3	21.5	0.00e+00	0	44	0	1109393408	41	4432
2026-01-16 13:34:08.63	125.88	23.01	-36.2	-37.5	21.4	0.00e+00	0	44	0	1116733440	42	4254
2026-01-16 13:34:09.63	125.75	23.14	-36.1	-37.5	21.4	0.00e+00	0	44	0	1124073472	42	4244
2026-01-16 13:34:10.62	125.63	23.27	-36.1	-37.4	21.4	0.00e+00	0	44	0	1131413504	42	4234
2026-01-16 13:34:11.61	125.50	23.40	-36.0	-37.4	21.5	0.00e+00	0	44	0	1137704960	42	4203
2026-01-16 13:34:12.61	125.37	23.54	-36.1	-37.4	21.4	0.00e+00	0	44	0	1145044992	42	4226
2026-01-16 13:34:13.60	125.25	23.67	-35.9	-37.2	21.6	0.00e+00	0	44	0	1152385024	42	4136
2026-01-16 13:34:14.60	125.12	23.81	-36.1	-37.4	21.4	0.00e+00	0	44	0	1159725056	42	4241
2026-01-16 13:34:15.59	124.99	23.94	-36.1	-37.5	21.4	0.00e+00	0	44	0	1167065088	42	4258
2026-01-16 13:34:16.58	124.85	24.08	-36.1	-37.5	21.4	0.00e+00	0	44	0	1174405120	42	4264
2026-01-16 13:34:17.58	124.72	24.21	-36.1	-37.5	21.4	0.00e+00	0	44	0	1180696576	42	4263
2026-01-16 13:34:18.57	124.59	24.35	-36.3	-37.7	21.2	0.00e+00	0	44	0	1188036608	42	4383
2026-01-16 13:34:19.57	124.45	24.49	-36.1	-37.5	21.3	0.00e+00	0	44	0	1195376640	42	4270
2026-01-16 13:34:20.56	124.31	24.62	-36.1	-37.4	21.4	0.00e+00	0	44	0	1202716672	42	4240
2026-01-16 13:34:21.56	124.17	24.76	-36.1	-37.5	21.4	0.00e+00	0	44	0	1210056704	42	4271
2026-01-16 13:34:22.55	124.04	24.90	-36.1	-37.5	21.4	0.00e+00	0	44	0	1217396736	42	4252
2026-01-16 13:34:23.55	123.89	25.04	-36.0	-37.3	21.5	0.00e+00	0	44	0	1224736768	42	4189
2026-01-16 13:34:24.55	123.75	25.18	-36.0	-37.4	21.4	0.00e+00	0	44	0	1232076800	42	4205
2026-01-16 13:34:25.54	123.61	25.32	-36.0	-37.4	21.5	0.00e+00	0	44	0	1238368256	42	4197
2026-01-16 13:34:26.54	123.46	25.46	-36.0	-37.4	21.5	0.00e+00	0	44	0	1245708288	42	4217
2026-01-16 13:34:27.54	123.32	25.61	-36.0	-37.4	21.5	0.00e+00	0	44	0	1253048320	42	4203
2026-01-16 13:34:28.53	123.17	25.75	-36.0	-37.3	21.5	0.00e+00	0	44	0	1260388352	42	4178
2026-01-16 13:34:29.53	123.02	25.89	-36.0	-37.3	21.6	0.00e+00	0	44	0	1267728384	42	4179
2026-01-16 13:34:30.52	122.87	26.03	-36.0	-37.3	21.6	0.00e+00	0	44	0	1275068416	42	4160
2026-01-16 13:34:31.52	122.72	26.18	-35.9	-37.3	21.6	0.00e+00	0	44	0	1281359872	42	4148
2026-01-16 13:34:32.51	122.57	26.32	-35.8	-37.1	21.7	0.00e+00	0	44	0	1288699904	42	4083
2026-01-16 13:34:33.51	122.42	26.47	-35.8	-37.1	21.8	0.00e+00	0	44	0	1296039936	42	4083
2026-01-16 13:34:34.50	122.26	26.61	-35.6	-36.8	22.0	0.00e+00	0	44	0	1303379968	41	4177
2026-01-16 13:34:35.50	122.10	26.76	-35.8	-37.1	21.8	0.00e+00	0	44	0	1310720000	41	4310
2026-01-16 13:34:36.49	121.95	26.91	-35.7	-36.9	21.9	0.00e+00	0	44	0	1318060032	41	4242
2026-01-16 13:34:37.49	121.79	27.05	-35.6	-36.8	22.0	0.00e+00	0	44	0	1324351488	41	4183
2026-01-16 13:34:38.48	121.62	27.20	-35.6	-36.9	21.9	0.00e+00	0	44	0	1331691520	41	4200
2026-01-16 13:34:39.48	121.46	27.35	-35.6	-36.9	21.9	0.00e+00	0	44	0	1339031552	41	4227
2026-01-16 13:34:40.47	121.30	27.50	-35.4	-36.7	22.1	0.00e+00	0	44	0	1346371584	41	4117
2026-01-16 13:34:41.46	121.13	27.65	-35.5	-36.7	22.0	0.00e+00	0	44	0	1353711616	41	4131
2026-01-16 13:34:42.46	120.96	27.80	-35.4	-36.6	22.1	0.00e+00	0	44	0	1361051648	41	4091
2026-01-16 13:34:43.45	120.80	27.95	-35.3	-36.6	22.1	0.00e+00	0	44	0	1368391680	41	4063
2026-01-16 13:34:44.45	120.62	28.10	-35.3	-36.6	22.1	0.00e+00	0	44	0	1375731712	41	4073
2026-01-16 13:34:45.44	120.45	28.25	-35.2	-36.4	22.2	0.00e+00	0	44	0	1383071744	40	4236
2026-01-16 13:34:46.44	120.28	28.40	-35.2	-36.4	22.2	0.00e+00	0	44	0	1389363200	40	4237
2026-01-16 13:34:47.43	120.10	28.55	-35.3	-36.5	22.1	0.00e+00	0	44	0	1396703232	40	4283
2026-01-16 13:34:48.42	119.93	28.71	-35.3	-36.6	22.1	0.00e+00	0	44	0	1404043264	40	4299
2026-01-16 13:34:49.42	119.75	28.86	-35.2	-36.4	22.2	0.00e+00	0	44	0	1411383296	40	4240
2026-01-16 13:34:50.42	119.56	29.01	-35.1	-36.4	22.3	0.00e+00	0	44	0	1418723328	40	4241
2026-01-16 13:34:51.41	119.38	29.17	-35.2	-36.4	22.3	0.00e+00	0	44	0	1425014784	40	4242
2026-01-16 13:34:52.41	119.20	29.32	-35.2	-36.5	22.2	0.00e+00	0	44	0	1432354816	40	4254
2026-01-16 13:34:53.40	119.01	29.48	-35.2	-36.5	22.2	0.00e+00	0	44	0	1439694848	40	4261
2026-01-16 13:34:54.39	118.83	29.63	-35.3	-36.6	22.1	0.00e+00	0	44	0	1447034880	40	4309
2026-01-16 13:34:55.39	118.63	29.79	-35.2	-36.4	22.3	0.00e+00	0	44	0	1454374912	40	4237
2026-01-16 13:34:56.38	118.44	29.95	-35.2	-36.5	22.3	0.00e+00	0	44	0	1461714944	40	4261
2026-01-16 13:34:57.38	118.25	30.11	-35.2	-36.5	22.2	0.00e+00	0	44	0	1468006400	40	4267
2026-01-16 13:34:58.37	118.05	30.26	-35.3	-36.6	22.2	0.00e+00	0	44	0	1475346432	40	4300
2026-01-16 13:34:59.37	117.86	30.42	-35.4	-36.7	22.1	0.00e+00	0	44	0	1482686464	40	4356
2026-01-16 13:35:00.36	117.66	30.58	-35.4	-36.7	22.1	0.00e+00	0	44	0	1490026496	40	4349
2026-01-16 13:35:01.36	117.45	30.74	-35.6	-36.9	21.9	0.00e+00	0	44	0	1497366528	40	4449
2026-01-16 13:35:02.35	117.25	30.90	-35.7	-37.0	21.7	0.00e+00	0	44	0	1504706560	40	4533
2026-01-16 13:35:03.35	117.05	31.06	-35.8	-37.1	21.7	0.00e+00	0	44	0	1512046592	41	4318
2026-01-16 13:35:04.34	116.84	31.22	-35.8	-37.1	21.7	0.00e+00	0	44	0	1519386624	41	4335
2026-01-16 13:35:05.34	116.63	31.39	-35.9	-37.3	21.6	0.00e+00	0	44	0	1525678080	41	4410
2026-01-16 13:35:06.33	116.42	31.55	-35.9	-37.3	21.5	0.00e+00	0	44	0	1533018112	41	4404
2026-01-16 13:35:07.33	116.20	31.71	-35.9	-37.3	21.5	0.00e+00	0	44	0	1540358144	41	4416
2026-01-16 13:35:08.32	115.99	31.87	-36.0	-37.5	21.4	0.00e+00	0	44	0	1547698176	41	4495
2026-01-16 13:35:09.32	115.77	32.04	-35.9	-37.3	21.5	0.00e+00	0	44	0	1555038208	41	4428
2026-01-16 13:35:10.31	115.55	32.20	-35.8	-37.2	21.6	0.00e+00	0	44	0	1562378240	41	4380
2026-01-16 13:35:11.30	115.33	32.36	-35.9	-37.3	21.6	0.00e+00	0	44	0	1568669696	41	4413
2026-01-16 13:35:12.30	115.10	32.53	-35.7	-37.1	21.7	0.00e+00	0	44	0	1576009728	41	4295
2026-01-16 13:35:13.29	114.87	32.69	-35.5	-36.8	21.9	0.00e+00	0	44	0	1583349760	41	4182
2026-01-16 13:35:14.29	114.64	32.86	-35.5	-36.8	22.0	0.00e+00	0	44	0	1590689792	41	4161
2026-01-16 13:35:15.28	114.41	33.02	-35.5	-36.8	21.9	0.00e+00	0	44	0	1598029824	41	4181
2026-01-16 13:35:16.27	114.18	33.19	-35.4	-36.7	22.0	0.00e+00	0	44	0	1605369856	41	4144
2026-01-16 13:35:17.27	113.94	33.36	-35.3	-36.6	22.1	0.00e+00	0	44	0	1611661312	41	4064
2026-01-16 13:35:18.26	113.70	33.52	-35.2	-36.5	22.1	0.00e+00	0	44	0	1619001344	41	4045
2026-01-16 13:35:19.26	113.46	33.69	-35.3	-36.6	22.2	0.00e+00	0	44	0	1626341376	41	4063
2026-01-16 13:35:20.25	113.22	33.86	-35.3	-36.6	22.2	0.00e+00	0	44	0	1633681408	41	4053
2026-01-16 13:35:21.25	112.97	34.02	-35.1	-36.3	22.4	0.00e+00	0	44	0	1641021440	41	3946
2026-01-16 13:35:22.24	112.72	34.19	-35.2	-36.4	22.3	0.00e+00	0	44	0	1648361472	40	4223
2026-01-16 13:35:23.24	112.47	34.36	-35.1	-36.4	22.3	0.00e+00	0	44	0	1654652928	40	4217
2026-01-16 13:35:24.23	112.21	34.53	-35.1	-36.3	22.4	0.00e+00	0	44	0	1661992960	40	4189
2026-01-16 13:35:25.22	111.96	34.70	-35.2	-36.4	22.3	0.00e+00	0	44	0	1669332992	40	4224
2026-01-16 13:35:26.22	111.69	34.87	-35.2	-36.4	22.3	0.00e+00	0	44	0	1676673024	40	4227
2026-01-16 13:35:27.21	111.43	35.03	-35.4	-36.6	22.2	0.00e+00	0	44	0	1684013056	40	4330
2026-01-16 13:35:28.20	111.17	35.20	-35.4	-36.7	22.1	0.00e+00	0	44	0	1691353088	40	4372
2026-01-16 13:35:29.20	110.90	35.37	-35.8	-36.7	22.8	0.00e+00	0	44	0	1698693120	41	4115
2026-01-16 13:35:30.19	110.63	35.54	-35.9	-36.8	22.8	0.00e+00	0	44	0	1706033152	41	4148
2026-01-16 13:35:31.19	110.35	35.71	-35.9	-36.8	22.8	0.00e+00	0	44	0	1712324608	41	4152
2026-01-16 13:35:32.19	110.07	35.88	-35.9	-36.8	22.7	0.00e+00	0	44	0	1719664640	41	4167
2026-01-16 13:35:33.18	109.80	36.05	-36.0	-36.8	22.8	0.00e+00	0	44	0	1727004672	41	4170
2026-01-16 13:35:34.17	109.51	36.22	-36.2	-37.0	22.6	0.00e+00	0	44	0	1734344704	41	4265
2026-01-16 13:35:35.17	109.23	36.39	-36.2	-37.0	22.5	0.00e+00	0	44	0	1741684736	41	4286
2026-01-16 13:35:36.16	108.94	36.56	-36.2	-37.0	22.6	0.00e+00	0	44	0	1749024768	42	4025
2026-01-16 13:35:37.16	108.65	36.74	-36.1	-36.9	22.6	0.00e+00	0	44	0	1755316224	42	3999
2026-01-16 13:35:38.15	108.35	36.91	-36.2	-37.0	22.5	0.00e+00	0	44	0	1762656256	42	4050
2026-01-16 13:35:39.15	108.05	37.08	-36.3	-37.1	22.5	0.00e+00	0	44	0	1769996288	42	4094
2026-01-16 13:35:40.14	107.75	37.25	-36.2	-37.1	22.6	0.00e+00	0	44	0	1777336320	42	4055
2026-01-16 13:35:41.14	107.45	37.42	-36.4	-37.2	22.4	0.00e+00	0	44	0	1784676352	42	4141
2026-01-16 13:35:42.13	107.14	37.59	-36.3	-37.1	22.4	0.00e+00	0	44	0	1792016384	42	4094
2026-01-16 13:35:43.13	106.83	37.76	-36.0	-36.8	22.7	0.00e+00	0	44	0	1798307840	42	3942
2026-01-16 13:35:44.12	106.52	37.93	-36.2	-37.0	22.5	0.00e+00	0	44	0	1805647872	42	4047
2026-01-16 13:35:45.12	106.20	38.10	-36.0	-36.9	22.7	0.00e+00	0	44	0	1812987904	42	3964
2026-01-16 13:35:46.11	105.88	38.27	-36.1	-36.9	22.7	0.00e+00	0	44	0	1820327936	42	4001
2026-01-16 13:35:47.11	105.55	38.44	-36.1	-37.0	22.6	0.00e+00	0	44	0	1827667968	42	4013
2026-01-16 13:35:48.10	105.22	38.61	-36.0	-36.9	22.7	0.00e+00	0	44	0	1835008000	42	3960
2026-01-16 13:35:49.09	104.89	38.78	-36.0	-36.8	22.7	0.00e+00	0	44	0	1842348032	42	3948
2026-01-16 13:35:50.09	104.56	38.95	-35.9	-36.8	22.8	0.00e+00	0	44	0	1848639488	42	3926
2026-01-16 13:35:51.08	104.22	39.12	-35.8	-36.6	22.9	0.00e+00	0	44	0	1855979520	42	3852
2026-01-16 13:35:52.08	103.88	39.28	-35.7	-36.5	23.0	0.00e+00	0	44	0	1863319552	42	3815
2026-01-16 13:35:53.08	103.53	39.45	-35.9	-36.8	22.8	0.00e+00	0	44	0	1870659584	42	3915
2026-01-16 13:35:54.07	103.18	39.62	-36.1	-37.0	22.6	0.00e+00	0	44	0	1877999616	42	4015
2026-01-16 13:35:55.06	102.83	39.79	-36.3	-37.1	22.5	0.00e+00	0	44	0	1885339648	42	4093
2026-01-16 13:35:56.06	102.48	39.95	-36.4	-37.3	22.3	0.00e+00	0	44	0	1892679680	42	4162
2026-01-16 13:35:57.06	102.11	40.12	-36.5	-37.4	22.2	0.00e+00	0	44	0	1898971136	42	4220
2026-01-16 13:35:58.05	101.75	40.29	-36.6	-37.4	22.2	0.00e+00	0	44	0	1906311168	42	4228
2026-01-16 13:35:59.05	101.38	40.45	-36.5	-37.4	22.3	0.00e+00	0	44	0	1913651200	42	4203
2026-01-16 13:36:00.04	101.01	40.62	-36.4	-37.2	22.4	0.00e+00	0	44	0	1920991232	42	4130
2026-01-16 13:36:01.03	100.64	40.78	-36.4	-37.2	22.4	0.00e+00	0	44	0	1928331264	42	4119
2026-01-16 13:36:02.03	100.26	40.94	-36.1	-36.9	22.7	0.00e+00	0	44	0	1935671296	42	3992
2026-01-16 13:36:03.03	99.88	41.11	-36.3	-37.1	22.5	0.00e+00	0	44	0	1941962752	42	4089
2026-01-16 13:36:04.02	99.49	41.27	-36.2	-37.0	22.6	0.00e+00	0	44	0	1949302784	42	4028
2026-01-16 13:36:05.01	99.10	41.43	-36.2	-37.0	22.5	0.00e+00	0	44	0	1956642816	42	4027
2026-01-16 13:36:06.01	98.71	41.59	-36.1	-37.0	22.6	0.00e+00	0	44	0	1963982848	42	4016
2026-01-16 13:36:07.00	98.31	41.75	-35.9	-36.8	22.8	0.00e+00	0	44	0	1971322880	42	3918
2026-01-16 13:36:08.00	97.91	41.91	-35.9	-36.7	22.9	0.00e+00	0	44	0	1978662912	42	3897
2026-01-16 13:36:09.00	97.50	42.07	-35.8	-36.6	23.0	0.00e+00	0	44	0	1986002944	42	3843
2026-01-16 13:36:09.99	97.09	42.22	-35.7	-36.5	23.0	0.00e+00	0	44	0	1992294400	42	3814
2026-01-16 13:36:10.99	96.67	42.38	-35.8	-36.6	22.9	0.00e+00	0	44	0	1999634432	42	3854
2026-01-16 13:36:11.98	96.26	42.53	-35.8	-36.6	22.9	0.00e+00	0	44	0	2006974464	42	3864
2026-01-16 13:36:12.97	95.84	42.69	-35.7	-36.6	23.0	0.00e+00	0	44	0	2014314496	42	3831
2026-01-16 13:36:13.97	95.41	42.84	-35.9	-36.7	22.9	0.00e+00	0	44	0	2021654528	42	3896
2026-01-16 13:36:14.96	94.98	42.99	-36.0	-36.8	22.8	0.00e+00	0	44	0	2028994560	42	3952
2026-01-16 13:36:15.96	94.54	43.14	-36.0	-36.8	22.8	0.00e+00	0	44	0	2036334592	42	3949
2026-01-16 13:36:16.95	94.11	43.29	-36.2	-37.0	22.6	0.00e+00	0	44	0	2042626048	42	4026
2026-01-16 13:36:17.95	93.66	43.44	-36.1	-36.9	22.7	0.00e+00	0	44	0	2049966080	42	4001
2026-01-16 13:36:18.94	93.22	43.58	-35.9	-36.7	22.8	0.00e+00	0	44	0	2057306112	42	3899
2026-01-16 13:36:19.94	92.76	43.73	-35.9	-36.7	22.9	0.00e+00	0	44	0	2064646144	42	3898
2026-01-16 13:36:20.93	92.31	43.87	-35.9	-36.7	22.9	0.00e+00	0	44	0	2071986176	42	3890
2026-01-16 13:36:21.93	91.85	44.01	-35.8	-36.7	22.9	0.00e+00	0	44	0	2079326208	42	3873
2026-01-16 13:36:22.92	91.39	44.15	-36.1	-36.9	22.6	0.00e+00	0	44	0	2085617664	42	3983
2026-01-16 13:36:23.92	90.92	44.29	-36.0	-36.8	22.7	0.00e+00	0	44	0	2092957696	42	3956
2026-01-16 13:36:24.91	90.45	44.43	-36.1	-36.9	22.7	0.00e+00	0	44	0	2100297728	42	3984
2026-01-16 13:36:25.91	89.97	44.56	-36.2	-37.1	22.5	0.00e+00	0	44	0	2107637760	42	4071
2026-01-16 13:36:26.90	89.50	44.70	-36.4	-37.2	22.4	0.00e+00	0	44	0	2114977792	42	4132
2026-01-16 13:36:27.89	89.02	44.83	-36.3	-37.1	22.5	0.00e+00	0	44	0	2122317824	42	4091
2026-01-16 13:36:28.89	88.53	44.96	-36.5	-37.4	22.3	0.00e+00	0	44	0	2128609280	42	4198
2026-01-16 13:36:29.88	88.04	45.08	-36.5	-37.3	22.3	0.00e+00	0	44	0	2135949312	42	4187
2026-01-16 13:36:30.88	87.54	45.21	-36.4	-37.3	22.4	0.00e+00	0	44	0	2143289344	42	4153
2026-01-16 13:36:31.87	87.05	45.33	-36.4	-37.3	22.4	0.00e+00	0	44	0	2150629376	42	4161
2026-01-16 13:36:32.87	86.54	45.45	-36.3	-37.1	22.5	0.00e+00	0	44	0	2157969408	42	4098
2026-01-16 13:36:33.86	86.04	45.57	-36.1	-36.9	22.7	0.00e+00	0	44	0	2165309440	42	3997
2026-01-16 13:36:34.86	85.52	45.69	-36.0	-36.8	22.8	0.00e+00	0	44	0	2172649472	42	3931
2026-01-16 13:36:35.85	85.01	45.81	-36.1	-37.0	22.7	0.00e+00	0	44	0	2179989504	42	4005
2026-01-16 13:36:36.84	84.50	45.92	-36.3	-37.2	22.5	0.00e+00	0	44	0	2186280960	42	4125
2026-01-16 13:36:37.84	83.97	46.03	-36.7	-37.6	22.2	0.00e+00	0	44	0	2193620992	42	4292
2026-01-16 13:36:38.83	83.45	46.14	-36.8	-37.7	22.0	0.00e+00	0	44	0	2200961024	43	4138
2026-01-16 13:36:39.83	82.92	46.24	-36.9	-37.8	21.9	0.00e+00	0	44	0	2208301056	43	4168
2026-01-16 13:36:40.82	82.39	46.35	-36.8	-37.7	22.1	0.00e+00	0	44	0	2215641088	43	4114
2026-01-16 13:36:41.82	81.85	46.45	-36.5	-37.3	22.4	0.00e+00	0	44	0	2222981120	43	3951
2026-01-16 13:36:42.81	81.31	46.55	-36.3	-37.2	22.5	0.00e+00	0	44	0	2229272576	43	3889
2026-01-16 13:36:43.81	80.77	46.64	-36.4	-37.2	22.4	0.00e+00	0	44	0	2236612608	43	3907
2026-01-16 13:36:44.80	80.22	46.74	-36.6	-37.4	22.2	0.00e+00	0	44	0	2243952640	43	4001
2026-01-16 13:36:45.80	79.67	46.83	-36.8	-37.7	22.0	0.00e+00	0	44	0	2251292672	43	4115
2026-01-16 13:36:46.79	79.12	46.91	-36.9	-37.8	21.9	0.00e+00	0	44	0	2258632704	43	4149
2026-01-16 13:36:47.78	78.57	47.00	-36.9	-37.8	21.9	0.00e+00	0	44	0	2264924160	43	4157
2026-01-16 13:36:48.78	78.01	47.08	-36.7	-37.6	22.1	0.00e+00	0	44	0	2272264192	43	4065
2026-01-16 13:36:49.78	77.44	47.16	-36.5	-37.3	22.4	0.00e+00	0	44	0	2279604224	43	3941
2026-01-16 13:36:50.77	76.88	47.24	-36.2	-37.0	22.6	0.00e+00	0	44	0	2286944256	43	3824
2026-01-16 13:36:51.77	76.31	47.31	-36.1	-36.9	22.7	0.00e+00	0	44	0	2294284288	42	3989
2026-01-16 13:36:52.76	75.75	47.38	-36.2	-37.0	22.6	0.00e+00	0	44	0	2301624320	42	4040
2026-01-16 13:36:53.75	75.18	47.45	-36.3	-37.1	22.6	0.00e+00	0	44	0	2308964352	42	4090
2026-01-16 13:36:54.75	74.60	47.51	-36.5	-37.3	22.4	0.00e+00	0	44	0	2316304384	42	4176
2026-01-16 13:36:55.74	74.03	47.58	-36.6	-37.5	22.2	0.00e+00	0	44	0	2323644416	42	4264
2026-01-16 13:36:56.74	73.44	47.63	-36.7	-37.6	22.1	0.00e+00	0	44	0	2329935872	42	4298
2026-01-16 13:36:57.74	72.86	47.69	-36.7	-37.5	22.2	0.00e+00	0	44	0	2337275904	43	4036
2026-01-16 13:36:58.73	72.28	47.74	-36.6	-37.4	22.2	0.00e+00	0	44	0	2344615936	43	3996
2026-01-16 13:36:59.72	71.70	47.79	-36.5	-37.3	22.3	0.00e+00	0	44	0	2351955968	43	3945
2026-01-16 13:37:00.72	71.11	47.84	-36.3	-37.2	22.5	0.00e+00	0	44	0	2359296000	43	3874
2026-01-16 13:37:01.71	70.52	47.88	-36.5	-37.3	22.4	0.00e+00	0	44	0	2366636032	43	3929
2026-01-16 13:37:02.71	69.93	47.92	-36.7	-37.5	22.2	0.00e+00	0	44	0	2372927488	43	4038
2026-01-16 13:37:03.70	69.34	47.95	-36.8	-37.6	22.1	0.00e+00	0	44	0	2380267520	43	4079
2026-01-16 13:37:04.70	68.74	47.99	-36.7	-37.5	22.2	0.00e+00	0	44	0	2387607552	43	4047
2026-01-16 13:37:05.69	68.15	48.02	-36.6	-37.5	22.2	0.00e+00	0	44	0	2394947584	43	4024
2026-01-16 13:37:06.69	67.56	48.04	-36.5	-37.4	22.3	0.00e+00	0	44	0	2402287616	43	3970
2026-01-16 13:37:07.68	66.96	48.07	-36.6	-37.5	22.2	0.00e+00	0	44	0	2408579072	43	4024
2026-01-16 13:37:08.68	66.36	48.09	-36.9	-37.7	22.0	0.00e+00	0	44	0	2415919104	43	4128
2026-01-16 13:37:09.67	65.77	48.10	-36.7	-37.5	22.1	0.00e+00	0	44	0	2423259136	43	4043
2026-01-16 13:37:10.67	65.17	48.11	-36.8	-37.7	22.0	0.00e+00	0	44	0	2430599168	43	4108
2026-01-16 13:37:11.66	64.57	48.12	-36.9	-37.7	22.0	0.00e+00	0	44	0	2437939200	43	4144
2026-01-16 13:37:12.66	63.97	48.13	-36.9	-37.8	21.9	0.00e+00	0	44	0	2445279232	43	4166
2026-01-16 13:37:13.65	63.38	48.13	-36.8	-37.6	22.1	0.00e+00	0	44	0	2452619264	43	4078
2026-01-16 13:37:14.65	62.77	48.13	-36.5	-37.4	22.3	0.00e+00	0	44	0	2459959296	43	3969
2026-01-16 13:37:15.64	62.18	48.13	-36.6	-37.4	22.3	0.00e+00	0	44	0	2466250752	43	3981
2026-01-16 13:37:16.64	61.58	48.12	-36.6	-37.4	22.3	0.00e+00	0	44	0	2473590784	43	3991
2026-01-16 13:37:17.63	60.98	48.11	-36.6	-37.5	22.2	0.00e+00	0	44	0	2480930816	43	4016
2026-01-16 13:37:18.63	60.38	48.09	-36.8	-37.7	22.1	0.00e+00	0	44	0	2488270848	43	4113
2026-01-16 13:37:19.62	59.79	48.08	-37.0	-37.8	21.9	0.00e+00	0	44	0	2495610880	43	4186
2026-01-16 13:37:20.62	59.19	48.05	-36.9	-37.7	22.0	0.00e+00	0	44	0	2502950912	43	4128
2026-01-16 13:37:21.61	58.60	48.03	-36.9	-37.8	21.9	0.00e+00	0	44	0	2510290944	43	4156
2026-01-16 13:37:22.61	58.00	48.00	-36.8	-37.7	22.1	0.00e+00	0	44	0	2516582400	43	4112
2026-01-16 13:37:23.60	57.41	47.97	-36.9	-37.7	22.1	0.00e+00	0	44	0	2523922432	43	4125
2026-01-16 13:37:24.60	56.81	47.94	-36.8	-37.7	22.1	0.00e+00	0	44	0	2531262464	43	4106
2026-01-16 13:37:25.59	56.23	47.90	-36.8	-37.7	22.0	0.00e+00	0	44	0	2538602496	43	4120
2026-01-16 13:37:26.59	55.64	47.86	-36.9	-37.8	22.0	0.00e+00	0	44	0	2545942528	43	4178
2026-01-16 13:37:27.58	55.05	47.81	-36.8	-37.6	22.1	0.00e+00	0	44	0	2552233984	43	4095
2026-01-16 13:37:28.57	54.47	47.77	-36.8	-37.7	22.1	0.00e+00	0	44	0	2559574016	43	4114
2026-01-16 13:37:29.57	53.88	47.72	-36.6	-37.5	22.2	0.00e+00	0	44	0	2566914048	43	4009
2026-01-16 13:37:30.56	53.30	47.66	-36.6	-37.5	22.2	0.00e+00	0	44	0	2574254080	43	4020
2026-01-16 13:37:31.56	52.72	47.60	-36.5	-37.3	22.4	0.00e+00	0	44	0	2581594112	43	3952
2026-01-16 13:37:32.55	52.15	47.54	-36.4	-37.2	22.5	0.00e+00	0	44	0	2588934144	43	3890
2026-01-16 13:37:33.55	51.57	47.48	-36.4	-37.3	22.4	0.00e+00	0	44	0	2596274176	43	3921
2026-01-16 13:37:34.54	51.00	47.42	-36.4	-37.2	22.5	0.00e+00	0	44	0	2603614208	43	3891
2026-01-16 13:37:35.54	50.43	47.35	-36.5	-37.4	22.3	0.00e+00	0	44	0	2609905664	43	3973
2026-01-16 13:37:36.53	49.86	47.27	-36.6	-37.5	22.2	0.00e+00	0	44	0	2617245696	43	4014
2026-01-16 13:37:37.53	49.29	47.20	-36.7	-37.5	22.2	0.00e+00	0	44	0	2624585728	43	4027
2026-01-16 13:37:38.52	48.73	47.12	-36.5	-37.4	22.3	0.00e+00	0	44	0	2631925760	43	3963
2026-01-16 13:37:39.52	48.17	47.04	-36.3	-37.2	22.5	0.00e+00	0	44	0	2639265792	43	3875
2026-01-16 13:37:40.51	47.62	46.96	-36.0	-36.8	22.8	0.00e+00	0	44	0	2646605824	42	3947
2026-01-16 13:37:41.51	47.06	46.87	-35.9	-36.7	22.9	0.00e+00	0	44	0	2653945856	42	3910
2026-01-16 13:37:42.50	46.52	46.78	-35.9	-36.7	22.9	0.00e+00	0	44	0	2660237312	42	3881
2026-01-16 13:37:43.49	45.97	46.69	-35.9	-36.7	22.8	0.00e+00	0	44	0	2667577344	42	3904
2026-01-16 13:37:44.49	45.43	46.60	-36.2	-37.0	22.6	0.00e+00	0	44	0	2674917376	42	4050
2026-01-16 13:37:45.48	44.89	46.50	-36.3	-37.2	22.5	0.00e+00	0	44	0	2682257408	42	4114
2026-01-16 13:37:46.48	44.35	46.40	-36.3	-37.1	22.5	0.00e+00	0	44	0	2689597440	42	4090
2026-01-16 13:37:47.47	43.82	46.30	-36.2	-37.0	22.6	0.00e+00	0	44	0	2695888896	42	4044
2026-01-16 13:37:48.47	43.29	46.19	-36.2	-37.0	22.6	0.00e+00	0	44	0	2703228928	42	4027
2026-01-16 13:37:49.46	42.76	46.09	-36.2	-37.0	22.6	0.00e+00	0	44	0	2710568960	42	4047
2026-01-16 13:37:50.46	42.24	45.98	-36.2	-37.0	22.6	0.00e+00	0	44	0	2717908992	42	4051
2026-01-16 13:37:51.45	41.72	45.86	-36.2	-37.1	22.6	0.00e+00	0	44	0	2725249024	42	4052
2026-01-16 13:37:52.45	41.20	45.75	-36.2	-37.0	22.6	0.00e+00	0	44	0	2732589056	42	4042
2026-01-16 13:37:53.44	40.69	45.63	-36.3	-37.1	22.5	0.00e+00	0	44	0	2738880512	42	4074
2026-01-16 13:37:54.43	40.19	45.52	-36.2	-37.0	22.6	0.00e+00	0	44	0	2746220544	42	4047
2026-01-16 13:37:55.43	39.68	45.40	-36.3	-37.1	22.5	0.00e+00	0	44	0	2753560576	42	4079
2026-01-16 13:37:56.42	39.18	45.27	-36.3	-37.1	22.6	0.00e+00	0	44	0	2760900608	42	4079
2026-01-16 13:37:57.42	38.69	45.15	-36.1	-36.9	22.7	0.00e+00	0	44	0	2768240640	42	3976
2026-01-16 13:37:58.41	38.20	45.02	-36.0	-36.9	22.7	0.00e+00	0	44	0	2775580672	42	3963
2026-01-16 13:37:59.41	37.71	44.89	-36.0	-36.8	22.8	0.00e+00	0	44	0	2782920704	42	3924
2026-01-16 13:38:00.40	37.22	44.76	-35.9	-36.7	22.9	0.00e+00	0	44	0	2790260736	42	3888
2026-01-16 13:38:01.40	36.74	44.63	-36.1	-36.9	22.7	0.00e+00	0	44	0	2797600768	42	3980
2026-01-16 13:38:02.39	36.27	44.50	-36.2	-37.0	22.6	0.00e+00	0	44	0	2803892224	42	4020
2026-01-16 13:38:03.38	35.80	44.36	-36.2	-37.0	22.5	0.00e+00	0	44	0	2811232256	42	4033
2026-01-16 13:38:04.38	35.33	44.23	-36.4	-37.2	22.5	0.00e+00	0	44	0	2818572288	42	4128
2026-01-16 13:38:05.38	34.86	44.09	-36.3	-37.2	22.4	0.00e+00	0	44	0	2825912320	42	4102
2026-01-16 13:38:06.37	34.40	43.95	-36.0	-36.9	22.8	0.00e+00	0	44	0	2833252352	42	3963
2026-01-16 13:38:07.36	33.95	43.81	-35.9	-36.7	22.9	0.00e+00	0	44	0	2839543808	42	3879
2026-01-16 13:38:08.36	33.50	43.66	-35.8	-36.6	22.9	0.00e+00	0	44	0	2846883840	42	3866
2026-01-16 13:38:09.36	33.05	43.52	-35.8	-36.6	22.9	0.00e+00	0	44	0	2854223872	42	3861
2026-01-16 13:38:10.35	32.61	43.37	-35.8	-36.6	22.9	0.00e+00	0	44	0	2861563904	42	3864
2026-01-16 13:38:11.34	32.17	43.22	-35.8	-36.6	22.9	0.00e+00	0	44	0	2868903936	42	3848
2026-01-16 13:38:12.34	31.73	43.07	-35.8	-36.6	22.9	0.00e+00	0	44	0	2876243968	42	3865
2026-01-16 13:38:13.33	31.30	42.92	-36.0	-36.8	22.7	0.00e+00	0	44	0	2882535424	42	3947
2026-01-16 13:38:14.33	30.87	42.77	-36.0	-36.8	22.7	0.00e+00	0	44	0	2889875456	42	3951
2026-01-16 13:38:15.32	30.45	42.62	-36.0	-36.8	22.7	0.00e+00	0	44	0	2897215488	42	3943
2026-01-16 13:38:16.32	30.03	42.47	-36.0	-36.8	22.7	0.00e+00	0	44	0	2904555520	42	3930
2026-01-16 13:38:17.31	29.62	42.31	-35.9	-36.7	22.8	0.00e+00	0	44	0	2911895552	42	3896
2026-01-16 13:38:18.31	29.20	42.16	-35.8	-36.6	22.9	0.00e+00	0	44	0	2919235584	42	3862
2026-01-16 13:38:19.30	28.80	42.00	-35.9	-36.7	22.8	0.00e+00	0	44	0	2926575616	42	3891
2026-01-16 13:38:20.30	28.39	41.84	-36.0	-36.8	22.7	0.00e+00	0	44	0	2933915648	42	3953
2026-01-16 13:38:21.29	28.00	41.68	-36.1	-36.9	22.7	0.00e+00	0	44	0	2940207104	42	3982
2026-01-16 13:38:22.29	27.60	41.52	-36.0	-36.8	22.8	0.00e+00	0	44	0	2947547136	42	3938
2026-01-16 13:38:23.28	27.21	41.36	-35.8	-36.7	22.9	0.00e+00	0	44	0	2954887168	42	3880
2026-01-16 13:38:24.28	26.82	41.20	-35.6	-36.4	22.6	0.00e+00	0	44	0	2962227200	42	3755
2026-01-16 13:38:25.27	26.44	41.04	-35.5	-36.3	23.1	0.00e+00	0	44	0	2969567232	41	3950
2026-01-16 13:38:26.26	26.06	40.88	-35.5	-36.3	23.2	0.00e+00	0	44	0	2976907264	41	3916
2026-01-16 13:38:27.26	25.68	40.71	-35.6	-36.4	23.1	0.00e+00	0	44	0	2983198720	41	3964
2026-01-16 13:38:28.25	25.31	40.55	-35.7	-36.5	23.0	0.00e+00	0	44	0	2990538752	41	4017
2026-01-16 13:38:29.25	24.94	40.39	-35.9	-36.7	22.9	0.00e+00	0	44	0	2997878784	41	4115
2026-01-16 13:38:30.24	24.58	40.22	-35.8	-36.6	22.9	0.00e+00	0	44	0	3005218816	41	4092
2026-01-16 13:38:31.24	24.22	40.06	-35.9	-36.7	22.8	0.00e+00	0	44	0	3012558848	41	4122
2026-01-16 13:38:32.23	23.86	39.89	-35.9	-36.7	22.9	0.00e+00	0	44	0	3019898880	41	4119
2026-01-16 13:38:33.23	23.51	39.72	-35.8	-36.6	23.0	0.00e+00	0	44	0	3026190336	41	4073
2026-01-16 13:38:34.22	23.16	39.56	-35.8	-36.7	22.8	0.00e+00	0	44	0	3033530368	41	4109
2026-01-16 13:38:35.21	22.82	39.39	-35.9	-36.7	22.8	0.00e+00	0	44	0	3040870400	41	4141
2026-01-16 13:38:36.21	22.47	39.22	-35.9	-36.7	22.9	0.00e+00	0	44	0	3048210432	41	4119
2026-01-16 13:38:37.20	22.13	39.05	-35.8	-36.6	23.0	0.00e+00	0	44	0	3055550464	41	4064
2026-01-16 13:38:38.20	21.80	38.89	-35.8	-36.6	22.9	0.00e+00	0	44	0	3062890496	41	4093
2026-01-16 13:38:39.19	21.47	38.72	-35.9	-36.7	22.8	0.00e+00	0	44	0	3070230528	41	4143
2026-01-16 13:38:40.19	21.14	38.55	-36.1	-36.9	22.7	0.00e+00	0	44	0	3076521984	41	4229
2026-01-16 13:38:41.18	20.81	38.38	-36.1	-37.0	22.6	0.00e+00	0	44	0	3083862016	41	4253
2026-01-16 13:38:42.18	20.49	38.21	-36.0	-36.9	22.7	0.00e+00	0	44	0	3091202048	41	4213
2026-01-16 13:38:43.17	20.17	38.04	-35.9	-36.7	22.8	0.00e+00	0	44	0	3098542080	41	4139
2026-01-16 13:38:44.16	19.86	37.87	-35.8	-36.7	22.9	0.00e+00	0	44	0	3105882112	41	4100
2026-01-16 13:38:45.16	19.55	37.70	-35.5	-36.3	22.8	0.00e+00	0	44	0	3113222144	41	3939
2026-01-16 13:38:46.15	19.24	37.53	-35.7	-36.6	23.0	0.00e+00	0	44	0	3120562176	41	4061
2026-01-16 13:38:47.15	18.93	37.36	-35.7	-36.5	23.0	0.00e+00	0	44	0	3126853632	41	4040
2026-01-16 13:38:48.14	18.63	37.19	-35.6	-36.5	23.0	0.00e+00	0	44	0	3134193664	41	4016
2026-01-16 13:38:49.14	18.33	37.02	-35.3	-36.2	23.3	0.00e+00	0	44	0	3141533696	41	3869
2026-01-16 13:38:50.13	18.04	36.85	-35.4	-36.2	23.2	0.00e+00	0	44	0	3148873728	41	3890
2026-01-16 13:38:51.13	17.74	36.68	-35.3	-36.1	23.3	0.00e+00	0	44	0	3156213760	41	3866
2026-01-16 13:38:52.12	17.45	36.51	-35.3	-36.1	23.3	0.00e+00	0	44	0	3163553792	41	3841
2026-01-16 13:38:53.12	17.17	36.34	-35.3	-36.1	23.3	0.00e+00	0	44	0	3169845248	41	3838
2026-01-16 13:38:54.11	16.88	36.17	-35.4	-36.3	23.2	0.00e+00	0	44	0	3177185280	41	3918
2026-01-16 13:38:55.11	16.60	36.00	-35.6	-36.4	23.1	0.00e+00	0	44	0	3184525312	41	3996
2026-01-16 13:38:56.10	16.33	35.83	-35.6	-36.5	23.0	0.00e+00	0	44	0	3191865344	41	4012
2026-01-16 13:38:57.10	16.05	35.66	-35.6	-36.4	23.1	0.00e+00	0	44	0	3199205376	41	3984
2026-01-16 13:38:58.09	15.78	35.50	-35.6	-36.5	23.0	0.00e+00	0	44	0	3206545408	41	4011
2026-01-16 13:38:59.09	15.51	35.33	-35.6	-36.4	23.1	0.00e+00	0	44	0	3212836864	41	3995
2026-01-16 13:39:00.08	15.25	35.16	-35.7	-36.5	23.0	0.00e+00	0	44	0	3220176896	41	4016
2026-01-16 13:39:01.08	14.98	34.99	-35.7	-36.5	23.0	0.00e+00	0	44	0	3227516928	41	4030
2026-01-16 13:39:02.07	14.72	34.82	-35.4	-36.2	23.2	0.00e+00	0	44	0	3234856960	41	3908
2026-01-16 13:39:03.07	14.46	34.65	-35.4	-36.2	23.2	0.00e+00	0	44	0	3242196992	41	3883
2026-01-16 13:39:04.06	14.21	34.48	-35.4	-36.2	23.3	0.00e+00	0	44	0	3249537024	41	3880
2026-01-16 13:39:05.06	13.95	34.32	-35.5	-36.3	23.2	0.00e+00	0	44	0	3256877056	41	3928
2026-01-16 13:39:06.05	13.71	34.15	-35.6	-36.5	23.1	0.00e+00	0	44	0	3264217088	41	4005
2026-01-16 13:39:07.04	13.46	33.98	-35.7	-36.5	23.0	0.00e+00	0	44	0	3270508544	41	4045
2026-01-16 13:39:08.04	13.21	33.81	-35.6	-36.4	23.1	0.00e+00	0	44	0	3277848576	41	3984
2026-01-16 13:39:09.03	12.97	33.65	-35.3	-36.2	23.3	0.00e+00	0	44	0	3285188608	41	3871
2026-01-16 13:39:10.03	12.73	33.48	-35.1	-35.9	23.5	0.00e+00	0	44	0	3292528640	41	3776
2026-01-16 13:39:11.02	12.49	33.32	-35.2	-36.0	23.4	0.00e+00	0	44	0	3299868672	40	4013
2026-01-16 13:39:12.02	12.26	33.15	-35.3	-36.1	23.3	0.00e+00	0	44	0	3307208704	40	4069
2026-01-16 13:39:13.01	12.03	32.99	-35.5	-36.3	23.1	0.00e+00	0	44	0	3313500160	40	4186
2026-01-16 13:39:14.01	11.80	32.82	-35.8	-36.6	22.9	0.00e+00	0	44	0	3320840192	40	4322
2026-01-16 13:39:15.00	11.57	32.66	-35.8	-36.6	22.6	0.00e+00	0	44	0	3328180224	41	4094
2026-01-16 13:39:16.00	11.34	32.49	-35.9	-36.7	22.8	0.00e+00	0	44	0	3335520256	41	4140
2026-01-16 13:39:16.99	11.12	32.33	-35.8	-36.6	22.8	0.00e+00	0	44	0	3342860288	41	4095
2026-01-16 13:39:17.98	10.90	32.17	-35.9	-36.7	22.8	0.00e+00	0	44	0	3349151744	41	4125
2026-01-16 13:39:18.98	10.68	32.00	-35.7	-36.5	22.9	0.00e+00	0	44	0	3356491776	41	4044
2026-01-16 13:39:19.98	10.46	31.84	-35.8	-36.6	22.9	0.00e+00	0	44	0	3363831808	41	4080
2026-01-16 13:39:20.97	10.25	31.68	-35.8	-36.6	22.9	0.00e+00	0	44	0	3371171840	41	4075
2026-01-16 13:39:21.96	10.04	31.52	-35.8	-36.6	22.9	0.00e+00	0	44	0	3378511872	41	4064
2026-01-16 13:39:22.96	9.83	31.36	-35.6	-36.4	23.1	0.00e+00	0	44	0	3385851904	41	3983
2026-01-16 13:39:23.95	9.62	31.20	-35.8	-36.6	22.9	0.00e+00	0	44	0	3393191936	41	4070
2026-01-16 13:39:24.95	9.41	31.04	-35.7	-36.5	23.0	0.00e+00	0	44	0	3400531968	41	4023
2026-01-16 13:39:25.94	9.21	30.88	-35.8	-36.6	22.9	0.00e+00	0	44	0	3406823424	41	4085
2026-01-16 13:39:26.94	9.01	30.72	-35.9	-36.8	22.7	0.00e+00	0	44	0	3414163456	41	4155
2026-01-16 13:39:27.93	8.81	30.56	-35.9	-36.7	22.8	0.00e+00	0	44	0	3421503488	41	4145
2026-01-16 13:39:28.92	8.61	30.40	-35.8	-36.7	22.8	0.00e+00	0	44	0	3428843520	41	4107
2026-01-16 13:39:29.92	8.42	30.24	-35.6	-36.5	22.9	0.00e+00	0	44	0	3436183552	41	4014
2026-01-16 13:39:30.92	8.22	30.08	-35.6	-36.4	23.0	0.00e+00	0	44	0	3443523584	41	4002
2026-01-16 13:39:31.91	8.03	29.93	-35.8	-36.6	22.9	0.00e+00	0	44	0	3450863616	41	4081
2026-01-16 13:39:32.91	7.84	29.77	-35.4	-36.2	23.2	0.00e+00	0	44	0	3457155072	41	3900
2026-01-16 13:39:33.90	7.65	29.62	-35.3	-36.1	23.3	0.00e+00	0	44	0	3464495104	41	3863
2026-01-16 13:39:34.89	7.47	29.46	-35.5	-36.3	23.2	0.00e+00	0	44	0	3471835136	41	3920
2026-01-16 13:39:35.89	7.28	29.31	-35.5	-36.4	23.1	0.00e+00	0	44	0	3479175168	41	3960
2026-01-16 13:39:36.88	7.10	29.15	-35.6	-36.4	23.1	0.00e+00	0	44	0	3486515200	41	3994
2026-01-16 13:39:37.87	6.92	29.00	-35.7	-36.6	22.9	0.00e+00	0	44	0	3492806656	41	4062
2026-01-16 13:39:38.87	6.74	28.85	-35.8	-36.7	22.8	0.00e+00	0	44	0	3500146688	41	4107
2026-01-16 13:39:39.86	6.56	28.69	-35.9	-36.7	22.8	0.00e+00	0	44	0	3507486720	41	4129
2026-01-16 13:39:40.86	6.39	28.54	-35.9	-36.8	22.7	0.00e+00	0	44	0	3514826752	41	4160
2026-01-16 13:39:41.85	6.21	28.39	-35.8	-36.7	22.8	0.00e+00	0	44	0	3522166784	41	4100
2026-01-16 13:39:42.85	6.04	28.24	-36.0	-36.8	22.7	0.00e+00	0	44	0	3529506816	41	4161
2026-01-16 13:39:43.84	5.87	28.09	-36.0	-36.9	22.6	0.00e+00	0	44	0	3535798272	41	4201
2026-01-16 13:39:44.84	5.70	27.94	-35.9	-36.8	22.8	0.00e+00	0	44	0	3543138304	41	4158
2026-01-16 13:39:45.83	5.53	27.79	-36.0	-36.9	22.7	0.00e+00	0	44	0	3550478336	41	4199
2026-01-16 13:39:46.82	5.37	27.64	-36.1	-36.9	22.6	0.00e+00	0	44	0	3557818368	41	4236
2026-01-16 13:39:47.82	5.20	27.49	-36.0	-36.8	22.7	0.00e+00	0	44	0	3565158400	41	4181
2026-01-16 13:39:48.81	5.04	27.34	-36.1	-36.9	22.6	0.00e+00	0	44	0	3572498432	41	4228
2026-01-16 13:39:49.80	4.88	27.20	-36.2	-37.0	22.5	0.00e+00	0	44	0	3579838464	41	4277
2026-01-16 13:39:50.80	4.72	27.05	-36.1	-37.0	22.5	0.00e+00	0	44	0	3587178496	41	4258
2026-01-16 13:39:51.79	4.56	26.90	-36.2	-37.0	22.5	0.00e+00	0	44	0	3594518528	41	4286
2026-01-16 13:39:52.79	4.41	26.76	-36.2	-37.0	22.5	0.00e+00	0	44	0	3600809984	41	4289
2026-01-16 13:39:53.78	4.25	26.61	-36.4	-37.2	22.4	0.00e+00	0	44	0	3608150016	42	4124
2026-01-16 13:39:54.78	4.10	26.47	-36.4	-37.3	22.3	0.00e+00	0	44	0	3615490048	42	4152
2026-01-16 13:39:55.77	3.94	26.32	-36.3	-37.2	22.4	0.00e+00	0	44	0	3622830080	42	4111
2026-01-16 13:39:56.77	3.79	26.18	-36.3	-37.2	22.4	0.00e+00	0	44	0	3630170112	42	4121
2026-01-16 13:39:57.76	3.64	26.04	-36.2	-37.1	22.5	0.00e+00	0	44	0	3636461568	42	4066
2026-01-16 13:39:58.75	3.50	25.90	-36.1	-37.0	22.6	0.00e+00	0	44	0	3643801600	42	4018
2026-01-16 13:39:59.75	3.35	25.75	-36.2	-37.1	22.5	0.00e+00	0	44	0	3651141632	42	4054
2026-01-16 13:40:00.74	3.20	25.61	-36.1	-36.9	22.6	0.00e+00	0	44	0	3658481664	42	3987
2026-01-16 13:40:01.74	3.06	25.47	-36.2	-37.0	22.5	0.00e+00	0	44	0	3665821696	42	4031
2026-01-16 13:40:02.73	2.92	25.33	-36.2	-37.0	22.5	0.00e+00	0	44	0	3673161728	42	4050
2026-01-16 13:40:03.73	2.77	25.19	-36.3	-37.1	22.4	0.00e+00	0	44	0	3679453184	42	4082
2026-01-16 13:40:04.72	2.63	25.05	-36.3	-37.2	22.4	0.00e+00	0	44	0	3686793216	42	4119
2026-01-16 13:40:05.72	2.49	24.91	-36.3	-37.2	22.4	0.00e+00	0	44	0	3694133248	42	4101
2026-01-16 13:40:06.71	2.36	24.77	-36.3	-37.2	22.3	0.00e+00	0	44	0	3701473280	42	4124
2026-01-16 13:40:07.71	2.22	24.64	-36.4	-37.3	22.3	0.00e+00	0	44	0	3708813312	42	4162
2026-01-16 13:40:08.70	2.08	24.50	-36.3	-37.2	22.4	0.00e+00	0	44	0	3716153344	42	4108
2026-01-16 13:40:09.70	1.95	24.36	-36.2	-37.1	22.4	0.00e+00	0	44	0	3723493376	42	4072
2026-01-16 13:40:10.69	1.82	24.23	-36.0	-36.9	22.6	0.00e+00	0	44	0	3730833408	42	3978
2026-01-16 13:40:11.69	1.68	24.09	-36.0	-36.8	22.7	0.00e+00	0	44	0	3737124864	42	3946
2026-01-16 13:40:12.69	1.55	23.96	-36.1	-36.9	22.6	0.00e+00	0	44	0	3744464896	42	3978
2026-01-16 13:40:13.68	1.42	23.82	-36.0	-36.8	22.6	0.00e+00	0	44	0	3751804928	42	3956
2026-01-16 13:40:14.68	1.30	23.69	-36.0	-36.8	22.7	0.00e+00	0	44	0	3759144960	42	3942
2026-01-16 13:40:15.67	1.17	23.56	-35.9	-36.7	22.8	0.00e+00	0	44	0	3766484992	42	3889
2026-01-16 13:40:16.67	1.04	23.42	-36.0	-36.8	22.7	0.00e+00	0	44	0	3773825024	42	3940
2026-01-16 13:40:17.66	0.92	23.29	-35.9	-36.8	22.7	0.00e+00	0	44	0	3780116480	42	3922
2026-01-16 13:40:18.65	0.79	23.16	-36.0	-36.9	22.7	0.00e+00	0	44	0	3787456512	42	3963
2026-01-16 13:40:19.65	0.67	23.03	-36.2	-37.0	22.5	0.00e+00	0	44	0	3794796544	42	4048
2026-01-16 13:40:20.64	0.55	22.90	-36.3	-37.2	22.4	0.00e+00	0	44	0	3802136576	42	4107
2026-01-16 13:40:21.64	0.43	22.77	-36.5	-37.3	22.3	0.00e+00	0	44	0	3809476608	42	4185
2026-01-16 13:40:22.63	0.31	22.64	-36.6	-37.5	22.1	0.00e+00	0	44	0	3816816640	42	4277
2026-01-16 13:40:23.63	0.19	22.51	-36.7	-37.6	22.0	0.00e+00	0	44	0	3823108096	43	4090
2026-01-16 13:40:24.62	0.07	22.38	-36.9	-37.8	21.9	0.00e+00	0	44	0	3830448128	43	4151
2026-01-16 13:40:25.62	359.95	22.25	-37.0	-37.9	21.7	0.00e+00	0	44	0	3837788160	43	4222
2026-01-16 13:40:26.61	359.84	22.12	-37.1	-38.0	21.7	0.00e+00	0	44	0	3845128192	43	4262
2026-01-16 13:40:27.61	359.72	22.00	-37.0	-37.9	21.8	0.00e+00	0	44	0	3852468224	43	4213
2026-01-16 13:40:28.60	359.61	21.87	-37.0	-37.9	21.6	0.00e+00	0	44	0	3859808256	43	4214
2026-01-16 13:40:29.60	359.50	21.74	-37.0	-37.9	21.7	0.00e+00	0	44	0	3867148288	43	4238
2026-01-16 13:40:30.59	359.38	21.62	-36.9	-37.8	21.8	0.00e+00	0	44	0	3873439744	43	4164
2026-01-16 13:40:31.59	359.27	21.49	-36.7	-37.6	21.9	0.00e+00	0	44	0	3880779776	43	4096
2026-01-16 13:40:32.58	359.16	21.37	-36.8	-37.7	21.9	0.00e+00	0	44	0	3888119808	43	4106
2026-01-16 13:40:33.57	359.05	21.25	-36.9	-37.8	21.8	0.00e+00	0	44	0	3895459840	43	4156
2026-01-16 13:40:34.57	358.95	21.12	-36.7	-37.5	22.0	0.00e+00	0	44	0	3902799872	43	4039
2026-01-16 13:40:35.56	358.84	21.00	-36.7	-37.5	22.0	0.00e+00	0	44	0	3910139904	43	4041
2026-01-16 13:40:36.56	358.73	20.88	-36.6	-37.5	22.1	0.00e+00	0	44	0	3917479936	43	4016
2026-01-16 13:40:37.55	358.63	20.75	-36.6	-37.4	22.1	0.00e+00	0	44	0	3923771392	43	3982
2026-01-16 13:40:38.55	358.52	20.63	-36.6	-37.5	22.1	0.00e+00	0	44	0	3931111424	43	4019
2026-01-16 13:40:39.54	358.42	20.51	-36.7	-37.6	22.0	0.00e+00	0	44	0	3938451456	43	4070
2026-01-16 13:40:40.53	358.31	20.39	-36.7	-37.6	22.0	0.00e+00	0	44	0	3945791488	43	4072
2026-01-16 13:40:41.53	358.21	20.27	-36.9	-37.8	21.8	0.00e+00	0	44	0	3953131520	43	4171
2026-01-16 13:40:42.52	358.11	20.15	-37.0	-37.8	21.8	0.00e+00	0	44	0	3960471552	43	4188
2026-01-16 13:40:43.52	358.01	20.03	-36.9	-37.8	21.8	0.00e+00	0	44	0	3966763008	43	4158
2026-01-16 13:40:44.51	357.91	19.91	-37.0	-37.9	21.7	0.00e+00	0	44	0	3974103040	43	4234
2026-01-16 13:40:45.50	357.81	19.80	-37.1	-38.0	21.6	0.00e+00	0	44	0	3981443072	43	4255
2026-01-16 13:40:46.50	357.71	19.68	-37.2	-38.1	21.5	0.00e+00	0	44	0	3988783104	43	4317
2026-01-16 13:40:47.49	357.62	19.56	-37.4	-38.3	21.5	0.00e+00	0	44	0	3996123136	44	4169
2026-01-16 13:40:48.49	357.52	19.44	-37.4	-38.3	21.4	0.00e+00	0	44	0	4003463168	44	4191
2026-01-16 13:40:49.49	357.42	19.33	-37.5	-38.4	21.4	0.00e+00	0	44	0	4009754624	44	4219
2026-01-16 13:40:50.48	357.33	19.21	-37.5	-38.5	21.4	0.00e+00	0	44	0	4017094656	44	4248
2026-01-16 13:40:51.48	357.23	19.10	-37.5	-38.5	21.3	0.00e+00	0	44	0	4024434688	44	4250
2026-01-16 13:40:52.47	357.14	18.98	-37.6	-38.5	21.3	0.00e+00	0	44	0	4031774720	44	4274
2026-01-16 13:40:53.46	357.05	18.87	-37.5	-38.5	21.3	0.00e+00	0	44	0	4039114752	44	4266
2026-01-16 13:40:54.46	356.95	18.75	-37.6	-38.5	21.3	0.00e+00	0	44	0	4046454784	44	4280
2026-01-16 13:40:55.45	356.86	18.64	-37.7	-38.7	21.2	0.00e+00	0	44	0	4053794816	44	4350
2026-01-16 13:40:56.45	356.77	18.53	-37.7	-38.6	21.2	0.00e+00	0	44	0	4061134848	44	4336
2026-01-16 13:40:57.44	356.68	18.41	-37.7	-38.6	21.2	0.00e+00	0	44	0	4067426304	44	4336
2026-01-16 13:40:58.44	356.59	18.30	-37.5	-38.5	21.3	0.00e+00	0	44	0	4074766336	44	4257
2026-01-16 13:40:59.43	356.50	18.19	-37.5	-38.4	21.4	0.00e+00	0	44	0	4082106368	44	4207
2026-01-16 13:41:00.42	356.42	18.08	-37.5	-38.4	21.4	0.00e+00	0	44	0	4089446400	44	4222
2026-01-16 13:41:01.42	356.33	17.97	-37.5	-38.4	21.4	0.00e+00	0	44	0	4096786432	44	4201
2026-01-16 13:41:02.41	356.24	17.86	-37.5	-38.4	21.4	0.00e+00	0	44	0	4104126464	44	4221
2026-01-16 13:41:03.41	356.15	17.75	-37.4	-38.3	21.4	0.00e+00	0	44	0	4110417920	44	4182
2026-01-16 13:41:04.40	356.07	17.64	-37.4	-38.3	21.2	0.00e+00	0	44	0	4117757952	44	4175
2026-01-16 13:41:05.40	355.98	17.53	-37.3	-38.2	21.5	0.00e+00	0	44	0	4125097984	44	4143
2026-01-16 13:41:06.39	355.90	17.42	-37.4	-38.4	21.4	0.00e+00	0	44	0	4132438016	44	4195
2026-01-16 13:41:07.39	355.82	17.31	-37.5	-38.4	21.4	0.00e+00	0	44	0	4139778048	44	4217
2026-01-16 13:41:08.38	355.73	17.20	-37.4	-38.3	21.4	0.00e+00	0	44	0	4146069504	44	4173
2026-01-16 13:41:09.38	355.65	17.09	-37.4	-38.4	21.3	0.00e+00	0	44	0	4153409536	44	4198
2026-01-16 13:41:10.37	355.57	16.99	-37.5	-38.5	21.3	0.00e+00	0	44	0	4160749568	44	4245
2026-01-16 13:41:11.36	355.49	16.88	-37.6	-38.5	21.3	0.00e+00	0	44	0	4168089600	44	4274
2026-01-16 13:41:12.36	355.41	16.77	-37.5	-38.4	21.4	0.00e+00	0	44	0	4175429632	44	4212
2026-01-16 13:41:13.35	355.33	16.67	-37.6	-38.5	21.3	0.00e+00	0	44	0	4182769664	44	4256
2026-01-16 13:41:14.35	355.25	16.56	-37.7	-38.6	21.2	0.00e+00	0	44	0	4190109696	44	4303
2026-01-16 13:41:15.34	355.17	16.46	-37.7	-38.6	21.2	0.00e+00	0	44	0	4197449728	44	4324
2026-01-16 13:41:16.33	355.09	16.35	-37.6	-38.6	21.2	0.00e+00	0	44	0	4203741184	44	4293
2026-01-16 13:41:17.33	355.01	16.25	-37.8	-38.7	21.0	0.00e+00	0	44	0	4211081216	45	4140
2026-01-16 13:41:18.32	354.94	16.14	-37.6	-38.6	21.2	0.00e+00	0	44	0	4218421248	45	4065
2026-01-16 13:41:19.32	354.86	16.04	-37.8	-38.8	21.0	0.00e+00	0	44	0	4225761280	45	4147
2026-01-16 13:41:20.32	354.78	15.94	-37.7	-38.7	21.1	0.00e+00	0	44	0	4233101312	45	4112
2026-01-16 13:41:21.31	354.71	15.83	-37.9	-38.8	21.0	0.00e+00	0	44	0	4240441344	45	4187
2026-01-16 13:41:22.30	354.63	15.73	-38.0	-38.9	20.9	0.00e+00	0	44	0	4247781376	45	4230
2026-01-16 13:41:23.30	354.56	15.63	-38.1	-39.0	20.8	0.00e+00	0	44	0	4254072832	45	4278
2026-01-16 13:41:24.29	354.49	15.53	-37.9	-38.8	21.0	0.00e+00	0	44	0	4261412864	45	4187
2026-01-16 13:41:25.29	354.41	15.43	-38.0	-39.0	20.9	0.00e+00	0	44	0	4268752896	45	4250
2026-01-16 13:41:26.28	354.34	15.33	-38.0	-38.9	20.9	0.00e+00	0	44	0	4276092928	45	4236
2026-01-16 13:41:27.28	354.27	15.22	-38.2	-39.2	20.6	0.00e+00	0	44	0	4283432960	45	4362
2026-01-16 13:41:28.27	354.20	15.12	-38.1	-39.0	20.8	0.00e+00	0	44	0	4289724416	45	4277
2026-01-16 13:41:29.27	354.12	15.02	-38.0	-39.0	20.8	0.00e+00	0	44	0	4297064448	45	4274
2026-01-16 13:41:30.26	354.05	14.93	-38.1	-39.1	20.7	0.00e+00	0	44	0	4304404480	45	4310
2026-01-16 13:41:31.25	353.98	14.83	-38.2	-39.2	20.6	0.00e+00	0	44	0	4311744512	45	4356
2026-01-16 13:41:32.25	353.91	14.73	-38.2	-39.2	20.6	0.00e+00	0	44	0	4319084544	46	4113
2026-01-16 13:41:33.24	353.85	14.63	-38.2	-39.2	20.6	0.00e+00	0	44	0	4326424576	46	4113
2026-01-16 13:41:34.24	353.78	14.53	-38.3	-39.3	20.5	0.00e+00	0	44	0	4332716032	46	4157
2026-01-16 13:41:35.23	353.71	14.43	-38.3	-39.3	20.6	0.00e+00	0	44	0	4340056064	46	4151
2026-01-16 13:41:36.23	353.64	14.34	-38.4	-39.4	20.4	0.00e+00	0	44	0	4347396096	46	4227
2026-01-16 13:41:37.23	353.57	14.24	-38.4	-39.3	20.5	0.00e+00	0	44	0	4354736128	46	4193
2026-01-16 13:41:38.22	353.51	14.14	-38.4	-39.3	20.5	0.00e+00	0	44	0	4362076160	46	4189
2026-01-16 13:41:39.22	353.44	14.04	-38.5	-39.5	20.3	0.00e+00	0	44	0	4369416192	46	4284
2026-01-16 13:41:40.21	353.37	13.95	-38.5	-39.5	20.4	0.00e+00	0	44	0	4376756224	46	4244
2026-01-16 13:41:41.21	353.31	13.85	-38.5	-39.5	20.3	0.00e+00	0	44	0	4384096256	46	4275
2026-01-16 13:41:42.20	353.24	13.76	-38.4	-39.4	20.4	0.00e+00	0	44	0	4391436288	46	4217
2026-01-16 13:41:43.20	353.18	13.66	-38.5	-39.5	20.3	0.00e+00	0	44	0	4397727744	46	4282
2026-01-16 13:41:44.19	353.11	13.57	-38.5	-39.5	20.3	0.00e+00	0	44	0	4405067776	46	4268
2026-01-16 13:41:45.19	353.05	13.47	-38.5	-39.5	20.3	0.00e+00	0	44	0	4412407808	46	4277
2026-01-16 13:41:46.18	352.99	13.38	-38.7	-39.7	20.2	0.00e+00	0	44	0	4419747840	46	4345
2026-01-16 13:41:47.17	352.92	13.29	-38.6	-39.6	20.2	0.00e+00	0	44	0	4427087872	46	4304
2026-01-16 13:41:48.17	352.86	13.19	-38.7	-39.7	20.1	0.00e+00	0	44	0	4433379328	47	4125
2026-01-16 13:41:49.16	352.80	13.10	-38.7	-39.8	20.0	0.00e+00	0	44	0	4440719360	47	4150
2026-01-16 13:41:50.16	352.74	13.01	-38.5	-39.7	20.2	0.00e+00	0	44	0	4448059392	47	4102
2026-01-16 13:41:51.15	352.68	12.92	-38.7	-39.9	19.9	0.00e+00	0	44	0	4455399424	47	4205
2026-01-16 13:41:52.15	352.62	12.82	-38.6	-39.8	20.1	0.00e+00	0	44	0	4462739456	47	4147
2026-01-16 13:41:53.15	352.55	12.73	-38.8	-40.0	19.9	0.00e+00	0	44	0	4470079488	47	4244
2026-01-16 13:41:54.14	352.49	12.64	-38.9	-40.0	19.8	0.00e+00	0	44	0	4476370944	47	4286
2026-01-16 13:41:55.14	352.43	12.55	-38.9	-40.1	19.8	0.00e+00	0	44	0	4483710976	47	4301
2026-01-16 13:41:56.13	352.38	12.46	-39.1	-40.3	19.5	0.00e+00	0	44	0	4491051008	47	4413
2026-01-16 13:41:57.13	352.32	12.37	-39.1	-40.3	19.5	0.00e+00	0	44	0	4498391040	47	4436
2026-01-16 13:41:58.12	352.26	12.28	-39.1	-40.3	19.5	0.00e+00	0	44	0	4505731072	47	4431
2026-01-16 13:41:59.12	352.20	12.19	-39.1	-40.3	19.6	0.00e+00	0	44	0	4513071104	47	4406
2026-01-16 13:42:00.11	352.14	12.10	-39.1	-40.3	19.6	0.00e+00	0	44	0	4520411136	47	4413
2026-01-16 13:42:01.11	352.08	12.01	-39.2	-40.3	19.5	0.00e+00	0	44	0	4527751168	47	4441
2026-01-16 13:42:02.10	352.03	11.92	-39.3	-40.5	19.4	0.00e+00	0	44	0	4535091200	47	4497
2026-01-16 13:42:03.10	351.97	11.83	-39.6	-40.8	19.3	0.00e+00	0	44	0	4541382656	48	4441
2026-01-16 13:42:04.09	351.92	11.74	-39.5	-40.7	19.4	0.00e+00	0	44	0	4548722688	48	4386
2026-01-16 13:42:05.08	351.86	11.65	-39.5	-40.7	19.4	0.00e+00	0	44	0	4556062720	48	4373
2026-01-16 13:42:06.08	351.80	11.56	-39.4	-40.6	19.5	0.00e+00	0	44	0	4563402752	48	4317
2026-01-16 13:42:07.07	351.75	11.48	-39.5	-40.7	19.4	0.00e+00	0	44	0	4570742784	48	4376
2026-01-16 13:42:08.07	351.69	11.39	-39.4	-40.7	19.4	0.00e+00	0	44	0	4577034240	48	4352
2026-01-16 13:42:09.06	351.64	11.30	-39.4	-40.7	19.4	0.00e+00	0	44	0	4584374272	48	4389
2026-01-16 13:42:10.06	351.59	11.22	-39.3	-40.7	19.5	0.00e+00	0	44	0	4591714304	48	4345
2026-01-16 13:42:11.05	351.53	11.13	-39.5	-40.9	19.2	0.00e+00	0	44	0	4599054336	48	4458
2026-01-16 13:42:12.05	351.48	11.04	-39.3	-40.8	19.3	0.00e+00	0	44	0	4606394368	48	4409
2026-01-16 13:42:13.04	351.42	10.96	-39.3	-40.8	19.3	0.00e+00	0	44	0	4613734400	48	4415
2026-01-16 13:42:14.04	351.37	10.87	-39.3	-40.9	19.2	0.00e+00	0	44	0	4620025856	48	4471
2026-01-16 13:42:15.03	351.32	10.79	-39.3	-40.9	19.2	0.00e+00	0	44	0	4627365888	48	4484
2026-01-16 13:42:16.03	351.27	10.70	-39.3	-40.9	19.2	0.00e+00	0	44	0	4634705920	48	4474
2026-01-16 13:42:17.02	351.22	10.62	-39.2	-40.8	19.3	0.00e+00	0	44	0	4642045952	48	4426
2026-01-16 13:42:18.01	351.16	10.53	-39.2	-40.8	19.3	0.00e+00	0	44	0	4649385984	48	4409
2026-01-16 13:42:19.01	351.11	10.45	-39.1	-40.6	19.4	0.00e+00	0	44	0	4656726016	48	4332
2026-01-16 13:42:20.01	351.06	10.36	-39.6	-41.1	19.0	0.00e+00	0	44	0	4664066048	48	4585
