passes_logs/2026/01/16/T1/T1__20260116_114604_FENGYUN_3D_rec.log

#Pass ID: 20260116_114604_FENGYUN 3D
#Satellite: FENGYUN 3D
#Configuration: FENGYUN 3D
#almurnet v.1.7.20251203
#Start time: 2026-01-16 11:46:04

#Version: 2.0.20230620
#Station: T1
#Location: 37.570604 lon 55.790049 lat
#TLE: 1 43010U 17072A   26015.99024095 -.00000189  00000+0 -67463-4 0  9996
#TLE: 2 43010  98.9932 347.8215 0002366 106.5594 253.5841 14.19694691423396

#Time	Az	El	Level	Level2	SNR	BER	BlckErr	Temp	State	Recorded	gain1	gain2
2026-01-16 11:46:04.48	153.64	5.02	-49.8	-61.9	3.8	8.48e-01	0	41	0	0	71	14215
2026-01-16 11:46:05.47	153.63	5.09	-49.8	-61.7	3.8	8.48e-01	0	41	104	0	71	13900
2026-01-16 11:46:06.46	153.62	5.16	-49.8	-61.7	3.8	8.48e-01	0	41	104	0	71	14003
2026-01-16 11:46:07.45	153.61	5.23	-49.8	-61.9	3.8	8.47e-01	0	41	104	0	71	14237
2026-01-16 11:46:08.45	153.60	5.31	-49.8	-62.0	3.8	8.47e-01	0	41	104	0	71	14448
2026-01-16 11:46:09.44	153.59	5.38	-49.8	-62.1	3.8	8.48e-01	0	41	104	0	71	14658
2026-01-16 11:46:10.43	153.58	5.45	-49.9	-62.2	3.8	8.48e-01	0	41	104	0	71	14831
2026-01-16 11:46:11.43	153.57	5.52	-49.8	-62.3	3.8	8.46e-01	0	41	104	0	71	14997
2026-01-16 11:46:12.42	153.56	5.60	-49.9	-62.3	3.8	8.46e-01	0	41	104	0	71	14904
2026-01-16 11:46:13.41	153.55	5.67	-49.8	-62.1	3.8	8.47e-01	0	41	104	0	71	14640
2026-01-16 11:46:14.41	153.54	5.74	-49.8	-61.8	3.8	8.47e-01	0	41	104	0	71	14168
2026-01-16 11:46:15.40	153.53	5.82	-49.8	-61.4	3.8	8.46e-01	0	41	104	0	71	13538
2026-01-16 11:46:16.39	153.52	5.89	-49.7	-61.2	3.8	8.47e-01	0	41	104	0	71	13212
2026-01-16 11:46:17.39	153.51	5.96	-49.7	-60.8	3.8	8.46e-01	0	42	104	0	71	12575
2026-01-16 11:46:18.38	153.50	6.04	-49.6	-60.5	3.8	8.46e-01	0	42	104	0	71	12154
2026-01-16 11:46:19.37	153.49	6.11	-49.6	-60.3	3.8	8.47e-01	0	42	104	0	71	11946
2026-01-16 11:46:20.37	153.48	6.19	-49.6	-60.2	3.8	8.46e-01	0	41	104	0	71	11758
2026-01-16 11:46:21.36	153.47	6.26	-49.6	-60.2	3.8	8.45e-01	0	41	104	0	71	11814
2026-01-16 11:46:22.35	153.46	6.33	-49.6	-60.6	3.8	8.46e-01	0	42	104	0	71	12236
2026-01-16 11:46:23.34	153.45	6.41	-49.7	-60.9	3.8	8.47e-01	0	42	104	0	71	12697
2026-01-16 11:46:24.34	153.44	6.49	-49.8	-61.3	3.8	8.47e-01	0	42	104	0	71	13407
2026-01-16 11:46:25.33	153.43	6.56	-49.8	-61.8	3.8	8.48e-01	0	42	104	0	71	14093
2026-01-16 11:46:26.32	153.42	6.64	-49.8	-62.1	3.8	8.49e-01	0	42	104	0	71	14606
2026-01-16 11:46:27.31	153.41	6.71	-49.8	-62.3	3.8	8.47e-01	0	42	104	0	71	14957
2026-01-16 11:46:28.31	153.40	6.79	-49.8	-62.3	3.8	8.47e-01	0	42	104	0	71	14927
2026-01-16 11:46:29.30	153.39	6.86	-49.8	-62.2	3.8	8.47e-01	0	42	104	0	71	14741
2026-01-16 11:46:30.29	153.38	6.94	-49.8	-61.9	3.8	8.48e-01	0	42	104	0	71	14316
2026-01-16 11:46:31.29	153.37	7.02	-49.8	-61.5	3.8	8.47e-01	0	42	104	0	71	13687
2026-01-16 11:46:32.28	153.36	7.09	-49.7	-61.0	3.8	8.46e-01	0	42	104	0	71	12874
2026-01-16 11:46:33.27	153.35	7.17	-49.6	-60.4	3.8	8.46e-01	0	42	104	0	71	12085
2026-01-16 11:46:34.27	153.34	7.25	-49.5	-59.4	4.0	8.46e-01	0	42	104	0	71	10758
2026-01-16 11:46:35.26	153.33	7.33	-49.3	-58.0	4.4	8.37e-01	0	42	0	0	70	9625
2026-01-16 11:46:36.25	153.31	7.41	-49.0	-56.7	5.0	7.86e-01	0	42	0	0	70	8300
2026-01-16 11:46:37.25	153.30	7.48	-48.5	-54.9	6.2	5.80e-01	0	42	0	2097152	69	7197
2026-01-16 11:46:38.24	153.29	7.56	-48.0	-53.6	7.3	1.67e-01	0	42	0	7340032	68	6550
2026-01-16 11:46:39.23	153.28	7.64	-47.2	-51.9	8.9	5.09e-02	0	42	0	12582912	66	6001
2026-01-16 11:46:40.23	153.27	7.72	-46.5	-50.6	10.1	1.43e-02	0	42	0	17825792	65	5514
2026-01-16 11:46:41.22	153.26	7.80	-45.7	-49.1	11.8	1.26e-03	0	42	0	24117248	63	5216
2026-01-16 11:46:42.21	153.25	7.88	-45.0	-48.1	12.8	2.20e-04	0	42	0	29360128	62	4907
2026-01-16 11:46:43.20	153.23	7.96	-44.3	-47.3	13.7	2.05e-05	0	42	0	35651584	60	4984
2026-01-16 11:46:44.20	153.22	8.04	-43.7	-46.4	14.5	3.40e-06	0	42	0	40894464	59	4795
2026-01-16 11:46:45.19	153.21	8.12	-43.5	-46.1	14.8	0.00e+00	0	42	0	46137344	58	4887
2026-01-16 11:46:46.18	153.20	8.20	-43.3	-45.9	15.0	0.00e+00	0	42	0	52428800	58	4761
2026-01-16 11:46:47.17	153.19	8.28	-42.5	-44.9	15.9	0.00e+00	0	42	0	57671680	57	4545
2026-01-16 11:46:48.17	153.17	8.36	-42.8	-45.3	15.6	0.00e+00	0	42	0	62914560	56	4998
2026-01-16 11:46:49.16	153.16	8.44	-42.7	-45.1	15.8	0.00e+00	0	42	0	68157440	56	4914
2026-01-16 11:46:50.15	153.15	8.52	-43.2	-45.7	15.2	0.00e+00	0	42	0	74448896	56	5268
2026-01-16 11:46:51.15	153.14	8.60	-43.5	-46.2	14.8	0.00e+00	0	43	0	79691776	57	5223
2026-01-16 11:46:52.14	153.13	8.69	-43.9	-46.6	14.4	0.00e+00	0	42	0	85983232	58	5174
2026-01-16 11:46:53.13	153.11	8.77	-44.6	-47.6	13.4	8.00e-06	0	42	0	91226112	59	5474
2026-01-16 11:46:54.13	153.10	8.85	-45.1	-48.3	12.6	9.26e-05	0	43	0	96468992	60	5642
2026-01-16 11:46:55.12	153.09	8.93	-45.9	-49.5	11.5	8.22e-04	0	42	0	101711872	62	5737
2026-01-16 11:46:56.11	153.07	9.02	-46.7	-50.9	9.9	5.97e-03	0	43	0	108003328	64	6004
2026-01-16 11:46:57.11	153.06	9.10	-46.1	-49.9	11.0	2.56e-03	0	43	0	113246208	63	5685
2026-01-16 11:46:58.10	153.05	9.18	-48.9	-55.8	5.5	4.30e-01	0	43	0	118489088	68	8429
2026-01-16 11:46:59.09	153.04	9.27	-45.6	-49.1	11.8	1.06e-03	0	43	0	123731968	62	5503
2026-01-16 11:47:00.09	153.02	9.35	-40.9	-43.0	17.7	0.00e+00	0	43	0	130023424	53	4575
2026-01-16 11:47:01.08	153.01	9.44	-49.6	-60.3	3.8	5.81e-01	0	42	104	133169152	69	13285
2026-01-16 11:47:02.08	153.00	9.52	-40.8	-42.9	17.8	0.00e+00	0	43	0	136314880	53	4526
2026-01-16 11:47:03.08	152.98	9.61	-40.8	-42.9	17.8	0.00e+00	0	43	0	141557760	53	4538
2026-01-16 11:47:04.07	152.97	9.69	-40.4	-42.5	18.2	0.00e+00	0	42	0	146800640	52	4546
2026-01-16 11:47:05.06	152.96	9.78	-40.0	-42.0	18.7	0.00e+00	0	43	0	152043520	51	4587
2026-01-16 11:47:06.06	152.94	9.87	-39.9	-41.9	18.8	0.00e+00	0	43	0	158334976	51	4524
2026-01-16 11:47:07.05	152.93	9.95	-40.1	-42.1	18.6	0.00e+00	0	43	0	163577856	51	4651
2026-01-16 11:47:08.05	152.91	10.04	-39.8	-41.8	18.9	0.00e+00	0	43	0	169869312	51	4456
2026-01-16 11:47:09.04	152.90	10.12	-39.9	-41.9	18.8	0.00e+00	0	43	0	175112192	51	4511
2026-01-16 11:47:10.03	152.89	10.21	-40.1	-42.2	18.6	0.00e+00	0	43	0	180355072	51	4652
2026-01-16 11:47:11.03	152.87	10.30	-40.2	-42.2	18.6	0.00e+00	0	43	0	186646528	51	4660
2026-01-16 11:47:12.03	152.86	10.39	-40.2	-42.2	18.6	0.00e+00	0	43	0	191889408	51	4675
2026-01-16 11:47:13.02	152.84	10.48	-40.4	-42.4	18.4	0.00e+00	0	43	0	197132288	51	4803
2026-01-16 11:47:14.01	152.83	10.56	-40.2	-42.2	18.5	0.00e+00	0	43	0	202375168	51	4690
2026-01-16 11:47:15.01	152.81	10.65	-39.9	-41.9	18.9	0.00e+00	0	43	0	208666624	51	4498
2026-01-16 11:47:16.00	152.80	10.74	-39.8	-41.8	19.0	0.00e+00	0	43	0	213909504	51	4451
2026-01-16 11:47:17.00	152.79	10.83	-39.9	-41.9	18.9	0.00e+00	0	43	0	220200960	51	4503
2026-01-16 11:47:17.99	152.77	10.92	-39.6	-41.6	19.2	0.00e+00	0	43	0	225443840	51	4344
2026-01-16 11:47:18.99	152.76	11.01	-39.5	-41.4	19.3	0.00e+00	0	43	0	230686720	51	4282
2026-01-16 11:47:19.98	152.74	11.10	-39.4	-41.4	19.4	0.00e+00	0	43	0	236978176	50	4496
2026-01-16 11:47:20.98	152.72	11.19	-39.5	-41.5	19.3	0.00e+00	0	43	0	242221056	50	4567
2026-01-16 11:47:21.97	152.71	11.28	-39.5	-41.5	19.3	0.00e+00	0	43	0	247463936	50	4566
2026-01-16 11:47:22.96	152.69	11.38	-39.6	-41.6	19.2	0.00e+00	0	43	0	253755392	50	4627
2026-01-16 11:47:23.96	152.68	11.47	-39.3	-41.2	19.5	0.00e+00	0	43	0	258998272	50	4424
2026-01-16 11:47:24.95	152.66	11.56	-39.3	-41.3	19.5	0.00e+00	0	43	0	264241152	50	4453
2026-01-16 11:47:25.95	152.65	11.65	-39.4	-41.3	19.4	0.00e+00	0	43	0	270532608	50	4473
2026-01-16 11:47:26.94	152.63	11.75	-39.2	-41.2	19.5	0.00e+00	0	43	0	275775488	50	4407
2026-01-16 11:47:27.94	152.62	11.84	-39.3	-41.3	19.4	8.23e-05	0	43	0	281018368	50	4466
2026-01-16 11:47:28.93	152.60	11.93	-39.3	-41.2	19.5	0.00e+00	0	43	0	287309824	50	4415
2026-01-16 11:47:29.92	152.58	12.03	-39.4	-41.3	19.4	0.00e+00	0	43	0	292552704	50	4487
2026-01-16 11:47:30.92	152.57	12.12	-39.3	-41.2	19.5	0.00e+00	0	43	0	297795584	50	4414
2026-01-16 11:47:31.91	152.55	12.21	-39.2	-41.1	19.6	0.00e+00	0	43	0	304087040	50	4372
2026-01-16 11:47:32.91	152.53	12.31	-39.2	-41.2	19.6	0.00e+00	0	43	0	309329920	50	4399
2026-01-16 11:47:33.90	152.52	12.41	-39.3	-41.2	19.5	0.00e+00	0	43	0	314572800	50	4421
2026-01-16 11:47:34.88	152.50	12.50	-39.3	-41.3	19.5	0.00e+00	0	43	0	320864256	50	4449
2026-01-16 11:47:35.88	152.48	12.60	-39.1	-41.0	19.7	0.00e+00	0	43	0	326107136	50	4323
2026-01-16 11:47:36.87	152.47	12.69	-39.2	-41.2	19.6	0.00e+00	0	43	0	331350016	50	4401
2026-01-16 11:47:37.87	152.45	12.79	-39.1	-41.1	19.7	0.00e+00	0	43	0	337641472	50	4342
2026-01-16 11:47:38.86	152.43	12.89	-39.1	-41.0	19.7	0.00e+00	0	43	0	342884352	50	4329
2026-01-16 11:47:39.86	152.41	12.98	-38.9	-40.8	19.9	0.00e+00	0	43	0	348127232	49	4481
2026-01-16 11:47:40.86	152.40	13.08	-39.0	-40.9	19.8	0.00e+00	0	43	0	354418688	49	4512
2026-01-16 11:47:41.85	152.38	13.18	-39.1	-41.0	19.7	0.00e+00	0	43	0	359661568	49	4561
2026-01-16 11:47:42.85	152.36	13.28	-38.9	-40.8	19.9	0.00e+00	0	43	0	364904448	49	4480
2026-01-16 11:47:43.84	152.34	13.38	-38.9	-40.8	19.9	0.00e+00	0	43	0	371195904	49	4452
2026-01-16 11:47:44.84	152.32	13.48	-38.9	-40.8	19.8	0.00e+00	0	43	0	376438784	49	4458
2026-01-16 11:47:45.83	152.31	13.58	-38.9	-40.9	19.8	0.00e+00	0	43	0	381681664	49	4498
2026-01-16 11:47:46.83	152.29	13.68	-38.9	-40.8	19.9	0.00e+00	0	43	0	387973120	49	4490
2026-01-16 11:47:47.82	152.27	13.78	-38.8	-40.7	20.0	0.00e+00	0	43	0	393216000	49	4421
2026-01-16 11:47:48.82	152.25	13.88	-38.8	-40.7	20.0	0.00e+00	0	43	0	398458880	49	4440
2026-01-16 11:47:49.81	152.23	13.98	-38.8	-40.8	20.0	0.00e+00	0	43	0	404750336	49	4445
2026-01-16 11:47:50.80	152.21	14.09	-38.8	-40.7	20.0	0.00e+00	0	43	0	409993216	49	4392
2026-01-16 11:47:51.80	152.19	14.19	-38.5	-40.4	20.3	0.00e+00	0	43	0	415236096	48	4514
2026-01-16 11:47:52.79	152.17	14.29	-38.7	-40.6	20.1	0.00e+00	0	43	0	421527552	48	4626
2026-01-16 11:47:53.79	152.15	14.40	-38.4	-40.3	20.4	0.00e+00	0	43	0	426770432	48	4452
2026-01-16 11:47:54.78	152.13	14.50	-38.8	-40.7	20.0	0.00e+00	0	43	0	432013312	48	4679
2026-01-16 11:47:55.78	152.11	14.60	-38.6	-40.5	20.1	0.00e+00	0	43	0	438304768	48	4588
2026-01-16 11:47:56.77	152.09	14.71	-38.4	-40.3	20.4	0.00e+00	0	43	0	443547648	48	4472
2026-01-16 11:47:57.77	152.07	14.81	-38.6	-40.4	20.3	0.00e+00	0	43	0	448790528	48	4536
2026-01-16 11:47:58.76	152.05	14.92	-38.7	-40.6	20.1	0.00e+00	0	43	0	455081984	48	4604
2026-01-16 11:47:59.76	152.03	15.03	-38.6	-40.5	20.2	0.00e+00	0	43	0	460324864	48	4576
2026-01-16 11:48:00.75	152.01	15.13	-38.5	-40.4	20.3	0.00e+00	0	43	0	465567744	48	4511
2026-01-16 11:48:01.75	151.99	15.24	-38.6	-40.5	20.2	0.00e+00	0	43	0	471859200	48	4579
2026-01-16 11:48:02.74	151.97	15.35	-38.4	-40.2	20.4	0.00e+00	0	43	0	477102080	48	4432
2026-01-16 11:48:03.74	151.95	15.46	-38.2	-40.0	20.6	0.00e+00	0	43	0	482344960	48	4338
2026-01-16 11:48:04.73	151.93	15.56	-38.1	-40.0	20.7	0.00e+00	0	43	0	488636416	48	4294
2026-01-16 11:48:05.73	151.91	15.67	-38.2	-40.0	20.6	0.00e+00	0	43	0	493879296	48	4327
2026-01-16 11:48:06.72	151.88	15.78	-38.3	-40.2	20.5	0.00e+00	0	43	0	499122176	48	4393
2026-01-16 11:48:07.71	151.86	15.89	-38.0	-39.8	20.8	0.00e+00	0	43	0	505413632	48	4210
2026-01-16 11:48:08.71	151.84	16.00	-38.0	-39.8	20.5	0.00e+00	0	43	0	510656512	47	4485
2026-01-16 11:48:09.70	151.82	16.11	-37.9	-39.8	20.6	0.00e+00	0	43	0	515899392	47	4468
2026-01-16 11:48:10.70	151.80	16.23	-38.0	-39.8	20.6	0.00e+00	0	43	0	522190848	47	4485
2026-01-16 11:48:11.69	151.77	16.34	-37.8	-39.6	20.7	0.00e+00	0	44	0	527433728	47	4384
2026-01-16 11:48:12.69	151.75	16.45	-37.8	-39.7	20.7	0.00e+00	0	43	0	532676608	47	4402
2026-01-16 11:48:13.68	151.73	16.56	-37.7	-39.6	20.8	0.00e+00	0	43	0	538968064	47	4350
2026-01-16 11:48:14.68	151.70	16.68	-37.7	-39.5	20.8	0.00e+00	0	43	0	544210944	47	4316
2026-01-16 11:48:15.68	151.68	16.79	-37.7	-39.5	20.8	0.00e+00	0	43	0	549453824	47	4314
2026-01-16 11:48:16.67	151.66	16.90	-37.7	-39.5	20.8	0.00e+00	0	43	0	555745280	47	4323
2026-01-16 11:48:17.67	151.63	17.02	-37.5	-39.3	21.0	0.00e+00	0	43	0	560988160	47	4224
2026-01-16 11:48:18.66	151.61	17.14	-37.5	-39.3	21.0	0.00e+00	0	43	0	567279616	47	4218
2026-01-16 11:48:19.66	151.58	17.25	-37.5	-39.3	21.0	0.00e+00	0	43	0	572522496	47	4237
2026-01-16 11:48:20.65	151.56	17.37	-37.5	-39.4	21.0	0.00e+00	0	43	0	577765376	47	4243
2026-01-16 11:48:21.65	151.54	17.49	-37.4	-39.2	21.1	0.00e+00	0	43	0	583008256	46	4436
2026-01-16 11:48:22.64	151.51	17.60	-37.4	-39.3	21.1	0.00e+00	0	43	0	589299712	46	4445
2026-01-16 11:48:23.64	151.49	17.72	-37.4	-39.2	21.1	0.00e+00	0	43	0	594542592	46	4412
2026-01-16 11:48:24.63	151.46	17.84	-37.4	-39.2	21.1	0.00e+00	0	43	0	599785472	46	4415
2026-01-16 11:48:25.63	151.44	17.96	-37.3	-39.2	21.2	0.00e+00	0	43	0	606076928	46	4392
2026-01-16 11:48:26.62	151.41	18.08	-37.3	-39.1	21.2	0.00e+00	0	43	0	611319808	46	4363
2026-01-16 11:48:27.61	151.38	18.20	-37.4	-39.2	21.2	0.00e+00	0	43	0	617611264	46	4407
2026-01-16 11:48:28.61	151.36	18.32	-37.2	-39.0	21.3	0.00e+00	0	43	0	622854144	46	4332
2026-01-16 11:48:29.60	151.33	18.45	-37.1	-38.9	21.4	0.00e+00	0	43	0	628097024	46	4277
2026-01-16 11:48:30.60	151.30	18.57	-37.2	-39.1	21.3	0.00e+00	0	43	0	633339904	46	4345
2026-01-16 11:48:31.59	151.28	18.69	-37.2	-39.0	21.3	0.00e+00	0	43	0	639631360	46	4326
2026-01-16 11:48:32.58	151.25	18.81	-37.2	-39.0	21.3	0.00e+00	0	43	0	644874240	46	4295
2026-01-16 11:48:33.58	151.22	18.94	-37.2	-39.0	21.3	0.00e+00	0	43	0	651165696	46	4337
2026-01-16 11:48:34.57	151.20	19.06	-37.2	-39.0	21.3	0.00e+00	0	43	0	656408576	46	4300
2026-01-16 11:48:35.57	151.17	19.19	-37.3	-39.1	21.2	0.00e+00	0	43	0	661651456	46	4356
2026-01-16 11:48:36.56	151.14	19.32	-37.2	-39.1	21.2	0.00e+00	0	43	0	666894336	46	4346
2026-01-16 11:48:37.56	151.11	19.44	-37.2	-39.0	21.3	0.00e+00	0	43	0	673185792	46	4332
2026-01-16 11:48:38.55	151.08	19.57	-37.3	-39.1	21.2	0.00e+00	0	44	0	678428672	46	4373
2026-01-16 11:48:39.54	151.05	19.70	-37.3	-39.1	21.2	0.00e+00	0	43	0	683671552	46	4369
2026-01-16 11:48:40.54	151.02	19.83	-37.4	-39.2	21.1	0.00e+00	0	43	0	689963008	46	4426
2026-01-16 11:48:41.53	151.00	19.96	-37.3	-39.1	21.2	0.00e+00	0	43	0	695205888	46	4369
2026-01-16 11:48:42.53	150.97	20.09	-37.4	-39.2	21.1	0.00e+00	0	43	0	701497344	46	4422
2026-01-16 11:48:43.52	150.94	20.22	-37.5	-39.3	21.0	0.00e+00	0	43	0	706740224	46	4464
2026-01-16 11:48:44.51	150.91	20.35	-37.5	-39.4	20.9	0.00e+00	0	43	0	711983104	46	4517
2026-01-16 11:48:45.51	150.87	20.48	-37.5	-39.4	20.9	0.00e+00	0	43	0	717225984	46	4516
2026-01-16 11:48:46.50	150.84	20.61	-37.6	-39.5	20.8	0.00e+00	0	43	0	723517440	46	4557
2026-01-16 11:48:47.50	150.81	20.75	-37.5	-39.4	20.9	0.00e+00	0	43	0	728760320	46	4508
2026-01-16 11:48:48.50	150.78	20.88	-37.5	-39.3	21.0	0.00e+00	0	43	0	734003200	46	4471
2026-01-16 11:48:49.49	150.75	21.02	-37.4	-39.3	21.0	0.00e+00	0	43	0	740294656	46	4457
2026-01-16 11:48:50.49	150.72	21.15	-37.6	-39.4	20.9	0.00e+00	0	43	0	745537536	46	4526
2026-01-16 11:48:51.48	150.69	21.29	-37.4	-39.2	21.0	0.00e+00	0	43	0	751828992	46	4429
2026-01-16 11:48:52.48	150.65	21.43	-37.4	-39.2	21.1	0.00e+00	0	43	0	757071872	46	4413
2026-01-16 11:48:53.47	150.62	21.56	-37.2	-39.1	21.2	0.00e+00	0	43	0	762314752	46	4344
2026-01-16 11:48:54.47	150.59	21.70	-37.1	-38.9	21.3	0.00e+00	0	43	0	768606208	46	4277
2026-01-16 11:48:55.46	150.55	21.84	-36.9	-38.7	21.5	0.00e+00	0	43	0	773849088	45	4398
2026-01-16 11:48:56.46	150.52	21.98	-36.8	-38.6	21.6	0.00e+00	0	43	0	779091968	45	4371
2026-01-16 11:48:57.45	150.48	22.12	-36.9	-38.6	21.6	0.00e+00	0	44	0	784334848	45	4390
2026-01-16 11:48:58.45	150.45	22.27	-37.0	-38.8	21.5	0.00e+00	0	43	0	790626304	45	4446
2026-01-16 11:48:59.44	150.42	22.41	-36.8	-38.6	21.6	0.00e+00	0	43	0	795869184	45	4352
2026-01-16 11:49:00.44	150.38	22.55	-36.7	-38.5	21.7	0.00e+00	0	43	0	802160640	45	4323
2026-01-16 11:49:01.43	150.34	22.70	-36.6	-38.3	21.8	0.00e+00	0	43	0	807403520	45	4234
2026-01-16 11:49:02.43	150.31	22.84	-36.6	-38.4	21.8	0.00e+00	0	43	0	812646400	45	4245
2026-01-16 11:49:03.42	150.27	22.99	-36.5	-38.3	21.9	0.00e+00	0	43	0	818937856	44	4450
2026-01-16 11:49:04.42	150.23	23.13	-36.6	-38.4	21.8	0.00e+00	0	43	0	824180736	44	4495
2026-01-16 11:49:05.41	150.20	23.28	-36.4	-38.2	22.0	0.00e+00	0	43	0	829423616	44	4420
2026-01-16 11:49:06.41	150.16	23.43	-36.5	-38.3	21.9	0.00e+00	0	43	0	834666496	44	4460
2026-01-16 11:49:07.40	150.12	23.58	-36.6	-38.4	21.8	0.00e+00	0	43	0	840957952	44	4499
2026-01-16 11:49:08.39	150.08	23.73	-36.5	-38.3	21.9	0.00e+00	0	44	0	846200832	44	4475
2026-01-16 11:49:09.39	150.05	23.88	-36.6	-38.3	21.9	0.00e+00	0	43	0	852492288	44	4491
2026-01-16 11:49:10.38	150.01	24.03	-36.5	-38.2	21.9	0.00e+00	0	43	0	857735168	44	4437
2026-01-16 11:49:11.38	149.97	24.18	-36.5	-38.2	21.9	0.00e+00	0	44	0	862978048	44	4441
2026-01-16 11:49:12.37	149.93	24.33	-36.5	-38.3	21.9	0.00e+00	0	43	0	869269504	44	4454
2026-01-16 11:49:13.37	149.89	24.49	-36.5	-38.3	21.9	0.00e+00	0	43	0	874512384	44	4470
2026-01-16 11:49:14.36	149.85	24.64	-36.6	-38.4	21.8	0.00e+00	0	43	0	879755264	44	4529
2026-01-16 11:49:15.36	149.81	24.80	-36.6	-38.4	21.9	0.00e+00	0	44	0	884998144	44	4504
2026-01-16 11:49:16.35	149.76	24.96	-36.5	-38.2	22.0	0.00e+00	0	43	0	891289600	44	4439
2026-01-16 11:49:17.34	149.72	25.11	-36.5	-38.2	22.0	0.00e+00	0	43	0	896532480	44	4434
2026-01-16 11:49:18.34	149.68	25.27	-36.4	-38.2	22.0	0.00e+00	0	43	0	902823936	44	4420
2026-01-16 11:49:19.33	149.64	25.43	-36.4	-38.2	22.0	0.00e+00	0	43	0	908066816	44	4398
2026-01-16 11:49:20.33	149.59	25.59	-36.2	-38.0	22.2	0.00e+00	0	43	0	913309696	44	4310
2026-01-16 11:49:21.33	149.55	25.76	-36.2	-38.0	22.2	0.00e+00	0	44	0	919601152	44	4322
2026-01-16 11:49:22.32	149.50	25.92	-36.2	-38.0	22.2	0.00e+00	0	43	0	924844032	44	4296
2026-01-16 11:49:23.32	149.46	26.08	-36.2	-38.0	22.3	0.00e+00	0	43	0	930086912	44	4294
2026-01-16 11:49:24.31	149.41	26.25	-36.2	-38.0	22.3	0.00e+00	0	43	0	936378368	44	4301
2026-01-16 11:49:25.31	149.37	26.41	-36.1	-37.8	22.3	0.00e+00	0	43	0	941621248	44	4236
2026-01-16 11:49:26.30	149.32	26.58	-36.1	-37.9	22.3	0.00e+00	0	44	0	946864128	44	4262
2026-01-16 11:49:27.29	149.28	26.75	-36.2	-37.9	22.2	0.00e+00	0	43	0	953155584	44	4284
2026-01-16 11:49:28.29	149.23	26.92	-36.2	-38.0	22.2	0.00e+00	0	43	0	958398464	44	4302
2026-01-16 11:49:29.28	149.18	27.08	-36.3	-38.0	22.2	0.00e+00	0	43	0	963641344	44	4321
2026-01-16 11:49:30.28	149.13	27.26	-36.4	-38.1	22.1	0.00e+00	0	43	0	969932800	44	4389
2026-01-16 11:49:31.27	149.08	27.43	-36.4	-38.2	22.0	0.00e+00	0	43	0	975175680	44	4403
2026-01-16 11:49:32.27	149.03	27.60	-36.5	-38.3	22.0	0.00e+00	0	43	0	980418560	44	4447
2026-01-16 11:49:33.26	148.98	27.77	-36.3	-38.1	22.1	0.00e+00	0	43	0	986710016	44	4370
2026-01-16 11:49:34.26	148.93	27.95	-36.4	-38.2	22.0	0.00e+00	0	43	0	991952896	44	4407
2026-01-16 11:49:35.26	148.88	28.13	-36.4	-38.2	22.0	0.00e+00	0	44	0	997195776	44	4411
2026-01-16 11:49:36.25	148.83	28.30	-36.5	-38.3	21.9	0.00e+00	0	43	0	1003487232	44	4470
2026-01-16 11:49:37.25	148.78	28.48	-36.4	-38.2	21.9	0.00e+00	0	44	0	1008730112	44	4441
2026-01-16 11:49:38.24	148.72	28.66	-36.5	-38.3	21.9	0.00e+00	0	44	0	1013972992	44	4486
2026-01-16 11:49:39.24	148.67	28.84	-36.3	-38.1	22.0	0.00e+00	0	43	0	1020264448	44	4383
2026-01-16 11:49:40.23	148.62	29.02	-36.3	-38.1	22.0	0.00e+00	0	43	0	1025507328	44	4391
2026-01-16 11:49:41.23	148.56	29.21	-36.3	-38.1	22.0	0.00e+00	0	43	0	1030750208	44	4350
2026-01-16 11:49:42.22	148.50	29.39	-36.4	-38.2	21.9	0.00e+00	0	43	0	1037041664	44	4418
2026-01-16 11:49:43.21	148.45	29.57	-36.4	-38.2	21.8	0.00e+00	0	43	0	1042284544	44	4441
2026-01-16 11:49:44.21	148.39	29.76	-36.3	-38.1	22.0	0.00e+00	0	43	0	1047527424	44	4360
2026-01-16 11:49:45.20	148.33	29.95	-36.2	-38.0	22.0	0.00e+00	0	43	0	1053818880	44	4316
2026-01-16 11:49:46.20	148.27	30.14	-36.3	-38.0	22.0	0.00e+00	0	43	0	1059061760	44	4338
2026-01-16 11:49:47.20	148.22	30.33	-36.1	-37.9	22.2	0.00e+00	0	43	0	1064304640	44	4256
2026-01-16 11:49:48.19	148.16	30.52	-36.1	-37.8	22.2	0.00e+00	0	43	0	1070596096	44	4232
2026-01-16 11:49:49.19	148.09	30.71	-36.0	-37.8	22.3	0.00e+00	0	43	0	1075838976	44	4219
2026-01-16 11:49:50.18	148.03	30.90	-36.0	-37.7	22.3	0.00e+00	0	43	0	1081081856	44	4187
2026-01-16 11:49:51.17	147.97	31.10	-35.8	-37.5	22.3	0.00e+00	0	43	0	1087373312	43	4336
2026-01-16 11:49:52.17	147.91	31.29	-35.7	-37.4	22.4	0.00e+00	0	43	0	1092616192	43	4272
2026-01-16 11:49:53.16	147.84	31.49	-35.7	-37.5	22.4	0.00e+00	0	43	0	1098907648	43	4294
2026-01-16 11:49:54.16	147.78	31.69	-35.7	-37.4	22.4	0.00e+00	0	43	0	1104150528	43	4275
2026-01-16 11:49:55.16	147.71	31.89	-35.7	-37.5	22.4	0.00e+00	0	43	0	1109393408	43	4307
2026-01-16 11:49:56.15	147.65	32.09	-35.5	-37.3	22.6	0.00e+00	0	44	0	1114636288	43	4197
2026-01-16 11:49:57.14	147.58	32.29	-35.5	-37.2	22.6	0.00e+00	0	43	0	1120927744	42	4426
2026-01-16 11:49:58.14	147.51	32.50	-35.4	-37.2	22.7	0.00e+00	0	44	0	1126170624	42	4393
2026-01-16 11:49:59.13	147.44	32.70	-35.4	-37.1	22.7	0.00e+00	0	43	0	1131413504	42	4360
2026-01-16 11:50:00.13	147.37	32.91	-35.3	-37.0	22.8	0.00e+00	0	43	0	1137704960	42	4316
2026-01-16 11:50:01.12	147.30	33.12	-35.3	-37.0	22.8	0.00e+00	0	43	0	1142947840	42	4323
2026-01-16 11:50:02.12	147.23	33.33	-35.3	-37.0	22.8	0.00e+00	0	43	0	1149239296	42	4330
2026-01-16 11:50:03.12	147.16	33.54	-35.4	-37.1	22.7	0.00e+00	0	44	0	1154482176	42	4380
2026-01-16 11:50:04.11	147.08	33.75	-35.5	-37.3	22.6	0.00e+00	0	44	0	1159725056	42	4448
2026-01-16 11:50:05.11	147.01	33.97	-35.6	-37.4	22.6	0.00e+00	0	43	0	1164967936	42	4502
2026-01-16 11:50:06.10	146.93	34.18	-35.6	-37.3	22.6	0.00e+00	0	43	0	1171259392	42	4471
2026-01-16 11:50:07.10	146.86	34.40	-35.6	-37.3	22.6	0.00e+00	0	43	0	1176502272	42	4483
2026-01-16 11:50:08.09	146.78	34.61	-35.3	-37.0	22.8	0.00e+00	0	44	0	1181745152	42	4340
2026-01-16 11:50:09.08	146.70	34.83	-35.1	-36.9	23.0	0.00e+00	0	44	0	1188036608	42	4245
2026-01-16 11:50:10.08	146.62	35.06	-35.2	-36.9	23.0	0.00e+00	0	44	0	1193279488	42	4260
2026-01-16 11:50:11.07	146.54	35.28	-34.9	-36.6	23.2	0.00e+00	0	44	0	1199570944	41	4378
2026-01-16 11:50:12.07	146.46	35.50	-35.0	-36.7	23.1	0.00e+00	0	43	0	1204813824	41	4428
2026-01-16 11:50:13.06	146.37	35.73	-35.0	-36.7	23.1	0.00e+00	0	44	0	1210056704	41	4420
2026-01-16 11:50:14.06	146.29	35.95	-35.0	-36.7	23.2	0.00e+00	0	44	0	1215299584	41	4401
2026-01-16 11:50:15.05	146.20	36.18	-35.1	-36.8	23.0	0.00e+00	0	44	0	1221591040	41	4460
2026-01-16 11:50:16.05	146.12	36.41	-35.3	-37.0	22.9	0.00e+00	0	44	0	1226833920	41	4559
2026-01-16 11:50:17.04	146.03	36.64	-35.4	-37.1	22.8	0.00e+00	0	44	0	1232076800	41	4642
2026-01-16 11:50:18.04	145.94	36.88	-35.6	-37.3	22.6	0.00e+00	0	43	0	1238368256	41	4739
2026-01-16 11:50:19.03	145.85	37.11	-35.6	-37.4	22.6	0.00e+00	0	43	0	1243611136	41	4769
2026-01-16 11:50:20.03	145.75	37.35	-35.7	-37.5	22.5	0.00e+00	0	43	0	1249902592	42	4554
2026-01-16 11:50:21.02	145.66	37.59	-35.8	-37.5	22.5	0.00e+00	0	44	0	1255145472	42	4582
2026-01-16 11:50:22.02	145.56	37.83	-35.7	-37.4	22.5	0.00e+00	0	44	0	1260388352	42	4545
2026-01-16 11:50:23.01	145.47	38.07	-35.6	-37.3	22.6	0.00e+00	0	43	0	1266679808	42	4475
2026-01-16 11:50:24.01	145.37	38.31	-35.5	-37.2	22.7	0.00e+00	0	44	0	1271922688	42	4401
2026-01-16 11:50:25.00	145.27	38.55	-35.4	-37.1	22.8	0.00e+00	0	43	0	1277165568	42	4360
2026-01-16 11:50:26.00	145.17	38.80	-35.5	-37.2	22.7	0.00e+00	0	43	0	1282408448	42	4416
2026-01-16 11:50:26.99	145.07	39.05	-35.6	-37.3	22.6	0.00e+00	0	43	0	1288699904	42	4468
2026-01-16 11:50:27.99	144.96	39.30	-35.6	-37.3	22.6	0.00e+00	0	44	0	1293942784	42	4483
2026-01-16 11:50:28.98	144.85	39.55	-35.6	-37.3	22.7	0.00e+00	0	43	0	1300234240	42	4460
2026-01-16 11:50:29.98	144.75	39.80	-35.5	-37.2	22.7	0.00e+00	0	44	0	1305477120	42	4432
2026-01-16 11:50:30.97	144.64	40.06	-35.3	-37.0	22.9	0.00e+00	0	44	0	1310720000	42	4333
2026-01-16 11:50:31.97	144.53	40.31	-35.3	-37.0	22.9	0.00e+00	0	44	0	1317011456	42	4319
2026-01-16 11:50:32.96	144.41	40.57	-35.5	-37.2	22.7	0.00e+00	0	44	0	1322254336	42	4409
2026-01-16 11:50:33.96	144.30	40.83	-35.7	-37.4	22.6	0.00e+00	0	44	0	1327497216	42	4538
2026-01-16 11:50:34.95	144.18	41.09	-35.9	-37.6	22.4	0.00e+00	0	44	0	1332740096	42	4643
2026-01-16 11:50:35.95	144.06	41.36	-36.1	-37.9	22.2	0.00e+00	0	44	0	1339031552	42	4776
2026-01-16 11:50:36.94	143.94	41.62	-36.2	-38.0	22.1	0.00e+00	0	43	0	1344274432	43	4566
2026-01-16 11:50:37.94	143.82	41.89	-36.3	-38.0	22.1	0.00e+00	0	43	0	1350565888	43	4597
2026-01-16 11:50:38.93	143.69	42.16	-36.3	-38.1	22.0	0.00e+00	0	44	0	1355808768	43	4599
2026-01-16 11:50:39.93	143.56	42.43	-36.2	-37.9	22.2	0.00e+00	0	44	0	1361051648	43	4530
2026-01-16 11:50:40.92	143.43	42.70	-36.1	-37.9	22.2	0.00e+00	0	44	0	1367343104	43	4509
2026-01-16 11:50:41.92	143.30	42.98	-36.1	-37.9	22.2	0.00e+00	0	44	0	1372585984	43	4522
2026-01-16 11:50:42.91	143.17	43.25	-36.0	-37.8	22.2	0.00e+00	0	44	0	1377828864	43	4466
2026-01-16 11:50:43.90	143.03	43.53	-36.0	-37.7	22.3	0.00e+00	0	44	0	1384120320	43	4421
2026-01-16 11:50:44.90	142.89	43.81	-36.1	-37.8	22.3	0.00e+00	0	44	0	1389363200	43	4466
2026-01-16 11:50:45.89	142.75	44.09	-36.0	-37.8	22.3	0.00e+00	0	44	0	1394606080	43	4467
2026-01-16 11:50:46.89	142.61	44.37	-36.0	-37.8	22.3	0.00e+00	0	43	0	1400897536	43	4474
2026-01-16 11:50:47.88	142.46	44.66	-36.0	-37.7	22.3	0.00e+00	0	44	0	1406140416	43	4440
2026-01-16 11:50:48.87	142.31	44.94	-35.8	-37.5	22.5	0.00e+00	0	44	0	1411383296	43	4331
2026-01-16 11:50:49.87	142.16	45.23	-35.8	-37.5	22.5	0.00e+00	0	44	0	1417674752	43	4332
2026-01-16 11:50:50.86	142.01	45.52	-35.9	-37.6	22.5	0.00e+00	0	44	0	1422917632	43	4342
2026-01-16 11:50:51.86	141.85	45.82	-36.0	-37.8	22.4	0.00e+00	0	43	0	1428160512	43	4452
2026-01-16 11:50:52.85	141.69	46.11	-36.0	-37.7	22.4	0.00e+00	0	44	0	1434451968	43	4419
2026-01-16 11:50:53.84	141.52	46.40	-35.9	-37.6	22.5	0.00e+00	0	44	0	1439694848	43	4374
2026-01-16 11:50:54.84	141.36	46.70	-35.9	-37.6	22.5	0.00e+00	0	43	0	1444937728	43	4382
2026-01-16 11:50:55.83	141.19	47.00	-36.0	-37.7	22.4	0.00e+00	0	43	0	1451229184	43	4420
2026-01-16 11:50:56.83	141.01	47.30	-36.1	-37.9	22.3	0.00e+00	0	44	0	1456472064	43	4510
2026-01-16 11:50:57.82	140.83	47.61	-36.2	-37.9	22.3	0.00e+00	0	44	0	1461714944	43	4526
2026-01-16 11:50:58.82	140.65	47.91	-36.1	-37.8	22.4	0.00e+00	0	44	0	1468006400	43	4473
2026-01-16 11:50:59.81	140.47	48.22	-36.0	-37.7	22.5	0.00e+00	0	43	0	1473249280	43	4417
2026-01-16 11:51:00.80	140.28	48.53	-36.0	-37.7	22.4	0.00e+00	0	44	0	1478492160	43	4440
2026-01-16 11:51:01.80	140.09	48.84	-36.3	-38.0	22.2	0.00e+00	0	44	0	1484783616	43	4571
2026-01-16 11:51:02.79	139.89	49.15	-36.5	-38.2	22.0	0.00e+00	0	44	0	1490026496	43	4695
2026-01-16 11:51:03.79	139.69	49.47	-36.6	-38.3	21.9	0.00e+00	0	43	0	1495269376	43	4756
2026-01-16 11:51:04.79	139.49	49.79	-36.6	-38.4	21.9	0.00e+00	0	43	0	1501560832	43	4760
2026-01-16 11:51:05.78	139.28	50.10	-36.5	-38.3	22.0	0.00e+00	0	43	0	1506803712	43	4713
2026-01-16 11:51:06.77	139.07	50.42	-37.0	-38.7	21.7	0.00e+00	0	43	0	1512046592	44	4681
2026-01-16 11:51:07.77	138.85	50.75	-37.1	-38.9	21.6	0.00e+00	0	44	0	1518338048	44	4784
2026-01-16 11:51:08.76	138.62	51.07	-37.1	-38.9	21.6	0.00e+00	0	43	0	1523580928	44	4775
2026-01-16 11:51:09.76	138.40	51.40	-37.1	-38.9	21.6	0.00e+00	0	43	0	1528823808	44	4799
2026-01-16 11:51:10.75	138.16	51.72	-37.2	-39.0	21.5	0.00e+00	0	44	0	1535115264	45	4551
2026-01-16 11:51:11.75	137.92	52.05	-37.0	-38.8	21.6	0.00e+00	0	43	0	1540358144	45	4468
2026-01-16 11:51:12.74	137.68	52.38	-37.0	-38.8	21.7	0.00e+00	0	43	0	1545601024	45	4453
2026-01-16 11:51:13.74	137.43	52.72	-37.1	-38.9	21.6	0.00e+00	0	44	0	1551892480	45	4518
2026-01-16 11:51:14.73	137.18	53.05	-37.3	-39.0	21.4	0.00e+00	0	43	0	1557135360	45	4593
2026-01-16 11:51:15.73	136.92	53.39	-37.0	-38.8	21.7	0.00e+00	0	44	0	1562378240	45	4463
2026-01-16 11:51:16.72	136.65	53.72	-36.9	-38.7	21.8	0.00e+00	0	43	0	1568669696	45	4411
2026-01-16 11:51:17.72	136.37	54.06	-36.8	-38.5	22.0	0.00e+00	0	44	0	1573912576	45	4332
2026-01-16 11:51:18.71	136.10	54.40	-36.8	-38.6	21.9	0.00e+00	0	43	0	1579155456	45	4343
2026-01-16 11:51:19.70	135.81	54.74	-37.0	-38.8	21.7	0.00e+00	0	43	0	1585446912	45	4443
2026-01-16 11:51:20.70	135.52	55.09	-36.9	-38.7	21.7	0.00e+00	0	44	0	1590689792	45	4423
2026-01-16 11:51:21.69	135.22	55.43	-36.8	-38.6	21.9	0.00e+00	0	43	0	1595932672	45	4342
2026-01-16 11:51:22.69	134.91	55.78	-36.8	-38.5	21.9	0.00e+00	0	44	0	1602224128	45	4335
2026-01-16 11:51:23.68	134.59	56.13	-36.6	-38.3	22.0	0.00e+00	0	44	0	1607467008	45	4234
2026-01-16 11:51:24.68	134.26	56.48	-36.6	-38.4	22.0	0.00e+00	0	44	0	1612709888	45	4271
2026-01-16 11:51:25.67	133.93	56.83	-36.7	-38.5	21.9	0.00e+00	0	44	0	1619001344	45	4293
2026-01-16 11:51:26.67	133.59	57.18	-36.7	-38.4	21.9	0.00e+00	0	43	0	1624244224	45	4281
2026-01-16 11:51:27.66	133.24	57.53	-36.6	-38.4	22.0	0.00e+00	0	43	0	1629487104	45	4269
2026-01-16 11:51:28.65	132.88	57.88	-36.4	-38.1	22.3	0.00e+00	0	44	0	1635778560	44	4386
2026-01-16 11:51:29.65	132.51	58.24	-36.4	-38.1	22.3	0.00e+00	0	43	0	1641021440	44	4373
2026-01-16 11:51:30.64	132.13	58.59	-36.4	-38.1	22.3	0.00e+00	0	44	0	1646264320	44	4366
2026-01-16 11:51:31.64	131.74	58.95	-36.3	-38.0	22.4	0.00e+00	0	44	0	1652555776	44	4310
2026-01-16 11:51:32.63	131.34	59.31	-36.3	-38.0	22.4	0.00e+00	0	43	0	1657798656	44	4317
2026-01-16 11:51:33.63	130.93	59.67	-36.3	-38.0	22.4	0.00e+00	0	44	0	1663041536	44	4333
2026-01-16 11:51:34.62	130.51	60.03	-36.4	-38.1	22.3	0.00e+00	0	44	0	1669332992	44	4383
2026-01-16 11:51:35.62	130.07	60.39	-36.4	-38.1	22.2	0.00e+00	0	43	0	1674575872	44	4389
2026-01-16 11:51:36.61	129.62	60.75	-36.4	-38.2	22.1	0.00e+00	0	44	0	1679818752	44	4420
2026-01-16 11:51:37.61	129.16	61.11	-36.5	-38.2	22.1	0.00e+00	0	43	0	1686110208	44	4414
2026-01-16 11:51:38.60	128.68	61.47	-36.4	-38.1	22.2	0.00e+00	0	43	0	1691353088	44	4365
2026-01-16 11:51:39.60	128.19	61.83	-36.5	-38.3	22.1	0.00e+00	0	43	0	1696595968	44	4452
2026-01-16 11:51:40.59	127.69	62.19	-36.3	-38.0	22.3	0.00e+00	0	43	0	1702887424	44	4308
2026-01-16 11:51:41.59	127.17	62.55	-35.7	-37.4	22.7	0.00e+00	0	44	0	1708130304	43	4256
2026-01-16 11:51:42.58	126.64	62.91	-35.4	-37.1	22.9	0.00e+00	0	44	0	1713373184	42	4382
2026-01-16 11:51:43.58	126.08	63.27	-35.6	-37.3	22.8	0.00e+00	0	43	0	1719664640	42	4470
2026-01-16 11:51:44.57	125.52	63.63	-35.8	-37.5	22.6	0.00e+00	0	43	0	1724907520	42	4578
2026-01-16 11:51:45.57	124.93	63.99	-35.6	-37.4	22.7	0.00e+00	0	44	0	1730150400	42	4505
2026-01-16 11:51:46.56	124.33	64.35	-35.7	-37.4	22.6	0.00e+00	0	43	0	1736441856	42	4530
2026-01-16 11:51:47.56	123.70	64.71	-35.4	-37.1	22.8	0.00e+00	0	43	0	1741684736	42	4390
2026-01-16 11:51:48.55	123.06	65.06	-35.0	-36.7	23.2	0.00e+00	0	43	0	1746927616	42	4172
2026-01-16 11:51:49.55	122.39	65.42	-35.1	-36.7	23.1	0.00e+00	0	43	0	1753219072	42	4191
2026-01-16 11:51:50.54	121.71	65.77	-34.9	-36.6	23.2	0.00e+00	0	43	0	1758461952	41	4375
2026-01-16 11:51:51.54	120.99	66.13	-34.8	-36.5	23.3	0.00e+00	0	43	0	1763704832	41	4313
2026-01-16 11:51:52.53	120.26	66.48	-34.8	-36.5	23.3	0.00e+00	0	43	0	1769996288	41	4328
2026-01-16 11:51:53.53	119.50	66.83	-34.7	-36.4	23.5	0.00e+00	0	44	0	1775239168	41	4267
2026-01-16 11:51:54.52	118.73	67.17	-34.7	-36.4	23.4	0.00e+00	0	43	0	1781530624	41	4277
2026-01-16 11:51:55.51	117.92	67.51	-34.9	-36.6	23.3	0.00e+00	0	43	0	1786773504	41	4380
2026-01-16 11:51:56.51	117.08	67.85	-34.7	-36.4	23.5	0.00e+00	0	43	0	1792016384	41	4254
2026-01-16 11:51:57.50	116.22	68.19	-34.7	-36.3	23.6	0.00e+00	0	43	0	1797259264	41	4233
2026-01-16 11:51:58.50	115.32	68.52	-34.6	-36.3	23.6	0.00e+00	0	43	0	1803550720	41	4200
2026-01-16 11:51:59.49	114.40	68.85	-34.5	-36.2	23.6	0.00e+00	0	43	0	1808793600	41	4171
2026-01-16 11:52:00.49	113.44	69.18	-34.5	-36.1	23.6	0.00e+00	0	43	0	1814036480	41	4135
2026-01-16 11:52:01.48	112.46	69.50	-34.7	-36.4	23.4	0.00e+00	0	44	0	1820327936	41	4259
2026-01-16 11:52:02.47	111.44	69.81	-34.8	-36.5	23.3	0.00e+00	0	44	0	1825570816	41	4307
2026-01-16 11:52:03.47	110.38	70.13	-34.9	-36.6	23.2	0.00e+00	0	43	0	1831862272	41	4359
2026-01-16 11:52:04.46	109.30	70.43	-35.3	-37.0	22.9	0.00e+00	0	44	0	1837105152	41	4589
2026-01-16 11:52:05.46	108.16	70.73	-35.3	-37.0	22.9	0.00e+00	0	43	0	1842348032	41	4577
2026-01-16 11:52:06.45	107.00	71.02	-34.9	-36.6	23.3	0.00e+00	0	43	0	1847590912	41	4355
2026-01-16 11:52:07.45	105.79	71.31	-34.9	-36.6	23.3	0.00e+00	0	44	0	1853882368	41	4377
2026-01-16 11:52:08.44	104.55	71.59	-35.0	-36.7	23.2	0.00e+00	0	43	0	1859125248	41	4416
2026-01-16 11:52:09.44	103.26	71.86	-34.5	-36.2	23.6	0.00e+00	0	43	0	1864368128	41	4151
2026-01-16 11:52:10.43	101.94	72.12	-34.6	-36.2	23.5	0.00e+00	0	43	0	1870659584	41	4181
2026-01-16 11:52:11.43	100.57	72.38	-35.0	-36.8	23.2	0.00e+00	0	44	0	1875902464	41	4449
2026-01-16 11:52:12.42	99.17	72.62	-34.9	-36.6	23.2	0.00e+00	0	44	0	1882193920	41	4387
2026-01-16 11:52:13.41	97.73	72.85	-34.4	-36.0	23.6	0.00e+00	0	43	0	1887436800	40	4336
2026-01-16 11:52:14.41	96.23	73.08	-34.9	-36.6	23.2	0.00e+00	0	44	0	1892679680	40	4627
2026-01-16 11:52:15.40	94.71	73.29	-35.2	-37.0	22.9	0.00e+00	0	43	0	1897922560	41	4562
2026-01-16 11:52:16.40	93.13	73.50	-34.8	-36.5	23.3	0.00e+00	0	44	0	1904214016	41	4314
2026-01-16 11:52:17.39	91.53	73.69	-34.5	-36.2	23.6	0.00e+00	0	44	0	1909456896	41	4167
2026-01-16 11:52:18.39	89.87	73.87	-34.7	-36.4	23.4	0.00e+00	0	44	0	1914699776	41	4279
2026-01-16 11:52:19.38	88.19	74.03	-34.9	-36.7	23.2	0.00e+00	0	44	0	1920991232	41	4415
2026-01-16 11:52:20.38	86.46	74.18	-34.1	-35.8	23.8	0.00e+00	0	44	0	1926234112	40	4201
2026-01-16 11:52:21.37	84.71	74.32	-34.0	-35.6	24.0	0.00e+00	0	43	0	1932525568	39	4384
2026-01-16 11:52:22.37	82.92	74.44	-34.5	-36.2	23.6	0.00e+00	0	43	0	1937768448	39	4658
2026-01-16 11:52:23.36	81.11	74.55	-34.4	-36.1	23.6	0.00e+00	0	44	0	1943011328	39	4635
2026-01-16 11:52:24.36	79.26	74.65	-34.5	-36.1	23.6	0.00e+00	0	43	0	1948254208	39	4651
2026-01-16 11:52:25.35	77.41	74.73	-34.5	-36.2	23.6	0.00e+00	0	44	0	1954545664	39	4683
2026-01-16 11:52:26.35	75.52	74.79	-34.6	-36.3	23.5	0.00e+00	0	44	0	1959788544	39	4732
2026-01-16 11:52:27.34	73.64	74.84	-34.4	-36.1	23.7	0.00e+00	0	44	0	1965031424	39	4602
2026-01-16 11:52:28.34	71.72	74.87	-34.3	-36.0	23.7	0.00e+00	0	43	0	1971322880	39	4580
2026-01-16 11:52:29.33	69.82	74.88	-34.4	-36.1	23.7	0.00e+00	0	43	0	1976565760	39	4613
2026-01-16 11:52:30.32	67.92	74.88	-34.6	-36.4	23.5	0.00e+00	0	44	0	1982857216	40	4499
2026-01-16 11:52:31.32	66.00	74.86	-34.4	-36.1	23.7	0.00e+00	0	44	0	1988100096	40	4353
2026-01-16 11:52:32.31	64.11	74.83	-34.1	-35.7	23.9	0.00e+00	0	43	0	1993342976	40	4186
2026-01-16 11:52:33.31	62.21	74.78	-34.6	-36.4	23.4	0.00e+00	0	43	0	1998585856	40	4502
2026-01-16 11:52:34.30	60.34	74.71	-34.7	-36.5	23.3	0.00e+00	0	44	0	2004877312	40	4548
2026-01-16 11:52:35.30	58.47	74.63	-34.4	-36.0	23.7	0.00e+00	0	43	0	2010120192	40	4319
2026-01-16 11:52:36.29	56.65	74.54	-34.6	-36.2	23.6	0.00e+00	0	43	0	2015363072	40	4432
2026-01-16 11:52:37.28	54.85	74.43	-34.8	-36.5	23.4	0.00e+00	0	43	0	2021654528	40	4565
2026-01-16 11:52:38.28	53.06	74.30	-34.4	-36.1	23.6	0.00e+00	0	43	0	2026897408	40	4379
2026-01-16 11:52:39.28	51.30	74.16	-34.1	-35.7	23.9	0.00e+00	0	43	0	2033188864	40	4189
2026-01-16 11:52:40.27	49.59	74.01	-34.2	-35.9	23.8	0.00e+00	0	43	0	2038431744	40	4246
2026-01-16 11:52:41.26	47.92	73.84	-34.0	-35.6	23.9	0.00e+00	0	44	0	2043674624	40	4129
2026-01-16 11:52:42.26	46.27	73.66	-34.0	-35.7	24.0	0.00e+00	0	43	0	2048917504	39	4409
2026-01-16 11:52:43.25	44.67	73.47	-34.2	-35.8	23.9	0.00e+00	0	43	0	2055208960	39	4472
2026-01-16 11:52:44.25	43.10	73.26	-34.3	-35.9	23.8	0.00e+00	0	44	0	2060451840	39	4544
2026-01-16 11:52:45.25	41.56	73.05	-34.4	-36.0	23.8	0.00e+00	0	43	0	2065694720	39	4598
2026-01-16 11:52:46.24	40.09	72.82	-34.7	-36.4	23.4	0.00e+00	0	43	0	2071986176	40	4521
2026-01-16 11:52:47.24	38.64	72.58	-34.6	-36.3	23.5	0.00e+00	0	43	0	2077229056	40	4443
2026-01-16 11:52:48.23	37.25	72.34	-34.4	-36.1	23.7	0.00e+00	0	43	0	2083520512	40	4362
2026-01-16 11:52:49.23	35.88	72.08	-34.4	-36.0	23.7	0.00e+00	0	44	0	2088763392	40	4332
2026-01-16 11:52:50.22	34.57	71.82	-34.3	-36.0	23.7	0.00e+00	0	43	0	2094006272	40	4302
2026-01-16 11:52:51.22	33.29	71.55	-34.6	-36.3	23.5	0.00e+00	0	44	0	2100297728	40	4451
2026-01-16 11:52:52.21	32.06	71.27	-34.8	-36.5	23.3	0.00e+00	0	43	0	2105540608	40	4596
2026-01-16 11:52:53.21	30.86	70.98	-34.6	-36.3	23.5	0.00e+00	0	43	0	2110783488	40	4466
2026-01-16 11:52:54.21	29.69	70.68	-34.7	-36.3	23.5	0.00e+00	0	43	0	2116026368	40	4481
2026-01-16 11:52:55.20	28.58	70.39	-34.7	-36.4	23.5	0.00e+00	0	44	0	2122317824	40	4504
2026-01-16 11:52:56.20	27.49	70.08	-34.6	-36.2	23.6	0.00e+00	0	44	0	2127560704	40	4436
2026-01-16 11:52:57.19	26.44	69.77	-34.6	-36.2	23.6	0.00e+00	0	44	0	2133852160	40	4434
2026-01-16 11:52:58.18	25.43	69.45	-34.6	-36.3	23.5	0.00e+00	0	44	0	2139095040	40	4475
2026-01-16 11:52:59.18	24.45	69.13	-34.6	-36.3	23.5	0.00e+00	0	43	0	2144337920	40	4485
2026-01-16 11:53:00.17	23.50	68.81	-34.6	-36.2	23.6	0.00e+00	0	43	0	2150629376	40	4440
2026-01-16 11:53:01.16	22.59	68.48	-34.7	-36.4	23.4	0.00e+00	0	43	0	2155872256	40	4530
2026-01-16 11:53:02.16	21.70	68.14	-34.9	-36.6	23.3	0.00e+00	0	44	0	2161115136	40	4635
2026-01-16 11:53:03.15	20.84	67.81	-35.1	-36.8	23.1	0.00e+00	0	44	0	2167406592	40	4748
2026-01-16 11:53:04.15	20.01	67.47	-35.0	-36.7	23.2	0.00e+00	0	43	0	2172649472	40	4692
2026-01-16 11:53:05.14	19.21	67.13	-35.1	-36.8	23.1	0.00e+00	0	44	0	2177892352	40	4723
2026-01-16 11:53:06.14	18.43	66.78	-34.9	-36.6	23.3	0.00e+00	0	44	0	2184183808	40	4623
2026-01-16 11:53:07.13	17.68	66.43	-34.7	-36.4	23.6	0.00e+00	0	44	0	2189426688	40	4494
2026-01-16 11:53:08.13	16.95	66.08	-34.7	-36.4	23.6	0.00e+00	0	43	0	2194669568	40	4508
2026-01-16 11:53:09.12	16.24	65.73	-34.8	-36.4	23.5	0.00e+00	0	44	0	2200961024	40	4544
2026-01-16 11:53:10.11	15.57	65.38	-34.9	-36.5	23.4	0.00e+00	0	44	0	2206203904	40	4592
2026-01-16 11:53:11.11	14.90	65.02	-34.8	-36.5	23.5	0.00e+00	0	44	0	2211446784	40	4551
2026-01-16 11:53:12.10	14.26	64.67	-34.7	-36.4	23.5	0.00e+00	0	43	0	2217738240	40	4537
2026-01-16 11:53:13.10	13.64	64.31	-35.0	-36.7	23.3	0.00e+00	0	44	0	2222981120	40	4687
2026-01-16 11:53:14.09	13.04	63.95	-35.2	-36.9	23.1	0.00e+00	0	43	0	2228224000	41	4541
2026-01-16 11:53:15.09	12.46	63.59	-35.2	-36.9	23.1	0.00e+00	0	43	0	2234515456	41	4532
2026-01-16 11:53:16.08	11.89	63.24	-35.4	-37.1	23.0	0.00e+00	0	43	0	2239758336	41	4610
2026-01-16 11:53:17.07	11.35	62.88	-35.4	-37.1	23.0	0.00e+00	0	43	0	2245001216	41	4613
2026-01-16 11:53:18.07	10.81	62.52	-35.2	-36.9	23.1	0.00e+00	0	44	0	2251292672	41	4524
2026-01-16 11:53:19.06	10.30	62.16	-35.3	-37.0	23.1	0.00e+00	0	44	0	2256535552	41	4553
2026-01-16 11:53:20.06	9.80	61.80	-35.3	-37.0	23.0	0.00e+00	0	43	0	2261778432	41	4579
2026-01-16 11:53:21.05	9.31	61.44	-35.3	-37.0	23.1	0.00e+00	0	43	0	2268069888	41	4546
2026-01-16 11:53:22.05	8.84	61.08	-35.4	-37.1	23.0	0.00e+00	0	44	0	2273312768	41	4607
2026-01-16 11:53:23.05	8.38	60.71	-35.5	-37.2	22.9	0.00e+00	0	44	0	2278555648	41	4663
2026-01-16 11:53:24.04	7.93	60.36	-35.6	-37.3	22.8	0.00e+00	0	44	0	2284847104	41	4716
2026-01-16 11:53:25.04	7.50	60.00	-35.7	-37.4	22.7	0.00e+00	0	44	0	2290089984	41	4762
2026-01-16 11:53:26.03	7.08	59.64	-35.7	-37.4	22.7	0.00e+00	0	43	0	2295332864	42	4531
2026-01-16 11:53:27.03	6.67	59.28	-36.1	-37.9	22.4	0.00e+00	0	44	0	2301624320	42	4766
2026-01-16 11:53:28.02	6.27	58.93	-36.3	-38.1	22.2	0.00e+00	0	44	0	2306867200	43	4600
2026-01-16 11:53:29.02	5.88	58.57	-36.2	-38.0	22.3	0.00e+00	0	44	0	2312110080	43	4553
2026-01-16 11:53:30.01	5.50	58.22	-36.3	-38.0	22.3	0.00e+00	0	44	0	2318401536	43	4571
2026-01-16 11:53:31.01	5.13	57.86	-36.2	-37.9	22.3	0.00e+00	0	44	0	2323644416	43	4538
2026-01-16 11:53:32.01	4.77	57.51	-36.1	-37.9	22.4	0.00e+00	0	43	0	2328887296	43	4496
2026-01-16 11:53:33.00	4.43	57.16	-36.3	-38.1	22.2	0.00e+00	0	44	0	2335178752	43	4604
2026-01-16 11:53:34.00	4.09	56.80	-36.6	-38.3	22.0	0.00e+00	0	43	0	2340421632	43	4742
2026-01-16 11:53:34.99	3.76	56.46	-36.5	-38.3	22.0	0.00e+00	0	43	0	2345664512	43	4739
2026-01-16 11:53:35.98	3.43	56.11	-36.3	-38.0	22.2	0.00e+00	0	44	0	2351955968	43	4563
2026-01-16 11:53:36.98	3.12	55.76	-36.4	-38.0	22.2	0.00e+00	0	43	0	2357198848	43	4597
2026-01-16 11:53:37.97	2.81	55.42	-36.9	-38.7	21.8	0.00e+00	0	43	0	2362441728	44	4661
2026-01-16 11:53:38.96	2.51	55.08	-37.4	-39.2	21.4	0.00e+00	0	43	0	2368733184	45	4679
2026-01-16 11:53:39.96	2.22	54.73	-37.5	-39.3	21.3	0.00e+00	0	44	0	2373976064	45	4744
2026-01-16 11:53:40.96	1.93	54.39	-37.4	-39.2	21.4	0.00e+00	0	43	0	2379218944	45	4672
2026-01-16 11:53:41.95	1.66	54.05	-37.2	-38.9	21.6	0.00e+00	0	44	0	2385510400	45	4535
2026-01-16 11:53:42.94	1.39	53.72	-37.1	-38.8	21.7	0.00e+00	0	44	0	2390753280	45	4483
2026-01-16 11:53:43.94	1.12	53.38	-37.1	-38.9	21.6	0.00e+00	0	43	0	2395996160	45	4529
2026-01-16 11:53:44.93	0.86	53.04	-36.9	-38.7	21.8	0.00e+00	0	44	0	2402287616	45	4420
2026-01-16 11:53:45.93	0.61	52.71	-36.9	-38.6	21.9	0.00e+00	0	44	0	2407530496	45	4376
2026-01-16 11:53:46.92	0.36	52.38	-36.7	-38.4	22.0	0.00e+00	0	43	0	2412773376	45	4288
2026-01-16 11:53:47.92	0.12	52.05	-36.4	-38.2	22.2	0.00e+00	0	44	0	2419064832	44	4415
2026-01-16 11:53:48.91	359.88	51.72	-36.4	-38.1	22.3	0.00e+00	0	44	0	2424307712	44	4383
2026-01-16 11:53:49.91	359.65	51.39	-36.3	-38.0	22.3	0.00e+00	0	44	0	2429550592	44	4338
2026-01-16 11:53:50.90	359.42	51.07	-36.0	-37.7	22.6	0.00e+00	0	43	0	2435842048	44	4166
2026-01-16 11:53:51.90	359.20	50.75	-35.9	-37.6	23.0	0.00e+00	0	43	0	2441084928	43	4345
2026-01-16 11:53:52.89	358.98	50.43	-36.0	-37.7	22.9	0.00e+00	0	43	0	2446327808	43	4400
2026-01-16 11:53:53.89	358.77	50.11	-36.0	-37.6	22.9	0.00e+00	0	44	0	2452619264	43	4391
2026-01-16 11:53:54.88	358.56	49.79	-36.0	-37.7	22.9	0.00e+00	0	43	0	2457862144	43	4426
2026-01-16 11:53:55.88	358.36	49.48	-36.2	-37.9	22.8	0.00e+00	0	44	0	2463105024	43	4495
2026-01-16 11:53:56.87	358.16	49.16	-36.1	-37.7	22.9	0.00e+00	0	43	0	2469396480	43	4426
2026-01-16 11:53:57.86	357.97	48.85	-36.0	-37.6	22.9	0.00e+00	0	43	0	2474639360	43	4385
2026-01-16 11:53:58.86	357.77	48.54	-36.0	-37.7	22.9	0.00e+00	0	44	0	2479882240	43	4421
2026-01-16 11:53:59.85	357.59	48.24	-36.0	-37.7	22.9	0.00e+00	0	43	0	2486173696	43	4422
2026-01-16 11:54:00.85	357.40	47.93	-36.0	-37.6	22.9	0.00e+00	0	44	0	2491416576	43	4391
2026-01-16 11:54:01.84	357.22	47.62	-35.8	-37.4	23.1	0.00e+00	0	44	0	2496659456	43	4275
2026-01-16 11:54:02.84	357.05	47.32	-35.8	-37.4	23.1	0.00e+00	0	44	0	2502950912	43	4277
2026-01-16 11:54:03.83	356.87	47.02	-35.7	-37.3	23.2	0.00e+00	0	44	0	2508193792	43	4217
2026-01-16 11:54:04.82	356.71	46.72	-35.7	-37.3	23.2	0.00e+00	0	44	0	2513436672	43	4214
2026-01-16 11:54:05.82	356.54	46.43	-35.6	-37.2	23.3	0.00e+00	0	43	0	2519728128	43	4176
2026-01-16 11:54:06.81	356.38	46.13	-35.6	-37.3	23.3	0.00e+00	0	44	0	2524971008	43	4201
2026-01-16 11:54:07.81	356.21	45.84	-35.7	-37.4	23.2	0.00e+00	0	43	0	2530213888	43	4266
2026-01-16 11:54:08.80	356.06	45.55	-35.9	-37.5	23.1	0.00e+00	0	44	0	2536505344	43	4330
2026-01-16 11:54:09.80	355.90	45.26	-36.0	-37.7	22.9	0.00e+00	0	44	0	2541748224	43	4414
2026-01-16 11:54:10.79	355.75	44.97	-36.0	-37.7	22.9	0.00e+00	0	43	0	2546991104	43	4413
2026-01-16 11:54:11.79	355.60	44.68	-36.0	-37.7	22.9	0.00e+00	0	44	0	2553282560	43	4396
2026-01-16 11:54:12.78	355.46	44.40	-36.0	-37.7	22.9	0.00e+00	0	43	0	2558525440	43	4407
2026-01-16 11:54:13.77	355.32	44.12	-35.9	-37.5	23.0	0.00e+00	0	44	0	2563768320	43	4334
2026-01-16 11:54:14.77	355.17	43.84	-35.9	-37.5	23.0	0.00e+00	0	44	0	2570059776	43	4325
2026-01-16 11:54:15.76	355.04	43.56	-36.1	-37.8	22.9	0.00e+00	0	44	0	2575302656	43	4453
2026-01-16 11:54:16.76	354.90	43.28	-36.1	-37.8	22.9	0.00e+00	0	44	0	2580545536	43	4444
2026-01-16 11:54:17.76	354.77	43.01	-36.0	-37.6	22.9	0.00e+00	0	43	0	2586836992	43	4390
2026-01-16 11:54:18.75	354.64	42.74	-35.9	-37.6	23.0	0.00e+00	0	44	0	2592079872	43	4366
2026-01-16 11:54:19.74	354.51	42.47	-35.8	-37.5	23.1	0.00e+00	0	43	0	2597322752	43	4295
2026-01-16 11:54:20.74	354.38	42.19	-35.7	-37.3	23.2	0.00e+00	0	44	0	2603614208	43	4236
2026-01-16 11:54:21.73	354.26	41.93	-35.7	-37.3	23.2	0.00e+00	0	43	0	2608857088	43	4242
2026-01-16 11:54:22.73	354.13	41.66	-35.5	-37.1	23.4	0.00e+00	0	43	0	2615148544	43	4139
2026-01-16 11:54:23.72	354.01	41.40	-35.4	-37.0	23.5	0.00e+00	0	44	0	2620391424	42	4294
2026-01-16 11:54:24.72	353.89	41.14	-35.3	-37.0	23.5	0.00e+00	0	44	0	2625634304	42	4297
2026-01-16 11:54:25.71	353.78	40.88	-35.2	-36.8	23.6	0.00e+00	0	44	0	2630877184	42	4213
2026-01-16 11:54:26.71	353.66	40.62	-35.0	-36.7	23.8	0.00e+00	0	44	0	2637168640	42	4146
2026-01-16 11:54:27.70	353.55	40.36	-34.9	-36.5	23.8	0.00e+00	0	44	0	2642411520	41	4314
2026-01-16 11:54:28.70	353.44	40.10	-35.0	-36.6	23.8	0.00e+00	0	44	0	2647654400	41	4344
2026-01-16 11:54:29.69	353.33	39.85	-34.9	-36.5	23.9	0.00e+00	0	44	0	2653945856	41	4299
2026-01-16 11:54:30.69	353.22	39.60	-35.0	-36.6	23.8	0.00e+00	0	43	0	2659188736	41	4378
2026-01-16 11:54:31.68	353.12	39.35	-34.9	-36.6	23.8	0.00e+00	0	43	0	2665480192	41	4349
2026-01-16 11:54:32.68	353.02	39.10	-35.0	-36.7	23.7	0.00e+00	0	43	0	2670723072	41	4401
2026-01-16 11:54:33.67	352.91	38.85	-35.1	-36.7	23.7	0.00e+00	0	44	0	2675965952	41	4424
2026-01-16 11:54:34.67	352.81	38.61	-35.1	-36.7	23.7	0.00e+00	0	44	0	2682257408	41	4401
2026-01-16 11:54:35.66	352.71	38.37	-35.1	-36.7	23.6	0.00e+00	0	43	0	2687500288	41	4438
2026-01-16 11:54:36.66	352.62	38.12	-35.1	-36.7	23.7	0.00e+00	0	43	0	2692743168	41	4418
2026-01-16 11:54:37.65	352.52	37.88	-35.1	-36.8	23.7	0.00e+00	0	44	0	2697986048	41	4444
2026-01-16 11:54:38.65	352.42	37.64	-35.1	-36.8	23.6	0.00e+00	0	43	0	2704277504	41	4459
2026-01-16 11:54:39.64	352.33	37.41	-35.2	-36.9	23.5	0.00e+00	0	43	0	2709520384	41	4504
2026-01-16 11:54:40.64	352.24	37.17	-35.2	-36.8	23.6	0.00e+00	0	44	0	2715811840	41	4463
2026-01-16 11:54:41.63	352.15	36.94	-35.2	-36.9	23.5	0.00e+00	0	43	0	2721054720	41	4505
2026-01-16 11:54:42.62	352.06	36.71	-35.3	-36.9	23.5	0.00e+00	0	44	0	2726297600	41	4531
2026-01-16 11:54:43.61	351.97	36.48	-35.2	-36.8	23.6	0.00e+00	0	44	0	2732589056	41	4475
2026-01-16 11:54:44.61	351.89	36.25	-35.1	-36.7	23.6	0.00e+00	0	44	0	2737831936	41	4438
2026-01-16 11:54:45.60	351.80	36.02	-35.2	-36.8	23.6	0.00e+00	0	44	0	2743074816	41	4469
2026-01-16 11:54:46.60	351.72	35.79	-35.2	-36.8	23.6	0.00e+00	0	44	0	2748317696	41	4484
2026-01-16 11:54:47.59	351.63	35.57	-35.3	-37.0	23.4	0.00e+00	0	44	0	2754609152	41	4558
2026-01-16 11:54:48.58	351.55	35.35	-35.4	-37.1	23.4	0.00e+00	0	44	0	2759852032	41	4608
2026-01-16 11:54:49.58	351.47	35.13	-35.4	-37.0	23.4	0.00e+00	0	44	0	2766143488	41	4592
2026-01-16 11:54:50.57	351.39	34.91	-35.4	-37.1	23.4	0.00e+00	0	44	0	2771386368	41	4607
2026-01-16 11:54:51.57	351.31	34.69	-35.5	-37.1	23.3	0.00e+00	0	44	0	2776629248	41	4638
2026-01-16 11:54:52.56	351.24	34.47	-35.6	-37.3	23.2	0.00e+00	0	44	0	2781872128	41	4716
2026-01-16 11:54:53.55	351.16	34.26	-35.5	-37.2	23.3	0.00e+00	0	44	0	2788163584	41	4667
2026-01-16 11:54:54.55	351.09	34.04	-35.4	-37.1	23.4	0.00e+00	0	44	0	2793406464	41	4600
2026-01-16 11:54:55.55	351.01	33.83	-35.4	-37.0	23.4	0.00e+00	0	44	0	2798649344	41	4590
2026-01-16 11:54:56.54	350.94	33.62	-35.5	-37.1	23.3	0.00e+00	0	44	0	2804940800	41	4627
2026-01-16 11:54:57.54	350.87	33.41	-35.6	-37.3	23.2	0.00e+00	0	44	0	2810183680	41	4711
2026-01-16 11:54:58.53	350.80	33.20	-35.6	-37.2	23.2	0.00e+00	0	44	0	2816475136	41	4689
2026-01-16 11:54:59.53	350.73	32.99	-35.6	-37.2	23.2	0.00e+00	0	44	0	2821718016	41	4699
2026-01-16 11:55:00.52	350.66	32.79	-35.6	-37.3	23.2	0.00e+00	0	44	0	2826960896	41	4706
2026-01-16 11:55:01.52	350.59	32.58	-35.7	-37.4	23.2	0.00e+00	0	43	0	2833252352	42	4498
2026-01-16 11:55:02.52	350.52	32.38	-35.7	-37.4	23.1	0.00e+00	0	44	0	2838495232	42	4504
2026-01-16 11:55:03.51	350.45	32.18	-35.7	-37.4	23.2	0.00e+00	0	44	0	2843738112	42	4494
2026-01-16 11:55:04.50	350.39	31.98	-35.8	-37.4	23.1	0.00e+00	0	44	0	2848980992	42	4524
2026-01-16 11:55:05.50	350.32	31.78	-35.8	-37.5	23.0	0.00e+00	0	44	0	2855272448	42	4562
2026-01-16 11:55:06.49	350.26	31.58	-35.9	-37.6	23.0	0.00e+00	0	43	0	2860515328	42	4599
2026-01-16 11:55:07.49	350.20	31.38	-35.8	-37.5	23.0	0.00e+00	0	44	0	2866806784	42	4575
2026-01-16 11:55:08.48	350.13	31.19	-36.0	-37.6	22.9	0.00e+00	0	44	0	2872049664	42	4646
2026-01-16 11:55:09.47	350.07	30.99	-35.9	-37.6	23.0	0.00e+00	0	44	0	2877292544	42	4636
2026-01-16 11:55:10.47	350.01	30.80	-36.0	-37.7	22.9	0.00e+00	0	44	0	2883584000	42	4682
2026-01-16 11:55:11.47	349.95	30.61	-36.1	-37.8	22.8	0.00e+00	0	43	0	2888826880	42	4713
2026-01-16 11:55:12.46	349.89	30.42	-35.9	-37.6	23.0	0.00e+00	0	44	0	2894069760	42	4604
2026-01-16 11:55:13.46	349.83	30.23	-35.8	-37.5	23.0	0.00e+00	0	44	0	2899312640	42	4571
2026-01-16 11:55:14.45	349.78	30.04	-35.7	-37.4	23.1	0.00e+00	0	44	0	2905604096	42	4515
2026-01-16 11:55:15.45	349.72	29.85	-35.7	-37.4	23.2	0.00e+00	0	44	0	2910846976	42	4495
2026-01-16 11:55:16.44	349.66	29.67	-35.7	-37.3	23.1	0.00e+00	0	44	0	2917138432	42	4493
2026-01-16 11:55:17.44	349.61	29.48	-35.6	-37.3	23.2	0.00e+00	0	44	0	2922381312	42	4447
2026-01-16 11:55:18.43	349.55	29.30	-35.7	-37.4	23.1	0.00e+00	0	44	0	2927624192	42	4496
2026-01-16 11:55:19.42	349.50	29.12	-35.8	-37.4	23.1	0.00e+00	0	44	0	2933915648	42	4514
2026-01-16 11:55:20.42	349.44	28.94	-35.7	-37.3	23.2	0.00e+00	0	44	0	2939158528	42	4468
2026-01-16 11:55:21.41	349.39	28.76	-35.7	-37.4	23.2	0.00e+00	0	43	0	2944401408	42	4497
2026-01-16 11:55:22.41	349.34	28.58	-35.8	-37.5	23.1	0.00e+00	0	43	0	2949644288	42	4546
2026-01-16 11:55:23.40	349.29	28.40	-35.9	-37.5	23.0	0.00e+00	0	44	0	2955935744	42	4593
2026-01-16 11:55:24.39	349.23	28.23	-35.9	-37.5	23.0	0.00e+00	0	44	0	2961178624	42	4598
2026-01-16 11:55:25.39	349.18	28.05	-35.9	-37.6	22.9	0.00e+00	0	44	0	2967470080	42	4621
2026-01-16 11:55:26.39	349.13	27.88	-36.0	-37.7	22.9	0.00e+00	0	44	0	2972712960	42	4658
2026-01-16 11:55:27.38	349.08	27.70	-35.9	-37.6	22.9	0.00e+00	0	43	0	2977955840	42	4629
2026-01-16 11:55:28.37	349.04	27.53	-36.0	-37.7	22.8	0.00e+00	0	44	0	2984247296	42	4692
2026-01-16 11:55:29.37	348.99	27.36	-36.0	-37.7	22.8	0.00e+00	0	44	0	2989490176	42	4696
2026-01-16 11:55:30.36	348.94	27.19	-35.9	-37.6	22.9	0.00e+00	0	43	0	2994733056	42	4636
2026-01-16 11:55:31.36	348.89	27.02	-36.0	-37.7	22.9	0.00e+00	0	44	0	2999975936	42	4652
2026-01-16 11:55:32.35	348.85	26.85	-35.9	-37.6	22.9	0.00e+00	0	44	0	3006267392	42	4637
2026-01-16 11:55:33.35	348.80	26.69	-35.9	-37.5	23.0	0.00e+00	0	44	0	3011510272	42	4592
2026-01-16 11:55:34.34	348.75	26.52	-35.9	-37.5	23.0	0.00e+00	0	44	0	3017801728	42	4592
2026-01-16 11:55:35.34	348.71	26.36	-35.8	-37.5	23.0	0.00e+00	0	44	0	3023044608	42	4568
2026-01-16 11:55:36.34	348.66	26.19	-35.9	-37.5	23.0	0.00e+00	0	44	0	3028287488	42	4587
2026-01-16 11:55:37.33	348.62	26.03	-35.9	-37.5	23.0	0.00e+00	0	44	0	3034578944	42	4585
2026-01-16 11:55:38.33	348.58	25.87	-35.9	-37.5	23.0	0.00e+00	0	43	0	3039821824	42	4568
2026-01-16 11:55:39.32	348.53	25.71	-35.9	-37.6	23.0	0.00e+00	0	44	0	3045064704	42	4605
2026-01-16 11:55:40.32	348.49	25.54	-36.0	-37.6	22.9	0.00e+00	0	44	0	3051356160	42	4639
2026-01-16 11:55:41.32	348.45	25.38	-36.0	-37.6	22.9	0.00e+00	0	44	0	3056599040	42	4649
2026-01-16 11:55:42.31	348.41	25.23	-36.1	-37.7	22.8	0.00e+00	0	44	0	3062890496	42	4688
2026-01-16 11:55:43.31	348.36	25.07	-36.0	-37.6	22.9	0.00e+00	0	43	0	3068133376	42	4647
2026-01-16 11:55:44.30	348.32	24.91	-36.1	-37.7	22.8	0.00e+00	0	43	0	3073376256	42	4691
2026-01-16 11:55:45.30	348.28	24.76	-36.0	-37.7	22.8	0.00e+00	0	44	0	3078619136	42	4677
2026-01-16 11:55:46.29	348.24	24.60	-36.2	-37.8	22.7	0.00e+00	0	44	0	3084910592	42	4748
2026-01-16 11:55:47.28	348.20	24.45	-36.2	-37.9	22.7	0.00e+00	0	44	0	3090153472	43	4498
2026-01-16 11:55:48.28	348.16	24.30	-36.1	-37.8	22.7	0.00e+00	0	44	0	3095396352	43	4473
2026-01-16 11:55:49.27	348.12	24.15	-36.2	-37.8	22.7	0.00e+00	0	44	0	3101687808	43	4490
2026-01-16 11:55:50.27	348.09	23.99	-36.2	-37.9	22.7	0.00e+00	0	44	0	3106930688	43	4502
2026-01-16 11:55:51.26	348.05	23.84	-36.2	-37.9	22.6	0.00e+00	0	44	0	3113222144	43	4536
2026-01-16 11:55:52.26	348.01	23.69	-36.2	-37.9	22.6	0.00e+00	0	44	0	3118465024	43	4521
2026-01-16 11:55:53.25	347.97	23.55	-36.2	-37.9	22.6	0.00e+00	0	44	0	3123707904	43	4542
2026-01-16 11:55:54.25	347.94	23.40	-36.2	-37.9	22.6	0.00e+00	0	43	0	3128950784	43	4530
2026-01-16 11:55:55.24	347.90	23.25	-36.3	-38.0	22.6	0.00e+00	0	44	0	3135242240	43	4571
2026-01-16 11:55:56.24	347.86	23.11	-36.3	-38.1	22.5	0.00e+00	0	44	0	3140485120	43	4613
2026-01-16 11:55:57.23	347.83	22.96	-36.4	-38.1	22.4	0.00e+00	0	44	0	3145728000	43	4632
2026-01-16 11:55:58.22	347.79	22.82	-36.3	-38.0	22.5	0.00e+00	0	44	0	3152019456	43	4592
2026-01-16 11:55:59.22	347.76	22.67	-36.3	-38.0	22.6	0.00e+00	0	44	0	3157262336	43	4574
2026-01-16 11:56:00.22	347.72	22.53	-36.3	-38.0	22.5	0.00e+00	0	43	0	3163553792	43	4591
2026-01-16 11:56:01.21	347.69	22.39	-36.4	-38.0	22.5	0.00e+00	0	43	0	3168796672	43	4592
2026-01-16 11:56:02.21	347.66	22.25	-36.5	-38.2	22.4	0.00e+00	0	44	0	3174039552	43	4677
2026-01-16 11:56:03.20	347.62	22.11	-36.5	-38.2	22.4	0.00e+00	0	43	0	3179282432	43	4662
2026-01-16 11:56:04.20	347.59	21.97	-36.5	-38.1	22.4	0.00e+00	0	44	0	3185573888	43	4651
2026-01-16 11:56:05.19	347.56	21.83	-36.4	-38.1	22.4	0.00e+00	0	44	0	3190816768	43	4643
2026-01-16 11:56:06.18	347.52	21.69	-36.5	-38.2	22.4	0.00e+00	0	44	0	3196059648	43	4654
2026-01-16 11:56:07.18	347.49	21.55	-36.6	-38.3	22.3	0.00e+00	0	44	0	3202351104	43	4710
2026-01-16 11:56:08.17	347.46	21.42	-36.5	-38.2	22.3	0.00e+00	0	44	0	3207593984	43	4703
2026-01-16 11:56:09.17	347.43	21.28	-36.6	-38.3	22.3	0.00e+00	0	44	0	3213885440	43	4718
2026-01-16 11:56:10.16	347.40	21.14	-36.6	-38.3	22.2	0.00e+00	0	44	0	3219128320	43	4758
2026-01-16 11:56:11.16	347.37	21.01	-36.6	-38.3	22.2	0.00e+00	0	44	0	3224371200	43	4754
2026-01-16 11:56:12.15	347.33	20.88	-36.9	-38.6	22.2	0.00e+00	0	44	0	3229614080	44	4609
2026-01-16 11:56:13.14	347.30	20.74	-36.9	-38.6	22.1	0.00e+00	0	44	0	3235905536	44	4635
2026-01-16 11:56:14.14	347.27	20.61	-36.9	-38.6	22.1	0.00e+00	0	44	0	3241148416	44	4636
2026-01-16 11:56:15.13	347.24	20.48	-36.9	-38.6	22.1	0.00e+00	0	44	0	3246391296	44	4645
2026-01-16 11:56:16.13	347.22	20.35	-37.0	-38.7	22.1	0.00e+00	0	44	0	3252682752	44	4655
2026-01-16 11:56:17.13	347.19	20.22	-37.1	-38.8	22.0	0.00e+00	0	43	0	3257925632	44	4726
2026-01-16 11:56:18.12	347.16	20.09	-37.1	-38.9	21.9	0.00e+00	0	43	0	3264217088	44	4767
2026-01-16 11:56:19.12	347.13	19.96	-37.2	-38.9	21.8	0.00e+00	0	43	0	3269459968	45	4536
2026-01-16 11:56:20.11	347.10	19.83	-37.1	-38.8	21.9	0.00e+00	0	44	0	3274702848	45	4483
2026-01-16 11:56:21.11	347.07	19.70	-37.1	-38.9	21.9	0.00e+00	0	44	0	3279945728	45	4506
2026-01-16 11:56:22.10	347.04	19.57	-37.2	-38.9	21.8	0.00e+00	0	44	0	3286237184	45	4534
2026-01-16 11:56:23.10	347.02	19.45	-37.2	-39.0	21.8	0.00e+00	0	43	0	3291480064	45	4564
2026-01-16 11:56:24.09	346.99	19.32	-37.3	-39.0	21.8	0.00e+00	0	43	0	3296722944	45	4579
2026-01-16 11:56:25.08	346.96	19.20	-37.3	-39.0	21.8	0.00e+00	0	44	0	3303014400	45	4567
2026-01-16 11:56:26.08	346.93	19.07	-37.3	-39.0	21.7	0.00e+00	0	44	0	3308257280	45	4587
2026-01-16 11:56:27.07	346.91	18.95	-37.3	-39.1	21.7	0.00e+00	0	44	0	3314548736	45	4599
2026-01-16 11:56:28.07	346.88	18.82	-37.3	-39.1	21.7	0.00e+00	0	44	0	3319791616	45	4601
2026-01-16 11:56:29.06	346.86	18.70	-37.4	-39.2	21.6	0.00e+00	0	44	0	3325034496	45	4663
2026-01-16 11:56:30.06	346.83	18.58	-37.5	-39.2	21.6	0.00e+00	0	44	0	3330277376	45	4682
2026-01-16 11:56:31.06	346.80	18.46	-37.5	-39.3	21.5	0.00e+00	0	44	0	3336568832	45	4724
2026-01-16 11:56:32.05	346.78	18.34	-37.4	-39.2	21.6	0.00e+00	0	43	0	3341811712	45	4668
2026-01-16 11:56:33.05	346.75	18.22	-37.5	-39.3	21.5	0.00e+00	0	44	0	3347054592	45	4728
2026-01-16 11:56:34.04	346.73	18.10	-37.6	-39.4	21.4	0.00e+00	0	44	0	3353346048	45	4775
2026-01-16 11:56:35.04	346.70	17.98	-37.5	-39.3	21.5	0.00e+00	0	44	0	3358588928	45	4715
2026-01-16 11:56:36.03	346.68	17.86	-37.6	-39.4	21.4	0.00e+00	0	44	0	3364880384	45	4772
2026-01-16 11:56:37.03	346.66	17.74	-37.6	-39.4	21.4	0.00e+00	0	44	0	3370123264	46	4534
2026-01-16 11:56:38.02	346.63	17.62	-37.6	-39.4	21.4	0.00e+00	0	44	0	3375366144	46	4514
2026-01-16 11:56:39.02	346.61	17.51	-37.6	-39.4	21.4	0.00e+00	0	44	0	3381657600	46	4541
2026-01-16 11:56:40.01	346.58	17.39	-37.6	-39.5	21.3	0.00e+00	0	44	0	3386900480	46	4546
2026-01-16 11:56:41.01	346.56	17.27	-37.6	-39.4	21.4	0.00e+00	0	43	0	3392143360	46	4538
2026-01-16 11:56:42.00	346.54	17.16	-37.7	-39.6	21.2	0.00e+00	0	44	0	3397386240	46	4602
2026-01-16 11:56:43.00	346.51	17.04	-37.7	-39.5	21.3	0.00e+00	0	44	0	3403677696	46	4598
2026-01-16 11:56:43.99	346.49	16.93	-37.8	-39.6	21.2	0.00e+00	0	44	0	3408920576	46	4634
2026-01-16 11:56:44.99	346.47	16.81	-37.8	-39.6	21.2	0.00e+00	0	43	0	3415212032	46	4643
2026-01-16 11:56:45.98	346.45	16.70	-37.8	-39.6	21.2	0.00e+00	0	43	0	3420454912	46	4621
2026-01-16 11:56:46.98	346.42	16.59	-37.9	-39.7	21.1	0.00e+00	0	44	0	3425697792	46	4652
2026-01-16 11:56:47.97	346.40	16.48	-37.9	-39.7	21.1	0.00e+00	0	44	0	3431989248	46	4667
2026-01-16 11:56:48.97	346.38	16.37	-38.0	-39.8	21.1	0.00e+00	0	44	0	3437232128	46	4706
2026-01-16 11:56:49.96	346.36	16.25	-38.0	-39.8	21.0	0.00e+00	0	44	0	3442475008	46	4728
2026-01-16 11:56:50.95	346.34	16.14	-38.0	-39.8	21.0	0.00e+00	0	44	0	3447717888	46	4708
2026-01-16 11:56:51.95	346.32	16.03	-38.1	-39.9	20.9	0.00e+00	0	44	0	3454009344	47	4531
2026-01-16 11:56:52.95	346.29	15.92	-38.1	-39.9	21.0	0.00e+00	0	44	0	3459252224	47	4494
2026-01-16 11:56:53.94	346.27	15.81	-38.1	-39.9	20.9	0.00e+00	0	44	0	3465543680	47	4502
2026-01-16 11:56:54.94	346.25	15.71	-38.1	-39.9	20.9	0.00e+00	0	44	0	3470786560	47	4543
2026-01-16 11:56:55.93	346.23	15.60	-38.1	-39.9	20.9	0.00e+00	0	44	0	3476029440	47	4508
2026-01-16 11:56:56.93	346.21	15.49	-38.2	-40.0	20.8	0.00e+00	0	43	0	3482320896	47	4586
2026-01-16 11:56:57.92	346.19	15.38	-38.1	-40.0	20.8	0.00e+00	0	44	0	3487563776	47	4563
2026-01-16 11:56:58.92	346.17	15.28	-38.2	-40.1	20.7	0.00e+00	0	44	0	3492806656	47	4626
2026-01-16 11:56:59.91	346.15	15.17	-38.2	-40.1	20.7	0.00e+00	0	44	0	3499098112	47	4636
2026-01-16 11:57:00.91	346.13	15.06	-38.2	-40.1	20.7	0.00e+00	0	44	0	3504340992	47	4633
2026-01-16 11:57:01.90	346.11	14.96	-38.3	-40.1	20.7	0.00e+00	0	44	0	3509583872	47	4647
2026-01-16 11:57:02.90	346.09	14.85	-38.3	-40.2	20.6	0.00e+00	0	43	0	3515875328	47	4670
2026-01-16 11:57:03.89	346.08	14.75	-38.4	-40.3	20.6	0.00e+00	0	44	0	3521118208	47	4725
2026-01-16 11:57:04.89	346.06	14.64	-38.5	-40.4	20.4	0.00e+00	0	44	0	3526361088	47	4794
2026-01-16 11:57:05.88	346.04	14.54	-38.5	-40.3	20.5	0.00e+00	0	43	0	3532652544	47	4755
2026-01-16 11:57:06.88	346.02	14.44	-38.4	-40.3	20.5	0.00e+00	0	44	0	3537895424	47	4735
2026-01-16 11:57:07.87	346.00	14.34	-38.5	-40.4	20.5	0.00e+00	0	44	0	3543138304	47	4768
2026-01-16 11:57:08.86	345.98	14.23	-38.5	-40.3	20.5	0.00e+00	0	44	0	3549429760	47	4749
2026-01-16 11:57:09.86	345.96	14.13	-38.5	-40.4	20.4	0.00e+00	0	44	0	3554672640	47	4775
2026-01-16 11:57:10.85	345.95	14.03	-38.6	-40.5	20.3	0.00e+00	0	43	0	3559915520	47	4849
2026-01-16 11:57:11.85	345.93	13.93	-38.6	-40.4	20.4	0.00e+00	0	44	0	3566206976	47	4811
2026-01-16 11:57:12.84	345.91	13.83	-38.7	-40.5	20.3	0.00e+00	0	43	0	3571449856	47	4857
2026-01-16 11:57:13.84	345.89	13.73	-38.7	-40.6	20.5	0.00e+00	0	44	0	3576692736	48	4613
2026-01-16 11:57:14.84	345.87	13.63	-38.8	-40.7	20.4	0.00e+00	0	44	0	3582984192	48	4661
2026-01-16 11:57:15.83	345.86	13.53	-38.8	-40.7	20.4	0.00e+00	0	44	0	3588227072	48	4655
2026-01-16 11:57:16.82	345.84	13.43	-38.9	-40.8	20.3	0.00e+00	0	44	0	3593469952	48	4716
2026-01-16 11:57:17.82	345.82	13.33	-38.8	-40.7	20.3	0.00e+00	0	44	0	3599761408	48	4675
2026-01-16 11:57:18.81	345.81	13.23	-38.9	-40.8	20.2	0.00e+00	0	44	0	3605004288	48	4741
2026-01-16 11:57:19.81	345.79	13.13	-38.8	-40.8	20.3	0.00e+00	0	44	0	3610247168	48	4723
2026-01-16 11:57:20.80	345.77	13.04	-38.8	-40.8	20.3	0.00e+00	0	43	0	3616538624	48	4709
2026-01-16 11:57:21.80	345.76	12.94	-38.8	-40.7	20.3	0.00e+00	0	44	0	3621781504	48	4700
2026-01-16 11:57:22.79	345.74	12.84	-38.9	-40.9	20.2	0.00e+00	0	44	0	3627024384	48	4775
