passes_logs/2026/01/16/T1/T1__20260116_225735_SUOMI_NPP_rec.log

#Pass ID: 20260116_225735_SUOMI NPP
#Satellite: SUOMI NPP
#Configuration: NPP
#almurnet v.1.7.20251203
#Start time: 2026-01-16 22:57:36

#Version: 2.0.20230620
#Station: T1
#Location: 37.570604 lon 55.790049 lat
#TLE: 1 37849U 11061A   26016.23176763  .00000061  00000+0  49926-4 0  9990
#TLE: 2 37849  98.7812 318.2698 0002434  61.5135 298.6286 14.19525545736883

#Time	Az	El	Level	Level2	SNR	BER	BlckErr	Temp	State	Recorded	gain1	gain2
2026-01-16 22:57:36.09	22.44	5.01	-49.3	-65.3	3.8	1.49e+00	0	39	0	0	70	22269
2026-01-16 22:57:37.08	22.49	5.08	-49.3	-65.2	3.8	1.49e+00	0	39	104	0	69	23367
2026-01-16 22:57:38.07	22.54	5.14	-49.3	-65.1	3.8	1.49e+00	0	39	104	0	69	23269
2026-01-16 22:57:39.07	22.59	5.21	-49.3	-65.2	3.8	1.49e+00	0	40	104	0	69	23321
2026-01-16 22:57:40.06	22.64	5.28	-49.3	-65.1	3.8	1.49e+00	0	39	104	0	69	23209
2026-01-16 22:57:41.05	22.69	5.35	-49.3	-65.1	3.8	1.49e+00	0	40	104	0	69	23222
2026-01-16 22:57:42.05	22.73	5.41	-49.3	-65.1	3.8	1.49e+00	0	40	104	0	69	23108
2026-01-16 22:57:43.04	22.78	5.48	-49.3	-65.1	3.8	1.49e+00	0	39	104	0	69	23210
2026-01-16 22:57:44.03	22.83	5.55	-49.3	-65.1	3.8	1.49e+00	0	40	104	0	69	23118
2026-01-16 22:57:45.03	22.88	5.62	-49.3	-65.1	3.8	1.49e+00	0	40	104	0	69	23164
2026-01-16 22:57:46.02	22.93	5.69	-49.3	-65.1	3.8	1.49e+00	0	40	104	0	69	23213
2026-01-16 22:57:47.01	22.98	5.76	-49.3	-65.2	3.8	1.49e+00	0	40	104	0	69	23321
2026-01-16 22:57:48.01	23.03	5.82	-49.3	-65.2	3.8	1.49e+00	0	40	104	0	69	23322
2026-01-16 22:57:49.00	23.08	5.89	-49.3	-65.2	3.8	1.49e+00	0	40	104	0	69	23334
2026-01-16 22:57:49.99	23.13	5.96	-49.3	-65.2	3.8	1.49e+00	0	40	104	0	69	23414
2026-01-16 22:57:50.98	23.18	6.03	-49.3	-65.2	3.8	1.49e+00	0	40	104	0	69	23392
2026-01-16 22:57:51.98	23.24	6.10	-49.3	-65.2	3.8	1.49e+00	0	40	104	0	69	23388
2026-01-16 22:57:52.97	23.29	6.17	-49.3	-65.2	3.8	1.49e+00	0	40	104	0	69	23432
2026-01-16 22:57:53.96	23.34	6.24	-49.3	-65.2	3.8	1.49e+00	0	40	104	0	69	23406
2026-01-16 22:57:54.95	23.39	6.31	-49.3	-65.1	3.8	1.49e+00	0	40	104	0	69	23297
2026-01-16 22:57:55.95	23.44	6.38	-49.3	-65.1	3.8	1.49e+00	0	40	104	0	69	23309
2026-01-16 22:57:56.94	23.49	6.45	-49.3	-65.1	3.8	1.49e+00	0	40	104	0	69	23195
2026-01-16 22:57:57.94	23.55	6.52	-49.3	-65.1	3.8	1.49e+00	0	40	104	0	69	23232
2026-01-16 22:57:58.93	23.60	6.59	-49.3	-65.1	3.8	1.49e+00	0	40	104	0	69	23205
2026-01-16 22:57:59.92	23.65	6.66	-49.3	-65.1	3.8	1.49e+00	0	40	104	0	69	23263
2026-01-16 22:58:00.92	23.71	6.73	-49.3	-65.1	3.8	1.49e+00	0	40	104	0	69	23297
2026-01-16 22:58:01.91	23.76	6.81	-49.3	-65.2	3.8	1.49e+00	0	40	104	0	69	23396
2026-01-16 22:58:02.90	23.81	6.88	-49.3	-65.2	3.8	1.49e+00	0	40	104	0	69	23382
2026-01-16 22:58:03.90	23.87	6.95	-49.3	-65.2	3.8	1.49e+00	0	40	104	0	69	23415
2026-01-16 22:58:04.89	23.92	7.02	-49.3	-65.1	3.8	1.49e+00	0	40	104	0	69	23270
2026-01-16 22:58:05.88	23.98	7.09	-49.3	-65.1	3.8	1.49e+00	0	40	104	0	69	23197
2026-01-16 22:58:06.88	24.03	7.16	-49.3	-65.0	3.8	1.49e+00	0	40	104	0	69	22966
2026-01-16 22:58:07.87	24.09	7.24	-49.3	-64.9	3.8	1.49e+00	0	41	104	0	69	22629
2026-01-16 22:58:08.86	24.14	7.31	-49.3	-64.8	3.8	1.49e+00	0	40	104	0	69	22282
2026-01-16 22:58:09.85	24.20	7.38	-49.3	-64.7	3.8	1.49e+00	0	41	104	0	69	22071
2026-01-16 22:58:10.85	24.25	7.45	-49.3	-64.5	3.8	1.49e+00	0	40	104	0	69	21743
2026-01-16 22:58:11.84	24.31	7.53	-49.3	-64.5	3.8	1.49e+00	0	41	104	0	69	21684
2026-01-16 22:58:12.83	24.36	7.60	-49.2	-64.4	3.8	1.49e+00	0	40	104	0	69	21289
2026-01-16 22:58:13.83	24.42	7.67	-49.3	-64.4	3.8	1.49e+00	0	41	104	0	69	21360
2026-01-16 22:58:14.82	24.48	7.75	-49.2	-64.2	3.8	1.49e+00	0	41	104	0	69	21003
2026-01-16 22:58:15.81	24.53	7.82	-49.2	-64.3	3.8	1.49e+00	0	41	104	0	69	21201
2026-01-16 22:58:16.81	24.59	7.90	-49.3	-64.3	3.8	1.49e+00	0	41	104	0	69	21122
2026-01-16 22:58:17.80	24.65	7.97	-49.3	-64.3	3.8	1.49e+00	0	41	104	0	69	21088
2026-01-16 22:58:18.79	24.71	8.04	-49.2	-64.2	3.8	1.49e+00	0	41	104	0	69	20971
2026-01-16 22:58:19.79	24.76	8.12	-49.3	-64.3	3.8	1.49e+00	0	41	104	0	69	21150
2026-01-16 22:58:20.78	24.82	8.19	-49.3	-64.1	3.8	1.49e+00	0	41	104	0	69	20678
2026-01-16 22:58:21.77	24.88	8.27	-49.2	-63.9	3.8	1.49e+00	0	41	104	0	69	20275
2026-01-16 22:58:22.76	24.94	8.34	-49.2	-63.6	3.8	1.49e+00	0	41	104	0	69	19457
2026-01-16 22:58:23.76	25.00	8.42	-49.2	-63.1	3.8	1.48e+00	0	41	104	0	69	18346
2026-01-16 22:58:24.75	25.06	8.49	-49.1	-62.0	4.1	1.48e+00	0	41	104	0	69	16272
2026-01-16 22:58:25.74	25.12	8.57	-49.1	-61.0	4.4	1.38e+00	0	41	0	0	69	14465
2026-01-16 22:58:26.74	25.18	8.65	-48.9	-59.8	4.9	9.43e-01	0	41	0	2097152	69	12584
2026-01-16 22:58:27.73	25.24	8.72	-48.7	-58.3	5.9	4.51e-01	0	41	0	3145728	69	10580
2026-01-16 22:58:28.72	25.30	8.80	-48.5	-57.0	6.9	2.25e-01	0	41	0	5242880	69	9145
2026-01-16 22:58:29.72	25.36	8.88	-48.2	-55.6	8.2	1.08e-01	0	41	0	7340032	68	8244
2026-01-16 22:58:30.71	25.42	8.95	-47.8	-54.4	9.3	3.80e-02	0	41	0	9437184	67	7564
2026-01-16 22:58:31.70	25.48	9.03	-47.6	-53.9	9.8	9.36e-03	0	41	0	10485760	67	7142
2026-01-16 22:58:32.70	25.55	9.11	-46.5	-51.2	12.6	2.28e-03	0	41	0	12582912	65	5915
2026-01-16 22:58:33.69	25.61	9.18	-48.4	-57.5	6.6	1.01e-04	0	41	0	14680064	67	10873
2026-01-16 22:58:34.69	25.67	9.26	-46.4	-51.0	12.7	1.08e-01	0	41	0	16777216	64	6120
2026-01-16 22:58:35.68	25.73	9.34	-47.4	-53.0	11.0	3.20e-05	0	41	0	18874368	65	7261
2026-01-16 22:58:36.90	25.81	9.44	-44.8	-48.2	15.7	6.80e-06	0	41	0	20971520	61	5246
2026-01-16 22:58:37.78	25.87	9.51	-44.7	-48.0	15.9	0.00e+00	0	41	0	22020096	61	5120
2026-01-16 22:58:39.11	25.95	9.61	-44.5	-47.8	16.1	0.00e+00	0	41	0	25165824	61	5018
2026-01-16 22:58:39.82	26.00	9.67	-44.5	-47.7	16.1	0.00e+00	0	41	0	26214400	61	4974
2026-01-16 22:58:41.10	26.08	9.77	-44.3	-47.4	16.5	0.00e+00	0	41	0	28311552	60	5049
2026-01-16 22:58:41.81	26.13	9.83	-44.5	-47.7	16.2	0.00e+00	0	41	0	30408704	60	5242
2026-01-16 22:58:43.09	26.21	9.93	-44.3	-47.4	16.5	0.00e+00	0	41	0	32505856	60	5064
2026-01-16 22:58:43.82	26.26	9.99	-44.3	-47.4	16.5	0.00e+00	0	41	0	33554432	60	5049
2026-01-16 22:58:45.10	26.34	10.09	-44.3	-47.3	16.6	0.00e+00	0	41	0	35651584	60	5008
2026-01-16 22:58:45.87	26.39	10.15	-44.3	-47.3	16.6	0.00e+00	0	41	0	37748736	60	5003
2026-01-16 22:58:47.15	26.48	10.26	-44.2	-47.2	16.7	0.00e+00	0	41	0	39845888	60	4950
2026-01-16 22:58:47.96	26.53	10.32	-44.2	-47.1	16.8	0.00e+00	0	41	0	41943040	60	4878
2026-01-16 22:58:49.09	26.61	10.41	-44.1	-47.0	16.9	0.00e+00	0	41	0	44040192	60	4837
2026-01-16 22:58:49.95	26.67	10.48	-44.0	-46.8	17.0	0.00e+00	0	41	0	45088768	60	4755
2026-01-16 22:58:51.08	26.75	10.58	-44.1	-46.9	17.0	0.00e+00	0	41	0	47185920	59	5060
2026-01-16 22:58:51.93	26.81	10.65	-44.0	-46.8	17.0	0.00e+00	0	41	0	49283072	59	5025
2026-01-16 22:58:53.07	26.88	10.74	-43.9	-46.7	17.2	0.00e+00	0	41	0	51380224	59	4933
2026-01-16 22:58:54.33	26.97	10.85	-44.1	-46.9	17.0	0.00e+00	0	41	0	53477376	59	5077
2026-01-16 22:58:55.12	27.03	10.91	-43.9	-46.6	17.2	0.00e+00	0	41	0	54525952	59	4896
2026-01-16 22:58:56.31	27.11	11.01	-44.1	-46.9	17.0	0.00e+00	0	41	0	56623104	59	5045
2026-01-16 22:58:57.40	27.19	11.10	-44.0	-46.7	17.2	0.00e+00	0	41	0	58720256	59	4973
2026-01-16 22:58:58.25	27.25	11.17	-44.0	-46.7	17.2	0.00e+00	0	41	0	60817408	59	4958
2026-01-16 22:58:59.39	27.33	11.27	-43.8	-46.5	17.3	0.00e+00	0	41	0	62914560	59	4869
2026-01-16 22:59:00.24	27.39	11.34	-44.0	-46.7	17.2	0.00e+00	0	41	0	63963136	59	4972
2026-01-16 22:59:01.37	27.47	11.43	-43.9	-46.7	17.2	0.00e+00	0	41	0	66060288	59	4938
2026-01-16 22:59:02.23	27.53	11.51	-43.9	-46.7	17.1	0.00e+00	0	41	0	68157440	59	4979
2026-01-16 22:59:03.36	27.62	11.60	-43.9	-46.6	17.3	0.00e+00	0	41	0	70254592	59	4919
2026-01-16 22:59:04.22	27.68	11.68	-44.1	-46.9	17.1	0.00e+00	0	41	0	72351744	59	5065
2026-01-16 22:59:05.36	27.76	11.77	-44.0	-46.8	17.2	0.00e+00	0	41	0	74448896	59	4984
2026-01-16 22:59:06.21	27.83	11.85	-43.9	-46.6	17.3	0.00e+00	0	42	0	75497472	59	4912
2026-01-16 22:59:07.35	27.91	11.95	-44.0	-46.8	17.1	0.00e+00	0	42	0	77594624	59	5003
2026-01-16 22:59:08.20	27.97	12.02	-43.9	-46.7	17.2	0.00e+00	0	41	0	79691776	59	4960
2026-01-16 22:59:09.34	28.06	12.12	-44.0	-46.8	17.2	0.00e+00	0	41	0	81788928	59	5001
2026-01-16 22:59:10.19	28.13	12.19	-44.0	-46.9	17.1	0.00e+00	0	41	0	82837504	59	5051
2026-01-16 22:59:11.33	28.21	12.29	-43.9	-46.7	17.3	0.00e+00	0	41	0	84934656	59	4944
2026-01-16 22:59:12.18	28.28	12.37	-44.0	-46.8	17.1	0.00e+00	0	41	0	87031808	59	5030
2026-01-16 22:59:13.32	28.36	12.47	-44.1	-47.0	17.0	0.00e+00	0	41	0	89128960	59	5103
2026-01-16 22:59:14.17	28.43	12.54	-44.3	-47.1	16.9	0.00e+00	0	42	0	90177536	59	5199
2026-01-16 22:59:15.31	28.52	12.64	-44.1	-47.0	17.0	0.00e+00	0	41	0	92274688	59	5122
2026-01-16 22:59:16.17	28.59	12.72	-44.0	-46.8	17.1	0.00e+00	0	42	0	94371840	59	5027
2026-01-16 22:59:17.30	28.68	12.82	-44.0	-46.8	17.1	0.00e+00	0	41	0	96468992	59	5014
2026-01-16 22:59:18.16	28.74	12.89	-43.9	-46.7	17.2	0.00e+00	0	41	0	98566144	59	4981
2026-01-16 22:59:19.30	28.83	13.00	-43.8	-46.6	17.4	0.00e+00	0	42	0	100663296	59	4899
2026-01-16 22:59:20.15	28.90	13.07	-43.7	-46.5	17.5	0.00e+00	0	42	0	101711872	59	4829
2026-01-16 22:59:21.32	29.00	13.18	-43.8	-46.6	17.4	0.00e+00	0	42	0	103809024	59	4883
2026-01-16 22:59:22.17	29.07	13.25	-43.8	-46.5	17.5	0.00e+00	0	41	0	105906176	59	4828
2026-01-16 22:59:23.37	29.16	13.36	-43.8	-46.5	17.5	0.00e+00	0	42	0	108003328	59	4829
2026-01-16 22:59:24.22	29.23	13.44	-43.7	-46.4	17.5	0.00e+00	0	41	0	109051904	59	4807
2026-01-16 22:59:25.42	29.33	13.55	-43.8	-46.5	17.5	0.00e+00	0	41	0	111149056	59	4850
2026-01-16 22:59:26.27	29.40	13.63	-43.8	-46.5	17.5	0.00e+00	0	41	0	113246208	59	4831
2026-01-16 22:59:27.47	29.50	13.74	-43.9	-46.6	17.4	0.00e+00	0	42	0	115343360	59	4876
2026-01-16 22:59:28.33	29.58	13.82	-44.0	-46.7	17.3	0.00e+00	0	42	0	117440512	59	4939
2026-01-16 22:59:29.53	29.68	13.93	-43.9	-46.6	17.4	0.00e+00	0	41	0	119537664	59	4896
2026-01-16 22:59:30.38	29.75	14.01	-43.7	-46.3	17.7	0.00e+00	0	42	0	120586240	59	4718
2026-01-16 22:59:31.58	29.85	14.12	-43.9	-46.5	17.4	0.00e+00	0	41	0	122683392	59	4865
2026-01-16 22:59:32.43	29.93	14.20	-43.8	-46.4	17.6	0.00e+00	0	41	0	124780544	59	4762
2026-01-16 22:59:33.57	30.02	14.30	-43.8	-46.4	17.6	0.00e+00	0	42	0	126877696	59	4803
2026-01-16 22:59:34.42	30.10	14.38	-43.6	-46.2	17.8	0.00e+00	0	42	0	128974848	59	4665
2026-01-16 22:59:35.56	30.20	14.49	-43.6	-46.1	17.9	0.00e+00	0	42	0	131072000	59	4635
2026-01-16 22:59:36.41	30.27	14.57	-43.7	-46.3	17.6	0.00e+00	0	41	0	132120576	59	4730
2026-01-16 22:59:37.55	30.37	14.68	-43.8	-46.4	17.6	0.00e+00	0	42	0	134217728	59	4787
2026-01-16 22:59:38.40	30.45	14.76	-43.7	-46.3	17.6	0.00e+00	0	42	0	136314880	59	4729
2026-01-16 22:59:39.54	30.55	14.87	-43.7	-46.3	17.7	0.00e+00	0	42	0	138412032	59	4731
2026-01-16 22:59:40.39	30.63	14.95	-43.8	-46.4	17.6	0.00e+00	0	42	0	139460608	59	4778
2026-01-16 22:59:41.53	30.73	15.06	-43.8	-46.4	17.6	0.00e+00	0	41	0	141557760	59	4764
2026-01-16 22:59:42.38	30.81	15.14	-43.6	-46.1	17.8	0.00e+00	0	41	0	143654912	59	4643
2026-01-16 22:59:43.52	30.92	15.25	-43.8	-46.5	17.5	0.00e+00	0	42	0	145752064	59	4840
2026-01-16 22:59:44.37	30.99	15.33	-43.9	-46.5	17.5	0.00e+00	0	41	0	146800640	59	4868
2026-01-16 22:59:45.51	31.10	15.44	-43.7	-46.3	17.8	0.00e+00	0	42	0	148897792	59	4722
2026-01-16 22:59:46.36	31.18	15.53	-43.8	-46.5	17.6	0.00e+00	0	42	0	150994944	59	4841
2026-01-16 22:59:47.55	31.29	15.64	-43.7	-46.3	17.7	0.00e+00	0	42	0	153092096	59	4739
2026-01-16 22:59:48.40	31.37	15.73	-43.8	-46.4	17.6	0.00e+00	0	42	0	155189248	59	4800
2026-01-16 22:59:49.53	31.48	15.84	-43.7	-46.3	17.7	0.00e+00	0	42	0	157286400	59	4755
2026-01-16 22:59:50.39	31.56	15.92	-43.7	-46.4	17.6	0.00e+00	0	42	0	158334976	59	4788
2026-01-16 22:59:51.53	31.67	16.04	-43.9	-46.6	17.5	0.00e+00	0	42	0	160432128	59	4896
2026-01-16 22:59:52.38	31.76	16.12	-43.6	-46.1	17.9	0.00e+00	0	42	0	162529280	59	4640
2026-01-16 22:59:53.69	31.89	16.25	-43.5	-46.0	17.9	0.00e+00	0	42	0	164626432	58	4869
2026-01-16 22:59:54.40	31.96	16.32	-43.5	-46.1	17.9	0.00e+00	0	42	0	165675008	58	4873
2026-01-16 22:59:55.68	32.08	16.45	-43.7	-46.3	17.7	0.00e+00	0	42	0	168820736	58	5009
2026-01-16 22:59:56.40	32.15	16.53	-43.7	-46.3	17.7	0.00e+00	0	42	0	169869312	58	5007
2026-01-16 22:59:57.68	32.28	16.66	-43.7	-46.2	17.8	0.00e+00	0	42	0	171966464	58	4957
2026-01-16 22:59:58.39	32.36	16.73	-43.6	-46.1	17.9	0.00e+00	0	42	0	173015040	58	4899
2026-01-16 22:59:59.67	32.49	16.86	-43.7	-46.2	17.8	0.00e+00	0	41	0	176160768	58	4955
2026-01-16 23:00:00.41	32.56	16.93	-43.9	-46.5	17.5	0.00e+00	0	42	0	177209344	58	5152
2026-01-16 23:00:01.69	32.69	17.06	-43.8	-46.4	17.6	0.00e+00	0	42	0	179306496	58	5077
2026-01-16 23:00:02.42	32.77	17.14	-43.9	-46.5	17.5	0.00e+00	0	42	0	181403648	58	5137
2026-01-16 23:00:03.70	32.90	17.27	-44.0	-46.6	17.4	0.00e+00	0	42	0	183500800	59	4922
2026-01-16 23:00:04.66	33.00	17.37	-43.8	-46.4	17.6	0.00e+00	0	42	0	185597952	59	4763
2026-01-16 23:00:05.94	33.14	17.51	-44.2	-46.9	17.1	0.00e+00	0	42	0	187695104	59	5097
2026-01-16 23:00:06.68	33.22	17.58	-44.3	-47.0	17.1	0.00e+00	0	42	0	188743680	59	5137
2026-01-16 23:00:08.26	33.39	17.75	-44.0	-46.7	17.3	0.00e+00	0	42	0	191889408	59	4946
2026-01-16 23:00:09.18	33.49	17.85	-44.0	-46.7	17.4	0.00e+00	0	42	0	193986560	59	4959
2026-01-16 23:00:10.17	33.60	17.95	-44.1	-46.9	17.3	0.00e+00	0	42	0	196083712	59	5054
2026-01-16 23:00:11.16	33.71	18.06	-44.0	-46.7	17.4	0.00e+00	0	42	0	197132288	59	4966
2026-01-16 23:00:12.16	33.82	18.16	-44.0	-46.8	17.3	0.00e+00	0	42	0	199229440	59	4994
2026-01-16 23:00:13.17	33.93	18.27	-44.1	-46.9	17.2	0.00e+00	0	42	0	201326592	59	5067
2026-01-16 23:00:14.20	34.05	18.38	-44.0	-46.7	17.3	0.00e+00	0	42	0	203423744	59	4983
2026-01-16 23:00:15.19	34.16	18.49	-44.2	-46.9	17.2	0.00e+00	0	42	0	205520896	59	5065
2026-01-16 23:00:16.19	34.27	18.59	-44.2	-46.9	17.2	0.00e+00	0	42	0	206569472	59	5074
2026-01-16 23:00:17.18	34.39	18.70	-44.5	-47.3	16.9	0.00e+00	0	42	0	208666624	59	5293
2026-01-16 23:00:18.18	34.50	18.81	-44.4	-47.2	16.9	0.00e+00	0	42	0	210763776	59	5235
2026-01-16 23:00:19.17	34.62	18.92	-44.3	-47.0	17.1	0.00e+00	0	42	0	212860928	59	5116
2026-01-16 23:00:20.17	34.73	19.03	-44.4	-47.2	17.0	0.00e+00	0	42	0	213909504	59	5257
2026-01-16 23:00:21.16	34.85	19.14	-44.3	-47.0	17.0	0.00e+00	0	42	0	216006656	59	5153
2026-01-16 23:00:22.16	34.97	19.25	-44.4	-47.1	17.1	0.00e+00	0	42	0	218103808	59	5182
2026-01-16 23:00:23.16	35.09	19.36	-44.4	-47.2	17.0	0.00e+00	0	42	0	220200960	59	5244
2026-01-16 23:00:24.54	35.25	19.51	-44.6	-47.5	16.7	0.00e+00	0	42	0	222298112	60	5124
2026-01-16 23:00:25.26	35.34	19.59	-44.3	-47.0	17.2	0.00e+00	0	42	0	224395264	60	4845
2026-01-16 23:00:26.53	35.50	19.73	-44.2	-46.9	17.3	0.00e+00	0	42	0	226492416	60	4800
2026-01-16 23:00:27.25	35.58	19.81	-44.3	-47.1	17.1	0.00e+00	0	42	0	227540992	60	4884
2026-01-16 23:00:28.53	35.74	19.96	-44.2	-46.9	17.3	0.00e+00	0	42	0	229638144	60	4784
2026-01-16 23:00:29.24	35.83	20.04	-44.3	-47.1	17.1	0.00e+00	0	42	0	231735296	60	4895
2026-01-16 23:00:30.52	35.99	20.18	-44.4	-47.2	16.9	0.00e+00	0	42	0	233832448	60	4933
2026-01-16 23:00:31.24	36.08	20.27	-44.3	-47.0	17.1	0.00e+00	0	42	0	234881024	60	4836
2026-01-16 23:00:32.52	36.25	20.41	-44.2	-46.9	17.3	0.00e+00	0	42	0	236978176	60	4786
2026-01-16 23:00:33.26	36.34	20.50	-44.3	-47.0	17.2	0.00e+00	0	42	0	239075328	60	4826
2026-01-16 23:00:34.54	36.51	20.64	-44.3	-46.9	17.2	0.00e+00	0	42	0	241172480	60	4810
2026-01-16 23:00:35.27	36.60	20.73	-44.3	-47.0	17.2	0.00e+00	0	42	0	242221056	60	4840
2026-01-16 23:00:36.54	36.77	20.87	-44.3	-47.0	17.3	0.00e+00	0	42	0	245366784	60	4828
2026-01-16 23:00:37.26	36.86	20.96	-44.4	-47.2	17.0	0.00e+00	0	42	0	246415360	60	4942
2026-01-16 23:00:38.54	37.04	21.11	-44.3	-47.1	17.1	0.00e+00	0	42	0	248512512	60	4890
2026-01-16 23:00:39.25	37.13	21.19	-44.4	-47.2	17.0	0.00e+00	0	42	0	250609664	60	4954
2026-01-16 23:00:40.52	37.30	21.34	-44.6	-47.4	16.8	0.00e+00	0	42	0	252706816	60	5070
2026-01-16 23:00:41.24	37.40	21.42	-44.4	-47.2	17.0	0.00e+00	0	42	0	253755392	60	4971
2026-01-16 23:00:42.52	37.58	21.57	-44.6	-47.5	16.8	0.00e+00	0	42	0	255852544	60	5124
2026-01-16 23:00:43.29	37.68	21.67	-44.6	-47.5	16.8	0.00e+00	0	42	0	257949696	60	5108
2026-01-16 23:00:44.57	37.86	21.82	-44.5	-47.3	16.9	0.00e+00	0	42	0	260046848	60	5023
2026-01-16 23:00:45.31	37.96	21.91	-44.5	-47.2	17.0	0.00e+00	0	42	0	261095424	60	4978
2026-01-16 23:00:46.59	38.14	22.06	-44.5	-47.2	17.0	0.00e+00	0	42	0	264241152	60	4981
2026-01-16 23:00:47.30	38.25	22.14	-44.2	-46.9	17.4	0.00e+00	0	42	0	265289728	60	4784
2026-01-16 23:00:48.58	38.43	22.30	-44.1	-46.8	17.5	0.00e+00	0	42	0	267386880	60	4721
2026-01-16 23:00:49.32	38.54	22.39	-44.2	-46.9	17.4	0.00e+00	0	42	0	269484032	60	4768
2026-01-16 23:00:50.60	38.72	22.54	-43.8	-46.4	17.8	0.00e+00	0	42	0	271581184	59	4767
2026-01-16 23:00:51.31	38.83	22.63	-43.8	-46.4	17.8	0.00e+00	0	42	0	272629760	59	4762
2026-01-16 23:00:52.59	39.02	22.79	-43.7	-46.2	18.0	0.00e+00	0	42	0	274726912	59	4667
2026-01-16 23:00:53.32	39.12	22.87	-43.5	-45.9	18.3	0.00e+00	0	42	0	276824064	58	4767
2026-01-16 23:00:54.64	39.32	23.04	-43.2	-45.5	18.5	0.00e+00	0	42	0	278921216	58	4577
2026-01-16 23:00:55.62	39.47	23.16	-43.2	-45.6	18.4	0.00e+00	0	42	0	281018368	58	4631
2026-01-16 23:00:56.93	39.67	23.32	-43.1	-45.4	18.7	0.00e+00	0	42	0	283115520	57	4773
2026-01-16 23:00:57.69	39.79	23.41	-42.8	-45.1	18.9	0.00e+00	0	42	0	284164096	57	4614
2026-01-16 23:00:58.97	39.99	23.57	-43.0	-45.3	18.7	0.00e+00	0	42	0	287309824	57	4758
2026-01-16 23:00:59.68	40.10	23.66	-43.0	-45.3	18.7	0.00e+00	0	42	0	288358400	57	4718
2026-01-16 23:01:00.96	40.30	23.82	-43.1	-45.4	18.6	0.00e+00	0	42	0	290455552	57	4800
2026-01-16 23:01:01.71	40.42	23.92	-43.5	-45.9	18.2	0.00e+00	0	42	0	292552704	57	5069
2026-01-16 23:01:02.99	40.62	24.08	-43.7	-46.1	18.0	0.00e+00	0	42	0	294649856	58	4926
2026-01-16 23:01:03.71	40.74	24.17	-43.8	-46.3	17.8	0.00e+00	0	42	0	295698432	58	5021
2026-01-16 23:01:04.99	40.95	24.33	-44.0	-46.6	17.5	0.00e+00	0	42	0	298844160	58	5205
2026-01-16 23:01:05.71	41.07	24.42	-44.1	-46.7	17.5	0.00e+00	0	42	0	299892736	58	5270
2026-01-16 23:01:07.06	41.29	24.60	-44.0	-46.6	17.6	0.00e+00	0	42	0	301989888	59	4880
2026-01-16 23:01:07.78	41.41	24.69	-44.0	-46.5	17.7	0.00e+00	0	42	0	304087040	59	4850
2026-01-16 23:01:09.05	41.62	24.85	-44.0	-46.6	17.6	0.00e+00	0	42	0	306184192	59	4886
2026-01-16 23:01:09.76	41.74	24.94	-43.8	-46.3	17.9	0.00e+00	0	42	0	307232768	59	4716
2026-01-16 23:01:11.17	41.99	25.12	-43.7	-46.1	18.0	0.00e+00	0	42	0	310378496	59	4628
2026-01-16 23:01:11.88	42.11	25.22	-43.7	-46.1	18.0	0.00e+00	0	42	0	311427072	59	4632
2026-01-16 23:01:13.22	42.34	25.39	-43.5	-46.0	18.2	0.00e+00	0	42	0	313524224	59	4560
2026-01-16 23:01:13.93	42.46	25.48	-43.7	-46.2	18.0	0.00e+00	0	42	0	314572800	59	4653
2026-01-16 23:01:15.27	42.70	25.66	-43.9	-46.4	17.8	0.00e+00	0	42	0	317718528	59	4793
2026-01-16 23:01:15.99	42.83	25.75	-44.0	-46.6	17.6	0.00e+00	0	42	0	318767104	59	4874
2026-01-16 23:01:17.26	43.06	25.92	-44.3	-46.9	17.3	0.00e+00	0	42	0	320864256	59	5089
2026-01-16 23:01:17.97	43.19	26.01	-44.5	-47.3	17.0	0.00e+00	0	42	0	322961408	60	5027
2026-01-16 23:01:19.25	43.42	26.18	-44.7	-47.5	16.7	0.00e+00	0	42	0	325058560	60	5147
2026-01-16 23:01:19.98	43.55	26.28	-44.7	-47.5	16.8	0.00e+00	0	42	0	326107136	60	5145
2026-01-16 23:01:21.26	43.79	26.45	-44.6	-47.4	16.9	0.00e+00	0	42	0	329252864	60	5079
2026-01-16 23:01:21.97	43.92	26.54	-44.8	-47.6	16.8	0.00e+00	0	42	0	330301440	60	5197
2026-01-16 23:01:23.24	44.16	26.71	-44.7	-47.5	16.8	0.00e+00	0	42	0	332398592	60	5148
2026-01-16 23:01:23.97	44.30	26.81	-44.6	-47.4	16.9	0.00e+00	0	42	0	333447168	60	5060
2026-01-16 23:01:25.25	44.55	26.98	-44.4	-47.1	17.2	0.00e+00	0	42	0	336592896	60	4913
2026-01-16 23:01:26.10	44.71	27.10	-44.3	-47.0	17.3	0.00e+00	0	42	0	337641472	60	4863
2026-01-16 23:01:27.24	44.93	27.25	-44.7	-47.4	16.8	0.00e+00	0	42	0	339738624	60	5095
2026-01-16 23:01:28.09	45.10	27.37	-44.6	-47.4	16.9	0.00e+00	0	42	0	341835776	60	5061
2026-01-16 23:01:29.56	45.39	27.57	-45.0	-47.9	16.5	0.00e+00	0	42	0	343932928	60	5361
2026-01-16 23:01:30.27	45.53	27.66	-44.8	-47.7	16.6	0.00e+00	0	42	0	346030080	60	5263
2026-01-16 23:01:31.54	45.79	27.83	-45.3	-48.3	16.0	0.00e+00	0	42	0	348127232	61	5338
2026-01-16 23:01:32.26	45.94	27.93	-45.2	-48.2	16.1	0.00e+00	0	42	0	349175808	61	5248
2026-01-16 23:01:33.54	46.20	28.11	-45.3	-48.3	16.0	0.00e+00	0	42	0	352321536	61	5307
2026-01-16 23:01:34.28	46.35	28.21	-45.2	-48.3	16.1	0.00e+00	0	42	0	353370112	61	5291
2026-01-16 23:01:35.56	46.62	28.39	-45.2	-48.1	16.3	0.00e+00	0	42	0	355467264	61	5207
2026-01-16 23:01:36.27	46.77	28.48	-45.1	-48.0	16.4	0.00e+00	0	42	0	356515840	61	5109
2026-01-16 23:01:37.55	47.04	28.66	-44.7	-47.5	16.9	0.00e+00	0	42	0	359661568	61	4825
2026-01-16 23:01:38.28	47.20	28.76	-44.6	-47.4	16.9	0.00e+00	0	42	0	360710144	60	5057
2026-01-16 23:01:39.56	47.47	28.94	-44.3	-46.9	17.4	0.00e+00	0	42	0	362807296	60	4800
2026-01-16 23:01:40.30	47.63	29.04	-44.5	-47.2	17.1	0.00e+00	0	42	0	364904448	60	4954
2026-01-16 23:01:41.58	47.92	29.22	-44.7	-47.4	16.9	0.00e+00	0	42	0	367001600	60	5095
2026-01-16 23:01:42.30	48.08	29.32	-44.7	-47.5	16.9	0.00e+00	0	42	0	368050176	60	5118
2026-01-16 23:01:43.58	48.36	29.50	-45.0	-47.9	16.4	0.00e+00	0	42	0	371195904	60	5366
2026-01-16 23:01:44.30	48.52	29.60	-45.0	-47.9	16.5	0.00e+00	0	42	0	372244480	60	5352
2026-01-16 23:01:45.65	48.83	29.79	-44.5	-47.2	17.1	0.00e+00	0	42	0	374341632	60	4958
2026-01-16 23:01:46.35	48.99	29.89	-44.5	-47.3	17.1	0.00e+00	0	42	0	376438784	60	4997
2026-01-16 23:01:47.63	49.29	30.07	-44.3	-46.9	17.4	0.00e+00	0	42	0	378535936	60	4812
2026-01-16 23:01:48.34	49.45	30.17	-44.2	-46.8	17.5	0.00e+00	0	42	0	379584512	60	4752
2026-01-16 23:01:49.75	49.78	30.36	-44.2	-46.9	17.5	0.00e+00	0	42	0	382730240	60	4760
2026-01-16 23:01:50.46	49.95	30.46	-44.4	-47.0	17.2	0.00e+00	0	42	0	383778816	60	4866
2026-01-16 23:01:51.74	50.26	30.65	-44.7	-47.5	16.9	0.00e+00	0	42	0	385875968	60	5110
2026-01-16 23:01:52.45	50.43	30.75	-44.7	-47.6	16.8	0.00e+00	0	42	0	386924544	60	5170
2026-01-16 23:01:53.85	50.77	30.94	-44.8	-47.7	16.7	0.00e+00	0	42	0	390070272	60	5247
2026-01-16 23:01:54.57	50.95	31.05	-45.0	-48.0	16.3	0.00e+00	0	42	0	391118848	60	5428
2026-01-16 23:01:55.85	51.27	31.23	-44.9	-47.8	16.6	0.00e+00	0	42	0	394264576	60	5314
2026-01-16 23:01:56.57	51.45	31.33	-44.7	-47.6	16.8	0.00e+00	0	42	0	395313152	60	5165
2026-01-16 23:01:57.85	51.77	31.51	-44.8	-47.7	16.6	0.00e+00	0	42	0	397410304	60	5240
2026-01-16 23:01:58.58	51.96	31.61	-44.6	-47.4	17.0	0.00e+00	0	42	0	398458880	60	5066
2026-01-16 23:01:59.86	52.28	31.80	-44.6	-47.4	17.0	0.00e+00	0	42	0	401604608	60	5063
2026-01-16 23:02:00.57	52.47	31.90	-44.9	-47.8	16.5	0.00e+00	0	42	0	402653184	60	5304
2026-01-16 23:02:01.85	52.80	32.08	-45.3	-48.3	16.0	0.00e+00	0	42	0	404750336	61	5335
2026-01-16 23:02:02.56	52.99	32.18	-45.1	-48.1	16.3	0.00e+00	0	42	0	405798912	61	5179
2026-01-16 23:02:03.84	53.33	32.36	-45.4	-48.5	16.0	0.00e+00	0	42	0	408944640	61	5421
2026-01-16 23:02:04.58	53.53	32.47	-45.5	-48.6	15.8	0.00e+00	0	42	0	409993216	61	5504
2026-01-16 23:02:05.86	53.88	32.65	-46.2	-49.5	14.9	0.00e+00	0	42	0	412090368	62	5781
2026-01-16 23:02:06.66	54.09	32.76	-46.4	-50.0	14.4	7.00e-07	0	42	0	414187520	63	5774
2026-01-16 23:02:08.12	54.50	32.97	-46.7	-50.6	13.8	9.10e-06	0	42	0	416284672	64	5792
2026-01-16 23:02:08.83	54.69	33.07	-47.2	-51.5	12.8	6.80e-06	0	42	0	418381824	65	6104
2026-01-16 23:02:10.11	55.05	33.25	-47.3	-51.7	12.7	5.03e-05	0	42	0	420478976	65	6216
2026-01-16 23:02:10.83	55.26	33.36	-47.0	-51.1	13.2	3.20e-05	0	42	0	421527552	65	5829
2026-01-16 23:02:12.11	55.62	33.54	-46.4	-50.0	14.3	1.50e-06	0	42	0	424673280	64	5447
2026-01-16 23:02:12.89	55.85	33.65	-46.0	-49.3	15.3	0.00e+00	0	42	0	425721856	63	5292
2026-01-16 23:02:14.16	56.22	33.83	-45.9	-49.1	15.3	7.00e-07	0	42	0	427819008	63	5211
2026-01-16 23:02:14.87	56.42	33.93	-45.8	-49.1	15.4	0.00e+00	0	42	0	428867584	63	5186
2026-01-16 23:02:16.15	56.80	34.11	-46.0	-49.3	15.2	0.00e+00	0	42	0	432013312	63	5289
2026-01-16 23:02:16.86	57.01	34.21	-46.0	-49.3	15.1	0.00e+00	0	42	0	433061888	63	5339
2026-01-16 23:02:18.14	57.40	34.39	-46.2	-49.6	14.9	7.00e-07	0	42	0	435159040	63	5512
2026-01-16 23:02:18.86	57.62	34.49	-45.7	-48.8	15.6	0.00e+00	0	42	0	437256192	63	5009
2026-01-16 23:02:20.17	58.02	34.68	-45.9	-49.1	15.3	0.00e+00	0	42	0	439353344	63	5215
2026-01-16 23:02:20.88	58.24	34.78	-45.9	-49.2	15.1	0.00e+00	0	42	0	440401920	63	5234
2026-01-16 23:02:22.16	58.63	34.96	-46.3	-49.9	14.6	0.00e+00	0	42	0	443547648	63	5659
2026-01-16 23:02:22.88	58.86	35.06	-46.4	-50.0	14.4	2.20e-06	0	42	0	444596224	63	5781
2026-01-16 23:02:24.24	59.29	35.25	-46.6	-50.4	14.0	7.00e-07	0	42	0	446693376	64	5668
2026-01-16 23:02:24.95	59.52	35.34	-46.7	-50.6	13.9	3.00e-06	0	42	0	448790528	64	5793
2026-01-16 23:02:26.29	59.95	35.53	-47.0	-51.1	13.2	9.10e-06	0	42	0	450887680	64	6173
2026-01-16 23:02:27.00	60.18	35.63	-47.1	-51.2	13.3	2.21e-05	0	42	0	451936256	64	6219
2026-01-16 23:02:28.28	60.60	35.80	-47.0	-51.1	13.3	3.35e-05	0	42	0	454033408	65	5805
2026-01-16 23:02:28.99	60.83	35.90	-47.1	-51.1	13.2	2.82e-05	0	42	0	456130560	65	5854
2026-01-16 23:02:30.27	61.26	36.08	-46.9	-50.8	13.6	3.00e-06	0	42	0	458227712	65	5642
2026-01-16 23:02:31.01	61.51	36.18	-46.5	-50.1	14.3	3.80e-06	0	42	0	459276288	65	5179
2026-01-16 23:02:32.29	61.94	36.35	-46.4	-50.0	14.4	0.00e+00	0	42	0	462422016	64	5420
2026-01-16 23:02:33.00	62.18	36.45	-46.5	-50.0	14.3	0.00e+00	0	42	0	463470592	64	5463
2026-01-16 23:02:34.28	62.63	36.62	-46.7	-50.4	13.9	6.80e-06	0	42	0	465567744	64	5676
2026-01-16 23:02:35.00	62.87	36.72	-46.8	-50.5	13.8	2.20e-06	0	42	0	467664896	64	5782
2026-01-16 23:02:36.29	63.33	36.89	-47.4	-51.8	12.5	2.59e-05	0	42	0	469762048	65	6336
2026-01-16 23:02:37.00	63.58	36.98	-47.5	-52.0	12.4	2.02e-04	0	42	0	470810624	66	6080
2026-01-16 23:02:38.28	64.03	37.15	-47.6	-52.2	12.2	2.67e-04	0	42	0	472907776	66	6214
2026-01-16 23:02:39.12	64.33	37.26	-47.4	-51.7	12.6	1.64e-04	0	42	0	475004928	66	5867
2026-01-16 23:02:40.25	64.74	37.41	-47.0	-50.9	13.4	3.05e-05	0	42	0	477102080	65	5708
2026-01-16 23:02:41.10	65.05	37.52	-46.5	-50.1	14.2	6.80e-06	0	42	0	478150656	64	5517
2026-01-16 23:02:42.24	65.47	37.67	-46.1	-49.5	14.9	0.00e+00	0	42	0	480247808	64	5129
2026-01-16 23:02:43.10	65.79	37.78	-46.2	-49.5	15.0	0.00e+00	0	42	0	482344960	63	5449
2026-01-16 23:02:44.23	66.21	37.92	-46.7	-50.5	13.9	0.00e+00	0	42	0	484442112	64	5752
2026-01-16 23:02:45.09	66.53	38.03	-47.0	-50.9	13.5	9.90e-06	0	42	0	485490688	64	6030
2026-01-16 23:02:46.23	66.96	38.18	-47.1	-51.1	13.3	2.21e-05	0	42	0	488636416	65	5844
2026-01-16 23:02:47.08	67.29	38.28	-47.1	-51.2	13.2	3.12e-05	0	42	0	489684992	65	5911
2026-01-16 23:02:48.28	67.75	38.43	-46.3	-49.7	14.7	7.00e-07	0	42	0	491782144	64	5265
2026-01-16 23:02:49.13	68.08	38.54	-45.9	-49.2	15.2	0.00e+00	0	42	0	493879296	63	5242
2026-01-16 23:02:50.33	68.55	38.68	-45.1	-47.9	16.5	0.00e+00	0	42	0	495976448	62	4808
2026-01-16 23:02:51.18	68.88	38.79	-44.9	-47.7	16.7	0.00e+00	0	42	0	497025024	61	4931
2026-01-16 23:02:52.32	69.33	38.92	-45.7	-48.8	15.7	0.00e+00	0	42	0	499122176	61	5617
2026-01-16 23:02:53.17	69.67	39.02	-46.3	-49.8	14.7	0.00e+00	0	42	0	501219328	63	5643
2026-01-16 23:02:54.48	70.20	39.18	-47.0	-51.1	13.4	7.60e-06	0	42	0	503316480	64	6145
2026-01-16 23:02:55.20	70.49	39.26	-47.3	-51.5	12.9	4.73e-05	0	42	0	505413632	65	6095
2026-01-16 23:02:56.48	71.01	39.41	-47.0	-51.0	13.4	1.60e-05	0	42	0	507510784	65	5729
2026-01-16 23:02:57.20	71.31	39.49	-46.3	-49.8	14.6	2.20e-06	0	42	0	508559360	64	5317
2026-01-16 23:02:58.48	71.84	39.64	-45.9	-49.1	15.4	0.00e+00	0	42	0	510656512	63	5205
2026-01-16 23:02:59.19	72.14	39.72	-45.1	-48.0	16.3	0.00e+00	0	42	0	512753664	62	4865
2026-01-16 23:03:00.47	72.67	39.86	-44.9	-47.7	16.8	0.00e+00	0	42	0	514850816	61	4948
2026-01-16 23:03:01.19	72.98	39.94	-44.6	-47.3	17.1	0.00e+00	0	42	0	515899392	61	4726
2026-01-16 23:03:02.47	73.52	40.07	-45.6	-48.7	15.8	0.00e+00	0	42	0	519045120	61	5542
2026-01-16 23:03:03.18	73.82	40.15	-45.9	-49.1	15.5	0.00e+00	0	42	0	520093696	62	5502
2026-01-16 23:03:04.46	74.38	40.28	-45.9	-49.2	15.2	0.00e+00	0	42	0	522190848	62	5556
2026-01-16 23:03:05.17	74.68	40.36	-45.8	-49.0	15.5	7.00e-07	0	42	0	523239424	62	5461
2026-01-16 23:03:06.45	75.24	40.49	-45.9	-49.2	15.3	0.00e+00	0	42	0	526385152	62	5531
2026-01-16 23:03:07.18	75.56	40.56	-45.8	-49.1	15.4	0.00e+00	0	42	0	527433728	62	5493
2026-01-16 23:03:08.46	76.13	40.68	-45.2	-48.1	16.4	0.00e+00	0	42	0	529530880	62	4906
2026-01-16 23:03:09.18	76.45	40.75	-44.4	-47.1	17.3	0.00e+00	0	42	0	531628032	60	4899
2026-01-16 23:03:10.46	77.02	40.88	-44.8	-47.6	16.8	0.00e+00	0	42	0	533725184	60	5197
2026-01-16 23:03:11.19	77.35	40.94	-45.4	-48.5	15.9	0.00e+00	0	42	0	534773760	61	5449
2026-01-16 23:03:12.56	77.97	41.07	-46.7	-50.5	13.9	0.00e+00	0	42	0	537919488	64	5754
2026-01-16 23:03:13.27	78.29	41.13	-46.9	-50.8	13.6	7.60e-06	0	42	0	538968064	64	5986
2026-01-16 23:03:14.62	78.91	41.25	-46.5	-50.2	14.2	7.00e-07	0	42	0	541065216	64	5565
2026-01-16 23:03:15.33	79.23	41.31	-46.6	-50.3	14.0	2.20e-06	0	42	0	543162368	64	5655
2026-01-16 23:03:16.60	79.82	41.42	-46.6	-50.3	14.1	1.50e-06	0	42	0	545259520	64	5646
2026-01-16 23:03:17.32	80.15	41.48	-46.6	-50.5	14.0	1.50e-06	0	42	0	546308096	64	5751
2026-01-16 23:03:18.60	80.75	41.58	-46.3	-49.8	14.6	7.00e-07	0	42	0	548405248	64	5326
2026-01-16 23:03:19.70	81.27	41.67	-46.0	-49.4	15.0	0.00e+00	0	42	0	550502400	64	5096
2026-01-16 23:03:20.55	81.67	41.74	-46.4	-50.0	14.4	0.00e+00	0	42	0	552599552	64	5455
2026-01-16 23:03:21.69	82.21	41.82	-46.6	-50.6	13.9	3.00e-06	0	42	0	554696704	64	5791
2026-01-16 23:03:22.54	82.61	41.88	-46.8	-51.0	13.4	5.30e-06	0	42	0	556793856	64	6099
2026-01-16 23:03:23.68	83.16	41.96	-46.3	-50.2	14.3	3.00e-06	0	42	0	558891008	64	5577
2026-01-16 23:03:24.53	83.57	42.02	-46.1	-49.8	14.6	0.00e+00	0	42	0	559939584	64	5337
2026-01-16 23:03:25.67	84.12	42.10	-46.3	-50.1	14.4	0.00e+00	0	42	0	562036736	64	5466
2026-01-16 23:03:26.52	84.53	42.15	-46.8	-50.9	13.6	1.50e-06	0	42	0	564133888	64	6019
2026-01-16 23:03:27.66	85.08	42.22	-47.0	-51.3	13.1	2.28e-05	0	42	0	566231040	64	6328
2026-01-16 23:03:28.62	85.55	42.28	-46.8	-50.9	13.6	6.80e-06	0	42	0	567279616	64	6002
2026-01-16 23:03:29.62	86.04	42.34	-46.2	-49.8	14.5	1.50e-06	0	42	0	569376768	64	5322
2026-01-16 23:03:30.61	86.53	42.39	-46.1	-49.7	14.8	0.00e+00	0	42	0	571473920	63	5540
2026-01-16 23:03:31.84	87.14	42.46	-46.2	-49.9	14.5	7.00e-07	0	42	0	573571072	63	5722
2026-01-16 23:03:32.73	87.58	42.50	-46.4	-50.2	14.2	1.50e-06	0	42	0	575668224	63	5900
2026-01-16 23:03:34.02	88.22	42.56	-46.0	-49.6	14.9	0.00e+00	0	42	0	577765376	63	5468
2026-01-16 23:03:34.73	88.57	42.60	-45.6	-48.9	15.6	0.00e+00	0	42	0	578813952	63	5064
2026-01-16 23:03:36.22	89.32	42.66	-44.8	-47.7	16.7	0.00e+00	0	42	0	581959680	61	4968
2026-01-16 23:03:36.93	89.67	42.69	-45.4	-48.6	15.9	0.00e+00	0	42	0	583008256	61	5485
2026-01-16 23:03:38.29	90.35	42.74	-46.4	-50.0	14.5	0.00e+00	0	42	0	586153984	63	5768
2026-01-16 23:03:39.00	90.71	42.77	-46.4	-49.9	14.6	0.00e+00	0	42	0	587202560	63	5718
2026-01-16 23:03:40.28	91.36	42.81	-45.7	-48.8	15.7	0.00e+00	0	42	0	589299712	63	5018
2026-01-16 23:03:41.00	91.72	42.83	-45.5	-48.6	15.9	0.00e+00	0	42	0	591396864	63	4887
2026-01-16 23:03:42.38	92.42	42.87	-45.6	-48.8	15.7	0.00e+00	0	42	0	593494016	62	5286
2026-01-16 23:03:43.09	92.78	42.89	-45.8	-49.0	15.4	0.00e+00	0	42	0	594542592	62	5461
2026-01-16 23:03:44.44	93.47	42.92	-46.1	-49.5	15.0	0.00e+00	0	42	0	597688320	63	5416
2026-01-16 23:03:45.15	93.83	42.94	-46.2	-49.6	14.9	0.00e+00	0	42	0	598736896	63	5471
2026-01-16 23:03:46.43	94.48	42.96	-45.9	-49.2	15.3	0.00e+00	0	42	0	600834048	63	5242
2026-01-16 23:03:47.17	94.86	42.97	-46.1	-49.4	15.0	0.00e+00	0	42	0	602931200	63	5389
2026-01-16 23:03:48.46	95.52	42.99	-45.3	-48.3	16.1	0.00e+00	0	42	0	605028352	62	5012
2026-01-16 23:03:49.17	95.88	43.00	-44.9	-47.8	16.6	0.00e+00	0	42	0	606076928	61	4994
2026-01-16 23:03:50.62	96.62	43.01	-44.0	-46.5	17.8	0.00e+00	0	42	0	609222656	60	4573
2026-01-16 23:03:51.33	96.99	43.01	-43.5	-45.9	18.4	0.00e+00	0	42	0	610271232	59	4509
2026-01-16 23:03:52.61	97.64	43.02	-43.8	-46.2	18.1	0.00e+00	0	42	0	612368384	58	4953
2026-01-16 23:03:53.67	98.18	43.02	-44.3	-46.9	17.3	0.00e+00	0	42	0	614465536	59	5096
2026-01-16 23:03:54.84	98.78	43.01	-45.5	-48.6	15.8	0.00e+00	0	42	0	616562688	61	5481
2026-01-16 23:03:55.69	99.22	43.01	-45.9	-49.3	15.2	0.00e+00	0	42	0	618659840	62	5613
2026-01-16 23:03:56.82	99.80	43.00	-45.5	-48.6	15.8	0.00e+00	0	42	0	620756992	62	5195
2026-01-16 23:03:57.68	100.24	42.99	-45.5	-48.6	15.9	0.00e+00	0	42	0	621805568	62	5186
2026-01-16 23:03:58.81	100.81	42.98	-45.9	-49.2	15.4	0.00e+00	0	42	0	623902720	62	5542
2026-01-16 23:03:59.67	101.25	42.96	-46.7	-50.5	14.1	0.00e+00	0	42	0	625999872	63	6104
2026-01-16 23:04:00.80	101.83	42.94	-46.4	-50.0	14.5	0.00e+00	0	42	0	628097024	64	5404
2026-01-16 23:04:01.65	102.26	42.93	-46.0	-49.2	15.3	0.00e+00	0	42	0	629145600	63	5245
2026-01-16 23:04:02.79	102.84	42.90	-45.6	-48.7	15.7	0.00e+00	0	42	0	631242752	63	4950
2026-01-16 23:04:03.64	103.28	42.88	-46.0	-49.3	15.1	0.00e+00	0	42	0	633339904	62	5643
2026-01-16 23:04:04.78	103.85	42.85	-46.4	-50.0	14.5	0.00e+00	0	42	0	635437056	63	5748
2026-01-16 23:04:05.63	104.28	42.82	-46.2	-49.8	14.8	7.00e-07	0	42	0	637534208	63	5595
2026-01-16 23:04:06.77	104.86	42.79	-45.2	-48.1	16.3	0.00e+00	0	42	0	639631360	62	4920
2026-01-16 23:04:07.62	105.29	42.76	-44.7	-47.4	17.0	0.00e+00	0	42	0	640679936	61	4769
2026-01-16 23:04:09.09	106.03	42.70	-46.5	-50.1	14.4	0.00e+00	0	42	0	643825664	63	5837
2026-01-16 23:04:09.80	106.39	42.67	-47.4	-51.8	12.7	1.06e-05	0	42	0	644874240	65	6278
2026-01-16 23:04:11.28	107.13	42.61	-47.2	-51.3	13.1	2.13e-05	0	42	0	648019968	65	5988
2026-01-16 23:04:11.99	107.48	42.58	-47.1	-51.0	13.4	1.14e-05	0	42	0	649068544	65	5785
2026-01-16 23:04:13.27	108.12	42.52	-47.4	-51.7	12.9	5.11e-05	0	42	0	651165696	65	6270
2026-01-16 23:04:14.00	108.48	42.48	-47.3	-51.6	12.8	8.62e-05	0	42	0	653262848	65	6188
2026-01-16 23:04:15.28	109.11	42.42	-47.1	-51.1	13.3	1.60e-05	0	42	0	655360000	65	5847
2026-01-16 23:04:16.00	109.47	42.38	-47.0	-51.0	13.4	1.90e-05	0	42	0	656408576	65	5745
2026-01-16 23:04:17.29	110.10	42.30	-46.9	-50.8	13.6	7.00e-07	0	42	0	658505728	64	5957
2026-01-16 23:04:18.00	110.45	42.26	-47.4	-51.8	12.6	2.59e-05	0	42	0	660602880	65	6330
2026-01-16 23:04:19.28	111.07	42.18	-47.3	-51.5	12.8	9.61e-05	0	42	0	662700032	65	6102
2026-01-16 23:04:20.02	111.43	42.14	-47.8	-52.4	12.1	4.53e-04	0	42	0	663748608	66	6360
2026-01-16 23:04:21.30	112.05	42.05	-47.4	-51.7	12.7	2.78e-04	0	42	0	666894336	66	5900
2026-01-16 23:04:22.07	112.43	42.00	-46.5	-50.1	14.2	3.43e-05	0	42	0	667942912	65	5177
2026-01-16 23:04:23.65	113.18	41.89	-46.0	-49.3	15.3	0.00e+00	0	42	0	671088640	63	5286
2026-01-16 23:04:24.31	113.50	41.84	-46.1	-49.5	14.9	0.00e+00	0	42	0	672137216	63	5432
2026-01-16 23:04:25.86	114.24	41.73	-45.1	-48.0	16.4	0.00e+00	0	42	0	675282944	62	4857
2026-01-16 23:04:26.57	114.57	41.67	-45.3	-48.3	16.2	0.00e+00	0	42	0	676331520	62	5010
2026-01-16 23:04:27.85	115.17	41.57	-46.5	-50.0	14.5	0.00e+00	0	42	0	678428672	63	5781
2026-01-16 23:04:28.56	115.51	41.52	-46.8	-50.7	13.8	2.20e-06	0	42	0	680525824	64	5863
2026-01-16 23:04:29.84	116.10	41.41	-46.2	-49.8	14.7	4.50e-06	0	42	0	682622976	64	5290
2026-01-16 23:04:30.55	116.43	41.35	-45.4	-48.4	15.9	0.00e+00	0	42	0	683671552	62	5098
2026-01-16 23:04:31.83	117.02	41.24	-44.1	-46.7	17.6	0.00e+00	0	42	0	685768704	60	4695
2026-01-16 23:04:32.55	117.35	41.18	-43.9	-46.4	17.8	0.00e+00	0	42	0	687865856	59	4805
2026-01-16 23:04:33.83	117.94	41.06	-44.5	-47.2	17.1	0.00e+00	0	42	0	689963008	59	5242
2026-01-16 23:04:34.54	118.26	41.00	-44.3	-47.0	17.4	0.00e+00	0	42	0	691011584	60	4816
2026-01-16 23:04:35.82	118.83	40.88	-43.7	-46.1	18.1	0.00e+00	0	42	0	694157312	59	4635
2026-01-16 23:04:36.55	119.16	40.81	-43.2	-45.6	18.7	0.00e+00	0	42	0	695205888	58	4602
2026-01-16 23:04:37.83	119.73	40.69	-43.7	-46.2	18.1	0.00e+00	0	42	0	697303040	58	4953
2026-01-16 23:04:38.57	120.06	40.61	-44.6	-47.3	17.1	0.00e+00	0	42	0	698351616	59	5289
2026-01-16 23:04:39.85	120.62	40.48	-45.0	-48.0	16.5	0.00e+00	0	42	0	701497344	60	5411
2026-01-16 23:04:40.61	120.96	40.41	-45.0	-48.0	16.5	0.00e+00	0	42	0	702545920	60	5407
2026-01-16 23:04:42.17	121.64	40.25	-43.6	-46.0	18.2	0.00e+00	0	42	0	705691648	59	4579
2026-01-16 23:04:42.80	121.91	40.18	-43.3	-45.7	18.6	0.00e+00	0	42	0	706740224	58	4659
2026-01-16 23:04:44.30	122.55	40.02	-43.2	-45.6	18.6	0.00e+00	0	42	0	709885952	58	4636
2026-01-16 23:04:45.01	122.85	39.94	-43.5	-46.0	18.2	0.00e+00	0	42	0	710934528	58	4832
2026-01-16 23:04:46.29	123.39	39.80	-43.2	-45.6	18.6	0.00e+00	0	42	0	713031680	58	4625
2026-01-16 23:04:47.02	123.70	39.72	-42.9	-45.2	19.1	0.00e+00	0	42	0	715128832	57	4667
2026-01-16 23:04:48.30	124.24	39.58	-43.1	-45.4	18.7	0.00e+00	0	42	0	717225984	57	4796
2026-01-16 23:04:49.31	124.65	39.46	-43.2	-45.6	18.7	0.00e+00	0	43	0	719323136	57	4875
2026-01-16 23:04:50.31	125.06	39.35	-43.4	-45.8	18.5	0.00e+00	0	42	0	720371712	57	5005
2026-01-16 23:04:51.30	125.47	39.23	-43.9	-46.5	17.9	0.00e+00	0	42	0	722468864	58	5102
2026-01-16 23:04:52.30	125.87	39.12	-44.3	-47.0	17.4	0.00e+00	0	42	0	724566016	59	5129
2026-01-16 23:04:53.29	126.27	39.00	-43.9	-46.4	17.9	0.00e+00	0	42	0	726663168	59	4806
2026-01-16 23:04:54.29	126.67	38.88	-42.6	-44.9	19.3	0.00e+00	0	42	0	728760320	57	4509
2026-01-16 23:04:55.28	127.06	38.76	-42.1	-44.2	19.9	0.00e+00	0	42	0	729808896	56	4419
2026-01-16 23:04:56.28	127.46	38.64	-42.2	-44.3	19.8	0.00e+00	0	42	0	731906048	56	4461
2026-01-16 23:04:57.28	127.85	38.52	-42.8	-45.1	19.2	0.00e+00	0	42	0	734003200	56	4879
2026-01-16 23:04:58.27	128.23	38.39	-42.9	-45.1	19.0	0.00e+00	0	42	0	736100352	56	4925
2026-01-16 23:04:59.36	128.65	38.26	-42.6	-44.8	19.3	0.00e+00	0	42	0	738197504	56	4731
2026-01-16 23:05:00.22	128.98	38.15	-42.4	-44.6	19.5	0.00e+00	0	42	0	739246080	56	4625
2026-01-16 23:05:01.56	129.49	37.98	-42.2	-44.4	19.7	0.00e+00	0	42	0	742391808	56	4526
2026-01-16 23:05:02.27	129.76	37.89	-41.9	-44.0	19.9	0.00e+00	0	42	0	743440384	55	4596
2026-01-16 23:05:03.55	130.23	37.72	-41.7	-43.8	20.0	0.00e+00	0	42	0	745537536	55	4490
2026-01-16 23:05:04.26	130.50	37.63	-41.6	-43.7	20.2	0.00e+00	0	42	0	746586112	55	4401
2026-01-16 23:05:05.54	130.97	37.47	-41.9	-44.1	19.9	0.00e+00	0	42	0	749731840	54	4876
2026-01-16 23:05:06.25	131.23	37.37	-41.9	-44.0	19.9	0.00e+00	0	42	0	750780416	54	4853
2026-01-16 23:05:07.53	131.69	37.20	-41.8	-43.9	20.0	0.00e+00	0	42	0	752877568	54	4792
2026-01-16 23:05:08.25	131.95	37.11	-41.1	-43.1	20.6	0.00e+00	0	42	0	754974720	54	4383
2026-01-16 23:05:09.53	132.40	36.94	-40.8	-42.8	20.9	0.00e+00	0	42	0	757071872	53	4489
2026-01-16 23:05:10.24	132.65	36.84	-41.0	-43.0	20.8	0.00e+00	0	42	0	758120448	53	4549
2026-01-16 23:05:11.52	133.10	36.67	-40.9	-42.9	20.8	0.00e+00	0	43	0	760217600	53	4538
2026-01-16 23:05:12.23	133.35	36.58	-41.0	-43.0	20.7	0.00e+00	0	42	0	762314752	53	4577
2026-01-16 23:05:13.51	133.79	36.40	-41.1	-43.2	20.6	0.00e+00	0	42	0	764411904	53	4663
2026-01-16 23:05:14.25	134.04	36.30	-41.3	-43.4	20.4	0.00e+00	0	42	0	765460480	53	4761
2026-01-16 23:05:15.64	134.51	36.11	-41.6	-43.7	20.2	0.00e+00	0	42	0	768606208	53	4935
2026-01-16 23:05:16.35	134.75	36.01	-41.9	-44.0	19.9	0.00e+00	0	42	0	769654784	54	4847
2026-01-16 23:05:17.63	135.18	35.84	-42.0	-44.2	19.7	0.00e+00	0	42	0	771751936	54	4938
2026-01-16 23:05:18.35	135.42	35.74	-43.0	-45.3	18.9	0.00e+00	0	42	0	773849088	56	5034
2026-01-16 23:05:19.76	135.88	35.54	-43.6	-46.0	18.2	0.00e+00	0	42	0	775946240	58	4854
2026-01-16 23:05:20.47	136.11	35.44	-42.7	-45.0	19.1	0.00e+00	0	42	0	776994816	57	4548
2026-01-16 23:05:21.75	136.52	35.27	-42.1	-44.2	19.8	0.00e+00	0	42	0	780140544	56	4427
2026-01-16 23:05:22.47	136.75	35.16	-41.7	-43.8	20.1	0.00e+00	0	42	0	781189120	55	4471
2026-01-16 23:05:23.75	137.16	34.99	-42.3	-44.5	19.4	0.00e+00	0	42	0	783286272	55	4860
2026-01-16 23:05:24.46	137.38	34.89	-43.1	-45.4	18.8	0.00e+00	0	42	0	785383424	57	4798
2026-01-16 23:05:25.74	137.78	34.71	-44.0	-46.5	17.8	0.00e+00	0	42	0	787480576	58	5142
2026-01-16 23:05:26.46	138.00	34.60	-43.3	-45.7	18.5	0.00e+00	0	42	0	788529152	58	4675
2026-01-16 23:05:27.73	138.39	34.42	-42.6	-44.8	19.3	0.00e+00	0	42	0	790626304	56	4730
2026-01-16 23:05:28.45	138.61	34.32	-42.6	-44.8	19.3	0.00e+00	0	42	0	792723456	56	4733
2026-01-16 23:05:29.73	138.99	34.14	-42.6	-44.9	19.2	0.00e+00	0	42	0	794820608	56	4763
2026-01-16 23:05:30.53	139.23	34.03	-43.4	-45.8	18.5	0.00e+00	0	42	0	795869184	57	4987
2026-01-16 23:05:31.67	139.57	33.86	-44.5	-47.2	17.1	0.00e+00	0	42	0	797966336	59	5254
2026-01-16 23:05:32.73	139.88	33.71	-45.3	-48.3	16.0	0.00e+00	0	42	0	800063488	61	5325
2026-01-16 23:05:33.60	140.13	33.59	-44.5	-47.3	17.1	0.00e+00	0	42	0	802160640	61	4735
2026-01-16 23:05:34.73	140.45	33.43	-43.4	-45.8	18.4	0.00e+00	0	42	0	804257792	58	4711
2026-01-16 23:05:35.79	140.76	33.28	-42.8	-45.0	19.1	0.00e+00	0	42	0	806354944	57	4597
2026-01-16 23:05:36.85	141.06	33.13	-42.7	-45.0	19.2	0.00e+00	0	42	0	808452096	57	4546
2026-01-16 23:05:37.72	141.30	33.00	-43.6	-46.0	18.3	0.00e+00	0	42	0	809500672	57	5103
2026-01-16 23:05:38.85	141.61	32.84	-44.6	-47.3	17.0	0.00e+00	0	42	0	811597824	59	5339
2026-01-16 23:05:39.71	141.85	32.72	-45.6	-48.8	15.7	0.00e+00	0	42	0	813694976	61	5619
2026-01-16 23:05:40.85	142.16	32.55	-45.2	-48.2	16.2	0.00e+00	0	42	0	815792128	62	4978
2026-01-16 23:05:41.70	142.39	32.43	-43.9	-46.4	17.7	0.00e+00	0	43	0	816840704	59	4813
2026-01-16 23:05:42.83	142.70	32.27	-42.7	-44.9	19.2	0.00e+00	0	42	0	818937856	57	4516
2026-01-16 23:05:43.69	142.92	32.15	-42.6	-44.8	19.3	0.00e+00	0	43	0	821035008	57	4475
2026-01-16 23:05:44.89	143.24	31.97	-43.0	-45.3	18.9	0.00e+00	0	42	0	823132160	57	4727
2026-01-16 23:05:45.74	143.46	31.85	-43.9	-46.4	17.9	0.00e+00	0	42	0	825229312	58	5091
2026-01-16 23:05:46.88	143.76	31.69	-45.1	-48.0	16.4	0.00e+00	0	42	0	827326464	60	5439
2026-01-16 23:05:47.73	143.98	31.57	-45.9	-49.2	15.3	0.00e+00	0	42	0	828375040	62	5563
2026-01-16 23:05:48.87	144.27	31.41	-45.5	-48.7	15.7	0.00e+00	0	43	0	830472192	62	5242
2026-01-16 23:05:49.72	144.48	31.28	-44.6	-47.4	16.9	0.00e+00	0	42	0	832569344	61	4788
2026-01-16 23:05:51.07	144.82	31.09	-43.4	-45.8	18.4	0.00e+00	0	42	0	834666496	58	4742
2026-01-16 23:05:51.78	145.00	30.99	-43.2	-45.6	18.7	0.00e+00	0	42	0	835715072	58	4602
2026-01-16 23:05:53.27	145.36	30.78	-42.9	-45.2	19.0	0.00e+00	0	42	0	838860800	57	4662
2026-01-16 23:05:53.98	145.54	30.68	-43.5	-45.9	18.4	0.00e+00	0	42	0	839909376	57	5056
2026-01-16 23:05:55.26	145.84	30.50	-44.4	-47.1	17.2	0.00e+00	0	42	0	843055104	59	5184
2026-01-16 23:05:55.97	146.01	30.39	-45.2	-48.2	16.3	0.00e+00	0	42	0	844103680	61	5232
2026-01-16 23:05:57.25	146.32	30.21	-45.0	-47.9	16.5	0.00e+00	0	42	0	846200832	61	5048
2026-01-16 23:05:57.96	146.48	30.11	-44.6	-47.3	17.0	0.00e+00	0	42	0	847249408	61	4733
2026-01-16 23:05:59.24	146.78	29.93	-44.3	-46.9	17.4	0.00e+00	0	42	0	850395136	60	4806
2026-01-16 23:05:59.95	146.95	29.83	-44.0	-46.6	17.7	0.00e+00	0	42	0	851443712	60	4614
2026-01-16 23:06:01.23	147.24	29.65	-43.8	-46.3	17.9	0.00e+00	0	42	0	853540864	59	4725
2026-01-16 23:06:01.94	147.40	29.55	-43.5	-45.9	18.3	0.00e+00	0	42	0	854589440	59	4542
2026-01-16 23:06:03.22	147.69	29.37	-44.2	-46.8	17.4	0.00e+00	0	42	0	857735168	59	5035
2026-01-16 23:06:04.10	147.89	29.25	-44.6	-47.4	17.0	0.00e+00	0	42	0	858783744	60	5082
2026-01-16 23:06:05.54	148.20	29.05	-44.7	-47.6	16.8	0.00e+00	0	42	0	861929472	60	5199
2026-01-16 23:06:06.25	148.36	28.95	-44.3	-47.1	17.2	0.00e+00	0	42	0	862978048	60	4874
2026-01-16 23:06:07.74	148.68	28.74	-43.0	-45.4	18.7	0.00e+00	0	43	0	866123776	58	4524
2026-01-16 23:06:08.45	148.84	28.64	-42.4	-44.7	19.3	0.00e+00	0	42	0	867172352	56	4677
2026-01-16 23:06:09.73	149.11	28.46	-41.7	-43.9	19.9	0.00e+00	0	42	0	869269504	55	4513
2026-01-16 23:06:10.44	149.26	28.36	-41.8	-43.9	19.9	0.00e+00	0	42	0	871366656	55	4540
2026-01-16 23:06:11.73	149.53	28.18	-42.7	-45.0	19.0	0.00e+00	0	42	0	873463808	55	5115
2026-01-16 23:06:12.44	149.68	28.09	-43.3	-45.7	18.5	0.00e+00	0	42	0	874512384	57	4961
2026-01-16 23:06:13.73	149.94	27.91	-44.2	-47.0	17.3	0.00e+00	0	42	0	877658112	59	5112
2026-01-16 23:06:14.45	150.09	27.81	-44.7	-47.6	16.7	0.00e+00	0	42	0	878706688	59	5494
2026-01-16 23:06:15.73	150.35	27.63	-44.8	-47.8	16.5	0.00e+00	0	42	0	880803840	60	5319
2026-01-16 23:06:16.44	150.49	27.54	-44.8	-47.9	16.5	0.00e+00	0	42	0	881852416	60	5349
2026-01-16 23:06:17.72	150.75	27.36	-44.4	-47.4	16.9	0.00e+00	0	42	0	884998144	60	5064
2026-01-16 23:06:18.47	150.90	27.26	-44.2	-47.0	17.3	0.00e+00	0	42	0	886046720	60	4845
2026-01-16 23:06:19.75	151.15	27.09	-44.1	-46.9	17.4	0.00e+00	0	42	0	888143872	60	4784
2026-01-16 23:06:20.48	151.29	26.99	-44.1	-47.0	17.3	0.00e+00	0	42	0	890241024	60	4827
2026-01-16 23:06:21.76	151.53	26.81	-44.0	-46.9	17.5	0.00e+00	0	42	0	892338176	60	4760
2026-01-16 23:06:22.58	151.69	26.70	-44.4	-47.3	17.0	0.00e+00	0	42	0	893386752	60	5005
2026-01-16 23:06:23.72	151.91	26.55	-44.7	-47.7	16.6	0.00e+00	0	42	0	895483904	60	5252
2026-01-16 23:06:24.76	152.10	26.41	-44.6	-47.6	16.8	0.00e+00	0	42	0	897581056	60	5170
2026-01-16 23:06:25.72	152.28	26.28	-44.6	-47.5	16.7	0.00e+00	0	42	0	899678208	60	5152
2026-01-16 23:06:26.94	152.51	26.12	-43.7	-46.3	17.8	0.00e+00	0	42	0	901775360	59	4735
2026-01-16 23:06:27.82	152.67	26.00	-43.3	-45.8	18.3	0.00e+00	0	42	0	903872512	58	4737
2026-01-16 23:06:29.13	152.91	25.83	-42.6	-44.9	19.2	0.00e+00	0	42	0	905969664	57	4507
2026-01-16 23:06:29.84	153.03	25.73	-42.1	-44.3	19.7	0.00e+00	0	43	0	907018240	56	4480
2026-01-16 23:06:31.34	153.30	25.54	-41.7	-43.9	19.9	0.00e+00	0	42	0	910163968	55	4512
2026-01-16 23:06:32.05	153.43	25.44	-41.8	-43.9	19.9	0.00e+00	0	42	0	911212544	55	4544
2026-01-16 23:06:33.33	153.65	25.27	-42.3	-44.5	19.4	0.00e+00	0	42	0	914358272	55	4863
2026-01-16 23:06:34.04	153.77	25.18	-42.9	-45.3	18.9	0.00e+00	0	42	0	915406848	56	4986
2026-01-16 23:06:35.46	154.02	25.00	-43.8	-46.4	17.8	0.00e+00	0	42	0	917504000	58	5070
2026-01-16 23:06:36.17	154.14	24.90	-44.3	-47.0	17.2	0.00e+00	0	42	0	919601152	59	5149
2026-01-16 23:06:37.45	154.36	24.74	-44.9	-47.9	16.5	0.00e+00	0	42	0	921698304	60	5343
2026-01-16 23:06:38.16	154.48	24.65	-45.2	-48.3	16.1	0.00e+00	0	42	0	922746880	61	5280
2026-01-16 23:06:39.55	154.71	24.47	-45.4	-48.6	15.8	0.00e+00	0	42	0	925892608	61	5500
2026-01-16 23:06:40.27	154.83	24.37	-45.4	-48.6	15.7	0.00e+00	0	43	0	926941184	61	5516
2026-01-16 23:06:41.54	155.04	24.21	-45.2	-48.3	16.1	0.00e+00	0	42	0	929038336	61	5280
2026-01-16 23:06:42.26	155.15	24.12	-45.1	-48.1	16.2	0.00e+00	0	42	0	931135488	61	5211
2026-01-16 23:06:43.53	155.36	23.96	-44.9	-47.8	16.4	0.00e+00	0	42	0	933232640	61	5037
2026-01-16 23:06:44.27	155.48	23.86	-44.5	-47.3	17.0	0.00e+00	0	42	0	934281216	61	4737
2026-01-16 23:06:45.73	155.71	23.68	-44.2	-46.9	17.4	0.00e+00	0	42	0	937426944	60	4785
2026-01-16 23:06:46.44	155.82	23.59	-44.1	-46.8	17.5	0.00e+00	0	42	0	938475520	60	4730
2026-01-16 23:06:47.71	156.02	23.43	-43.8	-46.3	17.9	0.00e+00	0	42	0	940572672	59	4730
2026-01-16 23:06:48.42	156.13	23.34	-43.9	-46.4	17.8	0.00e+00	0	42	0	942669824	59	4794
2026-01-16 23:06:49.70	156.33	23.18	-43.7	-46.2	17.9	0.00e+00	0	42	0	944766976	59	4689
2026-01-16 23:06:50.43	156.44	23.09	-44.1	-46.7	17.5	0.00e+00	0	42	0	945815552	59	4933
2026-01-16 23:06:51.71	156.63	22.93	-44.5	-47.3	17.0	0.00e+00	0	42	0	948961280	59	5281
2026-01-16 23:06:52.42	156.74	22.84	-44.8	-47.7	16.6	0.00e+00	0	42	0	950009856	60	5252
2026-01-16 23:06:53.70	156.93	22.69	-45.9	-49.3	15.2	0.00e+00	0	43	0	952107008	62	5603
2026-01-16 23:06:54.44	157.04	22.60	-45.9	-49.3	15.1	0.00e+00	0	42	0	953155584	62	5623
2026-01-16 23:06:55.72	157.23	22.44	-46.3	-49.9	14.5	0.00e+00	0	42	0	956301312	63	5667
2026-01-16 23:06:56.46	157.34	22.35	-46.6	-50.5	13.9	1.50e-06	0	42	0	957349888	63	6104
2026-01-16 23:06:57.73	157.52	22.19	-46.0	-49.5	14.9	7.00e-07	0	42	0	959447040	63	5407
2026-01-16 23:06:58.45	157.62	22.11	-46.1	-49.6	14.8	7.00e-07	0	42	0	961544192	63	5481
2026-01-16 23:06:59.73	157.81	21.95	-45.4	-48.6	15.7	0.00e+00	0	42	0	963641344	62	5200
2026-01-16 23:07:00.45	157.91	21.87	-45.0	-48.0	16.3	0.00e+00	0	42	0	964689920	62	4851
2026-01-16 23:07:01.77	158.09	21.71	-44.8	-47.7	16.6	0.00e+00	0	43	0	966787072	61	4967
2026-01-16 23:07:02.48	158.19	21.62	-44.4	-47.1	17.2	0.00e+00	0	42	0	968884224	60	4905
2026-01-16 23:07:03.76	158.37	21.47	-44.3	-47.0	17.2	0.00e+00	0	42	0	970981376	60	4846
2026-01-16 23:07:04.50	158.47	21.38	-44.3	-47.1	17.2	0.00e+00	0	42	0	972029952	60	4875
2026-01-16 23:07:05.78	158.64	21.23	-44.0	-46.6	17.6	0.00e+00	0	42	0	975175680	59	4876
2026-01-16 23:07:06.50	158.74	21.14	-44.0	-46.7	17.5	0.00e+00	0	42	0	976224256	59	4932
2026-01-16 23:07:07.78	158.91	20.99	-44.0	-46.6	17.5	0.00e+00	0	42	0	978321408	59	4892
2026-01-16 23:07:08.53	159.01	20.91	-43.9	-46.5	17.6	0.00e+00	0	42	0	980418560	59	4844
2026-01-16 23:07:09.81	159.18	20.76	-43.8	-46.4	17.7	0.00e+00	0	42	0	982515712	59	4804
2026-01-16 23:07:10.52	159.28	20.67	-43.5	-46.0	18.1	0.00e+00	0	43	0	983564288	59	4571
2026-01-16 23:07:11.80	159.44	20.53	-43.2	-45.6	18.4	0.00e+00	0	43	0	985661440	58	4637
2026-01-16 23:07:12.51	159.53	20.44	-43.4	-45.8	18.2	0.00e+00	0	42	0	987758592	58	4759
2026-01-16 23:07:13.80	159.70	20.29	-43.0	-45.3	18.7	0.00e+00	0	42	0	989855744	57	4752
2026-01-16 23:07:14.51	159.79	20.21	-43.1	-45.5	18.5	0.00e+00	0	42	0	990904320	57	4840
2026-01-16 23:07:15.79	159.95	20.07	-43.4	-45.8	18.3	0.00e+00	0	42	0	994050048	57	5000
2026-01-16 23:07:16.50	160.04	19.99	-43.4	-45.8	18.2	0.00e+00	0	42	0	995098624	57	5041
2026-01-16 23:07:17.78	160.20	19.84	-43.6	-46.0	18.1	0.00e+00	0	42	0	997195776	58	4840
2026-01-16 23:07:18.49	160.29	19.76	-43.6	-46.0	18.0	0.00e+00	0	42	0	998244352	58	4866
2026-01-16 23:07:19.77	160.45	19.61	-43.9	-46.4	17.7	0.00e+00	0	42	0	1001390080	58	5084
2026-01-16 23:07:20.49	160.53	19.53	-44.4	-47.1	17.1	0.00e+00	0	42	0	1002438656	59	5181
2026-01-16 23:07:21.77	160.69	19.39	-44.4	-47.2	17.0	0.00e+00	0	42	0	1004535808	59	5226
2026-01-16 23:07:22.50	160.78	19.31	-44.6	-47.4	16.8	1.29e-05	0	43	0	1006632960	59	5362
2026-01-16 23:07:23.78	160.93	19.17	-44.7	-47.6	16.6	0.00e+00	0	43	0	1008730112	60	5195
2026-01-16 23:07:24.50	161.02	19.09	-44.8	-47.7	16.5	0.00e+00	0	43	0	1009778688	60	5265
2026-01-16 23:07:25.78	161.17	18.94	-44.9	-47.9	16.3	0.00e+00	0	42	0	1011875840	60	5387
2026-01-16 23:07:26.49	161.25	18.87	-44.8	-47.8	16.4	0.00e+00	0	43	0	1013972992	60	5316
2026-01-16 23:07:27.77	161.40	18.73	-44.6	-47.4	16.8	0.00e+00	0	42	0	1016070144	60	5098
2026-01-16 23:07:28.67	161.50	18.63	-44.5	-47.4	16.8	0.00e+00	0	42	0	1018167296	60	5044
2026-01-16 23:07:30.00	161.66	18.48	-44.6	-47.5	16.7	0.00e+00	0	42	0	1020264448	60	5107
2026-01-16 23:07:30.71	161.74	18.40	-44.5	-47.4	15.2	0.00e+00	0	43	0	1021313024	60	5072
2026-01-16 23:07:32.26	161.91	18.24	-44.1	-46.8	17.3	0.00e+00	0	42	0	1024458752	60	4751
2026-01-16 23:07:32.96	161.99	18.16	-43.9	-46.5	17.5	0.00e+00	0	42	0	1025507328	59	4853
2026-01-16 23:07:34.24	162.13	18.02	-43.9	-46.4	17.6	0.00e+00	0	42	0	1028653056	59	4810
2026-01-16 23:07:34.95	162.21	17.95	-43.8	-46.4	17.7	0.00e+00	0	42	0	1029701632	59	4795
2026-01-16 23:07:36.23	162.35	17.81	-44.1	-46.7	17.4	0.00e+00	0	42	0	1031798784	59	4952
2026-01-16 23:07:36.94	162.43	17.74	-44.1	-46.8	17.3	0.00e+00	0	42	0	1032847360	59	5012
2026-01-16 23:07:38.22	162.57	17.60	-44.5	-47.2	16.9	0.00e+00	0	42	0	1035993088	59	5268
2026-01-16 23:07:38.95	162.64	17.52	-44.4	-47.2	16.9	0.00e+00	0	42	0	1037041664	59	5228
2026-01-16 23:07:40.23	162.78	17.39	-44.6	-47.4	16.7	0.00e+00	0	43	0	1039138816	59	5381
2026-01-16 23:07:40.95	162.86	17.31	-44.5	-47.4	16.8	0.00e+00	0	43	0	1041235968	59	5355
2026-01-16 23:07:42.23	162.99	17.18	-44.9	-48.0	16.2	0.00e+00	0	43	0	1043333120	60	5437
2026-01-16 23:07:42.96	163.07	17.10	-45.3	-48.5	15.7	0.00e+00	0	42	0	1044381696	61	5445
2026-01-16 23:07:44.24	163.20	16.97	-45.7	-49.2	15.0	0.00e+00	0	42	0	1046478848	62	5530
2026-01-16 23:07:44.98	163.28	16.89	-45.9	-49.4	14.8	0.00e+00	0	42	0	1048576000	62	5703
2026-01-16 23:07:46.26	163.41	16.76	-45.9	-49.4	14.7	7.00e-07	0	42	0	1050673152	62	5716
2026-01-16 23:07:46.97	163.48	16.69	-45.9	-49.4	14.9	0.00e+00	0	42	0	1051721728	62	5674
2026-01-16 23:07:48.25	163.61	16.56	-45.8	-49.4	14.9	0.00e+00	0	42	0	1054867456	62	5660
2026-01-16 23:07:48.96	163.68	16.48	-45.7	-49.1	15.1	0.00e+00	0	43	0	1055916032	62	5495
2026-01-16 23:07:50.24	163.81	16.35	-45.8	-49.3	14.9	0.00e+00	0	42	0	1058013184	62	5629
2026-01-16 23:07:51.20	163.91	16.26	-45.8	-49.3	14.9	0.00e+00	0	42	0	1060110336	62	5619
2026-01-16 23:07:52.20	164.00	16.16	-45.6	-48.9	15.3	0.00e+00	0	42	0	1062207488	62	5402
2026-01-16 23:07:53.19	164.10	16.06	-45.5	-48.7	15.5	0.00e+00	0	42	0	1063256064	62	5269
2026-01-16 23:07:54.18	164.20	15.96	-45.3	-48.4	15.7	0.00e+00	0	42	0	1065353216	62	5093
2026-01-16 23:07:55.18	164.29	15.86	-45.1	-48.2	15.9	0.00e+00	0	43	0	1067450368	62	4972
2026-01-16 23:07:56.17	164.39	15.76	-45.2	-48.3	15.9	0.00e+00	0	43	0	1069547520	62	5002
2026-01-16 23:07:57.17	164.48	15.66	-44.6	-47.5	16.6	0.00e+00	0	42	0	1071644672	61	4846
2026-01-16 23:07:58.16	164.58	15.56	-44.5	-47.4	16.8	0.00e+00	0	43	0	1072693248	61	4772
2026-01-16 23:07:59.19	164.68	15.46	-44.5	-47.3	16.7	0.00e+00	0	42	0	1074790400	61	4750
2026-01-16 23:08:00.18	164.77	15.36	-44.3	-47.1	17.0	0.00e+00	0	43	0	1076887552	60	4891
2026-01-16 23:08:01.18	164.86	15.26	-44.5	-47.3	16.9	0.00e+00	0	43	0	1078984704	60	4993
2026-01-16 23:08:02.25	164.96	15.16	-44.3	-47.0	17.1	0.00e+00	0	43	0	1081081856	60	4857
2026-01-16 23:08:03.14	165.04	15.07	-44.1	-46.8	17.3	0.00e+00	0	43	0	1082130432	60	4723
2026-01-16 23:08:04.27	165.14	14.96	-44.2	-46.8	17.3	0.00e+00	0	43	0	1084227584	60	4758
2026-01-16 23:08:05.13	165.22	14.88	-44.0	-46.6	17.4	0.00e+00	0	43	0	1086324736	59	4873
2026-01-16 23:08:06.26	165.32	14.77	-44.1	-46.8	17.2	0.00e+00	0	42	0	1088421888	59	5018
2026-01-16 23:08:07.12	165.40	14.69	-44.1	-46.7	17.2	0.00e+00	0	43	0	1089470464	59	4981
2026-01-16 23:08:08.25	165.50	14.58	-44.2	-46.9	17.2	0.00e+00	0	43	0	1091567616	59	5050
2026-01-16 23:08:09.10	165.58	14.50	-44.3	-47.1	17.0	0.00e+00	0	43	0	1093664768	59	5176
2026-01-16 23:08:10.24	165.68	14.39	-44.3	-47.1	16.9	0.00e+00	0	43	0	1095761920	59	5199
2026-01-16 23:08:11.09	165.75	14.31	-44.4	-47.2	16.8	0.00e+00	0	42	0	1096810496	59	5271
2026-01-16 23:08:12.23	165.85	14.20	-44.4	-47.2	16.8	0.00e+00	0	43	0	1098907648	59	5255
2026-01-16 23:08:13.08	165.92	14.12	-44.3	-47.1	16.9	0.00e+00	0	43	0	1101004800	59	5213
2026-01-16 23:08:14.22	166.02	14.01	-44.4	-47.3	16.7	0.00e+00	0	43	0	1103101952	59	5333
2026-01-16 23:08:15.07	166.09	13.93	-44.4	-47.3	16.7	0.00e+00	0	43	0	1105199104	59	5331
2026-01-16 23:08:16.21	166.19	13.83	-44.2	-47.1	16.9	0.00e+00	0	43	0	1107296256	59	5169
2026-01-16 23:08:17.06	166.26	13.75	-44.3	-47.1	16.9	0.00e+00	0	42	0	1108344832	59	5172
2026-01-16 23:08:18.20	166.36	13.64	-44.1	-46.9	17.2	0.00e+00	0	42	0	1110441984	59	5067
2026-01-16 23:08:19.05	166.43	13.56	-44.3	-47.1	16.9	0.00e+00	0	43	0	1112539136	59	5180
2026-01-16 23:08:20.19	166.52	13.46	-44.3	-47.2	16.8	0.00e+00	0	43	0	1114636288	59	5228
2026-01-16 23:08:21.04	166.59	13.38	-44.2	-47.0	17.0	0.00e+00	0	43	0	1115684864	59	5120
2026-01-16 23:08:22.18	166.69	13.28	-43.9	-46.7	17.3	0.00e+00	0	43	0	1117782016	59	4929
2026-01-16 23:08:23.35	166.78	13.17	-43.9	-46.7	17.3	0.00e+00	0	42	0	1119879168	59	4937
2026-01-16 23:08:24.20	166.85	13.09	-43.7	-46.3	17.6	0.00e+00	0	43	0	1121976320	59	4735
2026-01-16 23:08:25.34	166.94	12.99	-43.6	-46.2	17.7	0.00e+00	0	42	0	1124073472	59	4688
2026-01-16 23:08:26.19	167.01	12.91	-43.5	-46.1	17.7	0.00e+00	0	43	0	1125122048	58	4921
2026-01-16 23:08:27.33	167.10	12.81	-43.6	-46.2	17.7	0.00e+00	0	42	0	1127219200	58	4977
2026-01-16 23:08:28.18	167.17	12.73	-43.7	-46.4	17.6	0.00e+00	0	42	0	1129316352	58	5063
2026-01-16 23:08:29.32	167.26	12.63	-43.7	-46.3	17.7	0.00e+00	0	43	0	1131413504	58	5007
2026-01-16 23:08:30.17	167.32	12.56	-44.0	-46.7	17.3	0.00e+00	0	43	0	1133510656	58	5223
2026-01-16 23:08:31.31	167.41	12.45	-44.1	-46.8	17.2	0.00e+00	0	43	0	1135607808	58	5305
2026-01-16 23:08:32.16	167.48	12.38	-44.2	-46.9	17.1	0.00e+00	0	43	0	1136656384	59	5071
2026-01-16 23:08:33.30	167.57	12.28	-44.2	-47.0	17.0	0.00e+00	0	43	0	1138753536	59	5106
2026-01-16 23:08:34.15	167.63	12.20	-44.3	-47.1	16.8	0.00e+00	0	43	0	1140850688	59	5194
2026-01-16 23:08:35.43	167.73	12.09	-44.5	-47.3	16.7	0.00e+00	0	43	0	1142947840	59	5295
2026-01-16 23:08:36.16	167.78	12.03	-44.8	-47.8	16.3	0.00e+00	0	42	0	1143996416	60	5282
2026-01-16 23:08:37.44	167.88	11.91	-44.9	-48.0	16.1	0.00e+00	0	42	0	1147142144	60	5420
2026-01-16 23:08:38.15	167.93	11.85	-45.3	-48.5	15.6	0.00e+00	0	42	0	1148190720	61	5451
2026-01-16 23:08:39.66	168.04	11.72	-45.3	-48.7	15.4	0.00e+00	0	42	0	1151336448	61	5553
2026-01-16 23:08:40.37	168.09	11.66	-45.3	-48.7	15.4	5.03e-05	0	43	0	1152385024	61	5570
2026-01-16 23:08:41.65	168.19	11.55	-45.5	-49.1	15.0	0.00e+00	0	43	0	1154482176	61	5815
2026-01-16 23:08:42.37	168.24	11.49	-45.6	-49.2	14.9	0.00e+00	0	43	0	1155530752	61	5897
2026-01-16 23:08:43.76	168.34	11.37	-45.6	-49.4	14.7	0.00e+00	0	43	0	1158676480	61	5994
2026-01-16 23:08:44.48	168.39	11.31	-45.7	-49.6	14.6	0.00e+00	0	42	0	1159725056	62	5797
2026-01-16 23:08:45.75	168.48	11.20	-45.6	-49.4	14.7	7.00e-07	0	43	0	1161822208	62	5676
2026-01-16 23:08:46.48	168.54	11.14	-45.6	-49.5	14.5	7.00e-07	0	43	0	1163919360	62	5774
2026-01-16 23:08:47.76	168.63	11.03	-45.5	-49.4	14.7	0.00e+00	0	43	0	1166016512	62	5713
2026-01-16 23:08:48.50	168.68	10.97	-45.5	-49.6	14.5	0.00e+00	0	42	0	1167065088	62	5798
2026-01-16 23:08:49.78	168.77	10.86	-45.4	-49.6	14.5	0.00e+00	0	42	0	1170210816	62	5799
2026-01-16 23:08:50.51	168.82	10.80	-45.3	-49.4	14.6	7.00e-07	0	42	0	1171259392	62	5696
2026-01-16 23:08:51.79	168.91	10.69	-45.2	-49.5	14.5	7.00e-07	0	42	0	1173356544	62	5786
2026-01-16 23:08:52.50	168.96	10.63	-45.1	-49.3	14.8	1.50e-06	0	43	0	1175453696	62	5604
2026-01-16 23:08:53.78	169.04	10.53	-44.9	-49.0	15.0	0.00e+00	0	42	0	1177550848	61	5752
2026-01-16 23:08:54.49	169.09	10.47	-44.8	-48.9	15.1	0.00e+00	0	43	0	1178599424	61	5675
2026-01-16 23:08:55.77	169.18	10.36	-44.7	-48.8	15.2	0.00e+00	0	42	0	1180696576	61	5628
2026-01-16 23:08:56.61	169.24	10.29	-44.6	-48.7	15.3	0.00e+00	0	42	0	1182793728	61	5548
2026-01-16 23:08:57.74	169.31	10.20	-44.6	-48.6	15.4	0.00e+00	0	43	0	1184890880	61	5505
2026-01-16 23:08:58.59	169.37	10.13	-44.5	-48.3	15.7	0.00e+00	0	42	0	1185939456	61	5327
2026-01-16 23:08:59.73	169.44	10.04	-44.4	-48.2	15.8	0.00e+00	0	43	0	1188036608	60	5561
2026-01-16 23:09:00.58	169.50	9.97	-44.5	-48.3	15.6	0.00e+00	0	43	0	1190133760	60	5633
2026-01-16 23:09:01.72	169.57	9.88	-44.3	-48.0	15.9	0.00e+00	0	43	0	1192230912	60	5451
2026-01-16 23:09:02.57	169.63	9.81	-44.3	-48.0	15.9	0.00e+00	0	42	0	1193279488	60	5445
2026-01-16 23:09:03.71	169.70	9.71	-44.2	-47.9	16.0	0.00e+00	0	43	0	1196425216	60	5351
2026-01-16 23:09:04.56	169.76	9.65	-44.1	-47.7	16.2	0.00e+00	0	42	0	1197473792	60	5260
2026-01-16 23:09:05.70	169.83	9.55	-44.1	-47.8	16.1	0.00e+00	0	43	0	1199570944	60	5286
2026-01-16 23:09:06.55	169.89	9.49	-44.1	-47.8	16.1	0.00e+00	0	42	0	1201668096	60	5338
2026-01-16 23:09:07.69	169.96	9.40	-44.0	-47.5	16.4	0.00e+00	0	43	0	1203765248	59	5412
2026-01-16 23:09:08.54	170.01	9.33	-43.9	-47.4	16.5	0.00e+00	0	43	0	1204813824	59	5347
2026-01-16 23:09:09.68	170.08	9.24	-43.8	-47.2	16.7	0.00e+00	0	43	0	1206910976	59	5219
2026-01-16 23:09:10.64	170.14	9.16	-43.7	-47.1	16.7	0.00e+00	0	43	0	1209008128	59	5209
2026-01-16 23:09:11.63	170.21	9.08	-43.8	-47.3	16.6	0.00e+00	0	42	0	1211105280	59	5282
2026-01-16 23:09:12.85	170.28	8.99	-47.7	-55.8	9.1	2.11e-03	0	43	0	1213202432	65	9972
2026-01-16 23:09:13.70	170.33	8.92	-49.8	-64.6	3.8	1.25e+00	0	42	104	1213202432	70	20772
2026-01-16 23:09:14.83	170.40	8.83	-49.9	-65.4	3.8	1.49e+00	0	43	104	1213202432	70	22741
2026-01-16 23:09:15.68	170.45	8.77	-50.3	-65.6	3.8	1.49e+00	0	43	104	1213202432	71	22003
2026-01-16 23:09:16.82	170.52	8.68	-50.1	-65.7	3.8	1.49e+00	0	43	104	1213202432	71	22234
