passes_logs/2026/01/16/T1/T1__20260116_083819_NOAA_21_JPSS-2_rec.log

#Pass ID: 20260116_083819_NOAA 21 (JPSS-2)
#Satellite: NOAA 21 (JPSS-2)
#Configuration: NOAA 21
#almurnet v.1.7.20251203
#Start time: 2026-01-16 08:38:18

#Version: 2.0.20230620
#Station: T1
#Location: 37.570604 lon 55.790049 lat
#TLE: 1 54234U 22150A   26015.92901934  .00000025  00000+0  32700-4 0  9991
#TLE: 2 54234  98.7499 316.8175 0000634 284.8145  75.2961 14.19534841164946

#Time	Az	El	Level	Level2	SNR	BER	BlckErr	Temp	State	Recorded	gain1	gain2
2026-01-16 08:38:18.76	119.69	4.98	-49.7	-62.7	3.8	1.49e+00	0	38	0	0	71	15631
2026-01-16 08:38:19.75	119.63	5.05	-49.7	-62.7	3.8	1.49e+00	0	38	104	0	71	15589
2026-01-16 08:38:20.75	119.56	5.11	-49.7	-62.7	3.8	1.49e+00	0	38	104	0	71	15581
2026-01-16 08:38:21.75	119.50	5.18	-49.7	-62.6	3.8	1.49e+00	0	38	104	0	71	15580
2026-01-16 08:38:22.75	119.43	5.24	-49.7	-62.6	3.8	1.49e+00	0	38	104	0	71	15562
2026-01-16 08:38:23.74	119.37	5.31	-49.7	-62.6	3.8	1.49e+00	0	38	104	0	71	15546
2026-01-16 08:38:24.74	119.30	5.37	-49.7	-62.6	3.8	1.49e+00	0	38	104	0	71	15554
2026-01-16 08:38:25.73	119.23	5.44	-49.7	-62.6	3.8	1.49e+00	0	38	104	0	71	15560
2026-01-16 08:38:26.73	119.16	5.50	-49.7	-62.7	3.8	1.49e+00	0	38	104	0	71	15601
2026-01-16 08:38:27.73	119.10	5.57	-49.7	-62.7	3.8	1.49e+00	0	38	104	0	71	15671
2026-01-16 08:38:28.73	119.03	5.64	-49.7	-62.6	3.8	1.49e+00	0	38	104	0	71	15566
2026-01-16 08:38:29.73	118.96	5.70	-49.7	-62.7	3.8	1.49e+00	0	38	104	0	70	16515
2026-01-16 08:38:30.73	118.89	5.77	-49.6	-62.6	3.8	1.49e+00	0	38	104	0	70	16499
2026-01-16 08:38:31.73	118.82	5.83	-49.7	-62.6	3.8	1.49e+00	0	38	104	0	70	16467
2026-01-16 08:38:32.73	118.75	5.90	-49.7	-62.6	3.8	1.49e+00	0	38	104	0	70	16460
2026-01-16 08:38:33.73	118.68	5.97	-49.6	-62.7	3.8	1.49e+00	0	38	104	0	70	16537
2026-01-16 08:38:34.72	118.61	6.03	-49.7	-62.7	3.8	1.49e+00	0	38	104	0	70	16506
2026-01-16 08:38:35.72	118.54	6.10	-49.7	-62.7	3.8	1.49e+00	0	38	104	0	70	16527
2026-01-16 08:38:36.72	118.47	6.17	-49.7	-62.7	3.8	1.49e+00	0	38	104	0	70	16566
2026-01-16 08:38:37.72	118.40	6.23	-49.7	-62.7	3.8	1.49e+00	0	39	104	0	70	16605
2026-01-16 08:38:38.72	118.33	6.30	-49.7	-62.7	3.8	1.49e+00	0	39	104	0	70	16548
2026-01-16 08:38:39.71	118.26	6.37	-49.7	-62.6	3.8	1.49e+00	0	39	104	0	70	16500
2026-01-16 08:38:40.71	118.19	6.44	-49.7	-62.6	3.8	1.49e+00	0	39	104	0	70	16377
2026-01-16 08:38:41.71	118.11	6.50	-49.7	-62.5	3.8	1.49e+00	0	39	104	0	70	16302
2026-01-16 08:38:42.71	118.04	6.57	-49.6	-62.5	3.8	1.49e+00	0	39	104	0	70	16202
2026-01-16 08:38:43.71	117.97	6.64	-49.6	-62.5	3.8	1.49e+00	0	39	104	0	70	16224
2026-01-16 08:38:44.72	117.89	6.71	-49.7	-62.5	3.8	1.49e+00	0	39	104	0	70	16226
2026-01-16 08:38:45.71	117.82	6.77	-49.6	-62.5	3.8	1.49e+00	0	39	104	0	70	16186
2026-01-16 08:38:46.71	117.75	6.84	-49.7	-62.5	3.8	1.49e+00	0	39	104	0	70	16198
2026-01-16 08:38:47.71	117.67	6.91	-49.7	-62.5	3.8	1.49e+00	0	39	104	0	70	16172
2026-01-16 08:38:48.71	117.60	6.98	-49.6	-62.5	3.8	1.49e+00	0	39	104	0	70	16236
2026-01-16 08:38:49.71	117.52	7.05	-49.6	-62.5	3.8	1.49e+00	0	39	104	0	70	16231
2026-01-16 08:38:50.71	117.44	7.12	-49.7	-62.5	3.8	1.49e+00	0	39	104	0	70	16229
2026-01-16 08:38:51.71	117.37	7.19	-49.7	-62.4	3.8	1.49e+00	0	39	104	0	70	16099
2026-01-16 08:38:52.70	117.29	7.25	-49.7	-62.3	3.8	1.49e+00	0	39	104	0	70	15794
2026-01-16 08:38:53.70	117.22	7.32	-49.6	-62.0	3.8	1.49e+00	0	39	104	0	70	15284
2026-01-16 08:38:54.70	117.14	7.39	-49.6	-61.7	3.8	1.49e+00	0	39	104	0	70	14800
2026-01-16 08:38:55.70	117.06	7.46	-49.6	-61.5	3.8	1.49e+00	0	39	104	0	70	14422
2026-01-16 08:38:56.70	116.98	7.53	-49.5	-61.4	3.8	1.49e+00	0	39	104	0	70	14220
2026-01-16 08:38:57.70	116.90	7.60	-49.5	-61.2	3.8	1.49e+00	0	39	104	0	70	13950
2026-01-16 08:38:58.70	116.83	7.67	-49.5	-60.6	3.9	1.49e+00	0	39	104	0	70	13054
2026-01-16 08:38:59.70	116.75	7.74	-49.2	-58.4	4.4	1.46e+00	0	39	104	0	70	10084
2026-01-16 08:39:00.70	116.67	7.81	-48.7	-55.9	5.7	5.09e-01	0	39	0	0	69	8036
2026-01-16 08:39:01.70	116.59	7.88	-47.7	-53.0	8.1	1.62e-01	0	39	0	0	67	6485
2026-01-16 08:39:02.70	116.51	7.95	-46.8	-51.0	10.2	1.28e-02	0	39	0	0	65	5734
2026-01-16 08:39:03.70	116.43	8.02	-45.6	-49.0	12.4	5.04e-04	0	39	0	0	63	5113
2026-01-16 08:39:04.70	116.34	8.09	-44.7	-47.6	13.8	1.29e-05	0	39	0	0	61	4896
2026-01-16 08:39:05.69	116.26	8.16	-43.8	-46.3	15.1	0.00e+00	0	39	0	0	59	4707
2026-01-16 08:39:06.70	116.18	8.24	-43.1	-45.4	15.9	0.00e+00	0	39	0	0	58	4539
2026-01-16 08:39:07.69	116.10	8.31	-42.5	-44.6	16.6	0.00e+00	0	39	0	0	57	4384
2026-01-16 08:39:08.69	116.02	8.38	-42.2	-44.3	17.0	0.00e+00	0	39	0	0	56	4456
2026-01-16 08:39:09.69	115.93	8.45	-41.8	-43.8	17.2	0.00e+00	0	39	0	0	55	4491
2026-01-16 08:39:10.69	115.85	8.52	-42.3	-44.4	16.7	0.00e+00	0	40	0	0	55	4805
2026-01-16 08:39:11.69	115.77	8.59	-42.6	-44.9	16.2	9.90e-06	0	39	0	0	55	5049
2026-01-16 08:39:12.69	115.68	8.66	-43.7	-46.2	15.1	0.00e+00	0	40	0	0	58	4948
2026-01-16 08:39:13.69	115.60	8.74	-44.5	-47.2	14.1	7.00e-07	0	40	0	0	59	5237
2026-01-16 08:39:14.69	115.51	8.81	-45.5	-48.7	12.6	2.51e-05	0	40	0	0	61	5552
2026-01-16 08:39:15.69	115.43	8.88	-46.7	-50.8	10.5	1.93e-03	0	40	0	0	63	6309
2026-01-16 08:39:16.69	115.34	8.95	-47.5	-52.6	8.5	3.09e-02	0	40	0	0	65	6924
2026-01-16 08:39:17.69	115.25	9.03	-48.4	-55.2	6.1	1.59e-01	0	39	0	0	67	8334
2026-01-16 08:39:18.68	115.17	9.10	-47.3	-52.2	9.0	2.89e-01	0	40	0	0	66	6206
2026-01-16 08:39:19.68	115.08	9.17	-45.2	-48.3	13.1	4.70e-03	0	39	0	0	62	5000
2026-01-16 08:39:20.68	114.99	9.24	-49.3	-59.5	3.9	9.31e-02	0	40	104	0	69	12234
2026-01-16 08:39:21.67	114.90	9.32	-47.0	-51.6	9.4	7.93e-01	0	39	0	0	66	5819
2026-01-16 08:39:22.67	114.81	9.39	-45.8	-49.3	12.2	6.25e-05	0	40	0	0	62	5615
2026-01-16 08:39:23.67	114.72	9.46	-45.1	-48.2	13.1	9.36e-03	0	40	0	0	62	4982
2026-01-16 08:39:24.67	114.63	9.54	-45.1	-48.3	13.2	2.59e-05	0	40	0	0	61	5281
2026-01-16 08:39:25.66	114.55	9.61	-44.8	-47.7	13.7	1.90e-05	0	39	0	0	61	4964
2026-01-16 08:39:26.66	114.45	9.68	-44.0	-46.6	14.8	7.00e-07	0	40	0	0	60	4651
2026-01-16 08:39:27.66	114.36	9.76	-43.1	-45.4	16.0	0.00e+00	0	39	0	0	58	4538
2026-01-16 08:39:28.65	114.27	9.83	-42.7	-44.9	16.4	0.00e+00	0	40	0	0	57	4544
2026-01-16 08:39:29.65	114.18	9.91	-42.3	-44.4	17.0	0.00e+00	0	40	0	0	56	4524
2026-01-16 08:39:30.65	114.09	9.98	-42.0	-44.0	17.3	0.00e+00	0	40	0	0	56	4326
2026-01-16 08:39:31.65	113.99	10.06	-41.5	-43.5	17.7	0.00e+00	0	40	0	0	55	4317
2026-01-16 08:39:32.65	113.90	10.13	-41.3	-43.3	17.9	0.00e+00	0	40	0	0	54	4456
2026-01-16 08:39:33.65	113.81	10.21	-41.3	-43.3	17.9	0.00e+00	0	40	0	0	54	4463
2026-01-16 08:39:34.65	113.71	10.28	-41.2	-43.1	18.0	0.00e+00	0	40	0	0	54	4375
2026-01-16 08:39:35.65	113.62	10.36	-41.1	-43.0	18.1	0.00e+00	0	40	0	0	54	4340
2026-01-16 08:39:36.64	113.52	10.43	-41.3	-43.2	17.9	0.00e+00	0	40	0	0	54	4441
2026-01-16 08:39:37.64	113.43	10.51	-41.1	-43.0	18.1	0.00e+00	0	40	0	0	54	4335
2026-01-16 08:39:38.64	113.33	10.58	-41.2	-43.2	18.0	0.00e+00	0	40	0	0	54	4404
2026-01-16 08:39:39.64	113.23	10.66	-41.2	-43.1	18.1	0.00e+00	0	40	0	0	54	4359
2026-01-16 08:39:40.63	113.14	10.73	-41.0	-42.9	18.2	0.00e+00	0	40	0	0	54	4283
2026-01-16 08:39:41.63	113.04	10.81	-40.9	-42.8	18.4	7.00e-07	0	40	0	0	53	4458
2026-01-16 08:39:42.63	112.94	10.89	-41.0	-42.9	18.3	0.00e+00	0	40	0	0	53	4497
2026-01-16 08:39:43.62	112.84	10.96	-41.0	-42.9	18.2	0.00e+00	0	40	0	0	53	4535
2026-01-16 08:39:44.62	112.74	11.04	-41.1	-43.0	18.1	0.00e+00	0	40	0	0	53	4582
2026-01-16 08:39:45.61	112.64	11.11	-41.0	-42.9	18.2	0.00e+00	0	40	0	0	53	4531
2026-01-16 08:39:46.61	112.54	11.19	-40.9	-42.8	18.4	0.00e+00	0	40	0	0	53	4454
2026-01-16 08:39:47.61	112.44	11.27	-40.8	-42.6	18.5	1.50e-06	0	40	0	0	53	4385
2026-01-16 08:39:48.61	112.34	11.35	-40.7	-42.6	18.6	0.00e+00	0	40	0	0	53	4355
2026-01-16 08:39:49.61	112.24	11.42	-40.8	-42.7	18.4	0.00e+00	0	40	0	0	53	4414
2026-01-16 08:39:50.60	112.13	11.50	-40.7	-42.6	18.5	7.00e-07	0	40	0	0	53	4367
2026-01-16 08:39:51.60	112.03	11.58	-40.6	-42.4	18.7	0.00e+00	0	40	0	0	53	4274
2026-01-16 08:39:52.60	111.93	11.66	-40.6	-42.4	18.7	0.00e+00	0	40	0	0	53	4276
2026-01-16 08:39:53.59	111.82	11.73	-40.5	-42.4	18.8	0.00e+00	0	40	0	0	53	4262
2026-01-16 08:39:54.59	111.72	11.81	-40.2	-42.0	19.1	0.00e+00	0	40	0	0	52	4308
2026-01-16 08:39:55.59	111.61	11.89	-40.3	-42.1	19.0	0.00e+00	0	40	0	0	52	4371
2026-01-16 08:39:56.59	111.50	11.97	-40.3	-42.1	19.1	0.00e+00	0	40	0	0	52	4350
2026-01-16 08:39:57.59	111.40	12.05	-40.4	-42.2	18.9	0.00e+00	0	40	0	0	52	4416
2026-01-16 08:39:58.58	111.29	12.13	-40.4	-42.2	18.9	0.00e+00	0	40	0	0	52	4437
2026-01-16 08:39:59.58	111.18	12.20	-40.4	-42.3	18.8	0.00e+00	0	40	0	0	52	4453
2026-01-16 08:40:00.58	111.07	12.28	-40.4	-42.2	19.0	0.00e+00	0	40	0	0	52	4395
2026-01-16 08:40:01.58	110.96	12.36	-40.5	-42.3	18.9	0.00e+00	0	40	0	0	52	4459
2026-01-16 08:40:02.57	110.86	12.44	-40.4	-42.3	18.9	7.00e-07	0	40	0	0	52	4453
2026-01-16 08:40:03.57	110.75	12.52	-40.6	-42.4	18.8	0.00e+00	0	40	0	0	52	4524
2026-01-16 08:40:04.57	110.63	12.60	-40.5	-42.3	18.9	0.00e+00	0	40	0	0	52	4472
2026-01-16 08:40:05.56	110.52	12.68	-40.6	-42.4	18.9	7.00e-07	0	40	0	0	52	4511
2026-01-16 08:40:06.56	110.41	12.76	-40.4	-42.2	19.1	0.00e+00	0	40	0	0	52	4402
2026-01-16 08:40:07.56	110.30	12.84	-40.4	-42.1	19.1	0.00e+00	0	40	0	0	52	4389
2026-01-16 08:40:08.56	110.18	12.92	-40.1	-41.9	19.4	0.00e+00	0	40	0	0	52	4244
2026-01-16 08:40:09.56	110.07	13.00	-40.1	-41.8	19.4	0.00e+00	0	40	0	0	52	4230
2026-01-16 08:40:10.56	109.96	13.08	-40.2	-42.0	19.2	0.00e+00	0	40	0	0	52	4292
2026-01-16 08:40:11.55	109.84	13.16	-40.1	-41.8	19.3	0.00e+00	0	40	0	0	52	4231
2026-01-16 08:40:12.55	109.72	13.24	-39.9	-41.7	19.6	0.00e+00	0	40	0	0	51	4400
2026-01-16 08:40:13.55	109.61	13.32	-40.0	-41.7	19.5	0.00e+00	0	40	0	0	51	4422
2026-01-16 08:40:14.55	109.49	13.41	-40.1	-41.8	19.4	0.00e+00	0	40	0	0	51	4483
2026-01-16 08:40:15.55	109.37	13.49	-40.1	-41.8	19.4	0.00e+00	0	40	0	0	51	4492
2026-01-16 08:40:16.55	109.25	13.57	-40.2	-41.9	19.3	0.00e+00	0	40	0	0	51	4536
2026-01-16 08:40:17.54	109.14	13.65	-40.2	-41.9	19.3	0.00e+00	0	40	0	0	51	4540
2026-01-16 08:40:18.55	109.01	13.73	-40.2	-41.9	19.3	0.00e+00	0	40	0	0	51	4536
2026-01-16 08:40:19.55	108.89	13.82	-40.1	-41.8	19.4	0.00e+00	0	40	0	0	51	4484
2026-01-16 08:40:20.55	108.77	13.90	-40.1	-41.9	19.4	0.00e+00	0	40	0	0	51	4519
2026-01-16 08:40:21.55	108.65	13.98	-40.2	-41.9	19.4	0.00e+00	0	40	0	0	51	4525
2026-01-16 08:40:22.55	108.53	14.06	-40.1	-41.9	19.4	0.00e+00	0	40	0	0	51	4513
2026-01-16 08:40:23.55	108.40	14.14	-40.1	-41.9	19.4	0.00e+00	0	40	0	0	51	4508
2026-01-16 08:40:24.54	108.28	14.23	-40.1	-41.9	19.4	0.00e+00	0	40	0	0	51	4508
2026-01-16 08:40:25.53	108.16	14.31	-40.2	-42.0	19.4	0.00e+00	0	40	0	0	51	4549
2026-01-16 08:40:26.52	108.03	14.39	-40.2	-42.0	19.3	0.00e+00	0	40	0	0	51	4568
2026-01-16 08:40:27.52	107.91	14.47	-40.2	-42.0	19.3	0.00e+00	0	40	0	0	51	4565
2026-01-16 08:40:28.51	107.78	14.56	-40.1	-41.9	19.4	0.00e+00	0	40	0	0	51	4510
2026-01-16 08:40:29.51	107.65	14.64	-40.1	-41.8	19.5	0.00e+00	0	40	0	0	51	4488
2026-01-16 08:40:30.50	107.52	14.72	-40.1	-41.9	19.4	0.00e+00	0	40	0	0	51	4500
2026-01-16 08:40:31.49	107.40	14.81	-40.2	-42.0	19.3	0.00e+00	0	40	0	0	51	4567
2026-01-16 08:40:32.48	107.27	14.89	-40.2	-42.0	19.3	0.00e+00	0	40	0	0	51	4551
2026-01-16 08:40:33.47	107.14	14.97	-40.3	-42.1	19.2	0.00e+00	0	40	0	0	51	4617
2026-01-16 08:40:34.47	107.01	15.06	-40.4	-42.1	19.2	0.00e+00	0	40	0	0	51	4649
2026-01-16 08:40:35.46	106.88	15.14	-40.3	-42.1	19.2	0.00e+00	0	40	0	0	51	4617
2026-01-16 08:40:36.46	106.74	15.23	-40.3	-42.1	19.2	0.00e+00	0	40	0	0	51	4629
2026-01-16 08:40:37.45	106.61	15.31	-40.3	-42.1	19.3	0.00e+00	0	40	0	0	51	4617
2026-01-16 08:40:38.44	106.48	15.39	-40.4	-42.1	19.2	7.00e-07	0	40	0	0	51	4644
2026-01-16 08:40:39.44	106.34	15.48	-40.4	-42.2	19.2	0.00e+00	0	40	0	0	51	4652
2026-01-16 08:40:40.44	106.21	15.56	-40.4	-42.1	19.2	0.00e+00	0	40	0	0	51	4647
2026-01-16 08:40:41.45	106.07	15.65	-40.4	-42.1	19.3	0.00e+00	0	40	0	0	51	4633
2026-01-16 08:40:42.44	105.93	15.73	-40.4	-42.2	19.2	0.00e+00	0	40	0	0	51	4667
2026-01-16 08:40:43.44	105.79	15.82	-40.4	-42.1	19.2	0.00e+00	0	40	0	0	51	4639
2026-01-16 08:40:44.44	105.65	15.90	-40.5	-42.3	19.1	0.00e+00	0	40	0	0	51	4711
2026-01-16 08:40:45.44	105.51	15.99	-40.3	-42.1	19.2	0.00e+00	0	40	0	0	51	4611
2026-01-16 08:40:46.44	105.37	16.08	-40.3	-42.0	19.3	0.00e+00	0	40	0	0	51	4572
2026-01-16 08:40:47.44	105.23	16.16	-40.3	-42.1	19.2	0.00e+00	0	40	0	0	51	4626
2026-01-16 08:40:48.44	105.09	16.25	-40.4	-42.2	19.1	0.00e+00	0	40	0	0	51	4688
2026-01-16 08:40:49.44	104.94	16.33	-40.4	-42.2	19.2	0.00e+00	0	40	0	0	51	4662
2026-01-16 08:40:50.44	104.80	16.42	-40.4	-42.2	19.1	0.00e+00	0	40	0	0	51	4671
2026-01-16 08:40:51.44	104.65	16.51	-40.4	-42.1	19.2	0.00e+00	0	40	0	0	51	4651
2026-01-16 08:40:52.44	104.51	16.59	-40.3	-42.0	19.3	0.00e+00	0	40	0	0	51	4594
2026-01-16 08:40:53.44	104.36	16.68	-40.4	-42.2	19.2	0.00e+00	0	40	0	0	51	4676
2026-01-16 08:40:54.44	104.21	16.77	-40.5	-42.2	19.1	0.00e+00	0	40	0	0	51	4699
2026-01-16 08:40:55.44	104.07	16.85	-40.4	-42.2	19.1	0.00e+00	0	40	0	0	51	4690
2026-01-16 08:40:56.44	103.92	16.94	-40.4	-42.2	19.1	0.00e+00	0	40	0	0	51	4685
2026-01-16 08:40:57.44	103.77	17.03	-40.4	-42.2	19.2	0.00e+00	0	40	0	0	51	4666
2026-01-16 08:40:58.44	103.62	17.11	-40.4	-42.2	19.2	0.00e+00	0	40	0	0	51	4653
2026-01-16 08:40:59.43	103.46	17.20	-40.4	-42.2	19.2	0.00e+00	0	40	0	0	51	4660
2026-01-16 08:41:00.44	103.31	17.29	-40.3	-42.1	19.3	0.00e+00	0	40	0	0	51	4616
2026-01-16 08:41:01.43	103.16	17.38	-40.3	-42.1	19.3	0.00e+00	0	40	0	0	51	4609
2026-01-16 08:41:02.44	103.00	17.46	-40.4	-42.1	19.2	0.00e+00	0	40	0	0	51	4636
2026-01-16 08:41:03.43	102.85	17.55	-40.4	-42.2	19.2	0.00e+00	0	40	0	0	51	4659
2026-01-16 08:41:04.43	102.69	17.64	-40.5	-42.3	19.1	0.00e+00	0	40	0	0	51	4723
2026-01-16 08:41:05.43	102.53	17.73	-40.5	-42.2	19.1	0.00e+00	0	40	0	0	51	4689
2026-01-16 08:41:06.43	102.38	17.82	-40.5	-42.2	19.1	0.00e+00	0	40	0	0	51	4699
2026-01-16 08:41:07.42	102.22	17.90	-40.5	-42.3	19.1	0.00e+00	0	40	0	0	51	4727
2026-01-16 08:41:08.42	102.06	17.99	-40.5	-42.2	19.1	0.00e+00	0	40	0	0	51	4704
2026-01-16 08:41:09.42	101.90	18.08	-40.5	-42.2	19.2	0.00e+00	0	40	0	0	51	4705
2026-01-16 08:41:10.41	101.74	18.17	-40.4	-42.1	19.2	0.00e+00	0	40	0	0	51	4640
2026-01-16 08:41:11.41	101.57	18.25	-40.3	-42.0	19.3	0.00e+00	0	40	0	0	51	4569
2026-01-16 08:41:12.41	101.41	18.34	-40.4	-42.1	19.2	0.00e+00	0	40	0	0	51	4624
2026-01-16 08:41:13.41	101.24	18.43	-40.2	-41.9	19.4	0.00e+00	0	40	0	0	51	4536
2026-01-16 08:41:14.40	101.08	18.52	-40.1	-41.9	19.4	0.00e+00	0	40	0	0	51	4497
2026-01-16 08:41:15.40	100.91	18.61	-40.3	-42.0	19.3	0.00e+00	0	40	0	0	51	4576
2026-01-16 08:41:16.39	100.75	18.70	-40.2	-42.0	19.4	0.00e+00	0	40	0	0	51	4564
2026-01-16 08:41:17.39	100.58	18.78	-40.2	-41.9	19.4	0.00e+00	0	40	0	0	51	4540
2026-01-16 08:41:18.39	100.41	18.87	-40.1	-41.8	19.5	0.00e+00	0	40	0	0	51	4493
2026-01-16 08:41:19.39	100.24	18.96	-40.1	-41.8	19.6	0.00e+00	0	40	0	0	51	4477
2026-01-16 08:41:20.38	100.07	19.05	-40.0	-41.7	19.7	0.00e+00	0	40	0	0	51	4421
2026-01-16 08:41:21.37	99.89	19.14	-39.9	-41.6	19.7	0.00e+00	0	40	0	0	51	4390
2026-01-16 08:41:22.37	99.72	19.23	-39.8	-41.5	19.8	0.00e+00	0	40	0	0	51	4328
2026-01-16 08:41:23.36	99.55	19.32	-40.0	-41.7	19.7	0.00e+00	0	40	0	0	51	4404
2026-01-16 08:41:24.35	99.37	19.40	-39.8	-41.5	19.8	0.00e+00	0	40	0	0	51	4301
2026-01-16 08:41:25.36	99.19	19.49	-39.8	-41.5	19.8	0.00e+00	0	40	0	0	51	4328
2026-01-16 08:41:26.34	99.02	19.58	-39.9	-41.6	19.7	0.00e+00	0	40	0	0	51	4361
2026-01-16 08:41:27.34	98.84	19.67	-40.0	-41.7	19.6	0.00e+00	0	40	0	0	51	4414
2026-01-16 08:41:28.34	98.66	19.76	-40.0	-41.7	19.6	0.00e+00	0	40	0	0	51	4441
2026-01-16 08:41:29.33	98.48	19.85	-40.0	-41.7	19.6	0.00e+00	0	40	0	0	51	4441
2026-01-16 08:41:30.33	98.30	19.94	-40.0	-41.7	19.7	0.00e+00	0	40	0	0	51	4414
2026-01-16 08:41:31.33	98.12	20.03	-40.0	-41.7	19.7	0.00e+00	0	40	0	0	51	4408
2026-01-16 08:41:32.33	97.93	20.12	-39.9	-41.6	19.7	0.00e+00	0	40	0	0	51	4360
2026-01-16 08:41:33.33	97.75	20.21	-39.9	-41.6	19.8	0.00e+00	0	40	0	0	51	4348
2026-01-16 08:41:34.33	97.56	20.30	-39.8	-41.6	19.8	0.00e+00	0	40	0	0	51	4342
2026-01-16 08:41:35.32	97.37	20.38	-39.7	-41.4	19.8	0.00e+00	0	40	0	0	51	4284
2026-01-16 08:41:36.32	97.18	20.47	-39.7	-41.4	19.9	0.00e+00	0	40	0	0	51	4270
2026-01-16 08:41:37.32	96.99	20.56	-39.8	-41.5	19.8	0.00e+00	0	40	0	0	51	4302
2026-01-16 08:41:38.32	96.80	20.65	-39.8	-41.5	19.8	0.00e+00	0	40	0	0	51	4307
2026-01-16 08:41:39.31	96.61	20.74	-39.7	-41.5	19.9	0.00e+00	0	40	0	0	51	4294
2026-01-16 08:41:40.31	96.42	20.83	-39.7	-41.4	20.0	0.00e+00	0	40	0	0	51	4243
2026-01-16 08:41:41.31	96.23	20.92	-39.6	-41.3	20.1	0.00e+00	0	40	0	0	51	4209
2026-01-16 08:41:42.31	96.03	21.01	-39.7	-41.4	20.0	0.00e+00	0	40	0	0	51	4273
2026-01-16 08:41:43.31	95.83	21.10	-39.6	-41.3	20.0	0.00e+00	0	40	0	0	51	4228
2026-01-16 08:41:44.30	95.64	21.18	-39.7	-41.4	20.0	0.00e+00	0	40	0	0	51	4252
2026-01-16 08:41:45.30	95.44	21.27	-39.8	-41.5	19.9	0.00e+00	0	40	0	0	51	4320
2026-01-16 08:41:46.30	95.24	21.36	-39.9	-41.6	19.8	0.00e+00	0	40	0	0	51	4383
2026-01-16 08:41:47.29	95.04	21.45	-39.7	-41.4	20.0	0.00e+00	0	40	0	0	51	4289
2026-01-16 08:41:48.29	94.84	21.54	-39.7	-41.5	19.9	0.00e+00	0	40	0	0	51	4292
2026-01-16 08:41:49.28	94.64	21.63	-39.6	-41.3	20.1	0.00e+00	0	40	0	0	51	4226
2026-01-16 08:41:50.27	94.43	21.71	-39.7	-41.4	20.0	0.00e+00	0	40	0	0	51	4247
2026-01-16 08:41:51.27	94.23	21.80	-39.5	-41.2	20.2	0.00e+00	0	40	0	0	51	4177
2026-01-16 08:41:52.27	94.02	21.89	-39.6	-41.3	20.1	0.00e+00	0	40	0	0	51	4195
2026-01-16 08:41:53.26	93.81	21.98	-39.5	-41.2	20.2	0.00e+00	0	40	0	0	51	4184
2026-01-16 08:41:54.26	93.60	22.07	-39.6	-41.3	20.1	0.00e+00	0	40	0	0	51	4195
2026-01-16 08:41:55.25	93.40	22.16	-39.7	-41.4	20.0	0.00e+00	0	40	0	0	51	4253
2026-01-16 08:41:56.24	93.19	22.24	-39.6	-41.3	20.1	0.00e+00	0	40	0	0	51	4201
2026-01-16 08:41:57.23	92.98	22.33	-39.6	-41.3	20.1	0.00e+00	0	40	0	0	51	4217
2026-01-16 08:41:58.22	92.76	22.42	-39.4	-41.1	20.3	0.00e+00	0	40	0	0	50	4361
2026-01-16 08:41:59.22	92.55	22.50	-39.5	-41.1	20.2	0.00e+00	0	40	0	0	50	4391
2026-01-16 08:42:00.22	92.33	22.59	-39.4	-41.1	20.3	0.00e+00	0	40	0	0	50	4347
2026-01-16 08:42:01.22	92.11	22.68	-39.3	-40.9	20.4	0.00e+00	0	40	0	0	50	4285
2026-01-16 08:42:02.21	91.90	22.77	-39.1	-40.8	20.5	0.00e+00	0	40	0	0	50	4195
2026-01-16 08:42:03.21	91.68	22.85	-39.2	-40.9	20.4	0.00e+00	0	40	0	0	50	4251
2026-01-16 08:42:04.20	91.46	22.94	-39.4	-41.0	20.2	0.00e+00	0	40	0	0	50	4335
2026-01-16 08:42:05.21	91.23	23.03	-39.4	-41.1	20.2	0.00e+00	0	40	0	0	50	4356
2026-01-16 08:42:06.20	91.01	23.11	-39.4	-41.1	20.2	0.00e+00	0	40	0	0	50	4352
2026-01-16 08:42:07.20	90.78	23.20	-39.4	-41.1	20.2	0.00e+00	0	40	0	0	50	4362
2026-01-16 08:42:08.19	90.56	23.28	-39.4	-41.1	20.2	0.00e+00	0	40	0	0	50	4360
2026-01-16 08:42:09.19	90.33	23.37	-39.5	-41.2	20.1	0.00e+00	0	40	0	0	50	4424
2026-01-16 08:42:10.19	90.10	23.46	-39.5	-41.2	20.1	0.00e+00	0	40	0	0	50	4430
2026-01-16 08:42:11.18	89.87	23.54	-39.5	-41.2	20.1	0.00e+00	0	40	0	0	50	4416
2026-01-16 08:42:12.18	89.64	23.63	-39.5	-41.2	20.1	0.00e+00	0	40	0	0	50	4411
2026-01-16 08:42:13.18	89.41	23.71	-39.6	-41.3	20.1	0.00e+00	0	40	0	0	50	4468
2026-01-16 08:42:14.18	89.18	23.80	-39.7	-41.4	19.9	0.00e+00	0	40	0	0	50	4534
2026-01-16 08:42:15.18	88.94	23.88	-39.8	-41.5	19.9	0.00e+00	0	40	0	0	50	4558
2026-01-16 08:42:16.17	88.71	23.96	-39.8	-41.5	19.9	0.00e+00	0	40	0	0	50	4558
2026-01-16 08:42:17.17	88.47	24.05	-39.9	-41.6	19.8	0.00e+00	0	40	0	0	50	4631
2026-01-16 08:42:18.17	88.23	24.13	-39.9	-41.6	19.8	0.00e+00	0	40	0	0	50	4638
2026-01-16 08:42:19.16	87.99	24.22	-39.9	-41.7	19.8	0.00e+00	0	40	0	0	50	4665
2026-01-16 08:42:20.16	87.75	24.30	-39.9	-41.6	19.8	0.00e+00	0	40	0	0	50	4617
2026-01-16 08:42:21.16	87.51	24.38	-39.9	-41.6	19.7	0.00e+00	0	40	0	0	50	4646
2026-01-16 08:42:22.15	87.26	24.46	-40.0	-41.7	19.6	0.00e+00	0	40	0	0	50	4695
2026-01-16 08:42:23.14	87.02	24.54	-40.0	-41.8	19.6	0.00e+00	0	40	0	0	50	4711
2026-01-16 08:42:24.14	86.77	24.63	-40.1	-41.9	19.7	0.00e+00	0	40	0	0	52	4258
2026-01-16 08:42:25.14	86.52	24.71	-40.0	-41.8	19.7	0.00e+00	0	40	0	0	51	4456
2026-01-16 08:42:26.14	86.28	24.79	-39.8	-41.5	19.9	0.00e+00	0	40	0	0	51	4312
2026-01-16 08:42:27.14	86.02	24.87	-39.7	-41.4	20.0	0.00e+00	0	40	0	0	51	4250
2026-01-16 08:42:28.13	85.77	24.95	-39.7	-41.4	19.9	0.00e+00	0	40	0	0	51	4266
2026-01-16 08:42:29.13	85.52	25.03	-39.8	-41.5	19.8	0.00e+00	0	40	0	0	51	4333
2026-01-16 08:42:30.13	85.27	25.11	-39.8	-41.5	19.8	0.00e+00	0	40	0	0	51	4308
2026-01-16 08:42:31.12	85.01	25.19	-39.9	-41.6	19.7	0.00e+00	0	40	0	0	51	4376
2026-01-16 08:42:32.12	84.76	25.27	-40.0	-41.7	19.6	0.00e+00	0	40	0	0	51	4433
2026-01-16 08:42:33.12	84.50	25.35	-39.8	-41.6	19.8	0.00e+00	0	40	0	0	51	4347
2026-01-16 08:42:34.12	84.24	25.43	-39.7	-41.5	19.9	0.00e+00	0	40	0	0	51	4297
2026-01-16 08:42:35.12	83.98	25.51	-39.7	-41.5	19.9	0.00e+00	0	40	0	0	51	4292
2026-01-16 08:42:36.12	83.71	25.58	-39.8	-41.6	19.8	0.00e+00	0	40	0	0	51	4365
2026-01-16 08:42:37.11	83.45	25.66	-39.9	-41.7	19.7	0.00e+00	0	40	0	0	51	4393
2026-01-16 08:42:38.11	83.19	25.74	-40.0	-41.8	19.6	0.00e+00	0	40	0	0	51	4455
2026-01-16 08:42:39.11	82.92	25.81	-40.1	-41.8	19.6	0.00e+00	0	40	0	0	51	4478
2026-01-16 08:42:40.11	82.65	25.89	-40.2	-41.9	19.5	0.00e+00	0	40	0	0	51	4533
2026-01-16 08:42:41.10	82.39	25.96	-40.0	-41.8	19.6	0.00e+00	0	40	0	0	51	4449
2026-01-16 08:42:42.10	82.12	26.04	-40.0	-41.7	19.7	0.00e+00	0	40	0	0	51	4421
2026-01-16 08:42:43.10	81.85	26.11	-40.0	-41.8	19.7	0.00e+00	0	40	0	0	51	4447
2026-01-16 08:42:44.10	81.57	26.19	-40.0	-41.7	19.7	0.00e+00	0	40	0	0	51	4427
2026-01-16 08:42:45.09	81.30	26.26	-40.0	-41.8	19.6	0.00e+00	0	40	0	0	51	4460
2026-01-16 08:42:46.09	81.03	26.33	-40.1	-41.9	19.6	0.00e+00	0	40	0	0	51	4496
2026-01-16 08:42:47.08	80.75	26.40	-40.1	-41.9	19.6	0.00e+00	0	40	0	0	51	4497
2026-01-16 08:42:48.08	80.48	26.47	-39.9	-41.6	19.8	0.00e+00	0	40	0	0	51	4371
2026-01-16 08:42:49.08	80.20	26.55	-39.8	-41.5	19.9	0.00e+00	0	40	0	0	51	4305
2026-01-16 08:42:50.07	79.92	26.62	-39.7	-41.4	20.0	0.00e+00	0	40	0	0	51	4281
2026-01-16 08:42:51.07	79.64	26.69	-39.8	-41.5	19.9	0.00e+00	0	40	0	0	51	4327
2026-01-16 08:42:52.07	79.35	26.75	-39.8	-41.5	19.8	0.00e+00	0	40	0	0	51	4311
2026-01-16 08:42:53.07	79.07	26.82	-39.8	-41.5	19.8	0.00e+00	0	40	0	0	51	4340
2026-01-16 08:42:54.06	78.79	26.89	-40.0	-41.7	19.7	0.00e+00	0	40	0	0	51	4426
2026-01-16 08:42:55.05	78.50	26.96	-39.9	-41.6	19.8	0.00e+00	0	40	0	0	51	4364
2026-01-16 08:42:56.04	78.22	27.02	-39.9	-41.6	19.8	0.00e+00	0	40	0	0	51	4379
2026-01-16 08:42:57.03	77.93	27.09	-39.8	-41.5	19.9	0.00e+00	0	40	0	0	51	4317
2026-01-16 08:42:58.02	77.65	27.16	-39.9	-41.5	19.8	0.00e+00	0	40	0	0	51	4337
2026-01-16 08:42:59.02	77.36	27.22	-39.7	-41.4	20.0	0.00e+00	0	40	0	0	51	4246
2026-01-16 08:43:00.01	77.07	27.28	-39.6	-41.3	20.0	0.00e+00	0	40	0	0	51	4227
2026-01-16 08:43:00.97	76.78	27.35	-39.6	-41.3	20.1	0.00e+00	0	41	0	0	51	4215
2026-01-16 08:43:01.97	76.49	27.41	-39.7	-41.3	20.0	0.00e+00	0	40	0	0	51	4241
2026-01-16 08:43:02.97	76.19	27.47	-39.7	-41.4	20.0	0.00e+00	0	40	0	0	51	4282
2026-01-16 08:43:03.96	75.90	27.53	-39.7	-41.4	20.1	0.00e+00	0	40	0	0	51	4244
2026-01-16 08:43:04.95	75.61	27.59	-39.6	-41.3	20.1	0.00e+00	0	40	0	0	51	4219
2026-01-16 08:43:05.95	75.31	27.65	-39.7	-41.3	20.1	0.00e+00	0	40	0	0	51	4240
2026-01-16 08:43:06.95	75.01	27.71	-39.7	-41.3	20.1	0.00e+00	0	40	0	0	51	4229
2026-01-16 08:43:07.94	74.71	27.77	-39.6	-41.3	20.1	0.00e+00	0	40	0	0	51	4221
2026-01-16 08:43:08.94	74.41	27.83	-39.6	-41.3	20.2	0.00e+00	0	40	0	0	51	4199
2026-01-16 08:43:09.94	74.10	27.89	-39.5	-41.2	20.2	0.00e+00	0	40	0	0	51	4177
2026-01-16 08:43:10.94	73.80	27.94	-39.5	-41.1	20.3	0.00e+00	0	40	0	0	50	4378
2026-01-16 08:43:11.93	73.49	28.00	-39.5	-41.1	20.3	0.00e+00	0	40	0	0	50	4387
2026-01-16 08:43:12.92	73.19	28.05	-39.5	-41.2	20.2	0.00e+00	0	40	0	0	50	4401
2026-01-16 08:43:13.92	72.88	28.10	-39.6	-41.3	20.1	0.00e+00	0	41	0	0	50	4463
2026-01-16 08:43:14.91	72.58	28.16	-39.7	-41.4	19.9	0.00e+00	0	40	0	0	50	4530
2026-01-16 08:43:15.91	72.27	28.21	-39.9	-41.7	19.7	0.00e+00	0	40	0	0	50	4653
2026-01-16 08:43:16.91	71.96	28.26	-40.0	-41.7	19.7	0.00e+00	0	40	0	0	50	4671
2026-01-16 08:43:17.90	71.65	28.31	-40.1	-41.8	19.7	0.00e+00	0	41	0	0	50	4719
2026-01-16 08:43:18.89	71.34	28.36	-40.0	-41.7	19.8	0.00e+00	0	40	0	0	50	4676
2026-01-16 08:43:19.89	71.02	28.41	-40.1	-41.8	19.7	0.00e+00	0	40	0	0	50	4721
2026-01-16 08:43:20.88	70.71	28.46	-40.1	-41.9	19.7	0.00e+00	0	40	0	0	50	4767
2026-01-16 08:43:21.88	70.40	28.51	-40.1	-41.8	19.7	0.00e+00	0	40	0	0	50	4731
2026-01-16 08:43:22.87	70.08	28.55	-40.0	-41.8	19.7	0.00e+00	0	40	0	0	50	4708
2026-01-16 08:43:23.86	69.77	28.60	-40.1	-41.8	19.7	0.00e+00	0	40	0	0	50	4725
2026-01-16 08:43:24.86	69.45	28.64	-40.1	-41.8	19.7	0.00e+00	0	40	0	0	50	4743
2026-01-16 08:43:25.85	69.13	28.68	-40.0	-41.7	19.8	0.00e+00	0	40	0	0	50	4658
2026-01-16 08:43:26.85	68.81	28.73	-39.9	-41.5	20.0	0.00e+00	0	40	0	0	50	4597
2026-01-16 08:43:27.84	68.50	28.77	-39.8	-41.4	20.0	0.00e+00	0	41	0	0	50	4535
2026-01-16 08:43:28.84	68.18	28.81	-39.9	-41.5	19.9	0.00e+00	0	40	0	0	50	4587
2026-01-16 08:43:29.83	67.86	28.85	-39.9	-41.5	19.9	0.00e+00	0	40	0	0	50	4598
2026-01-16 08:43:30.83	67.53	28.89	-39.9	-41.6	19.9	0.00e+00	0	40	0	0	50	4616
2026-01-16 08:43:31.83	67.21	28.93	-39.9	-41.6	19.9	0.00e+00	0	40	0	0	50	4617
2026-01-16 08:43:32.83	66.88	28.96	-39.8	-41.4	20.0	0.00e+00	0	40	0	0	50	4534
2026-01-16 08:43:33.82	66.56	29.00	-39.9	-41.6	19.9	0.00e+00	0	40	0	0	50	4610
2026-01-16 08:43:34.82	66.24	29.03	-40.0	-41.7	19.7	0.00e+00	0	40	0	0	50	4698
2026-01-16 08:43:35.81	65.91	29.07	-40.1	-41.9	19.6	0.00e+00	0	40	0	0	51	4508
2026-01-16 08:43:36.81	65.58	29.10	-40.2	-42.0	19.5	0.00e+00	0	40	0	0	51	4553
2026-01-16 08:43:37.80	65.26	29.13	-40.2	-41.9	19.6	0.00e+00	0	40	0	0	51	4515
2026-01-16 08:43:38.80	64.93	29.16	-40.3	-42.1	19.4	0.00e+00	0	40	0	0	51	4600
2026-01-16 08:43:39.80	64.60	29.19	-40.3	-42.1	19.5	0.00e+00	0	40	0	0	51	4602
2026-01-16 08:43:40.80	64.27	29.22	-40.0	-41.7	19.8	0.00e+00	0	40	0	0	51	4422
2026-01-16 08:43:41.79	63.94	29.25	-40.1	-41.8	19.7	0.00e+00	0	40	0	0	51	4444
2026-01-16 08:43:42.79	63.61	29.28	-40.0	-41.8	19.7	0.00e+00	0	40	0	0	51	4450
2026-01-16 08:43:43.78	63.28	29.30	-40.1	-41.9	19.6	0.00e+00	0	40	0	0	51	4499
2026-01-16 08:43:44.78	62.95	29.33	-40.1	-41.8	19.7	0.00e+00	0	40	0	0	51	4470
2026-01-16 08:43:45.78	62.62	29.35	-40.1	-41.8	19.7	0.00e+00	0	40	0	0	51	4486
2026-01-16 08:43:46.77	62.29	29.37	-40.0	-41.8	19.8	0.00e+00	0	40	0	0	51	4447
2026-01-16 08:43:47.76	61.96	29.40	-40.0	-41.7	19.8	0.00e+00	0	40	0	0	51	4408
2026-01-16 08:43:48.75	61.63	29.42	-39.9	-41.6	19.9	0.00e+00	0	40	0	0	51	4385
2026-01-16 08:43:49.75	61.29	29.44	-39.8	-41.5	20.0	0.00e+00	0	40	0	0	51	4310
2026-01-16 08:43:50.74	60.96	29.45	-39.7	-41.4	20.1	0.00e+00	0	40	0	0	51	4250
2026-01-16 08:43:51.73	60.63	29.47	-39.7	-41.4	20.0	0.00e+00	0	40	0	0	51	4252
2026-01-16 08:43:52.73	60.29	29.49	-39.6	-41.3	20.1	0.00e+00	0	40	0	0	51	4200
2026-01-16 08:43:53.72	59.96	29.50	-39.5	-41.2	20.2	0.00e+00	0	40	0	0	51	4159
2026-01-16 08:43:54.72	59.62	29.52	-39.6	-41.3	20.0	0.00e+00	0	40	0	0	51	4215
2026-01-16 08:43:55.72	59.29	29.53	-39.7	-41.4	19.9	0.00e+00	0	41	0	0	51	4264
2026-01-16 08:43:56.71	58.95	29.54	-39.8	-41.5	19.8	0.00e+00	0	40	0	0	51	4326
2026-01-16 08:43:57.71	58.62	29.55	-40.0	-41.7	19.7	0.00e+00	0	40	0	0	51	4399
2026-01-16 08:43:58.70	58.28	29.56	-40.0	-41.7	19.6	0.00e+00	0	41	0	0	51	4439
2026-01-16 08:43:59.69	57.95	29.57	-40.1	-41.8	19.6	0.00e+00	0	40	0	0	51	4487
2026-01-16 08:44:00.69	57.61	29.58	-40.0	-41.7	19.7	0.00e+00	0	40	0	0	51	4437
2026-01-16 08:44:01.68	57.28	29.58	-40.0	-41.7	19.7	0.00e+00	0	40	0	0	51	4426
2026-01-16 08:44:02.68	56.94	29.59	-40.0	-41.7	19.7	0.00e+00	0	40	0	0	51	4441
2026-01-16 08:44:03.67	56.60	29.59	-39.8	-41.5	19.9	0.00e+00	0	40	0	0	51	4296
2026-01-16 08:44:04.67	56.27	29.60	-39.7	-41.4	20.0	0.00e+00	0	41	0	0	51	4275
2026-01-16 08:44:05.67	55.93	29.60	-39.8	-41.5	19.9	0.00e+00	0	40	0	0	51	4326
2026-01-16 08:44:06.67	55.59	29.60	-39.9	-41.6	19.8	0.00e+00	0	40	0	0	51	4351
2026-01-16 08:44:07.66	55.25	29.60	-39.9	-41.6	19.8	0.00e+00	0	40	0	0	51	4374
2026-01-16 08:44:08.66	54.92	29.60	-39.9	-41.7	19.8	0.00e+00	0	40	0	0	51	4393
2026-01-16 08:44:09.65	54.58	29.60	-39.9	-41.6	19.9	0.00e+00	0	40	0	0	51	4353
2026-01-16 08:44:10.65	54.24	29.59	-40.0	-41.8	19.8	0.00e+00	0	40	0	0	51	4447
2026-01-16 08:44:11.65	53.91	29.59	-40.2	-42.0	19.5	0.00e+00	0	40	0	0	51	4553
2026-01-16 08:44:12.64	53.57	29.58	-40.4	-42.1	19.4	0.00e+00	0	40	0	0	51	4637
2026-01-16 08:44:13.64	53.23	29.57	-40.5	-42.3	19.2	0.00e+00	0	40	0	0	51	4751
2026-01-16 08:44:14.64	52.90	29.57	-40.5	-42.3	19.2	0.00e+00	0	40	0	0	51	4749
2026-01-16 08:44:15.63	52.56	29.56	-40.5	-42.2	19.4	0.00e+00	0	40	0	0	51	4697
2026-01-16 08:44:16.62	52.23	29.55	-40.3	-42.0	19.5	0.00e+00	0	40	0	0	51	4594
2026-01-16 08:44:17.62	51.89	29.54	-40.1	-41.8	19.7	0.00e+00	0	40	0	0	51	4462
2026-01-16 08:44:18.63	51.55	29.52	-40.0	-41.7	19.8	0.00e+00	0	41	0	0	51	4432
2026-01-16 08:44:19.63	51.22	29.51	-40.0	-41.7	19.8	0.00e+00	0	40	0	0	51	4436
2026-01-16 08:44:20.62	50.88	29.50	-40.0	-41.7	19.8	0.00e+00	0	41	0	0	51	4410
2026-01-16 08:44:21.62	50.55	29.48	-39.9	-41.6	19.9	0.00e+00	0	40	0	0	51	4383
2026-01-16 08:44:22.61	50.22	29.46	-40.0	-41.7	19.8	0.00e+00	0	40	0	0	51	4402
2026-01-16 08:44:23.60	49.88	29.45	-39.9	-41.6	19.8	0.00e+00	0	40	0	0	51	4384
2026-01-16 08:44:24.60	49.55	29.43	-39.9	-41.6	19.9	0.00e+00	0	40	0	0	51	4370
2026-01-16 08:44:25.59	49.22	29.41	-39.9	-41.6	19.9	0.00e+00	0	40	0	0	51	4353
2026-01-16 08:44:26.59	48.88	29.39	-39.8	-41.5	20.0	0.00e+00	0	40	0	0	51	4325
2026-01-16 08:44:27.58	48.55	29.36	-40.0	-41.7	19.8	0.00e+00	0	40	0	0	51	4425
2026-01-16 08:44:28.58	48.22	29.34	-40.1	-41.8	19.7	0.00e+00	0	40	0	0	51	4464
2026-01-16 08:44:29.57	47.89	29.32	-40.2	-41.9	19.6	0.00e+00	0	40	0	0	51	4540
2026-01-16 08:44:30.56	47.56	29.29	-40.2	-42.0	19.5	0.00e+00	0	40	0	0	51	4565
2026-01-16 08:44:31.56	47.23	29.27	-40.2	-41.9	19.5	0.00e+00	0	40	0	0	51	4528
2026-01-16 08:44:32.55	46.91	29.24	-40.0	-41.7	19.8	0.00e+00	0	40	0	0	51	4423
2026-01-16 08:44:33.54	46.58	29.21	-39.9	-41.6	19.9	0.00e+00	0	40	0	0	51	4369
2026-01-16 08:44:34.53	46.25	29.18	-39.8	-41.5	19.9	0.00e+00	0	40	0	0	51	4335
2026-01-16 08:44:35.53	45.92	29.15	-39.8	-41.5	20.0	0.00e+00	0	40	0	0	51	4324
2026-01-16 08:44:36.52	45.60	29.12	-39.8	-41.5	20.0	0.00e+00	0	40	0	0	51	4328
2026-01-16 08:44:37.53	45.27	29.09	-39.7	-41.4	20.1	0.00e+00	0	40	0	0	51	4255
2026-01-16 08:44:38.52	44.95	29.05	-39.8	-41.5	20.1	0.00e+00	0	40	0	0	51	4303
2026-01-16 08:44:39.52	44.62	29.02	-39.7	-41.4	20.1	0.00e+00	0	40	0	0	51	4262
2026-01-16 08:44:40.51	44.30	28.98	-39.7	-41.4	20.1	0.00e+00	0	40	0	0	51	4274
2026-01-16 08:44:41.51	43.97	28.95	-39.9	-41.6	19.9	0.00e+00	0	40	0	0	51	4354
2026-01-16 08:44:42.50	43.65	28.91	-40.1	-41.8	19.7	0.00e+00	0	40	0	0	51	4461
2026-01-16 08:44:43.50	43.33	28.87	-40.1	-41.9	19.6	0.00e+00	0	40	0	0	51	4507
2026-01-16 08:44:44.50	43.01	28.83	-40.2	-41.9	19.6	0.00e+00	0	40	0	0	51	4545
2026-01-16 08:44:45.49	42.69	28.79	-40.3	-42.0	19.5	0.00e+00	0	40	0	0	51	4597
2026-01-16 08:44:46.49	42.37	28.75	-40.3	-42.1	19.5	0.00e+00	0	40	0	0	51	4611
2026-01-16 08:44:47.48	42.05	28.71	-40.3	-42.0	19.6	0.00e+00	0	40	0	0	51	4576
2026-01-16 08:44:48.48	41.73	28.67	-40.2	-42.0	19.6	0.00e+00	0	40	0	0	51	4571
2026-01-16 08:44:49.47	41.42	28.62	-40.3	-42.1	19.5	0.00e+00	0	40	0	0	51	4620
2026-01-16 08:44:50.46	41.10	28.58	-40.3	-42.0	19.5	0.00e+00	0	40	0	0	51	4576
2026-01-16 08:44:51.46	40.79	28.53	-40.2	-41.9	19.6	0.00e+00	0	40	0	0	51	4530
2026-01-16 08:44:52.45	40.47	28.49	-40.1	-41.9	19.7	0.00e+00	0	40	0	0	51	4507
2026-01-16 08:44:53.45	40.16	28.44	-40.2	-41.9	19.7	0.00e+00	0	40	0	0	51	4527
2026-01-16 08:44:54.45	39.84	28.39	-40.2	-41.9	19.7	0.00e+00	0	40	0	0	51	4527
2026-01-16 08:44:55.45	39.53	28.34	-40.2	-41.9	19.6	0.00e+00	0	40	0	0	51	4534
2026-01-16 08:44:56.45	39.22	28.29	-40.1	-41.9	19.6	0.00e+00	0	40	0	0	51	4507
2026-01-16 08:44:57.45	38.91	28.24	-40.1	-41.9	19.5	0.00e+00	0	40	0	0	51	4514
2026-01-16 08:44:58.45	38.60	28.19	-40.2	-42.0	19.4	0.00e+00	0	40	0	0	51	4563
2026-01-16 08:44:59.44	38.29	28.14	-40.2	-41.9	19.5	0.00e+00	0	40	0	0	51	4515
2026-01-16 08:45:00.44	37.99	28.08	-40.0	-41.8	19.6	0.00e+00	0	40	0	0	51	4442
2026-01-16 08:45:01.43	37.68	28.03	-39.9	-41.6	19.7	0.00e+00	0	40	0	0	51	4388
2026-01-16 08:45:02.43	37.38	27.97	-39.9	-41.6	19.8	0.00e+00	0	40	0	0	51	4389
2026-01-16 08:45:03.43	37.07	27.92	-39.9	-41.6	19.8	0.00e+00	0	40	0	0	51	4390
2026-01-16 08:45:04.42	36.77	27.86	-40.0	-41.7	19.7	0.00e+00	0	40	0	0	51	4440
2026-01-16 08:45:05.42	36.47	27.80	-40.0	-41.7	19.7	0.00e+00	0	41	0	0	51	4409
2026-01-16 08:45:06.42	36.17	27.75	-40.1	-41.8	19.6	0.00e+00	0	40	0	0	51	4465
2026-01-16 08:45:07.42	35.87	27.69	-40.1	-41.8	19.6	0.00e+00	0	40	0	0	51	4465
2026-01-16 08:45:08.41	35.57	27.63	-39.8	-41.5	19.8	0.00e+00	0	40	0	0	51	4327
2026-01-16 08:45:09.41	35.28	27.57	-39.9	-41.6	19.8	0.00e+00	0	40	0	0	51	4352
2026-01-16 08:45:10.41	34.98	27.51	-39.8	-41.5	20.0	0.00e+00	0	40	0	0	51	4308
2026-01-16 08:45:11.40	34.69	27.45	-39.7	-41.4	20.1	0.00e+00	0	40	0	0	51	4252
2026-01-16 08:45:12.40	34.39	27.38	-39.7	-41.4	20.1	0.00e+00	0	40	0	0	51	4256
2026-01-16 08:45:13.39	34.10	27.32	-39.9	-41.6	19.9	0.00e+00	0	40	0	0	51	4362
2026-01-16 08:45:14.39	33.81	27.26	-40.1	-41.9	19.7	0.00e+00	0	40	0	0	51	4509
2026-01-16 08:45:15.38	33.52	27.19	-40.4	-42.1	19.5	0.00e+00	0	40	0	0	51	4642
2026-01-16 08:45:16.38	33.23	27.13	-40.6	-42.4	19.2	0.00e+00	0	40	0	0	51	4798
2026-01-16 08:45:17.38	32.94	27.06	-40.6	-42.5	19.0	0.00e+00	0	40	0	0	52	4562
2026-01-16 08:45:18.36	32.66	27.00	-40.5	-42.3	19.1	0.00e+00	0	40	0	0	52	4478
2026-01-16 08:45:19.36	32.38	26.93	-40.3	-42.1	19.3	0.00e+00	0	40	0	0	52	4353
2026-01-16 08:45:20.35	32.09	26.86	-40.2	-42.0	19.4	0.00e+00	0	40	0	0	52	4327
2026-01-16 08:45:21.34	31.81	26.80	-40.1	-41.8	19.6	0.00e+00	0	40	0	0	52	4219
2026-01-16 08:45:22.34	31.53	26.73	-39.9	-41.6	19.9	0.00e+00	0	40	0	0	51	4355
2026-01-16 08:45:23.33	31.25	26.66	-39.7	-41.4	20.1	0.00e+00	0	40	0	0	51	4271
2026-01-16 08:45:24.33	30.97	26.59	-39.7	-41.5	20.0	0.00e+00	0	40	0	0	51	4292
2026-01-16 08:45:25.33	30.69	26.52	-39.8	-41.6	19.9	0.00e+00	0	40	0	0	51	4343
2026-01-16 08:45:26.32	30.42	26.45	-39.7	-41.4	19.9	0.00e+00	0	40	0	0	51	4287
2026-01-16 08:45:27.32	30.14	26.37	-39.5	-41.3	20.0	0.00e+00	0	40	0	0	51	4197
2026-01-16 08:45:28.32	29.87	26.30	-39.5	-41.2	20.0	0.00e+00	0	40	0	0	51	4172
2026-01-16 08:45:29.31	29.60	26.23	-39.6	-41.3	20.0	0.00e+00	0	40	0	0	51	4212
2026-01-16 08:45:30.31	29.33	26.16	-39.7	-41.5	19.8	0.00e+00	0	40	0	0	51	4296
2026-01-16 08:45:31.30	29.06	26.08	-40.0	-41.7	19.6	0.00e+00	0	40	0	0	51	4415
2026-01-16 08:45:32.30	28.79	26.01	-40.2	-41.9	19.4	0.00e+00	0	40	0	0	51	4527
2026-01-16 08:45:33.29	28.52	25.94	-40.3	-42.1	19.2	0.00e+00	0	40	0	0	51	4619
2026-01-16 08:45:34.29	28.25	25.86	-40.2	-42.0	19.2	0.00e+00	0	40	0	0	51	4567
2026-01-16 08:45:35.29	27.99	25.78	-40.1	-41.8	19.4	0.00e+00	0	40	0	0	51	4453
2026-01-16 08:45:36.28	27.73	25.71	-39.8	-41.5	19.6	0.00e+00	0	40	0	0	51	4307
2026-01-16 08:45:37.28	27.46	25.63	-39.7	-41.4	19.8	0.00e+00	0	40	0	0	51	4262
2026-01-16 08:45:38.27	27.20	25.56	-39.7	-41.4	19.8	0.00e+00	0	40	0	0	51	4261
2026-01-16 08:45:39.27	26.94	25.48	-39.4	-41.1	20.1	0.00e+00	0	40	0	0	50	4358
2026-01-16 08:45:40.27	26.68	25.40	-39.3	-41.0	20.3	0.00e+00	0	40	0	0	50	4306
2026-01-16 08:45:41.26	26.43	25.32	-39.4	-41.1	20.3	0.00e+00	0	40	0	0	50	4365
2026-01-16 08:45:42.25	26.17	25.25	-39.7	-41.3	20.1	0.00e+00	0	40	0	0	50	4492
2026-01-16 08:45:43.25	25.92	25.17	-39.9	-41.6	19.9	0.00e+00	0	40	0	0	50	4619
2026-01-16 08:45:44.24	25.67	25.09	-40.0	-41.7	19.8	0.00e+00	0	40	0	0	50	4681
2026-01-16 08:45:45.24	25.41	25.01	-40.0	-41.7	19.8	0.00e+00	0	40	0	0	50	4698
2026-01-16 08:45:46.23	25.16	24.93	-40.0	-41.7	19.8	0.00e+00	0	40	0	0	50	4699
2026-01-16 08:45:47.23	24.91	24.85	-39.8	-41.5	20.0	0.00e+00	0	40	0	0	50	4562
2026-01-16 08:45:48.22	24.67	24.77	-39.8	-41.5	20.0	0.00e+00	0	40	0	0	50	4583
2026-01-16 08:45:49.22	24.42	24.69	-39.7	-41.4	20.0	0.00e+00	0	40	0	0	50	4544
2026-01-16 08:45:50.22	24.17	24.60	-39.8	-41.6	19.9	0.00e+00	0	40	0	0	50	4604
2026-01-16 08:45:51.21	23.93	24.52	-39.8	-41.6	19.9	0.00e+00	0	40	0	0	50	4616
2026-01-16 08:45:52.21	23.68	24.44	-39.9	-41.7	19.8	0.00e+00	0	40	0	0	50	4679
2026-01-16 08:45:53.20	23.44	24.36	-39.8	-41.6	19.8	0.00e+00	0	40	0	0	50	4631
2026-01-16 08:45:54.18	23.21	24.28	-39.9	-41.7	19.8	0.00e+00	0	40	0	0	50	4668
2026-01-16 08:45:55.18	22.97	24.20	-39.7	-41.4	20.0	0.00e+00	0	40	0	0	50	4542
2026-01-16 08:45:56.18	22.73	24.11	-39.7	-41.4	20.1	0.00e+00	0	40	0	0	50	4506
2026-01-16 08:45:57.17	22.49	24.03	-39.6	-41.4	20.2	0.00e+00	0	40	0	0	50	4499
2026-01-16 08:45:58.16	22.26	23.95	-39.5	-41.2	20.3	0.00e+00	0	40	0	0	50	4433
2026-01-16 08:45:59.16	22.02	23.86	-39.5	-41.2	20.3	0.00e+00	0	40	0	0	50	4441
2026-01-16 08:46:00.15	21.79	23.78	-39.7	-41.4	20.1	0.00e+00	0	40	0	0	50	4519
2026-01-16 08:46:01.15	21.56	23.69	-40.0	-41.7	19.9	0.00e+00	0	40	0	0	50	4684
2026-01-16 08:46:02.15	21.33	23.61	-40.2	-41.9	19.7	0.00e+00	0	40	0	0	50	4804
2026-01-16 08:46:03.14	21.10	23.52	-40.3	-42.1	19.5	0.00e+00	0	40	0	0	51	4627
2026-01-16 08:46:04.14	20.87	23.44	-40.4	-42.1	19.4	0.00e+00	0	40	0	0	51	4646
2026-01-16 08:46:05.14	20.65	23.35	-40.3	-42.1	19.3	0.00e+00	0	40	0	0	51	4616
2026-01-16 08:46:06.13	20.42	23.27	-40.4	-42.1	19.3	0.00e+00	0	40	0	0	51	4646
2026-01-16 08:46:07.13	20.20	23.18	-40.3	-42.0	19.3	0.00e+00	0	40	0	0	51	4589
2026-01-16 08:46:08.12	19.97	23.10	-40.1	-41.8	19.6	0.00e+00	0	40	0	0	51	4473
2026-01-16 08:46:09.12	19.75	23.01	-39.7	-41.4	19.9	0.00e+00	0	40	0	0	51	4281
2026-01-16 08:46:10.12	19.53	22.92	-39.7	-41.4	20.0	0.00e+00	0	40	0	0	51	4267
2026-01-16 08:46:11.11	19.31	22.84	-39.7	-41.4	20.1	0.00e+00	0	40	0	0	51	4280
2026-01-16 08:46:12.11	19.09	22.75	-39.7	-41.4	20.1	0.00e+00	0	40	0	0	51	4268
2026-01-16 08:46:13.10	18.88	22.67	-39.8	-41.5	20.1	0.00e+00	0	40	0	0	51	4300
2026-01-16 08:46:14.09	18.66	22.58	-39.7	-41.4	20.1	0.00e+00	0	40	0	0	51	4267
2026-01-16 08:46:15.09	18.45	22.49	-39.8	-41.5	20.0	0.00e+00	0	40	0	0	51	4327
2026-01-16 08:46:16.09	18.24	22.41	-39.7	-41.4	20.1	0.00e+00	0	40	0	0	51	4272
2026-01-16 08:46:17.08	18.03	22.32	-39.6	-41.4	20.1	0.00e+00	0	40	0	0	51	4250
2026-01-16 08:46:18.08	17.81	22.23	-39.8	-41.5	20.0	0.00e+00	0	40	0	0	51	4331
2026-01-16 08:46:19.07	17.61	22.14	-39.8	-41.5	19.7	0.00e+00	0	40	0	0	51	4327
2026-01-16 08:46:20.06	17.40	22.06	-39.9	-41.6	19.9	0.00e+00	0	40	0	0	51	4387
2026-01-16 08:46:21.06	17.19	21.97	-39.9	-41.7	19.9	0.00e+00	0	40	0	0	51	4402
2026-01-16 08:46:22.06	16.98	21.88	-39.9	-41.6	19.9	0.00e+00	0	40	0	0	51	4374
2026-01-16 08:46:23.06	16.78	21.79	-39.9	-41.6	19.8	0.00e+00	0	40	0	0	51	4385
2026-01-16 08:46:24.05	16.58	21.71	-39.9	-41.6	19.8	0.00e+00	0	40	0	0	51	4385
2026-01-16 08:46:25.05	16.37	21.62	-39.9	-41.6	19.8	0.00e+00	0	40	0	0	51	4373
2026-01-16 08:46:26.04	16.17	21.53	-40.0	-41.7	19.7	0.00e+00	0	40	0	0	51	4437
2026-01-16 08:46:27.04	15.97	21.44	-39.9	-41.6	19.8	0.00e+00	0	40	0	0	51	4361
2026-01-16 08:46:28.04	15.77	21.35	-39.9	-41.6	19.8	0.00e+00	0	40	0	0	51	4373
2026-01-16 08:46:29.04	15.57	21.26	-39.9	-41.6	19.8	0.00e+00	0	40	0	0	51	4387
2026-01-16 08:46:30.03	15.38	21.18	-39.7	-41.6	19.8	0.00e+00	0	40	0	0	51	4344
2026-01-16 08:46:31.03	15.18	21.09	-39.5	-41.7	19.5	0.00e+00	0	40	0	0	50	4679
2026-01-16 08:46:32.04	14.99	21.00	-39.1	-41.7	19.3	0.00e+00	0	40	0	0	50	4671
2026-01-16 08:46:33.03	14.79	20.91	-39.0	-41.7	19.2	0.00e+00	0	40	0	0	49	4957
2026-01-16 08:46:34.03	14.60	20.82	-39.1	-41.8	19.1	0.00e+00	0	40	0	0	49	5030
2026-01-16 08:46:35.02	14.41	20.73	-39.7	-41.8	19.4	0.00e+00	0	40	0	0	50	4758
2026-01-16 08:46:36.01	14.22	20.65	-40.2	-42.0	19.5	0.00e+00	0	40	0	0	50	4831
2026-01-16 08:46:37.01	14.03	20.56	-40.2	-41.9	19.6	0.00e+00	0	40	0	0	51	4535
2026-01-16 08:46:38.01	13.84	20.47	-40.2	-42.0	19.5	0.00e+00	0	40	0	0	51	4553
2026-01-16 08:46:39.00	13.66	20.38	-40.3	-42.0	19.5	0.00e+00	0	40	0	0	51	4579
2026-01-16 08:46:40.00	13.47	20.29	-40.3	-42.1	19.4	0.00e+00	0	40	0	0	51	4605
2026-01-16 08:46:41.01	13.29	20.20	-40.2	-42.0	19.5	0.00e+00	0	40	0	0	51	4548
2026-01-16 08:46:42.00	13.10	20.11	-40.2	-41.9	19.5	0.00e+00	0	40	0	0	51	4537
2026-01-16 08:46:43.00	12.92	20.03	-40.1	-41.8	19.6	0.00e+00	0	40	0	0	51	4487
2026-01-16 08:46:44.00	12.74	19.94	-40.0	-41.8	19.6	0.00e+00	0	40	0	0	51	4471
2026-01-16 08:46:45.00	12.56	19.85	-39.9	-41.7	19.7	0.00e+00	0	40	0	0	51	4404
2026-01-16 08:46:46.00	12.38	19.76	-39.9	-41.7	19.7	0.00e+00	0	40	0	0	51	4422
2026-01-16 08:46:46.99	12.20	19.67	-39.8	-41.6	19.8	0.00e+00	0	40	0	0	51	4371
2026-01-16 08:46:47.98	12.03	19.58	-39.5	-41.3	20.1	0.00e+00	0	40	0	0	51	4206
2026-01-16 08:46:48.98	11.85	19.49	-39.4	-41.1	20.3	0.00e+00	0	40	0	0	50	4363
2026-01-16 08:46:49.98	11.67	19.41	-39.5	-41.2	20.2	0.00e+00	0	40	0	0	50	4426
2026-01-16 08:46:50.97	11.50	19.32	-39.6	-41.3	20.1	0.00e+00	0	40	0	0	50	4478
2026-01-16 08:46:51.97	11.33	19.23	-39.7	-41.5	20.0	0.00e+00	0	40	0	0	50	4575
2026-01-16 08:46:52.97	11.16	19.14	-39.9	-41.7	19.8	0.00e+00	0	40	0	0	50	4658
2026-01-16 08:46:53.96	10.99	19.05	-40.0	-41.8	19.7	0.00e+00	0	40	0	0	50	4721
2026-01-16 08:46:54.95	10.82	18.96	-40.1	-41.9	19.6	0.00e+00	0	40	0	0	50	4800
2026-01-16 08:46:55.95	10.65	18.88	-40.1	-42.0	19.5	0.00e+00	0	40	0	0	50	4819
2026-01-16 08:46:56.94	10.48	18.79	-40.2	-42.1	19.4	0.00e+00	0	40	0	0	51	4607
2026-01-16 08:46:57.94	10.31	18.70	-40.0	-41.9	19.6	0.00e+00	0	40	0	0	51	4495
2026-01-16 08:46:58.94	10.15	18.61	-40.0	-41.8	19.5	0.00e+00	0	40	0	0	51	4486
2026-01-16 08:46:59.93	9.98	18.52	-40.0	-41.8	19.6	0.00e+00	0	40	0	0	51	4468
2026-01-16 08:47:00.93	9.82	18.44	-40.0	-41.8	19.5	0.00e+00	0	40	0	0	51	4485
2026-01-16 08:47:01.92	9.66	18.35	-40.2	-42.0	19.4	0.00e+00	0	40	0	0	51	4577
2026-01-16 08:47:02.92	9.49	18.26	-40.2	-42.0	19.4	0.00e+00	0	40	0	0	51	4583
2026-01-16 08:47:03.92	9.33	18.17	-40.3	-42.1	19.3	0.00e+00	0	40	0	0	51	4636
2026-01-16 08:47:04.92	9.17	18.09	-40.4	-42.2	19.3	0.00e+00	0	40	0	0	51	4697
2026-01-16 08:47:05.91	9.01	18.00	-40.4	-42.3	19.2	0.00e+00	0	40	0	0	51	4745
2026-01-16 08:47:06.90	8.86	17.91	-40.4	-42.4	19.2	0.00e+00	0	40	0	0	51	4762
2026-01-16 08:47:07.90	8.70	17.82	-40.4	-42.4	19.1	0.00e+00	0	40	0	0	51	4776
2026-01-16 08:47:08.89	8.54	17.74	-40.5	-42.5	19.0	0.00e+00	0	40	0	0	51	4836
2026-01-16 08:47:09.89	8.39	17.65	-40.6	-42.5	18.9	0.00e+00	0	40	0	0	51	4870
2026-01-16 08:47:10.89	8.23	17.56	-40.5	-42.4	19.1	0.00e+00	0	40	0	0	51	4762
2026-01-16 08:47:11.88	8.08	17.48	-40.4	-42.2	19.2	0.00e+00	0	40	0	0	51	4687
2026-01-16 08:47:12.88	7.93	17.39	-40.4	-42.2	19.2	0.00e+00	0	40	0	0	51	4701
2026-01-16 08:47:13.87	7.78	17.30	-40.3	-42.1	19.3	0.00e+00	0	40	0	0	51	4647
2026-01-16 08:47:14.87	7.62	17.22	-40.2	-42.0	19.5	0.00e+00	0	40	0	0	51	4563
2026-01-16 08:47:15.86	7.47	17.13	-40.2	-42.1	19.4	0.00e+00	0	40	0	0	51	4602
2026-01-16 08:47:16.86	7.32	17.04	-40.2	-42.0	19.4	0.00e+00	0	40	0	0	51	4595
2026-01-16 08:47:17.86	7.18	16.96	-40.2	-42.1	19.5	0.00e+00	0	40	0	0	51	4600
2026-01-16 08:47:18.86	7.03	16.87	-40.3	-42.2	19.3	0.00e+00	0	40	0	0	51	4683
2026-01-16 08:47:19.86	6.88	16.78	-40.3	-42.2	19.3	0.00e+00	0	40	0	0	51	4693
2026-01-16 08:47:20.86	6.73	16.70	-40.4	-42.3	19.2	0.00e+00	0	40	0	0	51	4756
2026-01-16 08:47:21.85	6.59	16.61	-40.6	-42.5	19.0	0.00e+00	0	40	0	0	51	4861
2026-01-16 08:47:22.85	6.45	16.53	-40.6	-42.6	18.9	0.00e+00	0	40	0	0	52	4606
2026-01-16 08:47:23.85	6.30	16.44	-40.7	-42.7	18.7	0.00e+00	0	40	0	0	52	4668
2026-01-16 08:47:24.84	6.16	16.35	-40.6	-42.6	18.8	0.00e+00	0	40	0	0	52	4599
2026-01-16 08:47:25.84	6.02	16.27	-40.7	-42.6	18.7	0.00e+00	0	40	0	0	52	4645
2026-01-16 08:47:26.84	5.88	16.18	-40.6	-42.5	18.8	0.00e+00	0	40	0	0	52	4563
2026-01-16 08:47:27.83	5.74	16.10	-40.4	-42.3	18.9	0.00e+00	0	40	0	0	52	4486
2026-01-16 08:47:28.83	5.60	16.01	-40.4	-42.3	19.0	0.00e+00	0	40	0	0	52	4477
2026-01-16 08:47:29.83	5.46	15.93	-40.4	-42.3	19.0	0.00e+00	0	40	0	0	52	4471
2026-01-16 08:47:30.82	5.32	15.84	-40.3	-42.2	19.1	0.00e+00	0	40	0	0	52	4409
2026-01-16 08:47:31.82	5.19	15.76	-40.4	-42.3	19.1	0.00e+00	0	40	0	0	52	4472
2026-01-16 08:47:32.82	5.05	15.67	-40.3	-42.2	19.2	0.00e+00	0	40	0	0	52	4398
2026-01-16 08:47:33.82	4.91	15.59	-40.2	-42.0	19.3	0.00e+00	0	40	0	0	52	4335
2026-01-16 08:47:34.79	4.78	15.51	-40.3	-42.1	19.3	0.00e+00	0	40	0	0	52	4368
2026-01-16 08:47:35.79	4.65	15.42	-40.4	-42.3	19.1	0.00e+00	0	40	0	0	52	4464
2026-01-16 08:47:36.78	4.52	15.34	-40.5	-42.4	19.1	0.00e+00	0	40	0	0	52	4517
2026-01-16 08:47:37.78	4.39	15.26	-40.6	-42.5	19.0	0.00e+00	0	40	0	0	52	4582
2026-01-16 08:47:38.78	4.25	15.17	-40.7	-42.6	18.9	0.00e+00	0	40	0	0	52	4637
2026-01-16 08:47:39.78	4.12	15.09	-40.7	-42.7	18.8	0.00e+00	0	40	0	0	52	4659
2026-01-16 08:47:40.77	3.99	15.00	-40.8	-42.7	18.7	0.00e+00	0	40	0	0	52	4697
2026-01-16 08:47:41.77	3.86	14.92	-40.8	-42.8	18.7	0.00e+00	0	40	0	0	52	4709
2026-01-16 08:47:42.77	3.74	14.84	-40.9	-42.9	18.6	0.00e+00	0	40	0	0	52	4768
2026-01-16 08:47:43.76	3.61	14.75	-40.7	-42.6	18.8	0.00e+00	0	40	0	0	52	4603
2026-01-16 08:47:44.76	3.48	14.67	-40.6	-42.5	18.9	0.00e+00	0	40	0	0	52	4553
2026-01-16 08:47:45.76	3.35	14.59	-40.7	-42.6	18.8	0.00e+00	0	40	0	0	52	4609
2026-01-16 08:47:46.76	3.23	14.50	-40.4	-42.3	19.0	0.00e+00	0	40	0	0	52	4488
2026-01-16 08:47:47.76	3.10	14.42	-40.2	-42.1	19.1	0.00e+00	0	40	0	0	52	4390
2026-01-16 08:47:48.76	2.98	14.34	-40.2	-42.1	19.2	0.00e+00	0	40	0	0	52	4368
2026-01-16 08:47:49.76	2.86	14.26	-40.4	-42.3	19.1	0.00e+00	0	40	0	0	52	4461
2026-01-16 08:47:50.75	2.73	14.18	-40.3	-42.1	19.2	0.00e+00	0	40	0	0	52	4391
2026-01-16 08:47:51.75	2.61	14.09	-40.4	-42.2	19.2	0.00e+00	0	40	0	0	52	4440
2026-01-16 08:47:52.74	2.49	14.01	-40.4	-42.2	19.2	0.00e+00	0	40	0	0	52	4437
2026-01-16 08:47:53.74	2.37	13.93	-40.4	-42.3	19.2	0.00e+00	0	40	0	0	52	4445
2026-01-16 08:47:54.73	2.25	13.85	-40.5	-42.4	19.1	0.00e+00	0	40	0	0	52	4496
2026-01-16 08:47:55.72	2.13	13.77	-40.7	-42.5	19.0	0.00e+00	0	40	0	0	52	4574
2026-01-16 08:47:56.72	2.01	13.69	-40.8	-42.6	18.9	0.00e+00	0	40	0	0	52	4645
2026-01-16 08:47:57.71	1.90	13.61	-40.9	-42.8	18.7	0.00e+00	0	40	0	0	52	4719
2026-01-16 08:47:58.70	1.78	13.53	-41.0	-42.9	18.6	0.00e+00	0	40	0	0	52	4800
2026-01-16 08:47:59.70	1.66	13.44	-41.1	-43.1	18.4	0.00e+00	0	40	0	0	52	4888
2026-01-16 08:48:00.69	1.55	13.36	-41.1	-43.1	18.4	0.00e+00	0	40	0	0	52	4879
2026-01-16 08:48:01.69	1.43	13.28	-41.1	-43.1	18.3	0.00e+00	0	40	0	0	52	4926
2026-01-16 08:48:02.68	1.32	13.20	-41.0	-43.0	18.4	0.00e+00	0	40	0	0	52	4860
2026-01-16 08:48:03.68	1.21	13.12	-41.1	-43.1	18.4	0.00e+00	0	40	0	0	52	4874
2026-01-16 08:48:04.67	1.09	13.04	-41.0	-43.0	18.5	0.00e+00	0	40	0	0	52	4821
2026-01-16 08:48:05.66	0.98	12.96	-41.0	-43.0	18.4	0.00e+00	0	40	0	0	52	4851
2026-01-16 08:48:06.66	0.87	12.88	-41.0	-43.0	18.4	0.00e+00	0	40	0	0	52	4837
2026-01-16 08:48:07.65	0.76	12.81	-41.1	-43.0	18.4	0.00e+00	0	40	0	0	52	4862
2026-01-16 08:48:08.65	0.65	12.73	-41.0	-43.0	18.5	0.00e+00	0	40	0	0	52	4834
2026-01-16 08:48:09.64	0.54	12.65	-41.0	-43.0	18.5	0.00e+00	0	40	0	0	52	4829
2026-01-16 08:48:10.63	0.43	12.57	-40.9	-42.9	18.6	0.00e+00	0	40	0	0	52	4783
2026-01-16 08:48:11.62	0.32	12.49	-40.9	-42.9	18.6	0.00e+00	0	40	0	0	52	4811
2026-01-16 08:48:12.62	0.21	12.41	-40.8	-42.9	18.6	0.00e+00	0	40	0	0	52	4778
2026-01-16 08:48:13.61	0.10	12.33	-40.8	-42.9	18.6	0.00e+00	0	40	0	0	52	4802
2026-01-16 08:48:14.61	360.00	12.25	-41.0	-43.1	18.4	0.00e+00	0	40	0	0	52	4897
2026-01-16 08:48:15.60	359.89	12.18	-41.0	-43.1	18.4	0.00e+00	0	40	0	0	52	4909
2026-01-16 08:48:16.59	359.79	12.10	-41.3	-43.4	18.2	0.00e+00	0	40	0	0	53	4770
2026-01-16 08:48:17.59	359.68	12.02	-41.3	-43.4	18.1	0.00e+00	0	40	0	0	53	4810
2026-01-16 08:48:18.58	359.58	11.94	-41.4	-43.5	18.0	0.00e+00	0	40	0	0	53	4862
2026-01-16 08:48:19.57	359.47	11.86	-41.5	-43.6	17.9	0.00e+00	0	40	0	0	53	4911
2026-01-16 08:48:20.57	359.37	11.79	-41.7	-43.7	17.8	0.00e+00	0	40	0	0	53	4980
2026-01-16 08:48:21.56	359.27	11.71	-41.8	-43.9	17.6	0.00e+00	0	40	0	0	54	4772
2026-01-16 08:48:22.55	359.16	11.63	-41.8	-44.0	17.6	0.00e+00	0	40	0	0	54	4820
2026-01-16 08:48:23.54	359.06	11.56	-41.9	-44.1	17.4	0.00e+00	0	40	0	0	54	4874
2026-01-16 08:48:24.54	358.96	11.48	-41.9	-44.2	17.3	0.00e+00	0	40	0	0	54	4952
2026-01-16 08:48:25.53	358.86	11.40	-41.8	-44.1	17.4	0.00e+00	0	40	0	0	54	4890
2026-01-16 08:48:26.52	358.76	11.33	-41.8	-44.1	17.4	0.00e+00	0	40	0	0	54	4907
2026-01-16 08:48:27.51	358.66	11.25	-41.8	-44.1	17.4	0.00e+00	0	40	0	0	54	4874
2026-01-16 08:48:28.51	358.56	11.17	-41.7	-44.0	17.5	0.00e+00	0	40	0	0	54	4842
2026-01-16 08:48:29.51	358.46	11.10	-41.7	-44.0	17.5	0.00e+00	0	40	0	0	54	4822
2026-01-16 08:48:30.50	358.36	11.02	-41.7	-43.9	17.6	0.00e+00	0	40	0	0	54	4768
2026-01-16 08:48:31.49	358.27	10.95	-41.5	-43.7	17.7	0.00e+00	0	40	0	0	54	4675
2026-01-16 08:48:32.49	358.17	10.87	-41.4	-43.6	17.8	0.00e+00	0	40	0	0	54	4614
2026-01-16 08:48:33.49	358.07	10.79	-41.5	-43.6	17.8	0.00e+00	0	40	0	0	54	4642
2026-01-16 08:48:34.49	357.98	10.72	-41.5	-43.6	17.9	0.00e+00	0	40	0	0	54	4611
2026-01-16 08:48:35.48	357.88	10.64	-41.5	-43.5	17.9	0.00e+00	0	40	0	0	54	4589
2026-01-16 08:48:36.47	357.79	10.57	-41.6	-43.6	17.8	0.00e+00	0	40	0	0	54	4629
2026-01-16 08:48:37.47	357.69	10.49	-41.5	-43.5	17.9	0.00e+00	0	40	0	0	54	4584
2026-01-16 08:48:38.47	357.60	10.42	-41.5	-43.5	17.9	0.00e+00	0	40	0	0	54	4597
2026-01-16 08:48:39.47	357.50	10.34	-41.6	-43.7	17.8	0.00e+00	0	40	0	0	54	4654
2026-01-16 08:48:40.46	357.41	10.27	-41.7	-43.8	17.7	0.00e+00	0	40	0	0	54	4724
2026-01-16 08:48:41.46	357.32	10.19	-41.7	-43.9	17.6	0.00e+00	0	40	0	0	54	4811
2026-01-16 08:48:42.46	357.23	10.12	-41.7	-44.1	17.4	0.00e+00	0	40	0	0	54	4874
2026-01-16 08:48:43.46	357.13	10.05	-41.7	-44.0	17.5	0.00e+00	0	40	0	0	54	4852
2026-01-16 08:48:44.45	357.04	9.97	-41.8	-44.3	17.3	0.00e+00	0	40	0	0	54	4987
2026-01-16 08:48:45.45	356.95	9.90	-41.9	-44.4	17.1	0.00e+00	0	40	0	0	54	5093
2026-01-16 08:48:46.44	356.86	9.82	-41.8	-44.5	17.0	0.00e+00	0	40	0	0	54	5136
2026-01-16 08:48:47.43	356.77	9.75	-41.7	-44.6	16.9	0.00e+00	0	40	0	0	54	5187
2026-01-16 08:48:48.43	356.68	9.68	-41.6	-44.5	17.0	0.00e+00	0	40	0	0	54	5116
2026-01-16 08:48:49.42	356.60	9.60	-41.7	-44.6	16.9	0.00e+00	0	40	0	0	54	5184
2026-01-16 08:48:50.41	356.51	9.53	-41.6	-44.6	16.8	0.00e+00	0	40	0	0	54	5214
2026-01-16 08:48:51.41	356.42	9.46	-41.4	-44.6	16.9	0.00e+00	0	40	0	0	54	5174
2026-01-16 08:48:52.40	356.33	9.39	-41.0	-44.5	16.9	0.00e+00	0	40	0	0	54	5142
2026-01-16 08:48:53.39	356.25	9.31	-40.9	-44.5	16.9	0.00e+00	0	40	0	0	53	5435
2026-01-16 08:48:54.39	356.16	9.24	-40.8	-44.3	17.1	0.00e+00	0	40	0	0	53	5329
2026-01-16 08:48:55.38	356.07	9.17	-40.7	-44.3	17.1	0.00e+00	0	40	0	0	53	5289
2026-01-16 08:48:56.37	355.99	9.10	-40.7	-44.3	17.1	0.00e+00	0	40	0	0	53	5313
2026-01-16 08:48:57.37	355.90	9.03	-40.7	-44.1	17.2	0.00e+00	0	40	0	0	53	5205
2026-01-16 08:48:58.36	355.82	8.95	-48.3	-62.8	3.8	1.49e+00	0	40	104	0	67	19921
2026-01-16 08:48:59.35	355.73	8.88	-49.9	-63.1	3.8	1.49e+00	0	40	104	0	70	17432
2026-01-16 08:49:00.34	355.65	8.81	-49.6	-63.3	3.8	1.49e+00	0	40	104	0	70	17789
2026-01-16 08:49:01.34	355.57	8.74	-49.8	-63.4	3.8	1.49e+00	0	40	104	0	70	17954
2026-01-16 08:49:02.33	355.48	8.67	-50.0	-63.5	3.8	1.49e+00	0	40	104	0	71	17086
2026-01-16 08:49:03.32	355.40	8.60	-50.3	-63.5	3.8	1.49e+00	0	40	104	0	71	17229
2026-01-16 08:49:04.32	355.32	8.53	-50.3	-63.5	3.8	1.49e+00	0	40	104	0	71	17211
2026-01-16 08:49:05.31	355.24	8.46	-50.4	-63.5	3.8	1.49e+00	0	40	104	0	71	17260
2026-01-16 08:49:06.30	355.16	8.39	-50.0	-63.6	3.8	1.49e+00	0	40	104	0	71	17362
2026-01-16 08:49:07.30	355.08	8.32	-50.4	-63.6	3.8	1.49e+00	0	40	104	0	71	17407
2026-01-16 08:49:08.29	355.00	8.24	-50.6	-63.6	3.8	1.49e+00	0	40	104	0	71	17392
2026-01-16 08:49:09.29	354.92	8.17	-50.2	-63.7	3.8	1.49e+00	0	40	104	0	71	17494
2026-01-16 08:49:10.28	354.84	8.10	-50.2	-63.7	3.8	1.49e+00	0	40	104	0	71	17504
2026-01-16 08:49:11.27	354.76	8.03	-50.5	-63.7	3.8	1.49e+00	0	40	104	0	71	17545
2026-01-16 08:49:12.27	354.68	7.96	-50.6	-63.7	3.8	1.49e+00	0	40	104	0	71	17563
2026-01-16 08:49:13.26	354.60	7.90	-50.4	-63.7	3.8	1.49e+00	0	40	104	0	71	17558
2026-01-16 08:49:14.25	354.52	7.83	-50.5	-63.7	3.8	1.49e+00	0	40	104	0	71	17564
2026-01-16 08:49:15.25	354.45	7.76	-50.4	-63.7	3.8	1.49e+00	0	40	104	0	71	17597
2026-01-16 08:49:16.24	354.37	7.69	-50.6	-63.7	3.8	1.49e+00	0	40	104	0	71	17603
2026-01-16 08:49:17.23	354.29	7.62	-50.6	-63.7	3.8	1.49e+00	0	40	104	0	71	17551
2026-01-16 08:49:18.23	354.21	7.55	-50.5	-63.7	3.8	1.49e+00	0	40	104	0	71	17618
2026-01-16 08:49:19.22	354.14	7.48	-50.5	-63.6	3.8	1.49e+00	0	40	104	0	72	16500
2026-01-16 08:49:20.21	354.06	7.41	-50.6	-63.7	3.8	1.49e+00	0	40	104	0	72	16548
2026-01-16 08:49:21.21	353.99	7.34	-50.7	-63.7	3.8	1.49e+00	0	40	104	0	72	16540
2026-01-16 08:49:22.20	353.91	7.27	-50.6	-63.7	3.8	1.49e+00	0	40	104	0	72	16597
2026-01-16 08:49:23.19	353.84	7.21	-50.7	-63.7	3.8	1.49e+00	0	40	104	0	72	16585
2026-01-16 08:49:24.19	353.76	7.14	-50.5	-63.7	3.8	1.49e+00	0	40	104	0	72	16602
2026-01-16 08:49:25.18	353.69	7.07	-50.6	-63.7	3.8	1.49e+00	0	40	104	0	72	16610
2026-01-16 08:49:26.18	353.62	7.00	-50.5	-63.7	3.8	1.49e+00	0	40	104	0	72	16576
2026-01-16 08:49:27.17	353.54	6.93	-50.2	-63.7	3.8	1.49e+00	0	40	104	0	72	16547
2026-01-16 08:49:28.17	353.47	6.87	-50.2	-63.6	3.8	1.49e+00	0	40	104	0	72	16467
2026-01-16 08:49:29.16	353.40	6.80	-50.2	-63.7	3.8	1.49e+00	0	40	104	0	72	16569
2026-01-16 08:49:30.15	353.33	6.73	-50.2	-63.7	3.8	1.49e+00	0	40	104	0	72	16527
2026-01-16 08:49:31.15	353.25	6.66	-50.2	-63.7	3.8	1.49e+00	0	40	104	0	72	16563
2026-01-16 08:49:32.14	353.18	6.60	-50.2	-63.6	3.8	1.49e+00	0	40	104	0	72	16500
2026