passes_logs/2026/01/16/T1/T1__20260116_092742_NOAA_20_JPSS-1_rec.log

#Pass ID: 20260116_092742_NOAA 20 (JPSS-1)
#Satellite: NOAA 20 (JPSS-1)
#Configuration: NOAA 20
#almurnet v.1.7.20251203
#Start time: 2026-01-16 09:27:44

#Version: 2.0.20230620
#Station: T1
#Location: 37.570604 lon 55.790049 lat
#TLE: 1 43013U 17073A   26015.89389188  .00000026  00000+0  33113-4 0  9999
#TLE: 2 43013  98.7636 316.8238 0001460  37.8997 322.2282 14.19536128422860

#Time	Az	El	Level	Level2	SNR	BER	BlckErr	Temp	State	Recorded	gain1	gain2
2026-01-16 09:27:44.06	145.62	5.10	-50.2	-65.8	3.8	1.49e+00	0	38	0	0	71	22301
2026-01-16 09:27:45.06	145.59	5.17	-50.2	-65.7	3.8	1.49e+00	0	38	104	0	72	20909
2026-01-16 09:27:46.05	145.57	5.24	-50.2	-65.7	3.8	1.49e+00	0	38	104	0	72	20912
2026-01-16 09:27:47.05	145.55	5.31	-50.2	-65.7	3.8	1.49e+00	0	38	104	0	72	20899
2026-01-16 09:27:48.04	145.52	5.39	-50.2	-65.7	3.8	1.49e+00	0	38	104	0	72	20944
2026-01-16 09:27:49.04	145.50	5.46	-50.2	-65.7	3.8	1.49e+00	0	38	104	0	72	20933
2026-01-16 09:27:50.03	145.47	5.53	-50.2	-65.7	3.8	1.49e+00	0	38	104	0	72	20936
2026-01-16 09:27:51.03	145.45	5.60	-50.2	-65.7	3.8	1.49e+00	0	38	104	0	72	20919
2026-01-16 09:27:52.03	145.42	5.67	-50.2	-65.7	3.8	1.49e+00	0	38	104	0	72	20935
2026-01-16 09:27:53.03	145.40	5.75	-50.2	-65.7	3.8	1.49e+00	0	38	104	0	72	20963
2026-01-16 09:27:54.03	145.37	5.82	-50.2	-65.7	3.8	1.49e+00	0	38	104	0	72	20935
2026-01-16 09:27:55.02	145.35	5.89	-50.2	-65.7	3.8	1.49e+00	0	38	104	0	72	20901
2026-01-16 09:27:56.02	145.32	5.97	-50.2	-65.7	3.8	1.49e+00	0	38	104	0	72	20922
2026-01-16 09:27:57.02	145.30	6.04	-50.2	-65.7	3.8	1.49e+00	0	39	104	0	72	20976
2026-01-16 09:27:58.02	145.27	6.11	-50.2	-65.7	3.8	1.49e+00	0	38	104	0	72	20941
2026-01-16 09:27:59.01	145.25	6.19	-50.2	-65.7	3.8	1.49e+00	0	39	104	0	72	20973
2026-01-16 09:28:00.01	145.22	6.26	-50.2	-65.7	3.8	1.49e+00	0	38	104	0	72	20939
2026-01-16 09:28:01.01	145.19	6.34	-50.2	-65.7	3.8	1.49e+00	0	39	104	0	72	20989
2026-01-16 09:28:02.00	145.17	6.41	-50.2	-65.7	3.8	1.49e+00	0	39	104	0	72	20985
2026-01-16 09:28:03.00	145.14	6.48	-50.2	-65.7	3.8	1.49e+00	0	39	104	0	72	20948
2026-01-16 09:28:04.00	145.12	6.56	-50.2	-65.7	3.8	1.49e+00	0	39	104	0	72	20962
2026-01-16 09:28:04.99	145.09	6.63	-50.2	-65.7	3.8	1.49e+00	0	39	104	0	72	20917
2026-01-16 09:28:05.99	145.06	6.71	-50.2	-65.7	3.8	1.49e+00	0	39	104	0	72	20976
2026-01-16 09:28:06.99	145.04	6.79	-50.2	-65.7	3.8	1.49e+00	0	39	104	0	72	20988
2026-01-16 09:28:07.99	145.01	6.86	-50.2	-65.7	3.8	1.49e+00	0	39	104	0	72	21003
2026-01-16 09:28:08.98	144.98	6.94	-50.2	-65.8	3.8	1.49e+00	0	39	104	0	72	21024
2026-01-16 09:28:09.99	144.95	7.01	-50.2	-65.7	3.8	1.49e+00	0	39	104	0	72	20999
2026-01-16 09:28:10.98	144.93	7.09	-50.2	-65.7	3.8	1.49e+00	0	39	104	0	72	20931
2026-01-16 09:28:11.98	144.90	7.17	-50.2	-65.7	3.8	1.49e+00	0	39	104	0	72	21010
2026-01-16 09:28:12.98	144.87	7.24	-50.2	-65.7	3.8	1.49e+00	0	39	104	0	72	20916
2026-01-16 09:28:13.98	144.84	7.32	-50.2	-65.7	3.8	1.49e+00	0	39	104	0	72	20976
2026-01-16 09:28:14.97	144.82	7.40	-50.2	-65.7	3.8	1.49e+00	0	39	104	0	72	20945
2026-01-16 09:28:15.96	144.79	7.47	-50.2	-65.7	3.8	1.49e+00	0	39	104	0	72	20997
2026-01-16 09:28:16.96	144.76	7.55	-50.2	-65.8	3.8	1.49e+00	0	39	104	0	72	21045
2026-01-16 09:28:17.96	144.73	7.63	-50.2	-65.8	3.8	1.49e+00	0	39	104	0	72	21021
2026-01-16 09:28:18.96	144.70	7.71	-50.2	-65.7	3.8	1.49e+00	0	39	104	0	72	21002
2026-01-16 09:28:19.95	144.67	7.79	-50.2	-65.7	3.8	1.49e+00	0	39	104	0	72	20996
2026-01-16 09:28:20.95	144.64	7.87	-50.2	-65.7	3.8	1.49e+00	0	39	104	0	72	20969
2026-01-16 09:28:21.95	144.61	7.95	-50.2	-65.7	3.8	1.49e+00	0	39	104	0	72	20970
2026-01-16 09:28:22.95	144.58	8.02	-50.2	-65.7	3.8	1.49e+00	0	39	104	0	72	20978
2026-01-16 09:28:23.94	144.55	8.10	-50.2	-65.7	3.8	1.49e+00	0	39	104	0	72	21006
2026-01-16 09:28:24.94	144.52	8.18	-50.2	-65.7	3.8	1.49e+00	0	40	104	0	72	20963
2026-01-16 09:28:25.93	144.49	8.26	-50.2	-65.7	3.8	1.49e+00	0	39	104	0	72	21011
2026-01-16 09:28:26.93	144.46	8.34	-50.2	-65.8	3.8	1.49e+00	0	39	104	0	72	21062
2026-01-16 09:28:27.93	144.43	8.42	-50.2	-65.8	3.8	1.49e+00	0	39	104	0	72	21034
2026-01-16 09:28:28.93	144.40	8.50	-50.2	-65.7	3.8	1.49e+00	0	40	104	0	72	20979
2026-01-16 09:28:29.93	144.37	8.59	-50.2	-65.8	3.8	1.49e+00	0	39	104	0	72	21020
2026-01-16 09:28:30.93	144.34	8.67	-50.2	-65.7	3.8	1.49e+00	0	39	104	0	72	20988
2026-01-16 09:28:31.93	144.31	8.75	-50.2	-65.7	3.8	1.49e+00	0	39	104	0	72	21011
2026-01-16 09:28:32.93	144.28	8.83	-50.2	-65.7	3.8	1.49e+00	0	40	104	0	72	21015
2026-01-16 09:28:33.92	144.25	8.91	-50.2	-65.7	3.8	1.49e+00	0	39	104	0	72	21006
2026-01-16 09:28:34.92	144.22	8.99	-50.2	-65.7	3.8	1.49e+00	0	39	104	0	72	20990
2026-01-16 09:28:35.92	144.18	9.08	-50.2	-65.7	3.8	1.49e+00	0	39	104	0	72	21002
2026-01-16 09:28:36.92	144.15	9.16	-50.2	-65.8	3.8	1.49e+00	0	40	104	0	72	21027
2026-01-16 09:28:37.92	144.12	9.24	-50.2	-65.7	3.8	1.49e+00	0	40	104	0	72	20987
2026-01-16 09:28:38.91	144.09	9.33	-50.2	-65.7	3.8	1.49e+00	0	40	104	0	72	20985
2026-01-16 09:28:39.91	144.05	9.41	-50.2	-65.8	3.8	1.49e+00	0	40	104	0	72	21054
2026-01-16 09:28:40.91	144.02	9.49	-50.2	-65.7	3.8	1.49e+00	0	40	104	0	72	20976
2026-01-16 09:28:41.91	143.99	9.58	-50.2	-65.7	3.8	1.49e+00	0	40	104	0	72	20988
2026-01-16 09:28:42.91	143.96	9.66	-50.2	-65.8	3.8	1.49e+00	0	40	104	0	72	21018
2026-01-16 09:28:43.91	143.92	9.75	-50.2	-65.7	3.8	1.49e+00	0	40	104	0	72	20951
2026-01-16 09:28:44.90	143.89	9.83	-50.2	-65.8	3.8	1.49e+00	0	40	104	0	72	21109
2026-01-16 09:28:45.90	143.85	9.92	-50.2	-65.7	3.8	1.49e+00	0	40	104	0	72	20994
2026-01-16 09:28:46.90	143.82	10.00	-50.2	-65.8	3.8	1.49e+00	0	40	104	0	72	21087
2026-01-16 09:28:47.89	143.79	10.09	-50.2	-65.8	3.8	1.49e+00	0	40	104	0	72	21065
2026-01-16 09:28:48.89	143.75	10.17	-50.2	-65.8	3.8	1.49e+00	0	40	104	0	72	21028
2026-01-16 09:28:49.89	143.72	10.26	-50.2	-65.8	3.8	1.49e+00	0	40	104	0	72	21030
2026-01-16 09:28:50.89	143.68	10.35	-50.2	-65.8	3.8	1.49e+00	0	40	104	0	72	21083
2026-01-16 09:28:51.88	143.65	10.43	-50.2	-65.8	3.8	1.49e+00	0	40	104	0	72	21103
2026-01-16 09:28:52.88	143.61	10.52	-50.2	-65.8	3.8	1.49e+00	0	40	104	0	72	21033
2026-01-16 09:28:53.88	143.58	10.61	-50.2	-65.8	3.8	1.49e+00	0	40	104	0	72	21061
2026-01-16 09:28:54.88	143.54	10.70	-50.2	-65.8	3.8	1.49e+00	0	40	104	0	72	21033
2026-01-16 09:28:55.88	143.50	10.78	-50.2	-65.7	3.8	1.49e+00	0	40	104	0	72	20985
2026-01-16 09:28:56.88	143.47	10.87	-50.2	-65.8	3.8	1.49e+00	0	40	104	0	72	21066
2026-01-16 09:28:57.87	143.43	10.96	-50.2	-65.7	3.8	1.49e+00	0	40	104	0	72	20970
2026-01-16 09:28:58.87	143.39	11.05	-50.2	-65.8	3.8	1.49e+00	0	40	104	0	72	21029
2026-01-16 09:28:59.86	143.36	11.14	-50.2	-65.8	3.8	1.49e+00	0	40	104	0	72	21039
2026-01-16 09:29:00.86	143.32	11.23	-50.2	-65.7	3.8	1.49e+00	0	40	104	0	72	21000
2026-01-16 09:29:01.86	143.28	11.32	-50.2	-65.8	3.8	1.49e+00	0	40	104	0	72	21086
2026-01-16 09:29:02.86	143.24	11.41	-50.2	-65.7	3.8	1.49e+00	0	40	104	0	72	20989
2026-01-16 09:29:03.85	143.21	11.50	-50.2	-65.8	3.8	1.49e+00	0	40	104	0	72	21047
2026-01-16 09:29:04.85	143.17	11.59	-50.2	-65.8	3.8	1.49e+00	0	40	104	0	72	21025
2026-01-16 09:29:05.85	143.13	11.68	-50.2	-65.7	3.8	1.49e+00	0	40	104	0	72	21017
2026-01-16 09:29:06.85	143.09	11.77	-50.2	-65.8	3.8	1.49e+00	0	40	104	0	72	21132
2026-01-16 09:29:07.85	143.05	11.87	-50.2	-65.7	3.8	1.49e+00	0	40	104	0	72	20993
2026-01-16 09:29:08.85	143.01	11.96	-50.2	-65.8	3.8	1.49e+00	0	40	104	0	72	21044
2026-01-16 09:29:09.84	142.97	12.05	-50.2	-65.8	3.8	1.49e+00	0	40	104	0	72	21066
2026-01-16 09:29:10.84	142.93	12.14	-50.2	-65.8	3.8	1.49e+00	0	40	104	0	72	21050
2026-01-16 09:29:11.84	142.89	12.24	-50.2	-65.8	3.8	1.49e+00	0	40	104	0	72	21046
2026-01-16 09:29:12.84	142.85	12.33	-50.2	-65.7	3.8	1.49e+00	0	40	104	0	72	20970
2026-01-16 09:29:13.84	142.81	12.43	-50.2	-65.8	3.8	1.49e+00	0	40	104	0	72	21024
2026-01-16 09:29:14.84	142.77	12.52	-50.2	-65.8	3.8	1.49e+00	0	40	104	0	72	21064
2026-01-16 09:29:15.83	142.73	12.61	-50.2	-65.8	3.8	1.49e+00	0	40	104	0	72	21055
2026-01-16 09:29:16.83	142.69	12.71	-50.2	-65.8	3.8	1.49e+00	0	40	104	0	72	21135
2026-01-16 09:29:17.83	142.65	12.81	-50.2	-65.8	3.8	1.49e+00	0	40	104	0	72	21031
2026-01-16 09:29:18.82	142.60	12.90	-50.2	-65.8	3.8	1.49e+00	0	40	104	0	72	21079
2026-01-16 09:29:19.81	142.56	13.00	-50.2	-65.8	3.8	1.49e+00	0	40	104	0	72	21133
2026-01-16 09:29:20.81	142.52	13.09	-50.2	-65.8	3.8	1.49e+00	0	40	104	0	72	21054
2026-01-16 09:29:21.81	142.48	13.19	-50.2	-65.7	3.8	1.49e+00	0	40	104	0	72	20942
2026-01-16 09:29:22.81	142.43	13.29	-50.2	-65.8	3.8	1.49e+00	0	40	104	0	72	21031
2026-01-16 09:29:23.80	142.39	13.38	-50.2	-65.8	3.8	1.49e+00	0	40	104	0	72	21093
2026-01-16 09:29:24.80	142.35	13.48	-50.2	-65.8	3.8	1.49e+00	0	40	104	0	72	21085
2026-01-16 09:29:25.80	142.30	13.58	-50.2	-65.8	3.8	1.49e+00	0	40	104	0	72	21042
2026-01-16 09:29:26.80	142.26	13.68	-50.2	-65.7	3.8	1.49e+00	0	40	104	0	72	20996
2026-01-16 09:29:27.79	142.21	13.78	-50.2	-65.8	3.8	1.49e+00	0	40	104	0	72	21025
2026-01-16 09:29:28.79	142.17	13.88	-50.2	-65.8	3.8	1.49e+00	0	40	104	0	72	21066
2026-01-16 09:29:29.79	142.12	13.98	-50.2	-65.8	3.8	1.49e+00	0	40	104	0	72	21187
2026-01-16 09:29:30.79	142.08	14.08	-50.2	-65.8	3.8	1.49e+00	0	40	104	0	72	21082
2026-01-16 09:29:31.79	142.03	14.18	-50.3	-65.8	3.8	1.49e+00	0	40	104	0	72	21089
2026-01-16 09:29:32.79	141.98	14.28	-50.2	-65.8	3.8	1.49e+00	0	40	104	0	72	21046
2026-01-16 09:29:33.79	141.94	14.38	-50.2	-65.8	3.8	1.49e+00	0	40	104	0	72	21095
2026-01-16 09:29:34.79	141.89	14.49	-50.2	-65.8	3.8	1.49e+00	0	40	104	0	72	21073
2026-01-16 09:29:35.78	141.84	14.59	-50.2	-65.8	3.8	1.49e+00	0	40	104	0	72	21058
2026-01-16 09:29:36.78	141.79	14.69	-50.2	-65.7	3.8	1.49e+00	0	40	104	0	72	21012
2026-01-16 09:29:37.78	141.75	14.79	-50.2	-65.8	3.8	1.49e+00	0	40	104	0	72	21107
2026-01-16 09:29:38.78	141.70	14.90	-50.2	-65.8	3.8	1.49e+00	0	40	104	0	72	21073
2026-01-16 09:29:39.77	141.65	15.00	-50.2	-65.8	3.8	1.49e+00	0	40	104	0	72	21132
2026-01-16 09:29:40.77	141.60	15.10	-50.2	-65.7	3.8	1.49e+00	0	40	104	0	72	20981
2026-01-16 09:29:41.77	141.55	15.21	-50.2	-65.8	3.8	1.49e+00	0	40	104	0	72	21023
2026-01-16 09:29:42.77	141.50	15.32	-50.2	-65.8	3.8	1.49e+00	0	40	104	0	72	21116
2026-01-16 09:29:43.76	141.45	15.42	-50.2	-65.8	3.8	1.49e+00	0	40	104	0	72	21077
2026-01-16 09:29:44.76	141.40	15.53	-50.2	-65.8	3.8	1.49e+00	0	41	104	0	72	21134
2026-01-16 09:29:45.76	141.35	15.63	-50.2	-65.8	3.8	1.49e+00	0	40	104	0	72	21119
2026-01-16 09:29:46.76	141.30	15.74	-50.2	-65.8	3.8	1.49e+00	0	40	104	0	72	21120
2026-01-16 09:29:47.76	141.24	15.85	-50.2	-65.8	3.8	1.49e+00	0	40	104	0	72	21097
2026-01-16 09:29:48.76	141.19	15.96	-50.2	-65.8	3.8	1.49e+00	0	40	104	0	72	21107
2026-01-16 09:29:49.76	141.14	16.07	-50.2	-65.8	3.8	1.49e+00	0	40	104	0	72	21162
2026-01-16 09:29:50.75	141.09	16.17	-50.2	-65.8	3.8	1.49e+00	0	40	104	0	72	21084
2026-01-16 09:29:51.75	141.03	16.28	-50.3	-65.7	3.8	1.49e+00	0	40	104	0	72	20989
2026-01-16 09:29:52.75	140.98	16.39	-50.2	-65.8	3.8	1.49e+00	0	40	104	0	72	21074
2026-01-16 09:29:53.74	140.93	16.50	-50.2	-65.8	3.8	1.49e+00	0	40	104	0	72	21079
2026-01-16 09:29:54.74	140.87	16.61	-50.2	-65.8	3.8	1.49e+00	0	40	104	0	72	21125
2026-01-16 09:29:55.73	140.82	16.72	-50.2	-65.8	3.8	1.49e+00	0	40	104	0	72	21144
2026-01-16 09:29:56.73	140.76	16.84	-50.2	-65.8	3.8	1.49e+00	0	40	104	0	72	21095
2026-01-16 09:29:57.73	140.70	16.95	-50.2	-65.8	3.8	1.49e+00	0	40	104	0	72	21103
2026-01-16 09:29:58.73	140.65	17.06	-50.2	-65.8	3.8	1.49e+00	0	40	104	0	72	21111
2026-01-16 09:29:59.72	140.59	17.17	-50.2	-65.8	3.8	1.49e+00	0	40	104	0	72	21197
2026-01-16 09:30:00.72	140.53	17.29	-50.2	-65.8	3.8	1.49e+00	0	40	104	0	72	21122
2026-01-16 09:30:01.72	140.48	17.40	-50.2	-65.8	3.8	1.49e+00	0	40	104	0	72	21136
2026-01-16 09:30:02.71	140.42	17.52	-50.2	-65.8	3.8	1.49e+00	0	40	104	0	72	21100
2026-01-16 09:30:03.71	140.36	17.63	-50.2	-65.8	3.8	1.49e+00	0	40	104	0	72	21152
2026-01-16 09:30:04.71	140.30	17.75	-50.2	-65.8	3.8	1.49e+00	0	40	104	0	72	21148
2026-01-16 09:30:05.71	140.24	17.86	-50.2	-65.8	3.8	1.49e+00	0	40	104	0	72	21078
2026-01-16 09:30:06.70	140.18	17.98	-50.2	-65.8	3.8	1.49e+00	0	40	104	0	72	21106
2026-01-16 09:30:07.70	140.12	18.10	-50.2	-65.7	3.8	1.49e+00	0	40	104	0	72	20994
2026-01-16 09:30:08.70	140.06	18.21	-50.2	-65.8	3.8	1.49e+00	0	40	104	0	72	21122
2026-01-16 09:30:09.69	140.00	18.33	-50.2	-65.8	3.8	1.49e+00	0	40	104	0	72	21103
2026-01-16 09:30:10.69	139.94	18.45	-50.3	-65.8	3.8	1.49e+00	0	40	104	0	72	21136
2026-01-16 09:30:11.68	139.87	18.57	-50.2	-65.8	3.8	1.49e+00	0	40	104	0	72	21123
2026-01-16 09:30:12.68	139.81	18.69	-50.2	-65.8	3.8	1.49e+00	0	40	104	0	72	21064
2026-01-16 09:30:13.68	139.75	18.81	-50.2	-65.8	3.8	1.49e+00	0	40	104	0	72	21051
2026-01-16 09:30:14.68	139.68	18.93	-50.2	-65.8	3.8	1.49e+00	0	40	104	0	72	21139
2026-01-16 09:30:15.67	139.62	19.05	-50.2	-65.8	3.8	1.49e+00	0	40	104	0	72	21100
2026-01-16 09:30:16.67	139.55	19.17	-50.2	-65.8	3.8	1.49e+00	0	40	104	0	72	21095
2026-01-16 09:30:17.67	139.49	19.30	-50.2	-65.8	3.8	1.49e+00	0	40	104	0	72	21068
2026-01-16 09:30:18.66	139.42	19.42	-50.3	-65.8	3.8	1.49e+00	0	40	104	0	72	21119
2026-01-16 09:30:19.66	139.35	19.54	-50.3	-65.8	3.8	1.49e+00	0	40	104	0	72	21124
2026-01-16 09:30:20.66	139.29	19.67	-50.3	-65.8	3.8	1.49e+00	0	40	104	0	72	21135
2026-01-16 09:30:21.66	139.22	19.79	-50.3	-65.8	3.8	1.49e+00	0	40	104	0	72	21064
2026-01-16 09:30:22.66	139.15	19.92	-50.2	-65.8	3.8	1.49e+00	0	40	104	0	72	21180
2026-01-16 09:30:23.66	139.08	20.05	-50.2	-65.8	3.8	1.49e+00	0	39	104	0	72	21147
2026-01-16 09:30:24.65	139.01	20.17	-50.2	-65.8	3.8	1.49e+00	0	39	104	0	72	21124
2026-01-16 09:30:25.65	138.94	20.30	-50.2	-65.7	3.8	1.49e+00	0	39	104	0	72	21004
2026-01-16 09:30:26.65	138.87	20.43	-50.2	-65.8	3.8	1.49e+00	0	40	104	0	72	21116
2026-01-16 09:30:27.65	138.80	20.56	-50.2	-65.8	3.8	1.49e+00	0	39	104	0	72	21141
2026-01-16 09:30:28.65	138.73	20.69	-50.2	-65.8	3.8	1.49e+00	0	39	104	0	72	21048
2026-01-16 09:30:29.65	138.65	20.82	-50.2	-65.8	3.8	1.49e+00	0	40	104	0	72	21026
2026-01-16 09:30:30.64	138.58	20.94	-50.2	-65.8	3.8	1.49e+00	0	39	104	0	72	21058
2026-01-16 09:30:31.64	138.51	21.08	-50.2	-65.8	3.8	1.49e+00	0	39	104	0	72	21146
2026-01-16 09:30:32.64	138.43	21.21	-50.2	-65.8	3.8	1.49e+00	0	39	104	0	72	21062
2026-01-16 09:30:33.63	138.36	21.34	-50.2	-65.8	3.8	1.49e+00	0	40	104	0	72	21027
2026-01-16 09:30:34.63	138.28	21.47	-50.2	-65.8	3.8	1.49e+00	0	39	104	0	72	21055
2026-01-16 09:30:35.63	138.20	21.61	-50.2	-65.8	3.8	1.49e+00	0	39	104	0	72	21118
2026-01-16 09:30:36.63	138.13	21.74	-50.2	-65.8	3.8	1.49e+00	0	39	104	0	72	21104
2026-01-16 09:30:37.62	138.05	21.87	-50.2	-65.8	3.8	1.49e+00	0	40	104	0	72	21143
2026-01-16 09:30:38.62	137.97	22.01	-50.2	-65.8	3.8	1.49e+00	0	39	104	0	72	21044
2026-01-16 09:30:39.62	137.89	22.15	-50.2	-65.8	3.8	1.49e+00	0	39	104	0	72	21074
2026-01-16 09:30:40.62	137.81	22.28	-50.2	-65.8	3.8	1.49e+00	0	39	104	0	72	21145
2026-01-16 09:30:41.61	137.73	22.42	-50.2	-65.8	3.8	1.49e+00	0	40	104	0	72	21045
2026-01-16 09:30:42.61	137.65	22.56	-50.2	-65.8	3.8	1.49e+00	0	39	104	0	72	21065
2026-01-16 09:30:43.61	137.56	22.70	-50.2	-65.7	3.8	1.49e+00	0	39	104	0	72	21003
2026-01-16 09:30:44.60	137.48	22.84	-50.2	-65.8	3.8	1.49e+00	0	39	104	0	72	21110
2026-01-16 09:30:45.60	137.40	22.98	-50.2	-65.8	3.8	1.49e+00	0	39	104	0	72	21119
2026-01-16 09:30:46.60	137.31	23.12	-50.2	-65.8	3.8	1.49e+00	0	40	104	0	72	21047
2026-01-16 09:30:47.59	137.23	23.26	-50.2	-65.8	3.8	1.49e+00	0	39	104	0	72	21087
2026-01-16 09:30:48.59	137.14	23.40	-50.2	-65.8	3.8	1.49e+00	0	39	104	0	72	21051
2026-01-16 09:30:49.59	137.05	23.55	-50.2	-65.8	3.8	1.49e+00	0	39	104	0	72	21059
2026-01-16 09:30:50.58	136.97	23.69	-50.2	-65.8	3.8	1.49e+00	0	39	104	0	72	21085
2026-01-16 09:30:51.58	136.88	23.83	-50.2	-65.8	3.8	1.49e+00	0	39	104	0	72	21067
2026-01-16 09:30:52.58	136.79	23.98	-50.3	-65.8	3.8	1.49e+00	0	39	104	0	72	21022
2026-01-16 09:30:53.58	136.70	24.13	-50.3	-65.8	3.8	1.49e+00	0	40	104	0	72	21080
2026-01-16 09:30:54.57	136.61	24.27	-50.2	-65.8	3.8	1.49e+00	0	39	104	0	72	21151
2026-01-16 09:30:55.57	136.51	24.42	-50.2	-65.8	3.8	1.49e+00	0	39	104	0	72	21099
2026-01-16 09:30:56.57	136.42	24.57	-50.2	-65.8	3.8	1.49e+00	0	40	104	0	72	21074
2026-01-16 09:30:57.57	136.33	24.72	-50.2	-65.8	3.8	1.49e+00	0	39	104	0	72	21082
2026-01-16 09:30:58.57	136.23	24.87	-50.2	-65.8	3.8	1.49e+00	0	39	104	0	72	21192
2026-01-16 09:30:59.57	136.13	25.02	-50.2	-65.8	3.8	1.49e+00	0	39	104	0	72	21087
2026-01-16 09:31:00.57	136.04	25.17	-50.2	-65.8	3.8	1.49e+00	0	39	104	0	72	21094
2026-01-16 09:31:01.56	135.94	25.32	-50.2	-65.8	3.8	1.49e+00	0	39	104	0	72	21101
2026-01-16 09:31:02.56	135.84	25.47	-50.2	-65.8	3.8	1.49e+00	0	40	104	0	72	21026
2026-01-16 09:31:03.56	135.74	25.63	-50.3	-65.8	3.8	1.49e+00	0	39	104	0	72	21095
2026-01-16 09:31:04.55	135.64	25.78	-50.2	-65.8	3.8	1.49e+00	0	39	104	0	72	21135
2026-01-16 09:31:05.55	135.54	25.94	-50.2	-65.8	3.8	1.49e+00	0	39	104	0	72	21093
2026-01-16 09:31:06.55	135.43	26.09	-50.2	-65.8	3.8	1.49e+00	0	40	104	0	72	21151
2026-01-16 09:31:07.54	135.33	26.25	-50.2	-65.8	3.8	1.49e+00	0	39	104	0	72	21094
2026-01-16 09:31:08.54	135.23	26.41	-50.2	-65.8	3.8	1.49e+00	0	40	104	0	72	21164
2026-01-16 09:31:09.53	135.12	26.56	-50.2	-65.8	3.8	1.49e+00	0	40	104	0	72	21116
2026-01-16 09:31:10.53	135.01	26.72	-50.2	-65.8	3.8	1.49e+00	0	40	104	0	72	21091
2026-01-16 09:31:11.53	134.91	26.88	-50.2	-65.8	3.8	1.49e+00	0	39	104	0	72	21083
2026-01-16 09:31:12.52	134.80	27.04	-50.2	-65.8	3.8	1.49e+00	0	40	104	0	72	21136
2026-01-16 09:31:13.53	134.69	27.21	-50.2	-65.8	3.8	1.49e+00	0	40	104	0	72	21060
2026-01-16 09:31:14.52	134.57	27.37	-50.2	-65.8	3.8	1.49e+00	0	39	104	0	72	21136
2026-01-16 09:31:15.53	134.46	27.53	-50.2	-65.8	3.8	1.49e+00	0	40	104	0	72	21077
2026-01-16 09:31:16.52	134.35	27.70	-50.2	-65.8	3.8	1.49e+00	0	40	104	0	72	21107
2026-01-16 09:31:17.53	134.23	27.87	-50.3	-65.8	3.8	1.49e+00	0	39	104	0	72	21180
2026-01-16 09:31:18.52	134.12	28.03	-50.2	-65.8	3.8	1.49e+00	0	40	104	0	72	21093
2026-01-16 09:31:19.52	134.00	28.20	-50.2	-65.8	3.8	1.49e+00	0	40	104	0	72	21097
2026-01-16 09:31:20.52	133.88	28.37	-50.2	-65.8	3.8	1.49e+00	0	40	104	0	72	21165
2026-01-16 09:31:21.51	133.76	28.53	-50.2	-65.8	3.8	1.49e+00	0	40	104	0	72	21160
2026-01-16 09:31:22.51	133.64	28.70	-50.2	-65.8	3.8	1.49e+00	0	40	104	0	72	21074
2026-01-16 09:31:23.50	133.52	28.87	-50.2	-65.8	3.8	1.49e+00	0	40	104	0	72	21160
2026-01-16 09:31:24.50	133.39	29.04	-50.2	-65.8	3.8	1.49e+00	0	40	104	0	72	21118
2026-01-16 09:31:25.50	133.26	29.22	-50.2	-65.8	3.8	1.49e+00	0	40	104	0	72	21073
2026-01-16 09:31:26.49	133.14	29.39	-50.2	-65.8	3.8	1.49e+00	0	40	104	0	72	21077
2026-01-16 09:31:27.49	133.01	29.56	-50.2	-65.8	3.8	1.49e+00	0	40	104	0	72	21065
2026-01-16 09:31:28.49	132.88	29.74	-50.2	-65.8	3.8	1.49e+00	0	40	104	0	72	21099
2026-01-16 09:31:29.49	132.75	29.91	-50.2	-65.8	3.8	1.49e+00	0	40	104	0	72	21185
2026-01-16 09:31:30.49	132.62	30.09	-50.2	-65.8	3.8	1.49e+00	0	40	104	0	72	21083
2026-01-16 09:31:31.48	132.48	30.27	-50.3	-65.8	3.8	1.49e+00	0	40	104	0	72	21096
2026-01-16 09:31:32.48	132.35	30.45	-50.2	-65.8	3.8	1.49e+00	0	40	104	0	72	21108
2026-01-16 09:31:33.48	132.21	30.63	-50.2	-65.8	3.8	1.49e+00	0	40	104	0	72	21058
2026-01-16 09:31:34.48	132.07	30.81	-50.2	-65.8	3.8	1.49e+00	0	40	104	0	72	21159
2026-01-16 09:31:35.48	131.93	30.99	-50.2	-65.8	3.8	1.49e+00	0	40	104	0	72	21079
2026-01-16 09:31:36.48	131.79	31.17	-50.2	-65.8	3.8	1.49e+00	0	40	104	0	72	21075
2026-01-16 09:31:37.47	131.65	31.35	-50.2	-65.8	3.8	1.49e+00	0	40	104	0	72	21148
2026-01-16 09:31:38.47	131.50	31.54	-50.2	-65.8	3.8	1.49e+00	0	40	104	0	72	21129
2026-01-16 09:31:39.47	131.35	31.72	-50.2	-65.8	3.8	1.49e+00	0	40	104	0	72	21153
2026-01-16 09:31:40.46	131.20	31.91	-50.2	-65.8	3.8	1.49e+00	0	39	104	0	72	21107
2026-01-16 09:31:41.46	131.05	32.10	-50.3	-65.8	3.8	1.49e+00	0	40	104	0	72	21055
2026-01-16 09:31:42.46	130.90	32.28	-50.3	-65.8	3.8	1.49e+00	0	40	104	0	72	21119
2026-01-16 09:31:43.45	130.75	32.47	-50.2	-65.8	3.8	1.49e+00	0	40	104	0	72	21100
2026-01-16 09:31:44.45	130.59	32.66	-50.3	-65.8	3.8	1.49e+00	0	40	104	0	72	21147
2026-01-16 09:31:45.44	130.44	32.85	-50.2	-65.8	3.8	1.49e+00	0	40	104	0	72	21031
2026-01-16 09:31:46.44	130.28	33.04	-50.2	-65.7	3.8	1.49e+00	0	40	104	0	72	20989
2026-01-16 09:31:47.44	130.11	33.24	-50.2	-65.8	3.8	1.49e+00	0	40	104	0	72	21075
2026-01-16 09:31:48.43	129.95	33.43	-50.2	-65.8	3.8	1.49e+00	0	40	104	0	72	21098
2026-01-16 09:31:49.43	129.79	33.62	-50.2	-65.8	3.8	1.49e+00	0	40	104	0	72	21089
2026-01-16 09:31:50.43	129.62	33.82	-50.2	-65.8	3.8	1.49e+00	0	40	104	0	72	21094
2026-01-16 09:31:51.43	129.45	34.02	-50.2	-65.8	3.8	1.49e+00	0	40	104	0	72	21096
2026-01-16 09:31:52.43	129.28	34.22	-50.3	-65.8	3.8	1.49e+00	0	40	104	0	72	21060
2026-01-16 09:31:53.42	129.11	34.41	-50.2	-65.8	3.8	1.49e+00	0	40	104	0	72	21070
2026-01-16 09:31:54.42	128.93	34.61	-50.2	-65.8	3.8	1.49e+00	0	40	104	0	72	21156
2026-01-16 09:31:55.41	128.75	34.81	-50.2	-65.8	3.8	1.49e+00	0	40	104	0	72	21153
2026-01-16 09:31:56.41	128.57	35.01	-50.2	-65.8	3.8	1.49e+00	0	40	104	0	72	21068
2026-01-16 09:31:57.41	128.39	35.22	-50.3	-65.8	3.8	1.49e+00	0	40	104	0	72	21092
2026-01-16 09:31:58.41	128.20	35.42	-50.2	-65.8	3.8	1.49e+00	0	40	104	0	72	21034
2026-01-16 09:31:59.41	128.02	35.62	-50.2	-65.8	3.8	1.49e+00	0	40	104	0	72	21090
2026-01-16 09:32:00.41	127.83	35.83	-50.2	-65.8	3.8	1.49e+00	0	40	104	0	72	21155
2026-01-16 09:32:01.40	127.64	36.03	-50.2	-65.8	3.8	1.49e+00	0	40	104	0	72	21042
2026-01-16 09:32:02.40	127.44	36.24	-50.2	-65.8	3.8	1.49e+00	0	40	104	0	72	21044
2026-01-16 09:32:03.40	127.24	36.45	-50.2	-65.8	3.8	1.49e+00	0	40	104	0	72	21121
2026-01-16 09:32:04.39	127.05	36.66	-50.2	-65.8	3.8	1.49e+00	0	40	104	0	72	21029
2026-01-16 09:32:05.39	126.84	36.87	-50.2	-65.8	3.8	1.49e+00	0	40	104	0	72	21097
2026-01-16 09:32:06.39	126.64	37.08	-50.2	-65.8	3.8	1.49e+00	0	40	104	0	72	21102
2026-01-16 09:32:07.39	126.43	37.29	-50.2	-65.8	3.8	1.49e+00	0	40	104	0	72	21059
2026-01-16 09:32:08.39	126.22	37.51	-50.2	-65.8	3.8	1.49e+00	0	40	104	0	72	21094
2026-01-16 09:32:09.38	126.01	37.72	-50.3	-65.8	3.8	1.49e+00	0	40	104	0	72	21076
2026-01-16 09:32:10.38	125.79	37.93	-50.2	-65.8	3.8	1.49e+00	0	40	104	0	72	21140
2026-01-16 09:32:11.37	125.57	38.15	-50.2	-65.8	3.8	1.49e+00	0	40	104	0	72	21067
2026-01-16 09:32:12.37	125.35	38.36	-50.2	-65.8	3.8	1.49e+00	0	40	104	0	72	21061
2026-01-16 09:32:13.36	125.13	38.58	-50.2	-65.8	3.8	1.49e+00	0	40	104	0	72	21099
2026-01-16 09:32:14.36	124.90	38.80	-50.2	-65.8	3.8	1.49e+00	0	40	104	0	72	21048
2026-01-16 09:32:15.36	124.67	39.02	-50.2	-65.8	3.8	1.49e+00	0	40	104	0	72	21117
2026-01-16 09:32:16.36	124.43	39.24	-50.3	-65.8	3.8	1.49e+00	0	40	104	0	72	21131
2026-01-16 09:32:17.35	124.20	39.46	-50.2	-65.8	3.8	1.49e+00	0	40	104	0	72	21129
2026-01-16 09:32:18.35	123.96	39.68	-50.2	-65.8	3.8	1.49e+00	0	40	104	0	72	21114
2026-01-16 09:32:19.35	123.71	39.90	-50.3	-65.8	3.8	1.49e+00	0	40	104	0	72	21096
2026-01-16 09:32:20.34	123.47	40.12	-50.2	-65.8	3.8	1.49e+00	0	40	104	0	72	21128
2026-01-16 09:32:21.34	123.22	40.35	-50.2	-65.8	3.8	1.49e+00	0	40	104	0	72	21119
2026-01-16 09:32:22.34	122.96	40.57	-50.3	-65.8	3.8	1.49e+00	0	40	104	0	72	21108
2026-01-16 09:32:23.34	122.70	40.80	-50.2	-65.8	3.8	1.49e+00	0	40	104	0	72	21128
2026-01-16 09:32:24.33	122.44	41.02	-50.3	-65.8	3.8	1.49e+00	0	40	104	0	72	21039
2026-01-16 09:32:25.33	122.18	41.25	-50.3	-65.8	3.8	1.49e+00	0	40	104	0	72	21122
2026-01-16 09:32:26.33	121.91	41.48	-50.3	-65.8	3.8	1.49e+00	0	40	104	0	72	21152
2026-01-16 09:32:27.33	121.64	41.71	-50.2	-65.8	3.8	1.49e+00	0	40	104	0	72	21102
2026-01-16 09:32:28.33	121.36	41.94	-50.3	-65.8	3.8	1.49e+00	0	40	104	0	72	21069
2026-01-16 09:32:29.33	121.08	42.17	-50.2	-65.8	3.8	1.49e+00	0	40	104	0	72	21173
2026-01-16 09:32:30.33	120.79	42.40	-50.3	-65.8	3.8	1.49e+00	0	40	104	0	72	21038
2026-01-16 09:32:31.32	120.50	42.63	-50.3	-65.8	3.8	1.49e+00	0	40	104	0	72	21167
2026-01-16 09:32:32.32	120.21	42.86	-50.3	-65.8	3.8	1.49e+00	0	40	104	0	72	21048
2026-01-16 09:32:33.32	119.91	43.09	-50.2	-65.8	3.8	1.49e+00	0	40	104	0	72	21160
2026-01-16 09:32:34.32	119.61	43.32	-50.3	-65.8	3.8	1.49e+00	0	40	104	0	72	21200
2026-01-16 09:32:35.31	119.31	43.56	-50.3	-65.8	3.8	1.49e+00	0	40	104	0	72	21072
2026-01-16 09:32:36.31	118.99	43.79	-50.3	-65.8	3.8	1.49e+00	0	40	104	0	72	21182
2026-01-16 09:32:37.30	118.68	44.02	-50.2	-65.8	3.8	1.49e+00	0	40	104	0	72	21156
2026-01-16 09:32:38.30	118.36	44.26	-50.2	-65.7	3.8	1.49e+00	0	40	104	0	72	21008
2026-01-16 09:32:39.30	118.04	44.49	-50.3	-65.8	3.8	1.49e+00	0	40	104	0	72	21088
2026-01-16 09:32:40.29	117.71	44.73	-50.2	-65.8	3.8	1.49e+00	0	40	104	0	72	21161
2026-01-16 09:32:41.29	117.37	44.96	-50.2	-65.8	3.8	1.49e+00	0	40	104	0	72	21159
2026-01-16 09:32:42.29	117.03	45.20	-50.3	-65.8	3.8	1.49e+00	0	40	104	0	72	21119
2026-01-16 09:32:43.29	116.69	45.43	-50.3	-65.8	3.8	1.49e+00	0	40	104	0	72	21106
2026-01-16 09:32:44.29	116.34	45.67	-50.2	-65.8	3.8	1.49e+00	0	40	104	0	72	21211
2026-01-16 09:32:45.29	115.98	45.91	-50.3	-65.8	3.8	1.49e+00	0	40	104	0	72	21159
2026-01-16 09:32:46.29	115.62	46.15	-50.3	-65.8	3.8	1.49e+00	0	40	104	0	72	21032
2026-01-16 09:32:47.29	115.25	46.38	-50.3	-65.8	3.8	1.49e+00	0	40	104	0	72	21152
2026-01-16 09:32:48.28	114.88	46.62	-50.3	-65.8	3.8	1.49e+00	0	40	104	0	72	21103
2026-01-16 09:32:49.28	114.50	46.85	-50.1	-65.8	3.8	1.49e+00	0	40	104	0	72	21078
2026-01-16 09:32:50.27	114.12	47.09	-50.0	-65.8	3.8	1.49e+00	0	40	104	0	72	21054
2026-01-16 09:32:51.27	113.73	47.33	-50.0	-65.8	3.8	1.49e+00	0	40	104	0	72	21036
2026-01-16 09:32:52.27	113.34	47.56	-50.0	-65.7	3.8	1.49e+00	0	40	104	0	72	20948
2026-01-16 09:32:53.26	112.94	47.80	-50.1	-65.7	3.8	1.49e+00	0	40	104	0	72	20998
2026-01-16 09:32:54.26	112.53	48.03	-50.0	-65.7	3.8	1.49e+00	0	40	104	0	72	20886
2026-01-16 09:32:55.26	112.12	48.27	-50.0	-65.7	3.8	1.49e+00	0	40	104	0	71	22247
2026-01-16 09:32:56.26	111.70	48.51	-49.9	-65.7	3.8	1.49e+00	0	40	104	0	71	22175
2026-01-16 09:32:57.26	111.27	48.74	-49.6	-65.7	3.8	1.49e+00	0	40	104	0	71	22169
2026-01-16 09:32:58.26	110.84	48.98	-49.5	-65.7	3.8	1.49e+00	0	40	104	0	71	22142
2026-01-16 09:32:59.26	110.39	49.21	-49.7	-65.7	3.8	1.49e+00	0	40	104	0	71	22136
2026-01-16 09:33:00.26	109.95	49.44	-49.8	-65.7	3.8	1.49e+00	0	40	104	0	71	22191
2026-01-16 09:33:01.25	109.50	49.67	-50.3	-65.9	3.8	1.49e+00	0	40	104	0	71	22548
2026-01-16 09:33:02.25	109.04	49.91	-50.3	-65.8	3.8	1.49e+00	0	40	104	0	71	22456
2026-01-16 09:33:03.25	108.57	50.14	-50.3	-65.8	3.8	1.49e+00	0	40	104	0	71	22412
2026-01-16 09:33:04.24	108.10	50.36	-50.3	-65.8	3.8	1.49e+00	0	40	104	0	71	22460
2026-01-16 09:33:05.24	107.61	50.59	-50.3	-65.9	3.8	1.49e+00	0	40	104	0	71	22536
2026-01-16 09:33:06.24	107.12	50.82	-50.3	-65.8	3.8	1.49e+00	0	40	104	0	71	22517
2026-01-16 09:33:07.23	106.63	51.05	-50.3	-65.8	3.8	1.49e+00	0	40	104	0	71	22434
2026-01-16 09:33:08.24	106.12	51.28	-50.3	-65.8	3.8	1.49e+00	0	40	104	0	71	22456
2026-01-16 09:33:09.23	105.61	51.50	-50.3	-65.8	3.8	1.49e+00	0	40	104	0	71	22445
2026-01-16 09:33:10.23	105.09	51.72	-50.3	-65.8	3.8	1.49e+00	0	40	104	0	71	22479
2026-01-16 09:33:11.23	104.56	51.94	-50.3	-65.8	3.8	1.49e+00	0	40	104	0	71	22370
2026-01-16 09:33:12.23	104.03	52.16	-50.3	-65.8	3.8	1.49e+00	0	40	104	0	71	22425
2026-01-16 09:33:13.22	103.49	52.38	-50.3	-65.8	3.8	1.49e+00	0	40	104	0	71	22408
2026-01-16 09:33:14.22	102.93	52.60	-50.3	-65.8	3.8	1.49e+00	0	40	104	0	71	22464
2026-01-16 09:33:15.22	102.37	52.81	-50.3	-65.8	3.8	1.49e+00	0	40	104	0	71	22507
2026-01-16 09:33:16.22	101.80	53.02	-50.3	-65.8	3.8	1.49e+00	0	40	104	0	71	22519
2026-01-16 09:33:17.21	101.23	53.23	-50.3	-65.8	3.8	1.49e+00	0	40	104	0	71	22447
2026-01-16 09:33:18.21	100.65	53.44	-50.3	-65.9	3.8	1.49e+00	0	40	104	0	71	22522
2026-01-16 09:33:19.21	100.05	53.65	-50.3	-65.9	3.8	1.49e+00	0	40	104	0	71	22538
2026-01-16 09:33:20.21	99.45	53.85	-50.3	-65.8	3.8	1.49e+00	0	40	104	0	71	22407
2026-01-16 09:33:21.20	98.85	54.05	-50.3	-65.8	3.8	1.49e+00	0	40	104	0	71	22415
2026-01-16 09:33:22.20	98.23	54.25	-50.3	-65.8	3.8	1.49e+00	0	40	104	0	71	22455
2026-01-16 09:33:23.20	97.60	54.45	-50.3	-65.8	3.8	1.49e+00	0	40	104	0	71	22457
2026-01-16 09:33:24.20	96.96	54.64	-50.3	-65.8	3.8	1.49e+00	0	40	104	0	71	22468
2026-01-16 09:33:25.20	96.31	54.83	-50.3	-65.8	3.8	1.49e+00	0	40	104	0	71	22468
2026-01-16 09:33:26.19	95.67	55.02	-50.3	-65.9	3.8	1.49e+00	0	40	104	0	71	22543
2026-01-16 09:33:27.19	95.00	55.20	-50.3	-65.8	3.8	1.49e+00	0	40	104	0	71	22470
2026-01-16 09:33:28.18	94.34	55.38	-50.3	-65.8	3.8	1.49e+00	0	41	104	0	71	22440
2026-01-16 09:33:29.18	93.66	55.56	-50.3	-65.8	3.8	1.49e+00	0	40	104	0	71	22466
2026-01-16 09:33:30.18	92.97	55.74	-50.3	-65.8	3.8	1.49e+00	0	40	104	0	71	22519
2026-01-16 09:33:31.18	92.27	55.91	-50.3	-65.8	3.8	1.49e+00	0	40	104	0	71	22485
2026-01-16 09:33:32.18	91.57	56.07	-50.3	-65.9	3.8	1.49e+00	0	40	104	0	71	22556
2026-01-16 09:33:33.18	90.85	56.24	-50.3	-65.9	3.8	1.49e+00	0	40	104	0	71	22561
2026-01-16 09:33:34.17	90.14	56.40	-50.3	-65.8	3.8	1.49e+00	0	40	104	0	71	22419
2026-01-16 09:33:35.17	89.41	56.55	-50.3	-65.8	3.8	1.49e+00	0	40	104	0	71	22455
2026-01-16 09:33:36.17	88.67	56.70	-50.3	-65.8	3.8	1.49e+00	0	40	104	0	71	22445
2026-01-16 09:33:37.17	87.92	56.85	-50.3	-65.8	3.8	1.49e+00	0	40	104	0	71	22449
2026-01-16 09:33:38.17	87.17	56.99	-50.3	-65.8	3.8	1.49e+00	0	40	104	0	71	22395
2026-01-16 09:33:39.16	86.41	57.13	-50.3	-65.8	3.8	1.49e+00	0	40	104	0	71	22465
2026-01-16 09:33:40.16	85.64	57.26	-50.3	-65.8	3.8	1.49e+00	0	40	104	0	71	22516
2026-01-16 09:33:41.15	84.87	57.39	-50.3	-65.8	3.8	1.49e+00	0	40	104	0	71	22516
2026-01-16 09:33:42.15	84.09	57.52	-50.3	-65.8	3.8	1.49e+00	0	40	104	0	71	22472
2026-01-16 09:33:43.14	83.30	57.64	-50.3	-65.9	3.8	1.49e+00	0	40	104	0	71	22545
2026-01-16 09:33:44.14	82.50	57.75	-50.3	-65.8	3.8	1.49e+00	0	40	104	0	71	22513
2026-01-16 09:33:45.14	81.70	57.86	-50.3	-65.9	3.8	1.49e+00	0	40	104	0	71	22577
2026-01-16 09:33:46.14	80.89	57.96	-50.3	-65.9	3.8	1.49e+00	0	40	104	0	71	22535
2026-01-16 09:33:47.14	80.07	58.06	-50.3	-65.9	3.8	1.49e+00	0	40	104	0	71	22568
2026-01-16 09:33:48.13	79.25	58.16	-50.3	-65.8	3.8	1.49e+00	0	40	104	0	71	22510
2026-01-16 09:33:49.13	78.42	58.24	-50.3	-65.9	3.8	1.49e+00	0	40	104	0	71	22545
2026-01-16 09:33:50.12	77.60	58.33	-50.3	-65.8	3.8	1.49e+00	0	40	104	0	71	22467
2026-01-16 09:33:51.12	76.76	58.40	-50.3	-65.9	3.8	1.49e+00	0	40	104	0	71	22551
2026-01-16 09:33:52.11	75.92	58.47	-50.3	-65.9	3.8	1.49e+00	0	40	104	0	71	22541
2026-01-16 09:33:53.11	75.07	58.54	-50.3	-65.9	3.8	1.49e+00	0	40	104	0	71	22612
2026-01-16 09:33:54.11	74.22	58.60	-50.3	-65.9	3.8	1.49e+00	0	40	104	0	71	22572
2026-01-16 09:33:55.10	73.37	58.65	-50.3	-65.8	3.8	1.49e+00	0	41	104	0	71	22450
2026-01-16 09:33:56.10	72.51	58.70	-50.3	-65.8	3.8	1.49e+00	0	40	104	0	71	22486
2026-01-16 09:33:57.11	71.64	58.74	-50.3	-65.9	3.8	1.49e+00	0	40	104	0	71	22524
2026-01-16 09:33:58.10	70.78	58.78	-50.3	-65.8	3.8	1.49e+00	0	40	104	0	71	22432
2026-01-16 09:33:59.10	69.91	58.81	-50.3	-65.9	3.8	1.49e+00	0	40	104	0	71	22569
2026-01-16 09:34:00.10	69.05	58.83	-50.3	-65.9	3.8	1.49e+00	0	40	104	0	71	22596
2026-01-16 09:34:01.09	68.18	58.85	-50.3	-65.9	3.8	1.49e+00	0	40	104	0	71	22551
2026-01-16 09:34:02.10	67.30	58.86	-50.3	-65.9	3.8	1.49e+00	0	41	104	0	71	22571
2026-01-16 09:34:03.09	66.44	58.87	-50.3	-65.8	3.8	1.49e+00	0	40	104	0	71	22420
2026-01-16 09:34:04.09	65.57	58.87	-50.3	-65.9	3.8	1.49e+00	0	40	104	0	71	22707
2026-01-16 09:34:05.08	64.70	58.86	-50.3	-65.8	3.8	1.49e+00	0	40	104	0	71	22465
2026-01-16 09:34:06.08	63.83	58.85	-50.3	-65.8	3.8	1.49e+00	0	40	104	0	71	22466
2026-01-16 09:34:07.08	62.96	58.83	-50.3	-65.9	3.8	1.49e+00	0	40	104	0	71	22575
2026-01-16 09:34:08.08	62.09	58.81	-50.3	-65.8	3.8	1.49e+00	0	40	104	0	71	22454
2026-01-16 09:34:09.08	61.23	58.78	-50.3	-65.9	3.8	1.49e+00	0	40	104	0	71	22532
2026-01-16 09:34:10.07	60.37	58.74	-50.3	-65.8	3.8	1.49e+00	0	41	104	0	71	22492
2026-01-16 09:34:11.07	59.51	58.70	-50.3	-65.8	3.8	1.49e+00	0	40	104	0	71	22435
2026-01-16 09:34:12.07	58.65	58.65	-50.3	-65.9	3.8	1.49e+00	0	40	104	0	71	22586
2026-01-16 09:34:13.07	57.79	58.59	-50.3	-65.8	3.8	1.49e+00	0	40	104	0	71	22513
2026-01-16 09:34:14.07	56.94	58.53	-50.3	-65.9	3.8	1.49e+00	0	40	104	0	71	22525
2026-01-16 09:34:15.06	56.10	58.47	-50.3	-65.8	3.8	1.49e+00	0	41	104	0	71	22512
2026-01-16 09:34:16.06	55.26	58.39	-50.3	-65.8	3.8	1.49e+00	0	41	104	0	71	22454
2026-01-16 09:34:17.06	54.42	58.32	-50.3	-65.9	3.8	1.49e+00	0	40	104	0	71	22574
2026-01-16 09:34:18.06	53.59	58.23	-50.3	-65.8	3.8	1.49e+00	0	41	104	0	71	22485
2026-01-16 09:34:19.06	52.76	58.14	-50.3	-65.8	3.8	1.49e+00	0	40	104	0	71	22479
2026-01-16 09:34:20.06	51.94	58.05	-50.3	-65.8	3.8	1.49e+00	0	40	104	0	71	22511
2026-01-16 09:34:21.06	51.12	57.95	-50.3	-65.9	3.8	1.49e+00	0	40	104	0	71	22549
2026-01-16 09:34:22.05	50.32	57.85	-50.3	-65.9	3.8	1.49e+00	0	40	104	0	71	22566
2026-01-16 09:34:23.04	49.52	57.74	-50.3	-65.8	3.8	1.49e+00	0	41	104	0	71	22476
2026-01-16 09:34:24.04	48.73	57.62	-50.3	-65.8	3.8	1.49e+00	0	40	104	0	71	22504
2026-01-16 09:34:25.04	47.94	57.50	-50.3	-65.8	3.8	1.49e+00	0	40	104	0	71	22493
2026-01-16 09:34:26.04	47.15	57.38	-50.3	-65.8	3.8	1.49e+00	0	41	104	0	71	22508
2026-01-16 09:34:27.04	46.38	57.25	-50.3	-65.9	3.8	1.49e+00	0	40	104	0	71	22530
2026-01-16 09:34:28.04	45.61	57.11	-50.3	-65.8	3.8	1.49e+00	0	40	104	0	71	22478
2026-01-16 09:34:29.04	44.85	56.97	-50.3	-65.9	3.8	1.49e+00	0	41	104	0	71	22574
2026-01-16 09:34:30.03	44.10	56.83	-50.3	-65.9	3.8	1.49e+00	0	41	104	0	71	22522
2026-01-16 09:34:31.03	43.36	56.68	-50.3	-65.8	3.8	1.49e+00	0	41	104	0	71	22499
2026-01-16 09:34:32.03	42.62	56.53	-50.3	-65.9	3.8	1.49e+00	0	40	104	0	71	22555
2026-01-16 09:34:33.03	41.89	56.38	-50.3	-65.8	3.8	1.49e+00	0	40	104	0	71	22520
2026-01-16 09:34:34.02	41.18	56.22	-50.3	-65.8	3.8	1.49e+00	0	41	104	0	71	22513
2026-01-16 09:34:35.02	40.47	56.05	-50.3	-65.8	3.8	1.49e+00	0	41	104	0	71	22512
2026-01-16 09:34:36.02	39.77	55.89	-50.3	-65.9	3.8	1.49e+00	0	40	104	0	71	22544
2026-01-16 09:34:37.02	39.07	55.72	-50.3	-65.9	3.8	1.49e+00	0	41	104	0	71	22657
2026-01-16 09:34:38.02	38.38	55.54	-50.3	-65.9	3.8	1.49e+00	0	41	104	0	71	22534
2026-01-16 09:34:39.02	37.71	55.36	-50.3	-65.8	3.8	1.49e+00	0	41	104	0	71	22516
2026-01-16 09:34:40.01	37.04	55.18	-50.3	-65.9	3.8	1.49e+00	0	40	104	0	71	22554
2026-01-16 09:34:41.01	36.38	55.00	-50.3	-65.8	3.8	1.49e+00	0	41	104	0	71	22459
2026-01-16 09:34:42.01	35.73	54.81	-50.3	-65.8	3.8	1.49e+00	0	41	104	0	71	22515
2026-01-16 09:34:43.00	35.10	54.62	-50.3	-65.9	3.8	1.49e+00	0	40	104	0	71	22592
2026-01-16 09:34:44.00	34.46	54.43	-50.3	-65.9	3.8	1.49e+00	0	40	104	0	71	22521
2026-01-16 09:34:44.99	33.84	54.23	-50.3	-65.8	3.8	1.49e+00	0	40	104	0	71	22413
2026-01-16 09:34:45.99	33.22	54.03	-50.3	-65.9	3.8	1.49e+00	0	40	104	0	71	22523
2026-01-16 09:34:46.99	32.62	53.83	-50.3	-65.9	3.8	1.49e+00	0	40	104	0	71	22571
2026-01-16 09:34:47.99	32.01	53.63	-50.3	-65.9	3.8	1.49e+00	0	40	104	0	71	22555
2026-01-16 09:34:48.99	31.42	53.42	-50.3	-65.9	3.8	1.49e+00	0	41	104	0	71	22606
2026-01-16 09:34:49.99	30.84	53.21	-50.3	-65.8	3.8	1.49e+00	0	40	104	0	71	22501
2026-01-16 09:34:50.99	30.27	53.00	-50.3	-65.9	3.8	1.49e+00	0	41	104	0	71	22625
2026-01-16 09:34:51.99	29.70	52.79	-50.3	-65.9	3.8	1.49e+00	0	41	104	0	71	22534
2026-01-16 09:34:52.98	29.15	52.58	-50.6	-65.9	3.8	1.49e+00	0	41	104	0	71	22752
2026-01-16 09:34:53.99	28.59	52.36	-50.7	-66.0	3.8	1.49e+00	0	41	104	0	71	22841
2026-01-16 09:34:54.98	28.05	52.14	-50.6	-66.0	3.8	1.49e+00	0	40	104	0	72	21530
2026-01-16 09:34:55.98	27.52	51.92	-50.7	-66.0	3.8	1.49e+00	0	41	104	0	72	21598
2026-01-16 09:34:56.98	26.99	51.70	-50.6	-66.0	3.8	1.49e+00	0	41	104	0	72	21691
2026-01-16 09:34:57.97	26.48	51.48	-50.8	-66.0	3.8	1.49e+00	0	40	104	0	72	21602
2026-01-16 09:34:58.97	25.97	51.26	-50.8	-66.0	3.8	1.49e+00	0	41	104	0	72	21531
2026-01-16 09:34:59.97	25.47	51.03	-50.8	-66.0	3.8	1.49e+00	0	40	104	0	72	21550
2026-01-16 09:35:00.97	24.97	50.81	-50.8	-65.9	3.8	1.49e+00	0	41	104	0	72	21491
2026-01-16 09:35:01.96	24.49	50.58	-50.6	-65.9	3.8	1.49e+00	0	40	104	0	72	21456
2026-01-16 09:35:02.96	24.01	50.35	-50.7	-65.9	3.8	1.49e+00	0	40	104	0	72	21314
2026-01-16 09:35:03.95	23.54	50.13	-50.6	-65.9	3.8	1.49e+00	0	41	104	0	72	21451
2026-01-16 09:35:04.95	23.07	49.90	-50.6	-64.5	3.8	1.49e+00	0	41	104	0	72	18300
2026-01-16 09:35:05.95	22.61	49.66	-50.5	-64.8	3.8	1.48e+00	0	41	104	0	72	18937
2026-01-16 09:35:06.94	22.16	49.43	-50.6	-65.2	3.8	1.49e+00	0	40	104	0	72	19735
2026-01-16 09:35:07.94	21.72	49.20	-45.7	-48.9	15.1	1.48e+00	0	40	104	0	63	5099
2026-01-16 09:35:08.94	21.28	48.97	-50.2	-62.0	4.4	8.04e-04	0	41	0	1048576	71	14486
2026-01-16 09:35:09.93	20.85	48.74	-47.1	-51.2	13.4	7.62e-04	0	41	0	2097152	66	5540
2026-01-16 09:35:10.92	20.43	48.50	-48.3	-53.6	10.9	8.30e-06	0	41	0	4194304	67	6928
2026-01-16 09:35:11.92	20.01	48.27	-46.4	-50.0	14.6	2.67e-04	0	40	0	6291456	64	5406
2026-01-16 09:35:12.92	19.60	48.03	-46.4	-50.0	14.6	7.00e-07	0	40	0	8388608	64	5460
2026-01-16 09:35:13.91	19.20	47.80	-46.4	-50.1	14.5	7.00e-07	0	41	0	9437184	64	5495
2026-01-16 09:35:14.91	18.80	47.57	-46.4	-50.1	14.5	0.00e+00	0	41	0	11534336	64	5520
2026-01-16 09:35:15.91	18.40	47.33	-46.3	-49.9	14.6	0.00e+00	0	41	0	13631488	64	5377
2026-01-16 09:35:16.90	18.02	47.10	-46.1	-49.5	15.1	0.00e+00	0	41	0	15728640	64	5148
2026-01-16 09:35:17.90	17.64	46.86	-46.0	-49.3	15.3	0.00e+00	0	40	0	16777216	63	5281
2026-01-16 09:35:18.90	17.26	46.62	-45.8	-48.9	15.7	0.00e+00	0	41	0	18874368	63	5076
2026-01-16 09:35:19.90	16.89	46.39	-45.7	-48.9	15.8	0.00e+00	0	40	0	20971520	63	5070
2026-01-16 09:35:20.89	16.53	46.15	-45.6	-48.7	15.9	0.00e+00	0	40	0	23068672	63	4976
2026-01-16 09:35:21.89	16.17	45.92	-45.5	-48.5	16.1	0.00e+00	0	41	0	25165824	63	4868
2026-01-16 09:35:22.89	15.81	45.68	-45.4	-48.4	16.3	0.00e+00	0	40	0	26214400	62	5069
2026-01-16 09:35:23.88	15.47	45.45	-45.4	-48.5	16.2	0.00e+00	0	41	0	28311552	62	5115
2026-01-16 09:35:24.88	15.12	45.21	-45.2	-48.2	16.4	0.00e+00	0	41	0	30408704	62	4956
2026-01-16 09:35:25.88	14.78	44.98	-45.1	-48.0	16.6	0.00e+00	0	41	0	32505856	62	4844
2026-01-16 09:35:26.89	14.45	44.74	-45.0	-47.9	16.7	0.00e+00	0	41	0	33554432	61	5098
2026-01-16 09:35:27.88	14.12	44.51	-45.2	-48.3	16.3	0.00e+00	0	40	0	35651584	61	5281
2026-01-16 09:35:28.88	13.80	44.27	-45.4	-48.5	16.1	0.00e+00	0	41	0	37748736	61	5424
2026-01-16 09:35:29.88	13.48	44.04	-45.1	-48.0	16.6	0.00e+00	0	40	0	39845888	61	5124
2026-01-16 09:35:30.88	13.16	43.81	-44.7	-47.5	17.1	0.00e+00	0	41	0	41943040	61	4867
2026-01-16 09:35:31.88	12.85	43.57	-44.7	-47.5	17.0	0.00e+00	0	40	0	42991616	61	4864
2026-01-16 09:35:32.87	12.55	43.34	-44.8	-47.6	17.0	0.00e+00	0	40	0	45088768	61	4883
2026-01-16 09:35:33.87	12.25	43.11	-45.0	-47.9	16.7	0.00e+00	0	41	0	47185920	61	5071
2026-01-16 09:35:34.87	11.95	42.88	-45.2	-48.3	16.3	0.00e+00	0	40	0	49283072	61	5312
2026-01-16 09:35:35.87	11.66	42.65	-45.5	-48.7	15.9	0.00e+00	0	41	0	51380224	61	5543
2026-01-16 09:35:36.87	11.37	42.42	-45.4	-48.6	16.0	0.00e+00	0	40	0	52428800	61	5473
2026-01-16 09:35:37.87	11.09	42.19	-45.4	-48.6	16.0	0.00e+00	0	41	0	54525952	61	5509
2026-01-16 09:35:38.87	10.81	41.96	-45.3	-48.5	16.1	0.00e+00	0	40	0	56623104	61	5420
2026-01-16 09:35:39.87	10.53	41.73	-45.5	-48.7	15.9	0.00e+00	0	41	0	58720256	61	5548
2026-01-16 09:35:40.86	10.26	41.51	-45.7	-48.9	15.7	0.00e+00	0	41	0	59768832	62	5373
2026-01-16 09:35:41.86	9.99	41.28	-45.9	-49.2	15.4	0.00e+00	0	41	0	61865984	62	5578
2026-01-16 09:35:42.86	9.73	41.05	-46.0	-49.3	15.3	0.00e+00	0	40	0	63963136	62	5639
2026-01-16 09:35:43.86	9.47	40.83	-46.1	-49.5	15.1	0.00e+00	0	41	0	66060288	62	5741
2026-01-16 09:35:44.86	9.21	40.60	-46.3	-49.8	14.8	0.00e+00	0	41	0	68157440	63	5631
2026-01-16 09:35:45.86	8.96	40.38	-46.6	-50.4	14.1	0.00e+00	0	41	0	69206016	64	5689
2026-01-16 09:35:46.85	8.71	40.16	-46.6	-50.3	14.0	1.50e-06	0	41	0	71303168	64	5623
2026-01-16 09:35:47.85	8.46	39.93	-46.4	-50.0	14.4	7.00e-07	0	41	0	73400320	64	5457
2026-01-16 09:35:48.85	8.22	39.71	-46.0	-49.4	15.1	0.00e+00	0	41	0	75497472	64	5044
2026-01-16 09:35:49.85	7.98	39.49	-46.1	-49.5	15.1	0.00e+00	0	41	0	77594624	63	5407
2026-01-16 09:35:50.84	7.75	39.27	-45.9	-49.3	15.3	0.00e+00	0	41	0	78643200	63	5295
2026-01-16 09:35:51.84	7.51	39.05	-46.2	-49.7	14.9	0.00e+00	0	41	0	80740352	63	5585
2026-01-16 09:35:52.84	7.28	38.84	-46.4	-50.1	14.5	7.00e-07	0	41	0	82837504	63	5824
2026-01-16 09:35:53.84	7.06	38.62	-46.7	-50.6	13.9	3.00e-06	0	41	0	84934656	64	5810
2026-01-16 09:35:54.84	6.83	38.40	-46.8	-50.8	13.6	4.50e-06	0	41	0	85983232	64	5935
2026-01-16 09:35:55.83	6.61	38.19	-46.9	-50.8	13.7	4.50e-06	0	41	0	88080384	64	5971
2026-01-16 09:35:56.83	6.39	37.97	-46.8	-50.8	13.7	1.29e-05	0	40	0	90177536	64	5926
2026-01-16 09:35:57.83	6.18	37.76	-47.0	-51.1	13.4	1.22e-05	0	41	0	92274688	64	6144
2026-01-16 09:35:58.83	5.97	37.55	-46.9	-50.9	13.5	1.75e-05	0	40	0	94371840	64	6030
2026-01-16 09:35:59.82	5.76	37.34	-46.9	-50.9	13.6	1.06e-05	0	41	0	95420416	64	6012
2026-01-16 09:36:00.82	5.55	37.12	-47.0	-51.1	13.4	1.67e-05	0	41	0	97517568	64	6144
2026-01-16 09:36:01.82	5.35	36.91	-46.8	-50.8	13.7	6.80e-06	0	41	0	99614720	64	5957
2026-01-16 09:36:02.82	5.15	36.70	-46.7	-50.7	13.7	2.20e-06	0	41	0	101711872	64	5885
2026-01-16 09:36:03.81	4.95	36.50	-46.6	-50.5	14.0	4.50e-06	0	41	0	102760448	64	5779
2026-01-16 09:36:04.81	4.75	36.29	-46.5	-50.5	14.0	0.00e+00	0	41	0	104857600	64	5741
2026-01-16 09:36:05.81	4.56	36.08	-46.2	-50.1	14.5	1.50e-06	0	41	0	106954752	64	5488
2026-01-16 09:36:06.81	4.37	35.88	-46.0	-49.7	14.8	0.00e+00	0	41	0	109051904	63	5587
2026-01-16 09:36:07.80	4.18	35.68	-45.8	-49.4	15.2	0.00e+00	0	41	0	111149056	63	5359
2026-01-16 09:36:08.79	4.00	35.47	-45.8	-49.4	15.1	0.00e+00	0	40	0	112197632	63	5397
2026-01-16 09:36:09.79	3.81	35.27	-45.8	-49.3	15.3	0.00e+00	0	41	0	114294784	63	5296
2026-01-16 09:36:10.78	3.63	35.07	-45.9	-49.5	15.0	0.00e+00	0	41	0	116391936	63	5425
2026-01-16 09:36:11.78	3.45	34.87	-45.9	-49.4	15.2	0.00e+00	0	40	0	118489088	63	5343
2026-01-16 09:36:12.78	3.28	34.67	-46.0	-49.4	15.1	0.00e+00	0	41	0	120586240	63	5394
2026-01-16 09:36:13.77	3.10	34.47	-45.9	-49.2	15.4	0.00e+00	0	41	0	121634816	63	5248
2026-01-16 09:36:14.77	2.93	34.28	-45.9	-49.2	15.3	0.00e+00	0	41	0	123731968	63	5251
2026-01-16 09:36:15.77	2.76	34.08	-45.7	-48.9	15.6	7.00e-07	0	41	0	125829120	63	5087
2026-01-16 09:36:16.77	2.59	33.88	-45.6	-48.8	15.7	0.00e+00	0	41	0	127926272	63	5010
2026-01-16 09:36:17.77	2.42	33.69	-45.5	-48.7	15.9	0.00e+00	0	41	0	130023424	63	4945
2026-01-16 09:36:18.77	2.26	33.49	-45.5	-48.7	15.9	0.00e+00	0	41	0	131072000	63	4943
2026-01-16 09:36:19.77	2.09	33.30	-45.6	-48.8	15.7	0.00e+00	0	40	0	133169152	63	5016
2026-01-16 09:36:20.76	1.94	33.11	-45.7	-48.8	15.7	0.00e+00	0	41	0	135266304	63	5037
2026-01-16 09:36:21.76	1.78	32.92	-45.7	-48.9	15.7	0.00e+00	0	41	0	137363456	63	5073
2026-01-16 09:36:22.76	1.62	32.73	-45.7	-49.0	15.6	0.00e+00	0	41	0	138412032	63	5159
2026-01-16 09:36:23.76	1.46	32.54	-45.6	-48.9	15.7	0.00e+00	0	41	0	140509184	63	5064
2026-01-16 09:36:24.75	1.31	32.35	-45.4	-48.7	15.9	0.00e+00	0	41	0	142606336	62	5237
2026-01-16 09:36:25.75	1.16	32.17	-45.4	-48.6	15.9	0.00e+00	0	41	0	144703488	62	5205
2026-01-16 09:36:26.75	1.01	31.98	-45.3	-48.5	16.1	0.00e+00	0	41	0	146800640	62	5142
2026-01-16 09:36:27.75	0.86	31.79	-45.4	-48.6	16.0	0.00e+00	0	41	0	147849216	62	5162
2026-01-16 09:36:28.74	0.72	31.61	-45.5	-48.7	15.9	0.00e+00	0	40	0	149946368	62	5260
2026-01-16 09:36:29.74	0.57	31.43	-45.7	-48.9	15.7	0.00e+00	0	41	0	152043520	62	5374
2026-01-16 09:36:30.74	0.43	31.24	-46.0	-49.3	15.3	0.00e+00	0	41	0	154140672	62	5631
2026-01-16 09:36:31.74	0.29	31.06	-46.1	-49.5	15.0	7.00e-07	0	41	0	155189248	62	5780
2026-01-16 09:36:32.73	0.15	30.88	-46.2	-49.7	14.8	0.00e+00	0	40	0	157286400	63	5582
2026-01-16 09:36:33.73	0.01	30.70	-46.3	-49.9	14.7	1.50e-06	0	40	0	159383552	63	5706
2026-01-16 09:36:34.73	359.88	30.52	-46.3	-49.9	14.7	7.00e-07	0	41	0	161480704	63	5657
2026-01-16 09:36:35.72	359.74	30.35	-46.2	-49.6	14.9	0.00e+00	0	41	0	163577856	63	5517
2026-01-16 09:36:36.72	359.61	30.17	-46.0	-49.3	15.2	0.00e+00	0	41	0	164626432	63	5310
2026-01-16 09:36:37.72	359.48	29.99	-45.9	-49.2	15.3	0.00e+00	0	41	0	166723584	63	5248
2026-01-16 09:36:38.72	359.35	29.82	-45.8	-49.0	15.5	0.00e+00	0	41	0	168820736	63	5127
2026-01-16 09:36:39.71	359.22	29.65	-45.7	-49.0	15.5	0.00e+00	0	41	0	170917888	63	5143
2026-01-16 09:36:40.72	359.09	29.47	-45.5	-48.6	15.9	0.00e+00	0	40	0	173015040	63	4915
2026-01-16 09:36:41.72	358.96	29.30	-45.5	-48.7	15.8	0.00e+00	0	41	0	174063616	62	5267
2026-01-16 09:36:42.72	358.84	29.13	-45.5	-48.8	15.7	0.00e+00	0	41	0	176160768	62	5283
2026-01-16 09:36:43.72	358.71	28.96	-45.7	-49.0	15.6	0.00e+00	0	41	0	178257920	62	5414
2026-01-16 09:36:44.71	358.59	28.79	-45.8	-49.1	15.5	0.00e+00	0	41	0	180355072	62	5479
2026-01-16 09:36:45.71	358.47	28.62	-45.8	-49.1	15.5	0.00e+00	0	41	0	181403648	62	5480
2026-01-16 09:36:46.71	358.35	28.45	-45.9	-49.1	15.5	0.00e+00	0	41	0	183500800	62	5488
2026-01-16 09:36:47.71	358.23	28.28	-45.8	-49.0	15.5	0.00e+00	0	41	0	185597952	62	5448
2026-01-16 09:36:48.70	358.12	28.12	-45.8	-49.0	15.5	0.00e+00	0	41	0	187695104	62	5417
2026-01-16 09:36:49.70	358.00	27.95	-45.8	-49.0	15.6	0.00e+00	0	41	0	189792256	62	5437
2026-01-16 09:36:50.69	357.89	27.79	-45.7	-48.9	15.7	0.00e+00	0	41	0	190840832	62	5393
2026-01-16 09:36:51.69	357.78	27.62	-45.7	-49.0	15.6	0.00e+00	0	41	0	192937984	62	5420
2026-01-16 09:36:52.69	357.66	27.46	-45.6	-48.9	15.7	0.00e+00	0	41	0	195035136	62	5343
2026-01-16 09:36:53.69	357.55	27.30	-45.7	-48.9	15.6	0.00e+00	0	41	0	197132288	62	5370
2026-01-16 09:36:54.69	357.44	27.14	-45.7	-48.9	15.7	0.00e+00	0	41	0	198180864	62	5358
2026-01-16 09:36:55.68	357.34	26.98	-45.7	-48.9	15.6	0.00e+00	0	41	0	200278016	62	5385
2026-01-16 09:36:56.67	357.23	26.82	-45.7	-48.9	15.7	0.00e+00	0	41	0	202375168	62	5345
2026-01-16 09:36:57.67	357.12	26.66	-45.7	-48.9	15.6	0.00e+00	0	41	0	204472320	62	5396
2026-01-16 09:36:58.67	357.02	26.50	-45.7	-48.9	15.7	0.00e+00	0	41	0	206569472	62	5362
2026-01-16 09:36:59.66	356.91	26.35	-45.7	-48.9	15.6	0.00e+00	0	41	0	207618048	62	5389
2026-01-16 09:37:00.66	356.81	26.19	-45.6	-48.9	15.6	0.00e+00	0	41	0	209715200	62	5355
2026-01-16 09:37:01.66	356.71	26.04	-45.4	-48.6	16.0	0.00e+00	0	41	0	211812352	62	5161
2026-01-16 09:37:02.66	356.61	25.88	-45.4	-48.5	16.0	0.00e+00	0	40	0	213909504	62	5150
2026-01-16 09:37:03.66	356.51	25.73	-45.3	-48.4	16.1	0.00e+00	0	41	0	214958080	62	5057
2026-01-16 09:37:04.65	356.41	25.58	-45.3	-48.4	16.1	0.00e+00	0	41	0	217055232	62	5077
2026-01-16 09:37:05.65	356.31	25.42	-45.3	-48.4	16.1	0.00e+00	0	40	0	219152384	62	5088
2026-01-16 09:37:06.65	356.21	25.27	-45.2	-48.3	16.2	0.00e+00	0	41	0	221249536	62	5005
2026-01-16 09:37:07.65	356.12	25.12	-45.3	-48.4	16.1	0.00e+00	0	41	0	223346688	62	5053
2026-01-16 09:37:08.64	356.02	24.97	-45.3	-48.4	16.2	0.00e+00	0	41	0	224395264	62	5058
2026-01-16 09:37:09.64	355.93	24.82	-45.3	-48.4	16.1	0.00e+00	0	41	0	226492416	62	5066
2026-01-16 09:37:10.64	355.83	24.67	-45.4	-48.5	16.1	0.00e+00	0	41	0	228589568	62	5122
2026-01-16 09:37:11.63	355.74	24.53	-45.4	-48.6	15.9	0.00e+00	0	40	0	230686720	62	5187
2026-01-16 09:37:12.63	355.65	24.38	-45.4	-48.6	15.9	0.00e+00	0	41	0	232783872	62	5195
2026-01-16 09:37:13.63	355.56	24.23	-45.4	-48.7	15.9	0.00e+00	0	41	0	233832448	62	5228
2026-01-16 09:37:14.62	355.47	24.09	-45.4	-48.8	15.8	0.00e+00	0	41	0	235929600	62	5286
2026-01-16 09:37:15.62	355.38	23.94	-45.2	-48.5	16.0	0.00e+00	0	41	0	238026752	62	5156
2026-01-16 09:37:16.62	355.29	23.80	-45.3	-48.7	15.8	0.00e+00	0	41	0	240123904	62	5262
2026-01-16 09:37:17.62	355.21	23.66	-45.2	-48.5	16.0	0.00e+00	0	41	0	242221056	62	5129
2026-01-16 09:37:18.62	355.12	23.51	-45.2	-48.5	16.0	0.00e+00	0	41	0	243269632	62	5128
2026-01-16 09:37:19.62	355.03	23.37	-45.1	-48.3	16.2	0.00e+00	0	41	0	245366784	62	5017
2026-01-16 09:37:20.62	354.95	23.23	-45.2	-48.3	16.2	0.00e+00	0	41	0	247463936	62	4997
2026-01-16 09:37:21.61	354.86	23.09	-45.1	-48.1	16.4	0.00e+00	0	41	0	249561088	62	4909
2026-01-16 09:37:22.61	354.78	22.95	-45.1	-48.1	16.4	0.00e+00	0	41	0	250609664	62	4903
2026-01-16 09:37:23.61	354.70	22.81	-45.1	-48.1	16.5	0.00e+00	0	41	0	252706816	62	4896
2026-01-16 09:37:24.60	354.62	22.67	-45.0	-48.1	16.5	0.00e+00	0	41	0	254803968	62	4871
2026-01-16 09:37:25.60	354.54	22.54	-45.1	-48.2	16.3	0.00e+00	0	41	0	256901120	62	4929
2026-01-16 09:37:26.60	354.46	22.40	-45.0	-48.1	16.4	0.00e+00	0	41	0	258998272	62	4896
2026-01-16 09:37:27.60	354.38	22.26	-45.0	-48.0	16.4	0.00e+00	0	41	0	260046848	61	5156
2026-01-16 09:37:28.59	354.30	22.13	-44.9	-48.0	16.5	0.00e+00	0	41	0	262144000	61	5116
2026-01-16 09:37:29.59	354.22	21.99	-44.9	-48.0	16.5	0.00e+00	0	41	0	264241152	61	5113
2026-01-16 09:37:30.59	354.14	21.86	-44.8	-47.8	16.7	0.00e+00	0	41	0	266338304	61	5036
2026-01-16 09:37:31.59	354.07	21.72	-44.8	-47.7	16.7	0.00e+00	0	41	0	267386880	61	4976
2026-01-16 09:37:32.59	353.99	21.59	-44.7	-47.7	16.8	0.00e+00	0	41	0	269484032	61	4945
2026-01-16 09:37:33.59	353.91	21.46	-44.7	-47.6	16.9	0.00e+00	0	41	0	271581184	61	4883
2026-01-16 09:37:34.59	353.84	21.33	-44.7	-47.6	16.9	0.00e+00	0	41	0	273678336	61	4886
2026-01-16 09:37:35.58	353.77	21.20	-44.6	-47.5	17.0	0.00e+00	0	41	0	275775488	61	4840
2026-01-16 09:37:36.58	353.69	21.06	-44.4	-47.2	17.2	0.00e+00	0	41	0	276824064	60	4966
2026-01-16 09:37:37.58	353.62	20.93	-44.4	-47.2	17.2	0.00e+00	0	41	0	278921216	60	4963
2026-01-16 09:37:38.58	353.55	20.81	-44.4	-47.2	17.2	0.00e+00	0	41	0	281018368	60	4970
2026-01-16 09:37:39.57	353.48	20.68	-44.4	-47.1	17.4	0.00e+00	0	41	0	283115520	60	4886
2026-01-16 09:37:40.57	353.41	20.55	-44.4	-47.1	17.4	0.00e+00	0	41	0	285212672	60	4871
2026-01-16 09:37:41.57	353.34	20.42	-44.4	-47.2	17.3	0.00e+00	0	41	0	286261248	60	4950
2026-01-16 09:37:42.57	353.27	20.29	-44.4	-47.1	17.4	0.00e+00	0	41	0	288358400	60	4896
2026-01-16 09:37:43.57	353.20	20.17	-44.5	-47.2	17.2	0.00e+00	0	41	0	290455552	60	4967
2026-01-16 09:37:44.57	353.13	20.04	-44.5	-47.2	17.2	0.00e+00	0	41	0	292552704	60	4983
2026-01-16 09:37:45.57	353.06	19.92	-44.5	-47.4	17.1	0.00e+00	0	41	0	294649856	60	5065
2026-01-16 09:37:46.57	352.99	19.79	-44.5	-47.3	17.1	0.00e+00	0	41	0	295698432	60	5040
2026-01-16 09:37:47.57	352.93	19.67	-44.6	-47.6	16.9	0.00e+00	0	41	0	297795584	60	5177
2026-01-16 09:37:48.56	352.86	19.55	-44.6	-47.5	16.9	0.00e+00	0	41	0	299892736	60	5140
2026-01-16 09:37:49.56	352.80	19.42	-44.4	-47.4	17.0	0.00e+00	0	41	0	301989888	60	5076
2026-01-16 09:37:50.56	352.73	19.30	-44.3	-47.3	17.2	0.00e+00	0	41	0	303038464	60	5010
2026-01-16 09:37:51.55	352.67	19.18	-44.4	-47.4	17.1	0.00e+00	0	41	0	305135616	60	5058
2026-01-16 09:37:52.55	352.60	19.06	-44.3	-47.4	17.1	0.00e+00	0	41	0	307232768	60	5057
2026-01-16 09:37:53.54	352.54	18.94	-44.4	-47.5	17.0	0.00e+00	0	41	0	309329920	60	5119
2026-01-16 09:37:54.54	352.48	18.82	-44.5	-47.5	16.9	0.00e+00	0	41	0	311427072	60	5138
2026-01-16 09:37:55.54	352.42	18.70	-44.4	-47.5	16.9	0.00e+00	0	41	0	312475648	60	5139
2026-01-16 09:37:56.54	352.35	18.58	-44.5	-47.7	16.8	0.00e+00	0	41	0	314572800	60	5240
2026-01-16 09:37:57.54	352.29	18.46	-44.4	-47.4	17.0	0.00e+00	0	41	0	316669952	60	5084
2026-01-16 09:37:58.53	352.23	18.34	-44.3	-47.4	17.0	0.00e+00	0	41	0	318767104	60	5070
2026-01-16 09:37:59.53	352.17	18.23	-44.3	-47.5	17.0	0.00e+00	0	41	0	319815680	60	5123
2026-01-16 09:38:00.53	352.11	18.11	-44.4	-47.5	17.0	0.00e+00	0	41	0	321912832	60	5133
2026-01-16 09:38:01.53	352.05	17.99	-44.3	-47.5	17.0	0.00e+00	0	41	0	324009984	60	5109
2026-01-16 09:38:02.52	351.99	17.88	-44.3	-47.4	17.0	0.00e+00	0	41	0	326107136	60	5065
2026-01-16 09:38:03.52	351.94	17.76	-44.3	-47.4	17.0	0.00e+00	0	41	0	328204288	60	5073
2026-01-16 09:38:04.52	351.88	17.65	-44.2	-47.3	17.1	0.00e+00	0	41	0	329252864	60	5015
2026-01-16 09:38:05.52	351.82	17.53	-44.3	-47.3	17.2	0.00e+00	0	41	0	331350016	60	5007
2026-01-16 09:38:06.52	351.76	17.42	-44.4	-47.3	17.1	0.00e+00	0	41	0	333447168	60	5008
2026-01-16 09:38:07.51	351.71	17.31	-44.4	-47.3	17.1	0.00e+00	0	41	0	335544320	60	4994
2026-01-16 09:38:08.51	351.65	17.19	-44.5	-47.4	17.0	0.00e+00	0	41	0	336592896	60	5064
2026-01-16 09:38:09.51	351.60	17.08	-44.4	-47.2	17.2	0.00e+00	0	41	0	338690048	60	4960
2026-01-16 09:38:10.51	351.54	16.97	-44.4	-47.2	17.2	0.00e+00	0	41	0	340787200	60	4976
2026-01-16 09:38:11.51	351.49	16.86	-44.6	-47.4	17.0	0.00e+00	0	41	0	342884352	60	5096
2026-01-16 09:38:12.50	351.43	16.75	-44.5	-47.4	17.1	0.00e+00	0	41	0	344981504	60	5055
2026-01-16 09:38:13.50	351.38	16.64	-44.6	-47.5	16.9	0.00e+00	0	41	0	346030080	60	5146
2026-01-16 09:38:14.50	351.32	16.53	-44.6	-47.6	16.8	0.00e+00	0	41	0	348127232	60	5190
2026-01-16 09:38:15.50	351.27	16.42	-44.6	-47.6	16.8	0.00e+00	0	41	0	350224384	60	5218
2026-01-16 09:38:16.50	351.22	16.31	-44.6	-47.7	16.7	0.00e+00	0	41	0	352321536	60	5271
2026-01-16 09:38:17.49	351.17	16.20	-44.7	-47.9	16.6	0.00e+00	0	41	0	354418688	60	5343
2026-01-16 09:38:18.49	351.12	16.09	-44.7	-47.9	16.5	0.00e+00	0	41	0	355467264	60	5400
2026-01-16 09:38:19.49	351.06	15.99	-44.8	-48.1	16.3	0.00e+00	0	41	0	357564416	60	5516
2026-01-16 09:38:20.49	351.01	15.88	-44.8	-48.1	16.3	0.00e+00	0	41	0	359661568	60	5506
2026-01-16 09:38:21.49	350.96	15.77	-44.9	-48.2	16.2	0.00e+00	0	41	0	361758720	60	5533
2026-01-16 09:38:22.49	350.91	15.66	-44.9	-48.2	16.2	0.00e+00	0	41	0	362807296	60	5569
2026-01-16 09:38:23.49	350.86	15.56	-45.1	-48.4	16.0	0.00e+00	0	41	0	364904448	60	5670
2026-01-16 09:38:24.48	350.81	15.45	-45.0	-48.3	16.2	0.00e+00	0	41	0	367001600	60	5595
2026-01-16 09:38:25.48	350.76	15.35	-45.0	-48.3	16.1	0.00e+00	0	41	0	369098752	60	5648
2026-01-16 09:38:26.48	350.72	15.24	-45.0	-48.3	16.1	0.00e+00	0	41	0	371195904	60	5627
2026-01-16 09:38:27.48	350.67	15.14	-45.1	-48.4	16.0	0.00e+00	0	41	0	372244480	60	5678
2026-01-16 09:38:28.48	350.62	15.04	-45.1	-48.4	16.0	0.00e+00	0	41	0	374341632	60	5715
2026-01-16 09:38:29.48	350.57	14.93	-45.0	-48.4	16.0	0.00e+00	0	41	0	376438784	60	5691
2026-01-16 09:38:30.47	350.52	14.83	-45.0	-48.4	16.0	0.00e+00	0	41	0	378535936	60	5686
2026-01-16 09:38:31.47	350.48	14.73	-44.9	-48.4	16.0	0.00e+00	0	41	0	380633088	60	5684
2026-01-16 09:38:32.47	350.43	14.63	-44.9	-48.4	16.0	0.00e+00	0	41	0	381681664	60	5660
2026-01-16 09:38:33.47	350.38	14.52	-44.8	-48.2	16.2	0.00e+00	0	41	0	383778816	60	5580
2026-01-16 09:38:34.46	350.34	14.42	-44.8	-48.2	16.2	0.00e+00	0	40	0	385875968	60	5579
2026-01-16 09:38:35.47	350.29	14.32	-45.0	-48.3	16.1	0.00e+00	0	40	0	387973120	60	5641
2026-01-16 09:38:36.46	350.25	14.22	-45.0	-48.3	16.0	0.00e+00	0	41	0	389021696	60	5651
2026-01-16 09:38:37.46	350.20	14.12	-45.0	-48.2	16.1	0.00e+00	0	41	0	391118848	60	5586
2026-01-16 09:38:38.46	350.16	14.02	-45.0	-48.3	16.1	0.00e+00	0	40	0	393216000	60	5628
2026-01-16 09:38:39.46	350.11	13.92	-45.0	-48.3	16.1	0.00e+00	0	41	0	395313152	60	5617
2026-01-16 09:38:40.46	350.07	13.82	-45.0	-48.3	16.1	0.00e+00	0	41	0	397410304	60	5620
2026-01-16 09:38:41.46	350.03	13.73	-44.9	-48.3	16.1	0.00e+00	0	41	0	398458880	60	5614
2026-01-16 09:38:42.46	349.98	13.63	-45.0	-48.3	16.1	0.00e+00	0	41	0	400556032	60	5611
2026-01-16 09:38:43.46	349.94	13.53	-45.1	-48.4	16.0	0.00e+00	0	41	0	402653184	60	5721
2026-01-16 09:38:44.45	349.90	13.43	-45.1	-48.2	16.1	0.00e+00	0	41	0	404750336	61	5276
2026-01-16 09:38:45.45	349.86	13.34	-45.1	-48.2	16.2	7.00e-07	0	41	0	406847488	61	5253
2026-01-16 09:38:46.45	349.81	13.24	-45.2	-48.4	16.0	0.00e+00	0	41	0	407896064	61	5362
2026-01-16 09:38:47.45	349.77	13.14	-45.0	-48.4	16.0	0.00e+00	0	41	0	409993216	61	5356
2026-01-16 09:38:48.45	349.73	13.05	-45.0	-48.4	16.0	0.00e+00	0	41	0	412090368	61	5367
2026-01-16 09:38:49.45	349.69	12.95	-44.7	-48.4	16.0	0.00e+00	0	41	0	414187520	61	5374
2026-01-16 09:38:50.45	349.65	12.86	-44.6	-48.4	15.9	0.00e+00	0	41	0	415236096	61	5384
2026-01-16 09:38:51.44	349.61	12.76	-44.6	-48.6	15.8	0.00e+00	0	41	0	417333248	61	5487
2026-01-16 09:38:52.44	349.57	12.67	-44.6	-48.6	15.7	0.00e+00	0	41	0	419430400	61	5514
2026-01-16 09:38:53.44	349.53	12.57	-44.6	-48.8	15.6	0.00e+00	0	41	0	421527552	61	5596
2026-01-16 09:38:54.44	349.49	12.48	-44.6	-48.8	15.6	0.00e+00	0	41	0	423624704	61	5618
2026-01-16 09:38:55.43	349.45	12.39	-44.7	-49.0	15.4	0.00e+00	0	41	0	424673280	61	5739
2026-01-16 09:38:56.43	349.41	12.29	-44.7	-48.9	15.4	0.00e+00	0	41	0	426770432	61	5680
2026-01-16 09:38:57.43	349.37	12.20	-44.8	-48.9	15.4	0.00e+00	0	41	0	428867584	61	5677
2026-01-16 09:38:58.43	349.33	12.11	-44.8	-48.9	15.5	0.00e+00	0	41	0	430964736	61	5671
2026-01-16 09:38:59.42	349.29	12.02	-44.8	-49.0	15.4	0.00e+00	0	41	0	433061888	61	5729
2026-01-16 09:39:00.42	349.26	11.92	-44.9	-49.1	15.2	0.00e+00	0	41	0	434110464	61	5820
2026-01-16 09:39:01.42	349.22	11.83	-45.0	-49.3	15.1	0.00e+00	0	41	0	436207616	61	5928
2026-01-16 09:39:02.42	349.18	11.74	-44.9	-49.1	15.2	7.00e-07	0	41	0	438304768	61	5840
2026-01-16 09:39:03.42	349.14	11.65	-45.0	-49.3	15.0	7.00e-07	0	41	0	440401920	61	5950
2026-01-16 09:39:04.42	349.10	11.56	-44.9	-49.2	15.1	0.00e+00	0	41	0	442499072	61	5889
2026-01-16 09:39:05.42	349.07	11.47	-45.0	-49.4	14.9	0.00e+00	0	41	0	443547648	61	6028
2026-01-16 09:39:06.42	349.03	11.38	-44.9	-49.5	14.8	0.00e+00	0	41	0	445644800	61	6082
2026-01-16 09:39:07.42	349.00	11.29	-44.8	-49.3	14.9	0.00e+00	0	41	0	447741952	61	5957
2026-01-16 09:39:08.41	348.96	11.20	-44.9	-49.4	14.8	0.00e+00	0	41	0	449839104	61	6055
2026-01-16 09:39:09.41	348.92	11.11	-44.9	-49.4	14.8	0.00e+00	0	41	0	450887680	61	6059
2026-01-16 09:39:10.41	348.89	11.02	-44.9	-49.5	14.8	0.00e+00	0	41	0	452984832	61	6068
2026-01-16 09:39:11.41	348.85	10.94	-44.8	-49.3	14.9	0.00e+00	0	41	0	455081984	61	5969
2026-01-16 09:39:12.41	348.82	10.85	-44.8	-49.4	14.8	0.00e+00	0	41	0	457179136	61	6038
2026-01-16 09:39:13.41	348.78	10.76	-44.9	-49.4	14.8	0.00e+00	0	41	0	459276288	61	6048
2026-01-16 09:39:14.41	348.75	10.67	-44.8	-49.4	14.9	0.00e+00	0	41	0	460324864	61	6006
2026-01-16 09:39:15.40	348.71	10.59	-44.8	-49.3	14.9	0.00e+00	0	41	0	462422016	61	5986
2026-01-16 09:39:16.40	348.68	10.50	-44.7	-49.2	15.1	0.00e+00	0	41	0	464519168	61	5877
2026-01-16 09:39:17.39	348.65	10.41	-44.6	-49.4	14.8	0.00e+00	0	41	0	466616320	61	6022
2026-01-16 09:39:18.39	348.61	10.33	-44.4	-49.2	15.0	0.00e+00	0	41	0	467664896	60	6234
2026-01-16 09:39:19.39	348.58	10.24	-44.4	-49.2	15.0	0.00e+00	0	41	0	469762048	60	6243
2026-01-16 09:39:20.39	348.54	10.16	-44.3	-49.4	14.8	0.00e+00	0	41	0	471859200	60	6373
2026-01-16 09:39:21.38	348.51	10.07	-44.3	-49.3	14.9	0.00e+00	0	41	0	473956352	60	6327
2026-01-16 09:39:22.38	348.48	9.99	-44.3	-49.3	15.0	0.00e+00	0	41	0	476053504	60	6289
2026-01-16 09:39:23.38	348.45	9.90	-44.2	-49.2	15.0	0.00e+00	0	41	0	477102080	60	6237
2026-01-16 09:39:24.37	348.41	9.82	-44.3	-49.3	15.0	0.00e+00	0	41	0	479199232	60	6278
2026-01-16 09:39:25.37	348.38	9.73	-44.3	-49.2	15.0	0.00e+00	0	41	0	481296384	60	6241
2026-01-16 09:39:26.37	348.35	9.65	-44.4	-49.2	15.1	0.00e+00	0	41	0	483393536	60	6208
2026-01-16 09:39:27.38	348.32	9.57	-44.5	-49.1	15.1	0.00e+00	0	41	0	485490688	60	6148
2026-01-16 09:39:28.37	348.29	9.48	-44.7	-49.2	15.0	0.00e+00	0	41	0	486539264	60	6250
2026-01-16 09:39:29.37	348.25	9.40	-44.8	-49.3	14.9	0.00e+00	0	41	0	488636416	60	6302
2026-01-16 09:39:30.38	348.22	9.32	-44.9	-49.3	14.8	0.00e+00	0	41	0	490733568	60	6346
2026-01-16 09:39:31.37	348.19	9.23	-44.8	-49.2	14.9	0.00e+00	0	41	0	492830720	60	6263
2026-01-16 09:39:32.37	348.16	9.15	-44.8	-49.2	15.0	0.00e+00	0	41	0	493879296	60	6218
2026-01-16 09:39:33.37	348.13	9.07	-44.7	-49.2	14.9	0.00e+00	0	41	0	495976448	60	6241
2026-01-16 09:39:34.37	348.10	8.99	-44.8	-49.4	14.8	0.00e+00	0	41	0	498073600	60	6398
2026-01-16 09:39:35.37	348.07	8.91	-47.2	-65.2	3.8	1.18e+00	0	41	104	499122176	65	29573
2026-01-16 09:39:36.37	348.04	8.82	-49.4	-65.7	3.8	1.49e+00	0	41	104	499122176	69	24747
2026-01-16 09:39:37.37	348.01	8.74	-48.7	-65.8	3.8	1.49e+00	0	41	104	499122176	69	25099
2026-01-16 09:39:38.37	347.98	8.66	-50.3	-65.9	3.8	1.49e+00	0	41	104	499122176	71	22584
2026-01-16 09:39:39.37	347.95	8.58	-49.9	-65.9	3.8	1.49e+00	0	41	104	499122176	70	24095
2026-01-16 09:39:40.36	347.92	8.50	-50.4	-66.0	3.8	1.49e+00	0	41	104	499122176	71	22801
