passes_logs/2026/01/16/T1/T1__20260116_052046_FENGYUN_3E_rec.log

#Pass ID: 20260116_052046_FENGYUN 3E
#Satellite: FENGYUN 3E
#Configuration: FENGYUN 3E
#almurnet v.1.7.20251203
#Start time: 2026-01-16 05:20:48

#Version: 2.0.20230620
#Station: T1
#Location: 37.570604 lon 55.790049 lat
#TLE: 1 49008U 21062A   26015.49897766  .00000206  00000+0  11779-3 0  9997
#TLE: 2 49008  98.7486  20.6219 0002049 135.8566 224.2775 14.19885576234916

#Time	Az	El	Level	Level2	SNR	BER	BlckErr	Temp	State	Recorded	gain1	gain2
2026-01-16 05:20:48.78	8.00	5.14	-48.3	-60.7	3.8	8.46e-01	0	40	0	0	66	15539
2026-01-16 05:20:49.77	7.93	5.20	-48.4	-60.3	3.8	8.46e-01	0	40	104	0	66	14862
2026-01-16 05:20:50.77	7.87	5.26	-48.4	-60.4	3.8	8.47e-01	0	41	104	0	66	15029
2026-01-16 05:20:51.76	7.80	5.33	-48.4	-60.5	3.8	8.47e-01	0	41	104	0	66	15156
2026-01-16 05:20:52.76	7.73	5.39	-48.4	-60.5	3.8	8.47e-01	0	41	104	0	66	15175
2026-01-16 05:20:53.75	7.66	5.46	-48.4	-60.6	3.8	8.46e-01	0	41	104	0	66	15260
2026-01-16 05:20:54.74	7.60	5.52	-48.4	-60.5	3.8	8.46e-01	0	41	104	0	66	15214
2026-01-16 05:20:55.74	7.53	5.59	-48.4	-60.5	3.8	8.47e-01	0	41	104	0	66	15123
2026-01-16 05:20:56.73	7.46	5.65	-48.4	-60.5	3.8	8.48e-01	0	41	104	0	66	15107
2026-01-16 05:20:57.72	7.39	5.71	-48.4	-60.5	3.8	8.48e-01	0	41	104	0	66	15069
2026-01-16 05:20:58.72	7.32	5.78	-48.4	-60.5	3.8	8.47e-01	0	41	104	0	66	15113
2026-01-16 05:20:59.71	7.25	5.84	-48.4	-60.5	3.8	8.46e-01	0	41	104	0	66	15169
2026-01-16 05:21:00.71	7.18	5.91	-48.4	-60.5	3.8	8.46e-01	0	41	104	0	66	15060
2026-01-16 05:21:01.70	7.11	5.98	-48.4	-60.5	3.8	8.47e-01	0	41	104	0	66	15160
2026-01-16 05:21:02.69	7.04	6.04	-48.4	-60.5	3.8	8.47e-01	0	41	104	0	66	15182
2026-01-16 05:21:03.69	6.97	6.11	-48.4	-60.6	3.8	8.46e-01	0	41	104	0	66	15291
2026-01-16 05:21:04.68	6.90	6.17	-48.4	-60.6	3.8	8.47e-01	0	41	104	0	66	15349
2026-01-16 05:21:05.67	6.82	6.24	-48.4	-60.6	3.8	8.47e-01	0	41	104	0	66	15320
2026-01-16 05:21:06.67	6.75	6.30	-48.4	-60.6	3.8	8.47e-01	0	41	104	0	66	15285
2026-01-16 05:21:07.66	6.68	6.37	-48.4	-60.5	3.8	8.46e-01	0	41	104	0	66	15118
2026-01-16 05:21:08.65	6.61	6.43	-48.4	-60.3	3.8	8.47e-01	0	41	104	0	66	14804
2026-01-16 05:21:09.65	6.53	6.50	-48.4	-60.2	3.8	8.49e-01	0	41	104	0	66	14632
2026-01-16 05:21:10.64	6.46	6.57	-48.3	-60.0	3.8	8.46e-01	0	41	104	0	66	14279
2026-01-16 05:21:11.64	6.39	6.63	-48.3	-59.9	3.8	8.47e-01	0	41	104	0	66	14182
2026-01-16 05:21:12.63	6.31	6.70	-48.3	-59.8	3.8	8.47e-01	0	41	104	0	66	13916
2026-01-16 05:21:13.62	6.24	6.77	-48.3	-59.6	3.8	8.46e-01	0	41	104	0	66	13700
2026-01-16 05:21:14.62	6.16	6.83	-48.3	-59.4	3.8	8.46e-01	0	42	104	0	66	13408
2026-01-16 05:21:15.61	6.09	6.90	-48.3	-59.2	3.8	8.47e-01	0	42	104	0	66	13071
2026-01-16 05:21:16.60	6.01	6.97	-48.2	-59.0	3.8	8.47e-01	0	42	104	0	66	12679
2026-01-16 05:21:17.60	5.93	7.04	-48.2	-58.6	3.9	8.45e-01	0	42	104	0	66	12114
2026-01-16 05:21:18.59	5.86	7.10	-48.2	-58.3	3.9	8.45e-01	0	42	104	0	66	11800
2026-01-16 05:21:19.59	5.78	7.17	-48.2	-58.4	3.8	8.45e-01	0	42	104	0	66	11845
2026-01-16 05:21:20.58	5.70	7.24	-48.2	-58.6	3.8	8.44e-01	0	42	104	0	66	12098
2026-01-16 05:21:21.57	5.63	7.31	-48.2	-58.9	3.9	8.45e-01	0	42	104	0	66	12564
2026-01-16 05:21:22.57	5.55	7.37	-48.3	-59.5	3.8	8.46e-01	0	42	104	0	66	13443
2026-01-16 05:21:23.56	5.47	7.44	-48.3	-60.1	3.8	8.47e-01	0	42	104	0	66	14376
2026-01-16 05:21:24.55	5.39	7.51	-48.4	-60.2	3.8	8.47e-01	0	42	104	0	66	14575
2026-01-16 05:21:25.55	5.31	7.58	-48.3	-59.5	3.8	8.48e-01	0	42	104	0	66	13462
2026-01-16 05:21:26.54	5.23	7.65	-48.1	-58.0	3.9	8.45e-01	0	42	104	0	66	11388
2026-01-16 05:21:27.53	5.15	7.71	-47.9	-56.3	4.4	8.31e-01	0	42	0	0	66	9306
2026-01-16 05:21:28.53	5.07	7.78	-47.6	-54.6	5.3	7.70e-01	0	42	0	0	66	7698
2026-01-16 05:21:29.52	4.99	7.85	-47.2	-53.2	6.3	3.07e-01	0	42	0	3145728	65	6931
2026-01-16 05:21:30.51	4.91	7.92	-46.8	-51.9	7.4	1.34e-01	0	42	0	10485760	64	6322
2026-01-16 05:21:31.51	4.83	7.99	-46.5	-51.0	8.4	6.39e-02	0	42	0	17825792	63	5995
2026-01-16 05:21:32.50	4.75	8.06	-46.0	-49.9	9.6	1.74e-02	0	42	0	25165824	62	5644
2026-01-16 05:21:33.50	4.66	8.13	-45.5	-48.9	10.6	5.98e-03	0	42	0	32505856	61	5282
2026-01-16 05:21:34.49	4.58	8.20	-45.1	-48.1	11.4	1.14e-03	0	42	0	39845888	60	5144
2026-01-16 05:21:35.48	4.50	8.27	-44.5	-47.1	12.4	2.33e-04	0	42	0	46137344	59	4822
2026-01-16 05:21:36.48	4.41	8.34	-44.0	-46.3	13.2	1.60e-05	0	42	0	53477376	57	4975
2026-01-16 05:21:37.47	4.33	8.41	-43.4	-45.5	14.1	3.40e-06	0	42	0	60817408	57	4511
2026-01-16 05:21:38.46	4.25	8.48	-42.9	-44.9	14.7	1.10e-06	0	42	0	68157440	56	4450
2026-01-16 05:21:39.46	4.16	8.55	-42.6	-44.4	15.1	0.00e+00	0	42	0	75497472	56	4227
2026-01-16 05:21:40.45	4.08	8.62	-42.2	-44.0	15.5	0.00e+00	0	42	0	82837504	55	4248
2026-01-16 05:21:41.44	3.99	8.69	-42.3	-44.1	15.3	0.00e+00	0	42	0	90177536	54	4566
2026-01-16 05:21:42.44	3.90	8.76	-42.3	-44.0	15.3	0.00e+00	0	42	0	97517568	54	4545
2026-01-16 05:21:43.43	3.82	8.83	-42.7	-44.7	14.8	0.00e+00	0	42	0	103809024	54	4873
2026-01-16 05:21:44.42	3.73	8.90	-43.5	-45.7	13.9	3.40e-06	0	42	0	111149056	56	4900
2026-01-16 05:21:45.42	3.64	8.97	-44.5	-47.0	12.4	9.49e-05	0	42	0	118489088	58	5092
2026-01-16 05:21:46.41	3.56	9.04	-45.2	-48.4	11.1	1.61e-03	0	42	0	125829120	59	5600
2026-01-16 05:21:47.41	3.47	9.11	-44.0	-46.6	12.8	3.23e-03	0	42	0	133169152	59	4573
2026-01-16 05:21:48.45	3.37	9.19	-44.0	-46.6	13.0	0.00e+00	0	42	0	140509184	57	5157
2026-01-16 05:21:49.40	3.29	9.25	-47.1	-52.5	6.6	8.45e-01	0	42	104	142606336	65	6377
2026-01-16 05:21:50.50	3.19	9.33	-42.1	-44.2	15.1	5.77e-04	0	42	0	148897792	55	4383
2026-01-16 05:21:51.35	3.11	9.40	-40.7	-42.3	17.2	0.00e+00	0	42	0	155189248	51	4401
2026-01-16 05:21:52.49	3.01	9.48	-40.5	-42.1	17.4	0.00e+00	0	42	0	163577856	51	4295
2026-01-16 05:21:53.35	2.93	9.54	-40.5	-42.0	17.4	0.00e+00	0	42	0	169869312	51	4285
2026-01-16 05:21:54.49	2.82	9.62	-40.6	-42.1	17.3	0.00e+00	0	42	0	177209344	51	4333
2026-01-16 05:21:55.34	2.74	9.68	-40.5	-42.0	17.5	0.00e+00	0	42	0	184549376	51	4251
2026-01-16 05:21:56.47	2.64	9.77	-40.3	-41.8	17.7	0.00e+00	0	42	0	191889408	51	4165
2026-01-16 05:21:57.33	2.56	9.83	-40.0	-41.4	18.1	0.00e+00	0	42	0	198180864	50	4237
2026-01-16 05:21:58.46	2.45	9.91	-40.5	-42.0	17.6	0.00e+00	0	42	0	206569472	50	4498
2026-01-16 05:21:59.32	2.37	9.98	-40.5	-41.9	17.6	0.00e+00	0	42	0	212860928	50	4487
2026-01-16 05:22:00.45	2.26	10.06	-40.5	-42.0	17.5	0.00e+00	0	42	0	221249536	50	4517
2026-01-16 05:22:01.30	2.18	10.12	-40.4	-41.9	17.6	0.00e+00	0	42	0	227540992	50	4486
2026-01-16 05:22:02.44	2.07	10.20	-40.8	-42.4	17.1	0.00e+00	0	42	0	235929600	51	4461
2026-01-16 05:22:03.29	1.99	10.27	-40.5	-42.0	17.5	0.00e+00	0	42	0	241172480	51	4269
2026-01-16 05:22:04.43	1.88	10.35	-40.7	-42.1	17.4	0.00e+00	0	42	0	249561088	51	4328
2026-01-16 05:22:05.28	1.80	10.41	-40.6	-42.1	17.4	0.00e+00	0	42	0	255852544	51	4301
2026-01-16 05:22:06.62	1.67	10.51	-40.7	-42.2	17.3	0.00e+00	0	42	0	265289728	51	4375
2026-01-16 05:22:07.33	1.60	10.57	-40.8	-42.2	17.4	0.00e+00	0	42	0	270532608	51	4362
2026-01-16 05:22:08.61	1.47	10.66	-40.7	-42.1	17.4	0.00e+00	0	43	0	279969792	51	4317
2026-01-16 05:22:09.32	1.40	10.72	-40.6	-42.0	17.6	0.00e+00	0	43	0	285212672	51	4250
2026-01-16 05:22:10.60	1.27	10.81	-40.6	-42.0	17.6	0.00e+00	0	42	0	294649856	51	4260
2026-01-16 05:22:11.32	1.20	10.87	-40.5	-41.9	17.7	0.00e+00	0	43	0	298844160	51	4196
2026-01-16 05:22:12.61	1.07	10.96	-40.5	-41.9	17.7	0.00e+00	0	42	0	308281344	51	4194
2026-01-16 05:22:13.50	0.98	11.03	-40.4	-41.7	17.9	0.00e+00	0	42	0	315621376	51	4118
2026-01-16 05:22:14.61	0.86	11.11	-40.2	-41.5	18.0	0.00e+00	0	43	0	322961408	51	4029
2026-01-16 05:22:15.64	0.76	11.19	-40.2	-41.4	18.1	0.00e+00	0	43	0	330301440	51	3992
2026-01-16 05:22:16.63	0.65	11.27	-40.2	-41.5	18.1	0.00e+00	0	43	0	337641472	51	4013
2026-01-16 05:22:17.63	0.55	11.34	-40.2	-41.4	18.1	0.00e+00	0	43	0	344981504	51	3993
2026-01-16 05:22:18.62	0.44	11.42	-40.2	-41.5	18.1	0.00e+00	0	42	0	352321536	51	4012
2026-01-16 05:22:19.62	0.34	11.49	-40.2	-41.5	18.1	0.00e+00	0	42	0	359661568	51	4016
2026-01-16 05:22:20.93	0.20	11.59	-40.2	-41.4	18.2	0.00e+00	0	43	0	369098752	50	4207
2026-01-16 05:22:21.66	0.12	11.65	-40.2	-41.4	18.2	0.00e+00	0	43	0	374341632	50	4204
2026-01-16 05:22:22.94	359.99	11.75	-40.1	-41.3	18.3	0.00e+00	0	43	0	382730240	50	4160
2026-01-16 05:22:23.66	359.91	11.80	-40.1	-41.2	18.3	0.00e+00	0	43	0	389021696	50	4142
2026-01-16 05:22:24.94	359.77	11.90	-40.1	-41.3	18.3	0.00e+00	0	43	0	397410304	50	4170
2026-01-16 05:22:25.68	359.69	11.96	-40.0	-41.2	18.4	0.00e+00	0	43	0	402653184	50	4115
2026-01-16 05:22:26.96	359.55	12.06	-40.0	-41.2	18.4	0.00e+00	0	43	0	412090368	50	4120
2026-01-16 05:22:27.67	359.47	12.11	-40.0	-41.2	18.4	0.00e+00	0	43	0	417333248	50	4106
2026-01-16 05:22:28.95	359.33	12.21	-40.2	-41.3	18.3	0.00e+00	0	43	0	426770432	50	4177
2026-01-16 05:22:29.66	359.25	12.26	-40.1	-41.2	18.4	0.00e+00	0	43	0	432013312	50	4137
2026-01-16 05:22:31.04	359.10	12.37	-40.1	-41.2	18.4	0.00e+00	0	43	0	441450496	50	4118
2026-01-16 05:22:31.75	359.02	12.43	-40.1	-41.2	18.4	0.00e+00	0	43	0	446693376	50	4131
2026-01-16 05:22:33.03	358.87	12.53	-40.2	-41.3	18.3	0.00e+00	0	43	0	456130560	50	4190
2026-01-16 05:22:33.74	358.79	12.58	-40.2	-41.3	18.3	0.00e+00	0	43	0	461373440	50	4191
2026-01-16 05:22:35.14	358.63	12.69	-40.1	-41.2	18.4	0.00e+00	0	43	0	471859200	50	4128
2026-01-16 05:22:35.86	358.55	12.75	-40.0	-41.1	18.5	0.00e+00	0	43	0	477102080	50	4096
2026-01-16 05:22:37.13	358.40	12.85	-40.1	-41.2	18.5	0.00e+00	0	42	0	485490688	50	4111
2026-01-16 05:22:38.19	358.28	12.93	-40.1	-41.2	18.5	0.00e+00	0	43	0	493879296	50	4123
2026-01-16 05:22:39.35	358.14	13.02	-40.1	-41.2	18.5	0.00e+00	0	43	0	502267904	50	4130
2026-01-16 05:22:40.20	358.04	13.09	-39.9	-41.0	18.6	0.00e+00	0	43	0	507510784	50	4039
2026-01-16 05:22:41.34	357.91	13.18	-39.8	-40.9	18.7	0.00e+00	0	43	0	515899392	50	3996
2026-01-16 05:22:42.19	357.80	13.25	-39.8	-41.0	18.7	0.00e+00	0	43	0	522190848	50	4015
2026-01-16 05:22:43.32	357.67	13.34	-39.8	-40.9	18.7	0.00e+00	0	43	0	530579456	50	3983
2026-01-16 05:22:44.18	357.56	13.41	-39.8	-41.0	18.7	0.00e+00	0	43	0	536870912	50	4015
2026-01-16 05:22:45.31	357.43	13.50	-39.8	-40.9	18.8	0.00e+00	0	43	0	545259520	50	3964
2026-01-16 05:22:46.17	357.32	13.56	-39.8	-40.9	18.8	0.00e+00	0	43	0	550502400	50	3975
2026-01-16 05:22:47.30	357.18	13.65	-39.6	-40.7	19.0	0.00e+00	0	43	0	558891008	50	3902
2026-01-16 05:22:48.15	357.08	13.72	-39.6	-40.8	18.9	0.00e+00	0	43	0	565182464	50	3919
2026-01-16 05:22:49.29	356.94	13.81	-39.8	-40.9	18.8	0.00e+00	0	43	0	573571072	50	3987
2026-01-16 05:22:50.14	356.83	13.88	-39.7	-40.8	18.9	0.00e+00	0	43	0	579862528	49	4155
2026-01-16 05:22:51.28	356.69	13.97	-39.6	-40.8	18.9	0.00e+00	0	43	0	588251136	49	4154
2026-01-16 05:22:52.13	356.58	14.04	-39.5	-40.7	19.0	0.00e+00	0	43	0	593494016	49	4104
2026-01-16 05:22:53.27	356.44	14.13	-39.6	-40.7	19.0	0.00e+00	0	43	0	601882624	49	4133
2026-01-16 05:22:54.12	356.33	14.20	-39.5	-40.7	19.0	0.00e+00	0	43	0	608174080	49	4106
2026-01-16 05:22:55.26	356.18	14.29	-39.5	-40.7	19.0	0.00e+00	0	43	0	616562688	49	4106
2026-01-16 05:22:56.11	356.08	14.36	-39.5	-40.6	19.0	0.00e+00	0	43	0	622854144	49	4087
2026-01-16 05:22:57.65	355.88	14.49	-39.4	-40.6	19.1	0.00e+00	0	43	0	634388480	49	4077
2026-01-16 05:22:58.36	355.78	14.55	-39.5	-40.7	19.0	0.00e+00	0	43	0	638582784	49	4105
2026-01-16 05:22:59.63	355.62	14.65	-39.3	-40.5	19.3	0.00e+00	0	43	0	648019968	49	4007
2026-01-16 05:23:00.35	355.52	14.71	-39.4	-40.6	19.1	0.00e+00	0	43	0	653262848	49	4089
2026-01-16 05:23:01.63	355.35	14.81	-39.3	-40.5	19.2	0.00e+00	0	43	0	662700032	49	4031
2026-01-16 05:23:02.34	355.26	14.87	-39.3	-40.5	19.2	0.00e+00	0	43	0	667942912	49	4029
2026-01-16 05:23:03.62	355.09	14.98	-39.4	-40.6	19.1	0.00e+00	0	43	0	677380096	49	4064
2026-01-16 05:23:04.33	354.99	15.03	-39.4	-40.5	19.2	0.00e+00	0	43	0	681574400	49	4051
2026-01-16 05:23:05.60	354.82	15.14	-39.4	-40.6	19.1	0.00e+00	0	42	0	691011584	49	4080
2026-01-16 05:23:06.32	354.72	15.20	-39.4	-40.6	19.2	0.00e+00	0	43	0	696254464	49	4061
2026-01-16 05:23:07.59	354.54	15.30	-39.5	-40.6	19.1	0.00e+00	0	43	0	705691648	49	4089
2026-01-16 05:23:08.32	354.44	15.36	-39.4	-40.6	19.1	0.00e+00	0	43	0	710934528	49	4069
2026-01-16 05:23:09.60	354.27	15.47	-39.4	-40.6	19.1	0.00e+00	0	43	0	720371712	49	4079
2026-01-16 05:23:10.58	354.13	15.55	-39.3	-40.4	19.3	0.00e+00	0	43	0	726663168	49	4004
2026-01-16 05:23:11.57	353.99	15.63	-39.3	-40.4	19.3	0.00e+00	0	43	0	734003200	49	4004
2026-01-16 05:23:12.57	353.85	15.71	-39.2	-40.4	19.3	0.00e+00	0	43	0	741343232	49	3991
2026-01-16 05:23:13.56	353.71	15.80	-39.3	-40.4	19.3	0.00e+00	0	43	0	748683264	49	3986
2026-01-16 05:23:14.56	353.57	15.88	-39.2	-40.4	19.4	0.00e+00	0	43	0	756023296	49	3970
2026-01-16 05:23:15.55	353.42	15.96	-39.2	-40.4	19.4	0.00e+00	0	43	0	763363328	48	4206
2026-01-16 05:23:16.54	353.28	16.04	-39.1	-40.2	19.5	0.00e+00	0	43	0	770703360	48	4144
2026-01-16 05:23:17.54	353.14	16.13	-39.0	-40.2	19.6	0.00e+00	0	43	0	778043392	48	4105
2026-01-16 05:23:18.54	352.99	16.21	-38.9	-40.1	19.6	0.00e+00	0	43	0	784334848	48	4079
2026-01-16 05:23:19.53	352.84	16.29	-38.8	-40.0	19.7	0.00e+00	0	43	0	791674880	48	4025
2026-01-16 05:23:20.55	352.69	16.38	-38.8	-40.0	19.8	0.00e+00	0	43	0	799014912	48	4011
2026-01-16 05:23:21.54	352.55	16.46	-38.7	-39.8	19.9	0.00e+00	0	43	0	806354944	48	3937
2026-01-16 05:23:22.54	352.40	16.55	-38.7	-39.8	19.9	0.00e+00	0	43	0	813694976	48	3941
2026-01-16 05:23:23.53	352.25	16.63	-38.7	-39.8	19.9	0.00e+00	0	43	0	821035008	48	3958
2026-01-16 05:23:24.53	352.10	16.71	-38.7	-39.7	20.0	0.00e+00	0	43	0	827326464	48	3913
2026-01-16 05:23:25.52	351.95	16.80	-38.8	-39.9	19.9	0.00e+00	0	43	0	834666496	48	3973
2026-01-16 05:23:26.52	351.79	16.88	-38.9	-40.0	19.8	0.00e+00	0	43	0	842006528	48	4012
2026-01-16 05:23:27.51	351.64	16.96	-39.0	-40.1	19.6	0.00e+00	0	43	0	849346560	48	4073
2026-01-16 05:23:28.51	351.49	17.05	-39.0	-40.1	19.7	0.00e+00	0	43	0	856686592	48	4064
2026-01-16 05:23:29.50	351.33	17.13	-39.0	-40.1	19.7	0.00e+00	0	43	0	864026624	48	4083
2026-01-16 05:23:30.50	351.18	17.22	-39.1	-40.1	19.6	0.00e+00	0	43	0	871366656	48	4089
2026-01-16 05:23:31.49	351.02	17.30	-39.1	-40.1	19.7	0.00e+00	0	43	0	878706688	48	4085
2026-01-16 05:23:32.49	350.86	17.39	-39.0	-40.0	19.8	0.00e+00	0	43	0	886046720	48	4018
2026-01-16 05:23:33.48	350.70	17.47	-38.9	-39.9	19.8	0.00e+00	0	43	0	892338176	48	3999
2026-01-16 05:23:34.48	350.54	17.55	-38.8	-39.9	19.9	0.00e+00	0	43	0	899678208	48	3961
2026-01-16 05:23:35.47	350.38	17.64	-38.8	-39.8	20.0	0.00e+00	0	43	0	907018240	48	3935
2026-01-16 05:23:36.53	350.21	17.73	-38.5	-39.6	19.9	0.00e+00	0	43	0	914358272	47	4078
2026-01-16 05:23:37.39	350.07	17.80	-38.6	-39.7	19.8	0.00e+00	0	43	0	920649728	47	4100
2026-01-16 05:23:38.52	349.89	17.90	-38.4	-39.5	19.9	0.00e+00	0	43	0	929038336	47	4049
2026-01-16 05:23:39.38	349.75	17.97	-38.4	-39.5	20.0	0.00e+00	0	43	0	935329792	47	4026
2026-01-16 05:23:40.51	349.56	18.07	-38.4	-39.5	20.0	0.00e+00	0	43	0	943718400	47	4021
2026-01-16 05:23:41.37	349.42	18.14	-38.4	-39.5	20.0	0.00e+00	0	43	0	948961280	47	4051
2026-01-16 05:23:42.50	349.23	18.24	-38.4	-39.6	19.9	0.00e+00	0	43	0	957349888	47	4058
2026-01-16 05:23:43.35	349.08	18.31	-38.4	-39.5	20.0	0.00e+00	0	43	0	963641344	47	4041
2026-01-16 05:23:44.49	348.89	18.41	-38.4	-39.6	19.9	0.00e+00	0	43	0	972029952	47	4062
2026-01-16 05:23:45.34	348.74	18.48	-38.5	-39.6	19.9	0.00e+00	0	43	0	978321408	47	4075
2026-01-16 05:23:46.48	348.55	18.58	-38.4	-39.5	20.0	0.00e+00	0	43	0	986710016	47	4047
2026-01-16 05:23:47.33	348.40	18.65	-38.5	-39.6	19.9	0.00e+00	0	43	0	991952896	47	4082
2026-01-16 05:23:48.48	348.20	18.75	-38.3	-39.5	20.0	0.00e+00	0	43	0	1000341504	47	4009
2026-01-16 05:23:49.33	348.05	18.82	-38.3	-39.5	20.0	0.00e+00	0	43	0	1006632960	47	4044
2026-01-16 05:23:50.47	347.85	18.92	-38.3	-39.5	20.0	0.00e+00	0	43	0	1015021568	47	4036
2026-01-16 05:23:51.33	347.70	18.99	-38.3	-39.5	20.1	0.00e+00	0	43	0	1021313024	47	4023
2026-01-16 05:23:52.47	347.50	19.09	-38.2	-39.4	20.1	0.00e+00	0	43	0	1029701632	47	3992
2026-01-16 05:23:53.32	347.35	19.16	-38.2	-39.3	20.2	0.00e+00	0	43	0	1035993088	47	3935
2026-01-16 05:23:54.45	347.15	19.26	-38.2	-39.3	20.2	0.00e+00	0	43	0	1044381696	47	3947
2026-01-16 05:23:55.40	346.98	19.34	-38.2	-39.3	20.2	0.00e+00	0	43	0	1050673152	47	3924
2026-01-16 05:23:56.40	346.79	19.42	-38.1	-39.2	20.3	0.00e+00	0	43	0	1058013184	47	3879
2026-01-16 05:23:57.39	346.61	19.51	-38.0	-39.1	20.5	0.00e+00	0	43	0	1065353216	46	4053
2026-01-16 05:23:58.39	346.43	19.59	-38.1	-39.1	20.4	0.00e+00	0	43	0	1071644672	46	4064
2026-01-16 05:23:59.38	346.25	19.68	-38.1	-39.1	20.4	0.00e+00	0	43	0	1078984704	46	4092
2026-01-16 05:24:00.38	346.06	19.76	-38.2	-39.2	20.3	0.00e+00	0	43	0	1086324736	46	4124
2026-01-16 05:24:01.37	345.88	19.85	-38.4	-39.4	20.2	0.00e+00	0	43	0	1093664768	46	4200
2026-01-16 05:24:02.36	345.69	19.93	-38.3	-39.3	20.3	0.00e+00	0	43	0	1101004800	46	4166
2026-01-16 05:24:03.36	345.50	20.02	-38.3	-39.3	20.3	0.00e+00	0	43	0	1108344832	46	4154
2026-01-16 05:24:04.35	345.31	20.10	-38.3	-39.3	20.2	0.00e+00	0	43	0	1115684864	46	4184
2026-01-16 05:24:05.35	345.12	20.19	-38.4	-39.4	20.1	0.00e+00	0	43	0	1123024896	46	4235
2026-01-16 05:24:06.36	344.93	20.27	-38.5	-39.5	20.0	0.00e+00	0	43	0	1130364928	46	4290
2026-01-16 05:24:07.36	344.74	20.36	-38.5	-39.5	20.1	0.00e+00	0	43	0	1136656384	46	4268
2026-01-16 05:24:08.43	344.53	20.45	-38.6	-39.7	19.9	0.00e+00	0	43	0	1145044992	46	4364
2026-01-16 05:24:09.33	344.35	20.53	-38.5	-39.6	20.0	0.00e+00	0	43	0	1151336448	46	4311
2026-01-16 05:24:10.61	344.10	20.63	-38.7	-39.7	19.8	0.00e+00	0	43	0	1160773632	46	4383
2026-01-16 05:24:11.32	343.96	20.69	-38.5	-39.6	20.0	0.00e+00	0	43	0	1166016512	46	4312
2026-01-16 05:24:12.59	343.71	20.80	-38.4	-39.5	20.1	0.00e+00	0	43	0	1175453696	46	4257
2026-01-16 05:24:13.32	343.56	20.86	-38.4	-39.4	20.1	0.00e+00	0	43	0	1179648000	46	4238
2026-01-16 05:24:14.60	343.30	20.97	-38.4	-39.5	20.1	0.00e+00	0	43	0	1189085184	46	4254
2026-01-16 05:24:15.33	343.16	21.03	-38.4	-39.4	20.1	0.00e+00	0	43	0	1194328064	46	4238
2026-01-16 05:24:16.61	342.90	21.14	-38.3	-39.4	20.2	0.00e+00	0	43	0	1203765248	46	4199
2026-01-16 05:24:17.32	342.75	21.20	-38.3	-39.3	20.2	0.00e+00	0	43	0	1209008128	46	4185
2026-01-16 05:24:18.60	342.49	21.31	-38.3	-39.4	20.2	0.00e+00	0	43	0	1218445312	46	4196
2026-01-16 05:24:19.32	342.34	21.37	-38.3	-39.3	20.2	0.00e+00	0	43	0	1223688192	46	4172
2026-01-16 05:24:20.60	342.07	21.48	-38.1	-39.2	20.4	0.00e+00	0	43	0	1233125376	46	4107
2026-01-16 05:24:21.31	341.93	21.54	-38.2	-39.3	20.3	0.00e+00	0	43	0	1237319680	46	4157
2026-01-16 05:24:22.62	341.65	21.65	-38.2	-39.3	20.3	0.00e+00	0	43	0	1246756864	46	4188
2026-01-16 05:24:23.33	341.50	21.71	-38.2	-39.4	20.2	0.00e+00	0	43	0	1251999744	46	4205
2026-01-16 05:24:24.67	341.22	21.82	-38.4	-39.6	20.0	0.00e+00	0	43	0	1262485504	46	4295
2026-01-16 05:24:25.38	341.06	21.88	-38.5	-39.7	19.9	0.00e+00	0	43	0	1266679808	46	4356
2026-01-16 05:24:26.72	340.78	21.99	-38.4	-39.6	20.0	0.00e+00	0	43	0	1277165568	46	4308
2026-01-16 05:24:27.43	340.62	22.05	-38.4	-39.6	20.0	0.00e+00	0	43	0	1281359872	46	4320
2026-01-16 05:24:28.78	340.33	22.16	-38.5	-39.6	20.0	0.00e+00	0	43	0	1291845632	46	4302
2026-01-16 05:24:29.49	340.17	22.22	-38.5	-39.5	20.1	0.00e+00	0	43	0	1297088512	46	4269
2026-01-16 05:24:30.77	339.89	22.32	-38.3	-39.3	20.3	0.00e+00	0	43	0	1306525696	46	4175
2026-01-16 05:24:31.48	339.74	22.38	-38.3	-39.3	20.3	0.00e+00	0	43	0	1310720000	46	4180
2026-01-16 05:24:32.76	339.45	22.49	-38.2	-39.2	20.4	0.00e+00	0	43	0	1320157184	46	4103
2026-01-16 05:24:33.50	339.29	22.55	-38.1	-39.1	20.5	0.00e+00	0	43	0	1325400064	46	4059
2026-01-16 05:24:34.78	339.00	22.65	-38.0	-39.0	20.6	0.00e+00	0	43	0	1334837248	46	4039
2026-01-16 05:24:35.51	338.83	22.71	-37.9	-39.0	20.6	0.00e+00	0	43	0	1340080128	46	4017
2026-01-16 05:24:36.78	338.55	22.81	-37.7	-38.7	20.9	0.00e+00	0	43	0	1349517312	46	3882
2026-01-16 05:24:37.50	338.38	22.87	-37.7	-38.8	20.8	0.00e+00	0	43	0	1354760192	46	3916
2026-01-16 05:24:38.78	338.09	22.98	-37.8	-38.8	20.8	0.00e+00	0	43	0	1364197376	46	3923
2026-01-16 05:24:39.57	337.91	23.04	-37.8	-38.8	20.8	0.00e+00	0	43	0	1369440256	46	3922
2026-01-16 05:24:40.75	337.63	23.13	-37.8	-38.8	20.7	0.00e+00	0	43	0	1377828864	46	3935
2026-01-16 05:24:41.60	337.44	23.20	-37.8	-38.8	20.8	0.00e+00	0	43	0	1384120320	46	3933
2026-01-16 05:24:42.74	337.17	23.29	-38.0	-38.9	20.6	0.00e+00	0	43	0	1392508928	46	4003
2026-01-16 05:24:43.82	336.91	23.38	-37.9	-38.9	20.7	0.00e+00	0	43	0	1399848960	46	3969
2026-01-16 05:24:44.84	336.67	23.46	-37.9	-38.8	20.7	0.00e+00	0	43	0	1408237568	46	3956
2026-01-16 05:24:45.84	336.43	23.54	-37.9	-38.9	20.6	0.00e+00	0	43	0	1414529024	46	3996
2026-01-16 05:24:46.84	336.20	23.62	-37.9	-38.9	20.7	0.00e+00	0	43	0	1421869056	46	3976
2026-01-16 05:24:47.83	335.96	23.69	-38.0	-38.9	20.7	0.00e+00	0	43	0	1429209088	46	4004
2026-01-16 05:24:48.83	335.72	23.77	-37.8	-38.8	20.8	0.00e+00	0	43	0	1436549120	46	3915
2026-01-16 05:24:49.82	335.48	23.85	-37.6	-38.6	21.0	0.00e+00	0	43	0	1443889152	46	3835
2026-01-16 05:24:50.82	335.23	23.93	-37.5	-38.5	21.1	0.00e+00	0	43	0	1451229184	45	4009
2026-01-16 05:24:51.81	334.99	24.00	-37.6	-38.6	20.9	0.00e+00	0	43	0	1457520640	45	4061
2026-01-16 05:24:52.80	334.74	24.08	-37.5	-38.5	21.1	0.00e+00	0	43	0	1464860672	45	4014
2026-01-16 05:24:53.80	334.50	24.15	-37.5	-38.4	21.2	0.00e+00	0	43	0	1472200704	45	3985
2026-01-16 05:24:54.79	334.25	24.23	-37.5	-38.5	21.0	0.00e+00	0	43	0	1479540736	45	4020
2026-01-16 05:24:55.84	333.99	24.31	-37.4	-38.4	21.2	0.00e+00	0	43	0	1486880768	45	3971
2026-01-16 05:24:56.81	333.74	24.38	-37.5	-38.5	21.1	0.00e+00	0	43	0	1494220800	45	4034
2026-01-16 05:24:57.89	333.47	24.46	-37.6	-38.6	21.0	0.00e+00	0	43	0	1501560832	45	4069
2026-01-16 05:24:58.74	333.26	24.52	-37.6	-38.6	21.0	0.00e+00	0	43	0	1507852288	45	4058
2026-01-16 05:25:00.08	332.91	24.62	-37.7	-38.7	20.9	0.00e+00	0	43	0	1517289472	45	4109
2026-01-16 05:25:00.80	332.73	24.68	-37.8	-38.7	20.8	0.00e+00	0	43	0	1522532352	45	4142
2026-01-16 05:25:02.07	332.40	24.77	-37.6	-38.6	20.9	0.00e+00	0	43	0	1531969536	45	4074
2026-01-16 05:25:02.79	332.22	24.82	-37.7	-38.7	20.9	0.00e+00	0	43	0	1537212416	45	4100
2026-01-16 05:25:04.07	331.88	24.91	-37.7	-38.7	20.9	0.00e+00	0	43	0	1546649600	45	4105
2026-01-16 05:25:04.78	331.70	24.96	-37.9	-38.9	20.7	0.00e+00	0	43	0	1551892480	45	4198
2026-01-16 05:25:06.05	331.36	25.06	-37.9	-38.9	20.7	0.00e+00	0	43	0	1561329664	45	4195
2026-01-16 05:25:06.77	331.17	25.11	-37.9	-38.9	20.6	0.00e+00	0	43	0	1565523968	45	4224
2026-01-16 05:25:08.05	330.84	25.20	-37.8	-38.9	20.7	0.00e+00	0	43	0	1574961152	45	4198
2026-01-16 05:25:08.77	330.64	25.25	-38.0	-39.0	20.6	0.00e+00	0	43	0	1580204032	45	4259
2026-01-16 05:25:10.05	330.30	25.34	-37.7	-38.7	20.8	0.00e+00	0	43	0	1589641216	45	4135
2026-01-16 05:25:10.76	330.11	25.38	-37.7	-38.7	20.9	0.00e+00	0	43	0	1594884096	45	4125
2026-01-16 05:25:12.04	329.77	25.47	-37.6	-38.6	20.9	0.00e+00	0	43	0	1604321280	44	4328
2026-01-16 05:25:12.77	329.57	25.52	-37.5	-38.5	21.1	0.00e+00	0	43	0	1609564160	44	4258
2026-01-16 05:25:14.05	329.22	25.61	-37.5	-38.5	21.0	0.00e+00	0	43	0	1619001344	44	4273
2026-01-16 05:25:14.78	329.02	25.66	-37.6	-38.6	21.0	0.00e+00	0	43	0	1623195648	44	4300
2026-01-16 05:25:16.05	328.67	25.74	-37.6	-38.6	21.0	0.00e+00	0	43	0	1632632832	44	4292
2026-01-16 05:25:16.78	328.47	25.79	-37.5	-38.5	21.0	0.00e+00	0	43	0	1637875712	44	4277
2026-01-16 05:25:18.06	328.12	25.87	-37.7	-38.7	20.9	0.00e+00	0	43	0	1647312896	44	4372
2026-01-16 05:25:18.77	327.92	25.92	-37.6	-38.6	21.0	0.00e+00	0	43	0	1652555776	44	4298
2026-01-16 05:25:20.22	327.52	26.01	-37.7	-38.7	20.9	0.00e+00	0	43	0	1663041536	45	4121
2026-01-16 05:25:20.93	327.32	26.05	-37.6	-38.6	21.0	0.00e+00	0	43	0	1668284416	45	4064
2026-01-16 05:25:22.21	326.96	26.13	-37.6	-38.6	20.9	0.00e+00	0	43	0	1677721600	45	4073
2026-01-16 05:25:22.94	326.75	26.18	-37.6	-38.5	21.0	0.00e+00	0	43	0	1682964480	45	4045
2026-01-16 05:25:24.22	326.39	26.26	-37.5	-38.5	21.1	0.00e+00	0	43	0	1691353088	45	4016
2026-01-16 05:25:24.93	326.19	26.30	-37.6	-38.6	21.0	0.00e+00	0	43	0	1696595968	45	4060
2026-01-16 05:25:26.21	325.82	26.38	-37.6	-38.6	21.0	0.00e+00	0	43	0	1706033152	45	4068
2026-01-16 05:25:26.92	325.62	26.42	-37.5	-38.5	21.1	0.00e+00	0	43	0	1711276032	45	4038
2026-01-16 05:25:28.20	325.25	26.50	-37.4	-38.4	21.2	0.00e+00	0	43	0	1720713216	45	3968
2026-01-16 05:25:28.98	325.02	26.54	-37.4	-38.4	21.2	0.00e+00	0	43	0	1725956096	45	3980
2026-01-16 05:25:30.18	324.68	26.61	-37.4	-38.4	21.2	0.00e+00	0	43	0	1734344704	44	4209
2026-01-16 05:25:31.04	324.43	26.66	-37.4	-38.3	21.2	0.00e+00	0	43	0	1741684736	44	4193
2026-01-16 05:25:32.17	324.10	26.72	-37.4	-38.3	21.2	0.00e+00	0	43	0	1749024768	44	4181
2026-01-16 05:25:33.02	323.85	26.77	-37.5	-38.5	21.1	0.00e+00	0	43	0	1755316224	44	4259
2026-01-16 05:25:34.16	323.51	26.83	-37.6	-38.6	21.0	0.00e+00	0	43	0	1763704832	44	4300
2026-01-16 05:25:35.01	323.26	26.88	-37.7	-38.6	20.9	0.00e+00	0	43	0	1769996288	44	4328
2026-01-16 05:25:36.15	322.92	26.94	-37.6	-38.6	21.0	0.00e+00	0	43	0	1778384896	44	4302
2026-01-16 05:25:37.00	322.67	26.98	-37.5	-38.4	21.1	0.00e+00	0	43	0	1784676352	44	4229
2026-01-16 05:25:38.14	322.33	27.04	-37.6	-38.6	21.0	0.00e+00	0	43	0	1793064960	44	4304
2026-01-16 05:25:38.99	322.08	27.08	-37.6	-38.5	21.0	0.00e+00	0	43	0	1798307840	44	4276
2026-01-16 05:25:40.13	321.73	27.14	-37.7	-38.6	20.9	0.00e+00	0	43	0	1806696448	44	4335
2026-01-16 05:25:40.98	321.48	27.18	-37.7	-38.6	20.9	0.00e+00	0	43	0	1812987904	44	4338
2026-01-16 05:25:42.12	321.13	27.24	-37.6	-38.6	21.0	0.00e+00	0	43	0	1821376512	45	4072
2026-01-16 05:25:42.97	320.88	27.28	-37.5	-38.5	21.1	0.00e+00	0	43	0	1827667968	45	4024
2026-01-16 05:25:44.11	320.53	27.33	-37.6	-38.6	21.0	0.00e+00	0	43	0	1835008000	45	4070
2026-01-16 05:25:44.96	320.27	27.37	-37.6	-38.6	21.0	0.00e+00	0	43	0	1841299456	45	4052
2026-01-16 05:25:46.10	319.92	27.42	-37.6	-38.6	21.0	0.00e+00	0	43	0	1849688064	45	4067
2026-01-16 05:25:46.95	319.66	27.46	-37.6	-38.6	20.9	0.00e+00	0	43	0	1855979520	45	4066
2026-01-16 05:25:48.09	319.31	27.51	-37.7	-38.6	20.9	0.00e+00	0	43	0	1864368128	45	4095
2026-01-16 05:25:49.19	318.97	27.56	-37.8	-38.7	20.8	0.00e+00	0	43	0	1872756736	45	4130
2026-01-16 05:25:50.22	318.65	27.60	-37.7	-38.7	20.9	0.00e+00	0	43	0	1879048192	45	4100
2026-01-16 05:25:51.21	318.35	27.64	-37.5	-38.5	21.1	0.00e+00	0	43	0	1886388224	45	4021
2026-01-16 05:25:52.43	317.97	27.69	-37.5	-38.5	21.1	0.00e+00	0	43	0	1895825408	45	4006
2026-01-16 05:25:53.33	317.69	27.73	-37.6	-38.5	21.1	0.00e+00	0	43	0	1902116864	45	4039
2026-01-16 05:25:54.62	317.28	27.77	-37.6	-38.6	21.0	0.00e+00	0	43	0	1911554048	45	4052
2026-01-16 05:25:55.33	317.06	27.80	-37.7	-38.6	21.0	0.00e+00	0	43	0	1916796928	45	4083
2026-01-16 05:25:56.61	316.66	27.85	-37.7	-38.7	20.9	0.00e+00	0	43	0	1926234112	45	4102
2026-01-16 05:25:57.32	316.44	27.87	-37.7	-38.7	20.9	0.00e+00	0	43	0	1930428416	45	4118
2026-01-16 05:25:58.61	316.03	27.92	-37.7	-38.7	20.9	0.00e+00	0	43	0	1939865600	45	4126
2026-01-16 05:25:59.33	315.80	27.94	-37.7	-38.7	20.9	0.00e+00	0	43	0	1945108480	45	4114
2026-01-16 05:26:00.61	315.40	27.98	-37.8	-38.8	20.8	0.00e+00	0	43	0	1954545664	45	4148
2026-01-16 05:26:01.32	315.17	28.00	-37.7	-38.7	20.8	0.00e+00	0	43	0	1959788544	45	4123
2026-01-16 05:26:02.60	314.76	28.04	-37.7	-38.7	20.9	0.00e+00	0	43	0	1969225728	45	4123
2026-01-16 05:26:03.47	314.49	28.07	-37.6	-38.6	21.0	0.00e+00	0	43	0	1975517184	45	4075
2026-01-16 05:26:04.61	314.12	28.10	-37.5	-38.5	21.1	0.00e+00	0	43	0	1983905792	45	4023
2026-01-16 05:26:05.70	313.77	28.13	-37.6	-38.5	21.0	0.00e+00	0	43	0	1991245824	45	4043
2026-01-16 05:26:06.73	313.44	28.16	-37.6	-38.5	21.1	0.00e+00	0	43	0	1998585856	45	4036
2026-01-16 05:26:07.88	313.07	28.19	-37.6	-38.6	21.0	0.00e+00	0	43	0	2006974464	45	4052
2026-01-16 05:26:08.75	312.79	28.21	-37.5	-38.5	21.1	0.00e+00	0	43	0	2013265920	45	4028
2026-01-16 05:26:10.08	312.37	28.24	-37.5	-38.5	21.1	0.00e+00	0	43	0	2022703104	45	4023
2026-01-16 05:26:10.79	312.14	28.26	-37.4	-38.4	21.2	0.00e+00	0	43	0	2027945984	45	3963
2026-01-16 05:26:12.24	311.67	28.29	-37.3	-38.2	21.3	0.00e+00	0	43	0	2038431744	45	3913
2026-01-16 05:26:12.95	311.44	28.30	-37.4	-38.3	21.2	0.00e+00	0	43	0	2043674624	45	3942
2026-01-16 05:26:14.28	311.01	28.33	-37.3	-38.3	21.3	0.00e+00	0	43	0	2053111808	45	3919
2026-01-16 05:26:14.99	310.78	28.34	-37.2	-38.1	21.4	0.00e+00	0	43	0	2058354688	45	3855
2026-01-16 05:26:16.27	310.36	28.36	-37.2	-38.1	21.4	0.00e+00	0	43	0	2067791872	45	3865
2026-01-16 05:26:16.98	310.13	28.38	-37.3	-38.2	21.3	0.00e+00	0	43	0	2073034752	45	3904
2026-01-16 05:26:18.26	309.71	28.40	-37.6	-38.5	21.1	0.00e+00	0	43	0	2082471936	45	4029
2026-01-16 05:26:18.98	309.48	28.41	-37.6	-38.6	21.0	0.00e+00	0	43	0	2086666240	45	4058
2026-01-16 05:26:20.26	309.06	28.42	-37.7	-38.6	21.0	0.00e+00	0	43	0	2096103424	45	4097
2026-01-16 05:26:20.97	308.83	28.43	-37.8	-38.8	20.8	0.00e+00	0	43	0	2101346304	45	4167
2026-01-16 05:26:22.25	308.41	28.45	-37.7	-38.7	20.9	0.00e+00	0	43	0	2110783488	45	4106
2026-01-16 05:26:22.99	308.17	28.45	-37.6	-38.6	21.0	0.00e+00	0	43	0	2116026368	45	4054
2026-01-16 05:26:24.27	307.75	28.46	-37.5	-38.5	21.1	0.00e+00	0	43	0	2125463552	45	4005
2026-01-16 05:26:25.00	307.51	28.47	-37.5	-38.4	21.2	0.00e+00	0	43	0	2130706432	45	3977
2026-01-16 05:26:26.28	307.09	28.48	-37.5	-38.4	21.2	0.00e+00	0	43	0	2140143616	45	3992
2026-01-16 05:26:26.99	306.86	28.48	-37.5	-38.4	21.1	0.00e+00	0	43	0	2145386496	45	3998
2026-01-16 05:26:28.27	306.44	28.49	-37.4	-38.4	21.2	0.00e+00	0	43	0	2153775104	45	3960
2026-01-16 05:26:29.00	306.20	28.49	-37.4	-38.4	21.2	0.00e+00	0	43	0	2160066560	45	3959
2026-01-16 05:26:30.27	305.79	28.50	-37.5	-38.4	21.1	0.00e+00	0	43	0	2168455168	45	3988
2026-01-16 05:26:30.98	305.55	28.50	-37.6	-38.5	21.1	0.00e+00	0	43	0	2173698048	45	4028
2026-01-16 05:26:32.26	305.13	28.50	-37.5	-38.4	21.2	0.00e+00	0	43	0	2183135232	45	3981
2026-01-16 05:26:33.00	304.89	28.50	-37.5	-38.4	21.2	0.00e+00	0	43	0	2188378112	45	3991
2026-01-16 05:26:34.28	304.47	28.50	-37.5	-38.4	21.2	0.00e+00	0	43	0	2197815296	45	3984
2026-01-16 05:26:34.99	304.24	28.50	-37.5	-38.4	21.2	0.00e+00	0	43	0	2203058176	45	3995
2026-01-16 05:26:36.27	303.82	28.49	-37.4	-38.3	21.3	0.00e+00	0	43	0	2211446784	45	3949
2026-01-16 05:26:36.98	303.59	28.49	-37.3	-38.3	21.3	0.00e+00	0	43	0	2216689664	45	3915
2026-01-16 05:26:38.26	303.17	28.48	-37.3	-38.2	21.3	0.00e+00	0	43	0	2226126848	45	3899
2026-01-16 05:26:39.00	302.93	28.48	-37.3	-38.2	21.3	0.00e+00	0	43	0	2231369728	45	3902
2026-01-16 05:26:40.28	302.51	28.47	-37.3	-38.2	21.4	0.00e+00	0	43	0	2240806912	45	3883
2026-01-16 05:26:41.01	302.27	28.46	-37.3	-38.2	21.3	0.00e+00	0	43	0	2246049792	45	3904
2026-01-16 05:26:42.28	301.85	28.45	-37.4	-38.3	21.3	0.00e+00	0	43	0	2255486976	45	3934
2026-01-16 05:26:43.00	301.62	28.44	-37.5	-38.4	21.2	0.00e+00	0	43	0	2260729856	45	3983
2026-01-16 05:26:44.28	301.20	28.42	-37.4	-38.3	21.3	0.00e+00	0	43	0	2270167040	45	3937
2026-01-16 05:26:45.00	300.96	28.42	-37.4	-38.3	21.3	0.00e+00	0	43	0	2275409920	45	3936
2026-01-16 05:26:46.28	300.55	28.40	-37.3	-38.3	21.3	0.00e+00	0	43	0	2283798528	45	3925
2026-01-16 05:26:47.01	300.31	28.39	-37.4	-38.4	21.2	0.00e+00	0	43	0	2289041408	45	3963
2026-01-16 05:26:48.29	299.89	28.37	-37.3	-38.3	21.3	0.00e+00	0	43	0	2298478592	45	3931
2026-01-16 05:26:49.00	299.66	28.35	-37.4	-38.3	21.3	0.00e+00	0	43	0	2303721472	45	3937
2026-01-16 05:26:50.28	299.24	28.33	-37.5	-38.4	21.2	0.00e+00	0	43	0	2313158656	45	3999
2026-01-16 05:26:51.01	299.01	28.32	-37.4	-38.3	21.3	0.00e+00	0	43	0	2318401536	45	3932
2026-01-16 05:26:52.29	298.59	28.29	-37.4	-38.3	21.2	0.00e+00	0	43	0	2327838720	45	3954
2026-01-16 05:26:53.01	298.36	28.28	-37.4	-38.3	21.3	0.00e+00	0	43	0	2333081600	45	3943
2026-01-16 05:26:54.30	297.94	28.25	-37.3	-38.2	21.4	0.00e+00	0	43	0	2342518784	45	3894
2026-01-16 05:26:55.02	297.71	28.23	-37.3	-38.2	21.3	0.00e+00	0	43	0	2347761664	45	3893
2026-01-16 05:26:56.30	297.30	28.20	-37.3	-38.2	21.4	0.00e+00	0	43	0	2357198848	45	3881
2026-01-16 05:26:57.02	297.07	28.18	-37.3	-38.2	21.3	0.00e+00	0	43	0	2361393152	45	3899
2026-01-16 05:26:58.30	296.65	28.15	-37.4	-38.3	21.3	0.00e+00	0	43	0	2370830336	45	3934
2026-01-16 05:26:59.01	296.43	28.13	-37.3	-38.3	21.3	0.00e+00	0	43	0	2376073216	45	3926
2026-01-16 05:27:00.29	296.02	28.10	-37.4	-38.3	21.2	0.00e+00	0	43	0	2385510400	45	3940
2026-01-16 05:27:01.07	295.77	28.07	-37.5	-38.4	21.2	0.00e+00	0	43	0	2390753280	45	3979
2026-01-16 05:27:02.66	295.26	28.03	-37.3	-38.3	21.3	0.00e+00	0	43	0	2402287616	45	3924
2026-01-16 05:27:03.23	295.08	28.01	-37.4	-38.3	21.2	0.00e+00	0	43	0	2406481920	45	3941
2026-01-16 05:27:04.93	294.54	27.95	-37.3	-38.2	21.3	0.00e+00	0	43	0	2419064832	45	3904
2026-01-16 05:27:05.51	294.35	27.94	-37.3	-38.2	21.3	0.00e+00	0	43	0	2423259136	45	3899
2026-01-16 05:27:07.21	293.82	27.88	-37.4	-38.3	21.3	0.00e+00	0	43	0	2435842048	45	3931
2026-01-16 05:27:07.78	293.64	27.86	-37.4	-38.3	21.2	0.00e+00	0	43	0	2438987776	45	3935
2026-01-16 05:27:09.48	293.10	27.80	-37.4	-38.3	21.2	0.00e+00	0	43	0	2451570688	45	3945
2026-01-16 05:27:10.05	292.92	27.77	-37.4	-38.3	21.3	0.00e+00	0	43	0	2455764992	45	3938
2026-01-16 05:27:11.74	292.39	27.71	-37.3	-38.2	21.4	0.00e+00	0	43	0	2468347904	45	3879
2026-01-16 05:27:12.31	292.22	27.69	-37.2	-38.1	21.4	0.00e+00	0	43	0	2472542208	45	3852
2026-01-16 05:27:14.01	291.69	27.62	-37.2	-38.1	21.4	0.00e+00	0	43	0	2484076544	45	3851
2026-01-16 05:27:14.58	291.51	27.60	-37.2	-38.1	21.5	0.00e+00	0	43	0	2488270848	45	3835
2026-01-16 05:27:16.29	290.98	27.52	-37.1	-38.1	21.5	0.00e+00	0	43	0	2500853760	45	3825
2026-01-16 05:27:16.86	290.81	27.50	-37.2	-38.1	21.4	0.00e+00	0	43	0	2505048064	45	3852
2026-01-16 05:27:18.56	290.28	27.42	-37.3	-38.2	21.4	0.00e+00	0	43	0	2517630976	45	3882
2026-01-16 05:27:19.13	290.11	27.40	-37.3	-38.2	21.3	0.00e+00	0	43	0	2520776704	45	3908
2026-01-16 05:27:20.83	289.59	27.32	-37.3	-38.2	21.3	0.00e+00	0	43	0	2533359616	45	3897
2026-01-16 05:27:21.40	289.42	27.29	-37.2	-38.1	21.4	0.00e+00	0	43	0	2537553920	45	3852
2026-01-16 05:27:23.19	288.87	27.21	-37.5	-38.4	21.2	0.00e+00	0	43	0	2551185408	45	3977
2026-01-16 05:27:23.76	288.70	27.18	-37.4	-38.3	21.2	0.00e+00	0	43	0	2554331136	45	3957
2026-01-16 05:27:25.46	288.19	27.09	-37.4	-38.3	21.2	0.00e+00	0	43	0	2566914048	45	3945
2026-01-16 05:27:26.03	288.02	27.07	-37.4	-38.3	21.3	0.00e+00	0	43	0	2571108352	45	3922
2026-01-16 05:27:27.74	287.50	26.98	-37.4	-38.3	21.3	0.00e+00	0	43	0	2583691264	45	3923
2026-01-16 05:27:28.31	287.33	26.95	-37.3	-38.2	21.3	0.00e+00	0	43	0	2587885568	45	3912
2026-01-16 05:27:30.01	286.83	26.86	-37.3	-38.2	21.3	0.00e+00	0	43	0	2600468480	45	3910
2026-01-16 05:27:30.58	286.66	26.83	-37.4	-38.3	21.3	0.00e+00	0	43	0	2603614208	45	3924
2026-01-16 05:27:32.29	286.16	26.73	-37.4	-38.4	21.2	0.00e+00	0	43	0	2616197120	45	3961
2026-01-16 05:27:32.86	285.99	26.70	-37.5	-38.4	21.1	0.00e+00	0	43	0	2620391424	45	3995
2026-01-16 05:27:34.57	285.49	26.60	-37.4	-38.4	21.2	0.00e+00	0	43	0	2632974336	45	3968
2026-01-16 05:27:35.14	285.32	26.57	-37.4	-38.4	21.2	0.00e+00	0	43	0	2637168640	45	3961
2026-01-16 05:27:36.84	284.83	26.47	-37.5	-38.4	21.1	0.00e+00	0	43	0	2649751552	45	3982
2026-01-16 05:27:37.41	284.67	26.44	-37.4	-38.4	21.2	0.00e+00	0	43	0	2652897280	45	3963
2026-01-16 05:27:39.14	284.17	26.34	-37.5	-38.4	21.2	0.00e+00	0	44	0	2666528768	45	3969
2026-01-16 05:27:39.71	284.01	26.30	-37.4	-38.3	21.2	0.00e+00	0	43	0	2669674496	45	3945
2026-01-16 05:27:41.42	283.52	26.20	-37.5	-38.4	21.2	0.00e+00	0	43	0	2682257408	45	3968
2026-01-16 05:27:41.99	283.36	26.16	-37.5	-38.4	21.1	0.00e+00	0	43	0	2686451712	45	3983
2026-01-16 05:27:43.69	282.88	26.05	-37.7	-38.6	20.9	0.00e+00	0	43	0	2699034624	45	4081
2026-01-16 05:27:44.26	282.72	26.02	-37.6	-38.6	21.0	0.00e+00	0	43	0	2703228928	45	4068
2026-01-16 05:27:45.97	282.24	25.91	-37.7	-38.6	20.9	0.00e+00	0	43	0	2714763264	45	4093
2026-01-16 05:27:46.53	282.08	25.87	-37.7	-38.6	20.9	0.00e+00	0	43	0	2718957568	45	4080
2026-01-16 05:27:48.24	281.61	25.76	-37.6	-38.5	21.0	0.00e+00	0	43	0	2731540480	45	4029
2026-01-16 05:27:48.81	281.45	25.72	-37.6	-38.5	21.0	0.00e+00	0	43	0	2735734784	45	4046
2026-01-16 05:27:50.52	280.98	25.61	-37.5	-38.4	21.1	0.00e+00	0	43	0	2748317696	45	3984
2026-01-16 05:27:51.08	280.83	25.57	-37.4	-38.3	21.2	0.00e+00	0	43	0	2751463424	45	3950
2026-01-16 05:27:53.01	280.30	25.44	-37.3	-38.2	21.3	0.00e+00	0	43	0	2766143488	45	3902
2026-01-16 05:27:53.58	280.15	25.40	-37.2	-38.1	21.4	0.00e+00	0	43	0	2770337792	45	3842
2026-01-16 05:27:55.29	279.69	25.28	-37.1	-38.0	21.5	0.00e+00	0	43	0	2781872128	45	3816
2026-01-16 05:27:55.85	279.54	25.24	-37.2	-38.1	21.3	0.00e+00	0	43	0	2786066432	45	3867
2026-01-16 05:27:57.61	279.07	25.12	-37.1	-38.0	21.5	0.00e+00	0	43	0	2799697920	45	3819
2026-01-16 05:27:58.17	278.92	25.08	-37.2	-38.1	21.4	0.00e+00	0	43	0	2802843648	45	3830
2026-01-16 05:28:00.16	278.40	24.94	-37.3	-38.3	21.3	0.00e+00	0	43	0	2817523712	45	3914
2026-01-16 05:28:01.08	278.16	24.87	-37.4	-38.3	21.2	0.00e+00	0	43	0	2823815168	45	3932
2026-01-16 05:28:02.07	277.90	24.80	-37.4	-38.3	21.2	0.00e+00	0	43	0	2831155200	45	3958
2026-01-16 05:28:03.07	277.64	24.73	-37.5	-38.4	21.1	0.00e+00	0	43	0	2838495232	45	3990
2026-01-16 05:28:04.06	277.38	24.65	-37.4	-38.4	21.1	0.00e+00	0	43	0	2845835264	45	3965
2026-01-16 05:28:05.06	277.13	24.58	-37.4	-38.4	21.2	0.00e+00	0	43	0	2853175296	45	3968
2026-01-16 05:28:06.05	276.87	24.51	-37.4	-38.3	21.2	0.00e+00	0	44	0	2860515328	45	3957
2026-01-16 05:28:07.05	276.62	24.43	-37.4	-38.3	21.2	0.00e+00	0	43	0	2867855360	45	3957
2026-01-16 05:28:08.04	276.37	24.36	-37.5	-38.4	21.1	0.00e+00	0	43	0	2874146816	45	3979
2026-01-16 05:28:09.04	276.11	24.28	-37.5	-38.5	21.1	0.00e+00	0	43	0	2881486848	45	4010
2026-01-16 05:28:10.03	275.87	24.21	-37.6	-38.6	21.0	0.00e+00	0	43	0	2888826880	45	4059
2026-01-16 05:28:11.03	275.62	24.13	-37.5	-38.4	21.1	0.00e+00	0	43	0	2896166912	45	3989
2026-01-16 05:28:12.02	275.37	24.06	-37.4	-38.4	21.1	0.00e+00	0	43	0	2903506944	45	3974
2026-01-16 05:28:13.02	275.12	23.98	-37.5	-38.4	21.1	0.00e+00	0	43	0	2910846976	45	3977
2026-01-16 05:28:14.01	274.88	23.90	-37.3	-38.2	21.3	0.00e+00	0	43	0	2917138432	45	3895
2026-01-16 05:28:15.00	274.64	23.83	-37.3	-38.3	21.3	0.00e+00	0	43	0	2924478464	45	3918
2026-01-16 05:28:16.00	274.39	23.75	-37.4	-38.4	21.2	0.00e+00	0	43	0	2931818496	45	3962
2026-01-16 05:28:17.00	274.15	23.67	-37.5	-38.4	21.2	0.00e+00	0	43	0	2939158528	45	3981
2026-01-16 05:28:17.99	273.91	23.59	-37.5	-38.5	21.1	0.00e+00	0	43	0	2946498560	45	4010
2026-01-16 05:28:18.99	273.67	23.51	-37.6	-38.5	21.0	0.00e+00	0	43	0	2952790016	45	4050
2026-01-16 05:28:19.98	273.43	23.43	-37.6	-38.5	21.0	0.00e+00	0	43	0	2960130048	45	4027
2026-01-16 05:28:20.97	273.20	23.36	-37.5	-38.4	21.1	0.00e+00	0	43	0	2967470080	45	3993
2026-01-16 05:28:21.97	272.96	23.28	-37.5	-38.4	21.1	0.00e+00	0	43	0	2974810112	45	4003
2026-01-16 05:28:22.96	272.73	23.20	-37.5	-38.4	21.1	0.00e+00	0	43	0	2982150144	45	3983
2026-01-16 05:28:23.96	272.50	23.12	-37.6	-38.6	21.0	0.00e+00	0	43	0	2989490176	45	4071
2026-01-16 05:28:24.95	272.27	23.04	-37.5	-38.5	21.1	0.00e+00	0	43	0	2996830208	45	4008
2026-01-16 05:28:25.95	272.03	22.96	-37.5	-38.4	21.1	0.00e+00	0	43	0	3004170240	45	3996
2026-01-16 05:28:26.94	271.81	22.88	-37.5	-38.4	21.1	0.00e+00	0	43	0	3011510272	45	3977
2026-01-16 05:28:27.94	271.58	22.79	-37.5	-38.4	21.1	0.00e+00	0	43	0	3017801728	45	4000
2026-01-16 05:28:28.93	271.35	22.71	-37.5	-38.4	21.1	0.00e+00	0	43	0	3025141760	45	3986
2026-01-16 05:28:29.92	271.13	22.63	-37.5	-38.4	21.1	0.00e+00	0	43	0	3032481792	45	3985
2026-01-16 05:28:30.92	270.90	22.55	-37.5	-38.4	21.1	0.00e+00	0	43	0	3039821824	45	3986
2026-01-16 05:28:31.92	270.68	22.47	-37.5	-38.5	21.1	0.00e+00	0	43	0	3047161856	45	4016
2026-01-16 05:28:32.91	270.45	22.39	-37.6	-38.5	21.0	0.00e+00	0	43	0	3054501888	45	4039
2026-01-16 05:28:33.95	270.22	22.30	-37.7	-38.6	20.9	0.00e+00	0	43	0	3061841920	45	4081
2026-01-16 05:28:34.92	270.01	22.22	-37.7	-38.6	20.9	0.00e+00	0	43	0	3068133376	45	4092
2026-01-16 05:28:35.99	269.77	22.13	-37.8	-38.7	20.8	0.00e+00	0	43	0	3076521984	45	4134
2026-01-16 05:28:36.85	269.59	22.06	-37.9	-38.8	20.7	0.00e+00	0	43	0	3082813440	45	4191
2026-01-16 05:28:37.99	269.34	21.97	-37.8	-38.8	20.8	0.00e+00	0	43	0	3090153472	45	4150
2026-01-16 05:28:38.84	269.16	21.89	-37.9	-38.9	20.7	0.00e+00	0	43	0	3096444928	45	4195
2026-01-16 05:28:39.97	268.91	21.80	-37.8	-38.8	20.8	0.00e+00	0	43	0	3104833536	45	4153
2026-01-16 05:28:40.83	268.73	21.73	-37.8	-38.8	20.8	0.00e+00	0	43	0	3111124992	45	4152
2026-01-16 05:28:41.96	268.49	21.63	-37.9	-38.9	20.7	0.00e+00	0	43	0	3119513600	45	4213
2026-01-16 05:28:42.81	268.31	21.56	-37.8	-38.7	20.8	0.00e+00	0	43	0	3125805056	45	4128
2026-01-16 05:28:43.95	268.07	21.47	-37.8	-38.8	20.8	0.00e+00	0	43	0	3134193664	45	4159
2026-01-16 05:28:44.80	267.89	21.39	-37.9	-38.8	20.7	0.00e+00	0	43	0	3139436544	45	4192
2026-01-16 05:28:45.94	267.65	21.30	-37.8	-38.7	20.8	0.00e+00	0	43	0	3147825152	45	4141
2026-01-16 05:28:46.79	267.48	21.23	-37.8	-38.7	20.8	0.00e+00	0	43	0	3154116608	45	4125
2026-01-16 05:28:47.93	267.24	21.13	-37.9	-38.9	20.7	0.00e+00	0	43	0	3162505216	45	4196
2026-01-16 05:28:48.80	267.06	21.06	-37.9	-38.8	20.7	0.00e+00	0	43	0	3168796672	45	4191
2026-01-16 05:28:50.11	266.80	20.94	-38.1	-39.0	20.5	0.00e+00	0	43	0	3178233856	45	4290
2026-01-16 05:28:50.82	266.65	20.88	-38.0	-38.9	20.6	0.00e+00	0	43	0	3183476736	45	4230
2026-01-16 05:28:52.09	266.40	20.78	-38.0	-39.0	20.6	0.00e+00	0	43	0	3192913920	45	4245
2026-01-16 05:28:52.80	266.26	20.72	-37.9	-38.9	20.6	0.00e+00	0	43	0	3198156800	45	4228
2026-01-16 05:28:54.09	266.00	20.61	-37.9	-38.9	20.6	0.00e+00	0	43	0	3206545408	45	4212
2026-01-16 05:28:54.80	265.86	20.55	-38.0	-39.0	20.5	0.00e+00	0	43	0	3211788288	45	4249
2026-01-16 05:28:56.08	265.61	20.44	-38.0	-39.0	20.5	0.00e+00	0	43	0	3221225472	45	4253
2026-01-16 05:28:56.90	265.45	20.37	-38.1	-39.1	20.4	0.00e+00	0	43	0	3227516928	45	4324
2026-01-16 05:28:58.03	265.23	20.27	-47.5	-60.1	3.8	8.47e-01	0	43	104	3229614080	66	14443
2026-01-16 05:28:58.88	265.06	20.20	-46.2	-59.1	3.8	8.48e-01	0	43	104	3229614080	62	16233
2026-01-16 05:29:00.02	264.84	20.10	-45.8	-59.0	3.8	8.47e-01	0	43	104	3229614080	61	16985
2026-01-16 05:29:00.87	264.68	20.03	-45.4	-58.9	3.8	8.48e-01	0	43	104	3229614080	61	16749
2026-01-16 05:29:02.01	264.46	19.93	-45.5	-58.9	3.8	8.45e-01	0	43	104	3229614080	61	16792
2026-01-16 05:29:02.86	264.30	19.86	-45.6	-58.9	3.8	8.46e-01	0	43	104	3229614080	61	16837
2026-01-16 05:29:04.00	264.09	19.76	-45.6	-58.9	3.8	8.47e-01	0	44	104	3229614080	61	16700
2026-01-16 05:29:04.85	263.93	19.69	-45.5	-58.9	3.8	8.48e-01	0	43	104	3229614080	61	16754
2026-01-16 05:29:05.98	263.72	19.59	-45.5	-58.9	3.8	8.47e-01	0	43	104	3229614080	61	16767
2026-01-16 05:29:06.83	263.56	19.52	-45.6	-58.9	3.8	8.47e-01	0	44	104	3229614080	61	16855
2026-01-16 05:29:07.97	263.35	19.42	-45.5	-58.9	3.8	8.47e-01	0	43	104	3229614080	61	16769
2026-01-16 05:29:08.82	263.19	19.34	-45.5	-58.9	3.8	8.47e-01	0	44	104	3229614080	61	16775
2026-01-16 05:29:09.95	262.99	19.25	-45.5	-58.9	3.8	8.47e-01	0	43	104	3229614080	61	16772
2026-01-16 05:29:10.80	262.84	19.17	-45.5	-58.9	3.8	8.47e-01	0	43	104	3229614080	61	16859
2026-01-16 05:29:11.94	262.63	19.08	-45.5	-58.9	3.8	8.47e-01	0	43	104	3229614080	61	16764
2026-01-16 05:29:12.79	262.48	19.00	-45.5	-59.0	3.8	8.47e-01	0	43	104	3229614080	61	16900
2026-01-16 05:29:13.93	262.28	18.91	-45.5	-58.9	3.8	8.47e-01	0	44	104	3229614080	61	16836
2026-01-16 05:29:14.78	262.12	18.83	-45.5	-58.9	3.8	8.47e-01	0	43	104	3229614080	61	16819
2026-01-16 05:29:15.91	261.93	18.74	-45.5	-59.0	3.8	8.47e-01	0	43	104	3229614080	61	16954
2026-01-16 05:29:16.77	261.78	18.66	-45.5	-58.9	3.8	8.47e-01	0	43	104	3229614080	61	16765
2026-01-16 05:29:17.90	261.58	18.56	-45.6	-58.9	3.8	8.46e-01	0	43	104	3229614080	61	16767
2026-01-16 05:29:18.75	261.43	18.49	-45.5	-58.9	3.8	8.47e-01	0	43	104	3229614080	61	16779
2026-01-16 05:29:19.89	261.24	18.39	-45.5	-58.9	3.8	8.46e-01	0	43	104	3229614080	61	16847
2026-01-16 05:29:20.74	261.09	18.32	-45.6	-58.9	3.8	8.47e-01	0	44	104	3229614080	61	16806
2026-01-16 05:29:21.87	260.90	18.22	-45.5	-58.9	3.8	8.45e-01	0	43	104	3229614080	61	16732
2026-01-16 05:29:22.72	260.75	18.15	-45.5	-58.9	3.8	8.49e-01	0	43	104	3229614080	61	16805
2026-01-16 05:29:23.86	260.56	18.05	-45.5	-58.9	3.8	8.47e-01	0	43	104	3229614080	61	16700
2026-01-16 05:29:24.71	260.42	17.98	-45.5	-59.0	3.8	8.46e-01	0	43	104	3229614080	61	16901
2026-01-16 05:29:25.85	260.23	17.88	-45.5	-58.9	3.8	8.47e-01	0	43	104	3229614080	61	16883
2026-01-16 05:29:26.70	260.09	17.81	-45.5	-58.9	3.8	8.47e-01	0	43	104	3229614080	61	16873
2026-01-16 05:29:27.83	259.91	17.72	-45.5	-59.0	3.8	8.46e-01	0	43	104	3229614080	61	16943
2026-01-16 05:29:28.69	259.76	17.64	-45.5	-58.9	3.8	8.47e-01	0	43	104	3229614080	61	16833
2026-01-16 05:29:29.82	259.58	17.55	-45.6	-58.9	3.8	8.47e-01	0	43	104	3229614080	61	16773
2026-01-16 05:29:30.67	259.44	17.47	-45.5	-58.9	3.8	8.47e-01	0	44	104	3229614080	61	16797
2026-01-16 05:29:31.81	259.26	17.38	-45.5	-58.9	3.8	8.47e-01	0	44	104	3229614080	61	16860
2026-01-16 05:29:32.66	259.12	17.30	-45.5	-58.9	3.8	8.47e-01	0	43	104	3229614080	61	16877
2026-01-16 05:29:33.80	258.94	17.21	-45.5	-58.9	3.8	8.46e-01	0	43	104	3229614080	61	16756
2026-01-16 05:29:34.65	258.81	17.13	-45.5	-58.9	3.8	8.48e-01	0	43	104	3229614080	61	16863
2026-01-16 05:29:35.78	258.63	17.04	-45.5	-58.9	3.8	8.46e-01	0	44	104	3229614080	61	16788
2026-01-16 05:29:36.64	258.50	16.97	-45.5	-59.0	3.8	8.47e-01	0	43	104	3229614080	61	16935
2026-01-16 05:29:37.77	258.32	16.87	-45.5	-58.9	3.8	8.47e-01	0	43	104	3229614080	61	16854
2026-01-16 05:29:38.62	258.19	16.80	-45.5	-58.9	3.8	8.47e-01	0	44	104	3229614080	61	16835
2026-01-16 05:29:39.76	258.02	16.70	-45.5	-58.9	3.8	8.45e-01	0	43	104	3229614080	61	16844
2026-01-16 05:29:40.61	257.89	16.63	-45.5	-58.9	3.8	8.48e-01	0	43	104	3229614080	61	16813
2026-01-16 05:29:41.74	257.71	16.53	-45.5	-58.9	3.8	8.47e-01	0	43	104	3229614080	61	16880
2026-01-16 05:29:42.60	257.58	16.46	-45.5	-59.0	3.8	8.47e-01	0	43	104	3229614080	61	16918
2026-01-16 05:29:43.73	257.41	16.37	-45.5	-58.9	3.8	8.45e-01	0	44	104	3229614080	61	16842
2026-01-16 05:29:44.58	257.29	16.30	-45.5	-58.9	3.8	8.46e-01	0	44	104	3229614080	61	16879
2026-01-16 05:29:45.72	257.12	16.20	-45.5	-58.9	3.8	8.46e-01	0	44	104	3229614080	61	16815
2026-01-16 05:29:46.57	256.99	16.13	-45.5	-58.9	3.8	8.48e-01	0	44	104	3229614080	61	16844
2026-01-16 05:29:47.70	256.83	16.03	-45.5	-58.9	3.8	8.47e-01	0	43	104	3229614080	61	16807
2026-01-16 05:29:48.56	256.70	15.96	-45.5	-58.9	3.8	8.47e-01	0	44	104	3229614080	61	16835
2026-01-16 05:29:49.69	256.54	15.87	-45.5	-58.9	3.8	8.48e-01	0	43	104	3229614080	61	16774
2026-01-16 05:29:50.54	256.42	15.80	-45.4	-58.9	3.8	8.47e-01	0	44	104	3229614080	61	16875
2026-01-16 05:29:51.68	256.25	15.70	-45.5	-58.9	3.8	8.47e-01	0	44	104	3229614080	61	16830
2026-01-16 05:29:52.53	256.13	15.63	-45.5	-58.9	3.8	8.47e-01	0	43	104	3229614080	61	16815
2026-01-16 05:29:53.67	255.97	15.53	-45.5	-58.9	3.8	8.47e-01	0	44	104	3229614080	61	16817
2026-01-16 05:29:54.52	255.85	15.46	-45.5	-58.9	3.8	8.46e-01	0	43	104	3229614080	61	16849
2026-01-16 05:29:55.65	255.69	15.37	-45.5	-58.9	3.8	8.47e-01	0	43	104	3229614080	61	16856
2026-01-16 05:29:56.50	255.57	15.30	-45.5	-58.9	3.8	8.47e-01	0	44	104	3229614080	61	16868
2026-01-16 05:29:57.64	255.41	15.21	-45.5	-58.9	3.8	8.47e-01	0	44	104	3229614080	61	16762
2026-01-16 05:29:58.49	255.30	15.14	-45.5	-59.0	3.8	8.47e-01	0	44	104	3229614080	61	16907
2026-01-16 05:29:59.63	255.14	15.04	-45.5	-58.9	3.8	8.46e-01	0	43	104	3229614080	61	16815
2026-01-16 05:30:00.48	255.02	14.97	-45.5	-59.0	3.8	8.47e-01	0	43	104	3229614080	61	16916
2026-01-16 05:30:01.61	254.87	14.88	-45.5	-58.9	3.8	8.48e-01	0	43	104	3229614080	61	16835
2026-01-16 05:30:02.47	254.75	14.81	-45.5	-58.9	3.8	8.47e-01	0	44	104	3229614080	61	16779
2026-01-16 05:30:03.60	254.60	14.71	-45.5	-58.9	3.8	8.48e-01	0	44	104	3229614080	61	16810
2026-01-16 05:30:04.45	254.49	14.64	-45.5	-58.9	3.8	8.46e-01	0	44	104	3229614080	61	16746
2026-01-16 05:30:05.59	254.34	14.55	-45.5	-58.9	3.8	8.47e-01	0	44	104	3229614080	61	16733
2026-01-16 05:30:06.44	254.23	14.48	-45.5	-58.9	3.8	8.47e-01	0	44	104	3229614080	61	16831
2026-01-16 05:30:07.57	254.08	14.39	-45.5	-58.9	3.8	8.47e-01	0	43	104	3229614080	61	16787
2026-01-16 05:30:08.43	253.96	14.32	-45.5	-58.8	3.8	8.46e-01	0	43	104	3229614080	61	16688
2026-01-16 05:30:09.56	253.82	14.23	-45.5	-58.9	3.8	8.47e-01	0	44	104	3229614080	61	16779
2026-01-16 05:30:10.42	253.71	14.16	-45.5	-58.9	3.8	8.46e-01	0	44	104	3229614080	61	16765
2026-01-16 05:30:11.55	253.56	14.07	-45.5	-58.9	3.8	8.46e-01	0	44	104	3229614080	61	16844
2026-01-16 05:30:12.40	253.45	14.00	-45.5	-58.9	3.8	8.46e-01	0	43	104	3229614080	61	16841
2026-01-16 05:30:13.54	253.31	13.90	-45.5	-58.9	3.8	8.47e-01	0	44	104	3229614080	61	16859
2026-01-16 05:30:14.39	253.20	13.84	-45.5	-58.9	3.8	8.47e-01	0	44	104	3229614080	61	16831
2026-01-16 05:30:15.52	253.06	13.74	-45.5	-58.9	3.8	8.47e-01	0	44	104	3229614080	61	16808
2026-01-16 05:30:16.37	252.95	13.68	-45.5	-58.9	3.8	8.46e-01	0	43	104	3229614080	61	16830
2026-01-16 05:30:17.51	252.81	13.58	-45.5	-58.9	3.8	8.46e-01	0	43	104	3229614080	61	16886
2026-01-16 05:30:18.36	252.71	13.52	-45.5	-58.9	3.8	8.46e-01	0	43	104	3229614080	61	16829
2026-01-16 05:30:19.50	252.57	13.43	-45.5	-58.9	3.8	8.46e-01	0	43	104	3229614080	61	16871
2026-01-16 05:30:20.35	252.46	13.36	-45.5	-58.9	3.8	8.47e-01	0	43	104	3229614080	61	16851
2026-01-16 05:30:21.48	252.33	13.27	-45.5	-58.9	3.8	8.47e-01	0	43	104	3229614080	61	16840
2026-01-16 05:30:22.33	252.22	13.20	-45.5	-58.8	3.8	8.47e-01	0	44	104	3229614080	61	16681
2026-01-16 05:30:23.47	252.09	13.11	-45.5	-58.9	3.8	8.46e-01	0	44	104	3229614080	61	16713
2026-01-16 05:30:24.32	251.98	13.04	-45.6	-58.9	3.8	8.46e-01	0	43	104	3229614080	61	16805
2026-01-16 05:30:25.46	251.85	12.95	-45.5	-58.8	3.8	8.47e-01	0	43	104	3229614080	61	16660
2026-01-16 05:30:26.31	251.75	12.88	-45.5	-58.9	3.8	8.47e-01	0	44	104	3229614080	61	16818
2026-01-16 05:30:27.44	251.61	12.79	-45.5	-58.9	3.8	8.47e-01	0	43	104	3229614080	61	16820
2026-01-16 05:30:28.30	251.51	12.73	-45.5	-58.9	3.8	8.47e-01	0	44	104	3229614080	61	16848
2026-01-16 05:30:29.43	251.38	12.64	-45.5	-58.9	3.8	8.46e-01	0	44	104	3229614080	61	16705
2026-01-16 05:30:30.28	251.28	12.57	-45.6	-58.9	3.8	8.47e-01	0	43	104	3229614080	61	16735
2026-01-16 05:30:31.42	251.15	12.48	-45.5	-58.9	3.8	8.48e-01	0	44	104	3229614080	61	16800
2026-01-16 05:30:32.27	251.06	12.41	-45.6	-58.9	3.8	8.48e-01	0	44	104	3229614080	61	16850
2026-01-16 05:30:33.40	250.93	12.33	-45.5	-58.9	3.8	8.46e-01	0	44	104	3229614080	61	16786
2026-01-16 05:30:34.25	250.83	12.26	-45.5	-58.9	3.8	8.47e-01	0	44	104	3229614080	61	16806
2026-01-16 05:30:35.39	250.70	12.17	-45.6	-58.9	3.8	8.46e-01	0	43	104	3229614080	61	16711
2026-01-16 05:30:36.24	250.61	12.10	-45.6	-58.9	3.8	8.48e-01	0	43	104	3229614080	61	16813
2026-01-16 05:30:37.38	250.48	12.02	-45.5	-58.9	3.8	8.48e-01	0	43	104	3229614080	61	16713
2026-01-16 05:30:38.23	250.39	11.95	-45.5	-58.9	3.8	8.46e-01	0	43	104	3229614080	61	16810
2026-01-16 05:30:39.36	250.26	11.86	-45.6	-58.9	3.8	8.48e-01	0	43	104	3229614080	61	16841
2026-01-16 05:30:40.21	250.17	11.80	-45.6	-58.9	3.8	8.47e-01	0	43	104	3229614080	61	16839
2026-01-16 05:30:41.35	250.04	11.71	-45.5	-58.9	3.8	8.47e-01	0	43	104	3229614080	61	16837
2026-01-16 05:30:42.20	249.95	11.64	-45.5	-58.9	3.8	8.49e-01	0	43	104	3229614080	61	16801
2026-01-16 05:30:43.33	249.83	11.56	-45.5	-58.9	3.8	8.47e-01	0	43	104	3229614080	61	16869
2026-01-16 05:30:44.18	249.74	11.49	-45.5	-58.9	3.8	8.47e-01	0	43	104	3229614080	61	16820
2026-01-16 05:30:45.32	249.62	11.40	-45.5	-58.9	3.8	8.47e-01	0	43	104	3229614080	61	16841
2026-01-16 05:30:46.17	249.53	11.34	-45.5	-58.9	3.8	8.47e-01	0	43	104	3229614080	61	16737
2026-01-16 05:30:47.31	249.41	11.25	-45.5	-58.9	3.8	8.47e-01	0	43	104	3229614080	61	16809
2026-01-16 05:30:48.16	249.32	11.19	-45.5	-58.9	3.8	8.47e-01	0	44	104	3229614080	61	16813
2026-01-16 05:30:49.29	249.20	11.10	-45.5	-58.9	3.8	8.47e-01	0	44	104	3229614080	61	16801
2026-01-16 05:30:50.14	249.11	11.04	-45.5	-59.0	3.8	8.46e-01	0	43	104	3229614080	61	16903
2026-01-16 05:30:51.28	248.99	10.95	-45.5	-58.9	3.8	8.48e-01	0	43	104	3229614080	61	16852
2026-01-16 05:30:52.13	248.90	10.89	-45.5	-59.0	3.8	8.46e-01	0	43	104	3229614080	61	16904
2026-01-16 05:30:53.27	248.79	10.80	-45.5	-59.0	3.8	8.46e-01	0	43	104	3229614080	61	16915
2026-01-16 05:30:54.12	248.70	10.74	-45.5	-58.9	3.8	8.46e-01	0	43	104	3229614080	61	16821
2026-01-16 05:30:55.25	248.59	10.65	-45.5	-59.0	3.8	8.46e-01	0	43	104	3229614080	61	16899
2026-01-16 05:30:56.10	248.50	10.59	-45.5	-58.9	3.8	8.47e-01	0	44	104	3229614080	61	16798
2026-01-16 05:30:57.24	248.39	10.50	-45.5	-58.9	3.8	8.47e-01	0	44	104	3229614080	61	16842
2026-01-16 05:30:58.09	248.30	10.44	-45.5	-58.9	3.8	8.46e-01	0	44	104	3229614080	61	16838
2026-01-16 05:30:59.22	248.19	10.36	-45.5	-58.9	3.8	8.47e-01	0	43	104	3229614080	61	16764
2026-01-16 05:31:00.08	248.10	10.29	-45.5	-58.9	3.8	8.47e-01	0	44	104	3229614080	61	16822
2026-01-16 05:31:01.21	247.99	10.21	-45.5	-59.0	3.8	8.47e-01	0	44	104	3229614080	61	16899
2026-01-16 05:31:02.06	247.91	10.14	-45.5	-58.9	3.8	8.46e-01	0	43	104	3229614080	61	16871
2026-01-16 05:31:03.19	247.80	10.06	-45.5	-58.9	3.8	8.48e-01	0	43	104	3229614080	61	16820
2026-01-16 05:31:04.05	247.72	10.00	-45.5	-58.9	3.8	8.48e-01	0	44	104	3229614080	61	16776
2026-01-16 05:31:05.18	247.61	9.91	-45.5	-58.9	3.8	8.48e-01	0	44	104	3229614080	61	16808
2026-01-16 05:31:06.03	247.53	9.85	-45.5	-58.9	3.8	8.47e-01	0	44	104	3229614080	61	16855
2026-01-16 05:31:07.17	247.42	9.77	-45.5	-59.0	3.8	8.46e-01	0	44	104	3229614080	61	16967
2026-01-16 05:31:08.02	247.34	9.71	-45.5	-58.9	3.8	8.46e-01	0	44	104	3229614080	61	16832
2026-01-16 05:31:09.15	247.23	9.62	-45.5	-58.9	3.8	8.47e-01	0	44	104	3229614080	61	16851
2026-01-16 05:31:10.01	247.15	9.56	-45.5	-58.9	3.8	8.47e-01	0	43	104	3229614080	61	16870
2026-01-16 05:31:11.14	247.04	9.48	-45.5	-58.9	3.8	8.47e-01	0	43	104	3229614080	61	16807
2026-01-16 05:31:11.99	246.97	9.42	-45.5	-58.9	3.8	8.47e-01	0	43	104	3229614080	61	16862
2026-01-16 05:31:13.13	246.86	9.33	-45.5	-59.0	3.8	8.47e-01	0	44	104	3229614080	61	16957
2026-01-16 05:31:13.98	246.78	9.27	-45.5	-59.0	3.8	8.47e-01	0	44	104	3229614080	61	16894
2026-01-16 05:31:15.11	246.68	9.19	-45.5	-59.0	3.8	8.46e-01	0	44	104	3229614080	61	16913
2026-01-16 05:31:15.96	246.60	9.13	-45.5	-58.9	3.8	8.47e-01	0	43	104	3229614080	61	16870
2026-01-16 05:31:17.10	246.50	9.05	-45.5	-59.0	3.8	8.45e-01	0	43	104	3229614080	61	16966
2026-01-16 05:31:17.95	246.42	8.99	-45.5	-58.9	3.8	8.47e-01	0	44	104	3229614080	61	16802
2026-01-16 05:31:19.08	246.32	8.90	-45.5	-59.0	3.8	8.47e-01	0	43	104	3229614080	61	16930
2026-01-16 05:31:19.94	246.24	8.84	-45.5	-58.9	3.8	8.47e-01	0	44	104	3229614080	61	16767
2026-01-16 05:31:21.07	246.14	8.76	-45.5	-58.9	3.8	8.47e-01	0	43	104	3229614080	61	16855
2026-01-16 05:31:21.92	246.07	8.70	-45.5	-59.0	3.8	8.46e-01	0	44	104	3229614080	61	16891
2026-01-16 05:31:23.06	245.97	8.62	-45.5	-58.9	3.8	8.47e-01	0	44	104	3229614080	61	16887
2026-01-16 05:31:23.91	245.89	8.56	-45.5	-58.9	3.8	8.47e-01	0	43	104	3229614080	61	16722
2026-01-16 05:31:25.04	245.79	8.48	-45.5	-59.0	3.8	8.46e-01	0	44	104	3229614080	61	16889
2026-01-16 05:31:25.89	245.72	8.42	-45.5	-59.0	3.8	8.47e-01	0	43	104	3229614080	61	16931
2026-01-16 05:31:27.03	245.62	8.34	-45.5	-58.9	3.8	8.47e-01	0	43	104	3229614080	61	16844
2026-01-16 05:31:27.88	245.55	8.28	-45.5	-58.9	3.8	8.47e-01	0	44	104	3229614080	61	16867
2026-01-16 05:31:29.01	245.45	8.20	-45.5	-59.0	3.8	8.47e-01	0	43	104	3229614080	61	16948
2026-01-16 05:31:29.87	245.38	8.14	-45.5	-59.0	3.8	8.47e-01	0	43	104	3229614080	61	16922
2026-01-16 05:31:31.00	245.28	8.06	-45.5	-59.0	3.8	8.48e-01	0	44	104	3229614080	61	16946
2026-01-16 05:31:31.85	245.21	8.00	-45.5	-59.0	3.8	8.47e-01	0	43	104	3229614080	61	16904
2026-01-16 05:31:32.99	245.12	7.92	-45.5	-58.9	3.8	8.47e-01	0	43	104	3229614080	61	16820
2026-01-16 05:31:33.84	245.05	7.86	-45.5	-58.9	3.8	8.47e-01	0	44	104	3229614080	61	16866
2026-01-16 05:31:34.97	244.95	7.78	-45.5	-58.9	3.8	8.47e-01	0	44	104	3229614080	61	16851
2026-01-16 05:31:35.82	244.88	7.72	-45.5	-58.9	3.8	8.48e-01	0	43	104	3229614080	61	16834
2026-01-16 05:31:36.96	244.79	7.64	-45.5	-58.9	3.8	8.46e-01	0	44	104	3229614080	61	16784
2026-01-16 05:31:37.81	244.72	7.59	-45.5	-58.9	3.8	8.46e-01	0	43	104	3229614080	61	16885
2026-01-16 05:31:38.95	244.63	7.51	-45.5	-58.9	3.8	8.46e-01	0	44	104	3229614080	61	16822
2026-01-16 05:31:39.80	244.56	7.45	-45.5	-58.9	3.8	8.47e-01	0	44	104	3229614080	61	16854
2026-01-16 05:31:40.93	244.47	7.37	-45.5	-58.9	3.8	8.46e-01	0	43	104	3229614080	61	16842
2026-01-16 05:31:41.78	244.40	7.31	-45.5	-58.9	3.8	8.47e-01	0	43	104	3229614080	61	16857
2026-01-16 05:31:42.92	244.31	7.23	-45.5	-58.9	3.8	8.47e-01	0	43	104	3229614080	61	16852
2026-01-16 05:31:43.77	244.24	7.18	-45.5	-58.9	3.8	8.47e-01	0	44	104	3229614080	61	16853
2026-01-16 05:31:44.91	244.15	7.10	-45.5	-58.9	3.8	8.45e-01	0	43	104	3229614080	61	16762
2026-01-16 05:31:45.76	244.09	7.04	-45.5	-58.9	3.8	8.46e-01	0	43	104	3229614080	61	16734
2026-01-16 05:31:46.89	244.00	6.96	-45.5	-59.0	3.8	8.47e-01	0	44	104	3229614080	61	16920
2026-01-16 05:31:47.74	243.93	6.91	-45.5	-58.9	3.8	8.47e-01	0	43	104	3229614080	61	16769
2026-01-16 05:31:48.88	243.84	6.83	-45.5	-58.9	3.8	8.47e-01	0	44	104	3229614080	61	16882
2026-01-16 05:31:49.73	243.78	6.77	-45.5	-58.9	3.8	8.47e-01	0	43	104	3229614080	61	16885
2026-01-16 05:31:50.87	243.69	6.69	-45.4	-58.9	3.8	8.47e-01	0	43	104	3229614080
