passes_logs/2026/01/16/T1/T1__20260116_073030_SUOMI_NPP_rec.log

#Pass ID: 20260116_073030_SUOMI NPP
#Satellite: SUOMI NPP
#Configuration: NPP
#almurnet v.1.7.20251203
#Start time: 2026-01-16 07:30:30

#Version: 2.0.20230620
#Station: T1
#Location: 37.570604 lon 55.790049 lat
#TLE: 1 37849U 11061A   26015.94982489  .00000054  00000+0  46705-4 0  9991
#TLE: 2 37849  98.7812 317.9902 0002438  62.0366 298.1057 14.19525452736847

#Time	Az	El	Level	Level2	SNR	BER	BlckErr	Temp	State	Recorded	gain1	gain2
2026-01-16 07:30:30.85	78.69	5.04	-46.9	-64.6	3.8	1.49e+00	0	41	0	0	64	29074
2026-01-16 07:30:31.84	78.58	5.08	-47.9	-64.6	3.8	1.49e+00	0	42	104	0	66	26066
2026-01-16 07:30:32.85	78.46	5.13	-47.8	-64.6	3.8	1.49e+00	0	41	104	0	66	26064
2026-01-16 07:30:33.85	78.34	5.18	-47.7	-64.6	3.8	1.49e+00	0	41	104	0	66	25885
2026-01-16 07:30:34.84	78.22	5.22	-47.9	-64.5	3.8	1.49e+00	0	41	104	0	66	25715
2026-01-16 07:30:35.84	78.10	5.27	-47.4	-64.3	3.8	1.49e+00	0	41	104	0	66	25026
2026-01-16 07:30:36.84	77.98	5.31	-48.8	-64.7	3.8	1.49e+00	0	42	104	0	68	23487
2026-01-16 07:30:37.84	77.86	5.36	-47.9	-64.6	3.8	1.49e+00	0	41	104	0	66	26011
2026-01-16 07:30:38.84	77.74	5.40	-47.6	-64.6	3.8	1.49e+00	0	42	104	0	67	24590
2026-01-16 07:30:39.84	77.62	5.45	-48.4	-64.6	3.8	1.49e+00	0	42	104	0	67	24682
2026-01-16 07:30:40.84	77.50	5.49	-48.0	-64.6	3.8	1.49e+00	0	42	104	0	67	24612
2026-01-16 07:30:41.83	77.38	5.54	-48.0	-64.7	3.8	1.49e+00	0	42	104	0	66	26170
2026-01-16 07:30:42.83	77.26	5.58	-48.0	-64.7	3.8	1.49e+00	0	41	104	0	66	26266
2026-01-16 07:30:43.83	77.14	5.63	-48.0	-64.7	3.8	1.49e+00	0	42	104	0	66	26240
2026-01-16 07:30:44.83	77.01	5.67	-48.0	-64.7	3.8	1.49e+00	0	42	104	0	66	26203
2026-01-16 07:30:45.83	76.89	5.72	-47.9	-64.7	3.8	1.49e+00	0	42	104	0	66	26259
2026-01-16 07:30:46.83	76.77	5.76	-48.0	-64.7	3.8	1.49e+00	0	42	104	0	66	26197
2026-01-16 07:30:47.83	76.64	5.80	-48.0	-64.7	3.8	1.49e+00	0	42	104	0	66	26168
2026-01-16 07:30:48.83	76.52	5.85	-48.0	-64.6	3.8	1.49e+00	0	42	104	0	66	26105
2026-01-16 07:30:49.83	76.40	5.89	-47.7	-64.6	3.8	1.49e+00	0	42	104	0	66	25954
2026-01-16 07:30:50.83	76.27	5.94	-48.1	-64.7	3.8	1.49e+00	0	42	104	0	67	24875
2026-01-16 07:30:51.83	76.15	5.98	-48.0	-64.6	3.8	1.49e+00	0	42	104	0	67	24540
2026-01-16 07:30:52.83	76.02	6.03	-48.0	-64.6	3.8	1.49e+00	0	42	104	0	67	24656
2026-01-16 07:30:53.83	75.89	6.07	-47.5	-64.6	3.8	1.49e+00	0	42	104	0	67	24413
2026-01-16 07:30:54.83	75.77	6.12	-47.9	-64.6	3.8	1.49e+00	0	42	104	0	67	24654
2026-01-16 07:30:55.82	75.64	6.16	-47.8	-64.7	3.8	1.49e+00	0	42	104	0	67	24719
2026-01-16 07:30:56.82	75.52	6.20	-47.9	-64.7	3.8	1.49e+00	0	42	104	0	67	24730
2026-01-16 07:30:57.82	75.39	6.25	-48.0	-64.6	3.8	1.49e+00	0	42	104	0	67	24579
2026-01-16 07:30:58.82	75.26	6.29	-47.7	-64.6	3.8	1.49e+00	0	42	104	0	67	24599
2026-01-16 07:30:59.82	75.13	6.34	-47.6	-64.6	3.8	1.49e+00	0	42	104	0	67	24516
2026-01-16 07:31:00.83	75.00	6.38	-48.0	-64.6	3.8	1.49e+00	0	42	104	0	66	26076
2026-01-16 07:31:01.82	74.87	6.43	-47.4	-64.6	3.8	1.49e+00	0	42	104	0	66	26004
2026-01-16 07:31:02.82	74.74	6.47	-48.1	-64.6	3.8	1.49e+00	0	42	104	0	67	24637
2026-01-16 07:31:03.82	74.61	6.51	-48.1	-64.6	3.8	1.49e+00	0	42	104	0	67	24619
2026-01-16 07:31:04.82	74.48	6.56	-48.1	-64.6	3.8	1.49e+00	0	42	104	0	67	24545
2026-01-16 07:31:05.82	74.35	6.60	-47.7	-64.6	3.8	1.49e+00	0	42	104	0	67	24630
2026-01-16 07:31:06.82	74.22	6.64	-47.7	-64.6	3.8	1.49e+00	0	42	104	0	67	24678
2026-01-16 07:31:07.82	74.09	6.69	-47.7	-64.6	3.8	1.49e+00	0	43	104	0	67	24673
2026-01-16 07:31:08.82	73.96	6.73	-47.7	-64.6	3.8	1.49e+00	0	43	104	0	67	24561
2026-01-16 07:31:09.82	73.83	6.78	-47.6	-64.6	3.8	1.49e+00	0	42	104	0	67	24611
2026-01-16 07:31:10.81	73.69	6.82	-48.1	-64.6	3.8	1.49e+00	0	43	104	0	67	24624
2026-01-16 07:31:11.81	73.56	6.86	-47.8	-64.7	3.8	1.49e+00	0	43	104	0	66	26172
2026-01-16 07:31:12.81	73.43	6.90	-47.9	-64.7	3.8	1.49e+00	0	43	104	0	66	26226
2026-01-16 07:31:13.81	73.29	6.95	-47.9	-64.6	3.8	1.49e+00	0	43	104	0	67	24618
2026-01-16 07:31:14.81	73.16	6.99	-48.0	-64.7	3.8	1.49e+00	0	43	104	0	67	24705
2026-01-16 07:31:15.81	73.02	7.03	-47.9	-64.6	3.8	1.49e+00	0	43	104	0	67	24632
2026-01-16 07:31:16.80	72.89	7.08	-47.9	-64.6	3.8	1.49e+00	0	43	104	0	67	24582
2026-01-16 07:31:17.80	72.75	7.12	-47.9	-64.6	3.8	1.49e+00	0	43	104	0	67	24477
2026-01-16 07:31:18.81	72.62	7.16	-47.9	-64.6	3.8	1.49e+00	0	43	104	0	67	24447
2026-01-16 07:31:19.80	72.48	7.21	-47.9	-64.6	3.8	1.49e+00	0	43	104	0	67	24625
2026-01-16 07:31:20.81	72.34	7.25	-47.8	-64.6	3.8	1.49e+00	0	43	104	0	67	24651
2026-01-16 07:31:21.81	72.21	7.29	-47.8	-64.6	3.8	1.49e+00	0	43	104	0	67	24604
2026-01-16 07:31:22.80	72.07	7.33	-48.0	-64.6	3.8	1.49e+00	0	43	104	0	67	24691
2026-01-16 07:31:23.80	71.93	7.38	-47.9	-64.6	3.8	1.49e+00	0	43	104	0	67	24650
2026-01-16 07:31:24.80	71.79	7.42	-47.9	-64.7	3.8	1.49e+00	0	43	104	0	67	24710
2026-01-16 07:31:25.79	71.66	7.46	-47.9	-64.6	3.8	1.49e+00	0	43	104	0	67	24649
2026-01-16 07:31:26.79	71.52	7.50	-47.9	-64.6	3.8	1.49e+00	0	43	104	0	67	24471
2026-01-16 07:31:27.79	71.38	7.54	-48.0	-64.5	3.8	1.49e+00	0	43	104	0	67	24406
2026-01-16 07:31:28.80	71.24	7.59	-48.0	-64.8	3.8	1.49e+00	0	43	104	0	67	25209
2026-01-16 07:31:29.80	71.10	7.63	-48.0	-64.7	3.8	1.49e+00	0	43	104	0	67	24813
2026-01-16 07:31:30.79	70.96	7.67	-47.9	-64.7	3.8	1.49e+00	0	43	104	0	67	24716
2026-01-16 07:31:31.79	70.81	7.71	-48.4	-64.6	3.8	1.49e+00	0	43	104	0	67	24481
2026-01-16 07:31:32.79	70.67	7.75	-48.3	-64.7	3.8	1.49e+00	0	43	104	0	67	24795
2026-01-16 07:31:33.79	70.53	7.79	-47.5	-64.6	3.8	1.49e+00	0	43	104	0	67	24472
2026-01-16 07:31:34.79	70.39	7.84	-48.0	-64.7	3.8	1.49e+00	0	43	104	0	68	23403
2026-01-16 07:31:35.79	70.24	7.88	-48.2	-64.7	3.8	1.49e+00	0	43	104	0	67	24737
2026-01-16 07:31:36.79	70.10	7.92	-48.2	-64.6	3.8	1.49e+00	0	43	104	0	67	24606
2026-01-16 07:31:37.78	69.96	7.96	-48.3	-64.7	3.8	1.49e+00	0	43	104	0	67	24733
2026-01-16 07:31:38.78	69.81	8.00	-48.2	-64.6	3.8	1.49e+00	0	43	104	0	67	24594
2026-01-16 07:31:39.78	69.67	8.04	-48.2	-64.6	3.8	1.49e+00	0	43	104	0	67	24632
2026-01-16 07:31:40.78	69.53	8.08	-48.2	-64.7	3.8	1.49e+00	0	43	104	0	67	24718
2026-01-16 07:31:41.78	69.38	8.12	-48.2	-64.6	3.8	1.49e+00	0	43	104	0	67	24680
2026-01-16 07:31:42.78	69.23	8.16	-48.2	-64.6	3.8	1.49e+00	0	43	104	0	67	24591
2026-01-16 07:31:43.78	69.09	8.20	-48.2	-64.6	3.8	1.49e+00	0	43	104	0	67	24664
2026-01-16 07:31:44.77	68.94	8.24	-48.5	-64.6	3.8	1.49e+00	0	43	104	0	67	24509
2026-01-16 07:31:45.77	68.80	8.28	-48.3	-64.7	3.8	1.49e+00	0	43	104	0	67	24710
2026-01-16 07:31:46.77	68.65	8.32	-48.2	-64.6	3.8	1.49e+00	0	43	104	0	67	24692
2026-01-16 07:31:47.77	68.50	8.36	-48.2	-64.6	3.8	1.49e+00	0	43	104	0	67	24642
2026-01-16 07:31:48.77	68.35	8.40	-48.3	-64.6	3.8	1.49e+00	0	43	104	0	67	24690
2026-01-16 07:31:49.76	68.20	8.44	-48.3	-64.6	3.8	1.49e+00	0	43	104	0	67	24632
2026-01-16 07:31:50.77	68.05	8.48	-48.3	-64.6	3.8	1.49e+00	0	43	104	0	67	24691
2026-01-16 07:31:51.77	67.90	8.52	-48.3	-64.6	3.8	1.49e+00	0	43	104	0	67	24676
2026-01-16 07:31:52.76	67.76	8.56	-48.3	-64.6	3.8	1.49e+00	0	43	104	0	67	24637
2026-01-16 07:31:53.76	67.61	8.60	-48.3	-64.6	3.8	1.49e+00	0	43	104	0	67	24641
2026-01-16 07:31:54.76	67.46	8.64	-48.2	-64.6	3.8	1.49e+00	0	43	104	0	67	24609
2026-01-16 07:31:55.76	67.30	8.68	-48.2	-64.6	3.8	1.49e+00	0	43	104	0	67	24692
2026-01-16 07:31:56.76	67.15	8.72	-48.2	-64.7	3.8	1.49e+00	0	43	104	0	67	24765
2026-01-16 07:31:57.76	67.00	8.76	-48.2	-64.6	3.8	1.49e+00	0	43	104	0	67	24601
2026-01-16 07:31:58.76	66.85	8.79	-48.3	-64.7	3.8	1.49e+00	0	43	104	0	67	24768
2026-01-16 07:31:59.76	66.70	8.83	-48.3	-64.6	3.8	1.49e+00	0	43	104	0	67	24660
2026-01-16 07:32:00.75	66.54	8.87	-48.3	-64.6	3.8	1.49e+00	0	43	104	0	67	24599
2026-01-16 07:32:01.75	66.39	8.91	-48.3	-64.6	3.8	1.49e+00	0	43	104	0	67	24552
2026-01-16 07:32:02.75	66.24	8.95	-48.3	-64.6	3.8	1.49e+00	0	43	104	0	67	24526
2026-01-16 07:32:03.75	66.08	8.99	-48.2	-64.6	3.8	1.49e+00	0	43	104	0	67	24586
2026-01-16 07:32:04.74	65.93	9.02	-48.3	-64.6	3.8	1.49e+00	0	43	104	0	67	24599
2026-01-16 07:32:05.74	65.77	9.06	-48.3	-64.6	3.8	1.49e+00	0	43	104	0	67	24672
2026-01-16 07:32:06.74	65.62	9.10	-48.2	-64.6	3.8	1.49e+00	0	43	104	0	67	24626
2026-01-16 07:32:07.74	65.46	9.14	-48.2	-64.6	3.8	1.49e+00	0	43	104	0	67	24644
2026-01-16 07:32:08.74	65.30	9.17	-48.2	-64.6	3.8	1.49e+00	0	43	104	0	67	24623
2026-01-16 07:32:09.74	65.15	9.21	-48.3	-64.7	3.8	1.49e+00	0	43	104	0	67	24706
2026-01-16 07:32:10.74	64.99	9.25	-48.2	-64.6	3.8	1.49e+00	0	43	104	0	67	24570
2026-01-16 07:32:11.74	64.83	9.28	-48.3	-64.7	3.8	1.49e+00	0	43	104	0	67	24701
2026-01-16 07:32:12.74	64.67	9.32	-48.3	-64.6	3.8	1.49e+00	0	43	104	0	67	24591
2026-01-16 07:32:13.73	64.52	9.36	-48.2	-64.7	3.8	1.49e+00	0	43	104	0	67	24696
2026-01-16 07:32:14.74	64.36	9.39	-48.2	-64.7	3.8	1.49e+00	0	43	104	0	67	24709
2026-01-16 07:32:15.74	64.20	9.43	-48.2	-64.6	3.8	1.49e+00	0	43	104	0	67	24652
2026-01-16 07:32:16.74	64.04	9.46	-48.2	-64.6	3.8	1.49e+00	0	43	104	0	67	24575
2026-01-16 07:32:17.74	63.88	9.50	-48.2	-64.6	3.8	1.49e+00	0	44	104	0	67	24640
2026-01-16 07:32:18.73	63.72	9.54	-48.3	-64.6	3.8	1.49e+00	0	44	104	0	67	24623
2026-01-16 07:32:19.73	63.56	9.57	-48.2	-64.6	3.8	1.49e+00	0	43	104	0	67	24609
2026-01-16 07:32:20.73	63.40	9.61	-48.2	-64.6	3.8	1.49e+00	0	43	104	0	67	24611
2026-01-16 07:32:21.73	63.24	9.64	-48.3	-64.6	3.8	1.49e+00	0	43	104	0	67	24651
2026-01-16 07:32:22.73	63.07	9.68	-48.2	-64.6	3.8	1.49e+00	0	44	104	0	67	24596
2026-01-16 07:32:23.74	62.91	9.71	-48.3	-64.6	3.8	1.49e+00	0	44	104	0	67	24665
2026-01-16 07:32:24.74	62.75	9.75	-48.3	-64.6	3.8	1.49e+00	0	44	104	0	67	24637
2026-01-16 07:32:25.73	62.59	9.78	-48.3	-64.6	3.8	1.49e+00	0	43	104	0	67	24645
2026-01-16 07:32:26.73	62.42	9.82	-48.3	-64.6	3.8	1.49e+00	0	43	104	0	67	24674
2026-01-16 07:32:27.73	62.26	9.85	-48.2	-64.6	3.8	1.49e+00	0	44	104	0	67	24648
2026-01-16 07:32:28.73	62.09	9.88	-48.3	-64.6	3.8	1.49e+00	0	43	104	0	67	24675
2026-01-16 07:32:29.73	61.93	9.92	-48.3	-64.6	3.8	1.49e+00	0	44	104	0	67	24653
2026-01-16 07:32:30.73	61.76	9.95	-48.2	-64.6	3.8	1.49e+00	0	44	104	0	67	24565
2026-01-16 07:32:31.72	61.60	9.98	-48.3	-64.6	3.8	1.49e+00	0	44	104	0	67	24624
2026-01-16 07:32:32.72	61.43	10.02	-48.2	-64.6	3.8	1.49e+00	0	44	104	0	67	24638
2026-01-16 07:32:33.72	61.27	10.05	-48.2	-64.6	3.8	1.49e+00	0	44	104	0	67	24616
2026-01-16 07:32:34.72	61.10	10.08	-48.2	-64.7	3.8	1.49e+00	0	43	104	0	67	24734
2026-01-16 07:32:35.71	60.94	10.12	-48.2	-64.6	3.8	1.49e+00	0	44	104	0	67	24686
2026-01-16 07:32:36.71	60.77	10.15	-48.2	-64.6	3.8	1.49e+00	0	44	104	0	67	24638
2026-01-16 07:32:37.72	60.60	10.18	-48.2	-64.6	3.8	1.49e+00	0	44	104	0	67	24686
2026-01-16 07:32:38.71	60.43	10.21	-48.2	-64.6	3.8	1.49e+00	0	43	104	0	67	24671
2026-01-16 07:32:39.71	60.26	10.24	-48.2	-64.7	3.8	1.49e+00	0	44	104	0	67	24732
2026-01-16 07:32:40.70	60.10	10.28	-48.3	-64.6	3.8	1.49e+00	0	44	104	0	67	24589
2026-01-16 07:32:41.70	59.93	10.31	-48.3	-64.6	3.8	1.49e+00	0	44	104	0	67	24662
2026-01-16 07:32:42.70	59.76	10.34	-48.3	-64.7	3.8	1.49e+00	0	44	104	0	67	24740
2026-01-16 07:32:43.70	59.59	10.37	-48.3	-64.7	3.8	1.49e+00	0	44	104	0	67	24704
2026-01-16 07:32:44.69	59.42	10.40	-48.3	-64.7	3.8	1.49e+00	0	44	104	0	67	24735
2026-01-16 07:32:45.69	59.25	10.43	-48.2	-64.7	3.8	1.49e+00	0	44	104	0	67	24704
2026-01-16 07:32:46.69	59.08	10.46	-48.3	-64.7	3.8	1.49e+00	0	43	104	0	67	24739
2026-01-16 07:32:47.68	58.91	10.49	-48.2	-64.6	3.8	1.49e+00	0	44	104	0	67	24625
2026-01-16 07:32:48.68	58.74	10.52	-48.2	-64.7	3.8	1.49e+00	0	44	104	0	67	24743
2026-01-16 07:32:49.69	58.56	10.55	-48.3	-64.6	3.8	1.49e+00	0	44	104	0	67	24603
2026-01-16 07:32:50.68	58.39	10.58	-48.2	-64.6	3.8	1.49e+00	0	44	104	0	67	24614
2026-01-16 07:32:51.68	58.22	10.61	-48.2	-64.7	3.8	1.49e+00	0	43	104	0	67	24705
2026-01-16 07:32:52.69	58.04	10.64	-48.2	-64.6	3.8	1.49e+00	0	43	104	0	67	24684
2026-01-16 07:32:53.68	57.87	10.67	-48.2	-64.6	3.8	1.49e+00	0	44	104	0	67	24674
2026-01-16 07:32:54.68	57.70	10.70	-48.2	-64.6	3.8	1.49e+00	0	44	104	0	67	24639
2026-01-16 07:32:55.68	57.52	10.73	-48.2	-64.7	3.8	1.49e+00	0	44	104	0	67	24714
2026-01-16 07:32:56.68	57.35	10.75	-48.2	-64.6	3.8	1.49e+00	0	44	104	0	67	24641
2026-01-16 07:32:57.68	57.17	10.78	-48.2	-64.6	3.8	1.49e+00	0	43	104	0	67	24656
2026-01-16 07:32:58.68	57.00	10.81	-48.2	-64.6	3.8	1.49e+00	0	44	104	0	67	24686
2026-01-16 07:32:59.68	56.82	10.84	-48.2	-64.7	3.8	1.49e+00	0	44	104	0	67	24743
2026-01-16 07:33:00.68	56.65	10.87	-48.2	-64.6	3.8	1.49e+00	0	44	104	0	67	24659
2026-01-16 07:33:01.67	56.47	10.89	-48.2	-64.6	3.8	1.49e+00	0	44	104	0	67	24611
2026-01-16 07:33:02.66	56.30	10.92	-48.2	-64.7	3.8	1.49e+00	0	44	104	0	67	24729
2026-01-16 07:33:03.66	56.12	10.95	-48.2	-64.7	3.8	1.49e+00	0	43	104	0	67	24707
2026-01-16 07:33:04.65	55.95	10.97	-48.2	-64.6	3.8	1.49e+00	0	44	104	0	67	24592
2026-01-16 07:33:05.65	55.77	11.00	-48.2	-64.6	3.8	1.49e+00	0	43	104	0	67	24652
2026-01-16 07:33:06.65	55.59	11.02	-48.2	-64.7	3.8	1.49e+00	0	44	104	0	67	24698
2026-01-16 07:33:07.65	55.41	11.05	-48.2	-64.6	3.8	1.49e+00	0	44	104	0	67	24681
2026-01-16 07:33:08.65	55.23	11.08	-48.2	-64.6	3.8	1.49e+00	0	43	104	0	67	24691
2026-01-16 07:33:09.64	55.06	11.10	-48.2	-64.7	3.8	1.49e+00	0	44	104	0	67	24695
2026-01-16 07:33:10.64	54.88	11.13	-49.5	-64.9	3.8	1.49e+00	0	44	104	0	69	22708
2026-01-16 07:33:11.64	54.70	11.15	-49.2	-65.2	3.8	1.49e+00	0	44	104	0	69	23379
2026-01-16 07:33:12.63	54.52	11.18	-49.9	-65.3	3.8	1.49e+00	0	44	104	0	70	22408
2026-01-16 07:33:13.63	54.34	11.20	-50.0	-65.4	3.8	1.49e+00	0	44	104	0	70	22589
2026-01-16 07:33:14.63	54.16	11.22	-49.9	-65.4	3.8	1.49e+00	0	44	104	0	70	22545
2026-01-16 07:33:15.63	53.98	11.25	-50.1	-65.4	3.8	1.49e+00	0	44	104	0	70	22700
2026-01-16 07:33:16.63	53.80	11.27	-50.2	-65.4	3.8	1.49e+00	0	43	104	0	71	21444
2026-01-16 07:33:17.62	53.62	11.29	-50.1	-65.4	3.8	1.49e+00	0	44	104	0	71	21503
2026-01-16 07:33:18.62	53.44	11.32	-50.3	-65.5	3.8	1.49e+00	0	44	104	0	71	21634
2026-01-16 07:33:19.62	53.26	11.34	-50.2	-65.5	3.8	1.49e+00	0	44	104	0	71	21610
2026-01-16 07:33:20.62	53.07	11.36	-50.3	-65.5	3.8	1.49e+00	0	44	104	0	71	21690
2026-01-16 07:33:21.61	52.89	11.38	-50.3	-65.5	3.8	1.49e+00	0	44	104	0	71	21674
2026-01-16 07:33:22.62	52.71	11.41	-50.3	-65.6	3.8	1.49e+00	0	44	104	0	71	21820
2026-01-16 07:33:23.62	52.53	11.43	-50.3	-65.5	3.8	1.49e+00	0	43	104	0	71	21729
2026-01-16 07:33:24.61	52.35	11.45	-50.4	-65.6	3.8	1.49e+00	0	44	104	0	71	21812
2026-01-16 07:33:25.61	52.16	11.47	-50.4	-65.6	3.8	1.49e+00	0	44	104	0	71	21797
2026-01-16 07:33:26.61	51.98	11.49	-50.3	-65.6	3.8	1.49e+00	0	43	104	0	71	21783
2026-01-16 07:33:27.61	51.79	11.51	-50.4	-65.6	3.8	1.49e+00	0	44	104	0	71	21775
2026-01-16 07:33:28.60	51.61	11.53	-50.3	-65.5	3.8	1.49e+00	0	43	104	0	71	21746
2026-01-16 07:33:29.60	51.43	11.55	-50.3	-65.6	3.8	1.49e+00	0	44	104	0	71	21860
2026-01-16 07:33:30.59	51.25	11.57	-50.4	-65.6	3.8	1.49e+00	0	44	104	0	71	21770
2026-01-16 07:33:31.59	51.06	11.59	-50.4	-65.6	3.8	1.49e+00	0	43	104	0	71	21829
2026-01-16 07:33:32.59	50.88	11.61	-50.5	-65.6	3.8	1.49e+00	0	44	104	0	71	21806
2026-01-16 07:33:33.59	50.69	11.63	-50.4	-65.6	3.8	1.49e+00	0	44	104	0	71	21834
2026-01-16 07:33:34.59	50.50	11.65	-50.2	-65.6	3.8	1.49e+00	0	43	104	0	71	21827
2026-01-16 07:33:35.59	50.32	11.67	-50.4	-65.6	3.8	1.49e+00	0	44	104	0	71	21840
2026-01-16 07:33:36.58	50.13	11.69	-50.3	-65.6	3.8	1.49e+00	0	44	104	0	71	21860
2026-01-16 07:33:37.58	49.95	11.70	-50.2	-65.6	3.8	1.49e+00	0	44	104	0	71	21912
2026-01-16 07:33:38.58	49.76	11.72	-50.0	-65.5	3.8	1.49e+00	0	44	104	0	71	21723
2026-01-16 07:33:39.58	49.57	11.74	-50.0	-65.5	3.8	1.49e+00	0	44	104	0	71	21701
2026-01-16 07:33:40.58	49.39	11.76	-50.0	-65.5	3.8	1.49e+00	0	44	104	0	71	21618
2026-01-16 07:33:41.58	49.20	11.77	-50.0	-65.5	3.8	1.49e+00	0	44	104	0	71	21623
2026-01-16 07:33:42.57	49.01	11.79	-50.0	-65.5	3.8	1.49e+00	0	44	104	0	71	21599
2026-01-16 07:33:43.57	48.83	11.81	-50.0	-65.5	3.8	1.49e+00	0	44	104	0	71	21682
2026-01-16 07:33:44.56	48.64	11.82	-50.2	-65.5	3.8	1.49e+00	0	44	104	0	71	21685
2026-01-16 07:33:45.56	48.45	11.84	-50.2	-65.6	3.8	1.49e+00	0	44	104	0	71	21829
2026-01-16 07:33:46.56	48.26	11.85	-50.3	-65.6	3.8	1.49e+00	0	44	104	0	71	21856
2026-01-16 07:33:47.56	48.08	11.87	-50.5	-65.6	3.8	1.49e+00	0	44	104	0	71	21910
2026-01-16 07:33:48.55	47.89	11.88	-50.4	-65.6	3.8	1.49e+00	0	44	104	0	71	21825
2026-01-16 07:33:49.55	47.70	11.90	-50.4	-65.6	3.8	1.49e+00	0	44	104	0	71	21998
2026-01-16 07:33:50.55	47.51	11.91	-50.5	-65.6	3.8	1.49e+00	0	44	104	0	71	21976
2026-01-16 07:33:51.55	47.32	11.93	-50.4	-65.6	3.8	1.49e+00	0	44	104	0	71	21865
2026-01-16 07:33:52.55	47.13	11.94	-50.4	-65.6	3.8	1.49e+00	0	44	104	0	71	21845
2026-01-16 07:33:53.55	46.94	11.95	-50.4	-65.6	3.8	1.49e+00	0	44	104	0	71	21795
2026-01-16 07:33:54.55	46.75	11.97	-50.2	-65.6	3.8	1.49e+00	0	44	104	0	71	21808
2026-01-16 07:33:55.54	46.57	11.98	-50.2	-65.5	3.8	1.49e+00	0	44	104	0	71	21711
2026-01-16 07:33:56.54	46.38	11.99	-50.2	-65.5	3.8	1.49e+00	0	44	104	0	71	21755
2026-01-16 07:33:57.54	46.19	12.00	-50.3	-65.5	3.8	1.49e+00	0	44	104	0	71	21553
2026-01-16 07:33:58.54	45.99	12.02	-50.1	-65.4	3.8	1.49e+00	0	44	104	0	71	21492
2026-01-16 07:33:59.53	45.81	12.03	-50.0	-65.4	3.8	1.49e+00	0	44	104	0	71	21313
2026-01-16 07:34:00.53	45.62	12.04	-49.9	-65.4	3.8	1.49e+00	0	44	104	0	71	21328
2026-01-16 07:34:01.52	45.43	12.05	-49.9	-65.4	3.8	1.49e+00	0	44	104	0	70	22648
2026-01-16 07:34:02.52	45.24	12.06	-50.1	-65.3	3.8	1.49e+00	0	44	104	0	70	22519
2026-01-16 07:34:03.52	45.04	12.07	-49.9	-65.3	3.8	1.49e+00	0	44	104	0	70	22409
2026-01-16 07:34:04.52	44.85	12.08	-49.5	-65.3	3.8	1.49e+00	0	44	104	0	70	22397
2026-01-16 07:34:05.52	44.66	12.09	-49.5	-65.3	3.8	1.49e+00	0	44	104	0	70	22417
2026-01-16 07:34:06.52	44.47	12.10	-48.8	-65.2	3.8	1.49e+00	0	44	104	0	69	23528
2026-01-16 07:34:07.52	44.28	12.11	-49.8	-65.2	3.8	1.49e+00	0	44	104	0	70	22144
2026-01-16 07:34:08.51	44.09	12.12	-48.5	-65.1	3.8	1.49e+00	0	44	104	0	68	24611
2026-01-16 07:34:09.51	43.90	12.13	-48.3	-65.1	3.8	1.49e+00	0	44	104	0	68	24524
2026-01-16 07:34:10.51	43.71	12.13	-47.3	-64.8	3.8	1.49e+00	0	44	104	0	66	26700
2026-01-16 07:34:11.51	43.51	12.14	-47.2	-64.9	3.8	1.49e+00	0	44	104	0	66	26787
2026-01-16 07:34:12.51	43.32	12.15	-47.2	-64.8	3.8	1.49e+00	0	44	104	0	66	26609
2026-01-16 07:34:13.50	43.13	12.16	-47.2	-64.8	3.8	1.49e+00	0	44	104	0	66	26669
2026-01-16 07:34:14.51	42.94	12.16	-47.2	-64.9	3.8	1.49e+00	0	44	104	0	66	26855
2026-01-16 07:34:15.50	42.75	12.17	-47.2	-64.8	3.8	1.49e+00	0	44	104	0	66	26741
2026-01-16 07:34:16.50	42.55	12.18	-47.2	-64.8	3.8	1.49e+00	0	44	104	0	66	26740
2026-01-16 07:34:17.50	42.36	12.18	-47.2	-64.8	3.8	1.49e+00	0	44	104	0	66	26749
2026-01-16 07:34:18.50	42.17	12.19	-47.2	-64.9	3.8	1.49e+00	0	44	104	0	66	26769
2026-01-16 07:34:19.50	41.98	12.19	-47.2	-64.8	3.8	1.49e+00	0	44	104	0	66	26750
2026-01-16 07:34:20.51	41.78	12.20	-47.2	-64.8	3.8	1.49e+00	0	44	104	0	66	26731
2026-01-16 07:34:21.51	41.59	12.20	-47.2	-64.8	3.8	1.49e+00	0	44	104	0	66	26744
2026-01-16 07:34:22.50	41.40	12.21	-47.2	-64.8	3.8	1.49e+00	0	44	104	0	66	26755
2026-01-16 07:34:23.50	41.20	12.21	-47.2	-64.9	3.8	1.49e+00	0	44	104	0	66	26776
2026-01-16 07:34:24.50	41.01	12.22	-47.2	-64.9	3.8	1.49e+00	0	44	104	0	66	26782
2026-01-16 07:34:25.50	40.82	12.22	-47.2	-64.8	3.8	1.49e+00	0	44	104	0	66	26763
2026-01-16 07:34:26.50	40.63	12.22	-47.2	-64.8	3.8	1.49e+00	0	44	104	0	66	26734
2026-01-16 07:34:27.51	40.43	12.22	-47.1	-64.8	3.8	1.49e+00	0	44	104	0	66	26647
2026-01-16 07:34:28.50	40.24	12.23	-47.2	-64.9	3.8	1.49e+00	0	44	104	0	66	26851
2026-01-16 07:34:29.50	40.05	12.23	-47.2	-64.9	3.8	1.49e+00	0	44	104	0	66	26836
2026-01-16 07:34:30.50	39.85	12.23	-47.2	-64.9	3.8	1.49e+00	0	44	104	0	66	26788
2026-01-16 07:34:31.50	39.66	12.23	-47.2	-64.9	3.8	1.49e+00	0	44	104	0	66	26788
2026-01-16 07:34:32.50	39.47	12.23	-47.2	-64.9	3.8	1.49e+00	0	44	104	0	66	26861
2026-01-16 07:34:33.50	39.27	12.23	-47.1	-64.9	3.8	1.49e+00	0	44	104	0	66	26914
2026-01-16 07:34:34.50	39.08	12.24	-47.2	-64.9	3.8	1.49e+00	0	44	104	0	66	26854
2026-01-16 07:34:35.50	38.89	12.24	-47.2	-64.8	3.8	1.49e+00	0	44	104	0	66	26710
2026-01-16 07:34:36.50	38.69	12.24	-47.2	-64.9	3.8	1.49e+00	0	44	104	0	66	26774
2026-01-16 07:34:37.50	38.50	12.24	-47.1	-64.9	3.8	1.49e+00	0	44	104	0	66	26815
2026-01-16 07:34:38.49	38.31	12.23	-47.2	-64.9	3.8	1.49e+00	0	44	104	0	66	26789
2026-01-16 07:34:39.49	38.12	12.23	-47.2	-64.9	3.8	1.49e+00	0	44	104	0	66	26782
2026-01-16 07:34:40.49	37.92	12.23	-47.2	-64.8	3.8	1.49e+00	0	44	104	0	66	26760
2026-01-16 07:34:41.49	37.73	12.23	-47.2	-64.8	3.8	1.49e+00	0	44	104	0	66	26729
2026-01-16 07:34:42.49	37.54	12.23	-47.2	-64.9	3.8	1.49e+00	0	44	104	0	66	26827
2026-01-16 07:34:43.49	37.34	12.23	-47.2	-64.9	3.8	1.49e+00	0	44	104	0	66	26795
2026-01-16 07:34:44.49	37.15	12.22	-47.2	-64.8	3.8	1.49e+00	0	44	104	0	66	26709
2026-01-16 07:34:45.49	36.96	12.22	-47.2	-64.8	3.8	1.49e+00	0	44	104	0	66	26721
2026-01-16 07:34:46.49	36.76	12.22	-47.2	-64.9	3.8	1.49e+00	0	44	104	0	66	26808
2026-01-16 07:34:47.48	36.57	12.21	-47.2	-64.8	3.8	1.49e+00	0	44	104	0	66	26719
2026-01-16 07:34:48.48	36.38	12.21	-47.2	-64.9	3.8	1.49e+00	0	44	104	0	66	26862
2026-01-16 07:34:49.48	36.19	12.21	-47.2	-64.8	3.8	1.49e+00	0	44	104	0	66	26727
2026-01-16 07:34:50.48	35.99	12.20	-47.1	-64.8	3.8	1.49e+00	0	44	104	0	66	26733
2026-01-16 07:34:51.48	35.80	12.20	-47.2	-64.8	3.8	1.49e+00	0	44	104	0	66	26764
2026-01-16 07:34:52.48	35.61	12.19	-47.2	-64.9	3.8	1.49e+00	0	44	104	0	66	26833
2026-01-16 07:34:53.48	35.42	12.19	-47.2	-64.9	3.8	1.49e+00	0	44	104	0	66	26788
2026-01-16 07:34:54.48	35.22	12.18	-47.2	-64.9	3.8	1.49e+00	0	44	104	0	66	26789
2026-01-16 07:34:55.48	35.03	12.18	-47.1	-64.8	3.8	1.49e+00	0	44	104	0	65	28322
2026-01-16 07:34:56.48	34.84	12.17	-46.9	-64.8	3.8	1.49e+00	0	44	104	0	65	28340
2026-01-16 07:34:57.48	34.65	12.16	-47.1	-64.8	3.8	1.49e+00	0	44	104	0	65	28302
2026-01-16 07:34:58.48	34.46	12.16	-47.1	-64.8	3.8	1.49e+00	0	44	104	0	65	28341
2026-01-16 07:34:59.48	34.26	12.15	-47.3	-64.8	3.8	1.49e+00	0	44	104	0	65	28286
2026-01-16 07:35:00.48	34.07	12.14	-47.2	-64.8	3.8	1.49e+00	0	44	104	0	65	28327
2026-01-16 07:35:01.48	33.88	12.13	-47.1	-64.8	3.8	1.49e+00	0	44	104	0	66	26581
2026-01-16 07:35:02.48	33.69	12.12	-46.8	-64.8	3.8	1.49e+00	0	44	104	0	65	28242
2026-01-16 07:35:03.48	33.50	12.12	-46.3	-64.8	3.8	1.49e+00	0	44	104	0	64	29860
2026-01-16 07:35:04.48	33.30	12.11	-47.0	-64.8	3.8	1.49e+00	0	44	104	0	65	28321
2026-01-16 07:35:05.48	33.11	12.10	-47.0	-64.8	3.8	1.49e+00	0	44	104	0	65	28340
2026-01-16 07:35:06.48	32.92	12.09	-46.9	-64.8	3.8	1.49e+00	0	44	104	0	65	28296
2026-01-16 07:35:07.47	32.73	12.08	-47.0	-64.9	3.8	1.49e+00	0	44	104	0	65	28416
2026-01-16 07:35:08.47	32.54	12.07	-47.0	-64.8	3.8	1.49e+00	0	44	104	0	65	28320
2026-01-16 07:35:09.47	32.35	12.06	-47.1	-64.8	3.8	1.49e+00	0	44	104	0	65	28301
2026-01-16 07:35:10.48	32.16	12.05	-47.0	-64.9	3.8	1.49e+00	0	44	104	0	65	28359
2026-01-16 07:35:11.48	31.97	12.04	-47.0	-64.8	3.8	1.49e+00	0	44	104	0	65	28295
2026-01-16 07:35:12.48	31.78	12.03	-46.9	-64.8	3.8	1.49e+00	0	44	104	0	65	28324
2026-01-16 07:35:13.48	31.59	12.01	-46.8	-64.8	3.8	1.49e+00	0	44	104	0	65	28281
2026-01-16 07:35:14.48	31.40	12.00	-47.0	-64.8	3.8	1.49e+00	0	44	104	0	65	28292
2026-01-16 07:35:15.47	31.21	11.99	-47.0	-64.8	3.8	1.49e+00	0	44	104	0	65	28306
2026-01-16 07:35:16.47	31.02	11.98	-46.9	-64.8	3.8	1.49e+00	0	44	104	0	65	28295
2026-01-16 07:35:17.47	30.83	11.96	-46.7	-64.7	3.8	1.49e+00	0	44	104	0	65	27888
2026-01-16 07:35:18.47	30.64	11.95	-47.2	-64.8	3.8	1.49e+00	0	44	104	0	65	28208
2026-01-16 07:35:19.47	30.45	11.94	-47.2	-64.8	3.8	1.49e+00	0	44	104	0	65	28272
2026-01-16 07:35:20.47	30.26	11.92	-47.2	-64.8	3.8	1.49e+00	0	44	104	0	65	28298
2026-01-16 07:35:21.47	30.07	11.91	-47.0	-64.8	3.8	1.49e+00	0	44	104	0	65	28192
2026-01-16 07:35:22.47	29.88	11.90	-47.0	-64.8	3.8	1.49e+00	0	44	104	0	65	28204
2026-01-16 07:35:23.46	29.70	11.88	-47.2	-64.8	3.8	1.49e+00	0	44	104	0	65	28263
2026-01-16 07:35:24.46	29.51	11.87	-47.3	-64.8	3.8	1.49e+00	0	44	104	0	65	28269
2026-01-16 07:35:25.46	29.32	11.85	-47.3	-64.8	3.8	1.49e+00	0	44	104	0	65	28162
2026-01-16 07:35:26.46	29.13	11.84	-47.3	-64.8	3.8	1.49e+00	0	44	104	0	65	28134
2026-01-16 07:35:27.46	28.94	11.82	-47.3	-64.8	3.8	1.49e+00	0	44	104	0	65	28239
2026-01-16 07:35:28.46	28.76	11.80	-47.5	-64.8	3.8	1.49e+00	0	44	104	0	66	26699
2026-01-16 07:35:29.46	28.57	11.79	-47.3	-64.8	3.8	1.49e+00	0	44	104	0	65	28270
2026-01-16 07:35:30.46	28.38	11.77	-47.2	-64.8	3.8	1.49e+00	0	44	104	0	65	28285
2026-01-16 07:35:31.45	28.20	11.75	-46.0	-64.3	3.8	1.49e+00	0	44	104	0	64	28329
2026-01-16 07:35:32.45	28.01	11.74	-46.7	-64.8	3.8	1.49e+00	0	44	104	0	65	28288
2026-01-16 07:35:33.45	27.82	11.72	-47.1	-64.8	3.8	1.49e+00	0	44	104	0	65	28350
2026-01-16 07:35:34.45	27.64	11.70	-47.1	-64.8	3.8	1.49e+00	0	44	104	0	65	28333
2026-01-16 07:35:35.44	27.45	11.68	-47.0	-64.9	3.8	1.49e+00	0	44	104	0	65	28377
2026-01-16 07:35:36.44	27.27	11.67	-47.0	-64.9	3.8	1.49e+00	0	44	104	0	65	28451
2026-01-16 07:35:37.44	27.08	11.65	-47.2	-64.8	3.8	1.49e+00	0	44	104	0	65	28215
2026-01-16 07:35:38.44	26.90	11.63	-47.1	-64.8	3.8	1.49e+00	0	44	104	0	65	28254
2026-01-16 07:35:39.44	26.71	11.61	-47.3	-64.8	3.8	1.49e+00	0	44	104	0	65	28140
2026-01-16 07:35:40.44	26.53	11.59	-47.4	-64.8	3.8	1.49e+00	0	44	104	0	65	28285
2026-01-16 07:35:41.44	26.34	11.57	-47.3	-64.9	3.8	1.49e+00	0	44	104	0	65	28383
2026-01-16 07:35:42.43	26.16	11.55	-47.9	-64.8	3.8	1.49e+00	0	44	104	0	66	26729
2026-01-16 07:35:43.43	25.98	11.53	-47.3	-64.9	3.8	1.49e+00	0	44	104	0	66	26813
2026-01-16 07:35:44.43	25.79	11.51	-47.6	-64.8	3.8	1.49e+00	0	44	104	0	66	26675
2026-01-16 07:35:45.43	25.61	11.49	-47.2	-64.8	3.8	1.49e+00	0	44	104	0	65	28228
2026-01-16 07:35:46.42	25.43	11.47	-47.4	-64.9	3.8	1.49e+00	0	44	104	0	66	26790
2026-01-16 07:35:47.42	25.25	11.45	-47.4	-64.9	3.8	1.49e+00	0	44	104	0	66	26791
2026-01-16 07:35:48.42	25.06	11.43	-47.5	-64.9	3.8	1.49e+00	0	44	104	0	66	26801
2026-01-16 07:35:49.42	24.88	11.40	-47.4	-64.8	3.8	1.49e+00	0	44	104	0	66	26715
2026-01-16 07:35:50.41	24.70	11.38	-47.4	-64.9	3.8	1.49e+00	0	44	104	0	66	26819
2026-01-16 07:35:51.41	24.52	11.36	-47.3	-64.9	3.8	1.49e+00	0	44	104	0	66	26858
2026-01-16 07:35:52.41	24.34	11.34	-47.4	-65.0	3.8	1.49e+00	0	44	104	0	66	27148
2026-01-16 07:35:53.41	24.16	11.32	-47.1	-64.8	3.8	1.49e+00	0	44	104	0	65	28301
2026-01-16 07:35:54.42	23.97	11.29	-47.9	-64.8	3.8	1.49e+00	0	44	104	0	67	25268
2026-01-16 07:35:55.41	23.79	11.27	-46.5	-64.8	3.8	1.49e+00	0	44	104	0	65	28302
2026-01-16 07:35:56.41	23.61	11.25	-47.3	-64.9	3.8	1.49e+00	0	44	104	0	66	26814
2026-01-16 07:35:57.41	23.43	11.22	-47.0	-64.9	3.8	1.49e+00	0	44	104	0	66	26823
2026-01-16 07:35:58.41	23.25	11.20	-47.1	-64.8	3.8	1.49e+00	0	44	104	0	65	28250
2026-01-16 07:35:59.42	23.07	11.17	-47.4	-64.8	3.8	1.49e+00	0	44	104	0	66	26754
2026-01-16 07:36:00.41	22.89	11.15	-47.4	-64.8	3.8	1.49e+00	0	44	104	0	66	26644
2026-01-16 07:36:01.41	22.72	11.12	-47.3	-64.8	3.8	1.49e+00	0	44	104	0	66	26545
2026-01-16 07:36:02.41	22.54	11.10	-47.2	-64.8	3.8	1.49e+00	0	44	104	0	65	28103
2026-01-16 07:36:03.41	22.36	11.07	-47.3	-64.8	3.8	1.49e+00	0	44	104	0	65	28269
2026-01-16 07:36:04.41	22.18	11.05	-47.2	-64.8	3.8	1.49e+00	0	44	104	0	65	28206
2026-01-16 07:36:05.41	22.00	11.02	-47.3	-64.8	3.8	1.49e+00	0	44	104	0	66	26649
2026-01-16 07:36:06.41	21.83	11.00	-47.4	-64.8	3.8	1.49e+00	0	44	104	0	66	26640
2026-01-16 07:36:07.41	21.65	10.97	-47.3	-64.8	3.8	1.49e+00	0	44	104	0	66	26723
2026-01-16 07:36:08.41	21.47	10.94	-47.3	-64.8	3.8	1.49e+00	0	44	104	0	66	26708
2026-01-16 07:36:09.41	21.30	10.92	-47.4	-64.8	3.8	1.49e+00	0	44	104	0	66	26689
2026-01-16 07:36:10.41	21.12	10.89	-47.4	-64.8	3.8	1.49e+00	0	44	104	0	66	26692
2026-01-16 07:36:11.41	20.94	10.86	-47.4	-64.8	3.8	1.49e+00	0	44	104	0	66	26713
2026-01-16 07:36:12.41	20.77	10.83	-47.4	-64.8	3.8	1.49e+00	0	44	104	0	66	26663
2026-01-16 07:36:13.41	20.59	10.81	-47.4	-64.8	3.8	1.49e+00	0	44	104	0	66	26755
2026-01-16 07:36:14.41	20.42	10.78	-47.4	-64.8	3.8	1.49e+00	0	44	104	0	66	26738
2026-01-16 07:36:15.41	20.25	10.75	-47.4	-64.8	3.8	1.49e+00	0	44	104	0	66	26752
2026-01-16 07:36:16.40	20.07	10.72	-47.3	-64.8	3.8	1.49e+00	0	44	104	0	66	26716
2026-01-16 07:36:17.40	19.90	10.69	-47.5	-64.8	3.8	1.49e+00	0	44	104	0	66	26727
2026-01-16 07:36:18.40	19.73	10.67	-47.3	-64.8	3.8	1.49e+00	0	44	104	0	66	26738
2026-01-16 07:36:19.40	19.55	10.64	-47.3	-64.8	3.8	1.49e+00	0	44	104	0	66	26734
2026-01-16 07:36:20.40	19.38	10.61	-47.2	-64.8	3.8	1.49e+00	0	44	104	0	66	26712
2026-01-16 07:36:21.40	19.21	10.58	-47.3	-64.8	3.8	1.49e+00	0	44	104	0	66	26764
2026-01-16 07:36:22.40	19.04	10.55	-47.3	-64.8	3.8	1.49e+00	0	44	104	0	66	26725
2026-01-16 07:36:23.39	18.87	10.52	-47.4	-64.8	3.8	1.49e+00	0	44	104	0	66	26603
2026-01-16 07:36:24.39	18.70	10.49	-47.4	-64.8	3.8	1.49e+00	0	44	104	0	66	26564
2026-01-16 07:36:25.39	18.53	10.46	-47.4	-64.8	3.8	1.49e+00	0	44	104	0	66	26542
2026-01-16 07:36:26.38	18.36	10.43	-47.4	-64.8	3.8	1.49e+00	0	44	104	0	66	26549
2026-01-16 07:36:27.38	18.19	10.40	-47.4	-64.8	3.8	1.49e+00	0	44	104	0	66	26473
2026-01-16 07:36:28.38	18.02	10.37	-47.4	-64.7	3.8	1.49e+00	0	44	104	0	66	26426
2026-01-16 07:36:29.38	17.85	10.34	-47.4	-64.7	3.8	1.49e+00	0	44	104	0	66	26427
2026-01-16 07:36:30.38	17.68	10.30	-47.4	-64.8	3.8	1.49e+00	0	44	104	0	66	26516
2026-01-16 07:36:31.38	17.51	10.27	-47.4	-64.8	3.8	1.49e+00	0	44	104	0	66	26567
2026-01-16 07:36:32.38	17.34	10.24	-47.4	-64.9	3.8	1.49e+00	0	44	104	0	66	26767
2026-01-16 07:36:33.38	17.17	10.21	-47.4	-64.8	3.8	1.49e+00	0	44	104	0	66	26755
2026-01-16 07:36:34.38	17.01	10.18	-47.4	-64.8	3.8	1.49e+00	0	44	104	0	66	26680
2026-01-16 07:36:35.38	16.84	10.14	-47.4	-64.8	3.8	1.49e+00	0	44	104	0	66	26716
2026-01-16 07:36:36.38	16.67	10.11	-47.4	-64.8	3.8	1.49e+00	0	44	104	0	66	26608
2026-01-16 07:36:37.38	16.51	10.08	-47.4	-64.8	3.8	1.49e+00	0	44	104	0	66	26747
2026-01-16 07:36:38.37	16.34	10.05	-47.4	-64.8	3.8	1.49e+00	0	44	104	0	66	26735
2026-01-16 07:36:39.37	16.18	10.01	-47.4	-64.8	3.8	1.49e+00	0	44	104	0	66	26736
2026-01-16 07:36:40.37	16.01	9.98	-47.4	-64.8	3.8	1.49e+00	0	44	104	0	66	26717
2026-01-16 07:36:41.37	15.85	9.95	-47.4	-64.8	3.8	1.49e+00	0	44	104	0	66	26617
2026-01-16 07:36:42.36	15.68	9.91	-47.4	-64.8	3.8	1.49e+00	0	44	104	0	66	26664
2026-01-16 07:36:43.37	15.52	9.88	-47.4	-64.8	3.8	1.49e+00	0	44	104	0	66	26669
2026-01-16 07:36:44.37	15.35	9.85	-47.4	-64.9	3.8	1.49e+00	0	44	104	0	66	26778
2026-01-16 07:36:45.37	15.19	9.81	-47.4	-64.8	3.8	1.49e+00	0	44	104	0	66	26728
2026-01-16 07:36:46.37	15.03	9.78	-47.4	-64.8	3.8	1.49e+00	0	44	104	0	66	26633
2026-01-16 07:36:47.36	14.87	9.74	-47.4	-64.7	3.8	1.49e+00	0	44	104	0	66	26455
2026-01-16 07:36:48.36	14.71	9.71	-47.4	-64.7	3.8	1.49e+00	0	44	104	0	66	26178
2026-01-16 07:36:49.36	14.54	9.67	-47.4	-64.7	3.8	1.49e+00	0	44	104	0	66	26277
2026-01-16 07:36:50.36	14.38	9.64	-47.4	-64.7	3.8	1.49e+00	0	44	104	0	66	26376
2026-01-16 07:36:51.36	14.22	9.60	-47.4	-64.8	3.8	1.49e+00	0	44	104	0	66	26544
2026-01-16 07:36:52.36	14.06	9.57	-47.4	-64.8	3.8	1.49e+00	0	44	104	0	66	26685
2026-01-16 07:36:53.36	13.90	9.53	-47.4	-64.8	3.8	1.49e+00	0	44	104	0	66	26735
2026-01-16 07:36:54.35	13.74	9.50	-47.4	-64.8	3.8	1.49e+00	0	44	104	0	66	26740
2026-01-16 07:36:55.35	13.58	9.46	-47.4	-64.8	3.8	1.49e+00	0	44	104	0	66	26608
2026-01-16 07:36:56.35	13.42	9.43	-47.3	-64.6	3.8	1.49e+00	0	44	104	0	66	25997
2026-01-16 07:36:57.34	13.27	9.39	-47.3	-64.4	3.8	1.49e+00	0	44	104	0	66	25469
2026-01-16 07:36:58.34	13.11	9.35	-47.3	-64.1	3.8	1.49e+00	0	44	104	0	66	24640
2026-01-16 07:36:59.34	12.95	9.32	-47.3	-63.9	3.8	1.49e+00	0	44	104	0	66	24054
2026-01-16 07:37:00.34	12.79	9.28	-47.3	-63.9	3.8	1.49e+00	0	44	104	0	66	23974
2026-01-16 07:37:01.34	12.64	9.24	-47.3	-64.0	3.8	1.49e+00	0	44	104	0	66	24154
2026-01-16 07:37:02.33	12.48	9.21	-47.3	-64.0	3.8	1.49e+00	0	44	104	0	66	24352
2026-01-16 07:37:03.33	12.33	9.17	-47.3	-64.2	3.8	1.49e+00	0	44	104	0	66	24749
2026-01-16 07:37:04.34	12.17	9.13	-47.3	-64.3	3.8	1.49e+00	0	44	104	0	66	25196
2026-01-16 07:37:05.33	12.02	9.10	-47.3	-64.5	3.8	1.49e+00	0	44	104	0	66	25572
2026-01-16 07:37:06.32	11.86	9.06	-47.3	-64.6	3.8	1.49e+00	0	44	104	0	66	25977
2026-01-16 07:37:07.32	11.71	9.02	-47.3	-64.7	3.8	1.49e+00	0	44	104	0	66	26225
2026-01-16 07:37:08.32	11.55	8.98	-47.3	-64.7	3.8	1.49e+00	0	44	104	0	66	26329
2026-01-16 07:37:09.32	11.40	8.95	-47.3	-64.7	3.8	1.49e+00	0	44	104	0	66	26316
2026-01-16 07:37:10.32	11.25	8.91	-47.3	-64.8	3.8	1.49e+00	0	44	104	0	66	26535
2026-01-16 07:37:11.32	11.09	8.87	-47.3	-64.8	3.8	1.49e+00	0	44	104	0	66	26506
2026-01-16 07:37:12.32	10.94	8.83	-47.3	-64.8	3.8	1.49e+00	0	44	104	0	66	26611
2026-01-16 07:37:13.32	10.79	8.79	-47.3	-64.6	3.8	1.49e+00	0	44	104	0	66	25965
2026-01-16 07:37:14.32	10.64	8.75	-47.3	-64.1	3.8	1.49e+00	0	44	104	0	66	24534
2026-01-16 07:37:15.32	10.49	8.72	-47.3	-63.5	3.8	1.49e+00	0	44	104	0	66	23017
2026-01-16 07:37:16.31	10.34	8.68	-47.3	-63.0	3.8	1.49e+00	0	44	104	0	66	21533
2026-01-16 07:37:17.31	10.19	8.64	-47.3	-62.5	3.9	1.49e+00	0	44	104	0	66	20454
2026-01-16 07:37:18.30	10.04	8.60	-47.3	-62.5	3.8	1.49e+00	0	44	104	0	66	20306
2026-01-16 07:37:19.31	9.89	8.56	-47.3	-62.6	3.8	1.48e+00	0	44	104	0	66	20726
2026-01-16 07:37:20.31	9.74	8.52	-47.3	-63.0	3.8	1.49e+00	0	44	104	0	66	21728
2026-01-16 07:37:21.31	9.59	8.48	-47.3	-63.5	3.8	1.49e+00	0	44	104	0	66	23030
2026-01-16 07:37:22.31	9.44	8.44	-47.4	-64.2	3.8	1.49e+00	0	44	104	0	66	24751
2026-01-16 07:37:23.31	9.29	8.40	-47.4	-64.5	3.8	1.49e+00	0	44	104	0	66	25808
2026-01-16 07:37:24.30	9.15	8.36	-47.3	-64.8	3.8	1.49e+00	0	44	104	0	66	26501
2026-01-16 07:37:25.30	9.00	8.32	-47.4	-64.8	3.8	1.49e+00	0	44	104	0	66	26751
2026-01-16 07:37:26.30	8.85	8.28	-47.3	-64.8	3.8	1.49e+00	0	44	104	0	66	26744
2026-01-16 07:37:27.30	8.71	8.24	-47.3	-64.8	3.8	1.49e+00	0	44	104	0	66	26569
2026-01-16 07:37:28.30	8.56	8.20	-47.3	-64.8	3.8	1.49e+00	0	44	104	0	66	26463
2026-01-16 07:37:29.30	8.42	8.16	-47.3	-64.7	3.8	1.49e+00	0	44	104	0	66	26239
2026-01-16 07:37:30.29	8.27	8.12	-47.4	-64.7	3.8	1.49e+00	0	44	104	0	66	26294
2026-01-16 07:37:31.29	8.13	8.08	-47.4	-64.7	3.8	1.49e+00	0	44	104	0	66	26275
2026-01-16 07:37:32.30	7.98	8.04	-47.4	-64.8	3.8	1.49e+00	0	44	104	0	66	26537
2026-01-16 07:37:33.30	7.84	8.00	-47.4	-64.9	3.8	1.49e+00	0	44	104	0	66	26808
2026-01-16 07:37:34.30	7.70	7.96	-47.4	-64.9	3.8	1.49e+00	0	44	104	0	66	26963
2026-01-16 07:37:35.30	7.55	7.92	-47.3	-64.8	3.8	1.49e+00	0	44	104	0	66	26710
2026-01-16 07:37:36.30	7.41	7.88	-47.4	-64.8	3.8	1.49e+00	0	44	104	0	66	26646
2026-01-16 07:37:37.30	7.27	7.83	-47.4	-64.8	3.8	1.49e+00	0	44	104	0	66	26612
2026-01-16 07:37:38.29	7.13	7.79	-47.4	-64.8	3.8	1.49e+00	0	44	104	0	66	26580
2026-01-16 07:37:39.29	6.99	7.75	-47.5	-64.8	3.8	1.49e+00	0	44	104	0	66	26627
2026-01-16 07:37:40.29	6.85	7.71	-49.1	-65.2	3.8	1.49e+00	0	44	104	0	68	24813
2026-01-16 07:37:41.29	6.70	7.67	-48.6	-65.3	3.8	1.49e+00	0	44	104	0	68	25092
2026-01-16 07:37:42.28	6.57	7.63	-50.2	-65.8	3.8	1.49e+00	0	44	104	0	70	23755
2026-01-16 07:37:43.28	6.43	7.59	-49.7	-65.4	3.8	1.49e+00	0	44	104	0	70	22718
2026-01-16 07:37:44.27	6.29	7.54	-49.7	-65.5	3.8	1.49e+00	0	44	104	0	70	22806
2026-01-16 07:37:45.27	6.15	7.50	-50.1	-65.5	3.8	1.49e+00	0	44	104	0	70	22997
2026-01-16 07:37:46.27	6.01	7.46	-50.1	-65.6	3.8	1.49e+00	0	44	104	0	70	23076
2026-01-16 07:37:47.27	5.87	7.42	-50.2	-65.6	3.8	1.49e+00	0	44	104	0	71	21775
2026-01-16 07:37:48.27	5.74	7.38	-50.1	-65.6	3.8	1.49e+00	0	44	104	0	71	21913
2026-01-16 07:37:49.27	5.60	7.33	-50.2	-65.6	3.8	1.49e+00	0	44	104	0	71	21998
2026-01-16 07:37:50.27	5.46	7.29	-50.3	-65.6	3.8	1.49e+00	0	44	104	0	71	21975
2026-01-16 07:37:51.26	5.33	7.25	-50.5	-65.7	3.8	1.49e+00	0	44	104	0	71	22034
2026-01-16 07:37:52.26	5.19	7.21	-50.3	-65.7	3.8	1.49e+00	0	44	104	0	71	22126
2026-01-16 07:37:53.26	5.06	7.16	-50.5	-65.7	3.8	1.49e+00	0	44	104	0	71	22225
2026-01-16 07:37:54.25	4.92	7.12	-50.3	-65.7	3.8	1.49e+00	0	44	104	0	71	22146
2026-01-16 07:37:55.25	4.79	7.08	-50.4	-65.7	3.8	1.49e+00	0	44	104	0	71	22173
2026-01-16 07:37:56.25	4.65	7.04	-50.4	-65.7	3.8	1.49e+00	0	44	104	0	71	22147
2026-01-16 07:37:57.25	4.52	6.99	-50.5	-65.7	3.8	1.49e+00	0	44	104	0	71	22121
2026-01-16 07:37:58.25	4.38	6.95	-50.5	-65.7	3.8	1.49e+00	0	44	104	0	71	22097
2026-01-16 07:37:59.25	4.25	6.91	-50.5	-65.7	3.8	1.49e+00	0	44	104	0	71	22107
2026-01-16 07:38:00.25	4.12	6.86	-50.5	-65.7	3.8	1.49e+00	0	44	104	0	71	22102
2026-01-16 07:38:01.25	3.99	6.82	-50.4	-65.7	3.8	1.49e+00	0	44	104	0	71	22101
2026-01-16 07:38:02.25	3.85	6.78	-50.5	-65.7	3.8	1.49e+00	0	44	104	0	71	22159
2026-01-16 07:38:03.25	3.72	6.73	-50.4	-65.7	3.8	1.49e+00	0	44	104	0	71	22109
2026-01-16 07:38:04.24	3.59	6.69	-50.4	-65.7	3.8	1.49e+00	0	44	104	0	71	22156
2026-01-16 07:38:05.24	3.46	6.65	-50.3	-65.7	3.8	1.49e+00	0	44	104	0	71	22202
2026-01-16 07:38:06.24	3.33	6.60	-50.0	-65.7	3.8	1.49e+00	0	44	104	0	71	22042
2026-01-16 07:38:07.24	3.20	6.56	-50.0	-65.6	3.8	1.49e+00	0	44	104	0	71	21962
2026-01-16 07:38:08.24	3.07	6.52	-50.0	-65.6	3.8	1.49e+00	0	44	104	0	71	22004
2026-01-16 07:38:09.24	2.94	6.47	-50.0	-65.6	3.8	1.49e+00	0	44	104	0	71	21939
2026-01-16 07:38:10.24	2.82	6.43	-50.0	-65.7	3.8	1.49e+00	0	44	104	0	71	22021
2026-01-16 07:38:11.24	2.69	6.39	-50.0	-65.6	3.8	1.49e+00	0	44	104	0	71	21996
2026-01-16 07:38:12.23	2.56	6.34	-50.0	-65.6	3.8	1.49e+00	0	44	104	0	71	21893
2026-01-16 07:38:13.23	2.43	6.30	-50.0	-65.6	3.8	1.49e+00	0	44	104	0	71	21976
2026-01-16 07:38:14.23	2.31	6.25	-50.0	-65.6	3.8	1.49e+00	0	44	104	0	71	21970
2026-01-16 07:38:15.23	2.18	6.21	-50.0	-65.6	3.8	1.49e+00	0	44	104	0	71	21939
2026-01-16 07:38:16.23	2.05	6.17	-50.0	-65.6	3.8	1.49e+00	0	44	104	0	71	21990
2026-01-16 07:38:17.22	1.93	6.12	-50.0	-65.6	3.8	1.49e+00	0	44	104	0	71	21969
2026-01-16 07:38:18.22	1.80	6.08	-50.0	-65.6	3.8	1.49e+00	0	44	104	0	71	21961
2026-01-16 07:38:19.22	1.68	6.03	-50.0	-65.6	3.8	1.49e+00	0	44	104	0	71	22002
2026-01-16 07:38:20.22	1.55	5.99	-50.0	-65.6	3.8	1.49e+00	0	44	104	0	71	21992
2026-01-16 07:38:21.22	1.43	5.94	-50.0	-65.6	3.8	1.49e+00	0	44	104	0	71	21989
2026-01-16 07:38:22.22	1.30	5.90	-50.0	-65.6	3.8	1.49e+00	0	44	104	0	71	21977
2026-01-16 07:38:23.22	1.18	5.85	-50.0	-65.6	3.8	1.49e+00	0	44	104	0	71	21976
2026-01-16 07:38:24.22	1.06	5.81	-50.0	-65.6	3.8	1.49e+00	0	44	104	0	71	21987
2026-01-16 07:38:25.22	0.93	5.77	-50.0	-65.6	3.8	1.49e+00	0	44	104	0	71	21930
2026-01-16 07:38:26.21	0.81	5.72	-50.0	-65.6	3.8	1.49e+00	0	44	104	0	71	21937
2026-01-16 07:38:27.21	0.69	5.68	-50.0	-65.6	3.8	1.49e+00	0	44	104	0	71	21973
2026-01-16 07:38:28.21	0.57	5.63	-50.0	-65.6	3.8	1.49e+00	0	44	104	0	71	21882
2026-01-16 07:38:29.21	0.45	5.59	-50.0	-65.6	3.8	1.49e+00	0	44	104	0	71	21911
2026-01-16 07:38:30.20	0.33	5.54	-50.0	-65.6	3.8	1.49e+00	0	44	104	0	71	21868
2026-01-16 07:38:31.20	0.21	5.50	-50.0	-65.6	3.8	1.49e+00	0	44	104	0	71	21931
2026-01-16 07:38:32.20	0.09	5.45	-50.0	-65.6	3.8	1.49e+00	0	44	104	0	71	21895
2026-01-16 07:38:33.20	359.97	5.41	-50.0	-65.6	3.8	1.49e+00	0	44	104	0	71	21904
2026-01-16 07:38:34.20	359.85	5.36	-49.9	-65.6	3.8	1.49e+00	0	44	104	0	71	21998
2026-01-16 07:38:35.20	359.73	5.32	-50.0	-65.6	3.8	1.49e+00	0	44	104	0	71	21889
2026-01-16 07:38:36.19	359.61	5.27	-49.9	-65.6	3.8	1.49e+00	0	44	104	0	71	21865
2026-01-16 07:38:37.19	359.49	5.23	-49.9	-65.6	3.8	1.49e+00	0	44	104	0	71	21907
2026-01-16 07:38:38.19	359.38	5.18	-49.9	-65.6	3.8	1.49e+00	0	44	104	0	71	21947
2026-01-16 07:38:39.19	359.26	5.14	-50.0	-65.6	3.8	1.49e+00	0	44	104	0	71	21848
2026-01-16 07:38:40.19	359.14	5.09	-49.9	-65.6	3.8	1.49e+00	0	44	104	0	71	21954
2026-01-16 07:38:41.18	359.03	5.05	-50.0	-65.6	3.8	1.49e+00	0	44	104	0	71	21915
2026-01-16 07:38:42.18	358.91	5.00	-50.0	-65.6	3.8	1.49e+00	0	44	104	0	71	21833

#Closed at: 2026-01-16 07:38:43
#Recorded file [0 MB]: D:/Data/31040_260116_103030.dat