passes_logs/2026/01/16/T1/T1__20260116_090725_SUOMI_NPP_rec.log

#Pass ID: 20260116_090725_SUOMI NPP
#Satellite: SUOMI NPP
#Configuration: NPP
#almurnet v.1.7.20251203
#Start time: 2026-01-16 09:07:26

#Version: 2.0.20230620
#Station: T1
#Location: 37.570604 lon 55.790049 lat
#TLE: 1 37849U 11061A   26015.94982489  .00000054  00000+0  46705-4 0  9991
#TLE: 2 37849  98.7812 317.9902 0002438  62.0366 298.1057 14.19525452736847

#Time	Az	El	Level	Level2	SNR	BER	BlckErr	Temp	State	Recorded	gain1	gain2
2026-01-16 09:07:26.74	132.66	5.09	-47.6	-84.6	3.8	1.50e+00	0	36	0	0	90	65535
2026-01-16 09:07:27.74	132.62	5.15	-48.1	-85.1	3.1	1.55e+00	0	36	104	0	91	65535
2026-01-16 09:07:28.73	132.57	5.22	-47.6	-84.6	3.0	1.56e+00	0	36	104	0	90	65535
2026-01-16 09:07:29.73	132.53	5.29	-48.1	-85.1	3.2	1.55e+00	0	36	104	0	91	65535
2026-01-16 09:07:30.73	132.48	5.36	-48.1	-85.1	3.0	1.56e+00	0	36	104	0	91	65535
2026-01-16 09:07:31.73	132.43	5.43	-48.1	-85.1	3.1	1.55e+00	0	36	104	0	91	65535
2026-01-16 09:07:32.73	132.39	5.50	-48.1	-85.1	3.0	1.56e+00	0	36	104	0	91	65535
2026-01-16 09:07:33.72	132.34	5.57	-48.1	-85.1	3.0	1.56e+00	0	36	104	0	91	65535
2026-01-16 09:07:34.72	132.29	5.64	-48.1	-85.1	3.0	1.55e+00	0	36	104	0	91	65535
2026-01-16 09:07:35.72	132.25	5.71	-48.1	-85.1	3.0	1.55e+00	0	36	104	0	91	65535
2026-01-16 09:07:36.72	132.20	5.78	-48.1	-85.1	3.0	1.55e+00	0	36	104	0	91	65535
2026-01-16 09:07:37.72	132.15	5.85	-48.1	-85.1	3.1	1.55e+00	0	36	104	0	91	65535
2026-01-16 09:07:38.71	132.10	5.92	-48.1	-85.1	3.0	1.56e+00	0	36	104	0	91	65535
2026-01-16 09:07:39.71	132.06	5.99	-48.1	-85.1	2.9	1.55e+00	0	36	104	0	91	65535
2026-01-16 09:07:40.71	132.01	6.06	-48.1	-85.1	3.0	1.57e+00	0	36	104	0	91	65535
2026-01-16 09:07:41.71	131.96	6.13	-48.1	-85.1	2.8	1.56e+00	0	37	104	0	91	65535
2026-01-16 09:07:42.71	131.91	6.20	-48.1	-85.1	3.0	1.56e+00	0	37	104	0	91	65535
2026-01-16 09:07:43.70	131.86	6.28	-48.1	-85.1	3.0	1.55e+00	0	36	104	0	91	65535
2026-01-16 09:07:44.70	131.81	6.35	-48.1	-85.1	3.0	1.55e+00	0	37	104	0	91	65535
2026-01-16 09:07:45.70	131.76	6.42	-48.1	-85.1	2.7	1.55e+00	0	37	104	0	91	65535
2026-01-16 09:07:46.70	131.71	6.49	-48.2	-85.1	3.0	1.55e+00	0	37	104	0	91	65535
2026-01-16 09:07:47.70	131.66	6.56	-48.1	-85.1	2.7	1.55e+00	0	37	104	0	91	65535
2026-01-16 09:07:48.70	131.61	6.64	-75.1	-85.1	3.0	1.56e+00	0	37	104	0	91	65535
2026-01-16 09:07:49.70	131.56	6.71	-75.1	-85.1	2.7	1.56e+00	0	37	104	0	91	65535
2026-01-16 09:07:50.70	131.51	6.78	-48.2	-85.1	3.0	1.56e+00	0	37	104	0	91	65535
2026-01-16 09:07:51.69	131.46	6.85	-48.1	-85.1	3.1	1.55e+00	0	37	104	0	91	65535
2026-01-16 09:07:52.69	131.41	6.93	-48.1	-85.1	2.9	1.56e+00	0	37	104	0	91	65535
2026-01-16 09:07:53.69	131.35	7.00	-48.1	-85.1	3.1	1.56e+00	0	37	104	0	91	65535
2026-01-16 09:07:54.68	131.30	7.07	-48.1	-85.1	2.9	1.55e+00	0	37	104	0	91	65535
2026-01-16 09:07:55.68	131.25	7.15	-48.1	-85.1	3.2	1.55e+00	0	37	104	0	91	65535
2026-01-16 09:07:56.68	131.20	7.22	-48.1	-85.1	2.9	1.55e+00	0	37	104	0	91	65535
2026-01-16 09:07:57.67	131.14	7.29	-48.1	-85.1	3.0	1.56e+00	0	37	104	0	91	65535
2026-01-16 09:07:58.67	131.09	7.37	-48.1	-85.1	2.8	1.55e+00	0	37	104	0	91	65535
2026-01-16 09:07:59.67	131.04	7.44	-48.1	-85.1	2.9	1.55e+00	0	37	104	0	91	65535
2026-01-16 09:08:00.67	130.98	7.52	-48.1	-85.1	2.9	1.55e+00	0	37	104	0	91	65535
2026-01-16 09:08:01.67	130.93	7.59	-48.1	-85.1	3.0	1.55e+00	0	37	104	0	91	65535
2026-01-16 09:08:02.67	130.88	7.67	-48.1	-85.1	2.9	1.55e+00	0	37	104	0	91	65535
2026-01-16 09:08:03.66	130.82	7.74	-48.2	-85.1	3.0	1.55e+00	0	37	104	0	91	65535
2026-01-16 09:08:04.66	130.77	7.82	-48.2	-85.1	3.0	1.56e+00	0	37	104	0	91	65535
2026-01-16 09:08:05.66	130.71	7.89	-48.2	-85.1	3.0	1.56e+00	0	37	104	0	91	65535
2026-01-16 09:08:06.65	130.66	7.97	-48.2	-85.1	3.1	1.55e+00	0	37	104	0	91	65535
2026-01-16 09:08:07.65	130.60	8.04	-48.2	-85.1	2.9	1.55e+00	0	37	104	0	91	65535
2026-01-16 09:08:08.65	130.54	8.12	-48.2	-85.1	2.9	1.56e+00	0	37	104	0	91	65535
2026-01-16 09:08:09.65	130.49	8.20	-75.1	-85.1	3.1	1.56e+00	0	37	104	0	91	65535
2026-01-16 09:08:10.65	130.43	8.27	-75.1	-85.1	3.1	1.55e+00	0	37	104	0	91	65535
2026-01-16 09:08:11.65	130.37	8.35	-48.2	-85.1	3.0	1.55e+00	0	37	104	0	91	65535
2026-01-16 09:08:12.64	130.32	8.43	-75.1	-85.1	3.0	1.55e+00	0	37	104	0	91	65535
2026-01-16 09:08:13.64	130.26	8.50	-48.1	-85.1	3.1	1.56e+00	0	37	104	0	91	65535
2026-01-16 09:08:14.64	130.20	8.58	-75.1	-85.1	3.2	1.55e+00	0	37	104	0	91	65535
2026-01-16 09:08:15.63	130.14	8.66	-48.1	-85.1	3.0	1.55e+00	0	37	104	0	91	65535
2026-01-16 09:08:16.63	130.08	8.74	-48.1	-85.1	2.9	1.56e+00	0	37	104	0	91	65535
2026-01-16 09:08:17.64	130.02	8.82	-48.1	-85.1	3.0	1.55e+00	0	38	104	0	91	65535
2026-01-16 09:08:18.63	129.96	8.89	-48.1	-85.1	2.9	1.56e+00	0	37	104	0	91	65535
2026-01-16 09:08:19.63	129.90	8.97	-48.1	-85.1	3.2	1.55e+00	0	37	104	0	91	65535
2026-01-16 09:08:20.63	129.84	9.05	-48.1	-85.1	3.0	1.56e+00	0	38	104	0	91	65535
2026-01-16 09:08:21.62	129.78	9.13	-48.2	-85.1	3.2	1.55e+00	0	38	104	0	91	65535
2026-01-16 09:08:22.62	129.72	9.21	-48.2	-85.1	3.2	1.57e+00	0	38	104	0	91	65535
2026-01-16 09:08:23.62	129.66	9.29	-48.1	-85.1	2.9	1.56e+00	0	37	104	0	91	65535
2026-01-16 09:08:24.61	129.60	9.37	-48.2	-85.1	3.4	1.55e+00	0	38	104	0	91	65535
2026-01-16 09:08:25.61	129.54	9.45	-48.2	-85.1	3.1	1.56e+00	0	37	104	0	91	65535
2026-01-16 09:08:26.61	129.48	9.53	-48.2	-85.1	3.1	1.55e+00	0	37	104	0	91	65535
2026-01-16 09:08:27.60	129.42	9.61	-75.1	-85.1	2.8	1.55e+00	0	38	104	0	91	65535
2026-01-16 09:08:28.60	129.35	9.69	-48.2	-85.1	2.8	1.56e+00	0	38	104	0	91	65535
2026-01-16 09:08:29.60	129.29	9.77	-48.2	-85.1	3.2	1.56e+00	0	37	104	0	91	65535
2026-01-16 09:08:30.60	129.23	9.85	-75.1	-85.1	3.0	1.57e+00	0	38	104	0	91	65535
2026-01-16 09:08:31.60	129.16	9.93	-75.1	-85.1	3.2	1.55e+00	0	38	104	0	91	65535
2026-01-16 09:08:32.60	129.10	10.01	-75.1	-85.1	2.9	1.55e+00	0	38	104	0	91	65535
2026-01-16 09:08:33.60	129.03	10.09	-75.1	-85.1	3.0	1.55e+00	0	38	104	0	91	65535
2026-01-16 09:08:34.59	128.97	10.18	-48.1	-85.1	3.0	1.56e+00	0	38	104	0	91	65535
2026-01-16 09:08:35.59	128.90	10.26	-48.1	-85.1	2.9	1.56e+00	0	38	104	0	91	65535
2026-01-16 09:08:36.58	128.84	10.34	-48.1	-85.1	2.7	1.56e+00	0	38	104	0	91	65535
2026-01-16 09:08:37.58	128.77	10.42	-48.1	-85.1	2.9	1.56e+00	0	38	104	0	91	65535
2026-01-16 09:08:38.58	128.71	10.50	-48.1	-85.1	3.1	1.56e+00	0	38	104	0	91	65535
2026-01-16 09:08:39.57	128.64	10.59	-48.1	-85.1	3.0	1.55e+00	0	38	104	0	91	65535
2026-01-16 09:08:40.57	128.57	10.67	-48.1	-85.1	3.1	1.56e+00	0	38	104	0	91	65535
2026-01-16 09:08:41.57	128.50	10.75	-48.1	-85.1	3.0	1.55e+00	0	38	104	0	91	65535
2026-01-16 09:08:42.57	128.44	10.84	-48.2	-85.1	3.1	1.56e+00	0	38	104	0	91	65535
2026-01-16 09:08:43.57	128.37	10.92	-48.2	-85.1	2.9	1.57e+00	0	38	104	0	91	65535
2026-01-16 09:08:44.56	128.30	11.01	-48.2	-85.1	3.0	1.56e+00	0	38	104	0	91	65535
2026-01-16 09:08:45.56	128.23	11.09	-48.2	-85.1	3.0	1.56e+00	0	38	104	0	91	65535
2026-01-16 09:08:46.55	128.16	11.17	-48.2	-85.1	3.0	1.56e+00	0	38	104	0	91	65535
2026-01-16 09:08:47.55	128.09	11.26	-48.2	-85.1	2.9	1.57e+00	0	38	104	0	91	65535
2026-01-16 09:08:48.54	128.02	11.34	-75.1	-85.1	3.0	1.55e+00	0	38	104	0	91	65535
2026-01-16 09:08:49.54	127.95	11.43	-75.1	-85.1	3.0	1.56e+00	0	38	104	0	91	65535
2026-01-16 09:08:50.54	127.88	11.52	-48.2	-85.1	2.9	1.55e+00	0	38	104	0	91	65535
2026-01-16 09:08:51.54	127.80	11.60	-48.1	-85.1	3.0	1.56e+00	0	38	104	0	91	65535
2026-01-16 09:08:52.54	127.73	11.69	-48.1	-85.1	2.8	1.55e+00	0	38	104	0	91	65535
2026-01-16 09:08:53.54	127.66	11.78	-48.1	-85.1	3.0	1.56e+00	0	38	104	0	91	65535
2026-01-16 09:08:54.53	127.59	11.86	-48.1	-85.1	3.0	1.55e+00	0	38	104	0	91	65535
2026-01-16 09:08:55.53	127.51	11.95	-48.1	-85.1	3.0	1.56e+00	0	38	104	0	91	65535
2026-01-16 09:08:56.52	127.44	12.04	-48.1	-85.1	3.2	1.55e+00	0	38	104	0	91	65535
2026-01-16 09:08:57.52	127.37	12.12	-48.1	-85.1	3.0	1.55e+00	0	38	104	0	91	65535
2026-01-16 09:08:58.52	127.29	12.21	-48.1	-85.1	3.0	1.55e+00	0	38	104	0	91	65535
2026-01-16 09:08:59.52	127.21	12.30	-48.1	-85.1	3.0	1.55e+00	0	38	104	0	91	65535
2026-01-16 09:09:00.52	127.14	12.39	-48.2	-85.1	3.2	1.56e+00	0	38	104	0	91	65535
2026-01-16 09:09:01.51	127.06	12.48	-48.1	-85.1	3.0	1.56e+00	0	38	104	0	91	65535
2026-01-16 09:09:02.52	126.98	12.57	-48.1	-85.1	3.1	1.56e+00	0	38	104	0	91	65535
2026-01-16 09:09:03.51	126.91	12.65	-48.2	-85.1	3.0	1.55e+00	0	38	104	0	91	65535
2026-01-16 09:09:04.50	126.83	12.74	-48.2	-85.1	3.2	1.55e+00	0	38	104	0	91	65535
2026-01-16 09:09:05.50	126.75	12.83	-48.2	-85.1	3.0	1.56e+00	0	38	104	0	91	65535
2026-01-16 09:09:06.49	126.67	12.92	-48.2	-85.1	2.8	1.55e+00	0	38	104	0	91	65535
2026-01-16 09:09:07.49	126.59	13.01	-47.6	-84.6	2.9	1.56e+00	0	38	104	0	90	65535
2026-01-16 09:09:08.49	126.51	13.10	-48.1	-85.1	2.6	1.55e+00	0	38	104	0	91	65535
2026-01-16 09:09:09.49	126.43	13.19	-48.1	-85.1	2.9	1.55e+00	0	38	104	0	91	65535
2026-01-16 09:09:10.49	126.35	13.29	-48.1	-85.1	2.8	1.56e+00	0	38	104	0	91	65535
2026-01-16 09:09:11.48	126.27	13.38	-48.1	-85.1	2.8	1.55e+00	0	38	104	0	91	65535
2026-01-16 09:09:12.48	126.19	13.47	-48.1	-85.1	3.1	1.56e+00	0	38	104	0	91	65535
2026-01-16 09:09:13.48	126.11	13.56	-48.1	-85.1	3.2	1.55e+00	0	38	104	0	91	65535
2026-01-16 09:09:14.48	126.02	13.65	-48.1	-85.1	3.0	1.56e+00	0	38	104	0	91	65535
2026-01-16 09:09:15.47	125.94	13.75	-48.1	-85.1	3.0	1.56e+00	0	38	104	0	91	65535
2026-01-16 09:09:16.47	125.86	13.84	-48.1	-85.1	2.9	1.55e+00	0	38	104	0	91	65535
2026-01-16 09:09:17.47	125.77	13.93	-48.1	-85.1	2.9	1.56e+00	0	38	104	0	91	65535
2026-01-16 09:09:18.47	125.69	14.03	-48.1	-85.1	3.1	1.55e+00	0	38	104	0	91	65535
2026-01-16 09:09:19.46	125.60	14.12	-48.1	-85.1	3.1	1.55e+00	0	38	104	0	91	65535
2026-01-16 09:09:20.46	125.52	14.21	-48.1	-85.1	3.0	1.56e+00	0	38	104	0	91	65535
2026-01-16 09:09:21.46	125.43	14.31	-48.2	-85.1	3.0	1.55e+00	0	38	104	0	91	65535
2026-01-16 09:09:22.46	125.34	14.40	-48.2	-85.1	3.1	1.56e+00	0	38	104	0	91	65535
2026-01-16 09:09:23.46	125.25	14.50	-48.2	-85.1	3.1	1.55e+00	0	38	104	0	91	65535
2026-01-16 09:09:24.46	125.17	14.59	-48.2	-85.1	2.9	1.57e+00	0	38	104	0	91	65535
2026-01-16 09:09:25.46	125.08	14.69	-48.2	-85.1	2.8	1.55e+00	0	38	104	0	91	65535
2026-01-16 09:09:26.45	124.99	14.78	-48.2	-85.1	3.0	1.55e+00	0	38	104	0	91	65535
2026-01-16 09:09:27.45	124.90	14.88	-75.1	-85.1	2.7	1.55e+00	0	38	104	0	91	65535
2026-01-16 09:09:28.45	124.81	14.98	-75.1	-85.1	3.2	1.56e+00	0	38	104	0	91	65535
2026-01-16 09:09:29.45	124.71	15.07	-48.2	-85.1	2.7	1.55e+00	0	38	104	0	91	65535
2026-01-16 09:09:30.45	124.62	15.17	-75.1	-85.1	3.0	1.56e+00	0	38	104	0	91	65535
2026-01-16 09:09:31.44	124.53	15.27	-75.1	-85.1	2.9	1.56e+00	0	38	104	0	91	65535
2026-01-16 09:09:32.44	124.44	15.37	-75.1	-85.1	3.0	1.56e+00	0	38	104	0	91	65535
2026-01-16 09:09:33.44	124.34	15.46	-75.1	-85.1	3.0	1.55e+00	0	38	104	0	91	65535
2026-01-16 09:09:34.44	124.25	15.56	-48.1	-85.1	3.0	1.55e+00	0	38	104	0	91	65535
2026-01-16 09:09:35.44	124.15	15.66	-48.1	-85.1	3.2	1.56e+00	0	38	104	0	91	65535
2026-01-16 09:09:36.43	124.06	15.76	-48.1	-85.1	2.5	1.55e+00	0	38	104	0	91	65535
2026-01-16 09:09:37.43	123.96	15.86	-48.1	-85.1	3.2	1.56e+00	0	38	104	0	91	65535
2026-01-16 09:09:38.43	123.86	15.96	-48.1	-85.1	2.8	1.56e+00	0	38	104	0	91	65535
2026-01-16 09:09:39.43	123.77	16.06	-48.1	-85.1	2.6	1.56e+00	0	38	104	0	91	65535
2026-01-16 09:09:40.42	123.67	16.16	-48.1	-85.1	2.9	1.56e+00	0	38	104	0	91	65535
2026-01-16 09:09:41.42	123.57	16.26	-48.1	-85.1	3.1	1.56e+00	0	38	104	0	91	65535
2026-01-16 09:09:42.41	123.47	16.36	-48.2	-85.1	3.0	1.55e+00	0	38	104	0	91	65535
2026-01-16 09:09:43.41	123.37	16.46	-48.2	-85.1	3.0	1.56e+00	0	39	104	0	91	65535
2026-01-16 09:09:44.42	123.27	16.56	-48.2	-85.1	3.0	1.56e+00	0	38	104	0	91	65535
2026-01-16 09:09:45.41	123.17	16.67	-48.2	-85.1	3.1	1.57e+00	0	38	104	0	91	65535
2026-01-16 09:09:46.41	123.06	16.77	-48.2	-85.1	2.6	1.56e+00	0	38	104	0	91	65535
2026-01-16 09:09:47.41	122.96	16.87	-48.2	-85.1	2.8	1.55e+00	0	38	104	0	91	65535
2026-01-16 09:09:48.41	122.85	16.97	-75.1	-85.1	3.3	1.56e+00	0	39	104	0	91	65535
2026-01-16 09:09:49.41	122.75	17.08	-75.1	-85.1	3.0	1.56e+00	0	38	104	0	91	65535
2026-01-16 09:09:50.41	122.64	17.18	-75.1	-85.1	3.0	1.56e+00	0	38	104	0	91	65535
2026-01-16 09:09:51.40	122.54	17.28	-75.1	-85.1	3.2	1.56e+00	0	38	104	0	91	65535
2026-01-16 09:09:52.40	122.43	17.39	-75.1	-85.1	2.6	1.56e+00	0	38	104	0	91	65535
2026-01-16 09:09:53.40	122.32	17.49	-75.1	-85.1	3.0	1.56e+00	0	39	104	0	91	65535
2026-01-16 09:09:54.40	122.21	17.60	-74.6	-84.6	3.0	1.56e+00	0	39	104	0	90	65535
2026-01-16 09:09:55.39	122.11	17.70	-74.6	-84.6	3.2	1.56e+00	0	38	104	0	90	65535
2026-01-16 09:09:56.40	121.99	17.81	-75.1	-85.1	2.6	1.56e+00	0	39	104	0	91	65535
2026-01-16 09:09:57.39	121.88	17.92	-74.6	-84.6	3.0	1.56e+00	0	38	104	0	90	65535
2026-01-16 09:09:58.39	121.77	18.02	-48.1	-85.1	2.9	1.57e+00	0	39	104	0	91	65535
2026-01-16 09:09:59.39	121.66	18.13	-48.1	-85.1	3.0	1.56e+00	0	39	104	0	91	65535
2026-01-16 09:10:00.39	121.55	18.24	-48.2	-85.1	3.0	1.56e+00	0	38	104	0	91	65535
2026-01-16 09:10:01.39	121.43	18.34	-48.2	-85.1	2.9	1.56e+00	0	38	104	0	91	65535
2026-01-16 09:10:02.38	121.32	18.45	-48.1	-85.1	3.0	1.55e+00	0	39	104	0	91	65535
2026-01-16 09:10:03.38	121.20	18.56	-48.2	-85.1	2.8	1.55e+00	0	39	104	0	91	65535
2026-01-16 09:10:04.38	121.08	18.67	-48.2	-85.1	2.9	1.57e+00	0	39	104	0	91	65535
2026-01-16 09:10:05.37	120.97	18.78	-48.2	-85.1	2.8	1.56e+00	0	39	104	0	91	65535
2026-01-16 09:10:06.37	120.85	18.89	-75.1	-85.1	3.0	1.56e+00	0	38	104	0	91	65535
2026-01-16 09:10:07.37	120.73	19.00	-48.2	-85.1	3.1	1.56e+00	0	38	104	0	91	65535
2026-01-16 09:10:08.37	120.61	19.11	-48.2	-85.1	2.9	1.57e+00	0	39	104	0	91	65535
2026-01-16 09:10:09.36	120.49	19.22	-75.1	-85.1	3.2	1.56e+00	0	39	104	0	91	65535
2026-01-16 09:10:10.35	120.37	19.33	-75.1	-85.1	3.1	1.56e+00	0	39	104	0	91	65535
2026-01-16 09:10:11.35	120.25	19.44	-75.1	-85.1	3.2	1.55e+00	0	39	104	0	91	65535
2026-01-16 09:10:12.35	120.12	19.55	-75.1	-85.1	3.0	1.56e+00	0	38	104	0	91	65535
2026-01-16 09:10:13.35	120.00	19.66	-75.1	-85.1	3.3	1.56e+00	0	39	104	0	91	65535
2026-01-16 09:10:14.34	119.87	19.77	-48.1	-85.1	3.0	1.56e+00	0	39	104	0	91	65535
2026-01-16 09:10:15.34	119.75	19.88	-48.1	-85.1	3.1	1.55e+00	0	39	104	0	91	65535
2026-01-16 09:10:16.33	119.62	20.00	-48.1	-85.1	3.0	1.56e+00	0	38	104	0	91	65535
2026-01-16 09:10:17.33	119.49	20.11	-48.1	-85.1	2.9	1.56e+00	0	39	104	0	91	65535
2026-01-16 09:10:18.33	119.36	20.22	-48.1	-85.1	3.0	1.56e+00	0	39	104	0	91	65535
2026-01-16 09:10:19.33	119.23	20.34	-48.1	-85.1	3.1	1.56e+00	0	39	104	0	91	65535
2026-01-16 09:10:20.33	119.10	20.45	-48.1	-85.1	3.0	1.56e+00	0	39	104	0	91	65535
2026-01-16 09:10:21.33	118.97	20.57	-48.2	-85.1	3.1	1.56e+00	0	39	104	0	91	65535
2026-01-16 09:10:22.32	118.83	20.68	-48.2	-85.1	3.0	1.56e+00	0	39	104	0	91	65535
2026-01-16 09:10:23.32	118.70	20.80	-48.2	-85.1	3.0	1.56e+00	0	38	104	0	91	65535
2026-01-16 09:10:24.32	118.56	20.91	-48.2	-85.1	3.0	1.56e+00	0	39	104	0	91	65535
2026-01-16 09:10:25.31	118.43	21.03	-48.2	-85.1	3.0	1.56e+00	0	39	104	0	91	65535
2026-01-16 09:10:26.31	118.29	21.14	-48.2	-85.1	3.0	1.56e+00	0	39	104	0	91	65535
2026-01-16 09:10:27.31	118.15	21.26	-75.1	-85.1	3.2	1.56e+00	0	39	104	0	91	65535
2026-01-16 09:10:28.31	118.01	21.38	-75.1	-85.1	3.0	1.56e+00	0	39	104	0	91	65535
2026-01-16 09:10:29.31	117.87	21.49	-48.2	-85.1	3.1	1.56e+00	0	39	104	0	91	65535
2026-01-16 09:10:30.31	117.73	21.61	-75.1	-85.1	3.0	1.56e+00	0	39	104	0	91	65535
2026-01-16 09:10:31.30	117.59	21.73	-75.1	-85.1	3.1	1.56e+00	0	39	104	0	91	65535
2026-01-16 09:10:32.30	117.44	21.85	-75.1	-85.1	3.0	1.56e+00	0	39	104	0	91	65535
2026-01-16 09:10:33.30	117.30	21.97	-74.6	-84.6	2.7	1.56e+00	0	39	104	0	90	65535
2026-01-16 09:10:34.29	117.15	22.09	-75.1	-85.1	3.0	1.56e+00	0	39	104	0	91	65535
2026-01-16 09:10:35.29	117.01	22.21	-75.1	-85.1	3.0	1.57e+00	0	39	104	0	91	65535
2026-01-16 09:10:36.29	116.86	22.33	-74.6	-84.6	3.0	1.56e+00	0	39	104	0	90	65535
2026-01-16 09:10:37.29	116.71	22.45	-48.2	-85.1	2.7	1.56e+00	0	39	104	0	91	65535
2026-01-16 09:10:38.29	116.56	22.57	-48.2	-85.1	2.8	1.56e+00	0	39	104	0	91	65535
2026-01-16 09:10:39.29	116.40	22.69	-48.2	-85.1	3.0	1.57e+00	0	39	104	0	91	65535
2026-01-16 09:10:40.29	116.25	22.81	-48.2	-85.1	3.0	1.56e+00	0	39	104	0	91	65535
2026-01-16 09:10:41.29	116.10	22.93	-48.2	-85.1	2.9	1.57e+00	0	39	104	0	91	65535
2026-01-16 09:10:42.29	115.94	23.05	-48.2	-85.1	2.8	1.55e+00	0	39	104	0	91	65535
2026-01-16 09:10:43.28	115.78	23.18	-48.2	-85.1	3.0	1.56e+00	0	39	104	0	91	65535
2026-01-16 09:10:44.28	115.63	23.30	-48.2	-85.1	2.8	1.56e+00	0	39	104	0	91	65535
2026-01-16 09:10:45.28	115.47	23.42	-48.2	-85.1	2.9	1.56e+00	0	39	104	0	91	65535
2026-01-16 09:10:46.28	115.30	23.55	-48.2	-85.1	3.0	1.56e+00	0	39	104	0	91	65535
2026-01-16 09:10:47.28	115.14	23.67	-48.2	-85.1	3.2	1.56e+00	0	39	104	0	91	65535
2026-01-16 09:10:48.28	114.98	23.79	-75.1	-85.1	2.9	1.56e+00	0	39	104	0	91	65535
2026-01-16 09:10:49.27	114.82	23.92	-75.1	-85.1	3.2	1.55e+00	0	39	104	0	91	65535
2026-01-16 09:10:50.27	114.65	24.04	-75.1	-85.1	3.1	1.56e+00	0	39	104	0	91	65535
2026-01-16 09:10:51.27	114.48	24.17	-75.1	-85.1	2.9	1.56e+00	0	39	104	0	91	65535
2026-01-16 09:10:52.27	114.31	24.29	-75.1	-85.1	3.0	1.55e+00	0	39	104	0	91	65535
2026-01-16 09:10:53.26	114.14	24.42	-75.1	-85.1	3.0	1.56e+00	0	39	104	0	91	65535
2026-01-16 09:10:54.26	113.97	24.55	-74.6	-84.6	3.1	1.56e+00	0	39	104	0	90	65535
2026-01-16 09:10:55.25	113.80	24.67	-74.6	-84.6	2.8	1.56e+00	0	39	104	0	90	65535
2026-01-16 09:10:56.26	113.62	24.80	-74.6	-84.6	3.0	1.56e+00	0	39	104	0	90	65535
2026-01-16 09:10:57.25	113.45	24.93	-74.6	-84.6	3.0	1.56e+00	0	39	104	0	90	65535
2026-01-16 09:10:58.24	113.28	25.05	-74.6	-84.6	2.8	1.56e+00	0	39	104	0	90	65535
2026-01-16 09:10:59.24	113.10	25.18	-48.2	-85.1	3.1	1.56e+00	0	39	104	0	91	65535
2026-01-16 09:11:00.24	112.92	25.31	-48.2	-85.1	2.8	1.57e+00	0	39	104	0	91	65535
2026-01-16 09:11:01.24	112.73	25.44	-48.2	-85.1	3.1	1.56e+00	0	39	104	0	91	65535
2026-01-16 09:11:02.23	112.55	25.56	-48.2	-85.1	3.0	1.56e+00	0	39	104	0	91	65535
2026-01-16 09:11:03.23	112.37	25.69	-48.2	-85.1	3.0	1.56e+00	0	39	104	0	91	65535
2026-01-16 09:11:04.23	112.18	25.82	-48.2	-85.1	3.2	1.57e+00	0	39	104	0	91	65535
2026-01-16 09:11:05.23	111.99	25.95	-48.2	-85.1	2.9	1.55e+00	0	39	104	0	91	65535
2026-01-16 09:11:06.23	111.80	26.08	-75.1	-85.1	3.1	1.55e+00	0	39	104	0	91	65535
2026-01-16 09:11:07.22	111.62	26.21	-48.2	-85.1	2.8	1.56e+00	0	39	104	0	91	65535
2026-01-16 09:11:08.22	111.42	26.34	-48.2	-85.1	2.9	1.57e+00	0	39	104	0	91	65535
2026-01-16 09:11:09.22	111.23	26.47	-75.1	-85.1	3.1	1.56e+00	0	39	104	0	91	65535
2026-01-16 09:11:10.21	111.03	26.60	-75.1	-85.1	3.0	1.56e+00	0	39	104	0	91	65535
2026-01-16 09:11:11.21	110.84	26.74	-75.1	-85.1	3.1	1.56e+00	0	39	104	0	91	65535
2026-01-16 09:11:12.21	110.64	26.87	-74.6	-84.6	3.0	1.56e+00	0	39	104	0	90	65535
2026-01-16 09:11:13.20	110.44	27.00	-75.1	-85.1	2.9	1.56e+00	0	39	104	0	91	65535
2026-01-16 09:11:14.19	110.24	27.13	-75.1	-85.1	3.0	1.57e+00	0	39	104	0	91	65535
2026-01-16 09:11:15.19	110.04	27.26	-48.2	-85.1	3.0	1.55e+00	0	39	104	0	91	65535
2026-01-16 09:11:16.19	109.83	27.39	-48.2	-85.1	3.0	1.56e+00	0	39	104	0	91	65535
2026-01-16 09:11:17.18	109.62	27.53	-48.2	-85.1	3.0	1.56e+00	0	39	104	0	91	65535
2026-01-16 09:11:18.18	109.41	27.66	-48.2	-85.1	2.9	1.56e+00	0	39	104	0	91	65535
2026-01-16 09:11:19.18	109.20	27.79	-48.2	-85.1	2.9	1.56e+00	0	39	104	0	91	65535
2026-01-16 09:11:20.17	108.99	27.92	-48.2	-85.1	2.9	1.56e+00	0	39	104	0	91	65535
2026-01-16 09:11:21.17	108.78	28.06	-48.2	-85.1	2.9	1.55e+00	0	39	104	0	91	65535
2026-01-16 09:11:22.17	108.56	28.19	-48.2	-85.1	2.8	1.56e+00	0	39	104	0	91	65535
2026-01-16 09:11:23.17	108.34	28.33	-48.2	-85.1	3.0	1.57e+00	0	39	104	0	91	65535
2026-01-16 09:11:24.17	108.12	28.46	-48.2	-85.1	2.8	1.56e+00	0	39	104	0	91	65535
2026-01-16 09:11:25.17	107.90	28.59	-48.2	-85.1	3.0	1.56e+00	0	39	104	0	91	65534
2026-01-16 09:11:26.17	107.68	28.73	-48.2	-85.1	3.3	1.56e+00	0	39	104	0	91	65535
2026-01-16 09:11:27.16	107.45	28.86	-75.1	-85.1	3.0	1.57e+00	0	39	104	0	91	65535
2026-01-16 09:11:28.16	107.23	29.00	-75.1	-85.1	2.9	1.56e+00	0	39	104	0	91	65535
2026-01-16 09:11:29.16	107.00	29.13	-75.1	-85.1	2.9	1.57e+00	0	39	104	0	91	65535
2026-01-16 09:11:30.16	106.77	29.27	-75.1	-85.1	3.0	1.56e+00	0	39	104	0	91	65535
2026-01-16 09:11:31.15	106.53	29.40	-75.1	-85.1	3.0	1.56e+00	0	39	104	0	91	65535
2026-01-16 09:11:32.15	106.30	29.54	-75.1	-85.1	3.1	1.56e+00	0	39	104	0	91	65535
2026-01-16 09:11:33.15	106.06	29.67	-74.6	-84.6	2.9	1.56e+00	0	39	104	0	90	65535
2026-01-16 09:11:34.15	105.82	29.81	-74.6	-84.6	3.3	1.56e+00	0	39	104	0	90	65535
2026-01-16 09:11:35.15	105.58	29.94	-74.6	-84.6	3.0	1.57e+00	0	39	104	0	90	65535
2026-01-16 09:11:36.14	105.34	30.08	-74.6	-84.6	2.9	1.56e+00	0	39	104	0	90	65535
2026-01-16 09:11:37.14	105.09	30.21	-48.2	-85.1	3.0	1.56e+00	0	39	104	0	91	65535
2026-01-16 09:11:38.14	104.85	30.35	-48.2	-85.1	2.9	1.56e+00	0	39	104	0	91	65535
2026-01-16 09:11:39.13	104.60	30.48	-48.2	-85.1	3.0	1.56e+00	0	39	104	0	91	65535
2026-01-16 09:11:40.13	104.35	30.62	-48.2	-85.1	3.1	1.56e+00	0	39	104	0	91	65535
2026-01-16 09:11:41.13	104.09	30.76	-48.2	-85.1	2.9	1.56e+00	0	39	104	0	91	65535
2026-01-16 09:11:42.13	103.84	30.89	-48.2	-85.1	3.2	1.56e+00	0	39	104	0	91	65535
2026-01-16 09:11:43.13	103.58	31.03	-48.2	-85.1	3.0	1.56e+00	0	39	104	0	91	65535
2026-01-16 09:11:44.13	103.32	31.16	-48.2	-85.1	2.9	1.56e+00	0	39	104	0	91	65535
2026-01-16 09:11:45.12	103.06	31.30	-75.1	-85.1	3.0	1.56e+00	0	39	104	0	91	65535
2026-01-16 09:11:46.12	102.79	31.43	-48.2	-85.1	2.5	1.56e+00	0	39	104	0	91	65535
2026-01-16 09:11:47.12	102.53	31.57	-48.2	-85.1	3.0	1.56e+00	0	39	104	0	91	65535
2026-01-16 09:11:48.12	102.26	31.70	-75.1	-85.1	3.3	1.56e+00	0	39	104	0	91	65535
2026-01-16 09:11:49.11	101.99	31.84	-75.1	-85.1	3.0	1.56e+00	0	39	104	0	91	65535
2026-01-16 09:11:50.11	101.71	31.97	-75.1	-85.1	2.7	1.56e+00	0	39	104	0	91	65535
2026-01-16 09:11:51.11	101.44	32.11	-75.1	-85.1	3.0	1.56e+00	0	39	104	0	91	65535
2026-01-16 09:11:52.11	101.16	32.24	-75.1	-85.1	3.1	1.56e+00	0	39	104	0	91	65535
2026-01-16 09:11:53.11	100.88	32.38	-75.1	-85.1	3.1	1.56e+00	0	39	104	0	91	65535
2026-01-16 09:11:54.11	100.59	32.51	-74.6	-84.6	2.8	1.56e+00	0	39	104	0	90	65535
2026-01-16 09:11:55.11	100.31	32.65	-74.6	-84.6	3.0	1.56e+00	0	39	104	0	90	65535
2026-01-16 09:11:56.10	100.02	32.78	-74.6	-84.6	2.9	1.57e+00	0	39	104	0	90	65535
2026-01-16 09:11:57.09	99.74	32.91	-74.6	-84.6	3.0	1.56e+00	0	39	104	0	90	65535
2026-01-16 09:11:58.09	99.44	33.05	-74.6	-84.6	3.1	1.56e+00	0	39	104	0	90	65535
2026-01-16 09:11:59.09	99.15	33.18	-48.2	-85.1	2.9	1.56e+00	0	39	104	0	91	65535
2026-01-16 09:12:00.08	98.85	33.31	-48.2	-85.1	2.8	1.57e+00	0	39	104	0	91	65535
2026-01-16 09:12:01.08	98.55	33.45	-48.2	-85.1	3.0	1.56e+00	0	39	104	0	91	65535
2026-01-16 09:12:02.08	98.25	33.58	-48.2	-85.1	3.0	1.56e+00	0	39	104	0	91	65535
2026-01-16 09:12:03.08	97.94	33.71	-48.2	-85.1	3.0	1.56e+00	0	39	104	0	91	65535
2026-01-16 09:12:04.08	97.64	33.84	-48.2	-85.1	3.1	1.56e+00	0	39	104	0	91	65535
2026-01-16 09:12:05.07	97.33	33.97	-48.2	-85.1	2.9	1.56e+00	0	39	104	0	91	65535
2026-01-16 09:12:06.07	97.02	34.11	-75.1	-85.1	2.8	1.57e+00	0	39	104	0	91	65535
2026-01-16 09:12:07.07	96.70	34.24	-75.1	-85.1	2.9	1.56e+00	0	39	104	0	91	65535
2026-01-16 09:12:08.06	96.39	34.36	-75.1	-85.1	2.8	1.56e+00	0	39	104	0	91	65535
2026-01-16 09:12:09.06	96.07	34.49	-75.1	-85.1	2.8	1.56e+00	0	39	104	0	91	65535
2026-01-16 09:12:10.06	95.74	34.62	-75.1	-85.1	2.8	1.56e+00	0	39	104	0	91	65535
2026-01-16 09:12:11.06	95.42	34.75	-75.1	-85.1	2.9	1.57e+00	0	39	104	0	91	65535
2026-01-16 09:12:12.05	95.09	34.88	-74.6	-84.6	3.0	1.56e+00	0	39	104	0	90	65535
2026-01-16 09:12:13.05	94.76	35.01	-74.6	-84.6	2.6	1.56e+00	0	39	104	0	90	65535
2026-01-16 09:12:14.04	94.43	35.13	-75.1	-85.1	3.0	1.56e+00	0	39	104	0	91	65535
2026-01-16 09:12:15.05	94.10	35.26	-74.6	-84.6	3.1	1.56e+00	0	39	104	0	90	65535
2026-01-16 09:12:16.04	93.76	35.39	-74.6	-84.6	3.1	1.56e+00	0	39	104	0	90	65535
2026-01-16 09:12:17.04	93.42	35.51	-48.2	-85.1	2.9	1.56e+00	0	39	104	0	91	65535
2026-01-16 09:12:18.04	93.08	35.64	-48.2	-85.1	3.0	1.56e+00	0	39	104	0	91	65535
2026-01-16 09:12:19.04	92.73	35.76	-48.2	-85.1	3.0	1.57e+00	0	39	104	0	91	65535
2026-01-16 09:12:20.04	92.38	35.88	-48.2	-85.1	2.9	1.56e+00	0	39	104	0	91	65535
2026-01-16 09:12:21.03	92.03	36.00	-48.2	-85.1	3.3	1.57e+00	0	39	104	0	91	65535
2026-01-16 09:12:22.03	91.68	36.13	-48.2	-85.1	3.2	1.56e+00	0	39	104	0	91	65535
2026-01-16 09:12:23.03	91.32	36.25	-48.2	-85.1	3.1	1.57e+00	0	39	104	0	91	65535
2026-01-16 09:12:24.03	90.96	36.37	-75.1	-85.1	2.6	1.56e+00	0	39	104	0	91	65535
2026-01-16 09:12:25.02	90.60	36.48	-48.2	-85.1	2.9	1.56e+00	0	39	104	0	91	65535
2026-01-16 09:12:26.02	90.24	36.60	-48.2	-85.1	3.1	1.56e+00	0	39	104	0	91	65535
2026-01-16 09:12:27.01	89.88	36.72	-75.1	-85.1	3.0	1.56e+00	0	39	104	0	91	65535
2026-01-16 09:12:28.01	89.51	36.84	-75.1	-85.1	2.9	1.56e+00	0	39	104	0	91	65535
2026-01-16 09:12:29.00	89.14	36.95	-75.1	-85.1	3.0	1.56e+00	0	39	104	0	91	65535
2026-01-16 09:12:30.00	88.76	37.06	-75.1	-85.1	3.4	1.56e+00	0	39	104	0	91	65535
2026-01-16 09:12:31.00	88.38	37.18	-75.1	-85.1	3.0	1.56e+00	0	39	104	0	91	65535
2026-01-16 09:12:32.00	88.00	37.29	-75.1	-85.1	2.9	1.56e+00	0	39	104	0	91	65535
2026-01-16 09:12:32.99	87.62	37.40	-74.6	-84.6	3.0	1.56e+00	0	39	104	0	90	65535
2026-01-16 09:12:33.99	87.24	37.51	-48.2	-85.1	2.9	1.56e+00	0	39	104	0	91	65535
2026-01-16 09:12:34.99	86.85	37.62	-48.2	-85.1	2.9	1.57e+00	0	39	104	0	91	65535
2026-01-16 09:12:35.99	86.46	37.73	-48.2	-85.1	3.0	1.56e+00	0	39	104	0	91	65535
2026-01-16 09:12:36.98	86.07	37.83	-48.2	-85.1	3.2	1.56e+00	0	39	104	0	91	65535
2026-01-16 09:12:37.98	85.67	37.94	-48.2	-85.1	2.8	1.56e+00	0	39	104	0	91	65535
2026-01-16 09:12:38.98	85.28	38.04	-48.2	-85.1	3.3	1.56e+00	0	39	104	0	91	65535
2026-01-16 09:12:39.97	84.88	38.15	-48.2	-85.1	3.0	1.56e+00	0	39	104	0	91	65535
2026-01-16 09:12:40.97	84.47	38.25	-48.2	-85.1	2.9	1.56e+00	0	39	104	0	91	65535
2026-01-16 09:12:41.97	84.07	38.35	-48.2	-85.1	2.9	1.56e+00	0	39	104	0	91	65535
2026-01-16 09:12:42.97	83.66	38.45	-48.2	-85.1	3.2	1.56e+00	0	39	104	0	91	65535
2026-01-16 09:12:43.96	83.25	38.54	-48.2	-85.1	3.0	1.57e+00	0	39	104	0	91	65535
2026-01-16 09:12:44.96	82.84	38.64	-75.1	-85.1	2.6	1.56e+00	0	39	104	0	91	65535
2026-01-16 09:12:45.96	82.42	38.73	-75.1	-85.1	3.0	1.56e+00	0	39	104	0	91	65535
2026-01-16 09:12:46.96	82.00	38.83	-48.2	-85.1	3.0	1.57e+00	0	39	104	0	91	65535
2026-01-16 09:12:47.96	81.58	38.92	-75.1	-85.1	2.9	1.57e+00	0	39	104	0	91	65535
2026-01-16 09:12:48.95	81.16	39.01	-75.1	-85.1	2.6	1.56e+00	0	39	104	0	91	65535
2026-01-16 09:12:49.95	80.74	39.10	-75.1	-85.1	3.0	1.56e+00	0	39	104	0	91	65535
2026-01-16 09:12:50.94	80.32	39.18	-48.2	-85.1	3.2	1.56e+00	0	39	104	0	91	65535
2026-01-16 09:12:51.94	79.89	39.27	-48.2	-85.1	3.0	1.57e+00	0	39	104	0	91	65535
2026-01-16 09:12:52.94	79.45	39.35	-48.2	-85.1	3.0	1.56e+00	0	39	104	0	91	65535
2026-01-16 09:12:53.93	79.02	39.44	-48.2	-85.1	2.9	1.57e+00	0	39	104	0	91	65535
2026-01-16 09:12:54.93	78.59	39.52	-48.2	-85.1	3.0	1.56e+00	0	39	104	0	91	65535
2026-01-16 09:12:55.92	78.15	39.59	-48.2	-85.1	2.9	1.57e+00	0	39	104	0	91	65535
2026-01-16 09:12:56.93	77.71	39.67	-48.2	-85.1	3.0	1.56e+00	0	39	104	0	91	65535
2026-01-16 09:12:57.92	77.27	39.75	-48.2	-85.1	3.0	1.56e+00	0	39	104	0	91	65535
2026-01-16 09:12:58.92	76.82	39.82	-48.2	-85.1	3.1	1.56e+00	0	39	104	0	91	65535
2026-01-16 09:12:59.92	76.38	39.89	-48.2	-85.1	3.0	1.57e+00	0	39	104	0	91	65535
2026-01-16 09:13:00.92	75.93	39.96	-48.2	-85.1	2.9	1.56e+00	0	39	104	0	91	65535
2026-01-16 09:13:01.91	75.48	40.03	-48.2	-85.1	2.9	1.56e+00	0	39	104	0	91	65535
2026-01-16 09:13:02.91	75.03	40.10	-48.2	-85.1	2.8	1.56e+00	0	39	104	0	91	65535
2026-01-16 09:13:03.90	74.58	40.16	-48.2	-85.1	3.0	1.56e+00	0	39	104	0	91	65535
2026-01-16 09:13:04.90	74.12	40.22	-48.2	-85.1	3.0	1.56e+00	0	39	104	0	91	65535
2026-01-16 09:13:05.90	73.66	40.28	-75.1	-85.1	3.0	1.56e+00	0	39	104	0	91	65535
2026-01-16 09:13:06.89	73.21	40.34	-75.1	-85.1	3.0	1.56e+00	0	39	104	0	91	65535
2026-01-16 09:13:07.89	72.75	40.40	-48.2	-85.1	2.9	1.56e+00	0	39	104	0	91	65535
2026-01-16 09:13:08.88	72.29	40.45	-48.2	-85.1	3.0	1.56e+00	0	39	104	0	91	65535
2026-01-16 09:13:09.88	71.82	40.50	-48.2	-85.1	3.0	1.56e+00	0	39	104	0	91	65535
2026-01-16 09:13:10.88	71.36	40.55	-48.2	-85.1	2.5	1.56e+00	0	39	104	0	91	65535
2026-01-16 09:13:11.88	70.89	40.60	-48.2	-85.1	2.9	1.56e+00	0	39	104	0	91	65535
2026-01-16 09:13:12.88	70.42	40.65	-48.2	-85.1	2.9	1.57e+00	0	39	104	0	91	65535
2026-01-16 09:13:13.88	69.95	40.69	-48.2	-85.1	2.9	1.56e+00	0	39	104	0	91	65535
2026-01-16 09:13:14.88	69.48	40.73	-48.2	-85.1	3.0	1.56e+00	0	39	104	0	91	65535
2026-01-16 09:13:15.88	69.01	40.77	-48.2	-85.1	3.0	1.56e+00	0	39	104	0	91	65535
2026-01-16 09:13:16.87	68.54	40.81	-48.2	-85.1	3.0	1.56e+00	0	39	104	0	91	65535
2026-01-16 09:13:17.87	68.06	40.85	-48.2	-85.1	3.0	1.56e+00	0	39	104	0	91	65535
2026-01-16 09:13:18.87	67.59	40.88	-48.2	-85.1	2.9	1.57e+00	0	39	104	0	91	65535
2026-01-16 09:13:19.87	67.11	40.91	-48.2	-85.1	2.8	1.56e+00	0	39	104	0	91	65535
2026-01-16 09:13:20.87	66.64	40.94	-48.2	-85.1	3.0	1.57e+00	0	39	104	0	91	65535
2026-01-16 09:13:21.86	66.16	40.97	-48.2	-85.1	3.0	1.56e+00	0	39	104	0	91	65535
2026-01-16 09:13:22.86	65.68	40.99	-48.2	-85.1	2.9	1.56e+00	0	39	104	0	91	65535
2026-01-16 09:13:23.86	65.20	41.01	-75.1	-85.1	2.9	1.56e+00	0	39	104	0	91	65535
2026-01-16 09:13:24.86	64.72	41.03	-75.1	-85.1	3.1	1.56e+00	0	39	104	0	91	65535
2026-01-16 09:13:25.86	64.24	41.05	-48.2	-85.1	3.2	1.56e+00	0	39	104	0	91	65535
2026-01-16 09:13:26.86	63.76	41.06	-48.2	-85.1	3.0	1.56e+00	0	39	104	0	91	65535
2026-01-16 09:13:27.85	63.28	41.08	-75.1	-85.1	2.8	1.56e+00	0	39	104	0	91	65535
2026-01-16 09:13:28.85	62.80	41.09	-75.1	-85.1	3.0	1.56e+00	0	39	104	0	91	65535
2026-01-16 09:13:29.85	62.32	41.10	-75.1	-85.1	2.9	1.56e+00	0	39	104	0	91	65535
2026-01-16 09:13:30.85	61.84	41.10	-75.1	-85.1	3.0	1.56e+00	0	39	104	0	91	65535
2026-01-16 09:13:31.85	61.36	41.11	-75.1	-85.1	3.1	1.56e+00	0	39	104	0	91	65535
2026-01-16 09:13:32.85	60.87	41.11	-74.6	-84.6	3.1	1.56e+00	0	39	104	0	90	65535
2026-01-16 09:13:33.85	60.39	41.11	-74.6	-84.6	2.9	1.56e+00	0	39	104	0	90	65535
2026-01-16 09:13:34.84	59.91	41.10	-48.2	-85.1	3.0	1.56e+00	0	39	104	0	91	65535
2026-01-16 09:13:35.84	59.43	41.10	-74.6	-84.6	2.9	1.56e+00	0	39	104	0	90	65535
2026-01-16 09:13:36.84	58.95	41.09	-48.2	-85.1	2.9	1.57e+00	0	39	104	0	91	65535
2026-01-16 09:13:37.83	58.47	41.08	-48.2	-85.1	3.0	1.56e+00	0	39	104	0	91	65535
2026-01-16 09:13:38.83	57.99	41.07	-48.2	-85.1	2.9	1.57e+00	0	39	104	0	91	65535
2026-01-16 09:13:39.83	57.51	41.05	-48.2	-85.1	3.1	1.57e+00	0	39	104	0	91	65535
2026-01-16 09:13:40.83	57.03	41.04	-48.2	-85.1	2.5	1.56e+00	0	39	104	0	91	65535
2026-01-16 09:13:41.83	56.55	41.02	-48.2	-85.1	2.9	1.56e+00	0	39	104	0	91	65535
2026-01-16 09:13:42.82	56.07	41.00	-48.2	-85.1	2.5	1.56e+00	0	39	104	0	91	65535
2026-01-16 09:13:43.82	55.59	40.97	-48.2	-85.1	3.1	1.57e+00	0	39	104	0	91	65535
2026-01-16 09:13:44.82	55.12	40.95	-75.1	-85.1	3.0	1.56e+00	0	39	104	0	91	65535
2026-01-16 09:13:45.81	54.64	40.92	-75.1	-85.1	3.0	1.57e+00	0	39	104	0	91	65535
2026-01-16 09:13:46.81	54.17	40.89	-48.2	-85.1	3.1	1.56e+00	0	39	104	0	91	65535
2026-01-16 09:13:47.81	53.69	40.86	-75.1	-85.1	3.0	1.56e+00	0	39	104	0	91	65535
2026-01-16 09:13:48.80	53.22	40.82	-75.1	-85.1	3.2	1.56e+00	0	39	104	0	91	65535
2026-01-16 09:13:49.80	52.75	40.79	-75.1	-85.1	3.0	1.56e+00	0	39	104	0	91	65535
2026-01-16 09:13:50.80	52.28	40.75	-75.1	-85.1	3.0	1.56e+00	0	39	104	0	91	65535
2026-01-16 09:13:51.79	51.81	40.71	-48.2	-85.1	2.9	1.56e+00	0	39	104	0	91	65535
2026-01-16 09:13:52.79	51.34	40.66	-48.2	-85.1	2.9	1.56e+00	0	39	104	0	91	65535
2026-01-16 09:13:53.79	50.87	40.62	-48.2	-85.1	2.9	1.56e+00	0	39	104	0	91	65535
2026-01-16 09:13:54.79	50.40	40.57	-48.2	-85.1	2.9	1.56e+00	0	39	104	0	91	65535
2026-01-16 09:13:55.78	49.94	40.52	-48.2	-85.1	3.0	1.56e+00	0	39	104	0	91	65535
2026-01-16 09:13:56.78	49.48	40.47	-48.2	-85.1	2.9	1.56e+00	0	39	104	0	91	65535
2026-01-16 09:13:57.78	49.01	40.42	-48.2	-85.1	3.0	1.56e+00	0	39	104	0	91	65535
2026-01-16 09:13:58.78	48.55	40.36	-48.2	-85.1	3.0	1.56e+00	0	39	104	0	91	65535
2026-01-16 09:13:59.78	48.09	40.30	-48.2	-85.1	3.0	1.56e+00	0	39	104	0	91	65535
2026-01-16 09:14:00.77	47.64	40.24	-48.2	-85.1	3.0	1.57e+00	0	39	104	0	91	65535
2026-01-16 09:14:01.77	47.18	40.18	-48.2	-85.1	3.1	1.56e+00	0	39	104	0	91	65535
2026-01-16 09:14:02.77	46.73	40.12	-48.2	-85.1	3.0	1.56e+00	0	39	104	0	91	65535
2026-01-16 09:14:03.76	46.28	40.05	-48.2	-85.1	3.3	1.56e+00	0	39	104	0	91	65535
2026-01-16 09:14:04.75	45.84	39.99	-48.2	-85.1	3.1	1.56e+00	0	39	104	0	91	65535
2026-01-16 09:14:05.75	45.39	39.92	-75.1	-85.1	3.0	1.56e+00	0	39	104	0	91	65535
2026-01-16 09:14:06.75	44.94	39.85	-75.1	-85.1	3.0	1.56e+00	0	39	104	0	91	65535
2026-01-16 09:14:07.75	44.49	39.77	-75.1	-85.1	3.1	1.56e+00	0	39	104	0	91	65535
2026-01-16 09:14:08.75	44.05	39.70	-75.1	-85.1	3.3	1.57e+00	0	39	104	0	91	65535
2026-01-16 09:14:09.75	43.61	39.62	-75.1	-85.1	3.1	1.56e+00	0	39	104	0	91	65535
2026-01-16 09:14:10.74	43.18	39.54	-74.6	-84.6	3.0	1.56e+00	0	39	104	0	90	65535
2026-01-16 09:14:11.74	42.74	39.46	-48.2	-85.1	2.7	1.56e+00	0	39	104	0	91	65535
2026-01-16 09:14:12.74	42.31	39.38	-48.2	-85.1	3.0	1.56e+00	0	39	104	0	91	65535
2026-01-16 09:14:13.74	41.87	39.30	-48.2	-85.1	3.2	1.56e+00	0	39	104	0	91	65535
2026-01-16 09:14:14.73	41.45	39.22	-48.2	-85.1	3.0	1.56e+00	0	39	104	0	91	65535
2026-01-16 09:14:15.73	41.02	39.13	-48.2	-85.1	2.8	1.57e+00	0	39	104	0	91	65535
2026-01-16 09:14:16.73	40.60	39.04	-48.2	-85.1	3.0	1.56e+00	0	39	104	0	91	65535
2026-01-16 09:14:17.73	40.17	38.95	-48.2	-85.1	3.1	1.56e+00	0	39	104	0	91	65535
2026-01-16 09:14:18.72	39.76	38.86	-48.2	-85.1	3.0	1.56e+00	0	39	104	0	91	65535
2026-01-16 09:14:19.72	39.34	38.77	-48.2	-85.1	2.9	1.57e+00	0	39	104	0	91	65535
2026-01-16 09:14:20.72	38.92	38.67	-48.2	-85.1	3.0	1.56e+00	0	39	104	0	91	65535
2026-01-16 09:14:21.72	38.51	38.58	-48.2	-85.1	3.0	1.56e+00	0	39	104	0	91	65535
2026-01-16 09:14:22.71	38.10	38.48	-48.2	-85.1	3.2	1.56e+00	0	39	104	0	91	65535
2026-01-16 09:14:23.71	37.69	38.38	-48.2	-85.1	3.0	1.57e+00	0	39	104	0	91	65535
2026-01-16 09:14:24.71	37.29	38.28	-48.2	-85.1	2.9	1.56e+00	0	39	104	0	91	65535
2026-01-16 09:14:25.71	36.88	38.18	-75.1	-85.1	3.1	1.56e+00	0	39	104	0	91	65535
2026-01-16 09:14:26.70	36.49	38.08	-75.1	-85.1	3.0	1.56e+00	0	39	104	0	91	65535
2026-01-16 09:14:27.70	36.09	37.98	-75.1	-85.1	3.0	1.57e+00	0	39	104	0	91	65535
2026-01-16 09:14:28.70	35.69	37.87	-75.1	-85.1	2.9	1.56e+00	0	39	104	0	91	65535
2026-01-16 09:14:29.69	35.30	37.77	-75.1	-85.1	2.9	1.56e+00	0	39	104	0	91	65535
2026-01-16 09:14:30.69	34.91	37.66	-75.1	-85.1	3.0	1.56e+00	0	40	104	0	91	65535
2026-01-16 09:14:31.69	34.52	37.55	-48.2	-85.1	3.0	1.56e+00	0	39	104	0	91	65535
2026-01-16 09:14:32.69	34.14	37.44	-48.2	-85.1	2.8	1.56e+00	0	39	104	0	91	65535
2026-01-16 09:14:33.69	33.76	37.33	-74.6	-84.6	3.0	1.56e+00	0	39	104	0	90	65535
2026-01-16 09:14:34.69	33.38	37.22	-48.2	-85.1	3.0	1.56e+00	0	39	104	0	91	65535
2026-01-16 09:14:35.69	33.00	37.11	-48.2	-85.1	2.9	1.56e+00	0	39	104	0	91	65535
2026-01-16 09:14:36.69	32.62	36.99	-48.2	-85.1	3.0	1.56e+00	0	39	104	0	91	65535
2026-01-16 09:14:37.69	32.25	36.88	-48.2	-85.1	3.1	1.56e+00	0	39	104	0	91	65535
2026-01-16 09:14:38.69	31.88	36.76	-48.2	-85.1	3.0	1.56e+00	0	39	104	0	91	65535
2026-01-16 09:14:39.68	31.52	36.65	-48.2	-85.1	3.0	1.56e+00	0	39	104	0	91	65535
2026-01-16 09:14:40.68	31.15	36.53	-48.2	-85.1	3.0	1.56e+00	0	39	104	0	91	65535
2026-01-16 09:14:41.67	30.80	36.41	-48.2	-85.1	2.8	1.56e+00	0	39	104	0	91	65535
2026-01-16 09:14:42.68	30.43	36.29	-48.2	-85.1	2.9	1.56e+00	0	39	104	0	91	65535
2026-01-16 09:14:43.67	30.08	36.17	-75.1	-85.1	3.0	1.56e+00	0	39	104	0	91	65535
2026-01-16 09:14:44.67	29.73	36.05	-48.2	-85.1	2.9	1.56e+00	0	39	104	0	91	65535
2026-01-16 09:14:45.68	29.37	35.93	-48.2	-85.1	3.3	1.56e+00	0	39	104	0	91	65535
2026-01-16 09:14:46.67	29.03	35.81	-75.1	-85.1	3.0	1.57e+00	0	39	104	0	91	65535
2026-01-16 09:14:47.67	28.68	35.69	-75.1	-85.1	3.3	1.56e+00	0	39	104	0	91	65535
2026-01-16 09:14:48.66	28.34	35.56	-75.1	-85.1	3.0	1.56e+00	0	39	104	0	91	65535
2026-01-16 09:14:49.66	28.00	35.44	-75.1	-85.1	3.1	1.56e+00	0	39	104	0	91	65535
2026-01-16 09:14:50.66	27.66	35.31	-75.1	-85.1	3.0	1.56e+00	0	39	104	0	91	65535
2026-01-16 09:14:51.66	27.33	35.19	-75.1	-85.1	2.6	1.56e+00	0	39	104	0	91	65535
2026-01-16 09:14:52.65	27.00	35.06	-74.6	-84.6	3.0	1.57e+00	0	39	104	0	90	65535
2026-01-16 09:14:53.65	26.67	34.93	-74.6	-84.6	3.0	1.56e+00	0	39	104	0	90	65535
2026-01-16 09:14:54.65	26.34	34.81	-74.6	-84.6	3.0	1.56e+00	0	40	104	0	90	65535
2026-01-16 09:14:55.65	26.02	34.68	-74.6	-84.6	3.0	1.56e+00	0	40	104	0	90	65535
2026-01-16 09:14:56.65	25.69	34.55	-74.6	-84.6	2.9	1.57e+00	0	39	104	0	90	65535
2026-01-16 09:14:57.64	25.38	34.42	-74.6	-84.6	3.1	1.57e+00	0	39	104	0	90	65535
2026-01-16 09:14:58.64	25.06	34.29	-48.2	-85.1	3.0	1.56e+00	0	39	104	0	91	65535
2026-01-16 09:14:59.63	24.75	34.16	-48.2	-85.1	3.1	1.56e+00	0	39	104	0	91	65535
2026-01-16 09:15:00.63	24.44	34.03	-48.2	-85.1	3.0	1.56e+00	0	39	104	0	91	65535
2026-01-16 09:15:01.63	24.13	33.90	-48.2	-85.1	2.8	1.56e+00	0	39	104	0	91	65535
2026-01-16 09:15:02.62	23.82	33.77	-48.2	-85.1	3.0	1.56e+00	0	39	104	0	91	65535
2026-01-16 09:15:03.63	23.51	33.64	-48.2	-85.1	3.0	1.56e+00	0	39	104	0	91	65535
2026-01-16 09:15:04.62	23.21	33.51	-75.1	-85.1	3.0	1.56e+00	0	39	104	0	91	65535
2026-01-16 09:15:05.62	22.91	33.38	-75.1	-85.1	3.1	1.56e+00	0	39	104	0	91	65535
2026-01-16 09:15:06.62	22.62	33.24	-75.1	-85.1	3.0	1.56e+00	0	39	104	0	91	65535
2026-01-16 09:15:07.62	22.32	33.11	-75.1	-85.1	2.9	1.56e+00	0	39	104	0	91	65535
2026-01-16 09:15:08.62	22.03	32.98	-75.1	-85.1	3.0	1.56e+00	0	39	104	0	91	65535
2026-01-16 09:15:09.62	21.74	32.85	-75.1	-85.1	3.0	1.56e+00	0	39	104	0	91	65535
2026-01-16 09:15:10.61	21.46	32.71	-74.6	-84.6	3.0	1.56e+00	0	39	104	0	90	65535
2026-01-16 09:15:11.61	21.17	32.58	-75.1	-85.1	3.0	1.57e+00	0	39	104	0	91	65535
2026-01-16 09:15:12.61	20.89	32.44	-75.1	-85.1	3.0	1.56e+00	0	39	104	0	91	65535
2026-01-16 09:15:13.61	20.61	32.31	-74.6	-84.6	3.1	1.56e+00	0	39	104	0	90	65535
2026-01-16 09:15:14.60	20.33	32.18	-74.6	-84.6	3.0	1.56e+00	0	39	104	0	90	65535
2026-01-16 09:15:15.60	20.06	32.04	-74.6	-84.6	3.1	1.57e+00	0	39	104	0	90	65535
2026-01-16 09:15:16.60	19.78	31.91	-74.6	-84.6	2.9	1.56e+00	0	39	104	0	90	65535
2026-01-16 09:15:17.60	19.51	31.77	-74.6	-84.6	3.0	1.57e+00	0	39	104	0	90	65535
2026-01-16 09:15:18.60	19.24	31.64	-74.6	-84.6	3.0	1.56e+00	0	39	104	0	90	65535
2026-01-16 09:15:19.59	18.98	31.50	-74.6	-84.6	3.1	1.56e+00	0	39	104	0	90	65535
2026-01-16 09:15:20.59	18.71	31.37	-48.2	-85.1	2.8	1.56e+00	0	39	104	0	91	65535
2026-01-16 09:15:21.59	18.45	31.23	-48.2	-85.1	3.0	1.56e+00	0	39	104	0	91	65535
2026-01-16 09:15:22.59	18.19	31.10	-75.1	-85.1	2.8	1.56e+00	0	39	104	0	91	65535
2026-01-16 09:15:23.58	17.94	30.97	-48.2	-85.1	3.0	1.56e+00	0	39	104	0	91	65535
2026-01-16 09:15:24.58	17.68	30.83	-48.2	-85.1	2.9	1.56e+00	0	39	104	0	91	65535
2026-01-16 09:15:25.58	17.43	30.69	-75.1	-85.1	3.0	1.57e+00	0	39	104	0	91	65535
2026-01-16 09:15:26.58	17.17	30.56	-75.1	-85.1	3.0	1.57e+00	0	39	104	0	91	65535
2026-01-16 09:15:27.58	16.93	30.42	-75.1	-85.1	3.0	1.56e+00	0	39	104	0	91	65535
2026-01-16 09:15:28.58	16.68	30.29	-75.1	-85.1	2.9	1.56e+00	0	39	104	0	91	65535
2026-01-16 09:15:29.58	16.43	30.15	-75.1	-85.1	3.0	1.56e+00	0	40	104	0	91	65535
2026-01-16 09:15:30.57	16.19	30.02	-75.1	-85.1	2.9	1.56e+00	0	40	104	0	91	65534
2026-01-16 09:15:31.57	15.95	29.89	-74.6	-84.6	3.0	1.56e+00	0	39	104	0	90	65535
2026-01-16 09:15:32.57	15.71	29.75	-74.6	-84.6	2.9	1.56e+00	0	39	104	0	90	65535
2026-01-16 09:15:33.57	15.48	29.62	-74.6	-84.6	3.0	1.56e+00	0	39	104	0	90	65535
2026-01-16 09:15:34.57	15.24	29.48	-74.6	-84.6	2.9	1.56e+00	0	39	104	0	90	65535
2026-01-16 09:15:35.57	15.01	29.35	-74.6	-84.6	3.0	1.56e+00	0	39	104	0	90	65535
2026-01-16 09:15:36.57	14.78	29.21	-74.6	-84.6	3.1	1.56e+00	0	39	104	0	90	65535
2026-01-16 09:15:37.57	14.55	29.08	-74.6	-84.6	2.9	1.56e+00	0	39	104	0	90	65535
2026-01-16 09:15:38.56	14.32	28.94	-74.6	-84.6	3.0	1.56e+00	0	39	104	0	90	65535
2026-01-16 09:15:39.56	14.10	28.81	-74.6	-84.6	3.3	1.56e+00	0	39	104	0	90	65535
2026-01-16 09:15:40.56	13.87	28.68	-74.6	-84.6	3.0	1.57e+00	0	39	104	0	90	65535
2026-01-16 09:15:41.56	13.65	28.54	-74.6	-84.6	2.8	1.56e+00	0	39	104	0	90	65535
2026-01-16 09:15:42.55	13.43	28.41	-74.6	-84.6	2.9	1.57e+00	0	39	104	0	90	65535
2026-01-16 09:15:43.55	13.22	28.28	-68.6	-84.6	2.7	1.56e+00	0	39	104	0	90	65535
2026-01-16 09:15:44.55	13.00	28.14	-74.6	-84.6	2.9	1.57e+00	0	40	104	0	90	65535
2026-01-16 09:15:45.55	12.79	28.01	-74.6	-84.6	3.0	1.56e+00	0	39	104	0	90	65535
2026-01-16 09:15:46.55	12.57	27.88	-74.6	-84.6	2.9	1.56e+00	0	39	104	0	90	65535
2026-01-16 09:15:47.55	12.36	27.74	-68.6	-84.6	3.0	1.56e+00	0	39	104	0	90	65535
2026-01-16 09:15:48.55	12.16	27.61	-68.6	-84.6	2.9	1.57e+00	0	40	104	0	90	65535
2026-01-16 09:15:49.55	11.95	27.48	-68.6	-84.6	3.4	1.56e+00	0	39	104	0	90	65535
2026-01-16 09:15:50.54	11.75	27.35	-68.6	-84.6	2.8	1.56e+00	0	39	104	0	90	65535
2026-01-16 09:15:51.54	11.54	27.22	-75.1	-85.1	2.8	1.56e+00	0	39	104	0	91	65535
2026-01-16 09:15:52.54	11.34	27.08	-74.6	-84.6	3.0	1.56e+00	0	39	104	0	90	65535
2026-01-16 09:15:53.54	11.14	26.95	-74.6	-84.6	3.0	1.57e+00	0	39	104	0	90	65535
2026-01-16 09:15:54.53	10.94	26.82	-74.6	-84.6	2.7	1.56e+00	0	39	104	0	90	65535
2026-01-16 09:15:55.53	10.75	26.69	-74.6	-84.6	2.6	1.56e+00	0	40	104	0	90	65535
2026-01-16 09:15:56.53	10.55	26.56	-74.6	-84.6	3.0	1.56e+00	0	39	104	0	90	65535
2026-01-16 09:15:57.52	10.36	26.43	-74.6	-84.6	2.6	1.56e+00	0	39	104	0	90	65535
2026-01-16 09:15:58.52	10.17	26.30	-74.6	-84.6	2.8	1.56e+00	0	39	104	0	90	65535
2026-01-16 09:15:59.52	9.98	26.17	-74.6	-84.6	3.1	1.56e+00	0	39	104	0	90	65535
2026-01-16 09:16:00.52	9.79	26.04	-74.6	-84.6	3.1	1.56e+00	0	39	104	0	90	65535
2026-01-16 09:16:01.52	9.60	25.91	-74.6	-84.6	3.1	1.57e+00	0	39	104	0	90	65535
2026-01-16 09:16:02.51	9.42	25.79	-74.6	-84.6	3.1	1.56e+00	0	39	104	0	90	65535
2026-01-16 09:16:03.52	9.23	25.66	-74.6	-84.6	2.8	1.56e+00	0	39	104	0	90	65535
2026-01-16 09:16:04.52	9.05	25.53	-74.6	-84.6	3.1	1.57e+00	0	39	104	0	90	65535
2026-01-16 09:16:05.52	8.87	25.40	-68.6	-84.6	2.9	1.57e+00	0	39	104	0	90	65535
2026-01-16 09:16:06.52	8.69	25.27	-68.6	-84.6	3.0	1.56e+00	0	39	104	0	90	65535
2026-01-16 09:16:07.52	8.51	25.14	-74.6	-84.6	2.9	1.57e+00	0	39	104	0	90	65535
2026-01-16 09:16:08.52	8.33	25.02	-68.6	-84.6	2.7	1.56e+00	0	40	104	0	90	65535
2026-01-16 09:16:09.52	8.16	24.89	-68.6	-84.6	3.3	1.56e+00	0	39	104	0	90	65535
2026-01-16 09:16:10.52	7.98	24.76	-68.6	-84.6	2.7	1.56e+00	0	39	104	0	90	65535
2026-01-16 09:16:11.52	7.81	24.64	-47.7	-84.6	2.8	1.57e+00	0	39	104	0	90	65535
2026-01-16 09:16:12.52	7.64	24.51	-68.6	-84.6	2.8	1.57e+00	0	39	104	0	90	65535
2026-01-16 09:16:13.52	7.47	24.39	-68.6	-84.6	2.9	1.56e+00	0	39	104	0	90	65535
2026-01-16 09:16:14.52	7.30	24.26	-47.7	-84.6	3.2	1.56e+00	0	39	104	0	90	65535
2026-01-16 09:16:15.52	7.14	24.14	-47.7	-84.6	3.4	1.57e+00	0	39	104	0	90	65535
2026-01-16 09:16:16.52	6.97	24.01	-47.7	-84.6	3.1	1.56e+00	0	39	104	0	90	65535
2026-01-16 09:16:17.52	6.81	23.89	-47.7	-84.6	2.7	1.57e+00	0	39	104	0	90	65535
2026-01-16 09:16:18.52	6.64	23.76	-47.7	-84.6	3.0	1.56e+00	0	40	104	0	90	65535
2026-01-16 09:16:19.52	6.48	23.64	-47.7	-84.6	3.0	1.56e+00	0	40	104	0	90	65535
2026-01-16 09:16:20.52	6.32	23.52	-48.2	-85.1	2.8	1.56e+00	0	39	104	0	91	65535
2026-01-16 09:16:21.51	6.16	23.40	-48.2	-85.1	3.0	1.56e+00	0	39	104	0	91	65535
2026-01-16 09:16:22.52	6.00	23.27	-48.2	-85.1	3.1	1.56e+00	0	39	104	0	91	65535
2026-01-16 09:16:23.52	5.85	23.15	-48.2	-85.1	3.0	1.57e+00	0	39	104	0	91	65535
2026-01-16 09:16:24.52	5.69	23.03	-48.2	-85.1	3.0	1.56e+00	0	40	104	0	91	65535
2026-01-16 09:16:25.52	5.54	22.91	-48.2	-85.1	3.0	1.56e+00	0	39	104	0	91	65535
2026-01-16 09:16:26.52	5.38	22.78	-48.2	-85.1	2.8	1.56e+00	0	39	104	0	91	65535
2026-01-16 09:16:27.51	5.23	22.67	-48.2	-85.1	3.0	1.56e+00	0	39	104	0	91	65535
2026-01-16 09:16:28.51	5.08	22.54	-48.2	-85.1	2.9	1.57e+00	0	39	104	0	91	65535
2026-01-16 09:16:29.51	4.93	22.42	-48.2	-85.1	3.0	1.56e+00	0	39	104	0	91	65535
2026-01-16 09:16:30.51	4.79	22.30	-48.2	-85.1	2.8	1.56e+00	0	39	104	0	91	65535
2026-01-16 09:16:31.51	4.64	22.19	-48.2	-85.1	2.7	1.56e+00	0	40	104	0	91	65535
2026-01-16 09:16:32.51	4.49	22.07	-48.2	-85.1	3.2	1.57e+00	0	39	104	0	91	65535
2026-01-16 09:16:33.50	4.35	21.95	-48.2	-85.1	3.1	1.57e+00	0	39	104	0	91	65535
2026-01-16 09:16:34.50	4.21	21.83	-48.2	-85.1	3.0	1.56e+00	0	40	104	0	91	65535
2026-01-16 09:16:35.50	4.07	21.71	-48.2	-85.1	3.1	1.56e+00	0	40	104	0	91	65535
2026-01-16 09:16:36.50	3.92	21.60	-48.2	-85.1	3.1	1.56e+00	0	40	104	0	91	65535
2026-01-16 09:16:37.50	3.78	21.48	-48.2	-85.1	3.0	1.56e+00	0	39	104	0	91	65535
2026-01-16 09:16:38.50	3.64	21.36	-75.1	-85.1	2.9	1.57e+00	0	40	104	0	91	65535
2026-01-16 09:16:39.49	3.51	21.25	-48.2	-85.1	3.2	1.57e+00	0	39	104	0	91	65535
2026-01-16 09:16:40.49	3.37	21.13	-47.7	-84.6	2.9	1.57e+00	0	40	104	0	90	65535
2026-01-16 09:16:41.49	3.23	21.01	-48.2	-85.1	3.0	1.56e+00	0	39	104	0	91	65535
2026-01-16 09:16:42.49	3.10	20.90	-48.2	-85.1	2.5	1.57e+00	0	39	104	0	91	65535
2026-01-16 09:16:43.49	2.97	20.78	-48.2	-85.1	2.9	1.56e+00	0	39	104	0	91	65535
2026-01-16 09:16:44.49	2.83	20.67	-48.2	-85.1	3.0	1.56e+00	0	40	104	0	91	65535
2026-01-16 09:16:45.48	2.70	20.56	-48.2	-85.1	2.9	1.56e+00	0	39	104	0	91	65535
2026-01-16 09:16:46.48	2.57	20.44	-48.2	-85.1	2.7	1.57e+00	0	40	104	0	91	65535
2026-01-16 09:16:47.48	2.44	20.33	-48.2	-85.1	3.0	1.56e+00	0	39	104	0	91	65535
2026-01-16 09:16:48.47	2.31	20.22	-48.2	-85.1	2.7	1.56e+00	0	40	104	0	91	65535
2026-01-16 09:16:49.47	2.19	20.10	-48.2	-85.1	2.9	1.56e+00	0	40	104	0	91	65535
2026-01-16 09:16:50.47	2.06	19.99	-48.2	-85.1	2.9	1.56e+00	0	39	104	0	91	65535
2026-01-16 09:16:51.48	1.93	19.88	-48.2	-85.1	2.9	1.56e+00	0	39	104	0	91	65535
2026-01-16 09:16:52.47	1.81	19.77	-48.2	-85.1	2.9	1.56e+00	0	39	104	0	91	65535
2026-01-16 09:16:53.47	1.68	19.65	-48.2	-85.1	3.0	1.57e+00	0	39	104	0	91	65535
2026-01-16 09:16:54.47	1.56	19.54	-48.2	-85.1	2.9	1.56e+00	0	39	104	0	91	65535
2026-01-16 09:16:55.47	1.44	19.43	-48.2	-85.1	2.9	1.56e+00	0	40	104	0	91	65535
2026-01-16 09:16:56.47	1.32	19.32	-48.2	-85.1	3.2	1.56e+00	0	40	104	0	91	65535
2026-01-16 09:16:57.47	1.20	19.21	-48.2	-85.1	3.0	1.57e+00	0	39	104	0	91	65535
2026-01-16 09:16:58.46	1.08	19.10	-48.2	-85.1	3.1	1.56e+00	0	40	104	0	91	65535
2026-01-16 09:16:59.46	0.96	18.99	-75.1	-85.1	3.0	1.56e+00	0	40	104	0	91	65535
2026-01-16 09:17:00.46	0.84	18.88	-48.2	-85.1	2.8	1.56e+00	0	40	104	0	91	65535
2026-01-16 09:17:01.46	0.73	18.78	-48.2	-85.1	3.0	1.57e+00	0	39	104	0	91	65535
2026-01-16 09:17:02.46	0.61	18.67	-48.2	-85.1	3.0	1.56e+00	0	39	104	0	91	65535
2026-01-16 09:17:03.46	0.49	18.56	-75.1	-85.1	3.0	1.56e+00	0	40	104	0	91	65535
2026-01-16 09:17:04.45	0.38	18.45	-75.1	-85.1	3.1	1.56e+00	0	40	104	0	91	65535
2026-01-16 09:17:05.45	0.27	18.35	-75.1	-85.1	3.2	1.56e+00	0	40	104	0	91	65535
2026-01-16 09:17:06.45	0.15	18.24	-75.1	-85.1	3.0	1.56e+00	0	39	104	0	91	65535
2026-01-16 09:17:07.45	0.04	18.13	-75.1	-85.1	2.8	1.56e+00	0	40	104	0	91	65535
2026-01-16 09:17:08.45	359.93	18.03	-75.1	-85.1	2.8	1.56e+00	0	40	104	0	91	65535
2026-01-16 09:17:09.44	359.82	17.92	-74.6	-84.6	3.0	1.57e+00	0	40	104	0	90	65535
2026-01-16 09:17:10.44	359.71	17.82	-48.2	-85.1	3.2	1.56e+00	0	40	104	0	91	65535
2026-01-16 09:17:11.44	359.60	17.71	-48.2	-85.1	3.0	1.56e+00	0	39	104	0	91	65535
2026-01-16 09:17:12.43	359.50	17.61	-48.2	-85.1	3.0	1.56e+00	0	40	104	0	91	65535
2026-01-16 09:17:13.43	359.39	17.50	-46.2	-62.9	3.6	1.54e+00	0	39	104	0	64	23960
2026-01-16 09:17:14.43	359.28	17.40	-46.1	-62.9	3.8	1.49e+00	0	40	104	0	64	24111
2026-01-16 09:17:15.43	359.18	17.29	-46.1	-62.9	3.8	1.49e+00	0	39	104	0	64	24125
2026-01-16 09:17:16.42	359.07	17.19	-46.1	-63.0	3.8	1.49e+00	0	39	104	0	64	24160
2026-01-16 09:17:17.42	358.97	17.09	-46.1	-63.0	3.8	1.49e+00	0	39	104	0	64	24249
2026-01-16 09:17:18.42	358.87	16.99	-46.1	-63.0	3.8	1.49e+00	0	39	104	0	64	24190
2026-01-16 09:17:19.42	358.76	16.88	-46.1	-63.0	3.8	1.49e+00	0	39	104	0	64	24215
2026-01-16 09:17:20.42	358.66	16.78	-46.1	-63.0	3.8	1.49e+00	0	39	104	0	64	24191
2026-01-16 09:17:21.42	358.56	16.68	-46.0	-62.9	3.8	1.49e+00	0	40	104	0	64	24069
2026-01-16 09:17:22.42	358.46	16.58	-46.1	-63.0	3.8	1.49e+00	0	39	104	0	64	24185
2026-01-16 09:17:23.42	358.36	16.48	-46.0	-62.9	3.8	1.49e+00	0	39	104	0	64	24123
2026-01-16 09:17:24.41	358.26	16.38	-46.1	-63.0	3.8	1.49e+00	0	39	104	0	64	24170
2026-01-16 09:17:25.41	358.16	16.28	-46.1	-63.0	3.8	1.49e+00	0	40	104	0	64	24189
2026-01-16 09:17:26.41	358.06	16.18	-46.1	-63.0	3.8	1.49e+00	0	39	104	0	64	24324
2026-01-16 09:17:27.41	357.97	16.08	-46.1	-63.0	3.8	1.49e+00	0	40	104	0	64	24155
2026-01-16 09:17:28.41	357.87	15.98	-46.1	-63.0	3.8	1.49e+00	0	39	104	0	64	24156
2026-01-16 09:17:29.41	357.77	15.88	-46.1	-63.0	3.8	1.49e+00	0	39	104	0	64	24159
2026-01-16 09:17:30.41	357.68	15.78	-46.1	-62.9	3.8	1.49e+00	0	39	104	0	64	24130
2026-01-16 09:17:31.41	357.58	15.68	-46.0	-63.0	3.8	1.49e+00	0	40	104	0	64	24215
2026-01-16 09:17:32.40	357.49	15.58	-46.1	-63.0	3.8	1.49e+00	0	39	104	0	64	24205
2026-01-16 09:17:33.39	357.40	15.49	-46.1	-62.9	3.8	1.49e+00	0	39	104	0	64	24080
2026-01-16 09:17:34.38	357.31	15.39	-46.1	-63.0	3.8	1.49e+00	0	39	104	0	64	24150
2026-01-16 09:17:35.38	357.22	15.29	-46.1	-63.0	3.8	1.49e+00	0	39	104	0	64	24231
2026-01-16 09:17:36.38	357.12	15.20	-46.1	-63.0	3.8	1.49e+00	0	39	104	0	64	24193
2026-01-16 09:17:37.37	357.03	15.10	-46.1	-63.0	3.8	1.49e+00	0	40	104	0	64	24171
2026-01-16 09:17:38.37	356.94	15.00	-46.6	-63.4	3.8	1.49e+00	0	40	104	0	64	25432
2026-01-16 09:17:39.37	356.85	14.91	-49.2	-64.7	3.8	1.49e+00	0	40	104	0	68	23322
2026-01-16 09:17:40.37	356.76	14.81	-49.7	-65.0	3.8	1.49e+00	0	40	104	0	69	23025
2026-01-16 09:17:41.36	356.68	14.72	-49.8	-65.2	3.8	1.49e+00	0	39	104	0	70	22037
2026-01-16 09:17:42.35	356.59	14.62	-49.8	-65.2	3.8	1.49e+00	0	39	104	0	70	22056
2026-01-16 09:17:43.35	356.50	14.53	-49.8	-65.1	3.8	1.49e+00	0	40	104	0	70	21978
2026-01-16 09:17:44.35	356.42	14.43	-49.9	-65.2	3.8	1.49e+00	0	39	104	0	70	22145
2026-01-16 09:17:45.35	356.33	14.34	-50.0	-65.3	3.8	1.49e+00	0	39	104	0	70	22433
2026-01-16 09:17:46.35	356.24	14.24	-50.1	-65.5	3.8	1.49e+00	0	39	104	0	70	22809
2026-01-16 09:17:47.35	356.16	14.15	-50.2	-65.5	3.8	1.49e+00	0	40	104	0	71	21639
2026-01-16 09:17:48.34	356.08	14.06	-50.3	-65.6	3.8	1.49e+00	0	40	104	0	71	21864
2026-01-16 09:17:49.34	355.99	13.97	-50.3	-65.6	3.8	1.49e+00	0	40	104	0	71	21946
2026-01-16 09:17:50.34	355.91	13.87	-50.4	-65.7	3.8	1.49e+00	0	40	104	0	71	22051
2026-01-16 09:17:51.34	355.83	13.78	-50.4	-65.7	3.8	1.49e+00	0	39	104	0	71	22175
2026-01-16 09:17:52.34	355.74	13.69	-50.5	-65.7	3.8	1.49e+00	0	40	104	0	71	22231
2026-01-16 09:17:53.34	355.66	13.60	-50.5	-65.7	3.8	1.49e+00	0	40	104	0	71	22148
2026-01-16 09:17:54.33	355.58	13.51	-50.5	-65.8	3.8	1.49e+00	0	40	104	0	71	22278
2026-01-16 09:17:55.32	355.50	13.41	-50.4	-65.8	3.8	1.49e+00	0	39	104	0	71	22296
2026-01-16 09:17:56.32	355.42	13.32	-50.5	-65.8	3.8	1.49e+00	0	40	104	0	71	22340
2026-01-16 09:17:57.32	355.34	13.23	-50.5	-65.8	3.8	1.49e+00	0	40	104	0	71	22342
2026-01-16 09:17:58.31	355.26	13.14	-50.4	-65.8	3.8	1.49e+00	0	40	104	0	71	22433
2026-01-16 09:17:59.31	355.19	13.05	-50.5	-65.8	3.8	1.49e+00	0	40	104	0	71	22314
2026-01-16 09:18:00.31	355.11	12.96	-50.5	-65.8	3.8	1.49e+00	0	40	104	0	71	22429
2026-01-16 09:18:01.30	355.03	12.87	-50.5	-65.8	3.8	1.49e+00	0	40	104	0	71	22374
2026-01-16 09:18:02.30	354.95	12.78	-50.5	-65.8	3.8	1.49e+00	0	40	104	0	71	22401
2026-01-16 09:18:03.30	354.88	12.70	-50.4	-65.8	3.8	1.49e+00	0	39	104	0	71	22277
2026-01-16 09:18:04.30	354.80	12.61	-50.3	-65.8	3.8	1.49e+00	0	39	104	0	71	22285
2026-01-16 09:18:05.30	354.72	12.52	-50.2	-65.7	3.8	1.49e+00	0	40	104	0	71	22170
2026-01-16 09:18:06.29	354.65	12.43	-50.2	-65.7	3.8	1.49e+00	0	40	104	0	71	22180
2026-01-16 09:18:07.29	354.58	12.34	-50.2	-65.7	3.8	1.49e+00	0	40	104	0	71	22195
2026-01-16 09:18:08.28	354.50	12.26	-50.3	-65.7	3.8	1.49e+00	0	40	104	0	71	22140
2026-01-16 09:18:09.28	354.43	12.17	-50.2	-65.7	3.8	1.49e+00	0	39	104	0	71	22136
2026-01-16 09:18:10.28	354.36	12.08	-50.2	-65.7	3.8	1.49e+00	0	40	104	0	71	22107
2026-01-16 09:18:11.28	354.28	11.99	-50.2	-65.7	3.8	1.49e+00	0	40	104	0	71	22070
2026-01-16 09:18:12.28	354.21	11.91	-50.3	-65.7	3.8	1.49e+00	0	40	104	0	71	22208
2026-01-16 09:18:13.28	354.14	11.82	-50.2	-65.7	3.8	1.49e+00	0	40	104	0	71	22252
2026-01-16 09:18:14.28	354.07	11.73	-50.2	-65.7	3.8	1.49e+00	0	40	104	0	71	22105
2026-01-16 09:18:15.27	354.00	11.65	-50.2	-65.7	3.8	1.49e+00	0	40	104	0	71	22158
2026-01-16 09:18:16.27	353.93	11.56	-50.2	-65.7	3.8	1.49e+00	0	40	104	0	71	22231
2026-01-16 09:18:17.27	353.85	11.48	-50.2	-65.7	3.8	1.49e+00	0	40	104	0	71	22038
2026-01-16 09:18:18.26	353.79	11.39	-50.2	-65.7	3.8	1.49e+00	0	40	104	0	71	22147
2026-01-16 09:18:19.26	353.72	11.31	-50.2	-65.7	3.8	1.49e+00	0	40	104	0	71	22129
2026-01-16 09:18:20.26	353.65	11.22	-50.2	-65.7	3.8	1.49e+00	0	40	104	0	71	22118
2026-01-16 09:18:21.25	353.58	11.14	-50.2	-65.7	3.8	1.49e+00	0	40	104	0	71	22159
2026-01-16 09:18:22.25	353.51	11.06	-50.2	-65.7	3.8	1.49e+00	0	40	104	0	71	22162
2026-01-16 09:18:23.25	353.44	10.97	-50.2	-65.7	3.8	1.49e+00	0	40	104	0	71	22185
2026-01-16 09:18:24.24	353.38	10.89	-50.2	-65.7	3.8	1.49e+00	0	40	104	0	71	22105
2026-01-16 09:18:25.24	353.31	10.81	-50.2	-65.7	3.8	1.49e+00	0	40	104	0	71	22139
2026-01-16 09:18:26.24	353.24	10.72	-50.2	-65.7	3.8	1.49e+00	0	40	104	0	71	22143
2026-01-16 09:18:27.24	353.18	10.64	-50.2	-65.7	3.8	1.49e+00	0	40	104	0	71	22208
2026-01-16 09:18:28.23	353.11	10.56	-50.2	-65.7	3.8	1.49e+00	0	40	104	0	71	22247
2026-01-16 09:18:29.23	353.05	10.48	-50.2	-65.7	3.8	1.49e+00	0	40	104	0	71	22116
2026-01-16 09:18:30.23	352.98	10.39	-50.2	-65.7	3.8	1.49e+00	0	40	104	0	71	22117
2026-01-16 09:18:31.23	352.92	10.31	-50.2	-65.7	3.8	1.49e+00	0	40	104	0	71	22109
2026-01-16 09:18:32.23	352.85	10.23	-50.2	-65.7	3.8	1.49e+00	0	40	104	0	71	22187
2026-01-16 09:18:33.23	352.79	10.15	-50.2	-65.7	3.8	1.49e+00	0	40	104	0	71	22100
2026-01-16 09:18:34.23	352.73	10.07	-50.2	-65.7	3.8	1.49e+00	0	40	104	0	71	22162
2026-01-16 09:18:35.23	352.66	9.99	-50.2	-65.7	3.8	1.49e+00	0	40	104	0	71	22099
2026-01-16 09:18:36.23	352.60	9.90	-50.2	-65.7	3.8	1.49e+00	0	40	104	0	71	22121
2026-01-16 09:18:37.23	352.54	9.82	-50.2	-65.7	3.8	1.49e+00	0	40	104	0	71	22197
2026-01-16 09:18:38.23	352.48	9.74	-50.2	-65.7	3.8	1.49e+00	0	40	104	0	71	22072
2026-01-16 09:18:39.23	352.41	9.66	-50.2	-65.7	3.8	1.49e+00	0	40	104	0	71	22024
2026-01-16 09:18:40.23	352.35	9.58	-50.2	-65.7	3.8	1.49e+00	0	40	104	0	71	22092
2026-01-16 09:18:41.22	352.29	9.50	-50.2	-65.7	3.8	1.49e+00	0	40	104	0	71	22059
2026-01-16 09:18:42.22	352.23	9.43	-50.2	-65.7	3.8	1.49e+00	0	40	104	0	71	22055
2026-01-16 09:18:43.22	352.17	9.35	-50.2	-65.7	3.8	1.49e+00	0	40	104	0	71	22097
2026-01-16 09:18:44.22	352.11	9.27	-50.2	-65.7	3.8	1.49e+00	0	40	104	0	71	22023
2026-01-16 09:18:45.21	352.05	9.19	-50.2	-65.7	3.8	1.49e+00	0	40	104	0	71	22122
2026-01-16 09:18:46.21	351.99	9.11	-50.2	-65.7	3.8	1.49e+00	0	40	104	0	71	22061
2026-01-16 09:18:47.21	351.94	9.03	-50.2	-65.7	3.8	1.49e+00	0	40	104	0	71	22181
2026-01-16 09:18:48.21	351.88	8.95	-50.2	-65.7	3.8	1.49e+00	0	40	104	0	71	22150
2026-01-16 09:18:49.21	351.82	8.88	-50.2	-65.7	3.8	1.49e+00	0	40	104	0	71	22119
2026-01-16 09:18:50.20	351.76	8.80	-50.2	-65.7	3.8	1.49e+00	0	40	104	0	71	22138
2026-01-16 09:18:51.20	351.70	8.72	-50.2	-65.7	3.8	1.49e+00	0	40	104	0	71	22067
2026-01-16 09:18:52.20	351.65	8.64	-50.2	-65.7	3.8	1.49e+00	0	40	104	0	71	22155
2026-01-16 09:18:53.20	351.59	8.57	-50.2	-65.7	3.8	1.49e+00	0	40	104	0	71	22091
2026-01-16 09:18:54.20	351.53	8.49	-50.2	-65.7	3.8	1.49e+00	0	40	104	0	71	22109
2026-01-16 09:18:55.20	351.48	8.41	-50.2	-65.7	3.8	1.49e+00	0	40	104	0	71	22033
2026-01-16 09:18:56.20	351.42	8.34	-50.2	-65.7	3.8	1.49e+00	0	40	104	0	71	22139
2026-01-16 09:18:57.20	351.37	8.26	-50.2	-65.7	3.8	1.49e+00	0	40	104	0	71	22159
2026-01-16 09:18:58.20	351.31	8.18	-50.2	-65.7	3.8	1.49e+00	0	40	104	0	71	22128
2026-01-16 09:18:59.19	351.26	8.11	-50.2	-65.7	3.8	1.49e+00	0	40	104	0	71	22140
2026-01-16 09:19:00.19	351.20	8.03	-50.2	-65.7	3.8	1.49e+00	0	40	104	0	71	22093
2026-01-16 09:19:01.19	351.15	7.96	-50.2	-65.7	3.8	1.49e+00	0	40	104	0	71	22136
2026-01-16 09:19:02.19	351.09	7.88	-50.2	-65.7	3.8	1.49e+00	0	40	104	0	71	22051
2026-01-16 09:19:03.18	351.04	7.81	-50.2	-65.7	3.8	1.49e+00	0	40	104	0	71	22139
2026-01-16 09:19:04.18	350.99	7.73	-50.2	-65.7	3.8	1.49e+00	0	40	104	0	71	22185
2026-01-16 09:19:05.17	350.93	7.66	-50.2	-65.7	3.8	1.49e+00	0	40	104	0	71	22154
2026-01-16 09:19:06.17	350.88	7.58	-50.2	-65.7	3.8	1.49e+00	0	40	104	0	71	22098
2026-01-16 09:19:07.17	350.83	7.51	-50.2	-65.7	3.8	1.49e+00	0	40	104	0	71	22127
2026-01-16 09:19:08.17	350.78	7.44	-50.2	-65.7	3.8	1.49e+00	0	40	104	0	71	22110
2026-01-16 09:19:09.16	350.72	7.36	-50.2	-65.7	3.8	1.49e+00	0	40	104	0	71	22085
2026-01-16 09:19:10.16	350.67	7.29	-50.2	-65.7	3.8	1.49e+00	0	40	104	0	71	22056
2026-01-16 09:19:11.16	350.62	7.21	-50.2	-65.7	3.8	1.49e+00	0	40	104	0	71	22148
2026-01-16 09:19:12.15	350.57	7.14	-50.2	-65.7	3.8	1.49e+00	0	40	104	0	71	22066
2026-01-16 09:19:13.15	350.52	7.07	-50.2	-65.7	3.8	1.49e+00	0	40	104	0	71	22108
2026-01-16 09:19:14.15	350.47	7.00	-50.2	-65.7	3.8	1.49e+00	0	40	104	0	71	22178
2026-01-16 09:19:15.15	350.42	6.92	-50.2	-65.7	3.8	1.49e+00	0	40	104	0	71	22135
2026-01-16 09:19:16.14	350.37	6.85	-50.2	-65.7	3.8	1.49e+00	0	40	104	0	71	22043
2026-01-16 09:19:17.14	350.32	6.78	-50.2	-65.7	3.8	1.49e+00	0	40	104	0	71	22114
2026-01-16 09:19:18.14	350.27	6.71	-50.2	-65.7	3.8	1.49e+00	0	40	104	0	71	22134
2026-01-16 09:19:19.14	350.22	6.63	-50.2	-65.7	3.8	1.49e+00	0	40	104	0	71	22147
2026-01-16 09:19:20.14	350.17	6.56	-50.2	-65.7	3.8	1.49e+00	0	40	104	0	71	22119
2026-01-16 09:19:21.13	350.12	6.49	-50.2	-65.7	3.8	1.49e+00	0	40	104	0	71	22114
2026-01-16 09:19:22.13	350.08	6.42	-50.2	-65.7	3.8	1.49e+00	0	40	104	0	71	22156
2026-01-16 09:19:23.13	350.03	6.35	-50.2	-65.7	3.8	1.49e+00	0	40	104	0	71	22119
2026-01-16 09:19:24.12	349.98	6.28	-50.2	-65.7	3.8	1.49e+00	0	40	104	0	71	22102
2026-01-16 09:19:25.12	349.93	6.21	-50.2	-65.7	3.8	1.49e+00	0	40	104	0	71	22127
2026-01-16 09:19:26.12	349.88	6.14	-50.2	-65.7	3.8	1.49e+00	0	40	104	0	71	22132
2026-01-16 09:19:27.12	349.84	6.07	-50.2	-65.7	3.8	1.49e+00	0	40	104	0	71	22165
2026-01-16 09:19:28.11	349.79	6.00	-50.2	-65.7	3.8	1.49e+00	0	40	104	0	71	22065
2026-01-16 09:19:29.11	349.74	5.93	-50.2	-65.7	3.8	1.49e+00	0	40	104	0	71	22155
2026-01-16 09:19:30.11	349.70	5.85	-50.2	-65.7	3.8	1.49e+00	0	40	104	0	71	22118
2026-01-16 09:19:31.10	349.65	5.79	-50.2	-65.7	3.8	1.49e+00	0	40	104	0	71	22199
2026-01-16 09:19:32.10	349.61	5.72	-50.2	-65.7	3.8	1.49e+00	0	40	104	0	71	22116
2026-01-16 09:19:33.10	349.56	5.65	-50.2	-65.7	3.8	1.49e+00	0	40	104	0	71	22097
2026-01-16 09:19:34.10	349.51	5.58	-50.2	-65.7	3.8	1.49e+00	0	40	104	0	71	22074
2026-01-16 09:19:35.10	349.47	5.51	-50.2	-65.7	3.8	1.49e+00	0	40	104	0	71	22147
2026-01-16 09:19:36.09	349.42	5.44	-50.2	-65.7	3.8	1.49e+00	0	40	104	0	71	22083
2026-01-16 09:19:37.09	349.38	5.37	-50.2	-65.7	3.8	1.49e+00	0	40	104	0	71	22074
2026-01-16 09:19:38.09	349.34	5.30	-50.2	-65.8	3.8	1.49e+00	0	40	104	0	71	22277
2026-01-16 09:19:39.09	349.29	5.23	-50.2	-65.7	3.8	1.49e+00	0	40	104	0	71	22138
2026-01-16 09:19:40.09	349.25	5.16	-50.2	-65.7	3.8	1.49e+00	0	40	104	0	71	22210
2026-01-16 09:19:41.08	349.20	5.10	-50.2	-65.7	3.8	1.49e+00	0	40	104	0	71	22113
2026-01-16 09:19:42.08	349.16	5.03	-50.2	-65.7	3.8	1.49e+00	0	40	104	0	71	22206
2026-01-16 09:19:43.08	349.12	4.96	-50.2	-65.7	3.8	1.49e+00	0	40	104	0	71	22118

#Closed at: 2026-01-16 09:19:44
#Recorded file [0 MB]: D:/Data/31040_260116_120726.dat