passes_logs/2026/01/16/T1/T1__20260116_221452_FENGYUN_3G_rec.log

#Pass ID: 20260116_221452_FENGYUN 3G
#Satellite: FENGYUN 3G
#Configuration: FENGYUN 3G
#almurnet v.1.7.20251203
#Start time: 2026-01-16 22:14:52

#Version: 2.0.20230620
#Station: T1
#Location: 37.570604 lon 55.790049 lat
#TLE: 1 56232U 23055A   26016.27117466  .00021245  00000+0  33355-3 0  9997
#TLE: 2 56232  49.9942  49.3739 0004180  33.4292 326.6938 15.53552571156398

#Time	Az	El	Level	Level2	SNR	BER	BlckErr	Temp	State	Recorded	gain1	gain2
2026-01-16 22:14:52.27	241.84	5.02	-50.0	-69.0	3.8	8.47e-01	0	36	0	0	72	30633
2026-01-16 22:14:53.26	241.76	5.09	-50.0	-69.0	3.8	8.38e-01	0	36	104	0	72	30503
2026-01-16 22:14:54.25	241.67	5.17	-50.0	-69.0	3.8	8.47e-01	0	36	104	0	72	30551
2026-01-16 22:14:55.25	241.58	5.24	-50.0	-69.0	3.8	8.47e-01	0	36	104	0	72	30517
2026-01-16 22:14:56.24	241.50	5.32	-50.0	-69.0	3.8	8.47e-01	0	36	104	0	72	30483
2026-01-16 22:14:57.23	241.41	5.40	-50.0	-69.0	3.8	8.47e-01	0	36	104	0	72	30393
2026-01-16 22:14:58.23	241.32	5.47	-50.0	-68.9	3.8	8.47e-01	0	36	104	0	72	30152
2026-01-16 22:14:59.22	241.23	5.55	-50.0	-68.8	3.8	8.47e-01	0	36	104	0	72	29987
2026-01-16 22:15:00.21	241.14	5.63	-50.0	-68.7	3.8	8.46e-01	0	36	104	0	72	29673
2026-01-16 22:15:01.20	241.05	5.70	-50.0	-68.7	3.8	8.46e-01	0	36	104	0	72	29446
2026-01-16 22:15:02.20	240.96	5.78	-50.0	-68.6	3.8	8.46e-01	0	36	104	0	72	29318
2026-01-16 22:15:03.19	240.87	5.86	-50.0	-68.7	3.7	8.47e-01	0	36	104	0	71	31114
2026-01-16 22:15:04.18	240.78	5.94	-50.0	-68.6	3.8	8.46e-01	0	37	104	0	71	30989
2026-01-16 22:15:05.17	240.69	6.02	-50.0	-68.6	3.8	8.46e-01	0	36	104	0	71	30950
2026-01-16 22:15:06.17	240.59	6.10	-50.0	-68.7	3.8	8.47e-01	0	37	104	0	71	31224
2026-01-16 22:15:07.16	240.50	6.17	-50.0	-68.7	3.8	8.47e-01	0	37	104	0	71	31285
2026-01-16 22:15:08.15	240.40	6.25	-50.0	-68.7	3.8	8.47e-01	0	37	104	0	71	31416
2026-01-16 22:15:09.15	240.31	6.33	-50.0	-68.8	3.8	8.48e-01	0	37	104	0	71	31500
2026-01-16 22:15:10.14	240.21	6.41	-50.0	-68.7	3.8	8.48e-01	0	37	104	0	71	31261
2026-01-16 22:15:11.13	240.11	6.49	-50.0	-68.5	3.8	8.48e-01	0	37	104	0	71	30701
2026-01-16 22:15:12.13	240.02	6.58	-50.0	-68.4	3.8	8.48e-01	0	37	104	0	71	30300
2026-01-16 22:15:13.12	239.92	6.66	-50.0	-68.6	3.8	8.47e-01	0	37	104	0	71	30861
2026-01-16 22:15:14.11	239.82	6.74	-50.0	-68.7	3.8	8.46e-01	0	37	104	0	71	31347
2026-01-16 22:15:15.10	239.72	6.82	-50.0	-68.9	3.8	8.46e-01	0	37	104	0	71	31841
2026-01-16 22:15:16.10	239.62	6.90	-50.0	-68.9	3.8	8.46e-01	0	37	104	0	71	32152
2026-01-16 22:15:17.09	239.51	6.98	-50.0	-68.9	3.8	8.47e-01	0	37	104	0	71	31881
2026-01-16 22:15:18.08	239.41	7.07	-50.0	-68.8	3.8	8.47e-01	0	37	104	0	71	31508
2026-01-16 22:15:19.08	239.31	7.15	-50.0	-68.7	3.8	8.46e-01	0	37	104	0	71	31299
2026-01-16 22:15:20.07	239.20	7.23	-50.0	-68.8	3.8	8.46e-01	0	37	104	0	71	31474
2026-01-16 22:15:21.06	239.10	7.32	-50.0	-68.8	3.8	8.46e-01	0	37	104	0	71	31768
2026-01-16 22:15:22.06	238.99	7.40	-50.0	-68.8	3.8	8.48e-01	0	37	104	0	71	31737
2026-01-16 22:15:23.05	238.88	7.49	-50.0	-68.5	3.8	8.47e-01	0	37	104	0	71	30621
2026-01-16 22:15:24.04	238.78	7.57	-50.0	-68.0	3.8	8.47e-01	0	37	104	0	71	28885
2026-01-16 22:15:25.04	238.67	7.66	-50.0	-67.2	3.8	8.47e-01	0	37	104	0	71	26411
2026-01-16 22:15:26.03	238.56	7.74	-50.0	-66.9	3.8	8.47e-01	0	37	104	0	71	25555
2026-01-16 22:15:27.02	238.45	7.83	-50.0	-67.1	3.8	8.47e-01	0	37	104	0	71	25937
2026-01-16 22:15:28.02	238.33	7.91	-50.0	-67.5	3.8	8.46e-01	0	37	104	0	71	27219
2026-01-16 22:15:29.01	238.22	8.00	-50.0	-68.2	3.8	8.46e-01	0	37	104	0	71	29369
2026-01-16 22:15:30.00	238.11	8.09	-50.0	-68.6	3.8	8.46e-01	0	37	104	0	71	31002
2026-01-16 22:15:31.00	237.99	8.18	-50.0	-68.1	3.8	8.47e-01	0	37	104	0	71	29184
2026-01-16 22:15:31.99	237.88	8.26	-50.0	-67.0	3.8	8.47e-01	0	37	104	0	71	25759
2026-01-16 22:15:32.98	237.76	8.35	-50.0	-66.2	3.9	8.46e-01	0	37	104	0	71	23337
2026-01-16 22:15:33.98	237.64	8.44	-50.0	-66.0	4.1	8.46e-01	0	37	0	0	71	22865
2026-01-16 22:15:34.97	237.53	8.53	-50.0	-65.5	4.2	8.41e-01	0	37	0	0	71	21663
2026-01-16 22:15:35.96	237.41	8.62	-49.8	-63.5	4.9	8.30e-01	0	37	0	0	71	17146
2026-01-16 22:15:36.96	237.29	8.71	-49.5	-60.0	7.6	8.30e-01	0	37	0	0	71	11525
2026-01-16 22:15:37.95	237.17	8.80	-49.0	-56.9	10.9	3.07e-01	0	37	0	0	70	8495
2026-01-16 22:15:38.94	237.04	8.89	-48.4	-54.8	13.1	4.69e-03	0	37	0	0	68	7526
2026-01-16 22:15:39.93	236.92	8.98	-47.7	-53.3	14.4	4.69e-03	0	38	0	0	67	6663
2026-01-16 22:15:40.93	236.79	9.07	-47.4	-52.5	15.3	9.10e-06	0	38	0	0	66	6490
2026-01-16 22:15:41.92	236.67	9.16	-47.6	-52.9	14.9	0.00e+00	0	38	0	0	66	6754
2026-01-16 22:15:42.92	236.54	9.26	-44.2	-47.2	20.4	0.00e+00	0	37	0	0	60	4972
2026-01-16 22:15:43.91	236.41	9.35	-49.4	-59.8	8.6	0.00e+00	0	38	0	0	69	12563
2026-01-16 22:15:44.91	236.28	9.44	-47.3	-52.3	15.6	3.78e-02	0	38	0	0	66	6293
2026-01-16 22:15:45.90	236.15	9.54	-43.7	-46.6	21.3	3.78e-02	0	38	0	0	59	4881
2026-01-16 22:15:46.89	236.02	9.63	-43.5	-46.2	21.6	0.00e+00	0	37	0	0	58	4956
2026-01-16 22:15:47.89	235.89	9.72	-43.3	-46.1	21.7	0.00e+00	0	37	0	0	58	4874
2026-01-16 22:15:48.89	235.76	9.82	-43.2	-45.8	22.1	0.00e+00	0	37	0	0	57	5025
2026-01-16 22:15:49.88	235.62	9.91	-42.8	-45.4	22.6	0.00e+00	0	38	0	0	57	4761
2026-01-16 22:15:50.88	235.48	10.01	-42.8	-45.4	22.4	0.00e+00	0	38	0	0	57	4781
2026-01-16 22:15:51.87	235.35	10.11	-41.8	-44.2	23.3	0.00e+00	0	38	0	0	55	4676
2026-01-16 22:15:52.87	235.21	10.20	-41.9	-44.3	23.2	0.00e+00	0	37	0	0	55	4725
2026-01-16 22:15:53.86	235.07	10.30	-41.9	-44.2	23.2	0.00e+00	0	38	0	0	55	4703
2026-01-16 22:15:54.92	234.92	10.40	-42.0	-44.4	23.1	0.00e+00	0	38	0	0	55	4788
2026-01-16 22:15:55.85	234.78	10.49	-41.9	-44.3	23.2	0.00e+00	0	38	0	0	55	4738
2026-01-16 22:15:56.97	234.62	10.61	-42.0	-44.4	23.1	0.00e+00	0	37	0	0	55	4801
2026-01-16 22:15:57.86	234.49	10.69	-42.0	-44.4	23.1	0.00e+00	0	38	0	0	55	4800
2026-01-16 22:15:58.99	234.32	10.81	-41.5	-43.8	23.6	0.00e+00	0	38	0	0	55	4473
2026-01-16 22:15:59.85	234.20	10.89	-41.3	-43.6	23.9	0.00e+00	0	38	0	0	54	4626
2026-01-16 22:16:00.98	234.03	11.01	-41.2	-43.5	24.0	0.00e+00	0	37	0	0	54	4577
2026-01-16 22:16:01.84	233.90	11.09	-40.8	-43.1	24.3	0.00e+00	0	38	0	0	53	4600
2026-01-16 22:16:02.97	233.72	11.21	-40.6	-42.8	24.6	0.00e+00	0	38	0	0	53	4448
2026-01-16 22:16:03.83	233.59	11.30	-40.5	-42.7	24.6	0.00e+00	0	38	0	0	53	4415
2026-01-16 22:16:04.96	233.41	11.41	-40.5	-42.7	24.6	0.00e+00	0	38	0	0	53	4432
2026-01-16 22:16:05.81	233.28	11.50	-40.4	-42.6	24.8	0.00e+00	0	38	0	0	52	4599
2026-01-16 22:16:06.97	233.10	11.62	-40.5	-42.7	24.7	0.00e+00	0	38	0	0	52	4663
2026-01-16 22:16:07.82	232.96	11.71	-40.4	-42.6	24.7	0.00e+00	0	38	0	0	52	4642
2026-01-16 22:16:08.96	232.78	11.83	-40.4	-42.5	24.8	0.00e+00	0	38	0	0	52	4581
2026-01-16 22:16:09.81	232.64	11.92	-40.5	-42.7	24.7	0.00e+00	0	38	0	0	52	4679
2026-01-16 22:16:10.95	232.45	12.04	-40.5	-42.7	24.7	0.00e+00	0	38	0	0	52	4664
2026-01-16 22:16:11.80	232.31	12.13	-40.5	-42.7	24.6	0.00e+00	0	38	0	0	52	4703
2026-01-16 22:16:12.94	232.12	12.25	-40.5	-42.6	24.7	0.00e+00	0	38	0	0	52	4643
2026-01-16 22:16:13.79	231.97	12.34	-40.5	-42.7	24.7	0.00e+00	0	38	0	0	52	4655
2026-01-16 22:16:14.92	231.78	12.46	-40.6	-42.8	24.5	0.00e+00	0	38	0	0	52	4753
2026-01-16 22:16:15.77	231.63	12.55	-40.4	-42.6	24.8	0.00e+00	0	38	0	0	52	4619
2026-01-16 22:16:16.91	231.43	12.68	-40.5	-42.6	24.8	0.00e+00	0	38	0	0	52	4636
2026-01-16 22:16:17.76	231.28	12.77	-40.4	-42.6	24.8	0.00e+00	0	38	0	0	52	4614
2026-01-16 22:16:18.90	231.08	12.89	-40.2	-42.3	25.0	0.00e+00	0	38	0	0	52	4462
2026-01-16 22:16:19.75	230.93	12.99	-40.0	-42.1	25.2	0.00e+00	0	38	0	0	52	4374
2026-01-16 22:16:20.89	230.72	13.11	-40.1	-42.3	25.1	0.00e+00	0	38	0	0	52	4455
2026-01-16 22:16:21.74	230.56	13.21	-40.1	-42.2	25.1	0.00e+00	0	38	0	0	52	4413
2026-01-16 22:16:22.88	230.35	13.34	-40.2	-42.3	24.9	0.00e+00	0	38	0	0	52	4480
2026-01-16 22:16:23.73	230.19	13.43	-40.1	-42.2	24.9	0.00e+00	0	38	0	0	52	4437
2026-01-16 22:16:24.87	229.98	13.56	-40.2	-42.3	24.8	0.00e+00	0	38	0	0	52	4467
2026-01-16 22:16:25.80	229.80	13.66	-40.2	-42.3	25.1	0.00e+00	0	38	0	0	51	4721
2026-01-16 22:16:26.99	229.57	13.80	-40.1	-42.2	25.2	0.00e+00	0	38	0	0	51	4670
2026-01-16 22:16:27.84	229.40	13.90	-39.9	-42.0	25.3	0.00e+00	0	38	0	0	51	4591
2026-01-16 22:16:28.98	229.18	14.03	-39.8	-41.9	25.5	0.00e+00	0	38	0	0	51	4527
2026-01-16 22:16:29.83	229.01	14.13	-39.9	-42.0	25.4	0.00e+00	0	38	0	0	51	4546
2026-01-16 22:16:30.96	228.78	14.26	-39.7	-41.8	25.5	0.00e+00	0	38	0	0	51	4471
2026-01-16 22:16:31.82	228.61	14.36	-39.8	-41.9	25.5	0.00e+00	0	38	0	0	51	4500
2026-01-16 22:16:32.95	228.38	14.49	-39.5	-41.6	25.7	0.00e+00	0	38	0	0	51	4371
2026-01-16 22:16:33.81	228.20	14.59	-39.6	-41.6	25.7	0.00e+00	0	38	0	0	51	4381
2026-01-16 22:16:34.94	227.96	14.72	-39.5	-41.6	25.8	0.00e+00	0	38	0	0	50	4618
2026-01-16 22:16:35.79	227.78	14.82	-39.5	-41.6	25.8	0.00e+00	0	38	0	0	50	4599
2026-01-16 22:16:36.95	227.54	14.96	-39.7	-41.7	25.6	0.00e+00	0	38	0	0	50	4681
2026-01-16 22:16:37.80	227.35	15.06	-39.6	-41.7	25.6	0.00e+00	0	38	0	0	50	4670
2026-01-16 22:16:39.00	227.09	15.21	-39.7	-41.8	25.6	0.00e+00	0	38	0	0	50	4715
2026-01-16 22:16:39.85	226.90	15.31	-39.7	-41.8	25.6	0.00e+00	0	38	0	0	50	4706
2026-01-16 22:16:41.07	226.63	15.45	-39.6	-41.6	25.7	0.00e+00	0	38	0	0	50	4636
2026-01-16 22:16:41.92	226.44	15.56	-39.3	-41.4	25.9	0.00e+00	0	38	0	0	50	4499
2026-01-16 22:16:43.06	226.18	15.70	-39.4	-41.5	25.8	0.00e+00	0	38	0	0	50	4546
2026-01-16 22:16:43.91	225.99	15.80	-39.1	-41.1	26.1	0.00e+00	0	38	0	0	50	4360
2026-01-16 22:16:45.05	225.72	15.94	-38.8	-40.8	26.3	0.00e+00	0	38	0	0	49	4453
2026-01-16 22:16:45.90	225.52	16.05	-38.8	-40.8	26.4	0.00e+00	0	38	0	0	49	4464
2026-01-16 22:16:47.04	225.25	16.19	-38.8	-40.8	26.3	0.00e+00	0	38	0	0	49	4458
2026-01-16 22:16:47.89	225.05	16.29	-38.8	-40.8	26.3	0.00e+00	0	38	0	0	49	4471
2026-01-16 22:16:49.03	224.77	16.44	-39.1	-41.1	26.1	0.00e+00	0	38	0	0	49	4632
2026-01-16 22:16:49.88	224.57	16.54	-39.2	-41.2	26.1	0.00e+00	0	38	0	0	49	4663
2026-01-16 22:16:51.01	224.29	16.68	-39.3	-41.3	25.9	0.00e+00	0	38	0	0	49	4757
2026-01-16 22:16:51.87	224.07	16.79	-39.2	-41.3	26.0	0.00e+00	0	38	0	0	49	4711
2026-01-16 22:16:53.01	223.79	16.94	-39.2	-41.3	26.0	0.00e+00	0	38	0	0	49	4711
2026-01-16 22:16:53.86	223.57	17.05	-38.9	-40.9	26.2	0.00e+00	0	38	0	0	49	4540
2026-01-16 22:16:55.00	223.28	17.19	-38.8	-40.8	26.3	0.00e+00	0	38	0	0	49	4480
2026-01-16 22:16:55.85	223.05	17.30	-38.6	-40.6	26.5	0.00e+00	0	38	0	0	49	4360
2026-01-16 22:16:57.13	222.72	17.46	-38.5	-40.4	26.6	0.00e+00	0	38	0	0	48	4535
2026-01-16 22:16:57.84	222.53	17.56	-38.6	-40.5	26.5	0.00e+00	0	38	0	0	48	4586
2026-01-16 22:16:59.12	222.18	17.72	-38.6	-40.6	26.2	0.00e+00	0	38	0	0	48	4603
2026-01-16 22:16:59.84	221.99	17.81	-38.7	-40.6	26.3	0.00e+00	0	38	0	0	48	4645
2026-01-16 22:17:01.12	221.64	17.98	-38.7	-40.7	26.4	0.00e+00	0	38	0	0	48	4684
2026-01-16 22:17:01.83	221.44	18.07	-38.8	-40.8	26.3	0.00e+00	0	38	0	0	48	4725
2026-01-16 22:17:03.11	221.08	18.24	-38.8	-40.8	26.4	0.00e+00	0	38	0	0	48	4740
2026-01-16 22:17:03.82	220.88	18.34	-38.8	-40.8	26.4	0.00e+00	0	38	0	0	48	4735
2026-01-16 22:17:05.09	220.52	18.50	-38.4	-40.4	26.7	0.00e+00	0	38	0	0	48	4515
2026-01-16 22:17:05.81	220.31	18.60	-38.6	-40.6	26.5	0.00e+00	0	38	0	0	48	4613
2026-01-16 22:17:07.08	219.94	18.77	-38.3	-40.2	26.8	0.00e+00	0	38	0	0	48	4433
2026-01-16 22:17:07.81	219.72	18.86	-38.2	-40.2	26.8	0.00e+00	0	38	0	0	48	4398
2026-01-16 22:17:09.14	219.32	19.04	-38.2	-40.1	26.9	0.00e+00	0	38	0	0	48	4362
2026-01-16 22:17:09.85	219.11	19.13	-38.2	-40.1	26.8	0.00e+00	0	38	0	0	48	4387
2026-01-16 22:17:11.21	218.69	19.32	-38.3	-40.3	26.7	0.00e+00	0	38	0	0	48	4476
2026-01-16 22:17:11.92	218.47	19.41	-38.5	-40.4	26.7	0.00e+00	0	38	0	0	48	4531
2026-01-16 22:17:13.26	218.05	19.59	-38.6	-40.6	26.5	0.00e+00	0	38	0	0	48	4606
2026-01-16 22:17:13.97	217.83	19.69	-38.4	-40.4	26.7	0.00e+00	0	38	0	0	48	4524
2026-01-16 22:17:15.25	217.42	19.86	-38.4	-40.4	26.7	0.00e+00	0	38	0	0	48	4521
2026-01-16 22:17:15.96	217.19	19.96	-38.4	-40.4	26.7	0.00e+00	0	38	0	0	48	4527
2026-01-16 22:17:17.23	216.78	20.13	-38.4	-40.4	26.7	0.00e+00	0	38	0	0	48	4498
2026-01-16 22:17:17.95	216.54	20.22	-38.2	-40.1	26.9	0.00e+00	0	38	0	0	48	4377
2026-01-16 22:17:19.23	216.11	20.40	-37.9	-39.9	27.0	0.00e+00	0	38	0	0	47	4504
2026-01-16 22:17:19.98	215.86	20.50	-37.7	-39.6	27.2	0.00e+00	0	38	0	0	47	4388
2026-01-16 22:17:21.26	215.42	20.67	-37.7	-39.7	27.2	0.00e+00	0	38	0	0	47	4411
2026-01-16 22:17:21.97	215.18	20.77	-37.5	-39.4	27.1	0.00e+00	0	38	0	0	46	4527
2026-01-16 22:17:23.25	214.73	20.94	-37.6	-39.5	27.2	0.00e+00	0	38	0	0	46	4561
2026-01-16 22:17:23.96	214.48	21.04	-37.8	-39.8	27.1	0.00e+00	0	38	0	0	46	4714
2026-01-16 22:17:25.24	214.03	21.21	-38.2	-40.2	26.8	0.00e+00	0	38	0	0	47	4663
2026-01-16 22:17:25.97	213.77	21.31	-38.4	-40.3	26.7	0.00e+00	0	38	0	0	47	4748
2026-01-16 22:17:27.25	213.30	21.49	-38.3	-40.3	26.7	0.00e+00	0	38	0	0	47	4722
2026-01-16 22:17:27.96	213.04	21.58	-38.3	-40.3	26.7	0.00e+00	0	38	0	0	47	4708
2026-01-16 22:17:29.25	212.57	21.76	-37.8	-39.7	27.1	0.00e+00	0	38	0	0	47	4423
2026-01-16 22:17:29.97	212.30	21.86	-37.7	-39.6	27.2	0.00e+00	0	38	0	0	47	4384
2026-01-16 22:17:31.24	211.82	22.03	-37.7	-39.6	27.2	0.00e+00	0	38	0	0	47	4390
2026-01-16 22:17:31.97	211.54	22.13	-37.6	-39.5	27.3	0.00e+00	0	38	0	0	47	4328
2026-01-16 22:17:33.25	211.04	22.30	-37.5	-39.4	27.3	0.00e+00	0	38	0	0	47	4263
2026-01-16 22:17:33.96	210.76	22.40	-37.4	-39.3	27.5	0.00e+00	0	38	0	0	46	4447
2026-01-16 22:17:35.24	210.26	22.57	-37.2	-39.1	27.6	0.00e+00	0	38	0	0	46	4371
2026-01-16 22:17:35.96	209.97	22.66	-37.3	-39.2	27.5	0.00e+00	0	38	0	0	46	4425
2026-01-16 22:17:37.24	209.46	22.84	-37.4	-39.3	27.5	0.00e+00	0	38	0	0	46	4450
2026-01-16 22:17:37.99	209.15	22.94	-37.5	-39.4	27.4	0.00e+00	0	38	0	0	46	4534
2026-01-16 22:17:39.27	208.63	23.11	-37.4	-39.3	27.5	0.00e+00	0	38	0	0	46	4446
2026-01-16 22:17:39.98	208.33	23.20	-37.6	-39.5	27.2	0.00e+00	0	38	0	0	46	4579
2026-01-16 22:17:41.26	207.80	23.37	-37.4	-39.3	27.4	0.00e+00	0	38	0	0	46	4490
2026-01-16 22:17:42.00	207.49	23.47	-37.3	-39.2	27.5	0.00e+00	0	38	0	0	46	4430
2026-01-16 22:17:43.28	206.94	23.63	-37.4	-39.3	27.4	0.00e+00	0	38	0	0	46	4486
2026-01-16 22:17:44.01	206.62	23.73	-37.4	-39.3	27.4	0.00e+00	0	38	0	0	46	4457
2026-01-16 22:17:45.29	206.07	23.89	-37.4	-39.3	27.5	0.00e+00	0	38	0	0	46	4451
2026-01-16 22:17:46.19	205.67	24.01	-37.6	-39.5	27.3	0.00e+00	0	38	0	0	46	4573
2026-01-16 22:17:47.31	205.17	24.15	-37.4	-39.3	27.5	0.00e+00	0	38	0	0	46	4460
2026-01-16 22:17:48.16	204.79	24.26	-37.2	-39.1	27.6	0.00e+00	0	38	0	0	46	4375
2026-01-16 22:17:49.30	204.27	24.41	-37.2	-39.1	27.6	0.00e+00	0	38	0	0	46	4351
2026-01-16 22:17:50.15	203.89	24.51	-37.1	-39.0	27.7	0.00e+00	0	38	0	0	46	4324
2026-01-16 22:17:51.29	203.36	24.65	-37.1	-39.0	27.7	0.00e+00	0	38	0	0	46	4319
2026-01-16 22:17:52.14	202.96	24.76	-37.2	-39.1	27.6	0.00e+00	0	38	0	0	46	4381
2026-01-16 22:17:53.28	202.43	24.90	-37.3	-39.2	27.5	0.00e+00	0	38	0	0	46	4409
2026-01-16 22:17:54.13	202.03	25.00	-37.5	-39.4	27.4	0.00e+00	0	38	0	0	46	4519
2026-01-16 22:17:55.27	201.48	25.14	-37.4	-39.3	27.4	0.00e+00	0	38	0	0	46	4473
2026-01-16 22:17:56.12	201.07	25.24	-37.1	-39.0	27.6	0.00e+00	0	38	0	0	46	4302
2026-01-16 22:17:57.26	200.52	25.37	-37.2	-39.1	27.6	0.00e+00	0	38	0	0	46	4358
2026-01-16 22:17:58.11	200.10	25.47	-37.0	-38.9	27.7	0.00e+00	0	38	0	0	46	4276
2026-01-16 22:17:59.25	199.54	25.60	-37.0	-38.9	27.8	0.00e+00	0	38	0	0	45	4496
2026-01-16 22:18:00.10	199.11	25.70	-37.0	-38.9	27.7	0.00e+00	0	38	0	0	45	4513
2026-01-16 22:18:01.24	198.54	25.83	-37.0	-38.9	27.8	0.00e+00	0	38	0	0	45	4498
2026-01-16 22:18:02.17	198.07	25.93	-37.0	-38.9	27.8	0.00e+00	0	38	0	0	45	4499
2026-01-16 22:18:03.37	197.45	26.06	-36.9	-38.8	27.8	0.00e+00	0	38	0	0	45	4455
2026-01-16 22:18:04.22	197.01	26.15	-36.8	-38.6	27.9	0.00e+00	0	38	0	0	45	4389
2026-01-16 22:18:05.36	196.42	26.27	-36.9	-38.8	27.8	0.00e+00	0	38	0	0	45	4455
2026-01-16 22:18:06.21	195.98	26.36	-36.8	-38.7	27.8	0.00e+00	0	38	0	0	45	4428
2026-01-16 22:18:07.35	195.38	26.47	-37.1	-39.0	27.8	0.00e+00	0	38	0	0	45	4555
2026-01-16 22:18:08.20	194.93	26.56	-37.0	-38.9	27.6	0.00e+00	0	38	0	0	45	4540
2026-01-16 22:18:09.34	194.32	26.67	-36.6	-38.5	28.0	0.00e+00	0	38	0	0	45	4315
2026-01-16 22:18:10.20	193.85	26.75	-36.6	-38.4	28.1	0.00e+00	0	38	0	0	45	4287
2026-01-16 22:18:11.33	193.24	26.86	-36.3	-38.2	28.3	0.00e+00	0	38	0	0	44	4400
2026-01-16 22:18:12.19	192.77	26.94	-36.3	-38.2	28.2	0.00e+00	0	38	0	0	44	4411
2026-01-16 22:18:13.32	192.15	27.04	-36.5	-38.3	28.2	0.00e+00	0	38	0	0	44	4491
2026-01-16 22:18:14.18	191.67	27.11	-36.7	-38.5	28.0	0.00e+00	0	38	0	0	44	4595
2026-01-16 22:18:15.31	191.05	27.21	-36.6	-38.5	28.0	0.00e+00	0	38	0	0	44	4551
2026-01-16 22:18:16.17	190.56	27.28	-36.5	-38.3	28.1	0.00e+00	0	38	0	0	44	4486
2026-01-16 22:18:17.30	189.93	27.37	-36.2	-38.0	28.3	0.00e+00	0	38	0	0	44	4340
2026-01-16 22:18:18.16	189.44	27.44	-36.1	-38.0	28.3	0.00e+00	0	38	0	0	44	4306
2026-01-16 22:18:19.29	188.80	27.52	-36.3	-38.1	27.7	0.00e+00	0	38	0	0	44	4378
2026-01-16 22:18:20.15	188.31	27.59	-36.2	-38.1	28.2	0.00e+00	0	38	0	0	44	4355
2026-01-16 22:18:21.28	187.66	27.67	-36.1	-37.9	28.4	0.00e+00	0	38	0	0	44	4274
2026-01-16 22:18:22.14	187.16	27.72	-36.1	-37.9	28.4	0.00e+00	0	38	0	0	44	4287
2026-01-16 22:18:23.27	186.51	27.80	-35.9	-37.8	28.4	0.00e+00	0	38	0	0	43	4457
2026-01-16 22:18:24.12	186.01	27.85	-36.0	-37.8	28.4	0.00e+00	0	38	0	0	43	4468
2026-01-16 22:18:25.26	185.34	27.92	-36.3	-38.1	28.2	0.00e+00	0	38	0	0	43	4641
2026-01-16 22:18:26.11	184.84	27.97	-36.4	-38.3	28.1	0.00e+00	0	38	0	0	43	4737
2026-01-16 22:18:27.25	184.17	28.03	-36.7	-38.6	27.9	0.00e+00	0	38	0	0	43	4886
2026-01-16 22:18:28.10	183.67	28.07	-36.7	-38.6	28.0	0.00e+00	0	38	0	0	44	4607
2026-01-16 22:18:29.30	182.95	28.13	-36.8	-38.6	27.9	0.00e+00	0	38	0	0	44	4645
2026-01-16 22:18:30.15	182.45	28.17	-36.7	-38.6	28.0	0.00e+00	0	38	0	0	44	4608
2026-01-16 22:18:31.29	181.77	28.21	-36.8	-38.7	27.9	0.00e+00	0	38	0	0	44	4662
2026-01-16 22:18:32.14	181.26	28.25	-36.9	-38.8	27.8	0.00e+00	0	38	0	0	44	4729
2026-01-16 22:18:33.28	180.57	28.29	-37.1	-38.9	27.7	0.00e+00	0	38	0	0	44	4809
2026-01-16 22:18:34.13	180.06	28.32	-37.0	-38.9	27.8	0.00e+00	0	38	0	0	44	4779
2026-01-16 22:18:35.27	179.37	28.35	-36.8	-38.7	27.8	0.00e+00	0	38	0	0	44	4691
2026-01-16 22:18:36.12	178.85	28.37	-36.9	-38.8	27.8	0.00e+00	0	38	0	0	44	4730
2026-01-16 22:18:37.46	178.04	28.40	-36.8	-38.7	27.9	0.00e+00	0	38	0	0	44	4652
2026-01-16 22:18:38.17	177.61	28.42	-36.7	-38.6	27.9	0.00e+00	0	38	0	0	44	4624
2026-01-16 22:18:39.63	176.72	28.44	-37.0	-38.9	27.7	0.00e+00	0	38	0	0	44	4763
2026-01-16 22:18:40.33	176.30	28.45	-36.9	-38.8	27.8	0.00e+00	0	38	0	0	44	4731
2026-01-16 22:18:41.74	175.44	28.46	-36.9	-38.8	27.8	0.00e+00	0	38	0	0	44	4735
2026-01-16 22:18:42.45	175.00	28.47	-36.8	-38.7	27.8	0.00e+00	0	38	0	0	44	4684
2026-01-16 22:18:43.73	174.22	28.47	-36.7	-38.6	28.0	0.00e+00	0	38	0	0	44	4622
2026-01-16 22:18:44.46	173.78	28.47	-36.8	-38.6	27.9	0.00e+00	0	38	0	0	44	4639
2026-01-16 22:18:45.74	173.00	28.47	-36.7	-38.6	28.0	0.00e+00	0	38	0	0	44	4616
2026-01-16 22:18:46.46	172.56	28.46	-36.7	-38.5	28.0	0.00e+00	0	38	0	0	44	4594
2026-01-16 22:18:47.74	171.78	28.45	-36.7	-38.5	28.0	0.00e+00	0	38	0	0	44	4585
2026-01-16 22:18:48.47	171.33	28.44	-36.7	-38.5	27.9	0.00e+00	0	38	0	0	44	4585
2026-01-16 22:18:49.75	170.56	28.42	-36.6	-38.4	28.0	0.00e+00	0	38	0	0	44	4527
2026-01-16 22:18:50.48	170.11	28.40	-36.6	-38.5	28.0	0.00e+00	0	38	0	0	44	4574
2026-01-16 22:18:51.76	169.34	28.37	-36.8	-38.6	27.9	0.00e+00	0	38	0	0	44	4638
2026-01-16 22:18:52.56	168.85	28.35	-36.6	-38.5	28.0	0.00e+00	0	38	0	0	44	4558
2026-01-16 22:18:53.70	168.16	28.32	-36.6	-38.4	27.9	0.00e+00	0	38	0	0	44	4542
2026-01-16 22:18:54.79	167.51	28.28	-36.7	-38.6	27.9	0.00e+00	0	38	0	0	44	4628
2026-01-16 22:18:55.82	166.89	28.25	-36.7	-38.6	27.9	0.00e+00	0	38	0	0	44	4606
2026-01-16 22:18:56.81	166.29	28.21	-36.8	-38.7	27.9	0.00e+00	0	38	0	0	44	4668
2026-01-16 22:18:57.80	165.70	28.17	-36.5	-38.3	28.1	0.00e+00	0	38	0	0	44	4484
2026-01-16 22:18:58.80	165.11	28.12	-36.2	-38.1	28.2	0.00e+00	0	38	0	0	44	4342
2026-01-16 22:18:59.79	164.52	28.07	-36.3	-38.2	28.2	0.00e+00	0	38	0	0	44	4394
2026-01-16 22:19:00.78	163.93	28.02	-36.6	-38.5	28.0	0.00e+00	0	38	0	0	44	4583
2026-01-16 22:19:01.78	163.34	27.97	-36.7	-38.6	27.9	0.00e+00	0	38	0	0	44	4626
2026-01-16 22:19:02.77	162.76	27.91	-36.6	-38.5	28.0	0.00e+00	0	38	0	0	44	4564
2026-01-16 22:19:03.77	162.18	27.85	-36.7	-38.6	27.9	0.00e+00	0	38	0	0	44	4605
2026-01-16 22:19:04.76	161.60	27.79	-36.2	-38.0	28.3	0.00e+00	0	38	0	0	44	4340
2026-01-16 22:19:05.75	161.03	27.73	-36.0	-37.8	28.4	0.00e+00	0	38	0	0	44	4236
2026-01-16 22:19:06.75	160.45	27.66	-35.9	-37.7	28.4	0.00e+00	0	38	0	0	43	4422
2026-01-16 22:19:07.78	159.86	27.59	-36.2	-38.0	28.2	0.00e+00	0	38	0	0	43	4586
2026-01-16 22:19:08.82	159.26	27.51	-36.3	-38.2	28.1	0.00e+00	0	38	0	0	43	4656
2026-01-16 22:19:09.83	158.69	27.44	-36.3	-38.1	28.1	0.00e+00	0	38	0	0	43	4650
2026-01-16 22:19:10.84	158.12	27.36	-36.1	-38.0	28.2	0.00e+00	0	38	0	0	43	4557
2026-01-16 22:19:11.87	157.54	27.27	-36.0	-37.9	28.3	0.00e+00	0	38	0	0	43	4502
2026-01-16 22:19:12.88	156.98	27.19	-36.1	-37.9	28.2	0.00e+00	0	38	0	0	43	4543
2026-01-16 22:19:13.88	156.42	27.10	-36.2	-38.1	28.2	0.00e+00	0	38	0	0	43	4603
2026-01-16 22:19:14.93	155.84	27.01	-36.2	-38.0	28.1	0.00e+00	0	38	0	0	43	4595
2026-01-16 22:19:15.82	155.36	26.93	-36.3	-38.2	28.1	0.00e+00	0	38	0	0	43	4676
2026-01-16 22:19:16.95	154.74	26.83	-36.0	-37.9	28.2	0.00e+00	0	38	0	0	43	4500
2026-01-16 22:19:17.81	154.27	26.75	-35.7	-37.5	28.4	0.00e+00	0	38	0	0	43	4332
2026-01-16 22:19:18.94	153.67	26.64	-35.6	-37.4	28.5	0.00e+00	0	38	0	0	43	4270
2026-01-16 22:19:19.80	153.21	26.55	-35.7	-37.6	28.5	0.00e+00	0	38	0	0	43	4363
2026-01-16 22:19:20.93	152.61	26.44	-36.4	-38.3	28.0	0.00e+00	0	38	0	0	43	4726
2026-01-16 22:19:21.79	152.16	26.35	-37.1	-39.0	27.6	0.00e+00	0	38	0	0	44	4844
2026-01-16 22:19:22.93	151.56	26.24	-37.4	-39.3	27.4	0.00e+00	0	38	0	0	45	4757
2026-01-16 22:19:23.78	151.12	26.15	-37.3	-39.2	27.4	0.00e+00	0	38	0	0	45	4691
2026-01-16 22:19:24.91	150.54	26.03	-37.0	-38.9	27.6	0.00e+00	0	38	0	0	45	4541
2026-01-16 22:19:25.77	150.10	25.93	-36.8	-38.7	27.8	0.00e+00	0	38	0	0	45	4426
2026-01-16 22:19:26.91	149.53	25.81	-36.7	-38.6	27.8	0.00e+00	0	38	0	0	45	4391
2026-01-16 22:19:27.76	149.10	25.71	-36.9	-38.8	27.8	0.00e+00	0	38	0	0	45	4460
2026-01-16 22:19:28.99	148.49	25.57	-37.1	-39.0	27.7	0.00e+00	0	38	0	0	45	4562
2026-01-16 22:19:29.84	148.07	25.47	-37.1	-39.0	27.5	0.00e+00	0	38	0	0	45	4595
2026-01-16 22:19:31.06	147.47	25.33	-37.3	-39.3	27.4	0.00e+00	0	38	0	0	45	4727
2026-01-16 22:19:31.91	147.06	25.23	-37.2	-39.1	27.5	0.00e+00	0	38	0	0	45	4638
2026-01-16 22:19:33.11	146.48	25.09	-37.3	-39.2	27.5	0.00e+00	0	38	0	0	45	4689
2026-01-16 22:19:33.96	146.08	24.99	-37.3	-39.2	27.5	0.00e+00	0	38	0	0	45	4674
2026-01-16 22:19:35.10	145.54	24.85	-37.2	-39.2	27.5	0.00e+00	0	38	0	0	45	4657
2026-01-16 22:19:35.95	145.14	24.75	-37.2	-39.2	27.5	0.00e+00	0	38	0	0	45	4660
2026-01-16 22:19:37.09	144.61	24.60	-37.4	-39.4	27.3	0.00e+00	0	38	0	0	45	4783
2026-01-16 22:19:37.94	144.22	24.50	-37.2	-39.1	27.5	0.00e+00	0	38	0	0	45	4644
2026-01-16 22:19:39.08	143.70	24.36	-37.3	-39.3	27.4	0.00e+00	0	38	0	0	45	4718
2026-01-16 22:19:40.03	143.28	24.24	-37.4	-39.3	27.3	0.00e+00	0	38	0	0	45	4752
2026-01-16 22:19:41.02	142.83	24.11	-37.3	-39.2	27.5	0.00e+00	0	38	0	0	45	4679
2026-01-16 22:19:42.02	142.39	23.98	-37.3	-39.3	27.4	0.00e+00	0	38	0	0	45	4714
2026-01-16 22:19:43.01	141.96	23.85	-37.0	-38.9	27.7	0.00e+00	0	38	0	0	45	4504
2026-01-16 22:19:44.01	141.52	23.73	-36.8	-38.7	27.8	0.00e+00	0	38	0	0	45	4398
2026-01-16 22:19:45.00	141.10	23.60	-36.7	-38.6	27.8	0.00e+00	0	38	0	0	45	4380
2026-01-16 22:19:46.00	140.67	23.47	-36.8	-38.7	27.8	0.00e+00	0	38	0	0	45	4407
2026-01-16 22:19:46.99	140.26	23.34	-37.1	-39.0	27.5	0.00e+00	0	38	0	0	45	4598
2026-01-16 22:19:47.98	139.84	23.21	-37.6	-39.5	27.2	0.00e+00	0	39	0	0	45	4864
2026-01-16 22:19:48.98	139.43	23.07	-37.7	-39.7	27.1	0.00e+00	0	38	0	0	46	4664
2026-01-16 22:19:49.97	139.02	22.94	-37.6	-39.6	27.1	0.00e+00	0	38	0	0	46	4610
2026-01-16 22:19:50.97	138.62	22.81	-37.4	-39.4	27.3	0.00e+00	0	38	0	0	46	4500
2026-01-16 22:19:51.96	138.22	22.68	-37.2	-39.1	27.5	0.00e+00	0	39	0	0	46	4378
2026-01-16 22:19:52.96	137.82	22.54	-37.3	-39.2	27.4	0.00e+00	0	39	0	0	46	4418
2026-01-16 22:19:53.95	137.44	22.41	-37.4	-39.3	27.3	0.00e+00	0	38	0	0	46	4487
2026-01-16 22:19:54.95	137.05	22.27	-37.6	-39.5	27.2	0.00e+00	0	38	0	0	46	4566
2026-01-16 22:19:55.94	136.67	22.14	-37.6	-39.6	27.0	0.00e+00	0	38	0	0	46	4608
2026-01-16 22:19:56.94	136.28	22.01	-37.6	-39.6	27.2	0.00e+00	0	38	0	0	46	4621
2026-01-16 22:19:57.93	135.91	21.87	-37.8	-39.7	27.1	0.00e+00	0	39	0	0	46	4692
2026-01-16 22:19:58.93	135.54	21.74	-37.7	-39.7	27.1	0.00e+00	0	38	0	0	46	4655
2026-01-16 22:19:59.92	135.17	21.60	-37.9	-39.9	26.9	0.00e+00	0	38	0	0	46	4764
2026-01-16 22:20:00.92	134.81	21.47	-38.0	-40.0	26.9	0.00e+00	0	38	0	0	46	4848
2026-01-16 22:20:01.91	134.45	21.33	-37.9	-39.8	27.0	0.00e+00	0	38	0	0	46	4749
2026-01-16 22:20:02.92	134.09	21.20	-37.7	-39.7	27.1	0.00e+00	0	38	0	0	46	4671
2026-01-16 22:20:03.95	133.72	21.06	-37.8	-39.8	27.0	0.00e+00	0	38	0	0	46	4706
2026-01-16 22:20:04.94	133.37	20.92	-37.8	-39.8	27.0	0.00e+00	0	38	0	0	46	4710
2026-01-16 22:20:05.94	133.03	20.79	-38.0	-40.0	26.9	0.00e+00	0	38	0	0	46	4834
2026-01-16 22:20:06.93	132.69	20.65	-38.2	-40.2	26.8	0.00e+00	0	38	0	0	47	4674
2026-01-16 22:20:07.92	132.35	20.52	-38.4	-40.4	26.5	0.00e+00	0	38	0	0	47	4812
2026-01-16 22:20:08.92	132.02	20.38	-38.3	-40.3	26.6	0.00e+00	0	38	0	0	47	4744
2026-01-16 22:20:09.91	131.69	20.25	-38.2	-40.2	26.7	0.00e+00	0	38	0	0	47	4677
2026-01-16 22:20:10.90	131.36	20.12	-38.2	-40.2	26.7	0.00e+00	0	39	0	0	47	4658
2026-01-16 22:20:11.90	131.04	19.98	-38.1	-40.1	26.8	0.00e+00	0	39	0	0	47	4615
2026-01-16 22:20:12.89	130.72	19.85	-38.2	-40.2	26.7	0.00e+00	0	38	0	0	47	4654
2026-01-16 22:20:13.89	130.40	19.71	-38.2	-40.2	26.7	0.00e+00	0	38	0	0	47	4673
2026-01-16 22:20:14.88	130.09	19.58	-38.2	-40.2	26.7	0.00e+00	0	38	0	0	47	4689
2026-01-16 22:20:15.88	129.77	19.45	-38.1	-40.1	26.7	0.00e+00	0	38	0	0	47	4617
2026-01-16 22:20:16.87	129.47	19.31	-38.3	-40.2	26.6	0.00e+00	0	38	0	0	47	4698
2026-01-16 22:20:17.91	129.15	19.18	-38.5	-40.4	26.5	0.00e+00	0	38	0	0	47	4812
2026-01-16 22:20:18.92	128.85	19.04	-38.4	-40.4	26.5	0.00e+00	0	39	0	0	47	4808
2026-01-16 22:20:19.94	128.54	18.91	-38.6	-40.6	26.3	0.00e+00	0	38	0	0	47	4924
2026-01-16 22:20:20.96	128.24	18.77	-38.7	-40.7	26.4	0.00e+00	0	38	0	0	48	4677
2026-01-16 22:20:21.97	127.94	18.64	-38.7	-40.7	26.4	0.00e+00	0	38	0	0	48	4668
2026-01-16 22:20:22.97	127.66	18.51	-38.4	-40.3	26.6	0.00e+00	0	38	0	0	48	4472
2026-01-16 22:20:23.96	127.37	18.38	-38.3	-40.2	26.8	0.00e+00	0	38	0	0	48	4415
2026-01-16 22:20:24.96	127.09	18.24	-38.4	-40.4	26.6	0.00e+00	0	38	0	0	48	4507
2026-01-16 22:20:25.95	126.81	18.11	-38.4	-40.4	26.6	0.00e+00	0	38	0	0	48	4529
2026-01-16 22:20:26.95	126.53	17.98	-38.6	-40.6	26.4	0.00e+00	0	38	0	0	48	4601
2026-01-16 22:20:27.94	126.26	17.86	-38.8	-40.8	26.3	0.00e+00	0	38	0	0	48	4717
2026-01-16 22:20:28.94	125.99	17.73	-38.7	-40.7	26.4	0.00e+00	0	38	0	0	48	4667
2026-01-16 22:20:29.94	125.72	17.60	-38.7	-40.7	26.4	0.00e+00	0	38	0	0	48	4674
2026-01-16 22:20:30.93	125.46	17.47	-38.9	-40.9	26.2	0.00e+00	0	38	0	0	48	4767
2026-01-16 22:20:31.93	125.20	17.34	-38.9	-41.0	26.2	0.00e+00	0	38	0	0	48	4816
2026-01-16 22:20:32.92	124.94	17.21	-39.1	-41.2	26.0	0.00e+00	0	38	0	0	49	4676
2026-01-16 22:20:33.91	124.69	17.09	-38.9	-40.9	26.2	0.00e+00	0	38	0	0	49	4534
2026-01-16 22:20:34.91	124.43	16.96	-38.9	-40.9	26.2	0.00e+00	0	38	0	0	49	4523
2026-01-16 22:20:35.92	124.18	16.83	-39.0	-41.1	26.0	0.00e+00	0	38	0	0	49	4599
2026-01-16 22:20:36.95	123.92	16.70	-38.7	-40.8	26.3	0.00e+00	0	38	0	0	49	4444
2026-01-16 22:20:37.97	123.67	16.58	-38.9	-40.9	26.2	0.00e+00	0	39	0	0	49	4516
2026-01-16 22:20:38.97	123.42	16.45	-39.1	-41.1	26.0	0.00e+00	0	38	0	0	49	4613
2026-01-16 22:20:39.96	123.19	16.33	-39.2	-41.2	25.9	0.00e+00	0	38	0	0	49	4680
2026-01-16 22:20:40.95	122.95	16.20	-39.4	-41.5	25.7	0.00e+00	0	38	0	0	49	4830
2026-01-16 22:20:41.95	122.71	16.08	-39.5	-41.5	25.7	0.00e+00	0	38	0	0	49	4845
2026-01-16 22:20:42.94	122.48	15.96	-39.4	-41.5	25.7	0.00e+00	0	38	0	0	49	4823
2026-01-16 22:20:43.94	122.25	15.84	-39.2	-41.3	25.8	0.00e+00	0	38	0	0	49	4750
2026-01-16 22:20:44.93	122.02	15.72	-39.2	-41.2	25.8	0.00e+00	0	38	0	0	49	4702
2026-01-16 22:20:45.92	121.80	15.60	-39.2	-41.3	25.8	0.00e+00	0	38	0	0	49	4706
2026-01-16 22:20:46.92	121.57	15.47	-39.2	-41.3	25.8	0.00e+00	0	38	0	0	49	4711
2026-01-16 22:20:47.91	121.35	15.35	-39.4	-41.5	25.7	0.00e+00	0	38	0	0	49	4831
2026-01-16 22:20:48.91	121.13	15.23	-39.4	-41.5	25.6	0.00e+00	0	38	0	0	49	4854
2026-01-16 22:20:49.90	120.92	15.12	-39.5	-41.6	25.6	0.00e+00	0	38	0	0	49	4902
2026-01-16 22:20:50.94	120.69	14.99	-39.8	-41.9	25.4	0.00e+00	0	38	0	0	50	4772
2026-01-16 22:20:51.96	120.48	14.87	-40.0	-42.1	25.2	0.00e+00	0	39	0	0	50	4903
2026-01-16 22:20:52.97	120.26	14.75	-40.1	-42.2	25.1	0.00e+00	0	38	0	0	50	4975
2026-01-16 22:20:53.98	120.05	14.63	-40.2	-42.3	25.0	0.00e+00	0	38	0	0	51	4739
2026-01-16 22:20:54.97	119.85	14.52	-40.1	-42.3	25.1	0.00e+00	0	39	0	0	51	4710
2026-01-16 22:20:55.97	119.64	14.40	-40.1	-42.2	25.1	0.00e+00	0	38	0	0	51	4678
2026-01-16 22:20:56.96	119.44	14.29	-40.1	-42.2	25.1	0.00e+00	0	38	0	0	51	4665
2026-01-16 22:20:57.96	119.24	14.17	-40.0	-42.1	25.2	0.00e+00	0	38	0	0	51	4605
2026-01-16 22:20:58.96	119.04	14.06	-40.0	-42.1	25.1	0.00e+00	0	38	0	0	51	4650
2026-01-16 22:20:59.95	118.85	13.94	-40.1	-42.2	25.0	0.00e+00	0	38	0	0	51	4697
2026-01-16 22:21:00.94	118.65	13.83	-40.3	-42.4	24.9	0.00e+00	0	38	0	0	51	4780
2026-01-16 22:21:01.94	118.46	13.72	-40.3	-42.5	24.9	0.00e+00	0	38	0	0	51	4829
2026-01-16 22:21:02.93	118.27	13.60	-40.5	-42.7	24.7	0.00e+00	0	38	0	0	51	4964
2026-01-16 22:21:03.93	118.08	13.49	-40.6	-42.8	24.5	0.00e+00	0	38	0	0	51	5028
2026-01-16 22:21:04.92	117.90	13.38	-40.6	-42.7	24.7	0.00e+00	0	38	0	0	51	4972
2026-01-16 22:21:05.92	117.71	13.27	-40.6	-42.7	24.7	0.00e+00	0	38	0	0	51	4979
2026-01-16 22:21:06.91	117.53	13.16	-40.5	-42.7	24.7	0.00e+00	0	38	0	0	51	4947
2026-01-16 22:21:07.91	117.35	13.05	-40.5	-42.6	24.7	0.00e+00	0	38	0	0	51	4914
2026-01-16 22:21:08.90	117.17	12.94	-40.6	-42.8	24.6	0.00e+00	0	39	0	0	51	4984
2026-01-16 22:21:09.89	117.00	12.83	-40.6	-42.8	24.6	0.00e+00	0	39	0	0	51	5023
2026-01-16 22:21:10.91	116.82	12.72	-40.8	-43.0	24.3	0.00e+00	0	38	0	0	52	4860
2026-01-16 22:21:11.96	116.63	12.61	-40.9	-43.1	24.3	0.00e+00	0	38	0	0	52	4891
2026-01-16 22:21:12.82	116.48	12.51	-40.9	-43.2	24.2	0.00e+00	0	38	0	0	52	4931
2026-01-16 22:21:13.95	116.29	12.39	-40.9	-43.2	24.2	0.00e+00	0	38	0	0	52	4931
2026-01-16 22:21:14.80	116.15	12.30	-40.9	-43.1	24.3	0.00e+00	0	38	0	0	52	4892
2026-01-16 22:21:15.94	115.95	12.18	-40.9	-43.2	24.1	0.00e+00	0	38	0	0	52	4954
2026-01-16 22:21:16.79	115.81	12.09	-40.9	-43.2	24.1	0.00e+00	0	38	0	0	52	4940
2026-01-16 22:21:17.93	115.62	11.97	-40.9	-43.2	24.1	0.00e+00	0	39	0	0	52	4949
2026-01-16 22:21:18.78	115.49	11.88	-40.9	-43.1	24.2	0.00e+00	0	38	0	0	52	4917
2026-01-16 22:21:19.91	115.30	11.76	-41.0	-43.3	24.0	0.00e+00	0	38	0	0	52	5021
2026-01-16 22:21:20.77	115.16	11.67	-41.0	-43.2	24.0	0.00e+00	0	38	0	0	52	4983
2026-01-16 22:21:21.97	114.97	11.55	-41.0	-43.3	24.0	0.00e+00	0	38	0	0	52	5008
2026-01-16 22:21:22.82	114.84	11.46	-41.1	-43.4	23.9	0.00e+00	0	38	0	0	52	5063
2026-01-16 22:21:24.00	114.66	11.34	-41.2	-43.4	23.9	0.00e+00	0	38	0	0	52	5099
2026-01-16 22:21:24.86	114.52	11.25	-41.2	-43.5	23.8	0.00e+00	0	39	0	0	53	4817
2026-01-16 22:21:25.99	114.35	11.14	-41.1	-43.4	23.9	0.00e+00	0	38	0	0	53	4765
2026-01-16 22:21:26.84	114.22	11.05	-41.2	-43.5	23.8	0.00e+00	0	38	0	0	53	4863
2026-01-16 22:21:27.98	114.05	10.94	-41.5	-43.8	23.6	0.00e+00	0	38	0	0	53	5003
2026-01-16 22:21:28.83	113.92	10.85	-41.5	-43.8	23.5	0.00e+00	0	38	0	0	53	5034
2026-01-16 22:21:29.97	113.76	10.74	-41.6	-44.0	23.3	0.00e+00	0	38	0	0	53	5122
2026-01-16 22:21:30.82	113.63	10.66	-41.9	-44.3	23.0	0.00e+00	0	39	0	0	54	5036
2026-01-16 22:21:31.96	113.47	10.54	-42.1	-44.6	22.9	0.00e+00	0	38	0	0	54	5163
2026-01-16 22:21:32.82	113.34	10.46	-41.7	-44.1	23.2	0.00e+00	0	38	0	0	54	4909
2026-01-16 22:21:33.95	113.18	10.35	-41.7	-44.2	23.2	0.00e+00	0	38	0	0	54	4937
2026-01-16 22:21:34.80	113.06	10.26	-41.7	-44.1	23.2	0.00e+00	0	38	0	0	54	4922
2026-01-16 22:21:35.94	112.90	10.15	-41.7	-44.0	23.3	0.00e+00	0	38	0	0	54	4869
2026-01-16 22:21:36.79	112.79	10.07	-41.5	-43.8	23.5	0.00e+00	0	39	0	0	54	4723
2026-01-16 22:21:37.93	112.63	9.96	-41.4	-43.7	23.5	0.00e+00	0	39	0	0	54	4683
2026-01-16 22:21:38.78	112.52	9.88	-41.5	-43.8	23.5	0.00e+00	0	38	0	0	54	4728
2026-01-16 22:21:39.99	112.35	9.77	-41.6	-44.0	23.3	0.00e+00	0	38	0	0	54	4853
2026-01-16 22:21:40.84	112.24	9.69	-41.7	-44.1	23.1	0.00e+00	0	38	0	0	54	4921
2026-01-16 22:21:41.98	112.09	9.58	-42.0	-44.4	22.9	0.00e+00	0	39	0	0	54	5085
2026-01-16 22:21:42.83	111.98	9.50	-42.2	-44.7	22.6	0.00e+00	0	38	0	0	55	4937
2026-01-16 22:21:43.97	111.83	9.39	-42.2	-44.7	22.6	0.00e+00	0	38	0	0	55	4975
2026-01-16 22:21:44.82	111.72	9.31	-42.3	-44.8	22.5	0.00e+00	0	39	0	0	55	5039
2026-01-16 22:21:45.95	111.58	9.21	-42.4	-44.9	22.4	0.00e+00	0	38	0	0	55	5090
2026-01-16 22:21:46.81	111.47	9.13	-42.6	-45.2	22.2	0.00e+00	0	38	0	0	55	5260
2026-01-16 22:21:47.94	111.33	9.02	-42.5	-45.1	22.3	0.00e+00	0	38	0	0	55	5178
2026-01-16 22:21:48.80	111.22	8.95	-48.0	-54.0	15.6	0.00e+00	0	38	0	0	66	7640
2026-01-16 22:21:49.93	111.08	8.84	-50.2	-68.6	3.8	2.09e-03	0	39	104	0	71	31014
2026-01-16 22:21:50.78	110.98	8.77	-50.5	-69.3	3.8	8.31e-01	0	39	104	0	71	33443
2026-01-16 22:21:51.92	110.84	8.66	-50.6	-69.5	3.8	8.48e-01	0	38	104	0	71	34170
2026-01-16 22:21:52.77	110.73	8.59	-50.7	-69.5	3.8	8.48e-01	0	39	104	0	71	34331
2026-01-16 22:21:53.90	110.60	8.49	-50.7	-69.5	3.8	8.47e-01	0	38	104	0	72	32365
2026-01-16 22:21:54.75	110.50	8.41	-50.7	-69.5	3.8	8.47e-01	0	38	104	0	72	32356
2026-01-16 22:21:55.89	110.37	8.31	-50.6	-69.6	3.8	8.47e-01	0	39	104	0	72	32677
2026-01-16 22:21:56.74	110.27	8.23	-50.4	-69.6	3.8	8.48e-01	0	39	104	0	72	32675
2026-01-16 22:21:57.88	110.14	8.13	-50.4	-69.6	3.8	8.47e-01	0	38	104	0	72	32736
2026-01-16 22:21:58.73	110.04	8.06	-50.5	-69.7	3.8	8.47e-01	0	38	104	0	72	32999
2026-01-16 22:21:59.86	109.91	7.96	-50.6	-69.6	3.8	8.47e-01	0	38	104	0	72	32893
2026-01-16 22:22:00.71	109.82	7.89	-50.6	-69.7	3.8	8.46e-01	0	39	104	0	72	33014
2026-01-16 22:22:01.85	109.69	7.79	-50.6	-69.7	3.8	8.46e-01	0	38	104	0	72	33034
2026-01-16 22:22:02.70	109.59	7.71	-50.7	-69.7	3.8	8.46e-01	0	39	104	0	72	33055
2026-01-16 22:22:03.84	109.47	7.62	-50.6	-69.7	3.8	8.48e-01	0	38	104	0	72	33215
2026-01-16 22:22:04.69	109.38	7.54	-50.6	-69.7	3.8	8.48e-01	0	38	104	0	72	33158
2026-01-16 22:22:05.82	109.26	7.45	-50.4	-69.7	3.8	8.47e-01	0	39	104	0	72	33213
2026-01-16 22:22:06.67	109.16	7.38	-50.4	-69.7	3.8	8.47e-01	0	39	104	0	72	33231
2026-01-16 22:22:07.81	109.04	7.28	-50.4	-69.8	3.8	8.47e-01	0	38	104	0	72	33414
2026-01-16 22:22:08.66	108.95	7.21	-50.5	-69.7	3.8	8.46e-01	0	38	104	0	72	33286
2026-01-16 22:22:09.80	108.84	7.11	-50.6	-69.7	3.8	8.47e-01	0	39	104	0	72	33263
2026-01-16 22:22:10.65	108.75	7.04	-50.5	-69.7	3.8	8.47e-01	0	39	104	0	72	33025
2026-01-16 22:22:11.79	108.63	6.95	-50.5	-69.7	3.8	8.47e-01	0	39	104	0	72	33082
2026-01-16 22:22:12.64	108.54	6.88	-50.5	-69.7	3.8	8.47e-01	0	39	104	0	72	33076
2026-01-16 22:22:13.77	108.43	6.78	-50.5	-69.7	3.8	8.47e-01	0	39	104	0	72	32978
2026-01-16 22:22:14.62	108.34	6.71	-50.5	-69.7	3.8	8.47e-01	0	39	104	0	72	33046
2026-01-16 22:22:15.76	108.23	6.62	-50.5	-69.6	3.8	8.48e-01	0	39	104	0	72	32913
2026-01-16 22:22:16.61	108.15	6.55	-50.5	-69.7	3.8	8.47e-01	0	39	104	0	72	32946
2026-01-16 22:22:17.75	108.04	6.46	-50.5	-69.6	3.8	8.47e-01	0	39	104	0	72	32874
2026-01-16 22:22:18.60	107.95	6.39	-50.5	-69.7	3.8	8.47e-01	0	39	104	0	72	32939
2026-01-16 22:22:19.73	107.84	6.30	-50.5	-69.7	3.8	8.46e-01	0	38	104	0	72	33026
2026-01-16 22:22:20.59	107.76	6.23	-50.5	-69.6	3.8	8.46e-01	0	39	104	0	72	32873
2026-01-16 22:22:21.72	107.66	6.14	-50.5	-69.6	3.8	8.47e-01	0	39	104	0	72	32909
2026-01-16 22:22:22.57	107.58	6.07	-50.5	-69.6	3.8	8.46e-01	0	38	104	0	72	32924
2026-01-16 22:22:23.71	107.47	5.98	-50.5	-69.7	3.8	8.46e-01	0	39	104	0	72	32974
2026-01-16 22:22:24.56	107.39	5.92	-50.5	-69.6	3.8	8.46e-01	0	39	104	0	72	32858
2026-01-16 22:22:25.69	107.29	5.83	-50.5	-69.7	3.8	8.47e-01	0	39	104	0	72	32938
2026-01-16 22:22:26.54	107.21	5.76	-50.5	-69.7	3.8	8.47e-01	0	39	104	0	72	32956
2026-01-16 22:22:27.68	107.11	5.67	-50.5	-69.6	3.8	8.46e-01	0	39	104	0	72	32864
2026-01-16 22:22:28.53	107.03	5.61	-50.5	-69.6	3.8	8.47e-01	0	39	104	0	72	32876
2026-01-16 22:22:29.67	106.93	5.52	-50.5	-69.6	3.8	8.47e-01	0	38	104	0	72	32875
2026-01-16 22:22:30.52	106.85	5.45	-50.5	-69.6	3.8	8.47e-01	0	39	104	0	72	32906
2026-01-16 22:22:31.65	106.75	5.37	-50.5	-69.6	3.8	8.48e-01	0	39	104	0	72	32875
2026-01-16 22:22:32.50	106.68	5.30	-50.5	-69.6	3.8	8.48e-01	0	39	104	0	72	32811
2026-01-16 22:22:33.64	106.58	5.22	-50.5	-69.7	3.8	8.47e-01	0	38	104	0	72	32930
2026-01-16 22:22:34.49	106.51	5.15	-50.5	-69.7	3.8	8.48e-01	0	39	104	0	72	32934
2026-01-16 22:22:35.63	106.41	5.06	-50.5	-69.6	3.8	8.47e-01	0	38	104	0	72	32895
2026-01-16 22:22:36.48	106.34	5.00	-50.5	-69.6	3.8	8.47e-01	0	39	104	0	72	32892
2026-01-16 22:22:37.61	106.24	4.92	-50.5	-69.6	3.8	8.45e-01	0	39	104	0	72	32808

#Closed at: 2026-01-16 22:22:38
#Recorded file [0 MB]: D:/Data/31040_260117_011452.dat