passes_logs/2026/01/16/T1/T1__20260116_075001_NOAA_20_JPSS-1_rec.log

#Pass ID: 20260116_075001_NOAA 20 (JPSS-1)
#Satellite: NOAA 20 (JPSS-1)
#Configuration: NOAA 20
#almurnet v.1.7.20251203
#Start time: 2026-01-16 07:50:01

#Version: 2.0.20230620
#Station: T1
#Location: 37.570604 lon 55.790049 lat
#TLE: 1 43013U 17073A   26015.89389188  .00000026  00000+0  33113-4 0  9999
#TLE: 2 43013  98.7636 316.8238 0001460  37.8997 322.2282 14.19536128422860

#Time	Az	El	Level	Level2	SNR	BER	BlckErr	Temp	State	Recorded	gain1	gain2
2026-01-16 07:50:01.30	92.85	5.01	-49.4	-64.9	3.8	1.49e+00	0	41	0	0	70	21416
2026-01-16 07:50:02.29	92.75	5.06	-49.4	-64.9	3.8	1.49e+00	0	41	104	0	70	21342
2026-01-16 07:50:03.29	92.65	5.11	-49.4	-64.9	3.8	1.49e+00	0	41	104	0	70	21436
2026-01-16 07:50:04.29	92.54	5.17	-49.4	-64.9	3.8	1.49e+00	0	41	104	0	70	21445
2026-01-16 07:50:05.29	92.44	5.22	-49.4	-64.9	3.8	1.49e+00	0	41	104	0	70	21394
2026-01-16 07:50:06.27	92.34	5.27	-49.4	-64.9	3.8	1.49e+00	0	41	104	0	70	21331
2026-01-16 07:50:07.27	92.23	5.33	-49.3	-64.9	3.8	1.49e+00	0	41	104	0	70	21338
2026-01-16 07:50:08.27	92.13	5.38	-49.4	-64.9	3.8	1.49e+00	0	41	104	0	70	21370
2026-01-16 07:50:09.26	92.03	5.43	-49.3	-64.9	3.8	1.49e+00	0	41	104	0	70	21267
2026-01-16 07:50:10.26	91.92	5.48	-49.3	-64.9	3.8	1.49e+00	0	42	104	0	70	21271
2026-01-16 07:50:11.25	91.82	5.54	-49.3	-64.9	3.8	1.49e+00	0	41	104	0	70	21289
2026-01-16 07:50:12.25	91.71	5.59	-49.4	-64.8	3.8	1.49e+00	0	41	104	0	70	21212
2026-01-16 07:50:13.25	91.61	5.64	-49.4	-64.8	3.8	1.49e+00	0	42	104	0	70	21176
2026-01-16 07:50:14.24	91.50	5.70	-49.3	-64.9	3.8	1.49e+00	0	42	104	0	70	21273
2026-01-16 07:50:15.24	91.39	5.75	-49.3	-64.8	3.8	1.49e+00	0	42	104	0	70	21158
2026-01-16 07:50:16.23	91.29	5.80	-49.3	-64.8	3.8	1.49e+00	0	42	104	0	70	21233
2026-01-16 07:50:17.23	91.18	5.86	-49.3	-64.9	3.8	1.49e+00	0	42	104	0	70	21309
2026-01-16 07:50:18.23	91.07	5.91	-49.3	-64.8	3.8	1.49e+00	0	42	104	0	70	21249
2026-01-16 07:50:19.23	90.96	5.96	-49.3	-64.9	3.8	1.49e+00	0	42	104	0	70	21267
2026-01-16 07:50:20.23	90.85	6.02	-49.3	-64.8	3.8	1.49e+00	0	42	104	0	70	21249
2026-01-16 07:50:21.23	90.74	6.07	-49.3	-64.8	3.8	1.49e+00	0	42	104	0	70	21196
2026-01-16 07:50:22.22	90.64	6.12	-49.3	-64.8	3.8	1.49e+00	0	42	104	0	70	21196
2026-01-16 07:50:23.22	90.53	6.18	-49.3	-64.8	3.8	1.49e+00	0	42	104	0	70	21187
2026-01-16 07:50:24.22	90.42	6.23	-49.3	-64.8	3.8	1.49e+00	0	42	104	0	70	21148
2026-01-16 07:50:25.22	90.30	6.29	-49.3	-64.8	3.8	1.49e+00	0	42	104	0	70	21203
2026-01-16 07:50:26.21	90.19	6.34	-49.3	-64.8	3.8	1.49e+00	0	42	104	0	70	21208
2026-01-16 07:50:27.21	90.08	6.39	-49.3	-64.8	3.8	1.49e+00	0	42	104	0	70	21150
2026-01-16 07:50:28.20	89.97	6.45	-49.3	-64.8	3.8	1.49e+00	0	42	104	0	70	21234
2026-01-16 07:50:29.20	89.86	6.50	-49.3	-64.8	3.8	1.49e+00	0	42	104	0	70	21215
2026-01-16 07:50:30.20	89.75	6.55	-49.3	-64.9	3.8	1.49e+00	0	42	104	0	70	21322
2026-01-16 07:50:31.20	89.63	6.61	-49.3	-64.8	3.8	1.49e+00	0	42	104	0	70	21148
2026-01-16 07:50:32.19	89.52	6.66	-49.3	-64.8	3.8	1.49e+00	0	42	104	0	70	21139
2026-01-16 07:50:33.19	89.41	6.71	-49.3	-64.8	3.8	1.49e+00	0	42	104	0	70	21132
2026-01-16 07:50:34.18	89.29	6.77	-49.3	-64.8	3.8	1.49e+00	0	42	104	0	70	21020
2026-01-16 07:50:35.18	89.18	6.82	-49.3	-64.7	3.8	1.49e+00	0	42	104	0	70	20786
2026-01-16 07:50:36.17	89.06	6.87	-49.3	-64.6	3.8	1.49e+00	0	42	104	0	70	20693
2026-01-16 07:50:37.17	88.95	6.93	-49.3	-64.6	3.8	1.49e+00	0	42	104	0	70	20673
2026-01-16 07:50:38.16	88.83	6.98	-49.3	-64.6	3.8	1.49e+00	0	42	104	0	70	20638
2026-01-16 07:50:39.16	88.71	7.03	-49.3	-64.7	3.8	1.49e+00	0	42	104	0	70	20778
2026-01-16 07:50:40.16	88.60	7.09	-49.3	-64.7	3.8	1.49e+00	0	42	104	0	70	20891
2026-01-16 07:50:41.15	88.48	7.14	-49.3	-64.7	3.8	1.49e+00	0	42	104	0	70	20933
2026-01-16 07:50:42.15	88.36	7.19	-49.3	-64.7	3.8	1.49e+00	0	42	104	0	70	20913
2026-01-16 07:50:43.15	88.24	7.25	-49.3	-64.7	3.8	1.49e+00	0	43	104	0	70	20993
2026-01-16 07:50:44.15	88.12	7.30	-49.3	-64.6	3.8	1.49e+00	0	43	104	0	70	20754
2026-01-16 07:50:45.14	88.00	7.35	-49.3	-64.6	3.8	1.49e+00	0	43	104	0	70	20563
2026-01-16 07:50:46.14	87.88	7.41	-49.3	-64.4	3.8	1.49e+00	0	43	104	0	70	20147
2026-01-16 07:50:47.14	87.76	7.46	-49.3	-64.2	3.8	1.49e+00	0	43	104	0	70	19832
2026-01-16 07:50:48.13	87.64	7.51	-49.3	-64.0	3.8	1.49e+00	0	43	104	0	70	19317
2026-01-16 07:50:49.14	87.52	7.57	-49.3	-64.0	3.8	1.49e+00	0	43	104	0	70	19227
2026-01-16 07:50:50.13	87.40	7.62	-49.3	-64.1	3.8	1.49e+00	0	43	104	0	70	19451
2026-01-16 07:50:51.13	87.28	7.68	-49.3	-64.1	3.8	1.49e+00	0	43	104	0	70	19599
2026-01-16 07:50:52.13	87.16	7.73	-49.3	-64.3	3.8	1.49e+00	0	43	104	0	70	19976
2026-01-16 07:50:53.13	87.03	7.78	-49.3	-64.4	3.8	1.49e+00	0	43	104	0	70	20302
2026-01-16 07:50:54.12	86.91	7.84	-49.3	-64.5	3.8	1.49e+00	0	43	104	0	70	20492
2026-01-16 07:50:55.12	86.79	7.89	-49.3	-64.5	3.8	1.49e+00	0	43	104	0	70	20345
2026-01-16 07:50:56.11	86.66	7.94	-49.3	-64.3	3.8	1.49e+00	0	43	104	0	70	19842
2026-01-16 07:50:57.11	86.54	8.00	-49.3	-63.9	3.8	1.49e+00	0	43	104	0	70	19110
2026-01-16 07:50:58.11	86.41	8.05	-49.3	-63.4	3.8	1.49e+00	0	43	104	0	70	18066
2026-01-16 07:50:59.10	86.29	8.10	-49.3	-63.2	3.8	1.49e+00	0	43	104	0	70	17555
2026-01-16 07:51:00.10	86.16	8.16	-49.3	-63.4	3.8	1.49e+00	0	43	104	0	70	17986
2026-01-16 07:51:01.09	86.04	8.21	-49.3	-64.0	3.8	1.49e+00	0	43	104	0	70	19352
2026-01-16 07:51:02.09	85.91	8.26	-49.3	-64.5	3.8	1.49e+00	0	43	104	0	70	20309
2026-01-16 07:51:03.08	85.78	8.32	-49.2	-62.7	3.8	1.49e+00	0	43	104	0	70	16544
2026-01-16 07:51:04.08	85.65	8.37	-48.8	-58.9	5.2	1.21e+00	0	43	0	0	69	11309
2026-01-16 07:51:05.07	85.53	8.42	-48.2	-55.6	7.8	3.10e-01	0	43	0	2097152	68	8229
2026-01-16 07:51:06.07	85.40	8.48	-47.2	-52.7	10.6	9.78e-03	0	43	0	4194304	66	6640
2026-01-16 07:51:07.07	85.27	8.53	-46.3	-50.8	12.7	3.86e-04	0	43	0	5242880	64	5946
2026-01-16 07:51:08.06	85.14	8.58	-45.8	-49.8	13.8	1.60e-05	0	43	0	7340032	63	5613
2026-01-16 07:51:09.06	85.01	8.63	-45.5	-49.2	14.4	7.00e-07	0	43	0	9437184	63	5246
2026-01-16 07:51:10.06	84.88	8.69	-45.5	-49.2	14.4	0.00e+00	0	43	0	11534336	62	5592
2026-01-16 07:51:11.05	84.74	8.74	-45.7	-49.6	14.1	7.00e-07	0	43	0	13631488	62	5805
2026-01-16 07:51:12.04	84.61	8.79	-46.3	-50.6	13.0	7.60e-06	0	43	0	14680064	63	6176
2026-01-16 07:51:13.04	84.48	8.85	-47.0	-52.2	11.3	5.74e-04	0	43	0	16777216	64	6991
2026-01-16 07:51:14.03	84.35	8.90	-47.7	-54.1	9.3	6.65e-03	0	43	0	18874368	65	8248
2026-01-16 07:51:15.03	84.22	8.95	-48.4	-56.7	6.7	6.39e-02	0	43	0	20971520	67	9904
2026-01-16 07:51:16.03	84.08	9.00	-48.9	-59.5	4.9	3.45e-01	0	43	0	22020096	68	12895
2026-01-16 07:51:17.02	83.95	9.06	-47.6	-54.0	9.4	8.83e-02	0	43	0	24117248	67	7250
2026-01-16 07:51:18.01	83.81	9.11	-47.3	-53.0	10.5	8.96e-03	0	43	0	26214400	66	6850
2026-01-16 07:51:19.01	83.68	9.16	-49.2	-63.7	3.8	4.20e-01	0	43	104	27262976	69	19818
2026-01-16 07:51:20.00	83.54	9.22	-47.1	-52.7	10.8	8.07e-02	0	43	0	27262976	66	6605
2026-01-16 07:51:21.00	83.41	9.27	-49.1	-59.9	4.7	8.24e-02	0	43	0	29360128	68	13415
2026-01-16 07:51:22.00	83.27	9.32	-47.0	-52.3	11.2	1.31e-01	0	43	0	31457280	66	6339
2026-01-16 07:51:23.00	83.13	9.37	-47.0	-52.2	11.3	1.35e-03	0	43	0	32505856	66	6215
2026-01-16 07:51:23.99	83.00	9.43	-46.8	-51.7	11.9	6.81e-04	0	43	0	34603008	65	6221
2026-01-16 07:51:24.99	82.86	9.48	-46.4	-50.8	12.7	1.61e-04	0	43	0	36700160	64	5982
2026-01-16 07:51:25.99	82.72	9.53	-46.1	-50.1	13.5	3.89e-05	0	43	0	38797312	64	5508
2026-01-16 07:51:26.99	82.58	9.58	-45.7	-49.5	14.2	2.20e-06	0	43	0	39845888	63	5418
2026-01-16 07:51:27.99	82.44	9.64	-45.4	-48.9	14.8	7.00e-07	0	43	0	41943040	62	5389
2026-01-16 07:51:28.98	82.30	9.69	-45.2	-48.6	15.1	0.00e+00	0	43	0	44040192	62	5217
2026-01-16 07:51:29.98	82.16	9.74	-45.4	-48.9	14.8	0.00e+00	0	43	0	46137344	62	5363
2026-01-16 07:51:30.98	82.02	9.79	-45.3	-48.8	15.0	0.00e+00	0	43	0	48234496	62	5303
2026-01-16 07:51:31.98	81.87	9.85	-45.0	-48.4	15.3	0.00e+00	0	43	0	49283072	62	5095
2026-01-16 07:51:32.98	81.73	9.90	-45.0	-48.5	15.2	0.00e+00	0	43	0	51380224	61	5415
2026-01-16 07:51:33.98	81.59	9.95	-45.1	-48.5	15.2	0.00e+00	0	43	0	53477376	61	5429
2026-01-16 07:51:34.97	81.45	10.00	-45.1	-48.5	15.2	0.00e+00	0	43	0	55574528	61	5464
2026-01-16 07:51:35.97	81.30	10.05	-45.1	-48.5	15.2	0.00e+00	0	43	0	57671680	61	5451
2026-01-16 07:51:36.97	81.16	10.11	-45.1	-48.5	15.3	0.00e+00	0	43	0	58720256	61	5409
2026-01-16 07:51:37.96	81.01	10.16	-45.0	-48.3	15.4	0.00e+00	0	43	0	60817408	61	5339
2026-01-16 07:51:38.96	80.87	10.21	-44.9	-48.1	15.6	0.00e+00	0	43	0	62914560	61	5191
2026-01-16 07:51:39.95	80.72	10.26	-44.9	-48.1	15.6	0.00e+00	0	43	0	65011712	61	5207
2026-01-16 07:51:40.95	80.57	10.31	-44.9	-48.1	15.7	0.00e+00	0	43	0	66060288	61	5179
2026-01-16 07:51:41.94	80.43	10.36	-44.9	-48.1	15.6	0.00e+00	0	43	0	68157440	61	5194
2026-01-16 07:51:42.94	80.28	10.41	-45.0	-48.2	15.5	0.00e+00	0	43	0	70254592	61	5270
2026-01-16 07:51:43.93	80.13	10.47	-44.8	-48.0	15.7	0.00e+00	0	43	0	72351744	61	5144
2026-01-16 07:51:44.93	79.98	10.52	-44.7	-47.8	16.0	0.00e+00	0	43	0	74448896	61	5005
2026-01-16 07:51:45.93	79.83	10.57	-44.6	-47.7	16.1	0.00e+00	0	43	0	75497472	61	4937
2026-01-16 07:51:46.93	79.68	10.62	-44.6	-47.6	16.1	0.00e+00	0	43	0	77594624	61	4911
2026-01-16 07:51:47.92	79.54	10.67	-44.6	-47.7	16.1	0.00e+00	0	43	0	79691776	61	4940
2026-01-16 07:51:48.92	79.38	10.72	-44.6	-47.7	16.1	0.00e+00	0	43	0	81788928	61	4934
2026-01-16 07:51:49.91	79.23	10.77	-44.6	-47.6	16.1	0.00e+00	0	43	0	82837504	61	4924
2026-01-16 07:51:50.91	79.08	10.82	-44.5	-47.5	16.3	0.00e+00	0	43	0	84934656	61	4834
2026-01-16 07:51:51.91	78.93	10.87	-44.4	-47.3	16.4	0.00e+00	0	43	0	87031808	60	5027
2026-01-16 07:51:52.90	78.78	10.92	-44.3	-47.3	16.5	0.00e+00	0	43	0	89128960	60	5000
2026-01-16 07:51:53.90	78.62	10.97	-44.4	-47.4	16.4	0.00e+00	0	43	0	91226112	60	5044
2026-01-16 07:51:54.90	78.47	11.02	-44.1	-47.0	16.8	0.00e+00	0	43	0	92274688	60	4822
2026-01-16 07:51:55.89	78.32	11.07	-44.1	-47.0	16.8	0.00e+00	0	43	0	94371840	60	4823
2026-01-16 07:51:56.88	78.16	11.12	-44.2	-47.0	16.7	0.00e+00	0	43	0	96468992	60	4857
2026-01-16 07:51:57.87	78.01	11.17	-44.2	-47.0	16.8	0.00e+00	0	43	0	98566144	60	4848
2026-01-16 07:51:58.86	77.85	11.22	-44.1	-46.9	16.9	0.00e+00	0	43	0	99614720	60	4788
2026-01-16 07:51:59.86	77.70	11.27	-44.1	-46.9	16.9	0.00e+00	0	43	0	101711872	60	4781
2026-01-16 07:52:00.85	77.54	11.32	-43.9	-46.7	17.1	0.00e+00	0	43	0	103809024	59	4951
2026-01-16 07:52:01.85	77.38	11.37	-43.9	-46.6	17.1	0.00e+00	0	43	0	105906176	59	4922
2026-01-16 07:52:02.84	77.22	11.42	-43.9	-46.6	17.1	0.00e+00	0	44	0	108003328	59	4909
2026-01-16 07:52:03.84	77.07	11.47	-43.9	-46.6	17.1	0.00e+00	0	43	0	109051904	59	4914
2026-01-16 07:52:04.82	76.91	11.52	-44.0	-46.7	17.0	0.00e+00	0	43	0	111149056	59	4969
2026-01-16 07:52:05.82	76.75	11.57	-43.9	-46.6	17.1	0.00e+00	0	43	0	113246208	59	4916
2026-01-16 07:52:06.82	76.59	11.62	-44.0	-46.7	17.0	0.00e+00	0	43	0	115343360	59	4965
2026-01-16 07:52:07.82	76.43	11.67	-43.8	-46.5	17.2	0.00e+00	0	44	0	116391936	59	4855
2026-01-16 07:52:08.82	76.26	11.72	-43.8	-46.5	17.3	0.00e+00	0	43	0	118489088	59	4819
2026-01-16 07:52:09.82	76.10	11.77	-43.9	-46.6	17.2	0.00e+00	0	43	0	120586240	59	4886
2026-01-16 07:52:10.81	75.94	11.81	-43.8	-46.4	17.3	0.00e+00	0	43	0	122683392	59	4806
2026-01-16 07:52:11.80	75.78	11.86	-43.7	-46.3	17.4	0.00e+00	0	43	0	124780544	59	4755
2026-01-16 07:52:12.80	75.62	11.91	-43.6	-46.3	17.5	0.00e+00	0	44	0	125829120	59	4724
2026-01-16 07:52:13.79	75.45	11.96	-43.6	-46.2	17.5	0.00e+00	0	43	0	127926272	59	4699
2026-01-16 07:52:14.80	75.29	12.01	-43.6	-46.2	17.5	0.00e+00	0	43	0	130023424	59	4682
2026-01-16 07:52:15.79	75.12	12.05	-43.6	-46.2	17.6	0.00e+00	0	43	0	132120576	59	4674
2026-01-16 07:52:16.78	74.96	12.10	-43.5	-46.2	17.6	0.00e+00	0	43	0	133169152	59	4655
2026-01-16 07:52:17.78	74.79	12.15	-43.5	-46.1	17.6	0.00e+00	0	44	0	135266304	59	4640
2026-01-16 07:52:18.77	74.62	12.20	-43.5	-46.1	17.7	0.00e+00	0	43	0	137363456	58	4889
2026-01-16 07:52:19.77	74.46	12.24	-43.5	-46.1	17.7	0.00e+00	0	44	0	139460608	58	4892
2026-01-16 07:52:20.77	74.29	12.29	-43.5	-46.1	17.7	0.00e+00	0	43	0	141557760	58	4903
2026-01-16 07:52:21.76	74.12	12.34	-43.5	-46.1	17.7	0.00e+00	0	43	0	142606336	58	4911
2026-01-16 07:52:22.76	73.95	12.39	-43.4	-46.0	17.8	0.00e+00	0	43	0	144703488	58	4835
2026-01-16 07:52:23.75	73.78	12.43	-43.4	-46.0	17.8	0.00e+00	0	43	0	146800640	58	4843
2026-01-16 07:52:24.75	73.61	12.48	-43.4	-45.9	17.8	0.00e+00	0	43	0	148897792	58	4812
2026-01-16 07:52:25.75	73.44	12.53	-43.2	-45.7	18.0	0.00e+00	0	43	0	150994944	58	4687
2026-01-16 07:52:26.74	73.27	12.57	-43.2	-45.7	18.0	0.00e+00	0	43	0	152043520	58	4686
2026-01-16 07:52:27.74	73.10	12.62	-43.2	-45.7	18.0	0.00e+00	0	43	0	154140672	58	4688
2026-01-16 07:52:28.73	72.93	12.66	-43.2	-45.6	18.1	0.00e+00	0	43	0	156237824	58	4642
2026-01-16 07:52:29.72	72.76	12.71	-43.2	-45.6	18.0	0.00e+00	0	43	0	158334976	58	4650
2026-01-16 07:52:30.73	72.58	12.75	-43.2	-45.7	18.1	0.00e+00	0	43	0	159383552	58	4680
2026-01-16 07:52:31.72	72.41	12.80	-43.2	-45.7	18.1	0.00e+00	0	43	0	161480704	58	4695
2026-01-16 07:52:32.72	72.23	12.85	-43.2	-45.7	18.1	0.00e+00	0	43	0	163577856	58	4666
2026-01-16 07:52:33.71	72.06	12.89	-43.3	-45.8	18.0	0.00e+00	0	43	0	165675008	58	4732
2026-01-16 07:52:34.71	71.88	12.94	-43.3	-45.9	17.9	0.00e+00	0	43	0	167772160	58	4778
2026-01-16 07:52:35.70	71.71	12.98	-43.4	-46.0	17.8	0.00e+00	0	43	0	168820736	58	4819
2026-01-16 07:52:36.70	71.53	13.02	-43.5	-46.1	17.7	0.00e+00	0	43	0	170917888	58	4911
2026-01-16 07:52:37.70	71.35	13.07	-43.5	-46.2	17.7	0.00e+00	0	43	0	173015040	58	4927
2026-01-16 07:52:38.69	71.18	13.11	-43.5	-46.1	17.8	0.00e+00	0	43	0	175112192	58	4879
2026-01-16 07:52:39.69	71.00	13.16	-43.5	-46.1	17.7	0.00e+00	0	43	0	176160768	58	4871
2026-01-16 07:52:40.68	70.82	13.20	-43.4	-46.0	17.8	0.00e+00	0	43	0	178257920	58	4860
2026-01-16 07:52:41.68	70.64	13.24	-43.6	-46.2	17.6	0.00e+00	0	43	0	180355072	58	4949
2026-01-16 07:52:42.68	70.46	13.29	-43.7	-46.3	17.5	0.00e+00	0	43	0	182452224	58	5027
2026-01-16 07:52:43.68	70.28	13.33	-43.6	-46.2	17.6	0.00e+00	0	44	0	184549376	58	4975
2026-01-16 07:52:44.68	70.10	13.37	-43.5	-46.1	17.7	0.00e+00	0	44	0	185597952	58	4896
2026-01-16 07:52:45.68	69.92	13.42	-43.6	-46.2	17.6	0.00e+00	0	43	0	187695104	58	4961
2026-01-16 07:52:46.67	69.74	13.46	-43.7	-46.3	17.6	0.00e+00	0	43	0	189792256	58	5000
2026-01-16 07:52:47.67	69.55	13.50	-43.7	-46.4	17.4	0.00e+00	0	43	0	191889408	58	5070
2026-01-16 07:52:48.68	69.37	13.54	-43.7	-46.3	17.5	0.00e+00	0	43	0	193986560	58	5031
2026-01-16 07:52:49.67	69.19	13.59	-43.7	-46.3	17.5	0.00e+00	0	43	0	195035136	58	5032
2026-01-16 07:52:50.66	69.00	13.63	-43.8	-46.4	17.4	0.00e+00	0	44	0	197132288	58	5087
2026-01-16 07:52:51.65	68.82	13.67	-43.7	-46.3	17.5	0.00e+00	0	44	0	199229440	58	5014
2026-01-16 07:52:52.65	68.64	13.71	-43.7	-46.3	17.5	0.00e+00	0	43	0	201326592	58	5014
2026-01-16 07:52:53.65	68.45	13.75	-43.6	-46.1	17.7	0.00e+00	0	43	0	202375168	58	4923
2026-01-16 07:52:54.64	68.26	13.79	-43.4	-46.0	17.8	0.00e+00	0	43	0	204472320	58	4857
2026-01-16 07:52:55.64	68.08	13.83	-43.5	-46.1	17.6	0.00e+00	0	44	0	206569472	58	4872
2026-01-16 07:52:56.64	67.89	13.87	-43.4	-45.9	17.9	0.00e+00	0	43	0	208666624	58	4797
2026-01-16 07:52:57.63	67.70	13.91	-43.4	-46.0	17.8	0.00e+00	0	43	0	210763776	58	4846
2026-01-16 07:52:58.64	67.51	13.95	-43.4	-46.0	17.8	0.00e+00	0	44	0	211812352	58	4858
2026-01-16 07:52:59.63	67.33	13.99	-43.4	-46.0	17.8	0.00e+00	0	44	0	213909504	58	4854
2026-01-16 07:53:00.63	67.14	14.03	-43.4	-46.0	17.8	0.00e+00	0	44	0	216006656	58	4861
2026-01-16 07:53:01.63	66.95	14.07	-43.5	-46.1	17.7	0.00e+00	0	43	0	218103808	58	4907
2026-01-16 07:53:02.63	66.76	14.11	-43.4	-45.9	17.9	0.00e+00	0	44	0	219152384	58	4787
2026-01-16 07:53:03.62	66.57	14.15	-43.3	-45.8	18.0	0.00e+00	0	44	0	221249536	58	4752
2026-01-16 07:53:04.62	66.37	14.19	-43.3	-45.9	17.9	0.00e+00	0	43	0	223346688	58	4780
2026-01-16 07:53:05.62	66.18	14.22	-43.2	-45.7	18.1	0.00e+00	0	44	0	225443840	58	4700
2026-01-16 07:53:06.61	65.99	14.26	-43.2	-45.7	18.1	0.00e+00	0	44	0	227540992	58	4703
2026-01-16 07:53:07.61	65.80	14.30	-43.1	-45.6	18.2	0.00e+00	0	43	0	228589568	58	4650
2026-01-16 07:53:08.60	65.61	14.34	-43.1	-45.7	18.2	0.00e+00	0	43	0	230686720	58	4655
2026-01-16 07:53:09.61	65.41	14.37	-43.1	-45.7	18.2	0.00e+00	0	43	0	232783872	58	4659
2026-01-16 07:53:10.61	65.22	14.41	-43.2	-45.8	18.1	0.00e+00	0	44	0	234881024	58	4722
2026-01-16 07:53:11.60	65.02	14.45	-43.1	-45.6	18.2	0.00e+00	0	44	0	236978176	58	4628
2026-01-16 07:53:12.60	64.83	14.48	-43.2	-45.7	18.2	0.00e+00	0	43	0	238026752	58	4652
2026-01-16 07:53:13.60	64.63	14.52	-43.1	-45.6	18.3	0.00e+00	0	44	0	240123904	58	4611
2026-01-16 07:53:14.59	64.44	14.55	-43.1	-45.6	18.3	0.00e+00	0	44	0	242221056	58	4617
2026-01-16 07:53:15.59	64.24	14.59	-43.2	-45.7	18.2	0.00e+00	0	44	0	244318208	58	4657
2026-01-16 07:53:16.59	64.04	14.63	-42.9	-45.3	18.5	0.00e+00	0	44	0	245366784	57	4757
2026-01-16 07:53:17.58	63.85	14.66	-42.9	-45.3	18.5	0.00e+00	0	44	0	247463936	57	4745
2026-01-16 07:53:18.58	63.65	14.69	-43.0	-45.4	18.4	0.00e+00	0	43	0	249561088	57	4783
2026-01-16 07:53:19.57	63.45	14.73	-43.1	-45.6	18.3	0.00e+00	0	44	0	251658240	57	4874
2026-01-16 07:53:20.56	63.25	14.76	-43.0	-45.5	18.4	0.00e+00	0	44	0	253755392	57	4827
2026-01-16 07:53:21.56	63.05	14.80	-42.9	-45.3	18.5	0.00e+00	0	44	0	254803968	57	4755
2026-01-16 07:53:22.56	62.85	14.83	-42.9	-45.4	18.5	0.00e+00	0	44	0	256901120	57	4789
2026-01-16 07:53:23.56	62.65	14.86	-43.0	-45.4	18.4	0.00e+00	0	44	0	258998272	57	4806
2026-01-16 07:53:24.56	62.45	14.89	-43.1	-45.6	18.3	0.00e+00	0	43	0	261095424	57	4902
2026-01-16 07:53:25.55	62.25	14.93	-43.2	-45.7	18.1	0.00e+00	0	44	0	263192576	57	4961
2026-01-16 07:53:26.55	62.05	14.96	-43.2	-45.7	18.1	0.00e+00	0	44	0	264241152	57	4980
2026-01-16 07:53:27.55	61.85	14.99	-43.2	-45.6	18.2	0.00e+00	0	44	0	266338304	57	4914
2026-01-16 07:53:28.54	61.65	15.02	-43.1	-45.5	18.3	0.00e+00	0	44	0	268435456	57	4857
2026-01-16 07:53:29.54	61.44	15.05	-43.1	-45.6	18.3	0.00e+00	0	44	0	270532608	57	4882
2026-01-16 07:53:30.54	61.24	15.08	-43.1	-45.6	18.2	0.00e+00	0	44	0	271581184	57	4910
2026-01-16 07:53:31.54	61.04	15.12	-43.1	-45.5	18.3	0.00e+00	0	44	0	273678336	57	4864
2026-01-16 07:53:32.53	60.83	15.14	-43.1	-45.6	18.3	0.00e+00	0	44	0	275775488	57	4876
2026-01-16 07:53:33.53	60.63	15.17	-43.1	-45.5	18.3	0.00e+00	0	44	0	277872640	57	4864
2026-01-16 07:53:34.52	60.43	15.20	-43.1	-45.6	18.3	0.00e+00	0	44	0	279969792	57	4909
2026-01-16 07:53:35.52	60.22	15.23	-43.1	-45.6	18.3	0.00e+00	0	44	0	281018368	57	4909
2026-01-16 07:53:36.52	60.01	15.26	-43.2	-45.7	18.2	0.00e+00	0	44	0	283115520	57	4948
2026-01-16 07:53:37.52	59.81	15.29	-43.1	-45.6	18.3	0.00e+00	0	44	0	285212672	57	4884
2026-01-16 07:53:38.51	59.60	15.32	-43.2	-45.7	18.2	0.00e+00	0	44	0	287309824	57	4947
2026-01-16 07:53:39.51	59.39	15.35	-43.1	-45.5	18.4	0.00e+00	0	44	0	288358400	57	4823
2026-01-16 07:53:40.51	59.19	15.37	-43.1	-45.5	18.4	0.00e+00	0	44	0	290455552	57	4845
2026-01-16 07:53:41.50	58.98	15.40	-43.2	-45.7	18.2	0.00e+00	0	44	0	292552704	57	4927
2026-01-16 07:53:42.49	58.77	15.43	-43.3	-45.7	18.1	0.00e+00	0	44	0	294649856	57	4977
2026-01-16 07:53:43.49	58.57	15.45	-43.2	-45.7	18.2	0.00e+00	0	44	0	296747008	57	4952
2026-01-16 07:53:44.48	58.36	15.48	-43.2	-45.6	18.2	0.00e+00	0	44	0	297795584	57	4919
2026-01-16 07:53:45.48	58.15	15.51	-43.3	-45.8	18.1	0.00e+00	0	44	0	299892736	57	5001
2026-01-16 07:53:46.48	57.94	15.53	-43.4	-45.9	18.0	0.00e+00	0	44	0	301989888	57	5072
2026-01-16 07:53:47.47	57.73	15.56	-43.5	-46.1	17.8	0.00e+00	0	44	0	304087040	57	5164
2026-01-16 07:53:48.47	57.52	15.58	-43.6	-46.1	17.8	0.00e+00	0	44	0	305135616	57	5201
2026-01-16 07:53:49.46	57.31	15.61	-43.6	-46.2	17.7	0.00e+00	0	44	0	307232768	57	5234
2026-01-16 07:53:50.45	57.10	15.63	-43.6	-46.2	17.7	0.00e+00	0	44	0	309329920	57	5241
2026-01-16 07:53:51.46	56.89	15.65	-43.7	-46.3	17.6	0.00e+00	0	43	0	311427072	58	5027
2026-01-16 07:53:52.46	56.68	15.68	-43.8	-46.4	17.5	0.00e+00	0	44	0	313524224	58	5082
2026-01-16 07:53:53.45	56.47	15.70	-43.8	-46.4	17.5	0.00e+00	0	44	0	314572800	58	5077
2026-01-16 07:53:54.45	56.25	15.72	-43.8	-46.4	17.5	0.00e+00	0	44	0	316669952	58	5068
2026-01-16 07:53:55.45	56.04	15.74	-43.7	-46.3	17.7	0.00e+00	0	44	0	318767104	58	4993
2026-01-16 07:53:56.44	55.83	15.76	-43.5	-46.0	17.9	0.00e+00	0	44	0	320864256	58	4844
2026-01-16 07:53:57.44	55.62	15.79	-43.4	-45.9	18.0	0.00e+00	0	44	0	321912832	58	4786
2026-01-16 07:53:58.44	55.40	15.81	-43.4	-46.0	17.9	0.00e+00	0	44	0	324009984	58	4828
2026-01-16 07:53:59.43	55.19	15.83	-43.4	-45.9	18.0	0.00e+00	0	43	0	326107136	58	4779
2026-01-16 07:54:00.43	54.98	15.85	-43.2	-45.6	18.3	0.00e+00	0	44	0	328204288	58	4648
2026-01-16 07:54:01.42	54.76	15.87	-43.3	-45.7	18.2	0.00e+00	0	43	0	330301440	58	4685
2026-01-16 07:54:02.42	54.55	15.89	-43.4	-45.8	18.1	0.00e+00	0	44	0	331350016	58	4758
2026-01-16 07:54:03.42	54.33	15.91	-43.3	-45.8	18.1	0.00e+00	0	44	0	333447168	58	4717
2026-01-16 07:54:04.41	54.12	15.92	-43.4	-45.9	18.0	0.00e+00	0	44	0	335544320	58	4803
2026-01-16 07:54:05.41	53.90	15.94	-43.4	-45.9	18.0	0.00e+00	0	44	0	337641472	58	4784
2026-01-16 07:54:06.41	53.69	15.96	-43.2	-45.7	18.2	0.00e+00	0	44	0	339738624	58	4698
2026-01-16 07:54:07.40	53.47	15.98	-43.3	-45.8	18.1	0.00e+00	0	44	0	340787200	58	4758
2026-01-16 07:54:08.39	53.26	15.99	-43.5	-46.1	17.9	0.00e+00	0	44	0	342884352	58	4878
2026-01-16 07:54:09.39	53.04	16.01	-43.6	-46.2	17.8	0.00e+00	0	43	0	344981504	58	4947
2026-01-16 07:54:10.39	52.82	16.03	-43.7	-46.3	17.7	0.00e+00	0	44	0	347078656	58	4991
2026-01-16 07:54:11.38	52.61	16.04	-43.6	-46.2	17.8	0.00e+00	0	44	0	348127232	58	4959
2026-01-16 07:54:12.38	52.39	16.06	-43.6	-46.1	17.8	0.00e+00	0	44	0	350224384	58	4917
2026-01-16 07:54:13.37	52.18	16.07	-43.6	-46.1	17.8	0.00e+00	0	43	0	352321536	58	4920
2026-01-16 07:54:14.37	51.96	16.09	-43.6	-46.2	17.7	0.00e+00	0	44	0	354418688	58	4935
2026-01-16 07:54:15.37	51.74	16.10	-43.8	-46.4	17.6	0.00e+00	0	43	0	356515840	58	5053
2026-01-16 07:54:16.36	51.52	16.12	-43.7	-46.3	17.7	0.00e+00	0	44	0	357564416	58	4993
2026-01-16 07:54:17.36	51.31	16.13	-43.7	-46.3	17.7	0.00e+00	0	44	0	359661568	58	5014
2026-01-16 07:54:18.35	51.09	16.14	-43.8	-46.4	17.6	0.00e+00	0	44	0	361758720	58	5065
2026-01-16 07:54:19.35	50.87	16.16	-43.8	-46.5	17.5	0.00e+00	0	44	0	363855872	58	5106
2026-01-16 07:54:20.35	50.65	16.17	-43.7	-46.4	17.6	0.00e+00	0	44	0	364904448	58	5051
2026-01-16 07:54:21.35	50.43	16.18	-43.7	-46.3	17.6	0.00e+00	0	44	0	367001600	58	5010
2026-01-16 07:54:22.35	50.21	16.19	-43.6	-46.2	17.7	0.00e+00	0	44	0	369098752	58	4970
2026-01-16 07:54:23.34	50.00	16.20	-43.6	-46.2	17.7	0.00e+00	0	43	0	371195904	58	4961
2026-01-16 07:54:24.34	49.78	16.21	-43.6	-46.2	17.8	0.00e+00	0	44	0	373293056	58	4962
2026-01-16 07:54:25.33	49.56	16.22	-43.7	-46.3	17.6	0.00e+00	0	44	0	374341632	58	5004
2026-01-16 07:54:26.33	49.34	16.23	-43.6	-46.2	17.7	0.00e+00	0	43	0	376438784	58	4967
2026-01-16 07:54:27.33	49.12	16.24	-43.7	-46.2	17.7	0.00e+00	0	44	0	378535936	58	4978
2026-01-16 07:54:28.32	48.90	16.25	-43.7	-46.3	17.6	0.00e+00	0	44	0	380633088	58	5004
2026-01-16 07:54:29.32	48.68	16.26	-43.8	-46.4	17.6	0.00e+00	0	43	0	382730240	58	5059
2026-01-16 07:54:30.31	48.46	16.27	-43.6	-46.2	17.8	0.00e+00	0	44	0	383778816	58	4959
2026-01-16 07:54:31.32	48.24	16.27	-43.5	-46.0	17.9	0.00e+00	0	44	0	385875968	58	4840
2026-01-16 07:54:32.31	48.02	16.28	-43.5	-46.1	17.8	0.00e+00	0	44	0	387973120	58	4884
2026-01-16 07:54:33.31	47.80	16.29	-43.6	-46.1	17.8	0.00e+00	0	43	0	390070272	58	4921
2026-01-16 07:54:34.30	47.58	16.29	-43.6	-46.2	17.8	0.00e+00	0	43	0	391118848	58	4929
2026-01-16 07:54:35.30	47.36	16.30	-43.7	-46.3	17.7	0.00e+00	0	44	0	393216000	58	5000
2026-01-16 07:54:36.29	47.14	16.30	-43.6	-46.2	17.7	0.00e+00	0	44	0	395313152	58	4974
2026-01-16 07:54:37.30	46.92	16.31	-43.7	-46.2	17.7	0.00e+00	0	44	0	397410304	58	4980
2026-01-16 07:54:38.30	46.70	16.31	-43.6	-46.2	17.8	0.00e+00	0	44	0	399507456	58	4930
2026-01-16 07:54:39.29	46.48	16.32	-43.6	-46.2	17.7	0.00e+00	0	44	0	400556032	58	4970
2026-01-16 07:54:40.29	46.25	16.32	-43.7	-46.3	17.6	0.00e+00	0	44	0	402653184	58	5028
2026-01-16 07:54:41.29	46.03	16.32	-43.8	-46.4	17.5	0.00e+00	0	44	0	404750336	58	5088
2026-01-16 07:54:42.29	45.81	16.33	-43.8	-46.4	17.5	0.00e+00	0	44	0	406847488	58	5090
2026-01-16 07:54:43.29	45.59	16.33	-43.8	-46.3	17.6	0.00e+00	0	44	0	407896064	58	5039
2026-01-16 07:54:44.29	45.37	16.33	-43.5	-46.1	17.9	0.00e+00	0	44	0	409993216	58	4886
2026-01-16 07:54:45.28	45.15	16.33	-43.4	-46.0	18.0	0.00e+00	0	44	0	412090368	58	4818
2026-01-16 07:54:46.28	44.93	16.33	-43.4	-45.9	18.0	0.00e+00	0	44	0	414187520	58	4796
2026-01-16 07:54:47.28	44.71	16.33	-43.5	-46.0	17.9	0.00e+00	0	44	0	416284672	58	4859
2026-01-16 07:54:48.27	44.49	16.33	-43.6	-46.1	17.8	0.00e+00	0	44	0	417333248	58	4912
2026-01-16 07:54:49.27	44.27	16.33	-43.6	-46.3	17.7	0.00e+00	0	44	0	419430400	58	4985
2026-01-16 07:54:50.26	44.05	16.33	-43.6	-46.2	17.7	0.00e+00	0	44	0	421527552	58	4965
2026-01-16 07:54:51.26	43.82	16.33	-43.6	-46.2	17.8	0.00e+00	0	43	0	423624704	58	4928
2026-01-16 07:54:52.27	43.60	16.33	-43.5	-46.1	17.9	0.00e+00	0	44	0	425721856	58	4871
2026-01-16 07:54:53.26	43.38	16.33	-43.6	-46.2	17.8	0.00e+00	0	44	0	426770432	58	4957
2026-01-16 07:54:54.25	43.16	16.33	-43.6	-46.1	17.8	0.00e+00	0	44	0	428867584	58	4905
2026-01-16 07:54:55.25	42.94	16.32	-43.6	-46.1	17.8	0.00e+00	0	44	0	430964736	58	4907
2026-01-16 07:54:56.25	42.72	16.32	-43.6	-46.1	17.9	0.00e+00	0	44	0	433061888	58	4898
2026-01-16 07:54:57.24	42.50	16.32	-43.6	-46.2	17.8	0.00e+00	0	44	0	434110464	58	4929
2026-01-16 07:54:58.24	42.28	16.31	-43.7	-46.3	17.7	0.00e+00	0	44	0	436207616	58	4995
2026-01-16 07:54:59.23	42.06	16.31	-43.7	-46.3	17.7	0.00e+00	0	44	0	438304768	58	5020
2026-01-16 07:55:00.23	41.84	16.30	-43.5	-46.1	17.8	0.00e+00	0	44	0	440401920	58	4887
2026-01-16 07:55:01.23	41.62	16.30	-43.4	-45.9	18.0	0.00e+00	0	44	0	442499072	58	4803
2026-01-16 07:55:02.22	41.40	16.29	-43.4	-46.0	18.0	0.00e+00	0	44	0	443547648	58	4830
2026-01-16 07:55:03.22	41.18	16.29	-43.4	-45.9	18.0	0.00e+00	0	44	0	445644800	58	4796
2026-01-16 07:55:04.22	40.96	16.28	-43.4	-45.9	18.0	0.00e+00	0	44	0	447741952	58	4804
2026-01-16 07:55:05.21	40.74	16.27	-43.4	-45.9	18.1	0.00e+00	0	44	0	449839104	58	4779
2026-01-16 07:55:06.20	40.52	16.26	-43.4	-46.0	18.0	0.00e+00	0	43	0	450887680	58	4819
2026-01-16 07:55:07.20	40.30	16.26	-43.4	-45.9	18.1	0.00e+00	0	44	0	452984832	58	4766
2026-01-16 07:55:08.20	40.08	16.25	-43.4	-46.0	18.0	0.00e+00	0	44	0	455081984	58	4815
2026-01-16 07:55:09.20	39.86	16.24	-43.4	-45.9	18.0	0.00e+00	0	43	0	457179136	58	4797
2026-01-16 07:55:10.20	39.64	16.23	-43.4	-46.0	18.0	0.00e+00	0	44	0	459276288	58	4818
2026-01-16 07:55:11.20	39.42	16.22	-43.4	-45.9	18.0	0.00e+00	0	43	0	460324864	58	4801
2026-01-16 07:55:12.20	39.20	16.21	-43.4	-46.0	18.0	0.00e+00	0	44	0	462422016	58	4821
2026-01-16 07:55:13.20	38.98	16.20	-43.4	-45.9	18.0	0.00e+00	0	44	0	464519168	58	4795
2026-01-16 07:55:14.19	38.76	16.19	-43.3	-45.8	18.1	0.00e+00	0	44	0	466616320	58	4743
2026-01-16 07:55:15.19	38.55	16.18	-43.3	-45.8	18.1	0.00e+00	0	44	0	468713472	58	4730
2026-01-16 07:55:16.19	38.33	16.17	-43.1	-45.6	18.4	0.00e+00	0	43	0	469762048	58	4600
2026-01-16 07:55:17.18	38.11	16.15	-43.0	-45.4	18.5	0.00e+00	0	44	0	471859200	58	4537
2026-01-16 07:55:18.17	37.89	16.14	-43.0	-45.5	18.4	0.00e+00	0	44	0	473956352	57	4822
2026-01-16 07:55:19.16	37.68	16.13	-43.1	-45.6	18.3	0.00e+00	0	44	0	476053504	57	4890
2026-01-16 07:55:20.16	37.46	16.12	-43.0	-45.4	18.4	0.00e+00	0	44	0	477102080	57	4814
2026-01-16 07:55:21.16	37.24	16.10	-43.1	-45.6	18.3	0.00e+00	0	44	0	479199232	57	4878
2026-01-16 07:55:22.16	37.02	16.09	-43.0	-45.5	18.4	0.00e+00	0	44	0	481296384	57	4818
2026-01-16 07:55:23.15	36.81	16.07	-43.1	-45.6	18.3	0.00e+00	0	44	0	483393536	57	4881
2026-01-16 07:55:24.14	36.59	16.06	-43.0	-45.4	18.5	0.00e+00	0	44	0	485490688	57	4798
2026-01-16 07:55:25.14	36.38	16.04	-43.0	-45.4	18.5	0.00e+00	0	44	0	486539264	57	4799
2026-01-16 07:55:26.14	36.16	16.03	-43.0	-45.4	18.5	0.00e+00	0	44	0	488636416	57	4792
2026-01-16 07:55:27.13	35.94	16.01	-42.9	-45.3	18.6	0.00e+00	0	44	0	490733568	57	4747
2026-01-16 07:55:28.12	35.73	15.99	-42.8	-45.3	18.6	0.00e+00	0	44	0	492830720	57	4716
2026-01-16 07:55:29.12	35.51	15.98	-42.9	-45.4	18.5	0.00e+00	0	44	0	493879296	57	4786
2026-01-16 07:55:30.12	35.30	15.96	-43.0	-45.5	18.4	0.00e+00	0	44	0	495976448	57	4838
2026-01-16 07:55:31.11	35.08	15.94	-43.1	-45.6	18.3	0.00e+00	0	44	0	498073600	57	4881
2026-01-16 07:55:32.11	34.87	15.92	-43.1	-45.6	18.3	0.00e+00	0	44	0	500170752	57	4923
2026-01-16 07:55:33.10	34.66	15.90	-43.1	-45.6	18.2	0.00e+00	0	44	0	502267904	57	4922
2026-01-16 07:55:34.10	34.44	15.89	-43.1	-45.6	18.3	0.00e+00	0	44	0	503316480	57	4888
2026-01-16 07:55:35.10	34.23	15.87	-43.2	-45.7	18.2	0.00e+00	0	44	0	505413632	57	4939
2026-01-16 07:55:36.09	34.01	15.85	-43.2	-45.7	18.2	0.00e+00	0	44	0	507510784	57	4961
2026-01-16 07:55:37.09	33.80	15.83	-43.3	-45.8	18.1	0.00e+00	0	44	0	509607936	57	5001
2026-01-16 07:55:38.09	33.59	15.81	-43.2	-45.7	18.2	0.00e+00	0	44	0	510656512	57	4943
2026-01-16 07:55:39.09	33.37	15.78	-43.3	-45.8	18.1	0.00e+00	0	44	0	512753664	57	4996
2026-01-16 07:55:40.08	33.16	15.76	-43.2	-45.7	18.2	0.00e+00	0	44	0	514850816	57	4961
2026-01-16 07:55:41.08	32.95	15.74	-43.1	-45.6	18.3	0.00e+00	0	44	0	516947968	57	4904
2026-01-16 07:55:42.08	32.74	15.72	-43.2	-45.7	18.2	0.00e+00	0	43	0	519045120	57	4934
2026-01-16 07:55:43.07	32.53	15.70	-43.2	-45.7	18.2	0.00e+00	0	44	0	520093696	57	4946
2026-01-16 07:55:44.07	32.31	15.67	-43.2	-45.8	18.1	0.00e+00	0	44	0	522190848	57	4988
2026-01-16 07:55:45.06	32.10	15.65	-43.3	-45.8	18.0	0.00e+00	0	43	0	524288000	57	5037
2026-01-16 07:55:46.06	31.89	15.63	-43.4	-46.0	17.9	0.00e+00	0	44	0	526385152	57	5135
2026-01-16 07:55:47.06	31.68	15.60	-43.5	-46.1	17.8	0.00e+00	0	44	0	528482304	57	5178
2026-01-16 07:55:48.06	31.47	15.58	-43.5	-46.1	17.8	0.00e+00	0	44	0	529530880	57	5211
2026-01-16 07:55:49.06	31.26	15.55	-43.5	-46.2	17.7	0.00e+00	0	44	0	531628032	57	5235
2026-01-16 07:55:50.06	31.05	15.53	-43.6	-46.3	17.7	0.00e+00	0	44	0	533725184	57	5289
2026-01-16 07:55:51.05	30.84	15.50	-43.5	-46.2	17.8	0.00e+00	0	44	0	535822336	57	5220
2026-01-16 07:55:52.05	30.64	15.48	-43.7	-46.3	17.6	0.00e+00	0	44	0	536870912	57	5294
2026-01-16 07:55:53.05	30.43	15.45	-43.6	-46.3	17.7	0.00e+00	0	44	0	538968064	58	4987
2026-01-16 07:55:54.04	30.22	15.43	-43.6	-46.2	17.7	0.00e+00	0	44	0	541065216	58	4940
2026-01-16 07:55:55.03	30.02	15.40	-43.7	-46.2	17.7	0.00e+00	0	44	0	543162368	58	4974
2026-01-16 07:55:56.03	29.81	15.37	-43.7	-46.2	17.7	0.00e+00	0	44	0	545259520	58	4972
2026-01-16 07:55:57.02	29.60	15.35	-43.6	-46.2	17.7	0.00e+00	0	44	0	546308096	58	4951
2026-01-16 07:55:58.02	29.40	15.32	-43.6	-46.2	17.7	0.00e+00	0	44	0	548405248	58	4967
2026-01-16 07:55:59.00	29.19	15.29	-43.5	-46.2	17.8	0.00e+00	0	44	0	550502400	58	4931
2026-01-16 07:56:00.00	28.99	15.26	-43.5	-46.1	17.8	0.00e+00	0	44	0	552599552	58	4897
2026-01-16 07:56:01.00	28.78	15.23	-43.4	-46.1	17.8	0.00e+00	0	44	0	553648128	58	4892
2026-01-16 07:56:02.00	28.58	15.20	-43.3	-46.0	17.9	0.00e+00	0	44	0	555745280	58	4832
2026-01-16 07:56:02.99	28.37	15.17	-43.2	-45.9	18.1	0.00e+00	0	44	0	557842432	58	4762
2026-01-16 07:56:03.98	28.17	15.14	-43.1	-45.7	18.2	0.00e+00	0	44	0	559939584	58	4679
2026-01-16 07:56:04.98	27.97	15.11	-43.1	-45.8	18.1	0.00e+00	0	44	0	562036736	58	4724
2026-01-16 07:56:05.97	27.77	15.08	-43.2	-45.8	18.1	0.00e+00	0	44	0	563085312	58	4757
2026-01-16 07:56:06.97	27.56	15.05	-43.2	-45.9	18.0	0.00e+00	0	44	0	565182464	58	4784
2026-01-16 07:56:07.96	27.36	15.02	-43.2	-45.8	18.1	0.00e+00	0	44	0	567279616	58	4733
2026-01-16 07:56:08.96	27.16	14.99	-43.2	-45.9	18.0	0.00e+00	0	44	0	569376768	58	4772
2026-01-16 07:56:09.96	26.96	14.96	-43.3	-45.9	18.0	0.00e+00	0	44	0	570425344	58	4812
2026-01-16 07:56:10.96	26.76	14.93	-43.2	-45.9	18.1	0.00e+00	0	44	0	572522496	58	4766
2026-01-16 07:56:11.96	26.56	14.89	-43.3	-45.9	18.0	0.00e+00	0	44	0	574619648	58	4793
2026-01-16 07:56:12.96	26.36	14.86	-43.3	-45.9	18.0	0.00e+00	0	44	0	576716800	58	4793
2026-01-16 07:56:13.96	26.16	14.83	-43.3	-45.8	18.1	0.00e+00	0	44	0	578813952	58	4747
2026-01-16 07:56:14.95	25.96	14.80	-43.3	-45.9	18.1	0.00e+00	0	44	0	579862528	58	4774
2026-01-16 07:56:15.95	25.76	14.76	-43.2	-45.8	18.2	0.00e+00	0	44	0	581959680	58	4708
2026-01-16 07:56:16.94	25.56	14.73	-43.2	-45.7	18.2	0.00e+00	0	44	0	584056832	58	4701
2026-01-16 07:56:17.94	25.36	14.69	-43.3	-45.8	18.1	0.00e+00	0	44	0	586153984	58	4751
2026-01-16 07:56:18.94	25.17	14.66	-43.3	-45.9	18.1	0.00e+00	0	44	0	587202560	58	4767
2026-01-16 07:56:19.94	24.97	14.62	-43.3	-45.9	18.0	0.00e+00	0	44	0	589299712	58	4810
2026-01-16 07:56:20.94	24.77	14.59	-43.3	-45.9	18.0	0.00e+00	0	44	0	591396864	58	4809
2026-01-16 07:56:21.94	24.58	14.55	-43.4	-46.1	17.9	0.00e+00	0	44	0	593494016	58	4880
2026-01-16 07:56:22.93	24.38	14.52	-43.4	-46.0	17.9	0.00e+00	0	44	0	595591168	58	4866
2026-01-16 07:56:23.93	24.19	14.48	-43.3	-46.0	17.9	0.00e+00	0	44	0	596639744	58	4821
2026-01-16 07:56:24.93	23.99	14.45	-43.2	-45.9	18.0	0.00e+00	0	44	0	598736896	58	4772
2026-01-16 07:56:25.92	23.80	14.41	-43.2	-45.7	18.2	0.00e+00	0	44	0	600834048	58	4700
2026-01-16 07:56:26.92	23.61	14.37	-43.3	-46.0	18.0	0.00e+00	0	44	0	602931200	58	4821
2026-01-16 07:56:27.92	23.41	14.34	-43.2	-45.8	18.1	0.00e+00	0	44	0	605028352	58	4714
2026-01-16 07:56:28.91	23.22	14.30	-43.3	-45.9	18.0	0.00e+00	0	44	0	606076928	58	4785
2026-01-16 07:56:29.91	23.03	14.26	-43.3	-45.9	18.0	0.00e+00	0	44	0	608174080	58	4794
2026-01-16 07:56:30.91	22.84	14.22	-43.4	-46.0	17.9	0.00e+00	0	44	0	610271232	58	4843
2026-01-16 07:56:31.91	22.65	14.19	-43.5	-46.1	17.8	0.00e+00	0	44	0	612368384	58	4897
2026-01-16 07:56:32.90	22.46	14.15	-43.6	-46.2	17.8	0.00e+00	0	44	0	614465536	58	4935
2026-01-16 07:56:33.90	22.27	14.11	-43.6	-46.1	17.8	0.00e+00	0	44	0	615514112	58	4912
2026-01-16 07:56:34.90	22.08	14.07	-43.5	-46.0	17.8	0.00e+00	0	44	0	617611264	58	4870
2026-01-16 07:56:35.90	21.89	14.03	-43.4	-46.0	17.9	0.00e+00	0	44	0	619708416	58	4827
2026-01-16 07:56:36.90	21.70	13.99	-43.4	-46.0	17.9	0.00e+00	0	44	0	621805568	58	4836
2026-01-16 07:56:37.89	21.51	13.95	-43.4	-46.0	17.9	0.00e+00	0	44	0	622854144	58	4837
2026-01-16 07:56:38.89	21.32	13.91	-43.4	-46.0	17.9	0.00e+00	0	44	0	624951296	58	4834
2026-01-16 07:56:39.89	21.14	13.87	-43.4	-46.1	17.8	0.00e+00	0	44	0	627048448	58	4906
2026-01-16 07:56:40.88	20.95	13.83	-43.6	-46.3	17.6	0.00e+00	0	44	0	629145600	58	5034
2026-01-16 07:56:41.88	20.77	13.79	-43.7	-46.5	17.4	0.00e+00	0	44	0	631242752	58	5131
2026-01-16 07:56:42.88	20.58	13.75	-43.7	-46.6	17.3	0.00e+00	0	44	0	632291328	58	5212
2026-01-16 07:56:43.87	20.40	13.71	-43.8	-46.7	17.2	0.00e+00	0	44	0	634388480	58	5255
2026-01-16 07:56:44.87	20.21	13.67	-43.9	-46.9	17.0	0.00e+00	0	44	0	636485632	58	5364
2026-01-16 07:56:45.87	20.03	13.63	-43.8	-46.8	17.0	0.00e+00	0	44	0	638582784	58	5325
2026-01-16 07:56:46.86	19.85	13.59	-43.9	-46.9	17.0	0.00e+00	0	44	0	639631360	58	5383
2026-01-16 07:56:47.86	19.66	13.54	-43.9	-46.9	17.0	0.00e+00	0	44	0	641728512	58	5395
2026-01-16 07:56:48.86	19.48	13.50	-44.0	-47.0	17.0	0.00e+00	0	44	0	643825664	58	5418
2026-01-16 07:56:49.86	19.30	13.46	-44.0	-46.9	17.0	0.00e+00	0	44	0	645922816	58	5370
2026-01-16 07:56:50.85	19.12	13.42	-44.1	-47.0	17.0	0.00e+00	0	44	0	648019968	58	5408
2026-01-16 07:56:51.85	18.94	13.38	-44.1	-47.0	17.0	0.00e+00	0	44	0	649068544	58	5410
2026-01-16 07:56:52.85	18.76	13.33	-44.2	-47.0	16.9	0.00e+00	0	44	0	651165696	59	5135
2026-01-16 07:56:53.85	18.58	13.29	-44.3	-47.2	16.8	0.00e+00	0	44	0	653262848	59	5226
2026-01-16 07:56:54.84	18.40	13.25	-44.3	-47.1	16.8	0.00e+00	0	44	0	655360000	59	5185
2026-01-16 07:56:55.84	18.22	13.20	-44.4	-47.3	16.6	0.00e+00	0	44	0	656408576	59	5300
2026-01-16 07:56:56.84	18.04	13.16	-44.5	-47.4	16.5	0.00e+00	0	44	0	658505728	59	5350
2026-01-16 07:56:57.83	17.87	13.12	-44.6	-47.6	16.3	0.00e+00	0	44	0	660602880	59	5494
2026-01-16 07:56:58.84	17.69	13.07	-44.7	-47.7	16.3	0.00e+00	0	44	0	662700032	60	5220
2026-01-16 07:56:59.83	17.51	13.03	-44.8	-47.8	16.2	0.00e+00	0	44	0	664797184	60	5298
2026-01-16 07:57:00.83	17.34	12.98	-44.8	-47.8	16.2	0.00e+00	0	44	0	665845760	60	5332
2026-01-16 07:57:01.83	17.16	12.94	-44.9	-47.9	16.0	0.00e+00	0	44	0	667942912	60	5397
2026-01-16 07:57:02.82	16.99	12.89	-44.9	-48.1	15.9	0.00e+00	0	44	0	670040064	60	5474
2026-01-16 07:57:03.82	16.81	12.85	-44.8	-48.2	15.8	0.00e+00	0	44	0	672137216	60	5551
2026-01-16 07:57:04.82	16.64	12.80	-44.8	-48.2	15.8	0.00e+00	0	44	0	674234368	60	5556
2026-01-16 07:57:05.81	16.47	12.76	-44.7	-48.2	15.8	0.00e+00	0	44	0	675282944	60	5547
2026-01-16 07:57:06.81	16.29	12.71	-44.6	-48.2	15.7	0.00e+00	0	44	0	677380096	60	5584
2026-01-16 07:57:07.81	16.12	12.67	-44.5	-48.1	15.9	0.00e+00	0	44	0	679477248	60	5475
2026-01-16 07:57:08.80	15.95	12.62	-44.4	-47.8	16.1	0.00e+00	0	44	0	681574400	60	5333
2026-01-16 07:57:09.79	15.78	12.58	-44.3	-47.8	16.2	0.00e+00	0	44	0	682622976	60	5314
2026-01-16 07:57:10.79	15.61	12.53	-44.3	-47.8	16.1	0.00e+00	0	44	0	684720128	60	5330
2026-01-16 07:57:11.79	15.44	12.48	-44.4	-48.1	15.9	0.00e+00	0	44	0	686817280	60	5479
2026-01-16 07:57:12.78	15.27	12.44	-44.5	-48.2	15.8	0.00e+00	0	44	0	688914432	60	5558
2026-01-16 07:57:13.77	15.10	12.39	-44.6	-48.4	15.6	0.00e+00	0	44	0	691011584	60	5694
2026-01-16 07:57:14.77	14.94	12.34	-44.7	-48.6	15.3	0.00e+00	0	44	0	692060160	60	5837
2026-01-16 07:57:15.76	14.77	12.30	-44.7	-48.7	15.2	0.00e+00	0	44	0	694157312	60	5892
2026-01-16 07:57:16.76	14.60	12.25	-44.7	-48.7	15.2	0.00e+00	0	44	0	696254464	60	5900
2026-01-16 07:57:17.75	14.44	12.20	-44.8	-48.8	15.1	0.00e+00	0	44	0	698351616	60	5934
2026-01-16 07:57:18.75	14.27	12.16	-44.7	-48.6	15.3	0.00e+00	0	44	0	700448768	60	5850
2026-01-16 07:57:19.75	14.10	12.11	-44.9	-48.7	15.2	1.50e-06	0	44	0	701497344	60	5883
2026-01-16 07:57:20.75	13.94	12.06	-45.0	-48.7	15.3	0.00e+00	0	43	0	703594496	60	5872
2026-01-16 07:57:21.74	13.78	12.01	-45.0	-48.6	15.4	0.00e+00	0	44	0	705691648	60	5814
2026-01-16 07:57:22.74	13.61	11.96	-45.1	-48.7	15.2	0.00e+00	0	44	0	707788800	60	5900
2026-01-16 07:57:23.74	13.45	11.92	-45.1	-48.7	15.2	0.00e+00	0	44	0	708837376	60	5903
2026-01-16 07:57:24.73	13.29	11.87	-45.2	-48.8	15.1	0.00e+00	0	44	0	710934528	61	5633
2026-01-16 07:57:25.73	13.12	11.82	-45.2	-48.9	15.0	7.00e-07	0	44	0	713031680	61	5664
2026-01-16 07:57:26.73	12.96	11.77	-45.2	-48.8	15.1	0.00e+00	0	44	0	715128832	61	5633
2026-01-16 07:57:27.72	12.80	11.72	-45.2	-49.0	14.9	0.00e+00	0	44	0	717225984	61	5733
2026-01-16 07:57:28.72	12.64	11.67	-45.2	-49.0	14.9	0.00e+00	0	44	0	718274560	61	5752
2026-01-16 07:57:29.72	12.48	11.63	-45.3	-49.0	14.8	0.00e+00	0	44	0	720371712	61	5787
2026-01-16 07:57:30.71	12.32	11.58	-45.2	-48.9	15.0	0.00e+00	0	44	0	722468864	61	5662
2026-01-16 07:57:31.71	12.16	11.53	-45.2	-48.9	15.0	0.00e+00	0	44	0	724566016	61	5689
2026-01-16 07:57:32.70	12.01	11.48	-45.3	-49.0	14.9	0.00e+00	0	44	0	725614592	61	5765
2026-01-16 07:57:33.70	11.85	11.43	-45.2	-48.9	15.0	0.00e+00	0	44	0	727711744	61	5681
2026-01-16 07:57:34.70	11.69	11.38	-45.1	-48.8	15.1	0.00e+00	0	44	0	729808896	61	5652
2026-01-16 07:57:35.69	11.54	11.33	-44.9	-48.7	15.2	0.00e+00	0	44	0	731906048	61	5556
2026-01-16 07:57:36.68	11.38	11.28	-44.8	-48.6	15.3	0.00e+00	0	44	0	734003200	61	5512
2026-01-16 07:57:37.68	11.22	11.23	-44.8	-48.8	15.2	0.00e+00	0	44	0	735051776	61	5593
2026-01-16 07:57:38.68	11.07	11.18	-44.8	-48.9	15.1	0.00e+00	0	44	0	737148928	61	5665
2026-01-16 07:57:39.68	10.91	11.13	-44.7	-48.8	15.1	0.00e+00	0	44	0	739246080	61	5621
2026-01-16 07:57:40.67	10.76	11.08	-44.8	-48.9	15.0	1.50e-06	0	44	0	741343232	61	5708
2026-01-16 07:57:41.67	10.61	11.03	-44.7	-48.8	15.1	0.00e+00	0	44	0	742391808	61	5633
2026-01-16 07:57:42.67	10.45	10.98	-44.6	-48.6	15.3	0.00e+00	0	44	0	744488960	61	5489
2026-01-16 07:57:43.67	10.30	10.93	-44.5	-48.5	15.4	0.00e+00	0	44	0	746586112	61	5454
2026-01-16 07:57:44.66	10.15	10.88	-44.3	-48.4	15.6	0.00e+00	0	44	0	748683264	60	5672
2026-01-16 07:57:45.65	10.00	10.83	-44.0	-48.1	15.8	0.00e+00	0	44	0	750780416	60	5525
2026-01-16 07:57:46.65	9.85	10.78	-44.0	-48.1	15.7	0.00e+00	0	44	0	751828992	59	5806
2026-01-16 07:57:47.64	9.70	10.73	-43.9	-48.0	15.8	0.00e+00	0	44	0	753926144	59	5764
2026-01-16 07:57:48.64	9.55	10.68	-43.9	-48.1	15.7	0.00e+00	0	44	0	756023296	59	5809
2026-01-16 07:57:49.64	9.40	10.63	-43.8	-48.0	15.9	0.00e+00	0	44	0	758120448	59	5725
2026-01-16 07:57:50.63	9.25	10.58	-43.8	-48.0	15.8	0.00e+00	0	44	0	759169024	59	5777
2026-01-16 07:57:51.63	9.10	10.53	-43.9	-48.0	15.9	0.00e+00	0	44	0	761266176	59	5748
2026-01-16 07:57:52.63	8.96	10.47	-44.1	-48.1	15.8	0.00e+00	0	44	0	763363328	59	5820
2026-01-16 07:57:53.63	8.81	10.42	-44.2	-48.1	15.8	0.00e+00	0	44	0	765460480	59	5820
2026-01-16 07:57:54.63	8.66	10.37	-44.1	-47.9	15.9	0.00e+00	0	44	0	767557632	59	5694
2026-01-16 07:57:55.62	8.52	10.32	-44.1	-47.9	15.9	0.00e+00	0	44	0	768606208	59	5701
2026-01-16 07:57:56.62	8.37	10.27	-44.1	-47.9	15.9	0.00e+00	0	44	0	770703360	59	5694
2026-01-16 07:57:57.62	8.22	10.22	-44.2	-48.0	15.8	0.00e+00	0	44	0	772800512	59	5782
2026-01-16 07:57:58.62	8.08	10.17	-44.3	-48.2	15.7	0.00e+00	0	44	0	774897664	59	5856
2026-01-16 07:57:59.61	7.94	10.11	-44.1	-47.8	16.0	0.00e+00	0	44	0	776994816	59	5593
2026-01-16 07:58:00.60	7.79	10.06	-44.2	-47.6	16.2	0.00e+00	0	44	0	778043392	59	5527
2026-01-16 07:58:01.60	7.65	10.01	-44.2	-47.6	16.2	0.00e+00	0	44	0	780140544	59	5491
2026-01-16 07:58:02.60	7.51	9.96	-44.3	-47.6	16.2	0.00e+00	0	44	0	782237696	59	5511
2026-01-16 07:58:03.60	7.37	9.91	-44.3	-47.5	16.3	0.00e+00	0	44	0	784334848	59	5462
2026-01-16 07:58:04.59	7.23	9.86	-44.2	-47.4	16.4	0.00e+00	0	44	0	785383424	59	5347
2026-01-16 07:58:05.59	7.08	9.80	-44.0	-47.1	16.7	0.00e+00	0	44	0	787480576	59	5172
2026-01-16 07:58:06.59	6.94	9.75	-44.1	-47.2	16.6	0.00e+00	0	44	0	789577728	59	5221
2026-01-16 07:58:07.58	6.81	9.70	-44.1	-47.2	16.6	0.00e+00	0	44	0	791674880	59	5239
2026-01-16 07:58:08.58	6.67	9.65	-43.9	-47.0	16.8	0.00e+00	0	44	0	793772032	59	5121
2026-01-16 07:58:09.57	6.53	9.60	-43.9	-47.0	16.8	0.00e+00	0	44	0	794820608	59	5123
2026-01-16 07:58:10.57	6.39	9.54	-43.8	-47.0	16.8	0.00e+00	0	44	0	796917760	59	5134
2026-01-16 07:58:11.56	6.25	9.49	-43.6	-46.9	16.9	0.00e+00	0	44	0	799014912	59	5062
2026-01-16 07:58:12.56	6.11	9.44	-43.6	-46.9	16.9	0.00e+00	0	44	0	801112064	59	5053
2026-01-16 07:58:13.55	5.98	9.39	-43.5	-46.8	17.0	0.00e+00	0	44	0	803209216	58	5312
2026-01-16 07:58:14.55	5.84	9.33	-43.4	-46.7	17.1	0.00e+00	0	44	0	804257792	58	5236
2026-01-16 07:58:15.55	5.71	9.28	-43.5	-46.7	17.1	0.00e+00	0	44	0	806354944	58	5247
2026-01-16 07:58:16.54	5.57	9.23	-43.5	-46.7	17.1	0.00e+00	0	44	0	808452096	58	5222
2026-01-16 07:58:17.53	5.44	9.18	-43.4	-46.5	17.3	0.00e+00	0	44	0	810549248	58	5132
2026-01-16 07:58:18.53	5.30	9.12	-43.4	-46.5	17.2	0.00e+00	0	44	0	811597824	58	5152
2026-01-16 07:58:19.53	5.17	9.07	-43.4	-46.5	17.3	0.00e+00	0	44	0	813694976	58	5128
2026-01-16 07:58:20.52	5.04	9.02	-43.8	-47.1	16.8	0.00e+00	0	44	0	815792128	58	5482
2026-01-16 07:58:21.52	4.90	8.97	-48.9	-65.2	3.9	1.15e+00	0	44	104	816840704	68	24910
2026-01-16 07:58:22.52	4.77	8.91	-48.7	-65.2	3.8	1.49e+00	0	44	104	816840704	68	24697
2026-01-16 07:58:23.52	4.64	8.86	-49.6	-65.4	3.8	1.49e+00	0	44	104	816840704	69	23939
2026-01-16 07:58:24.52	4.51	8.81	-49.4	-65.5	3.8	1.49e+00	0	44	104	816840704	69	24289
2026-01-16 07:58:25.52	4.38	8.75	-49.7	-65.6	3.8	1.49e+00	0	44	104	816840704	70	23174
2026-01-16 07:58:26.51	4.25	8.70	-50.2	-65.6	3.8	1.49e+00	0	44	104	816840704	71	21914
2026-01-16 07:58:27.50	4.12	8.65	-50.1	-65.7	3.8	1.49e+00	0	44	104	816840704	71	22103
2026-01-16 07:58:28.50	3.99	8.60	-50.3	-65.7	3.8	1.49e+00	0	44	104	816840704	71	22093
2026-01-16 07:58:29.50	3.86	8.54	-50.2	-65.7	3.8	1.49e+00	0	44	104	816840704	71	22186
2026-01-16 07:58:30.50	3.73	8.49	-50.4	-65.8	3.8	1.49e+00	0	44	104	816840704	71	22275
2026-01-16 07:58:31.50	3.60	8.44	-50.3	-65.7	3.8	1.49e+00	0	44	104	816840704	71	22255
2026-01-16 07:58:32.50	3.47	8.38	-50.3	-65.8	3.8	1.49e+00	0	44	104	816840704	71	22301
2026-01-16 07:58:33.49	3.35	8.33	-50.5	-65.8	3.8	1.49e+00	0	44	104	816840704	71	22322
2026-01-16 07:58:34.49	3.22	8.28	-50.6	-65.8	3.8	1.49e+00	0	44	104	816840704	71	22362
2026-01-16 07:58:35.49	3.09	8.22	-50.4	-65.8	3.8	1.49e+00	0	44	104	816840704	71	22417
2026-01-16 07:58:36.49	2.97	8.17	-50.6	-65.8	3.8	1.49e+00	0	44	104	816840704	71	22433
2026-01-16 07:58:37.48	2.84	8.12	-50.4	-65.9	3.8	1.49e+00	0	44	104	816840704	71	22529
2026-01-16 07:58:38.48	2.72	8.06	-50.3	-65.8	3.8	1.49e+00	0	44	104	816840704	71	22462
2026-01-16 07:58:39.48	2.60	8.01	-50.3	-65.9	3.8	1.49e+00	0	44	104	816840704	71	22540
2026-01-16 07:58:40.48	2.47	7.96	-50.6	-65.8	3.8	1.49e+00	0	44	104	816840704	71	22416
2026-01-16 07:58:41.48	2.35	7.90	-50.6	-65.8	3.8	1.49e+00	0	44	104	816840704	71	22428
2026-01-16 07:58:42.47	2.23	7.85	-50.6	-65.8	3.8	1.49e+00	0	44	104	816840704	71	22460
2026-01-16 07:58:43.47	2.10	7.80	-50.6	-65.8	3.8	1.49e+00	0	44	104	816840704	71	22456
2026-01-16 07:58:44.46	1.98	7.75	-50.5	-65.8	3.8	1.49e+00	0	44	104	816840704	71	22378
2026-01-16 07:58:45.46	1.86	7.69	-50.5	-65.8	3.8	1.49e+00	0	44	104	816840704	71	22447
2026-01-16 07:58:46.46	1.74	7.64	-50.5	-65.8	3.8	1.49e+00	0	44	104	816840704	71	22473
2026-01-16 07:58:47.46	1.62	7.59	-50.5	-65.8	3.8	1.49e+00	0	44	104	816840704	71	22417
2026-01-16 07:58:48.46	1.50	7.53	-50.3	-65.8	3.8	1.49e+00	0	44	104	816840704	71	22456
2026-01-16 07:58:49.46	1.38	7.48	-50.1	-65.7	3.8	1.49e+00	0	44	104	816840704	71	22251
2026-01-16 07:58:50.45	1.26	7.43	-50.1	-65.7	3.8	1.49e+00	0	44	104	816840704	71	22236
2026-01-16 07:58:51.45	1.14	7.37	-50.1	-65.8	3.8	1.49e+00	0	44	104	816840704	71	22299
2026-01-16 07:58:52.44	1.02	7.32	-50.1	-65.8	3.8	1.49e+00	0	44	104	816840704	71	22321
2026-01-16 07:58:53.44	0.91	7.27	-50.1	-65.8	3.8	1.49e+00	0	44	104	816840704	71	22328
2026-01-16 07:58:54.43	0.79	7.21	-50.1	-65.8	3.8	1.49e+00	0	44	104	816840704	71	22338
2026-01-16 07:58:55.43	0.67	7.16	-50.1	-65.8	3.8	1.49e+00	0	44	104	816840704	71	22305
2026-01-16 07:58:56.43	0.56	7.11	-50.1	-65.7	3.8	1.49e+00	0	44	104	816840704	71	22236
2026-01-16 07:58:57.42	0.44	7.05	-50.1	-65.8	3.8	1.49e+00	0	44	104	816840704	71	22336
2026-01-16 07:58:58.42	0.32	7.00	-50.1	-65.8	3.8	1.49e+00	0	44	104	816840704	71	22342
2026-01-16 07:58:59.42	0.21	6.95	-50.1	-65.8	3.8	1.49e+00	0	44	104	816840704	71	22264
2026-01-16 07:59:00.41	0.09	6.89	-50.1	-65.8	3.8	1.49e+00	0	44	104	816840704	71	22320
2026-01-16 07:59:01.41	359.98	6.84	-50.1	-65.8	3.8	1.49e+00	0	44	104	816840704	71	22276
2026-01-16 07:59:02.40	359.87	6.79	-50.1	-65.8	3.8	1.49e+00	0	44	104	816840704	71	22341
2026-01-16 07:59:03.40	359.75	6.73	-50.1	-65.8	3.8	1.49e+00	0	44	104	816840704	71	22284
2026-01-16 07:59:04.39	359.64	6.68	-50.1	-65.7	3.8	1.49e+00	0	44	104	816840704	71	22220
2026-01-16 07:59:05.39	359.53	6.63	-50.1	-65.8	3.8	1.49e+00	0	44	104	816840704	71	22269
2026-01-16 07:59:06.39	359.42	6.57	-50.1	-65.7	3.8	1.49e+00	0	44	104	816840704	71	22243
2026-01-16 07:59:07.38	359.31	6.52	-50.1	-65.7	3.8	1.49e+00	0	44	104	816840704	71	22245
2026-01-16 07:59:08.38	359.19	6.47	-50.1	-65.8	3.8	1.49e+00	0	44	104	816840704	71	22290
2026-01-16 07:59:09.38	359.08	6.41	-50.1	-65.8	3.8	1.49e+00	0	44	104	816840704	71	22341
2026-01-16 07:59:10.37	358.97	6.36	-50.1	-65.8	3.8	1.49e+00	0	44	104	816840704	71	22330
2026-01-16 07:59:11.36	358.86	6.31	-50.1	-65.7	3.8	1.49e+00	0	44	104	816840704	71	22259
2026-01-16 07:59:12.37	358.75	6.25	-50.1	-65.8	3.8	1.49e+00	0	44	104	816840704	71	22319
2026-01-16 07:59:13.36	358.64	6.20	-50.1	-65.8	3.8	1.49e+00	0	44	104	816840704	71	22324
2026-01-16 07:59:14.36	358.54	6.15	-50.1	-65.7	3.8	1.49e+00	0	44	104	816840704	71	22207
2026-01-16 07:59:15.36	358.43	6.09	-50.1	-65.8	3.8	1.49e+00	0	44	104	816840704	71	22275
2026-01-16 07:59:16.36	358.32	6.04	-50.1	-65.7	3.8	1.49e+00	0	44	104	816840704	71	22254
2026-01-16 07:59:17.35	358.21	5.99	-50.1	-65.7	3.8	1.49e+00	0	44	104	816840704	71	22213
2026-01-16 07:59:18.35	358.10	5.93	-50.1	-65.7	3.8	1.49e+00	0	44	104	816840704	71	22242
2026-01-16 07:59:19.34	358.00	5.88	-50.1	-65.7	3.8	1.49e+00	0	44	104	816840704	71	22198
2026-01-16 07:59:20.34	357.89	5.83	-50.1	-65.7	3.8	1.49e+00	0	44	104	816840704	71	22247
2026-01-16 07:59:21.34	357.79	5.77	-50.1	-65.7	3.8	1.49e+00	0	44	104	816840704	71	22249
2026-01-16 07:59:22.33	357.68	5.72	-50.1	-65.8	3.8	1.49e+00	0	44	104	816840704	71	22321
2026-01-16 07:59:23.33	357.57	5.67	-50.1	-65.8	3.8	1.49e+00	0	44	104	816840704	71	22279
2026-01-16 07:59:24.32	357.47	5.61	-50.1	-65.8	3.8	1.49e+00	0	44	104	816840704	71	22301
2026-01-16 07:59:25.32	357.37	5.56	-50.1	-65.7	3.8	1.49e+00	0	44	104	816840704	71	22176
2026-01-16 07:59:26.32	357.26	5.51	-50.1	-65.7	3.8	1.49e+00	0	44	104	816840704	71	22159
2026-01-16 07:59:27.30	357.16	5.46	-50.1	-65.7	3.8	1.49e+00	0	44	104	816840704	71	22156
2026-01-16 07:59:28.29	357.06	5.40	-50.1	-65.7	3.8	1.49e+00	0	44	104	816840704	71	22206
2026-01-16 07:59:29.29	356.95	5.35	-50.1	-65.7	3.8	1.49e+00	0	44	104	816840704	71	22247
2026-01-16 07:59:30.29	356.85	5.30	-50.1	-65.7	3.8	1.49e+00	0	44	104	816840704	71	22159
2026-01-16 07:59:31.28	356.75	5.24	-50.1	-65.7	3.8	1.49e+00	0	44	104	816840704	71	22170
2026-01-16 07:59:32.28	356.65	5.19	-50.1	-65.8	3.8	1.49e+00	0	44	104	816840704	71	22288
2026-01-16 07:59:33.28	356.55	5.14	-50.1	-65.7	3.8	1.49e+00	0	44	104	816840704	71	22202
2026-01-16 07:59:34.28	356.45	5.09	-50.1	-65.7	3.8	1.49e+00	0	44	104	816840704	71	22227
2026-01-16 07:59:35.27	356.35	5.03	-50.1	-65.7	3.8	1.49e+00	0	44	104	816840704	71	22258
2026-01-16 07:59:36.27	356.25	4.98	-50.1	-65.7	3.8	1.49e+00	0	44	104	816840704	71	22216

#Closed at: 2026-01-16 07:59:37
#Recorded file [816 MB]: D:/Data/31040_260116_105001.dat