passes_logs/2026/01/16/T1/T1__20260116_063959_KHAYYAM_rec.log

#Pass ID: 20260116_063959_KHAYYAM
#Satellite: KHAYYAM
#Configuration: KHAYYAM_480M
#almurnet v.1.7.20251203
#Start time: 2026-01-16 06:40:00

#Version: 2.0.20230620
#Station: T1
#Location: 37.570604 lon 55.790049 lat
#TLE: 1 53370U 22096A   26016.00690779  .00002446  00000+0  10212-3 0  9994
#TLE: 2 53370  97.3563 282.9987 0001571 107.4069 252.7341 15.24584174191397

#Time	Az	El	Level	Level2	SNR	BER	BlckErr	Temp	State	Recorded	gain1	gain2
2026-01-16 06:40:00.76	116.61	5.05	-52.4	-56.8	3.6	0.00e+00	0	46	0	0	76	23871
2026-01-16 06:40:01.75	116.50	5.12	-52.4	-56.8	3.6	0.00e+00	0	46	104	0	75	25257
2026-01-16 06:40:02.75	116.38	5.18	-52.4	-56.8	3.7	0.00e+00	0	46	104	0	75	25238
2026-01-16 06:40:03.74	116.26	5.25	-52.4	-56.8	3.7	0.00e+00	0	46	104	0	75	25234
2026-01-16 06:40:04.73	116.15	5.32	-52.4	-56.8	3.7	0.00e+00	0	46	104	0	75	25278
2026-01-16 06:40:05.73	116.03	5.39	-52.3	-56.8	3.7	0.00e+00	0	46	104	0	75	25163
2026-01-16 06:40:06.72	115.91	5.46	-52.4	-56.8	3.7	0.00e+00	0	46	104	0	75	25299
2026-01-16 06:40:07.71	115.79	5.53	-52.4	-56.8	3.7	0.00e+00	0	46	104	0	75	25266
2026-01-16 06:40:08.71	115.67	5.60	-52.4	-56.8	3.7	0.00e+00	0	46	104	0	75	25329
2026-01-16 06:40:09.70	115.55	5.67	-52.3	-56.8	3.7	0.00e+00	0	47	104	0	75	25214
2026-01-16 06:40:10.69	115.43	5.74	-52.4	-56.8	3.7	0.00e+00	0	47	104	0	75	25241
2026-01-16 06:40:11.69	115.30	5.81	-52.3	-56.8	3.7	0.00e+00	0	47	104	0	75	25311
2026-01-16 06:40:12.68	115.18	5.88	-52.3	-56.8	3.7	0.00e+00	0	47	104	0	75	25257
2026-01-16 06:40:13.67	115.06	5.95	-52.4	-56.8	3.7	0.00e+00	0	47	104	0	75	25146
2026-01-16 06:40:14.67	114.93	6.02	-52.4	-56.8	3.7	0.00e+00	0	47	104	0	75	25305
2026-01-16 06:40:15.66	114.81	6.09	-52.4	-56.8	3.7	0.00e+00	0	47	104	0	75	25279
2026-01-16 06:40:16.65	114.68	6.16	-52.4	-56.8	3.7	0.00e+00	0	47	104	0	75	25243
2026-01-16 06:40:17.65	114.55	6.23	-52.3	-56.8	3.7	0.00e+00	0	47	104	0	75	25242
2026-01-16 06:40:18.64	114.42	6.30	-52.4	-56.8	3.7	0.00e+00	0	47	104	0	75	25255
2026-01-16 06:40:19.64	114.30	6.37	-52.3	-56.8	3.7	0.00e+00	0	47	104	0	75	25259
2026-01-16 06:40:20.63	114.17	6.44	-52.4	-56.8	3.7	0.00e+00	0	47	104	0	75	25194
2026-01-16 06:40:21.62	114.04	6.52	-52.3	-56.8	3.7	0.00e+00	0	47	104	0	75	25227
2026-01-16 06:40:22.61	113.90	6.59	-52.4	-56.8	3.7	0.00e+00	0	47	104	0	75	25281
2026-01-16 06:40:23.61	113.77	6.66	-52.3	-56.8	3.7	0.00e+00	0	48	104	0	75	25161
2026-01-16 06:40:24.60	113.64	6.73	-52.3	-56.8	3.7	0.00e+00	0	48	104	0	75	25272
2026-01-16 06:40:25.59	113.51	6.80	-52.4	-56.8	3.7	0.00e+00	0	48	104	0	75	25274
2026-01-16 06:40:26.59	113.37	6.88	-52.4	-56.8	3.7	0.00e+00	0	48	104	0	75	25224
2026-01-16 06:40:27.58	113.24	6.95	-52.3	-56.8	3.7	0.00e+00	0	48	104	0	75	25235
2026-01-16 06:40:28.57	113.10	7.02	-52.4	-56.8	3.7	0.00e+00	0	48	104	0	75	25282
2026-01-16 06:40:29.57	112.96	7.09	-52.4	-56.8	3.7	0.00e+00	0	48	104	0	75	25228
2026-01-16 06:40:30.56	112.82	7.17	-52.3	-56.8	3.7	0.00e+00	0	48	104	0	75	25150
2026-01-16 06:40:31.55	112.68	7.24	-52.4	-56.8	3.7	0.00e+00	0	48	104	0	75	25178
2026-01-16 06:40:32.55	112.54	7.31	-52.3	-56.8	3.7	0.00e+00	0	48	104	0	75	25197
2026-01-16 06:40:33.54	112.40	7.38	-52.3	-56.8	3.7	0.00e+00	0	48	104	0	75	25224
2026-01-16 06:40:34.53	112.26	7.46	-52.3	-56.8	3.7	0.00e+00	0	48	104	0	75	25250
2026-01-16 06:40:35.53	112.12	7.53	-52.4	-56.8	3.7	0.00e+00	0	48	104	0	75	25160
2026-01-16 06:40:36.52	111.98	7.61	-52.4	-56.8	3.7	0.00e+00	0	48	104	0	75	25203
2026-01-16 06:40:37.52	111.83	7.68	-52.3	-56.8	3.7	0.00e+00	0	48	104	0	75	25213
2026-01-16 06:40:38.51	111.68	7.75	-52.4	-56.8	3.7	0.00e+00	0	48	104	0	75	25267
2026-01-16 06:40:39.50	111.54	7.83	-52.3	-56.8	3.7	0.00e+00	0	48	104	0	75	25227
2026-01-16 06:40:40.50	111.39	7.90	-52.3	-56.8	3.7	0.00e+00	0	49	104	0	75	25248
2026-01-16 06:40:41.49	111.24	7.98	-52.3	-56.8	3.7	0.00e+00	0	48	104	0	75	25124
2026-01-16 06:40:42.48	111.09	8.05	-52.3	-56.8	3.7	0.00e+00	0	49	104	0	75	25127
2026-01-16 06:40:43.48	110.94	8.13	-52.4	-56.8	3.7	0.00e+00	0	49	104	0	75	25165
2026-01-16 06:40:44.47	110.79	8.20	-52.3	-56.8	3.7	0.00e+00	0	49	104	0	75	25215
2026-01-16 06:40:45.46	110.64	8.28	-52.3	-56.8	3.7	0.00e+00	0	49	104	0	75	25186
2026-01-16 06:40:46.46	110.49	8.35	-52.3	-56.8	3.7	0.00e+00	0	49	104	0	75	25204
2026-01-16 06:40:47.45	110.33	8.43	-52.3	-56.7	3.7	0.00e+00	0	49	104	0	75	25066
2026-01-16 06:40:48.44	110.18	8.50	-52.3	-56.7	3.7	0.00e+00	0	49	104	0	75	25081
2026-01-16 06:40:49.44	110.02	8.58	-52.3	-56.7	3.7	0.00e+00	0	49	104	0	75	25090
2026-01-16 06:40:50.43	109.86	8.65	-52.3	-56.8	3.7	0.00e+00	0	49	104	0	75	25107
2026-01-16 06:40:51.42	109.70	8.73	-52.3	-56.7	3.7	0.00e+00	0	49	104	0	75	25077
2026-01-16 06:40:52.41	109.55	8.80	-52.3	-56.8	3.7	0.00e+00	0	49	104	0	75	25144
2026-01-16 06:40:53.41	109.38	8.88	-52.3	-56.8	3.7	0.00e+00	0	49	104	0	75	25187
2026-01-16 06:40:54.40	109.22	8.96	-52.3	-56.8	3.7	0.00e+00	0	49	104	0	75	25142
2026-01-16 06:40:55.40	109.06	9.03	-52.4	-56.8	3.7	0.00e+00	0	49	104	0	75	25329
2026-01-16 06:40:56.42	108.89	9.11	-52.5	-57.0	3.7	0.00e+00	0	49	104	0	75	25713
2026-01-16 06:40:57.45	108.72	9.19	-52.5	-57.0	3.7	0.00e+00	0	49	104	0	75	25727
2026-01-16 06:40:58.47	108.55	9.27	-52.5	-57.0	3.7	0.00e+00	0	49	104	0	75	25796
2026-01-16 06:40:59.47	108.38	9.35	-52.7	-57.2	3.7	0.00e+00	0	49	104	0	76	24927
2026-01-16 06:41:00.46	108.21	9.42	-52.7	-57.2	3.7	0.00e+00	0	49	104	0	76	24830
2026-01-16 06:41:01.46	108.04	9.50	-52.7	-57.2	3.7	0.00e+00	0	49	104	0	76	24947
2026-01-16 06:41:02.45	107.87	9.58	-52.7	-57.2	3.7	0.00e+00	0	49	104	0	76	24972
2026-01-16 06:41:03.45	107.70	9.66	-52.6	-57.2	3.7	0.00e+00	0	49	104	0	76	24832
2026-01-16 06:41:04.45	107.53	9.73	-52.4	-57.1	3.7	0.00e+00	0	49	104	0	76	24537
2026-01-16 06:41:05.44	107.35	9.81	-52.4	-57.0	3.7	0.00e+00	0	49	104	0	76	24418
2026-01-16 06:41:06.43	107.18	9.89	-52.4	-57.1	3.7	0.00e+00	0	49	104	0	76	24615
2026-01-16 06:41:07.43	107.00	9.97	-52.4	-57.0	3.7	0.00e+00	0	50	104	0	76	24505
2026-01-16 06:41:08.42	106.83	10.05	-52.5	-57.1	3.7	0.00e+00	0	49	104	0	76	24754
2026-01-16 06:41:09.42	106.65	10.12	-52.6	-57.2	3.7	0.00e+00	0	50	104	0	76	24956
2026-01-16 06:41:10.41	106.47	10.20	-52.6	-57.2	3.7	0.00e+00	0	50	104	0	76	25057
2026-01-16 06:41:11.41	106.28	10.28	-52.7	-57.2	3.7	0.00e+00	0	49	104	0	76	25075
2026-01-16 06:41:12.40	106.10	10.36	-52.5	-57.2	3.7	0.00e+00	0	50	104	0	76	24873
2026-01-16 06:41:13.40	105.92	10.44	-52.6	-57.3	3.7	0.00e+00	0	50	104	0	76	25160
2026-01-16 06:41:14.43	105.73	10.52	-52.7	-57.3	3.7	0.00e+00	0	50	104	0	76	25286
2026-01-16 06:41:15.45	105.54	10.60	-52.6	-57.2	3.7	0.00e+00	0	50	104	0	76	25062
2026-01-16 06:41:16.45	105.35	10.68	-52.8	-57.3	3.7	0.00e+00	0	50	104	0	76	25361
2026-01-16 06:41:17.52	105.14	10.76	-52.9	-57.3	3.7	0.00e+00	0	50	104	0	76	25342
2026-01-16 06:41:18.38	104.98	10.83	-52.9	-57.4	3.7	0.00e+00	0	50	104	0	76	25551
2026-01-16 06:41:19.51	104.76	10.92	-52.9	-57.4	3.6	0.00e+00	0	50	104	0	76	25494
2026-01-16 06:41:20.37	104.60	10.99	-52.9	-57.5	3.7	0.00e+00	0	50	104	0	76	25850
2026-01-16 06:41:21.51	104.37	11.08	-52.9	-57.4	3.7	0.00e+00	0	50	104	0	76	25533
2026-01-16 06:41:22.36	104.21	11.15	-52.9	-57.3	3.7	0.00e+00	0	50	104	0	76	25377
2026-01-16 06:41:23.50	103.98	11.24	-52.8	-57.4	3.7	0.00e+00	0	50	104	0	76	25655
2026-01-16 06:41:24.35	103.81	11.31	-52.9	-57.3	3.7	0.00e+00	0	50	104	0	76	25366
2026-01-16 06:41:25.49	103.58	11.40	-52.9	-57.3	3.7	0.00e+00	0	50	104	0	76	25195
2026-01-16 06:41:26.34	103.41	11.47	-52.9	-57.3	3.7	0.00e+00	0	50	104	0	76	25377
2026-01-16 06:41:27.48	103.18	11.56	-52.9	-57.3	3.7	0.00e+00	0	50	104	0	76	25377
2026-01-16 06:41:28.33	103.01	11.63	-53.0	-57.4	3.7	0.00e+00	0	50	104	0	76	25526
2026-01-16 06:41:29.47	102.77	11.72	-53.0	-57.4	3.7	0.00e+00	0	50	104	0	76	25555
2026-01-16 06:41:30.32	102.60	11.79	-53.0	-57.4	3.7	0.00e+00	0	50	104	0	76	25537
2026-01-16 06:41:31.46	102.36	11.88	-53.0	-57.4	3.7	0.00e+00	0	50	104	0	76	25567
2026-01-16 06:41:32.31	102.18	11.95	-53.1	-57.5	3.7	0.00e+00	0	50	104	0	76	25745
2026-01-16 06:41:33.45	101.94	12.04	-53.0	-57.4	3.7	0.00e+00	0	50	104	0	76	25640
2026-01-16 06:41:34.30	101.76	12.11	-53.1	-57.5	3.7	0.00e+00	0	50	104	0	76	25899
2026-01-16 06:41:35.67	101.47	12.22	-53.2	-57.6	3.7	0.00e+00	0	50	104	0	76	26175
2026-01-16 06:41:36.39	101.31	12.27	-53.0	-57.5	3.7	0.00e+00	0	50	104	0	76	25754
2026-01-16 06:41:37.67	101.03	12.38	-52.8	-57.1	3.7	0.00e+00	0	50	104	0	76	24698
2026-01-16 06:41:38.38	100.88	12.43	-52.8	-57.1	3.7	0.00e+00	0	50	104	0	76	24596
2026-01-16 06:41:39.65	100.60	12.54	-52.9	-57.2	3.7	0.00e+00	0	50	104	0	76	24954
2026-01-16 06:41:40.37	100.44	12.59	-52.9	-57.0	3.7	0.00e+00	0	50	104	0	76	24502
2026-01-16 06:41:41.64	100.16	12.70	-52.7	-56.9	3.7	0.00e+00	0	50	104	0	76	24071
2026-01-16 06:41:42.36	99.99	12.75	-52.7	-57.0	3.7	0.00e+00	0	50	104	0	76	24264
2026-01-16 06:41:43.63	99.71	12.86	-52.9	-57.1	3.7	0.00e+00	0	50	104	0	76	24667
2026-01-16 06:41:44.52	99.51	12.93	-52.8	-57.2	3.7	0.00e+00	0	50	104	0	76	24819
2026-01-16 06:41:45.65	99.25	13.02	-53.0	-57.4	3.7	0.00e+00	0	50	104	0	76	25544
2026-01-16 06:41:46.51	99.05	13.09	-53.0	-57.4	3.7	0.00e+00	0	50	104	0	76	25440
2026-01-16 06:41:47.64	98.79	13.18	-53.0	-57.3	3.7	0.00e+00	0	50	104	0	76	25351
2026-01-16 06:41:48.70	98.54	13.26	-53.0	-57.4	3.7	0.00e+00	0	50	104	0	76	25592
2026-01-16 06:41:49.76	98.29	13.35	-52.9	-57.2	3.7	0.00e+00	0	50	104	0	76	25084
2026-01-16 06:41:50.75	98.05	13.43	-53.0	-57.4	3.7	0.00e+00	0	50	104	0	76	25433
2026-01-16 06:41:51.75	97.82	13.51	-53.0	-57.3	3.7	0.00e+00	0	50	104	0	76	25325
2026-01-16 06:41:52.93	97.53	13.60	-52.5	-56.7	3.7	0.00e+00	0	50	104	0	76	23662
2026-01-16 06:41:53.81	97.32	13.67	-52.5	-56.8	3.7	0.00e+00	0	50	104	0	76	23862
2026-01-16 06:41:54.95	97.04	13.76	-52.7	-57.0	3.7	0.00e+00	0	50	104	0	76	24312
2026-01-16 06:41:55.80	96.83	13.83	-52.8	-57.1	3.7	0.00e+00	0	50	104	0	76	24800
2026-01-16 06:41:56.94	96.55	13.92	-53.0	-57.4	3.7	0.00e+00	0	50	104	0	76	25432
2026-01-16 06:41:57.79	96.34	13.99	-53.0	-57.4	3.7	0.00e+00	0	50	104	0	76	25600
2026-01-16 06:41:58.93	96.06	14.08	-53.1	-57.6	3.7	0.00e+00	0	50	104	0	76	26042
2026-01-16 06:41:59.78	95.84	14.15	-53.0	-57.3	3.7	0.00e+00	0	50	104	0	76	25360
2026-01-16 06:42:00.92	95.55	14.24	-53.1	-57.6	3.7	0.00e+00	0	51	104	0	76	26169
2026-01-16 06:42:01.77	95.34	14.30	-53.1	-57.6	3.7	0.00e+00	0	50	104	0	76	26018
2026-01-16 06:42:02.91	95.04	14.39	-53.1	-57.6	3.7	0.00e+00	0	50	104	0	76	26077
2026-01-16 06:42:03.76	94.83	14.46	-53.0	-57.4	3.7	0.00e+00	0	50	104	0	76	25616
2026-01-16 06:42:04.90	94.53	14.55	-52.9	-57.4	3.7	0.00e+00	0	50	104	0	76	25450
2026-01-16 06:42:05.75	94.31	14.62	-53.0	-57.5	3.7	0.00e+00	0	50	104	0	76	25742
2026-01-16 06:42:06.89	94.01	14.71	-52.8	-57.4	3.7	0.00e+00	0	50	104	0	76	25467
2026-01-16 06:42:07.74	93.78	14.77	-52.7	-57.2	3.7	0.00e+00	0	50	104	0	76	24847
2026-01-16 06:42:09.08	93.43	14.88	-52.9	-57.1	3.7	0.00e+00	0	50	104	0	76	24711
2026-01-16 06:42:09.79	93.24	14.93	-52.7	-57.1	3.7	0.00e+00	0	50	104	0	76	24779
2026-01-16 06:42:11.07	92.89	15.03	-52.8	-57.0	3.7	0.00e+00	0	50	104	0	76	24499
2026-01-16 06:42:11.78	92.70	15.08	-52.9	-57.2	3.7	0.00e+00	0	50	104	0	76	24824
2026-01-16 06:42:13.06	92.35	15.18	-52.9	-57.3	3.7	0.00e+00	0	51	104	0	76	25360
2026-01-16 06:42:13.79	92.15	15.24	-52.8	-57.2	3.7	0.00e+00	0	50	104	0	76	25015
2026-01-16 06:42:15.07	91.79	15.34	-52.9	-57.3	3.7	0.00e+00	0	50	104	0	76	25292
2026-01-16 06:42:15.89	91.57	15.40	-52.6	-57.3	3.7	0.00e+00	0	50	104	0	76	25105
2026-01-16 06:42:17.02	91.25	15.48	-52.6	-57.4	3.7	0.00e+00	0	51	104	0	76	25447
2026-01-16 06:42:17.88	91.01	15.55	-52.7	-57.4	3.7	0.00e+00	0	51	104	0	76	25415
2026-01-16 06:42:19.01	90.69	15.63	-52.8	-57.5	3.7	0.00e+00	0	50	104	0	76	25948
2026-01-16 06:42:19.86	90.45	15.70	-52.6	-57.3	3.7	0.00e+00	0	51	104	0	76	25107
2026-01-16 06:42:21.00	90.12	15.78	-52.5	-57.0	3.7	0.00e+00	0	51	104	0	76	24471
2026-01-16 06:42:21.85	89.87	15.84	-52.7	-57.2	3.7	0.00e+00	0	50	104	0	76	24967
2026-01-16 06:42:22.99	89.54	15.93	-52.5	-57.2	3.7	0.00e+00	0	51	104	0	76	25063
2026-01-16 06:42:23.84	89.30	15.99	-52.2	-56.9	3.7	0.00e+00	0	51	104	0	76	24110
2026-01-16 06:42:24.98	88.96	16.07	-52.0	-56.8	3.7	0.00e+00	0	51	104	0	76	23710
2026-01-16 06:42:25.83	88.71	16.14	-52.1	-56.9	3.7	0.00e+00	0	50	104	0	76	24045
2026-01-16 06:42:26.97	88.37	16.22	-51.9	-56.7	3.7	0.00e+00	0	50	104	0	75	24944
2026-01-16 06:42:27.82	88.12	16.28	-52.0	-56.6	3.7	0.00e+00	0	50	104	0	75	24532
2026-01-16 06:42:28.96	87.78	16.36	-51.9	-56.3	3.7	0.00e+00	0	51	104	0	75	23745
2026-01-16 06:42:29.81	87.52	16.42	-51.9	-56.3	3.7	0.00e+00	0	51	104	0	75	23693
2026-01-16 06:42:30.95	87.17	16.50	-51.8	-56.0	3.7	0.00e+00	0	50	104	0	75	23139
2026-01-16 06:42:31.80	86.92	16.56	-52.0	-56.8	3.7	0.00e+00	0	50	104	0	75	25322
2026-01-16 06:42:32.94	86.57	16.64	-51.8	-56.5	3.7	0.00e+00	0	51	104	0	75	24343
2026-01-16 06:42:33.79	86.30	16.70	-51.6	-56.2	3.7	0.00e+00	0	50	104	0	75	23481
2026-01-16 06:42:34.98	85.93	16.78	-51.8	-56.5	3.7	0.00e+00	0	51	104	0	75	24447
2026-01-16 06:42:35.83	85.67	16.84	-51.7	-56.5	3.7	0.00e+00	0	51	104	0	75	24311
2026-01-16 06:42:36.96	85.32	16.92	-51.5	-56.3	3.7	0.00e+00	0	50	104	0	74	25379
2026-01-16 06:42:37.82	85.04	16.97	-51.4	-56.2	3.7	0.00e+00	0	51	104	0	74	25093
2026-01-16 06:42:39.09	84.64	17.06	-51.6	-56.2	3.7	0.00e+00	0	51	104	0	74	25055
2026-01-16 06:42:39.82	84.41	17.11	-51.8	-56.3	3.7	0.00e+00	0	51	104	0	74	25102
2026-01-16 06:42:41.10	84.00	17.19	-51.5	-56.3	3.7	0.00e+00	0	51	104	0	74	25238
2026-01-16 06:42:41.81	83.77	17.24	-51.8	-56.4	3.7	0.00e+00	0	51	104	0	74	25553
2026-01-16 06:42:43.09	83.36	17.32	-51.1	-55.9	3.7	0.00e+00	0	51	104	0	74	24161
2026-01-16 06:42:43.80	83.13	17.36	-51.7	-56.4	3.7	0.00e+00	0	51	104	0	74	25630
2026-01-16 06:42:45.08	82.71	17.44	-51.5	-56.3	3.7	0.00e+00	0	51	104	0	74	25356
2026-01-16 06:42:45.87	82.45	17.49	-52.1	-56.8	3.7	0.00e+00	0	50	104	0	74	26875
2026-01-16 06:42:47.08	82.05	17.57	-52.1	-56.7	3.7	0.00e+00	0	51	104	0	75	24849
2026-01-16 06:42:48.04	81.73	17.63	-52.0	-56.8	3.7	0.00e+00	0	51	104	0	75	25384
2026-01-16 06:42:49.04	81.40	17.69	-52.0	-56.7	3.7	0.00e+00	0	51	104	0	75	25057
2026-01-16 06:42:50.03	81.07	17.75	-51.9	-56.7	3.7	0.00e+00	0	51	104	0	75	24818
2026-01-16 06:42:51.03	80.73	17.81	-52.6	-57.4	3.7	0.00e+00	0	51	104	0	75	26911
2026-01-16 06:42:52.02	80.40	17.86	-52.2	-56.7	3.7	0.00e+00	0	51	104	0	75	24882
2026-01-16 06:42:53.02	80.06	17.92	-52.4	-56.7	3.7	0.00e+00	0	51	104	0	75	25019
2026-01-16 06:42:54.01	79.72	17.98	-52.7	-57.1	3.7	0.00e+00	0	51	104	0	76	24603
2026-01-16 06:42:55.01	79.38	18.03	-53.0	-57.3	3.7	0.00e+00	0	51	104	0	76	25319
2026-01-16 06:42:56.00	79.04	18.09	-52.9	-57.4	3.7	0.00e+00	0	51	104	0	76	25596
2026-01-16 06:42:57.00	78.70	18.14	-52.9	-57.5	3.7	0.00e+00	0	51	104	0	76	25737
2026-01-16 06:42:57.99	78.35	18.20	-52.6	-57.1	3.7	0.00e+00	0	51	104	0	76	24744
2026-01-16 06:42:58.99	78.01	18.25	-53.1	-57.5	3.7	0.00e+00	0	51	104	0	76	25792
2026-01-16 06:42:59.99	77.66	18.30	-52.8	-57.3	3.7	0.00e+00	0	51	104	0	76	25227
2026-01-16 06:43:00.96	77.32	18.35	-53.1	-57.5	3.7	0.00e+00	0	51	104	0	76	25750
2026-01-16 06:43:01.96	76.96	18.40	-52.7	-57.2	3.7	0.00e+00	0	51	104	0	76	25010
2026-01-16 06:43:02.95	76.62	18.45	-52.3	-56.9	3.7	0.00e+00	0	51	104	0	76	24191
2026-01-16 06:43:03.95	76.26	18.50	-52.4	-57.1	3.7	0.00e+00	0	51	104	0	76	24746
2026-01-16 06:43:04.94	75.91	18.55	-52.8	-57.4	3.7	0.00e+00	0	51	104	0	76	25591
2026-01-16 06:43:05.94	75.55	18.60	-53.1	-57.6	3.7	0.00e+00	0	51	104	0	76	26242
2026-01-16 06:43:06.93	75.20	18.64	-53.1	-57.5	3.7	0.00e+00	0	51	104	0	77	24266
2026-01-16 06:43:07.93	74.84	18.69	-53.1	-57.6	3.7	0.00e+00	0	51	104	0	77	24555
2026-01-16 06:43:08.92	74.48	18.73	-53.2	-57.6	3.7	0.00e+00	0	51	104	0	77	24796
2026-01-16 06:43:09.92	74.12	18.77	-53.1	-57.6	3.7	0.00e+00	0	50	104	0	77	24695
2026-01-16 06:43:10.91	73.76	18.82	-53.1	-57.6	3.7	0.00e+00	0	51	104	0	77	24789
2026-01-16 06:43:11.91	73.39	18.86	-53.2	-57.7	3.7	0.00e+00	0	51	104	0	77	24982
2026-01-16 06:43:12.95	73.01	18.90	-53.1	-57.7	3.7	0.00e+00	0	51	104	0	77	24901
2026-01-16 06:43:13.98	72.64	18.94	-53.3	-57.7	3.7	0.00e+00	0	51	104	0	77	25003
2026-01-16 06:43:14.97	72.27	18.98	-53.2	-57.7	3.7	0.00e+00	0	51	104	0	77	25080
2026-01-16 06:43:15.97	71.90	19.02	-52.6	-56.8	3.7	0.00e+00	0	51	104	0	77	22434
2026-01-16 06:43:16.96	71.54	19.05	-53.0	-57.4	3.7	0.00e+00	0	51	104	0	77	24188
2026-01-16 06:43:17.96	71.17	19.09	-52.3	-56.3	3.7	0.00e+00	0	51	104	0	76	22512
2026-01-16 06:43:18.95	70.80	19.12	-52.4	-56.5	3.7	0.00e+00	0	51	104	0	76	22993
2026-01-16 06:43:19.94	70.43	19.15	-52.7	-56.8	3.7	0.00e+00	0	51	104	0	76	23962
2026-01-16 06:43:20.94	70.06	19.19	-53.0	-57.0	3.7	0.00e+00	0	51	104	0	76	24500
2026-01-16 06:43:21.93	69.69	19.22	-53.1	-57.4	3.7	0.00e+00	0	51	104	0	76	25543
2026-01-16 06:43:22.93	69.31	19.25	-53.1	-57.4	3.7	0.00e+00	0	51	104	0	76	25477
2026-01-16 06:43:23.92	68.94	19.28	-53.1	-57.3	3.7	0.00e+00	0	51	104	0	76	25102
2026-01-16 06:43:24.92	68.56	19.31	-53.2	-57.5	3.7	0.00e+00	0	51	104	0	76	25839
2026-01-16 06:43:25.91	68.19	19.33	-53.2	-57.7	3.7	0.00e+00	0	51	104	0	77	24886
2026-01-16 06:43:26.91	67.81	19.36	-53.2	-57.4	3.7	0.00e+00	0	51	104	0	77	24130
2026-01-16 06:43:27.90	67.43	19.38	-53.1	-57.3	3.7	0.00e+00	0	51	104	0	77	23900
2026-01-16 06:43:28.90	67.05	19.41	-53.0	-57.3	3.7	0.00e+00	0	51	104	0	77	23694
2026-01-16 06:43:29.90	66.67	19.43	-52.8	-57.1	3.7	0.00e+00	0	51	104	0	77	23302
2026-01-16 06:43:30.89	66.30	19.45	-52.8	-57.2	3.7	0.00e+00	0	51	104	0	77	23475
2026-01-16 06:43:31.89	65.91	19.47	-53.1	-57.6	3.7	0.00e+00	0	51	104	0	77	24709
2026-01-16 06:43:32.92	65.52	19.49	-53.2	-57.7	3.7	0.00e+00	0	51	104	0	77	24907
2026-01-16 06:43:33.91	65.14	19.51	-53.0	-57.3	3.7	0.00e+00	0	51	104	0	77	23692
2026-01-16 06:43:34.90	64.76	19.52	-53.2	-57.5	3.7	0.00e+00	0	51	104	0	77	24429
2026-01-16 06:43:35.90	64.38	19.54	-52.8	-57.1	3.7	0.00e+00	0	51	104	0	77	23271
2026-01-16 06:43:36.89	64.00	19.55	-52.6	-56.8	3.7	0.00e+00	0	51	104	0	76	23944
2026-01-16 06:43:37.89	63.61	19.57	-53.0	-57.5	3.7	0.00e+00	0	51	104	0	76	25945
2026-01-16 06:43:38.88	63.23	19.58	-52.7	-57.1	3.7	0.00e+00	0	51	104	0	76	24788
2026-01-16 06:43:39.88	62.85	19.59	-52.7	-57.2	3.7	0.00e+00	0	51	104	0	76	24821
2026-01-16 06:43:40.87	62.47	19.60	-52.8	-57.3	3.7	0.00e+00	0	51	104	0	76	25107
2026-01-16 06:43:41.87	62.08	19.61	-53.1	-57.6	3.7	0.00e+00	0	51	104	0	76	26034
2026-01-16 06:43:42.86	61.70	19.61	-53.1	-57.6	3.7	0.00e+00	0	51	104	0	76	25982
2026-01-16 06:43:43.86	61.31	19.62	-52.9	-57.6	3.7	0.00e+00	0	51	104	0	76	25989
2026-01-16 06:43:44.85	60.93	19.63	-53.0	-57.6	3.7	0.00e+00	0	51	104	0	76	26117
2026-01-16 06:43:45.84	60.55	19.63	-53.0	-57.5	3.7	0.00e+00	0	51	104	0	76	25861
2026-01-16 06:43:46.85	60.16	19.63	-53.0	-57.6	3.7	0.00e+00	0	51	104	0	76	26137
2026-01-16 06:43:47.88	59.76	19.63	-52.6	-57.0	3.7	0.00e+00	0	51	104	0	76	24266
2026-01-16 06:43:48.88	59.37	19.63	-53.0	-57.4	3.6	0.00e+00	0	51	104	0	76	25632
2026-01-16 06:43:49.87	58.99	19.63	-53.2	-57.8	3.7	0.00e+00	0	51	104	0	77	25149
2026-01-16 06:43:50.94	58.58	19.63	-53.2	-57.7	3.7	0.00e+00	0	51	104	0	77	24983
2026-01-16 06:43:51.83	58.23	19.63	-53.1	-57.6	3.7	0.00e+00	0	51	104	0	77	24688
2026-01-16 06:43:52.96	57.80	19.62	-53.0	-57.5	3.7	0.00e+00	0	51	104	0	77	24306
2026-01-16 06:43:53.82	57.46	19.62	-52.8	-57.1	3.7	0.00e+00	0	51	104	0	77	23315
2026-01-16 06:43:54.95	57.03	19.61	-53.0	-57.6	3.7	0.00e+00	0	51	104	0	77	24775
2026-01-16 06:43:55.81	56.70	19.60	-52.7	-56.8	3.7	0.00e+00	0	51	104	0	77	22397
2026-01-16 06:43:56.94	56.26	19.59	-52.5	-56.4	3.7	0.00e+00	0	51	104	0	76	22716
2026-01-16 06:43:57.80	55.93	19.58	-52.8	-56.9	3.7	0.00e+00	0	51	104	0	76	24083
2026-01-16 06:43:58.93	55.50	19.57	-53.2	-57.5	3.7	0.00e+00	0	51	104	0	76	25742
2026-01-16 06:43:59.78	55.17	19.56	-53.3	-57.7	3.7	0.00e+00	0	51	104	0	77	24846
2026-01-16 06:44:00.92	54.73	19.54	-53.3	-57.8	3.7	0.00e+00	0	51	104	0	77	25348
2026-01-16 06:44:01.78	54.40	19.53	-53.2	-57.7	3.7	0.00e+00	0	51	104	0	77	25017
2026-01-16 06:44:02.99	53.94	19.51	-53.1	-57.4	3.7	0.00e+00	0	51	104	0	77	24165
2026-01-16 06:44:03.84	53.61	19.49	-52.8	-57.4	3.7	0.00e+00	0	51	104	0	77	23992
2026-01-16 06:44:04.98	53.18	19.47	-52.8	-57.3	3.7	0.00e+00	0	51	104	0	77	23864
2026-01-16 06:44:05.83	52.85	19.45	-53.0	-57.6	3.7	0.00e+00	0	51	104	0	77	24731
2026-01-16 06:44:07.11	52.37	19.43	-52.9	-57.3	3.7	0.00e+00	0	51	104	0	77	23925
2026-01-16 06:44:08.25	51.93	19.40	-52.9	-57.4	3.7	0.00e+00	0	51	104	0	77	24145
2026-01-16 06:44:09.10	51.61	19.38	-52.3	-56.4	3.7	0.00e+00	0	51	104	0	76	22668
2026-01-16 06:44:10.24	51.18	19.35	-52.5	-57.1	3.7	0.00e+00	0	51	104	0	76	24614
2026-01-16 06:44:11.09	50.86	19.33	-52.6	-57.3	3.7	0.00e+00	0	51	104	0	76	25346
2026-01-16 06:44:12.25	50.42	19.30	-52.7	-57.2	3.7	0.00e+00	0	51	104	0	76	25037
2026-01-16 06:44:13.10	50.10	19.27	-52.6	-56.7	3.7	0.00e+00	0	51	104	0	76	23666
2026-01-16 06:44:14.30	49.65	19.24	-52.5	-56.5	3.7	0.00e+00	0	51	104	0	76	23010
2026-01-16 06:44:15.16	49.33	19.21	-52.3	-56.4	3.7	0.00e+00	0	51	104	0	76	22638
2026-01-16 06:44:16.29	48.91	19.18	-52.4	-56.4	3.7	0.00e+00	0	51	104	0	76	22849
2026-01-16 06:44:17.14	48.59	19.15	-51.5	-54.9	3.7	0.00e+00	0	51	104	0	74	21476
2026-01-16 06:44:18.28	48.17	19.11	-51.7	-55.1	3.7	0.00e+00	0	51	104	0	74	22073
2026-01-16 06:44:19.14	47.85	19.08	-51.4	-54.7	3.7	0.00e+00	0	51	104	0	74	21106
2026-01-16 06:44:20.49	47.35	19.03	-52.2	-55.9	3.7	0.00e+00	0	51	104	0	75	22646
2026-01-16 06:44:21.20	47.09	19.01	-52.5	-56.4	3.7	0.00e+00	0	51	104	0	75	24121
2026-01-16 06:44:22.49	46.61	18.96	-52.8	-57.2	3.7	0.00e+00	0	51	104	0	76	25040
2026-01-16 06:44:23.20	46.35	18.93	-52.9	-57.5	3.7	0.00e+00	0	51	104	0	76	25709
2026-01-16 06:44:24.48	45.89	18.88	-52.9	-57.5	3.7	0.00e+00	0	51	104	0	76	25834
2026-01-16 06:44:25.19	45.63	18.85	-52.8	-57.3	3.7	0.00e+00	0	51	104	0	76	25374
2026-01-16 06:44:26.46	45.17	18.80	-52.1	-55.9	3.7	0.00e+00	0	51	104	0	76	21503
2026-01-16 06:44:27.28	44.87	18.76	-52.1	-55.6	3.7	0.00e+00	0	51	104	0	76	20845
2026-01-16 06:44:28.42	44.46	18.71	-52.1	-55.6	3.7	0.00e+00	0	51	104	0	76	20791
2026-01-16 06:44:29.27	44.15	18.67	-52.5	-56.2	3.7	0.00e+00	0	51	104	0	76	22161
2026-01-16 06:44:30.41	43.75	18.62	-52.3	-56.0	3.7	0.00e+00	0	51	104	0	76	21628
2026-01-16 06:44:31.26	43.44	18.58	-52.0	-55.4	3.7	0.00e+00	0	51	104	0	76	20222
2026-01-16 06:44:32.40	43.04	18.53	-51.9	-55.5	3.7	0.00e+00	0	51	104	0	75	21703
2026-01-16 06:44:33.25	42.74	18.49	-52.9	-57.2	3.7	0.00e+00	0	51	104	0	76	25052
2026-01-16 06:44:34.39	42.34	18.43	-52.6	-56.7	3.7	0.00e+00	0	51	104	0	76	23472
2026-01-16 06:44:35.24	42.04	18.39	-52.7	-56.9	3.7	0.00e+00	0	51	104	0	76	24001
2026-01-16 06:44:36.38	41.64	18.33	-52.2	-55.8	3.7	0.00e+00	0	51	104	0	76	21303
2026-01-16 06:44:37.23	41.34	18.29	-52.1	-55.7	3.7	0.00e+00	0	51	104	0	76	21095
2026-01-16 06:44:38.43	40.92	18.23	-52.1	-55.7	3.7	0.00e+00	0	51	104	0	76	20883
2026-01-16 06:44:39.29	40.63	18.18	-51.8	-55.2	3.7	0.00e+00	0	51	104	0	75	20952
2026-01-16 06:44:40.42	40.24	18.12	-51.2	-54.2	3.8	0.00e+00	0	51	104	0	74	19710
2026-01-16 06:44:41.27	39.95	18.07	-50.6	-53.3	3.8	0.00e+00	0	51	104	0	73	18905
2026-01-16 06:44:42.41	39.56	18.01	-50.0	-52.5	3.9	0.00e+00	0	51	104	0	71	19267
2026-01-16 06:44:43.27	39.26	17.96	-51.6	-54.8	3.7	0.00e+00	0	51	104	0	73	22406
2026-01-16 06:44:44.61	38.81	17.88	-51.8	-55.0	3.7	0.00e+00	0	51	104	0	74	21771
2026-01-16 06:44:45.32	38.57	17.84	-51.9	-55.2	3.7	0.00e+00	0	51	104	0	75	21074
2026-01-16 06:44:46.60	38.14	17.77	-49.6	-51.8	4.0	0.00e+00	0	51	104	0	71	17828
2026-01-16 06:44:47.34	37.90	17.72	-50.0	-52.4	3.8	0.00e+00	0	51	104	0	71	19200
2026-01-16 06:44:48.62	37.47	17.65	-52.0	-55.4	3.7	0.00e+00	0	51	104	0	74	22818
2026-01-16 06:44:49.33	37.24	17.60	-52.4	-56.2	3.7	0.00e+00	0	51	104	0	75	23428
2026-01-16 06:44:50.61	36.82	17.53	-49.2	-51.5	3.8	0.00e+00	0	51	104	0	70	18216
2026-01-16 06:44:51.34	36.58	17.48	-48.4	-50.6	3.7	0.00e+00	0	51	104	0	68	18403
2026-01-16 06:44:52.61	36.16	17.40	-51.0	-54.3	3.7	0.00e+00	0	51	104	0	72	22435
2026-01-16 06:44:53.34	35.93	17.36	-51.4	-55.3	3.7	0.00e+00	0	51	104	0	73	23698
2026-01-16 06:44:54.62	35.51	17.27	-51.2	-55.2	3.7	0.00e+00	0	51	104	0	74	22121
2026-01-16 06:44:55.63	35.19	17.21	-51.4	-55.6	3.7	0.00e+00	0	51	104	0	73	24588
2026-01-16 06:44:56.94	34.77	17.12	-51.4	-55.6	3.7	0.00e+00	0	51	104	0	74	23217
2026-01-16 06:44:57.68	34.54	17.08	-50.7	-54.1	3.7	0.00e+00	0	51	104	0	73	20708
2026-01-16 06:44:58.96	34.13	16.99	-49.6	-52.4	3.7	0.00e+00	0	51	104	0	71	19186
2026-01-16 06:44:59.69	33.90	16.94	-49.3	-52.1	3.7	0.00e+00	0	51	104	0	70	19623
2026-01-16 06:45:00.96	33.51	16.86	-49.2	-52.2	3.7	0.00e+00	0	51	104	0	70	19802
2026-01-16 06:45:01.69	33.28	16.81	-48.7	-51.1	3.9	0.00e+00	0	51	104	0	69	18443
2026-01-16 06:45:02.97	32.89	16.72	-48.1	-50.1	3.8	0.00e+00	0	51	104	0	68	17536
2026-01-16 06:45:03.68	32.67	16.67	-49.9	-52.4	3.7	0.00e+00	0	51	104	0	70	20367
2026-01-16 06:45:04.96	32.28	16.58	-49.8	-52.2	3.7	0.00e+00	0	51	104	0	71	18743
2026-01-16 06:45:05.67	32.06	16.53	-50.5	-53.2	3.7	0.00e+00	0	51	104	0	71	21095
2026-01-16 06:45:06.95	31.67	16.44	-51.7	-55.1	3.7	0.00e+00	0	51	104	0	74	22023
2026-01-16 06:45:07.67	31.46	16.39	-52.0	-55.7	3.7	0.00e+00	0	51	104	0	74	23476
2026-01-16 06:45:08.95	31.07	16.30	-52.2	-56.6	3.7	0.00e+00	0	51	104	0	75	24662
2026-01-16 06:45:09.66	30.86	16.25	-52.5	-57.4	3.7	0.00e+00	0	51	104	0	75	26936
2026-01-16 06:45:11.16	30.42	16.14	-52.5	-57.0	3.7	0.00e+00	0	51	104	0	75	25915
2026-01-16 06:45:12.12	30.14	16.07	-52.6	-57.2	3.7	0.00e+00	0	51	104	0	75	26485
2026-01-16 06:45:13.12	29.85	16.00	-51.9	-55.6	3.7	0.00e+00	0	51	104	0	75	21903
2026-01-16 06:45:14.11	29.56	15.93	-52.0	-55.6	3.7	0.00e+00	0	51	104	0	75	21870
2026-01-16 06:45:15.11	29.27	15.85	-51.3	-54.3	3.7	0.00e+00	0	51	104	0	74	19997
2026-01-16 06:45:16.10	28.99	15.78	-51.1	-54.3	3.7	0.00e+00	0	51	104	0	74	20036
2026-01-16 06:45:17.10	28.71	15.71	-50.8	-54.4	3.7	0.00e+00	0	51	104	0	73	21486
2026-01-16 06:45:18.09	28.42	15.63	-51.3	-55.7	3.7	0.00e+00	0	51	104	0	73	24868
2026-01-16 06:45:19.10	28.14	15.56	-51.3	-56.1	3.7	0.00e+00	0	51	104	0	73	26240
2026-01-16 06:45:20.10	27.86	15.48	-50.8	-55.4	3.7	0.00e+00	0	51	104	0	73	24157
2026-01-16 06:45:21.09	27.59	15.41	-50.1	-54.3	3.7	0.00e+00	0	51	104	0	72	22581
2026-01-16 06:45:22.18	27.28	15.33	-50.3	-54.6	3.7	0.00e+00	0	51	104	0	72	23218
2026-01-16 06:45:23.07	27.04	15.26	-50.2	-54.6	3.7	0.00e+00	0	51	104	0	72	23177
2026-01-16 06:45:24.20	26.73	15.17	-50.4	-55.2	3.7	0.00e+00	0	51	104	0	72	25026
2026-01-16 06:45:25.06	26.50	15.11	-50.5	-55.5	3.7	0.00e+00	0	51	104	0	72	25976
2026-01-16 06:45:26.41	26.14	15.00	-50.6	-55.4	3.7	0.00e+00	0	51	104	0	72	25480
2026-01-16 06:45:27.13	25.94	14.95	-50.7	-55.3	3.7	0.00e+00	0	51	104	0	72	25361
2026-01-16 06:45:28.41	25.60	14.85	-50.7	-55.1	3.7	0.00e+00	0	51	104	0	72	24628
2026-01-16 06:45:29.13	25.41	14.79	-51.2	-56.3	3.7	0.00e+00	0	51	104	0	73	26731
2026-01-16 06:45:30.41	25.08	14.70	-52.0	-57.1	3.7	0.00e+00	0	51	104	0	74	27536
2026-01-16 06:45:31.12	24.89	14.64	-51.1	-56.0	3.7	0.00e+00	0	51	104	0	74	24245
2026-01-16 06:45:32.40	24.56	14.54	-52.0	-57.0	3.7	0.00e+00	0	51	104	0	74	27465
2026-01-16 06:45:33.15	24.37	14.48	-52.0	-56.9	3.7	0.00e+00	0	51	104	0	74	27048
2026-01-16 06:45:34.75	23.96	14.36	-51.6	-55.6	3.7	0.00e+00	0	51	104	0	74	23329
2026-01-16 06:45:35.35	23.80	14.31	-51.3	-54.9	3.7	0.00e+00	0	51	104	0	74	21455
2026-01-16 06:45:36.91	23.41	14.19	-50.7	-54.0	3.7	0.00e+00	0	51	104	0	73	20486
2026-01-16 06:45:37.56	23.25	14.14	-51.1	-55.5	3.7	0.00e+00	0	51	104	0	73	24279
2026-01-16 06:45:38.98	22.89	14.03	-51.4	-55.6	3.7	0.00e+00	0	51	104	0	74	23417
2026-01-16 06:45:39.69	22.72	13.97	-51.7	-56.0	3.7	0.00e+00	0	51	104	0	74	24501
2026-01-16 06:45:40.97	22.41	13.87	-51.3	-55.4	3.7	0.00e+00	0	51	104	0	73	24201
2026-01-16 06:45:41.68	22.23	13.81	-51.6	-55.8	3.7	0.00e+00	0	51	104	0	73	25203
2026-01-16 06:45:42.96	21.92	13.71	-52.1	-56.4	3.7	0.00e+00	0	51	104	0	74	25446
2026-01-16 06:45:43.68	21.75	13.65	-52.1	-56.5	3.7	0.00e+00	0	51	104	0	74	25732
2026-01-16 06:45:45.06	21.42	13.54	-52.0	-56.3	3.7	0.00e+00	0	51	104	0	74	25247
2026-01-16 06:45:45.77	21.25	13.49	-50.8	-55.8	3.7	0.00e+00	0	51	104	0	73	25318
2026-01-16 06:45:47.05	20.95	13.39	-50.8	-55.9	3.7	0.00e+00	0	51	104	0	73	25489
2026-01-16 06:45:47.76	20.78	13.33	-49.9	-55.5	3.7	0.00e+00	0	51	104	0	71	27260
2026-01-16 06:45:49.16	20.46	13.22	-50.5	-55.9	3.7	0.00e+00	0	51	104	0	71	28660
2026-01-16 06:45:49.87	20.29	13.16	-50.1	-55.5	3.7	0.00e+00	0	51	104	0	71	27372
2026-01-16 06:45:51.23	19.98	13.05	-49.7	-55.5	3.7	0.00e+00	0	51	104	0	71	27505
2026-01-16 06:45:51.94	19.82	13.00	-50.8	-56.1	3.7	0.00e+00	0	51	104	0	72	27551
2026-01-16 06:45:53.28	19.51	12.89	-50.0	-55.5	3.7	0.00e+00	0	51	104	0	71	27459
2026-01-16 06:45:53.99	19.36	12.83	-50.3	-55.9	3.7	0.00e+00	0	51	104	0	71	28574
2026-01-16 06:45:55.27	19.07	12.73	-50.8	-56.1	3.7	0.00e+00	0	51	104	0	72	27620
2026-01-16 06:45:55.98	18.91	12.67	-51.0	-56.1	3.7	0.00e+00	0	51	104	0	72	27730
2026-01-16 06:45:57.26	18.63	12.57	-51.2	-56.2	3.7	0.00e+00	0	51	104	0	73	26339
2026-01-16 06:45:57.98	18.47	12.51	-51.3	-56.1	3.7	0.00e+00	0	51	104	0	73	26096
2026-01-16 06:45:59.25	18.20	12.41	-52.1	-56.2	3.7	0.00e+00	0	51	104	0	74	24977
2026-01-16 06:45:59.97	18.04	12.35	-52.5	-56.9	3.7	0.00e+00	0	51	104	0	75	25657
2026-01-16 06:46:01.25	17.77	12.25	-52.4	-56.9	3.7	0.00e+00	0	51	104	0	75	25528
2026-01-16 06:46:01.96	17.61	12.19	-52.1	-56.1	3.7	0.00e+00	0	51	104	0	75	23267
2026-01-16 06:46:03.23	17.35	12.09	-52.1	-56.5	3.7	0.00e+00	0	51	104	0	75	24337
2026-01-16 06:46:04.07	17.17	12.03	-51.9	-56.6	3.7	0.00e+00	0	51	104	0	75	24671
2026-01-16 06:46:05.51	16.87	11.91	-51.1	-56.1	3.7	0.00e+00	0	51	104	0	74	24571
2026-01-16 06:46:06.22	16.72	11.85	-50.7	-55.8	3.7	0.00e+00	0	51	104	0	73	25347
2026-01-16 06:46:07.50	16.46	11.75	-50.0	-55.4	3.7	0.00e+00	0	51	104	0	72	25408
2026-01-16 06:46:08.21	16.31	11.70	-49.5	-54.8	3.7	0.00e+00	0	51	104	0	71	25255
2026-01-16 06:46:09.49	16.05	11.59	-49.3	-55.0	3.7	0.00e+00	0	51	104	0	70	27455
2026-01-16 06:46:10.20	15.91	11.54	-49.1	-54.5	3.7	0.00e+00	0	51	104	0	70	25719
2026-01-16 06:46:11.48	15.65	11.44	-49.0	-54.4	3.7	0.00e+00	0	51	104	0	70	25546
2026-01-16 06:46:12.19	15.51	11.38	-49.2	-54.5	3.7	0.00e+00	0	51	104	0	70	25757
2026-01-16 06:46:13.47	15.26	11.28	-49.3	-54.5	3.7	0.00e+00	0	51	104	0	70	25918
2026-01-16 06:46:14.19	15.12	11.22	-49.3	-54.7	3.7	0.00e+00	0	51	104	0	70	26331
2026-01-16 06:46:15.47	14.87	11.12	-49.5	-55.0	3.7	0.00e+00	0	51	104	0	70	27343
2026-01-16 06:46:16.20	14.73	11.06	-49.9	-55.0	3.7	0.00e+00	0	51	104	0	70	27448
2026-01-16 06:46:17.48	14.48	10.96	-50.0	-54.6	3.7	0.00e+00	0	51	104	0	70	26213
2026-01-16 06:46:18.19	14.35	10.90	-50.6	-55.3	3.7	0.00e+00	0	51	104	0	72	25199
2026-01-16 06:46:19.50	14.10	10.80	-50.2	-54.5	3.7	0.00e+00	0	51	104	0	71	24355
2026-01-16 06:46:20.20	13.97	10.75	-50.1	-54.5	3.7	0.00e+00	0	51	104	0	71	24497
2026-01-16 06:46:21.50	13.72	10.64	-49.9	-54.6	3.7	0.00e+00	0	51	104	0	71	24739
2026-01-16 06:46:22.21	13.59	10.59	-50.2	-55.0	3.7	0.00e+00	0	51	104	0	71	25711
2026-01-16 06:46:23.49	13.35	10.49	-50.7	-55.6	3.7	0.00e+00	0	51	104	0	72	25996
2026-01-16 06:46:24.20	13.22	10.43	-50.8	-55.7	3.7	0.00e+00	0	51	104	0	72	26317
2026-01-16 06:46:25.58	12.97	10.32	-49.9	-55.3	3.7	0.00e+00	0	51	104	0	71	26790
2026-01-16 06:46:26.29	12.84	10.27	-49.7	-55.2	3.7	0.00e+00	0	51	104	0	71	26358
2026-01-16 06:46:27.64	12.60	10.16	-50.1	-55.5	3.7	0.00e+00	0	51	104	0	72	25841
2026-01-16 06:46:28.35	12.48	10.11	-49.3	-55.1	3.7	0.00e+00	0	51	104	0	70	27616
2026-01-16 06:46:29.63	12.25	10.01	-48.4	-54.4	3.7	0.00e+00	0	51	104	0	68	28542
2026-01-16 06:46:30.67	12.07	9.92	-47.8	-54.0	3.7	0.00e+00	0	51	104	0	67	28883
2026-01-16 06:46:31.64	11.90	9.85	-47.7	-54.0	3.7	0.00e+00	0	51	104	0	67	29012
2026-01-16 06:46:32.63	11.72	9.77	-47.7	-54.1	3.8	0.00e+00	0	51	104	0	67	29281
2026-01-16 06:46:33.63	11.55	9.69	-48.0	-54.2	3.7	0.00e+00	0	51	104	0	67	29654
2026-01-16 06:46:34.62	11.38	9.62	-48.1	-54.2	3.7	0.00e+00	0	51	104	0	67	29715
2026-01-16 06:46:35.61	11.21	9.54	-48.2	-54.1	3.7	0.00e+00	0	51	104	0	67	29401
2026-01-16 06:46:36.61	11.05	9.46	-48.2	-53.9	3.7	0.00e+00	0	51	104	0	67	28668
2026-01-16 06:46:37.65	10.87	9.38	-48.3	-53.9	3.7	0.00e+00	0	51	104	0	67	28791
2026-01-16 06:46:38.66	10.70	9.31	-48.5	-54.2	3.7	0.00e+00	0	51	104	0	67	29758
2026-01-16 06:46:39.65	10.54	9.23	-47.8	-53.8	3.7	0.00e+00	0	51	104	0	67	28263
2026-01-16 06:46:40.74	10.36	9.15	-47.0	-52.8	3.7	0.00e+00	0	51	104	0	66	26841
2026-01-16 06:46:41.62	10.22	9.08	-47.2	-52.9	3.7	0.00e+00	0	51	104	0	66	27020
2026-01-16 06:46:42.76	10.03	8.99	-48.3	-54.0	3.7	0.00e+00	0	51	104	0	67	28839
2026-01-16 06:46:43.61	9.89	8.93	-50.2	-55.7	3.7	0.00e+00	0	51	104	0	70	29676
2026-01-16 06:46:44.75	9.71	8.84	-49.9	-55.6	3.7	0.00e+00	0	51	104	0	71	27759
2026-01-16 06:46:45.60	9.58	8.78	-51.5	-56.7	3.7	0.00e+00	0	51	104	0	73	28112
2026-01-16 06:46:46.73	9.40	8.69	-52.5	-56.7	3.7	0.00e+00	0	51	104	0	75	25077
2026-01-16 06:46:47.59	9.26	8.63	-52.1	-56.8	3.7	0.00e+00	0	51	104	0	74	26588
2026-01-16 06:46:48.72	9.09	8.54	-52.2	-57.0	3.7	0.00e+00	0	51	104	0	75	25799
2026-01-16 06:46:49.57	8.96	8.48	-52.8	-57.4	3.7	0.00e+00	0	51	104	0	76	25480
2026-01-16 06:46:50.71	8.78	8.39	-53.2	-57.5	3.7	0.00e+00	0	51	104	0	77	24324
2026-01-16 06:46:51.56	8.65	8.33	-52.4	-57.3	3.7	0.00e+00	0	51	104	0	76	25277
2026-01-16 06:46:52.70	8.48	8.24	-53.2	-57.9	3.7	0.00e+00	0	51	104	0	77	25493
2026-01-16 06:46:53.55	8.35	8.18	-53.3	-57.5	3.7	0.00e+00	0	51	104	0	77	24426
2026-01-16 06:46:54.68	8.18	8.09	-53.7	-58.3	3.7	0.00e+00	0	51	104	0	78	25137
2026-01-16 06:46:55.54	8.05	8.03	-53.7	-58.1	3.7	0.00e+00	0	51	104	0	78	24664
2026-01-16 06:46:56.67	7.89	7.94	-53.0	-57.8	3.7	0.00e+00	0	51	104	0	77	25250
2026-01-16 06:46:57.53	7.76	7.88	-53.5	-57.9	3.7	0.00e+00	0	51	104	0	77	25606
2026-01-16 06:46:58.66	7.59	7.80	-53.6	-58.1	3.7	0.00e+00	0	51	104	0	77	26097
2026-01-16 06:46:59.51	7.47	7.73	-53.8	-58.3	3.7	0.00e+00	0	51	104	0	78	25157
2026-01-16 06:47:00.65	7.31	7.65	-53.9	-58.2	3.7	0.00e+00	0	51	104	0	78	24976
2026-01-16 06:47:01.50	7.19	7.59	-53.7	-58.3	3.7	0.00e+00	0	51	104	0	78	25261
2026-01-16 06:47:02.63	7.02	7.50	-53.8	-58.3	3.7	0.00e+00	0	51	104	0	78	25343
2026-01-16 06:47:03.48	6.90	7.44	-53.4	-58.1	3.7	0.00e+00	0	51	104	0	78	24741
2026-01-16 06:47:04.62	6.74	7.36	-53.5	-58.1	3.7	0.00e+00	0	51	104	0	78	24526
2026-01-16 06:47:05.47	6.63	7.29	-53.6	-58.0	3.7	0.00e+00	0	51	104	0	78	24488
2026-01-16 06:47:06.61	6.47	7.21	-53.3	-57.7	3.7	0.00e+00	0	51	104	0	78	23576
2026-01-16 06:47:07.46	6.35	7.15	-52.9	-56.8	3.7	0.00e+00	0	51	104	0	77	22580
2026-01-16 06:47:08.62	6.19	7.07	-52.9	-57.1	3.7	0.00e+00	0	51	104	0	77	23360
2026-01-16 06:47:09.48	6.08	7.00	-52.6	-57.1	3.7	0.00e+00	0	51	104	0	77	23367
2026-01-16 06:47:10.68	5.91	6.92	-52.6	-57.1	3.7	0.00e+00	0	51	104	0	77	23297
2026-01-16 06:47:11.53	5.80	6.85	-52.6	-57.1	3.7	0.00e+00	0	51	104	0	77	23332
2026-01-16 06:47:12.66	5.65	6.77	-52.6	-57.1	3.7	0.00e+00	0	51	104	0	77	23336
2026-01-16 06:47:13.51	5.54	6.71	-52.6	-57.1	3.7	0.00e+00	0	51	104	0	77	23285
2026-01-16 06:47:14.65	5.39	6.63	-52.6	-57.1	3.7	0.00e+00	0	51	104	0	77	23281
2026-01-16 06:47:15.50	5.28	6.57	-52.6	-57.1	3.7	0.00e+00	0	51	104	0	77	23363
2026-01-16 06:47:16.64	5.13	6.49	-52.6	-57.1	3.7	0.00e+00	0	51	104	0	77	23270
2026-01-16 06:47:17.49	5.02	6.43	-52.6	-57.1	3.7	0.00e+00	0	51	104	0	77	23290
2026-01-16 06:47:18.62	4.87	6.35	-52.6	-57.1	3.7	0.00e+00	0	51	104	0	77	23285
2026-01-16 06:47:19.48	4.76	6.29	-52.6	-57.1	3.7	0.00e+00	0	51	104	0	77	23197
2026-01-16 06:47:20.61	4.62	6.21	-52.6	-57.1	3.7	0.00e+00	0	51	104	0	77	23205
2026-01-16 06:47:21.46	4.51	6.15	-52.6	-57.1	3.7	0.00e+00	0	51	104	0	77	23283
2026-01-16 06:47:22.60	4.37	6.06	-52.6	-57.1	3.7	0.00e+00	0	51	104	0	77	23267
2026-01-16 06:47:23.45	4.27	6.00	-52.6	-57.1	3.7	0.00e+00	0	51	104	0	77	23200
2026-01-16 06:47:24.59	4.12	5.92	-52.6	-57.1	3.7	0.00e+00	0	51	104	0	77	23298
2026-01-16 06:47:25.44	4.02	5.86	-52.6	-57.1	3.7	0.00e+00	0	51	104	0	77	23247
2026-01-16 06:47:26.57	3.88	5.79	-52.6	-57.1	3.7	0.00e+00	0	51	104	0	77	23249
2026-01-16 06:47:27.43	3.78	5.73	-52.6	-57.1	3.7	0.00e+00	0	51	104	0	77	23291
2026-01-16 06:47:28.56	3.64	5.65	-52.6	-57.1	3.7	0.00e+00	0	51	104	0	77	23221
2026-01-16 06:47:29.41	3.54	5.59	-52.6	-57.1	3.7	0.00e+00	0	51	104	0	77	23213
2026-01-16 06:47:30.55	3.41	5.51	-52.6	-57.1	3.7	0.00e+00	0	51	104	0	77	23260
2026-01-16 06:47:31.40	3.31	5.45	-52.6	-57.1	3.7	0.00e+00	0	51	104	0	77	23256
2026-01-16 06:47:32.53	3.17	5.37	-52.6	-57.1	3.7	0.00e+00	0	51	104	0	77	23217
2026-01-16 06:47:33.38	3.07	5.31	-52.6	-57.0	3.7	0.00e+00	0	51	104	0	77	23148
2026-01-16 06:47:34.50	2.94	5.24	-52.6	-57.1	3.7	0.00e+00	0	51	104	0	77	23214
2026-01-16 06:47:35.35	2.85	5.18	-52.6	-57.1	3.7	0.00e+00	0	51	104	0	77	23201
2026-01-16 06:47:36.49	2.71	5.10	-52.6	-57.1	3.7	0.00e+00	0	51	104	0	77	23231
2026-01-16 06:47:37.34	2.62	5.04	-52.6	-57.1	3.7	0.00e+00	0	51	104	0	77	23227

#Closed at: 2026-01-16 06:47:38
#Recorded file [0 MB]: D:/Data/31040_260116_094000.dat