passes_logs/2026/01/16/T1/T1__20260116_081236_KHAYYAM_rec.log

#Pass ID: 20260116_081236_KHAYYAM
#Satellite: KHAYYAM
#Configuration: KHAYYAM_480M
#almurnet v.1.7.20251203
#Start time: 2026-01-16 08:12:36

#Version: 2.0.20230620
#Station: T1
#Location: 37.570604 lon 55.790049 lat
#TLE: 1 53370U 22096A   26016.00690779  .00002446  00000+0  10212-3 0  9994
#TLE: 2 53370  97.3563 282.9987 0001571 107.4069 252.7341 15.24584174191397

#Time	Az	El	Level	Level2	SNR	BER	BlckErr	Temp	State	Recorded	gain1	gain2
2026-01-16 08:12:36.50	177.37	4.96	-52.9	-57.6	3.5	0.00e+00	0	45	0	0	76	26071
2026-01-16 08:12:37.50	177.41	5.04	-51.5	-56.4	3.7	0.00e+00	0	45	104	0	73	26945
2026-01-16 08:12:38.49	177.45	5.12	-51.5	-56.4	3.7	0.00e+00	0	45	104	0	73	26999
2026-01-16 08:12:39.49	177.49	5.20	-51.5	-56.4	3.7	0.00e+00	0	46	104	0	73	27001
2026-01-16 08:12:40.48	177.53	5.28	-51.5	-56.4	3.7	0.00e+00	0	46	104	0	73	26905
2026-01-16 08:12:41.48	177.57	5.36	-51.5	-56.4	3.6	0.00e+00	0	46	104	0	73	26934
2026-01-16 08:12:42.47	177.61	5.44	-51.4	-56.3	3.7	0.00e+00	0	46	104	0	73	26739
2026-01-16 08:12:43.47	177.65	5.52	-51.5	-56.4	3.7	0.00e+00	0	46	104	0	73	26932
2026-01-16 08:12:44.46	177.69	5.61	-51.5	-56.4	3.7	0.00e+00	0	46	104	0	73	27031
2026-01-16 08:12:45.46	177.73	5.69	-51.5	-56.3	3.7	0.00e+00	0	46	104	0	73	26837
2026-01-16 08:12:46.45	177.77	5.77	-51.5	-56.4	3.7	0.00e+00	0	46	104	0	73	27068
2026-01-16 08:12:47.45	177.81	5.85	-51.5	-56.4	3.7	0.00e+00	0	46	104	0	73	27105
2026-01-16 08:12:48.45	177.85	5.94	-51.5	-56.4	3.7	0.00e+00	0	46	104	0	73	27038
2026-01-16 08:12:49.45	177.89	6.02	-51.5	-56.4	3.7	0.00e+00	0	46	104	0	73	27042
2026-01-16 08:12:50.44	177.94	6.11	-51.4	-56.4	3.7	0.00e+00	0	47	104	0	73	26911
2026-01-16 08:12:51.44	177.98	6.19	-51.5	-56.4	3.7	0.00e+00	0	47	104	0	73	27013
2026-01-16 08:12:52.43	178.02	6.28	-51.5	-56.3	3.7	0.00e+00	0	47	104	0	73	26889
2026-01-16 08:12:53.43	178.06	6.36	-51.4	-56.3	3.7	0.00e+00	0	47	104	0	73	26879
2026-01-16 08:12:54.43	178.11	6.45	-51.4	-56.3	3.7	0.00e+00	0	47	104	0	73	26725
2026-01-16 08:12:55.42	178.15	6.53	-51.5	-56.4	3.7	0.00e+00	0	47	104	0	73	26972
2026-01-16 08:12:56.42	178.19	6.62	-51.5	-56.4	3.7	0.00e+00	0	47	104	0	73	27018
2026-01-16 08:12:57.42	178.24	6.71	-51.5	-56.4	3.7	0.00e+00	0	47	104	0	73	27020
2026-01-16 08:12:58.41	178.28	6.80	-51.5	-56.4	3.7	0.00e+00	0	47	104	0	73	27034
2026-01-16 08:12:59.40	178.33	6.88	-51.5	-56.4	3.7	0.00e+00	0	47	104	0	73	27190
2026-01-16 08:13:00.40	178.37	6.97	-51.6	-56.5	3.7	0.00e+00	0	47	104	0	73	27205
2026-01-16 08:13:01.39	178.42	7.06	-51.6	-56.5	3.7	0.00e+00	0	47	104	0	73	27303
2026-01-16 08:13:02.39	178.46	7.15	-51.6	-56.5	3.7	0.00e+00	0	47	104	0	73	27311
2026-01-16 08:13:03.39	178.51	7.24	-51.6	-56.5	3.7	0.00e+00	0	47	104	0	73	27271
2026-01-16 08:13:04.38	178.55	7.33	-51.6	-56.5	3.7	0.00e+00	0	47	104	0	73	27252
2026-01-16 08:13:05.38	178.60	7.42	-51.6	-56.5	3.7	0.00e+00	0	47	104	0	73	27408
2026-01-16 08:13:06.38	178.65	7.51	-51.6	-56.5	3.7	0.00e+00	0	47	104	0	73	27279
2026-01-16 08:13:07.38	178.70	7.60	-51.6	-56.5	3.7	0.00e+00	0	47	104	0	73	27310
2026-01-16 08:13:08.37	178.74	7.69	-51.6	-56.5	3.7	0.00e+00	0	47	104	0	73	27246
2026-01-16 08:13:09.37	178.79	7.79	-51.6	-56.5	3.7	0.00e+00	0	48	104	0	73	27427
2026-01-16 08:13:10.37	178.84	7.88	-51.6	-56.5	3.7	0.00e+00	0	48	104	0	73	27343
2026-01-16 08:13:11.37	178.89	7.97	-51.6	-56.5	3.7	0.00e+00	0	48	104	0	73	27258
2026-01-16 08:13:12.36	178.94	8.06	-51.6	-56.5	3.7	0.00e+00	0	48	104	0	73	27293
2026-01-16 08:13:13.35	178.99	8.16	-51.6	-56.5	3.7	0.00e+00	0	48	104	0	73	27236
2026-01-16 08:13:14.34	179.04	8.25	-51.5	-56.4	3.7	0.00e+00	0	48	104	0	73	26962
2026-01-16 08:13:15.34	179.09	8.35	-51.6	-56.5	3.7	0.00e+00	0	48	104	0	73	27292
2026-01-16 08:13:16.33	179.14	8.44	-51.6	-56.5	3.7	0.00e+00	0	48	104	0	73	27299
2026-01-16 08:13:17.32	179.19	8.54	-51.7	-56.5	3.7	0.00e+00	0	48	104	0	74	25876
2026-01-16 08:13:18.32	179.24	8.63	-51.7	-56.5	3.7	0.00e+00	0	48	104	0	74	25963
2026-01-16 08:13:19.32	179.29	8.73	-51.6	-56.5	3.7	0.00e+00	0	48	104	0	74	25882
2026-01-16 08:13:20.32	179.34	8.83	-51.6	-56.5	3.7	0.00e+00	0	48	104	0	74	25815
2026-01-16 08:13:21.32	179.40	8.93	-51.6	-56.5	3.7	0.00e+00	0	48	104	0	74	25748
2026-01-16 08:13:22.31	179.45	9.02	-51.6	-56.5	3.7	0.00e+00	0	48	104	0	74	25818
2026-01-16 08:13:23.31	179.50	9.12	-51.6	-56.5	3.7	0.00e+00	0	48	104	0	74	25895
2026-01-16 08:13:24.30	179.56	9.22	-51.5	-56.4	3.7	0.00e+00	0	48	104	0	74	25616
2026-01-16 08:13:25.30	179.61	9.32	-51.1	-56.1	3.7	0.00e+00	0	48	104	0	74	24677
2026-01-16 08:13:26.29	179.66	9.42	-51.3	-56.2	3.7	0.00e+00	0	48	104	0	74	25040
2026-01-16 08:13:27.29	179.72	9.52	-50.9	-55.9	3.7	0.00e+00	0	48	104	0	73	25589
2026-01-16 08:13:28.29	179.78	9.62	-51.4	-56.2	3.7	0.00e+00	0	48	104	0	73	26578
2026-01-16 08:13:29.28	179.83	9.73	-50.7	-55.8	3.7	0.00e+00	0	49	104	0	73	25145
2026-01-16 08:13:30.28	179.89	9.83	-50.8	-55.9	3.7	0.00e+00	0	49	104	0	73	25513
2026-01-16 08:13:31.28	179.95	9.93	-50.8	-55.8	3.7	0.00e+00	0	49	104	0	73	25234
2026-01-16 08:13:32.27	180.00	10.03	-50.9	-55.9	3.7	0.00e+00	0	49	104	0	73	25524
2026-01-16 08:13:33.27	180.06	10.14	-50.8	-55.8	3.7	0.00e+00	0	49	104	0	73	25145
2026-01-16 08:13:34.27	180.12	10.24	-50.8	-55.8	3.7	0.00e+00	0	48	104	0	73	25218
2026-01-16 08:13:35.26	180.18	10.35	-51.4	-56.2	3.7	0.00e+00	0	49	104	0	73	26544
2026-01-16 08:13:36.26	180.24	10.45	-50.9	-55.9	3.7	0.00e+00	0	49	104	0	73	25506
2026-01-16 08:13:37.26	180.30	10.56	-50.9	-55.9	3.7	0.00e+00	0	49	104	0	73	25561
2026-01-16 08:13:38.25	180.36	10.67	-51.1	-56.0	3.7	0.00e+00	0	49	104	0	73	25824
2026-01-16 08:13:39.25	180.42	10.78	-51.3	-56.2	3.7	0.00e+00	0	49	104	0	73	26298
2026-01-16 08:13:40.24	180.48	10.88	-51.5	-56.4	3.7	0.00e+00	0	49	104	0	73	26991
2026-01-16 08:13:41.24	180.54	10.99	-52.1	-56.9	3.7	0.00e+00	0	49	104	0	75	25508
2026-01-16 08:13:42.24	180.61	11.10	-51.7	-56.5	3.7	0.00e+00	0	49	104	0	74	25732
2026-01-16 08:13:43.23	180.67	11.21	-52.7	-57.4	3.7	0.00e+00	0	49	104	0	76	25540
2026-01-16 08:13:44.23	180.73	11.32	-51.5	-56.4	3.7	0.00e+00	0	49	104	0	75	24205
2026-01-16 08:13:45.23	180.80	11.44	-52.5	-57.3	3.7	0.00e+00	0	49	104	0	75	26753
2026-01-16 08:13:46.22	180.86	11.55	-52.0	-56.8	3.7	0.00e+00	0	49	104	0	75	25318
2026-01-16 08:13:47.22	180.93	11.66	-52.1	-57.0	3.7	0.00e+00	0	49	104	0	75	25764
2026-01-16 08:13:48.22	180.99	11.77	-52.3	-57.1	3.7	0.00e+00	0	49	104	0	75	26208
2026-01-16 08:13:49.21	181.06	11.89	-52.5	-57.3	3.7	0.00e+00	0	49	104	0	75	26727
2026-01-16 08:13:50.20	181.13	12.00	-52.5	-57.3	3.7	0.00e+00	0	49	104	0	75	26603
2026-01-16 08:13:51.20	181.19	12.12	-52.7	-57.3	3.7	0.00e+00	0	49	104	0	76	25258
2026-01-16 08:13:52.20	181.26	12.23	-52.1	-57.1	3.7	0.00e+00	0	49	104	0	76	24551
2026-01-16 08:13:53.20	181.33	12.35	-52.4	-57.2	3.7	0.00e+00	0	49	104	0	76	24998
2026-01-16 08:13:54.19	181.40	12.47	-52.1	-57.1	3.7	0.00e+00	0	49	104	0	76	24601
2026-01-16 08:13:55.18	181.47	12.59	-51.9	-56.8	3.7	0.00e+00	0	49	104	0	75	25323
2026-01-16 08:13:56.18	181.54	12.71	-52.2	-57.0	3.7	0.00e+00	0	49	104	0	75	25920
2026-01-16 08:13:57.17	181.61	12.82	-52.1	-57.0	3.7	0.00e+00	0	49	104	0	75	25844
2026-01-16 08:13:58.16	181.68	12.94	-51.9	-56.9	3.7	0.00e+00	0	49	104	0	75	25511
2026-01-16 08:13:59.16	181.76	13.07	-51.5	-56.7	3.7	0.00e+00	0	49	104	0	74	26304
2026-01-16 08:14:00.16	181.83	13.19	-51.8	-56.8	3.7	0.00e+00	0	49	104	0	74	26715
2026-01-16 08:14:01.16	181.91	13.31	-51.8	-56.9	3.7	0.00e+00	0	49	104	0	74	26894
2026-01-16 08:14:02.15	181.98	13.44	-51.8	-56.9	3.7	0.00e+00	0	49	104	0	74	26947
2026-01-16 08:14:03.15	182.06	13.56	-52.2	-57.2	3.7	0.00e+00	0	49	104	0	75	26336
2026-01-16 08:14:04.14	182.13	13.68	-51.6	-56.7	3.7	0.00e+00	0	50	104	0	75	25069
2026-01-16 08:14:05.14	182.21	13.81	-51.9	-56.9	3.7	0.00e+00	0	49	104	0	75	25642
2026-01-16 08:14:06.13	182.29	13.94	-52.0	-57.0	3.7	0.00e+00	0	50	104	0	75	25798
2026-01-16 08:14:07.13	182.37	14.07	-52.3	-57.2	3.7	0.00e+00	0	49	104	0	75	26312
2026-01-16 08:14:08.12	182.45	14.19	-52.0	-57.1	3.7	0.00e+00	0	49	104	0	75	26111
2026-01-16 08:14:09.12	182.53	14.32	-52.1	-57.1	3.7	0.00e+00	0	49	104	0	75	26044
2026-01-16 08:14:10.11	182.61	14.45	-52.1	-57.0	3.7	0.00e+00	0	50	104	0	75	25876
2026-01-16 08:14:11.10	182.69	14.58	-52.1	-56.9	3.7	0.00e+00	0	49	104	0	75	25578
2026-01-16 08:14:12.10	182.77	14.72	-52.3	-57.3	3.7	0.00e+00	0	50	104	0	75	26595
2026-01-16 08:14:13.10	182.86	14.85	-52.0	-56.9	3.7	0.00e+00	0	50	104	0	75	25548
2026-01-16 08:14:14.10	182.94	14.98	-52.1	-56.8	3.7	0.00e+00	0	50	104	0	75	25325
2026-01-16 08:14:15.09	183.03	15.12	-52.3	-57.0	3.7	0.00e+00	0	50	104	0	75	25798
2026-01-16 08:14:16.09	183.11	15.26	-52.1	-57.0	3.7	0.00e+00	0	49	104	0	75	25908
2026-01-16 08:14:17.08	183.20	15.39	-52.1	-56.8	3.7	0.00e+00	0	49	104	0	75	25311
2026-01-16 08:14:18.08	183.29	15.53	-52.0	-56.7	3.7	0.00e+00	0	49	104	0	75	24876
2026-01-16 08:14:19.08	183.38	15.67	-51.9	-56.6	3.7	0.00e+00	0	50	104	0	75	24717
2026-01-16 08:14:20.08	183.47	15.81	-52.3	-57.1	3.7	0.00e+00	0	50	104	0	75	26010
2026-01-16 08:14:21.07	183.56	15.95	-52.0	-56.8	3.7	0.00e+00	0	50	104	0	75	25322
2026-01-16 08:14:22.07	183.65	16.09	-51.9	-56.5	3.7	0.00e+00	0	50	104	0	75	24422
2026-01-16 08:14:23.06	183.75	16.23	-52.2	-56.7	3.7	0.00e+00	0	50	104	0	75	25018
2026-01-16 08:14:24.06	183.84	16.38	-52.0	-56.7	3.7	0.00e+00	0	49	104	0	75	24984
2026-01-16 08:14:25.06	183.94	16.52	-51.9	-56.6	3.7	0.00e+00	0	49	104	0	75	24702
2026-01-16 08:14:26.05	184.03	16.67	-52.5	-56.9	3.7	0.00e+00	0	50	104	0	75	25669
2026-01-16 08:14:27.05	184.13	16.82	-52.5	-56.8	3.7	0.00e+00	0	50	104	0	75	25309
2026-01-16 08:14:28.05	184.23	16.96	-52.2	-56.9	3.7	0.00e+00	0	50	104	0	75	25426
2026-01-16 08:14:29.05	184.33	17.11	-52.6	-57.0	3.7	0.00e+00	0	50	104	0	75	25952
2026-01-16 08:14:30.04	184.43	17.26	-52.6	-57.0	3.7	0.00e+00	0	49	104	0	75	25908
2026-01-16 08:14:31.04	184.53	17.41	-52.4	-56.7	3.7	0.00e+00	0	50	104	0	75	24845
2026-01-16 08:14:32.04	184.63	17.57	-52.5	-57.0	3.7	0.00e+00	0	50	104	0	75	25773
2026-01-16 08:14:33.03	184.74	17.72	-52.5	-57.1	3.7	0.00e+00	0	50	104	0	75	26216
2026-01-16 08:14:34.03	184.84	17.88	-52.7	-57.5	3.7	0.00e+00	0	50	104	0	76	25730
2026-01-16 08:14:35.03	184.95	18.03	-52.1	-56.7	3.7	0.00e+00	0	50	104	0	76	23439
2026-01-16 08:14:36.02	185.06	18.19	-52.5	-56.9	3.7	0.00e+00	0	50	104	0	76	24096
2026-01-16 08:14:37.02	185.16	18.35	-52.2	-56.7	3.7	0.00e+00	0	49	104	0	76	23570
2026-01-16 08:14:38.02	185.28	18.51	-52.1	-57.1	3.7	0.00e+00	0	50	104	0	76	24570
2026-01-16 08:14:39.01	185.39	18.67	-51.7	-56.4	3.7	0.00e+00	0	50	104	0	75	24098
2026-01-16 08:14:40.01	185.50	18.83	-51.7	-56.4	3.7	0.00e+00	0	50	104	0	75	24170
2026-01-16 08:14:41.01	185.61	19.00	-51.9	-56.6	3.7	0.00e+00	0	50	104	0	75	24578
2026-01-16 08:14:42.01	185.73	19.16	-52.0	-56.8	3.7	0.00e+00	0	50	104	0	75	25114
2026-01-16 08:14:43.01	185.85	19.33	-52.1	-56.8	3.7	0.00e+00	0	50	104	0	75	25231
2026-01-16 08:14:44.00	185.97	19.49	-52.0	-56.6	3.7	0.00e+00	0	50	104	0	75	24636
2026-01-16 08:14:45.00	186.09	19.66	-52.1	-56.8	3.7	0.00e+00	0	50	104	0	75	25250
2026-01-16 08:14:45.99	186.21	19.83	-52.1	-56.8	3.7	0.00e+00	0	50	104	0	75	25310
2026-01-16 08:14:46.99	186.33	20.01	-52.1	-57.0	3.7	0.00e+00	0	50	104	0	75	25850
2026-01-16 08:14:47.98	186.45	20.18	-52.2	-57.0	3.7	0.00e+00	0	50	104	0	75	25790
2026-01-16 08:14:48.97	186.58	20.35	-51.9	-56.5	3.7	0.00e+00	0	50	104	0	75	24367
2026-01-16 08:14:49.97	186.71	20.53	-52.1	-56.4	3.7	0.00e+00	0	50	104	0	75	24222
2026-01-16 08:14:50.96	186.84	20.70	-51.9	-56.5	3.7	0.00e+00	0	50	104	0	75	24491
2026-01-16 08:14:51.96	186.97	20.88	-52.2	-56.6	3.7	0.00e+00	0	50	104	0	75	24656
2026-01-16 08:14:52.95	187.10	21.06	-52.3	-56.8	3.7	0.00e+00	0	50	104	0	75	25195
2026-01-16 08:14:53.95	187.23	21.24	-52.4	-56.9	3.7	0.00e+00	0	50	104	0	75	25432
2026-01-16 08:14:54.95	187.37	21.43	-52.3	-56.8	3.7	0.00e+00	0	50	104	0	75	25275
2026-01-16 08:14:55.94	187.51	21.61	-52.5	-57.0	3.7	0.00e+00	0	50	104	0	75	25951
2026-01-16 08:14:56.93	187.65	21.80	-52.6	-57.3	3.7	0.00e+00	0	50	104	0	75	26677
2026-01-16 08:14:57.93	187.79	21.98	-52.3	-56.6	3.7	0.00e+00	0	50	104	0	75	24615
2026-01-16 08:14:58.93	187.93	22.18	-52.5	-56.8	3.7	0.00e+00	0	50	104	0	75	25196
2026-01-16 08:14:59.92	188.08	22.36	-52.2	-56.4	3.7	0.00e+00	0	50	104	0	75	23984
2026-01-16 08:15:00.92	188.23	22.56	-52.5	-56.9	3.7	0.00e+00	0	50	104	0	75	25458
2026-01-16 08:15:01.91	188.38	22.75	-52.6	-57.0	3.7	0.00e+00	0	50	104	0	75	25874
2026-01-16 08:15:02.91	188.53	22.95	-52.8	-57.2	3.7	0.00e+00	0	50	104	0	76	25079
2026-01-16 08:15:03.90	188.68	23.14	-52.8	-57.4	3.7	0.00e+00	0	50	104	0	76	25431
2026-01-16 08:15:04.90	188.84	23.34	-52.9	-57.6	3.7	0.00e+00	0	50	104	0	76	25977
2026-01-16 08:15:05.90	189.00	23.55	-52.9	-57.6	3.7	0.00e+00	0	50	104	0	76	25986
2026-01-16 08:15:06.89	189.16	23.75	-53.0	-57.6	3.7	0.00e+00	0	50	104	0	76	26152
2026-01-16 08:15:07.89	189.32	23.95	-52.7	-57.5	3.7	0.00e+00	0	50	104	0	76	25860
2026-01-16 08:15:08.89	189.49	24.16	-52.9	-57.6	3.7	0.00e+00	0	50	104	0	76	26266
2026-01-16 08:15:09.89	189.65	24.37	-52.8	-57.6	3.7	0.00e+00	0	50	104	0	76	26145
2026-01-16 08:15:10.88	189.82	24.58	-53.4	-58.0	3.7	0.00e+00	0	50	104	0	77	25694
2026-01-16 08:15:11.88	190.00	24.79	-53.1	-57.4	3.7	0.00e+00	0	50	104	0	77	24221
2026-01-16 08:15:12.88	190.17	25.01	-53.1	-57.9	3.7	0.00e+00	0	50	104	0	77	25423
2026-01-16 08:15:13.88	190.35	25.22	-53.2	-57.8	3.7	0.00e+00	0	50	104	0	77	25244
2026-01-16 08:15:14.87	190.53	25.44	-53.1	-57.6	3.7	0.00e+00	0	50	104	0	77	24622
2026-01-16 08:15:15.87	190.71	25.66	-52.9	-57.1	3.7	0.00e+00	0	50	104	0	77	23384
2026-01-16 08:15:16.86	190.90	25.88	-53.3	-57.9	3.7	0.00e+00	0	50	104	0	77	25542
2026-01-16 08:15:17.86	191.09	26.10	-53.0	-57.0	3.7	0.00e+00	0	50	104	0	77	23027
2026-01-16 08:15:18.86	191.28	26.33	-52.7	-56.6	3.7	0.00e+00	0	50	104	0	77	22009
2026-01-16 08:15:19.86	191.47	26.56	-52.5	-56.2	3.7	0.00e+00	0	50	104	0	77	20913
2026-01-16 08:15:20.85	191.67	26.79	-52.4	-56.2	3.7	0.00e+00	0	50	104	0	76	22244
2026-01-16 08:15:21.85	191.87	27.02	-53.1	-57.3	3.7	0.00e+00	0	50	104	0	76	25270
2026-01-16 08:15:22.84	192.07	27.25	-53.0	-57.2	3.7	0.00e+00	0	50	104	0	76	24936
2026-01-16 08:15:23.84	192.28	27.49	-53.2	-57.6	3.7	0.00e+00	0	50	104	0	77	24791
2026-01-16 08:15:24.83	192.49	27.72	-53.1	-57.6	3.7	0.00e+00	0	50	104	0	77	24531
2026-01-16 08:15:25.83	192.71	27.96	-53.4	-57.9	3.7	0.00e+00	0	50	104	0	77	25615
2026-01-16 08:15:26.82	192.92	28.20	-53.3	-57.7	3.7	0.00e+00	0	50	104	0	77	24876
2026-01-16 08:15:27.82	193.14	28.45	-53.4	-58.0	3.7	0.00e+00	0	50	104	0	77	25854
2026-01-16 08:15:28.81	193.37	28.69	-53.4	-58.0	3.7	0.00e+00	0	50	104	0	77	25803
2026-01-16 08:15:29.81	193.60	28.94	-53.5	-57.8	3.7	0.00e+00	0	50	104	0	77	25269
2026-01-16 08:15:30.80	193.83	29.19	-53.2	-57.2	3.7	0.00e+00	0	50	104	0	77	23654
2026-01-16 08:15:31.80	194.06	29.45	-53.6	-57.9	3.7	0.00e+00	0	50	104	0	77	25473
2026-01-16 08:15:32.79	194.30	29.70	-53.4	-57.7	3.7	0.00e+00	0	50	104	0	77	25040
2026-01-16 08:15:33.79	194.55	29.96	-53.1	-56.9	3.7	0.00e+00	0	50	104	0	77	22671
2026-01-16 08:15:34.78	194.79	30.22	-52.9	-56.5	3.7	0.00e+00	0	50	104	0	77	21690
2026-01-16 08:15:35.78	195.05	30.48	-53.0	-56.6	3.7	0.00e+00	0	50	104	0	77	21873
2026-01-16 08:15:36.78	195.31	30.74	-52.0	-55.0	3.7	0.00e+00	0	50	104	0	76	19386
2026-01-16 08:15:37.77	195.57	31.01	-51.3	-54.2	3.8	0.00e+00	0	50	104	0	74	19755
2026-01-16 08:15:38.76	195.83	31.28	-50.4	-52.8	3.9	0.00e+00	0	50	104	0	72	18933
2026-01-16 08:15:39.76	196.10	31.55	-51.8	-54.9	3.8	0.00e+00	0	50	104	0	74	21369
2026-01-16 08:15:40.76	196.38	31.82	-53.5	-57.9	3.7	0.00e+00	0	50	104	0	77	25445
2026-01-16 08:15:41.75	196.66	32.10	-53.2	-57.4	3.7	0.00e+00	0	50	104	0	77	24114
2026-01-16 08:15:42.75	196.95	32.38	-51.7	-54.8	3.8	0.00e+00	0	50	104	0	75	19980
2026-01-16 08:15:43.74	197.24	32.65	-51.9	-54.9	3.7	0.00e+00	0	50	104	0	74	21503
2026-01-16 08:15:44.74	197.53	32.94	-52.1	-55.1	3.7	0.00e+00	0	50	104	0	74	21929
2026-01-16 08:15:45.73	197.83	33.22	-51.7	-54.5	3.8	0.00e+00	0	50	104	0	74	20486
2026-01-16 08:15:46.73	198.14	33.51	-51.2	-53.7	3.8	0.00e+00	0	50	104	0	74	18754
2026-01-16 08:15:47.73	198.46	33.80	-50.4	-52.6	3.9	0.00e+00	0	50	104	0	72	18585
2026-01-16 08:15:48.73	198.78	34.09	-51.7	-54.5	3.7	0.00e+00	0	50	104	0	73	21842
2026-01-16 08:15:49.72	199.10	34.39	-53.6	-57.8	3.7	0.00e+00	0	50	104	0	77	25322
2026-01-16 08:15:50.72	199.44	34.68	-53.3	-57.3	3.7	0.00e+00	0	50	104	0	77	23811
2026-01-16 08:15:51.72	199.78	34.98	-52.3	-55.5	3.7	0.00e+00	0	50	104	0	76	20398
2026-01-16 08:15:52.71	200.12	35.28	-52.6	-56.0	3.7	0.00e+00	0	50	104	0	76	21755
2026-01-16 08:15:53.70	200.47	35.59	-52.8	-56.4	3.7	0.00e+00	0	50	104	0	76	22638
2026-01-16 08:15:54.70	200.83	35.89	-53.0	-56.6	3.7	0.00e+00	0	50	104	0	76	23404
2026-01-16 08:15:55.69	201.19	36.20	-52.9	-56.6	3.7	0.00e+00	0	50	104	0	76	23396
2026-01-16 08:15:56.69	201.57	36.51	-52.3	-55.7	3.7	0.00e+00	0	50	104	0	76	20882
2026-01-16 08:15:57.68	201.95	36.82	-53.0	-56.8	3.7	0.00e+00	0	50	104	0	76	23819
2026-01-16 08:15:58.68	202.34	37.13	-53.5	-57.8	3.7	0.00e+00	0	50	104	0	77	25141
2026-01-16 08:15:59.68	202.73	37.45	-53.6	-57.9	3.7	0.00e+00	0	50	104	0	77	25412
2026-01-16 08:16:00.68	203.14	37.77	-53.5	-57.7	3.7	0.00e+00	0	50	104	0	77	25061
2026-01-16 08:16:01.67	203.55	38.09	-53.6	-57.7	3.7	0.00e+00	0	50	104	0	77	24823
2026-01-16 08:16:02.67	203.97	38.41	-53.6	-57.7	3.7	0.00e+00	0	50	104	0	77	24997
2026-01-16 08:16:03.67	204.41	38.74	-53.6	-57.7	3.7	0.00e+00	0	50	104	0	77	24860
2026-01-16 08:16:04.66	204.84	39.06	-53.4	-57.4	3.7	0.00e+00	0	50	104	0	77	24024
2026-01-16 08:16:05.65	205.29	39.39	-53.2	-57.2	3.7	0.00e+00	0	50	104	0	77	23518
2026-01-16 08:16:06.65	205.75	39.72	-53.2	-57.3	3.7	0.00e+00	0	50	104	0	77	23732
2026-01-16 08:16:07.64	206.21	40.05	-53.3	-57.3	3.7	0.00e+00	0	50	104	0	77	23879
2026-01-16 08:16:08.63	206.69	40.38	-53.1	-57.5	3.7	0.00e+00	0	50	104	0	77	24436
2026-01-16 08:16:09.64	207.18	40.71	-53.0	-56.8	3.7	0.00e+00	0	50	104	0	77	22552
2026-01-16 08:16:10.63	207.68	41.05	-53.5	-57.7	3.7	0.00e+00	0	50	104	0	77	25042
2026-01-16 08:16:11.63	208.19	41.38	-53.4	-57.5	3.7	0.00e+00	0	50	104	0	77	24310
2026-01-16 08:16:12.63	208.71	41.72	-52.3	-55.6	3.7	0.00e+00	0	50	104	0	76	20749
2026-01-16 08:16:13.62	209.24	42.06	-52.2	-55.4	3.7	0.00e+00	0	50	104	0	76	20394
2026-01-16 08:16:14.61	209.78	42.40	-52.2	-55.5	3.7	0.00e+00	0	50	104	0	76	20548
2026-01-16 08:16:15.61	210.34	42.74	-51.3	-54.9	3.7	0.00e+00	0	50	104	0	74	21409
2026-01-16 08:16:16.60	210.90	43.07	-51.2	-54.3	3.8	0.00e+00	0	50	104	0	74	20132
2026-01-16 08:16:17.60	211.49	43.42	-51.2	-53.9	3.8	0.00e+00	0	50	104	0	74	19150
2026-01-16 08:16:18.60	212.08	43.76	-52.0	-55.1	3.7	0.00e+00	0	50	104	0	74	21971
2026-01-16 08:16:19.59	212.68	44.10	-53.5	-57.8	3.7	0.00e+00	0	50	104	0	77	25235
2026-01-16 08:16:20.59	213.31	44.44	-53.7	-58.1	3.7	0.00e+00	0	50	104	0	78	24563
2026-01-16 08:16:21.58	213.93	44.78	-53.4	-57.5	3.7	0.00e+00	0	50	104	0	78	23123
2026-01-16 08:16:22.58	214.59	45.12	-53.5	-57.7	3.7	0.00e+00	0	50	104	0	78	23431
2026-01-16 08:16:23.58	215.25	45.46	-53.6	-57.7	3.7	0.00e+00	0	50	104	0	78	23583
2026-01-16 08:16:24.57	215.92	45.80	-53.7	-57.9	3.7	0.00e+00	0	50	104	0	78	24059
2026-01-16 08:16:25.57	216.62	46.13	-53.9	-58.1	3.7	0.00e+00	0	50	104	0	78	24636
2026-01-16 08:16:26.57	217.33	46.47	-53.6	-57.8	3.7	0.00e+00	0	50	104	0	78	23763
2026-01-16 08:16:27.57	218.05	46.81	-53.8	-58.2	3.7	0.00e+00	0	50	104	0	78	24879
2026-01-16 08:16:28.56	218.79	47.14	-53.8	-58.4	3.7	0.00e+00	0	50	104	0	78	25390
2026-01-16 08:16:29.57	219.55	47.47	-54.0	-58.4	3.7	0.00e+00	0	50	104	0	78	25595
2026-01-16 08:16:30.56	220.32	47.80	-54.1	-58.5	3.7	0.00e+00	0	50	104	0	78	25808
2026-01-16 08:16:31.55	221.10	48.12	-54.0	-58.5	3.7	0.00e+00	0	50	104	0	78	25757
2026-01-16 08:16:32.55	221.91	48.44	-53.8	-58.1	3.7	0.00e+00	0	50	104	0	78	24738
2026-01-16 08:16:33.55	222.74	48.76	-53.9	-58.3	3.7	0.00e+00	0	50	104	0	78	25202
2026-01-16 08:16:34.55	223.58	49.08	-53.9	-58.3	3.7	0.00e+00	0	50	104	0	78	25262
2026-01-16 08:16:35.55	224.44	49.39	-53.9	-58.4	3.7	0.00e+00	0	50	104	0	78	25389
2026-01-16 08:16:36.54	225.31	49.69	-53.8	-58.3	3.7	0.00e+00	0	50	104	0	78	25330
2026-01-16 08:16:37.53	226.20	49.99	-53.5	-58.1	3.7	0.00e+00	0	50	104	0	78	24732
2026-01-16 08:16:38.53	227.11	50.29	-53.2	-58.0	3.7	0.00e+00	0	50	104	0	78	24411
2026-01-16 08:16:39.53	228.05	50.58	-53.1	-57.9	3.7	0.00e+00	0	50	104	0	78	24230
2026-01-16 08:16:40.52	228.99	50.87	-53.6	-58.3	3.7	0.00e+00	0	50	104	0	78	25100
2026-01-16 08:16:41.52	229.96	51.15	-53.8	-57.9	3.7	0.00e+00	0	50	104	0	78	24197
2026-01-16 08:16:42.52	230.95	51.42	-53.9	-58.2	3.7	0.00e+00	0	50	104	0	78	24888
2026-01-16 08:16:43.51	231.95	51.68	-53.8	-58.2	3.7	0.00e+00	0	50	104	0	78	24985
2026-01-16 08:16:44.51	232.97	51.94	-53.4	-57.2	3.7	0.00e+00	0	50	104	0	78	22296
2026-01-16 08:16:45.50	234.00	52.19	-53.1	-56.7	3.7	0.00e+00	0	50	104	0	78	21038
2026-01-16 08:16:46.50	235.06	52.43	-53.2	-57.0	3.7	0.00e+00	0	50	104	0	77	23033
2026-01-16 08:16:47.50	236.14	52.67	-53.4	-57.4	3.7	0.00e+00	0	50	104	0	77	24119
2026-01-16 08:16:48.49	237.23	52.89	-53.2	-57.5	3.7	0.00e+00	0	50	104	0	77	24372
2026-01-16 08:16:49.49	238.34	53.11	-53.7	-58.1	3.7	0.00e+00	0	50	104	0	77	26204
2026-01-16 08:16:50.49	239.47	53.31	-53.6	-58.1	3.7	0.00e+00	0	50	104	0	78	24794
2026-01-16 08:16:51.48	240.60	53.51	-53.6	-57.9	3.7	0.00e+00	0	50	104	0	78	24118
2026-01-16 08:16:52.48	241.76	53.69	-53.7	-58.0	3.7	0.00e+00	0	50	104	0	78	24450
2026-01-16 08:16:53.48	242.93	53.86	-53.8	-58.3	3.7	0.00e+00	0	50	104	0	78	25103
2026-01-16 08:16:54.48	244.12	54.03	-54.0	-58.3	3.7	0.00e+00	0	50	104	0	78	25286
2026-01-16 08:16:55.47	245.31	54.18	-53.8	-58.3	3.7	0.00e+00	0	50	104	0	78	25369
2026-01-16 08:16:56.47	246.52	54.31	-53.7	-58.1	3.7	0.00e+00	0	50	104	0	78	24719
2026-01-16 08:16:57.46	247.73	54.44	-53.8	-58.2	3.7	0.00e+00	0	50	104	0	78	24961
2026-01-16 08:16:58.46	248.97	54.55	-54.0	-58.5	3.7	0.00e+00	0	50	104	0	78	25711
2026-01-16 08:16:59.46	250.21	54.66	-53.4	-57.4	3.7	0.00e+00	0	50	104	0	78	22721
2026-01-16 08:17:00.45	251.45	54.74	-53.5	-57.7	3.7	0.00e+00	0	50	104	0	78	23504
2026-01-16 08:17:01.45	252.71	54.82	-53.6	-57.7	3.7	0.00e+00	0	50	104	0	78	23435
2026-01-16 08:17:02.44	253.97	54.88	-53.4	-57.5	3.7	0.00e+00	0	50	104	0	78	23079
2026-01-16 08:17:03.45	255.25	54.93	-53.2	-57.4	3.7	0.00e+00	0	50	104	0	78	22631
2026-01-16 08:17:04.44	256.51	54.97	-53.6	-58.0	3.7	0.00e+00	0	50	104	0	78	24423
2026-01-16 08:17:05.44	257.79	54.99	-53.7	-58.2	3.7	0.00e+00	0	50	104	0	78	24945
2026-01-16 08:17:06.44	259.07	54.99	-53.8	-58.3	3.7	0.00e+00	0	50	104	0	78	25323
2026-01-16 08:17:07.43	260.33	54.99	-53.7	-58.3	3.7	0.00e+00	0	50	104	0	78	25303
2026-01-16 08:17:08.43	261.61	54.97	-53.0	-57.9	3.7	0.00e+00	0	50	104	0	78	24024
2026-01-16 08:17:09.42	262.87	54.94	-53.8	-58.3	3.7	0.00e+00	0	50	104	0	78	25161
2026-01-16 08:17:10.41	264.13	54.89	-53.7	-58.1	3.7	0.00e+00	0	50	104	0	78	24586
2026-01-16 08:17:11.40	265.38	54.83	-53.6	-58.3	3.7	0.00e+00	0	50	104	0	78	25131
2026-01-16 08:17:12.39	266.63	54.76	-53.6	-57.6	3.7	0.00e+00	0	50	104	0	78	23267
2026-01-16 08:17:13.39	267.89	54.67	-53.5	-57.5	3.7	0.00e+00	0	50	104	0	78	23051
2026-01-16 08:17:14.39	269.13	54.57	-53.0	-56.7	3.7	0.00e+00	0	50	104	0	76	23560
2026-01-16 08:17:15.39	270.37	54.46	-52.5	-56.0	3.7	0.00e+00	0	50	104	0	76	21651
2026-01-16 08:17:16.38	271.58	54.33	-52.0	-55.1	3.7	0.00e+00	0	50	104	0	76	19702
2026-01-16 08:17:17.38	272.79	54.20	-51.6	-54.4	3.8	0.00e+00	0	50	104	0	75	19156
2026-01-16 08:17:18.37	273.98	54.05	-52.2	-55.2	3.7	0.00e+00	0	50	104	0	76	19714
2026-01-16 08:17:19.37	275.17	53.89	-53.2	-56.9	3.7	0.00e+00	0	50	104	0	76	24074
2026-01-16 08:17:20.37	276.34	53.72	-53.8	-58.1	3.7	0.00e+00	0	50	104	0	78	24795
2026-01-16 08:17:21.36	277.49	53.54	-52.9	-56.6	3.7	0.00e+00	0	50	104	0	77	21962
2026-01-16 08:17:22.36	278.64	53.34	-52.4	-55.8	3.7	0.00e+00	0	50	104	0	75	22484
2026-01-16 08:17:23.36	279.77	53.14	-52.1	-55.3	3.8	0.00e+00	0	50	104	0	75	21147
2026-01-16 08:17:24.36	280.88	52.93	-52.8	-56.3	3.7	0.00e+00	0	50	104	0	76	22471
2026-01-16 08:17:25.35	281.96	52.70	-53.1	-57.0	3.7	0.00e+00	0	50	104	0	76	24447
2026-01-16 08:17:26.34	283.03	52.47	-21.7	-22.5	4.7	0.00e+00	0	50	104	0	15	15453
2026-01-16 08:17:27.34	284.09	52.23	-22.4	-23.3	4.7	0.00e+00	0	50	104	0	16	15854
2026-01-16 08:17:28.34	285.14	51.98	-26.2	-27.1	4.7	0.00e+00	0	50	104	0	22	17473
2026-01-16 08:17:29.33	286.15	51.73	-41.2	-42.2	4.5	0.00e+00	0	50	104	0	54	15685
2026-01-16 08:17:30.33	287.16	51.47	-27.2	-28.0	4.7	0.00e+00	0	50	104	0	26	15460
2026-01-16 08:17:31.33	288.15	51.20	-25.3	-26.1	4.7	0.00e+00	0	50	104	0	21	16515
2026-01-16 08:17:32.32	289.11	50.92	-23.7	-24.5	4.7	0.00e+00	0	50	104	0	18	16312
2026-01-16 08:17:33.32	290.06	50.64	-24.0	-24.8	4.7	0.00e+00	0	50	104	0	18	16931
2026-01-16 08:17:34.30	290.98	50.35	-23.7	-24.5	4.7	0.00e+00	0	50	104	0	19	15472
2026-01-16 08:17:35.29	291.88	50.06	-22.5	-23.3	4.7	0.00e+00	0	50	104	0	17	15087
2026-01-16 08:17:36.29	292.78	49.76	-22.0	-22.9	4.7	0.00e+00	0	50	104	0	15	16045
2026-01-16 08:17:37.29	293.66	49.45	-25.4	-26.2	4.7	0.00e+00	0	50	104	0	21	16744
2026-01-16 08:17:38.28	294.52	49.15	-42.1	-43.1	4.5	0.00e+00	0	50	104	0	56	15602
2026-01-16 08:17:39.27	295.35	48.83	-27.7	-28.6	5.1	0.00e+00	0	50	104	0	27	15489
2026-01-16 08:17:40.27	296.18	48.52	-26.2	-26.6	4.7	0.00e+00	0	50	104	0	22	16427
2026-01-16 08:17:41.26	296.98	48.20	-23.6	-24.4	4.7	0.00e+00	0	50	104	0	18	16145
2026-01-16 08:17:42.26	297.77	47.88	-23.6	-24.4	4.7	0.00e+00	0	50	104	0	18	16169
2026-01-16 08:17:43.26	298.55	47.55	-21.7	-22.5	22.7	0.00e+00	0	50	0	16777216	15	15471
2026-01-16 08:17:44.25	299.30	47.22	-21.7	-22.5	22.6	0.00e+00	0	50	0	75497472	15	15330
2026-01-16 08:17:45.25	300.04	46.89	-21.5	-22.3	22.7	0.00e+00	0	50	0	142606336	15	15077
2026-01-16 08:17:46.25	300.77	46.56	-21.8	-22.6	22.7	0.00e+00	0	50	0	201326592	15	15583
2026-01-16 08:17:47.24	301.47	46.22	-21.7	-22.5	22.6	0.00e+00	0	50	0	260046848	15	15389
2026-01-16 08:17:48.23	302.16	45.89	-21.6	-22.4	22.6	0.00e+00	0	50	0	318767104	14	16166
2026-01-16 08:17:49.23	302.84	45.55	-21.5	-22.4	22.7	0.00e+00	0	50	0	377487360	14	16018
2026-01-16 08:17:50.23	303.51	45.21	-21.8	-22.6	22.6	0.00e+00	0	51	0	436207616	14	16566
2026-01-16 08:17:51.22	304.15	44.88	-21.8	-22.7	22.7	0.00e+00	0	51	0	494927872	15	15660
2026-01-16 08:17:52.22	304.79	44.54	-22.0	-22.8	22.6	0.00e+00	0	51	0	553648128	15	16010
2026-01-16 08:17:53.21	305.41	44.20	-22.2	-23.0	22.6	0.00e+00	0	51	0	612368384	16	15461
2026-01-16 08:17:54.21	306.02	43.86	-22.0	-22.8	22.6	0.00e+00	0	51	0	679477248	15	15856
2026-01-16 08:17:55.21	306.62	43.52	-21.9	-22.7	22.6	0.00e+00	0	51	0	738197504	15	15696
2026-01-16 08:17:56.20	307.19	43.18	-22.1	-22.9	22.6	0.00e+00	0	51	0	796917760	15	16114
2026-01-16 08:17:57.21	307.77	42.84	-22.4	-23.2	22.5	0.00e+00	0	51	0	855638016	15	16700
2026-01-16 08:17:58.21	308.33	42.50	-22.5	-23.3	22.5	0.00e+00	0	51	0	914358272	16	15892
2026-01-16 08:17:59.21	308.88	42.16	-22.7	-23.6	22.4	0.00e+00	0	51	0	973078528	16	16400
2026-01-16 08:18:00.20	309.40	41.83	-22.7	-23.5	22.4	0.00e+00	0	51	0	1040187392	17	15360
2026-01-16 08:18:01.20	309.93	41.49	-22.6	-23.5	22.6	0.00e+00	0	51	0	1098907648	17	15318
2026-01-16 08:18:02.20	310.44	41.15	-22.6	-23.4	22.6	0.00e+00	0	51	0	1157627904	17	15173
2026-01-16 08:18:03.19	310.94	40.82	-22.8	-23.6	22.5	0.00e+00	0	50	0	1216348160	17	15638
2026-01-16 08:18:04.19	311.43	40.49	-23.1	-23.9	22.5	0.00e+00	0	51	0	1275068416	17	16111
2026-01-16 08:18:05.18	311.90	40.16	-22.9	-23.8	22.5	0.00e+00	0	51	0	1333788672	17	15841
2026-01-16 08:18:06.18	312.37	39.83	-23.2	-24.0	22.3	0.00e+00	0	51	0	1392508928	17	16300
2026-01-16 08:18:07.16	312.82	39.51	-23.1	-23.9	22.4	0.00e+00	0	51	0	1451229184	18	15236
2026-01-16 08:18:08.16	313.28	39.18	-23.3	-24.2	22.3	0.00e+00	0	51	0	1509949440	18	15680
2026-01-16 08:18:09.16	313.72	38.86	-23.6	-24.4	22.2	0.00e+00	0	51	0	1577058304	18	16125
2026-01-16 08:18:10.15	314.15	38.54	-23.5	-24.3	22.3	0.00e+00	0	51	0	1635778560	18	15951
2026-01-16 08:18:11.15	314.57	38.21	-23.7	-24.6	22.2	0.00e+00	0	51	0	1694498816	18	16432
2026-01-16 08:18:12.15	314.99	37.89	-24.0	-24.9	22.0	0.00e+00	0	51	0	1753219072	18	16968
2026-01-16 08:18:13.15	315.39	37.57	-23.5	-24.3	22.3	0.00e+00	0	51	0	1811939328	18	15999
2026-01-16 08:18:14.14	315.79	37.26	-23.7	-24.5	22.2	0.00e+00	0	51	0	1870659584	18	16383
2026-01-16 08:18:15.14	316.18	36.95	-23.7	-24.5	22.3	0.00e+00	0	51	0	1929379840	19	15353
2026-01-16 08:18:16.14	316.56	36.64	-23.9	-24.7	22.2	0.00e+00	0	51	0	1988100096	19	15729
2026-01-16 08:18:17.13	316.93	36.33	-24.1	-24.9	22.1	0.00e+00	0	51	0	2046820352	19	16108
2026-01-16 08:18:18.13	317.30	36.02	-24.0	-24.8	22.2	0.00e+00	0	51	0	2113929216	19	15931
2026-01-16 08:18:19.13	317.66	35.72	-24.2	-25.0	22.1	0.00e+00	0	51	0	2172649472	19	16366
2026-01-16 08:18:20.12	318.01	35.42	-24.4	-25.2	22.0	0.00e+00	0	51	0	2231369728	19	16742
2026-01-16 08:18:21.12	318.36	35.11	-24.2	-25.0	22.1	0.00e+00	0	51	0	2290089984	20	15427
2026-01-16 08:18:22.11	318.70	34.82	-24.4	-25.2	21.9	0.00e+00	0	51	0	2348810240	20	15731
2026-01-16 08:18:23.10	319.03	34.52	-24.6	-25.4	21.7	0.00e+00	0	51	0	2407530496	20	16105
2026-01-16 08:18:24.10	319.35	34.23	-24.8	-25.7	21.6	0.00e+00	0	51	0	2466250752	20	16602
2026-01-16 08:18:25.09	319.67	33.94	-24.7	-25.5	21.6	0.00e+00	0	51	0	2533359616	21	15458
2026-01-16 08:18:26.09	319.99	33.65	-24.9	-25.7	21.6	0.00e+00	0	51	0	2583691264	21	15791
2026-01-16 08:18:27.09	320.30	33.36	-25.1	-25.9	21.5	0.00e+00	0	51	0	2650800128	21	16188
2026-01-16 08:18:28.09	320.60	33.08	-24.9	-25.7	21.7	0.00e+00	0	51	0	2709520384	21	15801
2026-01-16 08:18:29.08	320.90	32.80	-25.1	-25.9	21.7	0.00e+00	0	51	0	2768240640	21	16186
2026-01-16 08:18:30.08	321.19	32.52	-25.3	-26.1	21.6	0.00e+00	0	51	0	2826960896	21	16551
2026-01-16 08:18:31.07	321.47	32.24	-25.2	-26.0	21.8	0.00e+00	0	51	0	2885681152	22	15418
2026-01-16 08:18:32.07	321.76	31.97	-25.4	-26.2	21.6	0.00e+00	0	51	0	2944401408	22	15809
2026-01-16 08:18:33.07	322.03	31.69	-25.6	-26.4	21.5	0.00e+00	0	51	0	3003121664	22	16106
2026-01-16 08:18:34.06	322.30	31.43	-25.8	-26.6	21.3	0.00e+00	0	51	0	3070230528	22	16502
2026-01-16 08:18:35.06	322.57	31.16	-25.7	-26.5	21.2	0.00e+00	0	51	0	3128950784	23	15383
2026-01-16 08:18:36.05	322.83	30.89	-25.8	-26.7	21.1	0.00e+00	0	51	0	3187671040	23	15658
2026-01-16 08:18:37.05	323.09	30.63	-26.0	-26.8	20.9	0.00e+00	0	51	0	3246391296	23	15952
2026-01-16 08:18:38.04	323.34	30.37	-26.2	-27.0	20.8	0.00e+00	0	51	0	3305111552	23	16340
2026-01-16 08:18:39.04	323.59	30.11	-25.9	-26.8	21.0	0.00e+00	0	51	0	3363831808	23	15892
2026-01-16 08:18:40.03	323.84	29.86	-26.1	-27.0	20.9	0.00e+00	0	51	0	3422552064	23	16238
2026-01-16 08:18:41.02	324.08	29.60	-26.3	-27.1	20.9	0.00e+00	0	51	0	3481272320	23	16494
2026-01-16 08:18:42.02	324.31	29.35	-26.5	-27.3	20.7	0.00e+00	0	51	0	3539992576	23	16853
2026-01-16 08:18:43.01	324.54	29.10	-26.2	-27.1	20.8	0.00e+00	0	51	0	3607101440	24	15522
2026-01-16 08:18:44.01	324.77	28.85	-26.4	-27.2	20.7	0.00e+00	0	51	0	3665821696	24	15815
2026-01-16 08:18:45.00	325.00	28.61	-26.6	-27.4	20.5	0.00e+00	0	51	0	3724541952	24	16105
2026-01-16 08:18:46.00	325.22	28.36	-26.7	-27.6	20.5	0.00e+00	0	51	0	3783262208	24	16471
2026-01-16 08:18:47.00	325.44	28.12	-26.5	-27.4	20.8	0.00e+00	0	51	0	3841982464	24	16017
2026-01-16 08:18:47.99	325.65	27.88	-26.7	-27.5	20.7	0.00e+00	0	51	0	3900702720	24	16307
2026-01-16 08:18:48.99	325.86	27.65	-26.8	-27.7	20.5	0.00e+00	0	51	0	3959422976	24	16626
2026-01-16 08:18:49.99	326.07	27.41	-27.0	-27.8	20.3	0.00e+00	0	51	0	4018143232	24	16944
2026-01-16 08:18:50.98	326.28	27.18	-26.8	-27.6	20.5	0.00e+00	0	51	0	4076863488	25	15583
2026-01-16 08:18:51.98	326.48	26.95	-26.9	-27.8	20.5	0.00e+00	0	51	0	4143972352	25	15895
2026-01-16 08:18:52.98	326.68	26.72	-27.0	-27.9	20.5	0.00e+00	0	51	0	4202692608	25	16094
2026-01-16 08:18:53.97	326.87	26.49	-27.1	-28.0	20.5	0.00e+00	0	51	0	4261412864	25	16264
2026-01-16 08:18:54.97	327.06	26.27	-27.3	-28.2	20.4	0.00e+00	0	51	0	4320133120	25	16610
2026-01-16 08:18:55.97	327.25	26.04	-27.1	-27.9	20.6	0.00e+00	0	51	0	4378853376	25	16109
2026-01-16 08:18:56.96	327.44	25.82	-27.2	-28.1	20.5	0.00e+00	0	51	0	4437573632	25	16455
2026-01-16 08:18:57.96	327.62	25.61	-27.3	-28.2	20.4	0.00e+00	0	51	0	4504682496	25	16629
2026-01-16 08:18:58.96	327.80	25.39	-27.4	-28.3	20.3	0.00e+00	0	51	0	4563402752	25	16858
2026-01-16 08:18:59.96	327.98	25.17	-27.6	-28.4	20.2	0.00e+00	0	51	0	4622123008	25	17071
2026-01-16 08:19:00.95	328.16	24.96	-27.3	-28.2	20.3	0.00e+00	0	51	0	4680843264	26	15728
2026-01-16 08:19:01.95	328.33	24.75	-27.5	-28.4	20.1	0.00e+00	0	51	0	4739563520	26	16026
2026-01-16 08:19:02.95	328.50	24.54	-27.6	-28.5	20.2	0.00e+00	0	51	0	4798283776	26	16214
2026-01-16 08:19:03.94	328.67	24.33	-27.7	-28.6	20.2	0.00e+00	0	51	0	4857004032	26	16432
2026-01-16 08:19:04.94	328.84	24.12	-27.9	-28.7	20.2	0.00e+00	0	51	0	4924112896	26	16769
2026-01-16 08:19:05.95	329.00	23.92	-27.7	-28.5	20.5	0.00e+00	0	51	0	4982833152	27	15433
2026-01-16 08:19:06.94	329.16	23.72	-27.9	-28.7	20.5	0.00e+00	0	51	0	5041553408	27	15746
2026-01-16 08:19:07.94	329.32	23.52	-28.0	-28.8	20.5	0.00e+00	0	51	0	5100273664	27	15970
2026-01-16 08:19:08.94	329.48	23.32	-28.1	-28.9	20.4	0.00e+00	0	51	0	5158993920	27	16170
2026-01-16 08:19:09.93	329.63	23.12	-28.3	-29.1	20.3	0.00e+00	0	51	0	5217714176	27	16546
2026-01-16 08:19:10.93	329.78	22.92	-28.3	-29.2	20.2	0.00e+00	0	51	0	5276434432	27	16679
2026-01-16 08:19:11.92	329.93	22.73	-28.0	-28.8	20.4	0.00e+00	0	51	0	5335154688	28	15114
2026-01-16 08:19:12.92	330.08	22.54	-28.1	-28.9	20.2	0.00e+00	0	51	0	5393874944	28	15264
2026-01-16 08:19:13.91	330.23	22.35	-28.1	-28.9	20.3	0.00e+00	0	51	0	5460983808	28	15211
2026-01-16 08:19:14.91	330.37	22.16	-28.5	-29.4	19.9	0.00e+00	0	51	0	5519704064	28	16098
2026-01-16 08:19:15.91	330.51	21.97	-28.7	-29.5	19.7	0.00e+00	0	51	0	5578424320	28	16381
2026-01-16 08:19:16.90	330.65	21.79	-28.7	-29.6	19.6	0.00e+00	0	51	0	5637144576	28	16507
2026-01-16 08:19:17.90	330.79	21.60	-28.6	-29.4	19.7	0.00e+00	0	51	0	5695864832	29	15264
2026-01-16 08:19:18.90	330.93	21.42	-28.6	-29.5	19.5	0.00e+00	0	51	0	5754585088	29	15394
2026-01-16 08:19:19.90	331.07	21.24	-28.8	-29.6	19.3	0.00e+00	0	51	0	5821693952	29	15577
2026-01-16 08:19:20.90	331.20	21.06	-28.8	-29.7	19.3	0.00e+00	0	51	0	5880414208	29	15718
2026-01-16 08:19:21.89	331.33	20.88	-28.9	-29.8	19.2	0.00e+00	0	51	0	5939134464	29	15852
2026-01-16 08:19:22.89	331.46	20.70	-29.0	-29.9	19.2	0.00e+00	0	51	0	5997854720	29	16085
2026-01-16 08:19:23.89	331.59	20.53	-29.2	-30.0	19.3	0.00e+00	0	51	0	6056574976	29	16324
2026-01-16 08:19:24.89	331.72	20.35	-28.9	-29.8	19.6	0.00e+00	0	51	0	6115295232	29	15860
2026-01-16 08:19:25.88	331.84	20.18	-29.0	-29.9	19.7	0.00e+00	0	51	0	6174015488	29	16105
2026-01-16 08:19:26.88	331.96	20.01	-29.1	-30.0	19.6	0.00e+00	0	51	0	6232735744	29	16215
2026-01-16 08:19:27.88	332.09	19.84	-29.2	-30.0	19.6	0.00e+00	0	51	0	6291456000	29	16333
2026-01-16 08:19:28.87	332.21	19.67	-29.3	-30.2	19.5	0.00e+00	0	51	0	6358564864	29	16620
2026-01-16 08:19:29.87	332.33	19.50	-29.5	-30.3	19.4	0.00e+00	0	51	0	6417285120	29	16896
2026-01-16 08:19:30.86	332.44	19.34	-29.5	-30.4	19.3	0.00e+00	0	51	0	6476005376	29	16979
2026-01-16 08:19:31.86	332.56	19.17	-29.3	-30.1	19.6	0.00e+00	0	51	0	6534725632	30	15569
2026-01-16 08:19:32.85	332.67	19.01	-29.4	-30.2	19.4	0.00e+00	0	51	0	6593445888	30	15818
2026-01-16 08:19:33.85	332.79	18.85	-29.4	-30.3	19.2	0.00e+00	0	51	0	6652166144	30	15880
2026-01-16 08:19:34.84	332.90	18.69	-29.5	-30.3	19.0	0.00e+00	0	51	0	6710886400	30	16015
2026-01-16 08:19:35.84	333.01	18.53	-29.6	-30.5	18.9	0.00e+00	0	51	0	6769606656	30	16219
2026-01-16 08:19:36.83	333.12	18.37	-29.7	-30.5	18.8	0.00e+00	0	51	0	6828326912	30	16346
2026-01-16 08:19:37.83	333.23	18.22	-29.8	-30.6	18.8	0.00e+00	0	51	0	6895435776	30	16567
2026-01-16 08:19:38.83	333.34	18.06	-30.0	-30.8	18.8	0.00e+00	0	51	0	6954156032	30	16955
2026-01-16 08:19:39.83	333.44	17.90	-29.6	-30.5	19.2	0.00e+00	0	51	0	7012876288	31	15317
2026-01-16 08:19:40.83	333.55	17.75	-29.8	-30.6	19.2	0.00e+00	0	51	0	7071596544	31	15625
2026-01-16 08:19:41.83	333.65	17.60	-29.7	-30.6	19.2	0.00e+00	0	51	0	7130316800	31	15562
2026-01-16 08:19:42.83	333.75	17.45	-29.8	-30.7	19.1	0.00e+00	0	51	0	7189037056	31	15683
2026-01-16 08:19:43.82	333.85	17.30	-30.2	-31.0	18.6	0.00e+00	0	51	0	7247757312	31	16346
2026-01-16 08:19:44.82	333.95	17.15	-30.2	-31.1	18.4	0.00e+00	0	51	0	7314866176	31	16399
2026-01-16 08:19:45.82	334.05	17.00	-30.3	-31.2	18.3	0.00e+00	0	51	0	7373586432	31	16662
2026-01-16 08:19:46.82	334.15	16.85	-30.4	-31.3	18.2	0.00e+00	0	51	0	7432306688	31	16871
2026-01-16 08:19:47.82	334.25	16.71	-30.5	-31.3	18.2	0.00e+00	0	51	0	7491026944	31	16943
2026-01-16 08:19:48.82	334.34	16.56	-30.3	-31.2	18.6	0.00e+00	0	52	0	7549747200	32	15794
2026-01-16 08:19:49.82	334.44	16.42	-30.4	-31.3	18.7	0.00e+00	0	51	0	7608467456	32	15910
2026-01-16 08:19:50.81	334.53	16.28	-30.5	-31.3	18.7	0.00e+00	0	51	0	7675576320	32	15992
2026-01-16 08:19:51.81	334.63	16.13	-30.5	-31.4	18.7	0.00e+00	0	52	0	7734296576	32	16065
2026-01-16 08:19:52.81	334.72	15.99	-30.6	-31.4	18.8	0.00e+00	0	51	0	7793016832	32	16139
2026-01-16 08:19:53.80	334.81	15.86	-30.6	-31.5	18.8	0.00e+00	0	51	0	7851737088	32	16322
2026-01-16 08:19:54.79	334.90	15.72	-30.8	-31.7	18.7	0.00e+00	0	51	0	7910457344	32	16629
2026-01-16 08:19:55.78	334.99	15.58	-30.9	-31.8	18.6	0.00e+00	0	51	0	7969177600	32	16850
2026-01-16 08:19:56.78	335.07	15.44	-30.9	-31.8	18.6	0.00e+00	0	51	0	8027897856	32	16787
2026-01-16 08:19:57.78	335.16	15.31	-30.9	-31.8	18.6	0.00e+00	0	51	0	8086618112	32	16811
2026-01-16 08:19:58.78	335.25	15.17	-30.7	-31.5	18.8	0.00e+00	0	51	0	8145338368	32	16322
2026-01-16 08:19:59.78	335.33	15.04	-30.7	-31.5	18.8	0.00e+00	0	51	0	8212447232	32	16337
2026-01-16 08:20:00.77	335.42	14.91	-30.8	-31.6	18.7	0.00e+00	0	51	0	8271167488	32	16531
2026-01-16 08:20:01.77	335.50	14.77	-30.9	-31.7	18.7	0.00e+00	0	51	0	8329887744	32	16740
2026-01-16 08:20:02.76	335.58	14.64	-30.9	-31.7	18.7	0.00e+00	0	52	0	8388608000	32	16712
2026-01-16 08:20:03.76	335.67	14.51	-30.9	-31.7	18.7	0.00e+00	0	51	0	8447328256	32	16764
2026-01-16 08:20:04.76	335.75	14.38	-31.0	-31.9	18.7	0.00e+00	0	51	0	8506048512	32	17037
2026-01-16 08:20:05.75	335.83	14.26	-31.1	-32.0	18.6	0.00e+00	0	51	0	8564768768	32	17242
2026-01-16 08:20:06.75	335.91	14.13	-31.2	-32.1	18.5	0.00e+00	0	51	0	8631877632	33	16391
2026-01-16 08:20:07.74	335.98	14.00	-31.4	-32.3	18.4	0.00e+00	0	51	0	8690597888	33	16856
2026-01-16 08:20:08.73	336.06	13.88	-31.4	-32.2	18.3	0.00e+00	0	51	0	8749318144	33	16752
2026-01-16 08:20:09.73	336.14	13.75	-31.1	-32.0	18.5	0.00e+00	0	51	0	8808038400	33	16268
2026-01-16 08:20:10.73	336.22	13.63	-31.2	-32.1	18.4	0.00e+00	0	51	0	8866758656	33	16507
2026-01-16 08:20:11.72	336.29	13.51	-31.7	-32.6	18.0	0.00e+00	0	51	0	8925478912	33	17369
2026-01-16 08:20:12.71	336.37	13.38	-31.8	-32.6	17.9	0.00e+00	0	51	0	8984199168	34	16553
2026-01-16 08:20:13.71	336.44	13.26	-31.7	-32.6	17.7	0.00e+00	0	51	0	9042919424	34	16431
2026-01-16 08:20:14.71	336.51	13.14	-31.8	-32.7	17.6	0.00e+00	0	51	0	9101639680	34	16586
2026-01-16 08:20:15.70	336.59	13.02	-31.8	-32.7	17.5	0.00e+00	0	51	0	9168748544	34	16664
2026-01-16 08:20:16.70	336.66	12.90	-31.9	-32.8	17.4	0.00e+00	0	51	0	9227468800	34	16808
2026-01-16 08:20:17.70	336.73	12.78	-31.9	-32.8	17.3	0.00e+00	0	51	0	9286189056	34	16915
2026-01-16 08:20:18.69	336.80	12.66	-32.1	-33.0	17.2	0.00e+00	0	51	0	9344909312	34	17186
2026-01-16 08:20:19.69	336.87	12.55	-32.1	-33.0	17.2	0.00e+00	0	51	0	9403629568	34	17236
2026-01-16 08:20:20.69	336.94	12.43	-32.2	-33.1	17.1	0.00e+00	0	51	0	9462349824	35	16534
2026-01-16 08:20:21.68	337.01	12.31	-31.9	-32.8	17.5	0.00e+00	0	51	0	9521070080	35	15920
2026-01-16 08:20:22.68	337.08	12.20	-32.1	-33.0	17.3	0.00e+00	0	51	0	9579790336	35	16278
2026-01-16 08:20:23.68	337.15	12.08	-32.0	-33.0	17.3	0.00e+00	0	51	0	9638510592	35	16226
2026-01-16 08:20:24.67	337.21	11.97	-32.1	-33.0	17.2	0.00e+00	0	51	0	9705619456	35	16227
2026-01-16 08:20:25.67	337.28	11.86	-32.1	-33.0	17.1	0.00e+00	0	51	0	9764339712	35	16328
2026-01-16 08:20:26.66	337.35	11.74	-32.2	-33.1	16.9	0.00e+00	0	51	0	9823059968	35	16438
2026-01-16 08:20:27.65	337.41	11.63	-32.2	-33.2	16.8	0.00e+00	0	51	0	9881780224	35	16589
2026-01-16 08:20:28.66	337.48	11.52	-32.4	-33.3	16.9	0.00e+00	0	51	0	9940500480	35	16841
2026-01-16 08:20:29.66	337.54	11.41	-32.5	-33.4	16.8	0.00e+00	0	51	0	9999220736	35	17007
2026-01-16 08:20:30.65	337.61	11.30	-32.4	-33.3	16.9	0.00e+00	0	51	0	10066329600	35	16946
2026-01-16 08:20:31.65	337.67	11.19	-32.5	-33.4	17.0	0.00e+00	0	51	0	10125049856	35	17139
2026-01-16 08:20:32.64	337.73	11.08	-32.6	-33.5	16.9	0.00e+00	0	51	0	10183770112	35	17285
2026-01-16 08:20:33.64	337.79	10.97	-33.9	-34.8	17.7	0.00e+00	0	51	0	10242490368	38	16798
2026-01-16 08:20:34.64	337.86	10.87	-34.0	-34.9	17.6	0.00e+00	0	51	0	10301210624	38	17014
2026-01-16 08:20:35.63	337.92	10.76	-33.7	-34.6	17.9	0.00e+00	0	51	0	10359930880	39	15589
2026-01-16 08:20:36.63	337.98	10.65	-33.8	-34.7	17.7	0.00e+00	0	51	0	10418651136	39	15698
2026-01-16 08:20:37.63	338.04	10.55	-33.8	-34.7	17.7	0.00e+00	0	51	0	10477371392	39	15742
2026-01-16 08:20:38.62	338.10	10.44	-33.8	-34.7	17.5	0.00e+00	0	51	0	10536091648	39	15761
2026-01-16 08:20:39.62	338.16	10.34	-33.9	-34.8	17.3	0.00e+00	0	51	0	10603200512	39	15895
2026-01-16 08:20:40.62	338.22	10.23	-34.0	-34.9	17.1	0.00e+00	0	51	0	10661920768	39	16179
2026-01-16 08:20:41.61	338.27	10.13	-34.1	-35.0	16.9	0.00e+00	0	51	0	10720641024	39	16351
2026-01-16 08:20:42.61	338.33	10.03	-34.4	-35.3	16.6	0.00e+00	0	51	0	10779361280	39	16943
2026-01-16 08:20:43.60	338.39	9.93	-34.4	-35.4	16.7	0.00e+00	0	51	0	10838081536	39	16978
2026-01-16 08:20:44.60	338.45	9.83	-34.4	-35.4	16.9	0.00e+00	0	51	0	10896801792	39	16975
2026-01-16 08:20:45.60	338.50	9.72	-34.5	-35.4	17.2	0.00e+00	0	51	0	10963910656	39	17159
2026-01-16 08:20:46.59	338.56	9.62	-34.5	-35.4	17.4	0.00e+00	0	51	0	11022630912	39	17147
2026-01-16 08:20:47.59	338.61	9.52	-52.0	-57.1	3.7	0.00e+00	0	51	104	11072962560	74	27797
2026-01-16 08:20:48.58	338.67	9.42	-52.2	-57.3	3.7	0.00e+00	0	51	104	11072962560	74	28334
2026-01-16 08:20:49.58	338.72	9.32	-52.2	-57.4	3.7	0.00e+00	0	51	104	11072962560	75	26937
2026-01-16 08:20:50.57	338.78	9.23	-52.2	-57.4	3.7	0.00e+00	0	51	104	11072962560	75	27117
2026-01-16 08:20:51.56	338.83	9.13	-51.9	-57.3	3.7	0.00e+00	0	51	104	11072962560	75	26606
2026-01-16 08:20:52.56	338.88	9.03	-51.4	-56.8	3.7	0.00e+00	0	51	104	11072962560	74	26799
2026-01-16 08:20:53.56	338.94	8.93	-50.5	-56.3	3.7	0.00e+00	0	51	104	11072962560	71	29898
2026-01-16 08:20:54.55	338.99	8.84	-52.5	-57.5	3.7	0.00e+00	0	51	104	11072962560	76	25894
2026-01-16 08:20:55.55	339.04	8.74	-51.6	-56.8	3.7	0.00e+00	0	51	104	11072962560	74	26849
2026-01-16 08:20:56.55	339.09	8.65	-53.1	-57.8	3.7	0.00e+00	0	51	104	11072962560	76	26835
2026-01-16 08:20:57.54	339.15	8.55	-52.9	-57.6	3.7	0.00e+00	0	51	104	11072962560	76	26121
2026-01-16 08:20:58.54	339.20	8.46	-44.4	-46.6	3.9	0.00e+00	0	51	104	11072962560	60	18413
2026-01-16 08:20:59.54	339.25	8.36	-51.4	-56.8	3.7	0.00e+00	0	51	104	11072962560	74	26678
2026-01-16 08:21:00.54	339.30	8.27	-53.6	-57.9	3.7	0.00e+00	0	51	104	11072962560	77	25667
2026-01-16 08:21:01.53	339.35	8.18	-53.7	-58.3	3.7	0.00e+00	0	50	104	11072962560	77	26889
2026-01-16 08:21:02.52	339.40	8.08	-52.3	-57.5	3.7	0.00e+00	0	51	104	11072962560	75	27484
2026-01-16 08:21:03.52	339.45	7.99	-53.7	-58.3	3.7	0.00e+00	0	51	104	11072962560	78	25327
2026-01-16 08:21:04.51	339.49	7.90	-53.9	-58.6	3.7	0.00e+00	0	51	104	11072962560	78	26029
2026-01-16 08:21:05.51	339.54	7.81	-53.6	-58.4	3.7	0.00e+00	0	51	104	11072962560	78	25480
2026-01-16 08:21:06.51	339.59	7.72	-54.0	-58.6	3.7	0.00e+00	0	51	104	11072962560	78	26050
2026-01-16 08:21:07.51	339.64	7.63	-53.4	-58.3	3.7	0.00e+00	0	51	104	11072962560	78	25231
2026-01-16 08:21:08.50	339.69	7.54	-54.2	-58.7	3.7	0.00e+00	0	50	104	11072962560	79	24999
2026-01-16 08:21:09.50	339.73	7.45	-54.1	-58.6	3.7	0.00e+00	0	51	104	11072962560	78	25988
2026-01-16 08:21:10.50	339.78	7.36	-54.1	-58.6	3.7	0.00e+00	0	50	104	11072962560	79	24742
2026-01-16 08:21:11.49	339.83	7.27	-54.2	-58.7	3.7	0.00e+00	0	50	104	11072962560	79	24867
2026-01-16 08:21:12.49	339.87	7.18	-54.2	-58.7	3.7	0.00e+00	0	50	104	11072962560	79	24987
2026-01-16 08:21:13.49	339.92	7.09	-53.9	-58.4	3.7	0.00e+00	0	51	104	11072962560	79	24083
2026-01-16 08:21:14.48	339.96	7.00	-54.0	-58.4	3.7	0.00e+00	0	50	104	11072962560	79	24004
2026-01-16 08:21:15.48	340.01	6.92	-53.6	-58.2	3.7	0.00e+00	0	50	104	11072962560	79	23476
2026-01-16 08:21:16.48	340.05	6.83	-53.7	-57.8	3.7	0.00e+00	0	50	104	11072962560	79	22412
2026-01-16 08:21:17.47	340.10	6.74	-53.4	-57.6	3.7	0.00e+00	0	50	104	11072962560	78	23194
2026-01-16 08:21:18.47	340.14	6.66	-52.8	-57.4	3.7	0.00e+00	0	50	104	11072962560	77	24150
2026-01-16 08:21:19.47	340.19	6.57	-52.8	-57.4	3.7	0.00e+00	0	50	104	11072962560	77	24196
2026-01-16 08:21:20.46	340.23	6.49	-52.8	-57.5	3.7	0.00e+00	0	50	104	11072962560	77	24251
2026-01-16 08:21:21.46	340.27	6.40	-52.8	-57.4	3.7	0.00e+00	0	50	104	11072962560	77	24181
2026-01-16 08:21:22.46	340.32	6.32	-52.8	-57.4	3.7	0.00e+00	0	50	104	11072962560	77	24125
2026-01-16 08:21:23.46	340.36	6.23	-52.8	-57.4	3.7	0.00e+00	0	50	104	11072962560	77	24171
2026-01-16 08:21:24.45	340.40	6.15	-52.8	-57.4	3.7	0.00e+00	0	50	104	11072962560	77	24170
2026-01-16 08:21:25.45	340.44	6.06	-52.8	-57.4	3.7	0.00e+00	0	50	104	11072962560	77	24227
2026-01-16 08:21:26.44	340.49	5.98	-52.8	-57.4	3.7	0.00e+00	0	50	104	11072962560	77	24186
2026-01-16 08:21:27.44	340.53	5.90	-52.8	-57.4	3.7	0.00e+00	0	50	104	11072962560	77	24118
2026-01-16 08:21:28.43	340.57	5.82	-52.8	-57.4	3.7	0.00e+00	0	50	104	11072962560	77	24197
2026-01-16 08:21:29.43	340.61	5.73	-52.8	-57.4	3.7	0.00e+00	0	50	104	11072962560	77	24198
2026-01-16 08:21:30.42	340.65	5.65	-52.8	-57.4	3.7	0.00e+00	0	50	104	11072962560	77	24187
2026-01-16 08:21:31.42	340.69	5.57	-52.8	-57.4	3.7	0.00e+00	0	50	104	11072962560	77	24123
2026-01-16 08:21:32.42	340.73	5.49	-52.8	-57.5	3.7	0.00e+00	0	50	104	11072962560	77	24246
2026-01-16 08:21:33.42	340.77	5.41	-52.8	-57.4	3.7	0.00e+00	0	50	104	11072962560	77	24204
2026-01-16 08:21:34.41	340.81	5.33	-52.8	-57.4	3.7	0.00e+00	0	50	104	11072962560	77	24203
2026-01-16 08:21:35.40	340.85	5.25	-52.8	-57.4	3.7	0.00e+00	0	50	104	11072962560	77	24145
2026-01-16 08:21:36.40	340.89	5.17	-52.8	-57.4	3.7	0.00e+00	0	50	104	11072962560	77	24199
2026-01-16 08:21:37.39	340.93	5.09	-52.8	-57.4	3.7	0.00e+00	0	50	104	11072962560	77	24132

#Closed at: 2026-01-16 08:21:38
#Recorded file [11072 MB]: D:/Data/31040_260116_111236.dat