passes_logs/2026/01/16/T1/T1__20260116_030233_AQUA_rec.log

#Pass ID: 20260116_030233_AQUA
#Satellite: AQUA
#Configuration: AQUA
#almurnet v.1.7.20251203
#Start time: 2026-01-16 03:02:33

#Version: 2.0.20230620
#Station: T1
#Location: 37.570604 lon 55.790049 lat
#TLE: 1 27424U 02022A   26015.51279194  .00000651  00000+0  14022-3 0  9990
#TLE: 2 27424  98.4082 341.9487 0002034  77.6776  33.2672 14.61821775260965

#Time	Az	El	Level	Level2	SNR	BER	BlckErr	Temp	State	Recorded	gain1	gain2
2026-01-16 03:02:33.79	1.81	5.00	-50.6	-71.7	3.8	7.46e-01	0	36	0	0	71	44105
2026-01-16 03:02:34.78	1.71	5.06	-45.4	-70.1	3.5	7.57e-01	0	36	104	0	61	65534
2026-01-16 03:02:35.78	1.61	5.12	-43.1	-67.6	3.2	7.79e-01	0	36	104	0	56	65535
2026-01-16 03:02:36.77	1.51	5.18	-43.1	-67.6	3.2	7.76e-01	0	36	104	0	56	65535
2026-01-16 03:02:37.76	1.41	5.24	-43.1	-67.6	3.2	7.81e-01	0	37	104	0	56	65535
2026-01-16 03:02:38.75	1.31	5.30	-43.1	-67.6	3.2	7.80e-01	0	36	104	0	56	65535
2026-01-16 03:02:39.75	1.21	5.36	-43.1	-67.6	3.2	7.79e-01	0	37	104	0	56	65535
2026-01-16 03:02:40.74	1.11	5.42	-43.1	-67.6	3.2	7.79e-01	0	36	104	0	56	65535
2026-01-16 03:02:41.74	1.00	5.48	-43.1	-67.6	3.2	7.76e-01	0	37	104	0	56	65535
2026-01-16 03:02:42.73	0.90	5.54	-43.1	-67.6	3.2	7.78e-01	0	36	104	0	56	65535
2026-01-16 03:02:43.72	0.79	5.60	-43.1	-67.6	3.2	7.82e-01	0	37	104	0	56	65535
2026-01-16 03:02:44.72	0.69	5.66	-43.2	-67.6	3.2	7.81e-01	0	37	104	0	56	65535
2026-01-16 03:02:45.71	0.58	5.72	-43.2	-67.6	3.2	7.78e-01	0	37	104	0	56	65535
2026-01-16 03:02:46.70	0.48	5.78	-43.2	-68.1	3.2	7.77e-01	0	37	104	0	57	65535
2026-01-16 03:02:47.70	0.37	5.84	-43.2	-68.1	3.2	7.80e-01	0	37	104	0	57	65535
2026-01-16 03:02:48.69	0.27	5.91	-43.2	-68.1	3.2	7.75e-01	0	37	104	0	57	65535
2026-01-16 03:02:49.68	0.16	5.97	-43.2	-68.1	3.2	7.72e-01	0	37	104	0	57	65535
2026-01-16 03:02:50.68	0.05	6.03	-43.2	-68.1	3.2	7.78e-01	0	37	104	0	57	65535
2026-01-16 03:02:51.67	359.94	6.09	-43.2	-68.1	3.2	7.78e-01	0	37	104	0	57	65535
2026-01-16 03:02:52.67	359.83	6.15	-43.2	-68.1	3.2	7.77e-01	0	37	104	0	57	65535
2026-01-16 03:02:53.66	359.73	6.21	-43.2	-68.1	3.2	7.73e-01	0	37	104	0	57	65535
2026-01-16 03:02:54.65	359.62	6.27	-43.2	-68.1	3.2	7.75e-01	0	37	104	0	57	65535
2026-01-16 03:02:55.65	359.51	6.33	-43.2	-68.1	3.2	7.73e-01	0	37	104	0	57	65535
2026-01-16 03:02:56.64	359.40	6.40	-43.2	-68.1	3.2	7.75e-01	0	37	104	0	57	65535
2026-01-16 03:02:57.63	359.28	6.46	-43.2	-68.1	3.2	7.79e-01	0	37	104	0	57	65535
2026-01-16 03:02:58.63	359.17	6.52	-43.2	-68.1	3.2	7.79e-01	0	37	104	0	57	65535
2026-01-16 03:02:59.62	359.06	6.58	-43.2	-68.1	3.2	7.79e-01	0	37	104	0	57	65535
2026-01-16 03:03:00.62	358.95	6.64	-43.2	-68.1	3.2	7.78e-01	0	37	104	0	57	65535
2026-01-16 03:03:01.61	358.83	6.70	-43.2	-68.1	3.2	7.77e-01	0	37	104	0	57	65535
2026-01-16 03:03:02.60	358.72	6.77	-43.2	-68.1	3.2	7.77e-01	0	37	104	0	57	65535
2026-01-16 03:03:03.60	358.61	6.83	-43.2	-68.1	3.2	7.76e-01	0	37	104	0	57	65535
2026-01-16 03:03:04.59	358.49	6.89	-43.2	-68.1	3.2	7.77e-01	0	37	104	0	57	65535
2026-01-16 03:03:05.58	358.38	6.95	-43.2	-68.1	3.2	7.79e-01	0	37	104	0	57	65535
2026-01-16 03:03:06.58	358.26	7.01	-43.2	-68.1	3.2	7.77e-01	0	38	104	0	57	65535
2026-01-16 03:03:07.57	358.14	7.08	-43.3	-68.1	3.2	7.80e-01	0	37	104	0	57	65535
2026-01-16 03:03:08.56	358.03	7.14	-43.3	-68.1	3.2	7.79e-01	0	37	104	0	57	65535
2026-01-16 03:03:09.56	357.91	7.20	-43.3	-68.1	3.2	7.77e-01	0	37	104	0	57	65535
2026-01-16 03:03:10.55	357.79	7.26	-43.3	-68.1	3.2	7.71e-01	0	38	104	0	57	65535
2026-01-16 03:03:11.54	357.67	7.33	-43.3	-68.1	3.2	7.75e-01	0	37	104	0	57	65535
2026-01-16 03:03:12.54	357.55	7.39	-43.3	-68.1	3.2	7.76e-01	0	38	104	0	57	65535
2026-01-16 03:03:13.53	357.43	7.45	-43.3	-68.1	3.2	7.74e-01	0	37	104	0	57	65535
2026-01-16 03:03:14.52	357.31	7.51	-43.3	-68.1	3.2	7.72e-01	0	37	104	0	57	65535
2026-01-16 03:03:15.52	357.19	7.58	-43.3	-68.1	3.3	7.72e-01	0	38	104	0	57	65535
2026-01-16 03:03:16.51	357.07	7.64	-43.3	-68.1	3.3	7.69e-01	0	37	104	0	57	65534
2026-01-16 03:03:17.50	356.95	7.70	-43.3	-68.1	3.3	7.67e-01	0	38	104	0	57	65535
2026-01-16 03:03:18.50	356.82	7.77	-43.3	-68.1	3.3	7.69e-01	0	38	104	0	57	65535
2026-01-16 03:03:19.49	356.70	7.83	-43.3	-68.1	3.3	7.71e-01	0	38	104	0	57	65535
2026-01-16 03:03:20.48	356.57	7.89	-43.3	-68.1	3.3	7.68e-01	0	38	104	0	57	65535
2026-01-16 03:03:21.48	356.45	7.95	-43.3	-68.1	3.3	7.69e-01	0	38	104	0	57	65535
2026-01-16 03:03:22.47	356.32	8.02	-43.3	-68.1	3.3	7.73e-01	0	38	104	0	57	65535
2026-01-16 03:03:23.46	356.20	8.08	-43.3	-68.1	3.3	7.72e-01	0	38	104	0	57	65535
2026-01-16 03:03:24.46	356.07	8.14	-43.3	-68.1	3.3	7.71e-01	0	38	104	0	57	65535
2026-01-16 03:03:25.45	355.94	8.21	-43.3	-68.1	3.3	7.69e-01	0	38	104	0	57	65535
2026-01-16 03:03:26.44	355.82	8.27	-43.3	-68.1	3.2	7.74e-01	0	38	104	0	57	65535
2026-01-16 03:03:27.44	355.69	8.33	-43.3	-68.1	3.3	7.71e-01	0	38	104	0	57	65535
2026-01-16 03:03:28.43	355.56	8.40	-43.2	-68.1	3.5	7.60e-01	0	38	104	0	57	65535
2026-01-16 03:03:29.42	355.43	8.46	-43.2	-67.9	3.8	7.44e-01	0	38	104	0	57	63572
2026-01-16 03:03:30.42	355.30	8.52	-43.1	-66.6	3.8	7.46e-01	0	38	104	0	57	54771
2026-01-16 03:03:31.41	355.17	8.59	-43.1	-65.5	3.8	7.42e-01	0	38	104	0	57	48541
2026-01-16 03:03:32.40	355.04	8.65	-43.0	-64.6	3.8	7.48e-01	0	38	104	0	57	43843
2026-01-16 03:03:33.40	354.90	8.71	-43.0	-63.8	3.8	7.44e-01	0	38	104	0	57	39713
2026-01-16 03:03:34.39	354.77	8.78	-42.9	-62.9	3.8	7.44e-01	0	38	104	0	57	36038
2026-01-16 03:03:35.38	354.64	8.84	-42.7	-62.1	3.8	7.43e-01	0	38	104	0	57	32560
2026-01-16 03:03:36.38	354.50	8.91	-42.6	-61.3	3.8	7.47e-01	0	38	104	0	57	29999
2026-01-16 03:03:37.37	354.37	8.97	-42.5	-61.0	3.8	7.44e-01	0	38	104	0	57	28746
2026-01-16 03:03:38.36	354.23	9.03	-42.4	-61.2	3.8	7.47e-01	0	38	104	0	56	31334
2026-01-16 03:03:39.39	354.09	9.10	-42.6	-64.2	3.8	7.48e-01	0	38	104	0	56	44411
2026-01-16 03:03:40.43	353.95	9.17	-42.7	-64.3	3.9	7.40e-01	0	38	104	0	57	42280
2026-01-16 03:03:41.46	353.81	9.23	-42.3	-58.7	3.8	7.48e-01	0	38	104	0	56	23508
2026-01-16 03:03:42.46	353.67	9.30	-43.9	-64.3	3.8	7.41e-01	0	38	104	0	59	37436
2026-01-16 03:03:43.54	353.52	9.37	-44.3	-64.7	3.9	7.40e-01	0	38	104	0	59	39187
2026-01-16 03:03:44.40	353.40	9.42	-45.2	-64.0	3.8	7.43e-01	0	38	104	0	61	32190
2026-01-16 03:03:45.54	353.23	9.49	-46.1	-63.9	3.8	7.48e-01	0	38	104	0	63	28520
2026-01-16 03:03:46.39	353.11	9.55	-46.5	-63.7	3.8	7.46e-01	0	38	104	0	63	27860
2026-01-16 03:03:47.52	352.95	9.62	-46.9	-62.8	3.8	7.43e-01	0	38	104	0	64	23830
2026-01-16 03:03:48.38	352.83	9.68	-46.9	-62.8	3.8	7.45e-01	0	38	104	0	64	23626
2026-01-16 03:03:49.51	352.67	9.75	-45.8	-60.7	3.8	7.48e-01	0	38	104	0	63	19758
2026-01-16 03:03:50.36	352.54	9.81	-46.2	-62.8	3.8	7.46e-01	0	38	104	0	62	26683
2026-01-16 03:03:51.50	352.38	9.88	-46.0	-61.1	4.0	7.40e-01	0	38	104	0	64	19558
2026-01-16 03:03:52.35	352.25	9.93	-43.0	-58.7	3.8	7.44e-01	0	38	104	0	57	22077
2026-01-16 03:03:53.49	352.09	10.01	-43.9	-58.5	3.8	7.48e-01	0	38	104	0	58	20405
2026-01-16 03:03:54.34	351.96	10.06	-44.1	-58.5	3.8	7.46e-01	0	38	104	0	58	20429
2026-01-16 03:03:55.53	351.78	10.14	-44.6	-58.5	3.8	7.45e-01	0	38	104	0	59	19378
2026-01-16 03:03:56.38	351.66	10.19	-44.7	-58.5	3.8	7.44e-01	0	38	104	0	60	18101
2026-01-16 03:03:57.51	351.49	10.27	-44.8	-57.9	3.8	7.42e-01	0	38	104	0	60	16901
2026-01-16 03:03:58.37	351.36	10.32	-43.7	-58.4	3.8	7.46e-01	0	38	104	0	59	19018
2026-01-16 03:03:59.62	351.17	10.40	-43.6	-63.1	3.9	7.39e-01	0	38	104	0	59	32905
2026-01-16 03:04:00.47	351.04	10.46	-43.1	-59.1	3.8	7.42e-01	0	38	104	0	58	21903
2026-01-16 03:04:01.60	350.87	10.53	-43.2	-58.6	3.8	7.46e-01	0	38	104	0	58	20636
2026-01-16 03:04:02.46	350.74	10.59	-43.1	-58.7	3.8	7.46e-01	0	38	104	0	58	20839
2026-01-16 03:04:03.59	350.56	10.66	-42.8	-58.3	3.7	7.49e-01	0	38	104	0	57	21239
2026-01-16 03:04:04.44	350.43	10.72	-42.6	-58.2	3.9	7.43e-01	0	38	104	0	57	20996
2026-01-16 03:04:05.59	350.25	10.79	-42.3	-48.4	21.7	6.04e-01	0	38	0	524288	56	7152
2026-01-16 03:04:06.44	350.12	10.85	-42.1	-48.4	21.7	6.02e-01	0	38	0	2097152	56	7151
2026-01-16 03:04:07.57	349.94	10.92	-41.8	-48.3	21.6	6.02e-01	0	38	0	4194304	55	7501
2026-01-16 03:04:08.43	349.80	10.97	-41.8	-48.4	21.6	6.02e-01	0	38	0	5767168	55	7564
2026-01-16 03:04:09.57	349.62	11.05	-42.1	-48.3	21.7	6.02e-01	0	38	0	7864320	55	7469
2026-01-16 03:04:10.42	349.49	11.10	-42.2	-48.3	21.8	6.01e-01	0	39	0	9437184	55	7465
2026-01-16 03:04:11.56	349.30	11.18	-42.4	-48.2	21.8	6.00e-01	0	38	0	11534336	55	7381
2026-01-16 03:04:12.41	349.17	11.23	-42.3	-48.1	21.9	6.02e-01	0	38	0	13107200	55	7303
2026-01-16 03:04:13.55	348.98	11.31	-42.2	-48.0	22.0	6.01e-01	0	38	0	15204352	55	7242
2026-01-16 03:04:14.40	348.84	11.36	-42.2	-47.9	22.1	6.02e-01	0	38	0	16777216	55	7193
2026-01-16 03:04:15.60	348.65	11.44	-42.5	-47.8	22.2	6.02e-01	0	38	0	18874368	55	7049
2026-01-16 03:04:16.45	348.51	11.49	-42.4	-47.7	22.3	6.04e-01	0	38	0	20971520	55	7008
2026-01-16 03:04:17.59	348.32	11.57	-42.6	-47.7	22.3	6.03e-01	0	38	0	22544384	55	6964
2026-01-16 03:04:18.44	348.18	11.62	-42.8	-47.8	22.3	6.03e-01	0	39	0	24117248	56	6659
2026-01-16 03:04:19.58	347.99	11.69	-42.9	-47.9	22.3	6.00e-01	0	38	0	26738688	56	6732
2026-01-16 03:04:20.43	347.85	11.75	-42.9	-47.9	22.3	6.03e-01	0	38	0	28311552	56	6729
2026-01-16 03:04:21.57	347.66	11.82	-42.9	-47.8	22.2	5.98e-01	0	39	0	30408704	56	6703
2026-01-16 03:04:22.42	347.51	11.88	-42.8	-47.7	22.4	6.02e-01	0	38	0	31981568	56	6640
2026-01-16 03:04:23.56	347.32	11.95	-42.8	-47.7	22.4	5.99e-01	0	38	0	34078720	56	6630
2026-01-16 03:04:24.41	347.17	12.00	-42.8	-47.8	22.3	6.01e-01	0	38	0	35651584	56	6649
2026-01-16 03:04:25.55	346.98	12.08	-42.9	-47.8	22.3	6.03e-01	0	38	0	37748736	56	6702
2026-01-16 03:04:26.40	346.83	12.13	-43.1	-47.8	22.3	6.02e-01	0	38	0	39321600	56	6678
2026-01-16 03:04:27.54	346.63	12.21	-43.4	-47.9	22.3	6.02e-01	0	38	0	41418752	57	6366
2026-01-16 03:04:28.39	346.49	12.26	-43.9	-47.8	22.3	6.05e-01	0	38	0	42991616	58	5971
2026-01-16 03:04:29.53	346.29	12.33	-44.3	-47.9	22.3	6.03e-01	0	38	0	45088768	59	5674
2026-01-16 03:04:30.38	346.14	12.39	-44.5	-48.0	22.2	6.00e-01	0	38	0	46661632	59	5749
2026-01-16 03:04:31.63	345.92	12.47	-44.5	-47.6	22.5	6.04e-01	0	39	0	49283072	60	5192
2026-01-16 03:04:32.48	345.76	12.52	-44.5	-47.5	22.6	6.02e-01	0	39	0	50855936	60	5120
2026-01-16 03:04:33.62	345.56	12.59	-44.6	-47.6	22.5	6.05e-01	0	38	0	52953088	60	5187
2026-01-16 03:04:34.47	345.41	12.65	-44.4	-47.4	22.7	6.01e-01	0	38	0	54525952	60	5072
2026-01-16 03:04:35.61	345.20	12.72	-44.5	-47.5	22.6	6.03e-01	0	38	0	56623104	60	5137
2026-01-16 03:04:36.46	345.05	12.77	-44.5	-47.6	22.6	6.02e-01	0	39	0	58195968	60	5166
2026-01-16 03:04:37.60	344.84	12.85	-44.5	-47.6	22.6	6.01e-01	0	38	0	60293120	60	5168
2026-01-16 03:04:38.45	344.69	12.90	-44.5	-47.6	22.5	6.05e-01	0	39	0	61865984	60	5194
2026-01-16 03:04:39.59	344.48	12.97	-44.6	-47.7	22.3	6.02e-01	0	39	0	63963136	60	5254
2026-01-16 03:04:40.44	344.32	13.03	-44.7	-47.8	22.4	6.01e-01	0	38	0	65536000	60	5281
2026-01-16 03:04:41.58	344.11	13.10	-44.5	-47.6	22.6	6.02e-01	0	39	0	67633152	60	5161
2026-01-16 03:04:42.43	343.95	13.15	-44.4	-47.5	22.6	6.02e-01	0	38	0	69206016	60	5137
2026-01-16 03:04:43.57	343.74	13.22	-44.1	-47.6	22.6	6.02e-01	0	39	0	71303168	59	5474
2026-01-16 03:04:44.42	343.58	13.28	-43.9	-47.5	22.7	6.03e-01	0	39	0	72876032	59	5437
2026-01-16 03:04:45.56	343.37	13.35	-43.4	-47.5	22.7	6.02e-01	0	39	0	75497472	58	5753
2026-01-16 03:04:46.41	343.20	13.40	-43.1	-47.5	22.7	6.00e-01	0	39	0	77070336	58	5752
2026-01-16 03:04:47.55	342.99	13.47	-42.8	-47.6	22.6	6.03e-01	0	39	0	79167488	57	6141
2026-01-16 03:04:48.40	342.83	13.52	-42.6	-47.5	22.7	6.01e-01	0	38	0	80740352	57	6068
2026-01-16 03:04:49.53	342.61	13.59	-42.7	-47.6	22.5	6.04e-01	0	38	0	82837504	57	6163
2026-01-16 03:04:50.39	342.44	13.65	-42.8	-47.7	22.5	6.02e-01	0	39	0	84410368	57	6207
2026-01-16 03:04:51.63	342.20	13.72	-43.1	-47.7	22.5	6.01e-01	0	39	0	86507520	57	6248
2026-01-16 03:04:52.48	342.04	13.78	-43.2	-47.7	22.4	6.04e-01	0	39	0	88080384	57	6270
2026-01-16 03:04:53.62	341.81	13.85	-43.5	-47.7	22.5	6.02e-01	0	39	0	90177536	57	6233
2026-01-16 03:04:54.48	341.64	13.90	-43.6	-47.6	22.6	6.01e-01	0	39	0	91750400	57	6145
2026-01-16 03:04:55.61	341.42	13.97	-43.8	-47.7	22.6	6.04e-01	0	39	0	94371840	58	5860
2026-01-16 03:04:56.46	341.25	14.02	-43.9	-47.5	22.7	6.01e-01	0	38	0	95944704	58	5736
2026-01-16 03:04:57.60	341.03	14.09	-43.9	-47.5	22.8	6.01e-01	0	39	0	98041856	58	5725
2026-01-16 03:04:58.45	340.86	14.14	-44.0	-47.5	22.7	6.00e-01	0	39	0	99614720	58	5741
2026-01-16 03:04:59.59	340.63	14.21	-44.1	-47.6	22.6	6.01e-01	0	39	0	101711872	58	5832
2026-01-16 03:05:00.44	340.46	14.26	-44.1	-47.6	22.6	6.01e-01	0	39	0	103284736	58	5814
2026-01-16 03:05:01.58	340.22	14.33	-44.1	-47.7	22.6	6.04e-01	0	39	0	105381888	59	5530
2026-01-16 03:05:02.70	340.00	14.40	-44.1	-47.5	22.7	5.99e-01	0	39	0	107479040	59	5463
2026-01-16 03:05:03.71	339.79	14.46	-44.2	-47.5	22.7	6.02e-01	0	39	0	109051904	59	5455
2026-01-16 03:05:04.88	339.55	14.53	-44.2	-47.5	22.7	6.00e-01	0	39	0	111673344	59	5438
2026-01-16 03:05:05.80	339.36	14.58	-44.3	-47.5	22.7	6.02e-01	0	39	0	113246208	59	5428
2026-01-16 03:05:06.98	339.11	14.65	-44.4	-47.6	22.6	6.02e-01	0	39	0	115343360	59	5516
2026-01-16 03:05:07.83	338.94	14.70	-44.3	-47.7	22.6	6.01e-01	0	39	0	116916224	59	5530
2026-01-16 03:05:08.97	338.70	14.77	-44.1	-47.6	22.6	6.01e-01	0	39	0	119013376	59	5517
2026-01-16 03:05:09.82	338.52	14.82	-43.9	-47.6	22.7	6.02e-01	0	38	0	120586240	59	5472
2026-01-16 03:05:10.95	338.28	14.89	-43.9	-47.5	22.7	6.02e-01	0	39	0	122683392	59	5454
2026-01-16 03:05:11.81	338.10	14.94	-44.0	-47.5	22.7	6.06e-01	0	39	0	124256256	59	5449
2026-01-16 03:05:12.94	337.86	15.00	-44.3	-47.6	22.7	6.01e-01	0	39	0	126877696	59	5466
2026-01-16 03:05:13.80	337.67	15.05	-44.4	-47.6	22.7	6.03e-01	0	39	0	128450560	59	5477
2026-01-16 03:05:14.93	337.43	15.12	-44.4	-47.5	22.8	6.02e-01	0	38	0	130547712	59	5412
2026-01-16 03:05:15.79	337.25	15.17	-44.3	-47.5	22.8	6.02e-01	0	39	0	132120576	59	5423
2026-01-16 03:05:16.97	336.99	15.23	-44.2	-47.5	22.7	6.00e-01	0	39	0	134217728	59	5437
2026-01-16 03:05:17.82	336.81	15.28	-44.0	-47.5	22.8	6.02e-01	0	39	0	135790592	59	5405
2026-01-16 03:05:18.96	336.56	15.35	-44.0	-47.4	22.8	6.04e-01	0	39	0	137887744	59	5398
2026-01-16 03:05:19.81	336.37	15.39	-44.1	-47.5	22.7	6.00e-01	0	39	0	139460608	59	5439
2026-01-16 03:05:20.95	336.12	15.46	-44.3	-47.6	22.7	6.01e-01	0	39	0	141557760	59	5467
2026-01-16 03:05:21.80	335.93	15.51	-44.5	-47.6	22.7	6.04e-01	0	39	0	143130624	59	5507
2026-01-16 03:05:22.94	335.68	15.57	-44.5	-47.6	22.7	6.02e-01	0	39	0	145227776	59	5484
2026-01-16 03:05:23.79	335.49	15.62	-44.4	-47.6	22.6	6.03e-01	0	39	0	146800640	59	5487
2026-01-16 03:05:24.93	335.23	15.68	-44.2	-47.7	22.6	6.03e-01	0	39	0	148897792	59	5548
2026-01-16 03:05:25.78	335.04	15.73	-43.9	-47.6	22.6	5.99e-01	0	39	0	150470656	59	5516
2026-01-16 03:05:26.92	334.79	15.79	-43.7	-47.6	22.6	5.99e-01	0	39	0	152567808	59	5495
2026-01-16 03:05:27.77	334.59	15.83	-43.8	-47.6	22.7	6.02e-01	0	39	0	154664960	59	5488
2026-01-16 03:05:28.91	334.33	15.90	-44.3	-47.6	22.6	6.01e-01	0	39	0	156762112	59	5483
2026-01-16 03:05:29.76	334.14	15.94	-44.4	-47.4	22.8	6.02e-01	0	39	0	158334976	59	5400
2026-01-16 03:05:30.92	333.87	16.00	-44.6	-47.4	22.7	6.03e-01	0	39	0	160432128	60	5090
2026-01-16 03:05:31.77	333.68	16.05	-44.6	-47.4	22.7	6.02e-01	0	39	0	162004992	60	5086
2026-01-16 03:05:32.90	333.42	16.11	-44.3	-47.4	22.8	6.04e-01	0	39	0	164102144	60	5043
2026-01-16 03:05:33.76	333.22	16.15	-44.2	-47.4	22.8	6.02e-01	0	39	0	165675008	60	5047
2026-01-16 03:05:34.89	332.96	16.21	-44.1	-47.7	22.6	6.04e-01	0	39	0	167772160	59	5530
2026-01-16 03:05:35.79	332.75	16.26	-43.8	-47.6	22.7	6.03e-01	0	39	0	169345024	59	5503
2026-01-16 03:05:37.06	332.45	16.32	-43.7	-47.6	22.6	6.00e-01	0	39	0	171966464	59	5512
2026-01-16 03:05:37.86	332.26	16.36	-43.7	-47.7	22.6	6.01e-01	0	39	0	173539328	59	5532
2026-01-16 03:05:39.12	331.96	16.43	-44.0	-47.5	22.8	6.02e-01	0	39	0	175636480	59	5432
2026-01-16 03:05:39.90	331.78	16.47	-44.4	-47.6	22.7	6.01e-01	0	39	0	177209344	59	5487
2026-01-16 03:05:41.18	331.47	16.53	-44.5	-47.6	22.7	6.01e-01	0	39	0	179306496	59	5497
2026-01-16 03:05:41.89	331.31	16.56	-44.6	-47.7	22.6	6.02e-01	0	38	0	180879360	59	5547
2026-01-16 03:05:43.17	331.00	16.63	-44.4	-47.7	22.6	6.03e-01	0	39	0	183500800	59	5564
2026-01-16 03:05:43.88	330.83	16.66	-44.3	-47.7	22.2	6.02e-01	0	39	0	184549376	59	5574
2026-01-16 03:05:45.16	330.52	16.72	-44.2	-47.5	22.7	6.02e-01	0	39	0	187170816	59	5444
2026-01-16 03:05:45.88	330.34	16.76	-44.2	-47.5	22.8	6.03e-01	0	39	0	188219392	59	5434
2026-01-16 03:05:47.16	330.03	16.82	-44.5	-47.6	22.6	6.03e-01	0	38	0	190840832	59	5506
2026-01-16 03:05:47.87	329.86	16.85	-44.5	-47.5	22.7	6.00e-01	0	39	0	191889408	60	5125
2026-01-16 03:05:49.15	329.55	16.91	-44.5	-47.4	22.7	6.02e-01	0	39	0	194510848	60	5091
2026-01-16 03:05:49.88	329.37	16.95	-44.5	-47.4	22.7	6.00e-01	0	39	0	196083712	60	5091
2026-01-16 03:05:51.15	329.06	17.00	-44.5	-47.4	22.7	6.01e-01	0	39	0	198180864	60	5099
2026-01-16 03:05:52.12	328.82	17.05	-44.4	-47.3	22.8	6.01e-01	0	39	0	200278016	60	5030
2026-01-16 03:05:53.12	328.57	17.09	-44.3	-47.3	22.9	6.03e-01	0	39	0	201850880	60	5011
2026-01-16 03:05:54.46	328.24	17.15	-44.2	-47.4	22.8	6.03e-01	0	39	0	204472320	60	5076
2026-01-16 03:05:55.17	328.06	17.18	-44.1	-47.5	22.7	6.01e-01	0	38	0	205520896	60	5112
2026-01-16 03:05:56.45	327.74	17.24	-44.0	-47.4	22.7	6.04e-01	0	39	0	208142336	60	5091
2026-01-16 03:05:57.17	327.56	17.27	-44.0	-47.5	22.7	6.03e-01	0	39	0	209715200	60	5112
2026-01-16 03:05:58.45	327.23	17.33	-44.1	-47.5	22.7	6.03e-01	0	39	0	211812352	60	5108
2026-01-16 03:05:59.16	327.06	17.36	-44.1	-47.5	22.7	6.03e-01	0	39	0	213385216	60	5104
2026-01-16 03:06:00.44	326.73	17.41	-44.2	-47.8	22.5	6.03e-01	0	39	0	215482368	59	5600
2026-01-16 03:06:01.17	326.55	17.44	-44.1	-47.8	22.5	6.00e-01	0	39	0	217055232	59	5631
2026-01-16 03:06:02.45	326.22	17.49	-43.8	-47.6	22.7	6.03e-01	0	39	0	219676672	59	5509
2026-01-16 03:06:03.16	326.04	17.52	-43.9	-47.7	22.6	6.02e-01	0	39	0	220725248	59	5556
2026-01-16 03:06:04.55	325.68	17.57	-44.0	-47.7	22.5	6.03e-01	0	39	0	223346688	59	5591
2026-01-16 03:06:05.26	325.50	17.60	-44.2	-47.7	22.6	6.00e-01	0	39	0	224919552	59	5566
2026-01-16 03:06:06.61	325.15	17.66	-44.6	-47.8	22.5	6.02e-01	0	39	0	227016704	59	5608
2026-01-16 03:06:07.33	324.96	17.68	-44.7	-47.7	22.6	6.00e-01	0	39	0	228589568	59	5557
2026-01-16 03:06:08.67	324.62	17.73	-44.6	-47.5	22.7	6.02e-01	0	39	0	231211008	60	5141
2026-01-16 03:06:09.38	324.43	17.76	-44.7	-47.5	22.6	6.00e-01	0	39	0	232259584	60	5158
2026-01-16 03:06:10.75	324.07	17.81	-44.8	-47.6	22.5	6.01e-01	0	39	0	234881024	60	5214
2026-01-16 03:06:11.46	323.89	17.84	-44.7	-47.5	22.7	6.04e-01	0	39	0	236453888	60	5137
2026-01-16 03:06:12.79	323.54	17.88	-44.6	-47.5	22.7	6.03e-01	0	39	0	238551040	60	5116
2026-01-16 03:06:13.50	323.35	17.91	-44.6	-47.5	22.7	6.02e-01	0	39	0	240123904	60	5116
2026-01-16 03:06:14.82	323.01	17.95	-44.6	-47.6	22.6	6.02e-01	0	39	0	242745344	60	5195
2026-01-16 03:06:15.54	322.82	17.98	-44.7	-47.7	22.5	6.02e-01	0	39	0	243793920	60	5231
2026-01-16 03:06:16.81	322.48	18.02	-44.6	-47.6	22.6	6.03e-01	0	39	0	246415360	60	5169
2026-01-16 03:06:17.53	322.29	18.04	-44.6	-47.5	22.7	6.02e-01	0	39	0	247463936	60	5147
2026-01-16 03:06:18.81	321.95	18.09	-44.7	-47.6	22.6	6.02e-01	0	39	0	250085376	60	5215
2026-01-16 03:06:19.52	321.76	18.11	-44.7	-47.5	22.6	6.04e-01	0	39	0	251658240	60	5139
2026-01-16 03:06:20.79	321.42	18.15	-44.7	-47.6	22.6	6.01e-01	0	38	0	253755392	60	5196
2026-01-16 03:06:21.51	321.23	18.17	-44.7	-47.5	22.7	6.05e-01	0	39	0	255328256	60	5155
2026-01-16 03:06:22.78	320.89	18.21	-44.7	-47.7	22.5	6.02e-01	0	39	0	257425408	60	5231
2026-01-16 03:06:23.49	320.69	18.23	-44.6	-47.5	22.7	6.03e-01	0	39	0	258998272	60	5154
2026-01-16 03:06:24.77	320.35	18.27	-44.8	-47.8	22.5	6.04e-01	0	39	0	261095424	60	5297
2026-01-16 03:06:25.56	320.14	18.29	-44.6	-47.5	22.7	6.03e-01	0	39	0	262668288	60	5155
2026-01-16 03:06:26.75	319.81	18.32	-44.6	-47.7	22.5	6.05e-01	0	39	0	265289728	60	5263
2026-01-16 03:06:27.60	319.58	18.34	-44.5	-47.7	22.5	6.03e-01	0	39	0	266862592	60	5236
2026-01-16 03:06:28.74	319.27	18.37	-44.5	-47.9	22.3	6.02e-01	0	39	0	268435456	60	5386
2026-01-16 03:06:29.81	318.98	18.40	-44.1	-47.8	22.5	6.04e-01	0	39	0	270532608	60	5283
2026-01-16 03:06:30.84	318.70	18.43	-44.1	-47.7	22.5	6.02e-01	0	39	0	272629760	60	5244
2026-01-16 03:06:32.01	318.38	18.46	-44.2	-47.7	22.5	6.04e-01	0	39	0	274726912	60	5235
2026-01-16 03:06:32.86	318.15	18.48	-44.2	-47.6	22.6	6.01e-01	0	39	0	276299776	60	5198
2026-01-16 03:06:34.00	317.84	18.50	-44.3	-47.6	22.6	6.04e-01	0	39	0	278396928	60	5208
2026-01-16 03:06:34.85	317.60	18.52	-44.6	-47.9	22.3	6.04e-01	0	39	0	279969792	60	5377
2026-01-16 03:06:35.99	317.29	18.55	-44.5	-47.6	22.6	6.00e-01	0	39	0	282066944	60	5191
2026-01-16 03:06:36.84	317.06	18.56	-44.8	-47.8	22.4	6.04e-01	0	39	0	283639808	60	5327
2026-01-16 03:06:37.97	316.74	18.59	-44.6	-47.6	22.6	6.03e-01	0	39	0	286261248	60	5170
2026-01-16 03:06:38.83	316.51	18.61	-44.9	-47.8	22.4	6.05e-01	0	39	0	287834112	60	5320
2026-01-16 03:06:39.96	316.19	18.63	-44.8	-47.7	22.5	6.05e-01	0	38	0	289931264	60	5239
2026-01-16 03:06:40.82	315.96	18.64	-44.9	-47.9	22.4	6.03e-01	0	39	0	291504128	60	5375
2026-01-16 03:06:41.95	315.64	18.66	-44.6	-47.5	22.7	6.03e-01	0	39	0	293601280	60	5118
2026-01-16 03:06:42.81	315.40	18.68	-45.0	-48.0	22.3	6.03e-01	0	39	0	295174144	60	5433
2026-01-16 03:06:44.01	315.07	18.70	-44.6	-47.7	22.5	6.02e-01	0	39	0	297271296	60	5235
2026-01-16 03:06:44.86	314.83	18.71	-44.8	-48.1	22.2	6.00e-01	0	39	0	298844160	60	5489
2026-01-16 03:06:46.00	314.52	18.73	-44.4	-47.6	22.6	6.01e-01	0	39	0	300941312	60	5202
2026-01-16 03:06:46.85	314.28	18.74	-44.8	-48.0	22.2	6.00e-01	0	39	0	302514176	60	5433
2026-01-16 03:06:47.98	313.96	18.76	-44.5	-47.5	22.7	6.01e-01	0	39	0	304611328	60	5143
2026-01-16 03:06:48.84	313.72	18.77	-45.0	-48.2	22.0	6.02e-01	0	39	0	306184192	60	5571
2026-01-16 03:06:49.97	313.41	18.79	-45.0	-48.1	22.1	6.04e-01	0	39	0	308281344	60	5523
2026-01-16 03:06:50.83	313.16	18.80	-45.1	-48.3	21.9	6.05e-01	0	39	0	310378496	61	5284
2026-01-16 03:06:51.96	312.85	18.81	-44.7	-47.8	22.5	6.01e-01	0	39	0	312475648	60	5285
2026-01-16 03:06:52.81	312.61	18.82	-44.8	-47.9	22.3	6.03e-01	0	39	0	314048512	60	5347
2026-01-16 03:06:53.95	312.29	18.83	-45.0	-48.1	22.1	6.03e-01	0	39	0	316145664	60	5525
2026-01-16 03:06:54.80	312.05	18.84	-44.7	-47.8	22.4	6.02e-01	0	39	0	317718528	61	4990
2026-01-16 03:06:55.94	311.73	18.85	-45.2	-48.5	21.8	6.02e-01	0	39	0	319815680	61	5434
2026-01-16 03:06:56.79	311.49	18.86	-44.4	-47.5	22.7	6.04e-01	0	39	0	321388544	60	5110
2026-01-16 03:06:57.94	311.17	18.86	-45.0	-48.4	21.8	6.02e-01	0	39	0	323485696	60	5696
2026-01-16 03:06:58.80	310.92	18.87	-44.2	-47.3	22.9	6.03e-01	0	39	0	325058560	60	4984
2026-01-16 03:07:00.00	310.59	18.88	-44.9	-48.1	22.1	5.99e-01	0	39	0	327155712	60	5517
2026-01-16 03:07:00.85	310.35	18.88	-44.5	-47.6	22.7	6.02e-01	0	39	0	328728576	60	5165
2026-01-16 03:07:01.99	310.02	18.89	-44.7	-47.8	22.0	6.02e-01	0	39	0	330825728	60	5331
2026-01-16 03:07:02.84	309.78	18.89	-44.8	-47.9	22.4	6.03e-01	0	39	0	332398592	60	5377
2026-01-16 03:07:04.11	309.43	18.90	-44.6	-47.7	22.5	6.04e-01	0	39	0	335020032	61	4941
2026-01-16 03:07:04.83	309.22	18.90	-45.1	-48.4	21.9	6.03e-01	0	39	0	336592896	61	5391
2026-01-16 03:07:06.11	308.86	18.90	-44.7	-47.8	22.4	6.01e-01	0	39	0	338690048	61	5024
2026-01-16 03:07:06.82	308.66	18.90	-45.3	-48.6	21.7	6.00e-01	0	39	0	340262912	61	5524
2026-01-16 03:07:08.10	308.30	18.90	-45.0	-48.1	22.2	5.99e-01	0	39	0	342360064	61	5202
2026-01-16 03:07:08.82	308.10	18.90	-45.3	-48.7	21.6	6.01e-01	0	39	0	343932928	61	5553
2026-01-16 03:07:10.10	307.73	18.90	-44.8	-48.0	22.3	6.02e-01	0	39	0	346554368	61	5106
2026-01-16 03:07:10.83	307.53	18.90	-45.2	-48.4	21.8	6.01e-01	0	39	0	347602944	61	5383
2026-01-16 03:07:12.10	307.17	18.90	-45.0	-48.1	22.1	6.04e-01	0	39	0	350224384	61	5208
2026-01-16 03:07:12.99	306.92	18.89	-44.9	-48.0	22.3	5.99e-01	0	39	0	351797248	61	5101
2026-01-16 03:07:14.13	306.60	18.89	-44.8	-47.8	22.5	6.02e-01	0	39	0	353894400	61	4987
2026-01-16 03:07:14.98	306.36	18.89	-45.0	-48.0	22.3	6.02e-01	0	39	0	355467264	61	5103
2026-01-16 03:07:16.12	306.04	18.88	-45.0	-48.0	22.3	6.01e-01	0	39	0	357564416	61	5144
2026-01-16 03:07:17.22	305.73	18.87	-45.0	-48.0	22.2	6.04e-01	0	39	0	359661568	61	5138
2026-01-16 03:07:18.25	305.43	18.87	-45.0	-48.1	22.2	6.01e-01	0	39	0	361758720	61	5190
2026-01-16 03:07:19.24	305.16	18.86	-45.0	-48.1	22.1	6.04e-01	0	39	0	363331584	61	5214
2026-01-16 03:07:20.44	304.82	18.85	-44.8	-47.9	22.4	6.04e-01	0	39	0	365428736	61	5043
2026-01-16 03:07:21.33	304.57	18.84	-45.1	-48.2	22.0	6.02e-01	0	39	0	367525888	61	5268
2026-01-16 03:07:22.47	304.25	18.83	-45.1	-48.0	22.3	6.02e-01	0	39	0	369623040	61	5150
2026-01-16 03:07:23.32	304.01	18.82	-44.9	-47.8	22.5	6.05e-01	0	39	0	371195904	61	4992
2026-01-16 03:07:24.46	303.69	18.81	-45.2	-48.2	22.1	6.02e-01	0	39	0	373293056	61	5224
2026-01-16 03:07:25.31	303.45	18.80	-45.0	-48.0	22.3	6.06e-01	0	39	0	374865920	61	5150
2026-01-16 03:07:26.45	303.13	18.79	-44.6	-47.4	22.8	6.01e-01	0	39	0	376963072	61	4773
2026-01-16 03:07:27.30	302.89	18.78	-45.3	-48.4	21.9	6.03e-01	0	39	0	378535936	61	5366
2026-01-16 03:07:28.44	302.57	18.76	-44.7	-47.5	22.8	6.04e-01	0	39	0	380633088	61	4840
2026-01-16 03:07:29.29	302.33	18.75	-45.3	-48.4	21.9	6.01e-01	0	39	0	382205952	61	5344
2026-01-16 03:07:30.43	302.02	18.73	-45.2	-48.3	21.9	6.02e-01	0	39	0	384303104	61	5330
2026-01-16 03:07:31.28	301.78	18.72	-44.9	-47.8	22.4	6.03e-01	0	39	0	385875968	61	5017
2026-01-16 03:07:32.42	301.46	18.70	-45.4	-48.6	21.6	6.03e-01	0	39	0	387973120	61	5509
2026-01-16 03:07:33.27	301.22	18.69	-44.6	-47.5	22.7	6.00e-01	0	39	0	389545984	61	4836
2026-01-16 03:07:34.41	300.91	18.67	-45.3	-48.6	21.7	5.99e-01	0	39	0	391643136	61	5516
2026-01-16 03:07:35.26	300.67	18.65	-44.7	-47.7	22.4	6.02e-01	0	39	0	393216000	61	4977
2026-01-16 03:07:36.53	300.32	18.63	-45.3	-48.5	21.8	6.03e-01	0	39	0	395837440	61	5432
2026-01-16 03:07:37.33	300.10	18.61	-45.3	-48.4	21.6	6.02e-01	0	39	0	397410304	61	5388
2026-01-16 03:07:38.47	299.78	18.59	-45.1	-48.2	22.2	6.00e-01	0	39	0	399507456	61	5221
2026-01-16 03:07:39.32	299.55	18.57	-45.6	-48.9	21.3	6.00e-01	0	39	0	401080320	62	5392
2026-01-16 03:07:40.46	299.23	18.55	-45.3	-48.3	22.0	6.04e-01	0	39	0	403177472	62	5023
2026-01-16 03:07:41.32	298.99	18.53	-45.1	-48.1	22.1	6.02e-01	0	39	0	404750336	62	4916
2026-01-16 03:07:42.45	298.68	18.50	-45.1	-48.1	22.1	6.02e-01	0	39	0	406847488	62	4879
2026-01-16 03:07:43.31	298.45	18.49	-44.6	-47.4	22.8	6.01e-01	0	39	0	408420352	60	5091
2026-01-16 03:07:44.44	298.14	18.46	-45.6	-48.9	21.2	6.04e-01	0	39	0	410517504	62	5358
2026-01-16 03:07:45.30	297.90	18.44	-44.5	-47.4	22.8	6.01e-01	0	39	0	412090368	61	4790
2026-01-16 03:07:46.44	297.59	18.41	-45.5	-49.1	21.2	6.03e-01	0	39	0	414187520	61	5795
2026-01-16 03:07:47.29	297.36	18.39	-44.9	-48.1	22.1	6.03e-01	0	39	0	415760384	61	5189
2026-01-16 03:07:48.42	297.05	18.36	-45.0	-48.2	22.1	6.02e-01	0	38	0	417857536	61	5276
2026-01-16 03:07:49.28	296.82	18.33	-45.3	-48.8	21.5	6.05e-01	0	39	0	419954688	61	5595
2026-01-16 03:07:50.41	296.51	18.30	-44.8	-47.8	22.4	6.00e-01	0	39	0	422051840	61	5013
2026-01-16 03:07:51.27	296.28	18.28	-45.0	-48.1	22.2	6.01e-01	0	39	0	423624704	61	5198
2026-01-16 03:07:52.52	295.94	18.24	-45.2	-48.3	21.7	6.01e-01	0	39	0	425721856	62	5041
2026-01-16 03:07:53.37	295.71	18.22	-44.7	-47.5	22.7	5.99e-01	0	39	0	427294720	61	4859
2026-01-16 03:07:54.58	295.38	18.18	-45.6	-49.0	21.2	6.02e-01	0	39	0	429391872	62	5404
2026-01-16 03:07:55.44	295.15	18.16	-44.4	-47.2	23.0	6.01e-01	0	39	0	431489024	60	4966
2026-01-16 03:07:56.58	294.85	18.12	-45.5	-48.8	21.5	6.03e-01	0	39	0	433586176	61	5599
2026-01-16 03:07:57.43	294.62	18.09	-45.1	-48.2	22.0	6.00e-01	0	39	0	435159040	61	5239
2026-01-16 03:07:58.57	294.32	18.06	-45.3	-48.4	21.9	6.00e-01	0	39	0	437256192	61	5373
2026-01-16 03:07:59.42	294.09	18.03	-45.6	-48.7	21.7	6.02e-01	0	39	0	438829056	61	5551
2026-01-16 03:08:00.56	293.79	17.99	-45.4	-48.4	21.7	6.03e-01	0	39	0	440926208	62	5079
2026-01-16 03:08:01.41	293.56	17.96	-44.9	-47.8	22.5	6.02e-01	0	39	0	442499072	61	5002
2026-01-16 03:08:02.54	293.26	17.92	-45.6	-48.8	21.5	6.04e-01	0	39	0	444596224	61	5595
2026-01-16 03:08:03.40	293.03	17.89	-45.1	-48.2	22.0	6.03e-01	0	39	0	446169088	61	5232
2026-01-16 03:08:04.54	292.73	17.85	-45.5	-48.7	21.6	6.04e-01	0	39	0	448266240	61	5586
2026-01-16 03:08:05.39	292.51	17.82	-45.2	-48.3	21.9	6.02e-01	0	39	0	449839104	61	5321
2026-01-16 03:08:06.52	292.22	17.78	-45.2	-48.5	21.8	6.01e-01	0	39	0	451936256	61	5427
2026-01-16 03:08:07.38	291.99	17.75	-45.1	-48.3	21.9	6.03e-01	0	39	0	453509120	61	5299
2026-01-16 03:08:08.52	291.69	17.71	-45.0	-48.1	22.2	6.00e-01	0	39	0	455606272	61	5190
2026-01-16 03:08:09.37	291.47	17.68	-45.6	-48.9	21.5	6.02e-01	0	39	0	457179136	61	5681
2026-01-16 03:08:10.51	291.18	17.63	-45.0	-47.9	22.2	6.04e-01	0	39	0	459800576	61	5086
2026-01-16 03:08:11.36	290.96	17.60	-45.2	-48.1	22.1	6.01e-01	0	39	0	461373440	61	5190
2026-01-16 03:08:12.50	290.66	17.55	-45.3	-48.2	22.0	6.02e-01	0	39	0	463470592	61	5257
2026-01-16 03:08:13.35	290.45	17.52	-45.1	-48.0	22.2	6.04e-01	0	39	0	465043456	61	5154
2026-01-16 03:08:14.49	290.15	17.47	-45.3	-48.3	22.0	6.04e-01	0	39	0	467140608	61	5296
2026-01-16 03:08:15.34	289.94	17.44	-45.1	-48.1	22.2	6.00e-01	0	39	0	468713472	61	5174
2026-01-16 03:08:16.48	289.65	17.39	-45.0	-48.0	22.2	6.02e-01	0	39	0	470810624	61	5136
2026-01-16 03:08:17.33	289.43	17.36	-44.9	-47.9	22.4	6.04e-01	0	39	0	472383488	61	5065
2026-01-16 03:08:18.47	289.14	17.31	-45.0	-48.1	22.2	6.03e-01	0	39	0	474480640	61	5193
2026-01-16 03:08:19.32	288.93	17.27	-45.0	-48.2	22.1	6.00e-01	0	38	0	476053504	61	5239
2026-01-16 03:08:20.46	288.64	17.22	-44.9	-48.1	22.2	6.02e-01	0	39	0	478150656	61	5160
2026-01-16 03:08:21.31	288.43	17.18	-44.7	-47.7	22.4	6.02e-01	0	39	0	479723520	61	4977
2026-01-16 03:08:22.45	288.14	17.13	-45.1	-48.2	22.0	6.02e-01	0	39	0	481820672	61	5269
2026-01-16 03:08:23.30	287.93	17.10	-45.0	-48.1	22.1	6.03e-01	0	39	0	483393536	61	5179
2026-01-16 03:08:24.50	287.63	17.04	-44.7	-47.6	22.7	6.01e-01	0	39	0	486014976	61	4905
2026-01-16 03:08:25.36	287.42	17.00	-45.2	-48.3	22.0	6.00e-01	0	39	0	487587840	61	5325
2026-01-16 03:08:26.50	287.14	16.95	-45.0	-47.9	22.2	6.02e-01	0	39	0	489684992	61	5090
2026-01-16 03:08:27.35	286.93	16.91	-44.8	-47.6	22.7	6.04e-01	0	39	0	491257856	61	4894
2026-01-16 03:08:28.49	286.65	16.86	-45.4	-48.4	21.9	6.00e-01	0	39	0	493355008	61	5373
2026-01-16 03:08:29.34	286.44	16.82	-45.5	-48.5	21.7	6.02e-01	0	39	0	494927872	61	5449
2026-01-16 03:08:30.48	286.16	16.76	-44.9	-47.6	22.6	6.03e-01	0	39	0	497025024	61	4914
2026-01-16 03:08:31.33	285.95	16.72	-45.1	-47.9	22.3	6.02e-01	0	39	0	498597888	61	5096
2026-01-16 03:08:32.47	285.68	16.67	-45.5	-48.6	21.6	6.04e-01	0	39	0	500695040	61	5487
2026-01-16 03:08:33.32	285.47	16.63	-44.9	-47.8	22.4	6.01e-01	0	39	0	502267904	61	5013
2026-01-16 03:08:34.46	285.20	16.57	-45.2	-48.2	22.0	6.05e-01	0	39	0	504365056	61	5262
2026-01-16 03:08:35.32	284.99	16.53	-45.4	-48.7	21.6	6.03e-01	0	39	0	505937920	61	5557
2026-01-16 03:08:36.45	284.72	16.47	-44.7	-47.7	22.5	6.04e-01	0	39	0	508035072	61	4945
2026-01-16 03:08:37.30	284.52	16.43	-44.6	-47.5	22.7	6.01e-01	0	39	0	509607936	61	4869
2026-01-16 03:08:38.44	284.25	16.37	-45.2	-48.4	21.9	6.00e-01	0	39	0	511705088	61	5386
2026-01-16 03:08:39.29	284.05	16.33	-45.2	-48.3	21.9	6.01e-01	0	39	0	513277952	61	5309
2026-01-16 03:08:40.43	283.78	16.27	-44.5	-47.3	22.9	6.06e-01	0	39	0	515375104	61	4733
2026-01-16 03:08:41.28	283.58	16.22	-44.7	-47.5	22.8	6.00e-01	0	39	0	517472256	61	4822
2026-01-16 03:08:42.50	283.30	16.16	-45.7	-48.8	21.5	6.03e-01	0	39	0	519569408	61	5614
2026-01-16 03:08:43.35	283.10	16.12	-45.5	-48.5	21.6	6.04e-01	0	39	0	521142272	62	5157
2026-01-16 03:08:44.49	282.83	16.06	-45.0	-47.8	22.4	6.03e-01	0	39	0	523239424	61	4998
2026-01-16 03:08:45.34	282.64	16.01	-45.0	-47.9	22.4	6.03e-01	0	39	0	524812288	61	5064
2026-01-16 03:08:46.61	282.35	15.94	-45.3	-48.4	21.8	6.01e-01	0	39	0	527433728	61	5402
2026-01-16 03:08:47.80	282.07	15.88	-44.9	-47.9	22.3	6.02e-01	0	39	0	529530880	61	5048
2026-01-16 03:08:48.66	281.88	15.83	-44.8	-47.7	22.5	6.05e-01	0	39	0	531103744	61	4976
2026-01-16 03:08:49.79	281.62	15.77	-45.1	-48.1	22.2	6.01e-01	0	39	0	533200896	61	5178
2026-01-16 03:08:50.65	281.42	15.73	-45.2	-48.2	22.0	6.00e-01	0	39	0	534773760	61	5278
2026-01-16 03:08:51.78	281.17	15.66	-45.0	-47.9	22.4	6.03e-01	0	39	0	536870912	61	5080
2026-01-16 03:08:52.64	280.98	15.62	-44.9	-47.8	22.4	6.02e-01	0	39	0	538443776	61	4993
2026-01-16 03:08:53.77	280.72	15.55	-45.2	-48.1	22.1	5.98e-01	0	39	0	540540928	61	5215
2026-01-16 03:08:54.62	280.53	15.51	-45.2	-48.2	22.0	6.01e-01	0	39	0	542113792	61	5273
2026-01-16 03:08:55.90	280.25	15.43	-44.9	-47.8	22.4	6.02e-01	0	39	0	544735232	61	5032
2026-01-16 03:08:56.64	280.09	15.39	-44.9	-47.8	22.4	6.02e-01	0	39	0	545783808	61	5003
2026-01-16 03:08:57.92	279.80	15.32	-45.0	-48.0	22.2	6.05e-01	0	39	0	548405248	61	5146
2026-01-16 03:08:58.65	279.64	15.28	-45.1	-48.2	22.1	6.02e-01	0	39	0	549978112	61	5229
2026-01-16 03:09:00.15	279.32	15.19	-45.1	-48.2	22.1	6.03e-01	0	39	0	552599552	61	5232
2026-01-16 03:09:00.86	279.16	15.15	-45.2	-48.3	22.0	6.01e-01	0	39	0	554172416	61	5290
2026-01-16 03:09:02.14	278.89	15.08	-45.4	-48.5	21.8	6.03e-01	0	39	0	556269568	61	5430
2026-01-16 03:09:02.88	278.73	15.04	-45.4	-48.5	21.8	6.01e-01	0	39	0	557842432	61	5424
2026-01-16 03:09:04.27	278.43	14.95	-45.1	-48.0	22.2	6.01e-01	0	39	0	560463872	61	5143
2026-01-16 03:09:04.98	278.28	14.91	-44.9	-47.8	22.3	6.04e-01	0	39	0	561512448	61	5019
2026-01-16 03:09:06.26	278.00	14.84	-44.8	-47.9	22.3	6.03e-01	0	39	0	564133888	61	5067
2026-01-16 03:09:06.98	277.85	14.80	-44.8	-47.9	22.3	6.02e-01	0	39	0	565182464	61	5080
2026-01-16 03:09:08.26	277.58	14.72	-44.9	-48.0	22.2	6.03e-01	0	39	0	567803904	61	5111
2026-01-16 03:09:08.99	277.43	14.68	-44.9	-48.0	22.2	6.01e-01	0	39	0	569376768	61	5145
2026-01-16 03:09:10.27	277.16	14.60	-45.1	-48.1	22.1	6.02e-01	0	39	0	571473920	61	5193
2026-01-16 03:09:10.99	277.01	14.56	-45.1	-48.1	22.2	6.04e-01	0	39	0	573046784	61	5166
2026-01-16 03:09:12.27	276.75	14.48	-45.0	-47.9	22.3	6.04e-01	0	39	0	575143936	61	5080
2026-01-16 03:09:12.98	276.60	14.44	-45.0	-47.9	22.3	6.04e-01	0	39	0	576716800	61	5091
2026-01-16 03:09:14.26	276.34	14.36	-45.0	-48.0	22.2	6.00e-01	0	39	0	579338240	61	5122
2026-01-16 03:09:14.98	276.19	14.32	-45.1	-48.1	22.1	6.07e-01	0	39	0	580386816	61	5182
2026-01-16 03:09:16.26	275.93	14.24	-45.0	-48.0	22.2	6.00e-01	0	39	0	583008256	61	5147
2026-01-16 03:09:16.98	275.78	14.20	-45.0	-48.0	22.2	6.01e-01	0	39	0	584056832	61	5131
2026-01-16 03:09:18.26	275.52	14.12	-45.0	-48.0	22.2	6.00e-01	0	39	0	586678272	61	5127
2026-01-16 03:09:19.00	275.38	14.07	-45.0	-48.1	22.1	6.03e-01	0	39	0	588251136	61	5161
2026-01-16 03:09:20.27	275.12	14.00	-45.2	-48.3	22.0	6.01e-01	0	39	0	590348288	61	5295
2026-01-16 03:09:21.22	274.93	13.94	-45.1	-48.2	22.0	6.03e-01	0	39	0	591921152	61	5227
2026-01-16 03:09:22.22	274.73	13.88	-45.0	-48.1	22.1	6.02e-01	0	39	0	594018304	61	5189
2026-01-16 03:09:23.21	274.54	13.82	-45.0	-48.0	22.2	6.03e-01	0	39	0	596115456	61	5142
2026-01-16 03:09:24.21	274.34	13.75	-44.9	-48.0	22.2	6.01e-01	0	39	0	597688320	61	5118
2026-01-16 03:09:25.20	274.15	13.69	-44.9	-48.0	22.2	6.01e-01	0	39	0	599785472	61	5147
2026-01-16 03:09:26.19	273.96	13.63	-45.1	-48.2	22.0	6.01e-01	0	39	0	601358336	61	5264
2026-01-16 03:09:27.19	273.76	13.57	-45.2	-48.4	21.9	6.02e-01	0	39	0	603455488	61	5348
2026-01-16 03:09:28.18	273.57	13.51	-45.1	-48.2	21.9	6.03e-01	0	39	0	605028352	61	5273
2026-01-16 03:09:29.24	273.37	13.44	-45.1	-48.2	22.0	6.02e-01	0	39	0	607125504	61	5237
2026-01-16 03:09:30.15	273.19	13.38	-45.1	-48.2	22.0	6.03e-01	0	39	0	608698368	61	5270
2026-01-16 03:09:31.15	273.00	13.32	-44.9	-48.0	22.1	6.03e-01	0	39	0	610795520	61	5159
2026-01-16 03:09:32.15	272.81	13.26	-45.0	-48.1	22.1	6.03e-01	0	39	0	612892672	61	5177
2026-01-16 03:09:33.14	272.63	13.20	-45.0	-48.1	22.1	6.03e-01	0	39	0	614465536	61	5188
2026-01-16 03:09:34.14	272.44	13.13	-45.0	-48.1	22.0	6.02e-01	0	39	0	616562688	61	5199
2026-01-16 03:09:35.13	272.25	13.07	-45.2	-48.4	21.8	6.02e-01	0	39	0	618135552	61	5342
2026-01-16 03:09:36.44	272.01	12.99	-45.3	-48.4	21.9	6.03e-01	0	39	0	620756992	61	5354
2026-01-16 03:09:37.18	271.87	12.94	-45.3	-48.4	21.8	6.01e-01	0	39	0	621805568	61	5349
2026-01-16 03:09:38.78	271.58	12.84	-45.3	-48.3	21.9	6.03e-01	0	39	0	624951296	61	5298
2026-01-16 03:09:39.36	271.47	12.80	-45.2	-48.2	22.0	6.02e-01	0	39	0	625999872	61	5225
2026-01-16 03:09:41.11	271.15	12.69	-45.1	-48.1	22.1	6.01e-01	0	39	0	629669888	61	5176
2026-01-16 03:09:41.68	271.05	12.65	-45.1	-48.1	22.0	6.03e-01	0	39	0	630718464	61	5204
2026-01-16 03:09:43.39	270.74	12.55	-45.2	-48.3	21.8	6.05e-01	0	39	0	633864192	61	5304
2026-01-16 03:09:43.96	270.64	12.51	-45.2	-48.3	21.9	6.04e-01	0	39	0	634912768	61	5315
2026-01-16 03:09:45.66	270.34	12.40	-45.2	-48.3	21.9	6.04e-01	0	39	0	638058496	61	5284
2026-01-16 03:09:46.23	270.24	12.36	-45.3	-48.3	21.8	6.03e-01	0	39	0	639107072	61	5325
2026-01-16 03:09:47.94	269.93	12.25	-45.3	-48.4	21.8	6.00e-01	0	39	0	642252800	61	5359
2026-01-16 03:09:48.51	269.83	12.22	-45.3	-48.5	21.7	6.04e-01	0	39	0	643301376	61	5408
2026-01-16 03:09:50.21	269.54	12.11	-45.1	-48.2	21.9	6.03e-01	0	39	0	646447104	61	5270
2026-01-16 03:09:50.78	269.44	12.07	-45.1	-48.2	21.9	6.01e-01	0	39	0	647495680	61	5268
2026-01-16 03:09:52.48	269.14	11.96	-45.1	-48.3	21.8	6.02e-01	0	39	0	650641408	61	5328
2026-01-16 03:09:53.05	269.05	11.92	-45.1	-48.3	21.8	6.03e-01	0	39	0	651689984	61	5335
2026-01-16 03:09:54.75	268.76	11.81	-45.3	-48.6	21.6	6.01e-01	0	39	0	654835712	61	5481
2026-01-16 03:09:55.33	268.66	11.78	-45.3	-48.5	21.6	6.04e-01	0	39	0	655884288	61	5462
2026-01-16 03:09:57.14	268.35	11.66	-45.1	-48.4	21.7	6.01e-01	0	39	0	659554304	61	5371
2026-01-16 03:09:57.71	268.26	11.62	-45.2	-48.5	21.6	6.02e-01	0	39	0	660602880	61	5422
2026-01-16 03:09:59.42	267.97	11.51	-45.1	-48.4	21.7	6.03e-01	0	39	0	663748608	61	5393
2026-01-16 03:09:59.98	267.88	11.48	-45.2	-48.6	21.5	6.00e-01	0	39	0	664797184	61	5512
2026-01-16 03:10:01.69	267.60	11.37	-45.4	-48.7	21.3	6.02e-01	0	39	0	667942912	61	5590
2026-01-16 03:10:02.26	267.50	11.33	-45.4	-48.7	21.3	6.03e-01	0	39	0	668991488	61	5585
2026-01-16 03:10:03.94	267.23	11.22	-45.3	-48.5	21.6	6.04e-01	0	39	0	672137216	61	5444
2026-01-16 03:10:04.51	267.13	11.18	-45.2	-48.4	21.6	6.03e-01	0	38	0	673185792	61	5390
2026-01-16 03:10:06.22	266.86	11.07	-45.4	-48.6	21.4	6.00e-01	0	39	0	676331520	61	5526
2026-01-16 03:10:06.92	266.75	11.03	-45.4	-48.6	21.5	6.01e-01	0	39	0	677904384	61	5473
2026-01-16 03:10:08.32	266.52	10.94	-45.4	-48.6	21.4	6.01e-01	0	39	0	680525824	61	5515
2026-01-16 03:10:09.03	266.41	10.89	-45.4	-48.7	21.3	6.01e-01	0	39	0	681574400	61	5568
2026-01-16 03:10:10.31	266.21	10.81	-45.4	-48.7	21.3	6.01e-01	0	39	0	684195840	61	5571
2026-01-16 03:10:11.04	266.09	10.76	-45.4	-48.7	21.4	6.02e-01	0	39	0	685244416	61	5544
2026-01-16 03:10:12.32	265.89	10.68	-45.3	-48.7	21.4	6.04e-01	0	39	0	687865856	61	5554
2026-01-16 03:10:13.03	265.78	10.63	-45.2	-48.6	21.4	6.01e-01	0	39	0	689438720	61	5496
2026-01-16 03:10:14.31	265.58	10.55	-45.3	-48.7	21.3	6.04e-01	0	39	0	691535872	61	5592
2026-01-16 03:10:15.03	265.47	10.50	-45.3	-48.7	21.3	5.99e-01	0	39	0	693108736	61	5573
2026-01-16 03:10:16.31	265.27	10.42	-45.5	-48.9	21.2	6.02e-01	0	39	0	695205888	62	5372
2026-01-16 03:10:17.02	265.16	10.37	-45.5	-48.9	21.2	6.02e-01	0	39	0	696778752	62	5374
2026-01-16 03:10:18.30	264.97	10.29	-45.5	-48.8	21.2	6.05e-01	0	39	0	699400192	62	5302
2026-01-16 03:10:19.03	264.86	10.24	-45.5	-48.8	21.3	6.02e-01	0	39	0	700448768	62	5285
2026-01-16 03:10:20.31	264.67	10.16	-45.6	-48.9	21.1	6.00e-01	0	38	0	703070208	62	5354
2026-01-16 03:10:21.02	264.56	10.11	-45.6	-48.7	21.2	6.03e-01	0	39	0	704118784	62	5279
2026-01-16 03:10:22.29	264.37	10.03	-45.6	-48.7	21.2	6.02e-01	0	39	0	706740224	62	5278
2026-01-16 03:10:23.03	264.26	9.98	-45.5	-48.7	21.2	5.99e-01	0	39	0	707788800	62	5262
2026-01-16 03:10:24.31	264.07	9.90	-45.4	-48.7	21.3	6.01e-01	0	39	0	710410240	62	5265
2026-01-16 03:10:25.02	263.97	9.85	-45.3	-48.7	21.3	6.03e-01	0	39	0	711983104	62	5258
2026-01-16 03:10:26.30	263.78	9.77	-45.2	-48.9	21.1	6.02e-01	0	39	0	714080256	62	5345
2026-01-16 03:10:27.17	263.65	9.71	-45.2	-48.9	21.1	6.02e-01	0	39	0	715653120	62	5379
2026-01-16 03:10:28.61	263.44	9.62	-45.2	-49.0	20.9	6.01e-01	0	39	0	718274560	62	5456
2026-01-16 03:10:29.73	263.28	9.55	-45.2	-49.0	20.9	6.01e-01	0	39	0	720371712	62	5462
2026-01-16 03:10:30.89	263.12	9.47	-45.1	-48.9	21.0	6.02e-01	0	38	0	722993152	62	5373
2026-01-16 03:10:31.75	262.99	9.42	-45.2	-48.9	21.0	6.03e-01	0	39	0	724566016	62	5394
2026-01-16 03:10:32.89	262.83	9.34	-45.4	-49.0	20.9	6.03e-01	0	39	0	726663168	62	5460
2026-01-16 03:10:33.74	262.71	9.29	-45.4	-49.1	20.9	6.03e-01	0	39	0	728236032	62	5465
2026-01-16 03:10:34.88	262.55	9.21	-45.6	-49.3	20.7	6.01e-01	0	39	0	730333184	62	5605
2026-01-16 03:10:35.73	262.43	9.16	-45.6	-49.2	20.7	6.02e-01	0	39	0	731906048	62	5585
2026-01-16 03:10:36.87	262.27	9.08	-45.6	-49.1	20.9	6.02e-01	0	39	0	734003200	62	5494
2026-01-16 03:10:37.72	262.16	9.03	-45.6	-49.1	20.9	6.02e-01	0	39	0	735576064	62	5503
2026-01-16 03:10:38.85	262.00	8.96	-49.8	-66.1	5.8	7.08e-01	0	39	0	737673216	70	24465
2026-01-16 03:10:39.71	261.88	8.90	-51.1	-70.2	3.9	7.45e-01	0	39	104	737673216	72	35069
2026-01-16 03:10:40.84	261.73	8.83	-51.2	-71.5	3.8	7.45e-01	0	39	104	737673216	73	38376
2026-01-16 03:10:41.69	261.61	8.77	-51.4	-71.6	3.8	7.44e-01	0	39	104	737673216	73	38744
2026-01-16 03:10:42.83	261.46	8.70	-51.3	-71.7	3.8	7.47e-01	0	39	104	737673216	73	39332
2026-01-16 03:10:43.68	261.34	8.65	-51.4	-71.8	3.8	7.47e-01	0	39	104	737673216	73	39621
2026-01-16 03:10:44.81	261.19	8.57	-51.5	-71.8	3.8	7.48e-01	0	39	104	737673216	73	39911
2026-01-16 03:10:45.67	261.08	8.52	-51.6	-71.9	3.8	7.48e-01	0	39	104	737673216	73	40139
2026-01-16 03:10:46.80	260.93	8.45	-51.7	-71.9	3.8	7.43e-01	0	39	104	737673216	74	37993
2026-01-16 03:10:47.65	260.82	8.39	-51.8	-71.9	3.8	7.46e-01	0	39	104	737673216	74	38159
2026-01-16 03:10:48.79	260.67	8.32	-51.6	-71.9	3.8	7.46e-01	0	39	104	737673216	74	38169
2026-01-16 03:10:49.64	260.56	8.26	-51.6	-72.0	3.8	7.45e-01	0	39	104	737673216	74	38260
2026-01-16 03:10:50.78	260.41	8.19	-51.6	-72.0	3.8	7.46e-01	0	39	104	737673216	74	38318
2026-01-16 03:10:51.63	260.30	8.14	-51.5	-72.0	3.8	7.44e-01	0	39	104	737673216	74	38285
2026-01-16 03:10:52.76	260.15	8.06	-51.5	-72.0	3.8	7.48e-01	0	39	104	737673216	74	38356
2026-01-16 03:10:53.61	260.04	8.01	-51.5	-72.0	3.8	7.45e-01	0	39	104	737673216	74	38323
2026-01-16 03:10:54.75	259.90	7.94	-51.6	-72.0	3.8	7.47e-01	0	39	104	737673216	74	38431
2026-01-16 03:10:55.60	259.79	7.88	-51.6	-72.0	3.8	7.46e-01	0	39	104	737673216	74	38415
2026-01-16 03:10:56.74	259.65	7.81	-51.4	-72.0	3.8	7.46e-01	0	39	104	737673216	74	38280
2026-01-16 03:10:57.59	259.54	7.76	-51.2	-72.0	3.8	7.43e-01	0	39	104	737673216	74	38310
2026-01-16 03:10:58.72	259.40	7.68	-51.2	-72.0	3.8	7.49e-01	0	39	104	737673216	73	40580
2026-01-16 03:10:59.57	259.29	7.63	-51.1	-71.9	3.8	7.47e-01	0	39	104	737673216	73	40309
2026-01-16 03:11:00.71	259.15	7.56	-50.5	-71.9	3.8	7.43e-01	0	39	104	737673216	73	40273
2026-01-16 03:11:01.56	259.05	7.50	-50.5	-71.9	3.8	7.44e-01	0	39	104	737673216	73	40137
2026-01-16 03:11:02.70	258.91	7.43	-50.5	-71.9	3.8	7.42e-01	0	39	104	737673216	73	40281
2026-01-16 03:11:03.55	258.80	7.38	-50.5	-71.9	3.8	7.47e-01	0	39	104	737673216	73	40141
2026-01-16 03:11:04.68	258.66	7.31	-50.5	-71.9	3.8	7.47e-01	0	39	104	737673216	73	40201
2026-01-16 03:11:05.54	258.56	7.25	-50.5	-71.9	3.8	7.44e-01	0	39	104	737673216	73	40203
2026-01-16 03:11:06.67	258.42	7.18	-50.5	-71.9	3.8	7.47e-01	0	39	104	737673216	73	40104
2026-01-16 03:11:07.52	258.32	7.13	-50.5	-71.9	3.8	7.45e-01	0	39	104	737673216	73	40141
2026-01-16 03:11:08.66	258.19	7.06	-50.5	-71.9	3.8	7.45e-01	0	39	104	737673216	73	40126
2026-01-16 03:11:09.51	258.09	7.00	-50.5	-71.9	3.8	7.49e-01	0	39	104	737673216	73	40189
2026-01-16 03:11:10.64	257.95	6.93	-50.5	-71.9	3.8	7.45e-01	0	39	104	737673216	73	40151
2026-01-16 03:11:11.50	257.85	6.88	-50.5	-71.9	3.8	7.45e-01	0	39	104	737673216	73	40143
2026-01-16 03:11:12.63	257.72	6.81	-50.5	-71.9	3.8	7.47e-01	0	39	104	737673216	73	40087
2026-01-16 03:11:13.48	257.62	6.75	-50.5	-71.9	3.8	7.44e-01	0	39	104	737673216	73	40121
2026-01-16 03:11:14.62	257.49	6.68	-50.5	-71.9	3.8	7.46e-01	0	39	104	737673216	73	40103
2026-01-16 03:11:15.47	257.39	6.63	-50.5	-71.9	3.8	7.49e-01	0	39	104	737673216	73	40080
2026-01-16 03:11:16.61	257.26	6.56	-50.5	-71.8	3.8	7.45e-01	0	39	104	737673216	73	39997
2026-01-16 03:11:17.46	257.16	6.50	-50.5	-71.8	3.8	7.46e-01	0	39	104	737673216	73	40044
2026-01-16 03:11:18.59	257.03	6.43	-50.5	-71.8	3.8	7.46e-01	0	39	104	737673216	73	39966
2026-01-16 03:11:19.44	256.94	6.38	-50.5	-71.9	3.8	7.49e-01	0	39	104	737673216	73	40054
2026-01-16 03:11:20.58	256.81	6.31	-50.5	-71.9	3.8	7.44e-01	0	39	104	737673216	73	40063
2026-01-16 03:11:21.43	256.71	6.26	-50.5	-71.8	3.8	7.47e-01	0	39	104	737673216	73	39974
2026-01-16 03:11:22.57	256.59	6.19	-50.5	-71.8	3.8	7.45e-01	0	39	104	737673216	73	39983
2026-01-16 03:11:23.42	256.49	6.13	-50.5	-71.8	3.8	7.44e-01	0	39	104	737673216	73	39986
2026-01-16 03:11:24.55	256.37	6.06	-50.5	-71.8	3.8	7.45e-01	0	39	104	737673216	73	40030
2026-01-16 03:11:25.41	256.27	6.01	-50.5	-71.8	3.8	7.44e-01	0	39	104	737673216	73	39920
2026-01-16 03:11:26.54	256.15	5.94	-50.5	-71.8	3.8	7.48e-01	0	39	104	737673216	73	39935
2026-01-16 03:11:27.39	256.05	5.89	-50.5	-71.8	3.8	7.49e-01	0	39	104	737673216	73	39978
2026-01-16 03:11:28.53	255.93	5.82	-50.5	-71.8	3.8	7.46e-01	0	39	104	737673216	72	42375
2026-01-16 03:11:29.38	255.84	5.77	-50.5	-71.8	3.8	7.46e-01	0	39	104	737673216	72	42411
2026-01-16 03:11:30.51	255.72	5.70	-50.5	-71.8	3.8	7.42e-01	0	39	104	737673216	72	42391
2026-01-16 03:11:31.36	255.63	5.65	-50.5	-71.8	3.8	7.44e-01	0	39	104	737673216	72	42361
2026-01-16 03:11:32.50	255.51	5.58	-50.5	-71.8	3.8	7.47e-01	0	39	104	737673216	72	42302
2026-01-16 03:11:33.35	255.42	5.52	-50.5	-71.8	3.8	7.47e-01	0	39	104	737673216	72	42250
2026-01-16 03:11:34.49	255.29	5.45	-50.5	-71.8	3.8	7.49e-01	0	39	104	737673216	72	42330
2026-01-16 03:11:35.34	255.21	5.40	-50.5	-71.8	3.8	7.47e-01	0	39	104	737673216	72	42193
2026-01-16 03:11:36.47	255.09	5.33	-50.5	-71.8	3.8	7.45e-01	0	39	104	737673216	72	42316
2026-01-16 03:11:37.32	255.00	5.28	-50.5	-71.8	3.8	7.45e-01	0	39	104	737673216	72	42362
2026-01-16 03:11:38.46	254.88	5.21	-50.5	-71.8	3.8	7.46e-01	0	39	104	737673216	72	42302
2026-01-16 03:11:39.31	254.79	5.16	-50.5	-71.8	3.8	7.43e-01	0	39	104	737673216	72	42415
2026-01-16 03:11:40.45	254.68	5.09	-50.5	-71.8	3.8	7.45e-01	0	39	104	737673216	72	42283
2026-01-16 03:11:41.30	254.59	5.04	-50.5	-71.8	3.8	7.45e-01	0	39	104	737673216	72	42284
2026-01-16 03:11:42.43	254.47	4.97	-50.5	-71.8	3.8	7.45e-01	0	39	104	737673216	72	42310

#Closed at: 2026-01-16 03:11:43
#Recorded file [737 MB]: D:/Data/31040_260116_060233.dat