passes_logs/2026/01/16/T1/T1__20260116_120044_NOAA_21_JPSS-2_rec.log

#Pass ID: 20260116_120044_NOAA 21 (JPSS-2)
#Satellite: NOAA 21 (JPSS-2)
#Configuration: NOAA 21
#almurnet v.1.7.20251203
#Start time: 2026-01-16 12:00:44

#Version: 2.0.20230620
#Station: T1
#Location: 37.570604 lon 55.790049 lat
#TLE: 1 54234U 22150A   26015.92901934  .00000025  00000+0  32700-4 0  9991
#TLE: 2 54234  98.7499 316.8175 0000634 284.8145  75.2961 14.19534841164946

#Time	Az	El	Level	Level2	SNR	BER	BlckErr	Temp	State	Recorded	gain1	gain2
2026-01-16 12:00:44.51	231.88	5.02	-50.3	-63.4	3.8	1.49e+00	0	42	0	0	71	17027
2026-01-16 12:00:45.50	232.00	5.07	-50.2	-63.4	3.8	1.49e+00	0	42	104	0	72	15948
2026-01-16 12:00:46.49	232.11	5.12	-50.2	-63.4	3.8	1.49e+00	0	42	104	0	72	15954
2026-01-16 12:00:47.49	232.22	5.16	-50.2	-63.4	3.8	1.49e+00	0	42	104	0	72	15994
2026-01-16 12:00:48.48	232.34	5.21	-50.2	-63.4	3.8	1.49e+00	0	42	104	0	72	15949
2026-01-16 12:00:49.47	232.45	5.26	-50.2	-63.3	3.8	1.49e+00	0	42	104	0	72	15936
2026-01-16 12:00:50.47	232.57	5.30	-50.2	-63.4	3.8	1.49e+00	0	42	104	0	72	15996
2026-01-16 12:00:51.46	232.68	5.35	-50.2	-63.4	3.8	1.49e+00	0	42	104	0	72	16003
2026-01-16 12:00:52.45	232.80	5.40	-50.2	-63.4	3.8	1.49e+00	0	42	104	0	72	15969
2026-01-16 12:00:53.45	232.92	5.45	-50.2	-63.4	3.8	1.49e+00	0	42	104	0	72	15985
2026-01-16 12:00:54.44	233.03	5.49	-50.2	-63.3	3.8	1.49e+00	0	42	104	0	72	15930
2026-01-16 12:00:55.43	233.15	5.54	-50.2	-63.4	3.8	1.49e+00	0	42	104	0	72	15973
2026-01-16 12:00:56.43	233.27	5.59	-50.2	-63.3	3.8	1.49e+00	0	42	104	0	72	15930
2026-01-16 12:00:57.42	233.39	5.63	-50.2	-63.4	3.8	1.49e+00	0	42	104	0	72	15964
2026-01-16 12:00:58.41	233.50	5.68	-50.2	-63.3	3.8	1.49e+00	0	42	104	0	72	15887
2026-01-16 12:00:59.41	233.62	5.73	-50.2	-63.3	3.8	1.49e+00	0	42	104	0	72	15880
2026-01-16 12:01:00.40	233.74	5.77	-50.2	-63.3	3.8	1.49e+00	0	42	104	0	72	15930
2026-01-16 12:01:01.39	233.86	5.82	-50.2	-63.3	3.8	1.49e+00	0	42	104	0	72	15893
2026-01-16 12:01:02.38	233.98	5.87	-50.2	-63.3	3.8	1.49e+00	0	42	104	0	72	15911
2026-01-16 12:01:03.38	234.10	5.92	-50.2	-63.4	3.8	1.49e+00	0	42	104	0	72	15954
2026-01-16 12:01:04.37	234.22	5.96	-50.1	-63.4	3.8	1.49e+00	0	42	104	0	72	15984
2026-01-16 12:01:05.36	234.34	6.01	-50.2	-63.4	3.8	1.49e+00	0	42	104	0	72	15996
2026-01-16 12:01:06.36	234.46	6.06	-50.2	-63.3	3.8	1.49e+00	0	42	104	0	72	15927
2026-01-16 12:01:07.35	234.59	6.10	-50.2	-63.3	3.8	1.49e+00	0	42	104	0	72	15875
2026-01-16 12:01:08.34	234.71	6.15	-50.2	-63.3	3.8	1.49e+00	0	42	104	0	72	15930
2026-01-16 12:01:09.34	234.83	6.20	-50.2	-63.4	3.8	1.49e+00	0	42	104	0	72	15970
2026-01-16 12:01:10.33	234.95	6.24	-50.2	-63.3	3.8	1.49e+00	0	42	104	0	72	15906
2026-01-16 12:01:11.32	235.08	6.29	-50.2	-63.4	3.8	1.49e+00	0	43	104	0	72	15970
2026-01-16 12:01:12.32	235.20	6.34	-50.2	-63.3	3.8	1.49e+00	0	43	104	0	72	15865
2026-01-16 12:01:13.31	235.32	6.38	-50.2	-63.3	3.8	1.49e+00	0	42	104	0	72	15901
2026-01-16 12:01:14.30	235.45	6.43	-50.2	-63.3	3.8	1.49e+00	0	43	104	0	72	15893
2026-01-16 12:01:15.30	235.57	6.48	-50.2	-63.3	3.8	1.49e+00	0	43	104	0	72	15847
2026-01-16 12:01:16.29	235.70	6.52	-50.2	-63.3	3.8	1.49e+00	0	43	104	0	72	15827
2026-01-16 12:01:17.29	235.82	6.57	-50.2	-63.2	3.8	1.49e+00	0	43	104	0	72	15746
2026-01-16 12:01:18.28	235.95	6.62	-50.1	-63.2	3.8	1.49e+00	0	43	104	0	72	15751
2026-01-16 12:01:19.27	236.07	6.66	-50.2	-63.3	3.8	1.49e+00	0	43	104	0	72	15819
2026-01-16 12:01:20.26	236.20	6.71	-50.2	-63.3	3.8	1.49e+00	0	43	104	0	72	15771
2026-01-16 12:01:21.26	236.33	6.75	-50.1	-63.2	3.8	1.49e+00	0	43	104	0	72	15760
2026-01-16 12:01:22.25	236.46	6.80	-50.1	-63.3	3.8	1.49e+00	0	43	104	0	72	15825
2026-01-16 12:01:23.24	236.58	6.85	-50.1	-63.3	3.8	1.49e+00	0	43	104	0	72	15848
2026-01-16 12:01:24.24	236.71	6.89	-50.1	-63.3	3.8	1.49e+00	0	43	104	0	72	15820
2026-01-16 12:01:25.23	236.84	6.94	-50.2	-63.3	3.8	1.49e+00	0	43	104	0	72	15918
2026-01-16 12:01:26.22	236.97	6.99	-50.1	-63.3	3.8	1.49e+00	0	43	104	0	72	15832
2026-01-16 12:01:27.22	237.10	7.03	-50.1	-63.3	3.8	1.49e+00	0	43	104	0	72	15851
2026-01-16 12:01:28.21	237.23	7.08	-50.1	-63.3	3.8	1.49e+00	0	43	104	0	72	15829
2026-01-16 12:01:29.20	237.36	7.12	-50.1	-63.3	3.8	1.49e+00	0	43	104	0	72	15792
2026-01-16 12:01:30.20	237.49	7.17	-50.1	-63.3	3.8	1.49e+00	0	43	104	0	72	15795
2026-01-16 12:01:31.19	237.62	7.22	-50.2	-63.3	3.8	1.49e+00	0	43	104	0	72	15790
2026-01-16 12:01:32.18	237.75	7.26	-50.2	-63.3	3.8	1.49e+00	0	43	104	0	72	15892
2026-01-16 12:01:33.17	237.88	7.31	-50.1	-63.3	3.8	1.49e+00	0	43	104	0	72	15891
2026-01-16 12:01:34.17	238.01	7.35	-50.2	-63.3	3.8	1.49e+00	0	43	104	0	72	15853
2026-01-16 12:01:35.16	238.15	7.40	-50.1	-63.3	3.8	1.49e+00	0	43	104	0	72	15837
2026-01-16 12:01:36.15	238.28	7.45	-50.1	-63.2	3.8	1.49e+00	0	43	104	0	72	15693
2026-01-16 12:01:37.14	238.41	7.49	-50.1	-63.1	3.8	1.49e+00	0	43	104	0	72	15569
2026-01-16 12:01:38.14	238.55	7.54	-50.1	-63.2	3.8	1.49e+00	0	43	104	0	72	15665
2026-01-16 12:01:39.13	238.68	7.58	-50.1	-63.2	3.8	1.49e+00	0	43	104	0	72	15729
2026-01-16 12:01:40.12	238.81	7.63	-50.2	-63.3	3.8	1.49e+00	0	43	104	0	72	15783
2026-01-16 12:01:41.12	238.95	7.67	-50.2	-63.3	3.8	1.49e+00	0	43	104	0	72	15890
2026-01-16 12:01:42.11	239.09	7.72	-50.2	-63.4	3.8	1.49e+00	0	43	104	0	72	15945
2026-01-16 12:01:43.10	239.22	7.76	-50.2	-63.3	3.8	1.49e+00	0	43	104	0	72	15894
2026-01-16 12:01:44.10	239.36	7.81	-50.2	-63.3	3.8	1.49e+00	0	43	104	0	72	15835
2026-01-16 12:01:45.09	239.49	7.85	-50.1	-63.3	3.8	1.49e+00	0	43	104	0	72	15770
2026-01-16 12:01:46.08	239.63	7.90	-50.1	-63.2	3.8	1.49e+00	0	43	104	0	72	15721
2026-01-16 12:01:47.07	239.77	7.94	-50.1	-63.2	3.8	1.49e+00	0	43	104	0	72	15729
2026-01-16 12:01:48.07	239.91	7.99	-50.2	-63.3	3.8	1.49e+00	0	43	104	0	72	15834
2026-01-16 12:01:49.06	240.04	8.04	-50.1	-63.3	3.8	1.49e+00	0	43	104	0	72	15861
2026-01-16 12:01:50.05	240.18	8.08	-50.1	-63.3	3.8	1.49e+00	0	43	104	0	72	15879
2026-01-16 12:01:51.05	240.32	8.13	-50.1	-63.3	3.8	1.49e+00	0	43	104	0	72	15827
2026-01-16 12:01:52.04	240.46	8.17	-50.2	-63.3	3.8	1.49e+00	0	43	104	0	72	15880
2026-01-16 12:01:53.03	240.60	8.21	-50.1	-63.3	3.8	1.49e+00	0	43	104	0	72	15867
2026-01-16 12:01:54.03	240.74	8.26	-50.1	-63.0	3.8	1.49e+00	0	43	104	0	72	15331
2026-01-16 12:01:55.02	240.88	8.30	-50.0	-62.2	3.8	1.49e+00	0	43	104	0	72	13999
2026-01-16 12:01:56.01	241.02	8.35	-50.0	-61.4	3.9	1.49e+00	0	43	104	0	71	13547
2026-01-16 12:01:57.01	241.16	8.39	-50.0	-61.2	3.9	1.49e+00	0	43	104	0	71	13172
2026-01-16 12:01:58.00	241.31	8.44	-50.1	-61.8	3.8	1.49e+00	0	43	104	0	71	14185
2026-01-16 12:01:58.99	241.45	8.48	-50.2	-63.1	3.8	1.49e+00	0	43	104	0	71	16343
2026-01-16 12:01:59.99	241.59	8.53	-50.0	-61.1	3.9	1.49e+00	0	43	104	0	71	13075
2026-01-16 12:02:00.98	241.73	8.57	-49.1	-56.0	6.1	7.48e-01	0	43	0	0	70	7701
2026-01-16 12:02:01.97	241.88	8.61	-47.5	-51.9	9.9	2.98e-02	0	43	0	0	67	5691
2026-01-16 12:02:02.96	242.02	8.66	-46.0	-49.3	12.7	2.53e-04	0	43	0	0	64	4990
2026-01-16 12:02:03.96	242.17	8.70	-44.8	-47.6	14.5	3.00e-06	0	43	0	0	61	4874
2026-01-16 12:02:04.95	242.31	8.75	-44.0	-46.5	15.6	0.00e+00	0	43	0	0	60	4552
2026-01-16 12:02:05.94	242.46	8.79	-43.8	-46.1	15.9	0.00e+00	0	43	0	0	59	4632
2026-01-16 12:02:06.94	242.60	8.83	-44.0	-46.4	15.6	0.00e+00	0	43	0	0	59	4796
2026-01-16 12:02:07.93	242.75	8.88	-44.5	-47.1	14.9	0.00e+00	0	43	0	0	59	5189
2026-01-16 12:02:08.92	242.89	8.92	-45.4	-48.4	13.7	1.50e-06	0	43	0	0	61	5382
2026-01-16 12:02:09.92	243.04	8.96	-46.5	-50.1	11.9	2.32e-04	0	43	0	0	63	5824
2026-01-16 12:02:10.91	243.19	9.01	-47.5	-51.9	10.0	3.81e-03	0	43	0	0	65	6372
2026-01-16 12:02:11.90	243.34	9.05	-48.5	-54.4	7.6	2.44e-03	0	43	0	0	67	7596
2026-01-16 12:02:12.90	243.49	9.09	-44.4	-46.9	15.2	0.00e+00	0	43	0	0	59	5054
2026-01-16 12:02:13.89	243.63	9.14	-48.9	-55.6	6.6	1.05e-01	0	43	0	0	68	8266
2026-01-16 12:02:14.89	243.78	9.18	-49.3	-57.0	5.5	2.20e-01	0	43	0	0	69	9131
2026-01-16 12:02:15.88	243.93	9.22	-43.5	-45.7	16.4	1.44e-05	0	43	0	0	58	4664
2026-01-16 12:02:16.88	244.08	9.27	-43.4	-45.6	16.4	0.00e+00	0	43	0	0	58	4611
2026-01-16 12:02:17.87	244.23	9.31	-43.3	-45.4	16.6	0.00e+00	0	44	0	0	58	4544
2026-01-16 12:02:18.87	244.39	9.35	-42.9	-44.9	17.0	0.00e+00	0	43	0	0	57	4540
2026-01-16 12:02:19.86	244.54	9.39	-42.6	-44.7	17.2	0.00e+00	0	43	0	0	57	4415
2026-01-16 12:02:20.85	244.69	9.44	-42.2	-44.2	17.7	0.00e+00	0	43	0	0	56	4414
2026-01-16 12:02:21.85	244.84	9.48	-42.1	-44.1	17.7	0.00e+00	0	43	0	0	56	4387
2026-01-16 12:02:22.84	244.99	9.52	-42.0	-44.0	17.8	0.00e+00	0	44	0	0	56	4338
2026-01-16 12:02:23.84	245.15	9.56	-42.1	-44.1	17.7	0.00e+00	0	43	0	0	56	4381
2026-01-16 12:02:24.83	245.30	9.61	-42.2	-44.3	17.6	0.00e+00	0	43	0	0	56	4450
2026-01-16 12:02:25.83	245.45	9.65	-42.1	-44.2	17.8	0.00e+00	0	44	0	0	56	4393
2026-01-16 12:02:26.82	245.61	9.69	-42.2	-44.3	17.6	0.00e+00	0	43	0	0	56	4456
2026-01-16 12:02:27.81	245.76	9.73	-42.1	-44.2	17.7	0.00e+00	0	43	0	0	56	4401
2026-01-16 12:02:28.81	245.92	9.77	-42.1	-44.2	17.7	0.00e+00	0	43	0	0	56	4399
2026-01-16 12:02:29.81	246.08	9.81	-42.2	-44.3	17.6	0.00e+00	0	43	0	0	56	4448
2026-01-16 12:02:30.80	246.23	9.86	-42.0	-44.1	17.8	0.00e+00	0	43	0	0	56	4362
2026-01-16 12:02:31.80	246.39	9.90	-42.0	-44.0	17.8	0.00e+00	0	43	0	0	56	4331
2026-01-16 12:02:32.79	246.54	9.94	-42.1	-44.1	17.8	0.00e+00	0	43	0	0	56	4375
2026-01-16 12:02:33.79	246.70	9.98	-41.8	-43.7	18.0	0.00e+00	0	43	0	0	55	4436
2026-01-16 12:02:34.78	246.86	10.02	-41.8	-43.8	17.9	0.00e+00	0	43	0	0	55	4464
2026-01-16 12:02:35.78	247.02	10.06	-41.8	-43.7	18.0	0.00e+00	0	43	0	0	55	4428
2026-01-16 12:02:36.77	247.18	10.10	-41.8	-43.8	18.0	0.00e+00	0	43	0	0	55	4453
2026-01-16 12:02:37.77	247.34	10.14	-41.9	-43.9	17.9	0.00e+00	0	43	0	0	55	4504
2026-01-16 12:02:38.76	247.50	10.18	-42.0	-43.9	17.9	0.00e+00	0	44	0	0	55	4525
2026-01-16 12:02:39.76	247.66	10.22	-42.0	-44.0	17.8	0.00e+00	0	44	0	0	55	4563
2026-01-16 12:02:40.75	247.82	10.26	-41.9	-43.9	17.9	0.00e+00	0	43	0	0	55	4498
2026-01-16 12:02:41.74	247.98	10.30	-41.8	-43.7	18.0	0.00e+00	0	43	0	0	55	4436
2026-01-16 12:02:42.74	248.14	10.34	-41.9	-43.8	18.0	0.00e+00	0	43	0	0	55	4481
2026-01-16 12:02:43.73	248.30	10.38	-41.9	-43.9	17.9	0.00e+00	0	43	0	0	55	4509
2026-01-16 12:02:44.73	248.46	10.42	-42.0	-44.0	17.8	0.00e+00	0	43	0	0	55	4547
2026-01-16 12:02:45.72	248.62	10.46	-41.9	-43.9	17.8	0.00e+00	0	43	0	0	55	4538
2026-01-16 12:02:46.72	248.79	10.50	-41.9	-43.9	17.9	0.00e+00	0	44	0	0	55	4525
2026-01-16 12:02:47.71	248.95	10.54	-41.9	-43.9	17.9	0.00e+00	0	43	0	0	55	4508
2026-01-16 12:02:48.71	249.12	10.58	-41.9	-43.9	17.8	0.00e+00	0	43	0	0	55	4534
2026-01-16 12:02:49.71	249.28	10.62	-41.8	-43.8	17.9	0.00e+00	0	44	0	0	55	4479
2026-01-16 12:02:50.70	249.44	10.66	-41.8	-43.8	18.0	0.00e+00	0	43	0	0	55	4462
2026-01-16 12:02:51.69	249.61	10.69	-41.8	-43.8	18.0	0.00e+00	0	43	0	0	55	4463
2026-01-16 12:02:52.69	249.77	10.73	-41.9	-43.9	17.9	0.00e+00	0	43	0	0	55	4516
2026-01-16 12:02:53.68	249.94	10.77	-41.8	-43.8	18.0	0.00e+00	0	43	0	0	55	4466
2026-01-16 12:02:54.68	250.11	10.81	-41.8	-43.7	18.1	0.00e+00	0	43	0	0	55	4437
2026-01-16 12:02:55.67	250.27	10.85	-41.8	-43.8	18.0	0.00e+00	0	43	0	0	55	4451
2026-01-16 12:02:56.67	250.44	10.89	-41.8	-43.7	18.1	0.00e+00	0	43	0	0	55	4434
2026-01-16 12:02:57.66	250.61	10.92	-41.8	-43.7	18.1	0.00e+00	0	43	0	0	55	4411
2026-01-16 12:02:58.66	250.78	10.96	-41.8	-43.7	18.1	0.00e+00	0	43	0	0	55	4429
2026-01-16 12:02:59.65	250.94	11.00	-41.8	-43.7	18.1	0.00e+00	0	43	0	0	55	4422
2026-01-16 12:03:00.65	251.11	11.03	-41.8	-43.7	18.1	0.00e+00	0	43	0	0	55	4405
2026-01-16 12:03:01.64	251.28	11.07	-41.6	-43.5	18.3	0.00e+00	0	43	0	0	55	4313
2026-01-16 12:03:02.64	251.45	11.11	-41.6	-43.5	18.3	0.00e+00	0	44	0	0	55	4327
2026-01-16 12:03:03.63	251.62	11.15	-41.6	-43.6	18.2	0.00e+00	0	43	0	0	55	4342
2026-01-16 12:03:04.63	251.79	11.18	-41.7	-43.6	18.1	0.00e+00	0	43	0	0	55	4390
2026-01-16 12:03:05.62	251.96	11.22	-41.7	-43.6	18.2	0.00e+00	0	44	0	0	55	4381
2026-01-16 12:03:06.62	252.14	11.25	-41.7	-43.6	18.2	0.00e+00	0	44	0	0	55	4385
2026-01-16 12:03:07.61	252.31	11.29	-41.8	-43.8	18.1	0.00e+00	0	44	0	0	55	4448
2026-01-16 12:03:08.61	252.48	11.33	-41.7	-43.6	18.1	0.00e+00	0	43	0	0	55	4390
2026-01-16 12:03:09.61	252.65	11.36	-41.8	-43.8	18.0	0.00e+00	0	43	0	0	55	4457
2026-01-16 12:03:10.60	252.83	11.40	-41.9	-43.8	18.0	0.00e+00	0	43	0	0	55	4467
2026-01-16 12:03:11.60	253.00	11.43	-41.9	-43.8	18.0	0.00e+00	0	44	0	0	55	4490
2026-01-16 12:03:12.59	253.17	11.47	-41.9	-43.8	18.0	0.00e+00	0	43	0	0	55	4480
2026-01-16 12:03:13.59	253.35	11.50	-41.9	-43.9	18.0	0.00e+00	0	44	0	0	55	4498
2026-01-16 12:03:14.58	253.52	11.54	-42.0	-43.9	17.9	0.00e+00	0	44	0	0	55	4537
2026-01-16 12:03:15.58	253.70	11.57	-42.1	-44.0	17.8	0.00e+00	0	44	0	0	55	4595
2026-01-16 12:03:16.57	253.87	11.61	-42.0	-43.9	17.9	0.00e+00	0	44	0	0	55	4545
2026-01-16 12:03:17.57	254.05	11.64	-41.9	-43.8	18.0	0.00e+00	0	44	0	0	55	4472
2026-01-16 12:03:18.56	254.22	11.67	-41.9	-43.8	18.0	0.00e+00	0	44	0	0	55	4469
2026-01-16 12:03:19.55	254.40	11.71	-41.9	-43.9	18.0	0.00e+00	0	44	0	0	55	4496
2026-01-16 12:03:20.55	254.58	11.74	-41.9	-43.8	18.0	0.00e+00	0	44	0	0	55	4476
2026-01-16 12:03:21.54	254.75	11.77	-41.9	-43.8	18.0	0.00e+00	0	43	0	0	55	4484
2026-01-16 12:03:22.54	254.93	11.81	-41.9	-43.8	18.0	0.00e+00	0	44	0	0	55	4482
2026-01-16 12:03:23.53	255.11	11.84	-41.8	-43.8	18.0	0.00e+00	0	44	0	0	55	4467
2026-01-16 12:03:24.53	255.29	11.87	-41.9	-43.9	18.0	0.00e+00	0	44	0	0	55	4502
2026-01-16 12:03:25.52	255.47	11.91	-41.8	-43.7	18.1	0.00e+00	0	44	0	0	55	4420
2026-01-16 12:03:26.52	255.65	11.94	-41.8	-43.8	18.0	0.00e+00	0	44	0	0	55	4459
2026-01-16 12:03:27.51	255.82	11.97	-41.9	-43.9	17.9	0.00e+00	0	44	0	0	55	4519
2026-01-16 12:03:28.51	256.01	12.00	-41.8	-43.7	18.1	0.00e+00	0	44	0	0	55	4434
2026-01-16 12:03:29.50	256.19	12.03	-41.7	-43.6	18.2	0.00e+00	0	44	0	0	55	4377
2026-01-16 12:03:30.50	256.37	12.06	-41.8	-43.7	18.2	0.00e+00	0	44	0	0	55	4400
2026-01-16 12:03:31.49	256.55	12.10	-41.7	-43.7	18.2	0.00e+00	0	44	0	0	55	4397
2026-01-16 12:03:32.49	256.73	12.13	-41.6	-43.5	18.2	0.00e+00	0	44	0	0	55	4339
2026-01-16 12:03:33.48	256.91	12.16	-41.7	-43.7	18.1	0.00e+00	0	44	0	0	55	4400
2026-01-16 12:03:34.48	257.09	12.19	-41.8	-43.8	18.0	0.00e+00	0	44	0	0	55	4443
2026-01-16 12:03:35.47	257.28	12.22	-41.8	-43.8	18.0	0.00e+00	0	44	0	0	55	4465
2026-01-16 12:03:36.46	257.46	12.25	-41.8	-43.8	18.0	0.00e+00	0	43	0	0	55	4470
2026-01-16 12:03:37.46	257.64	12.28	-41.9	-43.9	17.9	0.00e+00	0	44	0	0	55	4501
2026-01-16 12:03:38.45	257.82	12.31	-42.0	-43.9	17.9	0.00e+00	0	43	0	0	55	4541
2026-01-16 12:03:39.45	258.01	12.34	-41.9	-43.8	18.0	0.00e+00	0	44	0	0	55	4483
2026-01-16 12:03:40.44	258.19	12.37	-41.8	-43.7	18.1	0.00e+00	0	43	0	0	55	4432
2026-01-16 12:03:41.44	258.38	12.40	-41.7	-43.6	18.2	0.00e+00	0	44	0	0	55	4385
2026-01-16 12:03:42.43	258.56	12.42	-41.7	-43.6	18.2	0.00e+00	0	43	0	0	55	4379
2026-01-16 12:03:43.42	258.75	12.45	-41.6	-43.5	18.2	0.00e+00	0	44	0	0	55	4333
2026-01-16 12:03:44.42	258.93	12.48	-41.7	-43.6	18.2	0.00e+00	0	43	0	0	55	4361
2026-01-16 12:03:45.42	259.12	12.51	-41.6	-43.6	18.2	0.00e+00	0	44	0	0	55	4360
2026-01-16 12:03:46.41	259.31	12.54	-41.6	-43.6	18.2	0.00e+00	0	44	0	0	55	4360
2026-01-16 12:03:47.41	259.49	12.56	-41.7	-43.7	18.1	0.00e+00	0	44	0	0	55	4405
2026-01-16 12:03:48.40	259.68	12.59	-41.6	-43.6	18.2	0.00e+00	0	43	0	0	55	4373
2026-01-16 12:03:49.39	259.87	12.62	-41.7	-43.7	18.1	0.00e+00	0	43	0	0	55	4405
2026-01-16 12:03:50.39	260.05	12.64	-41.7	-43.7	18.2	0.00e+00	0	44	0	0	55	4404
2026-01-16 12:03:51.38	260.24	12.67	-41.7	-43.7	18.2	0.00e+00	0	44	0	0	55	4416
2026-01-16 12:03:52.38	260.43	12.70	-41.8	-43.7	18.1	0.00e+00	0	43	0	0	55	4423
2026-01-16 12:03:53.37	260.62	12.72	-41.8	-43.7	18.1	0.00e+00	0	44	0	0	55	4431
2026-01-16 12:03:54.37	260.81	12.75	-41.8	-43.8	18.1	0.00e+00	0	44	0	0	55	4452
2026-01-16 12:03:55.36	261.00	12.77	-41.7	-43.6	18.2	0.00e+00	0	44	0	0	55	4362
2026-01-16 12:03:56.36	261.19	12.80	-41.7	-43.7	18.1	0.00e+00	0	44	0	0	55	4394
2026-01-16 12:03:57.35	261.38	12.82	-41.7	-43.6	18.2	0.00e+00	0	44	0	0	55	4349
2026-01-16 12:03:58.35	261.57	12.85	-41.7	-43.6	18.1	0.00e+00	0	43	0	0	55	4388
2026-01-16 12:03:59.35	261.76	12.87	-41.8	-43.7	18.0	0.00e+00	0	43	0	0	55	4437
2026-01-16 12:04:00.34	261.95	12.90	-41.7	-43.6	18.1	0.00e+00	0	43	0	0	55	4369
2026-01-16 12:04:01.34	262.14	12.92	-41.7	-43.6	18.1	0.00e+00	0	43	0	0	55	4390
2026-01-16 12:04:02.33	262.33	12.95	-41.7	-43.6	18.2	0.00e+00	0	43	0	0	55	4359
2026-01-16 12:04:03.33	262.53	12.97	-41.5	-43.4	18.4	0.00e+00	0	44	0	0	55	4264
2026-01-16 12:04:04.32	262.72	12.99	-41.4	-43.2	18.5	0.00e+00	0	44	0	0	54	4438
2026-01-16 12:04:05.32	262.91	13.02	-41.4	-43.3	18.5	0.00e+00	0	44	0	0	54	4475
2026-01-16 12:04:06.31	263.10	13.04	-41.4	-43.3	18.6	0.00e+00	0	44	0	0	54	4460
2026-01-16 12:04:07.31	263.29	13.06	-41.4	-43.3	18.5	0.00e+00	0	44	0	0	54	4466
2026-01-16 12:04:08.30	263.49	13.08	-41.4	-43.3	18.5	0.00e+00	0	44	0	0	54	4470
2026-01-16 12:04:09.30	263.68	13.10	-41.5	-43.4	18.4	0.00e+00	0	43	0	0	54	4502
2026-01-16 12:04:10.29	263.87	13.13	-41.5	-43.4	18.4	0.00e+00	0	43	0	0	54	4540
2026-01-16 12:04:11.28	264.07	13.15	-41.6	-43.5	18.2	0.00e+00	0	44	0	0	54	4590
2026-01-16 12:04:12.28	264.26	13.17	-41.7	-43.6	18.2	0.00e+00	0	43	0	0	54	4638
2026-01-16 12:04:13.28	264.46	13.19	-41.7	-43.6	18.2	0.00e+00	0	44	0	0	54	4649
2026-01-16 12:04:14.27	264.65	13.21	-41.8	-43.7	18.2	0.00e+00	0	43	0	0	54	4668
2026-01-16 12:04:15.27	264.85	13.23	-41.6	-43.5	18.4	0.00e+00	0	44	0	0	54	4571
2026-01-16 12:04:16.26	265.04	13.25	-41.7	-43.6	18.3	0.00e+00	0	44	0	0	54	4604
2026-01-16 12:04:17.26	265.24	13.27	-41.5	-43.4	18.4	0.00e+00	0	44	0	0	54	4521
2026-01-16 12:04:18.26	265.44	13.29	-41.4	-43.3	18.5	0.00e+00	0	44	0	0	54	4446
2026-01-16 12:04:19.25	265.63	13.31	-41.4	-43.2	18.5	0.00e+00	0	44	0	0	54	4435
2026-01-16 12:04:20.25	265.83	13.32	-41.3	-43.2	18.5	0.00e+00	0	44	0	0	54	4416
2026-01-16 12:04:21.25	266.03	13.34	-41.3	-43.1	18.6	0.00e+00	0	44	0	0	54	4369
2026-01-16 12:04:22.24	266.22	13.36	-41.3	-43.1	18.6	0.00e+00	0	43	0	0	54	4381
2026-01-16 12:04:23.24	266.42	13.38	-41.3	-43.2	18.5	0.00e+00	0	43	0	0	54	4420
2026-01-16 12:04:24.23	266.62	13.40	-41.4	-43.3	18.5	0.00e+00	0	43	0	0	54	4443
2026-01-16 12:04:25.23	266.81	13.41	-41.5	-43.3	18.5	0.00e+00	0	44	0	0	54	4480
2026-01-16 12:04:26.22	267.01	13.43	-41.4	-43.3	18.5	0.00e+00	0	43	0	0	54	4476
2026-01-16 12:04:27.22	267.21	13.45	-41.5	-43.4	18.4	0.00e+00	0	44	0	0	54	4521
2026-01-16 12:04:28.21	267.41	13.46	-41.3	-43.2	18.6	0.00e+00	0	44	0	0	54	4416
2026-01-16 12:04:29.21	267.61	13.48	-41.4	-43.3	18.6	0.00e+00	0	43	0	0	54	4464
2026-01-16 12:04:30.20	267.80	13.49	-41.3	-43.2	18.6	0.00e+00	0	43	0	0	54	4411
2026-01-16 12:04:31.19	268.00	13.51	-41.5	-43.4	18.4	0.00e+00	0	43	0	0	54	4499
2026-01-16 12:04:32.19	268.20	13.52	-41.5	-43.3	18.5	0.00e+00	0	43	0	0	54	4488
2026-01-16 12:04:33.18	268.40	13.54	-41.7	-43.6	18.2	0.00e+00	0	44	0	0	54	4605
2026-01-16 12:04:34.18	268.60	13.55	-41.6	-43.5	18.3	0.00e+00	0	43	0	0	54	4562
2026-01-16 12:04:35.17	268.80	13.57	-41.5	-43.4	18.4	0.00e+00	0	44	0	0	54	4516
2026-01-16 12:04:36.17	269.00	13.58	-41.5	-43.4	18.3	0.00e+00	0	44	0	0	54	4527
2026-01-16 12:04:37.16	269.20	13.59	-41.6	-43.5	18.3	0.00e+00	0	44	0	0	54	4549
2026-01-16 12:04:38.16	269.40	13.61	-41.5	-43.4	18.3	0.00e+00	0	44	0	0	54	4534
2026-01-16 12:04:39.15	269.60	13.62	-41.4	-43.3	18.5	0.00e+00	0	44	0	0	54	4442
2026-01-16 12:04:40.15	269.80	13.63	-41.3	-43.2	18.6	0.00e+00	0	43	0	0	54	4392
2026-01-16 12:04:41.14	270.00	13.64	-41.1	-42.9	18.8	0.00e+00	0	43	0	0	54	4282
2026-01-16 12:04:42.14	270.20	13.66	-41.1	-42.9	18.8	0.00e+00	0	43	0	0	54	4265
2026-01-16 12:04:43.13	270.40	13.67	-41.1	-43.0	18.7	0.00e+00	0	43	0	0	54	4305
2026-01-16 12:04:44.13	270.60	13.68	-41.3	-43.1	18.6	0.00e+00	0	43	0	0	54	4370
2026-01-16 12:04:45.12	270.80	13.69	-41.3	-43.2	18.6	0.00e+00	0	44	0	0	54	4396
2026-01-16 12:04:46.12	271.00	13.70	-41.3	-43.2	18.6	0.00e+00	0	43	0	0	54	4405
2026-01-16 12:04:47.11	271.20	13.71	-41.3	-43.1	18.6	0.00e+00	0	43	0	0	54	4385
2026-01-16 12:04:48.11	271.40	13.72	-41.4	-43.2	18.5	0.00e+00	0	43	0	0	54	4437
2026-01-16 12:04:49.10	271.61	13.73	-41.5	-43.3	18.4	0.00e+00	0	44	0	0	54	4483
2026-01-16 12:04:50.10	271.81	13.74	-41.5	-43.4	18.4	0.00e+00	0	44	0	0	54	4515
2026-01-16 12:04:51.10	272.01	13.75	-41.5	-43.3	18.4	0.00e+00	0	44	0	0	54	4482
2026-01-16 12:04:52.09	272.21	13.76	-41.5	-43.4	18.4	0.00e+00	0	44	0	0	54	4497
2026-01-16 12:04:53.08	272.41	13.77	-41.5	-43.3	18.5	0.00e+00	0	44	0	0	54	4493
2026-01-16 12:04:54.08	272.62	13.77	-41.5	-43.3	18.5	0.00e+00	0	44	0	0	54	4486
2026-01-16 12:04:55.07	272.82	13.78	-41.5	-43.4	18.5	0.00e+00	0	44	0	0	54	4514
2026-01-16 12:04:56.07	273.02	13.79	-41.6	-43.5	18.4	0.00e+00	0	44	0	0	54	4549
2026-01-16 12:04:57.06	273.22	13.80	-41.6	-43.5	18.3	0.00e+00	0	44	0	0	54	4568
2026-01-16 12:04:58.06	273.42	13.80	-41.6	-43.4	18.3	0.00e+00	0	44	0	0	54	4544
2026-01-16 12:04:59.05	273.63	13.81	-41.5	-43.4	18.4	0.00e+00	0	43	0	0	54	4524
2026-01-16 12:05:00.05	273.83	13.81	-41.7	-43.6	18.2	0.00e+00	0	44	0	0	54	4618
2026-01-16 12:05:01.04	274.03	13.82	-41.7	-43.6	18.2	0.00e+00	0	43	0	0	54	4646
2026-01-16 12:05:02.04	274.24	13.83	-41.6	-43.5	18.2	0.00e+00	0	44	0	0	54	4589
2026-01-16 12:05:03.03	274.44	13.83	-41.5	-43.4	18.3	0.00e+00	0	44	0	0	54	4545
2026-01-16 12:05:04.03	274.64	13.84	-41.6	-43.5	18.3	0.00e+00	0	44	0	0	54	4570
2026-01-16 12:05:05.02	274.84	13.84	-41.6	-43.4	18.3	0.00e+00	0	44	0	0	54	4531
2026-01-16 12:05:06.02	275.05	13.84	-41.4	-43.3	18.5	0.00e+00	0	44	0	0	54	4458
2026-01-16 12:05:07.01	275.25	13.85	-41.4	-43.3	18.5	0.00e+00	0	43	0	0	54	4443
2026-01-16 12:05:08.01	275.45	13.85	-41.3	-43.2	18.6	0.00e+00	0	44	0	0	54	4406
2026-01-16 12:05:09.00	275.66	13.85	-41.3	-43.2	18.6	0.00e+00	0	44	0	0	54	4402
2026-01-16 12:05:10.00	275.86	13.86	-41.4	-43.2	18.6	0.00e+00	0	44	0	0	54	4424
2026-01-16 12:05:10.99	276.06	13.86	-41.3	-43.1	18.7	0.00e+00	0	43	0	0	54	4375
2026-01-16 12:05:11.99	276.27	13.86	-41.3	-43.1	18.7	0.00e+00	0	44	0	0	54	4378
2026-01-16 12:05:12.99	276.47	13.86	-41.3	-43.2	18.6	0.00e+00	0	44	0	0	54	4419
2026-01-16 12:05:13.98	276.67	13.86	-41.4	-43.3	18.6	0.00e+00	0	44	0	0	54	4452
2026-01-16 12:05:14.98	276.88	13.87	-41.5	-43.3	18.5	0.00e+00	0	44	0	0	54	4485
2026-01-16 12:05:15.98	277.08	13.87	-41.4	-43.3	18.5	0.00e+00	0	44	0	0	54	4468
2026-01-16 12:05:16.97	277.28	13.87	-41.4	-43.3	18.6	0.00e+00	0	43	0	0	54	4445
2026-01-16 12:05:17.96	277.49	13.87	-41.5	-43.4	18.4	0.00e+00	0	44	0	0	54	4522
2026-01-16 12:05:18.96	277.69	13.87	-41.6	-43.5	18.4	0.00e+00	0	44	0	0	54	4565
2026-01-16 12:05:19.95	277.89	13.87	-41.6	-43.4	18.4	0.00e+00	0	44	0	0	54	4545
2026-01-16 12:05:20.95	278.10	13.86	-41.6	-43.5	18.3	0.00e+00	0	44	0	0	54	4582
2026-01-16 12:05:21.95	278.30	13.86	-41.6	-43.5	18.4	0.00e+00	0	44	0	0	54	4551
2026-01-16 12:05:22.94	278.50	13.86	-41.6	-43.5	18.3	0.00e+00	0	43	0	0	54	4570
2026-01-16 12:05:23.93	278.70	13.86	-41.4	-43.3	18.5	0.00e+00	0	44	0	0	54	4460
2026-01-16 12:05:24.93	278.91	13.86	-41.5	-43.4	18.5	0.00e+00	0	44	0	0	54	4494
2026-01-16 12:05:25.92	279.11	13.86	-41.5	-43.4	18.4	0.00e+00	0	43	0	0	54	4535
2026-01-16 12:05:26.92	279.31	13.85	-41.4	-43.3	18.5	0.00e+00	0	44	0	0	54	4472
2026-01-16 12:05:27.91	279.52	13.85	-41.4	-43.3	18.5	0.00e+00	0	44	0	0	54	4463
2026-01-16 12:05:28.91	279.72	13.85	-41.4	-43.3	18.5	0.00e+00	0	44	0	0	54	4473
2026-01-16 12:05:29.90	279.92	13.84	-41.5	-43.3	18.5	0.00e+00	0	44	0	0	54	4483
2026-01-16 12:05:30.90	280.13	13.84	-41.4	-43.2	18.6	0.00e+00	0	44	0	0	54	4433
2026-01-16 12:05:31.90	280.33	13.83	-41.4	-43.2	18.6	0.00e+00	0	44	0	0	54	4434
2026-01-16 12:05:32.89	280.53	13.83	-41.3	-43.2	18.6	0.00e+00	0	43	0	0	54	4412
2026-01-16 12:05:33.88	280.73	13.82	-41.4	-43.3	18.5	0.00e+00	0	43	0	0	54	4450
2026-01-16 12:05:34.88	280.94	13.82	-41.4	-43.2	18.6	0.00e+00	0	44	0	0	54	4417
2026-01-16 12:05:35.88	281.14	13.81	-41.4	-43.2	18.6	0.00e+00	0	43	0	0	54	4431
2026-01-16 12:05:36.87	281.34	13.81	-41.4	-43.3	18.5	0.00e+00	0	44	0	0	54	4446
2026-01-16 12:05:37.86	281.54	13.80	-41.4	-43.2	18.5	0.00e+00	0	43	0	0	54	4426
2026-01-16 12:05:38.86	281.75	13.79	-41.3	-43.1	18.7	0.00e+00	0	44	0	0	54	4378
2026-01-16 12:05:39.85	281.95	13.78	-41.3	-43.1	18.7	0.00e+00	0	44	0	0	54	4368
2026-01-16 12:05:40.85	282.15	13.78	-41.3	-43.1	18.7	0.00e+00	0	44	0	0	54	4373
2026-01-16 12:05:41.84	282.35	13.77	-41.5	-43.3	18.5	0.00e+00	0	44	0	0	54	4474
2026-01-16 12:05:42.84	282.55	13.76	-41.4	-43.3	18.6	0.00e+00	0	43	0	0	54	4449
2026-01-16 12:05:43.83	282.75	13.75	-41.4	-43.2	18.6	0.00e+00	0	44	0	0	54	4431
2026-01-16 12:05:44.82	282.96	13.74	-41.3	-43.2	18.6	0.00e+00	0	44	0	0	54	4395
2026-01-16 12:05:45.82	283.16	13.73	-41.5	-43.3	18.5	0.00e+00	0	44	0	0	54	4474
2026-01-16 12:05:46.81	283.36	13.73	-41.5	-43.4	18.5	0.00e+00	0	44	0	0	54	4503
2026-01-16 12:05:47.81	283.56	13.72	-41.6	-43.5	18.3	0.00e+00	0	43	0	0	54	4571
2026-01-16 12:05:48.80	283.76	13.71	-41.6	-43.5	18.3	0.00e+00	0	43	0	0	54	4587
2026-01-16 12:05:49.80	283.96	13.70	-41.7	-43.6	18.3	0.00e+00	0	44	0	0	54	4603
2026-01-16 12:05:50.79	284.16	13.68	-41.6	-43.5	18.3	0.00e+00	0	43	0	0	54	4597
2026-01-16 12:05:51.79	284.36	13.67	-41.6	-43.5	18.3	0.00e+00	0	44	0	0	54	4565
2026-01-16 12:05:52.78	284.56	13.66	-41.6	-43.6	18.2	0.00e+00	0	44	0	0	54	4601
2026-01-16 12:05:53.78	284.76	13.65	-41.6	-43.6	18.2	0.00e+00	0	44	0	0	54	4600
2026-01-16 12:05:54.77	284.96	13.64	-41.7	-43.6	18.2	0.00e+00	0	43	0	0	54	4628
2026-01-16 12:05:55.77	285.16	13.63	-41.7	-43.7	18.2	0.00e+00	0	43	0	0	54	4653
2026-01-16 12:05:56.76	285.36	13.61	-41.6	-43.5	18.3	0.00e+00	0	44	0	0	54	4595
2026-01-16 12:05:57.76	285.56	13.60	-41.7	-43.6	18.3	0.00e+00	0	44	0	0	54	4616
2026-01-16 12:05:58.75	285.76	13.59	-41.6	-43.4	18.3	0.00e+00	0	44	0	0	54	4537
2026-01-16 12:05:59.75	285.96	13.57	-41.6	-43.5	18.3	0.00e+00	0	44	0	0	54	4568
2026-01-16 12:06:00.74	286.16	13.56	-41.7	-43.6	18.3	0.00e+00	0	44	0	0	54	4618
2026-01-16 12:06:01.74	286.36	13.55	-41.7	-43.6	18.2	0.00e+00	0	44	0	0	54	4642
2026-01-16 12:06:02.73	286.56	13.53	-41.7	-43.6	18.2	0.00e+00	0	44	0	0	54	4633
2026-01-16 12:06:03.72	286.76	13.52	-41.6	-43.5	18.3	0.00e+00	0	44	0	0	54	4581
2026-01-16 12:06:04.72	286.95	13.50	-41.7	-43.6	18.3	0.00e+00	0	44	0	0	54	4604
2026-01-16 12:06:05.72	287.15	13.49	-41.7	-43.6	18.2	0.00e+00	0	43	0	0	54	4644
2026-01-16 12:06:06.71	287.35	13.47	-41.7	-43.6	18.2	0.00e+00	0	44	0	0	54	4630
2026-01-16 12:06:07.70	287.55	13.45	-41.8	-43.7	18.1	0.00e+00	0	44	0	0	54	4682
2026-01-16 12:06:08.70	287.75	13.44	-41.8	-43.7	18.2	0.00e+00	0	44	0	0	54	4657
2026-01-16 12:06:09.69	287.94	13.42	-41.7	-43.6	18.2	0.00e+00	0	44	0	0	54	4629
2026-01-16 12:06:10.69	288.14	13.40	-41.7	-43.6	18.2	0.00e+00	0	44	0	0	54	4612
2026-01-16 12:06:11.68	288.34	13.39	-41.6	-43.5	18.3	0.00e+00	0	43	0	0	54	4574
2026-01-16 12:06:12.68	288.53	13.37	-41.6	-43.5	18.2	0.00e+00	0	44	0	0	54	4586
2026-01-16 12:06:13.67	288.73	13.35	-41.6	-43.5	18.3	0.00e+00	0	44	0	0	54	4557
2026-01-16 12:06:14.67	288.93	13.33	-41.6	-43.5	18.3	0.00e+00	0	44	0	0	54	4582
2026-01-16 12:06:15.66	289.12	13.32	-41.6	-43.5	18.3	0.00e+00	0	44	0	0	54	4571
2026-01-16 12:06:16.65	289.31	13.30	-41.7	-43.6	18.3	0.00e+00	0	43	0	0	54	4647
2026-01-16 12:06:17.65	289.51	13.28	-41.7	-43.6	18.3	0.00e+00	0	44	0	0	54	4636
2026-01-16 12:06:18.64	289.71	13.26	-41.7	-43.6	18.3	0.00e+00	0	44	0	0	54	4605
2026-01-16 12:06:19.64	289.90	13.24	-41.8	-43.7	18.2	0.00e+00	0	44	0	0	54	4653
2026-01-16 12:06:20.63	290.09	13.22	-41.7	-43.6	18.2	0.00e+00	0	44	0	0	54	4641
2026-01-16 12:06:21.62	290.29	13.20	-41.8	-43.7	18.2	0.00e+00	0	43	0	0	54	4666
2026-01-16 12:06:22.62	290.48	13.18	-41.7	-43.6	18.2	0.00e+00	0	44	0	0	54	4637
2026-01-16 12:06:23.62	290.68	13.16	-41.8	-43.7	18.2	0.00e+00	0	44	0	0	54	4672
2026-01-16 12:06:24.61	290.87	13.14	-41.8	-43.7	18.1	0.00e+00	0	44	0	0	54	4694
2026-01-16 12:06:25.61	291.06	13.12	-41.9	-43.8	18.1	0.00e+00	0	44	0	0	54	4736
2026-01-16 12:06:26.60	291.26	13.10	-41.8	-43.7	18.1	0.00e+00	0	44	0	0	54	4702
2026-01-16 12:06:27.60	291.45	13.07	-41.8	-43.7	18.1	0.00e+00	0	44	0	0	54	4688
2026-01-16 12:06:28.59	291.64	13.05	-41.9	-43.8	18.1	0.00e+00	0	44	0	0	54	4725
2026-01-16 12:06:29.59	291.84	13.03	-41.8	-43.6	18.2	0.00e+00	0	43	0	0	54	4651
2026-01-16 12:06:30.58	292.03	13.01	-41.9	-43.8	18.0	0.00e+00	0	44	0	0	54	4735
2026-01-16 12:06:31.58	292.22	12.98	-41.9	-43.8	18.1	0.00e+00	0	44	0	0	54	4730
2026-01-16 12:06:32.57	292.41	12.96	-41.8	-43.7	18.1	0.00e+00	0	43	0	0	54	4672
2026-01-16 12:06:33.57	292.60	12.94	-41.7	-43.6	18.2	0.00e+00	0	44	0	0	54	4635
2026-01-16 12:06:34.56	292.79	12.91	-41.8	-43.7	18.2	0.00e+00	0	44	0	0	54	4668
2026-01-16 12:06:35.56	292.98	12.89	-41.7	-43.6	18.2	0.00e+00	0	43	0	0	54	4647
2026-01-16 12:06:36.55	293.17	12.87	-41.7	-43.7	18.2	0.00e+00	0	44	0	0	54	4653
2026-01-16 12:06:37.55	293.36	12.84	-41.8	-43.7	18.2	0.00e+00	0	44	0	0	54	4666
2026-01-16 12:06:38.55	293.55	12.82	-41.9	-43.8	18.1	0.00e+00	0	43	0	0	54	4730
2026-01-16 12:06:39.54	293.74	12.79	-41.9	-43.9	18.0	0.00e+00	0	44	0	0	54	4760
2026-01-16 12:06:40.53	293.93	12.77	-41.9	-43.8	18.1	0.00e+00	0	43	0	0	54	4724
2026-01-16 12:06:41.53	294.12	12.74	-42.0	-43.9	18.0	0.00e+00	0	44	0	0	54	4785
2026-01-16 12:06:42.52	294.30	12.71	-42.0	-44.0	17.9	0.00e+00	0	44	0	0	54	4826
2026-01-16 12:06:43.51	294.49	12.69	-42.0	-44.0	17.9	0.00e+00	0	44	0	0	54	4821
2026-01-16 12:06:44.51	294.68	12.66	-42.0	-44.0	17.9	0.00e+00	0	44	0	0	54	4824
2026-01-16 12:06:45.50	294.87	12.64	-42.0	-43.9	17.9	0.00e+00	0	44	0	0	54	4801
2026-01-16 12:06:46.50	295.05	12.61	-42.0	-44.0	17.9	0.00e+00	0	44	0	0	54	4830
2026-01-16 12:06:47.49	295.24	12.58	-42.0	-43.9	18.0	0.00e+00	0	43	0	0	54	4791
2026-01-16 12:06:48.49	295.43	12.56	-42.0	-43.9	17.9	0.00e+00	0	43	0	0	54	4814
2026-01-16 12:06:49.48	295.61	12.53	-42.0	-43.9	17.9	0.00e+00	0	44	0	0	54	4814
2026-01-16 12:06:50.48	295.80	12.50	-42.0	-43.9	18.0	0.00e+00	0	44	0	0	54	4794
2026-01-16 12:06:51.47	295.98	12.47	-42.1	-44.0	17.9	0.00e+00	0	44	0	0	54	4845
2026-01-16 12:06:52.47	296.17	12.44	-42.0	-43.9	17.9	0.00e+00	0	44	0	0	54	4797
2026-01-16 12:06:53.46	296.35	12.42	-42.0	-43.9	18.0	0.00e+00	0	44	0	0	54	4803
2026-01-16 12:06:54.46	296.54	12.39	-42.1	-44.0	17.9	0.00e+00	0	43	0	0	54	4856
2026-01-16 12:06:55.45	296.72	12.36	-42.1	-44.1	17.8	0.00e+00	0	44	0	0	54	4890
2026-01-16 12:06:56.45	296.90	12.33	-42.2	-44.2	17.7	0.00e+00	0	44	0	0	55	4682
2026-01-16 12:06:57.44	297.09	12.30	-42.2	-44.2	17.6	0.00e+00	0	44	0	0	55	4677
2026-01-16 12:06:58.44	297.27	12.27	-42.2	-44.2	17.6	0.00e+00	0	43	0	0	55	4691
2026-01-16 12:06:59.43	297.45	12.24	-42.2	-44.3	17.6	0.00e+00	0	43	0	0	55	4711
2026-01-16 12:07:00.43	297.63	12.21	-42.2	-44.2	17.6	0.00e+00	0	43	0	0	55	4702
2026-01-16 12:07:01.42	297.81	12.18	-42.3	-44.3	17.6	0.00e+00	0	43	0	0	55	4725
2026-01-16 12:07:02.42	298.00	12.15	-42.3	-44.4	17.5	0.00e+00	0	44	0	0	55	4760
2026-01-16 12:07:03.41	298.18	12.12	-42.5	-44.6	17.4	0.00e+00	0	43	0	0	55	4871
2026-01-16 12:07:04.41	298.36	12.09	-42.5	-44.5	17.4	0.00e+00	0	44	0	0	55	4864
2026-01-16 12:07:05.40	298.54	12.06	-42.5	-44.6	17.3	0.00e+00	0	44	0	0	55	4881
2026-01-16 12:07:06.40	298.72	12.03	-42.4	-44.3	17.5	0.00e+00	0	44	0	0	55	4754
2026-01-16 12:07:07.40	298.90	11.99	-42.3	-44.3	17.6	0.00e+00	0	44	0	0	55	4737
2026-01-16 12:07:08.39	299.08	11.96	-42.4	-44.4	17.5	0.00e+00	0	44	0	0	55	4775
2026-01-16 12:07:09.39	299.26	11.93	-42.4	-44.4	17.5	0.00e+00	0	44	0	0	55	4794
2026-01-16 12:07:10.38	299.43	11.90	-42.5	-44.5	17.4	0.00e+00	0	44	0	0	55	4870
2026-01-16 12:07:11.37	299.61	11.87	-42.4	-44.4	17.4	0.00e+00	0	44	0	0	55	4809
2026-01-16 12:07:12.37	299.79	11.83	-42.3	-44.4	17.5	0.00e+00	0	44	0	0	55	4768
2026-01-16 12:07:13.36	299.96	11.80	-42.4	-44.4	17.4	0.00e+00	0	44	0	0	55	4806
2026-01-16 12:07:14.36	300.14	11.77	-42.4	-44.5	17.4	0.00e+00	0	44	0	0	55	4824
2026-01-16 12:07:15.35	300.32	11.74	-42.4	-44.5	17.4	0.00e+00	0	44	0	0	55	4821
2026-01-16 12:07:16.35	300.49	11.70	-42.4	-44.4	17.4	0.00e+00	0	44	0	0	55	4791
2026-01-16 12:07:17.34	300.67	11.67	-42.5	-44.5	17.4	0.00e+00	0	44	0	0	55	4831
2026-01-16 12:07:18.34	300.85	11.63	-42.3	-44.3	17.5	0.00e+00	0	44	0	0	55	4742
2026-01-16 12:07:19.33	301.02	11.60	-42.3	-44.3	17.5	0.00e+00	0	44	0	0	55	4722
2026-01-16 12:07:20.33	301.19	11.57	-42.4	-44.4	17.4	0.00e+00	0	44	0	0	55	4767
2026-01-16 12:07:21.32	301.37	11.53	-42.4	-44.4	17.4	0.00e+00	0	44	0	0	55	4809
2026-01-16 12:07:22.31	301.54	11.50	-42.4	-44.4	17.4	0.00e+00	0	43	0	0	55	4797
2026-01-16 12:07:23.30	301.71	11.46	-42.4	-44.4	17.4	0.00e+00	0	43	0	0	55	4791
2026-01-16 12:07:24.30	301.89	11.43	-42.5	-44.6	17.3	0.00e+00	0	44	0	0	55	4880
2026-01-16 12:07:25.29	302.06	11.39	-42.4	-44.5	17.4	0.00e+00	0	43	0	0	55	4825
2026-01-16 12:07:26.29	302.23	11.36	-42.5	-44.6	17.2	0.00e+00	0	43	0	0	55	4895
2026-01-16 12:07:27.28	302.40	11.32	-42.4	-44.4	17.4	0.00e+00	0	44	0	0	55	4787
2026-01-16 12:07:28.28	302.57	11.29	-42.4	-44.4	17.4	0.00e+00	0	44	0	0	55	4800
2026-01-16 12:07:29.27	302.74	11.25	-42.5	-44.6	17.2	0.00e+00	0	44	0	0	55	4880
2026-01-16 12:07:30.27	302.91	11.22	-42.4	-44.5	17.3	0.00e+00	0	44	0	0	55	4849
2026-01-16 12:07:31.26	303.08	11.18	-42.5	-44.6	17.2	0.00e+00	0	44	0	0	55	4894
2026-01-16 12:07:32.26	303.25	11.14	-42.6	-44.6	17.2	0.00e+00	0	44	0	0	55	4916
2026-01-16 12:07:33.25	303.42	11.11	-42.3	-44.3	17.4	0.00e+00	0	44	0	0	55	4747
2026-01-16 12:07:34.25	303.59	11.07	-42.2	-44.2	17.5	0.00e+00	0	44	0	0	55	4692
2026-01-16 12:07:35.24	303.76	11.03	-42.2	-44.2	17.6	0.00e+00	0	43	0	0	55	4658
2026-01-16 12:07:36.24	303.93	11.00	-42.3	-44.3	17.4	0.00e+00	0	44	0	0	55	4757
2026-01-16 12:07:37.23	304.09	10.96	-42.3	-44.3	17.5	0.00e+00	0	44	0	0	55	4735
2026-01-16 12:07:38.23	304.26	10.92	-42.3	-44.3	17.5	0.00e+00	0	44	0	0	55	4725
2026-01-16 12:07:39.22	304.43	10.89	-42.4	-44.4	17.4	0.00e+00	0	44	0	0	55	4809
2026-01-16 12:07:40.22	304.59	10.85	-42.5	-44.5	17.3	0.00e+00	0	44	0	0	55	4846
2026-01-16 12:07:41.21	304.76	10.81	-42.4	-44.5	17.3	0.00e+00	0	44	0	0	55	4834
2026-01-16 12:07:42.21	304.93	10.77	-42.6	-44.6	17.2	0.00e+00	0	44	0	0	55	4921
2026-01-16 12:07:43.20	305.09	10.74	-42.5	-44.6	17.2	0.00e+00	0	44	0	0	55	4896
2026-01-16 12:07:44.20	305.26	10.70	-42.9	-45.0	17.0	0.00e+00	0	43	0	0	56	4859
2026-01-16 12:07:45.19	305.42	10.66	-42.8	-44.9	17.1	0.00e+00	0	43	0	0	56	4768
2026-01-16 12:07:46.19	305.58	10.62	-42.8	-44.9	17.1	0.00e+00	0	44	0	0	56	4775
2026-01-16 12:07:47.19	305.75	10.58	-42.9	-44.9	17.0	0.00e+00	0	44	0	0	56	4807
2026-01-16 12:07:48.18	305.91	10.54	-42.8	-44.9	17.0	0.00e+00	0	44	0	0	56	4804
2026-01-16 12:07:49.17	306.07	10.50	-42.8	-44.8	17.1	0.00e+00	0	43	0	0	56	4753
2026-01-16 12:07:50.17	306.23	10.47	-42.7	-44.7	17.2	0.00e+00	0	44	0	0	56	4682
2026-01-16 12:07:51.16	306.39	10.43	-42.7	-44.8	17.2	0.00e+00	0	44	0	0	56	4736
2026-01-16 12:07:52.16	306.56	10.39	-42.7	-44.8	17.2	0.00e+00	0	43	0	0	56	4741
2026-01-16 12:07:53.15	306.72	10.35	-42.8	-44.8	17.1	0.00e+00	0	44	0	0	56	4755
2026-01-16 12:07:54.14	306.88	10.31	-42.9	-45.0	17.0	0.00e+00	0	44	0	0	56	4829
2026-01-16 12:07:55.14	307.04	10.27	-42.9	-45.0	17.0	0.00e+00	0	43	0	0	56	4849
2026-01-16 12:07:56.14	307.20	10.23	-42.9	-45.0	17.0	0.00e+00	0	44	0	0	56	4825
2026-01-16 12:07:57.13	307.35	10.19	-43.0	-45.1	16.9	0.00e+00	0	44	0	0	56	4904
2026-01-16 12:07:58.13	307.51	10.15	-43.0	-45.1	16.9	0.00e+00	0	44	0	0	56	4900
2026-01-16 12:07:59.12	307.67	10.11	-43.0	-45.2	16.8	0.00e+00	0	44	0	0	56	4954
2026-01-16 12:08:00.12	307.83	10.07	-43.2	-45.4	16.5	0.00e+00	0	44	0	0	57	4814
2026-01-16 12:08:01.11	307.99	10.03	-43.4	-45.6	16.4	0.00e+00	0	44	0	0	57	4905
2026-01-16 12:08:02.10	308.14	9.99	-43.4	-45.6	16.4	0.00e+00	0	44	0	0	57	4897
2026-01-16 12:08:03.10	308.30	9.95	-43.3	-45.5	16.5	0.00e+00	0	44	0	0	57	4821
2026-01-16 12:08:04.10	308.46	9.91	-43.3	-45.5	16.4	0.00e+00	0	44	0	0	57	4852
2026-01-16 12:08:05.09	308.61	9.86	-43.1	-45.3	16.7	0.00e+00	0	44	0	0	57	4730
2026-01-16 12:08:06.09	308.77	9.82	-43.2	-45.4	16.6	0.00e+00	0	44	0	0	57	4782
2026-01-16 12:08:07.08	308.92	9.78	-43.0	-45.2	16.7	0.00e+00	0	44	0	0	57	4680
2026-01-16 12:08:08.07	309.08	9.74	-43.0	-45.2	16.8	0.00e+00	0	44	0	0	57	4676
2026-01-16 12:08:09.07	309.23	9.70	-43.2	-45.4	16.5	0.00e+00	0	44	0	0	57	4813
2026-01-16 12:08:10.06	309.38	9.66	-43.3	-45.6	16.4	0.00e+00	0	44	0	0	57	4887
2026-01-16 12:08:11.06	309.54	9.62	-43.1	-45.3	16.7	0.00e+00	0	44	0	0	57	4732
2026-01-16 12:08:12.05	309.69	9.58	-43.1	-45.3	16.7	0.00e+00	0	44	0	0	57	4732
2026-01-16 12:08:13.05	309.84	9.53	-43.1	-45.3	16.7	0.00e+00	0	44	0	0	57	4747
2026-01-16 12:08:14.04	309.99	9.49	-43.1	-45.3	16.7	0.00e+00	0	44	0	0	57	4719
2026-01-16 12:08:15.04	310.15	9.45	-43.0	-45.1	16.8	0.00e+00	0	44	0	0	57	4646
2026-01-16 12:08:16.04	310.30	9.41	-43.1	-45.3	16.7	0.00e+00	0	44	0	0	57	4709
2026-01-16 12:08:17.03	310.45	9.37	-43.2	-45.4	16.6	0.00e+00	0	44	0	0	57	4778
2026-01-16 12:08:18.03	310.60	9.32	-43.2	-45.4	16.5	0.00e+00	0	43	0	0	57	4803
2026-01-16 12:08:19.02	310.75	9.28	-43.3	-45.5	16.5	0.00e+00	0	44	0	0	57	4835
2026-01-16 12:08:20.02	310.90	9.24	-43.2	-45.5	16.5	0.00e+00	0	44	0	0	57	4822
2026-01-16 12:08:21.02	311.05	9.20	-43.2	-45.4	16.5	0.00e+00	0	43	0	0	57	4800
2026-01-16 12:08:22.01	311.19	9.15	-43.3	-45.6	16.4	0.00e+00	0	44	0	0	57	4893
2026-01-16 12:08:23.00	311.34	9.11	-43.2	-45.5	16.5	0.00e+00	0	44	0	0	57	4816
2026-01-16 12:08:24.00	311.49	9.07	-43.2	-45.4	16.6	0.00e+00	0	44	0	0	57	4772
2026-01-16 12:08:24.99	311.64	9.03	-43.3	-45.5	16.4	0.00e+00	0	44	0	0	57	4841
2026-01-16 12:08:25.99	311.78	8.98	-50.1	-62.6	3.8	3.16e-03	0	44	104	0	70	16388
2026-01-16 12:08:26.98	311.93	8.94	-50.3	-63.5	3.8	1.49e+00	0	44	104	0	71	17260
2026-01-16 12:08:27.97	312.07	8.90	-50.7	-63.8	3.8	1.49e+00	0	44	104	0	71	17722
2026-01-16 12:08:28.97	312.22	8.85	-50.8	-63.9	3.8	1.49e+00	0	44	104	0	72	16923
2026-01-16 12:08:29.96	312.37	8.81	-50.7	-63.9	3.8	1.49e+00	0	43	104	0	72	17032
2026-01-16 12:08:30.95	312.51	8.77	-50.7	-64.0	3.8	1.49e+00	0	43	104	0	72	17127
2026-01-16 12:08:31.95	312.65	8.72	-50.8	-64.0	3.8	1.49e+00	0	44	104	0	72	17221
2026-01-16 12:08:32.94	312.80	8.68	-50.8	-64.0	3.8	1.49e+00	0	43	104	0	72	17264
2026-01-16 12:08:33.93	312.94	8.64	-50.9	-64.1	3.8	1.49e+00	0	44	104	0	72	17358
2026-01-16 12:08:34.93	313.08	8.59	-51.0	-64.1	3.8	1.49e+00	0	44	104	0	72	17343
2026-01-16 12:08:35.92	313.23	8.55	-51.1	-64.1	3.8	1.49e+00	0	44	104	0	72	17348
2026-01-16 12:08:36.91	313.37	8.50	-51.1	-64.1	3.8	1.49e+00	0	44	104	0	72	17319
2026-01-16 12:08:37.91	313.51	8.46	-51.1	-64.1	3.8	1.49e+00	0	44	104	0	72	17384
2026-01-16 12:08:38.90	313.65	8.42	-51.0	-64.1	3.8	1.49e+00	0	43	104	0	72	17446
2026-01-16 12:08:39.89	313.79	8.37	-51.0	-64.2	3.8	1.49e+00	0	44	104	0	72	17484
2026-01-16 12:08:40.89	313.93	8.33	-51.1	-64.2	3.8	1.49e+00	0	44	104	0	72	17502
2026-01-16 12:08:41.88	314.07	8.28	-51.0	-64.2	3.8	1.49e+00	0	44	104	0	72	17496
2026-01-16 12:08:42.87	314.21	8.24	-51.1	-64.1	3.8	1.49e+00	0	44	104	0	72	17419
2026-01-16 12:08:43.87	314.35	8.20	-51.0	-64.1	3.8	1.49e+00	0	44	104	0	72	17350
2026-01-16 12:08:44.86	314.49	8.15	-50.9	-64.1	3.8	1.49e+00	0	44	104	0	72	17442
2026-01-16 12:08:45.85	314.63	8.11	-50.8	-64.1	3.8	1.49e+00	0	43	104	0	72	17413
2026-01-16 12:08:46.84	314.76	8.06	-50.7	-64.1	3.8	1.49e+00	0	44	104	0	72	17324
2026-01-16 12:08:47.84	314.90	8.02	-50.7	-64.1	3.8	1.49e+00	0	44	104	0	72	17338
2026-01-16 12:08:48.83	315.04	7.97	-50.7	-64.1	3.8	1.49e+00	0	44	104	0	72	17292
2026-01-16 12:08:49.82	315.17	7.93	-50.7	-64.1	3.8	1.49e+00	0	44	104	0	72	17303
2026-01-16 12:08:50.82	315.31	7.88	-50.7	-64.0	3.8	1.49e+00	0	44	104	0	72	17266
2026-01-16 12:08:51.81	315.45	7.84	-50.7	-64.1	3.8	1.49e+00	0	44	104	0	72	17353
2026-01-16 12:08:52.80	315.58	7.80	-50.7	-64.0	3.8	1.49e+00	0	44	104	0	72	17266
2026-01-16 12:08:53.80	315.72	7.75	-50.7	-64.1	3.8	1.49e+00	0	43	104	0	72	17296
2026-01-16 12:08:54.79	315.85	7.71	-50.7	-64.1	3.8	1.49e+00	0	43	104	0	72	17348
2026-01-16 12:08:55.78	315.99	7.66	-50.7	-64.1	3.8	1.49e+00	0	44	104	0	72	17341
2026-01-16 12:08:56.77	316.12	7.62	-50.7	-64.0	3.8	1.49e+00	0	44	104	0	72	17223
2026-01-16 12:08:57.77	316.25	7.57	-50.7	-64.0	3.8	1.49e+00	0	44	104	0	72	17267
2026-01-16 12:08:58.76	316.39	7.53	-50.7	-64.0	3.8	1.49e+00	0	44	104	0	72	17257
2026-01-16 12:08:59.75	316.52	7.48	-50.7	-64.0	3.8	1.49e+00	0	44	104	0	72	17263
2026-01-16 12:09:00.75	316.65	7.43	-50.7	-64.1	3.8	1.49e+00	0	44	104	0	72	17283
2026-01-16 12:09:01.74	316.78	7.39	-50.7	-64.0	3.8	1.49e+00	0	44	104	0	72	17271
2026-01-16 12:09:02.73	316.91	7.34	-50.7	-64.0	3.8	1.49e+00	0	44	104	0	72	17253
2026-01-16 12:09:03.73	317.05	7.30	-50.6	-64.0	3.8	1.49e+00	0	44	104	0	72	17199
2026-01-16 12:09:04.72	317.18	7.25	-50.7	-64.0	3.8	1.49e+00	0	44	104	0	72	17222
2026-01-16 12:09:05.71	317.31	7.21	-50.6	-64.0	3.8	1.49e+00	0	44	104	0	72	17211
2026-01-16 12:09:06.71	317.44	7.16	-50.7	-64.0	3.8	1.49e+00	0	44	104	0	72	17265
2026-01-16 12:09:07.70	317.57	7.12	-50.7	-64.0	3.8	1.49e+00	0	44	104	0	72	17228
2026-01-16 12:09:08.69	317.69	7.07	-50.7	-64.0	3.8	1.49e+00	0	44	104	0	72	17177
2026-01-16 12:09:09.68	317.82	7.03	-50.7	-64.0	3.8	1.49e+00	0	44	104	0	72	17271
2026-01-16 12:09:10.68	317.95	6.98	-50.6	-64.0	3.8	1.49e+00	0	44	104	0	72	17214
2026-01-16 12:09:11.67	318.08	6.93	-50.6	-64.0	3.8	1.49e+00	0	44	104	0	72	17218
2026-01-16 12:09:12.67	318.21	6.89	-50.6	-64.0	3.8	1.49e+00	0	44	104	0	72	17173
2026-01-16 12:09:13.66	318.33	6.84	-50.6	-64.1	3.8	1.49e+00	0	44	104	0	72	17282
2026-01-16 12:09:14.65	318.46	6.80	-50.7	-64.0	3.8	1.49e+00	0	44	104	0	72	17225
2026-01-16 12:09:15.64	318.59	6.75	-50.7	-64.0	3.8	1.49e+00	0	44	104	0	72	17255
2026-01-16 12:09:16.64	318.71	6.71	-50.6	-64.0	3.8	1.49e+00	0	44	104	0	72	17225
2026-01-16 12:09:17.63	318.84	6.66	-50.7	-64.0	3.8	1.49e+00	0	44	104	0	72	17200
2026-01-16 12:09:18.62	318.96	6.61	-50.7	-64.0	3.8	1.49e+00	0	44	104	0	72	17193
2026-01-16 12:09:19.61	319.09	6.57	-50.7	-64.0	3.8	1.49e+00	0	44	104	0	72	17219
2026-01-16 12:09:20.61	319.21	6.52	-50.6	-64.0	3.8	1.49e+00	0	44	104	0	72	17149
2026-01-16 12:09:21.60	319.34	6.48	-50.6	-64.0	3.8	1.49e+00	0	44	104	0	72	17164
2026-01-16 12:09:22.59	319.46	6.43	-50.6	-64.0	3.8	1.49e+00	0	44	104	0	72	17157
2026-01-16 12:09:23.59	319.58	6.38	-50.6	-64.0	3.8	1.49e+00	0	44	104	0	72	17178
2026-01-16 12:09:24.58	319.71	6.34	-50.6	-64.0	3.8	1.49e+00	0	44	104	0	72	17165
2026-01-16 12:09:25.57	319.83	6.29	-50.6	-64.0	3.8	1.49e+00	0	44	104	0	72	17165
2026-01-16 12:09:26.56	319.95	6.25	-50.6	-64.0	3.8	1.49e+00	0	44	104	0	72	17168
2026-01-16 12:09:27.56	320.07	6.20	-50.6	-64.0	3.8	1.49e+00	0	44	104	0	72	17199
2026-01-16 12:09:28.55	320.19	6.15	-50.6	-64.0	3.8	1.49e+00	0	44	104	0	72	17199
2026-01-16 12:09:29.54	320.32	6.11	-50.6	-64.0	3.8	1.49e+00	0	44	104	0	72	17189
2026-01-16 12:09:30.54	320.44	6.06	-50.6	-64.0	3.8	1.49e+00	0	44	104	0	72	17099
2026-01-16 12:09:31.53	320.56	6.01	-50.6	-64.0	3.8	1.49e+00	0	44	104	0	72	17149
2026-01-16 12:09:32.52	320.68	5.97	-50.6	-64.0	3.8	1.49e+00	0	44	104	0	72	17123
2026-01-16 12:09:33.51	320.80	5.92	-50.6	-64.0	3.8	1.49e+00	0	44	104	0	72	17238
2026-01-16 12:09:34.51	320.92	5.88	-50.6	-64.0	3.8	1.49e+00	0	44	104	0	72	17164
2026-01-16 12:09:35.50	321.03	5.83	-50.6	-64.0	3.8	1.49e+00	0	44	104	0	72	17181
2026-01-16 12:09:36.49	321.15	5.78	-50.6	-64.0	3.8	1.49e+00	0	44	104	0	72	17250
2026-01-16 12:09:37.48	321.27	5.74	-50.6	-64.0	3.8	1.49e+00	0	44	104	0	72	17104
2026-01-16 12:09:38.48	321.39	5.69	-50.6	-64.0	3.8	1.49e+00	0	44	104	0	72	17130
2026-01-16 12:09:39.47	321.51	5.64	-50.6	-64.0	3.8	1.49e+00	0	44	104	0	72	17152
2026-01-16 12:09:40.46	321.62	5.60	-50.6	-64.0	3.8	1.49e+00	0	44	104	0	72	17174
2026-01-16 12:09:41.45	321.74	5.55	-50.6	-64.0	3.8	1.49e+00	0	44	104	0	72	17133
2026-01-16 12:09:42.45	321.86	5.50	-50.6	-64.0	3.8	1.49e+00	0	44	104	0	72	17088
2026-01-16 12:09:43.44	321.97	5.46	-50.6	-64.0	3.8	1.49e+00	0	44	104	0	72	17148
2026-01-16 12:09:44.43	322.09	5.41	-50.6	-64.0	3.8	1.49e+00	0	44	104	0	72	17145
2026-01-16 12:09:45.43	322.20	5.37	-50.6	-64.0	3.8	1.49e+00	0	44	104	0	72	17105
2026-01-16 12:09:46.42	322.32	5.32	-50.6	-64.0	3.8	1.49e+00	0	44	104	0	72	17175
2026-01-16 12:09:47.41	322.43	5.27	-50.6	-63.9	3.8	1.49e+00	0	44	104	0	72	17068
2026-01-16 12:09:48.40	322.55	5.23	-50.6	-63.9	3.8	1.49e+00	0	44	104	0	72	17035
2026-01-16 12:09:49.40	322.66	5.18	-50.6	-64.0	3.8	1.49e+00	0	44	104	0	72	17133
2026-01-16 12:09:50.39	322.77	5.13	-50.6	-64.0	3.8	1.49e+00	0	44	104	0	72	17094
2026-01-16 12:09:51.38	322.89	5.09	-50.6	-63.9	3.8	1.49e+00	0	44	104	0	72	17050
2026-01-16 12:09:52.38	323.00	5.04	-50.6	-64.0	3.8	1.49e+00	0	44	104	0	72	17121
2026-01-16 12:09:53.37	323.11	4.99	-50.6	-64.0	3.8	1.49e+00	0	44	104	0	72	17103

#Closed at: 2026-01-16 12:09:54
#Recorded file [0 MB]: D:/Data/31040_260116_150044.dat