passes_logs/2026/01/16/T1/T1__20260116_231810_NOAA_20_JPSS-1_rec.log

#Pass ID: 20260116_231810_NOAA 20 (JPSS-1)
#Satellite: NOAA 20 (JPSS-1)
#Configuration: NOAA 20
#almurnet v.1.7.20251203
#Start time: 2026-01-16 23:18:11

#Version: 2.0.20230620
#Station: T1
#Location: 37.570604 lon 55.790049 lat
#TLE: 1 43013U 17073A   26016.24631778  .00000038  00000+0  39093-4 0  9990
#TLE: 2 43013  98.7637 317.1726 0001455  37.6755 322.4523 14.19536243422915

#Time	Az	El	Level	Level2	SNR	BER	BlckErr	Temp	State	Recorded	gain1	gain2
2026-01-16 23:18:11.55	19.08	5.06	-48.3	-65.3	3.8	1.49e+00	0	40	0	0	68	25105
2026-01-16 23:18:12.54	19.11	5.13	-48.2	-65.0	3.8	1.49e+00	0	40	104	0	67	25779
2026-01-16 23:18:13.53	19.13	5.20	-48.2	-65.0	3.8	1.49e+00	0	40	104	0	67	25712
2026-01-16 23:18:14.53	19.16	5.27	-48.2	-65.0	3.8	1.49e+00	0	40	104	0	67	25815
2026-01-16 23:18:15.52	19.18	5.34	-48.2	-65.0	3.8	1.49e+00	0	40	104	0	67	25699
2026-01-16 23:18:16.51	19.21	5.41	-48.2	-65.0	3.8	1.49e+00	0	40	104	0	67	25696
2026-01-16 23:18:17.51	19.24	5.48	-48.2	-65.0	3.8	1.49e+00	0	40	104	0	67	25726
2026-01-16 23:18:18.50	19.26	5.55	-48.2	-65.0	3.8	1.49e+00	0	40	104	0	67	25693
2026-01-16 23:18:19.50	19.29	5.62	-48.2	-64.9	3.8	1.49e+00	0	40	104	0	67	25490
2026-01-16 23:18:20.49	19.31	5.69	-48.2	-65.0	3.8	1.49e+00	0	40	104	0	67	25664
2026-01-16 23:18:21.48	19.34	5.76	-48.2	-65.0	3.8	1.49e+00	0	41	104	0	67	25757
2026-01-16 23:18:22.47	19.36	5.83	-48.2	-65.1	3.8	1.49e+00	0	40	104	0	67	25886
2026-01-16 23:18:23.47	19.39	5.91	-48.2	-65.1	3.8	1.49e+00	0	40	104	0	67	25922
2026-01-16 23:18:24.46	19.42	5.98	-48.2	-65.1	3.8	1.49e+00	0	41	104	0	67	25938
2026-01-16 23:18:25.45	19.44	6.05	-48.2	-65.2	3.8	1.49e+00	0	40	104	0	67	26162
2026-01-16 23:18:26.45	19.47	6.12	-48.2	-65.2	3.8	1.49e+00	0	41	104	0	67	26239
2026-01-16 23:18:27.44	19.50	6.20	-48.2	-65.2	3.8	1.49e+00	0	41	104	0	67	26282
2026-01-16 23:18:28.43	19.52	6.27	-48.2	-65.2	3.8	1.49e+00	0	41	104	0	67	26322
2026-01-16 23:18:29.43	19.55	6.34	-48.2	-65.2	3.8	1.49e+00	0	41	104	0	67	26184
2026-01-16 23:18:30.42	19.58	6.42	-48.2	-65.1	3.8	1.49e+00	0	41	104	0	67	25939
2026-01-16 23:18:31.41	19.60	6.49	-48.2	-65.0	3.8	1.49e+00	0	41	104	0	67	25705
2026-01-16 23:18:32.40	19.63	6.56	-48.2	-64.9	3.8	1.49e+00	0	41	104	0	67	25384
2026-01-16 23:18:33.40	19.66	6.64	-48.2	-64.7	3.8	1.49e+00	0	41	104	0	67	24908
2026-01-16 23:18:34.39	19.69	6.71	-48.2	-64.5	3.8	1.49e+00	0	41	104	0	67	24378
2026-01-16 23:18:35.38	19.71	6.79	-48.2	-64.2	3.8	1.49e+00	0	41	104	0	67	23536
2026-01-16 23:18:36.38	19.74	6.86	-48.2	-64.0	3.8	1.49e+00	0	41	104	0	67	22899
2026-01-16 23:18:37.37	19.77	6.93	-48.2	-63.8	3.8	1.49e+00	0	41	104	0	67	22324
2026-01-16 23:18:38.36	19.80	7.01	-48.1	-63.4	3.8	1.49e+00	0	41	104	0	67	21371
2026-01-16 23:18:39.36	19.82	7.09	-48.1	-63.2	3.8	1.49e+00	0	41	104	0	67	20804
2026-01-16 23:18:40.35	19.85	7.16	-48.1	-63.0	3.8	1.49e+00	0	41	104	0	67	20428
2026-01-16 23:18:41.34	19.88	7.24	-48.1	-62.6	4.0	1.48e+00	0	41	104	0	67	19552
2026-01-16 23:18:42.34	19.91	7.31	-48.1	-62.4	4.0	1.48e+00	0	41	104	0	67	18977
2026-01-16 23:18:43.33	19.94	7.39	-48.1	-62.2	4.1	1.47e+00	0	41	104	0	67	18640
2026-01-16 23:18:44.32	19.97	7.46	-48.1	-62.0	4.1	1.44e+00	0	41	0	0	67	18252
2026-01-16 23:18:45.32	19.99	7.54	-48.1	-61.9	4.1	1.43e+00	0	41	0	0	67	18053
2026-01-16 23:18:46.31	20.02	7.62	-48.1	-61.9	4.1	1.43e+00	0	41	0	0	67	18069
2026-01-16 23:18:47.30	20.05	7.69	-48.1	-61.8	4.2	1.42e+00	0	41	0	0	67	17828
2026-01-16 23:18:48.30	20.08	7.77	-48.0	-61.8	4.2	1.41e+00	0	41	0	0	67	17752
2026-01-16 23:18:49.29	20.11	7.85	-48.0	-61.6	4.2	1.39e+00	0	41	0	0	67	17466
2026-01-16 23:18:50.28	20.14	7.93	-48.0	-61.5	4.3	1.39e+00	0	41	0	0	67	17096
2026-01-16 23:18:51.28	20.17	8.01	-48.0	-61.2	4.3	1.35e+00	0	41	0	0	67	16688
2026-01-16 23:18:52.27	20.20	8.08	-48.0	-60.9	4.4	1.25e+00	0	42	0	1048576	67	16033
2026-01-16 23:18:53.26	20.23	8.16	-48.0	-60.2	4.7	9.70e-01	0	41	0	3145728	67	14878
2026-01-16 23:18:54.26	20.26	8.24	-47.9	-59.4	5.1	8.36e-01	0	41	0	5242880	67	13551
2026-01-16 23:18:55.25	20.29	8.32	-47.8	-58.7	5.6	5.71e-01	0	41	0	6291456	67	12468
2026-01-16 23:18:56.24	20.32	8.40	-47.7	-58.1	6.0	3.60e-01	0	41	0	8388608	67	11591
2026-01-16 23:18:57.24	20.35	8.48	-47.5	-56.8	7.1	2.05e-01	0	41	0	10485760	67	9989
2026-01-16 23:18:58.23	20.38	8.56	-47.4	-55.9	7.9	1.07e-01	0	41	0	12582912	66	9546
2026-01-16 23:18:59.22	20.41	8.64	-47.2	-55.0	8.9	3.63e-02	0	42	0	13631488	66	8593
2026-01-16 23:19:00.22	20.44	8.72	-47.0	-54.3	9.6	1.62e-02	0	42	0	15728640	66	7912
2026-01-16 23:19:01.21	20.47	8.80	-46.7	-53.4	10.6	5.80e-03	0	42	0	17825792	65	7544
2026-01-16 23:19:02.21	20.50	8.88	-46.5	-52.8	11.1	2.94e-03	0	41	0	19922944	65	7109
2026-01-16 23:19:03.20	20.53	8.96	-46.4	-52.4	11.5	7.82e-04	0	42	0	22020096	64	7188
2026-01-16 23:19:04.19	20.57	9.04	-46.3	-52.2	11.8	4.94e-04	0	41	0	23068672	64	6982
2026-01-16 23:19:05.19	20.60	9.12	-46.8	-53.2	10.9	1.13e-03	0	42	0	25165824	64	7843
2026-01-16 23:19:06.18	20.63	9.20	-47.8	-58.1	5.8	1.36e-01	0	42	0	27262976	66	12336
2026-01-16 23:19:07.22	20.66	9.29	-44.8	-48.7	15.4	0.00e+00	0	42	0	29360128	61	5588
2026-01-16 23:19:08.25	20.69	9.38	-46.1	-51.2	12.8	2.65e-04	0	42	0	31457280	64	6222
2026-01-16 23:19:09.24	20.73	9.46	-44.7	-48.9	15.2	0.00e+00	0	42	0	32505856	60	6005
2026-01-16 23:19:10.24	20.76	9.54	-44.3	-47.9	16.2	0.00e+00	0	42	0	34603008	60	5366
2026-01-16 23:19:11.23	20.79	9.62	-44.1	-47.6	16.5	0.00e+00	0	42	0	36700160	60	5208
2026-01-16 23:19:12.23	20.82	9.71	-44.2	-47.7	16.4	0.00e+00	0	42	0	38797312	60	5274
2026-01-16 23:19:13.22	20.86	9.79	-44.3	-47.7	16.4	0.00e+00	0	42	0	40894464	60	5275
2026-01-16 23:19:14.22	20.89	9.88	-44.2	-47.7	16.5	0.00e+00	0	42	0	41943040	60	5232
2026-01-16 23:19:15.21	20.92	9.96	-44.3	-47.7	16.4	0.00e+00	0	42	0	44040192	60	5231
2026-01-16 23:19:16.21	20.96	10.04	-44.0	-47.2	16.9	0.00e+00	0	42	0	46137344	60	4961
2026-01-16 23:19:17.52	21.00	10.16	-43.9	-47.0	17.0	0.00e+00	0	42	0	48234496	59	5148
2026-01-16 23:19:18.23	21.02	10.22	-43.9	-47.0	17.1	0.00e+00	0	42	0	49283072	59	5145
2026-01-16 23:19:19.51	21.07	10.33	-43.8	-46.9	17.2	0.00e+00	0	42	0	52428800	59	5072
2026-01-16 23:19:20.23	21.09	10.39	-43.9	-47.0	17.1	0.00e+00	0	42	0	53477376	59	5144
2026-01-16 23:19:21.51	21.14	10.50	-43.8	-46.9	17.2	0.00e+00	0	42	0	55574528	59	5048
2026-01-16 23:19:22.22	21.16	10.56	-43.8	-46.9	17.2	0.00e+00	0	42	0	57671680	59	5084
2026-01-16 23:19:23.50	21.21	10.67	-43.9	-47.0	17.1	0.00e+00	0	42	0	59768832	59	5141
2026-01-16 23:19:24.22	21.23	10.74	-43.8	-46.9	17.2	0.00e+00	0	42	0	60817408	59	5066
2026-01-16 23:19:25.53	21.28	10.85	-43.8	-46.8	17.3	0.00e+00	0	42	0	63963136	59	5016
2026-01-16 23:19:26.24	21.30	10.91	-43.9	-47.0	17.2	0.00e+00	0	42	0	65011712	59	5101
2026-01-16 23:19:27.59	21.35	11.03	-43.9	-47.0	17.2	0.00e+00	0	42	0	67108864	59	5111
2026-01-16 23:19:28.30	21.38	11.09	-43.9	-46.8	17.3	0.00e+00	0	42	0	68157440	59	5032
2026-01-16 23:19:29.64	21.42	11.21	-43.8	-46.8	17.3	0.00e+00	0	42	0	71303168	59	5011
2026-01-16 23:19:30.35	21.45	11.28	-43.9	-46.8	17.3	0.00e+00	0	42	0	72351744	59	5027
2026-01-16 23:19:31.63	21.50	11.39	-43.8	-46.8	17.4	0.00e+00	0	42	0	74448896	59	4988
2026-01-16 23:19:32.34	21.52	11.46	-43.8	-46.7	17.4	0.00e+00	0	42	0	76546048	59	4965
2026-01-16 23:19:33.73	21.57	11.58	-43.8	-46.7	17.4	0.00e+00	0	42	0	78643200	59	4975
2026-01-16 23:19:34.44	21.60	11.65	-43.9	-46.8	17.4	0.00e+00	0	42	0	79691776	59	5028
2026-01-16 23:19:35.80	21.65	11.77	-43.8	-46.7	17.5	0.00e+00	0	42	0	82837504	59	4928
2026-01-16 23:19:36.51	21.68	11.83	-43.8	-46.7	17.5	0.00e+00	0	42	0	83886080	59	4951
2026-01-16 23:19:37.78	21.72	11.95	-44.0	-46.9	17.3	0.00e+00	0	42	0	85983232	59	5064
2026-01-16 23:19:38.51	21.75	12.02	-43.9	-46.8	17.4	0.00e+00	0	42	0	88080384	59	4996
2026-01-16 23:19:39.79	21.80	12.14	-44.0	-46.8	17.4	0.00e+00	0	42	0	90177536	59	5005
2026-01-16 23:19:40.51	21.83	12.20	-44.0	-46.8	17.4	0.00e+00	0	42	0	91226112	59	5018
2026-01-16 23:19:41.79	21.88	12.32	-43.9	-46.6	17.5	0.00e+00	0	42	0	94371840	59	4913
2026-01-16 23:19:42.53	21.90	12.39	-44.0	-46.7	17.5	0.00e+00	0	42	0	95420416	59	4979
2026-01-16 23:19:43.81	21.95	12.51	-43.9	-46.7	17.5	0.00e+00	0	42	0	97517568	59	4949
2026-01-16 23:19:44.54	21.98	12.58	-44.0	-46.7	17.5	0.00e+00	0	42	0	98566144	59	4972
2026-01-16 23:19:45.81	22.03	12.70	-44.0	-46.7	17.6	0.00e+00	0	42	0	101711872	59	4933
2026-01-16 23:19:46.60	22.06	12.77	-44.0	-46.7	17.5	0.00e+00	0	42	0	102760448	59	4950
2026-01-16 23:19:47.80	22.11	12.89	-44.0	-46.7	17.4	0.00e+00	0	42	0	104857600	59	4973
2026-01-16 23:19:48.66	22.14	12.97	-44.0	-46.7	17.6	0.00e+00	0	42	0	106954752	59	4930
2026-01-16 23:19:49.79	22.19	13.08	-43.9	-46.6	17.6	0.00e+00	0	42	0	109051904	59	4890
2026-01-16 23:19:50.83	22.23	13.18	-43.8	-46.4	17.8	0.00e+00	0	42	0	111149056	59	4801
2026-01-16 23:19:51.83	22.27	13.28	-43.8	-46.4	17.8	0.00e+00	0	42	0	113246208	59	4794
2026-01-16 23:19:52.82	22.31	13.37	-43.8	-46.4	17.8	0.00e+00	0	42	0	114294784	59	4778
2026-01-16 23:19:53.82	22.35	13.47	-43.8	-46.4	17.8	0.00e+00	0	42	0	116391936	59	4775
2026-01-16 23:19:54.81	22.40	13.57	-43.8	-46.3	17.9	0.00e+00	0	42	0	118489088	59	4738
2026-01-16 23:19:55.81	22.44	13.66	-43.8	-46.3	18.0	0.00e+00	0	42	0	120586240	59	4726
2026-01-16 23:19:56.80	22.48	13.76	-43.8	-46.4	17.9	0.00e+00	0	42	0	121634816	59	4760
2026-01-16 23:19:57.79	22.52	13.86	-43.8	-46.3	17.9	0.00e+00	0	42	0	123731968	59	4758
2026-01-16 23:19:58.79	22.56	13.96	-43.8	-46.3	17.9	0.00e+00	0	42	0	125829120	59	4733
2026-01-16 23:19:59.79	22.60	14.06	-43.8	-46.3	17.9	0.00e+00	0	42	0	127926272	59	4732
2026-01-16 23:20:00.78	22.65	14.16	-43.7	-46.3	18.0	0.00e+00	0	42	0	130023424	59	4736
2026-01-16 23:20:01.78	22.69	14.26	-43.7	-46.3	17.9	0.00e+00	0	42	0	131072000	59	4733
2026-01-16 23:20:02.77	22.73	14.36	-43.8	-46.4	17.9	0.00e+00	0	42	0	133169152	59	4760
2026-01-16 23:20:03.77	22.78	14.46	-43.7	-46.3	18.0	0.00e+00	0	42	0	135266304	59	4736
2026-01-16 23:20:04.76	22.82	14.56	-43.8	-46.4	17.8	0.00e+00	0	42	0	137363456	59	4811
2026-01-16 23:20:05.76	22.86	14.66	-43.8	-46.4	17.9	0.00e+00	0	42	0	138412032	59	4773
2026-01-16 23:20:06.75	22.91	14.76	-43.8	-46.4	17.8	0.00e+00	0	42	0	140509184	59	4783
2026-01-16 23:20:07.74	22.95	14.87	-43.7	-46.3	17.9	0.00e+00	0	42	0	142606336	59	4746
2026-01-16 23:20:08.74	23.00	14.97	-43.8	-46.4	17.8	0.00e+00	0	42	0	144703488	59	4801
2026-01-16 23:20:09.73	23.04	15.07	-43.8	-46.5	17.8	0.00e+00	0	42	0	146800640	59	4848
2026-01-16 23:20:10.73	23.09	15.18	-43.8	-46.5	17.8	0.00e+00	0	42	0	147849216	59	4847
2026-01-16 23:20:11.72	23.13	15.28	-43.9	-46.6	17.7	0.00e+00	0	42	0	149946368	59	4881
2026-01-16 23:20:12.72	23.18	15.39	-43.8	-46.5	17.8	0.00e+00	0	42	0	152043520	59	4824
2026-01-16 23:20:13.71	23.23	15.49	-43.8	-46.4	17.9	0.00e+00	0	42	0	154140672	59	4798
2026-01-16 23:20:14.72	23.27	15.60	-43.6	-46.2	18.0	0.00e+00	0	42	0	155189248	59	4688
2026-01-16 23:20:15.74	23.32	15.71	-43.6	-46.3	18.0	0.00e+00	0	42	0	157286400	59	4706
2026-01-16 23:20:16.77	23.37	15.82	-43.7	-46.3	18.0	0.00e+00	0	42	0	159383552	59	4728
2026-01-16 23:20:17.77	23.42	15.92	-43.7	-46.3	18.0	0.00e+00	0	42	0	161480704	59	4742
2026-01-16 23:20:18.82	23.47	16.04	-43.6	-46.2	18.1	0.00e+00	0	42	0	163577856	59	4688
2026-01-16 23:20:19.68	23.51	16.13	-43.7	-46.3	18.0	0.00e+00	0	42	0	164626432	59	4738
2026-01-16 23:20:20.82	23.57	16.25	-43.7	-46.3	18.0	0.00e+00	0	42	0	166723584	59	4751
2026-01-16 23:20:21.76	23.61	16.36	-43.7	-46.4	17.9	0.00e+00	0	42	0	168820736	59	4773
2026-01-16 23:20:22.93	23.67	16.49	-43.7	-46.4	17.9	0.00e+00	0	42	0	170917888	59	4762
2026-01-16 23:20:23.78	23.71	16.58	-43.7	-46.4	17.9	0.00e+00	0	42	0	173015040	59	4765
2026-01-16 23:20:24.92	23.77	16.71	-43.9	-46.5	17.8	0.00e+00	0	42	0	175112192	59	4857
2026-01-16 23:20:25.77	23.81	16.80	-43.8	-46.5	17.9	0.00e+00	0	42	0	176160768	59	4821
2026-01-16 23:20:26.91	23.87	16.93	-43.8	-46.4	17.9	0.00e+00	0	42	0	178257920	59	4785
2026-01-16 23:20:27.76	23.91	17.02	-43.9	-46.6	17.7	0.00e+00	0	42	0	180355072	59	4904
2026-01-16 23:20:28.90	23.97	17.15	-44.0	-46.7	17.6	0.00e+00	0	42	0	182452224	59	4941
2026-01-16 23:20:29.75	24.01	17.25	-44.1	-46.8	17.6	0.00e+00	0	42	0	183500800	59	4989
2026-01-16 23:20:30.88	24.07	17.38	-44.1	-46.7	17.6	0.00e+00	0	42	0	185597952	59	4973
2026-01-16 23:20:31.74	24.12	17.47	-44.0	-46.6	17.7	0.00e+00	0	42	0	187695104	59	4882
2026-01-16 23:20:32.87	24.18	17.60	-43.9	-46.5	17.8	0.00e+00	0	42	0	189792256	59	4856
2026-01-16 23:20:33.72	24.22	17.70	-43.9	-46.5	17.8	0.00e+00	0	42	0	190840832	59	4858
2026-01-16 23:20:34.86	24.28	17.83	-43.9	-46.5	17.8	0.00e+00	0	42	0	193986560	59	4852
2026-01-16 23:20:35.71	24.33	17.93	-43.9	-46.5	17.9	0.00e+00	0	42	0	195035136	59	4843
2026-01-16 23:20:36.98	24.40	18.08	-43.8	-46.4	17.9	0.00e+00	0	42	0	197132288	59	4773
2026-01-16 23:20:37.77	24.44	18.17	-43.7	-46.3	18.0	0.00e+00	0	42	0	199229440	59	4745
2026-01-16 23:20:38.97	24.51	18.32	-43.8	-46.4	17.9	0.00e+00	0	42	0	201326592	59	4797
2026-01-16 23:20:39.81	24.55	18.42	-43.8	-46.4	17.9	0.00e+00	0	42	0	202375168	59	4814
2026-01-16 23:20:40.95	24.62	18.55	-43.9	-46.5	17.8	0.00e+00	0	42	0	204472320	59	4864
2026-01-16 23:20:41.80	24.67	18.65	-43.8	-46.4	17.9	0.00e+00	0	42	0	206569472	59	4790
2026-01-16 23:20:42.94	24.73	18.79	-43.7	-46.4	18.0	0.00e+00	0	42	0	208666624	59	4764
2026-01-16 23:20:43.79	24.78	18.89	-43.7	-46.4	18.0	0.00e+00	0	42	0	209715200	59	4764
2026-01-16 23:20:44.93	24.85	19.03	-43.7	-46.4	18.0	0.00e+00	0	42	0	212860928	59	4781
2026-01-16 23:20:45.78	24.89	19.13	-43.7	-46.4	18.0	0.00e+00	0	42	0	213909504	59	4780
2026-01-16 23:20:46.92	24.96	19.27	-43.8	-46.5	17.9	0.00e+00	0	43	0	216006656	59	4838
2026-01-16 23:20:47.77	25.01	19.38	-43.8	-46.6	17.8	0.00e+00	0	42	0	218103808	59	4881
2026-01-16 23:20:48.91	25.08	19.52	-43.8	-46.5	17.9	0.00e+00	0	42	0	220200960	59	4843
2026-01-16 23:20:49.76	25.13	19.63	-43.8	-46.5	17.9	0.00e+00	0	42	0	221249536	59	4841
2026-01-16 23:20:50.90	25.20	19.77	-43.9	-46.6	17.7	0.00e+00	0	42	0	223346688	59	4916
2026-01-16 23:20:51.75	25.25	19.87	-43.9	-46.7	17.7	0.00e+00	0	42	0	225443840	59	4937
2026-01-16 23:20:52.89	25.32	20.02	-43.8	-46.5	17.8	0.00e+00	0	42	0	227540992	59	4864
2026-01-16 23:20:53.74	25.37	20.13	-43.9	-46.6	17.8	0.00e+00	0	42	0	228589568	59	4877
2026-01-16 23:20:54.94	25.45	20.28	-43.9	-46.6	17.8	0.00e+00	0	42	0	230686720	59	4881
2026-01-16 23:20:55.80	25.50	20.39	-43.8	-46.5	17.9	0.00e+00	0	42	0	232783872	59	4851
2026-01-16 23:20:56.94	25.57	20.54	-43.8	-46.5	17.9	0.00e+00	0	43	0	234881024	59	4838
2026-01-16 23:20:57.79	25.63	20.65	-43.7	-46.3	18.0	0.00e+00	0	42	0	235929600	59	4754
2026-01-16 23:20:59.09	25.71	20.81	-43.7	-46.3	18.1	0.00e+00	0	43	0	239075328	59	4736
2026-01-16 23:20:59.80	25.76	20.91	-43.7	-46.4	18.0	0.00e+00	0	43	0	240123904	59	4771
2026-01-16 23:21:01.28	25.85	21.10	-43.5	-46.1	18.2	0.00e+00	0	43	0	243269632	59	4618
2026-01-16 23:21:01.99	25.90	21.19	-43.4	-46.0	18.3	0.00e+00	0	42	0	244318208	58	4862
2026-01-16 23:21:03.27	25.98	21.36	-43.4	-45.9	18.4	0.00e+00	0	42	0	246415360	58	4797
2026-01-16 23:21:03.98	26.03	21.46	-43.4	-45.9	18.4	0.00e+00	0	42	0	248512512	58	4804
2026-01-16 23:21:05.26	26.12	21.63	-43.3	-45.8	18.6	0.00e+00	0	43	0	250609664	58	4716
2026-01-16 23:21:05.98	26.17	21.73	-43.2	-45.7	18.6	0.00e+00	0	42	0	251658240	58	4690
2026-01-16 23:21:07.26	26.25	21.90	-43.2	-45.7	18.7	0.00e+00	0	42	0	253755392	58	4686
2026-01-16 23:21:07.97	26.30	22.00	-43.1	-45.6	18.8	0.00e+00	0	42	0	255852544	58	4609
2026-01-16 23:21:09.26	26.39	22.17	-43.1	-45.5	18.9	0.00e+00	0	43	0	257949696	58	4555
2026-01-16 23:21:09.97	26.44	22.27	-43.0	-45.4	18.9	0.00e+00	0	42	0	258998272	58	4520
2026-01-16 23:21:11.24	26.53	22.45	-43.0	-45.3	19.0	0.00e+00	0	42	0	262144000	58	4481
2026-01-16 23:21:12.07	26.59	22.56	-43.0	-45.4	19.0	0.00e+00	0	42	0	263192576	58	4502
2026-01-16 23:21:13.20	26.67	22.72	-42.9	-45.2	19.1	0.00e+00	0	42	0	265289728	57	4677
2026-01-16 23:21:14.06	26.73	22.84	-42.9	-45.2	19.2	0.00e+00	0	42	0	267386880	57	4652
2026-01-16 23:21:15.56	26.84	23.05	-42.8	-45.1	19.2	0.00e+00	0	42	0	269484032	57	4604
2026-01-16 23:21:16.27	26.90	23.15	-42.7	-45.0	19.3	0.00e+00	0	42	0	271581184	57	4578
2026-01-16 23:21:17.55	26.99	23.34	-42.7	-44.9	19.4	0.00e+00	0	42	0	273678336	57	4544
2026-01-16 23:21:18.29	27.05	23.44	-42.6	-44.8	19.5	0.00e+00	0	43	0	274726912	57	4493
2026-01-16 23:21:19.57	27.15	23.63	-42.6	-44.8	19.5	0.00e+00	0	43	0	276824064	57	4474
2026-01-16 23:21:20.29	27.20	23.73	-42.6	-44.9	19.4	0.00e+00	0	43	0	278921216	57	4503
2026-01-16 23:21:21.57	27.30	23.92	-42.6	-44.8	19.5	0.00e+00	0	42	0	281018368	57	4474
2026-01-16 23:21:22.40	27.36	24.04	-42.5	-44.7	19.7	0.00e+00	0	42	0	282066944	56	4654
2026-01-16 23:21:23.53	27.45	24.21	-42.4	-44.6	19.7	0.00e+00	0	42	0	285212672	56	4600
2026-01-16 23:21:24.39	27.52	24.33	-42.4	-44.6	19.7	0.00e+00	0	43	0	286261248	56	4614
2026-01-16 23:21:25.52	27.61	24.50	-42.4	-44.6	19.7	0.00e+00	0	42	0	288358400	56	4632
2026-01-16 23:21:26.37	27.68	24.63	-42.4	-44.5	19.8	0.00e+00	0	42	0	290455552	56	4594
2026-01-16 23:21:27.51	27.77	24.80	-42.4	-44.6	19.8	0.00e+00	0	43	0	292552704	56	4602
2026-01-16 23:21:28.36	27.84	24.93	-42.5	-44.7	19.4	0.00e+00	0	43	0	293601280	56	4657
2026-01-16 23:21:29.50	27.94	25.10	-42.3	-44.5	19.8	0.00e+00	0	42	0	295698432	56	4572
2026-01-16 23:21:30.35	28.01	25.23	-42.3	-44.5	19.8	0.00e+00	0	42	0	297795584	56	4554
2026-01-16 23:21:31.49	28.11	25.41	-42.3	-44.5	19.8	0.00e+00	0	42	0	299892736	56	4580
2026-01-16 23:21:32.35	28.18	25.54	-42.4	-44.5	19.8	0.00e+00	0	43	0	300941312	56	4589
2026-01-16 23:21:33.58	28.28	25.73	-42.4	-44.6	19.8	0.00e+00	0	42	0	303038464	56	4612
2026-01-16 23:21:34.43	28.36	25.86	-42.3	-44.5	19.8	0.00e+00	0	43	0	305135616	56	4563
2026-01-16 23:21:35.57	28.46	26.04	-42.4	-44.6	19.7	0.00e+00	0	42	0	307232768	56	4602
2026-01-16 23:21:36.42	28.53	26.18	-42.4	-44.6	19.8	0.00e+00	0	43	0	309329920	56	4614
2026-01-16 23:21:37.56	28.64	26.36	-42.4	-44.6	19.8	0.00e+00	0	43	0	311427072	56	4616
2026-01-16 23:21:38.41	28.71	26.49	-42.4	-44.6	19.7	0.00e+00	0	42	0	312475648	56	4623
2026-01-16 23:21:39.55	28.82	26.68	-42.5	-44.8	19.6	0.00e+00	0	43	0	314572800	56	4717
2026-01-16 23:21:40.40	28.90	26.82	-42.6	-44.8	19.5	0.00e+00	0	43	0	316669952	56	4758
2026-01-16 23:21:41.53	29.00	27.00	-42.7	-45.0	19.4	0.00e+00	0	43	0	318767104	56	4817
2026-01-16 23:21:42.39	29.08	27.14	-42.7	-45.0	19.4	0.00e+00	0	42	0	319815680	56	4846
2026-01-16 23:21:43.52	29.19	27.33	-42.8	-45.1	19.2	0.00e+00	0	42	0	321912832	56	4924
2026-01-16 23:21:44.38	29.27	27.47	-42.8	-45.1	19.3	0.00e+00	0	42	0	324009984	56	4916
2026-01-16 23:21:45.51	29.38	27.66	-43.0	-45.3	19.1	0.00e+00	0	43	0	326107136	56	5027
2026-01-16 23:21:46.37	29.46	27.80	-43.1	-45.4	19.0	0.00e+00	0	43	0	327155712	56	5100
2026-01-16 23:21:47.50	29.58	27.99	-43.1	-45.4	19.0	0.00e+00	0	43	0	329252864	56	5080
2026-01-16 23:21:48.35	29.66	28.13	-43.2	-45.6	18.8	0.00e+00	0	43	0	331350016	57	4925
2026-01-16 23:21:49.49	29.78	28.33	-43.3	-45.7	18.7	0.00e+00	0	43	0	333447168	57	4952
2026-01-16 23:21:50.34	29.86	28.47	-43.4	-45.8	18.6	0.00e+00	0	43	0	334495744	57	5015
2026-01-16 23:21:51.48	29.98	28.67	-43.5	-45.9	18.5	0.00e+00	0	43	0	337641472	57	5062
2026-01-16 23:21:52.33	30.07	28.81	-43.5	-45.9	18.5	0.00e+00	0	42	0	338690048	57	5098
2026-01-16 23:21:53.46	30.19	29.01	-43.6	-46.0	18.4	0.00e+00	0	43	0	340787200	57	5142
2026-01-16 23:21:54.32	30.28	29.16	-43.6	-46.0	18.4	0.00e+00	0	43	0	342884352	57	5153
2026-01-16 23:21:55.45	30.40	29.36	-43.8	-46.2	18.2	0.00e+00	0	42	0	344981504	58	4971
2026-01-16 23:21:56.31	30.49	29.51	-44.0	-46.5	18.0	0.00e+00	0	43	0	346030080	58	5152
2026-01-16 23:21:57.44	30.61	29.71	-44.1	-46.8	17.8	0.00e+00	0	42	0	348127232	58	5281
2026-01-16 23:21:58.38	30.72	29.88	-44.4	-47.0	17.5	0.00e+00	0	42	0	350224384	59	5157
2026-01-16 23:21:59.55	30.85	30.09	-44.5	-47.1	17.3	0.00e+00	0	42	0	352321536	59	5209
2026-01-16 23:22:00.40	30.95	30.24	-44.6	-47.3	17.2	0.00e+00	0	43	0	353370112	59	5335
2026-01-16 23:22:01.54	31.08	30.45	-44.7	-47.5	17.1	0.00e+00	0	42	0	355467264	60	5141
2026-01-16 23:22:02.39	31.17	30.61	-44.8	-47.6	16.9	0.00e+00	0	42	0	357564416	60	5216
2026-01-16 23:22:03.53	31.31	30.82	-45.0	-47.9	16.7	0.00e+00	0	43	0	359661568	60	5363
2026-01-16 23:22:04.38	31.41	30.97	-45.1	-48.0	16.6	0.00e+00	0	43	0	361758720	60	5428
2026-01-16 23:22:05.52	31.54	31.19	-45.2	-48.2	16.4	0.00e+00	0	43	0	363855872	61	5251
2026-01-16 23:22:06.37	31.65	31.34	-45.4	-48.4	16.3	0.00e+00	0	42	0	364904448	61	5371
2026-01-16 23:22:07.51	31.79	31.56	-45.5	-48.6	16.0	0.00e+00	0	43	0	367001600	61	5503
2026-01-16 23:22:08.36	31.89	31.72	-45.6	-48.7	15.9	0.00e+00	0	43	0	369098752	61	5541
2026-01-16 23:22:09.50	32.03	31.94	-45.7	-48.8	15.9	0.00e+00	0	42	0	371195904	62	5316
2026-01-16 23:22:10.35	32.14	32.10	-45.9	-49.1	15.6	0.00e+00	0	43	0	372244480	62	5506
2026-01-16 23:22:11.49	32.29	32.32	-46.0	-49.2	15.5	0.00e+00	0	43	0	374341632	62	5553
2026-01-16 23:22:12.34	32.40	32.48	-46.1	-49.4	15.2	0.00e+00	0	42	0	376438784	62	5703
2026-01-16 23:22:13.48	32.54	32.71	-46.2	-49.6	15.0	0.00e+00	0	42	0	378535936	63	5476
2026-01-16 23:22:14.33	32.66	32.87	-46.1	-49.5	15.2	7.00e-07	0	42	0	379584512	63	5423
2026-01-16 23:22:15.58	32.82	33.12	-46.2	-49.6	15.1	0.00e+00	0	43	0	382730240	63	5466
2026-01-16 23:22:16.43	32.94	33.29	-46.0	-49.3	15.4	0.00e+00	0	42	0	383778816	63	5286
2026-01-16 23:22:17.57	33.10	33.51	-45.8	-49.0	15.6	0.00e+00	0	42	0	385875968	63	5152
2026-01-16 23:22:18.42	33.21	33.69	-45.8	-49.0	15.6	0.00e+00	0	42	0	387973120	63	5145
2026-01-16 23:22:19.56	33.37	33.92	-45.6	-48.7	15.9	0.00e+00	0	42	0	390070272	63	4962
2026-01-16 23:22:20.41	33.49	34.09	-45.6	-48.7	15.9	0.00e+00	0	43	0	391118848	63	4962
2026-01-16 23:22:21.54	33.66	34.32	-45.6	-48.7	16.0	0.00e+00	0	42	0	393216000	63	4955
2026-01-16 23:22:22.40	33.78	34.49	-45.6	-48.7	16.0	0.00e+00	0	42	0	395313152	63	4939
2026-01-16 23:22:23.53	33.95	34.73	-45.6	-48.7	16.0	0.00e+00	0	43	0	397410304	63	4945
2026-01-16 23:22:24.39	34.08	34.91	-45.6	-48.8	15.9	0.00e+00	0	43	0	398458880	63	4984
2026-01-16 23:22:25.53	34.25	35.14	-45.6	-48.7	15.9	0.00e+00	0	43	0	400556032	63	4981
2026-01-16 23:22:26.38	34.38	35.32	-45.8	-49.1	15.6	0.00e+00	0	42	0	402653184	63	5160
2026-01-16 23:22:27.51	34.55	35.56	-45.9	-49.2	15.5	0.00e+00	0	43	0	404750336	63	5226
2026-01-16 23:22:28.37	34.69	35.74	-45.9	-49.2	15.5	0.00e+00	0	43	0	405798912	63	5250
2026-01-16 23:22:29.50	34.87	35.98	-45.8	-49.1	15.5	0.00e+00	0	43	0	407896064	63	5178
2026-01-16 23:22:30.36	35.01	36.17	-45.8	-49.0	15.7	0.00e+00	0	43	0	409993216	63	5137
2026-01-16 23:22:31.49	35.19	36.41	-45.9	-49.2	15.5	0.00e+00	0	43	0	412090368	63	5250
2026-01-16 23:22:32.35	35.33	36.60	-45.7	-48.9	15.8	0.00e+00	0	42	0	414187520	63	5049
2026-01-16 23:22:33.48	35.52	36.84	-45.7	-48.8	15.9	0.00e+00	0	43	0	416284672	63	5006
2026-01-16 23:22:34.34	35.67	37.03	-45.7	-48.8	15.8	0.00e+00	0	42	0	417333248	63	5041
2026-01-16 23:22:35.48	35.86	37.28	-45.7	-48.8	15.9	0.00e+00	0	43	0	419430400	63	5021
2026-01-16 23:22:36.33	36.01	37.47	-45.8	-49.0	15.7	0.00e+00	0	43	0	421527552	63	5102
2026-01-16 23:22:37.47	36.21	37.73	-45.8	-48.9	15.8	0.00e+00	0	43	0	423624704	63	5100
2026-01-16 23:22:38.32	36.36	37.92	-45.8	-49.0	15.8	0.00e+00	0	43	0	424673280	63	5101
2026-01-16 23:22:39.45	36.57	38.17	-45.6	-48.7	15.9	0.00e+00	0	43	0	426770432	63	4977
2026-01-16 23:22:40.31	36.73	38.37	-45.6	-48.7	16.0	0.00e+00	0	43	0	428867584	63	4949
2026-01-16 23:22:41.44	36.94	38.62	-45.4	-48.3	16.3	0.00e+00	0	43	0	430964736	62	5033
2026-01-16 23:22:42.30	37.10	38.82	-45.4	-48.3	16.4	0.00e+00	0	43	0	432013312	62	5034
2026-01-16 23:22:43.44	37.32	39.08	-45.4	-48.3	16.3	0.00e+00	0	43	0	434110464	62	5031
2026-01-16 23:22:44.29	37.48	39.28	-45.4	-48.4	16.3	0.00e+00	0	43	0	436207616	62	5077
2026-01-16 23:22:45.43	37.70	39.54	-45.5	-48.5	16.2	0.00e+00	0	43	0	438304768	62	5119
2026-01-16 23:22:46.28	37.87	39.74	-45.4	-48.3	16.4	0.00e+00	0	43	0	439353344	62	5019
2026-01-16 23:22:47.42	38.10	40.01	-45.4	-48.4	16.3	0.00e+00	0	42	0	442499072	62	5056
2026-01-16 23:22:48.27	38.28	40.21	-45.3	-48.2	16.5	0.00e+00	0	42	0	443547648	62	4927
2026-01-16 23:22:49.41	38.51	40.48	-45.1	-47.9	16.8	0.00e+00	0	43	0	445644800	62	4774
2026-01-16 23:22:50.26	38.69	40.68	-44.9	-47.6	17.0	0.00e+00	0	42	0	447741952	61	4916
2026-01-16 23:22:51.39	38.94	40.95	-44.6	-47.3	17.4	0.00e+00	0	43	0	449839104	61	4717
2026-01-16 23:22:52.25	39.12	41.16	-44.6	-47.3	17.4	0.00e+00	0	42	0	450887680	61	4711
2026-01-16 23:22:53.48	39.39	41.46	-44.5	-47.1	17.5	0.00e+00	0	43	0	452984832	60	4926
2026-01-16 23:22:54.33	39.58	41.67	-44.4	-47.0	17.7	0.00e+00	0	42	0	455081984	60	4837
2026-01-16 23:22:55.47	39.84	41.94	-44.4	-47.0	17.7	0.00e+00	0	43	0	457179136	60	4833
2026-01-16 23:22:56.32	40.04	42.15	-44.5	-47.1	17.6	0.00e+00	0	43	0	458227712	60	4895
2026-01-16 23:22:57.58	40.33	42.46	-44.6	-47.2	17.5	0.00e+00	0	43	0	461373440	60	4953
2026-01-16 23:22:58.38	40.52	42.66	-44.7	-47.4	17.3	0.00e+00	0	42	0	462422016	60	5056
2026-01-16 23:22:59.52	40.80	42.95	-45.0	-47.8	16.9	0.00e+00	0	43	0	464519168	60	5297
2026-01-16 23:23:00.37	41.01	43.16	-44.9	-47.7	17.0	0.00e+00	0	42	0	466616320	60	5236
2026-01-16 23:23:01.51	41.29	43.44	-44.8	-47.5	17.1	0.00e+00	0	43	0	468713472	60	5143
2026-01-16 23:23:02.36	41.51	43.66	-44.7	-47.4	17.3	0.00e+00	0	42	0	469762048	60	5053
2026-01-16 23:23:03.50	41.80	43.95	-44.6	-47.3	17.4	0.00e+00	0	42	0	471859200	60	4986
2026-01-16 23:23:04.35	42.02	44.16	-44.6	-47.3	17.3	0.00e+00	0	42	0	473956352	60	5031
2026-01-16 23:23:05.49	42.32	44.45	-44.4	-47.1	17.6	0.00e+00	0	43	0	476053504	60	4877
2026-01-16 23:23:06.34	42.55	44.67	-44.7	-47.3	17.3	0.00e+00	0	42	0	477102080	60	5023
2026-01-16 23:23:07.48	42.86	44.96	-45.3	-48.1	16.5	0.00e+00	0	42	0	479199232	61	5218
2026-01-16 23:23:08.33	43.10	45.18	-45.4	-48.4	16.3	0.00e+00	0	43	0	481296384	61	5364
2026-01-16 23:23:09.47	43.42	45.48	-45.9	-49.0	15.7	0.00e+00	0	42	0	483393536	62	5444
2026-01-16 23:23:10.32	43.66	45.70	-45.8	-49.0	15.7	0.00e+00	0	43	0	485490688	62	5443
2026-01-16 23:23:11.46	44.00	46.00	-45.6	-48.7	16.0	0.00e+00	0	43	0	487587840	62	5240
2026-01-16 23:23:12.31	44.25	46.22	-45.5	-48.6	16.2	0.00e+00	0	43	0	488636416	62	5169
2026-01-16 23:23:13.45	44.59	46.52	-45.1	-48.0	16.7	0.00e+00	0	43	0	490733568	62	4823
2026-01-16 23:23:14.30	44.85	46.74	-45.1	-47.9	16.7	0.00e+00	0	42	0	492830720	62	4813
2026-01-16 23:23:15.48	45.22	47.06	-45.3	-48.3	16.4	0.00e+00	0	43	0	494927872	62	4995
2026-01-16 23:23:16.34	45.49	47.28	-45.5	-48.5	16.3	0.00e+00	0	43	0	495976448	62	5103
2026-01-16 23:23:17.47	45.86	47.58	-45.7	-48.8	15.9	0.00e+00	0	43	0	498073600	62	5334
2026-01-16 23:23:18.33	46.14	47.81	-45.9	-49.1	15.6	0.00e+00	0	42	0	500170752	62	5467
2026-01-16 23:23:19.59	46.56	48.15	-45.7	-48.7	16.0	0.00e+00	0	43	0	502267904	62	5276
2026-01-16 23:23:20.37	46.82	48.36	-45.6	-48.6	16.1	0.00e+00	0	43	0	503316480	62	5200
2026-01-16 23:23:21.65	47.26	48.70	-45.3	-48.2	16.5	0.00e+00	0	43	0	506462208	62	4967
2026-01-16 23:23:22.37	47.52	48.90	-45.2	-48.0	16.7	0.00e+00	0	43	0	507510784	62	4833
2026-01-16 23:23:23.65	47.97	49.24	-44.8	-47.5	17.2	0.00e+00	0	43	0	509607936	61	4816
2026-01-16 23:23:24.38	48.24	49.44	-44.7	-47.3	17.4	0.00e+00	0	43	0	511705088	61	4751
2026-01-16 23:23:25.65	48.71	49.78	-44.5	-47.1	17.5	0.00e+00	0	43	0	513802240	61	4637
2026-01-16 23:23:26.44	49.01	50.00	-44.4	-47.0	17.7	0.00e+00	0	43	0	514850816	60	4828
2026-01-16 23:23:27.63	49.47	50.32	-44.4	-46.9	17.7	0.00e+00	0	43	0	516947968	60	4814
2026-01-16 23:23:28.48	49.80	50.55	-44.0	-46.5	18.2	0.00e+00	0	43	0	519045120	60	4560
2026-01-16 23:23:29.62	50.25	50.86	-43.6	-45.9	18.6	0.00e+00	0	43	0	521142272	59	4537
2026-01-16 23:23:30.68	50.68	51.15	-43.0	-45.3	19.2	0.00e+00	0	42	0	523239424	58	4449
2026-01-16 23:23:31.73	51.11	51.43	-43.0	-45.2	19.3	0.00e+00	0	42	0	525336576	57	4675
2026-01-16 23:23:32.76	51.55	51.71	-42.9	-45.1	19.4	0.00e+00	0	43	0	527433728	57	4614
2026-01-16 23:23:33.86	52.02	52.01	-42.9	-45.1	19.4	0.00e+00	0	42	0	529530880	57	4645
2026-01-16 23:23:34.76	52.41	52.26	-42.9	-45.1	19.5	0.00e+00	0	43	0	530579456	57	4616
2026-01-16 23:23:36.04	52.99	52.60	-42.8	-45.0	19.5	0.00e+00	0	43	0	532676608	57	4582
2026-01-16 23:23:36.76	53.31	52.80	-42.7	-44.9	19.6	0.00e+00	0	42	0	534773760	57	4528
2026-01-16 23:23:38.05	53.91	53.15	-42.2	-44.3	20.1	0.00e+00	0	43	0	536870912	56	4489
2026-01-16 23:23:38.76	54.24	53.34	-41.8	-43.9	20.4	0.00e+00	0	43	0	537919488	55	4501
2026-01-16 23:23:40.03	54.85	53.68	-41.7	-43.7	20.5	0.00e+00	0	43	0	541065216	55	4422
2026-01-16 23:23:40.76	55.21	53.88	-41.9	-43.9	20.3	0.00e+00	0	43	0	542113792	55	4536
2026-01-16 23:23:42.04	55.85	54.22	-42.4	-44.5	19.8	0.00e+00	0	43	0	544210944	55	4858
2026-01-16 23:23:42.76	56.21	54.42	-42.8	-45.0	19.5	0.00e+00	0	43	0	546308096	56	4863
2026-01-16 23:23:44.04	56.87	54.76	-42.9	-45.1	19.4	0.00e+00	0	43	0	548405248	56	4924
2026-01-16 23:23:44.89	57.32	54.98	-42.9	-45.2	19.4	0.00e+00	0	43	0	549453824	56	4940
2026-01-16 23:23:46.03	57.94	55.28	-42.8	-45.0	19.5	0.00e+00	0	43	0	551550976	56	4866
2026-01-16 23:23:47.08	58.51	55.56	-43.0	-45.3	19.3	0.00e+00	0	42	0	553648128	56	4987
2026-01-16 23:23:48.18	59.13	55.85	-43.6	-46.0	18.6	0.00e+00	0	42	0	555745280	57	5104
2026-01-16 23:23:49.13	59.67	56.10	-44.1	-46.5	18.1	0.00e+00	0	43	0	557842432	58	5150
2026-01-16 23:23:50.12	60.24	56.35	-44.4	-47.0	17.6	0.00e+00	0	43	0	559939584	59	5139
2026-01-16 23:23:51.12	60.83	56.61	-44.3	-46.9	17.7	0.00e+00	0	42	0	560988160	59	5071
2026-01-16 23:23:52.11	61.43	56.87	-44.1	-46.7	18.0	0.00e+00	0	43	0	563085312	59	4941
2026-01-16 23:23:53.11	62.04	57.12	-44.2	-46.7	18.0	0.00e+00	0	43	0	565182464	59	4950
2026-01-16 23:23:54.10	62.66	57.37	-44.4	-46.9	17.7	0.00e+00	0	43	0	567279616	59	5075
2026-01-16 23:23:55.09	63.29	57.62	-44.7	-47.3	17.4	0.00e+00	0	43	0	569376768	60	5025
2026-01-16 23:23:56.09	63.94	57.86	-44.6	-47.3	17.4	0.00e+00	0	43	0	570425344	60	4984
2026-01-16 23:23:57.08	64.59	58.11	-44.3	-46.8	17.9	0.00e+00	0	43	0	572522496	60	4736
2026-01-16 23:23:58.08	65.26	58.35	-44.1	-46.7	18.1	0.00e+00	0	42	0	574619648	60	4653
2026-01-16 23:23:59.08	65.95	58.59	-43.9	-46.4	18.3	0.00e+00	0	43	0	576716800	59	4772
2026-01-16 23:24:00.07	66.64	58.82	-43.7	-46.1	18.5	0.00e+00	0	43	0	577765376	59	4630
2026-01-16 23:24:01.11	67.37	59.07	-43.5	-45.8	18.8	0.00e+00	0	42	0	579862528	58	4724
2026-01-16 23:24:02.13	68.11	59.30	-43.5	-45.9	18.8	0.00e+00	0	42	0	581959680	58	4763
2026-01-16 23:24:03.16	68.87	59.54	-43.4	-45.7	18.8	0.00e+00	0	43	0	584056832	58	4688
2026-01-16 23:24:04.15	69.61	59.76	-42.9	-45.2	19.4	0.00e+00	0	43	0	586153984	57	4652
2026-01-16 23:24:05.21	70.41	59.99	-42.7	-44.9	19.6	0.00e+00	0	43	0	588251136	57	4533
2026-01-16 23:24:06.14	71.13	60.20	-42.9	-45.1	19.4	0.00e+00	0	42	0	589299712	57	4616
2026-01-16 23:24:07.26	72.01	60.43	-43.3	-45.6	19.0	0.00e+00	0	43	0	591396864	57	4903
2026-01-16 23:24:08.12	72.70	60.61	-43.1	-45.3	19.2	0.00e+00	0	43	0	593494016	57	4757
2026-01-16 23:24:09.25	73.62	60.84	-42.8	-45.0	19.6	0.00e+00	0	43	0	595591168	57	4555
2026-01-16 23:24:10.10	74.32	61.01	-42.9	-45.1	19.4	0.00e+00	0	43	0	596639744	57	4638
2026-01-16 23:24:11.24	75.28	61.24	-43.4	-45.7	18.9	0.00e+00	0	42	0	598736896	57	4933
2026-01-16 23:24:12.09	76.00	61.40	-43.3	-45.6	19.0	0.00e+00	0	43	0	600834048	57	4912
2026-01-16 23:24:13.23	76.99	61.61	-43.0	-45.2	19.3	0.00e+00	0	43	0	602931200	57	4696
2026-01-16 23:24:14.08	77.74	61.76	-42.4	-44.5	19.9	0.00e+00	0	43	0	603979776	56	4580
2026-01-16 23:24:15.22	78.75	61.96	-42.2	-44.3	20.1	0.00e+00	0	43	0	607125504	56	4481
2026-01-16 23:24:16.07	79.52	62.11	-42.4	-44.6	19.9	0.00e+00	0	43	0	608174080	56	4629
2026-01-16 23:24:17.21	80.56	62.29	-42.8	-45.0	19.5	0.00e+00	0	43	0	610271232	56	4869
2026-01-16 23:24:18.07	81.36	62.43	-42.6	-44.8	19.7	0.00e+00	0	43	0	612368384	56	4743
2026-01-16 23:24:19.20	82.42	62.60	-42.1	-44.3	20.2	0.00e+00	0	43	0	614465536	56	4455
2026-01-16 23:24:20.06	83.24	62.73	-42.2	-44.3	20.2	0.00e+00	0	42	0	615514112	56	4484
2026-01-16 23:24:21.19	84.33	62.88	-42.2	-44.3	20.1	0.00e+00	0	43	0	617611264	56	4477
2026-01-16 23:24:22.06	85.17	63.00	-42.6	-44.9	19.6	0.00e+00	0	43	0	619708416	56	4781
2026-01-16 23:24:23.38	86.47	63.17	-43.1	-45.4	19.2	0.00e+00	0	42	0	621805568	56	5070
2026-01-16 23:24:24.09	87.18	63.25	-42.8	-45.0	19.5	0.00e+00	0	43	0	622854144	56	4839
2026-01-16 23:24:25.37	88.47	63.39	-42.4	-44.6	19.9	0.00e+00	0	42	0	625999872	56	4607
2026-01-16 23:24:26.08	89.19	63.47	-42.6	-44.9	19.7	0.00e+00	0	42	0	627048448	56	4767
2026-01-16 23:24:27.36	90.50	63.59	-43.2	-45.5	19.1	0.00e+00	0	43	0	629145600	57	4855
2026-01-16 23:24:28.07	91.23	63.66	-43.3	-45.7	18.9	0.00e+00	0	43	0	631242752	57	4938
2026-01-16 23:24:29.69	92.91	63.79	-43.5	-45.9	18.7	0.00e+00	0	43	0	633339904	57	5062
2026-01-16 23:24:30.26	93.51	63.83	-43.4	-45.8	18.8	0.00e+00	0	43	0	634388480	57	5025
2026-01-16 23:24:31.97	95.31	63.94	-43.6	-46.0	18.7	0.00e+00	0	42	0	638582784	57	5119
2026-01-16 23:24:32.54	95.92	63.97	-43.7	-46.1	18.5	0.00e+00	0	43	0	638582784	58	4895
2026-01-16 23:24:34.24	97.73	64.05	-43.4	-45.8	18.8	0.00e+00	0	43	0	642777088	58	4732
2026-01-16 23:24:34.81	98.34	64.08	-43.3	-45.7	19.0	0.00e+00	0	42	0	643825664	58	4652
2026-01-16 23:24:36.52	100.18	64.12	-42.9	-45.2	19.4	0.00e+00	0	43	0	646971392	57	4666
2026-01-16 23:24:37.09	100.79	64.14	-42.4	-44.5	20.0	0.00e+00	0	43	0	648019968	56	4575
2026-01-16 23:24:38.87	102.71	64.15	-42.3	-44.4	20.2	0.00e+00	0	43	0	651165696	56	4521
2026-01-16 23:24:39.44	103.33	64.15	-42.2	-44.4	20.2	0.00e+00	0	42	0	652214272	56	4499
2026-01-16 23:24:41.15	105.17	64.14	-42.3	-44.5	20.1	0.00e+00	0	43	0	655360000	56	4559
2026-01-16 23:24:41.71	105.77	64.13	-42.1	-44.2	20.3	0.00e+00	0	43	0	656408576	56	4398
2026-01-16 23:24:43.53	107.73	64.08	-41.6	-43.6	20.7	0.00e+00	0	43	0	659554304	55	4369
2026-01-16 23:24:44.10	108.34	64.06	-41.7	-43.7	20.6	0.00e+00	0	43	0	660602880	55	4412
2026-01-16 23:24:45.80	110.15	63.98	-42.2	-44.3	20.1	0.00e+00	0	42	0	663748608	55	4740
2026-01-16 23:24:46.48	110.88	63.94	-41.9	-43.9	20.4	0.00e+00	0	42	0	664797184	55	4538
2026-01-16 23:24:47.90	112.37	63.85	-41.5	-43.5	20.8	0.00e+00	0	43	0	667942912	55	4335
2026-01-16 23:24:48.66	113.17	63.80	-41.8	-43.9	20.4	0.00e+00	0	42	0	668991488	55	4510
2026-01-16 23:24:49.94	114.51	63.69	-42.5	-44.7	19.7	0.00e+00	0	43	0	672137216	55	4959
2026-01-16 23:24:50.67	115.26	63.63	-42.8	-45.1	19.4	0.00e+00	0	43	0	673185792	56	4889
2026-01-16 23:24:51.95	116.58	63.51	-42.5	-44.7	19.9	0.00e+00	0	42	0	675282944	56	4683
2026-01-16 23:24:52.68	117.32	63.43	-42.3	-44.4	20.1	0.00e+00	0	42	0	677380096	56	4508
2026-01-16 23:24:53.96	118.61	63.29	-42.4	-44.5	20.0	0.00e+00	0	42	0	679477248	56	4598
2026-01-16 23:24:54.70	119.35	63.21	-42.5	-44.6	19.9	0.00e+00	0	42	0	680525824	56	4645
2026-01-16 23:24:55.98	120.62	63.05	-42.1	-44.2	20.3	0.00e+00	0	43	0	682622976	56	4417
2026-01-16 23:24:56.69	121.31	62.96	-41.8	-43.9	20.5	0.00e+00	0	43	0	684720128	55	4506
2026-01-16 23:24:57.97	122.55	62.78	-42.3	-44.5	19.9	0.00e+00	0	43	0	686817280	55	4822
2026-01-16 23:24:58.69	123.24	62.68	-42.2	-44.4	20.0	0.00e+00	0	43	0	687865856	55	4762
2026-01-16 23:25:00.14	124.61	62.46	-41.3	-43.3	21.0	0.00e+00	0	43	0	691011584	54	4482
2026-01-16 23:25:01.11	125.51	62.31	-41.4	-43.4	20.9	0.00e+00	0	42	0	693108736	54	4515
2026-01-16 23:25:02.45	126.74	62.09	-41.8	-43.9	20.4	0.00e+00	0	43	0	695205888	54	4774
2026-01-16 23:25:03.16	127.38	61.97	-41.5	-43.5	20.8	0.00e+00	0	43	0	696254464	54	4592
2026-01-16 23:25:04.44	128.52	61.74	-41.8	-43.9	20.5	0.00e+00	0	43	0	699400192	54	4772
2026-01-16 23:25:05.15	129.15	61.62	-41.7	-43.8	20.5	0.00e+00	0	43	0	700448768	54	4726
2026-01-16 23:25:06.43	130.26	61.38	-41.2	-43.2	21.0	0.00e+00	0	43	0	702545920	54	4418
2026-01-16 23:25:07.14	130.86	61.24	-41.4	-43.4	20.9	0.00e+00	0	43	0	703594496	54	4516
2026-01-16 23:25:08.42	131.94	60.99	-42.1	-44.2	20.1	0.00e+00	0	43	0	706740224	54	4963
2026-01-16 23:25:09.13	132.52	60.85	-42.0	-44.1	20.3	0.00e+00	0	43	0	707788800	54	4875
2026-01-16 23:25:10.41	133.57	60.59	-41.9	-43.9	20.4	0.00e+00	0	43	0	709885952	54	4807
2026-01-16 23:25:11.12	134.13	60.44	-42.0	-44.1	20.3	0.00e+00	0	42	0	711983104	54	4910
2026-01-16 23:25:12.40	135.14	60.17	-42.5	-44.7	19.7	0.00e+00	0	42	0	714080256	55	4927
2026-01-16 23:25:13.14	135.72	60.00	-42.6	-44.8	19.6	0.00e+00	0	43	0	715128832	55	5011
2026-01-16 23:25:14.42	136.69	59.72	-43.6	-46.0	18.6	0.00e+00	0	42	0	717225984	57	5122
2026-01-16 23:25:15.14	137.23	59.56	-43.8	-46.2	18.5	0.00e+00	0	43	0	719323136	58	4973
2026-01-16 23:25:16.42	138.17	59.27	-43.8	-46.3	18.4	0.00e+00	0	43	0	721420288	58	4995
2026-01-16 23:25:17.15	138.70	59.10	-43.8	-46.2	18.4	0.00e+00	0	43	0	722468864	58	4973
2026-01-16 23:25:18.43	139.61	58.80	-43.8	-46.3	18.4	0.00e+00	0	43	0	725614592	58	4986
2026-01-16 23:25:19.15	140.11	58.63	-44.0	-46.4	18.3	0.00e+00	0	43	0	726663168	58	5097
2026-01-16 23:25:20.43	140.99	58.32	-44.0	-46.5	18.2	0.00e+00	0	43	0	728760320	58	5101
2026-01-16 23:25:21.14	141.47	58.15	-44.0	-46.5	18.2	0.00e+00	0	43	0	729808896	58	5120
2026-01-16 23:25:22.42	142.31	57.83	-43.1	-45.3	19.3	0.00e+00	0	43	0	732954624	58	4488
2026-01-16 23:25:23.13	142.77	57.65	-42.7	-44.9	19.7	0.00e+00	0	43	0	734003200	57	4531
2026-01-16 23:25:24.41	143.59	57.33	-42.7	-44.9	19.7	0.00e+00	0	43	0	736100352	57	4500
2026-01-16 23:25:25.13	144.04	57.15	-42.4	-44.5	20.0	0.00e+00	0	43	0	738197504	56	4590
2026-01-16 23:25:26.42	144.83	56.82	-41.2	-43.2	21.1	0.00e+00	0	43	0	740294656	54	4396
2026-01-16 23:25:27.16	145.28	56.63	-40.9	-42.9	21.3	0.00e+00	0	43	0	741343232	53	4521
2026-01-16 23:25:28.43	146.03	56.31	-41.1	-43.1	21.2	0.00e+00	0	42	0	743440384	53	4607
2026-01-16 23:25:29.25	146.51	56.09	-40.8	-42.7	21.4	0.00e+00	0	43	0	745537536	53	4429
2026-01-16 23:25:30.39	147.16	55.79	-40.6	-42.5	21.6	0.00e+00	0	43	0	747634688	53	4329
2026-01-16 23:25:31.24	147.64	55.57	-40.4	-42.3	21.8	0.00e+00	0	43	0	748683264	52	4483
2026-01-16 23:25:32.38	148.26	55.27	-40.7	-42.6	21.6	0.00e+00	0	43	0	751828992	52	4631
2026-01-16 23:25:33.24	148.73	55.04	-40.3	-42.2	22.0	0.00e+00	0	43	0	752877568	52	4405
2026-01-16 23:25:34.37	149.32	54.74	-40.1	-41.9	22.2	0.00e+00	0	43	0	754974720	51	4540
2026-01-16 23:25:35.22	149.77	54.51	-40.6	-42.5	21.7	0.00e+00	0	43	0	757071872	51	4853
2026-01-16 23:25:36.39	150.36	54.20	-40.9	-42.9	21.4	0.00e+00	0	43	0	759169024	52	4766
2026-01-16 23:25:37.25	150.79	53.96	-40.5	-42.5	21.7	0.00e+00	0	43	0	760217600	52	4547
2026-01-16 23:25:38.45	151.38	53.64	-40.6	-42.6	21.6	0.00e+00	0	43	0	762314752	52	4608
2026-01-16 23:25:39.30	151.79	53.41	-41.1	-43.1	21.2	0.00e+00	0	43	0	764411904	52	4888
2026-01-16 23:25:40.50	152.36	53.08	-41.3	-43.3	20.6	0.00e+00	0	43	0	766509056	53	4706
2026-01-16 23:25:41.35	152.75	52.85	-41.2	-43.2	21.1	0.00e+00	0	43	0	768606208	53	4657
2026-01-16 23:25:42.55	153.30	52.53	-41.8	-43.9	20.5	0.00e+00	0	43	0	770703360	54	4770
2026-01-16 23:25:43.40	153.68	52.30	-42.3	-44.5	19.9	0.00e+00	0	43	0	771751936	55	4830
2026-01-16 23:25:44.60	154.21	51.97	-43.3	-45.6	19.0	0.00e+00	0	43	0	773849088	57	4893
2026-01-16 23:25:45.46	154.58	51.73	-43.5	-45.8	18.8	0.00e+00	0	43	0	775946240	57	5010
2026-01-16 23:25:46.66	155.08	51.41	-43.7	-46.1	18.6	0.00e+00	0	43	0	778043392	58	4925
2026-01-16 23:25:47.51	155.44	51.17	-44.1	-46.6	18.1	0.00e+00	0	43	0	780140544	58	5166
2026-01-16 23:25:48.65	155.90	50.86	-44.5	-47.1	17.6	0.00e+00	0	42	0	782237696	59	5176
2026-01-16 23:25:49.50	156.24	50.63	-44.7	-47.3	17.4	0.00e+00	0	43	0	783286272	59	5315
2026-01-16 23:25:50.64	156.69	50.32	-45.3	-48.2	16.5	0.00e+00	0	43	0	785383424	61	5276
2026-01-16 23:25:51.49	157.02	50.09	-46.0	-49.2	15.6	0.00e+00	0	43	0	787480576	62	5576
2026-01-16 23:25:52.63	157.45	49.78	-46.1	-49.4	15.3	0.00e+00	0	43	0	789577728	63	5385
2026-01-16 23:25:53.48	157.77	49.55	-45.8	-48.9	15.9	0.00e+00	0	43	0	790626304	63	5055
2026-01-16 23:25:54.62	158.19	49.24	-45.9	-49.0	15.8	0.00e+00	0	43	0	792723456	63	5130
2026-01-16 23:25:55.58	158.53	48.98	-46.6	-50.1	14.8	0.00e+00	0	43	0	794820608	63	5809
2026-01-16 23:25:56.73	158.94	48.67	-47.2	-51.1	13.6	5.30e-06	0	43	0	796917760	64	6167
2026-01-16 23:25:57.60	159.24	48.43	-46.7	-50.3	14.3	5.30e-06	0	43	0	799014912	65	5301
2026-01-16 23:25:58.91	159.69	48.08	-46.2	-49.5	15.2	0.00e+00	0	43	0	801112064	64	5121
2026-01-16 23:25:59.62	159.92	47.89	-46.5	-50.0	14.6	0.00e+00	0	42	0	802160640	64	5434
2026-01-16 23:26:00.91	160.35	47.55	-47.0	-50.8	13.9	7.00e-07	0	43	0	805306368	64	5938
2026-01-16 23:26:01.62	160.58	47.36	-46.6	-50.1	14.5	4.50e-06	0	43	0	806354944	64	5496
2026-01-16 23:26:02.90	160.99	47.01	-45.9	-49.0	15.7	0.00e+00	0	42	0	808452096	63	5135
2026-01-16 23:26:03.61	161.21	46.83	-45.5	-48.4	16.4	0.00e+00	0	43	0	809500672	63	4760
2026-01-16 23:26:05.19	161.69	46.41	-45.9	-49.0	15.8	0.00e+00	0	43	0	812646400	62	5449
2026-01-16 23:26:05.84	161.89	46.24	-46.5	-49.9	14.9	0.00e+00	0	43	0	813694976	63	5679
2026-01-16 23:26:07.26	162.31	45.86	-46.6	-50.2	14.6	1.50e-06	0	42	0	816840704	64	5550
2026-01-16 23:26:07.97	162.52	45.68	-45.9	-49.1	15.7	0.00e+00	0	43	0	817889280	63	5164
2026-01-16 23:26:09.25	162.88	45.34	-44.1	-46.6	18.0	0.00e+00	0	43	0	819986432	60	4650
2026-01-16 23:26:09.98	163.09	45.15	-43.3	-45.6	18.9	0.00e+00	0	43	0	822083584	58	4629
2026-01-16 23:26:11.26	163.45	44.82	-42.6	-44.7	19.8	0.00e+00	0	42	0	824180736	57	4435
2026-01-16 23:26:11.98	163.64	44.64	-42.4	-44.5	19.9	0.00e+00	0	43	0	825229312	56	4595
2026-01-16 23:26:13.26	163.99	44.31	-42.4	-44.6	19.9	0.00e+00	0	43	0	828375040	56	4603
2026-01-16 23:26:13.97	164.17	44.12	-42.9	-45.1	19.5	0.00e+00	0	43	0	829423616	56	4893
2026-01-16 23:26:15.25	164.51	43.80	-44.3	-46.8	17.9	0.00e+00	0	43	0	831520768	59	5018
2026-01-16 23:26:15.96	164.69	43.62	-44.8	-47.5	17.2	0.00e+00	0	42	0	832569344	60	5136
2026-01-16 23:26:17.24	165.01	43.29	-44.0	-46.5	18.1	0.00e+00	0	43	0	835715072	60	4588
2026-01-16 23:26:18.06	165.22	43.09	-42.8	-45.1	19.4	0.00e+00	0	43	0	836763648	57	4613
2026-01-16 23:26:19.20	165.49	42.80	-41.6	-43.6	20.6	0.00e+00	0	43	0	838860800	55	4375
2026-01-16 23:26:20.27	165.75	42.53	-41.2	-43.2	21.0	0.00e+00	0	43	0	840957952	54	4411
2026-01-16 23:26:21.32	166.00	42.27	-41.4	-43.3	20.9	0.00e+00	0	43	0	843055104	54	4485
2026-01-16 23:26:22.26	166.22	42.04	-42.3	-44.4	20.0	0.00e+00	0	43	0	845152256	55	4775
2026-01-16 23:26:23.26	166.45	41.79	-43.9	-46.3	18.4	0.00e+00	0	43	0	847249408	58	5030
2026-01-16 23:26:24.25	166.67	41.55	-44.6	-47.2	17.4	0.00e+00	0	43	0	848297984	59	5274
2026-01-16 23:26:25.25	166.90	41.31	-44.3	-46.9	17.7	0.00e+00	0	43	0	850395136	59	5069
2026-01-16 23:26:26.24	167.11	41.07	-43.5	-45.9	18.7	0.00e+00	0	43	0	852492288	59	4513
2026-01-16 23:26:27.24	167.33	40.83	-43.1	-45.3	19.2	0.00e+00	0	43	0	854589440	58	4481
2026-01-16 23:26:28.23	167.54	40.59	-43.0	-45.2	19.3	0.00e+00	0	43	0	855638016	57	4686
2026-01-16 23:26:29.23	167.75	40.35	-42.7	-44.8	19.6	0.00e+00	0	43	0	857735168	57	4489
2026-01-16 23:26:30.22	167.96	40.11	-43.3	-45.6	18.9	0.00e+00	0	43	0	859832320	57	4917
2026-01-16 23:26:31.22	168.16	39.88	-43.9	-46.4	18.3	0.00e+00	0	43	0	861929472	58	5069
2026-01-16 23:26:32.28	168.37	39.63	-44.4	-47.0	17.7	0.00e+00	0	43	0	864026624	59	5104
2026-01-16 23:26:33.14	168.55	39.42	-44.8	-47.7	17.1	0.00e+00	0	43	0	865075200	60	5229
2026-01-16 23:26:34.47	168.81	39.11	-44.8	-47.7	17.1	0.00e+00	0	43	0	868220928	60	5225
2026-01-16 23:26:35.18	168.94	38.95	-44.5	-47.1	17.6	0.00e+00	0	42	0	869269504	60	4893
2026-01-16 23:26:36.46	169.19	38.65	-44.1	-46.6	18.1	0.00e+00	0	43	0	871366656	60	4633
2026-01-16 23:26:37.17	169.32	38.49	-44.1	-46.6	18.0	0.00e+00	0	43	0	872415232	59	4885
2026-01-16 23:26:38.45	169.56	38.20	-43.0	-45.2	19.3	0.00e+00	0	43	0	875560960	58	4411
2026-01-16 23:26:39.18	169.69	38.03	-42.5	-44.7	19.8	0.00e+00	0	43	0	876609536	57	4401
2026-01-16 23:26:40.46	169.92	37.74	-42.6	-44.8	19.7	0.00e+00	0	43	0	878706688	56	4729
2026-01-16 23:26:41.18	170.05	37.58	-42.7	-44.9	19.6	0.00e+00	0	43	0	880803840	56	4797
2026-01-16 23:26:42.83	170.34	37.21	-43.6	-46.0	18.5	0.00e+00	0	42	0	882900992	57	5140
2026-01-16 23:26:43.40	170.44	37.09	-44.1	-46.6	18.0	0.00e+00	0	43	0	883949568	58	5189
2026-01-16 23:26:45.10	170.72	36.71	-44.7	-47.4	17.3	0.00e+00	0	43	0	888143872	60	5090
2026-01-16 23:26:45.67	170.82	36.59	-44.5	-47.2	17.5	0.00e+00	0	43	0	889192448	60	4943
2026-01-16 23:26:47.37	171.10	36.22	-43.7	-46.1	18.4	0.00e+00	0	43	0	892338176	59	4617
2026-01-16 23:26:47.94	171.19	36.09	-43.5	-45.9	18.7	0.00e+00	0	43	0	893386752	59	4495
2026-01-16 23:26:49.65	171.47	35.73	-42.9	-45.2	19.3	0.00e+00	0	43	0	896532480	57	4664
2026-01-16 23:26:50.21	171.55	35.61	-42.7	-44.9	19.6	0.00e+00	0	43	0	897581056	57	4526
2026-01-16 23:26:51.92	171.82	35.24	-42.7	-44.9	19.5	0.00e+00	0	43	0	900726784	57	4535
2026-01-16 23:26:52.48	171.91	35.13	-42.8	-45.0	19.5	0.00e+00	0	43	0	901775360	57	4572
2026-01-16 23:26:54.19	172.16	34.77	-43.0	-45.2	19.3	0.00e+00	0	43	0	904921088	57	4691
2026-01-16 23:26:54.76	172.25	34.65	-43.1	-45.3	19.1	0.00e+00	0	43	0	905969664	57	4755
2026-01-16 23:26:56.62	172.52	34.26	-43.6	-46.0	18.5	0.00e+00	0	43	0	909115392	57	5129
2026-01-16 23:26:57.51	172.65	34.08	-44.0	-46.5	18.1	0.00e+00	0	43	0	911212544	58	5115
2026-01-16 23:26:58.64	172.81	33.85	-44.4	-47.0	17.6	0.00e+00	0	43	0	913309696	59	5130
2026-01-16 23:26:59.83	172.98	33.61	-44.6	-47.3	17.4	0.00e+00	0	43	0	915406848	59	5284
2026-01-16 23:27:00.68	173.10	33.44	-44.8	-47.5	17.2	0.00e+00	0	43	0	916455424	60	5135
2026-01-16 23:27:01.82	173.25	33.21	-44.8	-47.6	17.1	0.00e+00	0	43	0	918552576	60	5170
2026-01-16 23:27:02.67	173.37	33.04	-44.9	-47.6	17.1	0.00e+00	0	43	0	920649728	60	5210
2026-01-16 23:27:03.80	173.52	32.82	-44.7	-47.4	17.3	0.00e+00	0	43	0	922746880	60	5063
2026-01-16 23:27:04.66	173.63	32.65	-44.6	-47.3	17.3	0.00e+00	0	43	0	924844032	60	5021
2026-01-16 23:27:05.79	173.78	32.43	-44.4	-47.1	17.6	0.00e+00	0	43	0	926941184	60	4876
2026-01-16 23:27:06.65	173.89	32.26	-44.4	-47.1	17.6	0.00e+00	0	43	0	927989760	60	4883
2026-01-16 23:27:07.79	174.04	32.04	-44.4	-47.0	17.7	0.00e+00	0	42	0	930086912	60	4831
2026-01-16 23:27:08.64	174.14	31.87	-44.2	-46.7	17.9	0.00e+00	0	43	0	932184064	60	4700
2026-01-16 23:27:09.78	174.29	31.65	-44.3	-46.9	17.8	0.00e+00	0	43	0	934281216	60	4774
2026-01-16 23:27:10.63	174.39	31.49	-44.3	-46.9	17.7	0.00e+00	0	43	0	935329792	60	4813
2026-01-16 23:27:11.77	174.53	31.28	-44.3	-46.8	17.8	0.00e+00	0	43	0	937426944	60	4744
2026-01-16 23:27:12.62	174.63	31.12	-44.4	-47.0	17.6	0.00e+00	0	43	0	939524096	60	4851
2026-01-16 23:27:13.76	174.77	30.90	-44.5	-47.2	17.5	0.00e+00	0	43	0	941621248	60	4930
2026-01-16 23:27:14.61	174.87	30.75	-44.6	-47.3	17.3	0.00e+00	0	43	0	942669824	60	5031
2026-01-16 23:27:15.75	175.00	30.53	-44.8	-47.6	17.1	0.00e+00	0	43	0	944766976	60	5196
2026-01-16 23:27:16.60	175.10	30.38	-44.9	-47.8	16.9	0.00e+00	0	43	0	946864128	60	5294
2026-01-16 23:27:17.74	175.23	30.17	-44.9	-47.7	17.0	0.00e+00	0	43	0	948961280	60	5240
2026-01-16 23:27:18.59	175.33	30.01	-44.9	-47.7	16.9	0.00e+00	0	43	0	950009856	60	5255
2026-01-16 23:27:19.73	175.46	29.81	-44.8	-47.6	17.0	0.00e+00	0	43	0	952107008	60	5210
2026-01-16 23:27:20.58	175.55	29.66	-44.8	-47.5	17.1	0.00e+00	0	43	0	954204160	60	5143
2026-01-16 23:27:21.72	175.67	29.45	-44.5	-47.1	17.5	0.00e+00	0	43	0	956301312	60	4912
2026-01-16 23:27:22.57	175.77	29.30	-44.3	-46.9	17.8	0.00e+00	0	43	0	958398464	60	4763
2026-01-16 23:27:23.71	175.89	29.10	-43.9	-46.3	18.2	0.00e+00	0	43	0	960495616	59	4744
2026-01-16 23:27:24.56	175.98	28.95	-43.8	-46.3	18.2	0.00e+00	0	43	0	961544192	59	4717
2026-01-16 23:27:25.70	176.10	28.75	-43.5	-45.9	18.6	0.00e+00	0	43	0	963641344	59	4500
2026-01-16 23:27:26.60	176.19	28.59	-43.5	-45.8	18.7	0.00e+00	0	43	0	965738496	58	4732
2026-01-16 23:27:27.80	176.31	28.39	-43.5	-45.8	18.7	0.00e+00	0	43	0	967835648	58	4721
2026-01-16 23:27:28.65	176.40	28.24	-43.3	-45.6	18.9	0.00e+00	0	43	0	968884224	58	4624
2026-01-16 23:27:29.96	176.53	28.02	-43.3	-45.6	19.0	0.00e+00	0	43	0	972029952	58	4601
2026-01-16 23:27:30.67	176.60	27.90	-43.3	-45.6	18.8	0.00e+00	0	43	0	973078528	58	4645
2026-01-16 23:27:31.95	176.73	27.68	-43.4	-45.8	18.7	0.00e+00	0	43	0	975175680	58	4712
2026-01-16 23:27:32.66	176.80	27.56	-43.5	-45.8	18.7	0.00e+00	0	43	0	977272832	58	4744
2026-01-16 23:27:34.21	176.95	27.30	-43.7	-46.1	18.4	0.00e+00	0	43	0	979369984	58	4923
2026-01-16 23:27:34.92	177.02	27.18	-43.8	-46.2	18.3	0.00e+00	0	43	0	981467136	58	4961
2026-01-16 23:27:36.27	177.14	26.96	-43.9	-46.4	18.1	0.00e+00	0	43	0	983564288	58	5084
2026-01-16 23:27:37.24	177.23	26.80	-44.0	-46.5	18.0	0.00e+00	0	43	0	985661440	58	5124
2026-01-16 23:27:38.55	177.35	26.59	-44.0	-46.5	18.0	0.00e+00	0	43	0	987758592	58	5124
2026-01-16 23:27:39.27	177.42	26.47	-44.0	-46.5	18.0	0.00e+00	0	43	0	988807168	58	5159
2026-01-16 23:27:40.55	177.54	26.27	-43.9	-46.4	18.1	0.00e+00	0	43	0	991952896	58	5059
2026-01-16 23:27:41.27	177.60	26.15	-43.8	-46.3	18.2	0.00e+00	0	43	0	993001472	58	5010
2026-01-16 23:27:42.55	177.71	25.95	-43.5	-45.9	18.6	0.00e+00	0	43	0	995098624	58	4783
2026-01-16 23:27:43.28	177.78	25.83	-43.3	-45.7	18.8	0.00e+00	0	43	0	997195776	58	4678
2026-01-16 23:27:44.56	177.89	25.63	-43.3	-45.6	18.9	0.00e+00	0	43	0	999292928	58	4621
2026-01-16 23:27:45.28	177.95	25.52	-43.3	-45.6	18.8	0.00e+00	0	43	0	1000341504	58	4640
2026-01-16 23:27:46.56	178.06	25.32	-43.0	-45.2	19.2	0.00e+00	0	43	0	1002438656	57	4689
2026-01-16 23:27:47.27	178.12	25.21	-42.8	-45.1	19.3	0.00e+00	0	43	0	1004535808	57	4626
2026-01-16 23:27:48.61	178.23	25.00	-42.7	-44.9	19.5	0.00e+00	0	43	0	1006632960	57	4522
2026-01-16 23:27:49.33	178.29	24.89	-42.7	-45.0	19.5	0.00e+00	0	43	0	1007681536	57	4556
2026-01-16 23:27:50.61	178.40	24.70	-42.7	-45.0	19.4	0.00e+00	0	43	0	1010827264	57	4558
2026-01-16 23:27:51.32	178.45	24.59	-42.8	-45.1	19.4	0.00e+00	0	43	0	1011875840	57	4610
2026-01-16 23:27:52.74	178.57	24.38	-42.8	-45.1	19.3	0.00e+00	0	43	0	1013972992	57	4624
2026-01-16 23:27:53.45	178.63	24.27	-42.9	-45.1	19.3	0.00e+00	0	43	0	1016070144	57	4635
2026-01-16 23:27:54.73	178.73	24.08	-43.0	-45.3	19.1	0.00e+00	0	43	0	1018167296	57	4746
2026-01-16 23:27:55.45	178.78	23.97	-42.9	-45.2	19.2	0.00e+00	0	43	0	1019215872	57	4694
2026-01-16 23:27:56.73	178.88	23.78	-43.0	-45.3	19.1	0.00e+00	0	43	0	1022361600	57	4758
2026-01-16 23:27:57.45	178.94	23.68	-43.0	-45.3	19.2	0.00e+00	0	43	0	1023410176	57	4719
2026-01-16 23:27:58.72	179.03	23.49	-42.9	-45.2	19.3	0.00e+00	0	43	0	1025507328	57	4666
2026-01-16 23:27:59.43	179.09	23.39	-42.9	-45.2	19.3	0.00e+00	0	43	0	1026555904	57	4660
2026-01-16 23:28:00.71	179.18	23.21	-42.8	-45.1	19.3	0.00e+00	0	43	0	1029701632	57	4628
2026-01-16 23:28:01.42	179.24	23.10	-42.9	-45.2	19.2	0.00e+00	0	43	0	1030750208	57	4665
2026-01-16 23:28:02.70	179.33	22.92	-42.7	-45.0	19.4	0.00e+00	0	43	0	1032847360	57	4549
2026-01-16 23:28:03.46	179.39	22.81	-42.7	-45.0	19.5	0.00e+00	0	43	0	1034944512	57	4549
2026-01-16 23:28:04.74	179.48	22.63	-42.6	-44.9	19.5	0.00e+00	0	43	0	1037041664	57	4525
2026-01-16 23:28:05.55	179.54	22.52	-42.6	-44.8	19.5	0.00e+00	0	43	0	1038090240	57	4485
2026-01-16 23:28:06.68	179.62	22.36	-42.6	-44.9	19.5	0.00e+00	0	43	0	1040187392	57	4517
2026-01-16 23:28:07.69	179.69	22.22	-42.6	-44.8	19.5	0.00e+00	0	43	0	1042284544	57	4485
2026-01-16 23:28:08.86	179.77	22.06	-42.6	-44.8	19.6	0.00e+00	0	43	0	1044381696	57	4491
2026-01-16 23:28:09.73	179.83	21.94	-42.6	-44.9	19.5	0.00e+00	0	43	0	1046478848	57	4516
2026-01-16 23:28:10.87	179.91	21.78	-42.6	-44.9	19.5	0.00e+00	0	43	0	1048576000	57	4503
2026-01-16 23:28:11.77	179.97	21.66	-42.6	-44.8	19.5	0.00e+00	0	43	0	1050673152	57	4476
2026-01-16 23:28:13.05	180.06	21.49	-42.6	-44.8	19.5	0.00e+00	0	43	0	1052770304	57	4492
2026-01-16 23:28:13.79	180.11	21.39	-42.6	-44.8	19.5	0.00e+00	0	43	0	1053818880	57	4478
2026-01-16 23:28:15.07	180.19	21.21	-42.6	-44.9	19.5	0.00e+00	0	43	0	1055916032	57	4529
2026-01-16 23:28:15.78	180.24	21.12	-42.6	-44.9	19.5	0.00e+00	0	43	0	1058013184	57	4507
2026-01-16 23:28:17.06	180.32	20.95	-42.7	-44.9	19.4	0.00e+00	0	43	0	1060110336	57	4532
2026-01-16 23:28:17.77	180.37	20.86	-42.7	-45.0	19.4	0.00e+00	0	43	0	1061158912	57	4572
2026-01-16 23:28:19.05	180.45	20.69	-42.7	-45.0	19.4	0.00e+00	0	43	0	1063256064	57	4574
2026-01-16 23:28:19.90	180.50	20.58	-42.8	-45.1	19.3	0.00e+00	0	43	0	1065353216	57	4604
2026-01-16 23:28:21.03	180.58	20.43	-42.9	-45.2	19.2	0.00e+00	0	43	0	1067450368	57	4669
2026-01-16 23:28:21.89	180.63	20.32	-42.9	-45.2	19.2	0.00e+00	0	43	0	1069547520	57	4693
2026-01-16 23:28:23.02	180.70	20.17	-43.0	-45.4	19.0	0.00e+00	0	43	0	1071644672	57	4775
2026-01-16 23:28:23.88	180.75	20.06	-43.0	-45.3	19.1	0.00e+00	0	43	0	1072693248	57	4740
2026-01-16 23:28:25.01	180.82	19.92	-42.9	-45.2	19.2	0.00e+00	0	43	0	1074790400	57	4681
2026-01-16 23:28:25.87	180.87	19.81	-42.8	-45.1	19.2	0.00e+00	0	43	0	1076887552	57	4641
2026-01-16 23:28:27.00	180.94	19.67	-42.9	-45.2	19.2	0.00e+00	0	43	0	1078984704	57	4674
2026-01-16 23:28:27.85	180.99	19.56	-42.8	-45.1	19.2	0.00e+00	0	43	0	1080033280	57	4643
2026-01-16 23:28:29.05	181.06	19.41	-42.9	-45.2	19.2	0.00e+00	0	43	0	1082130432	57	4677
2026-01-16 23:28:29.91	181.12	19.30	-42.9	-45.2	19.2	0.00e+00	0	43	0	1084227584	57	4689
2026-01-16 23:28:31.04	181.18	19.16	-42.8	-45.1	19.3	0.00e+00	0	43	0	1086324736	57	4618
2026-01-16 23:28:31.89	181.23	19.06	-42.8	-45.1	19.3	0.00e+00	0	43	0	1087373312	57	4625
2026-01-16 23:28:33.03	181.30	18.92	-42.8	-45.1	19.2	0.00e+00	0	43	0	1090519040	57	4640
2026-01-16 23:28:33.88	181.34	18.81	-42.7	-45.0	19.3	0.00e+00	0	43	0	1091567616	57	4568
2026-01-16 23:28:35.02	181.41	18.68	-42.9	-45.1	19.2	0.00e+00	0	43	0	1093664768	57	4647
2026-01-16 23:28:35.87	181.46	18.57	-42.9	-45.1	19.2	0.00e+00	0	43	0	1095761920	57	4634
2026-01-16 23:28:37.00	181.52	18.44	-42.9	-45.2	19.2	0.00e+00	0	43	0	1097859072	57	4652
2026-01-16 23:28:37.86	181.57	18.33	-42.9	-45.2	19.2	0.00e+00	0	43	0	1098907648	57	4671
2026-01-16 23:28:38.99	181.63	18.20	-42.9	-45.1	19.2	0.00e+00	0	43	0	1101004800	57	4650
2026-01-16 23:28:39.84	181.68	18.10	-42.9	-45.2	19.2	0.00e+00	0	43	0	1103101952	57	4672
2026-01-16 23:28:40.98	181.74	17.96	-43.0	-45.3	19.1	0.00e+00	0	43	0	1105199104	57	4728
2026-01-16 23:28:41.83	181.78	17.86	-43.0	-45.3	19.0	0.00e+00	0	43	0	1106247680	57	4749
2026-01-16 23:28:42.97	181.84	17.73	-43.2	-45.5	18.9	0.00e+00	0	43	0	1108344832	57	4847
2026-01-16 23:28:43.82	181.89	17.63	-43.3	-45.7	18.7	0.00e+00	0	43	0	1110441984	57	4954
2026-01-16 23:28:44.96	181.95	17.50	-43.2	-45.6	18.8	0.00e+00	0	43	0	1112539136	57	4917
2026-01-16 23:28:45.81	181.99	17.40	-43.3	-45.7	18.7	0.00e+00	0	43	0	1113587712	57	4948
2026-01-16 23:28:46.95	182.05	17.27	-43.4	-45.8	18.5	0.00e+00	0	43	0	1115684864	57	5041
2026-01-16 23:28:47.80	182.10	17.17	-43.5	-45.9	18.5	0.00e+00	0	43	0	1117782016	57	5079
2026-01-16 23:28:49.10	182.16	17.02	-43.7	-46.2	18.2	0.00e+00	0	42	0	1119879168	57	5232
2026-01-16 23:28:49.81	182.20	16.94	-43.6	-46.1	18.3	0.00e+00	0	43	0	1121976320	57	5192
2026-01-16 23:28:51.09	182.26	16.80	-43.7	-46.3	18.1	0.00e+00	0	43	0	1124073472	58	5003
2026-01-16 23:28:51.80	182.30	16.72	-43.8	-46.3	18.1	0.00e+00	0	43	0	1125122048	58	5022
2026-01-16 23:28:53.08	182.36	16.58	-43.7	-46.3	18.1	0.00e+00	0	43	0	1127219200	58	5005
2026-01-16 23:28:53.82	182.40	16.49	-43.9	-46.4	18.0	0.00e+00	0	43	0	1129316352	58	5085
2026-01-16 23:28:55.10	182.46	16.35	-43.8	-46.4	18.0	0.00e+00	0	43	0	1131413504	58	5047
2026-01-16 23:28:55.81	182.50	16.27	-43.9	-46.5	18.0	0.00e+00	0	43	0	1132462080	58	5111
2026-01-16 23:28:57.09	182.56	16.13	-43.9	-46.6	17.9	0.00e+00	0	43	0	1135607808	58	5162
2026-01-16 23:28:57.80	182.59	16.05	-43.9	-46.5	17.9	0.00e+00	0	43	0	1136656384	58	5156
2026-01-16 23:28:59.08	182.66	15.91	-43.9	-46.5	17.9	0.00e+00	0	43	0	1138753536	58	5148
2026-01-16 23:28:59.79	182.69	15.84	-44.0	-46.6	17.7	0.00e+00	0	43	0	1139802112	58	5215
2026-01-16 23:29:01.07	182.75	15.70	-43.9	-46.5	17.9	0.00e+00	0	43	0	1142947840	58	5152
2026-01-16 23:29:01.78	182.78	15.62	-43.9	-46.5	17.8	0.00e+00	0	43	0	1143996416	58	5159
2026-01-16 23:29:03.14	182.85	15.48	-43.9	-46.5	17.8	0.00e+00	0	43	0	1146093568	58	5153
2026-01-16 23:29:03.85	182.88	15.40	-43.9	-46.5	17.9	0.00e+00	0	43	0	1148190720	58	5140
2026-01-16 23:29:05.13	182.94	15.26	-43.8	-46.5	17.8	0.00e+00	0	43	0	1150287872	58	5135
2026-01-16 23:29:05.84	182.97	15.19	-43.9	-46.5	17.8	0.00e+00	0	43	0	1151336448	58	5142
2026-01-16 23:29:07.24	183.03	15.04	-43.8	-46.5	17.9	0.00e+00	0	43	0	1154482176	58	5106
2026-01-16 23:29:07.95	183.06	14.97	-43.9	-46.5	17.8	0.00e+00	0	43	0	1155530752	58	5148
2026-01-16 23:29:09.22	183.12	14.83	-43.8	-46.5	17.9	0.00e+00	0	43	0	1157627904	58	5122
2026-01-16 23:29:09.94	183.15	14.76	-43.8	-46.4	17.9	0.00e+00	0	43	0	1159725056	58	5092
2026-01-16 23:29:11.22	183.21	14.63	-43.9	-46.6	17.7	0.00e+00	0	43	0	1161822208	58	5181
2026-01-16 23:29:11.93	183.24	14.55	-44.0	-46.7	17.6	0.00e+00	0	43	0	1162870784	58	5264
2026-01-16 23:29:13.21	183.30	14.42	-43.9	-46.5	17.8	0.00e+00	0	43	0	1164967936	58	5137
2026-01-16 23:29:13.94	183.33	14.35	-43.9	-46.6	17.8	0.00e+00	0	43	0	1167065088	58	5161
2026-01-16 23:29:15.22	183.38	14.22	-43.9	-46.5	17.8	0.00e+00	0	43	0	1169162240	58	5145
2026-01-16 23:29:16.00	183.42	14.14	-43.9	-46.6	17.8	0.00e+00	0	43	0	1170210816	58	5162
2026-01-16 23:29:17.28	183.47	14.01	-44.0	-46.7	17.6	0.00e+00	0	43	0	1173356544	58	5254
2026-01-16 23:29:17.99	183.50	13.94	-44.0	-46.7	17.6	0.00e+00	0	43	0	1174405120	58	5251
2026-01-16 23:29:19.27	183.55	13.81	-43.9	-46.6	17.7	0.00e+00	0	43	0	1176502272	58	5216
2026-01-16 23:29:20.07	183.59	13.73	-43.9	-46.6	17.7	0.00e+00	0	43	0	1178599424	58	5216
2026-01-16 23:29:21.21	183.63	13.62	-43.9	-46.6	17.7	0.00e+00	0	43	0	1180696576	58	5200
2026-01-16 23:29:22.06	183.67	13.53	-44.0	-46.7	17.7	0.00e+00	0	43	0	1181745152	58	5237
2026-01-16 23:29:23.20	183.72	13.42	-44.0	-46.8	17.5	0.00e+00	0	43	0	1183842304	58	5293
2026-01-16 23:29:24.05	183.75	13.34	-44.0	-46.8	17.5	0.00e+00	0	43	0	1185939456	58	5304
2026-01-16 23:29:25.19	183.80	13.22	-44.0	-46.8	17.5	0.00e+00	0	43	0	1188036608	58	5281
2026-01-16 23:29:26.04	183.83	13.14	-44.0	-46.7	17.3	0.00e+00	0	43	0	1189085184	58	5266
2026-01-16 23:29:27.18	183.88	13.03	-44.1	-46.8	17.5	0.00e+00	0	43	0	1191182336	58	5329
2026-01-16 23:29:28.04	183.91	12.95	-44.1	-46.9	17.4	0.00e+00	0	43	0	1193279488	58	5352
2026-01-16 23:29:29.17	183.95	12.84	-44.1	-46.9	17.4	0.00e+00	0	43	0	1195376640	58	5390
2026-01-16 23:29:30.03	183.99	12.76	-44.1	-46.9	17.4	0.00e+00	0	43	0	1196425216	58	5353
2026-01-16 23:29:31.17	184.03	12.65	-44.2	-46.9	17.4	0.00e+00	0	43	0	1199570944	58	5377
2026-01-16 23:29:32.02	184.07	12.56	-44.1	-46.9	17.4	0.00e+00	0	43	0	1200619520	59	5067
2026-01-16 23:29:33.16	184.11	12.46	-44.2	-46.9	17.4	0.00e+00	0	43	0	1202716672	59	5094
2026-01-16 23:29:34.06	184.14	12.37	-44.1	-46.9	17.4	0.00e+00	0	43	0	1204813824	59	5049
2026-01-16 23:29:35.16	184.19	12.27	-44.2	-46.9	17.3	0.00e+00	0	43	0	1206910976	59	5095
2026-01-16 23:29:36.01	184.22	12.19	-44.1	-46.9	17.4	0.00e+00	0	43	0	1207959552	59	5051
2026-01-16 23:29:37.15	184.26	12.08	-44.1	-46.8	17.4	0.00e+00	0	43	0	1210056704	59	5038
2026-01-16 23:29:38.00	184.29	12.00	-44.1	-46.8	17.5	0.00e+00	0	43	0	1212153856	59	5013
2026-01-16 23:29:39.14	184.33	11.90	-44.1	-46.8	17.5	0.00e+00	0	43	0	1214251008	59	5019
2026-01-16 23:29:40.21	184.37	11.80	-44.0	-46.7	17.5	0.00e+00	0	43	0	1216348160	59	4964
2026-01-16 23:29:41.07	184.41	11.72	-44.1	-46.8	17.4	0.00e+00	0	43	0	1217396736	59	5022
2026-01-16 23:29:42.21	184.45	11.61	-44.1	-46.9	17.4	0.00e+00	0	43	0	1219493888	59	5059
2026-01-16 23:29:43.28	184.49	11.52	-44.0	-46.7	17.1	0.00e+00	0	43	0	1221591040	59	4979
2026-01-16 23:29:44.31	184.52	11.42	-44.0	-46.7	17.5	0.00e+00	0	43	0	1223688192	59	4959
2026-01-16 23:29:45.30	184.56	11.33	-44.0	-46.7	17.6	0.00e+00	0	43	0	1225785344	59	4942
2026-01-16 23:29:46.30	184.59	11.24	-43.9	-46.6	17.6	0.00e+00	0	43	0	1227882496	59	4915
2026-01-16 23:29:47.29	184.63	11.15	-43.9	-46.6	17.7	0.00e+00	0	43	0	1228931072	59	4873
2026-01-16 23:29:48.29	184.66	11.06	-43.9	-46.5	17.6	0.00e+00	0	43	0	1231028224	59	4870
2026-01-16 23:29:49.29	184.70	10.97	-43.8	-46.5	17.7	0.00e+00	0	43	0	1233125376	59	4847
2026-01-16 23:29:50.28	184.73	10.88	-43.9	-46.6	17.6	0.00e+00	0	43	0	1235222528	59	4876
2026-01-16 23:29:51.27	184.77	10.80	-43.9	-46.6	17.6	0.00e+00	0	43	0	1236271104	59	4903
