passes_logs/2026/01/16/T1/T1__20260116_213851_NOAA_20_JPSS-1_rec.log

#Pass ID: 20260116_213851_NOAA 20 (JPSS-1)
#Satellite: NOAA 20 (JPSS-1)
#Configuration: NOAA 20
#almurnet v.1.7.20251203
#Start time: 2026-01-16 21:38:52

#Version: 2.0.20230620
#Station: T1
#Location: 37.570604 lon 55.790049 lat
#TLE: 1 43013U 17073A   26016.24631778  .00000038  00000+0  39093-4 0  9990
#TLE: 2 43013  98.7637 317.1726 0001455  37.6755 322.4523 14.19536243422915

#Time	Az	El	Level	Level2	SNR	BER	BlckErr	Temp	State	Recorded	gain1	gain2
2026-01-16 21:38:52.84	37.94	5.07	-50.0	-65.3	3.8	1.49e+00	0	38	0	0	72	20062
2026-01-16 21:38:53.82	38.05	5.12	-50.0	-65.4	3.8	1.49e+00	0	38	104	0	70	22620
2026-01-16 21:38:54.82	38.17	5.16	-50.0	-65.4	3.8	1.49e+00	0	38	104	0	70	22631
2026-01-16 21:38:55.81	38.28	5.21	-50.0	-65.4	3.8	1.49e+00	0	38	104	0	70	22547
2026-01-16 21:38:56.80	38.40	5.25	-50.0	-65.4	3.8	1.49e+00	0	38	104	0	70	22555
2026-01-16 21:38:57.80	38.52	5.30	-50.0	-65.4	3.8	1.49e+00	0	38	104	0	70	22630
2026-01-16 21:38:58.79	38.63	5.34	-50.0	-65.3	3.8	1.49e+00	0	38	104	0	70	22503
2026-01-16 21:38:59.78	38.75	5.39	-50.0	-65.4	3.8	1.49e+00	0	38	104	0	70	22556
2026-01-16 21:39:00.77	38.87	5.44	-50.0	-65.4	3.8	1.49e+00	0	38	104	0	70	22538
2026-01-16 21:39:01.77	38.99	5.48	-50.0	-65.4	3.8	1.49e+00	0	38	104	0	70	22537
2026-01-16 21:39:02.76	39.10	5.53	-50.0	-65.3	3.8	1.49e+00	0	38	104	0	70	22466
2026-01-16 21:39:03.75	39.22	5.57	-50.0	-65.3	3.8	1.49e+00	0	38	104	0	70	22515
2026-01-16 21:39:04.75	39.34	5.62	-50.0	-65.4	3.8	1.49e+00	0	38	104	0	70	22543
2026-01-16 21:39:05.74	39.46	5.66	-50.0	-65.4	3.8	1.49e+00	0	38	104	0	70	22601
2026-01-16 21:39:06.73	39.58	5.71	-50.0	-65.4	3.8	1.49e+00	0	38	104	0	70	22543
2026-01-16 21:39:07.72	39.70	5.75	-50.0	-65.4	3.8	1.49e+00	0	38	104	0	70	22618
2026-01-16 21:39:08.72	39.82	5.80	-50.0	-65.3	3.8	1.49e+00	0	38	104	0	70	22424
2026-01-16 21:39:09.71	39.94	5.84	-50.0	-65.3	3.8	1.49e+00	0	38	104	0	70	22508
2026-01-16 21:39:10.71	40.07	5.89	-50.0	-65.3	3.8	1.49e+00	0	38	104	0	70	22488
2026-01-16 21:39:11.70	40.19	5.93	-50.0	-65.4	3.8	1.49e+00	0	38	104	0	70	22550
2026-01-16 21:39:12.69	40.31	5.98	-50.0	-65.3	3.8	1.49e+00	0	38	104	0	70	22409
2026-01-16 21:39:13.69	40.43	6.02	-50.0	-65.4	3.8	1.49e+00	0	38	104	0	70	22561
2026-01-16 21:39:14.68	40.56	6.07	-50.0	-65.3	3.8	1.49e+00	0	38	104	0	70	22478
2026-01-16 21:39:15.67	40.68	6.11	-50.0	-65.3	3.8	1.49e+00	0	39	104	0	70	22518
2026-01-16 21:39:16.67	40.80	6.16	-50.0	-65.4	3.8	1.49e+00	0	38	104	0	70	22561
2026-01-16 21:39:17.66	40.93	6.20	-50.0	-65.3	3.8	1.49e+00	0	39	104	0	70	22486
2026-01-16 21:39:18.65	41.05	6.24	-50.0	-65.3	3.8	1.49e+00	0	39	104	0	70	22470
2026-01-16 21:39:19.65	41.18	6.29	-50.0	-65.3	3.8	1.49e+00	0	39	104	0	70	22455
2026-01-16 21:39:20.64	41.30	6.33	-50.0	-65.4	3.8	1.49e+00	0	38	104	0	70	22536
2026-01-16 21:39:21.63	41.43	6.38	-50.0	-65.3	3.8	1.49e+00	0	39	104	0	70	22358
2026-01-16 21:39:22.63	41.55	6.42	-50.0	-65.4	3.8	1.49e+00	0	39	104	0	70	22534
2026-01-16 21:39:23.62	41.68	6.47	-50.0	-65.3	3.8	1.49e+00	0	39	104	0	70	22495
2026-01-16 21:39:24.61	41.80	6.51	-50.0	-65.3	3.8	1.49e+00	0	39	104	0	70	22519
2026-01-16 21:39:25.60	41.93	6.56	-50.0	-65.3	3.8	1.49e+00	0	39	104	0	70	22394
2026-01-16 21:39:26.60	42.06	6.60	-50.0	-65.3	3.8	1.49e+00	0	39	104	0	70	22434
2026-01-16 21:39:27.59	42.19	6.65	-50.0	-65.3	3.8	1.49e+00	0	39	104	0	70	22510
2026-01-16 21:39:28.58	42.31	6.69	-50.0	-65.3	3.8	1.49e+00	0	39	104	0	70	22497
2026-01-16 21:39:29.58	42.44	6.73	-50.0	-65.3	3.8	1.49e+00	0	39	104	0	70	22355
2026-01-16 21:39:30.57	42.57	6.78	-50.0	-65.3	3.8	1.49e+00	0	39	104	0	70	22494
2026-01-16 21:39:31.56	42.70	6.82	-50.0	-65.3	3.8	1.49e+00	0	39	104	0	70	22512
2026-01-16 21:39:32.56	42.83	6.87	-50.0	-65.3	3.8	1.49e+00	0	39	104	0	70	22412
2026-01-16 21:39:33.55	42.96	6.91	-50.0	-65.3	3.8	1.49e+00	0	39	104	0	70	22472
2026-01-16 21:39:34.55	43.09	6.96	-50.0	-65.3	3.8	1.49e+00	0	39	104	0	70	22500
2026-01-16 21:39:35.54	43.22	7.00	-50.0	-65.3	3.8	1.49e+00	0	39	104	0	70	22454
2026-01-16 21:39:36.53	43.35	7.04	-50.0	-65.3	3.8	1.49e+00	0	39	104	0	70	22424
2026-01-16 21:39:37.53	43.49	7.09	-50.0	-65.3	3.8	1.49e+00	0	39	104	0	70	22396
2026-01-16 21:39:38.52	43.62	7.13	-50.0	-65.3	3.8	1.49e+00	0	39	104	0	70	22505
2026-01-16 21:39:39.51	43.75	7.17	-50.0	-65.3	3.8	1.49e+00	0	39	104	0	70	22457
2026-01-16 21:39:40.50	43.88	7.22	-50.0	-65.3	3.8	1.49e+00	0	39	104	0	70	22459
2026-01-16 21:39:41.50	44.01	7.26	-50.0	-65.3	3.8	1.49e+00	0	39	104	0	70	22518
2026-01-16 21:39:42.49	44.15	7.31	-50.0	-65.3	3.8	1.49e+00	0	39	104	0	70	22457
2026-01-16 21:39:43.48	44.28	7.35	-50.0	-65.3	3.8	1.49e+00	0	39	104	0	70	22441
2026-01-16 21:39:44.48	44.42	7.39	-50.0	-65.4	3.8	1.49e+00	0	39	104	0	70	22521
2026-01-16 21:39:45.47	44.55	7.44	-50.0	-65.3	3.8	1.49e+00	0	39	104	0	70	22426
2026-01-16 21:39:46.47	44.69	7.48	-50.0	-65.3	3.8	1.49e+00	0	39	104	0	70	22484
2026-01-16 21:39:47.46	44.82	7.52	-50.0	-65.3	3.8	1.49e+00	0	39	104	0	70	22421
2026-01-16 21:39:48.45	44.96	7.57	-50.0	-65.3	3.8	1.49e+00	0	39	104	0	70	22397
2026-01-16 21:39:49.45	45.09	7.61	-50.0	-65.3	3.8	1.49e+00	0	39	104	0	70	22354
2026-01-16 21:39:50.44	45.23	7.65	-50.0	-65.2	3.8	1.49e+00	0	39	104	0	70	22256
2026-01-16 21:39:51.43	45.37	7.70	-50.0	-65.2	3.8	1.49e+00	0	39	104	0	70	22235
2026-01-16 21:39:52.43	45.50	7.74	-50.0	-65.2	3.8	1.49e+00	0	39	104	0	70	22090
2026-01-16 21:39:53.42	45.64	7.78	-50.0	-65.2	3.8	1.49e+00	0	39	104	0	70	22146
2026-01-16 21:39:54.41	45.78	7.83	-50.0	-65.2	3.8	1.49e+00	0	39	104	0	70	22056
2026-01-16 21:39:55.41	45.92	7.87	-50.0	-65.2	3.8	1.49e+00	0	39	104	0	70	22179
2026-01-16 21:39:56.40	46.06	7.91	-50.0	-65.2	3.8	1.49e+00	0	39	104	0	70	22196
2026-01-16 21:39:57.39	46.20	7.95	-50.0	-65.3	3.8	1.49e+00	0	39	104	0	70	22288
2026-01-16 21:39:58.39	46.34	8.00	-50.0	-65.3	3.8	1.49e+00	0	39	104	0	70	22271
2026-01-16 21:39:59.38	46.48	8.04	-50.0	-65.3	3.8	1.49e+00	0	39	104	0	70	22380
2026-01-16 21:40:00.37	46.62	8.08	-50.0	-65.3	3.8	1.49e+00	0	39	104	0	70	22381
2026-01-16 21:40:01.37	46.76	8.12	-50.0	-65.3	3.8	1.49e+00	0	40	104	0	70	22453
2026-01-16 21:40:02.36	46.90	8.17	-50.0	-65.3	3.8	1.49e+00	0	39	104	0	70	22487
2026-01-16 21:40:03.35	47.04	8.21	-50.0	-65.3	3.8	1.49e+00	0	39	104	0	70	22471
2026-01-16 21:40:04.34	47.18	8.25	-50.0	-65.3	3.8	1.49e+00	0	39	104	0	70	22325
2026-01-16 21:40:05.34	47.33	8.29	-50.0	-65.2	3.8	1.49e+00	0	39	104	0	70	22237
2026-01-16 21:40:06.33	47.47	8.33	-50.0	-65.3	3.8	1.49e+00	0	39	104	0	70	22312
2026-01-16 21:40:07.32	47.61	8.38	-50.0	-65.3	3.8	1.49e+00	0	39	104	0	70	22427
2026-01-16 21:40:08.31	47.75	8.42	-50.0	-65.3	3.8	1.49e+00	0	39	104	0	70	22513
2026-01-16 21:40:09.31	47.90	8.46	-50.0	-65.4	3.8	1.49e+00	0	39	104	0	70	22608
2026-01-16 21:40:10.30	48.04	8.50	-50.0	-65.3	3.8	1.49e+00	0	39	104	0	70	22450
2026-01-16 21:40:11.29	48.19	8.54	-50.0	-65.3	3.8	1.49e+00	0	39	104	0	70	22340
2026-01-16 21:40:12.29	48.33	8.59	-50.0	-65.3	3.8	1.49e+00	0	39	104	0	70	22435
2026-01-16 21:40:13.28	48.48	8.63	-50.0	-65.3	3.8	1.49e+00	0	39	104	0	70	22343
2026-01-16 21:40:14.27	48.62	8.67	-50.0	-65.1	3.8	1.49e+00	0	39	104	0	70	21989
2026-01-16 21:40:15.27	48.77	8.71	-50.0	-65.0	3.8	1.49e+00	0	39	104	0	70	21580
2026-01-16 21:40:16.26	48.92	8.75	-50.0	-64.7	3.8	1.49e+00	0	39	104	0	70	21003
2026-01-16 21:40:17.25	49.06	8.79	-49.9	-64.5	3.8	1.49e+00	0	39	104	0	70	20477
2026-01-16 21:40:18.24	49.21	8.83	-49.9	-64.3	3.8	1.49e+00	0	39	104	0	70	19941
2026-01-16 21:40:19.24	49.36	8.87	-49.9	-63.8	3.8	1.49e+00	0	39	104	0	70	18866
2026-01-16 21:40:20.23	49.51	8.91	-49.8	-62.2	4.1	1.49e+00	0	40	0	0	70	15603
2026-01-16 21:40:21.22	49.66	8.95	-49.5	-59.6	5.1	8.89e-01	0	39	0	1048576	70	11614
2026-01-16 21:40:22.22	49.81	9.00	-49.1	-57.1	6.9	3.27e-01	0	40	0	2097152	70	8758
2026-01-16 21:40:23.21	49.96	9.04	-48.5	-54.8	9.1	7.04e-02	0	40	0	4194304	69	7082
2026-01-16 21:40:24.52	50.15	9.09	-48.7	-55.1	9.1	4.07e-01	0	40	0	7340032	69	7302
2026-01-16 21:40:25.23	50.26	9.12	-49.8	-61.6	3.9	9.83e-01	0	40	104	7340032	70	14593
2026-01-16 21:40:26.51	50.46	9.17	-48.5	-55.0	9.3	1.06e-03	0	40	0	8388608	67	8084
2026-01-16 21:40:27.22	50.57	9.20	-49.2	-56.9	7.1	9.03e-02	0	40	0	10485760	69	9040
2026-01-16 21:40:28.50	50.76	9.25	-45.8	-49.2	14.9	3.80e-06	0	40	0	12582912	63	5266
2026-01-16 21:40:29.21	50.87	9.28	-45.8	-49.2	14.9	7.00e-07	0	40	0	13631488	63	5257
2026-01-16 21:40:30.49	51.07	9.33	-45.6	-48.9	15.3	0.00e+00	0	40	0	15728640	63	5075
2026-01-16 21:40:31.20	51.18	9.36	-45.5	-48.8	15.4	0.00e+00	0	40	0	17825792	63	5003
2026-01-16 21:40:32.48	51.37	9.41	-45.5	-48.7	15.4	0.00e+00	0	39	0	19922944	62	5274
2026-01-16 21:40:33.19	51.48	9.44	-45.5	-48.8	15.4	0.00e+00	0	39	0	20971520	62	5312
2026-01-16 21:40:34.47	51.68	9.49	-45.5	-48.8	15.4	0.00e+00	0	40	0	23068672	62	5328
2026-01-16 21:40:35.18	51.79	9.52	-45.6	-48.9	15.3	0.00e+00	0	40	0	25165824	62	5342
2026-01-16 21:40:36.67	52.03	9.57	-45.4	-48.6	15.6	0.00e+00	0	40	0	27262976	62	5172
2026-01-16 21:40:37.38	52.14	9.60	-45.5	-48.7	15.4	0.00e+00	0	40	0	29360128	62	5279
2026-01-16 21:40:38.66	52.34	9.65	-45.4	-48.6	15.6	0.00e+00	0	40	0	31457280	62	5180
2026-01-16 21:40:39.37	52.45	9.68	-45.5	-48.7	15.5	0.00e+00	0	40	0	32505856	62	5249
2026-01-16 21:40:40.76	52.67	9.73	-45.5	-48.7	15.4	0.00e+00	0	40	0	35651584	62	5277
2026-01-16 21:40:41.47	52.78	9.76	-45.6	-48.9	15.3	0.00e+00	0	40	0	36700160	62	5382
2026-01-16 21:40:42.75	52.98	9.81	-45.5	-48.8	15.4	0.00e+00	0	40	0	38797312	62	5323
2026-01-16 21:40:43.47	53.10	9.84	-45.5	-48.8	15.4	0.00e+00	0	40	0	40894464	62	5315
2026-01-16 21:40:44.75	53.30	9.89	-45.5	-48.8	15.4	0.00e+00	0	40	0	42991616	62	5281
2026-01-16 21:40:45.46	53.42	9.91	-45.5	-48.8	15.4	0.00e+00	0	40	0	44040192	62	5291
2026-01-16 21:40:46.74	53.62	9.96	-45.5	-48.8	15.4	0.00e+00	0	40	0	46137344	62	5313
2026-01-16 21:40:47.48	53.74	9.99	-45.4	-48.6	15.6	0.00e+00	0	40	0	48234496	62	5174
2026-01-16 21:40:48.76	53.95	10.04	-45.4	-48.7	15.5	0.00e+00	0	40	0	50331648	62	5228
2026-01-16 21:40:49.48	54.06	10.07	-45.4	-48.6	15.6	0.00e+00	0	40	0	51380224	62	5208
2026-01-16 21:40:50.76	54.27	10.11	-45.3	-48.5	15.8	0.00e+00	0	40	0	54525952	62	5107
2026-01-16 21:40:51.47	54.39	10.14	-45.3	-48.4	15.8	0.00e+00	0	40	0	55574528	62	5094
2026-01-16 21:40:52.75	54.59	10.19	-45.2	-48.3	15.9	0.00e+00	0	40	0	57671680	62	5014
2026-01-16 21:40:53.48	54.71	10.22	-45.1	-48.1	16.1	0.00e+00	0	40	0	58720256	62	4922
2026-01-16 21:40:54.76	54.92	10.26	-45.1	-48.2	16.1	0.00e+00	0	40	0	61865984	62	4941
2026-01-16 21:40:55.49	55.04	10.29	-45.2	-48.2	16.0	0.00e+00	0	40	0	62914560	62	4967
2026-01-16 21:40:56.76	55.25	10.34	-45.2	-48.3	16.0	0.00e+00	0	40	0	65011712	62	4986
2026-01-16 21:40:57.58	55.39	10.37	-45.2	-48.3	15.9	0.00e+00	0	40	0	67108864	62	5015
2026-01-16 21:40:59.04	55.63	10.42	-45.2	-48.3	15.9	0.00e+00	0	40	0	69206016	62	5024
2026-01-16 21:40:59.75	55.74	10.44	-45.3	-48.5	15.8	0.00e+00	0	40	0	71303168	62	5101
2026-01-16 21:41:01.23	55.99	10.50	-45.4	-48.6	15.6	0.00e+00	0	40	0	73400320	62	5201
2026-01-16 21:41:01.94	56.11	10.52	-45.4	-48.5	15.7	0.00e+00	0	40	0	75497472	62	5143
2026-01-16 21:41:03.28	56.33	10.57	-45.5	-48.7	15.6	0.00e+00	0	40	0	77594624	62	5253
2026-01-16 21:41:03.99	56.45	10.59	-45.5	-48.8	15.5	0.00e+00	0	40	0	78643200	62	5305
2026-01-16 21:41:05.28	56.67	10.64	-45.5	-48.8	15.5	0.00e+00	0	40	0	81788928	62	5287
2026-01-16 21:41:05.99	56.79	10.67	-45.6	-48.8	15.5	0.00e+00	0	40	0	82837504	62	5314
2026-01-16 21:41:07.26	57.00	10.71	-45.6	-48.8	15.5	0.00e+00	0	40	0	84934656	62	5304
2026-01-16 21:41:07.98	57.12	10.73	-45.6	-48.8	15.5	0.00e+00	0	40	0	85983232	62	5320
2026-01-16 21:41:09.25	57.34	10.78	-45.3	-48.4	15.8	0.00e+00	0	40	0	89128960	62	5087
2026-01-16 21:41:09.98	57.46	10.80	-45.3	-48.3	15.9	0.00e+00	0	40	0	90177536	62	5040
2026-01-16 21:41:11.25	57.68	10.85	-45.4	-48.5	15.7	0.00e+00	0	40	0	92274688	62	5141
2026-01-16 21:41:11.98	57.80	10.87	-45.4	-48.5	15.8	0.00e+00	0	40	0	94371840	62	5110
2026-01-16 21:41:13.26	58.02	10.92	-45.2	-48.3	16.0	0.00e+00	0	40	0	96468992	62	4993
2026-01-16 21:41:13.98	58.14	10.94	-45.3	-48.4	15.8	0.00e+00	0	40	0	97517568	62	5080
2026-01-16 21:41:15.26	58.36	10.98	-45.3	-48.5	15.8	0.00e+00	0	40	0	99614720	62	5101
2026-01-16 21:41:15.97	58.48	11.01	-45.3	-48.4	15.8	0.00e+00	0	40	0	101711872	62	5099
2026-01-16 21:41:17.25	58.71	11.05	-45.3	-48.4	15.9	0.00e+00	0	40	0	103809024	62	5079
2026-01-16 21:41:17.98	58.83	11.07	-45.3	-48.4	15.8	0.00e+00	0	40	0	104857600	62	5078
2026-01-16 21:41:19.26	59.05	11.11	-45.4	-48.5	15.8	0.00e+00	0	40	0	108003328	62	5148
2026-01-16 21:41:19.97	59.18	11.14	-45.4	-48.5	15.7	0.00e+00	0	40	0	109051904	62	5157
2026-01-16 21:41:21.25	59.40	11.18	-45.4	-48.5	15.8	0.00e+00	0	40	0	111149056	62	5125
2026-01-16 21:41:21.96	59.52	11.20	-45.4	-48.5	15.8	0.00e+00	0	40	0	112197632	62	5147
2026-01-16 21:41:23.24	59.75	11.24	-45.5	-48.7	15.6	0.00e+00	0	40	0	115343360	62	5262
2026-01-16 21:41:23.95	59.87	11.27	-45.5	-48.7	15.6	0.00e+00	0	40	0	116391936	62	5256
2026-01-16 21:41:25.23	60.09	11.31	-45.5	-48.7	15.5	0.00e+00	0	40	0	118489088	62	5276
2026-01-16 21:41:25.94	60.22	11.33	-45.5	-48.8	15.5	0.00e+00	0	40	0	120586240	62	5299
2026-01-16 21:41:27.22	60.44	11.37	-45.5	-48.8	15.5	0.00e+00	0	40	0	122683392	62	5287
2026-01-16 21:41:27.94	60.57	11.39	-45.4	-48.7	15.6	0.00e+00	0	40	0	123731968	62	5245
2026-01-16 21:41:29.22	60.80	11.43	-45.3	-48.5	15.7	0.00e+00	0	40	0	125829120	62	5150
2026-01-16 21:41:29.95	60.93	11.45	-45.3	-48.5	15.8	0.00e+00	0	40	0	127926272	62	5120
2026-01-16 21:41:31.23	61.15	11.49	-45.3	-48.4	15.8	0.00e+00	0	40	0	130023424	62	5085
2026-01-16 21:41:31.94	61.28	11.51	-45.2	-48.3	16.0	0.00e+00	0	40	0	131072000	62	5038
2026-01-16 21:41:33.22	61.51	11.55	-45.2	-48.3	16.0	0.00e+00	0	40	0	134217728	62	5006
2026-01-16 21:41:33.94	61.64	11.57	-45.2	-48.3	16.0	0.00e+00	0	40	0	135266304	62	4997
2026-01-16 21:41:35.24	61.87	11.61	-45.0	-48.1	16.2	0.00e+00	0	40	0	137363456	62	4894
2026-01-16 21:41:36.23	62.05	11.64	-45.1	-48.1	16.2	0.00e+00	0	40	0	139460608	62	4910
2026-01-16 21:41:37.23	62.23	11.67	-45.1	-48.2	16.1	0.00e+00	0	40	0	141557760	62	4933
2026-01-16 21:41:38.22	62.41	11.70	-45.0	-48.0	16.3	0.00e+00	0	40	0	142606336	62	4867
2026-01-16 21:41:39.22	62.59	11.73	-45.0	-48.0	16.3	0.00e+00	0	40	0	144703488	62	4859
2026-01-16 21:41:40.21	62.77	11.75	-45.2	-48.3	16.0	0.00e+00	0	40	0	146800640	62	4986
2026-01-16 21:41:41.21	62.95	11.78	-45.0	-48.1	16.2	0.00e+00	0	40	0	148897792	62	4876
2026-01-16 21:41:42.21	63.13	11.81	-45.0	-48.1	16.2	0.00e+00	0	40	0	150994944	62	4887
2026-01-16 21:41:43.20	63.31	11.84	-45.1	-48.1	16.2	0.00e+00	0	40	0	152043520	62	4914
2026-01-16 21:41:44.24	63.50	11.87	-45.2	-48.3	16.1	0.00e+00	0	40	0	154140672	62	4993
2026-01-16 21:41:45.25	63.68	11.89	-45.1	-48.1	16.2	0.00e+00	0	40	0	156237824	62	4879
2026-01-16 21:41:46.25	63.86	11.92	-44.9	-47.9	16.4	0.00e+00	0	40	0	158334976	61	5046
2026-01-16 21:41:47.24	64.05	11.95	-44.9	-47.8	16.5	0.00e+00	0	40	0	160432128	61	4986
2026-01-16 21:41:48.24	64.23	11.97	-44.8	-47.6	16.6	0.00e+00	0	40	0	161480704	61	4919
2026-01-16 21:41:49.23	64.41	12.00	-44.7	-47.6	16.7	0.00e+00	0	40	0	163577856	61	4876
2026-01-16 21:41:50.23	64.60	12.03	-44.8	-47.7	16.6	0.00e+00	0	40	0	165675008	61	4934
2026-01-16 21:41:51.43	64.82	12.06	-44.6	-47.4	16.9	0.00e+00	0	40	0	167772160	61	4789
2026-01-16 21:41:52.31	64.98	12.08	-44.5	-47.3	17.0	0.00e+00	0	40	0	169869312	61	4750
2026-01-16 21:41:53.62	65.22	12.11	-44.6	-47.4	16.8	0.00e+00	0	40	0	171966464	60	5098
2026-01-16 21:41:54.33	65.35	12.13	-44.6	-47.5	16.8	0.00e+00	0	40	0	173015040	60	5121
2026-01-16 21:41:55.61	65.59	12.16	-44.7	-47.6	16.7	0.00e+00	0	40	0	176160768	60	5187
2026-01-16 21:41:56.34	65.73	12.18	-44.8	-47.7	16.6	0.00e+00	0	40	0	177209344	60	5241
2026-01-16 21:41:57.62	65.97	12.21	-44.8	-47.8	16.6	0.00e+00	0	40	0	179306496	60	5281
2026-01-16 21:41:58.33	66.10	12.23	-45.0	-47.9	16.4	0.00e+00	0	40	0	180355072	60	5380
2026-01-16 21:41:59.61	66.34	12.26	-45.1	-48.1	16.2	0.00e+00	0	40	0	183500800	60	5513
2026-01-16 21:42:00.34	66.47	12.28	-45.1	-48.1	16.2	0.00e+00	0	40	0	184549376	60	5524
2026-01-16 21:42:01.62	66.71	12.31	-45.2	-48.3	16.0	0.00e+00	0	40	0	186646528	61	5301
2026-01-16 21:42:02.34	66.85	12.32	-45.3	-48.4	15.9	0.00e+00	0	40	0	188743680	61	5361
2026-01-16 21:42:03.62	67.09	12.35	-45.2	-48.3	16.0	0.00e+00	0	40	0	190840832	61	5326
2026-01-16 21:42:04.35	67.23	12.37	-45.2	-48.3	16.0	0.00e+00	0	40	0	191889408	61	5312
2026-01-16 21:42:05.63	67.47	12.40	-45.2	-48.3	16.0	0.00e+00	0	40	0	193986560	61	5310
2026-01-16 21:42:06.36	67.61	12.41	-45.1	-48.2	16.1	0.00e+00	0	40	0	196083712	61	5241
2026-01-16 21:42:07.68	67.86	12.44	-45.1	-48.2	16.1	0.00e+00	0	40	0	198180864	61	5250
2026-01-16 21:42:08.64	68.04	12.46	-45.1	-48.1	16.2	0.00e+00	0	40	0	200278016	61	5208
2026-01-16 21:42:09.95	68.29	12.49	-45.3	-48.4	15.9	0.00e+00	0	40	0	202375168	61	5374
2026-01-16 21:42:10.67	68.42	12.51	-45.4	-48.5	15.8	0.00e+00	0	40	0	204472320	61	5438
2026-01-16 21:42:11.94	68.67	12.53	-45.4	-48.5	15.8	0.00e+00	0	40	0	206569472	61	5439
2026-01-16 21:42:12.67	68.81	12.55	-45.5	-48.7	15.7	0.00e+00	0	40	0	207618048	61	5545
2026-01-16 21:42:13.95	69.05	12.57	-45.5	-48.7	15.6	0.00e+00	0	40	0	209715200	61	5584
2026-01-16 21:42:14.66	69.19	12.59	-45.7	-49.0	15.4	0.00e+00	0	40	0	211812352	61	5730
2026-01-16 21:42:15.94	69.43	12.61	-45.7	-49.0	15.3	0.00e+00	0	40	0	213909504	62	5464
2026-01-16 21:42:16.65	69.57	12.63	-45.7	-49.0	15.4	0.00e+00	0	40	0	214958080	62	5414
2026-01-16 21:42:17.93	69.81	12.65	-45.7	-49.1	15.2	0.00e+00	0	40	0	217055232	62	5475
2026-01-16 21:42:18.64	69.95	12.66	-45.8	-49.1	15.2	0.00e+00	0	40	0	219152384	62	5519
2026-01-16 21:42:19.92	70.20	12.69	-45.6	-48.9	15.5	0.00e+00	0	40	0	221249536	62	5368
2026-01-16 21:42:20.66	70.34	12.70	-45.6	-48.9	15.5	0.00e+00	0	40	0	222298112	62	5356
2026-01-16 21:42:22.25	70.65	12.73	-45.6	-48.9	15.4	0.00e+00	0	40	0	225443840	62	5374
2026-01-16 21:42:22.84	70.76	12.74	-45.5	-48.8	15.5	0.00e+00	0	40	0	226492416	62	5302
2026-01-16 21:42:24.40	71.06	12.77	-45.4	-48.6	15.7	0.00e+00	0	40	0	229638144	62	5191
2026-01-16 21:42:25.03	71.18	12.78	-45.5	-48.7	15.6	0.00e+00	0	40	0	230686720	62	5237
2026-01-16 21:42:26.53	71.47	12.80	-45.3	-48.4	15.9	0.00e+00	0	40	0	233832448	62	5096
2026-01-16 21:42:27.24	71.61	12.81	-45.3	-48.4	16.0	0.00e+00	0	40	0	234881024	62	5060
2026-01-16 21:42:28.52	71.86	12.84	-45.3	-48.4	16.0	0.00e+00	0	40	0	236978176	62	5092
2026-01-16 21:42:29.25	72.00	12.85	-45.3	-48.4	16.0	0.00e+00	0	40	0	239075328	62	5052
2026-01-16 21:42:30.53	72.25	12.87	-45.4	-48.5	15.9	0.00e+00	0	40	0	241172480	62	5135
2026-01-16 21:42:31.24	72.39	12.88	-45.5	-48.6	15.7	0.00e+00	0	40	0	242221056	62	5217
2026-01-16 21:42:32.52	72.64	12.90	-45.5	-48.7	15.7	0.00e+00	0	40	0	245366784	62	5240
2026-01-16 21:42:33.23	72.78	12.91	-45.5	-48.6	15.7	0.00e+00	0	40	0	246415360	62	5211
2026-01-16 21:42:34.51	73.03	12.93	-45.5	-48.7	15.7	0.00e+00	0	40	0	248512512	62	5244
2026-01-16 21:42:35.22	73.17	12.94	-45.5	-48.7	15.7	0.00e+00	0	40	0	249561088	62	5228
2026-01-16 21:42:36.50	73.42	12.95	-45.3	-48.4	15.9	0.00e+00	0	40	0	252706816	62	5083
2026-01-16 21:42:37.21	73.56	12.96	-45.2	-48.2	16.1	0.00e+00	0	40	0	253755392	62	4978
2026-01-16 21:42:38.76	73.86	12.98	-45.2	-48.2	16.1	0.00e+00	0	40	0	256901120	62	4975
2026-01-16 21:42:39.47	74.00	12.99	-45.2	-48.2	16.0	0.00e+00	0	40	0	257949696	62	4944
2026-01-16 21:42:40.83	74.27	13.01	-45.2	-48.2	16.1	0.00e+00	0	40	0	260046848	62	4978
2026-01-16 21:42:41.54	74.41	13.02	-45.2	-48.2	16.1	0.00e+00	0	40	0	262144000	62	4976
2026-01-16 21:42:42.82	74.66	13.03	-45.1	-48.1	16.3	0.00e+00	0	40	0	264241152	62	4876
2026-01-16 21:42:43.54	74.80	13.04	-45.1	-48.2	16.2	0.00e+00	0	40	0	265289728	62	4930
2026-01-16 21:42:44.82	75.06	13.06	-44.9	-47.9	16.4	0.00e+00	0	40	0	268435456	61	5072
2026-01-16 21:42:45.55	75.20	13.06	-44.9	-47.8	16.5	0.00e+00	0	40	0	269484032	61	5028
2026-01-16 21:42:46.83	75.45	13.08	-44.9	-47.8	16.5	0.00e+00	0	40	0	271581184	61	5008
2026-01-16 21:42:47.57	75.60	13.08	-44.8	-47.7	16.6	0.00e+00	0	40	0	272629760	61	4951
2026-01-16 21:42:48.85	75.85	13.10	-44.8	-47.8	16.5	0.00e+00	0	40	0	275775488	61	4984
2026-01-16 21:42:49.58	76.00	13.10	-44.8	-47.6	16.7	0.00e+00	0	40	0	276824064	61	4926
2026-01-16 21:42:50.86	76.25	13.12	-44.8	-47.7	16.6	0.00e+00	0	40	0	278921216	61	4970
2026-01-16 21:42:51.57	76.39	13.12	-44.9	-47.8	16.5	0.00e+00	0	40	0	281018368	61	5018
2026-01-16 21:42:52.84	76.64	13.13	-44.8	-47.8	16.5	0.00e+00	0	40	0	283115520	61	4999
2026-01-16 21:42:53.57	76.79	13.14	-44.8	-47.8	16.6	0.00e+00	0	40	0	284164096	61	4984
2026-01-16 21:42:54.85	77.04	13.15	-44.8	-47.8	16.5	0.00e+00	0	40	0	287309824	61	5023
2026-01-16 21:42:55.56	77.18	13.16	-44.8	-47.7	16.6	0.00e+00	0	40	0	288358400	61	4968
2026-01-16 21:42:56.84	77.44	13.17	-44.7	-47.6	16.7	0.00e+00	0	40	0	290455552	61	4906
2026-01-16 21:42:57.57	77.58	13.17	-44.7	-47.5	16.8	0.00e+00	0	40	0	291504128	61	4855
2026-01-16 21:42:58.85	77.84	13.18	-44.6	-47.4	16.9	0.00e+00	0	40	0	294649856	61	4803
2026-01-16 21:42:59.56	77.98	13.18	-44.5	-47.4	16.9	0.00e+00	0	40	0	295698432	61	4766
2026-01-16 21:43:00.83	78.23	13.19	-44.4	-47.1	17.2	0.00e+00	0	40	0	297795584	60	4923
2026-01-16 21:43:01.55	78.38	13.20	-44.5	-47.3	17.0	0.00e+00	0	40	0	299892736	60	5024
2026-01-16 21:43:02.82	78.63	13.20	-44.5	-47.3	17.0	0.00e+00	0	40	0	301989888	60	5020
2026-01-16 21:43:03.55	78.78	13.21	-44.6	-47.4	16.9	0.00e+00	0	40	0	303038464	60	5065
2026-01-16 21:43:04.83	79.03	13.21	-44.6	-47.4	16.9	0.00e+00	0	40	0	305135616	60	5079
2026-01-16 21:43:05.57	79.18	13.22	-44.5	-47.4	17.0	0.00e+00	0	40	0	307232768	60	5044
2026-01-16 21:43:06.85	79.43	13.22	-44.4	-47.3	17.0	0.00e+00	0	40	0	309329920	60	4991
2026-01-16 21:43:07.62	79.59	13.23	-44.4	-47.2	17.1	0.00e+00	0	40	0	310378496	60	4951
2026-01-16 21:43:08.90	79.84	13.23	-44.2	-46.9	17.4	0.00e+00	0	40	0	313524224	60	4796
2026-01-16 21:43:09.68	80.00	13.23	-44.2	-47.0	17.3	0.00e+00	0	40	0	314572800	60	4831
2026-01-16 21:43:11.26	80.32	13.24	-44.0	-46.7	17.6	0.00e+00	0	40	0	317718528	60	4674
2026-01-16 21:43:11.90	80.44	13.24	-44.0	-46.6	17.6	0.00e+00	0	40	0	318767104	59	4899
2026-01-16 21:43:13.32	80.73	13.24	-43.9	-46.5	17.7	0.00e+00	0	40	0	321912832	59	4869
2026-01-16 21:43:14.03	80.87	13.25	-44.0	-46.6	17.6	0.00e+00	0	40	0	322961408	59	4921
2026-01-16 21:43:15.31	81.13	13.25	-43.8	-46.5	17.7	0.00e+00	0	40	0	325058560	59	4846
2026-01-16 21:43:16.02	81.27	13.25	-43.9	-46.6	17.7	0.00e+00	0	40	0	326107136	59	4879
2026-01-16 21:43:17.31	81.53	13.25	-44.0	-46.8	17.5	0.00e+00	0	40	0	329252864	59	4985
2026-01-16 21:43:18.03	81.67	13.25	-43.9	-46.6	17.6	0.00e+00	0	40	0	330301440	59	4921
2026-01-16 21:43:19.31	81.93	13.25	-44.0	-46.7	17.6	0.00e+00	0	40	0	332398592	59	4940
2026-01-16 21:43:20.02	82.07	13.25	-43.9	-46.6	17.6	0.00e+00	0	40	0	334495744	59	4921
2026-01-16 21:43:21.30	82.33	13.25	-43.8	-46.5	17.7	0.00e+00	0	40	0	336592896	59	4817
2026-01-16 21:43:22.06	82.48	13.25	-43.8	-46.4	17.9	0.00e+00	0	40	0	337641472	59	4763
2026-01-16 21:43:23.66	82.80	13.25	-43.9	-46.4	17.8	0.00e+00	0	40	0	340787200	59	4814
2026-01-16 21:43:24.22	82.91	13.25	-43.8	-46.4	17.8	0.00e+00	0	40	0	341835776	59	4791
2026-01-16 21:43:26.12	83.29	13.24	-43.8	-46.4	17.8	0.00e+00	0	40	0	344981504	59	4781
2026-01-16 21:43:27.04	83.47	13.24	-43.7	-46.3	17.9	0.00e+00	0	40	0	347078656	59	4741
2026-01-16 21:43:28.03	83.67	13.24	-43.7	-46.4	17.8	0.00e+00	0	40	0	349175808	59	4769
2026-01-16 21:43:29.02	83.87	13.24	-43.6	-46.3	18.0	0.00e+00	0	40	0	351272960	59	4715
2026-01-16 21:43:30.02	84.07	13.23	-43.6	-46.2	18.0	0.00e+00	0	40	0	352321536	59	4699
2026-01-16 21:43:31.01	84.27	13.23	-43.6	-46.2	18.0	0.00e+00	0	40	0	354418688	59	4694
2026-01-16 21:43:32.01	84.47	13.23	-43.5	-46.2	18.0	0.00e+00	0	40	0	356515840	59	4655
2026-01-16 21:43:33.00	84.67	13.22	-43.6	-46.3	18.0	0.00e+00	0	40	0	358612992	59	4709
2026-01-16 21:43:34.00	84.87	13.22	-43.5	-46.1	18.1	0.00e+00	0	40	0	360710144	59	4617
2026-01-16 21:43:34.99	85.06	13.21	-43.6	-46.2	18.1	0.00e+00	0	40	0	361758720	59	4654
2026-01-16 21:43:35.99	85.26	13.21	-43.7	-46.3	18.0	0.00e+00	0	40	0	363855872	59	4707
2026-01-16 21:43:36.98	85.46	13.20	-43.7	-46.3	17.9	0.00e+00	0	40	0	365953024	59	4743
2026-01-16 21:43:37.98	85.66	13.20	-43.8	-46.5	17.8	0.00e+00	0	40	0	368050176	59	4826
2026-01-16 21:43:38.98	85.86	13.19	-44.0	-46.6	17.6	0.00e+00	0	40	0	369098752	59	4925
2026-01-16 21:43:39.97	86.06	13.19	-44.0	-46.7	17.5	0.00e+00	0	40	0	371195904	59	4957
2026-01-16 21:43:40.97	86.26	13.18	-44.1	-46.8	17.4	0.00e+00	0	40	0	373293056	59	5018
2026-01-16 21:43:41.96	86.45	13.17	-44.2	-46.9	17.3	0.00e+00	0	40	0	375390208	59	5074
2026-01-16 21:43:42.95	86.65	13.17	-44.1	-46.8	17.4	0.00e+00	0	40	0	377487360	59	4999
2026-01-16 21:43:43.95	86.85	13.16	-44.0	-46.6	17.6	0.00e+00	0	40	0	378535936	59	4926
2026-01-16 21:43:44.99	87.06	13.15	-44.0	-46.6	17.6	0.00e+00	0	40	0	380633088	59	4921
2026-01-16 21:43:45.94	87.25	13.14	-43.9	-46.5	17.7	0.00e+00	0	40	0	382730240	59	4858
2026-01-16 21:43:46.93	87.44	13.13	-44.0	-46.6	17.6	0.00e+00	0	40	0	384827392	59	4912
2026-01-16 21:43:47.93	87.64	13.13	-44.0	-46.6	17.6	0.00e+00	0	40	0	385875968	59	4926
2026-01-16 21:43:49.06	87.87	13.12	-44.1	-46.7	17.5	0.00e+00	0	40	0	387973120	59	4977
2026-01-16 21:43:49.92	88.04	13.11	-44.1	-46.7	17.5	0.00e+00	0	40	0	390070272	59	4962
2026-01-16 21:43:51.05	88.26	13.10	-44.1	-46.7	17.5	0.00e+00	0	40	0	392167424	59	4959
2026-01-16 21:43:51.91	88.43	13.09	-44.1	-46.7	17.5	0.00e+00	0	40	0	394264576	59	4966
2026-01-16 21:43:53.04	88.66	13.08	-43.9	-46.5	17.7	0.00e+00	0	40	0	396361728	59	4853
2026-01-16 21:43:53.90	88.83	13.07	-43.9	-46.4	17.8	0.00e+00	0	40	0	397410304	59	4811
2026-01-16 21:43:55.03	89.05	13.06	-43.7	-46.3	17.9	0.00e+00	0	40	0	399507456	59	4713
2026-01-16 21:43:55.88	89.22	13.05	-43.8	-46.4	17.8	0.00e+00	0	40	0	401604608	59	4792
2026-01-16 21:43:57.02	89.44	13.03	-43.8	-46.4	17.8	0.00e+00	0	40	0	403701760	59	4761
2026-01-16 21:43:57.88	89.61	13.02	-43.9	-46.5	17.8	0.00e+00	0	40	0	404750336	59	4827
2026-01-16 21:43:59.01	89.83	13.01	-44.0	-46.7	17.6	0.00e+00	0	40	0	406847488	59	4930
2026-01-16 21:43:59.87	90.00	13.00	-44.2	-46.9	17.3	0.00e+00	0	40	0	408944640	59	5079
2026-01-16 21:44:01.07	90.24	12.98	-44.2	-47.0	17.2	0.00e+00	0	40	0	411041792	59	5105
2026-01-16 21:44:01.93	90.41	12.97	-44.3	-47.1	17.1	0.00e+00	0	40	0	412090368	59	5178
2026-01-16 21:44:03.06	90.63	12.96	-44.3	-47.0	17.2	0.00e+00	0	40	0	414187520	59	5124
2026-01-16 21:44:03.93	90.80	12.95	-44.2	-46.9	17.3	0.00e+00	0	40	0	416284672	59	5090
2026-01-16 21:44:05.07	91.03	12.93	-44.2	-46.9	17.3	0.00e+00	0	40	0	418381824	59	5078
2026-01-16 21:44:05.92	91.19	12.92	-44.2	-46.9	17.3	0.00e+00	0	40	0	420478976	59	5063
2026-01-16 21:44:07.06	91.42	12.90	-44.0	-46.5	17.7	0.00e+00	0	40	0	422576128	59	4863
2026-01-16 21:44:08.04	91.61	12.89	-43.9	-46.5	17.7	0.00e+00	0	40	0	423624704	59	4819
2026-01-16 21:44:09.03	91.80	12.87	-43.7	-46.2	18.0	0.00e+00	0	40	0	425721856	59	4697
2026-01-16 21:44:10.03	92.00	12.86	-43.7	-46.2	18.1	0.00e+00	0	40	0	427819008	59	4659
2026-01-16 21:44:11.02	92.19	12.84	-43.7	-46.2	18.0	0.00e+00	0	40	0	429916160	59	4665
2026-01-16 21:44:12.01	92.38	12.82	-43.6	-46.1	18.1	0.00e+00	0	40	0	430964736	59	4599
2026-01-16 21:44:13.01	92.58	12.81	-43.6	-46.0	18.1	0.00e+00	0	40	0	433061888	59	4596
2026-01-16 21:44:14.00	92.77	12.79	-43.5	-45.9	18.2	0.00e+00	0	40	0	435159040	59	4529
2026-01-16 21:44:15.00	92.96	12.78	-43.5	-45.9	18.3	0.00e+00	0	40	0	437256192	58	4791
2026-01-16 21:44:15.99	93.16	12.76	-43.4	-45.9	18.3	0.00e+00	0	40	0	439353344	58	4768
2026-01-16 21:44:16.99	93.35	12.74	-43.4	-45.9	18.3	0.00e+00	0	40	0	440401920	58	4771
2026-01-16 21:44:17.98	93.54	12.72	-43.5	-46.0	18.2	0.00e+00	0	40	0	442499072	58	4821
2026-01-16 21:44:18.98	93.74	12.71	-43.6	-46.1	18.1	0.00e+00	0	40	0	444596224	58	4923
2026-01-16 21:44:19.97	93.93	12.69	-43.8	-46.3	17.9	0.00e+00	0	40	0	446693376	58	5037
2026-01-16 21:44:20.97	94.12	12.67	-43.8	-46.4	17.8	0.00e+00	0	40	0	447741952	58	5081
2026-01-16 21:44:21.97	94.31	12.65	-43.9	-46.5	17.7	0.00e+00	0	40	0	449839104	58	5127
2026-01-16 21:44:22.96	94.50	12.63	-43.9	-46.4	17.8	0.00e+00	0	40	0	451936256	58	5095
2026-01-16 21:44:23.96	94.70	12.61	-44.0	-46.5	17.7	0.00e+00	0	40	0	454033408	58	5159
2026-01-16 21:44:24.95	94.89	12.59	-44.0	-46.6	17.6	0.00e+00	0	40	0	456130560	58	5214
2026-01-16 21:44:25.95	95.08	12.57	-44.0	-46.6	17.6	0.00e+00	0	40	0	457179136	58	5194
2026-01-16 21:44:26.94	95.27	12.55	-43.9	-46.5	17.7	0.00e+00	0	40	0	459276288	58	5156
2026-01-16 21:44:27.94	95.46	12.53	-43.8	-46.3	17.9	0.00e+00	0	40	0	461373440	58	5016
2026-01-16 21:44:28.93	95.65	12.51	-43.7	-46.2	18.0	0.00e+00	0	40	0	463470592	58	4971
2026-01-16 21:44:29.93	95.84	12.49	-43.6	-46.1	18.1	0.00e+00	0	40	0	465567744	58	4918
2026-01-16 21:44:30.92	96.03	12.47	-43.7	-46.2	18.0	0.00e+00	0	40	0	466616320	58	4945
2026-01-16 21:44:31.92	96.22	12.45	-43.8	-46.3	17.9	0.00e+00	0	40	0	468713472	58	5024
2026-01-16 21:44:32.91	96.41	12.43	-43.7	-46.3	17.9	0.00e+00	0	40	0	470810624	58	4994
2026-01-16 21:44:33.91	96.60	12.40	-43.7	-46.3	17.9	0.00e+00	0	40	0	472907776	58	4998
2026-01-16 21:44:34.91	96.78	12.38	-43.9	-46.5	17.7	0.00e+00	0	40	0	473956352	58	5102
2026-01-16 21:44:35.95	96.98	12.36	-43.8	-46.4	17.8	0.00e+00	0	40	0	476053504	58	5058
2026-01-16 21:44:36.98	97.18	12.33	-43.8	-46.4	17.8	0.00e+00	0	40	0	478150656	58	5065
2026-01-16 21:44:37.97	97.36	12.31	-43.9	-46.4	17.8	0.00e+00	0	40	0	480247808	58	5081
2026-01-16 21:44:38.97	97.55	12.29	-44.0	-46.6	17.6	0.00e+00	0	40	0	482344960	58	5172
2026-01-16 21:44:39.96	97.74	12.26	-44.0	-46.6	17.6	0.00e+00	0	40	0	483393536	58	5174
2026-01-16 21:44:40.96	97.92	12.24	-43.9	-46.5	17.7	0.00e+00	0	40	0	485490688	58	5147
2026-01-16 21:44:41.95	98.11	12.22	-44.0	-46.6	17.6	0.00e+00	0	40	0	487587840	58	5187
2026-01-16 21:44:42.94	98.30	12.19	-44.0	-46.6	17.6	0.00e+00	0	40	0	489684992	58	5198
2026-01-16 21:44:43.94	98.48	12.17	-44.0	-46.6	17.5	0.00e+00	0	40	0	491782144	58	5205
2026-01-16 21:44:44.93	98.67	12.14	-44.0	-46.6	17.6	0.00e+00	0	40	0	492830720	58	5168
2026-01-16 21:44:45.93	98.85	12.12	-43.8	-46.3	17.8	0.00e+00	0	40	0	494927872	58	5030
2026-01-16 21:44:46.92	99.04	12.09	-43.7	-46.3	17.9	0.00e+00	0	40	0	497025024	58	4997
2026-01-16 21:44:47.92	99.22	12.07	-43.7	-46.3	17.9	0.00e+00	0	40	0	499122176	58	5013
2026-01-16 21:44:48.91	99.41	12.04	-43.9	-46.5	17.7	0.00e+00	0	40	0	500170752	58	5107
2026-01-16 21:44:49.95	99.60	12.01	-43.8	-46.4	17.8	0.00e+00	0	40	0	502267904	58	5057
2026-01-16 21:44:50.93	99.78	11.99	-43.8	-46.4	17.8	0.00e+00	0	40	0	504365056	58	5066
2026-01-16 21:44:51.97	99.97	11.96	-43.9	-46.5	17.7	0.00e+00	0	40	0	506462208	58	5132
2026-01-16 21:44:52.97	100.16	11.93	-43.9	-46.6	17.6	0.00e+00	0	40	0	508559360	58	5165
2026-01-16 21:44:53.96	100.34	11.91	-43.8	-46.4	17.8	0.00e+00	0	40	0	510656512	58	5049
2026-01-16 21:44:54.96	100.52	11.88	-43.6	-46.1	18.1	0.00e+00	0	40	0	511705088	58	4888
2026-01-16 21:44:55.95	100.70	11.85	-43.7	-46.2	17.9	0.00e+00	0	40	0	513802240	58	4982
2026-01-16 21:44:56.95	100.88	11.82	-43.9	-46.4	17.7	0.00e+00	0	40	0	515899392	58	5080
2026-01-16 21:44:57.94	101.06	11.80	-43.9	-46.4	17.7	0.00e+00	0	40	0	517996544	58	5100
2026-01-16 21:44:58.93	101.24	11.77	-43.9	-46.5	17.7	0.00e+00	0	40	0	519045120	58	5132
2026-01-16 21:44:59.93	101.43	11.74	-44.0	-46.7	17.5	0.00e+00	0	40	0	521142272	58	5219
2026-01-16 21:45:00.92	101.61	11.71	-44.1	-46.7	17.4	0.00e+00	0	40	0	523239424	58	5268
2026-01-16 21:45:01.92	101.79	11.68	-44.3	-46.9	17.2	0.00e+00	0	40	0	525336576	59	5083
2026-01-16 21:45:02.91	101.97	11.65	-44.4	-47.1	17.0	0.00e+00	0	40	0	527433728	59	5217
2026-01-16 21:45:03.91	102.15	11.63	-44.4	-47.2	17.0	0.00e+00	0	40	0	528482304	59	5238
2026-01-16 21:45:04.90	102.32	11.60	-44.5	-47.3	16.9	0.00e+00	0	40	0	530579456	59	5292
2026-01-16 21:45:05.93	102.51	11.57	-44.6	-47.3	16.8	0.00e+00	0	40	0	532676608	59	5330
2026-01-16 21:45:06.97	102.70	11.53	-44.5	-47.3	16.9	0.00e+00	0	40	0	534773760	59	5311
2026-01-16 21:45:07.92	102.87	11.51	-44.7	-47.5	16.7	0.00e+00	0	40	0	535822336	60	5154
2026-01-16 21:45:08.92	103.04	11.47	-44.7	-47.6	16.6	0.00e+00	0	40	0	537919488	60	5172
2026-01-16 21:45:09.91	103.22	11.44	-44.9	-47.8	16.4	0.00e+00	0	40	0	540016640	60	5314
2026-01-16 21:45:10.90	103.40	11.41	-45.0	-48.0	16.2	0.00e+00	0	40	0	542113792	60	5444
2026-01-16 21:45:11.90	103.57	11.38	-45.1	-48.1	16.1	0.00e+00	0	40	0	544210944	60	5489
2026-01-16 21:45:12.89	103.75	11.35	-45.1	-48.1	16.1	0.00e+00	0	40	0	545259520	60	5518
2026-01-16 21:45:13.89	103.93	11.32	-45.1	-48.1	16.1	0.00e+00	0	40	0	547356672	60	5503
2026-01-16 21:45:14.88	104.10	11.29	-45.1	-48.1	16.1	0.00e+00	0	40	0	549453824	60	5508
2026-01-16 21:45:15.88	104.28	11.26	-45.0	-48.0	16.2	0.00e+00	0	40	0	551550976	61	5145
2026-01-16 21:45:16.87	104.45	11.23	-45.0	-48.0	16.2	0.00e+00	0	40	0	552599552	61	5149
2026-01-16 21:45:17.87	104.63	11.19	-45.0	-48.0	16.2	0.00e+00	0	40	0	554696704	61	5140
2026-01-16 21:45:18.86	104.80	11.16	-45.0	-48.0	16.2	0.00e+00	0	40	0	556793856	61	5139
2026-01-16 21:45:19.85	104.97	11.13	-45.0	-48.0	16.2	0.00e+00	0	40	0	558891008	61	5125
2026-01-16 21:45:20.93	105.16	11.09	-45.1	-48.2	16.0	0.00e+00	0	40	0	560988160	61	5244
2026-01-16 21:45:21.81	105.31	11.06	-45.3	-48.4	15.8	0.00e+00	0	40	0	562036736	61	5376
2026-01-16 21:45:23.12	105.54	11.02	-45.5	-48.7	15.5	0.00e+00	0	40	0	565182464	61	5592
2026-01-16 21:45:24.26	105.74	10.98	-45.7	-49.0	15.2	0.00e+00	0	40	0	567279616	62	5463
2026-01-16 21:45:25.11	105.88	10.95	-45.7	-49.0	15.2	0.00e+00	0	40	0	568328192	62	5455
2026-01-16 21:45:26.25	106.08	10.92	-45.9	-49.3	14.9	0.00e+00	0	40	0	570425344	62	5639
2026-01-16 21:45:27.10	106.23	10.89	-45.9	-49.4	14.8	0.00e+00	0	40	0	572522496	62	5677
2026-01-16 21:45:28.29	106.43	10.85	-46.0	-49.5	14.6	0.00e+00	0	40	0	574619648	62	5778
2026-01-16 21:45:29.15	106.58	10.82	-46.2	-49.7	14.5	7.00e-07	0	40	0	575668224	62	5917
2026-01-16 21:45:30.28	106.77	10.78	-46.2	-49.9	14.3	3.00e-06	0	40	0	577765376	63	5689
2026-01-16 21:45:31.14	106.92	10.75	-46.5	-50.5	13.7	4.50e-06	0	40	0	579862528	63	6120
2026-01-16 21:45:32.28	107.11	10.71	-46.6	-50.6	13.7	9.10e-06	0	40	0	581959680	63	6132
2026-01-16 21:45:33.13	107.25	10.68	-46.6	-50.7	13.4	6.80e-06	0	40	0	584056832	64	5899
2026-01-16 21:45:34.27	107.45	10.64	-46.7	-50.8	13.3	2.82e-05	0	40	0	586153984	64	5940
2026-01-16 21:45:35.21	107.61	10.60	-46.6	-50.7	13.4	1.52e-05	0	40	0	587202560	64	5903
2026-01-16 21:45:36.21	107.77	10.57	-46.4	-50.4	13.7	5.30e-06	0	40	0	589299712	64	5665
2026-01-16 21:45:37.21	107.94	10.53	-46.4	-50.2	13.9	3.00e-06	0	40	0	591396864	64	5541
2026-01-16 21:45:38.20	108.11	10.50	-46.2	-50.0	14.1	3.00e-06	0	40	0	593494016	64	5426
2026-01-16 21:45:39.20	108.27	10.46	-46.2	-49.9	14.2	2.20e-06	0	40	0	594542592	64	5351
2026-01-16 21:45:40.20	108.44	10.42	-46.0	-49.6	14.5	0.00e+00	0	40	0	596639744	64	5167
2026-01-16 21:45:41.19	108.61	10.39	-46.1	-49.6	14.6	0.00e+00	0	40	0	598736896	63	5500
2026-01-16 21:45:42.19	108.77	10.35	-46.1	-49.7	14.4	0.00e+00	0	40	0	600834048	63	5582
2026-01-16 21:45:43.18	108.94	10.32	-46.1	-49.6	14.6	0.00e+00	0	40	0	601882624	63	5496
2026-01-16 21:45:44.18	109.10	10.28	-46.2	-49.8	14.4	7.00e-07	0	40	0	603979776	63	5600
2026-01-16 21:45:45.17	109.26	10.24	-46.3	-49.9	14.2	7.00e-07	0	40	0	606076928	63	5682
2026-01-16 21:45:46.17	109.43	10.21	-46.3	-50.0	14.2	1.50e-06	0	40	0	608174080	63	5732
2026-01-16 21:45:47.22	109.60	10.17	-46.3	-50.0	14.2	2.20e-06	0	40	0	610271232	63	5725
2026-01-16 21:45:48.17	109.75	10.13	-46.4	-50.1	14.1	7.00e-07	0	40	0	611319808	63	5813
2026-01-16 21:45:49.17	109.92	10.09	-46.4	-50.1	14.1	1.50e-06	0	40	0	613416960	63	5829
2026-01-16 21:45:50.16	110.08	10.06	-46.5	-50.3	13.8	2.20e-06	0	40	0	615514112	63	5991
2026-01-16 21:45:51.15	110.24	10.02	-46.6	-50.5	13.7	3.00e-06	0	40	0	617611264	63	6070
2026-01-16 21:45:52.15	110.40	9.98	-46.6	-50.5	13.6	1.14e-05	0	40	0	619708416	63	6079
2026-01-16 21:45:53.14	110.56	9.94	-46.6	-50.5	13.6	7.60e-06	0	40	0	620756992	63	6111
2026-01-16 21:45:54.14	110.72	9.90	-46.6	-50.5	13.6	4.50e-06	0	40	0	622854144	63	6120
2026-01-16 21:45:55.14	110.88	9.87	-46.5	-50.4	13.7	1.14e-05	0	40	0	624951296	63	6049
2026-01-16 21:45:56.13	111.04	9.83	-46.4	-50.1	14.0	3.00e-06	0	40	0	627048448	63	5841
2026-01-16 21:45:57.12	111.20	9.79	-46.3	-50.0	14.1	3.80e-06	0	40	0	628097024	63	5766
2026-01-16 21:45:58.12	111.36	9.75	-46.1	-49.7	14.4	7.00e-07	0	40	0	630194176	63	5586
2026-01-16 21:45:59.11	111.52	9.71	-46.1	-49.7	14.4	3.00e-06	0	40	0	632291328	63	5573
2026-01-16 21:46:00.11	111.67	9.67	-46.0	-49.6	14.5	0.00e+00	0	40	0	634388480	63	5490
2026-01-16 21:46:01.53	111.90	9.62	-46.1	-49.7	14.4	0.00e+00	0	40	0	636485632	63	5567
2026-01-16 21:46:02.25	112.01	9.59	-46.1	-49.7	14.4	0.00e+00	0	40	0	638582784	63	5587
2026-01-16 21:46:03.83	112.26	9.53	-46.1	-49.7	14.4	7.00e-07	0	40	0	640679936	63	5592
2026-01-16 21:46:04.45	112.36	9.50	-46.0	-49.7	14.4	7.00e-07	0	40	0	642777088	63	5545
2026-01-16 21:46:06.01	112.60	9.44	-45.9	-49.4	14.7	0.00e+00	0	40	0	644874240	63	5384
2026-01-16 21:46:06.63	112.70	9.41	-45.9	-49.4	14.7	0.00e+00	0	40	0	645922816	63	5366
2026-01-16 21:46:08.19	112.94	9.35	-45.7	-49.1	15.0	0.00e+00	0	40	0	649068544	63	5166
2026-01-16 21:46:08.90	113.05	9.32	-45.7	-49.1	15.0	0.00e+00	0	40	0	651165696	63	5161
2026-01-16 21:46:10.19	113.25	9.27	-45.4	-48.6	15.5	0.00e+00	0	40	0	653262848	62	5198
2026-01-16 21:46:10.98	113.37	9.24	-45.4	-48.6	15.4	0.00e+00	0	40	0	654311424	62	5212
2026-01-16 21:46:12.17	113.55	9.19	-45.3	-48.6	15.4	0.00e+00	0	40	0	656408576	62	5206
2026-01-16 21:46:13.02	113.69	9.16	-45.2	-48.4	15.6	0.00e+00	0	40	0	658505728	62	5093
2026-01-16 21:46:14.15	113.86	9.11	-45.5	-48.8	15.3	0.00e+00	0	40	0	660602880	62	5316
2026-01-16 21:46:15.01	113.99	9.07	-45.3	-48.6	15.4	0.00e+00	0	40	0	661651456	62	5218
2026-01-16 21:46:16.14	114.16	9.03	-45.5	-48.8	15.3	0.00e+00	0	40	0	663748608	62	5291
2026-01-16 21:46:16.99	114.29	8.99	-50.0	-64.6	3.8	4.78e-01	0	40	104	665845760	70	20607
2026-01-16 21:46:18.13	114.46	8.95	-50.5	-65.8	3.8	1.49e+00	0	40	104	665845760	71	22408
2026-01-16 21:46:18.98	114.59	8.91	-50.4	-65.8	3.8	1.49e+00	0	40	104	665845760	71	22459
2026-01-16 21:46:20.12	114.76	8.86	-50.6	-65.9	3.8	1.49e+00	0	40	104	665845760	71	22614
2026-01-16 21:46:21.00	114.89	8.83	-50.6	-65.9	3.8	1.49e+00	0	40	104	665845760	72	21358
2026-01-16 21:46:22.14	115.06	8.78	-50.6	-65.9	3.8	1.49e+00	0	40	104	665845760	72	21470
2026-01-16 21:46:23.07	115.20	8.74	-50.6	-66.0	3.8	1.49e+00	0	40	104	665845760	72	21534
2026-01-16 21:46:24.06	115.35	8.70	-50.7	-66.0	3.8	1.49e+00	0	40	104	665845760	72	21636
2026-01-16 21:46:25.05	115.50	8.66	-50.7	-66.0	3.8	1.49e+00	0	40	104	665845760	72	21679
2026-01-16 21:46:26.05	115.64	8.62	-50.5	-66.0	3.8	1.49e+00	0	40	104	665845760	72	21640
2026-01-16 21:46:27.04	115.79	8.57	-50.4	-66.0	3.8	1.49e+00	0	40	104	665845760	72	21670
2026-01-16 21:46:28.03	115.94	8.53	-50.5	-66.1	3.8	1.49e+00	0	40	104	665845760	72	21792
2026-01-16 21:46:29.03	116.08	8.49	-50.6	-66.1	3.8	1.49e+00	0	40	104	665845760	72	21803
2026-01-16 21:46:30.02	116.23	8.45	-50.6	-66.1	3.8	1.49e+00	0	40	104	665845760	72	21926
2026-01-16 21:46:31.01	116.37	8.41	-50.6	-66.1	3.8	1.49e+00	0	40	104	665845760	72	21835
2026-01-16 21:46:32.01	116.52	8.36	-50.6	-66.1	3.8	1.49e+00	0	40	104	665845760	72	21894
2026-01-16 21:46:33.00	116.66	8.32	-50.4	-66.1	3.8	1.49e+00	0	40	104	665845760	72	21946
2026-01-16 21:46:33.99	116.80	8.28	-50.4	-66.1	3.8	1.49e+00	0	40	104	665845760	72	21942
2026-01-16 21:46:34.99	116.95	8.24	-50.4	-66.1	3.8	1.49e+00	0	40	104	665845760	72	21897
2026-01-16 21:46:35.98	117.09	8.19	-50.4	-66.1	3.8	1.49e+00	0	40	104	665845760	72	21882
2026-01-16 21:46:36.97	117.23	8.15	-50.5	-66.1	3.8	1.49e+00	0	40	104	665845760	72	21982
2026-01-16 21:46:37.96	117.37	8.11	-50.6	-66.1	3.8	1.49e+00	0	40	104	665845760	72	21832
2026-01-16 21:46:38.96	117.52	8.06	-50.5	-66.1	3.8	1.49e+00	0	40	104	665845760	72	21798
2026-01-16 21:46:39.95	117.66	8.02	-50.5	-66.0	3.8	1.49e+00	0	40	104	665845760	72	21694
2026-01-16 21:46:40.94	117.80	7.98	-50.5	-66.1	3.8	1.49e+00	0	40	104	665845760	72	21822
2026-01-16 21:46:41.94	117.94	7.94	-50.5	-66.1	3.8	1.49e+00	0	40	104	665845760	72	21780
2026-01-16 21:46:42.93	118.08	7.89	-50.5	-66.1	3.8	1.49e+00	0	40	104	665845760	72	21801
2026-01-16 21:46:43.92	118.22	7.85	-50.5	-66.0	3.8	1.49e+00	0	40	104	665845760	72	21751
2026-01-16 21:46:44.92	118.36	7.81	-50.5	-66.0	3.8	1.49e+00	0	40	104	665845760	72	21747
2026-01-16 21:46:45.91	118.50	7.76	-50.5	-66.1	3.8	1.49e+00	0	40	104	665845760	72	21760
2026-01-16 21:46:46.90	118.63	7.72	-50.5	-66.1	3.8	1.49e+00	0	40	104	665845760	72	21769
2026-01-16 21:46:47.89	118.77	7.68	-50.5	-66.0	3.8	1.49e+00	0	40	104	665845760	72	21714
2026-01-16 21:46:48.89	118.91	7.63	-50.5	-66.0	3.8	1.49e+00	0	40	104	665845760	72	21755
2026-01-16 21:46:49.88	119.05	7.59	-50.5	-66.0	3.8	1.49e+00	0	40	104	665845760	72	21660
2026-01-16 21:46:50.88	119.18	7.54	-50.5	-66.0	3.8	1.49e+00	0	40	104	665845760	72	21655
2026-01-16 21:46:51.87	119.32	7.50	-50.5	-66.0	3.8	1.49e+00	0	40	104	665845760	72	21696
2026-01-16 21:46:52.86	119.46	7.46	-50.5	-66.0	3.8	1.49e+00	0	40	104	665845760	72	21677
2026-01-16 21:46:53.86	119.59	7.41	-50.5	-66.0	3.8	1.49e+00	0	40	104	665845760	72	21702
2026-01-16 21:46:54.85	119.73	7.37	-50.5	-66.1	3.8	1.49e+00	0	40	104	665845760	72	21758
2026-01-16 21:46:55.84	119.86	7.33	-50.5	-66.0	3.8	1.49e+00	0	40	104	665845760	72	21651
2026-01-16 21:46:56.83	120.00	7.28	-50.5	-66.0	3.8	1.49e+00	0	40	104	665845760	72	21649
2026-01-16 21:46:57.83	120.13	7.24	-50.5	-66.0	3.8	1.49e+00	0	40	104	665845760	72	21746
2026-01-16 21:46:58.82	120.26	7.19	-50.5	-66.0	3.8	1.49e+00	0	40	104	665845760	72	21586
2026-01-16 21:46:59.81	120.40	7.15	-50.5	-66.0	3.8	1.49e+00	0	40	104	665845760	72	21629
2026-01-16 21:47:00.81	120.53	7.10	-50.5	-66.0	3.8	1.49e+00	0	40	104	665845760	72	21723
2026-01-16 21:47:01.80	120.66	7.06	-50.5	-66.0	3.8	1.49e+00	0	40	104	665845760	72	21694
2026-01-16 21:47:02.79	120.79	7.02	-50.5	-66.0	3.8	1.49e+00	0	40	104	665845760	72	21658
2026-01-16 21:47:03.79	120.93	6.97	-50.5	-66.0	3.8	1.49e+00	0	40	104	665845760	72	21629
2026-01-16 21:47:04.78	121.06	6.93	-50.5	-66.0	3.8	1.49e+00	0	40	104	665845760	72	21710
2026-01-16 21:47:05.78	121.19	6.88	-50.5	-66.1	3.8	1.49e+00	0	40	104	665845760	72	21762
2026-01-16 21:47:06.77	121.32	6.84	-50.5	-66.0	3.8	1.49e+00	0	40	104	665845760	72	21671
2026-01-16 21:47:07.76	121.45	6.79	-50.5	-66.0	3.8	1.49e+00	0	40	104	665845760	72	21589
2026-01-16 21:47:08.76	121.58	6.75	-50.5	-66.0	3.8	1.49e+00	0	40	104	665845760	72	21670
2026-01-16 21:47:09.75	121.71	6.70	-50.5	-66.0	3.8	1.49e+00	0	40	104	665845760	72	21656
2026-01-16 21:47:10.74	121.84	6.66	-50.4	-66.0	3.8	1.49e+00	0	40	104	665845760	72	21708
2026-01-16 21:47:11.74	121.97	6.61	-50.5	-66.0	3.8	1.49e+00	0	40	104	665845760	72	21688
2026-01-16 21:47:12.73	122.10	6.57	-50.5	-66.0	3.8	1.49e+00	0	40	104	665845760	72	21659
2026-01-16 21:47:13.72	122.22	6.52	-50.5	-66.0	3.8	1.49e+00	0	40	104	665845760	72	21644
2026-01-16 21:47:14.72	122.35	6.48	-50.5	-66.0	3.8	1.49e+00	0	40	104	665845760	72	21648
2026-01-16 21:47:15.71	122.48	6.43	-50.5	-66.0	3.8	1.49e+00	0	40	104	665845760	72	21710
2026-01-16 21:47:16.70	122.60	6.39	-50.5	-66.0	3.8	1.49e+00	0	40	104	665845760	72	21693
2026-01-16 21:47:17.69	122.73	6.34	-50.5	-66.0	3.8	1.49e+00	0	40	104	665845760	72	21643
2026-01-16 21:47:18.69	122.86	6.30	-50.5	-66.0	3.8	1.49e+00	0	40	104	665845760	72	21623
2026-01-16 21:47:19.68	122.98	6.25	-50.5	-66.0	3.8	1.49e+00	0	40	104	665845760	72	21617
2026-01-16 21:47:20.67	123.11	6.21	-50.5	-66.0	3.8	1.49e+00	0	40	104	665845760	72	21702
2026-01-16 21:47:21.67	123.23	6.16	-50.5	-66.0	3.8	1.49e+00	0	40	104	665845760	72	21666
2026-01-16 21:47:22.66	123.36	6.12	-50.5	-66.0	3.8	1.49e+00	0	40	104	665845760	72	21681
2026-01-16 21:47:23.66	123.48	6.07	-50.4	-66.0	3.8	1.49e+00	0	40	104	665845760	72	21689
2026-01-16 21:47:24.65	123.61	6.03	-50.4	-66.0	3.8	1.49e+00	0	40	104	665845760	72	21745
2026-01-16 21:47:25.64	123.73	5.98	-50.5	-66.0	3.8	1.49e+00	0	40	104	665845760	72	21625
2026-01-16 21:47:26.64	123.85	5.94	-50.4	-66.0	3.8	1.49e+00	0	40	104	665845760	72	21628
2026-01-16 21:47:27.63	123.97	5.89	-50.5	-66.0	3.8	1.49e+00	0	40	104	665845760	72	21640
2026-01-16 21:47:28.62	124.10	5.85	-50.4	-66.0	3.8	1.49e+00	0	40	104	665845760	72	21628
2026-01-16 21:47:29.62	124.22	5.80	-50.4	-66.0	3.8	1.49e+00	0	40	104	665845760	72	21624
2026-01-16 21:47:30.61	124.34	5.75	-50.5	-66.0	3.8	1.49e+00	0	40	104	665845760	72	21669
2026-01-16 21:47:31.60	124.46	5.71	-50.5	-66.0	3.8	1.49e+00	0	40	104	665845760	72	21661
2026-01-16 21:47:32.60	124.58	5.66	-50.5	-66.0	3.8	1.49e+00	0	40	104	665845760	72	21577
2026-01-16 21:47:33.59	124.70	5.62	-50.5	-66.0	3.8	1.49e+00	0	40	104	665845760	72	21644
2026-01-16 21:47:34.56	124.82	5.57	-50.5	-66.0	3.8	1.49e+00	0	40	104	665845760	72	21640
2026-01-16 21:47:35.56	124.94	5.53	-50.4	-66.0	3.8	1.49e+00	0	40	104	665845760	72	21611
2026-01-16 21:47:36.55	125.06	5.48	-50.5	-66.0	3.8	1.49e+00	0	40	104	665845760	72	21687
2026-01-16 21:47:37.55	125.18	5.44	-50.5	-66.0	3.8	1.49e+00	0	40	104	665845760	72	21582
2026-01-16 21:47:38.54	125.30	5.39	-50.5	-66.0	3.8	1.49e+00	0	40	104	665845760	72	21662
2026-01-16 21:47:39.53	125.42	5.34	-50.4	-66.0	3.8	1.49e+00	0	40	104	665845760	72	21716
2026-01-16 21:47:40.53	125.53	5.30	-50.4	-66.0	3.8	1.49e+00	0	40	104	665845760	72	21737
2026-01-16 21:47:41.52	125.65	5.25	-50.4	-66.0	3.8	1.49e+00	0	40	104	665845760	72	21658
2026-01-16 21:47:42.51	125.77	5.21	-50.5	-66.0	3.8	1.49e+00	0	40	104	665845760	72	21669
2026-01-16 21:47:43.51	125.89	5.16	-50.5	-66.0	3.8	1.49e+00	0	40	104	665845760	72	21596
2026-01-16 21:47:44.50	126.00	5.11	-50.4	-66.0	3.8	1.49e+00	0	40	104	665845760	72	21566
2026-01-16 21:47:45.49	126.12	5.07	-50.5	-66.0	3.8	1.49e+00	0	40	104	665845760	72	21600
2026-01-16 21:47:46.49	126.23	5.02	-50.5	-66.0	3.8	1.49e+00	0	40	104	665845760	72	21690
2026-01-16 21:47:47.48	126.35	4.98	-50.4	-66.0	3.8	1.49e+00	0	40	104	665845760	72	21588

#Closed at: 2026-01-16 21:47:48
#Recorded file [665 MB]: D:/Data/31040_260117_003852.dat