passes_logs/2026/01/16/T1/T1__20260116_005649_SUOMI_NPP_rec.log

#Pass ID: 20260116_005649_SUOMI NPP
#Satellite: SUOMI NPP
#Configuration: NPP
#almurnet v.1.7.20251203
#Start time: 2026-01-16 00:56:49

#Version: 2.0.20230620
#Station: T1
#Location: 37.570604 lon 55.790049 lat
#TLE: 1 37849U 11061A   26015.52691075  .00000052  00000+0  45753-4 0  9993
#TLE: 2 37849  98.7811 317.5709 0002448  62.7632 297.3794 14.19525354736784

#Time	Az	El	Level	Level2	SNR	BER	BlckErr	Temp	State	Recorded	gain1	gain2
2026-01-16 00:56:49.69	9.31	5.02	-47.6	-64.8	3.8	1.49e+00	0	40	0	0	67	25255
2026-01-16 00:56:50.68	9.26	5.08	-47.5	-64.5	3.8	1.49e+00	0	41	104	0	65	27335
2026-01-16 00:56:51.68	9.20	5.15	-47.4	-64.5	3.8	1.49e+00	0	41	104	0	65	27354
2026-01-16 00:56:52.67	9.14	5.21	-47.4	-64.6	3.8	1.49e+00	0	41	104	0	65	27395
2026-01-16 00:56:53.66	9.09	5.28	-47.4	-64.6	3.8	1.49e+00	0	41	104	0	65	27458
2026-01-16 00:56:54.66	9.03	5.35	-47.4	-64.5	3.8	1.49e+00	0	41	104	0	65	27340
2026-01-16 00:56:55.65	8.97	5.41	-47.5	-64.6	3.8	1.49e+00	0	41	104	0	65	27393
2026-01-16 00:56:56.64	8.91	5.48	-47.5	-64.6	3.8	1.49e+00	0	41	104	0	65	27419
2026-01-16 00:56:57.64	8.85	5.55	-47.4	-64.6	3.8	1.49e+00	0	41	104	0	65	27424
2026-01-16 00:56:58.63	8.80	5.61	-47.5	-64.6	3.8	1.49e+00	0	41	104	0	65	27396
2026-01-16 00:56:59.62	8.74	5.68	-47.5	-64.6	3.8	1.49e+00	0	41	104	0	65	27509
2026-01-16 00:57:00.62	8.68	5.75	-47.4	-64.6	3.8	1.49e+00	0	41	104	0	65	27552
2026-01-16 00:57:01.61	8.62	5.81	-47.5	-64.6	3.8	1.49e+00	0	41	104	0	65	27580
2026-01-16 00:57:02.60	8.56	5.88	-47.4	-64.6	3.8	1.49e+00	0	41	104	0	65	27441
2026-01-16 00:57:03.60	8.50	5.95	-47.5	-64.5	3.8	1.49e+00	0	41	104	0	65	27378
2026-01-16 00:57:04.59	8.44	6.01	-47.4	-64.5	3.8	1.49e+00	0	41	104	0	65	27332
2026-01-16 00:57:05.58	8.38	6.08	-47.4	-64.5	3.8	1.49e+00	0	41	104	0	65	27130
2026-01-16 00:57:06.57	8.31	6.15	-47.4	-64.4	3.8	1.49e+00	0	41	104	0	65	26996
2026-01-16 00:57:07.57	8.25	6.22	-47.4	-64.4	3.8	1.49e+00	0	41	104	0	65	26855
2026-01-16 00:57:08.56	8.19	6.29	-47.4	-64.3	3.8	1.49e+00	0	41	104	0	65	26546
2026-01-16 00:57:09.56	8.13	6.35	-47.4	-64.2	3.8	1.49e+00	0	41	104	0	65	26448
2026-01-16 00:57:10.55	8.07	6.42	-47.4	-64.2	3.8	1.49e+00	0	41	104	0	65	26361
2026-01-16 00:57:11.54	8.00	6.49	-47.4	-64.2	3.8	1.49e+00	0	41	104	0	65	26232
2026-01-16 00:57:12.54	7.94	6.56	-47.4	-64.2	3.8	1.49e+00	0	41	104	0	65	26319
2026-01-16 00:57:13.53	7.88	6.63	-47.4	-64.1	3.8	1.49e+00	0	42	104	0	65	25876
2026-01-16 00:57:14.52	7.81	6.70	-47.4	-63.9	3.8	1.49e+00	0	41	104	0	65	25465
2026-01-16 00:57:15.52	7.75	6.77	-47.4	-63.8	3.8	1.49e+00	0	41	104	0	65	25199
2026-01-16 00:57:16.51	7.68	6.84	-47.4	-63.7	3.8	1.49e+00	0	42	104	0	65	24820
2026-01-16 00:57:17.50	7.62	6.90	-47.4	-63.6	3.8	1.49e+00	0	42	104	0	65	24561
2026-01-16 00:57:18.50	7.55	6.97	-47.4	-63.6	3.8	1.49e+00	0	42	104	0	65	24596
2026-01-16 00:57:19.49	7.49	7.04	-47.4	-63.7	3.8	1.49e+00	0	42	104	0	65	24819
2026-01-16 00:57:20.48	7.42	7.11	-47.5	-64.0	3.8	1.49e+00	0	42	104	0	65	25584
2026-01-16 00:57:21.48	7.36	7.18	-47.5	-64.2	3.8	1.49e+00	0	42	104	0	65	26251
2026-01-16 00:57:22.47	7.29	7.25	-47.5	-64.4	3.8	1.49e+00	0	42	104	0	65	27070
2026-01-16 00:57:23.46	7.22	7.32	-47.5	-64.5	3.8	1.49e+00	0	42	104	0	65	27142
2026-01-16 00:57:24.46	7.16	7.40	-47.4	-64.2	3.8	1.49e+00	0	42	104	0	65	26397
2026-01-16 00:57:25.45	7.09	7.47	-47.4	-63.6	3.8	1.49e+00	0	42	104	0	65	24451
2026-01-16 00:57:26.44	7.02	7.54	-47.4	-62.7	3.8	1.49e+00	0	42	104	0	65	22148
2026-01-16 00:57:27.44	6.95	7.61	-47.3	-61.5	3.9	1.48e+00	0	42	104	0	65	19367
2026-01-16 00:57:28.43	6.89	7.68	-47.2	-60.2	4.4	1.34e+00	0	42	0	0	65	16551
2026-01-16 00:57:29.42	6.82	7.75	-47.2	-59.0	5.0	9.18e-01	0	42	0	2097152	65	14478
2026-01-16 00:57:30.41	6.75	7.82	-47.0	-57.9	5.6	5.34e-01	0	42	0	4194304	65	12749
2026-01-16 00:57:31.41	6.68	7.89	-46.9	-57.1	6.3	3.46e-01	0	42	0	6291456	65	11552
2026-01-16 00:57:32.40	6.61	7.96	-46.8	-56.2	7.0	2.07e-01	0	42	0	7340032	65	10510
2026-01-16 00:57:33.39	6.54	8.04	-46.6	-55.2	8.0	1.20e-01	0	42	0	9437184	65	9320
2026-01-16 00:57:34.39	6.47	8.11	-46.5	-54.4	8.8	4.29e-02	0	42	0	11534336	65	8508
2026-01-16 00:57:35.38	6.40	8.18	-46.3	-53.6	9.6	1.81e-02	0	42	0	13631488	64	8261
2026-01-16 00:57:36.37	6.33	8.25	-46.1	-52.9	10.4	6.85e-03	0	42	0	14680064	64	7548
2026-01-16 00:57:37.37	6.25	8.33	-45.9	-52.2	11.2	1.80e-03	0	42	0	16777216	63	7374
2026-01-16 00:57:38.36	6.18	8.40	-45.6	-51.4	11.9	7.22e-04	0	42	0	18874368	63	6745
2026-01-16 00:57:39.35	6.11	8.47	-45.5	-51.1	12.3	3.21e-04	0	42	0	20971520	63	6512
2026-01-16 00:57:40.35	6.04	8.54	-45.4	-50.8	12.6	1.52e-04	0	42	0	23068672	62	6694
2026-01-16 00:57:41.34	5.96	8.62	-45.4	-50.7	12.8	5.26e-05	0	42	0	24117248	62	6571
2026-01-16 00:57:42.33	5.89	8.69	-45.5	-50.9	12.5	1.07e-04	0	42	0	26214400	62	6761
2026-01-16 00:57:43.33	5.82	8.76	-45.6	-51.3	12.1	1.50e-04	0	42	0	28311552	62	7091
2026-01-16 00:57:44.32	5.74	8.84	-45.9	-52.1	11.3	2.45e-04	0	42	0	30408704	62	7759
2026-01-16 00:57:45.31	5.67	8.91	-46.2	-52.9	10.4	3.30e-03	0	42	0	31457280	62	8558
2026-01-16 00:57:46.31	5.59	8.99	-46.5	-54.2	9.1	1.30e-02	0	42	0	33554432	63	9334
2026-01-16 00:57:47.30	5.52	9.06	-46.8	-55.8	7.4	5.68e-02	0	42	0	35651584	64	10616
2026-01-16 00:57:48.56	5.42	9.16	-46.7	-57.6	6.0	7.79e-02	0	42	0	37748736	64	13042
2026-01-16 00:57:49.35	5.36	9.21	-47.0	-57.7	5.7	8.97e-01	0	42	0	39845888	65	12428
2026-01-16 00:57:50.62	5.26	9.31	-45.8	-50.6	12.8	1.35e-02	0	42	0	41943040	63	6146
2026-01-16 00:57:51.41	5.20	9.37	-46.4	-52.1	11.5	2.51e-05	0	42	0	42991616	63	7328
2026-01-16 00:57:52.58	5.11	9.46	-46.6	-53.1	9.6	1.43e+00	0	43	0	44040192	65	7312
2026-01-16 00:57:53.43	5.04	9.52	-45.6	-49.8	13.6	7.47e-05	0	43	0	45088768	62	5943
2026-01-16 00:57:54.56	4.95	9.61	-45.2	-49.2	14.3	4.50e-06	0	42	0	47185920	62	5553
2026-01-16 00:57:55.42	4.88	9.67	-45.4	-49.3	14.1	3.00e-06	0	42	0	49283072	62	5653
2026-01-16 00:57:56.55	4.79	9.76	-45.2	-49.1	14.3	7.00e-07	0	42	0	51380224	62	5507
2026-01-16 00:57:57.40	4.72	9.83	-45.3	-49.2	14.3	1.50e-06	0	42	0	52428800	62	5550
2026-01-16 00:57:58.54	4.63	9.91	-45.2	-49.1	14.3	7.00e-07	0	43	0	54525952	62	5521
2026-01-16 00:57:59.39	4.56	9.98	-45.2	-49.2	14.3	0.00e+00	0	42	0	56623104	62	5563
2026-01-16 00:58:00.53	4.47	10.07	-45.3	-49.3	14.2	1.50e-06	0	43	0	58720256	62	5606
2026-01-16 00:58:01.38	4.40	10.13	-45.2	-49.3	14.2	1.50e-06	0	43	0	59768832	62	5609
2026-01-16 00:58:02.52	4.30	10.22	-45.0	-48.9	14.5	1.50e-06	0	43	0	61865984	61	5670
2026-01-16 00:58:03.37	4.23	10.29	-44.9	-48.9	14.6	7.00e-07	0	42	0	63963136	61	5661
2026-01-16 00:58:04.51	4.14	10.37	-44.9	-48.9	14.5	1.50e-06	0	43	0	66060288	61	5708
2026-01-16 00:58:05.36	4.07	10.44	-44.6	-48.4	15.0	0.00e+00	0	43	0	68157440	61	5398
2026-01-16 00:58:06.50	3.97	10.53	-44.7	-48.7	14.8	0.00e+00	0	43	0	70254592	61	5558
2026-01-16 00:58:07.40	3.89	10.60	-44.6	-48.5	15.0	0.00e+00	0	43	0	71303168	61	5435
2026-01-16 00:58:08.49	3.80	10.69	-44.6	-48.5	15.0	0.00e+00	0	43	0	73400320	60	5757
2026-01-16 00:58:09.34	3.73	10.75	-44.5	-48.3	15.2	0.00e+00	0	43	0	75497472	60	5603
2026-01-16 00:58:10.47	3.63	10.84	-44.3	-48.1	15.4	0.00e+00	0	43	0	77594624	60	5466
2026-01-16 00:58:11.32	3.56	10.91	-44.4	-48.1	15.4	0.00e+00	0	42	0	78643200	60	5492
2026-01-16 00:58:12.46	3.46	11.00	-44.3	-48.0	15.4	0.00e+00	0	43	0	80740352	60	5446
2026-01-16 00:58:13.31	3.38	11.07	-44.2	-47.9	15.6	0.00e+00	0	43	0	82837504	60	5360
2026-01-16 00:58:14.45	3.28	11.16	-44.4	-48.1	15.4	0.00e+00	0	43	0	84934656	60	5468
2026-01-16 00:58:15.30	3.21	11.23	-44.4	-48.0	15.5	0.00e+00	0	43	0	85983232	60	5458
2026-01-16 00:58:16.44	3.10	11.32	-44.1	-47.8	15.7	0.00e+00	0	43	0	88080384	60	5329
2026-01-16 00:58:17.30	3.03	11.39	-44.2	-47.9	15.6	0.00e+00	0	43	0	90177536	60	5399
2026-01-16 00:58:18.50	2.92	11.48	-44.2	-47.8	15.6	0.00e+00	0	43	0	92274688	60	5327
2026-01-16 00:58:19.35	2.84	11.55	-44.2	-48.0	15.5	0.00e+00	0	43	0	94371840	60	5438
2026-01-16 00:58:20.48	2.74	11.64	-44.1	-47.9	15.6	0.00e+00	0	43	0	96468992	60	5394
2026-01-16 00:58:21.34	2.66	11.71	-44.1	-47.8	15.7	0.00e+00	0	43	0	97517568	60	5327
2026-01-16 00:58:22.47	2.55	11.80	-44.3	-48.1	15.4	0.00e+00	0	43	0	99614720	60	5517
2026-01-16 00:58:23.33	2.47	11.87	-44.4	-48.2	15.3	0.00e+00	0	43	0	101711872	60	5562
2026-01-16 00:58:24.46	2.37	11.97	-44.3	-48.0	15.5	0.00e+00	0	43	0	103809024	60	5417
2026-01-16 00:58:25.31	2.29	12.04	-44.3	-48.1	15.4	0.00e+00	0	43	0	104857600	60	5526
2026-01-16 00:58:26.45	2.18	12.13	-44.3	-48.1	15.4	0.00e+00	0	43	0	106954752	60	5524
2026-01-16 00:58:27.31	2.10	12.20	-44.4	-48.1	15.4	0.00e+00	0	43	0	109051904	60	5501
2026-01-16 00:58:28.44	1.99	12.29	-44.4	-48.1	15.4	0.00e+00	0	43	0	111149056	60	5519
2026-01-16 00:58:29.30	1.91	12.36	-44.5	-48.2	15.4	0.00e+00	0	43	0	112197632	60	5554
2026-01-16 00:58:30.43	1.80	12.46	-44.5	-48.2	15.4	0.00e+00	0	43	0	114294784	60	5558
2026-01-16 00:58:31.29	1.71	12.53	-44.5	-48.3	15.3	0.00e+00	0	43	0	116391936	60	5593
2026-01-16 00:58:32.42	1.60	12.62	-44.5	-48.3	15.3	0.00e+00	0	43	0	118489088	60	5614
2026-01-16 00:58:33.28	1.52	12.69	-44.5	-48.3	15.3	0.00e+00	0	43	0	119537664	60	5600
2026-01-16 00:58:34.41	1.41	12.79	-44.4	-48.1	15.5	0.00e+00	0	43	0	121634816	60	5504
2026-01-16 00:58:35.27	1.32	12.86	-44.5	-48.3	15.3	0.00e+00	0	43	0	123731968	60	5608
2026-01-16 00:58:36.40	1.21	12.96	-44.6	-48.4	15.2	0.00e+00	0	43	0	125829120	60	5660
2026-01-16 00:58:37.26	1.12	13.03	-44.5	-48.2	15.3	0.00e+00	0	43	0	127926272	60	5579
2026-01-16 00:58:38.39	1.01	13.12	-44.6	-48.5	15.1	0.00e+00	0	43	0	130023424	60	5752
2026-01-16 00:58:39.25	0.92	13.20	-44.7	-48.6	15.0	0.00e+00	0	43	0	131072000	60	5802
2026-01-16 00:58:40.59	0.78	13.31	-44.6	-48.4	15.2	0.00e+00	0	43	0	133169152	60	5659
2026-01-16 00:58:41.30	0.71	13.37	-44.7	-48.5	15.1	0.00e+00	0	43	0	135266304	60	5756
2026-01-16 00:58:42.58	0.57	13.48	-44.9	-48.7	14.9	0.00e+00	0	43	0	137363456	60	5895
2026-01-16 00:58:43.30	0.50	13.54	-44.9	-48.8	14.9	0.00e+00	0	43	0	138412032	60	5935
2026-01-16 00:58:44.58	0.36	13.65	-44.8	-48.6	15.0	0.00e+00	0	43	0	141557760	60	5851
2026-01-16 00:58:45.31	0.29	13.71	-44.7	-48.4	15.2	0.00e+00	0	43	0	142606336	60	5711
2026-01-16 00:58:46.59	0.15	13.82	-44.7	-48.4	15.2	0.00e+00	0	43	0	144703488	60	5714
2026-01-16 00:58:47.32	0.07	13.89	-44.5	-48.2	15.4	0.00e+00	0	43	0	146800640	60	5578
2026-01-16 00:58:48.60	359.93	14.00	-44.5	-48.1	15.5	0.00e+00	0	43	0	148897792	60	5509
2026-01-16 00:58:49.42	359.84	14.07	-44.5	-48.1	15.5	0.00e+00	0	43	0	149946368	60	5520
2026-01-16 00:58:50.55	359.72	14.17	-44.5	-48.0	15.5	0.00e+00	0	43	0	152043520	60	5447
2026-01-16 00:58:51.41	359.63	14.24	-44.5	-48.0	15.6	0.00e+00	0	43	0	154140672	60	5422
2026-01-16 00:58:52.54	359.50	14.34	-44.4	-47.9	15.7	0.00e+00	0	43	0	156237824	60	5395
2026-01-16 00:58:53.40	359.41	14.41	-44.3	-47.9	15.7	0.00e+00	0	43	0	157286400	60	5356
2026-01-16 00:58:54.53	359.28	14.51	-44.3	-47.9	15.7	0.00e+00	0	43	0	159383552	60	5390
2026-01-16 00:58:55.39	359.18	14.59	-44.2	-47.8	15.9	0.00e+00	0	43	0	161480704	60	5282
2026-01-16 00:58:56.52	359.05	14.69	-44.1	-47.6	16.0	0.00e+00	0	43	0	163577856	60	5194
2026-01-16 00:58:57.38	358.96	14.76	-44.2	-47.7	15.9	0.00e+00	0	43	0	165675008	60	5243
2026-01-16 00:58:58.61	358.82	14.87	-44.0	-47.4	16.2	0.00e+00	0	43	0	167772160	60	5042
2026-01-16 00:58:59.46	358.72	14.95	-44.1	-47.4	16.2	0.00e+00	0	43	0	168820736	59	5373
2026-01-16 00:59:00.60	358.59	15.05	-44.0	-47.4	16.1	0.00e+00	0	43	0	170917888	59	5379
2026-01-16 00:59:01.45	358.49	15.13	-43.9	-47.1	16.5	0.00e+00	0	43	0	173015040	59	5206
2026-01-16 00:59:02.59	358.35	15.23	-43.8	-47.1	16.5	0.00e+00	0	43	0	175112192	59	5168
2026-01-16 00:59:03.44	358.25	15.30	-43.9	-47.1	16.5	0.00e+00	0	43	0	176160768	59	5208
2026-01-16 00:59:04.58	358.12	15.41	-43.7	-47.0	16.6	0.00e+00	0	43	0	178257920	59	5109
2026-01-16 00:59:05.43	358.01	15.48	-43.7	-47.0	16.6	0.00e+00	0	43	0	180355072	59	5117
2026-01-16 00:59:06.56	357.88	15.58	-43.7	-47.1	16.4	0.00e+00	0	43	0	182452224	59	5192
2026-01-16 00:59:07.42	357.77	15.66	-43.8	-47.1	16.4	0.00e+00	0	43	0	184549376	59	5214
2026-01-16 00:59:08.55	357.64	15.76	-43.8	-47.2	16.4	0.00e+00	0	43	0	186646528	59	5259
2026-01-16 00:59:09.41	357.53	15.84	-43.5	-46.9	16.7	0.00e+00	0	43	0	187695104	59	5059
2026-01-16 00:59:10.54	357.39	15.95	-43.9	-47.4	16.2	0.00e+00	0	43	0	189792256	59	5383
2026-01-16 00:59:11.39	357.29	16.02	-43.8	-47.3	16.2	0.00e+00	0	43	0	191889408	59	5338
2026-01-16 00:59:12.53	357.14	16.13	-44.0	-47.7	15.9	0.00e+00	0	43	0	193986560	59	5547
2026-01-16 00:59:13.38	357.04	16.20	-44.0	-47.7	16.0	0.00e+00	0	43	0	195035136	59	5530
2026-01-16 00:59:14.58	356.88	16.31	-44.1	-47.7	15.8	0.00e+00	0	43	0	197132288	59	5591
2026-01-16 00:59:15.43	356.78	16.39	-44.2	-47.9	15.7	0.00e+00	0	43	0	199229440	59	5699
2026-01-16 00:59:16.64	356.62	16.50	-44.2	-47.9	15.7	0.00e+00	0	43	0	201326592	59	5707
2026-01-16 00:59:17.49	356.51	16.58	-44.2	-47.8	15.9	0.00e+00	0	43	0	202375168	59	5597
2026-01-16 00:59:18.62	356.36	16.69	-44.3	-48.0	15.6	0.00e+00	0	43	0	205520896	59	5767
2026-01-16 00:59:19.48	356.25	16.77	-44.2	-47.9	15.7	0.00e+00	0	43	0	206569472	59	5666
2026-01-16 00:59:20.62	356.10	16.87	-44.3	-47.8	15.8	0.00e+00	0	43	0	208666624	59	5619
2026-01-16 00:59:21.47	355.99	16.95	-44.3	-47.8	15.8	0.00e+00	0	43	0	210763776	59	5633
2026-01-16 00:59:22.61	355.84	17.06	-44.3	-47.5	16.0	0.00e+00	0	43	0	212860928	59	5461
2026-01-16 00:59:23.57	355.71	17.15	-44.3	-47.4	16.2	0.00e+00	0	43	0	213909504	59	5356
2026-01-16 00:59:24.56	355.57	17.24	-44.4	-47.5	16.1	0.00e+00	0	43	0	216006656	59	5463
2026-01-16 00:59:25.56	355.44	17.33	-44.3	-47.2	16.4	0.00e+00	0	43	0	218103808	59	5260
2026-01-16 00:59:26.56	355.30	17.43	-44.3	-47.2	16.4	0.00e+00	0	43	0	220200960	59	5277
2026-01-16 00:59:27.55	355.17	17.52	-44.3	-47.2	16.4	0.00e+00	0	43	0	222298112	59	5236
2026-01-16 00:59:28.55	355.03	17.62	-44.6	-47.6	16.0	0.00e+00	0	43	0	223346688	59	5527
2026-01-16 00:59:29.54	354.89	17.71	-44.6	-47.8	15.9	0.00e+00	0	43	0	225443840	60	5307
2026-01-16 00:59:30.54	354.75	17.81	-44.7	-48.0	15.7	0.00e+00	0	43	0	227540992	60	5406
2026-01-16 00:59:31.53	354.61	17.90	-44.5	-47.8	15.9	0.00e+00	0	43	0	229638144	60	5331
2026-01-16 00:59:32.53	354.47	17.99	-44.4	-47.8	15.9	0.00e+00	0	43	0	230686720	60	5316
2026-01-16 00:59:33.52	354.33	18.09	-44.4	-47.9	15.8	0.00e+00	0	43	0	232783872	60	5381
2026-01-16 00:59:34.52	354.18	18.18	-44.5	-48.0	15.7	0.00e+00	0	43	0	234881024	60	5458
2026-01-16 00:59:35.51	354.04	18.28	-44.5	-48.1	15.7	0.00e+00	0	43	0	236978176	60	5480
2026-01-16 00:59:36.51	353.89	18.38	-44.7	-48.3	15.3	0.00e+00	0	43	0	239075328	60	5621
2026-01-16 00:59:37.50	353.75	18.47	-44.6	-48.1	15.6	0.00e+00	0	43	0	240123904	60	5500
2026-01-16 00:59:38.50	353.60	18.57	-44.8	-48.3	15.4	0.00e+00	0	43	0	242221056	60	5645
2026-01-16 00:59:39.49	353.45	18.66	-44.7	-48.2	15.5	0.00e+00	0	43	0	244318208	60	5576
2026-01-16 00:59:40.49	353.30	18.76	-44.7	-48.2	15.5	0.00e+00	0	43	0	246415360	60	5580
2026-01-16 00:59:41.48	353.16	18.85	-44.6	-48.1	15.7	0.00e+00	0	43	0	247463936	60	5489
2026-01-16 00:59:42.48	353.00	18.95	-44.6	-48.2	15.5	0.00e+00	0	43	0	249561088	60	5581
2026-01-16 00:59:43.48	352.85	19.05	-44.7	-48.4	15.2	0.00e+00	0	43	0	251658240	60	5697
2026-01-16 00:59:44.47	352.70	19.15	-44.6	-48.3	15.4	0.00e+00	0	43	0	253755392	60	5628
2026-01-16 00:59:45.46	352.55	19.24	-44.6	-48.6	15.2	0.00e+00	0	43	0	255852544	60	5805
2026-01-16 00:59:46.46	352.39	19.34	-44.7	-48.9	14.8	0.00e+00	0	43	0	256901120	60	6021
2026-01-16 00:59:47.45	352.24	19.44	-44.5	-48.5	15.2	0.00e+00	0	43	0	258998272	60	5788
2026-01-16 00:59:48.45	352.08	19.53	-44.5	-48.6	15.2	1.50e-06	0	43	0	261095424	60	5793
2026-01-16 00:59:49.44	351.92	19.63	-44.4	-48.5	15.3	7.00e-07	0	43	0	263192576	60	5736
2026-01-16 00:59:50.44	351.76	19.73	-44.5	-48.5	15.3	0.00e+00	0	43	0	264241152	60	5742
2026-01-16 00:59:51.43	351.60	19.83	-44.4	-48.4	15.4	0.00e+00	0	43	0	266338304	60	5668
2026-01-16 00:59:52.43	351.44	19.93	-44.5	-48.3	15.5	0.00e+00	0	43	0	268435456	60	5624
2026-01-16 00:59:53.42	351.28	20.02	-44.4	-48.0	15.8	0.00e+00	0	43	0	270532608	60	5429
2026-01-16 00:59:54.46	351.11	20.13	-44.6	-48.3	15.5	0.00e+00	0	43	0	272629760	60	5600
2026-01-16 00:59:55.45	350.95	20.22	-44.5	-47.8	16.0	0.00e+00	0	43	0	273678336	60	5297
2026-01-16 00:59:56.45	350.78	20.32	-44.6	-47.7	16.0	0.00e+00	0	43	0	275775488	60	5273
2026-01-16 00:59:57.44	350.62	20.42	-44.9	-48.1	15.6	0.00e+00	0	43	0	277872640	60	5520
2026-01-16 00:59:58.44	350.45	20.52	-44.9	-48.1	15.7	0.00e+00	0	43	0	279969792	60	5502
2026-01-16 00:59:59.44	350.28	20.62	-44.9	-48.2	15.5	0.00e+00	0	43	0	281018368	60	5571
2026-01-16 01:00:00.43	350.11	20.72	-44.8	-48.0	15.8	0.00e+00	0	43	0	283115520	60	5428
2026-01-16 01:00:01.43	349.94	20.82	-44.8	-48.1	15.7	0.00e+00	0	43	0	285212672	60	5498
2026-01-16 01:00:02.42	349.77	20.92	-45.2	-48.7	15.1	0.00e+00	0	43	0	287309824	60	5915
2026-01-16 01:00:03.42	349.59	21.02	-44.8	-48.1	15.7	0.00e+00	0	43	0	289406976	60	5498
2026-01-16 01:00:04.41	349.42	21.12	-44.8	-48.1	15.6	0.00e+00	0	43	0	290455552	60	5524
2026-01-16 01:00:05.41	349.24	21.22	-44.8	-48.1	15.7	0.00e+00	0	43	0	292552704	60	5493
2026-01-16 01:00:06.40	349.07	21.32	-44.9	-48.1	15.7	0.00e+00	0	43	0	294649856	60	5508
2026-01-16 01:00:07.40	348.89	21.42	-44.9	-48.2	15.6	0.00e+00	0	43	0	296747008	60	5536
2026-01-16 01:00:08.39	348.71	21.52	-44.8	-47.9	16.0	0.00e+00	0	43	0	297795584	60	5352
2026-01-16 01:00:09.39	348.53	21.62	-44.9	-48.0	15.8	0.00e+00	0	43	0	299892736	60	5420
2026-01-16 01:00:10.38	348.35	21.72	-45.1	-48.3	15.5	0.00e+00	0	43	0	301989888	60	5613
2026-01-16 01:00:11.38	348.17	21.82	-44.8	-47.9	15.8	0.00e+00	0	43	0	304087040	60	5389
2026-01-16 01:00:12.37	347.99	21.92	-45.0	-48.2	15.6	0.00e+00	0	43	0	306184192	60	5555
2026-01-16 01:00:13.37	347.80	22.02	-45.1	-48.5	15.4	0.00e+00	0	43	0	307232768	61	5410
2026-01-16 01:00:14.36	347.62	22.12	-45.1	-48.6	15.2	0.00e+00	0	43	0	309329920	61	5515
2026-01-16 01:00:15.36	347.43	22.22	-45.2	-48.8	15.0	0.00e+00	0	43	0	311427072	61	5612
2026-01-16 01:00:16.35	347.24	22.32	-45.4	-49.2	14.7	0.00e+00	0	43	0	313524224	61	5881
2026-01-16 01:00:17.35	347.05	22.42	-45.4	-49.2	14.6	7.00e-07	0	43	0	315621376	61	5888
2026-01-16 01:00:18.34	346.86	22.52	-45.7	-49.7	14.2	0.00e+00	0	43	0	316669952	61	6209
2026-01-16 01:00:19.34	346.67	22.62	-45.6	-49.3	14.5	0.00e+00	0	43	0	318767104	62	5650
2026-01-16 01:00:20.33	346.47	22.72	-45.5	-49.1	14.7	0.00e+00	0	43	0	320864256	62	5484
2026-01-16 01:00:21.32	346.28	22.83	-45.4	-49.1	14.8	7.00e-07	0	43	0	322961408	62	5469
2026-01-16 01:00:22.32	346.08	22.93	-45.5	-49.1	14.7	0.00e+00	0	43	0	324009984	62	5520
2026-01-16 01:00:23.32	345.89	23.03	-45.4	-49.1	14.8	0.00e+00	0	43	0	326107136	62	5491
2026-01-16 01:00:24.34	345.68	23.13	-45.3	-49.3	14.6	1.50e-06	0	43	0	328204288	62	5617
2026-01-16 01:00:25.37	345.48	23.24	-45.2	-49.4	14.5	1.50e-06	0	43	0	330301440	62	5677
2026-01-16 01:00:26.40	345.27	23.34	-45.1	-49.6	14.2	0.00e+00	0	43	0	332398592	61	6181
2026-01-16 01:00:27.39	345.07	23.44	-44.9	-49.6	14.3	0.00e+00	0	43	0	333447168	61	6162
2026-01-16 01:00:28.45	344.85	23.55	-44.6	-49.3	14.6	0.00e+00	0	43	0	335544320	61	5935
2026-01-16 01:00:29.35	344.66	23.64	-44.5	-48.9	15.0	0.00e+00	0	43	0	337641472	60	5998
2026-01-16 01:00:30.36	344.45	23.74	-44.4	-48.4	15.5	0.00e+00	0	43	0	339738624	60	5669
2026-01-16 01:00:31.35	344.25	23.84	-44.3	-48.0	15.8	0.00e+00	0	43	0	341835776	60	5455
2026-01-16 01:00:32.55	343.99	23.97	-44.6	-48.1	15.7	7.00e-07	0	43	0	343932928	60	5519
2026-01-16 01:00:33.41	343.81	24.05	-44.5	-47.8	16.0	0.00e+00	0	43	0	344981504	60	5301
2026-01-16 01:00:34.54	343.57	24.17	-44.7	-47.9	15.9	0.00e+00	0	43	0	347078656	60	5368
2026-01-16 01:00:35.40	343.38	24.26	-44.6	-47.7	16.1	0.00e+00	0	43	0	349175808	60	5270
2026-01-16 01:00:36.53	343.14	24.37	-44.7	-47.7	16.1	0.00e+00	0	43	0	351272960	60	5269
2026-01-16 01:00:37.39	342.95	24.46	-44.7	-47.8	16.1	0.00e+00	0	43	0	352321536	60	5284
2026-01-16 01:00:38.53	342.70	24.57	-44.8	-48.1	15.7	0.00e+00	0	43	0	354418688	60	5519
2026-01-16 01:00:39.38	342.52	24.66	-45.0	-48.6	15.2	0.00e+00	0	43	0	356515840	60	5829
2026-01-16 01:00:40.52	342.26	24.77	-44.9	-48.6	15.3	0.00e+00	0	43	0	358612992	60	5796
2026-01-16 01:00:41.37	342.07	24.86	-45.0	-48.8	15.1	0.00e+00	0	43	0	359661568	60	5925
2026-01-16 01:00:42.51	341.82	24.98	-45.0	-48.5	15.3	0.00e+00	0	43	0	362807296	61	5438
2026-01-16 01:00:43.36	341.62	25.06	-44.9	-48.3	15.5	0.00e+00	0	43	0	363855872	61	5303
2026-01-16 01:00:44.50	341.37	25.18	-45.0	-48.3	15.5	0.00e+00	0	43	0	365953024	61	5334
2026-01-16 01:00:45.35	341.17	25.26	-44.8	-47.9	15.8	0.00e+00	0	43	0	368050176	61	5093
2026-01-16 01:00:46.49	340.91	25.38	-44.7	-47.8	16.0	0.00e+00	0	43	0	370147328	61	5007
2026-01-16 01:00:47.34	340.71	25.46	-44.8	-47.9	15.9	0.00e+00	0	43	0	371195904	61	5083
2026-01-16 01:00:48.48	340.44	25.58	-44.8	-47.9	15.9	0.00e+00	0	43	0	373293056	61	5087
2026-01-16 01:00:49.33	340.24	25.66	-44.9	-48.1	15.7	0.00e+00	0	43	0	375390208	61	5199
2026-01-16 01:00:50.47	339.97	25.78	-45.1	-48.4	15.4	0.00e+00	0	43	0	377487360	61	5382
2026-01-16 01:00:51.31	339.77	25.86	-45.0	-48.4	15.5	0.00e+00	0	43	0	378535936	61	5345
2026-01-16 01:00:52.45	339.50	25.97	-45.1	-48.5	15.3	0.00e+00	0	43	0	380633088	61	5440
2026-01-16 01:00:53.31	339.29	26.06	-45.1	-48.5	15.3	7.00e-07	0	43	0	382730240	61	5433
2026-01-16 01:00:54.44	339.02	26.17	-44.9	-48.1	15.7	0.00e+00	0	43	0	384827392	61	5217
2026-01-16 01:00:55.30	338.81	26.26	-44.7	-47.8	16.0	0.00e+00	0	43	0	385875968	61	5020
2026-01-16 01:00:56.43	338.53	26.37	-44.8	-48.0	15.8	0.00e+00	0	43	0	387973120	61	5109
2026-01-16 01:00:57.28	338.32	26.45	-44.9	-48.1	15.7	0.00e+00	0	43	0	390070272	61	5178
2026-01-16 01:00:58.42	338.04	26.56	-44.9	-48.2	15.7	0.00e+00	0	43	0	392167424	61	5219
2026-01-16 01:00:59.27	337.82	26.65	-45.4	-48.8	14.9	7.00e-07	0	43	0	394264576	61	5651
2026-01-16 01:01:00.41	337.54	26.76	-45.4	-48.9	14.9	7.00e-07	0	43	0	396361728	61	5681
2026-01-16 01:01:01.27	337.32	26.84	-45.7	-49.4	14.4	0.00e+00	0	43	0	397410304	61	6033
2026-01-16 01:01:02.58	336.99	26.97	-45.2	-48.6	15.3	0.00e+00	0	43	0	399507456	61	5516
2026-01-16 01:01:03.29	336.80	27.04	-44.9	-48.0	15.8	0.00e+00	0	43	0	401604608	61	5152
2026-01-16 01:01:04.77	336.42	27.18	-44.3	-47.2	16.7	0.00e+00	0	43	0	403701760	60	4929
2026-01-16 01:01:05.48	336.24	27.25	-44.2	-47.1	16.7	0.00e+00	0	43	0	405798912	60	4881
2026-01-16 01:01:06.77	335.90	27.38	-44.0	-46.8	17.0	0.00e+00	0	43	0	407896064	59	4985
2026-01-16 01:01:07.49	335.71	27.44	-43.8	-46.6	17.2	0.00e+00	0	43	0	408944640	59	4872
2026-01-16 01:01:08.77	335.37	27.57	-43.8	-46.6	17.1	0.00e+00	0	43	0	411041792	59	4894
2026-01-16 01:01:09.49	335.18	27.64	-43.9	-46.7	16.9	0.00e+00	0	43	0	413138944	59	4982
2026-01-16 01:01:10.78	334.83	27.76	-44.4	-47.5	16.2	0.00e+00	0	43	0	415236096	59	5429
2026-01-16 01:01:11.49	334.64	27.82	-44.8	-48.2	15.6	0.00e+00	0	43	0	416284672	60	5537
2026-01-16 01:01:12.77	334.29	27.95	-45.0	-48.6	15.2	0.00e+00	0	43	0	419430400	60	5848
2026-01-16 01:01:13.48	334.10	28.01	-45.0	-48.7	15.2	0.00e+00	0	43	0	420478976	60	5858
2026-01-16 01:01:14.76	333.75	28.13	-44.9	-48.6	15.3	0.00e+00	0	43	0	422576128	60	5820
2026-01-16 01:01:15.59	333.52	28.21	-44.8	-48.5	15.4	0.00e+00	0	43	0	424673280	60	5732
2026-01-16 01:01:16.73	333.20	28.31	-44.6	-48.1	15.7	0.00e+00	0	43	0	426770432	60	5519
2026-01-16 01:01:17.79	332.90	28.41	-44.8	-48.5	15.3	0.00e+00	0	43	0	428867584	60	5770
2026-01-16 01:01:18.85	332.60	28.51	-45.4	-49.5	14.3	0.00e+00	0	43	0	430964736	61	6083
2026-01-16 01:01:19.73	332.35	28.59	-45.7	-50.0	13.9	7.00e-07	0	43	0	432013312	61	6446
2026-01-16 01:01:20.87	332.03	28.69	-45.9	-50.2	13.7	3.00e-06	0	43	0	434110464	62	6208
2026-01-16 01:01:21.72	331.79	28.77	-46.2	-50.6	13.2	8.30e-06	0	43	0	436207616	63	6194
2026-01-16 01:01:22.86	331.46	28.87	-46.1	-50.4	13.4	2.51e-05	0	43	0	438304768	63	6013
2026-01-16 01:01:23.71	331.21	28.94	-46.0	-50.1	13.7	8.30e-06	0	43	0	439353344	63	5836
2026-01-16 01:01:24.85	330.88	29.04	-45.6	-49.4	14.3	7.00e-07	0	43	0	441450496	63	5376
2026-01-16 01:01:25.70	330.63	29.12	-45.3	-48.9	15.0	7.00e-07	0	43	0	443547648	62	5342
2026-01-16 01:01:26.87	330.29	29.22	-45.2	-48.7	15.1	0.00e+00	0	43	0	445644800	62	5236
2026-01-16 01:01:27.72	330.03	29.29	-44.8	-48.2	15.7	0.00e+00	0	43	0	446693376	61	5230
2026-01-16 01:01:28.92	329.68	29.40	-45.2	-48.8	15.1	0.00e+00	0	43	0	449839104	61	5607
2026-01-16 01:01:29.77	329.42	29.47	-45.6	-49.4	14.5	0.00e+00	0	43	0	450887680	61	6046
2026-01-16 01:01:30.97	329.06	29.57	-46.2	-50.6	13.3	7.60e-06	0	43	0	452984832	63	6155
2026-01-16 01:01:31.83	328.80	29.64	-46.4	-51.0	12.9	3.28e-05	0	43	0	455081984	63	6470
2026-01-16 01:01:33.04	328.43	29.74	-46.2	-50.7	13.1	6.40e-05	0	43	0	457179136	63	6226
2026-01-16 01:01:33.89	328.17	29.81	-46.4	-51.0	12.8	3.81e-05	0	43	0	458227712	63	6463
2026-01-16 01:01:35.03	327.82	29.91	-46.5	-51.1	12.8	2.59e-05	0	43	0	460324864	63	6502
2026-01-16 01:01:35.88	327.56	29.98	-46.7	-51.5	12.4	4.73e-05	0	43	0	462422016	64	6446
2026-01-16 01:01:37.11	327.18	30.08	-46.6	-51.3	12.5	1.45e-04	0	43	0	464519168	64	6325
2026-01-16 01:01:37.97	326.91	30.14	-46.7	-51.5	12.2	2.23e-04	0	43	0	466616320	64	6477
2026-01-16 01:01:39.11	326.55	30.23	-46.9	-51.6	12.1	3.72e-04	0	43	0	468713472	64	6554
2026-01-16 01:01:39.96	326.28	30.30	-47.2	-52.4	11.3	5.94e-04	0	43	0	469762048	65	6772
2026-01-16 01:01:41.10	325.92	30.39	-47.4	-52.8	10.8	8.61e-04	0	43	0	471859200	65	7107
2026-01-16 01:01:41.95	325.65	30.45	-47.0	-51.9	11.8	6.11e-04	0	43	0	473956352	65	6389
2026-01-16 01:01:43.09	325.28	30.54	-46.5	-51.0	12.6	2.01e-04	0	43	0	476053504	65	5743
2026-01-16 01:01:44.02	324.99	30.61	-46.2	-50.4	13.4	2.13e-05	0	43	0	478150656	64	5671
2026-01-16 01:01:45.02	324.66	30.68	-45.9	-49.8	14.1	8.30e-06	0	43	0	479199232	63	5599
2026-01-16 01:01:46.01	324.34	30.76	-45.6	-49.3	14.5	7.00e-07	0	43	0	481296384	63	5294
2026-01-16 01:01:47.01	324.01	30.83	-45.8	-49.5	14.4	0.00e+00	0	43	0	483393536	62	5744
2026-01-16 01:01:48.00	323.69	30.90	-46.0	-49.8	14.2	7.00e-07	0	43	0	485490688	62	5967
2026-01-16 01:01:49.00	323.36	30.97	-46.2	-50.2	13.6	5.30e-06	0	44	0	486539264	63	5912
2026-01-16 01:01:49.99	323.03	31.04	-46.2	-50.4	13.5	9.10e-06	0	43	0	488636416	63	6017
2026-01-16 01:01:50.99	322.70	31.11	-46.4	-50.6	13.2	1.29e-05	0	43	0	490733568	63	6171
2026-01-16 01:01:51.98	322.37	31.18	-46.4	-50.6	13.2	3.28e-05	0	43	0	492830720	63	6155
2026-01-16 01:01:52.97	322.04	31.24	-46.3	-50.3	13.4	4.50e-06	0	43	0	494927872	63	5959
2026-01-16 01:01:53.97	321.71	31.31	-46.3	-50.3	13.6	5.30e-06	0	43	0	495976448	63	5955
2026-01-16 01:01:54.96	321.37	31.37	-46.0	-49.9	13.9	6.10e-06	0	43	0	498073600	63	5677
2026-01-16 01:01:55.96	321.03	31.44	-46.0	-49.8	14.1	1.50e-06	0	43	0	500170752	63	5630
2026-01-16 01:01:56.96	320.69	31.50	-45.9	-49.7	14.2	0.00e+00	0	43	0	502267904	63	5575
2026-01-16 01:01:57.95	320.35	31.56	-45.8	-49.6	14.2	7.00e-07	0	43	0	503316480	63	5506
2026-01-16 01:01:58.95	320.01	31.63	-46.0	-50.1	13.7	1.50e-06	0	43	0	505413632	63	5846
2026-01-16 01:01:59.94	319.67	31.68	-46.2	-50.6	13.3	7.60e-06	0	43	0	507510784	63	6150
2026-01-16 01:02:00.93	319.33	31.74	-45.9	-50.2	13.7	8.30e-06	0	43	0	509607936	63	5906
2026-01-16 01:02:01.93	318.98	31.80	-45.8	-50.1	13.8	4.50e-06	0	43	0	511705088	63	5849
2026-01-16 01:02:02.92	318.64	31.86	-45.6	-49.6	14.3	1.50e-06	0	43	0	512753664	62	5833
2026-01-16 01:02:03.92	318.29	31.91	-45.2	-48.9	14.9	0.00e+00	0	43	0	514850816	62	5371
2026-01-16 01:02:04.91	317.94	31.97	-44.8	-48.2	15.5	0.00e+00	0	43	0	516947968	61	5254
2026-01-16 01:02:05.91	317.59	32.02	-45.1	-48.6	15.3	0.00e+00	0	43	0	519045120	61	5465
2026-01-16 01:02:06.93	317.23	32.08	-45.5	-49.2	14.7	0.00e+00	0	43	0	520093696	61	5867
2026-01-16 01:02:07.94	316.87	32.13	-45.8	-49.6	14.3	1.50e-06	0	43	0	522190848	62	5829
2026-01-16 01:02:08.95	316.51	32.18	-46.1	-50.0	13.7	1.60e-05	0	43	0	524288000	63	5779
2026-01-16 01:02:10.00	316.14	32.23	-46.2	-50.1	13.8	1.14e-05	0	43	0	526385152	63	5840
2026-01-16 01:02:10.96	315.80	32.28	-45.9	-49.6	14.3	7.60e-06	0	43	0	528482304	63	5515
2026-01-16 01:02:11.95	315.44	32.32	-45.1	-48.3	15.5	0.00e+00	0	43	0	530579456	62	5041
2026-01-16 01:02:12.95	315.08	32.37	-44.9	-47.9	15.9	0.00e+00	0	43	0	531628032	61	5085
2026-01-16 01:02:13.94	314.73	32.41	-44.5	-47.5	16.4	0.00e+00	0	43	0	533725184	60	5109
2026-01-16 01:02:14.94	314.37	32.46	-44.8	-47.9	16.0	0.00e+00	0	43	0	535822336	60	5353
2026-01-16 01:02:15.93	314.01	32.50	-45.2	-48.5	15.4	0.00e+00	0	43	0	537919488	61	5419
2026-01-16 01:02:16.93	313.64	32.54	-45.5	-49.0	14.9	0.00e+00	0	43	0	538968064	61	5725
2026-01-16 01:02:17.93	313.28	32.58	-45.8	-49.3	14.5	0.00e+00	0	43	0	541065216	62	5641
2026-01-16 01:02:18.92	312.92	32.61	-45.8	-49.3	14.6	7.00e-07	0	43	0	543162368	62	5629
2026-01-16 01:02:19.92	312.55	32.65	-45.6	-49.0	14.9	0.00e+00	0	43	0	545259520	62	5409
2026-01-16 01:02:20.91	312.19	32.69	-44.8	-47.8	16.0	0.00e+00	0	43	0	547356672	61	5018
2026-01-16 01:02:21.91	311.82	32.72	-44.5	-47.4	16.5	0.00e+00	0	43	0	548405248	60	5069
2026-01-16 01:02:22.91	311.45	32.75	-44.3	-47.2	16.6	0.00e+00	0	43	0	550502400	60	4956
2026-01-16 01:02:23.90	311.09	32.79	-44.3	-47.1	16.7	0.00e+00	0	43	0	552599552	60	4900
2026-01-16 01:02:24.94	310.70	32.82	-44.4	-47.3	16.6	0.00e+00	0	43	0	554696704	60	4999
2026-01-16 01:02:25.92	310.34	32.85	-44.3	-47.1	16.7	0.00e+00	0	43	0	555745280	60	4906
2026-01-16 01:02:26.92	309.97	32.87	-44.3	-47.1	16.8	0.00e+00	0	43	0	557842432	60	4883
2026-01-16 01:02:27.91	309.60	32.90	-44.4	-47.2	16.6	0.00e+00	0	43	0	559939584	60	4977
2026-01-16 01:02:28.91	309.23	32.92	-45.1	-48.1	15.6	0.00e+00	0	43	0	562036736	61	5210
2026-01-16 01:02:29.90	308.86	32.95	-45.8	-49.3	14.6	0.00e+00	0	43	0	564133888	62	5648
2026-01-16 01:02:30.89	308.49	32.97	-46.0	-49.7	14.2	1.50e-06	0	43	0	565182464	62	5887
2026-01-16 01:02:31.89	308.12	32.99	-45.6	-49.1	14.7	1.50e-06	0	43	0	567279616	62	5521
2026-01-16 01:02:32.88	307.75	33.01	-45.0	-48.2	15.7	0.00e+00	0	43	0	569376768	62	4931
2026-01-16 01:02:33.87	307.38	33.03	-44.7	-47.7	16.1	0.00e+00	0	43	0	571473920	61	4964
2026-01-16 01:02:34.87	307.00	33.05	-44.9	-48.0	16.0	0.00e+00	0	43	0	572522496	61	5115
2026-01-16 01:02:35.86	306.63	33.06	-45.6	-49.0	14.8	0.00e+00	0	43	0	574619648	61	5781
2026-01-16 01:02:36.89	306.24	33.08	-45.7	-49.3	14.8	7.00e-07	0	43	0	576716800	62	5593
2026-01-16 01:02:37.89	305.87	33.09	-45.6	-49.1	14.8	7.00e-07	0	43	0	578813952	62	5479
2026-01-16 01:02:38.94	305.47	33.10	-45.3	-48.7	15.2	0.00e+00	0	43	0	580911104	62	5235
2026-01-16 01:02:39.86	305.12	33.11	-45.1	-48.3	15.5	0.00e+00	0	43	0	581959680	62	5038
2026-01-16 01:02:40.86	304.75	33.12	-44.4	-47.3	16.5	0.00e+00	0	43	0	584056832	60	5029
2026-01-16 01:02:41.85	304.37	33.13	-44.4	-47.2	16.5	0.00e+00	0	43	0	586153984	60	4983
2026-01-16 01:02:42.85	304.00	33.13	-44.3	-47.1	16.7	0.00e+00	0	43	0	588251136	60	4899
2026-01-16 01:02:43.84	303.62	33.14	-44.6	-47.7	16.2	0.00e+00	0	43	0	589299712	60	5223
2026-01-16 01:02:44.83	303.25	33.14	-45.2	-48.6	15.3	0.00e+00	0	43	0	591396864	60	5836
2026-01-16 01:02:45.83	302.87	33.14	-45.5	-49.1	14.8	0.00e+00	0	43	0	593494016	61	5853
2026-01-16 01:02:46.82	302.50	33.14	-45.8	-49.7	14.2	1.50e-06	0	43	0	595591168	62	5867
2026-01-16 01:02:47.82	302.12	33.14	-46.2	-50.3	13.6	1.06e-05	0	43	0	597688320	63	5965
2026-01-16 01:02:48.81	301.75	33.14	-46.6	-51.2	12.5	3.58e-05	0	43	0	598736896	64	6268
2026-01-16 01:02:49.81	301.37	33.13	-46.6	-51.2	12.6	6.33e-05	0	43	0	600834048	64	6220
2026-01-16 01:02:50.80	300.99	33.13	-46.2	-50.5	13.3	7.62e-05	0	43	0	602931200	64	5734
2026-01-16 01:02:51.80	300.62	33.12	-46.0	-50.0	13.8	4.50e-06	0	43	0	605028352	64	5420
2026-01-16 01:02:52.80	300.24	33.11	-46.0	-49.9	14.1	3.80e-06	0	43	0	607125504	63	5711
2026-01-16 01:02:53.79	299.87	33.10	-45.8	-49.6	14.3	0.00e+00	0	43	0	608174080	63	5469
2026-01-16 01:02:54.79	299.49	33.09	-45.7	-49.4	14.5	0.00e+00	0	43	0	610271232	63	5379
2026-01-16 01:02:55.78	299.12	33.08	-45.3	-48.7	15.2	0.00e+00	0	43	0	612368384	62	5242
2026-01-16 01:02:56.77	298.75	33.07	-45.1	-48.3	15.6	0.00e+00	0	43	0	614465536	62	4984
2026-01-16 01:02:57.91	298.32	33.05	-44.8	-47.9	16.0	0.00e+00	0	43	0	616562688	61	5059
2026-01-16 01:02:58.79	297.99	33.03	-44.7	-47.7	16.1	0.00e+00	0	43	0	617611264	61	4943
2026-01-16 01:03:00.10	297.49	33.01	-45.0	-48.1	15.7	0.00e+00	0	43	0	620756992	61	5206
2026-01-16 01:03:00.81	297.23	33.00	-45.2	-48.5	15.2	0.00e+00	0	43	0	621805568	61	5443
2026-01-16 01:03:02.10	296.75	32.97	-45.7	-49.4	14.5	0.00e+00	0	43	0	623902720	62	5684
2026-01-16 01:03:02.82	296.48	32.95	-45.8	-49.5	14.3	7.00e-07	0	43	0	624951296	62	5786
2026-01-16 01:03:04.10	296.00	32.92	-45.9	-49.6	14.3	7.00e-07	0	43	0	628097024	62	5810
2026-01-16 01:03:04.81	295.74	32.91	-45.8	-49.3	14.6	7.00e-07	0	43	0	629145600	62	5613
2026-01-16 01:03:06.09	295.26	32.87	-45.7	-49.2	14.7	7.00e-07	0	43	0	631242752	62	5570
2026-01-16 01:03:06.90	294.96	32.85	-45.6	-49.0	14.9	7.00e-07	0	43	0	633339904	62	5435
2026-01-16 01:03:08.04	294.54	32.82	-45.9	-49.6	14.3	7.00e-07	0	43	0	635437056	62	5812
2026-01-16 01:03:08.89	294.22	32.79	-45.8	-49.5	14.3	7.00e-07	0	43	0	636485632	62	5757
2026-01-16 01:03:10.02	293.80	32.75	-46.1	-50.0	13.8	7.00e-07	0	43	0	638582784	62	6131
2026-01-16 01:03:10.88	293.49	32.73	-46.1	-50.1	13.7	8.30e-06	0	43	0	640679936	63	5853
2026-01-16 01:03:12.02	293.07	32.69	-46.2	-50.3	13.6	6.80e-06	0	43	0	642777088	63	5991
2026-01-16 01:03:12.87	292.76	32.66	-46.3	-50.4	13.4	1.52e-05	0	43	0	643825664	63	6018
2026-01-16 01:03:14.00	292.34	32.62	-46.1	-49.9	14.0	6.10e-06	0	43	0	645922816	63	5704
2026-01-16 01:03:14.86	292.03	32.58	-45.8	-49.3	14.7	5.30e-06	0	43	0	648019968	63	5334
2026-01-16 01:03:15.99	291.62	32.54	-45.6	-49.0	14.9	0.00e+00	0	43	0	650117120	63	5141
2026-01-16 01:03:16.85	291.30	32.50	-45.5	-48.8	15.1	0.00e+00	0	43	0	652214272	62	5295
2026-01-16 01:03:18.08	290.86	32.45	-45.4	-48.7	15.1	0.00e+00	0	43	0	654311424	62	5274
2026-01-16 01:03:18.93	290.55	32.41	-45.3	-48.5	15.4	7.00e-07	0	43	0	655360000	62	5149
2026-01-16 01:03:20.10	290.13	32.36	-45.1	-48.4	15.5	0.00e+00	0	43	0	657457152	61	5353
2026-01-16 01:03:20.96	289.82	32.32	-45.1	-48.3	15.5	0.00e+00	0	43	0	659554304	61	5319
2026-01-16 01:03:22.09	289.41	32.27	-45.1	-48.2	15.6	0.00e+00	0	43	0	661651456	61	5232
2026-01-16 01:03:22.95	289.10	32.23	-45.1	-48.3	15.6	0.00e+00	0	43	0	662700032	61	5315
2026-01-16 01:03:24.08	288.70	32.17	-44.9	-48.0	15.8	0.00e+00	0	43	0	664797184	61	5139
2026-01-16 01:03:24.93	288.40	32.13	-45.2	-48.4	15.4	0.00e+00	0	43	0	666894336	61	5355
2026-01-16 01:03:26.08	287.99	32.07	-45.3	-48.5	15.3	0.00e+00	0	43	0	668991488	61	5453
2026-01-16 01:03:26.93	287.69	32.03	-45.5	-48.9	14.9	0.00e+00	0	43	0	671088640	61	5720
2026-01-16 01:03:28.07	287.29	31.97	-45.7	-49.2	14.7	0.00e+00	0	43	0	673185792	62	5591
2026-01-16 01:03:28.92	286.99	31.92	-45.7	-49.2	14.7	0.00e+00	0	43	0	674234368	62	5567
2026-01-16 01:03:30.06	286.59	31.85	-45.4	-48.7	15.2	0.00e+00	0	43	0	676331520	62	5252
2026-01-16 01:03:30.91	286.30	31.81	-45.4	-48.7	15.2	0.00e+00	0	43	0	678428672	62	5276
2026-01-16 01:03:32.05	285.90	31.74	-45.4	-48.7	15.1	0.00e+00	0	43	0	680525824	62	5267
2026-01-16 01:03:32.90	285.61	31.69	-45.7	-49.2	14.6	0.00e+00	0	43	0	681574400	62	5555
2026-01-16 01:03:34.04	285.21	31.62	-45.5	-48.9	14.9	0.00e+00	0	43	0	683671552	62	5392
2026-01-16 01:03:34.89	284.92	31.57	-45.3	-48.7	15.2	0.00e+00	0	43	0	685768704	62	5224
2026-01-16 01:03:36.03	284.53	31.50	-44.9	-47.9	15.9	0.00e+00	0	43	0	687865856	61	5075
2026-01-16 01:03:36.88	284.24	31.44	-44.7	-47.7	16.1	0.00e+00	0	43	0	688914432	61	4939
2026-01-16 01:03:38.08	283.83	31.37	-44.7	-47.6	16.2	0.00e+00	0	43	0	691011584	61	4909
2026-01-16 01:03:38.93	283.55	31.31	-44.7	-47.7	16.1	0.00e+00	0	44	0	693108736	60	5254
2026-01-16 01:03:40.07	283.16	31.24	-45.1	-48.2	15.7	0.00e+00	0	43	0	695205888	60	5533
2026-01-16 01:03:40.92	282.88	31.18	-45.2	-48.4	15.4	0.00e+00	0	43	0	697303040	61	5365
2026-01-16 01:03:42.06	282.50	31.10	-45.4	-48.7	15.1	0.00e+00	0	43	0	699400192	61	5552
2026-01-16 01:03:42.91	282.21	31.04	-45.2	-48.4	15.4	0.00e+00	0	43	0	700448768	61	5399
2026-01-16 01:03:44.05	281.84	30.96	-45.2	-48.4	15.4	0.00e+00	0	43	0	702545920	61	5389
2026-01-16 01:03:44.90	281.56	30.90	-45.3	-48.5	15.4	0.00e+00	0	43	0	704643072	61	5414
2026-01-16 01:03:46.04	281.18	30.82	-45.7	-49.1	14.8	0.00e+00	0	43	0	706740224	61	5844
2026-01-16 01:03:46.89	280.90	30.76	-46.0	-49.7	14.2	0.00e+00	0	43	0	707788800	62	5867
2026-01-16 01:03:48.03	280.53	30.67	-46.5	-50.5	13.4	7.60e-06	0	43	0	709885952	63	6080
2026-01-16 01:03:48.88	280.26	30.61	-46.3	-50.1	13.7	1.37e-05	0	43	0	711983104	63	5836
2026-01-16 01:03:50.02	279.89	30.52	-46.0	-49.7	14.2	2.20e-06	0	43	0	714080256	63	5538
2026-01-16 01:03:50.87	279.62	30.46	-45.9	-49.6	14.2	7.00e-07	0	43	0	715128832	63	5518
2026-01-16 01:03:52.00	279.26	30.37	-46.1	-49.9	14.0	3.80e-06	0	43	0	717225984	63	5690
2026-01-16 01:03:52.86	278.98	30.31	-46.2	-50.1	13.7	1.50e-06	0	43	0	719323136	63	5841
2026-01-16 01:03:54.04	278.61	30.21	-46.1	-49.9	14.0	6.80e-06	0	43	0	721420288	63	5670
2026-01-16 01:03:54.90	278.34	30.14	-46.1	-49.9	14.0	9.90e-06	0	43	0	723517440	63	5690
2026-01-16 01:03:56.10	277.96	30.05	-46.1	-49.9	14.0	2.20e-06	0	43	0	725614592	63	5671
2026-01-16 01:03:56.95	277.70	29.98	-45.9	-49.5	14.3	0.00e+00	0	43	0	726663168	63	5447
2026-01-16 01:03:58.09	277.35	29.89	-45.7	-49.1	14.8	0.00e+00	0	43	0	728760320	63	5172
2026-01-16 01:03:58.94	277.08	29.82	-45.5	-48.9	15.0	0.00e+00	0	43	0	730857472	63	5048
2026-01-16 01:04:00.08	276.73	29.72	-45.6	-49.1	14.8	0.00e+00	0	43	0	732954624	62	5486
2026-01-16 01:04:00.93	276.47	29.65	-45.8	-49.3	14.6	0.00e+00	0	43	0	734003200	62	5631
2026-01-16 01:04:02.07	276.13	29.56	-45.8	-49.4	14.4	7.00e-07	0	43	0	736100352	62	5709
2026-01-16 01:04:02.92	275.87	29.48	-45.6	-49.1	14.7	0.00e+00	0	43	0	738197504	62	5526
2026-01-16 01:04:04.06	275.53	29.39	-45.2	-48.5	15.4	0.00e+00	0	43	0	740294656	62	5106
2026-01-16 01:04:04.91	275.27	29.31	-45.2	-48.3	15.6	0.00e+00	0	43	0	741343232	62	5038
2026-01-16 01:04:06.05	274.94	29.21	-45.0	-48.2	15.6	0.00e+00	0	43	0	744488960	62	4942
2026-01-16 01:04:06.90	274.68	29.14	-44.5	-47.5	16.4	0.00e+00	0	43	0	745537536	61	4826
2026-01-16 01:04:08.04	274.35	29.04	-43.9	-46.6	17.1	0.00e+00	0	43	0	747634688	59	4900
2026-01-16 01:04:08.89	274.10	28.96	-43.5	-46.1	17.6	0.00e+00	0	43	0	749731840	59	4604
2026-01-16 01:04:10.02	273.77	28.86	-43.9	-46.5	17.2	0.00e+00	0	43	0	751828992	59	4868
2026-01-16 01:04:10.88	273.52	28.79	-44.3	-47.1	16.6	0.00e+00	0	43	0	752877568	59	5202
2026-01-16 01:04:12.12	273.17	28.68	-44.5	-47.5	16.3	0.00e+00	0	43	0	754974720	59	5405
2026-01-16 01:04:12.98	272.92	28.60	-44.9	-48.0	15.8	0.00e+00	0	43	0	757071872	60	5452
2026-01-16 01:04:14.11	272.60	28.49	-45.0	-48.2	15.7	0.00e+00	0	43	0	759169024	60	5529
2026-01-16 01:04:14.99	272.35	28.41	-45.4	-48.7	15.2	0.00e+00	0	43	0	760217600	61	5541
2026-01-16 01:04:16.13	272.03	28.31	-45.8	-49.3	14.6	0.00e+00	0	43	0	762314752	62	5603
2026-01-16 01:04:16.98	271.79	28.23	-45.9	-49.5	14.3	1.50e-06	0	43	0	764411904	62	5766
2026-01-16 01:04:18.12	271.48	28.12	-45.2	-48.3	15.6	0.00e+00	0	43	0	766509056	62	5018
2026-01-16 01:04:19.14	271.19	28.03	-44.6	-47.5	16.3	0.00e+00	0	43	0	768606208	61	4850
2026-01-16 01:04:20.14	270.92	27.94	-44.2	-47.0	16.8	0.00e+00	0	43	0	770703360	60	4854
2026-01-16 01:04:21.14	270.65	27.84	-44.6	-47.6	16.3	0.00e+00	0	43	0	771751936	60	5171
2026-01-16 01:04:22.13	270.38	27.75	-45.1	-48.5	15.4	0.00e+00	0	43	0	773849088	60	5735
2026-01-16 01:04:23.12	270.11	27.65	-46.0	-50.0	13.9	1.50e-06	0	43	0	775946240	62	6114
2026-01-16 01:04:24.12	269.84	27.56	-46.6	-51.0	12.9	3.89e-05	0	43	0	778043392	63	6474
2026-01-16 01:04:25.11	269.58	27.46	-46.7	-51.2	12.6	1.04e-04	0	43	0	780140544	64	6252
2026-01-16 01:04:26.45	269.22	27.34	-46.4	-50.7	13.1	9.15e-05	0	43	0	782237696	64	5867
2026-01-16 01:04:27.20	269.03	27.26	-46.2	-50.3	13.5	1.90e-05	0	43	0	783286272	64	5598
2026-01-16 01:04:28.47	268.70	27.14	-45.9	-49.6	14.3	4.50e-06	0	43	0	786432000	63	5492
2026-01-16 01:04:29.19	268.51	27.07	-45.6	-49.1	14.8	7.00e-07	0	43	0	787480576	63	5160
2026-01-16 01:04:30.46	268.18	26.95	-44.9	-48.0	15.8	0.00e+00	0	43	0	789577728	61	5108
2026-01-16 01:04:31.18	268.00	26.88	-44.8	-47.8	16.0	0.00e+00	0	43	0	790626304	61	5025
2026-01-16 01:04:32.46	267.67	26.75	-45.0	-48.2	15.7	0.00e+00	0	43	0	793772032	61	5240
2026-01-16 01:04:33.17	267.49	26.68	-44.9	-48.1	15.8	0.00e+00	0	43	0	794820608	61	5166
2026-01-16 01:04:34.48	267.16	26.55	-44.7	-47.7	16.1	0.00e+00	0	43	0	796917760	61	4979
2026-01-16 01:04:35.19	266.98	26.48	-44.5	-47.4	16.3	0.00e+00	0	43	0	799014912	61	4801
2026-01-16 01:04:36.47	266.66	26.35	-44.1	-46.8	17.0	0.00e+00	0	43	0	801112064	60	4740
2026-01-16 01:04:37.20	266.48	26.28	-43.8	-46.5	17.2	0.00e+00	0	43	0	802160640	59	4825
2026-01-16 01:04:38.48	266.17	26.16	-43.7	-46.3	17.4	0.00e+00	0	43	0	804257792	59	4739
2026-01-16 01:04:39.19	266.00	26.08	-43.7	-46.3	17.4	0.00e+00	0	43	0	806354944	59	4726
2026-01-16 01:04:40.62	265.65	25.94	-43.8	-46.5	17.2	0.00e+00	0	43	0	808452096	59	4839
2026-01-16 01:04:41.33	265.48	25.87	-43.9	-46.6	17.1	0.00e+00	0	43	0	810549248	59	4906
2026-01-16 01:04:42.61	265.17	25.74	-44.0	-46.7	17.1	0.00e+00	0	43	0	812646400	59	4938
2026-01-16 01:04:43.68	264.92	25.63	-43.8	-46.5	17.3	0.00e+00	0	43	0	814743552	59	4821
2026-01-16 01:04:44.84	264.64	25.52	-44.0	-46.7	17.1	0.00e+00	0	43	0	816840704	59	4951
2026-01-16 01:04:45.69	264.45	25.43	-44.1	-46.9	16.9	0.00e+00	0	43	0	817889280	59	5073
2026-01-16 01:04:46.83	264.18	25.32	-44.2	-47.0	16.7	0.00e+00	0	43	0	819986432	59	5139
2026-01-16 01:04:47.68	263.98	25.23	-44.3	-47.2	16.6	0.00e+00	0	43	0	822083584	59	5266
2026-01-16 01:04:48.82	263.72	25.12	-44.3	-47.2	16.6	0.00e+00	0	43	0	824180736	59	5229
2026-01-16 01:04:49.67	263.53	25.03	-44.2	-47.1	16.6	0.00e+00	0	43	0	825229312	59	5180
2026-01-16 01:04:50.81	263.27	24.91	-44.2	-47.1	16.7	0.00e+00	0	43	0	828375040	59	5178
2026-01-16 01:04:51.66	263.08	24.83	-44.2	-47.0	16.7	0.00e+00	0	43	0	829423616	59	5158
2026-01-16 01:04:52.80	262.82	24.71	-44.2	-47.1	16.7	0.00e+00	0	43	0	831520768	59	5201
2026-01-16 01:04:53.65	262.63	24.63	-44.2	-47.0	16.7	0.00e+00	0	43	0	833617920	59	5155
2026-01-16 01:04:54.79	262.38	24.51	-44.2	-47.1	16.7	0.00e+00	0	43	0	835715072	59	5182
2026-01-16 01:04:55.64	262.19	24.42	-44.3	-47.2	16.6	0.00e+00	0	43	0	836763648	59	5221
2026-01-16 01:04:56.78	261.95	24.31	-44.1	-46.9	16.9	0.00e+00	0	43	0	838860800	59	5055
2026-01-16 01:04:57.71	261.74	24.21	-44.0	-46.8	16.9	0.00e+00	0	43	0	840957952	59	5008
2026-01-16 01:04:58.87	261.49	24.09	-43.4	-46.0	17.7	0.00e+00	0	43	0	843055104	58	4864
2026-01-16 01:04:59.76	261.30	24.00	-43.2	-45.7	17.9	0.00e+00	0	43	0	845152256	58	4691
2026-01-16 01:05:00.90	261.06	23.89	-42.7	-45.2	18.4	0.00e+00	0	43	0	847249408	57	4663
2026-01-16 01:05:01.80	260.87	23.80	-42.5	-44.8	18.7	0.00e+00	0	43	0	848297984	57	4487
2026-01-16 01:05:03.07	260.61	23.67	-42.3	-44.6	18.9	0.00e+00	0	43	0	850395136	56	4641
2026-01-16 01:05:03.80	260.45	23.59	-42.3	-44.6	18.9	0.00e+00	0	43	0	852492288	56	4643
2026-01-16 01:05:05.08	260.19	23.46	-42.6	-45.0	18.6	0.00e+00	0	43	0	854589440	56	4842
2026-01-16 01:05:05.84	260.03	23.38	-42.9	-45.4	18.3	0.00e+00	0	43	0	855638016	56	5060
2026-01-16 01:05:07.11	259.77	23.25	-43.6	-46.3	17.4	0.00e+00	0	43	0	858783744	57	5294
2026-01-16 01:05:07.83	259.63	23.18	-43.5	-46.2	17.5	0.00e+00	0	44	0	859832320	57	5225
2026-01-16 01:05:09.11	259.37	23.05	-43.8	-46.5	17.3	0.00e+00	0	43	0	861929472	58	5102
2026-01-16 01:05:09.91	259.21	22.97	-43.7	-46.4	17.3	0.00e+00	0	43	0	864026624	58	5073
2026-01-16 01:05:11.05	258.98	22.85	-43.5	-46.1	17.6	0.00e+00	0	43	0	866123776	58	4917
2026-01-16 01:05:11.90	258.82	22.77	-43.3	-45.8	17.9	0.00e+00	0	43	0	867172352	58	4730
2026-01-16 01:05:13.04	258.59	22.65	-43.4	-45.9	17.7	0.00e+00	0	43	0	869269504	58	4809
2026-01-16 01:05:13.89	258.43	22.56	-43.4	-46.0	17.7	0.00e+00	0	43	0	871366656	58	4854
2026-01-16 01:05:15.03	258.21	22.45	-43.5	-46.1	17.6	0.00e+00	0	43	0	873463808	58	4909
2026-01-16 01:05:15.88	258.04	22.36	-43.6	-46.2	17.5	0.00e+00	0	43	0	874512384	58	4968
2026-01-16 01:05:17.02	257.82	22.24	-43.7	-46.4	17.3	0.00e+00	0	43	0	876609536	58	5077
2026-01-16 01:05:17.87	257.66	22.16	-43.6	-46.3	17.4	0.00e+00	0	43	0	878706688	58	4996
2026-01-16 01:05:19.02	257.45	22.04	-43.4	-46.0	17.7	0.00e+00	0	44	0	880803840	58	4833
2026-01-16 01:05:19.88	257.29	21.95	-43.5	-46.1	17.5	0.00e+00	0	43	0	881852416	58	4912
2026-01-16 01:05:21.01	257.07	21.84	-43.6	-46.2	17.5	0.00e+00	0	43	0	884998144	58	4964
2026-01-16 01:05:21.87	256.92	21.75	-43.7	-46.3	17.4	0.00e+00	0	43	0	886046720	58	5041
2026-01-16 01:05:23.11	256.69	21.63	-43.6	-46.2	17.5	0.00e+00	0	43	0	888143872	58	4953
2026-01-16 01:05:23.96	256.53	21.54	-43.6	-46.2	17.5	0.00e+00	0	43	0	890241024	58	4969
2026-01-16 01:05:25.10	256.33	21.43	-43.4	-46.0	17.7	0.00e+00	0	43	0	892338176	58	4831
2026-01-16 01:05:25.95	256.17	21.34	-43.4	-45.9	17.7	0.00e+00	0	43	0	893386752	58	4808
2026-01-16 01:05:27.09	255.97	21.22	-43.2	-45.7	17.9	0.00e+00	0	43	0	895483904	58	4678
2026-01-16 01:05:28.00	255.81	21.13	-43.0	-45.4	18.2	0.00e+00	0	43	0	897581056	58	4536
2026-01-16 01:05:28.99	255.63	21.03	-43.0	-45.5	18.1	0.00e+00	0	43	0	899678208	58	4556
2026-01-16 01:05:29.99	255.46	20.93	-43.3	-45.9	17.8	0.00e+00	0	43	0	901775360	58	4770
2026-01-16 01:05:30.99	255.28	20.83	-43.5	-46.1	17.6	0.00e+00	0	43	0	902823936	58	4883
2026-01-16 01:05:31.98	255.11	20.73	-43.5	-46.0	17.6	0.00e+00	0	43	0	904921088	58	4870
2026-01-16 01:05:32.98	254.94	20.63	-43.8	-46.5	17.2	0.00e+00	0	43	0	907018240	58	5133
2026-01-16 01:05:33.97	254.77	20.53	-43.8	-46.5	17.1	0.00e+00	0	43	0	909115392	58	5158
2026-01-16 01:05:34.97	254.60	20.43	-43.8	-46.5	17.1	0.00e+00	0	43	0	910163968	58	5138
2026-01-16 01:05:35.96	254.44	20.34	-43.7	-46.5	17.2	0.00e+00	0	44	0	912261120	58	5101
2026-01-16 01:05:36.96	254.27	20.24	-43.6	-46.3	17.3	0.00e+00	0	43	0	914358272	58	5014
2026-01-16 01:05:37.95	254.10	20.14	-43.4	-46.0	17.6	0.00e+00	0	43	0	916455424	58	4850
2026-01-16 01:05:38.95	253.94	20.04	-43.3	-45.8	17.8	0.00e+00	0	43	0	918552576	58	4744
2026-01-16 01:05:39.94	253.78	19.94	-43.2	-45.7	17.9	0.00e+00	0	43	0	919601152	58	4689
2026-01-16 01:05:41.00	253.60	19.83	-43.0	-45.5	18.1	0.00e+00	0	43	0	921698304	58	4577
2026-01-16 01:05:41.88	253.46	19.75	-43.1	-45.5	18.1	0.00e+00	0	43	0	923795456	58	4594
2026-01-16 01:05:43.02	253.28	19.63	-42.9	-45.3	18.3	0.00e+00	0	43	0	925892608	57	4743
2026-01-16 01:05:43.87	253.14	19.55	-43.0	-45.4	18.2	0.00e+00	0	43	0	926941184	57	4795
2026-01-16 01:05:45.01	252.96	19.44	-43.2	-45.6	18.0	0.00e+00	0	43	0	929038336	57	4908
2026-01-16 01:05:45.86	252.82	19.36	-43.4	-45.9	17.7	0.00e+00	0	43	0	931135488	57	5071
2026-01-16 01:05:47.00	252.65	19.24	-43.7	-46.3	17.3	0.00e+00	0	43	0	933232640	58	5040
2026-01-16 01:05:47.85	252.51	19.16	-44.0	-46.7	17.0	0.00e+00	0	43	0	935329792	58	5235
2026-01-16 01:05:48.99	252.34	19.05	-44.1	-46.9	16.7	0.00e+00	0	43	0	937426944	59	5071
2026-01-16 01:05:49.84	252.21	18.97	-44.2	-47.1	16.6	0.00e+00	0	43	0	938475520	59	5172
2026-01-16 01:05:50.98	252.03	18.85	-44.5	-47.5	16.2	0.00e+00	0	43	0	940572672	59	5427
2026-01-16 01:05:51.83	251.90	18.77	-44.4	-47.3	16.4	0.00e+00	0	43	0	942669824	59	5304
2026-01-16 01:05:53.03	251.72	18.66	-44.4	-47.3	16.3	0.00e+00	0	43	0	944766976	59	5321
2026-01-16 01:05:53.88	251.59	18.57	-44.3	-47.1	16.5	0.00e+00	0	43	0	945815552	59	5200
2026-01-16 01:05:55.02	251.42	18.46	-44.0	-46.8	16.8	0.00e+00	0	43	0	947912704	59	5001
2026-01-16 01:05:55.87	251.30	18.38	-43.9	-46.6	17.1	0.00e+00	0	43	0	950009856	59	4877
2026-01-16 01:05:57.12	251.11	18.26	-43.7	-46.4	17.3	0.00e+00	0	43	0	952107008	59	4762
2026-01-16 01:05:57.97	250.99	18.18	-43.7	-46.3	17.3	0.00e+00	0	43	0	954204160	59	4733
2026-01-16 01:05:59.11	250.82	18.07	-43.7	-46.4	17.3	0.00e+00	0	43	0	956301312	59	4763
2026-01-16 01:05:59.96	250.70	17.99	-44.0	-46.8	16.9	0.00e+00	0	43	0	957349888	59	4984
2026-01-16 01:06:01.09	250.54	17.88	-44.1	-46.9	16.7	0.00e+00	0	43	0	959447040	59	5059
2026-01-16 01:06:02.01	250.41	17.79	-44.2	-47.0	16.6	0.00e+00	0	43	0	961544192	59	5155
2026-01-16 01:06:03.02	250.27	17.70	-44.5	-47.5	16.2	0.00e+00	0	43	0	963641344	59	5415
2026-01-16 01:06:04.01	250.13	17.60	-44.6	-47.5	16.1	0.00e+00	0	43	0	964689920	59	5437
2026-01-16 01:06:05.01	249.99	17.51	-44.5	-47.5	16.2	0.00e+00	0	43	0	966787072	59	5422
2026-01-16 01:06:06.00	249.85	17.41	-44.4	-47.4	16.3	0.00e+00	0	43	0	968884224	59	5343
2026-01-16 01:06:07.00	249.71	17.32	-44.4	-47.4	16.3	0.00e+00	0	43	0	970981376	59	5341
2026-01-16 01:06:07.99	249.58	17.22	-44.0	-46.8	16.8	0.00e+00	0	43	0	972029952	59	5009
2026-01-16 01:06:08.99	249.44	17.13	-43.9	-46.7	16.9	0.00e+00	0	43	0	974127104	59	4951
2026-01-16 01:06:09.99	249.31	17.04	-43.9	-46.7	16.9	0.00e+00	0	43	0	976224256	59	4940
2026-01-16 01:06:10.98	249.17	16.94	-43.8	-46.5	17.1	0.00e+00	0	43	0	978321408	59	4840
2026-01-16 01:06:11.98	249.04	16.85	-43.6	-46.4	17.2	0.00e+00	0	43	0	980418560	59	4765
2026-01-16 01:06:12.97	248.91	16.76	-43.7	-46.4	17.2	0.00e+00	0	43	0	981467136	59	4798
2026-01-16 01:06:13.97	248.77	16.66	-43.7	-46.5	17.1	0.00e+00	0	43	0	983564288	59	4815
2026-01-16 01:06:14.96	248.64	16.57	-43.8	-46.5	17.1	0.00e+00	0	43	0	985661440	59	4857
2026-01-16 01:06:15.96	248.51	16.48	-43.9	-46.7	16.9	0.00e+00	0	43	0	987758592	59	4953
2026-01-16 01:06:16.95	248.39	16.39	-44.0	-46.8	16.8	0.00e+00	0	43	0	989855744	59	4996
2026-01-16 01:06:17.94	248.26	16.30	-44.2	-47.0	16.6	0.00e+00	0	43	0	990904320	59	5151
2026-01-16 01:06:18.94	248.13	16.20	-44.3	-47.1	16.5	0.00e+00	0	43	0	993001472	59	5181
2026-01-16 01:06:19.93	248.01	16.11	-44.5	-47.3	16.2	0.00e+00	0	43	0	995098624	59	5339
2026-01-16 01:06:20.93	247.88	16.02	-44.3	-47.1	16.5	0.00e+00	0	43	0	997195776	59	5196
2026-01-16 01:06:21.92	247.75	15.93	-44.4	-47.2	16.4	0.00e+00	0	43	0	998244352	59	5254
2026-01-16 01:06:22.91	247.63	15.84	-44.3	-47.2	16.4	0.00e+00	0	44	0	1000341504	59	5232
2026-01-16 01:06:23.91	247.51	15.75	-44.0	-46.8	16.8	0.00e+00	0	43	0	1002438656	59	5005
2026-01-16 01:06:24.91	247.38	15.66	-44.1	-46.9	16.7	0.00e+00	0	43	0	1004535808	59	5064
2026-01-16 01:06:25.90	247.26	15.57	-43.9	-46.6	16.9	0.00e+00	0	43	0	1006632960	59	4916
2026-01-16 01:06:26.90	247.14	15.48	-43.9	-46.6	16.9	0.00e+00	0	43	0	1007681536	59	4910
2026-01-16 01:06:27.89	247.02	15.39	-43.7	-46.4	17.2	0.00e+00	0	43	0	1009778688	59	4780
2026-01-16 01:06:28.89	246.90	15.30	-43.8	-46.6	17.0	0.00e+00	0	43	0	1011875840	59	4879
2026-01-16 01:06:29.96	246.77	15.20	-43.9	-46.7	16.9	0.00e+00	0	43	0	1013972992	59	4935
2026-01-16 01:06:30.84	246.67	15.12	-43.9	-46.7	16.8	0.00e+00	0	43	0	1015021568	59	4965
2026-01-16 01:06:31.98	246.53	15.02	-44.3	-47.3	16.3	0.00e+00	0	43	0	1017118720	59	5332
2026-01-16 01:06:32.83	246.43	14.95	-44.5	-47.6	16.0	0.00e+00	0	43	0	1019215872	59	5514
2026-01-16 01:06:33.97	246.30	14.84	-45.0	-48.3	15.3	0.00e+00	0	43	0	1021313024	60	5635
2026-01-16 01:06:34.82	246.20	14.77	-45.2	-48.8	14.9	7.00e-07	0	43	0	1023410176	61	5608
2026-01-16 01:06:35.96	246.07	14.67	-45.4	-49.1	14.6	0.00e+00	0	43	0	1025507328	61	5815
2026-01-16 01:06:36.81	245.97	14.59	-45.4	-49.0	14.6	1.50e-06	0	43	0	1026555904	61	5788
2026-01-16 01:06:37.95	245.84	14.49	-45.3	-48.9	14.7	0.00e+00	0	44	0	1028653056	61	5698
2026-01-16 01:06:38.80	245.75	14.42	-45.1	-48.6	15.1	0.00e+00	0	43	0	1030750208	61	5470
2026-01-16 01:06:39.94	245.62	14.32	-44.7	-48.0	15.6	0.00e+00	0	43	0	1032847360	61	5133
2026-01-16 01:06:40.79	245.52	14.24	-44.5	-47.6	16.0	0.00e+00	0	43	0	1033895936	61	4872
2026-01-16 01:06:41.94	245.40	14.14	-44.3	-47.2	16.4	0.00e+00	0	43	0	1035993088	60	4947
2026-01-16 01:06:42.80	245.30	14.07	-44.0	-46.8	16.8	0.00e+00	0	43	0	1038090240	60	4728
2026-01-16 01:06:44.00	245.17	13.96	-43.9	-46.6	16.9	0.00e+00	0	43	0	1040187392	59	4882
2026-01-16 01:06:44.85	245.08	13.89	-43.7	-46.3	17.2	0.00e+00	0	43	0	1041235968	59	4753
2026-01-16 01:06:46.04	244.95	13.78	-43.7	-46.3	17.2	0.00e+00	0	43	0	1044381696	59	4754
2026-01-16 01:06:46.89	244.86	13.71	-43.5	-46.2	17.3	0.00e+00	0	43	0	1045430272	59	4658
2026-01-16 01:06:48.03	244.73	13.61	-43.7	-46.4	17.0	0.00e+00	0	43	0	1047527424	58	5097
2026-01-16 01:06:48.88	244.64	13.54	-43.9	-46.8	16.7	0.00e+00	0	43	0	1049624576	58	5303
2026-01-16 01:06:50.02	244.52	13.44	-44.2	-47.1	16.4	0.00e+00	0	43	0	1051721728	59	5216
2026-01-16 01:06:50.87	244.43	13.37	-44.5	-47.6	15.9	0.00e+00	0	43	0	1052770304	59	5504
2026-01-16 01:06:52.18	244.30	13.26	-44.9	-48.2	15.4	0.00e+00	0	43	0	1055916032	60	5564
2026-01-16 01:06:52.90	244.22	13.20	-45.2	-48.5	15.1	0.00e+00	0	43	0	1056964608	60	5781
2026-01-16 01:06:54.18	244.09	13.09	-45.4	-48.9	14.8	0.00e+00	0	43	0	1059061760	61	5666
2026-01-16 01:06:54.91	244.01	13.03	-45.5	-49.0	14.6	7.00e-07	0	43	0	1060110336	61	5780
2026-01-16 01:06:56.19	243.88	12.92	-45.5	-49.0	14.6	0.00e+00	0	43	0	1063256064	61	5759
2026-01-16 01:06:56.90	243.81	12.86	-45.7	-49.3	14.3	1.50e-06	0	43	0	1064304640	62	5630
2026-01-16 01:06:58.18	243.68	12.75	-45.8	-49.6	14.1	0.00e+00	0	43	0	1066401792	62	5790
2026-01-16 01:06:58.90	243.61	12.69	-45.7	-49.3	14.2	2.20e-06	0	43	0	1068498944	62	5655
2026-01-16 01:07:00.18	243.48	12.58	-45.7	-49.5	14.1	1.50e-06	0	43	0	1070596096	62	5748
2026-01-16 01:07:01.03	243.40	12.51	-45.7	-49.5	14.1	1.50e-06	0	43	0	1071644672	62	5783
2026-01-16 01:07:02.17	243.28	12.42	-45.7	-49.4	14.1	2.20e-06	0	43	0	1073741824	62	5711
2026-01-16 01:07:03.02	243.20	12.35	-45.7	-49.5	14.1	7.00e-07	0	43	0	1075838976	62	5748
2026-01-16 01:07:04.16	243.09	12.25	-45.7	-49.5	14.1	7.00e-07	0	44	0	1077936128	62	5752
2026-01-16 01:07:05.01	243.01	12.18	-45.7	-49.4	14.2	7.00e-07	0	43	0	1080033280	62	5671
2026-01-16 01:07:06.15	242.90	12.09	-45.6	-49.3	14.3	7.00e-07	0	43	0	1082130432	62	5603
2026-01-16 01:07:07.00	242.81	12.02	-45.8	-49.5	14.0	2.20e-06	0	43	0	1083179008	62	5744
2026-01-16 01:07:08.14	242.71	11.92	-45.6	-49.3	14.3	7.00e-07	0	44	0	1085276160	62	5605
2026-01-16 01:07:08.99	242.63	11.85	-45.7	-49.4	14.2	7.00e-07	0	43	0	1087373312	62	5659
2026-01-16 01:07:10.13	242.52	11.76	-45.5	-49.1	14.5	0.00e+00	0	44	0	1089470464	62	5493
2026-01-16 01:07:11.41	242.40	11.66	-45.5	-49.1	14.5	7.00e-07	0	43	0	1091567616	62	5478
2026-01-16 01:07:12.12	242.33	11.60	-45.4	-49.0	14.5	7.00e-07	0	43	0	1092616192	62	5424
2026-01-16 01:07:13.40	242.21	11.49	-45.4	-49.1	14.4	0.00e+00	0	43	0	1095761920	62	5513
2026-01-16 01:07:14.11	242.15	11.44	-45.4	-49.1	14.5	0.00e+00	0	43	0	1096810496	62	5490
2026-01-16 01:07:15.45	242.03	11.33	-45.5	-49.2	14.3	0.00e+00	0	43	0	1098907648	62	5563
2026-01-16 01:07:16.16	241.96	11.27	-45.6	-49.4	14.1	1.50e-06	0	43	0	1099956224	62	5704
2026-01-16 01:07:17.49	241.84	11.16	-45.4	-49.1	14.4	0.00e+00	0	43	0	1103101952	62	5502
2026-01-16 01:07:18.20	241.78	11.11	-45.6	-49.3	14.2	1.50e-06	0	43	0	1104150528	62	5622
2026-01-16 01:07:19.48	241.66	11.01	-45.6	-49.3	14.2	0.00e+00	0	43	0	1106247680	62	5627
2026-01-16 01:07:20.19	241.60	10.95	-45.5	-49.2	14.3	1.50e-06	0	43	0	1108344832	62	5586
2026-01-16 01:07:21.58	241.48	10.84	-45.4	-49.0	14.5	1.50e-06	0	43	0	1110441984	62	5451
2026-01-16 01:07:22.29	241.41	10.78	-45.4	-49.0	14.5	0.00e+00	0	43	0	1111490560	62	5412
2026-01-16 01:07:23.65	241.29	10.67	-45.1	-48.5	15.1	7.00e-07	0	43	0	1114636288	62	5106
2026-01-16 01:07:24.36	241.23	10.62	-45.1	-48.4	15.1	0.00e+00	0	43	0	1115684864	62	5070
2026-01-16 01:07:25.65	241.12	10.52	-45.0	-48.3	15.1	0.00e+00	0	43	0	1117782016	61	5338
2026-01-16 01:07:26.36	241.06	10.46	-44.8	-48.0	15.4	0.00e+00	0	43	0	1119879168	61	5147
2026-01-16 01:07:27.75	240.94	10.35	-44.7	-47.9	15.6	0.00e+00	0	44	0	1121976320	61	5056
2026-01-16 01:07:28.46	240.88	10.30	-44.7	-47.9	15.6	0.00e+00	0	43	0	1123024896	61	5054
2026-01-16 01:07:29.74	240.77	10.20	-44.6	-47.7	15.7	0.00e+00	0	43	0	1126170624	61	4960
2026-01-16 01:07:30.47	240.71	10.14	-44.5	-47.5	15.9	0.00e+00	0	43	0	1127219200	60	5158
2026-01-16 01:07:31.75	240.60	10.04	-44.5	-47.6	15.9	0.00e+00	0	43	0	1129316352	60	5169
2026-01-16 01:07:32.46	240.55	9.98	-44.5	-47.5	15.9	0.00e+00	0	44	0	1131413504	60	5143
2026-01-16 01:07:33.75	240.44	9.89	-44.6	-47.6	15.8	0.00e+00	0	43	0	1133510656	60	5214
2026-01-16 01:07:34.46	240.38	9.83	-44.6	-47.7	15.7	0.00e+00	0	43	0	1134559232	60	5254
2026-01-16 01:07:35.74	240.28	9.73	-44.6	-47.8	15.7	0.00e+00	0	43	0	1136656384	60	5290
2026-01-16 01:07:36.50	240.21	9.67	-44.9	-48.1	15.3	0.00e+00	0	43	0	1138753536	60	5527
2026-01-16 01:07:37.78	240.11	9.58	-45.0	-48.4	15.0	0.00e+00	0	43	0	1140850688	60	5682
2026-01-16 01:07:38.49	240.05	9.52	-45.0	-48.4	14.9	0.00e+00	0	43	0	1141899264	60	5718
2026-01-16 01:07:39.77	239.95	9.42	-45.3	-49.0	14.4	7.00e-07	0	43	0	1145044992	61	5757
2026-01-16 01:07:40.62	239.88	9.36	-45.4	-49.2	14.2	2.20e-06	0	43	0	1146093568	61	5860
2026-01-16 01:07:41.76	239.79	9.27	-45.5	-49.5	14.0	1.50e-06	0	43	0	1148190720	61	6069
2026-01-16 01:07:42.61	239.73	9.21	-45.7	-49.8	13.6	4.50e-06	0	43	0	1150287872	62	5950
2026-01-16 01:07:43.75	239.64	9.12	-45.9	-50.2	13.2	1.37e-05	0	43	0	1152385024	62	6220
2026-01-16 01:07:44.60	239.57	9.06	-46.0	-50.3	13.1	2.36e-05	0	43	0	1153433600	62	6339
2026-01-16 01:07:45.74	239.48	8.97	-47.6	-53.8	9.9	3.66e-05	0	43	0	1155530752	65	7969
2026-01-16 01:07:46.59	239.42	8.91	-49.5	-64.6	3.8	1.38e+00	0	43	104	1156579328	69	21977
2026-01-16 01:07:47.73	239.33	8.82	-49.9	-65.1	3.8	1.49e+00	0	43	104	1156579328	70	21944
2026-01-16 01:07:48.58	239.26	8.76	-49.8	-65.2	3.8	1.49e+00	0	43	104	1156579328	70	22136
2026-01-16 01:07:49.71	239.18	8.68	-50.1	-65.3	3.8	1.49e+00	0	43	104	1156579328	70	22347
2026-01-16 01:07:50.56	239.11	8.61	-50.0	-65.4	3.8	1.49e+00	0	43	104	1156579328	70	22535
2026-01-16 01:07:51.70	239.03	8.53	-50.2	-65.4	3.8	1.49e+00	0	43	104	1156579328	71	21298
2026-01-16 01:07:52.55	238.97	8.47	-50.2	-65.4	3.8	1.49e+00	0	43	104	1156579328	71	21392
2026-01-16 01:07:53.68	238.88	8.38	-50.2	-65.4	3.8	1.49e+00	0	44	104	1156579328	71	21493
2026-01-16 01:07:54.54	238.82	8.32	-50.2	-65.4	3.8	1.49e+00	0	43	104	1156579328	71	21417
2026-01-16 