passes_logs/2026/01/16/T1/T1__20260116_123614_AQUA_rec.log

#Pass ID: 20260116_123614_AQUA
#Satellite: AQUA
#Configuration: AQUA
#almurnet v.1.7.20251203
#Start time: 2026-01-16 12:36:15

#Version: 2.0.20230620
#Station: T1
#Location: 37.570604 lon 55.790049 lat
#TLE: 1 27424U 02022A   26015.92015591  .00000664  00000+0  14289-3 0  9993
#TLE: 2 27424  98.4082 342.3630 0002020  77.1389  16.3168 14.61822470261023

#Time	Az	El	Level	Level2	SNR	BER	BlckErr	Temp	State	Recorded	gain1	gain2
2026-01-16 12:36:15.30	192.82	5.04	-50.4	-71.4	3.8	7.48e-01	0	41	0	0	72	40470
2026-01-16 12:36:16.29	192.88	5.11	-50.4	-71.7	3.8	7.46e-01	0	41	104	0	71	44009
2026-01-16 12:36:17.28	192.95	5.18	-50.5	-71.7	3.8	7.46e-01	0	41	104	0	71	43913
2026-01-16 12:36:18.27	193.01	5.25	-50.4	-71.7	3.8	7.43e-01	0	41	104	0	71	44065
2026-01-16 12:36:19.27	193.08	5.32	-50.4	-71.7	3.8	7.44e-01	0	41	104	0	71	44001
2026-01-16 12:36:20.26	193.14	5.39	-50.5	-71.7	3.8	7.49e-01	0	41	104	0	71	44075
2026-01-16 12:36:21.25	193.21	5.46	-50.4	-71.7	3.8	7.47e-01	0	41	104	0	71	44234
2026-01-16 12:36:22.25	193.28	5.53	-50.5	-71.8	3.8	7.46e-01	0	41	104	0	71	44490
2026-01-16 12:36:23.24	193.34	5.60	-50.5	-71.7	3.8	7.45e-01	0	41	104	0	71	44102
2026-01-16 12:36:24.23	193.41	5.67	-50.4	-71.5	3.8	7.49e-01	0	41	104	0	71	43100
2026-01-16 12:36:25.23	193.48	5.74	-50.4	-71.1	3.8	7.44e-01	0	41	104	0	71	41429
2026-01-16 12:36:26.22	193.55	5.82	-50.4	-70.6	3.8	7.49e-01	0	41	104	0	71	38864
2026-01-16 12:36:27.21	193.61	5.89	-50.4	-70.2	3.8	7.44e-01	0	41	104	0	71	37227
2026-01-16 12:36:28.21	193.68	5.96	-50.4	-70.0	3.8	7.46e-01	0	41	104	0	71	36157
2026-01-16 12:36:29.20	193.75	6.03	-50.4	-70.0	3.8	7.48e-01	0	41	104	0	71	36320
2026-01-16 12:36:30.19	193.82	6.10	-50.4	-70.1	3.8	7.41e-01	0	42	104	0	71	36530
2026-01-16 12:36:31.19	193.89	6.18	-50.4	-70.5	3.8	7.45e-01	0	41	104	0	71	38339
2026-01-16 12:36:32.18	193.96	6.25	-50.4	-70.7	3.8	7.47e-01	0	42	104	0	71	39293
2026-01-16 12:36:33.17	194.03	6.32	-50.4	-70.8	3.8	7.44e-01	0	42	104	0	71	40034
2026-01-16 12:36:34.17	194.10	6.39	-50.4	-70.9	3.8	7.46e-01	0	42	104	0	71	40192
2026-01-16 12:36:35.16	194.18	6.47	-50.4	-70.7	3.8	7.45e-01	0	42	104	0	71	39304
2026-01-16 12:36:36.15	194.25	6.54	-50.4	-70.5	3.8	7.48e-01	0	42	104	0	71	38521
2026-01-16 12:36:37.14	194.32	6.61	-50.4	-70.3	3.8	7.45e-01	0	42	104	0	71	37398
2026-01-16 12:36:38.14	194.39	6.69	-50.4	-70.4	3.8	7.49e-01	0	42	104	0	71	38243
2026-01-16 12:36:39.13	194.46	6.76	-50.4	-70.3	3.9	7.44e-01	0	42	104	0	71	37571
2026-01-16 12:36:40.12	194.54	6.83	-50.4	-70.6	3.8	7.46e-01	0	42	104	0	71	39120
2026-01-16 12:36:41.12	194.61	6.91	-50.4	-70.9	3.8	7.46e-01	0	42	104	0	71	40322
2026-01-16 12:36:42.11	194.69	6.98	-50.4	-71.3	3.8	7.43e-01	0	42	104	0	71	42213
2026-01-16 12:36:43.10	194.76	7.06	-50.4	-71.4	3.8	7.47e-01	0	42	104	0	71	42517
2026-01-16 12:36:44.10	194.84	7.13	-50.4	-70.7	3.8	7.44e-01	0	42	104	0	71	39210
2026-01-16 12:36:45.09	194.91	7.21	-50.3	-68.9	4.0	7.37e-01	0	42	104	0	71	31900
2026-01-16 12:36:46.08	194.99	7.28	-50.3	-66.9	4.7	7.20e-01	0	42	104	0	71	25441
2026-01-16 12:36:47.08	195.06	7.36	-50.2	-65.5	5.4	7.01e-01	0	42	0	0	71	21682
2026-01-16 12:36:48.07	195.14	7.43	-50.2	-65.1	5.7	6.94e-01	0	42	0	524288	71	20764
2026-01-16 12:36:49.06	195.22	7.51	-50.2	-65.6	5.4	7.02e-01	0	42	0	1572864	71	21840
2026-01-16 12:36:50.06	195.29	7.59	-50.3	-68.0	4.3	7.32e-01	0	42	104	1572864	71	28715
2026-01-16 12:36:51.05	195.37	7.66	-50.4	-71.5	3.8	7.44e-01	0	42	104	1572864	71	43237
2026-01-16 12:36:52.05	195.45	7.74	-50.3	-67.8	4.0	7.34e-01	0	42	104	1572864	71	28259
2026-01-16 12:36:53.04	195.53	7.82	-50.0	-61.4	8.9	6.38e-01	0	42	0	2621440	71	13468
2026-01-16 12:36:54.03	195.61	7.89	-49.3	-57.3	13.2	6.12e-01	0	42	0	4194304	70	8882
2026-01-16 12:36:55.02	195.69	7.97	-48.3	-54.2	16.3	6.08e-01	0	42	0	6291456	68	6979
2026-01-16 12:36:56.02	195.77	8.05	-47.2	-51.9	18.6	6.06e-01	0	42	0	8388608	66	6013
2026-01-16 12:36:57.01	195.85	8.13	-46.3	-50.3	20.1	6.09e-01	0	42	0	9961472	64	5620
2026-01-16 12:36:58.01	195.93	8.21	-45.9	-49.6	20.9	6.06e-01	0	42	0	12058624	63	5484
2026-01-16 12:36:59.00	196.01	8.28	-45.5	-49.0	21.4	6.07e-01	0	42	0	13631488	63	5127
2026-01-16 12:36:59.99	196.09	8.36	-45.4	-48.7	21.7	6.06e-01	0	42	0	15728640	62	5276
2026-01-16 12:37:00.98	196.17	8.44	-45.5	-48.9	21.6	6.06e-01	0	42	0	17301504	62	5343
2026-01-16 12:37:01.98	196.26	8.52	-45.9	-49.5	21.0	6.06e-01	0	42	0	19398656	62	5772
2026-01-16 12:37:02.97	196.34	8.60	-46.3	-50.2	20.3	6.08e-01	0	42	0	20971520	63	5885
2026-01-16 12:37:03.97	196.42	8.68	-46.9	-51.4	19.2	6.08e-01	0	43	0	23068672	64	6378
2026-01-16 12:37:04.96	196.51	8.76	-47.6	-52.8	17.7	6.08e-01	0	43	0	25165824	65	7071
2026-01-16 12:37:05.95	196.59	8.84	-48.5	-54.8	15.8	6.07e-01	0	43	0	26738688	67	7934
2026-01-16 12:37:06.94	196.67	8.92	-49.1	-56.5	14.1	6.08e-01	0	43	0	28311552	68	9173
2026-01-16 12:37:07.94	196.76	9.00	-49.5	-58.4	12.2	6.13e-01	0	43	0	30408704	69	10686
2026-01-16 12:37:08.93	196.85	9.08	-49.5	-58.3	12.3	6.12e-01	0	43	0	32505856	69	10563
2026-01-16 12:37:09.93	196.93	9.16	-50.2	-64.6	6.4	6.82e-01	0	43	0	34078720	71	19445
2026-01-16 12:37:10.92	197.02	9.24	-49.3	-57.2	13.7	6.07e-01	0	43	0	36175872	70	8800
2026-01-16 12:37:11.92	197.11	9.32	-46.5	-50.7	19.8	6.09e-01	0	43	0	37748736	65	5530
2026-01-16 12:37:12.91	197.20	9.40	-50.2	-64.3	6.5	6.77e-01	0	43	0	39845888	70	19873
2026-01-16 12:37:13.91	197.29	9.48	-49.7	-59.3	11.1	6.20e-01	0	43	0	41418752	71	10655
2026-01-16 12:37:14.90	197.37	9.57	-49.4	-58.3	12.3	6.11e-01	0	43	0	43515904	70	9959
2026-01-16 12:37:15.90	197.46	9.65	-49.4	-58.3	12.1	6.13e-01	0	43	0	45088768	70	9992
2026-01-16 12:37:16.89	197.55	9.73	-48.9	-56.6	14.2	6.10e-01	0	43	0	47185920	69	8683
2026-01-16 12:37:17.89	197.65	9.81	-48.8	-56.2	14.6	6.09e-01	0	43	0	49283072	69	8342
2026-01-16 12:37:18.88	197.74	9.90	-48.6	-55.7	14.9	6.10e-01	0	43	0	50855936	69	7841
2026-01-16 12:37:19.88	197.83	9.98	-48.5	-55.3	15.5	6.08e-01	0	43	0	52953088	68	7905
2026-01-16 12:37:20.87	197.92	10.06	-48.6	-55.6	15.1	6.08e-01	0	43	0	54525952	68	8248
2026-01-16 12:37:21.87	198.01	10.15	-48.3	-54.7	16.0	6.06e-01	0	43	0	56623104	68	7411
2026-01-16 12:37:22.86	198.11	10.23	-48.5	-54.8	16.0	6.08e-01	0	43	0	58195968	68	7535
2026-01-16 12:37:23.86	198.20	10.32	-48.3	-54.3	16.6	6.07e-01	0	43	0	60293120	68	7059
2026-01-16 12:37:24.85	198.30	10.40	-47.9	-53.5	17.2	6.06e-01	0	43	0	62390272	67	6814
2026-01-16 12:37:25.85	198.39	10.49	-47.2	-51.9	18.6	6.06e-01	0	43	0	63963136	66	6042
2026-01-16 12:37:26.84	198.49	10.57	-47.0	-51.6	19.0	6.09e-01	0	43	0	66060288	65	6168
2026-01-16 12:37:27.83	198.58	10.66	-47.0	-51.7	19.0	6.09e-01	0	43	0	67633152	65	6242
2026-01-16 12:37:28.83	198.68	10.74	-46.8	-51.4	19.4	6.10e-01	0	43	0	69730304	65	6012
2026-01-16 12:37:29.83	198.78	10.83	-46.5	-50.7	19.8	6.07e-01	0	43	0	71303168	64	5869
2026-01-16 12:37:30.82	198.88	10.91	-46.1	-50.1	20.3	6.09e-01	0	43	0	73400320	64	5465
2026-01-16 12:37:31.81	198.97	11.00	-46.0	-49.8	20.8	6.06e-01	0	43	0	74973184	63	5642
2026-01-16 12:37:32.81	199.07	11.09	-45.9	-49.5	21.0	6.07e-01	0	43	0	77070336	63	5457
2026-01-16 12:37:33.80	199.17	11.17	-45.9	-49.6	21.2	6.05e-01	0	43	0	79167488	63	5475
2026-01-16 12:37:34.80	199.27	11.26	-45.9	-49.6	21.2	6.07e-01	0	43	0	80740352	63	5465
2026-01-16 12:37:35.79	199.38	11.35	-45.7	-49.2	21.6	6.09e-01	0	43	0	82837504	63	5221
2026-01-16 12:37:36.79	199.48	11.44	-45.7	-49.1	21.5	6.09e-01	0	43	0	84410368	63	5182
2026-01-16 12:37:37.78	199.58	11.52	-44.9	-48.0	22.4	6.09e-01	0	43	0	86507520	61	5159
2026-01-16 12:37:38.78	199.68	11.61	-45.0	-48.1	22.5	6.09e-01	0	43	0	88080384	61	5181
2026-01-16 12:37:39.77	199.79	11.70	-45.2	-48.4	22.2	6.08e-01	0	43	0	90177536	61	5380
2026-01-16 12:37:40.77	199.89	11.79	-45.0	-48.1	22.4	6.07e-01	0	43	0	91750400	61	5200
2026-01-16 12:37:41.76	200.00	11.88	-44.7	-47.5	23.0	6.07e-01	0	43	0	93847552	61	4856
2026-01-16 12:37:42.76	200.10	11.97	-44.3	-47.0	23.4	6.05e-01	0	43	0	95944704	60	4857
2026-01-16 12:37:43.75	200.21	12.06	-44.3	-47.0	23.5	6.09e-01	0	43	0	97517568	60	4834
2026-01-16 12:37:44.75	200.32	12.15	-44.4	-47.1	23.4	6.05e-01	0	43	0	99614720	60	4894
2026-01-16 12:37:45.74	200.42	12.24	-44.4	-47.1	23.3	6.06e-01	0	43	0	101187584	60	4920
2026-01-16 12:37:46.74	200.53	12.33	-44.3	-47.0	23.5	6.07e-01	0	43	0	103284736	60	4827
2026-01-16 12:37:47.73	200.64	12.42	-44.4	-47.1	23.4	6.06e-01	0	43	0	104857600	60	4900
2026-01-16 12:37:48.73	200.75	12.51	-44.3	-47.0	23.6	6.08e-01	0	43	0	106954752	60	4815
2026-01-16 12:37:49.72	200.86	12.60	-44.5	-47.2	23.3	6.07e-01	0	43	0	108527616	60	4979
2026-01-16 12:37:50.72	200.97	12.70	-44.3	-47.0	23.5	6.07e-01	0	43	0	110624768	60	4831
2026-01-16 12:37:51.71	201.09	12.79	-44.2	-46.9	23.6	6.07e-01	0	43	0	112721920	60	4813
2026-01-16 12:37:52.71	201.20	12.88	-44.3	-47.0	23.5	6.08e-01	0	43	0	114294784	60	4859
2026-01-16 12:37:53.70	201.31	12.97	-44.1	-46.9	23.7	6.08e-01	0	43	0	116391936	60	4776
2026-01-16 12:37:54.69	201.43	13.07	-44.2	-46.9	23.5	6.06e-01	0	43	0	117964800	60	4801
2026-01-16 12:37:55.69	201.54	13.16	-44.1	-46.8	23.7	6.03e-01	0	43	0	120061952	60	4735
2026-01-16 12:37:56.68	201.66	13.25	-44.1	-46.9	23.6	6.07e-01	0	43	0	121634816	60	4792
2026-01-16 12:37:57.68	201.77	13.35	-44.2	-47.0	23.5	6.08e-01	0	43	0	123731968	60	4853
2026-01-16 12:37:58.68	201.89	13.44	-44.2	-47.0	23.6	6.08e-01	0	43	0	125829120	60	4837
2026-01-16 12:37:59.67	202.01	13.54	-44.1	-46.8	23.7	6.08e-01	0	43	0	127401984	60	4748
2026-01-16 12:38:00.66	202.13	13.63	-44.0	-46.8	23.7	6.02e-01	0	43	0	129499136	60	4720
2026-01-16 12:38:01.66	202.25	13.73	-44.1	-46.9	23.8	6.06e-01	0	43	0	131072000	59	5044
2026-01-16 12:38:02.65	202.37	13.82	-44.2	-47.0	23.6	6.07e-01	0	43	0	133169152	59	5135
2026-01-16 12:38:03.64	202.49	13.92	-44.1	-46.9	23.8	6.07e-01	0	43	0	134742016	59	5064
2026-01-16 12:38:04.64	202.61	14.01	-44.0	-46.7	23.9	6.08e-01	0	43	0	136839168	59	4946
2026-01-16 12:38:05.63	202.73	14.11	-44.0	-46.7	23.9	6.05e-01	0	43	0	138412032	59	4968
2026-01-16 12:38:06.63	202.86	14.21	-44.0	-46.8	23.8	6.04e-01	0	43	0	140509184	59	5006
2026-01-16 12:38:07.62	202.98	14.30	-44.1	-46.9	23.8	6.07e-01	0	43	0	142606336	59	5051
2026-01-16 12:38:08.61	203.11	14.40	-44.1	-46.8	23.8	6.05e-01	0	43	0	144179200	59	5028
2026-01-16 12:38:09.61	203.23	14.50	-44.2	-47.0	23.7	6.05e-01	0	43	0	146276352	59	5106
2026-01-16 12:38:10.60	203.36	14.59	-44.1	-46.8	23.8	6.05e-01	0	43	0	147849216	59	5034
2026-01-16 12:38:11.60	203.49	14.69	-44.1	-46.8	23.9	6.07e-01	0	43	0	149946368	59	4993
2026-01-16 12:38:12.59	203.62	14.79	-44.2	-46.8	23.8	6.08e-01	0	43	0	151519232	59	5027
2026-01-16 12:38:13.58	203.75	14.89	-44.2	-46.8	23.8	6.08e-01	0	43	0	153616384	59	5018
2026-01-16 12:38:14.58	203.88	14.99	-44.1	-46.7	23.9	6.05e-01	0	43	0	155189248	59	4954
2026-01-16 12:38:15.57	204.01	15.09	-44.0	-46.6	24.0	6.06e-01	0	43	0	157286400	59	4894
2026-01-16 12:38:16.57	204.14	15.19	-44.1	-46.7	23.9	6.09e-01	0	43	0	159383552	59	4968
2026-01-16 12:38:17.56	204.27	15.29	-44.2	-46.8	23.9	6.07e-01	0	43	0	160956416	59	5008
2026-01-16 12:38:18.56	204.41	15.39	-44.1	-46.7	23.9	6.08e-01	0	43	0	163053568	59	4955
2026-01-16 12:38:19.55	204.54	15.49	-44.1	-46.7	24.0	6.06e-01	0	43	0	164626432	59	4932
2026-01-16 12:38:20.55	204.68	15.59	-44.0	-46.5	24.1	6.08e-01	0	43	0	166723584	59	4860
2026-01-16 12:38:21.54	204.82	15.69	-44.1	-46.6	24.0	6.08e-01	0	43	0	168296448	59	4893
2026-01-16 12:38:22.54	204.96	15.79	-44.2	-46.7	23.9	6.06e-01	0	43	0	170393600	59	4938
2026-01-16 12:38:23.53	205.09	15.90	-44.1	-46.6	24.0	6.06e-01	0	43	0	171966464	59	4906
2026-01-16 12:38:24.52	205.23	16.00	-44.3	-46.8	23.9	6.09e-01	0	43	0	174063616	59	4995
2026-01-16 12:38:25.52	205.37	16.10	-44.3	-46.8	23.9	6.07e-01	0	43	0	176160768	59	4989
2026-01-16 12:38:26.51	205.52	16.20	-44.2	-46.7	24.0	6.05e-01	0	43	0	177733632	59	4933
2026-01-16 12:38:27.51	205.66	16.31	-44.2	-46.7	23.9	6.07e-01	0	43	0	179830784	59	4942
2026-01-16 12:38:28.51	205.81	16.41	-44.1	-46.6	24.1	6.05e-01	0	43	0	181403648	59	4887
2026-01-16 12:38:29.50	205.95	16.51	-44.0	-46.5	24.1	6.05e-01	0	43	0	183500800	59	4855
2026-01-16 12:38:30.50	206.10	16.62	-44.0	-46.6	24.1	6.07e-01	0	43	0	185073664	59	4888
2026-01-16 12:38:31.49	206.24	16.72	-44.1	-46.7	24.0	6.08e-01	0	43	0	187170816	59	4933
2026-01-16 12:38:32.48	206.39	16.83	-44.1	-46.6	24.0	6.06e-01	0	43	0	188743680	59	4911
2026-01-16 12:38:33.48	206.54	16.93	-44.1	-46.7	23.9	6.09e-01	0	43	0	190840832	59	4958
2026-01-16 12:38:34.47	206.69	17.04	-44.1	-46.7	24.0	6.07e-01	0	43	0	192937984	59	4937
2026-01-16 12:38:35.47	206.84	17.15	-44.1	-46.7	24.0	6.05e-01	0	43	0	194510848	59	4966
2026-01-16 12:38:36.46	206.99	17.25	-43.9	-46.5	24.2	6.08e-01	0	43	0	196608000	59	4824
2026-01-16 12:38:37.45	207.15	17.36	-44.0	-46.6	24.1	6.07e-01	0	43	0	198180864	59	4886
2026-01-16 12:38:38.45	207.30	17.46	-44.1	-46.6	24.1	6.06e-01	0	43	0	200278016	59	4889
2026-01-16 12:38:39.44	207.46	17.57	-44.0	-46.5	24.2	6.04e-01	0	43	0	201850880	59	4825
2026-01-16 12:38:40.44	207.62	17.68	-44.1	-46.6	24.1	6.07e-01	0	43	0	203948032	59	4910
2026-01-16 12:38:41.43	207.77	17.79	-44.1	-46.7	24.0	6.07e-01	0	43	0	205520896	59	4927
2026-01-16 12:38:42.43	207.94	17.90	-44.1	-46.6	24.1	6.08e-01	0	43	0	207618048	59	4906
2026-01-16 12:38:43.42	208.09	18.00	-44.2	-46.7	24.0	6.07e-01	0	43	0	209715200	59	4943
2026-01-16 12:38:44.42	208.26	18.11	-44.1	-46.5	24.2	6.05e-01	0	43	0	211288064	59	4864
2026-01-16 12:38:45.41	208.42	18.22	-44.2	-46.7	24.0	6.08e-01	0	43	0	213385216	59	4958
2026-01-16 12:38:46.40	208.58	18.33	-44.3	-46.8	23.9	6.07e-01	0	43	0	214958080	59	5015
2026-01-16 12:38:47.40	208.75	18.44	-44.2	-46.7	24.0	6.07e-01	0	43	0	217055232	59	4976
2026-01-16 12:38:48.39	208.92	18.55	-44.2	-46.7	24.0	6.08e-01	0	43	0	218628096	59	4956
2026-01-16 12:38:49.39	209.08	18.66	-44.2	-46.7	24.0	6.07e-01	0	43	0	220725248	59	4974
2026-01-16 12:38:50.38	209.25	18.77	-44.1	-46.6	24.1	6.08e-01	0	43	0	222298112	59	4881
2026-01-16 12:38:51.38	209.42	18.88	-44.2	-46.7	24.0	6.07e-01	0	43	0	224395264	59	4941
2026-01-16 12:38:52.37	209.60	18.99	-44.1	-46.6	24.0	6.07e-01	0	43	0	226492416	59	4913
2026-01-16 12:38:53.37	209.77	19.11	-44.1	-46.6	24.1	6.07e-01	0	43	0	228065280	59	4875
2026-01-16 12:38:54.36	209.94	19.22	-44.1	-46.6	24.1	6.05e-01	0	43	0	230162432	59	4872
2026-01-16 12:38:55.36	210.12	19.33	-44.1	-46.5	24.2	6.08e-01	0	43	0	231735296	59	4857
2026-01-16 12:38:56.35	210.30	19.44	-44.1	-46.6	24.1	6.08e-01	0	43	0	233832448	59	4874
2026-01-16 12:38:57.35	210.48	19.56	-44.2	-46.7	24.0	6.06e-01	0	43	0	235405312	59	4970
2026-01-16 12:38:58.34	210.65	19.67	-44.1	-46.6	24.1	6.07e-01	0	43	0	237502464	59	4910
2026-01-16 12:38:59.34	210.84	19.78	-44.2	-46.8	24.0	6.07e-01	0	43	0	239075328	59	4984
2026-01-16 12:39:00.33	211.02	19.90	-44.1	-46.7	24.0	6.07e-01	0	43	0	241172480	59	4963
2026-01-16 12:39:01.33	211.20	20.01	-44.2	-46.7	24.0	6.09e-01	0	44	0	243269632	59	4966
2026-01-16 12:39:02.33	211.39	20.13	-44.1	-46.7	24.0	6.06e-01	0	43	0	244842496	59	4944
2026-01-16 12:39:03.32	211.58	20.24	-44.2	-46.8	23.9	6.07e-01	0	43	0	246939648	59	5007
2026-01-16 12:39:04.32	211.77	20.35	-44.2	-46.7	24.0	6.08e-01	0	43	0	248512512	59	4976
2026-01-16 12:39:05.31	211.95	20.47	-44.1	-46.6	24.1	6.08e-01	0	43	0	250609664	59	4919
2026-01-16 12:39:06.30	212.14	20.58	-44.2	-46.7	24.0	6.08e-01	0	43	0	252182528	59	4946
2026-01-16 12:39:07.30	212.34	20.70	-44.2	-46.7	24.0	6.08e-01	0	43	0	254279680	59	4966
2026-01-16 12:39:08.29	212.53	20.82	-44.0	-46.5	24.2	6.06e-01	0	43	0	255852544	59	4848
2026-01-16 12:39:09.29	212.73	20.93	-44.1	-46.6	24.2	6.06e-01	0	43	0	257949696	59	4887
2026-01-16 12:39:10.28	212.92	21.05	-44.2	-46.7	24.1	6.06e-01	0	43	0	260046848	59	4944
2026-01-16 12:39:11.28	213.12	21.17	-44.2	-46.8	24.0	6.07e-01	0	43	0	261619712	59	4991
2026-01-16 12:39:12.27	213.32	21.28	-44.1	-46.6	24.1	6.06e-01	0	43	0	263716864	59	4905
2026-01-16 12:39:13.27	213.53	21.40	-44.1	-46.6	24.2	6.04e-01	0	43	0	265289728	59	4879
2026-01-16 12:39:14.26	213.73	21.52	-44.2	-46.7	24.0	6.07e-01	0	43	0	267386880	59	4963
2026-01-16 12:39:15.26	213.94	21.64	-44.1	-46.6	24.1	6.07e-01	0	43	0	268959744	59	4890
2026-01-16 12:39:16.25	214.14	21.75	-44.1	-46.7	24.1	6.06e-01	0	43	0	271056896	59	4935
2026-01-16 12:39:17.24	214.35	21.87	-44.1	-46.6	24.1	6.09e-01	0	43	0	272629760	59	4909
2026-01-16 12:39:18.24	214.56	21.99	-44.1	-46.7	24.1	6.06e-01	0	43	0	274726912	59	4950
2026-01-16 12:39:19.23	214.77	22.11	-44.2	-46.8	24.0	6.07e-01	0	44	0	276824064	59	4988
2026-01-16 12:39:20.23	214.98	22.23	-44.2	-46.8	24.0	6.09e-01	0	43	0	278396928	59	4998
2026-01-16 12:39:21.22	215.20	22.35	-44.3	-46.8	24.0	6.06e-01	0	43	0	280494080	59	5016
2026-01-16 12:39:22.22	215.42	22.47	-44.3	-46.8	23.9	6.06e-01	0	43	0	282066944	59	5032
2026-01-16 12:39:23.21	215.63	22.59	-44.2	-46.7	24.0	6.07e-01	0	43	0	284164096	59	4966
2026-01-16 12:39:24.21	215.85	22.71	-44.3	-46.8	24.0	6.05e-01	0	43	0	285736960	59	5016
2026-01-16 12:39:25.20	216.08	22.83	-44.4	-46.9	23.8	6.07e-01	0	43	0	287834112	59	5086
2026-01-16 12:39:26.20	216.30	22.95	-44.3	-46.8	23.9	6.04e-01	0	43	0	289406976	59	5021
2026-01-16 12:39:27.19	216.52	23.07	-44.3	-46.9	23.9	6.05e-01	0	43	0	291504128	59	5054
2026-01-16 12:39:28.19	216.75	23.19	-44.2	-46.7	24.0	6.06e-01	0	43	0	293601280	59	4974
2026-01-16 12:39:29.18	216.98	23.31	-44.4	-47.0	23.8	6.06e-01	0	43	0	295174144	59	5123
2026-01-16 12:39:30.18	217.21	23.43	-44.3	-46.9	23.9	6.06e-01	0	43	0	297271296	59	5065
2026-01-16 12:39:31.17	217.44	23.55	-44.3	-46.8	24.0	6.07e-01	0	43	0	298844160	59	5031
2026-01-16 12:39:32.17	217.68	23.67	-44.2	-46.7	24.1	6.08e-01	0	43	0	300941312	59	4969
2026-01-16 12:39:33.16	217.91	23.79	-44.4	-46.9	23.9	6.08e-01	0	43	0	302514176	59	5088
2026-01-16 12:39:34.16	218.15	23.92	-44.6	-47.2	23.8	6.07e-01	0	43	0	304611328	59	5240
2026-01-16 12:39:35.15	218.39	24.04	-44.5	-47.0	23.7	6.04e-01	0	43	0	306708480	60	4849
2026-01-16 12:39:36.15	218.64	24.16	-44.2	-46.7	24.0	6.08e-01	0	43	0	308281344	60	4674
2026-01-16 12:39:37.14	218.88	24.28	-44.1	-46.6	24.1	6.09e-01	0	43	0	310378496	60	4624
2026-01-16 12:39:38.14	219.13	24.40	-44.3	-46.8	23.9	6.06e-01	0	43	0	311951360	60	4739
2026-01-16 12:39:39.13	219.37	24.52	-44.2	-46.8	23.9	6.06e-01	0	43	0	314048512	60	4728
2026-01-16 12:39:40.13	219.62	24.65	-44.1	-46.6	24.1	6.07e-01	0	43	0	315621376	60	4618
2026-01-16 12:39:41.12	219.87	24.77	-44.1	-46.6	24.1	6.04e-01	0	43	0	317718528	60	4620
2026-01-16 12:39:42.12	220.13	24.89	-44.3	-46.8	23.9	6.08e-01	0	43	0	319291392	60	4745
2026-01-16 12:39:43.11	220.38	25.01	-44.3	-46.8	23.9	6.06e-01	0	43	0	321388544	60	4737
2026-01-16 12:39:44.11	220.64	25.14	-44.3	-46.8	23.9	6.07e-01	0	43	0	323485696	60	4740
2026-01-16 12:39:45.10	220.90	25.26	-44.3	-46.8	23.9	6.06e-01	0	43	0	325058560	60	4758
2026-01-16 12:39:46.10	221.17	25.38	-44.2	-46.7	24.0	6.07e-01	0	43	0	327155712	60	4691
2026-01-16 12:39:47.09	221.43	25.50	-44.2	-46.7	24.0	6.07e-01	0	44	0	328728576	60	4663
2026-01-16 12:39:48.09	221.70	25.62	-44.1	-46.6	24.1	6.08e-01	0	43	0	330825728	60	4633
2026-01-16 12:39:49.08	221.96	25.75	-44.1	-46.6	24.1	6.08e-01	0	43	0	332398592	60	4615
2026-01-16 12:39:50.08	222.23	25.87	-44.2	-46.7	24.0	6.04e-01	0	43	0	334495744	60	4673
2026-01-16 12:39:51.07	222.51	25.99	-44.2	-46.7	24.0	6.07e-01	0	43	0	336068608	60	4699
2026-01-16 12:39:52.07	222.78	26.11	-44.2	-46.7	24.0	6.08e-01	0	43	0	338165760	60	4699
2026-01-16 12:39:53.06	223.06	26.23	-44.1	-46.6	24.1	6.09e-01	0	44	0	340262912	60	4636
2026-01-16 12:39:54.06	223.34	26.36	-44.1	-46.6	24.1	6.07e-01	0	43	0	341835776	60	4613
2026-01-16 12:39:55.05	223.62	26.48	-44.2	-46.7	24.1	6.06e-01	0	43	0	343932928	60	4670
2026-01-16 12:39:56.05	223.90	26.60	-44.4	-46.8	23.9	6.05e-01	0	43	0	345505792	60	4759
2026-01-16 12:39:57.04	224.19	26.72	-44.2	-46.7	24.0	6.07e-01	0	43	0	347602944	60	4680
2026-01-16 12:39:58.04	224.48	26.84	-44.2	-46.6	24.1	6.07e-01	0	43	0	349175808	60	4631
2026-01-16 12:39:59.03	224.76	26.96	-44.3	-46.8	24.0	6.05e-01	0	43	0	351272960	60	4724
2026-01-16 12:40:00.03	225.06	27.09	-44.4	-46.9	23.8	6.07e-01	0	44	0	352845824	60	4790
2026-01-16 12:40:01.02	225.35	27.21	-44.3	-46.7	24.0	6.07e-01	0	43	0	354942976	60	4699
2026-01-16 12:40:02.02	225.65	27.33	-44.2	-46.7	24.0	6.06e-01	0	43	0	357040128	60	4686
2026-01-16 12:40:03.01	225.95	27.45	-44.2	-46.7	24.0	6.06e-01	0	44	0	358612992	60	4674
2026-01-16 12:40:04.01	226.25	27.57	-44.2	-46.6	24.1	6.06e-01	0	43	0	360710144	60	4641
2026-01-16 12:40:05.00	226.55	27.69	-44.2	-46.6	24.1	6.06e-01	0	43	0	362283008	60	4635
2026-01-16 12:40:06.00	226.86	27.81	-44.3	-46.8	24.0	6.09e-01	0	43	0	364380160	60	4728
2026-01-16 12:40:07.00	227.17	27.93	-44.1	-46.5	24.2	6.08e-01	0	44	0	365953024	60	4596
2026-01-16 12:40:07.99	227.48	28.05	-44.1	-46.5	24.2	6.07e-01	0	44	0	368050176	60	4596
2026-01-16 12:40:08.99	227.79	28.17	-44.2	-46.7	24.0	6.08e-01	0	43	0	369623040	60	4671
2026-01-16 12:40:09.98	228.11	28.28	-44.2	-46.7	24.1	6.08e-01	0	43	0	371720192	60	4663
2026-01-16 12:40:10.97	228.42	28.40	-44.0	-46.5	24.2	6.06e-01	0	43	0	373817344	60	4558
2026-01-16 12:40:11.97	228.75	28.52	-44.2	-46.7	24.1	6.07e-01	0	43	0	375390208	60	4676
2026-01-16 12:40:12.96	229.07	28.64	-44.2	-46.7	24.0	6.06e-01	0	43	0	377487360	60	4698
2026-01-16 12:40:13.96	229.39	28.75	-44.3	-46.8	23.9	6.06e-01	0	43	0	379060224	60	4735
2026-01-16 12:40:14.95	229.72	28.87	-44.2	-46.7	24.0	6.08e-01	0	43	0	381157376	60	4683
2026-01-16 12:40:15.95	230.05	28.99	-44.2	-46.7	24.0	6.09e-01	0	43	0	383254528	60	4680
2026-01-16 12:40:16.94	230.38	29.10	-44.3	-46.8	23.9	6.05e-01	0	44	0	384827392	60	4730
2026-01-16 12:40:17.94	230.72	29.22	-44.3	-46.9	23.9	6.06e-01	0	43	0	386924544	60	4781
2026-01-16 12:40:18.93	231.06	29.33	-44.3	-46.9	23.9	6.08e-01	0	43	0	388497408	60	4795
2026-01-16 12:40:19.92	231.39	29.44	-44.2	-46.8	24.0	6.06e-01	0	43	0	390594560	60	4732
2026-01-16 12:40:20.92	231.74	29.56	-44.3	-46.8	24.0	6.07e-01	0	43	0	392167424	60	4752
2026-01-16 12:40:21.91	232.08	29.67	-44.1	-46.6	24.1	6.08e-01	0	44	0	394264576	60	4624
2026-01-16 12:40:22.91	232.43	29.78	-44.2	-46.7	24.0	6.05e-01	0	44	0	395837440	60	4681
2026-01-16 12:40:23.90	232.78	29.89	-44.0	-46.5	24.2	6.05e-01	0	44	0	397934592	60	4584
2026-01-16 12:40:24.90	233.13	30.01	-44.2	-46.6	24.2	6.07e-01	0	44	0	399507456	59	4918
2026-01-16 12:40:25.89	233.48	30.12	-44.4	-46.9	24.0	6.06e-01	0	44	0	401604608	59	5065
2026-01-16 12:40:26.89	233.84	30.23	-44.4	-47.0	23.9	6.07e-01	0	43	0	403701760	59	5130
2026-01-16 12:40:27.88	234.20	30.33	-44.3	-46.8	24.0	6.04e-01	0	43	0	405274624	59	5029
2026-01-16 12:40:28.88	234.56	30.44	-44.2	-46.7	24.1	6.08e-01	0	44	0	407371776	59	4966
2026-01-16 12:40:29.87	234.92	30.55	-44.4	-46.9	23.9	6.06e-01	0	43	0	408944640	59	5089
2026-01-16 12:40:30.87	235.29	30.66	-44.3	-46.8	24.0	6.05e-01	0	43	0	411041792	59	5027
2026-01-16 12:40:31.86	235.66	30.76	-44.3	-46.8	24.1	6.07e-01	0	43	0	412614656	59	4997
2026-01-16 12:40:32.86	236.03	30.87	-44.2	-46.7	24.1	6.09e-01	0	43	0	414711808	59	4976
2026-01-16 12:40:33.85	236.41	30.97	-44.2	-46.7	24.1	6.08e-01	0	43	0	416808960	59	4963
2026-01-16 12:40:34.84	236.78	31.07	-44.2	-46.7	24.1	6.07e-01	0	43	0	418381824	59	4970
2026-01-16 12:40:35.84	237.16	31.17	-44.3	-46.8	24.1	6.07e-01	0	44	0	420478976	59	5007
2026-01-16 12:40:36.83	237.54	31.27	-44.1	-46.6	24.2	6.06e-01	0	43	0	422051840	59	4879
2026-01-16 12:40:37.83	237.93	31.37	-44.2	-46.6	24.2	6.06e-01	0	43	0	424148992	59	4919
2026-01-16 12:40:38.83	238.31	31.47	-44.2	-46.6	24.2	6.08e-01	0	44	0	425721856	59	4916
2026-01-16 12:40:39.82	238.70	31.57	-44.1	-46.5	24.3	6.08e-01	0	43	0	427819008	59	4869
2026-01-16 12:40:40.82	239.09	31.67	-44.4	-46.9	24.0	6.07e-01	0	43	0	429391872	59	5081
2026-01-16 12:40:41.81	239.48	31.76	-44.3	-46.8	24.0	6.09e-01	0	43	0	431489024	59	5012
2026-01-16 12:40:42.81	239.88	31.86	-44.3	-46.8	24.0	6.07e-01	0	44	0	433586176	59	5036
2026-01-16 12:40:43.80	240.28	31.95	-44.2	-46.7	24.2	6.08e-01	0	43	0	435159040	59	4930
2026-01-16 12:40:44.79	240.68	32.04	-44.4	-46.9	24.0	6.08e-01	0	43	0	437256192	59	5055
2026-01-16 12:40:45.79	241.08	32.14	-44.3	-46.8	24.1	6.06e-01	0	43	0	438829056	59	4996
2026-01-16 12:40:46.78	241.48	32.22	-44.2	-46.7	24.2	6.08e-01	0	44	0	440926208	59	4958
2026-01-16 12:40:47.78	241.89	32.31	-44.4	-46.8	24.0	6.06e-01	0	43	0	442499072	59	5039
2026-01-16 12:40:48.77	242.30	32.40	-44.0	-46.5	24.3	6.05e-01	0	43	0	444596224	59	4817
2026-01-16 12:40:49.77	242.71	32.49	-44.1	-46.5	24.3	6.08e-01	0	44	0	446169088	59	4843
2026-01-16 12:40:50.76	243.12	32.57	-44.0	-46.4	24.4	6.06e-01	0	43	0	448266240	59	4779
2026-01-16 12:40:51.76	243.54	32.66	-44.1	-46.5	24.3	6.06e-01	0	43	0	450363392	59	4852
2026-01-16 12:40:52.75	243.96	32.74	-44.0	-46.5	24.3	6.08e-01	0	43	0	451936256	59	4817
2026-01-16 12:40:53.75	244.38	32.82	-43.9	-46.3	24.5	6.05e-01	0	43	0	454033408	59	4735
2026-01-16 12:40:54.74	244.80	32.90	-44.0	-46.4	24.3	6.03e-01	0	43	0	455606272	59	4813
2026-01-16 12:40:55.73	245.22	32.97	-43.8	-46.2	24.6	6.06e-01	0	44	0	457703424	59	4681
2026-01-16 12:40:56.72	245.64	33.05	-44.0	-46.4	24.4	6.07e-01	0	43	0	459276288	59	4804
2026-01-16 12:40:57.72	246.08	33.13	-43.9	-46.4	24.4	6.06e-01	0	43	0	461373440	59	4774
2026-01-16 12:40:58.71	246.50	33.20	-43.7	-46.0	24.7	6.07e-01	0	43	0	462946304	59	4576
2026-01-16 12:40:59.71	246.94	33.27	-43.9	-46.3	24.5	6.05e-01	0	43	0	465043456	59	4727
2026-01-16 12:41:00.70	247.37	33.34	-44.0	-46.5	24.3	6.08e-01	0	43	0	467140608	59	4821
2026-01-16 12:41:01.69	247.80	33.41	-44.0	-46.4	24.4	6.06e-01	0	43	0	468713472	59	4811
2026-01-16 12:41:02.69	248.24	33.48	-43.8	-46.2	24.6	6.09e-01	0	43	0	470810624	59	4668
2026-01-16 12:41:03.68	248.68	33.54	-43.9	-46.2	24.5	6.09e-01	0	43	0	472383488	59	4702
2026-01-16 12:41:04.68	249.12	33.60	-43.9	-46.3	24.5	6.06e-01	0	43	0	474480640	59	4712
2026-01-16 12:41:05.67	249.56	33.67	-43.9	-46.3	24.5	6.07e-01	0	43	0	476053504	59	4715
2026-01-16 12:41:06.67	250.01	33.73	-44.1	-46.5	24.3	6.07e-01	0	43	0	478150656	59	4847
2026-01-16 12:41:07.67	250.46	33.78	-43.8	-46.2	24.5	6.07e-01	0	43	0	479723520	59	4692
2026-01-16 12:41:08.66	250.90	33.84	-43.6	-46.0	24.8	6.06e-01	0	43	0	481820672	59	4550
2026-01-16 12:41:09.66	251.36	33.90	-43.8	-46.2	24.6	6.05e-01	0	43	0	483917824	59	4689
2026-01-16 12:41:10.65	251.80	33.95	-43.9	-46.3	24.4	6.05e-01	0	43	0	485490688	59	4759
2026-01-16 12:41:11.65	252.26	34.00	-43.9	-46.4	24.4	6.07e-01	0	43	0	487587840	59	4769
2026-01-16 12:41:12.64	252.71	34.05	-43.9	-46.3	24.5	6.07e-01	0	43	0	489160704	59	4738
2026-01-16 12:41:13.64	253.17	34.10	-43.8	-46.2	24.5	6.06e-01	0	43	0	491257856	59	4698
2026-01-16 12:41:14.63	253.62	34.14	-43.7	-46.1	24.7	6.08e-01	0	43	0	492830720	59	4615
2026-01-16 12:41:15.63	254.08	34.19	-43.9	-46.2	24.6	6.06e-01	0	43	0	494927872	59	4691
2026-01-16 12:41:16.62	254.54	34.23	-43.8	-46.2	24.6	6.06e-01	0	43	0	496500736	59	4678
2026-01-16 12:41:17.62	255.00	34.27	-43.7	-46.1	24.7	6.05e-01	0	43	0	498597888	59	4608
2026-01-16 12:41:18.61	255.46	34.31	-43.8	-46.2	24.6	6.07e-01	0	43	0	500695040	59	4680
2026-01-16 12:41:19.61	255.92	34.34	-43.8	-46.3	24.5	6.07e-01	0	43	0	502267904	59	4718
2026-01-16 12:41:20.60	256.39	34.38	-43.7	-46.2	24.6	6.07e-01	0	43	0	504365056	59	4652
2026-01-16 12:41:21.59	256.85	34.41	-43.7	-46.1	24.7	6.07e-01	0	43	0	505937920	59	4616
2026-01-16 12:41:22.59	257.31	34.44	-43.7	-46.1	24.7	6.08e-01	0	43	0	508035072	59	4627
2026-01-16 12:41:23.58	257.78	34.47	-43.9	-46.3	24.5	6.05e-01	0	43	0	509607936	59	4744
2026-01-16 12:41:24.57	258.24	34.49	-43.6	-46.0	24.8	6.09e-01	0	43	0	511705088	59	4555
2026-01-16 12:41:25.57	258.71	34.52	-43.7	-46.2	24.6	6.06e-01	0	43	0	513277952	59	4681
2026-01-16 12:41:26.56	259.18	34.54	-43.6	-46.0	24.7	6.06e-01	0	43	0	515375104	59	4587
2026-01-16 12:41:27.56	259.65	34.56	-43.5	-45.9	24.8	6.08e-01	0	43	0	517472256	59	4542
2026-01-16 12:41:28.55	260.11	34.58	-43.6	-46.1	24.7	6.08e-01	0	43	0	519045120	59	4600
2026-01-16 12:41:29.55	260.59	34.59	-43.7	-46.1	24.7	6.05e-01	0	43	0	521142272	59	4643
2026-01-16 12:41:30.54	261.05	34.61	-43.8	-46.3	24.5	6.07e-01	0	43	0	522715136	59	4728
2026-01-16 12:41:31.54	261.53	34.62	-43.6	-45.9	24.8	6.06e-01	0	44	0	524812288	59	4541
2026-01-16 12:41:32.53	262.00	34.63	-43.6	-46.0	24.8	6.09e-01	0	43	0	526385152	58	4815
2026-01-16 12:41:33.53	262.47	34.63	-43.6	-46.0	24.8	6.05e-01	0	43	0	528482304	58	4856
2026-01-16 12:41:34.52	262.94	34.64	-43.5	-46.0	24.8	6.06e-01	0	44	0	530055168	58	4815
2026-01-16 12:41:35.52	263.41	34.64	-43.6	-46.0	24.7	6.07e-01	0	43	0	532152320	58	4836
2026-01-16 12:41:36.51	263.88	34.64	-43.5	-45.8	24.9	6.05e-01	0	44	0	534249472	58	4745
2026-01-16 12:41:37.51	264.35	34.64	-43.5	-45.9	24.8	6.07e-01	0	43	0	535822336	58	4767
2026-01-16 12:41:38.50	264.82	34.64	-43.6	-45.9	24.8	6.06e-01	0	43	0	537919488	58	4798
2026-01-16 12:41:39.49	265.29	34.64	-43.7	-46.1	24.7	6.06e-01	0	43	0	539492352	58	4871
2026-01-16 12:41:40.49	265.76	34.63	-43.5	-45.8	24.9	6.06e-01	0	43	0	541589504	58	4734
2026-01-16 12:41:41.48	266.23	34.62	-43.4	-45.8	24.9	6.05e-01	0	43	0	543162368	58	4739
2026-01-16 12:41:42.48	266.70	34.61	-43.5	-45.9	24.9	6.05e-01	0	44	0	545259520	58	4766
2026-01-16 12:41:43.47	267.17	34.60	-43.5	-45.9	24.9	6.07e-01	0	43	0	546832384	58	4776
2026-01-16 12:41:44.47	267.64	34.58	-43.5	-45.8	24.9	6.07e-01	0	43	0	548929536	58	4749
2026-01-16 12:41:45.46	268.11	34.56	-43.5	-45.8	24.9	6.05e-01	0	43	0	551026688	58	4724
2026-01-16 12:41:46.46	268.58	34.54	-43.5	-45.8	24.9	6.07e-01	0	44	0	552599552	58	4738
2026-01-16 12:41:47.45	269.05	34.52	-43.3	-45.7	25.0	6.07e-01	0	44	0	554696704	58	4666
2026-01-16 12:41:48.45	269.51	34.50	-43.4	-45.8	24.9	6.06e-01	0	43	0	556269568	58	4736
2026-01-16 12:41:49.44	269.98	34.47	-43.5	-45.9	24.9	6.06e-01	0	44	0	558366720	58	4760
2026-01-16 12:41:50.44	270.45	34.44	-43.3	-45.7	25.0	6.07e-01	0	43	0	559939584	58	4659
2026-01-16 12:41:51.43	270.91	34.42	-43.5	-45.8	24.9	6.06e-01	0	43	0	562036736	58	4725
2026-01-16 12:41:52.43	271.38	34.38	-43.5	-45.9	24.9	6.07e-01	0	44	0	563609600	58	4781
2026-01-16 12:41:53.42	271.84	34.35	-43.4	-45.7	25.0	6.03e-01	0	43	0	565706752	58	4677
2026-01-16 12:41:54.42	272.30	34.31	-43.4	-45.7	25.0	6.08e-01	0	43	0	567803904	58	4705
2026-01-16 12:41:55.41	272.76	34.28	-43.4	-45.7	25.0	6.06e-01	0	43	0	569376768	58	4684
2026-01-16 12:41:56.41	273.22	34.24	-43.4	-45.7	25.0	6.08e-01	0	43	0	571473920	58	4669
2026-01-16 12:41:57.40	273.68	34.20	-43.3	-45.6	25.1	6.06e-01	0	44	0	573046784	58	4630
2026-01-16 12:41:58.40	274.14	34.15	-43.4	-45.7	25.0	6.05e-01	0	44	0	575143936	58	4668
2026-01-16 12:41:59.39	274.59	34.11	-43.3	-45.7	25.0	6.07e-01	0	43	0	576716800	58	4653
2026-01-16 12:42:00.39	275.05	34.06	-43.4	-45.7	25.0	6.06e-01	0	43	0	578813952	58	4661
2026-01-16 12:42:01.39	275.50	34.01	-43.3	-45.6	25.1	6.04e-01	0	43	0	580386816	58	4638
2026-01-16 12:42:02.38	275.95	33.96	-43.2	-45.4	25.2	6.08e-01	0	44	0	582483968	58	4542
2026-01-16 12:42:03.38	276.40	33.91	-43.2	-45.5	25.2	6.07e-01	0	43	0	584581120	58	4564
2026-01-16 12:42:04.37	276.85	33.85	-43.2	-45.5	25.1	6.07e-01	0	44	0	586153984	58	4592
2026-01-16 12:42:05.36	277.30	33.80	-43.3	-45.6	25.2	6.10e-01	0	43	0	588251136	58	4618
2026-01-16 12:42:06.36	277.74	33.74	-43.2	-45.5	25.2	6.05e-01	0	43	0	589824000	58	4550
2026-01-16 12:42:07.35	278.19	33.68	-43.2	-45.5	25.2	6.06e-01	0	43	0	591921152	58	4550
2026-01-16 12:42:08.35	278.63	33.62	-43.2	-45.5	25.2	6.08e-01	0	43	0	593494016	58	4558
2026-01-16 12:42:09.34	279.07	33.56	-43.1	-45.4	25.3	6.04e-01	0	43	0	595591168	58	4505
2026-01-16 12:42:10.33	279.51	33.49	-43.0	-45.3	25.4	6.08e-01	0	43	0	597164032	58	4473
2026-01-16 12:42:11.33	279.94	33.43	-43.0	-45.3	25.3	6.07e-01	0	43	0	599261184	58	4486
2026-01-16 12:42:12.32	280.38	33.36	-43.1	-45.4	25.3	6.07e-01	0	44	0	601358336	58	4542
2026-01-16 12:42:13.32	280.81	33.29	-43.1	-45.3	25.4	6.06e-01	0	43	0	602931200	58	4492
2026-01-16 12:42:14.31	281.24	33.22	-43.0	-45.3	25.4	6.07e-01	0	44	0	605028352	58	4446
2026-01-16 12:42:15.30	281.67	33.15	-43.2	-45.5	25.2	6.06e-01	0	44	0	606601216	58	4557
2026-01-16 12:42:16.30	282.10	33.07	-43.0	-45.2	25.4	6.06e-01	0	43	0	608698368	58	4441
2026-01-16 12:42:17.29	282.52	33.00	-43.0	-45.3	25.4	6.05e-01	0	44	0	610271232	57	4717
2026-01-16 12:42:18.29	282.95	32.92	-43.2	-45.5	25.2	6.08e-01	0	43	0	612368384	57	4855
2026-01-16 12:42:19.28	283.37	32.84	-43.1	-45.3	25.3	6.07e-01	0	44	0	613941248	57	4748
2026-01-16 12:42:20.28	283.79	32.76	-43.0	-45.2	25.4	6.07e-01	0	44	0	616038400	57	4679
2026-01-16 12:42:21.27	284.20	32.68	-43.0	-45.2	25.4	6.07e-01	0	43	0	618135552	57	4685
2026-01-16 12:42:22.26	284.62	32.60	-43.1	-45.3	25.3	6.07e-01	0	44	0	619708416	57	4747
2026-01-16 12:42:23.26	285.03	32.51	-43.0	-45.2	25.4	6.06e-01	0	44	0	621805568	57	4689
2026-01-16 12:42:24.25	285.44	32.43	-43.0	-45.3	25.4	6.06e-01	0	44	0	623378432	57	4734
2026-01-16 12:42:25.25	285.85	32.34	-43.0	-45.3	25.4	6.06e-01	0	43	0	625475584	57	4714
2026-01-16 12:42:26.24	286.25	32.25	-43.1	-45.3	25.3	6.07e-01	0	43	0	627048448	57	4746
2026-01-16 12:42:27.24	286.66	32.16	-43.1	-45.4	25.3	6.06e-01	0	44	0	629145600	57	4762
2026-01-16 12:42:28.23	287.06	32.07	-42.9	-45.1	25.6	6.07e-01	0	43	0	630718464	57	4614
2026-01-16 12:42:29.23	287.46	31.98	-42.9	-45.1	25.5	6.06e-01	0	43	0	632815616	57	4633
2026-01-16 12:42:30.22	287.86	31.89	-42.9	-45.2	25.4	6.06e-01	0	43	0	634912768	57	4671
2026-01-16 12:42:31.22	288.25	31.79	-43.0	-45.3	25.4	6.07e-01	0	44	0	636485632	57	4710
2026-01-16 12:42:32.22	288.65	31.70	-43.0	-45.2	25.4	6.09e-01	0	44	0	638582784	57	4691
2026-01-16 12:42:33.21	289.04	31.60	-42.9	-45.1	25.5	6.06e-01	0	43	0	640155648	57	4637
2026-01-16 12:42:34.21	289.43	31.50	-42.9	-45.1	25.5	6.09e-01	0	43	0	642252800	57	4634
2026-01-16 12:42:35.20	289.81	31.41	-42.8	-45.1	25.5	6.06e-01	0	43	0	644349952	57	4627
2026-01-16 12:42:36.19	290.19	31.31	-43.0	-45.3	25.3	6.07e-01	0	43	0	645922816	57	4728
2026-01-16 12:42:37.19	290.57	31.21	-43.0	-45.3	25.3	6.07e-01	0	43	0	647495680	57	4744
2026-01-16 12:42:38.18	290.95	31.11	-43.0	-45.2	25.4	6.06e-01	0	43	0	649592832	57	4698
2026-01-16 12:42:39.18	291.33	31.00	-42.9	-45.2	25.4	6.05e-01	0	43	0	651689984	57	4674
2026-01-16 12:42:40.17	291.70	30.90	-42.9	-45.2	25.4	6.07e-01	0	43	0	653262848	57	4664
2026-01-16 12:42:41.16	292.07	30.80	-42.8	-45.1	25.5	6.07e-01	0	44	0	655360000	57	4643
2026-01-16 12:42:42.16	292.44	30.69	-42.7	-45.0	25.6	6.08e-01	0	44	0	656932864	57	4577
2026-01-16 12:42:43.16	292.80	30.59	-42.8	-45.1	25.5	6.07e-01	0	43	0	659030016	57	4618
2026-01-16 12:42:44.15	293.17	30.48	-42.9	-45.3	25.4	6.08e-01	0	43	0	661127168	57	4716
2026-01-16 12:42:45.15	293.53	30.37	-43.1	-45.4	25.3	6.05e-01	0	44	0	662700032	57	4789
2026-01-16 12:42:46.14	293.89	30.27	-43.1	-45.5	25.2	6.06e-01	0	43	0	664797184	57	4829
2026-01-16 12:42:47.14	294.24	30.16	-42.9	-45.2	25.4	6.07e-01	0	43	0	666370048	57	4661
2026-01-16 12:42:48.13	294.60	30.05	-42.8	-45.1	25.5	6.06e-01	0	43	0	668467200	57	4623
2026-01-16 12:42:49.13	294.95	29.94	-42.9	-45.3	25.4	6.06e-01	0	44	0	670040064	57	4721
2026-01-16 12:42:50.12	295.29	29.83	-42.9	-45.2	25.4	6.06e-01	0	44	0	672137216	57	4702
2026-01-16 12:42:51.11	295.64	29.72	-42.9	-45.2	25.4	6.06e-01	0	43	0	673710080	57	4681
2026-01-16 12:42:52.11	295.99	29.61	-43.0	-45.2	25.4	6.05e-01	0	43	0	675807232	57	4703
2026-01-16 12:42:53.11	296.33	29.49	-43.1	-45.4	25.3	6.07e-01	0	44	0	677904384	57	4799
2026-01-16 12:42:54.10	296.67	29.38	-43.0	-45.3	25.3	6.07e-01	0	43	0	679477248	57	4725
2026-01-16 12:42:55.10	297.00	29.27	-43.0	-45.2	25.4	6.05e-01	0	43	0	681574400	57	4699
2026-01-16 12:42:56.09	297.34	29.15	-43.0	-45.3	25.3	6.05e-01	0	43	0	683147264	57	4714
2026-01-16 12:42:57.08	297.67	29.04	-43.1	-45.5	25.2	6.07e-01	0	43	0	685244416	57	4847
2026-01-16 12:42:58.08	298.00	28.92	-43.2	-45.5	25.1	6.06e-01	0	43	0	686817280	57	4852
2026-01-16 12:42:59.07	298.32	28.81	-43.1	-45.4	25.3	6.09e-01	0	44	0	688914432	57	4774
2026-01-16 12:43:00.07	298.65	28.69	-43.1	-45.4	25.2	6.07e-01	0	43	0	690487296	57	4812
2026-01-16 12:43:01.05	298.97	28.58	-43.1	-45.5	25.2	6.06e-01	0	43	0	692584448	57	4839
2026-01-16 12:43:02.04	299.28	28.46	-43.2	-45.6	25.1	6.07e-01	0	43	0	694157312	57	4900
2026-01-16 12:43:03.04	299.60	28.34	-43.2	-45.6	25.0	6.08e-01	0	43	0	696254464	57	4901
2026-01-16 12:43:04.03	299.92	28.22	-43.1	-45.6	25.1	6.06e-01	0	43	0	698351616	57	4881
2026-01-16 12:43:05.03	300.23	28.11	-43.1	-45.5	25.1	6.05e-01	0	44	0	699924480	57	4852
2026-01-16 12:43:06.02	300.54	27.99	-43.2	-45.5	25.1	6.05e-01	0	44	0	702021632	57	4858
2026-01-16 12:43:07.02	300.85	27.87	-43.3	-45.7	25.0	6.06e-01	0	43	0	703594496	57	4932
2026-01-16 12:43:08.01	301.15	27.75	-43.2	-45.6	25.0	6.06e-01	0	43	0	705691648	57	4914
2026-01-16 12:43:09.00	301.45	27.63	-43.3	-45.7	25.0	6.06e-01	0	43	0	707264512	57	4951
2026-01-16 12:43:10.00	301.76	27.51	-43.3	-45.8	24.9	6.08e-01	0	43	0	709361664	57	4990
2026-01-16 12:43:10.99	302.05	27.39	-43.4	-45.8	24.9	6.07e-01	0	43	0	710934528	57	5027
2026-01-16 12:43:11.99	302.35	27.27	-43.3	-45.7	25.0	6.06e-01	0	44	0	713031680	57	4937
2026-01-16 12:43:12.98	302.64	27.15	-43.3	-45.6	25.1	6.07e-01	0	43	0	715128832	57	4908
2026-01-16 12:43:13.97	302.93	27.03	-43.4	-45.8	24.9	6.06e-01	0	43	0	716701696	57	5027
2026-01-16 12:43:14.97	303.23	26.91	-43.4	-45.8	24.9	6.07e-01	0	44	0	718798848	57	4999
2026-01-16 12:43:15.96	303.51	26.79	-43.4	-45.8	24.9	6.05e-01	0	44	0	720371712	57	4997
2026-01-16 12:43:16.95	303.80	26.67	-43.3	-45.7	25.0	6.08e-01	0	44	0	722468864	57	4953
2026-01-16 12:43:17.95	304.08	26.55	-43.4	-45.8	24.9	6.06e-01	0	44	0	724041728	57	4996
2026-01-16 12:43:18.94	304.36	26.43	-43.5	-45.9	24.8	6.08e-01	0	44	0	726138880	57	5045
2026-01-16 12:43:19.94	304.64	26.31	-43.5	-45.8	24.8	6.07e-01	0	43	0	727711744	57	5029
2026-01-16 12:43:20.93	304.91	26.19	-43.6	-45.9	24.8	6.06e-01	0	44	0	729808896	57	5094
2026-01-16 12:43:21.93	305.19	26.07	-43.6	-45.9	24.7	6.08e-01	0	44	0	731906048	57	5097
2026-01-16 12:43:22.92	305.46	25.95	-43.6	-46.0	24.6	6.07e-01	0	44	0	733478912	57	5139
2026-01-16 12:43:23.91	305.73	25.83	-43.6	-45.9	24.7	6.07e-01	0	44	0	735576064	57	5090
2026-01-16 12:43:24.91	306.00	25.70	-43.6	-45.9	24.8	6.09e-01	0	43	0	737148928	57	5095
2026-01-16 12:43:25.90	306.26	25.58	-43.5	-45.9	24.8	6.07e-01	0	43	0	739246080	57	5047
2026-01-16 12:43:26.90	306.53	25.46	-43.5	-45.8	24.8	6.07e-01	0	43	0	740818944	57	5033
2026-01-16 12:43:27.89	306.79	25.34	-43.7	-46.0	24.7	6.05e-01	0	44	0	742916096	57	5154
2026-01-16 12:43:28.88	307.05	25.22	-43.6	-46.0	24.7	6.05e-01	0	43	0	744488960	57	5128
2026-01-16 12:43:29.88	307.31	25.10	-43.6	-45.9	24.8	6.08e-01	0	43	0	746586112	58	4809
2026-01-16 12:43:30.87	307.56	24.98	-43.6	-45.9	24.8	6.07e-01	0	44	0	748683264	58	4797
2026-01-16 12:43:31.87	307.81	24.86	-43.6	-46.0	24.8	6.06e-01	0	43	0	750256128	58	4816
2026-01-16 12:43:32.86	308.06	24.73	-43.5	-45.9	24.8	6.04e-01	0	43	0	752353280	58	4775
2026-01-16 12:43:33.86	308.32	24.61	-43.5	-45.9	24.8	6.06e-01	0	43	0	753926144	58	4806
2026-01-16 12:43:34.85	308.56	24.49	-43.6	-46.0	24.7	6.05e-01	0	43	0	756023296	58	4845
2026-01-16 12:43:35.85	308.81	24.37	-43.7	-46.1	24.6	6.07e-01	0	43	0	757596160	58	4911
2026-01-16 12:43:36.84	309.05	24.25	-43.6	-46.1	24.6	6.05e-01	0	43	0	759693312	58	4888
2026-01-16 12:43:37.84	309.29	24.13	-43.8	-46.2	24.5	6.06e-01	0	43	0	761266176	58	4968
2026-01-16 12:43:38.83	309.53	24.01	-43.8	-46.3	24.4	6.06e-01	0	43	0	763363328	58	5011
2026-01-16 12:43:39.82	309.77	23.89	-43.8	-46.2	24.5	6.06e-01	0	44	0	765460480	58	4965
2026-01-16 12:43:40.82	310.01	23.77	-43.7	-46.1	24.6	6.06e-01	0	44	0	767033344	58	4871
2026-01-16 12:43:41.81	310.24	23.65	-43.6	-45.9	24.7	6.08e-01	0	43	0	769130496	58	4808
2026-01-16 12:43:42.81	310.47	23.53	-43.6	-46.0	24.7	6.09e-01	0	44	0	770703360	58	4834
2026-01-16 12:43:43.80	310.70	23.41	-43.6	-46.0	24.7	6.07e-01	0	43	0	772800512	58	4823
2026-01-16 12:43:44.80	310.93	23.29	-43.6	-46.1	24.6	6.07e-01	0	43	0	774373376	58	4889
2026-01-16 12:43:45.79	311.16	23.17	-43.6	-46.1	24.6	6.06e-01	0	43	0	776470528	58	4872
2026-01-16 12:43:46.78	311.38	23.05	-43.4	-45.9	24.8	6.06e-01	0	44	0	778043392	58	4778
2026-01-16 12:43:47.78	311.61	22.93	-43.3	-46.0	24.7	6.07e-01	0	44	0	780140544	58	4820
2026-01-16 12:43:48.77	311.83	22.81	-43.3	-45.9	24.8	6.07e-01	0	44	0	782237696	58	4794
2026-01-16 12:43:49.77	312.05	22.69	-43.3	-46.0	24.6	6.06e-01	0	44	0	783810560	58	4867
2026-01-16 12:43:50.76	312.27	22.57	-43.3	-46.0	24.6	6.07e-01	0	44	0	785907712	58	4846
2026-01-16 12:43:51.76	312.48	22.45	-43.3	-46.0	24.7	6.08e-01	0	43	0	787480576	58	4826
2026-01-16 12:43:52.75	312.70	22.34	-43.3	-45.9	24.8	6.08e-01	0	44	0	789577728	58	4787
2026-01-16 12:43:53.75	312.91	22.22	-43.3	-45.8	24.9	6.08e-01	0	43	0	791150592	58	4721
2026-01-16 12:43:54.74	313.12	22.10	-43.4	-45.9	24.8	6.06e-01	0	43	0	793247744	58	4763
2026-01-16 12:43:55.73	313.33	21.98	-43.4	-45.8	24.8	6.04e-01	0	44	0	794820608	58	4753
2026-01-16 12:43:56.73	313.54	21.86	-43.5	-45.9	24.8	6.06e-01	0	44	0	796917760	58	4781
2026-01-16 12:43:57.72	313.75	21.75	-43.5	-45.9	24.7	6.05e-01	0	44	0	799014912	58	4813
2026-01-16 12:43:58.72	313.95	21.63	-43.5	-45.9	24.8	6.06e-01	0	44	0	800587776	58	4769
2026-01-16 12:43:59.71	314.15	21.51	-43.5	-45.9	24.8	6.06e-01	0	43	0	802684928	58	4782
2026-01-16 12:44:00.71	314.36	21.40	-43.6	-46.0	24.6	6.07e-01	0	44	0	804257792	58	4862
2026-01-16 12:44:01.70	314.56	21.28	-43.4	-45.9	24.8	6.06e-01	0	43	0	806354944	58	4778
2026-01-16 12:44:02.69	314.75	21.17	-43.4	-46.0	24.7	6.09e-01	0	44	0	807927808	58	4817
2026-01-16 12:44:03.69	314.95	21.05	-43.4	-46.0	24.6	6.06e-01	0	43	0	810024960	58	4837
2026-01-16 12:44:04.68	315.15	20.93	-43.5	-46.0	24.6	6.06e-01	0	44	0	811597824	58	4859
2026-01-16 12:44:05.68	315.34	20.82	-43.5	-46.0	24.6	6.08e-01	0	43	0	813694976	58	4854
2026-01-16 12:44:06.67	315.53	20.70	-43.5	-46.0	24.6	6.06e-01	0	43	0	815792128	58	4852
2026-01-16 12:44:07.66	315.72	20.59	-43.4	-45.9	24.7	6.06e-01	0	44	0	817364992	58	4804
2026-01-16 12:44:08.66	315.92	20.48	-43.4	-45.9	24.8	6.05e-01	0	44	0	819462144	58	4788
2026-01-16 12:44:09.65	316.10	20.36	-43.4	-45.9	24.7	6.06e-01	0	44	0	821035008	58	4797
2026-01-16 12:44:10.65	316.29	20.25	-43.4	-45.9	24.7	6.06e-01	0	43	0	823132160	58	4807
2026-01-16 12:44:11.64	316.48	20.13	-43.4	-45.9	24.8	6.07e-01	0	43	0	824705024	58	4764
2026-01-16 12:44:12.64	316.66	20.02	-43.3	-45.7	24.8	6.06e-01	0	43	0	826802176	58	4698
2026-01-16 12:44:13.63	316.84	19.91	-43.2	-45.6	25.0	6.07e-01	0	43	0	828375040	58	4636
2026-01-16 12:44:14.62	317.02	19.80	-43.2	-45.6	25.0	6.05e-01	0	44	0	830472192	58	4637
2026-01-16 12:44:15.62	317.20	19.68	-43.2	-45.7	24.9	6.07e-01	0	43	0	832569344	58	4658
2026-01-16 12:44:16.61	317.38	19.57	-43.3	-45.7	24.9	6.07e-01	0	43	0	834142208	58	4677
2026-01-16 12:44:17.61	317.56	19.46	-43.3	-45.8	24.8	6.07e-01	0	44	0	836239360	58	4759
2026-01-16 12:44:18.60	317.73	19.35	-43.3	-45.9	24.7	6.07e-01	0	44	0	837812224	58	4781
2026-01-16 12:44:19.59	317.91	19.24	-43.3	-45.9	24.7	6.05e-01	0	43	0	839909376	58	4804
2026-01-16 12:44:20.58	318.08	19.13	-43.4	-46.1	24.6	6.06e-01	0	44	0	841482240	58	4917
2026-01-16 12:44:21.58	318.25	19.02	-43.1	-45.9	24.7	6.06e-01	0	44	0	843579392	58	4779
2026-01-16 12:44:22.58	318.43	18.90	-43.0	-45.7	24.9	6.06e-01	0	44	0	845152256	58	4692
2026-01-16 12:44:23.57	318.59	18.80	-43.1	-45.7	24.9	6.08e-01	0	44	0	847249408	58	4687
2026-01-16 12:44:24.56	318.76	18.69	-43.2	-45.8	24.8	6.04e-01	0	43	0	849346560	58	4730
2026-01-16 12:44:25.56	318.93	18.58	-43.0	-45.6	25.0	6.05e-01	0	43	0	850919424	58	4619
2026-01-16 12:44:26.56	319.10	18.47	-43.1	-45.7	24.9	6.06e-01	0	44	0	853016576	58	4662
2026-01-16 12:44:27.55	319.26	18.36	-43.2	-45.7	24.9	6.06e-01	0	44	0	854589440	58	4680
2026-01-16 12:44:28.55	319.42	18.25	-43.2	-45.7	25.0	6.07e-01	0	44	0	856686592	58	4654
2026-01-16 12:44:29.54	319.58	18.14	-43.3	-45.8	24.9	6.07e-01	0	44	0	858259456	58	4706
2026-01-16 12:44:30.53	319.74	18.03	-43.4	-45.8	24.8	6.06e-01	0	44	0	860356608	58	4739
2026-01-16 12:44:31.53	319.91	17.93	-43.2	-45.7	24.9	6.05e-01	0	44	0	861929472	58	4671
2026-01-16 12:44:32.52	320.06	17.82	-43.2	-45.6	24.9	6.08e-01	0	44	0	864026624	58	4648
2026-01-16 12:44:33.52	320.22	17.71	-43.2	-45.7	24.9	6.07e-01	0	44	0	866123776	58	4662
2026-01-16 12:44:34.51	320.38	17.61	-43.3	-45.7	24.8	6.06e-01	0	44	0	867696640	58	4688
2026-01-16 12:44:35.50	320.53	17.50	-43.3	-45.7	24.8	6.08e-01	0	43	0	869793792	58	4693
2026-01-16 12:44:36.50	320.69	17.39	-43.3	-45.8	24.8	6.07e-01	0	44	0	871366656	58	4729
2026-01-16 12:44:37.50	320.84	17.29	-43.3	-45.8	24.8	6.06e-01	0	43	0	873463808	58	4728
2026-01-16 12:44:38.49	320.99	17.18	-43.4	-45.8	24.8	6.05e-01	0	44	0	875036672	58	4754
2026-01-16 12:44:39.49	321.14	17.08	-43.2	-45.6	24.9	6.07e-01	0	44	0	877133824	58	4629
2026-01-16 12:44:40.48	321.29	16.97	-43.2	-45.6	24.9	6.05e-01	0	44	0	878706688	58	4650
2026-01-16 12:44:41.47	321.44	16.87	-43.1	-45.5	25.0	6.05e-01	0	43	0	880803840	58	4597
2026-01-16 12:44:42.47	321.59	16.77	-43.1	-45.6	25.0	6.08e-01	0	44	0	882900992	58	4605
2026-01-16 12:44:43.46	321.73	16.66	-43.0	-45.6	24.9	6.07e-01	0	43	0	884473856	58	4617
2026-01-16 12:44:44.46	321.88	16.56	-43.0	-45.6	25.0	6.07e-01	0	43	0	886571008	58	4622
2026-01-16 12:44:45.45	322.02	16.46	-43.1	-45.8	24.8	6.07e-01	0	44	0	888143872	58	4724
2026-01-16 12:44:46.45	322.17	16.35	-43.1	-45.8	24.8	6.07e-01	0	44	0	890241024	58	4725
2026-01-16 12:44:47.44	322.31	16.25	-43.3	-45.9	24.6	6.08e-01	0	44	0	891813888	58	4804
2026-01-16 12:44:48.44	322.45	16.15	-43.3	-45.9	24.7	6.07e-01	0	44	0	893911040	58	4762
2026-01-16 12:44:49.43	322.59	16.05	-43.3	-45.9	24.7	6.05e-01	0	43	0	895483904	58	4772
2026-01-16 12:44:50.42	322.73	15.95	-43.4	-46.0	24.6	6.06e-01	0	43	0	897581056	58	4818
2026-01-16 12:44:51.42	322.87	15.84	-43.5	-46.0	24.6	6.05e-01	0	44	0	899678208	58	4827
2026-01-16 12:44:52.41	323.01	15.74	-43.3	-45.7	24.8	6.09e-01	0	44	0	901251072	58	4701
2026-01-16 12:44:53.41	323.14	15.64	-43.4	-45.9	24.6	6.08e-01	0	44	0	903348224	58	4799
2026-01-16 12:44:54.40	323.28	15.54	-43.4	-45.9	24.7	6.07e-01	0	43	0	904921088	58	4770
2026-01-16 12:44:55.39	323.41	15.44	-43.4	-45.9	24.7	6.05e-01	0	43	0	907018240	58	4766
2026-01-16 12:44:56.39	323.55	15.34	-43.5	-45.9	24.7	6.05e-01	0	43	0	908591104	58	4767
2026-01-16 12:44:57.38	323.68	15.25	-43.5	-45.9	24.6	6.07e-01	0	44	0	910688256	58	4794
2026-01-16 12:44:58.38	323.81	15.15	-43.6	-45.9	24.6	6.06e-01	0	43	0	912261120	58	4811
2026-01-16 12:44:59.37	323.94	15.05	-43.5	-45.9	24.6	6.07e-01	0	44	0	914358272	58	4810
2026-01-16 12:45:00.36	324.07	14.95	-43.5	-46.0	24.6	6.05e-01	0	44	0	916455424	58	4839
2026-01-16 12:45:01.35	324.20	14.85	-43.5	-46.0	24.5	6.08e-01	0	44	0	918028288	58	4832
2026-01-16 12:45:02.35	324.33	14.76	-43.4	-46.0	24.6	6.06e-01	0	44	0	920125440	58	4841
2026-01-16 12:45:03.34	324.46	14.66	-43.3	-46.0	24.6	6.06e-01	0	43	0	921698304	58	4843
2026-01-16 12:45:04.34	324.58	14.56	-43.4	-46.2	24.4	6.06e-01	0	43	0	923795456	58	4943
2026-01-16 12:45:05.33	324.71	14.46	-43.2	-46.0	24.5	6.08e-01	0	44	0	925368320	58	4865
2026-01-16 12:45:06.33	324.83	14.37	-43.2	-46.1	24.5	6.07e-01	0	44	0	927465472	58	4875
2026-01-16 12:45:07.32	324.96	14.27	-43.2	-46.0	24.5	6.08e-01	0	43	0	929038336	58	4858
2026-01-16 12:45:08.32	325.08	14.18	-43.2	-46.1	24.4	6.07e-01	0	44	0	931135488	58	4886
2026-01-16 12:45:09.31	325.20	14.08	-43.2	-46.0	24.5	6.06e-01	0	44	0	933232640	58	4865
2026-01-16 12:45:10.31	325.33	13.99	-43.2	-46.0	24.5	6.08e-01	0	44	0	934805504	58	4855
2026-01-16 12:45:11.30	325.45	13.89	-43.3	-46.1	24.5	6.06e-01	0	43	0	936902656	58	4891
2026-01-16 12:45:12.30	325.57	13.80	-43.4	-46.2	24.3	6.06e-01	0	44	0	938475520	58	4932
2026-01-16 12:45:13.29	325.69	13.70	-43.2	-46.0	24.5	6.07e-01	0	44	0	940572672	58	4840
2026-01-16 12:45:14.28	325.80	13.61	-43.3	-46.1	24.4	6.06e-01	0	44	0	942145536	58	4893
2026-01-16 12:45:15.28	325.92	13.51	-43.2	-46.0	24.5	6.05e-01	0	43	0	944242688	58	4821
2026-01-16 12:45:16.27	326.04	13.42	-43.3	-46.1	24.4	6.07e-01	0	43	0	945815552	58	4878
2026-01-16 12:45:17.27	326.16	13.33	-43.3	-46.1	24.5	6.04e-01	0	44	0	947912704	58	4875
2026-01-16 12:45:18.26	326.27	13.24	-43.3	-46.1	24.4	6.07e-01	0	44	0	950009856	58	4918
2026-01-16 12:45:19.26	326.39	13.14	-43.3	-46.2	24.4	6.06e-01	0	43	0	951582720	58	4939
2026-01-16 12:45:20.25	326.50	13.05	-43.3	-46.1	24.3	6.08e-01	0	44	0	953679872	58	4926
2026-01-16 12:45:21.25	326.61	12.96	-43.2	-46.1	24.4	6.07e-01	0	44	0	955252736	58	4873
2026-01-16 12:45:22.24	326.73	12.87	-43.2	-46.0	24.5	6.08e-01	0	44	0	957349888	58	4869
2026-01-16 12:45:23.24	326.84	12.78	-43.2	-46.1	24.4	6.07e-01	0	44	0	958922752	58	4875
2026-01-16 12:45:24.23	326.95	12.69	-43.3	-46.1	24.4	6.06e-01	0	43	0	961019904	58	4882
2026-01-16 12:45:25.22	327.06	12.60	-43.4	-46.1	24.4	6.06e-01	0	43	0	962592768	58	4909
2026-01-16 12:45:26.22	327.17	12.50	-43.4	-46.2	24.3	6.06e-01	0	43	0	964689920	58	4945
2026-01-16 12:45:27.21	327.28	12.41	-43.5	-46.2	24.3	6.08e-01	0	44	0	966787072	58	4961
2026-01-16 12:45:28.21	327.39	12.32	-43.7	-46.3	24.2	6.05e-01	0	43	0	968359936	58	5039
2026-01-16 12:45:29.20	327.49	12.24	-43.8	-46.3	24.2	6.04e-01	0	43	0	970457088	58	5036
2026-01-16 12:45:30.20	327.60	12.15	-43.9	-46.4	24.1	6.05e-01	0	43	0	972029952	58	5093
2026-01-16 12:45:31.19	327.71	12.06	-43.9	-46.4	24.1	6.03e-01	0	43	0	974127104	58	5073
2026-01-16 12:45:32.19	327.81	11.97	-43.9	-46.4	24.2	6.02e-01	0	43	0	975699968	58	5062
2026-01-16 12:45:33.18	327.92	11.88	-44.0	-46.6	24.0	6.02e-01	0	44	0	977797120	58	5170
2026-01-16 12:45:34.18	328.02	11.79	-44.0	-46.6	24.0	6.03e-01	0	43	0	979369984	58	5166
2026-01-16 12:45:35.17	328.13	11.70	-44.0	-46.5	24.0	6.05e-01	0	43	0	981467136	58	5149
2026-01-16 12:45:36.17	328.23	11.62	-44.0	-46.6	23.9	6.05e-01	0	43	0	983564288	58	5214
2026-01-16 12:45:37.16	328.33	11.53	-44.0	-46.6	24.0	6.05e-01	0	43	0	985137152	58	5182
2026-01-16 12:45:38.16	328.43	11.44	-44.1	-46.7	23.8	6.02e-01	0	43	0	987234304	58	5271
2026-01-16 12:45:39.15	328.53	11.35	-44.1	-46.7	23.8	6.03e-01	0	43	0	988807168	59	4964
2026-01-16 12:45:40.14	328.63	11.27	-44.2	-46.8	23.7	6.03e-01	0	44	0	990904320	59	5032
2026-01-16 12:45:41.14	328.73	11.18	-44.2	-46.8	23.7	6.04e-01	0	43	0	992477184	59	4999
2026-01-16 12:45:42.13	328.83	11.10	-44.2	-46.9	23.6	6.03e-01	0	44	0	994574336	59	5053
2026-01-16 12:45:43.13	328.93	11.01	-44.3	-46.9	23.6	6.04e-01	0	44	0	996147200	59	5068
2026-01-16 12:45:44.12	329.03	10.93	-44.4	-47.0	23.5	6.06e-01	0	44	0	998244352	59	5159
2026-01-16 12:45:45.12	329.13	10.84	-44.3	-46.9	23.6	6.04e-01	0	44	0	1000341504	59	5070
2026-01-16 12:45:46.11	329.22	10.76	-44.3	-47.0	23.6	6.04e-01	0	43	0	1001914368	59	5124
2026-01-16 12:45:47.11	329.32	10.67	-44.4	-47.0	23.5	6.04e-01	0	44	0	1004011520	59	5158
2026-01-16 12:45:48.10	329.42	10.59	-44.2	-46.9	23.6	6.02e-01	0	44	0	1005584384	59	5067
2026-01-16 12:45:49.09	329.51	10.50	-44.2	-46.9	23.6	6.05e-01	0	44	0	1007681536	59	5066
2026-01-16 12:45:50.09	329.61	10.42	-44.4	-47.1	23.4	6.06e-01	0	44	0	1009254400	59	5194
2026-01-16 12:45:51.09	329.70	10.33	-44.2	-46.9	23.6	6.03e-01	0	44	0	1011351552	59	5055
2026-01-16 12:45:52.08	329.80	10.25	-44.3	-47.0	23.5	6.05e-01	0	44	0	1012924416	59	5105
2026-01-16 12:45:53.08	329.89	10.17	-44.3	-47.0	23.5	6.04e-01	0	44	0	1015021568	59	5119
2026-01-16 12:45:54.07	329.98	10.08	-44.3	-47.0	23.5	6.02e-01	0	43	0	1017118720	59	5114
2026-01-16 12:45:55.07	330.07	10.00	-44.3	-46.9	23.5	6.03e-01	0	43	0	1018691584	59	5076
2026-01-16 12:45:56.06	330.16	9.92	-44.4	-47.0	23.4	6.04e-01	0	43	0	1020788736	59	5147
2026-01-16 12:45:57.06	330.26	9.84	-44.3	-47.0	23.5	6.04e-01	0	43	0	1022361600	59	5106
2026-01-16 12:45:58.05	330.35	9.76	-44.3	-46.9	23.5	6.05e-01	0	43	0	1024458752	59	5082
2026-01-16 12:45:59.05	330.44	9.67	-44.4	-47.1	23.4	6.03e-01	0	43	0	1026031616	59	5175
2026-01-16 12:46:00.04	330.53	9.59	-44.4	-47.1	23.3	6.05e-01	0	43	0	1028128768	59	5194
2026-01-16 12:46:01.03	330.61	9.51	-44.4	-47.0	23.4	6.02e-01	0	44	0	1030225920	59	5147
2026-01-16 12:46:02.03	330.70	9.43	-44.4	-47.1	23.4	6.05e-01	0	44	0	1031798784	59	5190
2026-01-16 12:46:03.02	330.79	9.35	-44.4	-47.1	23.4	6.05e-01	0	44	0	1033895936	59	5170
2026-01-16 12:46:04.02	330.88	9.27	-44.4	-47.1	23.4	6.03e-01	0	43	0	1035468800	59	5164
2026-01-16 12:46:05.01	330.96	9.19	-44.4	-47.2	23.3	6.04e-01	0	44	0	1037565952	59	5238
2026-01-16 12:46:06.01	331.05	9.11	-44.4	-47.2	23.3	6.04e-01	0	44	0	1039138816	59	5247
2026-01-16 12:46:07.00	331.14	9.03	-44.4	-47.2	23.2	6.04e-01	0	44	0	1041235968	59	5245
2026-01-16 12:46:07.99	331.22	8.95	-51.1	-64.0	8.1	6.74e-01	0	43	0	1042808832	72	17225
2026-01-16 12:46:08.99	331.31	8.87	-51.1	-71.3	3.8	7.43e-01	0	43	104	1043333120	73	37431
2026-01-16 12:46:09.98	331.39	8.79	-50.0	-71.9	3.8	7.49e-01	0	44	104	1043333120	70	47758
2026-01-16 12:46:10.97	331.47	8.71	-51.7	-72.2	3.8	7.46e-01	0	43	104	1043333120	74	39442
2026-01-16 12:46:11.97	331.56	8.64	-50.9	-72.2	3.8	7.45e-01	0	44	104	1043333120	72	44293
2026-01-16 12:46:12.96	331.64	8.56	-50.3	-72.3	3.8	7.46e-01	0	43	104	1043333120	72	44756
2026-01-16 12:46:13.95	331.72	8.48	-50.6	-72.4	3.8	7.47e-01	0	44	104	1043333120	73	42532
2026-01-16 12:46:14.95	331.81	8.40	-51.6	-72.4	3.8	7.46e-01	0	44	104	1043333120	74	40434
2026-01-16 12:46:15.94	331.89	8.32	-51.6	-72.4	3.9	7.47e-01	0	43	104	1043333120	73	42872
2026-01-16 12:46:16.93	331.97	8.25	-52.4	-72.5	3.8	7.46e-01	0	44	104	1043333120	75	38424
2026-01-16 12:46:17.93	332.05	8.17	-51.0	-72.5	3.8	7.46e-01	0	43	104	1043333120	74	40825
2026-01-16 12:46:18.92	332.13	8.09	-52.2	-72.5	3.8	7.47e-01	0	43	104	1043333120	75	38627
2026-01-16 12:46:19.92	332.21	8.02	-52.0	-72.5	3.8	7.46e-01	0	44	104	1043333120	75	38683
2026-01-16 12:46:20.91	332.29	7.94	-52.5	-72.6	3.8	7.50e-01	0	44	104	1043333120	75	38709
2026-01-16 12:46:21.90	332.37	7.86	-52.1	-72.6	3.8	7.49e-01	0	44	104	1043333120	75	38829
2026-01-16 12:46:22.90	332.45	7.79	-52.6	-72.6	3.8	7.47e-01	0	44	104	1043333120	76	36863
2026-01-16 12:46:23.89	332.52	7.71	-52.7	-72.6	3.8	7.46e-01	0	43	104	1043333120	76	36868
2026-01-16 12:46:24.88	332.60	7.64	-52.6	-72.6	3.8	7.46e-01	0	43	104	1043333120	76	36831
2026-01-16 12:46:25.88	332.68	7.56	-52.6	-72.6	3.8	7.48e-01	0	44	104	1043333120	76	36815
2026-01-16 12:46:26.87	332.76	7.49	-52.5	-72.6	3.8	7.44e-01	0	44	104	1043333120	76	36770
2026-01-16 12:46:27.86	332.83	7.41	-52.2	-72.6	3.8	7.43e-01	0	43	104	1043333120	76	36777
2026-01-16 12:46:28.86	332.91	7.34	-52.2	-72.6	3.8	7.45e-01	0	44	104	1043333120	76	36770
2026-01-16 12:46:29.85	332.99	7.26	-52.2	-72.6	3.8	7.51e-01	0	44	104	1043333120	75	38709
2026-01-16 12:46:30.84	333.06	7.19	-51.6	-72.5	3.8	7.47e-01	0	43	104	1043333120	75	38516
2026-01-16 12:46:31.84	333.14	7.11	-51.6	-72.5	3.8	7.43e-01	0	44	104	1043333120	75	38376
2026-01-16 12:46:32.83	333.21	7.04	-51.6	-72.5	3.8	7.49e-01	0	44	104	1043333120	75	38424
2026-01-16 12:46:33.82	333.28	6.97	-51.5	-72.5	3.8	7.43e-01	0	44	104	1043333120	75	38470
2026-01-16 12:46:34.82	333.36	6.89	-51.5	-72.5	3.8	7.49e-01	0	44	104	1043333120	75	38439
2026-01-16 12:46:35.81	333.43	6.82	-51.6	-72.5	3.8	7.46e-01	0	44	104	1043333120	75	38413
2026-01-16 12:46:36.80	333.50	6.75	-51.6	-72.5	3.8	7.45e-01	0	44	104	1043333120	75	38459
2026-01-16 12:46:37.80	333.58	6.67	-51.6	-72.5	3.8	7.45e-01	0	44	104	1043333120	75	38441
2026-01-16 12:46:38.79	333.65	6.60	-51.6	-72.5	3.8	7.48e-01	0	44	104	1043333120	75	38422
2026-01-16 12:46:39.78	333.72	6.53	-51.6	-72.5	3.8	7.47e-01	0	44	104	1043333120	75	38419
2026-01-16 12:46:40.78	333.79	6.45	-51.6	-72.5	3.8	7.47e-01	0	44	104	1043333120	75	38462
2026-01-16 12:46:41.77	333.86	6.38	-51.6	-72.5	3.8	7.46e-01	0	44	104	1043333120	75	38460
2026-01-16 12:46:42.76	333.93	6.31	-51.6	-72.5	3.8	7.43e-01	0	44	104	1043333120	75	38450
2026-01-16 12:46:43.75	334.00	6.24	-51.6	-72.5	3.8	7.47e-01	0	44	104	1043333120	75	38410
2026-01-16 12:46:44.75	334.08	6.17	-51.5	-72.5	3.8	7.45e-01	0	44	104	1043333120	75	38483
2026-01-16 12:46:45.74	334.14	6.10	-51.6	-72.5	3.8	7.48e-01	0	44	104	1043333120	75	38461
2026-01-16 12:46:46.73	334.21	6.03	-51.6	-72.5	3.8	7.46e-01	0	43	104	1043333120	75	38351
2026-01-16 12:46:47.73	334.28	5.95	-51.6	-72.5	3.8	7.45e-01	0	44	104	1043333120	75	38420
2026-01-16 12:46:48.72	334.35	5.88	-51.6	-72.5	3.8	7.47e-01	0	43	104	1043333120	75	38359
2026-01-16 12:46:49.71	334.42	5.81	-51.5	-72.5	3.8	7.46e-01	0	44	104	1043333120	75	38340
2026-01-16 12:46:50.71	334.49	5.74	-51.6	-72.5	3.8	7.46e-01	0	44	104	1043333120	75	38344
2026-01-16 12:46:51.70	334.56	5.67	-51.5	-72.5	3.8	7.47e-01	0	44	104	1043333120	75	38358
2026-01-16 12:46:52.69	334.62	5.60	-51.5	-72.5	3.8	7.48e-01	0	44	104	1043333120	75	38377
2026-01-16 12:46:53.68	334.69	5.53	-51.5	-72.5	3.8	7.45e-01	0	44	104	1043333120	75	38380
2026-01-16 12:46:54.68	334.76	5.46	-51.5	-72.5	3.8	7.44e-01	0	44	104	1043333120	75	38334
2026-01-16 12:46:55.67	334.82	5.39	-51.5	-72.5	3.8	7.46e-01	0	44	104	1043333120	75	38353
2026-01-16 12:46:56.66	334.89	5.32	-51.5	-72.5	3.8	7.49e-01	0	44	104	1043333120	75	38327
2026-01-16 12:46:57.66	334.96	5.25	-51.5	-72.4	3.8	7.45e-01	0	44	104	1043333120	75	38241
2026-01-16 12:46:58.65	335.02	5.19	-51.5	-72.5	3.8	7.45e-01	0	44	104	1043333120	75	38290
2026-01-16 12:46:59.64	335.09	5.12	-51.5	-72.5	3.8	7.47e-01	0	44	104	1043333120	75	38395
2026-01-16 12:47:00.63	335.15	5.05	-51.5	-72.5	3.8	7.47e-01	0	44	104	1043333120	75	38383
2026-01-16 12:47:01.63	335.22	4.98	-51.5	-72.5	3.8	7.44e-01	0	44	104	1043333120	75	38330

#Closed at: 2026-01-16 12:47:02
#Recorded file [1043 MB]: D:/Data/31040_260116_153615.dat