passes_logs/2026/01/16/T1/T1__20260116_034013_FENGYUN_3E_rec.log

#Pass ID: 20260116_034013_FENGYUN 3E
#Satellite: FENGYUN 3E
#Configuration: FENGYUN 3E
#almurnet v.1.7.20251203
#Start time: 2026-01-16 03:40:13

#Version: 2.0.20230620
#Station: T1
#Location: 37.570604 lon 55.790049 lat
#TLE: 1 49008U 21062A   26015.49897766  .00000206  00000+0  11779-3 0  9997
#TLE: 2 49008  98.7486  20.6219 0002049 135.8566 224.2775 14.19885576234916

#Time	Az	El	Level	Level2	SNR	BER	BlckErr	Temp	State	Recorded	gain1	gain2
2026-01-16 03:40:13.97	18.40	5.04	-48.0	-60.5	3.8	8.45e-01	0	36	0	0	65	15965
2026-01-16 03:40:14.96	18.42	5.11	-47.9	-60.2	3.8	8.47e-01	0	36	104	0	65	15515
2026-01-16 03:40:15.96	18.44	5.18	-47.9	-60.2	3.8	8.47e-01	0	36	104	0	65	15465
2026-01-16 03:40:16.95	18.46	5.25	-47.9	-60.1	3.8	8.46e-01	0	36	104	0	65	15304
2026-01-16 03:40:17.94	18.48	5.32	-47.9	-59.9	3.8	8.46e-01	0	36	104	0	65	15035
2026-01-16 03:40:18.94	18.50	5.39	-47.9	-59.8	3.8	8.47e-01	0	36	104	0	65	14786
2026-01-16 03:40:19.93	18.52	5.46	-47.9	-59.6	3.8	8.47e-01	0	36	104	0	65	14391
2026-01-16 03:40:20.92	18.54	5.53	-47.8	-59.4	3.8	8.47e-01	0	36	104	0	65	14104
2026-01-16 03:40:21.92	18.57	5.60	-47.8	-59.1	3.8	8.47e-01	0	36	104	0	65	13718
2026-01-16 03:40:22.91	18.59	5.67	-47.8	-58.9	3.8	8.47e-01	0	36	104	0	65	13362
2026-01-16 03:40:23.90	18.61	5.75	-47.8	-58.9	3.8	8.47e-01	0	36	104	0	65	13362
2026-01-16 03:40:24.90	18.63	5.82	-47.8	-58.8	3.8	8.46e-01	0	36	104	0	65	13225
2026-01-16 03:40:25.89	18.65	5.89	-47.8	-58.8	3.8	8.47e-01	0	36	104	0	65	13239
2026-01-16 03:40:26.88	18.67	5.96	-47.8	-59.0	3.8	8.46e-01	0	37	104	0	65	13470
2026-01-16 03:40:27.87	18.69	6.04	-47.8	-59.2	3.8	8.46e-01	0	37	104	0	65	13784
2026-01-16 03:40:28.87	18.71	6.11	-47.8	-59.4	3.8	8.46e-01	0	37	104	0	65	14161
2026-01-16 03:40:29.86	18.73	6.18	-47.9	-59.6	3.8	8.45e-01	0	37	104	0	65	14497
2026-01-16 03:40:30.85	18.75	6.25	-47.9	-59.9	3.8	8.48e-01	0	37	104	0	65	14932
2026-01-16 03:40:31.85	18.78	6.33	-47.9	-59.8	3.8	8.45e-01	0	37	104	0	65	14860
2026-01-16 03:40:32.84	18.80	6.40	-47.9	-59.8	3.8	8.45e-01	0	37	104	0	65	14746
2026-01-16 03:40:33.83	18.82	6.48	-47.8	-59.5	3.8	8.46e-01	0	37	104	0	65	14280
2026-01-16 03:40:34.83	18.84	6.55	-47.8	-59.3	3.8	8.46e-01	0	37	104	0	65	13900
2026-01-16 03:40:35.82	18.86	6.62	-47.8	-58.7	3.8	8.46e-01	0	37	104	0	65	13076
2026-01-16 03:40:36.81	18.88	6.70	-47.7	-58.5	3.8	8.47e-01	0	37	104	0	65	12676
2026-01-16 03:40:37.81	18.91	6.77	-47.7	-58.1	3.8	8.46e-01	0	37	104	0	65	12214
2026-01-16 03:40:38.80	18.93	6.85	-47.7	-58.0	3.9	8.44e-01	0	37	104	0	65	12039
2026-01-16 03:40:39.79	18.95	6.92	-47.7	-58.0	3.8	8.46e-01	0	37	104	0	65	12003
2026-01-16 03:40:40.79	18.97	7.00	-47.7	-58.0	3.8	8.46e-01	0	37	104	0	65	12069
2026-01-16 03:40:41.78	19.00	7.07	-47.7	-58.1	3.8	8.45e-01	0	37	104	0	65	12199
2026-01-16 03:40:42.77	19.02	7.15	-47.7	-58.2	3.9	8.45e-01	0	37	104	0	65	12290
2026-01-16 03:40:43.77	19.04	7.23	-47.7	-58.2	3.8	8.45e-01	0	37	104	0	65	12322
2026-01-16 03:40:44.76	19.06	7.30	-47.7	-58.1	3.8	8.46e-01	0	37	104	0	65	12111
2026-01-16 03:40:45.75	19.09	7.38	-47.6	-57.4	4.1	8.46e-01	0	37	104	0	65	11198
2026-01-16 03:40:46.75	19.11	7.46	-47.5	-56.6	4.3	8.36e-01	0	37	0	0	65	10194
2026-01-16 03:40:47.74	19.13	7.53	-47.4	-55.7	4.6	8.19e-01	0	37	0	0	65	9199
2026-01-16 03:40:48.73	19.16	7.61	-47.2	-54.8	5.1	7.80e-01	0	37	0	0	65	8308
2026-01-16 03:40:49.73	19.18	7.69	-47.1	-54.1	5.5	7.09e-01	0	37	0	0	65	7706
2026-01-16 03:40:50.72	19.20	7.77	-46.9	-53.5	5.9	3.87e-01	0	37	0	4194304	64	7606
2026-01-16 03:40:51.71	19.23	7.84	-46.8	-53.0	6.3	2.94e-01	0	37	0	11534336	64	7131
2026-01-16 03:40:52.71	19.25	7.92	-46.7	-52.6	6.6	2.15e-01	0	37	0	18874368	64	6877
2026-01-16 03:40:53.70	19.27	8.00	-46.7	-52.4	6.9	1.70e-01	0	38	0	26214400	63	7112
2026-01-16 03:40:54.69	19.30	8.08	-46.6	-52.3	7.0	1.52e-01	0	37	0	33554432	63	7023
2026-01-16 03:40:55.69	19.32	8.16	-46.6	-52.1	7.2	1.50e-01	0	37	0	40894464	63	6874
2026-01-16 03:40:56.68	19.34	8.24	-46.5	-52.0	7.3	1.35e-01	0	38	0	48234496	63	6777
2026-01-16 03:40:57.68	19.37	8.32	-46.5	-51.8	7.4	1.27e-01	0	38	0	54525952	63	6632
2026-01-16 03:40:58.67	19.39	8.40	-46.4	-51.7	7.6	1.03e-01	0	38	0	61865984	63	6529
2026-01-16 03:40:59.66	19.42	8.48	-46.4	-51.6	7.7	9.65e-02	0	38	0	69206016	63	6447
2026-01-16 03:41:00.65	19.44	8.56	-46.3	-51.4	7.9	7.92e-02	0	38	0	76546048	63	6295
2026-01-16 03:41:01.65	19.46	8.64	-46.3	-51.4	7.9	7.89e-02	0	38	0	83886080	63	6286
2026-01-16 03:41:02.64	19.49	8.72	-46.3	-51.4	7.9	7.48e-02	0	37	0	90177536	63	6293
2026-01-16 03:41:03.64	19.51	8.80	-46.4	-51.6	7.6	9.38e-02	0	38	0	97517568	63	6468
2026-01-16 03:41:04.63	19.54	8.88	-46.5	-51.8	7.4	1.10e-01	0	38	0	104857600	63	6614
2026-01-16 03:41:05.62	19.56	8.96	-46.7	-52.5	6.9	1.78e-01	0	38	0	112197632	63	7126
2026-01-16 03:41:06.62	19.59	9.04	-46.9	-53.3	6.2	2.65e-01	0	38	0	119537664	63	7826
2026-01-16 03:41:07.61	19.61	9.13	-46.6	-52.2	7.1	3.94e-01	0	38	0	125829120	63	6949
2026-01-16 03:41:08.60	19.64	9.21	-46.1	-50.7	8.5	5.92e-02	0	38	0	133169152	63	5849
2026-01-16 03:41:09.60	19.66	9.29	-47.3	-55.1	5.0	6.96e-02	0	37	0	140509184	63	9696
2026-01-16 03:41:10.60	19.69	9.37	-47.5	-60.0	3.8	8.47e-01	0	38	104	140509184	65	15210
2026-01-16 03:41:11.59	19.72	9.46	-45.8	-50.0	9.0	8.40e-01	0	38	104	140509184	62	5674
2026-01-16 03:41:12.58	19.74	9.54	-42.6	-44.5	15.0	1.10e-06	0	38	0	146800640	56	4246
2026-01-16 03:41:13.58	19.77	9.62	-42.1	-43.8	15.5	0.00e+00	0	38	0	153092096	54	4424
2026-01-16 03:41:14.57	19.79	9.71	-41.7	-43.3	16.0	0.00e+00	0	38	0	160432128	54	4167
2026-01-16 03:41:15.57	19.82	9.79	-41.2	-42.8	16.5	0.00e+00	0	38	0	167772160	53	4152
2026-01-16 03:41:16.57	19.85	9.88	-41.0	-42.5	16.8	0.00e+00	0	38	0	175112192	52	4257
2026-01-16 03:41:17.56	19.87	9.96	-40.8	-42.2	17.1	0.00e+00	0	38	0	182452224	52	4142
2026-01-16 03:41:18.56	19.90	10.05	-40.7	-42.2	17.1	0.00e+00	0	38	0	189792256	52	4120
2026-01-16 03:41:19.55	19.92	10.13	-40.5	-41.9	17.4	0.00e+00	0	38	0	196083712	51	4237
2026-01-16 03:41:20.54	19.95	10.22	-40.4	-41.8	17.6	0.00e+00	0	38	0	203423744	51	4166
2026-01-16 03:41:21.54	19.98	10.30	-40.4	-41.7	17.6	0.00e+00	0	38	0	210763776	51	4144
2026-01-16 03:41:22.54	20.01	10.39	-40.4	-41.8	17.5	0.00e+00	0	38	0	218103808	51	4170
2026-01-16 03:41:23.53	20.03	10.48	-40.3	-41.7	17.6	0.00e+00	0	38	0	225443840	51	4119
2026-01-16 03:41:24.53	20.06	10.56	-40.3	-41.7	17.6	0.00e+00	0	38	0	232783872	51	4128
2026-01-16 03:41:25.52	20.09	10.65	-40.3	-41.7	17.7	0.00e+00	0	38	0	239075328	51	4099
2026-01-16 03:41:26.51	20.11	10.74	-40.2	-41.5	17.8	0.00e+00	0	38	0	246415360	51	4043
2026-01-16 03:41:27.51	20.14	10.83	-40.2	-41.6	17.8	0.00e+00	0	38	0	253755392	51	4069
2026-01-16 03:41:28.51	20.17	10.92	-40.2	-41.6	17.8	0.00e+00	0	38	0	261095424	51	4067
2026-01-16 03:41:29.50	20.20	11.00	-40.2	-41.5	17.9	0.00e+00	0	38	0	268435456	51	4045
2026-01-16 03:41:30.50	20.23	11.09	-40.1	-41.5	17.9	0.00e+00	0	38	0	275775488	50	4254
2026-01-16 03:41:31.49	20.26	11.18	-40.0	-41.4	18.1	0.00e+00	0	38	0	283115520	50	4198
2026-01-16 03:41:32.48	20.28	11.27	-40.1	-41.4	18.0	0.00e+00	0	38	0	290455552	50	4238
2026-01-16 03:41:33.48	20.31	11.36	-40.0	-41.4	18.1	0.00e+00	0	38	0	296747008	50	4206
2026-01-16 03:41:34.48	20.34	11.45	-40.1	-41.4	18.0	0.00e+00	0	38	0	304087040	50	4237
2026-01-16 03:41:35.47	20.37	11.54	-40.1	-41.4	18.1	0.00e+00	0	38	0	311427072	50	4195
2026-01-16 03:41:36.46	20.40	11.63	-40.0	-41.3	18.2	0.00e+00	0	38	0	318767104	50	4179
2026-01-16 03:41:37.46	20.43	11.72	-40.0	-41.3	18.2	0.00e+00	0	38	0	326107136	50	4182
2026-01-16 03:41:38.45	20.46	11.81	-40.0	-41.3	18.2	0.00e+00	0	38	0	333447168	50	4158
2026-01-16 03:41:39.45	20.49	11.91	-40.1	-41.4	18.1	0.00e+00	0	38	0	339738624	50	4214
2026-01-16 03:41:40.44	20.52	12.00	-39.9	-41.2	18.3	0.00e+00	0	38	0	347078656	50	4120
2026-01-16 03:41:41.44	20.55	12.09	-40.0	-41.3	18.2	0.00e+00	0	38	0	354418688	50	4182
2026-01-16 03:41:42.43	20.58	12.18	-40.0	-41.3	18.2	0.00e+00	0	38	0	361758720	50	4188
2026-01-16 03:41:43.43	20.61	12.28	-39.9	-41.2	18.3	0.00e+00	0	38	0	369098752	50	4112
2026-01-16 03:41:44.42	20.64	12.37	-39.8	-41.1	18.4	0.00e+00	0	38	0	376438784	50	4098
2026-01-16 03:41:45.41	20.67	12.46	-39.8	-41.2	18.3	0.00e+00	0	38	0	382730240	50	4117
2026-01-16 03:41:46.46	20.70	12.56	-39.8	-41.2	18.4	0.00e+00	0	38	0	391118848	50	4104
2026-01-16 03:41:47.43	20.73	12.66	-39.9	-41.2	18.3	0.00e+00	0	38	0	398458880	50	4136
2026-01-16 03:41:48.43	20.76	12.75	-39.8	-41.1	18.4	0.00e+00	0	38	0	404750336	50	4088
2026-01-16 03:41:49.42	20.79	12.85	-39.7	-41.0	18.5	0.00e+00	0	38	0	412090368	50	4033
2026-01-16 03:41:50.42	20.82	12.94	-39.6	-40.9	18.6	0.00e+00	0	38	0	419430400	50	3991
2026-01-16 03:41:51.41	20.85	13.04	-39.6	-40.9	18.6	0.00e+00	0	38	0	426770432	49	4214
2026-01-16 03:41:52.41	20.89	13.13	-39.7	-41.0	18.5	0.00e+00	0	38	0	434110464	49	4280
2026-01-16 03:41:53.40	20.92	13.23	-39.7	-41.0	18.5	0.00e+00	0	38	0	440401920	49	4258
2026-01-16 03:41:54.40	20.95	13.33	-39.5	-40.7	18.8	0.00e+00	0	38	0	447741952	49	4141
2026-01-16 03:41:55.39	20.98	13.43	-39.4	-40.6	18.9	0.00e+00	0	38	0	455081984	49	4094
2026-01-16 03:41:56.39	21.01	13.52	-39.4	-40.7	18.8	0.00e+00	0	38	0	462422016	49	4134
2026-01-16 03:41:57.38	21.05	13.62	-39.4	-40.6	18.9	0.00e+00	0	39	0	469762048	49	4084
2026-01-16 03:41:58.37	21.08	13.72	-39.4	-40.7	18.8	0.00e+00	0	38	0	477102080	49	4110
2026-01-16 03:41:59.37	21.11	13.82	-39.4	-40.6	18.9	0.00e+00	0	38	0	483393536	49	4085
2026-01-16 03:42:00.37	21.15	13.92	-39.4	-40.6	19.0	0.00e+00	0	38	0	490733568	49	4071
2026-01-16 03:42:01.36	21.18	14.02	-39.4	-40.6	19.0	0.00e+00	0	38	0	498073600	49	4056
2026-01-16 03:42:02.36	21.21	14.12	-39.2	-40.4	19.1	0.00e+00	0	39	0	505413632	49	4001
2026-01-16 03:42:03.43	21.25	14.23	-39.3	-40.5	19.1	0.00e+00	0	38	0	513802240	49	4018
2026-01-16 03:42:04.31	21.28	14.32	-39.2	-40.5	19.1	0.00e+00	0	38	0	520093696	49	4006
2026-01-16 03:42:05.63	21.33	14.45	-39.2	-40.4	19.1	0.00e+00	0	38	0	529530880	49	3982
2026-01-16 03:42:06.34	21.35	14.53	-39.3	-40.4	19.1	0.00e+00	0	39	0	534773760	49	4000
2026-01-16 03:42:07.62	21.39	14.66	-39.2	-40.4	19.2	0.00e+00	0	38	0	543162368	49	3966
2026-01-16 03:42:08.34	21.42	14.73	-39.3	-40.5	19.1	0.00e+00	0	38	0	548405248	49	4009
2026-01-16 03:42:09.62	21.46	14.87	-39.1	-40.3	19.3	0.00e+00	0	38	0	557842432	49	3916
2026-01-16 03:42:10.36	21.49	14.94	-39.2	-40.3	19.2	0.00e+00	0	38	0	563085312	49	3945
2026-01-16 03:42:11.64	21.54	15.08	-39.3	-40.4	19.2	0.00e+00	0	38	0	572522496	49	3962
2026-01-16 03:42:12.35	21.56	15.15	-39.2	-40.2	19.3	0.00e+00	0	39	0	577765376	49	3910
2026-01-16 03:42:13.63	21.61	15.29	-39.1	-40.1	19.4	0.00e+00	0	39	0	587202560	48	4088
2026-01-16 03:42:14.36	21.64	15.37	-39.1	-40.2	19.3	0.00e+00	0	38	0	592445440	48	4122
2026-01-16 03:42:15.63	21.68	15.50	-39.0	-40.1	19.4	0.00e+00	0	39	0	601882624	48	4064
2026-01-16 03:42:16.36	21.71	15.58	-39.0	-40.1	19.4	0.00e+00	0	38	0	606076928	48	4076
2026-01-16 03:42:17.64	21.76	15.72	-38.9	-40.0	19.5	0.00e+00	0	39	0	615514112	48	4005
2026-01-16 03:42:18.36	21.78	15.80	-39.0	-40.0	19.5	0.00e+00	0	38	0	620756992	48	4050
2026-01-16 03:42:19.64	21.83	15.93	-38.9	-40.0	19.6	0.00e+00	0	38	0	630194176	48	4012
2026-01-16 03:42:20.57	21.87	16.04	-39.0	-40.0	19.5	0.00e+00	0	38	0	636485632	48	4038
2026-01-16 03:42:21.57	21.90	16.15	-38.9	-40.0	19.6	0.00e+00	0	38	0	643825664	48	4020
2026-01-16 03:42:22.56	21.94	16.25	-38.8	-39.9	19.7	0.00e+00	0	39	0	651165696	48	3959
2026-01-16 03:42:23.56	21.98	16.36	-38.9	-39.9	19.6	0.00e+00	0	39	0	658505728	48	3996
2026-01-16 03:42:24.55	22.02	16.47	-38.8	-39.9	19.7	0.00e+00	0	39	0	665845760	48	3976
2026-01-16 03:42:25.55	22.06	16.59	-38.8	-39.8	19.7	0.00e+00	0	39	0	673185792	48	3955
2026-01-16 03:42:26.54	22.10	16.70	-38.7	-39.8	19.8	0.00e+00	0	38	0	680525824	48	3924
2026-01-16 03:42:27.54	22.14	16.81	-38.7	-39.8	19.7	0.00e+00	0	38	0	687865856	48	3929
2026-01-16 03:42:28.53	22.18	16.92	-38.6	-39.6	19.9	0.00e+00	0	38	0	694157312	48	3858
2026-01-16 03:42:29.56	22.22	17.04	-38.7	-39.8	19.5	0.00e+00	0	38	0	701497344	47	4161
2026-01-16 03:42:30.56	22.26	17.15	-38.5	-39.5	19.8	0.00e+00	0	39	0	708837376	47	4042
2026-01-16 03:42:31.55	22.30	17.27	-38.5	-39.6	19.7	0.00e+00	0	39	0	716177408	47	4058
2026-01-16 03:42:32.54	22.34	17.38	-38.4	-39.4	19.9	0.00e+00	0	39	0	723517440	47	3997
2026-01-16 03:42:33.54	22.38	17.50	-38.5	-39.5	19.8	0.00e+00	0	38	0	730857472	47	4026
2026-01-16 03:42:34.53	22.42	17.61	-38.3	-39.3	19.9	0.00e+00	0	38	0	738197504	47	3958
2026-01-16 03:42:35.53	22.46	17.73	-38.4	-39.4	19.9	0.00e+00	0	39	0	745537536	47	3975
2026-01-16 03:42:36.52	22.50	17.84	-38.2	-39.3	20.0	0.00e+00	0	39	0	751828992	47	3916
2026-01-16 03:42:37.51	22.55	17.96	-38.3	-39.3	20.0	0.00e+00	0	39	0	759169024	47	3923
2026-01-16 03:42:38.51	22.59	18.08	-38.2	-39.3	20.1	0.00e+00	0	39	0	766509056	47	3916
2026-01-16 03:42:39.50	22.63	18.20	-38.2	-39.2	20.1	0.00e+00	0	38	0	773849088	47	3892
2026-01-16 03:42:40.50	22.67	18.32	-38.1	-39.2	20.2	0.00e+00	0	39	0	781189120	46	4106
2026-01-16 03:42:41.49	22.72	18.43	-38.2	-39.2	20.1	0.00e+00	0	39	0	788529152	46	4113
2026-01-16 03:42:42.49	22.76	18.56	-38.0	-39.0	20.3	0.00e+00	0	38	0	795869184	46	4044
2026-01-16 03:42:43.48	22.81	18.68	-38.1	-39.1	20.2	0.00e+00	0	38	0	802160640	46	4052
2026-01-16 03:42:44.48	22.85	18.80	-38.0	-39.0	20.3	0.00e+00	0	38	0	809500672	46	4049
2026-01-16 03:42:45.47	22.89	18.92	-37.9	-38.9	20.4	0.00e+00	0	39	0	816840704	46	3992
2026-01-16 03:42:46.47	22.94	19.04	-38.1	-39.1	20.3	0.00e+00	0	38	0	824180736	46	4055
2026-01-16 03:42:47.46	22.98	19.16	-37.9	-38.9	20.4	0.00e+00	0	38	0	831520768	46	3982
2026-01-16 03:42:48.46	23.03	19.29	-37.9	-38.9	20.4	0.00e+00	0	39	0	837812224	46	3994
2026-01-16 03:42:49.46	23.08	19.41	-37.9	-38.9	20.5	0.00e+00	0	39	0	845152256	46	3967
2026-01-16 03:42:50.45	23.12	19.54	-37.8	-38.8	20.6	0.00e+00	0	39	0	852492288	46	3919
2026-01-16 03:42:51.45	23.17	19.66	-37.8	-38.8	20.5	0.00e+00	0	39	0	859832320	46	3953
2026-01-16 03:42:52.44	23.22	19.79	-37.8	-38.8	20.6	0.00e+00	0	39	0	867172352	46	3924
2026-01-16 03:42:53.44	23.26	19.92	-37.7	-38.7	20.7	0.00e+00	0	39	0	874512384	46	3876
2026-01-16 03:42:54.43	23.31	20.04	-37.7	-38.7	20.6	0.00e+00	0	39	0	881852416	46	3885
2026-01-16 03:42:55.43	23.36	20.17	-37.8	-38.8	20.5	0.00e+00	0	38	0	889192448	45	4187
2026-01-16 03:42:56.42	23.41	20.30	-37.7	-38.7	20.6	0.00e+00	0	39	0	895483904	45	4120
2026-01-16 03:42:57.42	23.46	20.43	-37.8	-38.8	20.4	0.00e+00	0	39	0	902823936	45	4177
2026-01-16 03:42:58.41	23.51	20.56	-37.9	-38.9	20.4	0.00e+00	0	39	0	910163968	45	4202
2026-01-16 03:42:59.41	23.56	20.69	-37.8	-38.8	20.5	0.00e+00	0	39	0	917504000	45	4161
2026-01-16 03:43:00.38	23.60	20.82	-37.9	-38.9	20.3	0.00e+00	0	38	0	924844032	45	4233
2026-01-16 03:43:01.43	23.66	20.96	-37.9	-38.9	20.4	0.00e+00	0	39	0	932184064	45	4216
2026-01-16 03:43:02.43	23.71	21.09	-37.9	-38.9	20.4	0.00e+00	0	39	0	939524096	45	4224
2026-01-16 03:43:03.42	23.76	21.22	-37.8	-38.9	20.4	0.00e+00	0	38	0	945815552	45	4199
2026-01-16 03:43:04.51	23.82	21.37	-37.8	-38.8	20.5	0.00e+00	0	38	0	954204160	45	4170
2026-01-16 03:43:05.36	23.86	21.48	-37.8	-38.8	20.4	0.00e+00	0	39	0	960495616	45	4188
2026-01-16 03:43:06.50	23.92	21.64	-38.0	-39.0	20.3	0.00e+00	0	38	0	968884224	45	4279
2026-01-16 03:43:07.35	23.97	21.76	-37.9	-38.9	20.4	0.00e+00	0	39	0	975175680	45	4237
2026-01-16 03:43:08.49	24.03	21.91	-37.9	-38.9	20.5	0.00e+00	0	38	0	983564288	45	4199
2026-01-16 03:43:09.34	24.07	22.03	-38.0	-39.0	20.4	0.00e+00	0	39	0	988807168	45	4252
2026-01-16 03:43:10.48	24.14	22.19	-38.0	-39.0	20.4	0.00e+00	0	38	0	997195776	45	4257
2026-01-16 03:43:11.33	24.18	22.31	-38.0	-39.0	20.4	0.00e+00	0	39	0	1003487232	45	4265
2026-01-16 03:43:12.46	24.24	22.47	-37.9	-38.9	20.4	0.00e+00	0	39	0	1011875840	45	4238
2026-01-16 03:43:13.32	24.29	22.59	-37.8	-38.8	20.5	0.00e+00	0	39	0	1018167296	45	4193
2026-01-16 03:43:14.45	24.36	22.75	-37.7	-38.7	20.6	0.00e+00	0	39	0	1025507328	45	4125
2026-01-16 03:43:15.30	24.40	22.87	-37.7	-38.7	20.6	0.00e+00	0	38	0	1031798784	45	4114
2026-01-16 03:43:16.44	24.47	23.03	-37.6	-38.6	20.7	0.00e+00	0	38	0	1040187392	45	4063
2026-01-16 03:43:17.29	24.52	23.16	-37.4	-38.4	20.9	0.00e+00	0	38	0	1046478848	45	3978
2026-01-16 03:43:18.43	24.58	23.32	-37.4	-38.4	20.9	0.00e+00	0	39	0	1054867456	45	3976
2026-01-16 03:43:19.28	24.63	23.44	-37.3	-38.3	20.9	0.00e+00	0	39	0	1061158912	45	3946
2026-01-16 03:43:20.42	24.70	23.61	-37.3	-38.3	20.9	0.00e+00	0	39	0	1068498944	45	3950
2026-01-16 03:43:21.27	24.75	23.74	-37.3	-38.3	20.9	0.00e+00	0	39	0	1074790400	45	3929
2026-01-16 03:43:22.60	24.83	23.93	-37.2	-38.2	21.1	0.00e+00	0	39	0	1085276160	45	3881
2026-01-16 03:43:23.31	24.88	24.04	-37.2	-38.2	21.0	0.00e+00	0	39	0	1089470464	45	3887
2026-01-16 03:43:24.59	24.96	24.23	-37.3	-38.2	21.0	0.00e+00	0	39	0	1098907648	45	3904
2026-01-16 03:43:25.31	25.00	24.34	-37.3	-38.2	21.1	0.00e+00	0	39	0	1104150528	45	3890
2026-01-16 03:43:26.59	25.08	24.54	-37.3	-38.2	21.1	0.00e+00	0	39	0	1113587712	45	3891
2026-01-16 03:43:27.30	25.12	24.64	-37.2	-38.1	21.2	0.00e+00	0	39	0	1118830592	44	4096
2026-01-16 03:43:28.58	25.21	24.84	-37.3	-38.2	21.1	0.00e+00	0	39	0	1128267776	44	4120
2026-01-16 03:43:29.31	25.25	24.95	-37.4	-38.3	21.0	0.00e+00	0	39	0	1133510656	44	4171
2026-01-16 03:43:30.59	25.34	25.15	-37.3	-38.2	21.1	0.00e+00	0	39	0	1142947840	44	4127
2026-01-16 03:43:31.43	25.39	25.28	-37.3	-38.2	21.1	0.00e+00	0	39	0	1148190720	44	4141
2026-01-16 03:43:32.56	25.47	25.46	-37.6	-38.5	20.9	0.00e+00	0	39	0	1156579328	44	4280
2026-01-16 03:43:33.42	25.52	25.60	-37.4	-38.3	21.1	0.00e+00	0	39	0	1162870784	44	4165
2026-01-16 03:43:34.55	25.60	25.78	-37.5	-38.4	21.0	0.00e+00	0	39	0	1171259392	44	4224
2026-01-16 03:43:35.40	25.66	25.91	-37.4	-38.4	21.0	0.00e+00	0	39	0	1177550848	44	4204
2026-01-16 03:43:36.54	25.74	26.09	-37.4	-38.4	21.0	0.00e+00	0	39	0	1185939456	44	4205
2026-01-16 03:43:37.40	25.80	26.23	-37.7	-38.7	20.7	0.00e+00	0	39	0	1191182336	44	4363
2026-01-16 03:43:38.53	25.87	26.42	-37.4	-38.4	21.0	0.00e+00	0	39	0	1199570944	44	4194
2026-01-16 03:43:39.38	25.93	26.56	-37.5	-38.4	20.9	0.00e+00	0	39	0	1205862400	44	4226
2026-01-16 03:43:40.60	26.02	26.76	-37.3	-38.3	21.1	0.00e+00	0	39	0	1214251008	44	4157
2026-01-16 03:43:41.45	26.08	26.90	-37.4	-38.4	21.0	0.00e+00	0	39	0	1220542464	44	4203
2026-01-16 03:43:42.59	26.17	27.09	-37.3	-38.2	21.1	0.00e+00	0	39	0	1228931072	44	4122
2026-01-16 03:43:43.44	26.23	27.23	-37.2	-38.1	21.2	0.00e+00	0	38	0	1235222528	44	4097
2026-01-16 03:43:44.58	26.31	27.42	-37.1	-38.0	21.4	0.00e+00	0	39	0	1243611136	44	4032
2026-01-16 03:43:45.43	26.38	27.57	-37.1	-38.0	21.3	0.00e+00	0	38	0	1249902592	44	4045
2026-01-16 03:43:46.57	26.46	27.76	-37.0	-37.9	21.4	0.00e+00	0	38	0	1257242624	44	3994
2026-01-16 03:43:47.42	26.53	27.91	-36.9	-37.9	21.4	0.00e+00	0	39	0	1263534080	44	3974
2026-01-16 03:43:48.56	26.62	28.10	-37.0	-37.9	21.4	0.00e+00	0	38	0	1271922688	44	3980
2026-01-16 03:43:49.41	26.68	28.25	-36.9	-37.8	21.5	0.00e+00	0	39	0	1278214144	44	3939
2026-01-16 03:43:50.55	26.77	28.45	-36.9	-37.8	21.5	0.00e+00	0	38	0	1286602752	44	3953
2026-01-16 03:43:51.40	26.84	28.60	-36.9	-37.8	21.5	0.00e+00	0	39	0	1292894208	44	3939
2026-01-16 03:43:52.54	26.93	28.80	-36.8	-37.7	21.6	0.00e+00	0	39	0	1301282816	44	3911
2026-01-16 03:43:53.39	27.00	28.95	-36.9	-37.9	21.5	0.00e+00	0	39	0	1307574272	44	3984
2026-01-16 03:43:54.52	27.09	29.15	-36.7	-37.6	21.7	0.00e+00	0	39	0	1314914304	44	3858
2026-01-16 03:43:55.38	27.17	29.31	-36.7	-37.7	21.6	0.00e+00	0	39	0	1321205760	44	3874
2026-01-16 03:43:56.51	27.26	29.51	-36.8	-37.8	21.6	0.00e+00	0	39	0	1329594368	44	3922
2026-01-16 03:43:57.36	27.33	29.67	-36.7	-37.6	21.7	0.00e+00	0	39	0	1335885824	44	3851
2026-01-16 03:43:58.61	27.44	29.90	-36.6	-37.5	21.6	0.00e+00	0	39	0	1344274432	43	4045
2026-01-16 03:43:59.46	27.51	30.05	-36.6	-37.5	21.7	0.00e+00	0	39	0	1350565888	43	4038
2026-01-16 03:44:00.60	27.61	30.26	-36.5	-37.4	21.7	0.00e+00	0	39	0	1358954496	43	3988
2026-01-16 03:44:01.45	27.69	30.42	-36.4	-37.3	21.8	0.00e+00	0	39	0	1365245952	43	3947
2026-01-16 03:44:02.59	27.79	30.64	-36.3	-37.2	21.9	0.00e+00	0	39	0	1373634560	43	3892
2026-01-16 03:44:03.50	27.87	30.81	-36.3	-37.2	21.9	0.00e+00	0	39	0	1379926016	43	3904
2026-01-16 03:44:04.50	27.97	31.00	-36.5	-37.4	21.8	0.00e+00	0	39	0	1387266048	42	4197
2026-01-16 03:44:05.49	28.06	31.19	-36.4	-37.3	21.9	0.00e+00	0	39	0	1394606080	42	4174
2026-01-16 03:44:06.49	28.15	31.38	-36.5	-37.5	21.8	0.00e+00	0	39	0	1401946112	42	4249
2026-01-16 03:44:07.48	28.25	31.57	-36.7	-37.6	21.6	0.00e+00	0	39	0	1409286144	42	4321
2026-01-16 03:44:08.48	28.34	31.77	-36.7	-37.6	21.6	0.00e+00	0	39	0	1416626176	43	4064
2026-01-16 03:44:09.47	28.44	31.96	-37.0	-37.9	21.3	0.00e+00	0	39	0	1422917632	43	4228
2026-01-16 03:44:10.47	28.54	32.16	-37.0	-38.0	21.2	0.00e+00	0	39	0	1430257664	43	4243
2026-01-16 03:44:11.46	28.63	32.35	-36.9	-37.8	21.4	0.00e+00	0	39	0	1437597696	43	4186
2026-01-16 03:44:12.45	28.73	32.55	-36.7	-37.7	21.5	0.00e+00	0	39	0	1444937728	43	4102
2026-01-16 03:44:13.45	28.84	32.75	-36.7	-37.6	21.6	0.00e+00	0	39	0	1452277760	43	4059
2026-01-16 03:44:14.44	28.94	32.95	-36.6	-37.5	21.7	0.00e+00	0	39	0	1459617792	43	4025
2026-01-16 03:44:15.44	29.04	33.16	-36.9	-37.8	21.5	0.00e+00	0	39	0	1465909248	43	4161
2026-01-16 03:44:16.43	29.15	33.36	-36.8	-37.8	21.4	0.00e+00	0	38	0	1473249280	43	4152
2026-01-16 03:44:17.43	29.25	33.57	-36.9	-37.8	21.4	0.00e+00	0	39	0	1480589312	43	4175
2026-01-16 03:44:18.42	29.36	33.77	-36.9	-37.9	21.4	0.00e+00	0	39	0	1487929344	43	4199
2026-01-16 03:44:19.42	29.47	33.98	-36.8	-37.7	21.5	0.00e+00	0	38	0	1495269376	43	4133
2026-01-16 03:44:20.41	29.58	34.19	-36.9	-37.8	21.4	0.00e+00	0	39	0	1501560832	43	4171
2026-01-16 03:44:21.40	29.69	34.40	-36.8	-37.7	21.5	0.00e+00	0	39	0	1508900864	43	4140
2026-01-16 03:44:22.40	29.80	34.61	-36.9	-37.8	21.4	0.00e+00	0	39	0	1516240896	43	4156
2026-01-16 03:44:23.39	29.92	34.82	-36.9	-37.8	21.4	0.00e+00	0	39	0	1523580928	43	4177
2026-01-16 03:44:24.39	30.03	35.04	-36.7	-37.6	21.6	0.00e+00	0	39	0	1530920960	43	4076
2026-01-16 03:44:25.39	30.15	35.25	-36.7	-37.6	21.7	0.00e+00	0	39	0	1538260992	43	4059
2026-01-16 03:44:26.38	30.27	35.47	-36.7	-37.6	21.6	0.00e+00	0	39	0	1545601024	43	4057
2026-01-16 03:44:27.38	30.39	35.69	-36.7	-37.6	21.6	0.00e+00	0	39	0	1552941056	43	4073
2026-01-16 03:44:28.37	30.51	35.91	-36.5	-37.4	21.8	0.00e+00	0	39	0	1559232512	43	3971
2026-01-16 03:44:29.37	30.64	36.13	-36.5	-37.4	21.7	0.00e+00	0	39	0	1566572544	43	3989
2026-01-16 03:44:30.36	30.76	36.35	-36.5	-37.4	21.8	0.00e+00	0	39	0	1573912576	43	3967
2026-01-16 03:44:31.35	30.89	36.57	-36.7	-37.6	21.6	0.00e+00	0	39	0	1581252608	43	4054
2026-01-16 03:44:32.35	31.02	36.80	-36.7	-37.6	21.6	0.00e+00	0	39	0	1588592640	43	4055
2026-01-16 03:44:33.34	31.15	37.03	-36.8	-37.7	21.5	0.00e+00	0	39	0	1595932672	43	4113
2026-01-16 03:44:34.45	31.29	37.28	-36.7	-37.6	21.6	0.00e+00	0	39	0	1603272704	43	4058
2026-01-16 03:44:35.33	31.41	37.48	-36.6	-37.6	21.6	0.00e+00	0	39	0	1609564160	43	4052
2026-01-16 03:44:36.64	31.59	37.79	-36.7	-37.7	21.6	0.00e+00	0	39	0	1619001344	43	4102
2026-01-16 03:44:37.35	31.69	37.95	-36.7	-37.6	21.6	0.00e+00	0	39	0	1624244224	43	4081
2026-01-16 03:44:38.63	31.87	38.26	-36.6	-37.5	21.7	0.00e+00	0	39	0	1633681408	43	4029
2026-01-16 03:44:39.37	31.98	38.43	-36.6	-37.5	21.7	0.00e+00	0	39	0	1638924288	43	4021
2026-01-16 03:44:40.65	32.16	38.74	-36.5	-37.4	21.7	0.00e+00	0	39	0	1648361472	43	4004
2026-01-16 03:44:41.39	32.27	38.91	-36.7	-37.6	21.5	0.00e+00	0	39	0	1653604352	43	4079
2026-01-16 03:44:42.67	32.46	39.22	-36.8	-37.7	21.4	0.00e+00	0	39	0	1663041536	43	4115
2026-01-16 03:44:43.39	32.57	39.40	-36.7	-37.6	21.4	0.00e+00	0	39	0	1668284416	43	4092
2026-01-16 03:44:44.67	32.76	39.71	-36.9	-37.8	21.3	0.00e+00	0	39	0	1676673024	43	4183
2026-01-16 03:44:45.39	32.88	39.89	-36.9	-37.8	21.4	0.00e+00	0	39	0	1682964480	43	4157
2026-01-16 03:44:46.67	33.08	40.20	-37.0	-37.9	21.3	0.00e+00	0	39	0	1691353088	43	4239
2026-01-16 03:44:47.38	33.19	40.38	-37.0	-37.9	21.3	0.00e+00	0	39	0	1696595968	43	4227
2026-01-16 03:44:48.66	33.40	40.70	-37.1	-38.0	21.3	0.00e+00	0	39	0	1706033152	43	4270
2026-01-16 03:44:49.37	33.52	40.88	-37.0	-38.0	21.3	0.00e+00	0	39	0	1711276032	43	4247
2026-01-16 03:44:50.65	33.73	41.20	-36.9	-37.8	21.4	0.00e+00	0	39	0	1720713216	43	4182
2026-01-16 03:44:51.37	33.86	41.39	-37.4	-38.4	21.0	0.00e+00	0	39	0	1725956096	44	4202
2026-01-16 03:44:52.75	34.09	41.74	-37.1	-38.0	21.3	0.00e+00	0	39	0	1735393280	44	4040
2026-01-16 03:44:53.46	34.22	41.92	-37.2	-38.1	21.3	0.00e+00	0	39	0	1740636160	44	4078
2026-01-16 03:44:54.74	34.45	42.26	-37.2	-38.2	21.2	0.00e+00	0	39	0	1750073344	44	4100
2026-01-16 03:44:55.45	34.58	42.44	-37.2	-38.1	21.2	0.00e+00	0	39	0	1755316224	44	4085
2026-01-16 03:44:56.73	34.81	42.78	-37.3	-38.2	21.1	0.00e+00	0	39	0	1764753408	44	4108
2026-01-16 03:44:57.45	34.95	42.97	-37.3	-38.2	21.2	0.00e+00	0	39	0	1769996288	44	4110
2026-01-16 03:44:58.73	35.19	43.31	-37.2	-38.1	21.3	0.00e+00	0	39	0	1779433472	44	4093
2026-01-16 03:44:59.46	35.33	43.50	-37.3	-38.3	21.2	0.00e+00	0	39	0	1783627776	44	4153
2026-01-16 03:45:00.74	35.59	43.85	-37.3	-38.2	21.3	0.00e+00	0	39	0	1793064960	44	4117
2026-01-16 03:45:01.46	35.73	44.04	-37.5	-38.5	21.0	0.00e+00	0	39	0	1798307840	44	4271
2026-01-16 03:45:02.74	35.99	44.39	-37.6	-38.5	21.0	0.00e+00	0	39	0	1807745024	45	4047
2026-01-16 03:45:03.47	36.14	44.59	-37.5	-38.4	21.1	0.00e+00	0	39	0	1812987904	45	3988
2026-01-16 03:45:04.74	36.41	44.94	-37.4	-38.4	21.1	0.00e+00	0	39	0	1822425088	45	3968
2026-01-16 03:45:05.47	36.57	45.14	-37.3	-38.2	21.2	0.00e+00	0	39	0	1827667968	45	3903
2026-01-16 03:45:06.75	36.84	45.50	-37.1	-38.0	21.4	0.00e+00	0	39	0	1837105152	44	4042
2026-01-16 03:45:07.47	37.00	45.70	-37.2	-38.1	21.3	0.00e+00	0	39	0	1841299456	44	4090
2026-01-16 03:45:08.75	37.29	46.06	-37.5	-38.5	21.0	0.00e+00	0	39	0	1850736640	44	4244
2026-01-16 03:45:09.48	37.46	46.27	-37.6	-38.6	20.9	0.00e+00	0	39	0	1857028096	44	4301
2026-01-16 03:45:10.76	37.76	46.63	-37.9	-38.8	20.7	0.00e+00	0	39	0	1865416704	45	4177
2026-01-16 03:45:11.47	37.93	46.83	-37.8	-38.7	20.8	0.00e+00	0	39	0	1870659584	45	4135
2026-01-16 03:45:12.75	38.24	47.20	-37.9	-38.9	20.7	0.00e+00	0	39	0	1880096768	46	3975
2026-01-16 03:45:13.48	38.42	47.41	-38.1	-39.1	20.4	0.00e+00	0	39	0	1885339648	46	4075
2026-01-16 03:45:14.76	38.74	47.78	-38.2	-39.2	20.4	0.00e+00	0	39	0	1894776832	46	4116
2026-01-16 03:45:15.50	38.93	48.00	-38.1	-39.1	20.5	0.00e+00	0	39	0	1900019712	46	4065
2026-01-16 03:45:16.78	39.26	48.37	-38.2	-39.2	20.3	0.00e+00	0	39	0	1909456896	46	4128
2026-01-16 03:45:17.50	39.45	48.58	-38.8	-39.8	19.7	0.00e+00	0	39	0	1914699776	46	4418
2026-01-16 03:45:18.78	39.80	48.96	-38.1	-39.1	20.4	0.00e+00	0	39	0	1924136960	46	4054
2026-01-16 03:45:19.51	40.00	49.18	-38.1	-39.1	20.4	0.00e+00	0	39	0	1928331264	46	4069
2026-01-16 03:45:20.79	40.36	49.56	-38.4	-39.4	20.2	0.00e+00	0	39	0	1937768448	46	4242
2026-01-16 03:45:21.51	40.57	49.77	-38.5	-39.6	20.0	0.00e+00	0	38	0	1943011328	46	4295
2026-01-16 03:45:22.79	40.94	50.16	-38.9	-39.9	19.7	0.00e+00	0	39	0	1952448512	47	4210
2026-01-16 03:45:23.55	41.17	50.39	-38.5	-39.4	20.1	0.00e+00	0	39	0	1957691392	47	3994
2026-01-16 03:45:24.83	41.56	50.77	-38.6	-39.6	19.9	0.00e+00	0	39	0	1967128576	47	4075
2026-01-16 03:45:25.55	41.78	50.99	-38.5	-39.5	20.1	0.00e+00	0	39	0	1972371456	47	4006
2026-01-16 03:45:26.83	42.19	51.38	-38.5	-39.5	20.0	0.00e+00	0	39	0	1981808640	47	4033
2026-01-16 03:45:27.57	42.43	51.61	-38.5	-39.5	20.1	0.00e+00	0	39	0	1987051520	47	4010
2026-01-16 03:45:28.85	42.85	52.00	-38.5	-39.5	20.1	0.00e+00	0	39	0	1996488704	47	4017
2026-01-16 03:45:29.56	43.09	52.22	-38.3	-39.3	20.2	0.00e+00	0	39	0	2001731584	47	3933
2026-01-16 03:45:30.84	43.53	52.62	-38.0	-39.0	20.5	0.00e+00	0	39	0	2010120192	46	4035
2026-01-16 03:45:31.57	43.79	52.84	-38.1	-39.0	20.5	0.00e+00	0	39	0	2015363072	46	4041
2026-01-16 03:45:32.85	44.25	53.24	-38.4	-39.4	20.2	0.00e+00	0	39	0	2024800256	46	4209
2026-01-16 03:45:33.57	44.51	53.47	-38.2	-39.2	20.0	0.00e+00	0	39	0	2030043136	47	3883
2026-01-16 03:45:34.85	44.99	53.87	-38.4	-39.3	20.2	0.00e+00	0	39	0	2039480320	47	3957
2026-01-16 03:45:35.56	45.26	54.09	-38.4	-39.4	20.2	0.00e+00	0	39	0	2044723200	47	3965
2026-01-16 03:45:36.84	45.76	54.49	-38.6	-39.5	20.0	0.00e+00	0	39	0	2054160384	47	4048
2026-01-16 03:45:37.56	46.05	54.72	-38.6	-39.6	20.0	0.00e+00	0	39	0	2059403264	47	4076
2026-01-16 03:45:38.84	46.57	55.12	-40.4	-41.2	18.9	0.00e+00	0	39	0	2068840448	49	4376
2026-01-16 03:45:39.57	46.88	55.35	-38.9	-40.0	19.6	0.00e+00	0	39	0	2073034752	47	4246
2026-01-16 03:45:40.85	47.42	55.75	-38.7	-39.7	19.8	0.00e+00	0	39	0	2082471936	47	4130
2026-01-16 03:45:41.57	47.74	55.98	-38.7	-39.7	19.9	0.00e+00	0	39	0	2087714816	47	4100
2026-01-16 03:45:42.85	48.31	56.39	-38.5	-39.5	20.1	0.00e+00	0	39	0	2097152000	47	4012
2026-01-16 03:45:43.59	48.65	56.62	-38.5	-39.5	20.0	0.00e+00	0	39	0	2102394880	47	4039
2026-01-16 03:45:44.87	49.24	57.03	-38.4	-39.4	20.1	0.00e+00	0	39	0	2111832064	46	4204
2026-01-16 03:45:45.66	49.62	57.28	-38.3	-39.3	20.3	0.00e+00	0	39	0	2117074944	46	4156
2026-01-16 03:45:46.92	50.24	57.67	-38.1	-39.1	20.4	0.00e+00	0	39	0	2126512128	46	4072
2026-01-16 03:45:47.73	50.64	57.93	-38.2	-39.2	20.3	0.00e+00	0	39	0	2132803584	46	4118
2026-01-16 03:45:49.09	51.34	58.36	-38.5	-39.5	20.1	0.00e+00	0	39	0	2142240768	46	4246
2026-01-16 03:45:49.80	51.72	58.58	-38.3	-39.3	20.2	0.00e+00	0	39	0	2147483648	46	4178
2026-01-16 03:45:51.28	52.52	59.05	-38.3	-39.2	20.3	0.00e+00	0	39	0	2157969408	46	4132
2026-01-16 03:45:51.99	52.91	59.27	-38.3	-39.2	20.3	0.00e+00	0	39	0	2163212288	46	4141
2026-01-16 03:45:53.27	53.64	59.67	-38.1	-39.0	20.5	0.00e+00	0	39	0	2172649472	46	4048
2026-01-16 03:45:54.03	54.08	59.91	-37.8	-38.7	20.8	0.00e+00	0	39	0	2177892352	46	3899
2026-01-16 03:45:55.31	54.85	60.31	-37.9	-38.8	20.6	0.00e+00	0	39	0	2187329536	46	3956
2026-01-16 03:45:56.06	55.31	60.54	-37.9	-38.9	20.7	0.00e+00	0	39	0	2192572416	46	3968
2026-01-16 03:45:57.51	56.22	60.98	-37.9	-38.9	20.7	0.00e+00	0	39	0	2203058176	46	3967
2026-01-16 03:45:58.22	56.68	61.20	-37.9	-38.8	20.7	0.00e+00	0	39	0	2208301056	46	3947
2026-01-16 03:45:59.50	57.52	61.59	-37.7	-38.6	20.9	0.00e+00	0	39	0	2217738240	45	4087
2026-01-16 03:46:00.21	58.00	61.80	-37.6	-38.6	21.0	0.00e+00	0	39	0	2222981120	45	4057
2026-01-16 03:46:01.49	58.89	62.19	-37.8	-38.7	20.8	0.00e+00	0	39	0	2231369728	45	4124
2026-01-16 03:46:02.20	59.40	62.40	-37.9	-38.9	20.7	0.00e+00	0	39	0	2236612608	45	4202
2026-01-16 03:46:03.72	60.51	62.85	-37.8	-38.8	20.7	0.00e+00	0	39	0	2248146944	46	3923
2026-01-16 03:46:04.43	61.04	63.06	-37.9	-38.9	20.6	0.00e+00	0	39	0	2253389824	46	3972
2026-01-16 03:46:05.77	62.07	63.44	-37.8	-38.7	20.8	0.00e+00	0	39	0	2262827008	46	3913
2026-01-16 03:46:06.48	62.63	63.65	-37.8	-38.7	20.7	0.00e+00	0	39	0	2268069888	46	3902
2026-01-16 03:46:07.82	63.71	64.03	-37.4	-38.4	21.0	0.00e+00	0	39	0	2277507072	45	3974
2026-01-16 03:46:08.53	64.30	64.22	-37.3	-38.3	21.2	0.00e+00	0	39	0	2282749952	45	3919
2026-01-16 03:46:09.81	65.39	64.58	-37.4	-38.4	21.1	0.00e+00	0	39	0	2292187136	45	3963
2026-01-16 03:46:10.55	66.03	64.78	-37.6	-38.5	20.9	0.00e+00	0	39	0	2297430016	45	4051
2026-01-16 03:46:11.83	67.17	65.12	-37.6	-38.6	20.9	0.00e+00	0	39	0	2306867200	45	4076
2026-01-16 03:46:12.56	67.84	65.31	-37.5	-38.4	21.1	0.00e+00	0	39	0	2312110080	45	3983
2026-01-16 03:46:13.84	69.03	65.64	-37.2	-38.2	21.3	0.00e+00	0	39	0	2321547264	45	3884
2026-01-16 03:46:14.56	69.72	65.82	-37.2	-38.2	21.3	0.00e+00	0	39	0	2325741568	44	4101
2026-01-16 03:46:15.84	70.97	66.13	-37.2	-38.1	21.4	0.00e+00	0	39	0	2335178752	44	4070
2026-01-16 03:46:16.55	71.68	66.30	-37.2	-38.1	21.4	0.00e+00	0	39	0	2340421632	44	4073
2026-01-16 03:46:17.83	72.99	66.61	-37.1	-38.0	21.4	0.00e+00	0	39	0	2349858816	44	4049
2026-01-16 03:46:18.68	73.88	66.80	-37.3	-38.2	21.2	0.00e+00	0	39	0	2356150272	44	4136
2026-01-16 03:46:20.12	75.42	67.12	-37.5	-38.4	21.0	0.00e+00	0	39	0	2366636032	44	4236
2026-01-16 03:46:20.83	76.20	67.27	-37.3	-38.2	21.2	0.00e+00	0	39	0	2371878912	44	4137
2026-01-16 03:46:22.11	77.63	67.53	-37.4	-38.3	21.2	0.00e+00	0	39	0	2380267520	44	4175
2026-01-16 03:46:23.29	78.98	67.77	-37.4	-38.4	21.1	0.00e+00	0	39	0	2389704704	44	4198
2026-01-16 03:46:24.15	79.98	67.93	-37.4	-38.3	21.2	0.00e+00	0	39	0	2394947584	44	4162
2026-01-16 03:46:25.29	81.34	68.14	-37.5	-38.5	21.1	0.00e+00	0	39	0	2403336192	44	4254
2026-01-16 03:46:26.14	82.37	68.28	-37.7	-38.7	20.8	0.00e+00	0	39	0	2409627648	44	4363
2026-01-16 03:46:27.32	83.82	68.48	-37.3	-38.2	21.1	0.00e+00	0	39	0	2418016256	44	4142
2026-01-16 03:46:28.18	84.89	68.61	-37.3	-38.3	21.2	0.00e+00	0	39	0	2424307712	44	4151
2026-01-16 03:46:29.31	86.33	68.77	-37.3	-38.3	21.2	0.00e+00	0	39	0	2432696320	44	4163
2026-01-16 03:46:30.16	87.42	68.89	-37.5	-38.4	21.0	0.00e+00	0	39	0	2438987776	44	4227
2026-01-16 03:46:31.41	89.05	69.05	-37.5	-38.5	20.9	0.00e+00	0	39	0	2447376384	44	4251
2026-01-16 03:46:32.26	90.18	69.15	-37.4	-38.3	21.2	0.00e+00	0	39	0	2453667840	44	4173
2026-01-16 03:46:33.48	91.81	69.27	-37.3	-38.2	21.3	0.00e+00	0	39	0	2463105024	44	4127
2026-01-16 03:46:34.33	92.96	69.35	-37.2	-38.1	21.3	0.00e+00	0	39	0	2469396480	44	4096
2026-01-16 03:46:35.47	94.52	69.45	-37.3	-38.2	21.3	0.00e+00	0	39	0	2476736512	44	4122
2026-01-16 03:46:36.32	95.69	69.51	-37.5	-38.5	21.0	0.00e+00	0	39	0	2483027968	44	4255
2026-01-16 03:46:37.45	97.25	69.58	-37.3	-38.3	21.2	0.00e+00	0	39	0	2491416576	44	4160
2026-01-16 03:46:38.31	98.45	69.62	-37.3	-38.3	21.1	0.00e+00	0	39	0	2497708032	44	4151
2026-01-16 03:46:39.45	100.05	69.67	-37.2	-38.1	21.4	0.00e+00	0	39	0	2506096640	44	4092
2026-01-16 03:46:40.30	101.24	69.69	-37.2	-38.2	21.3	0.00e+00	0	39	0	2512388096	44	4108
2026-01-16 03:46:41.44	102.85	69.71	-37.5	-38.5	21.0	0.00e+00	0	39	0	2520776704	44	4251
2026-01-16 03:46:42.29	104.05	69.72	-37.7	-38.7	20.8	0.00e+00	0	39	0	2526019584	45	4105
2026-01-16 03:46:43.43	105.66	69.71	-37.4	-38.4	21.0	0.00e+00	0	39	0	2534408192	45	3978
2026-01-16 03:46:44.28	106.86	69.70	-37.4	-38.3	21.2	0.00e+00	0	39	0	2540699648	45	3933
2026-01-16 03:46:45.41	108.44	69.66	-37.4	-38.3	21.2	0.00e+00	0	39	0	2549088256	45	3936
2026-01-16 03:46:46.26	109.64	69.63	-37.4	-38.3	21.2	0.00e+00	0	39	0	2555379712	45	3932
2026-01-16 03:46:47.40	111.23	69.57	-37.4	-38.3	21.2	0.00e+00	0	39	0	2562719744	45	3957
2026-01-16 03:46:48.26	112.42	69.52	-37.3	-38.2	21.2	0.00e+00	0	39	0	2569011200	45	3885
2026-01-16 03:46:49.39	113.97	69.44	-37.3	-38.2	21.3	0.00e+00	0	39	0	2577399808	45	3897
2026-01-16 03:46:50.25	115.15	69.37	-37.3	-38.2	21.2	0.00e+00	0	39	0	2583691264	45	3909
2026-01-16 03:46:51.38	116.68	69.26	-37.5	-38.4	21.1	0.00e+00	0	39	0	2592079872	45	3979
2026-01-16 03:46:52.24	117.83	69.17	-37.5	-38.4	21.0	0.00e+00	0	39	0	2598371328	45	3981
2026-01-16 03:46:53.37	119.33	69.04	-37.2	-38.1	21.3	0.00e+00	0	39	0	2606759936	45	3853
2026-01-16 03:46:54.23	120.45	68.93	-37.2	-38.1	21.3	0.00e+00	0	39	0	2613051392	44	4069
2026-01-16 03:46:55.36	121.91	68.78	-37.2	-38.1	21.3	0.00e+00	0	39	0	2620391424	44	4084
2026-01-16 03:46:56.22	123.01	68.66	-37.3	-38.2	21.3	0.00e+00	0	39	0	2626682880	44	4135
2026-01-16 03:46:57.36	124.44	68.48	-37.2	-38.1	21.3	0.00e+00	0	39	0	2635071488	44	4060
2026-01-16 03:46:58.21	125.49	68.35	-37.2	-38.2	21.4	0.00e+00	0	39	0	2641362944	44	4103
2026-01-16 03:46:59.35	126.87	68.15	-37.4	-38.3	21.2	0.00e+00	0	39	0	2649751552	44	4189
2026-01-16 03:47:00.20	127.89	68.00	-37.5	-38.5	21.1	0.00e+00	0	39	0	2656043008	44	4250
2026-01-16 03:47:01.65	129.59	67.72	-37.0	-37.9	21.6	0.00e+00	0	39	0	2666528768	44	3985
2026-01-16 03:47:02.36	130.40	67.58	-36.9	-37.8	21.7	0.00e+00	0	39	0	2670723072	44	3929
2026-01-16 03:47:03.66	131.86	67.32	-36.9	-37.8	21.7	0.00e+00	0	39	0	2680160256	44	3937
2026-01-16 03:47:04.37	132.64	67.17	-37.1	-38.0	21.5	0.00e+00	0	39	0	2685403136	44	4048
2026-01-16 03:47:05.65	134.03	66.89	-37.1	-38.0	21.5	0.00e+00	0	39	0	2694840320	44	4013
2026-01-16 03:47:06.36	134.78	66.73	-37.5	-38.4	21.1	0.00e+00	0	39	0	2700083200	44	4222
2026-01-16 03:47:07.64	136.10	66.43	-37.1	-38.0	21.4	0.00e+00	0	39	0	2709520384	44	4051
2026-01-16 03:47:08.35	136.82	66.26	-37.0	-37.8	21.6	0.00e+00	0	39	0	2714763264	44	3952
2026-01-16 03:47:09.63	138.09	65.95	-36.9	-37.7	21.7	0.00e+00	0	39	0	2724200448	44	3911
2026-01-16 03:47:10.35	138.79	65.77	-37.0	-37.8	21.6	0.00e+00	0	39	0	2728394752	44	3954
2026-01-16 03:47:11.63	140.00	65.44	-37.1	-38.0	21.6	0.00e+00	0	39	0	2737831936	44	4012
2026-01-16 03:47:12.36	140.67	65.25	-37.2	-38.1	21.4	0.00e+00	0	39	0	2743074816	44	4089
2026-01-16 03:47:13.65	141.84	64.91	-37.4	-38.3	21.2	0.00e+00	0	39	0	2752512000	44	4172
2026-01-16 03:47:14.36	142.46	64.72	-37.2	-38.1	21.3	0.00e+00	0	39	0	2757754880	44	4081
2026-01-16 03:47:15.64	143.57	64.37	-37.4	-38.4	21.1	0.00e+00	0	39	0	2767192064	44	4204
2026-01-16 03:47:16.70	144.46	64.07	-37.7	-38.7	20.8	0.00e+00	0	39	0	2774532096	45	4107
2026-01-16 03:47:17.88	145.42	63.74	-37.9	-38.8	20.7	0.00e+00	0	39	0	2782920704	45	4178
2026-01-16 03:47:18.73	146.09	63.50	-38.1	-39.1	20.3	0.00e+00	0	39	0	2789212160	45	4293
2026-01-16 03:47:19.87	146.98	63.17	-38.0	-38.9	20.6	0.00e+00	0	39	0	2797600768	45	4241
2026-01-16 03:47:20.72	147.62	62.92	-37.7	-38.7	20.8	0.00e+00	0	39	0	2803892224	45	4128
2026-01-16 03:47:21.86	148.47	62.59	-37.8	-38.8	20.7	0.00e+00	0	39	0	2812280832	45	4177
2026-01-16 03:47:22.71	149.08	62.33	-38.1	-39.1	20.4	0.00e+00	0	39	0	2817523712	45	4339
2026-01-16 03:47:23.85	149.89	61.99	-38.6	-39.6	19.9	0.00e+00	0	39	0	2825912320	46	4318
2026-01-16 03:47:24.70	150.47	61.73	-38.6	-39.7	19.9	0.00e+00	0	39	0	2832203776	46	4353
2026-01-16 03:47:25.84	151.24	61.39	-38.3	-39.3	20.2	0.00e+00	0	39	0	2840592384	46	4149
2026-01-16 03:47:26.69	151.79	61.13	-38.1	-39.1	20.4	0.00e+00	0	39	0	2846883840	46	4062
2026-01-16 03:47:27.83	152.52	60.78	-38.4	-39.4	20.2	0.00e+00	0	39	0	2855272448	46	4216
2026-01-16 03:47:28.68	153.05	60.51	-38.7	-39.7	19.9	0.00e+00	0	39	0	2861563904	46	4357
2026-01-16 03:47:29.82	153.75	60.16	-38.9	-40.0	19.6	0.00e+00	0	39	0	2868903936	47	4257
2026-01-16 03:47:30.67	154.25	59.89	-38.9	-39.9	19.7	0.00e+00	0	39	0	2875195392	47	4213
2026-01-16 03:47:31.81	154.92	59.54	-38.7	-39.7	19.8	0.00e+00	0	39	0	2883584000	47	4130
2026-01-16 03:47:32.82	155.49	59.22	-38.8	-39.8	19.8	0.00e+00	0	39	0	2890924032	47	4175
2026-01-16 03:47:33.79	156.02	58.92	-38.8	-39.8	19.8	0.00e+00	0	39	0	2898264064	47	4185
2026-01-16 03:47:34.99	156.67	58.54	-38.6	-39.6	20.0	0.00e+00	0	39	0	2906652672	47	4070
2026-01-16 03:47:35.84	157.12	58.27	-38.3	-39.2	20.3	0.00e+00	0	39	0	2912944128	47	3911
2026-01-16 03:47:36.98	157.71	57.91	-38.2	-39.1	20.4	0.00e+00	0	39	0	2921332736	47	3867
2026-01-16 03:47:37.83	158.13	57.64	-38.2	-39.2	20.2	0.00e+00	0	39	0	2927624192	47	3885
2026-01-16 03:47:38.97	158.69	57.28	-38.5	-39.5	20.1	0.00e+00	0	39	0	2936012800	47	4032
2026-01-16 03:47:39.82	159.10	57.01	-38.8	-39.8	19.8	0.00e+00	0	39	0	2942304256	47	4153
2026-01-16 03:47:40.96	159.63	56.64	-38.9	-39.9	19.6	0.00e+00	0	39	0	2949644288	47	4234
2026-01-16 03:47:41.81	160.02	56.37	-38.9	-39.8	19.7	0.00e+00	0	39	0	2955935744	47	4193
2026-01-16 03:47:42.95	160.53	56.01	-38.9	-39.9	19.6	0.00e+00	0	39	0	2964324352	47	4238
2026-01-16 03:47:43.80	160.91	55.74	-39.0	-40.0	19.6	0.00e+00	0	39	0	2970615808	47	4271
2026-01-16 03:47:44.94	161.40	55.38	-38.9	-40.0	19.4	0.00e+00	0	39	0	2979004416	47	4255
2026-01-16 03:47:45.79	161.75	55.11	-38.7	-39.7	19.9	0.00e+00	0	39	0	2985295872	47	4106
2026-01-16 03:47:46.99	162.24	54.73	-38.5	-39.5	20.0	0.00e+00	0	39	0	2993684480	47	4048
2026-01-16 03:47:47.85	162.59	54.46	-38.6	-39.6	20.0	0.00e+00	0	39	0	2999975936	47	4068
2026-01-16 03:47:49.06	163.06	54.08	-38.5	-39.5	20.1	0.00e+00	0	39	0	3008364544	47	4037
2026-01-16 03:47:49.91	163.39	53.81	-38.4	-39.4	20.2	0.00e+00	0	39	0	3014656000	47	3964
2026-01-16 03:47:51.11	163.84	53.44	-38.0	-38.9	20.6	0.00e+00	0	39	0	3023044608	46	3999
2026-01-16 03:47:51.97	164.15	53.17	-37.9	-38.9	20.7	0.00e+00	0	39	0	3029336064	46	3966
2026-01-16 03:47:53.10	164.56	52.81	-38.0	-38.9	20.6	0.00e+00	0	39	0	3037724672	46	3983
2026-01-16 03:47:53.96	164.86	52.55	-38.1	-39.1	20.5	0.00e+00	0	39	0	3044016128	46	4058
2026-01-16 03:47:55.09	165.25	52.19	-38.3	-39.2	20.3	0.00e+00	0	39	0	3052404736	46	4131
2026-01-16 03:47:55.95	165.54	51.93	-38.4	-39.4	20.2	0.00e+00	0	39	0	3057647616	46	4204
2026-01-16 03:47:57.09	165.91	51.58	-38.6	-39.6	20.0	0.00e+00	0	39	0	3066036224	46	4303
2026-01-16 03:47:57.94	166.19	51.32	-38.5	-39.5	20.0	0.00e+00	0	39	0	3072327680	46	4284
2026-01-16 03:47:59.07	166.55	50.97	-38.5	-39.5	20.1	0.00e+00	0	39	0	3080716288	46	4273
2026-01-16 03:48:00.04	166.85	50.67	-38.5	-39.5	20.1	0.00e+00	0	39	0	3088056320	46	4266
2026-01-16 03:48:01.03	167.15	50.37	-38.6	-39.6	20.0	0.00e+00	0	39	0	3094347776	46	4295
2026-01-16 03:48:02.03	167.45	50.07	-38.5	-39.5	20.1	0.00e+00	0	39	0	3101687808	46	4269
2026-01-16 03:48:03.02	167.74	49.77	-38.5	-39.5	20.1	0.00e+00	0	39	0	3109027840	46	4249
2026-01-16 03:48:04.02	168.03	49.47	-38.4	-39.4	20.2	0.00e+00	0	39	0	3116367872	46	4213
2026-01-16 03:48:05.01	168.31	49.17	-38.5	-39.5	20.1	0.00e+00	0	39	0	3123707904	46	4283
2026-01-16 03:48:06.01	168.58	48.88	-38.7	-39.7	19.9	0.00e+00	0	39	0	3131047936	46	4362
2026-01-16 03:48:07.00	168.85	48.58	-38.8	-39.8	19.8	0.00e+00	0	39	0	3137339392	47	4170
2026-01-16 03:48:08.00	169.12	48.29	-38.6	-39.6	19.8	0.00e+00	0	39	0	3144679424	47	4076
2026-01-16 03:48:08.99	169.38	48.00	-38.4	-39.4	20.1	0.00e+00	0	39	0	3152019456	47	3990
2026-01-16 03:48:09.99	169.63	47.70	-38.3	-39.3	20.3	0.00e+00	0	39	0	3159359488	47	3914
2026-01-16 03:48:10.98	169.88	47.42	-38.1	-39.1	20.0	0.00e+00	0	39	0	3166699520	46	4084
2026-01-16 03:48:11.98	170.13	47.13	-38.0	-38.9	20.6	0.00e+00	0	39	0	3174039552	46	3986
2026-01-16 03:48:13.02	170.38	46.83	-38.0	-39.0	20.4	0.00e+00	0	39	0	3181379584	46	4035
2026-01-16 03:48:13.97	170.61	46.55	-38.1	-39.1	20.4	0.00e+00	0	39	0	3188719616	46	4068
2026-01-16 03:48:14.96	170.84	46.27	-38.2	-39.2	20.4	0.00e+00	0	39	0	3196059648	46	4107
2026-01-16 03:48:15.95	171.07	45.99	-38.2	-39.2	20.4	0.00e+00	0	39	0	3202351104	46	4100
2026-01-16 03:48:16.95	171.29	45.71	-38.1	-39.0	20.5	0.00e+00	0	39	0	3209691136	46	4051
2026-01-16 03:48:17.94	171.52	45.43	-37.8	-38.8	20.6	0.00e+00	0	39	0	3217031168	46	3938
2026-01-16 03:48:18.94	171.73	45.15	-37.8	-38.7	20.8	0.00e+00	0	39	0	3224371200	46	3899
2026-01-16 03:48:19.93	171.95	44.87	-37.7	-38.7	20.9	0.00e+00	0	39	0	3231711232	46	3875
2026-01-16 03:48:20.93	172.16	44.60	-37.6	-38.5	20.9	0.00e+00	0	39	0	3238002688	46	3822
2026-01-16 03:48:21.92	172.36	44.33	-37.5	-38.4	21.0	0.00e+00	0	39	0	3245342720	45	4001
2026-01-16 03:48:22.92	172.57	44.05	-37.4	-38.4	21.1	0.00e+00	0	39	0	3252682752	45	3968
2026-01-16 03:48:23.91	172.77	43.78	-37.2	-38.1	21.3	0.00e+00	0	39	0	3260022784	45	3844
2026-01-16 03:48:24.91	172.96	43.51	-37.2	-38.1	21.3	0.00e+00	0	39	0	3267362816	45	3868
2026-01-16 03:48:25.91	173.16	43.24	-37.4	-38.3	21.1	0.00e+00	0	39	0	3274702848	45	3955
2026-01-16 03:48:26.93	173.35	42.97	-37.3	-38.2	20.8	0.00e+00	0	39	0	3282042880	45	3886
2026-01-16 03:48:27.98	173.55	42.69	-37.4	-38.4	21.0	0.00e+00	0	39	0	3289382912	45	3963
2026-01-16 03:48:28.91	173.72	42.45	-37.4	-38.3	21.1	0.00e+00	0	39	0	3296722944	45	3952
2026-01-16 03:48:29.90	173.90	42.19	-37.3	-38.2	21.3	0.00e+00	0	39	0	3303014400	45	3894
2026-01-16 03:48:30.90	174.08	41.92	-37.3	-38.3	21.2	0.00e+00	0	39	0	3310354432	45	3915
2026-01-16 03:48:31.89	174.26	41.67	-37.3	-38.2	21.3	0.00e+00	0	39	0	3317694464	45	3888
2026-01-16 03:48:32.89	174.43	41.41	-37.2	-38.1	21.3	0.00e+00	0	39	0	3325034496	44	4088
2026-01-16 03:48:33.88	174.60	41.16	-37.0	-37.9	21.6	0.00e+00	0	39	0	3332374528	44	3977
2026-01-16 03:48:34.88	174.77	40.90	-36.9	-37.8	21.6	0.00e+00	0	39	0	3339714560	44	3930
2026-01-16 03:48:35.87	174.93	40.65	-37.0	-37.9	21.5	0.00e+00	0	39	0	3346006016	44	3970
2026-01-16 03:48:36.87	175.09	40.40	-37.0	-37.9	21.5	0.00e+00	0	39	0	3353346048	44	3966
2026-01-16 03:48:37.86	175.25	40.15	-37.0	-38.0	21.5	0.00e+00	0	39	0	3360686080	44	4009
2026-01-16 03:48:38.86	175.41	39.90	-37.1	-38.0	21.4	0.00e+00	0	39	0	3368026112	44	4039
2026-01-16 03:48:39.85	175.57	39.66	-37.2	-38.1	21.3	0.00e+00	0	39	0	3375366144	44	4082
2026-01-16 03:48:40.85	175.72	39.41	-37.2	-38.1	21.3	0.00e+00	0	39	0	3381657600	44	4064
2026-01-16 03:48:41.92	175.88	39.15	-37.1	-38.0	21.1	0.00e+00	0	39	0	3390046208	44	4046
2026-01-16 03:48:42.82	176.02	38.93	-37.3	-38.2	21.0	0.00e+00	0	39	0	3396337664	44	4128
2026-01-16 03:48:43.86	176.17	38.68	-37.4	-38.3	21.2	0.00e+00	0	39	0	3403677696	44	4171
2026-01-16 03:48:44.86	176.32	38.44	-37.4	-38.4	21.0	0.00e+00	0	39	0	3411017728	44	4204
2026-01-16 03:48:45.85	176.46	38.20	-37.5	-38.4	21.1	0.00e+00	0	39	0	3418357760	44	4213
2026-01-16 03:48:47.05	176.63	37.92	-37.4	-38.4	21.0	0.00e+00	0	39	0	3426746368	44	4213
2026-01-16 03:48:47.92	176.75	37.71	-37.5	-38.4	20.9	0.00e+00	0	39	0	3433037824	44	4230
2026-01-16 03:48:49.06	176.90	37.45	-37.4	-38.3	21.1	0.00e+00	0	39	0	3441426432	44	4190
2026-01-16 03:48:49.91	177.02	37.25	-37.3	-38.3	21.1	0.00e+00	0	39	0	3447717888	44	4154
2026-01-16 03:48:51.05	177.17	36.99	-37.2	-38.1	21.3	0.00e+00	0	39	0	3456106496	44	4089
2026-01-16 03:48:51.90	177.28	36.79	-37.2	-38.1	21.3	0.00e+00	0	39	0	3462397952	44	4073
2026-01-16 03:48:53.04	177.43	36.53	-37.0	-38.0	21.4	0.00e+00	0	39	0	3469737984	44	4009
2026-01-16 03:48:53.89	177.54	36.34	-37.1	-38.0	21.3	0.00e+00	0	39	0	3476029440	44	4028
2026-01-16 03:48:55.03	177.68	36.08	-36.8	-37.7	21.6	0.00e+00	0	39	0	3484418048	44	3899
2026-01-16 03:48:55.88	177.79	35.89	-36.7	-37.6	21.8	0.00e+00	0	39	0	3490709504	44	3851
2026-01-16 03:48:57.02	177.93	35.64	-36.8	-37.7	21.7	0.00e+00	0	39	0	3499098112	44	3876
2026-01-16 03:48:57.87	178.03	35.45	-36.7	-37.6	21.8	0.00e+00	0	39	0	3505389568	44	3858
2026-01-16 03:48:59.01	178.17	35.20	-36.8	-37.7	21.7	0.00e+00	0	39	0	3512729600	44	3886
2026-01-16 03:48:59.86	178.27	35.01	-36.9	-37.8	21.6	0.00e+00	0	39	0	3520069632	44	3945
2026-01-16 03:49:01.06	178.41	34.75	-37.0	-37.9	21.5	0.00e+00	0	39	0	3528458240	44	3967
2026-01-16 03:49:01.91	178.51	34.57	-37.0	-37.9	21.5	0.00e+00	0	39	0	3534749696	44	3991
2026-01-16 03:49:03.11	178.64	34.31	-37.1	-38.0	21.3	0.00e+00	0	39	0	3543138304	44	4049
2026-01-16 03:49:03.97	178.74	34.13	-37.1	-38.0	21.4	0.00e+00	0	39	0	3549429760	44	4046
2026-01-16 03:49:05.11	178.87	33.89	-37.1	-38.0	21.4	0.00e+00	0	39	0	3556769792	44	4045
2026-01-16 03:49:05.96	178.96	33.71	-37.1	-38.0	21.3	0.00e+00	0	39	0	3564109824	44	4026
2026-01-16 03:49:07.10	179.08	33.47	-37.0	-37.9	21.5	0.00e+00	0	39	0	3571449856	44	3993
2026-01-16 03:49:07.98	179.18	33.29	-37.0	-37.9	21.5	0.00e+00	0	39	0	3577741312	44	3992
2026-01-16 03:49:09.12	179.30	33.06	-36.8	-37.7	21.7	0.00e+00	0	39	0	3586129920	44	3910
2026-01-16 03:49:09.97	179.38	32.88	-36.8	-37.7	21.7	0.00e+00	0	39	0	3592421376	44	3882
2026-01-16 03:49:11.11	179.50	32.65	-36.8	-37.7	21.7	0.00e+00	0	39	0	3600809984	44	3886
2026-01-16 03:49:12.11	179.60	32.45	-36.7	-37.6	21.8	0.00e+00	0	39	0	3608150016	44	3825
2026-01-16 03:49:13.28	179.72	32.21	-36.8	-37.6	21.7	0.00e+00	0	39	0	3616538624	44	3868
2026-01-16 03:49:14.20	179.81	32.03	-36.7	-37.6	21.8	0.00e+00	0	39	0	3622830080	44	3830
2026-01-16 03:49:15.39	179.93	31.79	-36.7	-37.6	21.8	0.00e+00	0	39	0	3631218688	44	3834
2026-01-16 03:49:16.24	180.01	31.63	-36.6	-37.5	21.8	0.00e+00	0	39	0	3637510144	44	3810
2026-01-16 03:49:17.56	180.14	31.37	-36.7	-37.6	21.8	0.00e+00	0	39	0	3646947328	44	3840
2026-01-16 03:49:18.28	180.20	31.23	-36.8	-37.7	21.7	0.00e+00	0	39	0	3652190208	44	3899
2026-01-16 03:49:19.56	180.32	30.98	-36.8	-37.7	21.6	0.00e+00	0	39	0	3661627392	44	3902
2026-01-16 03:49:20.27	180.39	30.85	-36.8	-37.7	21.7	0.00e+00	0	39	0	3666870272	44	3895
2026-01-16 03:49:21.55	180.51	30.60	-36.9	-37.8	21.5	0.00e+00	0	39	0	3676307456	44	3952
2026-01-16 03:49:22.26	180.57	30.47	-36.9	-37.9	21.5	0.00e+00	0	39	0	3681550336	44	3960
2026-01-16 03:49:23.54	180.68	30.23	-36.9	-37.9	21.4	0.00e+00	0	39	0	3689938944	44	3972
2026-01-16 03:49:24.26	180.75	30.09	-36.9	-37.8	21.5	0.00e+00	0	39	0	3696230400	44	3957
2026-01-16 03:49:25.54	180.86	29.85	-37.0	-37.9	21.5	0.00e+00	0	39	0	3704619008	44	3973
2026-01-16 03:49:26.27	180.92	29.72	-37.0	-38.0	21.4	0.00e+00	0	39	0	3709861888	44	4016
2026-01-16 03:49:27.55	181.03	29.48	-37.0	-37.9	21.5	0.00e+00	0	39	0	3719299072	44	3987
2026-01-16 03:49:28.27	181.09	29.35	-36.9	-37.9	21.5	0.00e+00	0	39	0	3724541952	44	3960
2026-01-16 03:49:29.55	181.20	29.12	-36.9	-37.9	21.5	0.00e+00	0	39	0	3733979136	44	3963
2026-01-16 03:49:30.28	181.26	28.99	-36.9	-37.9	21.5	0.00e+00	0	39	0	3739222016	44	3959
2026-01-16 03:49:31.64	181.37	28.74	-36.9	-37.8	21.6	0.00e+00	0	39	0	3748659200	44	3934
2026-01-16 03:49:32.35	181.43	28.62	-36.9	-37.9	21.5	0.00e+00	0	39	0	3753902080	44	3964
2026-01-16 03:49:33.63	181.53	28.39	-37.0	-37.9	21.5	0.00e+00	0	39	0	3763339264	44	3970
2026-01-16 03:49:34.70	181.61	28.20	-37.1	-38.0	21.4	0.00e+00	0	39	0	3770679296	44	4015
2026-01-16 03:49:35.82	181.70	28.01	-37.1	-38.1	21.3	0.00e+00	0	39	0	3779067904	44	4053
2026-01-16 03:49:36.81	181.78	27.84	-37.1	-38.1	21.3	0.00e+00	0	39	0	3786407936	44	4058
2026-01-16 03:49:37.81	181.85	27.66	-37.2	-38.2	21.2	0.00e+00	0	39	0	3793747968	44	4105
2026-01-16 03:49:38.81	181.93	27.49	-37.3	-38.2	21.2	0.00e+00	0	39	0	3801088000	44	4136
2026-01-16 03:49:39.80	182.00	27.32	-37.5	-38.4	21.0	0.00e+00	0	39	0	3807379456	44	4218
2026-01-16 03:49:40.80	182.08	27.15	-37.5	-38.4	21.0	0.00e+00	0	39	0	3814719488	44	4222
2026-01-16 03:49:41.79	182.15	26.99	-37.5	-38.5	21.0	0.00e+00	0	39	0	3822059520	44	4247
2026-01-16 03:49:42.78	182.22	26.82	-37.6	-38.5	20.9	0.00e+00	0	39	0	3829399552	44	4285
2026-01-16 03:49:43.78	182.29	26.65	-37.7	-38.7	20.7	0.00e+00	0	39	0	3836739584	44	4355
2026-01-16 03:49:44.77	182.36	26.49	-37.6	-38.6	20.8	0.00e+00	0	39	0	3844079616	44	4315
2026-01-16 03:49:45.77	182.43	26.32	-37.7	-38.7	20.7	0.00e+00	0	39	0	3851419648	44	4351
2026-01-16 03:49:46.76	182.50	26.16	-37.8	-38.8	20.6	0.00e+00	0	39	0	3857711104	45	4159
2026-01-16 03:49:47.76	182.57	26.00	-37.7	-38.7	20.7	0.00e+00	0	39	0	3865051136	45	4102
2026-01-16 03:49:48.80	182.64	25.83	-37.8	-38.8	20.7	0.00e+00	0	39	0	3872391168	45	4150
2026-01-16 03:49:49.74	182.71	25.68	-37.7	-38.7	20.6	0.00e+00	0	39	0	3879731200	45	4123
2026-01-16 03:49:50.85	182.78	25.50	-37.6	-38.6	20.8	0.00e+00	0	39	0	3887071232	45	4065
2026-01-16 03:49:51.70	182.84	25.37	-37.7	-38.6	20.8	0.00e+00	0	39	0	3893362688	45	4082
2026-01-16 03:49:53.06	182.93	25.15	-37.7	-38.7	20.7	0.00e+00	0	39	0	3903848448	45	4117
2026-01-16 03:49:53.77	182.97	25.04	-37.6	-38.6	20.8	0.00e+00	0	39	0	3909091328	45	4079
2026-01-16 03:49:55.27	183.07	24.81	-37.5	-38.5	20.9	0.00e+00	0	39	0	3919577088	45	4022
2026-01-16 03:49:55.98	183.12	24.70	-37.5	-38.5	20.9	0.00e+00	0	39	0	3924819968	45	4017
2026-01-16 03:49:57.26	183.20	24.50	-37.6	-38.5	20.9	0.00e+00	0	39	0	3934257152	45	4032
2026-01-16 03:49:57.97	183.24	24.39	-37.6	-38.5	20.8	0.00e+00	0	39	0	3939500032	45	4035
2026-01-16 03:49:59.25	183.32	24.20	-37.4	-38.4	21.0	0.00e+00	0	39	0	3947888640	45	3971
2026-01-16 03:50:00.00	183.37	24.08	-37.4	-38.3	21.0	0.00e+00	0	39	0	3953131520	45	3953
2026-01-16 03:50:01.28	183.44	23.89	-37.3	-38.3	21.1	0.00e+00	0	39	0	3962568704	45	3930
2026-01-16 03:50:01.99	183.49	23.78	-37.4	-38.4	21.0	0.00e+00	0	39	0	3967811584	45	3966
2026-01-16 03:50:03.26	183.56	23.59	-37.3	-38.3	21.0	0.00e+00	0	39	0	3977248768	45	3933
2026-01-16 03:50:04.10	183.61	23.47	-37.4	-38.4	21.0	0.00e+00	0	39	0	3983540224	45	3965
2026-01-16 03:50:05.24	183.68	23.30	-37.4	-38.3	21.0	0.00e+00	0	39	0	3990880256	45	3940
2026-01-16 03:50:06.09	183.73	23.18	-37.3	-38.3	21.1	0.00e+00	0	39	0	3997171712	45	3931
2026-01-16 03:50:07.22	183.79	23.01	-37.3	-38.3	21.1	0.00e+00	0	39	0	4005560320	45	3914
2026-01-16 03:50:08.08	183.84	22.89	-37.3	-38.2	21.1	0.00e+00	0	39	0	4011851776	45	3895
2026-01-16 03:50:09.22	183.91	22.72	-37.3	-38.3	21.0	0.00e+00	0	39	0	4020240384	45	3921
2026-01-16 03:50:10.07	183.96	22.60	-37.3	-38.3	21.1	0.00e+00	0	39	0	4026531840	45	3914
2026-01-16 03:50:11.21	184.02	22.44	-37.4	-38.4	21.0	0.00e+00	0	39	0	4033871872	45	3959
2026-01-16 03:50:12.06	184.07	22.32	-37.3	-38.3	21.1	0.00e+00	0	39	0	4041211904	45	3932
2026-01-16 03:50:13.27	184.13	22.15	-37.4	-38.4	21.0	0.00e+00	0	39	0	4049600512	45	3964
2026-01-16 03:50:14.12	184.18	22.03	-37.5	-38.5	20.8	0.00e+00	0	39	0	4055891968	45	4010
2026-01-16 03:50:15.32	184.24	21.86	-37.5	-38.4	20.9	0.00e+00	0	39	0	4064280576	45	4003
2026-01-16 03:50:16.18	184.29	21.74	-37.4	-38.4	21.0	0.00e+00	0	39	0	4070572032	45	3977
2026-01-16 03:50:17.31	184.35	21.58	-37.5	-38.4	20.9	0.00e+00	0	39	0	4078960640	45	4001
2026-01-16 03:50:18.16	184.39	21.47	-37.4	-38.4	20.9	0.00e+00	0	39	0	4085252096	45	3980
2026-01-16 03:50:19.43	184.46	21.29	-37.6	-38.5	20.8	0.00e+00	0	39	0	4093640704	45	4032
2026-01-16 03:50:20.24	184.50	21.18	-37.6	-38.6	20.8	0.00e+00	0	39	0	4099932160	45	4067
2026-01-16 03:50:21.38	184.56	21.03	-37.7	-38.6	20.7	0.00e+00	0	39	0	4108320768	45	4093
2026-01-16 03:50:22.23	184.60	20.92	-37.7	-38.6	20.7	0.00e+00	0	39	0	4114612224	45	4095
2026-01-16 03:50:23.37	184.66	20.76	-37.6	-38.6	20.7	0.00e+00	0	39	0	4121952256	45	4075
2026-01-16 03:50:24.22	184.70	20.65	-37.7	-38.7	20.7	0.00e+00	0	39	0	4128243712	45	4103
2026-01-16 03:50:25.56	184.77	20.47	-37.7	-38.7	20.6	0.00e+00	0	39	0	4138729472	45	4128
2026-01-16 03:50:26.28	184.81	20.38	-37.8	-38.8	20.5	0.00e+00	0	39	0	4142923776	45	4174
2026-01-16 03:50:27.55	184.87	20.21	-37.9	-38.9	20.4	0.00e+00	0	39	0	4152360960	45	4239
2026-01-16 03:50:28.26	184.90	20.12	-37.9	-38.9	20.4	0.00e+00	0	39	0	4157603840	45	4226
2026-01-16 03:50:29.54	184.96	19.95	-37.9	-38.9	20.4	0.00e+00	0	39	0	4167041024	45	4241
2026-01-16 03:50:30.27	185.00	19.86	-38.0	-39.0	20.4	0.00e+00	0	39	0	4172283904	45	4269
2026-01-16 03:50:31.55	185.06	19.70	-38.1	-39.1	20.2	0.00e+00	0	39	0	4181721088	45	4330
2026-01-16 03:50:32.27	185.09	19.60	-38.1	-39.1	20.2	0.00e+00	0	39	0	4186963968	45	4332
2026-01-16 03:50:33.55	185.15	19.44	-38.2	-39.2	20.1	0.00e+00	0	39	0	4195352576	45	4369
2026-01-16 03:50:34.28	185.19	19.35	-38.2	-39.3	20.1	0.00e+00	0	39	0	4200595456	45	4398
2026-01-16 03:50:35.55	185.24	19.19	-38.2	-39.3	20.0	0.00e+00	0	39	0	4210032640	45	4412
2026-01-16 03:50:36.27	185.28	19.10	-38.3	-39.4	20.0	0.00e+00	0	39	0	4215275520	46	4198
2026-01-16 03:50:37.55	185.33	18.94	-38.3	-39.4	19.9	0.00e+00	0	39	0	4224712704	46	4224
2026-01-16 03:50:38.27	185.37	18.85	-38.4	-39.5	19.9	0.00e+00	0	39	0	4229955584	46	4258
2026-01-16 03:50:39.55	185.42	18.69	-38.4	-39.4	19.9	0.00e+00	0	39	0	4239392768	46	4241
2026-01-16 03:50:40.27	185.45	18.60	-38.4	-39.5	19.9	0.00e+00	0	39	0	4244635648	46	4257
2026-01-16 03:50:41.55	185.51	18.45	-38.4	-39.5	19.9	0.00e+00	0	39	0	4253024256	46	4257
2026-01-16 03:50:42.26	185.54	18.36	-38.5	-39.6	19.8	0.00e+00	0	39	0	4259315712	46	4297
2026-01-16 03:50:43.54	185.60	18.21	-38.4	-39.5	19.9	0.00e+00	0	39	0	4267704320	46	4275
2026-01-16 03:50:44.27	185.63	18.12	-38.4	-39.5	19.9	0.00e+00	0	39	0	4272947200	46	4260
2026-01-16 03:50:45.81	185.69	17.93	-38.5	-39.6	19.7	0.00e+00	0	39	0	4284481536	46	4311
2026-01-16 03:50:46.52	185.72	17.85	-38.6	-39.7	17.2	0.00e+00	0	39	0	4289724416	46	4352
2026-01-16 03:50:47.82	185.78	17.69	-38.4	-39.5	19.8	0.00e+00	0	39	0	4299161600	46	4260
2026-01-16 03:50:48.53	185.81	17.61	-38.4	-39.5	19.9	0.00e+00	0	39	0	4304404480	46	4262
2026-01-16 03:50:49.81	185.86	17.46	-38.5	-39.6	19.8	0.00e+00	0	39	0	4313841664	46	4295
2026-01-16 03:50:50.55	185.89	17.37	-38.6	-39.7	19.6	0.00e+00	0	39	0	4318035968	46	4362
2026-01-16 03:50:51.83	185.94	17.23	-38.5	-39.6	19.8	0.00e+00	0	39	0	4327473152	46	4294
2026-01-16 03:50:52.55	185.97	17.14	-38.4	-39.5	19.9	0.00e+00	0	39	0	4332716032	46	4243
2026-01-16 03:50:53.83	186.02	16.99	-38.4	-39.5	19.8	0.00e+00	0	39	0	4342153216	46	4286
2026-01-16 03:50:54.54	186.05	16.91	-38.5	-39.7	19.7	0.00e+00	0	39	0	4347396096	46	4342
2026-01-16 03:50:55.82	186.10	16.77	-38.4	-39.5	19.8	0.00e+00	0	39	0	4356833280	46	4288
2026-01-16 03:50:56.55	186.13	16.68	-38.4	-39.6	19.7	0.00e+00	0	39	0	4362076160	46	4292
2026-01-16 03:50:57.83	186.18	16.54	-38.4	-39.5	19.8	0.00e+00	0	39	0	4371513344	46	4268
2026-01-16 03:50:58.55	186.21	16.46	-38.4	-39.5	19.8	0.00e+00	0	39	0	4375707648	46	4273
2026-01-16 03:50:59.83	186.26	16.31	-38.5	-39.6	19.7	0.00e+00	0	39	0	4385144832	46	4313
2026-01-16 03:51:00.56	186.28	16.23	-38.5	-39.6	19.7	0.00e+00	0	39	0	4391436288	46	4318
2026-01-16 03:51:01.83	186.33	16.09	-38.5	-39.7	19.7	0.00e+00	0	39	0	4399824896	46	4344
2026-01-16 03:51:02.65	186.36	16.00	-38.6	-39.7	19.6	0.00e+00	0	39	0	4406116352	46	4387
2026-01-16 03:51:04.09	186.42	15.84	-38.6	-39.8	19.5	0.00e+00	0	39	0	4416602112	46	4397
2026-01-16 03:51:04.80	186.44	15.76	-38.7	-39.8	19.5	0.00e+00	0	39	0	4420796416	46	4424
2026-01-16 03:51:06.32	186.50	15.60	-38.8	-39.9	19.4	0.00e+00	0	39	0	4432330752	47	4227
2026-01-16 03:51:07.03	186.52	15.52	-38.8	-40.0	19.3	0.00e+00	0	39	0	4437573632	47	4246
2026-01-16 03:51:08.30	186.57	15.38	-38.9	-40.0	19.3	0.00e+00	0	39	0	4447010816	47	4282
2026-01-16 03:51:09.02	186.60	15.31	-38.9	-40.0	19.3	0.00e+00	0	39	0	4452253696	47	4261
2026-01-16 03:51:10.30	186.64	15.17	-38.9	-40.0	19.3	0.00e+00	0	39	0	4460642304	47	4280
2026-01-16 03:51:11.02	186.67	15.09	-38.9	-40.1	19.2	0.00e+00	0	39	0	4465885184	47	4305
2026-01-16 03:51:12.30	186.71	14.96	-39.0	-40.1	19.1	0.00e+00	0	39	0	4475322368	47	4338
2026-01-16 03:51:13.03	186.74	14.88	-39.0	-40.1	19.2	0.00e+00	0	39	0	4480565248	47	4331
2026-01-16 03:51:14.30	186.78	14.75	-39.1	-40.2	19.1	0.00e+00	0	39	0	4490002432	47	4372
2026-01-16 03:51:15.03	186.81	14.67	-39.1	-40.3	19.0	0.00e+00	0	39	0	4495245312	47	4402
2026-01-16 03:51:16.31	186.85	14.54	-39.2	-40.3	19.0	0.00e+00	0	39	0	4504682496	47	4421
2026-01-16 03:51:17.03	186.88	14.46	-39.4	-40.5	19.0	0.00e+00	0	39	0	4509925376	48	4271
2026-01-16 03:51:18.31	186.92	14.33	-39.4	-40.6	19.0	0.00e+00	0	39	0	4519362560	48	4310
2026-01-16 03:51:19.04	186.95	14.25	-39.4	-40.6	19.0	0.00e+00	0	39	0	4524605440	48	4300
2026-01-16 03:51:20.32	186.99	14.12	-39.5	-40.7	18.8	0.00e+00	0	39	0	4532994048	48	4373
2026-01-16 03:51:21.05	187.01	14.05	-39.6	-40.8	18.8	0.00e+00	0	39	0	4538236928	48	4399
2026-01-16 03:51:22.32	187.05	13.92	-39.7	-40.8	18.7	0.00e+00	0	39	0	4547674112	48	4429
2026-01-16 03:51:23.19	187.08	13.83	-39.7	-40.9	18.7	0.00e+00	0	39	0	4553965568	48	4465
2026-01-16 03:51:24.33	187.12	13.72	-39.7	-40.9	18.6	0.00e+00	0	39	0	4562354176	48	4476
2026-01-16 03:51:25.18	187.15	13.63	-39.8	-41.0	18.6	0.00e+00	0	39	0	4568645632	49	4246
2026-01-16 03:51:26.32	187.18	13.52	-39.7	-40.8	18.7	0.00e+00	0	39	0	4577034240	49	4185
2026-01-16 03:51:27.17	187.21	13.43	-39.7	-40.8	18.7	0.00e+00	0	39	0	4583325696	49	4189
2026-01-16 03:51:28.31	187.25	13.32	-39.8	-40.9	18.6	0.00e+00	0	39	0	4591714304	49	4238
2026-01-16 03:51:29.16	187.28	13.23	-39.8	-40.9	18.5	0.00e+00	0	39	0	4596957184	49	4239
2026-01-16 03:51:30.33	187.31	13.12	-39.9	-41.1	18.4	0.00e+00	0	39	0	4605345792	49	4314
2026-01-16 03:51:31.19	187.34	13.04	-39.9	-41.1	18.4	0.00e+00	0	39	0	4611637248	49	4316
2026-01-16 03:51:32.32	187.37	12.92	-40.0	-41.1	18.4	0.00e+00	0	39	0	4620025856	49	4340
2026-01-16 03:51:33.17	187.40	12.84	-39.9	-41.1	18.4	0.00e+00	0	39	0	4626317312	49	4317
2026-01-16 03:51:34.31	187.44	12.73	-39.9	-41.0	18.5	0.00e+00	0	39	0	4634705920	49	4278
2026-01-16 03:51:35.17	187.46	12.65	-39.9	-41.1	18.4	0.00e+00	0	39	0	4640997376	49	4307
2026-01-16 03:51:36.30	187.50	12.54	-40.0	-41.2	18.4	0.00e+00	0	39	0	4648337408	49	4342
2026-01-16 03:51:37.16	187.52	12.46	-40.0	-41.1	18.4	0.00e+00	0	39	0	4654628864	49	4338
2026-01-16 03:51:38.29	187.56	12.35	-40.0	-41.2	18.4	0.00e+00	0	39	0	4663017472	49	4343
2026-01-16 03:51:39.15	187.58	12.27	-40.0	-41.2	18.3	0.00e+00	0	39	0	4669308928	49	4369
2026-01-16 03:51:40.29	187.62	12.16	-40.1	-41.3	18.2	0.00e+00	0	39	0	4677697536	49	4418
2026-01-16 03:51:41.14	187.64	12.08	-40.0	-41.2	18.3	0.00e+00	0	39	0	4683988992	49	4357
2026-01-16 03:51:42.28	187.67	11.97	-40.1	-41.3	18.2	0.00e+00	0	39	0	4692377600	49	4436
2026-01-16 03:51:43.13	187.70	11.89	-40.1	-41.3	18.2	0.00e+00	0	39	0	4697620480	49	4428
