passes_logs/2026/01/16/T1/T1__20260116_002703_NOAA_21_JPSS-2_rec.log

#Pass ID: 20260116_002703_NOAA 21 (JPSS-2)
#Satellite: NOAA 21 (JPSS-2)
#Configuration: NOAA 21
#almurnet v.1.7.20251203
#Start time: 2026-01-16 00:27:05

#Version: 2.0.20230620
#Station: T1
#Location: 37.570604 lon 55.790049 lat
#TLE: 1 54234U 22150A   26015.43562254  .00000028  00000+0  34201-4 0  9996
#TLE: 2 54234  98.7498 316.3301 0000635 288.4972  71.6135 14.19534768164873

#Time	Az	El	Level	Level2	SNR	BER	BlckErr	Temp	State	Recorded	gain1	gain2
2026-01-16 00:27:05.95	11.56	5.15	-46.6	-62.2	3.8	1.49e+00	0	40	0	0	64	22055
2026-01-16 00:27:06.94	11.52	5.22	-46.6	-62.1	3.8	1.49e+00	0	41	104	0	64	21968
2026-01-16 00:27:07.93	11.49	5.29	-46.6	-62.1	3.8	1.49e+00	0	41	104	0	64	21914
2026-01-16 00:27:08.92	11.45	5.36	-46.6	-62.0	3.8	1.49e+00	0	41	104	0	64	21668
2026-01-16 00:27:09.92	11.41	5.43	-46.6	-62.0	3.8	1.49e+00	0	41	104	0	64	21554
2026-01-16 00:27:10.91	11.37	5.50	-46.6	-61.9	3.8	1.49e+00	0	41	104	0	64	21340
2026-01-16 00:27:11.90	11.34	5.57	-46.6	-61.9	3.8	1.49e+00	0	41	104	0	64	21282
2026-01-16 00:27:12.90	11.30	5.64	-46.6	-61.8	3.8	1.49e+00	0	41	104	0	64	21069
2026-01-16 00:27:13.89	11.26	5.71	-46.6	-61.7	3.8	1.49e+00	0	41	104	0	64	20837
2026-01-16 00:27:14.88	11.22	5.78	-46.6	-61.7	3.8	1.49e+00	0	41	104	0	64	20881
2026-01-16 00:27:15.87	11.19	5.85	-46.6	-61.6	3.8	1.49e+00	0	41	104	0	64	20653
2026-01-16 00:27:16.86	11.15	5.92	-46.6	-61.6	3.8	1.49e+00	0	41	104	0	64	20619
2026-01-16 00:27:17.85	11.11	5.99	-46.6	-61.5	3.8	1.49e+00	0	41	104	0	64	20437
2026-01-16 00:27:18.85	11.07	6.06	-46.6	-61.4	3.8	1.49e+00	0	41	104	0	64	20265
2026-01-16 00:27:19.84	11.03	6.13	-46.6	-61.3	3.8	1.49e+00	0	41	104	0	64	20034
2026-01-16 00:27:20.84	10.99	6.21	-46.6	-61.2	3.8	1.49e+00	0	41	104	0	64	19763
2026-01-16 00:27:21.83	10.95	6.28	-46.6	-61.1	3.8	1.49e+00	0	41	104	0	64	19425
2026-01-16 00:27:22.82	10.91	6.35	-46.6	-60.9	3.8	1.49e+00	0	41	104	0	64	19077
2026-01-16 00:27:23.82	10.87	6.42	-46.5	-60.7	3.8	1.49e+00	0	41	104	0	64	18691
2026-01-16 00:27:24.81	10.83	6.49	-46.5	-60.7	3.8	1.49e+00	0	41	104	0	64	18579
2026-01-16 00:27:25.80	10.79	6.57	-46.5	-60.7	3.8	1.49e+00	0	41	104	0	64	18594
2026-01-16 00:27:26.79	10.75	6.64	-46.5	-60.8	3.8	1.49e+00	0	41	104	0	64	18945
2026-01-16 00:27:27.79	10.71	6.71	-46.6	-61.1	3.8	1.49e+00	0	41	104	0	64	19462
2026-01-16 00:27:28.78	10.67	6.78	-46.6	-61.4	3.8	1.49e+00	0	41	104	0	64	20196
2026-01-16 00:27:29.77	10.63	6.86	-46.6	-61.8	3.8	1.49e+00	0	41	104	0	64	21049
2026-01-16 00:27:30.77	10.59	6.93	-46.6	-62.0	3.8	1.49e+00	0	41	104	0	64	21716
2026-01-16 00:27:31.76	10.54	7.00	-46.6	-62.1	3.8	1.49e+00	0	42	104	0	64	21961
2026-01-16 00:27:32.75	10.50	7.08	-46.6	-61.9	3.8	1.49e+00	0	42	104	0	64	21279
2026-01-16 00:27:33.75	10.46	7.15	-46.5	-61.3	3.8	1.49e+00	0	41	104	0	64	19851
2026-01-16 00:27:34.74	10.42	7.22	-46.5	-59.9	3.9	1.49e+00	0	41	104	0	64	16894
2026-01-16 00:27:35.73	10.38	7.30	-46.4	-58.5	4.2	1.47e+00	0	42	104	0	64	14476
2026-01-16 00:27:36.73	10.33	7.37	-46.2	-57.1	4.7	1.08e+00	0	42	104	0	64	12280
2026-01-16 00:27:37.72	10.29	7.45	-46.1	-55.9	5.4	5.66e-01	0	42	0	0	64	10657
2026-01-16 00:27:38.71	10.25	7.52	-46.0	-54.9	6.1	3.27e-01	0	41	0	0	63	10141
2026-01-16 00:27:39.71	10.20	7.60	-45.8	-53.8	7.1	1.54e-01	0	42	0	0	63	8929
2026-01-16 00:27:40.70	10.16	7.67	-45.6	-52.9	8.0	9.22e-02	0	42	0	0	63	8039
2026-01-16 00:27:41.69	10.12	7.75	-45.4	-52.0	8.8	3.80e-02	0	42	0	0	62	7719
2026-01-16 00:27:42.69	10.07	7.82	-45.1	-51.2	9.7	1.40e-02	0	42	0	0	62	7001
2026-01-16 00:27:43.68	10.03	7.90	-44.9	-50.5	10.5	4.71e-03	0	42	0	0	61	6813
2026-01-16 00:27:44.67	9.98	7.98	-44.6	-49.8	11.2	2.04e-03	0	42	0	0	61	6281
2026-01-16 00:27:45.67	9.94	8.05	-44.3	-49.1	11.8	5.88e-04	0	42	0	0	60	6200
2026-01-16 00:27:46.66	9.89	8.13	-44.1	-48.6	12.4	1.78e-04	0	42	0	0	60	5823
2026-01-16 00:27:47.65	9.85	8.21	-43.9	-48.1	12.9	5.18e-05	0	42	0	0	59	5819
2026-01-16 00:27:48.65	9.80	8.28	-43.7	-47.7	13.3	1.83e-05	0	42	0	0	59	5532
2026-01-16 00:27:49.64	9.75	8.36	-43.6	-47.5	13.5	9.90e-06	0	42	0	0	59	5404
2026-01-16 00:27:50.63	9.71	8.44	-43.5	-47.3	13.7	4.50e-06	0	42	0	0	59	5303
2026-01-16 00:27:51.63	9.66	8.52	-43.5	-47.3	13.7	3.80e-06	0	42	0	0	59	5303
2026-01-16 00:27:52.62	9.61	8.59	-43.7	-47.6	13.4	7.60e-06	0	42	0	0	59	5511
2026-01-16 00:27:53.62	9.57	8.67	-43.9	-48.0	13.0	3.89e-05	0	42	0	0	59	5758
2026-01-16 00:27:54.61	9.52	8.75	-44.3	-48.8	12.2	1.15e-04	0	42	0	0	59	6284
2026-01-16 00:27:55.60	9.47	8.83	-44.6	-49.6	11.3	6.87e-04	0	42	0	0	59	6933
2026-01-16 00:27:56.60	9.42	8.91	-45.0	-50.9	10.1	4.53e-03	0	42	0	0	60	7553
2026-01-16 00:27:57.59	9.37	8.99	-45.5	-52.5	8.4	3.36e-02	0	42	0	0	61	8572
2026-01-16 00:27:58.59	9.33	9.07	-45.9	-54.4	6.6	1.27e-01	0	42	0	0	62	10095
2026-01-16 00:27:59.58	9.28	9.15	-46.2	-56.7	5.0	5.13e-01	0	42	0	0	63	12377
2026-01-16 00:28:00.58	9.23	9.23	-45.6	-52.4	8.3	5.83e-01	0	42	0	0	63	7587
2026-01-16 00:28:01.57	9.18	9.30	-43.3	-46.7	14.3	3.81e-04	0	42	0	0	58	5235
2026-01-16 00:28:02.57	9.13	9.39	-45.5	-51.7	9.5	2.72e-04	0	42	0	0	61	7869
2026-01-16 00:28:03.56	9.08	9.47	-45.2	-50.7	10.0	7.84e-01	0	42	104	0	62	6586
2026-01-16 00:28:04.56	9.03	9.55	-42.8	-45.9	15.2	0.00e+00	0	42	0	0	57	5049
2026-01-16 00:28:05.55	8.98	9.63	-42.7	-45.6	15.4	0.00e+00	0	42	0	0	57	4911
2026-01-16 00:28:06.54	8.93	9.71	-42.6	-45.5	15.6	0.00e+00	0	42	0	0	56	5130
2026-01-16 00:28:07.54	8.87	9.79	-42.5	-45.3	15.8	0.00e+00	0	42	0	0	56	4990
2026-01-16 00:28:08.54	8.82	9.87	-42.3	-45.1	16.0	0.00e+00	0	42	0	0	56	4875
2026-01-16 00:28:09.53	8.77	9.95	-42.1	-44.8	16.3	0.00e+00	0	42	0	0	56	4726
2026-01-16 00:28:10.52	8.72	10.04	-42.1	-44.7	16.4	0.00e+00	0	42	0	0	56	4685
2026-01-16 00:28:11.52	8.67	10.12	-42.0	-44.6	16.5	0.00e+00	0	42	0	0	56	4632
2026-01-16 00:28:12.51	8.61	10.20	-41.7	-44.2	16.7	0.00e+00	0	42	0	0	55	4684
2026-01-16 00:28:13.51	8.56	10.28	-41.7	-44.2	16.7	0.00e+00	0	42	0	0	55	4687
2026-01-16 00:28:14.51	8.51	10.37	-41.7	-44.2	16.7	0.00e+00	0	42	0	0	55	4697
2026-01-16 00:28:15.50	8.45	10.45	-41.7	-44.2	16.8	0.00e+00	0	42	0	0	55	4652
2026-01-16 00:28:16.49	8.40	10.53	-41.5	-44.0	16.9	0.00e+00	0	42	0	0	55	4593
2026-01-16 00:28:17.49	8.34	10.62	-41.5	-44.1	16.9	0.00e+00	0	42	0	0	55	4599
2026-01-16 00:28:18.48	8.29	10.70	-41.6	-44.1	16.8	0.00e+00	0	42	0	0	55	4635
2026-01-16 00:28:19.48	8.23	10.79	-41.6	-44.1	16.8	0.00e+00	0	42	0	0	55	4636
2026-01-16 00:28:20.47	8.18	10.87	-41.5	-44.0	16.9	0.00e+00	0	42	0	0	55	4592
2026-01-16 00:28:21.47	8.12	10.96	-41.4	-43.8	17.1	0.00e+00	0	42	0	0	54	4751
2026-01-16 00:28:22.46	8.06	11.04	-41.4	-43.8	17.1	0.00e+00	0	42	0	0	54	4742
2026-01-16 00:28:23.46	8.01	11.13	-41.4	-43.8	17.2	0.00e+00	0	42	0	0	54	4707
2026-01-16 00:28:24.45	7.95	11.21	-41.4	-43.8	17.1	0.00e+00	0	42	0	0	54	4725
2026-01-16 00:28:25.45	7.89	11.30	-41.3	-43.7	17.2	0.00e+00	0	42	0	0	54	4693
2026-01-16 00:28:26.44	7.84	11.39	-41.4	-43.8	17.1	0.00e+00	0	43	0	0	54	4725
2026-01-16 00:28:27.44	7.78	11.47	-41.3	-43.7	17.2	0.00e+00	0	42	0	0	54	4680
2026-01-16 00:28:28.43	7.72	11.56	-41.2	-43.6	17.3	0.00e+00	0	42	0	0	54	4649
2026-01-16 00:28:29.42	7.66	11.65	-41.2	-43.5	17.4	0.00e+00	0	42	0	0	54	4593
2026-01-16 00:28:30.42	7.60	11.73	-41.2	-43.5	17.4	0.00e+00	0	42	0	0	54	4556
2026-01-16 00:28:31.54	7.53	11.83	-41.1	-43.5	17.5	0.00e+00	0	42	0	0	54	4570
2026-01-16 00:28:32.40	7.48	11.91	-41.2	-43.5	17.4	0.00e+00	0	42	0	0	54	4596
2026-01-16 00:28:33.54	7.41	12.01	-41.2	-43.5	17.4	0.00e+00	0	42	0	0	54	4573
2026-01-16 00:28:34.39	7.36	12.09	-41.2	-43.6	17.3	0.00e+00	0	42	0	0	54	4608
2026-01-16 00:28:35.53	7.29	12.19	-41.1	-43.4	17.5	0.00e+00	0	42	0	0	54	4540
2026-01-16 00:28:36.38	7.24	12.26	-41.0	-43.4	17.6	0.00e+00	0	42	0	0	54	4498
2026-01-16 00:28:37.52	7.17	12.37	-41.0	-43.4	17.6	0.00e+00	0	42	0	0	53	4761
2026-01-16 00:28:38.37	7.11	12.44	-41.0	-43.3	17.5	0.00e+00	0	42	0	0	53	4756
2026-01-16 00:28:39.51	7.04	12.55	-40.9	-43.2	17.7	0.00e+00	0	42	0	0	53	4702
2026-01-16 00:28:40.37	6.99	12.62	-40.9	-43.2	17.7	0.00e+00	0	42	0	0	53	4697
2026-01-16 00:28:41.50	6.92	12.73	-40.9	-43.3	17.7	0.00e+00	0	43	0	0	53	4708
2026-01-16 00:28:42.35	6.86	12.81	-41.0	-43.3	17.6	0.00e+00	0	42	0	0	53	4741
2026-01-16 00:28:43.49	6.79	12.91	-40.9	-43.3	17.6	0.00e+00	0	42	0	0	53	4726
2026-01-16 00:28:44.35	6.73	12.99	-40.9	-43.2	17.7	0.00e+00	0	42	0	0	53	4699
2026-01-16 00:28:45.48	6.66	13.09	-40.9	-43.2	17.7	0.00e+00	0	43	0	0	53	4705
2026-01-16 00:28:46.34	6.60	13.17	-40.9	-43.2	17.7	0.00e+00	0	43	0	0	53	4687
2026-01-16 00:28:47.47	6.53	13.28	-41.0	-43.3	17.7	0.00e+00	0	42	0	0	53	4714
2026-01-16 00:28:48.32	6.47	13.36	-41.0	-43.3	17.6	0.00e+00	0	42	0	0	53	4734
2026-01-16 00:28:49.46	6.39	13.46	-41.0	-43.3	17.6	0.00e+00	0	42	0	0	53	4749
2026-01-16 00:28:50.31	6.33	13.54	-41.1	-43.4	17.6	0.00e+00	0	43	0	0	53	4779
2026-01-16 00:28:51.45	6.26	13.65	-41.0	-43.2	17.7	0.00e+00	0	43	0	0	53	4692
2026-01-16 00:28:52.30	6.20	13.73	-41.0	-43.3	17.7	0.00e+00	0	43	0	0	53	4735
2026-01-16 00:28:53.44	6.12	13.84	-41.1	-43.3	17.6	0.00e+00	0	43	0	0	53	4756
2026-01-16 00:28:54.30	6.06	13.92	-41.0	-43.3	17.7	0.00e+00	0	43	0	0	53	4713
2026-01-16 00:28:55.43	5.98	14.03	-41.0	-43.2	17.7	0.00e+00	0	43	0	0	53	4696
2026-01-16 00:28:56.29	5.92	14.11	-41.0	-43.2	17.7	0.00e+00	0	43	0	0	53	4700
2026-01-16 00:28:57.42	5.84	14.22	-40.9	-43.2	17.8	0.00e+00	0	43	0	0	53	4691
2026-01-16 00:28:58.28	5.78	14.30	-41.1	-43.4	17.6	0.00e+00	0	43	0	0	53	4775
2026-01-16 00:28:59.49	5.69	14.42	-40.9	-43.2	17.7	0.00e+00	0	43	0	0	53	4705
2026-01-16 00:29:00.34	5.63	14.50	-40.9	-43.2	17.8	0.00e+00	0	43	0	0	53	4673
2026-01-16 00:29:01.48	5.55	14.62	-41.0	-43.3	17.7	0.00e+00	0	43	0	0	53	4729
2026-01-16 00:29:02.33	5.48	14.70	-40.9	-43.2	17.8	0.00e+00	0	43	0	0	53	4680
2026-01-16 00:29:03.61	5.39	14.82	-40.8	-43.1	17.9	0.00e+00	0	43	0	0	53	4632
2026-01-16 00:29:04.34	5.33	14.90	-40.8	-43.1	17.9	0.00e+00	0	43	0	0	53	4613
2026-01-16 00:29:05.62	5.24	15.02	-40.9	-43.2	17.8	0.00e+00	0	43	0	0	53	4677
2026-01-16 00:29:06.33	5.18	15.09	-41.0	-43.3	17.7	0.00e+00	0	43	0	0	53	4754
2026-01-16 00:29:07.61	5.09	15.22	-41.0	-43.3	17.7	0.00e+00	0	43	0	0	53	4723
2026-01-16 00:29:08.32	5.03	15.29	-41.1	-43.4	17.6	0.00e+00	0	43	0	0	53	4798
2026-01-16 00:29:09.60	4.93	15.42	-41.1	-43.3	17.6	0.00e+00	0	42	0	0	53	4759
2026-01-16 00:29:10.31	4.88	15.49	-41.0	-43.2	17.8	0.00e+00	0	43	0	0	53	4686
2026-01-16 00:29:11.59	4.78	15.62	-41.0	-43.2	17.7	0.00e+00	0	43	0	0	53	4695
2026-01-16 00:29:12.48	4.71	15.71	-41.1	-43.3	17.6	0.00e+00	0	43	0	0	53	4753
2026-01-16 00:29:13.61	4.62	15.83	-41.0	-43.3	17.7	0.00e+00	0	42	0	0	53	4731
2026-01-16 00:29:14.47	4.55	15.92	-41.1	-43.4	17.6	0.00e+00	0	43	0	0	53	4803
2026-01-16 00:29:15.60	4.46	16.03	-41.1	-43.4	17.6	0.00e+00	0	43	0	0	53	4776
2026-01-16 00:29:16.46	4.39	16.12	-41.2	-43.4	17.6	0.00e+00	0	43	0	0	53	4792
2026-01-16 00:29:17.59	4.29	16.24	-41.2	-43.4	17.6	0.00e+00	0	43	0	0	53	4788
2026-01-16 00:29:18.45	4.22	16.33	-41.2	-43.4	17.6	0.00e+00	0	42	0	0	53	4791
2026-01-16 00:29:19.58	4.13	16.44	-41.3	-43.4	17.6	0.00e+00	0	43	0	0	53	4808
2026-01-16 00:29:20.82	4.03	16.57	-41.3	-43.5	17.6	0.00e+00	0	43	0	0	53	4834
2026-01-16 00:29:21.67	3.95	16.66	-41.3	-43.5	17.5	0.00e+00	0	43	0	0	53	4856
2026-01-16 00:29:22.81	3.86	16.78	-41.4	-43.6	17.5	0.00e+00	0	43	0	0	53	4897
2026-01-16 00:29:23.66	3.78	16.87	-41.4	-43.5	17.6	0.00e+00	0	43	0	0	53	4845
2026-01-16 00:29:24.80	3.69	16.99	-41.5	-43.6	17.5	0.00e+00	0	43	0	0	53	4922
2026-01-16 00:29:25.65	3.61	17.08	-41.5	-43.6	17.5	0.00e+00	0	43	0	0	53	4887
2026-01-16 00:29:26.79	3.51	17.21	-41.5	-43.7	17.4	0.00e+00	0	43	0	0	53	4938
2026-01-16 00:29:27.64	3.44	17.30	-41.6	-43.8	17.4	0.00e+00	0	43	0	0	53	4985
2026-01-16 00:29:28.77	3.34	17.42	-41.5	-43.6	17.5	0.00e+00	0	43	0	0	53	4909
2026-01-16 00:29:29.63	3.26	17.51	-41.5	-43.6	17.5	0.00e+00	0	43	0	0	53	4887
2026-01-16 00:29:30.88	3.15	17.65	-41.6	-43.6	17.5	0.00e+00	0	43	0	0	53	4907
2026-01-16 00:29:31.73	3.07	17.74	-41.5	-43.6	17.5	0.00e+00	0	43	0	0	53	4909
2026-01-16 00:29:32.91	2.96	17.87	-41.6	-43.6	17.5	0.00e+00	0	43	0	0	53	4913
2026-01-16 00:29:33.76	2.88	17.96	-41.5	-43.6	17.5	0.00e+00	0	43	0	0	53	4876
2026-01-16 00:29:34.90	2.78	18.09	-41.6	-43.7	17.4	0.00e+00	0	43	0	0	53	4945
2026-01-16 00:29:35.75	2.70	18.18	-41.5	-43.6	17.5	0.00e+00	0	43	0	0	53	4892
2026-01-16 00:29:36.89	2.59	18.31	-41.6	-43.6	17.5	0.00e+00	0	43	0	0	53	4896
2026-01-16 00:29:37.74	2.51	18.40	-41.5	-43.5	17.6	0.00e+00	0	43	0	0	53	4836
2026-01-16 00:29:39.10	2.38	18.56	-41.6	-43.6	17.5	0.00e+00	0	43	0	0	53	4926
2026-01-16 00:29:39.81	2.31	18.64	-41.6	-43.6	17.5	0.00e+00	0	43	0	0	53	4924
2026-01-16 00:29:41.31	2.16	18.81	-41.5	-43.6	17.5	0.00e+00	0	43	0	0	53	4889
2026-01-16 00:29:42.03	2.09	18.89	-41.5	-43.5	17.6	0.00e+00	0	43	0	0	53	4841
2026-01-16 00:29:43.31	1.97	19.03	-41.5	-43.5	17.6	0.00e+00	0	43	0	0	53	4865
2026-01-16 00:29:44.06	1.89	19.12	-41.5	-43.5	17.6	0.00e+00	0	43	0	0	53	4829
2026-01-16 00:29:45.44	1.75	19.28	-41.5	-43.5	17.6	0.00e+00	0	43	0	0	53	4827
2026-01-16 00:29:46.15	1.68	19.36	-41.3	-43.3	17.8	0.00e+00	0	43	0	0	53	4755
2026-01-16 00:29:47.49	1.54	19.51	-41.4	-43.4	17.7	0.00e+00	0	43	0	0	53	4793
2026-01-16 00:29:48.20	1.47	19.60	-41.4	-43.4	17.7	0.00e+00	0	43	0	0	53	4796
2026-01-16 00:29:49.48	1.34	19.75	-41.3	-43.3	17.8	0.00e+00	0	43	0	0	53	4743
2026-01-16 00:29:50.19	1.26	19.83	-41.1	-43.1	18.0	0.00e+00	0	43	0	0	53	4625
2026-01-16 00:29:51.58	1.12	19.99	-41.0	-43.0	18.1	0.00e+00	0	43	0	0	53	4560
2026-01-16 00:29:52.29	1.04	20.08	-41.0	-42.9	18.2	0.00e+00	0	43	0	0	53	4535
2026-01-16 00:29:53.66	0.89	20.24	-40.9	-42.8	18.3	0.00e+00	0	43	0	0	53	4466
2026-01-16 00:29:54.37	0.82	20.32	-40.8	-42.7	18.3	0.00e+00	0	43	0	0	53	4441
2026-01-16 00:29:55.74	0.67	20.49	-40.7	-42.6	18.4	0.00e+00	0	43	0	0	53	4374
2026-01-16 00:29:56.45	0.59	20.57	-40.7	-42.6	18.4	0.00e+00	0	43	0	0	53	4381
2026-01-16 00:29:57.77	0.44	20.73	-40.6	-42.4	18.6	0.00e+00	0	43	0	0	53	4285
2026-01-16 00:29:58.49	0.36	20.82	-40.6	-42.4	18.6	0.00e+00	0	43	0	0	53	4283
2026-01-16 00:29:59.77	0.22	20.97	-40.6	-42.4	18.6	0.00e+00	0	43	0	0	53	4290
2026-01-16 00:30:00.49	0.13	21.06	-40.6	-42.5	18.5	0.00e+00	0	43	0	0	53	4304
2026-01-16 00:30:01.77	359.99	21.21	-40.5	-42.3	18.7	0.00e+00	0	43	0	0	52	4477
2026-01-16 00:30:02.48	359.91	21.30	-40.5	-42.4	18.7	0.00e+00	0	43	0	0	52	4496
2026-01-16 00:30:03.76	359.76	21.46	-40.4	-42.3	18.7	0.00e+00	0	43	0	0	52	4473
2026-01-16 00:30:04.47	359.67	21.55	-40.5	-42.3	18.7	0.00e+00	0	43	0	0	52	4480
2026-01-16 00:30:05.74	359.52	21.70	-40.4	-42.3	18.8	0.00e+00	0	43	0	0	52	4450
2026-01-16 00:30:06.47	359.43	21.80	-40.4	-42.3	18.7	0.00e+00	0	43	0	0	52	4477
2026-01-16 00:30:07.75	359.28	21.96	-40.4	-42.3	18.7	0.00e+00	0	43	0	0	52	4479
2026-01-16 00:30:08.46	359.19	22.04	-40.5	-42.4	18.7	0.00e+00	0	43	0	0	52	4497
2026-01-16 00:30:09.74	359.04	22.21	-40.3	-42.2	18.8	0.00e+00	0	43	0	0	52	4428
2026-01-16 00:30:10.46	358.95	22.30	-40.3	-42.2	18.8	0.00e+00	0	42	0	0	52	4424
2026-01-16 00:30:11.74	358.79	22.46	-40.2	-42.1	19.0	0.00e+00	0	43	0	0	52	4373
2026-01-16 00:30:12.45	358.70	22.55	-40.1	-42.0	19.1	0.00e+00	0	43	0	0	52	4309
2026-01-16 00:30:13.73	358.54	22.71	-40.2	-42.0	19.0	0.00e+00	0	43	0	0	52	4330
2026-01-16 00:30:14.44	358.45	22.80	-40.1	-42.0	19.1	0.00e+00	0	43	0	0	52	4305
2026-01-16 00:30:15.72	358.28	22.97	-40.2	-42.0	19.1	0.00e+00	0	43	0	0	52	4329
2026-01-16 00:30:16.43	358.19	23.06	-40.1	-41.9	19.1	0.00e+00	0	43	0	0	52	4288
2026-01-16 00:30:17.86	358.00	23.25	-40.2	-42.1	19.0	0.00e+00	0	43	0	0	52	4355
2026-01-16 00:30:18.57	357.91	23.34	-40.3	-42.2	18.9	0.00e+00	0	43	0	0	52	4405
2026-01-16 00:30:19.85	357.74	23.51	-40.2	-42.0	19.0	0.00e+00	0	43	0	0	52	4335
2026-01-16 00:30:20.58	357.64	23.60	-40.2	-42.0	19.0	0.00e+00	0	43	0	0	52	4338
2026-01-16 00:30:21.86	357.46	23.77	-40.1	-42.0	19.1	0.00e+00	0	43	0	0	52	4295
2026-01-16 00:30:22.57	357.37	23.86	-40.1	-41.9	19.2	0.00e+00	0	43	0	0	52	4268
2026-01-16 00:30:23.85	357.19	24.03	-40.0	-41.9	19.2	0.00e+00	0	43	0	0	52	4252
2026-01-16 00:30:24.57	357.09	24.13	-40.0	-41.9	19.2	0.00e+00	0	43	0	0	52	4272
2026-01-16 00:30:25.85	356.91	24.30	-40.1	-42.0	19.1	0.00e+00	0	43	0	0	52	4302
2026-01-16 00:30:26.56	356.81	24.40	-40.1	-42.0	19.1	0.00e+00	0	43	0	0	52	4327
2026-01-16 00:30:27.84	356.63	24.57	-40.1	-42.1	19.0	0.00e+00	0	43	0	0	52	4374
2026-01-16 00:30:28.55	356.52	24.66	-40.2	-42.2	18.9	0.00e+00	0	43	0	0	52	4408
2026-01-16 00:30:29.83	356.34	24.84	-40.2	-42.3	18.9	0.00e+00	0	43	0	0	52	4468
2026-01-16 00:30:30.54	356.23	24.94	-40.3	-42.4	18.8	0.00e+00	0	43	0	0	52	4510
2026-01-16 00:30:31.82	356.04	25.11	-40.3	-42.4	18.8	0.00e+00	0	43	0	0	52	4540
2026-01-16 00:30:32.53	355.94	25.21	-40.3	-42.4	18.8	0.00e+00	0	43	0	0	52	4538
2026-01-16 00:30:33.81	355.75	25.38	-40.4	-42.5	18.7	0.00e+00	0	43	0	0	52	4590
2026-01-16 00:30:34.52	355.64	25.48	-40.3	-42.5	18.8	0.00e+00	0	43	0	0	52	4550
2026-01-16 00:30:35.80	355.44	25.66	-40.4	-42.4	18.8	0.00e+00	0	43	0	0	52	4528
2026-01-16 00:30:36.51	355.33	25.76	-40.4	-42.5	18.7	0.00e+00	0	43	0	0	52	4546
2026-01-16 00:30:37.79	355.13	25.94	-40.5	-42.5	18.7	0.00e+00	0	43	0	0	52	4598
2026-01-16 00:30:38.50	355.02	26.04	-40.5	-42.5	18.7	0.00e+00	0	43	0	0	52	4598
2026-01-16 00:30:39.78	354.81	26.22	-40.6	-42.6	18.6	0.00e+00	0	43	0	0	52	4620
2026-01-16 00:30:40.51	354.70	26.32	-40.7	-42.6	18.5	0.00e+00	0	43	0	0	52	4645
2026-01-16 00:30:41.78	354.49	26.50	-40.8	-42.7	18.5	0.00e+00	0	43	0	0	52	4683
2026-01-16 00:30:42.50	354.37	26.60	-40.8	-42.7	18.5	0.00e+00	0	43	0	0	52	4697
2026-01-16 00:30:43.77	354.16	26.78	-40.9	-42.8	18.4	0.00e+00	0	43	0	0	52	4733
2026-01-16 00:30:44.50	354.04	26.89	-41.0	-42.9	18.3	0.00e+00	0	43	0	0	52	4796
2026-01-16 00:30:45.78	353.83	27.07	-41.0	-43.0	18.2	0.00e+00	0	43	0	0	52	4829
2026-01-16 00:30:46.49	353.71	27.17	-41.0	-43.0	18.2	0.00e+00	0	43	0	0	52	4868
2026-01-16 00:30:47.77	353.49	27.36	-41.1	-43.1	18.0	0.00e+00	0	43	0	0	52	4926
2026-01-16 00:30:48.48	353.37	27.46	-41.2	-43.2	18.0	0.00e+00	0	43	0	0	53	4687
2026-01-16 00:30:49.76	353.14	27.65	-41.3	-43.3	18.0	0.00e+00	0	43	0	0	53	4707
2026-01-16 00:30:50.47	353.02	27.75	-41.1	-43.0	18.2	0.00e+00	0	43	0	0	53	4586
2026-01-16 00:30:51.76	352.79	27.94	-41.2	-43.2	18.1	0.00e+00	0	43	0	0	53	4656
2026-01-16 00:30:52.47	352.66	28.04	-41.3	-43.2	18.0	0.00e+00	0	43	0	0	53	4688
2026-01-16 00:30:53.81	352.42	28.24	-41.3	-43.3	18.0	0.00e+00	0	43	0	0	53	4708
2026-01-16 00:30:54.53	352.29	28.35	-41.2	-43.1	18.1	0.00e+00	0	43	0	0	53	4651
2026-01-16 00:30:55.81	352.05	28.54	-41.2	-43.1	18.1	0.00e+00	0	43	0	0	53	4625
2026-01-16 00:30:56.52	351.92	28.64	-41.3	-43.2	18.0	0.00e+00	0	43	0	0	53	4683
2026-01-16 00:30:57.80	351.68	28.83	-41.3	-43.3	17.9	0.00e+00	0	43	0	0	53	4727
2026-01-16 00:30:58.54	351.54	28.94	-41.2	-43.1	18.1	0.00e+00	0	43	0	0	53	4647
2026-01-16 00:30:59.82	351.29	29.14	-41.4	-43.4	17.9	0.00e+00	0	43	0	0	53	4779
2026-01-16 00:31:00.53	351.16	29.24	-41.4	-43.3	17.9	0.00e+00	0	43	0	0	53	4750
2026-01-16 00:31:01.81	350.91	29.44	-41.3	-43.2	18.1	0.00e+00	0	43	0	0	53	4686
2026-01-16 00:31:02.55	350.76	29.55	-41.2	-43.2	18.1	0.00e+00	0	43	0	0	53	4663
2026-01-16 00:31:03.83	350.51	29.74	-41.1	-43.1	18.2	0.00e+00	0	43	0	0	53	4613
2026-01-16 00:31:04.55	350.36	29.85	-41.1	-43.0	18.3	0.00e+00	0	43	0	0	53	4560
2026-01-16 00:31:05.83	350.10	30.05	-41.1	-43.0	18.3	0.00e+00	0	43	0	0	53	4558
2026-01-16 00:31:06.54	349.96	30.16	-41.0	-42.9	18.3	0.00e+00	0	43	0	0	53	4496
2026-01-16 00:31:07.82	349.69	30.35	-41.1	-43.0	18.1	0.00e+00	0	43	0	0	53	4571
2026-01-16 00:31:08.53	349.54	30.46	-41.1	-43.0	18.1	0.00e+00	0	43	0	0	53	4583
2026-01-16 00:31:09.81	349.27	30.66	-41.1	-43.0	18.0	0.00e+00	0	43	0	0	53	4592
2026-01-16 00:31:10.52	349.12	30.77	-41.2	-43.2	18.0	0.00e+00	0	43	0	0	53	4666
2026-01-16 00:31:11.80	348.85	30.97	-41.4	-43.4	17.8	0.00e+00	0	43	0	0	53	4799
2026-01-16 00:31:12.53	348.69	31.08	-41.4	-43.3	17.9	0.00e+00	0	43	0	0	53	4749
2026-01-16 00:31:13.81	348.41	31.28	-41.5	-43.4	17.9	0.00e+00	0	43	0	0	53	4801
2026-01-16 00:31:14.52	348.25	31.39	-41.5	-43.5	17.8	0.00e+00	0	43	0	0	53	4841
2026-01-16 00:31:15.80	347.96	31.59	-41.4	-43.4	17.9	0.00e+00	0	43	0	0	53	4783
2026-01-16 00:31:16.53	347.80	31.71	-41.3	-43.3	18.0	0.00e+00	0	43	0	0	53	4731
2026-01-16 00:31:17.81	347.51	31.91	-41.3	-43.3	17.9	0.00e+00	0	43	0	0	53	4735
2026-01-16 00:31:18.52	347.34	32.02	-41.3	-43.4	17.9	0.00e+00	0	43	0	0	53	4769
2026-01-16 00:31:19.80	347.05	32.22	-41.3	-43.4	17.8	0.00e+00	0	43	0	0	53	4794
2026-01-16 00:31:20.52	346.88	32.33	-41.3	-43.4	17.8	0.00e+00	0	43	0	0	53	4787
2026-01-16 00:31:21.80	346.57	32.54	-41.5	-43.6	17.7	0.00e+00	0	43	0	0	53	4891
2026-01-16 00:31:22.53	346.40	32.65	-41.5	-43.6	17.7	0.00e+00	0	43	0	0	53	4912
2026-01-16 00:31:23.81	346.09	32.86	-41.5	-43.5	17.8	0.00e+00	0	43	0	0	53	4851
2026-01-16 00:31:24.62	345.89	32.98	-41.5	-43.6	17.8	0.00e+00	0	43	0	0	53	4876
2026-01-16 00:31:25.75	345.61	33.16	-41.5	-43.5	17.8	0.00e+00	0	43	0	0	53	4822
2026-01-16 00:31:26.60	345.40	33.30	-41.5	-43.5	17.8	0.00e+00	0	43	0	0	53	4823
2026-01-16 00:31:27.74	345.11	33.48	-41.5	-43.5	17.8	0.00e+00	0	43	0	0	53	4858
2026-01-16 00:31:28.86	344.83	33.66	-41.6	-43.6	17.7	0.00e+00	0	43	0	0	53	4922
2026-01-16 00:31:29.72	344.61	33.80	-41.6	-43.6	17.7	0.00e+00	0	43	0	0	53	4883
2026-01-16 00:31:30.85	344.31	33.98	-41.7	-43.8	17.6	0.00e+00	0	43	0	0	54	4721
2026-01-16 00:31:31.71	344.09	34.12	-41.8	-43.8	17.5	0.00e+00	0	43	0	0	54	4747
2026-01-16 00:31:32.84	343.79	34.30	-41.9	-44.0	17.4	0.00e+00	0	43	0	0	54	4847
2026-01-16 00:31:33.70	343.56	34.44	-42.0	-44.1	17.3	0.00e+00	0	43	0	0	54	4898
2026-01-16 00:31:34.83	343.25	34.62	-42.0	-44.2	17.1	0.00e+00	0	43	0	0	54	4971
2026-01-16 00:31:35.69	343.02	34.76	-42.1	-44.3	17.0	0.00e+00	0	43	0	0	54	5017
2026-01-16 00:31:36.91	342.68	34.95	-41.9	-44.1	17.2	0.00e+00	0	43	0	0	54	4898
2026-01-16 00:31:37.76	342.45	35.09	-42.1	-44.4	17.0	0.00e+00	0	43	0	0	54	5049
2026-01-16 00:31:38.98	342.10	35.29	-42.1	-44.4	16.9	0.00e+00	0	43	0	0	54	5072
2026-01-16 00:31:39.83	341.86	35.42	-42.3	-44.6	16.8	0.00e+00	0	43	0	0	55	4889
2026-01-16 00:31:40.97	341.53	35.61	-42.5	-44.8	16.5	0.00e+00	0	43	0	0	55	5023
2026-01-16 00:31:41.82	341.29	35.74	-42.8	-45.1	16.4	0.00e+00	0	43	0	0	56	4916
2026-01-16 00:31:43.08	340.92	35.95	-42.9	-45.2	16.4	0.00e+00	0	43	0	0	56	4951
2026-01-16 00:31:43.87	340.68	36.08	-43.0	-45.2	16.4	0.00e+00	0	43	0	0	56	4968
2026-01-16 00:31:45.23	340.28	36.29	-42.9	-45.1	16.5	0.00e+00	0	43	0	0	56	4924
2026-01-16 00:31:45.94	340.06	36.41	-42.8	-45.0	16.6	0.00e+00	0	43	0	0	56	4856
2026-01-16 00:31:47.22	339.67	36.61	-42.7	-44.9	16.7	0.00e+00	0	43	0	0	56	4808
2026-01-16 00:31:47.93	339.45	36.73	-42.7	-45.0	16.5	0.00e+00	0	43	0	0	56	4859
2026-01-16 00:31:49.20	339.06	36.93	-42.7	-45.0	16.6	0.00e+00	0	43	0	0	56	4839
2026-01-16 00:31:49.92	338.83	37.05	-42.7	-45.0	16.6	0.00e+00	0	43	0	0	56	4816
2026-01-16 00:31:51.20	338.42	37.25	-42.8	-45.0	16.5	0.00e+00	0	43	0	0	56	4864
2026-01-16 00:31:51.91	338.19	37.36	-42.7	-44.8	16.7	0.00e+00	0	43	0	0	56	4753
2026-01-16 00:31:53.19	337.78	37.57	-42.6	-44.8	16.7	0.00e+00	0	43	0	0	56	4714
2026-01-16 00:31:54.02	337.51	37.70	-42.5	-44.7	16.8	0.00e+00	0	43	0	0	56	4669
2026-01-16 00:31:55.16	337.13	37.88	-42.5	-44.7	16.8	0.00e+00	0	43	0	0	56	4701
2026-01-16 00:31:56.01	336.85	38.02	-42.5	-44.7	16.8	0.00e+00	0	43	0	0	56	4688
2026-01-16 00:31:57.15	336.46	38.20	-42.6	-44.7	16.8	0.00e+00	0	43	0	0	56	4697
2026-01-16 00:31:58.00	336.17	38.33	-42.5	-44.7	16.9	0.00e+00	0	43	0	0	56	4658
2026-01-16 00:31:59.14	335.78	38.51	-42.6	-44.7	16.9	0.00e+00	0	43	0	0	56	4669
2026-01-16 00:31:59.99	335.49	38.64	-42.7	-44.9	16.7	0.00e+00	0	43	0	0	56	4760
2026-01-16 00:32:01.13	335.09	38.82	-42.8	-45.1	16.5	0.00e+00	0	43	0	0	56	4874
2026-01-16 00:32:01.98	334.79	38.95	-42.9	-45.1	16.5	0.00e+00	0	43	0	0	56	4913
2026-01-16 00:32:03.15	334.37	39.14	-42.8	-45.0	16.5	0.00e+00	0	43	0	0	56	4858
2026-01-16 00:32:04.00	334.06	39.27	-42.9	-45.1	16.4	0.00e+00	0	43	0	0	56	4905
2026-01-16 00:32:05.14	333.64	39.44	-42.9	-45.1	16.4	0.00e+00	0	43	0	0	56	4916
2026-01-16 00:32:05.99	333.33	39.57	-42.8	-45.0	16.6	0.00e+00	0	43	0	0	56	4860
2026-01-16 00:32:07.13	332.91	39.75	-42.8	-45.0	16.6	0.00e+00	0	43	0	0	56	4856
2026-01-16 00:32:08.03	332.57	39.88	-42.7	-45.0	16.5	0.00e+00	0	43	0	0	56	4864
2026-01-16 00:32:09.10	332.17	40.05	-42.8	-45.2	16.4	0.00e+00	0	43	0	0	56	4944
2026-01-16 00:32:09.95	331.84	40.17	-42.9	-45.4	16.2	0.00e+00	0	43	0	0	56	5044
2026-01-16 00:32:11.09	331.40	40.34	-43.0	-45.5	16.1	0.00e+00	0	43	0	0	56	5145
2026-01-16 00:32:11.95	331.07	40.47	-43.1	-45.6	16.0	0.00e+00	0	43	0	0	56	5192
2026-01-16 00:32:13.08	330.62	40.64	-43.3	-45.8	15.8	0.00e+00	0	43	0	0	57	5004
2026-01-16 00:32:14.23	330.17	40.81	-43.3	-45.8	15.8	0.00e+00	0	43	0	0	57	4997
2026-01-16 00:32:15.09	329.82	40.93	-43.2	-45.7	15.8	0.00e+00	0	43	0	0	57	4947
2026-01-16 00:32:16.22	329.37	41.10	-43.2	-45.6	16.0	0.00e+00	0	43	0	0	57	4895
2026-01-16 00:32:17.30	328.93	41.25	-43.0	-45.3	16.2	0.00e+00	0	43	0	0	57	4759
2026-01-16 00:32:18.32	328.51	41.40	-43.0	-45.2	16.3	0.00e+00	0	43	0	0	57	4675
2026-01-16 00:32:19.49	328.02	41.56	-43.1	-45.4	16.2	0.00e+00	0	43	0	0	57	4787
2026-01-16 00:32:20.34	327.66	41.68	-43.1	-45.4	16.1	0.00e+00	0	43	0	0	57	4779
2026-01-16 00:32:21.68	327.09	41.87	-43.4	-45.8	15.7	0.00e+00	0	43	0	0	57	4984
2026-01-16 00:32:22.40	326.79	41.97	-43.6	-45.9	15.6	0.00e+00	0	43	0	0	57	5087
2026-01-16 00:32:23.68	326.23	42.14	-43.6	-46.0	15.5	0.00e+00	0	43	0	0	58	4862
2026-01-16 00:32:24.39	325.93	42.24	-43.7	-46.1	15.5	0.00e+00	0	43	0	0	58	4903
2026-01-16 00:32:25.67	325.36	42.41	-43.6	-46.0	15.5	0.00e+00	0	43	0	0	58	4844
2026-01-16 00:32:26.38	325.05	42.50	-43.5	-45.9	15.6	0.00e+00	0	43	0	0	58	4786
2026-01-16 00:32:27.66	324.48	42.67	-43.6	-46.0	15.6	0.00e+00	0	43	0	0	58	4826
2026-01-16 00:32:28.46	324.12	42.77	-43.4	-45.7	15.8	0.00e+00	0	43	0	0	58	4689
2026-01-16 00:32:29.60	323.60	42.92	-43.3	-45.7	15.9	0.00e+00	0	43	0	0	58	4660
2026-01-16 00:32:30.45	323.22	43.02	-43.4	-45.8	15.7	0.00e+00	0	43	0	0	58	4751
2026-01-16 00:32:31.59	322.69	43.17	-43.4	-45.8	15.7	0.00e+00	0	43	0	0	58	4747
2026-01-16 00:32:32.44	322.30	43.27	-43.4	-45.9	15.6	0.00e+00	0	43	0	0	58	4797
2026-01-16 00:32:33.58	321.76	43.41	-43.5	-46.0	15.5	0.00e+00	0	43	0	0	58	4867
2026-01-16 00:32:34.43	321.36	43.51	-43.6	-46.1	15.5	0.00e+00	0	43	0	0	58	4891
2026-01-16 00:32:35.57	320.82	43.64	-43.5	-45.9	15.6	0.00e+00	0	43	0	0	58	4791
2026-01-16 00:32:36.42	320.42	43.74	-43.6	-46.0	15.5	0.00e+00	0	43	0	0	58	4864
2026-01-16 00:32:37.56	319.87	43.87	-43.7	-46.3	15.2	0.00e+00	0	43	0	0	58	5003
2026-01-16 00:32:38.42	319.45	43.97	-43.8	-46.5	15.1	0.00e+00	0	43	0	0	58	5101
2026-01-16 00:32:39.55	318.90	44.09	-43.9	-46.6	15.0	0.00e+00	0	43	0	0	58	5207
2026-01-16 00:32:40.40	318.48	44.18	-43.9	-46.6	15.0	0.00e+00	0	43	0	0	58	5164
2026-01-16 00:32:41.54	317.92	44.30	-43.8	-46.3	15.2	0.00e+00	0	43	0	0	58	5039
2026-01-16 00:32:42.39	317.50	44.39	-43.9	-46.4	15.1	7.00e-07	0	43	0	0	58	5099
2026-01-16 00:32:43.53	316.92	44.50	-43.8	-46.3	15.3	0.00e+00	0	43	0	0	58	4996
2026-01-16 00:32:44.38	316.50	44.59	-43.8	-46.3	15.4	0.00e+00	0	43	0	0	58	4984
2026-01-16 00:32:45.52	315.92	44.70	-43.9	-46.4	15.2	0.00e+00	0	43	0	0	58	5095
2026-01-16 00:32:46.37	315.48	44.78	-43.7	-46.1	15.5	0.00e+00	0	43	0	0	58	4914
2026-01-16 00:32:47.51	314.90	44.88	-43.5	-45.9	15.8	0.00e+00	0	43	0	0	58	4760
2026-01-16 00:32:48.36	314.46	44.96	-43.3	-45.6	16.0	0.00e+00	0	43	0	0	58	4618
2026-01-16 00:32:49.50	313.87	45.06	-43.1	-45.4	16.1	0.00e+00	0	43	0	0	58	4537
2026-01-16 00:32:50.35	313.42	45.13	-43.1	-45.4	16.1	0.00e+00	0	43	0	0	58	4544
2026-01-16 00:32:51.52	312.81	45.23	-43.3	-45.7	15.8	0.00e+00	0	43	0	0	58	4676
2026-01-16 00:32:52.37	312.36	45.30	-43.2	-45.7	15.8	0.00e+00	0	43	0	0	58	4672
2026-01-16 00:32:53.58	311.72	45.39	-43.2	-45.6	15.8	0.00e+00	0	43	0	0	58	4649
2026-01-16 00:32:54.44	311.26	45.45	-43.5	-46.0	15.4	0.00e+00	0	43	0	0	58	4854
2026-01-16 00:32:55.63	310.62	45.54	-43.7	-46.3	15.2	0.00e+00	0	43	0	0	58	5018
2026-01-16 00:32:56.49	310.16	45.60	-43.8	-46.4	15.1	0.00e+00	0	43	0	0	58	5058
2026-01-16 00:32:57.69	309.51	45.68	-43.8	-46.3	15.2	7.00e-07	0	43	0	0	58	5027
2026-01-16 00:32:58.54	309.05	45.73	-43.7	-46.2	15.4	0.00e+00	0	43	0	0	58	4951
2026-01-16 00:32:59.68	308.43	45.80	-43.5	-45.8	15.8	0.00e+00	0	43	0	0	58	4743
2026-01-16 00:33:00.53	307.96	45.85	-43.4	-45.8	15.8	0.00e+00	0	43	0	0	58	4716
2026-01-16 00:33:01.67	307.33	45.91	-43.3	-45.6	16.0	0.00e+00	0	43	0	0	58	4618
2026-01-16 00:33:02.52	306.87	45.96	-43.2	-45.4	16.1	0.00e+00	0	43	0	0	58	4523
2026-01-16 00:33:03.66	306.24	46.01	-43.0	-45.2	16.3	0.00e+00	0	43	0	0	58	4418
2026-01-16 00:33:04.64	305.69	46.06	-42.6	-44.8	16.7	0.00e+00	0	43	0	0	57	4452
2026-01-16 00:33:05.63	305.14	46.10	-42.6	-44.7	16.7	0.00e+00	0	43	0	0	57	4428
2026-01-16 00:33:06.83	304.47	46.15	-43.1	-45.3	16.1	0.00e+00	0	43	0	0	57	4753
2026-01-16 00:33:07.72	303.97	46.18	-43.3	-45.6	16.0	0.00e+00	0	43	0	0	57	4879
2026-01-16 00:33:08.86	303.34	46.22	-43.4	-45.7	15.8	0.00e+00	0	43	0	0	57	4953
2026-01-16 00:33:09.71	302.86	46.25	-43.7	-46.1	15.4	0.00e+00	0	43	0	0	57	5196
2026-01-16 00:33:10.85	302.22	46.28	-43.5	-46.0	15.6	0.00e+00	0	43	0	0	58	4829
2026-01-16 00:33:11.70	301.74	46.30	-43.3	-45.7	15.8	0.00e+00	0	43	0	0	58	4687
2026-01-16 00:33:12.84	301.09	46.33	-43.3	-45.7	15.9	0.00e+00	0	43	0	0	58	4667
2026-01-16 00:33:13.69	300.61	46.34	-43.3	-45.7	15.8	0.00e+00	0	43	0	0	58	4698
2026-01-16 00:33:14.83	299.97	46.36	-43.6	-46.1	15.5	0.00e+00	0	43	0	0	58	4897
2026-01-16 00:33:15.68	299.48	46.37	-43.5	-45.9	15.7	0.00e+00	0	43	0	0	58	4799
2026-01-16 00:33:16.82	298.84	46.39	-43.2	-45.5	16.1	0.00e+00	0	43	0	0	58	4564
2026-01-16 00:33:17.67	298.36	46.39	-43.1	-45.4	16.2	0.00e+00	0	43	0	0	58	4507
2026-01-16 00:33:18.81	297.71	46.40	-42.9	-45.1	16.5	0.00e+00	0	43	0	0	57	4639
2026-01-16 00:33:19.66	297.23	46.40	-42.9	-45.1	16.4	0.00e+00	0	43	0	0	57	4632
2026-01-16 00:33:20.88	296.53	46.39	-43.0	-45.3	16.3	0.00e+00	0	43	0	0	57	4717
2026-01-16 00:33:21.73	296.05	46.39	-43.0	-45.2	16.4	0.00e+00	0	43	0	0	57	4691
2026-01-16 00:33:22.93	295.37	46.38	-43.4	-45.8	15.8	0.00e+00	0	43	0	0	57	4990
2026-01-16 00:33:23.78	294.89	46.37	-43.6	-46.0	15.6	0.00e+00	0	43	0	0	57	5145
2026-01-16 00:33:24.98	294.21	46.35	-43.4	-45.7	15.9	0.00e+00	0	43	0	0	57	4948
2026-01-16 00:33:25.83	293.73	46.33	-43.4	-45.7	15.9	0.00e+00	0	43	0	0	57	4957
2026-01-16 00:33:27.03	293.05	46.31	-43.0	-45.3	16.3	0.00e+00	0	43	0	0	57	4723
2026-01-16 00:33:27.89	292.56	46.29	-43.0	-45.3	16.3	0.00e+00	0	43	0	0	57	4710
2026-01-16 00:33:29.03	291.92	46.26	-43.5	-45.9	15.7	0.00e+00	0	43	0	0	57	5042
2026-01-16 00:33:29.88	291.44	46.23	-43.9	-46.3	15.3	0.00e+00	0	43	0	0	58	5033
2026-01-16 00:33:31.01	290.81	46.19	-43.9	-46.4	15.2	0.00e+00	0	43	0	0	58	5086
2026-01-16 00:33:31.87	290.33	46.16	-43.7	-46.2	15.5	0.00e+00	0	43	0	0	58	4927
2026-01-16 00:33:33.00	289.70	46.11	-43.4	-45.7	15.9	0.00e+00	0	43	0	0	58	4695
2026-01-16 00:33:33.86	289.22	46.08	-43.2	-45.4	16.2	0.00e+00	0	43	0	0	58	4526
2026-01-16 00:33:35.00	288.58	46.03	-42.9	-45.1	16.5	0.00e+00	0	43	0	0	57	4620
2026-01-16 00:33:35.85	288.11	45.98	-42.9	-45.0	16.5	0.00e+00	0	43	0	0	57	4571
2026-01-16 00:33:36.99	287.48	45.93	-43.0	-45.1	16.4	0.00e+00	0	43	0	0	57	4641
2026-01-16 00:33:37.84	287.01	45.88	-43.2	-45.4	16.1	0.00e+00	0	43	0	0	57	4802
2026-01-16 00:33:38.98	286.39	45.82	-43.4	-45.8	15.8	0.00e+00	0	43	0	0	57	4985
2026-01-16 00:33:39.83	285.92	45.76	-43.5	-45.9	15.7	0.00e+00	0	43	0	0	57	5100
2026-01-16 00:33:40.97	285.30	45.69	-43.0	-45.2	16.3	0.00e+00	0	43	0	0	57	4703
2026-01-16 00:33:41.82	284.84	45.64	-42.8	-45.0	16.5	0.00e+00	0	43	0	0	57	4595
2026-01-16 00:33:42.96	284.23	45.56	-42.6	-44.7	16.7	0.00e+00	0	43	0	0	57	4427
2026-01-16 00:33:43.81	283.77	45.50	-42.5	-44.5	16.9	0.00e+00	0	43	0	0	56	4585
2026-01-16 00:33:45.07	283.10	45.41	-43.2	-45.4	16.1	0.00e+00	0	43	0	0	56	5077
2026-01-16 00:33:45.86	282.67	45.35	-43.5	-45.9	15.6	0.00e+00	0	43	0	0	57	5073
2026-01-16 00:33:47.22	281.95	45.24	-43.5	-45.9	15.7	0.00e+00	0	43	0	0	57	5094
2026-01-16 00:33:47.93	281.58	45.18	-43.6	-46.0	15.6	0.00e+00	0	43	0	0	57	5122
2026-01-16 00:33:49.21	280.91	45.07	-43.9	-46.4	15.3	0.00e+00	0	43	0	0	58	5044
2026-01-16 00:33:49.93	280.53	45.01	-44.0	-46.5	15.2	0.00e+00	0	43	0	0	58	5115
2026-01-16 00:33:51.21	279.87	44.90	-44.1	-46.7	14.9	0.00e+00	0	43	0	0	59	4927
2026-01-16 00:33:51.93	279.50	44.83	-44.0	-46.5	15.1	0.00e+00	0	43	0	0	59	4844
2026-01-16 00:33:53.21	278.84	44.71	-43.7	-46.2	15.5	0.00e+00	0	43	0	0	59	4654
2026-01-16 00:33:53.93	278.47	44.64	-43.5	-45.9	15.7	0.00e+00	0	43	0	0	59	4541
2026-01-16 00:33:55.21	277.83	44.52	-43.5	-45.8	15.8	0.00e+00	0	43	0	0	58	4744
2026-01-16 00:33:56.01	277.42	44.44	-43.5	-45.9	15.8	0.00e+00	0	43	0	0	58	4781
2026-01-16 00:33:57.15	276.85	44.32	-43.7	-46.1	15.6	0.00e+00	0	43	0	0	58	4887
2026-01-16 00:33:58.00	276.43	44.23	-43.7	-46.1	15.4	0.00e+00	0	43	0	0	58	4908
2026-01-16 00:33:59.14	275.87	44.11	-43.7	-46.1	15.3	0.00e+00	0	43	0	0	58	4877
2026-01-16 00:34:00.24	275.33	43.99	-43.3	-45.6	15.8	0.00e+00	0	43	0	0	58	4634
2026-01-16 00:34:01.10	274.91	43.89	-42.8	-44.9	16.5	0.00e+00	0	43	0	0	57	4535
2026-01-16 00:34:02.23	274.37	43.77	-42.3	-44.4	17.2	0.00e+00	0	43	0	0	56	4502
2026-01-16 00:34:03.08	273.96	43.67	-42.5	-44.6	17.0	0.00e+00	0	43	0	0	56	4613
2026-01-16 00:34:04.22	273.41	43.53	-43.3	-45.6	16.0	0.00e+00	0	43	0	0	57	4909
2026-01-16 00:34:05.07	273.01	43.43	-44.2	-46.7	14.9	0.00e+00	0	43	0	0	58	5242
2026-01-16 00:34:06.21	272.48	43.30	-45.0	-48.0	13.5	3.80e-06	0	43	0	0	60	5445
2026-01-16 00:34:07.37	271.94	43.15	-44.8	-47.7	13.8	1.06e-05	0	43	0	0	60	5265
2026-01-16 00:34:08.22	271.55	43.05	-44.1	-46.7	14.8	7.00e-07	0	43	0	0	60	4659
2026-01-16 00:34:09.36	271.02	42.90	-43.4	-45.8	15.7	0.00e+00	0	43	0	0	58	4708
2026-01-16 00:34:10.21	270.64	42.80	-43.1	-45.3	16.1	0.00e+00	0	43	0	0	58	4476
2026-01-16 00:34:11.35	270.12	42.65	-43.5	-45.8	15.6	0.00e+00	0	43	0	0	58	4758
2026-01-16 00:34:12.20	269.74	42.54	-44.1	-46.7	14.9	7.00e-07	0	43	0	0	58	5230
2026-01-16 00:34:13.34	269.24	42.39	-44.6	-47.3	14.3	3.00e-06	0	43	0	0	60	5022
2026-01-16 00:34:14.19	268.86	42.27	-44.3	-46.9	14.7	0.00e+00	0	43	0	0	60	4787
2026-01-16 00:34:15.33	268.37	42.12	-43.9	-46.4	15.2	0.00e+00	0	43	0	0	59	4778
2026-01-16 00:34:16.18	268.00	42.00	-43.7	-46.1	15.5	0.00e+00	0	43	0	0	59	4615
2026-01-16 00:34:17.40	267.47	41.83	-43.1	-45.3	16.3	0.00e+00	0	43	0	0	58	4476
2026-01-16 00:34:18.25	267.11	41.72	-43.0	-45.2	16.3	0.00e+00	0	43	0	0	57	4699
2026-01-16 00:34:19.39	266.63	41.56	-43.5	-45.9	15.7	0.00e+00	0	43	0	0	57	5084
2026-01-16 00:34:20.24	266.28	41.44	-43.9	-46.4	15.2	0.00e+00	0	43	0	0	58	5059
2026-01-16 00:34:21.38	265.81	41.27	-44.1	-46.6	14.9	0.00e+00	0	43	0	0	58	5198
2026-01-16 00:34:22.23	265.46	41.15	-44.1	-46.7	14.8	0.00e+00	0	43	0	0	59	4940
2026-01-16 00:34:23.37	264.99	40.99	-43.2	-45.4	16.2	0.00e+00	0	43	0	0	58	4540
2026-01-16 00:34:24.22	264.65	40.86	-42.6	-44.7	16.8	0.00e+00	0	43	0	0	57	4439
2026-01-16 00:34:25.36	264.19	40.69	-42.6	-44.7	16.9	0.00e+00	0	43	0	0	56	4671
2026-01-16 00:34:26.21	263.86	40.57	-42.7	-44.8	16.6	0.00e+00	0	43	0	0	56	4735
2026-01-16 00:34:27.35	263.41	40.40	-43.3	-45.7	15.7	0.00e+00	0	43	0	0	57	4932
2026-01-16 00:34:28.20	263.08	40.27	-44.2	-46.8	14.7	0.00e+00	0	43	0	0	58	5299
2026-01-16 00:34:29.34	262.64	40.10	-44.8	-47.8	13.8	9.90e-06	0	43	0	0	60	5303
2026-01-16 00:34:30.19	262.32	39.97	-44.5	-47.3	14.2	3.80e-06	0	43	0	0	60	4995
2026-01-16 00:34:31.33	261.88	39.80	-43.1	-45.4	16.0	0.00e+00	0	43	0	0	58	4523
2026-01-16 00:34:32.18	261.57	39.67	-42.2	-44.2	17.2	0.00e+00	0	43	0	0	56	4421
2026-01-16 00:34:33.32	261.14	39.49	-41.5	-43.4	17.9	0.00e+00	0	43	0	0	55	4284
2026-01-16 00:34:34.17	260.83	39.36	-41.5	-43.5	17.9	0.00e+00	0	43	0	0	54	4547
2026-01-16 00:34:35.43	260.37	39.17	-42.2	-44.2	17.2	0.00e+00	0	43	0	0	54	4976
2026-01-16 00:34:36.25	260.08	39.04	-43.1	-45.4	16.3	0.00e+00	0	43	0	0	56	5043
2026-01-16 00:34:37.39	259.67	38.86	-43.9	-46.4	15.2	0.00e+00	0	43	0	0	58	5092
2026-01-16 00:34:38.24	259.37	38.73	-44.1	-46.7	14.9	7.00e-07	0	43	0	0	59	4939
2026-01-16 00:34:39.38	258.97	38.55	-43.6	-45.9	15.6	0.00e+00	0	43	0	0	59	4524
2026-01-16 00:34:40.23	258.67	38.41	-42.9	-45.1	16.3	0.00e+00	0	43	0	0	57	4634
2026-01-16 00:34:41.37	258.28	38.23	-42.0	-44.0	17.4	0.00e+00	0	43	0	0	56	4340
2026-01-16 00:34:42.22	257.99	38.10	-41.6	-43.5	17.8	0.00e+00	0	43	0	0	55	4328
2026-01-16 00:34:43.36	257.61	37.92	-41.6	-43.6	17.8	0.00e+00	0	43	0	0	55	4354
2026-01-16 00:34:44.21	257.33	37.78	-42.1	-44.1	17.3	0.00e+00	0	43	0	0	55	4642
2026-01-16 00:34:45.35	256.95	37.60	-43.0	-45.2	16.3	0.00e+00	0	43	0	0	56	4976
2026-01-16 00:34:46.20	256.67	37.47	-43.4	-45.7	15.8	0.00e+00	0	43	0	0	57	4969
2026-01-16 00:34:47.33	256.31	37.28	-43.1	-45.3	16.2	0.00e+00	0	43	0	0	57	4739
2026-01-16 00:34:48.19	256.03	37.15	-42.6	-44.7	16.7	0.00e+00	0	43	0	0	57	4421
2026-01-16 00:34:49.32	255.67	36.96	-42.0	-44.1	17.3	0.00e+00	0	43	0	0	56	4351
2026-01-16 00:34:50.18	255.40	36.83	-42.1	-44.2	17.2	0.00e+00	0	43	0	0	56	4403
2026-01-16 00:34:51.31	255.05	36.64	-41.4	-43.3	17.9	0.00e+00	0	43	0	0	54	4469
2026-01-16 00:34:52.17	254.78	36.51	-41.2	-43.1	18.2	0.00e+00	0	43	0	0	54	4381
2026-01-16 00:34:53.30	254.44	36.32	-41.5	-43.4	18.0	0.00e+00	0	43	0	0	54	4497
2026-01-16 00:34:54.16	254.18	36.18	-41.9	-43.9	17.5	0.00e+00	0	43	0	0	54	4779
2026-01-16 00:34:55.29	253.84	36.00	-43.0	-45.2	16.4	0.00e+00	0	43	0	0	56	4929
2026-01-16 00:34:56.19	253.57	35.86	-43.4	-45.8	15.8	0.00e+00	0	43	0	0	57	4984
2026-01-16 00:34:57.38	253.22	35.66	-43.3	-45.6	16.0	0.00e+00	0	43	0	0	57	4893
2026-01-16 00:34:58.23	252.98	35.53	-43.0	-45.3	16.2	0.00e+00	0	43	0	0	57	4732
2026-01-16 00:34:59.56	252.60	35.31	-42.5	-44.6	16.8	0.00e+00	0	43	0	0	57	4384
2026-01-16 00:35:00.27	252.39	35.20	-42.3	-44.4	17.1	0.00e+00	0	43	0	0	56	4501
2026-01-16 00:35:01.55	252.03	34.99	-42.2	-44.3	17.1	0.00e+00	0	43	0	0	56	4468
2026-01-16 00:35:02.29	251.83	34.87	-42.7	-44.9	16.7	0.00e+00	0	43	0	0	56	4762
2026-01-16 00:35:03.57	251.47	34.66	-44.2	-46.2	15.5	0.00e+00	0	43	0	0	58	4969
2026-01-16 00:35:04.31	251.27	34.54	-43.8	-46.2	15.4	0.00e+00	0	43	0	0	58	4975
2026-01-16 00:35:05.59	250.93	34.34	-43.0	-45.3	16.3	0.00e+00	0	43	0	0	58	4447
2026-01-16 00:35:06.31	250.73	34.22	-42.4	-44.5	16.9	0.00e+00	0	43	0	0	56	4585
2026-01-16 00:35:07.59	250.39	34.01	-42.0	-44.0	17.4	0.00e+00	0	43	0	0	56	4307
2026-01-16 00:35:08.32	250.20	33.89	-41.8	-43.9	17.3	0.00e+00	0	43	0	0	55	4502
2026-01-16 00:35:09.60	249.87	33.69	-41.8	-43.8	17.4	0.00e+00	0	43	0	0	55	4481
2026-01-16 00:35:10.32	249.69	33.57	-41.9	-44.0	17.3	0.00e+00	0	43	0	0	55	4549
2026-01-16 00:35:11.60	249.36	33.37	-42.1	-44.2	17.2	0.00e+00	0	43	0	0	55	4702
2026-01-16 00:35:12.49	249.14	33.22	-42.2	-44.3	17.2	0.00e+00	0	43	0	0	55	4707
2026-01-16 00:35:13.62	248.85	33.04	-42.2	-44.3	17.2	0.00e+00	0	43	0	0	55	4713
2026-01-16 00:35:14.70	248.59	32.87	-42.2	-44.3	17.2	0.00e+00	0	43	0	0	55	4714
2026-01-16 00:35:15.71	248.34	32.71	-42.3	-44.4	17.0	0.00e+00	0	43	0	0	55	4807
2026-01-16 00:35:16.89	248.06	32.52	-42.5	-44.6	16.8	0.00e+00	0	43	0	0	55	4912
2026-01-16 00:35:17.76	247.85	32.38	-42.4	-44.6	16.8	0.00e+00	0	43	0	0	55	4882
2026-01-16 00:35:18.90	247.58	32.20	-42.1	-44.2	17.1	0.00e+00	0	43	0	0	55	4685
2026-01-16 00:35:19.81	247.36	32.06	-41.7	-43.7	17.6	0.00e+00	0	43	0	0	55	4405
2026-01-16 00:35:20.98	247.09	31.87	-41.1	-43.0	18.2	0.00e+00	0	43	0	0	54	4330
2026-01-16 00:35:21.83	246.90	31.74	-41.1	-43.0	18.3	0.00e+00	0	43	0	0	54	4307
2026-01-16 00:35:22.97	246.64	31.56	-41.3	-43.2	18.1	0.00e+00	0	43	0	0	54	4407
2026-01-16 00:35:23.82	246.45	31.43	-41.5	-43.4	17.9	0.00e+00	0	43	0	0	54	4532
2026-01-16 00:35:24.96	246.19	31.25	-41.6	-43.6	17.8	0.00e+00	0	43	0	0	54	4613
2026-01-16 00:35:25.81	246.00	31.11	-41.8	-43.8	17.6	0.00e+00	0	43	0	0	54	4734
2026-01-16 00:35:26.94	245.76	30.94	-42.0	-44.0	17.4	0.00e+00	0	43	0	0	54	4849
2026-01-16 00:35:27.80	245.57	30.80	-41.9	-44.0	17.3	0.00e+00	0	43	0	0	54	4816
2026-01-16 00:35:28.93	245.33	30.63	-41.9	-44.0	17.3	0.00e+00	0	43	0	0	54	4831
2026-01-16 00:35:29.78	245.15	30.50	-41.8	-43.8	17.5	0.00e+00	0	43	0	0	54	4724
2026-01-16 00:35:30.92	244.91	30.32	-41.7	-43.7	17.6	0.00e+00	0	43	0	0	54	4690
2026-01-16 00:35:31.78	244.73	30.19	-41.6	-43.5	17.9	0.00e+00	0	43	0	0	54	4589
2026-01-16 00:35:32.92	244.49	30.01	-41.3	-43.2	18.2	0.00e+00	0	43	0	0	54	4400
2026-01-16 00:35:33.77	244.32	29.88	-40.9	-42.7	18.6	0.00e+00	0	43	0	0	53	4433
2026-01-16 00:35:35.02	244.07	29.69	-40.6	-42.5	18.8	0.00e+00	0	43	0	0	53	4296
2026-01-16 00:35:35.87	243.90	29.56	-40.7	-42.5	18.8	0.00e+00	0	43	0	0	53	4326
2026-01-16 00:35:37.00	243.67	29.39	-40.9	-42.7	18.6	0.00e+00	0	43	0	0	53	4407
2026-01-16 00:35:37.86	243.50	29.26	-40.8	-42.7	18.6	0.00e+00	0	43	0	0	53	4401
2026-01-16 00:35:38.99	243.28	29.09	-40.8	-42.6	18.6	0.00e+00	0	43	0	0	53	4378
2026-01-16 00:35:39.84	243.12	28.96	-40.9	-42.7	18.6	0.00e+00	0	43	0	0	53	4411
2026-01-16 00:35:40.98	242.90	28.79	-40.8	-42.6	18.6	0.00e+00	0	43	0	0	53	4391
2026-01-16 00:35:41.83	242.74	28.66	-40.9	-42.7	18.5	0.00e+00	0	43	0	0	53	4439
2026-01-16 00:35:42.97	242.52	28.49	-40.9	-42.8	18.4	0.00e+00	0	43	0	0	53	4469
2026-01-16 00:35:43.83	242.36	28.36	-41.0	-42.9	18.3	0.00e+00	0	43	0	0	53	4521
2026-01-16 00:35:44.96	242.16	28.19	-40.9	-42.7	18.4	0.00e+00	0	43	0	0	53	4441
2026-01-16 00:35:45.81	242.00	28.07	-40.8	-42.6	18.5	0.00e+00	0	43	0	0	53	4384
2026-01-16 00:35:46.95	241.80	27.90	-40.8	-42.7	18.4	0.00e+00	0	43	0	0	53	4394
2026-01-16 00:35:47.80	241.64	27.77	-40.9	-42.7	18.3	0.00e+00	0	43	0	0	53	4430
2026-01-16 00:35:48.94	241.44	27.60	-41.1	-43.0	18.1	0.00e+00	0	43	0	0	53	4577
2026-01-16 00:35:49.79	241.29	27.48	-41.3	-43.2	17.9	0.00e+00	0	43	0	0	53	4666
2026-01-16 00:35:51.02	241.08	27.30	-41.3	-43.2	17.9	0.00e+00	0	43	0	0	53	4702
2026-01-16 00:35:51.88	240.93	27.18	-41.3	-43.2	18.0	0.00e+00	0	43	0	0	53	4682
2026-01-16 00:35:53.02	240.73	27.01	-41.3	-43.2	18.0	0.00e+00	0	43	0	0	53	4693
2026-01-16 00:35:53.87	240.59	26.89	-41.3	-43.2	18.0	0.00e+00	0	43	0	0	53	4690
2026-01-16 00:35:55.00	240.40	26.73	-41.1	-43.1	18.1	0.00e+00	0	43	0	0	53	4607
2026-01-16 00:35:55.86	240.26	26.60	-41.0	-42.8	18.3	0.00e+00	0	43	0	0	53	4485
2026-01-16 00:35:56.99	240.07	26.44	-40.7	-42.6	18.7	0.00e+00	0	43	0	0	53	4342
2026-01-16 00:35:57.85	239.93	26.32	-40.6	-42.4	18.8	0.00e+00	0	43	0	0	53	4275
2026-01-16 00:35:58.99	239.75	26.16	-40.7	-42.5	18.8	0.00e+00	0	43	0	0	53	4309
2026-01-16 00:35:59.84	239.61	26.04	-40.7	-42.5	18.7	0.00e+00	0	43	0	0	53	4311
2026-01-16 00:36:00.98	239.43	25.88	-40.7	-42.5	18.7	0.00e+00	0	43	0	0	53	4331
2026-01-16 00:36:01.83	239.29	25.76	-40.5	-42.3	18.9	0.00e+00	0	43	0	0	53	4239
2026-01-16 00:36:02.96	239.12	25.60	-40.6	-42.4	18.9	0.00e+00	0	43	0	0	53	4247
2026-01-16 00:36:03.82	238.98	25.48	-40.5	-42.3	18.9	0.00e+00	0	43	0	0	53	4239
2026-01-16 00:36:04.98	238.81	25.32	-40.5	-42.3	18.9	0.00e+00	0	43	0	0	52	4467
2026-01-16 00:36:05.83	238.68	25.20	-40.6	-42.4	18.9	0.00e+00	0	43	0	0	52	4502
2026-01-16 00:36:06.97	238.50	25.04	-40.6	-42.4	18.8	0.00e+00	0	43	0	0	52	4526
2026-01-16 00:36:07.82	238.38	24.93	-40.6	-42.4	18.7	0.00e+00	0	43	0	0	52	4525
2026-01-16 00:36:09.10	238.19	24.75	-40.5	-42.3	18.7	0.00e+00	0	43	0	0	52	4481
2026-01-16 00:36:09.84	238.08	24.65	-40.6	-42.4	18.6	0.00e+00	0	43	0	0	52	4514
2026-01-16 00:36:11.12	237.89	24.48	-40.8	-42.7	18.4	0.00e+00	0	43	0	0	52	4660
2026-01-16 00:36:11.85	237.79	24.38	-40.9	-42.8	18.2	0.00e+00	0	43	0	0	52	4753
2026-01-16 00:36:13.13	237.61	24.20	-41.0	-43.0	18.2	0.00e+00	0	43	0	0	52	4824
2026-01-16 00:36:13.84	237.50	24.11	-41.1	-43.0	18.2	0.00e+00	0	43	0	0	52	4831
2026-01-16 00:36:15.12	237.33	23.94	-41.0	-42.9	18.3	0.00e+00	0	43	0	0	52	4794
2026-01-16 00:36:15.86	237.22	23.84	-41.1	-42.9	18.2	0.00e+00	0	43	0	0	52	4813
2026-01-16 00:36:17.14	237.05	23.67	-41.0	-42.9	18.3	0.00e+00	0	43	0	0	52	4761
2026-01-16 00:36:17.97	236.93	23.56	-40.9	-42.8	18.4	0.00e+00	0	43	0	0	52	4713
2026-01-16 00:36:19.11	236.78	23.41	-41.0	-42.9	18.3	0.00e+00	0	43	0	0	52	4765
2026-01-16 00:36:20.15	236.64	23.27	-41.0	-42.9	18.3	0.00e+00	0	43	0	0	52	4793
2026-01-16 00:36:21.08	236.51	23.15	-41.0	-42.9	18.3	0.00e+00	0	43	0	0	52	4810
2026-01-16 00:36:22.08	236.38	23.02	-41.0	-42.9	18.3	0.00e+00	0	43	0	0	52	4790
2026-01-16 00:36:23.08	236.25	22.89	-41.0	-42.9	18.4	0.00e+00	0	43	0	0	52	4775
2026-01-16 00:36:24.07	236.12	22.76	-40.9	-42.8	18.5	0.00e+00	0	43	0	0	52	4721
2026-01-16 00:36:25.06	235.99	22.63	-40.9	-42.8	18.5	0.00e+00	0	43	0	0	52	4709
2026-01-16 00:36:26.45	235.82	22.45	-40.6	-42.4	18.8	0.00e+00	0	43	0	0	52	4540
2026-01-16 00:36:27.19	235.72	22.36	-40.5	-42.4	18.8	0.00e+00	0	43	0	0	52	4503
2026-01-16 00:36:28.79	235.52	22.16	-40.3	-42.1	19.1	0.00e+00	0	43	0	0	52	4381
2026-01-16 00:36:29.36	235.45	22.08	-40.3	-42.1	19.1	0.00e+00	0	43	0	0	52	4378
2026-01-16 00:36:31.27	235.22	21.84	-40.3	-42.1	19.0	0.00e+00	0	43	0	0	52	4369
2026-01-16 00:36:31.84	235.15	21.77	-40.4	-42.2	19.0	0.00e+00	0	43	0	0	52	4405
2026-01-16 00:36:33.55	234.94	21.56	-40.6	-42.4	18.8	0.00e+00	0	43	0	0	52	4514
2026-01-16 00:36:34.12	234.87	21.49	-40.6	-42.5	18.7	0.00e+00	0	43	0	0	52	4555
2026-01-16 00:36:35.91	234.66	21.27	-40.6	-42.5	18.7	0.00e+00	0	43	0	0	52	4561
2026-01-16 00:36:36.48	234.60	21.20	-40.7	-42.6	18.7	0.00e+00	0	43	0	0	52	4605
2026-01-16 00:36:38.18	234.40	20.99	-36.9	-42.5	16.5	1.82e-02	0	43	0	0	45	6827
2026-01-16 00:36:38.89	234.32	20.90	-38.1	-42.5	16.6	1.76e-02	0	43	0	0	47	6095
2026-01-16 00:36:40.17	234.17	20.74	-38.1	-42.5	16.6	1.79e-02	0	43	0	0	47	6128
2026-01-16 00:36:41.09	234.07	20.63	-39.6	-42.8	17.0	1.70e-02	0	43	0	0	50	5281
2026-01-16 00:36:42.38	233.92	20.48	-40.6	-42.8	17.1	1.53e-02	0	43	0	0	51	5022
2026-01-16 00:36:43.09	233.84	20.39	-40.4	-42.7	17.2	1.56e-02	0	43	0	0	51	4975
2026-01-16 00:36:44.37	233.70	20.24	-40.7	-42.7	17.8	7.26e-03	0	43	0	0	52	4667
2026-01-16 00:36:45.10	233.62	20.15	-40.7	-42.6	18.2	0.00e+00	0	43	0	0	52	4650
2026-01-16 00:36:46.38	233.48	20.00	-40.5	-42.6	17.3	4.87e-03	0	43	0	0	52	4627
2026-01-16 00:36:47.09	233.41	19.91	-40.4	-42.5	17.3	9.55e-03	0	43	0	0	52	4585
2026-01-16 00:36:48.37	233.27	19.76	-40.4	-42.6	17.2	1.27e-02	0	43	0	0	52	4609
2026-01-16 00:36:49.11	233.19	19.68	-40.3	-42.5	17.2	1.56e-02	0	43	0	0	52	4553
2026-01-16 00:36:50.38	233.06	19.53	-40.0	-42.3	17.3	1.56e-02	0	43	0	0	51	4719
2026-01-16 00:36:51.10	232.98	19.44	-40.4	-42.2	18.8	0.00e+00	0	43	0	0	51	4688
2026-01-16 00:36:52.38	232.85	19.29	-40.4	-42.2	18.9	0.00e+00	0	43	0	0	51	4676
2026-01-16 00:36:53.10	232.78	19.21	-40.4	-42.2	18.9	0.00e+00	0	43	0	0	51	4699
2026-01-16 00:36:54.47	232.64	19.05	-40.4	-42.2	18.9	0.00e+00	0	43	0	0	51	4695
2026-01-16 00:36:55.18	232.57	18.97	-40.4	-42.3	18.9	0.00e+00	0	43	0	0	51	4706
2026-01-16 00:36:56.46	232.44	18.83	-40.4	-42.2	19.0	0.00e+00	0	43	0	0	51	4673
2026-01-16 00:36:57.19	232.37	18.74	-40.4	-42.2	19.0	0.00e+00	0	43	0	0	51	4692
2026-01-16 00:36:58.56	232.23	18.59	-40.4	-42.2	19.0	0.00e+00	0	43	0	0	51	4666
2026-01-16 00:36:59.27	232.16	18.51	-40.6	-42.4	18.8	0.00e+00	0	43	0	0	51	4772
2026-01-16 00:37:00.55	232.04	18.36	-40.6	-42.5	18.7	0.00e+00	0	43	0	0	52	4553
2026-01-16 00:37:01.27	231.97	18.28	-40.7	-42.6	18.4	0.00e+00	0	43	0	0	52	4629
2026-01-16 00:37:02.55	231.84	18.14	-40.8	-42.7	18.4	0.00e+00	0	43	0	0	52	4699
2026-01-16 00:37:03.28	231.77	18.06	-40.9	-42.8	18.3	0.00e+00	0	43	0	0	52	4755
2026-01-16 00:37:04.56	231.65	17.91	-41.0	-42.9	18.2	0.00e+00	0	43	0	0	52	4781
2026-01-16 00:37:05.27	231.59	17.84	-41.1	-43.1	18.0	0.00e+00	0	43	0	0	52	4882
2026-01-16 00:37:06.77	231.45	17.67	-41.2	-43.1	17.9	0.00e+00	0	43	0	0	53	4646
2026-01-16 00:37:07.73	231.36	17.57	-41.3	-43.2	17.9	0.00e+00	0	43	0	0	53	4702
2026-01-16 00:37:09.04	231.24	17.42	-41.3	-43.3	17.8	0.00e+00	0	43	0	0	53	4758
2026-01-16 00:37:09.75	231.18	17.35	-41.3	-43.3	17.8	0.00e+00	0	43	0	0	53	4710
2026-01-16 00:37:11.03	231.06	17.21	-41.3	-43.3	17.8	0.00e+00	0	43	0	0	53	4707
2026-01-16 00:37:11.76	231.00	17.13	-41.2	-43.2	17.9	0.00e+00	0	43	0	0	53	4680
2026-01-16 00:37:13.04	230.88	16.99	-41.3	-43.3	17.8	0.00e+00	0	43	0	0	53	4729
2026-01-16 00:37:13.75	230.82	16.92	-41.2	-43.2	17.9	0.00e+00	0	43	0	0	53	4659
2026-01-16 00:37:15.03	230.71	16.78	-41.2	-43.1	17.9	0.00e+00	0	43	0	0	53	4643
2026-01-16 00:37:15.74	230.65	16.70	-41.2	-43.1	18.0	0.00e+00	0	43	0	0	53	4642
2026-01-16 00:37:17.02	230.54	16.57	-41.3	-43.2	17.9	0.00e+00	0	43	0	0	53	4689
2026-01-16 00:37:17.76	230.47	16.49	-41.3	-43.2	17.9	0.00e+00	0	43	0	0	53	4691
2026-01-16 00:37:19.15	230.36	16.34	-41.3	-43.2	17.9	0.00e+00	0	43	0	0	53	4698
2026-01-16 00:37:19.86	230.30	16.27	-41.3	-43.3	17.8	0.00e+00	0	43	0	0	53	4736
2026-01-16 00:37:21.14	230.19	16.14	-41.3	-43.3	17.8	0.00e+00	0	43	0	0	53	4739
2026-01-16 00:37:22.18	230.10	16.03	-41.4	-43.4	17.7	0.00e+00	0	43	0	0	53	4766
2026-01-16 00:37:23.46	230.00	15.90	-41.4	-43.4	17.7	0.00e+00	0	43	0	0	53	4795
2026-01-16 00:37:24.18	229.94	15.82	-41.5	-43.5	17.6	0.00e+00	0	43	0	0	53	4846
2026-01-16 00:37:25.46	229.84	15.69	-41.5	-43.6	17.6	0.00e+00	0	43	0	0	53	4873
2026-01-16 00:37:26.17	229.78	15.62	-41.5	-43.5	17.6	0.00e+00	0	43	0	0	53	4845
2026-01-16 00:37:27.47	229.67	15.48	-41.6	-43.7	17.5	0.00e+00	0	43	0	0	53	4930
2026-01-16 00:37:28.18	229.62	15.41	-41.6	-43.7	17.4	0.00e+00	0	43	0	0	53	4943
2026-01-16 00:37:29.45	229.52	15.28	-41.7	-43.8	17.3	0.00e+00	0	43	0	0	54	4736
2026-01-16 00:37:30.18	229.46	15.21	-41.8	-43.9	17.2	0.00e+00	0	43	0	0	54	4780
2026-01-16 00:37:31.46	229.36	15.08	-41.8	-43.9	17.3	0.00e+00	0	43	0	0	54	4767
2026-01-16 00:37:32.19	229.31	15.01	-41.7	-43.8	17.3	0.00e+00	0	43	0	0	54	4733
2026-01-16 00:37:33.46	229.21	14.88	-41.8	-43.9	17.2	0.00e+00	0	43	0	0	54	4804
2026-01-16 00:37:34.17	229.15	14.81	-41.8	-43.9	17.2	0.00e+00	0	43	0	0	54	4803
2026-01-16 00:37:35.56	229.05	14.67	-41.8	-43.8	17.3	0.00e+00	0	43	0	0	54	4742
2026-01-16 00:37:36.27	229.00	14.60	-41.8	-43.8	17.3	0.00e+00	0	43	0	0	54	4751
2026-01-16 00:37:37.55	228.90	14.48	-41.8	-43.9	17.2	0.00e+00	0	43	0	0	54	4787
2026-01-16 00:37:38.26	228.85	14.41	-41.9	-44.0	17.2	0.00e+00	0	43	0	0	54	4815
2026-01-16 00:37:39.67	228.74	14.27	-41.8	-43.9	17.2	0.00e+00	0	43	0	0	54	4784
2026-01-16 00:37:40.38	228.69	14.20	-41.9	-44.0	17.1	0.00e+00	0	43	0	0	54	4863
2026-01-16 00:37:41.66	228.60	14.08	-41.9	-44.0	16.7	0.00e+00	0	43	0	0	54	4858
2026-01-16 00:37:42.37	228.55	14.01	-41.8	-43.9	17.2	0.00e+00	0	43	0	0	54	4796
2026-01-16 00:37:43.65	228.46	13.89	-41.8	-43.9	17.2	0.00e+00	0	43	0	0	54	4781
2026-01-16 00:37:44.39	228.40	13.81	-41.8	-43.9	17.2	0.00e+00	0	43	0	0	54	4806
2026-01-16 00:37:45.67	228.31	13.69	-41.8	-43.9	17.1	0.00e+00	0	43	0	0	54	4813
2026-01-16 00:37:46.38	228.26	13.62	-41.9	-44.0	17.1	0.00e+00	0	43	0	0	54	4832
2026-01-16 00:37:47.66	228.18	13.50	-42.0	-44.1	17.0	0.00e+00	0	43	0	0	54	4895
2026-01-16 00:37:48.40	228.12	13.43	-42.1	-44.2	16.9	0.00e+00	0	43	0	0	54	4949
2026-01-16 00:37:49.68	228.04	13.31	-42.1	-44.3	16.8	0.00e+00	0	43	0	0	54	4989
2026-01-16 00:37:50.41	227.99	13.24	-42.1	-44.2	16.9	0.00e+00	0	43	0	0	54	4955
2026-01-16 00:37:51.69	227.90	13.12	-42.1	-44.2	16.9	0.00e+00	0	43	0	0	54	4965
2026-01-16 00:37:52.48	227.85	13.05	-42.1	-44.2	16.8	0.00e+00	0	43	0	0	54	4971
2026-01-16 00:37:53.66	227.77	12.94	-42.0	-44.1	16.9	0.00e+00	0	43	0	0	54	4903
2026-01-16 00:37:54.51	227.71	12.86	-42.1	-44.2	16.8	0.00e+00	0	43	0	0	54	4947
2026-01-16 00:37:55.65	227.64	12.76	-42.1	-44.2	16.8	0.00e+00	0	43	0	0	54	4982
2026-01-16 00:37:56.51	227.58	12.68	-42.1	-44.3	16.8	0.00e+00	0	43	0	0	54	5000
2026-01-16 00:37:57.64	227.51	12.57	-42.1	-44.2	16.8	0.00e+00	0	43	0	0	54	4963
2026-01-16 00:37:58.50	227.45	12.50	-42.2	-44.3	16.7	0.00e+00	0	43	0	0	54	5011
2026-01-16 00:37:59.63	227.38	12.39	-42.2	-44.3	16.6	0.00e+00	0	43	0	0	55	4757
2026-01-16 00:38:00.83	227.30	12.28	-42.2	-44.4	16.6	0.00e+00	0	43	0	0	55	4786
2026-01-16 00:38:01.69	227.25	12.21	-42.1	-44.2	16.8	0.00e+00	0	43	0	0	55	4687
2026-01-16 00:38:02.82	227.17	12.10	-41.9	-44.0	16.9	0.00e+00	0	43	0	0	55	4590
2026-01-16 00:38:03.68	227.12	12.03	-42.0	-44.2	16.8	0.00e+00	0	43	0	0	55	4656
2026-01-16 00:38:04.81	227.05	11.93	-42.0	-44.1	16.8	0.00e+00	0	43	0	0	55	4648
2026-01-16 00:38:05.66	227.00	11.85	-42.1	-44.2	16.8	0.00e+00	0	43	0	0	55	4665
2026-01-16 00:38:06.80	226.93	11.75	-42.0	-44.2	16.8	0.00e+00	0	43	0	0	55	4653
2026-01-16 00:38:07.65	226.88	11.67	-42.1	-44.2	16.8	0.00e+00	0	43	0	0	55	4677
2026-01-16 00:38:08.78	226.81	11.57	-42.1	-44.2	16.7	0.00e+00	0	43	0	0	55	4689
2026-01-16 00:38:09.64	226.76	11.50	-42.1	-44.3	16.7	0.00e+00	0	43	0	0	55	4720
2026-01-16 00:38:10.77	226.69	11.40	-42.0	-44.2	16.8	0.00e+00	0	43	0	0	55	4659
2026-01-16 00:38:11.71	226.63	11.32	-42.1	-44.3	16.6	0.00e+00	0	43	0	0	55	4728
2026-01-16 00:38:12.86	226.56	11.22	-42.2	-44.4	16.5	0.00e+00	0	43	0	0	55	4788
2026-01-16 00:38:13.73	226.51	11.14	-42.2	-44.4	16.5	0.00e+00	0	43	0	0	55	4795
2026-01-16 00:38:15.05	226.44	11.03	-42.2	-44.5	16.4	0.00e+00	0	43	0	0	55	4848
2026-01-16 00:38:15.76	226.39	10.96	-42.2	-44.5	16.4	0.00e+00	0	43	0	0	55	4859
2026-01-16 00:38:17.04	226.32	10.85	-42.3	-44.6	16.4	0.00e+00	0	43	0	0	55	4883
2026-01-16 00:38:17.77	226.28	10.79	-42.3	-44.5	16.4	0.00e+00	0	43	0	0	55	4859
2026-01-16 00:38:19.26	226.19	10.66	-42.3	-44.5	16.4	0.00e+00	0	43	0	0	55	4869
2026-01-16 00:38:19.97	226.15	10.60	-42.3	-44.5	16.4	0.00e+00	0	43	0	0	55	4857
2026-01-16 00:38:21.26	226.08	10.49	-42.4	-44.6	16.3	0.00e+00	0	43	0	0	55	4919
2026-01-16 00:38:21.97	226.04	10.43	-42.4	-44.7	16.2	0.00e+00	0	43	0	0	55	4938
2026-01-16 00:38:23.25	225.97	10.32	-42.5	-44.8	16.1	0.00e+00	0	43	0	0	55	5006
2026-01-16 00:38:23.99	225.93	10.26	-42.5	-44.8	16.1	0.00e+00	0	43	0	0	55	5025
2026-01-16 00:38:25.27	225.86	10.16	-42.6	-44.9	16.0	0.00e+00	0	43	0	0	55	5057
2026-01-16 00:38:26.00	225.82	10.09	-42.6	-44.9	15.9	0.00e+00	0	43	0	0	55	5089
2026-01-16 00:38:27.28	225.75	9.99	-42.6	-44.9	15.9	0.00e+00	0	43	0	0	55	5081
2026-01-16 00:38:27.99	225.71	9.93	-42.6	-44.9	15.9	0.00e+00	0	43	0	0	55	5096
2026-01-16 00:38:29.27	225.64	9.82	-42.7	-45.1	15.7	0.00e+00	0	43	0	0	55	5161
2026-01-16 00:38:29.98	225.60	9.76	-42.8	-45.2	15.7	0.00e+00	0	43	0	0	56	4979
2026-01-16 00:38:31.26	225.54	9.66	-42.9	-45.3	15.7	0.00e+00	0	43	0	0	56	5023
2026-01-16 00:38:31.97	225.50	9.60	-42.9	-45.3	15.6	0.00e+00	0	43	0	0	56	5035
2026-01-16 00:38:33.25	225.43	9.49	-42.8	-45.3	15.5	0.00e+00	0	43	0	0	56	5030
2026-01-16 00:38:33.96	225.39	9.44	-42.8	-45.2	15.5	0.00e+00	0	43	0	0	56	4976
2026-01-16 00:38:35.24	225.33	9.33	-42.9	-45.4	15.4	4.50e-06	0	43	0	0	56	5057
2026-01-16 00:38:35.96	225.29	9.27	-42.9	-45.4	15.3	3.80e-06	0	43	0	0	56	5075
2026-01-16 00:38:37.26	225.22	9.17	-43.0	-45.5	15.3	1.50e-06	0	43	0	0	56	5148
2026-01-16 00:38:37.97	225.19	9.11	-43.1	-45.6	15.3	0.00e+00	0	43	0	0	56	5174
2026-01-16 00:38:39.28	225.12	9.01	-43.0	-45.6	15.3	0.00e+00	0	43	0	0	56	5198
2026-01-16 00:38:39.99	225.09	8.95	-49.1	-62.0	3.8	5.50e-02	0	43	104	0	68	17153
2026-01-16 00:38:41.27	225.02	8.85	-49.5	-62.6	3.8	1.49e+00	0	43	104	0	69	17456
2026-01-16 00:38:41.98	224.99	8.79	-49.8	-62.8	3.8	1.49e+00	0	43	104	0	70	16713
2026-01-16 00:38:43.26	224.92	8.69	-49.6	-62.9	3.8	1.49e+00	0	43	104	0	70	16978
2026-01-16 00:38:43.96	224.89	8.63	-49.7	-62.9	3.8	1.49e+00	0	43	104	0	70	17058
2026-01-16 00:38:45.24	224.83	8.53	-50.0	-63.0	3.8	1.49e+00	0	43	104	0	70	17223
2026-01-16 00:38:45.95	224.79	8.48	-50.1	-63.0	3.8	1.49e+00	0	43	104	0	70	17252
2026-01-16 00:38:47.23	224.73	8.38	-50.1	-63.1	3.8	1.49e+00	0	43	104	0	70	17362
2026-01-16 00:38:47.94	224.70	8.32	-49.9	-63.1	3.8	1.49e+00	0	43	104	0	71	16396
2026-01-16 00:38:49.23	224.63	8.22	-50.1	-63.1	3.8	1.49e+00	0	43	104	0	71	16447
2026-01-16 00:38:49.94	224.60	8.16	-50.2	-63.1	3.8	1.49e+00	0	43	104	0	71	16437
2026-01-16 00:38:51.22	224.54	8.06	-50.2	-63.1	3.8	1.49e+00	0	43	104	0	71	16413
2026-01-16 00:38:51.94	224.51	8.01	-50.1	-63.1	3.8	1.49e+00	0	43	104	0	71	16479
2026-01-16 00:38:53.22	224.45	7.91	-50.2	-63.1	3.8	1.49e+00	0	43	104	0	71	16431
2026-01-16 00:38:53.96	224.41	7.85	-50.1	-63.1	3.8	1.49e+00	0	43	104	0	71	16406
2026-01-16 00:38:55.24	224.35	7.75	-50.1	-63.1	3.8	1.49e+00	0	43	104	0	71	16443
2026-01-16 00:38:55.98	224.32	7.70	-50.1	-63.1	3.8	1.49e+00	0	43	104	0	71	16421
2026-01-16 00:38:57.26	224.26	7.60	-50.1	-63.1	3.8	1.49e+00	0	43	104	0	71	16418
2026-01-16 00:38:58.00	224.23	7.54	-50.0	-63.1	3.8	1.49e+00	0	43	104	0	71	16471
2026-01-16 00:38:59.27	224.17	7.45	-50.0	-63.1	3.8	1.49e+00	0	43	104	0	71	16403
2026-01-16 00:39:00.00	224.14	7.39	-49.9	-63.1	3.8	1.49e+00	0	43	104	0	71	16442
2026-01-16 00:39:01.28	224.08	7.29	-49.7	-63.1	3.8	1.49e+00	0	43	104	0	71	16331
2026-01-16 00:39:02.05	224.05	7.24	-49.7	-63.0	3.8	1.49e+00	0	43	104	0	71	16266
2026-01-16 00:39:03.32	223.99	7.14	-49.7	-63.1	3.8	1.49e+00	0	43	104	0	71	16323
2026-01-16 00:39:04.03	223.96	7.09	-49.7	-63.1	3.8	1.49e+00	0	43	104	0	71	16321
2026-01-16 00:39:05.31	223.90	6.99	-49.7	-63.0	3.8	1.49e+00	0	43	104	0	71	16272
2026-01-16 00:39:06.02	223.87	6.94	-49.7	-63.1	3.8	1.49e+00	0	43	104	0	71	16320
2026-01-16 00:39:07.30	223.82	6.84	-49.7	-63.1	3.8	1.49e+00	0	43	104	0	71	16337
2026-01-16 00:39:08.01	223.79	6.79	-49.7	-63.1	3.8	1.49e+00	0	43	104	0	71	16318
2026-01-16 00:39:09.29	223.73	6.70	-49.7	-63.0	3.8	1.49e+00	0	43	104	0	71	16292
2026-01-16 00:39:09.99	223.70	6.64	-49.7	-63.1	3.8	1.49e+00	0	44	104	0	71	16320
2026-01-16 00:39:11.27	223.65	6.55	-49.7	-63.0	3.8	1.49e+00	0	43	104	0	71	16210
2026-01-16 00:39:11.99	223.62	6.50	-49.7	-63.1	3.8	1.49e+00	0	43	104	0	71	16331
2026-01-16 00:39:13.27	223.56	6.40	-49.7	-63.0	3.8	1.49e+00	0	43	104	0	71	16232
2026-01-16 00:39:13.98	223.53	6.35	-49.7	-63.0	3.8	1.49e+00	0	43	104	0	71	16257
2026-01-16 00:39:15.26	223.48	6.26	-49.7	-63.0	3.8	1.49e+00	0	43	104	0	71	16277
2026-01-16 00:39:15.97	223.45	6.21	-49.7	-63.0	3.8	1.49e+00	0	43	104	0	71	16274
2026-01-16 00:39:17.25	223.40	6.11	-49.7	-63.0	3.8	1.49e+00	0	43	104	0	71	16210
2026-01-16 00:39:17.95	223.37	6.06	-49.7	-63.0	3.8	1.49e+00	0	43	104	0	71	16258
2026-01-16 00:39:19.23	223.32	5.97	-49.7	-63.0	3.8	1.49e+00	0	43	104	0	71	16243
2026-01-16 00:39:19.96	223.29	5.92	-49.7	-63.0	3.8	1.49e+00	0	43	104	0	71	16249
2026-01-16 00:39:21.23	223.24	5.83	-49.7	-63.1	3.8	1.49e+00	0	43	104	0	71	16315
2026-01-16 00:39:21.94	223.21	5.78	-49.7	-63.0	3.8	1.49e+00	0	43	104	0	71	16232
2026-01-16 00:39:23.22	223.16	5.69	-49.7	-63.0	3.8	1.49e+00	0	43	104	0	71	16269
2026-01-16 00:39:23.95	223.13	5.63	-49.7	-63.0	3.8	1.49e+00	0	43	104	0	71	16214
2026-01-16 00:39:25.22	223.08	5.54	-49.7	-63.0	3.8	1.49e+00	0	43	104	0	71	16260
2026-01-16 00:39:25.93	223.05	5.49	-49.7	-63.0	3.8	1.49e+00	0	43	104	0	71	16234
2026-01-16 00:39:27.21	223.00	5.40	-49.7	-63.0	3.8	1.49e+00	0	43	104	0	71	16266
2026-01-16 00:39:27.92	222.97	5.35	-49.7	-63.0	3.8	1.49e+00	0	43	104	0	71	16254
2026-01-16 00:39:29.20	222.92	5.26	-49.7	-63.0	3.8	1.49e+00	0	43	104	0	71	16217
2026-01-16 00:39:29.92	222.90	5.21	-49.7	-63.0	3.8	1.49e+00	0	43	104	0	71	16250
2026-01-16 00:39:31.20	222.85	5.12	-49.7	-63.0	3.8	1.49e+00	0	43	104	0	71	16197
2026-01-16 00:39:31.91	222.82	5.07	-49.7	-63.0	3.8	1.49e+00	0	43	104	0	71	16230
2026-01-16 00:39:33.18	222.77	4.99	-49.7	-63.0	3.8	1.49e+00	0	43	104	0	71	16265

#Closed at: 2026-01-16 00:39:33
#Recorded file [0 MB]: D:/Data/31040_260116_032705.dat