passes_logs/2026/01/08/R4.6S_Anadyr_2ch/R4.6S_Anadyr_2ch__20260108_005020_FENGYUN_3D_rec.log

#Pass ID: 20260108_005020_FENGYUN 3D
#Satellite: FENGYUN 3D
#Configuration: FENGYUN 3D
#almurnet v.1.7.20251203
#Start time: 2026-01-08 00:50:25

#Version: 2.2.20231116
#Station: R4.6S_Anadyr_2ch
#Location: 177.4865 lon 64.73178 lat
#TLE: 1 43010U 17072A   25350.96693137  .00000321  00000+0  17364-3 0  9993
#TLE: 2 43010  98.9888 317.3403 0001146 169.6565 190.4634 14.19686173419132

#Time	Az	El	Level	Level2	SNR	BER	BlckErr	Temp	State	Recorded	gain1	gain2
2026-01-08 00:50:25.31	121.80	0.28	-52.3	-53.9	5.7	0.00e+00	0	33	0	0	60	82433
2026-01-08 00:50:26.32	121.77	0.34	-52.0	-64.4	3.6	8.45e-01	0	34	104	0	60	80903
2026-01-08 00:50:27.33	121.73	0.40	-52.0	-64.3	3.6	8.46e-01	0	34	104	0	60	80220
2026-01-08 00:50:28.34	121.70	0.46	-52.0	-64.4	3.6	8.45e-01	0	34	104	0	60	80799
2026-01-08 00:50:29.36	121.66	0.52	-52.0	-64.4	3.6	8.47e-01	0	34	104	0	60	80507
2026-01-08 00:50:30.37	121.63	0.58	-52.0	-64.4	3.6	8.46e-01	0	34	104	0	60	80604
2026-01-08 00:50:31.38	121.59	0.64	-52.0	-64.3	3.6	8.45e-01	0	34	104	0	60	80106
2026-01-08 00:50:32.39	121.56	0.70	-52.0	-64.4	3.6	8.45e-01	0	34	104	0	60	80468
2026-01-08 00:50:33.40	121.52	0.76	-52.0	-64.3	3.6	8.45e-01	0	34	104	0	60	80141
2026-01-08 00:50:34.41	121.49	0.82	-52.0	-64.4	3.6	8.45e-01	0	34	104	0	60	80767
2026-01-08 00:50:35.42	121.45	0.88	-52.0	-64.3	3.6	8.45e-01	0	34	104	0	60	80422
2026-01-08 00:50:36.43	121.42	0.94	-52.0	-64.4	3.6	8.45e-01	0	34	104	0	60	80696
2026-01-08 00:50:37.44	121.38	1.00	-52.0	-64.4	3.6	8.45e-01	0	34	104	0	60	80824
2026-01-08 00:50:38.45	121.35	1.06	-52.0	-64.4	3.6	8.46e-01	0	34	104	0	60	80480
2026-01-08 00:50:39.47	121.31	1.12	-52.0	-64.4	3.6	8.45e-01	0	34	104	0	60	80902
2026-01-08 00:50:40.48	121.27	1.18	-52.0	-64.4	3.6	8.45e-01	0	34	104	0	60	80868
2026-01-08 00:50:41.49	121.24	1.24	-52.0	-64.4	3.6	8.45e-01	0	34	104	0	60	80914
2026-01-08 00:50:42.50	121.20	1.30	-52.0	-64.4	3.6	8.44e-01	0	34	104	0	60	80739
2026-01-08 00:50:43.51	121.16	1.36	-52.0	-64.4	3.6	8.45e-01	0	34	104	0	60	80530
2026-01-08 00:50:44.52	121.13	1.42	-52.0	-64.4	3.6	8.46e-01	0	34	104	0	60	80625
2026-01-08 00:50:45.53	121.09	1.49	-52.0	-64.3	3.6	8.46e-01	0	34	104	0	60	79888
2026-01-08 00:50:46.54	121.05	1.55	-52.0	-64.3	3.6	8.46e-01	0	34	104	0	60	80350
2026-01-08 00:50:47.55	121.01	1.61	-52.0	-64.4	3.6	8.45e-01	0	34	104	0	60	80594
2026-01-08 00:50:48.56	120.98	1.67	-52.0	-64.4	3.6	8.45e-01	0	34	104	0	60	80682
2026-01-08 00:50:49.57	120.94	1.73	-52.0	-64.4	3.6	8.45e-01	0	34	104	0	60	80515
2026-01-08 00:50:50.59	120.90	1.79	-52.0	-64.4	3.6	8.45e-01	0	34	104	0	60	80520
2026-01-08 00:50:51.60	120.86	1.86	-52.0	-64.4	3.6	8.45e-01	0	34	104	0	60	80934
2026-01-08 00:50:52.60	120.82	1.92	-52.0	-64.4	3.5	8.45e-01	0	34	104	0	60	80536
2026-01-08 00:50:53.62	120.79	1.98	-52.0	-64.4	3.6	8.46e-01	0	35	104	0	60	80756
2026-01-08 00:50:54.63	120.75	2.04	-52.0	-64.4	3.6	8.44e-01	0	35	104	0	60	80720
2026-01-08 00:50:55.64	120.71	2.11	-52.0	-64.4	3.6	8.45e-01	0	35	104	0	60	80822
2026-01-08 00:50:56.65	120.67	2.17	-52.0	-64.4	3.6	8.46e-01	0	35	104	0	60	80659
2026-01-08 00:50:57.66	120.63	2.23	-52.0	-64.4	3.6	8.44e-01	0	35	104	0	60	81057
2026-01-08 00:50:58.67	120.59	2.29	-52.0	-64.4	3.6	8.45e-01	0	35	104	0	60	80585
2026-01-08 00:50:59.68	120.55	2.36	-52.0	-64.4	3.6	8.45e-01	0	35	104	0	60	80733
2026-01-08 00:51:00.69	120.51	2.42	-52.0	-64.4	3.6	8.45e-01	0	35	104	0	60	80519
2026-01-08 00:51:01.71	120.47	2.48	-52.0	-64.3	3.6	8.45e-01	0	35	104	0	60	80404
2026-01-08 00:51:02.72	120.43	2.55	-52.0	-64.4	3.6	8.45e-01	0	35	104	0	60	80547
2026-01-08 00:51:03.73	120.39	2.61	-52.0	-64.4	3.6	8.44e-01	0	35	104	0	60	80670
2026-01-08 00:51:04.74	120.35	2.67	-52.0	-64.4	3.6	8.45e-01	0	35	104	0	60	80910
2026-01-08 00:51:05.75	120.31	2.74	-52.0	-64.4	3.6	8.44e-01	0	35	104	0	60	80899
2026-01-08 00:51:06.76	120.27	2.80	-52.0	-64.4	3.6	8.45e-01	0	35	104	0	60	80984
2026-01-08 00:51:07.77	120.23	2.87	-52.0	-64.4	3.6	8.46e-01	0	35	104	0	60	80933
2026-01-08 00:51:08.78	120.19	2.93	-52.0	-64.4	3.6	8.44e-01	0	35	104	0	60	80705
2026-01-08 00:51:09.79	120.15	2.99	-52.0	-64.4	3.6	8.44e-01	0	35	104	0	60	80598
2026-01-08 00:51:10.80	120.10	3.06	-52.0	-64.4	3.6	8.44e-01	0	35	104	0	60	80801
2026-01-08 00:51:11.81	120.06	3.12	-52.0	-64.4	3.6	8.46e-01	0	35	104	0	60	80465
2026-01-08 00:51:12.83	120.02	3.19	-52.0	-64.4	3.6	8.45e-01	0	35	104	0	60	80463
2026-01-08 00:51:13.84	119.98	3.25	-52.0	-64.3	3.6	8.45e-01	0	35	104	0	60	80271
2026-01-08 00:51:14.85	119.94	3.32	-52.0	-64.4	3.6	8.44e-01	0	35	104	0	60	80557
2026-01-08 00:51:15.86	119.89	3.38	-52.0	-64.4	3.6	8.47e-01	0	35	104	0	60	80766
2026-01-08 00:51:16.87	119.85	3.45	-52.0	-64.3	3.6	8.45e-01	0	35	104	0	60	80415
2026-01-08 00:51:17.88	119.81	3.51	-52.0	-64.4	3.6	8.45e-01	0	35	104	0	60	80590
2026-01-08 00:51:18.89	119.76	3.58	-52.0	-64.3	3.5	8.44e-01	0	35	104	0	60	80326
2026-01-08 00:51:19.90	119.72	3.64	-52.0	-64.4	3.6	8.46e-01	0	35	104	0	60	80512
2026-01-08 00:51:20.91	119.68	3.71	-52.0	-64.4	3.6	8.46e-01	0	35	104	0	60	80472
2026-01-08 00:51:21.92	119.63	3.78	-52.0	-64.4	3.6	8.44e-01	0	35	104	0	60	80517
2026-01-08 00:51:22.93	119.59	3.84	-52.0	-64.4	3.6	8.46e-01	0	35	104	0	60	80601
2026-01-08 00:51:23.94	119.55	3.91	-52.0	-64.4	3.6	8.45e-01	0	35	104	0	60	81106
2026-01-08 00:51:24.96	119.50	3.98	-52.0	-64.3	3.6	8.45e-01	0	35	104	0	60	80263
2026-01-08 00:51:25.97	119.46	4.04	-52.0	-64.4	3.6	8.45e-01	0	35	104	0	60	80829
2026-01-08 00:51:26.98	119.41	4.11	-52.0	-64.4	3.6	8.46e-01	0	35	104	0	60	80805
2026-01-08 00:51:27.99	119.37	4.18	-52.0	-64.4	3.5	8.46e-01	0	35	104	0	60	80486
2026-01-08 00:51:29.00	119.32	4.24	-52.0	-64.4	3.5	8.45e-01	0	35	104	0	60	80703
2026-01-08 00:51:30.01	119.28	4.31	-52.0	-64.4	3.6	8.45e-01	0	35	104	0	60	81322
2026-01-08 00:51:31.02	119.23	4.38	-52.0	-64.3	3.6	8.46e-01	0	35	104	0	60	80377
2026-01-08 00:51:32.03	119.18	4.44	-52.0	-64.4	3.6	8.46e-01	0	35	104	0	60	80867
2026-01-08 00:51:33.04	119.14	4.51	-52.0	-64.4	3.6	8.44e-01	0	35	104	0	60	80707
2026-01-08 00:51:34.05	119.09	4.58	-52.0	-64.4	3.6	8.45e-01	0	35	104	0	60	80630
2026-01-08 00:51:35.07	119.04	4.65	-52.0	-64.4	3.6	8.46e-01	0	35	104	0	60	81110
2026-01-08 00:51:36.08	119.00	4.72	-52.0	-64.4	3.6	8.46e-01	0	35	104	0	60	80693
2026-01-08 00:51:37.09	118.95	4.78	-52.0	-64.4	3.6	8.46e-01	0	35	104	0	60	80790
2026-01-08 00:51:38.10	118.90	4.85	-52.0	-64.4	3.6	8.47e-01	0	35	104	0	60	80752
2026-01-08 00:51:39.11	118.85	4.92	-52.0	-64.4	3.6	8.45e-01	0	35	104	0	60	80620
2026-01-08 00:51:40.12	118.81	4.99	-52.0	-64.4	3.6	8.45e-01	0	35	104	0	60	81066
2026-01-08 00:51:41.13	118.76	5.06	-52.0	-64.4	3.6	8.45e-01	0	35	104	0	60	80657
2026-01-08 00:51:42.14	118.71	5.13	-52.0	-64.4	3.6	8.47e-01	0	35	104	0	60	80697
2026-01-08 00:51:43.15	118.66	5.20	-52.0	-64.4	3.6	8.45e-01	0	35	104	0	60	80533
2026-01-08 00:51:44.17	118.61	5.27	-52.0	-64.4	3.6	8.46e-01	0	35	104	0	60	80993
2026-01-08 00:51:45.18	118.56	5.34	-52.0	-64.4	3.6	8.45e-01	0	35	104	0	60	80864
2026-01-08 00:51:46.19	118.51	5.41	-52.0	-64.4	3.5	8.45e-01	0	35	104	0	60	80988
2026-01-08 00:51:47.20	118.46	5.47	-52.0	-64.4	3.6	8.44e-01	0	35	104	0	60	80759
2026-01-08 00:51:48.21	118.42	5.54	-52.0	-64.4	3.6	8.46e-01	0	35	104	0	60	80811
2026-01-08 00:51:49.22	118.37	5.61	-52.0	-64.4	3.6	8.45e-01	0	35	104	0	60	80778
2026-01-08 00:51:50.23	118.31	5.69	-52.0	-64.4	3.6	8.46e-01	0	35	104	0	60	80671
2026-01-08 00:51:51.24	118.26	5.76	-52.0	-64.4	3.6	8.46e-01	0	35	104	0	60	80468
2026-01-08 00:51:52.25	118.21	5.83	-52.0	-64.4	3.6	8.45e-01	0	35	104	0	60	80612
2026-01-08 00:51:53.26	118.16	5.90	-52.0	-64.4	3.6	8.45e-01	0	35	104	0	60	80493
2026-01-08 00:51:54.27	118.11	5.97	-52.0	-64.4	3.6	8.46e-01	0	35	104	0	60	80846
2026-01-08 00:51:55.28	118.06	6.04	-52.0	-64.4	3.6	8.45e-01	0	35	104	0	60	80505
2026-01-08 00:51:56.30	118.01	6.11	-52.0	-64.4	3.6	8.44e-01	0	35	104	0	60	80977
2026-01-08 00:51:57.30	117.96	6.18	-52.0	-64.4	3.6	8.44e-01	0	35	104	0	60	80722
2026-01-08 00:51:58.32	117.90	6.25	-52.0	-64.4	3.6	8.44e-01	0	35	104	0	60	80868
2026-01-08 00:51:59.33	117.85	6.33	-52.0	-64.3	3.6	8.46e-01	0	35	104	0	60	80386
2026-01-08 00:52:00.32	117.80	6.40	-52.0	-64.4	3.6	8.45e-01	0	35	104	0	60	80998
2026-01-08 00:52:01.33	117.74	6.47	-52.0	-64.4	3.6	8.45e-01	0	35	104	0	60	81245
2026-01-08 00:52:02.34	117.69	6.54	-52.0	-64.4	3.6	8.45e-01	0	35	104	0	60	80960
2026-01-08 00:52:03.35	117.64	6.61	-52.0	-64.4	3.6	8.44e-01	0	35	104	0	60	80515
2026-01-08 00:52:04.36	117.58	6.69	-52.0	-64.4	3.6	8.45e-01	0	35	104	0	60	81220
2026-01-08 00:52:05.37	117.53	6.76	-52.0	-64.4	3.6	8.45e-01	0	35	104	0	60	80664
2026-01-08 00:52:06.39	117.47	6.83	-52.0	-64.4	3.6	8.45e-01	0	35	104	0	60	80854
2026-01-08 00:52:07.40	117.42	6.91	-52.0	-64.4	3.6	8.45e-01	0	35	104	0	60	80859
2026-01-08 00:52:08.41	117.36	6.98	-52.0	-64.4	3.6	8.46e-01	0	35	104	0	60	80512
2026-01-08 00:52:09.42	117.31	7.05	-52.0	-64.4	3.6	8.44e-01	0	35	104	0	60	80566
2026-01-08 00:52:10.43	117.25	7.13	-52.0	-64.4	3.6	8.45e-01	0	35	104	0	60	81077
2026-01-08 00:52:11.44	117.20	7.20	-52.0	-64.4	3.5	8.46e-01	0	35	104	0	60	80897
2026-01-08 00:52:12.45	117.14	7.27	-52.0	-64.4	3.6	8.45e-01	0	35	104	0	60	80570
2026-01-08 00:52:13.46	117.08	7.35	-52.0	-64.4	3.6	8.45e-01	0	35	104	0	60	80590
2026-01-08 00:52:14.47	117.03	7.42	-52.0	-64.4	3.6	8.45e-01	0	35	104	0	60	80770
2026-01-08 00:52:15.49	116.97	7.50	-52.0	-64.4	3.6	8.46e-01	0	35	104	0	60	80766
2026-01-08 00:52:16.50	116.91	7.57	-52.0	-64.4	3.6	8.45e-01	0	35	104	0	60	80837
2026-01-08 00:52:17.51	116.85	7.65	-52.0	-64.4	3.6	8.46e-01	0	35	104	0	60	80676
2026-01-08 00:52:18.52	116.79	7.72	-52.0	-64.4	3.6	8.44e-01	0	35	104	0	60	80931
2026-01-08 00:52:19.53	116.74	7.80	-52.0	-64.4	3.5	8.44e-01	0	35	104	0	60	80650
2026-01-08 00:52:20.54	116.68	7.87	-52.0	-64.4	3.6	8.45e-01	0	35	104	0	60	80890
2026-01-08 00:52:21.55	116.62	7.95	-52.0	-64.4	3.6	8.45e-01	0	35	104	0	60	81188
2026-01-08 00:52:22.56	116.56	8.03	-52.0	-64.4	3.6	8.44e-01	0	35	104	0	60	80719
2026-01-08 00:52:23.57	116.50	8.10	-52.0	-64.4	3.6	8.46e-01	0	35	104	0	60	80609
2026-01-08 00:52:24.58	116.44	8.18	-52.0	-64.4	3.6	8.46e-01	0	35	104	0	60	81041
2026-01-08 00:52:25.59	116.38	8.26	-52.0	-64.4	3.6	8.44e-01	0	35	104	0	60	81095
2026-01-08 00:52:26.61	116.32	8.33	-52.0	-64.4	3.6	8.45e-01	0	35	104	0	60	81221
2026-01-08 00:52:27.62	116.25	8.41	-52.0	-64.4	3.6	8.45e-01	0	35	104	0	60	80896
2026-01-08 00:52:28.63	116.19	8.49	-52.0	-64.4	3.6	8.46e-01	0	35	104	0	60	81237
2026-01-08 00:52:29.64	116.13	8.57	-52.0	-64.4	3.6	8.45e-01	0	35	104	0	60	80710
2026-01-08 00:52:30.65	116.07	8.64	-52.0	-64.4	3.6	8.45e-01	0	35	104	0	60	80763
2026-01-08 00:52:31.66	116.01	8.72	-52.0	-64.4	3.6	8.45e-01	0	35	104	0	60	80960
2026-01-08 00:52:32.67	115.94	8.80	-52.0	-64.4	3.6	8.45e-01	0	35	104	0	60	80681
2026-01-08 00:52:33.68	115.88	8.88	-52.0	-64.3	3.6	8.45e-01	0	35	104	0	60	80363
2026-01-08 00:52:34.69	115.82	8.96	-52.1	-64.4	3.6	8.46e-01	0	35	104	0	60	80603
2026-01-08 00:52:35.70	115.75	9.03	-52.0	-64.4	3.6	8.45e-01	0	35	104	0	60	80569
2026-01-08 00:52:36.72	115.69	9.11	-52.0	-64.4	3.6	8.45e-01	0	35	104	0	60	80770
2026-01-08 00:52:37.73	115.62	9.19	-52.1	-64.4	3.6	8.45e-01	0	35	104	0	60	80950
2026-01-08 00:52:38.74	115.56	9.27	-52.0	-64.4	3.6	8.45e-01	0	35	104	0	60	81035
2026-01-08 00:52:39.75	115.49	9.35	-52.0	-64.3	3.6	8.45e-01	0	35	104	0	60	80304
2026-01-08 00:52:40.76	115.43	9.43	-52.0	-64.4	3.6	8.45e-01	0	36	104	0	60	80549
2026-01-08 00:52:41.77	115.36	9.51	-52.0	-64.4	3.6	8.46e-01	0	35	104	0	60	80844
2026-01-08 00:52:42.78	115.29	9.59	-52.0	-64.4	3.6	8.44e-01	0	35	104	0	60	80870
2026-01-08 00:52:43.79	115.23	9.67	-52.0	-64.4	3.6	8.45e-01	0	35	104	0	60	80647
2026-01-08 00:52:44.81	115.16	9.75	-52.0	-64.4	3.6	8.46e-01	0	35	104	0	60	80848
2026-01-08 00:52:45.82	115.09	9.84	-52.0	-64.4	3.6	8.46e-01	0	35	104	0	60	80835
2026-01-08 00:52:46.83	115.02	9.92	-52.0	-64.4	3.6	8.45e-01	0	35	104	0	60	80900
2026-01-08 00:52:47.84	114.95	10.00	-52.0	-64.4	3.6	8.45e-01	0	35	104	0	60	80610
2026-01-08 00:52:48.85	114.88	10.08	-52.0	-64.4	3.6	8.44e-01	0	35	104	0	60	80708
2026-01-08 00:52:49.86	114.81	10.16	-52.0	-64.4	3.6	8.45e-01	0	35	104	0	60	80598
2026-01-08 00:52:50.87	114.74	10.24	-52.0	-64.4	3.6	8.45e-01	0	35	104	0	60	80705
2026-01-08 00:52:51.88	114.67	10.33	-52.0	-64.4	3.6	8.45e-01	0	36	104	0	60	80981
2026-01-08 00:52:52.89	114.60	10.41	-52.0	-64.3	3.6	8.46e-01	0	35	104	0	60	80320
2026-01-08 00:52:53.90	114.53	10.49	-52.0	-64.4	3.6	8.45e-01	0	35	104	0	60	80898
2026-01-08 00:52:54.91	114.46	10.57	-52.0	-64.4	3.6	8.44e-01	0	36	104	0	60	80758
2026-01-08 00:52:55.92	114.39	10.66	-52.0	-64.3	3.6	8.46e-01	0	35	104	0	60	80112
2026-01-08 00:52:56.93	114.32	10.74	-52.0	-64.4	3.6	8.46e-01	0	35	104	0	60	80707
2026-01-08 00:52:57.95	114.24	10.82	-52.0	-64.4	3.6	8.45e-01	0	35	104	0	60	80539
2026-01-08 00:52:58.96	114.17	10.91	-52.0	-64.4	3.6	8.45e-01	0	35	104	0	60	80763
2026-01-08 00:52:59.97	114.10	10.99	-52.0	-64.4	3.6	8.46e-01	0	35	104	0	60	80512
2026-01-08 00:53:00.98	114.02	11.08	-52.0	-64.4	3.6	8.45e-01	0	35	104	0	60	80689
2026-01-08 00:53:01.99	113.95	11.16	-52.0	-64.4	3.5	8.45e-01	0	36	104	0	60	80532
2026-01-08 00:53:03.00	113.87	11.25	-52.0	-64.4	3.6	8.45e-01	0	35	104	0	60	81084
2026-01-08 00:53:04.01	113.80	11.33	-52.0	-64.4	3.6	8.45e-01	0	35	104	0	60	80801
2026-01-08 00:53:05.02	113.72	11.42	-52.1	-64.3	3.6	8.45e-01	0	36	104	0	60	80431
2026-01-08 00:53:06.04	113.64	11.50	-52.0	-64.4	3.6	8.45e-01	0	36	104	0	60	80585
2026-01-08 00:53:07.04	113.57	11.59	-52.0	-64.3	3.5	8.45e-01	0	35	104	0	60	80374
2026-01-08 00:53:08.06	113.49	11.68	-52.0	-64.3	3.6	8.46e-01	0	35	104	0	60	80253
2026-01-08 00:53:09.07	113.41	11.76	-52.0	-64.3	3.6	8.46e-01	0	35	104	0	60	80395
2026-01-08 00:53:10.08	113.33	11.85	-52.0	-64.4	3.6	8.46e-01	0	35	104	0	60	81303
2026-01-08 00:53:11.09	113.26	11.94	-52.0	-64.4	3.6	8.45e-01	0	35	104	0	60	80962
2026-01-08 00:53:12.10	113.18	12.02	-52.0	-64.4	3.6	8.46e-01	0	35	104	0	60	80828
2026-01-08 00:53:13.11	113.10	12.11	-52.0	-64.4	3.6	8.45e-01	0	35	104	0	60	81065
2026-01-08 00:53:14.12	113.02	12.20	-52.0	-64.4	3.6	8.46e-01	0	35	104	0	60	81036
2026-01-08 00:53:15.13	112.94	12.29	-52.0	-64.4	3.6	8.45e-01	0	36	104	0	60	80766
2026-01-08 00:53:16.14	112.86	12.37	-52.0	-64.4	3.6	8.46e-01	0	35	104	0	60	80934
2026-01-08 00:53:17.15	112.77	12.46	-52.0	-64.4	3.6	8.46e-01	0	35	104	0	60	80915
2026-01-08 00:53:18.16	112.69	12.55	-52.0	-64.4	3.6	8.45e-01	0	35	104	0	60	81021
2026-01-08 00:53:19.18	112.61	12.64	-52.1	-64.4	3.6	8.44e-01	0	36	104	0	60	80976
2026-01-08 00:53:20.19	112.53	12.73	-52.0	-64.4	3.6	8.46e-01	0	35	104	0	60	80713
2026-01-08 00:53:21.20	112.44	12.82	-52.0	-64.3	3.6	8.44e-01	0	35	104	0	60	80405
2026-01-08 00:53:22.21	112.36	12.91	-52.0	-64.4	3.6	8.45e-01	0	35	104	0	60	80745
2026-01-08 00:53:23.22	112.27	13.00	-52.0	-64.4	3.6	8.45e-01	0	36	104	0	60	81178
2026-01-08 00:53:24.23	112.19	13.09	-52.0	-64.4	3.6	8.46e-01	0	35	104	0	60	80772
2026-01-08 00:53:25.24	112.10	13.18	-52.0	-64.4	3.6	8.47e-01	0	35	104	0	60	80958
2026-01-08 00:53:26.25	112.01	13.27	-52.0	-64.4	3.6	8.46e-01	0	35	104	0	60	80606
2026-01-08 00:53:27.26	111.93	13.36	-52.0	-64.4	3.6	8.44e-01	0	35	104	0	60	80912
2026-01-08 00:53:28.27	111.84	13.45	-52.0	-64.4	3.6	8.46e-01	0	35	104	0	60	80599
2026-01-08 00:53:29.28	111.75	13.55	-52.0	-64.4	3.6	8.45e-01	0	35	104	0	60	80657
2026-01-08 00:53:30.30	111.66	13.64	-52.0	-64.4	3.6	8.45e-01	0	35	104	0	60	81012
2026-01-08 00:53:31.31	111.57	13.73	-52.0	-64.4	3.6	8.45e-01	0	35	104	0	60	81012
2026-01-08 00:53:32.32	111.48	13.82	-52.0	-64.3	3.6	8.45e-01	0	35	104	0	60	80309
2026-01-08 00:53:33.33	111.39	13.92	-52.0	-64.4	3.6	8.46e-01	0	35	104	0	60	80824
2026-01-08 00:53:34.34	111.30	14.01	-52.0	-64.4	3.6	8.46e-01	0	35	104	0	60	80932
2026-01-08 00:53:35.35	111.21	14.10	-52.0	-64.4	3.6	8.46e-01	0	35	104	0	60	80815
2026-01-08 00:53:36.36	111.12	14.20	-52.0	-64.4	3.6	8.46e-01	0	36	104	0	60	80728
2026-01-08 00:53:37.37	111.03	14.29	-52.0	-64.4	3.6	8.46e-01	0	36	104	0	60	80938
2026-01-08 00:53:38.38	110.93	14.38	-52.0	-64.4	3.6	8.45e-01	0	35	104	0	60	80932
2026-01-08 00:53:39.39	110.84	14.48	-52.0	-64.4	3.6	8.45e-01	0	36	104	0	60	80897
2026-01-08 00:53:40.40	110.74	14.57	-52.0	-64.4	3.6	8.45e-01	0	36	104	0	60	80575
2026-01-08 00:53:41.42	110.65	14.67	-52.0	-64.4	3.6	8.45e-01	0	36	104	0	60	80760
2026-01-08 00:53:42.43	110.55	14.76	-52.0	-64.4	3.6	8.46e-01	0	36	104	0	60	81254
2026-01-08 00:53:43.44	110.46	14.86	-52.0	-64.4	3.6	8.45e-01	0	36	104	0	60	80555
2026-01-08 00:53:44.45	110.36	14.96	-52.0	-64.4	3.6	8.46e-01	0	36	104	0	60	80918
2026-01-08 00:53:45.46	110.26	15.05	-52.0	-64.4	3.6	8.45e-01	0	36	104	0	60	80594
2026-01-08 00:53:46.47	110.16	15.15	-52.1	-64.4	3.6	8.45e-01	0	35	104	0	60	80747
2026-01-08 00:53:47.48	110.06	15.25	-52.0	-64.4	3.6	8.45e-01	0	36	104	0	60	81176
2026-01-08 00:53:48.49	109.96	15.34	-52.0	-64.4	3.6	8.45e-01	0	35	104	0	60	80802
2026-01-08 00:53:49.50	109.86	15.44	-52.0	-64.4	3.6	8.45e-01	0	36	104	0	60	80620
2026-01-08 00:53:50.51	109.76	15.54	-52.0	-64.3	3.6	8.46e-01	0	36	104	0	60	80421
2026-01-08 00:53:51.53	109.66	15.64	-52.0	-64.3	3.6	8.45e-01	0	35	104	0	60	80276
2026-01-08 00:53:52.54	109.56	15.74	-52.0	-64.4	3.6	8.43e-01	0	36	104	0	60	81029
2026-01-08 00:53:53.55	109.45	15.83	-52.0	-64.4	3.6	8.45e-01	0	36	104	0	60	80602
2026-01-08 00:53:54.56	109.35	15.93	-52.0	-64.4	3.6	8.46e-01	0	36	104	0	60	80678
2026-01-08 00:53:55.57	109.25	16.03	-52.0	-64.4	3.6	8.44e-01	0	35	104	0	60	80844
2026-01-08 00:53:56.58	109.14	16.13	-52.0	-64.3	3.6	8.45e-01	0	36	104	0	60	80441
2026-01-08 00:53:57.59	109.03	16.23	-52.0	-64.4	3.6	8.45e-01	0	36	104	0	60	80738
2026-01-08 00:53:58.60	108.93	16.33	-52.0	-64.4	3.6	8.45e-01	0	36	104	0	60	80838
2026-01-08 00:53:59.61	108.82	16.43	-52.0	-64.4	3.6	8.45e-01	0	36	104	0	60	80482
2026-01-08 00:54:00.62	108.71	16.53	-52.0	-64.4	3.6	8.45e-01	0	36	104	0	60	80784
2026-01-08 00:54:01.63	108.60	16.63	-52.0	-64.4	3.6	8.46e-01	0	36	104	0	60	80697
2026-01-08 00:54:02.64	108.49	16.74	-52.1	-64.4	3.6	8.45e-01	0	36	104	0	60	80683
2026-01-08 00:54:03.66	108.38	16.84	-52.0	-64.4	3.6	8.45e-01	0	36	104	0	60	80879
2026-01-08 00:54:04.67	108.27	16.94	-52.0	-64.4	3.6	8.45e-01	0	36	104	0	60	80635
2026-01-08 00:54:05.68	108.16	17.04	-52.0	-64.4	3.6	8.45e-01	0	36	104	0	60	80944
2026-01-08 00:54:06.69	108.05	17.14	-52.0	-64.4	3.6	8.45e-01	0	36	104	0	60	80596
2026-01-08 00:54:07.70	107.93	17.25	-52.0	-64.4	3.6	8.45e-01	0	36	104	0	60	80495
2026-01-08 00:54:08.71	107.82	17.35	-52.0	-64.4	3.6	8.44e-01	0	35	104	0	60	80941
2026-01-08 00:54:09.72	107.70	17.45	-52.0	-64.4	3.6	8.45e-01	0	36	104	0	60	81063
2026-01-08 00:54:10.73	107.59	17.56	-52.0	-64.4	3.6	8.45e-01	0	36	104	0	60	80758
2026-01-08 00:54:11.74	107.47	17.66	-52.0	-64.4	3.6	8.46e-01	0	36	104	0	60	80883
2026-01-08 00:54:12.75	107.35	17.77	-52.0	-64.4	3.6	8.45e-01	0	36	104	0	60	80761
2026-01-08 00:54:13.77	107.23	17.87	-52.0	-64.4	3.6	8.45e-01	0	36	104	0	60	80666
2026-01-08 00:54:14.78	107.11	17.98	-52.0	-64.4	3.6	8.45e-01	0	36	104	0	60	80775
2026-01-08 00:54:15.79	106.99	18.08	-52.0	-64.4	3.6	8.45e-01	0	36	104	0	60	80739
2026-01-08 00:54:16.80	106.87	18.19	-52.0	-64.4	3.6	8.46e-01	0	36	104	0	60	80537
2026-01-08 00:54:17.81	106.75	18.30	-52.0	-64.4	3.6	8.45e-01	0	36	104	0	60	80713
2026-01-08 00:54:18.82	106.63	18.40	-52.0	-64.3	3.6	8.45e-01	0	36	104	0	60	80402
2026-01-08 00:54:19.83	106.50	18.51	-52.0	-64.4	3.6	8.45e-01	0	36	104	0	60	81023
2026-01-08 00:54:20.76	106.39	18.61	-52.0	-64.4	3.6	8.44e-01	0	36	104	0	60	80591
2026-01-08 00:54:21.77	106.26	18.71	-52.0	-64.4	3.6	8.44e-01	0	36	104	0	60	80838
2026-01-08 00:54:22.79	106.14	18.82	-52.0	-64.4	3.6	8.45e-01	0	36	104	0	60	80979
2026-01-08 00:54:23.80	106.01	18.93	-52.0	-64.4	3.6	8.45e-01	0	36	104	0	60	80470
2026-01-08 00:54:24.81	105.88	19.04	-52.0	-64.4	3.6	8.44e-01	0	36	104	0	60	80546
2026-01-08 00:54:25.82	105.75	19.15	-52.1	-64.4	3.6	8.44e-01	0	36	104	0	60	81007
2026-01-08 00:54:26.83	105.62	19.26	-52.1	-64.4	3.6	8.44e-01	0	36	104	0	60	80654
2026-01-08 00:54:27.84	105.49	19.37	-52.0	-64.4	3.6	8.45e-01	0	36	104	0	60	80618
2026-01-08 00:54:28.85	105.36	19.48	-52.0	-64.4	3.6	8.46e-01	0	36	104	0	60	80841
2026-01-08 00:54:29.86	105.23	19.59	-52.0	-64.4	3.6	8.45e-01	0	36	104	0	60	80559
2026-01-08 00:54:30.87	105.09	19.70	-52.0	-64.4	3.6	8.46e-01	0	36	104	0	60	80718
2026-01-08 00:54:31.89	104.96	19.81	-52.0	-64.4	3.6	8.45e-01	0	36	104	0	60	80837
2026-01-08 00:54:32.90	104.82	19.92	-52.0	-64.4	3.6	8.45e-01	0	36	104	0	60	81021
2026-01-08 00:54:33.91	104.68	20.03	-52.0	-64.4	3.6	8.45e-01	0	36	104	0	60	80983
2026-01-08 00:54:34.92	104.55	20.14	-52.0	-64.4	3.6	8.45e-01	0	36	104	0	60	80784
2026-01-08 00:54:35.93	104.41	20.25	-52.0	-64.4	3.6	8.45e-01	0	36	104	0	60	81064
2026-01-08 00:54:36.94	104.27	20.37	-52.0	-64.4	3.5	8.45e-01	0	36	104	0	60	80850
2026-01-08 00:54:37.95	104.13	20.48	-52.0	-64.4	3.6	8.46e-01	0	36	104	0	60	80552
2026-01-08 00:54:38.96	103.99	20.59	-52.0	-64.4	3.6	8.45e-01	0	36	104	0	60	80971
2026-01-08 00:54:39.97	103.84	20.71	-52.0	-64.4	3.6	8.47e-01	0	36	104	0	60	80693
2026-01-08 00:54:40.98	103.70	20.82	-52.0	-64.3	3.6	8.47e-01	0	36	104	0	60	80439
2026-01-08 00:54:41.99	103.55	20.93	-52.0	-64.4	3.6	8.44e-01	0	36	104	0	60	81166
2026-01-08 00:54:43.01	103.40	21.05	-52.0	-64.4	3.6	8.45e-01	0	36	104	0	60	80597
2026-01-08 00:54:44.02	103.26	21.16	-52.0	-64.4	3.6	8.45e-01	0	36	104	0	60	81033
2026-01-08 00:54:45.03	103.11	21.28	-52.0	-64.4	3.6	8.45e-01	0	36	104	0	60	80666
2026-01-08 00:54:46.04	102.96	21.39	-52.0	-64.5	3.6	8.44e-01	0	36	104	0	60	81462
2026-01-08 00:54:47.05	102.81	21.51	-52.0	-64.4	3.6	8.45e-01	0	36	104	0	60	80813
2026-01-08 00:54:48.06	102.66	21.62	-52.0	-64.4	3.6	8.45e-01	0	36	104	0	60	80798
2026-01-08 00:54:49.07	102.50	21.74	-52.0	-64.4	3.6	8.46e-01	0	36	104	0	60	80873
2026-01-08 00:54:50.08	102.35	21.86	-52.0	-64.4	3.6	8.44e-01	0	36	104	0	60	80879
2026-01-08 00:54:51.10	102.19	21.97	-52.0	-64.4	3.6	8.45e-01	0	36	104	0	60	80466
2026-01-08 00:54:52.11	102.04	22.09	-52.0	-64.4	3.6	8.45e-01	0	36	104	0	60	80739
2026-01-08 00:54:53.12	101.88	22.21	-52.0	-64.4	3.6	8.46e-01	0	36	104	0	60	80550
2026-01-08 00:54:54.13	101.72	22.32	-52.0	-64.4	3.6	8.45e-01	0	36	104	0	60	80956
2026-01-08 00:54:55.14	101.56	22.44	-52.0	-64.4	3.6	8.45e-01	0	36	104	0	60	80466
2026-01-08 00:54:56.15	101.40	22.56	-52.0	-64.4	3.6	8.45e-01	0	36	104	0	60	80467
2026-01-08 00:54:57.16	101.23	22.68	-52.0	-64.3	3.6	8.45e-01	0	36	104	0	60	80439
2026-01-08 00:54:58.17	101.07	22.80	-52.0	-64.4	3.6	8.45e-01	0	36	104	0	60	80814
2026-01-08 00:54:59.18	100.90	22.92	-52.0	-64.4	3.6	8.46e-01	0	36	104	0	60	80745
2026-01-08 00:55:00.20	100.74	23.04	-52.0	-64.4	3.6	8.44e-01	0	36	104	0	60	80645
2026-01-08 00:55:01.21	100.57	23.16	-52.0	-64.4	3.6	8.44e-01	0	36	104	0	60	80920
2026-01-08 00:55:02.22	100.40	23.28	-52.0	-64.4	3.6	8.47e-01	0	36	104	0	60	80946
2026-01-08 00:55:03.23	100.23	23.40	-52.0	-64.4	3.6	8.46e-01	0	36	104	0	60	80623
2026-01-08 00:55:04.24	100.06	23.52	-52.0	-64.4	3.6	8.46e-01	0	36	104	0	60	80717
2026-01-08 00:55:05.25	99.88	23.64	-52.0	-64.4	3.6	8.45e-01	0	36	104	0	60	80643
2026-01-08 00:55:06.26	99.71	23.76	-52.0	-64.4	3.6	8.46e-01	0	36	104	0	60	81054
2026-01-08 00:55:07.27	99.53	23.88	-52.0	-64.4	3.6	8.46e-01	0	36	104	0	60	80914
2026-01-08 00:55:08.29	99.35	24.00	-52.1	-64.4	3.6	8.45e-01	0	36	104	0	60	80619
2026-01-08 00:55:09.30	99.17	24.13	-52.0	-64.5	3.6	8.45e-01	0	36	104	0	60	81397
2026-01-08 00:55:10.31	98.99	24.25	-52.0	-64.4	3.6	8.44e-01	0	36	104	0	60	80558
2026-01-08 00:55:11.32	98.81	24.37	-52.0	-64.4	3.6	8.46e-01	0	36	104	0	60	81133
2026-01-08 00:55:12.33	98.63	24.49	-52.0	-64.4	3.6	8.45e-01	0	36	104	0	60	80924
2026-01-08 00:55:13.34	98.45	24.61	-52.0	-64.4	3.6	8.45e-01	0	36	104	0	60	80717
2026-01-08 00:55:14.35	98.26	24.74	-52.0	-64.4	3.6	8.45e-01	0	36	104	0	60	80818
2026-01-08 00:55:15.36	98.07	24.86	-52.0	-64.4	3.6	8.45e-01	0	36	104	0	60	80850
2026-01-08 00:55:16.38	97.88	24.99	-52.0	-64.4	3.6	8.45e-01	0	36	104	0	60	80797
2026-01-08 00:55:17.38	97.69	25.11	-52.0	-64.4	3.6	8.46e-01	0	36	104	0	60	80851
2026-01-08 00:55:18.40	97.50	25.23	-52.0	-64.4	3.6	8.46e-01	0	36	104	0	60	81126
2026-01-08 00:55:19.41	97.30	25.36	-52.0	-64.4	3.6	8.43e-01	0	36	104	0	60	81096
2026-01-08 00:55:20.42	97.11	25.48	-52.0	-64.4	3.6	8.46e-01	0	36	104	0	60	81029
2026-01-08 00:55:21.43	96.91	25.61	-52.0	-64.4	3.6	8.46e-01	0	36	104	0	60	80999
2026-01-08 00:55:22.44	96.72	25.73	-52.0	-64.4	3.6	8.45e-01	0	36	104	0	60	80984
2026-01-08 00:55:23.45	96.52	25.86	-52.0	-64.4	3.6	8.46e-01	0	36	104	0	60	80888
2026-01-08 00:55:24.46	96.31	25.98	-52.0	-64.4	3.6	8.45e-01	0	36	104	0	60	81217
2026-01-08 00:55:25.47	96.11	26.11	-52.0	-64.4	3.6	8.44e-01	0	36	104	0	60	81072
2026-01-08 00:55:26.49	95.90	26.23	-52.0	-64.4	3.6	8.45e-01	0	36	104	0	60	80863
2026-01-08 00:55:27.50	95.70	26.36	-52.0	-64.4	3.6	8.45e-01	0	36	104	0	60	80679
2026-01-08 00:55:28.51	95.49	26.49	-52.0	-64.3	3.6	8.45e-01	0	36	104	0	60	80443
2026-01-08 00:55:29.52	95.28	26.61	-52.0	-64.4	3.6	8.46e-01	0	36	104	0	60	80653
2026-01-08 00:55:30.53	95.07	26.74	-52.0	-64.3	3.6	8.46e-01	0	36	104	0	60	80429
2026-01-08 00:55:31.54	94.86	26.87	-52.0	-64.4	3.6	8.45e-01	0	36	104	0	60	80798
2026-01-08 00:55:32.55	94.64	26.99	-52.0	-64.4	3.6	8.46e-01	0	36	104	0	60	81339
2026-01-08 00:55:33.56	94.43	27.12	-52.0	-64.4	3.6	8.45e-01	0	36	104	0	60	80713
2026-01-08 00:55:34.57	94.21	27.25	-52.0	-64.4	3.6	8.45e-01	0	36	104	0	60	80554
2026-01-08 00:55:35.58	93.99	27.37	-52.0	-64.4	3.6	8.45e-01	0	36	104	0	60	80544
2026-01-08 00:55:36.60	93.76	27.50	-52.0	-64.4	3.6	8.44e-01	0	36	104	0	60	80888
2026-01-08 00:55:37.61	93.54	27.63	-52.0	-64.4	3.6	8.45e-01	0	36	104	0	60	80468
2026-01-08 00:55:38.62	93.31	27.76	-52.0	-64.4	3.6	8.46e-01	0	36	104	0	60	80836
2026-01-08 00:55:39.63	93.09	27.88	-52.1	-64.4	3.6	8.47e-01	0	36	104	0	60	81145
2026-01-08 00:55:40.64	92.86	28.01	-52.0	-64.4	3.6	8.45e-01	0	36	104	0	60	80558
2026-01-08 00:55:41.65	92.63	28.14	-52.0	-64.4	3.6	8.45e-01	0	36	104	0	60	80937
2026-01-08 00:55:42.66	92.39	28.27	-52.0	-64.4	3.6	8.44e-01	0	36	104	0	60	80786
2026-01-08 00:55:43.67	92.16	28.39	-52.0	-64.3	3.6	8.46e-01	0	36	104	0	60	80440
2026-01-08 00:55:44.68	91.92	28.52	-52.0	-64.4	3.6	8.46e-01	0	36	104	0	60	80944
2026-01-08 00:55:45.70	91.68	28.65	-52.0	-64.4	3.6	8.45e-01	0	36	104	0	60	81174
2026-01-08 00:55:46.71	91.44	28.78	-52.0	-64.4	3.6	8.45e-01	0	36	104	0	60	80542
2026-01-08 00:55:47.72	91.20	28.91	-52.0	-64.4	3.6	8.45e-01	0	36	104	0	60	80734
2026-01-08 00:55:48.73	90.96	29.03	-52.0	-64.4	3.5	8.46e-01	0	36	104	0	60	80770
2026-01-08 00:55:49.74	90.71	29.16	-52.0	-64.4	3.6	8.45e-01	0	36	104	0	60	80686
2026-01-08 00:55:50.75	90.46	29.29	-52.0	-64.4	3.6	8.45e-01	0	36	104	0	60	80862
2026-01-08 00:55:51.76	90.21	29.42	-52.0	-64.3	3.6	8.45e-01	0	36	104	0	60	80404
2026-01-08 00:55:52.77	89.96	29.54	-52.0	-64.4	3.6	8.46e-01	0	36	104	0	60	80936
2026-01-08 00:55:53.78	89.71	29.67	-52.0	-64.4	3.6	8.45e-01	0	36	104	0	60	80849
2026-01-08 00:55:54.79	89.45	29.80	-52.0	-64.3	3.6	8.45e-01	0	36	104	0	60	80141
2026-01-08 00:55:55.80	89.19	29.93	-52.0	-64.4	3.6	8.45e-01	0	36	104	0	60	80575
2026-01-08 00:55:56.82	88.93	30.06	-52.0	-64.4	3.6	8.45e-01	0	36	104	0	60	80544
2026-01-08 00:55:57.83	88.67	30.18	-52.0	-64.4	3.6	8.46e-01	0	36	104	0	60	80791
2026-01-08 00:55:58.84	88.40	30.31	-52.0	-64.4	3.6	8.45e-01	0	36	104	0	60	80677
2026-01-08 00:55:59.85	88.13	30.44	-52.0	-64.4	3.6	8.46e-01	0	36	104	0	60	80727
2026-01-08 00:56:00.86	87.87	30.56	-52.0	-64.4	3.6	8.46e-01	0	36	104	0	60	81015
2026-01-08 00:56:01.87	87.59	30.69	-52.0	-64.4	3.6	8.46e-01	0	36	104	0	60	80505
2026-01-08 00:56:02.88	87.32	30.82	-52.0	-64.4	3.6	8.45e-01	0	36	104	0	60	81079
2026-01-08 00:56:03.89	87.05	30.94	-52.0	-64.3	3.6	8.43e-01	0	36	104	0	60	80455
2026-01-08 00:56:04.90	86.77	31.07	-52.0	-64.4	3.6	8.45e-01	0	36	104	0	60	80720
2026-01-08 00:56:05.92	86.49	31.20	-52.0	-64.4	3.6	8.45e-01	0	36	104	0	60	80961
2026-01-08 00:56:06.93	86.21	31.32	-52.0	-64.4	3.6	8.45e-01	0	36	104	0	60	80829
2026-01-08 00:56:07.94	85.92	31.45	-52.0	-64.4	3.6	8.45e-01	0	36	104	0	60	80482
2026-01-08 00:56:08.95	85.64	31.57	-52.0	-64.4	3.6	8.46e-01	0	36	104	0	60	80505
2026-01-08 00:56:09.96	85.35	31.70	-52.0	-64.3	3.6	8.44e-01	0	36	104	0	60	80372
2026-01-08 00:56:10.97	85.06	31.82	-52.0	-64.4	3.6	8.46e-01	0	36	104	0	60	80764
2026-01-08 00:56:11.98	84.76	31.95	-52.0	-64.4	3.5	8.45e-01	0	36	104	0	60	80726
2026-01-08 00:56:12.99	84.47	32.07	-52.0	-64.4	3.6	8.45e-01	0	36	104	0	60	80473
2026-01-08 00:56:14.00	84.17	32.19	-52.0	-64.4	3.6	8.45e-01	0	36	104	0	60	80827
2026-01-08 00:56:15.01	83.87	32.32	-52.0	-64.3	3.6	8.44e-01	0	36	104	0	60	80456
2026-01-08 00:56:16.02	83.57	32.44	-52.0	-64.4	3.6	8.46e-01	0	36	104	0	60	80624
2026-01-08 00:56:17.04	83.26	32.56	-52.0	-64.4	3.6	8.44e-01	0	36	104	0	60	81120
2026-01-08 00:56:18.05	82.96	32.68	-52.0	-64.4	3.6	8.46e-01	0	36	104	0	60	80901
2026-01-08 00:56:19.06	82.65	32.81	-52.0	-64.4	3.6	8.46e-01	0	36	104	0	60	80569
2026-01-08 00:56:20.07	82.34	32.93	-52.0	-64.4	3.6	8.45e-01	0	36	104	0	60	80947
2026-01-08 00:56:21.08	82.02	33.05	-52.0	-64.4	3.6	8.46e-01	0	36	104	0	60	80762
2026-01-08 00:56:22.09	81.71	33.17	-52.0	-64.4	3.6	8.45e-01	0	36	104	0	60	80756
2026-01-08 00:56:23.10	81.39	33.29	-52.0	-64.3	3.6	8.45e-01	0	36	104	0	60	80077
2026-01-08 00:56:24.11	81.07	33.41	-52.0	-64.4	3.6	8.46e-01	0	36	104	0	60	80686
2026-01-08 00:56:25.12	80.74	33.52	-52.0	-64.4	3.5	8.43e-01	0	36	104	0	60	80801
2026-01-08 00:56:26.14	80.42	33.64	-52.0	-64.3	3.6	8.45e-01	0	36	104	0	60	80331
2026-01-08 00:56:27.14	80.09	33.76	-52.0	-64.4	3.6	8.45e-01	0	36	104	0	60	80804
2026-01-08 00:56:28.15	79.76	33.88	-52.0	-64.3	3.6	8.45e-01	0	36	104	0	60	80301
2026-01-08 00:56:29.17	79.43	33.99	-52.0	-64.4	3.6	8.45e-01	0	36	104	0	60	80617
2026-01-08 00:56:30.18	79.09	34.11	-52.0	-64.4	3.6	8.46e-01	0	36	104	0	60	80476
2026-01-08 00:56:31.19	78.75	34.22	-52.0	-64.4	3.6	8.45e-01	0	36	104	0	60	80776
2026-01-08 00:56:32.20	78.41	34.34	-52.0	-64.4	3.6	8.45e-01	0	36	104	0	60	80658
2026-01-08 00:56:33.21	78.07	34.45	-52.0	-64.4	3.6	8.46e-01	0	36	104	0	60	80519
2026-01-08 00:56:34.22	77.73	34.56	-52.0	-64.4	3.6	8.45e-01	0	36	104	0	60	80655
2026-01-08 00:56:35.23	77.38	34.67	-52.0	-64.4	3.6	8.46e-01	0	36	104	0	60	80893
2026-01-08 00:56:36.24	77.03	34.78	-52.0	-64.4	3.6	8.45e-01	0	36	104	0	60	81247
2026-01-08 00:56:37.25	76.68	34.89	-52.0	-64.4	3.6	8.46e-01	0	36	104	0	60	80735
2026-01-08 00:56:38.27	76.32	35.00	-52.0	-64.4	3.6	8.46e-01	0	36	104	0	60	80509
2026-01-08 00:56:39.28	75.97	35.11	-52.0	-64.4	3.6	8.47e-01	0	36	104	0	60	80928
2026-01-08 00:56:40.29	75.61	35.22	-52.0	-64.4	3.6	8.45e-01	0	36	104	0	60	81129
2026-01-08 00:56:41.30	75.25	35.32	-52.0	-64.4	3.6	8.46e-01	0	36	104	0	60	80925
2026-01-08 00:56:42.31	74.88	35.43	-52.0	-64.4	3.6	8.45e-01	0	36	104	0	60	80893
2026-01-08 00:56:43.32	74.52	35.53	-52.0	-64.4	3.6	8.46e-01	0	36	104	0	60	80897
2026-01-08 00:56:44.33	74.15	35.64	-52.0	-64.4	3.6	8.46e-01	0	36	104	0	60	80543
2026-01-08 00:56:45.34	73.78	35.74	-52.0	-64.4	3.6	8.46e-01	0	36	104	0	60	80956
2026-01-08 00:56:46.36	73.40	35.84	-52.0	-64.4	3.6	8.45e-01	0	36	104	0	60	80873
2026-01-08 00:56:47.37	73.03	35.94	-52.0	-64.4	3.6	8.46e-01	0	36	104	0	60	81184
2026-01-08 00:56:48.37	72.66	36.04	-52.0	-64.4	3.6	8.46e-01	0	36	104	0	60	80717
2026-01-08 00:56:49.39	72.27	36.14	-52.0	-64.4	3.6	8.45e-01	0	36	104	0	60	81002
2026-01-08 00:56:50.40	71.89	36.23	-52.0	-64.4	3.6	8.46e-01	0	36	104	0	60	80663
2026-01-08 00:56:51.41	71.51	36.33	-52.0	-64.3	3.6	8.45e-01	0	36	104	0	60	80445
2026-01-08 00:56:52.42	71.12	36.42	-52.0	-64.4	3.6	8.44e-01	0	36	104	0	60	80557
2026-01-08 00:56:53.43	70.73	36.52	-52.0	-64.4	3.6	8.45e-01	0	36	104	0	60	80465
2026-01-08 00:56:54.44	70.34	36.61	-52.0	-64.4	3.6	8.46e-01	0	36	104	0	60	80551
2026-01-08 00:56:55.45	69.95	36.70	-52.0	-64.4	3.6	8.45e-01	0	36	104	0	60	80692
2026-01-08 00:56:56.46	69.55	36.79	-52.0	-64.4	3.6	8.46e-01	0	36	104	0	60	80735
2026-01-08 00:56:57.47	69.15	36.88	-52.0	-64.4	3.6	8.45e-01	0	36	104	0	60	80904
2026-01-08 00:56:58.48	68.75	36.96	-52.0	-64.4	3.6	8.45e-01	0	36	104	0	60	80767
2026-01-08 00:56:59.49	68.35	37.05	-52.0	-64.4	3.6	8.45e-01	0	36	104	0	60	80899
2026-01-08 00:57:00.50	67.95	37.13	-52.0	-64.4	3.6	8.45e-01	0	36	104	0	60	80823
2026-01-08 00:57:01.52	67.54	37.22	-52.0	-64.4	3.6	8.44e-01	0	36	104	0	60	80776
2026-01-08 00:57:02.53	67.13	37.30	-52.0	-64.4	3.6	8.44e-01	0	36	104	0	60	80670
2026-01-08 00:57:03.54	66.72	37.38	-52.0	-64.4	3.6	8.45e-01	0	36	104	0	60	80782
2026-01-08 00:57:04.55	66.31	37.45	-52.0	-64.4	3.6	8.45e-01	0	36	104	0	60	81008
2026-01-08 00:57:05.56	65.90	37.53	-52.0	-64.4	3.6	8.45e-01	0	36	104	0	60	80867
2026-01-08 00:57:06.57	65.48	37.61	-52.0	-64.4	3.6	8.45e-01	0	36	104	0	60	80554
2026-01-08 00:57:07.58	65.06	37.68	-52.0	-64.4	3.6	8.46e-01	0	36	104	0	60	80685
2026-01-08 00:57:08.59	64.64	37.75	-52.0	-64.4	3.6	8.45e-01	0	36	104	0	60	80749
2026-01-08 00:57:09.60	64.22	37.82	-52.0	-64.4	3.6	8.46e-01	0	36	104	0	60	81119
2026-01-08 00:57:10.61	63.80	37.89	-52.0	-64.4	3.6	8.46e-01	0	36	104	0	60	80680
2026-01-08 00:57:11.62	63.37	37.96	-52.0	-64.4	3.6	8.46e-01	0	36	104	0	60	80525
2026-01-08 00:57:12.63	62.95	38.02	-52.0	-64.4	3.6	8.44e-01	0	36	104	0	60	80677
2026-01-08 00:57:13.65	62.51	38.08	-52.0	-64.4	3.6	8.45e-01	0	36	104	0	60	80838
2026-01-08 00:57:14.66	62.08	38.15	-52.0	-64.4	3.6	8.46e-01	0	36	104	0	60	80853
2026-01-08 00:57:15.67	61.65	38.21	-52.0	-64.4	3.6	8.45e-01	0	36	104	0	60	80670
2026-01-08 00:57:16.68	61.22	38.26	-52.0	-64.4	3.6	8.46e-01	0	36	104	0	60	80720
2026-01-08 00:57:17.69	60.79	38.32	-52.0	-64.4	3.6	8.44e-01	0	36	104	0	60	80843
2026-01-08 00:57:18.70	60.35	38.38	-52.0	-64.4	3.6	8.45e-01	0	36	104	0	60	80712
2026-01-08 00:57:19.71	59.91	38.43	-52.0	-64.4	3.6	8.46e-01	0	36	104	0	60	80463
2026-01-08 00:57:20.72	59.47	38.48	-52.0	-64.4	3.6	8.44e-01	0	36	104	0	60	80674
2026-01-08 00:57:21.74	59.03	38.53	-52.0	-64.4	3.6	8.46e-01	0	36	104	0	60	81311
2026-01-08 00:57:22.75	58.59	38.58	-52.0	-64.4	3.6	8.46e-01	0	36	104	0	60	80975
2026-01-08 00:57:23.76	58.14	38.62	-52.0	-64.4	3.6	8.45e-01	0	36	104	0	60	80858
2026-01-08 00:57:24.77	57.70	38.67	-52.0	-64.4	3.6	8.46e-01	0	36	104	0	60	80586
2026-01-08 00:57:25.78	57.25	38.71	-52.0	-64.4	3.6	8.45e-01	0	36	104	0	60	80495
2026-01-08 00:57:26.79	56.81	38.75	-52.0	-64.4	3.6	8.45e-01	0	36	104	0	60	80791
2026-01-08 00:57:27.80	56.36	38.78	-52.0	-64.4	3.6	8.45e-01	0	36	104	0	60	80730
2026-01-08 00:57:28.81	55.91	38.82	-52.0	-64.4	3.6	8.45e-01	0	36	104	0	60	80712
2026-01-08 00:57:29.82	55.46	38.85	-52.0	-64.4	3.6	8.46e-01	0	36	104	0	60	81001
2026-01-08 00:57:30.83	55.01	38.89	-52.0	-64.3	3.6	8.45e-01	0	36	104	0	60	80437
2026-01-08 00:57:31.85	54.56	38.92	-52.0	-64.4	3.6	8.45e-01	0	36	104	0	60	80583
2026-01-08 00:57:32.86	54.10	38.94	-52.0	-64.4	3.6	8.44e-01	0	36	104	0	60	80698
2026-01-08 00:57:33.87	53.65	38.97	-52.0	-64.4	3.6	8.46e-01	0	36	104	0	60	80486
2026-01-08 00:57:34.88	53.20	38.99	-52.0	-64.4	3.6	8.46e-01	0	36	104	0	60	80563
2026-01-08 00:57:35.89	52.74	39.01	-52.0	-64.4	3.6	8.45e-01	0	36	104	0	60	80622
2026-01-08 00:57:36.90	52.29	39.03	-52.0	-64.4	3.6	8.46e-01	0	36	104	0	60	80695
2026-01-08 00:57:37.91	51.83	39.05	-52.0	-64.4	3.6	8.47e-01	0	36	104	0	60	80554
2026-01-08 00:57:38.92	51.38	39.07	-52.0	-64.4	3.5	8.45e-01	0	36	104	0	60	81362
2026-01-08 00:57:39.93	50.92	39.08	-52.0	-64.4	3.6	8.46e-01	0	36	104	0	60	80723
2026-01-08 00:57:40.94	50.47	39.09	-52.0	-64.3	3.6	8.45e-01	0	36	104	0	60	80377
2026-01-08 00:57:41.95	50.01	39.10	-52.0	-64.4	3.6	8.45e-01	0	36	104	0	60	80641
2026-01-08 00:57:42.97	49.55	39.11	-52.0	-64.4	3.6	8.45e-01	0	36	104	0	60	80486
2026-01-08 00:57:43.98	49.09	39.11	-52.0	-64.4	3.6	8.45e-01	0	36	104	0	60	80713
2026-01-08 00:57:44.99	48.63	39.12	-52.0	-64.3	3.6	8.45e-01	0	36	104	0	60	80394
2026-01-08 00:57:46.00	48.18	39.12	-52.0	-64.4	3.6	8.46e-01	0	36	104	0	60	80620
2026-01-08 00:57:47.01	47.72	39.12	-52.0	-64.4	3.6	8.46e-01	0	36	104	0	60	81049
2026-01-08 00:57:48.02	47.26	39.11	-52.0	-64.3	3.6	8.46e-01	0	36	104	0	60	80114
2026-01-08 00:57:49.03	46.81	39.11	-52.0	-64.3	3.6	8.45e-01	0	36	104	0	60	80009
2026-01-08 00:57:50.04	46.35	39.10	-52.0	-64.4	3.6	8.46e-01	0	36	104	0	60	80531
2026-01-08 00:57:51.05	45.89	39.09	-52.0	-64.4	3.6	8.45e-01	0	36	104	0	60	80920
2026-01-08 00:57:52.06	45.44	39.08	-52.0	-64.4	3.6	8.46e-01	0	36	104	0	60	80660
2026-01-08 00:57:53.07	44.98	39.07	-52.0	-64.4	3.5	8.46e-01	0	36	104	0	60	80817
2026-01-08 00:57:54.08	44.53	39.05	-52.0	-64.3	3.6	8.45e-01	0	36	104	0	60	80404
2026-01-08 00:57:55.09	44.07	39.03	-52.0	-64.4	3.6	8.45e-01	0	36	104	0	60	81168
2026-01-08 00:57:56.11	43.61	39.01	-52.0	-64.4	3.6	8.46e-01	0	36	104	0	60	80604
2026-01-08 00:57:57.12	43.16	38.99	-52.0	-64.4	3.6	8.47e-01	0	36	104	0	60	80857
2026-01-08 00:57:58.13	42.70	38.97	-52.0	-64.3	3.6	8.45e-01	0	36	104	0	60	80312
2026-01-08 00:57:59.14	42.25	38.94	-52.0	-64.4	3.6	8.45e-01	0	36	104	0	60	80883
2026-01-08 00:58:00.15	41.80	38.92	-52.0	-64.4	3.6	8.45e-01	0	36	104	0	60	80669
2026-01-08 00:58:01.16	41.35	38.89	-52.0	-64.3	3.6	8.45e-01	0	36	104	0	60	80356
2026-01-08 00:58:02.17	40.90	38.85	-52.0	-64.4	3.6	8.45e-01	0	36	104	0	60	80525
2026-01-08 00:58:03.18	40.45	38.82	-52.0	-64.4	3.6	8.44e-01	0	36	104	0	60	80478
2026-01-08 00:58:04.19	40.00	38.78	-52.0	-64.4	3.6	8.45e-01	0	36	104	0	60	80808
2026-01-08 00:58:05.20	39.55	38.75	-52.0	-64.4	3.6	8.45e-01	0	36	104	0	60	80511
2026-01-08 00:58:06.21	39.11	38.71	-52.0	-64.3	3.6	8.45e-01	0	36	104	0	60	80434
2026-01-08 00:58:07.22	38.66	38.67	-52.0	-64.4	3.6	8.45e-01	0	36	104	0	60	80924
2026-01-08 00:58:08.23	38.22	38.62	-52.0	-64.4	3.6	8.45e-01	0	36	104	0	60	80685
2026-01-08 00:58:09.24	37.78	38.58	-52.0	-64.4	3.6	8.46e-01	0	36	104	0	60	80520
2026-01-08 00:58:10.25	37.34	38.53	-52.0	-64.3	3.6	8.44e-01	0	36	104	0	60	80271
2026-01-08 00:58:11.27	36.89	38.48	-52.0	-64.4	3.6	8.45e-01	0	36	104	0	60	81100
2026-01-08 00:58:12.28	36.45	38.43	-52.0	-64.4	3.6	8.45e-01	0	36	104	0	60	80480
2026-01-08 00:58:13.29	36.02	38.38	-52.0	-64.4	3.6	8.46e-01	0	36	104	0	60	80812
2026-01-08 00:58:14.30	35.58	38.32	-52.0	-64.4	3.6	8.45e-01	0	36	104	0	60	81285
2026-01-08 00:58:15.31	35.15	38.27	-52.0	-64.4	3.6	8.46e-01	0	36	104	0	60	80631
2026-01-08 00:58:16.32	34.71	38.21	-52.0	-64.4	3.6	8.45e-01	0	36	104	0	60	80994
2026-01-08 00:58:17.33	34.28	38.15	-52.0	-64.3	3.6	8.45e-01	0	36	104	0	60	80330
2026-01-08 00:58:18.34	33.85	38.09	-52.0	-64.4	3.6	8.46e-01	0	36	104	0	60	80635
2026-01-08 00:58:19.35	33.42	38.02	-52.0	-64.4	3.6	8.46e-01	0	36	104	0	60	80690
2026-01-08 00:58:20.36	33.00	37.96	-52.0	-64.4	3.6	8.47e-01	0	36	104	0	60	80791
2026-01-08 00:58:21.37	32.57	37.89	-52.0	-64.4	3.6	8.44e-01	0	36	104	0	60	80576
2026-01-08 00:58:22.38	32.15	37.82	-52.0	-64.4	3.6	8.46e-01	0	36	104	0	60	80689
2026-01-08 00:58:23.39	31.73	37.75	-52.0	-64.4	3.6	8.44e-01	0	36	104	0	60	80815
2026-01-08 00:58:24.41	31.31	37.68	-52.0	-64.4	3.6	8.46e-01	0	36	104	0	60	80696
2026-01-08 00:58:25.42	30.89	37.61	-52.0	-64.3	3.6	8.45e-01	0	36	104	0	60	80400
2026-01-08 00:58:26.43	30.48	37.53	-52.0	-64.4	3.6	8.45e-01	0	36	104	0	60	81111
2026-01-08 00:58:27.44	30.06	37.46	-52.0	-64.4	3.6	8.44e-01	0	36	104	0	60	80697
2026-01-08 00:58:28.45	29.65	37.38	-52.0	-64.4	3.6	8.46e-01	0	36	104	0	60	81278
2026-01-08 00:58:29.46	29.24	37.30	-52.0	-64.4	3.6	8.46e-01	0	36	104	0	60	80501
2026-01-08 00:58:30.47	28.83	37.22	-52.0	-64.4	3.6	8.44e-01	0	36	104	0	60	80744
2026-01-08 00:58:31.49	28.42	37.14	-52.0	-64.4	3.6	8.46e-01	0	36	104	0	60	80639
2026-01-08 00:58:32.50	28.02	37.05	-52.0	-64.4	3.6	8.46e-01	0	35	104	0	60	80612
2026-01-08 00:58:33.51	27.62	36.97	-52.0	-64.4	3.6	8.46e-01	0	36	104	0	60	81214
2026-01-08 00:58:34.52	27.22	36.88	-52.0	-64.4	3.6	8.46e-01	0	36	104	0	60	80940
2026-01-08 00:58:35.53	26.83	36.79	-52.0	-64.4	3.6	8.45e-01	0	36	104	0	60	80524
2026-01-08 00:58:36.54	26.43	36.70	-52.0	-64.4	3.6	8.45e-01	0	36	104	0	60	80947
2026-01-08 00:58:37.55	26.04	36.61	-52.0	-64.4	3.6	8.45e-01	0	36	104	0	60	80597
2026-01-08 00:58:38.56	25.65	36.52	-52.0	-64.4	3.6	8.45e-01	0	36	104	0	60	80742
2026-01-08 00:58:39.57	25.26	36.43	-52.0	-64.4	3.6	8.45e-01	0	36	104	0	60	80896
2026-01-08 00:58:40.58	24.87	36.34	-52.0	-64.4	3.6	8.46e-01	0	36	104	0	60	80600
2026-01-08 00:58:41.59	24.49	36.24	-52.0	-64.4	3.6	8.46e-01	0	36	104	0	60	80831
2026-01-08 00:58:42.60	24.11	36.14	-52.0	-64.4	3.6	8.45e-01	0	36	104	0	60	80624
2026-01-08 00:58:43.61	23.73	36.05	-52.0	-64.4	3.6	8.45e-01	0	36	104	0	60	80847
2026-01-08 00:58:44.63	23.35	35.95	-52.0	-64.4	3.6	8.46e-01	0	36	104	0	60	80955
2026-01-08 00:58:45.64	22.98	35.85	-52.0	-64.4	3.6	8.45e-01	0	36	104	0	60	80496
2026-01-08 00:58:46.65	22.60	35.75	-52.0	-64.4	3.6	8.46e-01	0	36	104	0	60	81008
2026-01-08 00:58:47.66	22.23	35.64	-52.0	-64.3	3.6	8.45e-01	0	36	104	0	60	80422
2026-01-08 00:58:48.67	21.87	35.54	-52.0	-64.4	3.6	8.45e-01	0	36	104	0	60	81264
2026-01-08 00:58:49.68	21.50	35.44	-52.0	-64.4	3.6	8.45e-01	0	36	104	0	60	80537
2026-01-08 00:58:50.69	21.14	35.33	-52.0	-64.4	3.6	8.45e-01	0	36	104	0	60	80654
2026-01-08 00:58:51.71	20.78	35.22	-52.0	-64.3	3.6	8.44e-01	0	36	104	0	60	80309
2026-01-08 00:58:52.71	20.42	35.12	-52.0	-64.3	3.6	8.45e-01	0	36	104	0	60	80325
2026-01-08 00:58:53.73	20.06	35.01	-52.0	-64.3	3.6	8.45e-01	0	36	104	0	60	80404
2026-01-08 00:58:54.74	19.71	34.90	-52.0	-64.4	3.6	8.45e-01	0	36	104	0	60	80976
2026-01-08 00:58:55.75	19.36	34.79	-52.0	-64.4	3.6	8.47e-01	0	36	104	0	60	80485
2026-01-08 00:58:56.76	19.01	34.68	-52.0	-64.4	3.6	8.45e-01	0	36	104	0	60	80521
2026-01-08 00:58:57.77	18.66	34.57	-52.0	-64.3	3.5	8.45e-01	0	36	104	0	60	80356
2026-01-08 00:58:58.78	18.32	34.46	-52.0	-64.4	3.6	8.46e-01	0	36	104	0	60	80736
2026-01-08 00:58:59.79	17.98	34.35	-52.0	-64.4	3.6	8.44e-01	0	36	104	0	60	80806
2026-01-08 00:59:00.80	17.64	34.23	-52.0	-64.4	3.6	8.45e-01	0	36	104	0	60	81146
2026-01-08 00:59:01.82	17.30	34.12	-52.0	-64.3	3.6	8.45e-01	0	36	104	0	60	80404
2026-01-08 00:59:02.83	16.97	34.00	-52.0	-64.4	3.6	8.46e-01	0	36	104	0	60	80579
2026-01-08 00:59:03.84	16.63	33.89	-52.0	-64.4	3.6	8.45e-01	0	36	104	0	60	80650
2026-01-08 00:59:04.85	16.31	33.77	-52.0	-64.4	3.6	8.44e-01	0	36	104	0	60	80570
2026-01-08 00:59:05.86	15.98	33.65	-52.0	-64.4	3.6	8.45e-01	0	36	104	0	60	80712
2026-01-08 00:59:06.87	15.65	33.54	-52.0	-64.4	3.6	8.45e-01	0	36	104	0	60	80633
2026-01-08 00:59:07.88	15.33	33.42	-52.0	-64.4	3.6	8.45e-01	0	36	104	0	60	80773
2026-01-08 00:59:08.89	15.01	33.30	-52.0	-64.4	3.6	8.45e-01	0	36	104	0	60	80562
2026-01-08 00:59:09.90	14.69	33.18	-52.0	-64.4	3.6	8.45e-01	0	36	104	0	60	80710
2026-01-08 00:59:10.92	14.38	33.06	-52.0	-64.3	3.6	8.45e-01	0	36	104	0	60	80447
2026-01-08 00:59:11.93	14.06	32.94	-52.0	-64.3	3.6	8.44e-01	0	36	104	0	60	80387
2026-01-08 00:59:12.94	13.75	32.82	-52.0	-64.4	3.6	8.44e-01	0	36	104	0	60	81014
2026-01-08 00:59:13.95	13.44	32.70	-52.0	-64.4	3.6	8.47e-01	0	36	104	0	60	80744
2026-01-08 00:59:14.96	13.14	32.58	-52.0	-64.3	3.6	8.47e-01	0	36	104	0	60	80276
2026-01-08 00:59:15.97	12.84	32.45	-52.0	-64.4	3.6	8.45e-01	0	36	104	0	60	80891
2026-01-08 00:59:16.98	12.53	32.33	-52.0	-64.4	3.6	8.45e-01	0	36	104	0	60	81049
2026-01-08 00:59:17.99	12.24	32.21	-52.0	-64.4	3.6	8.46e-01	0	36	104	0	60	80546
2026-01-08 00:59:19.00	11.94	32.09	-52.0	-64.4	3.6	8.45e-01	0	36	104	0	60	80743
2026-01-08 00:59:20.02	11.64	31.96	-52.0	-64.4	3.6	8.45e-01	0	36	104	0	60	80671
2026-01-08 00:59:21.03	11.35	31.84	-52.0	-64.4	3.6	8.43e-01	0	36	104	0	60	80655
2026-01-08 00:59:22.04	11.06	31.71	-52.0	-64.4	3.6	8.45e-01	0	36	104	0	60	80624
2026-01-08 00:59:23.05	10.77	31.59	-52.0	-64.3	3.6	8.45e-01	0	36	104	0	60	80386
2026-01-08 00:59:24.06	10.49	31.46	-52.0	-64.4	3.6	8.46e-01	0	36	104	0	60	80930
2026-01-08 00:59:25.07	10.20	31.34	-52.0	-64.4	3.6	8.45e-01	0	36	104	0	60	80501
2026-01-08 00:59:26.08	9.92	31.21	-52.0	-64.3	3.6	8.46e-01	0	36	104	0	60	80450
2026-01-08 00:59:27.09	9.64	31.09	-52.0	-64.4	3.6	8.45e-01	0	36	104	0	60	80697
2026-01-08 00:59:28.10	9.37	30.96	-52.0	-64.3	3.6	8.46e-01	0	35	104	0	60	80324
2026-01-08 00:59:29.11	9.09	30.84	-52.0	-64.4	3.6	8.45e-01	0	36	104	0	60	80831
2026-01-08 00:59:30.12	8.82	30.71	-52.0	-64.4	3.6	8.47e-01	0	36	104	0	60	80835
2026-01-08 00:59:31.14	8.55	30.58	-52.0	-64.4	3.6	8.45e-01	0	36	104	0	60	80674
2026-01-08 00:59:32.15	8.28	30.46	-52.0	-64.4	3.6	8.45e-01	0	36	104	0	60	80458
2026-01-08 00:59:33.16	8.01	30.33	-52.0	-64.3	3.6	8.44e-01	0	36	104	0	60	80428
2026-01-08 00:59:34.17	7.75	30.20	-52.0	-64.4	3.6	8.46e-01	0	36	104	0	60	80546
2026-01-08 00:59:35.18	7.49	30.08	-52.0	-64.4	3.6	8.45e-01	0	36	104	0	60	80745
2026-01-08 00:59:36.19	7.23	29.95	-52.0	-64.4	3.6	8.45e-01	0	36	104	0	60	80591
2026-01-08 00:59:37.20	6.97	29.82	-52.0	-64.3	3.6	8.45e-01	0	36	104	0	60	80256
2026-01-08 00:59:38.21	6.72	29.70	-52.0	-64.4	3.6	8.45e-01	0	36	104	0	60	80674
2026-01-08 00:59:39.22	6.46	29.57	-52.0	-64.4	3.6	8.46e-01	0	36	104	0	60	80613
2026-01-08 00:59:40.23	6.21	29.44	-52.0	-64.4	3.6	8.45e-01	0	36	104	0	60	80749
2026-01-08 00:59:41.25	5.96	29.31	-52.0	-64.4	3.6	8.45e-01	0	36	104	0	60	80865
2026-01-08 00:59:42.26	5.71	29.19	-52.0	-64.4	3.6	8.46e-01	0	36	104	0	60	80722
2026-01-08 00:59:43.27	5.47	29.06	-52.0	-64.4	3.6	8.45e-01	0	36	104	0	60	81139
2026-01-08 00:59:44.28	5.22	28.93	-52.0	-64.3	3.6	8.44e-01	0	36	104	0	60	80311
2026-01-08 00:59:45.29	4.98	28.80	-52.0	-64.4	3.6	8.44e-01	0	36	104	0	60	80497
2026-01-08 00:59:46.30	4.74	28.68	-52.0	-64.4	3.6	8.45e-01	0	36	104	0	60	81117
2026-01-08 00:59:47.31	4.50	28.55	-52.0	-64.3	3.6	8.46e-01	0	36	104	0	60	80258
2026-01-08 00:59:48.32	4.27	28.42	-52.0	-64.4	3.6	8.46e-01	0	36	104	0	60	80676
2026-01-08 00:59:49.34	4.03	28.29	-52.0	-64.4	3.6	8.45e-01	0	36	104	0	60	80880
2026-01-08 00:59:50.35	3.80	28.17	-52.0	-64.4	3.6	8.45e-01	0	36	104	0	60	80825
2026-01-08 00:59:51.36	3.57	28.04	-52.0	-64.4	3.6	8.45e-01	0	36	104	0	60	80751
2026-01-08 00:59:52.37	3.34	27.91	-52.0	-64.4	3.6	8.46e-01	0	36	104	0	60	80618
2026-01-08 00:59:53.38	3.12	27.79	-52.0	-64.3	3.6	8.45e-01	0	36	104	0	60	80259
2026-01-08 00:59:54.39	2.89	27.66	-52.0	-64.4	3.6	8.45e-01	0	36	104	0	60	81019
2026-01-08 00:59:55.40	2.67	27.53	-52.0	-64.4	3.6	8.45e-01	0	36	104	0	60	80791
2026-01-08 00:59:56.41	2.45	27.40	-52.0	-64.4	3.6	8.45e-01	0	36	104	0	60	80676
2026-01-08 00:59:57.42	2.23	27.28	-52.0	-64.3	3.6	8.45e-01	0	36	104	0	60	80384
2026-01-08 00:59:58.43	2.01	27.15	-52.0	-64.4	3.6	8.45e-01	0	36	104	0	60	80931
2026-01-08 00:59:59.45	1.79	27.02	-52.0	-64.4	3.6	8.45e-01	0	36	104	0	60	80782
2026-01-08 01:00:00.46	1.58	26.90	-52.0	-64.3	3.6	8.46e-01	0	36	104	0	60	80268
2026-01-08 01:00:01.47	1.37	26.77	-52.0	-64.4	3.6	8.46e-01	0	36	104	0	60	80594
2026-01-08 01:00:02.48	1.16	26.65	-52.0	-64.1	3.6	8.46e-01	0	36	104	0	60	78151
2026-01-08 01:00:03.49	0.95	26.52	-52.0	-64.4	3.6	8.45e-01	0	36	104	0	60	81029
2026-01-08 01:00:04.50	0.74	26.39	-52.0	-64.4	3.6	8.45e-01	0	36	104	0	60	80591
2026-01-08 01:00:05.51	0.53	26.27	-52.0	-64.4	3.6	8.45e-01	0	36	104	0	60	80820
2026-01-08 01:00:06.52	0.33	26.14	-52.0	-64.4	3.6	8.45e-01	0	36	104	0	60	80521
2026-01-08 01:00:07.53	0.13	26.02	-52.0	-64.4	3.6	8.47e-01	0	36	104	0	60	80676
2026-01-08 01:00:08.54	359.93	25.89	-52.0	-64.3	3.6	8.45e-01	0	36	104	0	60	80435
2026-01-08 01:00:09.55	359.73	25.77	-52.0	-64.3	3.6	8.45e-01	0	36	104	0	60	80424
2026-01-08 01:00:10.56	359.53	25.65	-52.0	-64.3	3.6	8.44e-01	0	36	104	0	60	80313
2026-01-08 01:00:11.57	359.33	25.52	-52.0	-64.4	3.6	8.44e-01	0	36	104	0	60	80795
2026-01-08 01:00:12.58	359.14	25.40	-52.0	-64.4	3.6	8.45e-01	0	36	104	0	60	80921
2026-01-08 01:00:13.59	358.95	25.27	-52.0	-64.3	3.6	8.46e-01	0	36	104	0	60	80387
2026-01-08 01:00:14.60	358.76	25.15	-52.0	-64.4	3.6	8.46e-01	0	36	104	0	60	80628
2026-01-08 01:00:15.62	358.56	25.02	-52.0	-64.4	3.6	8.45e-01	0	36	104	0	60	80764
2026-01-08 01:00:16.63	358.38	24.90	-52.0	-64.4	3.6	8.46e-01	0	36	104	0	60	80728
2026-01-08 01:00:17.64	358.19	24.78	-52.0	-64.4	3.6	8.46e-01	0	36	104	0	60	80573
2026-01-08 01:00:18.64	358.01	24.66	-52.0	-64.4	3.6	8.45e-01	0	36	104	0	60	80699
2026-01-08 01:00:19.66	357.82	24.53	-52.0	-64.4	3.6	8.46e-01	0	36	104	0	60	80482
2026-01-08 01:00:20.67	357.64	24.41	-52.0	-64.4	3.6	8.46e-01	0	36	104	0	60	80768
2026-01-08 01:00:21.68	357.46	24.29	-52.0	-64.4	3.6	8.46e-01	0	36	104	0	60	80524
2026-01-08 01:00:22.69	357.28	24.17	-52.0	-64.3	3.6	8.44e-01	0	36	104	0	60	80163
2026-01-08 01:00:23.70	357.10	24.05	-52.0	-64.3	3.5	8.46e-01	0	36	104	0	60	80292
2026-01-08 01:00:24.71	356.92	23.93	-52.0	-64.4	3.6	8.45e-01	0	36	104	0	60	80492
2026-01-08 01:00:25.72	356.75	23.80	-52.0	-64.4	3.6	8.46e-01	0	36	104	0	60	80530
2026-01-08 01:00:26.73	356.57	23.68	-52.0	-64.4	3.6	8.44e-01	0	36	104	0	60	80696
2026-01-08 01:00:27.74	356.40	23.56	-52.0	-64.4	3.6	8.45e-01	0	36	104	0	60	80971
2026-01-08 01:00:28.75	356.23	23.44	-52.1	-64.5	3.6	8.47e-01	0	36	104	0	60	81637
2026-01-08 01:00:29.77	356.06	23.32	-52.3	-64.7	3.6	8.46e-01	0	36	104	0	60	83320
2026-01-08 01:00:30.78	355.89	23.20	-52.2	-64.6	3.6	8.46e-01	0	36	104	0	60	82407
2026-01-08 01:00:31.79	355.72	23.08	-52.2	-64.6	3.6	8.45e-01	0	36	104	0	60	82677
2026-01-08 01:00:32.80	355.55	22.96	-52.2	-64.5	3.6	8.45e-01	0	36	104	0	60	82188
2026-01-08 01:00:33.81	355.39	22.85	-52.2	-64.5	3.6	8.45e-01	0	36	104	0	60	82189
2026-01-08 01:00:34.82	355.23	22.73	-52.2	-64.6	3.6	8.45e-01	0	36	104	0	60	82911
2026-01-08 01:00:35.83	355.06	22.61	-52.3	-64.6	3.5	8.45e-01	0	36	104	0	60	83099
2026-01-08 01:00:36.84	354.90	22.49	-52.2	-64.6	3.6	8.46e-01	0	36	104	0	60	82608
2026-01-08 01:00:37.85	354.74	22.37	-52.1	-64.5	3.6	8.46e-01	0	36	104	0	60	81877
2026-01-08 01:00:38.86	354.59	22.26	-52.0	-64.5	3.6	8.46e-01	0	36	104	0	60	81611
2026-01-08 01:00:39.87	354.43	22.14	-51.8	-64.4	3.6	8.45e-01	0	36	104	0	60	81174
2026-01-08 01:00:40.89	354.27	22.02	-52.0	-64.4	3.6	8.45e-01	0	36	104	0	60	80489
2026-01-08 01:00:41.90	354.12	21.91	-51.9	-64.2	3.6	8.46e-01	0	36	104	0	60	79389
2026-01-08 01:00:42.91	353.96	21.79	-51.7	-64.0	3.6	8.46e-01	0	36	104	0	60	77684
2026-01-08 01:00:43.92	353.81	21.68	-51.6	-63.9	3.6	8.45e-01	0	36	104	0	60	76566
2026-01-08 01:00:44.93	353.66	21.56	-51.1	-63.4	3.6	8.46e-01	0	36	104	0	60	71725
2026-01-08 01:00:45.94	353.51	21.44	-50.9	-63.2	3.6	8.46e-01	0	36	104	0	60	70245
2026-01-08 01:00:46.95	353.36	21.33	-50.9	-63.2	3.6	8.46e-01	0	36	104	0	60	70155
2026-01-08 01:00:47.96	353.21	21.22	-50.8	-63.2	3.6	8.45e-01	0	36	104	0	60	70219
2026-01-08 01:00:48.97	353.06	21.10	-50.8	-63.2	3.6	8.45e-01	0	36	104	0	60	70502
2026-01-08 01:00:49.98	352.92	20.99	-50.8	-63.1	3.6	8.45e-01	0	36	104	0	60	69787
2026-01-08 01:00:50.99	352.77	20.87	-50.8	-63.2	3.6	8.46e-01	0	36	104	0	60	70321
2026-01-08 01:00:52.01	352.63	20.76	-50.8	-63.1	3.6	8.45e-01	0	36	104	0	60	69677
2026-01-08 01:00:53.02	352.49	20.65	-50.8	-63.1	3.6	8.45e-01	0	36	104	0	60	69363
2026-01-08 01:00:54.03	352.34	20.53	-50.8	-63.1	3.6	8.45e-01	0	36	104	0	60	69398
2026-01-08 01:00:55.04	352.20	20.42	-50.8	-63.1	3.6	8.46e-01	0	36	104	0	60	69861
2026-01-08 01:00:56.05	352.07	20.31	-50.8	-63.0	3.6	8.44e-01	0	36	104	0	60	69114
2026-01-08 01:00:57.06	351.93	20.20	-50.8	-63.0	3.6	8.45e-01	0	36	104	0	60	69242
2026-01-08 01:00:58.07	351.79	20.09	-50.8	-63.1	3.6	8.45e-01	0	36	104	0	60	69499
2026-01-08 01:00:59.08	351.65	19.98	-50.8	-63.1	3.6	8.45e-01	0	36	104	0	60	69590
2026-01-08 01:01:00.09	351.52	19.87	-50.8	-63.1	3.6	8.45e-01	0	36	104	0	60	69593
2026-01-08 01:01:01.11	351.38	19.75	-50.8	-63.1	3.6	8.46e-01	0	36	104	0	60	69347
2026-01-08 01:01:02.12	351.25	19.64	-50.8	-63.0	3.6	8.44e-01	0	36	104	0	60	68959
2026-01-08 01:01:03.13	351.12	19.54	-50.8	-63.1	3.6	8.46e-01	0	36	104	0	60	69793
2026-01-08 01:01:04.14	350.99	19.43	-50.8	-63.1	3.6	8.45e-01	0	36	104	0	60	69840
2026-01-08 01:01:05.15	350.86	19.32	-50.8	-63.0	3.6	8.45e-01	0	36	104	0	60	69173
2026-01-08 01:01:06.16	350.73	19.21	-50.8	-62.8	3.6	8.45e-01	0	36	104	0	60	67326
2026-01-08 01:01:07.17	350.60	19.10	-50.8	-62.3	3.5	8.45e-01	0	36	104	0	60	63712
2026-01-08 01:01:08.18	350.47	18.99	-50.7	-61.7	3.6	8.45e-01	0	36	104	0	60	59516
2026-01-08 01:01:09.19	350.34	18.88	-50.7	-61.5	3.6	8.45e-01	0	36	104	0	60	58269
2026-01-08 01:01:10.21	350.22	18.78	-50.7	-61.5	3.6	8.45e-01	0	36	104	0	60	58165
2026-01-08 01:01:11.22	350.09	18.67	-50.7	-62.0	3.6	8.45e-01	0	36	104	0	60	61500
2026-01-08 01:01:12.23	349.97	18.56	-50.8	-62.7	3.6	8.46e-01	0	36	104	0	60	66852
2026-01-08 01:01:13.24	349.85	18.46	-50.7	-61.9	3.6	8.46e-01	0	36	104	0	60	60530
2026-01-08 01:01:14.25	349.72	18.35	-50.2	-58.5	3.7	8.44e-01	0	36	104	0	60	41210
2026-01-08 01:01:15.26	349.60	18.24	-49.2	-55.1	3.9	8.41e-01	0	36	104	0	60	27657
2026-01-08 01:01:16.27	349.48	18.14	-47.7	-51.7	3.8	8.44e-01	0	36	104	0	60	18819
2026-01-08 01:01:17.28	349.36	18.03	-46.2	-49.0	4.4	8.32e-01	0	36	104	0	60	13798
2026-01-08 01:01:18.29	349.24	17.93	-44.8	-47.1	4.4	8.30e-01	0	36	104	0	60	11037
2026-01-08 01:01:19.30	349.13	17.82	-43.5	-45.6	4.1	8.28e-01	0	36	104	0	60	9262
2026-01-08 01:01:20.32	349.01	17.72	-42.5	-44.2	4.7	8.27e-01	0	36	104	0	60	7916
2026-01-08 01:01:21.33	348.89	17.61	-42.1	-43.8	4.5	8.29e-01	0	36	104	0	60	7523
2026-01-08 01:01:22.34	348.78	17.51	-41.7	-43.3	4.5	8.25e-01	0	36	104	0	60	7167
2026-01-08 01:01:23.35	348.66	17.41	-41.9	-43.6	4.5	8.26e-01	0	36	104	0	60	7378
2026-01-08 01:01:24.36	348.55	17.30	-42.0	-43.9	4.2	8.20e-01	0	36	104	0	60	7613
2026-01-08 01:01:25.37	348.44	17.20	-42.8	-44.6	4.6	8.50e-01	0	36	104	0	60	8250
2026-01-08 01:01:26.38	348.32	17.10	-42.2	-43.8	4.6	8.30e-01	0	36	104	0	60	7591
2026-01-08 01:01:27.39	348.21	17.00	-43.1	-45.1	4.3	8.29e-01	0	36	104	0	60	8762
2026-01-08 01:01:28.40	348.10	16.90	-41.5	-43.0	4.7	8.22e-01	0	36	104	0	60	6894
2026-01-08 01:01:29.41	347.99	16.79	-50.6	-61.1	3.7	8.45e-01	0	36	104	0	60	55333
2026-01-08 01:01:30.43	347.88	16.69	-45.0	-47.4	4.6	8.37e-01	0	36	104	0	60	11484
2026-01-08 01:01:31.44	347.77	16.59	-46.0	-48.6	4.5	8.35e-01	0	36	104	0	60	13056
2026-01-08 01:01:32.45	347.67	16.49	-43.7	-45.7	4.7	7.54e-01	0	36	104	0	60	9353
2026-01-08 01:01:33.46	347.56	16.39	-43.7	-45.8	4.4	8.28e-01	0	36	104	0	60	9490
2026-01-08 01:01:34.47	347.45	16.29	-44.0	-45.9	4.7	8.21e-01	0	36	104	0	60	9651
2026-01-08 01:01:35.48	347.35	16.19	-43.8	-45.9	4.2	8.21e-01	0	36	104	0	60	9653
2026-01-08 01:01:36.49	347.24	16.09	-43.9	-45.9	4.7	8.29e-01	0	36	104	0	60	9579
2026-01-08 01:01:37.50	347.14	15.99	-43.8	-45.8	4.5	8.31e-01	0	36	104	0	60	9525
2026-01-08 01:01:38.52	347.03	15.89	-43.7	-45.8	4.1	8.35e-01	0	36	104	0	60	9534
2026-01-08 01:01:39.53	346.93	15.80	-43.0	-44.8	4.4	8.25e-01	0	36	104	0	60	8509
2026-01-08 01:01:40.54	346.83	15.70	-42.8	-44.8	4.2	8.23e-01	0	36	104	0	60	8483
2026-01-08 01:01:41.55	346.73	15.60	-42.5	-44.2	4.8	8.29e-01	0	36	104	0	60	7912
2026-01-08 01:01:42.56	346.63	15.50	-42.6	-44.3	4.7	8.27e-01	0	35	104	0	60	7970
2026-01-08 01:01:43.57	346.53	15.41	-41.7	-43.4	4.4	8.26e-01	0	36	104	0	60	7245
2026-01-08 01:01:44.58	346.43	15.31	-41.3	-42.8	4.8	8.20e-01	0	36	104	0	60	6723
2026-01-08 01:01:45.60	346.33	15.21	-41.1	-42.6	4.2	8.19e-01	0	36	104	0	60	6599
2026-01-08 01:01:46.60	346.23	15.12	-40.9	-42.6	4.4	8.24e-01	0	36	104	0	60	6576
2026-01-08 01:01:47.62	346.14	15.02	-41.0	-42.5	4.8	8.26e-01	0	35	104	0	60	6490
2026-01-08 01:01:48.63	346.04	14.92	-41.0	-42.6	4.6	8.27e-01	0	36	104	0	60	6546
2026-01-08 01:01:49.64	345.94	14.83	-40.8	-42.3	4.6	7.52e-01	0	36	104	0	60	6359
2026-01-08 01:01:50.65	345.85	14.73	-40.8	-42.4	4.2	8.24e-01	0	36	104	0	60	6421
2026-01-08 01:01:51.66	345.75	14.64	-40.7	-42.4	4.8	8.26e-01	0	35	104	0	60	6459
2026-01-08 01:01:52.67	345.66	14.54	-40.8	-42.5	4.5	8.26e-01	0	36	104	0	60	6471
2026-01-08 01:01:53.68	345.57	14.45	-40.8	-42.2	4.8	8.29e-01	0	36	104	0	60	6312
2026-01-08 01:01:54.69	345.47	14.36	-40.9	-42.4	4.6	8.23e-01	0	36	104	0	60	6459
2026-01-08 01:01:55.71	345.38	14.26	-40.8	-42.4	4.5	8.24e-01	0	36	104	0	60	6439
2026-01-08 01:01:56.72	345.29	14.17	-40.7	-42.5	4.2	8.20e-01	0	36	104	0	60	6476
2026-01-08 01:01:57.73	345.20	14.07	-40.6	-42.2	4.6	8.30e-01	0	35	104	0	60	6299
2026-01-08 01:01:58.74	345.11	13.98	-40.8	-42.3	4.7	8.25e-01	0	36	104	0	60	6376
2026-01-08 01:01:59.75	345.02	13.89	-40.8	-42.3	4.7	8.23e-01	0	36	104	0	60	6387
2026-01-08 01:02:00.76	344.93	13.80	-40.7	-42.3	4.5	8.23e-01	0	35	104	0	60	6339
2026-01-08 01:02:01.77	344.84	13.70	-40.9	-42.6	4.2	8.24e-01	0	36	104	0	60	6597
2026-01-08 01:02:02.78	344.75	13.61	-40.7	-42.2	4.8	8.26e-01	0	36	104	0	60	6259
2026-01-08 01:02:03.79	344.67	13.52	-40.6	-42.3	4.2	8.27e-01	0	36	104	0	60	6374
2026-01-08 01:02:04.80	344.58	13.43	-40.6	-42.1	4.6	8.21e-01	0	36	104	0	60	6241
2026-01-08 01:02:05.82	344.49	13.34	-40.5	-42.0	4.7	8.19e-01	0	35	104	0	60	6134
2026-01-08 01:02:06.83	344.41	13.25	-40.5	-42.4	4.3	8.43e-01	0	36	104	0	60	6409
2026-01-08 01:02:07.84	344.32	13.16	-40.4	-42.1	4.8	8.18e-01	0	35	104	0	60	6179
2026-01-08 01:02:08.85	344.24	13.07	-40.4	-42.1	4.3	8.22e-01	0	35	104	0	60	6213
2026-01-08 01:02:09.86	344.15	12.98	-40.4	-41.8	4.8	8.23e-01	0	35	104	0	60	6030
2026-01-08 01:02:10.87	344.07	12.89	-40.3	-42.4	3.6	8.52e-01	0	36	104	0	60	6420
2026-01-08 01:02:11.88	343.99	12.80	-40.4	-41.8	4.8	8.19e-01	0	36	104	0	60	6015
2026-01-08 01:02:12.89	343.90	12.71	-40.3	-42.0	4.2	8.20e-01	0	36	104	0	60	6120
2026-01-08 01:02:13.90	343.82	12.62	-40.4	-42.3	3.9	8.29e-01	0	35	104	0	60	6325
2026-01-08 01:02:14.92	343.74	12.53	-40.4	-41.9	4.7	8.33e-01	0	36	104	0	60	6042
2026-01-08 01:02:15.93	343.66	12.44	-40.5	-41.9	4.8	8.20e-01	0	36	104	0	60	6078
2026-01-08 01:02:16.94	343.58	12.36	-40.0	-41.6	4.5	8.24e-01	0	36	104	0	58	6554
2026-01-08 01:02:17.95	343.50	12.27	-40.0	-41.7	4.2	8.18e-01	0	36	104	0	58	6654
2026-01-08 01:02:18.96	343.42	12.18	-40.0	-41.4	4.9	8.21e-01	0	36	104	0	58	6398
2026-01-08 01:02:19.97	343.34	12.09	-40.0	-41.4	4.8	8.22e-01	0	35	104	0	58	6455
2026-01-08 01:02:20.98	343.26	12.01	-39.9	-41.4	4.6	8.25e-01	0	36	104	0	58	6417
2026-01-08 01:02:21.99	343.18	11.92	-40.0	-41.4	4.8	8.21e-01	0	36	104	0	58	6440
2026-01-08 01:02:23.00	343.11	11.83	-39.8	-41.3	4.2	8.24e-01	0	35	104	0	58	6374
2026-01-08 01:02:24.01	343.03	11.75	-39.8	-41.4	4.5	8.25e-01	0	35	104	0	58	6430
2026-01-08 01:02:25.03	342.95	11.66	-39.8	-41.2	4.8	8.26e-01	0	35	104	0	58	6266
2026-01-08 01:02:26.04	342.87	11.58	-39.7	-41.0	4.9	8.25e-01	0	36	104	0	58	6168
2026-01-08 01:02:27.05	342.80	11.49	-39.7	-41.0	4.8	8.19e-01	0	36	104	0	58	6172
2026-01-08 01:02:28.06	342.72	11.40	-39.6	-41.0	4.3	8.18e-01	0	36	104	0	58	6153
2026-01-08 01:02:29.07	342.65	11.32	-39.6	-41.2	4.7	8.21e-01	0	35	104	0	58	6314
2026-01-08 01:02:30.08	342.57	11.23	-39.6	-41.1	4.6	8.23e-01	0	36	104	0	58	6198
2026-01-08 01:02:31.09	342.50	11.15	-39.5	-40.8	4.8	8.22e-01	0	36	104	0	58	6033
2026-01-08 01:02:32.10	342.43	11.07	-39.5	-41.1	4.3	8.26e-01	0	36	104	0	58	6212
2026-01-08 01:02:33.11	342.35	10.98	-39.6	-41.0	4.8	8.20e-01	0	36	104	0	58	6123
2026-01-08 01:02:34.12	342.28	10.90	-39.4	-41.1	4.2	8.21e-01	0	36	104	0	58	6202
2026-01-08 01:02:35.13	342.21	10.82	-39.6	-41.0	4.8	8.34e-01	0	36	104	0	58	6117
2026-01-08 01:02:36.14	342.14	10.73	-39.4	-40.9	4.4	8.27e-01	0	36	104	0	58	6062
2026-01-08 01:02:37.16	342.07	10.65	-39.4	-40.9	4.6	8.23e-01	0	35	104	0	58	6046
2026-01-08 01:02:38.17	342.00	10.57	-39.4	-40.8	4.8	8.20e-01	0	36	104	0	58	6010
2026-01-08 01:02:39.18	341.93	10.48	-39.3	-40.9	4.3	8.20e-01	0	36	104	0	58	6038
2026-01-08 01:02:40.19	341.86	10.40	-39.3	-40.9	4.9	8.25e-01	0	35	104	0	58	6097
2026-01-08 01:02:41.20	341.79	10.32	-39.4	-40.8	4.7	8.23e-01	0	36	104	0	58	6032
2026-01-08 01:02:42.21	341.72	10.24	-39.4	-40.8	4.7	8.22e-01	0	35	104	0	58	6013
2026-01-08 01:02:43.22	341.65	10.16	-39.3	-40.8	4.5	8.23e-01	0	35	104	0	58	5984
2026-01-08 01:02:44.23	341.58	10.07	-39.4	-41.0	4.3	8.25e-01	0	35	104	0	58	6157
2026-01-08 01:02:45.24	341.51	9.99	-39.1	-40.7	4.8	8.35e-01	0	35	104	0	58	5941
2026-01-08 01:02:46.25	341.44	9.91	-39.1	-40.4	4.8	8.26e-01	0	35	104	0	56	6406
2026-01-08 01:02:47.26	341.38	9.83	-39.0	-40.5	4.6	8.28e-01	0	35	104	0	56	6467
2026-01-08 01:02:48.27	341.31	9.75	-39.1	-40.5	4.5	8.23e-01	0	35	104	0	56	6510
2026-01-08 01:02:49.29	341.24	9.67	-38.9	-40.3	4.8	8.18e-01	0	36	104	0	56	6325
2026-01-08 01:02:50.30	341.18	9.59	-39.1	-40.6	4.2	8.46e-01	0	36	104	0	56	6591
2026-01-08 01:02:51.31	341.11	9.51	-38.9	-40.2	4.8	8.23e-01	0	35	104	0	56	6258
2026-01-08 01:02:52.32	341.05	9.43	-38.9	-40.7	3.8	8.45e-01	0	36	104	0	56	6672
2026-01-08 01:02:53.33	340.98	9.35	-38.8	-40.2	4.7	8.21e-01	0	36	104	0	56	6253
2026-01-08 01:02:54.34	340.92	9.27	-38.9	-40.2	4.7	8.22e-01	0	36	104	0	56	6310
