passes_logs/2026/01/08/R4.6S_Anadyr_2ch/R4.6S_Anadyr_2ch__20260108_013022_SUOMI_NPP_rec.log

#Pass ID: 20260108_013022_SUOMI NPP
#Satellite: SUOMI NPP
#Configuration: NPP
#almurnet v.1.7.20251203
#Start time: 2026-01-08 01:36:59

#Version: 2.2.20231116
#Station: R4.6S_Anadyr_2ch
#Location: 177.4865 lon 64.73178 lat
#TLE: 1 37849U 11061A   25350.92281687  .00000071  00000+0  54882-4 0  9996
#TLE: 2 37849  98.7777 288.2268 0002366 112.8570 247.2856 14.19515404732588

#Time	Az	El	Level	Level2	SNR	BER	BlckErr	Temp	State	Recorded	gain1	gain2
2026-01-08 01:36:59.47	241.10	36.14	-52.2	-53.5	3.4	0.00e+00	0	37	0	0	60	79483
2026-01-08 01:37:00.47	241.49	36.23	-42.5	-43.5	20.0	2.27e-02	0	37	104	0	60	7290
2026-01-08 01:37:01.49	241.88	36.32	-42.4	-43.4	22.3	0.00e+00	91	37	0	0	60	7220
2026-01-08 01:37:02.50	242.28	36.40	-42.5	-43.6	22.5	0.00e+00	0	37	102	1048576	60	7351
2026-01-08 01:37:03.51	242.67	36.49	-42.1	-43.2	22.7	0.00e+00	91	37	102	1048576	60	7030
2026-01-08 01:37:04.52	243.07	36.57	-41.8	-42.8	22.7	0.00e+00	92	37	102	1048576	60	6727
2026-01-08 01:37:05.53	243.46	36.66	-42.5	-43.5	22.2	0.00e+00	0	37	102	1048576	60	7322
2026-01-08 01:37:06.54	243.87	36.74	-42.4	-43.4	22.4	0.00e+00	75	37	102	1048576	60	7203
2026-01-08 01:37:07.55	244.27	36.82	-42.7	-43.7	22.2	0.00e+00	0	37	102	1048576	60	7464
2026-01-08 01:37:08.56	244.67	36.90	-42.5	-43.5	22.3	0.00e+00	90	37	102	1048576	60	7308
2026-01-08 01:37:09.57	245.08	36.98	-42.3	-43.4	22.2	0.00e+00	0	37	102	1048576	60	7186
2026-01-08 01:37:10.58	245.49	37.05	-41.9	-42.8	22.9	0.00e+00	92	37	102	1048576	60	6753
2026-01-08 01:37:11.59	245.90	37.13	-41.3	-42.2	23.3	0.00e+00	92	37	102	1048576	60	6269
2026-01-08 01:37:12.60	246.31	37.20	-41.4	-42.3	23.4	0.00e+00	0	37	102	1048576	60	6367
2026-01-08 01:37:13.61	246.72	37.27	-41.7	-42.6	23.0	0.00e+00	92	37	102	1048576	60	6611
2026-01-08 01:37:14.63	247.14	37.34	-42.0	-43.1	22.6	0.00e+00	0	37	102	1048576	60	6939
2026-01-08 01:37:15.63	247.56	37.41	-42.7	-43.7	22.1	0.00e+00	92	37	102	1048576	60	7487
2026-01-08 01:37:16.64	247.97	37.48	-42.7	-43.8	22.1	0.00e+00	0	37	102	1048576	60	7520
2026-01-08 01:37:17.66	248.40	37.55	-42.5	-43.5	22.3	0.00e+00	91	37	102	1048576	60	7282
2026-01-08 01:37:18.67	248.82	37.61	-42.4	-43.4	22.3	0.00e+00	91	37	102	1048576	60	7228
2026-01-08 01:37:19.68	249.24	37.67	-43.1	-44.2	21.7	0.00e+00	0	37	102	1048576	60	7911
2026-01-08 01:37:20.69	249.67	37.73	-43.6	-44.8	21.1	0.00e+00	59	37	102	1048576	60	8497
2026-01-08 01:37:21.70	250.10	37.79	-43.2	-44.4	21.6	0.00e+00	0	37	102	1048576	60	8070
2026-01-08 01:37:22.71	250.53	37.85	-42.3	-43.4	22.4	0.00e+00	78	37	102	1048576	60	7193
2026-01-08 01:37:23.72	250.96	37.91	-41.8	-42.7	22.9	0.00e+00	0	37	102	1048576	60	6685
2026-01-08 01:37:24.73	251.39	37.96	-41.5	-42.4	23.1	0.00e+00	93	37	102	1048576	60	6449
2026-01-08 01:37:25.74	251.82	38.01	-41.5	-42.5	23.0	0.00e+00	91	37	102	1048576	60	6481
2026-01-08 01:37:26.75	252.25	38.06	-41.9	-42.9	22.9	0.00e+00	0	37	102	1048576	60	6793
2026-01-08 01:37:27.76	252.69	38.11	-42.3	-43.4	22.4	0.00e+00	92	37	102	1048576	60	7217
2026-01-08 01:37:28.78	253.13	38.16	-42.4	-43.5	22.4	0.00e+00	0	37	102	1048576	60	7304
2026-01-08 01:37:29.79	253.57	38.21	-42.6	-43.6	22.3	0.00e+00	90	37	102	1048576	60	7409
2026-01-08 01:37:30.80	254.01	38.25	-42.9	-44.0	21.9	0.00e+00	0	37	102	1048576	60	7772
2026-01-08 01:37:31.81	254.45	38.29	-43.1	-44.2	21.7	0.00e+00	90	37	102	1048576	60	7938
2026-01-08 01:37:32.82	254.89	38.33	-43.1	-44.2	21.6	0.00e+00	0	37	102	1048576	60	7899
2026-01-08 01:37:33.83	255.33	38.37	-42.8	-43.9	22.0	0.00e+00	0	37	102	1048576	60	7664
2026-01-08 01:37:34.84	255.78	38.41	-41.9	-42.9	23.0	0.00e+00	92	37	102	1048576	60	6771
2026-01-08 01:37:35.85	256.22	38.44	-41.3	-42.3	23.3	0.00e+00	0	37	102	1048576	60	6327
2026-01-08 01:37:36.86	256.66	38.47	-41.3	-42.2	23.2	0.00e+00	92	37	102	1048576	60	6314
2026-01-08 01:37:37.87	257.11	38.51	-41.8	-42.8	22.9	0.00e+00	0	37	102	1048576	60	6718
2026-01-08 01:37:38.88	257.56	38.53	-42.2	-43.3	22.3	0.00e+00	92	37	102	1048576	60	7118
2026-01-08 01:37:39.90	258.01	38.56	-42.7	-43.8	22.1	0.00e+00	46	37	102	1048576	60	7534
2026-01-08 01:37:40.90	258.45	38.59	-43.1	-44.3	21.7	0.00e+00	0	37	102	1048576	60	7955
2026-01-08 01:37:41.91	258.90	38.61	-43.4	-44.6	21.4	0.00e+00	92	37	102	1048576	60	8300
2026-01-08 01:37:42.93	259.36	38.63	-43.6	-44.8	21.1	0.00e+00	0	37	102	1048576	60	8467
2026-01-08 01:37:43.94	259.81	38.65	-43.3	-44.5	21.7	0.00e+00	91	37	102	1048576	60	8177
2026-01-08 01:37:44.95	260.26	38.67	-42.6	-43.7	22.1	0.00e+00	0	37	102	1048576	60	7431
2026-01-08 01:37:45.96	260.71	38.68	-42.5	-43.5	22.2	0.00e+00	91	37	102	1048576	60	7281
2026-01-08 01:37:46.97	261.16	38.70	-42.9	-44.0	22.0	0.00e+00	0	37	102	1048576	60	7700
2026-01-08 01:37:47.98	261.61	38.71	-42.8	-43.9	22.0	0.00e+00	67	37	102	1048576	60	7630
2026-01-08 01:37:48.99	262.06	38.72	-42.9	-44.0	22.0	0.00e+00	92	37	102	1048576	60	7711
2026-01-08 01:37:50.00	262.52	38.73	-43.1	-44.2	21.6	0.00e+00	0	37	102	1048576	60	7923
2026-01-08 01:37:51.01	262.97	38.73	-44.2	-45.6	20.6	0.00e+00	48	37	102	1048576	60	9245
2026-01-08 01:37:52.02	263.42	38.74	-45.9	-47.6	18.7	0.00e+00	0	37	102	1048576	60	11733
2026-01-08 01:37:53.03	263.87	38.74	-46.5	-48.4	18.1	0.00e+00	37	37	102	1048576	60	12878
2026-01-08 01:37:54.04	264.33	38.74	-45.3	-46.9	19.3	0.00e+00	0	37	102	1048576	60	10759
2026-01-08 01:37:55.05	264.78	38.74	-43.5	-44.7	21.5	0.00e+00	63	37	102	1048576	60	8369
2026-01-08 01:37:56.06	265.23	38.73	-42.6	-43.7	22.2	0.00e+00	14	37	102	1048576	60	7439
2026-01-08 01:37:57.07	265.68	38.73	-42.0	-43.0	22.7	0.00e+00	0	37	102	1048576	60	6914
2026-01-08 01:37:58.08	266.14	38.72	-41.9	-42.9	22.8	0.00e+00	43	37	102	1048576	60	6792
2026-01-08 01:37:59.09	266.59	38.71	-41.6	-42.5	23.2	0.00e+00	0	37	102	1048576	60	6533
2026-01-08 01:38:00.10	267.04	38.70	-41.1	-42.1	23.4	0.00e+00	92	36	102	1048576	60	6183
2026-01-08 01:38:01.12	267.49	38.68	-41.1	-42.0	23.2	0.00e+00	27	37	102	1048576	60	6160
2026-01-08 01:38:02.13	267.95	38.67	-41.3	-42.2	23.3	0.00e+00	90	37	102	1048576	60	6302
2026-01-08 01:38:03.14	268.40	38.65	-41.5	-42.4	23.0	0.00e+00	92	36	102	1048576	60	6464
2026-01-08 01:38:04.15	268.85	38.63	-41.4	-42.3	23.2	0.00e+00	0	36	102	1048576	60	6381
2026-01-08 01:38:05.16	269.29	38.61	-41.1	-42.0	23.5	0.00e+00	90	36	102	1048576	60	6113
2026-01-08 01:38:06.17	269.74	38.58	-41.2	-42.1	23.4	0.00e+00	0	37	102	1048576	60	6219
2026-01-08 01:38:07.18	270.19	38.56	-41.6	-42.5	23.0	0.00e+00	92	37	102	1048576	60	6503
2026-01-08 01:38:08.19	270.64	38.53	-41.6	-42.5	23.1	0.00e+00	0	37	102	1048576	60	6520
2026-01-08 01:38:09.20	271.08	38.50	-41.2	-42.2	23.4	0.00e+00	92	36	102	1048576	60	6247
2026-01-08 01:38:10.22	271.53	38.47	-41.1	-42.0	23.4	0.00e+00	49	37	102	1048576	60	6168
2026-01-08 01:38:11.23	271.98	38.44	-41.1	-42.1	23.4	0.00e+00	0	36	102	1048576	60	6180
2026-01-08 01:38:12.24	272.42	38.40	-41.0	-42.0	23.6	0.00e+00	92	36	102	1048576	60	6104
2026-01-08 01:38:13.25	272.87	38.36	-40.8	-41.7	23.8	0.00e+00	0	36	102	1048576	60	5917
2026-01-08 01:38:14.26	273.31	38.32	-40.5	-41.3	23.9	0.00e+00	92	36	102	1048576	60	5683
2026-01-08 01:38:15.27	273.75	38.28	-41.1	-42.0	23.4	0.00e+00	0	36	102	1048576	60	6116
2026-01-08 01:38:16.28	274.19	38.24	-41.8	-42.8	22.8	0.00e+00	90	37	102	1048576	60	6700
2026-01-08 01:38:17.29	274.63	38.20	-42.4	-43.4	22.3	0.00e+00	48	36	102	1048576	60	7220
2026-01-08 01:38:18.30	275.06	38.15	-42.4	-43.4	22.4	0.00e+00	0	36	102	1048576	60	7212
2026-01-08 01:38:19.31	275.50	38.10	-42.2	-43.3	22.6	0.00e+00	91	37	102	1048576	60	7100
2026-01-08 01:38:20.32	275.93	38.06	-41.7	-42.7	22.8	0.00e+00	0	36	102	1048576	60	6666
2026-01-08 01:38:21.34	276.37	38.00	-42.1	-43.1	22.5	0.00e+00	48	36	102	1048576	60	6997
2026-01-08 01:38:22.35	276.80	37.95	-42.4	-43.5	21.9	0.00e+00	0	36	102	1048576	60	7313
2026-01-08 01:38:23.36	277.23	37.90	-42.7	-43.8	22.0	0.00e+00	92	36	102	1048576	60	7558
2026-01-08 01:38:24.37	277.66	37.84	-41.7	-42.7	23.0	0.00e+00	0	36	102	1048576	60	6631
2026-01-08 01:38:25.38	278.09	37.78	-42.1	-43.2	22.6	0.00e+00	16	36	102	1048576	60	7023
2026-01-08 01:38:26.39	278.52	37.72	-43.0	-44.1	21.5	0.00e+00	92	36	102	1048576	60	7817
2026-01-08 01:38:27.40	278.94	37.66	-44.2	-45.6	20.7	0.00e+00	0	36	102	1048576	60	9255
2026-01-08 01:38:28.41	279.36	37.60	-44.4	-45.8	20.8	0.00e+00	80	36	102	1048576	60	9457
2026-01-08 01:38:29.42	279.78	37.53	-42.5	-43.6	22.4	0.00e+00	0	36	102	1048576	60	7385
2026-01-08 01:38:30.43	280.20	37.47	-41.7	-42.7	22.9	0.00e+00	90	36	102	1048576	60	6637
2026-01-08 01:38:31.45	280.63	37.40	-41.6	-42.6	22.9	0.00e+00	0	36	102	1048576	60	6586
2026-01-08 01:38:32.46	281.04	37.33	-42.0	-43.0	22.7	0.00e+00	92	36	102	1048576	60	6906
2026-01-08 01:38:33.47	281.46	37.26	-42.0	-43.0	22.8	0.00e+00	92	36	102	1048576	60	6898
2026-01-08 01:38:34.48	281.87	37.19	-41.6	-42.5	23.1	0.00e+00	0	36	102	1048576	60	6517
2026-01-08 01:38:35.49	282.28	37.12	-41.2	-42.1	23.5	0.00e+00	68	36	102	1048576	60	6180
2026-01-08 01:38:36.50	282.69	37.04	-41.3	-42.2	23.3	0.00e+00	0	36	102	1048576	60	6286
2026-01-08 01:38:37.51	283.10	36.96	-42.4	-43.5	22.3	0.00e+00	86	36	102	1048576	60	7256
2026-01-08 01:38:38.52	283.50	36.89	-43.5	-44.6	21.3	0.00e+00	0	36	102	1048576	60	8328
2026-01-08 01:38:39.54	283.91	36.81	-43.2	-44.4	21.6	0.00e+00	83	36	102	1048576	60	8058
2026-01-08 01:38:40.54	284.30	36.73	-43.0	-44.1	21.9	0.00e+00	92	36	102	1048576	60	7798
2026-01-08 01:38:41.56	284.71	36.64	-42.0	-42.9	22.9	0.00e+00	0	36	102	1048576	60	6835
2026-01-08 01:38:42.57	285.11	36.56	-41.3	-42.2	23.4	0.00e+00	42	36	102	1048576	60	6289
2026-01-08 01:38:43.58	285.50	36.48	-41.6	-42.6	23.0	0.00e+00	0	36	102	1048576	60	6561
2026-01-08 01:38:44.59	285.89	36.39	-41.6	-42.6	23.1	0.00e+00	80	36	102	1048576	60	6549
2026-01-08 01:38:45.60	286.28	36.30	-41.6	-42.6	23.0	0.00e+00	0	36	102	1048576	60	6572
2026-01-08 01:38:46.61	286.67	36.22	-41.2	-42.1	23.4	0.00e+00	92	36	102	1048576	60	6192
2026-01-08 01:38:47.62	287.06	36.13	-40.5	-41.4	23.9	0.00e+00	46	36	102	1048576	60	5716
2026-01-08 01:38:48.63	287.45	36.04	-39.9	-40.7	24.4	0.00e+00	0	36	102	1048576	58	5919
2026-01-08 01:38:49.64	287.83	35.95	-40.3	-41.2	24.0	0.00e+00	43	36	102	1048576	58	6255
2026-01-08 01:38:50.65	288.21	35.85	-41.0	-41.9	23.7	0.00e+00	0	36	102	1048576	58	6835
2026-01-08 01:38:51.67	288.59	35.76	-40.9	-41.8	23.5	0.00e+00	67	36	102	1048576	58	6759
2026-01-08 01:38:52.68	288.97	35.66	-41.3	-42.2	23.3	0.00e+00	0	36	102	1048576	60	6287
2026-01-08 01:38:53.69	289.34	35.57	-41.4	-42.3	23.1	0.00e+00	91	36	102	1048576	60	6385
2026-01-08 01:38:54.70	289.71	35.47	-41.4	-42.4	23.2	0.00e+00	55	36	102	1048576	60	6420
2026-01-08 01:38:55.71	290.08	35.37	-42.1	-43.1	22.6	0.00e+00	0	36	102	1048576	60	6955
2026-01-08 01:38:56.72	290.45	35.27	-42.8	-43.8	21.9	0.00e+00	90	36	102	1048576	60	7591
2026-01-08 01:38:57.73	290.82	35.17	-44.5	-45.9	20.2	0.00e+00	0	36	102	1048576	60	9588
2026-01-08 01:38:58.74	291.18	35.07	-45.7	-47.4	18.7	0.00e+00	91	36	102	1048576	60	11489
2026-01-08 01:38:59.75	291.54	34.97	-45.1	-46.7	19.4	0.00e+00	0	36	102	1048576	60	10586
2026-01-08 01:39:00.76	291.90	34.87	-44.6	-46.0	20.1	0.00e+00	92	36	102	1048576	60	9777
2026-01-08 01:39:01.77	292.25	34.76	-44.0	-45.2	20.7	0.00e+00	46	36	102	1048576	60	8911
2026-01-08 01:39:02.78	292.61	34.66	-44.2	-45.5	20.4	0.00e+00	0	36	102	1048576	60	9208
2026-01-08 01:39:03.79	292.96	34.55	-45.2	-46.8	19.5	0.00e+00	90	36	102	1048576	60	10614
2026-01-08 01:39:04.80	293.31	34.45	-45.8	-47.4	18.9	0.00e+00	0	36	102	1048576	60	11464
2026-01-08 01:39:05.81	293.66	34.34	-45.0	-46.4	19.7	0.00e+00	72	36	102	1048576	60	10215
2026-01-08 01:39:06.83	294.01	34.23	-43.5	-44.6	21.6	0.00e+00	0	36	102	1048576	60	8290
2026-01-08 01:39:07.84	294.35	34.12	-42.7	-43.7	22.2	0.00e+00	90	36	102	1048576	60	7507
2026-01-08 01:39:08.85	294.69	34.01	-42.8	-43.8	22.1	0.00e+00	8	36	102	1048576	60	7580
2026-01-08 01:39:09.86	295.03	33.90	-43.8	-45.1	20.8	0.00e+00	0	36	102	1048576	60	8767
2026-01-08 01:39:10.87	295.36	33.79	-45.6	-47.2	18.9	0.00e+00	92	36	102	1048576	60	11206
2026-01-08 01:39:11.88	295.70	33.68	-46.2	-48.0	18.0	0.00e+00	0	36	102	1048576	60	12271
2026-01-08 01:39:12.89	296.03	33.57	-46.3	-48.2	18.1	0.00e+00	92	36	102	1048576	60	12576
2026-01-08 01:39:13.90	296.36	33.46	-45.0	-46.5	19.8	0.00e+00	0	36	102	1048576	60	10335
2026-01-08 01:39:14.91	296.68	33.35	-43.3	-44.4	21.4	0.00e+00	90	36	102	1048576	60	8136
2026-01-08 01:39:15.92	297.01	33.23	-42.9	-44.0	21.9	0.00e+00	0	36	102	1048576	60	7688
2026-01-08 01:39:16.93	297.33	33.12	-43.4	-44.5	21.3	0.00e+00	0	36	102	1048576	60	8211
2026-01-08 01:39:17.95	297.66	33.00	-44.5	-45.8	20.2	0.00e+00	91	36	102	1048576	60	9525
2026-01-08 01:39:18.96	297.97	32.89	-44.4	-45.8	20.3	0.00e+00	0	36	102	1048576	60	9483
2026-01-08 01:39:19.97	298.29	32.77	-43.5	-44.7	21.5	0.00e+00	90	36	102	1048576	60	8377
2026-01-08 01:39:20.98	298.60	32.65	-42.5	-43.5	22.3	0.00e+00	0	36	102	1048576	60	7308
2026-01-08 01:39:21.99	298.91	32.54	-41.8	-42.8	22.9	0.00e+00	68	36	102	1048576	60	6728
2026-01-08 01:39:23.00	299.22	32.42	-41.8	-42.7	22.8	0.00e+00	0	36	102	1048576	60	6689
2026-01-08 01:39:24.01	299.53	32.30	-42.4	-43.5	22.2	0.00e+00	56	36	102	1048576	60	7275
2026-01-08 01:39:25.02	299.84	32.18	-43.2	-44.4	21.8	0.00e+00	44	36	102	1048576	60	8052
2026-01-08 01:39:26.04	300.14	32.06	-43.4	-44.7	21.2	0.00e+00	0	36	102	1048576	60	8329
2026-01-08 01:39:27.05	300.44	31.95	-43.5	-44.7	21.2	0.00e+00	12	36	102	1048576	60	8396
2026-01-08 01:39:28.06	300.74	31.83	-42.8	-43.9	21.9	0.00e+00	0	36	102	1048576	60	7621
2026-01-08 01:39:29.07	301.04	31.71	-42.2	-43.3	22.4	0.00e+00	90	36	102	1048576	60	7107
2026-01-08 01:39:30.08	301.33	31.59	-42.1	-43.1	22.6	0.00e+00	0	36	102	1048576	60	6943
2026-01-08 01:39:31.09	301.62	31.47	-42.2	-43.2	22.5	0.00e+00	91	36	102	1048576	60	7040
2026-01-08 01:39:32.10	301.91	31.35	-41.9	-42.9	22.9	0.00e+00	92	36	102	1048576	60	6822
2026-01-08 01:39:33.11	302.20	31.23	-41.4	-42.4	23.3	0.00e+00	0	36	102	1048576	60	6394
2026-01-08 01:39:34.12	302.49	31.11	-40.5	-41.3	23.9	0.00e+00	43	36	102	1048576	60	5683
2026-01-08 01:39:35.13	302.77	30.98	-39.8	-40.6	24.2	0.00e+00	27	36	102	1048576	58	5879
2026-01-08 01:39:36.14	303.05	30.86	-39.5	-40.3	24.6	0.00e+00	92	36	102	1048576	58	5659
2026-01-08 01:39:37.15	303.33	30.74	-40.0	-40.8	24.2	0.00e+00	0	36	102	1048576	58	5976
2026-01-08 01:39:38.16	303.61	30.62	-41.2	-42.1	23.1	0.00e+00	87	36	102	1048576	58	6998
2026-01-08 01:39:39.17	303.88	30.50	-42.3	-43.3	22.4	0.00e+00	70	36	102	1048576	60	7130
2026-01-08 01:39:40.19	304.16	30.37	-43.1	-44.3	21.6	0.00e+00	0	36	102	1048576	60	7976
2026-01-08 01:39:41.20	304.43	30.25	-41.7	-42.7	23.0	0.00e+00	50	36	102	1048576	60	6617
2026-01-08 01:39:42.21	304.70	30.13	-40.9	-41.8	23.6	0.00e+00	0	36	102	1048576	60	6007
2026-01-08 01:39:43.22	304.96	30.01	-40.9	-41.8	23.6	0.00e+00	90	36	102	1048576	60	6010
2026-01-08 01:39:44.23	305.23	29.88	-40.9	-41.8	23.4	0.00e+00	0	36	102	1048576	60	5972
2026-01-08 01:39:45.24	305.49	29.76	-41.7	-42.7	22.9	0.00e+00	91	36	102	1048576	60	6665
2026-01-08 01:39:46.25	305.75	29.64	-42.5	-43.6	22.1	0.00e+00	46	36	102	1048576	60	7392
2026-01-08 01:39:47.26	306.01	29.51	-42.5	-43.6	22.1	0.00e+00	0	36	102	1048576	60	7417
2026-01-08 01:39:48.27	306.27	29.39	-42.4	-43.5	22.3	0.00e+00	92	36	102	1048576	60	7290
2026-01-08 01:39:49.28	306.53	29.27	-41.4	-42.3	23.3	0.00e+00	0	36	102	1048576	60	6367
2026-01-08 01:39:50.29	306.78	29.14	-41.0	-41.9	23.4	0.00e+00	76	36	102	1048576	60	6103
2026-01-08 01:39:51.30	307.03	29.02	-40.3	-41.1	24.1	0.00e+00	0	36	102	1048576	60	5566
2026-01-08 01:39:52.31	307.28	28.90	-40.3	-41.2	23.8	0.00e+00	90	36	102	1048576	58	6283
2026-01-08 01:39:53.33	307.53	28.77	-41.5	-42.4	23.0	0.00e+00	0	36	102	1048576	60	6428
2026-01-08 01:39:54.34	307.78	28.65	-42.5	-43.6	22.1	0.00e+00	0	36	102	1048576	60	7392
2026-01-08 01:39:55.35	308.02	28.52	-42.5	-43.6	22.2	0.00e+00	92	36	102	1048576	60	7353
2026-01-08 01:39:56.36	308.26	28.40	-41.5	-42.5	22.7	0.00e+00	0	36	102	1048576	60	6483
2026-01-08 01:39:57.37	308.50	28.28	-41.3	-42.2	23.2	0.00e+00	92	36	102	1048576	60	6278
2026-01-08 01:39:58.38	308.74	28.15	-40.8	-41.7	23.6	0.00e+00	0	36	102	1048576	60	5942
2026-01-08 01:39:59.39	308.98	28.03	-41.2	-42.1	23.3	0.00e+00	67	36	102	1048576	60	6224
2026-01-08 01:40:00.40	309.21	27.91	-42.0	-43.0	22.6	0.00e+00	0	36	102	1048576	60	6916
2026-01-08 01:40:01.41	309.45	27.78	-42.3	-43.4	22.4	0.00e+00	0	36	102	1048576	60	7243
2026-01-08 01:40:02.42	309.68	27.66	-42.1	-43.2	22.6	0.00e+00	70	36	102	1048576	60	7015
2026-01-08 01:40:03.44	309.91	27.54	-40.7	-41.6	23.8	0.00e+00	0	36	102	1048576	60	5893
2026-01-08 01:40:04.45	310.14	27.41	-39.3	-40.1	24.9	0.00e+00	40	36	102	1048576	58	5548
2026-01-08 01:40:05.46	310.36	27.29	-38.9	-39.7	24.9	0.00e+00	0	36	102	1048576	56	5935
2026-01-08 01:40:06.47	310.59	27.17	-38.5	-39.2	25.3	0.00e+00	71	36	102	1048576	56	5600
2026-01-08 01:40:07.48	310.81	27.04	-39.1	-39.9	25.0	0.00e+00	0	36	102	1048576	56	6082
2026-01-08 01:40:08.49	311.03	26.92	-40.0	-40.8	24.2	0.00e+00	0	36	102	1048576	56	6740
2026-01-08 01:40:09.50	311.25	26.80	-40.9	-41.9	23.4	0.00e+00	92	36	102	1048576	58	6796
2026-01-08 01:40:10.51	311.47	26.68	-41.7	-42.7	22.8	0.00e+00	0	36	102	1048576	60	6632
2026-01-08 01:40:11.52	311.68	26.55	-41.6	-42.6	23.0	0.00e+00	43	36	102	1048576	60	6553
2026-01-08 01:40:12.53	311.90	26.43	-41.3	-42.3	23.2	0.00e+00	0	36	102	1048576	60	6363
2026-01-08 01:40:13.55	312.11	26.31	-40.6	-41.5	23.7	0.00e+00	92	36	102	1048576	60	5785
2026-01-08 01:40:14.56	312.33	26.19	-39.7	-40.6	24.4	0.00e+00	0	36	102	1048576	58	5843
2026-01-08 01:40:15.57	312.54	26.06	-39.4	-40.2	24.6	0.00e+00	0	36	102	1048576	58	5571
2026-01-08 01:40:16.58	312.74	25.94	-39.4	-40.2	24.5	0.00e+00	92	36	102	1048576	58	5615
2026-01-08 01:40:17.59	312.95	25.82	-39.6	-40.4	24.5	0.00e+00	0	36	102	1048576	58	5720
2026-01-08 01:40:18.60	313.15	25.70	-40.1	-41.0	24.1	0.00e+00	46	36	102	1048576	58	6138
2026-01-08 01:40:19.61	313.36	25.58	-40.5	-41.4	23.7	0.00e+00	0	36	102	1048576	58	6424
2026-01-08 01:40:20.62	313.56	25.46	-40.4	-41.3	23.8	0.00e+00	71	36	102	1048576	58	6352
2026-01-08 01:40:21.64	313.76	25.34	-40.3	-41.1	24.0	0.00e+00	0	36	102	1048576	58	6237
2026-01-08 01:40:22.65	313.96	25.22	-40.0	-40.9	24.2	0.00e+00	44	36	102	1048576	58	6060
2026-01-08 01:40:23.66	314.16	25.10	-39.7	-40.5	24.3	0.00e+00	42	36	102	1048576	58	5788
2026-01-08 01:40:24.67	314.36	24.98	-39.3	-40.1	24.7	0.00e+00	0	36	102	1048576	58	5504
2026-01-08 01:40:25.68	314.55	24.86	-38.9	-39.6	25.0	0.00e+00	43	36	102	1048576	56	5882
2026-01-08 01:40:26.69	314.74	24.74	-39.2	-40.0	24.5	0.00e+00	0	36	102	1048576	56	6107
2026-01-08 01:40:27.70	314.94	24.62	-39.3	-40.1	24.7	0.00e+00	89	36	102	1048576	56	6201
2026-01-08 01:40:28.71	315.13	24.50	-39.5	-40.3	24.5	0.00e+00	0	36	102	1048576	56	6368
2026-01-08 01:40:29.72	315.31	24.38	-39.7	-40.6	24.3	0.00e+00	70	36	102	1048576	56	6564
2026-01-08 01:40:30.73	315.50	24.26	-40.1	-40.9	23.3	0.00e+00	41	36	102	1048576	58	6096
2026-01-08 01:40:31.75	315.69	24.14	-39.9	-40.7	24.0	0.00e+00	0	36	102	1048576	58	5958
2026-01-08 01:40:32.75	315.87	24.02	-40.1	-40.9	24.1	0.00e+00	70	36	102	1048576	58	6096
2026-01-08 01:40:33.77	316.06	23.90	-39.5	-40.4	24.5	0.00e+00	0	36	102	1048576	58	5708
2026-01-08 01:40:34.78	316.24	23.79	-39.1	-39.9	24.8	0.00e+00	89	36	102	1048576	58	5384
2026-01-08 01:40:35.79	316.42	23.67	-38.7	-39.5	24.9	0.00e+00	0	36	102	1048576	56	5803
2026-01-08 01:40:36.80	316.60	23.55	-38.6	-39.4	25.1	0.00e+00	90	36	102	1048576	56	5712
2026-01-08 01:40:37.81	316.78	23.43	-38.5	-39.2	25.2	0.00e+00	0	36	102	1048576	56	5622
2026-01-08 01:40:38.82	316.96	23.32	-38.7	-39.5	25.0	0.00e+00	0	36	102	1048576	56	5807
2026-01-08 01:40:39.83	317.13	23.20	-39.1	-39.8	24.9	0.00e+00	92	36	102	1048576	56	6031
2026-01-08 01:40:40.84	317.31	23.08	-39.2	-40.0	24.8	0.00e+00	0	36	102	1048576	56	6164
2026-01-08 01:40:41.85	317.48	22.97	-39.4	-40.2	24.5	0.00e+00	91	36	102	1048576	56	6309
2026-01-08 01:40:42.86	317.65	22.85	-39.6	-40.4	24.5	0.00e+00	0	36	102	1048576	56	6437
2026-01-08 01:40:43.87	317.82	22.74	-39.6	-40.5	24.3	0.00e+00	80	36	102	1048576	56	6479
2026-01-08 01:40:44.89	317.99	22.62	-39.7	-40.6	24.3	0.00e+00	43	36	102	1048576	56	6548
2026-01-08 01:40:45.90	318.16	22.51	-39.4	-40.2	24.5	0.00e+00	0	36	102	1048576	56	6283
2026-01-08 01:40:46.91	318.33	22.39	-39.4	-40.2	24.5	0.00e+00	76	36	102	1048576	56	6268
2026-01-08 01:40:47.92	318.49	22.28	-39.2	-40.0	24.7	0.00e+00	0	36	102	1048576	56	6163
2026-01-08 01:40:48.93	318.66	22.16	-39.2	-40.1	24.6	0.00e+00	92	36	102	1048576	56	6183
2026-01-08 01:40:49.94	318.82	22.05	-39.2	-40.0	24.5	0.00e+00	0	36	102	1048576	56	6124
2026-01-08 01:40:50.95	318.98	21.94	-39.2	-40.0	24.7	0.00e+00	92	36	102	1048576	56	6166
2026-01-08 01:40:51.96	319.15	21.82	-39.3	-40.1	24.6	0.00e+00	0	36	102	1048576	56	6245
2026-01-08 01:40:52.97	319.31	21.71	-39.4	-40.2	24.6	0.00e+00	0	36	102	1048576	56	6296
2026-01-08 01:40:53.98	319.46	21.60	-39.6	-40.5	24.3	0.00e+00	92	36	102	1048576	56	6475
2026-01-08 01:40:55.00	319.62	21.48	-39.4	-40.3	24.5	0.00e+00	0	36	102	1048576	56	6319
2026-01-08 01:40:56.01	319.78	21.37	-39.5	-40.3	24.4	0.00e+00	0	36	102	1048576	56	6363
2026-01-08 01:40:57.02	319.94	21.26	-39.5	-40.3	24.5	0.00e+00	0	36	102	1048576	56	6363
2026-01-08 01:40:58.03	320.09	21.15	-39.4	-40.2	24.6	0.00e+00	57	36	102	1048576	56	6280
2026-01-08 01:40:59.04	320.24	21.04	-39.4	-40.2	24.4	0.00e+00	0	36	102	1048576	56	6303
2026-01-08 01:41:00.05	320.40	20.93	-39.5	-40.3	24.7	0.00e+00	0	36	102	1048576	56	6365
2026-01-08 01:41:01.06	320.55	20.81	-39.2	-40.1	24.6	0.00e+00	91	36	102	1048576	56	6174
2026-01-08 01:41:02.07	320.70	20.70	-39.4	-40.3	24.5	0.00e+00	0	36	102	1048576	56	6328
2026-01-08 01:41:03.08	320.85	20.59	-39.4	-40.3	24.5	0.00e+00	92	36	102	1048576	56	6332
2026-01-08 01:41:04.10	321.00	20.48	-39.7	-40.5	24.4	0.00e+00	0	36	102	1048576	56	6533
2026-01-08 01:41:05.11	321.14	20.37	-39.7	-40.5	24.3	0.00e+00	0	36	102	1048576	56	6523
2026-01-08 01:41:06.12	321.29	20.26	-39.9	-40.7	24.2	0.00e+00	0	36	102	1048576	56	6654
2026-01-08 01:41:07.13	321.43	20.16	-39.9	-40.8	24.1	0.00e+00	0	36	102	1048576	56	6733
2026-01-08 01:41:08.14	321.58	20.05	-39.8	-40.6	24.2	0.00e+00	41	36	102	1048576	56	6569
2026-01-08 01:41:09.15	321.72	19.94	-39.8	-40.7	24.1	0.00e+00	0	36	102	1048576	56	6648
2026-01-08 01:41:10.16	321.86	19.83	-40.2	-41.1	23.8	0.00e+00	92	36	102	1048576	58	6222
2026-01-08 01:41:11.17	322.00	19.72	-40.1	-41.0	23.8	0.00e+00	0	36	102	1048576	58	6145
2026-01-08 01:41:12.18	322.15	19.62	-40.6	-41.5	23.4	0.00e+00	66	36	102	1048576	58	6539
2026-01-08 01:41:13.19	322.28	19.51	-40.7	-41.6	23.3	0.00e+00	0	36	102	1048576	58	6597
2026-01-08 01:41:14.20	322.42	19.40	-40.9	-41.8	23.2	0.00e+00	0	36	102	1048576	58	6761
2026-01-08 01:41:15.21	322.56	19.30	-41.4	-42.4	22.8	0.00e+00	44	36	102	1048576	60	6451
2026-01-08 01:41:16.22	322.70	19.19	-41.2	-42.2	23.1	0.00e+00	0	36	102	1048576	60	6278
2026-01-08 01:41:17.23	322.83	19.08	-41.3	-42.3	22.9	0.00e+00	76	36	102	1048576	60	6359
2026-01-08 01:41:18.25	322.97	18.98	-41.1	-42.0	23.2	0.00e+00	0	36	102	1048576	60	6166
2026-01-08 01:41:19.26	323.10	18.87	-41.1	-42.1	23.1	0.00e+00	0	36	102	1048576	60	6209
2026-01-08 01:41:20.27	323.23	18.77	-41.3	-42.2	23.0	0.00e+00	0	36	102	1048576	60	6314
2026-01-08 01:41:21.28	323.37	18.66	-41.1	-42.1	23.1	0.00e+00	0	36	102	1048576	60	6203
2026-01-08 01:41:22.29	323.50	18.56	-41.3	-42.3	23.0	0.00e+00	43	36	102	1048576	60	6327
2026-01-08 01:41:23.30	323.63	18.45	-41.6	-42.6	22.8	0.00e+00	0	36	102	1048576	60	6594
2026-01-08 01:41:24.31	323.76	18.35	-41.5	-42.5	22.8	0.00e+00	69	36	102	1048576	60	6482
2026-01-08 01:41:25.32	323.89	18.25	-41.6	-42.7	22.6	0.00e+00	0	36	102	1048576	60	6631
2026-01-08 01:41:26.33	324.01	18.14	-41.9	-43.0	22.3	0.00e+00	62	36	102	1048576	60	6863
2026-01-08 01:41:27.34	324.14	18.04	-42.3	-43.5	22.1	0.00e+00	0	36	102	1048576	60	7277
2026-01-08 01:41:28.35	324.27	17.94	-42.7	-43.9	21.6	0.00e+00	0	36	102	1048576	60	7674
2026-01-08 01:41:29.37	324.39	17.84	-42.6	-43.8	21.7	0.00e+00	9	36	102	1048576	60	7514
2026-01-08 01:41:30.38	324.52	17.73	-42.5	-43.7	21.9	0.00e+00	0	36	102	1048576	60	7430
2026-01-08 01:41:31.39	324.64	17.63	-42.3	-43.4	22.0	0.00e+00	71	36	102	1048576	60	7218
2026-01-08 01:41:32.40	324.76	17.53	-42.0	-43.1	22.2	0.00e+00	0	36	102	1048576	60	6941
2026-01-08 01:41:33.41	324.89	17.43	-41.7	-42.8	22.5	0.00e+00	91	36	102	1048576	60	6697
2026-01-08 01:41:34.42	325.01	17.33	-41.2	-42.3	22.9	0.00e+00	0	36	102	1048576	60	6328
2026-01-08 01:41:35.43	325.13	17.23	-41.0	-42.0	23.1	0.00e+00	0	36	102	1048576	60	6155
2026-01-08 01:41:36.44	325.25	17.13	-41.0	-41.9	23.2	0.00e+00	0	36	102	1048576	60	6083
2026-01-08 01:41:37.45	325.37	17.03	-40.9	-41.8	23.2	0.00e+00	0	36	102	1048576	60	6013
2026-01-08 01:41:38.46	325.49	16.93	-40.9	-41.8	23.3	0.00e+00	36	36	102	1048576	60	6023
2026-01-08 01:41:39.47	325.60	16.83	-40.8	-41.8	23.3	0.00e+00	0	36	102	1048576	60	5974
2026-01-08 01:41:40.48	325.72	16.73	-40.9	-41.9	23.2	0.00e+00	88	36	102	1048576	60	6073
2026-01-08 01:41:41.49	325.84	16.63	-41.1	-42.1	22.9	0.00e+00	0	36	102	1048576	60	6219
2026-01-08 01:41:42.50	325.95	16.53	-41.1	-42.1	22.7	0.00e+00	0	36	102	1048576	60	6203
2026-01-08 01:41:43.52	326.07	16.43	-41.2	-42.2	22.9	0.00e+00	0	36	102	1048576	60	6273
2026-01-08 01:41:44.53	326.18	16.34	-41.3	-42.4	22.7	0.00e+00	0	36	102	1048576	60	6399
2026-01-08 01:41:45.54	326.29	16.24	-41.4	-42.4	22.9	0.00e+00	38	36	102	1048576	60	6450
2026-01-08 01:41:46.55	326.41	16.14	-41.4	-42.4	22.7	0.00e+00	0	36	102	1048576	60	6444
2026-01-08 01:41:47.56	326.52	16.05	-41.2	-42.2	22.9	0.00e+00	66	36	102	1048576	60	6303
2026-01-08 01:41:48.57	326.63	15.95	-40.9	-41.9	23.2	0.00e+00	0	36	102	1048576	60	6057
2026-01-08 01:41:49.58	326.74	15.85	-41.0	-42.0	23.1	0.00e+00	0	36	102	1048576	60	6105
2026-01-08 01:41:50.59	326.85	15.76	-40.9	-41.9	23.1	0.00e+00	0	36	102	1048576	60	6065
2026-01-08 01:41:51.60	326.96	15.66	-40.6	-41.6	23.4	0.00e+00	0	36	102	1048576	60	5834
2026-01-08 01:41:52.61	327.07	15.57	-40.7	-41.7	23.3	0.00e+00	38	36	102	1048576	60	5919
2026-01-08 01:41:53.63	327.17	15.47	-40.6	-41.5	23.5	0.00e+00	0	36	102	1048576	60	5807
2026-01-08 01:41:54.64	327.28	15.37	-40.6	-41.5	23.4	0.00e+00	92	36	102	1048576	60	5806
2026-01-08 01:41:55.65	327.39	15.28	-40.6	-41.6	23.4	0.00e+00	0	36	102	1048576	60	5840
2026-01-08 01:41:56.66	327.49	15.19	-40.6	-41.5	23.4	0.00e+00	0	36	102	1048576	60	5824
2026-01-08 01:41:57.67	327.60	15.09	-40.8	-41.8	23.4	0.00e+00	0	36	102	1048576	60	5973
2026-01-08 01:41:58.68	327.70	15.00	-41.0	-42.0	23.2	0.00e+00	0	36	102	1048576	60	6104
2026-01-08 01:41:59.69	327.81	14.90	-41.0	-41.9	23.1	0.00e+00	41	36	102	1048576	60	6103
2026-01-08 01:42:00.70	327.91	14.81	-40.9	-41.9	23.1	0.00e+00	0	36	102	1048576	60	6055
2026-01-08 01:42:01.71	328.01	14.72	-41.2	-42.2	22.8	0.00e+00	71	36	102	1048576	60	6292
2026-01-08 01:42:02.72	328.12	14.63	-41.3	-42.3	22.9	0.00e+00	0	36	102	1048576	60	6352
2026-01-08 01:42:03.74	328.22	14.53	-41.4	-42.5	22.7	0.00e+00	0	36	102	1048576	60	6465
2026-01-08 01:42:04.75	328.32	14.44	-41.4	-42.4	22.7	0.00e+00	0	36	102	1048576	60	6464
2026-01-08 01:42:05.76	328.42	14.35	-41.1	-42.1	22.9	0.00e+00	0	36	102	1048576	60	6218
2026-01-08 01:42:06.77	328.52	14.26	-41.2	-42.2	22.9	0.00e+00	40	36	102	1048576	60	6298
2026-01-08 01:42:07.78	328.62	14.16	-41.0	-41.9	23.1	0.00e+00	0	36	102	1048576	60	6100
2026-01-08 01:42:08.79	328.72	14.07	-40.9	-41.8	23.2	0.00e+00	78	36	102	1048576	60	6028
2026-01-08 01:42:09.80	328.81	13.98	-41.0	-42.0	23.0	0.00e+00	0	36	102	1048576	60	6146
2026-01-08 01:42:10.81	328.91	13.89	-41.0	-42.0	22.8	0.00e+00	92	36	102	1048576	60	6152
2026-01-08 01:42:11.82	329.01	13.80	-40.9	-41.9	23.0	0.00e+00	0	36	102	1048576	60	6074
2026-01-08 01:42:12.84	329.10	13.71	-41.1	-42.1	23.0	0.00e+00	0	36	102	1048576	60	6195
2026-01-08 01:42:13.85	329.20	13.62	-41.1	-42.0	23.0	0.00e+00	0	36	102	1048576	60	6160
2026-01-08 01:42:14.86	329.30	13.53	-41.3	-42.3	22.8	0.00e+00	0	36	102	1048576	60	6359
2026-01-08 01:42:15.87	329.39	13.44	-41.3	-42.3	22.8	0.00e+00	40	36	102	1048576	60	6322
2026-01-08 01:42:16.88	329.48	13.35	-41.7	-42.8	22.4	0.00e+00	0	36	102	1048576	60	6700
2026-01-08 01:42:17.89	329.58	13.27	-42.0	-43.1	22.1	0.00e+00	18	36	102	1048576	60	6958
2026-01-08 01:42:18.90	329.67	13.18	-42.0	-43.1	22.0	0.00e+00	0	36	102	1048576	60	6962
2026-01-08 01:42:19.91	329.76	13.09	-42.4	-43.5	21.8	0.00e+00	0	36	102	1048576	60	7308
2026-01-08 01:42:20.92	329.85	13.00	-42.6	-43.8	21.7	0.00e+00	0	36	102	1048576	60	7538
2026-01-08 01:42:21.93	329.95	12.91	-42.9	-44.1	21.2	0.00e+00	0	36	102	1048576	60	7858
2026-01-08 01:42:22.95	330.04	12.83	-43.3	-44.6	20.8	0.00e+00	90	36	102	1048576	60	8291
2026-01-08 01:42:23.96	330.13	12.74	-43.1	-44.4	21.0	0.00e+00	0	36	102	1048576	60	8099
2026-01-08 01:42:24.97	330.22	12.65	-43.4	-44.7	20.7	0.00e+00	69	36	102	1048576	60	8363
2026-01-08 01:42:25.98	330.31	12.56	-43.9	-45.3	20.3	0.00e+00	0	36	102	1048576	60	8969
2026-01-08 01:42:26.99	330.40	12.48	-43.8	-45.2	20.4	0.00e+00	0	36	102	1048576	60	8845
2026-01-08 01:42:28.00	330.48	12.39	-43.9	-45.4	20.2	0.00e+00	0	36	102	1048576	60	9039
2026-01-08 01:42:29.01	330.57	12.31	-43.7	-45.1	20.4	0.00e+00	0	36	102	1048576	60	8803
2026-01-08 01:42:30.02	330.66	12.22	-43.6	-44.9	20.5	0.00e+00	49	36	102	1048576	60	8608
2026-01-08 01:42:31.03	330.75	12.13	-43.6	-44.9	20.5	0.00e+00	0	36	102	1048576	60	8614
2026-01-08 01:42:32.04	330.83	12.05	-43.2	-44.5	20.9	0.00e+00	4	36	102	1048576	60	8183
2026-01-08 01:42:33.05	330.92	11.96	-43.2	-44.5	20.9	0.00e+00	0	36	102	1048576	60	8160
2026-01-08 01:42:34.07	331.01	11.88	-42.7	-43.9	21.3	0.00e+00	0	36	102	1048576	60	7637
2026-01-08 01:42:35.08	331.09	11.79	-42.4	-43.5	21.8	0.00e+00	0	36	102	1048576	60	7335
2026-01-08 01:42:36.09	331.18	11.71	-42.4	-43.6	21.6	0.00e+00	0	36	102	1048576	60	7360
2026-01-08 01:42:37.10	331.26	11.63	-42.0	-43.1	22.2	0.00e+00	70	36	102	1048576	60	6972
2026-01-08 01:42:38.11	331.34	11.54	-41.8	-42.9	22.2	0.00e+00	0	36	102	1048576	60	6788
2026-01-08 01:42:39.12	331.43	11.46	-41.8	-42.8	22.3	0.00e+00	91	36	102	1048576	60	6742
2026-01-08 01:42:40.13	331.51	11.38	-41.5	-42.5	22.5	0.00e+00	0	36	102	1048576	60	6511
2026-01-08 01:42:41.14	331.59	11.29	-41.6	-42.7	22.3	0.00e+00	0	36	102	1048576	60	6618
2026-01-08 01:42:42.15	331.67	11.21	-41.4	-42.5	22.7	0.00e+00	0	36	102	1048576	60	6467
2026-01-08 01:42:43.16	331.75	11.13	-41.3	-42.3	22.7	0.00e+00	28	36	102	1048576	60	6354
2026-01-08 01:42:44.18	331.84	11.04	-41.3	-42.3	22.8	0.00e+00	36	36	102	1048576	60	6353
2026-01-08 01:42:45.19	331.92	10.96	-41.0	-42.0	22.9	0.00e+00	0	36	102	1048576	60	6150
2026-01-08 01:42:46.20	332.00	10.88	-41.3	-42.3	22.6	0.00e+00	92	36	102	1048576	60	6368
2026-01-08 01:42:47.21	332.08	10.80	-41.4	-42.4	22.6	0.00e+00	0	36	102	1048576	60	6443
2026-01-08 01:42:48.22	332.16	10.72	-41.0	-42.0	23.0	0.00e+00	58	36	102	1048576	60	6122
2026-01-08 01:42:49.23	332.24	10.64	-41.1	-42.0	22.8	0.00e+00	0	36	102	1048576	60	6172
2026-01-08 01:42:50.24	332.31	10.56	-41.0	-42.0	22.9	0.00e+00	0	36	102	1048576	60	6150
2026-01-08 01:42:51.25	332.39	10.47	-41.1	-42.0	22.8	0.00e+00	37	36	102	1048576	60	6164
2026-01-08 01:42:52.26	332.47	10.39	-41.1	-42.1	22.8	0.00e+00	0	36	102	1048576	60	6219
2026-01-08 01:42:53.27	332.55	10.31	-41.0	-42.0	22.9	0.00e+00	48	36	102	1048576	60	6143
2026-01-08 01:42:54.28	332.62	10.23	-41.2	-42.2	22.7	0.00e+00	0	36	102	1048576	60	6313
2026-01-08 01:42:55.29	332.70	10.15	-41.3	-42.3	22.7	0.00e+00	0	36	102	1048576	60	6385
2026-01-08 01:42:56.30	332.78	10.07	-41.3	-42.3	22.7	0.00e+00	0	36	102	1048576	60	6333
2026-01-08 01:42:57.31	332.85	9.99	-41.5	-42.6	22.5	0.00e+00	0	36	102	1048576	60	6558
2026-01-08 01:42:58.33	332.93	9.91	-41.4	-42.4	22.6	0.00e+00	33	36	102	1048576	60	6401
2026-01-08 01:42:59.34	333.00	9.84	-41.5	-42.5	22.4	0.00e+00	0	36	102	1048576	60	6520
2026-01-08 01:43:00.35	333.08	9.76	-41.6	-42.6	22.3	0.00e+00	90	36	102	1048576	60	6614
2026-01-08 01:43:01.36	333.15	9.68	-41.6	-42.6	22.3	0.00e+00	0	36	102	1048576	60	6604
2026-01-08 01:43:02.37	333.23	9.60	-41.9	-42.9	22.1	0.00e+00	92	36	102	1048576	60	6824
2026-01-08 01:43:03.38	333.30	9.52	-41.9	-43.0	22.0	0.00e+00	0	36	102	1048576	60	6857
2026-01-08 01:43:04.39	333.37	9.44	-41.9	-43.0	22.0	0.00e+00	0	36	102	1048576	60	6883
2026-01-08 01:43:05.40	333.45	9.37	-42.2	-43.4	21.7	0.00e+00	0	36	102	1048576	60	7176
2026-01-08 01:43:06.41	333.52	9.29	-42.3	-43.4	21.7	0.00e+00	0	36	102	1048576	60	7202
2026-01-08 01:43:07.42	333.59	9.21	-42.4	-43.5	21.5	0.00e+00	30	36	102	1048576	60	7301
2026-01-08 01:43:08.43	333.66	9.13	-42.5	-43.7	21.5	0.00e+00	0	36	102	1048576	60	7446
2026-01-08 01:43:09.45	333.73	9.06	-42.6	-43.8	21.4	0.00e+00	91	36	102	1048576	60	7517
2026-01-08 01:43:10.46	333.80	8.98	-42.7	-43.9	21.2	0.00e+00	0	36	102	1048576	60	7661
2026-01-08 01:43:11.47	333.88	8.90	-43.0	-44.3	21.0	0.00e+00	0	36	102	1048576	60	7968
2026-01-08 01:43:12.48	333.95	8.83	-43.1	-44.4	20.8	0.00e+00	0	36	102	1048576	60	8072
2026-01-08 01:43:13.49	334.02	8.75	-43.4	-44.7	20.5	0.00e+00	0	36	102	1048576	60	8374
2026-01-08 01:43:14.50	334.09	8.68	-43.4	-44.7	20.5	0.00e+00	33	36	102	1048576	60	8365
2026-01-08 01:43:15.51	334.15	8.60	-43.6	-45.0	20.2	0.00e+00	0	36	102	1048576	60	8684
2026-01-08 01:43:16.53	334.22	8.52	-43.7	-45.1	20.0	0.00e+00	40	36	102	1048576	60	8792
2026-01-08 01:43:17.54	334.29	8.45	-43.7	-45.1	20.2	0.00e+00	0	36	102	1048576	60	8742
2026-01-08 01:43:18.55	334.36	8.37	-43.8	-45.2	20.1	0.00e+00	0	36	102	1048576	60	8838
2026-01-08 01:43:19.56	334.43	8.30	-43.9	-45.3	19.9	0.00e+00	0	36	102	1048576	60	8954
2026-01-08 01:43:20.57	334.50	8.22	-44.0	-45.4	19.9	0.00e+00	0	36	102	1048576	60	9129
2026-01-08 01:43:21.58	334.56	8.15	-44.0	-45.5	19.8	0.00e+00	38	36	102	1048576	60	9169
2026-01-08 01:43:22.59	334.63	8.07	-43.9	-45.3	19.9	0.00e+00	0	36	102	1048576	60	9002
2026-01-08 01:43:23.60	334.70	8.00	-44.2	-45.7	19.5	0.00e+00	92	36	102	1048576	60	9370
2026-01-08 01:43:24.61	334.76	7.93	-43.9	-45.3	19.9	0.00e+00	0	36	102	1048576	60	8993
2026-01-08 01:43:25.62	334.83	7.85	-43.8	-45.3	20.0	0.00e+00	0	36	102	1048576	60	8932
2026-01-08 01:43:26.63	334.90	7.78	-44.0	-45.4	19.8	0.00e+00	0	36	102	1048576	60	9089
2026-01-08 01:43:27.64	334.96	7.70	-44.0	-45.4	19.9	0.00e+00	0	36	102	1048576	60	9125
2026-01-08 01:43:28.65	335.03	7.63	-43.8	-45.3	19.9	0.00e+00	35	36	102	1048576	60	8925
2026-01-08 01:43:29.66	335.09	7.56	-43.9	-45.3	19.9	0.00e+00	0	36	102	1048576	60	9011
2026-01-08 01:43:30.67	335.16	7.49	-43.6	-45.0	20.0	0.00e+00	90	36	102	1048576	60	8677
2026-01-08 01:43:31.69	335.22	7.41	-43.8	-45.2	20.0	0.00e+00	0	36	102	1048576	60	8839
2026-01-08 01:43:32.70	335.28	7.34	-43.7	-45.1	20.1	0.00e+00	15	36	102	1048576	60	8727
2026-01-08 01:43:33.71	335.35	7.27	-43.6	-45.0	20.1	0.00e+00	0	36	102	1048576	60	8640
2026-01-08 01:43:34.72	335.41	7.20	-43.5	-44.9	20.1	0.00e+00	0	36	102	1048576	60	8587
2026-01-08 01:43:35.73	335.47	7.12	-43.5	-44.8	20.3	0.00e+00	40	36	102	1048576	60	8494
2026-01-08 01:43:36.74	335.54	7.05	-43.4	-44.8	20.3	0.00e+00	0	36	102	1048576	60	8477
2026-01-08 01:43:37.75	335.60	6.98	-43.5	-44.9	19.9	0.00e+00	92	36	102	1048576	60	8563
2026-01-08 01:43:38.76	335.66	6.91	-43.4	-44.7	20.2	0.00e+00	0	36	102	1048576	60	8402
2026-01-08 01:43:39.77	335.72	6.84	-43.5	-44.9	20.2	0.00e+00	30	36	102	1048576	60	8549
2026-01-08 01:43:40.78	335.79	6.77	-43.3	-44.7	20.4	0.00e+00	2	36	102	1048576	60	8329
2026-01-08 01:43:41.79	335.85	6.69	-43.3	-44.6	20.2	0.00e+00	0	36	102	1048576	60	8317
2026-01-08 01:43:42.80	335.91	6.62	-43.5	-44.9	20.1	0.00e+00	0	36	102	1048576	60	8594
2026-01-08 01:43:43.81	335.97	6.55	-43.2	-44.5	20.4	0.00e+00	0	36	102	1048576	60	8212
2026-01-08 01:43:44.83	336.03	6.48	-43.3	-44.7	20.2	0.00e+00	53	36	102	1048576	60	8341
2026-01-08 01:43:45.84	336.09	6.41	-43.4	-44.8	20.1	0.00e+00	0	36	102	1048576	60	8511
2026-01-08 01:43:46.85	336.15	6.34	-43.3	-44.7	20.1	0.00e+00	46	36	102	1048576	60	8398
2026-01-08 01:43:47.86	336.21	6.27	-43.5	-44.9	19.8	0.00e+00	0	36	102	1048576	60	8602
2026-01-08 01:43:48.87	336.27	6.20	-43.8	-45.3	19.7	0.00e+00	0	36	102	1048576	60	8984
2026-01-08 01:43:49.88	336.33	6.13	-43.8	-45.4	19.2	0.00e+00	0	36	102	1048576	60	9059
2026-01-08 01:43:50.89	336.39	6.06	-44.0	-45.6	19.0	0.00e+00	0	36	102	1048576	60	9295
2026-01-08 01:43:51.90	336.45	5.99	-44.4	-46.0	18.7	0.00e+00	36	36	102	1048576	60	9781
2026-01-08 01:43:52.91	336.50	5.92	-44.5	-46.3	18.2	0.00e+00	0	36	102	1048576	60	10121
2026-01-08 01:43:53.92	336.56	5.86	-44.7	-46.7	17.8	0.00e+00	79	36	102	1048576	60	10494
2026-01-08 01:43:54.93	336.62	5.79	-44.9	-46.9	17.4	0.00e+00	0	36	102	1048576	60	10851
2026-01-08 01:43:55.94	336.68	5.72	-45.3	-47.6	16.7	0.00e+00	0	36	102	1048576	60	11750
2026-01-08 01:43:56.95	336.74	5.65	-45.4	-47.7	16.3	0.00e+00	0	36	102	1048576	60	11849
2026-01-08 01:43:57.96	336.79	5.58	-45.6	-48.2	15.8	0.00e+00	0	36	102	1048576	60	12578
2026-01-08 01:43:58.98	336.85	5.51	-45.9	-48.8	14.9	0.00e+00	38	36	102	1048576	60	13422
2026-01-08 01:43:59.99	336.91	5.44	-46.0	-49.0	14.6	0.00e+00	0	36	102	1048576	60	13778
2026-01-08 01:44:01.00	336.96	5.38	-46.3	-49.6	13.9	3.80e-06	92	36	102	1048576	60	14737
2026-01-08 01:44:02.01	337.02	5.31	-46.6	-50.3	13.1	1.29e-05	0	36	102	1048576	60	15885
2026-01-08 01:44:03.02	337.08	5.24	-46.7	-50.7	12.3	4.19e-05	0	36	102	1048576	60	16751
2026-01-08 01:44:04.03	337.13	5.17	-46.8	-51.1	11.8	3.27e-04	0	36	102	1048576	60	17521
2026-01-08 01:44:05.04	337.19	5.11	-47.0	-51.7	11.1	1.09e-03	0	36	102	1048576	60	18794
2026-01-08 01:44:06.05	337.24	5.04	-47.1	-52.3	10.1	3.33e-03	74	36	102	1048576	60	20160
2026-01-08 01:44:07.06	337.30	4.97	-47.2	-52.8	9.4	6.89e-03	0	36	102	1048576	60	21257
2026-01-08 01:44:08.07	337.35	4.91	-47.2	-53.3	8.7	2.38e-02	17	36	102	1048576	60	22423
2026-01-08 01:44:09.08	337.41	4.84	-47.3	-54.0	7.8	5.31e-02	0	36	102	1048576	60	24444
2026-01-08 01:44:10.09	337.46	4.77	-47.4	-54.3	7.1	1.03e-01	0	36	102	1048576	60	25196
2026-01-08 01:44:11.11	337.52	4.71	-47.4	-54.9	6.5	1.87e-01	23	36	102	1048576	60	27079
2026-01-08 01:44:12.12	337.57	4.64	-47.4	-55.4	5.7	2.96e-01	0	36	102	1048576	60	28772
2026-01-08 01:44:13.13	337.62	4.57	-47.5	-55.7	5.5	3.79e-01	0	36	102	1048576	60	29621
2026-01-08 01:44:14.14	337.68	4.51	-47.5	-56.3	4.9	5.45e-01	0	36	102	1048576	60	31804
2026-01-08 01:44:15.15	337.73	4.44	-47.5	-56.7	4.6	6.40e-01	91	36	102	1048576	60	33281
2026-01-08 01:44:16.16	337.78	4.38	-47.5	-57.3	4.2	8.22e-01	0	36	102	1048576	60	35816
2026-01-08 01:44:17.17	337.84	4.31	-47.4	-57.7	3.9	1.20e+00	72	36	102	1048576	60	37491
2026-01-08 01:44:18.18	337.89	4.25	-47.4	-59.7	3.7	1.42e+00	0	36	104	1048576	60	47034
2026-01-08 01:44:19.20	337.94	4.18	-47.3	-59.7	3.7	1.46e+00	0	36	104	1048576	60	47279
2026-01-08 01:44:20.20	337.99	4.11	-47.3	-60.5	3.7	1.49e+00	0	36	104	1048576	60	51625
2026-01-08 01:44:21.21	338.05	4.05	-47.3	-60.9	3.6	1.50e+00	0	36	104	1048576	60	53905
2026-01-08 01:44:22.23	338.10	3.98	-47.2	-61.2	3.6	1.51e+00	0	36	104	1048576	60	56298
2026-01-08 01:44:23.24	338.15	3.92	-47.1	-61.4	3.6	1.51e+00	0	36	104	1048576	60	57438
2026-01-08 01:44:24.25	338.20	3.86	-47.2	-61.6	3.5	1.51e+00	0	36	104	1048576	60	58850
2026-01-08 01:44:25.26	338.25	3.79	-47.1	-61.8	3.6	1.51e+00	0	36	104	1048576	60	60125
2026-01-08 01:44:26.27	338.30	3.73	-46.9	-62.2	3.6	1.51e+00	0	36	104	1048576	60	62966
2026-01-08 01:44:27.28	338.35	3.66	-47.0	-62.2	3.6	1.51e+00	0	36	104	1048576	60	62965
2026-01-08 01:44:28.29	338.40	3.60	-47.0	-62.2	3.6	1.51e+00	0	36	104	1048576	60	63118
2026-01-08 01:44:29.30	338.45	3.53	-47.0	-62.4	3.6	1.51e+00	0	36	104	1048576	60	64060
2026-01-08 01:44:30.31	338.50	3.47	-47.1	-62.4	3.6	1.51e+00	0	36	104	1048576	60	64141
2026-01-08 01:44:31.33	338.55	3.41	-47.1	-62.4	3.6	1.51e+00	0	36	104	1048576	60	64250
2026-01-08 01:44:32.34	338.60	3.34	-47.0	-62.3	3.6	1.51e+00	0	36	104	1048576	60	63771
2026-01-08 01:44:33.35	338.65	3.28	-47.1	-62.4	3.6	1.51e+00	0	36	104	1048576	60	64164
2026-01-08 01:44:34.36	338.70	3.22	-47.1	-62.5	3.6	1.51e+00	0	36	104	1048576	60	64724
2026-01-08 01:44:35.37	338.75	3.15	-47.1	-62.5	3.6	1.51e+00	0	36	104	1048576	60	64790
2026-01-08 01:44:36.38	338.80	3.09	-47.0	-62.3	3.5	1.51e+00	0	36	104	1048576	60	63234
2026-01-08 01:44:37.39	338.85	3.03	-50.6	-66.0	3.6	1.51e+00	0	36	104	1048576	60	97089
2026-01-08 01:44:38.40	338.90	2.97	-51.5	-66.9	3.6	1.51e+00	0	36	104	1048576	60	107579
2026-01-08 01:44:39.41	338.95	2.90	-51.7	-67.1	3.6	1.51e+00	0	36	104	1048576	60	110376
2026-01-08 01:44:40.42	339.00	2.84	-51.8	-67.2	3.6	1.51e+00	0	36	104	1048576	60	111944
2026-01-08 01:44:41.43	339.04	2.78	-51.9	-67.4	3.6	1.51e+00	0	36	104	1048576	60	113975
2026-01-08 01:44:42.45	339.09	2.72	-52.0	-67.4	3.6	1.51e+00	0	36	104	1048576	60	114104
2026-01-08 01:44:43.46	339.14	2.65	-52.1	-67.4	3.6	1.51e+00	0	36	104	1048576	60	114466
2026-01-08 01:44:44.47	339.19	2.59	-52.1	-67.5	3.6	1.51e+00	0	36	104	1048576	60	115130
2026-01-08 01:44:45.48	339.23	2.53	-52.0	-67.4	3.6	1.51e+00	0	36	104	1048576	60	114712
2026-01-08 01:44:46.49	339.28	2.47	-51.8	-67.3	3.6	1.51e+00	0	36	104	1048576	60	113594
2026-01-08 01:44:47.50	339.33	2.41	-51.9	-67.4	3.6	1.51e+00	0	36	104	1048576	60	114355
2026-01-08 01:44:48.51	339.38	2.34	-52.0	-67.4	3.6	1.51e+00	0	36	104	1048576	60	114200
2026-01-08 01:44:49.52	339.42	2.28	-51.9	-67.3	3.6	1.51e+00	0	36	104	1048576	60	113504
2026-01-08 01:44:50.53	339.47	2.22	-52.0	-67.4	3.6	1.51e+00	0	36	104	1048576	60	114108
2026-01-08 01:44:51.54	339.52	2.16	-52.0	-67.4	3.6	1.51e+00	0	36	104	1048576	60	114176
2026-01-08 01:44:52.55	339.56	2.10	-52.0	-67.4	3.5	1.51e+00	0	36	104	1048576	60	114605
2026-01-08 01:44:53.56	339.61	2.04	-52.0	-67.4	3.6	1.51e+00	0	36	104	1048576	60	114616
2026-01-08 01:44:54.57	339.65	1.98	-52.0	-67.4	3.6	1.51e+00	0	36	104	1048576	60	114666
2026-01-08 01:44:55.59	339.70	1.92	-52.0	-67.5	3.6	1.51e+00	0	36	104	1048576	60	115216
2026-01-08 01:44:56.59	339.74	1.86	-52.0	-67.4	3.6	1.51e+00	0	36	104	1048576	60	114205
2026-01-08 01:44:57.61	339.79	1.80	-52.0	-67.4	3.6	1.51e+00	0	36	104	1048576	60	113725
2026-01-08 01:44:58.62	339.84	1.74	-52.0	-67.4	3.6	1.51e+00	0	36	104	1048576	60	114629
2026-01-08 01:44:59.63	339.88	1.68	-52.0	-67.4	3.6	1.51e+00	0	36	104	1048576	60	114847
2026-01-08 01:45:00.64	339.93	1.62	-52.0	-67.4	3.6	1.51e+00	0	36	104	1048576	60	113843
2026-01-08 01:45:01.65	339.97	1.56	-52.0	-67.4	3.6	1.51e+00	0	36	104	1048576	60	114252
2026-01-08 01:45:02.66	340.01	1.50	-52.0	-67.4	3.6	1.51e+00	0	36	104	1048576	60	114225
2026-01-08 01:45:03.67	340.06	1.44	-52.0	-67.4	3.6	1.51e+00	0	36	104	1048576	60	114131
2026-01-08 01:45:04.68	340.10	1.38	-52.0	-67.4	3.6	1.51e+00	0	36	104	1048576	60	114103
2026-01-08 01:45:05.69	340.15	1.32	-52.0	-67.4	3.6	1.51e+00	0	36	104	1048576	60	113754
2026-01-08 01:45:06.70	340.19	1.26	-52.0	-67.4	3.6	1.51e+00	0	36	104	1048576	60	113865
2026-01-08 01:45:07.71	340.23	1.20	-52.0	-67.4	3.6	1.51e+00	0	36	104	1048576	60	113994
2026-01-08 01:45:08.73	340.28	1.14	-52.0	-67.4	3.6	1.51e+00	0	36	104	1048576	60	114345
2026-01-08 01:45:09.74	340.32	1.08	-52.0	-67.4	3.6	1.51e+00	0	36	104	1048576	60	114190
2026-01-08 01:45:10.75	340.36	1.02	-52.0	-67.3	3.6	1.51e+00	0	36	104	1048576	60	113370
2026-01-08 01:45:11.76	340.41	0.96	-52.0	-67.4	3.6	1.51e+00	0	36	104	1048576	60	113895
2026-01-08 01:45:12.77	340.45	0.90	-52.0	-67.4	3.6	1.51e+00	0	36	104	1048576	60	113938
2026-01-08 01:45:13.78	340.49	0.85	-52.0	-67.4	3.6	1.51e+00	0	36	104	1048576	60	113749
2026-01-08 01:45:14.79	340.54	0.79	-52.0	-67.3	3.6	1.51e+00	0	36	104	1048576	60	113411
2026-01-08 01:45:15.80	340.58	0.73	-52.0	-67.3	3.6	1.51e+00	0	36	104	1048576	60	113027
2026-01-08 01:45:16.82	340.62	0.67	-52.0	-67.4	3.6	1.51e+00	0	36	104	1048576	60	113843
2026-01-08 01:45:17.83	340.66	0.61	-52.0	-67.4	3.6	1.51e+00	0	36	104	1048576	60	113652
2026-01-08 01:45:18.84	340.71	0.55	-52.0	-67.4	3.6	1.51e+00	0	36	104	1048576	60	113939
2026-01-08 01:45:19.85	340.75	0.50	-52.0	-67.4	3.6	1.51e+00	0	36	104	1048576	60	114611
2026-01-08 01:45:20.86	340.79	0.44	-52.0	-67.4	3.6	1.51e+00	0	36	104	1048576	60	114294
2026-01-08 01:45:21.87	340.83	0.38	-52.0	-67.4	3.6	1.51e+00	0	36	104	1048576	60	114141
2026-01-08 01:45:22.88	340.87	0.32	-52.0	-67.3	3.6	1.51e+00	0	36	104	1048576	60	113494
2026-01-08 01:45:23.89	340.91	0.26	-52.0	-67.4	3.6	1.51e+00	0	36	104	1048576	60	114042
2026-01-08 01:45:24.90	340.96	0.21	-52.0	-67.3	3.6	1.51e+00	0	36	104	1048576	60	113339
2026-01-08 01:45:25.91	341.00	0.15	-52.0	-67.3	3.6	1.51e+00	0	36	104	1048576	60	113473
2026-01-08 01:45:26.92	341.04	0.09	-51.9	-67.4	3.6	1.51e+00	0	36	104	1048576	60	113813
2026-01-08 01:45:27.93	341.08	0.04	-51.9	-67.3	3.6	1.51e+00	0	36	104	1048576	60	113607

#Closed at: 2026-01-08 01:45:28
#Recorded file [1 MB]: D:/lorett/data/35034_260108_043659.dat