passes_logs/2026/01/08/R4.6S_Anadyr_2ch/R4.6S_Anadyr_2ch__20260108_012725_TY-39_rec.log

#Pass ID: 20260108_012725_TY-39
#Satellite: TY-39
#Configuration: TY-39
#almurnet v.1.7.20251203
#Start time: 2026-01-08 01:27:31

#Version: 2.2.20231116
#Station: R4.6S_Anadyr_2ch
#Location: 177.4865 lon 64.73178 lat
#TLE: 1 51832U 22019J   25350.98409328  .00002071  00000-0  10077-3 0  9999
#TLE: 2 51832  97.3692  53.3782 0009735 139.3452 220.8512 15.19459940210129

#Time	Az	El	Level	Level2	SNR	BER	BlckErr	Temp	State	Recorded	gain1	gain2
2026-01-08 01:27:31.02	17.56	0.31	-52.2	-53.8	5.7	0.00e+00	0	34	0	0	60	81733
2026-01-08 01:27:32.03	17.46	0.36	-52.2	-54.6	3.6	0.00e+00	0	35	104	0	60	89830
2026-01-08 01:27:33.04	17.36	0.42	-52.1	-54.6	3.6	0.00e+00	0	35	104	0	60	90011
2026-01-08 01:27:34.05	17.26	0.47	-52.1	-54.6	3.6	0.00e+00	0	35	104	0	60	90252
2026-01-08 01:27:35.06	17.16	0.52	-52.1	-54.6	3.6	0.00e+00	0	35	104	0	60	90197
2026-01-08 01:27:36.07	17.06	0.58	-52.2	-54.7	3.6	0.00e+00	0	35	104	0	60	90455
2026-01-08 01:27:37.08	16.95	0.63	-52.2	-54.7	3.6	0.00e+00	0	35	104	0	60	90311
2026-01-08 01:27:38.10	16.85	0.68	-52.2	-54.6	3.6	0.00e+00	0	35	104	0	60	89811
2026-01-08 01:27:39.11	16.75	0.74	-52.2	-54.6	3.5	0.00e+00	0	36	104	0	60	90002
2026-01-08 01:27:40.12	16.64	0.79	-52.1	-54.7	3.6	0.00e+00	0	35	104	0	60	90767
2026-01-08 01:27:41.13	16.54	0.84	-52.2	-54.6	3.6	0.00e+00	0	35	104	0	60	89905
2026-01-08 01:27:42.14	16.43	0.90	-52.2	-54.7	3.6	0.00e+00	0	36	104	0	60	90289
2026-01-08 01:27:43.15	16.32	0.95	-52.2	-54.6	3.6	0.00e+00	0	36	104	0	60	90170
2026-01-08 01:27:44.16	16.22	1.00	-52.2	-54.6	3.6	0.00e+00	0	36	104	0	60	89545
2026-01-08 01:27:45.17	16.11	1.06	-52.2	-54.6	3.6	0.00e+00	0	36	104	0	60	89681
2026-01-08 01:27:46.18	16.00	1.11	-52.1	-54.6	3.6	0.00e+00	0	36	104	0	60	89657
2026-01-08 01:27:47.19	15.90	1.17	-52.2	-54.7	3.6	0.00e+00	0	36	104	0	60	90416
2026-01-08 01:27:48.20	15.79	1.22	-52.2	-54.6	3.6	0.00e+00	0	36	104	0	60	90026
2026-01-08 01:27:49.22	15.68	1.27	-52.2	-54.7	3.6	0.00e+00	0	36	104	0	60	90541
2026-01-08 01:27:50.23	15.57	1.33	-52.2	-54.6	3.6	0.00e+00	0	36	104	0	60	90256
2026-01-08 01:27:51.24	15.46	1.38	-52.2	-54.6	3.6	0.00e+00	0	36	104	0	60	90122
2026-01-08 01:27:52.25	15.35	1.44	-52.2	-54.6	3.6	0.00e+00	0	36	104	0	60	90255
2026-01-08 01:27:53.26	15.24	1.49	-52.2	-54.6	3.6	0.00e+00	0	36	104	0	60	90232
2026-01-08 01:27:54.27	15.12	1.55	-52.2	-54.7	3.6	0.00e+00	0	36	104	0	60	90289
2026-01-08 01:27:55.28	15.01	1.60	-52.2	-54.6	3.6	0.00e+00	0	36	104	0	60	89739
2026-01-08 01:27:56.29	14.90	1.65	-52.2	-54.7	3.6	0.00e+00	0	36	104	0	60	90304
2026-01-08 01:27:57.30	14.79	1.71	-52.2	-54.7	3.6	0.00e+00	0	36	104	0	60	90545
2026-01-08 01:27:58.32	14.67	1.76	-52.2	-54.7	3.6	0.00e+00	0	36	104	0	60	90303
2026-01-08 01:27:59.33	14.56	1.82	-52.2	-54.7	3.6	0.00e+00	0	36	104	0	60	90325
2026-01-08 01:28:00.34	14.44	1.87	-52.2	-54.6	3.6	0.00e+00	0	36	104	0	60	89969
2026-01-08 01:28:01.35	14.33	1.93	-52.2	-54.6	3.6	0.00e+00	0	36	104	0	60	90210
2026-01-08 01:28:02.36	14.21	1.98	-52.2	-54.6	3.6	0.00e+00	0	36	104	0	60	90100
2026-01-08 01:28:03.37	14.09	2.04	-52.2	-54.6	3.6	0.00e+00	0	36	104	0	60	90163
2026-01-08 01:28:04.38	13.98	2.09	-52.2	-54.6	3.6	0.00e+00	0	36	104	0	60	89908
2026-01-08 01:28:05.39	13.86	2.15	-52.2	-54.6	3.6	0.00e+00	0	36	104	0	60	90262
2026-01-08 01:28:06.40	13.74	2.20	-52.2	-54.6	3.6	0.00e+00	0	36	104	0	60	89959
2026-01-08 01:28:07.41	13.62	2.26	-52.2	-54.6	3.6	0.00e+00	0	36	104	0	60	90088
2026-01-08 01:28:08.42	13.50	2.31	-52.2	-54.6	3.6	0.00e+00	0	36	104	0	60	90131
2026-01-08 01:28:09.43	13.38	2.37	-52.2	-54.6	3.6	0.00e+00	0	36	104	0	60	89836
2026-01-08 01:28:10.44	13.26	2.42	-52.2	-54.6	3.6	0.00e+00	0	36	104	0	60	90143
2026-01-08 01:28:11.45	13.14	2.48	-52.2	-54.6	3.6	0.00e+00	0	36	104	0	60	90106
2026-01-08 01:28:12.46	13.02	2.53	-52.2	-54.6	3.6	0.00e+00	0	36	104	0	60	90204
2026-01-08 01:28:13.48	12.89	2.59	-52.2	-54.6	3.6	0.00e+00	0	36	104	0	60	89977
2026-01-08 01:28:14.49	12.77	2.64	-52.2	-54.6	3.6	0.00e+00	0	36	104	0	60	89853
2026-01-08 01:28:15.50	12.65	2.70	-52.2	-54.6	3.6	0.00e+00	0	36	104	0	60	90045
2026-01-08 01:28:16.51	12.52	2.75	-52.2	-54.6	3.6	0.00e+00	0	36	104	0	60	90241
2026-01-08 01:28:17.52	12.40	2.81	-52.2	-54.6	3.6	0.00e+00	0	36	104	0	60	89947
2026-01-08 01:28:18.53	12.27	2.86	-52.2	-54.6	3.6	0.00e+00	0	36	104	0	60	89453
2026-01-08 01:28:19.54	12.15	2.92	-52.2	-54.6	3.6	0.00e+00	0	36	104	0	60	89815
2026-01-08 01:28:20.55	12.02	2.97	-52.2	-54.6	3.6	0.00e+00	0	36	104	0	60	89941
2026-01-08 01:28:21.56	11.89	3.03	-52.2	-54.6	3.6	0.00e+00	0	37	104	0	60	89916
2026-01-08 01:28:22.57	11.76	3.08	-52.2	-54.6	3.6	0.00e+00	0	36	104	0	60	89808
2026-01-08 01:28:23.59	11.63	3.14	-52.2	-54.7	3.6	0.00e+00	0	37	104	0	60	90589
2026-01-08 01:28:24.60	11.50	3.20	-52.2	-54.7	3.6	0.00e+00	0	36	104	0	60	90343
2026-01-08 01:28:25.61	11.37	3.25	-52.2	-54.6	3.6	0.00e+00	0	36	104	0	60	90249
2026-01-08 01:28:26.62	11.24	3.31	-52.2	-54.6	3.6	0.00e+00	0	36	104	0	60	89903
2026-01-08 01:28:27.63	11.11	3.36	-52.2	-54.6	3.6	0.00e+00	0	37	104	0	60	89930
2026-01-08 01:28:28.64	10.98	3.42	-52.2	-54.6	3.6	0.00e+00	0	36	104	0	60	90110
2026-01-08 01:28:29.65	10.85	3.47	-52.2	-54.6	3.6	0.00e+00	0	37	104	0	60	90254
2026-01-08 01:28:30.66	10.71	3.53	-52.2	-54.7	3.6	0.00e+00	0	36	104	0	60	90397
2026-01-08 01:28:31.68	10.58	3.59	-52.2	-54.7	3.6	0.00e+00	0	37	104	0	60	90591
2026-01-08 01:28:32.69	10.44	3.64	-52.2	-54.7	3.6	0.00e+00	0	37	104	0	60	90281
2026-01-08 01:28:33.70	10.31	3.70	-52.2	-54.7	3.6	0.00e+00	0	37	104	0	60	90376
2026-01-08 01:28:34.71	10.17	3.75	-52.2	-54.6	3.6	0.00e+00	0	36	104	0	60	90083
2026-01-08 01:28:35.72	10.04	3.81	-52.2	-54.7	3.6	0.00e+00	0	37	104	0	60	90445
2026-01-08 01:28:36.73	9.90	3.87	-52.2	-54.7	3.6	0.00e+00	0	37	104	0	60	90742
2026-01-08 01:28:37.74	9.76	3.92	-52.2	-54.6	3.6	0.00e+00	0	37	104	0	60	90185
2026-01-08 01:28:38.75	9.62	3.98	-52.2	-54.6	3.6	0.00e+00	0	37	104	0	60	90021
2026-01-08 01:28:39.76	9.48	4.03	-52.2	-54.6	3.6	0.00e+00	0	37	104	0	60	89927
2026-01-08 01:28:40.77	9.34	4.09	-52.2	-54.6	3.6	0.00e+00	0	37	104	0	60	90134
2026-01-08 01:28:41.78	9.20	4.15	-52.2	-54.6	3.6	0.00e+00	0	37	104	0	60	90138
2026-01-08 01:28:42.80	9.06	4.20	-52.2	-54.6	3.6	0.00e+00	0	37	104	0	60	90116
2026-01-08 01:28:43.81	8.92	4.26	-52.2	-54.6	3.6	0.00e+00	0	37	104	0	60	90084
2026-01-08 01:28:44.82	8.77	4.31	-52.2	-54.6	3.5	0.00e+00	0	37	104	0	60	89712
2026-01-08 01:28:45.83	8.63	4.37	-52.2	-54.6	3.6	0.00e+00	0	37	104	0	60	90073
2026-01-08 01:28:46.84	8.49	4.43	-52.2	-54.6	3.6	0.00e+00	0	37	104	0	60	90064
2026-01-08 01:28:47.85	8.34	4.48	-52.2	-54.7	3.6	0.00e+00	0	37	104	0	60	90431
2026-01-08 01:28:48.86	8.19	4.54	-52.2	-54.7	3.6	0.00e+00	0	37	104	0	60	90353
2026-01-08 01:28:49.87	8.05	4.59	-52.2	-54.7	3.5	0.00e+00	0	37	104	0	60	90543
2026-01-08 01:28:50.88	7.90	4.65	-52.2	-54.7	3.6	0.00e+00	0	37	104	0	60	90354
2026-01-08 01:28:51.90	7.75	4.71	-52.2	-54.6	3.6	0.00e+00	0	37	104	0	60	90126
2026-01-08 01:28:52.91	7.60	4.76	-52.2	-54.7	3.6	0.00e+00	0	37	104	0	60	90339
2026-01-08 01:28:53.92	7.45	4.82	-52.2	-54.7	3.6	0.00e+00	0	37	104	0	60	90390
2026-01-08 01:28:54.93	7.30	4.88	-52.2	-54.6	3.6	0.00e+00	0	37	104	0	60	89753
2026-01-08 01:28:55.94	7.15	4.93	-52.2	-54.6	3.6	0.00e+00	0	37	104	0	60	90230
2026-01-08 01:28:56.95	7.00	4.99	-52.2	-54.7	3.6	0.00e+00	0	37	104	0	60	90943
2026-01-08 01:28:57.96	6.85	5.04	-52.2	-54.6	3.6	0.00e+00	0	37	104	0	60	90126
2026-01-08 01:28:58.97	6.69	5.10	-52.2	-54.7	3.6	0.00e+00	0	37	104	0	60	90296
2026-01-08 01:28:59.98	6.54	5.16	-52.2	-54.7	3.6	0.00e+00	0	37	104	0	60	90314
2026-01-08 01:29:00.99	6.39	5.21	-52.2	-54.6	3.6	0.00e+00	0	37	104	0	60	90000
2026-01-08 01:29:02.00	6.23	5.27	-52.2	-54.6	3.6	0.00e+00	0	37	104	0	60	90205
2026-01-08 01:29:03.01	6.07	5.33	-52.2	-54.6	3.6	0.00e+00	0	37	104	0	60	90063
2026-01-08 01:29:04.02	5.92	5.38	-52.2	-54.6	3.6	0.00e+00	0	37	104	0	60	90217
2026-01-08 01:29:05.03	5.76	5.44	-52.2	-54.6	3.6	0.00e+00	0	37	104	0	60	89905
2026-01-08 01:29:06.05	5.60	5.49	-52.2	-54.7	3.5	0.00e+00	0	37	104	0	60	90496
2026-01-08 01:29:07.06	5.44	5.55	-52.2	-54.6	3.6	0.00e+00	0	37	104	0	60	90196
2026-01-08 01:29:08.07	5.28	5.61	-52.2	-54.7	3.6	0.00e+00	0	37	104	0	60	90384
2026-01-08 01:29:09.08	5.12	5.66	-52.2	-54.7	3.6	0.00e+00	0	37	104	0	60	90578
2026-01-08 01:29:10.09	4.96	5.72	-52.2	-54.6	3.6	0.00e+00	0	37	104	0	60	90098
2026-01-08 01:29:11.10	4.79	5.78	-52.2	-54.6	3.6	0.00e+00	0	37	104	0	60	89758
2026-01-08 01:29:12.11	4.63	5.83	-52.2	-54.7	3.6	0.00e+00	0	37	104	0	60	90515
2026-01-08 01:29:13.12	4.47	5.89	-52.2	-54.6	3.6	0.00e+00	0	37	104	0	60	90206
2026-01-08 01:29:14.13	4.30	5.94	-52.2	-54.7	3.6	0.00e+00	0	37	104	0	60	90778
2026-01-08 01:29:15.14	4.13	6.00	-52.2	-54.6	3.6	0.00e+00	0	37	104	0	60	89703
2026-01-08 01:29:16.15	3.97	6.05	-52.2	-54.6	3.6	0.00e+00	0	37	104	0	60	89900
2026-01-08 01:29:17.17	3.80	6.11	-52.2	-54.6	3.6	0.00e+00	0	37	104	0	60	90219
2026-01-08 01:29:18.18	3.63	6.17	-52.2	-54.6	3.6	0.00e+00	0	37	104	0	60	90201
2026-01-08 01:29:19.19	3.46	6.22	-52.2	-54.7	3.6	0.00e+00	0	37	104	0	60	90279
2026-01-08 01:29:20.20	3.29	6.28	-52.2	-54.6	3.6	0.00e+00	0	37	104	0	60	90064
2026-01-08 01:29:21.21	3.12	6.33	-52.2	-54.6	3.6	0.00e+00	0	37	104	0	60	89953
2026-01-08 01:29:22.22	2.95	6.39	-52.2	-54.6	3.6	0.00e+00	0	37	104	0	60	89969
2026-01-08 01:29:23.23	2.78	6.45	-52.2	-54.6	3.6	0.00e+00	0	37	104	0	60	90212
2026-01-08 01:29:24.24	2.60	6.50	-52.2	-54.6	3.6	0.00e+00	0	37	104	0	60	90134
2026-01-08 01:29:25.25	2.43	6.56	-52.2	-54.6	3.6	0.00e+00	0	37	104	0	60	89726
2026-01-08 01:29:26.26	2.25	6.61	-52.2	-54.6	3.6	0.00e+00	0	37	104	0	60	90206
2026-01-08 01:29:27.28	2.08	6.67	-52.2	-54.7	3.6	0.00e+00	0	37	104	0	60	90418
2026-01-08 01:29:28.29	1.90	6.72	-52.2	-54.6	3.6	0.00e+00	0	37	104	0	60	90105
2026-01-08 01:29:29.30	1.72	6.78	-52.2	-54.6	3.6	0.00e+00	0	37	104	0	60	90204
2026-01-08 01:29:30.31	1.54	6.83	-52.2	-54.6	3.6	0.00e+00	0	37	104	0	60	89848
2026-01-08 01:29:31.32	1.36	6.89	-52.2	-54.6	3.6	0.00e+00	0	37	104	0	60	90160
2026-01-08 01:29:32.33	1.18	6.95	-52.2	-54.6	3.6	0.00e+00	0	37	104	0	60	90003
2026-01-08 01:29:33.34	1.00	7.00	-52.2	-54.7	3.6	0.00e+00	0	37	104	0	60	90360
2026-01-08 01:29:34.35	0.82	7.06	-52.2	-54.7	3.6	0.00e+00	0	37	104	0	60	90393
2026-01-08 01:29:35.36	0.64	7.11	-52.2	-54.7	3.6	0.00e+00	0	37	104	0	60	90568
2026-01-08 01:29:36.37	0.45	7.17	-52.2	-54.7	3.6	0.00e+00	0	37	104	0	60	90306
2026-01-08 01:29:37.39	0.27	7.22	-52.2	-54.6	3.6	0.00e+00	0	37	104	0	60	90237
2026-01-08 01:29:38.40	0.08	7.28	-52.2	-54.6	3.6	0.00e+00	0	37	104	0	60	90227
2026-01-08 01:29:39.41	359.89	7.33	-52.2	-54.6	3.6	0.00e+00	0	37	104	0	60	89915
2026-01-08 01:29:40.42	359.71	7.38	-52.2	-54.6	3.6	0.00e+00	0	37	104	0	60	89928
2026-01-08 01:29:41.43	359.52	7.44	-52.2	-54.7	3.5	0.00e+00	0	37	104	0	60	90275
2026-01-08 01:29:42.44	359.33	7.49	-52.2	-54.6	3.6	0.00e+00	0	37	104	0	60	90274
2026-01-08 01:29:43.45	359.14	7.55	-52.2	-54.7	3.6	0.00e+00	0	37	104	0	60	90321
2026-01-08 01:29:44.46	358.95	7.60	-52.2	-54.6	3.6	0.00e+00	0	37	104	0	60	90192
2026-01-08 01:29:45.47	358.76	7.66	-52.2	-54.7	3.6	0.00e+00	0	37	104	0	60	90454
2026-01-08 01:29:46.48	358.56	7.71	-52.2	-54.7	3.6	0.00e+00	0	37	104	0	60	90484
2026-01-08 01:29:47.49	358.37	7.76	-52.2	-54.7	3.6	0.00e+00	0	37	104	0	60	90314
2026-01-08 01:29:48.50	358.18	7.82	-52.2	-54.7	3.6	0.00e+00	0	37	104	0	60	90319
2026-01-08 01:29:49.52	357.98	7.87	-52.2	-54.7	3.6	0.00e+00	0	37	104	0	60	90579
2026-01-08 01:29:50.52	357.78	7.92	-52.2	-54.6	3.6	0.00e+00	0	37	104	0	60	90114
2026-01-08 01:29:51.54	357.59	7.98	-52.2	-54.6	3.6	0.00e+00	0	37	104	0	60	90222
2026-01-08 01:29:52.55	357.39	8.03	-52.2	-54.7	3.6	0.00e+00	0	37	104	0	60	90373
2026-01-08 01:29:53.56	357.19	8.09	-52.2	-54.6	3.6	0.00e+00	0	37	104	0	60	89613
2026-01-08 01:29:54.57	356.99	8.14	-52.2	-54.7	3.6	0.00e+00	0	37	104	0	60	90376
2026-01-08 01:29:55.58	356.79	8.19	-52.2	-54.6	3.6	0.00e+00	0	37	104	0	60	90252
2026-01-08 01:29:56.59	356.58	8.24	-52.2	-54.7	3.6	0.00e+00	0	37	104	0	60	90429
2026-01-08 01:29:57.60	356.38	8.30	-52.2	-54.7	3.5	0.00e+00	0	37	104	0	60	90731
2026-01-08 01:29:58.61	356.18	8.35	-52.2	-54.6	3.6	0.00e+00	0	37	104	0	60	90010
2026-01-08 01:29:59.62	355.97	8.40	-52.2	-54.6	3.6	0.00e+00	0	37	104	0	60	90184
2026-01-08 01:30:00.63	355.77	8.45	-52.2	-54.6	3.6	0.00e+00	0	37	104	0	60	90014
2026-01-08 01:30:01.64	355.56	8.51	-52.2	-54.6	3.6	0.00e+00	0	37	104	0	60	89993
2026-01-08 01:30:02.66	355.35	8.56	-52.2	-54.7	3.6	0.00e+00	0	37	104	0	60	90700
2026-01-08 01:30:03.67	355.14	8.61	-52.2	-54.6	3.6	0.00e+00	0	37	104	0	60	89922
2026-01-08 01:30:04.68	354.93	8.66	-52.2	-54.6	3.6	0.00e+00	0	37	104	0	60	90131
2026-01-08 01:30:05.69	354.72	8.71	-52.2	-54.6	3.6	0.00e+00	0	37	104	0	60	90168
2026-01-08 01:30:06.70	354.51	8.76	-52.2	-54.7	3.6	0.00e+00	0	37	104	0	60	90579
2026-01-08 01:30:07.71	354.30	8.82	-52.2	-54.6	3.6	0.00e+00	0	37	104	0	60	90062
2026-01-08 01:30:08.72	354.09	8.87	-52.2	-54.6	3.6	0.00e+00	0	37	104	0	60	90066
2026-01-08 01:30:09.73	353.87	8.92	-52.2	-54.6	3.6	0.00e+00	0	37	104	0	60	89942
2026-01-08 01:30:10.74	353.66	8.97	-52.2	-54.7	3.6	0.00e+00	0	37	104	0	60	90297
2026-01-08 01:30:11.76	353.44	9.02	-52.2	-54.6	3.6	0.00e+00	0	37	104	0	60	89828
2026-01-08 01:30:12.77	353.22	9.07	-52.2	-54.7	3.6	0.00e+00	0	37	104	0	60	90447
2026-01-08 01:30:13.78	353.01	9.12	-52.2	-54.6	3.6	0.00e+00	0	37	104	0	60	90122
2026-01-08 01:30:14.79	352.79	9.17	-52.2	-54.6	3.6	0.00e+00	0	37	104	0	60	89813
2026-01-08 01:30:15.80	352.57	9.22	-52.2	-54.7	3.6	0.00e+00	0	37	104	0	60	90323
2026-01-08 01:30:16.81	352.35	9.27	-52.2	-54.6	3.6	0.00e+00	0	37	104	0	60	89725
2026-01-08 01:30:17.82	352.13	9.32	-52.2	-54.7	3.6	0.00e+00	0	37	104	0	60	90331
2026-01-08 01:30:18.83	351.90	9.36	-52.2	-54.7	3.6	0.00e+00	0	37	104	0	60	90447
2026-01-08 01:30:19.84	351.68	9.41	-52.2	-54.6	3.6	0.00e+00	0	37	104	0	60	90270
2026-01-08 01:30:20.85	351.46	9.46	-52.2	-54.6	3.6	0.00e+00	0	37	104	0	60	90083
2026-01-08 01:30:21.86	351.23	9.51	-52.2	-54.6	3.6	0.00e+00	0	37	104	0	60	90022
2026-01-08 01:30:22.87	351.01	9.56	-52.3	-54.8	3.6	0.00e+00	0	37	104	0	60	91447
2026-01-08 01:30:23.88	350.78	9.61	-52.2	-54.7	3.6	0.00e+00	0	37	104	0	60	91192
2026-01-08 01:30:24.89	350.55	9.65	-52.3	-54.9	3.6	0.00e+00	0	37	104	0	60	92440
2026-01-08 01:30:25.91	350.32	9.70	-52.2	-54.8	3.6	0.00e+00	0	37	104	0	60	91441
2026-01-08 01:30:26.92	350.09	9.75	-52.2	-54.7	3.6	0.00e+00	0	37	104	0	60	90861
2026-01-08 01:30:27.93	349.86	9.79	-52.2	-54.8	3.6	0.00e+00	0	37	104	0	60	91487
2026-01-08 01:30:28.94	349.63	9.84	-52.2	-54.7	3.6	0.00e+00	0	37	104	0	60	90849
2026-01-08 01:30:29.95	349.40	9.89	-52.3	-54.8	3.6	0.00e+00	0	37	104	0	60	91512
2026-01-08 01:30:30.96	349.16	9.93	-52.3	-54.7	3.5	0.00e+00	0	37	104	0	60	90810
2026-01-08 01:30:31.97	348.93	9.98	-52.3	-54.8	3.5	0.00e+00	0	37	104	0	60	91806
2026-01-08 01:30:32.98	348.69	10.02	-52.2	-54.7	3.6	0.00e+00	0	37	104	0	60	90658
2026-01-08 01:30:33.99	348.46	10.07	-52.1	-54.6	3.6	0.00e+00	0	37	104	0	60	89360
2026-01-08 01:30:35.00	348.22	10.11	-51.9	-54.4	3.6	0.00e+00	0	37	104	0	60	87940
2026-01-08 01:30:36.01	347.98	10.16	-51.6	-54.1	3.6	0.00e+00	0	37	104	0	60	84595
2026-01-08 01:30:37.03	347.74	10.20	-51.3	-53.8	3.6	0.00e+00	0	37	104	0	60	81750
2026-01-08 01:30:38.04	347.50	10.25	-51.0	-53.5	3.6	0.00e+00	0	37	104	0	60	78908
2026-01-08 01:30:39.05	347.26	10.29	-51.0	-53.5	3.6	0.00e+00	0	37	104	0	60	78796
2026-01-08 01:30:40.06	347.02	10.33	-51.0	-53.5	3.6	0.00e+00	0	37	104	0	60	78731
2026-01-08 01:30:41.07	346.78	10.38	-51.0	-53.5	3.6	0.00e+00	0	37	104	0	60	78797
2026-01-08 01:30:42.08	346.53	10.42	-51.0	-53.5	3.6	0.00e+00	0	37	104	0	60	78896
2026-01-08 01:30:43.09	346.29	10.46	-51.0	-53.5	3.6	0.00e+00	0	37	104	0	60	79028
2026-01-08 01:30:44.10	346.04	10.50	-51.0	-53.5	3.6	0.00e+00	0	37	104	0	60	78825
2026-01-08 01:30:45.11	345.80	10.55	-51.0	-53.4	3.6	0.00e+00	0	37	104	0	60	78380
2026-01-08 01:30:46.13	345.55	10.59	-51.0	-53.4	3.6	0.00e+00	0	37	104	0	60	78575
2026-01-08 01:30:47.14	345.30	10.63	-51.0	-53.5	3.6	0.00e+00	0	37	104	0	60	78722
2026-01-08 01:30:48.15	345.05	10.67	-51.0	-53.5	3.6	0.00e+00	0	37	104	0	60	78729
2026-01-08 01:30:49.16	344.80	10.71	-51.0	-53.4	3.6	0.00e+00	0	37	104	0	60	78493
2026-01-08 01:30:50.17	344.55	10.75	-51.0	-53.5	3.6	0.00e+00	0	37	104	0	60	78655
2026-01-08 01:30:51.18	344.30	10.79	-51.0	-53.5	3.6	0.00e+00	0	37	104	0	60	78975
2026-01-08 01:30:52.19	344.05	10.83	-51.0	-53.5	3.6	0.00e+00	0	37	104	0	60	78811
2026-01-08 01:30:53.20	343.80	10.87	-51.0	-53.5	3.6	0.00e+00	0	37	104	0	60	78786
2026-01-08 01:30:54.21	343.54	10.90	-51.0	-53.5	3.6	0.00e+00	0	37	104	0	60	78925
2026-01-08 01:30:55.22	343.29	10.94	-51.0	-53.5	3.6	0.00e+00	0	38	104	0	60	78996
2026-01-08 01:30:56.23	343.04	10.98	-51.0	-53.4	3.6	0.00e+00	0	37	104	0	60	78612
2026-01-08 01:30:57.24	342.78	11.02	-51.0	-53.5	3.6	0.00e+00	0	37	104	0	60	78775
2026-01-08 01:30:58.25	342.52	11.05	-51.0	-53.5	3.6	0.00e+00	0	37	104	0	60	78738
2026-01-08 01:30:59.27	342.26	11.09	-51.0	-53.5	3.6	0.00e+00	0	37	104	0	60	78980
2026-01-08 01:31:00.28	342.00	11.13	-51.0	-53.5	3.6	0.00e+00	0	37	104	0	60	78863
2026-01-08 01:31:01.29	341.75	11.16	-51.0	-53.4	3.6	0.00e+00	0	37	104	0	60	78475
2026-01-08 01:31:02.30	341.49	11.20	-51.0	-53.4	3.6	0.00e+00	0	37	104	0	60	78484
2026-01-08 01:31:03.31	341.22	11.23	-51.0	-53.4	3.6	0.00e+00	0	37	104	0	60	78303
2026-01-08 01:31:04.32	340.96	11.27	-51.0	-53.5	3.6	0.00e+00	0	37	104	0	60	78668
2026-01-08 01:31:05.33	340.70	11.30	-50.9	-53.5	3.6	0.00e+00	0	37	104	0	60	79210
2026-01-08 01:31:06.34	340.44	11.33	-50.9	-53.4	3.6	0.00e+00	0	37	104	0	60	78195
2026-01-08 01:31:07.35	340.17	11.37	-50.9	-53.4	3.6	0.00e+00	0	37	104	0	60	78552
2026-01-08 01:31:08.36	339.91	11.40	-51.0	-53.5	3.6	0.00e+00	0	37	104	0	60	78825
2026-01-08 01:31:09.37	339.65	11.43	-51.0	-53.5	3.6	0.00e+00	0	38	104	0	60	78722
2026-01-08 01:31:10.38	339.38	11.46	-50.9	-53.4	3.6	0.00e+00	0	38	104	0	60	78349
2026-01-08 01:31:11.40	339.11	11.49	-51.0	-53.5	3.6	0.00e+00	0	37	104	0	60	78706
2026-01-08 01:31:12.41	338.84	11.52	-50.9	-53.4	3.6	0.00e+00	0	37	104	0	60	78549
2026-01-08 01:31:13.42	338.58	11.55	-50.9	-53.4	3.6	0.00e+00	0	37	104	0	60	78383
2026-01-08 01:31:14.43	338.31	11.58	-50.9	-53.4	3.6	0.00e+00	0	37	104	0	60	78405
2026-01-08 01:31:15.44	338.04	11.61	-50.9	-53.5	3.6	0.00e+00	0	37	104	0	60	78688
2026-01-08 01:31:16.45	337.77	11.64	-50.9	-53.5	3.6	0.00e+00	0	37	104	0	60	78834
2026-01-08 01:31:17.46	337.50	11.67	-51.0	-53.5	3.6	0.00e+00	0	37	104	0	60	78724
2026-01-08 01:31:18.47	337.23	11.70	-50.9	-53.5	3.6	0.00e+00	0	37	104	0	60	78630
2026-01-08 01:31:19.48	336.96	11.73	-50.9	-53.5	3.6	0.00e+00	0	37	104	0	60	78688
2026-01-08 01:31:20.49	336.68	11.75	-50.8	-53.4	3.6	0.00e+00	0	37	104	0	60	77997
2026-01-08 01:31:21.51	336.41	11.78	-51.1	-53.5	3.6	0.00e+00	0	37	104	0	60	79502
2026-01-08 01:31:22.52	336.13	11.81	-50.8	-53.3	3.6	0.00e+00	0	37	104	0	60	77653
2026-01-08 01:31:23.53	335.86	11.83	-50.9	-53.4	3.6	0.00e+00	0	37	104	0	60	78087
2026-01-08 01:31:24.54	335.59	11.86	-50.8	-53.4	3.6	0.00e+00	0	37	104	0	60	78314
2026-01-08 01:31:25.55	335.31	11.88	-51.1	-53.6	3.6	0.00e+00	0	38	104	0	60	79946
2026-01-08 01:31:26.56	335.03	11.90	-51.1	-53.6	3.6	0.00e+00	0	37	104	0	60	79794
2026-01-08 01:31:27.57	334.76	11.93	-51.1	-53.6	3.6	0.00e+00	0	37	104	0	60	80184
2026-01-08 01:31:28.58	334.48	11.95	-51.2	-53.7	3.6	0.00e+00	0	37	104	0	60	80827
2026-01-08 01:31:29.59	334.20	11.97	-51.2	-53.7	3.6	0.00e+00	0	38	104	0	60	81329
2026-01-08 01:31:30.60	333.93	11.99	-51.2	-53.7	3.6	0.00e+00	0	38	104	0	60	80997
2026-01-08 01:31:31.61	333.65	12.01	-51.2	-53.7	3.6	0.00e+00	0	38	104	0	60	80905
2026-01-08 01:31:32.63	333.37	12.04	-51.2	-53.7	3.6	0.00e+00	0	38	104	0	60	80882
2026-01-08 01:31:33.64	333.09	12.06	-51.2	-53.7	3.6	0.00e+00	0	38	104	0	60	81117
2026-01-08 01:31:34.65	332.81	12.08	-51.2	-53.7	3.6	0.00e+00	0	38	104	0	60	80620
2026-01-08 01:31:35.66	332.53	12.09	-51.1	-53.6	3.6	0.00e+00	0	38	104	0	60	80315
2026-01-08 01:31:36.67	332.25	12.11	-51.2	-53.6	3.6	0.00e+00	0	37	104	0	60	80229
2026-01-08 01:31:37.68	331.96	12.13	-51.2	-53.7	3.6	0.00e+00	0	38	104	0	60	80760
2026-01-08 01:31:38.69	331.68	12.15	-51.3	-53.7	3.6	0.00e+00	0	38	104	0	60	81190
2026-01-08 01:31:39.70	331.40	12.16	-51.3	-53.8	3.6	0.00e+00	0	37	104	0	60	81745
2026-01-08 01:31:40.71	331.12	12.18	-51.3	-53.8	3.6	0.00e+00	0	38	104	0	60	81748
2026-01-08 01:31:41.73	330.83	12.20	-51.3	-53.8	3.6	0.00e+00	0	38	104	0	60	81692
2026-01-08 01:31:42.74	330.55	12.21	-51.3	-53.8	3.6	0.00e+00	0	38	104	0	60	81796
2026-01-08 01:31:43.75	330.27	12.23	-51.3	-53.8	3.6	0.00e+00	0	38	104	0	60	82087
2026-01-08 01:31:44.76	329.98	12.24	-51.3	-53.8	3.6	0.00e+00	0	38	104	0	60	82039
2026-01-08 01:31:45.77	329.70	12.25	-51.4	-53.8	3.6	0.00e+00	0	38	104	0	60	81876
2026-01-08 01:31:46.78	329.42	12.27	-51.4	-53.8	3.6	0.00e+00	0	38	104	0	60	82256
2026-01-08 01:31:47.79	329.13	12.28	-51.3	-53.9	3.6	0.00e+00	0	37	104	0	60	82452
2026-01-08 01:31:48.80	328.85	12.29	-51.4	-53.8	3.6	0.00e+00	0	37	104	0	60	82262
2026-01-08 01:31:49.81	328.56	12.30	-51.3	-53.8	3.6	0.00e+00	0	38	104	0	60	82195
2026-01-08 01:31:50.82	328.28	12.31	-51.3	-53.8	3.6	0.00e+00	0	38	104	0	60	81995
2026-01-08 01:31:51.83	327.99	12.32	-51.3	-53.8	3.6	0.00e+00	0	37	104	0	60	82077
2026-01-08 01:31:52.84	327.70	12.33	-51.3	-53.9	3.6	0.00e+00	0	38	104	0	60	82369
2026-01-08 01:31:53.86	327.41	12.34	-51.4	-53.8	3.6	0.00e+00	0	37	104	0	60	82300
2026-01-08 01:31:54.87	327.13	12.35	-51.4	-53.9	3.6	0.00e+00	0	37	104	0	60	82412
2026-01-08 01:31:55.88	326.84	12.35	-51.4	-53.9	3.6	0.00e+00	0	38	104	0	60	82450
2026-01-08 01:31:56.89	326.56	12.36	-51.4	-53.9	3.6	0.00e+00	0	38	104	0	60	82724
2026-01-08 01:31:57.90	326.27	12.37	-51.3	-53.9	3.6	0.00e+00	0	37	104	0	60	82347
2026-01-08 01:31:58.91	325.98	12.37	-51.3	-53.8	3.6	0.00e+00	0	37	104	0	60	81722
2026-01-08 01:31:59.92	325.69	12.38	-51.3	-53.8	3.6	0.00e+00	0	38	104	0	60	81390
2026-01-08 01:32:00.93	325.41	12.38	-51.2	-53.8	3.6	0.00e+00	0	37	104	0	60	81442
2026-01-08 01:32:01.94	325.12	12.38	-51.2	-53.7	3.6	0.00e+00	0	38	104	0	60	81222
2026-01-08 01:32:02.95	324.83	12.39	-51.2	-53.7	3.6	0.00e+00	0	38	104	0	60	81091
2026-01-08 01:32:03.97	324.54	12.39	-51.2	-53.7	3.6	0.00e+00	0	37	104	0	60	81266
2026-01-08 01:32:04.97	324.26	12.39	-51.3	-53.8	3.6	0.00e+00	0	38	104	0	60	82326
2026-01-08 01:32:05.99	323.97	12.39	-51.3	-53.8	3.6	0.00e+00	0	38	104	0	60	82102
2026-01-08 01:32:07.00	323.68	12.39	-51.4	-53.9	3.6	0.00e+00	0	38	104	0	60	82837
2026-01-08 01:32:08.01	323.39	12.39	-51.4	-53.9	3.6	0.00e+00	0	38	104	0	60	83221
2026-01-08 01:32:09.02	323.11	12.39	-51.4	-53.9	3.6	0.00e+00	0	38	104	0	60	82914
2026-01-08 01:32:10.03	322.82	12.39	-51.4	-53.9	3.6	0.00e+00	0	38	104	0	60	82932
2026-01-08 01:32:11.04	322.53	12.39	-51.4	-53.9	3.6	0.00e+00	0	38	104	0	60	82816
2026-01-08 01:32:12.05	322.24	12.39	-51.4	-53.9	3.6	0.00e+00	0	37	104	0	60	82652
2026-01-08 01:32:13.06	321.96	12.39	-51.4	-53.9	3.6	0.00e+00	0	38	104	0	60	83087
2026-01-08 01:32:14.08	321.67	12.38	-51.4	-53.9	3.6	0.00e+00	0	38	104	0	60	82589
2026-01-08 01:32:15.09	321.38	12.38	-51.4	-54.0	3.6	0.00e+00	0	38	104	0	60	83382
2026-01-08 01:32:16.10	321.09	12.37	-51.4	-53.9	3.6	0.00e+00	0	38	104	0	60	83017
2026-01-08 01:32:17.11	320.80	12.37	-51.4	-53.9	3.6	0.00e+00	0	38	104	0	60	82921
2026-01-08 01:32:18.12	320.52	12.36	-51.5	-54.0	3.6	0.00e+00	0	38	104	0	60	83881
2026-01-08 01:32:19.13	320.23	12.36	-51.5	-54.0	3.6	0.00e+00	0	38	104	0	60	83626
2026-01-08 01:32:20.14	319.94	12.35	-51.6	-54.1	3.6	0.00e+00	0	38	104	0	60	84721
2026-01-08 01:32:21.15	319.66	12.34	-51.6	-54.1	3.6	0.00e+00	0	38	104	0	60	84507
2026-01-08 01:32:22.16	319.37	12.33	-51.6	-54.1	3.6	0.00e+00	0	38	104	0	60	84833
2026-01-08 01:32:23.17	319.09	12.32	-51.6	-54.1	3.6	0.00e+00	0	38	104	0	60	84344
2026-01-08 01:32:24.18	318.80	12.31	-51.5	-54.1	3.6	0.00e+00	0	38	104	0	60	84380
2026-01-08 01:32:25.19	318.51	12.30	-51.5	-54.0	3.6	0.00e+00	0	38	104	0	60	83973
2026-01-08 01:32:26.20	318.23	12.29	-51.4	-53.9	3.6	0.00e+00	0	37	104	0	60	83268
2026-01-08 01:32:27.22	317.94	12.28	-51.6	-54.1	3.6	0.00e+00	0	38	104	0	60	84373
2026-01-08 01:32:28.23	317.66	12.27	-51.5	-54.0	3.6	0.00e+00	0	38	104	0	60	84126
2026-01-08 01:32:29.24	317.37	12.26	-51.6	-54.1	3.6	0.00e+00	0	38	104	0	60	84878
2026-01-08 01:32:30.25	317.09	12.24	-51.6	-54.1	3.6	0.00e+00	0	37	104	0	60	84637
2026-01-08 01:32:31.26	316.80	12.23	-51.6	-54.1	3.6	0.00e+00	0	37	104	0	60	84944
2026-01-08 01:32:32.27	316.52	12.22	-51.6	-54.1	3.6	0.00e+00	0	37	104	0	60	84599
2026-01-08 01:32:33.28	316.24	12.20	-51.6	-54.1	3.6	0.00e+00	0	38	104	0	60	84274
2026-01-08 01:32:34.29	315.95	12.19	-51.6	-54.1	3.5	0.00e+00	0	38	104	0	60	84577
2026-01-08 01:32:35.30	315.67	12.17	-51.6	-54.1	3.6	0.00e+00	0	38	104	0	60	84975
2026-01-08 01:32:36.31	315.39	12.15	-51.6	-54.1	3.6	0.00e+00	0	38	104	0	60	84814
2026-01-08 01:32:37.33	315.10	12.14	-51.6	-54.1	3.6	0.00e+00	0	38	104	0	60	85205
2026-01-08 01:32:38.34	314.82	12.12	-51.6	-54.1	3.6	0.00e+00	0	38	104	0	60	84890
2026-01-08 01:32:39.35	314.54	12.10	-51.6	-54.1	3.6	0.00e+00	0	38	104	0	60	84884
2026-01-08 01:32:40.36	314.26	12.08	-51.6	-54.1	3.6	0.00e+00	0	38	104	0	60	85120
2026-01-08 01:32:41.37	313.98	12.06	-51.7	-54.1	3.6	0.00e+00	0	38	104	0	60	85214
2026-01-08 01:32:42.38	313.70	12.04	-51.7	-54.2	3.6	0.00e+00	0	38	104	0	60	85463
2026-01-08 01:32:43.39	313.42	12.02	-51.7	-54.2	3.6	0.00e+00	0	38	104	0	60	85231
2026-01-08 01:32:44.40	313.14	12.00	-51.6	-54.1	3.6	0.00e+00	0	38	104	0	60	84846
2026-01-08 01:32:45.41	312.87	11.98	-51.7	-54.2	3.6	0.00e+00	0	38	104	0	60	85285
2026-01-08 01:32:46.43	312.59	11.96	-51.7	-54.2	3.6	0.00e+00	0	38	104	0	60	85478
2026-01-08 01:32:47.44	312.31	11.94	-51.6	-54.1	3.6	0.00e+00	0	38	104	0	60	84765
2026-01-08 01:32:48.45	312.03	11.91	-51.7	-54.2	3.6	0.00e+00	0	38	104	0	60	85377
2026-01-08 01:32:49.46	311.76	11.89	-51.7	-54.2	3.6	0.00e+00	0	38	104	0	60	85531
2026-01-08 01:32:50.47	311.48	11.86	-51.7	-54.1	3.6	0.00e+00	0	38	104	0	60	84822
2026-01-08 01:32:51.48	311.21	11.84	-51.7	-54.2	3.6	0.00e+00	0	38	104	0	60	85267
2026-01-08 01:32:52.49	310.93	11.81	-51.7	-54.2	3.6	0.00e+00	0	38	104	0	60	85840
2026-01-08 01:32:53.50	310.66	11.79	-51.7	-54.2	3.6	0.00e+00	0	38	104	0	60	86010
2026-01-08 01:32:54.52	310.38	11.76	-51.7	-54.2	3.6	0.00e+00	0	38	104	0	60	85230
2026-01-08 01:32:55.53	310.11	11.74	-51.7	-54.1	3.6	0.00e+00	0	38	104	0	60	85194
2026-01-08 01:32:56.54	309.84	11.71	-51.7	-54.2	3.6	0.00e+00	0	38	104	0	60	85823
2026-01-08 01:32:57.55	309.56	11.68	-51.7	-54.1	3.6	0.00e+00	0	38	104	0	60	85201
2026-01-08 01:32:58.56	309.29	11.65	-51.7	-54.1	3.6	0.00e+00	0	38	104	0	60	85178
2026-01-08 01:32:59.57	309.02	11.62	-51.7	-54.1	3.6	0.00e+00	0	38	104	0	60	85207
2026-01-08 01:33:00.58	308.75	11.59	-51.7	-54.2	3.6	0.00e+00	0	38	104	0	60	86017
2026-01-08 01:33:01.59	308.49	11.57	-51.8	-54.2	3.6	0.00e+00	0	38	104	0	60	86028
2026-01-08 01:33:02.60	308.22	11.54	-51.8	-54.3	3.6	0.00e+00	0	38	104	0	60	86398
2026-01-08 01:33:03.61	307.95	11.50	-51.8	-54.3	3.6	0.00e+00	0	38	104	0	60	86224
2026-01-08 01:33:04.63	307.68	11.47	-51.8	-54.3	3.6	0.00e+00	0	38	104	0	60	86333
2026-01-08 01:33:05.64	307.41	11.44	-51.8	-54.3	3.6	0.00e+00	0	38	104	0	60	86808
2026-01-08 01:33:06.65	307.15	11.41	-51.8	-54.3	3.6	0.00e+00	0	38	104	0	60	86717
2026-01-08 01:33:07.66	306.88	11.38	-51.8	-54.3	3.6	0.00e+00	0	38	104	0	60	86628
2026-01-08 01:33:08.67	306.62	11.34	-51.8	-54.3	3.6	0.00e+00	0	38	104	0	60	86781
2026-01-08 01:33:09.68	306.36	11.31	-51.8	-54.3	3.6	0.00e+00	0	38	104	0	60	86609
2026-01-08 01:33:10.69	306.09	11.28	-51.8	-54.3	3.6	0.00e+00	0	38	104	0	60	86854
2026-01-08 01:33:11.70	305.83	11.24	-51.8	-54.4	3.6	0.00e+00	0	38	104	0	60	87249
2026-01-08 01:33:12.71	305.57	11.21	-51.8	-54.3	3.6	0.00e+00	0	38	104	0	60	86918
2026-01-08 01:33:13.72	305.31	11.17	-51.9	-54.3	3.6	0.00e+00	0	38	104	0	60	86780
2026-01-08 01:33:14.73	305.05	11.14	-51.9	-54.4	3.6	0.00e+00	0	38	104	0	60	87386
2026-01-08 01:33:15.74	304.79	11.10	-51.8	-54.4	3.6	0.00e+00	0	38	104	0	60	87452
2026-01-08 01:33:16.75	304.53	11.07	-51.9	-54.3	3.6	0.00e+00	0	38	104	0	60	87181
2026-01-08 01:33:17.76	304.28	11.03	-51.9	-54.3	3.6	0.00e+00	0	38	104	0	60	87019
2026-01-08 01:33:18.77	304.02	10.99	-51.9	-54.3	3.6	0.00e+00	0	38	104	0	60	87101
2026-01-08 01:33:19.78	303.76	10.96	-51.9	-54.3	3.6	0.00e+00	0	38	104	0	60	87153
2026-01-08 01:33:20.79	303.51	10.92	-51.9	-54.4	3.6	0.00e+00	0	38	104	0	60	87311
2026-01-08 01:33:21.80	303.26	10.88	-51.9	-54.4	3.6	0.00e+00	0	38	104	0	60	87440
2026-01-08 01:33:22.82	303.00	10.84	-51.8	-54.3	3.6	0.00e+00	0	38	104	0	60	86736
2026-01-08 01:33:23.83	302.75	10.80	-51.8	-54.3	3.6	0.00e+00	0	38	104	0	60	86898
2026-01-08 01:33:24.84	302.50	10.76	-51.8	-54.3	3.6	0.00e+00	0	38	104	0	60	87117
2026-01-08 01:33:25.85	302.25	10.72	-51.8	-54.3	3.6	0.00e+00	0	38	104	0	60	86648
2026-01-08 01:33:26.86	302.00	10.68	-51.8	-54.3	3.6	0.00e+00	0	38	104	0	60	86798
2026-01-08 01:33:27.87	301.75	10.64	-51.8	-54.4	3.6	0.00e+00	0	38	104	0	60	87322
2026-01-08 01:33:28.88	301.50	10.60	-51.8	-54.3	3.6	0.00e+00	0	38	104	0	60	86728
2026-01-08 01:33:29.89	301.25	10.56	-51.8	-54.3	3.6	0.00e+00	0	38	104	0	60	86692
2026-01-08 01:33:30.90	301.01	10.52	-51.8	-54.3	3.6	0.00e+00	0	38	104	0	60	86864
2026-01-08 01:33:31.91	300.76	10.48	-51.8	-54.4	3.6	0.00e+00	0	38	104	0	60	87397
2026-01-08 01:33:32.92	300.51	10.43	-51.8	-54.4	3.6	0.00e+00	0	38	104	0	60	87584
2026-01-08 01:33:33.94	300.27	10.39	-51.8	-54.3	3.6	0.00e+00	0	38	104	0	60	87040
2026-01-08 01:33:34.95	300.03	10.35	-51.8	-54.3	3.6	0.00e+00	0	38	104	0	60	87168
2026-01-08 01:33:35.96	299.78	10.30	-51.9	-54.4	3.6	0.00e+00	0	38	104	0	60	87549
2026-01-08 01:33:36.97	299.54	10.26	-51.9	-54.4	3.6	0.00e+00	0	38	104	0	60	87373
2026-01-08 01:33:37.98	299.30	10.22	-51.9	-54.3	3.6	0.00e+00	0	38	104	0	60	87202
2026-01-08 01:33:38.99	299.06	10.17	-51.9	-54.3	3.6	0.00e+00	0	38	104	0	60	87193
2026-01-08 01:33:40.00	298.82	10.13	-51.9	-54.3	3.6	0.00e+00	0	38	104	0	60	87138
2026-01-08 01:33:41.01	298.59	10.08	-51.8	-54.4	3.6	0.00e+00	0	38	104	0	60	87458
2026-01-08 01:33:42.02	298.35	10.04	-51.8	-54.3	3.6	0.00e+00	0	38	104	0	60	87186
2026-01-08 01:33:43.03	298.11	9.99	-51.9	-54.3	3.6	0.00e+00	0	38	104	0	60	86777
2026-01-08 01:33:44.05	297.88	9.95	-51.9	-54.4	3.6	0.00e+00	0	38	104	0	60	87744
2026-01-08 01:33:45.06	297.64	9.90	-51.9	-54.4	3.6	0.00e+00	0	38	104	0	60	87378
2026-01-08 01:33:46.07	297.41	9.86	-51.9	-54.4	3.6	0.00e+00	0	38	104	0	60	87338
2026-01-08 01:33:47.08	297.18	9.81	-51.9	-54.4	3.6	0.00e+00	0	38	104	0	60	87507
2026-01-08 01:33:48.09	296.95	9.76	-51.9	-54.4	3.6	0.00e+00	0	38	104	0	60	87508
2026-01-08 01:33:49.10	296.72	9.72	-51.9	-54.4	3.6	0.00e+00	0	38	104	0	60	87736
2026-01-08 01:33:50.11	296.49	9.67	-51.9	-54.4	3.6	0.00e+00	0	38	104	0	60	87826
2026-01-08 01:33:51.12	296.26	9.62	-51.9	-54.4	3.6	0.00e+00	0	38	104	0	60	87403
2026-01-08 01:33:52.13	296.03	9.57	-51.9	-54.4	3.6	0.00e+00	0	38	104	0	60	87588
2026-01-08 01:33:53.14	295.80	9.53	-51.9	-54.4	3.6	0.00e+00	0	38	104	0	60	88116
2026-01-08 01:33:54.15	295.58	9.48	-51.9	-54.4	3.6	0.00e+00	0	38	104	0	60	87558
2026-01-08 01:33:55.16	295.35	9.43	-51.9	-54.4	3.6	0.00e+00	0	38	104	0	60	87560
2026-01-08 01:33:56.17	295.13	9.38	-51.9	-54.4	3.6	0.00e+00	0	38	104	0	60	87458
2026-01-08 01:33:57.19	294.90	9.33	-51.9	-54.4	3.6	0.00e+00	0	38	104	0	60	87586
2026-01-08 01:33:58.20	294.68	9.28	-51.9	-54.4	3.6	0.00e+00	0	38	104	0	60	87806
2026-01-08 01:33:59.21	294.46	9.23	-51.9	-54.4	3.6	0.00e+00	0	38	104	0	60	87793
2026-01-08 01:34:00.22	294.24	9.18	-51.9	-54.5	3.6	0.00e+00	0	38	104	0	60	88331
2026-01-08 01:34:01.23	294.02	9.13	-51.9	-54.4	3.6	0.00e+00	0	38	104	0	60	87744
2026-01-08 01:34:02.24	293.80	9.08	-51.9	-54.4	3.6	0.00e+00	0	38	104	0	60	87953
2026-01-08 01:34:03.25	293.59	9.03	-51.9	-54.4	3.6	0.00e+00	0	38	104	0	60	87874
2026-01-08 01:34:04.26	293.37	8.98	-52.0	-54.5	3.6	0.00e+00	0	38	104	0	60	88381
2026-01-08 01:34:05.27	293.15	8.93	-52.0	-54.4	3.6	0.00e+00	0	38	104	0	60	88049
2026-01-08 01:34:06.28	292.94	8.88	-52.0	-54.5	3.6	0.00e+00	0	38	104	0	60	88341
2026-01-08 01:34:07.30	292.72	8.83	-52.0	-54.5	3.6	0.00e+00	0	38	104	0	60	88255
2026-01-08 01:34:08.31	292.51	8.78	-52.0	-54.4	3.6	0.00e+00	0	38	104	0	60	87918
2026-01-08 01:34:09.32	292.30	8.73	-52.0	-54.5	3.6	0.00e+00	0	38	104	0	60	88408
2026-01-08 01:34:10.33	292.09	8.68	-52.0	-54.4	3.6	0.00e+00	0	38	104	0	60	88028
2026-01-08 01:34:11.34	291.88	8.63	-52.0	-54.4	3.6	0.00e+00	0	38	104	0	60	88162
2026-01-08 01:34:12.35	291.67	8.57	-52.0	-54.5	3.6	0.00e+00	0	38	104	0	60	88521
2026-01-08 01:34:13.36	291.46	8.52	-52.0	-54.5	3.6	0.00e+00	0	38	104	0	60	88261
2026-01-08 01:34:14.37	291.25	8.47	-52.0	-54.5	3.6	0.00e+00	0	38	104	0	60	88222
2026-01-08 01:34:15.39	291.04	8.42	-52.0	-54.6	3.6	0.00e+00	0	38	104	0	60	89257
2026-01-08 01:34:16.40	290.84	8.37	-52.0	-54.5	3.6	0.00e+00	0	38	104	0	60	88744
2026-01-08 01:34:17.41	290.64	8.31	-52.0	-54.5	3.6	0.00e+00	0	38	104	0	60	88409
2026-01-08 01:34:18.42	290.43	8.26	-52.0	-54.4	3.6	0.00e+00	0	38	104	0	60	88034
2026-01-08 01:34:19.43	290.23	8.21	-52.0	-54.5	3.6	0.00e+00	0	38	104	0	60	88431
2026-01-08 01:34:20.44	290.03	8.16	-52.0	-54.5	3.6	0.00e+00	0	38	104	0	60	88561
2026-01-08 01:34:21.45	289.83	8.10	-52.0	-54.5	3.6	0.00e+00	0	38	104	0	60	88453
2026-01-08 01:34:22.46	289.63	8.05	-52.0	-54.5	3.6	0.00e+00	0	38	104	0	60	88632
2026-01-08 01:34:23.47	289.43	8.00	-52.0	-54.5	3.6	0.00e+00	0	38	104	0	60	89057
2026-01-08 01:34:24.48	289.23	7.94	-52.0	-54.5	3.6	0.00e+00	0	38	104	0	60	89012
2026-01-08 01:34:25.49	289.03	7.89	-52.0	-54.5	3.6	0.00e+00	0	38	104	0	60	88475
2026-01-08 01:34:26.50	288.84	7.84	-52.0	-54.5	3.6	0.00e+00	0	38	104	0	60	88460
2026-01-08 01:34:27.51	288.64	7.78	-52.0	-54.5	3.6	0.00e+00	0	38	104	0	60	89032
2026-01-08 01:34:28.52	288.45	7.73	-52.0	-54.5	3.6	0.00e+00	0	38	104	0	60	88921
2026-01-08 01:34:29.54	288.25	7.67	-52.0	-54.4	3.6	0.00e+00	0	38	104	0	60	88145
2026-01-08 01:34:30.55	288.06	7.62	-52.0	-54.4	3.6	0.00e+00	0	38	104	0	60	87785
2026-01-08 01:34:31.56	287.87	7.56	-52.0	-54.4	3.6	0.00e+00	0	38	104	0	60	87879
2026-01-08 01:34:32.57	287.68	7.51	-52.0	-54.5	3.6	0.00e+00	0	38	104	0	60	89060
2026-01-08 01:34:33.58	287.49	7.46	-52.0	-54.5	3.6	0.00e+00	0	38	104	0	60	88735
2026-01-08 01:34:34.59	287.30	7.40	-52.0	-54.5	3.6	0.00e+00	0	38	104	0	60	88415
2026-01-08 01:34:35.60	287.11	7.35	-52.0	-54.5	3.6	0.00e+00	0	38	104	0	60	88479
2026-01-08 01:34:36.61	286.92	7.29	-52.0	-54.5	3.6	0.00e+00	0	38	104	0	60	89127
2026-01-08 01:34:37.62	286.74	7.24	-52.0	-54.5	3.6	0.00e+00	0	38	104	0	60	89174
2026-01-08 01:34:38.63	286.55	7.18	-52.0	-54.5	3.6	0.00e+00	0	38	104	0	60	89082
2026-01-08 01:34:39.64	286.37	7.13	-52.0	-54.5	3.6	0.00e+00	0	38	104	0	60	88758
2026-01-08 01:34:40.66	286.18	7.07	-52.0	-54.5	3.6	0.00e+00	0	38	104	0	60	88842
2026-01-08 01:34:41.67	286.00	7.02	-52.0	-54.5	3.6	0.00e+00	0	38	104	0	60	88303
2026-01-08 01:34:42.68	285.82	6.96	-52.0	-54.5	3.6	0.00e+00	0	38	104	0	60	88892
2026-01-08 01:34:43.69	285.64	6.91	-52.0	-54.5	3.6	0.00e+00	0	38	104	0	60	88609
2026-01-08 01:34:44.70	285.46	6.85	-52.0	-54.5	3.6	0.00e+00	0	38	104	0	60	89027
2026-01-08 01:34:45.71	285.28	6.80	-52.0	-54.5	3.6	0.00e+00	0	38	104	0	60	88419
2026-01-08 01:34:46.72	285.10	6.74	-52.0	-54.5	3.6	0.00e+00	0	38	104	0	60	88909
2026-01-08 01:34:47.73	284.92	6.69	-52.0	-54.5	3.6	0.00e+00	0	38	104	0	60	89113
2026-01-08 01:34:48.74	284.74	6.63	-52.0	-54.5	3.6	0.00e+00	0	38	104	0	60	88565
2026-01-08 01:34:49.76	284.57	6.57	-52.0	-54.5	3.6	0.00e+00	0	38	104	0	60	88963
2026-01-08 01:34:50.77	284.39	6.52	-52.0	-54.5	3.6	0.00e+00	0	38	104	0	60	88579
2026-01-08 01:34:51.78	284.22	6.46	-52.0	-54.5	3.6	0.00e+00	0	38	104	0	60	88469
2026-01-08 01:34:52.79	284.05	6.41	-52.0	-54.5	3.6	0.00e+00	0	38	104	0	60	88911
2026-01-08 01:34:53.80	283.87	6.35	-52.0	-54.5	3.6	0.00e+00	0	38	104	0	60	88534
2026-01-08 01:34:54.81	283.70	6.30	-52.0	-54.5	3.6	0.00e+00	0	38	104	0	60	88825
2026-01-08 01:34:55.82	283.53	6.24	-52.0	-54.5	3.6	0.00e+00	0	38	104	0	60	88683
2026-01-08 01:34:56.83	283.36	6.18	-52.0	-54.5	3.6	0.00e+00	0	38	104	0	60	88727
2026-01-08 01:34:57.84	283.19	6.13	-52.0	-54.4	3.6	0.00e+00	0	38	104	0	60	88077
2026-01-08 01:34:58.85	283.02	6.07	-52.0	-54.5	3.6	0.00e+00	0	38	104	0	60	89074
2026-01-08 01:34:59.86	282.86	6.02	-52.0	-54.5	3.6	0.00e+00	0	38	104	0	60	88948
2026-01-08 01:35:00.87	282.69	5.96	-52.0	-54.5	3.6	0.00e+00	0	38	104	0	60	88741
2026-01-08 01:35:01.89	282.52	5.90	-51.9	-54.5	3.6	0.00e+00	0	38	104	0	60	88258
2026-01-08 01:35:02.90	282.36	5.85	-52.0	-54.5	3.6	0.00e+00	0	38	104	0	60	88350
2026-01-08 01:35:03.91	282.19	5.79	-52.0	-54.5	3.6	0.00e+00	0	38	104	0	60	88828
2026-01-08 01:35:04.92	282.03	5.74	-52.0	-54.6	3.6	0.00e+00	0	38	104	0	60	89325
2026-01-08 01:35:05.93	281.87	5.68	-52.0	-54.5	3.6	0.00e+00	0	38	104	0	60	88876
2026-01-08 01:35:06.94	281.71	5.62	-52.0	-54.5	3.6	0.00e+00	0	38	104	0	60	89066
2026-01-08 01:35:07.95	281.54	5.57	-52.0	-54.5	3.6	0.00e+00	0	38	104	0	60	88513
2026-01-08 01:35:08.97	281.38	5.51	-52.0	-54.5	3.6	0.00e+00	0	38	104	0	60	88753
2026-01-08 01:35:09.98	281.22	5.45	-52.0	-54.5	3.6	0.00e+00	0	38	104	0	60	88646
2026-01-08 01:35:10.98	281.07	5.40	-52.0	-54.5	3.6	0.00e+00	0	38	104	0	60	89171
2026-01-08 01:35:12.00	280.91	5.34	-52.0	-54.5	3.6	0.00e+00	0	38	104	0	60	88802
2026-01-08 01:35:13.01	280.75	5.29	-52.0	-54.5	3.6	0.00e+00	0	38	104	0	60	89130
2026-01-08 01:35:14.02	280.59	5.23	-52.0	-54.5	3.6	0.00e+00	0	38	104	0	60	88782
2026-01-08 01:35:15.03	280.44	5.17	-52.1	-54.5	3.6	0.00e+00	0	38	104	0	60	88946
2026-01-08 01:35:16.04	280.28	5.12	-52.0	-54.6	3.6	0.00e+00	0	38	104	0	60	89273
2026-01-08 01:35:17.05	280.13	5.06	-52.0	-54.6	3.6	0.00e+00	0	38	104	0	60	89307
2026-01-08 01:35:18.06	279.98	5.00	-52.0	-54.6	3.6	0.00e+00	0	38	104	0	60	89260
2026-01-08 01:35:19.07	279.82	4.95	-52.0	-54.6	3.6	0.00e+00	0	38	104	0	60	89321
2026-01-08 01:35:20.09	279.67	4.89	-52.0	-54.5	3.6	0.00e+00	0	38	104	0	60	88633
2026-01-08 01:35:21.09	279.52	4.84	-52.0	-54.5	3.6	0.00e+00	0	38	104	0	60	88889
2026-01-08 01:35:22.11	279.37	4.78	-52.1	-54.6	3.6	0.00e+00	0	38	104	0	60	89670
2026-01-08 01:35:23.11	279.22	4.72	-52.1	-54.6	3.6	0.00e+00	0	38	104	0	60	89310
2026-01-08 01:35:24.13	279.07	4.67	-52.1	-54.6	3.6	0.00e+00	0	38	104	0	60	89482
2026-01-08 01:35:25.14	278.92	4.61	-52.1	-54.5	3.6	0.00e+00	0	38	104	0	60	89198
2026-01-08 01:35:26.15	278.78	4.55	-52.1	-54.5	3.6	0.00e+00	0	38	104	0	60	89201
2026-01-08 01:35:27.16	278.63	4.50	-52.1	-54.6	3.6	0.00e+00	0	38	104	0	60	89281
2026-01-08 01:35:28.17	278.48	4.44	-52.0	-54.6	3.6	0.00e+00	0	38	104	0	60	89389
2026-01-08 01:35:29.18	278.34	4.39	-52.0	-54.5	3.6	0.00e+00	0	38	104	0	60	89053
2026-01-08 01:35:30.19	278.19	4.33	-52.0	-54.5	3.6	0.00e+00	0	38	104	0	60	88561
2026-01-08 01:35:31.20	278.05	4.27	-52.0	-54.6	3.6	0.00e+00	0	38	104	0	60	89500
2026-01-08 01:35:32.22	277.91	4.22	-51.9	-54.5	3.6	0.00e+00	0	38	104	0	60	88243
2026-01-08 01:35:33.23	277.76	4.16	-52.0	-54.5	3.6	0.00e+00	0	38	104	0	60	88950
2026-01-08 01:35:34.24	277.62	4.11	-52.0	-54.5	3.6	0.00e+00	0	38	104	0	60	88946
2026-01-08 01:35:35.25	277.48	4.05	-52.0	-54.5	3.5	0.00e+00	0	38	104	0	60	89027
2026-01-08 01:35:36.26	277.34	3.99	-52.0	-54.5	3.6	0.00e+00	0	38	104	0	60	88655
2026-01-08 01:35:37.27	277.20	3.94	-52.0	-54.5	3.6	0.00e+00	0	38	104	0	60	89081
2026-01-08 01:35:38.28	277.06	3.88	-52.0	-54.5	3.6	0.00e+00	0	38	104	0	60	88881
2026-01-08 01:35:39.29	276.93	3.83	-52.0	-54.5	3.5	0.00e+00	0	38	104	0	60	88697
2026-01-08 01:35:40.30	276.79	3.77	-52.0	-54.5	3.6	0.00e+00	0	38	104	0	60	88691
2026-01-08 01:35:41.31	276.65	3.71	-52.0	-54.6	3.6	0.00e+00	0	38	104	0	60	89331
2026-01-08 01:35:42.33	276.51	3.66	-52.0	-54.6	3.6	0.00e+00	0	38	104	0	60	89578
2026-01-08 01:35:43.34	276.38	3.60	-52.0	-54.5	3.6	0.00e+00	0	38	104	0	60	88632
2026-01-08 01:35:44.35	276.24	3.55	-52.0	-54.5	3.6	0.00e+00	0	38	104	0	60	88962
2026-01-08 01:35:45.36	276.11	3.49	-52.0	-54.5	3.6	0.00e+00	0	38	104	0	60	89085
2026-01-08 01:35:46.37	275.98	3.43	-52.0	-54.5	3.6	0.00e+00	0	38	104	0	60	88762
2026-01-08 01:35:47.38	275.84	3.38	-52.0	-54.5	3.6	0.00e+00	0	38	104	0	60	89004
2026-01-08 01:35:48.39	275.71	3.32	-52.0	-54.5	3.6	0.00e+00	0	38	104	0	60	89239
2026-01-08 01:35:49.40	275.58	3.27	-52.0	-54.5	3.6	0.00e+00	0	38	104	0	60	88905
2026-01-08 01:35:50.42	275.45	3.21	-52.0	-54.5	3.6	0.00e+00	0	38	104	0	60	88867
2026-01-08 01:35:51.43	275.32	3.16	-52.0	-54.5	3.6	0.00e+00	0	38	104	0	60	88768
2026-01-08 01:35:52.44	275.19	3.10	-52.0	-54.5	3.6	0.00e+00	0	38	104	0	60	89222
2026-01-08 01:35:53.45	275.06	3.04	-52.0	-54.5	3.6	0.00e+00	0	38	104	0	60	88821
2026-01-08 01:35:54.46	274.93	2.99	-52.0	-54.5	3.6	0.00e+00	0	38	104	0	60	88458
2026-01-08 01:35:55.47	274.81	2.93	-52.0	-54.5	3.6	0.00e+00	0	38	104	0	60	88958
2026-01-08 01:35:56.48	274.68	2.88	-52.0	-54.5	3.6	0.00e+00	0	38	104	0	60	88608
2026-01-08 01:35:57.49	274.55	2.82	-52.0	-54.5	3.6	0.00e+00	0	38	104	0	60	88870
2026-01-08 01:35:58.50	274.43	2.77	-52.0	-54.5	3.6	0.00e+00	0	38	104	0	60	88835
2026-01-08 01:35:59.52	274.30	2.71	-52.0	-54.5	3.6	0.00e+00	0	38	104	0	60	88922
2026-01-08 01:36:00.53	274.18	2.66	-52.0	-54.5	3.6	0.00e+00	0	38	104	0	60	88931
2026-01-08 01:36:01.54	274.05	2.60	-52.0	-54.5	3.6	0.00e+00	0	38	104	0	60	89169
2026-01-08 01:36:02.55	273.93	2.55	-52.0	-54.5	3.6	0.00e+00	0	38	104	0	60	88849
2026-01-08 01:36:03.56	273.81	2.49	-51.9	-54.5	3.6	0.00e+00	0	38	104	0	60	88369
2026-01-08 01:36:04.57	273.68	2.44	-52.0	-54.5	3.6	0.00e+00	0	38	104	0	60	88954
2026-01-08 01:36:05.58	273.56	2.38	-52.0	-54.5	3.6	0.00e+00	0	38	104	0	60	88809
2026-01-08 01:36:06.59	273.44	2.33	-52.0	-54.5	3.6	0.00e+00	0	38	104	0	60	89049
2026-01-08 01:36:07.60	273.32	2.27	-52.0	-54.5	3.6	0.00e+00	0	38	104	0	60	88886
2026-01-08 01:36:08.61	273.20	2.22	-52.1	-54.6	3.6	0.00e+00	0	38	104	0	60	89319
2026-01-08 01:36:09.62	273.08	2.16	-52.0	-54.5	3.6	0.00e+00	0	38	104	0	60	88922
2026-01-08 01:36:10.63	272.96	2.11	-52.0	-54.5	3.6	0.00e+00	0	38	104	0	60	88379
2026-01-08 01:36:11.64	272.85	2.05	-52.1	-54.5	3.6	0.00e+00	0	38	104	0	60	89087
2026-01-08 01:36:12.66	272.73	2.00	-52.1	-54.5	3.6	0.00e+00	0	38	104	0	60	89172
2026-01-08 01:36:13.67	272.61	1.94	-52.0	-54.6	3.6	0.00e+00	0	38	104	0	60	89536
2026-01-08 01:36:14.68	272.49	1.89	-52.1	-54.5	3.6	0.00e+00	0	38	104	0	60	88886
2026-01-08 01:36:15.69	272.38	1.83	-52.1	-54.6	3.6	0.00e+00	0	38	104	0	60	89441
2026-01-08 01:36:16.70	272.26	1.78	-52.1	-54.5	3.6	0.00e+00	0	38	104	0	60	88972
2026-01-08 01:36:17.71	272.15	1.72	-52.0	-54.5	3.6	0.00e+00	0	38	104	0	60	88939
2026-01-08 01:36:18.72	272.04	1.67	-52.1	-54.5	3.6	0.00e+00	0	38	104	0	60	89108
2026-01-08 01:36:19.73	271.92	1.61	-52.1	-54.6	3.6	0.00e+00	0	38	104	0	60	89549
2026-01-08 01:36:20.74	271.81	1.56	-52.1	-54.6	3.6	0.00e+00	0	38	104	0	60	89519
2026-01-08 01:36:21.75	271.70	1.51	-52.1	-54.5	3.6	0.00e+00	0	38	104	0	60	89166
2026-01-08 01:36:22.76	271.59	1.45	-52.1	-54.6	3.6	0.00e+00	0	38	104	0	60	89433
2026-01-08 01:36:23.77	271.47	1.40	-52.1	-54.6	3.6	0.00e+00	0	38	104	0	60	89506
2026-01-08 01:36:24.79	271.36	1.34	-52.1	-54.6	3.6	0.00e+00	0	38	104	0	60	89538
2026-01-08 01:36:25.80	271.25	1.29	-52.1	-54.6	3.6	0.00e+00	0	38	104	0	60	89444
2026-01-08 01:36:26.81	271.14	1.23	-52.1	-54.6	3.6	0.00e+00	0	38	104	0	60	89679
2026-01-08 01:36:27.82	271.03	1.18	-52.1	-54.6	3.6	0.00e+00	0	38	104	0	60	89875
2026-01-08 01:36:28.83	270.92	1.13	-52.1	-54.6	3.6	0.00e+00	0	38	104	0	60	90203
2026-01-08 01:36:29.84	270.82	1.07	-52.1	-54.6	3.6	0.00e+00	0	38	104	0	60	89910
2026-01-08 01:36:30.85	270.71	1.02	-52.1	-54.6	3.6	0.00e+00	0	38	104	0	60	89968
2026-01-08 01:36:31.86	270.60	0.97	-52.1	-54.6	3.6	0.00e+00	0	38	104	0	60	89979
2026-01-08 01:36:32.87	270.49	0.91	-52.1	-54.6	3.6	0.00e+00	0	38	104	0	60	89894
2026-01-08 01:36:33.88	270.39	0.86	-52.1	-54.6	3.6	0.00e+00	0	38	104	0	60	89709
2026-01-08 01:36:34.89	270.28	0.80	-52.1	-54.6	3.6	0.00e+00	0	38	104	0	60	89837
2026-01-08 01:36:35.90	270.18	0.75	-52.2	-54.6	3.5	0.00e+00	0	38	104	0	60	90267
2026-01-08 01:36:36.91	270.07	0.70	-52.1	-54.6	3.6	0.00e+00	0	38	104	0	60	89544
2026-01-08 01:36:37.92	269.97	0.64	-52.1	-54.5	3.6	0.00e+00	0	38	104	0	60	89222
2026-01-08 01:36:38.94	269.86	0.59	-52.1	-54.6	3.6	0.00e+00	0	38	104	0	60	89847
2026-01-08 01:36:39.95	269.76	0.54	-52.1	-54.6	3.6	0.00e+00	0	38	104	0	60	89640
2026-01-08 01:36:40.96	269.66	0.48	-52.1	-54.6	3.6	0.00e+00	0	38	104	0	60	89616
2026-01-08 01:36:41.97	269.56	0.43	-52.1	-54.6	3.6	0.00e+00	0	38	104	0	60	89789
2026-01-08 01:36:42.98	269.46	0.38	-52.1	-54.5	3.6	0.00e+00	0	38	104	0	60	89215
2026-01-08 01:36:43.99	269.35	0.32	-52.1	-54.6	3.6	0.00e+00	0	38	104	0	60	89691
2026-01-08 01:36:45.00	269.25	0.27	-52.1	-54.6	3.6	0.00e+00	0	38	104	0	60	89565
2026-01-08 01:36:46.01	269.15	0.22	-52.1	-54.6	3.6	0.00e+00	0	38	104	0	60	89578
2026-01-08 01:36:47.02	269.05	0.16	-52.1	-54.6	3.6	0.00e+00	0	38	104	0	60	89291
2026-01-08 01:36:48.03	268.95	0.11	-52.2	-54.6	3.6	0.00e+00	0	38	104	0	60	89923
2026-01-08 01:36:49.04	268.86	0.06	-52.2	-54.6	3.6	0.00e+00	0	38	104	0	60	89905
2026-01-08 01:36:50.05	268.76	0.01	-52.1	-54.6	3.6	0.00e+00	0	38	104	0	60	89885
2026-01-08 01:36:51.06	268.66	-0.05	-52.2	-54.6	3.6	0.00e+00	0	38	104	0	60	90006
2026-01-08 01:36:52.07	268.56	-0.10	-52.2	-54.6	3.6	0.00e+00	0	38	104	0	60	89477

#Closed at: 2026-01-08 01:36:52
#Recorded file [0 MB]: D:/lorett/data/35034_260108_042731.dat