passes_logs/2026/01/08/R4.6S_Anadyr_2ch/R4.6S_Anadyr_2ch__20260108_011405_TY-41_rec.log

#Pass ID: 20260108_011405_TY-41
#Satellite: TY-41
#Configuration: TY-39_900M
#almurnet v.1.7.20251203
#Start time: 2026-01-08 01:16:27

#Version: 2.2.20231116
#Station: R4.6S_Anadyr_2ch
#Location: 177.4865 lon 64.73178 lat
#TLE: 1 61231U 24173E   25350.69767361  .00008010  00000-0  38191-3 0 09994
#TLE: 2 61231 097.4116 061.2842 0001674 094.3615 204.6766 15.19171214 68043

#Time	Az	El	Level	Level2	SNR	BER	BlckErr	Temp	State	Recorded	gain1	gain2
2026-01-08 01:16:27.85	1.95	9.55	-52.1	-64.9	3.4	1.52e+00	0	36	0	0	60	83175
2026-01-08 01:16:28.85	1.79	9.63	-52.2	-54.7	6.1	0.00e+00	0	36	104	0	60	91112
2026-01-08 01:16:29.86	1.62	9.71	-52.2	-54.7	6.1	0.00e+00	0	36	104	0	60	91283
2026-01-08 01:16:30.87	1.45	9.79	-52.2	-54.7	6.1	0.00e+00	0	36	104	0	60	91012
2026-01-08 01:16:31.88	1.29	9.87	-52.2	-54.7	6.1	0.00e+00	0	36	104	0	60	91299
2026-01-08 01:16:32.89	1.12	9.95	-52.2	-54.7	6.1	0.00e+00	0	36	104	0	60	90811
2026-01-08 01:16:33.90	0.95	10.02	-52.3	-54.7	6.1	0.00e+00	0	36	104	0	60	90910
2026-01-08 01:16:34.91	0.78	10.10	-52.3	-54.7	6.1	0.00e+00	0	36	104	0	60	91167
2026-01-08 01:16:35.93	0.60	10.18	-52.2	-54.7	6.1	0.00e+00	0	36	104	0	60	90833
2026-01-08 01:16:36.94	0.43	10.26	-52.3	-54.7	6.1	0.00e+00	0	36	104	0	60	90906
2026-01-08 01:16:37.95	0.26	10.34	-52.2	-54.7	6.1	0.00e+00	0	36	104	0	60	91037
2026-01-08 01:16:38.96	0.08	10.42	-52.3	-54.7	6.1	0.00e+00	0	36	104	0	60	91026
2026-01-08 01:16:39.97	359.90	10.50	-52.2	-54.7	6.1	0.00e+00	0	36	104	0	60	90747
2026-01-08 01:16:40.98	359.73	10.58	-52.3	-54.7	6.1	0.00e+00	0	36	104	0	60	91227
2026-01-08 01:16:41.99	359.55	10.66	-52.3	-54.8	6.1	0.00e+00	0	36	104	0	60	91443
2026-01-08 01:16:43.00	359.37	10.74	-52.3	-54.7	6.1	0.00e+00	0	36	104	0	60	91097
2026-01-08 01:16:44.01	359.19	10.82	-52.2	-54.7	6.1	0.00e+00	0	36	104	0	60	91114
2026-01-08 01:16:45.02	359.00	10.90	-52.3	-54.7	6.1	0.00e+00	0	36	104	0	60	91070
2026-01-08 01:16:46.03	358.82	10.98	-52.3	-54.8	6.1	0.00e+00	0	36	104	0	60	91345
2026-01-08 01:16:47.05	358.63	11.06	-52.2	-54.7	6.1	0.00e+00	0	36	104	0	60	90999
2026-01-08 01:16:48.06	358.44	11.14	-52.3	-54.7	6.1	0.00e+00	0	36	104	0	60	90349
2026-01-08 01:16:49.07	358.26	11.23	-52.3	-54.8	6.1	0.00e+00	0	36	104	0	60	91549
2026-01-08 01:16:50.08	358.07	11.31	-52.2	-54.7	6.1	0.00e+00	0	36	104	0	60	91103
2026-01-08 01:16:51.09	357.88	11.39	-52.3	-54.7	6.1	0.00e+00	0	36	104	0	60	90568
2026-01-08 01:16:52.10	357.69	11.47	-52.2	-54.7	6.1	0.00e+00	0	36	104	0	60	91232
2026-01-08 01:16:53.11	357.49	11.55	-52.3	-54.7	6.1	0.00e+00	0	36	104	0	60	91157
2026-01-08 01:16:54.12	357.30	11.63	-52.3	-54.8	6.1	0.00e+00	0	36	104	0	60	91569
2026-01-08 01:16:55.13	357.10	11.71	-52.3	-54.8	6.1	0.00e+00	0	36	104	0	60	91328
2026-01-08 01:16:56.14	356.91	11.79	-52.2	-54.7	6.1	0.00e+00	0	36	104	0	60	90585
2026-01-08 01:16:57.15	356.71	11.87	-52.2	-54.7	6.1	0.00e+00	0	36	104	0	60	90899
2026-01-08 01:16:58.16	356.51	11.96	-52.3	-54.7	6.1	0.00e+00	0	36	104	0	60	91274
2026-01-08 01:16:59.17	356.31	12.04	-52.3	-54.7	6.1	0.00e+00	0	36	104	0	60	91180
2026-01-08 01:17:00.18	356.10	12.12	-52.3	-54.7	6.1	0.00e+00	0	36	104	0	60	91180
2026-01-08 01:17:01.19	355.90	12.20	-52.2	-54.8	6.1	0.00e+00	0	36	104	0	60	91630
2026-01-08 01:17:02.21	355.69	12.28	-52.3	-54.7	6.1	0.00e+00	0	36	104	0	60	90995
2026-01-08 01:17:03.22	355.49	12.36	-52.2	-54.7	6.1	0.00e+00	0	36	104	0	60	90828
2026-01-08 01:17:04.23	355.28	12.45	-52.3	-54.7	6.1	0.00e+00	0	37	104	0	60	91079
2026-01-08 01:17:05.24	355.07	12.53	-52.2	-54.7	6.1	0.00e+00	0	37	104	0	60	90847
2026-01-08 01:17:06.25	354.86	12.61	-52.3	-54.7	6.1	0.00e+00	0	37	104	0	60	91109
2026-01-08 01:17:07.26	354.65	12.69	-52.3	-54.7	6.1	0.00e+00	0	36	104	0	60	91053
2026-01-08 01:17:08.27	354.43	12.77	-52.3	-54.7	6.1	0.00e+00	0	37	104	0	60	91193
2026-01-08 01:17:09.28	354.22	12.86	-52.2	-54.7	6.1	0.00e+00	0	37	104	0	60	91201
2026-01-08 01:17:10.29	354.00	12.94	-52.3	-54.7	6.1	0.00e+00	0	37	104	0	60	91217
2026-01-08 01:17:11.30	353.78	13.02	-52.3	-54.7	6.1	0.00e+00	0	36	104	0	60	90786
2026-01-08 01:17:12.31	353.56	13.10	-52.3	-54.7	6.1	0.00e+00	0	37	104	0	60	91253
2026-01-08 01:17:13.33	353.34	13.18	-52.2	-54.7	6.1	0.00e+00	0	37	104	0	60	91193
2026-01-08 01:17:14.34	353.12	13.27	-52.3	-54.7	6.1	0.00e+00	0	37	104	0	60	91067
2026-01-08 01:17:15.35	352.89	13.35	-52.3	-54.7	6.1	0.00e+00	0	37	104	0	60	91097
2026-01-08 01:17:16.36	352.67	13.43	-52.3	-54.7	6.1	0.00e+00	0	37	104	0	60	90672
2026-01-08 01:17:17.37	352.44	13.51	-52.3	-54.7	6.1	0.00e+00	0	37	104	0	60	91045
2026-01-08 01:17:18.38	352.21	13.59	-52.3	-54.7	6.1	0.00e+00	0	37	104	0	60	90818
2026-01-08 01:17:19.39	351.98	13.67	-52.3	-54.7	6.1	0.00e+00	0	37	104	0	60	91033
2026-01-08 01:17:20.40	351.75	13.76	-52.3	-54.7	6.1	0.00e+00	0	37	104	0	60	91291
2026-01-08 01:17:21.41	351.52	13.84	-52.2	-54.7	6.1	0.00e+00	0	37	104	0	60	90938
2026-01-08 01:17:22.42	351.28	13.92	-52.2	-54.7	6.1	0.00e+00	0	37	104	0	60	91120
2026-01-08 01:17:23.44	351.04	14.00	-52.3	-54.7	6.1	0.00e+00	0	37	104	0	60	91019
2026-01-08 01:17:24.44	350.81	14.08	-52.3	-54.7	6.1	0.00e+00	0	37	104	0	60	90979
2026-01-08 01:17:25.45	350.57	14.16	-52.3	-54.7	6.1	0.00e+00	0	37	104	0	60	90974
2026-01-08 01:17:26.46	350.33	14.24	-52.2	-54.7	6.1	0.00e+00	0	37	104	0	60	91236
2026-01-08 01:17:27.48	350.08	14.33	-52.3	-54.7	6.1	0.00e+00	0	37	104	0	60	91056
2026-01-08 01:17:28.49	349.84	14.41	-52.3	-54.7	6.1	0.00e+00	0	37	104	0	60	91139
2026-01-08 01:17:29.50	349.59	14.49	-52.3	-54.7	6.1	0.00e+00	0	37	104	0	60	91165
2026-01-08 01:17:30.51	349.35	14.57	-52.2	-54.7	6.1	0.00e+00	0	37	104	0	60	90639
2026-01-08 01:17:31.52	349.10	14.65	-52.3	-54.8	6.1	0.00e+00	0	37	104	0	60	91330
2026-01-08 01:17:32.53	348.85	14.73	-52.3	-54.7	6.1	0.00e+00	0	37	104	0	60	90843
2026-01-08 01:17:33.54	348.59	14.81	-52.2	-54.8	6.1	0.00e+00	0	37	104	0	60	91344
2026-01-08 01:17:34.55	348.34	14.89	-52.2	-54.7	6.1	0.00e+00	0	37	104	0	60	91108
2026-01-08 01:17:35.56	348.08	14.97	-52.3	-54.7	6.1	0.00e+00	0	37	104	0	60	91070
2026-01-08 01:17:36.57	347.83	15.05	-52.2	-54.7	6.1	0.00e+00	0	37	104	0	60	90670
2026-01-08 01:17:37.59	347.57	15.13	-52.3	-54.7	6.1	0.00e+00	0	37	104	0	60	91099
2026-01-08 01:17:38.60	347.30	15.21	-52.3	-54.7	6.1	0.00e+00	0	37	104	0	60	90512
2026-01-08 01:17:39.61	347.04	15.29	-52.3	-54.7	6.1	0.00e+00	0	37	104	0	60	91018
2026-01-08 01:17:40.62	346.78	15.37	-52.3	-54.7	6.1	0.00e+00	0	37	104	0	60	90695
2026-01-08 01:17:41.63	346.51	15.45	-52.2	-54.7	6.1	0.00e+00	0	37	104	0	60	91172
2026-01-08 01:17:42.64	346.25	15.53	-52.3	-54.7	6.1	0.00e+00	0	37	104	0	60	91055
2026-01-08 01:17:43.65	345.98	15.61	-52.2	-54.7	6.1	0.00e+00	0	37	104	0	60	91123
2026-01-08 01:17:44.66	345.71	15.69	-52.3	-54.8	6.1	0.00e+00	0	37	104	0	60	91554
2026-01-08 01:17:45.67	345.43	15.76	-52.3	-54.7	6.1	0.00e+00	0	37	104	0	60	90598
2026-01-08 01:17:46.69	345.16	15.84	-52.2	-54.8	6.1	0.00e+00	0	37	104	0	60	91496
2026-01-08 01:17:47.70	344.88	15.92	-52.3	-54.7	6.1	0.00e+00	0	37	104	0	60	91062
2026-01-08 01:17:48.71	344.60	16.00	-52.2	-54.7	6.1	0.00e+00	0	37	104	0	60	90740
2026-01-08 01:17:49.72	344.33	16.07	-52.2	-54.7	6.1	0.00e+00	0	37	104	0	60	90834
2026-01-08 01:17:50.73	344.04	16.15	-52.3	-54.7	6.1	0.00e+00	0	37	104	0	60	90690
2026-01-08 01:17:51.74	343.76	16.23	-52.2	-54.7	6.1	0.00e+00	0	37	104	0	60	90790
2026-01-08 01:17:52.75	343.48	16.30	-52.3	-54.8	6.1	0.00e+00	0	37	104	0	60	91441
2026-01-08 01:17:53.76	343.19	16.38	-52.3	-54.7	6.1	0.00e+00	0	37	104	0	60	91120
2026-01-08 01:17:54.77	342.90	16.45	-52.3	-54.7	6.1	0.00e+00	0	37	104	0	60	91315
2026-01-08 01:17:55.78	342.61	16.53	-52.3	-54.8	6.1	0.00e+00	0	37	104	0	60	91353
2026-01-08 01:17:56.80	342.32	16.61	-52.3	-54.7	6.1	0.00e+00	0	37	104	0	60	90972
2026-01-08 01:17:57.81	342.03	16.68	-52.2	-54.7	6.1	0.00e+00	0	37	104	0	60	90924
2026-01-08 01:17:58.82	341.73	16.75	-52.2	-54.7	6.1	0.00e+00	0	37	104	0	60	91025
2026-01-08 01:17:59.83	341.44	16.83	-52.3	-54.7	6.1	0.00e+00	0	37	104	0	60	91149
2026-01-08 01:18:00.84	341.14	16.90	-52.3	-54.7	6.1	0.00e+00	0	37	104	0	60	90758
2026-01-08 01:18:01.85	340.84	16.97	-52.3	-54.7	6.1	0.00e+00	0	37	104	0	60	90957
2026-01-08 01:18:02.86	340.54	17.05	-52.3	-54.7	6.1	0.00e+00	0	37	104	0	60	90961
2026-01-08 01:18:03.87	340.24	17.12	-52.3	-54.8	6.1	0.00e+00	0	37	104	0	60	91638
2026-01-08 01:18:04.88	339.93	17.19	-52.2	-54.7	6.1	0.00e+00	0	37	104	0	60	91079
2026-01-08 01:18:05.89	339.62	17.26	-52.3	-54.7	6.1	0.00e+00	0	37	104	0	60	91136
2026-01-08 01:18:06.90	339.32	17.33	-52.3	-54.7	6.1	0.00e+00	0	37	104	0	60	91169
2026-01-08 01:18:07.92	339.00	17.40	-52.3	-54.7	6.1	0.00e+00	0	37	104	0	60	91014
2026-01-08 01:18:08.93	338.69	17.47	-52.3	-54.7	6.1	0.00e+00	0	37	104	0	60	91283
2026-01-08 01:18:09.94	338.38	17.54	-52.3	-54.8	6.1	0.00e+00	0	37	104	0	60	91352
2026-01-08 01:18:10.95	338.06	17.61	-52.3	-54.7	6.1	0.00e+00	0	37	104	0	60	91205
2026-01-08 01:18:11.96	337.75	17.67	-52.3	-54.7	6.1	0.00e+00	0	37	104	0	60	90764
2026-01-08 01:18:12.97	337.43	17.74	-52.3	-54.7	6.1	0.00e+00	0	37	104	0	60	91220
2026-01-08 01:18:13.98	337.11	17.81	-52.3	-54.7	6.1	0.00e+00	0	37	104	0	60	90991
2026-01-08 01:18:14.99	336.79	17.87	-52.3	-54.7	6.1	0.00e+00	0	38	104	0	60	91198
2026-01-08 01:18:16.00	336.47	17.94	-52.3	-54.7	6.1	0.00e+00	0	37	104	0	60	90906
2026-01-08 01:18:17.01	336.14	18.01	-52.3	-54.8	6.1	0.00e+00	0	37	104	0	60	91355
2026-01-08 01:18:18.02	335.81	18.07	-52.3	-54.7	6.1	0.00e+00	0	37	104	0	60	91225
2026-01-08 01:18:19.04	335.48	18.13	-52.3	-54.7	6.1	0.00e+00	0	37	104	0	60	91282
2026-01-08 01:18:20.04	335.16	18.20	-52.3	-54.7	6.1	0.00e+00	0	37	104	0	60	91029
2026-01-08 01:18:21.06	334.82	18.26	-52.3	-54.7	6.1	0.00e+00	0	37	104	0	60	91131
2026-01-08 01:18:22.07	334.49	18.32	-52.3	-54.7	6.1	0.00e+00	0	37	104	0	60	91172
2026-01-08 01:18:23.08	334.16	18.38	-52.3	-54.8	6.1	0.00e+00	0	37	104	0	60	91352
2026-01-08 01:18:24.09	333.82	18.44	-52.2	-54.7	6.1	0.00e+00	0	37	104	0	60	91229
2026-01-08 01:18:25.10	333.48	18.50	-52.3	-54.7	6.1	0.00e+00	0	37	104	0	60	91227
2026-01-08 01:18:26.11	333.14	18.56	-52.3	-54.7	6.1	0.00e+00	0	37	104	0	60	90821
2026-01-08 01:18:27.12	332.80	18.62	-52.3	-54.7	6.1	0.00e+00	0	37	104	0	60	91091
2026-01-08 01:18:28.13	332.46	18.67	-52.3	-54.8	6.1	0.00e+00	0	37	104	0	60	91328
2026-01-08 01:18:29.14	332.12	18.73	-52.2	-54.7	6.1	0.00e+00	0	37	104	0	60	91110
2026-01-08 01:18:30.15	331.77	18.79	-52.3	-54.7	6.1	0.00e+00	0	37	104	0	60	90949
2026-01-08 01:18:31.17	331.42	18.84	-52.2	-54.7	6.1	0.00e+00	0	38	104	0	60	90729
2026-01-08 01:18:32.18	331.08	18.90	-52.2	-54.7	6.1	0.00e+00	0	37	104	0	60	90872
2026-01-08 01:18:33.19	330.73	18.95	-52.2	-54.7	6.1	0.00e+00	0	38	104	0	60	90717
2026-01-08 01:18:34.20	330.38	19.00	-52.2	-54.7	6.1	0.00e+00	0	38	104	0	60	91078
2026-01-08 01:18:35.21	330.02	19.05	-52.2	-54.7	6.1	0.00e+00	0	37	104	0	60	91043
2026-01-08 01:18:36.22	329.67	19.10	-52.3	-54.7	6.1	0.00e+00	0	37	104	0	60	90452
2026-01-08 01:18:37.23	329.32	19.15	-52.2	-54.8	6.1	0.00e+00	0	38	104	0	60	91451
2026-01-08 01:18:38.24	328.96	19.20	-52.2	-54.7	6.1	0.00e+00	0	38	104	0	60	91211
2026-01-08 01:18:39.25	328.60	19.25	-52.2	-54.7	6.1	0.00e+00	0	38	104	0	60	91019
2026-01-08 01:18:40.26	328.24	19.30	-52.3	-54.7	6.1	0.00e+00	0	38	104	0	60	90773
2026-01-08 01:18:41.27	327.88	19.34	-52.3	-54.7	6.1	0.00e+00	0	38	104	0	60	91299
2026-01-08 01:18:42.28	327.52	19.39	-52.3	-54.7	6.1	0.00e+00	0	37	104	0	60	91106
2026-01-08 01:18:43.30	327.16	19.43	-52.3	-54.7	6.1	0.00e+00	0	37	104	0	60	90849
2026-01-08 01:18:44.30	326.80	19.48	-52.3	-54.7	6.1	0.00e+00	0	38	104	0	60	90978
2026-01-08 01:18:45.31	326.43	19.52	-52.3	-54.8	6.1	0.00e+00	0	37	104	0	60	91370
2026-01-08 01:18:46.32	326.07	19.56	-52.3	-54.7	6.1	0.00e+00	0	38	104	0	60	91304
2026-01-08 01:18:47.34	325.70	19.60	-52.3	-54.7	6.1	0.00e+00	0	37	104	0	60	90924
2026-01-08 01:18:48.35	325.33	19.64	-52.2	-54.7	6.1	0.00e+00	0	37	104	0	60	90832
2026-01-08 01:18:49.36	324.96	19.68	-52.2	-54.7	6.1	0.00e+00	0	37	104	0	60	91029
2026-01-08 01:18:50.37	324.59	19.71	-52.3	-54.7	6.1	0.00e+00	0	38	104	0	60	90709
2026-01-08 01:18:51.38	324.22	19.75	-52.3	-54.7	6.1	0.00e+00	0	37	104	0	60	91061
2026-01-08 01:18:52.39	323.84	19.78	-52.3	-54.7	6.1	0.00e+00	0	38	104	0	60	90992
2026-01-08 01:18:53.40	323.47	19.82	-52.3	-54.7	6.1	0.00e+00	0	38	104	0	60	91027
2026-01-08 01:18:54.41	323.10	19.85	-52.3	-54.7	6.1	0.00e+00	0	38	104	0	60	90842
2026-01-08 01:18:55.42	322.72	19.88	-52.3	-54.7	6.1	0.00e+00	0	38	104	0	60	90831
2026-01-08 01:18:56.43	322.34	19.91	-52.2	-54.8	6.1	0.00e+00	0	37	104	0	60	91364
2026-01-08 01:18:57.44	321.97	19.94	-52.3	-54.7	6.1	0.00e+00	0	37	104	0	60	91100
2026-01-08 01:18:58.45	321.59	19.97	-52.2	-54.7	6.1	0.00e+00	0	38	104	0	60	90930
2026-01-08 01:18:59.46	321.21	20.00	-52.2	-54.7	6.1	0.00e+00	0	38	104	0	60	91283
2026-01-08 01:19:00.47	320.83	20.02	-52.2	-54.7	6.1	0.00e+00	0	38	104	0	60	91011
2026-01-08 01:19:01.48	320.45	20.05	-52.2	-54.7	6.1	0.00e+00	0	38	104	0	60	90843
2026-01-08 01:19:02.49	320.07	20.07	-52.2	-54.7	6.1	0.00e+00	0	38	104	0	60	90698
2026-01-08 01:19:03.51	319.69	20.10	-52.3	-54.8	6.1	0.00e+00	0	38	104	0	60	91333
2026-01-08 01:19:04.52	319.30	20.12	-52.3	-54.7	6.1	0.00e+00	0	38	104	0	60	90840
2026-01-08 01:19:05.53	318.92	20.14	-52.2	-54.7	6.1	0.00e+00	0	38	104	0	60	91018
2026-01-08 01:19:06.54	318.54	20.16	-52.2	-54.7	6.1	0.00e+00	0	38	104	0	60	90882
2026-01-08 01:19:07.55	318.15	20.17	-52.2	-54.7	6.1	0.00e+00	0	37	104	0	60	91150
2026-01-08 01:19:08.56	317.77	20.19	-52.2	-54.7	6.1	0.00e+00	0	38	104	0	60	90780
2026-01-08 01:19:09.57	317.39	20.21	-52.2	-54.7	6.1	0.00e+00	0	38	104	0	60	91111
2026-01-08 01:19:10.58	317.00	20.22	-52.2	-54.7	6.1	0.00e+00	0	38	104	0	60	90900
2026-01-08 01:19:11.59	316.61	20.23	-52.2	-54.7	6.1	0.00e+00	0	38	104	0	60	91305
2026-01-08 01:19:12.61	316.23	20.25	-52.2	-54.7	6.1	0.00e+00	0	38	104	0	60	90837
2026-01-08 01:19:13.62	315.84	20.26	-52.2	-54.7	6.1	0.00e+00	0	38	104	0	60	90957
2026-01-08 01:19:14.63	315.45	20.27	-52.2	-54.7	6.1	0.00e+00	0	38	104	0	60	90584
2026-01-08 01:19:15.64	315.07	20.27	-52.2	-54.7	6.1	0.00e+00	0	38	104	0	60	91028
2026-01-08 01:19:16.65	314.68	20.28	-52.2	-54.7	6.1	0.00e+00	0	38	104	0	60	91174
2026-01-08 01:19:17.66	314.29	20.29	-52.2	-54.7	6.1	0.00e+00	0	38	104	0	60	91051
2026-01-08 01:19:18.67	313.90	20.29	-52.2	-54.7	6.1	0.00e+00	0	38	104	0	60	90826
2026-01-08 01:19:19.68	313.52	20.30	-52.2	-54.7	6.1	0.00e+00	0	38	104	0	60	91183
2026-01-08 01:19:20.69	313.13	20.30	-52.2	-54.7	6.1	0.00e+00	0	38	104	0	60	91120
2026-01-08 01:19:21.71	312.74	20.30	-52.2	-54.7	6.1	0.00e+00	0	38	104	0	60	91108
2026-01-08 01:19:22.72	312.35	20.30	-52.2	-54.7	6.1	0.00e+00	0	38	104	0	60	91105
2026-01-08 01:19:23.73	311.96	20.30	-52.2	-54.7	6.1	0.00e+00	0	38	104	0	60	90851
2026-01-08 01:19:24.74	311.57	20.29	-52.2	-54.7	6.1	0.00e+00	0	37	104	0	60	90661
2026-01-08 01:19:25.75	311.19	20.29	-52.2	-54.7	6.1	0.00e+00	0	38	104	0	60	90926
2026-01-08 01:19:26.76	310.80	20.28	-52.2	-54.7	6.1	0.00e+00	0	38	104	0	60	91131
2026-01-08 01:19:27.77	310.41	20.28	-52.2	-54.7	6.1	0.00e+00	0	38	104	0	60	90980
2026-01-08 01:19:28.78	310.02	20.27	-52.2	-54.7	6.1	0.00e+00	0	38	104	0	60	90994
2026-01-08 01:19:29.79	309.64	20.26	-52.2	-54.7	6.1	0.00e+00	0	38	104	0	60	90836
2026-01-08 01:19:30.81	309.25	20.25	-52.2	-54.7	6.1	0.00e+00	0	38	104	0	60	90808
2026-01-08 01:19:31.82	308.86	20.24	-52.2	-54.7	6.1	0.00e+00	0	38	104	0	60	90857
2026-01-08 01:19:32.83	308.48	20.23	-52.3	-54.8	6.1	0.00e+00	0	38	104	0	60	91349
2026-01-08 01:19:33.84	308.09	20.21	-52.2	-54.7	6.1	0.00e+00	0	38	104	0	60	90983
2026-01-08 01:19:34.85	307.70	20.20	-52.2	-54.7	6.1	0.00e+00	0	38	104	0	60	90844
2026-01-08 01:19:35.86	307.32	20.18	-52.2	-54.7	6.1	0.00e+00	0	38	104	0	60	90780
2026-01-08 01:19:36.87	306.94	20.16	-52.2	-54.7	6.1	0.00e+00	0	38	104	0	60	90624
2026-01-08 01:19:37.88	306.55	20.14	-52.2	-54.7	6.1	0.00e+00	0	38	104	0	60	90756
2026-01-08 01:19:38.89	306.17	20.12	-52.2	-54.7	6.1	0.00e+00	0	38	104	0	60	91070
2026-01-08 01:19:39.90	305.79	20.10	-52.2	-54.7	6.1	0.00e+00	0	38	104	0	60	91068
2026-01-08 01:19:40.91	305.40	20.08	-52.2	-54.7	6.1	0.00e+00	0	38	104	0	60	90992
2026-01-08 01:19:41.92	305.02	20.06	-52.2	-54.7	6.1	0.00e+00	0	38	104	0	60	90985
2026-01-08 01:19:42.94	304.64	20.03	-52.2	-54.7	6.1	0.00e+00	0	38	104	0	60	90885
2026-01-08 01:19:43.95	304.26	20.01	-52.2	-54.7	6.1	0.00e+00	0	38	104	0	60	90859
2026-01-08 01:19:44.96	303.88	19.98	-52.3	-54.7	6.1	0.00e+00	0	38	104	0	60	90746
2026-01-08 01:19:45.97	303.50	19.95	-52.2	-54.7	6.1	0.00e+00	0	38	104	0	60	90861
2026-01-08 01:19:46.98	303.12	19.92	-52.2	-54.7	6.1	0.00e+00	0	38	104	0	60	90897
2026-01-08 01:19:47.99	302.75	19.89	-52.2	-54.7	6.1	0.00e+00	0	38	104	0	60	91043
2026-01-08 01:19:49.00	302.37	19.86	-52.2	-54.7	6.1	0.00e+00	0	38	104	0	60	90811
2026-01-08 01:19:50.01	302.00	19.83	-52.2	-54.7	6.1	0.00e+00	0	38	104	0	60	90789
2026-01-08 01:19:51.02	301.62	19.80	-52.2	-54.7	6.1	0.00e+00	0	38	104	0	60	90519
2026-01-08 01:19:52.03	301.25	19.76	-52.2	-54.7	6.1	0.00e+00	0	38	104	0	60	90675
2026-01-08 01:19:53.04	300.88	19.73	-52.2	-54.7	6.1	0.00e+00	0	38	104	0	60	90958
2026-01-08 01:19:54.06	300.50	19.69	-52.2	-54.7	6.1	0.00e+00	0	38	104	0	60	90569
2026-01-08 01:19:55.07	300.13	19.65	-52.2	-54.7	6.1	0.00e+00	0	38	104	0	60	90864
2026-01-08 01:19:56.08	299.76	19.61	-52.2	-54.7	6.1	0.00e+00	0	38	104	0	60	91157
2026-01-08 01:19:57.09	299.39	19.57	-52.2	-54.7	6.1	0.00e+00	0	38	104	0	60	90401
2026-01-08 01:19:58.10	299.03	19.53	-52.2	-54.7	6.1	0.00e+00	0	38	104	0	60	90961
2026-01-08 01:19:59.11	298.66	19.49	-52.2	-54.7	6.1	0.00e+00	0	38	104	0	60	90903
2026-01-08 01:20:00.12	298.30	19.45	-52.2	-54.7	6.1	0.00e+00	0	38	104	0	60	90607
2026-01-08 01:20:01.13	297.93	19.40	-52.2	-54.7	6.1	0.00e+00	0	38	104	0	60	90969
2026-01-08 01:20:02.14	297.57	19.36	-52.2	-54.7	6.1	0.00e+00	0	38	104	0	60	90807
2026-01-08 01:20:03.15	297.21	19.31	-52.2	-54.7	6.1	0.00e+00	0	38	104	0	60	90714
2026-01-08 01:20:04.16	296.85	19.26	-52.2	-54.7	6.1	0.00e+00	0	38	104	0	60	90698
2026-01-08 01:20:05.17	296.49	19.22	-52.2	-54.7	6.1	0.00e+00	0	38	104	0	60	91305
2026-01-08 01:20:06.19	296.13	19.17	-52.2	-54.7	6.1	0.00e+00	0	38	104	0	60	90578
2026-01-08 01:20:07.20	295.77	19.12	-52.2	-54.7	6.1	0.00e+00	0	38	104	0	60	90983
2026-01-08 01:20:08.21	295.42	19.07	-52.2	-54.7	6.1	0.00e+00	0	38	104	0	60	90412
2026-01-08 01:20:09.22	295.07	19.02	-52.2	-54.7	6.0	0.00e+00	0	38	104	0	60	90693
2026-01-08 01:20:10.23	294.71	18.96	-52.2	-54.7	6.1	0.00e+00	0	38	104	0	60	90666
2026-01-08 01:20:11.24	294.36	18.91	-52.2	-54.8	6.1	0.00e+00	0	38	104	0	60	91326
2026-01-08 01:20:12.25	294.01	18.86	-52.2	-54.7	6.1	0.00e+00	0	38	104	0	60	91022
2026-01-08 01:20:13.26	293.67	18.80	-52.2	-54.7	6.1	0.00e+00	0	38	104	0	60	90807
2026-01-08 01:20:14.27	293.32	18.75	-52.2	-54.7	6.1	0.00e+00	0	38	104	0	60	90596
2026-01-08 01:20:15.28	292.98	18.69	-52.2	-54.7	6.1	0.00e+00	0	38	104	0	60	90901
2026-01-08 01:20:16.29	292.63	18.63	-52.2	-54.7	6.1	0.00e+00	0	38	104	0	60	91037
2026-01-08 01:20:17.31	292.29	18.58	-52.2	-54.7	6.1	0.00e+00	0	38	104	0	60	90802
2026-01-08 01:20:18.31	291.95	18.52	-52.2	-54.7	6.1	0.00e+00	0	38	104	0	60	90780
2026-01-08 01:20:19.33	291.61	18.46	-52.2	-54.7	6.1	0.00e+00	0	38	104	0	60	90836
2026-01-08 01:20:20.34	291.27	18.40	-52.2	-54.7	6.1	0.00e+00	0	38	104	0	60	90449
2026-01-08 01:20:21.35	290.94	18.34	-52.2	-54.7	6.1	0.00e+00	0	38	104	0	60	91053
2026-01-08 01:20:22.36	290.60	18.27	-52.2	-54.7	6.1	0.00e+00	0	38	104	0	60	91125
2026-01-08 01:20:23.37	290.27	18.21	-52.2	-54.7	6.1	0.00e+00	0	38	104	0	60	90927
2026-01-08 01:20:24.38	289.94	18.15	-52.2	-54.7	6.1	0.00e+00	0	38	104	0	60	90523
2026-01-08 01:20:25.39	289.61	18.09	-52.2	-54.7	6.1	0.00e+00	0	38	104	0	60	90797
2026-01-08 01:20:26.40	289.28	18.02	-52.2	-54.7	6.1	0.00e+00	0	38	104	0	60	91096
2026-01-08 01:20:27.41	288.96	17.96	-52.2	-54.7	6.1	0.00e+00	0	38	104	0	60	91130
2026-01-08 01:20:28.43	288.63	17.89	-52.2	-54.7	6.1	0.00e+00	0	38	104	0	60	90721
2026-01-08 01:20:29.44	288.30	17.82	-52.2	-54.7	6.1	0.00e+00	0	38	104	0	60	90914
2026-01-08 01:20:30.45	287.98	17.76	-52.2	-54.7	6.1	0.00e+00	0	38	104	0	60	91173
2026-01-08 01:20:31.46	287.66	17.69	-52.2	-54.7	6.1	0.00e+00	0	38	104	0	60	90816
2026-01-08 01:20:32.47	287.35	17.62	-52.2	-54.7	6.1	0.00e+00	0	38	104	0	60	90560
2026-01-08 01:20:33.48	287.03	17.55	-52.2	-54.7	6.1	0.00e+00	0	38	104	0	60	90555
2026-01-08 01:20:34.49	286.71	17.49	-52.2	-54.7	6.1	0.00e+00	0	38	104	0	60	90461
2026-01-08 01:20:35.50	286.40	17.42	-52.2	-54.7	6.1	0.00e+00	0	38	104	0	60	90968
2026-01-08 01:20:36.52	286.09	17.35	-52.2	-54.7	6.1	0.00e+00	0	38	104	0	60	90836
2026-01-08 01:20:37.53	285.78	17.28	-52.2	-54.7	6.1	0.00e+00	0	38	104	0	60	90907
2026-01-08 01:20:38.54	285.47	17.20	-52.2	-54.7	6.1	0.00e+00	0	38	104	0	60	91154
2026-01-08 01:20:39.55	285.16	17.13	-52.2	-54.7	6.1	0.00e+00	0	38	104	0	60	90543
2026-01-08 01:20:40.56	284.86	17.06	-52.2	-54.7	6.1	0.00e+00	0	38	104	0	60	91000
2026-01-08 01:20:41.57	284.56	16.99	-52.2	-54.7	6.1	0.00e+00	0	38	104	0	60	90601
2026-01-08 01:20:42.58	284.26	16.92	-52.2	-54.7	6.1	0.00e+00	0	38	104	0	60	90696
2026-01-08 01:20:43.59	283.96	16.84	-52.2	-54.7	6.1	0.00e+00	0	38	104	0	60	90328
2026-01-08 01:20:44.60	283.66	16.77	-52.2	-54.8	6.1	0.00e+00	0	38	104	0	60	91368
2026-01-08 01:20:45.62	283.36	16.69	-52.2	-54.7	6.1	0.00e+00	0	38	104	0	60	90867
2026-01-08 01:20:46.63	283.06	16.62	-52.2	-54.7	6.0	0.00e+00	0	38	104	0	60	90927
2026-01-08 01:20:47.64	282.77	16.54	-52.2	-54.7	6.1	0.00e+00	0	38	104	0	60	91047
2026-01-08 01:20:48.65	282.48	16.47	-52.2	-54.7	6.1	0.00e+00	0	38	104	0	60	90470
2026-01-08 01:20:49.66	282.19	16.39	-52.2	-54.7	6.1	0.00e+00	0	38	104	0	60	90999
2026-01-08 01:20:50.67	281.90	16.32	-52.2	-54.7	6.1	0.00e+00	0	38	104	0	60	91110
2026-01-08 01:20:51.68	281.62	16.24	-52.2	-54.7	6.1	0.00e+00	0	38	104	0	60	90811
2026-01-08 01:20:52.69	281.33	16.16	-52.2	-54.7	6.1	0.00e+00	0	38	104	0	60	90692
2026-01-08 01:20:53.70	281.05	16.09	-52.2	-54.7	6.1	0.00e+00	0	38	104	0	60	90621
2026-01-08 01:20:54.71	280.77	16.01	-52.2	-54.7	6.1	0.00e+00	0	38	104	0	60	90492
2026-01-08 01:20:55.73	280.49	15.93	-52.2	-54.7	6.1	0.00e+00	0	38	104	0	60	90689
2026-01-08 01:20:56.74	280.21	15.85	-52.2	-54.7	6.1	0.00e+00	0	38	104	0	60	90425
2026-01-08 01:20:57.75	279.94	15.78	-52.2	-54.7	6.1	0.00e+00	0	38	104	0	60	91045
2026-01-08 01:20:58.76	279.66	15.70	-52.2	-54.6	6.1	0.00e+00	0	38	104	0	60	90273
2026-01-08 01:20:59.77	279.39	15.62	-52.2	-54.7	6.1	0.00e+00	0	38	104	0	60	90744
2026-01-08 01:21:00.78	279.12	15.54	-52.2	-54.7	6.1	0.00e+00	0	38	104	0	60	90690
2026-01-08 01:21:01.79	278.85	15.46	-52.2	-54.7	6.1	0.00e+00	0	38	104	0	60	91170
2026-01-08 01:21:02.80	278.58	15.38	-52.2	-54.7	6.1	0.00e+00	0	38	104	0	60	90732
2026-01-08 01:21:03.81	278.32	15.30	-52.2	-54.7	6.1	0.00e+00	0	38	104	0	60	90830
2026-01-08 01:21:04.82	278.06	15.22	-52.2	-54.7	6.0	0.00e+00	0	38	104	0	60	91095
2026-01-08 01:21:05.84	277.79	15.14	-52.2	-54.7	6.1	0.00e+00	0	38	104	0	60	90721
2026-01-08 01:21:06.85	277.53	15.06	-52.2	-54.7	6.1	0.00e+00	0	38	104	0	60	90604
2026-01-08 01:21:07.86	277.27	14.98	-52.2	-54.7	6.1	0.00e+00	0	38	104	0	60	90854
2026-01-08 01:21:08.87	277.01	14.90	-52.2	-54.7	6.1	0.00e+00	0	38	104	0	60	90437
2026-01-08 01:21:09.88	276.76	14.82	-52.2	-54.8	6.1	0.00e+00	0	38	104	0	60	91343
2026-01-08 01:21:10.89	276.50	14.74	-52.2	-54.7	6.1	0.00e+00	0	38	104	0	60	90601
2026-01-08 01:21:11.90	276.25	14.66	-52.2	-54.7	6.1	0.00e+00	0	38	104	0	60	90839
2026-01-08 01:21:12.91	276.00	14.58	-52.2	-54.7	6.1	0.00e+00	0	38	104	0	60	90868
2026-01-08 01:21:13.92	275.75	14.50	-52.2	-54.6	6.1	0.00e+00	0	38	104	0	60	90266
2026-01-08 01:21:14.93	275.51	14.42	-52.2	-54.7	6.1	0.00e+00	0	38	104	0	60	91241
2026-01-08 01:21:15.94	275.26	14.33	-52.2	-54.7	6.1	0.00e+00	0	38	104	0	60	90850
2026-01-08 01:21:16.95	275.02	14.25	-52.2	-54.7	6.1	0.00e+00	0	38	104	0	60	90517
2026-01-08 01:21:17.97	274.77	14.17	-52.2	-54.7	6.1	0.00e+00	0	38	104	0	60	90898
2026-01-08 01:21:18.98	274.53	14.09	-52.2	-54.7	6.1	0.00e+00	0	38	104	0	60	90924
2026-01-08 01:21:19.99	274.29	14.01	-52.2	-54.7	6.1	0.00e+00	0	38	104	0	60	90958
2026-01-08 01:21:21.00	274.05	13.93	-52.2	-54.7	6.1	0.00e+00	0	38	104	0	60	90639
2026-01-08 01:21:22.01	273.82	13.84	-52.2	-54.7	6.1	0.00e+00	0	38	104	0	60	90664
2026-01-08 01:21:23.02	273.58	13.76	-52.2	-54.7	6.1	0.00e+00	0	38	104	0	60	90666
2026-01-08 01:21:24.03	273.35	13.68	-52.2	-54.7	6.1	0.00e+00	0	38	104	0	60	91094
2026-01-08 01:21:25.04	273.12	13.60	-52.2	-54.7	6.1	0.00e+00	0	38	104	0	60	90541
2026-01-08 01:21:26.05	272.89	13.52	-52.2	-54.7	6.1	0.00e+00	0	38	104	0	60	90920
2026-01-08 01:21:27.06	272.66	13.43	-52.2	-54.7	6.1	0.00e+00	0	38	104	0	60	91106
2026-01-08 01:21:28.08	272.43	13.35	-52.2	-54.7	6.1	0.00e+00	0	38	104	0	60	90759
2026-01-08 01:21:29.09	272.20	13.27	-52.2	-54.7	6.1	0.00e+00	0	38	104	0	60	90367
2026-01-08 01:21:30.10	271.98	13.19	-52.2	-54.7	6.1	0.00e+00	0	38	104	0	60	90579
2026-01-08 01:21:31.11	271.76	13.10	-52.2	-54.7	6.1	0.00e+00	0	38	104	0	60	90700
2026-01-08 01:21:32.12	271.54	13.02	-52.2	-54.7	6.1	0.00e+00	0	38	104	0	60	91032
2026-01-08 01:21:33.13	271.32	12.94	-52.2	-54.7	6.1	0.00e+00	0	38	104	0	60	91112
2026-01-08 01:21:34.14	271.10	12.86	-52.2	-54.7	6.1	0.00e+00	0	38	104	0	60	90542
2026-01-08 01:21:35.15	270.88	12.78	-52.2	-54.7	6.1	0.00e+00	0	38	104	0	60	90772
2026-01-08 01:21:36.16	270.67	12.69	-52.2	-54.7	6.1	0.00e+00	0	38	104	0	60	90854
2026-01-08 01:21:37.17	270.45	12.61	-52.2	-54.7	6.1	0.00e+00	0	38	104	0	60	91045
2026-01-08 01:21:38.18	270.24	12.53	-52.2	-54.7	6.1	0.00e+00	0	38	104	0	60	91076
2026-01-08 01:21:39.19	270.03	12.45	-52.2	-54.7	6.1	0.00e+00	0	38	104	0	60	90734
2026-01-08 01:21:40.20	269.82	12.36	-52.2	-54.7	6.1	0.00e+00	0	38	104	0	60	90469
2026-01-08 01:21:41.22	269.61	12.28	-52.2	-54.7	6.1	0.00e+00	0	38	104	0	60	90971
2026-01-08 01:21:42.23	269.40	12.20	-52.2	-54.7	6.1	0.00e+00	0	38	104	0	60	90982
2026-01-08 01:21:43.24	269.20	12.12	-52.2	-54.7	6.1	0.00e+00	0	38	104	0	60	90568
2026-01-08 01:21:44.25	268.99	12.04	-52.2	-54.7	6.1	0.00e+00	0	38	104	0	60	90682
2026-01-08 01:21:45.26	268.79	11.95	-52.2	-54.7	6.1	0.00e+00	0	38	104	0	60	90330
2026-01-08 01:21:46.27	268.59	11.87	-52.2	-54.7	6.1	0.00e+00	0	38	104	0	60	91161
2026-01-08 01:21:47.28	268.39	11.79	-52.2	-54.7	6.1	0.00e+00	0	38	104	0	60	90849
2026-01-08 01:21:48.29	268.19	11.71	-52.2	-54.7	6.1	0.00e+00	0	38	104	0	60	90590
2026-01-08 01:21:49.30	268.00	11.63	-52.2	-54.7	6.1	0.00e+00	0	38	104	0	60	90499
2026-01-08 01:21:50.31	267.80	11.55	-52.2	-54.7	6.1	0.00e+00	0	38	104	0	60	90776
2026-01-08 01:21:51.32	267.61	11.46	-52.2	-54.7	6.1	0.00e+00	0	38	104	0	60	90347
2026-01-08 01:21:52.34	267.41	11.38	-52.2	-54.7	6.1	0.00e+00	0	38	104	0	60	90311
2026-01-08 01:21:53.35	267.22	11.30	-52.2	-54.7	6.1	0.00e+00	0	38	104	0	60	90904
2026-01-08 01:21:54.35	267.03	11.22	-52.2	-54.7	6.1	0.00e+00	0	38	104	0	60	90796
2026-01-08 01:21:55.37	266.84	11.14	-52.2	-54.7	6.1	0.00e+00	0	38	104	0	60	90851
2026-01-08 01:21:56.38	266.65	11.06	-52.2	-54.7	6.1	0.00e+00	0	38	104	0	60	91009
2026-01-08 01:21:57.39	266.46	10.98	-52.2	-54.7	6.1	0.00e+00	0	38	104	0	60	90600
2026-01-08 01:21:58.40	266.28	10.90	-52.2	-54.7	6.1	0.00e+00	0	38	104	0	60	90419
2026-01-08 01:21:59.41	266.10	10.82	-52.2	-54.7	6.1	0.00e+00	0	38	104	0	60	90622
2026-01-08 01:22:00.42	265.91	10.74	-52.2	-54.7	6.1	0.00e+00	0	38	104	0	60	90913
2026-01-08 01:22:01.43	265.73	10.65	-52.2	-54.7	6.1	0.00e+00	0	38	104	0	60	90819
2026-01-08 01:22:02.44	265.55	10.57	-52.2	-54.7	6.1	0.00e+00	0	38	104	0	60	90849
2026-01-08 01:22:03.45	265.37	10.49	-52.2	-54.7	6.1	0.00e+00	0	38	104	0	60	91039
2026-01-08 01:22:04.46	265.19	10.41	-52.2	-54.7	6.1	0.00e+00	0	38	104	0	60	91071
2026-01-08 01:22:05.47	265.02	10.33	-52.2	-54.7	6.1	0.00e+00	0	38	104	0	60	91192
2026-01-08 01:22:06.49	264.84	10.25	-52.2	-54.7	6.1	0.00e+00	0	38	104	0	60	90791
2026-01-08 01:22:07.50	264.66	10.17	-52.2	-54.7	6.1	0.00e+00	0	38	104	0	60	90728
2026-01-08 01:22:08.51	264.49	10.09	-52.2	-54.7	6.1	0.00e+00	0	38	104	0	60	90572
2026-01-08 01:22:09.52	264.32	10.01	-52.2	-54.7	6.1	0.00e+00	0	38	104	0	60	90645
2026-01-08 01:22:10.53	264.15	9.94	-52.2	-54.7	6.0	0.00e+00	0	38	104	0	60	90371
2026-01-08 01:22:11.54	263.98	9.86	-52.2	-54.7	6.1	0.00e+00	0	38	104	0	60	91017
2026-01-08 01:22:12.55	263.81	9.78	-52.2	-54.7	6.1	0.00e+00	0	38	104	0	60	90697
2026-01-08 01:22:13.56	263.64	9.70	-52.2	-54.7	6.1	0.00e+00	0	38	104	0	60	90947
2026-01-08 01:22:14.57	263.48	9.62	-52.2	-54.7	6.1	0.00e+00	0	38	104	0	60	90653
2026-01-08 01:22:15.58	263.31	9.54	-52.2	-54.8	6.1	0.00e+00	0	38	104	0	60	91433
2026-01-08 01:22:16.59	263.15	9.46	-52.2	-54.7	6.0	0.00e+00	0	38	104	0	60	90841
2026-01-08 01:22:17.61	262.98	9.38	-52.2	-54.7	6.1	0.00e+00	0	38	104	0	60	90825
2026-01-08 01:22:18.62	262.82	9.30	-52.2	-54.7	6.1	0.00e+00	0	38	104	0	60	90702
2026-01-08 01:22:19.63	262.66	9.23	-52.2	-54.7	6.1	0.00e+00	0	38	104	0	60	90902
2026-01-08 01:22:20.64	262.50	9.15	-52.2	-54.7	6.1	0.00e+00	0	38	104	0	60	90683
2026-01-08 01:22:21.65	262.34	9.07	-52.2	-54.7	6.1	0.00e+00	0	38	104	0	60	90628
2026-01-08 01:22:22.66	262.18	8.99	-52.2	-54.7	6.1	0.00e+00	0	38	104	0	60	90390
2026-01-08 01:22:23.67	262.03	8.91	-52.2	-54.7	6.1	0.00e+00	0	38	104	0	60	90660
2026-01-08 01:22:24.68	261.87	8.84	-52.2	-54.7	6.1	0.00e+00	0	38	104	0	60	90436
2026-01-08 01:22:25.69	261.72	8.76	-52.2	-54.7	6.1	0.00e+00	0	38	104	0	60	90970
2026-01-08 01:22:26.70	261.56	8.68	-52.2	-54.7	6.1	0.00e+00	0	38	104	0	60	90794
2026-01-08 01:22:27.71	261.41	8.61	-52.2	-54.7	6.1	0.00e+00	0	38	104	0	60	90469
2026-01-08 01:22:28.73	261.26	8.53	-52.2	-54.7	6.1	0.00e+00	0	38	104	0	60	90467
2026-01-08 01:22:29.74	261.11	8.45	-52.2	-54.7	6.1	0.00e+00	0	38	104	0	60	90422
2026-01-08 01:22:30.75	260.96	8.37	-52.2	-54.7	6.1	0.00e+00	0	38	104	0	60	90749
2026-01-08 01:22:31.76	260.81	8.30	-52.2	-54.7	6.1	0.00e+00	0	38	104	0	60	90903
2026-01-08 01:22:32.77	260.66	8.22	-52.2	-54.7	6.1	0.00e+00	0	38	104	0	60	90929
2026-01-08 01:22:33.78	260.51	8.15	-52.2	-54.7	6.1	0.00e+00	0	38	104	0	60	90770
2026-01-08 01:22:34.79	260.37	8.07	-52.2	-54.7	6.1	0.00e+00	0	38	104	0	60	91125
2026-01-08 01:22:35.80	260.22	7.99	-52.2	-54.7	6.1	0.00e+00	0	38	104	0	60	90741
2026-01-08 01:22:36.81	260.08	7.92	-52.2	-54.7	6.1	0.00e+00	0	38	104	0	60	90369
2026-01-08 01:22:37.82	259.94	7.84	-52.2	-54.7	6.1	0.00e+00	0	38	104	0	60	90478
2026-01-08 01:22:38.83	259.79	7.77	-52.2	-54.7	6.1	0.00e+00	0	38	104	0	60	90893
2026-01-08 01:22:39.84	259.65	7.69	-52.2	-54.7	6.1	0.00e+00	0	38	104	0	60	90507
2026-01-08 01:22:40.85	259.51	7.62	-52.2	-54.7	6.1	0.00e+00	0	38	104	0	60	90633
2026-01-08 01:22:41.86	259.37	7.54	-52.2	-54.7	6.1	0.00e+00	0	38	104	0	60	90774
2026-01-08 01:22:42.88	259.23	7.47	-52.2	-54.7	6.1	0.00e+00	0	38	104	0	60	90907
2026-01-08 01:22:43.89	259.10	7.39	-52.2	-54.7	6.1	0.00e+00	0	38	104	0	60	90285
2026-01-08 01:22:44.90	258.96	7.32	-52.2	-54.7	6.1	0.00e+00	0	38	104	0	60	90590
2026-01-08 01:22:45.91	258.82	7.24	-52.2	-54.7	6.1	0.00e+00	0	38	104	0	60	90990
2026-01-08 01:22:46.92	258.69	7.17	-52.2	-54.7	6.1	0.00e+00	0	38	104	0	60	90426
2026-01-08 01:22:47.93	258.56	7.09	-52.2	-54.7	6.1	0.00e+00	0	38	104	0	60	90712
2026-01-08 01:22:48.94	258.42	7.02	-52.2	-54.7	6.1	0.00e+00	0	38	104	0	60	90604
2026-01-08 01:22:49.95	258.29	6.95	-52.2	-54.7	6.1	0.00e+00	0	38	104	0	60	91001
2026-01-08 01:22:50.96	258.16	6.87	-52.2	-54.7	6.1	0.00e+00	0	38	104	0	60	90879
2026-01-08 01:22:51.98	258.03	6.80	-52.2	-54.6	6.1	0.00e+00	0	38	104	0	60	90196
2026-01-08 01:22:52.98	257.90	6.73	-52.2	-54.7	6.1	0.00e+00	0	38	104	0	60	90664
2026-01-08 01:22:53.99	257.77	6.65	-52.2	-54.7	6.1	0.00e+00	0	38	104	0	60	90681
2026-01-08 01:22:55.01	257.64	6.58	-52.2	-54.7	6.1	0.00e+00	0	38	104	0	60	90650
2026-01-08 01:22:56.02	257.51	6.51	-52.2	-54.7	6.1	0.00e+00	0	38	104	0	60	90682
2026-01-08 01:22:57.03	257.39	6.44	-52.2	-54.7	6.1	0.00e+00	0	38	104	0	60	90753
2026-01-08 01:22:58.04	257.26	6.36	-52.2	-54.7	6.1	0.00e+00	0	38	104	0	60	90557
2026-01-08 01:22:59.05	257.14	6.29	-52.2	-54.7	6.1	0.00e+00	0	38	104	0	60	90286
2026-01-08 01:23:00.06	257.01	6.22	-52.2	-54.7	6.1	0.00e+00	0	38	104	0	60	90980
2026-01-08 01:23:01.07	256.89	6.15	-52.2	-54.7	6.1	0.00e+00	0	38	104	0	60	90577
2026-01-08 01:23:02.08	256.77	6.08	-52.2	-54.7	6.1	0.00e+00	0	38	104	0	60	90311
2026-01-08 01:23:03.09	256.65	6.00	-52.2	-54.7	6.1	0.00e+00	0	38	104	0	60	90801
2026-01-08 01:23:04.11	256.52	5.93	-52.2	-54.7	6.1	0.00e+00	0	38	104	0	60	90589
2026-01-08 01:23:05.12	256.40	5.86	-52.2	-54.7	6.1	0.00e+00	0	38	104	0	60	90425
2026-01-08 01:23:06.13	256.28	5.79	-52.2	-54.7	6.1	0.00e+00	0	38	104	0	60	90591
2026-01-08 01:23:07.14	256.16	5.72	-52.2	-54.7	6.1	0.00e+00	0	38	104	0	60	90964
2026-01-08 01:23:08.15	256.05	5.65	-52.2	-54.7	6.1	0.00e+00	0	38	104	0	60	90716
2026-01-08 01:23:09.16	255.93	5.58	-52.2	-54.7	6.1	0.00e+00	0	38	104	0	60	90544
2026-01-08 01:23:10.17	255.81	5.51	-52.2	-54.7	6.1	0.00e+00	0	38	104	0	60	91033
2026-01-08 01:23:11.18	255.70	5.44	-52.2	-54.7	6.1	0.00e+00	0	38	104	0	60	90516
2026-01-08 01:23:12.20	255.58	5.37	-52.2	-54.7	6.1	0.00e+00	0	38	104	0	60	90518
2026-01-08 01:23:13.21	255.47	5.30	-52.2	-54.7	6.1	0.00e+00	0	38	104	0	60	90689
2026-01-08 01:23:14.22	255.35	5.23	-52.2	-54.7	6.1	0.00e+00	0	38	104	0	60	90426
2026-01-08 01:23:15.23	255.24	5.16	-52.2	-54.7	6.1	0.00e+00	0	38	104	0	60	90332
2026-01-08 01:23:16.24	255.13	5.09	-52.2	-54.7	6.1	0.00e+00	0	38	104	0	60	91286
2026-01-08 01:23:17.25	255.02	5.02	-52.2	-54.7	6.1	0.00e+00	0	38	104	0	60	90518
2026-01-08 01:23:18.26	254.91	4.95	-52.2	-54.7	6.1	0.00e+00	0	38	104	0	60	90899
2026-01-08 01:23:19.27	254.80	4.88	-52.2	-54.7	6.1	0.00e+00	0	38	104	0	60	90852
2026-01-08 01:23:20.28	254.69	4.81	-52.2	-54.7	6.1	0.00e+00	0	38	104	0	60	90341
2026-01-08 01:23:21.29	254.58	4.74	-52.2	-54.7	6.1	0.00e+00	0	38	104	0	60	91208
2026-01-08 01:23:22.30	254.47	4.67	-52.2	-54.7	6.1	0.00e+00	0	38	104	0	60	90903
2026-01-08 01:23:23.31	254.36	4.60	-52.2	-54.7	6.1	0.00e+00	0	38	104	0	60	90606
2026-01-08 01:23:24.32	254.25	4.54	-52.2	-54.7	6.1	0.00e+00	0	38	104	0	60	90332
2026-01-08 01:23:25.33	254.15	4.47	-52.2	-54.7	6.0	0.00e+00	0	38	104	0	60	90828
2026-01-08 01:23:26.34	254.04	4.40	-52.2	-54.7	6.1	0.00e+00	0	38	104	0	60	90658
2026-01-08 01:23:27.35	253.94	4.33	-52.2	-54.7	6.1	0.00e+00	0	38	104	0	60	91098
2026-01-08 01:23:28.37	253.83	4.26	-52.2	-54.7	6.1	0.00e+00	0	38	104	0	60	90977
2026-01-08 01:23:29.38	253.73	4.20	-52.2	-54.7	6.1	0.00e+00	0	38	104	0	60	91208
2026-01-08 01:23:30.39	253.63	4.13	-52.2	-54.7	6.1	0.00e+00	0	38	104	0	60	90884
2026-01-08 01:23:31.40	253.52	4.06	-52.2	-54.7	6.1	0.00e+00	0	38	104	0	60	91068
2026-01-08 01:23:32.41	253.42	3.99	-52.2	-54.7	6.1	0.00e+00	0	38	104	0	60	90767
2026-01-08 01:23:33.42	253.32	3.93	-52.2	-54.7	6.1	0.00e+00	0	38	104	0	60	90626
2026-01-08 01:23:34.43	253.22	3.86	-52.2	-54.7	6.1	0.00e+00	0	38	104	0	60	90760
2026-01-08 01:23:35.44	253.12	3.79	-52.2	-54.7	6.1	0.00e+00	0	38	104	0	60	90628
2026-01-08 01:23:36.46	253.02	3.73	-52.2	-54.7	6.1	0.00e+00	0	38	104	0	60	90551
2026-01-08 01:23:37.47	252.92	3.66	-52.2	-54.7	6.1	0.00e+00	0	38	104	0	60	90544
2026-01-08 01:23:38.48	252.82	3.59	-52.2	-54.6	6.1	0.00e+00	0	38	104	0	60	90175
2026-01-08 01:23:39.49	252.72	3.53	-52.2	-54.7	6.1	0.00e+00	0	38	104	0	60	90620
2026-01-08 01:23:40.50	252.63	3.46	-52.2	-54.7	6.1	0.00e+00	0	38	104	0	60	90397
2026-01-08 01:23:41.51	252.53	3.40	-52.2	-54.6	6.1	0.00e+00	0	38	104	0	60	90222
2026-01-08 01:23:42.52	252.43	3.33	-52.2	-54.7	6.1	0.00e+00	0	38	104	0	60	90477
2026-01-08 01:23:43.53	252.34	3.26	-52.2	-54.7	6.1	0.00e+00	0	38	104	0	60	90911
2026-01-08 01:23:44.54	252.24	3.20	-52.2	-54.7	6.1	0.00e+00	0	38	104	0	60	90740
2026-01-08 01:23:45.55	252.15	3.13	-52.2	-54.7	6.1	0.00e+00	0	38	104	0	60	90819
2026-01-08 01:23:46.57	252.05	3.07	-52.2	-54.7	6.1	0.00e+00	0	38	104	0	60	90474
2026-01-08 01:23:47.58	251.96	3.00	-52.2	-54.7	6.1	0.00e+00	0	38	104	0	60	90712
2026-01-08 01:23:48.59	251.87	2.94	-52.2	-54.7	6.1	0.00e+00	0	38	104	0	60	90463
2026-01-08 01:23:49.60	251.78	2.87	-52.2	-54.7	6.1	0.00e+00	0	38	104	0	60	90719
2026-01-08 01:23:50.61	251.68	2.81	-52.2	-54.7	6.1	0.00e+00	0	38	104	0	60	90520
2026-01-08 01:23:51.62	251.59	2.75	-52.2	-54.7	6.1	0.00e+00	0	38	104	0	60	91082
2026-01-08 01:23:52.63	251.50	2.68	-52.2	-54.7	6.1	0.00e+00	0	38	104	0	60	90428
2026-01-08 01:23:53.64	251.41	2.62	-52.2	-54.7	6.1	0.00e+00	0	38	104	0	60	90594
2026-01-08 01:23:54.65	251.32	2.55	-52.2	-54.7	6.1	0.00e+00	0	38	104	0	60	90564
2026-01-08 01:23:55.66	251.23	2.49	-52.2	-54.6	6.1	0.00e+00	0	38	104	0	60	90241
2026-01-08 01:23:56.67	251.14	2.43	-52.2	-54.7	6.1	0.00e+00	0	38	104	0	60	90756
2026-01-08 01:23:57.68	251.06	2.36	-52.2	-54.8	6.1	0.00e+00	0	38	104	0	60	91374
2026-01-08 01:23:58.70	250.97	2.30	-52.2	-54.7	6.0	0.00e+00	0	38	104	0	60	90812
2026-01-08 01:23:59.71	250.88	2.23	-52.2	-54.7	6.1	0.00e+00	0	38	104	0	60	90932
2026-01-08 01:24:00.72	250.79	2.17	-52.2	-54.7	6.1	0.00e+00	0	38	104	0	60	90747
2026-01-08 01:24:01.73	250.71	2.11	-52.2	-54.7	6.1	0.00e+00	0	38	104	0	60	90591
2026-01-08 01:24:02.74	250.62	2.05	-52.2	-54.6	6.1	0.00e+00	0	38	104	0	60	90181
2026-01-08 01:24:03.75	250.54	1.98	-52.2	-54.7	6.1	0.00e+00	0	38	104	0	60	90714
2026-01-08 01:24:04.76	250.45	1.92	-52.2	-54.7	6.1	0.00e+00	0	38	104	0	60	90305
2026-01-08 01:24:05.77	250.37	1.86	-52.2	-54.7	6.1	0.00e+00	0	38	104	0	60	90942
2026-01-08 01:24:06.78	250.28	1.80	-52.2	-54.7	6.1	0.00e+00	0	38	104	0	60	90616
2026-01-08 01:24:07.80	250.20	1.73	-52.2	-54.7	6.1	0.00e+00	0	38	104	0	60	90450
2026-01-08 01:24:08.81	250.12	1.67	-52.2	-54.7	6.1	0.00e+00	0	38	104	0	60	90453
2026-01-08 01:24:09.82	250.03	1.61	-52.2	-54.7	6.1	0.00e+00	0	38	104	0	60	90484
2026-01-08 01:24:10.83	249.95	1.55	-52.2	-54.7	6.1	0.00e+00	0	38	104	0	60	90422
2026-01-08 01:24:11.84	249.87	1.48	-52.2	-54.7	6.1	0.00e+00	0	38	104	0	60	90821
2026-01-08 01:24:12.85	249.79	1.42	-52.2	-54.7	6.1	0.00e+00	0	38	104	0	60	90741
2026-01-08 01:24:13.86	249.71	1.36	-52.2	-54.7	6.1	0.00e+00	0	38	104	0	60	90729
2026-01-08 01:24:14.87	249.63	1.30	-52.2	-54.7	6.1	0.00e+00	0	38	104	0	60	90324
2026-01-08 01:24:15.88	249.55	1.24	-52.2	-54.7	6.1	0.00e+00	0	38	104	0	60	90568
2026-01-08 01:24:16.90	249.47	1.18	-52.2	-54.7	6.1	0.00e+00	0	38	104	0	60	90330
2026-01-08 01:24:17.91	249.39	1.12	-52.2	-54.7	6.0	0.00e+00	0	38	104	0	60	90406
2026-01-08 01:24:18.92	249.31	1.06	-52.2	-54.7	6.1	0.00e+00	0	38	104	0	60	90513
2026-01-08 01:24:19.93	249.23	0.99	-52.2	-54.7	6.1	0.00e+00	0	38	104	0	60	91164
2026-01-08 01:24:20.94	249.16	0.93	-52.2	-54.7	6.1	0.00e+00	0	38	104	0	60	90731
2026-01-08 01:24:21.95	249.08	0.87	-52.2	-54.7	6.1	0.00e+00	0	38	104	0	60	90614
2026-01-08 01:24:22.96	249.00	0.81	-52.2	-54.7	6.1	0.00e+00	0	38	104	0	60	90794
2026-01-08 01:24:23.97	248.93	0.75	-52.2	-54.7	6.1	0.00e+00	0	38	104	0	60	91018
2026-01-08 01:24:24.98	248.85	0.69	-52.2	-54.7	6.1	0.00e+00	0	38	104	0	60	90602
2026-01-08 01:24:25.99	248.78	0.63	-52.2	-54.7	6.1	0.00e+00	0	38	104	0	60	90611
2026-01-08 01:24:27.00	248.70	0.57	-52.2	-54.7	6.1	0.00e+00	0	38	104	0	60	90580
2026-01-08 01:24:28.01	248.63	0.51	-52.2	-54.7	6.1	0.00e+00	0	38	104	0	60	90425
2026-01-08 01:24:29.03	248.55	0.45	-52.2	-54.6	6.1	0.00e+00	0	38	104	0	60	90068
2026-01-08 01:24:30.04	248.48	0.39	-52.2	-54.7	6.1	0.00e+00	0	38	104	0	60	90355
2026-01-08 01:24:31.05	248.40	0.33	-52.2	-54.7	6.1	0.00e+00	0	38	104	0	60	90588
2026-01-08 01:24:32.06	248.33	0.27	-52.2	-54.7	6.1	0.00e+00	0	38	104	0	60	90873
2026-01-08 01:24:33.07	248.26	0.22	-52.2	-54.7	6.1	0.00e+00	0	38	104	0	60	90742
2026-01-08 01:24:34.08	248.18	0.16	-52.2	-54.7	6.1	0.00e+00	0	38	104	0	60	90306
2026-01-08 01:24:35.09	248.11	0.10	-52.2	-54.7	6.1	0.00e+00	0	38	104	0	60	90735
2026-01-08 01:24:36.10	248.04	0.04	-52.2	-54.7	6.1	0.00e+00	0	38	104	0	60	90685
2026-01-08 01:24:37.12	247.97	-0.02	-52.2	-54.7	6.1	0.00e+00	0	38	104	0	60	90386
2026-01-08 01:24:38.13	247.90	-0.08	-52.2	-54.7	6.1	0.00e+00	0	38	104	0	60	90371

#Closed at: 2026-01-08 01:24:38
#Recorded file [0 MB]: D:/lorett/data/35034_260108_041627.dat