passes_logs/2026/01/08/R4.6S_Anadyr_2ch/R4.6S_Anadyr_2ch__20260108_003203_TY-40_rec.log

#Pass ID: 20260108_003203_TY-40
#Satellite: TY-40
#Configuration: TY-39_900M
#almurnet v.1.7.20251203
#Start time: 2026-01-08 00:32:35

#Version: 2.2.20231116
#Station: R4.6S_Anadyr_2ch
#Location: 177.4865 lon 64.73178 lat
#TLE: 1 56846U 23081A   25350.97536409  .00002626  00000-0  11966-3 0  9993
#TLE: 2 56846  97.3941  59.4076 0002022  98.6035 261.5430 15.21533877140291

#Time	Az	El	Level	Level2	SNR	BER	BlckErr	Temp	State	Recorded	gain1	gain2
2026-01-08 00:32:35.18	15.04	2.02	-52.2	-53.9	5.7	0.00e+00	0	33	0	0	60	82335
2026-01-08 00:32:36.18	14.98	2.08	-52.2	-54.6	6.1	0.00e+00	0	35	104	0	60	90158
2026-01-08 00:32:37.19	14.92	2.15	-52.2	-54.6	6.1	0.00e+00	0	35	104	0	60	90147
2026-01-08 00:32:38.20	14.86	2.22	-52.2	-54.7	6.0	0.00e+00	0	35	104	0	60	90355
2026-01-08 00:32:39.21	14.80	2.28	-52.2	-54.6	6.1	0.00e+00	0	35	104	0	60	90242
2026-01-08 00:32:40.22	14.74	2.35	-52.2	-54.6	6.1	0.00e+00	0	35	104	0	60	89566
2026-01-08 00:32:41.24	14.68	2.42	-52.2	-54.7	6.1	0.00e+00	0	35	104	0	60	90554
2026-01-08 00:32:42.25	14.62	2.49	-52.2	-54.7	6.1	0.00e+00	0	35	104	0	60	90443
2026-01-08 00:32:43.26	14.56	2.56	-52.2	-54.6	6.1	0.00e+00	0	35	104	0	60	89905
2026-01-08 00:32:44.27	14.49	2.62	-52.2	-54.7	6.1	0.00e+00	0	35	104	0	60	90659
2026-01-08 00:32:45.28	14.43	2.69	-52.2	-54.6	6.1	0.00e+00	0	35	104	0	60	89840
2026-01-08 00:32:46.29	14.37	2.76	-52.2	-54.7	6.1	0.00e+00	0	35	104	0	60	90386
2026-01-08 00:32:47.30	14.31	2.83	-52.2	-54.7	6.1	0.00e+00	0	35	104	0	60	90485
2026-01-08 00:32:48.31	14.24	2.90	-52.2	-54.6	6.1	0.00e+00	0	35	104	0	60	89926
2026-01-08 00:32:49.32	14.18	2.97	-52.2	-54.6	6.1	0.00e+00	0	35	104	0	60	90129
2026-01-08 00:32:50.33	14.11	3.04	-52.2	-54.7	6.1	0.00e+00	0	35	104	0	60	90632
2026-01-08 00:32:51.34	14.05	3.11	-52.2	-54.6	6.1	0.00e+00	0	35	104	0	60	90215
2026-01-08 00:32:52.35	13.98	3.18	-52.2	-54.6	6.1	0.00e+00	0	35	104	0	60	90128
2026-01-08 00:32:53.37	13.92	3.25	-52.2	-54.6	6.1	0.00e+00	0	35	104	0	60	90151
2026-01-08 00:32:54.38	13.85	3.32	-52.2	-54.6	6.1	0.00e+00	0	35	104	0	60	90087
2026-01-08 00:32:55.39	13.78	3.39	-52.2	-54.6	6.1	0.00e+00	0	35	104	0	60	90107
2026-01-08 00:32:56.40	13.72	3.46	-52.2	-54.6	6.1	0.00e+00	0	35	104	0	60	90232
2026-01-08 00:32:57.41	13.65	3.53	-52.2	-54.7	6.1	0.00e+00	0	35	104	0	60	90283
2026-01-08 00:32:58.42	13.58	3.60	-52.2	-54.7	6.1	0.00e+00	0	35	104	0	60	90455
2026-01-08 00:32:59.43	13.51	3.67	-52.2	-54.6	6.1	0.00e+00	0	35	104	0	60	90242
2026-01-08 00:33:00.44	13.44	3.74	-52.2	-54.6	6.1	0.00e+00	0	35	104	0	60	90251
2026-01-08 00:33:01.45	13.37	3.82	-52.2	-54.7	6.1	0.00e+00	0	35	104	0	60	90319
2026-01-08 00:33:02.46	13.30	3.89	-52.2	-54.6	6.1	0.00e+00	0	35	104	0	60	90075
2026-01-08 00:33:03.48	13.23	3.96	-52.2	-54.7	6.1	0.00e+00	0	36	104	0	60	90461
2026-01-08 00:33:04.49	13.16	4.03	-52.2	-54.6	6.1	0.00e+00	0	36	104	0	60	90146
2026-01-08 00:33:05.50	13.09	4.11	-52.2	-54.6	6.1	0.00e+00	0	36	104	0	60	89987
2026-01-08 00:33:06.51	13.02	4.18	-52.2	-54.7	6.1	0.00e+00	0	36	104	0	60	90296
2026-01-08 00:33:07.52	12.95	4.25	-52.2	-54.7	6.1	0.00e+00	0	36	104	0	60	90427
2026-01-08 00:33:08.53	12.88	4.33	-52.2	-54.6	6.1	0.00e+00	0	36	104	0	60	90052
2026-01-08 00:33:09.54	12.80	4.40	-52.2	-54.6	6.1	0.00e+00	0	36	104	0	60	90216
2026-01-08 00:33:10.55	12.73	4.47	-52.2	-54.7	6.1	0.00e+00	0	36	104	0	60	90317
2026-01-08 00:33:11.57	12.65	4.55	-52.2	-54.7	6.0	0.00e+00	0	36	104	0	60	90527
2026-01-08 00:33:12.58	12.58	4.62	-52.2	-54.7	6.0	0.00e+00	0	36	104	0	60	90469
2026-01-08 00:33:13.59	12.50	4.70	-52.2	-54.6	6.1	0.00e+00	0	36	104	0	60	89982
2026-01-08 00:33:14.60	12.43	4.77	-52.2	-54.6	6.1	0.00e+00	0	36	104	0	60	90254
2026-01-08 00:33:15.61	12.35	4.85	-52.2	-54.7	6.1	0.00e+00	0	36	104	0	60	90855
2026-01-08 00:33:16.62	12.28	4.92	-52.2	-54.6	6.1	0.00e+00	0	36	104	0	60	90232
2026-01-08 00:33:17.63	12.20	5.00	-52.2	-54.6	6.1	0.00e+00	0	36	104	0	60	90036
2026-01-08 00:33:18.64	12.12	5.07	-52.2	-54.6	6.1	0.00e+00	0	36	104	0	60	90011
2026-01-08 00:33:19.65	12.04	5.15	-52.2	-54.6	6.1	0.00e+00	0	36	104	0	60	90104
2026-01-08 00:33:20.66	11.96	5.22	-52.2	-54.6	6.1	0.00e+00	0	36	104	0	60	90206
2026-01-08 00:33:21.67	11.89	5.30	-52.2	-54.6	6.1	0.00e+00	0	36	104	0	60	89971
2026-01-08 00:33:22.68	11.81	5.38	-52.2	-54.7	6.1	0.00e+00	0	36	104	0	60	90400
2026-01-08 00:33:23.69	11.73	5.45	-52.2	-54.6	6.1	0.00e+00	0	36	104	0	60	90166
2026-01-08 00:33:24.71	11.64	5.53	-52.2	-54.6	6.1	0.00e+00	0	36	104	0	60	90224
2026-01-08 00:33:25.72	11.56	5.61	-52.2	-54.6	6.1	0.00e+00	0	36	104	0	60	90139
2026-01-08 00:33:26.73	11.48	5.69	-52.2	-54.7	6.0	0.00e+00	0	36	104	0	60	90470
2026-01-08 00:33:27.74	11.40	5.77	-52.2	-54.7	6.1	0.00e+00	0	36	104	0	60	90450
2026-01-08 00:33:28.75	11.31	5.84	-52.2	-54.7	6.1	0.00e+00	0	36	104	0	60	90628
2026-01-08 00:33:29.76	11.23	5.92	-52.2	-54.6	6.1	0.00e+00	0	36	104	0	60	89730
2026-01-08 00:33:30.77	11.15	6.00	-52.2	-54.6	6.1	0.00e+00	0	36	104	0	60	90139
2026-01-08 00:33:31.78	11.06	6.08	-52.2	-54.6	6.1	0.00e+00	0	36	104	0	60	90021
2026-01-08 00:33:32.79	10.97	6.16	-52.2	-54.7	6.1	0.00e+00	0	36	104	0	60	90339
2026-01-08 00:33:33.81	10.89	6.24	-52.2	-54.6	6.1	0.00e+00	0	36	104	0	60	90156
2026-01-08 00:33:34.82	10.80	6.32	-52.2	-54.6	6.1	0.00e+00	0	36	104	0	60	89994
2026-01-08 00:33:35.83	10.71	6.40	-52.2	-54.7	6.1	0.00e+00	0	36	104	0	60	90376
2026-01-08 00:33:36.84	10.62	6.48	-52.2	-54.7	6.1	0.00e+00	0	36	104	0	60	90387
2026-01-08 00:33:37.85	10.54	6.56	-52.2	-54.7	6.1	0.00e+00	0	36	104	0	60	90497
2026-01-08 00:33:38.86	10.45	6.64	-52.2	-54.7	6.1	0.00e+00	0	36	104	0	60	90368
2026-01-08 00:33:39.87	10.36	6.72	-52.2	-54.6	6.1	0.00e+00	0	36	104	0	60	90260
2026-01-08 00:33:40.88	10.26	6.80	-52.2	-54.6	6.1	0.00e+00	0	36	104	0	60	89872
2026-01-08 00:33:41.89	10.17	6.89	-52.2	-54.7	6.1	0.00e+00	0	36	104	0	60	90612
2026-01-08 00:33:42.91	10.08	6.97	-52.2	-54.7	6.1	0.00e+00	0	36	104	0	60	90605
2026-01-08 00:33:43.92	9.99	7.05	-52.2	-54.6	6.1	0.00e+00	0	36	104	0	60	90250
2026-01-08 00:33:44.93	9.89	7.13	-52.2	-54.6	6.1	0.00e+00	0	36	104	0	60	89939
2026-01-08 00:33:45.94	9.80	7.22	-52.2	-54.7	6.1	0.00e+00	0	36	104	0	60	90522
2026-01-08 00:33:46.95	9.70	7.30	-52.2	-54.6	6.1	0.00e+00	0	36	104	0	60	90142
2026-01-08 00:33:47.96	9.61	7.38	-52.2	-54.6	6.1	0.00e+00	0	36	104	0	60	90164
2026-01-08 00:33:48.97	9.51	7.47	-52.2	-54.7	6.1	0.00e+00	0	36	104	0	60	90688
2026-01-08 00:33:49.98	9.42	7.55	-52.2	-54.7	6.1	0.00e+00	0	36	104	0	60	90578
2026-01-08 00:33:50.99	9.32	7.64	-52.2	-54.7	6.1	0.00e+00	0	36	104	0	60	90545
2026-01-08 00:33:52.01	9.22	7.72	-52.2	-54.7	6.1	0.00e+00	0	36	104	0	60	90317
2026-01-08 00:33:53.02	9.12	7.81	-52.2	-54.6	6.1	0.00e+00	0	36	104	0	60	90272
2026-01-08 00:33:54.03	9.02	7.89	-52.2	-54.7	6.1	0.00e+00	0	36	104	0	60	90553
2026-01-08 00:33:55.04	8.92	7.98	-52.2	-54.7	6.1	0.00e+00	0	36	104	0	60	90946
2026-01-08 00:33:56.05	8.82	8.06	-52.2	-54.7	6.1	0.00e+00	0	36	104	0	60	90341
2026-01-08 00:33:57.06	8.71	8.15	-52.2	-54.7	6.1	0.00e+00	0	36	104	0	60	90300
2026-01-08 00:33:58.07	8.61	8.24	-52.2	-54.7	6.1	0.00e+00	0	36	104	0	60	90492
2026-01-08 00:33:59.08	8.51	8.32	-52.2	-54.6	6.1	0.00e+00	0	37	104	0	60	90190
2026-01-08 00:34:00.09	8.40	8.41	-52.2	-54.7	6.1	0.00e+00	0	36	104	0	60	90329
2026-01-08 00:34:01.10	8.30	8.50	-52.2	-54.7	6.1	0.00e+00	0	36	104	0	60	90319
2026-01-08 00:34:02.11	8.19	8.59	-52.2	-54.7	6.1	0.00e+00	0	36	104	0	60	90572
2026-01-08 00:34:03.12	8.08	8.67	-52.2	-54.7	6.1	0.00e+00	0	37	104	0	60	90390
2026-01-08 00:34:04.14	7.97	8.76	-52.2	-54.6	6.1	0.00e+00	0	37	104	0	60	90240
2026-01-08 00:34:05.15	7.86	8.85	-52.2	-54.7	6.1	0.00e+00	0	37	104	0	60	90645
2026-01-08 00:34:06.16	7.75	8.94	-52.2	-54.7	6.1	0.00e+00	0	37	104	0	60	90531
2026-01-08 00:34:07.17	7.64	9.03	-52.2	-54.7	6.1	0.00e+00	0	36	104	0	60	90570
2026-01-08 00:34:08.18	7.53	9.12	-52.2	-54.7	6.1	0.00e+00	0	37	104	0	60	90294
2026-01-08 00:34:09.19	7.42	9.21	-52.2	-54.7	6.1	0.00e+00	0	37	104	0	60	90528
2026-01-08 00:34:10.20	7.31	9.30	-52.2	-54.7	6.1	0.00e+00	0	36	104	0	60	90673
2026-01-08 00:34:11.21	7.19	9.39	-52.2	-54.7	6.1	0.00e+00	0	36	104	0	60	90328
2026-01-08 00:34:12.22	7.08	9.48	-52.2	-54.7	6.1	0.00e+00	0	37	104	0	60	90909
2026-01-08 00:34:13.23	6.96	9.58	-52.2	-54.7	6.1	0.00e+00	0	37	104	0	60	90332
2026-01-08 00:34:14.24	6.84	9.67	-52.2	-54.7	6.1	0.00e+00	0	37	104	0	60	90640
2026-01-08 00:34:15.25	6.73	9.76	-52.2	-54.7	6.1	0.00e+00	0	37	104	0	60	90732
2026-01-08 00:34:16.27	6.61	9.85	-52.2	-54.7	6.1	0.00e+00	0	37	104	0	60	90564
2026-01-08 00:34:17.28	6.49	9.95	-52.2	-54.6	6.1	0.00e+00	0	37	104	0	60	90035
2026-01-08 00:34:18.29	6.37	10.04	-52.2	-54.7	6.1	0.00e+00	0	37	104	0	60	90498
2026-01-08 00:34:19.30	6.24	10.13	-52.2	-54.7	6.1	0.00e+00	0	37	104	0	60	90583
2026-01-08 00:34:20.31	6.12	10.23	-52.2	-54.7	6.1	0.00e+00	0	37	104	0	60	90328
2026-01-08 00:34:21.32	6.00	10.32	-52.2	-54.6	6.1	0.00e+00	0	37	104	0	60	90122
2026-01-08 00:34:22.33	5.87	10.42	-52.2	-54.6	6.1	0.00e+00	0	37	104	0	60	90202
2026-01-08 00:34:23.34	5.75	10.51	-52.2	-54.7	6.1	0.00e+00	0	37	104	0	60	90462
2026-01-08 00:34:24.35	5.62	10.61	-52.2	-54.7	6.1	0.00e+00	0	37	104	0	60	90475
2026-01-08 00:34:25.36	5.49	10.71	-52.2	-54.6	6.1	0.00e+00	0	37	104	0	60	90203
2026-01-08 00:34:26.38	5.36	10.80	-52.2	-54.7	6.1	0.00e+00	0	37	104	0	60	90394
2026-01-08 00:34:27.39	5.23	10.90	-52.2	-54.7	6.1	0.00e+00	0	37	104	0	60	90752
2026-01-08 00:34:28.40	5.10	11.00	-52.2	-54.7	6.1	0.00e+00	0	37	104	0	60	90324
2026-01-08 00:34:29.41	4.97	11.09	-52.2	-54.7	6.1	0.00e+00	0	37	104	0	60	90429
2026-01-08 00:34:30.42	4.84	11.19	-52.2	-54.7	6.1	0.00e+00	0	37	104	0	60	90688
2026-01-08 00:34:31.43	4.70	11.29	-52.2	-54.7	6.0	0.00e+00	0	37	104	0	60	90955
2026-01-08 00:34:32.44	4.56	11.39	-52.2	-54.7	6.1	0.00e+00	0	37	104	0	60	90315
2026-01-08 00:34:33.45	4.43	11.49	-52.2	-54.7	6.1	0.00e+00	0	37	104	0	60	90740
2026-01-08 00:34:34.46	4.29	11.59	-52.2	-54.7	6.1	0.00e+00	0	37	104	0	60	90657
2026-01-08 00:34:35.47	4.15	11.69	-52.2	-54.7	6.1	0.00e+00	0	37	104	0	60	90689
2026-01-08 00:34:36.48	4.01	11.79	-52.2	-54.7	6.1	0.00e+00	0	37	104	0	60	90448
2026-01-08 00:34:37.49	3.87	11.89	-52.2	-54.7	6.1	0.00e+00	0	37	104	0	60	90578
2026-01-08 00:34:38.50	3.73	11.99	-52.2	-54.7	6.1	0.00e+00	0	37	104	0	60	90503
2026-01-08 00:34:39.52	3.58	12.09	-52.2	-54.7	6.1	0.00e+00	0	37	104	0	60	90476
2026-01-08 00:34:40.52	3.44	12.19	-52.2	-54.7	6.1	0.00e+00	0	37	104	0	60	90782
2026-01-08 00:34:41.54	3.29	12.30	-52.2	-54.6	6.1	0.00e+00	0	37	104	0	60	90229
2026-01-08 00:34:42.55	3.14	12.40	-52.2	-54.7	6.1	0.00e+00	0	37	104	0	60	90370
2026-01-08 00:34:43.56	2.99	12.50	-52.2	-54.7	6.1	0.00e+00	0	37	104	0	60	90554
2026-01-08 00:34:44.57	2.84	12.61	-52.2	-54.7	6.1	0.00e+00	0	37	104	0	60	90695
2026-01-08 00:34:45.58	2.69	12.71	-52.2	-54.7	6.1	0.00e+00	0	37	104	0	60	90689
2026-01-08 00:34:46.59	2.54	12.82	-52.2	-54.7	6.1	0.00e+00	0	37	104	0	60	90400
2026-01-08 00:34:47.60	2.38	12.92	-52.2	-54.7	6.1	0.00e+00	0	37	104	0	60	90874
2026-01-08 00:34:48.61	2.23	13.03	-52.2	-54.7	6.1	0.00e+00	0	37	104	0	60	90585
2026-01-08 00:34:49.62	2.07	13.13	-52.2	-54.7	6.1	0.00e+00	0	37	104	0	60	90480
2026-01-08 00:34:50.63	1.91	13.24	-52.2	-54.6	6.1	0.00e+00	0	37	104	0	60	90082
2026-01-08 00:34:51.65	1.75	13.34	-52.2	-54.7	6.1	0.00e+00	0	37	104	0	60	90540
2026-01-08 00:34:52.66	1.59	13.45	-52.2	-54.7	6.1	0.00e+00	0	37	104	0	60	91103
2026-01-08 00:34:53.67	1.43	13.56	-52.2	-54.6	6.1	0.00e+00	0	37	104	0	60	89900
2026-01-08 00:34:54.68	1.26	13.67	-52.2	-54.7	6.1	0.00e+00	0	37	104	0	60	90837
2026-01-08 00:34:55.69	1.10	13.78	-52.2	-54.7	6.1	0.00e+00	0	37	104	0	60	90328
2026-01-08 00:34:56.70	0.93	13.88	-52.2	-54.7	6.1	0.00e+00	0	37	104	0	60	90467
2026-01-08 00:34:57.71	0.76	13.99	-52.2	-54.7	6.1	0.00e+00	0	37	104	0	60	90618
2026-01-08 00:34:58.72	0.59	14.10	-52.2	-54.7	6.1	0.00e+00	0	37	104	0	60	90343
2026-01-08 00:34:59.73	0.42	14.21	-52.2	-54.7	6.1	0.00e+00	0	37	104	0	60	90519
2026-01-08 00:35:00.74	0.25	14.32	-52.2	-54.7	6.1	0.00e+00	0	37	104	0	60	90583
2026-01-08 00:35:01.76	0.07	14.43	-52.2	-54.7	6.1	0.00e+00	0	37	104	0	60	90519
2026-01-08 00:35:02.77	359.90	14.55	-52.2	-54.6	6.1	0.00e+00	0	37	104	0	60	90185
2026-01-08 00:35:03.78	359.72	14.66	-52.2	-54.7	6.1	0.00e+00	0	37	104	0	60	90764
2026-01-08 00:35:04.79	359.54	14.77	-52.2	-54.7	6.1	0.00e+00	0	37	104	0	60	90608
2026-01-08 00:35:05.80	359.36	14.88	-52.2	-54.7	6.1	0.00e+00	0	37	104	0	60	90815
2026-01-08 00:35:06.81	359.17	14.99	-52.2	-54.7	6.1	0.00e+00	0	37	104	0	60	90490
2026-01-08 00:35:07.82	358.99	15.11	-52.2	-54.7	6.1	0.00e+00	0	37	104	0	60	90750
2026-01-08 00:35:08.83	358.80	15.22	-52.2	-54.7	6.1	0.00e+00	0	37	104	0	60	90833
2026-01-08 00:35:09.84	358.62	15.34	-52.2	-54.7	6.1	0.00e+00	0	37	104	0	60	90856
2026-01-08 00:35:10.85	358.43	15.45	-52.2	-54.7	6.1	0.00e+00	0	37	104	0	60	90279
2026-01-08 00:35:11.87	358.23	15.57	-52.2	-54.7	6.1	0.00e+00	0	37	104	0	60	90539
2026-01-08 00:35:12.88	358.04	15.68	-52.2	-54.7	6.1	0.00e+00	0	37	104	0	60	90373
2026-01-08 00:35:13.89	357.84	15.80	-52.2	-54.7	6.1	0.00e+00	0	37	104	0	60	90586
2026-01-08 00:35:14.90	357.65	15.91	-52.2	-54.7	6.1	0.00e+00	0	37	104	0	60	90869
2026-01-08 00:35:15.91	357.45	16.03	-52.2	-54.7	6.1	0.00e+00	0	37	104	0	60	90449
2026-01-08 00:35:16.92	357.25	16.15	-52.2	-54.7	6.1	0.00e+00	0	37	104	0	60	91077
2026-01-08 00:35:17.93	357.05	16.26	-52.2	-54.7	6.1	0.00e+00	0	37	104	0	60	90791
2026-01-08 00:35:18.94	356.84	16.38	-52.2	-54.7	6.1	0.00e+00	0	37	104	0	60	90505
2026-01-08 00:35:19.95	356.63	16.50	-52.2	-54.7	6.1	0.00e+00	0	37	104	0	60	90531
2026-01-08 00:35:20.96	356.43	16.62	-52.2	-54.7	6.1	0.00e+00	0	37	104	0	60	90939
2026-01-08 00:35:21.97	356.22	16.74	-52.2	-54.7	6.1	0.00e+00	0	37	104	0	60	91130
2026-01-08 00:35:22.98	356.00	16.86	-52.2	-54.7	6.1	0.00e+00	0	37	104	0	60	90894
2026-01-08 00:35:24.00	355.79	16.98	-52.2	-54.7	6.1	0.00e+00	0	37	104	0	60	90912
2026-01-08 00:35:25.01	355.57	17.10	-52.2	-54.7	6.1	0.00e+00	0	37	104	0	60	90691
2026-01-08 00:35:26.02	355.35	17.22	-52.2	-54.6	6.1	0.00e+00	0	37	104	0	60	90252
2026-01-08 00:35:27.03	355.13	17.34	-52.2	-54.7	6.1	0.00e+00	0	37	104	0	60	90625
2026-01-08 00:35:28.04	354.91	17.46	-52.2	-54.7	6.1	0.00e+00	0	37	104	0	60	90306
2026-01-08 00:35:29.05	354.69	17.58	-52.2	-54.7	6.1	0.00e+00	0	37	104	0	60	90599
2026-01-08 00:35:30.06	354.46	17.71	-52.2	-54.6	6.1	0.00e+00	0	37	104	0	60	90002
2026-01-08 00:35:31.07	354.23	17.83	-52.2	-54.6	6.1	0.00e+00	0	37	104	0	60	90165
2026-01-08 00:35:32.08	354.00	17.95	-52.2	-54.7	6.1	0.00e+00	0	37	104	0	60	90732
2026-01-08 00:35:33.09	353.77	18.07	-52.2	-54.7	6.1	0.00e+00	0	37	104	0	60	90923
2026-01-08 00:35:34.10	353.53	18.20	-52.2	-54.7	6.1	0.00e+00	0	37	104	0	60	90589
2026-01-08 00:35:35.11	353.29	18.32	-52.2	-54.7	6.1	0.00e+00	0	37	104	0	60	90485
2026-01-08 00:35:36.12	353.05	18.45	-52.2	-54.7	6.1	0.00e+00	0	37	104	0	60	90786
2026-01-08 00:35:37.13	352.81	18.57	-52.2	-54.7	6.1	0.00e+00	0	37	104	0	60	90801
2026-01-08 00:35:38.14	352.56	18.69	-52.2	-54.7	6.1	0.00e+00	0	37	104	0	60	90284
2026-01-08 00:35:39.16	352.32	18.82	-52.2	-54.7	6.1	0.00e+00	0	37	104	0	60	90324
2026-01-08 00:35:40.17	352.07	18.95	-52.2	-54.6	6.1	0.00e+00	0	37	104	0	60	90203
2026-01-08 00:35:41.18	351.81	19.07	-52.2	-54.7	6.1	0.00e+00	0	37	104	0	60	90777
2026-01-08 00:35:42.19	351.56	19.20	-52.2	-54.8	6.1	0.00e+00	0	37	104	0	60	91351
2026-01-08 00:35:43.20	351.30	19.32	-52.2	-54.6	6.1	0.00e+00	0	37	104	0	60	90198
2026-01-08 00:35:44.21	351.04	19.45	-52.2	-54.7	6.1	0.00e+00	0	37	104	0	60	90316
2026-01-08 00:35:45.22	350.78	19.58	-52.2	-54.7	6.1	0.00e+00	0	37	104	0	60	90670
2026-01-08 00:35:46.23	350.52	19.71	-52.2	-54.7	6.1	0.00e+00	0	38	104	0	60	90514
2026-01-08 00:35:47.24	350.25	19.83	-52.2	-54.7	6.1	0.00e+00	0	37	104	0	60	90833
2026-01-08 00:35:48.25	349.98	19.96	-52.2	-54.7	6.1	0.00e+00	0	38	104	0	60	90767
2026-01-08 00:35:49.27	349.70	20.09	-52.2	-54.7	6.1	0.00e+00	0	37	104	0	60	90776
2026-01-08 00:35:50.28	349.43	20.22	-52.2	-54.7	6.1	0.00e+00	0	37	104	0	60	90749
2026-01-08 00:35:51.29	349.15	20.35	-52.2	-54.6	6.1	0.00e+00	0	37	104	0	60	90245
2026-01-08 00:35:52.30	348.87	20.47	-52.2	-54.7	6.1	0.00e+00	0	37	104	0	60	90788
2026-01-08 00:35:53.31	348.59	20.60	-52.2	-54.7	6.1	0.00e+00	0	37	104	0	60	90411
2026-01-08 00:35:54.32	348.30	20.73	-52.2	-54.6	6.1	0.00e+00	0	37	104	0	60	90094
2026-01-08 00:35:55.33	348.02	20.86	-52.2	-54.7	6.1	0.00e+00	0	38	104	0	60	90618
2026-01-08 00:35:56.34	347.72	20.99	-52.2	-54.7	6.1	0.00e+00	0	37	104	0	60	90676
2026-01-08 00:35:57.35	347.43	21.12	-52.2	-54.6	6.1	0.00e+00	0	37	104	0	60	90077
2026-01-08 00:35:58.36	347.13	21.25	-52.2	-54.7	6.1	0.00e+00	0	37	104	0	60	90707
2026-01-08 00:35:59.38	346.83	21.38	-52.2	-54.7	6.1	0.00e+00	0	37	104	0	60	90646
2026-01-08 00:36:00.39	346.53	21.51	-52.2	-54.7	6.1	0.00e+00	0	37	104	0	60	90458
2026-01-08 00:36:01.40	346.22	21.64	-52.2	-54.7	6.1	0.00e+00	0	37	104	0	60	90503
2026-01-08 00:36:02.41	345.91	21.77	-52.2	-54.7	6.1	0.00e+00	0	37	104	0	60	90941
2026-01-08 00:36:03.42	345.60	21.90	-52.2	-54.7	6.1	0.00e+00	0	37	104	0	60	90561
2026-01-08 00:36:04.43	345.29	22.03	-52.2	-54.7	6.1	0.00e+00	0	37	104	0	60	90871
2026-01-08 00:36:05.44	344.97	22.16	-52.2	-54.7	6.1	0.00e+00	0	37	104	0	60	90342
2026-01-08 00:36:06.45	344.65	22.29	-52.2	-54.7	6.0	0.00e+00	0	37	104	0	60	91015
2026-01-08 00:36:07.46	344.33	22.42	-52.2	-54.7	6.1	0.00e+00	0	37	104	0	60	90421
2026-01-08 00:36:08.47	344.00	22.54	-52.2	-54.7	6.1	0.00e+00	0	38	104	0	60	90361
2026-01-08 00:36:09.48	343.67	22.67	-52.2	-54.7	6.1	0.00e+00	0	38	104	0	60	90944
2026-01-08 00:36:10.49	343.34	22.80	-52.2	-54.7	6.1	0.00e+00	0	38	104	0	60	90384
2026-01-08 00:36:11.50	343.00	22.93	-52.2	-54.7	6.1	0.00e+00	0	38	104	0	60	90431
2026-01-08 00:36:12.51	342.66	23.06	-52.2	-54.7	6.1	0.00e+00	0	38	104	0	60	90975
2026-01-08 00:36:13.52	342.32	23.19	-52.2	-54.6	6.1	0.00e+00	0	38	104	0	60	89846
2026-01-08 00:36:14.54	341.97	23.32	-52.2	-54.7	6.1	0.00e+00	0	38	104	0	60	90494
2026-01-08 00:36:15.55	341.62	23.45	-52.2	-54.7	6.1	0.00e+00	0	37	104	0	60	90802
2026-01-08 00:36:16.56	341.27	23.58	-52.2	-54.7	6.1	0.00e+00	0	38	104	0	60	90843
2026-01-08 00:36:17.57	340.91	23.70	-52.2	-54.7	6.1	0.00e+00	0	37	104	0	60	91144
2026-01-08 00:36:18.58	340.55	23.83	-52.2	-54.7	6.1	0.00e+00	0	38	104	0	60	90756
2026-01-08 00:36:19.59	340.19	23.96	-52.2	-54.7	6.1	0.00e+00	0	38	104	0	60	90959
2026-01-08 00:36:20.60	339.83	24.08	-52.2	-54.7	6.1	0.00e+00	0	38	104	0	60	90471
2026-01-08 00:36:21.61	339.46	24.21	-52.2	-54.7	6.1	0.00e+00	0	37	104	0	60	90867
2026-01-08 00:36:22.61	339.09	24.33	-52.2	-54.7	6.1	0.00e+00	0	37	104	0	60	90999
2026-01-08 00:36:23.62	338.72	24.46	-52.2	-54.7	6.1	0.00e+00	0	38	104	0	60	91131
2026-01-08 00:36:24.63	338.34	24.58	-52.2	-54.7	6.1	0.00e+00	0	38	104	0	60	90445
2026-01-08 00:36:25.64	337.95	24.71	-52.2	-54.7	6.1	0.00e+00	0	38	104	0	60	90848
2026-01-08 00:36:26.65	337.57	24.83	-52.2	-54.7	6.1	0.00e+00	0	37	104	0	60	90442
2026-01-08 00:36:27.66	337.18	24.96	-52.2	-54.8	6.1	0.00e+00	0	38	104	0	60	91361
2026-01-08 00:36:28.67	336.79	25.08	-52.2	-54.7	6.1	0.00e+00	0	38	104	0	60	90513
2026-01-08 00:36:29.69	336.39	25.20	-52.2	-54.7	6.1	0.00e+00	0	38	104	0	60	90879
2026-01-08 00:36:30.69	335.99	25.32	-52.2	-54.7	6.1	0.00e+00	0	38	104	0	60	90744
2026-01-08 00:36:31.71	335.59	25.44	-52.2	-54.7	6.1	0.00e+00	0	38	104	0	60	90493
2026-01-08 00:36:32.71	335.19	25.56	-52.2	-54.7	6.1	0.00e+00	0	38	104	0	60	90828
2026-01-08 00:36:33.73	334.77	25.68	-52.2	-54.7	6.1	0.00e+00	0	38	104	0	60	90747
2026-01-08 00:36:34.74	334.36	25.80	-52.2	-54.7	6.1	0.00e+00	0	38	104	0	60	90392
2026-01-08 00:36:35.75	333.94	25.92	-52.2	-54.7	6.1	0.00e+00	0	38	104	0	60	90655
2026-01-08 00:36:36.76	333.52	26.03	-52.2	-54.7	6.1	0.00e+00	0	38	104	0	60	90590
2026-01-08 00:36:37.77	333.10	26.15	-52.2	-54.7	6.1	0.00e+00	0	38	104	0	60	90908
2026-01-08 00:36:38.78	332.67	26.26	-52.2	-54.7	6.1	0.00e+00	0	38	104	0	60	90664
2026-01-08 00:36:39.79	332.24	26.37	-52.2	-54.7	6.1	0.00e+00	0	38	104	0	60	90662
2026-01-08 00:36:40.81	331.81	26.49	-52.2	-54.7	6.1	0.00e+00	0	38	104	0	60	90566
2026-01-08 00:36:41.82	331.37	26.60	-52.2	-54.7	6.1	0.00e+00	0	38	104	0	60	90784
2026-01-08 00:36:42.83	330.93	26.71	-52.2	-54.7	6.1	0.00e+00	0	38	104	0	60	90650
2026-01-08 00:36:43.84	330.49	26.82	-52.2	-54.7	6.1	0.00e+00	0	38	104	0	60	90589
2026-01-08 00:36:44.85	330.04	26.92	-52.2	-54.7	6.1	0.00e+00	0	38	104	0	60	90575
2026-01-08 00:36:45.86	329.59	27.03	-52.2	-54.7	6.1	0.00e+00	0	38	104	0	60	90299
2026-01-08 00:36:46.87	329.14	27.14	-52.2	-54.7	6.1	0.00e+00	0	38	104	0	60	90549
2026-01-08 00:36:47.88	328.68	27.24	-52.2	-54.7	6.1	0.00e+00	0	38	104	0	60	90581
2026-01-08 00:36:48.89	328.22	27.34	-52.2	-54.7	6.1	0.00e+00	0	38	104	0	60	90768
2026-01-08 00:36:49.90	327.76	27.44	-52.2	-54.7	6.1	0.00e+00	0	38	104	0	60	90380
2026-01-08 00:36:50.91	327.29	27.54	-52.2	-54.7	6.1	0.00e+00	0	38	104	0	60	91028
2026-01-08 00:36:51.92	326.82	27.64	-52.2	-54.7	6.1	0.00e+00	0	38	104	0	60	90471
2026-01-08 00:36:52.94	326.34	27.74	-52.2	-54.7	6.1	0.00e+00	0	38	104	0	60	90365
2026-01-08 00:36:53.95	325.87	27.83	-52.2	-54.7	6.1	0.00e+00	0	38	104	0	60	90495
2026-01-08 00:36:54.96	325.39	27.92	-52.2	-54.7	6.1	0.00e+00	0	38	104	0	60	90602
2026-01-08 00:36:55.97	324.91	28.01	-52.2	-54.7	6.1	0.00e+00	0	38	104	0	60	90952
2026-01-08 00:36:56.98	324.42	28.10	-52.2	-54.7	6.1	0.00e+00	0	38	104	0	60	90659
2026-01-08 00:36:57.99	323.93	28.19	-52.2	-54.7	6.1	0.00e+00	0	38	104	0	60	90616
2026-01-08 00:36:59.00	323.44	28.28	-52.2	-54.6	6.1	0.00e+00	0	38	104	0	60	90234
2026-01-08 00:37:00.01	322.95	28.36	-52.2	-54.7	6.1	0.00e+00	0	38	104	0	60	91060
2026-01-08 00:37:01.02	322.45	28.44	-52.2	-54.7	6.1	0.00e+00	0	38	104	0	60	91086
2026-01-08 00:37:02.03	321.95	28.52	-52.2	-54.7	6.1	0.00e+00	0	38	104	0	60	90860
2026-01-08 00:37:03.04	321.45	28.60	-52.2	-54.7	6.1	0.00e+00	0	38	104	0	60	90682
2026-01-08 00:37:04.06	320.94	28.68	-52.2	-54.7	6.1	0.00e+00	0	38	104	0	60	91011
2026-01-08 00:37:05.07	320.43	28.75	-52.2	-54.7	6.1	0.00e+00	0	38	104	0	60	90791
2026-01-08 00:37:06.08	319.92	28.82	-52.2	-54.8	6.1	0.00e+00	0	38	104	0	60	91433
2026-01-08 00:37:07.09	319.41	28.89	-52.2	-54.7	6.1	0.00e+00	0	38	104	0	60	91008
2026-01-08 00:37:08.10	318.89	28.96	-52.2	-54.7	6.1	0.00e+00	0	38	104	0	60	91128
2026-01-08 00:37:09.11	318.38	29.02	-52.2	-54.8	6.1	0.00e+00	0	38	104	0	60	91487
2026-01-08 00:37:10.12	317.86	29.09	-52.2	-54.7	6.1	0.00e+00	0	38	104	0	60	91102
2026-01-08 00:37:11.13	317.34	29.15	-52.2	-54.7	6.1	0.00e+00	0	38	104	0	60	90878
2026-01-08 00:37:12.14	316.81	29.21	-52.2	-54.7	6.1	0.00e+00	0	38	104	0	60	90682
2026-01-08 00:37:13.15	316.29	29.26	-52.2	-54.7	6.1	0.00e+00	0	38	104	0	60	90958
2026-01-08 00:37:14.16	315.76	29.32	-52.2	-54.7	6.1	0.00e+00	0	38	104	0	60	90516
2026-01-08 00:37:15.18	315.22	29.37	-52.2	-54.7	6.1	0.00e+00	0	38	104	0	60	90774
2026-01-08 00:37:16.19	314.69	29.42	-52.2	-54.7	6.1	0.00e+00	0	38	104	0	60	90614
2026-01-08 00:37:17.20	314.16	29.46	-52.2	-54.7	6.1	0.00e+00	0	38	104	0	60	90975
2026-01-08 00:37:18.21	313.62	29.51	-52.2	-54.7	6.1	0.00e+00	0	38	104	0	60	90985
2026-01-08 00:37:19.22	313.09	29.55	-52.2	-54.7	6.1	0.00e+00	0	38	104	0	60	91237
2026-01-08 00:37:20.23	312.55	29.59	-52.2	-54.7	6.1	0.00e+00	0	38	104	0	60	90386
2026-01-08 00:37:21.24	312.01	29.62	-52.2	-54.7	6.1	0.00e+00	0	38	104	0	60	91262
2026-01-08 00:37:22.25	311.47	29.66	-52.2	-54.7	6.1	0.00e+00	0	38	104	0	60	90671
2026-01-08 00:37:23.26	310.93	29.69	-52.2	-54.7	6.1	0.00e+00	0	38	104	0	60	90704
2026-01-08 00:37:24.27	310.38	29.71	-52.2	-54.7	6.1	0.00e+00	0	38	104	0	60	91063
2026-01-08 00:37:25.28	309.84	29.74	-52.2	-54.7	6.1	0.00e+00	0	38	104	0	60	91058
2026-01-08 00:37:26.29	309.30	29.76	-52.2	-54.7	6.1	0.00e+00	0	38	104	0	60	90991
2026-01-08 00:37:27.30	308.75	29.78	-52.2	-54.7	6.1	0.00e+00	0	38	104	0	60	90762
2026-01-08 00:37:28.31	308.20	29.80	-52.2	-54.7	6.1	0.00e+00	0	38	104	0	60	90556
2026-01-08 00:37:29.33	307.65	29.82	-52.2	-54.7	6.1	0.00e+00	0	38	104	0	60	90310
2026-01-08 00:37:30.34	307.10	29.83	-52.2	-54.7	6.1	0.00e+00	0	38	104	0	60	90730
2026-01-08 00:37:31.35	306.56	29.84	-52.2	-54.7	6.1	0.00e+00	0	38	104	0	60	90552
2026-01-08 00:37:32.36	306.01	29.84	-52.2	-54.7	6.1	0.00e+00	0	38	104	0	60	90987
2026-01-08 00:37:33.37	305.46	29.85	-52.2	-54.7	6.1	0.00e+00	0	38	104	0	60	90613
2026-01-08 00:37:34.38	304.91	29.85	-52.2	-54.7	6.1	0.00e+00	0	38	104	0	60	90776
2026-01-08 00:37:35.39	304.36	29.85	-52.2	-54.7	6.1	0.00e+00	0	38	104	0	60	90488
2026-01-08 00:37:36.40	303.81	29.84	-52.2	-54.7	6.1	0.00e+00	0	38	104	0	60	90560
2026-01-08 00:37:37.41	303.27	29.84	-52.2	-54.7	6.1	0.00e+00	0	38	104	0	60	90707
2026-01-08 00:37:38.43	302.71	29.83	-52.2	-54.7	6.1	0.00e+00	0	38	104	0	60	90463
2026-01-08 00:37:39.44	302.16	29.81	-52.2	-54.7	6.1	0.00e+00	0	38	104	0	60	90733
2026-01-08 00:37:40.45	301.62	29.80	-52.2	-54.7	6.1	0.00e+00	0	38	104	0	60	90986
2026-01-08 00:37:41.46	301.07	29.78	-52.2	-54.7	6.1	0.00e+00	0	38	104	0	60	90650
2026-01-08 00:37:42.47	300.52	29.76	-52.2	-54.7	6.1	0.00e+00	0	38	104	0	60	91142
2026-01-08 00:37:43.48	299.98	29.74	-52.2	-54.7	6.1	0.00e+00	0	38	104	0	60	90963
2026-01-08 00:37:44.49	299.44	29.71	-52.2	-54.7	6.1	0.00e+00	0	38	104	0	60	90903
2026-01-08 00:37:45.50	298.89	29.68	-52.2	-54.7	6.1	0.00e+00	0	38	104	0	60	90719
2026-01-08 00:37:46.51	298.35	29.65	-52.2	-54.7	6.1	0.00e+00	0	38	104	0	60	90512
2026-01-08 00:37:47.52	297.81	29.62	-52.2	-54.7	6.1	0.00e+00	0	38	104	0	60	91203
2026-01-08 00:37:48.53	297.27	29.58	-52.2	-54.7	6.1	0.00e+00	0	38	104	0	60	90744
2026-01-08 00:37:49.54	296.73	29.54	-52.2	-54.7	6.1	0.00e+00	0	38	104	0	60	90859
2026-01-08 00:37:50.56	296.19	29.50	-52.2	-54.7	6.1	0.00e+00	0	38	104	0	60	90441
2026-01-08 00:37:51.57	295.65	29.46	-52.2	-54.7	6.1	0.00e+00	0	38	104	0	60	91245
2026-01-08 00:37:52.58	295.12	29.41	-52.2	-54.7	6.1	0.00e+00	0	38	104	0	60	91075
2026-01-08 00:37:53.59	294.59	29.36	-52.2	-54.7	6.1	0.00e+00	0	38	104	0	60	90743
2026-01-08 00:37:54.60	294.06	29.31	-52.2	-54.7	6.1	0.00e+00	0	38	104	0	60	91307
2026-01-08 00:37:55.61	293.53	29.25	-52.2	-54.7	6.1	0.00e+00	0	38	104	0	60	90905
2026-01-08 00:37:56.62	293.00	29.20	-52.2	-54.7	6.1	0.00e+00	0	38	104	0	60	91107
2026-01-08 00:37:57.63	292.48	29.14	-52.2	-54.7	6.1	0.00e+00	0	38	104	0	60	91049
2026-01-08 00:37:58.64	291.96	29.08	-52.2	-54.7	6.1	0.00e+00	0	38	104	0	60	90907
2026-01-08 00:37:59.65	291.44	29.02	-52.2	-54.7	6.1	0.00e+00	0	38	104	0	60	91125
2026-01-08 00:38:00.67	290.91	28.95	-52.2	-54.8	6.1	0.00e+00	0	38	104	0	60	91346
2026-01-08 00:38:01.67	290.40	28.88	-52.2	-54.7	6.1	0.00e+00	0	38	104	0	60	91180
2026-01-08 00:38:02.69	289.89	28.81	-52.2	-54.7	6.1	0.00e+00	0	38	104	0	60	90766
2026-01-08 00:38:03.70	289.38	28.74	-52.2	-54.7	6.1	0.00e+00	0	38	104	0	60	90742
2026-01-08 00:38:04.71	288.87	28.66	-52.2	-54.7	6.1	0.00e+00	0	38	104	0	60	90828
2026-01-08 00:38:05.72	288.36	28.59	-52.2	-54.7	6.1	0.00e+00	0	38	104	0	60	91018
2026-01-08 00:38:06.73	287.86	28.51	-52.2	-54.7	6.1	0.00e+00	0	38	104	0	60	91067
2026-01-08 00:38:07.74	287.36	28.43	-52.2	-54.7	6.1	0.00e+00	0	38	104	0	60	90594
2026-01-08 00:38:08.75	286.86	28.35	-52.2	-54.7	6.1	0.00e+00	0	38	104	0	60	91069
2026-01-08 00:38:09.76	286.37	28.26	-52.2	-54.7	6.1	0.00e+00	0	38	104	0	60	90880
2026-01-08 00:38:10.77	285.88	28.18	-52.2	-54.7	6.0	0.00e+00	0	38	104	0	60	91009
2026-01-08 00:38:11.78	285.39	28.09	-52.2	-54.7	6.1	0.00e+00	0	38	104	0	60	91007
2026-01-08 00:38:12.79	284.90	28.00	-52.2	-54.7	6.1	0.00e+00	0	38	104	0	60	91020
2026-01-08 00:38:13.80	284.42	27.91	-52.2	-54.7	6.1	0.00e+00	0	38	104	0	60	91023
2026-01-08 00:38:14.82	283.93	27.81	-52.2	-54.7	6.1	0.00e+00	0	38	104	0	60	91141
2026-01-08 00:38:15.83	283.46	27.72	-52.2	-54.7	6.1	0.00e+00	0	38	104	0	60	90474
2026-01-08 00:38:16.84	282.98	27.62	-52.2	-54.7	6.1	0.00e+00	0	38	104	0	60	90886
2026-01-08 00:38:17.85	282.51	27.52	-52.2	-54.8	6.1	0.00e+00	0	38	104	0	60	91470
2026-01-08 00:38:18.86	282.05	27.42	-52.2	-54.7	6.1	0.00e+00	0	38	104	0	60	90639
2026-01-08 00:38:19.87	281.58	27.32	-52.2	-54.8	6.1	0.00e+00	0	38	104	0	60	91459
2026-01-08 00:38:20.88	281.12	27.22	-52.2	-54.7	6.1	0.00e+00	0	38	104	0	60	91287
2026-01-08 00:38:21.89	280.67	27.12	-52.2	-54.7	6.1	0.00e+00	0	38	104	0	60	90698
2026-01-08 00:38:22.90	280.21	27.01	-52.2	-54.7	6.1	0.00e+00	0	38	104	0	60	91033
2026-01-08 00:38:23.91	279.76	26.90	-52.2	-54.7	6.1	0.00e+00	0	38	104	0	60	90854
2026-01-08 00:38:24.92	279.31	26.80	-52.2	-54.7	6.1	0.00e+00	0	38	104	0	60	90942
2026-01-08 00:38:25.94	278.86	26.69	-52.2	-54.7	6.1	0.00e+00	0	38	104	0	60	90623
2026-01-08 00:38:26.94	278.43	26.58	-52.2	-54.7	6.1	0.00e+00	0	38	104	0	60	90943
2026-01-08 00:38:27.96	277.99	26.46	-52.2	-54.7	6.1	0.00e+00	0	38	104	0	60	90833
2026-01-08 00:38:28.97	277.55	26.35	-52.2	-54.7	6.1	0.00e+00	0	38	104	0	60	90698
2026-01-08 00:38:29.98	277.12	26.24	-52.2	-54.7	6.1	0.00e+00	0	38	104	0	60	90976
2026-01-08 00:38:30.99	276.69	26.12	-52.2	-54.7	6.1	0.00e+00	0	38	104	0	60	91138
2026-01-08 00:38:32.00	276.27	26.01	-52.2	-54.7	6.1	0.00e+00	0	38	104	0	60	90854
2026-01-08 00:38:33.01	275.85	25.89	-52.2	-54.7	6.1	0.00e+00	0	38	104	0	60	91263
2026-01-08 00:38:34.02	275.43	25.77	-52.2	-54.7	6.1	0.00e+00	0	38	104	0	60	90831
2026-01-08 00:38:35.03	275.02	25.66	-52.2	-54.7	6.1	0.00e+00	0	38	104	0	60	91251
2026-01-08 00:38:36.05	274.60	25.53	-52.2	-54.7	6.1	0.00e+00	0	38	104	0	60	91119
2026-01-08 00:38:37.06	274.20	25.41	-52.2	-54.7	6.1	0.00e+00	0	38	104	0	60	91211
2026-01-08 00:38:38.07	273.80	25.29	-52.2	-54.7	6.1	0.00e+00	0	38	104	0	60	90364
2026-01-08 00:38:39.08	273.40	25.17	-52.2	-54.7	6.1	0.00e+00	0	38	104	0	60	91048
2026-01-08 00:38:40.09	273.00	25.05	-52.2	-54.7	6.1	0.00e+00	0	38	104	0	60	91137
2026-01-08 00:38:41.10	272.61	24.93	-52.2	-54.7	6.1	0.00e+00	0	38	104	0	60	91036
2026-01-08 00:38:42.11	272.22	24.80	-52.2	-54.7	6.1	0.00e+00	0	38	104	0	60	90920
2026-01-08 00:38:43.12	271.83	24.68	-52.2	-54.7	6.1	0.00e+00	0	38	104	0	60	90778
2026-01-08 00:38:44.13	271.45	24.55	-52.2	-54.7	6.0	0.00e+00	0	38	104	0	60	90718
2026-01-08 00:38:45.14	271.07	24.43	-52.2	-54.7	6.1	0.00e+00	0	38	104	0	60	90630
2026-01-08 00:38:46.15	270.69	24.30	-52.2	-54.7	6.1	0.00e+00	0	38	104	0	60	90913
2026-01-08 00:38:47.16	270.32	24.18	-52.2	-54.7	6.1	0.00e+00	0	38	104	0	60	90932
2026-01-08 00:38:48.17	269.95	24.05	-52.2	-54.7	6.1	0.00e+00	0	38	104	0	60	90776
2026-01-08 00:38:49.19	269.58	23.92	-52.2	-54.7	6.1	0.00e+00	0	38	104	0	60	90461
2026-01-08 00:38:50.20	269.22	23.79	-52.2	-54.7	6.1	0.00e+00	0	38	104	0	60	90976
2026-01-08 00:38:51.21	268.86	23.67	-52.2	-54.7	6.1	0.00e+00	0	38	104	0	60	91005
2026-01-08 00:38:52.22	268.50	23.54	-52.2	-54.7	6.1	0.00e+00	0	38	104	0	60	90493
2026-01-08 00:38:53.23	268.15	23.41	-52.2	-54.7	6.1	0.00e+00	0	38	104	0	60	90969
2026-01-08 00:38:54.24	267.80	23.28	-52.2	-54.7	6.1	0.00e+00	0	38	104	0	60	90505
2026-01-08 00:38:55.25	267.45	23.15	-52.2	-54.7	6.1	0.00e+00	0	38	104	0	60	90798
2026-01-08 00:38:56.26	267.11	23.02	-52.2	-54.7	6.1	0.00e+00	0	38	104	0	60	90759
2026-01-08 00:38:57.27	266.77	22.89	-52.2	-54.7	6.1	0.00e+00	0	38	104	0	60	91263
2026-01-08 00:38:58.28	266.43	22.76	-52.2	-54.7	6.1	0.00e+00	0	38	104	0	60	90744
2026-01-08 00:38:59.30	266.10	22.63	-52.2	-54.7	6.1	0.00e+00	0	38	104	0	60	90601
2026-01-08 00:39:00.30	265.77	22.50	-52.2	-54.7	6.1	0.00e+00	0	38	104	0	60	90871
2026-01-08 00:39:01.31	265.44	22.37	-52.2	-54.7	6.1	0.00e+00	0	38	104	0	60	90866
2026-01-08 00:39:02.32	265.12	22.24	-52.2	-54.7	6.1	0.00e+00	0	38	104	0	60	90835
2026-01-08 00:39:03.33	264.80	22.11	-52.2	-54.7	6.1	0.00e+00	0	38	104	0	60	90865
2026-01-08 00:39:04.35	264.47	21.98	-52.2	-54.7	6.1	0.00e+00	0	38	104	0	60	90847
2026-01-08 00:39:05.36	264.16	21.85	-52.2	-54.7	6.1	0.00e+00	0	38	104	0	60	91178
2026-01-08 00:39:06.37	263.85	21.72	-52.2	-54.7	6.1	0.00e+00	0	38	104	0	60	90923
2026-01-08 00:39:07.38	263.54	21.59	-52.2	-54.7	6.1	0.00e+00	0	38	104	0	60	90698
2026-01-08 00:39:08.39	263.23	21.46	-52.2	-54.7	6.1	0.00e+00	0	38	104	0	60	90755
2026-01-08 00:39:09.40	262.93	21.33	-52.2	-54.7	6.1	0.00e+00	0	38	104	0	60	90868
2026-01-08 00:39:10.41	262.63	21.20	-52.2	-54.8	6.1	0.00e+00	0	38	104	0	60	91440
2026-01-08 00:39:11.42	262.33	21.07	-52.2	-54.7	6.1	0.00e+00	0	38	104	0	60	91018
2026-01-08 00:39:12.43	262.04	20.94	-52.2	-54.6	6.1	0.00e+00	0	38	104	0	60	90266
2026-01-08 00:39:13.44	261.74	20.81	-52.2	-54.7	6.1	0.00e+00	0	38	104	0	60	91078
2026-01-08 00:39:14.46	261.45	20.68	-52.2	-54.7	6.1	0.00e+00	0	38	104	0	60	90815
2026-01-08 00:39:15.47	261.16	20.55	-52.2	-54.7	6.1	0.00e+00	0	38	104	0	60	91019
2026-01-08 00:39:16.48	260.88	20.42	-52.2	-54.7	6.1	0.00e+00	0	38	104	0	60	90822
2026-01-08 00:39:17.49	260.60	20.30	-52.2	-54.7	6.1	0.00e+00	0	38	104	0	60	90615
2026-01-08 00:39:18.50	260.32	20.17	-52.2	-54.7	6.1	0.00e+00	0	38	104	0	60	90834
2026-01-08 00:39:19.51	260.05	20.04	-52.2	-54.7	6.1	0.00e+00	0	38	104	0	60	90947
2026-01-08 00:39:20.52	259.77	19.91	-52.2	-54.7	6.1	0.00e+00	0	38	104	0	60	90576
2026-01-08 00:39:21.53	259.50	19.78	-52.2	-54.7	6.1	0.00e+00	0	38	104	0	60	90996
2026-01-08 00:39:22.54	259.24	19.65	-52.2	-54.7	6.1	0.00e+00	0	38	104	0	60	90860
2026-01-08 00:39:23.56	258.97	19.52	-52.2	-54.7	6.1	0.00e+00	0	38	104	0	60	90752
2026-01-08 00:39:24.57	258.71	19.40	-52.2	-54.7	6.1	0.00e+00	0	38	104	0	60	91218
2026-01-08 00:39:25.58	258.45	19.27	-52.2	-54.7	6.1	0.00e+00	0	38	104	0	60	90986
2026-01-08 00:39:26.59	258.19	19.14	-52.2	-54.7	6.1	0.00e+00	0	38	104	0	60	91138
2026-01-08 00:39:27.60	257.93	19.02	-52.2	-54.7	6.1	0.00e+00	0	38	104	0	60	91074
2026-01-08 00:39:28.61	257.68	18.89	-52.2	-54.8	6.1	0.00e+00	0	38	104	0	60	91663
2026-01-08 00:39:29.62	257.43	18.76	-52.2	-54.7	6.1	0.00e+00	0	38	104	0	60	91056
2026-01-08 00:39:30.64	257.18	18.64	-52.2	-54.7	6.1	0.00e+00	0	38	104	0	60	91023
2026-01-08 00:39:31.65	256.93	18.51	-52.2	-54.7	6.1	0.00e+00	0	38	104	0	60	90823
2026-01-08 00:39:32.66	256.69	18.39	-52.2	-54.7	6.1	0.00e+00	0	38	104	0	60	91011
2026-01-08 00:39:33.67	256.45	18.26	-52.2	-54.7	6.1	0.00e+00	0	38	104	0	60	90968
2026-01-08 00:39:34.68	256.21	18.14	-52.2	-54.7	6.1	0.00e+00	0	38	104	0	60	90765
2026-01-08 00:39:35.69	255.98	18.01	-52.2	-54.7	6.1	0.00e+00	0	38	104	0	60	90523
2026-01-08 00:39:36.70	255.74	17.89	-52.2	-54.7	6.1	0.00e+00	0	38	104	0	60	91040
2026-01-08 00:39:37.71	255.51	17.77	-52.2	-54.7	6.1	0.00e+00	0	38	104	0	60	91101
2026-01-08 00:39:38.73	255.28	17.64	-52.3	-54.7	6.1	0.00e+00	0	38	104	0	60	90900
2026-01-08 00:39:39.74	255.05	17.52	-52.2	-54.7	6.1	0.00e+00	0	38	104	0	60	90775
2026-01-08 00:39:40.75	254.83	17.40	-52.2	-54.7	6.1	0.00e+00	0	38	104	0	60	90953
2026-01-08 00:39:41.75	254.60	17.28	-52.2	-54.7	6.1	0.00e+00	0	38	104	0	60	90617
2026-01-08 00:39:42.77	254.38	17.15	-52.2	-54.8	6.1	0.00e+00	0	38	104	0	60	91434
2026-01-08 00:39:43.78	254.16	17.03	-52.2	-54.7	6.1	0.00e+00	0	38	104	0	60	90660
2026-01-08 00:39:44.79	253.95	16.91	-52.3	-54.7	6.1	0.00e+00	0	38	104	0	60	90742
2026-01-08 00:39:45.80	253.73	16.79	-52.2	-54.7	6.1	0.00e+00	0	38	104	0	60	91121
2026-01-08 00:39:46.81	253.52	16.67	-52.2	-54.7	6.1	0.00e+00	0	38	104	0	60	91271
2026-01-08 00:39:47.82	253.31	16.55	-52.2	-54.7	6.1	0.00e+00	0	38	104	0	60	90828
2026-01-08 00:39:48.83	253.10	16.43	-52.2	-54.7	6.1	0.00e+00	0	38	104	0	60	91139
2026-01-08 00:39:49.84	252.89	16.32	-52.2	-54.7	6.1	0.00e+00	0	38	104	0	60	90675
2026-01-08 00:39:50.85	252.69	16.20	-52.2	-54.7	6.1	0.00e+00	0	38	104	0	60	90988
2026-01-08 00:39:51.86	252.48	16.08	-52.2	-54.7	6.1	0.00e+00	0	38	104	0	60	90912
2026-01-08 00:39:52.88	252.28	15.96	-52.2	-54.7	6.1	0.00e+00	0	38	104	0	60	91245
2026-01-08 00:39:53.89	252.08	15.84	-52.2	-54.7	6.1	0.00e+00	0	38	104	0	60	91141
2026-01-08 00:39:54.90	251.88	15.73	-52.3	-54.7	6.1	0.00e+00	0	38	104	0	60	91108
2026-01-08 00:39:55.91	251.69	15.61	-52.2	-54.7	6.1	0.00e+00	0	38	104	0	60	90911
2026-01-08 00:39:56.92	251.49	15.50	-52.3	-54.7	6.1	0.00e+00	0	38	104	0	60	91039
2026-01-08 00:39:57.93	251.30	15.38	-52.2	-54.7	6.1	0.00e+00	0	38	104	0	60	90767
2026-01-08 00:39:58.94	251.11	15.27	-52.2	-54.7	6.1	0.00e+00	0	38	104	0	60	91025
2026-01-08 00:39:59.95	250.92	15.15	-52.3	-54.7	6.1	0.00e+00	0	38	104	0	60	90685
2026-01-08 00:40:00.96	250.74	15.04	-52.2	-54.7	6.1	0.00e+00	0	38	104	0	60	90945
2026-01-08 00:40:01.97	250.55	14.92	-52.2	-54.7	6.1	0.00e+00	0	38	104	0	60	90669
2026-01-08 00:40:02.99	250.37	14.81	-52.2	-54.7	6.1	0.00e+00	0	38	104	0	60	90985
2026-01-08 00:40:04.00	250.18	14.70	-52.2	-54.7	6.1	0.00e+00	0	38	104	0	60	90904
2026-01-08 00:40:05.01	250.00	14.58	-52.3	-54.7	6.1	0.00e+00	0	38	104	0	60	91058
2026-01-08 00:40:06.02	249.83	14.47	-52.2	-54.7	6.1	0.00e+00	0	38	104	0	60	91069
2026-01-08 00:40:07.03	249.65	14.36	-52.3	-54.7	6.1	0.00e+00	0	38	104	0	60	90613
2026-01-08 00:40:08.04	249.47	14.25	-52.2	-54.7	6.1	0.00e+00	0	38	104	0	60	90988
2026-01-08 00:40:09.05	249.30	14.14	-52.3	-54.7	6.1	0.00e+00	0	38	104	0	60	91126
2026-01-08 00:40:10.06	249.13	14.03	-52.2	-54.7	6.1	0.00e+00	0	38	104	0	60	91035
2026-01-08 00:40:11.08	248.95	13.92	-52.3	-54.7	6.1	0.00e+00	0	38	104	0	60	90980
2026-01-08 00:40:12.09	248.79	13.81	-52.3	-54.7	6.1	0.00e+00	0	38	104	0	60	91276
2026-01-08 00:40:13.10	248.62	13.70	-52.3	-54.7	6.1	0.00e+00	0	38	104	0	60	91226
2026-01-08 00:40:14.11	248.45	13.59	-52.2	-54.7	6.1	0.00e+00	0	38	104	0	60	91255
2026-01-08 00:40:15.12	248.29	13.48	-52.2	-54.7	6.1	0.00e+00	0	38	104	0	60	91230
2026-01-08 00:40:16.13	248.12	13.37	-52.2	-54.7	6.1	0.00e+00	0	38	104	0	60	90978
2026-01-08 00:40:17.14	247.96	13.27	-52.2	-54.7	6.1	0.00e+00	0	38	104	0	60	91299
2026-01-08 00:40:18.15	247.80	13.16	-52.3	-54.8	6.1	0.00e+00	0	38	104	0	60	91500
2026-01-08 00:40:19.16	247.64	13.05	-52.3	-54.7	6.1	0.00e+00	0	38	104	0	60	91199
2026-01-08 00:40:20.17	247.49	12.95	-52.2	-54.7	6.1	0.00e+00	0	38	104	0	60	90719
2026-01-08 00:40:21.18	247.33	12.84	-52.3	-54.7	6.1	0.00e+00	0	38	104	0	60	90864
2026-01-08 00:40:22.19	247.17	12.74	-52.3	-54.7	6.1	0.00e+00	0	38	104	0	60	90885
2026-01-08 00:40:23.21	247.02	12.63	-52.3	-54.7	6.1	0.00e+00	0	38	104	0	60	91308
2026-01-08 00:40:24.22	246.87	12.53	-52.2	-54.7	6.0	0.00e+00	0	38	104	0	60	90804
2026-01-08 00:40:25.23	246.72	12.42	-52.2	-54.7	6.1	0.00e+00	0	38	104	0	60	91293
2026-01-08 00:40:26.24	246.57	12.32	-52.3	-54.7	6.1	0.00e+00	0	38	104	0	60	90941
2026-01-08 00:40:27.25	246.42	12.22	-52.2	-54.7	6.1	0.00e+00	0	38	104	0	60	90820
2026-01-08 00:40:28.26	246.27	12.11	-52.3	-54.7	6.1	0.00e+00	0	38	104	0	60	91121
2026-01-08 00:40:29.27	246.13	12.01	-52.3	-54.7	6.1	0.00e+00	0	38	104	0	60	90640
2026-01-08 00:40:30.28	245.98	11.91	-52.3	-54.8	6.1	0.00e+00	0	38	104	0	60	91329
2026-01-08 00:40:31.29	245.84	11.81	-52.3	-54.8	6.1	0.00e+00	0	38	104	0	60	91529
2026-01-08 00:40:32.31	245.69	11.71	-52.3	-54.8	6.1	0.00e+00	0	38	104	0	60	91345
2026-01-08 00:40:33.32	245.55	11.61	-52.3	-54.8	6.1	0.00e+00	0	38	104	0	60	91323
2026-01-08 00:40:34.33	245.41	11.51	-52.2	-54.7	6.1	0.00e+00	0	38	104	0	60	91037
2026-01-08 00:40:35.34	245.28	11.41	-52.3	-54.7	6.1	0.00e+00	0	38	104	0	60	90856
2026-01-08 00:40:36.35	245.14	11.31	-52.3	-54.7	6.1	0.00e+00	0	38	104	0	60	90945
2026-01-08 00:40:37.36	245.00	11.21	-52.3	-54.7	6.1	0.00e+00	0	38	104	0	60	90913
2026-01-08 00:40:38.37	244.87	11.11	-52.3	-54.7	6.1	0.00e+00	0	38	104	0	60	90908
2026-01-08 00:40:39.38	244.73	11.01	-52.2	-54.8	6.1	0.00e+00	0	38	104	0	60	91419
2026-01-08 00:40:40.39	244.60	10.91	-52.3	-54.7	6.1	0.00e+00	0	38	104	0	60	90948
2026-01-08 00:40:41.40	244.47	10.82	-52.3	-54.7	6.1	0.00e+00	0	38	104	0	60	90820
2026-01-08 00:40:42.41	244.34	10.72	-52.2	-54.8	6.1	0.00e+00	0	38	104	0	60	91548
2026-01-08 00:40:43.42	244.21	10.62	-52.3	-54.7	6.1	0.00e+00	0	38	104	0	60	91140
2026-01-08 00:40:44.43	244.08	10.52	-52.3	-54.7	6.1	0.00e+00	0	38	104	0	60	91089
2026-01-08 00:40:45.45	243.95	10.43	-52.3	-54.7	6.1	0.00e+00	0	38	104	0	60	90866
2026-01-08 00:40:46.45	243.83	10.33	-52.3	-54.7	6.1	0.00e+00	0	38	104	0	60	91138
2026-01-08 00:40:47.46	243.70	10.24	-52.3	-54.7	6.1	0.00e+00	0	38	104	0	60	91233
2026-01-08 00:40:48.48	243.57	10.14	-52.3	-54.7	6.1	0.00e+00	0	38	104	0	60	90788
2026-01-08 00:40:49.49	243.45	10.05	-52.3	-54.7	6.1	0.00e+00	0	38	104	0	60	90601
2026-01-08 00:40:50.50	243.33	9.95	-52.3	-54.7	6.1	0.00e+00	0	38	104	0	60	91140
2026-01-08 00:40:51.51	243.21	9.86	-52.3	-54.7	6.1	0.00e+00	0	38	104	0	60	90984
2026-01-08 00:40:52.52	243.09	9.77	-52.3	-54.7	6.1	0.00e+00	0	38	104	0	60	90818
2026-01-08 00:40:53.53	242.97	9.67	-52.3	-54.7	6.1	0.00e+00	0	38	104	0	60	91021
2026-01-08 00:40:54.54	242.85	9.58	-52.3	-54.7	6.1	0.00e+00	0	38	104	0	60	91142
2026-01-08 00:40:55.55	242.73	9.49	-52.3	-54.7	6.1	0.00e+00	0	38	104	0	60	91209
2026-01-08 00:40:56.56	242.61	9.40	-52.3	-54.8	6.1	0.00e+00	0	38	104	0	60	91405
2026-01-08 00:40:57.58	242.50	9.30	-52.3	-54.7	6.1	0.00e+00	0	38	104	0	60	91057
2026-01-08 00:40:58.59	242.38	9.21	-52.3	-54.7	6.1	0.00e+00	0	38	104	0	60	91275
2026-01-08 00:40:59.60	242.27	9.12	-52.3	-54.7	6.1	0.00e+00	0	38	104	0	60	91239
2026-01-08 00:41:00.61	242.16	9.03	-52.3	-54.7	6.1	0.00e+00	0	38	104	0	60	90939
2026-01-08 00:41:01.62	242.04	8.94	-52.3	-54.7	6.1	0.00e+00	0	38	104	0	60	91060
2026-01-08 00:41:02.63	241.93	8.85	-52.3	-54.7	6.1	0.00e+00	0	38	104	0	60	91319
2026-01-08 00:41:03.64	241.82	8.76	-52.3	-54.7	6.1	0.00e+00	0	38	104	0	60	91132
2026-01-08 00:41:04.65	241.71	8.67	-52.3	-54.7	6.1	0.00e+00	0	38	104	0	60	91022
2026-01-08 00:41:05.66	241.60	8.58	-52.3	-54.8	6.1	0.00e+00	0	38	104	0	60	91409
2026-01-08 00:41:06.67	241.50	8.50	-52.3	-54.8	6.1	0.00e+00	0	38	104	0	60	92091
2026-01-08 00:41:07.68	241.39	8.41	-52.3	-54.7	6.1	0.00e+00	0	38	104	0	60	90884
2026-01-08 00:41:08.69	241.28	8.32	-52.3	-54.7	6.1	0.00e+00	0	38	104	0	60	91250
2026-01-08 00:41:09.71	241.18	8.23	-52.3	-54.8	6.1	0.00e+00	0	38	104	0	60	91451
2026-01-08 00:41:10.72	241.07	8.14	-52.3	-54.7	6.1	0.00e+00	0	38	104	0	60	90676
2026-01-08 00:41:11.73	240.97	8.06	-52.3	-54.8	6.1	0.00e+00	0	38	104	0	60	91587
2026-01-08 00:41:12.74	240.87	7.97	-52.3	-54.7	6.1	0.00e+00	0	38	104	0	60	90807
2026-01-08 00:41:13.75	240.76	7.88	-52.3	-54.7	6.1	0.00e+00	0	38	104	0	60	90714
2026-01-08 00:41:14.76	240.66	7.80	-52.3	-54.7	6.1	0.00e+00	0	38	104	0	60	90977
2026-01-08 00:41:15.77	240.56	7.71	-52.3	-54.7	6.1	0.00e+00	0	38	104	0	60	91131
2026-01-08 00:41:16.78	240.46	7.63	-52.3	-54.7	6.1	0.00e+00	0	38	104	0	60	91118
2026-01-08 00:41:17.79	240.36	7.54	-52.3	-54.7	6.1	0.00e+00	0	38	104	0	60	91089
2026-01-08 00:41:18.80	240.26	7.46	-52.3	-54.7	6.1	0.00e+00	0	38	104	0	60	90618
2026-01-08 00:41:19.81	240.17	7.37	-52.3	-54.7	6.1	0.00e+00	0	38	104	0	60	90843
2026-01-08 00:41:20.83	240.07	7.29	-52.3	-54.7	6.1	0.00e+00	0	38	104	0	60	91164
2026-01-08 00:41:21.84	239.97	7.21	-52.2	-54.7	6.1	0.00e+00	0	38	104	0	60	91183
2026-01-08 00:41:22.85	239.88	7.12	-52.3	-54.7	6.1	0.00e+00	0	38	104	0	60	90777
2026-01-08 00:41:23.86	239.78	7.04	-52.2	-54.7	6.1	0.00e+00	0	38	104	0	60	90960
2026-01-08 00:41:24.87	239.69	6.96	-52.3	-54.7	6.1	0.00e+00	0	38	104	0	60	90522
2026-01-08 00:41:25.88	239.59	6.87	-52.3	-54.8	6.1	0.00e+00	0	38	104	0	60	91347
2026-01-08 00:41:26.89	239.50	6.79	-52.3	-54.7	6.1	0.00e+00	0	38	104	0	60	91275
2026-01-08 00:41:27.90	239.41	6.71	-52.3	-54.7	6.1	0.00e+00	0	38	104	0	60	91149
2026-01-08 00:41:28.91	239.32	6.63	-52.3	-54.7	6.1	0.00e+00	0	38	104	0	60	91002
2026-01-08 00:41:29.92	239.23	6.55	-52.3	-54.8	6.1	0.00e+00	0	38	104	0	60	91584
2026-01-08 00:41:30.93	239.14	6.47	-52.3	-54.7	6.1	0.00e+00	0	38	104	0	60	91141
2026-01-08 00:41:31.95	239.05	6.38	-52.3	-54.7	6.1	0.00e+00	0	38	104	0	60	91222
2026-01-08 00:41:32.96	238.96	6.30	-52.3	-54.8	6.1	0.00e+00	0	38	104	0	60	91429
2026-01-08 00:41:33.97	238.87	6.22	-52.3	-54.7	6.1	0.00e+00	0	38	104	0	60	91101
2026-01-08 00:41:34.98	238.78	6.14	-52.3	-54.8	6.1	0.00e+00	0	38	104	0	60	91479
2026-01-08 00:41:35.99	238.69	6.06	-52.3	-54.7	6.1	0.00e+00	0	38	104	0	60	91174
2026-01-08 00:41:37.00	238.61	5.98	-52.3	-54.7	6.1	0.00e+00	0	38	104	0	60	91063
2026-01-08 00:41:38.01	238.52	5.90	-52.3	-54.7	6.1	0.00e+00	0	38	104	0	60	91194
2026-01-08 00:41:39.02	238.44	5.83	-52.3	-54.7	6.0	0.00e+00	0	38	104	0	60	90907
2026-01-08 00:41:40.03	238.35	5.75	-52.3	-54.7	6.1	0.00e+00	0	38	104	0	60	90808
2026-01-08 00:41:41.04	238.27	5.67	-52.3	-54.7	6.1	0.00e+00	0	38	104	0	60	91188
2026-01-08 00:41:42.05	238.18	5.59	-52.3	-54.8	6.1	0.00e+00	0	38	104	0	60	91563
2026-01-08 00:41:43.06	238.10	5.51	-52.3	-54.8	6.1	0.00e+00	0	38	104	0	60	91615
2026-01-08 00:41:44.07	238.02	5.43	-52.3	-54.8	6.1	0.00e+00	0	38	104	0	60	91599
2026-01-08 00:41:45.08	237.94	5.36	-52.3	-54.7	6.1	0.00e+00	0	38	104	0	60	91131
2026-01-08 00:41:46.09	237.86	5.28	-52.3	-54.7	6.1	0.00e+00	0	38	104	0	60	90820
2026-01-08 00:41:47.10	237.78	5.20	-52.3	-54.7	6.1	0.00e+00	0	38	104	0	60	90975
2026-01-08 00:41:48.12	237.70	5.13	-52.3	-54.7	6.1	0.00e+00	0	38	104	0	60	91004
2026-01-08 00:41:49.13	237.62	5.05	-52.3	-54.7	6.0	0.00e+00	0	38	104	0	60	91224
2026-01-08 00:41:50.14	237.54	4.97	-52.3	-54.7	6.1	0.00e+00	0	38	104	0	60	91314
2026-01-08 00:41:51.15	237.46	4.90	-52.3	-54.8	6.1	0.00e+00	0	38	104	0	60	91388
2026-01-08 00:41:52.16	237.38	4.82	-52.2	-54.7	6.1	0.00e+00	0	38	104	0	60	91122
2026-01-08 00:41:53.17	237.30	4.75	-52.3	-54.7	6.1	0.00e+00	0	38	104	0	60	90743
2026-01-08 00:41:54.18	237.23	4.67	-52.3	-54.7	6.0	0.00e+00	0	38	104	0	60	90688
2026-01-08 00:41:55.19	237.15	4.60	-52.3	-54.8	6.1	0.00e+00	0	38	104	0	60	91487
2026-01-08 00:41:56.20	237.08	4.52	-52.3	-54.7	6.1	0.00e+00	0	38	104	0	60	91221
2026-01-08 00:41:57.21	237.00	4.45	-52.3	-54.7	6.1	0.00e+00	0	38	104	0	60	91231
2026-01-08 00:41:58.23	236.92	4.37	-52.3	-54.7	6.1	0.00e+00	0	38	104	0	60	90979
2026-01-08 00:41:59.24	236.85	4.30	-52.3	-54.7	6.1	0.00e+00	0	38	104	0	60	90989
2026-01-08 00:42:00.25	236.78	4.23	-52.3	-54.7	6.1	0.00e+00	0	38	104	0	60	90921
2026-01-08 00:42:01.26	236.70	4.15	-52.3	-54.7	6.1	0.00e+00	0	38	104	0	60	90673
2026-01-08 00:42:02.27	236.63	4.08	-52.3	-54.7	6.1	0.00e+00	0	38	104	0	60	91161
2026-01-08 00:42:03.28	236.56	4.01	-52.3	-54.7	6.1	0.00e+00	0	38	104	0	60	91049
2026-01-08 00:42:04.29	236.49	3.93	-52.3	-54.7	6.1	0.00e+00	0	38	104	0	60	91209
2026-01-08 00:42:05.30	236.42	3.86	-52.3	-54.8	6.1	0.00e+00	0	38	104	0	60	91570
2026-01-08 00:42:06.31	236.34	3.79	-52.3	-54.8	6.1	0.00e+00	0	38	104	0	60	91516
2026-01-08 00:42:07.32	236.27	3.72	-52.3	-54.8	6.1	0.00e+00	0	38	104	0	60	91523
2026-01-08 00:42:08.34	236.20	3.64	-52.3	-54.8	6.1	0.00e+00	0	38	104	0	60	91360
2026-01-08 00:42:09.35	236.13	3.57	-52.3	-54.7	6.1	0.00e+00	0	38	104	0	60	90859
2026-01-08 00:42:10.36	236.06	3.50	-52.3	-54.8	6.1	0.00e+00	0	38	104	0	60	91374
2026-01-08 00:42:11.37	236.00	3.43	-52.3	-54.7	6.1	0.00e+00	0	38	104	0	60	90667
2026-01-08 00:42:12.38	235.93	3.36	-52.3	-54.8	6.1	0.00e+00	0	38	104	0	60	91417
2026-01-08 00:42:13.39	235.86	3.29	-52.3	-54.7	6.1	0.00e+00	0	38	104	0	60	91168
2026-01-08 00:42:14.40	235.79	3.22	-52.3	-54.8	6.1	0.00e+00	0	38	104	0	60	91345
2026-01-08 00:42:15.41	235.73	3.15	-52.3	-54.7	6.1	0.00e+00	0	38	104	0	60	91215
2026-01-08 00:42:16.43	235.66	3.08	-52.3	-54.7	6.1	0.00e+00	0	38	104	0	60	90938
2026-01-08 00:42:17.44	235.59	3.01	-52.3	-54.7	6.1	0.00e+00	0	38	104	0	60	91227
2026-01-08 00:42:18.45	235.53	2.94	-52.3	-54.7	6.1	0.00e+00	0	38	104	0	60	91164
2026-01-08 00:42:19.46	235.46	2.87	-52.3	-54.8	6.1	0.00e+00	0	38	104	0	60	91341
2026-01-08 00:42:20.47	235.40	2.80	-52.3	-54.7	6.1	0.00e+00	0	38	104	0	60	91150
2026-01-08 00:42:21.48	235.33	2.73	-52.3	-54.8	6.1	0.00e+00	0	38	104	0	60	91452
2026-01-08 00:42:22.49	235.27	2.66	-52.3	-54.7	6.1	0.00e+00	0	38	104	0	60	91139
2026-01-08 00:42:23.50	235.21	2.59	-52.3	-54.8	6.1	0.00e+00	0	38	104	0	60	91350
2026-01-08 00:42:24.51	235.14	2.52	-52.3	-54.8	6.1	0.00e+00	0	38	104	0	60	91336
2026-01-08 00:42:25.52	235.08	2.45	-52.3	-54.8	6.1	0.00e+00	0	38	104	0	60	91770
2026-01-08 00:42:26.53	235.02	2.38	-52.3	-54.7	6.1	0.00e+00	0	38	104	0	60	91317
2026-01-08 00:42:27.54	234.96	2.32	-52.3	-54.8	6.1	0.00e+00	0	38	104	0	60	91468
2026-01-08 00:42:28.55	234.89	2.25	-52.3	-54.7	6.1	0.00e+00	0	38	104	0	60	90952
2026-01-08 00:42:29.56	234.83	2.18	-52.3	-54.8	6.1	0.00e+00	0	38	104	0	60	91441
2026-01-08 00:42:30.57	234.77	2.11	-52.3	-54.7	6.1	0.00e+00	0	38	104	0	60	91108
2026-01-08 00:42:31.58	234.71	2.05	-52.3	-54.8	6.1	0.00e+00	0	38	104	0	60	91694
2026-01-08 00:42:32.60	234.65	1.98	-52.3	-54.8	6.1	0.00e+00	0	38	104	0	60	91335
2026-01-08 00:42:33.61	234.59	1.91	-52.3	-54.7	6.1	0.00e+00	0	38	104	0	60	91049
2026-01-08 00:42:34.62	234.53	1.85	-52.3	-54.8	6.1	0.00e+00	0	38	104	0	60	91466
2026-01-08 00:42:35.63	234.47	1.78	-52.3	-54.8	6.1	0.00e+00	0	38	104	0	60	91322
2026-01-08 00:42:36.64	234.41	1.71	-52.3	-54.8	6.1	0.00e+00	0	38	104	0	60	91596
2026-01-08 00:42:37.65	234.36	1.65	-52.3	-54.7	6.1	0.00e+00	0	38	104	0	60	91084
2026-01-08 00:42:38.66	234.30	1.58	-52.3	-54.7	6.1	0.00e+00	0	38	104	0	60	91161
2026-01-08 00:42:39.67	234.24	1.51	-52.3	-54.8	6.1	0.00e+00	0	38	104	0	60	91679
2026-01-08 00:42:40.68	234.18	1.45	-52.3	-54.7	6.1	0.00e+00	0	38	104	0	60	91051
2026-01-08 00:42:41.69	234.13	1.38	-52.3	-54.8	6.1	0.00e+00	0	38	104	0	60	91767
2026-01-08 00:42:42.71	234.07	1.32	-52.3	-54.8	6.1	0.00e+00	0	38	104	0	60	91349
2026-01-08 00:42:43.72	234.01	1.25	-52.3	-54.7	6.1	0.00e+00	0	38	104	0	60	91068
2026-01-08 00:42:44.73	233.96	1.19	-52.3	-54.7	6.1	0.00e+00	0	38	104	0	60	91202
2026-01-08 00:42:45.74	233.90	1.12	-52.3	-54.7	6.1	0.00e+00	0	38	104	0	60	91294
2026-01-08 00:42:46.75	233.84	1.06	-52.3	-54.7	6.1	0.00e+00	0	38	104	0	60	91312
2026-01-08 00:42:47.76	233.79	0.99	-52.3	-54.7	6.1	0.00e+00	0	38	104	0	60	91193
2026-01-08 00:42:48.77	233.74	0.93	-52.3	-54.8	6.1	0.00e+00	0	38	104	0	60	91572
2026-01-08 00:42:49.78	233.68	0.86	-52.3	-54.7	6.1	0.00e+00	0	38	104	0	60	90508
2026-01-08 00:42:50.80	233.63	0.80	-52.3	-54.8	6.1	0.00e+00	0	38	104	0	60	91614
2026-01-08 00:42:51.81	233.57	0.74	-52.3	-54.7	6.1	0.00e+00	0	38	104	0	60	90928
2026-01-08 00:42:52.82	233.52	0.67	-52.3	-54.7	6.1	0.00e+00	0	38	104	0	60	91231
2026-01-08 00:42:53.83	233.47	0.61	-52.3	-54.7	6.1	0.00e+00	0	38	104	0	60	91049
2026-01-08 00:42:54.84	233.41	0.55	-52.3	-54.7	6.1	0.00e+00	0	38	104	0	60	90917
2026-01-08 00:42:55.85	233.36	0.48	-52.3	-54.7	6.1	0.00e+00	0	38	104	0	60	90320
2026-01-08 00:42:56.86	233.31	0.42	-52.3	-54.7	6.1	0.00e+00	0	38	104	0	60	91012
2026-01-08 00:42:57.87	233.26	0.36	-52.3	-54.8	6.1	0.00e+00	0	38	104	0	60	91544
2026-01-08 00:42:58.88	233.21	0.29	-52.3	-54.7	6.1	0.00e+00	0	38	104	0	60	91081
2026-01-08 00:42:59.90	233.15	0.23	-52.3	-54.8	6.1	0.00e+00	0	38	104	0	60	91563
2026-01-08 00:43:00.91	233.10	0.17	-52.3	-54.8	6.1	0.00e+00	0	38	104	0	60	91658
2026-01-08 00:43:01.92	233.05	0.11	-52.3	-54.7	6.1	0.00e+00	0	38	104	0	60	91259
2026-01-08 00:43:02.93	233.00	0.04	-52.3	-54.7	6.1	0.00e+00	0	38	104	0	60	91005

#Closed at: 2026-01-08 00:43:03
#Recorded file [0 MB]: D:/lorett/data/35034_260108_033235.dat