passes_logs/2026/01/13/XPeterburg/XPeterburg__20260113_044243_FENGYUN_3E_rec.log

#Pass ID: 20260113_044243_FENGYUN 3E
#Satellite: FENGYUN 3E
#Configuration: FENGYUN 3E
#Start time: 2026-01-13 04:42:39

#Version: 1.5.20200625
#Station: XPeterburg
#Location: 30.318091 lon 59.932769 lat
#TLE: 1 49008U 21062A   26011.97558190  .00000066  00000+0  51928-4 0  9996
#TLE: 2 49008  98.7491  17.1395 0001916 144.4283 215.7021 14.19885193234411

#Time	Az	El	Level	Level2	SNR	BER	Gain	Gain2
2026-01-13 04:42:39.85	17.73	68.48	-37.9	-40.4	3.3	8382728	93	6513
2026-01-13 04:42:40.05	17.72	68.57	-37.2	-43.6	3.6	8235980	84	10329
2026-01-13 04:42:40.25	17.71	68.66	-36.5	-38.5	3.8	8428504	90	6189
2026-01-13 04:42:40.45	17.71	68.75	-36.2	-36.7	3.9	8409496	90	5231
2026-01-13 04:42:40.65	17.70	68.85	-35.8	-35.6	4.1	8332683	90	4810
2026-01-13 04:42:40.85	17.69	68.94	-35.4	-35.1	4.5	8161125	89	4751
2026-01-13 04:42:41.05	17.68	69.03	-35.0	-34.4	4.9	7843837	88	4642
2026-01-13 04:42:41.25	17.67	69.12	-34.5	-34.0	5.4	7284553	87	4641
2026-01-13 04:42:41.45	17.67	69.21	-33.2	-32.8	6.0	7284553	85	4695
2026-01-13 04:42:41.65	17.66	69.31	-33.4	-32.5	6.5	4042270	85	4473
2026-01-13 04:42:41.86	17.65	69.40	-32.7	-32.2	7.3	2372314	83	4624
2026-01-13 04:42:42.06	17.64	69.50	-32.1	-31.4	8.2	1335021	82	4558
2026-01-13 04:42:42.26	17.63	69.59	-31.7	-31.2	8.7	653732	81	4626
2026-01-13 04:42:42.46	17.62	69.68	-31.2	-30.6	9.4	360122	80	4578
2026-01-13 04:42:42.66	17.62	69.77	-30.8	-29.7	9.9	160732	80	4352
2026-01-13 04:42:42.86	17.61	69.87	-29.9	-29.0	10.7	68470	78	4410
2026-01-13 04:42:43.06	17.60	69.96	-29.7	-29.0	11.1	22487	77	4556
2026-01-13 04:42:43.26	17.59	70.05	-29.8	-29.8	11.1	22487	76	4940
2026-01-13 04:42:43.46	17.58	70.15	-29.0	-28.1	11.9	10643	76	4446
2026-01-13 04:42:43.67	17.57	70.24	-28.5	-27.6	12.4	5332	75	4472
2026-01-13 04:42:43.87	17.56	70.34	-28.3	-27.7	12.7	2586	74	4605
2026-01-13 04:42:44.07	17.55	70.43	-28.1	-27.3	12.8	595	74	4499
2026-01-13 04:42:44.27	17.54	70.53	-27.7	-26.9	13.3	503	73	4497
2026-01-13 04:42:44.47	17.53	70.62	-27.9	-27.4	13.2	205	73	4662
2026-01-13 04:42:44.67	17.52	70.71	-27.9	-27.5	13.2	297	73	4692
2026-01-13 04:42:44.87	17.52	70.81	-28.0	-27.6	13.1	297	73	4743
2026-01-13 04:42:45.07	17.51	70.90	-28.2	-28.0	12.9	217	73	4837
2026-01-13 04:42:45.27	17.50	70.99	-28.2	-28.1	12.9	583	73	4861
2026-01-13 04:42:45.47	17.49	71.09	-28.4	-28.4	12.8	526	73	4957
2026-01-13 04:42:45.68	17.47	71.19	-28.3	-28.2	12.9	892	73	4892
2026-01-13 04:42:45.88	17.46	71.28	-28.6	-28.4	12.5	675	74	4812
2026-01-13 04:42:46.08	17.45	71.38	-28.4	-27.9	12.7	1316	74	4645
2026-01-13 04:42:46.28	17.44	71.47	-28.6	-28.5	12.5	904	74	4852
2026-01-13 04:42:46.48	17.43	71.56	-28.8	-28.7	12.5	904	74	4893
2026-01-13 04:42:46.68	17.42	71.66	-28.9	-29.0	12.2	1510	74	4971
2026-01-13 04:42:46.88	17.41	71.75	-28.9	-28.6	12.3	1590	75	4732
2026-01-13 04:42:47.08	17.40	71.85	-29.0	-28.7	12.2	2620	75	4756
2026-01-13 04:42:47.28	17.39	71.94	-29.0	-28.7	12.1	2918	75	4745
2026-01-13 04:42:47.48	17.38	72.04	-29.3	-29.3	11.9	3078	75	4941
2026-01-13 04:42:47.69	17.37	72.14	-29.2	-29.2	11.9	4680	75	4916
2026-01-13 04:42:47.89	17.35	72.23	-29.1	-29.0	12.1	4154	75	4846
2026-01-13 04:42:48.09	17.34	72.33	-29.2	-29.1	12.0	3971	75	4888
2026-01-13 04:42:48.29	17.33	72.42	-29.4	-29.0	11.8	3971	76	4713
2026-01-13 04:42:48.49	17.32	72.52	-28.3	-27.2	12.7	7839	75	4349
2026-01-13 04:42:48.69	17.31	72.61	-29.1	-28.5	12.0	3616	76	4579
2026-01-13 04:42:48.89	17.29	72.71	-29.0	-28.2	12.1	5710	76	4500
2026-01-13 04:42:49.09	17.28	72.81	-28.9	-28.0	12.1	3353	76	4444
2026-01-13 04:42:49.29	17.27	72.90	-28.9	-28.0	12.1	3238	76	4435
2026-01-13 04:42:49.49	17.26	73.00	-28.6	-27.9	12.2	2597	75	4527
2026-01-13 04:42:49.69	17.24	73.09	-28.6	-27.9	12.1	2941	75	4539
2026-01-13 04:42:49.90	17.23	73.19	-28.8	-28.3	11.9	3204	75	4632
2026-01-13 04:42:50.10	17.22	73.29	-28.6	-27.8	12.2	3444	75	4497
2026-01-13 04:42:50.30	17.20	73.39	-28.6	-27.9	12.2	3444	75	4544
2026-01-13 04:42:50.50	17.19	73.48	-28.6	-27.7	12.2	3192	75	4485
2026-01-13 04:42:50.70	17.18	73.58	-28.5	-27.6	12.4	2655	75	4454
2026-01-13 04:42:50.90	17.16	73.67	-28.5	-27.5	12.4	2094	75	4399
2026-01-13 04:42:51.10	17.15	73.77	-28.6	-27.8	12.3	1831	75	4491
2026-01-13 04:42:51.30	17.13	73.87	-28.6	-27.9	12.3	1991	75	4503
2026-01-13 04:42:51.50	17.12	73.96	-28.7	-27.9	12.2	2174	75	4519
2026-01-13 04:42:51.70	17.11	74.06	-28.7	-27.9	12.3	2300	75	4510
2026-01-13 04:42:51.91	17.09	74.16	-28.6	-27.8	12.3	2300	75	4493
2026-01-13 04:42:52.11	17.07	74.26	-28.7	-28.0	12.3	1762	75	4537
2026-01-13 04:42:52.31	17.06	74.36	-28.7	-28.0	12.3	2231	75	4540
2026-01-13 04:42:52.51	17.04	74.45	-28.9	-28.3	12.2	1785	75	4617
2026-01-13 04:42:52.71	17.03	74.55	-28.9	-28.5	12.1	2632	75	4668
2026-01-13 04:42:52.91	17.01	74.65	-29.0	-28.7	12.0	2723	75	4757
2026-01-13 04:42:53.11	17.00	74.74	-28.8	-28.3	12.3	2952	75	4644
2026-01-13 04:42:53.31	16.98	74.84	-28.7	-28.1	12.4	3330	75	4565
2026-01-13 04:42:53.51	16.96	74.94	-29.0	-28.6	12.0	2986	75	4691
2026-01-13 04:42:53.71	16.95	75.04	-28.7	-27.9	12.4	2986	75	4510
2026-01-13 04:42:53.92	16.93	75.14	-28.8	-28.2	12.3	2185	75	4610
2026-01-13 04:42:54.12	16.91	75.24	-28.8	-28.2	12.3	1636	75	4592
2026-01-13 04:42:54.32	16.89	75.33	-29.0	-28.6	12.1	2471	75	4711
2026-01-13 04:42:54.52	16.88	75.43	-29.2	-29.1	11.8	3204	75	4848
2026-01-13 04:42:54.72	16.86	75.53	-29.0	-28.6	12.1	4325	75	4712
2026-01-13 04:42:54.92	16.84	75.63	-29.2	-29.0	11.9	3238	75	4859
2026-01-13 04:42:55.12	16.82	75.72	-29.0	-28.7	12.0	3799	75	4733
2026-01-13 04:42:55.32	16.80	75.82	-29.1	-29.0	11.9	3799	75	4827
2026-01-13 04:42:55.52	16.78	75.92	-29.0	-28.6	12.1	3295	75	4710
2026-01-13 04:42:55.72	16.76	76.02	-29.0	-28.5	12.2	3971	75	4690
2026-01-13 04:42:55.93	16.74	76.12	-29.0	-28.5	12.1	3135	75	4689
2026-01-13 04:42:56.13	16.72	76.22	-29.1	-28.9	12.0	3456	75	4793
2026-01-13 04:42:56.33	16.70	76.32	-29.0	-28.7	12.2	3192	75	4759
2026-01-13 04:42:56.53	16.68	76.42	-28.9	-28.5	12.4	2323	75	4709
2026-01-13 04:42:56.73	16.66	76.51	-28.8	-28.2	12.5	1876	75	4617
2026-01-13 04:42:56.93	16.64	76.61	-28.7	-28.0	12.6	1373	75	4559
2026-01-13 04:42:57.13	16.62	76.71	-28.8	-28.3	12.5	1373	75	4635
2026-01-13 04:42:57.33	16.60	76.81	-28.7	-28.1	12.7	1041	75	4596
2026-01-13 04:42:57.53	16.57	76.91	-28.7	-28.2	12.8	698	75	4620
2026-01-13 04:42:57.73	16.55	77.01	-28.7	-28.1	12.8	835	75	4600
2026-01-13 04:42:57.93	16.53	77.11	-28.6	-28.0	12.8	686	75	4593
2026-01-13 04:42:58.14	16.50	77.21	-28.8	-28.3	12.7	652	75	4657
2026-01-13 04:42:58.34	16.48	77.31	-28.7	-28.0	12.8	961	75	4557
2026-01-13 04:42:58.54	16.46	77.41	-28.7	-28.1	12.8	984	75	4611
2026-01-13 04:42:58.74	16.43	77.51	-28.9	-28.5	12.5	984	75	4726
2026-01-13 04:42:58.94	16.41	77.61	-28.9	-28.6	12.4	1052	75	4757
2026-01-13 04:42:59.14	16.38	77.71	-28.6	-28.0	12.8	961	75	4582
2026-01-13 04:42:59.34	16.35	77.80	-28.8	-28.2	12.6	835	75	4612
2026-01-13 04:42:59.54	16.33	77.90	-28.6	-27.9	12.8	926	75	4545
2026-01-13 04:42:59.74	16.30	78.00	-28.7	-28.0	12.7	789	75	4552
2026-01-13 04:42:59.95	16.27	78.11	-28.7	-28.2	12.6	755	75	4637
2026-01-13 04:43:00.15	16.24	78.21	-28.7	-28.2	12.6	1247	75	4635
2026-01-13 04:43:00.35	16.22	78.31	-28.8	-28.3	12.4	1281	75	4658
2026-01-13 04:43:00.55	16.19	78.41	-28.7	-28.2	12.5	1396	75	4623
2026-01-13 04:43:00.75	16.16	78.51	-28.7	-28.1	12.6	1396	75	4605
2026-01-13 04:43:00.95	16.13	78.61	-28.6	-28.0	12.6	1327	75	4564
2026-01-13 04:43:01.15	16.10	78.71	-28.6	-27.9	12.7	1087	75	4536
2026-01-13 04:43:01.35	16.07	78.81	-28.4	-27.5	12.8	938	75	4450
2026-01-13 04:43:01.55	16.03	78.91	-28.3	-27.4	12.9	743	75	4406
2026-01-13 04:43:01.75	16.00	79.01	-28.2	-27.6	13.1	526	74	4596
2026-01-13 04:43:01.95	15.97	79.11	-28.1	-27.3	13.3	297	74	4504
2026-01-13 04:43:02.16	15.93	79.21	-27.9	-27.0	13.4	228	74	4427
2026-01-13 04:43:02.36	15.90	79.31	-27.9	-27.0	13.4	183	74	4444
2026-01-13 04:43:02.56	15.86	79.41	-27.8	-26.8	13.6	183	74	4386
2026-01-13 04:43:02.76	15.83	79.51	-27.6	-27.0	13.7	160	73	4559
2026-01-13 04:43:02.96	15.79	79.61	-27.6	-26.8	13.8	80	73	4510
2026-01-13 04:43:03.16	15.76	79.71	-27.4	-26.4	14.0	45	73	4409
2026-01-13 04:43:03.36	15.72	79.81	-27.4	-27.0	14.0	22	72	4703
2026-01-13 04:43:03.56	15.68	79.91	-27.4	-26.9	14.0	34	72	4674
2026-01-13 04:43:03.76	15.64	80.01	-27.3	-26.9	14.1	34	72	4653
2026-01-13 04:43:03.96	15.60	80.11	-27.2	-26.6	14.2	0	72	4594
2026-01-13 04:43:04.16	15.56	80.21	-27.2	-26.5	14.3	0	72	4551
2026-01-13 04:43:04.37	15.52	80.32	-27.2	-26.5	14.3	11	72	4547
2026-01-13 04:43:04.57	15.47	80.42	-27.1	-26.4	14.3	0	72	4539
2026-01-13 04:43:04.77	15.43	80.52	-27.3	-26.7	14.2	45	72	4610
2026-01-13 04:43:04.97	15.38	80.62	-27.3	-26.7	14.3	22	72	4617
2026-01-13 04:43:05.17	15.34	80.72	-27.5	-27.2	14.0	11	72	4756
2026-01-13 04:43:05.37	15.29	80.82	-27.3	-26.8	14.2	0	72	4645
2026-01-13 04:43:05.57	15.24	80.92	-27.4	-27.0	14.1	11	72	4680
2026-01-13 04:43:05.77	15.19	81.02	-27.4	-27.0	14.1	34	72	4677
2026-01-13 04:43:05.97	15.14	81.13	-27.6	-27.3	14.0	34	72	4762
2026-01-13 04:43:06.18	15.09	81.23	-27.6	-27.5	13.9	34	72	4819
2026-01-13 04:43:06.38	15.04	81.33	-27.7	-27.6	13.9	45	72	4865
2026-01-13 04:43:06.58	14.98	81.43	-27.7	-27.6	13.9	22	72	4859
2026-01-13 04:43:06.78	14.93	81.53	-27.5	-27.2	14.1	22	72	4739
2026-01-13 04:43:06.98	14.87	81.64	-27.7	-27.6	13.9	11	72	4861
2026-01-13 04:43:07.18	14.81	81.74	-27.6	-27.3	14.0	22	72	4773
2026-01-13 04:43:07.38	14.75	81.84	-27.5	-27.2	14.1	11	72	4752
2026-01-13 04:43:07.58	14.69	81.94	-27.5	-27.2	14.1	11	72	4748
2026-01-13 04:43:07.78	14.63	82.04	-27.5	-27.1	14.2	34	72	4729
2026-01-13 04:43:07.98	14.57	82.14	-27.3	-26.9	14.3	0	72	4653
2026-01-13 04:43:08.19	14.50	82.25	-27.4	-26.9	14.2	0	72	4646
2026-01-13 04:43:08.39	14.43	82.35	-27.3	-26.8	14.3	22	72	4637
2026-01-13 04:43:08.59	14.36	82.45	-27.3	-26.7	14.3	11	72	4605
2026-01-13 04:43:08.79	14.29	82.55	-27.3	-26.8	14.3	11	72	4626
2026-01-13 04:43:08.99	14.21	82.65	-27.2	-26.5	14.5	22	72	4549
2026-01-13 04:43:09.19	14.14	82.75	-27.2	-26.5	14.5	22	72	4546
2026-01-13 04:43:09.39	14.06	82.86	-27.2	-26.5	14.5	11	72	4552
2026-01-13 04:43:09.59	13.98	82.96	-27.2	-26.6	14.4	22	72	4596
2026-01-13 04:43:09.79	13.90	83.06	-27.0	-26.2	14.6	22	72	4467
2026-01-13 04:43:09.99	13.81	83.16	-26.9	-26.0	14.7	0	72	4416
2026-01-13 04:43:10.19	13.73	83.26	-26.8	-25.8	14.8	0	72	4362
2026-01-13 04:43:10.40	13.63	83.37	-26.9	-25.9	14.7	0	72	4411
2026-01-13 04:43:10.60	13.54	83.47	-26.9	-26.0	14.7	0	72	4428
2026-01-13 04:43:10.80	13.44	83.57	-26.9	-25.9	14.8	22	72	4391
2026-01-13 04:43:11.00	13.34	83.67	-26.9	-26.0	14.7	0	72	4431
2026-01-13 04:43:11.20	13.24	83.78	-27.0	-26.1	14.6	0	72	4445
2026-01-13 04:43:11.40	13.13	83.88	-26.8	-25.8	14.9	0	72	4367
2026-01-13 04:43:11.60	13.02	83.98	-26.9	-25.9	14.8	11	72	4407
2026-01-13 04:43:11.80	12.91	84.08	-27.0	-26.1	14.7	0	72	4462
2026-01-13 04:43:12.00	12.79	84.18	-26.9	-25.9	14.8	0	72	4400
2026-01-13 04:43:12.20	12.67	84.28	-26.9	-26.0	14.8	22	72	4444
2026-01-13 04:43:12.40	12.54	84.39	-27.0	-26.2	14.7	0	72	4477
2026-01-13 04:43:12.61	12.40	84.49	-26.8	-25.7	14.9	0	72	4348
2026-01-13 04:43:12.81	12.27	84.59	-26.9	-26.0	14.8	0	72	4419
2026-01-13 04:43:13.01	12.13	84.70	-26.8	-25.8	14.9	0	72	4368
2026-01-13 04:43:13.21	11.98	84.80	-26.7	-26.0	14.9	0	71	4558
2026-01-13 04:43:13.41	11.82	84.90	-26.3	-25.3	15.2	0	71	4387
2026-01-13 04:43:13.61	11.66	85.00	-26.3	-25.3	15.3	0	71	4389
2026-01-13 04:43:13.81	11.50	85.10	-26.3	-25.3	15.3	0	71	4385
2026-01-13 04:43:14.01	11.32	85.20	-26.4	-25.4	15.2	0	71	4405
2026-01-13 04:43:14.21	11.14	85.31	-26.3	-25.2	15.4	0	71	4340
2026-01-13 04:43:14.41	10.95	85.41	-26.4	-25.9	15.4	0	70	4666
2026-01-13 04:43:14.62	10.75	85.51	-26.4	-26.0	15.4	0	70	4682
2026-01-13 04:43:14.82	10.54	85.62	-26.3	-25.8	15.4	0	70	4631
2026-01-13 04:43:15.02	10.32	85.72	-26.3	-25.7	15.5	0	70	4616
2026-01-13 04:43:15.22	10.09	85.82	-26.3	-25.7	15.5	0	70	4619
2026-01-13 04:43:15.42	9.86	85.92	-26.4	-26.0	15.4	0	70	4686
2026-01-13 04:43:15.62	9.60	86.02	-26.5	-26.1	15.3	0	70	4728
2026-01-13 04:43:15.82	9.34	86.12	-26.5	-26.1	15.3	0	70	4717
2026-01-13 04:43:16.02	9.06	86.22	-26.5	-26.1	15.4	0	70	4722
2026-01-13 04:43:16.22	8.76	86.32	-26.5	-26.2	15.3	11	70	4737
2026-01-13 04:43:16.42	8.45	86.43	-26.6	-26.4	15.2	11	70	4810
2026-01-13 04:43:16.63	8.11	86.53	-26.7	-26.6	15.1	0	70	4854
2026-01-13 04:43:16.83	7.76	86.63	-26.7	-26.6	15.1	0	70	4861
2026-01-13 04:43:17.03	7.38	86.73	-26.8	-26.7	15.1	0	70	4905
2026-01-13 04:43:17.23	6.99	86.83	-26.9	-27.0	14.9	0	70	4989
2026-01-13 04:43:17.43	6.57	86.93	-26.9	-26.9	15.0	11	70	4963
2026-01-13 04:43:17.63	6.12	87.03	-26.9	-27.0	14.9	0	70	4984
2026-01-13 04:43:17.83	5.63	87.14	-26.9	-27.1	14.9	0	70	5005
2026-01-13 04:43:18.03	5.12	87.24	-26.9	-27.1	14.9	0	70	5014
2026-01-13 04:43:18.23	4.56	87.33	-27.0	-26.7	14.8	0	71	4755
2026-01-13 04:43:18.43	3.96	87.43	-26.9	-26.6	14.9	0	71	4733
2026-01-13 04:43:18.64	3.28	87.54	-26.8	-26.3	15.0	0	71	4634
2026-01-13 04:43:18.84	2.58	87.64	-26.8	-26.4	15.0	11	71	4656
2026-01-13 04:43:19.04	1.81	87.74	-27.0	-26.7	14.8	11	71	4751
2026-01-13 04:43:19.24	0.97	87.83	-26.9	-26.5	14.9	0	71	4700
2026-01-13 04:43:19.44	0.06	87.93	-27.0	-26.7	14.8	0	71	4728
2026-01-13 04:43:19.64	359.05	88.03	-26.8	-26.2	15.0	0	71	4576
2026-01-13 04:43:19.84	357.94	88.12	-26.8	-26.2	15.1	0	71	4593
2026-01-13 04:43:20.04	356.71	88.22	-27.0	-26.6	14.8	0	71	4693
2026-01-13 04:43:20.24	355.35	88.31	-26.9	-26.4	14.9	0	71	4652
2026-01-13 04:43:20.44	353.82	88.41	-26.9	-26.4	14.9	0	71	4633
2026-01-13 04:43:20.65	352.01	88.50	-26.9	-26.4	14.9	0	71	4650
2026-01-13 04:43:20.85	350.05	88.60	-26.9	-26.3	15.0	0	71	4625
2026-01-13 04:43:21.05	347.83	88.68	-26.8	-26.1	15.1	0	71	4575
2026-01-13 04:43:21.25	345.29	88.77	-26.9	-26.4	14.9	0	71	4647
2026-01-13 04:43:21.45	342.37	88.85	-26.9	-26.3	14.9	0	71	4617
2026-01-13 04:43:21.65	339.00	88.93	-26.9	-26.4	14.9	0	71	4634
2026-01-13 04:43:21.85	335.10	89.01	-26.9	-26.5	14.9	0	71	4662
2026-01-13 04:43:22.05	330.57	89.08	-27.0	-26.5	14.9	0	71	4667
2026-01-13 04:43:22.25	325.33	89.15	-26.9	-26.4	14.9	0	71	4649
2026-01-13 04:43:22.45	319.29	89.20	-27.1	-26.8	14.8	0	71	4769
2026-01-13 04:43:22.65	312.44	89.25	-27.1	-26.9	14.8	0	71	4781
2026-01-13 04:43:22.86	304.43	89.28	-27.1	-26.8	14.9	0	71	4750
2026-01-13 04:43:23.06	296.20	89.30	-27.1	-26.8	14.8	0	71	4795
2026-01-13 04:43:23.26	287.70	89.31	-27.1	-26.9	14.7	0	71	4821
2026-01-13 04:43:23.46	279.28	89.29	-27.1	-27.0	14.7	0	71	4845
2026-01-13 04:43:23.66	271.29	89.27	-27.0	-26.6	14.8	0	71	4730
2026-01-13 04:43:23.86	263.97	89.23	-27.1	-27.0	14.6	0	71	4826
2026-01-13 04:43:24.06	257.45	89.18	-26.9	-26.5	14.9	0	71	4710
2026-01-13 04:43:24.26	251.75	89.12	-27.0	-26.8	14.8	0	71	4783
2026-01-13 04:43:24.46	246.81	89.05	-27.1	-26.9	14.8	0	71	4805
2026-01-13 04:43:24.67	242.35	88.98	-27.1	-26.9	14.7	0	71	4819
2026-01-13 04:43:24.87	238.71	88.90	-27.0	-26.6	14.8	0	71	4732
2026-01-13 04:43:25.07	235.55	88.82	-26.9	-26.5	14.8	11	71	4706
2026-01-13 04:43:25.27	232.82	88.73	-27.1	-26.9	14.7	11	71	4813
2026-01-13 04:43:25.47	230.43	88.64	-27.0	-26.6	14.8	0	71	4741
2026-01-13 04:43:25.67	228.34	88.55	-27.0	-26.8	14.7	0	71	4790
2026-01-13 04:43:25.87	226.49	88.46	-27.0	-26.7	14.8	0	71	4749
2026-01-13 04:43:26.07	224.85	88.37	-27.1	-26.9	14.7	0	71	4808
2026-01-13 04:43:26.27	223.39	88.28	-27.0	-26.8	14.7	0	71	4788
2026-01-13 04:43:26.47	222.08	88.18	-27.0	-26.8	14.7	11	71	4769
2026-01-13 04:43:26.67	220.91	88.08	-27.1	-26.9	14.6	0	71	4813
2026-01-13 04:43:26.87	219.84	87.99	-27.1	-26.8	14.6	0	71	4793
2026-01-13 04:43:27.08	218.83	87.89	-27.1	-27.0	14.6	0	71	4837
2026-01-13 04:43:27.28	217.95	87.79	-27.2	-27.2	14.5	0	71	4883
2026-01-13 04:43:27.48	217.15	87.69	-27.3	-27.4	14.4	0	71	4964
2026-01-13 04:43:27.68	216.41	87.59	-27.4	-27.4	14.3	0	71	4975
2026-01-13 04:43:27.88	215.73	87.49	-27.7	-27.6	14.2	11	72	4873
2026-01-13 04:43:28.08	215.11	87.39	-27.7	-27.8	14.1	0	72	4925
2026-01-13 04:43:28.28	214.52	87.29	-27.7	-27.7	14.1	34	72	4917
2026-01-13 04:43:28.48	213.98	87.19	-27.8	-27.8	14.1	45	72	4951
2026-01-13 04:43:28.68	213.48	87.09	-27.8	-28.0	14.0	45	72	4991
2026-01-13 04:43:28.88	213.01	86.99	-27.9	-28.0	14.0	34	72	5014
2026-01-13 04:43:29.09	212.55	86.89	-27.8	-27.9	14.1	11	72	4957
2026-01-13 04:43:29.29	212.14	86.79	-27.8	-27.8	14.0	11	72	4922
2026-01-13 04:43:29.49	211.76	86.69	-27.8	-27.9	14.0	34	72	4968
2026-01-13 04:43:29.69	211.40	86.59	-27.7	-27.7	14.1	22	72	4904
2026-01-13 04:43:29.89	211.06	86.48	-27.8	-27.8	14.1	11	72	4922
2026-01-13 04:43:30.09	210.73	86.38	-27.7	-27.6	14.2	11	72	4860
2026-01-13 04:43:30.29	210.43	86.28	-27.5	-27.3	14.4	11	72	4777
2026-01-13 04:43:30.49	210.14	86.18	-27.7	-27.7	14.2	11	72	4902
2026-01-13 04:43:30.69	209.87	86.08	-27.6	-27.4	14.3	34	72	4813
2026-01-13 04:43:30.89	209.61	85.98	-27.5	-27.3	14.3	11	72	4767
2026-01-13 04:43:31.10	209.35	85.87	-27.4	-27.0	14.5	0	72	4699
2026-01-13 04:43:31.30	209.12	85.77	-27.3	-26.8	14.6	0	72	4638
2026-01-13 04:43:31.50	208.89	85.67	-27.3	-26.8	14.5	11	72	4641
2026-01-13 04:43:31.70	208.68	85.57	-27.3	-26.9	14.5	11	72	4661
2026-01-13 04:43:31.90	208.48	85.47	-27.5	-27.1	14.4	0	72	4721
2026-01-13 04:43:32.10	208.28	85.36	-27.5	-27.1	14.3	11	72	4728
2026-01-13 04:43:32.30	208.10	85.26	-27.5	-27.3	14.2	11	72	4772
2026-01-13 04:43:32.50	207.92	85.16	-27.6	-27.3	14.1	22	72	4786
2026-01-13 04:43:32.70	207.75	85.06	-27.6	-27.5	14.0	22	72	4821
2026-01-13 04:43:32.90	207.59	84.96	-27.8	-27.8	13.8	22	72	4915
2026-01-13 04:43:33.11	207.42	84.85	-27.9	-28.0	13.7	45	72	4967
2026-01-13 04:43:33.31	207.27	84.75	-27.9	-27.9	13.7	91	72	4958
2026-01-13 04:43:33.51	207.13	84.65	-27.9	-28.0	13.6	80	72	4991
2026-01-13 04:43:33.71	206.99	84.55	-27.9	-27.9	13.7	57	72	4933
2026-01-13 04:43:33.91	206.85	84.44	-27.8	-27.7	13.8	68	72	4888
2026-01-13 04:43:34.11	206.72	84.34	-27.6	-27.4	13.9	68	72	4790
2026-01-13 04:43:34.31	206.60	84.24	-27.6	-27.3	14.0	22	72	4772
2026-01-13 04:43:34.51	206.48	84.14	-27.5	-27.2	14.1	22	72	4736
2026-01-13 04:43:34.72	206.36	84.03	-27.5	-27.3	14.0	22	72	4770
2026-01-13 04:43:34.92	206.25	83.93	-27.5	-27.1	14.1	91	72	4714
2026-01-13 04:43:35.12	206.14	83.83	-27.6	-27.2	14.0	22	72	4750
2026-01-13 04:43:35.32	206.03	83.73	-27.7	-27.5	13.9	11	72	4814
2026-01-13 04:43:35.52	205.93	83.62	-27.6	-27.4	13.9	22	72	4801
2026-01-13 04:43:35.72	205.83	83.52	-27.8	-27.8	13.7	22	72	4906
2026-01-13 04:43:35.92	205.74	83.42	-27.8	-27.8	13.6	57	72	4930
2026-01-13 04:43:36.12	205.65	83.32	-27.9	-28.0	13.6	137	72	4960
2026-01-13 04:43:36.32	205.56	83.22	-27.9	-28.0	13.5	137	72	4980
2026-01-13 04:43:36.52	205.47	83.12	-27.9	-27.4	13.5	125	73	4655
2026-01-13 04:43:36.73	205.38	83.01	-27.9	-27.5	13.4	68	73	4704
2026-01-13 04:43:36.93	205.30	82.91	-27.8	-27.3	13.5	217	73	4639
2026-01-13 04:43:37.13	205.22	82.81	-27.9	-27.4	13.4	114	73	4650
2026-01-13 04:43:37.33	205.14	82.70	-27.8	-27.3	13.5	102	73	4625
2026-01-13 04:43:37.53	205.07	82.60	-27.7	-27.0	13.6	102	73	4559
2026-01-13 04:43:37.73	205.00	82.50	-27.7	-27.0	13.6	80	73	4554
2026-01-13 04:43:37.93	204.93	82.40	-27.7	-26.9	13.6	102	73	4533
2026-01-13 04:43:38.13	204.86	82.30	-27.7	-27.0	13.5	114	73	4558
2026-01-13 04:43:38.33	204.79	82.20	-27.6	-26.8	13.6	148	73	4495
2026-01-13 04:43:38.53	204.72	82.10	-27.7	-27.1	13.5	125	73	4581
2026-01-13 04:43:38.74	204.66	81.99	-27.7	-27.0	13.6	125	73	4558
2026-01-13 04:43:38.94	204.60	81.89	-27.8	-27.3	13.4	194	73	4624
2026-01-13 04:43:39.14	204.54	81.79	-27.8	-27.3	13.4	194	73	4630
2026-01-13 04:43:39.34	204.48	81.69	-27.8	-27.3	13.4	125	73	4638
2026-01-13 04:43:39.54	204.42	81.58	-27.8	-27.3	13.4	125	73	4623
2026-01-13 04:43:39.74	204.36	81.48	-27.8	-27.2	13.4	91	73	4610
2026-01-13 04:43:39.94	204.31	81.38	-27.7	-27.1	13.5	114	73	4582
2026-01-13 04:43:40.14	204.26	81.28	-27.7	-27.1	13.5	148	73	4580
2026-01-13 04:43:40.34	204.20	81.18	-27.6	-26.9	13.5	68	73	4519
2026-01-13 04:43:40.54	204.15	81.08	-27.6	-26.7	13.6	114	73	4434
2026-01-13 04:43:40.74	204.10	80.98	-27.6	-26.7	13.6	114	73	4457
2026-01-13 04:43:40.95	204.05	80.87	-27.7	-26.9	13.5	57	73	4508
2026-01-13 04:43:41.15	204.01	80.77	-27.6	-26.6	13.6	57	73	4421
2026-01-13 04:43:41.35	203.96	80.67	-27.6	-26.7	13.5	125	73	4459
2026-01-13 04:43:41.55	203.91	80.57	-27.6	-26.7	13.6	102	73	4445
2026-01-13 04:43:41.75	203.87	80.47	-27.7	-26.9	13.5	45	73	4498
2026-01-13 04:43:41.95	203.83	80.37	-27.6	-26.7	13.5	80	73	4444
2026-01-13 04:43:42.15	203.78	80.27	-27.6	-26.6	13.6	91	73	4432
2026-01-13 04:43:42.35	203.74	80.17	-27.5	-26.5	13.6	102	73	4410
2026-01-13 04:43:42.55	203.70	80.07	-27.5	-26.5	13.6	91	73	4401
2026-01-13 04:43:42.75	203.66	79.97	-27.5	-26.5	13.6	80	73	4403
2026-01-13 04:43:42.95	203.62	79.86	-27.4	-26.3	13.7	80	73	4331
2026-01-13 04:43:43.16	203.58	79.76	-27.3	-26.2	13.8	102	73	4316
2026-01-13 04:43:43.36	203.54	79.66	-27.4	-26.3	13.7	34	73	4347
2026-01-13 04:43:43.56	203.51	79.56	-27.4	-26.8	13.8	57	72	4594
2026-01-13 04:43:43.76	203.47	79.46	-27.4	-26.7	13.8	102	72	4585
2026-01-13 04:43:43.96	203.44	79.36	-27.3	-26.7	13.8	57	72	4573
2026-01-13 04:43:44.16	203.40	79.26	-27.3	-26.7	13.8	68	72	4581
2026-01-13 04:43:44.36	203.37	79.16	-27.4	-26.7	13.8	80	72	4586
2026-01-13 04:43:44.56	203.34	79.06	-27.4	-26.9	13.7	80	72	4636
2026-01-13 04:43:44.76	203.30	78.96	-27.5	-27.0	13.6	68	72	4641
2026-01-13 04:43:44.96	203.27	78.86	-27.6	-27.2	13.5	114	72	4704
2026-01-13 04:43:45.16	203.24	78.76	-27.5	-27.2	13.5	57	72	4707
2026-01-13 04:43:45.37	203.21	78.65	-27.7	-27.4	13.4	102	72	4771
2026-01-13 04:43:45.57	203.18	78.55	-27.7	-27.5	13.3	194	72	4789
2026-01-13 04:43:45.77	203.15	78.45	-27.8	-27.6	13.3	171	72	4813
2026-01-13 04:43:45.97	203.12	78.35	-27.9	-27.9	13.2	274	72	4906
2026-01-13 04:43:46.17	203.09	78.25	-27.9	-27.5	13.1	423	73	4667
2026-01-13 04:43:46.37	203.06	78.15	-28.0	-27.6	13.0	423	73	4690
2026-01-13 04:43:46.57	203.03	78.05	-28.2	-27.9	12.9	343	73	4788
2026-01-13 04:43:46.77	203.01	77.95	-28.1	-27.9	12.9	411	73	4802
2026-01-13 04:43:46.97	202.98	77.85	-28.3	-28.2	12.8	629	73	4875
2026-01-13 04:43:47.17	202.95	77.76	-28.3	-28.3	12.8	652	73	4904
2026-01-13 04:43:47.38	202.93	77.65	-28.4	-28.5	12.8	549	73	4964
2026-01-13 04:43:47.58	202.90	77.55	-28.4	-28.4	12.8	640	73	4941
2026-01-13 04:43:47.78	202.88	77.45	-28.4	-28.4	12.8	823	73	4939
2026-01-13 04:43:47.98	202.85	77.35	-28.4	-28.5	12.8	823	73	4953
2026-01-13 04:43:48.18	202.83	77.25	-28.4	-28.5	12.8	640	73	4970
2026-01-13 04:43:48.38	202.80	77.16	-28.4	-28.3	12.9	606	73	4917
2026-01-13 04:43:48.58	202.78	77.06	-28.4	-28.4	12.9	423	73	4940
2026-01-13 04:43:48.78	202.76	76.96	-28.4	-28.4	12.9	434	73	4941
2026-01-13 04:43:48.98	202.73	76.86	-28.3	-28.3	13.0	537	73	4913
2026-01-13 04:43:49.18	202.71	76.76	-28.4	-28.4	12.9	480	73	4950
2026-01-13 04:43:49.38	202.69	76.66	-28.4	-28.3	12.9	572	73	4908
2026-01-13 04:43:49.59	202.67	76.56	-28.4	-28.5	12.9	572	73	4983
2026-01-13 04:43:49.79	202.65	76.46	-28.6	-28.4	12.7	503	74	4819
2026-01-13 04:43:49.99	202.63	76.36	-28.6	-28.5	12.6	686	74	4863
2026-01-13 04:43:50.19	202.61	76.26	-28.6	-28.5	12.7	766	74	4842
2026-01-13 04:43:50.39	202.58	76.16	-28.6	-28.5	12.6	1029	74	4840
2026-01-13 04:43:50.59	202.57	76.07	-28.6	-28.5	12.6	972	74	4839
2026-01-13 04:43:50.79	202.55	75.97	-28.6	-28.5	12.6	1110	74	4856
2026-01-13 04:43:50.99	202.53	75.87	-28.7	-28.6	12.5	1132	74	4889
2026-01-13 04:43:51.19	202.51	75.77	-28.7	-28.7	12.4	1029	74	4924
2026-01-13 04:43:51.39	202.49	75.67	-28.8	-28.8	12.3	1029	74	4947
2026-01-13 04:43:51.59	202.47	75.57	-28.7	-28.7	12.4	1636	74	4904
2026-01-13 04:43:51.80	202.45	75.47	-28.8	-28.8	12.3	1636	74	4925
2026-01-13 04:43:52.00	202.43	75.37	-28.8	-28.9	12.2	1991	74	4951
2026-01-13 04:43:52.20	202.41	75.28	-28.9	-29.0	12.1	2632	74	4980
2026-01-13 04:43:52.40	202.40	75.18	-28.9	-29.0	12.1	2780	74	4969
2026-01-13 04:43:52.60	202.38	75.08	-29.0	-29.2	12.0	3124	74	5044
2026-01-13 04:43:52.80	202.36	74.98	-28.9	-28.6	11.9	3570	75	4732
2026-01-13 04:43:53.00	202.35	74.89	-29.1	-28.9	11.8	4623	75	4806
2026-01-13 04:43:53.20	202.33	74.79	-29.1	-28.9	11.7	4920	75	4822
2026-01-13 04:43:53.40	202.31	74.69	-29.1	-29.0	11.7	4920	75	4839
2026-01-13 04:43:53.60	202.30	74.59	-29.2	-29.1	11.7	5641	75	4889
2026-01-13 04:43:53.81	202.28	74.49	-29.1	-28.9	11.8	5733	75	4819
2026-01-13 04:43:54.01	202.27	74.39	-29.1	-29.0	11.8	5596	75	4842
2026-01-13 04:43:54.21	202.25	74.30	-29.1	-29.0	11.7	5916	75	4840
2026-01-13 04:43:54.41	202.24	74.20	-29.1	-29.0	11.8	6134	75	4833
2026-01-13 04:43:54.61	202.22	74.10	-29.1	-29.0	11.7	6557	75	4830
2026-01-13 04:43:54.81	202.21	74.01	-29.2	-29.1	11.6	7186	75	4867
2026-01-13 04:43:55.01	202.19	73.91	-29.2	-29.1	11.6	7186	75	4853
2026-01-13 04:43:55.21	202.18	73.81	-29.1	-28.8	11.7	8892	75	4794
2026-01-13 04:43:55.41	202.16	73.72	-29.0	-28.7	11.8	6340	75	4759
2026-01-13 04:43:55.62	202.15	73.61	-29.0	-28.7	11.7	6923	75	4744
2026-01-13 04:43:55.82	202.13	73.52	-29.1	-28.8	11.6	6511	75	4756
2026-01-13 04:43:56.02	202.12	73.42	-29.2	-28.9	11.5	7450	75	4783
2026-01-13 04:43:56.22	202.11	73.33	-29.2	-29.0	11.4	9040	75	4795
2026-01-13 04:43:56.42	202.09	73.23	-29.1	-28.7	11.5	9864	75	4725
2026-01-13 04:43:56.62	202.08	73.13	-29.1	-28.8	11.4	10242	75	4751
2026-01-13 04:43:56.82	202.07	73.04	-29.1	-28.8	11.5	10242	75	4747
2026-01-13 04:43:57.02	202.05	72.94	-29.1	-28.8	11.4	10345	75	4748
2026-01-13 04:43:57.22	202.04	72.85	-29.1	-28.8	11.4	9967	75	4748
2026-01-13 04:43:57.42	202.03	72.75	-29.1	-28.7	11.4	10826	75	4730
2026-01-13 04:43:57.63	202.02	72.65	-29.1	-28.8	11.4	10379	75	4756
2026-01-13 04:43:57.83	202.00	72.55	-29.1	-28.8	11.4	11363	75	4764
2026-01-13 04:43:58.03	201.99	72.46	-29.0	-28.6	11.5	11215	75	4707
2026-01-13 04:43:58.23	201.98	72.36	-29.1	-28.9	11.4	9944	75	4785
2026-01-13 04:43:58.43	201.97	72.27	-29.3	-29.2	11.2	9944	75	4878
2026-01-13 04:43:58.63	201.96	72.17	-29.3	-29.2	11.2	12165	75	4888
2026-01-13 04:43:58.83	201.95	72.08	-29.4	-29.4	11.1	13538	75	4960
2026-01-13 04:43:59.03	201.93	71.98	-29.4	-29.5	11.2	14053	75	4997
2026-01-13 04:43:59.23	201.92	71.89	-29.5	-29.7	11.2	14934	75	5048
2026-01-13 04:43:59.43	201.91	71.79	-29.8	-29.8	11.0	16067	76	4959
2026-01-13 04:43:59.63	201.90	71.70	-29.8	-29.8	11.1	18379	76	4940
2026-01-13 04:43:59.84	201.89	71.60	-29.8	-29.9	11.0	19981	76	4960
2026-01-13 04:44:00.04	201.88	71.50	-29.9	-30.0	11.0	20416	76	4988
2026-01-13 04:44:00.24	201.87	71.41	-30.0	-29.7	10.8	20416	77	4764
2026-01-13 04:44:00.44	201.86	71.31	-29.9	-29.7	10.9	22762	77	4780
2026-01-13 04:44:00.64	201.85	71.22	-30.0	-29.7	10.9	24295	77	4787
2026-01-13 04:44:00.84	201.84	71.12	-30.1	-29.9	10.8	22693	77	4843
2026-01-13 04:44:01.04	201.83	71.03	-30.1	-29.9	10.8	26275	77	4837
2026-01-13 04:44:01.24	201.82	70.93	-30.1	-29.8	10.8	29891	77	4781
2026-01-13 04:44:01.44	201.81	70.84	-30.0	-29.7	10.8	28598	77	4776
2026-01-13 04:44:01.64	201.80	70.75	-30.2	-30.1	10.6	28553	77	4892
2026-01-13 04:44:01.85	201.79	70.65	-29.9	-29.6	10.9	33176	77	4725
2026-01-13 04:44:02.05	201.78	70.55	-30.2	-30.2	10.6	27534	77	4912
2026-01-13 04:44:02.25	201.77	70.46	-33.9	-34.8	6.2	27534	84	5503
2026-01-13 04:44:02.45	201.76	70.37	-36.5	-37.9	3.6	808067	90	5819
2026-01-13 04:44:02.65	201.75	70.27	-37.8	-42.0	3.6	8124790	92	8041

#Closed at: 2026-01-13 04:44:02