passes_logs/2026/01/13/XPeterburg/XPeterburg__20260113_192032_FENGYUN_3F_rec.log

#Pass ID: 20260113_192032_FENGYUN 3F
#Satellite: FENGYUN 3F
#Configuration: FENGYUN 3F
#Start time: 2026-01-13 19:20:27

#Version: 1.5.20200625
#Station: XPeterburg
#Location: 30.318091 lon 59.932769 lat
#TLE: 1 57490U 23111A   26011.96235235  .00000064  00000+0  50583-4 0  9992
#TLE: 2 57490  98.7038  84.7621 0001189 116.6105 243.5193 14.19902966126697

#Time	Az	El	Level	Level2	SNR	BER	Gain	Gain2
2026-01-13 19:20:27.15	189.82	67.70	-38.9	-41.3	3.3	8383861	95	6503
2026-01-13 19:20:27.35	189.94	67.78	-39.0	-48.9	3.6	7883491	82	15396
2026-01-13 19:20:27.55	190.06	67.86	-38.7	-42.2	3.5	8439765	94	7404
2026-01-13 19:20:27.75	190.18	67.94	-38.7	-41.5	3.3	8431343	94	6811
2026-01-13 19:20:27.95	190.30	68.03	-38.7	-41.4	3.3	8395145	94	6715
2026-01-13 19:20:28.15	190.42	68.11	-38.7	-42.8	3.6	8397583	94	7898
2026-01-13 19:20:28.35	190.54	68.19	-38.7	-42.6	3.6	8446781	94	7700
2026-01-13 19:20:28.55	190.66	68.27	-38.7	-41.6	3.4	8425529	94	6877
2026-01-13 19:20:28.75	190.79	68.35	-38.7	-41.3	3.3	8425529	94	6673
2026-01-13 19:20:28.96	190.92	68.43	-38.7	-42.8	3.6	8402389	94	7913
2026-01-13 19:20:29.16	191.05	68.51	-38.7	-42.8	3.6	8402011	94	7880
2026-01-13 19:20:29.36	191.17	68.59	-38.7	-41.7	3.4	8440658	94	7001
2026-01-13 19:20:29.56	191.30	68.67	-38.7	-41.3	3.3	8402435	94	6645
2026-01-13 19:20:29.76	191.43	68.75	-38.7	-41.3	3.3	8385715	94	6628
2026-01-13 19:20:29.96	191.56	68.84	-38.7	-42.8	3.6	8410503	94	7898
2026-01-13 19:20:30.16	191.69	68.92	-39.0	-42.2	3.5	8380702	95	7097
2026-01-13 19:20:30.36	191.83	69.00	-39.0	-41.4	3.3	8394985	95	6478
2026-01-13 19:20:30.56	191.96	69.08	-39.0	-41.3	3.3	8394985	95	6423
2026-01-13 19:20:30.76	192.09	69.16	-38.9	-42.6	3.6	8382579	95	7590
2026-01-13 19:20:30.96	192.23	69.24	-38.8	-42.4	3.6	8377807	95	7385
2026-01-13 19:20:31.17	192.37	69.32	-38.8	-41.4	3.3	8381938	95	6601
2026-01-13 19:20:31.37	192.51	69.40	-38.8	-41.2	3.3	8402046	95	6489
2026-01-13 19:20:31.57	192.65	69.48	-38.8	-41.8	3.6	8386299	96	7011
2026-01-13 19:20:31.77	192.79	69.56	-38.8	-42.4	3.6	8380348	95	7424
2026-01-13 19:20:31.97	192.93	69.64	-38.7	-41.2	3.4	8438964	95	6563
2026-01-13 19:20:32.17	193.08	69.72	-38.7	-40.6	3.3	8438964	95	6112
2026-01-13 19:20:32.37	193.22	69.80	-38.6	-40.3	3.3	8394275	95	5976
2026-01-13 19:20:32.57	193.36	69.88	-38.6	-41.7	3.6	8401897	95	7022
2026-01-13 19:20:32.77	193.51	69.96	-38.6	-40.8	3.4	8441974	95	6331
2026-01-13 19:20:32.97	193.66	70.04	-38.6	-40.2	3.3	8420368	95	5920
2026-01-13 19:20:33.17	193.81	70.12	-38.5	-40.1	3.3	8397068	95	5897
2026-01-13 19:20:33.38	193.97	70.21	-38.6	-41.5	3.6	8399883	95	6942
2026-01-13 19:20:33.58	194.12	70.29	-38.6	-41.2	3.5	8401405	95	6630
2026-01-13 19:20:33.78	194.27	70.37	-38.6	-40.2	3.3	8401405	95	5914
2026-01-13 19:20:33.98	194.42	70.45	-38.5	-39.9	3.3	8421054	95	5773
2026-01-13 19:20:34.18	194.58	70.52	-38.5	-41.3	3.6	8391014	95	6793
2026-01-13 19:20:34.38	194.74	70.60	-38.5	-41.3	3.6	8357837	95	6785
2026-01-13 19:20:34.58	194.89	70.68	-38.5	-40.3	3.4	8439914	95	5998
2026-01-13 19:20:34.78	195.05	70.76	-38.5	-39.9	3.3	8409141	95	5755
2026-01-13 19:20:34.98	195.22	70.84	-38.5	-41.3	3.6	8371330	95	6799
2026-01-13 19:20:35.18	195.38	70.92	-38.5	-41.2	3.6	8438381	95	6729
2026-01-13 19:20:35.38	195.54	71.00	-38.5	-40.1	3.4	8424156	95	5916
2026-01-13 19:20:35.59	195.72	71.08	-38.5	-39.7	3.3	8424156	95	5645
2026-01-13 19:20:35.79	195.88	71.16	-38.5	-39.7	3.3	8401840	95	5689
2026-01-13 19:20:35.99	196.05	71.24	-38.6	-41.3	3.6	8396987	95	6755
2026-01-13 19:20:36.19	196.22	71.32	-38.5	-40.2	3.4	8440727	95	6020
2026-01-13 19:20:36.39	196.39	71.40	-38.5	-39.7	3.3	8424030	95	5678
2026-01-13 19:20:36.59	196.56	71.48	-38.4	-39.5	3.3	8402194	95	5554
2026-01-13 19:20:36.79	196.74	71.55	-38.4	-40.8	3.6	8412220	95	6516
2026-01-13 19:20:36.99	196.92	71.63	-38.4	-40.2	3.5	8450111	95	6071
2026-01-13 19:20:37.19	197.09	71.71	-38.4	-39.5	3.3	8406921	95	5575
2026-01-13 19:20:37.39	197.27	71.79	-38.3	-39.3	3.4	8382923	95	5488
2026-01-13 19:20:37.60	197.46	71.87	-38.3	-40.7	3.6	8382923	95	6458
2026-01-13 19:20:37.80	197.64	71.95	-38.3	-40.1	3.5	8417942	95	6045
2026-01-13 19:20:38.00	197.83	72.03	-38.3	-39.4	3.4	8433208	95	5570
2026-01-13 19:20:38.20	198.02	72.10	-38.0	-38.9	3.3	8395843	94	5502
2026-01-13 19:20:38.40	198.20	72.18	-38.0	-40.6	3.6	8388519	94	6625
2026-01-13 19:20:38.60	198.39	72.26	-38.1	-40.4	3.6	8439868	94	6455
2026-01-13 19:20:38.80	198.58	72.34	-38.1	-39.6	3.4	8420288	94	5862
2026-01-13 19:20:39.00	198.78	72.41	-38.0	-39.2	3.4	8391014	94	5622
2026-01-13 19:20:39.20	198.97	72.49	-38.1	-40.7	3.6	8391014	94	6639
2026-01-13 19:20:39.40	199.17	72.57	-38.0	-40.5	3.6	8391185	94	6538
2026-01-13 19:20:39.60	199.37	72.64	-38.0	-39.4	3.4	8437133	94	5821
2026-01-13 19:20:39.81	199.58	72.72	-37.9	-38.7	3.4	8401691	94	5429
2026-01-13 19:20:40.01	199.78	72.80	-37.8	-38.6	3.4	8386344	94	5378
2026-01-13 19:20:40.21	199.98	72.88	-38.0	-40.3	3.6	8413673	94	6484
2026-01-13 19:20:40.41	200.19	72.95	-38.0	-39.5	3.6	8425563	94	5907
2026-01-13 19:20:40.61	200.40	73.03	-37.9	-38.8	3.5	8397537	94	5463
2026-01-13 19:20:40.81	200.60	73.10	-37.9	-38.8	3.4	8388679	94	5460
2026-01-13 19:20:41.01	200.82	73.18	-37.9	-40.0	3.6	8388679	94	6314
2026-01-13 19:20:41.21	201.03	73.26	-37.8	-39.2	3.7	8415779	94	5792
2026-01-13 19:20:41.41	201.25	73.33	-37.8	-38.5	3.5	8422016	94	5313
2026-01-13 19:20:41.61	201.46	73.41	-37.8	-38.3	3.5	8383380	94	5238
2026-01-13 19:20:41.82	201.69	73.48	-37.8	-39.7	3.6	8379089	94	6151
2026-01-13 19:20:42.02	201.92	73.56	-37.8	-39.3	3.8	8426902	94	5906
2026-01-13 19:20:42.22	202.14	73.63	-37.9	-38.8	3.5	8416133	94	5463
2026-01-13 19:20:42.42	202.37	73.71	-37.9	-38.4	3.5	8382797	94	5252
2026-01-13 19:20:42.62	202.60	73.78	-37.9	-39.8	3.6	8382797	94	6175
2026-01-13 19:20:42.82	202.83	73.86	-37.8	-39.8	3.6	8398796	94	6146
2026-01-13 19:20:43.02	203.06	73.93	-38.0	-39.2	3.6	8434020	94	5626
2026-01-13 19:20:43.22	203.29	74.00	-38.1	-39.0	3.4	8386070	94	5463
2026-01-13 19:20:43.42	203.53	74.08	-38.3	-39.7	3.4	8383621	94	5792
2026-01-13 19:20:43.63	203.78	74.15	-38.4	-41.4	3.6	8412059	94	6972
2026-01-13 19:20:43.83	204.02	74.23	-38.5	-40.9	3.4	8438152	94	6542
2026-01-13 19:20:44.03	204.27	74.30	-38.5	-40.5	3.3	8409244	94	6180
2026-01-13 19:20:44.23	204.52	74.37	-38.5	-40.3	3.3	8394596	94	6070
2026-01-13 19:20:44.43	204.76	74.44	-38.4	-41.4	3.6	8394596	94	6972
2026-01-13 19:20:44.63	205.02	74.51	-38.7	-41.0	3.5	8423515	95	6441
2026-01-13 19:20:44.83	205.27	74.59	-38.5	-39.7	3.4	8379890	95	5599
2026-01-13 19:20:45.03	205.53	74.66	-38.4	-39.3	3.3	8408031	95	5419
2026-01-13 19:20:45.23	205.78	74.73	-38.3	-40.3	3.6	8393085	95	6193
2026-01-13 19:20:45.43	206.05	74.80	-38.1	-40.2	3.6	8378986	94	6316
2026-01-13 19:20:45.63	206.31	74.87	-38.0	-39.0	3.5	8416374	94	5525
2026-01-13 19:20:45.84	206.59	74.94	-38.0	-38.7	3.4	8384960	94	5332
2026-01-13 19:20:46.04	206.86	75.01	-38.0	-40.2	3.6	8384960	94	6308
2026-01-13 19:20:46.24	207.13	75.08	-38.0	-39.9	3.6	8384262	94	6175
2026-01-13 19:20:46.44	207.40	75.15	-37.9	-38.8	3.6	8429809	94	5429
2026-01-13 19:20:46.64	207.68	75.22	-37.9	-38.3	3.5	8408340	94	5148
2026-01-13 19:20:46.84	207.96	75.29	-37.8	-38.4	3.5	8387020	93	5239
2026-01-13 19:20:47.04	208.24	75.36	-37.8	-39.8	3.6	8389709	93	6178
2026-01-13 19:20:47.24	208.53	75.43	-37.7	-38.7	3.7	8412975	93	5498
2026-01-13 19:20:47.44	208.82	75.50	-37.6	-37.8	3.7	8366992	93	5044
2026-01-13 19:20:47.64	209.11	75.56	-37.7	-38.0	3.6	8357700	93	5122
2026-01-13 19:20:47.85	209.42	75.63	-37.7	-39.5	3.7	8410388	93	6071
2026-01-13 19:20:48.05	209.71	75.70	-37.8	-38.9	3.7	8410388	93	5620
2026-01-13 19:20:48.25	210.01	75.77	-37.9	-38.8	3.5	8409198	93	5434
2026-01-13 19:20:48.45	210.31	75.83	-37.8	-38.4	3.6	8388645	93	5283
2026-01-13 19:20:48.65	210.62	75.90	-37.7	-39.6	3.7	8377075	93	6131
2026-01-13 19:20:48.85	210.93	75.97	-37.8	-39.1	3.8	8416442	93	5759
2026-01-13 19:20:49.05	211.24	76.03	-37.7	-38.3	3.7	8395797	93	5268
2026-01-13 19:20:49.25	211.55	76.10	-37.8	-38.5	3.6	8370483	93	5308
2026-01-13 19:20:49.45	211.87	76.16	-37.8	-39.7	3.6	8388702	93	6163
2026-01-13 19:20:49.66	212.21	76.23	-38.0	-40.2	3.7	8428024	93	6351
2026-01-13 19:20:49.86	212.53	76.29	-38.1	-39.5	3.5	8428024	93	5779
2026-01-13 19:20:50.06	212.86	76.35	-38.1	-39.5	3.5	8409404	93	5760
2026-01-13 19:20:50.26	213.19	76.42	-38.2	-41.2	3.6	8382820	93	6921
2026-01-13 19:20:50.46	213.52	76.48	-38.1	-40.8	3.6	8409152	93	6696
2026-01-13 19:20:50.66	213.85	76.54	-38.0	-39.5	3.6	8409336	93	5853
2026-01-13 19:20:50.86	214.19	76.60	-38.0	-39.0	3.5	8379375	93	5565
2026-01-13 19:20:51.06	214.54	76.66	-38.0	-39.0	3.6	8382991	93	5557
2026-01-13 19:20:51.26	214.88	76.72	-38.0	-40.6	3.6	8417518	93	6620
2026-01-13 19:20:51.46	215.23	76.78	-38.1	-40.0	3.6	8417518	93	6096
2026-01-13 19:20:51.67	215.60	76.85	-38.2	-39.7	3.5	8420677	93	5890
2026-01-13 19:20:51.87	215.96	76.91	-38.3	-40.0	3.4	8393005	93	5997
2026-01-13 19:20:52.07	216.31	76.97	-38.3	-41.4	3.6	8381996	93	7002
2026-01-13 19:20:52.27	216.68	77.02	-38.3	-40.9	3.6	8430084	93	6591
2026-01-13 19:20:52.47	217.04	77.08	-38.4	-40.5	3.4	8427864	93	6208
2026-01-13 19:20:52.67	217.41	77.14	-38.4	-40.1	3.4	8393966	93	6003
2026-01-13 19:20:52.87	217.78	77.20	-38.3	-41.3	3.6	8400386	93	6962
2026-01-13 19:20:53.07	218.16	77.25	-38.2	-40.8	3.7	8422634	93	6629
2026-01-13 19:20:53.27	218.54	77.31	-38.0	-39.3	3.6	8422634	93	5688
2026-01-13 19:20:53.47	218.92	77.36	-38.0	-39.0	3.6	8390739	93	5528
2026-01-13 19:20:53.68	219.33	77.42	-38.0	-40.5	3.7	8375438	93	6519
2026-01-13 19:20:53.88	219.71	77.48	-38.0	-40.6	3.6	8395076	93	6606
2026-01-13 19:20:54.08	220.11	77.53	-38.0	-39.6	3.6	8423870	93	5878
2026-01-13 19:20:54.28	220.50	77.58	-38.1	-39.5	3.5	8389640	93	5776
2026-01-13 19:20:54.48	220.90	77.64	-38.3	-39.9	3.5	8374111	93	5959
2026-01-13 19:20:54.68	221.31	77.69	-38.4	-41.7	3.6	8438472	93	7178
2026-01-13 19:20:54.88	221.71	77.74	-38.3	-40.7	3.6	8438472	93	6523
2026-01-13 19:20:55.08	222.12	77.79	-38.3	-40.0	3.4	8431114	93	6032
2026-01-13 19:20:55.28	222.54	77.84	-38.3	-40.1	3.4	8393749	93	6039
2026-01-13 19:20:55.48	222.96	77.89	-38.3	-41.4	3.6	8391780	93	7049
2026-01-13 19:20:55.68	223.38	77.94	-38.3	-40.8	3.6	8430908	93	6605
2026-01-13 19:20:55.89	223.82	77.99	-38.3	-40.1	3.5	8401702	93	6098
2026-01-13 19:20:56.09	224.25	78.04	-38.3	-40.3	3.5	8390384	93	6134
2026-01-13 19:20:56.29	224.68	78.08	-38.4	-41.9	3.6	8392971	93	7340
2026-01-13 19:20:56.49	225.12	78.13	-38.3	-41.1	3.7	8392971	93	6842
2026-01-13 19:20:56.69	225.55	78.18	-38.4	-40.5	3.5	8427474	93	6300
2026-01-13 19:20:56.89	226.00	78.22	-38.3	-40.1	3.5	8392696	93	6071
2026-01-13 19:20:57.09	226.44	78.27	-38.2	-41.3	3.6	8385486	93	6983
2026-01-13 19:20:57.29	226.89	78.31	-38.3	-41.4	3.6	8410102	93	7037
2026-01-13 19:20:57.49	227.34	78.35	-38.2	-39.8	3.6	8414199	93	5951
2026-01-13 19:20:57.69	227.80	78.39	-38.1	-39.3	3.6	8378665	93	5695
2026-01-13 19:20:57.90	228.28	78.44	-38.0	-40.7	3.7	8380176	93	6642
2026-01-13 19:20:58.10	228.74	78.48	-38.1	-40.8	3.7	8414554	93	6703
2026-01-13 19:20:58.30	229.21	78.52	-38.1	-39.7	3.7	8400764	93	5930
2026-01-13 19:20:58.50	229.68	78.56	-38.0	-38.9	3.7	8377098	93	5494
2026-01-13 19:20:58.70	230.15	78.60	-37.8	-38.5	3.8	8377098	93	5337
2026-01-13 19:20:58.90	230.63	78.64	-37.6	-37.9	3.9	8337055	93	5104
2026-01-13 19:20:59.10	231.10	78.67	-37.4	-37.4	4.1	8309143	93	4903
2026-01-13 19:20:59.30	231.59	78.71	-37.4	-37.3	4.1	8235202	93	4908
2026-01-13 19:20:59.50	232.07	78.75	-37.4	-37.5	4.1	8203742	93	4963
2026-01-13 19:20:59.70	232.56	78.78	-37.5	-37.7	4.0	8250514	93	5024
2026-01-13 19:20:59.90	233.05	78.81	-37.7	-38.3	3.8	8278003	93	5266
2026-01-13 19:21:00.11	233.57	78.85	-37.7	-38.1	3.9	8324707	93	5190
2026-01-13 19:21:00.31	234.07	78.88	-37.7	-38.3	3.8	8324707	93	5256
2026-01-13 19:21:00.51	234.57	78.91	-37.6	-38.0	3.9	8312152	93	5142
2026-01-13 19:21:00.71	235.07	78.94	-37.6	-37.9	3.9	8299118	93	5100
2026-01-13 19:21:00.91	235.58	78.97	-37.7	-38.2	3.9	8294780	93	5216
2026-01-13 19:21:01.11	236.09	79.00	-37.7	-38.3	3.8	8306476	93	5279
2026-01-13 19:21:01.31	236.60	79.03	-37.8	-39.9	3.7	8339160	93	6301
2026-01-13 19:21:01.51	237.11	79.06	-37.9	-39.8	3.8	8413970	93	6107
2026-01-13 19:21:01.71	237.63	79.08	-38.1	-39.4	3.6	8374328	93	5776
2026-01-13 19:21:01.91	238.15	79.11	-38.0	-39.3	3.6	8374328	93	5700
2026-01-13 19:21:02.11	238.67	79.14	-37.8	-38.7	3.7	8352378	93	5458
2026-01-13 19:21:02.31	239.19	79.16	-37.7	-38.3	3.8	8354438	93	5262
2026-01-13 19:21:02.52	239.75	79.18	-37.8	-38.4	3.8	8342651	93	5316
2026-01-13 19:21:02.72	240.28	79.21	-37.9	-38.8	3.7	8310791	93	5448
2026-01-13 19:21:02.92	240.81	79.23	-38.0	-40.4	3.7	8362289	93	6533
2026-01-13 19:21:03.12	241.34	79.25	-38.1	-40.1	3.7	8409931	93	6199
2026-01-13 19:21:03.32	241.88	79.27	-38.2	-39.9	3.5	8386997	93	5925
2026-01-13 19:21:03.52	242.41	79.28	-38.2	-39.7	3.5	8377876	93	5834
2026-01-13 19:21:03.72	242.95	79.30	-38.1	-40.8	3.7	8377876	93	6704
2026-01-13 19:21:03.92	243.49	79.32	-38.0	-40.0	3.8	8409919	93	6182
2026-01-13 19:21:04.12	244.03	79.33	-38.1	-39.6	3.6	8404895	93	5829
2026-01-13 19:21:04.32	244.58	79.35	-38.1	-39.5	3.6	8372051	93	5733
2026-01-13 19:21:04.53	245.15	79.36	-38.2	-41.1	3.7	8383277	93	6853
2026-01-13 19:21:04.73	245.70	79.38	-38.2	-40.9	3.8	8417919	93	6711
2026-01-13 19:21:04.93	246.24	79.39	-38.2	-40.0	3.6	8399654	93	6028
2026-01-13 19:21:05.13	246.79	79.40	-38.3	-40.0	3.5	8380554	93	5960
2026-01-13 19:21:05.33	247.34	79.41	-38.4	-41.7	3.6	8380554	93	7177
2026-01-13 19:21:05.53	247.90	79.42	-38.4	-41.5	3.6	8382316	93	7085
2026-01-13 19:21:05.73	248.45	79.43	-38.3	-40.5	3.6	8421421	93	6280
2026-01-13 19:21:05.93	249.00	79.43	-38.4	-40.3	3.5	8407161	93	6149
2026-01-13 19:21:06.13	249.55	79.44	-38.4	-40.4	3.5	8379283	93	6193
2026-01-13 19:21:06.33	250.11	79.44	-38.4	-41.5	3.6	8401954	94	6974
2026-01-13 19:21:06.54	250.69	79.45	-38.5	-40.8	3.5	8434673	94	6412
2026-01-13 19:21:06.74	251.25	79.45	-38.3	-39.6	3.4	8394630	94	5735
2026-01-13 19:21:06.94	251.80	79.45	-38.3	-39.6	3.5	8397880	94	5701
2026-01-13 19:21:07.14	252.36	79.46	-38.3	-41.1	3.6	8397880	94	6774
2026-01-13 19:21:07.34	252.91	79.46	-38.3	-40.3	3.7	8426158	94	6234
2026-01-13 19:21:07.54	253.47	79.45	-38.2	-39.5	3.6	8418800	94	5699
2026-01-13 19:21:07.74	254.03	79.45	-38.2	-39.2	3.5	8389984	94	5533
2026-01-13 19:21:07.94	254.58	79.45	-38.2	-40.5	3.6	8363353	94	6472
2026-01-13 19:21:08.14	255.14	79.45	-37.9	-39.4	3.9	8420402	94	5851
2026-01-13 19:21:08.34	255.69	79.44	-38.0	-38.6	3.7	8377407	94	5272
2026-01-13 19:21:08.55	256.27	79.44	-38.0	-38.7	3.6	8354232	94	5344
2026-01-13 19:21:08.75	256.83	79.43	-38.2	-39.3	3.5	8358249	94	5573
2026-01-13 19:21:08.95	257.38	79.42	-38.4	-39.6	3.5	8378482	94	5705
2026-01-13 19:21:09.15	257.93	79.41	-38.5	-40.1	3.4	8378482	94	5901
2026-01-13 19:21:09.35	258.48	79.40	-38.5	-41.7	3.6	8383850	94	7052
2026-01-13 19:21:09.55	259.03	79.39	-38.6	-41.5	3.6	8412837	94	6913
2026-01-13 19:21:09.75	259.58	79.38	-38.6	-40.8	3.4	8427028	94	6342
2026-01-13 19:21:09.95	260.13	79.37	-38.6	-40.5	3.4	8407550	94	6097
2026-01-13 19:21:10.15	260.67	79.36	-38.5	-41.7	3.6	8373458	94	7062
2026-01-13 19:21:10.35	261.22	79.34	-38.5	-41.6	3.6	8429569	94	7036
2026-01-13 19:21:10.56	261.79	79.33	-38.5	-40.4	3.5	8427120	94	6151
2026-01-13 19:21:10.76	262.33	79.31	-38.5	-40.3	3.4	8427120	94	6004
2026-01-13 19:21:10.96	262.87	79.29	-38.5	-40.2	3.4	8389194	94	5990
2026-01-13 19:21:11.16	263.41	79.28	-38.6	-41.9	3.6	8394653	94	7235
2026-01-13 19:21:11.36	263.94	79.26	-38.7	-41.5	3.5	8451953	94	6782
2026-01-13 19:21:11.56	264.48	79.24	-38.6	-40.7	3.3	8412254	94	6244
2026-01-13 19:21:11.76	265.01	79.22	-38.6	-40.7	3.4	8385520	94	6216
2026-01-13 19:21:11.96	265.54	79.19	-38.5	-41.8	3.6	8400501	94	7142
2026-01-13 19:21:12.16	266.06	79.17	-38.5	-41.3	3.5	8435874	94	6762
2026-01-13 19:21:12.37	266.62	79.15	-38.3	-39.7	3.5	8401531	94	5788
2026-01-13 19:21:12.57	267.14	79.12	-38.3	-39.7	3.5	8401531	94	5777
2026-01-13 19:21:12.77	267.66	79.10	-38.3	-40.9	3.6	8388244	94	6669
2026-01-13 19:21:12.97	268.18	79.07	-38.3	-40.6	3.7	8402320	94	6477
2026-01-13 19:21:13.17	268.69	79.04	-38.2	-39.6	3.6	8421718	94	5798
2026-01-13 19:21:13.37	269.21	79.02	-38.3	-39.7	3.5	8386642	94	5782
2026-01-13 19:21:13.57	269.72	78.99	-38.2	-40.8	3.6	8370437	94	6632
2026-01-13 19:21:13.77	270.22	78.96	-38.3	-40.9	3.6	8425792	94	6697
2026-01-13 19:21:13.97	270.73	78.93	-38.3	-40.1	3.6	8405960	94	6029
2026-01-13 19:21:14.17	271.23	78.90	-38.4	-39.9	3.5	8405960	94	5882
2026-01-13 19:21:14.37	271.73	78.87	-38.5	-40.2	3.4	8387020	94	5989
2026-01-13 19:21:14.58	272.25	78.83	-38.5	-41.6	3.6	8387844	94	7061
2026-01-13 19:21:14.78	272.74	78.80	-38.4	-40.6	3.5	8440200	94	6331
2026-01-13 19:21:14.98	273.23	78.76	-38.4	-40.0	3.4	8416797	94	5895
2026-01-13 19:21:15.18	273.72	78.73	-38.5	-40.2	3.4	8394252	94	5992
2026-01-13 19:21:15.38	274.20	78.69	-38.5	-41.6	3.6	8417633	94	7032
2026-01-13 19:21:15.58	274.68	78.65	-38.6	-41.5	3.5	8429088	94	6825
2026-01-13 19:21:15.78	275.16	78.62	-38.6	-40.8	3.4	8429088	94	6320
2026-01-13 19:21:15.98	275.63	78.58	-38.8	-41.2	3.3	8408969	94	6479
2026-01-13 19:21:16.18	276.10	78.54	-38.6	-42.1	3.6	8389995	94	7343
2026-01-13 19:21:16.38	276.57	78.50	-38.7	-42.2	3.6	8422897	94	7306
2026-01-13 19:21:16.58	277.03	78.46	-38.6	-40.7	3.4	8444721	94	6283
2026-01-13 19:21:16.79	277.52	78.42	-38.6	-40.7	3.3	8396862	94	6212
2026-01-13 19:21:16.99	277.97	78.37	-38.7	-42.4	3.6	8394527	94	7508
2026-01-13 19:21:17.19	278.43	78.33	-38.8	-42.7	3.6	8428115	94	7701
2026-01-13 19:21:17.39	278.88	78.29	-39.1	-41.7	3.4	8376022	95	6678
2026-01-13 19:21:17.59	279.32	78.24	-39.1	-41.5	3.3	8376022	95	6458
2026-01-13 19:21:17.79	279.77	78.20	-39.1	-41.3	3.3	8397811	95	6369
2026-01-13 19:21:17.99	280.21	78.15	-39.0	-42.6	3.6	8354438	95	7413
2026-01-13 19:21:18.19	280.64	78.11	-38.9	-41.5	3.5	8436275	95	6598
2026-01-13 19:21:18.39	281.08	78.06	-38.9	-40.7	3.3	8415241	95	6068
2026-01-13 19:21:18.60	281.53	78.01	-39.0	-41.0	3.3	8394275	95	6197
2026-01-13 19:21:18.80	281.95	77.96	-39.1	-42.8	3.6	8415710	95	7559
2026-01-13 19:21:19.00	282.38	77.91	-39.1	-42.1	3.4	8447845	95	6939
2026-01-13 19:21:19.20	282.79	77.87	-39.2	-41.6	3.3	8420333	95	6535
2026-01-13 19:21:19.40	283.21	77.82	-39.2	-41.7	3.3	8389560	95	6546
2026-01-13 19:21:19.60	283.62	77.77	-39.0	-42.5	3.6	8389560	95	7341
2026-01-13 19:21:19.80	284.03	77.71	-38.9	-41.6	3.5	8437717	95	6710
2026-01-13 19:21:20.00	284.44	77.66	-38.8	-40.3	3.3	8433254	95	5863
2026-01-13 19:21:20.20	284.84	77.61	-38.9	-40.5	3.3	8404747	95	5950
2026-01-13 19:21:20.40	285.23	77.56	-38.7	-41.6	3.6	8391025	95	6821
2026-01-13 19:21:20.60	285.63	77.50	-38.7	-41.2	3.6	8425128	95	6543
2026-01-13 19:21:20.81	286.04	77.45	-38.8	-40.6	3.4	8423149	95	6026
2026-01-13 19:21:21.01	286.43	77.39	-39.0	-40.7	3.3	8380828	95	5996
2026-01-13 19:21:21.21	286.81	77.34	-39.0	-42.2	3.6	8399059	95	7130
2026-01-13 19:21:21.41	287.19	77.28	-39.0	-42.2	3.6	8399059	95	7125
2026-01-13 19:21:21.61	287.57	77.23	-39.0	-41.1	3.4	8395992	95	6312
2026-01-13 19:21:21.81	287.94	77.17	-39.0	-40.8	3.3	8400821	95	6070
2026-01-13 19:21:22.01	288.31	77.11	-39.0	-40.7	3.3	8397834	95	6000
2026-01-13 19:21:22.21	288.68	77.05	-39.1	-42.1	3.6	8351303	96	6963
2026-01-13 19:21:22.41	289.04	77.00	-39.1	-41.5	3.4	8437076	96	6467
2026-01-13 19:21:22.62	289.42	76.94	-39.2	-40.9	3.3	8421501	96	6015
2026-01-13 19:21:22.82	289.78	76.88	-39.2	-40.9	3.3	8385669	96	5986
2026-01-13 19:21:23.02	290.13	76.82	-39.2	-42.4	3.6	8385669	96	7134
2026-01-13 19:21:23.22	290.48	76.76	-39.2	-42.0	3.5	8448337	96	6750
2026-01-13 19:21:23.42	290.83	76.70	-39.2	-41.0	3.3	8444423	96	6047
2026-01-13 19:21:23.62	291.17	76.64	-39.2	-40.9	3.3	8411258	96	6006
2026-01-13 19:21:23.82	291.51	76.57	-39.1	-42.0	3.6	8400592	96	6865
2026-01-13 19:21:24.02	291.85	76.51	-39.1	-41.9	3.6	8451656	96	6837
2026-01-13 19:21:24.22	292.18	76.45	-38.9	-40.1	3.4	8368652	96	5689
2026-01-13 19:21:24.42	292.52	76.39	-38.9	-39.8	3.3	8384342	96	5473
2026-01-13 19:21:24.62	292.84	76.32	-38.9	-41.4	3.6	8384342	96	6533
2026-01-13 19:21:24.83	293.18	76.26	-39.0	-41.6	3.6	8357265	96	6643
2026-01-13 19:21:25.03	293.51	76.19	-39.0	-40.7	3.4	8446941	96	6021
2026-01-13 19:21:25.23	293.82	76.13	-39.1	-40.5	3.3	8432579	96	5829
2026-01-13 19:21:25.43	294.14	76.07	-39.1	-40.6	3.3	8393177	96	5841
2026-01-13 19:21:25.63	294.45	76.00	-39.1	-42.0	3.6	8416156	96	6892
2026-01-13 19:21:25.83	294.76	75.94	-39.0	-41.1	3.4	8447628	96	6269
2026-01-13 19:21:26.03	295.07	75.87	-39.1	-40.7	3.3	8408134	96	5901
2026-01-13 19:21:26.23	295.37	75.80	-39.1	-40.9	3.3	8396232	96	5993
2026-01-13 19:21:26.43	295.67	75.74	-39.2	-42.5	3.6	8396232	96	7161
2026-01-13 19:21:26.63	295.97	75.67	-39.2	-42.0	3.5	8430770	96	6804
2026-01-13 19:21:26.83	296.27	75.60	-39.3	-41.5	3.3	8428276	96	6328
2026-01-13 19:21:27.04	296.57	75.53	-39.3	-41.5	3.3	8394985	96	6310
2026-01-13 19:21:27.24	296.86	75.47	-39.3	-43.0	3.6	8385841	96	7511
2026-01-13 19:21:27.44	297.15	75.40	-39.3	-42.8	3.6	8437362	96	7311
2026-01-13 19:21:27.64	297.43	75.33	-39.3	-41.7	3.4	8429489	96	6496
2026-01-13 19:21:27.84	297.71	75.26	-39.3	-41.4	3.3	8396930	96	6295
2026-01-13 19:21:28.04	297.99	75.19	-39.2	-42.7	3.6	8396930	96	7394
2026-01-13 19:21:28.24	298.27	75.12	-39.2	-42.7	3.6	8399105	96	7352
2026-01-13 19:21:28.44	298.54	75.05	-39.2	-41.6	3.4	8445568	96	6533
2026-01-13 19:21:28.64	298.81	74.98	-39.1	-41.0	3.3	8407894	96	6148
2026-01-13 19:21:28.84	299.08	74.91	-39.0	-40.8	3.3	8388965	96	6037
2026-01-13 19:21:29.04	299.34	74.84	-39.0	-42.2	3.6	8413261	96	7108
2026-01-13 19:21:29.24	299.60	74.77	-39.0	-41.1	3.4	8434478	96	6267
2026-01-13 19:21:29.45	299.88	74.70	-38.9	-40.6	3.3	8401748	96	5953
2026-01-13 19:21:29.65	300.13	74.63	-39.0	-40.7	3.3	8387969	96	6029
2026-01-13 19:21:29.85	300.39	74.56	-38.9	-41.8	3.6	8429992	96	6896
2026-01-13 19:21:30.05	300.64	74.48	-38.8	-40.6	3.4	8429992	96	6049
2026-01-13 19:21:30.25	300.89	74.41	-38.7	-40.2	3.3	8429260	95	5877
2026-01-13 19:21:30.45	301.14	74.34	-38.7	-40.3	3.3	8397857	95	5867
2026-01-13 19:21:30.65	301.39	74.27	-38.8	-41.9	3.6	8383872	95	7063
2026-01-13 19:21:30.85	301.63	74.20	-38.8	-41.5	3.5	8432613	95	6675
2026-01-13 19:21:31.05	301.87	74.12	-38.9	-40.9	3.3	8409622	95	6245
2026-01-13 19:21:31.26	302.12	74.05	-38.9	-41.1	3.3	8383792	95	6303
2026-01-13 19:21:31.46	302.36	73.97	-38.9	-42.5	3.6	8408248	95	7445
2026-01-13 19:21:31.66	302.59	73.90	-38.9	-42.3	3.6	8444709	95	7235
2026-01-13 19:21:31.86	302.82	73.83	-38.9	-41.2	3.4	8444709	95	6404
2026-01-13 19:21:32.06	303.05	73.75	-38.9	-41.0	3.3	8421443	95	6218
2026-01-13 19:21:32.26	303.28	73.68	-38.8	-42.2	3.6	8384971	95	7220
2026-01-13 19:21:32.46	303.50	73.60	-38.8	-41.9	3.6	8418937	95	7049
2026-01-13 19:21:32.66	303.72	73.53	-38.7	-40.8	3.4	8436172	95	6242
2026-01-13 19:21:32.86	303.95	73.45	-38.7	-40.3	3.3	8399162	95	5927
2026-01-13 19:21:33.06	304.16	73.38	-38.7	-40.3	3.3	8396656	95	5897
2026-01-13 19:21:33.27	304.39	73.30	-38.6	-41.4	3.6	8428596	95	6758
2026-01-13 19:21:33.47	304.61	73.23	-38.5	-40.1	3.5	8428596	95	5943
2026-01-13 19:21:33.67	304.82	73.15	-38.4	-39.2	3.4	8431011	95	5411
2026-01-13 19:21:33.87	305.03	73.07	-38.4	-39.3	3.4	8400753	95	5455
2026-01-13 19:21:34.07	305.24	73.00	-38.5	-40.8	3.6	8389263	95	6462
2026-01-13 19:21:34.27	305.45	72.92	-38.6	-40.8	3.5	8435279	95	6326
2026-01-13 19:21:34.47	305.65	72.85	-38.7	-40.3	3.4	8436733	95	5879
2026-01-13 19:21:34.67	305.85	72.77	-38.7	-40.2	3.3	8394721	95	5848
2026-01-13 19:21:34.87	306.05	72.69	-38.6	-41.4	3.6	8402492	95	6781
2026-01-13 19:21:35.07	306.25	72.62	-38.6	-41.0	3.6	8439479	95	6526
2026-01-13 19:21:35.28	306.46	72.54	-38.5	-39.9	3.4	8439479	95	5749
2026-01-13 19:21:35.48	306.66	72.46	-38.5	-39.6	3.3	8411956	95	5594
2026-01-13 19:21:35.68	306.85	72.38	-38.4	-40.9	3.6	8401359	95	6511
2026-01-13 19:21:35.88	307.04	72.31	-38.4	-40.8	3.6	8418445	95	6487
2026-01-13 19:21:36.08	307.23	72.23	-38.4	-39.8	3.5	8432521	95	5746
2026-01-13 19:21:36.28	307.42	72.15	-38.4	-39.2	3.4	8402629	95	5420
2026-01-13 19:21:36.48	307.61	72.07	-38.4	-39.3	3.4	8373184	95	5493
2026-01-13 19:21:36.68	307.79	72.00	-38.3	-40.6	3.6	8418262	95	6370
2026-01-13 19:21:36.88	307.97	71.92	-37.9	-39.3	3.6	8418262	94	5772
2026-01-13 19:21:37.08	308.16	71.84	-37.9	-38.7	3.5	8433689	94	5390
2026-01-13 19:21:37.28	308.34	71.76	-37.9	-38.6	3.5	8387317	94	5350
2026-01-13 19:21:37.49	308.52	71.68	-37.9	-40.2	3.6	8376594	94	6380
2026-01-13 19:21:37.69	308.70	71.60	-37.8	-39.1	3.7	8430576	94	5729
2026-01-13 19:21:37.89	308.88	71.53	-37.8	-39.1	3.6	8406681	93	5696
2026-01-13 19:21:38.09	309.05	71.45	-37.7	-38.7	3.6	8377967	93	5511
2026-01-13 19:21:38.29	309.22	71.37	-37.8	-40.2	3.6	8360939	93	6520
2026-01-13 19:21:38.49	309.39	71.29	-37.6	-39.6	3.9	8360939	93	6183
2026-01-13 19:21:38.69	309.56	71.21	-37.8	-39.1	3.6	8414806	93	5738
2026-01-13 19:21:38.89	309.73	71.13	-37.8	-38.8	3.6	8387409	93	5573
2026-01-13 19:21:39.09	309.89	71.05	-37.8	-40.3	3.6	8366695	93	6573
2026-01-13 19:21:39.29	310.06	70.98	-37.8	-40.0	3.8	8397136	93	6359
2026-01-13 19:21:39.50	310.23	70.89	-37.9	-39.3	3.6	8436698	93	5819
2026-01-13 19:21:39.70	310.39	70.81	-37.9	-39.1	3.5	8403785	93	5629
2026-01-13 19:21:39.90	310.55	70.74	-37.8	-40.3	3.7	8384983	93	6533
2026-01-13 19:21:40.10	310.71	70.66	-37.9	-40.6	3.6	8413661	93	6691
2026-01-13 19:21:40.30	310.87	70.58	-37.9	-39.4	3.6	8408809	93	5857
2026-01-13 19:21:40.50	311.03	70.50	-38.4	-40.9	3.3	8386470	93	6541
2026-01-13 19:21:40.70	311.18	70.42	-38.4	-40.5	3.3	8386470	94	6275
2026-01-13 19:21:40.90	311.33	70.34	-38.7	-42.7	3.6	8392341	94	7772

#Closed at: 2026-01-13 19:21:41