passes_logs/2026/01/06/R2M6_AANII_01/R2M6_AANII_01__20260106_024503_NOAA_20_JPSS-1_rec.log

#Pass ID: 20260106_024503_NOAA 20 (JPSS-1)
#Satellite: NOAA 20 (JPSS-1)
#Configuration: NOAA 20
#almurnet v.1.7.20240730
#Start time: 2026-01-06 02:45:05

#Version: 2.2.20231116
#Station: R2M6_AANII_01
#Location: 30.233357 lon 59.946436 lat
#TLE: 1 43013U 17073A   26005.46207808  .00000128  00000+0  81791-4 0  9997
#TLE: 2 43013  98.7627 306.5027 0001826  53.0458 307.0885 14.19533487421381

#Time	Az	El	Level	Level2	SNR	BER	BlckErr	Temp	State	Recorded	gain1	gain2
2026-01-06 02:45:05.22	8.75	7.08	-32.2	-41.4	4.2	1.41e+00	0	41	0	0	24	10364
2026-01-06 02:45:06.23	8.64	7.14	-32.1	-40.7	4.4	1.36e+00	0	41	104	0	24	9681
2026-01-06 02:45:07.23	8.53	7.20	-32.1	-40.6	5.4	4.87e-01	0	41	0	0	24	9571
2026-01-06 02:45:08.24	8.41	7.25	-32.2	-40.7	5.4	5.15e-01	0	41	102	1048576	24	9597
2026-01-06 02:45:09.25	8.30	7.31	-32.2	-40.6	5.5	4.91e-01	0	41	102	1048576	24	9490
2026-01-06 02:45:10.26	8.19	7.37	-32.2	-40.6	5.5	4.91e-01	0	41	102	1048576	24	9516
2026-01-06 02:45:11.26	8.08	7.43	-32.2	-40.5	5.6	4.83e-01	0	41	102	1048576	24	9361
2026-01-06 02:45:12.27	7.96	7.48	-32.0	-39.6	6.1	3.48e-01	0	41	102	1048576	24	8588
2026-01-06 02:45:13.28	7.85	7.54	-31.9	-39.1	6.8	2.43e-01	0	41	102	1048576	23	8318
2026-01-06 02:45:14.29	7.74	7.60	-31.7	-38.4	7.4	1.58e-01	0	41	102	1048576	23	7733
2026-01-06 02:45:15.29	7.62	7.65	-31.6	-37.6	8.1	6.88e-02	0	42	102	1048576	23	7175
2026-01-06 02:45:16.30	7.51	7.71	-31.4	-37.4	8.7	4.71e-02	0	41	102	1048576	22	7147
2026-01-06 02:45:17.31	7.39	7.77	-31.3	-36.9	9.0	3.00e-02	0	42	102	1048576	22	6854
2026-01-06 02:45:18.32	7.27	7.83	-31.3	-36.7	9.2	2.17e-02	0	42	102	1048576	22	6724
2026-01-06 02:45:19.32	7.16	7.88	-31.3	-37.0	8.9	2.48e-02	0	42	102	1048576	22	6950
2026-01-06 02:45:20.32	7.04	7.94	-31.3	-36.9	9.0	3.28e-02	0	42	102	1048576	22	6859
2026-01-06 02:45:21.33	6.92	8.00	-31.3	-36.7	9.2	1.87e-02	0	42	102	1048576	22	6710
2026-01-06 02:45:22.33	6.81	8.06	-31.3	-36.7	9.2	2.46e-02	0	42	102	1048576	22	6735
2026-01-06 02:45:23.33	6.69	8.11	-31.2	-36.4	9.4	2.03e-02	0	42	102	1048576	22	6564
2026-01-06 02:45:24.34	6.57	8.17	-31.2	-36.5	9.4	1.41e-02	0	42	102	1048576	22	6638
2026-01-06 02:45:25.35	6.45	8.23	-31.2	-36.5	9.4	1.50e-02	0	42	102	1048576	22	6590
2026-01-06 02:45:26.35	6.33	8.29	-31.2	-36.3	9.6	1.41e-02	0	42	102	1048576	22	6481
2026-01-06 02:45:27.36	6.21	8.34	-31.1	-36.2	9.6	1.75e-02	0	42	102	1048576	22	6447
2026-01-06 02:45:28.37	6.09	8.40	-31.1	-35.9	9.8	1.00e-02	0	42	102	1048576	22	6280
2026-01-06 02:45:29.37	5.97	8.46	-31.0	-35.6	10.1	1.03e-02	0	42	102	1048576	22	6138
2026-01-06 02:45:30.38	5.85	8.52	-31.1	-35.9	9.8	6.32e-03	0	42	102	1048576	22	6297
2026-01-06 02:45:31.39	5.72	8.57	-31.1	-36.2	9.6	1.48e-02	0	42	102	1048576	22	6460
2026-01-06 02:45:32.39	5.60	8.63	-31.0	-35.5	10.2	6.81e-03	0	42	102	1048576	22	6056
2026-01-06 02:45:33.40	5.48	8.69	-30.9	-35.7	10.4	4.92e-03	0	42	102	1048576	21	6285
2026-01-06 02:45:34.41	5.35	8.75	-30.9	-35.9	10.2	8.41e-03	0	42	102	1048576	21	6402
2026-01-06 02:45:35.42	5.23	8.80	-30.9	-35.8	10.3	5.13e-03	0	42	102	1048576	21	6356
2026-01-06 02:45:36.42	5.11	8.86	-30.9	-35.9	10.2	6.05e-03	0	42	102	1048576	21	6386
2026-01-06 02:45:37.43	4.98	8.92	-30.9	-35.9	10.3	8.92e-03	0	42	102	1048576	21	6371
2026-01-06 02:45:38.44	4.85	8.98	-31.0	-35.7	10.1	6.06e-03	0	42	102	1048576	22	6157
2026-01-06 02:45:39.44	4.73	9.03	-31.1	-35.8	10.0	6.78e-03	0	42	102	1048576	22	6233
2026-01-06 02:45:40.44	4.60	9.09	-31.1	-36.0	9.9	1.21e-02	0	42	102	1048576	22	6309
2026-01-06 02:45:41.45	4.47	9.15	-31.1	-35.8	10.1	5.93e-03	0	42	102	1048576	22	6194
2026-01-06 02:45:42.46	4.35	9.21	-31.2	-36.2	9.7	7.93e-03	0	42	102	1048576	22	6434
2026-01-06 02:45:43.46	4.22	9.26	-31.2	-36.3	9.7	1.62e-02	0	42	102	1048576	22	6454
2026-01-06 02:45:44.47	4.09	9.32	-31.0	-35.7	10.1	1.20e-02	0	42	102	1048576	22	6165
2026-01-06 02:45:45.48	3.96	9.38	-30.8	-35.5	10.7	4.16e-03	0	42	102	1048576	21	6154
2026-01-06 02:45:46.48	3.83	9.44	-30.8	-35.3	10.8	2.72e-03	0	42	102	1048576	21	6043
2026-01-06 02:45:47.48	3.70	9.49	-30.8	-35.3	10.8	5.84e-03	0	42	102	1048576	21	6073
2026-01-06 02:45:48.48	3.57	9.55	-30.7	-35.0	10.9	2.67e-03	0	42	102	1048576	21	5938
2026-01-06 02:45:49.48	3.44	9.61	-30.7	-35.0	10.9	2.20e-03	0	42	102	1048576	21	5931
2026-01-06 02:45:50.49	3.31	9.66	-30.7	-34.9	11.1	1.69e-03	0	42	102	1048576	21	5880
2026-01-06 02:45:51.50	3.17	9.72	-30.7	-35.2	10.9	2.64e-03	0	42	102	1048576	21	6002
2026-01-06 02:45:52.51	3.04	9.78	-30.8	-35.3	10.8	2.39e-03	0	42	102	1048576	21	6058
2026-01-06 02:45:53.51	2.91	9.84	-30.8	-35.4	10.8	3.10e-03	0	42	102	1048576	21	6074
2026-01-06 02:45:54.51	2.77	9.89	-30.8	-35.4	10.8	2.76e-03	0	42	102	1048576	21	6122
2026-01-06 02:45:55.52	2.64	9.95	-30.9	-35.5	10.7	3.57e-03	0	42	102	1048576	21	6159
2026-01-06 02:45:56.53	2.50	10.01	-30.9	-35.5	10.7	2.93e-03	0	42	102	1048576	21	6174
2026-01-06 02:45:57.54	2.37	10.07	-30.9	-35.8	10.4	3.67e-03	0	42	102	1048576	21	6300
2026-01-06 02:45:58.54	2.23	10.12	-31.2	-36.2	9.8	7.01e-03	0	42	102	1048576	22	6404
2026-01-06 02:45:59.55	2.09	10.18	-31.2	-36.0	9.9	1.17e-02	0	42	102	1048576	22	6301
2026-01-06 02:46:00.55	1.96	10.24	-31.1	-35.9	10.1	6.85e-03	0	43	102	1048576	22	6233
2026-01-06 02:46:01.56	1.82	10.29	-31.1	-35.8	10.1	8.22e-03	0	42	102	1048576	22	6200
2026-01-06 02:46:02.56	1.68	10.35	-31.0	-35.6	10.3	5.77e-03	0	43	102	1048576	22	6109
2026-01-06 02:46:03.57	1.54	10.41	-31.0	-35.3	10.5	4.58e-03	0	43	102	1048576	22	5957
2026-01-06 02:46:04.58	1.40	10.47	-31.0	-35.6	9.8	4.76e-03	0	43	102	1048576	22	6069
2026-01-06 02:46:05.58	1.26	10.52	-31.0	-35.6	10.4	3.58e-03	0	43	102	1048576	22	6058
2026-01-06 02:46:06.59	1.12	10.58	-31.0	-35.4	10.4	5.20e-03	0	42	102	1048576	22	5979
2026-01-06 02:46:07.60	0.98	10.64	-30.8	-35.4	10.7	3.76e-03	0	42	102	1048576	21	6074
2026-01-06 02:46:08.61	0.84	10.69	-30.8	-35.4	10.9	2.15e-03	0	43	102	1048576	21	6064
2026-01-06 02:46:09.61	0.70	10.75	-30.8	-35.4	10.9	3.24e-03	0	43	102	1048576	21	6073
2026-01-06 02:46:10.62	0.55	10.81	-30.7	-35.0	11.1	2.22e-03	0	43	102	1048576	21	5891
2026-01-06 02:46:11.62	0.41	10.86	-30.7	-34.8	11.2	1.80e-03	0	43	102	1048576	21	5811
2026-01-06 02:46:12.63	0.26	10.92	-30.6	-34.6	11.4	1.30e-03	0	43	102	1048576	21	5723
2026-01-06 02:46:13.64	0.12	10.98	-30.7	-34.8	11.3	1.29e-03	0	43	102	1048576	21	5778
2026-01-06 02:46:14.64	359.97	11.03	-30.6	-34.6	11.4	1.28e-03	0	43	102	1048576	21	5726
2026-01-06 02:46:15.65	359.83	11.09	-30.6	-34.6	11.5	1.22e-03	0	43	102	1048576	21	5713
2026-01-06 02:46:16.66	359.68	11.15	-30.7	-34.8	11.4	1.31e-03	0	43	102	1048576	21	5778
2026-01-06 02:46:17.67	359.53	11.20	-30.8	-35.3	11.0	1.14e-03	0	43	102	1048576	21	6027
2026-01-06 02:46:18.67	359.39	11.26	-30.8	-35.2	11.1	4.61e-03	0	43	102	1048576	21	5966
2026-01-06 02:46:19.68	359.24	11.32	-30.7	-34.8	11.3	1.68e-03	0	43	102	1048576	21	5806
2026-01-06 02:46:20.68	359.09	11.37	-30.7	-34.9	11.4	1.00e-03	0	43	102	1048576	21	5816
2026-01-06 02:46:21.69	358.94	11.43	-30.8	-35.1	11.2	4.02e-03	0	43	102	1048576	21	5916
2026-01-06 02:46:22.69	358.79	11.49	-30.8	-35.1	11.1	3.94e-03	0	43	102	1048576	21	5928
2026-01-06 02:46:23.70	358.64	11.54	-30.9	-35.4	10.9	1.75e-03	0	43	102	1048576	21	6092
2026-01-06 02:46:24.70	358.49	11.60	-30.8	-35.3	11.0	5.26e-03	0	43	102	1048576	21	6027
2026-01-06 02:46:25.71	358.34	11.65	-30.9	-35.6	10.8	5.26e-03	0	43	102	1048576	21	6165
2026-01-06 02:46:26.72	358.19	11.71	-30.9	-35.6	10.9	2.89e-03	0	43	102	1048576	21	6150
2026-01-06 02:46:27.72	358.03	11.77	-30.9	-35.4	10.9	5.01e-03	0	43	102	1048576	21	6078
2026-01-06 02:46:28.73	357.88	11.82	-30.9	-35.5	10.9	5.08e-03	0	43	102	1048576	21	6128
2026-01-06 02:46:29.74	357.72	11.88	-31.0	-35.7	10.7	2.92e-03	0	43	102	1048576	21	6229
2026-01-06 02:46:30.74	357.57	11.93	-31.0	-35.8	10.7	3.21e-03	0	43	102	1048576	21	6263
2026-01-06 02:46:31.75	357.41	11.99	-31.0	-35.8	10.7	5.39e-03	0	43	102	1048576	21	6259
2026-01-06 02:46:32.76	357.26	12.04	-31.0	-35.3	10.7	3.79e-03	0	43	102	1048576	22	5907
2026-01-06 02:46:33.76	357.10	12.10	-31.0	-35.3	10.7	3.42e-03	0	43	102	1048576	22	5926
2026-01-06 02:46:34.77	356.95	12.15	-31.0	-35.3	10.7	5.94e-03	0	43	102	1048576	22	5894
2026-01-06 02:46:35.77	356.79	12.21	-31.0	-35.4	10.6	3.02e-03	0	43	102	1048576	22	5944
2026-01-06 02:46:36.78	356.63	12.26	-31.0	-35.2	10.8	6.07e-03	0	43	102	1048576	22	5841
2026-01-06 02:46:37.79	356.47	12.32	-30.9	-35.5	11.0	4.52e-03	0	43	102	1048576	21	6089
2026-01-06 02:46:38.80	356.31	12.37	-31.0	-35.7	10.8	2.52e-03	0	43	102	1048576	21	6194
2026-01-06 02:46:39.79	356.15	12.43	-31.0	-35.3	10.7	5.51e-03	0	43	102	1048576	22	5910
2026-01-06 02:46:40.80	355.99	12.48	-31.0	-35.2	10.8	4.94e-03	0	43	102	1048576	22	5864
2026-01-06 02:46:41.81	355.83	12.54	-31.0	-35.3	10.8	3.26e-03	0	43	102	1048576	22	5876
2026-01-06 02:46:42.82	355.67	12.59	-31.0	-35.7	10.8	4.75e-03	0	43	102	1048576	21	6191
2026-01-06 02:46:43.83	355.50	12.65	-31.1	-35.5	10.6	5.03e-03	0	43	102	1048576	22	5970
2026-01-06 02:46:44.82	355.34	12.70	-31.0	-35.3	10.8	3.01e-03	0	43	102	1048576	22	5885
2026-01-06 02:46:45.83	355.18	12.76	-30.9	-35.4	11.0	4.75e-03	0	43	102	1048576	21	6073
2026-01-06 02:46:46.84	355.01	12.81	-30.8	-35.2	11.1	4.15e-03	0	43	102	1048576	21	5952
2026-01-06 02:46:47.84	354.85	12.86	-30.9	-35.5	11.0	1.66e-03	0	43	102	1048576	21	6081
2026-01-06 02:46:48.85	354.68	12.92	-30.8	-35.1	11.2	3.67e-03	0	43	102	1048576	21	5916
2026-01-06 02:46:49.85	354.52	12.97	-30.8	-35.0	11.4	3.26e-03	0	43	102	1048576	21	5856
2026-01-06 02:46:50.86	354.35	13.03	-30.8	-35.1	11.2	1.50e-03	0	43	102	1048576	21	5900
2026-01-06 02:46:51.87	354.18	13.08	-31.0	-35.7	10.8	2.05e-03	0	43	102	1048576	21	6188
2026-01-06 02:46:52.88	354.01	13.13	-30.9	-35.3	11.1	4.25e-03	0	43	102	1048576	21	6004
2026-01-06 02:46:53.88	353.85	13.19	-30.7	-34.8	11.4	1.63e-03	0	43	102	1048576	21	5785
2026-01-06 02:46:54.88	353.68	13.24	-30.7	-34.7	11.6	7.05e-04	0	43	102	1048576	21	5726
2026-01-06 02:46:55.89	353.51	13.29	-30.6	-34.5	11.7	2.43e-03	0	43	102	1048576	21	5633
2026-01-06 02:46:56.90	353.34	13.34	-30.6	-34.4	11.8	8.35e-04	0	43	102	1048576	21	5578
2026-01-06 02:46:57.91	353.16	13.40	-30.5	-34.1	12.0	7.97e-04	0	43	102	1048576	21	5475
2026-01-06 02:46:58.91	352.99	13.45	-30.5	-34.1	12.0	3.02e-04	0	43	102	1048576	21	5463
2026-01-06 02:46:59.92	352.82	13.50	-30.4	-34.4	12.2	5.15e-04	0	43	102	1048576	20	5686
2026-01-06 02:47:00.93	352.65	13.55	-30.4	-34.4	12.1	6.64e-04	0	43	102	1048576	20	5705
2026-01-06 02:47:01.94	352.47	13.61	-30.4	-34.2	12.2	2.08e-04	0	43	102	1048576	20	5624
2026-01-06 02:47:02.95	352.30	13.66	-30.4	-34.3	12.3	4.80e-04	0	43	102	1048576	20	5658
2026-01-06 02:47:03.96	352.12	13.71	-30.3	-34.2	12.3	9.40e-04	0	43	102	1048576	20	5589
2026-01-06 02:47:04.96	351.95	13.76	-30.3	-34.0	12.5	5.09e-04	0	43	102	1048576	20	5521
2026-01-06 02:47:05.97	351.77	13.81	-30.4	-34.3	12.3	1.94e-04	0	43	102	1048576	20	5638
2026-01-06 02:47:06.97	351.59	13.86	-30.3	-33.9	12.5	7.66e-04	0	43	102	1048576	20	5499
2026-01-06 02:47:07.98	351.42	13.92	-30.2	-33.7	12.6	5.32e-04	0	43	102	1048576	20	5417
2026-01-06 02:47:08.99	351.24	13.97	-30.2	-33.7	12.7	5.32e-04	0	43	102	1048576	20	5403
2026-01-06 02:47:10.00	351.06	14.02	-30.2	-33.9	12.5	9.23e-05	0	43	102	1048576	20	5460
2026-01-06 02:47:11.00	350.88	14.07	-30.4	-34.4	12.2	6.86e-04	0	43	102	1048576	20	5694
2026-01-06 02:47:12.01	350.70	14.12	-30.5	-34.5	12.1	7.84e-04	0	43	102	1048576	20	5750
2026-01-06 02:47:13.02	350.52	14.17	-30.4	-34.3	12.2	2.50e-04	0	43	102	1048576	20	5669
2026-01-06 02:47:14.03	350.34	14.22	-30.4	-34.2	12.3	6.32e-04	0	43	102	1048576	20	5604
2026-01-06 02:47:15.03	350.16	14.27	-30.4	-34.4	12.2	1.68e-04	0	43	102	1048576	20	5686
2026-01-06 02:47:16.04	349.97	14.32	-30.3	-34.1	12.4	5.32e-04	0	43	102	1048576	20	5561
2026-01-06 02:47:17.04	349.79	14.37	-30.3	-34.1	12.4	1.41e-04	0	43	102	1048576	20	5565
2026-01-06 02:47:18.05	349.61	14.42	-30.3	-34.1	12.4	1.21e-04	0	43	102	1048576	20	5568
2026-01-06 02:47:19.06	349.42	14.47	-30.5	-34.1	12.0	5.49e-04	0	43	102	1048576	21	5472
2026-01-06 02:47:20.06	349.24	14.52	-30.2	-33.7	12.7	5.26e-04	0	43	102	1048576	20	5412
2026-01-06 02:47:21.06	349.05	14.57	-29.9	-33.0	13.2	2.89e-05	0	43	102	1048576	20	5106
2026-01-06 02:47:22.07	348.87	14.61	-29.8	-33.2	13.5	3.84e-04	0	43	102	1048576	19	5283
2026-01-06 02:47:23.08	348.68	14.66	-29.9	-33.3	13.4	3.85e-04	0	43	102	1048576	19	5324
2026-01-06 02:47:24.08	348.49	14.71	-29.9	-33.0	13.2	2.28e-05	0	43	102	1048576	20	5118
2026-01-06 02:47:25.08	348.31	14.76	-29.8	-33.1	13.5	3.97e-04	0	43	102	1048576	19	5244
2026-01-06 02:47:26.09	348.12	14.81	-29.9	-33.3	13.4	3.46e-04	0	43	102	1048576	19	5328
2026-01-06 02:47:27.09	347.93	14.85	-29.9	-33.2	13.3	1.83e-05	0	43	102	1048576	19	5308
2026-01-06 02:47:28.10	347.74	14.90	-29.9	-33.3	13.1	2.99e-04	0	43	102	1048576	19	5326
2026-01-06 02:47:29.12	347.54	14.95	-29.9	-33.4	13.3	2.44e-04	0	43	102	1048576	19	5360
2026-01-06 02:47:30.12	347.35	14.99	-30.0	-33.1	12.9	1.67e-05	0	43	102	1048576	20	5136
2026-01-06 02:47:31.13	347.16	15.04	-29.9	-33.2	13.5	2.00e-04	0	43	102	1048576	19	5287
2026-01-06 02:47:32.13	346.97	15.09	-29.7	-32.8	13.7	1.63e-04	0	43	102	1048576	19	5139
2026-01-06 02:47:33.13	346.78	15.13	-29.6	-32.5	13.9	6.80e-06	0	43	102	1048576	19	5040
2026-01-06 02:47:34.14	346.58	15.18	-29.6	-32.5	13.9	4.07e-04	0	43	102	1048576	19	5033
2026-01-06 02:47:35.15	346.39	15.22	-29.7	-32.8	13.8	2.46e-04	0	43	102	1048576	19	5136
2026-01-06 02:47:36.15	346.20	15.27	-29.8	-33.0	13.6	5.30e-06	0	43	102	1048576	19	5209
2026-01-06 02:47:37.16	346.00	15.32	-29.8	-33.0	13.6	3.49e-04	0	43	102	1048576	19	5215
2026-01-06 02:47:38.17	345.80	15.36	-29.8	-33.1	13.6	6.80e-06	0	43	102	1048576	19	5237
2026-01-06 02:47:39.18	345.61	15.40	-29.9	-33.4	13.4	1.06e-05	0	43	102	1048576	19	5348
2026-01-06 02:47:40.18	345.41	15.45	-29.9	-33.4	13.4	2.66e-04	0	43	102	1048576	19	5369
2026-01-06 02:47:41.19	345.21	15.49	-29.8	-33.1	13.5	1.14e-05	0	43	102	1048576	19	5265
2026-01-06 02:47:42.20	345.01	15.54	-29.9	-33.4	13.4	1.75e-05	0	43	102	1048576	19	5349
2026-01-06 02:47:43.21	344.81	15.58	-30.0	-33.5	13.3	2.43e-04	0	43	102	1048576	19	5398
2026-01-06 02:47:44.21	344.62	15.62	-30.0	-33.6	13.3	1.14e-05	0	43	102	1048576	19	5436
2026-01-06 02:47:45.21	344.42	15.67	-30.1	-33.4	13.0	2.21e-03	0	43	102	1048576	20	5273
2026-01-06 02:47:46.22	344.22	15.71	-30.2	-33.7	12.7	3.32e-04	0	43	102	1048576	20	5406
2026-01-06 02:47:47.23	344.01	15.75	-30.1	-33.3	13.0	3.28e-05	0	43	102	1048576	20	5231
2026-01-06 02:47:48.23	343.81	15.79	-29.9	-33.4	13.4	2.39e-03	0	43	102	1048576	19	5341
2026-01-06 02:47:49.24	343.61	15.84	-29.9	-33.2	13.5	2.22e-03	0	43	102	1048576	19	5303
2026-01-06 02:47:50.25	343.41	15.88	-29.9	-33.3	13.5	1.90e-04	0	43	102	1048576	19	5315
2026-01-06 02:47:51.26	343.20	15.92	-29.8	-33.1	13.6	2.42e-03	0	43	102	1048576	19	5235
2026-01-06 02:47:52.26	343.00	15.96	-29.8	-33.1	13.6	2.22e-03	0	43	102	1048576	19	5247
2026-01-06 02:47:53.27	342.79	16.00	-29.9	-33.2	13.5	6.17e-05	0	44	102	1048576	19	5289
2026-01-06 02:47:54.28	342.59	16.04	-30.0	-33.5	13.3	2.39e-03	0	43	102	1048576	19	5382
2026-01-06 02:47:55.28	342.38	16.08	-30.0	-33.1	13.2	2.67e-03	0	43	102	1048576	20	5155
2026-01-06 02:47:56.29	342.18	16.12	-30.1	-33.3	13.1	1.74e-04	0	43	102	1048576	20	5205
2026-01-06 02:47:57.29	341.97	16.16	-29.9	-33.3	13.5	2.87e-03	0	43	102	1048576	19	5313
2026-01-06 02:47:58.30	341.76	16.20	-29.8	-33.1	13.6	2.66e-03	0	43	102	1048576	19	5243
2026-01-06 02:47:59.31	341.55	16.24	-29.6	-32.6	14.0	1.65e-04	0	43	102	1048576	19	5038
2026-01-06 02:48:00.32	341.34	16.28	-29.6	-32.4	14.1	1.26e-03	0	43	102	1048576	19	4982
2026-01-06 02:48:01.33	341.13	16.31	-29.5	-32.2	14.2	2.54e-03	0	43	102	1048576	19	4901
2026-01-06 02:48:02.34	340.92	16.35	-29.5	-32.2	14.2	1.88e-04	0	43	102	1048576	19	4901
2026-01-06 02:48:03.35	340.71	16.39	-29.6	-32.5	14.0	2.64e-03	0	43	102	1048576	19	5023
2026-01-06 02:48:04.36	340.50	16.43	-29.8	-33.0	13.7	2.88e-03	0	43	102	1048576	19	5185
2026-01-06 02:48:05.36	340.29	16.46	-29.8	-33.0	13.7	3.42e-04	0	43	102	1048576	19	5219
2026-01-06 02:48:06.36	340.08	16.50	-29.7	-32.7	13.8	2.81e-03	0	43	102	1048576	19	5093
2026-01-06 02:48:07.37	339.87	16.54	-29.6	-32.4	14.0	4.50e-06	0	43	102	1048576	19	4989
2026-01-06 02:48:08.38	339.65	16.57	-29.5	-32.2	14.2	3.21e-04	0	44	102	1048576	19	4917
2026-01-06 02:48:09.38	339.44	16.61	-29.6	-32.5	13.9	2.83e-03	0	43	102	1048576	19	5019
2026-01-06 02:48:10.39	339.23	16.64	-29.7	-32.7	13.6	7.85e-05	0	44	102	1048576	19	5100
2026-01-06 02:48:11.39	339.01	16.68	-29.7	-32.6	13.9	3.01e-04	0	43	102	1048576	19	5073
2026-01-06 02:48:12.40	338.80	16.71	-29.7	-32.7	13.7	2.49e-03	0	43	102	1048576	19	5104
2026-01-06 02:48:13.41	338.58	16.75	-29.6	-32.3	14.0	2.75e-03	0	43	102	1048576	19	4959
2026-01-06 02:48:14.41	338.37	16.78	-29.5	-32.2	14.2	4.50e-06	0	43	102	1048576	19	4893
2026-01-06 02:48:15.43	338.15	16.81	-29.4	-32.4	14.4	2.69e-03	0	44	102	1048576	18	5083
2026-01-06 02:48:16.43	337.93	16.85	-29.5	-32.6	14.3	2.69e-03	0	43	102	1048576	18	5158
2026-01-06 02:48:17.44	337.72	16.88	-29.4	-32.0	14.3	0.00e+00	0	43	102	1048576	19	4831
2026-01-06 02:48:18.44	337.50	16.91	-29.3	-32.2	14.5	0.00e+00	0	43	102	1048576	18	5012
2026-01-06 02:48:19.45	337.28	16.94	-29.3	-32.1	14.6	2.27e-03	0	43	102	1048576	18	4984
2026-01-06 02:48:20.46	337.06	16.97	-29.3	-32.1	14.6	7.00e-07	0	44	102	1048576	18	4973
2026-01-06 02:48:21.47	336.84	17.00	-29.3	-32.1	14.5	7.00e-07	0	43	102	1048576	18	4986
2026-01-06 02:48:22.47	336.62	17.03	-29.3	-32.2	14.5	2.54e-03	0	43	102	1048576	18	5020
2026-01-06 02:48:23.48	336.40	17.07	-29.4	-32.4	14.3	7.00e-07	0	44	102	1048576	18	5092
2026-01-06 02:48:24.48	336.18	17.09	-29.3	-32.2	14.5	8.67e-04	0	43	102	1048576	18	5032
2026-01-06 02:48:25.49	335.96	17.12	-29.5	-32.3	14.2	0.00e+00	0	43	102	1048576	19	4947
2026-01-06 02:48:26.50	335.74	17.15	-29.7	-32.8	13.8	1.04e-04	0	44	102	1048576	19	5132
2026-01-06 02:48:27.50	335.52	17.18	-29.8	-33.0	13.7	1.14e-03	0	43	102	1048576	19	5191
2026-01-06 02:48:28.51	335.29	17.21	-29.6	-32.4	14.1	9.51e-04	0	43	102	1048576	19	4990
2026-01-06 02:48:29.52	335.07	17.24	-29.4	-31.9	14.4	1.27e-04	0	43	102	1048576	19	4800
2026-01-06 02:48:30.53	334.85	17.27	-29.4	-32.4	14.4	4.82e-04	0	43	102	1048576	18	5104
2026-01-06 02:48:31.53	334.63	17.29	-29.4	-32.4	14.4	2.74e-04	0	44	102	1048576	18	5091
2026-01-06 02:48:32.54	334.40	17.32	-29.4	-32.4	14.4	1.50e-06	0	44	102	1048576	18	5082
2026-01-06 02:48:33.55	334.18	17.34	-29.2	-32.0	14.6	7.00e-07	0	44	102	1048576	18	4931
2026-01-06 02:48:34.56	333.95	17.37	-29.2	-32.0	14.7	5.26e-05	0	44	102	1048576	18	4934
2026-01-06 02:48:35.57	333.72	17.40	-29.2	-31.8	14.8	0.00e+00	0	44	102	1048576	18	4870
2026-01-06 02:48:36.57	333.50	17.42	-29.2	-31.9	14.7	0.00e+00	0	43	102	1048576	18	4905
2026-01-06 02:48:37.57	333.28	17.44	-29.3	-32.2	14.5	3.64e-04	0	44	102	1048576	18	5026
2026-01-06 02:48:38.58	333.05	17.47	-29.3	-32.3	14.5	0.00e+00	0	44	102	1048576	18	5036
2026-01-06 02:48:39.59	332.82	17.49	-29.3	-32.2	14.5	3.81e-04	0	43	102	1048576	18	5034
2026-01-06 02:48:40.59	332.60	17.51	-29.3	-32.2	14.5	3.61e-04	0	43	102	1048576	18	5016
2026-01-06 02:48:41.60	332.37	17.54	-29.5	-32.5	14.3	0.00e+00	0	44	102	1048576	18	5142
2026-01-06 02:48:42.61	332.14	17.56	-29.4	-32.0	14.3	4.27e-04	0	43	102	1048576	19	4832
2026-01-06 02:48:43.62	331.91	17.58	-29.4	-32.4	14.4	4.77e-04	0	43	102	1048576	18	5104
2026-01-06 02:48:44.62	331.68	17.60	-29.4	-32.5	14.3	7.00e-07	0	43	102	1048576	18	5126
2026-01-06 02:48:45.62	331.46	17.62	-29.6	-32.5	14.0	1.14e-03	0	43	102	1048576	19	4999
2026-01-06 02:48:46.63	331.23	17.64	-29.7	-32.8	13.8	4.50e-06	0	43	102	1048576	19	5119
2026-01-06 02:48:47.64	331.00	17.66	-29.9	-33.3	12.6	9.90e-06	0	43	102	1048576	19	5312
2026-01-06 02:48:48.64	330.77	17.68	-30.0	-33.5	12.6	1.09e-03	0	44	102	1048576	19	5401
2026-01-06 02:48:49.65	330.54	17.70	-30.0	-33.0	13.3	9.15e-04	0	43	102	1048576	20	5113
2026-01-06 02:48:50.66	330.31	17.72	-30.0	-33.1	13.2	2.21e-05	0	44	102	1048576	20	5139
2026-01-06 02:48:51.67	330.08	17.74	-30.0	-33.1	13.2	2.59e-04	0	43	102	1048576	20	5147
2026-01-06 02:48:52.67	329.85	17.76	-30.0	-33.2	13.2	1.94e-04	0	43	102	1048576	20	5158
2026-01-06 02:48:53.68	329.62	17.77	-29.9	-32.8	13.4	2.53e-03	0	43	102	1048576	20	5034
2026-01-06 02:48:54.69	329.38	17.79	-29.9	-33.1	13.6	6.87e-04	0	43	102	1048576	19	5248
2026-01-06 02:48:55.69	329.15	17.81	-29.8	-33.1	13.6	1.21e-03	0	43	102	1048576	19	5238
2026-01-06 02:48:56.69	328.92	17.82	-29.8	-32.9	13.7	2.33e-03	0	44	102	1048576	19	5173
2026-01-06 02:48:57.69	328.69	17.84	-29.9	-33.1	13.6	2.69e-03	0	44	102	1048576	19	5252
2026-01-06 02:48:58.70	328.46	17.85	-29.9	-33.3	13.5	1.38e-03	0	44	102	1048576	19	5324
2026-01-06 02:48:59.71	328.23	17.87	-30.0	-33.5	13.4	1.83e-05	0	44	102	1048576	19	5408
2026-01-06 02:49:00.71	328.00	17.88	-30.0	-33.2	13.1	2.44e-03	0	44	102	1048576	20	5176
2026-01-06 02:49:01.72	327.76	17.89	-30.0	-33.1	13.2	5.49e-05	0	44	102	1048576	20	5147
2026-01-06 02:49:02.73	327.53	17.91	-29.9	-32.8	13.4	2.59e-05	0	44	102	1048576	20	5021
2026-01-06 02:49:03.74	327.29	17.92	-30.0	-33.5	13.3	2.25e-03	0	44	102	1048576	19	5389
2026-01-06 02:49:04.75	327.06	17.93	-30.0	-33.0	13.3	1.88e-04	0	44	102	1048576	20	5095
2026-01-06 02:49:05.75	326.83	17.94	-30.0	-33.4	13.4	1.98e-05	0	43	102	1048576	19	5373
2026-01-06 02:49:06.76	326.59	17.95	-29.9	-32.9	13.4	2.57e-03	0	43	102	1048576	20	5047
2026-01-06 02:49:07.77	326.36	17.96	-29.9	-32.9	13.3	7.24e-05	0	44	102	1048576	20	5060
2026-01-06 02:49:08.78	326.12	17.97	-30.1	-33.4	13.0	7.62e-05	0	43	102	1048576	20	5243
2026-01-06 02:49:09.79	325.89	17.98	-30.1	-33.3	13.1	4.05e-04	0	44	102	1048576	20	5208
2026-01-06 02:49:10.79	325.65	17.99	-30.0	-33.0	13.3	8.92e-05	0	44	102	1048576	20	5095
2026-01-06 02:49:11.80	325.42	18.00	-30.0	-33.1	13.2	2.63e-03	0	44	102	1048576	20	5137
2026-01-06 02:49:12.81	325.18	18.01	-30.0	-33.1	13.2	1.77e-04	0	43	102	1048576	20	5143
2026-01-06 02:49:13.82	324.95	18.02	-30.1	-33.4	13.1	2.43e-04	0	44	102	1048576	20	5234
2026-01-06 02:49:14.83	324.71	18.02	-30.1	-33.2	13.2	2.28e-03	0	43	102	1048576	20	5176
2026-01-06 02:49:15.84	324.48	18.03	-30.0	-33.2	13.2	2.47e-03	0	44	102	1048576	20	5158
2026-01-06 02:49:16.84	324.24	18.04	-30.1	-33.3	13.1	1.92e-04	0	44	102	1048576	20	5233
2026-01-06 02:49:17.85	324.01	18.04	-30.2	-33.7	12.9	2.64e-03	0	44	102	1048576	20	5350
2026-01-06 02:49:18.86	323.77	18.05	-30.2	-33.5	12.9	2.73e-03	0	43	102	1048576	20	5298
2026-01-06 02:49:19.87	323.53	18.05	-30.2	-33.8	12.8	4.19e-05	0	43	102	1048576	20	5398
2026-01-06 02:49:20.88	323.30	18.05	-30.3	-34.0	12.7	2.98e-03	0	44	102	1048576	20	5478
2026-01-06 02:49:21.88	323.06	18.06	-30.4	-34.1	12.6	3.02e-03	0	44	102	1048576	20	5554
2026-01-06 02:49:22.88	322.83	18.06	-30.3	-34.0	12.6	2.93e-04	0	43	102	1048576	20	5489
2026-01-06 02:49:23.89	322.59	18.06	-30.4	-34.1	12.6	2.74e-03	0	44	102	1048576	20	5533
2026-01-06 02:49:24.90	322.36	18.07	-30.4	-34.2	12.5	2.89e-03	0	43	102	1048576	20	5591
2026-01-06 02:49:25.90	322.12	18.07	-30.4	-34.3	12.4	6.05e-04	0	44	102	1048576	20	5638
2026-01-06 02:49:26.91	321.89	18.07	-30.3	-33.8	12.6	1.04e-04	0	44	102	1048576	20	5425
2026-01-06 02:49:27.92	321.65	18.07	-30.2	-33.6	12.8	2.09e-03	0	43	102	1048576	20	5337
2026-01-06 02:49:28.92	321.41	18.07	-30.2	-33.6	12.9	4.16e-04	0	44	102	1048576	20	5318
2026-01-06 02:49:29.93	321.18	18.07	-30.1	-33.2	13.1	3.28e-05	0	44	102	1048576	20	5196
2026-01-06 02:49:30.94	320.94	18.07	-30.1	-33.3	13.1	2.46e-03	0	44	102	1048576	20	5234
2026-01-06 02:49:31.95	320.70	18.07	-30.1	-33.3	13.1	2.51e-05	0	43	102	1048576	20	5212
2026-01-06 02:49:32.95	320.47	18.06	-30.3	-34.0	12.6	2.80e-03	0	43	102	1048576	20	5519
2026-01-06 02:49:33.96	320.23	18.06	-30.2	-33.6	12.9	9.38e-05	0	44	102	1048576	20	5351
2026-01-06 02:49:34.96	320.00	18.06	-30.4	-34.4	12.4	4.60e-04	0	44	102	1048576	20	5648
2026-01-06 02:49:35.97	319.76	18.05	-30.7	-34.5	11.9	3.23e-03	0	43	102	1048576	21	5609
2026-01-06 02:49:36.97	319.53	18.05	-30.4	-34.4	12.3	5.84e-04	0	44	102	1048576	20	5666
2026-01-06 02:49:37.98	319.29	18.05	-30.6	-34.3	12.1	2.04e-04	0	43	102	1048576	21	5528
2026-01-06 02:49:38.99	319.06	18.04	-30.9	-35.2	11.5	2.41e-03	0	44	102	1048576	21	5897
2026-01-06 02:49:40.00	318.82	18.03	-30.6	-34.4	12.0	5.79e-04	0	44	102	1048576	21	5548
2026-01-06 02:49:41.00	318.59	18.03	-30.6	-34.4	12.0	3.03e-04	0	44	102	1048576	21	5549
2026-01-06 02:49:42.01	318.35	18.02	-30.7	-34.5	11.9	2.00e-03	0	44	102	1048576	21	5613
2026-01-06 02:49:43.02	318.12	18.02	-30.6	-34.3	12.0	2.57e-03	0	43	102	1048576	21	5514
2026-01-06 02:49:44.02	317.88	18.01	-30.6	-34.2	12.1	2.94e-04	0	44	102	1048576	21	5474
2026-01-06 02:49:45.03	317.65	18.00	-30.6	-34.3	12.1	2.61e-04	0	44	102	1048576	21	5512
2026-01-06 02:49:46.04	317.41	17.99	-30.7	-34.5	11.9	2.77e-03	0	44	102	1048576	21	5603
2026-01-06 02:49:47.05	317.18	17.98	-30.9	-35.2	11.4	7.51e-04	0	44	102	1048576	21	5915
2026-01-06 02:49:48.05	316.94	17.97	-30.6	-34.3	12.0	7.27e-04	0	44	102	1048576	21	5515
2026-01-06 02:49:49.05	316.71	17.96	-30.3	-33.4	12.7	2.33e-03	0	44	102	1048576	21	5128
2026-01-06 02:49:50.05	316.48	17.95	-30.0	-33.1	13.2	2.36e-05	0	44	102	1048576	20	5130
2026-01-06 02:49:51.06	316.24	17.94	-29.8	-32.6	13.6	1.65e-04	0	44	102	1048576	20	4944
2026-01-06 02:49:52.07	316.01	17.93	-29.8	-32.8	13.8	1.46e-04	0	44	102	1048576	19	5138
2026-01-06 02:49:53.07	315.78	17.92	-29.8	-33.0	13.6	4.93e-04	0	44	102	1048576	19	5208
2026-01-06 02:49:54.08	315.54	17.91	-29.7	-32.6	13.9	3.39e-04	0	43	102	1048576	19	5052
2026-01-06 02:49:55.08	315.31	17.89	-29.7	-32.6	13.9	3.92e-04	0	44	102	1048576	19	5063
2026-01-06 02:49:56.08	315.08	17.88	-29.6	-32.4	14.0	1.50e-06	0	44	102	1048576	19	4995
2026-01-06 02:49:57.08	314.85	17.87	-29.5	-32.3	14.1	8.86e-04	0	44	102	1048576	19	4939
2026-01-06 02:49:58.09	314.61	17.85	-29.6	-32.5	14.0	1.05e-03	0	44	102	1048576	19	4999
2026-01-06 02:49:59.10	314.38	17.84	-29.7	-32.7	13.8	2.97e-05	0	43	102	1048576	19	5102
2026-01-06 02:50:00.10	314.15	17.82	-29.7	-32.7	13.9	1.25e-03	0	43	102	1048576	19	5082
2026-01-06 02:50:01.11	313.92	17.81	-29.7	-32.8	13.8	1.30e-03	0	44	102	1048576	19	5130
2026-01-06 02:50:02.12	313.68	17.79	-29.9	-33.2	13.6	4.50e-06	0	43	102	1048576	19	5273
2026-01-06 02:50:03.13	313.45	17.77	-29.7	-32.6	13.9	1.54e-03	0	44	102	1048576	19	5051
2026-01-06 02:50:04.13	313.22	17.76	-29.6	-32.4	14.1	1.64e-03	0	43	102	1048576	19	4973
2026-01-06 02:50:05.14	312.99	17.74	-29.6	-32.4	14.1	7.00e-07	0	44	102	1048576	19	4983
2026-01-06 02:50:06.15	312.76	17.72	-29.5	-32.3	14.1	1.77e-03	0	44	102	1048576	19	4948
2026-01-06 02:50:07.16	312.53	17.70	-29.6	-32.4	14.0	1.70e-03	0	43	102	1048576	19	4980
2026-01-06 02:50:08.16	312.30	17.68	-29.1	-31.6	14.3	7.00e-07	0	44	102	1048576	19	4820
2026-01-06 02:50:09.17	312.07	17.66	-28.4	-31.3	14.2	1.59e-03	0	44	102	1048576	18	5009
2026-01-06 02:50:10.17	311.84	17.64	-29.2	-31.9	14.4	7.00e-07	0	44	102	1048576	18	4919
2026-01-06 02:50:11.18	311.61	17.62	-29.2	-31.8	14.7	0.00e+00	0	43	102	1048576	18	4899
2026-01-06 02:50:12.18	311.38	17.60	-29.2	-31.8	14.7	1.78e-03	0	44	102	1048576	18	4893
2026-01-06 02:50:13.19	311.15	17.58	-29.1	-31.6	14.8	1.28e-04	0	44	102	1048576	18	4819
2026-01-06 02:50:14.19	310.93	17.56	-29.1	-31.7	14.8	1.37e-05	0	44	102	1048576	18	4834
2026-01-06 02:50:15.20	310.70	17.54	-29.2	-31.9	14.6	1.83e-03	0	44	102	1048576	18	4910
2026-01-06 02:50:16.20	310.47	17.52	-29.2	-31.8	14.7	1.79e-03	0	44	102	1048576	18	4892
2026-01-06 02:50:17.21	310.24	17.49	-29.4	-32.4	14.3	0.00e+00	0	43	102	1048576	18	5096
2026-01-06 02:50:18.22	310.02	17.47	-29.4	-32.5	14.3	1.84e-03	0	44	102	1048576	18	5136
2026-01-06 02:50:19.23	309.79	17.44	-29.6	-32.4	14.0	1.90e-03	0	43	102	1048576	19	4981
2026-01-06 02:50:20.23	309.56	17.42	-29.5	-32.2	14.1	2.25e-03	0	44	102	1048576	19	4928
2026-01-06 02:50:21.22	309.34	17.40	-29.6	-32.4	14.0	3.80e-06	0	44	102	1048576	19	4994
2026-01-06 02:50:22.23	309.12	17.37	-29.5	-32.2	14.1	1.95e-03	0	43	102	1048576	19	4922
2026-01-06 02:50:23.24	308.89	17.34	-29.4	-32.5	14.3	2.26e-03	0	43	102	1048576	18	5131
2026-01-06 02:50:24.24	308.67	17.32	-29.4	-32.5	14.3	2.16e-03	0	44	102	1048576	18	5124
2026-01-06 02:50:25.25	308.44	17.29	-29.4	-32.4	14.3	1.72e-03	0	44	102	1048576	18	5099
2026-01-06 02:50:26.26	308.22	17.27	-29.6	-32.6	13.9	1.50e-06	0	43	102	1048576	19	5048
2026-01-06 02:50:27.27	307.99	17.24	-29.9	-33.2	13.5	2.41e-03	0	43	102	1048576	19	5281
2026-01-06 02:50:28.28	307.77	17.21	-29.7	-32.7	13.8	5.30e-06	0	43	102	1048576	19	5097
2026-01-06 02:50:29.29	307.55	17.18	-29.6	-32.4	14.0	1.82e-04	0	43	102	1048576	19	4996
2026-01-06 02:50:30.30	307.32	17.15	-29.6	-32.5	14.0	2.40e-03	0	43	102	1048576	19	5013
2026-01-06 02:50:31.31	307.10	17.12	-29.6	-32.6	13.8	1.86e-04	0	44	102	1048576	19	5068
2026-01-06 02:50:32.32	306.88	17.09	-29.6	-32.4	14.0	3.00e-06	0	43	102	1048576	19	4993
2026-01-06 02:50:33.32	306.66	17.07	-29.6	-32.5	13.9	2.04e-03	0	44	102	1048576	19	5022
2026-01-06 02:50:34.32	306.44	17.04	-29.6	-32.6	13.9	1.72e-04	0	44	102	1048576	19	5072
2026-01-06 02:50:35.33	306.22	17.00	-29.7	-32.8	13.7	1.98e-03	0	44	102	1048576	19	5120
2026-01-06 02:50:36.34	306.00	16.97	-29.6	-32.6	13.9	2.07e-03	0	44	102	1048576	19	5064
2026-01-06 02:50:37.34	305.78	16.94	-29.6	-32.5	13.9	1.50e-06	0	44	102	1048576	19	5038
2026-01-06 02:50:38.35	305.56	16.91	-29.7	-32.8	13.7	2.30e-03	0	44	102	1048576	19	5153
2026-01-06 02:50:39.36	305.34	16.88	-29.8	-33.0	13.6	1.12e-04	0	44	102	1048576	19	5211
2026-01-06 02:50:40.37	305.12	16.85	-29.7	-32.7	13.7	6.80e-06	0	44	102	1048576	19	5113
2026-01-06 02:50:41.37	304.91	16.81	-29.7	-32.8	13.7	2.52e-03	0	44	102	1048576	19	5150
2026-01-06 02:50:42.38	304.69	16.78	-29.8	-33.0	13.6	2.27e-03	0	43	102	1048576	19	5224
2026-01-06 02:50:43.38	304.48	16.75	-29.8	-33.1	13.5	1.06e-05	0	44	102	1048576	19	5270
2026-01-06 02:50:44.39	304.26	16.71	-29.9	-33.2	13.5	2.31e-03	0	44	102	1048576	19	5272
2026-01-06 02:50:45.40	304.04	16.68	-29.9	-33.4	13.3	2.69e-03	0	44	102	1048576	19	5369
2026-01-06 02:50:46.41	303.83	16.64	-29.9	-33.3	13.4	1.37e-05	0	44	102	1048576	19	5317
2026-01-06 02:50:47.42	303.61	16.61	-30.0	-33.5	13.2	2.67e-03	0	44	102	1048576	19	5416
2026-01-06 02:50:48.43	303.40	16.57	-30.0	-33.1	12.8	2.47e-03	0	44	102	1048576	20	5163
2026-01-06 02:50:49.44	303.18	16.54	-30.0	-33.2	13.0	4.04e-05	0	43	102	1048576	20	5196
2026-01-06 02:50:50.44	302.97	16.50	-29.9	-33.4	13.2	2.39e-03	0	44	102	1048576	19	5374
2026-01-06 02:50:51.44	302.76	16.46	-29.9	-33.2	13.3	2.09e-03	0	44	102	1048576	19	5300
2026-01-06 02:50:52.45	302.55	16.43	-29.8	-33.2	13.4	9.10e-06	0	44	102	1048576	19	5272
2026-01-06 02:50:53.46	302.34	16.39	-29.9	-33.3	13.3	1.14e-05	0	44	102	1048576	19	5333
2026-01-06 02:50:54.47	302.13	16.35	-29.9	-33.2	13.4	1.60e-03	0	44	102	1048576	19	5290
2026-01-06 02:50:55.47	301.92	16.31	-29.7	-32.8	13.7	6.80e-06	0	44	102	1048576	19	5126
2026-01-06 02:50:56.47	301.71	16.28	-29.6	-32.5	13.9	1.72e-03	0	44	102	1048576	19	5016
2026-01-06 02:50:57.47	301.50	16.24	-29.6	-32.5	13.8	1.75e-03	0	44	102	1048576	19	5030
2026-01-06 02:50:58.48	301.29	16.20	-29.6	-32.5	13.9	4.50e-06	0	44	102	1048576	19	5014
2026-01-06 02:50:59.48	301.08	16.16	-29.6	-32.5	13.8	1.67e-03	0	44	102	1048576	19	5033
2026-01-06 02:51:00.49	300.88	16.12	-29.6	-32.7	13.7	4.50e-06	0	44	102	1048576	19	5087
2026-01-06 02:51:01.50	300.67	16.08	-29.7	-32.8	13.7	9.10e-06	0	44	102	1048576	19	5134
2026-01-06 02:51:02.51	300.46	16.04	-29.7	-32.7	13.7	2.18e-03	0	44	102	1048576	19	5117
2026-01-06 02:51:03.52	300.26	16.00	-29.7	-32.7	13.7	1.04e-03	0	43	102	1048576	19	5125
2026-01-06 02:51:04.53	300.05	15.96	-29.7	-32.7	13.7	9.90e-06	0	43	102	1048576	19	5124
2026-01-06 02:51:05.54	299.84	15.92	-29.7	-32.9	13.6	2.40e-03	0	44	102	1048576	19	5184
2026-01-06 02:51:06.54	299.64	15.88	-29.7	-32.9	13.6	1.55e-03	0	44	102	1048576	19	5184
2026-01-06 02:51:07.55	299.44	15.83	-29.6	-32.5	13.8	3.00e-06	0	44	102	1048576	19	5048
2026-01-06 02:51:08.56	299.23	15.79	-29.6	-32.5	13.8	1.72e-03	0	44	102	1048576	19	5027
2026-01-06 02:51:09.56	299.03	15.75	-29.6	-32.5	13.8	7.48e-04	0	44	102	1048576	19	5052
2026-01-06 02:51:10.57	298.83	15.71	-29.7	-32.7	13.7	6.80e-06	0	44	102	1048576	19	5125
2026-01-06 02:51:11.58	298.63	15.67	-29.7	-32.8	13.6	6.80e-06	0	43	102	1048576	19	5157
2026-01-06 02:51:12.59	298.43	15.62	-29.7	-32.7	13.7	5.30e-06	0	44	102	1048576	19	5113
2026-01-06 02:51:13.59	298.23	15.58	-29.7	-32.8	13.7	1.50e-06	0	44	102	1048576	19	5132
2026-01-06 02:51:14.59	298.03	15.54	-29.8	-33.2	13.4	1.02e-03	0	44	102	1048576	19	5298
2026-01-06 02:51:15.60	297.83	15.49	-29.8	-33.2	13.4	1.35e-03	0	44	102	1048576	19	5285
2026-01-06 02:51:16.61	297.63	15.45	-29.8	-33.0	13.5	1.29e-05	0	44	102	1048576	19	5227
2026-01-06 02:51:17.62	297.43	15.40	-30.0	-33.6	13.1	1.56e-03	0	43	102	1048576	19	5464
2026-01-06 02:51:18.62	297.24	15.36	-30.1	-33.5	12.7	4.19e-05	0	44	102	1048576	20	5322
2026-01-06 02:51:19.63	297.04	15.31	-30.1	-33.4	12.8	8.23e-05	0	44	102	1048576	20	5300
2026-01-06 02:51:20.63	296.84	15.27	-30.0	-33.5	13.1	1.81e-03	0	44	102	1048576	19	5442
2026-01-06 02:51:21.64	296.65	15.22	-30.0	-33.1	13.0	1.79e-03	0	44	102	1048576	20	5187
2026-01-06 02:51:22.65	296.45	15.18	-30.2	-34.0	12.4	1.16e-04	0	44	102	1048576	20	5522
2026-01-06 02:51:23.65	296.26	15.13	-30.2	-33.8	12.5	2.01e-03	0	44	102	1048576	20	5446
2026-01-06 02:51:24.66	296.07	15.08	-30.1	-33.4	12.8	1.66e-03	0	43	102	1048576	20	5294
2026-01-06 02:51:25.66	295.87	15.04	-30.0	-33.2	12.9	4.80e-05	0	44	102	1048576	20	5205
2026-01-06 02:51:26.67	295.68	14.99	-29.9	-33.5	13.1	1.01e-03	0	44	102	1048576	19	5432
2026-01-06 02:51:27.68	295.49	14.94	-29.9	-33.4	13.1	4.57e-04	0	44	102	1048576	19	5395
2026-01-06 02:51:28.69	295.30	14.90	-30.0	-33.1	12.9	3.35e-05	0	44	102	1048576	20	5184
2026-01-06 02:51:29.69	295.11	14.85	-29.2	-32.5	12.8	4.32e-04	0	44	102	1048576	20	5265
2026-01-06 02:51:30.70	294.92	14.80	-30.1	-34.0	12.6	1.30e-03	0	44	102	1048576	19	5641
2026-01-06 02:51:31.70	294.73	14.76	-30.2	-33.9	11.9	8.77e-05	0	44	102	1048576	20	5494
2026-01-06 02:51:32.72	294.54	14.71	-30.2	-33.8	11.6	1.72e-04	0	44	102	1048576	20	5452
2026-01-06 02:51:33.72	294.35	14.66	-30.0	-33.3	12.2	1.71e-03	0	44	102	1048576	20	5232
2026-01-06 02:51:34.73	294.16	14.61	-30.0	-33.2	12.9	4.42e-05	0	44	102	1048576	20	5200
2026-01-06 02:51:35.74	293.98	14.56	-30.0	-33.2	12.9	2.40e-03	0	44	102	1048576	20	5212
2026-01-06 02:51:36.75	293.79	14.51	-30.1	-33.6	12.6	2.49e-04	0	44	102	1048576	20	5369
2026-01-06 02:51:37.76	293.60	14.46	-30.3	-34.1	12.2	1.50e-04	0	44	102	1048576	20	5571
2026-01-06 02:51:38.76	293.42	14.41	-30.2	-34.0	12.3	5.29e-04	0	44	102	1048576	20	5542
2026-01-06 02:51:39.77	293.23	14.36	-30.4	-34.3	12.0	7.90e-04	0	44	102	1048576	20	5691
2026-01-06 02:51:40.78	293.05	14.31	-30.4	-34.4	12.0	3.42e-04	0	44	102	1048576	20	5702
2026-01-06 02:51:41.78	292.87	14.26	-30.3	-34.3	12.1	2.41e-03	0	44	102	1048576	20	5657
2026-01-06 02:51:42.79	292.68	14.21	-30.3	-34.3	12.1	5.90e-04	0	44	102	1048576	20	5662
2026-01-06 02:51:43.80	292.50	14.16	-30.5	-34.7	11.7	4.09e-04	0	44	102	1048576	20	5876
2026-01-06 02:51:44.80	292.32	14.11	-30.7	-35.1	11.1	3.20e-03	0	44	102	1048576	21	5912
2026-01-06 02:51:45.81	292.14	14.06	-30.6	-34.6	11.5	1.17e-03	0	44	102	1048576	21	5692
2026-01-06 02:51:46.82	291.96	14.01	-30.4	-34.6	11.9	2.75e-03	0	44	102	1048576	20	5804
2026-01-06 02:51:47.82	291.78	13.96	-30.3	-34.3	12.0	2.33e-03	0	44	102	1048576	20	5693
2026-01-06 02:51:48.83	291.60	13.91	-30.3	-34.1	12.2	2.89e-04	0	44	102	1048576	20	5599
2026-01-06 02:51:49.84	291.42	13.86	-30.3	-34.3	12.0	2.75e-03	0	44	102	1048576	20	5700
2026-01-06 02:51:50.84	291.25	13.81	-30.5	-34.7	11.8	4.68e-04	0	43	102	1048576	20	5855
2026-01-06 02:51:51.85	291.07	13.76	-30.5	-34.7	11.8	1.56e-03	0	44	102	1048576	20	5840
2026-01-06 02:51:52.86	290.89	13.70	-30.5	-34.5	11.6	3.20e-03	0	44	102	1048576	21	5669
2026-01-06 02:51:53.86	290.72	13.65	-30.7	-34.8	11.3	3.94e-03	0	43	102	1048576	21	5789
2026-01-06 02:51:54.86	290.54	13.60	-30.6	-34.5	11.5	1.70e-03	0	44	102	1048576	21	5684
2026-01-06 02:51:55.88	290.37	13.55	-30.5	-34.3	11.6	3.27e-03	0	44	102	1048576	21	5597
2026-01-06 02:51:56.88	290.20	13.50	-30.4	-34.7	11.7	3.38e-03	0	44	102	1048576	20	5850
2026-01-06 02:51:57.89	290.02	13.44	-30.4	-34.5	11.9	8.01e-04	0	44	102	1048576	20	5760
2026-01-06 02:51:58.89	289.85	13.39	-30.3	-34.3	12.0	3.24e-03	0	44	102	1048576	20	5694
2026-01-06 02:51:59.90	289.68	13.34	-30.5	-34.7	11.7	3.32e-03	0	44	102	1048576	20	5868
2026-01-06 02:52:00.90	289.51	13.29	-30.4	-34.5	11.9	8.73e-04	0	44	102	1048576	20	5784
2026-01-06 02:52:01.91	289.34	13.23	-30.4	-34.6	11.8	4.66e-04	0	44	102	1048576	20	5812
2026-01-06 02:52:02.92	289.17	13.18	-30.5	-34.4	11.5	3.49e-03	0	44	102	1048576	21	5638
2026-01-06 02:52:03.92	289.00	13.13	-30.6	-34.7	11.3	1.72e-03	0	44	102	1048576	21	5777
2026-01-06 02:52:04.93	288.83	13.07	-30.7	-35.1	11.1	4.15e-03	0	44	102	1048576	21	5940
2026-01-06 02:52:05.94	288.66	13.02	-30.7	-35.1	11.0	4.95e-03	0	44	102	1048576	21	5964
2026-01-06 02:52:06.95	288.49	12.96	-30.8	-35.3	10.9	2.39e-03	0	44	102	1048576	21	6050
2026-01-06 02:52:07.95	288.32	12.91	-30.8	-35.3	10.9	4.97e-03	0	44	102	1048576	21	6038
2026-01-06 02:52:08.96	288.16	12.86	-30.7	-35.2	11.0	2.08e-03	0	44	102	1048576	21	5980
2026-01-06 02:52:09.97	287.99	12.80	-30.8	-35.2	10.9	1.98e-03	0	44	102	1048576	21	6026
2026-01-06 02:52:10.98	287.83	12.75	-30.9	-35.6	10.4	4.34e-03	0	44	102	1048576	21	6217
2026-01-06 02:52:11.98	287.66	12.69	-30.8	-35.2	10.7	3.30e-03	0	44	102	1048576	21	6043
2026-01-06 02:52:12.99	287.50	12.64	-30.9	-35.7	10.5	3.57e-03	0	44	102	1048576	21	6259
2026-01-06 02:52:14.00	287.33	12.58	-30.8	-35.3	10.8	5.13e-03	0	44	102	1048576	21	6070
2026-01-06 02:52:15.00	287.17	12.53	-30.7	-35.1	10.9	4.85e-03	0	44	102	1048576	21	5990
2026-01-06 02:52:16.01	287.01	12.48	-30.8	-35.3	10.8	2.54e-03	0	44	102	1048576	21	6078
2026-01-06 02:52:17.02	286.85	12.42	-30.9	-35.8	10.4	5.99e-03	0	44	102	1048576	21	6306
2026-01-06 02:52:18.02	286.69	12.37	-30.8	-35.4	10.7	6.13e-03	0	44	102	1048576	21	6109
2026-01-06 02:52:19.03	286.53	12.31	-30.8	-35.3	10.8	2.13e-03	0	44	102	1048576	21	6043
2026-01-06 02:52:20.04	286.37	12.25	-30.7	-35.1	10.9	4.89e-03	0	44	102	1048576	21	5973
2026-01-06 02:52:21.04	286.21	12.20	-30.7	-35.1	11.0	4.58e-03	0	44	102	1048576	21	5968
2026-01-06 02:52:22.05	286.05	12.14	-30.7	-35.0	11.0	1.87e-03	0	44	102	1048576	21	5898
2026-01-06 02:52:23.06	285.89	12.09	-30.8	-35.3	10.8	3.44e-03	0	44	102	1048576	21	6052
2026-01-06 02:52:24.06	285.74	12.03	-30.7	-35.0	11.0	5.49e-03	0	44	102	1048576	21	5900
2026-01-06 02:52:25.06	285.58	11.98	-30.6	-34.9	11.1	2.41e-03	0	44	102	1048576	21	5858
2026-01-06 02:52:26.07	285.42	11.92	-30.7	-34.9	11.1	3.72e-03	0	44	102	1048576	21	5881
2026-01-06 02:52:27.08	285.27	11.87	-30.7	-35.0	10.9	1.92e-03	0	44	102	1048576	21	5942
2026-01-06 02:52:28.09	285.11	11.81	-30.7	-35.3	10.7	2.89e-03	0	44	102	1048576	21	6073
2026-01-06 02:52:29.09	284.96	11.75	-30.8	-35.5	10.6	5.61e-03	0	44	102	1048576	21	6191
2026-01-06 02:52:30.10	284.81	11.70	-30.8	-35.3	10.7	5.21e-03	0	44	102	1048576	21	6098
2026-01-06 02:52:31.11	284.65	11.64	-30.7	-35.2	10.8	3.16e-03	0	44	102	1048576	21	6026
2026-01-06 02:52:32.12	284.50	11.59	-30.8	-35.3	10.7	3.53e-03	0	44	102	1048576	21	6094
2026-01-06 02:52:33.13	284.35	11.53	-30.8	-35.5	10.6	3.95e-03	0	44	102	1048576	21	6192
2026-01-06 02:52:34.13	284.20	11.47	-30.6	-34.8	11.0	2.72e-03	0	44	102	1048576	21	5866
2026-01-06 02:52:35.14	284.04	11.42	-30.5	-34.6	11.2	2.86e-03	0	44	102	1048576	21	5735
2026-01-06 02:52:36.15	283.89	11.36	-30.4	-34.7	11.5	2.66e-03	0	44	102	1048576	20	5876
2026-01-06 02:52:37.16	283.74	11.30	-30.3	-34.4	11.7	7.32e-04	0	44	102	1048576	20	5774
2026-01-06 02:52:38.16	283.60	11.25	-30.3	-34.3	11.8	5.03e-04	0	44	102	1048576	20	5710
2026-01-06 02:52:39.16	283.45	11.19	-30.4	-34.6	11.6	3.28e-03	0	44	102	1048576	20	5849
2026-01-06 02:52:40.17	283.30	11.13	-30.3	-34.3	11.8	6.38e-04	0	44	102	1048576	20	5711
2026-01-06 02:52:41.17	283.15	11.08	-30.2	-34.1	11.9	2.80e-03	0	44	102	1048576	20	5627
2026-01-06 02:52:42.18	283.01	11.02	-30.3	-34.3	11.8	2.98e-03	0	44	102	1048576	20	5732
2026-01-06 02:52:43.18	282.86	10.97	-30.3	-34.3	11.8	5.72e-04	0	44	102	1048576	20	5703
2026-01-06 02:52:44.19	282.72	10.91	-30.3	-34.4	11.7	3.20e-03	0	44	102	1048576	20	5773
2026-01-06 02:52:45.19	282.57	10.85	-30.4	-34.6	11.5	3.62e-03	0	44	102	1048576	20	5880
2026-01-06 02:52:46.20	282.43	10.79	-30.4	-34.8	11.3	1.13e-03	0	44	102	1048576	20	5942
2026-01-06 02:52:47.21	282.28	10.74	-30.4	-34.6	11.5	3.71e-03	0	44	102	1048576	20	5879
2026-01-06 02:52:48.22	282.14	10.68	-30.4	-34.8	11.4	3.62e-03	0	44	102	1048576	20	5940
2026-01-06 02:52:49.23	282.00	10.62	-30.4	-34.8	11.4	1.10e-03	0	44	102	1048576	20	5947
2026-01-06 02:52:50.23	281.86	10.57	-30.1	-34.1	11.7	3.21e-03	0	44	102	1048576	20	5754
2026-01-06 02:52:51.24	281.71	10.51	-28.9	-33.1	11.8	2.89e-03	0	44	102	1048576	19	5831
2026-01-06 02:52:52.25	281.57	10.45	-30.2	-34.1	11.5	4.29e-04	0	44	102	1048576	20	5626
2026-01-06 02:52:53.25	281.43	10.39	-30.2	-34.3	11.3	2.56e-03	0	44	102	1048576	20	5742
2026-01-06 02:52:54.26	281.29	10.34	-30.3	-34.4	11.4	1.67e-03	0	44	102	1048576	20	5781
2026-01-06 02:52:55.27	281.15	10.28	-30.5	-35.0	10.8	3.52e-03	0	44	102	1048576	20	6046
2026-01-06 02:52:56.27	281.01	10.22	-30.2	-34.2	11.8	7.71e-04	0	44	102	1048576	20	5676
2026-01-06 02:52:57.28	280.88	10.17	-30.0	-33.7	12.1	8.22e-04	0	44	102	1048576	20	5480
2026-01-06 02:52:58.30	280.74	10.11	-30.0	-33.4	12.3	1.88e-04	0	44	102	1048576	20	5353
2026-01-06 02:52:59.30	280.60	10.05	-30.0	-33.4	12.3	1.69e-04	0	44	102	1048576	20	5353
2026-01-06 02:53:00.30	280.46	9.99	-29.9	-33.4	12.3	2.55e-03	0	44	102	1048576	20	5351
2026-01-06 02:53:01.31	280.33	9.94	-30.0	-33.6	12.1	2.19e-04	0	44	102	1048576	20	5427
2026-01-06 02:53:02.33	280.19	9.88	-30.0	-33.7	12.1	3.73e-03	0	44	102	1048576	20	5466
2026-01-06 02:53:03.33	280.06	9.82	-29.9	-33.8	12.4	3.02e-03	0	43	102	1048576	19	5636
2026-01-06 02:53:04.33	279.92	9.76	-29.9	-33.7	12.5	1.32e-04	0	44	102	1048576	19	5585
2026-01-06 02:53:05.34	279.79	9.71	-29.9	-33.8	12.4	3.08e-03	0	44	102	1048576	19	5625
2026-01-06 02:53:06.35	279.66	9.65	-30.0	-33.9	12.3	1.34e-03	0	44	102	1048576	19	5680
2026-01-06 02:53:07.36	279.52	9.59	-29.9	-33.7	12.5	1.73e-04	0	44	102	1048576	19	5595
2026-01-06 02:53:08.37	279.39	9.53	-29.9	-33.7	12.5	6.55e-03	0	44	102	1048576	19	5566
2026-01-06 02:53:09.38	279.26	9.47	-29.9	-33.7	12.5	1.17e-03	0	44	102	1048576	19	5571
2026-01-06 02:53:10.39	279.13	9.42	-29.9	-33.6	12.5	1.23e-04	0	44	102	1048576	19	5547
2026-01-06 02:53:11.40	278.99	9.36	-29.8	-33.6	12.5	2.35e-03	0	44	102	1048576	19	5539
2026-01-06 02:53:12.40	278.87	9.30	-29.8	-33.5	12.6	8.23e-04	0	44	102	1048576	19	5502
2026-01-06 02:53:13.41	278.74	9.24	-29.9	-33.7	12.5	3.69e-03	0	44	102	1048576	19	5569
2026-01-06 02:53:14.41	278.61	9.19	-29.9	-33.8	12.4	1.55e-03	0	44	102	1048576	19	5625
2026-01-06 02:53:15.42	278.48	9.13	-29.7	-33.2	12.7	7.93e-04	0	44	102	1048576	19	5378
2026-01-06 02:53:16.42	278.35	9.07	-29.7	-33.1	12.9	3.62e-03	0	44	102	1048576	19	5321
2026-01-06 02:53:17.43	278.22	9.01	-29.7	-33.1	12.8	6.25e-05	0	44	102	1048576	19	5340
2026-01-06 02:53:18.43	278.10	8.96	-29.8	-33.3	12.7	1.73e-03	0	44	102	1048576	19	5432
2026-01-06 02:53:19.44	277.97	8.90	-29.8	-33.5	12.6	4.35e-03	0	44	102	1048576	19	5499
2026-01-06 02:53:20.45	277.84	8.84	-29.8	-33.3	12.6	4.29e-03	0	44	102	1048576	19	5440
2026-01-06 02:53:21.45	277.72	8.78	-29.8	-33.5	12.5	2.67e-03	0	44	102	1048576	19	5522
2026-01-06 02:53:22.46	277.59	8.73	-29.9	-33.7	12.3	4.20e-03	0	44	102	1048576	19	5610
2026-01-06 02:53:23.47	277.47	8.67	-29.9	-33.9	12.2	4.87e-03	0	44	102	1048576	19	5666
2026-01-06 02:53:24.48	277.34	8.61	-29.8	-33.6	12.4	2.32e-03	0	44	102	1048576	19	5554
2026-01-06 02:53:25.48	277.22	8.55	-29.9	-33.5	12.0	3.77e-03	0	44	102	1048576	20	5427
2026-01-06 02:53:26.49	277.10	8.49	-30.0	-33.8	11.8	4.41e-03	0	44	102	1048576	20	5551
2026-01-06 02:53:27.50	276.98	8.44	-30.0	-34.0	12.1	2.09e-03	0	44	102	1048576	19	5740
2026-01-06 02:53:28.50	276.85	8.38	-30.0	-34.0	12.1	3.97e-03	0	44	102	1048576	19	5741
2026-01-06 02:53:29.51	276.73	8.32	-30.1	-33.9	11.8	3.38e-03	0	44	102	1048576	20	5603
2026-01-06 02:53:30.51	276.61	8.26	-30.1	-34.0	11.6	1.22e-03	0	44	102	1048576	20	5643
2026-01-06 02:53:31.52	276.49	8.21	-30.1	-34.1	11.6	5.92e-04	0	44	102	1048576	20	5694
2026-01-06 02:53:32.53	276.37	8.15	-29.3	-33.2	11.6	3.82e-03	0	44	102	1048576	20	5638
2026-01-06 02:53:33.54	276.25	8.09	-29.6	-33.7	11.8	2.20e-03	0	44	102	1048576	19	5799
2026-01-06 02:53:34.55	276.13	8.03	-29.8	-33.8	11.1	3.16e-03	0	44	102	1048576	19	5712
2026-01-06 02:53:35.56	276.01	7.98	-29.9	-33.9	10.8	2.59e-03	0	44	102	1048576	19	5707
2026-01-06 02:53:36.56	275.89	7.92	-30.0	-33.7	11.6	9.60e-04	0	44	102	1048576	20	5502
2026-01-06 02:53:37.57	275.78	7.86	-30.1	-34.2	11.0	3.86e-03	0	44	102	1048576	20	5733
2026-01-06 02:53:38.58	275.66	7.80	-30.2	-34.2	11.4	3.44e-03	0	44	102	1048576	20	5750
2026-01-06 02:53:39.59	275.54	7.75	-30.1	-34.1	11.5	1.96e-03	0	44	102	1048576	20	5699
2026-01-06 02:53:40.59	275.43	7.69	-30.1	-34.1	11.5	3.82e-03	0	44	102	1048576	20	5671
2026-01-06 02:53:41.60	275.31	7.63	-30.3	-34.6	11.2	4.23e-03	0	44	102	1048576	20	5932
2026-01-06 02:53:42.60	275.20	7.57	-30.2	-34.5	11.3	1.26e-03	0	44	102	1048576	20	5856
2026-01-06 02:53:43.61	275.08	7.52	-30.3	-34.5	11.2	4.68e-03	0	44	102	1048576	20	5897
2026-01-06 02:53:44.62	274.97	7.46	-30.3	-34.8	11.0	3.95e-03	0	44	102	1048576	20	6040
2026-01-06 02:53:45.62	274.85	7.40	-30.5	-35.2	10.7	2.85e-03	0	44	102	1048576	20	6231
2026-01-06 02:53:46.63	274.74	7.34	-30.7	-35.5	10.1	4.78e-03	0	44	102	1048576	21	6262
2026-01-06 02:53:47.64	274.63	7.29	-30.6	-35.3	10.2	9.43e-03	0	44	102	1048576	21	6169
2026-01-06 02:53:48.65	274.51	7.23	-30.4	-34.7	10.6	3.88e-03	0	44	102	1048576	21	5888
2026-01-06 02:53:49.65	274.40	7.17	-30.3	-34.6	11.1	2.18e-03	0	44	102	1048576	20	5935
2026-01-06 02:53:50.65	274.29	7.12	-30.0	-33.8	11.7	3.24e-03	0	44	102	1048576	20	5580
2026-01-06 02:53:51.66	274.18	7.06	-32.7	-46.5	3.8	6.25e-01	0	44	104	1048576	25	17749
2026-01-06 02:53:52.67	274.07	7.00	-32.9	-47.5	3.8	1.49e+00	0	44	104	1048576	25	19182
2026-01-06 02:53:53.69	273.96	6.94	-33.3	-47.7	3.8	1.49e+00	0	44	104	1048576	26	18837

#Closed at: 2026-01-06 02:53:54
#Recorded file [1 MB]: D:/data/31010_260106_054507.dat