passes_logs/2026/01/06/R2M6_AANII_01/R2M6_AANII_01__20260106_010422_NOAA_20_JPSS-1_rec.log

#Pass ID: 20260106_010422_NOAA 20 (JPSS-1)
#Satellite: NOAA 20 (JPSS-1)
#Configuration: NOAA 20
#almurnet v.1.7.20240730
#Start time: 2026-01-06 01:04:23

#Version: 2.2.20231116
#Station: R2M6_AANII_01
#Location: 30.233357 lon 59.946436 lat
#TLE: 1 43013U 17073A   26005.46207808  .00000128  00000+0  81791-4 0  9997
#TLE: 2 43013  98.7627 306.5027 0001826  53.0458 307.0885 14.19533487421381

#Time	Az	El	Level	Level2	SNR	BER	BlckErr	Temp	State	Recorded	gain1	gain2
2026-01-06 01:04:23.23	14.70	7.04	-31.5	-38.0	5.0	1.28e+00	0	41	0	0	22	7648
2026-01-06 01:04:24.23	14.66	7.12	-31.8	-39.0	4.8	1.33e+00	0	41	104	0	23	8260
2026-01-06 01:04:25.24	14.63	7.19	-31.7	-38.3	7.4	1.34e-01	0	41	0	0	23	7712
2026-01-06 01:04:26.24	14.59	7.27	-31.7	-38.4	7.4	1.32e-01	0	41	102	1048576	23	7782
2026-01-06 01:04:27.25	14.55	7.35	-31.6	-37.8	7.8	1.04e-01	0	41	102	1048576	23	7356
2026-01-06 01:04:28.26	14.52	7.42	-31.5	-37.4	8.1	6.88e-02	0	41	102	1048576	23	7104
2026-01-06 01:04:29.26	14.48	7.50	-31.4	-37.3	8.6	5.04e-02	0	41	102	1048576	22	7135
2026-01-06 01:04:30.27	14.45	7.58	-31.2	-36.7	9.2	2.68e-02	0	41	102	1048576	22	6756
2026-01-06 01:04:31.27	14.41	7.65	-31.1	-36.3	9.5	1.74e-02	0	41	102	1048576	22	6501
2026-01-06 01:04:32.28	14.37	7.73	-31.2	-36.5	9.3	2.13e-02	0	41	102	1048576	22	6626
2026-01-06 01:04:33.28	14.34	7.81	-31.3	-36.7	9.2	1.88e-02	0	41	102	1048576	22	6729
2026-01-06 01:04:34.29	14.30	7.89	-31.4	-37.3	8.7	3.46e-02	0	41	102	1048576	22	7115
2026-01-06 01:04:35.30	14.26	7.97	-31.2	-36.2	9.6	2.49e-02	0	41	102	1048576	22	6475
2026-01-06 01:04:36.30	14.22	8.04	-30.9	-35.5	10.2	7.63e-03	0	41	102	1048576	22	6063
2026-01-06 01:04:37.31	14.18	8.12	-30.8	-35.4	10.6	4.89e-03	0	41	102	1048576	21	6154
2026-01-06 01:04:38.31	14.15	8.20	-31.0	-36.1	10.0	6.85e-03	0	41	102	1048576	21	6520
2026-01-06 01:04:39.32	14.11	8.28	-31.2	-36.5	9.4	1.34e-02	0	42	102	1048576	22	6631
2026-01-06 01:04:40.32	14.07	8.36	-31.2	-36.3	9.6	1.43e-02	0	42	102	1048576	22	6510
2026-01-06 01:04:41.33	14.03	8.44	-31.1	-36.2	9.7	1.46e-02	0	41	102	1048576	22	6427
2026-01-06 01:04:42.33	13.99	8.52	-31.2	-36.6	9.4	1.70e-02	0	42	102	1048576	22	6634
2026-01-06 01:04:43.34	13.95	8.60	-31.2	-36.3	9.6	1.27e-02	0	42	102	1048576	22	6478
2026-01-06 01:04:44.34	13.91	8.68	-31.3	-36.6	9.4	1.76e-02	0	42	102	1048576	22	6662
2026-01-06 01:04:45.35	13.87	8.76	-31.3	-36.6	9.4	2.26e-02	0	42	102	1048576	22	6655
2026-01-06 01:04:46.35	13.83	8.84	-31.0	-35.7	10.1	8.71e-03	0	42	102	1048576	22	6166
2026-01-06 01:04:47.36	13.79	8.92	-30.8	-35.4	10.7	4.46e-03	0	42	102	1048576	21	6132
2026-01-06 01:04:48.36	13.75	9.00	-30.5	-34.5	11.4	4.13e-03	0	42	102	1048576	21	5681
2026-01-06 01:04:49.37	13.71	9.08	-30.3	-34.2	11.9	1.03e-03	0	42	102	1048576	20	5665
2026-01-06 01:04:50.37	13.67	9.16	-30.1	-33.7	12.3	2.90e-04	0	42	102	1048576	20	5460
2026-01-06 01:04:51.37	13.63	9.24	-29.9	-33.1	12.7	2.71e-03	0	42	102	1048576	20	5198
2026-01-06 01:04:52.38	13.59	9.33	-30.0	-33.3	12.6	3.76e-04	0	42	102	1048576	20	5273
2026-01-06 01:04:53.39	13.54	9.41	-30.0	-33.3	12.6	8.77e-05	0	42	102	1048576	20	5289
2026-01-06 01:04:54.39	13.50	9.49	-30.0	-33.4	12.5	1.64e-04	0	42	102	1048576	20	5308
2026-01-06 01:04:55.40	13.46	9.58	-29.9	-33.1	12.8	4.28e-04	0	42	102	1048576	20	5187
2026-01-06 01:04:56.41	13.42	9.66	-29.9	-33.1	12.8	7.24e-05	0	42	102	1048576	20	5184
2026-01-06 01:04:57.42	13.37	9.74	-30.0	-33.5	12.5	1.01e-04	0	42	102	1048576	20	5344
2026-01-06 01:04:58.43	13.33	9.83	-30.1	-33.6	12.5	1.67e-04	0	42	102	1048576	20	5372
2026-01-06 01:04:59.43	13.29	9.91	-30.0	-33.2	12.7	8.62e-05	0	42	102	1048576	20	5233
2026-01-06 01:05:00.43	13.24	9.99	-30.1	-33.7	12.4	1.04e-04	0	42	102	1048576	20	5433
2026-01-06 01:05:01.44	13.20	10.08	-30.2	-33.9	12.3	2.54e-04	0	42	102	1048576	20	5499
2026-01-06 01:05:02.45	13.16	10.16	-30.1	-33.5	12.6	2.58e-03	0	42	102	1048576	20	5332
2026-01-06 01:05:03.46	13.11	10.25	-30.0	-33.2	12.8	7.47e-05	0	42	102	1048576	20	5214
2026-01-06 01:05:04.46	13.07	10.33	-29.9	-33.4	13.1	3.73e-05	0	42	102	1048576	19	5399
2026-01-06 01:05:05.47	13.02	10.42	-29.9	-33.5	13.0	2.82e-05	0	42	102	1048576	19	5435
2026-01-06 01:05:06.48	12.98	10.51	-29.9	-33.1	12.8	5.61e-04	0	42	102	1048576	20	5205
2026-01-06 01:05:07.49	12.93	10.59	-30.1	-33.6	12.6	7.32e-05	0	42	102	1048576	20	5379
2026-01-06 01:05:08.49	12.88	10.68	-30.2	-33.8	12.4	1.53e-04	0	42	102	1048576	20	5460
2026-01-06 01:05:09.50	12.84	10.77	-29.9	-33.1	12.9	5.55e-04	0	42	102	1048576	20	5168
2026-01-06 01:05:10.51	12.79	10.85	-29.9	-33.5	13.1	2.74e-05	0	42	102	1048576	19	5427
2026-01-06 01:05:11.52	12.74	10.94	-29.9	-33.0	13.0	4.34e-05	0	42	102	1048576	20	5125
2026-01-06 01:05:12.52	12.70	11.03	-29.9	-33.4	13.2	4.34e-05	0	42	102	1048576	19	5376
2026-01-06 01:05:13.53	12.65	11.12	-30.0	-33.1	12.9	5.36e-04	0	42	102	1048576	20	5197
2026-01-06 01:05:14.53	12.60	11.20	-30.2	-33.7	12.5	6.94e-05	0	42	102	1048576	20	5420
2026-01-06 01:05:15.54	12.55	11.29	-30.1	-33.6	12.5	1.45e-04	0	42	102	1048576	20	5392
2026-01-06 01:05:16.54	12.50	11.38	-29.5	-32.6	12.9	7.41e-04	0	42	102	1048576	20	5159
2026-01-06 01:05:17.54	12.46	11.47	-28.7	-32.2	12.3	4.73e-05	0	42	102	1048576	19	5388
2026-01-06 01:05:18.55	12.41	11.56	-30.7	-34.8	12.5	5.64e-05	0	42	102	1048576	20	5730
2026-01-06 01:05:19.56	12.36	11.65	-30.1	-33.6	11.8	8.36e-04	0	42	102	1048576	20	5362
2026-01-06 01:05:20.57	12.31	11.74	-29.9	-33.4	12.1	4.57e-05	0	42	102	1048576	19	5377
2026-01-06 01:05:21.57	12.26	11.83	-30.0	-33.6	12.9	3.20e-05	0	42	102	1048576	19	5465
2026-01-06 01:05:22.58	12.21	11.92	-30.1	-33.4	12.8	3.16e-03	0	42	102	1048576	20	5287
2026-01-06 01:05:23.59	12.16	12.01	-30.0	-33.3	12.9	7.40e-05	0	42	102	1048576	20	5234
2026-01-06 01:05:24.59	12.10	12.10	-29.9	-32.9	13.1	6.37e-04	0	42	102	1048576	20	5105
2026-01-06 01:05:25.60	12.05	12.20	-29.8	-33.2	13.3	1.37e-05	0	43	102	1048576	19	5307
2026-01-06 01:05:26.61	12.00	12.29	-29.9	-33.4	13.2	5.41e-04	0	43	102	1048576	19	5385
2026-01-06 01:05:27.61	11.95	12.38	-30.0	-33.1	13.0	3.69e-04	0	43	102	1048576	20	5161
2026-01-06 01:05:28.62	11.90	12.47	-30.1	-33.6	12.7	4.57e-05	0	43	102	1048576	20	5363
2026-01-06 01:05:29.63	11.84	12.57	-30.1	-33.4	12.8	2.55e-03	0	43	102	1048576	20	5296
2026-01-06 01:05:30.64	11.79	12.66	-29.9	-33.5	13.2	3.53e-04	0	42	102	1048576	19	5412
2026-01-06 01:05:31.64	11.74	12.75	-29.8	-33.1	13.4	3.29e-04	0	43	102	1048576	19	5265
2026-01-06 01:05:32.65	11.68	12.85	-29.6	-32.7	13.7	2.19e-03	0	43	102	1048576	19	5097
2026-01-06 01:05:33.66	11.63	12.94	-29.6	-32.6	13.7	5.46e-04	0	43	102	1048576	19	5089
2026-01-06 01:05:34.67	11.57	13.04	-29.6	-32.6	13.8	2.89e-04	0	43	102	1048576	19	5067
2026-01-06 01:05:35.67	11.52	13.13	-29.6	-32.5	13.8	5.30e-06	0	43	102	1048576	19	5053
2026-01-06 01:05:36.68	11.46	13.23	-29.7	-32.7	13.7	5.22e-04	0	42	102	1048576	19	5102
2026-01-06 01:05:37.69	11.41	13.32	-29.6	-32.6	13.8	3.31e-04	0	43	102	1048576	19	5061
2026-01-06 01:05:38.69	11.35	13.42	-29.6	-32.4	13.9	2.20e-06	0	43	102	1048576	19	5003
2026-01-06 01:05:39.70	11.29	13.51	-29.6	-32.4	13.9	6.34e-04	0	42	102	1048576	19	5006
2026-01-06 01:05:40.71	11.24	13.61	-29.6	-32.5	13.9	2.74e-03	0	42	102	1048576	19	5033
2026-01-06 01:05:41.72	11.18	13.71	-29.7	-32.7	13.8	5.30e-06	0	43	102	1048576	19	5097
2026-01-06 01:05:42.72	11.12	13.80	-29.8	-33.0	13.5	6.57e-04	0	43	102	1048576	19	5212
2026-01-06 01:05:43.73	11.06	13.90	-29.8	-33.0	13.6	2.54e-03	0	43	102	1048576	19	5210
2026-01-06 01:05:44.74	11.00	14.00	-29.7	-32.9	13.6	1.06e-05	0	43	102	1048576	19	5168
2026-01-06 01:05:45.75	10.94	14.10	-29.9	-33.3	13.3	2.96e-04	0	43	102	1048576	19	5346
2026-01-06 01:05:46.75	10.88	14.20	-29.8	-33.0	13.6	2.82e-03	0	43	102	1048576	19	5215
2026-01-06 01:05:47.76	10.82	14.30	-29.7	-32.7	13.7	2.37e-03	0	43	102	1048576	19	5112
2026-01-06 01:05:48.77	10.76	14.40	-29.7	-32.8	13.7	4.26e-04	0	43	102	1048576	19	5129
2026-01-06 01:05:49.78	10.70	14.50	-29.7	-32.8	13.7	2.26e-03	0	43	102	1048576	19	5137
2026-01-06 01:05:50.78	10.64	14.60	-29.5	-32.4	14.0	2.19e-03	0	43	102	1048576	19	4972
2026-01-06 01:05:51.79	10.58	14.70	-29.5	-32.2	14.1	6.13e-04	0	43	102	1048576	19	4924
2026-01-06 01:05:52.80	10.52	14.80	-29.5	-32.6	14.2	2.13e-03	0	43	102	1048576	18	5184
2026-01-06 01:05:53.81	10.45	14.90	-29.5	-32.6	14.2	2.35e-03	0	43	102	1048576	18	5181
2026-01-06 01:05:54.82	10.39	15.01	-29.5	-32.7	14.2	6.52e-04	0	43	102	1048576	18	5208
2026-01-06 01:05:55.82	10.33	15.11	-29.6	-32.6	13.9	2.41e-03	0	43	102	1048576	19	5054
2026-01-06 01:05:56.83	10.26	15.21	-29.6	-32.3	14.1	2.36e-03	0	43	102	1048576	19	4965
2026-01-06 01:05:57.84	10.20	15.31	-29.5	-32.2	14.1	7.08e-04	0	43	102	1048576	19	4911
2026-01-06 01:05:58.85	10.13	15.42	-29.7	-32.7	13.9	1.50e-06	0	43	102	1048576	19	5076
2026-01-06 01:05:59.86	10.07	15.52	-29.6	-32.5	14.0	2.06e-03	0	43	102	1048576	19	5017
2026-01-06 01:06:00.87	10.00	15.63	-29.6	-32.4	14.1	5.95e-04	0	43	102	1048576	19	4965
2026-01-06 01:06:01.87	9.94	15.73	-29.6	-32.5	14.0	2.42e-03	0	43	102	1048576	19	4994
2026-01-06 01:06:02.88	9.87	15.84	-29.7	-32.7	13.9	2.28e-03	0	43	102	1048576	19	5102
2026-01-06 01:06:03.88	9.80	15.94	-29.9	-33.2	13.5	1.72e-04	0	43	102	1048576	19	5282
2026-01-06 01:06:04.89	9.73	16.05	-29.7	-32.7	13.9	2.61e-03	0	43	102	1048576	19	5098
2026-01-06 01:06:05.90	9.67	16.15	-29.5	-32.3	14.2	3.80e-06	0	43	102	1048576	19	4937
2026-01-06 01:06:06.91	9.60	16.26	-29.6	-32.5	14.0	1.56e-04	0	43	102	1048576	19	5015
2026-01-06 01:06:07.92	9.53	16.37	-29.6	-32.5	14.0	2.63e-03	0	43	102	1048576	19	5014
2026-01-06 01:06:08.93	9.46	16.48	-29.7	-32.7	13.9	2.20e-06	0	43	102	1048576	19	5092
2026-01-06 01:06:09.93	9.39	16.58	-29.6	-32.4	14.1	2.20e-06	0	43	102	1048576	19	4963
2026-01-06 01:06:10.93	9.32	16.69	-29.6	-32.3	14.1	2.13e-03	0	43	102	1048576	19	4954
2026-01-06 01:06:11.94	9.24	16.80	-29.6	-32.3	14.1	1.50e-06	0	43	102	1048576	19	4956
2026-01-06 01:06:12.95	9.17	16.91	-29.6	-32.4	14.1	1.50e-06	0	43	102	1048576	19	4977
2026-01-06 01:06:13.95	9.10	17.02	-29.6	-32.5	14.1	2.30e-03	0	43	102	1048576	19	5008
2026-01-06 01:06:14.95	9.03	17.13	-29.6	-32.4	14.1	2.25e-03	0	43	102	1048576	19	4985
2026-01-06 01:06:15.96	8.95	17.24	-29.6	-32.4	14.1	7.00e-07	0	43	102	1048576	19	4979
2026-01-06 01:06:16.97	8.88	17.35	-29.7	-32.7	13.9	1.50e-06	0	43	102	1048576	19	5079
2026-01-06 01:06:17.98	8.80	17.46	-29.6	-32.3	14.2	2.04e-03	0	43	102	1048576	19	4950
2026-01-06 01:06:18.98	8.73	17.58	-29.5	-32.1	14.3	0.00e+00	0	43	102	1048576	19	4871
2026-01-06 01:06:19.99	8.65	17.69	-29.5	-32.2	14.2	0.00e+00	0	43	102	1048576	19	4910
2026-01-06 01:06:21.00	8.57	17.80	-29.5	-32.2	14.3	0.00e+00	0	43	102	1048576	19	4911
2026-01-06 01:06:22.01	8.50	17.92	-29.5	-32.2	14.3	1.50e-06	0	43	102	1048576	19	4915
2026-01-06 01:06:23.02	8.42	18.03	-29.6	-32.4	14.1	0.00e+00	0	43	102	1048576	19	4983
2026-01-06 01:06:24.02	8.34	18.14	-29.5	-32.1	14.3	1.50e-06	0	43	102	1048576	19	4856
2026-01-06 01:06:25.03	8.26	18.26	-29.5	-32.2	14.3	2.20e-06	0	43	102	1048576	19	4892
2026-01-06 01:06:26.04	8.18	18.37	-29.5	-32.1	14.3	1.50e-06	0	43	102	1048576	19	4880
2026-01-06 01:06:27.06	8.10	18.49	-29.5	-32.2	14.3	0.00e+00	0	43	102	1048576	19	4905
2026-01-06 01:06:28.06	8.02	18.61	-29.7	-32.6	14.1	1.50e-06	0	43	102	1048576	19	5031
2026-01-06 01:06:29.07	7.94	18.73	-29.5	-32.2	14.3	3.00e-06	0	43	102	1048576	19	4915
2026-01-06 01:06:30.08	7.85	18.84	-29.6	-32.5	14.1	1.50e-06	0	43	102	1048576	19	5026
2026-01-06 01:06:31.09	7.77	18.96	-29.8	-32.8	13.8	5.30e-06	0	43	102	1048576	19	5132
2026-01-06 01:06:32.10	7.69	19.08	-29.7	-32.6	14.0	2.20e-06	0	43	102	1048576	19	5031
2026-01-06 01:06:33.10	7.60	19.20	-29.6	-32.3	14.2	7.00e-07	0	43	102	1048576	19	4923
2026-01-06 01:06:34.11	7.52	19.32	-29.6	-32.3	14.3	0.00e+00	0	43	102	1048576	19	4948
2026-01-06 01:06:35.12	7.43	19.44	-29.6	-32.3	14.2	7.00e-07	0	43	102	1048576	19	4937
2026-01-06 01:06:36.12	7.35	19.56	-29.5	-32.0	14.4	3.00e-06	0	43	102	1048576	19	4827
2026-01-06 01:06:37.13	7.26	19.68	-29.3	-32.2	14.6	7.00e-07	0	43	102	1048576	18	5019
2026-01-06 01:06:38.14	7.17	19.80	-29.4	-32.3	13.3	2.26e-03	0	43	102	1048576	18	5037
2026-01-06 01:06:39.15	7.08	19.92	-29.4	-32.3	14.3	2.23e-04	0	43	102	1048576	18	5055
2026-01-06 01:06:40.15	6.99	20.04	-29.4	-32.4	13.0	0.00e+00	0	43	102	1048576	18	5076
2026-01-06 01:06:41.16	6.90	20.17	-29.5	-32.6	13.5	0.00e+00	0	43	102	1048576	18	5141
2026-01-06 01:06:42.16	6.81	20.29	-29.4	-32.3	14.6	1.78e-04	0	43	102	1048576	18	5040
2026-01-06 01:06:43.17	6.72	20.42	-29.4	-32.4	14.1	1.50e-06	0	43	102	1048576	18	5076
2026-01-06 01:06:44.17	6.63	20.54	-29.4	-32.2	14.6	1.50e-06	0	43	102	1048576	18	5010
2026-01-06 01:06:45.18	6.53	20.66	-29.4	-32.4	14.5	2.68e-04	0	43	102	1048576	18	5084
2026-01-06 01:06:46.18	6.44	20.79	-29.6	-32.3	14.3	1.70e-04	0	43	102	1048576	19	4911
2026-01-06 01:06:47.19	6.34	20.92	-29.6	-32.5	14.2	1.50e-06	0	43	102	1048576	19	4996
2026-01-06 01:06:48.20	6.25	21.04	-29.5	-32.2	14.4	4.11e-04	0	43	102	1048576	19	4890
2026-01-06 01:06:49.20	6.15	21.17	-29.6	-32.4	14.3	3.54e-04	0	43	102	1048576	19	4942
2026-01-06 01:06:50.21	6.05	21.30	-29.7	-32.6	14.1	0.00e+00	0	43	102	1048576	19	5044
2026-01-06 01:06:51.22	5.96	21.43	-29.6	-32.5	14.2	0.00e+00	0	43	102	1048576	19	4980
2026-01-06 01:06:52.23	5.86	21.56	-29.7	-32.7	14.0	2.67e-03	0	43	102	1048576	19	5083
2026-01-06 01:06:53.24	5.76	21.69	-29.7	-32.7	14.1	1.50e-06	0	43	102	1048576	19	5054
2026-01-06 01:06:54.24	5.66	21.82	-29.9	-33.1	13.8	1.50e-06	0	43	102	1048576	19	5212
2026-01-06 01:06:55.25	5.55	21.95	-30.1	-33.1	13.4	2.38e-03	0	43	102	1048576	20	5126
2026-01-06 01:06:56.26	5.45	22.08	-30.2	-33.6	13.1	2.37e-03	0	43	102	1048576	20	5311
2026-01-06 01:06:57.27	5.35	22.21	-30.0	-33.1	13.5	1.59e-04	0	43	102	1048576	20	5102
2026-01-06 01:06:58.27	5.24	22.34	-29.9	-32.8	13.7	2.58e-03	0	43	102	1048576	20	4989
2026-01-06 01:06:59.28	5.14	22.48	-29.9	-33.2	13.8	2.20e-03	0	43	102	1048576	19	5250
2026-01-06 01:07:00.29	5.03	22.61	-29.9	-33.1	13.9	3.16e-04	0	43	102	1048576	19	5211
2026-01-06 01:07:01.29	4.93	22.74	-29.9	-33.2	13.8	0.00e+00	0	43	102	1048576	19	5251
2026-01-06 01:07:02.30	4.82	22.88	-30.1	-33.2	13.4	2.07e-03	0	43	102	1048576	20	5144
2026-01-06 01:07:03.30	4.71	23.01	-30.3	-33.8	13.0	3.70e-04	0	43	102	1048576	20	5357
2026-01-06 01:07:04.31	4.60	23.15	-30.2	-33.4	13.3	2.10e-04	0	43	102	1048576	20	5219
2026-01-06 01:07:05.32	4.49	23.29	-30.1	-33.1	13.5	2.41e-03	0	43	102	1048576	20	5113
2026-01-06 01:07:06.33	4.37	23.42	-30.1	-33.3	13.4	2.05e-04	0	43	102	1048576	20	5171
2026-01-06 01:07:07.34	4.26	23.56	-30.2	-33.5	13.2	6.33e-05	0	43	102	1048576	20	5248
2026-01-06 01:07:08.35	4.15	23.70	-30.3	-33.7	13.1	2.28e-03	0	43	102	1048576	20	5343
2026-01-06 01:07:09.36	4.03	23.84	-30.4	-34.0	12.9	1.74e-04	0	43	102	1048576	20	5463
2026-01-06 01:07:10.37	3.91	23.98	-30.4	-34.0	12.9	2.48e-03	0	43	102	1048576	20	5465
2026-01-06 01:07:11.37	3.80	24.12	-30.6	-34.1	12.5	8.01e-05	0	43	102	1048576	21	5399
2026-01-06 01:07:12.38	3.68	24.26	-30.7	-34.5	12.2	5.16e-04	0	43	102	1048576	21	5573
2026-01-06 01:07:13.38	3.56	24.40	-30.6	-34.0	12.5	2.49e-03	0	43	102	1048576	21	5362
2026-01-06 01:07:14.39	3.44	24.55	-30.5	-33.9	12.7	2.57e-03	0	43	102	1048576	21	5290
2026-01-06 01:07:15.39	3.32	24.69	-30.5	-33.9	12.7	2.91e-04	0	43	102	1048576	21	5283
2026-01-06 01:07:16.40	3.19	24.83	-30.5	-33.8	12.7	2.49e-03	0	43	102	1048576	21	5275
2026-01-06 01:07:17.40	3.07	24.97	-30.7	-34.3	12.5	2.49e-03	0	43	102	1048576	21	5443
2026-01-06 01:07:18.41	2.95	25.12	-30.7	-34.3	12.4	2.88e-04	0	43	102	1048576	21	5479
2026-01-06 01:07:19.42	2.82	25.27	-30.6	-34.1	12.6	2.47e-03	0	43	102	1048576	21	5360
2026-01-06 01:07:20.43	2.69	25.41	-30.7	-34.3	12.4	2.22e-03	0	43	102	1048576	21	5467
2026-01-06 01:07:21.43	2.56	25.56	-30.6	-34.2	12.5	1.06e-04	0	43	102	1048576	21	5407
2026-01-06 01:07:22.44	2.43	25.70	-30.7	-34.2	12.5	2.25e-03	0	43	102	1048576	21	5435
2026-01-06 01:07:23.44	2.30	25.85	-30.7	-34.4	12.4	2.54e-03	0	43	102	1048576	21	5482
2026-01-06 01:07:24.45	2.17	26.00	-30.8	-34.6	12.2	1.91e-04	0	43	102	1048576	21	5572
2026-01-06 01:07:25.46	2.03	26.15	-30.8	-34.7	12.1	2.81e-03	0	43	102	1048576	21	5644
2026-01-06 01:07:26.46	1.90	26.30	-30.9	-35.0	12.0	2.61e-03	0	43	102	1048576	21	5766
2026-01-06 01:07:27.46	1.76	26.45	-30.9	-35.1	11.9	4.77e-04	0	43	102	1048576	21	5814
2026-01-06 01:07:28.47	1.63	26.60	-31.1	-34.9	11.7	3.48e-04	0	43	102	1048576	22	5626
2026-01-06 01:07:29.47	1.49	26.75	-31.1	-34.9	11.8	2.62e-03	0	43	102	1048576	22	5601
2026-01-06 01:07:30.49	1.34	26.91	-31.1	-35.0	11.6	6.77e-04	0	43	102	1048576	22	5667
2026-01-06 01:07:31.49	1.20	27.06	-31.1	-34.9	11.7	7.09e-04	0	43	102	1048576	22	5615
2026-01-06 01:07:32.50	1.06	27.21	-31.1	-35.2	11.5	9.50e-04	0	43	102	1048576	22	5724
2026-01-06 01:07:33.51	0.91	27.37	-31.1	-34.9	11.7	5.66e-04	0	43	102	1048576	22	5593
2026-01-06 01:07:34.52	0.77	27.52	-31.2	-35.2	11.5	3.21e-03	0	43	102	1048576	22	5740
2026-01-06 01:07:35.52	0.62	27.68	-31.2	-35.4	11.4	8.29e-04	0	43	102	1048576	22	5808
2026-01-06 01:07:36.53	0.47	27.84	-31.3	-35.7	11.1	1.33e-03	0	43	102	1048576	22	5982
2026-01-06 01:07:37.54	0.32	27.99	-31.2	-35.3	11.4	3.35e-03	0	43	102	1048576	22	5799
2026-01-06 01:07:38.55	0.17	28.15	-31.2	-35.2	11.5	9.12e-04	0	43	102	1048576	22	5750
2026-01-06 01:07:39.55	0.01	28.31	-31.2	-35.3	11.4	1.33e-03	0	43	102	1048576	22	5759
2026-01-06 01:07:40.56	359.86	28.47	-31.2	-35.4	11.4	3.25e-03	0	43	102	1048576	22	5805
2026-01-06 01:07:41.57	359.70	28.63	-31.2	-35.2	11.5	8.14e-04	0	43	102	1048576	22	5724
2026-01-06 01:07:42.57	359.54	28.79	-31.1	-35.1	11.6	8.44e-04	0	43	102	1048576	22	5683
2026-01-06 01:07:43.58	359.38	28.95	-30.9	-34.8	12.1	2.74e-03	0	43	102	1048576	21	5664
2026-01-06 01:07:44.59	359.22	29.11	-30.8	-34.7	12.2	2.26e-04	0	43	102	1048576	21	5633
2026-01-06 01:07:45.59	359.06	29.28	-30.8	-34.7	12.2	1.91e-04	0	43	102	1048576	21	5605
2026-01-06 01:07:46.60	358.89	29.44	-30.8	-34.5	12.3	2.42e-04	0	43	102	1048576	21	5540
2026-01-06 01:07:47.61	358.72	29.60	-30.6	-34.1	12.6	2.15e-03	0	43	102	1048576	21	5375
2026-01-06 01:07:48.62	358.56	29.77	-30.7	-34.3	12.5	9.38e-05	0	43	102	1048576	21	5441
2026-01-06 01:07:49.62	358.39	29.93	-30.7	-34.2	12.6	1.07e-04	0	43	102	1048576	21	5395
2026-01-06 01:07:50.63	358.21	30.10	-30.7	-34.2	12.6	1.49e-04	0	43	102	1048576	21	5397
2026-01-06 01:07:51.64	358.04	30.27	-30.7	-34.3	12.5	1.25e-04	0	43	102	1048576	21	5448
2026-01-06 01:07:52.64	357.86	30.43	-30.8	-34.6	12.3	1.32e-04	0	43	102	1048576	21	5559
2026-01-06 01:07:53.65	357.69	30.60	-30.9	-34.9	12.1	1.54e-04	0	43	102	1048576	21	5685
2026-01-06 01:07:54.66	357.51	30.77	-30.9	-35.0	12.0	3.65e-04	0	43	102	1048576	21	5724
2026-01-06 01:07:55.66	357.32	30.94	-30.9	-34.8	12.1	3.20e-04	0	43	102	1048576	21	5666
2026-01-06 01:07:56.67	357.14	31.11	-30.9	-35.0	12.0	2.64e-04	0	43	102	1048576	21	5753
2026-01-06 01:07:57.68	356.95	31.28	-30.9	-34.8	12.2	3.36e-04	0	43	102	1048576	21	5656
2026-01-06 01:07:58.68	356.77	31.45	-30.9	-35.0	12.1	2.68e-04	0	43	102	1048576	21	5737
2026-01-06 01:07:59.69	356.58	31.62	-31.0	-34.6	12.0	3.71e-04	0	43	102	1048576	22	5471
2026-01-06 01:08:00.70	356.39	31.80	-31.1	-35.0	11.7	3.94e-04	0	43	102	1048576	22	5617
2026-01-06 01:08:01.71	356.19	31.97	-31.0	-34.9	11.7	5.61e-04	0	43	102	1048576	22	5655
2026-01-06 01:08:02.72	355.99	32.14	-31.2	-35.3	11.5	5.97e-04	0	43	102	1048576	22	5750
2026-01-06 01:08:03.72	355.80	32.32	-31.4	-35.8	10.8	8.51e-04	0	43	102	1048576	22	5994
2026-01-06 01:08:04.73	355.60	32.49	-31.3	-35.6	10.9	1.39e-03	0	44	102	1048576	22	5928
2026-01-06 01:08:05.74	355.39	32.67	-31.2	-35.3	11.5	8.28e-04	0	43	102	1048576	22	5744
2026-01-06 01:08:06.75	355.19	32.85	-31.1	-35.0	11.7	5.99e-04	0	43	102	1048576	22	5619
2026-01-06 01:08:07.75	354.98	33.02	-31.1	-35.1	11.7	1.51e-03	0	43	102	1048576	22	5685
2026-01-06 01:08:08.77	354.77	33.20	-31.2	-35.1	11.6	6.43e-04	0	43	102	1048576	22	5692
2026-01-06 01:08:09.77	354.56	33.38	-31.1	-34.9	11.8	5.26e-04	0	43	102	1048576	22	5592
2026-01-06 01:08:10.78	354.35	33.56	-31.2	-35.4	11.5	6.06e-04	0	43	102	1048576	22	5789
2026-01-06 01:08:11.79	354.13	33.74	-31.3	-35.5	11.4	1.16e-03	0	43	102	1048576	22	5852
2026-01-06 01:08:12.79	353.91	33.92	-31.2	-35.3	11.5	8.55e-04	0	43	102	1048576	22	5763
2026-01-06 01:08:13.80	353.69	34.10	-31.3	-35.6	11.3	8.11e-04	0	43	102	1048576	22	5913
2026-01-06 01:08:14.80	353.47	34.28	-31.3	-35.4	11.5	1.22e-03	0	43	102	1048576	22	5831
2026-01-06 01:08:15.81	353.24	34.46	-31.3	-35.5	11.3	1.05e-03	0	43	102	1048576	22	5875
2026-01-06 01:08:16.81	353.01	34.64	-31.4	-35.8	11.1	1.42e-03	0	44	102	1048576	22	6010
2026-01-06 01:08:17.82	352.78	34.83	-31.3	-35.7	11.2	1.72e-03	0	43	102	1048576	22	5959
2026-01-06 01:08:18.82	352.55	35.01	-31.3	-35.6	11.4	1.83e-03	0	43	102	1048576	22	5882
2026-01-06 01:08:19.83	352.31	35.19	-31.4	-36.0	11.1	1.69e-03	0	44	102	1048576	22	6071
2026-01-06 01:08:20.83	352.07	35.37	-31.3	-35.5	11.5	1.27e-03	0	43	102	1048576	22	5833
2026-01-06 01:08:21.84	351.83	35.56	-31.3	-35.4	11.5	1.34e-03	0	43	102	1048576	22	5810
2026-01-06 01:08:22.85	351.58	35.75	-31.2	-35.2	11.6	5.69e-04	0	43	102	1048576	22	5725
2026-01-06 01:08:23.86	351.33	35.93	-31.1	-34.8	11.9	4.62e-04	0	43	102	1048576	22	5537
2026-01-06 01:08:24.87	351.08	36.12	-31.1	-34.8	11.9	1.86e-03	0	43	102	1048576	22	5529
2026-01-06 01:08:25.87	350.83	36.30	-31.2	-35.2	11.7	2.03e-03	0	44	102	1048576	22	5709
2026-01-06 01:08:26.88	350.57	36.49	-31.0	-34.6	12.0	5.47e-04	0	43	102	1048576	22	5444
2026-01-06 01:08:27.89	350.31	36.68	-30.9	-34.9	12.2	1.95e-03	0	43	102	1048576	21	5675
2026-01-06 01:08:28.90	350.05	36.87	-31.0	-34.6	12.1	2.01e-03	0	43	102	1048576	22	5456
2026-01-06 01:08:29.91	349.78	37.06	-31.1	-34.8	11.9	5.70e-04	0	43	102	1048576	22	5545
2026-01-06 01:08:30.91	349.51	37.24	-31.3	-35.4	11.6	2.22e-03	0	43	102	1048576	22	5800
2026-01-06 01:08:31.92	349.24	37.43	-31.3	-35.5	11.5	2.17e-03	0	44	102	1048576	22	5825
2026-01-06 01:08:32.93	348.96	37.62	-31.3	-35.4	11.5	8.11e-04	0	43	102	1048576	22	5784
2026-01-06 01:08:33.93	348.69	37.81	-31.4	-35.7	11.3	9.05e-04	0	43	102	1048576	22	5935
2026-01-06 01:08:34.94	348.41	38.00	-31.2	-35.2	11.7	8.82e-04	0	43	102	1048576	22	5685
2026-01-06 01:08:35.94	348.12	38.19	-31.3	-35.4	11.6	5.45e-04	0	43	102	1048576	22	5794
2026-01-06 01:08:36.95	347.83	38.38	-31.3	-35.3	11.6	7.29e-04	0	43	102	1048576	22	5755
2026-01-06 01:08:37.96	347.54	38.57	-31.4	-35.8	11.3	1.22e-03	0	43	102	1048576	22	5971
2026-01-06 01:08:38.96	347.25	38.76	-31.3	-35.6	11.4	1.30e-03	0	44	102	1048576	22	5866
2026-01-06 01:08:39.96	346.95	38.95	-31.2	-35.0	11.7	1.17e-03	0	44	102	1048576	22	5630
2026-01-06 01:08:40.97	346.64	39.15	-31.2	-35.3	11.6	7.75e-04	0	43	102	1048576	22	5730
2026-01-06 01:08:41.98	346.34	39.34	-31.2	-35.3	11.7	8.08e-04	0	44	102	1048576	22	5715
2026-01-06 01:08:42.99	346.03	39.53	-31.3	-35.6	11.5	1.46e-03	0	43	102	1048576	22	5861
2026-01-06 01:08:43.99	345.71	39.72	-31.4	-35.8	11.3	1.33e-03	0	43	102	1048576	22	5994
2026-01-06 01:08:45.00	345.40	39.91	-31.2	-35.3	11.7	9.13e-04	0	44	102	1048576	22	5720
2026-01-06 01:08:46.01	345.07	40.10	-31.2	-35.1	11.8	2.19e-03	0	44	102	1048576	22	5645
2026-01-06 01:08:47.00	344.75	40.29	-31.3	-35.5	11.5	2.50e-03	0	43	102	1048576	22	5820
2026-01-06 01:08:48.01	344.42	40.48	-31.2	-35.1	11.8	6.59e-04	0	43	102	1048576	22	5632
2026-01-06 01:08:49.02	344.09	40.68	-31.2	-35.2	11.7	2.85e-03	0	44	102	1048576	22	5711
2026-01-06 01:08:50.03	343.75	40.87	-31.4	-35.7	11.3	2.90e-03	0	44	102	1048576	22	5905
2026-01-06 01:08:51.04	343.41	41.06	-31.1	-35.0	11.9	7.64e-04	0	44	102	1048576	22	5598
2026-01-06 01:08:52.05	343.06	41.25	-30.9	-34.8	12.4	2.47e-03	0	43	102	1048576	21	5612
2026-01-06 01:08:53.06	342.71	41.44	-30.9	-34.9	12.3	2.35e-03	0	44	102	1048576	21	5676
2026-01-06 01:08:54.06	342.36	41.63	-31.0	-34.5	12.2	2.14e-04	0	43	102	1048576	22	5400
2026-01-06 01:08:55.07	342.00	41.82	-31.2	-35.0	11.8	6.39e-04	0	44	102	1048576	22	5607
2026-01-06 01:08:56.08	341.64	42.01	-31.3	-35.5	11.5	2.60e-03	0	44	102	1048576	22	5835
2026-01-06 01:08:57.08	341.27	42.20	-31.6	-36.1	10.8	2.24e-03	0	43	102	1048576	23	5990
2026-01-06 01:08:58.09	340.90	42.39	-31.7	-36.2	10.7	2.70e-03	0	43	102	1048576	23	6042
2026-01-06 01:08:59.09	340.53	42.58	-31.9	-36.8	10.2	3.76e-03	0	43	102	1048576	23	6356
2026-01-06 01:09:00.10	340.15	42.77	-31.9	-36.8	10.1	6.39e-03	0	44	102	1048576	23	6342
2026-01-06 01:09:01.11	339.76	42.96	-31.8	-36.4	10.5	5.43e-03	0	43	102	1048576	23	6179
2026-01-06 01:09:02.11	339.38	43.15	-31.8	-36.5	10.5	4.63e-03	0	44	102	1048576	23	6184
2026-01-06 01:09:03.11	338.99	43.33	-31.5	-35.6	11.0	2.37e-03	0	44	102	1048576	23	5781
2026-01-06 01:09:04.12	338.59	43.52	-31.4	-35.7	11.4	1.00e-03	0	44	102	1048576	22	5919
2026-01-06 01:09:05.12	338.19	43.70	-31.4	-35.6	11.5	7.27e-04	0	43	102	1048576	22	5890
2026-01-06 01:09:06.12	337.78	43.89	-31.5	-35.7	11.0	1.42e-03	0	43	102	1048576	23	5815
2026-01-06 01:09:07.13	337.37	44.07	-31.7	-36.4	10.6	3.57e-03	0	43	102	1048576	23	6133
2026-01-06 01:09:08.13	336.96	44.25	-31.5	-35.6	11.1	1.99e-03	0	44	102	1048576	23	5767
2026-01-06 01:09:09.13	336.54	44.43	-31.5	-35.7	11.0	1.49e-03	0	44	102	1048576	23	5836
2026-01-06 01:09:10.14	336.11	44.62	-31.7	-36.1	10.7	2.39e-03	0	44	102	1048576	23	6023
2026-01-06 01:09:11.15	335.68	44.80	-31.8	-36.5	10.5	4.14e-03	0	43	102	1048576	23	6215
2026-01-06 01:09:12.15	335.24	44.98	-31.8	-36.7	10.2	5.07e-03	0	44	102	1048576	23	6317
2026-01-06 01:09:13.16	334.80	45.16	-32.1	-37.3	9.4	1.05e-02	0	43	102	1048576	24	6542
2026-01-06 01:09:14.16	334.36	45.33	-31.9	-36.5	10.1	8.06e-03	0	44	102	1048576	24	6108
2026-01-06 01:09:15.17	333.90	45.51	-31.6	-35.5	10.9	3.53e-03	0	44	102	1048576	24	5621
2026-01-06 01:09:16.18	333.44	45.68	-31.3	-35.1	11.5	9.96e-04	0	43	102	1048576	23	5545
2026-01-06 01:09:17.18	332.99	45.86	-31.0	-33.9	12.3	3.81e-04	0	43	102	1048576	23	5040
2026-01-06 01:09:18.18	332.52	46.03	-31.0	-33.9	12.3	1.79e-04	0	44	102	1048576	23	5039
2026-01-06 01:09:19.19	332.05	46.20	-31.0	-34.6	12.1	2.62e-04	0	44	102	1048576	22	5443
2026-01-06 01:09:20.19	331.57	46.37	-30.9	-34.3	12.4	1.78e-04	0	44	102	1048576	22	5313
2026-01-06 01:09:21.20	331.09	46.54	-30.9	-34.2	12.5	1.09e-04	0	43	102	1048576	22	5283
2026-01-06 01:09:22.20	330.61	46.70	-31.0	-34.6	12.3	1.79e-04	0	43	102	1048576	22	5423
2026-01-06 01:09:23.21	330.11	46.87	-31.0	-34.6	12.2	1.60e-04	0	43	102	1048576	22	5412
2026-01-06 01:09:24.21	329.62	47.03	-31.0	-34.6	12.2	2.08e-04	0	44	102	1048576	22	5436
2026-01-06 01:09:25.21	329.12	47.19	-31.2	-35.0	11.9	3.46e-04	0	43	102	1048576	22	5607
2026-01-06 01:09:26.22	328.61	47.35	-31.1	-34.8	12.1	2.77e-04	0	44	102	1048576	22	5531
2026-01-06 01:09:27.23	328.09	47.51	-31.1	-34.9	12.0	4.97e-04	0	44	102	1048576	22	5548
2026-01-06 01:09:28.23	327.58	47.66	-31.1	-34.8	11.6	3.85e-04	0	43	102	1048576	22	5540
2026-01-06 01:09:29.24	327.05	47.82	-30.8	-33.8	12.7	1.50e-04	0	44	102	1048576	22	5100
2026-01-06 01:09:30.25	326.52	47.97	-30.7	-34.3	12.7	2.35e-04	0	43	102	1048576	21	5407
2026-01-06 01:09:31.26	325.98	48.12	-30.8	-34.4	12.7	8.08e-05	0	43	102	1048576	21	5438
2026-01-06 01:09:32.26	325.45	48.27	-31.0	-34.5	12.2	1.81e-04	0	43	102	1048576	22	5390
2026-01-06 01:09:33.27	324.90	48.41	-31.1	-34.7	12.1	2.38e-04	0	43	102	1048576	22	5482
2026-01-06 01:09:34.28	324.35	48.55	-31.3	-35.4	11.7	1.40e-03	0	43	102	1048576	22	5789
2026-01-06 01:09:35.28	323.80	48.69	-31.5	-35.7	11.1	1.38e-03	0	44	102	1048576	23	5813
2026-01-06 01:09:36.29	323.24	48.83	-31.6	-35.7	11.1	1.59e-03	0	44	102	1048576	23	5799
2026-01-06 01:09:37.30	322.67	48.97	-31.8	-36.4	10.7	3.53e-03	0	43	102	1048576	23	6130
2026-01-06 01:09:38.31	322.10	49.10	-31.7	-36.2	10.8	3.26e-03	0	44	102	1048576	23	6043
2026-01-06 01:09:39.32	321.52	49.23	-31.6	-36.0	10.8	2.77e-03	0	44	102	1048576	23	5930
2026-01-06 01:09:40.32	320.94	49.36	-31.6	-35.8	11.0	2.04e-03	0	43	102	1048576	23	5865
2026-01-06 01:09:41.33	320.36	49.48	-31.6	-35.8	11.0	2.29e-03	0	43	102	1048576	23	5829
2026-01-06 01:09:42.34	319.76	49.60	-31.4	-35.0	11.6	9.45e-04	0	43	102	1048576	23	5498
2026-01-06 01:09:43.35	319.17	49.72	-31.3	-34.8	11.7	4.78e-04	0	43	102	1048576	23	5386
2026-01-06 01:09:44.36	318.57	49.84	-31.4	-35.1	11.6	6.23e-04	0	44	102	1048576	23	5536
2026-01-06 01:09:45.36	317.97	49.95	-31.5	-35.5	11.3	9.40e-04	0	43	102	1048576	23	5691
2026-01-06 01:09:46.36	317.36	50.06	-31.7	-36.0	10.9	1.91e-03	0	44	102	1048576	23	5962
2026-01-06 01:09:47.37	316.75	50.16	-31.7	-36.0	11.0	2.09e-03	0	44	102	1048576	23	5936
2026-01-06 01:09:48.38	316.13	50.26	-31.7	-36.2	10.8	3.56e-03	0	43	102	1048576	23	6037
2026-01-06 01:09:49.38	315.52	50.36	-31.7	-36.2	10.8	2.40e-03	0	43	102	1048576	23	6014
2026-01-06 01:09:50.39	314.89	50.46	-31.7	-36.2	10.7	2.24e-03	0	44	102	1048576	23	6047
2026-01-06 01:09:51.40	314.26	50.55	-31.7	-36.2	10.8	2.89e-03	0	44	102	1048576	23	6053
2026-01-06 01:09:52.41	313.62	50.64	-31.6	-35.8	11.1	1.76e-03	0	43	102	1048576	23	5839
2026-01-06 01:09:53.42	312.99	50.73	-31.3	-35.0	11.7	1.12e-03	0	44	102	1048576	23	5471
2026-01-06 01:09:54.43	312.34	50.81	-31.3	-35.0	11.7	6.94e-04	0	44	102	1048576	23	5501
2026-01-06 01:09:55.44	311.70	50.89	-31.5	-35.9	11.4	1.33e-03	0	43	102	1048576	22	5999
2026-01-06 01:09:56.45	311.05	50.96	-31.2	-35.0	12.0	7.49e-04	0	43	102	1048576	22	5589
2026-01-06 01:09:57.45	310.40	51.03	-31.0	-34.5	12.3	9.73e-04	0	44	102	1048576	22	5392
2026-01-06 01:09:58.46	309.75	51.10	-30.9	-34.6	12.6	1.15e-03	0	44	102	1048576	21	5546
2026-01-06 01:09:59.47	309.09	51.16	-30.6	-33.7	13.1	9.46e-05	0	43	102	1048576	21	5188
2026-01-06 01:10:00.48	308.43	51.22	-30.2	-33.2	13.9	4.29e-04	0	44	102	1048576	20	5103
2026-01-06 01:10:01.48	307.78	51.28	-30.2	-33.2	13.8	3.73e-04	0	44	102	1048576	20	5106
2026-01-06 01:10:02.49	307.11	51.33	-30.2	-33.3	13.8	2.20e-06	0	44	102	1048576	20	5155
2026-01-06 01:10:03.50	306.44	51.37	-30.0	-32.7	14.3	1.50e-06	0	44	102	1048576	20	4897
2026-01-06 01:10:04.50	305.78	51.42	-29.8	-32.6	14.6	2.88e-04	0	44	102	1048576	19	4984
2026-01-06 01:10:05.51	305.11	51.46	-29.8	-32.6	14.7	0.00e+00	0	44	102	1048576	19	4984
2026-01-06 01:10:06.51	304.44	51.49	-29.5	-31.9	15.1	4.31e-04	0	44	102	1048576	19	4748
2026-01-06 01:10:07.52	303.77	51.52	-29.1	-31.4	15.7	5.37e-04	0	43	102	1048576	18	4688
2026-01-06 01:10:08.52	303.10	51.55	-28.8	-30.7	16.1	9.68e-05	0	44	102	1048576	18	4462
2026-01-06 01:10:09.52	302.43	51.57	-28.7	-30.9	16.3	1.27e-03	0	44	102	1048576	17	4635
2026-01-06 01:10:10.53	301.75	51.59	-28.6	-30.8	16.3	0.00e+00	0	44	102	1048576	17	4599
2026-01-06 01:10:11.54	301.07	51.61	-28.6	-30.7	16.4	0.00e+00	0	44	102	1048576	17	4578
2026-01-06 01:10:12.54	300.40	51.62	-28.8	-31.1	16.1	7.00e-07	0	43	102	1048576	17	4717
2026-01-06 01:10:13.56	299.71	51.62	-28.9	-31.3	16.0	0.00e+00	0	44	102	1048576	17	4766
2026-01-06 01:10:14.56	299.04	51.62	-28.8	-31.1	16.1	0.00e+00	0	44	102	1048576	17	4713
2026-01-06 01:10:15.56	298.37	51.62	-28.7	-30.9	16.3	0.00e+00	0	44	102	1048576	17	4626
2026-01-06 01:10:16.57	297.69	51.61	-28.9	-31.3	16.0	0.00e+00	0	44	102	1048576	17	4766
2026-01-06 01:10:17.57	297.01	51.60	-29.0	-31.1	15.9	0.00e+00	0	44	102	1048576	18	4601
2026-01-06 01:10:18.58	296.33	51.59	-28.9	-30.9	16.0	2.55e-04	0	44	102	1048576	18	4539
2026-01-06 01:10:19.59	295.66	51.57	-29.0	-31.1	15.8	0.00e+00	0	44	102	1048576	18	4601
2026-01-06 01:10:20.59	294.99	51.55	-29.1	-31.4	15.7	4.24e-04	0	43	102	1048576	18	4699
2026-01-06 01:10:21.60	294.31	51.52	-29.1	-31.4	15.6	2.91e-04	0	43	102	1048576	18	4691
2026-01-06 01:10:22.60	293.64	51.49	-29.2	-31.7	15.5	1.99e-04	0	44	102	1048576	18	4783
2026-01-06 01:10:23.62	292.96	51.45	-29.3	-31.8	15.4	8.39e-05	0	44	102	1048576	18	4807
2026-01-06 01:10:24.62	292.30	51.41	-29.3	-31.8	15.4	0.00e+00	0	44	102	1048576	18	4829
2026-01-06 01:10:25.63	291.63	51.37	-29.2	-31.7	15.5	2.94e-04	0	44	102	1048576	18	4772
2026-01-06 01:10:26.64	290.96	51.32	-29.3	-32.0	15.4	0.00e+00	0	43	102	1048576	18	4867
2026-01-06 01:10:27.64	290.30	51.27	-29.4	-32.1	15.2	2.97e-05	0	43	102	1048576	18	4916
2026-01-06 01:10:28.65	289.64	51.21	-29.4	-31.7	15.2	0.00e+00	0	43	102	1048576	19	4684
2026-01-06 01:10:29.66	288.98	51.15	-29.6	-32.2	14.9	3.80e-06	0	43	102	1048576	19	4830
2026-01-06 01:10:30.66	288.33	51.09	-29.6	-32.1	14.9	0.00e+00	0	44	102	1048576	19	4801
2026-01-06 01:10:31.67	287.67	51.02	-29.4	-31.6	15.3	0.00e+00	0	43	102	1048576	19	4633
2026-01-06 01:10:32.67	287.03	50.95	-29.3	-31.4	15.4	0.00e+00	0	44	102	1048576	19	4581
2026-01-06 01:10:33.67	286.38	50.88	-29.3	-31.4	15.4	7.00e-07	0	43	102	1048576	19	4589
2026-01-06 01:10:34.68	285.74	50.80	-29.3	-31.4	15.3	0.00e+00	0	43	102	1048576	19	4585
2026-01-06 01:10:35.68	285.10	50.72	-29.4	-31.7	15.1	1.07e-04	0	44	102	1048576	19	4693
2026-01-06 01:10:36.68	284.47	50.63	-29.6	-32.3	14.9	0.00e+00	0	43	102	1048576	19	4863
2026-01-06 01:10:37.69	283.84	50.54	-29.8	-32.6	14.6	0.00e+00	0	44	102	1048576	19	4993
2026-01-06 01:10:38.70	283.20	50.45	-29.6	-32.2	14.8	7.00e-07	0	44	102	1048576	19	4854
2026-01-06 01:10:39.71	282.58	50.35	-29.6	-32.0	14.9	6.80e-06	0	44	102	1048576	19	4789
2026-01-06 01:10:40.71	281.96	50.26	-29.6	-32.1	14.9	0.00e+00	0	44	102	1048576	19	4816
2026-01-06 01:10:41.72	281.34	50.15	-29.7	-32.4	14.7	0.00e+00	0	44	102	1048576	19	4914
2026-01-06 01:10:42.73	280.73	50.05	-29.9	-32.9	14.4	0.00e+00	0	44	102	1048576	19	5089
2026-01-06 01:10:43.74	280.12	49.94	-30.1	-33.1	13.9	1.50e-06	0	44	102	1048576	20	5066
2026-01-06 01:10:44.74	279.52	49.82	-30.4	-33.8	13.5	3.05e-05	0	44	102	1048576	20	5314
2026-01-06 01:10:45.75	278.92	49.71	-30.6	-33.9	13.1	2.82e-05	0	44	102	1048576	21	5257
2026-01-06 01:10:46.76	278.32	49.59	-30.8	-34.5	12.6	6.86e-05	0	44	102	1048576	21	5491
2026-01-06 01:10:47.76	277.73	49.47	-30.9	-34.7	12.5	1.25e-04	0	44	102	1048576	21	5580
2026-01-06 01:10:48.77	277.15	49.34	-30.8	-34.3	12.7	1.99e-04	0	44	102	1048576	21	5415
2026-01-06 01:10:49.78	276.56	49.22	-30.8	-34.6	12.6	6.48e-05	0	44	102	1048576	21	5520
2026-01-06 01:10:50.78	275.99	49.09	-30.9	-34.6	12.5	9.99e-05	0	43	102	1048576	21	5548
2026-01-06 01:10:51.79	275.42	48.95	-31.3	-35.4	11.7	3.49e-04	0	44	102	1048576	22	5770
2026-01-06 01:10:52.80	274.85	48.82	-31.5	-35.9	11.4	9.21e-04	0	44	102	1048576	22	5980
2026-01-06 01:10:53.80	274.29	48.68	-31.6	-36.0	10.8	1.62e-03	0	43	102	1048576	23	5931
2026-01-06 01:10:54.81	273.74	48.54	-31.8	-36.8	10.2	3.28e-03	0	44	102	1048576	23	6392
2026-01-06 01:10:55.82	273.18	48.40	-31.9	-36.7	10.4	4.99e-03	0	43	102	1048576	23	6305
2026-01-06 01:10:56.82	272.64	48.25	-31.8	-36.6	10.3	5.63e-03	0	44	102	1048576	23	6240
2026-01-06 01:10:57.82	272.11	48.10	-31.7	-36.2	10.4	3.65e-03	0	44	102	1048576	23	6050
2026-01-06 01:10:58.84	271.56	47.95	-31.6	-35.8	10.9	2.51e-03	0	43	102	1048576	23	5867
2026-01-06 01:10:59.84	271.04	47.80	-31.6	-35.8	11.1	1.78e-03	0	43	102	1048576	23	5833
2026-01-06 01:11:00.85	270.51	47.65	-31.9	-37.0	10.2	3.68e-03	0	43	102	1048576	23	6436
2026-01-06 01:11:01.86	269.99	47.49	-31.9	-37.0	10.1	7.17e-03	0	44	102	1048576	23	6463
2026-01-06 01:11:02.86	269.48	47.33	-31.9	-37.0	10.1	6.99e-03	0	44	102	1048576	23	6461
2026-01-06 01:11:03.87	268.97	47.17	-31.8	-36.4	10.5	5.52e-03	0	43	102	1048576	23	6129
2026-01-06 01:11:04.87	268.47	47.01	-31.6	-35.9	10.9	2.50e-03	0	43	102	1048576	23	5911
2026-01-06 01:11:05.88	267.97	46.85	-31.4	-35.2	11.4	1.53e-03	0	43	102	1048576	23	5580
2026-01-06 01:11:06.89	267.47	46.68	-31.2	-35.2	11.8	1.16e-03	0	44	102	1048576	22	5705
2026-01-06 01:11:07.89	266.99	46.52	-30.9	-34.3	12.4	2.90e-04	0	44	102	1048576	22	5302
2026-01-06 01:11:08.90	266.50	46.35	-31.3	-35.6	11.5	2.28e-04	0	44	102	1048576	22	5858
2026-01-06 01:11:09.90	266.03	46.18	-31.3	-35.6	11.5	1.89e-03	0	44	102	1048576	22	5864
2026-01-06 01:11:10.91	265.55	46.01	-31.9	-36.8	10.3	3.02e-03	0	43	102	1048576	23	6356
2026-01-06 01:11:11.91	265.09	45.83	-31.8	-36.5	10.3	6.42e-03	0	43	102	1048576	23	6228
2026-01-06 01:11:12.92	264.63	45.66	-31.6	-35.8	10.9	3.41e-03	0	44	102	1048576	23	5863
2026-01-06 01:11:13.93	264.17	45.48	-31.1	-34.4	12.0	5.46e-04	0	44	102	1048576	23	5249
2026-01-06 01:11:14.93	263.72	45.31	-30.7	-34.1	12.9	1.38e-03	0	44	102	1048576	21	5349
2026-01-06 01:11:15.94	263.27	45.13	-30.4	-33.5	13.3	3.35e-05	0	44	102	1048576	21	5087
2026-01-06 01:11:16.95	262.83	44.95	-30.4	-33.4	13.3	8.30e-06	0	43	102	1048576	21	5078
2026-01-06 01:11:17.95	262.39	44.77	-30.3	-33.7	13.4	3.30e-04	0	43	102	1048576	20	5280
2026-01-06 01:11:18.96	261.96	44.59	-30.6	-34.0	13.0	2.28e-05	0	44	102	1048576	21	5291
2026-01-06 01:11:19.96	261.53	44.41	-30.8	-34.5	12.6	6.79e-05	0	43	102	1048576	21	5499
2026-01-06 01:11:20.97	261.11	44.22	-31.1	-34.8	12.0	1.97e-03	0	44	102	1048576	22	5529
2026-01-06 01:11:21.96	260.70	44.04	-31.0	-34.5	12.2	1.69e-03	0	44	102	1048576	22	5403
2026-01-06 01:11:22.97	260.29	43.86	-30.8	-33.9	12.6	1.65e-04	0	44	102	1048576	22	5173
2026-01-06 01:11:23.98	259.88	43.67	-30.7	-34.2	12.1	1.64e-03	0	43	102	1048576	21	5392
2026-01-06 01:11:24.99	259.47	43.48	-30.8	-34.4	12.6	2.01e-03	0	43	102	1048576	21	5469
2026-01-06 01:11:26.00	259.07	43.29	-30.8	-34.4	12.3	8.46e-05	0	43	102	1048576	21	5482
2026-01-06 01:11:27.01	258.68	43.11	-30.7	-34.3	12.3	1.98e-03	0	43	102	1048576	21	5431
2026-01-06 01:11:28.01	258.29	42.92	-30.8	-34.4	12.6	1.87e-03	0	43	102	1048576	21	5481
2026-01-06 01:11:29.02	257.91	42.73	-30.8	-34.5	12.5	1.04e-04	0	44	102	1048576	21	5529
2026-01-06 01:11:30.02	257.53	42.54	-30.6	-34.0	12.8	2.42e-03	0	44	102	1048576	21	5298
2026-01-06 01:11:31.03	257.15	42.35	-30.5	-33.6	13.1	2.11e-03	0	44	102	1048576	21	5161
2026-01-06 01:11:32.03	256.78	42.16	-30.6	-33.8	13.0	1.52e-05	0	43	102	1048576	21	5215
2026-01-06 01:11:33.04	256.41	41.97	-30.6	-33.9	12.9	2.27e-03	0	43	102	1048576	21	5262
2026-01-06 01:11:34.05	256.05	41.78	-30.4	-33.9	13.2	2.50e-03	0	44	102	1048576	20	5398
2026-01-06 01:11:35.05	255.69	41.59	-30.6	-33.9	12.9	1.08e-04	0	44	102	1048576	21	5273
2026-01-06 01:11:36.05	255.34	41.40	-31.0	-35.0	12.2	2.49e-03	0	43	102	1048576	21	5722
2026-01-06 01:11:37.06	254.99	41.21	-30.9	-34.7	12.4	2.51e-03	0	44	102	1048576	21	5585
2026-01-06 01:11:38.07	254.65	41.02	-31.4	-35.8	11.3	5.96e-04	0	43	102	1048576	22	5965
2026-01-06 01:11:39.07	254.31	40.83	-31.2	-35.1	11.7	2.68e-03	0	44	102	1048576	22	5653
2026-01-06 01:11:40.07	253.97	40.63	-31.2	-35.1	11.7	5.22e-04	0	43	102	1048576	22	5671
2026-01-06 01:11:41.08	253.64	40.44	-31.3	-35.4	11.5	6.82e-04	0	43	102	1048576	22	5787
2026-01-06 01:11:42.09	253.31	40.25	-31.4	-35.9	11.2	2.69e-03	0	44	102	1048576	22	6035
2026-01-06 01:11:43.09	252.98	40.06	-31.6	-35.9	10.8	3.67e-03	0	44	102	1048576	23	5938
2026-01-06 01:11:44.10	252.66	39.87	-31.6	-36.1	10.7	3.13e-03	0	44	102	1048576	23	6012
2026-01-06 01:11:45.11	252.34	39.67	-31.8	-36.6	10.2	6.54e-03	0	44	102	1048576	23	6277
2026-01-06 01:11:46.11	252.03	39.48	-31.8	-36.9	10.1	8.84e-03	0	44	102	1048576	23	6431
2026-01-06 01:11:47.11	251.72	39.29	-31.9	-36.7	9.7	1.20e-02	0	44	102	1048576	24	6232
2026-01-06 01:11:48.12	251.41	39.10	-31.6	-36.2	10.5	1.02e-02	0	44	102	1048576	23	6070
2026-01-06 01:11:49.12	251.11	38.91	-31.3	-35.5	11.4	3.95e-03	0	44	102	1048576	22	5853
2026-01-06 01:11:50.13	250.81	38.72	-31.2	-35.3	11.6	7.93e-04	0	44	102	1048576	22	5731
2026-01-06 01:11:51.14	250.51	38.52	-31.4	-35.7	11.3	8.84e-04	0	44	102	1048576	22	5957
2026-01-06 01:11:52.14	250.22	38.33	-31.6	-36.0	10.8	4.71e-03	0	44	102	1048576	23	5951
2026-01-06 01:11:53.15	249.93	38.14	-31.6	-35.8	10.8	2.71e-03	0	44	102	1048576	23	5901
2026-01-06 01:11:54.15	249.65	37.95	-31.5	-35.5	11.0	2.06e-03	0	44	102	1048576	23	5760
2026-01-06 01:11:55.16	249.36	37.76	-31.4	-36.0	11.1	4.12e-03	0	44	102	1048576	22	6075
2026-01-06 01:11:56.16	249.09	37.57	-31.6	-35.9	10.8	2.37e-03	0	44	102	1048576	23	5932
2026-01-06 01:11:57.17	248.81	37.38	-31.6	-36.1	10.6	3.39e-03	0	44	102	1048576	23	6043
2026-01-06 01:11:58.18	248.54	37.19	-31.6	-36.1	10.6	3.67e-03	0	44	102	1048576	23	6022
2026-01-06 01:11:59.19	248.27	37.00	-31.7	-36.4	10.4	4.15e-03	0	43	102	1048576	23	6169
2026-01-06 01:12:00.19	248.00	36.81	-31.6	-36.0	10.6	3.69e-03	0	43	102	1048576	23	5991
2026-01-06 01:12:01.20	247.74	36.62	-31.5	-35.9	10.8	2.92e-03	0	43	102	1048576	23	5920
2026-01-06 01:12:02.20	247.48	36.44	-31.6	-36.1	10.6	3.73e-03	0	43	102	1048576	23	6040
2026-01-06 01:12:03.21	247.22	36.25	-31.6	-36.1	10.7	6.04e-03	0	44	102	1048576	23	6010
2026-01-06 01:12:04.21	246.97	36.06	-31.8	-36.6	10.2	4.87e-03	0	44	102	1048576	23	6303
2026-01-06 01:12:05.22	246.71	35.88	-31.8	-36.8	10.1	6.05e-03	0	44	102	1048576	23	6372
2026-01-06 01:12:06.23	246.47	35.69	-32.0	-36.9	9.6	1.23e-02	0	44	102	1048576	24	6335
2026-01-06 01:12:07.23	246.22	35.50	-31.9	-37.0	10.0	9.15e-03	0	43	102	1048576	23	6479
2026-01-06 01:12:08.24	245.98	35.32	-31.8	-36.7	10.1	7.77e-03	0	44	102	1048576	23	6336
2026-01-06 01:12:09.24	245.74	35.13	-31.8	-36.8	10.0	6.49e-03	0	43	102	1048576	23	6385
2026-01-06 01:12:10.24	245.50	34.95	-31.8	-36.9	10.0	8.25e-03	0	44	102	1048576	23	6428
2026-01-06 01:12:11.25	245.27	34.77	-31.8	-36.9	10.0	7.32e-03	0	43	102	1048576	23	6456
2026-01-06 01:12:12.26	245.03	34.58	-32.0	-37.0	9.6	1.30e-02	0	44	102	1048576	24	6395
2026-01-06 01:12:13.27	244.80	34.40	-31.7	-36.3	10.4	1.24e-02	0	43	102	1048576	23	6139
2026-01-06 01:12:14.27	244.58	34.22	-31.4	-35.5	11.0	3.11e-03	0	43	102	1048576	23	5773
2026-01-06 01:12:15.28	244.35	34.04	-31.3	-35.5	11.4	1.67e-03	0	43	102	1048576	22	5855
2026-01-06 01:12:16.28	244.13	33.86	-31.3	-35.6	11.3	8.50e-04	0	43	102	1048576	22	5896
2026-01-06 01:12:17.29	243.91	33.68	-31.4	-35.9	11.1	2.01e-03	0	43	102	1048576	22	6046
2026-01-06 01:12:18.30	243.70	33.49	-31.3	-35.7	11.2	2.29e-03	0	43	102	1048576	22	5955
2026-01-06 01:12:19.30	243.48	33.32	-31.3	-35.4	11.4	1.23e-03	0	43	102	1048576	22	5810
2026-01-06 01:12:20.30	243.27	33.14	-31.3	-35.5	11.4	9.40e-04	0	44	102	1048576	22	5868
2026-01-06 01:12:21.30	243.06	32.96	-31.3	-35.5	11.3	1.72e-03	0	44	102	1048576	22	5855
2026-01-06 01:12:22.31	242.86	32.78	-31.1	-35.0	11.7	6.03e-04	0	44	102	1048576	22	5637
2026-01-06 01:12:23.31	242.65	32.61	-31.0	-34.7	11.9	4.24e-04	0	44	102	1048576	22	5501
2026-01-06 01:12:24.32	242.45	32.43	-31.1	-35.1	11.7	7.69e-04	0	43	102	1048576	22	5668
2026-01-06 01:12:25.33	242.25	32.25	-31.1	-35.0	11.7	6.33e-04	0	43	102	1048576	22	5645
2026-01-06 01:12:26.33	242.05	32.08	-31.1	-35.0	11.7	8.28e-04	0	44	102	1048576	22	5626
2026-01-06 01:12:27.33	241.85	31.91	-31.2	-35.2	11.5	6.60e-04	0	44	102	1048576	22	5738
2026-01-06 01:12:28.34	241.66	31.73	-31.3	-35.7	11.3	1.00e-03	0	44	102	1048576	22	5945
2026-01-06 01:12:29.35	241.47	31.56	-31.4	-35.9	11.0	1.62e-03	0	44	102	1048576	22	6064
2026-01-06 01:12:30.35	241.28	31.39	-31.4	-35.9	11.0	2.25e-03	0	43	102	1048576	22	6079
2026-01-06 01:12:31.36	241.09	31.22	-31.3	-35.8	11.1	1.64e-03	0	44	102	1048576	22	6001
2026-01-06 01:12:32.37	240.90	31.04	-31.3	-35.8	11.1	1.60e-03	0	44	102	1048576	22	5993
2026-01-06 01:12:33.37	240.72	30.87	-31.3	-35.5	11.3	2.03e-03	0	44	102	1048576	22	5876
2026-01-06 01:12:34.38	240.54	30.70	-31.1	-35.0	11.7	7.39e-04	0	43	102	1048576	22	5644
2026-01-06 01:12:35.38	240.36	30.54	-31.1	-34.9	11.7	6.21e-04	0	44	102	1048576	22	5598
2026-01-06 01:12:36.39	240.18	30.37	-31.1	-35.0	11.7	6.77e-04	0	44	102	1048576	22	5634
2026-01-06 01:12:37.39	240.00	30.20	-31.1	-35.1	11.6	7.39e-04	0	44	102	1048576	22	5695
2026-01-06 01:12:38.40	239.83	30.03	-31.2	-35.3	11.5	9.54e-04	0	44	102	1048576	22	5765
2026-01-06 01:12:39.41	239.65	29.86	-31.3	-35.6	11.2	1.12e-03	0	44	102	1048576	22	5921
2026-01-06 01:12:40.40	239.48	29.70	-31.2	-35.3	11.4	1.29e-03	0	44	102	1048576	22	5788
2026-01-06 01:12:41.41	239.31	29.54	-31.0	-34.9	11.7	6.03e-04	0	44	102	1048576	22	5594
2026-01-06 01:12:42.42	239.15	29.37	-30.9	-34.5	12.0	6.55e-04	0	44	102	1048576	22	5437
2026-01-06 01:12:43.42	238.98	29.21	-30.8	-34.1	12.3	2.28e-04	0	44	102	1048576	22	5268
2026-01-06 01:12:44.43	238.82	29.04	-30.7	-34.4	12.4	4.55e-04	0	43	102	1048576	21	5511
2026-01-06 01:12:45.44	238.65	28.88	-30.7	-34.3	12.4	1.38e-04	0	44	102	1048576	21	5457
2026-01-06 01:12:46.45	238.49	28.72	-30.7	-34.3	12.5	1.42e-04	0	44	102	1048576	21	5457
2026-01-06 01:12:47.45	238.33	28.56	-30.5	-33.8	12.8	3.81e-04	0	44	102	1048576	21	5254
2026-01-06 01:12:48.46	238.18	28.40	-30.5	-33.8	12.8	4.84e-04	0	44	102	1048576	21	5240
2026-01-06 01:12:49.46	238.02	28.24	-30.5	-33.8	12.8	6.02e-05	0	43	102	1048576	21	5262
2026-01-06 01:12:50.46	237.87	28.08	-30.5	-33.7	12.8	6.83e-04	0	44	102	1048576	21	5239
2026-01-06 01:12:51.47	237.71	27.92	-30.4	-33.5	13.0	8.19e-04	0	44	102	1048576	21	5152
2026-01-06 01:12:52.48	237.56	27.76	-30.5	-33.7	12.8	5.03e-05	0	44	102	1048576	21	5242
2026-01-06 01:12:53.49	237.41	27.61	-30.5	-33.9	12.7	1.63e-03	0	43	102	1048576	21	5310
2026-01-06 01:12:54.49	237.27	27.45	-30.5	-33.8	12.8	1.87e-03	0	44	102	1048576	21	5242
2026-01-06 01:12:55.50	237.12	27.29	-30.3	-33.2	13.1	2.62e-04	0	44	102	1048576	21	5033
2026-01-06 01:12:56.51	236.97	27.14	-30.2	-33.5	13.3	1.83e-05	0	44	102	1048576	20	5266
2026-01-06 01:12:57.51	236.83	26.98	-30.3	-33.7	13.2	1.70e-03	0	44	102	1048576	20	5332
2026-01-06 01:12:58.52	236.69	26.83	-30.3	-33.8	13.1	2.15e-04	0	44	102	1048576	20	5354
2026-01-06 01:12:59.52	236.55	26.68	-30.4	-33.9	13.0	5.11e-05	0	44	102	1048576	20	5431
2026-01-06 01:13:00.53	236.40	26.53	-30.4	-34.1	12.8	6.03e-04	0	44	102	1048576	20	5513
2026-01-06 01:13:01.54	236.27	26.37	-30.5	-33.8	12.8	1.19e-04	0	44	102	1048576	21	5252
2026-01-06 01:13:02.54	236.13	26.22	-30.6	-34.1	12.5	1.18e-04	0	44	102	1048576	21	5394
2026-01-06 01:13:03.55	235.99	26.07	-30.6	-34.3	12.4	1.72e-04	0	44	102	1048576	21	5455
2026-01-06 01:13:04.56	235.86	25.92	-30.7	-34.3	12.3	1.91e-04	0	44	102	1048576	21	5483
2026-01-06 01:13:05.57	235.72	25.77	-30.8	-34.6	12.2	1.88e-04	0	44	102	1048576	21	5595
2026-01-06 01:13:06.57	235.59	25.62	-30.7	-34.4	12.3	3.23e-04	0	44	102	1048576	21	5513
2026-01-06 01:13:07.58	235.46	25.48	-30.5	-33.8	12.7	1.04e-04	0	44	102	1048576	21	5261
2026-01-06 01:13:08.58	235.33	25.33	-30.3	-33.8	13.0	3.09e-04	0	44	102	1048576	20	5386
2026-01-06 01:13:09.59	235.20	25.18	-30.3	-33.7	13.1	4.11e-04	0	44	102	1048576	20	5332
2026-01-06 01:13:10.59	235.08	25.04	-30.3	-33.8	13.0	3.05e-05	0	44	102	1048576	20	5382
2026-01-06 01:13:11.60	234.95	24.89	-30.3	-33.8	13.0	1.42e-03	0	44	102	1048576	20	5363
2026-01-06 01:13:12.60	234.83	24.75	-30.2	-33.5	13.2	1.35e-03	0	44	102	1048576	20	5256
2026-01-06 01:13:13.61	234.70	24.60	-30.2	-33.6	13.1	1.51e-03	0	43	102	1048576	20	5311
2026-01-06 01:13:14.62	234.58	24.46	-30.3	-33.7	13.1	7.17e-04	0	43	102	1048576	20	5345
2026-01-06 01:13:15.62	234.46	24.32	-30.2	-33.5	13.2	8.74e-04	0	43	102	1048576	20	5261
2026-01-06 01:13:16.63	234.34	24.18	-30.2	-33.6	13.1	8.92e-05	0	44	102	1048576	20	5300
2026-01-06 01:13:17.63	234.22	24.04	-30.4	-34.2	12.7	4.80e-05	0	44	102	1048576	20	5537
2026-01-06 01:13:18.64	234.10	23.90	-30.4	-33.5	12.8	1.15e-03	0	44	102	1048576	21	5181
2026-01-06 01:13:19.65	233.99	23.75	-30.3	-33.8	12.9	4.57e-05	0	44	102	1048576	20	5385
2026-01-06 01:13:20.65	233.87	23.62	-30.4	-34.1	12.8	1.52e-03	0	44	102	1048576	20	5514
2026-01-06 01:13:21.66	233.76	23.48	-30.3	-33.4	12.9	3.78e-04	0	44	102	1048576	21	5108
2026-01-06 01:13:22.66	233.64	23.34	-30.2	-33.5	13.1	3.89e-05	0	44	102	1048576	20	5265
2026-01-06 01:13:23.67	233.53	23.20	-30.2	-33.5	13.1	1.32e-03	0	43	102	1048576	20	5278
2026-01-06 01:13:24.68	233.42	23.06	-30.3	-33.7	13.0	3.05e-05	0	44	102	1048576	20	5364
2026-01-06 01:13:25.68	233.31	22.93	-30.2	-33.7	13.0	4.04e-05	0	44	102	1048576	20	5341
2026-01-06 01:13:26.69	233.20	22.79	-30.2	-33.6	13.0	6.55e-04	0	43	102	1048576	20	5304
2026-01-06 01:13:27.70	233.09	22.66	-30.4	-34.2	12.7	6.56e-05	0	44	102	1048576	20	5539
2026-01-06 01:13:28.71	232.98	22.52	-30.3	-33.9	12.8	7.01e-05	0	44	102	1048576	20	5439
2026-01-06 01:13:29.71	232.87	22.39	-30.2	-33.5	13.1	3.66e-04	0	43	102	1048576	20	5292
2026-01-06 01:13:30.72	232.77	22.25	-30.1	-33.4	13.2	2.28e-05	0	43	102	1048576	20	5227
2026-01-06 01:13:31.71	232.66	22.12	-30.1	-33.2	13.3	3.87e-04	0	44	102	1048576	20	5170
2026-01-06 01:13:32.73	232.56	21.99	-30.1	-33.4	13.1	9.53e-04	0	44	102	1048576	20	5235
2026-01-06 01:13:33.73	232.46	21.86	-30.2	-33.5	13.1	2.74e-05	0	44	102	1048576	20	5264
2026-01-06 01:13:34.73	232.35	21.73	-30.1	-33.3	13.2	4.36e-04	0	44	102	1048576	20	5192
2026-01-06 01:13:35.74	232.25	21.60	-30.0	-33.0	13.4	1.44e-05	0	44	102	1048576	20	5076
2026-01-06 01:13:36.75	232.15	21.47	-29.9	-32.8	13.5	8.30e-06	0	44	102	1048576	20	5007
2026-01-06 01:13:37.75	232.05	21.34	-29.9	-32.9	13.5	3.81e-04	0	43	102	1048576	20	5037
2026-01-06 01:13:38.76	231.95	21.21	-29.9	-33.3	13.6	3.88e-04	0	44	102	1048576	19	5285
2026-01-06 01:13:39.77	231.85	21.08	-29.9	-33.3	13.6	2.50e-03	0	43	102	1048576	19	5305
2026-01-06 01:13:40.78	231.76	20.95	-29.9	-33.2	13.6	3.70e-04	0	44	102	1048576	19	5285
2026-01-06 01:13:41.78	231.66	20.83	-29.9	-33.3	13.5	4.02e-04	0	43	102	1048576	19	5309
2026-01-06 01:13:42.79	231.57	20.70	-30.0	-33.5	13.4	8.30e-06	0	44	102	1048576	19	5383
2026-01-06 01:13:43.80	231.47	20.57	-30.1	-33.3	13.1	4.60e-04	0	43	102	1048576	20	5224
2026-01-06 01:13:44.80	231.38	20.45	-30.0	-33.0	13.3	3.95e-04	0	44	102	1048576	20	5096
2026-01-06 01:13:45.81	231.28	20.32	-30.1	-33.3	13.1	1.37e-05	0	44	102	1048576	20	5224
2026-01-06 01:13:46.82	231.19	20.20	-30.1	-33.2	13.2	2.88e-04	0	43	102	1048576	20	5177
2026-01-06 01:13:47.83	231.10	20.07	-30.0	-33.2	13.2	2.23e-04	0	44	102	1048576	20	5173
2026-01-06 01:13:48.83	231.01	19.95	-30.1	-33.5	13.0	3.73e-05	0	44	102	1048576	20	5292
2026-01-06 01:13:49.84	230.92	19.83	-30.1	-33.4	12.3	2.51e-05	0	43	102	1048576	20	5287
2026-01-06 01:13:50.84	230.83	19.71	-30.0	-33.1	12.2	7.70e-05	0	43	102	1048576	20	5158
2026-01-06 01:13:51.84	230.74	19.58	-30.0	-33.0	13.1	2.21e-05	0	43	102	1048576	20	5120
2026-01-06 01:13:52.85	230.65	19.46	-30.0	-33.0	12.7	2.05e-05	0	43	102	1048576	20	5119
2026-01-06 01:13:53.86	230.57	19.34	-30.0	-33.2	13.1	1.90e-05	0	44	102	1048576	20	5161
2026-01-06 01:13:54.87	230.48	19.22	-30.0	-33.0	13.3	2.51e-05	0	43	102	1048576	20	5085
2026-01-06 01:13:55.88	230.39	19.10	-29.9	-33.2	13.5	1.75e-05	0	43	102	1048576	19	5286
2026-01-06 01:13:56.88	230.31	18.98	-29.9	-33.3	13.5	2.15e-03	0	44	102	1048576	19	5303
2026-01-06 01:13:57.89	230.22	18.86	-30.1	-33.3	13.1	1.98e-05	0	43	102	1048576	20	5209
2026-01-06 01:13:58.90	230.14	18.74	-30.1	-33.4	13.0	4.34e-05	0	43	102	1048576	20	5257
2026-01-06 01:13:59.90	230.06	18.63	-30.1	-33.5	13.0	2.06e-03	0	43	102	1048576	20	5288
2026-01-06 01:14:00.90	229.97	18.51	-30.2	-33.7	12.8	4.88e-05	0	43	102	1048576	20	5396
2026-01-06 01:14:01.91	229.89	18.39	-30.2	-33.7	12.7	1.14e-04	0	43	102	1048576	20	5399
2026-01-06 01:14:02.91	229.81	18.28	-30.3	-34.1	12.5	1.53e-04	0	44	102	1048576	20	5549
2026-01-06 01:14:03.92	229.73	18.16	-30.4	-34.2	12.4	1.20e-04	0	43	102	1048576	20	5590
2026-01-06 01:14:04.93	229.65	18.05	-30.3	-34.1	12.5	2.59e-04	0	44	102	1048576	20	5546
2026-01-06 01:14:05.93	229.57	17.93	-30.3	-34.1	12.5	2.14e-04	0	44	102	1048576	20	5532
2026-01-06 01:14:06.94	229.49	17.82	-30.4	-34.3	12.3	1.63e-04	0	44	102	1048576	20	5651
2026-01-06 01:14:07.95	229.41	17.70	-30.4	-34.2	12.4	1.75e-04	0	44	102	1048576	20	5613
2026-01-06 01:14:08.96	229.34	17.59	-30.4	-34.2	12.4	2.43e-04	0	43	102	1048576	20	5600
2026-01-06 01:14:09.96	229.26	17.48	-30.5	-34.1	12.1	2.37e-04	0	44	102	1048576	21	5439
2026-01-06 01:14:10.97	229.18	17.37	-30.4	-33.8	12.3	2.64e-04	0	44	102	1048576	21	5345
2026-01-06 01:14:11.97	229.11	17.25	-30.4	-33.8	12.2	2.47e-04	0	43	102	1048576	21	5341
2026-01-06 01:14:12.98	229.03	17.14	-30.4	-34.0	12.2	2.22e-04	0	44	102	1048576	21	5391
2026-01-06 01:14:13.98	228.96	17.03	-30.5	-34.1	12.0	7.55e-04	0	44	102	1048576	21	5473
2026-01-06 01:14:15.00	228.88	16.92	-30.4	-34.2	12.3	9.12e-04	0	43	102	1048576	20	5604
2026-01-06 01:14:16.01	228.81	16.81	-30.5	-34.5	12.1	1.63e-04	0	44	102	1048576	20	5723
2026-01-06 01:14:17.01	228.74	16.70	-30.3	-34.1	12.4	1.72e-03	0	44	102	1048576	20	5577
2026-01-06 01:14:18.02	228.67	16.59	-30.2	-33.6	12.7	1.92e-03	0	44	102	1048576	20	5359
2026-01-06 01:14:19.02	228.59	16.48	-30.2	-33.7	12.7	7.47e-05	0	44	102	1048576	20	5381
2026-01-06 01:14:20.03	228.52	16.37	-30.2	-33.7	12.6	2.34e-03	0	44	102	1048576	20	5408
2026-01-06 01:14:21.03	228.45	16.27	-30.2	-33.7	12.7	2.13e-03	0	43	102	1048576	20	5379
2026-01-06 01:14:22.04	228.38	16.16	-30.3	-34.1	12.4	4.04e-04	0	43	102	1048576	20	5578
2026-01-06 01:14:23.05	228.31	16.05	-30.2	-33.7	12.6	2.19e-03	0	44	102	1048576	20	5389
2026-01-06 01:14:24.05	228.24	15.94	-30.4	-34.3	12.2	2.58e-03	0	43	102	1048576	20	5674
2026-01-06 01:14:25.06	228.17	15.84	-30.2	-33.9	12.5	5.27e-04	0	44	102	1048576	20	5495
2026-01-06 01:14:26.07	228.11	15.73	-30.2	-33.8	12.6	1.14e-04	0	44	102	1048576	20	5427
2026-01-06 01:14:27.08	228.04	15.63	-30.1	-33.5	12.7	2.34e-03	0	43	102	1048576	20	5326
2026-01-06 01:14:28.08	227.97	15.52	-30.2	-33.6	12.6	3.99e-04	0	44	102	1048576	20	5382
2026-01-06 01:14:29.09	227.90	15.42	-30.2	-33.8	12.5	2.33e-03	0	44	102	1048576	20	5465
2026-01-06 01:14:30.09	227.84	15.31	-30.3	-34.1	12.3	2.23e-03	0	44	102	1048576	20	5576
2026-01-06 01:14:31.09	227.77	15.21	-30.3	-34.0	12.3	5.14e-04	0	43	102	1048576	20	5540
2026-01-06 01:14:32.10	227.71	15.11	-30.3	-34.2	12.2	2.37e-03	0	44	102	1048576	20	5642
2026-01-06 01:14:33.10	227.64	15.00	-30.3	-34.0	12.3	2.01e-04	0	43	102	1048576	20	5551
2026-01-06 01:14:34.10	227.58	14.90	-30.4	-34.3	12.2	5.64e-04	0	43	102	1048576	20	5654
2026-01-06 01:14:35.11	227.52	14.80	-30.3	-34.1	12.3	2.39e-03	0	44	102	1048576	20	5587
2026-01-06 01:14:36.12	227.45	14.70	-30.4	-34.3	12.1	2.28e-03	0	44	102	1048576	20	5677
2026-01-06 01:14:37.12	227.39	14.60	-30.3	-34.3	12.1	4.97e-04	0	44	102	1048576	20	5645
2026-01-06 01:14:38.13	227.33	14.49	-30.4	-34.5	12.0	2.24e-03	0	43	102	1048576	20	5753
2026-01-06 01:14:39.14	227.26	14.39	-30.6	-34.4	11.6	2.52e-03	0	43	102	1048576	21	5629
2026-01-06 01:14:40.15	227.20	14.29	-30.7	-34.8	11.3	9.99e-04	0	44	102	1048576	21	5820
2026-01-06 01:14:41.15	227.14	14.19	-30.6	-34.5	11.6	2.71e-03	0	44	102	1048576	21	5669
2026-01-06 01:14:42.16	227.08	14.09	-30.7	-34.8	11.4	2.93e-03	0	44	102	1048576	21	5817
2026-01-06 01:14:43.17	227.02	13.99	-30.8	-35.3	11.0	1.83e-03	0	44	102	1048576	21	6028
2026-01-06 01:14:44.18	226.96	13.90	-30.6	-34.7	11.4	3.22e-03	0	44	102	1048576	21	5761
2026-01-06 01:14:45.18	226.90	13.80	-30.6	-34.5	11.5	2.92e-03	0	44	102	1048576	21	5678
2026-01-06 01:14:46.19	226.84	13.70	-30.6	-34.6	11.5	9.89e-04	0	44	102	1048576	21	5717
2026-01-06 01:14:47.19	226.78	13.60	-30.6	-34.8	11.3	1.04e-03	0	44	102	1048576	21	5795
2026-01-06 01:14:48.20	226.73	13.50	-30.7	-35.1	11.1	2.98e-03	0	44	102	1048576	21	5962
2026-01-06 01:14:49.20	226.67	13.41	-30.8	-35.4	10.8	2.19e-03	0	44	102	1048576	21	6111
2026-01-06 01:14:50.21	226.61	13.31	-30.7	-34.9	11.2	1.67e-03	0	44	102	1048576	21	5870
2026-01-06 01:14:51.22	226.55	13.21	-30.6	-34.8	11.3	1.15e-03	0	43	102	1048576	21	5808
2026-01-06 01:14:52.23	226.50	13.12	-30.5	-34.5	11.5	1.28e-03	0	43	102	1048576	21	5655
2026-01-06 01:14:53.24	226.44	13.02	-30.6	-34.6	11.4	1.03e-03	0	44	102	1048576	21	5733
2026-01-06 01:14:54.24	226.38	12.93	-30.6	-34.6	11.4	1.08e-03	0	44	102	1048576	21	5735
2026-01-06 01:14:55.25	226.33	12.83	-30.6	-34.7	11.4	1.24e-03	0	44	102	1048576	21	5747
2026-01-06 01:14:56.26	226.27	12.74	-30.7	-34.9	11.2	1.52e-03	0	44	102	1048576	21	5838
2026-01-06 01:14:57.26	226.22	12.64	-30.6	-34.7	11.4	1.05e-03	0	44	102	1048576	21	5753
2026-01-06 01:14:58.28	226.16	12.55	-30.6	-34.7	11.3	1.17e-03	0	44	102	1048576	21	5757
2026-01-06 01:14:59.28	226.11	12.46	-30.5	-34.5	11.5	1.01e-03	0	43	102	1048576	21	5655
2026-01-06 01:15:00.29	226.06	12.36	-30.6	-34.8	11.2	1.06e-03	0	44	102	1048576	21	5819
2026-01-06 01:15:01.30	226.00	12.27	-30.7	-34.9	11.1	1.62e-03	0	44	102	1048576	21	5849
2026-01-06 01:15:02.30	225.95	12.18	-30.6	-34.6	11.3	1.77e-03	0	43	102	1048576	21	5727
2026-01-06 01:15:03.31	225.90	12.08	-30.6	-34.6	11.3	1.11e-03	0	44	102	1048576	21	5735
2026-01-06 01:15:04.30	225.84	11.99	-30.5	-34.5	11.4	1.20e-03	0	44	102	1048576	21	5677
2026-01-06 01:15:05.30	225.79	11.90	-30.6	-34.8	11.2	9.57e-04	0	44	102	1048576	21	5816
2026-01-06 01:15:06.31	225.74	11.81	-30.6	-34.8	11.1	1.87e-03	0	43	102	1048576	21	5842
2026-01-06 01:15:07.32	225.69	11.72	-30.6	-34.6	11.3	1.26e-03	0	44	102	1048576	21	5724
2026-01-06 01:15:08.33	225.64	11.63	-30.7	-35.1	10.9	1.93e-03	0	44	102	1048576	21	5969
2026-01-06 01:15:09.33	225.59	11.54	-30.5	-34.5	11.4	1.22e-03	0	44	102	1048576	21	5690
2026-01-06 01:15:10.34	225.54	11.45	-30.4	-34.0	11.7	8.38e-04	0	44	102	1048576	21	5467
2026-01-06 01:15:11.35	225.49	11.36	-30.4	-34.2	11.6	8.51e-04	0	44	102	1048576	21	5547
2026-01-06 01:15:12.35	225.44	11.27	-30.5	-34.3	11.5	7.78e-04	0	44	102	1048576	21	5619
2026-01-06 01:15:13.36	225.39	11.18	-30.5	-34.4	11.4	1.23e-03	0	44	102	1048576	21	5646
2026-01-06 01:15:14.36	225.34	11.09	-30.5	-34.6	11.3	1.10e-03	0	44	102	1048576	21	5718
2026-01-06 01:15:15.37	225.29	11.00	-30.6	-34.9	11.0	1.38e-03	0	44	102	1048576	21	5870
2026-01-06 01:15:16.38	225.24	10.92	-30.7	-35.0	10.9	2.62e-03	0	44	102	1048576	21	5941
2026-01-06 01:15:17.38	225.19	10.83	-29.8	-34.3	10.9	2.28e-03	0	44	102	1048576	20	6078
2026-01-06 01:15:18.39	225.15	10.74	-30.7	-35.3	10.7	2.95e-03	0	43	102	1048576	21	6074
2026-01-06 01:15:19.39	225.10	10.65	-30.6	-35.0	10.5	2.22e-03	0	44	102	1048576	21	5923
2026-01-06 01:15:20.40	225.05	10.57	-30.6	-34.8	10.7	1.68e-03	0	44	102	1048576	21	5829
2026-01-06 01:15:21.40	225.00	10.48	-30.6	-34.9	10.9	1.92e-03	0	44	102	1048576	21	5906
2026-01-06 01:15:22.40	224.96	10.39	-30.6	-35.0	10.7	2.11e-03	0	44	102	1048576	21	5925
2026-01-06 01:15:23.42	224.91	10.31	-30.7	-35.3	10.5	3.43e-03	0	44	102	1048576	21	6107
2026-01-06 01:15:24.42	224.87	10.22	-30.7	-35.3	10.6	3.16e-03	0	44	102	1048576	21	6081
2026-01-06 01:15:25.43	224.82	10.14	-30.8	-35.6	10.4	3.24e-03	0	44	102	1048576	21	6256
2026-01-06 01:15:26.43	224.77	10.05	-30.9	-36.0	10.1	8.88e-03	0	44	102	1048576	21	6453
2026-01-06 01:15:27.43	224.73	9.97	-30.7	-35.3	10.6	4.25e-03	0	44	102	1048576	21	6076
2026-01-06 01:15:28.44	224.68	9.88	-30.7	-35.2	10.7	3.01e-03	0	44	102	1048576	21	6042
2026-01-06 01:15:29.44	224.64	9.80	-30.7	-35.2	10.7	3.65e-03	0	43	102	1048576	21	6030
2026-01-06 01:15:30.44	224.60	9.71	-30.8	-35.4	10.5	3.93e-03	0	43	102	1048576	21	6176
2026-01-06 01:15:31.45	224.55	9.63	-30.8	-35.6	10.4	4.54e-03	0	44	102	1048576	21	6232
2026-01-06 01:15:32.46	224.51	9.55	-30.8	-35.5	10.4	4.00e-03	0	43	102	1048576	21	6216
2026-01-06 01:15:33.47	224.46	9.46	-30.8	-35.5	10.4	4.82e-03	0	44	102	1048576	21	6216
2026-01-06 01:15:34.47	224.42	9.38	-30.8	-35.5	10.4	4.48e-03	0	44	102	1048576	21	6206
2026-01-06 01:15:35.48	224.38	9.30	-30.8	-35.5	10.4	5.39e-03	0	44	102	1048576	21	6231
2026-01-06 01:15:36.48	224.34	9.21	-30.8	-35.6	10.3	4.89e-03	0	43	102	1048576	21	6268
2026-01-06 01:15:37.49	224.29	9.13	-30.7	-35.5	10.4	5.31e-03	0	44	102	1048576	21	6207
2026-01-06 01:15:38.50	224.25	9.05	-30.7	-35.4	10.4	4.88e-03	0	44	102	1048576	21	6179
2026-01-06 01:15:39.50	224.21	8.97	-30.6	-35.0	10.7	3.12e-03	0	44	102	1048576	21	5984
2026-01-06 01:15:40.50	224.17	8.89	-30.7	-35.4	10.4	5.01e-03	0	44	102	1048576	21	6189
2026-01-06 01:15:41.51	224.13	8.80	-30.7	-35.2	10.6	4.66e-03	0	44	102	1048576	21	6047
2026-01-06 01:15:42.52	224.08	8.72	-30.6	-35.1	10.7	2.89e-03	0	44	102	1048576	21	5995
2026-01-06 01:15:43.53	224.04	8.64	-30.6	-35.1	10.6	5.36e-03	0	43	102	1048576	21	6024
2026-01-06 01:15:44.53	224.00	8.56	-30.7	-35.4	10.4	5.94e-03	0	44	102	1048576	21	6172
2026-01-06 01:15:45.54	223.96	8.48	-30.7	-35.4	10.3	5.54e-03	0	44	102	1048576	21	6199
2026-01-06 01:15:46.54	223.92	8.40	-30.8	-35.6	10.2	5.79e-03	0	44	102	1048576	21	6259
2026-01-06 01:15:47.55	223.88	8.32	-30.7	-35.4	10.3	8.03e-03	0	44	102	1048576	21	6173
2026-01-06 01:15:48.56	223.84	8.24	-30.7	-35.5	10.3	4.72e-03	0	44	102	1048576	21	6212
2026-01-06 01:15:49.57	223.80	8.16	-30.7	-35.4	10.3	6.96e-03	0	44	102	1048576	21	6180
2026-01-06 01:15:50.57	223.76	8.08	-30.8	-35.6	10.2	7.32e-03	0	44	102	1048576	21	6288
2026-01-06 01:15:51.58	223.72	8.00	-30.8	-35.7	10.1	6.17e-03	0	44	102	1048576	21	6365
2026-01-06 01:15:52.59	223.68	7.92	-30.8	-35.7	10.1	8.16e-03	0	44	102	1048576	21	6321
2026-01-06 01:15:53.59	223.64	7.85	-30.8	-35.8	10.0	9.42e-03	0	44	102	1048576	21	6410
2026-01-06 01:15:54.60	223.61	7.77	-30.8	-35.9	9.9	8.90e-03	0	44	102	1048576	21	6477
