passes_logs/2026/01/06/R2M6_AANII_01/R2M6_AANII_01__20260106_001357_NOAA_21_JPSS-2_rec.log

#Pass ID: 20260106_001357_NOAA 21 (JPSS-2)
#Satellite: NOAA 21 (JPSS-2)
#Configuration: NOAA 21
#almurnet v.1.7.20240730
#Start time: 2026-01-06 00:13:57

#Version: 2.2.20231116
#Station: R2M6_AANII_01
#Location: 30.233357 lon 59.946436 lat
#TLE: 1 54234U 22150A   26005.21525222  .00000150  00000+0  91957-4 0  9992
#TLE: 2 54234  98.7490 306.2339 0001053 341.6032  18.5106 14.19532220163427

#Time	Az	El	Level	Level2	SNR	BER	BlckErr	Temp	State	Recorded	gain1	gain2
2026-01-06 00:13:57.04	18.65	6.96	-30.5	-35.7	4.5	1.42e+00	0	41	0	0	21	6541
2026-01-06 00:13:58.04	18.66	7.03	-30.2	-35.2	4.6	1.41e+00	0	41	104	0	20	6398
2026-01-06 00:13:59.05	18.67	7.11	-30.1	-34.2	8.9	3.06e-02	0	41	0	0	20	5728
2026-01-06 00:14:00.06	18.68	7.19	-30.2	-34.5	8.7	3.81e-02	0	41	102	1048576	20	5875
2026-01-06 00:14:01.07	18.69	7.27	-30.2	-34.3	8.8	3.68e-02	0	41	102	1048576	20	5807
2026-01-06 00:14:02.08	18.70	7.34	-30.1	-34.1	8.9	2.94e-02	0	41	102	1048576	20	5707
2026-01-06 00:14:03.08	18.71	7.42	-30.3	-34.8	8.5	4.47e-02	0	41	102	1048576	20	6012
2026-01-06 00:14:04.09	18.72	7.50	-30.3	-34.6	8.7	3.99e-02	0	41	102	1048576	20	5902
2026-01-06 00:14:05.10	18.73	7.58	-30.0	-33.8	9.2	2.50e-02	0	41	102	1048576	20	5575
2026-01-06 00:14:06.11	18.74	7.66	-30.1	-34.0	9.0	2.92e-02	0	41	102	1048576	20	5658
2026-01-06 00:14:07.11	18.75	7.74	-29.9	-33.5	9.5	2.47e-02	0	41	102	1048576	20	5420
2026-01-06 00:14:08.12	18.76	7.82	-30.1	-34.1	9.0	2.23e-02	0	42	102	1048576	20	5691
2026-01-06 00:14:09.12	18.77	7.90	-30.5	-35.2	8.2	4.97e-02	0	42	102	1048576	20	6235
2026-01-06 00:14:10.13	18.78	7.98	-30.3	-34.6	8.7	4.15e-02	0	42	102	1048576	20	5897
2026-01-06 00:14:11.14	18.79	8.06	-30.3	-34.6	8.7	3.94e-02	0	42	102	1048576	20	5894
2026-01-06 00:14:12.15	18.80	8.14	-30.3	-34.6	8.7	3.23e-02	0	42	102	1048576	20	5913
2026-01-06 00:14:13.15	18.81	8.22	-30.3	-34.7	8.6	4.02e-02	0	42	102	1048576	20	5954
2026-01-06 00:14:14.16	18.82	8.30	-30.3	-34.6	8.7	3.48e-02	0	42	102	1048576	20	5908
2026-01-06 00:14:15.17	18.83	8.38	-30.3	-34.5	8.8	3.02e-02	0	42	102	1048576	20	5870
2026-01-06 00:14:16.17	18.84	8.46	-30.2	-34.4	8.9	3.81e-02	0	42	102	1048576	20	5802
2026-01-06 00:14:17.19	18.85	8.55	-30.3	-34.6	8.8	2.74e-02	0	42	102	1048576	20	5902
2026-01-06 00:14:18.19	18.86	8.63	-29.9	-33.3	9.7	1.62e-02	0	42	102	1048576	20	5315
2026-01-06 00:14:19.19	18.87	8.71	-29.6	-32.8	10.4	5.60e-03	0	42	102	1048576	19	5241
2026-01-06 00:14:20.20	18.88	8.79	-29.3	-32.1	10.9	2.09e-03	0	42	102	1048576	19	4947
2026-01-06 00:14:21.21	18.89	8.87	-28.8	-31.8	11.8	5.77e-04	0	42	102	1048576	17	5060
2026-01-06 00:14:22.21	18.90	8.96	-28.5	-31.0	12.3	2.29e-04	0	42	102	1048576	17	4800
2026-01-06 00:14:23.22	18.91	9.04	-28.4	-30.6	12.5	1.56e-04	0	42	102	1048576	17	4663
2026-01-06 00:14:24.22	18.92	9.12	-28.0	-30.2	13.1	3.12e-05	0	42	102	1048576	16	4617
2026-01-06 00:14:25.23	18.93	9.21	-27.8	-30.3	13.2	2.59e-05	0	42	102	1048576	15	4780
2026-01-06 00:14:26.24	18.94	9.29	-27.7	-30.1	13.3	2.28e-05	0	42	102	1048576	15	4729
2026-01-06 00:14:27.24	18.95	9.38	-27.7	-30.1	13.3	1.37e-05	0	42	102	1048576	15	4708
2026-01-06 00:14:28.25	18.96	9.46	-27.9	-30.5	13.1	4.19e-05	0	42	102	1048576	15	4844
2026-01-06 00:14:29.25	18.98	9.55	-27.7	-30.0	13.4	1.75e-05	0	42	102	1048576	15	4702
2026-01-06 00:14:30.26	18.99	9.63	-27.6	-29.8	13.5	1.06e-05	0	42	102	1048576	15	4625
2026-01-06 00:14:31.26	19.00	9.72	-27.7	-30.1	13.4	1.98e-05	0	42	102	1048576	15	4717
2026-01-06 00:14:32.27	19.01	9.80	-27.7	-30.1	13.3	1.52e-05	0	42	102	1048576	15	4716
2026-01-06 00:14:33.28	19.02	9.89	-27.8	-30.2	13.3	9.90e-06	0	42	102	1048576	15	4757
2026-01-06 00:14:34.28	19.03	9.98	-27.9	-30.4	13.2	2.97e-05	0	42	102	1048576	15	4819
2026-01-06 00:14:35.29	19.04	10.06	-27.6	-29.8	13.6	7.60e-06	0	42	102	1048576	15	4623
2026-01-06 00:14:36.29	19.05	10.15	-27.7	-29.9	13.5	9.10e-06	0	42	102	1048576	15	4659
2026-01-06 00:14:37.30	19.06	10.24	-27.7	-29.9	13.5	7.60e-06	0	42	102	1048576	15	4651
2026-01-06 00:14:38.31	19.07	10.33	-27.7	-30.0	13.4	1.22e-05	0	42	102	1048576	15	4676
2026-01-06 00:14:39.31	19.08	10.41	-27.8	-30.3	13.3	9.10e-06	0	42	102	1048576	15	4774
2026-01-06 00:14:40.32	19.10	10.50	-27.8	-30.1	13.4	2.13e-05	0	42	102	1048576	15	4711
2026-01-06 00:14:41.33	19.11	10.59	-27.6	-29.6	13.7	9.10e-06	0	42	102	1048576	15	4572
2026-01-06 00:14:42.33	19.12	10.68	-27.4	-29.3	13.9	8.30e-06	0	42	102	1048576	15	4483
2026-01-06 00:14:43.34	19.13	10.77	-27.5	-29.6	13.7	6.80e-06	0	42	102	1048576	15	4555
2026-01-06 00:14:44.35	19.14	10.86	-27.5	-29.4	13.8	8.30e-06	0	42	102	1048576	15	4511
2026-01-06 00:14:45.35	19.15	10.95	-27.4	-29.3	13.8	4.50e-06	0	42	102	1048576	15	4506
2026-01-06 00:14:46.36	19.16	11.04	-27.6	-29.7	13.6	8.30e-06	0	42	102	1048576	15	4589
2026-01-06 00:14:47.36	19.17	11.13	-27.6	-29.8	13.4	1.33e-03	0	43	102	1048576	15	4621
2026-01-06 00:14:48.37	19.19	11.22	-27.4	-29.8	13.0	3.80e-06	0	43	102	1048576	14	4721
2026-01-06 00:14:49.37	19.20	11.31	-27.5	-29.6	13.8	6.80e-06	0	43	102	1048576	15	4547
2026-01-06 00:14:50.38	19.21	11.41	-27.3	-29.6	13.7	3.00e-06	0	42	102	1048576	14	4657
2026-01-06 00:14:51.39	19.22	11.50	-27.4	-29.7	13.6	2.20e-06	0	42	102	1048576	14	4701
2026-01-06 00:14:52.40	19.23	11.59	-27.3	-29.6	14.0	1.50e-06	0	42	102	1048576	14	4670
2026-01-06 00:14:53.41	19.24	11.68	-27.3	-29.5	14.1	1.22e-03	0	43	102	1048576	14	4631
2026-01-06 00:14:54.41	19.26	11.78	-27.3	-29.5	14.1	2.20e-06	0	43	102	1048576	14	4642
2026-01-06 00:14:55.42	19.27	11.87	-27.2	-29.3	14.2	2.20e-06	0	42	102	1048576	14	4587
2026-01-06 00:14:56.42	19.28	11.96	-27.1	-29.1	14.4	1.50e-06	0	42	102	1048576	14	4504
2026-01-06 00:14:57.43	19.29	12.06	-27.1	-29.1	14.4	0.00e+00	0	42	102	1048576	14	4513
2026-01-06 00:14:58.44	19.30	12.15	-27.1	-29.0	14.4	0.00e+00	0	42	102	1048576	14	4489
2026-01-06 00:14:59.45	19.32	12.25	-27.2	-29.1	14.3	1.08e-03	0	43	102	1048576	14	4524
2026-01-06 00:15:00.45	19.33	12.34	-27.2	-29.1	14.4	1.50e-06	0	43	102	1048576	14	4527
2026-01-06 00:15:01.46	19.34	12.44	-27.0	-28.8	14.6	0.00e+00	0	43	102	1048576	14	4420
2026-01-06 00:15:02.46	19.35	12.54	-27.0	-28.8	14.6	2.20e-06	0	43	102	1048576	14	4424
2026-01-06 00:15:03.47	19.36	12.63	-27.0	-28.7	14.6	9.66e-04	0	43	102	1048576	14	4389
2026-01-06 00:15:04.47	19.38	12.73	-26.9	-29.0	14.7	0.00e+00	0	43	102	1048576	13	4601
2026-01-06 00:15:05.48	19.39	12.83	-26.9	-29.0	14.7	8.25e-04	0	43	102	1048576	13	4604
2026-01-06 00:15:06.49	19.40	12.92	-26.9	-29.0	14.7	1.50e-06	0	43	102	1048576	13	4606
2026-01-06 00:15:07.49	19.41	13.02	-26.9	-29.1	14.6	0.00e+00	0	43	102	1048576	13	4633
2026-01-06 00:15:08.50	19.43	13.12	-26.9	-29.1	14.7	8.80e-04	0	43	102	1048576	13	4626
2026-01-06 00:15:09.51	19.44	13.22	-26.7	-28.7	14.9	7.99e-04	0	43	102	1048576	13	4503
2026-01-06 00:15:10.51	19.45	13.32	-26.7	-28.5	15.0	0.00e+00	0	43	102	1048576	13	4458
2026-01-06 00:15:11.52	19.46	13.42	-27.0	-28.8	14.6	4.60e-03	0	43	102	1048576	14	4432
2026-01-06 00:15:12.53	19.48	13.52	-27.0	-29.2	14.7	0.00e+00	0	43	102	1048576	13	4639
2026-01-06 00:15:13.53	19.49	13.62	-26.9	-29.1	14.7	0.00e+00	0	43	102	1048576	13	4628
2026-01-06 00:15:14.54	19.50	13.72	-27.1	-29.0	14.5	9.80e-04	0	43	102	1048576	14	4467
2026-01-06 00:15:15.54	19.51	13.82	-27.0	-28.8	14.6	9.54e-04	0	43	102	1048576	14	4418
2026-01-06 00:15:16.55	19.53	13.92	-27.0	-28.7	14.7	1.67e-05	0	43	102	1048576	14	4407
2026-01-06 00:15:17.56	19.54	14.03	-26.9	-28.9	14.8	4.16e-03	0	43	102	1048576	13	4571
2026-01-06 00:15:18.56	19.55	14.13	-26.9	-29.0	14.8	3.80e-03	0	43	102	1048576	13	4600
2026-01-06 00:15:19.57	19.57	14.23	-26.8	-28.8	14.9	0.00e+00	0	43	102	1048576	13	4517
2026-01-06 00:15:20.57	19.58	14.33	-26.8	-28.8	14.9	7.99e-04	0	43	102	1048576	13	4522
2026-01-06 00:15:21.57	19.59	14.44	-26.7	-28.7	15.0	4.40e-03	0	43	102	1048576	13	4493
2026-01-06 00:15:22.58	19.61	14.54	-27.0	-29.2	14.7	6.48e-05	0	43	102	1048576	13	4658
2026-01-06 00:15:23.59	19.62	14.65	-27.2	-29.2	14.4	3.61e-03	0	43	102	1048576	14	4550
2026-01-06 00:15:24.59	19.63	14.75	-27.1	-29.0	14.5	8.20e-04	0	43	102	1048576	14	4482
2026-01-06 00:15:25.60	19.65	14.86	-27.0	-28.9	14.6	0.00e+00	0	43	102	1048576	14	4436
2026-01-06 00:15:26.60	19.66	14.96	-27.1	-28.9	14.6	4.18e-03	0	43	102	1048576	14	4433
2026-01-06 00:15:27.61	19.67	15.07	-27.2	-29.3	14.4	4.62e-03	0	43	102	1048576	14	4574
2026-01-06 00:15:28.62	19.69	15.18	-27.3	-29.5	14.3	5.95e-05	0	43	102	1048576	14	4612
2026-01-06 00:15:29.62	19.70	15.28	-27.2	-29.3	14.4	3.78e-03	0	43	102	1048576	14	4562
2026-01-06 00:15:30.63	19.71	15.39	-27.6	-29.6	13.9	4.47e-03	0	43	102	1048576	15	4549
2026-01-06 00:15:31.64	19.73	15.50	-27.6	-29.6	14.0	9.00e-05	0	43	102	1048576	15	4538
2026-01-06 00:15:32.65	19.74	15.61	-27.5	-29.4	14.0	4.40e-03	0	43	102	1048576	15	4481
2026-01-06 00:15:33.65	19.76	15.72	-27.4	-29.7	14.2	3.46e-03	0	43	102	1048576	14	4672
2026-01-06 00:15:34.65	19.77	15.83	-27.5	-29.4	14.1	7.24e-05	0	43	102	1048576	15	4473
2026-01-06 00:15:35.66	19.78	15.94	-27.5	-29.4	14.1	3.00e-06	0	43	102	1048576	15	4490
2026-01-06 00:15:36.67	19.80	16.05	-27.6	-29.7	13.9	3.80e-06	0	43	102	1048576	15	4559
2026-01-06 00:15:37.67	19.81	16.16	-27.5	-29.5	14.1	6.10e-05	0	43	102	1048576	15	4501
2026-01-06 00:15:38.68	19.83	16.28	-27.6	-29.6	14.0	3.56e-03	0	43	102	1048576	15	4536
2026-01-06 00:15:39.68	19.84	16.39	-27.6	-29.5	14.0	3.54e-03	0	43	102	1048576	15	4522
2026-01-06 00:15:40.69	19.86	16.50	-27.6	-29.6	14.0	3.80e-06	0	43	102	1048576	15	4547
2026-01-06 00:15:41.70	19.87	16.61	-27.7	-29.9	13.8	4.50e-06	0	43	102	1048576	15	4638
2026-01-06 00:15:42.71	19.89	16.73	-27.8	-30.1	13.7	6.80e-06	0	43	102	1048576	15	4702
2026-01-06 00:15:43.71	19.90	16.84	-27.8	-30.0	13.7	3.50e-05	0	43	102	1048576	15	4675
2026-01-06 00:15:44.71	19.92	16.96	-27.4	-29.2	14.2	3.11e-03	0	43	102	1048576	15	4415
2026-01-06 00:15:45.72	19.93	17.07	-27.3	-29.4	14.4	1.50e-06	0	43	102	1048576	14	4604
2026-01-06 00:15:46.73	19.95	17.19	-27.4	-29.6	14.3	7.00e-07	0	43	102	1048576	14	4659
2026-01-06 00:15:47.74	19.96	17.31	-27.3	-29.5	14.4	7.00e-07	0	43	102	1048576	14	4626
2026-01-06 00:15:48.74	19.98	17.42	-27.6	-29.7	14.0	1.50e-06	0	43	102	1048576	15	4562
2026-01-06 00:15:49.75	19.99	17.54	-27.3	-29.0	14.4	0.00e+00	0	43	102	1048576	15	4353
2026-01-06 00:15:50.76	20.01	17.66	-27.4	-29.7	14.3	0.00e+00	0	43	102	1048576	14	4673
2026-01-06 00:15:51.76	20.02	17.78	-27.4	-29.6	14.3	1.50e-06	0	43	102	1048576	14	4633
2026-01-06 00:15:52.77	20.04	17.90	-27.3	-29.5	14.4	7.00e-07	0	43	102	1048576	14	4612
2026-01-06 00:15:53.78	20.05	18.02	-27.4	-29.7	14.3	7.00e-07	0	43	102	1048576	14	4675
2026-01-06 00:15:54.78	20.07	18.14	-27.4	-29.2	14.3	7.00e-07	0	43	102	1048576	15	4400
2026-01-06 00:15:55.79	20.08	18.26	-27.1	-28.5	14.7	0.00e+00	0	43	102	1048576	15	4212
2026-01-06 00:15:56.80	20.10	18.39	-27.0	-28.7	14.9	0.00e+00	0	43	102	1048576	14	4373
2026-01-06 00:15:57.80	20.12	18.51	-27.0	-28.8	14.8	0.00e+00	0	43	102	1048576	14	4409
2026-01-06 00:15:58.81	20.13	18.63	-27.1	-28.9	14.8	0.00e+00	0	43	102	1048576	14	4444
2026-01-06 00:15:59.82	20.15	18.76	-27.1	-29.0	14.7	7.00e-07	0	43	102	1048576	14	4476
2026-01-06 00:16:00.83	20.17	18.88	-27.1	-29.0	14.7	0.00e+00	0	43	102	1048576	14	4469
2026-01-06 00:16:01.84	20.18	19.01	-27.1	-28.9	14.7	0.00e+00	0	43	102	1048576	14	4445
2026-01-06 00:16:02.84	20.20	19.13	-27.3	-29.5	14.5	0.00e+00	0	43	102	1048576	14	4608
2026-01-06 00:16:03.85	20.21	19.26	-27.2	-29.1	14.7	0.00e+00	0	43	102	1048576	14	4492
2026-01-06 00:16:04.85	20.23	19.39	-27.1	-28.9	14.8	0.00e+00	0	43	102	1048576	14	4435
2026-01-06 00:16:05.86	20.25	19.51	-27.1	-28.9	14.8	0.00e+00	0	43	102	1048576	14	4444
2026-01-06 00:16:06.87	20.27	19.64	-27.0	-28.6	15.0	0.00e+00	0	43	102	1048576	14	4356
2026-01-06 00:16:07.88	20.28	19.77	-27.0	-28.7	14.9	0.00e+00	0	43	102	1048576	14	4388
2026-01-06 00:16:08.88	20.30	19.90	-27.1	-29.0	14.7	7.00e-07	0	43	102	1048576	14	4447
2026-01-06 00:16:09.88	20.32	20.03	-27.2	-29.3	14.6	0.00e+00	0	43	102	1048576	14	4537
2026-01-06 00:16:10.89	20.33	20.16	-27.1	-28.8	14.8	7.00e-07	0	43	102	1048576	14	4414
2026-01-06 00:16:11.89	20.35	20.29	-26.8	-28.1	15.3	0.00e+00	0	43	102	1048576	14	4212
2026-01-06 00:16:12.90	20.37	20.43	-26.6	-28.2	15.4	0.00e+00	0	43	102	1048576	13	4358
2026-01-06 00:16:13.91	20.39	20.56	-26.6	-28.3	15.4	0.00e+00	0	43	102	1048576	13	4363
2026-01-06 00:16:14.91	20.40	20.69	-26.6	-28.4	15.4	0.00e+00	0	43	102	1048576	13	4390
2026-01-06 00:16:15.92	20.42	20.83	-26.5	-28.1	15.5	0.00e+00	0	43	102	1048576	13	4321
2026-01-06 00:16:16.93	20.44	20.97	-26.6	-28.3	15.5	0.00e+00	0	43	102	1048576	13	4362
2026-01-06 00:16:17.94	20.46	21.10	-26.5	-28.0	15.6	0.00e+00	0	43	102	1048576	13	4290
2026-01-06 00:16:18.95	20.48	21.24	-26.6	-28.2	15.5	0.00e+00	0	43	102	1048576	13	4332
2026-01-06 00:16:19.95	20.50	21.38	-26.4	-27.9	15.7	0.00e+00	0	43	102	1048576	13	4252
2026-01-06 00:16:20.95	20.51	21.51	-26.5	-28.1	15.6	0.00e+00	0	43	102	1048576	13	4329
2026-01-06 00:16:21.96	20.53	21.65	-26.4	-27.9	15.7	0.00e+00	0	43	102	1048576	13	4253
2026-01-06 00:16:22.96	20.55	21.79	-26.2	-27.3	16.0	0.00e+00	0	44	102	1048576	13	4098
2026-01-06 00:16:23.98	20.57	21.94	-26.1	-27.6	16.1	0.00e+00	0	43	102	1048576	12	4295
2026-01-06 00:16:24.98	20.59	22.08	-26.1	-27.6	16.1	0.00e+00	0	43	102	1048576	12	4292
2026-01-06 00:16:25.99	20.61	22.22	-26.1	-27.7	16.1	0.00e+00	0	43	102	1048576	12	4310
2026-01-06 00:16:26.99	20.63	22.36	-26.2	-27.7	15.4	0.00e+00	0	43	102	1048576	12	4323
2026-01-06 00:16:28.00	20.65	22.51	-26.1	-27.6	16.1	0.00e+00	0	43	102	1048576	12	4300
2026-01-06 00:16:29.01	20.67	22.65	-26.1	-27.6	16.1	0.00e+00	0	43	102	1048576	12	4292
2026-01-06 00:16:30.02	20.69	22.80	-26.2	-27.9	16.0	0.00e+00	0	43	102	1048576	12	4374
2026-01-06 00:16:31.03	20.71	22.94	-25.9	-27.2	16.3	0.00e+00	0	43	102	1048576	12	4200
2026-01-06 00:16:32.03	20.73	23.09	-25.8	-27.1	14.7	0.00e+00	0	43	102	1048576	12	4211
2026-01-06 00:16:33.04	20.75	23.24	-25.9	-27.3	13.8	3.96e-03	0	43	102	1048576	12	4190
2026-01-06 00:16:34.05	20.77	23.39	-26.0	-27.3	16.3	1.06e-05	0	43	102	1048576	12	4213
2026-01-06 00:16:35.06	20.79	23.54	-25.9	-27.7	16.4	0.00e+00	0	43	102	1048576	11	4435
2026-01-06 00:16:36.07	20.81	23.69	-26.0	-27.5	16.2	0.00e+00	0	43	102	1048576	12	4243
2026-01-06 00:16:37.08	20.83	23.84	-25.8	-27.1	16.5	0.00e+00	0	43	102	1048576	12	4139
2026-01-06 00:16:38.09	20.85	23.99	-25.8	-27.4	16.6	4.43e-03	0	43	102	1048576	11	4341
2026-01-06 00:16:39.09	20.87	24.15	-25.7	-27.3	16.6	4.61e-03	0	43	102	1048576	11	4316
2026-01-06 00:16:40.09	20.89	24.30	-25.8	-27.4	16.6	0.00e+00	0	43	102	1048576	11	4344
2026-01-06 00:16:41.10	20.92	24.46	-25.8	-27.4	16.6	0.00e+00	0	43	102	1048576	11	4334
2026-01-06 00:16:42.12	20.94	24.61	-25.8	-27.6	16.5	0.00e+00	0	43	102	1048576	11	4381
2026-01-06 00:16:43.12	20.96	24.77	-25.8	-27.5	16.5	0.00e+00	0	43	102	1048576	11	4380
2026-01-06 00:16:44.13	20.98	24.93	-26.0	-27.8	16.4	4.14e-03	0	44	102	1048576	11	4448
2026-01-06 00:16:45.13	21.00	25.09	-26.0	-27.8	16.4	3.89e-03	0	43	102	1048576	11	4452
2026-01-06 00:16:46.14	21.03	25.25	-26.0	-27.5	16.3	0.00e+00	0	43	102	1048576	12	4247
2026-01-06 00:16:47.14	21.05	25.41	-26.2	-27.8	16.1	0.00e+00	0	43	102	1048576	12	4343
2026-01-06 00:16:48.15	21.07	25.57	-26.0	-27.5	16.3	3.93e-03	0	43	102	1048576	12	4245
2026-01-06 00:16:49.16	21.09	25.73	-26.2	-27.8	16.1	0.00e+00	0	43	102	1048576	12	4330
2026-01-06 00:16:50.17	21.12	25.90	-26.4	-28.3	15.9	4.12e-03	0	43	102	1048576	12	4467
2026-01-06 00:16:51.17	21.14	26.06	-26.3	-28.0	16.0	4.16e-03	0	43	102	1048576	12	4398
2026-01-06 00:16:52.17	21.16	26.23	-26.4	-28.4	15.8	0.00e+00	0	43	102	1048576	12	4495
2026-01-06 00:16:53.18	21.19	26.39	-26.4	-27.9	15.8	4.11e-03	0	43	102	1048576	13	4249
2026-01-06 00:16:54.19	21.21	26.56	-26.4	-28.4	15.8	3.65e-03	0	43	102	1048576	12	4495
2026-01-06 00:16:55.19	21.24	26.73	-26.6	-28.1	15.7	0.00e+00	0	43	102	1048576	13	4316
2026-01-06 00:16:56.19	21.26	26.90	-26.6	-28.3	15.6	3.58e-03	0	43	102	1048576	13	4354
2026-01-06 00:16:57.19	21.29	27.07	-26.8	-28.8	15.3	3.63e-03	0	44	102	1048576	13	4499
2026-01-06 00:16:58.20	21.31	27.24	-26.7	-28.5	15.5	0.00e+00	0	43	102	1048576	13	4407
2026-01-06 00:16:59.21	21.34	27.42	-26.7	-28.5	15.4	3.27e-03	0	43	102	1048576	13	4427
2026-01-06 00:17:00.21	21.36	27.59	-26.9	-28.8	15.4	3.21e-03	0	43	102	1048576	13	4506
2026-01-06 00:17:01.22	21.39	27.76	-26.9	-28.8	15.3	0.00e+00	0	43	102	1048576	13	4517
2026-01-06 00:17:02.23	21.41	27.94	-26.9	-28.9	15.3	3.17e-03	0	43	102	1048576	13	4535
2026-01-06 00:17:03.24	21.44	28.12	-27.0	-29.0	15.2	0.00e+00	0	43	102	1048576	13	4575
2026-01-06 00:17:04.24	21.46	28.30	-27.0	-29.0	15.2	0.00e+00	0	43	102	1048576	13	4576
2026-01-06 00:17:05.25	21.49	28.48	-26.9	-29.0	15.2	0.00e+00	0	43	102	1048576	13	4560
2026-01-06 00:17:06.25	21.52	28.66	-27.0	-29.0	15.2	3.18e-03	0	43	102	1048576	13	4571
2026-01-06 00:17:07.26	21.54	28.84	-26.9	-28.4	15.3	0.00e+00	0	43	102	1048576	14	4283
2026-01-06 00:17:08.26	21.57	29.02	-27.0	-28.6	15.2	0.00e+00	0	43	102	1048576	14	4341
2026-01-06 00:17:09.27	21.60	29.21	-27.1	-28.7	15.1	0.00e+00	0	43	102	1048576	14	4375
2026-01-06 00:17:10.28	21.63	29.40	-27.0	-28.5	15.3	0.00e+00	0	43	102	1048576	14	4318
2026-01-06 00:17:11.28	21.66	29.58	-26.9	-28.8	15.4	2.86e-03	0	43	102	1048576	13	4514
2026-01-06 00:17:12.27	21.68	29.77	-26.8	-28.6	15.5	2.79e-03	0	43	102	1048576	13	4445
2026-01-06 00:17:13.28	21.71	29.96	-26.7	-28.5	15.5	0.00e+00	0	43	102	1048576	13	4414
2026-01-06 00:17:14.30	21.74	30.15	-26.6	-28.3	15.7	0.00e+00	0	43	102	1048576	13	4364
2026-01-06 00:17:15.30	21.77	30.34	-26.6	-28.2	15.7	0.00e+00	0	43	102	1048576	13	4343
2026-01-06 00:17:16.31	21.80	30.54	-26.5	-27.9	15.9	0.00e+00	0	43	102	1048576	13	4256
2026-01-06 00:17:17.32	21.83	30.73	-26.4	-27.8	16.0	0.00e+00	0	43	102	1048576	13	4215
2026-01-06 00:17:18.32	21.86	30.93	-26.3	-28.1	16.1	0.00e+00	0	43	102	1048576	12	4405
2026-01-06 00:17:19.32	21.89	31.12	-26.3	-28.0	16.1	0.00e+00	0	43	102	1048576	12	4395
2026-01-06 00:17:20.32	21.92	31.32	-26.3	-28.0	16.1	0.00e+00	0	43	102	1048576	12	4399
2026-01-06 00:17:21.32	21.95	31.52	-26.3	-28.1	16.1	0.00e+00	0	43	102	1048576	12	4412
2026-01-06 00:17:22.33	21.98	31.72	-26.3	-28.0	16.1	0.00e+00	0	44	102	1048576	12	4382
2026-01-06 00:17:23.34	22.02	31.93	-26.3	-28.1	16.1	0.00e+00	0	43	102	1048576	12	4406
2026-01-06 00:17:24.34	22.05	32.13	-26.3	-28.0	16.1	0.00e+00	0	44	102	1048576	12	4399
2026-01-06 00:17:25.35	22.08	32.34	-26.4	-28.3	16.0	0.00e+00	0	43	102	1048576	12	4476
2026-01-06 00:17:26.36	22.11	32.54	-26.5	-28.4	15.9	0.00e+00	0	44	102	1048576	12	4495
2026-01-06 00:17:27.36	22.15	32.75	-26.5	-28.1	15.8	0.00e+00	0	43	102	1048576	13	4299
2026-01-06 00:17:28.37	22.18	32.96	-26.6	-28.3	15.7	0.00e+00	0	43	102	1048576	13	4354
2026-01-06 00:17:29.38	22.22	33.17	-26.7	-28.5	15.6	0.00e+00	0	43	102	1048576	13	4397
2026-01-06 00:17:30.39	22.25	33.39	-26.8	-28.7	15.5	0.00e+00	0	43	102	1048576	13	4482
2026-01-06 00:17:31.40	22.28	33.60	-26.8	-28.7	15.5	0.00e+00	0	43	102	1048576	13	4468
2026-01-06 00:17:32.41	22.32	33.82	-27.1	-28.9	15.2	0.00e+00	0	43	102	1048576	14	4414
2026-01-06 00:17:33.41	22.36	34.04	-27.2	-29.0	15.1	0.00e+00	0	44	102	1048576	14	4437
2026-01-06 00:17:34.42	22.39	34.26	-27.3	-29.4	14.9	0.00e+00	0	44	102	1048576	14	4556
2026-01-06 00:17:35.43	22.43	34.48	-27.3	-29.3	15.0	0.00e+00	0	44	102	1048576	14	4529
2026-01-06 00:17:36.43	22.47	34.70	-27.5	-29.3	14.7	0.00e+00	0	43	102	1048576	15	4403
2026-01-06 00:17:37.44	22.50	34.92	-27.7	-29.7	14.4	7.00e-07	0	43	102	1048576	15	4544
2026-01-06 00:17:38.45	22.54	35.15	-27.9	-30.1	14.2	2.20e-06	0	43	102	1048576	15	4642
2026-01-06 00:17:39.46	22.58	35.38	-27.7	-29.6	14.5	0.00e+00	0	43	102	1048576	15	4513
2026-01-06 00:17:40.45	22.62	35.60	-27.8	-30.0	14.3	7.00e-07	0	43	102	1048576	15	4626
2026-01-06 00:17:41.46	22.66	35.83	-27.9	-30.2	14.2	3.80e-06	0	43	102	1048576	15	4680
2026-01-06 00:17:42.47	22.70	36.07	-28.0	-30.3	14.1	3.80e-06	0	44	102	1048576	15	4729
2026-01-06 00:17:43.47	22.74	36.30	-27.8	-30.0	14.3	2.20e-06	0	43	102	1048576	15	4624
2026-01-06 00:17:44.47	22.78	36.53	-27.9	-30.3	14.1	1.50e-06	0	43	102	1048576	15	4707
2026-01-06 00:17:45.48	22.82	36.77	-28.2	-30.2	14.1	2.20e-06	0	43	102	1048576	16	4571
2026-01-06 00:17:46.49	22.86	37.01	-28.3	-30.5	13.9	2.20e-06	0	44	102	1048576	16	4654
2026-01-06 00:17:47.49	22.90	37.25	-28.2	-30.3	14.0	2.20e-06	0	44	102	1048576	16	4595
2026-01-06 00:17:48.50	22.95	37.49	-28.4	-30.7	13.8	5.30e-06	0	44	102	1048576	16	4708
2026-01-06 00:17:49.50	22.99	37.73	-28.4	-30.9	13.7	8.30e-06	0	43	102	1048576	16	4770
2026-01-06 00:17:50.51	23.04	37.98	-28.4	-30.7	13.8	5.30e-06	0	44	102	1048576	16	4713
2026-01-06 00:17:51.51	23.08	38.23	-28.4	-30.7	13.8	5.30e-06	0	44	102	1048576	16	4713
2026-01-06 00:17:52.52	23.13	38.48	-28.4	-30.8	13.7	5.30e-06	0	44	102	1048576	16	4755
2026-01-06 00:17:53.53	23.17	38.73	-28.3	-30.5	13.9	3.00e-06	0	44	102	1048576	16	4659
2026-01-06 00:17:54.54	23.22	38.98	-28.2	-30.2	14.0	2.20e-06	0	43	102	1048576	16	4560
2026-01-06 00:17:55.55	23.27	39.24	-28.2	-30.2	14.1	1.50e-06	0	44	102	1048576	16	4560
2026-01-06 00:17:56.55	23.32	39.50	-28.2	-30.3	14.0	1.50e-06	0	43	102	1048576	16	4586
2026-01-06 00:17:57.56	23.37	39.75	-28.1	-30.1	14.1	3.00e-06	0	43	102	1048576	16	4544
2026-01-06 00:17:58.57	23.42	40.02	-28.3	-30.6	13.8	6.10e-06	0	44	102	1048576	16	4714
2026-01-06 00:17:59.57	23.47	40.28	-28.4	-30.4	13.5	3.80e-06	0	44	102	1048576	17	4512
2026-01-06 00:18:00.58	23.52	40.54	-28.4	-30.3	13.7	6.10e-06	0	44	102	1048576	17	4476
2026-01-06 00:18:01.59	23.57	40.81	-28.5	-30.4	13.5	2.20e-06	0	43	102	1048576	17	4523
2026-01-06 00:18:02.59	23.62	41.08	-28.5	-30.6	13.6	6.80e-06	0	43	102	1048576	17	4575
2026-01-06 00:18:03.59	23.67	41.35	-28.7	-31.0	13.4	1.22e-05	0	44	102	1048576	17	4702
2026-01-06 00:18:04.60	23.73	41.62	-28.9	-31.6	13.0	4.19e-05	0	44	102	1048576	17	4884
2026-01-06 00:18:05.61	23.79	41.89	-29.2	-31.7	12.6	2.75e-04	0	44	102	1048576	18	4814
2026-01-06 00:18:06.62	23.84	42.17	-29.3	-32.1	12.4	1.43e-04	0	44	102	1048576	18	4960
2026-01-06 00:18:07.62	23.90	42.45	-29.3	-32.1	12.3	1.57e-04	0	43	102	1048576	18	4958
2026-01-06 00:18:08.63	23.96	42.73	-29.3	-31.9	12.5	1.30e-04	0	44	102	1048576	18	4889
2026-01-06 00:18:09.64	24.02	43.01	-29.3	-32.0	12.5	1.04e-04	0	44	102	1048576	18	4928
2026-01-06 00:18:10.64	24.08	43.30	-29.5	-32.4	12.2	1.94e-04	0	44	102	1048576	18	5050
2026-01-06 00:18:11.64	24.14	43.58	-29.4	-32.3	12.3	2.52e-04	0	43	102	1048576	18	5023
2026-01-06 00:18:12.64	24.20	43.87	-29.6	-32.2	12.0	3.42e-04	0	43	102	1048576	19	4878
2026-01-06 00:18:13.65	24.26	44.16	-29.9	-33.0	11.5	5.13e-04	0	44	102	1048576	19	5142
2026-01-06 00:18:14.65	24.32	44.45	-29.9	-32.7	11.3	1.02e-03	0	44	102	1048576	20	4937
2026-01-06 00:18:15.67	24.39	44.75	-29.8	-32.3	11.7	7.57e-04	0	44	102	1048576	20	4800
2026-01-06 00:18:16.67	24.46	45.05	-29.7	-32.2	11.7	8.41e-04	0	43	102	1048576	20	4777
2026-01-06 00:18:17.67	24.52	45.35	-29.8	-32.3	11.6	6.38e-04	0	43	102	1048576	20	4820
2026-01-06 00:18:18.68	24.59	45.65	-29.7	-32.0	11.8	5.36e-04	0	44	102	1048576	20	4704
2026-01-06 00:18:19.69	24.66	45.96	-29.5	-31.5	12.1	2.82e-04	0	43	102	1048576	20	4552
2026-01-06 00:18:20.70	24.74	46.27	-29.6	-31.7	12.0	3.97e-04	0	44	102	1048576	20	4617
2026-01-06 00:18:21.70	24.81	46.57	-29.6	-31.8	12.0	3.36e-04	0	43	102	1048576	20	4626
2026-01-06 00:18:22.70	24.88	46.88	-29.7	-31.9	11.9	6.88e-04	0	43	102	1048576	20	4685
2026-01-06 00:18:23.71	24.96	47.20	-29.5	-31.6	12.1	7.01e-04	0	43	102	1048576	20	4576
2026-01-06 00:18:24.72	25.04	47.51	-29.3	-31.4	12.6	1.13e-04	0	43	102	1048576	19	4609
2026-01-06 00:18:25.72	25.11	47.83	-29.0	-30.8	13.0	5.63e-04	0	43	102	1048576	19	4420
2026-01-06 00:18:26.73	25.19	48.15	-29.0	-31.3	13.0	5.73e-04	0	44	102	1048576	18	4686
2026-01-06 00:18:27.74	25.28	48.48	-28.9	-30.9	13.2	2.28e-05	0	43	102	1048576	18	4536
2026-01-06 00:18:28.74	25.36	48.80	-28.8	-30.7	13.4	5.19e-04	0	43	102	1048576	18	4476
2026-01-06 00:18:29.75	25.44	49.13	-28.8	-31.4	13.2	4.66e-04	0	43	102	1048576	17	4812
2026-01-06 00:18:30.75	25.53	49.46	-28.6	-30.7	13.6	9.90e-06	0	44	102	1048576	17	4603
2026-01-06 00:18:31.76	25.62	49.79	-28.2	-29.7	14.2	0.00e+00	0	44	102	1048576	17	4295
2026-01-06 00:18:32.77	25.71	50.13	-28.1	-29.5	14.4	3.48e-04	0	44	102	1048576	17	4224
2026-01-06 00:18:33.78	25.80	50.46	-28.0	-29.4	14.4	7.00e-07	0	44	102	1048576	17	4199
2026-01-06 00:18:34.78	25.90	50.80	-28.2	-30.3	14.1	4.55e-04	0	44	102	1048576	16	4579
2026-01-06 00:18:35.79	25.99	51.14	-28.2	-30.2	14.3	2.20e-06	0	43	102	1048576	16	4535
2026-01-06 00:18:36.80	26.09	51.49	-28.1	-29.9	14.4	1.50e-06	0	43	102	1048576	16	4452
2026-01-06 00:18:37.80	26.19	51.84	-28.0	-29.9	14.4	7.00e-07	0	44	102	1048576	16	4451
2026-01-06 00:18:38.81	26.30	52.19	-28.1	-29.9	14.4	6.10e-05	0	43	102	1048576	16	4455
2026-01-06 00:18:39.82	26.40	52.54	-28.0	-29.7	14.6	7.00e-07	0	44	102	1048576	16	4406
2026-01-06 00:18:40.83	26.51	52.89	-27.8	-29.3	14.8	7.00e-07	0	44	102	1048576	16	4279
2026-01-06 00:18:41.83	26.62	53.25	-27.7	-29.1	14.9	0.00e+00	0	43	102	1048576	16	4216
2026-01-06 00:18:42.84	26.73	53.61	-27.7	-29.2	14.9	0.00e+00	0	43	102	1048576	16	4249
2026-01-06 00:18:43.85	26.85	53.97	-27.6	-28.9	15.0	0.00e+00	0	43	102	1048576	16	4183
2026-01-06 00:18:44.86	26.97	54.34	-27.3	-28.1	15.4	0.00e+00	0	44	102	1048576	16	3962
2026-01-06 00:18:45.86	27.09	54.70	-26.9	-27.9	15.7	7.00e-07	0	44	102	1048576	15	4025
2026-01-06 00:18:46.87	27.22	55.07	-27.0	-28.1	15.6	0.00e+00	0	43	102	1048576	15	4067
2026-01-06 00:18:47.88	27.35	55.45	-27.0	-28.0	15.6	0.00e+00	0	44	102	1048576	15	4056
2026-01-06 00:18:48.88	27.48	55.82	-27.0	-28.1	15.6	0.00e+00	0	44	102	1048576	15	4070
2026-01-06 00:18:49.89	27.61	56.20	-27.1	-28.3	15.5	0.00e+00	0	43	102	1048576	15	4135
2026-01-06 00:18:50.90	27.75	56.58	-27.2	-28.4	15.4	0.00e+00	0	43	102	1048576	15	4153
2026-01-06 00:18:51.91	27.89	56.96	-27.3	-28.7	15.3	0.00e+00	0	44	102	1048576	15	4224
2026-01-06 00:18:52.91	28.04	57.34	-27.0	-28.0	15.6	7.55e-05	0	44	102	1048576	15	4058
2026-01-06 00:18:53.92	28.19	57.73	-26.7	-27.8	16.0	0.00e+00	0	44	102	1048576	14	4092
2026-01-06 00:18:54.93	28.35	58.12	-26.4	-27.1	16.4	0.00e+00	0	44	102	1048576	14	3918
2026-01-06 00:18:55.94	28.51	58.51	-26.2	-27.2	16.6	0.00e+00	0	44	102	1048576	13	4052
2026-01-06 00:18:56.94	28.67	58.90	-25.9	-26.7	16.9	0.00e+00	0	44	102	1048576	13	3913
2026-01-06 00:18:57.95	28.84	59.30	-26.0	-26.8	16.8	0.00e+00	0	44	102	1048576	13	3949
2026-01-06 00:18:58.95	29.01	59.69	-26.3	-27.4	16.5	0.00e+00	0	44	102	1048576	13	4102
2026-01-06 00:18:59.95	29.19	60.09	-26.0	-26.8	16.9	0.00e+00	0	44	102	1048576	13	3949
2026-01-06 00:19:00.96	29.37	60.50	-25.8	-26.8	17.1	0.00e+00	0	44	102	1048576	12	4048
2026-01-06 00:19:01.96	29.56	60.90	-25.7	-26.7	17.2	0.00e+00	0	43	102	1048576	12	4028
2026-01-06 00:19:02.97	29.76	61.31	-25.5	-26.3	17.4	3.80e-06	0	43	102	1048576	12	3919
2026-01-06 00:19:03.98	29.96	61.72	-25.5	-26.2	17.5	0.00e+00	0	44	102	1048576	12	3895
2026-01-06 00:19:04.99	30.17	62.13	-25.5	-26.2	17.5	0.00e+00	0	43	102	1048576	12	3899
2026-01-06 00:19:06.00	30.39	62.55	-25.7	-26.6	17.3	0.00e+00	0	44	102	1048576	12	4011
2026-01-06 00:19:07.00	30.61	62.96	-25.4	-25.9	17.6	0.00e+00	0	43	102	1048576	12	3822
2026-01-06 00:19:08.01	30.85	63.38	-25.3	-25.8	17.7	0.00e+00	0	43	102	1048576	12	3805
2026-01-06 00:19:09.02	31.09	63.81	-25.4	-26.0	17.6	6.80e-06	0	43	102	1048576	12	3848
2026-01-06 00:19:10.03	31.34	64.23	-25.3	-25.8	17.6	0.00e+00	0	43	102	1048576	12	3803
2026-01-06 00:19:11.04	31.60	64.66	-25.4	-26.4	17.7	0.00e+00	0	43	102	1048576	11	4058
2026-01-06 00:19:12.04	31.87	65.08	-25.4	-26.5	17.6	8.30e-06	0	44	102	1048576	11	4072
2026-01-06 00:19:13.05	32.14	65.51	-25.5	-26.8	17.5	0.00e+00	0	44	102	1048576	11	4150
2026-01-06 00:19:14.05	32.43	65.94	-25.6	-26.8	17.5	0.00e+00	0	43	102	1048576	11	4162
2026-01-06 00:19:15.05	32.73	66.37	-25.4	-26.4	17.7	6.80e-06	0	44	102	1048576	11	4062
2026-01-06 00:19:16.06	33.05	66.80	-25.3	-26.2	17.8	0.00e+00	0	43	102	1048576	11	4003
2026-01-06 00:19:17.07	33.37	67.24	-25.5	-26.8	17.5	0.00e+00	0	44	102	1048576	11	4144
2026-01-06 00:19:18.07	33.71	67.67	-25.4	-26.5	17.7	7.60e-06	0	43	102	1048576	11	4070
2026-01-06 00:19:19.08	34.07	68.11	-25.6	-26.8	17.5	0.00e+00	0	43	102	1048576	11	4163
2026-01-06 00:19:20.08	34.43	68.55	-25.7	-27.1	17.4	0.00e+00	0	43	102	1048576	11	4235
2026-01-06 00:19:21.08	34.82	68.99	-25.7	-27.1	17.4	0.00e+00	0	43	102	1048576	11	4250
2026-01-06 00:19:22.09	35.22	69.43	-25.7	-27.2	17.3	0.00e+00	0	44	102	1048576	11	4259
2026-01-06 00:19:23.10	35.65	69.88	-25.7	-27.1	17.4	0.00e+00	0	44	102	1048576	11	4224
2026-01-06 00:19:24.11	36.09	70.33	-25.7	-27.0	17.4	1.50e-06	0	44	102	1048576	11	4212
2026-01-06 00:19:25.11	36.56	70.77	-25.4	-26.4	17.7	0.00e+00	0	43	102	1048576	11	4050
2026-01-06 00:19:26.12	37.05	71.22	-25.1	-25.9	17.9	0.00e+00	0	44	102	1048576	11	3930
2026-01-06 00:19:27.13	37.56	71.66	-25.3	-26.2	17.8	0.00e+00	0	44	102	1048576	11	4004
2026-01-06 00:19:28.14	38.11	72.11	-25.3	-26.2	17.8	0.00e+00	0	44	102	1048576	11	4008
2026-01-06 00:19:29.15	38.68	72.56	-25.3	-26.1	17.9	2.94e-04	0	43	102	1048576	11	3990
2026-01-06 00:19:30.15	39.28	73.01	-25.2	-25.9	18.0	0.00e+00	0	44	102	1048576	11	3932
2026-01-06 00:19:31.16	39.92	73.46	-25.1	-25.7	18.1	0.00e+00	0	43	102	1048576	11	3882
2026-01-06 00:19:32.16	40.58	73.90	-25.3	-26.2	17.8	0.00e+00	0	44	102	1048576	11	3990
2026-01-06 00:19:33.17	41.30	74.35	-25.4	-26.5	17.7	0.00e+00	0	44	102	1048576	11	4077
2026-01-06 00:19:34.17	42.05	74.79	-25.4	-26.5	17.7	1.63e-04	0	44	102	1048576	11	4074
2026-01-06 00:19:35.17	42.85	75.24	-25.6	-26.8	17.6	0.00e+00	0	43	102	1048576	11	4149
2026-01-06 00:19:36.19	43.72	75.68	-25.6	-26.8	17.6	0.00e+00	0	44	102	1048576	11	4151
2026-01-06 00:19:37.18	44.61	76.12	-25.7	-27.0	17.4	0.00e+00	0	44	102	1048576	11	4214
2026-01-06 00:19:38.19	45.59	76.56	-25.9	-27.6	17.1	7.00e-07	0	44	102	1048576	11	4376
2026-01-06 00:19:39.20	46.63	77.00	-26.0	-27.8	17.0	0.00e+00	0	43	102	1048576	11	4414
2026-01-06 00:19:40.21	47.75	77.43	-26.1	-27.5	16.9	5.36e-04	0	43	102	1048576	12	4220
2026-01-06 00:19:41.21	48.94	77.86	-26.2	-27.8	16.7	0.00e+00	0	43	102	1048576	12	4299
2026-01-06 00:19:42.22	50.23	78.29	-25.7	-26.7	17.3	0.00e+00	0	43	102	1048576	12	4013
2026-01-06 00:19:43.23	51.62	78.71	-25.6	-26.9	17.5	5.06e-04	0	43	102	1048576	11	4167
2026-01-06 00:19:44.23	53.10	79.12	-25.5	-26.7	17.7	5.63e-04	0	43	102	1048576	11	4120
2026-01-06 00:19:45.24	54.71	79.53	-25.5	-26.8	17.6	0.00e+00	0	43	102	1048576	11	4151
2026-01-06 00:19:46.25	56.46	79.93	-25.6	-26.9	17.6	9.40e-04	0	43	102	1048576	11	4186
2026-01-06 00:19:47.25	58.34	80.32	-25.6	-26.8	17.6	1.82e-03	0	43	102	1048576	11	4156
2026-01-06 00:19:48.26	60.39	80.70	-25.8	-27.4	17.3	0.00e+00	0	43	102	1048576	11	4318
2026-01-06 00:19:49.26	62.60	81.07	-25.9	-27.0	17.2	2.27e-04	0	43	102	1048576	12	4094
2026-01-06 00:19:50.26	64.99	81.42	-25.6	-26.4	17.5	0.00e+00	0	43	102	1048576	12	3950
2026-01-06 00:19:51.27	67.62	81.76	-25.4	-25.9	17.7	0.00e+00	0	43	102	1048576	12	3829
2026-01-06 00:19:52.27	70.43	82.08	-25.6	-26.3	17.5	2.97e-05	0	43	102	1048576	12	3927
2026-01-06 00:19:53.28	73.51	82.38	-26.2	-27.6	16.8	5.64e-04	0	43	102	1048576	12	4262
2026-01-06 00:19:54.28	76.80	82.66	-26.0	-27.2	17.1	0.00e+00	0	43	102	1048576	12	4144
2026-01-06 00:19:55.29	80.38	82.91	-26.2	-27.7	16.9	9.81e-04	0	44	102	1048576	12	4270
2026-01-06 00:19:56.30	84.20	83.14	-26.7	-28.3	16.3	5.73e-04	0	44	102	1048576	13	4324
2026-01-06 00:19:57.30	88.23	83.33	-27.0	-29.0	16.0	0.00e+00	0	44	102	1048576	13	4515
2026-01-06 00:19:58.31	92.51	83.49	-27.3	-29.2	15.5	0.00e+00	0	44	102	1048576	14	4460
2026-01-06 00:19:59.31	96.94	83.60	-27.2	-28.9	15.8	0.00e+00	0	44	102	1048576	14	4379
2026-01-06 00:20:00.32	101.56	83.68	-27.4	-29.4	15.4	0.00e+00	0	43	102	1048576	14	4517
2026-01-06 00:20:01.32	106.21	83.72	-27.8	-29.9	14.9	0.00e+00	0	43	102	1048576	15	4554
2026-01-06 00:20:02.33	110.94	83.72	-28.3	-30.3	14.6	1.64e-04	0	44	102	1048576	16	4551
2026-01-06 00:20:03.34	115.63	83.67	-28.6	-30.6	14.1	2.20e-06	0	44	102	1048576	17	4534
2026-01-06 00:20:04.34	120.18	83.59	-29.5	-32.2	12.9	5.26e-05	0	43	102	1048576	18	4928
2026-01-06 00:20:05.35	124.63	83.46	-29.6	-32.1	12.6	8.16e-05	0	44	102	1048576	19	4783
2026-01-06 00:20:06.36	128.88	83.30	-30.2	-33.0	11.6	5.93e-04	0	44	102	1048576	20	5002
2026-01-06 00:20:07.36	132.87	83.10	-30.5	-33.9	11.0	9.30e-04	0	43	102	1048576	20	5349
2026-01-06 00:20:08.37	136.66	82.87	-30.5	-33.5	11.0	3.51e-03	0	43	102	1048576	21	5060
2026-01-06 00:20:09.37	140.16	82.62	-30.1	-32.4	11.7	6.16e-04	0	43	102	1048576	21	4675
2026-01-06 00:20:10.38	143.44	82.34	-29.8	-31.6	12.2	3.20e-04	0	44	102	1048576	21	4425
2026-01-06 00:20:11.39	146.48	82.03	-29.3	-30.9	13.0	3.60e-04	0	44	102	1048576	20	4291
2026-01-06 00:20:12.39	149.26	81.71	-29.2	-31.0	13.3	1.06e-05	0	43	102	1048576	19	4423
2026-01-06 00:20:13.39	151.83	81.37	-29.2	-30.9	13.3	1.06e-05	0	44	102	1048576	19	4405
2026-01-06 00:20:14.40	154.22	81.01	-29.6	-32.2	12.6	3.43e-05	0	44	102	1048576	19	4806
2026-01-06 00:20:15.41	156.41	80.64	-30.2	-33.0	11.7	3.12e-04	0	43	102	1048576	20	4992
2026-01-06 00:20:16.42	158.44	80.25	-30.2	-32.5	11.7	8.99e-04	0	43	102	1048576	21	4708
2026-01-06 00:20:17.42	160.29	79.86	-29.7	-31.8	12.5	1.84e-04	0	43	102	1048576	20	4577
2026-01-06 00:20:18.43	162.02	79.46	-29.1	-30.9	13.3	4.65e-05	0	44	102	1048576	19	4387
2026-01-06 00:20:19.43	163.60	79.05	-27.9	-29.0	15.0	0.00e+00	0	43	102	1048576	17	4072
2026-01-06 00:20:20.44	165.07	78.63	-27.3	-28.2	15.7	0.00e+00	0	44	102	1048576	16	3957
2026-01-06 00:20:21.44	166.43	78.21	-27.1	-28.2	15.9	0.00e+00	0	43	102	1048576	15	4070
2026-01-06 00:20:22.44	167.70	77.79	-26.7	-27.8	16.3	0.00e+00	0	44	102	1048576	14	4081
2026-01-06 00:20:23.45	168.88	77.36	-26.3	-27.4	16.8	0.00e+00	0	44	102	1048576	13	4074
2026-01-06 00:20:24.46	169.99	76.92	-26.3	-27.4	16.7	0.00e+00	0	44	102	1048576	13	4083
2026-01-06 00:20:25.45	171.00	76.49	-26.2	-27.2	16.9	0.00e+00	0	44	102	1048576	13	4046
2026-01-06 00:20:26.46	171.97	76.05	-26.3	-27.4	16.7	3.66e-05	0	44	102	1048576	13	4079
2026-01-06 00:20:27.46	172.86	75.61	-26.6	-28.2	16.3	0.00e+00	0	44	102	1048576	13	4288
2026-01-06 00:20:28.47	173.71	75.16	-27.2	-28.9	15.7	0.00e+00	0	44	102	1048576	14	4380
2026-01-06 00:20:29.48	174.51	74.72	-27.3	-28.6	15.5	4.50e-06	0	43	102	1048576	15	4193
2026-01-06 00:20:30.49	175.27	74.27	-26.7	-27.8	16.2	0.00e+00	0	43	102	1048576	14	4095
2026-01-06 00:20:31.49	175.97	73.82	-26.5	-27.4	16.4	0.00e+00	0	44	102	1048576	14	3996
2026-01-06 00:20:32.50	176.64	73.37	-26.0	-26.8	17.0	7.60e-06	0	43	102	1048576	13	3928
2026-01-06 00:20:33.51	177.27	72.92	-25.6	-26.3	17.6	0.00e+00	0	44	102	1048576	12	3910
2026-01-06 00:20:34.52	177.87	72.47	-25.8	-26.8	17.3	0.00e+00	0	43	102	1048576	12	4054
2026-01-06 00:20:35.53	178.44	72.02	-26.3	-27.9	16.7	0.00e+00	0	44	102	1048576	12	4343
2026-01-06 00:20:36.53	178.97	71.58	-26.4	-27.7	16.6	0.00e+00	0	43	102	1048576	13	4162
2026-01-06 00:20:37.54	179.48	71.13	-25.8	-26.4	17.3	0.00e+00	0	43	102	1048576	13	3836
2026-01-06 00:20:38.54	179.96	70.68	-25.2	-26.1	18.0	1.50e-06	0	44	102	1048576	11	3967
2026-01-06 00:20:39.55	180.43	70.23	-25.2	-26.1	18.0	0.00e+00	0	44	102	1048576	11	3973
2026-01-06 00:20:40.55	180.86	69.79	-25.5	-26.6	17.7	0.00e+00	0	43	102	1048576	11	4108
2026-01-06 00:20:41.56	181.29	69.35	-26.0	-27.4	17.0	0.00e+00	0	43	102	1048576	12	4191
2026-01-06 00:20:42.57	181.69	68.90	-26.3	-27.8	16.8	0.00e+00	0	44	102	1048576	12	4318
2026-01-06 00:20:43.57	182.07	68.46	-26.2	-27.7	16.9	0.00e+00	0	44	102	1048576	12	4283
2026-01-06 00:20:44.58	182.44	68.02	-26.0	-27.4	17.0	0.00e+00	0	44	102	1048576	12	4195
2026-01-06 00:20:45.58	182.79	67.58	-26.2	-27.7	16.8	0.00e+00	0	44	102	1048576	12	4278
2026-01-06 00:20:46.59	183.13	67.14	-26.1	-27.6	16.9	0.00e+00	0	44	102	1048576	12	4244
2026-01-06 00:20:47.60	183.45	66.71	-25.7	-26.6	17.2	0.00e+00	0	44	102	1048576	12	3996
2026-01-06 00:20:48.61	183.76	66.27	-25.9	-27.0	17.1	0.00e+00	0	43	102	1048576	12	4089
2026-01-06 00:20:49.62	184.06	65.83	-26.2	-27.7	16.8	0.00e+00	0	44	102	1048576	12	4287
2026-01-06 00:20:50.62	184.35	65.41	-26.0	-27.3	17.0	0.00e+00	0	44	102	1048576	12	4165
2026-01-06 00:20:51.63	184.63	64.98	-25.5	-26.1	17.7	0.00e+00	0	43	102	1048576	12	3881
2026-01-06 00:20:52.63	184.89	64.55	-25.4	-26.0	17.7	0.00e+00	0	44	102	1048576	12	3840
2026-01-06 00:20:53.64	185.15	64.12	-25.4	-26.0	17.6	0.00e+00	0	44	102	1048576	12	3862
2026-01-06 00:20:54.65	185.40	63.70	-25.3	-25.8	17.6	0.00e+00	0	44	102	1048576	12	3806
2026-01-06 00:20:55.66	185.64	63.28	-25.1	-25.8	18.0	0.00e+00	0	44	102	1048576	11	3898
2026-01-06 00:20:56.66	185.87	62.86	-25.9	-27.4	17.2	0.00e+00	0	43	102	1048576	11	4314
2026-01-06 00:20:57.67	186.09	62.44	-26.6	-28.1	16.3	0.00e+00	0	44	102	1048576	13	4265
2026-01-06 00:20:58.67	186.31	62.03	-26.9	-28.9	15.8	0.00e+00	0	44	102	1048576	13	4492
2026-01-06 00:20:59.68	186.51	61.61	-26.7	-27.7	16.2	0.00e+00	0	44	102	1048576	14	4073
2026-01-06 00:21:00.69	186.72	61.20	-26.3	-27.0	16.5	0.00e+00	0	44	102	1048576	14	3894
2026-01-06 00:21:01.69	186.91	60.80	-26.0	-26.7	16.8	0.00e+00	0	44	102	1048576	13	3924
2026-01-06 00:21:02.70	187.10	60.39	-25.5	-26.2	17.5	0.00e+00	0	43	102	1048576	12	3893
2026-01-06 00:21:03.71	187.29	59.98	-26.0	-27.2	17.0	0.00e+00	0	44	102	1048576	12	4158
2026-01-06 00:21:04.71	187.46	59.59	-26.5	-27.9	16.4	0.00e+00	0	44	102	1048576	13	4234
2026-01-06 00:21:05.72	187.64	59.19	-26.7	-28.4	16.1	0.00e+00	0	43	102	1048576	13	4362
2026-01-06 00:21:06.73	187.80	58.79	-26.8	-28.6	16.0	6.94e-05	0	44	102	1048576	13	4427
2026-01-06 00:21:07.74	187.97	58.39	-27.1	-28.7	15.7	0.00e+00	0	44	102	1048576	14	4344
2026-01-06 00:21:08.74	188.13	58.00	-27.5	-29.3	15.1	0.00e+00	0	43	102	1048576	15	4385
2026-01-06 00:21:09.75	188.28	57.61	-27.0	-27.9	15.8	0.00e+00	0	43	102	1048576	15	4017
2026-01-06 00:21:10.76	188.43	57.22	-26.3	-26.9	16.6	1.22e-05	0	44	102	1048576	14	3869
2026-01-06 00:21:11.76	188.57	56.84	-26.3	-27.4	16.7	0.00e+00	0	44	102	1048576	13	4091
2026-01-06 00:21:12.76	188.71	56.46	-26.7	-28.3	16.2	9.90e-06	0	44	102	1048576	13	4326
2026-01-06 00:21:13.76	188.85	56.08	-27.6	-29.3	15.0	9.76e-05	0	44	102	1048576	15	4406
2026-01-06 00:21:14.77	188.99	55.70	-28.2	-30.2	14.4	0.00e+00	0	44	102	1048576	16	4545
2026-01-06 00:21:15.78	189.12	55.33	-28.4	-30.8	14.1	2.61e-04	0	44	102	1048576	16	4725
2026-01-06 00:21:16.78	189.24	54.96	-28.2	-30.2	14.4	3.43e-04	0	44	102	1048576	16	4541
2026-01-06 00:21:17.79	189.37	54.59	-27.8	-29.3	14.9	0.00e+00	0	44	102	1048576	16	4286
2026-01-06 00:21:18.79	189.49	54.22	-27.6	-28.7	15.2	3.06e-04	0	44	102	1048576	16	4119
2026-01-06 00:21:19.80	189.61	53.86	-27.6	-28.9	15.1	2.13e-04	0	44	102	1048576	16	4162
2026-01-06 00:21:20.81	189.72	53.49	-27.6	-28.9	15.1	0.00e+00	0	43	102	1048576	16	4170
2026-01-06 00:21:21.82	189.84	53.13	-27.5	-28.5	15.3	1.21e-04	0	44	102	1048576	16	4065
2026-01-06 00:21:22.83	189.95	52.77	-27.7	-29.1	15.0	1.81e-04	0	44	102	1048576	16	4229
2026-01-06 00:21:23.84	190.06	52.42	-28.1	-29.9	14.6	0.00e+00	0	44	102	1048576	16	4444
2026-01-06 00:21:24.85	190.16	52.06	-28.5	-30.5	13.9	4.20e-04	0	44	102	1048576	17	4510
2026-01-06 00:21:25.86	190.26	51.71	-28.8	-31.1	13.6	1.60e-05	0	44	102	1048576	17	4698
2026-01-06 00:21:26.87	190.36	51.36	-28.9	-31.3	13.5	1.52e-05	0	44	102	1048576	17	4756
2026-01-06 00:21:27.87	190.46	51.02	-28.9	-31.4	13.4	4.56e-04	0	44	102	1048576	17	4784
2026-01-06 00:21:28.88	190.56	50.67	-28.8	-31.3	13.3	4.08e-04	0	44	102	1048576	17	4754
2026-01-06 00:21:29.88	190.65	50.34	-29.2	-31.5	13.0	3.73e-05	0	44	102	1048576	18	4723
2026-01-06 00:21:30.88	190.74	50.00	-29.3	-32.0	12.7	7.09e-05	0	44	102	1048576	18	4878
2026-01-06 00:21:31.89	190.83	49.66	-29.3	-32.0	12.7	2.93e-04	0	44	102	1048576	18	4898
2026-01-06 00:21:32.90	190.92	49.33	-29.2	-31.5	13.0	2.28e-05	0	44	102	1048576	18	4723
2026-01-06 00:21:33.91	191.01	49.00	-29.3	-31.9	12.8	3.09e-04	0	44	102	1048576	18	4841
2026-01-06 00:21:34.92	191.09	48.67	-29.0	-31.1	13.3	3.29e-04	0	44	102	1048576	18	4585
2026-01-06 00:21:35.92	191.18	48.34	-28.5	-30.0	13.9	6.10e-06	0	44	102	1048576	18	4252
2026-01-06 00:21:36.93	191.26	48.02	-28.6	-30.6	13.9	2.46e-04	0	44	102	1048576	17	4544
2026-01-06 00:21:37.93	191.34	47.70	-29.2	-31.8	12.9	2.63e-04	0	43	102	1048576	18	4807
2026-01-06 00:21:38.94	191.41	47.38	-29.6	-32.3	12.2	1.48e-04	0	44	102	1048576	19	4884
2026-01-06 00:21:39.95	191.49	47.06	-29.7	-32.3	12.1	2.82e-04	0	44	102	1048576	19	4898
2026-01-06 00:21:40.96	191.57	46.75	-29.7	-32.4	12.1	2.91e-04	0	44	102	1048576	19	4939
2026-01-06 00:21:41.96	191.64	46.44	-29.5	-31.9	12.4	1.75e-04	0	43	102	1048576	19	4759
2026-01-06 00:21:42.97	191.71	46.13	-29.1	-31.4	13.0	2.71e-04	0	44	102	1048576	18	4678
2026-01-06 00:21:43.97	191.78	45.82	-29.0	-31.2	13.1	2.62e-04	0	44	102	1048576	18	4618
2026-01-06 00:21:44.98	191.85	45.51	-29.4	-32.1	12.6	7.01e-05	0	44	102	1048576	18	4907
2026-01-06 00:21:45.99	191.92	45.21	-29.4	-32.2	12.6	7.47e-05	0	44	102	1048576	18	4942
2026-01-06 00:21:47.00	191.99	44.91	-29.8	-32.5	12.0	4.35e-04	0	44	102	1048576	19	4964
2026-01-06 00:21:48.00	192.06	44.61	-29.9	-33.0	11.7	5.00e-04	0	44	102	1048576	19	5143
2026-01-06 00:21:49.00	192.12	44.32	-30.1	-33.0	11.4	1.35e-03	0	44	102	1048576	20	5041
2026-01-06 00:21:50.01	192.18	44.02	-30.2	-33.3	11.1	1.64e-03	0	44	102	1048576	20	5137
2026-01-06 00:21:51.02	192.25	43.73	-29.8	-32.2	11.8	5.14e-04	0	44	102	1048576	20	4762
2026-01-06 00:21:52.02	192.31	43.44	-29.4	-31.7	12.6	3.64e-04	0	43	102	1048576	19	4666
2026-01-06 00:21:53.03	192.37	43.15	-28.8	-30.2	13.4	8.01e-05	0	44	102	1048576	19	4215
2026-01-06 00:21:54.03	192.43	42.87	-28.6	-30.2	13.7	6.10e-06	0	44	102	1048576	18	4330
2026-01-06 00:21:55.04	192.49	42.58	-28.9	-30.9	13.3	4.65e-05	0	44	102	1048576	18	4549
2026-01-06 00:21:56.05	192.54	42.30	-29.5	-32.4	12.4	1.50e-04	0	44	102	1048576	18	5030
2026-01-06 00:21:57.06	192.60	42.02	-29.4	-31.6	12.4	2.00e-04	0	44	102	1048576	19	4668
2026-01-06 00:21:58.07	192.66	41.74	-29.3	-31.3	12.7	9.68e-05	0	44	102	1048576	19	4566
2026-01-06 00:21:59.08	192.71	41.47	-29.1	-31.5	12.9	8.46e-05	0	44	102	1048576	18	4734
2026-01-06 00:22:00.08	192.77	41.20	-29.2	-31.6	12.8	5.41e-05	0	44	102	1048576	18	4775
2026-01-06 00:22:01.09	192.82	40.92	-29.2	-31.8	12.7	1.43e-04	0	44	102	1048576	18	4826
2026-01-06 00:22:02.10	192.87	40.65	-29.1	-31.5	13.0	4.80e-05	0	44	102	1048576	18	4716
2026-01-06 00:22:03.10	192.92	40.39	-29.1	-31.5	13.0	5.49e-05	0	44	102	1048576	18	4720
2026-01-06 00:22:04.11	192.97	40.12	-29.1	-31.4	12.9	4.42e-05	0	44	102	1048576	18	4702
2026-01-06 00:22:05.11	193.02	39.86	-29.1	-31.5	12.9	2.25e-04	0	44	102	1048576	18	4734
2026-01-06 00:22:06.12	193.07	39.60	-29.0	-31.3	13.0	3.12e-05	0	44	102	1048576	18	4662
2026-01-06 00:22:07.13	193.12	39.34	-28.9	-30.9	13.3	3.05e-05	0	44	102	1048576	18	4549
2026-01-06 00:22:08.13	193.17	39.08	-28.7	-30.5	13.5	1.60e-05	0	44	102	1048576	18	4425
2026-01-06 00:22:09.14	193.22	38.83	-28.6	-30.1	13.7	6.10e-06	0	44	102	1048576	18	4301
2026-01-06 00:22:10.14	193.26	38.58	-28.7	-30.8	13.6	1.67e-05	0	44	102	1048576	17	4621
2026-01-06 00:22:11.15	193.31	38.32	-28.4	-30.1	14.0	1.90e-05	0	44	102	1048576	17	4408
2026-01-06 00:22:12.16	193.35	38.07	-28.3	-29.9	14.1	3.00e-06	0	44	102	1048576	17	4353
2026-01-06 00:22:13.16	193.40	37.83	-28.3	-30.4	14.1	2.20e-06	0	44	102	1048576	16	4592
2026-01-06 00:22:14.17	193.44	37.58	-28.1	-29.9	14.4	0.00e+00	0	44	102	1048576	16	4445
2026-01-06 00:22:15.17	193.49	37.34	-28.0	-29.8	14.5	0.00e+00	0	44	102	1048576	16	4414
2026-01-06 00:22:16.18	193.53	37.09	-28.2	-30.2	14.3	7.00e-07	0	44	102	1048576	16	4539
2026-01-06 00:22:17.19	193.57	36.85	-28.2	-30.4	14.1	7.00e-07	0	44	102	1048576	16	4603
2026-01-06 00:22:18.19	193.61	36.61	-28.3	-30.6	14.0	2.20e-06	0	43	102	1048576	16	4656
2026-01-06 00:22:19.20	193.65	36.37	-28.6	-30.7	13.6	6.80e-06	0	44	102	1048576	17	4592
2026-01-06 00:22:20.21	193.69	36.14	-28.4	-30.3	13.9	1.50e-06	0	44	102	1048576	17	4457
2026-01-06 00:22:21.21	193.73	35.90	-27.2	-28.8	14.1	0.00e+00	0	44	102	1048576	17	4303
2026-01-06 00:22:22.22	193.77	35.67	-27.1	-29.2	14.1	1.50e-06	0	44	102	1048576	15	4614
2026-01-06 00:22:23.23	193.81	35.44	-28.0	-30.3	14.3	7.00e-07	0	44	102	1048576	15	4700
2026-01-06 00:22:24.23	193.85	35.21	-28.3	-30.5	13.6	2.20e-06	0	43	102	1048576	16	4655
2026-01-06 00:22:25.24	193.89	34.98	-28.5	-30.5	13.5	3.00e-06	0	43	102	1048576	17	4528
2026-01-06 00:22:26.24	193.93	34.76	-28.6	-30.7	13.6	4.50e-06	0	43	102	1048576	17	4599
2026-01-06 00:22:27.25	193.96	34.53	-28.5	-31.0	13.8	4.50e-06	0	44	102	1048576	16	4788
2026-01-06 00:22:28.25	194.00	34.31	-28.5	-30.5	13.7	1.89e-03	0	44	102	1048576	17	4515
2026-01-06 00:22:29.26	194.04	34.09	-28.4	-30.3	13.8	5.30e-06	0	44	102	1048576	17	4476
2026-01-06 00:22:30.26	194.07	33.87	-28.2	-30.3	14.1	1.50e-06	0	44	102	1048576	16	4574
2026-01-06 00:22:31.27	194.11	33.65	-28.1	-30.1	14.2	7.00e-07	0	44	102	1048576	16	4528
2026-01-06 00:22:32.28	194.14	33.44	-27.9	-29.5	14.6	0.00e+00	0	44	102	1048576	16	4340
2026-01-06 00:22:33.28	194.17	33.22	-27.4	-29.0	15.0	2.57e-03	0	44	102	1048576	15	4320
2026-01-06 00:22:34.29	194.21	33.01	-27.4	-29.4	15.1	2.76e-03	0	44	102	1048576	14	4535
2026-01-06 00:22:35.30	194.24	32.80	-27.4	-29.5	15.0	0.00e+00	0	44	102	1048576	14	4566
2026-01-06 00:22:36.30	194.28	32.59	-27.3	-29.3	15.1	0.00e+00	0	44	102	1048576	14	4505
2026-01-06 00:22:37.31	194.31	32.38	-27.4	-29.6	15.0	0.00e+00	0	44	102	1048576	14	4599
2026-01-06 00:22:38.32	194.34	32.17	-27.5	-29.1	14.9	0.00e+00	0	44	102	1048576	15	4360
2026-01-06 00:22:39.33	194.37	31.96	-27.4	-29.1	14.9	3.49e-03	0	44	102	1048576	15	4337
2026-01-06 00:22:40.33	194.41	31.76	-27.5	-29.6	14.9	3.53e-03	0	43	102	1048576	14	4614
2026-01-06 00:22:41.34	194.44	31.55	-27.4	-29.0	15.0	0.00e+00	0	44	102	1048576	15	4320
2026-01-06 00:22:42.35	194.47	31.35	-27.2	-29.1	15.2	5.65e-04	0	44	102	1048576	14	4450
2026-01-06 00:22:43.35	194.50	31.15	-27.3	-29.2	15.1	3.40e-03	0	44	102	1048576	14	4479
2026-01-06 00:22:44.36	194.53	30.95	-27.3	-29.4	15.0	0.00e+00	0	44	102	1048576	14	4537
2026-01-06 00:22:45.36	194.56	30.76	-27.5	-29.2	14.8	3.35e-03	0	44	102	1048576	15	4396
2026-01-06 00:22:46.37	194.59	30.56	-27.4	-29.5	15.0	3.82e-03	0	44	102	1048576	14	4566
2026-01-06 00:22:47.37	194.62	30.37	-27.3	-29.2	15.1	0.00e+00	0	44	102	1048576	14	4482
2026-01-06 00:22:48.38	194.65	30.17	-27.3	-29.3	15.1	3.85e-03	0	44	102	1048576	14	4521
2026-01-06 00:22:49.39	194.68	29.98	-27.5	-29.3	14.8	3.75e-03	0	44	102	1048576	15	4399
2026-01-06 00:22:50.39	194.70	29.79	-27.4	-29.0	14.9	7.00e-07	0	44	102	1048576	15	4330
2026-01-06 00:22:51.39	194.73	29.60	-27.5	-29.1	14.9	3.70e-03	0	44	102	1048576	15	4362
2026-01-06 00:22:52.40	194.76	29.41	-27.5	-29.2	14.8	1.14e-05	0	44	102	1048576	15	4382
2026-01-06 00:22:53.40	194.79	29.22	-27.5	-29.2	14.8	0.00e+00	0	44	102	1048576	15	4393
2026-01-06 00:22:54.41	194.81	29.04	-27.3	-29.4	15.0	3.48e-03	0	44	102	1048576	14	4539
2026-01-06 00:22:55.41	194.84	28.85	-27.3	-29.2	15.1	3.86e-03	0	44	102	1048576	14	4479
2026-01-06 00:22:56.42	194.87	28.67	-27.1	-28.8	15.3	7.00e-07	0	44	102	1048576	14	4387
2026-01-06 00:22:57.43	194.90	28.48	-26.9	-28.3	15.6	0.00e+00	0	44	102	1048576	14	4226
2026-01-06 00:22:58.43	194.92	28.30	-26.7	-28.5	15.8	0.00e+00	0	44	102	1048576	13	4397
2026-01-06 00:22:59.44	194.95	28.12	-26.7	-28.4	15.8	0.00e+00	0	44	102	1048576	13	4376
2026-01-06 00:23:00.44	194.97	27.94	-26.7	-28.3	15.8	3.73e-03	0	44	102	1048576	13	4346
2026-01-06 00:23:01.45	195.00	27.76	-26.4	-27.7	16.2	3.40e-03	0	44	102	1048576	13	4187
2026-01-06 00:23:02.46	195.02	27.59	-26.3	-27.5	16.3	0.00e+00	0	44	102	1048576	13	4120
2026-01-06 00:23:03.47	195.05	27.41	-26.3	-28.0	16.3	0.00e+00	0	44	102	1048576	12	4366
2026-01-06 00:23:04.47	195.07	27.24	-26.3	-28.0	16.2	0.00e+00	0	44	102	1048576	12	4392
2026-01-06 00:23:05.48	195.10	27.06	-26.2	-27.9	16.3	0.00e+00	0	44	102	1048576	12	4346
2026-01-06 00:23:06.48	195.12	26.89	-25.5	-27.1	16.2	3.86e-03	0	44	102	1048576	12	4355
2026-01-06 00:23:07.49	195.15	26.72	-26.4	-28.2	15.6	0.00e+00	0	44	102	1048576	12	4424
2026-01-06 00:23:08.50	195.17	26.55	-26.3	-28.0	16.2	0.00e+00	0	44	102	1048576	12	4376
2026-01-06 00:23:09.50	195.19	26.38	-26.4	-28.1	16.2	0.00e+00	0	44	102	1048576	12	4413
2026-01-06 00:23:10.50	195.22	26.21	-26.4	-28.2	16.1	0.00e+00	0	44	102	1048576	12	4451
2026-01-06 00:23:11.51	195.24	26.05	-26.4	-28.2	16.1	0.00e+00	0	44	102	1048576	12	4430
2026-01-06 00:23:12.52	195.26	25.88	-26.5	-28.0	16.0	6.00e-04	0	44	102	1048576	13	4270
2026-01-06 00:23:13.53	195.29	25.71	-26.7	-28.5	15.7	0.00e+00	0	43	102	1048576	13	4395
2026-01-06 00:23:14.53	195.31	25.55	-26.9	-28.8	15.5	0.00e+00	0	44	102	1048576	13	4509
2026-01-06 00:23:15.54	195.33	25.39	-27.0	-28.6	15.4	0.00e+00	0	44	102	1048576	14	4333
2026-01-06 00:23:16.55	195.35	25.22	-27.2	-29.1	15.1	6.07e-04	0	44	102	1048576	14	4479
2026-01-06 00:23:17.56	195.38	25.06	-27.4	-29.5	14.9	0.00e+00	0	43	102	1048576	14	4575
2026-01-06 00:23:18.56	195.40	24.90	-27.3	-29.3	15.0	5.93e-04	0	44	102	1048576	14	4536
2026-01-06 00:23:19.56	195.42	24.74	-27.2	-29.1	15.1	0.00e+00	0	44	102	1048576	14	4476
2026-01-06 00:23:20.57	195.44	24.59	-27.1	-28.9	15.2	0.00e+00	0	44	102	1048576	14	4418
2026-01-06 00:23:21.58	195.46	24.43	-27.1	-28.8	15.2	6.74e-04	0	44	102	1048576	14	4395
2026-01-06 00:23:22.59	195.48	24.27	-27.0	-28.7	15.3	7.01e-04	0	44	102	1048576	14	4344
2026-01-06 00:23:23.59	195.50	24.12	-27.0	-28.5	15.4	0.00e+00	0	44	102	1048576	14	4307
2026-01-06 00:23:24.59	195.53	23.96	-26.7	-28.5	15.7	0.00e+00	0	44	102	1048576	13	4400
2026-01-06 00:23:25.60	195.55	23.81	-26.5	-28.0	15.9	0.00e+00	0	44	102	1048576	13	4267
2026-01-06 00:23:26.61	195.57	23.66	-26.3	-28.1	16.1	0.00e+00	0	44	102	1048576	12	4400
2026-01-06 00:23:27.61	195.59	23.50	-26.5	-28.4	15.9	6.34e-04	0	43	102	1048576	12	4508
2026-01-06 00:23:28.62	195.61	23.35	-26.5	-28.1	15.9	5.93e-04	0	44	102	1048576	13	4292
2026-01-06 00:23:29.62	195.63	23.20	-26.7	-28.5	15.6	0.00e+00	0	44	102	1048576	13	4406
2026-01-06 00:23:30.63	195.65	23.05	-26.8	-28.6	15.6	6.00e-04	0	44	102	1048576	13	4429
2026-01-06 00:23:31.63	195.67	22.91	-26.7	-28.5	15.6	5.87e-04	0	44	102	1048576	13	4400
2026-01-06 00:23:32.64	195.69	22.76	-26.8	-28.6	15.6	0.00e+00	0	44	102	1048576	13	4436
2026-01-06 00:23:33.64	195.70	22.61	-26.8	-28.6	15.5	5.42e-04	0	44	102	1048576	13	4441
2026-01-06 00:23:34.65	195.72	22.47	-26.7	-28.5	15.6	5.54e-04	0	44	102	1048576	13	4410
2026-01-06 00:23:35.65	195.74	22.32	-26.8	-28.7	15.5	0.00e+00	0	44	102	1048576	13	4460
2026-01-06 00:23:36.66	195.76	22.18	-26.7	-28.5	15.6	0.00e+00	0	44	102	1048576	13	4425
2026-01-06 00:23:37.66	195.78	22.04	-26.6	-28.2	15.7	5.07e-04	0	44	102	1048576	13	4319
2026-01-06 00:23:38.66	195.80	21.89	-26.5	-28.1	15.8	0.00e+00	0	44	102	1048576	13	4291
2026-01-06 00:23:39.67	195.82	21.75	-26.5	-28.0	15.8	4.71e-04	0	44	102	1048576	13	4283
2026-01-06 00:23:40.67	195.84	21.61	-26.5	-28.0	15.8	4.54e-04	0	44	102	1048576	13	4290
2026-01-06 00:23:41.68	195.85	21.47	-26.5	-27.9	15.9	0.00e+00	0	44	102	1048576	13	4253
2026-01-06 00:23:42.69	195.87	21.33	-26.4	-28.4	15.9	0.00e+00	0	44	102	1048576	12	4498
2026-01-06 00:23:43.69	195.89	21.19	-26.5	-28.0	15.8	3.71e-04	0	44	102	1048576	13	4282
2026-01-06 00:23:44.70	195.91	21.05	-26.7	-28.3	15.7	0.00e+00	0	43	102	1048576	13	4371
2026-01-06 00:23:45.70	195.93	20.92	-26.6	-28.2	15.7	4.26e-04	0	44	102	1048576	13	4344
2026-01-06 00:23:46.71	195.94	20.78	-26.4	-27.8	16.0	0.00e+00	0	44	102	1048576	13	4216
2026-01-06 00:23:47.71	195.96	20.65	-26.6	-28.2	15.8	0.00e+00	0	44	102	1048576	13	4331
2026-01-06 00:23:48.72	195.98	20.51	-26.8	-28.7	15.5	7.60e-06	0	44	102	1048576	13	4478
2026-01-06 00:23:49.73	195.99	20.38	-27.0	-28.7	15.2	3.81e-04	0	44	102	1048576	14	4352
2026-01-06 00:23:50.73	196.01	20.24	-27.2	-29.0	15.0	0.00e+00	0	44	102	1048576	14	4448
2026-01-06 00:23:51.73	196.03	20.11	-27.2	-29.0	15.0	7.00e-07	0	44	102	1048576	14	4456
2026-01-06 00:23:52.74	196.05	19.98	-27.2	-29.1	14.9	0.00e+00	0	44	102	1048576	14	4490
2026-01-06 00:23:53.75	196.06	19.85	-27.2	-29.2	14.8	0.00e+00	0	44	102	1048576	14	4502
2026-01-06 00:23:54.75	196.08	19.72	-27.3	-29.2	14.9	1.37e-05	0	44	102	1048576	14	4521
2026-01-06 00:23:55.76	196.10	19.59	-27.7	-29.7	14.3	3.50e-04	0	44	102	1048576	15	4536
2026-01-06 00:23:56.77	196.11	19.46	-27.4	-29.1	14.6	1.50e-06	0	44	102	1048576	15	4377
2026-01-06 00:23:57.78	196.13	19.33	-27.3	-29.2	14.8	7.00e-07	0	44	102	1048576	14	4510
2026-01-06 00:23:58.78	196.14	19.20	-27.4	-29.6	14.6	0.00e+00	0	44	102	1048576	14	4641
2026-01-06 00:23:59.79	196.16	19.07	-27.3	-28.9	14.8	0.00e+00	0	44	102	1048576	15	4318
2026-01-06 00:24:00.80	196.18	18.95	-27.2	-28.6	14.9	4.50e-04	0	44	102	1048576	15	4234
2026-01-06 00:24:01.81	196.19	18.82	-27.2	-29.0	14.9	2.74e-04	0	44	102	1048576	14	4466
2026-01-06 00:24:02.81	196.21	18.69	-27.2	-29.0	14.9	0.00e+00	0	44	102	1048576	14	4467
2026-01-06 00:24:03.82	196.22	18.57	-27.3	-29.4	14.7	1.22e-05	0	44	102	1048576	14	4564
2026-01-06 00:24:04.83	196.24	18.44	-27.2	-29.2	14.9	0.00e+00	0	44	102	1048576	14	4494
2026-01-06 00:24:05.83	196.25	18.32	-27.1	-28.8	15.0	8.46e-05	0	44	102	1048576	14	4407
2026-01-06 00:24:06.84	196.27	18.20	-27.0	-28.7	15.1	4.34e-05	0	44	102	1048576	14	4364
2026-01-06 00:24:07.85	196.28	18.08	-27.0	-28.6	15.2	1.49e-04	0	44	102	1048576	14	4331
2026-01-06 00:24:08.85	196.30	17.95	-27.1	-29.0	14.9	0.00e+00	0	44	102	1048576	14	4449
2026-01-06 00:24:09.86	196.31	17.83	-27.1	-28.8	15.0	1.98e-05	0	44	102	1048576	14	4396
2026-01-06 00:24:10.86	196.33	17.71	-27.2	-29.1	14.9	1.06e-04	0	44	102	1048576	14	4473
2026-01-06 00:24:11.87	196.34	17.59	-27.2	-29.1	14.8	8.30e-06	0	44	102	1048576	14	4492
2026-01-06 00:24:12.88	196.36	17.47	-27.2	-29.0	14.9	4.65e-05	0	44	102	1048576	14	4463
2026-01-06 00:24:13.89	196.37	17.35	-27.4	-29.7	14.5	7.00e-07	0	44	102	1048576	14	4665
2026-01-06 00:24:14.89	196.39	17.24	-27.3	-29.4	14.6	7.00e-07	0	44	102	1048576	14	4579
2026-01-06 00:24:15.90	196.40	17.12	-27.2	-29.2	14.8	4.54e-04	0	44	102	1048576	14	4519
2026-01-06 00:24:16.90	196.42	17.00	-27.2	-29.2	14.8	0.00e+00	0	44	102	1048576	14	4501
2026-01-06 00:24:17.91	196.43	16.88	-27.4	-29.5	14.6	8.91e-04	0	44	102	1048576	14	4599
2026-01-06 00:24:18.92	196.45	16.77	-27.3	-29.3	14.7	1.31e-03	0	44	102	1048576	14	4530
2026-01-06 00:24:19.93	196.46	16.65	-27.2	-29.2	14.7	2.20e-06	0	44	102	1048576	14	4529
2026-01-06 00:24:20.93	196.47	16.54	-27.2	-29.2	14.7	1.83e-03	0	44	102	1048576	14	4511
2026-01-06 00:24:21.94	196.49	16.42	-27.3	-29.3	14.7	1.93e-03	0	44	102	1048576	14	4536
2026-01-06 00:24:22.95	196.50	16.31	-27.4	-29.5	14.5	0.00e+00	0	44	102	1048576	14	4618
2026-01-06 00:24:23.95	196.52	16.20	-27.3	-29.3	14.6	1.94e-03	0	44	102	1048576	14	4550
2026-01-06 00:24:24.96	196.53	16.08	-27.2	-29.2	14.7	0.00e+00	0	44	102	1048576	14	4516
2026-01-06 00:24:25.96	196.54	15.97	-27.3	-29.4	14.6	0.00e+00	0	44	102	1048576	14	4571
2026-01-06 00:24:26.97	196.56	15.86	-27.3	-29.3	14.6	0.00e+00	0	44	102	1048576	14	4545
2026-01-06 00:24:27.98	196.57	15.75	-27.4	-29.5	14.5	2.13e-03	0	44	102	1048576	14	4610
2026-01-06 00:24:28.98	196.58	15.64	-27.4	-29.5	14.6	0.00e+00	0	44	102	1048576	14	4598
2026-01-06 00:24:29.99	196.60	15.53	-27.4	-29.6	14.5	0.00e+00	0	44	102	1048576	14	4622
2026-01-06 00:24:30.99	196.61	15.42	-27.6	-29.6	14.2	2.20e-06	0	43	102	1048576	15	4511
2026-01-06 00:24:32.01	196.62	15.31	-27.9	-30.3	13.8	3.00e-06	0	43	102	1048576	15	4748
2026-01-06 00:24:33.01	196.64	15.20	-27.6	-29.7	14.2	0.00e+00	0	44	102	1048576	15	4539
2026-01-06 00:24:34.02	196.65	15.09	-27.8	-30.1	13.9	2.49e-03	0	44	102	1048576	15	4674
2026-01-06 00:24:35.03	196.66	14.98	-27.7	-29.9	14.0	2.20e-06	0	44	102	1048576	15	4609
2026-01-06 00:24:36.03	196.68	14.88	-27.9	-30.2	13.9	3.80e-06	0	44	102	1048576	15	4699
2026-01-06 00:24:37.04	196.69	14.77	-28.3	-30.6	13.5	9.90e-06	0	44	102	1048576	16	4704
2026-01-06 00:24:38.04	196.70	14.66	-28.1	-30.3	13.7	4.50e-06	0	44	102	1048576	16	4605
2026-01-06 00:24:39.05	196.71	14.56	-27.9	-29.8	13.9	3.00e-06	0	44	102	1048576	16	4461
2026-01-06 00:24:40.06	196.73	14.45	-27.7	-29.7	14.1	2.20e-06	0	44	102	1048576	15	4554
2026-01-06 00:24:41.06	196.74	14.35	-27.7	-29.8	14.1	2.20e-06	0	44	102	1048576	15	4582
2026-01-06 00:24:42.07	196.75	14.24	-27.6	-29.6	14.1	1.50e-06	0	44	102	1048576	15	4520
2026-01-06 00:24:43.07	196.76	14.14	-27.5	-29.4	14.3	0.00e+00	0	44	102	1048576	15	4456
2026-01-06 00:24:44.08	196.78	14.03	-27.5	-29.4	14.3	7.00e-07	0	44	102	1048576	15	4466
2026-01-06 00:24:45.09	196.79	13.93	-27.7	-29.7	14.1	3.80e-06	0	44	102	1048576	15	4567
2026-01-06 00:24:46.10	196.80	13.83	-27.6	-29.5	14.2	7.00e-07	0	44	102	1048576	15	4482
2026-01-06 00:24:47.11	196.81	13.72	-27.5	-29.3	14.3	1.50e-06	0	44	102	1048576	15	4435
2026-01-06 00:24:48.11	196.82	13.62	-27.6	-29.5	14.2	1.50e-06	0	43	102	1048576	15	4497
2026-01-06 00:24:49.12	196.84	13.52	-27.5	-29.3	14.3	1.50e-06	0	44	102	1048576	15	4430
2026-01-06 00:24:50.13	196.85	13.42	-27.6	-29.7	14.1	7.00e-07	0	44	102	1048576	15	4548
2026-01-06 00:24:51.13	196.86	13.32	-27.7	-29.8	14.0	3.00e-06	0	44	102	1048576	15	4589
2026-01-06 00:24:52.14	196.87	13.22	-27.7	-29.7	14.0	2.20e-06	0	44	102	1048576	15	4572
2026-01-06 00:24:53.15	196.88	13.12	-27.4	-29.2	14.3	1.50e-06	0	44	102	1048576	15	4398
2026-01-06 00:24:54.15	196.90	13.02	-27.3	-29.3	14.5	7.00e-07	0	44	102	1048576	14	4557
2026-01-06 00:24:55.16	196.91	12.92	-27.4	-29.5	14.4	1.50e-06	0	44	102	1048576	14	4613
2026-01-06 00:24:56.16	196.92	12.82	-27.4	-29.6	14.4	0.00e+00	0	44	102	1048576	14	4648
2026-01-06 00:24:57.17	196.93	12.72	-27.3	-29.5	14.4	0.00e+00	0	44	102	1048576	14	4602
2026-01-06 00:24:58.18	196.94	12.63	-27.5	-29.8	14.3	7.00e-07	0	44	102	1048576	14	4701
2026-01-06 00:24:59.19	196.95	12.53	-27.6	-29.5	14.1	1.50e-06	0	43	102	1048576	15	4508
2026-01-06 00:25:00.19	196.97	12.43	-27.9	-30.2	13.7	7.60e-06	0	44	102	1048576	15	4727
2026-01-06 00:25:01.20	196.98	12.33	-27.7	-29.8	13.9	2.20e-06	0	44	102	1048576	15	4603
2026-01-06 00:25:02.21	196.99	12.24	-27.5	-29.4	14.2	1.50e-06	0	44	102	1048576	15	4482
2026-01-06 00:25:03.22	197.00	12.14	-27.5	-29.3	14.2	1.44e-05	0	44	102	1048576	15	4440
2026-01-06 00:25:04.23	197.01	12.05	-27.5	-29.4	14.1	1.50e-06	0	44	102	1048576	15	4481
2026-01-06 00:25:05.24	197.02	11.95	-27.6	-29.6	14.0	3.80e-06	0	44	102	1048576	15	4534
2026-01-06 00:25:06.25	197.03	11.86	-27.6	-29.6	14.1	2.20e-06	0	44	102	1048576	15	4520
2026-01-06 00:25:07.25	197.04	11.76	-27.7	-29.9	13.8	4.50e-06	0	44	102	1048576	15	4629
2026-01-06 00:25:08.26	197.06	11.67	-27.6	-29.7	14.0	1.50e-06	0	44	102	1048576	15	4553
2026-01-06 00:25:09.27	197.07	11.57	-27.8	-30.0	13.8	1.22e-05	0	43	102	1048576	15	4668
2026-01-06 00:25:10.28	197.08	11.48	-27.7	-29.9	13.8	5.30e-06	0	44	102	1048576	15	4624
2026-01-06 00:25:11.28	197.09	11.39	-27.9	-30.3	13.6	4.50e-06	0	44	102	1048576	15	4737
2026-01-06 00:25:12.29	197.10	11.29	-27.7	-29.8	13.9	1.98e-05	0	43	102	1048576	15	4609
2026-01-06 00:25:13.30	197.11	11.20	-27.7	-29.7	13.9	3.80e-06	0	44	102	1048576	15	4579
2026-01-06 00:25:14.31	197.12	11.11	-27.8	-30.2	13.7	8.30e-06	0	44	102	1048576	15	4712
2026-01-06 00:25:15.32	197.13	11.02	-27.8	-30.0	13.8	2.59e-05	0	44	102	1048576	15	4652
2026-01-06 00:25:16.32	197.14	10.93	-27.9	-30.3	13.6	1.06e-05	0	44	102	1048576	15	4753
2026-01-06 00:25:17.33	197.15	10.84	-28.1	-30.3	13.4	1.83e-05	0	44	102	1048576	16	4626
2026-01-06 00:25:18.34	197.16	10.74	-28.1	-30.2	13.5	2.51e-05	0	44	102	1048576	16	4594
2026-01-06 00:25:19.35	197.17	10.65	-28.0	-30.0	13.6	6.10e-06	0	44	102	1048576	16	4524
2026-01-06 00:25:20.35	197.18	10.56	-27.7	-29.8	13.9	6.80e-06	0	44	102	1048576	15	4596
2026-01-06 00:25:21.35	197.19	10.48	-27.6	-29.7	13.9	2.51e-05	0	44	102	1048576	15	4554
2026-01-06 00:25:22.36	197.20	10.39	-27.7	-29.7	13.9	7.60e-06	0	44	102	1048576	15	4582
2026-01-06 00:25:23.37	197.21	10.30	-27.7	-29.9	13.8	2.80e-03	0	44	102	1048576	15	4641
2026-01-06 00:25:24.38	197.22	10.21	-27.8	-30.0	13.7	2.28e-05	0	44	102	1048576	15	4664
2026-01-06 00:25:25.38	197.23	10.12	-27.9	-30.3	13.5	1.37e-05	0	44	102	1048576	15	4769
2026-01-06 00:25:26.39	197.24	10.03	-27.8	-30.2	13.6	8.30e-06	0	44	102	1048576	15	4725
2026-01-06 00:25:27.40	197.25	9.94	-28.1	-30.4	13.3	1.60e-05	0	44	102	1048576	16	4656
2026-01-06 00:25:28.40	197.26	9.86	-27.8	-30.1	13.6	1.74e-04	0	43	102	1048576	15	4701
2026-01-06 00:25:29.40	197.27	9.77	-27.8	-30.1	13.6	1.95e-03	0	44	102	1048576	15	4708
