passes_logs/2026/01/06/R2M6_AANII_01/R2M6_AANII_01__20260106_150344_FENGYUN_3E_rec.log

#Pass ID: 20260106_150344_FENGYUN 3E
#Satellite: FENGYUN 3E
#Configuration: FENGYUN 3E
#almurnet v.1.7.20240730
#Start time: 2026-01-06 15:03:46

#Version: 2.2.20231116
#Station: R2M6_AANII_01
#Location: 30.233357 lon 59.946436 lat
#TLE: 1 49008U 21062A   26005.63346808  .00000216  00000+0  12264-3 0  9999
#TLE: 2 49008  98.7472  10.8714 0001569 158.0856 202.0387 14.19884439233512

#Time	Az	El	Level	Level2	SNR	BER	BlckErr	Temp	State	Recorded	gain1	gain2
2026-01-06 15:03:46.26	174.69	7.10	-26.9	-29.0	5.6	7.62e-01	0	41	0	0	13	4601
2026-01-06 15:03:47.26	174.72	7.18	-27.2	-28.7	5.5	7.66e-01	0	41	104	0	15	4300
2026-01-06 15:03:48.26	174.75	7.26	-27.7	-30.0	10.4	3.92e-03	0	41	0	0	15	4701
2026-01-06 15:03:49.27	174.78	7.34	-28.3	-30.8	9.7	1.30e-02	0	41	102	1048576	16	4837
2026-01-06 15:03:50.28	174.81	7.41	-27.6	-29.1	10.9	3.38e-03	0	41	102	1048576	16	4271
2026-01-06 15:03:51.28	174.84	7.49	-27.0	-28.2	11.5	9.55e-04	0	41	102	1048576	15	4148
2026-01-06 15:03:52.29	174.87	7.57	-26.8	-28.2	11.8	5.06e-04	0	41	102	1048576	14	4258
2026-01-06 15:03:53.29	174.91	7.65	-26.1	-27.3	12.7	8.58e-05	0	41	102	1048576	13	4094
2026-01-06 15:03:54.30	174.94	7.73	-25.6	-26.6	13.4	2.28e-05	0	42	102	1048576	12	4010
2026-01-06 15:03:55.30	174.97	7.80	-25.5	-26.3	13.6	1.02e-05	0	42	102	1048576	12	3938
2026-01-06 15:03:56.31	175.00	7.88	-25.4	-26.6	13.7	1.14e-05	0	41	102	1048576	11	4121
2026-01-06 15:03:57.31	175.04	7.96	-25.4	-26.5	13.8	2.20e-06	0	42	102	1048576	11	4100
2026-01-06 15:03:58.32	175.07	8.04	-25.3	-26.3	13.9	1.10e-06	0	42	102	1048576	11	4051
2026-01-06 15:03:59.32	175.10	8.12	-25.4	-26.6	13.8	2.20e-06	0	41	102	1048576	11	4116
2026-01-06 15:04:00.33	175.13	8.20	-25.5	-26.7	13.7	1.10e-06	0	42	102	1048576	11	4135
2026-01-06 15:04:01.34	175.17	8.28	-25.5	-26.8	13.7	1.02e-05	0	42	102	1048576	11	4167
2026-01-06 15:04:02.35	175.20	8.36	-25.4	-26.4	13.9	3.40e-06	0	42	102	1048576	11	4073
2026-01-06 15:04:03.34	175.23	8.44	-25.3	-26.2	14.0	0.00e+00	0	42	102	1048576	11	4020
2026-01-06 15:04:04.35	175.27	8.53	-25.2	-26.0	14.2	1.10e-06	0	42	102	1048576	11	3955
2026-01-06 15:04:05.35	175.30	8.61	-25.4	-26.5	13.9	3.40e-06	0	42	102	1048576	11	4091
2026-01-06 15:04:06.36	175.34	8.69	-25.4	-26.5	13.9	8.00e-06	0	42	102	1048576	11	4091
2026-01-06 15:04:07.37	175.37	8.77	-25.1	-25.8	14.3	1.10e-06	0	42	102	1048576	11	3899
2026-01-06 15:04:08.37	175.40	8.85	-25.1	-26.3	14.3	2.20e-06	0	42	102	1048576	10	4144
2026-01-06 15:04:09.38	175.44	8.93	-25.3	-26.8	14.1	0.00e+00	0	42	102	1048576	10	4262
2026-01-06 15:04:10.39	175.47	9.02	-25.2	-26.5	14.3	2.20e-06	0	42	102	1048576	10	4184
2026-01-06 15:04:11.39	175.51	9.10	-25.3	-26.7	14.1	2.20e-06	0	42	102	1048576	10	4238
2026-01-06 15:04:12.40	175.54	9.18	-25.1	-26.4	14.3	1.10e-06	0	42	102	1048576	10	4165
2026-01-06 15:04:13.41	175.58	9.27	-25.0	-26.0	14.5	0.00e+00	0	42	102	1048576	10	4075
2026-01-06 15:04:14.41	175.61	9.35	-24.9	-25.9	14.6	2.20e-06	0	42	102	1048576	10	4039
2026-01-06 15:04:15.42	175.65	9.43	-25.2	-26.6	14.2	0.00e+00	0	42	102	1048576	10	4212
2026-01-06 15:04:16.43	175.69	9.52	-25.3	-26.8	14.1	2.20e-06	0	42	102	1048576	10	4259
2026-01-06 15:04:17.43	175.72	9.60	-25.1	-26.2	14.4	1.10e-06	0	42	102	1048576	10	4124
2026-01-06 15:04:18.44	175.76	9.69	-24.9	-26.0	14.6	0.00e+00	0	42	102	1048576	10	4065
2026-01-06 15:04:19.45	175.79	9.77	-25.1	-26.2	14.4	1.10e-06	0	42	102	1048576	10	4123
2026-01-06 15:04:20.45	175.83	9.86	-24.8	-25.6	14.8	0.00e+00	0	42	102	1048576	10	3955
2026-01-06 15:04:21.46	175.87	9.95	-24.9	-25.9	14.6	1.10e-06	0	42	102	1048576	10	4040
2026-01-06 15:04:22.46	175.90	10.03	-25.1	-26.5	14.4	2.20e-06	0	42	102	1048576	10	4187
2026-01-06 15:04:23.47	175.94	10.12	-25.2	-26.6	14.2	3.40e-06	0	42	102	1048576	10	4226
2026-01-06 15:04:24.48	175.98	10.20	-25.1	-26.4	14.3	1.10e-06	0	42	102	1048576	10	4161
2026-01-06 15:04:25.48	176.02	10.29	-25.0	-26.2	14.5	1.10e-06	0	42	102	1048576	10	4106
2026-01-06 15:04:26.49	176.06	10.38	-25.1	-26.4	14.4	2.20e-06	0	42	102	1048576	10	4155
2026-01-06 15:04:27.49	176.09	10.47	-25.1	-26.4	14.3	1.10e-06	0	42	102	1048576	10	4177
2026-01-06 15:04:28.50	176.13	10.55	-25.2	-26.5	14.3	0.00e+00	0	42	102	1048576	10	4194
2026-01-06 15:04:29.51	176.17	10.64	-25.1	-26.2	14.5	1.10e-06	0	43	102	1048576	10	4118
2026-01-06 15:04:30.52	176.21	10.73	-24.9	-26.0	14.6	0.00e+00	0	43	102	1048576	10	4068
2026-01-06 15:04:31.52	176.25	10.82	-25.0	-26.1	14.5	0.00e+00	0	43	102	1048576	10	4100
2026-01-06 15:04:32.52	176.29	10.91	-25.1	-26.3	14.4	1.10e-06	0	42	102	1048576	10	4135
2026-01-06 15:04:33.53	176.33	11.00	-25.0	-26.2	14.5	0.00e+00	0	42	102	1048576	10	4119
2026-01-06 15:04:34.54	176.37	11.09	-24.7	-25.5	14.9	0.00e+00	0	43	102	1048576	10	3943
2026-01-06 15:04:35.54	176.40	11.18	-24.8	-25.7	14.8	0.00e+00	0	43	102	1048576	10	3990
2026-01-06 15:04:36.55	176.44	11.27	-24.7	-25.5	14.9	0.00e+00	0	43	102	1048576	10	3936
2026-01-06 15:04:37.55	176.48	11.36	-24.6	-25.3	15.0	0.00e+00	0	43	102	1048576	10	3895
2026-01-06 15:04:38.56	176.53	11.45	-24.8	-25.7	14.8	0.00e+00	0	43	102	1048576	10	3981
2026-01-06 15:04:39.57	176.57	11.54	-25.0	-26.1	14.6	0.00e+00	0	43	102	1048576	10	4095
2026-01-06 15:04:40.58	176.61	11.63	-24.7	-25.4	14.9	3.40e-06	0	42	102	1048576	10	3915
2026-01-06 15:04:41.59	176.65	11.72	-24.7	-25.4	14.9	0.00e+00	0	43	102	1048576	10	3922
2026-01-06 15:04:42.59	176.69	11.82	-24.8	-25.7	14.8	0.00e+00	0	43	102	1048576	10	3995
2026-01-06 15:04:43.60	176.73	11.91	-24.8	-25.6	14.8	0.00e+00	0	43	102	1048576	10	3970
2026-01-06 15:04:44.61	176.77	12.00	-24.8	-25.7	14.8	1.10e-06	0	43	102	1048576	10	3997
2026-01-06 15:04:45.62	176.82	12.10	-24.8	-25.6	14.8	1.10e-06	0	43	102	1048576	10	3968
2026-01-06 15:04:46.62	176.86	12.19	-24.8	-25.7	14.8	5.70e-06	0	43	102	1048576	10	3998
2026-01-06 15:04:47.63	176.90	12.28	-24.8	-25.7	14.8	0.00e+00	0	43	102	1048576	10	3985
2026-01-06 15:04:48.63	176.94	12.38	-24.5	-25.1	15.1	0.00e+00	0	43	102	1048576	10	3856
2026-01-06 15:04:49.64	176.99	12.47	-24.7	-25.5	14.9	1.14e-05	0	43	102	1048576	10	3940
2026-01-06 15:04:50.63	177.03	12.57	-24.8	-25.8	14.8	0.00e+00	0	43	102	1048576	10	4010
2026-01-06 15:04:51.64	177.07	12.66	-24.9	-26.0	14.7	1.10e-06	0	43	102	1048576	10	4069
2026-01-06 15:04:52.65	177.12	12.76	-24.7	-25.5	14.9	1.25e-05	0	43	102	1048576	10	3953
2026-01-06 15:04:53.66	177.16	12.85	-24.4	-24.9	15.2	1.10e-06	0	43	102	1048576	10	3801
2026-01-06 15:04:54.67	177.21	12.95	-24.4	-25.3	15.3	0.00e+00	0	43	102	1048576	9	4010
2026-01-06 15:04:55.67	177.25	13.05	-24.6	-25.9	14.9	0.00e+00	0	43	102	1048576	9	4151
2026-01-06 15:04:56.68	177.30	13.14	-24.6	-25.8	15.0	0.00e+00	0	43	102	1048576	9	4131
2026-01-06 15:04:57.69	177.34	13.24	-24.3	-25.2	15.3	0.00e+00	0	43	102	1048576	9	3986
2026-01-06 15:04:58.70	177.39	13.34	-24.2	-25.0	15.4	0.00e+00	0	43	102	1048576	9	3943
2026-01-06 15:04:59.71	177.43	13.44	-24.3	-25.2	15.3	0.00e+00	0	43	102	1048576	9	3974
2026-01-06 15:05:00.71	177.48	13.54	-24.3	-25.1	15.4	0.00e+00	0	43	102	1048576	9	3968
2026-01-06 15:05:01.71	177.52	13.64	-24.2	-25.0	15.4	0.00e+00	0	43	102	1048576	9	3938
2026-01-06 15:05:02.72	177.57	13.74	-24.2	-25.0	15.4	0.00e+00	0	43	102	1048576	9	3948
2026-01-06 15:05:03.73	177.62	13.84	-24.3	-25.1	15.4	0.00e+00	0	43	102	1048576	9	3963
2026-01-06 15:05:04.73	177.67	13.94	-24.3	-25.1	15.3	0.00e+00	0	43	102	1048576	9	3971
2026-01-06 15:05:05.74	177.71	14.04	-24.3	-25.3	15.3	0.00e+00	0	43	102	1048576	9	4011
2026-01-06 15:05:06.74	177.76	14.14	-24.4	-25.3	15.3	0.00e+00	0	43	102	1048576	9	4005
2026-01-06 15:05:07.75	177.81	14.24	-24.3	-25.2	15.3	0.00e+00	0	43	102	1048576	9	3983
2026-01-06 15:05:08.76	177.86	14.34	-24.3	-25.2	15.3	0.00e+00	0	43	102	1048576	9	3987
2026-01-06 15:05:09.77	177.91	14.45	-24.3	-25.1	15.4	0.00e+00	0	43	102	1048576	9	3976
2026-01-06 15:05:10.77	177.96	14.55	-24.3	-25.2	15.3	0.00e+00	0	43	102	1048576	9	3984
2026-01-06 15:05:11.78	178.00	14.65	-24.3	-25.2	15.3	0.00e+00	0	43	102	1048576	9	3984
2026-01-06 15:05:12.79	178.05	14.75	-24.2	-25.0	15.4	0.00e+00	0	43	102	1048576	9	3940
2026-01-06 15:05:13.79	178.10	14.86	-24.1	-24.8	15.5	0.00e+00	0	43	102	1048576	9	3888
2026-01-06 15:05:14.80	178.16	14.96	-24.1	-24.7	15.6	0.00e+00	0	43	102	1048576	9	3875
2026-01-06 15:05:15.81	178.21	15.07	-24.1	-24.7	15.6	0.00e+00	0	43	102	1048576	9	3876
2026-01-06 15:05:16.82	178.26	15.17	-23.9	-24.9	15.7	0.00e+00	0	43	102	1048576	8	4044
2026-01-06 15:05:17.82	178.31	15.28	-23.9	-24.9	15.7	0.00e+00	0	43	102	1048576	8	4035
2026-01-06 15:05:18.83	178.36	15.39	-24.1	-25.3	15.5	0.00e+00	0	43	102	1048576	8	4138
2026-01-06 15:05:19.84	178.41	15.49	-23.9	-24.9	15.7	0.00e+00	0	43	102	1048576	8	4027
2026-01-06 15:05:20.84	178.46	15.60	-23.8	-24.6	15.8	0.00e+00	0	43	102	1048576	8	3970
2026-01-06 15:05:21.85	178.52	15.71	-23.7	-24.3	16.0	0.00e+00	0	43	102	1048576	8	3893
2026-01-06 15:05:22.86	178.57	15.82	-23.8	-24.6	15.8	0.00e+00	0	43	102	1048576	8	3972
2026-01-06 15:05:23.87	178.62	15.93	-23.8	-24.6	15.9	0.00e+00	0	43	102	1048576	8	3962
2026-01-06 15:05:24.87	178.68	16.03	-23.6	-24.3	16.0	0.00e+00	0	43	102	1048576	8	3896
2026-01-06 15:05:25.88	178.73	16.14	-23.7	-24.4	16.0	0.00e+00	0	43	102	1048576	8	3900
2026-01-06 15:05:26.88	178.79	16.25	-23.7	-24.5	15.9	0.00e+00	0	43	102	1048576	8	3929
2026-01-06 15:05:27.89	178.84	16.36	-23.6	-24.1	16.1	0.00e+00	0	43	102	1048576	8	3841
2026-01-06 15:05:28.89	178.90	16.47	-23.8	-24.7	15.8	0.00e+00	0	43	102	1048576	8	3990
2026-01-06 15:05:29.90	178.95	16.59	-23.7	-24.5	15.9	0.00e+00	0	43	102	1048576	8	3924
2026-01-06 15:05:30.91	179.01	16.70	-23.5	-24.0	16.2	0.00e+00	0	43	102	1048576	8	3827
2026-01-06 15:05:31.92	179.07	16.81	-23.3	-24.0	16.4	0.00e+00	0	43	102	1048576	7	3902
2026-01-06 15:05:32.92	179.12	16.92	-23.4	-24.3	16.3	0.00e+00	0	43	102	1048576	7	3988
2026-01-06 15:05:33.92	179.18	17.04	-23.5	-24.4	16.2	0.00e+00	0	43	102	1048576	7	4022
2026-01-06 15:05:34.93	179.24	17.15	-23.4	-24.2	16.3	0.00e+00	0	43	102	1048576	7	3967
2026-01-06 15:05:35.94	179.30	17.26	-23.3	-24.1	16.4	0.00e+00	0	43	102	1048576	7	3942
2026-01-06 15:05:36.93	179.35	17.38	-23.3	-24.0	16.4	0.00e+00	0	43	102	1048576	7	3906
2026-01-06 15:05:37.94	179.41	17.49	-23.4	-24.2	16.3	0.00e+00	0	43	102	1048576	7	3971
2026-01-06 15:05:38.94	179.47	17.61	-23.2	-23.9	16.5	0.00e+00	0	43	102	1048576	7	3903
2026-01-06 15:05:39.95	179.53	17.73	-23.3	-24.0	16.5	0.00e+00	0	43	102	1048576	7	3903
2026-01-06 15:05:40.96	179.59	17.84	-23.2	-23.9	16.5	0.00e+00	0	43	102	1048576	7	3886
2026-01-06 15:05:41.97	179.65	17.96	-23.1	-23.6	16.6	0.00e+00	0	43	102	1048576	7	3832
2026-01-06 15:05:42.98	179.71	18.08	-23.0	-23.4	16.8	0.00e+00	0	43	102	1048576	7	3775
2026-01-06 15:05:43.99	179.78	18.20	-23.0	-23.5	16.7	0.00e+00	0	43	102	1048576	7	3810
2026-01-06 15:05:44.99	179.84	18.32	-23.1	-23.6	16.7	0.00e+00	0	43	102	1048576	7	3814
2026-01-06 15:05:46.00	179.90	18.44	-23.0	-23.4	16.7	0.00e+00	0	43	102	1048576	7	3788
2026-01-06 15:05:47.00	179.96	18.56	-23.2	-23.8	16.5	0.00e+00	0	43	102	1048576	7	3879
2026-01-06 15:05:48.00	180.03	18.68	-23.1	-23.6	16.7	0.00e+00	0	43	102	1048576	7	3829
2026-01-06 15:05:49.01	180.09	18.80	-22.9	-23.7	16.9	0.00e+00	0	43	102	1048576	6	3945
2026-01-06 15:05:50.01	180.15	18.92	-22.9	-23.7	16.9	0.00e+00	0	43	102	1048576	6	3950
2026-01-06 15:05:51.01	180.22	19.04	-22.8	-23.5	17.0	0.00e+00	0	43	102	1048576	6	3903
2026-01-06 15:05:52.03	180.29	19.17	-22.8	-23.5	17.0	2.20e-06	0	43	102	1048576	6	3910
2026-01-06 15:05:53.03	180.35	19.29	-22.9	-23.7	16.9	0.00e+00	0	43	102	1048576	6	3950
2026-01-06 15:05:54.04	180.42	19.41	-22.8	-23.5	16.9	0.00e+00	0	43	102	1048576	6	3915
2026-01-06 15:05:55.05	180.48	19.54	-22.8	-23.6	16.9	3.40e-06	0	43	102	1048576	6	3929
2026-01-06 15:05:56.06	180.55	19.66	-22.8	-23.6	16.9	0.00e+00	0	43	102	1048576	6	3948
2026-01-06 15:05:57.06	180.62	19.79	-22.8	-23.6	16.9	0.00e+00	0	43	102	1048576	6	3934
2026-01-06 15:05:58.07	180.69	19.92	-22.8	-23.5	17.0	2.20e-06	0	43	102	1048576	6	3917
2026-01-06 15:05:59.08	180.76	20.04	-22.9	-23.8	16.8	0.00e+00	0	43	102	1048576	6	3987
2026-01-06 15:06:00.08	180.83	20.17	-22.9	-23.7	16.9	0.00e+00	0	43	102	1048576	6	3952
2026-01-06 15:06:01.09	180.90	20.30	-23.0	-23.9	16.8	0.00e+00	0	43	102	1048576	6	4014
2026-01-06 15:06:02.10	180.97	20.43	-23.2	-24.4	16.5	0.00e+00	0	43	102	1048576	6	4144
2026-01-06 15:06:03.10	181.04	20.56	-23.1	-24.2	16.6	0.00e+00	0	43	102	1048576	6	4081
2026-01-06 15:06:04.11	181.11	20.69	-22.9	-23.7	16.9	2.20e-06	0	43	102	1048576	6	3978
2026-01-06 15:06:05.12	181.18	20.82	-23.0	-24.1	16.7	0.00e+00	0	43	102	1048576	6	4060
2026-01-06 15:06:06.12	181.26	20.95	-23.0	-24.0	16.7	0.00e+00	0	43	102	1048576	6	4040
2026-01-06 15:06:07.13	181.33	21.08	-22.9	-23.7	17.0	3.40e-06	0	43	102	1048576	6	3958
2026-01-06 15:06:08.14	181.41	21.22	-22.9	-23.9	16.9	0.00e+00	0	43	102	1048576	6	4002
2026-01-06 15:06:09.15	181.48	21.35	-22.9	-23.8	16.9	0.00e+00	0	43	102	1048576	6	3975
2026-01-06 15:06:10.15	181.56	21.48	-22.8	-23.5	17.1	0.00e+00	0	43	102	1048576	6	3904
2026-01-06 15:06:11.16	181.63	21.62	-22.8	-23.5	17.1	0.00e+00	0	43	102	1048576	6	3897
2026-01-06 15:06:12.16	181.71	21.75	-22.8	-23.5	17.1	0.00e+00	0	43	102	1048576	6	3898
2026-01-06 15:06:13.17	181.79	21.89	-22.7	-23.2	17.2	0.00e+00	0	43	102	1048576	6	3831
2026-01-06 15:06:14.18	181.86	22.03	-22.6	-23.1	17.3	0.00e+00	0	43	102	1048576	6	3804
2026-01-06 15:06:15.18	181.94	22.17	-22.8	-23.4	17.2	0.00e+00	0	43	102	1048576	6	3855
2026-01-06 15:06:16.19	182.02	22.30	-22.6	-23.0	17.4	0.00e+00	0	44	102	1048576	6	3769
2026-01-06 15:06:17.20	182.10	22.44	-22.5	-22.8	17.5	0.00e+00	0	43	102	1048576	6	3717
2026-01-06 15:06:18.20	182.18	22.58	-22.6	-23.0	17.4	0.00e+00	0	44	102	1048576	6	3776
2026-01-06 15:06:19.21	182.26	22.72	-22.6	-23.0	17.4	0.00e+00	0	43	102	1048576	6	3767
2026-01-06 15:06:20.22	182.35	22.87	-22.5	-22.8	17.5	0.00e+00	0	43	102	1048576	6	3725
2026-01-06 15:06:21.22	182.43	23.01	-22.6	-22.9	17.5	0.00e+00	0	43	102	1048576	6	3740
2026-01-06 15:06:22.23	182.51	23.15	-22.6	-23.0	17.5	0.00e+00	0	43	102	1048576	6	3752
2026-01-06 15:06:23.23	182.60	23.29	-22.5	-22.8	17.5	0.00e+00	0	44	102	1048576	6	3714
2026-01-06 15:06:24.24	182.68	23.44	-22.4	-22.6	17.6	0.00e+00	0	43	102	1048576	6	3675
2026-01-06 15:06:25.25	182.77	23.58	-22.6	-23.4	17.5	0.00e+00	0	44	102	1048576	5	3965
2026-01-06 15:06:26.26	182.85	23.73	-22.6	-23.4	17.4	0.00e+00	0	44	102	1048576	5	3984
2026-01-06 15:06:27.26	182.94	23.87	-22.6	-23.5	17.4	0.00e+00	0	43	102	1048576	5	3989
2026-01-06 15:06:28.27	183.03	24.02	-22.5	-23.2	17.5	0.00e+00	0	43	102	1048576	5	3928
2026-01-06 15:06:29.27	183.12	24.17	-22.7	-23.8	17.2	0.00e+00	0	44	102	1048576	5	4081
2026-01-06 15:06:30.28	183.21	24.32	-22.8	-23.9	17.2	0.00e+00	0	44	102	1048576	5	4114
2026-01-06 15:06:31.29	183.30	24.47	-22.7	-23.8	17.2	0.00e+00	0	44	102	1048576	5	4080
2026-01-06 15:06:32.29	183.39	24.62	-22.7	-23.9	17.2	0.00e+00	0	44	102	1048576	5	4110
2026-01-06 15:06:33.29	183.48	24.77	-22.7	-23.8	17.2	0.00e+00	0	44	102	1048576	5	4078
2026-01-06 15:06:34.31	183.58	24.92	-22.6	-23.7	17.3	0.00e+00	0	44	102	1048576	5	4061
2026-01-06 15:06:35.31	183.67	25.07	-22.5	-23.4	17.4	0.00e+00	0	43	102	1048576	5	3980
2026-01-06 15:06:36.32	183.76	25.23	-22.4	-23.1	17.5	0.00e+00	0	44	102	1048576	5	3909
2026-01-06 15:06:37.32	183.86	25.38	-22.3	-22.8	17.7	0.00e+00	0	44	102	1048576	5	3853
2026-01-06 15:06:38.33	183.96	25.53	-22.3	-23.0	17.6	0.00e+00	0	43	102	1048576	5	3883
2026-01-06 15:06:39.34	184.05	25.69	-22.3	-22.9	17.7	0.00e+00	0	43	102	1048576	5	3858
2026-01-06 15:06:40.34	184.15	25.85	-22.0	-22.3	18.0	0.00e+00	0	43	102	1048576	5	3715
2026-01-06 15:06:41.35	184.25	26.00	-22.0	-22.9	17.9	0.00e+00	0	44	102	1048576	4	3960
2026-01-06 15:06:42.36	184.35	26.16	-21.9	-22.6	18.0	0.00e+00	0	44	102	1048576	4	3894
2026-01-06 15:06:43.37	184.45	26.32	-21.9	-22.5	18.1	0.00e+00	0	43	102	1048576	4	3884
2026-01-06 15:06:44.37	184.56	26.48	-21.9	-22.6	18.1	0.00e+00	0	44	102	1048576	4	3888
2026-01-06 15:06:45.38	184.66	26.64	-21.4	-21.6	18.6	0.00e+00	0	44	102	1048576	4	3648
2026-01-06 15:06:46.38	184.76	26.81	-21.7	-22.1	18.3	0.00e+00	0	43	102	1048576	4	3778
2026-01-06 15:06:47.39	184.87	26.97	-21.6	-22.0	18.4	0.00e+00	0	43	102	1048576	4	3752
2026-01-06 15:06:48.39	184.97	27.13	-21.6	-22.0	18.4	0.00e+00	0	44	102	1048576	4	3751
2026-01-06 15:06:49.40	185.08	27.30	-21.8	-22.3	18.2	0.00e+00	0	44	102	1048576	4	3840
2026-01-06 15:06:50.41	185.19	27.46	-21.8	-22.5	18.1	0.00e+00	0	44	102	1048576	4	3867
2026-01-06 15:06:51.42	185.30	27.63	-21.8	-22.5	18.1	0.00e+00	0	43	102	1048576	4	3877
2026-01-06 15:06:52.42	185.41	27.79	-21.9	-22.7	18.0	0.00e+00	0	44	102	1048576	4	3932
2026-01-06 15:06:53.43	185.52	27.96	-21.9	-22.6	18.1	0.00e+00	0	44	102	1048576	4	3898
2026-01-06 15:06:54.43	185.63	28.13	-21.9	-22.5	18.1	0.00e+00	0	44	102	1048576	4	3887
2026-01-06 15:06:55.44	185.75	28.30	-21.9	-22.7	18.0	0.00e+00	0	44	102	1048576	4	3935
2026-01-06 15:06:56.45	185.86	28.47	-21.9	-22.6	18.1	0.00e+00	0	44	102	1048576	4	3894
2026-01-06 15:06:57.45	185.98	28.64	-21.9	-22.7	18.1	0.00e+00	0	43	102	1048576	4	3916
2026-01-06 15:06:58.46	186.10	28.82	-21.9	-22.5	18.2	0.00e+00	0	44	102	1048576	4	3880
2026-01-06 15:06:59.47	186.22	28.99	-21.9	-22.6	18.1	0.00e+00	0	44	102	1048576	4	3895
2026-01-06 15:07:00.48	186.34	29.17	-22.0	-22.7	18.1	0.00e+00	0	44	102	1048576	4	3911
2026-01-06 15:07:01.48	186.46	29.34	-21.7	-22.1	18.5	0.00e+00	0	43	102	1048576	4	3754
2026-01-06 15:07:02.49	186.58	29.52	-21.9	-22.6	18.2	0.00e+00	0	43	102	1048576	4	3885
2026-01-06 15:07:03.49	186.71	29.70	-21.9	-22.6	18.2	5.70e-06	0	43	102	1048576	4	3893
2026-01-06 15:07:04.50	186.83	29.87	-22.0	-22.7	18.2	0.00e+00	0	44	102	1048576	4	3915
2026-01-06 15:07:05.51	186.96	30.05	-21.8	-22.4	18.3	0.00e+00	0	44	102	1048576	4	3841
2026-01-06 15:07:06.51	187.09	30.23	-22.0	-22.8	18.2	3.40e-06	0	44	102	1048576	4	3937
2026-01-06 15:07:07.52	187.22	30.42	-21.9	-22.5	18.3	0.00e+00	0	43	102	1048576	4	3858
2026-01-06 15:07:08.53	187.35	30.60	-21.9	-22.5	18.3	0.00e+00	0	43	102	1048576	4	3868
2026-01-06 15:07:09.54	187.48	30.78	-21.9	-22.5	18.3	0.00e+00	0	44	102	1048576	4	3858
2026-01-06 15:07:10.54	187.61	30.97	-21.9	-22.6	18.3	0.00e+00	0	44	102	1048576	4	3882
2026-01-06 15:07:11.55	187.75	31.15	-21.9	-22.6	18.2	0.00e+00	0	43	102	1048576	4	3880
2026-01-06 15:07:12.56	187.89	31.34	-21.9	-22.6	18.3	0.00e+00	0	44	102	1048576	4	3886
2026-01-06 15:07:13.56	188.02	31.53	-22.1	-22.9	18.1	0.00e+00	0	44	102	1048576	4	3971
2026-01-06 15:07:14.57	188.16	31.71	-22.0	-22.7	18.2	0.00e+00	0	44	102	1048576	4	3902
2026-01-06 15:07:15.58	188.31	31.90	-22.0	-22.7	18.2	0.00e+00	0	43	102	1048576	4	3910
2026-01-06 15:07:16.59	188.45	32.10	-21.9	-22.6	18.3	0.00e+00	0	44	102	1048576	4	3885
2026-01-06 15:07:17.60	188.60	32.29	-21.8	-22.4	18.3	0.00e+00	0	44	102	1048576	4	3842
2026-01-06 15:07:18.60	188.74	32.48	-21.8	-22.5	18.3	0.00e+00	0	44	102	1048576	4	3879
2026-01-06 15:07:19.61	188.89	32.67	-21.8	-22.4	18.3	0.00e+00	0	44	102	1048576	4	3849
2026-01-06 15:07:20.61	189.04	32.87	-21.9	-22.6	18.2	0.00e+00	0	44	102	1048576	4	3903
2026-01-06 15:07:21.62	189.19	33.06	-21.8	-22.4	18.3	0.00e+00	0	43	102	1048576	4	3861
2026-01-06 15:07:22.63	189.35	33.26	-21.9	-22.8	18.0	0.00e+00	0	43	102	1048576	4	3963
2026-01-06 15:07:23.63	189.50	33.46	-21.7	-22.2	18.3	0.00e+00	0	44	102	1048576	4	3823
2026-01-06 15:07:24.64	189.66	33.66	-21.9	-22.6	18.1	0.00e+00	0	43	102	1048576	4	3928
2026-01-06 15:07:25.65	189.82	33.86	-21.9	-22.6	18.1	0.00e+00	0	44	102	1048576	4	3912
2026-01-06 15:07:26.66	189.98	34.06	-21.9	-22.6	18.2	0.00e+00	0	44	102	1048576	4	3906
2026-01-06 15:07:27.66	190.14	34.26	-22.3	-23.4	17.7	0.00e+00	0	44	102	1048576	4	4123
2026-01-06 15:07:28.67	190.31	34.47	-22.3	-23.5	17.8	0.00e+00	0	44	102	1048576	4	4133
2026-01-06 15:07:29.68	190.47	34.67	-22.2	-23.3	17.9	0.00e+00	0	43	102	1048576	4	4075
2026-01-06 15:07:30.68	190.64	34.87	-22.2	-23.3	17.8	0.00e+00	0	44	102	1048576	4	4075
2026-01-06 15:07:31.68	190.81	35.08	-22.2	-23.3	17.9	0.00e+00	0	44	102	1048576	4	4071
2026-01-06 15:07:32.70	190.99	35.29	-22.5	-23.4	17.4	0.00e+00	0	43	102	1048576	5	3997
2026-01-06 15:07:33.70	191.16	35.50	-22.4	-23.2	17.7	0.00e+00	0	44	102	1048576	5	3943
2026-01-06 15:07:34.71	191.34	35.71	-22.4	-23.2	17.7	0.00e+00	0	44	102	1048576	5	3936
2026-01-06 15:07:35.71	191.52	35.92	-22.3	-23.0	17.8	0.00e+00	0	44	102	1048576	5	3882
2026-01-06 15:07:36.72	191.70	36.13	-22.1	-22.5	18.0	0.00e+00	0	44	102	1048576	5	3780
2026-01-06 15:07:37.73	191.89	36.34	-22.0	-22.3	18.1	0.00e+00	0	44	102	1048576	5	3736
2026-01-06 15:07:38.73	192.07	36.56	-22.1	-22.9	18.0	0.00e+00	0	44	102	1048576	4	3973
2026-01-06 15:07:39.73	192.26	36.77	-22.1	-23.0	18.0	0.00e+00	0	43	102	1048576	4	3989
2026-01-06 15:07:40.73	192.45	36.98	-22.1	-22.9	18.1	0.00e+00	0	44	102	1048576	4	3964
2026-01-06 15:07:41.74	192.65	37.20	-22.1	-23.0	18.0	0.00e+00	0	43	102	1048576	4	3999
2026-01-06 15:07:42.75	192.84	37.42	-22.6	-22.9	18.5	0.00e+00	0	44	102	1048576	5	3738
2026-01-06 15:07:43.76	193.04	37.64	-22.3	-22.2	19.0	0.00e+00	0	44	102	1048576	5	3574
2026-01-06 15:07:44.76	193.24	37.86	-22.5	-22.8	18.7	0.00e+00	0	43	102	1048576	5	3701
2026-01-06 15:07:45.77	193.45	38.08	-22.8	-23.3	18.4	0.00e+00	0	44	102	1048576	5	3816
2026-01-06 15:07:46.78	193.66	38.31	-22.8	-23.4	18.4	0.00e+00	0	43	102	1048576	5	3831
2026-01-06 15:07:47.79	193.87	38.53	-22.8	-23.3	18.4	0.00e+00	0	44	102	1048576	5	3812
2026-01-06 15:07:48.80	194.08	38.76	-22.9	-23.1	18.1	0.00e+00	0	44	102	1048576	6	3664
2026-01-06 15:07:49.80	194.30	38.98	-22.7	-23.0	18.6	0.00e+00	0	44	102	1048576	5	3755
2026-01-06 15:07:50.80	194.51	39.21	-22.7	-23.1	18.5	0.00e+00	0	44	102	1048576	5	3768
2026-01-06 15:07:51.81	194.74	39.43	-22.7	-23.2	18.5	0.00e+00	0	44	102	1048576	5	3804
2026-01-06 15:07:52.82	194.96	39.66	-22.7	-23.2	18.5	0.00e+00	0	44	102	1048576	5	3796
2026-01-06 15:07:53.83	195.19	39.89	-23.0	-23.8	18.1	0.00e+00	0	44	102	1048576	5	3944
2026-01-06 15:07:54.84	195.42	40.13	-22.8	-23.4	18.4	0.00e+00	0	44	102	1048576	5	3844
2026-01-06 15:07:55.85	195.66	40.36	-23.1	-23.9	18.1	0.00e+00	0	43	102	1048576	5	3948
2026-01-06 15:07:56.85	195.90	40.59	-22.9	-23.1	18.3	0.00e+00	0	44	102	1048576	6	3665
2026-01-06 15:07:57.86	196.14	40.83	-22.8	-22.9	18.4	0.00e+00	0	44	102	1048576	6	3621
2026-01-06 15:07:58.86	196.38	41.06	-22.9	-23.1	18.3	0.00e+00	0	44	102	1048576	6	3677
2026-01-06 15:07:59.87	196.63	41.30	-22.8	-23.3	18.5	0.00e+00	0	44	102	1048576	5	3817
2026-01-06 15:08:00.87	196.88	41.53	-22.9	-23.5	18.4	0.00e+00	0	44	102	1048576	5	3857
2026-01-06 15:08:01.88	197.14	41.77	-22.8	-23.3	18.5	0.00e+00	0	44	102	1048576	5	3832
2026-01-06 15:08:02.89	197.40	42.01	-22.9	-23.5	18.4	0.00e+00	0	43	102	1048576	5	3864
2026-01-06 15:08:03.89	197.66	42.25	-23.0	-23.8	18.2	0.00e+00	0	44	102	1048576	5	3927
2026-01-06 15:08:04.90	197.93	42.49	-23.0	-23.3	18.2	0.00e+00	0	44	102	1048576	6	3718
2026-01-06 15:08:05.91	198.20	42.73	-23.2	-23.6	18.1	1.10e-06	0	44	102	1048576	6	3780
2026-01-06 15:08:06.91	198.47	42.97	-22.9	-23.1	18.4	0.00e+00	0	44	102	1048576	6	3656
2026-01-06 15:08:07.91	198.75	43.21	-23.0	-23.2	18.3	0.00e+00	0	44	102	1048576	6	3688
2026-01-06 15:08:08.92	199.03	43.46	-22.9	-23.0	18.4	0.00e+00	0	44	102	1048576	6	3643
2026-01-06 15:08:09.93	199.32	43.70	-23.3	-23.2	17.9	0.00e+00	0	43	102	1048576	7	3593
2026-01-06 15:08:10.93	199.61	43.94	-23.2	-23.7	18.0	0.00e+00	0	44	102	1048576	6	3798
2026-01-06 15:08:11.93	199.91	44.19	-23.4	-24.0	17.9	0.00e+00	0	44	102	1048576	6	3873
2026-01-06 15:08:12.94	200.21	44.44	-23.3	-23.9	18.0	0.00e+00	0	44	102	1048576	6	3848
2026-01-06 15:08:13.94	200.51	44.68	-23.2	-23.6	18.1	0.00e+00	0	44	102	1048576	6	3793
2026-01-06 15:08:14.95	200.82	44.93	-22.7	-22.7	18.6	0.00e+00	0	44	102	1048576	6	3568
2026-01-06 15:08:15.96	201.14	45.18	-23.2	-23.8	18.1	0.00e+00	0	44	102	1048576	6	3817
2026-01-06 15:08:16.97	201.46	45.43	-23.1	-23.5	18.2	0.00e+00	0	44	102	1048576	6	3753
2026-01-06 15:08:17.97	201.79	45.68	-23.1	-23.4	18.2	0.00e+00	0	44	102	1048576	6	3744
2026-01-06 15:08:18.98	202.12	45.93	-23.1	-23.3	18.3	0.00e+00	0	44	102	1048576	6	3718
2026-01-06 15:08:19.98	202.45	46.18	-23.1	-23.4	18.2	0.00e+00	0	44	102	1048576	6	3744
2026-01-06 15:08:20.99	202.79	46.43	-23.0	-23.3	18.3	0.00e+00	0	44	102	1048576	6	3707
2026-01-06 15:08:21.99	203.14	46.68	-23.3	-23.7	18.0	0.00e+00	0	44	102	1048576	6	3811
2026-01-06 15:08:22.99	203.49	46.93	-23.1	-23.5	18.2	0.00e+00	0	43	102	1048576	6	3765
2026-01-06 15:08:24.00	203.84	47.19	-23.1	-23.5	18.2	0.00e+00	0	44	102	1048576	6	3759
2026-01-06 15:08:25.01	204.21	47.44	-23.3	-23.4	18.0	0.00e+00	0	44	102	1048576	7	3642
2026-01-06 15:08:26.01	204.57	47.69	-23.8	-24.4	17.5	0.00e+00	0	44	102	1048576	7	3856
2026-01-06 15:08:27.02	204.95	47.95	-23.8	-24.5	17.4	0.00e+00	0	44	102	1048576	7	3881
2026-01-06 15:08:28.03	205.33	48.20	-24.1	-24.6	17.1	0.00e+00	0	44	102	1048576	8	3811
2026-01-06 15:08:29.04	205.72	48.45	-24.1	-24.5	17.2	0.00e+00	0	44	102	1048576	8	3775
2026-01-06 15:08:30.05	206.12	48.71	-24.2	-24.7	17.1	0.00e+00	0	44	102	1048576	8	3841
2026-01-06 15:08:31.04	206.51	48.96	-24.1	-24.7	17.1	0.00e+00	0	44	102	1048576	8	3822
2026-01-06 15:08:32.04	206.91	49.21	-24.4	-25.1	16.9	0.00e+00	0	44	102	1048576	8	3927
2026-01-06 15:08:33.05	207.33	49.47	-24.2	-24.9	17.1	1.10e-06	0	44	102	1048576	8	3863
2026-01-06 15:08:34.06	207.75	49.72	-24.2	-24.7	17.1	0.00e+00	0	44	102	1048576	8	3832
2026-01-06 15:08:35.06	208.17	49.97	-24.2	-24.7	17.1	0.00e+00	0	44	102	1048576	8	3826
2026-01-06 15:08:36.07	208.61	50.23	-24.3	-24.3	16.8	0.00e+00	0	44	102	1048576	9	3636
2026-01-06 15:08:37.08	209.05	50.48	-24.5	-24.8	16.8	0.00e+00	0	44	102	1048576	9	3746
2026-01-06 15:08:38.09	209.50	50.73	-24.5	-24.9	16.8	0.00e+00	0	44	102	1048576	9	3764
2026-01-06 15:08:39.09	209.96	50.98	-24.5	-24.8	16.8	0.00e+00	0	44	102	1048576	9	3753
2026-01-06 15:08:40.10	210.42	51.23	-24.7	-25.3	16.5	0.00e+00	0	44	102	1048576	9	3861
2026-01-06 15:08:41.11	210.89	51.49	-24.4	-24.7	16.9	0.00e+00	0	44	102	1048576	9	3726
2026-01-06 15:08:42.11	211.37	51.73	-24.5	-24.9	16.8	0.00e+00	0	44	102	1048576	9	3761
2026-01-06 15:08:43.12	211.86	51.98	-24.4	-24.7	16.8	0.00e+00	0	44	102	1048576	9	3728
2026-01-06 15:08:44.12	212.35	52.23	-25.2	-25.9	16.0	0.00e+00	0	44	102	1048576	10	3907
2026-01-06 15:08:45.12	212.85	52.48	-24.9	-25.3	16.4	0.00e+00	0	44	102	1048576	10	3753
2026-01-06 15:08:46.13	213.37	52.72	-24.6	-24.6	16.7	0.00e+00	0	44	102	1048576	10	3602
2026-01-06 15:08:47.14	213.89	52.97	-24.5	-24.8	16.8	0.00e+00	0	43	102	1048576	9	3740
2026-01-06 15:08:48.15	214.42	53.21	-24.6	-25.0	16.8	0.00e+00	0	44	102	1048576	9	3786
2026-01-06 15:08:49.15	214.96	53.46	-24.6	-25.1	16.7	0.00e+00	0	44	102	1048576	9	3821
2026-01-06 15:08:50.16	215.51	53.70	-24.1	-24.1	17.3	0.00e+00	0	44	102	1048576	9	3576
2026-01-06 15:08:51.17	216.06	53.94	-23.7	-23.8	17.7	0.00e+00	0	44	102	1048576	8	3606
2026-01-06 15:08:52.18	216.63	54.18	-23.9	-24.0	17.5	0.00e+00	0	43	102	1048576	8	3659
2026-01-06 15:08:53.18	217.20	54.41	-23.9	-24.0	17.6	0.00e+00	0	43	102	1048576	8	3656
2026-01-06 15:08:54.19	217.79	54.65	-24.1	-24.6	17.2	0.00e+00	0	44	102	1048576	8	3799
2026-01-06 15:08:55.19	218.38	54.88	-24.3	-25.0	17.1	0.00e+00	0	44	102	1048576	8	3896
2026-01-06 15:08:56.20	218.99	55.11	-24.4	-25.1	17.0	0.00e+00	0	44	102	1048576	8	3922
2026-01-06 15:08:57.21	219.60	55.34	-24.5	-25.4	16.9	0.00e+00	0	44	102	1048576	8	3982
2026-01-06 15:08:58.21	220.22	55.56	-24.0	-24.4	17.4	0.00e+00	0	43	102	1048576	8	3740
2026-01-06 15:08:59.22	220.86	55.79	-24.0	-24.2	17.5	0.00e+00	0	44	102	1048576	8	3705
2026-01-06 15:09:00.22	221.49	56.01	-24.0	-24.2	17.4	0.00e+00	0	43	102	1048576	8	3711
2026-01-06 15:09:01.23	222.15	56.23	-24.3	-24.9	17.0	0.00e+00	0	44	102	1048576	8	3878
2026-01-06 15:09:02.24	222.82	56.44	-24.4	-25.1	17.0	0.00e+00	0	44	102	1048576	8	3917
2026-01-06 15:09:03.24	223.49	56.66	-24.4	-25.2	17.0	0.00e+00	0	43	102	1048576	8	3929
2026-01-06 15:09:04.24	224.17	56.86	-24.1	-24.6	17.3	0.00e+00	0	44	102	1048576	8	3783
2026-01-06 15:09:05.25	224.86	57.07	-24.1	-24.4	17.2	0.00e+00	0	44	102	1048576	8	3753
2026-01-06 15:09:06.26	225.57	57.28	-24.2	-24.8	17.2	1.10e-06	0	44	102	1048576	8	3839
2026-01-06 15:09:07.27	226.29	57.48	-24.0	-24.3	17.4	0.00e+00	0	43	102	1048576	8	3736
2026-01-06 15:09:08.27	227.01	57.67	-24.0	-24.4	17.4	1.10e-06	0	44	102	1048576	8	3750
2026-01-06 15:09:09.28	227.75	57.87	-24.1	-24.6	17.3	1.10e-06	0	44	102	1048576	8	3796
2026-01-06 15:09:10.29	228.50	58.06	-24.3	-24.9	17.1	1.10e-06	0	43	102	1048576	8	3877
2026-01-06 15:09:11.30	229.26	58.24	-24.8	-25.5	16.5	0.00e+00	0	44	102	1048576	9	3900
2026-01-06 15:09:12.30	230.02	58.42	-24.4	-24.6	17.0	0.00e+00	0	44	102	1048576	9	3710
2026-01-06 15:09:13.30	230.79	58.60	-23.9	-23.5	17.6	2.20e-06	0	44	102	1048576	9	3464
2026-01-06 15:09:14.31	231.58	58.77	-23.7	-23.7	17.7	0.00e+00	0	44	102	1048576	8	3605
2026-01-06 15:09:15.32	232.38	58.94	-23.8	-23.9	17.7	2.20e-06	0	43	102	1048576	8	3633
2026-01-06 15:09:16.32	233.19	59.10	-23.9	-24.1	17.5	0.00e+00	0	43	102	1048576	8	3680
2026-01-06 15:09:17.33	234.01	59.26	-24.1	-24.5	17.2	0.00e+00	0	44	102	1048576	8	3784
2026-01-06 15:09:18.34	234.84	59.41	-24.0	-24.4	17.4	0.00e+00	0	44	102	1048576	8	3754
2026-01-06 15:09:19.34	235.67	59.56	-24.0	-24.2	17.5	0.00e+00	0	44	102	1048576	8	3706
2026-01-06 15:09:20.35	236.52	59.70	-23.9	-24.1	17.6	0.00e+00	0	44	102	1048576	8	3686
2026-01-06 15:09:21.36	237.38	59.84	-23.6	-23.4	17.9	0.00e+00	0	44	102	1048576	8	3528
2026-01-06 15:09:22.37	238.25	59.97	-23.5	-23.3	18.0	0.00e+00	0	44	102	1048576	8	3508
2026-01-06 15:09:23.37	239.11	60.10	-23.7	-23.7	17.7	0.00e+00	0	44	102	1048576	8	3600
2026-01-06 15:09:24.38	240.00	60.22	-24.1	-24.4	17.5	0.00e+00	0	44	102	1048576	8	3759
2026-01-06 15:09:25.39	240.89	60.34	-23.9	-24.1	17.6	0.00e+00	0	44	102	1048576	8	3675
2026-01-06 15:09:26.39	241.78	60.45	-23.7	-23.6	17.8	0.00e+00	0	44	102	1048576	8	3581
2026-01-06 15:09:27.40	242.69	60.55	-23.7	-23.6	17.7	0.00e+00	0	44	102	1048576	8	3585
2026-01-06 15:09:28.41	243.61	60.65	-23.9	-24.1	17.5	0.00e+00	0	44	102	1048576	8	3673
2026-01-06 15:09:29.41	244.52	60.74	-23.8	-23.9	17.7	0.00e+00	0	44	102	1048576	8	3643
2026-01-06 15:09:30.42	245.45	60.82	-23.6	-23.5	17.9	0.00e+00	0	44	102	1048576	8	3543
2026-01-06 15:09:31.43	246.39	60.90	-23.5	-23.3	17.9	0.00e+00	0	44	102	1048576	8	3503
2026-01-06 15:09:32.43	247.32	60.97	-23.8	-23.8	17.7	0.00e+00	0	44	102	1048576	8	3619
2026-01-06 15:09:33.44	248.26	61.04	-23.8	-23.8	17.8	0.00e+00	0	44	102	1048576	8	3617
2026-01-06 15:09:34.45	249.21	61.09	-23.7	-23.7	17.8	0.00e+00	0	44	102	1048576	8	3604
2026-01-06 15:09:35.45	250.16	61.14	-23.7	-23.5	17.9	0.00e+00	0	44	102	1048576	8	3555
2026-01-06 15:09:36.46	251.11	61.19	-23.9	-24.0	17.7	0.00e+00	0	44	102	1048576	8	3667
2026-01-06 15:09:37.46	252.06	61.23	-24.0	-24.2	17.5	0.00e+00	0	44	102	1048576	8	3715
2026-01-06 15:09:38.47	253.03	61.26	-24.0	-24.2	17.5	0.00e+00	0	44	102	1048576	8	3708
2026-01-06 15:09:39.48	253.99	61.28	-23.9	-24.1	17.6	0.00e+00	0	44	102	1048576	8	3672
2026-01-06 15:09:40.49	254.96	61.30	-23.9	-24.0	17.6	0.00e+00	0	44	102	1048576	8	3657
2026-01-06 15:09:41.50	255.93	61.31	-23.7	-23.7	17.7	0.00e+00	0	44	102	1048576	8	3600
2026-01-06 15:09:42.50	256.89	61.31	-23.8	-23.9	17.7	0.00e+00	0	44	102	1048576	8	3648
2026-01-06 15:09:43.51	257.85	61.31	-23.9	-24.0	17.6	0.00e+00	0	44	102	1048576	8	3660
2026-01-06 15:09:44.52	258.82	61.30	-24.1	-24.6	17.3	0.00e+00	0	44	102	1048576	8	3800
2026-01-06 15:09:45.53	259.79	61.28	-24.2	-24.8	17.3	0.00e+00	0	44	102	1048576	8	3835
2026-01-06 15:09:46.54	260.75	61.25	-24.1	-24.6	17.3	0.00e+00	0	44	102	1048576	8	3789
2026-01-06 15:09:47.55	261.71	61.22	-23.8	-23.8	17.7	0.00e+00	0	44	102	1048576	8	3608
2026-01-06 15:09:48.56	262.67	61.18	-23.9	-24.0	17.6	0.00e+00	0	44	102	1048576	8	3660
2026-01-06 15:09:49.56	263.62	61.13	-23.9	-24.1	17.6	0.00e+00	0	44	102	1048576	8	3679
2026-01-06 15:09:50.57	264.57	61.08	-23.7	-23.6	17.9	0.00e+00	0	43	102	1048576	8	3564
2026-01-06 15:09:51.58	265.52	61.02	-24.0	-24.4	17.5	0.00e+00	0	44	102	1048576	8	3735
2026-01-06 15:09:52.59	266.47	60.96	-24.1	-24.5	17.4	0.00e+00	0	44	102	1048576	8	3771
2026-01-06 15:09:53.58	267.39	60.88	-23.8	-23.9	17.7	0.00e+00	0	44	102	1048576	8	3627
2026-01-06 15:09:54.59	268.32	60.80	-23.3	-23.3	18.2	0.00e+00	0	44	102	1048576	7	3600
2026-01-06 15:09:55.60	269.25	60.72	-23.3	-23.4	18.2	0.00e+00	0	44	102	1048576	7	3618
2026-01-06 15:09:56.61	270.17	60.63	-23.6	-23.9	17.8	0.00e+00	0	44	102	1048576	7	3745
2026-01-06 15:09:57.61	271.07	60.53	-24.1	-24.5	17.4	0.00e+00	0	44	102	1048576	8	3780
2026-01-06 15:09:58.62	271.98	60.42	-24.0	-24.3	17.5	0.00e+00	0	44	102	1048576	8	3721
2026-01-06 15:09:59.63	272.87	60.31	-23.7	-23.7	17.8	0.00e+00	0	44	102	1048576	8	3575
2026-01-06 15:10:00.64	273.77	60.20	-23.9	-24.0	17.7	0.00e+00	0	44	102	1048576	8	3643
2026-01-06 15:10:01.64	274.64	60.08	-24.2	-24.7	17.3	0.00e+00	0	44	102	1048576	8	3809
2026-01-06 15:10:02.64	275.50	59.95	-24.5	-25.4	16.9	0.00e+00	0	44	102	1048576	8	3995
2026-01-06 15:10:03.65	276.37	59.82	-24.4	-24.7	17.0	0.00e+00	0	44	102	1048576	9	3730
2026-01-06 15:10:04.66	277.23	59.68	-24.1	-24.0	17.4	0.00e+00	0	44	102	1048576	9	3557
2026-01-06 15:10:05.67	278.07	59.53	-24.4	-24.6	17.1	0.00e+00	0	44	102	1048576	9	3683
2026-01-06 15:10:06.67	278.90	59.38	-24.1	-24.1	17.4	0.00e+00	0	44	102	1048576	9	3581
2026-01-06 15:10:07.68	279.73	59.23	-23.9	-24.1	17.6	0.00e+00	0	44	102	1048576	8	3684
2026-01-06 15:10:08.69	280.55	59.07	-23.8	-23.9	17.7	0.00e+00	0	44	102	1048576	8	3627
2026-01-06 15:10:09.70	281.36	58.91	-23.9	-24.1	17.6	0.00e+00	0	44	102	1048576	8	3683
2026-01-06 15:10:10.71	282.15	58.74	-24.0	-24.2	17.6	0.00e+00	0	44	102	1048576	8	3703
2026-01-06 15:10:11.71	282.93	58.56	-24.0	-24.3	17.5	0.00e+00	0	44	102	1048576	8	3723
2026-01-06 15:10:12.72	283.71	58.39	-23.9	-24.0	17.6	0.00e+00	0	44	102	1048576	8	3659
2026-01-06 15:10:13.73	284.48	58.20	-23.9	-24.0	17.6	0.00e+00	0	44	102	1048576	8	3658
2026-01-06 15:10:14.74	285.23	58.02	-24.0	-24.3	17.5	0.00e+00	0	44	102	1048576	8	3727
2026-01-06 15:10:15.75	285.98	57.83	-23.8	-23.9	17.7	0.00e+00	0	44	102	1048576	8	3625
2026-01-06 15:10:16.75	286.71	57.64	-23.6	-23.4	17.9	0.00e+00	0	44	102	1048576	8	3532
2026-01-06 15:10:17.75	287.43	57.44	-23.9	-24.1	17.4	0.00e+00	0	44	102	1048576	8	3685
2026-01-06 15:10:18.75	288.13	57.24	-24.5	-25.3	17.0	0.00e+00	0	44	102	1048576	8	3959
2026-01-06 15:10:19.76	288.84	57.04	-24.7	-25.2	16.7	0.00e+00	0	44	102	1048576	9	3842
2026-01-06 15:10:20.77	289.53	56.83	-24.4	-24.7	17.0	0.00e+00	0	44	102	1048576	9	3723
2026-01-06 15:10:21.77	290.21	56.62	-24.3	-24.4	17.2	0.00e+00	0	44	102	1048576	9	3643
2026-01-06 15:10:22.78	290.88	56.41	-24.5	-24.8	17.0	0.00e+00	0	44	102	1048576	9	3734
2026-01-06 15:10:23.79	291.54	56.19	-24.3	-24.5	17.2	0.00e+00	0	44	102	1048576	9	3661
2026-01-06 15:10:24.79	292.19	55.97	-24.3	-24.3	17.2	0.00e+00	0	44	102	1048576	9	3636
2026-01-06 15:10:25.80	292.83	55.75	-24.3	-24.3	17.2	0.00e+00	0	44	102	1048576	9	3637
2026-01-06 15:10:26.81	293.47	55.53	-24.3	-24.5	17.1	0.00e+00	0	44	102	1048576	9	3663
2026-01-06 15:10:27.82	294.09	55.30	-24.4	-24.7	17.0	0.00e+00	0	44	102	1048576	9	3714
2026-01-06 15:10:28.83	294.70	55.07	-24.2	-24.3	17.2	0.00e+00	0	44	102	1048576	9	3627
2026-01-06 15:10:29.83	295.30	54.84	-24.0	-23.8	17.3	0.00e+00	0	44	102	1048576	9	3515
2026-01-06 15:10:30.83	295.88	54.61	-24.2	-24.3	17.2	0.00e+00	0	44	102	1048576	9	3619
2026-01-06 15:10:31.84	296.47	54.38	-24.3	-24.5	17.1	0.00e+00	0	44	102	1048576	9	3659
2026-01-06 15:10:32.85	297.04	54.14	-24.6	-25.1	16.8	0.00e+00	0	44	102	1048576	9	3801
2026-01-06 15:10:33.86	297.61	53.90	-24.5	-24.9	16.9	0.00e+00	0	44	102	1048576	9	3759
2026-01-06 15:10:34.87	298.16	53.66	-24.4	-24.7	17.0	0.00e+00	0	44	102	1048576	9	3701
2026-01-06 15:10:35.87	298.70	53.42	-24.5	-24.9	16.9	0.00e+00	0	44	102	1048576	9	3761
2026-01-06 15:10:36.88	299.24	53.18	-24.4	-24.7	17.0	0.00e+00	0	44	102	1048576	9	3710
2026-01-06 15:10:37.89	299.77	52.94	-24.4	-24.7	17.0	0.00e+00	0	44	102	1048576	9	3716
2026-01-06 15:10:38.90	300.29	52.69	-24.8	-25.4	16.2	0.00e+00	0	44	102	1048576	9	3882
2026-01-06 15:10:39.90	300.80	52.45	-24.6	-25.0	16.8	0.00e+00	0	44	102	1048576	9	3792
2026-01-06 15:10:40.91	301.30	52.20	-24.8	-25.5	16.6	0.00e+00	0	44	102	1048576	9	3914
2026-01-06 15:10:41.91	301.79	51.95	-24.8	-25.4	16.6	0.00e+00	0	44	102	1048576	9	3889
2026-01-06 15:10:42.92	302.28	51.70	-24.9	-25.7	16.5	0.00e+00	0	44	102	1048576	9	3959
2026-01-06 15:10:43.93	302.75	51.45	-24.7	-25.2	16.7	0.00e+00	0	44	102	1048576	9	3837
2026-01-06 15:10:44.94	303.23	51.20	-24.5	-24.9	16.9	0.00e+00	0	44	102	1048576	9	3758
2026-01-06 15:10:45.94	303.68	50.95	-24.5	-24.8	17.0	0.00e+00	0	44	102	1048576	9	3731
2026-01-06 15:10:46.95	304.14	50.70	-24.6	-25.0	16.8	0.00e+00	0	44	102	1048576	9	3781
2026-01-06 15:10:47.95	304.58	50.45	-24.3	-24.5	17.1	0.00e+00	0	44	102	1048576	9	3662
2026-01-06 15:10:48.96	305.02	50.20	-24.1	-24.1	17.3	0.00e+00	0	44	102	1048576	9	3572
2026-01-06 15:10:49.97	305.46	49.95	-24.0	-23.9	17.4	0.00e+00	0	44	102	1048576	9	3537
2026-01-06 15:10:50.98	305.88	49.69	-24.1	-24.1	17.3	0.00e+00	0	44	102	1048576	9	3579
2026-01-06 15:10:51.98	306.30	49.44	-24.0	-23.7	17.5	0.00e+00	0	44	102	1048576	9	3507
2026-01-06 15:10:52.98	306.71	49.19	-23.9	-24.1	17.6	0.00e+00	0	44	102	1048576	8	3672
2026-01-06 15:10:53.99	307.11	48.94	-24.0	-24.3	17.4	0.00e+00	0	44	102	1048576	8	3728
2026-01-06 15:10:55.00	307.51	48.68	-24.0	-24.2	17.5	0.00e+00	0	44	102	1048576	8	3710
2026-01-06 15:10:55.99	307.90	48.44	-24.1	-24.4	17.4	0.00e+00	0	44	102	1048576	8	3749
2026-01-06 15:10:57.00	308.28	48.18	-24.0	-24.4	17.3	0.00e+00	0	44	102	1048576	8	3745
2026-01-06 15:10:58.01	308.66	47.93	-24.1	-24.6	17.2	0.00e+00	0	44	102	1048576	8	3790
2026-01-06 15:10:59.02	309.04	47.68	-23.9	-24.0	17.5	0.00e+00	0	44	102	1048576	8	3666
2026-01-06 15:11:00.02	309.40	47.43	-23.6	-23.6	17.7	0.00e+00	0	44	102	1048576	8	3566
2026-01-06 15:11:01.03	309.77	47.17	-23.6	-23.5	17.9	0.00e+00	0	44	102	1048576	8	3550
2026-01-06 15:11:02.04	310.12	46.92	-23.8	-23.8	17.7	0.00e+00	0	44	102	1048576	8	3612
2026-01-06 15:11:03.05	310.47	46.67	-23.4	-23.5	17.9	0.00e+00	0	44	102	1048576	7	3647
2026-01-06 15:11:04.05	310.82	46.42	-23.5	-23.8	17.9	0.00e+00	0	44	102	1048576	7	3724
2026-01-06 15:11:05.06	311.16	46.17	-23.4	-23.6	18.0	0.00e+00	0	44	102	1048576	7	3675
2026-01-06 15:11:06.06	311.49	45.92	-23.4	-23.6	18.0	0.00e+00	0	44	102	1048576	7	3679
2026-01-06 15:11:07.07	311.82	45.67	-23.6	-24.0	17.8	0.00e+00	0	44	102	1048576	7	3762
2026-01-06 15:11:08.08	312.14	45.42	-23.5	-23.7	17.9	0.00e+00	0	44	102	1048576	7	3693
2026-01-06 15:11:09.09	312.46	45.17	-23.5	-23.8	17.9	0.00e+00	0	44	102	1048576	7	3714
2026-01-06 15:11:10.09	312.78	44.93	-23.4	-23.5	18.1	0.00e+00	0	44	102	1048576	7	3662
2026-01-06 15:11:11.10	313.09	44.68	-23.0	-22.7	18.4	0.00e+00	0	44	102	1048576	7	3477
2026-01-06 15:11:12.10	313.39	44.43	-22.8	-22.8	18.7	0.00e+00	0	44	102	1048576	6	3590
2026-01-06 15:11:13.11	313.69	44.19	-22.7	-22.5	18.8	0.00e+00	0	44	102	1048576	6	3540
2026-01-06 15:11:14.11	313.98	43.94	-22.8	-22.8	18.6	0.00e+00	0	44	102	1048576	6	3608
2026-01-06 15:11:15.12	314.27	43.70	-22.7	-22.7	18.7	0.00e+00	0	44	102	1048576	6	3565
2026-01-06 15:11:16.13	314.56	43.45	-22.9	-22.9	18.6	0.00e+00	0	44	102	1048576	6	3616
2026-01-06 15:11:17.13	314.84	43.21	-22.9	-23.1	18.4	0.00e+00	0	44	102	1048576	6	3668
2026-01-06 15:11:18.13	315.12	42.97	-23.1	-23.4	18.3	0.00e+00	0	44	102	1048576	6	3726
2026-01-06 15:11:19.13	315.39	42.73	-23.0	-23.3	18.3	0.00e+00	0	44	102	1048576	6	3704
2026-01-06 15:11:20.14	315.66	42.49	-23.1	-23.5	18.3	0.00e+00	0	44	102	1048576	6	3756
2026-01-06 15:11:21.15	315.93	42.25	-23.0	-23.2	18.4	0.00e+00	0	44	102	1048576	6	3678
2026-01-06 15:11:22.15	316.19	42.02	-23.0	-23.2	18.4	0.00e+00	0	44	102	1048576	6	3685
2026-01-06 15:11:23.16	316.45	41.78	-23.0	-23.3	18.4	0.00e+00	0	44	102	1048576	6	3705
2026-01-06 15:11:24.16	316.70	41.54	-22.9	-23.1	18.5	0.00e+00	0	44	102	1048576	6	3656
2026-01-06 15:11:25.17	316.95	41.31	-23.1	-23.4	18.3	0.00e+00	0	44	102	1048576	6	3741
2026-01-06 15:11:26.18	317.20	41.07	-23.0	-23.3	18.4	0.00e+00	0	44	102	1048576	6	3697
2026-01-06 15:11:27.19	317.45	40.84	-23.2	-23.7	18.1	0.00e+00	0	44	102	1048576	6	3799
2026-01-06 15:11:28.19	317.68	40.61	-23.0	-23.3	18.4	0.00e+00	0	44	102	1048576	6	3700
2026-01-06 15:11:29.20	317.92	40.37	-22.9	-23.0	18.5	0.00e+00	0	44	102	1048576	6	3648
2026-01-06 15:11:30.20	318.15	40.14	-22.8	-22.9	18.5	0.00e+00	0	44	102	1048576	6	3621
2026-01-06 15:11:31.21	318.39	39.91	-22.9	-22.9	18.5	0.00e+00	0	44	102	1048576	6	3620
2026-01-06 15:11:32.21	318.61	39.69	-22.6	-22.4	18.8	0.00e+00	0	44	102	1048576	6	3524
2026-01-06 15:11:33.21	318.84	39.46	-22.7	-22.5	18.7	0.00e+00	0	44	102	1048576	6	3535
2026-01-06 15:11:34.21	319.06	39.24	-22.9	-23.0	18.5	0.00e+00	0	44	102	1048576	6	3634
2026-01-06 15:11:35.23	319.28	39.01	-23.0	-23.2	18.4	0.00e+00	0	44	102	1048576	6	3697
2026-01-06 15:11:36.23	319.49	38.78	-23.2	-23.7	18.1	0.00e+00	0	44	102	1048576	6	3800
2026-01-06 15:11:37.24	319.70	38.56	-23.3	-23.8	18.0	0.00e+00	0	44	102	1048576	6	3830
2026-01-06 15:11:38.24	319.91	38.34	-23.4	-24.0	17.9	0.00e+00	0	44	102	1048576	6	3880
2026-01-06 15:11:39.25	320.12	38.12	-23.5	-24.2	17.8	0.00e+00	0	44	102	1048576	6	3928
2026-01-06 15:11:40.26	320.32	37.90	-23.2	-23.6	18.1	0.00e+00	0	44	102	1048576	6	3777
2026-01-06 15:11:41.26	320.52	37.68	-23.0	-23.2	18.4	0.00e+00	0	44	102	1048576	6	3696
2026-01-06 15:11:42.27	320.72	37.46	-23.0	-23.2	18.4	0.00e+00	0	44	102	1048576	6	3677
2026-01-06 15:11:43.27	320.92	37.24	-22.9	-23.0	18.5	0.00e+00	0	44	102	1048576	6	3649
2026-01-06 15:11:44.28	321.11	37.03	-22.9	-23.0	18.5	0.00e+00	0	44	102	1048576	6	3652
2026-01-06 15:11:45.29	321.31	36.81	-22.9	-23.0	18.4	0.00e+00	0	44	102	1048576	6	3647
2026-01-06 15:11:46.30	321.50	36.60	-23.1	-23.4	18.3	0.00e+00	0	44	102	1048576	6	3723
2026-01-06 15:11:47.31	321.68	36.38	-22.9	-22.9	18.5	0.00e+00	0	44	102	1048576	6	3621
2026-01-06 15:11:48.32	321.87	36.17	-22.8	-22.8	18.6	0.00e+00	0	44	102	1048576	6	3594
2026-01-06 15:11:49.33	322.05	35.96	-22.7	-22.6	18.6	0.00e+00	0	44	102	1048576	6	3560
2026-01-06 15:11:50.33	322.23	35.75	-22.7	-22.7	18.6	0.00e+00	0	44	102	1048576	6	3571
2026-01-06 15:11:51.35	322.41	35.54	-22.8	-22.7	18.6	0.00e+00	0	44	102	1048576	6	3580
2026-01-06 15:11:52.35	322.58	35.33	-22.9	-23.0	18.5	0.00e+00	0	44	102	1048576	6	3643
2026-01-06 15:11:53.35	322.75	35.13	-22.9	-23.0	18.4	0.00e+00	0	44	102	1048576	6	3656
2026-01-06 15:11:54.35	322.92	34.92	-22.8	-22.8	18.5	0.00e+00	0	44	102	1048576	6	3610
2026-01-06 15:11:55.36	323.09	34.72	-22.8	-22.9	18.5	0.00e+00	0	44	102	1048576	6	3615
2026-01-06 15:11:56.37	323.26	34.51	-22.9	-23.0	18.5	0.00e+00	0	44	102	1048576	6	3646
2026-01-06 15:11:57.38	323.42	34.31	-23.0	-23.2	18.4	0.00e+00	0	44	102	1048576	6	3689
2026-01-06 15:11:58.38	323.59	34.11	-23.1	-23.4	18.2	0.00e+00	0	44	102	1048576	6	3737
2026-01-06 15:11:59.39	323.75	33.91	-23.1	-23.5	18.2	0.00e+00	0	44	102	1048576	6	3765
2026-01-06 15:12:00.39	323.91	33.71	-23.0	-23.1	18.3	0.00e+00	0	44	102	1048576	6	3676
2026-01-06 15:12:01.40	324.06	33.51	-23.0	-23.1	18.3	0.00e+00	0	44	102	1048576	6	3675
2026-01-06 15:12:02.41	324.22	33.32	-22.9	-23.1	18.4	0.00e+00	0	44	102	1048576	6	3665
2026-01-06 15:12:03.42	324.37	33.12	-22.9	-22.9	18.5	0.00e+00	0	44	102	1048576	6	3627
2026-01-06 15:12:04.41	324.52	32.93	-22.9	-23.1	18.4	0.00e+00	0	44	102	1048576	6	3660
2026-01-06 15:12:05.42	324.67	32.73	-22.8	-22.8	18.5	0.00e+00	0	44	102	1048576	6	3607
2026-01-06 15:12:06.43	324.82	32.54	-22.7	-22.5	18.7	0.00e+00	0	44	102	1048576	6	3534
2026-01-06 15:12:07.44	324.97	32.35	-22.6	-22.4	18.7	0.00e+00	0	44	102	1048576	6	3512
2026-01-06 15:12:08.44	325.11	32.16	-22.4	-22.0	18.9	0.00e+00	0	44	102	1048576	6	3428
2026-01-06 15:12:09.44	325.25	31.97	-22.4	-22.5	18.9	0.00e+00	0	44	102	1048576	5	3637
2026-01-06 15:12:10.44	325.39	31.78	-22.4	-22.5	18.9	0.00e+00	0	44	102	1048576	5	3627
2026-01-06 15:12:11.45	325.53	31.60	-22.3	-22.4	18.9	0.00e+00	0	44	102	1048576	5	3605
2026-01-06 15:12:12.46	325.67	31.41	-22.4	-22.4	18.9	0.00e+00	0	44	102	1048576	5	3622
2026-01-06 15:12:13.47	325.81	31.22	-22.6	-22.9	18.7	0.00e+00	0	44	102	1048576	5	3716
2026-01-06 15:12:14.48	325.95	31.04	-22.6	-23.0	18.6	0.00e+00	0	44	102	1048576	5	3745
2026-01-06 15:12:15.48	326.08	30.85	-22.5	-22.6	18.8	0.00e+00	0	44	102	1048576	5	3665
2026-01-06 15:12:16.49	326.21	30.67	-22.4	-22.6	18.8	0.00e+00	0	44	102	1048576	5	3653
2026-01-06 15:12:17.49	326.34	30.49	-22.6	-22.8	18.7	0.00e+00	0	44	102	1048576	5	3705
2026-01-06 15:12:18.50	326.47	30.31	-22.6	-22.9	18.6	0.00e+00	0	44	102	1048576	5	3730
2026-01-06 15:12:19.50	326.60	30.13	-22.7	-23.2	18.5	0.00e+00	0	44	102	1048576	5	3783
2026-01-06 15:12:20.50	326.72	29.95	-22.8	-23.3	18.5	0.00e+00	0	44	102	1048576	5	3805
2026-01-06 15:12:21.51	326.85	29.78	-22.9	-23.4	18.3	0.00e+00	0	44	102	1048576	5	3851
2026-01-06 15:12:22.51	326.97	29.60	-23.0	-23.6	18.3	0.00e+00	0	44	102	1048576	5	3894
2026-01-06 15:12:23.52	327.10	29.42	-23.0	-23.7	18.2	0.00e+00	0	44	102	1048576	5	3902
2026-01-06 15:12:24.52	327.22	29.25	-23.1	-23.3	18.2	0.00e+00	0	44	102	1048576	6	3713
2026-01-06 15:12:25.53	327.34	29.08	-23.0	-23.2	18.3	0.00e+00	0	44	102	1048576	6	3683
2026-01-06 15:12:26.53	327.46	28.90	-23.0	-23.1	18.3	0.00e+00	0	44	102	1048576	6	3678
2026-01-06 15:12:27.54	327.58	28.73	-23.1	-23.4	18.1	0.00e+00	0	44	102	1048576	6	3735
2026-01-06 15:12:28.54	327.69	28.56	-23.1	-23.3	18.2	0.00e+00	0	44	102	1048576	6	3720
2026-01-06 15:12:29.55	327.81	28.39	-22.9	-23.0	18.3	0.00e+00	0	44	102	1048576	6	3645
2026-01-06 15:12:30.55	327.92	28.22	-22.9	-22.9	18.4	0.00e+00	0	44	102	1048576	6	3632
2026-01-06 15:12:31.55	328.03	28.06	-22.8	-22.9	18.4	0.00e+00	0	44	102	1048576	6	3617
2026-01-06 15:12:32.56	328.15	27.89	-22.9	-23.0	18.3	0.00e+00	0	44	102	1048576	6	3653
2026-01-06 15:12:33.56	328.26	27.72	-23.0	-23.1	18.3	0.00e+00	0	44	102	1048576	6	3671
2026-01-06 15:12:34.56	328.36	27.56	-23.0	-23.2	18.2	0.00e+00	0	44	102	1048576	6	3690
2026-01-06 15:12:35.57	328.47	27.39	-23.0	-23.2	18.2	0.00e+00	0	44	102	1048576	6	3690
2026-01-06 15:12:36.58	328.58	27.23	-23.1	-23.4	18.1	0.00e+00	0	44	102	1048576	6	3722
2026-01-06 15:12:37.58	328.69	27.07	-23.0	-23.3	18.1	0.00e+00	0	44	102	1048576	6	3716
2026-01-06 15:12:38.59	328.79	26.91	-22.9	-23.1	18.3	0.00e+00	0	44	102	1048576	6	3665
2026-01-06 15:12:39.60	328.90	26.74	-23.0	-23.2	18.2	0.00e+00	0	44	102	1048576	6	3681
2026-01-06 15:12:40.60	329.00	26.58	-23.0	-23.2	18.2	0.00e+00	0	44	102	1048576	6	3692
2026-01-06 15:12:41.61	329.10	26.42	-23.1	-23.5	18.0	0.00e+00	0	44	102	1048576	6	3751
2026-01-06 15:12:42.62	329.21	26.27	-23.0	-23.3	18.2	0.00e+00	0	44	102	1048576	6	3712
2026-01-06 15:12:43.63	329.31	26.11	-22.9	-22.9	18.2	0.00e+00	0	44	102	1048576	6	3631
2026-01-06 15:12:44.63	329.41	25.95	-22.8	-22.8	18.4	0.00e+00	0	44	102	1048576	6	3603
2026-01-06 15:12:45.64	329.50	25.80	-22.8	-22.8	18.4	0.00e+00	0	44	102	1048576	6	3597
2026-01-06 15:12:46.65	329.60	25.64	-22.9	-22.9	18.4	0.00e+00	0	44	102	1048576	6	3627
2026-01-06 15:12:47.65	329.70	25.49	-22.8	-22.9	18.4	0.00e+00	0	44	102	1048576	6	3619
2026-01-06 15:12:48.66	329.80	25.33	-22.7	-22.7	18.4	0.00e+00	0	44	102	1048576	6	3582
2026-01-06 15:12:49.67	329.89	25.18	-22.8	-22.8	18.4	0.00e+00	0	44	102	1048576	6	3592
2026-01-06 15:12:50.67	329.98	25.03	-22.9	-23.0	18.3	0.00e+00	0	44	102	1048576	6	3643
2026-01-06 15:12:51.68	330.08	24.88	-22.8	-22.9	18.4	0.00e+00	0	44	102	1048576	6	3617
2026-01-06 15:12:52.68	330.17	24.73	-22.7	-22.7	18.4	0.00e+00	0	44	102	1048576	6	3575
2026-01-06 15:12:53.69	330.26	24.58	-22.8	-22.8	18.4	0.00e+00	0	44	102	1048576	6	3594
2026-01-06 15:12:54.69	330.35	24.43	-22.8	-22.8	18.4	0.00e+00	0	44	102	1048576	6	3603
2026-01-06 15:12:55.70	330.44	24.28	-22.8	-22.7	18.4	0.00e+00	0	44	102	1048576	6	3592
2026-01-06 15:12:56.70	330.53	24.13	-22.8	-22.8	18.3	0.00e+00	0	44	102	1048576	6	3613
2026-01-06 15:12:57.71	330.62	23.99	-22.8	-22.9	18.3	0.00e+00	0	44	102	1048576	6	3626
2026-01-06 15:12:58.72	330.71	23.84	-23.0	-23.1	18.2	0.00e+00	0	44	102	1048576	6	3679
2026-01-06 15:12:59.72	330.79	23.70	-22.9	-23.1	18.2	0.00e+00	0	44	102	1048576	6	3676
2026-01-06 15:13:00.72	330.88	23.55	-23.1	-23.4	18.1	0.00e+00	0	44	102	1048576	6	3733
2026-01-06 15:13:01.73	330.97	23.41	-23.1	-23.4	18.1	0.00e+00	0	44	102	1048576	6	3735
2026-01-06 15:13:02.74	331.05	23.27	-23.2	-23.7	17.8	0.00e+00	0	44	102	1048576	6	3813
2026-01-06 15:13:03.74	331.13	23.13	-23.2	-23.6	17.9	0.00e+00	0	44	102	1048576	6	3794
2026-01-06 15:13:04.75	331.22	22.98	-23.2	-23.8	17.8	0.00e+00	0	44	102	1048576	6	3824
2026-01-06 15:13:05.75	331.30	22.84	-23.3	-23.8	17.8	0.00e+00	0	44	102	1048576	6	3834
2026-01-06 15:13:06.76	331.38	22.70	-23.4	-24.1	17.6	0.00e+00	0	44	102	1048576	6	3904
2026-01-06 15:13:07.77	331.46	22.56	-23.4	-24.1	17.7	0.00e+00	0	44	102	1048576	6	3890
2026-01-06 15:13:08.78	331.54	22.43	-23.5	-24.3	17.5	0.00e+00	0	44	102	1048576	6	3940
2026-01-06 15:13:09.78	331.62	22.29	-23.5	-24.4	17.5	0.00e+00	0	44	102	1048576	6	3964
2026-01-06 15:13:10.79	331.70	22.15	-23.5	-24.4	17.5	0.00e+00	0	44	102	1048576	6	3971
2026-01-06 15:13:11.80	331.78	22.01	-23.6	-24.0	17.4	0.00e+00	0	44	102	1048576	7	3772
2026-01-06 15:13:12.81	331.86	21.88	-23.7	-24.2	17.3	0.00e+00	0	44	102	1048576	7	3827
2026-01-06 15:13:13.82	331.94	21.74	-23.6	-24.1	17.4	0.00e+00	0	44	102	1048576	7	3797
2026-01-06 15:13:14.82	332.01	21.61	-23.6	-23.9	17.4	0.00e+00	0	44	102	1048576	7	3757
2026-01-06 15:13:15.82	332.09	21.48	-23.6	-24.0	17.4	0.00e+00	0	44	102	1048576	7	3779
2026-01-06 15:13:16.83	332.16	21.34	-23.6	-24.0	17.4	0.00e+00	0	44	102	1048576	7	3765
2026-01-06 15:13:17.84	332.24	21.21	-23.6	-24.0	17.4	0.00e+00	0	44	102	1048576	7	3775
2026-01-06 15:13:18.85	332.31	21.08	-23.8	-24.3	17.3	0.00e+00	0	44	102	1048576	7	3844
2026-01-06 15:13:19.86	332.39	20.95	-23.8	-24.4	17.2	0.00e+00	0	44	102	1048576	7	3857
2026-01-06 15:13:20.86	332.46	20.82	-23.8	-24.4	17.2	0.00e+00	0	44	102	1048576	7	3852
2026-01-06 15:13:21.87	332.53	20.69	-23.9	-24.7	17.0	0.00e+00	0	44	102	1048576	7	3927
2026-01-06 15:13:22.87	332.60	20.56	-23.8	-24.4	17.2	0.00e+00	0	44	102	1048576	7	3865
2026-01-06 15:13:23.88	332.67	20.43	-23.8	-24.4	17.2	0.00e+00	0	44	102	1048576	7	3870
2026-01-06 15:13:24.89	332.75	20.30	-23.8	-24.3	17.2	0.00e+00	0	44	102	1048576	7	3849
2026-01-06 15:13:25.90	332.82	20.17	-24.0	-24.9	16.9	0.00e+00	0	44	102	1048576	7	3989
2026-01-06 15:13:26.91	332.89	20.05	-23.8	-24.5	17.1	0.00e+00	0	44	102	1048576	7	3891
2026-01-06 15:13:27.91	332.95	19.92	-23.7	-24.1	17.3	0.00e+00	0	44	102	1048576	7	3797
2026-01-06 15:13:28.92	333.02	19.80	-23.6	-24.0	17.4	0.00e+00	0	44	102	1048576	7	3775
2026-01-06 15:13:29.93	333.09	19.67	-23.6	-24.0	17.3	0.00e+00	0	44	102	1048576	7	3779
2026-01-06 15:13:30.93	333.16	19.55	-23.6	-24.1	17.3	0.00e+00	0	44	102	1048576	7	3790
2026-01-06 15:13:31.94	333.23	19.42	-23.6	-24.1	17.3	0.00e+00	0	44	102	1048576	7	3786
2026-01-06 15:13:32.95	333.29	19.30	-23.6	-24.1	17.3	0.00e+00	0	44	102	1048576	7	3787
2026-01-06 15:13:33.95	333.36	19.18	-23.8	-24.3	17.2	0.00e+00	0	44	102	1048576	7	3850
2026-01-06 15:13:34.96	333.42	19.05	-23.8	-24.3	17.2	0.00e+00	0	44	102	1048576	7	3844
2026-01-06 15:13:35.96	333.49	18.93	-23.9	-24.6	17.0	0.00e+00	0	44	102	1048576	7	3912
2026-01-06 15:13:36.97	333.55	18.81	-23.9	-24.6	17.1	0.00e+00	0	44	102	1048576	7	3903
2026-01-06 15:13:37.98	333.62	18.69	-23.9	-24.7	17.0	0.00e+00	0	44	102	1048576	7	3926
2026-01-06 15:13:38.99	333.68	18.57	-24.0	-24.9	16.9	0.00e+00	0	44	102	1048576	7	3972
2026-01-06 15:13:39.99	333.74	18.45	-24.0	-24.9	16.9	0.00e+00	0	44	102	1048576	7	3976
2026-01-06 15:13:41.00	333.81	18.33	-24.2	-24.7	16.7	0.00e+00	0	44	102	1048576	8	3835
2026-01-06 15:13:42.00	333.87	18.22	-24.1	-24.6	16.8	0.00e+00	0	44	102	1048576	8	3802
2026-01-06 15:13:43.00	333.93	18.10	-24.1	-24.7	16.8	0.00e+00	0	44	102	1048576	8	3834
2026-01-06 15:13:44.01	333.99	17.98	-24.3	-25.0	16.6	0.00e+00	0	44	102	1048576	8	3916
2026-01-06 15:13:45.01	334.05	17.87	-24.5	-25.4	16.3	0.00e+00	0	44	102	1048576	8	4005
2026-01-06 15:13:46.02	334.11	17.75	-24.4	-25.3	16.4	0.00e+00	0	44	102	1048576	8	3985
2026-01-06 15:13:47.03	334.17	17.64	-24.5	-25.4	16.4	0.00e+00	0	44	102	1048576	8	3999
2026-01-06 15:13:48.04	334.23	17.52	-24.5	-25.5	16.3	0.00e+00	0	44	102	1048576	8	4025
2026-01-06 15:13:49.05	334.29	17.41	-24.5	-25.4	16.3	0.00e+00	0	44	102	1048576	8	4004
2026-01-06 15:13:50.05	334.35	17.29	-24.5	-25.5	16.3	0.00e+00	0	44	102	1048576	8	4020
2026-01-06 15:13:51.06	334.41	17.18	-24.5	-25.4	16.3	0.00e+00	0	44	102	1048576	8	4005
2026-01-06 15:13:52.07	334.47	17.06	-24.5	-25.4	16.3	0.00e+00	0	44	102	1048576	8	4000
2026-01-06 15:13:53.07	334.52	16.95	-24.5	-25.4	16.3	0.00e+00	0	44	102	1048576	8	3996
2026-01-06 15:13:54.08	334.58	16.84	-24.6	-25.1	16.1	0.00e+00	0	44	102	1048576	9	3836
2026-01-06 15:13:55.09	334.64	16.73	-24.6	-25.1	16.2	0.00e+00	0	44	102	1048576	9	3817
2026-01-06 15:13:56.09	334.69	16.62	-24.6	-25.0	16.2	0.00e+00	0	44	102	1048576	9	3808
2026-01-06 15:13:57.10	334.75	16.51	-24.5	-24.9	16.3	0.00e+00	0	44	102	1048576	9	3779
2026-01-06 15:13:58.12	334.81	16.40	-24.6	-25.1	16.2	0.00e+00	0	44	102	1048576	9	3826
2026-01-06 15:13:59.12	334.86	16.29	-24.5	-24.9	16.2	0.00e+00	0	44	102	1048576	9	3787
2026-01-06 15:14:00.13	334.92	16.18	-24.5	-25.0	16.3	0.00e+00	0	44	102	1048576	9	3790
2026-01-06 15:14:01.14	334.97	16.07	-24.6	-25.1	16.2	0.00e+00	0	44	102	1048576	9	3831
2026-01-06 15:14:02.14	335.02	15.96	-24.5	-24.9	16.3	0.00e+00	0	44	102	1048576	9	3787
2026-01-06 15:14:03.15	335.08	15.85	-24.5	-25.0	16.3	0.00e+00	0	44	102	1048576	9	3787
2026-01-06 15:14:04.15	335.13	15.75	-24.5	-25.0	16.2	0.00e+00	0	44	102	1048576	9	3799
2026-01-06 15:14:05.15	335.18	15.64	-24.5	-24.9	16.3	0.00e+00	0	44	102	1048576	9	3764
2026-01-06 15:14:06.16	335.24	15.53	-24.6	-25.0	16.2	0.00e+00	0	44	102	1048576	9	3812
2026-01-06 15:14:07.16	335.29	15.43	-24.5	-24.9	16.3	0.00e+00	0	44	102	1048576	9	3772
2026-01-06 15:14:08.17	335.34	15.32	-24.5	-24.9	16.3	0.00e+00	0	44	102	1048576	9	3764
2026-01-06 15:14:09.16	335.39	15.22	-24.6	-25.1	16.1	0.00e+00	0	44	102	1048576	9	3816
2026-01-06 15:14:10.17	335.44	15.12	-24.5	-25.0	16.2	0.00e+00	0	44	102	1048576	9	3791
2026-01-06 15:14:11.17	335.49	15.01	-24.6	-25.1	16.1	0.00e+00	0	44	102	1048576	9	3825
2026-01-06 15:14:12.18	335.55	14.91	-24.7	-25.3	16.0	0.00e+00	0	44	102	1048576	9	3873
2026-01-06 15:14:13.20	335.60	14.80	-24.8	-25.5	15.9	0.00e+00	0	44	102	1048576	9	3922
2026-01-06 15:14:14.20	335.65	14.70	-24.7	-25.3	16.0	0.00e+00	0	44	102	1048576	9	3874
2026-01-06 15:14:15.21	335.70	14.60	-24.7	-25.4	15.9	0.00e+00	0	44	102	1048576	9	3905
2026-01-06 15:14:16.21	335.75	14.50	-24.8	-25.7	15.8	0.00e+00	0	44	102	1048576	9	3969
2026-01-06 15:14:17.21	335.79	14.40	-24.9	-25.8	15.7	0.00e+00	0	44	102	1048576	9	4001
2026-01-06 15:14:18.21	335.84	14.30	-24.9	-25.7	15.7	0.00e+00	0	44	102	1048576	9	3983
2026-01-06 15:14:19.21	335.89	14.20	-25.0	-26.1	15.5	0.00e+00	0	44	102	1048576	9	4085
2026-01-06 15:14:20.21	335.94	14.10	-24.9	-25.7	15.7	0.00e+00	0	44	102	1048576	9	3978
2026-01-06 15:14:21.22	335.99	14.00	-24.8	-25.6	15.8	0.00e+00	0	44	102	1048576	9	3946
2026-01-06 15:14:22.23	336.04	13.90	-24.8	-25.7	15.7	0.00e+00	0	44	102	1048576	9	3964
2026-01-06 15:14:23.24	336.08	13.80	-24.8	-25.7	15.7	0.00e+00	0	44	102	1048576	9	3974
2026-01-06 15:14:24.25	336.13	13.70	-24.9	-25.8	15.7	0.00e+00	0	44	102	1048576	9	3991
2026-01-06 15:14:25.25	336.18	13.60	-25.0	-26.1	15.5	0.00e+00	0	44	102	1048576	9	4065
2026-01-06 15:14:26.26	336.22	13.50	-24.9	-25.8	15.7	0.00e+00	0	44	102	1048576	9	3996
2026-01-06 15:14:27.27	336.27	13.40	-25.0	-26.0	15.5	0.00e+00	0	44	102	1048576	9	4044
2026-01-06 15:14:28.27	336.32	13.31	-25.0	-26.2	15.5	0.00e+00	0	44	102	1048576	9	4092
2026-01-06 15:14:29.28	336.36	13.21	-25.1	-26.3	15.4	0.00e+00	0	44	102	1048576	9	4117
2026-01-06 15:14:30.29	336.41	13.11	-25.1	-25.8	15.4	0.00e+00	0	44	102	1048576	10	3899
2026-01-06 15:14:31.29	336.45	13.02	-25.2	-26.0	15.3	0.00e+00	0	44	102	1048576	10	3941
2026-01-06 15:14:32.30	336.50	12.92	-25.2	-26.0	15.3	0.00e+00	0	44	102	1048576	10	3933
2026-01-06 15:14:33.31	336.54	12.82	-25.3	-26.1	15.2	0.00e+00	0	44	102	1048576	10	3972
2026-01-06 15:14:34.31	336.59	12.73	-25.3	-26.2	15.1	0.00e+00	0	44	102	1048576	10	4000
2026-01-06 15:14:35.32	336.63	12.63	-25.3	-26.1	15.2	0.00e+00	0	44	102	1048576	10	3972
2026-01-06 15:14:36.32	336.67	12.54	-25.3	-26.2	15.1	0.00e+00	0	44	102	1048576	10	4002
2026-01-06 15:14:37.33	336.72	12.45	-25.3	-26.2	15.1	1.10e-06	0	44	102	1048576	10	4006
2026-01-06 15:14:38.34	336.76	12.35	-25.4	-26.4	15.0	1.10e-06	0	44	102	1048576	10	4032
2026-01-06 15:14:39.35	336.80	12.26	-25.4	-26.5	14.9	1.10e-06	0	44	102	1048576	10	4073
2026-01-06 15:14:40.35	336.85	12.17	-25.4	-26.4	15.0	0.00e+00	0	44	102	1048576	10	4052
2026-01-06 15:14:41.36	336.89	12.07	-25.5	-26.7	14.8	1.10e-06	0	44	102	1048576	10	4130
2026-01-06 15:14:42.37	336.93	11.98	-25.7	-26.6	14.6	0.00e+00	0	44	102	1048576	11	3983
2026-01-06 15:14:43.37	336.97	11.89	-25.8	-26.9	14.4	2.20e-06	0	44	102	1048576	11	4063
2026-01-06 15:14:44.38	337.02	11.80	-25.7	-26.7	14.6	0.00e+00	0	44	102	1048576	11	4010
2026-01-06 15:14:45.39	337.06	11.71	-25.8	-26.9	14.4	1.10e-06	0	44	102	1048576	11	4070
2026-01-06 15:14:46.40	337.10	11.61	-26.0	-27.2	14.3	5.70e-06	0	44	102	1048576	11	4140
2026-01-06 15:14:47.40	337.14	11.52	-25.8	-26.9	14.4	0.00e+00	0	44	102	1048576	11	4059
2026-01-06 15:14:48.41	337.18	11.43	-25.7	-26.6	14.6	2.20e-06	0	44	102	1048576	11	3998
2026-01-06 15:14:49.42	337.22	11.34	-25.7	-26.7	14.5	1.10e-06	0	44	102	1048576	11	4004
2026-01-06 15:14:50.42	337.26	11.25	-25.9	-27.0	14.3	1.10e-06	0	44	102	1048576	11	4088
2026-01-06 15:14:51.43	337.30	11.16	-25.9	-27.1	14.2	1.10e-06	0	44	102	1048576	11	4121
2026-01-06 15:14:52.44	337.34	11.08	-25.8	-26.7	14.4	5.70e-06	0	44	102	1048576	11	4026
2026-01-06 15:14:53.45	337.38	10.99	-25.8	-26.7	14.5	1.10e-06	0	44	102	1048576	11	4022
2026-01-06 15:14:54.46	337.42	10.90	-25.8	-26.8	14.5	1.10e-06	0	44	102	1048576	11	4034
2026-01-06 15:14:55.46	337.46	10.81	-25.8	-26.8	14.4	0.00e+00	0	44	102	1048576	11	4038
2026-01-06 15:14:56.46	337.50	10.72	-25.8	-26.8	14.4	0.00e+00	0	44	102	1048576	11	4056
2026-01-06 15:14:57.46	337.54	10.64	-25.8	-26.7	14.4	0.00e+00	0	44	102	1048576	11	4028
2026-01-06 15:14:58.47	337.58	10.55	-25.9	-27.0	14.3	2.20e-06	0	44	102	1048576	11	4086
2026-01-06 15:14:59.48	337.62	10.46	-25.9	-27.0	14.3	1.10e-06	0	44	102	1048576	11	4098
2026-01-06 15:15:00.48	337.66	10.38	-25.9	-27.0	14.3	0.00e+00	0	44	102	1048576	11	4083
2026-01-06 15:15:01.49	337.70	10.29	-25.8	-26.7	14.4	1.10e-06	0	44	102	1048576	11	4015
2026-01-06 15:15:02.49	337.73	10.20	-25.8	-26.7	14.4	0.00e+00	0	44	102	1048576	11	4028
2026-01-06 15:15:03.51	337.77	10.12	-25.8	-26.8	14.4	1.10e-06	0	44	102	1048576	11	4037
2026-01-06 15:15:04.51	337.81	10.03	-25.8	-26.9	14.3	2.20e-06	0	44	102	1048576	11	4070
2026-01-06 15:15:05.51	337.85	9.95	-25.8	-26.9	14.3	1.10e-06	0	44	102	1048576	11	4066
2026-01-06 15:15:06.52	337.88	9.86	-25.9	-27.0	14.2	0.00e+00	0	44	102	1048576	11	4098
2026-01-06 15:15:07.53	337.92	9.78	-25.9	-26.9	14.2	6.80e-06	0	44	102	1048576	11	4084
2026-01-06 15:15:08.54	337.96	9.69	-25.9	-27.0	14.2	1.10e-06	0	44	102	1048576	11	4091
2026-01-06 15:15:09.55	338.00	9.61	-25.8	-26.9	14.3	0.00e+00	0	44	102	1048576	11	4066
2026-01-06 15:15:10.56	338.03	9.52	-25.9	-27.0	14.2	0.00e+00	0	44	102	1048576	11	4098
2026-01-06 15:15:11.56	338.07	9.44	-26.0	-27.2	14.1	2.20e-06	0	44	102	1048576	11	4145
2026-01-06 15:15:12.56	338.10	9.36	-26.0	-27.2	14.1	2.20e-06	0	44	102	1048576	11	4143
2026-01-06 15:15:13.57	338.14	9.27	-25.9	-27.1	14.1	4.50e-06	0	44	102	1048576	11	4128
2026-01-06 15:15:14.57	338.18	9.19	-25.9	-27.1	14.1	0.00e+00	0	44	102	1048576	11	4119
2026-01-06 15:15:15.58	338.21	9.11	-26.0	-27.3	14.0	2.20e-06	0	44	102	1048576	11	4186
2026-01-06 15:15:16.59	338.25	9.03	-26.0	-27.3	14.0	2.20e-06	0	44	102	1048576	11	4182
2026-01-06 15:15:17.60	338.28	8.95	-26.0	-27.3	13.9	1.10e-06	0	44	102	1048576	11	4179
2026-01-06 15:15:18.60	338.32	8.86	-26.0	-26.8	13.9	5.70e-06	0	44	102	1048576	12	3957
2026-01-06 15:15:19.61	338.35	8.78	-26.1	-26.9	13.8	9.10e-06	0	44	102	1048576	12	3980
2026-01-06 15:15:20.62	338.39	8.70	-26.0	-26.8	13.9	4.50e-06	0	44	102	1048576	12	3948
