passes_logs/2026/01/06/R2M6_AANII_01/R2M6_AANII_01__20260106_164655_FENGYUN_3E_rec.log

#Pass ID: 20260106_164655_FENGYUN 3E
#Satellite: FENGYUN 3E
#Configuration: FENGYUN 3E
#almurnet v.1.7.20240730
#Start time: 2026-01-06 16:46:55

#Version: 2.2.20231116
#Station: R2M6_AANII_01
#Location: 30.233357 lon 59.946436 lat
#TLE: 1 49008U 21062A   26005.63346808  .00000216  00000+0  12264-3 0  9999
#TLE: 2 49008  98.7472  10.8714 0001569 158.0856 202.0387 14.19884439233512

#Time	Az	El	Level	Level2	SNR	BER	BlckErr	Temp	State	Recorded	gain1	gain2
2026-01-06 16:46:55.05	234.93	6.97	-29.2	-31.2	5.2	7.58e-01	0	41	0	0	19	4529
2026-01-06 16:46:56.04	235.06	7.02	-29.0	-31.7	5.3	7.50e-01	0	41	104	0	17	4898
2026-01-06 16:46:57.04	235.18	7.07	-28.9	-31.4	9.4	1.84e-02	0	41	0	0	17	4803
2026-01-06 16:46:58.05	235.31	7.12	-28.8	-31.1	9.7	1.16e-02	0	41	102	1048576	17	4694
2026-01-06 16:46:59.06	235.44	7.17	-29.1	-31.8	9.2	2.04e-02	0	41	102	1048576	17	4925
2026-01-06 16:47:00.06	235.56	7.22	-28.9	-31.4	9.5	1.52e-02	0	41	102	1048576	17	4785
2026-01-06 16:47:01.07	235.69	7.27	-28.8	-30.9	9.8	1.30e-02	0	41	102	1048576	17	4630
2026-01-06 16:47:02.07	235.82	7.32	-28.6	-30.6	10.0	8.74e-03	0	41	102	1048576	17	4518
2026-01-06 16:47:03.07	235.94	7.37	-28.6	-30.5	10.1	8.56e-03	0	41	102	1048576	17	4489
2026-01-06 16:47:04.08	236.07	7.42	-28.5	-30.1	10.3	5.85e-03	0	41	102	1048576	17	4359
2026-01-06 16:47:05.08	236.20	7.47	-29.2	-31.5	9.1	1.82e-02	0	41	102	1048576	18	4727
2026-01-06 16:47:06.08	236.33	7.52	-28.6	-30.1	10.1	1.16e-02	0	42	102	1048576	18	4275
2026-01-06 16:47:07.10	236.46	7.57	-27.9	-28.8	11.3	1.70e-03	0	42	102	1048576	17	3980
2026-01-06 16:47:08.10	236.59	7.62	-27.5	-28.2	11.9	8.01e-04	0	42	102	1048576	16	3920
2026-01-06 16:47:09.11	236.72	7.67	-26.9	-27.8	12.6	1.42e-04	0	42	102	1048576	14	4009
2026-01-06 16:47:10.12	236.85	7.72	-26.7	-27.9	12.9	7.32e-05	0	42	102	1048576	13	4131
2026-01-06 16:47:11.13	236.99	7.77	-26.5	-27.4	13.2	3.20e-05	0	42	102	1048576	13	3994
2026-01-06 16:47:12.14	237.12	7.82	-26.4	-27.7	13.3	2.05e-05	0	42	102	1048576	12	4191
2026-01-06 16:47:13.14	237.25	7.87	-26.3	-27.5	13.4	1.02e-05	0	42	102	1048576	12	4127
2026-01-06 16:47:14.15	237.38	7.92	-26.4	-27.8	13.2	2.05e-05	0	42	102	1048576	12	4211
2026-01-06 16:47:15.16	237.52	7.97	-26.4	-27.8	13.3	1.37e-05	0	42	102	1048576	12	4208
2026-01-06 16:47:16.16	237.65	8.02	-26.4	-27.7	13.3	1.94e-05	0	42	102	1048576	12	4180
2026-01-06 16:47:17.17	237.78	8.07	-26.2	-27.3	13.5	1.02e-05	0	42	102	1048576	12	4093
2026-01-06 16:47:18.18	237.92	8.12	-26.4	-27.7	13.3	1.71e-05	0	42	102	1048576	12	4200
2026-01-06 16:47:19.19	238.06	8.17	-26.3	-27.5	13.4	1.02e-05	0	42	102	1048576	12	4131
2026-01-06 16:47:20.20	238.19	8.21	-26.2	-27.3	13.5	1.60e-05	0	42	102	1048576	12	4088
2026-01-06 16:47:21.20	238.33	8.26	-26.3	-27.6	13.4	2.17e-05	0	42	102	1048576	12	4152
2026-01-06 16:47:22.21	238.46	8.31	-26.1	-27.1	13.6	1.25e-05	0	42	102	1048576	12	4034
2026-01-06 16:47:23.21	238.60	8.36	-26.1	-26.9	13.8	5.70e-06	0	42	102	1048576	12	3978
2026-01-06 16:47:24.23	238.74	8.41	-26.1	-27.2	13.7	8.00e-06	0	42	102	1048576	12	4045
2026-01-06 16:47:25.24	238.88	8.46	-26.1	-27.1	13.7	8.00e-06	0	42	102	1048576	12	4017
2026-01-06 16:47:26.24	239.02	8.51	-26.2	-27.2	13.6	6.80e-06	0	42	102	1048576	12	4062
2026-01-06 16:47:27.24	239.15	8.56	-26.2	-27.3	13.5	1.02e-05	0	42	102	1048576	12	4092
2026-01-06 16:47:28.24	239.29	8.61	-26.2	-27.2	13.6	5.70e-06	0	42	102	1048576	12	4066
2026-01-06 16:47:29.25	239.43	8.66	-26.4	-27.6	13.4	1.60e-05	0	42	102	1048576	12	4173
2026-01-06 16:47:30.26	239.57	8.71	-26.2	-27.3	13.6	1.02e-05	0	42	102	1048576	12	4096
2026-01-06 16:47:31.27	239.71	8.76	-26.3	-27.6	13.4	1.14e-05	0	42	102	1048576	12	4156
2026-01-06 16:47:32.27	239.85	8.80	-26.3	-27.5	13.5	1.71e-05	0	42	102	1048576	12	4144
2026-01-06 16:47:33.28	240.00	8.85	-26.5	-28.0	13.2	2.63e-05	0	42	102	1048576	12	4269
2026-01-06 16:47:34.29	240.14	8.90	-26.3	-27.5	13.5	1.60e-05	0	42	102	1048576	12	4139
2026-01-06 16:47:35.30	240.28	8.95	-26.2	-27.3	13.7	6.80e-06	0	42	102	1048576	12	4078
2026-01-06 16:47:36.30	240.42	9.00	-26.1	-27.1	13.8	4.50e-06	0	42	102	1048576	12	4023
2026-01-06 16:47:37.31	240.57	9.05	-26.1	-27.1	13.7	1.37e-05	0	42	102	1048576	12	4036
2026-01-06 16:47:38.32	240.71	9.10	-26.3	-27.4	13.6	6.80e-06	0	42	102	1048576	12	4099
2026-01-06 16:47:39.32	240.85	9.15	-26.4	-27.6	13.4	1.25e-05	0	42	102	1048576	12	4166
2026-01-06 16:47:40.33	241.00	9.19	-26.3	-27.6	13.5	1.37e-05	0	42	102	1048576	12	4148
2026-01-06 16:47:41.34	241.14	9.24	-26.2	-27.3	13.6	1.14e-05	0	42	102	1048576	12	4085
2026-01-06 16:47:42.34	241.29	9.29	-26.4	-27.7	13.4	6.80e-06	0	42	102	1048576	12	4196
2026-01-06 16:47:43.34	241.43	9.34	-26.5	-27.9	13.3	1.60e-05	0	43	102	1048576	12	4242
2026-01-06 16:47:44.35	241.58	9.39	-25.4	-26.5	13.5	1.48e-05	0	43	102	1048576	12	4089
2026-01-06 16:47:45.36	241.73	9.43	-25.8	-26.9	13.3	9.10e-06	0	42	102	1048576	12	4089
2026-01-06 16:47:46.35	241.87	9.48	-26.3	-27.4	13.6	1.60e-05	0	42	102	1048576	12	4111
2026-01-06 16:47:47.36	242.02	9.53	-26.3	-27.6	13.4	1.14e-05	0	42	102	1048576	12	4142
2026-01-06 16:47:48.36	242.17	9.58	-26.5	-27.9	13.3	2.74e-05	0	42	102	1048576	12	4249
2026-01-06 16:47:49.37	242.32	9.63	-26.2	-27.3	13.7	6.80e-06	0	43	102	1048576	12	4070
2026-01-06 16:47:50.38	242.47	9.67	-25.9	-26.7	14.1	3.40e-06	0	43	102	1048576	12	3916
2026-01-06 16:47:51.39	242.62	9.72	-26.0	-27.2	14.2	1.10e-06	0	42	102	1048576	11	4148
2026-01-06 16:47:52.40	242.77	9.77	-25.9	-27.0	14.3	2.20e-06	0	42	102	1048576	11	4098
2026-01-06 16:47:53.41	242.92	9.82	-25.9	-27.1	14.2	1.10e-06	0	43	102	1048576	11	4119
2026-01-06 16:47:54.41	243.07	9.86	-26.0	-27.2	14.1	0.00e+00	0	43	102	1048576	11	4135
2026-01-06 16:47:55.41	243.22	9.91	-25.9	-27.0	14.3	2.20e-06	0	42	102	1048576	11	4103
2026-01-06 16:47:56.42	243.38	9.96	-25.9	-27.0	14.2	2.20e-06	0	43	102	1048576	11	4108
2026-01-06 16:47:57.42	243.53	10.00	-26.1	-27.4	14.0	2.86e-04	0	43	102	1048576	11	4206
2026-01-06 16:47:58.43	243.68	10.05	-26.1	-27.4	14.0	3.40e-06	0	43	102	1048576	11	4209
2026-01-06 16:47:59.44	243.84	10.10	-26.2	-27.2	13.8	5.70e-06	0	43	102	1048576	12	4045
2026-01-06 16:48:00.45	243.99	10.15	-26.2	-27.2	13.8	3.88e-04	0	43	102	1048576	12	4062
2026-01-06 16:48:01.45	244.14	10.19	-26.0	-26.7	14.1	4.50e-06	0	43	102	1048576	12	3931
2026-01-06 16:48:02.45	244.30	10.24	-26.1	-27.4	14.1	4.60e-04	0	43	102	1048576	11	4209
2026-01-06 16:48:03.45	244.45	10.28	-26.0	-27.3	14.1	1.10e-06	0	43	102	1048576	11	4189
2026-01-06 16:48:04.46	244.61	10.33	-25.9	-27.1	14.3	1.10e-06	0	43	102	1048576	11	4123
2026-01-06 16:48:05.46	244.76	10.38	-26.0	-27.2	14.2	4.11e-04	0	43	102	1048576	11	4158
2026-01-06 16:48:06.47	244.92	10.42	-25.8	-26.9	14.3	0.00e+00	0	43	102	1048576	11	4066
2026-01-06 16:48:07.48	245.08	10.47	-25.8	-26.8	14.4	1.10e-06	0	43	102	1048576	11	4054
2026-01-06 16:48:08.48	245.24	10.52	-25.8	-26.9	14.4	2.20e-06	0	43	102	1048576	11	4055
2026-01-06 16:48:09.49	245.40	10.56	-25.8	-26.8	14.4	4.08e-04	0	43	102	1048576	11	4038
2026-01-06 16:48:10.49	245.55	10.61	-25.8	-26.9	14.4	0.00e+00	0	43	102	1048576	11	4058
2026-01-06 16:48:11.50	245.71	10.65	-25.7	-26.7	14.5	4.18e-04	0	43	102	1048576	11	4021
2026-01-06 16:48:12.51	245.87	10.70	-25.8	-26.9	14.4	5.09e-04	0	43	102	1048576	11	4055
2026-01-06 16:48:13.51	246.03	10.74	-25.8	-26.8	14.4	0.00e+00	0	43	102	1048576	11	4058
2026-01-06 16:48:14.52	246.19	10.79	-25.7	-26.6	14.5	7.88e-04	0	43	102	1048576	11	3995
2026-01-06 16:48:15.53	246.36	10.84	-25.6	-26.4	14.7	9.84e-04	0	43	102	1048576	11	3950
2026-01-06 16:48:16.53	246.52	10.88	-25.6	-26.4	14.7	1.10e-06	0	43	102	1048576	11	3936
2026-01-06 16:48:17.54	246.68	10.93	-25.7	-26.5	14.6	9.55e-04	0	43	102	1048576	11	3973
2026-01-06 16:48:18.54	246.84	10.97	-25.6	-26.4	14.7	1.10e-06	0	43	102	1048576	11	3936
2026-01-06 16:48:19.55	247.01	11.02	-25.6	-26.4	14.7	1.10e-06	0	43	102	1048576	11	3949
2026-01-06 16:48:20.56	247.17	11.06	-25.6	-26.3	14.8	0.00e+00	0	43	102	1048576	11	3916
2026-01-06 16:48:21.56	247.33	11.10	-25.5	-26.2	14.8	4.43e-04	0	43	102	1048576	11	3890
2026-01-06 16:48:22.57	247.50	11.15	-25.7	-26.6	14.6	1.10e-06	0	43	102	1048576	11	3980
2026-01-06 16:48:23.58	247.66	11.19	-25.7	-26.6	14.6	0.00e+00	0	43	102	1048576	11	3977
2026-01-06 16:48:24.58	247.83	11.24	-25.6	-26.4	14.8	5.72e-05	0	43	102	1048576	11	3934
2026-01-06 16:48:25.59	247.99	11.28	-25.6	-26.3	14.8	0.00e+00	0	43	102	1048576	11	3916
2026-01-06 16:48:26.59	248.16	11.33	-25.6	-26.3	14.8	0.00e+00	0	43	102	1048576	11	3906
2026-01-06 16:48:27.60	248.33	11.37	-25.4	-25.9	15.0	0.00e+00	0	43	102	1048576	11	3812
2026-01-06 16:48:28.61	248.50	11.41	-25.5	-26.1	14.9	1.10e-06	0	43	102	1048576	11	3864
2026-01-06 16:48:29.61	248.66	11.46	-25.4	-25.9	15.0	3.20e-05	0	43	102	1048576	11	3830
2026-01-06 16:48:30.62	248.83	11.50	-25.4	-25.8	15.1	0.00e+00	0	43	102	1048576	11	3801
2026-01-06 16:48:31.63	249.00	11.54	-25.4	-25.9	15.0	0.00e+00	0	43	102	1048576	11	3811
2026-01-06 16:48:32.64	249.17	11.59	-25.4	-25.9	15.0	0.00e+00	0	43	102	1048576	11	3818
2026-01-06 16:48:33.64	249.34	11.63	-25.4	-26.0	15.0	0.00e+00	0	43	102	1048576	11	3842
2026-01-06 16:48:34.65	249.51	11.67	-25.5	-26.0	15.0	2.20e-06	0	43	102	1048576	11	3849
2026-01-06 16:48:35.65	249.68	11.71	-25.4	-25.9	15.1	0.00e+00	0	43	102	1048576	11	3812
2026-01-06 16:48:36.66	249.85	11.76	-25.6	-26.8	14.8	2.75e-04	0	43	102	1048576	10	4138
2026-01-06 16:48:37.67	250.03	11.80	-25.5	-26.2	14.9	1.10e-06	0	43	102	1048576	11	3884
2026-01-06 16:48:38.66	250.20	11.84	-25.4	-26.0	15.0	0.00e+00	0	43	102	1048576	11	3836
2026-01-06 16:48:39.67	250.37	11.88	-25.4	-26.3	15.1	0.00e+00	0	43	102	1048576	10	4021
2026-01-06 16:48:40.68	250.54	11.92	-25.2	-26.1	15.3	2.20e-06	0	43	102	1048576	10	3955
2026-01-06 16:48:41.68	250.72	11.97	-25.3	-26.1	15.2	0.00e+00	0	43	102	1048576	10	3974
2026-01-06 16:48:42.69	250.89	12.01	-25.3	-26.2	15.2	0.00e+00	0	43	102	1048576	10	3977
2026-01-06 16:48:43.69	251.06	12.05	-25.3	-26.1	15.2	2.20e-06	0	43	102	1048576	10	3978
2026-01-06 16:48:44.70	251.24	12.09	-25.4	-26.3	15.1	0.00e+00	0	43	102	1048576	10	4023
2026-01-06 16:48:45.71	251.42	12.13	-25.4	-26.3	15.1	0.00e+00	0	43	102	1048576	10	4029
2026-01-06 16:48:46.72	251.59	12.17	-25.3	-26.2	15.2	0.00e+00	0	43	102	1048576	10	3983
2026-01-06 16:48:47.73	251.77	12.21	-25.3	-26.1	15.3	0.00e+00	0	43	102	1048576	10	3963
2026-01-06 16:48:48.74	251.95	12.25	-25.2	-26.0	15.3	0.00e+00	0	43	102	1048576	10	3950
2026-01-06 16:48:49.74	252.12	12.29	-25.2	-26.0	15.3	1.10e-06	0	43	102	1048576	10	3931
2026-01-06 16:48:50.75	252.30	12.33	-25.3	-26.1	15.2	0.00e+00	0	43	102	1048576	10	3974
2026-01-06 16:48:51.75	252.48	12.37	-25.2	-26.0	15.3	0.00e+00	0	43	102	1048576	10	3941
2026-01-06 16:48:52.76	252.66	12.41	-25.1	-25.7	15.5	5.70e-06	0	43	102	1048576	10	3860
2026-01-06 16:48:53.77	252.84	12.45	-25.1	-25.8	15.5	0.00e+00	0	43	102	1048576	10	3882
2026-01-06 16:48:54.78	253.02	12.49	-25.1	-25.8	15.4	0.00e+00	0	43	102	1048576	10	3884
2026-01-06 16:48:55.78	253.20	12.53	-25.1	-25.7	15.5	0.00e+00	0	43	102	1048576	10	3866
2026-01-06 16:48:56.79	253.38	12.57	-25.1	-25.8	15.4	0.00e+00	0	43	102	1048576	10	3898
2026-01-06 16:48:57.80	253.56	12.61	-25.1	-25.8	15.4	0.00e+00	0	43	102	1048576	10	3898
2026-01-06 16:48:58.80	253.74	12.65	-25.0	-25.5	15.6	0.00e+00	0	43	102	1048576	10	3807
2026-01-06 16:48:59.81	253.93	12.68	-25.1	-26.1	15.5	0.00e+00	0	43	102	1048576	9	4068
2026-01-06 16:49:00.81	254.11	12.72	-25.0	-25.9	15.6	0.00e+00	0	43	102	1048576	9	4023
2026-01-06 16:49:01.83	254.29	12.76	-25.0	-25.9	15.6	0.00e+00	0	43	102	1048576	9	4031
2026-01-06 16:49:02.83	254.48	12.80	-25.1	-26.2	15.5	0.00e+00	0	43	102	1048576	9	4086
2026-01-06 16:49:03.84	254.66	12.84	-25.0	-25.5	15.6	0.00e+00	0	43	102	1048576	10	3814
2026-01-06 16:49:04.84	254.84	12.87	-25.0	-25.5	15.6	0.00e+00	0	43	102	1048576	10	3805
2026-01-06 16:49:05.86	255.03	12.91	-25.0	-26.1	15.6	0.00e+00	0	43	102	1048576	9	4072
2026-01-06 16:49:06.86	255.22	12.95	-25.0	-25.6	15.6	0.00e+00	0	43	102	1048576	10	3836
2026-01-06 16:49:07.87	255.40	12.98	-25.0	-25.6	15.6	0.00e+00	0	43	102	1048576	10	3841
2026-01-06 16:49:08.88	255.59	13.02	-25.2	-25.9	15.4	0.00e+00	0	43	102	1048576	10	3925
2026-01-06 16:49:09.89	255.78	13.06	-25.1	-25.8	15.5	0.00e+00	0	43	102	1048576	10	3896
2026-01-06 16:49:10.89	255.96	13.09	-25.1	-25.7	15.5	0.00e+00	0	43	102	1048576	10	3873
2026-01-06 16:49:11.90	256.15	13.13	-25.2	-25.9	15.4	0.00e+00	0	43	102	1048576	10	3917
2026-01-06 16:49:12.91	256.34	13.16	-25.1	-25.8	15.5	0.00e+00	0	43	102	1048576	10	3891
2026-01-06 16:49:13.91	256.53	13.20	-25.1	-25.7	15.5	0.00e+00	0	43	102	1048576	10	3875
2026-01-06 16:49:14.91	256.71	13.23	-25.1	-25.8	15.5	0.00e+00	0	43	102	1048576	10	3901
2026-01-06 16:49:15.92	256.90	13.27	-25.1	-25.7	15.6	0.00e+00	0	43	102	1048576	10	3858
2026-01-06 16:49:16.93	257.09	13.30	-24.9	-25.4	15.7	0.00e+00	0	44	102	1048576	10	3779
2026-01-06 16:49:17.92	257.28	13.34	-25.0	-26.0	15.6	0.00e+00	0	43	102	1048576	9	4056
2026-01-06 16:49:18.93	257.47	13.37	-25.2	-25.9	15.5	0.00e+00	0	43	102	1048576	10	3915
2026-01-06 16:49:19.94	257.66	13.40	-25.1	-25.8	15.5	0.00e+00	0	44	102	1048576	10	3903
2026-01-06 16:49:20.94	257.85	13.44	-25.0	-25.6	15.6	0.00e+00	0	43	102	1048576	10	3846
2026-01-06 16:49:21.95	258.05	13.47	-25.0	-26.0	15.6	0.00e+00	0	43	102	1048576	9	4056
2026-01-06 16:49:22.95	258.24	13.50	-25.0	-26.1	15.6	0.00e+00	0	43	102	1048576	9	4063
2026-01-06 16:49:23.96	258.43	13.54	-24.9	-25.9	15.7	0.00e+00	0	43	102	1048576	9	4021
2026-01-06 16:49:24.97	258.63	13.57	-24.9	-25.8	15.8	0.00e+00	0	43	102	1048576	9	3978
2026-01-06 16:49:25.97	258.82	13.60	-25.0	-26.0	15.7	0.00e+00	0	43	102	1048576	9	4040
2026-01-06 16:49:26.97	259.01	13.63	-25.2	-26.0	15.4	0.00e+00	0	43	102	1048576	10	3930
2026-01-06 16:49:27.98	259.21	13.67	-25.1	-25.7	15.6	0.00e+00	0	44	102	1048576	10	3853
2026-01-06 16:49:28.99	259.40	13.70	-25.2	-25.9	15.5	0.00e+00	0	43	102	1048576	10	3901
2026-01-06 16:49:29.99	259.59	13.73	-25.1	-25.7	15.6	0.00e+00	0	44	102	1048576	10	3860
2026-01-06 16:49:30.99	259.79	13.76	-25.1	-25.8	15.5	0.00e+00	0	43	102	1048576	10	3880
2026-01-06 16:49:32.00	259.99	13.79	-25.2	-25.9	15.5	0.00e+00	0	43	102	1048576	10	3918
2026-01-06 16:49:33.00	260.18	13.82	-25.1	-25.8	15.5	0.00e+00	0	43	102	1048576	10	3889
2026-01-06 16:49:34.00	260.38	13.85	-25.2	-25.9	15.5	0.00e+00	0	43	102	1048576	10	3911
2026-01-06 16:49:35.01	260.57	13.88	-25.1	-25.8	15.5	0.00e+00	0	43	102	1048576	10	3893
2026-01-06 16:49:36.01	260.77	13.91	-25.5	-26.5	15.1	0.00e+00	0	43	102	1048576	10	4067
2026-01-06 16:49:37.02	260.97	13.94	-25.2	-25.9	15.5	1.10e-06	0	43	102	1048576	10	3900
2026-01-06 16:49:38.02	261.17	13.97	-24.1	-24.6	15.4	0.00e+00	0	44	102	1048576	10	3798
2026-01-06 16:49:39.02	261.36	14.00	-24.9	-25.8	13.8	0.00e+00	0	43	102	1048576	9	3998
2026-01-06 16:49:40.03	261.56	14.03	-25.0	-25.9	15.7	5.70e-06	0	43	102	1048576	9	4020
2026-01-06 16:49:41.03	261.76	14.05	-25.2	-26.0	13.7	0.00e+00	0	43	102	1048576	10	3927
2026-01-06 16:49:42.04	261.96	14.08	-25.5	-26.5	14.6	0.00e+00	0	44	102	1048576	10	4074
2026-01-06 16:49:43.04	262.16	14.11	-25.3	-26.1	15.4	1.10e-06	0	43	102	1048576	10	3956
2026-01-06 16:49:44.04	262.36	14.14	-25.2	-25.9	15.5	0.00e+00	0	44	102	1048576	10	3921
2026-01-06 16:49:45.05	262.56	14.16	-25.2	-25.9	15.5	0.00e+00	0	43	102	1048576	10	3915
2026-01-06 16:49:46.05	262.76	14.19	-25.3	-26.2	15.4	1.10e-06	0	43	102	1048576	10	3979
2026-01-06 16:49:47.06	262.96	14.22	-25.2	-26.1	15.4	1.37e-03	0	43	102	1048576	10	3957
2026-01-06 16:49:48.07	263.16	14.24	-25.4	-26.4	15.2	0.00e+00	0	43	102	1048576	10	4042
2026-01-06 16:49:49.07	263.37	14.27	-25.1	-25.7	15.6	0.00e+00	0	43	102	1048576	10	3873
2026-01-06 16:49:50.08	263.57	14.30	-24.9	-25.7	15.9	8.07e-04	0	43	102	1048576	9	3968
2026-01-06 16:49:51.09	263.77	14.32	-24.8	-25.5	16.0	0.00e+00	0	43	102	1048576	9	3907
2026-01-06 16:49:52.09	263.97	14.35	-24.7	-25.3	16.1	1.10e-06	0	43	102	1048576	9	3869
2026-01-06 16:49:53.10	264.18	14.37	-24.8	-25.6	15.9	0.00e+00	0	43	102	1048576	9	3928
2026-01-06 16:49:54.10	264.38	14.39	-24.7	-25.3	16.1	3.29e-04	0	43	102	1048576	9	3864
2026-01-06 16:49:55.11	264.59	14.42	-24.7	-25.5	16.0	4.50e-06	0	43	102	1048576	9	3909
2026-01-06 16:49:56.12	264.79	14.44	-24.7	-25.4	16.0	9.46e-04	0	43	102	1048576	9	3908
2026-01-06 16:49:57.13	265.00	14.47	-24.8	-25.6	15.9	9.77e-04	0	43	102	1048576	9	3944
2026-01-06 16:49:58.13	265.20	14.49	-24.8	-25.5	16.0	4.50e-06	0	43	102	1048576	9	3928
2026-01-06 16:49:59.13	265.40	14.51	-24.9	-25.7	15.9	1.30e-03	0	43	102	1048576	9	3964
2026-01-06 16:50:00.14	265.61	14.53	-24.8	-25.6	15.9	1.40e-03	0	43	102	1048576	9	3940
2026-01-06 16:50:01.15	265.82	14.56	-24.8	-25.6	15.9	2.97e-05	0	43	102	1048576	9	3938
2026-01-06 16:50:02.16	266.02	14.58	-24.8	-25.5	16.0	1.52e-03	0	43	102	1048576	9	3916
2026-01-06 16:50:03.16	266.23	14.60	-24.7	-25.3	16.1	1.34e-03	0	44	102	1048576	9	3862
2026-01-06 16:50:04.16	266.43	14.62	-24.7	-25.3	16.1	4.23e-05	0	43	102	1048576	9	3878
2026-01-06 16:50:05.17	266.64	14.64	-24.6	-25.2	16.1	1.76e-03	0	43	102	1048576	9	3843
2026-01-06 16:50:06.18	266.85	14.66	-24.6	-25.2	16.1	1.69e-03	0	44	102	1048576	9	3848
2026-01-06 16:50:07.19	267.06	14.68	-24.8	-25.5	15.9	5.14e-05	0	43	102	1048576	9	3916
2026-01-06 16:50:08.19	267.27	14.70	-24.7	-25.3	16.1	0.00e+00	0	43	102	1048576	9	3863
2026-01-06 16:50:09.20	267.47	14.72	-24.7	-25.3	16.1	1.66e-03	0	43	102	1048576	9	3870
2026-01-06 16:50:10.20	267.68	14.74	-24.7	-25.4	16.0	0.00e+00	0	43	102	1048576	9	3898
2026-01-06 16:50:11.21	267.89	14.76	-24.7	-25.3	16.1	1.67e-03	0	43	102	1048576	9	3877
2026-01-06 16:50:12.22	268.10	14.78	-24.7	-25.2	16.1	1.54e-03	0	44	102	1048576	9	3856
2026-01-06 16:50:13.23	268.31	14.80	-24.6	-25.2	16.1	0.00e+00	0	44	102	1048576	9	3847
2026-01-06 16:50:14.23	268.52	14.81	-24.7	-25.5	16.0	1.56e-03	0	44	102	1048576	9	3906
2026-01-06 16:50:15.24	268.73	14.83	-24.9	-25.8	15.8	0.00e+00	0	44	102	1048576	9	3977
2026-01-06 16:50:16.25	268.94	14.85	-24.7	-25.3	16.1	2.28e-05	0	44	102	1048576	9	3874
2026-01-06 16:50:17.25	269.15	14.87	-24.7	-25.4	16.0	3.43e-05	0	43	102	1048576	9	3899
2026-01-06 16:50:18.26	269.36	14.88	-24.8	-25.6	15.9	0.00e+00	0	44	102	1048576	9	3942
2026-01-06 16:50:19.27	269.57	14.90	-24.9	-25.7	15.9	2.04e-03	0	43	102	1048576	9	3966
2026-01-06 16:50:20.27	269.78	14.91	-24.8	-25.5	16.0	1.10e-06	0	43	102	1048576	9	3911
2026-01-06 16:50:21.28	269.99	14.93	-24.9	-25.7	15.9	1.34e-03	0	43	102	1048576	9	3974
2026-01-06 16:50:22.29	270.20	14.94	-24.8	-25.5	16.0	2.12e-03	0	44	102	1048576	9	3909
2026-01-06 16:50:23.29	270.41	14.96	-24.6	-25.2	16.2	0.00e+00	0	44	102	1048576	9	3837
2026-01-06 16:50:24.30	270.63	14.97	-24.6	-25.2	16.1	1.90e-03	0	43	102	1048576	9	3853
2026-01-06 16:50:25.30	270.84	14.99	-24.7	-25.3	16.1	1.10e-06	0	43	102	1048576	9	3866
2026-01-06 16:50:26.31	271.05	15.00	-24.8	-25.5	16.0	3.34e-04	0	43	102	1048576	9	3914
2026-01-06 16:50:27.31	271.26	15.01	-24.7	-25.4	16.1	2.06e-03	0	44	102	1048576	9	3890
2026-01-06 16:50:28.32	271.47	15.03	-24.6	-25.6	16.3	0.00e+00	0	44	102	1048576	8	4034
2026-01-06 16:50:29.33	271.69	15.04	-24.7	-25.3	16.2	1.01e-04	0	43	102	1048576	9	3872
2026-01-06 16:50:30.34	271.90	15.05	-24.6	-25.1	16.2	1.77e-03	0	44	102	1048576	9	3833
2026-01-06 16:50:31.34	272.11	15.06	-24.7	-25.3	16.1	1.50e-03	0	43	102	1048576	9	3866
2026-01-06 16:50:32.35	272.33	15.08	-24.9	-25.8	15.9	5.95e-05	0	44	102	1048576	9	3981
2026-01-06 16:50:33.36	272.54	15.09	-24.8	-25.5	16.0	1.33e-03	0	44	102	1048576	9	3922
2026-01-06 16:50:34.36	272.75	15.10	-24.8	-25.7	15.9	1.55e-03	0	43	102	1048576	9	3964
2026-01-06 16:50:35.37	272.97	15.11	-24.9	-25.8	15.9	2.27e-04	0	44	102	1048576	9	4001
2026-01-06 16:50:36.38	273.18	15.12	-25.0	-25.9	15.8	2.74e-03	0	44	102	1048576	9	4026
2026-01-06 16:50:37.39	273.39	15.13	-25.0	-26.1	15.7	1.90e-03	0	44	102	1048576	9	4062
2026-01-06 16:50:38.40	273.61	15.14	-24.8	-25.6	16.0	1.07e-03	0	43	102	1048576	9	3952
2026-01-06 16:50:39.40	273.82	15.15	-24.8	-25.5	16.0	2.88e-03	0	44	102	1048576	9	3915
2026-01-06 16:50:40.41	274.04	15.15	-24.8	-25.5	16.0	1.37e-05	0	44	102	1048576	9	3917
2026-01-06 16:50:41.42	274.25	15.16	-24.7	-25.3	16.1	1.68e-03	0	44	102	1048576	9	3868
2026-01-06 16:50:42.42	274.46	15.17	-24.6	-25.5	16.3	0.00e+00	0	44	102	1048576	8	4035
2026-01-06 16:50:43.43	274.68	15.18	-24.5	-25.5	16.3	2.17e-05	0	44	102	1048576	8	4016
2026-01-06 16:50:44.44	274.90	15.18	-24.6	-25.2	16.2	1.71e-03	0	44	102	1048576	9	3858
2026-01-06 16:50:45.44	275.11	15.19	-24.9	-25.9	15.8	1.45e-03	0	44	102	1048576	9	4014
2026-01-06 16:50:46.45	275.32	15.20	-25.1	-25.7	15.7	8.00e-06	0	44	102	1048576	10	3851
2026-01-06 16:50:47.46	275.54	15.20	-24.9	-25.7	15.9	0.00e+00	0	43	102	1048576	9	3967
2026-01-06 16:50:48.47	275.76	15.21	-24.8	-25.5	16.1	1.04e-03	0	44	102	1048576	9	3909
2026-01-06 16:50:49.47	275.97	15.21	-24.7	-25.3	16.2	0.00e+00	0	44	102	1048576	9	3878
2026-01-06 16:50:50.47	276.18	15.22	-24.7	-25.3	16.2	0.00e+00	0	43	102	1048576	9	3876
2026-01-06 16:50:51.48	276.40	15.22	-24.6	-25.2	16.2	2.21e-04	0	44	102	1048576	9	3854
2026-01-06 16:50:52.49	276.61	15.23	-24.6	-25.3	16.2	0.00e+00	0	44	102	1048576	9	3859
2026-01-06 16:50:53.50	276.83	15.23	-24.7	-25.4	16.1	1.96e-04	0	43	102	1048576	9	3886
2026-01-06 16:50:54.50	277.04	15.23	-24.7	-25.4	16.1	0.00e+00	0	44	102	1048576	9	3891
2026-01-06 16:50:55.51	277.26	15.24	-24.6	-25.2	16.2	0.00e+00	0	43	102	1048576	9	3854
2026-01-06 16:50:56.51	277.47	15.24	-24.6	-25.2	16.2	0.00e+00	0	44	102	1048576	9	3852
2026-01-06 16:50:57.53	277.69	15.24	-24.7	-25.4	16.1	0.00e+00	0	44	102	1048576	9	3900
2026-01-06 16:50:58.53	277.91	15.24	-24.9	-25.8	15.9	0.00e+00	0	44	102	1048576	9	3984
2026-01-06 16:50:59.54	278.12	15.24	-24.9	-25.8	15.9	0.00e+00	0	44	102	1048576	9	3981
2026-01-06 16:51:00.55	278.34	15.25	-24.9	-25.9	15.9	0.00e+00	0	44	102	1048576	9	4006
2026-01-06 16:51:01.56	278.55	15.25	-25.0	-26.0	15.7	0.00e+00	0	44	102	1048576	9	4051
2026-01-06 16:51:02.57	278.77	15.25	-25.0	-26.1	15.7	0.00e+00	0	44	102	1048576	9	4063
2026-01-06 16:51:03.57	278.98	15.25	-25.0	-25.5	15.7	0.00e+00	0	43	102	1048576	10	3814
2026-01-06 16:51:04.58	279.20	15.25	-25.0	-26.1	15.7	0.00e+00	0	44	102	1048576	9	4067
2026-01-06 16:51:05.59	279.42	15.25	-25.0	-25.4	15.8	0.00e+00	0	44	102	1048576	10	3793
2026-01-06 16:51:06.60	279.63	15.24	-24.7	-25.5	16.0	0.00e+00	0	44	102	1048576	9	3908
2026-01-06 16:51:07.61	279.85	15.24	-24.7	-25.3	16.1	0.00e+00	0	44	102	1048576	9	3871
2026-01-06 16:51:08.61	280.06	15.24	-24.7	-25.3	16.1	0.00e+00	0	44	102	1048576	9	3876
2026-01-06 16:51:09.61	280.28	15.24	-24.6	-25.2	16.2	0.00e+00	0	44	102	1048576	9	3842
2026-01-06 16:51:10.62	280.49	15.23	-24.6	-25.2	16.2	0.00e+00	0	44	102	1048576	9	3834
2026-01-06 16:51:11.63	280.71	15.23	-24.6	-25.1	16.2	0.00e+00	0	43	102	1048576	9	3832
2026-01-06 16:51:12.64	280.92	15.23	-24.6	-25.2	16.2	0.00e+00	0	43	102	1048576	9	3835
2026-01-06 16:51:13.64	281.14	15.22	-24.6	-25.2	16.2	0.00e+00	0	44	102	1048576	9	3856
2026-01-06 16:51:14.65	281.35	15.22	-24.7	-25.3	16.1	0.00e+00	0	43	102	1048576	9	3875
2026-01-06 16:51:15.66	281.57	15.22	-24.9	-25.7	15.9	0.00e+00	0	43	102	1048576	9	3974
2026-01-06 16:51:16.67	281.78	15.21	-25.0	-25.9	15.8	0.00e+00	0	44	102	1048576	9	4026
2026-01-06 16:51:17.67	282.00	15.20	-25.0	-26.0	15.7	0.00e+00	0	44	102	1048576	9	4038
2026-01-06 16:51:18.68	282.21	15.20	-25.0	-26.0	15.7	0.00e+00	0	44	102	1048576	9	4047
2026-01-06 16:51:19.68	282.43	15.19	-25.1	-25.7	15.6	0.00e+00	0	44	102	1048576	10	3865
2026-01-06 16:51:20.69	282.64	15.19	-25.3	-26.1	15.5	0.00e+00	0	43	102	1048576	10	3957
2026-01-06 16:51:21.69	282.85	15.18	-25.3	-26.1	15.5	0.00e+00	0	44	102	1048576	10	3954
2026-01-06 16:51:22.70	283.07	15.17	-25.1	-25.8	15.6	0.00e+00	0	43	102	1048576	10	3880
2026-01-06 16:51:23.71	283.28	15.16	-25.1	-25.7	15.7	0.00e+00	0	44	102	1048576	10	3854
2026-01-06 16:51:24.72	283.50	15.16	-25.1	-26.2	15.6	0.00e+00	0	44	102	1048576	9	4100
2026-01-06 16:51:25.72	283.71	15.15	-24.9	-25.3	15.9	0.00e+00	0	44	102	1048576	10	3777
2026-01-06 16:51:26.73	283.93	15.14	-24.8	-25.5	16.0	0.00e+00	0	43	102	1048576	9	3921
2026-01-06 16:51:27.74	284.14	15.13	-24.8	-25.5	16.1	0.00e+00	0	44	102	1048576	9	3920
2026-01-06 16:51:28.74	284.35	15.12	-24.8	-25.6	16.0	0.00e+00	0	44	102	1048576	9	3936
2026-01-06 16:51:29.74	284.56	15.11	-24.7	-25.5	16.1	0.00e+00	0	44	102	1048576	9	3906
2026-01-06 16:51:30.75	284.78	15.10	-25.0	-26.0	15.3	1.94e-03	0	44	102	1048576	9	4036
2026-01-06 16:51:31.76	284.99	15.09	-24.8	-25.6	16.0	0.00e+00	0	44	102	1048576	9	3948
2026-01-06 16:51:32.77	285.21	15.08	-24.9	-25.7	15.9	0.00e+00	0	44	102	1048576	9	3969
2026-01-06 16:51:33.77	285.42	15.07	-24.8	-25.6	16.0	0.00e+00	0	43	102	1048576	9	3951
2026-01-06 16:51:34.77	285.63	15.06	-24.8	-25.6	16.0	0.00e+00	0	44	102	1048576	9	3938
2026-01-06 16:51:35.78	285.84	15.04	-24.8	-25.6	16.0	1.89e-03	0	44	102	1048576	9	3936
2026-01-06 16:51:36.78	286.05	15.03	-24.8	-25.5	16.1	0.00e+00	0	44	102	1048576	9	3909
2026-01-06 16:51:37.79	286.27	15.02	-24.8	-25.6	16.0	0.00e+00	0	44	102	1048576	9	3943
2026-01-06 16:51:38.79	286.48	15.01	-24.8	-25.6	16.0	1.61e-04	0	44	102	1048576	9	3940
2026-01-06 16:51:39.80	286.69	14.99	-25.0	-25.9	15.8	0.00e+00	0	43	102	1048576	9	4011
2026-01-06 16:51:40.81	286.90	14.98	-24.9	-25.8	15.8	3.73e-04	0	43	102	1048576	9	3990
2026-01-06 16:51:41.81	287.11	14.96	-24.7	-25.4	16.1	0.00e+00	0	43	102	1048576	9	3893
2026-01-06 16:51:42.82	287.32	14.95	-24.8	-25.5	16.1	1.54e-03	0	44	102	1048576	9	3908
2026-01-06 16:51:43.83	287.53	14.94	-24.7	-25.5	16.1	0.00e+00	0	43	102	1048576	9	3908
2026-01-06 16:51:44.84	287.75	14.92	-24.8	-25.6	16.0	0.00e+00	0	44	102	1048576	9	3943
2026-01-06 16:51:45.84	287.96	14.90	-24.9	-25.8	15.9	1.55e-03	0	44	102	1048576	9	3978
2026-01-06 16:51:46.85	288.17	14.89	-24.9	-25.7	15.9	0.00e+00	0	44	102	1048576	9	3969
2026-01-06 16:51:47.86	288.38	14.87	-24.9	-25.7	15.9	1.85e-03	0	44	102	1048576	9	3967
2026-01-06 16:51:48.87	288.59	14.86	-24.9	-25.9	15.8	1.88e-03	0	44	102	1048576	9	4014
2026-01-06 16:51:49.87	288.80	14.84	-25.0	-25.9	15.8	9.14e-04	0	44	102	1048576	9	4019
2026-01-06 16:51:50.87	289.00	14.82	-24.9	-25.7	15.9	1.82e-03	0	43	102	1048576	9	3960
2026-01-06 16:51:51.88	289.21	14.80	-24.9	-25.8	15.8	1.10e-06	0	44	102	1048576	9	3993
2026-01-06 16:51:52.89	289.42	14.79	-24.8	-25.6	16.0	0.00e+00	0	44	102	1048576	9	3947
2026-01-06 16:51:53.89	289.63	14.77	-24.8	-25.6	16.0	1.68e-03	0	44	102	1048576	9	3945
2026-01-06 16:51:54.90	289.84	14.75	-24.8	-25.6	16.0	1.78e-03	0	44	102	1048576	9	3933
2026-01-06 16:51:55.91	290.05	14.73	-24.9	-25.8	15.9	0.00e+00	0	44	102	1048576	9	3991
2026-01-06 16:51:56.91	290.26	14.71	-24.9	-25.7	15.9	9.44e-04	0	44	102	1048576	9	3971
2026-01-06 16:51:57.92	290.46	14.69	-25.0	-26.0	15.8	1.74e-03	0	44	102	1048576	9	4034
2026-01-06 16:51:58.92	290.67	14.67	-25.0	-26.1	15.7	9.83e-04	0	44	102	1048576	9	4069
2026-01-06 16:51:59.93	290.88	14.65	-25.2	-25.8	15.6	9.72e-04	0	44	102	1048576	10	3892
2026-01-06 16:52:00.94	291.08	14.63	-25.3	-26.2	15.4	1.62e-03	0	43	102	1048576	10	3975
2026-01-06 16:52:01.94	291.29	14.61	-25.2	-25.9	15.6	9.78e-04	0	43	102	1048576	10	3917
2026-01-06 16:52:02.95	291.50	14.59	-25.2	-25.8	15.6	1.49e-03	0	44	102	1048576	10	3896
2026-01-06 16:52:03.95	291.70	14.57	-25.3	-26.1	15.5	0.00e+00	0	44	102	1048576	10	3953
2026-01-06 16:52:04.96	291.91	14.54	-25.1	-25.8	15.6	1.09e-03	0	44	102	1048576	10	3886
2026-01-06 16:52:05.96	292.11	14.52	-25.3	-26.2	15.3	1.04e-03	0	44	102	1048576	10	3994
2026-01-06 16:52:06.97	292.32	14.50	-25.0	-25.6	15.7	2.20e-06	0	44	102	1048576	10	3827
2026-01-06 16:52:07.97	292.52	14.48	-24.9	-25.7	15.9	1.10e-03	0	43	102	1048576	9	3977
2026-01-06 16:52:08.97	292.72	14.45	-24.9	-25.9	15.8	1.02e-03	0	44	102	1048576	9	4010
2026-01-06 16:52:09.99	292.93	14.43	-25.2	-25.9	15.6	0.00e+00	0	44	102	1048576	10	3906
2026-01-06 16:52:11.00	293.13	14.40	-24.9	-25.8	15.8	8.49e-04	0	44	102	1048576	9	3993
2026-01-06 16:52:12.00	293.34	14.38	-24.8	-25.6	15.9	3.67e-04	0	44	102	1048576	9	3942
2026-01-06 16:52:13.01	293.54	14.36	-25.0	-26.0	15.8	0.00e+00	0	44	102	1048576	9	4035
2026-01-06 16:52:14.01	293.74	14.33	-25.0	-26.0	15.8	0.00e+00	0	44	102	1048576	9	4037
2026-01-06 16:52:15.02	293.94	14.31	-25.2	-25.9	15.6	0.00e+00	0	44	102	1048576	10	3907
2026-01-06 16:52:16.02	294.15	14.28	-25.4	-26.3	15.3	0.00e+00	0	44	102	1048576	10	4011
2026-01-06 16:52:17.03	294.35	14.26	-25.2	-25.9	15.5	3.92e-04	0	44	102	1048576	10	3915
2026-01-06 16:52:18.04	294.55	14.23	-25.2	-25.8	15.6	0.00e+00	0	44	102	1048576	10	3892
2026-01-06 16:52:19.04	294.75	14.20	-25.2	-25.8	15.6	0.00e+00	0	44	102	1048576	10	3896
2026-01-06 16:52:20.05	294.95	14.18	-25.3	-26.1	15.5	0.00e+00	0	44	102	1048576	10	3950
2026-01-06 16:52:21.05	295.15	14.15	-25.2	-25.9	15.6	0.00e+00	0	44	102	1048576	10	3901
2026-01-06 16:52:22.06	295.35	14.12	-25.4	-26.3	15.3	0.00e+00	0	44	102	1048576	10	4004
2026-01-06 16:52:23.06	295.55	14.10	-25.2	-25.8	15.6	0.00e+00	0	44	102	1048576	10	3897
2026-01-06 16:52:24.06	295.75	14.07	-25.0	-25.6	15.7	1.01e-03	0	44	102	1048576	10	3838
2026-01-06 16:52:25.07	295.95	14.04	-25.2	-25.9	15.6	0.00e+00	0	44	102	1048576	10	3901
2026-01-06 16:52:26.08	296.15	14.01	-25.1	-25.7	15.7	0.00e+00	0	43	102	1048576	10	3859
2026-01-06 16:52:27.08	296.34	13.98	-25.2	-26.0	15.5	0.00e+00	0	44	102	1048576	10	3939
2026-01-06 16:52:28.09	296.54	13.95	-25.3	-26.1	15.5	0.00e+00	0	44	102	1048576	10	3953
2026-01-06 16:52:29.09	296.74	13.93	-25.3	-26.2	15.3	5.24e-04	0	44	102	1048576	10	3998
2026-01-06 16:52:30.09	296.93	13.90	-25.4	-26.3	15.3	0.00e+00	0	44	102	1048576	10	4001
2026-01-06 16:52:31.10	297.13	13.87	-25.4	-26.3	15.3	0.00e+00	0	43	102	1048576	10	4002
2026-01-06 16:52:32.11	297.33	13.84	-25.5	-26.6	15.1	1.10e-06	0	44	102	1048576	10	4076
2026-01-06 16:52:33.12	297.52	13.81	-25.5	-26.5	15.2	0.00e+00	0	44	102	1048576	10	4065
2026-01-06 16:52:34.13	297.72	13.78	-25.5	-26.6	15.1	0.00e+00	0	44	102	1048576	10	4093
2026-01-06 16:52:35.13	297.91	13.74	-25.3	-26.2	15.3	1.10e-06	0	44	102	1048576	10	3990
2026-01-06 16:52:36.14	298.11	13.71	-25.1	-25.8	15.6	0.00e+00	0	44	102	1048576	10	3899
2026-01-06 16:52:37.14	298.30	13.68	-25.2	-25.8	15.6	0.00e+00	0	44	102	1048576	10	3895
2026-01-06 16:52:38.15	298.50	13.65	-25.1	-25.7	15.6	0.00e+00	0	44	102	1048576	10	3862
2026-01-06 16:52:39.15	298.69	13.62	-25.2	-25.9	15.5	0.00e+00	0	44	102	1048576	10	3913
2026-01-06 16:52:40.16	298.88	13.59	-25.1	-25.6	15.7	0.00e+00	0	44	102	1048576	10	3847
2026-01-06 16:52:41.17	299.07	13.55	-25.0	-26.1	15.6	0.00e+00	0	44	102	1048576	9	4060
2026-01-06 16:52:42.18	299.27	13.52	-25.0	-26.1	15.7	0.00e+00	0	44	102	1048576	9	4056
2026-01-06 16:52:43.18	299.46	13.49	-25.0	-26.0	15.7	0.00e+00	0	43	102	1048576	9	4055
2026-01-06 16:52:44.19	299.65	13.46	-24.9	-25.8	15.8	0.00e+00	0	44	102	1048576	9	3984
2026-01-06 16:52:45.20	299.84	13.42	-25.0	-26.0	15.7	0.00e+00	0	44	102	1048576	9	4032
2026-01-06 16:52:46.20	300.03	13.39	-25.1	-26.1	15.6	0.00e+00	0	44	102	1048576	9	4071
2026-01-06 16:52:47.21	300.22	13.36	-25.2	-25.9	15.5	0.00e+00	0	44	102	1048576	10	3901
2026-01-06 16:52:48.22	300.41	13.32	-25.2	-25.9	15.4	0.00e+00	0	44	102	1048576	10	3919
2026-01-06 16:52:49.22	300.60	13.29	-25.3	-26.2	15.4	0.00e+00	0	44	102	1048576	10	3977
2026-01-06 16:52:50.22	300.79	13.25	-25.3	-26.2	15.3	0.00e+00	0	44	102	1048576	10	3988
2026-01-06 16:52:51.23	300.98	13.22	-25.4	-26.5	15.1	0.00e+00	0	44	102	1048576	10	4051
2026-01-06 16:52:52.23	301.16	13.18	-25.5	-26.6	15.1	0.00e+00	0	44	102	1048576	10	4083
2026-01-06 16:52:53.23	301.35	13.15	-25.5	-26.5	15.1	0.00e+00	0	44	102	1048576	10	4060
2026-01-06 16:52:54.24	301.54	13.11	-25.6	-26.4	14.9	0.00e+00	0	44	102	1048576	11	3944
2026-01-06 16:52:55.24	301.72	13.08	-25.9	-27.0	14.6	0.00e+00	0	44	102	1048576	11	4081
2026-01-06 16:52:56.25	301.91	13.04	-25.7	-26.6	14.8	0.00e+00	0	44	102	1048576	11	3983
2026-01-06 16:52:57.26	302.10	13.01	-25.6	-26.4	14.9	1.09e-03	0	44	102	1048576	11	3938
2026-01-06 16:52:58.27	302.28	12.97	-25.5	-26.1	15.0	0.00e+00	0	44	102	1048576	11	3866
2026-01-06 16:52:59.27	302.47	12.93	-25.5	-26.6	15.0	0.00e+00	0	44	102	1048576	10	4102
2026-01-06 16:53:00.28	302.65	12.90	-25.5	-26.7	15.0	1.10e-06	0	44	102	1048576	10	4112
2026-01-06 16:53:01.29	302.83	12.86	-25.7	-26.6	14.8	0.00e+00	0	44	102	1048576	11	3975
2026-01-06 16:53:02.29	303.02	12.82	-25.9	-26.9	14.6	1.14e-03	0	44	102	1048576	11	4068
2026-01-06 16:53:03.30	303.20	12.78	-25.6	-26.4	14.9	0.00e+00	0	44	102	1048576	11	3923
2026-01-06 16:53:04.31	303.38	12.75	-25.5	-26.2	15.0	1.10e-06	0	44	102	1048576	11	3870
2026-01-06 16:53:05.32	303.57	12.71	-25.4	-25.9	15.1	0.00e+00	0	44	102	1048576	11	3813
2026-01-06 16:53:06.33	303.75	12.67	-25.5	-26.6	15.1	1.14e-03	0	44	102	1048576	10	4090
2026-01-06 16:53:07.32	303.93	12.63	-25.5	-26.7	15.0	0.00e+00	0	43	102	1048576	10	4105
2026-01-06 16:53:08.33	304.11	12.59	-25.5	-26.5	15.1	1.10e-06	0	44	102	1048576	10	4062
2026-01-06 16:53:09.33	304.29	12.56	-25.5	-26.6	15.1	1.18e-03	0	44	102	1048576	10	4083
2026-01-06 16:53:10.34	304.47	12.52	-25.4	-26.4	15.2	0.00e+00	0	44	102	1048576	10	4028
2026-01-06 16:53:11.35	304.65	12.48	-25.4	-26.4	15.2	1.15e-03	0	44	102	1048576	10	4022
2026-01-06 16:53:12.35	304.83	12.44	-25.4	-26.4	15.2	1.02e-03	0	44	102	1048576	10	4033
2026-01-06 16:53:13.36	305.00	12.40	-25.4	-26.3	15.2	0.00e+00	0	44	102	1048576	10	4009
2026-01-06 16:53:14.37	305.18	12.36	-25.5	-26.6	15.1	1.34e-03	0	44	102	1048576	10	4078
2026-01-06 16:53:15.38	305.36	12.32	-25.4	-26.4	15.1	1.55e-03	0	44	102	1048576	10	4028
2026-01-06 16:53:16.39	305.54	12.28	-24.9	-26.0	15.0	0.00e+00	0	44	102	1048576	10	4096
2026-01-06 16:53:17.40	305.72	12.24	-25.5	-26.7	15.0	1.52e-03	0	44	102	1048576	10	4103
2026-01-06 16:53:18.41	305.89	12.20	-25.6	-26.8	15.0	1.10e-06	0	44	102	1048576	10	4132
2026-01-06 16:53:19.41	306.07	12.16	-25.8	-26.8	14.7	0.00e+00	0	44	102	1048576	11	4029
2026-01-06 16:53:20.41	306.24	12.12	-26.0	-27.1	14.4	3.99e-04	0	44	102	1048576	11	4117
2026-01-06 16:53:21.42	306.42	12.08	-25.7	-26.5	14.8	1.45e-03	0	44	102	1048576	11	3964
2026-01-06 16:53:22.43	306.59	12.04	-25.7	-26.5	14.8	0.00e+00	0	44	102	1048576	11	3959
2026-01-06 16:53:23.44	306.77	12.00	-25.7	-26.6	14.7	2.55e-04	0	44	102	1048576	11	3996
2026-01-06 16:53:24.45	306.94	11.96	-25.6	-26.4	14.9	1.38e-03	0	44	102	1048576	11	3924
2026-01-06 16:53:25.45	307.11	11.91	-25.6	-26.4	14.9	1.50e-04	0	44	102	1048576	11	3933
2026-01-06 16:53:26.46	307.28	11.87	-25.7	-26.5	14.8	0.00e+00	0	44	102	1048576	11	3949
2026-01-06 16:53:27.47	307.46	11.83	-25.7	-26.6	14.8	0.00e+00	0	44	102	1048576	11	3976
2026-01-06 16:53:28.48	307.63	11.79	-25.7	-26.5	14.8	0.00e+00	0	44	102	1048576	11	3967
2026-01-06 16:53:29.49	307.80	11.75	-25.8	-26.7	14.7	0.00e+00	0	44	102	1048576	11	4004
2026-01-06 16:53:30.50	307.97	11.70	-25.6	-26.4	14.9	0.00e+00	0	44	102	1048576	11	3935
2026-01-06 16:53:31.51	308.14	11.66	-25.6	-26.3	14.9	0.00e+00	0	44	102	1048576	11	3915
2026-01-06 16:53:32.51	308.31	11.62	-25.6	-26.4	14.9	0.00e+00	0	44	102	1048576	11	3922
2026-01-06 16:53:33.51	308.48	11.58	-25.8	-26.8	14.6	0.00e+00	0	44	102	1048576	11	4044
2026-01-06 16:53:34.51	308.65	11.53	-25.9	-27.0	14.5	0.00e+00	0	44	102	1048576	11	4096
2026-01-06 16:53:35.52	308.81	11.49	-26.0	-27.3	14.4	1.10e-06	0	44	102	1048576	11	4158
2026-01-06 16:53:36.53	308.98	11.45	-26.0	-26.9	14.3	1.10e-06	0	43	102	1048576	12	3950
2026-01-06 16:53:37.54	309.15	11.41	-26.0	-26.7	14.3	1.32e-04	0	44	102	1048576	12	3911
2026-01-06 16:53:38.55	309.32	11.36	-26.3	-27.4	14.0	3.40e-06	0	44	102	1048576	12	4082
2026-01-06 16:53:39.55	309.48	11.32	-26.2	-27.3	14.0	3.40e-06	0	44	102	1048576	12	4048
2026-01-06 16:53:40.56	309.65	11.27	-26.2	-27.1	14.1	1.93e-04	0	44	102	1048576	12	4011
2026-01-06 16:53:41.57	309.81	11.23	-26.1	-26.9	14.2	3.40e-06	0	44	102	1048576	12	3959
2026-01-06 16:53:42.57	309.98	11.19	-26.2	-27.2	14.0	3.40e-06	0	44	102	1048576	12	4041
2026-01-06 16:53:43.58	310.14	11.14	-26.1	-27.0	14.2	3.40e-06	0	44	102	1048576	12	3974
2026-01-06 16:53:44.58	310.30	11.10	-25.9	-26.5	14.4	1.25e-05	0	44	102	1048576	12	3852
2026-01-06 16:53:45.59	310.47	11.06	-25.8	-26.7	14.7	0.00e+00	0	44	102	1048576	11	4003
2026-01-06 16:53:46.60	310.63	11.01	-25.8	-26.7	14.7	2.20e-06	0	44	102	1048576	11	4005
2026-01-06 16:53:47.61	310.79	10.97	-25.9	-26.9	14.6	0.00e+00	0	44	102	1048576	11	4050
2026-01-06 16:53:48.61	310.96	10.92	-25.9	-26.9	14.5	2.20e-06	0	44	102	1048576	11	4058
2026-01-06 16:53:49.62	311.12	10.88	-25.9	-27.1	14.5	0.00e+00	0	44	102	1048576	11	4108
2026-01-06 16:53:50.62	311.28	10.83	-25.9	-26.6	14.4	1.10e-06	0	43	102	1048576	12	3879
2026-01-06 16:53:51.63	311.44	10.79	-25.9	-26.5	14.4	3.40e-06	0	44	102	1048576	12	3856
2026-01-06 16:53:52.63	311.60	10.74	-26.0	-27.2	14.4	0.00e+00	0	44	102	1048576	11	4153
2026-01-06 16:53:53.63	311.76	10.70	-26.0	-27.3	14.3	2.20e-06	0	44	102	1048576	11	4170
2026-01-06 16:53:54.64	311.91	10.65	-26.0	-26.7	14.3	1.10e-06	0	44	102	1048576	12	3906
2026-01-06 16:53:55.65	312.07	10.61	-26.1	-27.0	14.1	2.20e-06	0	44	102	1048576	12	3990
2026-01-06 16:53:56.66	312.23	10.56	-26.1	-26.9	14.2	1.10e-06	0	44	102	1048576	12	3948
2026-01-06 16:53:57.66	312.39	10.52	-26.0	-26.6	14.3	2.20e-06	0	44	102	1048576	12	3894
2026-01-06 16:53:58.67	312.55	10.47	-26.0	-26.6	14.3	1.10e-06	0	44	102	1048576	12	3890
2026-01-06 16:53:59.67	312.70	10.42	-26.0	-27.1	14.4	4.50e-06	0	43	102	1048576	11	4122
2026-01-06 16:54:00.68	312.86	10.38	-25.9	-26.9	14.5	1.10e-06	0	44	102	1048576	11	4052
2026-01-06 16:54:01.69	313.01	10.33	-26.0	-27.2	14.3	2.20e-06	0	44	102	1048576	11	4148
2026-01-06 16:54:02.70	313.17	10.29	-26.0	-27.2	14.3	0.00e+00	0	44	102	1048576	11	4147
2026-01-06 16:54:03.70	313.32	10.24	-26.1	-27.4	14.3	2.20e-06	0	44	102	1048576	11	4192
2026-01-06 16:54:04.71	313.48	10.19	-26.1	-27.0	14.1	2.20e-06	0	44	102	1048576	12	3995
2026-01-06 16:54:05.72	313.63	10.15	-26.1	-27.0	14.1	1.10e-06	0	44	102	1048576	12	3973
2026-01-06 16:54:06.73	313.79	10.10	-26.1	-27.0	14.1	4.50e-06	0	44	102	1048576	12	3984
2026-01-06 16:54:07.74	313.94	10.05	-26.1	-27.0	14.1	1.10e-06	0	44	102	1048576	12	3991
2026-01-06 16:54:08.75	314.09	10.01	-26.2	-27.2	14.0	3.40e-06	0	44	102	1048576	12	4031
2026-01-06 16:54:09.75	314.24	9.96	-26.2	-27.1	14.0	4.50e-06	0	44	102	1048576	12	4020
2026-01-06 16:54:10.76	314.39	9.91	-26.2	-27.3	13.9	4.50e-06	0	44	102	1048576	12	4083
2026-01-06 16:54:11.76	314.54	9.87	-25.6	-26.7	13.5	0.00e+00	0	44	102	1048576	12	4087
2026-01-06 16:54:12.77	314.70	9.82	-26.3	-27.5	13.8	3.40e-06	0	44	102	1048576	12	4111
2026-01-06 16:54:13.78	314.85	9.77	-26.4	-27.6	13.3	3.40e-06	0	44	102	1048576	12	4145
2026-01-06 16:54:14.79	315.00	9.73	-26.2	-27.1	14.0	1.10e-06	0	44	102	1048576	12	4013
2026-01-06 16:54:15.79	315.14	9.68	-26.1	-27.1	14.0	3.40e-06	0	44	102	1048576	12	4001
2026-01-06 16:54:16.80	315.29	9.63	-26.2	-27.2	13.9	3.40e-06	0	44	102	1048576	12	4044
2026-01-06 16:54:17.80	315.44	9.58	-26.3	-27.4	13.8	1.16e-03	0	44	102	1048576	12	4100
2026-01-06 16:54:18.81	315.59	9.54	-26.3	-27.4	13.8	3.40e-06	0	44	102	1048576	12	4089
2026-01-06 16:54:19.81	315.73	9.49	-26.2	-27.2	13.9	5.70e-06	0	44	102	1048576	12	4033
2026-01-06 16:54:20.82	315.88	9.44	-26.3	-27.3	13.9	3.78e-04	0	44	102	1048576	12	4063
2026-01-06 16:54:21.82	316.03	9.39	-26.3	-27.4	13.8	3.40e-06	0	44	102	1048576	12	4100
2026-01-06 16:54:22.83	316.17	9.35	-26.2	-27.2	13.9	8.80e-04	0	44	102	1048576	12	4050
2026-01-06 16:54:23.83	316.32	9.30	-26.2	-27.2	13.9	1.05e-03	0	44	102	1048576	12	4041
2026-01-06 16:54:24.84	316.46	9.25	-26.3	-27.4	13.8	4.50e-06	0	44	102	1048576	12	4093
2026-01-06 16:54:25.84	316.61	9.20	-26.4	-27.8	13.6	1.49e-03	0	44	102	1048576	12	4195
2026-01-06 16:54:26.85	316.75	9.15	-26.7	-27.8	13.3	1.94e-05	0	44	102	1048576	13	4086
2026-01-06 16:54:27.86	316.89	9.11	-26.4	-27.3	13.6	1.25e-05	0	44	102	1048576	13	3953
2026-01-06 16:54:28.87	317.04	9.06	-26.3	-27.5	13.7	1.87e-03	0	44	102	1048576	12	4131
2026-01-06 16:54:29.87	317.18	9.01	-26.6	-27.6	13.3	1.81e-03	0	44	102	1048576	13	4048
2026-01-06 16:54:30.88	317.32	8.96	-26.5	-27.4	13.5	1.25e-05	0	44	102	1048576	13	3978
2026-01-06 16:54:31.88	317.46	8.91	-26.5	-27.9	13.5	1.84e-03	0	44	102	1048576	12	4237
2026-01-06 16:54:32.89	317.60	8.87	-26.7	-27.9	13.2	1.83e-03	0	44	102	1048576	13	4115
2026-01-06 16:54:33.90	317.75	8.82	-26.9	-28.3	13.0	3.20e-05	0	44	102	1048576	13	4228
2026-01-06 16:54:34.90	317.89	8.77	-26.6	-27.7	13.3	1.64e-03	0	44	102	1048576	13	4071
2026-01-06 16:54:35.91	318.03	8.72	-26.6	-27.7	13.3	1.77e-03	0	44	102	1048576	13	4071
2026-01-06 16:54:36.92	318.17	8.67	-26.6	-27.7	13.3	2.17e-05	0	44	102	1048576	13	4068
2026-01-06 16:54:37.93	318.30	8.62	-26.7	-27.8	13.3	1.79e-03	0	44	102	1048576	13	4089
2026-01-06 16:54:38.93	318.44	8.57	-26.9	-28.2	13.0	4.23e-05	0	44	102	1048576	13	4216
2026-01-06 16:54:39.94	318.58	8.53	-26.7	-27.8	13.2	3.08e-05	0	44	102	1048576	13	4107
2026-01-06 16:54:40.95	318.72	8.48	-26.5	-27.8	13.5	2.40e-04	0	44	102	1048576	12	4210
2026-01-06 16:54:41.95	318.85	8.43	-26.6	-28.0	13.4	2.28e-05	0	44	102	1048576	12	4270
2026-01-06 16:54:42.96	318.99	8.38	-26.5	-27.9	13.4	6.80e-06	0	44	102	1048576	12	4234
2026-01-06 16:54:43.97	319.13	8.33	-26.5	-27.9	13.4	1.25e-05	0	44	102	1048576	12	4223
2026-01-06 16:54:44.97	319.26	8.28	-26.9	-28.3	12.9	2.63e-05	0	44	102	1048576	13	4233
2026-01-06 16:54:45.98	319.40	8.23	-26.5	-27.4	13.4	5.37e-05	0	44	102	1048576	13	3984
2026-01-06 16:54:46.98	319.53	8.18	-26.6	-27.7	13.2	1.48e-05	0	44	102	1048576	13	4082
2026-01-06 16:54:47.99	319.67	8.13	-26.7	-27.8	13.2	1.50e-03	0	44	102	1048576	13	4093
2026-01-06 16:54:49.00	319.80	8.09	-26.3	-26.9	13.7	5.72e-05	0	44	102	1048576	13	3872
2026-01-06 16:54:50.00	319.94	8.04	-26.2	-27.3	13.7	6.80e-06	0	44	102	1048576	12	4080
2026-01-06 16:54:51.01	320.07	7.99	-26.6	-28.1	13.3	2.17e-05	0	44	102	1048576	12	4273
2026-01-06 16:54:52.02	320.20	7.94	-26.6	-27.7	13.3	2.17e-05	0	44	102	1048576	13	4068
2026-01-06 16:54:53.02	320.33	7.89	-26.7	-27.8	13.2	1.62e-04	0	44	102	1048576	13	4108
2026-01-06 16:54:54.03	320.47	7.84	-26.9	-28.2	12.9	6.63e-05	0	44	102	1048576	13	4211
2026-01-06 16:54:55.04	320.60	7.79	-26.6	-27.7	13.3	4.34e-05	0	44	102	1048576	13	4067
2026-01-06 16:54:56.04	320.73	7.74	-26.6	-28.1	13.2	2.20e-04	0	44	102	1048576	12	4297
2026-01-06 16:54:57.04	320.86	7.69	-26.4	-27.6	13.5	1.94e-05	0	44	102	1048576	12	4166
2026-01-06 16:54:58.05	320.99	7.64	-26.4	-27.8	13.4	3.05e-04	0	44	102	1048576	12	4199
2026-01-06 16:54:59.06	321.12	7.59	-26.8	-28.2	12.9	3.75e-04	0	44	102	1048576	13	4198
2026-01-06 16:55:00.07	321.25	7.54	-27.0	-28.6	12.6	5.60e-05	0	44	102	1048576	13	4328
2026-01-06 16:55:01.07	321.38	7.50	-27.1	-28.3	12.6	6.13e-04	0	44	102	1048576	14	4125
2026-01-06 16:55:02.08	321.51	7.45	-27.6	-29.1	11.8	1.11e-03	0	44	102	1048576	15	4247
2026-01-06 16:55:03.09	321.63	7.40	-27.2	-28.6	12.4	2.32e-04	0	44	102	1048576	14	4212
2026-01-06 16:55:04.10	321.76	7.35	-26.8	-27.6	13.0	5.26e-05	0	44	102	1048576	14	3940
2026-01-06 16:55:05.10	321.89	7.30	-26.7	-27.9	13.0	8.33e-04	0	44	102	1048576	13	4139
2026-01-06 16:55:06.11	322.02	7.25	-26.8	-28.2	12.9	4.57e-05	0	44	102	1048576	13	4212
2026-01-06 16:55:07.12	322.14	7.20	-26.8	-28.2	12.8	5.37e-05	0	44	102	1048576	13	4217
2026-01-06 16:55:08.12	322.27	7.15	-26.7	-27.9	13.0	9.42e-04	0	44	102	1048576	13	4144
2026-01-06 16:55:09.13	322.39	7.10	-26.7	-27.8	13.1	4.34e-05	0	44	102	1048576	13	4107
2026-01-06 16:55:10.13	322.52	7.05	-26.7	-28.0	12.9	8.86e-04	0	44	102	1048576	13	4152
2026-01-06 16:55:11.14	322.64	7.00	-32.8	-42.1	3.8	8.46e-01	0	44	104	1048576	25	10576
2026-01-06 16:55:12.15	322.77	6.95	-33.1	-43.0	3.8	8.46e-01	0	44	104	1048576	25	11307
2026-01-06 16:55:13.16	322.89	6.90	-33.4	-43.1	3.8	8.45e-01	0	44	104	1048576	26	11044

#Closed at: 2026-01-06 16:55:14
#Recorded file [1 MB]: D:/data/31010_260106_194656.dat