passes_logs/2026/01/06/R2M6_AANII_01/R2M6_AANII_01__20260106_230520_NOAA_20_JPSS-1_rec.log

#Pass ID: 20260106_230520_NOAA 20 (JPSS-1)
#Satellite: NOAA 20 (JPSS-1)
#Configuration: NOAA 20
#almurnet v.1.7.20240730
#Start time: 2026-01-06 23:05:21

#Version: 2.2.20231116
#Station: R2M6_AANII_01
#Location: 30.233357 lon 59.946436 lat
#TLE: 1 43013U 17073A   26006.30790171  .00000126  00000+0  80695-4 0  9991
#TLE: 2 43013  98.7629 307.3394 0001808  51.8724 308.2615 14.19533762421505

#Time	Az	El	Level	Level2	SNR	BER	BlckErr	Temp	State	Recorded	gain1	gain2
2026-01-06 23:05:21.98	26.59	7.09	-31.5	-37.6	5.1	1.22e+00	0	41	0	0	23	7232
2026-01-06 23:05:22.97	26.66	7.16	-31.8	-38.7	4.9	1.29e+00	0	41	104	0	23	7986
2026-01-06 23:05:23.97	26.74	7.23	-31.9	-39.2	6.8	1.42e-01	0	41	0	0	23	8396
2026-01-06 23:05:24.99	26.81	7.30	-31.7	-38.3	7.5	1.27e-01	0	41	102	1048576	23	7685
2026-01-06 23:05:25.99	26.89	7.36	-31.5	-37.3	8.3	7.02e-02	0	41	102	1048576	23	7003
2026-01-06 23:05:26.99	26.96	7.43	-31.4	-37.1	8.9	3.93e-02	0	41	102	1048576	22	6992
2026-01-06 23:05:28.00	27.04	7.50	-31.2	-36.3	9.6	2.04e-02	0	41	102	1048576	22	6482
2026-01-06 23:05:29.01	27.12	7.57	-31.0	-36.0	10.1	9.31e-03	0	41	102	1048576	21	6463
2026-01-06 23:05:30.02	27.20	7.64	-30.8	-35.4	10.6	4.85e-03	0	41	102	1048576	21	6121
2026-01-06 23:05:31.03	27.27	7.71	-30.6	-34.8	11.1	2.56e-03	0	41	102	1048576	21	5826
2026-01-06 23:05:32.03	27.35	7.78	-30.6	-34.6	11.2	2.51e-03	0	41	102	1048576	21	5753
2026-01-06 23:05:33.04	27.43	7.86	-30.6	-34.6	11.3	2.06e-03	0	42	102	1048576	21	5728
2026-01-06 23:05:34.04	27.51	7.93	-30.6	-34.6	11.3	1.28e-03	0	42	102	1048576	21	5738
2026-01-06 23:05:35.05	27.59	8.00	-30.4	-34.7	11.6	1.87e-03	0	42	102	1048576	20	5869
2026-01-06 23:05:36.06	27.67	8.07	-30.6	-34.8	11.2	2.06e-03	0	42	102	1048576	21	5809
2026-01-06 23:05:37.06	27.75	8.14	-30.8	-35.4	10.7	2.08e-03	0	42	102	1048576	21	6113
2026-01-06 23:05:38.07	27.83	8.21	-30.6	-34.6	11.3	2.05e-03	0	42	102	1048576	21	5755
2026-01-06 23:05:39.07	27.91	8.28	-30.4	-34.7	11.6	1.84e-03	0	42	102	1048576	20	5871
2026-01-06 23:05:40.08	27.99	8.35	-30.6	-34.9	11.2	1.08e-03	0	42	102	1048576	21	5848
2026-01-06 23:05:41.08	28.07	8.42	-30.7	-35.0	11.0	1.60e-03	0	42	102	1048576	21	5907
2026-01-06 23:05:42.09	28.15	8.50	-30.6	-34.6	11.4	2.18e-03	0	42	102	1048576	21	5719
2026-01-06 23:05:43.10	28.23	8.57	-30.5	-34.4	11.5	8.06e-04	0	42	102	1048576	21	5634
2026-01-06 23:05:44.11	28.32	8.64	-30.5	-34.8	11.6	1.70e-03	0	42	102	1048576	20	5929
2026-01-06 23:05:45.11	28.40	8.71	-30.5	-34.3	11.6	1.68e-03	0	42	102	1048576	21	5605
2026-01-06 23:05:46.12	28.48	8.79	-30.5	-34.3	11.6	6.65e-04	0	42	102	1048576	21	5586
2026-01-06 23:05:47.13	28.57	8.86	-30.5	-34.5	11.5	1.82e-03	0	42	102	1048576	21	5678
2026-01-06 23:05:48.14	28.65	8.93	-30.5	-34.4	11.6	1.63e-03	0	42	102	1048576	21	5630
2026-01-06 23:05:49.14	28.73	9.00	-30.7	-35.0	11.2	1.30e-03	0	42	102	1048576	21	5881
2026-01-06 23:05:50.15	28.82	9.08	-30.4	-34.2	11.7	2.17e-03	0	42	102	1048576	21	5527
2026-01-06 23:05:51.15	28.90	9.15	-30.2	-34.1	12.2	1.57e-03	0	42	102	1048576	20	5580
2026-01-06 23:05:52.15	28.99	9.22	-30.1	-33.7	12.5	1.52e-04	0	42	102	1048576	20	5421
2026-01-06 23:05:53.15	29.07	9.30	-30.1	-33.6	12.6	1.68e-03	0	42	102	1048576	20	5366
2026-01-06 23:05:54.15	29.16	9.37	-30.1	-33.6	12.5	1.46e-03	0	42	102	1048576	20	5390
2026-01-06 23:05:55.16	29.25	9.44	-30.1	-33.5	12.6	8.85e-05	0	42	102	1048576	20	5355
2026-01-06 23:05:56.16	29.33	9.52	-30.1	-33.6	12.5	1.38e-03	0	42	102	1048576	20	5396
2026-01-06 23:05:57.17	29.42	9.59	-30.2	-33.9	12.4	1.44e-03	0	42	102	1048576	20	5492
2026-01-06 23:05:58.17	29.51	9.67	-30.1	-33.5	12.6	1.75e-04	0	42	102	1048576	20	5335
2026-01-06 23:05:59.18	29.60	9.74	-30.0	-33.3	12.8	1.28e-03	0	42	102	1048576	20	5276
2026-01-06 23:06:00.19	29.69	9.82	-30.0	-33.4	12.7	1.15e-03	0	42	102	1048576	20	5285
2026-01-06 23:06:01.20	29.78	9.89	-30.1	-33.4	12.7	6.25e-05	0	42	102	1048576	20	5312
2026-01-06 23:06:02.21	29.87	9.97	-30.0	-33.4	12.7	7.85e-05	0	42	102	1048576	20	5293
2026-01-06 23:06:03.21	29.96	10.04	-30.0	-33.4	12.8	1.22e-03	0	42	102	1048576	20	5274
2026-01-06 23:06:04.22	30.05	10.12	-30.1	-33.6	12.6	7.32e-05	0	42	102	1048576	20	5381
2026-01-06 23:06:05.22	30.14	10.19	-30.1	-33.4	12.7	6.94e-05	0	42	102	1048576	20	5302
2026-01-06 23:06:06.23	30.23	10.27	-30.2	-33.7	12.6	1.10e-03	0	42	102	1048576	20	5409
2026-01-06 23:06:07.24	30.32	10.34	-30.3	-34.2	12.2	1.60e-04	0	42	102	1048576	20	5623
2026-01-06 23:06:08.25	30.42	10.42	-30.3	-34.2	12.2	2.03e-04	0	42	102	1048576	20	5621
2026-01-06 23:06:09.25	30.51	10.50	-30.3	-34.1	12.3	2.12e-04	0	42	102	1048576	20	5583
2026-01-06 23:06:10.25	30.60	10.57	-30.3	-34.2	12.2	2.51e-04	0	42	102	1048576	20	5644
2026-01-06 23:06:11.26	30.69	10.65	-30.3	-34.1	12.3	1.27e-03	0	42	102	1048576	20	5570
2026-01-06 23:06:12.26	30.79	10.73	-30.2	-33.8	12.5	1.36e-04	0	42	102	1048576	20	5472
2026-01-06 23:06:13.27	30.88	10.80	-30.2	-33.8	12.5	1.27e-04	0	42	102	1048576	20	5471
2026-01-06 23:06:14.28	30.98	10.88	-30.2	-33.8	12.6	8.67e-04	0	42	102	1048576	20	5437
2026-01-06 23:06:15.29	31.08	10.96	-30.2	-33.9	12.5	1.49e-04	0	42	102	1048576	20	5488
2026-01-06 23:06:16.30	31.17	11.04	-30.1	-33.4	12.8	7.55e-05	0	42	102	1048576	20	5277
2026-01-06 23:06:17.30	31.27	11.11	-29.9	-32.9	13.1	9.22e-04	0	42	102	1048576	20	5100
2026-01-06 23:06:18.31	31.37	11.19	-29.9	-33.4	13.2	2.05e-05	0	42	102	1048576	19	5397
2026-01-06 23:06:19.31	31.46	11.27	-30.0	-33.6	13.1	2.82e-05	0	42	102	1048576	19	5468
2026-01-06 23:06:20.32	31.56	11.35	-30.0	-33.5	13.2	1.90e-05	0	42	102	1048576	19	5422
2026-01-06 23:06:21.32	31.66	11.43	-29.9	-33.0	13.1	1.04e-03	0	42	102	1048576	20	5137
2026-01-06 23:06:22.33	31.76	11.51	-29.9	-33.0	13.1	3.50e-05	0	42	102	1048576	20	5154
2026-01-06 23:06:23.33	31.86	11.58	-30.0	-33.2	12.9	3.58e-05	0	42	102	1048576	20	5218
2026-01-06 23:06:24.33	31.96	11.66	-30.1	-33.4	12.7	1.02e-03	0	42	102	1048576	20	5264
2026-01-06 23:06:25.34	32.06	11.74	-30.0	-33.1	12.9	3.89e-05	0	42	102	1048576	20	5177
2026-01-06 23:06:26.35	32.16	11.82	-29.9	-33.0	13.1	2.44e-05	0	42	102	1048576	20	5132
2026-01-06 23:06:27.36	32.26	11.90	-30.0	-33.2	13.0	2.67e-05	0	43	102	1048576	20	5187
2026-01-06 23:06:28.37	32.37	11.98	-30.0	-33.3	12.9	5.18e-05	0	43	102	1048576	20	5251
2026-01-06 23:06:29.37	32.47	12.06	-29.9	-32.9	13.2	2.97e-05	0	42	102	1048576	20	5093
2026-01-06 23:06:30.38	32.57	12.14	-29.9	-33.4	13.4	2.05e-05	0	42	102	1048576	19	5351
2026-01-06 23:06:31.39	32.68	12.22	-30.0	-33.6	13.2	7.93e-05	0	43	102	1048576	19	5460
2026-01-06 23:06:32.40	32.78	12.30	-30.2	-33.6	12.7	4.11e-05	0	42	102	1048576	20	5360
2026-01-06 23:06:33.40	32.89	12.38	-30.3	-33.9	12.6	1.35e-04	0	43	102	1048576	20	5486
2026-01-06 23:06:34.41	32.99	12.46	-30.1	-33.6	12.8	7.01e-05	0	42	102	1048576	20	5346
2026-01-06 23:06:35.40	33.10	12.54	-30.2	-33.8	12.7	9.91e-05	0	43	102	1048576	20	5418
2026-01-06 23:06:36.41	33.20	12.63	-30.2	-33.6	12.8	6.48e-05	0	43	102	1048576	20	5357
2026-01-06 23:06:37.42	33.31	12.71	-30.2	-33.6	12.8	4.34e-05	0	43	102	1048576	20	5358
2026-01-06 23:06:38.43	33.42	12.79	-30.2	-33.7	12.7	9.53e-05	0	43	102	1048576	20	5398
2026-01-06 23:06:39.43	33.53	12.87	-30.2	-33.7	12.8	5.34e-05	0	43	102	1048576	20	5385
2026-01-06 23:06:40.44	33.64	12.95	-30.2	-33.8	12.7	6.86e-05	0	43	102	1048576	20	5430
2026-01-06 23:06:41.45	33.75	13.03	-30.3	-34.1	12.5	8.69e-05	0	43	102	1048576	20	5541
2026-01-06 23:06:42.45	33.85	13.12	-30.4	-34.3	12.4	1.94e-04	0	43	102	1048576	20	5622
2026-01-06 23:06:43.46	33.97	13.20	-30.2	-33.8	12.7	1.10e-04	0	43	102	1048576	20	5443
2026-01-06 23:06:44.47	34.08	13.28	-28.8	-32.4	12.9	4.95e-05	0	43	102	1048576	19	5427
2026-01-06 23:06:45.48	34.19	13.37	-30.1	-33.3	13.1	6.40e-05	0	43	102	1048576	20	5229
2026-01-06 23:06:46.49	34.30	13.45	-30.2	-33.6	12.9	3.05e-05	0	43	102	1048576	20	5346
2026-01-06 23:06:47.49	34.42	13.53	-30.1	-33.5	13.0	5.03e-05	0	43	102	1048576	20	5293
2026-01-06 23:06:48.50	34.53	13.62	-30.1	-33.4	13.0	1.76e-04	0	43	102	1048576	20	5250
2026-01-06 23:06:49.50	34.64	13.70	-30.1	-33.4	13.0	1.85e-04	0	43	102	1048576	20	5273
2026-01-06 23:06:50.51	34.76	13.78	-30.2	-33.5	12.9	3.20e-05	0	43	102	1048576	20	5312
2026-01-06 23:06:51.52	34.87	13.87	-30.1	-33.4	13.0	2.36e-04	0	43	102	1048576	20	5266
2026-01-06 23:06:52.53	34.99	13.95	-30.0	-33.1	13.3	2.94e-04	0	43	102	1048576	20	5139
2026-01-06 23:06:53.53	35.11	14.04	-29.9	-32.9	13.4	1.67e-05	0	43	102	1048576	20	5071
2026-01-06 23:06:54.54	35.23	14.12	-30.0	-33.0	13.3	1.54e-04	0	43	102	1048576	20	5094
2026-01-06 23:06:55.54	35.34	14.20	-30.0	-33.0	13.4	2.89e-05	0	43	102	1048576	20	5092
2026-01-06 23:06:56.55	35.46	14.29	-30.1	-33.3	13.1	2.36e-05	0	43	102	1048576	20	5205
2026-01-06 23:06:57.56	35.58	14.38	-30.1	-33.3	13.1	4.27e-05	0	43	102	1048576	20	5227
2026-01-06 23:06:58.57	35.70	14.46	-30.2	-33.5	13.0	2.64e-04	0	43	102	1048576	20	5311
2026-01-06 23:06:59.57	35.82	14.55	-30.2	-33.7	12.8	5.49e-05	0	43	102	1048576	20	5389
2026-01-06 23:07:00.58	35.94	14.63	-30.2	-33.6	12.9	3.73e-05	0	43	102	1048576	20	5341
2026-01-06 23:07:01.59	36.07	14.72	-30.2	-33.5	13.0	2.35e-04	0	43	102	1048576	20	5309
2026-01-06 23:07:02.60	36.19	14.80	-30.2	-33.7	12.9	2.20e-04	0	43	102	1048576	20	5353
2026-01-06 23:07:03.61	36.31	14.89	-30.2	-33.5	13.0	5.11e-05	0	43	102	1048576	20	5303
2026-01-06 23:07:04.61	36.44	14.98	-30.1	-33.4	13.1	2.07e-04	0	43	102	1048576	20	5254
2026-01-06 23:07:05.61	36.56	15.06	-30.1	-33.3	13.1	1.94e-04	0	43	102	1048576	20	5225
2026-01-06 23:07:06.62	36.69	15.15	-30.0	-33.2	13.3	1.21e-04	0	43	102	1048576	20	5168
2026-01-06 23:07:07.63	36.81	15.24	-30.0	-33.2	13.2	1.88e-04	0	43	102	1048576	20	5173
2026-01-06 23:07:08.64	36.94	15.33	-30.1	-33.2	13.2	1.84e-04	0	43	102	1048576	20	5189
2026-01-06 23:07:09.64	37.07	15.41	-30.1	-33.3	13.2	1.50e-04	0	43	102	1048576	20	5200
2026-01-06 23:07:10.65	37.20	15.50	-30.2	-33.5	13.1	1.81e-04	0	43	102	1048576	20	5265
2026-01-06 23:07:11.66	37.33	15.59	-30.2	-33.6	13.0	1.83e-04	0	43	102	1048576	20	5332
2026-01-06 23:07:12.66	37.46	15.68	-30.2	-33.5	13.1	2.02e-04	0	43	102	1048576	20	5290
2026-01-06 23:07:13.67	37.59	15.76	-30.1	-33.3	13.2	1.55e-04	0	43	102	1048576	20	5217
2026-01-06 23:07:14.68	37.72	15.85	-30.2	-33.4	13.2	1.01e-04	0	43	102	1048576	20	5251
2026-01-06 23:07:15.69	37.85	15.94	-30.2	-33.4	13.2	2.82e-05	0	43	102	1048576	20	5255
2026-01-06 23:07:16.70	37.99	16.03	-30.2	-33.5	13.2	3.73e-05	0	43	102	1048576	20	5260
2026-01-06 23:07:17.70	38.12	16.12	-30.2	-33.6	13.1	3.81e-05	0	43	102	1048576	20	5303
2026-01-06 23:07:18.71	38.25	16.21	-30.3	-33.8	12.9	4.11e-05	0	43	102	1048576	20	5381
2026-01-06 23:07:19.72	38.39	16.30	-30.2	-33.6	13.0	5.26e-05	0	43	102	1048576	20	5314
2026-01-06 23:07:20.73	38.53	16.39	-30.1	-33.2	13.3	1.60e-05	0	43	102	1048576	20	5163
2026-01-06 23:07:21.74	38.66	16.48	-30.1	-33.2	13.4	1.29e-05	0	43	102	1048576	20	5145
2026-01-06 23:07:22.74	38.80	16.57	-30.1	-33.1	13.4	1.29e-05	0	43	102	1048576	20	5131
2026-01-06 23:07:23.75	38.94	16.66	-30.0	-33.0	13.5	2.59e-05	0	43	102	1048576	20	5086
2026-01-06 23:07:24.75	39.08	16.75	-30.1	-33.3	13.3	1.22e-05	0	43	102	1048576	20	5192
2026-01-06 23:07:25.76	39.22	16.84	-30.0	-32.9	13.5	6.71e-05	0	43	102	1048576	20	5057
2026-01-06 23:07:26.77	39.36	16.93	-29.9	-32.6	13.7	3.28e-05	0	43	102	1048576	20	4942
2026-01-06 23:07:27.78	39.50	17.02	-29.8	-32.4	13.9	2.20e-06	0	43	102	1048576	20	4869
2026-01-06 23:07:28.78	39.64	17.11	-29.8	-32.4	13.9	2.51e-05	0	43	102	1048576	20	4871
2026-01-06 23:07:29.80	39.79	17.20	-29.9	-32.7	13.7	3.81e-05	0	43	102	1048576	20	4970
2026-01-06 23:07:30.80	39.93	17.29	-30.0	-33.1	13.5	9.90e-06	0	43	102	1048576	20	5105
2026-01-06 23:07:31.81	40.08	17.38	-30.0	-33.0	13.5	9.90e-06	0	43	102	1048576	20	5077
2026-01-06 23:07:32.82	40.22	17.48	-30.0	-33.0	13.5	7.60e-06	0	43	102	1048576	20	5064
2026-01-06 23:07:33.82	40.37	17.57	-30.1	-33.2	13.4	3.28e-05	0	43	102	1048576	20	5131
2026-01-06 23:07:34.83	40.52	17.66	-30.1	-33.2	13.4	7.60e-06	0	43	102	1048576	20	5138
2026-01-06 23:07:35.83	40.66	17.75	-30.1	-33.3	13.4	1.14e-05	0	43	102	1048576	20	5175
2026-01-06 23:07:36.84	40.81	17.84	-30.3	-33.6	13.1	2.36e-05	0	43	102	1048576	20	5312
2026-01-06 23:07:37.85	40.97	17.94	-30.0	-33.1	13.5	1.22e-05	0	43	102	1048576	20	5102
2026-01-06 23:07:38.86	41.12	18.03	-29.9	-32.6	13.8	1.22e-05	0	43	102	1048576	20	4916
2026-01-06 23:07:39.86	41.27	18.12	-29.8	-32.3	14.0	3.00e-06	0	43	102	1048576	20	4830
2026-01-06 23:07:40.87	41.42	18.21	-29.8	-32.3	14.0	1.50e-06	0	43	102	1048576	20	4826
2026-01-06 23:07:41.88	41.58	18.31	-29.7	-32.2	14.1	1.50e-06	0	43	102	1048576	20	4789
2026-01-06 23:07:42.89	41.73	18.40	-29.7	-32.1	14.1	7.00e-07	0	43	102	1048576	20	4744
2026-01-06 23:07:43.90	41.89	18.49	-29.8	-32.5	13.9	2.20e-06	0	43	102	1048576	20	4889
2026-01-06 23:07:44.91	42.04	18.59	-29.8	-32.4	14.0	3.80e-06	0	43	102	1048576	20	4860
2026-01-06 23:07:45.91	42.20	18.68	-29.8	-32.5	13.9	0.00e+00	0	43	102	1048576	20	4895
2026-01-06 23:07:46.92	42.36	18.78	-30.0	-32.9	13.7	2.28e-05	0	43	102	1048576	20	5013
2026-01-06 23:07:47.93	42.52	18.87	-29.8	-32.5	13.9	6.10e-06	0	43	102	1048576	20	4888
2026-01-06 23:07:48.93	42.68	18.96	-29.6	-31.9	14.3	1.50e-06	0	43	102	1048576	20	4671
2026-01-06 23:07:49.94	42.84	19.06	-29.4	-31.5	14.6	7.00e-07	0	43	102	1048576	20	4544
2026-01-06 23:07:50.94	43.00	19.15	-29.4	-31.3	14.7	0.00e+00	0	43	102	1048576	20	4494
2026-01-06 23:07:51.95	43.17	19.25	-29.4	-31.3	14.8	0.00e+00	0	43	102	1048576	20	4476
2026-01-06 23:07:52.96	43.33	19.34	-29.3	-31.6	14.9	0.00e+00	0	43	102	1048576	19	4671
2026-01-06 23:07:53.96	43.50	19.44	-29.4	-31.7	14.8	0.00e+00	0	43	102	1048576	19	4717
2026-01-06 23:07:54.97	43.66	19.53	-29.3	-31.5	15.0	0.00e+00	0	43	102	1048576	19	4654
2026-01-06 23:07:55.98	43.83	19.63	-29.4	-31.8	14.8	0.00e+00	0	43	102	1048576	19	4761
2026-01-06 23:07:56.99	44.00	19.72	-29.4	-31.7	14.8	0.00e+00	0	43	102	1048576	19	4713
2026-01-06 23:07:58.00	44.17	19.82	-29.4	-31.8	14.8	0.00e+00	0	43	102	1048576	19	4759
2026-01-06 23:07:59.00	44.34	19.91	-29.7	-32.5	14.4	0.00e+00	0	43	102	1048576	19	4976
2026-01-06 23:08:00.00	44.51	20.01	-29.7	-32.6	14.3	0.00e+00	0	43	102	1048576	19	5031
2026-01-06 23:08:01.00	44.68	20.10	-29.6	-32.4	14.5	7.00e-07	0	43	102	1048576	19	4936
2026-01-06 23:08:02.01	44.85	20.20	-29.6	-32.3	14.5	7.00e-07	0	43	102	1048576	19	4903
2026-01-06 23:08:03.02	45.03	20.29	-29.7	-32.4	14.4	0.00e+00	0	43	102	1048576	19	4953
2026-01-06 23:08:04.02	45.20	20.39	-29.6	-32.3	14.5	0.00e+00	0	43	102	1048576	19	4917
2026-01-06 23:08:05.03	45.38	20.49	-29.7	-32.5	14.4	0.00e+00	0	43	102	1048576	19	4972
2026-01-06 23:08:06.03	45.56	20.58	-29.7	-32.5	14.4	7.00e-07	0	43	102	1048576	19	4980
2026-01-06 23:08:07.04	45.74	20.68	-30.0	-33.3	13.9	3.00e-06	0	43	102	1048576	19	5258
2026-01-06 23:08:08.04	45.92	20.77	-29.7	-32.6	14.3	7.00e-07	0	43	102	1048576	19	5009
2026-01-06 23:08:09.04	46.10	20.87	-29.4	-31.8	14.8	1.50e-06	0	43	102	1048576	19	4748
2026-01-06 23:08:10.05	46.28	20.97	-29.3	-31.5	15.0	0.00e+00	0	43	102	1048576	19	4624
2026-01-06 23:08:11.06	46.46	21.06	-29.2	-31.3	15.2	0.00e+00	0	43	102	1048576	19	4574
2026-01-06 23:08:12.06	46.65	21.16	-29.2	-31.2	15.2	0.00e+00	0	43	102	1048576	19	4529
2026-01-06 23:08:13.07	46.83	21.26	-29.2	-31.3	15.1	0.00e+00	0	43	102	1048576	19	4580
2026-01-06 23:08:14.08	47.02	21.36	-29.1	-30.9	15.4	0.00e+00	0	43	102	1048576	19	4457
2026-01-06 23:08:15.09	47.21	21.45	-29.0	-30.8	15.5	7.00e-07	0	43	102	1048576	19	4415
2026-01-06 23:08:16.10	47.40	21.55	-29.1	-31.0	15.3	1.50e-06	0	43	102	1048576	19	4485
2026-01-06 23:08:17.10	47.59	21.65	-29.3	-31.4	15.1	0.00e+00	0	43	102	1048576	19	4612
2026-01-06 23:08:18.11	47.78	21.74	-29.2	-31.2	15.3	1.83e-05	0	43	102	1048576	19	4532
2026-01-06 23:08:19.12	47.97	21.84	-29.3	-31.5	15.1	1.14e-05	0	43	102	1048576	19	4629
2026-01-06 23:08:20.12	48.16	21.94	-29.1	-31.1	15.3	0.00e+00	0	43	102	1048576	19	4502
2026-01-06 23:08:21.13	48.36	22.04	-29.1	-31.0	15.3	4.50e-05	0	43	102	1048576	19	4477
2026-01-06 23:08:22.12	48.55	22.13	-29.2	-31.6	15.3	2.44e-04	0	43	102	1048576	18	4785
2026-01-06 23:08:23.13	48.75	22.23	-29.0	-31.2	15.5	0.00e+00	0	43	102	1048576	18	4644
2026-01-06 23:08:24.13	48.95	22.33	-28.9	-31.1	15.6	6.88e-04	0	44	102	1048576	18	4616
2026-01-06 23:08:25.14	49.15	22.42	-29.0	-31.6	15.6	4.16e-04	0	43	102	1048576	17	4902
2026-01-06 23:08:26.15	49.35	22.52	-28.9	-31.4	15.7	0.00e+00	0	43	102	1048576	17	4833
2026-01-06 23:08:27.16	49.55	22.62	-28.8	-31.3	15.7	0.00e+00	0	43	102	1048576	17	4794
2026-01-06 23:08:28.16	49.76	22.72	-28.9	-31.6	15.6	2.64e-04	0	43	102	1048576	17	4877
2026-01-06 23:08:29.17	49.96	22.81	-28.9	-31.5	15.7	0.00e+00	0	44	102	1048576	17	4853
2026-01-06 23:08:30.17	50.17	22.91	-29.0	-31.7	15.6	1.23e-04	0	43	102	1048576	17	4905
2026-01-06 23:08:31.17	50.37	23.01	-29.1	-31.6	15.4	2.03e-04	0	43	102	1048576	18	4760
2026-01-06 23:08:32.18	50.58	23.11	-29.2	-31.8	15.2	0.00e+00	0	43	102	1048576	18	4845
2026-01-06 23:08:33.18	50.79	23.20	-29.0	-31.3	15.5	1.02e-04	0	44	102	1048576	18	4662
2026-01-06 23:08:34.19	51.00	23.30	-29.0	-31.3	15.5	7.00e-07	0	43	102	1048576	18	4677
2026-01-06 23:08:35.19	51.21	23.40	-29.2	-31.7	15.3	0.00e+00	0	43	102	1048576	18	4808
2026-01-06 23:08:36.20	51.43	23.50	-29.2	-31.6	15.3	4.04e-05	0	43	102	1048576	18	4785
2026-01-06 23:08:37.21	51.64	23.59	-29.3	-32.0	15.1	0.00e+00	0	44	102	1048576	18	4893
2026-01-06 23:08:38.21	51.86	23.69	-29.3	-31.9	15.2	0.00e+00	0	43	102	1048576	18	4868
2026-01-06 23:08:39.22	52.07	23.79	-29.3	-32.0	15.1	5.74e-04	0	43	102	1048576	18	4903
2026-01-06 23:08:40.22	52.29	23.88	-29.3	-32.0	15.1	4.94e-04	0	43	102	1048576	18	4913
2026-01-06 23:08:41.23	52.51	23.98	-29.4	-32.3	14.9	0.00e+00	0	43	102	1048576	18	4999
2026-01-06 23:08:42.24	52.73	24.08	-29.2	-31.7	15.2	3.20e-04	0	43	102	1048576	18	4815
2026-01-06 23:08:43.25	52.96	24.18	-29.1	-31.4	15.4	1.81e-04	0	43	102	1048576	18	4716
2026-01-06 23:08:44.26	53.18	24.27	-29.0	-31.3	15.5	0.00e+00	0	43	102	1048576	18	4681
2026-01-06 23:08:45.27	53.41	24.37	-29.0	-31.3	15.5	0.00e+00	0	43	102	1048576	18	4690
2026-01-06 23:08:46.28	53.64	24.47	-29.0	-31.3	15.5	2.70e-04	0	43	102	1048576	18	4677
2026-01-06 23:08:47.29	53.87	24.57	-29.1	-31.4	15.5	0.00e+00	0	43	102	1048576	18	4695
2026-01-06 23:08:48.29	54.09	24.66	-29.1	-31.3	15.5	0.00e+00	0	43	102	1048576	18	4680
2026-01-06 23:08:49.29	54.32	24.76	-29.1	-31.5	15.4	6.10e-06	0	43	102	1048576	18	4742
2026-01-06 23:08:50.31	54.56	24.86	-29.2	-31.8	15.2	0.00e+00	0	43	102	1048576	18	4822
2026-01-06 23:08:51.31	54.79	24.95	-29.3	-31.9	15.2	0.00e+00	0	43	102	1048576	18	4864
2026-01-06 23:08:52.32	55.03	25.05	-29.3	-32.0	15.1	0.00e+00	0	43	102	1048576	18	4917
2026-01-06 23:08:53.32	55.26	25.14	-29.4	-32.3	15.0	0.00e+00	0	44	102	1048576	18	4999
2026-01-06 23:08:54.33	55.50	25.24	-29.5	-31.9	14.8	1.50e-06	0	43	102	1048576	19	4767
2026-01-06 23:08:55.34	55.74	25.33	-29.6	-32.2	14.7	7.00e-07	0	43	102	1048576	19	4844
2026-01-06 23:08:56.35	55.98	25.43	-29.8	-32.7	14.4	0.00e+00	0	43	102	1048576	19	5031
2026-01-06 23:08:57.36	56.23	25.53	-29.9	-33.0	14.2	2.20e-06	0	43	102	1048576	19	5158
2026-01-06 23:08:58.36	56.47	25.62	-29.9	-32.9	14.3	1.50e-06	0	43	102	1048576	19	5112
2026-01-06 23:08:59.37	56.72	25.72	-29.9	-33.0	14.2	1.50e-06	0	43	102	1048576	19	5143
2026-01-06 23:09:00.38	56.96	25.81	-29.8	-32.7	14.4	0.00e+00	0	43	102	1048576	19	5018
2026-01-06 23:09:01.38	57.21	25.90	-29.8	-32.7	14.4	3.00e-06	0	43	102	1048576	19	5015
2026-01-06 23:09:02.39	57.46	26.00	-29.9	-32.9	14.3	0.00e+00	0	43	102	1048576	19	5104
2026-01-06 23:09:03.39	57.71	26.09	-29.9	-32.9	14.3	1.50e-06	0	43	102	1048576	19	5100
2026-01-06 23:09:04.40	57.96	26.19	-29.9	-33.1	14.2	7.00e-07	0	43	102	1048576	19	5159
2026-01-06 23:09:05.41	58.22	26.28	-30.0	-32.8	14.0	2.20e-06	0	43	102	1048576	20	4970
2026-01-06 23:09:06.41	58.47	26.37	-30.1	-33.0	13.9	1.50e-06	0	43	102	1048576	20	5044
2026-01-06 23:09:07.42	58.73	26.47	-30.0	-32.9	13.9	7.00e-07	0	43	102	1048576	20	4987
2026-01-06 23:09:08.43	58.99	26.56	-30.1	-33.2	13.8	4.50e-06	0	43	102	1048576	20	5089
2026-01-06 23:09:09.43	59.25	26.65	-30.1	-33.0	13.8	6.10e-06	0	43	102	1048576	20	5035
2026-01-06 23:09:10.44	59.51	26.74	-30.0	-32.8	14.0	7.60e-06	0	43	102	1048576	20	4969
2026-01-06 23:09:11.45	59.77	26.84	-30.0	-32.8	13.8	1.50e-06	0	43	102	1048576	20	4964
2026-01-06 23:09:12.45	60.04	26.93	-30.1	-33.0	13.8	2.20e-06	0	43	102	1048576	20	5046
2026-01-06 23:09:13.46	60.30	27.02	-30.2	-33.4	13.6	1.50e-06	0	43	102	1048576	20	5181
2026-01-06 23:09:14.47	60.57	27.11	-30.4	-34.0	13.2	1.98e-05	0	43	102	1048576	20	5399
2026-01-06 23:09:15.47	60.84	27.20	-30.7	-34.1	12.8	4.95e-05	0	43	102	1048576	21	5358
2026-01-06 23:09:16.48	61.11	27.29	-30.8	-34.6	12.5	8.01e-05	0	43	102	1048576	21	5549
2026-01-06 23:09:17.48	61.38	27.38	-30.9	-34.9	12.2	1.58e-03	0	43	102	1048576	21	5692
2026-01-06 23:09:18.49	61.65	27.47	-31.0	-35.0	12.2	1.95e-04	0	44	102	1048576	21	5724
2026-01-06 23:09:19.50	61.93	27.56	-31.0	-34.5	12.2	2.18e-04	0	44	102	1048576	22	5398
2026-01-06 23:09:20.51	62.21	27.65	-30.9	-34.3	12.4	1.17e-03	0	44	102	1048576	22	5315
2026-01-06 23:09:21.51	62.48	27.73	-31.0	-35.0	12.2	2.01e-04	0	43	102	1048576	21	5696
2026-01-06 23:09:22.52	62.76	27.82	-31.0	-34.7	12.1	2.70e-04	0	43	102	1048576	22	5460
2026-01-06 23:09:23.53	63.05	27.91	-30.9	-34.2	12.4	5.19e-04	0	44	102	1048576	22	5269
2026-01-06 23:09:24.54	63.33	28.00	-30.8	-34.6	12.5	3.51e-04	0	44	102	1048576	21	5559
2026-01-06 23:09:25.55	63.61	28.08	-30.9	-34.8	12.4	1.27e-04	0	43	102	1048576	21	5629
2026-01-06 23:09:26.55	63.90	28.17	-30.9	-34.8	12.4	1.59e-04	0	43	102	1048576	21	5620
2026-01-06 23:09:27.56	64.19	28.25	-30.9	-34.8	12.3	5.03e-04	0	44	102	1048576	21	5624
2026-01-06 23:09:28.56	64.47	28.34	-30.8	-34.4	12.6	1.28e-04	0	43	102	1048576	21	5482
2026-01-06 23:09:29.56	64.76	28.42	-30.8	-34.5	12.6	7.55e-05	0	44	102	1048576	21	5501
2026-01-06 23:09:30.57	65.05	28.51	-30.8	-34.6	12.5	2.35e-04	0	44	102	1048576	21	5535
2026-01-06 23:09:31.58	65.35	28.59	-30.8	-34.6	12.5	9.53e-05	0	44	102	1048576	21	5539
2026-01-06 23:09:32.58	65.64	28.67	-30.9	-34.8	12.4	1.44e-04	0	43	102	1048576	21	5648
2026-01-06 23:09:33.59	65.94	28.75	-31.0	-34.9	12.4	1.75e-04	0	43	102	1048576	21	5672
2026-01-06 23:09:34.59	66.23	28.83	-30.8	-34.4	12.7	1.07e-04	0	43	102	1048576	21	5457
2026-01-06 23:09:35.60	66.53	28.92	-30.8	-34.5	12.6	8.77e-05	0	43	102	1048576	21	5511
2026-01-06 23:09:36.60	66.83	29.00	-30.7	-34.2	12.8	1.24e-04	0	44	102	1048576	21	5377
2026-01-06 23:09:37.61	67.13	29.08	-30.6	-33.8	13.1	3.66e-05	0	43	102	1048576	21	5220
2026-01-06 23:09:38.61	67.43	29.15	-30.5	-33.6	13.2	2.05e-05	0	43	102	1048576	21	5136
2026-01-06 23:09:39.62	67.74	29.23	-30.5	-33.7	13.2	2.21e-05	0	44	102	1048576	21	5175
2026-01-06 23:09:40.63	68.05	29.31	-30.6	-33.9	13.0	3.58e-05	0	44	102	1048576	21	5267
2026-01-06 23:09:41.63	68.35	29.39	-30.7	-34.1	12.9	6.25e-05	0	44	102	1048576	21	5350
2026-01-06 23:09:42.64	68.66	29.46	-30.7	-34.3	12.8	5.49e-05	0	44	102	1048576	21	5400
2026-01-06 23:09:43.64	68.97	29.54	-30.8	-34.6	12.5	9.99e-05	0	43	102	1048576	21	5518
2026-01-06 23:09:44.65	69.29	29.61	-30.9	-34.8	12.4	1.24e-04	0	44	102	1048576	21	5630
2026-01-06 23:09:45.65	69.60	29.69	-31.0	-34.5	12.2	2.11e-04	0	43	102	1048576	22	5397
2026-01-06 23:09:46.66	69.91	29.76	-31.1	-34.7	12.2	2.08e-04	0	43	102	1048576	22	5459
2026-01-06 23:09:47.67	70.23	29.84	-31.0	-34.5	12.3	2.31e-04	0	43	102	1048576	22	5378
2026-01-06 23:09:48.67	70.55	29.91	-30.9	-34.1	12.6	1.30e-04	0	43	102	1048576	22	5232
2026-01-06 23:09:49.68	70.87	29.98	-30.9	-34.2	12.5	9.61e-05	0	43	102	1048576	22	5249
2026-01-06 23:09:50.69	71.19	30.05	-31.0	-34.3	12.4	1.16e-04	0	43	102	1048576	22	5320
2026-01-06 23:09:51.70	71.51	30.12	-31.2	-35.1	11.9	2.42e-04	0	43	102	1048576	22	5622
2026-01-06 23:09:52.70	71.83	30.19	-31.4	-35.8	11.4	5.90e-04	0	43	102	1048576	22	5949
2026-01-06 23:09:53.70	72.16	30.26	-31.7	-36.2	10.8	2.38e-03	0	43	102	1048576	23	6035
2026-01-06 23:09:54.70	72.48	30.32	-31.9	-36.9	10.3	4.51e-03	0	43	102	1048576	23	6394
2026-01-06 23:09:55.71	72.81	30.39	-32.0	-37.2	10.0	6.63e-03	0	43	102	1048576	23	6534
2026-01-06 23:09:56.71	73.13	30.46	-32.0	-36.8	9.9	8.03e-03	0	43	102	1048576	24	6246
2026-01-06 23:09:57.72	73.47	30.52	-32.1	-37.3	9.6	1.05e-02	0	44	102	1048576	24	6486
2026-01-06 23:09:58.72	73.79	30.58	-32.1	-37.0	9.7	1.31e-02	0	44	102	1048576	24	6372
2026-01-06 23:09:59.72	74.13	30.65	-32.0	-36.8	9.9	1.01e-02	0	43	102	1048576	24	6247
2026-01-06 23:10:00.73	74.46	30.71	-31.9	-36.6	10.1	7.70e-03	0	43	102	1048576	24	6120
2026-01-06 23:10:01.74	74.80	30.77	-32.0	-36.9	9.9	7.33e-03	0	43	102	1048576	24	6277
2026-01-06 23:10:02.75	75.13	30.83	-31.9	-36.4	10.2	9.63e-03	0	44	102	1048576	24	6055
2026-01-06 23:10:03.76	75.47	30.89	-31.8	-36.1	10.5	4.23e-03	0	44	102	1048576	24	5877
2026-01-06 23:10:04.77	75.81	30.95	-31.8	-36.1	10.4	3.43e-03	0	43	102	1048576	24	5881
2026-01-06 23:10:05.78	76.15	31.01	-31.8	-36.2	10.4	4.26e-03	0	44	102	1048576	24	5926
2026-01-06 23:10:06.79	76.50	31.06	-31.9	-36.5	10.1	6.00e-03	0	44	102	1048576	24	6104
2026-01-06 23:10:07.80	76.84	31.12	-31.8	-35.9	10.5	4.70e-03	0	43	102	1048576	24	5818
2026-01-06 23:10:08.81	77.18	31.17	-31.6	-35.3	11.0	2.54e-03	0	43	102	1048576	24	5507
2026-01-06 23:10:09.81	77.53	31.23	-31.4	-34.9	11.3	1.33e-03	0	43	102	1048576	24	5360
2026-01-06 23:10:10.82	77.87	31.28	-31.4	-34.7	11.5	8.20e-04	0	44	102	1048576	24	5268
2026-01-06 23:10:11.83	78.22	31.33	-31.3	-34.6	11.5	7.22e-04	0	44	102	1048576	24	5234
2026-01-06 23:10:12.83	78.57	31.38	-31.5	-35.7	11.1	9.63e-04	0	44	102	1048576	23	5823
2026-01-06 23:10:13.84	78.92	31.43	-31.5	-35.4	11.3	1.27e-03	0	44	102	1048576	23	5683
2026-01-06 23:10:14.84	79.27	31.48	-31.5	-35.7	11.2	1.26e-03	0	44	102	1048576	23	5782
2026-01-06 23:10:15.85	79.62	31.53	-31.6	-35.8	11.0	1.70e-03	0	43	102	1048576	23	5842
2026-01-06 23:10:16.86	79.97	31.57	-31.6	-35.8	11.0	1.55e-03	0	44	102	1048576	23	5870
2026-01-06 23:10:17.87	80.33	31.62	-31.6	-36.0	10.9	2.17e-03	0	43	102	1048576	23	5948
2026-01-06 23:10:18.88	80.68	31.66	-31.5	-35.5	11.2	1.88e-03	0	43	102	1048576	23	5737
2026-01-06 23:10:19.88	81.03	31.70	-31.4	-35.1	11.5	8.38e-04	0	43	102	1048576	23	5558
2026-01-06 23:10:20.88	81.39	31.74	-31.3	-35.0	11.6	6.55e-04	0	43	102	1048576	23	5517
2026-01-06 23:10:21.88	81.74	31.78	-31.3	-34.9	11.7	5.39e-04	0	43	102	1048576	23	5452
2026-01-06 23:10:22.89	82.10	31.82	-31.2	-34.5	12.0	5.06e-04	0	43	102	1048576	23	5270
2026-01-06 23:10:23.89	82.46	31.86	-31.2	-34.6	11.9	3.23e-04	0	44	102	1048576	23	5331
2026-01-06 23:10:24.90	82.82	31.90	-31.2	-34.6	11.9	3.94e-04	0	44	102	1048576	23	5334
2026-01-06 23:10:25.91	83.18	31.93	-31.2	-34.7	11.8	4.26e-04	0	44	102	1048576	23	5366
2026-01-06 23:10:26.91	83.54	31.97	-31.2	-34.7	11.9	4.56e-04	0	44	102	1048576	23	5370
2026-01-06 23:10:27.92	83.90	32.00	-31.2	-34.5	12.0	4.03e-04	0	44	102	1048576	23	5302
2026-01-06 23:10:28.92	84.26	32.03	-31.2	-34.5	11.9	3.73e-04	0	44	102	1048576	23	5297
2026-01-06 23:10:29.93	84.63	32.06	-31.4	-35.2	11.5	5.70e-04	0	44	102	1048576	23	5575
2026-01-06 23:10:30.93	84.99	32.09	-31.5	-35.5	11.3	1.03e-03	0	44	102	1048576	23	5703
2026-01-06 23:10:31.94	85.35	32.12	-31.7	-36.1	10.8	1.71e-03	0	44	102	1048576	23	6019
2026-01-06 23:10:32.95	85.72	32.15	-31.9	-36.9	10.2	3.54e-03	0	44	102	1048576	23	6409
2026-01-06 23:10:33.95	86.08	32.18	-32.0	-36.7	10.0	6.84e-03	0	44	102	1048576	24	6162
2026-01-06 23:10:34.95	86.45	32.20	-32.1	-36.9	9.8	8.71e-03	0	44	102	1048576	24	6310
2026-01-06 23:10:35.96	86.82	32.22	-32.0	-36.6	10.0	9.70e-03	0	44	102	1048576	24	6143
2026-01-06 23:10:36.96	87.18	32.25	-31.9	-36.5	10.1	5.88e-03	0	44	102	1048576	24	6074
2026-01-06 23:10:37.97	87.55	32.27	-32.0	-36.8	9.9	7.30e-03	0	43	102	1048576	24	6236
2026-01-06 23:10:38.97	87.92	32.29	-31.6	-35.3	11.0	4.23e-03	0	44	102	1048576	24	5516
2026-01-06 23:10:39.98	88.29	32.31	-31.2	-34.7	11.8	5.88e-04	0	44	102	1048576	23	5356
2026-01-06 23:10:40.99	88.66	32.32	-31.1	-34.3	12.1	3.04e-04	0	44	102	1048576	23	5185
2026-01-06 23:10:41.99	89.02	32.34	-31.3	-34.9	11.7	3.41e-04	0	43	102	1048576	23	5443
2026-01-06 23:10:43.00	89.39	32.35	-31.4	-35.1	11.6	7.09e-04	0	43	102	1048576	23	5549
2026-01-06 23:10:44.01	89.77	32.37	-31.3	-35.0	11.6	6.78e-04	0	43	102	1048576	23	5489
2026-01-06 23:10:45.02	90.14	32.38	-31.3	-35.0	11.6	6.58e-04	0	44	102	1048576	23	5483
2026-01-06 23:10:46.02	90.51	32.39	-31.4	-35.2	11.5	7.64e-04	0	44	102	1048576	23	5561
2026-01-06 23:10:47.03	90.88	32.40	-31.5	-35.5	11.3	1.10e-03	0	44	102	1048576	23	5696
2026-01-06 23:10:48.04	91.25	32.41	-31.3	-35.0	11.6	6.83e-04	0	44	102	1048576	23	5492
2026-01-06 23:10:49.04	91.62	32.41	-31.6	-35.7	11.1	9.44e-04	0	44	102	1048576	23	5799
2026-01-06 23:10:50.05	91.99	32.42	-31.4	-35.1	11.6	9.68e-04	0	43	102	1048576	23	5550
2026-01-06 23:10:51.06	92.37	32.42	-31.2	-34.6	11.9	5.58e-04	0	44	102	1048576	23	5305
2026-01-06 23:10:52.06	92.74	32.43	-31.2	-34.5	12.0	2.88e-04	0	44	102	1048576	23	5281
2026-01-06 23:10:53.07	93.11	32.43	-31.2	-34.7	11.8	3.37e-04	0	44	102	1048576	23	5356
2026-01-06 23:10:54.07	93.48	32.43	-31.4	-35.1	11.5	8.23e-04	0	43	102	1048576	23	5552
2026-01-06 23:10:55.07	93.85	32.43	-31.4	-35.2	11.4	9.22e-04	0	43	102	1048576	23	5598
2026-01-06 23:10:56.08	94.22	32.42	-31.4	-35.8	11.4	9.28e-04	0	44	102	1048576	22	5961
2026-01-06 23:10:57.09	94.59	32.42	-31.4	-35.8	11.4	1.19e-03	0	43	102	1048576	22	5963
2026-01-06 23:10:58.09	94.96	32.42	-31.1	-34.8	12.1	4.67e-04	0	43	102	1048576	22	5496
2026-01-06 23:10:59.10	95.34	32.41	-30.9	-34.0	12.6	1.17e-04	0	44	102	1048576	22	5192
2026-01-06 23:11:00.11	95.71	32.40	-30.8	-33.9	12.7	9.15e-05	0	44	102	1048576	22	5142
2026-01-06 23:11:01.11	96.08	32.39	-30.9	-34.3	12.5	6.71e-05	0	44	102	1048576	22	5279
2026-01-06 23:11:02.12	96.45	32.38	-31.0	-34.3	12.4	1.23e-04	0	44	102	1048576	22	5313
2026-01-06 23:11:03.13	96.82	32.37	-31.2	-35.1	11.8	2.21e-04	0	43	102	1048576	22	5657
2026-01-06 23:11:04.13	97.19	32.36	-31.3	-35.5	11.7	6.21e-04	0	44	102	1048576	22	5789
2026-01-06 23:11:05.14	97.56	32.34	-31.4	-35.8	11.4	8.43e-04	0	44	102	1048576	22	5966
2026-01-06 23:11:06.15	97.93	32.33	-31.4	-35.8	11.4	8.35e-04	0	44	102	1048576	22	5946
2026-01-06 23:11:07.15	98.30	32.31	-31.6	-35.7	11.1	1.27e-03	0	44	102	1048576	23	5817
2026-01-06 23:11:08.16	98.67	32.29	-31.7	-36.3	10.7	2.36e-03	0	44	102	1048576	23	6105
2026-01-06 23:11:09.16	99.04	32.27	-31.7	-36.3	10.6	3.02e-03	0	43	102	1048576	23	6107
2026-01-06 23:11:10.17	99.41	32.25	-31.8	-36.5	10.6	3.80e-03	0	43	102	1048576	23	6183
2026-01-06 23:11:11.18	99.77	32.23	-31.7	-36.3	10.6	3.51e-03	0	44	102	1048576	23	6100
2026-01-06 23:11:12.18	100.14	32.21	-31.9	-36.9	10.2	4.24e-03	0	44	102	1048576	23	6398
2026-01-06 23:11:13.19	100.51	32.18	-32.0	-37.1	10.0	6.96e-03	0	44	102	1048576	23	6502
2026-01-06 23:11:14.20	100.88	32.16	-32.1	-37.3	9.5	1.30e-02	0	44	102	1048576	24	6527
2026-01-06 23:11:15.21	101.24	32.13	-32.0	-36.9	9.8	1.26e-02	0	43	102	1048576	24	6295
2026-01-06 23:11:16.22	101.61	32.10	-31.9	-36.3	10.2	8.13e-03	0	44	102	1048576	24	6018
2026-01-06 23:11:17.22	101.97	32.07	-31.9	-36.3	10.3	5.59e-03	0	44	102	1048576	24	5989
2026-01-06 23:11:18.23	102.34	32.04	-31.9	-36.8	10.2	5.78e-03	0	44	102	1048576	23	6367
2026-01-06 23:11:19.24	102.70	32.01	-31.9	-36.8	10.3	5.73e-03	0	43	102	1048576	23	6334
2026-01-06 23:11:20.24	103.06	31.98	-31.9	-36.8	10.3	4.90e-03	0	44	102	1048576	23	6323
2026-01-06 23:11:21.25	103.42	31.95	-32.0	-36.8	9.8	7.83e-03	0	44	102	1048576	24	6263
2026-01-06 23:11:22.26	103.79	31.91	-32.0	-36.8	10.0	7.83e-03	0	44	102	1048576	24	6237
2026-01-06 23:11:23.27	104.15	31.87	-32.1	-37.2	9.6	1.25e-02	0	43	102	1048576	24	6456
2026-01-06 23:11:24.27	104.50	31.84	-32.1	-37.0	9.8	1.05e-02	0	44	102	1048576	24	6326
2026-01-06 23:11:25.28	104.86	31.80	-32.1	-37.1	9.7	1.26e-02	0	43	102	1048576	24	6384
2026-01-06 23:11:26.28	105.22	31.76	-32.0	-36.5	10.1	6.76e-03	0	44	102	1048576	24	6107
2026-01-06 23:11:27.29	105.58	31.72	-31.8	-36.2	10.3	4.78e-03	0	43	102	1048576	24	5926
2026-01-06 23:11:28.29	105.93	31.67	-31.8	-36.1	10.4	4.49e-03	0	44	102	1048576	24	5883
2026-01-06 23:11:29.30	106.29	31.63	-31.7	-35.7	10.7	3.60e-03	0	43	102	1048576	24	5716
2026-01-06 23:11:30.30	106.64	31.59	-31.7	-35.6	10.8	2.49e-03	0	44	102	1048576	24	5674
2026-01-06 23:11:31.31	106.99	31.54	-31.6	-35.4	10.9	2.82e-03	0	44	102	1048576	24	5558
2026-01-06 23:11:32.32	107.35	31.49	-31.4	-34.6	11.5	1.23e-03	0	43	102	1048576	24	5230
2026-01-06 23:11:33.33	107.70	31.44	-31.3	-34.4	11.6	6.64e-04	0	44	102	1048576	24	5155
2026-01-06 23:11:34.33	108.05	31.40	-31.4	-34.8	11.4	8.58e-04	0	44	102	1048576	24	5313
2026-01-06 23:11:35.34	108.40	31.34	-31.6	-35.2	11.0	1.38e-03	0	44	102	1048576	24	5504
2026-01-06 23:11:36.35	108.75	31.29	-31.5	-35.2	11.1	1.60e-03	0	43	102	1048576	24	5482
2026-01-06 23:11:37.35	109.09	31.24	-31.6	-35.4	10.9	2.30e-03	0	43	102	1048576	24	5557
2026-01-06 23:11:38.36	109.44	31.19	-31.6	-35.3	11.0	1.84e-03	0	43	102	1048576	24	5525
2026-01-06 23:11:39.36	109.78	31.13	-31.4	-34.8	11.3	1.44e-03	0	44	102	1048576	24	5296
2026-01-06 23:11:40.36	110.12	31.08	-31.4	-34.7	11.4	8.85e-04	0	44	102	1048576	24	5268
2026-01-06 23:11:41.37	110.47	31.02	-31.4	-34.8	11.3	1.00e-03	0	44	102	1048576	24	5313
2026-01-06 23:11:42.37	110.80	30.97	-31.4	-34.9	11.3	1.32e-03	0	44	102	1048576	24	5367
2026-01-06 23:11:43.37	111.14	30.91	-31.3	-34.5	11.5	1.00e-03	0	44	102	1048576	24	5200
2026-01-06 23:11:44.37	111.48	30.85	-31.3	-34.9	11.6	7.84e-04	0	43	102	1048576	23	5439
2026-01-06 23:11:45.38	111.82	30.79	-31.2	-34.7	11.7	5.93e-04	0	43	102	1048576	23	5381
2026-01-06 23:11:46.39	112.16	30.73	-31.1	-34.5	11.9	4.64e-04	0	43	102	1048576	23	5290
2026-01-06 23:11:47.40	112.49	30.67	-31.2	-34.6	11.8	4.08e-04	0	44	102	1048576	23	5336
2026-01-06 23:11:48.40	112.82	30.60	-31.2	-34.6	11.8	5.46e-04	0	43	102	1048576	23	5331
2026-01-06 23:11:49.41	113.16	30.54	-31.1	-34.4	11.9	3.84e-04	0	44	102	1048576	23	5263
2026-01-06 23:11:50.42	113.49	30.47	-31.2	-34.6	11.8	4.49e-04	0	44	102	1048576	23	5349
2026-01-06 23:11:51.42	113.82	30.41	-31.4	-35.4	11.3	7.78e-04	0	43	102	1048576	23	5674
2026-01-06 23:11:52.43	114.15	30.34	-31.6	-36.1	10.7	1.72e-03	0	43	102	1048576	23	6022
2026-01-06 23:11:53.43	114.47	30.27	-31.9	-36.8	10.2	5.18e-03	0	44	102	1048576	23	6394
2026-01-06 23:11:54.44	114.80	30.21	-31.9	-37.0	10.0	6.49e-03	0	43	102	1048576	23	6469
2026-01-06 23:11:55.45	115.13	30.14	-31.7	-36.4	10.4	6.75e-03	0	43	102	1048576	23	6188
2026-01-06 23:11:56.45	115.45	30.07	-31.5	-35.8	10.9	2.60e-03	0	44	102	1048576	23	5856
2026-01-06 23:11:57.45	115.77	30.00	-31.4	-35.4	11.2	1.41e-03	0	44	102	1048576	23	5686
2026-01-06 23:11:58.45	116.08	29.93	-31.5	-35.6	11.1	1.29e-03	0	43	102	1048576	23	5757
2026-01-06 23:11:59.45	116.40	29.85	-31.5	-35.7	10.9	1.94e-03	0	44	102	1048576	23	5852
2026-01-06 23:12:00.46	116.72	29.78	-31.6	-36.0	10.7	2.62e-03	0	44	102	1048576	23	5992
2026-01-06 23:12:01.47	117.04	29.71	-31.6	-36.1	10.6	3.89e-03	0	44	102	1048576	23	6047
2026-01-06 23:12:02.47	117.35	29.63	-31.7	-36.3	10.6	3.37e-03	0	44	102	1048576	23	6095
2026-01-06 23:12:03.48	117.67	29.56	-31.8	-36.6	10.3	4.53e-03	0	43	102	1048576	23	6259
2026-01-06 23:12:04.48	117.98	29.48	-31.8	-36.8	10.2	6.78e-03	0	44	102	1048576	23	6381
2026-01-06 23:12:05.49	118.29	29.41	-31.8	-36.6	10.3	6.04e-03	0	44	102	1048576	23	6297
2026-01-06 23:12:06.49	118.59	29.33	-31.8	-36.8	10.2	5.49e-03	0	43	102	1048576	23	6360
2026-01-06 23:12:07.50	118.90	29.25	-31.9	-37.1	10.0	6.65e-03	0	44	102	1048576	23	6531
2026-01-06 23:12:08.51	119.21	29.17	-31.9	-37.2	9.9	1.02e-02	0	44	102	1048576	23	6603
2026-01-06 23:12:09.51	119.51	29.09	-31.8	-36.8	10.1	7.63e-03	0	44	102	1048576	23	6394
2026-01-06 23:12:10.52	119.82	29.01	-31.7	-36.5	10.4	5.01e-03	0	43	102	1048576	23	6223
2026-01-06 23:12:11.52	120.12	28.93	-31.7	-36.4	10.5	4.40e-03	0	44	102	1048576	23	6158
2026-01-06 23:12:12.53	120.42	28.85	-31.7	-36.3	10.5	5.13e-03	0	44	102	1048576	23	6148
2026-01-06 23:12:13.54	120.72	28.77	-31.6	-35.9	10.8	2.88e-03	0	44	102	1048576	23	5940
2026-01-06 23:12:14.55	121.02	28.69	-31.4	-35.3	11.3	1.74e-03	0	43	102	1048576	23	5637
2026-01-06 23:12:15.55	121.31	28.60	-31.1	-34.3	11.9	8.21e-04	0	44	102	1048576	23	5240
2026-01-06 23:12:16.56	121.61	28.52	-30.9	-33.7	12.4	1.85e-04	0	44	102	1048576	23	4982
2026-01-06 23:12:17.56	121.90	28.44	-30.8	-33.6	12.5	1.52e-04	0	44	102	1048576	23	4935
2026-01-06 23:12:18.57	122.19	28.35	-30.8	-33.9	12.6	1.32e-04	0	44	102	1048576	22	5161
2026-01-06 23:12:19.57	122.48	28.27	-30.7	-33.8	12.6	1.04e-04	0	43	102	1048576	22	5129
2026-01-06 23:12:20.58	122.77	28.18	-30.8	-34.1	12.4	1.16e-04	0	43	102	1048576	22	5264
2026-01-06 23:12:21.59	123.06	28.10	-31.0	-34.6	12.1	2.68e-04	0	43	102	1048576	22	5430
2026-01-06 23:12:22.60	123.34	28.01	-31.1	-34.8	11.9	3.01e-04	0	44	102	1048576	22	5523
2026-01-06 23:12:23.60	123.62	27.92	-31.1	-34.8	12.0	4.27e-04	0	44	102	1048576	22	5529
2026-01-06 23:12:24.60	123.90	27.83	-31.1	-34.8	11.9	3.82e-04	0	44	102	1048576	22	5557
2026-01-06 23:12:25.61	124.19	27.75	-31.2	-35.1	11.7	4.14e-04	0	44	102	1048576	22	5658
2026-01-06 23:12:26.61	124.46	27.66	-31.4	-36.0	11.1	1.20e-03	0	44	102	1048576	22	6075
2026-01-06 23:12:27.61	124.74	27.57	-31.5	-35.7	10.9	2.44e-03	0	44	102	1048576	23	5829
2026-01-06 23:12:28.62	125.02	27.48	-31.3	-35.1	11.3	1.68e-03	0	44	102	1048576	23	5554
2026-01-06 23:12:29.62	125.29	27.39	-30.9	-33.9	12.2	6.17e-04	0	44	102	1048576	23	5086
2026-01-06 23:12:30.62	125.56	27.30	-30.5	-33.3	13.0	6.33e-05	0	44	102	1048576	22	4944
2026-01-06 23:12:31.63	125.83	27.21	-30.5	-33.0	13.1	2.13e-05	0	44	102	1048576	22	4851
2026-01-06 23:12:32.63	126.10	27.12	-30.7	-33.6	12.8	4.19e-05	0	44	102	1048576	22	5057
2026-01-06 23:12:33.64	126.37	27.03	-30.9	-34.4	12.2	1.93e-04	0	44	102	1048576	22	5373
2026-01-06 23:12:34.65	126.64	26.94	-31.1	-34.8	11.9	3.43e-04	0	44	102	1048576	22	5559
2026-01-06 23:12:35.66	126.91	26.85	-31.1	-34.9	11.8	5.69e-04	0	43	102	1048576	22	5594
2026-01-06 23:12:36.67	127.17	26.75	-30.8	-34.1	12.3	2.34e-04	0	44	102	1048576	22	5280
2026-01-06 23:12:37.67	127.43	26.66	-30.5	-33.3	12.9	8.54e-05	0	43	102	1048576	22	4943
2026-01-06 23:12:38.68	127.70	26.57	-30.6	-33.3	12.9	3.73e-05	0	43	102	1048576	22	4958
2026-01-06 23:12:39.69	127.96	26.47	-30.7	-33.7	12.6	6.10e-05	0	43	102	1048576	22	5105
2026-01-06 23:12:40.69	128.21	26.38	-30.9	-34.4	12.2	2.37e-04	0	44	102	1048576	22	5361
2026-01-06 23:12:41.71	128.47	26.29	-31.5	-36.2	10.9	6.79e-04	0	44	102	1048576	22	6206
2026-01-06 23:12:42.71	128.73	26.19	-31.8	-36.8	10.1	5.12e-03	0	44	102	1048576	23	6384
2026-01-06 23:12:43.71	128.98	26.10	-31.8	-36.9	10.0	8.44e-03	0	44	102	1048576	23	6437
2026-01-06 23:12:44.72	129.23	26.00	-31.5	-35.9	10.7	5.94e-03	0	44	102	1048576	23	5936
2026-01-06 23:12:45.72	129.48	25.91	-31.1	-34.4	11.8	1.38e-03	0	44	102	1048576	23	5275
2026-01-06 23:12:46.73	129.73	25.82	-30.6	-33.6	12.7	1.83e-04	0	44	102	1048576	22	5046
2026-01-06 23:12:47.73	129.98	25.72	-30.6	-33.4	12.8	1.56e-04	0	44	102	1048576	22	4980
2026-01-06 23:12:48.74	130.23	25.63	-30.7	-33.7	12.6	7.93e-05	0	43	102	1048576	22	5096
2026-01-06 23:12:49.75	130.47	25.53	-30.9	-34.3	12.2	2.40e-04	0	43	102	1048576	22	5341
2026-01-06 23:12:50.76	130.72	25.43	-30.8	-34.0	12.4	3.55e-04	0	44	102	1048576	22	5223
2026-01-06 23:12:51.77	130.96	25.34	-30.3	-32.8	13.2	6.17e-05	0	44	102	1048576	22	4760
2026-01-06 23:12:52.77	131.20	25.24	-30.0	-32.3	13.8	1.25e-04	0	44	102	1048576	21	4695
2026-01-06 23:12:53.78	131.44	25.14	-29.8	-32.4	14.1	8.54e-05	0	44	102	1048576	20	4841
2026-01-06 23:12:54.78	131.68	25.05	-29.9	-32.5	14.0	3.00e-06	0	44	102	1048576	20	4886
2026-01-06 23:12:55.79	131.91	24.95	-30.3	-33.6	13.3	9.15e-05	0	43	102	1048576	20	5286
2026-01-06 23:12:56.79	132.15	24.86	-30.6	-33.9	12.7	1.79e-04	0	44	102	1048576	21	5303
2026-01-06 23:12:57.80	132.38	24.76	-30.7	-34.4	12.4	1.42e-04	0	43	102	1048576	21	5512
2026-01-06 23:12:58.81	132.61	24.66	-30.4	-33.6	12.9	3.22e-04	0	44	102	1048576	21	5171
2026-01-06 23:12:59.81	132.84	24.56	-30.0	-32.5	13.7	1.06e-05	0	43	102	1048576	21	4758
2026-01-06 23:13:00.82	133.07	24.47	-29.7	-32.2	14.2	7.00e-07	0	44	102	1048576	20	4765
2026-01-06 23:13:01.83	133.30	24.37	-29.7	-32.2	14.2	2.44e-05	0	44	102	1048576	20	4764
2026-01-06 23:13:02.83	133.53	24.27	-29.9	-32.6	13.9	4.50e-06	0	44	102	1048576	20	4913
2026-01-06 23:13:03.84	133.75	24.17	-30.1	-33.2	13.5	3.80e-06	0	43	102	1048576	20	5137
2026-01-06 23:13:04.85	133.98	24.08	-30.3	-33.7	13.1	2.21e-05	0	44	102	1048576	20	5356
2026-01-06 23:13:05.86	134.20	23.98	-30.3	-33.9	13.0	5.87e-05	0	43	102	1048576	20	5431
2026-01-06 23:13:06.86	134.42	23.88	-30.1	-33.3	13.4	2.05e-05	0	44	102	1048576	20	5181
2026-01-06 23:13:07.87	134.64	23.78	-29.9	-32.6	13.8	2.67e-04	0	44	102	1048576	20	4949
2026-01-06 23:13:08.87	134.86	23.68	-29.8	-32.8	14.1	3.17e-04	0	44	102	1048576	19	5128
2026-01-06 23:13:09.88	135.08	23.59	-29.7	-32.6	14.2	0.00e+00	0	44	102	1048576	19	5030
2026-01-06 23:13:10.89	135.29	23.49	-29.7	-32.6	14.2	1.50e-06	0	44	102	1048576	19	5053
2026-01-06 23:13:11.90	135.51	23.39	-30.0	-32.9	13.6	1.58e-04	0	44	102	1048576	20	5057
2026-01-06 23:13:12.91	135.72	23.29	-30.1	-33.2	13.4	1.06e-05	0	44	102	1048576	20	5178
2026-01-06 23:13:13.92	135.94	23.19	-30.2	-33.5	13.2	3.05e-05	0	44	102	1048576	20	5282
2026-01-06 23:13:14.92	136.15	23.09	-30.0	-33.1	13.5	1.67e-05	0	44	102	1048576	20	5121
2026-01-06 23:13:15.93	136.36	23.00	-29.8	-32.4	13.9	4.50e-06	0	44	102	1048576	20	4867
2026-01-06 23:13:16.94	136.57	22.90	-29.7	-32.1	14.1	6.10e-06	0	44	102	1048576	20	4771
2026-01-06 23:13:17.95	136.77	22.80	-29.7	-32.2	14.1	2.20e-06	0	43	102	1048576	20	4793
2026-01-06 23:13:18.95	136.98	22.70	-29.5	-31.7	14.3	2.20e-06	0	43	102	1048576	20	4629
2026-01-06 23:13:19.95	137.18	22.60	-29.6	-32.4	14.3	4.50e-06	0	43	102	1048576	19	4969
2026-01-06 23:13:20.95	137.38	22.51	-29.6	-32.5	14.2	0.00e+00	0	44	102	1048576	19	5016
2026-01-06 23:13:21.94	137.58	22.41	-29.7	-32.8	14.0	1.50e-06	0	44	102	1048576	19	5127
2026-01-06 23:13:22.95	137.78	22.31	-29.7	-32.6	14.1	0.00e+00	0	44	102	1048576	19	5043
2026-01-06 23:13:23.95	137.98	22.21	-29.6	-32.4	14.2	0.00e+00	0	44	102	1048576	19	4981
2026-01-06 23:13:24.95	138.18	22.12	-29.5	-32.3	14.4	7.00e-07	0	44	102	1048576	19	4917
2026-01-06 23:13:25.95	138.37	22.02	-29.6	-32.4	14.3	3.82e-04	0	44	102	1048576	19	4964
2026-01-06 23:13:26.96	138.57	21.92	-29.3	-31.6	14.7	0.00e+00	0	44	102	1048576	19	4703
2026-01-06 23:13:27.96	138.76	21.82	-29.2	-31.3	14.9	0.00e+00	0	44	102	1048576	19	4607
2026-01-06 23:13:28.97	138.96	21.72	-29.2	-31.9	14.9	7.00e-07	0	44	102	1048576	18	4920
2026-01-06 23:13:29.97	139.15	21.63	-29.3	-32.0	14.8	0.00e+00	0	44	102	1048576	18	4949
2026-01-06 23:13:30.97	139.34	21.53	-29.2	-32.0	14.8	0.00e+00	0	44	102	1048576	18	4929
2026-01-06 23:13:31.98	139.53	21.43	-29.3	-32.2	14.7	2.20e-06	0	44	102	1048576	18	5026
2026-01-06 23:13:32.99	139.72	21.33	-29.2	-31.9	14.8	0.00e+00	0	44	102	1048576	18	4911
2026-01-06 23:13:34.00	139.91	21.24	-29.1	-31.5	15.1	0.00e+00	0	44	102	1048576	18	4779
2026-01-06 23:13:35.00	140.09	21.14	-29.0	-31.3	15.2	1.50e-06	0	44	102	1048576	18	4707
2026-01-06 23:13:36.01	140.28	21.04	-28.9	-31.1	15.3	0.00e+00	0	44	102	1048576	18	4647
2026-01-06 23:13:37.03	140.46	20.94	-28.9	-31.3	15.2	0.00e+00	0	44	102	1048576	18	4708
2026-01-06 23:13:38.03	140.64	20.84	-28.8	-31.5	15.3	7.00e-07	0	44	102	1048576	17	4898
2026-01-06 23:13:39.04	140.83	20.75	-28.9	-31.7	15.2	0.00e+00	0	44	102	1048576	17	4972
2026-01-06 23:13:40.04	141.01	20.65	-29.1	-31.7	14.9	7.00e-07	0	44	102	1048576	18	4862
2026-01-06 23:13:41.05	141.19	20.55	-29.3	-32.2	14.6	7.00e-07	0	44	102	1048576	18	5028
2026-01-06 23:13:42.06	141.37	20.46	-29.2	-31.8	14.8	0.00e+00	0	43	102	1048576	18	4897
2026-01-06 23:13:43.06	141.54	20.36	-29.1	-31.6	15.0	0.00e+00	0	44	102	1048576	18	4810
2026-01-06 23:13:44.07	141.72	20.26	-29.0	-31.5	15.0	7.00e-07	0	44	102	1048576	18	4776
2026-01-06 23:13:45.08	141.90	20.17	-29.0	-31.4	15.1	0.00e+00	0	44	102	1048576	18	4754
2026-01-06 23:13:46.09	142.07	20.07	-29.0	-31.4	15.0	1.48e-03	0	44	102	1048576	18	4748
2026-01-06 23:13:47.09	142.24	19.97	-29.1	-31.7	14.8	0.00e+00	0	44	102	1048576	18	4862
2026-01-06 23:13:48.10	142.42	19.88	-29.0	-31.4	15.1	0.00e+00	0	44	102	1048576	18	4755
2026-01-06 23:13:49.11	142.59	19.78	-29.1	-31.6	14.9	0.00e+00	0	44	102	1048576	18	4803
2026-01-06 23:13:50.12	142.76	19.68	-29.2	-31.9	14.8	7.00e-07	0	44	102	1048576	18	4905
2026-01-06 23:13:51.13	142.93	19.59	-29.3	-32.2	14.5	7.00e-07	0	44	102	1048576	18	5030
2026-01-06 23:13:52.14	143.10	19.49	-29.5	-32.3	14.1	7.00e-07	0	44	102	1048576	19	4959
2026-01-06 23:13:53.14	143.26	19.40	-29.7	-32.7	13.9	1.60e-03	0	44	102	1048576	19	5081
2026-01-06 23:13:54.15	143.43	19.30	-29.9	-32.9	13.3	6.80e-06	0	44	102	1048576	20	5072
2026-01-06 23:13:55.16	143.59	19.20	-29.8	-33.2	13.5	1.37e-05	0	44	102	1048576	19	5273
2026-01-06 23:13:56.17	143.76	19.11	-29.7	-32.9	13.8	1.97e-03	0	44	102	1048576	19	5164
2026-01-06 23:13:57.18	143.92	19.01	-29.8	-33.2	13.5	7.60e-06	0	44	102	1048576	19	5281
2026-01-06 23:13:58.18	144.08	18.92	-29.6	-32.5	14.0	1.06e-05	0	44	102	1048576	19	5019
2026-01-06 23:13:59.19	144.24	18.82	-29.4	-32.5	14.2	2.06e-03	0	44	102	1048576	18	5154
2026-01-06 23:14:00.20	144.40	18.73	-29.4	-32.6	14.2	3.80e-06	0	44	102	1048576	18	5186
2026-01-06 23:14:01.21	144.56	18.63	-29.4	-32.4	14.3	2.20e-06	0	44	102	1048576	18	5117
2026-01-06 23:14:02.21	144.72	18.54	-29.5	-32.7	14.1	0.00e+00	0	44	102	1048576	18	5223
2026-01-06 23:14:03.22	144.88	18.45	-29.5	-32.4	14.0	1.50e-06	0	43	102	1048576	19	5018
2026-01-06 23:14:04.23	145.04	18.35	-29.6	-32.6	13.8	2.03e-03	0	44	102	1048576	19	5097
2026-01-06 23:14:05.24	145.19	18.26	-29.7	-33.0	13.6	3.80e-06	0	44	102	1048576	19	5237
2026-01-06 23:14:06.24	145.34	18.16	-29.6	-32.6	13.8	8.30e-06	0	44	102	1048576	19	5082
2026-01-06 23:14:07.24	145.50	18.07	-29.6	-32.6	13.8	2.26e-03	0	44	102	1048576	19	5089
2026-01-06 23:14:08.25	145.65	17.98	-29.6	-32.6	13.8	9.47e-04	0	44	102	1048576	19	5070
2026-01-06 23:14:09.26	145.80	17.88	-29.5	-32.4	13.9	5.30e-06	0	44	102	1048576	19	4996
2026-01-06 23:14:10.26	145.95	17.79	-29.6	-32.6	13.8	2.16e-03	0	43	102	1048576	19	5090
2026-01-06 23:14:11.27	146.10	17.70	-29.6	-32.5	13.9	1.99e-03	0	44	102	1048576	19	5025
2026-01-06 23:14:12.28	146.25	17.60	-29.7	-32.9	13.6	6.80e-06	0	44	102	1048576	19	5175
2026-01-06 23:14:13.28	146.40	17.51	-30.0	-33.5	13.2	2.01e-03	0	44	102	1048576	19	5423
2026-01-06 23:14:14.28	146.54	17.42	-29.9	-33.5	13.2	2.36e-03	0	44	102	1048576	19	5406
2026-01-06 23:14:15.29	146.69	17.33	-30.2	-33.7	12.6	2.97e-05	0	44	102	1048576	20	5404
2026-01-06 23:14:16.30	146.84	17.24	-30.4	-34.2	12.2	2.58e-03	0	44	102	1048576	20	5633
2026-01-06 23:14:17.31	146.98	17.14	-30.2	-33.8	12.5	2.47e-03	0	44	102	1048576	20	5455
2026-01-06 23:14:18.31	147.13	17.05	-30.3	-34.0	12.3	1.74e-04	0	44	102	1048576	20	5548
2026-01-06 23:14:19.32	147.27	16.96	-30.4	-34.3	12.1	2.62e-03	0	43	102	1048576	20	5679
2026-01-06 23:14:20.33	147.41	16.87	-30.3	-34.0	12.3	2.33e-03	0	43	102	1048576	20	5543
2026-01-06 23:14:21.33	147.55	16.78	-30.3	-34.0	12.3	1.72e-04	0	44	102	1048576	20	5561
2026-01-06 23:14:22.33	147.69	16.69	-30.3	-34.2	12.1	2.32e-03	0	43	102	1048576	20	5656
2026-01-06 23:14:23.34	147.83	16.60	-30.5	-34.7	11.8	2.74e-03	0	44	102	1048576	20	5864
2026-01-06 23:14:24.35	147.97	16.51	-30.6	-34.8	11.4	9.22e-04	0	44	102	1048576	21	5798
2026-01-06 23:14:25.35	148.11	16.42	-30.6	-34.8	11.4	3.48e-03	0	44	102	1048576	21	5805
2026-01-06 23:14:26.35	148.24	16.33	-30.8	-35.2	11.0	2.18e-03	0	44	102	1048576	21	6030
2026-01-06 23:14:27.36	148.38	16.24	-30.6	-34.8	11.3	1.58e-03	0	44	102	1048576	21	5830
2026-01-06 23:14:28.37	148.52	16.14	-30.5	-34.3	11.7	3.20e-03	0	44	102	1048576	21	5608
2026-01-06 23:14:29.37	148.65	16.06	-30.3	-34.4	12.0	3.38e-04	0	44	102	1048576	20	5743
2026-01-06 23:14:30.38	148.78	15.97	-30.3	-34.2	12.1	5.53e-04	0	44	102	1048576	20	5662
2026-01-06 23:14:31.39	148.92	15.88	-30.2	-34.0	12.2	2.47e-03	0	44	102	1048576	20	5568
2026-01-06 23:14:32.39	149.05	15.79	-30.1	-33.8	12.4	2.62e-03	0	44	102	1048576	20	5479
2026-01-06 23:14:33.40	149.18	15.70	-30.0	-33.3	12.7	9.46e-05	0	44	102	1048576	20	5290
2026-01-06 23:14:34.40	149.31	15.61	-29.9	-33.2	12.8	2.47e-03	0	44	102	1048576	20	5246
2026-01-06 23:14:35.41	149.44	15.52	-29.9	-33.2	12.7	2.43e-03	0	44	102	1048576	20	5258
2026-01-06 23:14:36.41	149.57	15.43	-30.1	-33.6	12.5	9.07e-05	0	44	102	1048576	20	5401
2026-01-06 23:14:37.42	149.70	15.34	-30.1	-33.8	12.3	2.64e-03	0	44	102	1048576	20	5486
2026-01-06 23:14:38.43	149.83	15.26	-30.2	-34.0	12.2	2.38e-03	0	44	102	1048576	20	5578
2026-01-06 23:14:39.43	149.96	15.17	-30.3	-34.4	11.9	4.84e-04	0	44	102	1048576	20	5758
2026-01-06 23:14:40.44	150.08	15.08	-30.2	-34.2	12.0	3.61e-04	0	44	102	1048576	20	5689
2026-01-06 23:14:41.44	150.21	14.99	-30.3	-34.3	11.9	2.99e-03	0	44	102	1048576	20	5725
2026-01-06 23:14:42.44	150.33	14.91	-30.2	-34.2	11.9	4.52e-04	0	43	102	1048576	20	5703
2026-01-06 23:14:43.45	150.46	14.82	-30.2	-34.2	11.9	3.17e-04	0	44	102	1048576	20	5679
2026-01-06 23:14:44.46	150.58	14.73	-30.2	-34.0	12.1	2.68e-04	0	43	102	1048576	20	5599
2026-01-06 23:14:45.46	150.70	14.65	-30.0	-33.6	12.3	5.07e-04	0	44	102	1048576	20	5438
2026-01-06 23:14:46.47	150.83	14.56	-29.9	-33.3	12.6	1.52e-04	0	44	102	1048576	20	5292
2026-01-06 23:14:47.48	150.95	14.47	-29.9	-33.8	12.6	1.16e-04	0	43	102	1048576	19	5594
2026-01-06 23:14:48.48	151.07	14.39	-29.9	-33.7	12.6	3.23e-04	0	43	102	1048576	19	5589
2026-01-06 23:14:49.48	151.19	14.30	-29.9	-33.1	12.6	1.05e-04	0	43	102	1048576	20	5252
2026-01-06 23:14:50.49	151.31	14.21	-29.9	-33.6	12.7	6.33e-05	0	44	102	1048576	19	5544
2026-01-06 23:14:51.49	151.42	14.13	-30.0	-34.0	12.5	8.62e-05	0	44	102	1048576	19	5694
2026-01-06 23:14:52.50	151.54	14.04	-30.0	-33.5	12.3	1.72e-04	0	44	102	1048576	20	5408
2026-01-06 23:14:53.51	151.66	13.96	-30.0	-33.7	12.2	1.80e-04	0	43	102	1048576	20	5494
2026-01-06 23:14:54.51	151.78	13.87	-30.1	-33.9	12.0	3.30e-04	0	44	102	1048576	20	5611
2026-01-06 23:14:55.52	151.89	13.79	-30.1	-34.1	11.9	4.24e-04	0	44	102	1048576	20	5697
2026-01-06 23:14:56.53	152.01	13.70	-30.2	-34.3	11.7	5.82e-04	0	44	102	1048576	20	5789
2026-01-06 23:14:57.53	152.12	13.62	-30.2	-34.4	11.7	5.67e-04	0	44	102	1048576	20	5807
2026-01-06 23:14:58.54	152.24	13.53	-30.2	-34.4	11.7	5.65e-04	0	44	102	1048576	20	5810
2026-01-06 23:14:59.54	152.35	13.45	-30.2	-34.2	11.8	5.16e-04	0	44	102	1048576	20	5733
2026-01-06 23:15:00.55	152.47	13.37	-30.0	-33.8	12.1	3.84e-04	0	44	102	1048576	20	5544
2026-01-06 23:15:01.56	152.58	13.28	-29.9	-33.4	12.3	2.02e-04	0	44	102	1048576	20	5401
2026-01-06 23:15:02.57	152.69	13.20	-29.8	-33.2	12.5	1.85e-04	0	44	102	1048576	20	5293
2026-01-06 23:15:03.58	152.80	13.12	-29.8	-33.0	12.5	9.30e-05	0	44	102	1048576	20	5216
2026-01-06 23:15:04.59	152.91	13.03	-29.8	-33.5	12.7	9.53e-05	0	44	102	1048576	19	5494
2026-01-06 23:15:05.60	153.03	12.95	-28.9	-32.5	12.8	4.80e-05	0	44	102	1048576	19	5472
2026-01-06 23:15:06.60	153.13	12.87	-29.8	-33.5	12.0	7.55e-05	0	44	102	1048576	19	5536
2026-01-06 23:15:07.61	153.24	12.78	-29.8	-33.7	11.7	1.26e-04	0	44	102	1048576	19	5584
2026-01-06 23:15:08.62	153.35	12.70	-29.7	-33.2	12.6	6.63e-05	0	44	102	1048576	19	5391
2026-01-06 23:15:09.63	153.46	12.62	-29.7	-33.2	12.9	4.11e-05	0	44	102	1048576	19	5390
2026-01-06 23:15:10.63	153.57	12.54	-29.7	-33.4	12.8	6.63e-05	0	44	102	1048576	19	5459
2026-01-06 23:15:11.64	153.67	12.45	-29.8	-33.6	12.6	7.93e-05	0	44	102	1048576	19	5549
2026-01-06 23:15:12.65	153.78	12.37	-30.0	-34.0	12.4	2.71e-03	0	44	102	1048576	19	5705
2026-01-06 23:15:13.66	153.89	12.29	-30.0	-33.6	12.2	1.55e-04	0	44	102	1048576	20	5438
2026-01-06 23:15:14.66	153.99	12.21	-30.1	-33.8	12.0	2.23e-04	0	44	102	1048576	20	5544
2026-01-06 23:15:15.67	154.09	12.13	-30.1	-34.0	11.9	3.24e-04	0	44	102	1048576	20	5623
2026-01-06 23:15:16.68	154.20	12.05	-30.1	-34.1	11.9	9.09e-04	0	44	102	1048576	20	5660
2026-01-06 23:15:17.68	154.30	11.97	-30.1	-34.0	11.9	4.49e-04	0	44	102	1048576	20	5646
2026-01-06 23:15:18.69	154.40	11.89	-30.1	-34.0	11.9	4.71e-04	0	44	102	1048576	20	5644
2026-01-06 23:15:19.70	154.51	11.81	-30.1	-34.1	11.8	2.88e-03	0	44	102	1048576	20	5665
2026-01-06 23:15:20.71	154.61	11.72	-30.2	-34.4	11.6	5.23e-04	0	44	102	1048576	20	5822
2026-01-06 23:15:21.72	154.71	11.64	-30.1	-34.1	11.8	7.14e-04	0	44	102	1048576	20	5667
2026-01-06 23:15:22.72	154.81	11.57	-30.0	-33.7	12.1	2.50e-03	0	44	102	1048576	20	5502
2026-01-06 23:15:23.73	154.91	11.49	-29.9	-33.4	12.3	4.29e-04	0	44	102	1048576	20	5394
2026-01-06 23:15:24.74	155.01	11.41	-30.0	-34.0	12.3	1.99e-04	0	44	102	1048576	19	5755
2026-01-06 23:15:25.75	155.11	11.33	-29.9	-34.0	12.3	2.60e-03	0	44	102	1048576	19	5718
2026-01-06 23:15:26.74	155.21	11.25	-29.9	-33.8	12.5	3.10e-04	0	44	102	1048576	19	5636
2026-01-06 23:15:27.75	155.31	11.17	-29.8	-33.5	12.7	7.78e-05	0	44	102	1048576	19	5510
2026-01-06 23:15:28.75	155.40	11.09	-29.9	-33.6	12.6	8.01e-05	0	43	102	1048576	19	5554
2026-01-06 23:15:29.76	155.50	11.01	-29.9	-33.7	12.6	2.84e-04	0	44	102	1048576	19	5562
2026-01-06 23:15:30.76	155.60	10.93	-29.9	-33.7	12.6	2.47e-03	0	43	102	1048576	19	5582
2026-01-06 23:15:31.77	155.69	10.86	-29.9	-33.7	12.5	9.91e-05	0	44	102	1048576	19	5581
2026-01-06 23:15:32.78	155.79	10.78	-30.0	-33.9	12.4	2.24e-04	0	44	102	1048576	19	5673
2026-01-06 23:15:33.78	155.88	10.70	-29.9	-33.8	12.5	2.30e-03	0	44	102	1048576	19	5638
2026-01-06 23:15:34.79	155.98	10.62	-30.0	-33.9	12.4	2.58e-03	0	44	102	1048576	19	5676
2026-01-06 23:15:35.80	156.07	10.54	-29.9	-33.9	12.4	2.62e-04	0	44	102	1048576	19	5659
2026-01-06 23:15:36.80	156.16	10.47	-30.0	-33.5	12.2	2.46e-03	0	43	102	1048576	20	5429
2026-01-06 23:15:37.82	156.26	10.39	-30.0	-33.8	12.0	2.58e-03	0	44	102	1048576	20	5531
2026-01-06 23:15:38.82	156.35	10.31	-30.0	-33.6	12.2	3.42e-04	0	44	102	1048576	20	5446
2026-01-06 23:15:39.82	156.44	10.24	-30.0	-33.5	12.2	2.62e-03	0	44	102	1048576	20	5418
2026-01-06 23:15:40.83	156.53	10.16	-30.0	-33.5	12.2	2.33e-03	0	44	102	1048576	20	5406
2026-01-06 23:15:41.84	156.63	10.08	-30.0	-33.6	12.2	2.20e-04	0	44	102	1048576	20	5438
2026-01-06 23:15:42.85	156.72	10.01	-30.1	-33.8	12.0	2.41e-03	0	44	102	1048576	20	5544
2026-01-06 23:15:43.85	156.81	9.93	-30.0	-33.6	12.1	2.72e-03	0	44	102	1048576	20	5444
2026-01-06 23:15:44.86	156.90	9.85	-30.1	-33.7	12.1	2.62e-04	0	44	102	1048576	20	5499
2026-01-06 23:15:45.86	156.99	9.78	-30.1	-33.8	12.0	2.54e-03	0	44	102	1048576	20	5519
2026-01-06 23:15:46.87	157.08	9.70	-30.2	-34.1	11.8	2.72e-03	0	44	102	1048576	20	5668
2026-01-06 23:15:47.88	157.16	9.63	-30.1	-34.0	11.8	5.26e-04	0	44	102	1048576	20	5628
2026-01-06 23:15:48.88	157.25	9.55	-30.2	-34.3	11.6	5.97e-04	0	44	102	1048576	20	5765
2026-01-06 23:15:49.89	157.34	9.48	-30.2	-34.1	11.7	2.79e-03	0	44	102	1048576	20	5684
2026-01-06 23:15:50.89	157.43	9.40	-30.2	-34.1	11.7	5.49e-04	0	44	102	1048576	20	5672
2026-01-06 23:15:51.90	157.51	9.33	-30.1	-34.1	11.8	2.60e-03	0	44	102	1048576	20	5662
2026-01-06 23:15:52.91	157.60	9.25	-30.3	-34.6	11.4	7.54e-04	0	44	102	1048576	20	5888
2026-01-06 23:15:53.91	157.69	9.18	-30.3	-34.5	11.4	1.04e-03	0	44	102	1048576	20	5886
2026-01-06 23:15:54.92	157.77	9.11	-30.3	-34.7	11.3	3.51e-03	0	43	102	1048576	20	5952
2026-01-06 23:15:55.93	157.86	9.03	-30.4	-35.0	11.1	1.62e-03	0	44	102	1048576	20	6109
2026-01-06 23:15:56.93	157.94	8.96	-30.4	-34.8	11.1	1.78e-03	0	44	102	1048576	20	6039
2026-01-06 23:15:57.93	158.03	8.88	-30.3	-34.6	11.3	3.61e-03	0	44	102	1048576	20	5942
2026-01-06 23:15:58.94	158.11	8.81	-30.4	-35.0	11.0	1.59e-03	0	43	102	1048576	20	6094
2026-01-06 23:15:59.94	158.19	8.74	-30.3	-34.7	11.3	1.29e-03	0	43	102	1048576	20	5943
2026-01-06 23:16:00.95	158.28	8.66	-30.3	-34.7	11.2	3.40e-03	0	44	102	1048576	20	5983
2026-01-06 23:16:01.96	158.36	8.59	-30.4	-34.9	11.1	3.81e-03	0	44	102	1048576	20	6040
2026-01-06 23:16:02.97	158.44	8.52	-30.4	-35.1	10.9	1.87e-03	0	44	102	1048576	20	6138
2026-01-06 23:16:03.98	158.52	8.44	-30.4	-35.0	11.0	1.89e-03	0	44	102	1048576	20	6097
2026-01-06 23:16:04.99	158.61	8.37	-30.3	-34.8	11.2	4.02e-03	0	44	102	1048576	20	5992
2026-01-06 23:16:06.00	158.69	8.30	-30.4	-34.9	11.1	1.45e-03	0	44	102	1048576	20	6047
2026-01-06 23:16:07.01	158.77	8.23	-30.4	-34.8	11.1	1.57e-03	0	44	102	1048576	20	6025
2026-01-06 23:16:08.01	158.85	8.16	-30.4	-35.0	11.0	3.91e-03	0	44	102	1048576	20	6116
2026-01-06 23:16:09.02	158.93	8.08	-30.4	-35.0	11.0	2.12e-03	0	44	102	1048576	20	6099
2026-01-06 23:16:10.03	159.01	8.01	-30.4	-34.9	11.1	1.71e-03	0	44	102	1048576	20	6044
2026-01-06 23:16:11.03	159.09	7.94	-30.4	-35.0	10.9	1.72e-03	0	44	102	1048576	20	6116
2026-01-06 23:16:12.04	159.17	7.87	-30.4	-35.0	10.9	2.22e-03	0	44	102	1048576	20	6139
2026-01-06 23:16:13.05	159.25	7.80	-30.4	-35.0	10.9	2.01e-03	0	44	102	1048576	20	6154
2026-01-06 23:16:14.06	159.32	7.73	-30.4	-35.3	10.6	2.40e-03	0	44	102	1048576	20	6317
2026-01-06 23:16:15.06	159.40	7.65	-30.4	-35.1	10.8	2.70e-03	0	44	102	1048576	20	6196
2026-01-06 23:16:16.07	159.48	7.58	-30.4	-35.2	10.7	2.89e-03	0	44	102	1048576	20	6252
2026-01-06 23:16:17.06	159.56	7.51	-30.4	-35.2	10.6	3.16e-03	0	43	102	1048576	20	6295
2026-01-06 23:16:18.07	159.63	7.44	-30.4	-35.3	10.5	3.77e-03	0	44	102	1048576	20	6352
2026-01-06 23:16:19.08	159.71	7.37	-30.5	-35.8	10.1	5.59e-03	0	44	102	1048576	20	6623
2026-01-06 23:16:20.09	159.79	7.30	-30.5	-35.4	10.0	7.18e-03	0	44	102	1048576	21	6315
2026-01-06 23:16:21.09	159.86	7.23	-30.6	-35.8	9.7	8.98e-03	0	44	102	1048576	21	6524
2026-01-06 23:16:22.10	159.94	7.16	-30.7	-35.8	9.7	1.11e-02	0	44	102	1048576	21	6527
2026-01-06 23:16:23.11	160.01	7.09	-30.7	-35.8	9.7	1.07e-02	0	44	102	1048576	21	6524
2026-01-06 23:16:24.12	160.09	7.02	-32.3	-46.3	3.8	1.47e+00	0	44	104	1048576	25	18044
2026-01-06 23:16:25.13	160.16	6.95	-32.4	-46.6	3.8	1.49e+00	0	44	104	1048576	26	18447
2026-01-06 23:16:26.13	160.23	6.88	-33.5	-47.6	3.8	1.49e+00	0	44	104	1048576	27	18359

#Closed at: 2026-01-06 23:16:26
#Recorded file [1 MB]: D:/data/31010_260107_020523.dat