passes_logs/2026/01/06/R2M6_AANII_01/R2M6_AANII_01__20260106_131740_FENGYUN_3D_rec.log

#Pass ID: 20260106_131740_FENGYUN 3D
#Satellite: FENGYUN 3D
#Configuration: FENGYUN 3D
#almurnet v.1.7.20240730
#Start time: 2026-01-06 13:17:42

#Version: 2.2.20231116
#Station: R2M6_AANII_01
#Location: 30.233357 lon 59.946436 lat
#TLE: 1 43010U 17072A   26005.63011380 -.00000074  00000+0 -13266-4 0  9994
#TLE: 2 43010  98.9921 337.3013 0002022 125.0204 235.1161 14.19691768421927

#Time	Az	El	Level	Level2	SNR	BER	BlckErr	Temp	State	Recorded	gain1	gain2
2026-01-06 13:17:42.16	190.27	7.14	-28.0	-30.8	5.6	7.73e-01	0	41	0	0	15	5000
2026-01-06 13:17:43.16	190.33	7.21	-28.6	-30.8	5.6	7.79e-01	0	41	104	0	18	4633
2026-01-06 13:17:44.17	190.39	7.29	-28.9	-31.7	10.5	3.53e-03	0	41	0	0	18	4936
2026-01-06 13:17:45.17	190.45	7.36	-28.5	-30.7	11.1	1.45e-03	0	41	102	1048576	18	4596
2026-01-06 13:17:46.18	190.51	7.43	-28.0	-29.9	12.0	3.86e-04	0	41	102	1048576	17	4460
2026-01-06 13:17:47.19	190.57	7.51	-27.8	-29.3	12.3	1.15e-04	0	41	102	1048576	17	4279
2026-01-06 13:17:48.19	190.63	7.58	-27.3	-28.7	13.0	4.11e-05	0	41	102	1048576	16	4206
2026-01-06 13:17:49.19	190.69	7.66	-26.9	-28.1	13.5	4.50e-06	0	41	102	1048576	15	4167
2026-01-06 13:17:50.20	190.75	7.73	-26.9	-28.1	13.5	4.50e-06	0	41	102	1048576	15	4155
2026-01-06 13:17:51.20	190.81	7.81	-26.7	-28.3	13.7	1.10e-06	0	41	102	1048576	14	4303
2026-01-06 13:17:52.21	190.88	7.88	-26.8	-28.4	13.6	2.20e-06	0	41	102	1048576	14	4353
2026-01-06 13:17:53.21	190.94	7.96	-26.8	-28.4	13.7	3.40e-06	0	41	102	1048576	14	4328
2026-01-06 13:17:54.21	191.00	8.03	-26.9	-28.8	13.4	2.20e-06	0	41	102	1048576	14	4452
2026-01-06 13:17:55.22	191.06	8.11	-26.7	-28.2	13.8	0.00e+00	0	41	102	1048576	14	4288
2026-01-06 13:17:56.22	191.13	8.18	-26.5	-27.8	14.0	2.20e-06	0	41	102	1048576	14	4178
2026-01-06 13:17:57.22	191.19	8.26	-26.3	-27.3	14.4	1.10e-06	0	42	102	1048576	14	4034
2026-01-06 13:17:58.22	191.25	8.33	-26.3	-27.7	14.4	0.00e+00	0	41	102	1048576	13	4259
2026-01-06 13:17:59.23	191.32	8.41	-26.3	-27.7	14.4	0.00e+00	0	42	102	1048576	13	4263
2026-01-06 13:18:00.24	191.38	8.49	-26.3	-27.7	14.4	2.20e-06	0	42	102	1048576	13	4253
2026-01-06 13:18:01.25	191.45	8.56	-26.2	-27.7	14.5	0.00e+00	0	42	102	1048576	13	4240
2026-01-06 13:18:02.25	191.51	8.64	-26.2	-27.5	14.5	0.00e+00	0	42	102	1048576	13	4205
2026-01-06 13:18:03.25	191.58	8.72	-26.1	-27.4	14.6	0.00e+00	0	42	102	1048576	13	4182
2026-01-06 13:18:04.26	191.65	8.79	-26.2	-27.4	14.6	2.20e-06	0	42	102	1048576	13	4176
2026-01-06 13:18:05.27	191.71	8.87	-26.2	-27.6	14.5	0.00e+00	0	42	102	1048576	13	4216
2026-01-06 13:18:06.28	191.78	8.95	-26.3	-27.8	14.4	0.00e+00	0	42	102	1048576	13	4284
2026-01-06 13:18:07.28	191.85	9.03	-26.2	-27.6	14.5	0.00e+00	0	42	102	1048576	13	4226
2026-01-06 13:18:08.29	191.91	9.11	-26.3	-27.8	14.4	2.20e-06	0	42	102	1048576	13	4270
2026-01-06 13:18:09.30	191.98	9.19	-26.3	-27.8	14.4	0.00e+00	0	42	102	1048576	13	4281
2026-01-06 13:18:10.31	192.05	9.26	-26.2	-27.6	14.6	0.00e+00	0	42	102	1048576	13	4207
2026-01-06 13:18:11.31	192.12	9.34	-26.2	-27.5	14.6	0.00e+00	0	42	102	1048576	13	4182
2026-01-06 13:18:12.32	192.19	9.42	-26.3	-27.7	14.5	0.00e+00	0	42	102	1048576	13	4260
2026-01-06 13:18:13.33	192.26	9.50	-26.2	-27.6	14.5	1.48e-05	0	42	102	1048576	13	4233
2026-01-06 13:18:14.33	192.32	9.58	-26.3	-27.7	14.5	0.00e+00	0	42	102	1048576	13	4242
2026-01-06 13:18:15.34	192.39	9.66	-26.0	-27.1	14.8	0.00e+00	0	42	102	1048576	13	4089
2026-01-06 13:18:16.35	192.46	9.74	-25.8	-26.7	15.1	1.14e-05	0	42	102	1048576	13	3978
2026-01-06 13:18:17.36	192.54	9.82	-25.7	-27.0	15.2	0.00e+00	0	42	102	1048576	12	4149
2026-01-06 13:18:18.37	192.61	9.90	-25.8	-27.1	15.2	1.10e-06	0	42	102	1048576	12	4191
2026-01-06 13:18:19.38	192.68	9.98	-25.6	-26.7	15.4	1.25e-05	0	42	102	1048576	12	4074
2026-01-06 13:18:20.39	192.75	10.06	-25.7	-26.9	15.3	0.00e+00	0	42	102	1048576	12	4134
2026-01-06 13:18:21.39	192.82	10.15	-25.7	-27.0	15.2	0.00e+00	0	42	102	1048576	12	4157
2026-01-06 13:18:22.40	192.89	10.23	-25.7	-26.8	15.3	8.00e-06	0	42	102	1048576	12	4108
2026-01-06 13:18:23.40	192.97	10.31	-25.6	-26.8	15.4	0.00e+00	0	42	102	1048576	12	4098
2026-01-06 13:18:24.41	193.04	10.39	-25.6	-26.7	15.4	0.00e+00	0	42	102	1048576	12	4090
2026-01-06 13:18:25.42	193.11	10.47	-25.7	-26.9	15.3	1.37e-05	0	42	102	1048576	12	4122
2026-01-06 13:18:26.43	193.19	10.56	-25.7	-26.8	15.3	0.00e+00	0	42	102	1048576	12	4119
2026-01-06 13:18:27.43	193.26	10.64	-25.7	-27.0	15.2	0.00e+00	0	42	102	1048576	12	4162
2026-01-06 13:18:28.44	193.34	10.72	-25.8	-27.0	15.2	1.71e-05	0	42	102	1048576	12	4170
2026-01-06 13:18:29.45	193.41	10.80	-25.8	-27.2	15.2	0.00e+00	0	42	102	1048576	12	4209
2026-01-06 13:18:30.46	193.49	10.89	-25.9	-27.3	15.1	0.00e+00	0	42	102	1048576	12	4234
2026-01-06 13:18:31.47	193.56	10.97	-25.9	-27.3	15.1	0.00e+00	0	42	102	1048576	12	4244
2026-01-06 13:18:32.48	193.64	11.05	-25.9	-27.5	15.0	0.00e+00	0	42	102	1048576	12	4293
2026-01-06 13:18:33.48	193.72	11.14	-25.9	-27.4	15.0	0.00e+00	0	42	102	1048576	12	4262
2026-01-06 13:18:34.49	193.79	11.22	-25.9	-27.3	15.1	0.00e+00	0	42	102	1048576	12	4258
2026-01-06 13:18:35.49	193.87	11.31	-25.8	-27.2	15.1	0.00e+00	0	42	102	1048576	12	4227
2026-01-06 13:18:36.50	193.95	11.39	-25.8	-27.2	15.2	0.00e+00	0	42	102	1048576	12	4220
2026-01-06 13:18:37.51	194.03	11.48	-25.8	-27.1	15.3	0.00e+00	0	42	102	1048576	12	4186
2026-01-06 13:18:38.51	194.11	11.56	-25.9	-27.2	15.2	0.00e+00	0	42	102	1048576	12	4225
2026-01-06 13:18:39.51	194.19	11.65	-25.9	-27.3	15.2	0.00e+00	0	43	102	1048576	12	4236
2026-01-06 13:18:40.51	194.27	11.73	-25.7	-26.8	15.4	0.00e+00	0	43	102	1048576	12	4117
2026-01-06 13:18:41.52	194.35	11.82	-25.6	-26.7	15.5	0.00e+00	0	43	102	1048576	12	4080
2026-01-06 13:18:42.52	194.43	11.90	-25.6	-26.7	15.5	0.00e+00	0	43	102	1048576	12	4079
2026-01-06 13:18:43.53	194.51	11.99	-25.6	-26.7	15.5	0.00e+00	0	42	102	1048576	12	4090
2026-01-06 13:18:44.54	194.59	12.08	-25.7	-26.9	15.4	0.00e+00	0	42	102	1048576	12	4135
2026-01-06 13:18:45.55	194.67	12.16	-25.7	-26.9	15.4	0.00e+00	0	43	102	1048576	12	4144
2026-01-06 13:18:46.55	194.75	12.25	-25.7	-26.9	15.4	0.00e+00	0	43	102	1048576	12	4139
2026-01-06 13:18:47.56	194.84	12.34	-25.7	-26.9	15.4	0.00e+00	0	43	102	1048576	12	4130
2026-01-06 13:18:48.57	194.92	12.43	-25.6	-26.8	15.5	0.00e+00	0	43	102	1048576	12	4102
2026-01-06 13:18:49.57	195.00	12.51	-25.6	-26.6	15.6	0.00e+00	0	43	102	1048576	12	4056
2026-01-06 13:18:50.58	195.09	12.60	-25.5	-26.5	15.6	0.00e+00	0	43	102	1048576	12	4022
2026-01-06 13:18:51.58	195.17	12.69	-25.6	-26.6	15.6	0.00e+00	0	43	102	1048576	12	4064
2026-01-06 13:18:52.59	195.26	12.78	-25.5	-26.5	15.6	0.00e+00	0	43	102	1048576	12	4034
2026-01-06 13:18:53.59	195.34	12.87	-25.5	-26.5	15.7	0.00e+00	0	43	102	1048576	12	4019
2026-01-06 13:18:54.59	195.43	12.96	-25.4	-26.3	15.8	0.00e+00	0	43	102	1048576	12	3977
2026-01-06 13:18:55.60	195.52	13.05	-25.3	-26.0	15.9	0.00e+00	0	43	102	1048576	12	3909
2026-01-06 13:18:56.61	195.61	13.14	-25.3	-26.6	16.0	0.00e+00	0	43	102	1048576	11	4158
2026-01-06 13:18:57.61	195.69	13.23	-25.3	-26.5	16.0	0.00e+00	0	43	102	1048576	11	4124
2026-01-06 13:18:58.61	195.78	13.32	-25.3	-26.4	16.1	0.00e+00	0	43	102	1048576	11	4104
2026-01-06 13:18:59.62	195.87	13.41	-25.3	-26.5	16.0	0.00e+00	0	43	102	1048576	11	4131
2026-01-06 13:19:00.63	195.96	13.50	-25.3	-26.5	16.0	0.00e+00	0	43	102	1048576	11	4139
2026-01-06 13:19:01.63	196.05	13.59	-25.2	-26.2	16.2	0.00e+00	0	43	102	1048576	11	4066
2026-01-06 13:19:02.64	196.14	13.68	-25.2	-26.2	16.2	0.00e+00	0	43	102	1048576	11	4063
2026-01-06 13:19:03.65	196.23	13.77	-25.3	-26.5	16.0	0.00e+00	0	43	102	1048576	11	4135
2026-01-06 13:19:04.65	196.32	13.87	-25.3	-26.5	16.1	0.00e+00	0	43	102	1048576	11	4122
2026-01-06 13:19:05.66	196.42	13.96	-25.2	-26.2	16.2	0.00e+00	0	43	102	1048576	11	4057
2026-01-06 13:19:06.66	196.51	14.05	-25.2	-26.2	16.2	1.10e-06	0	43	102	1048576	11	4068
2026-01-06 13:19:07.67	196.60	14.14	-25.1	-26.1	16.3	0.00e+00	0	43	102	1048576	11	4035
2026-01-06 13:19:08.66	196.69	14.24	-25.1	-26.1	16.3	0.00e+00	0	43	102	1048576	11	4027
2026-01-06 13:19:09.67	196.79	14.33	-25.1	-26.1	16.2	0.00e+00	0	43	102	1048576	11	4032
2026-01-06 13:19:10.67	196.88	14.42	-25.1	-26.0	16.3	0.00e+00	0	43	102	1048576	11	4004
2026-01-06 13:19:11.68	196.98	14.52	-25.0	-25.7	16.5	0.00e+00	0	43	102	1048576	11	3940
2026-01-06 13:19:12.69	197.08	14.61	-25.0	-25.9	16.4	0.00e+00	0	43	102	1048576	11	3987
2026-01-06 13:19:13.69	197.17	14.71	-25.0	-25.9	16.4	0.00e+00	0	43	102	1048576	11	3970
2026-01-06 13:19:14.70	197.27	14.80	-25.0	-25.8	16.5	0.00e+00	0	43	102	1048576	11	3951
2026-01-06 13:19:15.71	197.37	14.90	-25.0	-25.9	16.4	1.14e-05	0	43	102	1048576	11	3978
2026-01-06 13:19:16.72	197.47	14.99	-25.0	-25.8	16.5	0.00e+00	0	43	102	1048576	11	3944
2026-01-06 13:19:17.73	197.57	15.09	-24.9	-25.6	16.5	0.00e+00	0	43	102	1048576	11	3915
2026-01-06 13:19:18.73	197.66	15.19	-25.0	-25.8	16.5	2.20e-06	0	43	102	1048576	11	3954
2026-01-06 13:19:19.74	197.77	15.28	-24.9	-25.5	16.6	0.00e+00	0	43	102	1048576	11	3892
2026-01-06 13:19:20.75	197.87	15.38	-24.8	-25.4	16.7	0.00e+00	0	43	102	1048576	11	3853
2026-01-06 13:19:21.75	197.97	15.48	-24.8	-25.4	16.7	4.50e-06	0	43	102	1048576	11	3854
2026-01-06 13:19:22.75	198.07	15.57	-24.8	-25.4	16.7	0.00e+00	0	43	102	1048576	11	3859
2026-01-06 13:19:23.76	198.17	15.67	-25.0	-25.9	16.4	0.00e+00	0	43	102	1048576	11	3976
2026-01-06 13:19:24.77	198.28	15.77	-24.8	-25.5	16.7	5.70e-06	0	43	102	1048576	11	3876
2026-01-06 13:19:25.78	198.38	15.87	-24.5	-25.3	17.0	0.00e+00	0	43	102	1048576	10	3938
2026-01-06 13:19:26.78	198.49	15.97	-24.3	-24.9	17.2	0.00e+00	0	43	102	1048576	10	3843
2026-01-06 13:19:27.79	198.59	16.07	-24.4	-25.0	17.2	5.70e-06	0	43	102	1048576	10	3857
2026-01-06 13:19:28.80	198.70	16.17	-24.2	-25.2	17.3	0.00e+00	0	43	102	1048576	9	4012
2026-01-06 13:19:29.80	198.80	16.27	-24.4	-25.4	17.2	0.00e+00	0	43	102	1048576	9	4068
2026-01-06 13:19:30.81	198.91	16.37	-24.3	-25.3	17.3	0.00e+00	0	43	102	1048576	9	4043
2026-01-06 13:19:31.82	199.02	16.47	-24.4	-25.6	17.1	0.00e+00	0	43	102	1048576	9	4107
2026-01-06 13:19:32.82	199.13	16.57	-24.5	-25.7	17.1	0.00e+00	0	43	102	1048576	9	4138
2026-01-06 13:19:33.83	199.24	16.67	-24.5	-25.7	17.1	0.00e+00	0	43	102	1048576	9	4129
2026-01-06 13:19:34.84	199.35	16.77	-24.6	-25.9	17.0	0.00e+00	0	43	102	1048576	9	4197
2026-01-06 13:19:35.83	199.46	16.87	-24.6	-26.0	17.0	0.00e+00	0	43	102	1048576	9	4209
2026-01-06 13:19:36.84	199.57	16.97	-24.5	-25.8	17.0	0.00e+00	0	43	102	1048576	9	4166
2026-01-06 13:19:37.84	199.68	17.07	-24.5	-25.9	17.0	0.00e+00	0	43	102	1048576	9	4184
2026-01-06 13:19:38.84	199.80	17.18	-24.4	-25.6	17.2	0.00e+00	0	43	102	1048576	9	4114
2026-01-06 13:19:39.85	199.91	17.28	-24.4	-25.6	17.2	0.00e+00	0	43	102	1048576	9	4127
2026-01-06 13:19:40.86	200.03	17.38	-24.4	-25.6	17.2	0.00e+00	0	43	102	1048576	9	4114
2026-01-06 13:19:41.86	200.14	17.48	-24.6	-26.0	17.0	0.00e+00	0	43	102	1048576	9	4214
2026-01-06 13:19:42.87	200.26	17.59	-24.4	-25.5	17.2	0.00e+00	0	43	102	1048576	9	4096
2026-01-06 13:19:43.88	200.38	17.69	-24.2	-25.0	17.5	0.00e+00	0	43	102	1048576	9	3980
2026-01-06 13:19:44.89	200.49	17.80	-24.1	-24.8	17.6	0.00e+00	0	43	102	1048576	9	3922
2026-01-06 13:19:45.89	200.61	17.90	-24.0	-24.8	17.6	0.00e+00	0	43	102	1048576	9	3908
2026-01-06 13:19:46.90	200.73	18.01	-24.0	-24.7	17.7	0.00e+00	0	43	102	1048576	9	3894
2026-01-06 13:19:47.91	200.85	18.11	-24.0	-24.7	17.7	0.00e+00	0	43	102	1048576	9	3885
2026-01-06 13:19:48.92	200.97	18.22	-24.1	-24.9	17.5	0.00e+00	0	43	102	1048576	9	3956
2026-01-06 13:19:49.93	201.10	18.33	-24.0	-24.6	17.7	0.00e+00	0	43	102	1048576	9	3869
2026-01-06 13:19:50.93	201.22	18.43	-23.9	-24.4	17.8	0.00e+00	0	43	102	1048576	9	3821
2026-01-06 13:19:51.94	201.34	18.54	-23.9	-24.4	17.8	0.00e+00	0	43	102	1048576	9	3815
2026-01-06 13:19:52.95	201.47	18.65	-23.8	-24.2	17.9	0.00e+00	0	43	102	1048576	9	3780
2026-01-06 13:19:53.95	201.59	18.75	-23.8	-24.7	17.9	0.00e+00	0	43	102	1048576	8	4009
2026-01-06 13:19:54.96	201.72	18.86	-23.7	-24.6	18.0	0.00e+00	0	43	102	1048576	8	3971
2026-01-06 13:19:55.96	201.85	18.97	-23.8	-24.7	17.9	0.00e+00	0	43	102	1048576	8	4001
2026-01-06 13:19:56.97	201.97	19.08	-23.7	-24.5	18.0	0.00e+00	0	43	102	1048576	8	3951
2026-01-06 13:19:57.97	202.10	19.19	-23.8	-24.6	18.0	0.00e+00	0	43	102	1048576	8	3986
2026-01-06 13:19:58.98	202.23	19.30	-23.7	-24.6	18.0	0.00e+00	0	43	102	1048576	8	3972
2026-01-06 13:19:59.99	202.36	19.41	-23.9	-24.9	17.8	0.00e+00	0	43	102	1048576	8	4057
2026-01-06 13:20:01.00	202.49	19.52	-23.9	-24.9	17.8	0.00e+00	0	43	102	1048576	8	4058
2026-01-06 13:20:02.01	202.63	19.63	-24.0	-25.1	17.7	0.00e+00	0	43	102	1048576	8	4108
2026-01-06 13:20:03.02	202.76	19.74	-23.9	-25.1	17.8	0.00e+00	0	43	102	1048576	8	4095
2026-01-06 13:20:04.02	202.90	19.85	-24.0	-25.1	17.8	0.00e+00	0	43	102	1048576	8	4104
2026-01-06 13:20:05.03	203.03	19.96	-24.0	-25.2	17.7	0.00e+00	0	43	102	1048576	8	4128
2026-01-06 13:20:06.04	203.17	20.07	-24.2	-25.5	17.6	4.50e-06	0	43	102	1048576	8	4211
2026-01-06 13:20:07.04	203.30	20.18	-23.9	-24.9	17.9	0.00e+00	0	43	102	1048576	8	4050
2026-01-06 13:20:08.05	203.44	20.30	-23.8	-24.8	17.9	0.00e+00	0	43	102	1048576	8	4032
2026-01-06 13:20:09.06	203.58	20.41	-23.9	-25.0	17.9	0.00e+00	0	43	102	1048576	8	4073
2026-01-06 13:20:10.06	203.72	20.52	-23.7	-24.6	18.0	0.00e+00	0	43	102	1048576	8	3981
2026-01-06 13:20:11.07	203.86	20.64	-23.8	-24.7	18.0	0.00e+00	0	43	102	1048576	8	3997
2026-01-06 13:20:12.08	204.01	20.75	-23.9	-24.9	17.9	0.00e+00	0	43	102	1048576	8	4052
2026-01-06 13:20:13.09	204.15	20.86	-23.7	-24.5	18.1	0.00e+00	0	43	102	1048576	8	3961
2026-01-06 13:20:14.10	204.29	20.98	-23.5	-24.2	18.3	0.00e+00	0	43	102	1048576	8	3883
2026-01-06 13:20:15.10	204.44	21.09	-23.5	-24.2	18.3	5.70e-06	0	43	102	1048576	8	3877
2026-01-06 13:20:16.11	204.59	21.21	-23.5	-24.2	18.3	0.00e+00	0	43	102	1048576	8	3878
2026-01-06 13:20:17.11	204.73	21.32	-23.6	-24.4	18.2	0.00e+00	0	43	102	1048576	8	3925
2026-01-06 13:20:18.12	204.88	21.44	-23.5	-24.1	18.3	4.50e-06	0	43	102	1048576	8	3859
2026-01-06 13:20:19.13	205.03	21.56	-23.6	-24.2	18.3	0.00e+00	0	43	102	1048576	8	3891
2026-01-06 13:20:20.13	205.18	21.67	-23.6	-24.4	18.2	0.00e+00	0	43	102	1048576	8	3919
2026-01-06 13:20:21.13	205.33	21.79	-23.7	-24.4	18.2	1.10e-06	0	43	102	1048576	8	3934
2026-01-06 13:20:22.13	205.48	21.90	-23.7	-24.5	18.1	0.00e+00	0	43	102	1048576	8	3956
2026-01-06 13:20:23.13	205.64	22.02	-23.7	-24.5	18.1	0.00e+00	0	43	102	1048576	8	3953
2026-01-06 13:20:24.14	205.79	22.14	-23.7	-24.5	18.1	5.70e-06	0	43	102	1048576	8	3960
2026-01-06 13:20:25.15	205.95	22.26	-23.7	-24.5	18.1	0.00e+00	0	43	102	1048576	8	3961
2026-01-06 13:20:26.16	206.11	22.38	-23.7	-24.5	18.2	0.00e+00	0	43	102	1048576	8	3957
2026-01-06 13:20:27.16	206.26	22.50	-23.6	-24.2	18.3	5.70e-06	0	43	102	1048576	8	3879
2026-01-06 13:20:28.17	206.42	22.61	-23.6	-24.2	18.3	0.00e+00	0	43	102	1048576	8	3884
2026-01-06 13:20:29.17	206.58	22.73	-23.7	-24.4	18.2	0.00e+00	0	43	102	1048576	8	3924
2026-01-06 13:20:30.17	206.75	22.85	-23.7	-24.6	18.2	4.50e-06	0	43	102	1048576	8	3960
2026-01-06 13:20:31.18	206.91	22.97	-23.4	-23.9	18.5	0.00e+00	0	43	102	1048576	8	3809
2026-01-06 13:20:32.19	207.07	23.09	-23.2	-24.0	18.6	0.00e+00	0	43	102	1048576	7	3941
2026-01-06 13:20:33.20	207.24	23.21	-23.4	-24.4	18.5	0.00e+00	0	43	102	1048576	7	4031
2026-01-06 13:20:34.21	207.41	23.34	-23.4	-24.4	18.5	0.00e+00	0	43	102	1048576	7	4038
2026-01-06 13:20:35.22	207.58	23.46	-23.4	-24.3	18.5	0.00e+00	0	43	102	1048576	7	4013
2026-01-06 13:20:36.23	207.75	23.58	-23.4	-24.3	18.5	0.00e+00	0	43	102	1048576	7	4018
2026-01-06 13:20:37.23	207.92	23.70	-23.4	-24.3	18.5	0.00e+00	0	43	102	1048576	7	4007
2026-01-06 13:20:38.24	208.09	23.82	-23.2	-24.0	18.7	0.00e+00	0	43	102	1048576	7	3926
2026-01-06 13:20:39.25	208.26	23.95	-23.2	-23.9	18.7	0.00e+00	0	43	102	1048576	7	3912
2026-01-06 13:20:40.25	208.44	24.07	-23.3	-24.1	18.6	0.00e+00	0	43	102	1048576	7	3973
2026-01-06 13:20:41.26	208.62	24.19	-23.4	-24.3	18.6	0.00e+00	0	43	102	1048576	7	4013
2026-01-06 13:20:42.26	208.79	24.32	-23.4	-24.4	18.5	0.00e+00	0	43	102	1048576	7	4045
2026-01-06 13:20:43.27	208.97	24.44	-23.2	-24.0	18.7	0.00e+00	0	43	102	1048576	7	3928
2026-01-06 13:20:44.28	209.15	24.57	-23.0	-23.6	18.9	0.00e+00	0	43	102	1048576	7	3837
2026-01-06 13:20:45.29	209.33	24.69	-23.0	-23.6	18.9	0.00e+00	0	43	102	1048576	7	3834
2026-01-06 13:20:46.30	209.52	24.82	-23.1	-23.7	18.9	0.00e+00	0	43	102	1048576	7	3856
2026-01-06 13:20:47.31	209.70	24.94	-23.1	-23.8	18.8	0.00e+00	0	43	102	1048576	7	3901
2026-01-06 13:20:48.31	209.89	25.07	-23.3	-24.1	18.8	0.00e+00	0	43	102	1048576	7	3943
2026-01-06 13:20:49.32	210.08	25.19	-23.2	-23.9	18.9	0.00e+00	0	44	102	1048576	7	3896
2026-01-06 13:20:50.33	210.27	25.32	-23.0	-23.5	19.1	0.00e+00	0	43	102	1048576	7	3806
2026-01-06 13:20:51.33	210.46	25.44	-23.0	-23.4	19.2	0.00e+00	0	43	102	1048576	7	3772
2026-01-06 13:20:52.34	210.65	25.57	-23.1	-23.6	19.1	0.00e+00	0	44	102	1048576	7	3820
2026-01-06 13:20:53.35	210.84	25.70	-23.1	-23.7	19.0	0.00e+00	0	44	102	1048576	7	3858
2026-01-06 13:20:54.36	211.04	25.83	-22.9	-23.3	19.3	0.00e+00	0	43	102	1048576	7	3760
2026-01-06 13:20:55.37	211.23	25.95	-22.9	-23.3	19.2	0.00e+00	0	43	102	1048576	7	3770
2026-01-06 13:20:56.37	211.43	26.08	-22.8	-23.1	19.4	0.00e+00	0	43	102	1048576	7	3716
2026-01-06 13:20:57.38	211.63	26.21	-22.8	-23.0	19.4	0.00e+00	0	43	102	1048576	7	3696
2026-01-06 13:20:58.38	211.83	26.34	-22.9	-23.2	19.3	0.00e+00	0	43	102	1048576	7	3748
2026-01-06 13:20:59.38	212.03	26.46	-22.9	-23.2	19.3	0.00e+00	0	43	102	1048576	7	3732
2026-01-06 13:21:00.39	212.24	26.59	-23.0	-23.5	19.1	0.00e+00	0	43	102	1048576	7	3816
2026-01-06 13:21:01.40	212.44	26.72	-23.2	-23.8	19.0	0.00e+00	0	43	102	1048576	7	3880
2026-01-06 13:21:02.40	212.65	26.85	-22.9	-23.3	19.3	0.00e+00	0	43	102	1048576	7	3763
2026-01-06 13:21:03.41	212.86	26.98	-22.8	-23.1	19.4	0.00e+00	0	43	102	1048576	7	3724
2026-01-06 13:21:04.42	213.07	27.11	-22.7	-23.4	19.5	0.00e+00	0	43	102	1048576	6	3886
2026-01-06 13:21:05.43	213.29	27.24	-22.7	-23.3	19.5	0.00e+00	0	43	102	1048576	6	3869
2026-01-06 13:21:06.43	213.50	27.37	-22.6	-23.1	19.6	0.00e+00	0	43	102	1048576	6	3814
2026-01-06 13:21:07.44	213.72	27.50	-22.7	-23.3	19.6	0.00e+00	0	43	102	1048576	6	3857
2026-01-06 13:21:08.45	213.93	27.63	-22.7	-23.3	19.6	1.10e-06	0	43	102	1048576	6	3856
2026-01-06 13:21:09.45	214.15	27.76	-22.5	-22.8	19.8	0.00e+00	0	43	102	1048576	6	3755
2026-01-06 13:21:10.47	214.38	27.89	-22.4	-22.7	19.8	0.00e+00	0	43	102	1048576	6	3734
2026-01-06 13:21:11.47	214.60	28.02	-22.5	-22.9	19.7	0.00e+00	0	43	102	1048576	6	3768
2026-01-06 13:21:12.48	214.82	28.15	-22.5	-22.9	19.7	0.00e+00	0	43	102	1048576	6	3781
2026-01-06 13:21:13.49	215.05	28.28	-22.5	-23.0	19.7	0.00e+00	0	43	102	1048576	6	3786
2026-01-06 13:21:14.49	215.28	28.41	-22.6	-23.1	19.7	0.00e+00	0	43	102	1048576	6	3815
2026-01-06 13:21:15.50	215.51	28.55	-22.6	-23.2	19.6	0.00e+00	0	43	102	1048576	6	3834
2026-01-06 13:21:16.51	215.74	28.68	-22.6	-23.2	19.6	0.00e+00	0	43	102	1048576	6	3841
2026-01-06 13:21:17.52	215.98	28.81	-22.6	-23.1	19.7	0.00e+00	0	43	102	1048576	6	3820
2026-01-06 13:21:18.53	216.21	28.94	-22.5	-22.9	19.8	0.00e+00	0	43	102	1048576	6	3766
2026-01-06 13:21:19.53	216.45	29.07	-22.5	-22.9	19.8	0.00e+00	0	43	102	1048576	6	3779
2026-01-06 13:21:20.53	216.69	29.20	-22.5	-23.0	19.7	0.00e+00	0	43	102	1048576	6	3801
2026-01-06 13:21:21.54	216.93	29.34	-22.5	-22.8	19.8	0.00e+00	0	43	102	1048576	6	3759
2026-01-06 13:21:22.54	217.17	29.47	-22.5	-22.9	19.8	0.00e+00	0	43	102	1048576	6	3773
2026-01-06 13:21:23.55	217.42	29.60	-22.4	-22.7	19.9	0.00e+00	0	43	102	1048576	6	3727
2026-01-06 13:21:24.56	217.67	29.73	-22.3	-22.5	20.0	0.00e+00	0	43	102	1048576	6	3687
2026-01-06 13:21:25.56	217.91	29.86	-22.4	-22.6	19.9	0.00e+00	0	43	102	1048576	6	3712
2026-01-06 13:21:26.57	218.17	30.00	-22.4	-22.6	20.0	1.10e-06	0	43	102	1048576	6	3713
2026-01-06 13:21:27.57	218.42	30.13	-22.4	-22.8	19.9	0.00e+00	0	43	102	1048576	6	3742
2026-01-06 13:21:28.58	218.67	30.26	-22.5	-22.9	19.8	0.00e+00	0	43	102	1048576	6	3778
2026-01-06 13:21:29.59	218.93	30.39	-22.6	-23.2	19.7	0.00e+00	0	43	102	1048576	6	3831
2026-01-06 13:21:30.59	219.19	30.52	-22.6	-23.1	19.7	0.00e+00	0	43	102	1048576	6	3810
2026-01-06 13:21:31.60	219.45	30.66	-22.4	-22.7	19.9	0.00e+00	0	43	102	1048576	6	3738
2026-01-06 13:21:32.61	219.72	30.79	-22.5	-22.9	19.8	0.00e+00	0	43	102	1048576	6	3779
2026-01-06 13:21:33.62	219.98	30.92	-22.5	-22.9	19.8	0.00e+00	0	43	102	1048576	6	3772
2026-01-06 13:21:34.63	220.25	31.05	-22.4	-22.6	20.0	0.00e+00	0	43	102	1048576	6	3713
2026-01-06 13:21:35.64	220.52	31.19	-22.4	-22.7	19.9	0.00e+00	0	43	102	1048576	6	3718
2026-01-06 13:21:36.64	220.80	31.32	-22.4	-22.6	20.0	0.00e+00	0	43	102	1048576	6	3709
2026-01-06 13:21:37.65	221.07	31.45	-22.4	-22.7	20.0	0.00e+00	0	43	102	1048576	6	3721
2026-01-06 13:21:38.66	221.35	31.58	-22.3	-22.6	20.0	0.00e+00	0	43	102	1048576	6	3695
2026-01-06 13:21:39.67	221.63	31.71	-22.3	-22.6	20.0	0.00e+00	0	43	102	1048576	6	3696
2026-01-06 13:21:40.67	221.91	31.84	-22.3	-22.6	20.0	0.00e+00	0	43	102	1048576	6	3698
2026-01-06 13:21:41.68	222.19	31.97	-22.2	-22.9	20.1	0.00e+00	0	43	102	1048576	5	3875
2026-01-06 13:21:42.69	222.48	32.11	-22.2	-22.8	20.1	0.00e+00	0	43	102	1048576	5	3856
2026-01-06 13:21:43.69	222.77	32.24	-22.3	-22.9	20.0	0.00e+00	0	43	102	1048576	5	3884
2026-01-06 13:21:44.71	223.06	32.37	-22.2	-22.9	20.1	0.00e+00	0	43	102	1048576	5	3874
2026-01-06 13:21:45.71	223.35	32.50	-22.3	-23.0	20.0	0.00e+00	0	43	102	1048576	5	3898
2026-01-06 13:21:46.72	223.65	32.63	-22.4	-23.2	19.9	0.00e+00	0	43	102	1048576	5	3947
2026-01-06 13:21:47.72	223.94	32.76	-22.5	-23.4	19.8	0.00e+00	0	43	102	1048576	5	3988
2026-01-06 13:21:48.73	224.24	32.89	-22.5	-23.4	19.9	0.00e+00	0	43	102	1048576	5	3993
2026-01-06 13:21:49.74	224.55	33.02	-22.4	-23.2	19.9	0.00e+00	0	43	102	1048576	5	3953
2026-01-06 13:21:50.74	224.85	33.14	-22.4	-23.2	19.9	0.00e+00	0	43	102	1048576	5	3952
2026-01-06 13:21:51.74	225.15	33.27	-22.5	-23.4	19.8	0.00e+00	0	43	102	1048576	5	3997
2026-01-06 13:21:52.75	225.46	33.40	-22.3	-23.0	20.0	0.00e+00	0	43	102	1048576	5	3906
2026-01-06 13:21:53.76	225.77	33.53	-22.3	-22.9	20.1	0.00e+00	0	44	102	1048576	5	3878
2026-01-06 13:21:54.77	226.09	33.66	-22.5	-23.4	19.8	0.00e+00	0	43	102	1048576	5	3983
2026-01-06 13:21:55.77	226.40	33.78	-22.5	-23.4	19.8	0.00e+00	0	43	102	1048576	5	3992
2026-01-06 13:21:56.78	226.72	33.91	-22.5	-23.4	19.8	0.00e+00	0	43	102	1048576	5	3996
2026-01-06 13:21:57.78	227.04	34.03	-22.5	-23.5	19.8	0.00e+00	0	43	102	1048576	5	4018
2026-01-06 13:21:58.79	227.37	34.16	-22.5	-23.4	19.8	0.00e+00	0	43	102	1048576	5	4006
2026-01-06 13:21:59.79	227.69	34.28	-22.4	-23.2	20.0	0.00e+00	0	43	102	1048576	5	3949
2026-01-06 13:22:00.80	228.02	34.41	-22.4	-23.2	19.9	0.00e+00	0	43	102	1048576	5	3948
2026-01-06 13:22:01.81	228.35	34.53	-22.3	-23.1	20.0	0.00e+00	0	43	102	1048576	5	3918
2026-01-06 13:22:02.81	228.68	34.66	-22.3	-23.0	20.1	0.00e+00	0	43	102	1048576	5	3906
2026-01-06 13:22:03.82	229.02	34.78	-22.5	-23.4	19.8	0.00e+00	0	43	102	1048576	5	3995
2026-01-06 13:22:04.82	229.36	34.90	-22.3	-23.1	20.0	0.00e+00	0	44	102	1048576	5	3915
2026-01-06 13:22:05.83	229.70	35.02	-22.1	-22.7	20.2	0.00e+00	0	43	102	1048576	5	3819
2026-01-06 13:22:06.84	230.04	35.14	-22.2	-22.7	20.2	0.00e+00	0	44	102	1048576	5	3831
2026-01-06 13:22:07.85	230.39	35.27	-22.2	-22.8	20.2	0.00e+00	0	43	102	1048576	5	3845
2026-01-06 13:22:08.86	230.74	35.39	-22.3	-22.9	20.1	0.00e+00	0	43	102	1048576	5	3883
2026-01-06 13:22:09.86	231.09	35.50	-22.2	-22.7	20.2	0.00e+00	0	43	102	1048576	5	3838
2026-01-06 13:22:10.86	231.44	35.62	-22.1	-22.6	20.3	0.00e+00	0	43	102	1048576	5	3811
2026-01-06 13:22:11.87	231.80	35.74	-22.2	-22.7	20.2	0.00e+00	0	44	102	1048576	5	3826
2026-01-06 13:22:12.87	232.15	35.85	-22.0	-22.3	20.4	0.00e+00	0	43	102	1048576	5	3746
2026-01-06 13:22:13.88	232.52	35.97	-22.0	-22.3	20.4	0.00e+00	0	43	102	1048576	5	3742
2026-01-06 13:22:14.88	232.88	36.08	-22.0	-22.3	20.4	0.00e+00	0	43	102	1048576	5	3746
2026-01-06 13:22:15.89	233.24	36.20	-22.0	-22.4	20.4	0.00e+00	0	43	102	1048576	5	3770
2026-01-06 13:22:16.89	233.61	36.31	-22.2	-22.8	20.2	2.20e-06	0	43	102	1048576	5	3860
2026-01-06 13:22:17.89	233.98	36.42	-22.2	-22.8	20.2	0.00e+00	0	43	102	1048576	5	3859
2026-01-06 13:22:18.90	234.35	36.53	-22.1	-22.6	20.3	0.00e+00	0	44	102	1048576	5	3819
2026-01-06 13:22:19.91	234.73	36.64	-22.2	-22.7	20.2	1.10e-06	0	43	102	1048576	5	3833
2026-01-06 13:22:20.92	235.11	36.75	-22.0	-22.4	20.4	0.00e+00	0	43	102	1048576	5	3758
2026-01-06 13:22:21.93	235.49	36.86	-22.1	-22.5	20.4	0.00e+00	0	43	102	1048576	5	3784
2026-01-06 13:22:22.93	235.87	36.97	-22.1	-22.6	20.3	0.00e+00	0	43	102	1048576	5	3809
2026-01-06 13:22:23.94	236.26	37.08	-22.1	-22.5	20.3	0.00e+00	0	43	102	1048576	5	3791
2026-01-06 13:22:24.93	236.64	37.18	-22.0	-22.4	20.4	0.00e+00	0	44	102	1048576	5	3759
2026-01-06 13:22:25.94	237.04	37.28	-22.0	-22.4	20.4	0.00e+00	0	43	102	1048576	5	3769
2026-01-06 13:22:26.95	237.43	37.39	-22.2	-22.8	20.2	0.00e+00	0	43	102	1048576	5	3863
2026-01-06 13:22:27.95	237.82	37.49	-22.1	-22.5	20.3	0.00e+00	0	43	102	1048576	5	3783
2026-01-06 13:22:28.96	238.22	37.59	-22.1	-22.5	20.3	0.00e+00	0	43	102	1048576	5	3789
2026-01-06 13:22:29.97	238.62	37.69	-22.3	-23.0	20.1	0.00e+00	0	43	102	1048576	5	3895
2026-01-06 13:22:30.98	239.03	37.79	-22.2	-22.7	20.2	0.00e+00	0	43	102	1048576	5	3827
2026-01-06 13:22:31.98	239.43	37.88	-22.1	-22.6	20.3	0.00e+00	0	44	102	1048576	5	3815
2026-01-06 13:22:32.99	239.84	37.98	-22.4	-23.1	20.0	0.00e+00	0	44	102	1048576	5	3932
2026-01-06 13:22:34.00	240.25	38.07	-22.2	-22.7	20.2	0.00e+00	0	43	102	1048576	5	3836
2026-01-06 13:22:35.01	240.67	38.16	-22.0	-22.4	20.4	0.00e+00	0	43	102	1048576	5	3765
2026-01-06 13:22:36.02	241.08	38.26	-21.9	-22.1	20.6	0.00e+00	0	43	102	1048576	5	3691
2026-01-06 13:22:37.02	241.50	38.34	-22.0	-22.4	20.4	0.00e+00	0	44	102	1048576	5	3761
2026-01-06 13:22:38.03	241.92	38.43	-22.1	-22.5	20.4	0.00e+00	0	43	102	1048576	5	3778
2026-01-06 13:22:39.04	242.34	38.52	-21.9	-22.2	20.5	0.00e+00	0	43	102	1048576	5	3710
2026-01-06 13:22:40.05	242.76	38.61	-21.8	-22.0	20.6	0.00e+00	0	43	102	1048576	5	3682
2026-01-06 13:22:41.05	243.19	38.69	-22.0	-22.3	20.5	0.00e+00	0	43	102	1048576	5	3739
2026-01-06 13:22:42.06	243.62	38.77	-21.9	-22.1	20.5	0.00e+00	0	43	102	1048576	5	3696
2026-01-06 13:22:43.07	244.05	38.85	-22.0	-22.3	20.5	0.00e+00	0	44	102	1048576	5	3740
2026-01-06 13:22:44.07	244.48	38.93	-22.2	-22.8	20.2	0.00e+00	0	44	102	1048576	5	3853
2026-01-06 13:22:45.08	244.91	39.01	-22.3	-23.0	20.1	0.00e+00	0	43	102	1048576	5	3911
2026-01-06 13:22:46.09	245.35	39.08	-22.3	-22.9	20.2	0.00e+00	0	43	102	1048576	5	3882
2026-01-06 13:22:47.09	245.79	39.16	-22.2	-22.8	20.2	0.00e+00	0	43	102	1048576	5	3860
2026-01-06 13:22:48.10	246.23	39.23	-22.3	-23.0	20.1	0.00e+00	0	43	102	1048576	5	3892
2026-01-06 13:22:49.10	246.67	39.30	-22.1	-22.6	20.3	0.00e+00	0	43	102	1048576	5	3819
2026-01-06 13:22:50.11	247.11	39.37	-22.2	-22.7	20.3	0.00e+00	0	43	102	1048576	5	3829
2026-01-06 13:22:51.12	247.56	39.44	-22.2	-22.7	20.2	0.00e+00	0	44	102	1048576	5	3834
2026-01-06 13:22:52.13	248.01	39.50	-22.3	-23.0	20.1	0.00e+00	0	43	102	1048576	5	3905
2026-01-06 13:22:53.13	248.45	39.57	-22.1	-22.7	20.3	0.00e+00	0	44	102	1048576	5	3823
2026-01-06 13:22:54.14	248.91	39.63	-22.1	-22.5	20.3	0.00e+00	0	43	102	1048576	5	3795
2026-01-06 13:22:55.15	249.36	39.69	-22.1	-22.6	20.3	0.00e+00	0	43	102	1048576	5	3799
2026-01-06 13:22:56.16	249.82	39.75	-22.1	-22.7	20.3	0.00e+00	0	44	102	1048576	5	3824
2026-01-06 13:22:57.17	250.27	39.80	-22.0	-22.4	20.4	0.00e+00	0	43	102	1048576	5	3760
2026-01-06 13:22:58.17	250.73	39.86	-22.0	-22.4	20.4	0.00e+00	0	43	102	1048576	5	3759
2026-01-06 13:22:59.18	251.19	39.91	-22.1	-22.6	20.3	0.00e+00	0	44	102	1048576	5	3800
2026-01-06 13:23:00.18	251.65	39.96	-21.9	-22.2	20.5	0.00e+00	0	43	102	1048576	5	3730
2026-01-06 13:23:01.19	252.11	40.01	-22.0	-22.4	20.4	0.00e+00	0	44	102	1048576	5	3769
2026-01-06 13:23:02.20	252.57	40.05	-22.1	-22.5	20.3	0.00e+00	0	43	102	1048576	5	3792
2026-01-06 13:23:03.21	253.04	40.10	-21.7	-22.3	20.7	0.00e+00	0	43	102	1048576	4	3841
2026-01-06 13:23:04.21	253.50	40.14	-21.7	-22.2	20.7	0.00e+00	0	43	102	1048576	4	3826
2026-01-06 13:23:05.22	253.97	40.18	-21.9	-22.8	20.5	0.00e+00	0	44	102	1048576	4	3953
2026-01-06 13:23:06.23	254.44	40.22	-22.1	-23.0	20.4	0.00e+00	0	43	102	1048576	4	4009
2026-01-06 13:23:07.23	254.90	40.25	-21.8	-22.4	20.6	2.20e-06	0	43	102	1048576	4	3877
2026-01-06 13:23:08.23	255.37	40.29	-21.7	-22.2	20.8	0.00e+00	0	44	102	1048576	4	3813
2026-01-06 13:23:09.24	255.84	40.32	-21.9	-22.8	20.5	0.00e+00	0	43	102	1048576	4	3950
2026-01-06 13:23:10.24	256.31	40.35	-22.0	-22.9	20.4	0.00e+00	0	44	102	1048576	4	3983
2026-01-06 13:23:11.25	256.78	40.38	-22.3	-23.4	20.1	0.00e+00	0	43	102	1048576	4	4109
2026-01-06 13:23:12.26	257.26	40.40	-22.4	-23.6	20.0	0.00e+00	0	43	102	1048576	4	4165
2026-01-06 13:23:13.27	257.73	40.43	-22.4	-23.7	20.0	0.00e+00	0	43	102	1048576	4	4180
2026-01-06 13:23:14.28	258.21	40.45	-22.4	-23.6	20.1	0.00e+00	0	43	102	1048576	4	4168
2026-01-06 13:23:15.29	258.69	40.47	-22.2	-23.4	20.2	0.00e+00	0	43	102	1048576	4	4099
2026-01-06 13:23:16.30	259.16	40.48	-22.3	-23.5	20.1	5.70e-06	0	43	102	1048576	4	4132
2026-01-06 13:23:17.31	259.64	40.50	-22.2	-23.3	20.2	0.00e+00	0	43	102	1048576	4	4077
2026-01-06 13:23:18.31	260.12	40.51	-22.1	-23.1	20.3	0.00e+00	0	43	102	1048576	4	4032
2026-01-06 13:23:19.32	260.59	40.52	-22.1	-23.0	20.4	2.20e-06	0	43	102	1048576	4	4018
2026-01-06 13:23:20.32	261.07	40.53	-22.2	-23.3	20.2	0.00e+00	0	43	102	1048576	4	4082
2026-01-06 13:23:21.33	261.55	40.54	-22.1	-23.2	20.3	0.00e+00	0	43	102	1048576	4	4050
2026-01-06 13:23:22.34	262.02	40.54	-22.1	-23.1	20.4	0.00e+00	0	43	102	1048576	4	4020
2026-01-06 13:23:23.34	262.50	40.54	-22.2	-23.2	20.3	0.00e+00	0	44	102	1048576	4	4065
2026-01-06 13:23:24.35	262.98	40.54	-22.2	-23.3	20.2	0.00e+00	0	43	102	1048576	4	4088
2026-01-06 13:23:25.35	263.45	40.54	-22.4	-23.8	20.0	2.20e-06	0	44	102	1048576	4	4211
2026-01-06 13:23:26.36	263.93	40.53	-22.3	-23.5	20.1	0.00e+00	0	43	102	1048576	4	4142
2026-01-06 13:23:27.37	264.41	40.53	-22.2	-23.2	20.3	0.00e+00	0	43	102	1048576	4	4064
2026-01-06 13:23:28.37	264.88	40.52	-22.1	-23.1	20.3	4.50e-06	0	44	102	1048576	4	4041
2026-01-06 13:23:29.38	265.36	40.51	-22.1	-23.2	20.3	0.00e+00	0	44	102	1048576	4	4049
2026-01-06 13:23:30.39	265.84	40.49	-22.2	-23.4	20.2	0.00e+00	0	44	102	1048576	4	4102
2026-01-06 13:23:31.40	266.32	40.48	-22.4	-23.7	20.0	0.00e+00	0	44	102	1048576	4	4189
2026-01-06 13:23:32.40	266.79	40.46	-22.7	-23.8	19.7	0.00e+00	0	43	102	1048576	5	4097
2026-01-06 13:23:33.41	267.26	40.44	-22.7	-23.9	19.7	0.00e+00	0	43	102	1048576	5	4106
2026-01-06 13:23:34.42	267.74	40.42	-22.4	-23.1	20.1	0.00e+00	0	44	102	1048576	5	3923
2026-01-06 13:23:35.42	268.21	40.39	-22.3	-22.9	20.2	0.00e+00	0	43	102	1048576	5	3883
2026-01-06 13:23:36.43	268.68	40.37	-22.3	-22.9	20.2	0.00e+00	0	43	102	1048576	5	3873
2026-01-06 13:23:37.43	269.15	40.34	-22.3	-22.9	20.2	0.00e+00	0	43	102	1048576	5	3867
2026-01-06 13:23:38.44	269.62	40.31	-22.2	-22.8	20.2	0.00e+00	0	43	102	1048576	5	3854
2026-01-06 13:23:39.44	270.09	40.27	-22.1	-22.6	20.3	0.00e+00	0	43	102	1048576	5	3813
2026-01-06 13:23:40.45	270.56	40.24	-22.1	-22.5	20.4	0.00e+00	0	43	102	1048576	5	3786
2026-01-06 13:23:41.46	271.03	40.20	-22.0	-22.5	20.4	0.00e+00	0	44	102	1048576	5	3774
2026-01-06 13:23:42.47	271.50	40.16	-22.1	-22.6	20.4	0.00e+00	0	43	102	1048576	5	3810
2026-01-06 13:23:43.47	271.96	40.12	-22.2	-22.7	20.3	0.00e+00	0	43	102	1048576	5	3838
2026-01-06 13:23:44.48	272.43	40.08	-22.2	-22.7	20.3	0.00e+00	0	43	102	1048576	5	3841
2026-01-06 13:23:45.49	272.89	40.03	-22.2	-22.7	20.3	0.00e+00	0	44	102	1048576	5	3831
2026-01-06 13:23:46.50	273.35	39.99	-22.3	-23.0	20.2	0.00e+00	0	44	102	1048576	5	3894
2026-01-06 13:23:47.50	273.81	39.94	-22.3	-23.0	20.2	0.00e+00	0	43	102	1048576	5	3899
2026-01-06 13:23:48.50	274.27	39.89	-22.1	-22.6	20.4	0.00e+00	0	43	102	1048576	5	3797
2026-01-06 13:23:49.51	274.73	39.84	-22.0	-22.3	20.5	0.00e+00	0	43	102	1048576	5	3744
2026-01-06 13:23:50.51	275.18	39.78	-22.1	-22.5	20.4	0.00e+00	0	44	102	1048576	5	3791
2026-01-06 13:23:51.52	275.64	39.72	-22.1	-22.5	20.4	0.00e+00	0	44	102	1048576	5	3785
2026-01-06 13:23:52.53	276.09	39.67	-22.0	-22.3	20.5	0.00e+00	0	44	102	1048576	5	3739
2026-01-06 13:23:53.54	276.54	39.60	-22.1	-22.7	20.3	0.00e+00	0	43	102	1048576	5	3820
2026-01-06 13:23:54.55	277.00	39.54	-22.2	-22.8	20.2	0.00e+00	0	44	102	1048576	5	3861
2026-01-06 13:23:55.56	277.44	39.48	-22.2	-22.8	20.3	0.00e+00	0	44	102	1048576	5	3844
2026-01-06 13:23:56.56	277.89	39.41	-22.2	-22.7	20.3	0.00e+00	0	44	102	1048576	5	3841
2026-01-06 13:23:57.57	278.33	39.34	-22.2	-22.8	20.3	0.00e+00	0	44	102	1048576	5	3855
2026-01-06 13:23:58.57	278.77	39.28	-22.1	-22.5	20.4	0.00e+00	0	43	102	1048576	5	3781
2026-01-06 13:23:59.58	279.21	39.20	-21.9	-22.1	20.6	0.00e+00	0	43	102	1048576	5	3701
2026-01-06 13:24:00.59	279.65	39.13	-22.0	-22.4	20.5	0.00e+00	0	44	102	1048576	5	3754
2026-01-06 13:24:01.60	280.09	39.06	-22.2	-22.8	20.3	0.00e+00	0	43	102	1048576	5	3856
2026-01-06 13:24:02.60	280.52	38.98	-22.2	-22.9	20.2	0.00e+00	0	44	102	1048576	5	3873
2026-01-06 13:24:03.61	280.96	38.90	-22.2	-22.7	20.3	0.00e+00	0	44	102	1048576	5	3841
2026-01-06 13:24:04.62	281.39	38.82	-22.3	-23.0	20.1	0.00e+00	0	44	102	1048576	5	3889
2026-01-06 13:24:05.62	281.82	38.74	-22.4	-23.1	20.1	0.00e+00	0	44	102	1048576	5	3921
2026-01-06 13:24:06.63	282.24	38.66	-22.4	-23.2	20.0	0.00e+00	0	44	102	1048576	5	3956
2026-01-06 13:24:07.64	282.67	38.57	-22.6	-23.6	19.9	0.00e+00	0	44	102	1048576	5	4049
2026-01-06 13:24:08.65	283.09	38.49	-22.5	-23.4	20.0	0.00e+00	0	44	102	1048576	5	3992
2026-01-06 13:24:09.65	283.51	38.40	-22.2	-22.9	20.2	0.00e+00	0	43	102	1048576	5	3866
2026-01-06 13:24:10.66	283.93	38.31	-22.1	-22.5	20.4	0.00e+00	0	44	102	1048576	5	3776
2026-01-06 13:24:11.66	284.34	38.22	-22.1	-22.6	20.3	0.00e+00	0	44	102	1048576	5	3798
2026-01-06 13:24:12.67	284.75	38.13	-22.2	-22.7	20.3	0.00e+00	0	44	102	1048576	5	3819
2026-01-06 13:24:13.67	285.16	38.04	-22.5	-23.4	19.9	0.00e+00	0	44	102	1048576	5	3989
2026-01-06 13:24:14.68	285.57	37.95	-22.6	-23.6	19.8	0.00e+00	0	44	102	1048576	5	4054
2026-01-06 13:24:15.68	285.98	37.85	-22.4	-23.2	20.0	0.00e+00	0	44	102	1048576	5	3949
2026-01-06 13:24:16.68	286.38	37.76	-22.3	-22.9	20.2	0.00e+00	0	43	102	1048576	5	3878
2026-01-06 13:24:17.69	286.78	37.66	-22.2	-22.9	20.2	0.00e+00	0	44	102	1048576	5	3869
2026-01-06 13:24:18.69	287.17	37.56	-22.3	-22.9	20.2	0.00e+00	0	43	102	1048576	5	3886
2026-01-06 13:24:19.69	287.57	37.46	-22.3	-22.9	20.2	0.00e+00	0	44	102	1048576	5	3885
2026-01-06 13:24:20.70	287.96	37.36	-22.2	-22.9	20.2	0.00e+00	0	44	102	1048576	5	3878
2026-01-06 13:24:21.71	288.36	37.25	-22.3	-23.1	20.1	0.00e+00	0	43	102	1048576	5	3924
2026-01-06 13:24:22.72	288.75	37.15	-22.2	-22.8	20.3	0.00e+00	0	43	102	1048576	5	3859
2026-01-06 13:24:23.73	289.13	37.04	-22.2	-22.7	20.3	0.00e+00	0	43	102	1048576	5	3823
2026-01-06 13:24:24.73	289.52	36.94	-22.2	-22.7	20.3	1.10e-06	0	43	102	1048576	5	3840
2026-01-06 13:24:25.74	289.90	36.83	-22.3	-23.0	20.1	0.00e+00	0	44	102	1048576	5	3906
2026-01-06 13:24:26.74	290.28	36.72	-22.4	-23.2	20.0	0.00e+00	0	44	102	1048576	5	3939
2026-01-06 13:24:27.75	290.65	36.61	-22.4	-23.1	20.1	0.00e+00	0	43	102	1048576	5	3928
2026-01-06 13:24:28.76	291.03	36.50	-22.5	-23.4	19.9	0.00e+00	0	44	102	1048576	5	4001
2026-01-06 13:24:29.76	291.40	36.39	-22.6	-23.6	19.8	0.00e+00	0	44	102	1048576	5	4050
2026-01-06 13:24:30.77	291.77	36.28	-22.7	-23.8	19.7	0.00e+00	0	44	102	1048576	5	4098
2026-01-06 13:24:31.78	292.14	36.17	-22.5	-23.5	19.9	0.00e+00	0	44	102	1048576	5	4018
2026-01-06 13:24:32.79	292.50	36.05	-22.6	-23.6	19.9	0.00e+00	0	43	102	1048576	5	4035
2026-01-06 13:24:33.79	292.86	35.94	-22.4	-23.1	20.1	0.00e+00	0	44	102	1048576	5	3922
2026-01-06 13:24:34.80	293.22	35.82	-22.1	-22.6	20.3	0.00e+00	0	43	102	1048576	5	3806
2026-01-06 13:24:35.81	293.58	35.71	-22.1	-22.5	20.4	0.00e+00	0	44	102	1048576	5	3788
2026-01-06 13:24:36.82	293.93	35.59	-22.2	-22.9	20.2	0.00e+00	0	44	102	1048576	5	3865
2026-01-06 13:24:37.82	294.28	35.47	-22.3	-22.9	20.2	0.00e+00	0	44	102	1048576	5	3889
2026-01-06 13:24:38.83	294.63	35.35	-22.3	-23.0	20.1	0.00e+00	0	44	102	1048576	5	3895
2026-01-06 13:24:39.84	294.98	35.23	-22.1	-22.6	20.3	0.00e+00	0	43	102	1048576	5	3818
2026-01-06 13:24:40.84	295.32	35.12	-22.1	-22.6	20.4	0.00e+00	0	43	102	1048576	5	3798
2026-01-06 13:24:41.85	295.67	34.99	-22.1	-22.6	20.3	0.00e+00	0	44	102	1048576	5	3805
2026-01-06 13:24:42.86	296.01	34.87	-22.3	-22.9	20.2	0.00e+00	0	44	102	1048576	5	3876
2026-01-06 13:24:43.86	296.34	34.75	-22.3	-23.1	20.1	0.00e+00	0	44	102	1048576	5	3927
2026-01-06 13:24:44.86	296.67	34.63	-22.5	-23.4	19.9	0.00e+00	0	44	102	1048576	5	3994
2026-01-06 13:24:45.87	297.01	34.51	-22.5	-23.4	19.9	0.00e+00	0	44	102	1048576	5	3994
2026-01-06 13:24:46.88	297.34	34.38	-22.5	-23.4	19.9	0.00e+00	0	44	102	1048576	5	3985
2026-01-06 13:24:47.89	297.66	34.26	-22.4	-23.2	20.0	0.00e+00	0	44	102	1048576	5	3934
2026-01-06 13:24:48.89	297.99	34.13	-22.4	-23.2	20.0	0.00e+00	0	44	102	1048576	5	3943
2026-01-06 13:24:49.90	298.31	34.01	-22.3	-23.0	20.1	0.00e+00	0	44	102	1048576	5	3907
2026-01-06 13:24:50.90	298.63	33.88	-22.4	-23.2	20.0	0.00e+00	0	44	102	1048576	5	3937
2026-01-06 13:24:51.91	298.94	33.76	-22.4	-23.2	20.0	0.00e+00	0	44	102	1048576	5	3953
2026-01-06 13:24:52.92	299.26	33.63	-22.5	-23.4	19.9	0.00e+00	0	44	102	1048576	5	4006
2026-01-06 13:24:53.93	299.57	33.50	-22.5	-23.3	19.9	0.00e+00	0	44	102	1048576	5	3978
2026-01-06 13:24:54.93	299.88	33.38	-22.5	-23.4	19.9	0.00e+00	0	43	102	1048576	5	4000
2026-01-06 13:24:55.94	300.19	33.25	-22.5	-23.4	19.9	0.00e+00	0	44	102	1048576	5	3986
2026-01-06 13:24:56.95	300.49	33.12	-22.6	-23.6	19.8	0.00e+00	0	44	102	1048576	5	4041
2026-01-06 13:24:57.95	300.79	32.99	-22.5	-23.4	19.9	0.00e+00	0	43	102	1048576	5	3991
2026-01-06 13:24:58.96	301.10	32.86	-22.6	-23.5	19.8	0.00e+00	0	44	102	1048576	5	4023
2026-01-06 13:24:59.97	301.39	32.74	-22.4	-23.3	19.9	0.00e+00	0	44	102	1048576	5	3968
2026-01-06 13:25:00.96	301.69	32.61	-22.5	-23.4	19.9	0.00e+00	0	44	102	1048576	5	3999
2026-01-06 13:25:01.97	301.98	32.48	-22.5	-23.4	19.9	0.00e+00	0	44	102	1048576	5	4004
2026-01-06 13:25:02.98	302.27	32.35	-22.7	-23.8	19.7	0.00e+00	0	44	102	1048576	5	4091
2026-01-06 13:25:03.99	302.56	32.22	-22.6	-23.6	19.8	0.00e+00	0	44	102	1048576	5	4050
2026-01-06 13:25:04.99	302.85	32.09	-22.6	-23.6	19.8	0.00e+00	0	44	102	1048576	5	4043
2026-01-06 13:25:06.00	303.13	31.96	-22.6	-23.6	19.8	0.00e+00	0	44	102	1048576	5	4044
2026-01-06 13:25:07.01	303.41	31.83	-22.8	-24.0	19.6	0.00e+00	0	44	102	1048576	5	4129
2026-01-06 13:25:08.02	303.69	31.70	-22.7	-23.9	19.6	0.00e+00	0	43	102	1048576	5	4126
2026-01-06 13:25:09.02	303.97	31.57	-22.9	-24.2	19.5	0.00e+00	0	44	102	1048576	5	4195
2026-01-06 13:25:10.03	304.25	31.44	-22.7	-23.8	19.6	0.00e+00	0	44	102	1048576	5	4096
2026-01-06 13:25:11.03	304.52	31.31	-22.6	-23.6	19.7	0.00e+00	0	44	102	1048576	5	4045
2026-01-06 13:25:12.03	304.79	31.18	-22.6	-23.7	19.7	0.00e+00	0	44	102	1048576	5	4053
2026-01-06 13:25:13.04	305.06	31.04	-22.8	-24.1	19.5	0.00e+00	0	44	102	1048576	5	4154
2026-01-06 13:25:14.05	305.32	30.91	-22.7	-23.7	19.7	0.00e+00	0	44	102	1048576	5	4070
2026-01-06 13:25:15.05	305.59	30.78	-22.6	-23.7	19.7	0.00e+00	0	44	102	1048576	5	4062
2026-01-06 13:25:16.06	305.85	30.65	-22.7	-23.9	19.6	0.00e+00	0	44	102	1048576	5	4125
2026-01-06 13:25:17.07	306.11	30.52	-22.9	-24.3	19.4	0.00e+00	0	44	102	1048576	5	4232
2026-01-06 13:25:18.08	306.37	30.39	-23.1	-24.1	19.2	0.00e+00	0	44	102	1048576	6	4067
2026-01-06 13:25:19.08	306.63	30.26	-23.3	-24.6	19.0	0.00e+00	0	44	102	1048576	6	4180
2026-01-06 13:25:20.10	306.88	30.12	-23.0	-24.0	19.3	0.00e+00	0	44	102	1048576	6	4020
2026-01-06 13:25:21.10	307.13	29.99	-22.9	-23.7	19.4	0.00e+00	0	44	102	1048576	6	3965
2026-01-06 13:25:22.10	307.38	29.86	-22.9	-23.8	19.4	0.00e+00	0	44	102	1048576	6	3973
2026-01-06 13:25:23.10	307.63	29.73	-23.1	-24.1	19.3	0.00e+00	0	44	102	1048576	6	4044
2026-01-06 13:25:24.11	307.88	29.60	-23.1	-24.1	19.3	0.00e+00	0	44	102	1048576	6	4053
2026-01-06 13:25:25.12	308.12	29.47	-23.3	-24.5	19.0	0.00e+00	0	44	102	1048576	6	4161
2026-01-06 13:25:26.12	308.36	29.34	-23.2	-24.3	19.1	0.00e+00	0	43	102	1048576	6	4111
2026-01-06 13:25:27.13	308.60	29.21	-23.1	-24.2	19.2	0.00e+00	0	44	102	1048576	6	4091
2026-01-06 13:25:28.13	308.84	29.08	-23.1	-24.1	19.2	0.00e+00	0	44	102	1048576	6	4062
2026-01-06 13:25:29.13	309.07	28.95	-22.9	-23.8	19.4	0.00e+00	0	43	102	1048576	6	3971
2026-01-06 13:25:30.13	309.31	28.82	-23.0	-23.9	19.3	0.00e+00	0	44	102	1048576	6	4010
2026-01-06 13:25:31.14	309.54	28.68	-23.2	-24.4	19.1	0.00e+00	0	44	102	1048576	6	4134
2026-01-06 13:25:32.14	309.77	28.55	-23.0	-24.0	19.3	0.00e+00	0	44	102	1048576	6	4030
2026-01-06 13:25:33.15	310.00	28.42	-23.0	-23.9	19.4	0.00e+00	0	44	102	1048576	6	3995
2026-01-06 13:25:34.16	310.23	28.29	-23.0	-23.8	19.4	0.00e+00	0	44	102	1048576	6	3992
2026-01-06 13:25:35.17	310.45	28.16	-23.0	-23.9	19.3	1.10e-06	0	44	102	1048576	6	4009
2026-01-06 13:25:36.18	310.68	28.03	-22.8	-23.5	19.5	0.00e+00	0	44	102	1048576	6	3918
2026-01-06 13:25:37.18	310.90	27.90	-22.8	-23.4	19.6	0.00e+00	0	44	102	1048576	6	3893
2026-01-06 13:25:38.19	311.12	27.77	-22.8	-23.5	19.5	0.00e+00	0	44	102	1048576	6	3920
2026-01-06 13:25:39.19	311.34	27.64	-22.7	-23.3	19.6	0.00e+00	0	44	102	1048576	6	3867
2026-01-06 13:25:40.20	311.56	27.51	-22.7	-23.4	19.6	0.00e+00	0	44	102	1048576	6	3877
2026-01-06 13:25:41.21	311.77	27.38	-22.8	-23.5	19.5	0.00e+00	0	43	102	1048576	6	3913
2026-01-06 13:25:42.21	311.98	27.26	-22.9	-23.7	19.4	0.00e+00	0	44	102	1048576	6	3965
2026-01-06 13:25:43.22	312.20	27.13	-22.8	-23.5	19.5	0.00e+00	0	44	102	1048576	6	3921
2026-01-06 13:25:44.22	312.40	27.00	-22.9	-23.7	19.4	0.00e+00	0	44	102	1048576	6	3961
2026-01-06 13:25:45.22	312.61	26.87	-23.0	-24.0	19.2	0.00e+00	0	44	102	1048576	6	4030
2026-01-06 13:25:46.23	312.82	26.74	-22.9	-23.7	19.4	0.00e+00	0	44	102	1048576	6	3970
2026-01-06 13:25:47.24	313.02	26.62	-22.9	-23.7	19.4	0.00e+00	0	44	102	1048576	6	3963
2026-01-06 13:25:48.25	313.23	26.49	-22.9	-23.8	19.4	0.00e+00	0	44	102	1048576	6	3973
2026-01-06 13:25:49.26	313.43	26.36	-23.0	-24.0	19.2	0.00e+00	0	44	102	1048576	6	4041
2026-01-06 13:25:50.27	313.63	26.23	-23.1	-24.1	19.2	0.00e+00	0	44	102	1048576	6	4065
2026-01-06 13:25:51.28	313.83	26.10	-23.0	-23.9	19.3	0.00e+00	0	44	102	1048576	6	4002
2026-01-06 13:25:52.28	314.03	25.98	-23.0	-23.9	19.3	0.00e+00	0	44	102	1048576	6	4012
2026-01-06 13:25:53.29	314.22	25.85	-23.1	-24.1	19.2	0.00e+00	0	44	102	1048576	6	4060
2026-01-06 13:25:54.30	314.42	25.72	-23.1	-24.2	19.1	0.00e+00	0	44	102	1048576	6	4091
2026-01-06 13:25:55.30	314.61	25.60	-23.2	-24.4	19.0	0.00e+00	0	43	102	1048576	6	4136
2026-01-06 13:25:56.30	314.80	25.48	-23.2	-24.5	19.0	0.00e+00	0	44	102	1048576	6	4159
2026-01-06 13:25:57.31	314.99	25.35	-23.4	-24.7	18.9	0.00e+00	0	44	102	1048576	6	4212
2026-01-06 13:25:58.32	315.18	25.22	-23.3	-24.5	18.9	0.00e+00	0	43	102	1048576	6	4167
2026-01-06 13:25:59.32	315.36	25.10	-23.3	-24.6	18.9	0.00e+00	0	44	102	1048576	6	4181
2026-01-06 13:26:00.32	315.55	24.98	-23.4	-24.7	18.9	0.00e+00	0	44	102	1048576	6	4211
2026-01-06 13:26:01.34	315.73	24.85	-23.5	-24.9	18.7	0.00e+00	0	43	102	1048576	6	4258
2026-01-06 13:26:02.33	315.91	24.73	-23.4	-24.7	18.9	0.00e+00	0	44	102	1048576	6	4207
2026-01-06 13:26:03.34	316.10	24.60	-23.4	-24.8	18.8	0.00e+00	0	43	102	1048576	6	4233
2026-01-06 13:26:04.34	316.27	24.48	-23.6	-24.7	18.6	0.00e+00	0	44	102	1048576	7	4094
2026-01-06 13:26:05.35	316.45	24.36	-23.8	-25.0	18.4	0.00e+00	0	44	102	1048576	7	4180
2026-01-06 13:26:06.35	316.63	24.24	-23.5	-24.6	18.6	0.00e+00	0	44	102	1048576	7	4063
2026-01-06 13:26:07.36	316.81	24.11	-23.4	-24.4	18.7	0.00e+00	0	44	102	1048576	7	4021
2026-01-06 13:26:08.37	316.98	23.99	-23.5	-24.5	18.7	0.00e+00	0	44	102	1048576	7	4046
2026-01-06 13:26:09.37	317.15	23.87	-23.6	-24.7	18.6	0.00e+00	0	44	102	1048576	7	4088
2026-01-06 13:26:10.37	317.32	23.75	-23.5	-24.6	18.6	0.00e+00	0	44	102	1048576	7	4069
2026-01-06 13:26:11.38	317.49	23.63	-23.4	-24.4	18.7	0.00e+00	0	44	102	1048576	7	4022
2026-01-06 13:26:12.38	317.66	23.51	-23.4	-24.4	18.7	0.00e+00	0	43	102	1048576	7	4019
2026-01-06 13:26:13.39	317.83	23.39	-23.4	-24.4	18.7	0.00e+00	0	44	102	1048576	7	4017
2026-01-06 13:26:14.40	318.00	23.27	-23.4	-24.3	18.8	0.00e+00	0	44	102	1048576	7	4003
2026-01-06 13:26:15.40	318.16	23.15	-23.4	-24.3	18.7	0.00e+00	0	44	102	1048576	7	4001
2026-01-06 13:26:16.41	318.33	23.03	-23.4	-24.3	18.8	0.00e+00	0	43	102	1048576	7	3981
2026-01-06 13:26:17.41	318.49	22.91	-23.4	-24.3	18.7	0.00e+00	0	43	102	1048576	7	3999
2026-01-06 13:26:18.42	318.65	22.79	-23.5	-24.4	18.7	0.00e+00	0	44	102	1048576	7	4018
2026-01-06 13:26:19.42	318.81	22.67	-23.4	-24.2	18.8	0.00e+00	0	44	102	1048576	7	3970
2026-01-06 13:26:20.42	318.97	22.55	-23.4	-24.2	18.8	0.00e+00	0	44	102	1048576	7	3977
2026-01-06 13:26:21.43	319.13	22.43	-23.5	-24.5	18.7	0.00e+00	0	44	102	1048576	7	4032
2026-01-06 13:26:22.43	319.28	22.32	-23.7	-24.9	18.5	0.00e+00	0	44	102	1048576	7	4130
2026-01-06 13:26:23.44	319.44	22.20	-23.8	-25.1	18.4	0.00e+00	0	44	102	1048576	7	4181
2026-01-06 13:26:24.45	319.60	22.08	-23.8	-25.2	18.3	0.00e+00	0	44	102	1048576	7	4226
2026-01-06 13:26:25.46	319.75	21.97	-24.0	-25.5	18.1	0.00e+00	0	44	102	1048576	7	4293
2026-01-06 13:26:26.47	319.90	21.85	-24.1	-25.2	18.0	0.00e+00	0	44	102	1048576	8	4113
2026-01-06 13:26:27.47	320.05	21.73	-24.2	-25.6	17.8	0.00e+00	0	44	102	1048576	8	4207
2026-01-06 13:26:28.48	320.20	21.62	-24.3	-25.7	17.8	0.00e+00	0	44	102	1048576	8	4237
2026-01-06 13:26:29.49	320.35	21.50	-24.3	-25.7	17.8	0.00e+00	0	44	102	1048576	8	4242
2026-01-06 13:26:30.50	320.50	21.39	-24.3	-25.8	17.7	0.00e+00	0	44	102	1048576	8	4255
2026-01-06 13:26:31.50	320.65	21.27	-24.1	-25.4	17.9	0.00e+00	0	44	102	1048576	8	4147
2026-01-06 13:26:32.50	320.79	21.16	-24.0	-25.1	18.1	0.00e+00	0	44	102	1048576	8	4074
2026-01-06 13:26:33.51	320.94	21.04	-24.0	-25.1	18.1	0.00e+00	0	44	102	1048576	8	4087
2026-01-06 13:26:34.52	321.08	20.93	-24.0	-25.1	18.0	0.00e+00	0	44	102	1048576	8	4084
2026-01-06 13:26:35.53	321.23	20.82	-24.0	-25.2	18.0	0.00e+00	0	44	102	1048576	8	4093
2026-01-06 13:26:36.53	321.37	20.70	-24.1	-25.3	18.0	0.00e+00	0	44	102	1048576	8	4122
2026-01-06 13:26:37.54	321.51	20.59	-24.2	-25.4	17.9	0.00e+00	0	44	102	1048576	8	4166
2026-01-06 13:26:38.55	321.65	20.48	-24.2	-25.6	17.8	0.00e+00	0	43	102	1048576	8	4202
2026-01-06 13:26:39.55	321.79	20.37	-24.3	-25.8	17.7	0.00e+00	0	44	102	1048576	8	4252
2026-01-06 13:26:40.56	321.93	20.26	-24.4	-26.0	17.6	0.00e+00	0	44	102	1048576	8	4312
2026-01-06 13:26:41.57	322.06	20.14	-24.4	-26.0	17.5	0.00e+00	0	44	102	1048576	8	4327
2026-01-06 13:26:42.57	322.20	20.03	-24.5	-26.1	17.5	0.00e+00	0	44	102	1048576	8	4344
2026-01-06 13:26:43.58	322.33	19.92	-24.5	-25.7	17.5	0.00e+00	0	43	102	1048576	9	4118
2026-01-06 13:26:44.59	322.47	19.81	-24.6	-25.9	17.4	0.00e+00	0	44	102	1048576	9	4164
2026-01-06 13:26:45.60	322.60	19.70	-24.5	-25.7	17.5	0.00e+00	0	44	102	1048576	9	4131
2026-01-06 13:26:46.61	322.74	19.59	-24.4	-25.5	17.6	0.00e+00	0	44	102	1048576	9	4072
2026-01-06 13:26:47.61	322.87	19.48	-24.4	-25.5	17.6	0.00e+00	0	44	102	1048576	9	4072
2026-01-06 13:26:48.61	323.00	19.38	-24.4	-25.5	17.6	0.00e+00	0	44	102	1048576	9	4061
2026-01-06 13:26:49.62	323.13	19.27	-24.5	-25.6	17.5	0.00e+00	0	44	102	1048576	9	4099
2026-01-06 13:26:50.63	323.26	19.16	-24.5	-25.6	17.5	0.00e+00	0	44	102	1048576	9	4089
2026-01-06 13:26:51.63	323.38	19.05	-24.4	-25.5	17.6	0.00e+00	0	44	102	1048576	9	4056
2026-01-06 13:26:52.64	323.51	18.94	-24.4	-25.5	17.5	0.00e+00	0	44	102	1048576	9	4066
2026-01-06 13:26:53.65	323.64	18.84	-24.5	-25.5	17.5	0.00e+00	0	44	102	1048576	9	4079
2026-01-06 13:26:54.66	323.76	18.73	-24.4	-25.5	17.5	0.00e+00	0	44	102	1048576	9	4075
2026-01-06 13:26:55.67	323.89	18.62	-24.4	-25.5	17.5	0.00e+00	0	44	102	1048576	9	4067
2026-01-06 13:26:56.68	324.01	18.52	-24.5	-25.6	17.5	0.00e+00	0	44	102	1048576	9	4087
2026-01-06 13:26:57.68	324.13	18.41	-24.5	-25.6	17.5	0.00e+00	0	44	102	1048576	9	4092
2026-01-06 13:26:58.69	324.26	18.30	-24.5	-25.6	17.4	0.00e+00	0	44	102	1048576	9	4107
2026-01-06 13:26:59.70	324.38	18.20	-24.5	-25.6	17.5	0.00e+00	0	44	102	1048576	9	4098
2026-01-06 13:27:00.71	324.50	18.09	-24.6	-25.8	17.4	0.00e+00	0	44	102	1048576	9	4137
2026-01-06 13:27:01.71	324.62	17.99	-24.5	-25.7	17.4	0.00e+00	0	44	102	1048576	9	4127
2026-01-06 13:27:02.73	324.74	17.88	-24.6	-25.9	17.3	0.00e+00	0	44	102	1048576	9	4174
2026-01-06 13:27:03.73	324.85	17.78	-24.7	-26.0	17.3	0.00e+00	0	43	102	1048576	9	4196
2026-01-06 13:27:04.74	324.97	17.68	-24.7	-26.1	17.2	0.00e+00	0	44	102	1048576	9	4227
2026-01-06 13:27:05.75	325.09	17.57	-24.8	-26.2	17.1	0.00e+00	0	44	102	1048576	9	4265
2026-01-06 13:27:06.75	325.20	17.47	-24.8	-26.3	17.1	0.00e+00	0	44	102	1048576	9	4273
2026-01-06 13:27:07.76	325.32	17.37	-24.9	-26.5	17.0	0.00e+00	0	44	102	1048576	9	4326
2026-01-06 13:27:08.77	325.43	17.27	-24.8	-26.4	17.0	0.00e+00	0	44	102	1048576	9	4303
2026-01-06 13:27:09.78	325.55	17.16	-24.9	-26.6	16.9	0.00e+00	0	44	102	1048576	9	4364
2026-01-06 13:27:10.77	325.66	17.06	-24.9	-26.0	17.0	0.00e+00	0	44	102	1048576	10	4091
2026-01-06 13:27:11.77	325.77	16.96	-24.8	-25.9	17.0	0.00e+00	0	44	102	1048576	10	4063
2026-01-06 13:27:12.77	325.88	16.86	-24.9	-26.1	16.9	0.00e+00	0	44	102	1048576	10	4113
2026-01-06 13:27:13.78	325.99	16.76	-24.8	-25.9	17.0	0.00e+00	0	44	102	1048576	10	4057
2026-01-06 13:27:14.79	326.10	16.66	-24.9	-26.0	17.0	0.00e+00	0	44	102	1048576	10	4083
2026-01-06 13:27:15.80	326.21	16.56	-24.8	-25.8	17.0	0.00e+00	0	44	102	1048576	10	4049
2026-01-06 13:27:16.80	326.32	16.46	-24.8	-25.8	17.0	0.00e+00	0	44	102	1048576	10	4046
2026-01-06 13:27:17.81	326.43	16.36	-24.8	-25.8	17.0	0.00e+00	0	44	102	1048576	10	4040
2026-01-06 13:27:18.82	326.53	16.26	-24.9	-26.0	16.9	0.00e+00	0	44	102	1048576	10	4087
2026-01-06 13:27:19.82	326.64	16.17	-24.8	-25.9	17.0	1.10e-06	0	44	102	1048576	10	4058
2026-01-06 13:27:20.82	326.75	16.07	-24.8	-25.8	17.0	0.00e+00	0	43	102	1048576	10	4047
2026-01-06 13:27:21.83	326.85	15.97	-24.9	-26.1	16.9	0.00e+00	0	43	102	1048576	10	4110
2026-01-06 13:27:22.83	326.95	15.87	-24.9	-26.0	16.9	0.00e+00	0	43	102	1048576	10	4089
2026-01-06 13:27:23.83	327.06	15.78	-24.9	-26.1	16.9	0.00e+00	0	44	102	1048576	10	4120
2026-01-06 13:27:24.83	327.16	15.68	-24.9	-26.1	16.8	0.00e+00	0	44	102	1048576	10	4109
2026-01-06 13:27:25.83	327.26	15.58	-25.0	-26.3	16.7	1.10e-06	0	44	102	1048576	10	4152
2026-01-06 13:27:26.83	327.36	15.49	-25.0	-26.2	16.8	0.00e+00	0	44	102	1048576	10	4154
2026-01-06 13:27:27.84	327.47	15.39	-25.1	-26.4	16.7	0.00e+00	0	43	102	1048576	10	4198
2026-01-06 13:27:28.85	327.57	15.29	-25.1	-26.4	16.7	0.00e+00	0	44	102	1048576	10	4200
2026-01-06 13:27:29.86	327.67	15.20	-25.2	-26.7	16.5	1.10e-06	0	44	102	1048576	10	4267
2026-01-06 13:27:30.87	327.77	15.10	-25.3	-26.9	16.4	0.00e+00	0	44	102	1048576	10	4338
2026-01-06 13:27:31.87	327.86	15.01	-25.3	-26.9	16.4	0.00e+00	0	44	102	1048576	10	4320
2026-01-06 13:27:32.87	327.96	14.91	-25.4	-27.1	16.3	1.10e-06	0	43	102	1048576	10	4373
2026-01-06 13:27:33.87	328.06	14.82	-25.4	-27.1	16.3	0.00e+00	0	43	102	1048576	10	4386
2026-01-06 13:27:34.88	328.16	14.72	-25.5	-27.3	16.2	0.00e+00	0	44	102	1048576	10	4433
2026-01-06 13:27:35.89	328.25	14.63	-25.5	-26.9	16.1	0.00e+00	0	44	102	1048576	11	4214
2026-01-06 13:27:36.89	328.35	14.54	-25.7	-27.2	15.9	0.00e+00	0	44	102	1048576	11	4302
2026-01-06 13:27:37.90	328.44	14.44	-25.6	-27.0	16.0	0.00e+00	0	44	102	1048576	11	4247
2026-01-06 13:27:38.91	328.54	14.35	-25.5	-26.9	16.1	0.00e+00	0	44	102	1048576	11	4225
2026-01-06 13:27:39.92	328.63	14.26	-25.6	-27.1	16.0	0.00e+00	0	44	102	1048576	11	4263
2026-01-06 13:27:40.93	328.73	14.16	-25.6	-27.0	16.0	0.00e+00	0	44	102	1048576	11	4254
2026-01-06 13:27:41.94	328.82	14.07	-25.6	-27.2	15.9	0.00e+00	0	44	102	1048576	11	4296
2026-01-06 13:27:42.94	328.91	13.98	-25.7	-27.2	15.9	0.00e+00	0	44	102	1048576	11	4303
2026-01-06 13:27:43.95	329.01	13.89	-25.8	-27.5	15.7	0.00e+00	0	43	102	1048576	11	4377
2026-01-06 13:27:44.95	329.10	13.80	-25.7	-27.3	15.8	0.00e+00	0	44	102	1048576	11	4335
2026-01-06 13:27:45.96	329.19	13.71	-25.7	-27.3	15.8	0.00e+00	0	44	102	1048576	11	4338
2026-01-06 13:27:46.97	329.28	13.62	-25.7	-27.4	15.8	0.00e+00	0	44	102	1048576	11	4345
2026-01-06 13:27:47.98	329.37	13.53	-25.9	-27.7	15.6	0.00e+00	0	44	102	1048576	11	4446
2026-01-06 13:27:48.98	329.46	13.44	-25.7	-27.4	15.8	0.00e+00	0	44	102	1048576	11	4349
2026-01-06 13:27:49.98	329.55	13.35	-26.0	-27.8	15.5	0.00e+00	0	44	102	1048576	11	4473
2026-01-06 13:27:50.98	329.63	13.26	-25.8	-27.6	15.6	0.00e+00	0	44	102	1048576	11	4392
2026-01-06 13:27:51.99	329.72	13.17	-25.8	-27.4	15.7	0.00e+00	0	44	102	1048576	11	4360
2026-01-06 13:27:53.00	329.81	13.08	-25.8	-27.5	15.7	0.00e+00	0	44	102	1048576	11	4368
2026-01-06 13:27:54.01	329.90	12.99	-25.8	-27.5	15.7	0.00e+00	0	44	102	1048576	11	4368
2026-01-06 13:27:55.02	329.98	12.90	-25.8	-27.6	15.6	0.00e+00	0	44	102	1048576	11	4408
2026-01-06 13:27:56.03	330.07	12.81	-25.8	-27.4	15.7	0.00e+00	0	44	102	1048576	11	4364
2026-01-06 13:27:57.02	330.15	12.73	-25.8	-27.4	15.7	0.00e+00	0	44	102	1048576	11	4361
2026-01-06 13:27:58.03	330.24	12.64	-25.8	-27.6	15.6	0.00e+00	0	44	102	1048576	11	4407
2026-01-06 13:27:59.03	330.32	12.55	-25.8	-27.4	15.7	0.00e+00	0	44	102	1048576	11	4365
2026-01-06 13:28:00.04	330.41	12.46	-25.8	-27.6	15.6	0.00e+00	0	44	102	1048576	11	4409
2026-01-06 13:28:01.04	330.49	12.38	-25.9	-27.6	15.6	0.00e+00	0	44	102	1048576	11	4418
2026-01-06 13:28:02.05	330.57	12.29	-25.9	-27.8	15.5	0.00e+00	0	44	102	1048576	11	4455
2026-01-06 13:28:03.06	330.66	12.20	-25.9	-27.6	15.5	0.00e+00	0	44	102	1048576	11	4424
2026-01-06 13:28:04.07	330.74	12.12	-26.0	-27.9	15.4	0.00e+00	0	44	102	1048576	11	4504
2026-01-06 13:28:05.08	330.82	12.03	-26.1	-27.7	15.1	0.00e+00	0	43	102	1048576	12	4331
2026-01-06 13:28:06.09	330.90	11.94	-26.3	-28.2	14.9	1.10e-06	0	44	102	1048576	12	4464
2026-01-06 13:28:07.10	330.98	11.86	-26.1	-27.7	15.1	1.10e-06	0	44	102	1048576	12	4327
2026-01-06 13:28:08.10	331.06	11.77	-26.0	-27.5	15.3	0.00e+00	0	44	102	1048576	12	4287
2026-01-06 13:28:09.11	331.14	11.69	-25.9	-27.3	15.4	0.00e+00	0	44	102	1048576	12	4229
2026-01-06 13:28:10.12	331.22	11.60	-26.0	-27.5	15.2	0.00e+00	0	44	102	1048576	12	4277
2026-01-06 13:28:11.12	331.30	11.52	-25.9	-27.3	15.4	0.00e+00	0	43	102	1048576	12	4220
2026-01-06 13:28:12.13	331.38	11.43	-26.0	-27.5	15.2	0.00e+00	0	44	102	1048576	12	4282
2026-01-06 13:28:13.14	331.46	11.35	-25.9	-27.4	15.3	0.00e+00	0	44	102	1048576	12	4244
2026-01-06 13:28:14.14	331.54	11.27	-26.0	-27.6	15.2	0.00e+00	0	44	102	1048576	12	4297
2026-01-06 13:28:15.15	331.61	11.18	-26.0	-27.5	15.2	0.00e+00	0	44	102	1048576	12	4277
2026-01-06 13:28:16.16	331.69	11.10	-26.0	-27.5	15.2	0.00e+00	0	44	102	1048576	12	4268
2026-01-06 13:28:17.16	331.77	11.02	-26.0	-27.4	15.3	0.00e+00	0	44	102	1048576	12	4263
2026-01-06 13:28:18.17	331.84	10.93	-26.0	-27.6	15.1	0.00e+00	0	43	102	1048576	12	4302
2026-01-06 13:28:19.18	331.92	10.85	-26.0	-27.5	15.2	0.00e+00	0	44	102	1048576	12	4267
2026-01-06 13:28:20.19	331.99	10.77	-26.0	-27.6	15.2	0.00e+00	0	44	102	1048576	12	4296
2026-01-06 13:28:21.19	332.07	10.69	-26.0	-27.5	15.2	1.10e-06	0	44	102	1048576	12	4286
2026-01-06 13:28:22.19	332.14	10.61	-26.1	-27.7	15.1	0.00e+00	0	44	102	1048576	12	4322
2026-01-06 13:28:23.20	332.22	10.52	-26.3	-28.1	14.8	1.10e-06	0	44	102	1048576	12	4445
2026-01-06 13:28:24.21	332.29	10.44	-26.1	-27.8	15.0	0.00e+00	0	44	102	1048576	12	4360
2026-01-06 13:28:25.22	332.36	10.36	-26.2	-28.0	14.9	0.00e+00	0	44	102	1048576	12	4414
2026-01-06 13:28:26.22	332.44	10.28	-26.2	-27.9	15.0	0.00e+00	0	44	102	1048576	12	4388
2026-01-06 13:28:27.22	332.51	10.20	-26.2	-27.9	14.9	0.00e+00	0	44	102	1048576	12	4390
2026-01-06 13:28:28.23	332.58	10.12	-26.2	-28.1	14.8	0.00e+00	0	44	102	1048576	12	4444
2026-01-06 13:28:29.23	332.65	10.04	-26.3	-28.2	14.7	0.00e+00	0	43	102	1048576	12	4473
2026-01-06 13:28:30.23	332.72	9.96	-26.2	-28.0	14.8	0.00e+00	0	44	102	1048576	12	4431
2026-01-06 13:28:31.24	332.80	9.88	-26.3	-28.1	14.8	0.00e+00	0	44	102	1048576	12	4457
2026-01-06 13:28:32.24	332.87	9.80	-26.3	-28.2	14.7	0.00e+00	0	44	102	1048576	12	4477
2026-01-06 13:28:33.25	332.94	9.72	-26.2	-28.1	14.8	0.00e+00	0	44	102	1048576	12	4441
2026-01-06 13:28:34.25	333.01	9.64	-26.3	-28.1	14.7	0.00e+00	0	44	102	1048576	12	4458
2026-01-06 13:28:35.26	333.08	9.56	-26.3	-28.2	14.7	0.00e+00	0	44	102	1048576	12	4485
2026-01-06 13:28:36.27	333.15	9.49	-26.4	-28.5	14.5	0.00e+00	0	44	102	1048576	12	4568
2026-01-06 13:28:37.28	333.21	9.41	-26.5	-28.1	14.4	0.00e+00	0	44	102	1048576	13	4349
2026-01-06 13:28:38.29	333.28	9.33	-26.5	-28.1	14.5	0.00e+00	0	44	102	1048576	13	4335
2026-01-06 13:28:39.30	333.35	9.25	-26.5	-28.1	14.4	0.00e+00	0	44	102	1048576	13	4335
2026-01-06 13:28:40.31	333.42	9.17	-26.4	-28.0	14.5	0.00e+00	0	43	102	1048576	13	4325
2026-01-06 13:28:41.31	333.49	9.10	-26.5	-28.2	14.4	0.00e+00	0	44	102	1048576	13	4378
2026-01-06 13:28:42.32	333.55	9.02	-26.5	-28.3	14.3	1.10e-06	0	44	102	1048576	13	4389
2026-01-06 13:28:43.32	333.62	8.94	-26.6	-28.4	14.3	0.00e+00	0	44	102	1048576	13	4412
2026-01-06 13:28:44.33	333.69	8.86	-26.5	-28.2	14.4	0.00e+00	0	44	102	1048576	13	4367
2026-01-06 13:28:45.34	333.75	8.79	-26.4	-28.0	14.4	0.00e+00	0	44	102	1048576	13	4318
2026-01-06 13:28:46.35	333.82	8.71	-26.5	-28.1	14.4	0.00e+00	0	44	102	1048576	13	4342
2026-01-06 13:28:47.35	333.89	8.63	-26.4	-27.9	14.5	0.00e+00	0	44	102	1048576	13	4291
2026-01-06 13:28:48.36	333.95	8.56	-26.5	-28.2	14.4	1.10e-06	0	44	102	1048576	13	4354
2026-01-06 13:28:49.37	334.02	8.48	-26.5	-28.1	14.4	0.00e+00	0	44	102	1048576	13	4335
2026-01-06 13:28:50.37	334.08	8.41	-26.5	-28.1	14.4	1.10e-06	0	44	102	1048576	13	4343
2026-01-06 13:28:51.38	334.15	8.33	-26.5	-28.1	14.4	0.00e+00	0	44	102	1048576	13	4341
2026-01-06 13:28:52.38	334.21	8.26	-26.5	-28.2	14.3	0.00e+00	0	44	102	1048576	13	4382
2026-01-06 13:28:53.39	334.27	8.18	-26.6	-28.3	14.2	2.20e-06	0	44	102	1048576	13	4404
2026-01-06 13:28:54.40	334.34	8.10	-26.5	-28.2	14.3	0.00e+00	0	44	102	1048576	13	4361
2026-01-06 13:28:55.40	334.40	8.03	-26.5	-28.0	14.4	0.00e+00	0	44	102	1048576	13	4323
2026-01-06 13:28:56.41	334.46	7.96	-26.5	-28.1	14.3	0.00e+00	0	44	102	1048576	13	4348
2026-01-06 13:28:57.42	334.53	7.88	-26.5	-28.1	14.4	0.00e+00	0	44	102	1048576	13	4335
2026-01-06 13:28:58.42	334.59	7.81	-26.5	-28.2	14.3	1.10e-06	0	44	102	1048576	13	4363
2026-01-06 13:28:59.43	334.65	7.73	-26.6	-28.3	14.2	1.10e-06	0	43	102	1048576	13	4403
2026-01-06 13:29:00.44	334.71	7.66	-26.6	-28.5	14.1	0.00e+00	0	44	102	1048576	13	4463
2026-01-06 13:29:01.44	334.77	7.59	-26.6	-28.4	14.1	1.10e-06	0	44	102	1048576	13	4422
2026-01-06 13:29:02.45	334.83	7.51	-26.6	-28.4	14.1	0.00e+00	0	44	102	1048576	13	4428
2026-01-06 13:29:03.46	334.90	7.44	-26.7	-28.6	14.0	0.00e+00	0	44	102	1048576	13	4479
2026-01-06 13:29:04.46	334.96	7.37	-26.7	-28.6	14.0	0.00e+00	0	44	102	1048576	13	4487
2026-01-06 13:29:05.47	335.02	7.29	-26.7	-28.6	13.9	4.50e-06	0	44	102	1048576	13	4495
2026-01-06 13:29:06.47	335.08	7.22	-26.8	-29.0	13.7	1.10e-06	0	44	102	1048576	13	4606
2026-01-06 13:29:07.48	335.14	7.15	-27.0	-28.9	13.5	5.70e-06	0	44	102	1048576	14	4470
2026-01-06 13:29:08.48	335.20	7.08	-32.6	-43.4	3.8	8.28e-04	0	44	102	1048576	25	12445
2026-01-06 13:29:09.49	335.25	7.00	-32.9	-44.4	3.8	8.48e-01	0	44	104	1048576	25	13420
2026-01-06 13:29:10.50	335.31	6.93	-33.2	-44.4	3.8	8.46e-01	0	44	104	1048576	26	13085

#Closed at: 2026-01-06 13:29:10
#Recorded file [1 MB]: D:/data/31010_260106_161744.dat