passes_logs/2026/01/06/R2M6_AANII_01/R2M6_AANII_01__20260106_050515_FENGYUN_3D_rec.log

#Pass ID: 20260106_050515_FENGYUN 3D
#Satellite: FENGYUN 3D
#Configuration: FENGYUN 3D
#almurnet v.1.7.20240730
#Start time: 2026-01-06 05:05:14

#Version: 2.2.20231116
#Station: R2M6_AANII_01
#Location: 30.233357 lon 59.946436 lat
#TLE: 1 43010U 17072A   26005.48915933 -.00000051  00000+0 -21983-5 0  9995
#TLE: 2 43010  98.9919 337.1582 0002001 124.6377 235.4988 14.19691925421909

#Time	Az	El	Level	Level2	SNR	BER	BlckErr	Temp	State	Recorded	gain1	gain2
2026-01-06 05:05:14.36	9.06	6.96	-32.1	-39.2	4.0	8.43e-01	0	41	0	0	25	8137
2026-01-06 05:05:15.36	8.94	7.02	-30.7	-34.5	5.0	7.94e-01	0	41	104	0	22	5621
2026-01-06 05:05:16.37	8.82	7.07	-30.5	-34.4	8.0	8.05e-02	0	41	0	0	21	5672
2026-01-06 05:05:17.37	8.70	7.12	-30.5	-34.5	7.9	7.86e-02	0	41	102	1048576	21	5703
2026-01-06 05:05:18.38	8.58	7.17	-30.5	-34.3	8.1	7.25e-02	0	41	102	1048576	21	5621
2026-01-06 05:05:19.38	8.46	7.23	-30.4	-34.0	8.3	6.53e-02	0	42	102	1048576	21	5461
2026-01-06 05:05:20.39	8.34	7.28	-30.4	-34.6	8.1	5.15e-02	0	42	102	1048576	20	5845
2026-01-06 05:05:21.39	8.22	7.33	-30.3	-34.4	8.2	6.13e-02	0	42	102	1048576	20	5763
2026-01-06 05:05:22.40	8.10	7.39	-30.1	-33.6	9.0	4.21e-02	0	42	102	1048576	20	5374
2026-01-06 05:05:23.41	7.98	7.44	-29.7	-32.4	9.8	1.28e-02	0	42	102	1048576	20	4910
2026-01-06 05:05:24.41	7.86	7.49	-29.3	-31.7	10.7	5.34e-03	0	41	102	1048576	19	4775
2026-01-06 05:05:25.42	7.74	7.54	-28.7	-30.8	11.6	1.35e-03	0	41	102	1048576	18	4591
2026-01-06 05:05:26.42	7.61	7.60	-28.4	-30.1	12.1	5.92e-04	0	42	102	1048576	18	4364
2026-01-06 05:05:27.43	7.49	7.65	-28.0	-29.5	12.7	5.47e-04	0	41	102	1048576	17	4295
2026-01-06 05:05:28.44	7.36	7.70	-27.4	-28.7	13.6	3.08e-05	0	42	102	1048576	16	4172
2026-01-06 05:05:29.44	7.24	7.76	-27.0	-28.8	13.9	8.00e-06	0	42	102	1048576	14	4416
2026-01-06 05:05:30.45	7.12	7.81	-27.0	-28.8	13.9	5.17e-04	0	42	102	1048576	14	4432
2026-01-06 05:05:31.45	6.99	7.86	-27.2	-29.3	13.6	8.00e-06	0	42	102	1048576	14	4566
2026-01-06 05:05:32.46	6.86	7.91	-27.2	-29.2	13.7	5.25e-04	0	41	102	1048576	14	4543
2026-01-06 05:05:33.46	6.74	7.97	-27.1	-28.9	13.9	4.50e-06	0	42	102	1048576	14	4455
2026-01-06 05:05:34.47	6.61	8.02	-27.0	-28.8	13.9	1.02e-05	0	42	102	1048576	14	4411
2026-01-06 05:05:35.48	6.48	8.07	-27.0	-29.2	14.0	4.04e-04	0	42	102	1048576	13	4638
2026-01-06 05:05:36.49	6.36	8.13	-26.9	-28.9	14.1	6.40e-04	0	42	102	1048576	13	4565
2026-01-06 05:05:37.50	6.23	8.18	-26.9	-29.0	14.1	1.10e-06	0	42	102	1048576	13	4583
2026-01-06 05:05:38.51	6.10	8.23	-27.1	-29.0	13.8	1.02e-05	0	42	102	1048576	14	4484
2026-01-06 05:05:39.52	5.97	8.28	-26.9	-28.5	14.1	9.15e-04	0	42	102	1048576	14	4342
2026-01-06 05:05:40.52	5.84	8.34	-27.0	-28.6	14.1	5.70e-06	0	42	102	1048576	14	4375
2026-01-06 05:05:41.53	5.71	8.39	-26.8	-28.9	14.2	9.15e-04	0	42	102	1048576	13	4555
2026-01-06 05:05:42.54	5.58	8.44	-26.8	-28.9	14.2	9.04e-04	0	42	102	1048576	13	4543
2026-01-06 05:05:43.55	5.44	8.49	-26.8	-28.9	14.2	2.20e-06	0	42	102	1048576	13	4550
2026-01-06 05:05:44.55	5.31	8.55	-26.9	-28.9	14.2	8.73e-04	0	42	102	1048576	13	4565
2026-01-06 05:05:45.56	5.18	8.60	-26.9	-28.6	14.1	9.59e-04	0	42	102	1048576	14	4351
2026-01-06 05:05:46.57	5.05	8.65	-26.9	-28.5	14.2	0.00e+00	0	42	102	1048576	14	4339
2026-01-06 05:05:47.58	4.91	8.70	-26.8	-28.9	14.3	1.10e-06	0	42	102	1048576	13	4548
2026-01-06 05:05:48.58	4.78	8.76	-27.0	-29.2	14.1	8.89e-04	0	42	102	1048576	13	4641
2026-01-06 05:05:49.59	4.65	8.81	-27.1	-28.9	14.0	4.50e-06	0	42	102	1048576	14	4439
2026-01-06 05:05:50.59	4.51	8.86	-27.0	-28.6	14.1	8.28e-04	0	42	102	1048576	14	4363
2026-01-06 05:05:51.60	4.38	8.91	-26.9	-29.1	14.1	5.80e-04	0	42	102	1048576	13	4604
2026-01-06 05:05:52.61	4.24	8.97	-26.9	-29.0	14.2	6.80e-06	0	42	102	1048576	13	4579
2026-01-06 05:05:53.62	4.11	9.02	-26.9	-29.0	14.2	5.29e-04	0	42	102	1048576	13	4574
2026-01-06 05:05:54.63	3.97	9.07	-26.9	-29.0	14.2	1.10e-06	0	42	102	1048576	13	4587
2026-01-06 05:05:55.63	3.83	9.12	-26.9	-28.4	14.3	6.80e-06	0	42	102	1048576	14	4306
2026-01-06 05:05:56.64	3.69	9.17	-26.8	-28.8	14.3	0.00e+00	0	42	102	1048576	13	4528
2026-01-06 05:05:57.64	3.56	9.22	-26.8	-28.8	14.3	7.01e-04	0	42	102	1048576	13	4522
2026-01-06 05:05:58.64	3.42	9.28	-26.7	-28.6	14.5	0.00e+00	0	42	102	1048576	13	4459
2026-01-06 05:05:59.65	3.28	9.33	-26.8	-28.8	14.4	6.80e-06	0	42	102	1048576	13	4509
2026-01-06 05:06:00.66	3.14	9.38	-26.9	-29.0	14.3	4.50e-06	0	42	102	1048576	13	4572
2026-01-06 05:06:01.66	3.00	9.43	-26.7	-28.6	14.4	2.20e-06	0	42	102	1048576	13	4463
2026-01-06 05:06:02.67	2.86	9.48	-26.7	-28.5	14.5	1.10e-06	0	42	102	1048576	13	4444
2026-01-06 05:06:03.68	2.72	9.54	-26.7	-28.5	14.5	0.00e+00	0	43	102	1048576	13	4452
2026-01-06 05:06:04.68	2.58	9.59	-26.8	-28.8	14.3	3.40e-06	0	42	102	1048576	13	4526
2026-01-06 05:06:05.69	2.43	9.64	-26.8	-28.8	14.3	2.20e-06	0	42	102	1048576	13	4530
2026-01-06 05:06:06.70	2.29	9.69	-26.9	-29.0	14.2	1.10e-06	0	42	102	1048576	13	4577
2026-01-06 05:06:07.70	2.15	9.74	-26.8	-28.8	14.4	3.40e-06	0	42	102	1048576	13	4528
2026-01-06 05:06:08.70	2.00	9.79	-26.7	-28.6	14.5	2.20e-06	0	42	102	1048576	13	4476
2026-01-06 05:06:09.71	1.86	9.84	-26.7	-28.5	14.5	0.00e+00	0	43	102	1048576	13	4441
2026-01-06 05:06:10.72	1.71	9.89	-26.7	-28.6	14.5	0.00e+00	0	43	102	1048576	13	4473
2026-01-06 05:06:11.72	1.57	9.94	-26.7	-28.4	14.6	0.00e+00	0	43	102	1048576	13	4412
2026-01-06 05:06:12.73	1.42	10.00	-26.6	-28.2	14.7	1.10e-06	0	43	102	1048576	13	4352
2026-01-06 05:06:13.74	1.28	10.05	-26.5	-28.1	14.8	0.00e+00	0	42	102	1048576	13	4323
2026-01-06 05:06:14.74	1.13	10.10	-26.6	-28.3	14.7	2.20e-06	0	43	102	1048576	13	4374
2026-01-06 05:06:15.75	0.98	10.15	-26.7	-28.5	14.6	2.20e-06	0	43	102	1048576	13	4436
2026-01-06 05:06:16.75	0.84	10.20	-26.5	-28.2	14.8	0.00e+00	0	43	102	1048576	13	4343
2026-01-06 05:06:17.76	0.69	10.25	-26.5	-28.1	14.8	1.10e-06	0	42	102	1048576	13	4323
2026-01-06 05:06:18.76	0.54	10.30	-26.5	-28.1	14.8	0.00e+00	0	43	102	1048576	13	4314
2026-01-06 05:06:19.77	0.39	10.35	-26.7	-28.4	14.6	0.00e+00	0	43	102	1048576	13	4422
2026-01-06 05:06:20.77	0.24	10.40	-26.6	-28.2	14.7	0.00e+00	0	43	102	1048576	13	4354
2026-01-06 05:06:21.77	0.09	10.45	-26.6	-28.3	14.7	0.00e+00	0	43	102	1048576	13	4386
2026-01-06 05:06:22.78	359.94	10.50	-26.7	-28.4	14.6	0.00e+00	0	43	102	1048576	13	4418
2026-01-06 05:06:23.78	359.79	10.55	-26.5	-28.1	14.8	0.00e+00	0	43	102	1048576	13	4322
2026-01-06 05:06:24.79	359.64	10.60	-26.4	-27.8	15.0	1.10e-06	0	43	102	1048576	13	4228
2026-01-06 05:06:25.80	359.48	10.65	-26.3	-27.6	15.0	0.00e+00	0	43	102	1048576	13	4194
2026-01-06 05:06:26.80	359.33	10.70	-26.2	-27.8	15.3	0.00e+00	0	43	102	1048576	12	4356
2026-01-06 05:06:27.79	359.18	10.75	-26.2	-28.0	15.2	0.00e+00	0	43	102	1048576	12	4399
2026-01-06 05:06:28.80	359.02	10.80	-26.1	-27.7	15.4	0.00e+00	0	43	102	1048576	12	4318
2026-01-06 05:06:29.80	358.87	10.85	-26.1	-27.7	15.3	0.00e+00	0	43	102	1048576	12	4313
2026-01-06 05:06:30.81	358.71	10.90	-26.3	-28.1	15.1	0.00e+00	0	43	102	1048576	12	4435
2026-01-06 05:06:31.81	358.56	10.94	-26.2	-27.8	15.3	1.10e-06	0	43	102	1048576	12	4342
2026-01-06 05:06:32.82	358.40	10.99	-26.0	-27.5	15.4	0.00e+00	0	43	102	1048576	12	4276
2026-01-06 05:06:33.83	358.25	11.04	-26.0	-27.6	15.5	0.00e+00	0	43	102	1048576	12	4281
2026-01-06 05:06:34.84	358.09	11.09	-26.1	-27.6	15.4	0.00e+00	0	43	102	1048576	12	4289
2026-01-06 05:06:35.84	357.93	11.14	-26.2	-27.9	15.3	0.00e+00	0	43	102	1048576	12	4366
2026-01-06 05:06:36.85	357.77	11.19	-26.3	-28.0	15.2	0.00e+00	0	43	102	1048576	12	4417
2026-01-06 05:06:37.86	357.61	11.24	-26.4	-28.2	15.0	0.00e+00	0	43	102	1048576	12	4473
2026-01-06 05:06:38.87	357.45	11.29	-26.2	-27.9	15.2	0.00e+00	0	43	102	1048576	12	4388
2026-01-06 05:06:39.87	357.29	11.33	-26.2	-27.9	15.3	0.00e+00	0	43	102	1048576	12	4376
2026-01-06 05:06:40.88	357.13	11.38	-26.1	-27.7	15.4	0.00e+00	0	43	102	1048576	12	4326
2026-01-06 05:06:41.89	356.97	11.43	-26.2	-27.9	15.3	0.00e+00	0	43	102	1048576	12	4361
2026-01-06 05:06:42.90	356.81	11.48	-26.3	-28.1	15.1	0.00e+00	0	43	102	1048576	12	4443
2026-01-06 05:06:43.90	356.65	11.53	-26.2	-27.8	13.4	0.00e+00	0	43	102	1048576	12	4362
2026-01-06 05:06:44.91	356.48	11.57	-26.0	-27.5	13.6	0.00e+00	0	43	102	1048576	12	4275
2026-01-06 05:06:45.92	356.32	11.62	-26.0	-27.4	15.6	0.00e+00	0	43	102	1048576	12	4244
2026-01-06 05:06:46.92	356.16	11.67	-26.2	-27.8	15.4	0.00e+00	0	43	102	1048576	12	4338
2026-01-06 05:06:47.93	355.99	11.72	-26.0	-27.4	15.6	0.00e+00	0	43	102	1048576	12	4224
2026-01-06 05:06:48.94	355.83	11.76	-26.0	-27.5	15.6	0.00e+00	0	43	102	1048576	12	4262
2026-01-06 05:06:49.94	355.66	11.81	-26.2	-27.9	15.3	8.50e-04	0	43	102	1048576	12	4377
2026-01-06 05:06:50.95	355.49	11.86	-26.0	-27.4	15.5	0.00e+00	0	43	102	1048576	12	4248
2026-01-06 05:06:51.96	355.33	11.90	-26.0	-27.4	15.6	0.00e+00	0	43	102	1048576	12	4224
2026-01-06 05:06:52.97	355.16	11.95	-26.0	-27.8	15.7	0.00e+00	0	43	102	1048576	11	4462
2026-01-06 05:06:53.98	354.99	12.00	-26.0	-27.9	15.7	7.37e-04	0	43	102	1048576	11	4480
2026-01-06 05:06:54.98	354.82	12.04	-25.9	-27.2	15.7	0.00e+00	0	43	102	1048576	12	4170
2026-01-06 05:06:55.99	354.65	12.09	-25.9	-27.3	15.6	6.59e-04	0	43	102	1048576	12	4201
2026-01-06 05:06:57.00	354.48	12.14	-26.2	-27.8	15.3	7.45e-04	0	43	102	1048576	12	4356
2026-01-06 05:06:58.01	354.31	12.18	-26.0	-27.4	15.6	0.00e+00	0	43	102	1048576	12	4235
2026-01-06 05:06:59.02	354.14	12.23	-25.9	-27.2	15.7	8.26e-04	0	43	102	1048576	12	4181
2026-01-06 05:07:00.03	353.97	12.27	-25.9	-27.3	15.6	0.00e+00	0	43	102	1048576	12	4200
2026-01-06 05:07:01.04	353.80	12.32	-26.0	-27.5	15.5	0.00e+00	0	43	102	1048576	12	4249
2026-01-06 05:07:02.05	353.63	12.36	-25.9	-27.8	15.7	7.99e-04	0	43	102	1048576	11	4452
2026-01-06 05:07:03.05	353.45	12.41	-26.0	-27.3	15.6	7.87e-04	0	43	102	1048576	12	4223
2026-01-06 05:07:04.06	353.28	12.45	-26.2	-27.8	15.4	0.00e+00	0	43	102	1048576	12	4336
2026-01-06 05:07:05.07	353.11	12.50	-26.1	-27.6	15.4	8.26e-04	0	43	102	1048576	12	4300
2026-01-06 05:07:06.07	352.93	12.54	-26.1	-27.6	15.5	8.47e-04	0	43	102	1048576	12	4299
2026-01-06 05:07:07.08	352.76	12.59	-26.2	-27.8	15.4	0.00e+00	0	43	102	1048576	12	4344
2026-01-06 05:07:08.08	352.58	12.63	-26.2	-27.8	15.3	8.23e-04	0	43	102	1048576	12	4355
2026-01-06 05:07:09.09	352.41	12.67	-26.3	-28.1	15.2	0.00e+00	0	43	102	1048576	12	4425
2026-01-06 05:07:10.10	352.23	12.72	-26.0	-27.5	15.5	0.00e+00	0	43	102	1048576	12	4264
2026-01-06 05:07:11.10	352.06	12.76	-25.9	-27.2	15.7	8.20e-04	0	43	102	1048576	12	4190
2026-01-06 05:07:12.11	351.88	12.80	-25.9	-27.7	15.8	8.47e-04	0	43	102	1048576	11	4418
2026-01-06 05:07:13.11	351.70	12.85	-25.8	-27.5	15.9	0.00e+00	0	43	102	1048576	11	4360
2026-01-06 05:07:14.12	351.52	12.89	-25.8	-27.6	15.9	0.00e+00	0	43	102	1048576	11	4385
2026-01-06 05:07:15.13	351.34	12.93	-25.7	-27.3	16.0	8.64e-04	0	43	102	1048576	11	4307
2026-01-06 05:07:16.13	351.16	12.97	-25.8	-27.4	16.0	0.00e+00	0	43	102	1048576	11	4325
2026-01-06 05:07:17.14	350.98	13.02	-25.9	-27.7	15.8	8.12e-04	0	43	102	1048576	11	4412
2026-01-06 05:07:18.14	350.80	13.06	-25.8	-27.4	16.0	0.00e+00	0	43	102	1048576	11	4337
2026-01-06 05:07:19.15	350.62	13.10	-25.8	-27.4	16.0	0.00e+00	0	43	102	1048576	11	4341
2026-01-06 05:07:20.16	350.44	13.14	-25.8	-27.5	15.9	7.94e-04	0	43	102	1048576	11	4376
2026-01-06 05:07:21.16	350.26	13.18	-25.9	-27.7	15.8	0.00e+00	0	43	102	1048576	11	4413
2026-01-06 05:07:22.16	350.08	13.22	-26.0	-27.9	15.7	0.00e+00	0	43	102	1048576	11	4489
2026-01-06 05:07:23.17	349.89	13.27	-25.8	-27.0	15.8	0.00e+00	0	43	102	1048576	12	4127
2026-01-06 05:07:24.17	349.71	13.31	-25.9	-27.8	15.8	0.00e+00	0	43	102	1048576	11	4450
2026-01-06 05:07:25.18	349.53	13.35	-25.9	-27.6	15.9	0.00e+00	0	43	102	1048576	11	4405
2026-01-06 05:07:26.19	349.34	13.39	-25.9	-27.6	15.8	0.00e+00	0	43	102	1048576	11	4404
2026-01-06 05:07:27.20	349.16	13.43	-25.8	-27.5	15.9	0.00e+00	0	43	102	1048576	11	4362
2026-01-06 05:07:28.21	348.97	13.47	-25.8	-27.4	16.0	0.00e+00	0	43	102	1048576	11	4349
2026-01-06 05:07:29.21	348.78	13.51	-25.7	-27.1	16.1	0.00e+00	0	43	102	1048576	11	4266
2026-01-06 05:07:30.22	348.60	13.55	-25.6	-27.0	16.2	0.00e+00	0	43	102	1048576	11	4234
2026-01-06 05:07:31.22	348.41	13.58	-25.6	-27.0	16.2	0.00e+00	0	43	102	1048576	11	4229
2026-01-06 05:07:32.22	348.22	13.62	-25.6	-26.9	16.3	0.00e+00	0	43	102	1048576	11	4216
2026-01-06 05:07:33.22	348.04	13.66	-25.5	-26.8	16.3	0.00e+00	0	43	102	1048576	11	4186
2026-01-06 05:07:34.23	347.85	13.70	-25.6	-27.0	16.2	0.00e+00	0	43	102	1048576	11	4246
2026-01-06 05:07:35.24	347.66	13.74	-25.5	-26.9	16.3	0.00e+00	0	43	102	1048576	11	4201
2026-01-06 05:07:36.25	347.47	13.78	-25.6	-27.0	16.2	0.00e+00	0	43	102	1048576	11	4226
2026-01-06 05:07:37.25	347.28	13.81	-25.5	-26.8	16.3	0.00e+00	0	43	102	1048576	11	4183
2026-01-06 05:07:38.26	347.09	13.85	-25.5	-26.8	16.3	0.00e+00	0	43	102	1048576	11	4178
2026-01-06 05:07:39.26	346.90	13.89	-25.5	-26.8	16.4	0.00e+00	0	43	102	1048576	11	4168
2026-01-06 05:07:40.27	346.70	13.93	-25.5	-26.8	16.4	0.00e+00	0	43	102	1048576	11	4168
2026-01-06 05:07:41.27	346.51	13.96	-25.4	-27.1	16.4	0.00e+00	0	43	102	1048576	10	4388
2026-01-06 05:07:42.28	346.32	14.00	-25.3	-26.9	16.5	0.00e+00	0	43	102	1048576	10	4328
2026-01-06 05:07:43.29	346.13	14.03	-25.2	-26.7	16.7	0.00e+00	0	43	102	1048576	10	4259
2026-01-06 05:07:44.29	345.93	14.07	-25.2	-26.6	16.7	0.00e+00	0	43	102	1048576	10	4242
2026-01-06 05:07:45.30	345.74	14.11	-25.2	-26.6	16.7	0.00e+00	0	43	102	1048576	10	4238
2026-01-06 05:07:46.31	345.54	14.14	-25.2	-26.7	16.7	0.00e+00	0	43	102	1048576	10	4263
2026-01-06 05:07:47.31	345.35	14.18	-25.3	-27.0	16.5	0.00e+00	0	43	102	1048576	10	4338
2026-01-06 05:07:48.32	345.15	14.21	-25.5	-26.7	16.4	0.00e+00	0	43	102	1048576	11	4166
2026-01-06 05:07:49.33	344.96	14.24	-25.5	-26.7	16.4	0.00e+00	0	43	102	1048576	11	4162
2026-01-06 05:07:50.33	344.76	14.28	-25.4	-26.7	16.4	0.00e+00	0	43	102	1048576	11	4154
2026-01-06 05:07:51.34	344.56	14.31	-25.3	-27.0	16.5	0.00e+00	0	44	102	1048576	10	4339
2026-01-06 05:07:52.34	344.37	14.35	-25.1	-26.5	16.8	0.00e+00	0	43	102	1048576	10	4203
2026-01-06 05:07:53.35	344.17	14.38	-25.1	-26.4	16.9	0.00e+00	0	43	102	1048576	10	4176
2026-01-06 05:07:54.35	343.97	14.41	-25.2	-26.6	16.7	0.00e+00	0	43	102	1048576	10	4230
2026-01-06 05:07:55.36	343.77	14.44	-25.2	-26.6	16.7	0.00e+00	0	43	102	1048576	10	4249
2026-01-06 05:07:56.36	343.58	14.48	-25.4	-27.0	16.5	0.00e+00	0	43	102	1048576	10	4347
2026-01-06 05:07:57.37	343.38	14.51	-25.4	-27.1	16.5	0.00e+00	0	43	102	1048576	10	4369
2026-01-06 05:07:58.37	343.18	14.54	-25.5	-27.2	16.4	0.00e+00	0	43	102	1048576	10	4400
2026-01-06 05:07:59.38	342.98	14.57	-25.3	-26.8	16.6	0.00e+00	0	43	102	1048576	10	4280
2026-01-06 05:08:00.39	342.77	14.60	-25.2	-26.7	16.7	0.00e+00	0	43	102	1048576	10	4258
2026-01-06 05:08:01.40	342.57	14.63	-25.2	-26.5	16.8	0.00e+00	0	43	102	1048576	10	4225
2026-01-06 05:08:02.40	342.37	14.66	-25.1	-26.5	15.4	3.24e-04	0	44	102	1048576	10	4205
2026-01-06 05:08:03.41	342.17	14.69	-25.1	-26.4	16.9	0.00e+00	0	43	102	1048576	10	4180
2026-01-06 05:08:04.42	341.97	14.72	-25.1	-26.4	16.8	4.82e-04	0	43	102	1048576	10	4194
2026-01-06 05:08:05.43	341.76	14.75	-25.1	-26.5	16.8	0.00e+00	0	43	102	1048576	10	4212
2026-01-06 05:08:06.43	341.56	14.78	-25.2	-26.5	16.8	0.00e+00	0	43	102	1048576	10	4225
2026-01-06 05:08:07.44	341.36	14.81	-25.2	-26.6	16.8	0.00e+00	0	43	102	1048576	10	4244
2026-01-06 05:08:08.44	341.15	14.84	-25.2	-26.7	16.7	0.00e+00	0	43	102	1048576	10	4265
2026-01-06 05:08:09.45	340.95	14.87	-25.2	-26.6	16.8	0.00e+00	0	43	102	1048576	10	4230
2026-01-06 05:08:10.45	340.74	14.90	-25.2	-26.7	16.7	0.00e+00	0	43	102	1048576	10	4264
2026-01-06 05:08:11.46	340.54	14.92	-25.2	-26.7	16.7	2.06e-04	0	43	102	1048576	10	4273
2026-01-06 05:08:12.47	340.33	14.95	-25.2	-26.7	16.7	0.00e+00	0	43	102	1048576	10	4268
2026-01-06 05:08:13.48	340.13	14.98	-25.3	-26.9	16.6	1.57e-04	0	43	102	1048576	10	4322
2026-01-06 05:08:14.48	339.92	15.00	-25.3	-26.9	16.6	2.94e-04	0	43	102	1048576	10	4332
2026-01-06 05:08:15.49	339.71	15.03	-25.3	-26.9	16.6	0.00e+00	0	43	102	1048576	10	4308
2026-01-06 05:08:16.50	339.50	15.06	-25.2	-26.7	16.7	4.18e-04	0	43	102	1048576	10	4264
2026-01-06 05:08:17.50	339.30	15.08	-25.1	-26.5	16.8	0.00e+00	0	44	102	1048576	10	4216
2026-01-06 05:08:18.50	339.09	15.11	-25.0	-26.3	16.9	0.00e+00	0	43	102	1048576	10	4160
2026-01-06 05:08:19.51	338.88	15.13	-25.1	-26.5	16.8	7.26e-04	0	43	102	1048576	10	4208
2026-01-06 05:08:20.51	338.68	15.15	-25.1	-26.4	16.9	6.72e-04	0	43	102	1048576	10	4179
2026-01-06 05:08:21.51	338.47	15.18	-24.9	-26.0	17.1	0.00e+00	0	43	102	1048576	10	4081
2026-01-06 05:08:22.52	338.26	15.20	-24.9	-26.1	17.1	3.55e-04	0	44	102	1048576	10	4096
2026-01-06 05:08:23.53	338.05	15.23	-25.0	-26.3	16.9	2.56e-04	0	44	102	1048576	10	4165
2026-01-06 05:08:24.54	337.84	15.25	-25.2	-26.6	16.7	0.00e+00	0	44	102	1048576	10	4249
2026-01-06 05:08:25.55	337.63	15.27	-25.2	-26.7	16.7	5.70e-06	0	43	102	1048576	10	4255
2026-01-06 05:08:26.55	337.42	15.29	-25.3	-26.9	16.6	9.61e-05	0	43	102	1048576	10	4311
2026-01-06 05:08:27.56	337.20	15.32	-25.4	-27.1	16.5	0.00e+00	0	44	102	1048576	10	4367
2026-01-06 05:08:28.57	336.99	15.34	-25.3	-26.8	16.6	7.17e-04	0	43	102	1048576	10	4300
2026-01-06 05:08:29.57	336.78	15.36	-25.1	-26.4	16.8	7.23e-04	0	44	102	1048576	10	4197
2026-01-06 05:08:30.58	336.57	15.38	-25.0	-26.3	16.9	0.00e+00	0	44	102	1048576	10	4149
2026-01-06 05:08:31.59	336.36	15.40	-25.0	-26.2	17.0	0.00e+00	0	44	102	1048576	10	4126
2026-01-06 05:08:32.60	336.14	15.42	-25.2	-26.6	16.8	7.97e-04	0	43	102	1048576	10	4234
2026-01-06 05:08:33.60	335.93	15.44	-25.1	-26.5	16.8	0.00e+00	0	43	102	1048576	10	4213
2026-01-06 05:08:34.61	335.72	15.46	-24.9	-26.5	17.0	7.66e-04	0	43	102	1048576	9	4340
2026-01-06 05:08:35.61	335.51	15.48	-24.9	-26.5	17.1	7.45e-04	0	44	102	1048576	9	4316
2026-01-06 05:08:36.61	335.29	15.49	-25.1	-26.3	16.9	0.00e+00	0	43	102	1048576	10	4169
2026-01-06 05:08:37.62	335.08	15.51	-25.4	-27.0	16.5	0.00e+00	0	43	102	1048576	10	4340
2026-01-06 05:08:38.62	334.87	15.53	-25.4	-26.6	16.5	0.00e+00	0	43	102	1048576	11	4141
2026-01-06 05:08:39.63	334.65	15.55	-25.3	-26.4	16.6	0.00e+00	0	43	102	1048576	11	4074
2026-01-06 05:08:40.64	334.44	15.56	-25.6	-26.9	16.3	0.00e+00	0	44	102	1048576	11	4217
2026-01-06 05:08:41.64	334.22	15.58	-25.6	-27.0	16.2	2.83e-04	0	43	102	1048576	11	4237
2026-01-06 05:08:42.64	334.01	15.60	-25.5	-26.9	16.3	0.00e+00	0	43	102	1048576	11	4207
2026-01-06 05:08:43.64	333.80	15.61	-25.4	-26.6	16.5	0.00e+00	0	43	102	1048576	11	4116
2026-01-06 05:08:44.64	333.58	15.63	-25.4	-27.0	16.5	0.00e+00	0	43	102	1048576	10	4347
2026-01-06 05:08:45.65	333.36	15.64	-25.2	-26.7	16.7	0.00e+00	0	44	102	1048576	10	4255
2026-01-06 05:08:46.66	333.15	15.66	-24.9	-26.0	17.1	0.00e+00	0	43	102	1048576	10	4073
2026-01-06 05:08:47.67	332.93	15.67	-24.7	-25.5	17.3	0.00e+00	0	43	102	1048576	10	3962
2026-01-06 05:08:48.68	332.71	15.68	-24.7	-25.5	17.4	0.00e+00	0	44	102	1048576	10	3953
2026-01-06 05:08:49.68	332.50	15.70	-24.7	-26.1	17.3	0.00e+00	0	44	102	1048576	9	4210
2026-01-06 05:08:50.69	332.28	15.71	-24.7	-26.1	17.3	0.00e+00	0	43	102	1048576	9	4213
2026-01-06 05:08:51.70	332.06	15.72	-24.7	-26.0	17.3	0.00e+00	0	43	102	1048576	9	4198
2026-01-06 05:08:52.71	331.85	15.73	-24.5	-25.7	17.5	0.00e+00	0	43	102	1048576	9	4110
2026-01-06 05:08:53.72	331.63	15.75	-24.5	-25.6	17.5	0.00e+00	0	44	102	1048576	9	4096
2026-01-06 05:08:54.72	331.41	15.76	-24.6	-25.8	17.4	0.00e+00	0	44	102	1048576	9	4141
2026-01-06 05:08:55.73	331.19	15.77	-24.6	-25.9	17.3	0.00e+00	0	43	102	1048576	9	4180
2026-01-06 05:08:56.74	330.97	15.78	-24.7	-26.2	17.2	0.00e+00	0	43	102	1048576	9	4236
2026-01-06 05:08:57.74	330.76	15.79	-24.8	-26.2	17.2	0.00e+00	0	44	102	1048576	9	4243
2026-01-06 05:08:58.75	330.54	15.80	-24.8	-26.3	17.1	0.00e+00	0	43	102	1048576	9	4283
2026-01-06 05:08:59.76	330.32	15.81	-24.8	-26.3	17.2	0.00e+00	0	44	102	1048576	9	4276
2026-01-06 05:09:00.76	330.10	15.82	-24.8	-26.3	17.1	0.00e+00	0	44	102	1048576	9	4281
2026-01-06 05:09:01.77	329.88	15.82	-24.7	-26.1	17.2	0.00e+00	0	43	102	1048576	9	4219
2026-01-06 05:09:02.77	329.67	15.83	-24.7	-26.0	17.3	0.00e+00	0	44	102	1048576	9	4189
2026-01-06 05:09:03.78	329.45	15.84	-24.8	-26.3	17.2	0.00e+00	0	43	102	1048576	9	4261
2026-01-06 05:09:04.79	329.23	15.85	-24.8	-26.3	17.2	0.00e+00	0	44	102	1048576	9	4263
2026-01-06 05:09:05.80	329.01	15.85	-24.7	-26.1	17.2	0.00e+00	0	44	102	1048576	9	4232
2026-01-06 05:09:06.80	328.79	15.86	-24.9	-26.5	17.1	0.00e+00	0	43	102	1048576	9	4325
2026-01-06 05:09:07.81	328.57	15.86	-24.8	-26.2	17.2	0.00e+00	0	43	102	1048576	9	4246
2026-01-06 05:09:08.82	328.35	15.87	-24.6	-25.8	17.4	0.00e+00	0	44	102	1048576	9	4149
2026-01-06 05:09:09.82	328.13	15.88	-24.5	-25.7	17.5	0.00e+00	0	44	102	1048576	9	4107
2026-01-06 05:09:10.82	327.91	15.88	-24.5	-25.6	17.5	0.00e+00	0	44	102	1048576	9	4099
2026-01-06 05:09:11.83	327.69	15.88	-24.6	-25.9	17.3	0.00e+00	0	44	102	1048576	9	4182
2026-01-06 05:09:12.83	327.47	15.89	-24.7	-26.0	17.3	0.00e+00	0	43	102	1048576	9	4204
2026-01-06 05:09:13.84	327.25	15.89	-24.7	-26.1	17.3	0.00e+00	0	44	102	1048576	9	4227
2026-01-06 05:09:14.84	327.04	15.89	-24.7	-26.0	17.3	0.00e+00	0	44	102	1048576	9	4195
2026-01-06 05:09:15.84	326.82	15.90	-24.7	-26.1	17.2	0.00e+00	0	44	102	1048576	9	4222
2026-01-06 05:09:16.85	326.60	15.90	-24.6	-25.9	17.3	0.00e+00	0	43	102	1048576	9	4180
2026-01-06 05:09:17.86	326.38	15.90	-24.6	-25.9	17.4	0.00e+00	0	44	102	1048576	9	4165
2026-01-06 05:09:18.87	326.16	15.90	-24.6	-25.8	17.3	0.00e+00	0	44	102	1048576	9	4155
2026-01-06 05:09:19.87	325.94	15.90	-24.5	-25.7	17.4	2.76e-04	0	44	102	1048576	9	4122
2026-01-06 05:09:20.87	325.72	15.90	-24.7	-26.0	17.3	0.00e+00	0	44	102	1048576	9	4207
2026-01-06 05:09:21.88	325.50	15.90	-24.6	-25.9	17.4	0.00e+00	0	44	102	1048576	9	4181
2026-01-06 05:09:22.89	325.28	15.90	-24.7	-26.0	17.3	0.00e+00	0	44	102	1048576	9	4199
2026-01-06 05:09:23.89	325.06	15.90	-24.8	-26.2	17.2	0.00e+00	0	44	102	1048576	9	4251
2026-01-06 05:09:24.89	324.84	15.90	-24.8	-26.2	17.2	0.00e+00	0	44	102	1048576	9	4243
2026-01-06 05:09:25.90	324.62	15.90	-24.9	-26.4	17.1	0.00e+00	0	44	102	1048576	9	4300
2026-01-06 05:09:26.91	324.40	15.89	-24.8	-26.3	17.1	0.00e+00	0	44	102	1048576	9	4282
2026-01-06 05:09:27.92	324.18	15.89	-24.9	-26.4	17.1	0.00e+00	0	44	102	1048576	9	4308
2026-01-06 05:09:28.93	323.96	15.89	-24.8	-26.3	17.2	7.12e-04	0	44	102	1048576	9	4271
2026-01-06 05:09:29.93	323.74	15.88	-24.8	-26.3	17.1	0.00e+00	0	44	102	1048576	9	4271
2026-01-06 05:09:30.94	323.52	15.88	-24.9	-26.5	17.0	6.99e-04	0	44	102	1048576	9	4329
2026-01-06 05:09:31.95	323.30	15.88	-24.7	-26.1	17.2	7.36e-04	0	44	102	1048576	9	4228
2026-01-06 05:09:32.96	323.08	15.87	-24.8	-26.3	17.1	0.00e+00	0	44	102	1048576	9	4271
2026-01-06 05:09:33.96	322.86	15.87	-24.8	-26.4	17.1	7.49e-04	0	44	102	1048576	9	4292
2026-01-06 05:09:34.97	322.64	15.86	-24.8	-26.3	17.1	0.00e+00	0	44	102	1048576	9	4276
2026-01-06 05:09:35.98	322.42	15.85	-24.8	-26.4	17.1	0.00e+00	0	44	102	1048576	9	4293
2026-01-06 05:09:36.98	322.21	15.85	-24.7	-26.1	17.2	6.87e-04	0	44	102	1048576	9	4230
2026-01-06 05:09:37.99	321.99	15.84	-24.7	-26.0	17.3	3.00e-04	0	44	102	1048576	9	4201
2026-01-06 05:09:39.00	321.77	15.83	-24.8	-26.2	17.2	0.00e+00	0	43	102	1048576	9	4250
2026-01-06 05:09:40.00	321.55	15.82	-24.7	-26.1	17.2	2.97e-04	0	44	102	1048576	9	4233
2026-01-06 05:09:41.01	321.33	15.82	-24.7	-26.0	17.3	5.81e-04	0	44	102	1048576	9	4202
2026-01-06 05:09:42.02	321.11	15.81	-24.7	-26.0	17.3	0.00e+00	0	44	102	1048576	9	4193
2026-01-06 05:09:43.02	320.89	15.80	-24.6	-25.8	17.4	7.76e-04	0	44	102	1048576	9	4147
2026-01-06 05:09:44.02	320.68	15.79	-24.7	-26.0	17.3	8.00e-04	0	44	102	1048576	9	4197
2026-01-06 05:09:45.03	320.46	15.78	-24.7	-26.0	17.3	0.00e+00	0	44	102	1048576	9	4190
2026-01-06 05:09:46.04	320.24	15.77	-24.7	-26.2	17.2	7.46e-04	0	43	102	1048576	9	4237
2026-01-06 05:09:47.05	320.02	15.76	-24.8	-26.2	17.2	6.92e-04	0	43	102	1048576	9	4256
2026-01-06 05:09:48.06	319.80	15.75	-24.9	-26.5	17.0	0.00e+00	0	44	102	1048576	9	4319
2026-01-06 05:09:49.07	319.58	15.73	-24.8	-26.2	17.1	0.00e+00	0	44	102	1048576	9	4260
2026-01-06 05:09:50.08	319.36	15.72	-24.7	-26.1	17.2	5.84e-04	0	44	102	1048576	9	4229
2026-01-06 05:09:51.08	319.15	15.71	-24.8	-26.2	17.2	0.00e+00	0	44	102	1048576	9	4249
2026-01-06 05:09:52.09	318.93	15.70	-24.8	-26.3	17.1	6.38e-04	0	43	102	1048576	9	4273
2026-01-06 05:09:53.10	318.71	15.68	-24.7	-26.2	17.2	0.00e+00	0	44	102	1048576	9	4237
2026-01-06 05:09:54.10	318.50	15.67	-24.8	-26.2	17.1	0.00e+00	0	44	102	1048576	9	4259
2026-01-06 05:09:55.11	318.28	15.66	-24.8	-26.2	17.2	0.00e+00	0	44	102	1048576	9	4252
2026-01-06 05:09:56.11	318.07	15.64	-24.8	-26.3	17.1	0.00e+00	0	44	102	1048576	9	4259
2026-01-06 05:09:57.12	317.85	15.63	-24.9	-26.6	17.0	0.00e+00	0	43	102	1048576	9	4346
2026-01-06 05:09:58.12	317.63	15.61	-24.8	-26.2	17.2	0.00e+00	0	43	102	1048576	9	4253
2026-01-06 05:09:59.13	317.42	15.60	-24.7	-26.1	17.2	0.00e+00	0	44	102	1048576	9	4230
2026-01-06 05:10:00.13	317.20	15.58	-24.8	-26.3	17.1	0.00e+00	0	44	102	1048576	9	4269
2026-01-06 05:10:01.14	316.99	15.56	-24.7	-26.1	17.2	0.00e+00	0	43	102	1048576	9	4220
2026-01-06 05:10:02.14	316.78	15.55	-24.7	-26.1	17.2	0.00e+00	0	43	102	1048576	9	4226
2026-01-06 05:10:03.15	316.56	15.53	-24.7	-26.1	17.2	0.00e+00	0	43	102	1048576	9	4212
2026-01-06 05:10:04.15	316.35	15.51	-24.6	-25.8	17.3	0.00e+00	0	44	102	1048576	9	4148
2026-01-06 05:10:05.15	316.13	15.50	-24.6	-25.8	17.4	0.00e+00	0	44	102	1048576	9	4139
2026-01-06 05:10:06.16	315.92	15.48	-24.7	-26.0	17.2	0.00e+00	0	44	102	1048576	9	4199
2026-01-06 05:10:07.17	315.71	15.46	-24.6	-25.8	17.3	0.00e+00	0	43	102	1048576	9	4153
2026-01-06 05:10:08.18	315.49	15.44	-24.6	-25.9	17.3	0.00e+00	0	44	102	1048576	9	4174
2026-01-06 05:10:09.18	315.28	15.42	-24.7	-26.1	17.2	0.00e+00	0	44	102	1048576	9	4223
2026-01-06 05:10:10.19	315.07	15.40	-24.6	-25.8	17.4	0.00e+00	0	44	102	1048576	9	4133
2026-01-06 05:10:11.20	314.85	15.38	-24.5	-25.7	17.4	0.00e+00	0	43	102	1048576	9	4115
2026-01-06 05:10:12.20	314.64	15.36	-24.7	-26.0	17.3	0.00e+00	0	44	102	1048576	9	4193
2026-01-06 05:10:13.21	314.43	15.34	-24.7	-26.2	17.2	0.00e+00	0	44	102	1048576	9	4236
2026-01-06 05:10:14.22	314.22	15.32	-25.0	-26.6	16.9	0.00e+00	0	44	102	1048576	9	4365
2026-01-06 05:10:15.21	314.01	15.29	-24.9	-26.6	16.9	0.00e+00	0	44	102	1048576	9	4359
2026-01-06 05:10:16.22	313.80	15.27	-25.0	-26.2	16.9	0.00e+00	0	44	102	1048576	10	4144
2026-01-06 05:10:17.22	313.59	15.25	-24.9	-25.9	17.0	0.00e+00	0	44	102	1048576	10	4063
2026-01-06 05:10:18.23	313.38	15.23	-24.7	-25.6	17.2	0.00e+00	0	43	102	1048576	10	3999
2026-01-06 05:10:19.23	313.17	15.20	-24.7	-26.1	17.2	0.00e+00	0	44	102	1048576	9	4226
2026-01-06 05:10:20.24	312.96	15.18	-24.7	-26.0	17.2	0.00e+00	0	44	102	1048576	9	4196
2026-01-06 05:10:21.24	312.75	15.16	-24.7	-26.1	17.2	0.00e+00	0	43	102	1048576	9	4222
2026-01-06 05:10:22.25	312.54	15.13	-24.7	-26.0	17.2	0.00e+00	0	44	102	1048576	9	4200
2026-01-06 05:10:23.25	312.33	15.11	-24.7	-26.1	17.2	0.00e+00	0	44	102	1048576	9	4230
2026-01-06 05:10:24.25	312.13	15.08	-24.8	-26.3	17.0	0.00e+00	0	44	102	1048576	9	4286
2026-01-06 05:10:25.26	311.92	15.06	-24.7	-26.2	17.1	0.00e+00	0	44	102	1048576	9	4241
2026-01-06 05:10:26.27	311.71	15.03	-24.9	-26.5	16.9	0.00e+00	0	44	102	1048576	9	4330
2026-01-06 05:10:27.27	311.50	15.00	-25.1	-26.5	16.7	0.00e+00	0	43	102	1048576	10	4224
2026-01-06 05:10:28.28	311.30	14.98	-25.2	-26.8	16.5	0.00e+00	0	44	102	1048576	10	4291
2026-01-06 05:10:29.29	311.09	14.95	-25.2	-26.7	16.6	0.00e+00	0	44	102	1048576	10	4284
2026-01-06 05:10:30.29	310.88	14.92	-25.3	-26.8	16.5	0.00e+00	0	44	102	1048576	10	4294
2026-01-06 05:10:31.30	310.68	14.90	-25.2	-26.7	16.6	0.00e+00	0	44	102	1048576	10	4264
2026-01-06 05:10:32.31	310.47	14.87	-25.2	-26.7	16.6	0.00e+00	0	44	102	1048576	10	4264
2026-01-06 05:10:33.31	310.27	14.84	-25.2	-26.8	16.5	0.00e+00	0	44	102	1048576	10	4288
2026-01-06 05:10:34.31	310.06	14.81	-24.9	-26.1	15.9	0.00e+00	0	44	102	1048576	11	4123
2026-01-06 05:10:35.32	309.86	14.78	-25.2	-26.2	16.5	0.00e+00	0	43	102	1048576	11	4030
2026-01-06 05:10:36.33	309.65	14.75	-25.1	-26.4	16.2	0.00e+00	0	44	102	1048576	10	4200
2026-01-06 05:10:37.33	309.45	14.72	-25.1	-26.4	16.7	0.00e+00	0	44	102	1048576	10	4203
2026-01-06 05:10:38.34	309.25	14.69	-25.2	-26.6	16.6	0.00e+00	0	43	102	1048576	10	4254
2026-01-06 05:10:39.35	309.05	14.66	-25.1	-26.4	16.7	0.00e+00	0	44	102	1048576	10	4202
2026-01-06 05:10:40.36	308.84	14.63	-25.1	-26.5	16.6	0.00e+00	0	43	102	1048576	10	4228
2026-01-06 05:10:41.37	308.64	14.60	-25.2	-26.7	16.5	0.00e+00	0	43	102	1048576	10	4280
2026-01-06 05:10:42.38	308.44	14.57	-25.3	-26.8	16.5	7.55e-04	0	44	102	1048576	10	4293
2026-01-06 05:10:43.39	308.24	14.54	-25.4	-27.1	16.4	0.00e+00	0	44	102	1048576	10	4376
2026-01-06 05:10:44.39	308.04	14.51	-25.4	-27.1	16.3	0.00e+00	0	44	102	1048576	10	4379
2026-01-06 05:10:45.39	307.84	14.48	-25.6	-27.0	16.1	0.00e+00	0	43	102	1048576	11	4231
2026-01-06 05:10:46.39	307.64	14.44	-25.7	-27.3	16.0	6.89e-04	0	44	102	1048576	11	4321
2026-01-06 05:10:47.39	307.44	14.41	-25.7	-27.2	16.0	0.00e+00	0	44	102	1048576	11	4294
2026-01-06 05:10:48.39	307.24	14.38	-25.4	-27.0	16.3	1.10e-06	0	44	102	1048576	10	4362
2026-01-06 05:10:49.40	307.05	14.35	-25.3	-26.9	16.5	7.85e-04	0	44	102	1048576	10	4315
2026-01-06 05:10:50.41	306.85	14.31	-25.4	-27.1	16.3	0.00e+00	0	43	102	1048576	10	4367
2026-01-06 05:10:51.41	306.65	14.28	-25.4	-27.1	16.3	8.56e-04	0	44	102	1048576	10	4386
2026-01-06 05:10:52.42	306.45	14.24	-25.7	-27.2	16.0	0.00e+00	0	44	102	1048576	11	4301
2026-01-06 05:10:53.43	306.26	14.21	-25.7	-27.3	15.9	0.00e+00	0	43	102	1048576	11	4330
2026-01-06 05:10:54.44	306.06	14.18	-25.5	-26.8	16.2	7.88e-04	0	43	102	1048576	11	4176
2026-01-06 05:10:55.45	305.86	14.14	-25.2	-26.6	16.5	7.95e-04	0	44	102	1048576	10	4249
2026-01-06 05:10:56.45	305.67	14.11	-25.2	-26.6	16.6	0.00e+00	0	44	102	1048576	10	4236
2026-01-06 05:10:57.45	305.48	14.07	-25.1	-26.5	16.6	0.00e+00	0	43	102	1048576	10	4227
2026-01-06 05:10:58.46	305.28	14.03	-25.2	-26.7	16.5	8.40e-04	0	44	102	1048576	10	4275
2026-01-06 05:10:59.47	305.09	14.00	-25.4	-27.0	16.4	0.00e+00	0	44	102	1048576	10	4354
2026-01-06 05:11:00.47	304.89	13.96	-25.2	-26.8	16.5	1.07e-03	0	44	102	1048576	10	4290
2026-01-06 05:11:01.48	304.70	13.93	-25.1	-26.5	16.6	1.09e-03	0	44	102	1048576	10	4228
2026-01-06 05:11:02.48	304.51	13.89	-25.2	-26.7	16.5	0.00e+00	0	44	102	1048576	10	4275
2026-01-06 05:11:03.48	304.32	13.85	-25.3	-26.8	16.5	8.62e-04	0	44	102	1048576	10	4298
2026-01-06 05:11:04.49	304.13	13.81	-25.3	-26.8	16.5	0.00e+00	0	44	102	1048576	10	4292
2026-01-06 05:11:05.50	303.94	13.78	-25.3	-26.9	16.4	0.00e+00	0	44	102	1048576	10	4336
2026-01-06 05:11:06.51	303.75	13.74	-25.3	-26.9	16.4	0.00e+00	0	43	102	1048576	10	4338
2026-01-06 05:11:07.51	303.56	13.70	-25.3	-27.0	16.4	9.95e-05	0	44	102	1048576	10	4342
2026-01-06 05:11:08.52	303.37	13.66	-25.3	-26.9	16.4	0.00e+00	0	44	102	1048576	10	4333
2026-01-06 05:11:09.52	303.18	13.62	-25.4	-27.2	16.2	3.64e-04	0	44	102	1048576	10	4404
2026-01-06 05:11:10.53	302.99	13.58	-25.4	-27.1	16.3	1.02e-03	0	44	102	1048576	10	4373
2026-01-06 05:11:11.54	302.80	13.54	-25.4	-27.1	16.2	0.00e+00	0	44	102	1048576	10	4391
2026-01-06 05:11:12.55	302.61	13.51	-25.5	-27.2	16.2	1.11e-03	0	43	102	1048576	10	4421
2026-01-06 05:11:13.55	302.43	13.47	-25.4	-26.7	16.2	0.00e+00	0	44	102	1048576	11	4148
2026-01-06 05:11:14.56	302.24	13.43	-25.3	-26.3	16.4	0.00e+00	0	44	102	1048576	11	4066
2026-01-06 05:11:15.57	302.06	13.39	-25.3	-26.9	16.4	0.00e+00	0	44	102	1048576	10	4311
2026-01-06 05:11:16.58	301.87	13.35	-25.3	-26.8	16.4	0.00e+00	0	44	102	1048576	10	4293
2026-01-06 05:11:17.58	301.69	13.30	-25.2	-26.7	16.5	0.00e+00	0	44	102	1048576	10	4263
2026-01-06 05:11:18.59	301.50	13.26	-25.2	-26.7	16.5	0.00e+00	0	44	102	1048576	10	4270
2026-01-06 05:11:19.59	301.32	13.22	-25.2	-26.8	16.4	0.00e+00	0	44	102	1048576	10	4291
2026-01-06 05:11:20.60	301.13	13.18	-25.3	-26.9	16.4	0.00e+00	0	44	102	1048576	10	4322
2026-01-06 05:11:21.61	300.95	13.14	-25.3	-27.0	16.3	0.00e+00	0	44	102	1048576	10	4349
2026-01-06 05:11:22.62	300.77	13.10	-25.3	-27.0	16.3	0.00e+00	0	44	102	1048576	10	4344
2026-01-06 05:11:23.62	300.59	13.06	-25.4	-27.1	16.2	0.00e+00	0	44	102	1048576	10	4391
2026-01-06 05:11:24.63	300.41	13.01	-25.3	-27.0	16.3	0.00e+00	0	44	102	1048576	10	4351
2026-01-06 05:11:25.64	300.22	12.97	-25.4	-27.0	16.3	0.00e+00	0	44	102	1048576	10	4355
2026-01-06 05:11:26.64	300.05	12.93	-25.4	-27.2	16.2	0.00e+00	0	44	102	1048576	10	4398
2026-01-06 05:11:27.65	299.87	12.89	-25.5	-27.3	16.1	0.00e+00	0	44	102	1048576	10	4438
2026-01-06 05:11:28.65	299.69	12.84	-25.4	-26.6	16.2	0.00e+00	0	44	102	1048576	11	4138
2026-01-06 05:11:29.66	299.51	12.80	-25.4	-26.7	16.2	0.00e+00	0	44	102	1048576	11	4156
2026-01-06 05:11:30.67	299.33	12.76	-25.4	-26.5	16.3	0.00e+00	0	44	102	1048576	11	4125
2026-01-06 05:11:31.67	299.15	12.71	-25.3	-27.0	16.3	0.00e+00	0	44	102	1048576	10	4348
2026-01-06 05:11:32.68	298.98	12.67	-25.3	-27.0	16.3	1.10e-06	0	44	102	1048576	10	4349
2026-01-06 05:11:33.68	298.80	12.63	-25.4	-27.1	16.2	0.00e+00	0	44	102	1048576	10	4394
2026-01-06 05:11:34.69	298.62	12.58	-25.4	-27.2	16.2	0.00e+00	0	44	102	1048576	10	4410
2026-01-06 05:11:35.70	298.45	12.54	-25.5	-27.3	16.1	0.00e+00	0	44	102	1048576	10	4431
2026-01-06 05:11:36.71	298.27	12.49	-25.4	-26.7	16.2	0.00e+00	0	44	102	1048576	11	4167
2026-01-06 05:11:37.71	298.10	12.45	-25.5	-26.8	16.1	0.00e+00	0	44	102	1048576	11	4175
2026-01-06 05:11:38.72	297.92	12.40	-25.5	-26.7	16.1	1.10e-06	0	44	102	1048576	11	4172
2026-01-06 05:11:39.73	297.75	12.36	-25.5	-26.7	16.1	0.00e+00	0	44	102	1048576	11	4171
2026-01-06 05:11:40.74	297.58	12.31	-25.6	-27.1	15.9	0.00e+00	0	44	102	1048576	11	4264
2026-01-06 05:11:41.75	297.40	12.27	-25.6	-27.0	15.9	1.10e-06	0	44	102	1048576	11	4253
2026-01-06 05:11:42.75	297.23	12.22	-25.6	-27.2	15.9	0.00e+00	0	44	102	1048576	11	4292
2026-01-06 05:11:43.76	297.06	12.18	-25.8	-27.5	15.7	0.00e+00	0	44	102	1048576	11	4376
2026-01-06 05:11:44.77	296.89	12.13	-25.8	-27.6	15.6	1.10e-06	0	44	102	1048576	11	4412
2026-01-06 05:11:45.78	296.72	12.09	-25.8	-27.6	15.6	0.00e+00	0	44	102	1048576	11	4400
2026-01-06 05:11:46.78	296.55	12.04	-25.8	-27.5	15.7	0.00e+00	0	44	102	1048576	11	4386
2026-01-06 05:11:47.79	296.38	11.99	-26.0	-27.9	15.4	2.20e-06	0	44	102	1048576	11	4496
2026-01-06 05:11:48.79	296.22	11.95	-26.1	-27.7	15.2	0.00e+00	0	44	102	1048576	12	4331
2026-01-06 05:11:49.80	296.05	11.90	-26.4	-28.4	14.8	0.00e+00	0	44	102	1048576	12	4529
2026-01-06 05:11:50.80	295.88	11.85	-26.7	-28.6	14.4	2.20e-06	0	43	102	1048576	13	4468
2026-01-06 05:11:51.80	295.72	11.81	-26.7	-28.4	14.5	1.10e-06	0	44	102	1048576	13	4419
2026-01-06 05:11:52.81	295.55	11.76	-26.6	-28.3	14.6	0.00e+00	0	44	102	1048576	13	4374
2026-01-06 05:11:53.82	295.38	11.71	-26.7	-28.5	14.5	0.00e+00	0	44	102	1048576	13	4432
2026-01-06 05:11:54.83	295.22	11.66	-26.6	-28.4	14.5	1.31e-03	0	44	102	1048576	13	4399
2026-01-06 05:11:55.83	295.05	11.62	-26.6	-28.4	14.5	1.10e-06	0	44	102	1048576	13	4420
2026-01-06 05:11:56.85	294.89	11.57	-26.8	-28.9	14.2	3.40e-06	0	44	102	1048576	13	4559
2026-01-06 05:11:57.86	294.72	11.52	-26.6	-28.4	14.4	1.10e-06	0	44	102	1048576	13	4417
2026-01-06 05:11:58.87	294.56	11.47	-26.4	-27.9	14.8	0.00e+00	0	44	102	1048576	13	4265
2026-01-06 05:11:59.87	294.40	11.43	-26.3	-28.1	14.9	1.38e-03	0	44	102	1048576	12	4444
2026-01-06 05:12:00.87	294.24	11.38	-26.5	-28.5	14.7	0.00e+00	0	43	102	1048576	12	4557
2026-01-06 05:12:01.88	294.07	11.33	-26.3	-27.6	14.9	1.10e-06	0	44	102	1048576	13	4204
2026-01-06 05:12:02.89	293.91	11.28	-26.1	-27.8	15.1	0.00e+00	0	44	102	1048576	12	4351
2026-01-06 05:12:03.90	293.75	11.23	-26.2	-27.9	15.0	1.26e-03	0	43	102	1048576	12	4394
2026-01-06 05:12:04.90	293.59	11.18	-26.1	-27.6	15.2	0.00e+00	0	43	102	1048576	12	4302
2026-01-06 05:12:05.90	293.44	11.14	-25.9	-27.3	15.3	0.00e+00	0	44	102	1048576	12	4223
2026-01-06 05:12:06.90	293.28	11.09	-25.9	-27.8	15.4	1.32e-03	0	44	102	1048576	11	4463
2026-01-06 05:12:07.91	293.12	11.04	-25.9	-27.8	15.4	0.00e+00	0	44	102	1048576	11	4466
2026-01-06 05:12:08.92	292.96	10.99	-26.1	-27.6	15.1	1.41e-03	0	44	102	1048576	12	4317
2026-01-06 05:12:09.92	292.80	10.94	-26.3	-28.1	14.9	0.00e+00	0	44	102	1048576	12	4442
2026-01-06 05:12:10.93	292.65	10.89	-26.1	-27.7	15.1	0.00e+00	0	44	102	1048576	12	4329
2026-01-06 05:12:11.94	292.49	10.84	-26.2	-28.0	14.9	1.25e-03	0	44	102	1048576	12	4429
2026-01-06 05:12:12.95	292.33	10.79	-25.9	-27.4	15.3	1.15e-03	0	43	102	1048576	12	4243
2026-01-06 05:12:13.96	292.18	10.74	-25.8	-27.0	15.5	0.00e+00	0	44	102	1048576	12	4153
2026-01-06 05:12:14.97	292.02	10.69	-25.8	-27.6	15.5	8.48e-04	0	44	102	1048576	11	4414
2026-01-06 05:12:15.97	291.87	10.64	-25.9	-27.7	15.5	7.13e-04	0	44	102	1048576	11	4430
2026-01-06 05:12:16.98	291.72	10.59	-25.8	-27.6	15.5	0.00e+00	0	44	102	1048576	11	4410
2026-01-06 05:12:17.98	291.57	10.54	-25.8	-27.6	15.5	7.97e-04	0	44	102	1048576	11	4414
2026-01-06 05:12:18.99	291.41	10.49	-26.0	-27.9	15.3	8.30e-04	0	44	102	1048576	11	4502
2026-01-06 05:12:20.00	291.26	10.44	-26.0	-27.9	15.3	0.00e+00	0	44	102	1048576	11	4502
2026-01-06 05:12:21.00	291.11	10.39	-25.9	-27.4	15.2	1.12e-03	0	44	102	1048576	12	4247
2026-01-06 05:12:22.00	290.96	10.34	-26.0	-27.6	15.1	1.18e-03	0	44	102	1048576	12	4302
2026-01-06 05:12:23.01	290.81	10.29	-25.8	-27.1	15.4	0.00e+00	0	43	102	1048576	12	4172
2026-01-06 05:12:24.02	290.66	10.24	-25.9	-27.7	15.4	0.00e+00	0	44	102	1048576	11	4431
2026-01-06 05:12:25.03	290.51	10.19	-25.9	-27.9	15.3	1.27e-03	0	44	102	1048576	11	4491
2026-01-06 05:12:26.04	290.36	10.14	-25.9	-27.8	15.3	0.00e+00	0	44	102	1048576	11	4461
2026-01-06 05:12:27.04	290.21	10.09	-26.0	-27.5	15.1	1.34e-03	0	44	102	1048576	12	4272
2026-01-06 05:12:28.05	290.07	10.04	-26.2	-27.9	14.9	0.00e+00	0	44	102	1048576	12	4397
2026-01-06 05:12:29.06	289.92	9.98	-26.2	-27.9	14.9	1.10e-06	0	44	102	1048576	12	4402
2026-01-06 05:12:30.06	289.77	9.93	-26.4	-28.4	14.6	1.10e-06	0	43	102	1048576	12	4550
2026-01-06 05:12:31.07	289.63	9.88	-26.4	-28.3	14.6	1.10e-06	0	43	102	1048576	12	4520
2026-01-06 05:12:32.07	289.48	9.83	-26.5	-28.6	14.5	1.10e-06	0	44	102	1048576	12	4581
2026-01-06 05:12:33.07	289.34	9.78	-26.4	-28.3	14.6	0.00e+00	0	44	102	1048576	12	4514
2026-01-06 05:12:34.08	289.19	9.73	-26.3	-28.2	14.7	1.10e-06	0	44	102	1048576	12	4476
2026-01-06 05:12:35.08	289.05	9.68	-26.4	-28.5	14.5	0.00e+00	0	44	102	1048576	12	4564
2026-01-06 05:12:36.09	288.91	9.63	-26.3	-28.3	14.7	0.00e+00	0	44	102	1048576	12	4492
2026-01-06 05:12:37.09	288.76	9.58	-26.4	-28.4	14.6	1.10e-06	0	44	102	1048576	12	4544
2026-01-06 05:12:38.10	288.62	9.52	-26.4	-28.5	14.5	2.20e-06	0	44	102	1048576	12	4583
2026-01-06 05:12:39.10	288.48	9.47	-26.4	-28.5	14.5	1.20e-03	0	44	102	1048576	12	4563
2026-01-06 05:12:40.11	288.34	9.42	-26.4	-28.6	14.4	2.20e-06	0	44	102	1048576	12	4592
2026-01-06 05:12:41.11	288.20	9.37	-26.5	-28.6	14.4	2.20e-06	0	44	102	1048576	12	4607
2026-01-06 05:12:42.12	288.06	9.32	-26.3	-28.2	14.6	1.10e-06	0	44	102	1048576	12	4493
2026-01-06 05:12:43.12	287.92	9.27	-26.3	-28.2	14.6	1.10e-06	0	44	102	1048576	12	4476
2026-01-06 05:12:44.12	287.78	9.21	-26.4	-28.5	14.4	1.10e-06	0	44	102	1048576	12	4570
2026-01-06 05:12:45.13	287.64	9.16	-26.6	-28.4	14.1	3.40e-06	0	44	102	1048576	13	4448
2026-01-06 05:12:46.13	287.50	9.11	-26.3	-27.8	14.5	2.20e-06	0	44	102	1048576	13	4255
2026-01-06 05:12:47.13	287.36	9.06	-26.2	-27.6	14.6	0.00e+00	0	44	102	1048576	13	4205
2026-01-06 05:12:48.14	287.23	9.01	-26.2	-28.0	14.7	1.10e-06	0	44	102	1048576	12	4441
2026-01-06 05:12:49.14	287.09	8.95	-26.2	-28.1	14.6	1.10e-06	0	44	102	1048576	12	4463
2026-01-06 05:12:50.15	286.95	8.90	-26.4	-28.4	14.4	1.10e-06	0	44	102	1048576	12	4550
2026-01-06 05:12:51.16	286.82	8.85	-26.4	-28.4	14.4	2.20e-06	0	44	102	1048576	12	4547
2026-01-06 05:12:52.16	286.68	8.80	-26.5	-28.6	14.3	3.40e-06	0	44	102	1048576	12	4622
2026-01-06 05:12:53.16	286.55	8.74	-26.3	-28.2	14.5	1.10e-06	0	44	102	1048576	12	4499
2026-01-06 05:12:54.16	286.42	8.69	-26.3	-28.2	14.5	1.10e-06	0	44	102	1048576	12	4478
2026-01-06 05:12:55.17	286.28	8.64	-26.3	-28.1	14.5	1.10e-06	0	44	102	1048576	12	4471
2026-01-06 05:12:56.18	286.15	8.59	-26.2	-28.1	14.5	0.00e+00	0	44	102	1048576	12	4451
2026-01-06 05:12:57.19	286.01	8.53	-26.4	-28.5	14.3	0.00e+00	0	44	102	1048576	12	4581
2026-01-06 05:12:58.20	285.88	8.48	-26.5	-28.6	14.2	0.00e+00	0	44	102	1048576	12	4612
2026-01-06 05:12:59.21	285.75	8.43	-26.6	-28.4	14.1	3.40e-06	0	44	102	1048576	13	4445
2026-01-06 05:13:00.21	285.62	8.38	-26.8	-28.8	13.8	8.00e-06	0	44	102	1048576	13	4558
2026-01-06 05:13:01.22	285.49	8.32	-26.7	-28.6	13.9	9.10e-06	0	44	102	1048576	13	4504
2026-01-06 05:13:02.22	285.36	8.27	-26.9	-29.1	13.6	1.02e-05	0	44	102	1048576	13	4645
2026-01-06 05:13:03.23	285.23	8.22	-27.2	-29.5	13.1	3.89e-05	0	44	102	1048576	14	4652
2026-01-06 05:13:04.24	285.10	8.17	-27.1	-29.1	13.3	3.77e-05	0	44	102	1048576	14	4548
2026-01-06 05:13:05.24	284.97	8.11	-27.2	-29.3	13.2	3.31e-05	0	44	102	1048576	14	4599
2026-01-06 05:13:06.25	284.84	8.06	-27.2	-29.3	13.2	3.77e-05	0	44	102	1048576	14	4591
2026-01-06 05:13:07.25	284.71	8.01	-27.1	-29.1	13.2	3.66e-05	0	44	102	1048576	14	4549
2026-01-06 05:13:08.26	284.58	7.95	-27.2	-29.4	13.1	6.06e-05	0	44	102	1048576	14	4619
2026-01-06 05:13:09.27	284.46	7.90	-27.2	-29.5	13.0	4.57e-05	0	44	102	1048576	14	4660
2026-01-06 05:13:10.28	284.33	7.85	-27.5	-29.5	12.7	1.38e-04	0	44	102	1048576	15	4561
2026-01-06 05:13:11.28	284.20	7.80	-27.1	-28.6	13.2	5.49e-05	0	44	102	1048576	15	4285
2026-01-06 05:13:12.29	284.08	7.74	-26.8	-28.5	13.6	1.94e-05	0	44	102	1048576	14	4365
2026-01-06 05:13:13.30	283.95	7.69	-26.6	-28.4	13.9	3.40e-06	0	44	102	1048576	13	4450
2026-01-06 05:13:14.31	283.83	7.64	-26.5	-28.7	12.6	2.20e-06	0	44	102	1048576	12	4641
2026-01-06 05:13:15.31	283.70	7.58	-26.5	-28.2	13.5	3.40e-06	0	44	102	1048576	13	4383
2026-01-06 05:13:16.32	283.58	7.53	-26.5	-28.2	14.0	5.70e-06	0	44	102	1048576	13	4401
2026-01-06 05:13:17.33	283.45	7.48	-26.5	-28.3	14.0	5.70e-06	0	44	102	1048576	13	4421
2026-01-06 05:13:18.33	283.33	7.42	-26.6	-28.6	13.8	8.00e-06	0	44	102	1048576	13	4498
2026-01-06 05:13:19.34	283.21	7.37	-26.6	-28.6	13.8	6.80e-06	0	44	102	1048576	13	4492
2026-01-06 05:13:20.35	283.09	7.32	-26.8	-28.9	13.7	1.14e-05	0	44	102	1048576	13	4587
2026-01-06 05:13:21.35	282.97	7.26	-26.7	-28.7	13.7	2.24e-03	0	44	102	1048576	13	4548
2026-01-06 05:13:22.36	282.84	7.21	-26.8	-28.8	13.7	1.83e-05	0	44	102	1048576	13	4582
2026-01-06 05:13:23.37	282.72	7.16	-26.6	-28.6	13.8	1.90e-03	0	44	102	1048576	13	4506
2026-01-06 05:13:24.37	282.60	7.11	-26.8	-28.9	13.6	1.25e-05	0	44	102	1048576	13	4604
2026-01-06 05:13:25.38	282.48	7.05	-32.0	-40.8	4.4	1.37e-05	0	44	102	1048576	23	9945
2026-01-06 05:13:26.38	282.36	7.00	-32.9	-44.2	3.8	8.45e-01	0	44	104	1048576	25	13341
2026-01-06 05:13:27.39	282.24	6.95	-33.3	-44.6	3.8	8.45e-01	0	44	104	1048576	26	13210

#Closed at: 2026-01-06 05:13:27
#Recorded file [1 MB]: D:/data/31010_260106_080516.dat