passes_logs/2026/01/06/R2M6_AANII_01/R2M6_AANII_01__20260106_224448_SUOMI_NPP_rec.log

#Pass ID: 20260106_224448_SUOMI NPP
#Satellite: SUOMI NPP
#Configuration: NPP
#almurnet v.1.7.20240730
#Start time: 2026-01-06 22:44:48

#Version: 2.2.20231116
#Station: R2M6_AANII_01
#Location: 30.233357 lon 59.946436 lat
#TLE: 1 37849U 11061A   26005.94084933  .00000134  00000+0  84554-4 0  9990
#TLE: 2 37849  98.7803 308.0679 0002567  79.1029 281.0436 14.19522657735426

#Time	Az	El	Level	Level2	SNR	BER	BlckErr	Temp	State	Recorded	gain1	gain2
2026-01-06 22:44:48.52	30.75	7.02	-31.5	-36.4	5.0	1.22e+00	0	41	0	0	22	6363
2026-01-06 22:44:49.52	30.84	7.08	-32.1	-38.7	4.4	1.37e+00	0	41	104	0	24	7697
2026-01-06 22:44:50.53	30.94	7.15	-32.0	-38.2	5.9	4.57e-01	0	41	0	0	24	7341
2026-01-06 22:44:51.53	31.04	7.21	-32.0	-38.2	5.9	3.22e-01	0	41	0	1048576	24	7325
2026-01-06 22:44:52.54	31.14	7.27	-32.1	-38.3	5.9	4.10e-01	0	41	0	3145728	24	7412
2026-01-06 22:44:53.54	31.24	7.33	-31.9	-37.6	6.4	3.19e-01	0	41	0	5242880	24	6906
2026-01-06 22:44:54.55	31.34	7.39	-31.9	-37.6	6.7	2.13e-01	0	41	0	7340032	23	6963
2026-01-06 22:44:55.56	31.44	7.46	-31.8	-37.4	6.9	1.56e-01	0	41	0	9437184	23	6840
2026-01-06 22:44:56.56	31.54	7.52	-31.8	-37.1	7.1	1.77e-01	0	41	0	10485760	23	6655
2026-01-06 22:44:57.57	31.64	7.58	-31.6	-36.4	7.7	1.13e-01	0	41	0	12582912	23	6235
2026-01-06 22:44:58.57	31.75	7.64	-31.5	-35.6	8.3	5.62e-02	0	41	0	14680064	23	5795
2026-01-06 22:44:59.58	31.85	7.71	-31.4	-35.1	8.7	4.61e-02	0	42	0	16777216	23	5546
2026-01-06 22:45:00.58	31.95	7.77	-31.4	-35.5	8.8	3.12e-02	0	41	102	18874368	22	5828
2026-01-06 22:45:01.59	32.05	7.83	-31.5	-36.1	8.4	3.89e-02	0	42	102	18874368	22	6124
2026-01-06 22:45:02.60	32.16	7.89	-31.6	-36.1	8.0	5.85e-02	0	42	102	18874368	23	6015
2026-01-06 22:45:03.60	32.26	7.96	-31.6	-35.9	8.2	8.48e-02	0	41	102	18874368	23	5900
2026-01-06 22:45:04.60	32.37	8.02	-31.5	-35.6	8.3	5.56e-02	0	41	102	18874368	23	5772
2026-01-06 22:45:05.61	32.47	8.08	-31.4	-34.9	8.9	2.86e-02	0	41	102	18874368	23	5421
2026-01-06 22:45:06.62	32.58	8.15	-31.2	-34.9	9.4	2.05e-02	0	41	102	18874368	22	5494
2026-01-06 22:45:07.63	32.68	8.21	-31.2	-34.9	9.4	1.58e-02	0	41	102	18874368	22	5499
2026-01-06 22:45:08.64	32.79	8.27	-31.2	-34.9	9.4	1.65e-02	0	42	102	18874368	22	5508
2026-01-06 22:45:09.64	32.90	8.34	-31.3	-35.0	9.3	1.43e-02	0	42	102	18874368	22	5566
2026-01-06 22:45:10.65	33.00	8.40	-31.2	-34.9	9.4	2.11e-02	0	42	102	18874368	22	5477
2026-01-06 22:45:11.65	33.11	8.46	-31.0	-34.0	10.1	9.00e-03	0	42	102	18874368	22	5104
2026-01-06 22:45:12.65	33.22	8.53	-30.8	-33.9	10.5	5.11e-03	0	42	102	18874368	21	5135
2026-01-06 22:45:13.66	33.33	8.59	-30.7	-33.6	10.7	3.90e-03	0	42	102	18874368	21	5023
2026-01-06 22:45:14.66	33.43	8.65	-30.6	-33.1	11.1	2.11e-03	0	42	102	18874368	21	4833
2026-01-06 22:45:15.67	33.54	8.72	-30.6	-33.3	11.0	1.68e-03	0	42	102	18874368	21	4896
2026-01-06 22:45:16.68	33.65	8.78	-30.6	-33.1	11.1	2.38e-03	0	42	102	18874368	21	4812
2026-01-06 22:45:17.68	33.76	8.84	-30.4	-32.4	11.6	1.08e-03	0	42	102	18874368	21	4568
2026-01-06 22:45:18.69	33.88	8.91	-30.3	-32.8	11.8	6.02e-04	0	42	102	18874368	20	4789
2026-01-06 22:45:19.69	33.99	8.97	-30.3	-32.7	11.8	8.66e-04	0	42	102	18874368	20	4743
2026-01-06 22:45:20.70	34.10	9.04	-30.3	-32.7	11.8	4.52e-04	0	42	102	18874368	20	4767
2026-01-06 22:45:21.71	34.21	9.10	-30.4	-32.9	11.7	5.61e-04	0	42	102	18874368	20	4831
2026-01-06 22:45:22.72	34.32	9.17	-30.4	-33.0	11.6	6.94e-04	0	42	102	18874368	20	4840
2026-01-06 22:45:23.73	34.44	9.23	-30.4	-32.8	11.8	4.87e-04	0	42	102	18874368	20	4795
2026-01-06 22:45:24.73	34.55	9.29	-30.4	-32.9	11.7	4.07e-04	0	42	102	18874368	20	4821
2026-01-06 22:45:25.74	34.66	9.36	-30.3	-32.7	11.9	3.91e-04	0	42	102	18874368	20	4761
2026-01-06 22:45:26.74	34.78	9.42	-30.3	-32.7	11.9	3.14e-04	0	42	102	18874368	20	4737
2026-01-06 22:45:27.75	34.89	9.49	-30.3	-32.6	11.9	6.74e-04	0	42	102	18874368	20	4716
2026-01-06 22:45:28.76	35.01	9.55	-30.3	-32.6	12.0	4.52e-04	0	42	102	18874368	20	4704
2026-01-06 22:45:29.76	35.12	9.62	-30.3	-32.5	12.0	3.68e-04	0	42	102	18874368	20	4675
2026-01-06 22:45:30.77	35.24	9.68	-30.2	-32.5	12.1	6.67e-04	0	42	102	18874368	20	4653
2026-01-06 22:45:31.77	35.36	9.75	-30.2	-32.4	12.1	2.88e-04	0	42	102	18874368	20	4635
2026-01-06 22:45:32.78	35.48	9.81	-30.4	-32.8	11.9	2.97e-04	0	42	102	18874368	20	4778
2026-01-06 22:45:33.79	35.59	9.88	-30.3	-32.6	12.0	4.32e-04	0	42	102	18874368	20	4691
2026-01-06 22:45:34.80	35.71	9.94	-30.2	-32.5	12.1	3.65e-04	0	42	102	18874368	20	4657
2026-01-06 22:45:35.80	35.83	10.01	-30.2	-32.4	12.1	2.67e-04	0	42	102	18874368	20	4634
2026-01-06 22:45:36.81	35.95	10.07	-30.3	-32.7	11.9	2.04e-04	0	42	102	18874368	20	4724
2026-01-06 22:45:37.82	36.07	10.14	-30.3	-32.5	12.1	4.43e-04	0	42	102	18874368	20	4651
2026-01-06 22:45:38.82	36.19	10.20	-30.2	-32.4	12.1	2.16e-04	0	42	102	18874368	20	4633
2026-01-06 22:45:39.82	36.31	10.27	-30.2	-32.4	12.2	2.29e-04	0	42	102	18874368	20	4625
2026-01-06 22:45:40.84	36.44	10.34	-30.2	-32.5	12.1	2.26e-04	0	42	102	18874368	20	4646
2026-01-06 22:45:41.85	36.56	10.40	-30.3	-32.6	12.0	2.10e-04	0	42	102	18874368	20	4693
2026-01-06 22:45:42.86	36.68	10.47	-30.5	-33.2	11.6	4.00e-04	0	42	102	18874368	20	4931
2026-01-06 22:45:43.87	36.81	10.53	-30.5	-32.8	11.6	5.83e-04	0	42	102	18874368	21	4658
2026-01-06 22:45:44.87	36.93	10.60	-30.6	-32.9	11.5	6.42e-04	0	42	102	18874368	21	4706
2026-01-06 22:45:45.88	37.05	10.66	-30.5	-32.7	11.6	6.80e-04	0	43	102	18874368	21	4642
2026-01-06 22:45:46.89	37.18	10.73	-30.6	-33.0	11.5	7.41e-04	0	42	102	18874368	21	4734
2026-01-06 22:45:47.89	37.30	10.80	-30.4	-32.5	11.8	6.00e-04	0	43	102	18874368	21	4559
2026-01-06 22:45:48.90	37.43	10.86	-30.6	-33.1	11.3	8.15e-04	0	42	102	18874368	21	4779
2026-01-06 22:45:49.90	37.55	10.93	-30.5	-32.8	11.6	9.12e-04	0	42	102	18874368	21	4664
2026-01-06 22:45:50.91	37.68	10.99	-30.7	-33.4	11.2	7.85e-04	0	43	102	18874368	21	4905
2026-01-06 22:45:51.92	37.81	11.06	-30.5	-32.8	11.6	9.19e-04	0	43	102	18874368	21	4670
2026-01-06 22:45:52.93	37.94	11.13	-30.3	-32.2	12.0	5.10e-04	0	42	102	18874368	21	4478
2026-01-06 22:45:53.93	38.07	11.19	-30.2	-31.9	12.3	3.27e-04	0	43	102	18874368	21	4350
2026-01-06 22:45:54.94	38.20	11.26	-30.2	-31.8	12.3	1.23e-04	0	43	102	18874368	21	4337
2026-01-06 22:45:55.95	38.33	11.33	-30.2	-31.9	12.3	1.81e-04	0	43	102	18874368	21	4374
2026-01-06 22:45:56.96	38.46	11.39	-30.1	-31.6	12.4	1.50e-04	0	43	102	18874368	21	4279
2026-01-06 22:45:57.97	38.59	11.46	-30.1	-31.4	12.6	1.04e-04	0	43	102	18874368	21	4210
2026-01-06 22:45:58.97	38.72	11.53	-30.2	-31.8	12.4	1.21e-04	0	43	102	18874368	21	4310
2026-01-06 22:45:59.98	38.85	11.59	-30.1	-31.4	12.6	1.20e-04	0	43	102	18874368	21	4180
2026-01-06 22:46:00.96	38.98	11.66	-29.9	-30.9	12.9	5.26e-05	0	43	102	18874368	21	4052
2026-01-06 22:46:01.97	39.12	11.73	-29.9	-31.0	12.9	1.11e-04	0	43	102	18874368	21	4074
2026-01-06 22:46:02.97	39.25	11.79	-29.9	-31.0	12.9	6.17e-05	0	43	102	18874368	21	4074
2026-01-06 22:46:03.98	39.38	11.86	-29.8	-30.6	13.2	4.04e-05	0	43	102	18874368	21	3947
2026-01-06 22:46:04.99	39.52	11.93	-29.9	-31.4	13.0	4.19e-05	0	43	102	18874368	20	4285
2026-01-06 22:46:06.00	39.65	11.99	-29.8	-31.1	13.2	3.12e-05	0	43	102	18874368	20	4175
2026-01-06 22:46:07.01	39.79	12.06	-29.8	-31.0	13.2	2.28e-05	0	43	102	18874368	20	4155
2026-01-06 22:46:08.01	39.93	12.13	-29.7	-30.9	13.3	1.60e-05	0	43	102	18874368	20	4117
2026-01-06 22:46:09.03	40.07	12.19	-29.8	-31.1	13.2	2.74e-05	0	43	102	18874368	20	4179
2026-01-06 22:46:10.03	40.20	12.26	-29.9	-31.3	13.1	2.51e-05	0	43	102	18874368	20	4234
2026-01-06 22:46:11.04	40.34	12.33	-30.1	-31.8	12.7	3.81e-05	0	43	102	18874368	20	4410
2026-01-06 22:46:12.04	40.48	12.40	-29.9	-31.5	13.0	5.49e-05	0	43	102	18874368	20	4311
2026-01-06 22:46:13.05	40.62	12.46	-30.0	-31.7	12.9	4.11e-05	0	43	102	18874368	20	4354
2026-01-06 22:46:14.06	40.76	12.53	-30.1	-31.9	12.7	7.32e-05	0	43	102	18874368	20	4429
2026-01-06 22:46:15.06	40.90	12.60	-30.1	-31.8	12.8	6.94e-05	0	43	102	18874368	20	4412
2026-01-06 22:46:16.06	41.04	12.66	-30.1	-31.9	12.7	7.40e-05	0	43	102	18874368	20	4426
2026-01-06 22:46:17.07	41.19	12.73	-30.1	-31.8	12.8	5.56e-05	0	43	102	18874368	20	4400
2026-01-06 22:46:18.08	41.33	12.80	-30.1	-32.0	12.6	7.47e-05	0	43	102	18874368	20	4482
2026-01-06 22:46:19.07	41.47	12.87	-30.0	-31.5	13.0	6.48e-05	0	43	102	18874368	20	4303
2026-01-06 22:46:20.08	41.62	12.93	-30.0	-31.7	12.8	4.27e-05	0	43	102	18874368	20	4363
2026-01-06 22:46:21.09	41.76	13.00	-30.0	-31.6	12.9	4.42e-05	0	43	102	18874368	20	4328
2026-01-06 22:46:22.10	41.91	13.07	-30.1	-32.0	12.6	7.47e-05	0	43	102	18874368	20	4469
2026-01-06 22:46:23.10	42.05	13.14	-30.1	-32.0	12.7	6.17e-05	0	43	102	18874368	20	4451
2026-01-06 22:46:24.11	42.20	13.20	-30.2	-32.1	12.6	6.71e-05	0	43	102	18874368	20	4489
2026-01-06 22:46:25.12	42.35	13.27	-30.4	-32.7	12.2	1.59e-04	0	43	102	18874368	20	4697
2026-01-06 22:46:26.13	42.50	13.34	-30.2	-32.1	12.6	1.23e-04	0	43	102	18874368	20	4497
2026-01-06 22:46:27.13	42.64	13.41	-30.3	-32.4	12.4	9.99e-05	0	43	102	18874368	20	4595
2026-01-06 22:46:28.14	42.79	13.47	-30.2	-32.1	12.6	1.04e-04	0	43	102	18874368	20	4479
2026-01-06 22:46:29.14	42.94	13.54	-30.3	-32.4	12.4	9.76e-05	0	43	102	18874368	20	4589
2026-01-06 22:46:30.15	43.10	13.61	-30.2	-32.1	12.6	8.31e-05	0	43	102	18874368	20	4503
2026-01-06 22:46:31.16	43.25	13.68	-30.0	-31.6	13.0	4.34e-05	0	43	102	18874368	20	4320
2026-01-06 22:46:32.16	43.40	13.74	-29.9	-31.3	13.2	3.43e-05	0	43	102	18874368	20	4226
2026-01-06 22:46:33.17	43.55	13.81	-29.8	-31.4	13.5	1.98e-05	0	43	102	18874368	19	4361
2026-01-06 22:46:34.18	43.71	13.88	-29.8	-31.6	13.4	1.06e-05	0	43	102	18874368	19	4427
2026-01-06 22:46:35.19	43.86	13.95	-29.4	-31.1	13.4	1.22e-05	0	43	102	18874368	19	4400
2026-01-06 22:46:36.19	44.01	14.01	-30.0	-31.6	12.9	2.82e-05	0	43	102	18874368	20	4339
2026-01-06 22:46:37.20	44.17	14.08	-29.9	-31.2	13.2	2.59e-05	0	43	102	18874368	20	4214
2026-01-06 22:46:38.21	44.33	14.15	-29.9	-31.7	12.7	1.60e-05	0	43	102	18874368	19	4453
2026-01-06 22:46:39.20	44.48	14.22	-29.9	-31.2	13.2	2.21e-05	0	43	102	18874368	20	4212
2026-01-06 22:46:40.21	44.64	14.28	-29.8	-31.1	13.1	2.28e-05	0	43	102	18874368	20	4175
2026-01-06 22:46:41.21	44.80	14.35	-29.9	-31.6	13.3	1.98e-05	0	43	102	18874368	19	4421
2026-01-06 22:46:42.21	44.96	14.42	-29.8	-31.4	13.5	1.14e-05	0	43	102	18874368	19	4355
2026-01-06 22:46:43.22	45.12	14.49	-29.9	-31.6	13.4	1.44e-05	0	43	102	18874368	19	4416
2026-01-06 22:46:44.23	45.28	14.55	-29.9	-31.8	13.3	2.97e-05	0	43	102	18874368	19	4480
2026-01-06 22:46:45.23	45.44	14.62	-30.2	-32.1	12.7	5.49e-05	0	43	102	18874368	20	4498
2026-01-06 22:46:46.24	45.60	14.69	-30.3	-32.5	12.4	1.28e-04	0	43	102	18874368	20	4626
2026-01-06 22:46:47.24	45.76	14.76	-30.1	-31.9	12.8	8.01e-05	0	43	102	18874368	20	4411
2026-01-06 22:46:48.25	45.92	14.82	-29.8	-31.1	13.4	2.89e-05	0	43	102	18874368	20	4153
2026-01-06 22:46:49.26	46.09	14.89	-29.7	-30.8	13.6	1.37e-05	0	43	102	18874368	20	4077
2026-01-06 22:46:50.26	46.25	14.96	-29.7	-31.2	13.7	1.14e-05	0	43	102	18874368	19	4289
2026-01-06 22:46:51.27	46.42	15.03	-29.6	-31.0	13.9	1.50e-06	0	43	102	18874368	19	4207
2026-01-06 22:46:52.28	46.59	15.09	-29.8	-31.3	13.6	3.00e-06	0	43	102	18874368	19	4312
2026-01-06 22:46:53.29	46.75	15.16	-29.8	-31.4	13.7	6.80e-06	0	43	102	18874368	19	4325
2026-01-06 22:46:54.30	46.92	15.23	-29.9	-31.8	13.4	8.30e-06	0	43	102	18874368	19	4452
2026-01-06 22:46:55.31	47.09	15.30	-29.9	-31.4	13.2	3.20e-04	0	43	102	18874368	20	4245
2026-01-06 22:46:56.31	47.26	15.36	-30.1	-31.7	13.1	1.29e-05	0	43	102	18874368	20	4335
2026-01-06 22:46:57.32	47.43	15.43	-30.1	-31.8	12.9	3.81e-05	0	43	102	18874368	20	4392
2026-01-06 22:46:58.33	47.60	15.50	-30.1	-31.9	12.9	3.07e-04	0	43	102	18874368	20	4394
2026-01-06 22:46:59.33	47.77	15.57	-30.2	-32.2	12.8	1.99e-04	0	43	102	18874368	20	4490
2026-01-06 22:47:00.34	47.94	15.63	-30.1	-31.7	13.1	4.34e-05	0	43	102	18874368	20	4343
2026-01-06 22:47:01.35	48.12	15.70	-30.1	-31.7	13.1	5.26e-05	0	43	102	18874368	20	4334
2026-01-06 22:47:02.36	48.29	15.77	-29.9	-31.3	13.3	1.60e-05	0	43	102	18874368	20	4210
2026-01-06 22:47:03.36	48.46	15.83	-29.9	-31.2	13.4	1.37e-05	0	43	102	18874368	20	4188
2026-01-06 22:47:04.37	48.64	15.90	-29.9	-31.3	13.3	1.37e-05	0	43	102	18874368	20	4209
2026-01-06 22:47:05.38	48.82	15.97	-30.0	-31.4	13.3	1.37e-05	0	43	102	18874368	20	4247
2026-01-06 22:47:06.39	48.99	16.03	-30.1	-31.7	13.1	3.66e-05	0	43	102	18874368	20	4325
2026-01-06 22:47:07.40	49.17	16.10	-29.9	-31.3	13.3	4.11e-05	0	43	102	18874368	20	4201
2026-01-06 22:47:08.41	49.35	16.17	-30.0	-31.5	13.2	4.73e-05	0	43	102	18874368	20	4278
2026-01-06 22:47:09.41	49.53	16.23	-30.0	-31.6	13.2	2.13e-05	0	43	102	18874368	20	4303
2026-01-06 22:47:10.42	49.71	16.30	-30.0	-31.5	13.2	1.05e-04	0	43	102	18874368	20	4289
2026-01-06 22:47:11.43	49.89	16.37	-29.9	-31.3	13.3	3.59e-04	0	43	102	18874368	20	4202
2026-01-06 22:47:12.44	50.07	16.43	-29.9	-31.3	13.4	1.90e-05	0	43	102	18874368	20	4199
2026-01-06 22:47:13.44	50.25	16.50	-29.8	-31.0	13.6	5.87e-05	0	43	102	18874368	20	4128
2026-01-06 22:47:14.45	50.44	16.56	-29.8	-30.9	13.6	2.13e-05	0	43	102	18874368	20	4091
2026-01-06 22:47:15.46	50.62	16.63	-29.9	-31.1	13.5	1.14e-05	0	43	102	18874368	20	4142
2026-01-06 22:47:16.46	50.80	16.70	-29.9	-31.7	13.4	2.32e-04	0	43	102	18874368	19	4428
2026-01-06 22:47:17.47	50.99	16.76	-30.0	-31.4	13.3	1.60e-05	0	43	102	18874368	20	4258
2026-01-06 22:47:18.47	51.17	16.83	-30.0	-31.5	13.3	1.75e-05	0	43	102	18874368	20	4257
2026-01-06 22:47:19.48	51.36	16.89	-30.0	-31.6	13.2	6.91e-04	0	43	102	18874368	20	4301
2026-01-06 22:47:20.49	51.55	16.96	-29.9	-31.3	13.4	1.06e-05	0	43	102	18874368	20	4201
2026-01-06 22:47:21.49	51.74	17.02	-30.0	-31.5	13.3	1.67e-05	0	43	102	18874368	20	4279
2026-01-06 22:47:22.50	51.93	17.09	-30.0	-31.3	13.4	1.09e-03	0	43	102	18874368	20	4214
2026-01-06 22:47:23.51	52.12	17.15	-30.0	-31.3	13.4	1.12e-03	0	43	102	18874368	20	4209
2026-01-06 22:47:24.52	52.31	17.22	-30.0	-31.5	13.3	2.59e-05	0	43	102	18874368	20	4282
2026-01-06 22:47:25.52	52.50	17.28	-30.1	-31.7	13.2	1.59e-03	0	43	102	18874368	20	4319
2026-01-06 22:47:26.52	52.69	17.35	-30.1	-31.8	13.1	1.60e-03	0	43	102	18874368	20	4349
2026-01-06 22:47:27.53	52.88	17.41	-30.1	-31.8	13.1	4.19e-05	0	43	102	18874368	20	4354
2026-01-06 22:47:28.55	53.08	17.48	-30.0	-31.4	13.4	1.90e-05	0	43	102	18874368	20	4242
2026-01-06 22:47:29.55	53.27	17.54	-30.1	-31.6	13.2	5.26e-04	0	43	102	18874368	20	4292
2026-01-06 22:47:30.55	53.47	17.61	-30.1	-31.6	13.2	3.50e-05	0	43	102	18874368	20	4306
2026-01-06 22:47:31.56	53.67	17.67	-30.1	-31.6	13.2	1.29e-05	0	43	102	18874368	20	4286
2026-01-06 22:47:32.58	53.87	17.73	-30.0	-31.6	13.3	3.94e-04	0	43	102	18874368	20	4288
2026-01-06 22:47:33.58	54.06	17.80	-29.9	-31.2	13.5	1.06e-05	0	43	102	18874368	20	4166
2026-01-06 22:47:34.58	54.26	17.86	-29.9	-31.5	13.7	8.30e-06	0	43	102	18874368	19	4364
2026-01-06 22:47:35.58	54.46	17.92	-29.9	-31.5	13.7	7.60e-06	0	43	102	18874368	19	4335
2026-01-06 22:47:36.59	54.66	17.99	-30.0	-31.5	13.3	8.30e-06	0	43	102	18874368	20	4262
2026-01-06 22:47:37.60	54.86	18.05	-30.2	-32.1	12.9	3.43e-05	0	43	102	18874368	20	4443
2026-01-06 22:47:38.59	55.06	18.11	-30.3	-32.4	12.7	4.88e-05	0	43	102	18874368	20	4558
2026-01-06 22:47:39.60	55.26	18.17	-30.4	-32.0	12.6	1.09e-04	0	43	102	18874368	21	4342
2026-01-06 22:47:40.60	55.47	18.24	-30.2	-31.4	13.0	3.43e-05	0	43	102	18874368	21	4158
2026-01-06 22:47:41.61	55.67	18.30	-30.0	-31.0	13.3	1.98e-05	0	43	102	18874368	21	4030
2026-01-06 22:47:42.61	55.88	18.36	-29.9	-30.5	13.6	8.30e-06	0	43	102	18874368	21	3893
2026-01-06 22:47:43.62	56.08	18.42	-29.7	-30.5	14.0	2.97e-05	0	43	102	18874368	20	3979
2026-01-06 22:47:44.63	56.29	18.48	-29.8	-30.9	13.7	3.00e-06	0	43	102	18874368	20	4071
2026-01-06 22:47:45.63	56.50	18.54	-29.9	-31.1	13.6	9.10e-06	0	43	102	18874368	20	4149
2026-01-06 22:47:46.64	56.71	18.61	-30.1	-31.7	13.2	1.14e-05	0	43	102	18874368	20	4338
2026-01-06 22:47:47.64	56.92	18.67	-30.1	-31.8	13.1	1.83e-05	0	43	102	18874368	20	4362
2026-01-06 22:47:48.65	57.13	18.73	-30.4	-32.6	12.7	3.12e-05	0	43	102	18874368	20	4621
2026-01-06 22:47:49.65	57.34	18.79	-30.3	-32.3	12.8	6.10e-05	0	43	102	18874368	20	4542
2026-01-06 22:47:50.66	57.55	18.85	-30.2	-31.9	13.1	4.42e-05	0	43	102	18874368	20	4395
2026-01-06 22:47:51.66	57.76	18.91	-30.1	-31.7	13.2	2.28e-05	0	43	102	18874368	20	4341
2026-01-06 22:47:52.67	57.98	18.97	-30.2	-32.0	13.0	2.74e-05	0	43	102	18874368	20	4437
2026-01-06 22:47:53.68	58.19	19.03	-30.3	-32.2	13.0	4.11e-05	0	43	102	18874368	20	4483
2026-01-06 22:47:54.69	58.41	19.09	-30.4	-32.4	12.7	4.34e-05	0	43	102	18874368	20	4565
2026-01-06 22:47:55.70	58.62	19.15	-30.4	-32.1	12.6	9.23e-05	0	43	102	18874368	21	4357
2026-01-06 22:47:56.70	58.84	19.20	-30.5	-32.3	12.5	7.01e-05	0	43	102	18874368	21	4433
2026-01-06 22:47:57.71	59.06	19.26	-30.7	-32.8	12.2	1.85e-04	0	43	102	18874368	21	4596
2026-01-06 22:47:58.72	59.28	19.32	-30.7	-32.9	12.1	2.66e-04	0	43	102	18874368	21	4646
2026-01-06 22:47:59.72	59.49	19.38	-30.7	-32.9	12.1	2.56e-04	0	43	102	18874368	21	4627
2026-01-06 22:48:00.72	59.71	19.44	-30.7	-33.0	11.9	3.00e-04	0	43	102	18874368	21	4668
2026-01-06 22:48:01.73	59.94	19.49	-30.7	-33.0	12.1	3.58e-04	0	43	102	18874368	21	4649
2026-01-06 22:48:02.73	60.16	19.55	-30.9	-33.5	11.7	5.19e-04	0	43	102	18874368	21	4850
2026-01-06 22:48:03.74	60.38	19.61	-31.0	-33.3	11.5	6.74e-04	0	43	102	18874368	22	4676
2026-01-06 22:48:04.74	60.60	19.66	-31.1	-33.6	11.3	9.36e-04	0	43	102	18874368	22	4791
2026-01-06 22:48:05.75	60.83	19.72	-31.1	-33.6	11.3	1.28e-03	0	43	102	18874368	22	4770
2026-01-06 22:48:06.76	61.05	19.78	-31.1	-33.4	11.4	9.77e-04	0	43	102	18874368	22	4724
2026-01-06 22:48:07.77	61.28	19.83	-31.1	-33.5	11.4	8.74e-04	0	43	102	18874368	22	4774
2026-01-06 22:48:08.78	61.51	19.89	-31.0	-33.2	11.6	1.35e-03	0	43	102	18874368	22	4638
2026-01-06 22:48:09.79	61.73	19.94	-30.8	-32.6	12.0	4.48e-04	0	43	102	18874368	22	4422
2026-01-06 22:48:10.80	61.96	20.00	-30.7	-32.3	12.3	3.57e-04	0	43	102	18874368	22	4322
2026-01-06 22:48:11.80	62.19	20.05	-30.6	-32.1	12.4	1.58e-04	0	43	102	18874368	22	4260
2026-01-06 22:48:12.81	62.42	20.11	-30.5	-32.3	12.5	1.46e-04	0	43	102	18874368	21	4437
2026-01-06 22:48:13.81	62.65	20.16	-30.5	-32.2	12.6	6.29e-04	0	43	102	18874368	21	4394
2026-01-06 22:48:14.82	62.88	20.21	-30.4	-32.1	12.7	1.13e-04	0	43	102	18874368	21	4351
2026-01-06 22:48:15.82	63.11	20.27	-30.4	-32.6	12.7	7.85e-05	0	43	102	18874368	20	4612
2026-01-06 22:48:16.82	63.35	20.32	-30.4	-32.1	12.7	1.00e-03	0	43	102	18874368	21	4346
2026-01-06 22:48:17.83	63.58	20.37	-30.5	-32.3	12.5	1.46e-04	0	43	102	18874368	21	4418
2026-01-06 22:48:18.84	63.82	20.42	-30.7	-33.0	12.1	1.32e-03	0	43	102	18874368	21	4645
2026-01-06 22:48:19.85	64.05	20.48	-30.7	-32.8	12.2	3.10e-04	0	43	102	18874368	21	4581
2026-01-06 22:48:20.85	64.29	20.53	-30.8	-33.0	12.0	3.35e-04	0	43	102	18874368	21	4678
2026-01-06 22:48:21.86	64.52	20.58	-30.6	-32.6	12.4	1.55e-03	0	43	102	18874368	21	4515
2026-01-06 22:48:22.87	64.76	20.63	-30.5	-32.2	12.6	1.34e-04	0	43	102	18874368	21	4397
2026-01-06 22:48:23.87	65.00	20.68	-30.2	-31.5	13.0	6.79e-05	0	43	102	18874368	21	4169
2026-01-06 22:48:24.88	65.24	20.73	-30.3	-32.1	13.0	1.42e-03	0	43	102	18874368	20	4457
2026-01-06 22:48:25.88	65.48	20.78	-30.2	-31.9	13.2	1.55e-03	0	43	102	18874368	20	4383
2026-01-06 22:48:26.89	65.72	20.83	-30.0	-31.4	13.4	1.37e-05	0	43	102	18874368	20	4238
2026-01-06 22:48:27.89	65.96	20.87	-30.3	-32.1	13.1	1.09e-03	0	43	102	18874368	20	4438
2026-01-06 22:48:28.89	66.20	20.92	-30.2	-32.0	13.1	8.36e-04	0	43	102	18874368	20	4411
2026-01-06 22:48:29.89	66.44	20.97	-30.4	-32.4	12.8	3.81e-05	0	43	102	18874368	20	4539
2026-01-06 22:48:30.90	66.69	21.02	-30.1	-31.8	13.2	4.33e-04	0	43	102	18874368	20	4345
2026-01-06 22:48:31.91	66.93	21.06	-30.0	-31.4	13.4	3.78e-04	0	43	102	18874368	20	4228
2026-01-06 22:48:32.92	67.18	21.11	-30.1	-31.6	13.4	1.22e-05	0	43	102	18874368	20	4291
2026-01-06 22:48:33.93	67.43	21.16	-30.3	-32.1	13.0	3.14e-04	0	43	102	18874368	20	4458
2026-01-06 22:48:34.94	67.67	21.20	-30.5	-32.7	12.7	2.35e-04	0	43	102	18874368	20	4638
2026-01-06 22:48:35.94	67.92	21.25	-30.5	-32.3	12.6	1.01e-04	0	43	102	18874368	21	4428
2026-01-06 22:48:36.95	68.17	21.29	-30.5	-32.2	12.6	9.61e-05	0	44	102	18874368	21	4387
2026-01-06 22:48:37.96	68.42	21.34	-30.2	-31.9	13.2	3.12e-04	0	43	102	18874368	20	4370
2026-01-06 22:48:38.96	68.66	21.38	-30.0	-31.3	13.5	1.98e-05	0	43	102	18874368	20	4201
2026-01-06 22:48:39.97	68.92	21.42	-29.7	-30.6	13.9	1.88e-04	0	43	102	18874368	20	4002
2026-01-06 22:48:40.98	69.17	21.47	-29.9	-31.0	13.8	1.92e-04	0	43	102	18874368	20	4096
2026-01-06 22:48:41.98	69.42	21.51	-29.8	-30.8	13.8	9.00e-05	0	43	102	18874368	20	4056
2026-01-06 22:48:42.99	69.67	21.55	-30.1	-31.7	13.3	1.88e-04	0	44	102	18874368	20	4326
2026-01-06 22:48:43.99	69.92	21.59	-30.1	-31.6	13.3	1.14e-05	0	43	102	18874368	20	4291
2026-01-06 22:48:45.00	70.18	21.63	-30.1	-31.8	13.3	1.75e-05	0	44	102	18874368	20	4337
2026-01-06 22:48:46.01	70.43	21.67	-30.1	-31.5	13.4	6.17e-05	0	43	102	18874368	20	4253
2026-01-06 22:48:47.02	70.69	21.71	-30.1	-31.6	13.4	1.90e-05	0	43	102	18874368	20	4288
2026-01-06 22:48:48.02	70.94	21.75	-30.1	-31.7	13.3	1.75e-05	0	43	102	18874368	20	4307
2026-01-06 22:48:49.03	71.20	21.79	-30.2	-31.9	13.2	7.24e-05	0	43	102	18874368	20	4363
2026-01-06 22:48:50.03	71.45	21.83	-30.3	-32.2	13.0	3.73e-05	0	43	102	18874368	20	4487
2026-01-06 22:48:51.04	71.71	21.86	-30.1	-31.6	13.4	1.44e-05	0	43	102	18874368	20	4285
2026-01-06 22:48:52.04	71.97	21.90	-29.8	-30.9	13.9	1.85e-04	0	43	102	18874368	20	4071
2026-01-06 22:48:53.05	72.23	21.94	-29.6	-30.3	14.2	2.08e-04	0	43	102	18874368	20	3890
2026-01-06 22:48:54.06	72.49	21.97	-29.8	-30.8	13.9	3.00e-06	0	43	102	18874368	20	4027
2026-01-06 22:48:55.06	72.75	22.01	-29.8	-30.8	13.9	4.50e-06	0	43	102	18874368	20	4033
2026-01-06 22:48:56.07	73.01	22.05	-30.1	-31.6	13.4	3.66e-04	0	43	102	18874368	20	4272
2026-01-06 22:48:57.07	73.27	22.08	-29.9	-31.0	13.8	2.20e-06	0	43	102	18874368	20	4086
2026-01-06 22:48:58.08	73.53	22.11	-29.8	-30.8	13.9	5.30e-06	0	43	102	18874368	20	4028
2026-01-06 22:48:59.09	73.79	22.15	-29.7	-30.6	14.0	4.42e-05	0	43	102	18874368	20	3989
2026-01-06 22:49:00.10	74.05	22.18	-29.9	-31.1	13.7	1.50e-06	0	43	102	18874368	20	4127
2026-01-06 22:49:01.11	74.32	22.21	-30.0	-31.3	13.6	6.80e-06	0	43	102	18874368	20	4180
2026-01-06 22:49:02.12	74.58	22.24	-30.3	-32.0	13.1	1.75e-05	0	43	102	18874368	20	4421
2026-01-06 22:49:03.12	74.85	22.28	-30.3	-32.0	13.1	2.97e-05	0	43	102	18874368	20	4418
2026-01-06 22:49:04.13	75.11	22.31	-30.3	-32.3	13.0	3.43e-05	0	43	102	18874368	20	4492
2026-01-06 22:49:05.14	75.38	22.34	-30.2	-31.9	13.3	2.51e-05	0	44	102	18874368	20	4364
2026-01-06 22:49:06.14	75.64	22.37	-30.0	-31.3	13.6	1.29e-05	0	43	102	18874368	20	4184
2026-01-06 22:49:07.15	75.91	22.39	-30.1	-31.6	13.4	6.10e-06	0	44	102	18874368	20	4279
2026-01-06 22:49:08.15	76.17	22.42	-30.5	-32.6	12.8	2.36e-05	0	44	102	18874368	20	4620
2026-01-06 22:49:09.16	76.44	22.45	-30.7	-32.7	12.4	8.39e-05	0	43	102	18874368	21	4562
2026-01-06 22:49:10.17	76.71	22.48	-30.7	-32.7	12.3	1.35e-04	0	44	102	18874368	21	4548
2026-01-06 22:49:11.17	76.98	22.50	-30.7	-32.9	12.1	1.88e-04	0	44	102	18874368	21	4633
2026-01-06 22:49:12.18	77.25	22.53	-30.4	-31.9	12.8	1.07e-04	0	43	102	18874368	21	4298
2026-01-06 22:49:13.19	77.52	22.55	-30.1	-31.0	13.5	3.89e-05	0	44	102	18874368	21	4020
2026-01-06 22:49:14.20	77.79	22.58	-30.0	-31.4	13.5	7.60e-06	0	43	102	18874368	20	4231
2026-01-06 22:49:15.20	78.06	22.60	-30.1	-31.5	13.5	3.00e-06	0	43	102	18874368	20	4260
2026-01-06 22:49:16.21	78.33	22.63	-30.3	-32.2	13.0	2.13e-05	0	43	102	18874368	20	4487
2026-01-06 22:49:17.21	78.60	22.65	-30.4	-32.4	12.9	4.88e-05	0	43	102	18874368	20	4535
2026-01-06 22:49:18.23	78.87	22.67	-30.5	-32.7	12.7	5.87e-05	0	43	102	18874368	20	4648
2026-01-06 22:49:19.23	79.14	22.69	-30.5	-32.3	12.4	1.05e-04	0	43	102	18874368	21	4454
2026-01-06 22:49:20.24	79.41	22.71	-30.3	-31.7	13.0	5.34e-05	0	43	102	18874368	21	4229
2026-01-06 22:49:21.24	79.68	22.73	-30.0	-31.4	13.1	5.30e-06	0	43	102	18874368	20	4234
2026-01-06 22:49:22.25	79.96	22.75	-29.8	-30.8	13.5	6.10e-06	0	43	102	18874368	20	4034
2026-01-06 22:49:23.26	80.23	22.77	-29.9	-31.1	13.7	2.20e-06	0	43	102	18874368	20	4147
2026-01-06 22:49:24.27	80.50	22.79	-29.9	-31.2	13.7	3.00e-06	0	43	102	18874368	20	4154
2026-01-06 22:49:25.28	80.78	22.81	-30.0	-31.5	13.4	8.30e-06	0	43	102	18874368	20	4255
2026-01-06 22:49:26.28	81.05	22.82	-30.1	-31.5	13.4	9.10e-06	0	43	102	18874368	20	4260
2026-01-06 22:49:27.29	81.33	22.84	-29.9	-31.1	13.8	2.05e-05	0	43	102	18874368	20	4122
2026-01-06 22:49:28.29	81.60	22.86	-29.8	-30.7	13.9	0.00e+00	0	43	102	18874368	20	4020
2026-01-06 22:49:29.30	81.87	22.87	-29.8	-30.7	13.9	3.80e-06	0	43	102	18874368	20	4024
2026-01-06 22:49:30.31	82.15	22.89	-29.8	-30.9	13.8	3.58e-05	0	43	102	18874368	20	4070
2026-01-06 22:49:31.31	82.42	22.90	-30.0	-31.4	13.5	7.60e-06	0	44	102	18874368	20	4238
2026-01-06 22:49:32.32	82.70	22.91	-30.0	-31.4	13.6	6.10e-06	0	43	102	18874368	20	4214
2026-01-06 22:49:33.33	82.98	22.92	-30.0	-31.4	13.5	5.03e-05	0	44	102	18874368	20	4228
2026-01-06 22:49:34.34	83.25	22.94	-29.8	-30.7	14.0	5.30e-06	0	43	102	18874368	20	4019
2026-01-06 22:49:35.34	83.53	22.95	-29.6	-30.4	14.2	1.50e-06	0	43	102	18874368	20	3932
2026-01-06 22:49:36.35	83.80	22.96	-29.7	-30.6	14.0	2.20e-06	0	44	102	18874368	20	4004
2026-01-06 22:49:37.36	84.08	22.97	-29.5	-30.8	13.6	5.30e-06	0	43	102	18874368	20	4197
2026-01-06 22:49:38.36	84.36	22.98	-28.5	-31.3	13.2	6.80e-06	0	43	102	18874368	18	4955
2026-01-06 22:49:39.37	84.63	22.98	-28.1	-31.4	13.1	2.67e-05	0	44	102	18874368	17	5279
2026-01-06 22:49:40.38	84.91	22.99	-28.7	-31.9	13.1	3.81e-05	0	43	102	18874368	17	5207
2026-01-06 22:49:41.38	85.19	23.00	-29.5	-31.6	13.3	1.75e-05	0	44	102	18874368	19	4578
2026-01-06 22:49:42.39	85.47	23.00	-29.9	-31.3	13.5	7.60e-06	0	43	102	18874368	20	4233
2026-01-06 22:49:43.40	85.74	23.01	-30.0	-31.5	13.4	1.52e-05	0	43	102	18874368	20	4253
2026-01-06 22:49:44.41	86.02	23.01	-30.0	-31.5	13.4	1.44e-05	0	43	102	18874368	20	4264
2026-01-06 22:49:45.41	86.30	23.02	-29.9	-31.2	13.7	3.80e-06	0	43	102	18874368	20	4166
2026-01-06 22:49:46.42	86.58	23.02	-29.8	-30.8	13.9	5.30e-06	0	43	102	18874368	20	4040
2026-01-06 22:49:47.42	86.85	23.02	-29.7	-30.6	14.0	7.00e-07	0	43	102	18874368	20	3992
2026-01-06 22:49:48.42	87.13	23.03	-29.8	-30.8	14.0	3.20e-05	0	43	102	18874368	20	4043
2026-01-06 22:49:49.42	87.40	23.03	-29.4	-30.5	13.8	1.50e-06	0	43	102	18874368	20	4072
2026-01-06 22:49:50.42	87.68	23.03	-28.6	-30.6	13.9	5.30e-06	0	44	102	18874368	18	4542
2026-01-06 22:49:51.42	87.96	23.03	-28.1	-30.6	13.9	6.79e-05	0	44	102	18874368	17	4808
2026-01-06 22:49:52.43	88.23	23.03	-28.5	-31.0	13.9	8.77e-05	0	43	102	18874368	17	4808
2026-01-06 22:49:53.44	88.51	23.03	-29.3	-31.3	13.9	2.20e-06	0	44	102	18874368	18	4523
2026-01-06 22:49:54.45	88.79	23.03	-29.7	-31.0	14.0	1.05e-04	0	44	102	18874368	19	4218
2026-01-06 22:49:55.46	89.07	23.02	-29.7	-31.0	14.1	8.69e-05	0	43	102	18874368	19	4195
2026-01-06 22:49:56.46	89.35	23.02	-29.7	-31.0	14.1	2.20e-06	0	43	102	18874368	19	4199
2026-01-06 22:49:57.47	89.62	23.02	-29.7	-31.0	14.2	1.73e-04	0	43	102	18874368	19	4189
2026-01-06 22:49:58.48	89.90	23.01	-29.6	-30.7	14.3	2.33e-04	0	44	102	18874368	19	4105
2026-01-06 22:49:59.48	90.18	23.01	-29.5	-30.6	14.4	1.50e-06	0	44	102	18874368	19	4080
2026-01-06 22:50:00.49	90.46	23.00	-29.4	-30.3	14.6	2.57e-04	0	43	102	18874368	19	3988
2026-01-06 22:50:01.50	90.73	22.99	-29.3	-30.1	14.6	2.93e-04	0	43	102	18874368	19	3941
2026-01-06 22:50:02.50	91.01	22.99	-29.5	-30.4	14.5	0.00e+00	0	43	102	18874368	19	4025
2026-01-06 22:50:03.51	91.29	22.98	-29.4	-30.3	14.5	2.20e-06	0	43	102	18874368	19	3989
2026-01-06 22:50:04.52	91.57	22.97	-29.3	-30.1	14.7	1.62e-04	0	43	102	18874368	19	3941
2026-01-06 22:50:05.53	91.84	22.96	-29.4	-30.2	14.6	7.00e-07	0	44	102	18874368	19	3975
2026-01-06 22:50:06.53	92.12	22.95	-29.5	-30.6	14.4	7.00e-07	0	43	102	18874368	19	4085
2026-01-06 22:50:07.54	92.40	22.94	-29.5	-30.6	14.3	1.44e-04	0	43	102	18874368	19	4089
2026-01-06 22:50:08.55	92.67	22.93	-29.5	-30.6	14.4	7.00e-07	0	43	102	18874368	19	4077
2026-01-06 22:50:09.56	92.95	22.91	-29.6	-30.8	14.2	3.28e-05	0	44	102	18874368	19	4139
2026-01-06 22:50:10.56	93.22	22.90	-29.6	-30.7	14.3	1.50e-06	0	44	102	18874368	19	4107
2026-01-06 22:50:11.57	93.50	22.89	-29.8	-31.3	13.9	4.50e-06	0	43	102	18874368	19	4293
2026-01-06 22:50:12.58	93.78	22.87	-29.8	-31.4	13.9	3.80e-06	0	43	102	18874368	19	4317
2026-01-06 22:50:13.58	94.05	22.86	-29.8	-31.3	14.0	3.00e-06	0	43	102	18874368	19	4277
2026-01-06 22:50:14.59	94.32	22.84	-29.7	-31.1	14.1	3.80e-06	0	43	102	18874368	19	4234
2026-01-06 22:50:15.59	94.60	22.83	-29.6	-30.7	14.3	7.00e-07	0	43	102	18874368	19	4116
2026-01-06 22:50:16.60	94.87	22.81	-29.6	-30.8	14.3	0.00e+00	0	44	102	18874368	19	4118
2026-01-06 22:50:17.61	95.15	22.79	-29.5	-30.6	14.4	3.00e-06	0	43	102	18874368	19	4071
2026-01-06 22:50:18.62	95.42	22.77	-29.6	-30.9	14.2	7.00e-07	0	43	102	18874368	19	4160
2026-01-06 22:50:19.63	95.70	22.76	-29.9	-31.7	13.7	6.10e-06	0	44	102	18874368	19	4397
2026-01-06 22:50:20.64	95.97	22.74	-30.0	-31.4	13.5	6.10e-06	0	43	102	18874368	20	4216
2026-01-06 22:50:21.65	96.24	22.72	-30.1	-31.6	13.3	1.29e-05	0	43	102	18874368	20	4290
2026-01-06 22:50:22.65	96.51	22.70	-29.8	-30.9	13.8	2.05e-05	0	43	102	18874368	20	4076
2026-01-06 22:50:23.66	96.79	22.67	-29.5	-30.2	14.1	2.20e-06	0	43	102	18874368	20	3874
2026-01-06 22:50:24.67	97.06	22.65	-29.2	-29.8	14.8	1.50e-06	0	43	102	18874368	19	3863
2026-01-06 22:50:25.68	97.33	22.63	-29.1	-29.6	14.9	0.00e+00	0	43	102	18874368	19	3790
2026-01-06 22:50:26.68	97.60	22.61	-29.1	-29.5	15.0	0.00e+00	0	43	102	18874368	19	3770
2026-01-06 22:50:27.69	97.87	22.58	-29.2	-29.7	14.9	0.00e+00	0	43	102	18874368	19	3822
2026-01-06 22:50:28.70	98.14	22.56	-29.1	-29.5	15.0	7.00e-07	0	43	102	18874368	19	3784
2026-01-06 22:50:29.70	98.41	22.53	-29.0	-29.2	15.2	0.00e+00	0	44	102	18874368	19	3690
2026-01-06 22:50:30.71	98.68	22.51	-28.8	-28.8	15.4	7.00e-07	0	43	102	18874368	19	3590
2026-01-06 22:50:31.71	98.95	22.48	-28.6	-28.8	15.7	0.00e+00	0	43	102	18874368	18	3673
2026-01-06 22:50:32.70	99.21	22.45	-28.7	-29.1	15.5	0.00e+00	0	43	102	18874368	18	3759
2026-01-06 22:50:33.71	99.48	22.43	-28.6	-28.8	15.7	0.00e+00	0	43	102	18874368	18	3689
2026-01-06 22:50:34.72	99.75	22.40	-28.8	-29.2	15.5	0.00e+00	0	43	102	18874368	18	3780
2026-01-06 22:50:35.73	100.02	22.37	-28.8	-29.3	15.4	0.00e+00	0	44	102	18874368	18	3816
2026-01-06 22:50:36.74	100.28	22.34	-28.8	-29.4	15.3	0.00e+00	0	43	102	18874368	18	3854
2026-01-06 22:50:37.74	100.55	22.31	-28.9	-29.6	15.3	0.00e+00	0	43	102	18874368	18	3881
2026-01-06 22:50:38.75	100.81	22.28	-29.0	-29.8	15.1	0.00e+00	0	43	102	18874368	18	3951
2026-01-06 22:50:39.76	101.08	22.25	-29.1	-30.0	15.0	7.00e-07	0	43	102	18874368	18	3995
2026-01-06 22:50:40.77	101.35	22.22	-29.2	-30.2	14.9	1.50e-06	0	43	102	18874368	18	4061
2026-01-06 22:50:41.78	101.61	22.18	-29.1	-30.0	15.0	7.00e-07	0	43	102	18874368	18	3991
2026-01-06 22:50:42.78	101.87	22.15	-29.2	-30.2	14.9	0.00e+00	0	43	102	18874368	18	4048
2026-01-06 22:50:43.79	102.14	22.12	-29.1	-30.1	14.9	3.00e-06	0	44	102	18874368	18	4034
2026-01-06 22:50:44.80	102.40	22.08	-29.1	-30.2	14.9	0.00e+00	0	43	102	18874368	18	4046
2026-01-06 22:50:45.80	102.66	22.05	-29.2	-30.2	14.8	0.00e+00	0	43	102	18874368	18	4054
2026-01-06 22:50:46.80	102.92	22.01	-29.1	-30.0	15.0	5.30e-06	0	43	102	18874368	18	3990
2026-01-06 22:50:47.81	103.18	21.98	-29.0	-29.8	15.2	0.00e+00	0	43	102	18874368	18	3939
2026-01-06 22:50:48.82	103.44	21.94	-29.0	-29.9	15.0	0.00e+00	0	44	102	18874368	18	3970
2026-01-06 22:50:49.83	103.70	21.91	-28.9	-29.6	15.2	3.00e-06	0	43	102	18874368	18	3880
2026-01-06 22:50:50.84	103.96	21.87	-28.7	-29.2	15.5	0.00e+00	0	44	102	18874368	18	3786
2026-01-06 22:50:51.84	104.22	21.83	-28.7	-29.1	15.5	0.00e+00	0	43	102	18874368	18	3770
2026-01-06 22:50:52.85	104.48	21.79	-28.7	-29.2	15.4	3.80e-06	0	43	102	18874368	18	3790
2026-01-06 22:50:53.86	104.73	21.75	-28.6	-29.3	15.7	4.32e-04	0	43	102	18874368	17	3903
2026-01-06 22:50:54.87	104.99	21.71	-28.4	-28.9	15.9	0.00e+00	0	43	102	18874368	17	3806
2026-01-06 22:50:55.87	105.24	21.67	-28.5	-29.0	15.8	0.00e+00	0	43	102	18874368	17	3836
2026-01-06 22:50:56.88	105.50	21.63	-28.5	-29.2	15.7	2.81e-04	0	43	102	18874368	17	3875
2026-01-06 22:50:57.88	105.75	21.59	-28.9	-30.0	15.3	0.00e+00	0	44	102	18874368	17	4087
2026-01-06 22:50:58.89	106.01	21.55	-28.8	-29.8	15.4	0.00e+00	0	43	102	18874368	17	4031
2026-01-06 22:50:59.90	106.26	21.51	-28.7	-29.6	15.5	8.31e-05	0	43	102	18874368	17	3994
2026-01-06 22:51:00.91	106.51	21.47	-28.8	-29.8	15.3	9.23e-05	0	43	102	18874368	17	4049
2026-01-06 22:51:01.91	106.76	21.42	-28.8	-29.9	15.3	7.00e-07	0	43	102	18874368	17	4062
2026-01-06 22:51:02.91	107.01	21.38	-29.0	-30.3	15.1	1.23e-04	0	43	102	18874368	17	4176
2026-01-06 22:51:03.92	107.26	21.34	-28.9	-29.6	15.2	1.66e-04	0	43	102	18874368	18	3897
2026-01-06 22:51:04.92	107.51	21.29	-28.9	-29.5	15.3	0.00e+00	0	44	102	18874368	18	3865
2026-01-06 22:51:05.93	107.76	21.25	-28.8	-29.3	15.4	2.46e-04	0	43	102	18874368	18	3808
2026-01-06 22:51:06.94	108.01	21.20	-28.8	-29.3	15.4	1.46e-04	0	44	102	18874368	18	3818
2026-01-06 22:51:07.95	108.26	21.16	-29.0	-29.9	15.0	2.20e-06	0	43	102	18874368	18	3984
2026-01-06 22:51:08.96	108.51	21.11	-29.0	-29.9	15.0	0.00e+00	0	43	102	18874368	18	3974
2026-01-06 22:51:09.97	108.75	21.07	-29.2	-30.2	14.9	7.01e-05	0	44	102	18874368	18	4064
2026-01-06 22:51:10.97	109.00	21.02	-29.4	-30.7	14.5	2.20e-06	0	44	102	18874368	18	4224
2026-01-06 22:51:11.98	109.24	20.97	-29.2	-30.4	14.7	1.01e-04	0	44	102	18874368	18	4120
2026-01-06 22:51:12.99	109.49	20.92	-29.1	-30.1	14.9	1.97e-04	0	43	102	18874368	18	4029
2026-01-06 22:51:13.99	109.73	20.87	-29.1	-30.2	14.8	0.00e+00	0	44	102	18874368	18	4060
2026-01-06 22:51:15.00	109.97	20.83	-29.2	-30.3	14.7	5.02e-04	0	44	102	18874368	18	4109
2026-01-06 22:51:16.00	110.21	20.78	-29.0	-29.9	15.0	4.52e-04	0	44	102	18874368	18	3968
2026-01-06 22:51:17.01	110.46	20.73	-29.2	-30.3	14.7	7.00e-07	0	44	102	18874368	18	4094
2026-01-06 22:51:18.02	110.70	20.68	-29.0	-29.7	15.0	5.33e-04	0	44	102	18874368	18	3932
2026-01-06 22:51:19.03	110.94	20.63	-29.0	-29.8	15.1	0.00e+00	0	43	102	18874368	18	3940
2026-01-06 22:51:20.03	111.17	20.58	-29.0	-29.9	15.0	7.00e-07	0	44	102	18874368	18	3966
2026-01-06 22:51:21.04	111.41	20.53	-29.5	-31.0	14.3	4.02e-04	0	43	102	18874368	18	4292
2026-01-06 22:51:22.05	111.65	20.47	-29.5	-30.6	14.3	3.78e-04	0	43	102	18874368	19	4090
2026-01-06 22:51:23.05	111.89	20.42	-29.6	-30.9	14.1	1.50e-06	0	44	102	18874368	19	4181
2026-01-06 22:51:24.06	112.12	20.37	-29.8	-31.3	13.8	2.08e-04	0	43	102	18874368	19	4288
2026-01-06 22:51:25.07	112.36	20.32	-29.7	-31.1	13.9	5.49e-05	0	43	102	18874368	19	4254
2026-01-06 22:51:26.07	112.59	20.26	-29.8	-31.5	13.6	2.20e-06	0	43	102	18874368	19	4376
2026-01-06 22:51:27.08	112.82	20.21	-29.9	-31.7	13.6	9.90e-06	0	44	102	18874368	19	4433
2026-01-06 22:51:28.08	113.05	20.16	-29.9	-31.2	13.4	1.29e-05	0	43	102	18874368	20	4193
2026-01-06 22:51:29.09	113.29	20.10	-29.9	-31.2	13.4	1.75e-05	0	44	102	18874368	20	4196
2026-01-06 22:51:30.10	113.52	20.05	-29.7	-30.7	13.7	3.80e-06	0	44	102	18874368	20	4050
2026-01-06 22:51:31.10	113.75	19.99	-29.5	-30.3	14.0	5.30e-06	0	44	102	18874368	20	3945
2026-01-06 22:51:32.10	113.98	19.94	-29.5	-30.2	14.1	1.50e-06	0	43	102	18874368	20	3894
2026-01-06 22:51:33.11	114.20	19.88	-29.7	-30.8	13.6	2.20e-06	0	43	102	18874368	20	4086
2026-01-06 22:51:34.11	114.43	19.83	-29.6	-30.6	13.9	3.80e-06	0	44	102	18874368	20	4003
2026-01-06 22:51:35.12	114.66	19.77	-29.7	-30.6	13.8	3.00e-06	0	43	102	18874368	20	4002
2026-01-06 22:51:36.12	114.88	19.72	-29.8	-31.4	13.6	6.80e-06	0	44	102	18874368	19	4353
2026-01-06 22:51:37.13	115.11	19.66	-30.0	-31.5	13.2	1.37e-05	0	44	102	18874368	20	4274
2026-01-06 22:51:38.14	115.33	19.60	-29.8	-31.0	13.5	8.30e-06	0	44	102	18874368	20	4142
2026-01-06 22:51:39.14	115.56	19.55	-29.7	-30.7	13.7	4.50e-06	0	43	102	18874368	20	4055
2026-01-06 22:51:40.15	115.78	19.49	-29.7	-30.8	13.6	6.80e-06	0	44	102	18874368	20	4072
2026-01-06 22:51:41.16	116.00	19.43	-29.8	-31.1	13.4	2.20e-06	0	44	102	18874368	20	4155
2026-01-06 22:51:42.16	116.22	19.37	-29.8	-30.9	13.6	8.39e-05	0	44	102	18874368	20	4102
2026-01-06 22:51:43.17	116.44	19.31	-30.0	-31.7	13.1	2.67e-05	0	43	102	18874368	20	4347
2026-01-06 22:51:44.17	116.66	19.26	-30.1	-31.9	12.9	6.56e-05	0	44	102	18874368	20	4425
2026-01-06 22:51:45.18	116.88	19.20	-30.3	-32.5	12.5	8.77e-05	0	44	102	18874368	20	4621
2026-01-06 22:51:46.19	117.10	19.14	-30.4	-32.9	12.2	1.88e-04	0	43	102	18874368	20	4765
2026-01-06 22:51:47.20	117.32	19.08	-30.3	-32.0	12.5	1.85e-04	0	44	102	18874368	21	4372
2026-01-06 22:51:48.21	117.53	19.02	-30.2	-31.5	12.8	6.48e-05	0	44	102	18874368	21	4212
2026-01-06 22:51:49.21	117.75	18.96	-30.0	-31.1	13.1	3.05e-05	0	43	102	18874368	21	4071
2026-01-06 22:51:50.22	117.96	18.90	-29.8	-30.6	13.4	2.21e-05	0	43	102	18874368	21	3947
2026-01-06 22:51:51.22	118.18	18.84	-30.0	-31.0	13.1	3.20e-05	0	43	102	18874368	21	4064
2026-01-06 22:51:52.23	118.39	18.78	-29.9	-30.9	13.2	2.82e-05	0	43	102	18874368	21	4034
2026-01-06 22:51:53.24	118.60	18.72	-30.0	-31.0	13.1	3.05e-05	0	44	102	18874368	21	4041
2026-01-06 22:51:54.25	118.81	18.65	-30.1	-31.4	12.9	3.96e-05	0	43	102	18874368	21	4162
2026-01-06 22:51:55.26	119.03	18.59	-30.0	-31.1	13.0	6.10e-05	0	44	102	18874368	21	4095
2026-01-06 22:51:56.26	119.23	18.53	-30.1	-31.3	12.9	5.41e-05	0	43	102	18874368	21	4133
2026-01-06 22:51:57.26	119.44	18.47	-30.0	-31.1	13.0	3.89e-05	0	44	102	18874368	21	4073
2026-01-06 22:51:58.27	119.65	18.41	-30.3	-31.8	12.6	5.41e-05	0	43	102	18874368	21	4294
2026-01-06 22:51:59.28	119.86	18.35	-30.3	-32.0	12.5	1.40e-04	0	43	102	18874368	21	4352
2026-01-06 22:52:00.29	120.06	18.28	-30.1	-31.4	12.8	6.10e-05	0	43	102	18874368	21	4188
2026-01-06 22:52:01.30	120.27	18.22	-30.1	-31.5	12.8	5.79e-05	0	43	102	18874368	21	4203
2026-01-06 22:52:02.30	120.47	18.16	-30.3	-31.9	12.5	1.14e-04	0	43	102	18874368	21	4325
2026-01-06 22:52:03.31	120.68	18.09	-30.3	-32.0	12.5	1.34e-04	0	44	102	18874368	21	4373
2026-01-06 22:52:04.32	120.88	18.03	-30.2	-31.6	12.7	1.41e-04	0	44	102	18874368	21	4256
2026-01-06 22:52:05.33	121.09	17.97	-30.0	-31.2	12.9	4.50e-05	0	43	102	18874368	21	4113
2026-01-06 22:52:06.33	121.29	17.90	-30.1	-31.3	13.0	4.73e-05	0	43	102	18874368	21	4134
2026-01-06 22:52:07.33	121.48	17.84	-30.0	-31.1	13.0	3.12e-05	0	43	102	18874368	21	4090
2026-01-06 22:52:08.34	121.69	17.78	-30.0	-31.2	12.9	2.89e-05	0	44	102	18874368	21	4120
2026-01-06 22:52:09.35	121.88	17.71	-30.0	-31.1	13.0	2.67e-05	0	43	102	18874368	21	4101
2026-01-06 22:52:10.36	122.08	17.65	-30.2	-31.6	12.7	5.34e-05	0	44	102	18874368	21	4255
2026-01-06 22:52:11.37	122.28	17.58	-30.2	-31.7	12.6	6.17e-05	0	43	102	18874368	21	4286
2026-01-06 22:52:12.38	122.48	17.52	-30.0	-31.1	13.0	8.39e-05	0	43	102	18874368	21	4081
2026-01-06 22:52:13.38	122.67	17.45	-29.8	-30.9	13.4	1.83e-05	0	43	102	18874368	20	4116
2026-01-06 22:52:14.39	122.87	17.39	-29.4	-30.1	14.0	1.22e-05	0	43	102	18874368	20	3888
2026-01-06 22:52:15.40	123.06	17.32	-29.3	-30.2	14.3	3.00e-06	0	43	102	18874368	19	4005
2026-01-06 22:52:16.41	123.26	17.26	-29.2	-30.1	14.3	7.00e-07	0	43	102	18874368	19	3960
2026-01-06 22:52:17.41	123.45	17.19	-29.2	-30.0	14.4	0.00e+00	0	43	102	18874368	19	3933
2026-01-06 22:52:18.42	123.64	17.13	-29.3	-30.2	14.2	0.00e+00	0	43	102	18874368	19	4009
2026-01-06 22:52:19.43	123.83	17.06	-29.4	-30.4	14.1	2.20e-06	0	43	102	18874368	19	4056
2026-01-06 22:52:20.43	124.02	17.00	-29.5	-30.7	13.9	3.00e-06	0	43	102	18874368	19	4155
2026-01-06 22:52:21.44	124.21	16.93	-29.7	-31.2	13.6	1.14e-05	0	44	102	18874368	19	4301
2026-01-06 22:52:22.44	124.40	16.87	-29.9	-31.8	13.2	1.06e-05	0	43	102	18874368	19	4479
2026-01-06 22:52:23.45	124.59	16.80	-29.9	-31.7	13.3	2.28e-05	0	43	102	18874368	19	4443
2026-01-06 22:52:24.46	124.77	16.73	-29.9	-31.7	13.3	1.98e-05	0	44	102	18874368	19	4446
2026-01-06 22:52:25.46	124.96	16.67	-30.0	-31.6	13.0	2.44e-05	0	44	102	18874368	20	4323
2026-01-06 22:52:26.46	125.14	16.60	-30.1	-32.0	12.7	8.31e-05	0	43	102	18874368	20	4453
2026-01-06 22:52:27.47	125.33	16.53	-30.2	-32.2	12.6	1.18e-04	0	43	102	18874368	20	4522
2026-01-06 22:52:28.48	125.51	16.47	-30.5	-33.0	12.0	2.10e-04	0	44	102	18874368	20	4836
2026-01-06 22:52:29.48	125.69	16.40	-30.4	-32.5	12.0	5.74e-04	0	44	102	18874368	21	4552
2026-01-06 22:52:30.49	125.88	16.34	-30.5	-32.7	11.8	5.30e-04	0	43	102	18874368	21	4642
2026-01-06 22:52:31.50	126.06	16.27	-30.4	-32.5	11.9	5.80e-04	0	43	102	18874368	21	4556
2026-01-06 22:52:32.50	126.24	16.20	-30.1	-31.4	12.6	1.20e-04	0	43	102	18874368	21	4214
2026-01-06 22:52:33.50	126.42	16.14	-29.9	-31.0	13.0	5.56e-05	0	44	102	18874368	21	4058
2026-01-06 22:52:34.51	126.59	16.07	-29.8	-31.0	13.3	2.28e-05	0	44	102	18874368	20	4160
2026-01-06 22:52:35.51	126.77	16.00	-29.5	-30.3	13.7	7.60e-06	0	44	102	18874368	20	3955
2026-01-06 22:52:36.52	126.95	15.93	-29.6	-30.9	13.8	5.30e-06	0	44	102	18874368	19	4186
2026-01-06 22:52:37.53	127.13	15.87	-29.6	-31.1	13.6	7.60e-06	0	44	102	18874368	19	4263
2026-01-06 22:52:38.54	127.30	15.80	-29.8	-31.6	13.3	1.14e-05	0	43	102	18874368	19	4421
2026-01-06 22:52:39.54	127.48	15.73	-29.9	-31.5	12.9	3.81e-05	0	43	102	18874368	20	4314
2026-01-06 22:52:40.54	127.65	15.66	-30.0	-31.7	12.7	5.56e-05	0	43	102	18874368	20	4394
2026-01-06 22:52:41.55	127.82	15.60	-30.1	-32.2	12.3	1.52e-04	0	43	102	18874368	20	4582
2026-01-06 22:52:42.56	128.00	15.53	-30.1	-32.1	12.5	1.42e-04	0	44	102	18874368	20	4551
2026-01-06 22:52:43.56	128.17	15.46	-30.0	-31.9	12.6	6.63e-05	0	44	102	18874368	20	4490
2026-01-06 22:52:44.57	128.34	15.39	-29.9	-31.5	12.8	2.31e-04	0	43	102	18874368	20	4345
2026-01-06 22:52:45.58	128.51	15.33	-29.5	-30.5	13.4	1.90e-05	0	44	102	18874368	20	4039
2026-01-06 22:52:46.58	128.68	15.26	-29.4	-30.0	13.8	6.10e-06	0	44	102	18874368	20	3898
2026-01-06 22:52:47.58	128.85	15.19	-29.3	-30.4	14.0	1.74e-04	0	44	102	18874368	19	4071
2026-01-06 22:52:48.59	129.02	15.12	-29.4	-30.7	13.8	1.50e-04	0	43	102	18874368	19	4163
2026-01-06 22:52:49.59	129.18	15.06	-29.6	-31.1	13.5	3.00e-06	0	44	102	18874368	19	4285
2026-01-06 22:52:50.60	129.35	14.99	-29.8	-31.7	13.1	3.58e-04	0	44	102	18874368	19	4481
2026-01-06 22:52:51.61	129.52	14.92	-29.9	-32.0	12.9	2.82e-04	0	44	102	18874368	19	4568
2026-01-06 22:52:52.61	129.68	14.85	-29.9	-31.3	13.0	5.34e-05	0	44	102	18874368	20	4263
2026-01-06 22:52:53.61	129.85	14.78	-29.9	-31.4	12.9	3.96e-05	0	44	102	18874368	20	4294
2026-01-06 22:52:54.63	130.01	14.71	-29.8	-31.2	13.1	5.18e-05	0	44	102	18874368	20	4220
2026-01-06 22:52:55.64	130.17	14.65	-29.8	-31.2	13.0	4.34e-05	0	44	102	18874368	20	4250
2026-01-06 22:52:56.64	130.34	14.58	-29.8	-31.1	13.0	5.26e-05	0	43	102	18874368	20	4221
2026-01-06 22:52:57.65	130.50	14.51	-29.9	-31.8	13.0	6.17e-05	0	44	102	18874368	19	4523
2026-01-06 22:52:58.66	130.66	14.44	-30.0	-31.9	12.5	5.41e-05	0	44	102	18874368	20	4452
2026-01-06 22:52:59.67	130.82	14.37	-30.2	-32.4	12.1	2.02e-04	0	44	102	18874368	20	4642
2026-01-06 22:53:00.67	130.98	14.31	-30.3	-32.8	11.9	2.82e-04	0	44	102	18874368	20	4776
2026-01-06 22:53:01.68	131.14	14.24	-30.3	-32.8	11.9	4.71e-04	0	44	102	18874368	20	4773
2026-01-06 22:53:02.68	131.30	14.17	-30.2	-32.4	12.1	3.87e-04	0	44	102	18874368	20	4630
2026-01-06 22:53:03.69	131.45	14.10	-30.1	-32.1	12.3	2.68e-04	0	44	102	18874368	20	4546
2026-01-06 22:53:04.70	131.61	14.03	-30.0	-31.9	12.4	2.21e-04	0	44	102	18874368	20	4489
2026-01-06 22:53:05.71	131.77	13.96	-29.9	-31.7	12.5	9.15e-05	0	44	102	18874368	20	4427
2026-01-06 22:53:06.71	131.92	13.90	-30.0	-31.9	12.4	1.18e-04	0	44	102	18874368	20	4489
2026-01-06 22:53:07.72	132.08	13.83	-30.0	-31.9	12.4	1.29e-04	0	44	102	18874368	20	4498
2026-01-06 22:53:08.73	132.23	13.76	-29.9	-31.6	12.6	7.93e-05	0	44	102	18874368	20	4386
2026-01-06 22:53:09.73	132.38	13.69	-30.1	-32.1	12.3	1.27e-04	0	44	102	18874368	20	4543
2026-01-06 22:53:10.74	132.54	13.62	-30.3	-32.6	11.9	2.50e-04	0	44	102	18874368	20	4725
2026-01-06 22:53:11.75	132.69	13.56	-30.4	-32.9	11.7	4.67e-04	0	43	102	18874368	20	4833
2026-01-06 22:53:12.75	132.84	13.49	-30.6	-33.1	11.2	9.71e-04	0	43	102	18874368	21	4815
2026-01-06 22:53:13.76	132.99	13.42	-30.6	-33.1	11.2	1.35e-03	0	43	102	18874368	21	4827
2026-01-06 22:53:14.77	133.14	13.35	-30.5	-32.8	11.4	1.36e-03	0	43	102	18874368	21	4715
2026-01-06 22:53:15.77	133.29	13.28	-30.4	-32.6	11.5	8.49e-04	0	44	102	18874368	21	4644
2026-01-06 22:53:16.78	133.44	13.21	-30.3	-32.4	11.7	6.11e-04	0	44	102	18874368	21	4565
2026-01-06 22:53:17.79	133.59	13.15	-30.2	-32.1	11.8	4.50e-04	0	43	102	18874368	21	4472
2026-01-06 22:53:18.80	133.73	13.08	-30.2	-32.2	11.8	4.59e-04	0	43	102	18874368	21	4513
2026-01-06 22:53:19.80	133.88	13.01	-30.1	-31.8	12.0	4.15e-04	0	44	102	18874368	21	4368
2026-01-06 22:53:20.81	134.03	12.94	-30.0	-32.1	12.2	2.84e-04	0	43	102	18874368	20	4585
2026-01-06 22:53:21.81	134.17	12.87	-30.1	-32.5	11.9	2.00e-04	0	43	102	18874368	20	4701
2026-01-06 22:53:22.82	134.32	12.81	-30.2	-32.6	11.8	5.06e-04	0	44	102	18874368	20	4740
2026-01-06 22:53:23.82	134.46	12.74	-30.2	-32.6	11.8	5.35e-04	0	44	102	18874368	20	4732
2026-01-06 22:53:24.83	134.60	12.67	-30.1	-32.4	12.0	4.14e-04	0	43	102	18874368	20	4676
2026-01-06 22:53:25.84	134.75	12.60	-30.2	-32.5	11.9	9.15e-04	0	43	102	18874368	20	4706
2026-01-06 22:53:26.85	134.89	12.53	-30.2	-32.5	11.9	2.89e-04	0	43	102	18874368	20	4704
2026-01-06 22:53:27.86	135.03	12.47	-30.2	-32.7	11.8	3.89e-04	0	43	102	18874368	20	4758
2026-01-06 22:53:28.86	135.17	12.40	-30.1	-32.4	11.9	8.08e-04	0	43	102	18874368	20	4663
2026-01-06 22:53:29.87	135.31	12.33	-30.1	-32.2	12.0	3.73e-04	0	43	102	18874368	20	4612
2026-01-06 22:53:30.88	135.45	12.26	-30.1	-32.2	12.0	3.55e-04	0	43	102	18874368	20	4624
2026-01-06 22:53:31.88	135.59	12.19	-30.0	-32.0	12.2	4.14e-04	0	44	102	18874368	20	4537
2026-01-06 22:53:32.89	135.73	12.13	-30.0	-32.0	12.1	3.75e-04	0	43	102	18874368	20	4532
2026-01-06 22:53:33.90	135.87	12.06	-30.1	-32.3	11.9	2.99e-04	0	44	102	18874368	20	4665
2026-01-06 22:53:34.91	136.00	11.99	-30.0	-32.0	12.1	2.92e-04	0	43	102	18874368	20	4550
2026-01-06 22:53:35.92	136.14	11.92	-29.9	-31.8	12.3	4.99e-04	0	44	102	18874368	20	4488
2026-01-06 22:53:36.93	136.28	11.86	-29.8	-31.6	12.4	1.58e-04	0	43	102	18874368	20	4429
2026-01-06 22:53:37.94	136.41	11.79	-29.9	-32.4	12.2	1.71e-04	0	43	102	18874368	19	4805
2026-01-06 22:53:38.94	136.55	11.72	-30.0	-32.6	12.1	1.10e-03	0	44	102	18874368	19	4869
2026-01-06 22:53:39.95	136.68	11.65	-30.0	-32.1	12.0	2.29e-04	0	43	102	18874368	20	4588
2026-01-06 22:53:40.96	136.82	11.59	-30.1	-32.5	11.7	3.49e-04	0	43	102	18874368	20	4729
2026-01-06 22:53:41.97	136.95	11.52	-30.0	-32.1	12.0	1.10e-03	0	44	102	18874368	20	4591
2026-01-06 22:53:42.98	137.08	11.45	-29.9	-31.7	12.3	2.18e-04	0	44	102	18874368	20	4461
2026-01-06 22:53:43.98	137.21	11.38	-29.9	-31.7	12.3	6.44e-04	0	43	102	18874368	20	4446
2026-01-06 22:53:44.98	137.34	11.32	-29.8	-31.9	12.5	4.73e-04	0	44	102	18874368	19	4589
2026-01-06 22:53:45.99	137.47	11.25	-29.9	-32.2	12.4	1.59e-04	0	43	102	18874368	19	4677
2026-01-06 22:53:47.00	137.60	11.18	-29.9	-31.6	12.3	5.17e-04	0	43	102	18874368	20	4403
2026-01-06 22:53:48.01	137.73	11.12	-30.0	-32.2	11.9	5.06e-04	0	43	102	18874368	20	4618
2026-01-06 22:53:49.02	137.86	11.05	-30.1	-32.3	11.8	4.68e-04	0	44	102	18874368	20	4652
2026-01-06 22:53:50.02	137.99	10.98	-30.2	-32.7	11.5	6.54e-04	0	44	102	18874368	20	4811
2026-01-06 22:53:51.03	138.12	10.91	-30.1	-32.5	11.7	8.41e-04	0	44	102	18874368	20	4725
2026-01-06 22:53:52.04	138.25	10.85	-30.3	-33.0	11.3	1.08e-03	0	43	102	18874368	20	4943
2026-01-06 22:53:53.04	138.37	10.78	-30.1	-32.4	11.7	7.74e-04	0	44	102	18874368	20	4692
2026-01-06 22:53:54.05	138.50	10.71	-30.1	-32.4	11.7	5.15e-04	0	43	102	18874368	20	4725
2026-01-06 22:53:55.06	138.62	10.65	-30.0	-32.3	11.7	4.88e-04	0	44	102	18874368	20	4686
2026-01-06 22:53:56.06	138.75	10.58	-30.2	-32.8	11.4	7.33e-04	0	43	102	18874368	20	4852
2026-01-06 22:53:57.07	138.87	10.51	-30.0	-32.3	11.7	7.03e-04	0	44	102	18874368	20	4684
2026-01-06 22:53:58.07	139.00	10.45	-30.0	-32.1	12.0	3.40e-04	0	44	102	18874368	20	4580
2026-01-06 22:53:59.08	139.12	10.38	-29.9	-32.0	12.0	2.90e-04	0	44	102	18874368	20	4546
2026-01-06 22:54:00.09	139.24	10.32	-29.9	-31.8	12.1	4.37e-04	0	43	102	18874368	20	4503
2026-01-06 22:54:01.09	139.36	10.25	-29.9	-31.8	12.1	2.60e-04	0	44	102	18874368	20	4476
2026-01-06 22:54:02.10	139.49	10.18	-29.9	-31.9	12.0	2.84e-04	0	43	102	18874368	20	4535
2026-01-06 22:54:03.10	139.61	10.12	-30.0	-32.3	11.7	7.80e-04	0	44	102	18874368	20	4689
2026-01-06 22:54:04.11	139.73	10.05	-30.0	-32.2	11.8	4.86e-04	0	43	102	18874368	20	4621
2026-01-06 22:54:05.11	139.85	9.99	-30.2	-32.7	11.4	8.58e-04	0	44	102	18874368	20	4832
2026-01-06 22:54:06.12	139.97	9.92	-30.1	-32.5	11.6	8.86e-04	0	44	102	18874368	20	4737
2026-01-06 22:54:07.12	140.09	9.85	-30.2	-32.9	11.2	1.11e-03	0	43	102	18874368	20	4917
2026-01-06 22:54:08.14	140.21	9.79	-30.4	-33.5	10.8	2.31e-03	0	43	102	18874368	20	5125
2026-01-06 22:54:09.14	140.32	9.72	-30.4	-33.5	10.8	2.89e-03	0	43	102	18874368	20	5155
2026-01-06 22:54:10.15	140.44	9.66	-30.5	-33.3	10.6	3.40e-03	0	44	102	18874368	21	4955
2026-01-06 22:54:11.16	140.56	9.59	-30.6	-33.7	10.2	5.01e-03	0	44	102	18874368	21	5129
2026-01-06 22:54:12.16	140.67	9.53	-30.6	-33.7	10.2	5.54e-03	0	44	102	18874368	21	5124
2026-01-06 22:54:13.17	140.79	9.46	-30.7	-33.8	10.1	5.16e-03	0	44	102	18874368	21	5173
2026-01-06 22:54:14.18	140.91	9.40	-30.7	-34.0	9.9	5.77e-03	0	43	102	18874368	21	5279
2026-01-06 22:54:15.19	141.02	9.33	-30.8	-34.3	9.7	9.93e-03	0	44	102	18874368	21	5414
2026-01-06 22:54:16.19	141.14	9.26	-30.7	-33.9	10.0	9.38e-03	0	43	102	18874368	21	5243
2026-01-06 22:54:17.20	141.25	9.20	-30.7	-34.1	9.8	9.72e-03	0	43	102	18874368	21	5341
2026-01-06 22:54:18.20	141.36	9.13	-30.5	-33.6	10.2	7.09e-03	0	43	102	18874368	21	5101
2026-01-06 22:54:19.21	141.48	9.07	-30.4	-33.2	10.5	5.59e-03	0	43	102	18874368	21	4948
2026-01-06 22:54:20.21	141.59	9.01	-30.4	-33.5	10.6	3.98e-03	0	43	102	18874368	20	5143
2026-01-06 22:54:21.22	141.70	8.94	-30.3	-33.5	10.6	3.25e-03	0	44	102	18874368	20	5174
2026-01-06 22:54:22.23	141.81	8.88	-30.3	-33.5	10.5	3.25e-03	0	43	102	18874368	20	5170
2026-01-06 22:54:23.23	141.92	8.81	-30.4	-33.6	10.4	3.63e-03	0	43	102	18874368	20	5219
2026-01-06 22:54:24.24	142.03	8.75	-30.4	-33.7	10.3	4.92e-03	0	43	102	18874368	20	5265
2026-01-06 22:54:25.24	142.14	8.68	-30.3	-33.3	10.5	4.26e-03	0	44	102	18874368	20	5127
2026-01-06 22:54:26.25	142.25	8.62	-30.2	-33.1	10.7	2.85e-03	0	43	102	18874368	20	5019
2026-01-06 22:54:27.26	142.36	8.55	-30.2	-33.1	10.7	3.10e-03	0	44	102	18874368	20	5064
2026-01-06 22:54:28.26	142.47	8.49	-30.0	-32.7	10.9	2.12e-03	0	44	102	18874368	20	4902
2026-01-06 22:54:29.27	142.58	8.42	-30.0	-32.8	10.9	2.16e-03	0	44	102	18874368	20	4929
2026-01-06 22:54:30.28	142.69	8.36	-30.0	-32.6	11.0	1.61e-03	0	43	102	18874368	20	4861
2026-01-06 22:54:31.29	142.80	8.30	-30.0	-32.6	10.9	2.48e-03	0	43	102	18874368	20	4886
2026-01-06 22:54:32.30	142.90	8.23	-29.9	-32.2	11.3	1.57e-03	0	43	102	18874368	20	4700
2026-01-06 22:54:33.31	143.01	8.17	-29.9	-32.4	11.1	1.39e-03	0	44	102	18874368	20	4762
2026-01-06 22:54:34.31	143.12	8.10	-30.0	-32.4	11.1	1.57e-03	0	44	102	18874368	20	4790
2026-01-06 22:54:35.32	143.22	8.04	-29.9	-32.8	11.3	1.26e-03	0	44	102	18874368	19	5002
2026-01-06 22:54:36.33	143.33	7.98	-30.0	-32.5	11.0	1.48e-03	0	43	102	18874368	20	4825
2026-01-06 22:54:37.33	143.43	7.91	-30.0	-32.6	10.9	1.97e-03	0	44	102	18874368	20	4857
2026-01-06 22:54:38.34	143.54	7.85	-30.1	-32.8	10.8	4.05e-03	0	43	102	18874368	20	4934
2026-01-06 22:54:39.35	143.64	7.79	-30.1	-33.0	10.6	3.21e-03	0	43	102	18874368	20	5023
2026-01-06 22:54:40.35	143.74	7.72	-30.2	-33.1	10.5	4.07e-03	0	44	102	18874368	20	5070
2026-01-06 22:54:41.36	143.85	7.66	-30.3	-33.8	10.0	8.23e-03	0	44	102	18874368	20	5332
2026-01-06 22:54:42.36	143.95	7.60	-30.4	-33.9	9.9	8.17e-03	0	44	102	18874368	20	5401
2026-01-06 22:54:43.37	144.05	7.53	-30.5	-33.9	9.5	9.93e-03	0	43	102	18874368	21	5337
2026-01-06 22:54:44.38	144.15	7.47	-30.6	-34.1	9.4	1.78e-02	0	44	102	18874368	21	5426
2026-01-06 22:54:45.38	144.25	7.41	-30.6	-34.3	9.2	2.03e-02	0	44	102	18874368	21	5498
2026-01-06 22:54:46.39	144.36	7.34	-30.6	-34.3	9.2	1.74e-02	0	43	102	18874368	21	5499
2026-01-06 22:54:47.40	144.46	7.28	-30.6	-34.1	9.4	1.99e-02	0	44	102	18874368	21	5402
2026-01-06 22:54:48.40	144.56	7.22	-30.5	-33.9	9.5	1.73e-02	0	44	102	18874368	21	5319
2026-01-06 22:54:49.41	144.66	7.16	-30.5	-33.9	9.5	1.78e-02	0	44	102	18874368	21	5330
2026-01-06 22:54:50.41	144.75	7.09	-32.3	-43.6	3.8	1.31e-02	0	44	102	18874368	24	13271
2026-01-06 22:54:51.42	144.85	7.03	-32.8	-45.4	3.8	1.49e+00	0	44	104	18874368	25	15439
2026-01-06 22:54:52.43	144.95	6.97	-33.4	-46.1	3.8	1.49e+00	0	44	104	18874368	26	15512

#Closed at: 2026-01-06 22:54:52
#Recorded file [18 MB]: D:/data/31010_260107_014450.dat