passes_logs/2026/01/06/R2M6_AANII_01/R2M6_AANII_01__20260106_105716_NOAA_20_JPSS-1_rec.log

#Pass ID: 20260106_105716_NOAA 20 (JPSS-1)
#Satellite: NOAA 20 (JPSS-1)
#Configuration: NOAA 20
#almurnet v.1.7.20240730
#Start time: 2026-01-06 10:57:16

#Version: 2.2.20231116
#Station: R2M6_AANII_01
#Location: 30.233357 lon 59.946436 lat
#TLE: 1 43013U 17073A   26005.46207808  .00000128  00000+0  81791-4 0  9997
#TLE: 2 43013  98.7627 306.5027 0001826  53.0458 307.0885 14.19533487421381

#Time	Az	El	Level	Level2	SNR	BER	BlckErr	Temp	State	Recorded	gain1	gain2
2026-01-06 10:57:16.79	180.16	7.00	-30.6	-35.3	5.4	1.19e+00	0	41	0	0	21	6194
2026-01-06 10:57:17.79	180.20	7.07	-31.3	-37.1	5.0	1.27e+00	0	41	104	0	23	6994
2026-01-06 10:57:18.80	180.24	7.15	-31.1	-36.3	8.7	5.51e-02	0	41	0	0	23	6516
2026-01-06 10:57:19.81	180.28	7.23	-31.3	-36.8	8.3	4.31e-02	0	41	0	1048576	23	6799
2026-01-06 10:57:20.81	180.32	7.30	-31.2	-36.4	8.6	4.69e-02	0	41	0	3145728	23	6575
2026-01-06 10:57:21.82	180.36	7.38	-31.0	-35.5	9.4	2.60e-02	0	41	0	5242880	23	6069
2026-01-06 10:57:22.82	180.40	7.46	-30.8	-35.2	10.0	1.30e-02	0	41	0	7340032	22	6020
2026-01-06 10:57:23.83	180.44	7.53	-30.6	-34.4	10.6	4.61e-03	0	41	0	9437184	22	5614
2026-01-06 10:57:24.83	180.49	7.61	-30.4	-33.8	11.1	2.11e-03	0	41	0	10485760	22	5321
2026-01-06 10:57:25.83	180.53	7.69	-30.2	-33.7	11.5	1.17e-03	0	41	0	12582912	21	5421
2026-01-06 10:57:26.83	180.57	7.76	-30.3	-34.0	11.3	9.92e-04	0	41	0	14680064	21	5533
2026-01-06 10:57:27.83	180.61	7.84	-30.3	-33.9	11.4	9.97e-04	0	41	0	16777216	21	5495
2026-01-06 10:57:28.84	180.66	7.92	-30.3	-34.1	11.3	9.83e-04	0	41	0	18874368	21	5559
2026-01-06 10:57:29.84	180.70	8.00	-30.2	-33.8	11.5	9.23e-04	0	41	0	19922944	21	5446
2026-01-06 10:57:30.85	180.74	8.08	-30.3	-34.0	11.5	8.13e-04	0	41	0	22020096	21	5501
2026-01-06 10:57:31.85	180.79	8.16	-30.3	-33.9	11.4	9.24e-04	0	41	0	24117248	21	5492
2026-01-06 10:57:32.86	180.83	8.23	-30.3	-34.0	11.4	9.28e-04	0	41	0	26214400	21	5519
2026-01-06 10:57:33.86	180.87	8.31	-30.3	-34.0	11.4	9.54e-04	0	41	0	28311552	21	5537
2026-01-06 10:57:34.87	180.92	8.39	-30.5	-34.6	11.0	1.47e-03	0	41	0	29360128	21	5767
2026-01-06 10:57:35.87	180.96	8.47	-30.3	-34.1	11.3	1.93e-03	0	41	0	31457280	21	5555
2026-01-06 10:57:36.87	181.01	8.55	-30.2	-33.6	11.7	6.81e-04	0	41	0	33554432	21	5368
2026-01-06 10:57:37.88	181.05	8.63	-30.0	-33.2	12.1	3.07e-04	0	41	0	35651584	21	5161
2026-01-06 10:57:38.89	181.10	8.71	-30.0	-33.1	12.1	3.04e-04	0	41	0	37748736	21	5155
2026-01-06 10:57:39.89	181.14	8.79	-30.0	-33.1	12.1	2.38e-04	0	42	0	38797312	21	5127
2026-01-06 10:57:40.90	181.19	8.88	-30.0	-33.0	12.2	2.30e-04	0	41	0	40894464	21	5104
2026-01-06 10:57:41.90	181.23	8.96	-30.0	-33.1	12.1	2.18e-04	0	42	0	42991616	21	5142
2026-01-06 10:57:42.91	181.28	9.04	-30.1	-33.3	12.0	3.00e-04	0	42	0	45088768	21	5209
2026-01-06 10:57:43.92	181.33	9.12	-30.0	-33.1	12.2	2.79e-04	0	42	102	46137344	21	5124
2026-01-06 10:57:44.93	181.37	9.20	-30.0	-32.9	12.3	1.73e-04	0	42	102	46137344	21	5051
2026-01-06 10:57:45.93	181.42	9.28	-29.9	-32.7	12.5	1.71e-04	0	42	102	46137344	21	4959
2026-01-06 10:57:46.94	181.47	9.37	-29.9	-32.6	12.5	1.08e-04	0	42	102	46137344	21	4943
2026-01-06 10:57:47.95	181.52	9.45	-29.9	-32.7	12.5	1.14e-04	0	42	102	46137344	21	4965
2026-01-06 10:57:48.96	181.56	9.53	-29.9	-32.7	12.5	1.17e-04	0	42	102	46137344	21	4970
2026-01-06 10:57:49.96	181.61	9.62	-29.9	-32.8	12.4	1.28e-04	0	42	102	46137344	21	5007
2026-01-06 10:57:50.97	181.66	9.70	-30.1	-33.2	12.1	1.97e-04	0	42	102	46137344	21	5180
2026-01-06 10:57:51.97	181.71	9.78	-30.0	-33.0	12.3	2.43e-04	0	42	102	46137344	21	5080
2026-01-06 10:57:52.98	181.76	9.87	-29.9	-32.8	12.5	1.44e-04	0	42	102	46137344	21	4994
2026-01-06 10:57:53.98	181.80	9.95	-30.0	-32.9	12.4	1.26e-04	0	42	102	46137344	21	5024
2026-01-06 10:57:54.98	181.85	10.04	-29.9	-32.7	12.5	1.36e-04	0	42	102	46137344	21	4967
2026-01-06 10:57:55.99	181.90	10.12	-30.0	-32.9	12.4	1.25e-04	0	42	102	46137344	21	5025
2026-01-06 10:57:56.99	181.95	10.21	-29.9	-32.8	12.5	1.43e-04	0	42	102	46137344	21	4986
2026-01-06 10:57:57.99	182.00	10.29	-29.9	-32.7	12.5	1.22e-04	0	42	102	46137344	21	4955
2026-01-06 10:57:59.00	182.05	10.38	-30.0	-33.0	12.4	1.19e-04	0	42	102	46137344	21	5073
2026-01-06 10:58:00.00	182.10	10.46	-30.0	-32.9	12.4	1.53e-04	0	42	102	46137344	21	5020
2026-01-06 10:58:01.01	182.15	10.55	-30.0	-32.9	12.4	1.32e-04	0	42	102	46137344	21	5022
2026-01-06 10:58:02.01	182.20	10.63	-30.0	-32.9	12.3	1.51e-04	0	42	102	46137344	21	5052
2026-01-06 10:58:03.02	182.26	10.72	-29.9	-32.8	12.5	1.32e-04	0	42	102	46137344	21	4975
2026-01-06 10:58:04.02	182.31	10.81	-30.0	-33.0	12.3	1.31e-04	0	42	102	46137344	21	5074
2026-01-06 10:58:05.03	182.36	10.90	-30.0	-32.8	12.5	1.40e-04	0	42	102	46137344	21	5001
2026-01-06 10:58:06.03	182.41	10.98	-30.0	-32.9	12.4	1.45e-04	0	42	102	46137344	21	5059
2026-01-06 10:58:07.04	182.46	11.07	-30.1	-33.2	12.2	2.23e-04	0	42	102	46137344	21	5153
2026-01-06 10:58:08.04	182.52	11.16	-30.0	-32.9	12.4	1.74e-04	0	42	102	46137344	21	5051
2026-01-06 10:58:09.04	182.57	11.25	-29.9	-32.7	12.6	1.56e-04	0	42	102	46137344	21	4957
2026-01-06 10:58:10.03	182.62	11.34	-29.9	-32.7	12.6	8.85e-05	0	42	102	46137344	21	4953
2026-01-06 10:58:11.03	182.67	11.42	-30.0	-32.9	12.5	1.14e-04	0	42	102	46137344	21	5009
2026-01-06 10:58:12.04	182.73	11.51	-30.0	-32.8	12.6	1.10e-04	0	42	102	46137344	21	4978
2026-01-06 10:58:13.05	182.78	11.60	-29.9	-32.7	12.7	9.30e-05	0	42	102	46137344	21	4939
2026-01-06 10:58:14.06	182.84	11.70	-29.9	-32.6	12.7	8.16e-05	0	42	102	46137344	21	4924
2026-01-06 10:58:15.07	182.89	11.79	-29.9	-32.5	12.8	7.85e-05	0	42	102	46137344	21	4891
2026-01-06 10:58:16.08	182.95	11.88	-30.0	-32.8	12.6	7.85e-05	0	42	102	46137344	21	4968
2026-01-06 10:58:17.08	183.00	11.97	-29.9	-32.6	12.8	8.23e-05	0	42	102	46137344	21	4899
2026-01-06 10:58:18.10	183.06	12.06	-29.9	-32.7	12.7	6.79e-05	0	42	102	46137344	21	4936
2026-01-06 10:58:19.10	183.12	12.15	-29.9	-32.7	12.7	7.93e-05	0	42	102	46137344	21	4933
2026-01-06 10:58:20.11	183.17	12.24	-29.9	-32.7	12.7	6.94e-05	0	42	102	46137344	21	4933
2026-01-06 10:58:21.11	183.23	12.34	-29.9	-32.7	12.7	7.09e-05	0	42	102	46137344	21	4926
2026-01-06 10:58:22.12	183.29	12.43	-29.9	-32.7	12.7	6.25e-05	0	42	102	46137344	21	4923
2026-01-06 10:58:23.13	183.34	12.52	-30.0	-32.8	12.7	6.40e-05	0	42	102	46137344	21	4965
2026-01-06 10:58:24.14	183.40	12.62	-30.0	-32.7	12.7	8.92e-05	0	42	102	46137344	21	4960
2026-01-06 10:58:25.15	183.46	12.71	-29.9	-32.4	12.9	5.64e-05	0	42	102	46137344	21	4846
2026-01-06 10:58:26.16	183.52	12.80	-29.8	-32.2	13.0	3.89e-05	0	42	102	46137344	21	4763
2026-01-06 10:58:27.16	183.58	12.90	-29.8	-32.7	13.1	4.19e-05	0	42	102	46137344	20	5033
2026-01-06 10:58:28.17	183.64	12.99	-29.8	-32.7	13.1	3.66e-05	0	42	102	46137344	20	5054
2026-01-06 10:58:29.18	183.70	13.09	-29.8	-32.7	13.1	3.73e-05	0	42	102	46137344	20	5042
2026-01-06 10:58:30.19	183.76	13.19	-29.8	-32.8	13.0	2.97e-05	0	42	102	46137344	20	5083
2026-01-06 10:58:31.19	183.82	13.28	-29.9	-33.0	12.9	4.88e-05	0	42	102	46137344	20	5153
2026-01-06 10:58:32.20	183.88	13.38	-29.8	-32.7	13.1	4.11e-05	0	42	102	46137344	20	5050
2026-01-06 10:58:33.21	183.94	13.47	-29.8	-32.8	13.1	3.28e-05	0	42	102	46137344	20	5067
2026-01-06 10:58:34.22	184.00	13.57	-29.8	-32.8	13.0	2.67e-05	0	43	102	46137344	20	5064
2026-01-06 10:58:35.22	184.06	13.67	-29.9	-33.0	12.9	3.12e-05	0	42	102	46137344	20	5143
2026-01-06 10:58:36.23	184.13	13.77	-30.0	-33.2	12.7	4.50e-05	0	42	102	46137344	20	5233
2026-01-06 10:58:37.24	184.19	13.86	-29.8	-32.9	13.0	4.11e-05	0	42	102	46137344	20	5098
2026-01-06 10:58:38.24	184.25	13.96	-29.9	-33.1	12.9	4.73e-05	0	43	102	46137344	20	5198
2026-01-06 10:58:39.25	184.32	14.06	-29.8	-32.8	13.1	4.42e-05	0	43	102	46137344	20	5077
2026-01-06 10:58:40.26	184.38	14.16	-29.7	-32.5	13.2	3.05e-05	0	43	102	46137344	20	4974
2026-01-06 10:58:41.27	184.45	14.26	-29.7	-32.5	13.3	1.98e-05	0	42	102	46137344	20	4961
2026-01-06 10:58:42.28	184.51	14.36	-29.7	-32.4	13.3	1.44e-05	0	43	102	46137344	20	4935
2026-01-06 10:58:43.28	184.57	14.46	-29.8	-32.7	13.2	1.67e-05	0	42	102	46137344	20	5035
2026-01-06 10:58:44.29	184.64	14.56	-29.8	-32.7	13.2	3.20e-05	0	43	102	46137344	20	5037
2026-01-06 10:58:45.30	184.71	14.66	-29.7	-32.4	13.4	9.10e-06	0	43	102	46137344	20	4931
2026-01-06 10:58:46.31	184.77	14.76	-29.6	-32.2	13.5	1.44e-05	0	42	102	46137344	20	4833
2026-01-06 10:58:47.31	184.84	14.87	-29.6	-32.2	13.6	9.10e-06	0	43	102	46137344	20	4834
2026-01-06 10:58:48.31	184.91	14.97	-29.6	-32.2	13.6	8.30e-06	0	43	102	46137344	20	4828
2026-01-06 10:58:49.32	184.97	15.07	-29.7	-32.3	13.5	6.10e-06	0	43	102	46137344	20	4867
2026-01-06 10:58:50.33	185.04	15.17	-29.7	-32.4	13.4	1.52e-05	0	43	102	46137344	20	4918
2026-01-06 10:58:51.33	185.11	15.28	-29.6	-32.1	13.6	1.06e-05	0	42	102	46137344	20	4800
2026-01-06 10:58:52.34	185.18	15.38	-29.5	-31.8	13.8	4.50e-06	0	43	102	46137344	20	4709
2026-01-06 10:58:53.34	185.25	15.48	-29.5	-31.8	13.8	4.50e-06	0	43	102	46137344	20	4712
2026-01-06 10:58:54.35	185.32	15.59	-29.5	-31.9	13.8	4.50e-06	0	43	102	46137344	20	4714
2026-01-06 10:58:55.36	185.39	15.69	-29.4	-31.7	13.9	2.20e-06	0	43	102	46137344	20	4654
2026-01-06 10:58:56.37	185.46	15.80	-29.4	-31.7	13.9	6.10e-06	0	43	102	46137344	20	4649
2026-01-06 10:58:57.37	185.53	15.91	-29.4	-31.6	14.0	2.20e-06	0	42	102	46137344	20	4627
2026-01-06 10:58:58.37	185.60	16.01	-29.4	-31.6	14.0	3.80e-06	0	43	102	46137344	20	4623
2026-01-06 10:58:59.38	185.68	16.12	-29.3	-31.4	14.1	3.80e-06	0	43	102	46137344	20	4568
2026-01-06 10:59:00.38	185.75	16.22	-29.4	-31.5	14.1	1.50e-06	0	43	102	46137344	20	4590
2026-01-06 10:59:01.38	185.82	16.33	-29.4	-31.5	14.1	4.50e-06	0	43	102	46137344	20	4586
2026-01-06 10:59:02.40	185.90	16.44	-29.3	-31.3	14.2	7.00e-07	0	43	102	46137344	20	4524
2026-01-06 10:59:03.41	185.97	16.55	-29.3	-31.4	14.1	7.00e-07	0	43	102	46137344	20	4568
2026-01-06 10:59:04.41	186.05	16.66	-29.4	-31.5	14.1	1.50e-06	0	43	102	46137344	20	4591
2026-01-06 10:59:05.42	186.12	16.77	-29.3	-31.8	14.3	4.50e-06	0	43	102	46137344	19	4780
2026-01-06 10:59:06.42	186.20	16.88	-29.4	-31.9	14.3	7.00e-07	0	43	102	46137344	19	4823
2026-01-06 10:59:07.43	186.27	16.99	-29.3	-31.8	14.3	0.00e+00	0	43	102	46137344	19	4794
2026-01-06 10:59:08.44	186.35	17.10	-29.4	-32.0	14.2	9.10e-06	0	43	102	46137344	19	4849
2026-01-06 10:59:09.44	186.43	17.21	-29.4	-31.9	14.2	7.00e-07	0	43	102	46137344	19	4826
2026-01-06 10:59:10.45	186.51	17.32	-29.3	-31.8	14.3	7.00e-07	0	43	102	46137344	19	4786
2026-01-06 10:59:11.46	186.59	17.43	-29.3	-31.8	14.4	7.60e-06	0	43	102	46137344	19	4777
2026-01-06 10:59:12.46	186.66	17.54	-29.3	-31.8	14.3	7.00e-07	0	43	102	46137344	19	4798
2026-01-06 10:59:13.47	186.74	17.66	-29.4	-31.9	14.3	1.50e-06	0	43	102	46137344	19	4812
2026-01-06 10:59:14.48	186.82	17.77	-29.3	-31.6	14.5	6.80e-06	0	43	102	46137344	19	4719
2026-01-06 10:59:15.49	186.91	17.89	-29.2	-31.5	14.5	0.00e+00	0	43	102	46137344	19	4684
2026-01-06 10:59:16.49	186.99	18.00	-29.2	-31.5	14.6	0.00e+00	0	43	102	46137344	19	4676
2026-01-06 10:59:17.50	187.07	18.12	-29.2	-31.3	14.6	7.00e-07	0	43	102	46137344	19	4630
2026-01-06 10:59:18.51	187.15	18.23	-29.2	-31.5	14.6	0.00e+00	0	43	102	46137344	19	4683
2026-01-06 10:59:19.51	187.23	18.35	-29.2	-31.4	14.6	0.00e+00	0	43	102	46137344	19	4657
2026-01-06 10:59:20.51	187.32	18.46	-29.1	-31.2	14.8	0.00e+00	0	43	102	46137344	19	4593
2026-01-06 10:59:21.52	187.40	18.58	-29.1	-31.1	14.8	7.00e-07	0	43	102	46137344	19	4565
2026-01-06 10:59:22.52	187.49	18.70	-29.1	-31.2	14.8	0.00e+00	0	43	102	46137344	19	4579
2026-01-06 10:59:23.52	187.57	18.81	-29.1	-31.1	14.8	0.00e+00	0	43	102	46137344	19	4555
2026-01-06 10:59:24.54	187.66	18.93	-28.9	-30.7	15.1	0.00e+00	0	43	102	46137344	19	4439
2026-01-06 10:59:25.54	187.75	19.05	-28.9	-30.8	15.0	0.00e+00	0	43	102	46137344	19	4450
2026-01-06 10:59:26.54	187.83	19.17	-28.9	-30.7	15.1	0.00e+00	0	43	102	46137344	19	4426
2026-01-06 10:59:27.54	187.92	19.29	-28.9	-30.7	15.1	0.00e+00	0	43	102	46137344	19	4433
2026-01-06 10:59:28.55	188.01	19.41	-29.0	-31.0	14.9	0.00e+00	0	43	102	46137344	19	4533
2026-01-06 10:59:29.56	188.10	19.53	-29.1	-31.1	14.9	0.00e+00	0	43	102	46137344	19	4534
2026-01-06 10:59:30.56	188.19	19.65	-28.9	-30.6	15.2	0.00e+00	0	43	102	46137344	19	4382
2026-01-06 10:59:31.57	188.28	19.77	-28.8	-30.4	15.3	0.00e+00	0	43	102	46137344	19	4346
2026-01-06 10:59:32.58	188.37	19.90	-28.8	-30.4	15.3	0.00e+00	0	43	102	46137344	19	4345
2026-01-06 10:59:33.58	188.47	20.02	-28.8	-30.5	15.3	0.00e+00	0	43	102	46137344	19	4354
2026-01-06 10:59:34.59	188.56	20.14	-28.7	-30.8	15.4	0.00e+00	0	43	102	46137344	18	4552
2026-01-06 10:59:35.59	188.65	20.27	-28.7	-30.7	15.4	0.00e+00	0	43	102	46137344	18	4521
2026-01-06 10:59:36.60	188.75	20.39	-28.7	-30.7	15.4	0.00e+00	0	43	102	46137344	18	4522
2026-01-06 10:59:37.61	188.84	20.52	-28.7	-30.8	15.4	0.00e+00	0	43	102	46137344	18	4547
2026-01-06 10:59:38.61	188.94	20.64	-28.7	-30.7	15.4	0.00e+00	0	43	102	46137344	18	4541
2026-01-06 10:59:39.61	189.04	20.77	-28.7	-30.6	15.5	0.00e+00	0	43	102	46137344	18	4507
2026-01-06 10:59:40.63	189.13	20.90	-28.7	-30.6	15.5	0.00e+00	0	43	102	46137344	18	4493
2026-01-06 10:59:41.63	189.23	21.02	-28.6	-30.5	15.6	0.00e+00	0	43	102	46137344	18	4462
2026-01-06 10:59:42.64	189.33	21.15	-28.6	-30.4	15.6	0.00e+00	0	43	102	46137344	18	4446
2026-01-06 10:59:43.65	189.43	21.28	-28.6	-30.4	15.6	0.00e+00	0	43	102	46137344	18	4430
2026-01-06 10:59:44.66	189.53	21.41	-28.7	-30.7	15.5	0.00e+00	0	43	102	46137344	18	4528
2026-01-06 10:59:45.67	189.63	21.54	-28.6	-30.5	15.6	0.00e+00	0	43	102	46137344	18	4471
2026-01-06 10:59:46.67	189.74	21.67	-28.5	-30.2	15.8	0.00e+00	0	43	102	46137344	18	4366
2026-01-06 10:59:47.68	189.84	21.80	-28.4	-30.0	15.9	0.00e+00	0	43	102	46137344	18	4319
2026-01-06 10:59:48.68	189.94	21.93	-28.4	-30.0	15.9	0.00e+00	0	43	102	46137344	18	4325
2026-01-06 10:59:49.69	190.05	22.07	-28.4	-30.0	15.9	2.20e-06	0	43	102	46137344	18	4324
2026-01-06 10:59:50.69	190.15	22.20	-28.4	-29.9	16.0	0.00e+00	0	43	102	46137344	18	4278
2026-01-06 10:59:51.69	190.26	22.33	-28.4	-29.8	16.0	0.00e+00	0	43	102	46137344	18	4270
2026-01-06 10:59:52.70	190.37	22.46	-28.3	-29.7	16.1	1.50e-06	0	43	102	46137344	18	4233
2026-01-06 10:59:53.71	190.48	22.60	-28.4	-29.8	16.0	0.00e+00	0	43	102	46137344	18	4258
2026-01-06 10:59:54.71	190.59	22.73	-28.3	-29.7	16.1	0.00e+00	0	43	102	46137344	18	4234
2026-01-06 10:59:55.72	190.70	22.87	-28.2	-30.1	16.2	0.00e+00	0	43	102	46137344	17	4435
2026-01-06 10:59:56.73	190.81	23.01	-28.3	-30.3	16.1	0.00e+00	0	43	102	46137344	17	4497
2026-01-06 10:59:57.73	190.92	23.14	-28.3	-30.1	16.2	0.00e+00	0	43	102	46137344	17	4445
2026-01-06 10:59:58.74	191.03	23.28	-28.4	-30.3	16.0	0.00e+00	0	43	102	46137344	17	4513
2026-01-06 10:59:59.75	191.15	23.42	-28.3	-30.2	16.1	0.00e+00	0	43	102	46137344	17	4478
2026-01-06 11:00:00.74	191.26	23.56	-28.3	-30.3	16.1	0.00e+00	0	43	102	46137344	17	4490
2026-01-06 11:00:01.75	191.38	23.70	-28.4	-30.3	16.1	0.00e+00	0	43	102	46137344	17	4503
2026-01-06 11:00:02.75	191.49	23.83	-28.5	-30.7	15.8	0.00e+00	0	43	102	46137344	17	4636
2026-01-06 11:00:03.76	191.61	23.98	-28.6	-31.0	15.7	0.00e+00	0	43	102	46137344	17	4726
2026-01-06 11:00:04.77	191.73	24.12	-28.7	-31.1	15.6	0.00e+00	0	43	102	46137344	17	4762
2026-01-06 11:00:05.77	191.85	24.26	-28.7	-31.1	15.6	0.00e+00	0	43	102	46137344	17	4750
2026-01-06 11:00:06.78	191.97	24.40	-28.7	-31.3	15.5	0.00e+00	0	43	102	46137344	17	4804
2026-01-06 11:00:07.78	192.09	24.54	-28.8	-31.4	15.4	0.00e+00	0	43	102	46137344	17	4854
2026-01-06 11:00:08.79	192.22	24.69	-28.9	-31.5	15.4	0.00e+00	0	43	102	46137344	17	4894
2026-01-06 11:00:09.80	192.34	24.83	-28.9	-31.5	15.4	0.00e+00	0	43	102	46137344	17	4883
2026-01-06 11:00:10.81	192.47	24.98	-29.0	-31.8	15.2	1.50e-06	0	43	102	46137344	17	4966
2026-01-06 11:00:11.81	192.60	25.12	-28.9	-31.5	15.4	0.00e+00	0	43	102	46137344	17	4895
2026-01-06 11:00:12.82	192.72	25.27	-28.9	-31.5	15.4	0.00e+00	0	43	102	46137344	17	4887
2026-01-06 11:00:13.83	192.85	25.42	-28.9	-31.7	15.3	1.50e-06	0	43	102	46137344	17	4930
2026-01-06 11:00:14.84	192.98	25.57	-29.0	-31.8	15.3	0.00e+00	0	43	102	46137344	17	4969
2026-01-06 11:00:15.84	193.11	25.72	-28.9	-31.7	15.3	0.00e+00	0	43	102	46137344	17	4939
2026-01-06 11:00:16.84	193.25	25.86	-29.0	-31.4	15.2	0.00e+00	0	43	102	46137344	18	4747
2026-01-06 11:00:17.85	193.38	26.01	-29.1	-31.5	15.1	0.00e+00	0	43	102	46137344	18	4774
2026-01-06 11:00:18.85	193.51	26.16	-29.3	-32.0	14.9	0.00e+00	0	43	102	46137344	18	4930
2026-01-06 11:00:19.86	193.65	26.32	-29.3	-32.0	14.8	0.00e+00	0	43	102	46137344	18	4948
2026-01-06 11:00:20.86	193.79	26.47	-29.3	-32.1	14.8	7.00e-07	0	43	102	46137344	18	4984
2026-01-06 11:00:21.87	193.93	26.62	-29.5	-32.5	14.5	1.50e-06	0	43	102	46137344	18	5123
2026-01-06 11:00:22.87	194.07	26.77	-29.6	-32.3	14.3	7.00e-07	0	43	102	46137344	19	4940
2026-01-06 11:00:23.88	194.21	26.93	-29.8	-32.8	14.1	1.50e-06	0	43	102	46137344	19	5087
2026-01-06 11:00:24.88	194.35	27.08	-29.8	-32.8	14.1	2.20e-06	0	43	102	46137344	19	5104
2026-01-06 11:00:25.89	194.49	27.24	-29.9	-33.2	13.8	3.00e-06	0	43	102	46137344	19	5243
2026-01-06 11:00:26.89	194.64	27.39	-29.9	-33.1	13.9	3.80e-06	0	43	102	46137344	19	5216
2026-01-06 11:00:27.90	194.79	27.55	-30.0	-33.3	13.7	3.00e-06	0	43	102	46137344	19	5293
2026-01-06 11:00:28.90	194.93	27.71	-29.9	-32.6	13.9	8.30e-06	0	43	102	46137344	20	4914
2026-01-06 11:00:29.91	195.08	27.87	-30.0	-32.8	13.7	5.30e-06	0	43	102	46137344	20	5003
2026-01-06 11:00:30.92	195.24	28.03	-30.1	-33.1	13.5	5.30e-06	0	43	102	46137344	20	5122
2026-01-06 11:00:31.93	195.39	28.19	-30.1	-33.1	13.5	6.80e-06	0	43	102	46137344	20	5102
2026-01-06 11:00:32.93	195.54	28.35	-30.1	-33.3	13.4	1.06e-05	0	43	102	46137344	20	5185
2026-01-06 11:00:33.94	195.70	28.51	-30.2	-33.3	13.4	8.30e-06	0	43	102	46137344	20	5188
2026-01-06 11:00:34.94	195.85	28.67	-30.4	-34.0	12.9	2.21e-05	0	43	102	46137344	20	5462
2026-01-06 11:00:35.95	196.01	28.83	-30.3	-33.6	13.2	3.43e-05	0	43	102	46137344	20	5303
2026-01-06 11:00:36.95	196.17	28.99	-30.4	-34.0	13.0	3.96e-05	0	43	102	46137344	20	5439
2026-01-06 11:00:37.96	196.34	29.16	-30.7	-34.3	12.4	7.78e-05	0	43	102	46137344	21	5464
2026-01-06 11:00:38.96	196.50	29.32	-30.6	-34.0	12.6	1.24e-04	0	43	102	46137344	21	5353
2026-01-06 11:00:39.97	196.66	29.49	-30.9	-34.8	12.0	2.25e-04	0	43	102	46137344	21	5691
2026-01-06 11:00:40.98	196.83	29.65	-31.1	-35.1	11.5	5.18e-04	0	43	102	46137344	22	5684
2026-01-06 11:00:41.99	197.00	29.82	-31.2	-35.3	11.4	6.89e-04	0	43	102	46137344	22	5805
2026-01-06 11:00:42.99	197.17	29.99	-31.4	-35.9	10.9	1.73e-03	0	43	102	46137344	22	6085
2026-01-06 11:00:44.00	197.34	30.16	-31.4	-36.1	10.8	2.45e-03	0	43	102	46137344	22	6164
2026-01-06 11:00:45.02	197.52	30.33	-31.5	-35.8	10.6	2.79e-03	0	43	102	46137344	23	5929
2026-01-06 11:00:46.02	197.69	30.50	-31.6	-36.3	10.3	4.90e-03	0	43	102	46137344	23	6184
2026-01-06 11:00:47.03	197.87	30.67	-31.5	-35.9	10.6	4.35e-03	0	43	102	46137344	23	5978
2026-01-06 11:00:48.04	198.05	30.84	-31.7	-36.6	10.0	4.97e-03	0	43	102	46137344	23	6334
2026-01-06 11:00:49.05	198.23	31.01	-31.4	-35.5	10.8	3.29e-03	0	43	102	46137344	23	5796
2026-01-06 11:00:50.05	198.41	31.18	-31.2	-35.0	11.3	1.38e-03	0	43	102	46137344	23	5529
2026-01-06 11:00:51.06	198.60	31.36	-31.0	-34.4	11.7	7.09e-04	0	43	102	46137344	23	5272
2026-01-06 11:00:52.07	198.79	31.53	-31.0	-34.1	11.9	4.45e-04	0	43	102	46137344	23	5169
2026-01-06 11:00:53.07	198.97	31.71	-31.0	-34.2	11.8	4.30e-04	0	43	102	46137344	23	5218
2026-01-06 11:00:54.08	199.17	31.88	-30.9	-34.0	12.0	3.36e-04	0	43	102	46137344	23	5136
2026-01-06 11:00:55.08	199.36	32.06	-30.8	-33.8	12.2	2.79e-04	0	43	102	46137344	23	5029
2026-01-06 11:00:56.09	199.55	32.23	-30.8	-33.6	12.3	2.08e-04	0	43	102	46137344	23	4985
2026-01-06 11:00:57.10	199.75	32.41	-30.8	-34.0	12.4	1.94e-04	0	43	102	46137344	22	5220
2026-01-06 11:00:58.10	199.95	32.59	-30.5	-33.2	12.9	9.23e-05	0	43	102	46137344	22	4903
2026-01-06 11:00:59.10	200.15	32.77	-30.3	-32.8	13.2	3.58e-05	0	43	102	46137344	22	4765
2026-01-06 11:01:00.11	200.35	32.95	-30.4	-32.9	13.1	2.21e-05	0	43	102	46137344	22	4813
2026-01-06 11:01:01.12	200.56	33.13	-30.5	-33.2	12.9	2.36e-05	0	43	102	46137344	22	4916
2026-01-06 11:01:02.13	200.77	33.31	-30.2	-33.0	13.3	3.12e-05	0	43	102	46137344	21	4955
2026-01-06 11:01:03.13	200.98	33.49	-30.3	-33.1	13.3	1.83e-05	0	43	102	46137344	21	4990
2026-01-06 11:01:04.14	201.19	33.67	-30.3	-33.1	13.3	2.05e-05	0	43	102	46137344	21	4992
2026-01-06 11:01:05.14	201.40	33.86	-30.3	-33.3	13.2	1.44e-05	0	43	102	46137344	21	5044
2026-01-06 11:01:06.15	201.62	34.04	-30.4	-33.4	13.1	3.66e-05	0	43	102	46137344	21	5093
2026-01-06 11:01:07.16	201.84	34.22	-30.4	-33.4	13.1	3.05e-05	0	43	102	46137344	21	5087
2026-01-06 11:01:08.17	202.06	34.41	-30.3	-33.3	13.2	3.12e-05	0	43	102	46137344	21	5053
2026-01-06 11:01:09.17	202.29	34.59	-30.4	-33.4	13.1	4.19e-05	0	43	102	46137344	21	5100
2026-01-06 11:01:10.18	202.51	34.78	-30.5	-33.7	12.9	5.49e-05	0	43	102	46137344	21	5224
2026-01-06 11:01:11.19	202.74	34.97	-30.2	-32.9	13.4	2.89e-05	0	43	102	46137344	21	4921
2026-01-06 11:01:12.20	202.98	35.16	-30.0	-32.4	13.8	9.10e-06	0	43	102	46137344	21	4746
2026-01-06 11:01:13.21	203.21	35.35	-29.9	-32.2	14.0	5.30e-06	0	43	102	46137344	21	4656
2026-01-06 11:01:14.21	203.45	35.53	-29.9	-32.0	14.1	4.50e-06	0	43	102	46137344	21	4600
2026-01-06 11:01:15.21	203.69	35.72	-29.8	-32.2	14.3	1.50e-06	0	43	102	46137344	20	4755
2026-01-06 11:01:16.21	203.93	35.91	-29.7	-32.1	14.3	7.00e-07	0	43	102	46137344	20	4737
2026-01-06 11:01:17.21	204.17	36.10	-29.8	-32.3	14.3	7.00e-07	0	43	102	46137344	20	4798
2026-01-06 11:01:18.22	204.42	36.29	-29.8	-32.4	14.2	3.00e-06	0	43	102	46137344	20	4838
2026-01-06 11:01:19.22	204.67	36.48	-29.7	-31.9	14.4	7.00e-07	0	43	102	46137344	20	4673
2026-01-06 11:01:20.22	204.92	36.67	-29.6	-31.7	14.6	7.00e-07	0	43	102	46137344	20	4597
2026-01-06 11:01:21.23	205.18	36.86	-29.6	-31.9	14.5	0.00e+00	0	43	102	46137344	20	4652
2026-01-06 11:01:22.24	205.44	37.06	-29.5	-31.5	14.7	1.50e-06	0	43	102	46137344	20	4553
2026-01-06 11:01:23.24	205.70	37.25	-29.4	-31.3	14.9	0.00e+00	0	43	102	46137344	20	4465
2026-01-06 11:01:24.24	205.97	37.44	-29.5	-31.5	14.8	7.00e-07	0	43	102	46137344	20	4541
2026-01-06 11:01:25.26	206.24	37.64	-29.5	-31.5	14.7	7.00e-07	0	43	102	46137344	20	4545
2026-01-06 11:01:26.26	206.51	37.83	-29.5	-31.5	14.7	7.00e-07	0	43	102	46137344	20	4547
2026-01-06 11:01:27.27	206.79	38.03	-29.6	-31.7	14.6	7.00e-07	0	43	102	46137344	20	4599
2026-01-06 11:01:28.27	207.07	38.22	-29.5	-31.4	14.8	7.00e-07	0	43	102	46137344	20	4517
2026-01-06 11:01:29.28	207.35	38.42	-29.4	-31.3	14.8	0.00e+00	0	43	102	46137344	20	4481
2026-01-06 11:01:30.29	207.64	38.61	-29.4	-31.2	14.9	0.00e+00	0	43	102	46137344	20	4430
2026-01-06 11:01:31.29	207.92	38.81	-29.3	-31.4	15.1	0.00e+00	0	43	102	46137344	19	4616
2026-01-06 11:01:32.29	208.22	39.01	-29.2	-31.2	15.3	0.00e+00	0	43	102	46137344	19	4551
2026-01-06 11:01:33.30	208.51	39.20	-29.3	-31.4	15.2	0.00e+00	0	43	102	46137344	19	4599
2026-01-06 11:01:34.31	208.81	39.40	-29.4	-31.6	15.0	0.00e+00	0	43	102	46137344	19	4677
2026-01-06 11:01:35.32	209.12	39.60	-29.1	-30.9	15.5	0.00e+00	0	43	102	46137344	19	4450
2026-01-06 11:01:36.32	209.42	39.80	-28.9	-30.6	15.7	0.00e+00	0	43	102	46137344	19	4354
2026-01-06 11:01:37.33	209.73	39.99	-28.9	-30.6	15.7	0.00e+00	0	43	102	46137344	19	4349
2026-01-06 11:01:38.34	210.05	40.19	-29.0	-30.8	15.5	0.00e+00	0	43	102	46137344	19	4423
2026-01-06 11:01:39.35	210.37	40.39	-29.1	-30.9	15.5	0.00e+00	0	43	102	46137344	19	4433
2026-01-06 11:01:40.36	210.69	40.59	-29.2	-31.1	15.4	0.00e+00	0	43	102	46137344	19	4512
2026-01-06 11:01:41.36	211.02	40.79	-29.1	-31.0	15.4	0.00e+00	0	43	102	46137344	19	4471
2026-01-06 11:01:42.37	211.35	40.99	-29.3	-31.4	15.2	0.00e+00	0	43	102	46137344	19	4581
2026-01-06 11:01:43.38	211.68	41.19	-29.3	-31.4	15.2	0.00e+00	0	43	102	46137344	19	4605
2026-01-06 11:01:44.38	212.02	41.39	-29.2	-31.3	15.3	0.00e+00	0	43	102	46137344	19	4572
2026-01-06 11:01:45.39	212.36	41.59	-29.3	-31.4	15.2	0.00e+00	0	43	102	46137344	19	4614
2026-01-06 11:01:46.40	212.71	41.78	-29.5	-31.9	14.9	0.00e+00	0	43	102	46137344	19	4751
2026-01-06 11:01:47.41	213.06	41.98	-29.5	-32.0	14.8	0.00e+00	0	43	102	46137344	19	4782
2026-01-06 11:01:48.41	213.41	42.18	-29.5	-32.0	14.9	0.00e+00	0	43	102	46137344	19	4773
2026-01-06 11:01:49.42	213.77	42.38	-29.6	-32.1	14.8	7.00e-07	0	43	102	46137344	19	4837
2026-01-06 11:01:50.42	214.14	42.58	-29.7	-32.5	14.5	0.00e+00	0	43	102	46137344	19	4951
2026-01-06 11:01:51.43	214.51	42.78	-29.7	-32.4	14.6	7.00e-07	0	43	102	46137344	19	4939
2026-01-06 11:01:52.44	214.88	42.97	-29.8	-32.8	14.4	7.00e-07	0	43	102	46137344	19	5069
2026-01-06 11:01:53.44	215.25	43.17	-30.0	-33.2	14.2	7.00e-07	0	43	102	46137344	19	5202
2026-01-06 11:01:54.45	215.64	43.37	-30.1	-33.2	13.8	2.20e-06	0	43	102	46137344	20	5100
2026-01-06 11:01:55.46	216.02	43.57	-30.2	-33.3	13.7	1.06e-05	0	43	102	46137344	20	5140
2026-01-06 11:01:56.46	216.41	43.76	-30.0	-32.9	13.9	3.00e-06	0	43	102	46137344	20	4996
2026-01-06 11:01:57.47	216.81	43.96	-29.9	-32.6	14.1	3.00e-06	0	43	102	46137344	20	4889
2026-01-06 11:01:58.47	217.21	44.15	-29.9	-32.5	14.2	0.00e+00	0	43	102	46137344	20	4869
2026-01-06 11:01:59.48	217.61	44.35	-29.9	-32.5	14.1	0.00e+00	0	43	102	46137344	20	4870
2026-01-06 11:02:00.48	218.02	44.54	-30.0	-32.8	14.0	0.00e+00	0	43	102	46137344	20	4958
2026-01-06 11:02:01.48	218.44	44.73	-30.2	-33.3	13.7	3.80e-06	0	43	102	46137344	20	5148
2026-01-06 11:02:02.49	218.86	44.92	-30.5	-33.7	13.1	2.59e-05	0	43	102	46137344	21	5179
2026-01-06 11:02:03.49	219.28	45.12	-30.8	-34.4	12.6	5.64e-05	0	43	102	46137344	21	5477
2026-01-06 11:02:04.50	219.71	45.31	-30.7	-34.3	12.7	1.25e-04	0	43	102	46137344	21	5421
2026-01-06 11:02:05.51	220.15	45.50	-30.6	-33.9	13.0	4.11e-05	0	43	102	46137344	21	5259
2026-01-06 11:02:06.51	220.59	45.69	-30.6	-34.0	12.9	3.66e-05	0	43	102	46137344	21	5307
2026-01-06 11:02:07.52	221.03	45.88	-30.8	-34.4	12.7	8.31e-05	0	43	102	46137344	21	5454
2026-01-06 11:02:08.52	221.48	46.06	-30.9	-34.7	12.4	7.32e-05	0	43	102	46137344	21	5587
2026-01-06 11:02:09.52	221.94	46.25	-31.2	-35.1	11.8	3.73e-04	0	43	102	46137344	22	5668
2026-01-06 11:02:10.53	222.40	46.43	-31.4	-35.9	11.3	9.48e-04	0	43	102	46137344	22	6015
2026-01-06 11:02:11.54	222.87	46.62	-31.4	-35.3	11.4	1.48e-03	0	43	102	46137344	23	5614
2026-01-06 11:02:12.54	223.34	46.80	-30.9	-33.8	12.4	2.77e-04	0	43	102	46137344	23	5004
2026-01-06 11:02:13.55	223.82	46.98	-30.5	-33.0	13.3	4.57e-05	0	43	102	46137344	22	4808
2026-01-06 11:02:14.56	224.30	47.16	-30.4	-32.8	13.4	2.05e-05	0	43	102	46137344	22	4764
2026-01-06 11:02:15.56	224.79	47.34	-30.5	-33.0	13.3	2.67e-05	0	43	102	46137344	22	4824
2026-01-06 11:02:16.56	225.28	47.51	-30.6	-33.3	13.2	1.60e-05	0	43	102	46137344	22	4910
2026-01-06 11:02:17.57	225.78	47.69	-30.8	-34.0	12.6	3.58e-05	0	43	102	46137344	22	5208
2026-01-06 11:02:18.58	226.29	47.87	-31.1	-34.9	12.1	1.79e-04	0	43	102	46137344	22	5544
2026-01-06 11:02:19.59	226.80	48.04	-30.9	-34.4	12.5	1.69e-04	0	43	102	46137344	22	5343
2026-01-06 11:02:20.59	227.32	48.21	-30.7	-33.6	12.9	6.71e-05	0	43	102	46137344	22	5051
2026-01-06 11:02:21.60	227.84	48.38	-30.5	-33.1	13.3	2.89e-05	0	43	102	46137344	22	4865
2026-01-06 11:02:22.61	228.37	48.54	-30.7	-33.7	12.9	2.67e-05	0	43	102	46137344	22	5064
2026-01-06 11:02:23.61	228.90	48.71	-30.8	-33.9	12.7	1.08e-04	0	44	102	46137344	22	5159
2026-01-06 11:02:24.62	229.44	48.87	-30.8	-33.7	12.9	4.50e-05	0	43	102	46137344	22	5083
2026-01-06 11:02:25.63	229.99	49.03	-30.8	-34.0	12.7	8.62e-05	0	43	102	46137344	22	5175
2026-01-06 11:02:26.64	230.54	49.19	-30.9	-34.2	12.6	1.03e-04	0	43	102	46137344	22	5248
2026-01-06 11:02:27.64	231.10	49.35	-30.8	-33.8	12.8	8.46e-05	0	43	102	46137344	22	5123
2026-01-06 11:02:28.65	231.66	49.50	-30.6	-33.3	13.2	3.05e-05	0	43	102	46137344	22	4911
2026-01-06 11:02:29.65	232.23	49.65	-30.5	-33.0	13.4	1.60e-05	0	43	102	46137344	22	4807
2026-01-06 11:02:30.66	232.80	49.80	-30.6	-33.4	13.1	1.44e-05	0	43	102	46137344	22	4958
2026-01-06 11:02:31.67	233.38	49.95	-30.7	-33.6	13.0	3.50e-05	0	43	102	46137344	22	5033
2026-01-06 11:02:32.68	233.97	50.09	-30.9	-34.1	12.6	6.10e-05	0	43	102	46137344	22	5219
2026-01-06 11:02:33.68	234.55	50.23	-30.5	-33.0	13.3	7.93e-05	0	43	102	46137344	22	4823
2026-01-06 11:02:34.69	235.15	50.37	-29.8	-31.7	14.5	3.00e-06	0	43	102	46137344	21	4471
2026-01-06 11:02:35.69	235.75	50.50	-29.6	-31.6	14.9	0.00e+00	0	43	102	46137344	20	4535
2026-01-06 11:02:36.70	236.36	50.64	-29.4	-31.2	15.1	0.00e+00	0	43	102	46137344	20	4432
2026-01-06 11:02:37.70	236.96	50.77	-29.4	-31.1	15.2	0.00e+00	0	43	102	46137344	20	4386
2026-01-06 11:02:38.71	237.58	50.89	-29.4	-31.1	15.2	0.00e+00	0	43	102	46137344	20	4388
2026-01-06 11:02:39.72	238.20	51.02	-29.4	-31.1	15.2	0.00e+00	0	43	102	46137344	20	4397
2026-01-06 11:02:40.72	238.83	51.14	-29.4	-31.2	15.1	0.00e+00	0	43	102	46137344	20	4431
2026-01-06 11:02:41.73	239.46	51.25	-29.3	-30.9	15.3	0.00e+00	0	43	102	46137344	20	4339
2026-01-06 11:02:42.74	240.10	51.37	-29.4	-31.6	15.3	0.00e+00	0	43	102	46137344	19	4630
2026-01-06 11:02:43.74	240.74	51.48	-29.3	-31.4	15.4	0.00e+00	0	43	102	46137344	19	4589
2026-01-06 11:02:44.75	241.38	51.59	-29.2	-31.1	15.5	0.00e+00	0	43	102	46137344	19	4494
2026-01-06 11:02:45.76	242.04	51.69	-29.5	-31.8	15.2	0.00e+00	0	43	102	46137344	19	4694
2026-01-06 11:02:46.76	242.69	51.79	-29.6	-32.0	15.0	0.00e+00	0	43	102	46137344	19	4777
2026-01-06 11:02:47.77	243.35	51.88	-29.5	-32.0	15.0	0.00e+00	0	43	102	46137344	19	4761
2026-01-06 11:02:48.78	244.01	51.98	-29.3	-31.3	15.4	0.00e+00	0	43	102	46137344	19	4563
2026-01-06 11:02:49.78	244.67	52.07	-29.1	-30.8	15.8	0.00e+00	0	43	102	46137344	19	4399
2026-01-06 11:02:50.79	245.35	52.15	-29.1	-30.9	15.7	0.00e+00	0	43	102	46137344	19	4433
2026-01-06 11:02:51.79	246.02	52.23	-29.3	-31.4	15.5	0.00e+00	0	43	102	46137344	19	4574
2026-01-06 11:02:52.80	246.70	52.31	-29.3	-31.3	15.5	0.00e+00	0	43	102	46137344	19	4536
2026-01-06 11:02:53.80	247.37	52.38	-29.2	-31.2	15.5	0.00e+00	0	43	102	46137344	19	4528
2026-01-06 11:02:54.80	248.05	52.45	-29.1	-30.9	15.7	0.00e+00	0	43	102	46137344	19	4422
2026-01-06 11:02:55.82	248.75	52.52	-29.5	-31.8	15.1	0.00e+00	0	43	102	46137344	19	4721
2026-01-06 11:02:56.82	249.44	52.58	-29.7	-32.5	14.7	7.00e-07	0	44	102	46137344	19	4927
2026-01-06 11:02:57.83	250.13	52.63	-29.9	-32.8	14.5	0.00e+00	0	43	102	46137344	19	5052
2026-01-06 11:02:58.83	250.82	52.69	-29.3	-31.4	15.4	0.00e+00	0	43	102	46137344	19	4574
2026-01-06 11:02:59.84	251.52	52.73	-29.1	-30.9	15.7	7.00e-07	0	43	102	46137344	19	4441
2026-01-06 11:03:00.85	252.23	52.78	-29.4	-31.5	15.3	0.00e+00	0	43	102	46137344	19	4621
2026-01-06 11:03:01.86	252.93	52.82	-29.5	-31.8	15.2	0.00e+00	0	43	102	46137344	19	4716
2026-01-06 11:03:02.87	253.64	52.85	-29.8	-32.7	14.6	1.50e-06	0	43	102	46137344	19	5025
2026-01-06 11:03:03.88	254.35	52.88	-29.7	-32.3	14.8	7.00e-07	0	43	102	46137344	19	4879
2026-01-06 11:03:04.88	255.05	52.91	-29.2	-31.1	15.6	0.00e+00	0	43	102	46137344	19	4490
2026-01-06 11:03:05.89	255.76	52.93	-28.7	-30.4	16.3	2.20e-06	0	43	102	46137344	18	4390
2026-01-06 11:03:06.90	256.47	52.95	-28.8	-30.6	16.1	0.00e+00	0	43	102	46137344	18	4443
2026-01-06 11:03:07.91	257.18	52.96	-28.8	-30.6	16.1	0.00e+00	0	43	102	46137344	18	4451
2026-01-06 11:03:08.91	257.89	52.97	-29.1	-31.4	15.7	4.50e-06	0	43	102	46137344	18	4679
2026-01-06 11:03:09.91	258.60	52.98	-28.8	-30.5	16.2	0.00e+00	0	43	102	46137344	18	4417
2026-01-06 11:03:10.92	259.31	52.98	-28.5	-29.8	16.6	0.00e+00	0	43	102	46137344	18	4217
2026-01-06 11:03:11.93	260.02	52.97	-28.5	-29.9	16.6	4.50e-06	0	43	102	46137344	18	4235
2026-01-06 11:03:12.93	260.73	52.97	-28.6	-30.2	16.5	0.00e+00	0	43	102	46137344	18	4322
2026-01-06 11:03:13.93	261.43	52.95	-28.6	-30.1	16.5	0.00e+00	0	43	102	46137344	18	4293
2026-01-06 11:03:14.95	262.15	52.94	-28.4	-29.8	16.7	0.00e+00	0	43	102	46137344	18	4195
2026-01-06 11:03:15.95	262.85	52.91	-28.4	-29.6	16.8	0.00e+00	0	43	102	46137344	18	4152
2026-01-06 11:03:16.96	263.56	52.89	-28.6	-30.0	16.6	0.00e+00	0	43	102	46137344	18	4269
2026-01-06 11:03:17.96	264.27	52.86	-28.7	-30.5	16.3	2.20e-06	0	43	102	46137344	18	4393
2026-01-06 11:03:18.97	264.97	52.82	-28.9	-30.9	16.0	0.00e+00	0	43	102	46137344	18	4540
2026-01-06 11:03:19.97	265.67	52.78	-28.9	-30.9	16.0	0.00e+00	0	43	102	46137344	18	4538
2026-01-06 11:03:20.98	266.37	52.74	-28.9	-30.8	16.1	3.80e-06	0	43	102	46137344	18	4493
2026-01-06 11:03:21.98	267.07	52.69	-28.9	-30.8	16.1	0.00e+00	0	43	102	46137344	18	4509
2026-01-06 11:03:22.98	267.76	52.64	-29.1	-31.4	15.7	0.00e+00	0	43	102	46137344	18	4689
2026-01-06 11:03:23.99	268.45	52.58	-28.9	-30.8	16.1	3.80e-06	0	43	102	46137344	18	4504
2026-01-06 11:03:24.99	269.14	52.52	-28.2	-29.6	17.0	0.00e+00	0	43	102	46137344	17	4261
2026-01-06 11:03:26.00	269.83	52.46	-27.9	-29.0	17.4	0.00e+00	0	43	102	46137344	17	4083
2026-01-06 11:03:27.00	270.51	52.39	-28.2	-29.8	16.9	1.50e-06	0	43	102	46137344	17	4311
2026-01-06 11:03:28.01	271.19	52.32	-28.6	-30.6	16.5	0.00e+00	0	43	102	46137344	17	4550
2026-01-06 11:03:29.01	271.86	52.24	-28.8	-31.2	16.1	0.00e+00	0	43	102	46137344	17	4735
2026-01-06 11:03:30.01	272.53	52.16	-28.7	-30.9	16.3	0.00e+00	0	43	102	46137344	17	4642
2026-01-06 11:03:31.01	273.20	52.08	-28.7	-30.8	16.3	0.00e+00	0	43	102	46137344	17	4614
2026-01-06 11:03:32.02	273.87	51.99	-28.9	-31.4	16.1	0.00e+00	0	43	102	46137344	17	4784
2026-01-06 11:03:33.02	274.53	51.90	-29.1	-31.3	15.8	0.00e+00	0	43	102	46137344	18	4670
2026-01-06 11:03:34.03	275.19	51.80	-29.6	-32.1	15.0	0.00e+00	0	43	102	46137344	19	4814
2026-01-06 11:03:35.04	275.84	51.70	-29.6	-32.1	15.0	0.00e+00	0	43	102	46137344	19	4803
2026-01-06 11:03:36.04	276.49	51.60	-29.3	-31.4	15.4	0.00e+00	0	43	102	46137344	19	4562
2026-01-06 11:03:37.05	277.14	51.50	-29.6	-32.0	15.0	0.00e+00	0	43	102	46137344	19	4780
2026-01-06 11:03:38.06	277.78	51.39	-30.0	-32.7	14.2	0.00e+00	0	43	102	46137344	20	4919
2026-01-06 11:03:39.07	278.42	51.27	-30.7	-33.9	13.2	1.90e-05	0	43	102	46137344	21	5256
2026-01-06 11:03:40.07	279.04	51.16	-30.5	-33.5	13.5	1.60e-05	0	43	102	46137344	21	5097
2026-01-06 11:03:41.08	279.67	51.04	-30.3	-33.1	13.7	6.80e-06	0	43	102	46137344	21	4925
2026-01-06 11:03:42.08	280.29	50.92	-30.5	-33.6	13.4	9.10e-06	0	43	102	46137344	21	5118
2026-01-06 11:03:43.09	280.91	50.79	-30.8	-34.4	12.8	3.28e-05	0	43	102	46137344	21	5439
2026-01-06 11:03:44.10	281.52	50.66	-31.2	-34.9	12.1	9.07e-05	0	43	102	46137344	22	5554
2026-01-06 11:03:45.11	282.13	50.53	-31.2	-34.9	12.1	3.71e-04	0	43	102	46137344	22	5545
2026-01-06 11:03:46.11	282.72	50.39	-30.9	-34.1	12.7	9.84e-05	0	43	102	46137344	22	5210
2026-01-06 11:03:47.12	283.32	50.26	-30.7	-33.4	13.2	2.89e-05	0	43	102	46137344	22	4949
2026-01-06 11:03:48.13	283.91	50.11	-30.8	-33.9	12.8	2.28e-05	0	43	102	46137344	22	5143
2026-01-06 11:03:49.14	284.50	49.97	-31.5	-35.9	11.5	4.57e-04	0	43	102	46137344	22	5998
2026-01-06 11:03:50.14	285.07	49.83	-31.7	-36.2	10.9	1.46e-03	0	43	102	46137344	23	6031
2026-01-06 11:03:51.15	285.65	49.68	-31.6	-35.9	11.1	2.48e-03	0	43	102	46137344	23	5867
2026-01-06 11:03:52.16	286.22	49.53	-31.0	-34.0	12.5	2.06e-04	0	43	102	46137344	23	5048
2026-01-06 11:03:53.16	286.78	49.38	-31.1	-34.2	12.3	1.06e-04	0	43	102	46137344	23	5152
2026-01-06 11:03:54.17	287.33	49.22	-31.8	-36.3	10.9	5.96e-04	0	43	102	46137344	23	6045
2026-01-06 11:03:55.18	287.89	49.06	-32.1	-36.9	10.0	6.99e-03	0	44	102	46137344	24	6259
2026-01-06 11:03:56.19	288.43	48.90	-31.8	-36.0	10.7	5.58e-03	0	43	102	46137344	24	5796
2026-01-06 11:03:57.19	288.97	48.74	-31.7	-35.6	11.0	1.71e-03	0	44	102	46137344	24	5636
2026-01-06 11:03:58.20	289.50	48.58	-32.1	-36.8	10.1	5.53e-03	0	43	102	46137344	24	6214
2026-01-06 11:03:59.20	290.03	48.41	-32.1	-36.9	10.0	7.75e-03	0	43	102	46137344	24	6265
2026-01-06 11:04:00.21	290.55	48.24	-32.0	-36.7	10.1	9.54e-03	0	43	102	46137344	24	6167
2026-01-06 11:04:01.21	291.07	48.07	-31.8	-35.8	10.9	4.93e-03	0	43	102	46137344	24	5707
2026-01-06 11:04:02.21	291.58	47.90	-31.7	-35.4	11.2	1.75e-03	0	43	102	46137344	24	5535
2026-01-06 11:04:03.22	292.08	47.73	-31.7	-35.4	11.1	1.53e-03	0	43	102	46137344	24	5535
2026-01-06 11:04:04.23	292.58	47.56	-31.8	-35.8	10.9	1.97e-03	0	43	102	46137344	24	5705
2026-01-06 11:04:05.24	293.08	47.38	-31.9	-36.2	10.6	3.78e-03	0	43	102	46137344	24	5905
2026-01-06 11:04:06.25	293.57	47.20	-31.6	-35.4	11.0	2.66e-03	0	43	102	46137344	24	5547
2026-01-06 11:04:07.25	294.05	47.02	-31.4	-34.5	11.8	9.19e-04	0	43	102	46137344	24	5167
2026-01-06 11:04:08.26	294.53	46.84	-31.2	-34.4	12.2	2.50e-04	0	43	102	46137344	23	5201
2026-01-06 11:04:09.27	295.00	46.66	-31.2	-34.4	12.3	1.81e-04	0	43	102	46137344	23	5201
2026-01-06 11:04:10.28	295.47	46.48	-31.2	-34.4	12.2	2.49e-04	0	43	102	46137344	23	5208
2026-01-06 11:04:11.28	295.93	46.29	-31.2	-34.5	12.1	1.89e-04	0	43	102	46137344	23	5274
2026-01-06 11:04:12.28	296.39	46.11	-31.6	-35.7	11.2	7.99e-04	0	43	102	46137344	23	5798
2026-01-06 11:04:13.29	296.84	45.92	-31.8	-36.5	10.7	1.64e-03	0	43	102	46137344	23	6144
2026-01-06 11:04:14.30	297.29	45.73	-32.0	-37.0	10.3	4.33e-03	0	43	102	46137344	23	6417
2026-01-06 11:04:15.30	297.72	45.55	-31.5	-35.5	11.3	1.88e-03	0	43	102	46137344	23	5679
2026-01-06 11:04:16.30	298.16	45.36	-31.0	-33.9	12.4	3.32e-04	0	43	102	46137344	23	5047
2026-01-06 11:04:17.30	298.58	45.17	-30.9	-33.6	12.7	9.30e-05	0	43	102	46137344	23	4926
2026-01-06 11:04:18.30	299.01	44.98	-30.9	-33.5	12.8	6.33e-05	0	43	102	46137344	23	4869
2026-01-06 11:04:19.31	299.43	44.79	-30.9	-33.7	12.6	7.09e-05	0	43	102	46137344	23	4954
2026-01-06 11:04:20.32	299.84	44.59	-30.9	-33.5	12.8	7.78e-05	0	43	102	46137344	23	4878
2026-01-06 11:04:21.32	300.25	44.40	-30.8	-33.4	12.8	6.71e-05	0	43	102	46137344	23	4844
2026-01-06 11:04:22.33	300.66	44.21	-30.9	-33.7	12.6	8.31e-05	0	43	102	46137344	23	4953
2026-01-06 11:04:23.34	301.06	44.01	-31.0	-33.9	12.5	1.15e-04	0	43	102	46137344	23	5018
2026-01-06 11:04:24.34	301.45	43.82	-30.8	-33.3	12.9	9.07e-05	0	43	102	46137344	23	4811
2026-01-06 11:04:25.35	301.84	43.62	-30.8	-33.7	12.9	3.43e-05	0	43	102	46137344	22	5072
2026-01-06 11:04:26.35	302.23	43.43	-30.9	-34.3	12.6	6.02e-05	0	44	102	46137344	22	5271
2026-01-06 11:04:27.36	302.61	43.23	-31.0	-34.3	12.5	1.63e-04	0	43	102	46137344	22	5299
2026-01-06 11:04:28.37	302.99	43.04	-30.6	-33.3	13.2	4.88e-05	0	43	102	46137344	22	4917
2026-01-06 11:04:29.38	303.36	42.84	-30.4	-32.8	13.6	9.90e-06	0	43	102	46137344	22	4722
2026-01-06 11:04:30.38	303.73	42.64	-30.7	-33.4	13.2	1.37e-05	0	43	102	46137344	22	4945
2026-01-06 11:04:31.39	304.09	42.44	-31.0	-34.3	12.6	3.89e-05	0	43	102	46137344	22	5275
2026-01-06 11:04:32.40	304.45	42.25	-31.1	-34.8	12.3	1.70e-04	0	43	102	46137344	22	5475
2026-01-06 11:04:33.40	304.81	42.05	-31.2	-35.1	12.0	2.86e-04	0	43	102	46137344	22	5634
2026-01-06 11:04:34.40	305.15	41.85	-31.4	-35.5	11.7	6.11e-04	0	43	102	46137344	22	5817
2026-01-06 11:04:35.41	305.50	41.66	-31.3	-35.4	11.8	4.80e-04	0	43	102	46137344	22	5737
2026-01-06 11:04:36.42	305.84	41.46	-31.3	-35.3	11.8	3.87e-04	0	43	102	46137344	22	5719
2026-01-06 11:04:37.43	306.18	41.26	-31.3	-35.3	11.8	4.11e-04	0	43	102	46137344	22	5723
2026-01-06 11:04:38.43	306.52	41.06	-31.3	-35.2	11.9	4.89e-04	0	43	102	46137344	22	5674
2026-01-06 11:04:39.43	306.84	40.87	-31.3	-35.2	11.9	4.06e-04	0	43	102	46137344	22	5649
2026-01-06 11:04:40.44	307.17	40.67	-31.7	-36.2	10.9	7.93e-04	0	43	102	46137344	23	6015
2026-01-06 11:04:41.46	307.50	40.47	-32.2	-37.5	9.5	5.88e-03	0	43	102	46137344	24	6578
2026-01-06 11:04:42.46	307.81	40.27	-32.6	-38.4	8.4	3.27e-02	0	43	102	46137344	25	7050
2026-01-06 11:04:43.46	308.13	40.08	-32.7	-39.0	7.9	7.02e-02	0	43	102	46137344	25	7425
2026-01-06 11:04:44.46	308.43	39.88	-32.5	-38.1	8.6	6.25e-02	0	43	102	46137344	25	6856
2026-01-06 11:04:45.47	308.74	39.68	-32.1	-36.6	9.8	1.49e-02	0	43	102	46137344	25	6002
2026-01-06 11:04:46.48	309.05	39.48	-31.7	-35.7	10.8	4.41e-03	0	43	102	46137344	24	5672
2026-01-06 11:04:47.49	309.35	39.29	-31.9	-36.3	10.3	2.56e-03	0	43	102	46137344	24	5989
2026-01-06 11:04:48.49	309.64	39.09	-32.2	-37.5	9.4	1.22e-02	0	43	102	46137344	24	6599
2026-01-06 11:04:49.50	309.94	38.90	-32.7	-38.9	8.0	4.41e-02	0	43	102	46137344	25	7361
2026-01-06 11:04:50.51	310.23	38.70	-32.7	-38.8	8.0	9.70e-02	0	43	102	46137344	25	7334
2026-01-06 11:04:51.51	310.51	38.51	-32.0	-36.2	10.0	1.32e-02	0	43	102	46137344	25	5825
2026-01-06 11:04:52.52	310.79	38.31	-31.3	-34.3	11.8	1.15e-03	0	43	102	46137344	24	5093
2026-01-06 11:04:53.52	311.07	38.12	-31.1	-34.1	12.3	2.29e-04	0	43	102	46137344	23	5113
2026-01-06 11:04:54.52	311.34	37.92	-31.3	-35.0	11.7	2.01e-04	0	43	102	46137344	23	5458
2026-01-06 11:04:55.53	311.62	37.73	-31.7	-36.0	10.9	2.08e-03	0	43	102	46137344	23	5941
2026-01-06 11:04:56.54	311.89	37.54	-32.4	-38.1	9.0	6.48e-03	0	43	102	46137344	24	6948
2026-01-06 11:04:57.54	312.15	37.35	-32.9	-39.8	7.2	6.38e-02	0	43	102	46137344	25	8045
2026-01-06 11:04:58.54	312.42	37.15	-32.8	-39.7	7.3	1.55e-01	0	43	102	46137344	25	7932
2026-01-06 11:04:59.55	312.68	36.96	-32.3	-37.5	9.0	6.23e-02	0	43	102	46137344	25	6522
2026-01-06 11:05:00.56	312.93	36.77	-31.8	-35.6	10.4	1.12e-02	0	43	102	46137344	25	5576
2026-01-06 11:05:01.56	313.19	36.58	-31.6	-35.2	11.1	1.88e-03	0	43	102	46137344	24	5489
2026-01-06 11:05:02.56	313.44	36.39	-31.7	-35.7	10.8	1.96e-03	0	43	102	46137344	24	5682
2026-01-06 11:05:03.57	313.69	36.20	-31.9	-36.5	10.2	4.71e-03	0	43	102	46137344	24	6070
2026-01-06 11:05:04.58	313.93	36.01	-32.2	-37.3	9.5	8.82e-03	0	43	102	46137344	24	6538
2026-01-06 11:05:05.59	314.18	35.82	-32.8	-39.6	7.4	5.87e-02	0	43	102	46137344	25	7876
2026-01-06 11:05:06.60	314.42	35.63	-33.0	-40.3	6.5	2.38e-01	0	43	102	46137344	26	8310
2026-01-06 11:05:07.60	314.65	35.45	-32.5	-37.6	8.5	1.33e-01	0	43	102	46137344	26	6478
2026-01-06 11:05:08.60	314.89	35.26	-31.5	-35.0	11.1	4.43e-03	0	43	102	46137344	24	5412
2026-01-06 11:05:09.61	315.12	35.07	-30.6	-33.3	13.1	1.38e-04	0	43	102	46137344	22	4928
2026-01-06 11:05:10.61	315.35	34.89	-30.1	-32.4	14.0	5.30e-06	0	43	102	46137344	21	4702
2026-01-06 11:05:11.62	315.58	34.70	-30.0	-32.3	14.1	1.50e-06	0	43	102	46137344	21	4673
2026-01-06 11:05:12.62	315.80	34.52	-30.5	-33.5	13.3	6.80e-06	0	43	102	46137344	21	5090
2026-01-06 11:05:13.63	316.02	34.33	-31.3	-35.5	11.6	1.15e-04	0	43	102	46137344	22	5802
2026-01-06 11:05:14.63	316.24	34.15	-31.9	-36.8	10.2	2.19e-03	0	43	102	46137344	23	6372
2026-01-06 11:05:15.63	316.46	33.97	-32.3	-37.8	9.1	1.86e-02	0	44	102	46137344	24	6813
2026-01-06 11:05:16.64	316.67	33.79	-32.0	-36.9	9.7	2.02e-02	0	43	102	46137344	24	6327
2026-01-06 11:05:17.65	316.89	33.61	-31.4	-34.7	11.4	4.79e-03	0	43	102	46137344	24	5276
2026-01-06 11:05:18.65	317.10	33.43	-30.7	-33.7	12.8	1.10e-04	0	44	102	46137344	22	5066
2026-01-06 11:05:19.65	317.30	33.25	-30.3	-32.4	13.6	2.28e-05	0	43	102	46137344	22	4619
2026-01-06 11:05:20.65	317.51	33.07	-30.0	-32.2	14.1	1.50e-06	0	44	102	46137344	21	4645
2026-01-06 11:05:21.66	317.71	32.89	-30.1	-32.6	13.9	1.50e-06	0	43	102	46137344	21	4771
2026-01-06 11:05:22.67	317.91	32.71	-30.4	-33.3	13.4	1.22e-05	0	43	102	46137344	21	5032
2026-01-06 11:05:23.68	318.11	32.53	-30.8	-34.4	12.7	3.81e-05	0	43	102	46137344	21	5450
2026-01-06 11:05:24.69	318.31	32.36	-31.5	-35.9	11.2	2.83e-04	0	43	102	46137344	22	6021
2026-01-06 11:05:25.70	318.51	32.18	-31.9	-37.1	10.1	4.71e-03	0	43	102	46137344	23	6496
2026-01-06 11:05:26.70	318.70	32.01	-32.2	-37.7	9.2	1.37e-02	0	43	102	46137344	24	6753
2026-01-06 11:05:27.69	318.89	31.83	-32.2	-37.7	9.1	2.34e-02	0	43	102	46137344	24	6774
2026-01-06 11:05:28.70	319.08	31.66	-32.0	-36.8	9.8	1.41e-02	0	43	102	46137344	24	6253
2026-01-06 11:05:29.71	319.26	31.49	-31.6	-35.5	10.7	5.01e-03	0	43	102	46137344	24	5617
2026-01-06 11:05:30.71	319.45	31.31	-31.2	-34.7	11.8	1.03e-03	0	44	102	46137344	23	5352
2026-01-06 11:05:31.72	319.63	31.14	-31.1	-34.2	12.1	3.07e-04	0	43	102	46137344	23	5182
2026-01-06 11:05:32.73	319.81	30.97	-31.0	-33.9	12.3	1.96e-04	0	43	102	46137344	23	5064
2026-01-06 11:05:33.74	319.99	30.80	-31.3	-35.0	11.6	2.66e-04	0	44	102	46137344	23	5483
2026-01-06 11:05:34.75	320.17	30.63	-31.4	-35.4	11.3	1.26e-03	0	44	102	46137344	23	5664
2026-01-06 11:05:35.75	320.35	30.46	-31.7	-36.2	10.6	2.11e-03	0	43	102	46137344	23	6075
2026-01-06 11:05:36.76	320.52	30.29	-32.0	-37.0	9.7	7.09e-03	0	43	102	46137344	24	6381
2026-01-06 11:05:37.77	320.69	30.12	-32.2	-37.6	9.2	1.75e-02	0	43	102	46137344	24	6717
2026-01-06 11:05:38.78	320.87	29.96	-32.3	-37.8	9.0	2.35e-02	0	43	102	46137344	24	6854
2026-01-06 11:05:39.78	321.03	29.79	-32.2	-37.6	9.2	2.31e-02	0	43	102	46137344	24	6716
2026-01-06 11:05:40.78	321.20	29.63	-32.1	-37.3	9.4	1.66e-02	0	43	102	46137344	24	6519
2026-01-06 11:05:41.79	321.37	29.46	-31.9	-36.7	9.9	1.19e-02	0	43	102	46137344	24	6211
2026-01-06 11:05:42.79	321.53	29.30	-31.8	-36.3	10.2	7.23e-03	0	43	102	46137344	24	5995
2026-01-06 11:05:43.80	321.69	29.14	-31.9	-36.6	10.0	7.23e-03	0	43	102	46137344	24	6186
2026-01-06 11:05:44.80	321.85	28.97	-31.6	-35.5	10.8	7.31e-03	0	43	102	46137344	24	5637
2026-01-06 11:05:45.81	322.01	28.81	-31.8	-36.0	10.4	2.90e-03	0	44	102	46137344	24	5866
2026-01-06 11:05:46.81	322.17	28.65	-31.7	-35.7	10.6	4.91e-03	0	43	102	46137344	24	5705
2026-01-06 11:05:47.82	322.32	28.49	-31.5	-35.0	11.1	2.09e-03	0	43	102	46137344	24	5399
2026-01-06 11:05:48.83	322.48	28.33	-31.4	-34.9	11.2	1.38e-03	0	44	102	46137344	24	5373
2026-01-06 11:05:49.84	322.63	28.17	-31.6	-35.3	10.9	1.80e-03	0	43	102	46137344	24	5548
2026-01-06 11:05:50.84	322.78	28.01	-31.5	-35.1	11.0	1.91e-03	0	43	102	46137344	24	5471
2026-01-06 11:05:51.85	322.93	27.85	-31.4	-34.7	11.4	1.31e-03	0	44	102	46137344	24	5284
2026-01-06 11:05:52.86	323.08	27.70	-31.1	-34.5	11.8	7.38e-04	0	43	102	46137344	23	5309
2026-01-06 11:05:53.86	323.23	27.54	-31.1	-34.4	11.9	4.94e-04	0	43	102	46137344	23	5261
2026-01-06 11:05:54.86	323.37	27.39	-31.0	-34.1	12.1	3.49e-04	0	43	102	46137344	23	5138
2026-01-06 11:05:55.87	323.52	27.23	-31.0	-34.2	12.0	2.69e-04	0	43	102	46137344	23	5179
2026-01-06 11:05:56.88	323.66	27.08	-31.0	-34.1	12.1	3.11e-04	0	44	102	46137344	23	5155
2026-01-06 11:05:57.89	323.81	26.92	-30.9	-33.9	12.2	2.27e-04	0	43	102	46137344	23	5059
2026-01-06 11:05:58.89	323.95	26.77	-30.7	-33.7	12.7	1.13e-04	0	43	102	46137344	22	5105
2026-01-06 11:05:59.90	324.08	26.62	-30.5	-33.2	13.1	4.57e-05	0	43	102	46137344	22	4886
2026-01-06 11:06:00.90	324.22	26.47	-30.5	-33.2	13.0	4.50e-05	0	43	102	46137344	22	4914
2026-01-06 11:06:01.91	324.36	26.32	-30.5	-33.0	13.1	2.74e-05	0	43	102	46137344	22	4842
2026-01-06 11:06:02.92	324.49	26.17	-30.5	-33.2	13.1	3.73e-05	0	43	102	46137344	22	4893
2026-01-06 11:06:03.93	324.63	26.02	-30.6	-33.4	12.9	4.57e-05	0	43	102	46137344	22	4972
2026-01-06 11:06:04.93	324.76	25.87	-30.6	-33.4	12.8	4.04e-05	0	43	102	46137344	22	4991
2026-01-06 11:06:05.94	324.89	25.72	-30.8	-34.1	12.4	8.69e-05	0	44	102	46137344	22	5238
2026-01-06 11:06:06.95	325.03	25.57	-30.9	-34.3	12.2	2.01e-04	0	43	102	46137344	22	5355
2026-01-06 11:06:07.96	325.16	25.43	-31.0	-34.6	12.1	2.30e-04	0	43	102	46137344	22	5460
2026-01-06 11:06:08.97	325.28	25.28	-31.1	-35.1	11.6	4.76e-04	0	43	102	46137344	22	5686
2026-01-06 11:06:09.97	325.41	25.14	-31.1	-34.9	11.8	5.16e-04	0	43	102	46137344	22	5593
2026-01-06 11:06:10.98	325.54	24.99	-31.0	-34.6	12.0	4.19e-04	0	43	102	46137344	22	5470
2026-01-06 11:06:11.99	325.66	24.85	-30.9	-34.5	12.1	3.02e-04	0	43	102	46137344	22	5414
2026-01-06 11:06:12.99	325.79	24.70	-30.9	-34.4	12.1	2.53e-04	0	43	102	46137344	22	5381
2026-01-06 11:06:14.00	325.91	24.56	-30.9	-34.3	12.2	2.52e-04	0	44	102	46137344	22	5349
2026-01-06 11:06:15.01	326.03	24.42	-30.9	-34.3	12.3	2.08e-04	0	44	102	46137344	22	5321
2026-01-06 11:06:16.01	326.15	24.28	-30.9	-34.5	12.1	2.51e-04	0	43	102	46137344	22	5403
2026-01-06 11:06:17.01	326.27	24.14	-30.6	-33.5	12.7	1.18e-04	0	43	102	46137344	22	5026
2026-01-06 11:06:18.02	326.39	24.00	-30.4	-32.8	13.2	3.58e-05	0	44	102	46137344	22	4789
2026-01-06 11:06:19.03	326.51	23.86	-30.2	-32.8	13.5	1.37e-05	0	43	102	46137344	21	4874
2026-01-06 11:06:20.03	326.62	23.72	-30.3	-33.1	13.4	1.98e-05	0	44	102	46137344	21	4979
2026-01-06 11:06:21.04	326.74	23.58	-30.7	-34.2	12.5	4.34e-05	0	43	102	46137344	21	5421
2026-01-06 11:06:22.04	326.85	23.44	-30.4	-33.3	13.1	4.34e-05	0	43	102	46137344	21	5074
2026-01-06 11:06:23.05	326.97	23.31	-30.2	-33.0	13.3	1.60e-05	0	43	102	46137344	21	4967
2026-01-06 11:06:24.05	327.08	23.17	-30.2	-32.9	13.4	1.44e-05	0	43	102	46137344	21	4907
2026-01-06 11:06:25.06	327.19	23.03	-30.4	-33.4	13.1	2.36e-05	0	43	102	46137344	21	5116
2026-01-06 11:06:26.07	327.30	22.90	-30.3	-33.3	13.2	3.12e-05	0	43	102	46137344	21	5066
2026-01-06 11:06:27.08	327.41	22.76	-30.5	-33.7	12.9	5.18e-05	0	43	102	46137344	21	5219
2026-01-06 11:06:28.09	327.52	22.63	-30.4	-33.5	13.1	2.82e-05	0	44	102	46137344	21	5124
2026-01-06 11:06:29.10	327.63	22.49	-30.3	-33.3	13.2	3.12e-05	0	43	102	46137344	21	5061
2026-01-06 11:06:30.10	327.74	22.36	-30.4	-33.6	13.0	3.20e-05	0	43	102	46137344	21	5163
2026-01-06 11:06:31.11	327.84	22.23	-30.6	-34.1	12.6	6.71e-05	0	43	102	46137344	21	5394
2026-01-06 11:06:32.12	327.95	22.10	-30.5	-33.7	12.8	5.64e-05	0	43	102	46137344	21	5213
2026-01-06 11:06:33.13	328.05	21.97	-30.3	-33.3	13.1	2.36e-05	0	43	102	46137344	21	5064
2026-01-06 11:06:34.14	328.16	21.84	-30.3	-33.3	13.2	2.97e-05	0	43	102	46137344	21	5048
2026-01-06 11:06:35.15	328.26	21.71	-30.3	-33.1	13.2	2.13e-05	0	43	102	46137344	21	4998
2026-01-06 11:06:36.16	328.36	21.58	-30.2	-33.0	13.3	1.44e-05	0	43	102	46137344	21	4955
2026-01-06 11:06:37.16	328.46	21.45	-30.2	-32.8	13.4	1.75e-05	0	43	102	46137344	21	4890
2026-01-06 11:06:38.16	328.56	21.32	-30.1	-32.7	13.5	5.30e-06	0	43	102	46137344	21	4838
2026-01-06 11:06:39.17	328.66	21.19	-30.1	-32.8	13.4	1.22e-05	0	43	102	46137344	21	4872
2026-01-06 11:06:40.18	328.76	21.07	-30.0	-32.5	13.6	9.90e-06	0	44	102	46137344	21	4771
2026-01-06 11:06:41.19	328.86	20.94	-30.1	-32.6	13.5	9.10e-06	0	43	102	46137344	21	4817
2026-01-06 11:06:42.20	328.96	20.81	-30.1	-32.7	13.5	1.37e-05	0	43	102	46137344	21	4856
2026-01-06 11:06:43.21	329.06	20.69	-30.2	-32.9	13.4	5.30e-06	0	43	102	46137344	21	4910
2026-01-06 11:06:44.21	329.15	20.56	-30.3	-33.1	13.2	9.10e-06	0	43	102	46137344	21	5010
2026-01-06 11:06:45.22	329.25	20.44	-30.3	-33.2	13.1	2.89e-05	0	43	102	46137344	21	5040
2026-01-06 11:06:46.23	329.34	20.31	-30.3	-33.3	13.0	3.96e-05	0	43	102	46137344	21	5085
2026-01-06 11:06:47.24	329.44	20.19	-30.4	-33.6	12.9	4.65e-05	0	43	102	46137344	21	5181
2026-01-06 11:06:48.25	329.53	20.07	-30.5	-33.9	12.7	7.24e-05	0	43	102	46137344	21	5291
2026-01-06 11:06:49.26	329.62	19.95	-30.6	-34.0	12.6	9.00e-05	0	43	102	46137344	21	5345
2026-01-06 11:06:50.26	329.71	19.82	-30.6	-34.0	12.5	1.17e-04	0	43	102	46137344	21	5369
2026-01-06 11:06:51.27	329.80	19.70	-30.6	-34.2	12.4	1.62e-04	0	43	102	46137344	21	5438
2026-01-06 11:06:52.28	329.90	19.58	-30.6	-34.3	12.4	1.30e-04	0	43	102	46137344	21	5463
2026-01-06 11:06:53.28	329.98	19.46	-30.7	-34.3	12.3	1.65e-04	0	43	102	46137344	21	5478
2026-01-06 11:06:54.28	330.07	19.34	-30.6	-34.1	12.5	1.54e-04	0	43	102	46137344	21	5382
2026-01-06 11:06:55.29	330.16	19.23	-30.6	-34.2	12.4	1.41e-04	0	43	102	46137344	21	5439
2026-01-06 11:06:56.29	330.25	19.11	-30.7	-34.3	12.3	1.68e-04	0	43	102	46137344	21	5476
2026-01-06 11:06:57.30	330.34	18.99	-30.4	-33.7	12.8	1.23e-04	0	43	102	46137344	21	5221
2026-01-06 11:06:58.30	330.42	18.87	-30.3	-33.2	13.0	4.73e-05	0	44	102	46137344	21	5055
2026-01-06 11:06:59.31	330.51	18.76	-30.2	-33.0	13.2	3.05e-05	0	44	102	46137344	21	4977
2026-01-06 11:07:00.32	330.59	18.64	-30.1	-32.8	13.3	1.52e-05	0	43	102	46137344	21	4909
2026-01-06 11:07:01.32	330.68	18.52	-30.2	-32.9	13.3	1.75e-05	0	43	102	46137344	21	4921
2026-01-06 11:07:02.33	330.76	18.41	-30.2	-32.9	13.3	2.21e-05	0	44	102	46137344	21	4933
2026-01-06 11:07:03.33	330.84	18.29	-30.0	-32.3	13.6	1.14e-05	0	43	102	46137344	21	4730
2026-01-06 11:07:04.34	330.93	18.18	-30.0	-32.5	13.5	9.10e-06	0	43	102	46137344	21	4770
2026-01-06 11:07:05.35	331.01	18.06	-30.0	-32.5	13.5	1.06e-05	0	43	102	46137344	21	4775
2026-01-06 11:07:06.35	331.09	17.95	-29.9	-32.0	13.8	7.60e-06	0	44	102	46137344	21	4633
2026-01-06 11:07:07.36	331.17	17.84	-29.8	-32.0	13.8	5.30e-06	0	43	102	46137344	21	4605
2026-01-06 11:07:08.37	331.25	17.73	-29.9	-32.1	13.7	4.50e-06	0	43	102	46137344	21	4653
2026-01-06 11:07:09.38	331.33	17.61	-30.0	-32.5	13.5	1.06e-05	0	43	102	46137344	21	4793
2026-01-06 11:07:10.39	331.41	17.50	-30.1	-32.7	13.2	1.60e-05	0	43	102	46137344	21	4874
2026-01-06 11:07:11.40	331.49	17.39	-30.0	-32.5	13.4	1.44e-05	0	43	102	46137344	21	4810
2026-01-06 11:07:12.41	331.57	17.28	-30.1	-32.7	13.3	1.22e-05	0	43	102	46137344	21	4857
2026-01-06 11:07:13.42	331.65	17.17	-30.1	-32.7	13.3	1.60e-05	0	43	102	46137344	21	4870
2026-01-06 11:07:14.42	331.72	17.06	-30.1	-32.9	13.2	2.05e-05	0	43	102	46137344	21	4932
2026-01-06 11:07:15.43	331.80	16.95	-30.2	-32.9	13.1	2.67e-05	0	43	102	46137344	21	4960
2026-01-06 11:07:16.44	331.88	16.84	-30.1	-32.7	13.3	1.75e-05	0	43	102	46137344	21	4855
2026-01-06 11:07:17.44	331.95	16.73	-30.1	-32.7	13.3	1.67e-05	0	44	102	46137344	21	4873
2026-01-06 11:07:18.44	332.03	16.62	-30.1	-32.9	13.2	2.21e-05	0	44	102	46137344	21	4935
2026-01-06 11:07:19.45	332.10	16.52	-30.2	-33.0	13.1	1.90e-05	0	44	102	46137344	21	4971
2026-01-06 11:07:20.45	332.17	16.41	-30.2	-33.1	13.0	4.34e-05	0	44	102	46137344	21	5005
2026-01-06 11:07:21.46	332.25	16.30	-30.2	-32.9	13.1	2.51e-05	0	43	102	46137344	21	4956
2026-01-06 11:07:22.47	332.32	16.20	-30.2	-33.1	13.0	3.50e-05	0	43	102	46137344	21	5016
2026-01-06 11:07:23.47	332.39	16.09	-30.2	-33.1	13.0	4.50e-05	0	44	102	46137344	21	5017
2026-01-06 11:07:24.48	332.47	15.99	-30.1	-32.9	13.1	2.59e-05	0	43	102	46137344	21	4932
2026-01-06 11:07:25.49	332.54	15.88	-30.1	-32.8	13.2	2.13e-05	0	43	102	46137344	21	4906
2026-01-06 11:07:26.50	332.61	15.78	-30.1	-32.7	13.2	2.67e-05	0	44	102	46137344	21	4869
2026-01-06 11:07:27.50	332.68	15.67	-30.1	-32.7	13.2	2.51e-05	0	43	102	46137344	21	4868
2026-01-06 11:07:28.51	332.75	15.57	-30.0	-32.6	13.3	2.05e-05	0	43	102	46137344	21	4855
2026-01-06 11:07:29.52	332.82	15.46	-30.0	-32.4	13.4	1.29e-05	0	43	102	46137344	21	4777
2026-01-06 11:07:30.52	332.89	15.36	-30.0	-32.5	13.4	1.37e-05	0	44	102	46137344	21	4803
2026-01-06 11:07:31.52	332.96	15.26	-30.0	-32.4	13.4	1.52e-05	0	43	102	46137344	21	4784
2026-01-06 11:07:32.53	333.03	15.16	-30.1	-32.9	13.1	1.75e-05	0	43	102	46137344	21	4941
2026-01-06 11:07:33.54	333.09	15.05	-30.1	-32.8	13.1	3.50e-05	0	43	102	46137344	21	4901
2026-01-06 11:07:34.54	333.16	14.95	-30.0	-32.4	13.4	1.90e-05	0	43	102	46137344	21	4781
2026-01-06 11:07:35.55	333.23	14.85	-30.0	-32.5	13.4	1.14e-05	0	43	102	46137344	21	4794
2026-01-06 11:07:36.56	333.30	14.75	-30.0	-32.5	13.3	1.60e-05	0	43	102	46137344	21	4812
2026-01-06 11:07:37.56	333.36	14.65	-30.0	-32.6	13.2	1.37e-05	0	43	102	46137344	21	4859
2026-01-06 11:07:38.57	333.43	14.55	-30.1	-32.8	13.1	4.42e-05	0	43	102	46137344	21	4933
2026-01-06 11:07:39.57	333.49	14.45	-30.1	-32.8	13.1	3.28e-05	0	43	102	46137344	21	4926
2026-01-06 11:07:40.58	333.56	14.35	-30.2	-33.0	13.0	3.50e-05	0	44	102	46137344	21	4995
2026-01-06 11:07:41.58	333.62	14.26	-30.2	-33.2	12.8	5.64e-05	0	43	102	46137344	21	5082
2026-01-06 11:07:42.58	333.69	14.16	-30.3	-33.3	12.7	7.70e-05	0	43	102	46137344	21	5126
2026-01-06 11:07:43.59	333.75	14.06	-30.3	-33.5	12.6	8.16e-05	0	44	102	46137344	21	5198
2026-01-06 11:07:44.59	333.81	13.96	-30.4	-33.6	12.5	9.91e-05	0	43	102	46137344	21	5230
2026-01-06 11:07:45.59	333.88	13.87	-30.4	-33.7	12.4	1.15e-04	0	43	102	46137344	21	5284
2026-01-06 11:07:46.60	333.94	13.77	-30.5	-34.0	12.3	1.80e-04	0	43	102	46137344	21	5394
2026-01-06 11:07:47.60	334.00	13.67	-30.5	-34.0	12.2	2.33e-04	0	43	102	46137344	21	5414
2026-01-06 11:07:48.60	334.06	13.58	-30.5	-34.2	12.1	2.30e-04	0	43	102	46137344	21	5464
2026-01-06 11:07:49.61	334.12	13.48	-30.6	-34.4	12.0	3.00e-04	0	43	102	46137344	21	5551
2026-01-06 11:07:50.61	334.18	13.39	-30.6	-34.4	12.0	4.11e-04	0	43	102	46137344	21	5568
2026-01-06 11:07:51.61	334.24	13.29	-30.7	-34.6	11.8	4.68e-04	0	43	102	46137344	21	5646
2026-01-06 11:07:52.62	334.31	13.20	-30.6	-34.5	11.8	4.61e-04	0	43	102	46137344	21	5618
2026-01-06 11:07:53.63	334.37	13.10	-30.6	-34.5	11.9	4.34e-04	0	43	102	46137344	21	5604
2026-01-06 11:07:54.63	334.43	13.01	-30.7	-34.8	11.6	6.08e-04	0	43	102	46137344	21	5773
2026-01-06 11:07:55.64	334.48	12.91	-30.7	-34.8	11.6	9.07e-04	0	44	102	46137344	21	5759
2026-01-06 11:07:56.65	334.54	12.82	-30.7	-34.7	11.6	5.13e-04	0	43	102	46137344	21	5721
2026-01-06 11:07:57.65	334.60	12.73	-30.8	-35.1	11.4	8.73e-04	0	44	102	46137344	21	5878
2026-01-06 11:07:58.66	334.66	12.63	-30.7	-34.8	11.6	1.00e-03	0	43	102	46137344	21	5737
2026-01-06 11:07:59.67	334.72	12.54	-30.7	-34.6	11.7	6.13e-04	0	43	102	46137344	21	5666
2026-01-06 11:08:00.67	334.78	12.45	-30.6	-34.4	11.8	5.37e-04	0	44	102	46137344	21	5590
2026-01-06 11:08:01.68	334.83	12.36	-30.6	-34.3	11.9	3.88e-04	0	43	102	46137344	21	5549
2026-01-06 11:08:02.69	334.89	12.27	-30.6	-34.3	11.9	4.05e-04	0	43	102	46137344	21	5528
2026-01-06 11:08:03.69	334.95	12.18	-30.5	-34.0	12.1	3.60e-04	0	43	102	46137344	21	5428
2026-01-06 11:08:04.70	335.00	12.08	-30.4	-33.9	12.2	2.39e-04	0	43	102	46137344	21	5354
2026-01-06 11:08:05.70	335.06	11.99	-30.4	-33.7	12.3	2.04e-04	0	44	102	46137344	21	5296
2026-01-06 11:08:06.71	335.12	11.90	-30.3	-33.5	12.5	1.76e-04	0	43	102	46137344	21	5201
2026-01-06 11:08:07.71	335.17	11.81	-30.2	-33.4	12.5	1.20e-04	0	43	102	46137344	21	5175
2026-01-06 11:08:08.72	335.23	11.72	-30.2	-33.4	12.5	1.27e-04	0	43	102	46137344	21	5163
2026-01-06 11:08:09.72	335.28	11.64	-30.3	-33.5	12.4	1.15e-04	0	43	102	46137344	21	5202
2026-01-06 11:08:10.72	335.34	11.55	-30.3	-33.4	12.4	1.65e-04	0	43	102	46137344	21	5191
2026-01-06 11:08:11.73	335.39	11.46	-30.3	-33.4	12.4	1.15e-04	0	43	102	46137344	21	5188
2026-01-06 11:08:12.74	335.44	11.37	-30.4	-33.8	12.2	1.55e-04	0	43	102	46137344	21	5334
2026-01-06 11:08:13.74	335.50	11.28	-30.3	-33.5	12.4	1.94e-04	0	43	102	46137344	21	5217
2026-01-06 11:08:14.75	335.55	11.19	-30.2	-33.3	12.5	1.36e-04	0	43	102	46137344	21	5137
2026-01-06 11:08:15.76	335.60	11.11	-30.3	-33.6	12.3	1.51e-04	0	44	102	46137344	21	5256
2026-01-06 11:08:16.76	335.66	11.02	-30.3	-33.5	12.4	1.65e-04	0	43	102	46137344	21	5230
2026-01-06 11:08:17.76	335.71	10.93	-30.4	-33.8	12.1	2.08e-04	0	44	102	46137344	21	5351
2026-01-06 11:08:18.77	335.76	10.85	-30.3	-33.7	12.2	2.47e-04	0	44	102	46137344	21	5303
2026-01-06 11:08:19.78	335.81	10.76	-30.3	-33.5	12.4	2.00e-04	0	44	102	46137344	21	5217
2026-01-06 11:08:20.79	335.87	10.67	-30.3	-33.5	12.4	1.56e-04	0	44	102	46137344	21	5207
2026-01-06 11:08:21.80	335.92	10.59	-30.2	-33.4	12.4	1.66e-04	0	44	102	46137344	21	5188
2026-01-06 11:08:22.80	335.97	10.50	-30.3	-33.7	12.2	1.84e-04	0	43	102	46137344	21	5296
2026-01-06 11:08:23.81	336.02	10.42	-30.3	-33.6	12.2	2.09e-04	0	43	102	46137344	21	5290
2026-01-06 11:08:24.82	336.07	10.33	-30.4	-33.8	12.1	2.38e-04	0	43	102	46137344	21	5357
2026-01-06 11:08:25.82	336.12	10.25	-30.4	-33.9	12.0	2.63e-04	0	44	102	46137344	21	5391
2026-01-06 11:08:26.83	336.17	10.16	-30.5	-34.1	11.8	3.75e-04	0	44	102	46137344	21	5494
2026-01-06 11:08:27.84	336.22	10.08	-30.5	-34.1	11.9	4.14e-04	0	44	102	46137344	21	5483
2026-01-06 11:08:28.84	336.27	10.00	-30.5	-34.3	11.7	5.03e-04	0	43	102	46137344	21	5581
2026-01-06 11:08:29.85	336.32	9.91	-30.6	-34.4	11.6	6.68e-04	0	44	102	46137344	21	5617
2026-01-06 11:08:30.86	336.37	9.83	-30.6	-34.6	11.5	7.84e-04	0	43	102	46137344	21	5712
2026-01-06 11:08:31.86	336.42	9.75	-30.6	-34.6	11.5	9.06e-04	0	43	102	46137344	21	5692
2026-01-06 11:08:32.87	336.46	9.66	-30.7	-34.8	11.3	9.77e-04	0	44	102	46137344	21	5789
2026-01-06 11:08:33.88	336.51	9.58	-30.7	-34.9	11.3	1.22e-03	0	43	102	46137344	21	5817
2026-01-06 11:08:34.89	336.56	9.50	-30.7	-35.1	11.1	1.37e-03	0	44	102	46137344	21	5918
2026-01-06 11:08:35.89	336.61	9.42	-30.8	-35.3	11.0	1.84e-03	0	43	102	46137344	21	6025
2026-01-06 11:08:36.90	336.66	9.33	-30.9	-35.8	10.6	2.95e-03	0	44	102	46137344	21	6270
2026-01-06 11:08:37.91	336.70	9.25	-30.9	-35.7	10.6	3.51e-03	0	44	102	46137344	21	6230
