passes_logs/2026/01/06/R2M6_AANII_01/R2M6_AANII_01__20260106_221534_NOAA_21_JPSS-2_rec.log

#Pass ID: 20260106_221534_NOAA 21 (JPSS-2)
#Satellite: NOAA 21 (JPSS-2)
#Configuration: NOAA 21
#almurnet v.1.7.20240730
#Start time: 2026-01-06 22:15:34

#Version: 2.2.20231116
#Station: R2M6_AANII_01
#Location: 30.233357 lon 59.946436 lat
#TLE: 1 54234U 22150A   26005.56767909  .00000152  00000+0  92756-4 0  9990
#TLE: 2 54234  98.7490 306.5820 0001036 340.2747  19.8389 14.19532370163472

#Time	Az	El	Level	Level2	SNR	BER	BlckErr	Temp	State	Recorded	gain1	gain2
2026-01-06 22:15:34.79	36.08	7.01	-30.1	-34.8	4.7	1.35e+00	0	41	0	0	20	6182
2026-01-06 22:15:35.79	36.20	7.06	-31.5	-38.4	4.2	1.44e+00	0	41	104	0	23	7993
2026-01-06 22:15:36.80	36.32	7.11	-31.4	-37.0	6.2	3.23e-01	0	41	0	0	23	6907
2026-01-06 22:15:37.80	36.44	7.16	-31.5	-37.9	6.0	2.92e-01	0	41	102	1048576	22	7551
2026-01-06 22:15:38.81	36.56	7.21	-31.4	-36.8	6.3	2.74e-01	0	41	102	1048576	23	6771
2026-01-06 22:15:39.81	36.69	7.27	-31.2	-36.1	6.9	1.77e-01	0	41	102	1048576	23	6333
2026-01-06 22:15:40.82	36.81	7.32	-30.9	-35.5	7.6	1.12e-01	0	41	102	1048576	22	6129
2026-01-06 22:15:41.83	36.93	7.37	-30.7	-34.6	8.3	6.27e-02	0	41	102	1048576	22	5650
2026-01-06 22:15:42.83	37.05	7.42	-30.4	-33.6	9.0	2.68e-02	0	41	102	1048576	22	5236
2026-01-06 22:15:43.84	37.18	7.47	-30.1	-33.3	9.5	1.63e-02	0	41	102	1048576	21	5214
2026-01-06 22:15:44.84	37.30	7.52	-29.8	-32.4	10.2	7.41e-03	0	41	102	1048576	21	4866
2026-01-06 22:15:45.85	37.43	7.58	-29.7	-32.6	10.5	4.49e-03	0	41	102	1048576	20	5026
2026-01-06 22:15:46.86	37.55	7.63	-29.8	-32.8	10.3	4.84e-03	0	41	102	1048576	20	5129
2026-01-06 22:15:47.86	37.68	7.68	-29.5	-32.0	10.8	3.38e-03	0	41	102	1048576	20	4826
2026-01-06 22:15:48.87	37.80	7.73	-29.3	-32.0	11.2	1.68e-03	0	41	102	1048576	19	4908
2026-01-06 22:15:49.88	37.93	7.78	-29.1	-31.4	11.7	7.55e-04	0	41	102	1048576	19	4694
2026-01-06 22:15:50.89	38.06	7.83	-29.2	-31.8	11.5	8.04e-04	0	41	102	1048576	19	4823
2026-01-06 22:15:51.90	38.19	7.89	-29.2	-31.7	11.5	8.42e-04	0	41	102	1048576	19	4774
2026-01-06 22:15:52.91	38.31	7.94	-29.4	-32.2	11.2	1.29e-03	0	42	102	1048576	19	4964
2026-01-06 22:15:53.91	38.44	7.99	-29.3	-32.0	11.3	1.31e-03	0	41	102	1048576	19	4907
2026-01-06 22:15:54.92	38.57	8.04	-29.5	-32.4	11.1	1.23e-03	0	41	102	1048576	19	5030
2026-01-06 22:15:55.93	38.70	8.09	-29.3	-32.0	11.3	1.29e-03	0	41	102	1048576	19	4903
2026-01-06 22:15:56.94	38.83	8.15	-29.1	-31.4	11.7	6.81e-04	0	42	102	1048576	19	4686
2026-01-06 22:15:57.94	38.96	8.20	-29.0	-31.1	12.0	3.74e-04	0	42	102	1048576	19	4589
2026-01-06 22:15:58.95	39.09	8.25	-28.9	-30.8	12.1	2.73e-04	0	42	102	1048576	19	4503
2026-01-06 22:15:59.95	39.22	8.30	-28.9	-30.8	12.2	1.79e-04	0	42	102	1048576	19	4479
2026-01-06 22:16:00.97	39.35	8.35	-29.0	-31.1	12.0	2.96e-04	0	42	102	1048576	19	4581
2026-01-06 22:16:01.97	39.48	8.40	-28.8	-30.7	12.2	2.71e-04	0	42	102	1048576	19	4456
2026-01-06 22:16:02.97	39.61	8.45	-29.0	-31.2	11.9	3.54e-04	0	42	102	1048576	19	4610
2026-01-06 22:16:03.98	39.75	8.51	-28.9	-30.9	12.1	2.94e-04	0	42	102	1048576	19	4526
2026-01-06 22:16:04.99	39.88	8.56	-28.7	-30.8	12.6	1.27e-04	0	42	102	1048576	18	4593
2026-01-06 22:16:06.00	40.02	8.61	-28.7	-30.7	12.6	1.07e-04	0	42	102	1048576	18	4545
2026-01-06 22:16:07.00	40.15	8.66	-28.6	-30.5	12.8	6.56e-05	0	42	102	1048576	18	4472
2026-01-06 22:16:08.01	40.28	8.71	-28.7	-30.7	12.7	8.08e-05	0	42	102	1048576	18	4536
2026-01-06 22:16:09.02	40.42	8.76	-28.5	-30.4	12.8	5.56e-05	0	42	102	1048576	18	4441
2026-01-06 22:16:10.03	40.55	8.82	-28.4	-30.1	13.0	4.11e-05	0	42	102	1048576	18	4361
2026-01-06 22:16:11.03	40.69	8.87	-28.4	-29.9	13.1	2.05e-05	0	42	102	1048576	18	4300
2026-01-06 22:16:12.04	40.83	8.92	-28.2	-30.1	13.3	2.59e-05	0	42	102	1048576	17	4461
2026-01-06 22:16:13.05	40.96	8.97	-28.2	-30.1	13.3	1.75e-05	0	42	102	1048576	17	4465
2026-01-06 22:16:14.06	41.10	9.02	-28.2	-30.0	13.4	9.90e-06	0	42	102	1048576	17	4420
2026-01-06 22:16:15.06	41.24	9.07	-28.2	-30.0	13.4	1.52e-05	0	42	102	1048576	17	4428
2026-01-06 22:16:16.06	41.37	9.12	-28.3	-30.3	13.2	5.03e-05	0	42	102	1048576	17	4523
2026-01-06 22:16:17.07	41.51	9.17	-28.4	-30.5	13.1	2.44e-05	0	42	102	1048576	17	4582
2026-01-06 22:16:18.07	41.65	9.22	-28.4	-30.6	13.0	1.27e-04	0	42	102	1048576	17	4612
2026-01-06 22:16:19.08	41.79	9.28	-28.4	-30.5	13.1	2.36e-05	0	42	102	1048576	17	4591
2026-01-06 22:16:20.09	41.93	9.33	-28.4	-30.6	13.0	3.73e-05	0	42	102	1048576	17	4630
2026-01-06 22:16:21.09	42.07	9.38	-28.5	-30.8	12.9	9.23e-05	0	42	102	1048576	17	4699
2026-01-06 22:16:22.10	42.21	9.43	-28.5	-30.8	12.9	5.26e-05	0	42	102	1048576	17	4686
2026-01-06 22:16:23.10	42.35	9.48	-28.6	-31.2	12.6	7.32e-05	0	42	102	1048576	17	4809
2026-01-06 22:16:24.11	42.50	9.53	-28.4	-30.6	13.0	3.66e-05	0	42	102	1048576	17	4641
2026-01-06 22:16:25.11	42.64	9.58	-28.3	-30.3	13.2	2.28e-05	0	42	102	1048576	17	4516
2026-01-06 22:16:26.12	42.78	9.63	-28.2	-29.9	13.4	1.22e-05	0	42	102	1048576	17	4405
2026-01-06 22:16:27.13	42.93	9.68	-28.1	-29.9	13.5	1.90e-05	0	42	102	1048576	17	4384
2026-01-06 22:16:28.13	43.07	9.73	-28.1	-29.8	13.5	1.67e-05	0	42	102	1048576	17	4373
2026-01-06 22:16:29.13	43.21	9.78	-28.2	-30.0	13.4	1.22e-05	0	43	102	1048576	17	4412
2026-01-06 22:16:30.14	43.36	9.83	-28.1	-29.7	13.6	4.88e-05	0	42	102	1048576	17	4334
2026-01-06 22:16:31.14	43.50	9.88	-28.1	-29.8	13.5	8.08e-05	0	43	102	1048576	17	4373
2026-01-06 22:16:32.15	43.65	9.93	-28.1	-29.7	13.6	4.50e-06	0	42	102	1048576	17	4346
2026-01-06 22:16:33.16	43.79	9.98	-28.2	-30.0	13.5	2.37e-04	0	42	102	1048576	17	4412
2026-01-06 22:16:34.16	43.94	10.03	-28.3	-30.3	13.3	2.28e-04	0	42	102	1048576	17	4511
2026-01-06 22:16:35.17	44.09	10.08	-28.2	-29.9	13.5	9.10e-06	0	42	102	1048576	17	4411
2026-01-06 22:16:36.18	44.24	10.13	-28.1	-29.7	13.6	9.90e-06	0	42	102	1048576	17	4351
2026-01-06 22:16:37.19	44.38	10.19	-28.1	-30.2	13.6	6.35e-04	0	42	102	1048576	16	4598
2026-01-06 22:16:38.19	44.53	10.23	-28.0	-30.1	13.7	7.60e-06	0	42	102	1048576	16	4561
2026-01-06 22:16:39.19	44.68	10.28	-28.1	-30.1	13.7	7.06e-04	0	43	102	1048576	16	4577
2026-01-06 22:16:40.20	44.83	10.33	-28.0	-29.9	13.8	3.80e-06	0	42	102	1048576	16	4505
2026-01-06 22:16:41.20	44.98	10.38	-28.0	-29.9	13.8	3.80e-06	0	42	102	1048576	16	4517
2026-01-06 22:16:42.21	45.13	10.43	-28.0	-29.9	13.8	0.00e+00	0	43	102	1048576	16	4506
2026-01-06 22:16:43.22	45.28	10.48	-27.9	-29.8	13.9	3.35e-05	0	42	102	1048576	16	4456
2026-01-06 22:16:44.23	45.43	10.53	-27.9	-29.7	14.0	3.80e-06	0	43	102	1048576	16	4443
2026-01-06 22:16:45.23	45.59	10.58	-28.0	-30.0	13.8	6.80e-06	0	43	102	1048576	16	4526
2026-01-06 22:16:46.23	45.74	10.63	-28.1	-30.2	13.7	1.06e-05	0	42	102	1048576	16	4578
2026-01-06 22:16:47.24	45.89	10.68	-27.9	-29.8	13.9	2.20e-06	0	42	102	1048576	16	4464
2026-01-06 22:16:48.25	46.05	10.73	-27.9	-29.7	14.0	1.50e-06	0	42	102	1048576	16	4433
2026-01-06 22:16:49.26	46.20	10.78	-27.9	-29.7	14.0	3.00e-06	0	43	102	1048576	16	4454
2026-01-06 22:16:50.27	46.36	10.83	-27.9	-29.6	14.0	2.20e-06	0	43	102	1048576	16	4422
2026-01-06 22:16:51.28	46.51	10.88	-28.0	-29.9	13.9	3.00e-06	0	43	102	1048576	16	4500
2026-01-06 22:16:52.29	46.67	10.93	-28.0	-30.0	13.8	6.80e-06	0	43	102	1048576	16	4537
2026-01-06 22:16:53.30	46.82	10.98	-27.9	-29.8	13.9	4.50e-06	0	42	102	1048576	16	4466
2026-01-06 22:16:54.30	46.98	11.03	-27.9	-29.8	13.9	2.20e-06	0	43	102	1048576	16	4471
2026-01-06 22:16:55.31	47.14	11.07	-27.9	-29.7	14.0	3.00e-06	0	43	102	1048576	16	4449
2026-01-06 22:16:56.32	47.30	11.12	-27.9	-29.8	14.0	2.20e-06	0	43	102	1048576	16	4472
2026-01-06 22:16:57.32	47.45	11.17	-27.9	-29.7	14.0	1.50e-06	0	43	102	1048576	16	4447
2026-01-06 22:16:58.33	47.61	11.22	-28.0	-30.0	13.9	4.50e-06	0	43	102	1048576	16	4518
2026-01-06 22:16:59.33	47.77	11.27	-28.1	-30.1	13.8	4.50e-06	0	42	102	1048576	16	4567
2026-01-06 22:17:00.35	47.93	11.32	-27.9	-29.8	14.0	3.80e-06	0	43	102	1048576	16	4475
2026-01-06 22:17:01.35	48.09	11.36	-27.9	-29.7	14.0	4.50e-06	0	43	102	1048576	16	4450
2026-01-06 22:17:02.36	48.25	11.41	-28.0	-29.9	13.9	6.10e-06	0	43	102	1048576	16	4498
2026-01-06 22:17:03.37	48.41	11.46	-28.0	-30.0	13.8	4.50e-06	0	43	102	1048576	16	4534
2026-01-06 22:17:04.37	48.58	11.51	-28.0	-30.0	13.8	2.20e-06	0	43	102	1048576	16	4539
2026-01-06 22:17:05.38	48.74	11.56	-28.0	-29.9	14.0	5.30e-06	0	43	102	1048576	16	4479
2026-01-06 22:17:06.38	48.90	11.60	-28.0	-29.9	13.9	2.20e-06	0	43	102	1048576	16	4482
2026-01-06 22:17:07.39	49.06	11.65	-27.8	-30.1	13.9	3.00e-06	0	43	102	1048576	15	4675
2026-01-06 22:17:08.39	49.23	11.70	-27.8	-30.1	13.9	3.80e-06	0	43	102	1048576	15	4691
2026-01-06 22:17:09.40	49.39	11.75	-27.9	-30.4	13.8	3.80e-06	0	43	102	1048576	15	4764
2026-01-06 22:17:10.41	49.56	11.79	-28.1	-30.3	13.7	5.30e-06	0	43	102	1048576	16	4616
2026-01-06 22:17:11.41	49.72	11.84	-28.2	-30.4	13.7	8.30e-06	0	43	102	1048576	16	4639
2026-01-06 22:17:12.42	49.89	11.89	-28.2	-30.4	13.6	4.50e-06	0	43	102	1048576	16	4662
2026-01-06 22:17:13.43	50.05	11.93	-28.3	-30.7	13.5	9.10e-06	0	43	102	1048576	16	4740
2026-01-06 22:17:14.44	50.22	11.98	-28.3	-30.6	13.5	9.90e-06	0	43	102	1048576	16	4717
2026-01-06 22:17:15.44	50.39	12.03	-28.3	-30.8	13.4	1.14e-05	0	43	102	1048576	16	4761
2026-01-06 22:17:16.44	50.56	12.07	-28.3	-30.8	13.4	1.06e-05	0	43	102	1048576	16	4767
2026-01-06 22:17:17.45	50.72	12.12	-28.2	-30.5	13.6	9.10e-06	0	43	102	1048576	16	4686
2026-01-06 22:17:18.45	50.89	12.16	-28.1	-30.2	13.8	6.80e-06	0	43	102	1048576	16	4586
2026-01-06 22:17:19.45	51.06	12.21	-28.1	-30.1	13.9	1.50e-06	0	43	102	1048576	16	4543
2026-01-06 22:17:20.46	51.23	12.26	-28.2	-30.4	13.7	6.10e-06	0	43	102	1048576	16	4633
2026-01-06 22:17:21.46	51.40	12.30	-28.1	-30.2	13.8	9.10e-06	0	43	102	1048576	16	4574
2026-01-06 22:17:22.47	51.57	12.35	-27.9	-29.8	14.1	1.50e-06	0	43	102	1048576	16	4460
2026-01-06 22:17:23.47	51.74	12.39	-28.0	-30.0	13.9	2.20e-06	0	43	102	1048576	16	4533
2026-01-06 22:17:24.48	51.92	12.44	-28.1	-30.1	13.8	2.20e-06	0	43	102	1048576	16	4544
2026-01-06 22:17:25.48	52.09	12.48	-27.9	-29.8	14.0	2.20e-06	0	43	102	1048576	16	4450
2026-01-06 22:17:26.49	52.26	12.53	-28.1	-30.1	13.9	4.50e-06	0	43	102	1048576	16	4547
2026-01-06 22:17:27.49	52.43	12.57	-28.1	-30.1	13.9	1.50e-06	0	43	102	1048576	16	4551
2026-01-06 22:17:28.49	52.61	12.62	-28.2	-30.3	13.7	3.80e-06	0	43	102	1048576	16	4630
2026-01-06 22:17:29.50	52.78	12.66	-28.1	-30.3	13.8	6.10e-06	0	43	102	1048576	16	4611
2026-01-06 22:17:30.51	52.96	12.71	-28.1	-30.2	13.8	3.80e-06	0	43	102	1048576	16	4591
2026-01-06 22:17:31.51	53.13	12.75	-28.0	-30.1	13.9	2.20e-06	0	43	102	1048576	16	4539
2026-01-06 22:17:32.51	53.31	12.79	-27.5	-29.6	13.5	7.85e-05	0	43	102	1048576	16	4590
2026-01-06 22:17:33.52	53.48	12.84	-28.2	-30.3	13.4	1.50e-06	0	43	102	1048576	16	4615
2026-01-06 22:17:34.53	53.66	12.88	-28.1	-30.3	13.8	6.80e-06	0	43	102	1048576	16	4604
2026-01-06 22:17:35.54	53.84	12.93	-28.1	-30.3	13.7	1.22e-05	0	43	102	1048576	16	4605
2026-01-06 22:17:36.54	54.02	12.97	-28.0	-30.0	13.9	3.00e-06	0	43	102	1048576	16	4517
2026-01-06 22:17:37.55	54.20	13.01	-28.2	-30.3	13.8	3.00e-06	0	43	102	1048576	16	4620
2026-01-06 22:17:38.56	54.38	13.05	-28.1	-30.2	13.8	6.25e-04	0	43	102	1048576	16	4580
2026-01-06 22:17:39.56	54.56	13.10	-28.2	-30.4	13.8	2.20e-06	0	43	102	1048576	16	4624
2026-01-06 22:17:40.57	54.74	13.14	-28.1	-30.2	13.8	3.00e-06	0	43	102	1048576	16	4581
2026-01-06 22:17:41.58	54.92	13.18	-28.1	-30.2	13.8	3.80e-06	0	43	102	1048576	16	4589
2026-01-06 22:17:42.57	55.10	13.22	-28.1	-30.2	13.8	9.99e-04	0	43	102	1048576	16	4576
2026-01-06 22:17:43.58	55.28	13.27	-28.2	-30.4	13.8	6.10e-06	0	43	102	1048576	16	4627
2026-01-06 22:17:44.59	55.46	13.31	-28.2	-30.3	13.8	6.10e-06	0	43	102	1048576	16	4615
2026-01-06 22:17:45.59	55.64	13.35	-28.1	-30.1	13.9	1.04e-03	0	43	102	1048576	16	4561
2026-01-06 22:17:46.60	55.83	13.39	-28.0	-30.0	14.0	2.20e-06	0	43	102	1048576	16	4524
2026-01-06 22:17:47.61	56.01	13.43	-27.9	-30.2	14.0	8.12e-04	0	43	102	1048576	15	4697
2026-01-06 22:17:48.61	56.19	13.47	-27.8	-30.1	14.1	8.93e-04	0	43	102	1048576	15	4670
2026-01-06 22:17:49.62	56.38	13.51	-27.8	-29.9	14.2	7.00e-07	0	43	102	1048576	15	4621
2026-01-06 22:17:50.62	56.56	13.56	-27.8	-30.0	14.1	1.27e-03	0	43	102	1048576	15	4634
2026-01-06 22:17:51.63	56.75	13.60	-27.8	-29.9	14.1	3.00e-06	0	43	102	1048576	15	4612
2026-01-06 22:17:52.63	56.93	13.64	-27.7	-29.7	14.3	7.00e-07	0	43	102	1048576	15	4538
2026-01-06 22:17:53.64	57.12	13.68	-27.7	-29.9	14.2	7.08e-04	0	43	102	1048576	15	4595
2026-01-06 22:17:54.65	57.31	13.72	-27.7	-29.8	14.2	6.16e-04	0	43	102	1048576	15	4582
2026-01-06 22:17:55.65	57.50	13.76	-27.7	-29.8	14.2	2.20e-06	0	43	102	1048576	15	4585
2026-01-06 22:17:56.66	57.69	13.80	-27.8	-29.9	14.2	6.83e-04	0	43	102	1048576	15	4608
2026-01-06 22:17:57.67	57.88	13.83	-27.8	-29.9	14.2	1.08e-03	0	43	102	1048576	15	4608
2026-01-06 22:17:58.66	58.06	13.87	-27.8	-30.0	14.1	1.50e-06	0	43	102	1048576	15	4628
2026-01-06 22:17:59.67	58.25	13.91	-27.8	-30.0	14.1	2.04e-03	0	43	102	1048576	15	4649
2026-01-06 22:18:00.67	58.44	13.95	-27.7	-29.8	14.3	1.79e-03	0	43	102	1048576	15	4573
2026-01-06 22:18:01.69	58.63	13.99	-27.6	-29.6	14.4	7.00e-07	0	43	102	1048576	15	4504
2026-01-06 22:18:02.69	58.82	14.03	-27.6	-29.5	14.4	2.20e-06	0	43	102	1048576	15	4489
2026-01-06 22:18:03.70	59.02	14.06	-27.7	-29.7	14.3	0.00e+00	0	43	102	1048576	15	4543
2026-01-06 22:18:04.70	59.21	14.10	-27.5	-29.4	14.5	0.00e+00	0	43	102	1048576	15	4444
2026-01-06 22:18:05.71	59.40	14.14	-27.4	-29.1	14.7	2.25e-04	0	43	102	1048576	15	4356
2026-01-06 22:18:06.72	59.59	14.18	-27.4	-29.1	14.7	1.49e-04	0	43	102	1048576	15	4351
2026-01-06 22:18:07.73	59.79	14.21	-27.4	-29.1	14.7	0.00e+00	0	43	102	1048576	15	4376
2026-01-06 22:18:08.73	59.98	14.25	-27.5	-29.4	14.5	1.50e-06	0	43	102	1048576	15	4438
2026-01-06 22:18:09.74	60.18	14.29	-27.6	-29.5	14.4	7.47e-05	0	43	102	1048576	15	4494
2026-01-06 22:18:10.74	60.37	14.32	-27.6	-29.5	14.4	0.00e+00	0	43	102	1048576	15	4497
2026-01-06 22:18:11.75	60.57	14.36	-27.7	-29.7	14.4	1.15e-04	0	43	102	1048576	15	4540
2026-01-06 22:18:12.76	60.76	14.39	-27.7	-29.7	14.4	7.00e-07	0	43	102	1048576	15	4547
2026-01-06 22:18:13.76	60.96	14.43	-27.7	-29.7	14.4	7.00e-07	0	43	102	1048576	15	4538
2026-01-06 22:18:14.76	61.15	14.46	-27.7	-29.7	14.4	2.20e-06	0	43	102	1048576	15	4540
2026-01-06 22:18:15.76	61.35	14.50	-27.6	-29.6	14.4	0.00e+00	0	43	102	1048576	15	4497
2026-01-06 22:18:16.77	61.55	14.53	-27.7	-29.7	14.4	0.00e+00	0	43	102	1048576	15	4535
2026-01-06 22:18:17.77	61.74	14.57	-27.6	-29.5	14.5	7.00e-07	0	43	102	1048576	15	4483
2026-01-06 22:18:18.77	61.94	14.60	-27.5	-29.3	14.6	0.00e+00	0	43	102	1048576	15	4432
2026-01-06 22:18:19.78	62.14	14.64	-27.5	-29.3	14.6	1.50e-06	0	43	102	1048576	15	4430
2026-01-06 22:18:20.79	62.34	14.67	-27.5	-29.3	14.6	0.00e+00	0	43	102	1048576	15	4428
2026-01-06 22:18:21.80	62.54	14.70	-27.6	-29.5	14.5	7.00e-07	0	43	102	1048576	15	4475
2026-01-06 22:18:22.80	62.74	14.74	-27.5	-29.2	14.7	1.50e-06	0	43	102	1048576	15	4404
2026-01-06 22:18:23.81	62.94	14.77	-27.3	-28.9	14.8	7.00e-07	0	43	102	1048576	15	4304
2026-01-06 22:18:24.82	63.14	14.80	-27.3	-29.3	14.9	0.00e+00	0	43	102	1048576	14	4544
2026-01-06 22:18:25.83	63.35	14.83	-27.3	-29.3	14.9	0.00e+00	0	43	102	1048576	14	4522
2026-01-06 22:18:26.83	63.55	14.87	-27.4	-29.4	14.8	7.00e-07	0	43	102	1048576	14	4564
2026-01-06 22:18:27.84	63.75	14.90	-27.5	-29.7	14.7	7.00e-07	0	43	102	1048576	14	4654
2026-01-06 22:18:28.85	63.95	14.93	-27.4	-29.1	14.7	7.00e-07	0	43	102	1048576	15	4363
2026-01-06 22:18:29.86	64.16	14.96	-27.5	-29.2	14.7	7.00e-07	0	43	102	1048576	15	4384
2026-01-06 22:18:30.87	64.36	14.99	-27.6	-29.4	14.5	0.00e+00	0	43	102	1048576	15	4455
2026-01-06 22:18:31.87	64.57	15.02	-27.5	-29.3	14.6	0.00e+00	0	43	102	1048576	15	4424
2026-01-06 22:18:32.88	64.77	15.05	-27.6	-29.5	14.5	7.00e-07	0	43	102	1048576	15	4487
2026-01-06 22:18:33.89	64.98	15.08	-27.6	-29.6	14.5	7.00e-07	0	43	102	1048576	15	4495
2026-01-06 22:18:34.89	65.18	15.11	-27.6	-29.6	14.5	0.00e+00	0	43	102	1048576	15	4495
2026-01-06 22:18:35.90	65.39	15.14	-27.6	-29.4	14.5	7.00e-07	0	43	102	1048576	15	4460
2026-01-06 22:18:36.91	65.59	15.17	-27.5	-29.2	14.7	7.00e-07	0	43	102	1048576	15	4380
2026-01-06 22:18:37.91	65.80	15.20	-27.4	-29.1	14.7	0.00e+00	0	43	102	1048576	15	4365
2026-01-06 22:18:38.92	66.01	15.22	-27.5	-29.3	14.6	0.00e+00	0	43	102	1048576	15	4422
2026-01-06 22:18:39.93	66.22	15.25	-27.5	-29.2	14.7	7.00e-07	0	43	102	1048576	15	4385
2026-01-06 22:18:40.94	66.42	15.28	-27.7	-29.7	14.4	7.00e-07	0	43	102	1048576	15	4540
2026-01-06 22:18:41.94	66.63	15.31	-27.5	-29.4	14.6	7.00e-07	0	43	102	1048576	15	4439
2026-01-06 22:18:42.95	66.84	15.33	-27.4	-29.1	14.7	1.50e-06	0	43	102	1048576	15	4362
2026-01-06 22:18:43.96	67.05	15.36	-27.4	-29.0	14.8	0.00e+00	0	43	102	1048576	15	4325
2026-01-06 22:18:44.97	67.26	15.39	-27.5	-29.3	14.7	7.00e-07	0	43	102	1048576	15	4407
2026-01-06 22:18:45.97	67.47	15.41	-27.4	-29.0	14.8	7.00e-07	0	43	102	1048576	15	4335
2026-01-06 22:18:46.98	67.68	15.44	-27.3	-28.9	14.9	7.00e-07	0	43	102	1048576	15	4302
2026-01-06 22:18:47.97	67.88	15.46	-27.3	-28.8	14.9	0.00e+00	0	43	102	1048576	15	4279
2026-01-06 22:18:48.98	68.10	15.49	-27.3	-29.4	14.9	0.00e+00	0	43	102	1048576	14	4567
2026-01-06 22:18:49.99	68.31	15.51	-27.3	-29.3	14.9	0.00e+00	0	43	102	1048576	14	4541
2026-01-06 22:18:50.99	68.52	15.54	-27.4	-29.6	14.8	0.00e+00	0	43	102	1048576	14	4610
2026-01-06 22:18:52.00	68.73	15.56	-27.3	-29.4	14.8	0.00e+00	0	43	102	1048576	14	4559
2026-01-06 22:18:53.00	68.94	15.59	-27.4	-29.6	14.8	0.00e+00	0	43	102	1048576	14	4608
2026-01-06 22:18:54.01	69.15	15.61	-27.5	-29.4	14.6	1.50e-06	0	43	102	1048576	15	4445
2026-01-06 22:18:55.01	69.37	15.63	-27.8	-29.9	14.3	1.50e-06	0	43	102	1048576	15	4588
2026-01-06 22:18:56.02	69.58	15.65	-27.4	-29.1	14.7	0.00e+00	0	43	102	1048576	15	4372
2026-01-06 22:18:57.03	69.79	15.68	-27.3	-28.7	14.9	7.00e-07	0	43	102	1048576	15	4264
2026-01-06 22:18:58.03	70.00	15.70	-27.2	-28.6	15.0	0.00e+00	0	43	102	1048576	15	4225
2026-01-06 22:18:59.04	70.22	15.72	-27.3	-28.8	15.0	0.00e+00	0	43	102	1048576	15	4264
2026-01-06 22:19:00.04	70.43	15.74	-27.2	-28.7	14.5	6.53e-04	0	43	102	1048576	15	4242
2026-01-06 22:19:01.05	70.65	15.76	-27.4	-29.0	14.8	0.00e+00	0	43	102	1048576	15	4331
2026-01-06 22:19:02.06	70.86	15.78	-27.5	-29.3	14.2	0.00e+00	0	43	102	1048576	15	4435
2026-01-06 22:19:03.06	71.08	15.80	-27.5	-29.2	14.7	0.00e+00	0	43	102	1048576	15	4387
2026-01-06 22:19:04.07	71.29	15.82	-27.4	-29.0	14.8	7.00e-07	0	43	102	1048576	15	4336
2026-01-06 22:19:05.07	71.51	15.84	-27.4	-29.6	14.8	7.13e-04	0	43	102	1048576	14	4609
2026-01-06 22:19:06.07	71.72	15.86	-27.4	-29.6	14.8	0.00e+00	0	43	102	1048576	14	4606
2026-01-06 22:19:07.08	71.94	15.88	-27.2	-29.1	15.0	0.00e+00	0	43	102	1048576	14	4480
2026-01-06 22:19:08.09	72.16	15.90	-27.3	-29.2	15.0	0.00e+00	0	43	102	1048576	14	4502
2026-01-06 22:19:09.09	72.37	15.92	-27.4	-29.5	14.8	0.00e+00	0	43	102	1048576	14	4581
2026-01-06 22:19:10.09	72.59	15.93	-27.3	-29.3	14.9	6.80e-06	0	44	102	1048576	14	4526
2026-01-06 22:19:11.10	72.80	15.95	-27.5	-29.2	14.7	8.66e-04	0	43	102	1048576	15	4385
2026-01-06 22:19:12.11	73.02	15.97	-27.4	-28.9	14.9	0.00e+00	0	44	102	1048576	15	4315
2026-01-06 22:19:13.12	73.24	15.98	-27.3	-28.8	15.0	0.00e+00	0	43	102	1048576	15	4261
2026-01-06 22:19:14.13	73.46	16.00	-27.3	-28.8	15.0	0.00e+00	0	43	102	1048576	15	4268
2026-01-06 22:19:15.13	73.68	16.01	-27.2	-28.5	15.1	1.58e-04	0	44	102	1048576	15	4176
2026-01-06 22:19:16.14	73.90	16.03	-27.1	-28.4	15.2	3.43e-05	0	43	102	1048576	15	4153
2026-01-06 22:19:17.14	74.11	16.04	-27.2	-28.5	15.1	1.01e-04	0	43	102	1048576	15	4192
2026-01-06 22:19:18.15	74.33	16.06	-27.2	-28.5	15.1	1.80e-04	0	43	102	1048576	15	4197
2026-01-06 22:19:19.16	74.55	16.07	-27.3	-28.8	14.9	0.00e+00	0	43	102	1048576	15	4289
2026-01-06 22:19:20.16	74.77	16.09	-27.4	-29.0	14.9	7.55e-05	0	43	102	1048576	15	4323
2026-01-06 22:19:21.17	74.99	16.10	-27.5	-29.3	14.7	8.01e-05	0	43	102	1048576	15	4407
2026-01-06 22:19:22.18	75.21	16.11	-27.6	-29.4	14.6	7.00e-07	0	43	102	1048576	15	4464
2026-01-06 22:19:23.19	75.43	16.13	-27.5	-29.2	14.7	8.16e-05	0	43	102	1048576	15	4403
2026-01-06 22:19:24.19	75.65	16.14	-27.5	-29.2	14.7	1.31e-04	0	43	102	1048576	15	4398
2026-01-06 22:19:25.20	75.87	16.15	-27.6	-29.5	14.5	0.00e+00	0	43	102	1048576	15	4480
2026-01-06 22:19:26.20	76.09	16.16	-27.7	-29.8	14.4	6.12e-04	0	43	102	1048576	15	4569
2026-01-06 22:19:27.20	76.31	16.17	-27.6	-29.5	14.6	6.84e-04	0	43	102	1048576	15	4461
2026-01-06 22:19:28.21	76.53	16.18	-27.7	-29.7	14.4	7.00e-07	0	43	102	1048576	15	4543
2026-01-06 22:19:29.21	76.75	16.19	-27.6	-29.5	14.5	5.30e-06	0	43	102	1048576	15	4468
2026-01-06 22:19:30.22	76.97	16.20	-27.6	-29.4	14.6	7.00e-07	0	43	102	1048576	15	4454
2026-01-06 22:19:31.23	77.19	16.21	-27.6	-29.5	14.6	7.00e-07	0	43	102	1048576	15	4470
2026-01-06 22:19:32.23	77.41	16.22	-27.6	-29.5	14.5	5.19e-04	0	43	102	1048576	15	4475
2026-01-06 22:19:33.24	77.63	16.23	-27.6	-29.5	14.5	6.33e-04	0	43	102	1048576	15	4465
2026-01-06 22:19:34.25	77.86	16.24	-27.5	-29.3	14.6	0.00e+00	0	43	102	1048576	15	4430
2026-01-06 22:19:35.26	78.08	16.25	-27.4	-29.0	14.8	7.00e-07	0	43	102	1048576	15	4324
2026-01-06 22:19:36.27	78.30	16.25	-27.3	-29.3	15.0	0.00e+00	0	43	102	1048576	14	4530
2026-01-06 22:19:37.27	78.52	16.26	-27.3	-29.3	14.9	3.96e-05	0	43	102	1048576	14	4545
2026-01-06 22:19:38.28	78.74	16.27	-27.3	-29.3	15.0	4.89e-04	0	43	102	1048576	14	4522
2026-01-06 22:19:39.28	78.97	16.27	-27.3	-29.4	14.9	0.00e+00	0	43	102	1048576	14	4550
2026-01-06 22:19:40.29	79.19	16.28	-27.3	-29.4	14.9	0.00e+00	0	43	102	1048576	14	4561
2026-01-06 22:19:41.29	79.41	16.28	-27.3	-29.3	14.9	0.00e+00	0	43	102	1048576	14	4537
2026-01-06 22:19:42.30	79.63	16.29	-27.3	-29.4	14.9	0.00e+00	0	43	102	1048576	14	4554
2026-01-06 22:19:43.31	79.86	16.29	-27.3	-29.3	15.0	0.00e+00	0	43	102	1048576	14	4517
2026-01-06 22:19:44.32	80.08	16.30	-27.3	-29.3	14.9	0.00e+00	0	43	102	1048576	14	4538
2026-01-06 22:19:45.32	80.30	16.30	-27.4	-29.5	14.8	0.00e+00	0	43	102	1048576	14	4586
2026-01-06 22:19:46.33	80.52	16.30	-27.4	-29.6	14.8	0.00e+00	0	43	102	1048576	14	4625
2026-01-06 22:19:47.34	80.75	16.31	-27.4	-29.6	14.7	0.00e+00	0	43	102	1048576	14	4635
2026-01-06 22:19:48.34	80.97	16.31	-27.5	-29.7	14.7	0.00e+00	0	43	102	1048576	14	4638
2026-01-06 22:19:49.35	81.19	16.31	-27.4	-29.6	14.8	7.00e-07	0	44	102	1048576	14	4625
2026-01-06 22:19:50.35	81.41	16.31	-27.5	-29.2	14.7	0.00e+00	0	43	102	1048576	15	4397
2026-01-06 22:19:51.36	81.64	16.31	-27.4	-29.1	14.8	0.00e+00	0	43	102	1048576	15	4366
2026-01-06 22:19:52.36	81.86	16.32	-27.4	-28.9	14.9	7.00e-07	0	43	102	1048576	15	4312
2026-01-06 22:19:53.37	82.08	16.32	-27.4	-29.0	14.8	7.00e-07	0	43	102	1048576	15	4342
2026-01-06 22:19:54.38	82.30	16.32	-27.5	-29.2	14.7	0.00e+00	0	43	102	1048576	15	4386
2026-01-06 22:19:55.39	82.53	16.32	-27.3	-28.8	15.0	0.00e+00	0	43	102	1048576	15	4272
2026-01-06 22:19:56.40	82.75	16.31	-27.3	-28.9	14.9	0.00e+00	0	43	102	1048576	15	4299
2026-01-06 22:19:57.41	82.97	16.31	-27.4	-29.1	14.8	0.00e+00	0	43	102	1048576	15	4362
2026-01-06 22:19:58.42	83.20	16.31	-27.4	-28.9	14.8	0.00e+00	0	43	102	1048576	15	4316
2026-01-06 22:19:59.42	83.42	16.31	-27.4	-29.0	14.8	0.00e+00	0	43	102	1048576	15	4341
2026-01-06 22:20:00.43	83.64	16.31	-27.4	-29.0	14.9	0.00e+00	0	44	102	1048576	15	4328
2026-01-06 22:20:01.44	83.87	16.30	-27.4	-29.1	14.8	0.00e+00	0	43	102	1048576	15	4352
2026-01-06 22:20:02.44	84.09	16.30	-27.5	-29.1	14.7	0.00e+00	0	43	102	1048576	15	4370
2026-01-06 22:20:03.45	84.31	16.30	-27.5	-29.2	14.7	0.00e+00	0	43	102	1048576	15	4383
2026-01-06 22:20:04.45	84.53	16.29	-27.3	-28.7	15.0	7.00e-07	0	43	102	1048576	15	4249
2026-01-06 22:20:05.45	84.75	16.29	-27.3	-28.7	15.0	0.00e+00	0	43	102	1048576	15	4259
2026-01-06 22:20:06.46	84.98	16.28	-27.3	-28.7	15.0	0.00e+00	0	43	102	1048576	15	4240
2026-01-06 22:20:07.47	85.20	16.28	-27.3	-28.8	14.9	0.00e+00	0	43	102	1048576	15	4284
2026-01-06 22:20:08.47	85.42	16.27	-27.4	-29.0	14.8	0.00e+00	0	43	102	1048576	15	4331
2026-01-06 22:20:09.48	85.64	16.27	-27.5	-29.2	14.7	0.00e+00	0	43	102	1048576	15	4390
2026-01-06 22:20:10.49	85.87	16.26	-27.5	-29.3	14.6	0.00e+00	0	43	102	1048576	15	4435
2026-01-06 22:20:11.49	86.09	16.25	-27.6	-29.5	14.5	0.00e+00	0	43	102	1048576	15	4480
2026-01-06 22:20:12.50	86.31	16.25	-27.5	-29.2	14.6	1.50e-06	0	43	102	1048576	15	4406
2026-01-06 22:20:13.50	86.53	16.24	-27.5	-29.1	14.7	0.00e+00	0	43	102	1048576	15	4375
2026-01-06 22:20:14.51	86.75	16.23	-27.6	-29.4	14.6	7.00e-07	0	43	102	1048576	15	4452
2026-01-06 22:20:15.52	86.97	16.22	-27.7	-29.8	14.3	7.00e-07	0	44	102	1048576	15	4575
2026-01-06 22:20:16.53	87.20	16.21	-27.8	-29.9	14.3	0.00e+00	0	43	102	1048576	15	4608
2026-01-06 22:20:17.52	87.41	16.20	-27.8	-30.0	14.2	1.50e-06	0	43	102	1048576	15	4644
2026-01-06 22:20:18.53	87.64	16.19	-27.8	-30.0	14.2	0.00e+00	0	43	102	1048576	15	4643
2026-01-06 22:20:19.54	87.86	16.18	-27.9	-30.2	14.2	3.80e-06	0	43	102	1048576	15	4685
2026-01-06 22:20:20.55	88.08	16.17	-27.9	-30.3	14.1	7.00e-07	0	43	102	1048576	15	4717
2026-01-06 22:20:21.55	88.30	16.16	-28.2	-30.4	13.9	7.00e-07	0	43	102	1048576	16	4628
2026-01-06 22:20:22.56	88.52	16.15	-28.1	-30.1	14.1	3.80e-06	0	43	102	1048576	16	4530
2026-01-06 22:20:23.56	88.74	16.14	-27.8	-29.4	14.5	0.00e+00	0	43	102	1048576	16	4321
2026-01-06 22:20:24.57	88.96	16.13	-27.6	-28.9	14.8	0.00e+00	0	43	102	1048576	16	4179
2026-01-06 22:20:25.58	89.18	16.11	-27.4	-28.6	14.9	0.00e+00	0	43	102	1048576	16	4093
2026-01-06 22:20:26.58	89.40	16.10	-27.4	-28.6	14.9	0.00e+00	0	44	102	1048576	16	4105
2026-01-06 22:20:27.59	89.62	16.09	-27.5	-28.7	14.9	0.00e+00	0	43	102	1048576	16	4134
2026-01-06 22:20:28.60	89.84	16.07	-27.4	-28.5	15.0	7.00e-07	0	43	102	1048576	16	4095
2026-01-06 22:20:29.61	90.06	16.06	-27.5	-28.7	14.9	0.00e+00	0	43	102	1048576	16	4145
2026-01-06 22:20:30.62	90.28	16.05	-27.5	-28.7	14.9	0.00e+00	0	43	102	1048576	16	4136
2026-01-06 22:20:31.62	90.50	16.03	-27.4	-28.6	14.9	1.14e-05	0	43	102	1048576	16	4101
2026-01-06 22:20:32.62	90.72	16.02	-27.5	-28.8	14.8	2.20e-06	0	43	102	1048576	16	4166
2026-01-06 22:20:33.63	90.94	16.00	-27.6	-28.9	14.7	7.00e-07	0	43	102	1048576	16	4204
2026-01-06 22:20:34.64	91.15	15.98	-27.7	-29.1	14.6	0.00e+00	0	43	102	1048576	16	4249
2026-01-06 22:20:35.65	91.37	15.97	-27.8	-29.5	14.4	0.00e+00	0	43	102	1048576	16	4353
2026-01-06 22:20:36.66	91.59	15.95	-27.7	-29.2	14.6	1.50e-06	0	43	102	1048576	16	4270
2026-01-06 22:20:37.66	91.81	15.93	-27.6	-29.1	14.6	4.95e-05	0	43	102	1048576	16	4236
2026-01-06 22:20:38.66	92.02	15.92	-27.6	-29.0	14.7	5.79e-05	0	43	102	1048576	16	4219
2026-01-06 22:20:39.66	92.24	15.90	-27.6	-28.9	14.7	7.00e-07	0	44	102	1048576	16	4205
2026-01-06 22:20:40.66	92.46	15.88	-27.5	-28.6	14.9	7.00e-07	0	43	102	1048576	16	4112
2026-01-06 22:20:41.67	92.67	15.86	-27.4	-28.5	15.0	3.80e-06	0	44	102	1048576	16	4080
2026-01-06 22:20:42.67	92.89	15.84	-27.3	-28.8	14.9	0.00e+00	0	43	102	1048576	15	4274
2026-01-06 22:20:43.68	93.10	15.82	-27.3	-28.9	14.8	7.93e-05	0	43	102	1048576	15	4302
2026-01-06 22:20:44.69	93.32	15.80	-27.5	-29.2	14.7	2.56e-04	0	43	102	1048576	15	4393
2026-01-06 22:20:45.70	93.54	15.78	-27.4	-29.0	14.8	1.05e-04	0	43	102	1048576	15	4341
2026-01-06 22:20:46.71	93.75	15.76	-27.3	-28.8	14.8	1.30e-04	0	43	102	1048576	15	4297
2026-01-06 22:20:47.71	93.97	15.74	-27.4	-29.1	14.7	2.21e-04	0	44	102	1048576	15	4368
2026-01-06 22:20:48.72	94.18	15.72	-27.3	-28.9	14.8	1.98e-05	0	43	102	1048576	15	4321
2026-01-06 22:20:49.71	94.39	15.70	-27.3	-28.8	14.9	3.91e-04	0	43	102	1048576	15	4290
2026-01-06 22:20:50.72	94.61	15.68	-27.3	-28.9	14.8	1.75e-05	0	43	102	1048576	15	4295
2026-01-06 22:20:51.73	94.82	15.66	-27.4	-29.0	14.8	7.00e-07	0	43	102	1048576	15	4330
2026-01-06 22:20:52.74	95.04	15.63	-27.3	-28.7	14.9	5.31e-04	0	43	102	1048576	15	4262
2026-01-06 22:20:53.74	95.25	15.61	-27.1	-28.4	15.1	5.52e-04	0	43	102	1048576	15	4173
2026-01-06 22:20:54.75	95.46	15.59	-27.1	-28.4	15.1	3.20e-05	0	43	102	1048576	15	4159
2026-01-06 22:20:55.76	95.68	15.56	-27.2	-29.0	15.0	0.00e+00	0	44	102	1048576	14	4459
2026-01-06 22:20:56.76	95.89	15.54	-27.2	-29.1	15.0	2.44e-05	0	44	102	1048576	14	4470
2026-01-06 22:20:57.77	96.10	15.51	-27.2	-29.0	15.0	2.28e-05	0	43	102	1048576	14	4441
2026-01-06 22:20:58.77	96.31	15.49	-27.3	-29.3	14.9	2.26e-04	0	43	102	1048576	14	4545
2026-01-06 22:20:59.78	96.52	15.46	-27.2	-29.1	15.0	1.60e-04	0	43	102	1048576	14	4459
2026-01-06 22:21:00.79	96.73	15.44	-27.2	-29.0	15.0	6.25e-05	0	43	102	1048576	14	4436
2026-01-06 22:21:01.80	96.94	15.41	-27.2	-29.0	15.0	7.00e-07	0	43	102	1048576	14	4454
2026-01-06 22:21:02.81	97.16	15.39	-27.3	-29.2	14.9	3.20e-05	0	43	102	1048576	14	4514
2026-01-06 22:21:03.81	97.36	15.36	-27.3	-29.2	14.8	7.00e-07	0	43	102	1048576	14	4513
2026-01-06 22:21:04.82	97.57	15.33	-27.4	-29.6	14.7	1.05e-04	0	43	102	1048576	14	4627
2026-01-06 22:21:05.83	97.78	15.31	-27.4	-29.5	14.7	1.98e-05	0	43	102	1048576	14	4604
2026-01-06 22:21:06.84	97.99	15.28	-27.2	-29.2	14.9	1.14e-05	0	44	102	1048576	14	4500
2026-01-06 22:21:07.85	98.20	15.25	-27.2	-29.2	14.9	7.00e-07	0	44	102	1048576	14	4492
2026-01-06 22:21:08.86	98.41	15.22	-27.3	-29.3	14.9	0.00e+00	0	44	102	1048576	14	4523
2026-01-06 22:21:09.87	98.62	15.20	-27.3	-29.2	14.8	0.00e+00	0	44	102	1048576	14	4510
2026-01-06 22:21:10.88	98.83	15.17	-27.5	-29.3	14.5	0.00e+00	0	43	102	1048576	15	4440
2026-01-06 22:21:11.88	99.03	15.14	-27.9	-30.2	14.0	6.86e-05	0	43	102	1048576	15	4703
2026-01-06 22:21:12.88	99.24	15.11	-27.7	-29.7	14.3	5.49e-05	0	44	102	1048576	15	4558
2026-01-06 22:21:13.89	99.45	15.08	-27.5	-29.2	14.6	7.00e-07	0	43	102	1048576	15	4408
2026-01-06 22:21:14.89	99.65	15.05	-27.3	-28.8	14.8	0.00e+00	0	44	102	1048576	15	4280
2026-01-06 22:21:15.90	99.86	15.02	-27.2	-28.6	15.0	6.80e-06	0	43	102	1048576	15	4212
2026-01-06 22:21:16.91	100.06	14.99	-27.2	-28.6	14.9	0.00e+00	0	43	102	1048576	15	4239
2026-01-06 22:21:17.91	100.26	14.96	-27.1	-28.4	15.1	0.00e+00	0	44	102	1048576	15	4165
2026-01-06 22:21:18.92	100.47	14.93	-27.1	-28.2	15.1	0.00e+00	0	43	102	1048576	15	4130
2026-01-06 22:21:19.92	100.67	14.89	-27.2	-28.5	15.0	0.00e+00	0	44	102	1048576	15	4207
2026-01-06 22:21:20.92	100.87	14.86	-27.1	-28.3	15.1	0.00e+00	0	44	102	1048576	15	4137
2026-01-06 22:21:21.93	101.08	14.83	-27.1	-28.3	15.1	0.00e+00	0	44	102	1048576	15	4143
2026-01-06 22:21:22.94	101.28	14.80	-27.2	-28.5	15.0	0.00e+00	0	43	102	1048576	15	4207
2026-01-06 22:21:23.94	101.48	14.77	-27.2	-28.6	15.0	0.00e+00	0	43	102	1048576	15	4211
2026-01-06 22:21:24.94	101.68	14.73	-27.2	-28.5	15.0	0.00e+00	0	43	102	1048576	15	4204
2026-01-06 22:21:25.95	101.88	14.70	-27.2	-28.5	14.9	0.00e+00	0	43	102	1048576	15	4205
2026-01-06 22:21:26.96	102.08	14.67	-27.3	-28.8	14.8	0.00e+00	0	44	102	1048576	15	4287
2026-01-06 22:21:27.97	102.28	14.63	-27.3	-28.8	14.8	0.00e+00	0	44	102	1048576	15	4274
2026-01-06 22:21:28.97	102.48	14.60	-27.3	-28.9	14.8	0.00e+00	0	44	102	1048576	15	4306
2026-01-06 22:21:29.98	102.68	14.56	-27.6	-29.4	14.4	0.00e+00	0	43	102	1048576	15	4462
2026-01-06 22:21:30.98	102.88	14.53	-27.3	-28.8	14.7	7.00e-07	0	43	102	1048576	15	4296
2026-01-06 22:21:31.99	103.08	14.50	-27.3	-28.8	14.8	0.00e+00	0	43	102	1048576	15	4291
2026-01-06 22:21:32.99	103.28	14.46	-27.5	-29.2	14.6	0.00e+00	0	43	102	1048576	15	4404
2026-01-06 22:21:34.00	103.48	14.43	-27.4	-29.0	14.7	7.00e-07	0	44	102	1048576	15	4326
2026-01-06 22:21:35.01	103.67	14.39	-27.3	-29.4	14.7	0.00e+00	0	43	102	1048576	14	4566
2026-01-06 22:21:36.01	103.87	14.35	-27.4	-29.7	14.6	7.00e-07	0	44	102	1048576	14	4653
2026-01-06 22:21:37.02	104.07	14.32	-27.3	-29.5	14.7	0.00e+00	0	44	102	1048576	14	4588
2026-01-06 22:21:38.03	104.26	14.28	-27.2	-29.1	14.9	0.00e+00	0	44	102	1048576	14	4477
2026-01-06 22:21:39.03	104.46	14.24	-27.3	-29.2	14.9	0.00e+00	0	44	102	1048576	14	4519
2026-01-06 22:21:40.04	104.65	14.21	-27.3	-29.3	14.8	3.00e-06	0	43	102	1048576	14	4547
2026-01-06 22:21:41.04	104.84	14.17	-27.5	-29.3	14.5	0.00e+00	0	44	102	1048576	15	4426
2026-01-06 22:21:42.05	105.04	14.13	-27.3	-28.9	14.7	7.00e-07	0	44	102	1048576	15	4314
2026-01-06 22:21:43.06	105.23	14.10	-27.3	-28.8	14.7	1.50e-06	0	43	102	1048576	15	4300
2026-01-06 22:21:44.06	105.42	14.06	-27.3	-28.8	14.8	0.00e+00	0	43	102	1048576	15	4290
2026-01-06 22:21:45.07	105.62	14.02	-27.3	-28.8	14.8	0.00e+00	0	43	102	1048576	15	4286
2026-01-06 22:21:46.07	105.81	13.98	-27.3	-28.9	14.7	6.10e-06	0	44	102	1048576	15	4316
2026-01-06 22:21:47.08	106.00	13.94	-27.5	-29.3	14.5	2.20e-06	0	43	102	1048576	15	4426
2026-01-06 22:21:48.09	106.19	13.90	-27.3	-28.8	14.7	0.00e+00	0	44	102	1048576	15	4296
2026-01-06 22:21:49.09	106.38	13.87	-27.3	-28.7	14.8	9.90e-06	0	44	102	1048576	15	4261
2026-01-06 22:21:50.10	106.57	13.83	-27.3	-28.8	14.8	0.00e+00	0	44	102	1048576	15	4297
2026-01-06 22:21:51.10	106.76	13.79	-27.4	-29.0	14.7	0.00e+00	0	44	102	1048576	15	4327
2026-01-06 22:21:52.11	106.95	13.75	-27.5	-29.2	14.6	1.98e-05	0	44	102	1048576	15	4398
2026-01-06 22:21:53.12	107.14	13.71	-27.5	-29.3	14.5	3.55e-04	0	43	102	1048576	15	4422
2026-01-06 22:21:54.12	107.33	13.67	-27.5	-29.4	14.5	0.00e+00	0	43	102	1048576	15	4445
2026-01-06 22:21:55.13	107.51	13.63	-27.6	-29.5	14.4	1.06e-05	0	44	102	1048576	15	4492
2026-01-06 22:21:56.14	107.70	13.59	-27.6	-29.6	14.3	0.00e+00	0	44	102	1048576	15	4530
2026-01-06 22:21:57.14	107.89	13.54	-27.7	-29.8	14.2	1.50e-06	0	44	102	1048576	15	4565
2026-01-06 22:21:58.15	108.07	13.50	-27.6	-29.6	14.3	7.93e-04	0	44	102	1048576	15	4514
2026-01-06 22:21:59.16	108.26	13.46	-27.6	-29.5	14.3	7.24e-04	0	43	102	1048576	15	4498
2026-01-06 22:22:00.17	108.45	13.42	-27.6	-29.6	14.3	2.20e-06	0	44	102	1048576	15	4506
2026-01-06 22:22:01.18	108.63	13.38	-27.5	-29.3	14.5	1.60e-05	0	44	102	1048576	15	4422
2026-01-06 22:22:02.19	108.82	13.34	-27.4	-29.1	14.6	0.00e+00	0	43	102	1048576	15	4368
2026-01-06 22:22:03.19	109.00	13.30	-27.4	-29.1	14.6	7.00e-07	0	44	102	1048576	15	4364
2026-01-06 22:22:04.19	109.18	13.25	-27.4	-29.1	14.6	0.00e+00	0	44	102	1048576	15	4382
2026-01-06 22:22:05.20	109.36	13.21	-27.5	-29.2	14.5	0.00e+00	0	44	102	1048576	15	4404
2026-01-06 22:22:06.21	109.55	13.17	-27.5	-29.3	14.4	0.00e+00	0	43	102	1048576	15	4432
2026-01-06 22:22:07.22	109.73	13.12	-27.6	-29.4	14.3	3.00e-06	0	44	102	1048576	15	4472
2026-01-06 22:22:08.23	109.91	13.08	-27.6	-29.5	14.4	2.51e-05	0	43	102	1048576	15	4478
2026-01-06 22:22:09.23	110.09	13.04	-27.7	-29.7	14.2	2.20e-06	0	43	102	1048576	15	4554
2026-01-06 22:22:10.24	110.27	13.00	-27.7	-29.7	14.2	2.74e-05	0	43	102	1048576	15	4547
2026-01-06 22:22:11.25	110.45	12.95	-27.7	-29.8	14.2	1.83e-05	0	43	102	1048576	15	4575
2026-01-06 22:22:12.25	110.63	12.91	-27.8	-29.9	14.1	3.80e-06	0	43	102	1048576	15	4626
2026-01-06 22:22:13.25	110.81	12.86	-27.7	-29.7	14.2	7.00e-07	0	44	102	1048576	15	4550
2026-01-06 22:22:14.26	110.98	12.82	-27.7	-29.8	14.2	8.08e-05	0	44	102	1048576	15	4571
2026-01-06 22:22:15.27	111.16	12.78	-27.7	-29.8	14.1	2.20e-06	0	43	102	1048576	15	4584
2026-01-06 22:22:16.28	111.34	12.73	-27.7	-29.7	14.2	1.61e-04	0	43	102	1048576	15	4556
2026-01-06 22:22:17.28	111.52	12.69	-27.7	-29.7	14.2	0.00e+00	0	44	102	1048576	15	4563
2026-01-06 22:22:18.28	111.69	12.64	-27.7	-29.9	14.1	4.50e-06	0	43	102	1048576	15	4599
2026-01-06 22:22:19.29	111.87	12.60	-27.8	-30.1	13.9	2.09e-04	0	44	102	1048576	15	4670
2026-01-06 22:22:20.29	112.04	12.55	-27.7	-29.7	14.2	3.14e-04	0	43	102	1048576	15	4554
2026-01-06 22:22:21.29	112.21	12.51	-27.7	-29.7	14.2	2.20e-06	0	43	102	1048576	15	4551
2026-01-06 22:22:22.30	112.39	12.46	-27.8	-30.0	14.0	1.50e-06	0	44	102	1048576	15	4630
2026-01-06 22:22:23.31	112.56	12.42	-27.8	-30.0	14.0	2.20e-06	0	44	102	1048576	15	4647
2026-01-06 22:22:24.32	112.73	12.37	-27.8	-30.1	13.9	1.50e-06	0	43	102	1048576	15	4691
2026-01-06 22:22:25.32	112.91	12.33	-27.8	-30.0	14.0	3.58e-04	0	44	102	1048576	15	4646
2026-01-06 22:22:26.33	113.08	12.28	-27.8	-30.1	13.9	1.78e-04	0	43	102	1048576	15	4687
2026-01-06 22:22:27.34	113.25	12.23	-27.9	-30.3	13.8	2.20e-06	0	43	102	1048576	15	4743
2026-01-06 22:22:28.35	113.42	12.19	-27.9	-30.2	13.9	1.50e-06	0	43	102	1048576	15	4707
2026-01-06 22:22:29.35	113.59	12.14	-27.8	-30.1	13.9	1.50e-06	0	44	102	1048576	15	4691
2026-01-06 22:22:30.36	113.76	12.09	-27.9	-30.3	13.8	6.10e-06	0	43	102	1048576	15	4746
2026-01-06 22:22:31.37	113.93	12.05	-27.9	-30.3	13.8	6.10e-06	0	43	102	1048576	15	4744
2026-01-06 22:22:32.38	114.10	12.00	-27.9	-30.2	13.8	6.10e-06	0	43	102	1048576	15	4723
2026-01-06 22:22:33.39	114.27	11.95	-27.9	-30.3	13.8	9.90e-06	0	44	102	1048576	15	4734
2026-01-06 22:22:34.39	114.44	11.91	-27.9	-30.4	13.7	5.30e-06	0	43	102	1048576	15	4767
2026-01-06 22:22:35.40	114.60	11.86	-27.9	-30.4	13.7	1.37e-05	0	43	102	1048576	15	4778
2026-01-06 22:22:36.40	114.77	11.81	-27.8	-30.1	13.9	7.60e-06	0	44	102	1048576	15	4693
2026-01-06 22:22:37.41	114.94	11.76	-27.9	-30.3	13.8	3.80e-06	0	44	102	1048576	15	4740
2026-01-06 22:22:38.41	115.10	11.72	-27.9	-30.2	13.8	2.36e-05	0	43	102	1048576	15	4720
2026-01-06 22:22:39.42	115.27	11.67	-27.9	-30.3	13.8	1.98e-05	0	44	102	1048576	15	4735
2026-01-06 22:22:40.42	115.43	11.62	-27.9	-30.3	13.7	2.20e-06	0	44	102	1048576	15	4755
2026-01-06 22:22:41.43	115.59	11.57	-28.0	-30.5	13.6	1.06e-05	0	44	102	1048576	15	4800
2026-01-06 22:22:42.43	115.76	11.53	-28.0	-30.5	13.6	9.90e-06	0	44	102	1048576	15	4806
2026-01-06 22:22:43.44	115.92	11.48	-28.2	-30.4	13.6	6.10e-06	0	44	102	1048576	16	4636
2026-01-06 22:22:44.45	116.08	11.43	-28.2	-30.5	13.5	1.29e-05	0	43	102	1048576	16	4674
2026-01-06 22:22:45.45	116.24	11.38	-28.2	-30.5	13.5	7.60e-06	0	44	102	1048576	16	4692
2026-01-06 22:22:46.46	116.41	11.33	-28.2	-30.5	13.5	1.37e-05	0	44	102	1048576	16	4686
2026-01-06 22:22:47.47	116.57	11.28	-28.3	-30.6	13.4	6.80e-06	0	44	102	1048576	16	4711
2026-01-06 22:22:48.47	116.73	11.24	-28.2	-30.5	13.4	2.21e-05	0	44	102	1048576	16	4687
2026-01-06 22:22:49.48	116.89	11.19	-28.3	-30.6	13.4	1.22e-05	0	44	102	1048576	16	4731
2026-01-06 22:22:50.49	117.05	11.14	-28.2	-30.5	13.4	1.67e-05	0	43	102	1048576	16	4699
2026-01-06 22:22:51.49	117.20	11.09	-28.2	-30.5	13.5	9.10e-06	0	44	102	1048576	16	4674
2026-01-06 22:22:52.50	117.36	11.04	-28.2	-30.5	13.4	1.06e-05	0	44	102	1048576	16	4680
2026-01-06 22:22:53.50	117.52	10.99	-28.2	-30.6	13.4	1.22e-05	0	43	102	1048576	16	4703
2026-01-06 22:22:54.51	117.68	10.94	-28.2	-30.6	13.4	2.21e-05	0	43	102	1048576	16	4710
2026-01-06 22:22:55.51	117.83	10.89	-28.2	-30.6	13.4	1.29e-05	0	44	102	1048576	16	4717
2026-01-06 22:22:56.51	117.99	10.84	-28.4	-31.0	13.1	1.75e-05	0	44	102	1048576	16	4845
2026-01-06 22:22:57.51	118.14	10.79	-28.4	-30.5	13.1	4.88e-05	0	44	102	1048576	17	4595
2026-01-06 22:22:58.51	118.30	10.74	-28.3	-30.3	13.3	1.90e-05	0	43	102	1048576	17	4502
2026-01-06 22:22:59.51	118.45	10.70	-28.2	-30.1	13.4	1.90e-05	0	44	102	1048576	17	4449
2026-01-06 22:23:00.52	118.61	10.65	-28.3	-30.2	13.3	3.50e-05	0	43	102	1048576	17	4499
2026-01-06 22:23:01.53	118.76	10.60	-28.3	-30.3	13.2	2.36e-05	0	44	102	1048576	17	4515
2026-01-06 22:23:02.54	118.92	10.55	-28.3	-30.3	13.2	1.75e-05	0	43	102	1048576	17	4518
2026-01-06 22:23:03.54	119.07	10.50	-28.3	-30.3	13.2	4.42e-05	0	44	102	1048576	17	4524
2026-01-06 22:23:04.55	119.22	10.45	-28.2	-30.1	13.4	1.29e-05	0	44	102	1048576	17	4470
2026-01-06 22:23:05.56	119.37	10.40	-28.2	-30.1	13.3	1.60e-05	0	44	102	1048576	17	4465
2026-01-06 22:23:06.57	119.52	10.34	-28.3	-30.2	13.3	1.06e-05	0	43	102	1048576	17	4503
2026-01-06 22:23:07.56	119.67	10.30	-28.2	-30.1	13.3	1.83e-05	0	43	102	1048576	17	4463
2026-01-06 22:23:08.57	119.82	10.24	-28.3	-30.2	13.3	2.36e-05	0	43	102	1048576	17	4498
2026-01-06 22:23:09.58	119.97	10.19	-28.4	-30.4	13.2	3.43e-05	0	43	102	1048576	17	4548
2026-01-06 22:23:10.59	120.12	10.14	-28.4	-30.4	13.1	2.97e-05	0	44	102	1048576	17	4541
2026-01-06 22:23:11.60	120.27	10.09	-28.3	-30.3	13.2	2.67e-05	0	44	102	1048576	17	4520
2026-01-06 22:23:12.61	120.42	10.04	-28.3	-30.8	13.2	2.05e-05	0	43	102	1048576	16	4785
2026-01-06 22:23:13.62	120.57	9.99	-28.3	-30.8	13.2	1.37e-05	0	43	102	1048576	16	4787
2026-01-06 22:23:14.62	120.72	9.94	-28.3	-30.8	13.2	2.28e-05	0	44	102	1048576	16	4790
2026-01-06 22:23:15.63	120.86	9.89	-28.4	-31.1	13.0	2.44e-05	0	43	102	1048576	16	4870
2026-01-06 22:23:16.64	121.01	9.84	-28.3	-30.8	13.2	2.21e-05	0	43	102	1048576	16	4778
2026-01-06 22:23:17.65	121.16	9.79	-28.3	-30.6	13.3	1.52e-05	0	44	102	1048576	16	4733
2026-01-06 22:23:18.66	121.30	9.74	-28.2	-30.5	13.4	1.67e-05	0	44	102	1048576	16	4683
2026-01-06 22:23:19.66	121.45	9.69	-28.2	-30.6	13.3	3.05e-04	0	44	102	1048576	16	4713
2026-01-06 22:23:20.67	121.59	9.63	-28.2	-30.6	13.3	1.60e-05	0	43	102	1048576	16	4709
2026-01-06 22:23:21.68	121.73	9.58	-28.2	-30.4	13.4	1.06e-05	0	44	102	1048576	16	4662
2026-01-06 22:23:22.69	121.88	9.53	-28.3	-30.7	13.2	8.30e-06	0	44	102	1048576	16	4757
2026-01-06 22:23:23.69	122.02	9.48	-28.2	-30.6	13.3	2.36e-05	0	43	102	1048576	16	4727
2026-01-06 22:23:24.71	122.16	9.43	-28.2	-30.4	13.4	1.75e-05	0	44	102	1048576	16	4676
2026-01-06 22:23:25.71	122.31	9.38	-28.3	-30.6	13.2	2.97e-05	0	44	102	1048576	16	4742
2026-01-06 22:23:26.72	122.45	9.33	-28.3	-30.7	13.2	2.28e-05	0	44	102	1048576	16	4753
2026-01-06 22:23:27.72	122.59	9.27	-28.3	-30.7	13.2	2.28e-04	0	43	102	1048576	16	4746
2026-01-06 22:23:28.73	122.73	9.22	-28.3	-30.8	13.1	2.58e-04	0	43	102	1048576	16	4797
2026-01-06 22:23:29.74	122.87	9.17	-28.3	-30.7	13.2	2.05e-05	0	44	102	1048576	16	4779
2026-01-06 22:23:30.75	123.01	9.12	-28.4	-31.0	13.0	4.50e-05	0	44	102	1048576	16	4851
2026-01-06 22:23:31.76	123.15	9.07	-28.3	-30.8	13.1	3.89e-05	0	43	102	1048576	16	4805
2026-01-06 22:23:32.77	123.29	9.02	-28.3	-30.8	13.1	3.12e-05	0	43	102	1048576	16	4789
2026-01-06 22:23:33.77	123.43	8.96	-28.4	-31.0	13.0	3.73e-05	0	43	102	1048576	16	4850
2026-01-06 22:23:34.78	123.56	8.91	-28.4	-31.1	12.9	4.42e-05	0	43	102	1048576	16	4898
2026-01-06 22:23:35.78	123.70	8.86	-28.5	-30.8	12.8	5.41e-05	0	43	102	1048576	17	4676
2026-01-06 22:23:36.79	123.84	8.81	-28.6	-31.0	12.6	7.62e-05	0	43	102	1048576	17	4754
2026-01-06 22:23:37.80	123.97	8.76	-28.5	-30.9	12.7	1.05e-04	0	43	102	1048576	17	4719
2026-01-06 22:23:38.80	124.11	8.70	-28.6	-31.1	12.6	9.30e-05	0	43	102	1048576	17	4802
2026-01-06 22:23:39.81	124.24	8.65	-28.6	-31.1	12.6	9.68e-05	0	44	102	1048576	17	4773
2026-01-06 22:23:40.82	124.38	8.60	-28.7	-31.2	12.5	1.26e-04	0	43	102	1048576	17	4829
2026-01-06 22:23:41.82	124.51	8.55	-28.7	-31.3	12.4	1.40e-04	0	43	102	1048576	17	4856
2026-01-06 22:23:42.83	124.65	8.50	-28.7	-31.4	12.3	1.59e-04	0	44	102	1048576	17	4908
2026-01-06 22:23:43.83	124.78	8.45	-28.8	-31.5	12.3	1.76e-04	0	43	102	1048576	17	4934
2026-01-06 22:23:44.84	124.91	8.39	-28.8	-31.7	12.1	2.20e-04	0	44	102	1048576	17	4999
2026-01-06 22:23:45.85	125.05	8.34	-28.8	-31.7	12.2	2.20e-04	0	44	102	1048576	17	4993
2026-01-06 22:23:46.85	125.18	8.29	-28.8	-31.7	12.0	2.87e-04	0	44	102	1048576	17	5023
2026-01-06 22:23:47.86	125.31	8.24	-28.8	-31.6	12.1	2.78e-04	0	44	102	1048576	17	4993
2026-01-06 22:23:48.86	125.44	8.18	-28.8	-31.7	12.1	2.66e-04	0	44	102	1048576	17	5007
2026-01-06 22:23:49.86	125.57	8.13	-28.8	-31.6	12.2	2.34e-04	0	44	102	1048576	17	4966
2026-01-06 22:23:50.87	125.70	8.08	-28.8	-31.6	12.2	2.33e-04	0	44	102	1048576	17	4958
2026-01-06 22:23:51.87	125.83	8.03	-28.9	-31.8	12.0	2.82e-04	0	43	102	1048576	17	5043
2026-01-06 22:23:52.88	125.96	7.98	-28.9	-31.9	11.9	4.09e-04	0	43	102	1048576	17	5077
2026-01-06 22:23:53.90	126.09	7.92	-28.9	-31.8	12.0	3.01e-04	0	44	102	1048576	17	5027
2026-01-06 22:23:54.90	126.22	7.87	-28.9	-31.9	11.9	3.49e-04	0	43	102	1048576	17	5091
2026-01-06 22:23:55.91	126.35	7.82	-28.9	-31.8	11.9	4.20e-04	0	44	102	1048576	17	5058
2026-01-06 22:23:56.91	126.47	7.77	-28.9	-32.0	11.9	3.99e-04	0	44	102	1048576	17	5103
2026-01-06 22:23:57.91	126.60	7.72	-28.9	-32.0	11.9	3.85e-04	0	44	102	1048576	17	5110
2026-01-06 22:23:58.91	126.72	7.66	-28.9	-31.8	12.0	4.32e-04	0	44	102	1048576	17	5052
2026-01-06 22:23:59.92	126.85	7.61	-29.0	-31.7	11.7	4.59e-04	0	44	102	1048576	18	4917
2026-01-06 22:24:00.93	126.98	7.56	-28.9	-31.5	11.8	5.01e-04	0	44	102	1048576	18	4833
2026-01-06 22:24:01.94	127.10	7.51	-29.2	-32.1	11.4	7.33e-04	0	43	102	1048576	18	5046
2026-01-06 22:24:02.94	127.23	7.45	-28.9	-31.5	11.8	5.84e-04	0	43	102	1048576	18	4829
2026-01-06 22:24:03.95	127.35	7.40	-28.9	-31.3	12.0	3.76e-04	0	44	102	1048576	18	4764
2026-01-06 22:24:04.95	127.48	7.35	-28.8	-31.2	12.0	3.48e-04	0	44	102	1048576	18	4727
2026-01-06 22:24:05.96	127.60	7.30	-28.9	-31.4	11.9	3.83e-04	0	43	102	1048576	18	4795
2026-01-06 22:24:06.97	127.72	7.24	-28.9	-31.3	11.9	4.07e-04	0	44	102	1048576	18	4782
2026-01-06 22:24:07.98	127.85	7.19	-28.9	-31.5	11.7	5.58e-04	0	44	102	1048576	18	4846
2026-01-06 22:24:08.98	127.97	7.14	-28.9	-31.5	11.8	6.12e-04	0	44	102	1048576	18	4847
2026-01-06 22:24:09.99	128.09	7.09	-28.9	-31.6	11.8	4.79e-04	0	43	102	1048576	18	4861
2026-01-06 22:24:10.99	128.21	7.03	-32.8	-44.9	3.8	1.49e+00	0	44	104	1048576	25	14447

#Closed at: 2026-01-06 22:24:12
#Recorded file [1 MB]: D:/data/31010_260107_011536.dat