passes_logs/2026/01/06/R2M6_AANII_01/R2M6_AANII_01__20260106_103619_SUOMI_NPP_rec.log

#Pass ID: 20260106_103619_SUOMI NPP
#Satellite: SUOMI NPP
#Configuration: NPP
#almurnet v.1.7.20240730
#Start time: 2026-01-06 10:36:18

#Version: 2.2.20231116
#Station: R2M6_AANII_01
#Location: 30.233357 lon 59.946436 lat
#TLE: 1 37849U 11061A   26004.95404768  .00000136  00000+0  85334-4 0  9991
#TLE: 2 37849  98.7801 307.0898 0002575  80.6707 279.4760 14.19522289735281

#Time	Az	El	Level	Level2	SNR	BER	BlckErr	Temp	State	Recorded	gain1	gain2
2026-01-06 10:36:18.97	166.83	6.95	-32.1	-38.8	4.2	1.44e+00	0	41	0	0	25	7790
2026-01-06 10:36:19.97	166.84	7.03	-32.0	-37.9	4.4	1.41e+00	0	41	104	0	25	7123
2026-01-06 10:36:20.98	166.86	7.10	-31.9	-37.5	5.8	4.13e-01	0	41	0	0	25	6876
2026-01-06 10:36:21.98	166.88	7.18	-32.0	-38.1	5.6	4.26e-01	0	41	102	1048576	25	7211
2026-01-06 10:36:22.99	166.89	7.26	-32.0	-37.7	5.7	4.10e-01	0	41	102	1048576	25	6987
2026-01-06 10:36:23.99	166.91	7.34	-32.0	-37.7	5.8	3.83e-01	0	41	102	1048576	25	6964
2026-01-06 10:36:25.00	166.93	7.42	-32.0	-37.7	5.8	3.85e-01	0	41	102	1048576	25	6970
2026-01-06 10:36:26.00	166.95	7.50	-32.0	-38.1	5.6	4.08e-01	0	41	102	1048576	25	7240
2026-01-06 10:36:27.01	166.96	7.57	-31.9	-37.1	6.2	3.59e-01	0	41	102	1048576	25	6565
2026-01-06 10:36:28.02	166.98	7.65	-31.7	-36.6	6.9	2.43e-01	0	41	102	1048576	24	6339
2026-01-06 10:36:29.02	167.00	7.73	-31.5	-35.8	7.5	1.22e-01	0	41	102	1048576	24	5910
2026-01-06 10:36:30.03	167.02	7.81	-31.4	-35.0	8.1	7.93e-02	0	41	102	1048576	24	5491
2026-01-06 10:36:31.03	167.03	7.89	-31.2	-34.9	8.6	5.33e-02	0	41	102	1048576	23	5480
2026-01-06 10:36:32.04	167.05	7.97	-31.0	-34.2	9.1	2.41e-02	0	41	102	1048576	23	5171
2026-01-06 10:36:33.04	167.07	8.06	-30.9	-33.8	9.5	1.71e-02	0	41	102	1048576	23	5010
2026-01-06 10:36:34.05	167.09	8.14	-30.8	-33.2	9.9	1.03e-02	0	41	102	1048576	23	4771
2026-01-06 10:36:35.06	167.11	8.22	-30.7	-33.4	10.1	7.70e-03	0	41	102	1048576	22	4917
2026-01-06 10:36:36.07	167.12	8.30	-30.7	-33.5	10.1	6.05e-03	0	41	102	1048576	22	4940
2026-01-06 10:36:37.07	167.14	8.38	-30.7	-33.4	10.1	6.04e-03	0	41	102	1048576	22	4932
2026-01-06 10:36:38.07	167.16	8.46	-30.7	-33.5	10.1	6.45e-03	0	41	102	1048576	22	4965
2026-01-06 10:36:39.08	167.18	8.55	-30.7	-33.3	10.3	5.58e-03	0	41	102	1048576	22	4871
2026-01-06 10:36:40.08	167.20	8.63	-30.7	-33.3	10.3	5.38e-03	0	41	102	1048576	22	4854
2026-01-06 10:36:41.08	167.21	8.71	-30.5	-32.8	10.6	4.35e-03	0	41	102	1048576	22	4683
2026-01-06 10:36:42.09	167.23	8.79	-30.6	-33.0	10.5	4.02e-03	0	41	102	1048576	22	4747
2026-01-06 10:36:43.09	167.25	8.88	-30.6	-33.2	10.4	5.05e-03	0	41	102	1048576	22	4815
2026-01-06 10:36:44.09	167.27	8.96	-30.5	-32.8	10.7	3.33e-03	0	42	102	1048576	22	4676
2026-01-06 10:36:45.10	167.29	9.04	-30.5	-32.5	10.9	2.71e-03	0	41	102	1048576	22	4573
2026-01-06 10:36:46.10	167.31	9.13	-30.4	-32.4	11.0	2.21e-03	0	41	102	1048576	22	4543
2026-01-06 10:36:47.10	167.33	9.21	-30.4	-32.4	11.0	1.66e-03	0	42	102	1048576	22	4530
2026-01-06 10:36:48.10	167.35	9.30	-30.4	-32.4	11.0	1.60e-03	0	42	102	1048576	22	4538
2026-01-06 10:36:49.11	167.37	9.38	-30.3	-32.2	11.2	1.50e-03	0	41	102	1048576	22	4436
2026-01-06 10:36:50.12	167.39	9.47	-30.4	-32.2	11.2	1.33e-03	0	42	102	1048576	22	4459
2026-01-06 10:36:51.13	167.41	9.55	-30.4	-32.3	11.1	1.87e-03	0	42	102	1048576	22	4471
2026-01-06 10:36:52.14	167.42	9.64	-30.3	-31.9	11.4	1.25e-03	0	42	102	1048576	22	4353
2026-01-06 10:36:53.14	167.44	9.72	-30.3	-32.4	11.4	9.69e-04	0	42	102	1048576	21	4598
2026-01-06 10:36:54.14	167.46	9.81	-30.2	-32.3	11.4	1.08e-03	0	42	102	1048576	21	4575
2026-01-06 10:36:55.15	167.48	9.90	-30.2	-32.1	11.6	6.93e-04	0	42	102	1048576	21	4512
2026-01-06 10:36:56.15	167.50	9.98	-30.3	-32.4	11.4	8.82e-04	0	42	102	1048576	21	4624
2026-01-06 10:36:57.16	167.52	10.07	-30.1	-31.8	11.9	5.36e-04	0	42	102	1048576	21	4370
2026-01-06 10:36:58.17	167.54	10.16	-30.1	-31.8	11.8	4.56e-04	0	42	102	1048576	21	4394
2026-01-06 10:36:59.17	167.56	10.25	-30.1	-31.8	11.9	5.29e-04	0	42	102	1048576	21	4385
2026-01-06 10:37:00.17	167.58	10.34	-30.0	-31.5	12.1	2.72e-04	0	42	102	1048576	21	4278
2026-01-06 10:37:01.18	167.61	10.43	-30.0	-31.4	12.1	2.17e-04	0	42	102	1048576	21	4259
2026-01-06 10:37:02.19	167.63	10.51	-29.9	-31.1	12.4	1.81e-04	0	42	102	1048576	21	4149
2026-01-06 10:37:03.19	167.65	10.60	-29.9	-31.2	12.3	1.75e-04	0	42	102	1048576	21	4179
2026-01-06 10:37:04.20	167.67	10.69	-30.0	-31.4	12.2	2.22e-04	0	42	102	1048576	21	4232
2026-01-06 10:37:05.20	167.69	10.78	-29.9	-31.2	12.3	2.05e-04	0	42	102	1048576	21	4175
2026-01-06 10:37:06.21	167.71	10.87	-30.0	-31.3	12.3	2.04e-04	0	42	102	1048576	21	4216
2026-01-06 10:37:07.21	167.73	10.96	-30.0	-31.4	12.2	3.00e-04	0	42	102	1048576	21	4241
2026-01-06 10:37:08.22	167.75	11.06	-29.8	-31.0	12.5	1.69e-04	0	42	102	1048576	21	4112
2026-01-06 10:37:09.23	167.77	11.15	-29.9	-31.2	12.4	1.46e-04	0	42	102	1048576	21	4184
2026-01-06 10:37:10.23	167.79	11.24	-29.9	-31.2	12.3	1.43e-04	0	42	102	1048576	21	4183
2026-01-06 10:37:11.23	167.82	11.33	-30.0	-31.4	12.3	1.71e-04	0	42	102	1048576	21	4233
2026-01-06 10:37:12.24	167.84	11.42	-30.0	-31.5	12.2	2.08e-04	0	42	102	1048576	21	4257
2026-01-06 10:37:13.25	167.86	11.52	-30.1	-31.6	12.1	1.71e-04	0	42	102	1048576	21	4300
2026-01-06 10:37:14.25	167.88	11.61	-30.0	-31.6	12.1	2.52e-04	0	42	102	1048576	21	4309
2026-01-06 10:37:15.24	167.90	11.70	-30.1	-31.7	12.1	2.93e-04	0	42	102	1048576	21	4336
2026-01-06 10:37:16.24	167.92	11.79	-30.1	-31.9	11.9	4.07e-04	0	42	102	1048576	21	4407
2026-01-06 10:37:17.25	167.95	11.89	-30.2	-32.2	11.7	4.84e-04	0	42	102	1048576	21	4514
2026-01-06 10:37:18.26	167.97	11.98	-30.1	-32.0	11.9	4.56e-04	0	42	102	1048576	21	4437
2026-01-06 10:37:19.26	167.99	12.08	-30.2	-32.0	11.8	3.97e-04	0	42	102	1048576	21	4448
2026-01-06 10:37:20.27	168.01	12.17	-30.2	-32.0	11.8	4.95e-04	0	42	102	1048576	21	4459
2026-01-06 10:37:21.28	168.04	12.27	-30.2	-32.3	11.6	4.52e-04	0	42	102	1048576	21	4578
2026-01-06 10:37:22.28	168.06	12.36	-30.3	-32.7	11.4	1.02e-03	0	42	102	1048576	21	4709
2026-01-06 10:37:23.29	168.08	12.46	-30.1	-32.0	11.9	5.02e-04	0	42	102	1048576	21	4466
2026-01-06 10:37:24.28	168.11	12.56	-30.3	-32.5	11.5	6.62e-04	0	42	102	1048576	21	4636
2026-01-06 10:37:25.29	168.13	12.65	-30.0	-31.6	12.2	3.10e-04	0	42	102	1048576	21	4308
2026-01-06 10:37:26.30	168.15	12.75	-29.8	-31.5	12.6	1.04e-04	0	42	102	1048576	20	4366
2026-01-06 10:37:27.30	168.18	12.85	-29.5	-30.7	13.1	3.50e-05	0	42	102	1048576	20	4124
2026-01-06 10:37:28.31	168.20	12.95	-29.5	-30.5	13.2	2.97e-05	0	42	102	1048576	20	4070
2026-01-06 10:37:29.32	168.22	13.05	-29.4	-30.3	13.4	1.60e-05	0	42	102	1048576	20	4003
2026-01-06 10:37:30.33	168.25	13.15	-29.4	-30.4	13.4	1.37e-05	0	43	102	1048576	20	4019
2026-01-06 10:37:31.34	168.27	13.25	-29.3	-30.1	13.6	1.22e-05	0	42	102	1048576	20	3923
2026-01-06 10:37:32.35	168.30	13.35	-29.3	-30.4	13.7	6.10e-06	0	42	102	1048576	19	4111
2026-01-06 10:37:33.35	168.32	13.45	-29.2	-30.2	13.9	6.80e-06	0	42	102	1048576	19	4032
2026-01-06 10:37:34.36	168.35	13.55	-29.3	-30.4	13.7	4.50e-06	0	42	102	1048576	19	4107
2026-01-06 10:37:35.37	168.37	13.65	-29.3	-30.5	13.7	8.30e-06	0	42	102	1048576	19	4116
2026-01-06 10:37:36.37	168.40	13.75	-29.3	-30.4	13.8	3.80e-06	0	42	102	1048576	19	4077
2026-01-06 10:37:37.38	168.42	13.85	-29.3	-30.4	13.8	4.50e-06	0	43	102	1048576	19	4094
2026-01-06 10:37:38.39	168.45	13.96	-29.4	-30.6	13.7	6.10e-06	0	42	102	1048576	19	4153
2026-01-06 10:37:39.39	168.47	14.06	-29.3	-30.5	13.8	3.80e-06	0	43	102	1048576	19	4118
2026-01-06 10:37:40.40	168.50	14.16	-29.4	-30.6	13.6	6.10e-06	0	43	102	1048576	19	4154
2026-01-06 10:37:41.41	168.52	14.27	-29.3	-30.5	13.7	9.90e-06	0	42	102	1048576	19	4113
2026-01-06 10:37:42.42	168.55	14.37	-29.4	-30.7	13.6	1.60e-05	0	42	102	1048576	19	4186
2026-01-06 10:37:43.42	168.57	14.47	-29.5	-30.9	13.5	1.14e-05	0	43	102	1048576	19	4222
2026-01-06 10:37:44.43	168.60	14.58	-29.4	-30.7	13.7	4.50e-06	0	43	102	1048576	19	4161
2026-01-06 10:37:45.43	168.63	14.68	-29.4	-30.7	13.7	1.22e-05	0	43	102	1048576	19	4165
2026-01-06 10:37:46.44	168.65	14.79	-29.5	-30.8	13.6	6.80e-06	0	43	102	1048576	19	4198
2026-01-06 10:37:47.45	168.68	14.90	-29.5	-30.8	13.6	1.06e-05	0	43	102	1048576	19	4185
2026-01-06 10:37:48.45	168.71	15.00	-29.2	-30.2	14.0	9.10e-06	0	43	102	1048576	19	4025
2026-01-06 10:37:49.45	168.73	15.11	-29.3	-30.2	14.0	5.30e-06	0	43	102	1048576	19	4025
2026-01-06 10:37:50.46	168.76	15.22	-29.3	-30.4	13.9	3.80e-06	0	43	102	1048576	19	4079
2026-01-06 10:37:51.47	168.79	15.33	-29.3	-30.3	14.0	6.10e-06	0	43	102	1048576	19	4040
2026-01-06 10:37:52.48	168.82	15.44	-29.1	-29.9	14.2	0.00e+00	0	43	102	1048576	19	3928
2026-01-06 10:37:53.49	168.84	15.55	-29.2	-29.9	14.2	7.00e-07	0	43	102	1048576	19	3940
2026-01-06 10:37:54.49	168.87	15.66	-29.2	-30.1	14.1	2.20e-06	0	43	102	1048576	19	3981
2026-01-06 10:37:55.50	168.90	15.77	-29.3	-30.2	14.0	3.80e-06	0	43	102	1048576	19	4017
2026-01-06 10:37:56.51	168.93	15.88	-29.3	-30.2	14.1	7.00e-07	0	42	102	1048576	19	4000
2026-01-06 10:37:57.51	168.96	15.99	-29.3	-30.2	14.1	3.00e-06	0	42	102	1048576	19	4008
2026-01-06 10:37:58.52	168.98	16.10	-29.2	-30.1	14.2	7.00e-07	0	43	102	1048576	19	3979
2026-01-06 10:37:59.52	169.01	16.21	-29.2	-30.1	14.1	7.00e-07	0	43	102	1048576	19	3981
2026-01-06 10:38:00.53	169.04	16.32	-29.3	-30.3	14.0	9.10e-06	0	43	102	1048576	19	4028
2026-01-06 10:38:01.53	169.07	16.44	-29.2	-30.0	14.2	3.80e-06	0	43	102	1048576	19	3958
2026-01-06 10:38:02.54	169.10	16.55	-29.3	-30.2	14.1	7.00e-07	0	43	102	1048576	19	3989
2026-01-06 10:38:03.54	169.13	16.67	-29.3	-30.2	14.1	3.80e-06	0	43	102	1048576	19	3994
2026-01-06 10:38:04.55	169.16	16.78	-29.3	-30.2	14.1	0.00e+00	0	43	102	1048576	19	3998
2026-01-06 10:38:05.55	169.19	16.90	-29.2	-30.0	14.2	4.50e-06	0	43	102	1048576	19	3956
2026-01-06 10:38:06.56	169.22	17.01	-29.3	-30.2	14.1	6.80e-06	0	43	102	1048576	19	4004
2026-01-06 10:38:07.56	169.25	17.13	-29.4	-30.5	13.9	4.50e-06	0	43	102	1048576	19	4098
2026-01-06 10:38:08.57	169.28	17.25	-29.6	-31.0	13.6	6.80e-06	0	43	102	1048576	19	4243
2026-01-06 10:38:09.58	169.31	17.36	-29.6	-30.9	13.7	1.06e-05	0	43	102	1048576	19	4217
2026-01-06 10:38:10.59	169.34	17.48	-29.8	-31.4	13.3	9.10e-06	0	43	102	1048576	19	4376
2026-01-06 10:38:11.59	169.37	17.60	-29.7	-31.4	13.4	1.37e-05	0	43	102	1048576	19	4361
2026-01-06 10:38:12.60	169.40	17.72	-29.9	-31.8	13.1	2.21e-05	0	43	102	1048576	19	4472
2026-01-06 10:38:13.60	169.44	17.84	-29.9	-31.5	12.9	4.27e-05	0	43	102	1048576	20	4305
2026-01-06 10:38:14.61	169.47	17.96	-29.9	-31.5	13.0	4.11e-05	0	43	102	1048576	20	4304
2026-01-06 10:38:15.62	169.50	18.08	-29.9	-31.5	13.0	3.50e-05	0	43	102	1048576	20	4309
2026-01-06 10:38:16.62	169.53	18.20	-30.0	-31.7	12.9	4.34e-05	0	43	102	1048576	20	4358
2026-01-06 10:38:17.63	169.56	18.33	-29.9	-31.4	13.0	5.11e-05	0	43	102	1048576	20	4277
2026-01-06 10:38:18.63	169.60	18.45	-29.8	-31.1	13.2	1.75e-05	0	43	102	1048576	20	4169
2026-01-06 10:38:19.64	169.63	18.57	-29.9	-31.2	13.2	1.75e-05	0	43	102	1048576	20	4208
2026-01-06 10:38:20.64	169.66	18.69	-30.0	-31.6	12.9	2.67e-05	0	43	102	1048576	20	4326
2026-01-06 10:38:21.65	169.70	18.82	-29.9	-31.4	13.1	4.19e-05	0	43	102	1048576	20	4265
2026-01-06 10:38:22.65	169.73	18.94	-29.9	-31.4	13.1	1.90e-05	0	43	102	1048576	20	4252
2026-01-06 10:38:23.66	169.76	19.07	-30.0	-31.6	13.0	4.80e-05	0	43	102	1048576	20	4325
2026-01-06 10:38:24.66	169.80	19.20	-30.0	-31.6	12.9	6.25e-05	0	43	102	1048576	20	4343
2026-01-06 10:38:25.67	169.83	19.32	-30.0	-31.6	12.9	6.25e-05	0	43	102	1048576	20	4349
2026-01-06 10:38:26.67	169.87	19.45	-30.1	-31.9	12.7	5.03e-05	0	43	102	1048576	20	4437
2026-01-06 10:38:27.68	169.90	19.58	-30.1	-31.9	12.8	6.40e-05	0	43	102	1048576	20	4416
2026-01-06 10:38:28.69	169.94	19.71	-30.1	-31.9	12.7	8.54e-05	0	43	102	1048576	20	4425
2026-01-06 10:38:29.70	169.97	19.84	-30.1	-32.0	12.7	1.04e-04	0	43	102	1048576	20	4451
2026-01-06 10:38:30.71	170.01	19.97	-30.3	-32.6	12.3	8.85e-05	0	43	102	1048576	20	4655
2026-01-06 10:38:31.71	170.05	20.10	-30.5	-32.4	12.1	2.17e-04	0	43	102	1048576	21	4502
2026-01-06 10:38:32.71	170.08	20.23	-30.3	-31.8	12.5	1.43e-04	0	43	102	1048576	21	4315
2026-01-06 10:38:33.72	170.12	20.37	-30.2	-31.7	12.6	8.77e-05	0	43	102	1048576	21	4254
2026-01-06 10:38:34.73	170.16	20.50	-30.2	-31.8	12.5	7.70e-05	0	43	102	1048576	21	4290
2026-01-06 10:38:35.73	170.19	20.63	-30.1	-31.5	12.8	5.41e-05	0	43	102	1048576	21	4195
2026-01-06 10:38:36.74	170.23	20.77	-30.2	-31.6	12.7	7.47e-05	0	43	102	1048576	21	4233
2026-01-06 10:38:37.74	170.27	20.90	-30.2	-31.6	12.7	1.10e-04	0	43	102	1048576	21	4232
2026-01-06 10:38:38.74	170.31	21.04	-30.3	-31.9	12.4	1.19e-04	0	43	102	1048576	21	4342
2026-01-06 10:38:39.75	170.35	21.18	-30.2	-31.7	12.7	1.11e-04	0	43	102	1048576	21	4254
2026-01-06 10:38:40.76	170.38	21.31	-30.1	-31.5	12.8	7.09e-05	0	43	102	1048576	21	4191
2026-01-06 10:38:41.77	170.42	21.45	-30.4	-32.1	12.4	1.08e-04	0	43	102	1048576	21	4408
2026-01-06 10:38:42.77	170.46	21.59	-30.2	-31.8	12.6	1.62e-04	0	43	102	1048576	21	4289
2026-01-06 10:38:43.78	170.50	21.73	-30.1	-31.5	12.8	7.70e-05	0	43	102	1048576	21	4188
2026-01-06 10:38:44.79	170.54	21.87	-30.2	-31.7	12.7	5.79e-05	0	43	102	1048576	21	4257
2026-01-06 10:38:45.79	170.58	22.01	-30.2	-31.7	12.7	5.87e-05	0	43	102	1048576	21	4253
2026-01-06 10:38:46.80	170.62	22.16	-30.2	-31.6	12.7	7.70e-05	0	43	102	1048576	21	4232
2026-01-06 10:38:47.81	170.67	22.30	-30.4	-32.1	12.4	7.24e-05	0	43	102	1048576	21	4401
2026-01-06 10:38:48.81	170.71	22.44	-30.3	-31.9	12.5	1.69e-04	0	43	102	1048576	21	4341
2026-01-06 10:38:49.82	170.75	22.59	-30.3	-31.8	12.7	9.00e-05	0	43	102	1048576	21	4295
2026-01-06 10:38:50.83	170.79	22.73	-30.2	-31.7	12.7	9.68e-05	0	43	102	1048576	21	4269
2026-01-06 10:38:51.83	170.83	22.88	-30.2	-31.7	12.7	9.07e-05	0	43	102	1048576	21	4257
2026-01-06 10:38:52.84	170.88	23.03	-30.3	-31.8	12.7	9.99e-05	0	43	102	1048576	21	4294
2026-01-06 10:38:53.83	170.92	23.17	-30.5	-32.3	12.3	1.16e-04	0	43	102	1048576	21	4469
2026-01-06 10:38:54.84	170.96	23.32	-30.2	-31.5	12.8	1.53e-04	0	43	102	1048576	21	4196
2026-01-06 10:38:55.85	171.01	23.47	-30.1	-31.3	13.0	5.49e-05	0	43	102	1048576	21	4124
2026-01-06 10:38:56.85	171.05	23.62	-30.1	-31.3	13.0	3.89e-05	0	43	102	1048576	21	4135
2026-01-06 10:38:57.85	171.10	23.77	-30.1	-31.4	12.9	3.43e-05	0	43	102	1048576	21	4165
2026-01-06 10:38:58.86	171.14	23.92	-30.0	-31.1	13.1	1.90e-05	0	43	102	1048576	21	4084
2026-01-06 10:38:59.87	171.19	24.08	-30.0	-31.1	13.1	3.73e-05	0	43	102	1048576	21	4076
2026-01-06 10:39:00.87	171.23	24.23	-29.9	-30.7	13.3	2.97e-05	0	43	102	1048576	21	3964
2026-01-06 10:39:01.87	171.28	24.38	-30.0	-31.2	13.1	1.37e-05	0	43	102	1048576	21	4095
2026-01-06 10:39:02.88	171.33	24.54	-30.1	-31.4	13.0	4.57e-05	0	43	102	1048576	21	4151
2026-01-06 10:39:03.88	171.37	24.70	-30.0	-31.0	13.2	4.27e-05	0	43	102	1048576	21	4044
2026-01-06 10:39:04.89	171.42	24.85	-30.2	-31.6	12.8	3.58e-05	0	43	102	1048576	21	4210
2026-01-06 10:39:05.89	171.47	25.01	-30.1	-31.2	13.0	5.41e-05	0	43	102	1048576	21	4107
2026-01-06 10:39:06.90	171.52	25.17	-30.0	-30.9	13.3	2.05e-05	0	43	102	1048576	21	4007
2026-01-06 10:39:07.90	171.57	25.33	-30.1	-31.2	13.0	3.05e-05	0	43	102	1048576	21	4097
2026-01-06 10:39:08.91	171.62	25.49	-29.9	-30.6	13.5	2.44e-05	0	43	102	1048576	21	3937
2026-01-06 10:39:09.91	171.67	25.65	-29.9	-30.6	13.5	7.60e-06	0	43	102	1048576	21	3920
2026-01-06 10:39:10.92	171.72	25.82	-29.8	-30.5	13.5	6.80e-06	0	43	102	1048576	21	3900
2026-01-06 10:39:11.92	171.77	25.98	-29.9	-31.2	13.4	7.60e-06	0	43	102	1048576	20	4174
2026-01-06 10:39:12.93	171.82	26.15	-29.8	-30.9	13.6	7.60e-06	0	43	102	1048576	20	4093
2026-01-06 10:39:13.94	171.87	26.31	-29.9	-31.1	13.5	6.10e-06	0	43	102	1048576	20	4155
2026-01-06 10:39:14.94	171.93	26.48	-29.9	-31.2	13.4	2.21e-05	0	43	102	1048576	20	4178
2026-01-06 10:39:15.95	171.98	26.65	-30.0	-31.4	13.3	1.83e-05	0	43	102	1048576	20	4255
2026-01-06 10:39:16.96	172.03	26.82	-30.1	-31.7	13.1	1.90e-05	0	43	102	1048576	20	4346
2026-01-06 10:39:17.96	172.09	26.99	-30.1	-31.7	13.1	4.80e-05	0	43	102	1048576	20	4329
2026-01-06 10:39:18.97	172.14	27.16	-30.0	-31.4	13.3	2.05e-05	0	43	102	1048576	20	4260
2026-01-06 10:39:19.97	172.20	27.33	-30.2	-32.1	12.8	3.50e-05	0	43	102	1048576	20	4466
2026-01-06 10:39:20.97	172.25	27.50	-29.7	-30.8	13.7	3.12e-05	0	43	102	1048576	20	4050
2026-01-06 10:39:21.98	172.31	27.68	-29.8	-30.8	13.7	5.30e-06	0	43	102	1048576	20	4065
2026-01-06 10:39:22.99	172.37	27.86	-30.0	-31.4	13.3	2.13e-05	0	43	102	1048576	20	4247
2026-01-06 10:39:23.99	172.42	28.03	-29.8	-30.9	13.7	6.80e-06	0	43	102	1048576	20	4076
2026-01-06 10:39:24.99	172.48	28.21	-29.9	-31.3	13.4	3.80e-06	0	43	102	1048576	20	4203
2026-01-06 10:39:26.00	172.54	28.39	-29.7	-30.8	13.7	1.06e-05	0	43	102	1048576	20	4059
2026-01-06 10:39:27.01	172.60	28.57	-29.8	-30.9	13.7	9.90e-06	0	43	102	1048576	20	4089
2026-01-06 10:39:28.02	172.66	28.75	-30.0	-31.4	13.3	1.37e-05	0	43	102	1048576	20	4227
2026-01-06 10:39:29.03	172.72	28.93	-30.2	-32.0	13.0	2.89e-05	0	43	102	1048576	20	4437
2026-01-06 10:39:30.04	172.78	29.12	-30.3	-32.4	12.7	5.64e-05	0	43	102	1048576	20	4563
2026-01-06 10:39:31.05	172.84	29.30	-30.5	-32.4	12.3	4.19e-05	0	43	102	1048576	21	4492
2026-01-06 10:39:32.05	172.91	29.49	-30.5	-32.4	12.4	1.20e-04	0	43	102	1048576	21	4475
2026-01-06 10:39:33.06	172.97	29.68	-30.4	-32.2	12.5	1.22e-04	0	43	102	1048576	21	4389
2026-01-06 10:39:34.07	173.03	29.87	-30.7	-33.0	12.0	7.17e-05	0	43	102	1048576	21	4681
2026-01-06 10:39:35.07	173.10	30.05	-30.7	-32.9	12.0	3.01e-04	0	43	102	1048576	21	4650
2026-01-06 10:39:36.07	173.16	30.24	-30.4	-32.2	12.5	1.45e-04	0	43	102	1048576	21	4393
2026-01-06 10:39:37.07	173.23	30.43	-30.8	-33.3	11.7	4.38e-04	0	43	102	1048576	21	4792
2026-01-06 10:39:38.08	173.30	30.63	-30.9	-33.5	11.5	7.67e-04	0	43	102	1048576	21	4882
2026-01-06 10:39:39.09	173.36	30.82	-30.8	-33.3	11.6	4.90e-04	0	43	102	1048576	21	4802
2026-01-06 10:39:40.10	173.43	31.02	-31.2	-34.1	10.9	1.48e-03	0	43	102	1048576	22	4997
2026-01-06 10:39:41.11	173.50	31.22	-31.3	-34.3	10.8	2.95e-03	0	43	102	1048576	22	5070
2026-01-06 10:39:42.11	173.57	31.41	-31.5	-34.5	10.2	5.91e-03	0	43	102	1048576	23	5090
2026-01-06 10:39:43.12	173.64	31.62	-31.5	-34.3	10.3	5.25e-03	0	43	102	1048576	23	5006
2026-01-06 10:39:44.12	173.72	31.82	-31.6	-34.8	9.9	6.99e-03	0	43	102	1048576	23	5228
2026-01-06 10:39:45.13	173.79	32.02	-31.5	-34.4	10.2	6.16e-03	0	43	102	1048576	23	5059
2026-01-06 10:39:46.13	173.86	32.22	-31.4	-34.1	10.3	4.01e-03	0	43	102	1048576	23	4933
2026-01-06 10:39:47.14	173.94	32.43	-31.3	-33.9	10.6	7.14e-03	0	43	102	1048576	23	4816
2026-01-06 10:39:48.15	174.01	32.63	-31.3	-33.9	10.7	4.08e-03	0	43	102	1048576	23	4851
2026-01-06 10:39:49.15	174.09	32.84	-31.4	-34.1	10.5	3.68e-03	0	43	102	1048576	23	4925
2026-01-06 10:39:50.15	174.16	33.05	-31.2	-33.5	11.0	2.83e-03	0	43	102	1048576	23	4692
2026-01-06 10:39:51.16	174.24	33.26	-31.1	-33.0	11.4	1.28e-03	0	43	102	1048576	23	4482
2026-01-06 10:39:52.17	174.32	33.47	-31.0	-32.8	11.5	1.07e-03	0	43	102	1048576	23	4435
2026-01-06 10:39:53.17	174.40	33.68	-30.5	-31.8	12.6	2.38e-04	0	43	102	1048576	22	4168
2026-01-06 10:39:54.18	174.48	33.90	-30.2	-31.5	13.0	8.85e-05	0	43	102	1048576	21	4179
2026-01-06 10:39:55.18	174.56	34.11	-30.2	-31.3	13.1	5.11e-05	0	43	102	1048576	21	4115
2026-01-06 10:39:56.19	174.65	34.33	-30.1	-31.1	13.4	2.36e-05	0	43	102	1048576	21	4048
2026-01-06 10:39:57.20	174.73	34.55	-30.0	-30.8	13.5	1.22e-05	0	43	102	1048576	21	3978
2026-01-06 10:39:58.20	174.82	34.77	-30.2	-31.4	13.2	1.29e-05	0	43	102	1048576	21	4135
2026-01-06 10:39:59.21	174.90	35.00	-30.2	-31.6	13.1	4.11e-05	0	43	102	1048576	21	4191
2026-01-06 10:40:00.21	174.99	35.22	-30.1	-31.2	13.3	2.13e-05	0	43	102	1048576	21	4080
2026-01-06 10:40:01.22	175.08	35.44	-30.2	-31.4	13.2	1.67e-05	0	43	102	1048576	21	4157
2026-01-06 10:40:02.23	175.17	35.67	-30.1	-31.1	13.3	2.67e-05	0	43	102	1048576	21	4064
2026-01-06 10:40:03.23	175.26	35.90	-30.0	-30.9	13.4	7.60e-06	0	43	102	1048576	21	3995
2026-01-06 10:40:04.24	175.35	36.13	-30.0	-30.9	13.5	1.37e-05	0	43	102	1048576	21	3987
2026-01-06 10:40:05.24	175.45	36.36	-30.2	-31.3	13.2	2.59e-05	0	43	102	1048576	21	4118
2026-01-06 10:40:06.25	175.54	36.59	-30.3	-31.7	12.9	4.95e-05	0	43	102	1048576	21	4245
2026-01-06 10:40:07.26	175.64	36.83	-30.4	-32.0	12.8	5.79e-05	0	43	102	1048576	21	4318
2026-01-06 10:40:08.27	175.74	37.07	-30.5	-32.2	12.6	1.72e-04	0	43	102	1048576	21	4397
2026-01-06 10:40:09.28	175.84	37.30	-30.9	-33.5	11.7	4.65e-04	0	43	102	1048576	21	4869
2026-01-06 10:40:10.29	175.94	37.54	-30.9	-33.4	11.8	3.89e-04	0	43	102	1048576	21	4836
2026-01-06 10:40:11.30	176.04	37.79	-30.9	-33.1	11.7	1.15e-03	0	43	102	1048576	22	4627
2026-01-06 10:40:12.30	176.14	38.03	-30.7	-32.4	12.1	4.03e-04	0	43	102	1048576	22	4377
2026-01-06 10:40:13.30	176.25	38.27	-30.8	-32.7	12.0	3.23e-04	0	43	102	1048576	22	4475
2026-01-06 10:40:14.31	176.35	38.52	-30.9	-33.0	11.7	5.36e-04	0	43	102	1048576	22	4577
2026-01-06 10:40:15.32	176.46	38.77	-30.7	-32.4	12.2	2.70e-04	0	43	102	1048576	22	4369
2026-01-06 10:40:16.32	176.57	39.01	-30.7	-32.2	12.2	2.17e-04	0	43	102	1048576	22	4315
2026-01-06 10:40:17.32	176.68	39.26	-30.4	-31.6	12.8	1.47e-04	0	43	102	1048576	22	4104
2026-01-06 10:40:18.32	176.79	39.51	-30.5	-31.6	12.7	1.56e-04	0	43	102	1048576	22	4115
2026-01-06 10:40:19.33	176.91	39.77	-30.1	-31.2	13.3	4.42e-05	0	43	102	1048576	21	4075
2026-01-06 10:40:20.34	177.02	40.03	-30.2	-31.5	13.1	4.73e-05	0	43	102	1048576	21	4146
2026-01-06 10:40:21.35	177.14	40.29	-30.0	-30.9	13.5	2.21e-05	0	43	102	1048576	21	3984
2026-01-06 10:40:22.35	177.26	40.55	-30.2	-31.3	13.3	1.75e-05	0	43	102	1048576	21	4092
2026-01-06 10:40:23.36	177.38	40.81	-30.7	-32.7	12.3	9.61e-05	0	43	102	1048576	21	4570
2026-01-06 10:40:24.36	177.51	41.07	-30.7	-32.8	12.4	1.38e-04	0	43	102	1048576	21	4580
2026-01-06 10:40:25.37	177.63	41.34	-31.1	-33.4	11.5	3.74e-04	0	43	102	1048576	22	4728
2026-01-06 10:40:26.38	177.76	41.60	-31.1	-33.7	11.3	8.19e-04	0	43	102	1048576	22	4822
2026-01-06 10:40:27.39	177.89	41.87	-31.1	-33.5	11.4	6.87e-04	0	43	102	1048576	22	4760
2026-01-06 10:40:28.39	178.02	42.14	-31.2	-33.9	11.2	1.39e-03	0	43	102	1048576	22	4911
2026-01-06 10:40:29.40	178.16	42.42	-31.5	-34.8	10.6	1.64e-03	0	43	102	1048576	22	5239
2026-01-06 10:40:30.40	178.29	42.69	-31.5	-34.6	10.6	1.69e-03	0	43	102	1048576	22	5190
2026-01-06 10:40:31.41	178.43	42.97	-31.0	-33.2	11.7	1.43e-03	0	43	102	1048576	22	4615
2026-01-06 10:40:32.41	178.57	43.24	-30.6	-32.1	12.5	2.02e-04	0	43	102	1048576	22	4269
2026-01-06 10:40:33.42	178.71	43.52	-30.3	-31.6	13.1	2.89e-05	0	43	102	1048576	21	4206
2026-01-06 10:40:34.43	178.86	43.81	-30.2	-31.3	13.4	4.04e-05	0	43	102	1048576	21	4086
2026-01-06 10:40:35.43	179.01	44.09	-30.2	-31.5	13.2	2.21e-05	0	43	102	1048576	21	4161
2026-01-06 10:40:36.44	179.16	44.37	-30.6	-32.4	12.5	7.24e-05	0	43	102	1048576	21	4444
2026-01-06 10:40:37.44	179.31	44.66	-30.5	-32.3	12.7	2.13e-04	0	43	102	1048576	21	4403
2026-01-06 10:40:38.45	179.47	44.95	-31.0	-33.2	11.7	4.62e-04	0	43	102	1048576	22	4642
2026-01-06 10:40:39.45	179.63	45.24	-31.0	-33.2	11.7	9.61e-04	0	43	102	1048576	22	4632
2026-01-06 10:40:40.46	179.79	45.53	-31.1	-32.9	11.6	9.69e-04	0	43	102	1048576	23	4434
2026-01-06 10:40:41.47	179.95	45.83	-31.5	-34.2	10.6	3.75e-03	0	43	102	1048576	23	4938
2026-01-06 10:40:42.48	180.12	46.13	-31.4	-33.8	10.9	2.27e-03	0	43	102	1048576	23	4757
2026-01-06 10:40:43.49	180.30	46.43	-31.3	-33.5	11.2	4.76e-03	0	43	102	1048576	23	4649
2026-01-06 10:40:44.49	180.47	46.73	-31.4	-34.0	10.9	2.56e-03	0	43	102	1048576	23	4826
2026-01-06 10:40:45.49	180.64	47.03	-31.5	-34.4	10.6	2.00e-03	0	43	102	1048576	23	4992
2026-01-06 10:40:46.51	180.83	47.33	-31.4	-34.0	10.8	1.91e-03	0	43	102	1048576	23	4834
2026-01-06 10:40:47.51	181.01	47.64	-31.5	-34.2	10.7	1.97e-03	0	43	102	1048576	23	4902
2026-01-06 10:40:48.52	181.20	47.95	-31.3	-33.5	11.2	2.29e-03	0	43	102	1048576	23	4660
2026-01-06 10:40:49.52	181.39	48.26	-31.0	-32.8	11.7	6.87e-04	0	43	102	1048576	23	4384
2026-01-06 10:40:50.53	181.59	48.57	-31.1	-33.0	11.6	7.63e-04	0	43	102	1048576	23	4485
2026-01-06 10:40:51.53	181.79	48.88	-30.4	-31.5	12.9	6.48e-05	0	43	102	1048576	22	4058
2026-01-06 10:40:52.54	181.99	49.20	-30.2	-31.4	13.3	3.12e-05	0	43	102	1048576	21	4136
2026-01-06 10:40:53.55	182.20	49.52	-29.8	-30.4	14.0	1.06e-05	0	43	102	1048576	21	3841
2026-01-06 10:40:54.56	182.41	49.84	-29.9	-30.5	13.9	1.37e-05	0	43	102	1048576	21	3868
2026-01-06 10:40:55.56	182.63	50.16	-29.6	-30.3	14.2	1.50e-06	0	43	102	1048576	20	3894
2026-01-06 10:40:56.57	182.85	50.48	-29.5	-30.0	14.4	0.00e+00	0	43	102	1048576	20	3803
2026-01-06 10:40:57.57	183.07	50.80	-29.3	-30.0	14.8	7.00e-07	0	43	102	1048576	19	3903
2026-01-06 10:40:58.57	183.30	51.13	-29.2	-29.6	15.1	0.00e+00	0	43	102	1048576	19	3800
2026-01-06 10:40:59.58	183.54	51.46	-28.6	-28.8	15.9	0.00e+00	0	43	102	1048576	18	3661
2026-01-06 10:41:00.58	183.78	51.79	-28.5	-28.4	16.1	0.00e+00	0	43	102	1048576	18	3580
2026-01-06 10:41:01.59	184.03	52.12	-28.3	-28.4	16.4	0.00e+00	0	43	102	1048576	17	3672
2026-01-06 10:41:02.60	184.28	52.46	-28.8	-29.8	15.5	0.00e+00	0	43	102	1048576	17	4028
2026-01-06 10:41:03.61	184.54	52.79	-28.7	-29.1	15.7	0.00e+00	0	43	102	1048576	18	3746
2026-01-06 10:41:04.62	184.80	53.13	-28.2	-28.3	16.4	0.00e+00	0	43	102	1048576	17	3642
2026-01-06 10:41:05.62	185.07	53.47	-28.0	-27.8	16.7	0.00e+00	0	43	102	1048576	17	3524
2026-01-06 10:41:06.63	185.34	53.81	-27.9	-27.6	16.8	0.00e+00	0	43	102	1048576	17	3476
2026-01-06 10:41:07.64	185.63	54.15	-27.7	-27.7	17.1	0.00e+00	0	43	102	1048576	16	3576
2026-01-06 10:41:08.65	185.92	54.50	-27.6	-27.3	17.2	0.00e+00	0	43	102	1048576	16	3501
2026-01-06 10:41:09.66	186.21	54.84	-27.5	-27.3	17.3	0.00e+00	0	43	102	1048576	16	3483
2026-01-06 10:41:10.66	186.52	55.19	-27.6	-27.4	17.3	7.00e-07	0	43	102	1048576	16	3510
2026-01-06 10:41:11.68	186.83	55.54	-27.6	-27.5	17.2	0.00e+00	0	43	102	1048576	16	3535
2026-01-06 10:41:12.69	187.15	55.89	-27.2	-27.1	17.2	0.00e+00	0	43	102	1048576	15	3543
2026-01-06 10:41:13.69	187.47	56.24	-27.2	-26.9	17.6	0.00e+00	0	43	102	1048576	15	3503
2026-01-06 10:41:14.69	187.81	56.59	-27.1	-26.8	17.7	0.00e+00	0	43	102	1048576	15	3475
2026-01-06 10:41:15.69	188.15	56.94	-27.5	-27.7	17.2	0.00e+00	0	43	102	1048576	15	3696
2026-01-06 10:41:16.70	188.50	57.30	-27.4	-27.4	17.3	0.00e+00	0	43	102	1048576	15	3619
2026-01-06 10:41:17.71	188.86	57.66	-27.3	-27.3	17.4	0.00e+00	0	43	102	1048576	15	3590
2026-01-06 10:41:18.71	189.23	58.01	-27.1	-26.9	17.7	0.00e+00	0	43	102	1048576	15	3488
2026-01-06 10:41:19.71	189.61	58.37	-27.3	-27.3	17.5	0.00e+00	0	43	102	1048576	15	3582
2026-01-06 10:41:20.72	190.00	58.73	-27.5	-27.6	17.3	0.00e+00	0	43	102	1048576	15	3661
2026-01-06 10:41:21.73	190.40	59.09	-28.5	-29.4	16.2	0.00e+00	0	43	102	1048576	16	4015
2026-01-06 10:41:22.74	190.82	59.45	-29.0	-29.7	15.5	0.00e+00	0	43	102	1048576	18	3900
2026-01-06 10:41:23.75	191.24	59.82	-29.0	-29.7	15.5	0.00e+00	0	43	102	1048576	18	3890
2026-01-06 10:41:24.76	191.68	60.18	-28.3	-28.0	16.2	0.00e+00	0	43	102	1048576	18	3486
2026-01-06 10:41:25.76	192.12	60.54	-27.8	-27.3	17.1	0.00e+00	0	43	102	1048576	17	3409
2026-01-06 10:41:26.77	192.59	60.91	-27.7	-27.7	17.2	0.00e+00	0	43	102	1048576	16	3571
2026-01-06 10:41:27.78	193.06	61.27	-27.6	-27.3	17.4	0.00e+00	0	43	102	1048576	16	3489
2026-01-06 10:41:28.79	193.55	61.64	-27.9	-28.0	17.1	0.00e+00	0	43	102	1048576	16	3652
2026-01-06 10:41:29.80	194.06	62.00	-27.7	-27.6	17.3	0.00e+00	0	43	102	1048576	16	3554
2026-01-06 10:41:30.80	194.57	62.37	-27.4	-26.9	17.7	0.00e+00	0	43	102	1048576	16	3393
2026-01-06 10:41:31.80	195.10	62.73	-27.2	-26.9	17.7	0.00e+00	0	43	102	1048576	15	3495
2026-01-06 10:41:32.81	195.66	63.09	-27.2	-26.9	17.7	0.00e+00	0	43	102	1048576	15	3490
2026-01-06 10:41:33.82	196.23	63.46	-27.5	-27.8	17.3	0.00e+00	0	43	102	1048576	15	3700
2026-01-06 10:41:34.82	196.81	63.82	-27.8	-28.3	17.0	0.00e+00	0	43	102	1048576	15	3832
2026-01-06 10:41:35.82	197.41	64.18	-27.6	-27.9	17.2	0.00e+00	0	43	102	1048576	15	3742
2026-01-06 10:41:36.83	198.03	64.54	-27.4	-27.5	17.5	0.00e+00	0	43	102	1048576	15	3628
2026-01-06 10:41:37.83	198.67	64.90	-27.6	-27.9	17.3	0.00e+00	0	43	102	1048576	15	3733
2026-01-06 10:41:38.84	199.33	65.26	-27.8	-28.3	17.0	0.00e+00	0	43	102	1048576	15	3818
2026-01-06 10:41:39.84	200.01	65.62	-29.1	-29.8	15.5	0.00e+00	0	43	102	1048576	18	3927
2026-01-06 10:41:40.86	200.73	65.98	-29.2	-30.1	15.4	7.00e-07	0	43	102	1048576	18	4000
2026-01-06 10:41:41.86	201.45	66.33	-29.3	-30.3	15.2	0.00e+00	0	43	102	1048576	18	4055
2026-01-06 10:41:42.87	202.21	66.69	-29.5	-30.4	14.8	0.00e+00	0	43	102	1048576	19	3987
2026-01-06 10:41:43.87	202.98	67.04	-29.3	-29.9	15.1	0.00e+00	0	43	102	1048576	19	3855
2026-01-06 10:41:44.87	203.78	67.38	-29.4	-30.1	15.2	0.00e+00	0	43	102	1048576	19	3894
2026-01-06 10:41:45.88	204.62	67.73	-30.2	-31.5	13.9	2.20e-06	0	43	102	1048576	20	4223
2026-01-06 10:41:46.89	205.48	68.07	-31.1	-33.0	12.2	7.09e-05	0	43	102	1048576	22	4528
2026-01-06 10:41:47.89	206.37	68.41	-31.5	-33.8	11.3	1.10e-03	0	43	102	1048576	23	4703
2026-01-06 10:41:48.90	207.29	68.74	-30.7	-32.0	13.0	2.04e-04	0	43	102	1048576	22	4185
2026-01-06 10:41:49.90	208.24	69.07	-30.0	-30.5	14.1	9.90e-06	0	43	102	1048576	21	3846
2026-01-06 10:41:50.91	209.23	69.40	-30.3	-31.3	13.7	4.50e-06	0	43	102	1048576	21	4060
2026-01-06 10:41:51.91	210.24	69.72	-30.3	-31.5	13.5	9.10e-06	0	43	102	1048576	21	4132
2026-01-06 10:41:52.92	211.30	70.04	-29.8	-30.2	14.3	6.10e-06	0	43	102	1048576	21	3759
2026-01-06 10:41:53.93	212.39	70.35	-29.9	-30.9	14.1	0.00e+00	0	43	102	1048576	20	4046
2026-01-06 10:41:54.93	213.51	70.66	-30.8	-32.9	12.6	2.82e-05	0	43	102	1048576	21	4558
2026-01-06 10:41:55.94	214.68	70.96	-31.4	-34.1	11.6	5.02e-04	0	43	102	1048576	22	4918
2026-01-06 10:41:56.94	215.87	71.25	-31.3	-33.2	11.5	7.90e-04	0	43	102	1048576	23	4475
2026-01-06 10:41:57.95	217.12	71.54	-31.1	-32.6	12.2	2.28e-04	0	43	102	1048576	23	4282
2026-01-06 10:41:58.96	218.41	71.81	-30.6	-31.6	13.1	3.50e-05	0	43	102	1048576	22	4073
2026-01-06 10:41:59.96	219.72	72.08	-29.8	-30.1	14.4	7.00e-07	0	43	102	1048576	21	3721
2026-01-06 10:42:00.97	221.10	72.35	-29.7	-30.4	14.6	0.00e+00	0	43	102	1048576	20	3886
2026-01-06 10:42:01.98	222.51	72.60	-30.1	-31.3	14.0	2.20e-06	0	43	102	1048576	20	4152
2026-01-06 10:42:02.99	223.97	72.84	-30.0	-31.1	14.0	1.50e-06	0	43	102	1048576	20	4100
2026-01-06 10:42:03.99	225.45	73.07	-30.2	-31.7	13.8	3.00e-06	0	43	102	1048576	20	4270
2026-01-06 10:42:05.00	227.00	73.29	-30.0	-31.1	14.2	3.80e-06	0	43	102	1048576	20	4081
2026-01-06 10:42:06.01	228.58	73.50	-29.3	-29.8	15.4	7.00e-07	0	43	102	1048576	19	3803
2026-01-06 10:42:07.01	230.19	73.70	-29.5	-30.4	15.0	0.00e+00	0	43	102	1048576	19	3972
2026-01-06 10:42:08.02	231.86	73.89	-29.7	-30.9	14.6	0.00e+00	0	43	102	1048576	19	4116
2026-01-06 10:42:09.03	233.57	74.06	-30.0	-31.2	14.1	0.00e+00	0	43	102	1048576	20	4114
2026-01-06 10:42:10.04	235.31	74.22	-29.6	-30.2	14.7	1.50e-06	0	43	102	1048576	20	3832
2026-01-06 10:42:11.04	237.07	74.36	-29.0	-29.0	15.7	0.00e+00	0	43	102	1048576	19	3608
2026-01-06 10:42:12.05	238.88	74.50	-28.4	-28.1	16.6	0.00e+00	0	43	102	1048576	18	3488
2026-01-06 10:42:13.06	240.73	74.61	-29.1	-29.8	15.6	0.00e+00	0	43	102	1048576	18	3905
2026-01-06 10:42:14.07	242.59	74.71	-29.8	-31.1	14.5	7.00e-07	0	43	102	1048576	19	4193
2026-01-06 10:42:15.08	244.49	74.80	-30.6	-32.2	13.2	1.50e-06	0	43	102	1048576	21	4323
2026-01-06 10:42:16.09	246.40	74.87	-30.5	-32.1	13.2	4.73e-05	0	43	102	1048576	21	4307
2026-01-06 10:42:17.09	248.31	74.92	-30.1	-30.8	14.0	1.14e-05	0	43	102	1048576	21	3932
2026-01-06 10:42:18.09	250.23	74.96	-29.8	-30.2	14.4	2.20e-06	0	43	102	1048576	21	3755
2026-01-06 10:42:19.10	252.18	74.98	-30.0	-31.2	14.1	7.00e-07	0	43	102	1048576	20	4121
2026-01-06 10:42:20.10	254.11	74.98	-29.4	-29.6	15.1	1.50e-06	0	43	102	1048576	20	3688
2026-01-06 10:42:21.11	256.06	74.97	-29.1	-29.4	15.5	0.00e+00	0	43	102	1048576	19	3720
2026-01-06 10:42:22.11	257.99	74.94	-29.5	-30.3	15.1	0.00e+00	0	43	102	1048576	19	3952
2026-01-06 10:42:23.12	259.92	74.89	-29.7	-31.0	14.6	0.00e+00	0	43	102	1048576	19	4138
2026-01-06 10:42:24.13	261.84	74.83	-29.7	-30.7	14.7	0.00e+00	0	43	102	1048576	19	4079
2026-01-06 10:42:25.13	263.72	74.75	-29.0	-29.0	15.8	0.00e+00	0	43	102	1048576	19	3613
2026-01-06 10:42:26.14	265.60	74.66	-28.3	-28.4	16.7	0.00e+00	0	43	102	1048576	17	3639
2026-01-06 10:42:27.14	267.44	74.55	-28.7	-29.3	16.2	0.00e+00	0	43	102	1048576	17	3885
2026-01-06 10:42:28.14	269.25	74.43	-29.8	-31.2	14.4	0.00e+00	0	43	102	1048576	19	4205
2026-01-06 10:42:29.14	271.02	74.29	-29.7	-30.3	14.6	7.00e-07	0	43	102	1048576	20	3861
2026-01-06 10:42:30.15	272.78	74.14	-29.7	-30.4	14.6	7.00e-07	0	43	102	1048576	20	3887
2026-01-06 10:42:31.15	274.49	73.97	-30.8	-32.7	12.9	2.13e-05	0	43	102	1048576	21	4509
2026-01-06 10:42:32.16	276.17	73.79	-30.8	-32.2	12.8	1.05e-04	0	43	102	1048576	22	4236
2026-01-06 10:42:33.16	277.80	73.60	-31.0	-32.9	12.3	7.93e-05	0	43	102	1048576	22	4465
2026-01-06 10:42:34.17	279.40	73.39	-31.7	-34.4	10.8	6.06e-04	0	43	102	1048576	23	4956
2026-01-06 10:42:35.18	280.96	73.18	-31.8	-34.3	10.6	5.93e-03	0	43	102	1048576	24	4797
2026-01-06 10:42:36.19	282.48	72.95	-31.4	-33.4	11.6	1.59e-03	0	43	102	1048576	23	4569
2026-01-06 10:42:37.19	283.95	72.71	-31.3	-33.4	11.6	5.52e-04	0	44	102	1048576	23	4579
2026-01-06 10:42:38.19	285.36	72.47	-31.2	-32.9	11.9	4.58e-04	0	43	102	1048576	23	4377
2026-01-06 10:42:39.20	286.76	72.21	-30.9	-32.0	12.5	1.82e-04	0	43	102	1048576	23	4099
2026-01-06 10:42:40.20	288.09	71.95	-31.2	-33.6	11.9	1.20e-04	0	43	102	1048576	22	4716
2026-01-06 10:42:41.21	289.40	71.67	-32.1	-35.5	9.7	9.40e-03	0	43	102	1048576	24	5323
2026-01-06 10:42:42.22	290.67	71.39	-32.3	-36.3	8.8	2.06e-02	0	43	102	1048576	24	5706
2026-01-06 10:42:43.23	291.89	71.10	-32.3	-35.7	9.1	4.93e-02	0	43	102	1048576	25	5315
2026-01-06 10:42:44.23	293.06	70.81	-31.8	-34.0	10.4	7.22e-03	0	43	102	1048576	25	4615
2026-01-06 10:42:45.24	294.21	70.50	-30.9	-32.1	12.5	1.10e-03	0	43	102	1048576	23	4142
2026-01-06 10:42:46.24	295.31	70.20	-30.2	-31.1	13.6	2.89e-05	0	43	102	1048576	21	4009
2026-01-06 10:42:47.25	296.38	69.88	-29.7	-30.3	14.6	2.20e-06	0	43	102	1048576	20	3877
2026-01-06 10:42:48.26	297.42	69.56	-30.0	-31.1	14.1	3.00e-06	0	43	102	1048576	20	4084
2026-01-06 10:42:49.26	298.42	69.24	-30.2	-31.7	13.6	3.00e-06	0	43	102	1048576	20	4283
2026-01-06 10:42:50.27	299.39	68.91	-30.7	-32.7	12.6	1.60e-05	0	43	102	1048576	21	4516
2026-01-06 10:42:51.27	300.31	68.58	-31.5	-34.4	11.2	7.01e-04	0	43	102	1048576	22	5041
2026-01-06 10:42:52.28	301.22	68.24	-31.4	-33.8	11.2	4.56e-03	0	43	102	1048576	23	4717
2026-01-06 10:42:53.29	302.10	67.90	-30.6	-31.8	12.9	4.74e-04	0	43	102	1048576	22	4144
2026-01-06 10:42:54.30	302.95	67.56	-30.7	-32.1	12.8	3.89e-05	0	43	102	1048576	22	4219
2026-01-06 10:42:55.30	303.76	67.21	-31.6	-34.3	10.8	9.73e-04	0	43	102	1048576	23	4913
2026-01-06 10:42:56.31	304.55	66.86	-31.8	-34.5	10.2	6.48e-03	0	43	102	1048576	24	4927
2026-01-06 10:42:57.31	305.31	66.51	-31.4	-33.1	11.2	4.71e-03	0	43	102	1048576	24	4403
2026-01-06 10:42:58.32	306.06	66.16	-30.0	-30.8	13.9	3.12e-05	0	43	102	1048576	21	3928
2026-01-06 10:42:59.33	306.78	65.80	-29.7	-30.5	14.4	0.00e+00	0	43	102	1048576	20	3926
2026-01-06 10:43:00.31	307.45	65.46	-30.1	-31.5	13.8	7.00e-07	0	43	102	1048576	20	4222
2026-01-06 10:43:01.31	308.12	65.10	-30.9	-33.1	12.4	4.65e-05	0	43	102	1048576	21	4665
2026-01-06 10:43:02.31	308.77	64.74	-31.6	-34.2	10.8	1.05e-03	0	43	102	1048576	23	4898
2026-01-06 10:43:03.31	309.39	64.38	-31.2	-32.9	11.8	1.68e-03	0	43	102	1048576	23	4418
2026-01-06 10:43:04.31	310.00	64.03	-30.7	-32.0	12.8	2.22e-04	0	43	102	1048576	22	4192
2026-01-06 10:43:05.32	310.60	63.66	-30.7	-32.2	12.6	1.14e-04	0	43	102	1048576	22	4248
2026-01-06 10:43:06.33	311.18	63.30	-30.5	-31.5	13.1	7.47e-05	0	43	102	1048576	22	4035
2026-01-06 10:43:07.34	311.74	62.93	-29.6	-30.1	14.5	1.44e-05	0	43	102	1048576	20	3830
2026-01-06 10:43:08.34	312.27	62.57	-28.8	-28.7	15.8	0.00e+00	0	43	102	1048576	19	3551
2026-01-06 10:43:09.35	312.80	62.21	-29.1	-30.0	15.3	0.00e+00	0	43	102	1048576	18	3987
2026-01-06 10:43:10.35	313.31	61.85	-30.0	-31.3	13.9	0.00e+00	0	43	102	1048576	20	4184
2026-01-06 10:43:11.36	313.81	61.48	-30.4	-32.3	13.1	1.29e-05	0	43	102	1048576	20	4491
2026-01-06 10:43:12.37	314.29	61.12	-30.6	-32.5	12.7	7.62e-05	0	43	102	1048576	21	4460
2026-01-06 10:43:13.38	314.76	60.75	-29.7	-30.3	14.4	9.90e-06	0	43	102	1048576	20	3894
2026-01-06 10:43:14.38	315.21	60.39	-28.8	-28.8	15.7	0.00e+00	0	43	102	1048576	19	3579
2026-01-06 10:43:15.39	315.65	60.03	-29.1	-29.4	15.3	0.00e+00	0	43	102	1048576	19	3729
2026-01-06 10:43:16.39	316.08	59.67	-29.4	-30.1	14.9	0.00e+00	0	43	102	1048576	19	3925
2026-01-06 10:43:17.40	316.50	59.31	-29.7	-30.9	14.4	0.00e+00	0	43	102	1048576	19	4148
2026-01-06 10:43:18.41	316.91	58.95	-30.4	-32.4	13.0	9.10e-06	0	43	102	1048576	20	4530
2026-01-06 10:43:19.42	317.30	58.59	-30.5	-32.2	12.9	9.53e-05	0	43	102	1048576	21	4361
2026-01-06 10:43:20.43	317.69	58.23	-29.3	-29.8	15.0	7.60e-06	0	43	102	1048576	19	3843
2026-01-06 10:43:21.43	318.06	57.88	-27.6	-27.4	17.2	0.00e+00	0	43	102	1048576	16	3522
2026-01-06 10:43:22.44	318.43	57.52	-27.1	-26.7	17.8	0.00e+00	0	43	102	1048576	15	3456
2026-01-06 10:43:23.45	318.79	57.16	-28.3	-29.0	16.4	0.00e+00	0	43	102	1048576	16	3895
2026-01-06 10:43:24.45	319.13	56.81	-29.4	-30.7	14.9	0.00e+00	0	44	102	1048576	18	4188
2026-01-06 10:43:25.46	319.47	56.46	-29.2	-29.7	15.1	7.00e-07	0	43	102	1048576	19	3812
2026-01-06 10:43:26.47	319.80	56.11	-28.8	-28.8	15.7	0.00e+00	0	43	102	1048576	19	3575
2026-01-06 10:43:27.47	320.12	55.76	-28.7	-28.9	15.8	0.00e+00	0	43	102	1048576	18	3686
2026-01-06 10:43:28.47	320.44	55.41	-29.0	-29.7	15.5	0.00e+00	0	43	102	1048576	18	3909
2026-01-06 10:43:29.48	320.74	55.07	-28.8	-29.3	15.7	0.00e+00	0	43	102	1048576	18	3789
2026-01-06 10:43:30.48	321.04	54.72	-29.3	-30.4	15.0	0.00e+00	0	43	102	1048576	18	4079
2026-01-06 10:43:31.49	321.34	54.38	-29.9	-31.4	14.0	7.00e-07	0	43	102	1048576	19	4294
2026-01-06 10:43:32.49	321.62	54.04	-30.7	-32.8	12.4	9.61e-05	0	43	102	1048576	21	4577
2026-01-06 10:43:33.50	321.90	53.70	-30.7	-32.7	12.5	2.13e-04	0	43	102	1048576	21	4532
2026-01-06 10:43:34.50	322.17	53.36	-30.4	-32.0	12.9	4.95e-05	0	43	102	1048576	21	4309
2026-01-06 10:43:35.50	322.43	53.03	-30.0	-30.7	13.9	1.14e-05	0	43	102	1048576	21	3903
2026-01-06 10:43:36.50	322.69	52.69	-30.2	-31.4	13.3	1.52e-05	0	43	102	1048576	21	4129
2026-01-06 10:43:37.51	322.95	52.36	-30.5	-32.1	12.9	2.13e-05	0	43	102	1048576	21	4353
2026-01-06 10:43:38.52	323.20	52.02	-30.7	-32.8	12.3	1.93e-04	0	43	102	1048576	21	4588
2026-01-06 10:43:39.53	323.44	51.69	-30.3	-31.7	13.1	8.08e-05	0	43	102	1048576	21	4224
2026-01-06 10:43:40.54	323.68	51.36	-30.0	-30.8	13.7	1.60e-05	0	43	102	1048576	21	3958
2026-01-06 10:43:41.55	323.92	51.04	-30.3	-31.7	13.1	1.14e-05	0	43	102	1048576	21	4208
2026-01-06 10:43:42.56	324.15	50.71	-30.5	-32.2	12.8	4.19e-05	0	43	102	1048576	21	4355
2026-01-06 10:43:43.57	324.37	50.39	-30.1	-31.1	13.5	5.18e-05	0	43	102	1048576	21	4040
2026-01-06 10:43:44.57	324.59	50.07	-29.5	-30.1	14.4	1.50e-06	0	43	102	1048576	20	3832
2026-01-06 10:43:45.58	324.80	49.75	-30.0	-31.3	13.7	0.00e+00	0	43	102	1048576	20	4176
2026-01-06 10:43:46.58	325.01	49.43	-31.1	-33.6	11.6	7.17e-05	0	43	102	1048576	22	4751
2026-01-06 10:43:47.59	325.22	49.11	-31.7	-34.8	10.2	5.77e-03	0	43	102	1048576	23	5164
2026-01-06 10:43:48.59	325.42	48.80	-31.2	-33.3	11.4	1.76e-03	0	43	102	1048576	23	4574
2026-01-06 10:43:49.60	325.62	48.49	-30.8	-32.6	12.1	8.05e-04	0	44	102	1048576	22	4426
2026-01-06 10:43:50.61	325.81	48.18	-30.8	-32.7	12.1	1.46e-04	0	43	102	1048576	22	4437
2026-01-06 10:43:51.61	326.00	47.87	-31.0	-33.1	11.9	4.13e-04	0	43	102	1048576	22	4596
2026-01-06 10:43:52.62	326.19	47.56	-31.4	-34.3	11.0	8.13e-04	0	43	102	1048576	22	5048
2026-01-06 10:43:53.62	326.37	47.26	-32.2	-36.2	8.8	8.36e-03	0	43	102	1048576	24	5715
2026-01-06 10:43:54.63	326.55	46.96	-32.5	-37.5	7.8	6.73e-02	0	43	102	1048576	24	6428
2026-01-06 10:43:55.64	326.73	46.66	-32.3	-36.1	8.4	6.46e-02	0	43	102	1048576	25	5585
2026-01-06 10:43:56.65	326.90	46.36	-32.3	-36.3	8.3	5.30e-02	0	44	102	1048576	25	5678
2026-01-06 10:43:57.66	327.07	46.06	-31.7	-34.4	10.0	1.13e-02	0	43	102	1048576	24	4925
2026-01-06 10:43:58.66	327.24	45.77	-31.3	-33.1	11.1	3.35e-03	0	43	102	1048576	24	4406
2026-01-06 10:43:59.67	327.40	45.47	-31.0	-32.8	11.7	1.03e-03	0	43	102	1048576	23	4385
2026-01-06 10:44:00.68	327.56	45.18	-31.3	-33.6	11.1	1.06e-03	0	44	102	1048576	23	4671
2026-01-06 10:44:01.69	327.72	44.89	-31.6	-34.7	10.3	4.33e-03	0	43	102	1048576	23	5100
2026-01-06 10:44:02.70	327.88	44.60	-32.4	-37.1	8.1	2.70e-02	0	43	102	1048576	24	6168
2026-01-06 10:44:03.71	328.03	44.32	-32.6	-37.5	7.4	1.13e-01	0	43	102	1048576	25	6319
2026-01-06 10:44:04.71	328.18	44.03	-32.4	-36.7	7.9	8.91e-02	0	43	102	1048576	25	5916
2026-01-06 10:44:05.72	328.33	43.75	-32.3	-36.5	8.1	8.42e-02	0	43	102	1048576	25	5774
2026-01-06 10:44:06.73	328.47	43.47	-31.8	-34.2	9.8	2.97e-02	0	43	102	1048576	25	4784
2026-01-06 10:44:07.74	328.62	43.19	-31.4	-33.5	10.8	2.63e-03	0	43	102	1048576	24	4564
2026-01-06 10:44:08.74	328.75	42.92	-30.9	-32.2	12.0	1.39e-03	0	43	102	1048576	23	4221
2026-01-06 10:44:09.75	328.89	42.64	-30.4	-31.3	12.9	2.94e-04	0	43	102	1048576	22	4026
2026-01-06 10:44:10.77	329.03	42.37	-29.9	-30.5	13.7	5.30e-06	0	43	102	1048576	21	3881
2026-01-06 10:44:11.77	329.16	42.10	-29.6	-30.4	14.2	7.00e-07	0	43	102	1048576	20	3919
2026-01-06 10:44:12.78	329.29	41.83	-29.6	-30.3	14.3	7.00e-07	0	43	102	1048576	20	3890
2026-01-06 10:44:13.78	329.42	41.56	-29.3	-30.1	14.8	7.00e-07	0	43	102	1048576	19	3920
2026-01-06 10:44:14.79	329.55	41.30	-29.9	-31.6	13.8	1.50e-06	0	43	102	1048576	19	4360
2026-01-06 10:44:15.79	329.67	41.03	-30.0	-31.4	13.5	2.13e-05	0	43	102	1048576	20	4229
2026-01-06 10:44:16.80	329.80	40.77	-30.4	-32.1	12.7	2.21e-05	0	43	102	1048576	21	4341
2026-01-06 10:44:17.80	329.92	40.51	-30.2	-31.4	13.2	2.44e-05	0	43	102	1048576	21	4128
2026-01-06 10:44:18.81	330.04	40.25	-29.8	-30.9	13.8	4.50e-06	0	43	102	1048576	20	4089
2026-01-06 10:44:19.82	330.15	40.00	-29.1	-29.4	15.1	0.00e+00	0	43	102	1048576	19	3738
2026-01-06 10:44:20.83	330.27	39.74	-28.6	-28.7	15.9	0.00e+00	0	43	102	1048576	18	3655
2026-01-06 10:44:21.84	330.39	39.49	-28.5	-28.6	15.9	0.00e+00	0	43	102	1048576	18	3629
2026-01-06 10:44:22.85	330.50	39.24	-28.6	-28.8	15.8	0.00e+00	0	43	102	1048576	18	3687
2026-01-06 10:44:23.85	330.61	38.99	-29.1	-29.9	15.2	0.00e+00	0	44	102	1048576	18	3970
2026-01-06 10:44:24.86	330.72	38.74	-29.8	-31.4	13.9	0.00e+00	0	43	102	1048576	19	4294
2026-01-06 10:44:25.87	330.82	38.49	-30.4	-32.4	12.9	1.67e-05	0	43	102	1048576	20	4549
2026-01-06 10:44:26.88	330.93	38.25	-30.7	-32.9	12.2	8.77e-05	0	44	102	1048576	21	4617
2026-01-06 10:44:27.88	331.03	38.01	-30.9	-33.4	11.8	3.65e-04	0	43	102	1048576	21	4808
2026-01-06 10:44:28.90	331.14	37.76	-30.4	-31.9	12.7	3.04e-04	0	44	102	1048576	21	4299
2026-01-06 10:44:29.90	331.24	37.52	-29.9	-30.7	13.5	2.13e-05	0	43	102	1048576	21	3927
2026-01-06 10:44:30.91	331.34	37.29	-29.9	-31.2	13.6	5.30e-06	0	43	102	1048576	20	4158
2026-01-06 10:44:31.92	331.44	37.05	-29.3	-29.6	14.6	0.00e+00	0	43	102	1048576	20	3725
2026-01-06 10:44:32.93	331.54	36.81	-29.4	-30.2	14.6	0.00e+00	0	43	102	1048576	19	3959
2026-01-06 10:44:33.94	331.63	36.58	-29.4	-30.2	14.6	0.00e+00	0	43	102	1048576	19	3966
2026-01-06 10:44:34.95	331.73	36.35	-29.7	-31.1	14.1	0.00e+00	0	43	102	1048576	19	4209
2026-01-06 10:44:35.95	331.82	36.12	-29.6	-30.8	14.2	1.50e-06	0	43	102	1048576	19	4131
2026-01-06 10:44:36.96	331.91	35.89	-29.8	-31.3	13.9	3.00e-06	0	43	102	1048576	19	4292
2026-01-06 10:44:37.96	332.00	35.66	-29.9	-31.0	13.6	9.90e-06	0	43	102	1048576	20	4116
2026-01-06 10:44:38.97	332.09	35.44	-29.9	-31.0	13.7	2.20e-06	0	43	102	1048576	20	4102
2026-01-06 10:44:39.98	332.18	35.21	-30.4	-32.4	12.8	6.80e-06	0	43	102	1048576	20	4549
2026-01-06 10:44:40.98	332.27	34.99	-30.5	-32.2	12.6	9.91e-05	0	43	102	1048576	21	4397
2026-01-06 10:44:41.99	332.35	34.77	-30.8	-33.1	12.0	1.44e-04	0	43	102	1048576	21	4716
2026-01-06 10:44:42.99	332.44	34.55	-31.3	-34.3	10.8	7.58e-04	0	43	102	1048576	22	5078
2026-01-06 10:44:44.00	332.52	34.34	-31.7	-35.1	9.8	9.35e-03	0	43	102	1048576	23	5298
2026-01-06 10:44:45.01	332.61	34.12	-31.9	-35.4	9.2	2.35e-02	0	43	102	1048576	24	5354
2026-01-06 10:44:46.02	332.69	33.90	-31.9	-35.5	9.2	1.91e-02	0	43	102	1048576	24	5399
2026-01-06 10:44:47.03	332.77	33.69	-32.1	-36.0	8.8	3.37e-02	0	43	102	1048576	24	5682
2026-01-06 10:44:48.03	332.85	33.48	-31.6	-34.1	10.2	1.36e-02	0	43	102	1048576	24	4833
2026-01-06 10:44:49.04	332.93	33.27	-31.4	-33.4	10.7	3.80e-03	0	43	102	1048576	24	4566
2026-01-06 10:44:50.05	333.01	33.06	-31.1	-33.2	11.2	4.26e-03	0	44	102	1048576	23	4585
2026-01-06 10:44:51.05	333.08	32.85	-30.8	-32.3	11.8	5.37e-04	0	43	102	1048576	23	4249
2026-01-06 10:44:52.06	333.16	32.64	-31.0	-33.3	11.6	6.57e-04	0	43	102	1048576	22	4675
2026-01-06 10:44:53.07	333.24	32.44	-30.7	-32.3	12.1	4.11e-04	0	43	102	1048576	22	4351
2026-01-06 10:44:54.07	333.31	32.24	-30.4	-31.4	12.7	9.07e-05	0	43	102	1048576	22	4071
2026-01-06 10:44:55.08	333.38	32.03	-30.3	-31.7	12.8	5.18e-05	0	43	102	1048576	21	4242
2026-01-06 10:44:56.08	333.45	31.83	-30.5	-32.2	12.5	6.94e-05	0	43	102	1048576	21	4392
2026-01-06 10:44:57.09	333.53	31.63	-30.3	-31.6	13.0	3.89e-05	0	43	102	1048576	21	4209
2026-01-06 10:44:58.10	333.60	31.43	-30.3	-31.8	12.8	4.73e-05	0	43	102	1048576	21	4259
2026-01-06 10:44:59.11	333.67	31.24	-30.8	-33.0	12.0	3.10e-04	0	43	102	1048576	21	4686
2026-01-06 10:45:00.12	333.74	31.04	-30.8	-33.3	11.8	2.94e-04	0	44	102	1048576	21	4763
2026-01-06 10:45:01.11	333.81	30.85	-31.0	-33.4	11.4	4.42e-04	0	43	102	1048576	22	4728
2026-01-06 10:45:02.12	333.87	30.65	-30.5	-31.8	12.5	5.49e-04	0	43	102	1048576	22	4175
2026-01-06 10:45:03.13	333.94	30.46	-30.4	-31.5	12.6	9.15e-05	0	43	102	1048576	22	4096
2026-01-06 10:45:04.14	334.01	30.27	-30.4	-31.4	12.7	7.55e-05	0	43	102	1048576	22	4066
2026-01-06 10:45:05.14	334.07	30.08	-30.4	-31.6	12.6	8.01e-05	0	43	102	1048576	22	4134
2026-01-06 10:45:06.14	334.14	29.90	-30.2	-31.6	12.8	6.02e-05	0	44	102	1048576	21	4217
2026-01-06 10:45:07.15	334.20	29.71	-30.3	-31.7	12.8	6.94e-05	0	43	102	1048576	21	4247
2026-01-06 10:45:08.16	334.26	29.52	-30.5	-32.3	12.4	1.37e-04	0	43	102	1048576	21	4437
2026-01-06 10:45:09.17	334.33	29.34	-30.3	-31.8	12.9	1.84e-04	0	43	102	1048576	21	4282
2026-01-06 10:45:10.17	334.39	29.15	-30.7	-33.1	11.9	2.07e-04	0	43	102	1048576	21	4718
2026-01-06 10:45:11.18	334.45	28.97	-30.6	-32.6	12.1	2.75e-04	0	43	102	1048576	21	4560
2026-01-06 10:45:12.19	334.51	28.79	-30.5	-32.4	12.3	1.29e-04	0	43	102	1048576	21	4475
2026-01-06 10:45:13.20	334.57	28.61	-30.6	-32.6	12.2	1.83e-04	0	43	102	1048576	21	4544
2026-01-06 10:45:14.20	334.63	28.43	-30.5	-32.3	12.5	1.12e-04	0	43	102	1048576	21	4447
2026-01-06 10:45:15.21	334.69	28.25	-30.2	-31.5	13.0	4.27e-05	0	43	102	1048576	21	4171
2026-01-06 10:45:16.22	334.75	28.07	-30.0	-30.9	13.3	3.28e-05	0	43	102	1048576	21	4016
2026-01-06 10:45:17.23	334.81	27.90	-29.8	-30.8	13.7	6.10e-06	0	43	102	1048576	20	4067
2026-01-06 10:45:18.24	334.86	27.72	-29.8	-30.8	13.7	3.80e-06	0	43	102	1048576	20	4070
2026-01-06 10:45:19.24	334.92	27.55	-29.8	-30.9	13.7	5.30e-06	0	43	102	1048576	20	4076
2026-01-06 10:45:20.25	334.98	27.38	-29.5	-30.2	14.1	5.30e-06	0	43	102	1048576	20	3880
2026-01-06 10:45:21.25	335.03	27.21	-29.2	-29.9	14.6	0.00e+00	0	44	102	1048576	19	3896
2026-01-06 10:45:22.26	335.09	27.04	-29.2	-29.9	14.7	7.00e-07	0	44	102	1048576	19	3894
2026-01-06 10:45:23.27	335.14	26.87	-29.1	-29.5	14.8	0.00e+00	0	43	102	1048576	19	3789
2026-01-06 10:45:24.28	335.20	26.70	-29.1	-29.6	14.8	0.00e+00	0	43	102	1048576	19	3818
2026-01-06 10:45:25.29	335.25	26.53	-29.7	-31.1	13.9	7.00e-07	0	43	102	1048576	19	4239
2026-01-06 10:45:26.30	335.30	26.36	-29.5	-30.8	14.0	1.50e-06	0	43	102	1048576	19	4136
2026-01-06 10:45:27.30	335.35	26.20	-29.8	-31.3	13.7	3.80e-06	0	43	102	1048576	19	4304
2026-01-06 10:45:28.31	335.41	26.04	-30.1	-31.9	13.0	4.34e-05	0	43	102	1048576	20	4402
2026-01-06 10:45:29.31	335.46	25.87	-30.3	-32.3	12.7	5.18e-05	0	43	102	1048576	20	4548
2026-01-06 10:45:30.32	335.51	25.71	-30.7	-33.1	11.8	3.68e-04	0	43	102	1048576	21	4749
2026-01-06 10:45:31.32	335.56	25.55	-30.8	-33.3	11.6	5.39e-04	0	44	102	1048576	21	4803
2026-01-06 10:45:32.33	335.61	25.39	-30.9	-33.7	11.3	8.13e-04	0	43	102	1048576	21	4979
2026-01-06 10:45:33.34	335.66	25.23	-31.2	-34.0	10.7	1.90e-03	0	44	102	1048576	22	4998
2026-01-06 10:45:34.35	335.71	25.07	-30.8	-32.8	11.6	1.27e-03	0	43	102	1048576	22	4539
2026-01-06 10:45:35.36	335.76	24.91	-30.4	-31.5	12.5	3.90e-04	0	43	102	1048576	22	4123
2026-01-06 10:45:36.37	335.80	24.76	-29.9	-30.9	13.3	4.95e-05	0	43	102	1048576	21	4002
2026-01-06 10:45:37.37	335.85	24.60	-29.8	-30.9	13.6	7.60e-06	0	43	102	1048576	20	4089
2026-01-06 10:45:38.39	335.90	24.44	-29.2	-30.0	14.5	3.00e-06	0	43	102	1048576	19	3922
2026-01-06 10:45:39.40	335.95	24.29	-29.2	-30.0	14.5	7.00e-07	0	43	102	1048576	19	3917
2026-01-06 10:45:40.41	335.99	24.14	-29.2	-29.7	14.6	7.00e-07	0	43	102	1048576	19	3853
2026-01-06 10:45:41.41	336.04	23.99	-29.1	-29.5	14.8	0.00e+00	0	43	102	1048576	19	3797
2026-01-06 10:45:42.42	336.08	23.83	-29.2	-29.9	14.6	0.00e+00	0	43	102	1048576	19	3895
2026-01-06 10:45:43.43	336.13	23.68	-29.2	-30.0	14.5	7.00e-07	0	44	102	1048576	19	3918
2026-01-06 10:45:44.44	336.17	23.53	-28.9	-29.1	15.0	7.00e-07	0	43	102	1048576	19	3688
2026-01-06 10:45:45.44	336.22	23.38	-28.6	-28.8	15.5	0.00e+00	0	43	102	1048576	18	3702
2026-01-06 10:45:46.45	336.26	23.24	-28.3	-28.1	15.9	0.00e+00	0	43	102	1048576	18	3527
2026-01-06 10:45:47.46	336.31	23.09	-28.4	-28.9	15.7	0.00e+00	0	43	102	1048576	17	3805
2026-01-06 10:45:48.47	336.35	22.94	-28.3	-28.8	15.8	0.00e+00	0	43	102	1048576	17	3778
2026-01-06 10:45:49.47	336.39	22.80	-28.4	-28.8	15.8	0.00e+00	0	43	102	1048576	17	3795
2026-01-06 10:45:50.47	336.44	22.65	-28.4	-28.8	15.7	0.00e+00	0	43	102	1048576	17	3801
2026-01-06 10:45:51.48	336.48	22.51	-28.4	-28.8	15.7	0.00e+00	0	43	102	1048576	17	3790
2026-01-06 10:45:52.48	336.52	22.37	-28.6	-29.3	15.4	0.00e+00	0	43	102	1048576	17	3932
2026-01-06 10:45:53.49	336.56	22.23	-28.6	-29.4	15.4	0.00e+00	0	43	102	1048576	17	3943
2026-01-06 10:45:54.49	336.60	22.09	-28.7	-29.6	15.3	0.00e+00	0	43	102	1048576	17	3993
2026-01-06 10:45:55.50	336.64	21.94	-29.0	-30.0	14.8	0.00e+00	0	43	102	1048576	18	4026
2026-01-06 10:45:56.51	336.68	21.80	-29.1	-30.2	14.6	0.00e+00	0	43	102	1048576	18	4080
2026-01-06 10:45:57.52	336.72	21.66	-29.4	-30.8	14.2	1.50e-06	0	44	102	1048576	18	4253
2026-01-06 10:45:58.53	336.76	21.53	-29.5	-30.8	14.0	1.50e-06	0	43	102	1048576	19	4154
2026-01-06 10:45:59.53	336.80	21.39	-29.7	-31.1	13.8	3.80e-06	0	43	102	1048576	19	4256
2026-01-06 10:46:00.53	336.84	21.25	-29.6	-30.9	13.9	2.20e-06	0	43	102	1048576	19	4177
2026-01-06 10:46:01.54	336.88	21.12	-29.7	-31.2	13.6	3.00e-06	0	44	102	1048576	19	4298
2026-01-06 10:46:02.55	336.92	20.98	-29.8	-31.4	13.6	6.80e-06	0	43	102	1048576	19	4335
2026-01-06 10:46:03.56	336.96	20.85	-29.4	-30.5	14.1	3.00e-06	0	43	102	1048576	19	4077
2026-01-06 10:46:04.57	337.00	20.71	-29.1	-29.7	14.6	3.00e-06	0	43	102	1048576	19	3862
2026-01-06 10:46:05.58	337.03	20.58	-29.0	-29.4	14.7	0.00e+00	0	43	102	1048576	19	3784
2026-01-06 10:46:06.58	337.07	20.45	-28.8	-29.0	15.1	0.00e+00	0	43	102	1048576	19	3659
2026-01-06 10:46:07.58	337.11	20.31	-28.8	-29.4	15.1	0.00e+00	0	43	102	1048576	18	3843
2026-01-06 10:46:08.59	337.15	20.18	-28.6	-28.9	15.4	0.00e+00	0	44	102	1048576	18	3732
2026-01-06 10:46:09.59	337.18	20.05	-28.2	-28.4	15.9	0.00e+00	0	44	102	1048576	17	3704
2026-01-06 10:46:10.60	337.22	19.92	-28.0	-28.0	16.1	7.00e-07	0	43	102	1048576	17	3598
2026-01-06 10:46:11.61	337.25	19.79	-27.9	-27.7	16.3	0.00e+00	0	43	102	1048576	17	3516
2026-01-06 10:46:12.61	337.29	19.67	-27.9	-27.7	16.3	0.00e+00	0	43	102	1048576	17	3530
2026-01-06 10:46:13.62	337.33	19.54	-27.7	-27.8	16.5	0.00e+00	0	43	102	1048576	16	3630
2026-01-06 10:46:14.63	337.36	19.41	-27.7	-27.8	16.5	0.00e+00	0	44	102	1048576	16	3644
2026-01-06 10:46:15.63	337.40	19.28	-27.8	-28.1	16.3	0.00e+00	0	43	102	1048576	16	3706
2026-01-06 10:46:16.64	337.43	19.16	-27.9	-28.3	16.2	0.00e+00	0	43	102	1048576	16	3758
2026-01-06 10:46:17.64	337.47	19.03	-28.0	-28.5	16.0	0.00e+00	0	43	102	1048576	16	3810
2026-01-06 10:46:18.65	337.50	18.91	-28.0	-28.4	16.1	0.00e+00	0	43	102	1048576	16	3781
2026-01-06 10:46:19.65	337.53	18.79	-27.9	-28.3	16.2	0.00e+00	0	43	102	1048576	16	3773
2026-01-06 10:46:20.66	337.57	18.66	-28.1	-28.7	16.0	7.00e-07	0	43	102	1048576	16	3858
2026-01-06 10:46:21.66	337.60	18.54	-28.1	-28.8	15.9	0.00e+00	0	43	102	1048576	16	3878
2026-01-06 10:46:22.67	337.63	18.42	-28.3	-29.2	15.7	7.00e-07	0	43	102	1048576	16	4003
2026-01-06 10:46:23.68	337.67	18.30	-28.3	-29.3	15.6	0.00e+00	0	43	102	1048576	16	4022
2026-01-06 10:46:24.69	337.70	18.17	-28.4	-29.4	15.5	0.00e+00	0	43	102	1048576	16	4059
2026-01-06 10:46:25.70	337.73	18.05	-28.6	-29.4	15.2	0.00e+00	0	43	102	1048576	17	3955
2026-01-06 10:46:26.71	337.77	17.93	-28.7	-29.7	15.1	0.00e+00	0	43	102	1048576	17	4050
2026-01-06 10:46:27.71	337.80	17.81	-28.8	-30.1	14.9	7.00e-07	0	43	102	1048576	17	4144
2026-01-06 10:46:28.72	337.83	17.70	-28.8	-30.0	14.8	0.00e+00	0	43	102	1048576	17	4127
2026-01-06 10:46:29.73	337.86	17.58	-28.9	-30.2	14.7	0.00e+00	0	43	102	1048576	17	4189
2026-01-06 10:46:30.73	337.89	17.46	-29.1	-30.2	14.4	0.00e+00	0	43	102	1048576	18	4095
2026-01-06 10:46:31.74	337.92	17.34	-29.1	-30.2	14.5	0.00e+00	0	43	102	1048576	18	4085
2026-01-06 10:46:32.75	337.96	17.23	-29.4	-30.9	14.0	1.50e-06	0	43	102	1048576	18	4300
2026-01-06 10:46:33.76	337.99	17.11	-29.4	-31.0	14.0	3.00e-06	0	43	102	1048576	18	4319
2026-01-06 10:46:34.77	338.02	16.99	-29.3	-30.8	14.1	2.20e-06	0	43	102	1048576	18	4266
2026-01-06 10:46:35.78	338.05	16.88	-29.6	-30.9	13.7	3.80e-06	0	43	102	1048576	19	4213
2026-01-06 10:46:36.79	338.08	16.76	-29.6	-31.1	13.5	9.90e-06	0	43	102	1048576	19	4265
2026-01-06 10:46:37.79	338.11	16.65	-29.6	-30.9	13.6	1.06e-05	0	43	102	1048576	19	4217
2026-01-06 10:46:38.80	338.14	16.54	-29.9	-31.9	13.1	9.90e-06	0	43	102	1048576	19	4510
2026-01-06 10:46:39.81	338.17	16.42	-29.7	-31.0	13.2	3.12e-05	0	43	102	1048576	20	4142
2026-01-06 10:46:40.82	338.20	16.31	-29.6	-30.6	13.4	1.52e-05	0	43	102	1048576	20	4048
2026-01-06 10:46:41.82	338.23	16.20	-29.5	-30.2	13.7	7.60e-06	0	43	102	1048576	20	3924
2026-01-06 10:46:42.83	338.26	16.09	-29.5	-30.2	13.7	4.50e-06	0	43	102	1048576	20	3920
2026-01-06 10:46:43.84	338.29	15.98	-29.5	-30.2	13.6	7.60e-06	0	43	102	1048576	20	3939
2026-01-06 10:46:44.85	338.31	15.87	-29.5	-30.4	13.6	7.60e-06	0	43	102	1048576	20	3976
2026-01-06 10:46:45.85	338.34	15.76	-29.5	-30.5	13.5	8.30e-06	0	43	102	1048576	20	4003
2026-01-06 10:46:46.86	338.37	15.65	-29.5	-30.4	13.5	9.90e-06	0	43	102	1048576	20	3981
2026-01-06 10:46:47.86	338.40	15.54	-29.7	-30.8	13.3	1.22e-05	0	43	102	1048576	20	4099
2026-01-06 10:46:48.87	338.43	15.43	-29.7	-30.9	13.2	2.74e-05	0	43	102	1048576	20	4121
2026-01-06 10:46:49.88	338.46	15.32	-29.8	-31.3	13.0	2.51e-05	0	43	102	1048576	20	4253
2026-01-06 10:46:50.89	338.48	15.22	-30.0	-31.8	12.5	8.16e-05	0	43	102	1048576	20	4435
2026-01-06 10:46:51.90	338.51	15.11	-30.0	-31.6	12.7	7.85e-05	0	43	102	1048576	20	4348
2026-01-06 10:46:52.90	338.54	15.00	-30.1	-32.1	12.3	7.62e-05	0	43	102	1048576	20	4519
2026-01-06 10:46:53.91	338.57	14.90	-30.1	-31.9	12.5	1.20e-04	0	43	102	1048576	20	4459
2026-01-06 10:46:54.92	338.59	14.79	-30.1	-32.2	12.3	1.22e-04	0	43	102	1048576	20	4547
2026-01-06 10:46:55.93	338.62	14.69	-30.2	-32.3	12.2	2.20e-04	0	43	102	1048576	20	4586
2026-01-06 10:46:56.93	338.65	14.58	-30.1	-32.0	12.4	1.98e-04	0	43	102	1048576	20	4487
2026-01-06 10:46:57.94	338.67	14.48	-29.9	-31.6	12.7	1.08e-04	0	43	102	1048576	20	4355
2026-01-06 10:46:58.95	338.70	14.37	-29.9	-31.6	12.7	8.08e-05	0	44	102	1048576	20	4350
2026-01-06 10:46:59.96	338.73	14.27	-29.8	-31.2	12.9	6.48e-05	0	43	102	1048576	20	4234
2026-01-06 10:47:00.96	338.75	14.17	-30.0	-31.7	12.5	5.56e-05	0	43	102	1048576	20	4398
2026-01-06 10:47:01.97	338.78	14.07	-30.0	-31.8	12.6	9.38e-05	0	43	102	1048576	20	4413
2026-01-06 10:47:02.98	338.80	13.96	-30.1	-32.1	12.3	1.65e-04	0	43	102	1048576	20	4523
2026-01-06 10:47:03.98	338.83	13.86	-30.1	-32.2	12.2	2.20e-04	0	43	102	1048576	20	4560
2026-01-06 10:47:04.99	338.86	13.76	-30.3	-32.8	11.8	3.28e-04	0	43	102	1048576	20	4768
2026-01-06 10:47:06.00	338.88	13.66	-30.3	-32.7	11.9	4.07e-04	0	43	102	1048576	20	4736
2026-01-06 10:47:07.01	338.91	13.56	-30.5	-33.3	11.4	6.49e-04	0	43	102	1048576	20	4973
2026-01-06 10:47:08.01	338.93	13.46	-30.5	-32.7	11.5	9.51e-04	0	43	102	1048576	21	4653
2026-01-06 10:47:09.02	338.96	13.36	-30.5	-32.8	11.4	7.72e-04	0	43	102	1048576	21	4704
2026-01-06 10:47:10.02	338.98	13.26	-30.6	-33.1	11.3	1.12e-03	0	43	102	1048576	21	4789
2026-01-06 10:47:11.03	339.01	13.16	-30.6	-33.2	11.2	1.02e-03	0	44	102	1048576	21	4853
2026-01-06 10:47:12.04	339.03	13.06	-30.7	-33.6	10.8	1.71e-03	0	43	102	1048576	21	5003
2026-01-06 10:47:13.04	339.06	12.97	-30.7	-33.5	10.9	2.31e-03	0	43	102	1048576	21	4957
2026-01-06 10:47:14.05	339.08	12.87	-30.8	-33.8	10.7	2.13e-03	0	43	102	1048576	21	5076
2026-01-06 10:47:15.05	339.10	12.77	-30.9	-34.3	10.4	3.66e-03	0	44	102	1048576	21	5279
2026-01-06 10:47:16.05	339.13	12.68	-30.8	-33.8	10.7	3.33e-03	0	43	102	1048576	21	5089
2026-01-06 10:47:17.06	339.15	12.58	-30.8	-33.9	10.6	3.14e-03	0	43	102	1048576	21	5142
2026-01-06 10:47:18.06	339.18	12.49	-31.0	-34.1	10.1	5.51e-03	0	43	102	1048576	22	5098
2026-01-06 10:47:19.07	339.20	12.39	-30.8	-33.4	10.6	5.56e-03	0	44	102	1048576	22	4827
2026-01-06 10:47:20.07	339.22	12.29	-30.8	-33.3	10.6	3.13e-03	0	43	102	1048576	22	4812
2026-01-06 10:47:21.08	339.25	12.20	-30.8	-33.4	10.6	3.39e-03	0	43	102	1048576	22	4836
2026-01-06 10:47:22.08	339.27	12.11	-30.8	-33.3	10.6	3.20e-03	0	43	102	1048576	22	4796
2026-01-06 10:47:23.09	339.29	12.01	-30.9	-33.7	10.4	4.12e-03	0	43	102	1048576	22	4949
2026-01-06 10:47:24.10	339.32	11.92	-30.9	-33.7	10.4	3.52e-03	0	44	102	1048576	22	4959
2026-01-06 10:47:25.10	339.34	11.82	-31.1	-34.3	9.9	6.02e-03	0	43	102	1048576	22	5204
2026-01-06 10:47:26.11	339.36	11.73	-31.0	-34.0	10.1	7.09e-03	0	43	102	1048576	22	5093
2026-01-06 10:47:27.12	339.38	11.64	-31.0	-33.9	10.2	6.65e-03	0	43	102	1048576	22	5056
2026-01-06 10:47:28.13	339.41	11.55	-31.2	-34.6	9.7	9.69e-03	0	44	102	1048576	22	5328
2026-01-06 10:47:29.14	339.43	11.45	-31.2	-34.5	9.7	1.13e-02	0	44	102	1048576	22	5320
2026-01-06 10:47:30.14	339.45	11.36	-31.1	-34.5	9.7	1.05e-02	0	43	102	1048576	22	5301
2026-01-06 10:47:31.15	339.47	11.27	-31.4	-35.3	9.1	1.59e-02	0	44	102	1048576	22	5660
2026-01-06 10:47:32.16	339.50	11.18	-31.2	-34.6	9.6	1.99e-02	0	43	102	1048576	22	5339
2026-01-06 10:47:33.16	339.52	11.09	-31.3	-35.0	9.3	1.51e-02	0	43	102	1048576	22	5544
2026-01-06 10:47:34.16	339.54	11.00	-31.4	-35.7	8.8	2.27e-02	0	44	102	1048576	22	5853
2026-01-06 10:47:35.17	339.56	10.91	-31.3	-35.0	9.3	2.32e-02	0	43	102	1048576	22	5541
2026-01-06 10:47:36.18	339.58	10.82	-31.3	-35.3	9.1	2.22e-02	0	43	102	1048576	22	5673
2026-01-06 10:47:37.18	339.60	10.73	-31.5	-35.8	8.7	2.65e-02	0	43	102	1048576	22	5920
2026-01-06 10:47:38.19	339.63	10.64	-31.4	-35.7	8.7	3.57e-02	0	43	102	1048576	22	5893
2026-01-06 10:47:39.19	339.65	10.55	-31.6	-35.7	8.4	3.99e-02	0	43	102	1048576	23	5794
2026-01-06 10:47:40.19	339.67	10.47	-31.6	-36.0	8.1	5.29e-02	0	43	102	1048576	23	5945
2026-01-06 10:47:41.20	339.69	10.38	-31.6	-36.0	8.1	6.62e-02	0	44	102	1048576	23	5930
2026-01-06 10:47:42.21	339.71	10.29	-31.7	-36.1	8.0	7.08e-02	0	44	102	1048576	23	6034
2026-01-06 10:47:43.21	339.73	10.20	-31.5	-35.7	8.3	5.58e-02	0	44	102	1048576	23	5804
2026-01-06 10:47:44.22	339.75	10.12	-31.5	-35.6	8.4	4.91e-02	0	44	102	1048576	23	5749
2026-01-06 10:47:45.22	339.77	10.03	-31.5	-35.4	8.5	4.76e-02	0	44	102	1048576	23	5669
2026-01-06 10:47:46.23	339.79	9.94	-31.6	-36.0	8.0	5.59e-02	0	43	102	1048576	23	5984
2026-01-06 10:47:47.23	339.82	9.86	-31.5	-35.7	8.3	5.76e-02	0	43	102	1048576	23	5796
