passes_logs/2026/01/06/R2M6_AANII_01/R2M6_AANII_01__20260106_013331_AQUA_rec.log

#Pass ID: 20260106_013331_AQUA
#Satellite: AQUA
#Configuration: AQUA
#almurnet v.1.7.20240730
#Start time: 2026-01-06 01:33:30

#Version: 2.2.20231116
#Station: R2M6_AANII_01
#Location: 30.233357 lon 59.946436 lat
#TLE: 1 27424U 02022A   26004.96787593  .00001598  00000+0  32997-3 0  9996
#TLE: 2 27424  98.4069 331.2279 0002002  90.2377   0.6092 14.61798176259425

#Time	Az	El	Level	Level2	SNR	BER	BlckErr	Temp	State	Recorded	gain1	gain2
2026-01-06 01:33:30.95	20.94	6.96	-31.0	-37.0	5.1	7.11e-01	0	41	0	0	23	7165
2026-01-06 01:33:31.95	20.97	7.04	-31.0	-37.5	5.1	7.06e-01	0	41	104	0	22	7650
2026-01-06 01:33:32.96	21.01	7.12	-31.0	-36.7	14.5	6.04e-01	0	41	104	0	22	6953
2026-01-06 01:33:33.97	21.04	7.20	-31.0	-36.9	14.5	6.02e-01	0	41	102	524288	22	7051
2026-01-06 01:33:34.97	21.08	7.28	-30.9	-36.7	14.6	6.01e-01	0	41	102	524288	22	6996
2026-01-06 01:33:35.98	21.11	7.36	-31.0	-37.1	14.3	6.02e-01	0	41	102	524288	22	7202
2026-01-06 01:33:36.98	21.15	7.45	-31.2	-36.9	14.1	6.01e-01	0	41	102	524288	23	7000
2026-01-06 01:33:37.99	21.18	7.53	-31.0	-36.9	14.5	6.02e-01	0	41	102	524288	22	7059
2026-01-06 01:33:38.99	21.22	7.61	-30.9	-36.6	14.7	6.01e-01	0	41	102	524288	22	6909
2026-01-06 01:33:40.00	21.26	7.69	-29.7	-35.1	14.9	6.01e-01	0	41	102	524288	22	6684
2026-01-06 01:33:41.00	21.29	7.78	-30.7	-35.8	15.3	6.01e-01	0	41	102	524288	22	6448
2026-01-06 01:33:42.00	21.33	7.86	-30.6	-35.7	15.7	6.01e-01	0	41	102	524288	21	6517
2026-01-06 01:33:43.01	21.36	7.94	-30.4	-35.1	16.2	6.01e-01	0	41	102	524288	21	6180
2026-01-06 01:33:44.02	21.40	8.03	-30.4	-35.2	16.1	5.99e-01	0	41	102	524288	21	6276
2026-01-06 01:33:45.03	21.44	8.11	-30.4	-35.2	16.1	6.02e-01	0	41	102	524288	21	6272
2026-01-06 01:33:46.03	21.47	8.19	-30.2	-34.5	16.6	6.02e-01	0	41	102	524288	21	5896
2026-01-06 01:33:47.04	21.51	8.28	-30.1	-34.2	16.8	6.03e-01	0	41	102	524288	21	5763
2026-01-06 01:33:48.04	21.55	8.36	-30.0	-33.8	17.1	6.00e-01	0	41	102	524288	21	5559
2026-01-06 01:33:49.05	21.59	8.45	-29.9	-33.5	17.3	6.03e-01	0	42	102	524288	21	5455
2026-01-06 01:33:50.06	21.62	8.54	-29.7	-33.8	16.7	6.00e-01	0	41	102	524288	21	5824
2026-01-06 01:33:51.06	21.66	8.62	-30.1	-34.1	17.0	6.03e-01	0	41	102	524288	21	5713
2026-01-06 01:33:52.07	21.70	8.71	-30.2	-34.3	16.9	6.03e-01	0	41	102	524288	21	5800
2026-01-06 01:33:53.08	21.74	8.79	-30.4	-34.9	16.5	6.00e-01	0	41	102	524288	21	6050
2026-01-06 01:33:54.09	21.78	8.88	-30.2	-34.3	16.8	6.02e-01	0	41	102	524288	21	5786
2026-01-06 01:33:55.09	21.82	8.97	-30.0	-33.6	17.3	5.99e-01	0	42	102	524288	21	5500
2026-01-06 01:33:56.10	21.86	9.06	-29.8	-33.8	17.5	6.00e-01	0	42	102	524288	20	5676
2026-01-06 01:33:57.11	21.89	9.14	-29.9	-33.9	17.5	5.98e-01	0	41	102	524288	20	5700
2026-01-06 01:33:58.12	21.93	9.23	-29.6	-33.4	17.7	6.03e-01	0	42	102	524288	20	5527
2026-01-06 01:33:59.12	21.97	9.32	-30.0	-34.2	17.3	6.02e-01	0	42	102	524288	20	5842
2026-01-06 01:34:00.14	22.01	9.41	-29.9	-33.9	17.5	6.02e-01	0	42	102	524288	20	5695
2026-01-06 01:34:01.15	22.06	9.50	-29.9	-33.9	17.5	6.00e-01	0	41	102	524288	20	5714
2026-01-06 01:34:02.15	22.10	9.59	-30.0	-34.3	17.2	6.01e-01	0	41	102	524288	20	5885
2026-01-06 01:34:03.16	22.14	9.68	-30.0	-34.1	17.3	5.99e-01	0	42	102	524288	20	5809
2026-01-06 01:34:04.17	22.18	9.77	-30.0	-34.3	17.3	5.99e-01	0	42	102	524288	20	5862
2026-01-06 01:34:05.17	22.22	9.86	-30.2	-34.4	16.8	6.02e-01	0	42	102	524288	21	5834
2026-01-06 01:34:06.18	22.26	9.95	-30.0	-33.8	17.3	6.01e-01	0	42	102	524288	21	5552
2026-01-06 01:34:07.19	22.30	10.04	-30.0	-33.6	17.4	6.02e-01	0	42	102	524288	21	5456
2026-01-06 01:34:08.19	22.34	10.14	-29.7	-33.5	17.7	6.01e-01	0	42	102	524288	20	5578
2026-01-06 01:34:09.20	22.39	10.23	-29.8	-33.7	17.7	6.00e-01	0	42	102	524288	20	5614
2026-01-06 01:34:10.21	22.43	10.32	-30.0	-34.2	17.3	6.02e-01	0	42	102	524288	20	5846
2026-01-06 01:34:11.21	22.47	10.41	-29.9	-34.0	17.5	6.03e-01	0	42	102	524288	20	5753
2026-01-06 01:34:12.21	22.51	10.51	-30.1	-33.9	17.2	6.00e-01	0	42	102	524288	21	5584
2026-01-06 01:34:13.22	22.56	10.60	-29.9	-34.0	17.5	6.02e-01	0	42	102	524288	20	5768
2026-01-06 01:34:14.23	22.60	10.69	-29.8	-33.5	17.8	6.01e-01	0	42	102	524288	20	5534
2026-01-06 01:34:15.24	22.65	10.79	-29.8	-33.7	17.7	6.01e-01	0	42	102	524288	20	5604
2026-01-06 01:34:16.25	22.69	10.88	-29.9	-33.9	17.6	6.00e-01	0	42	102	524288	20	5693
2026-01-06 01:34:17.25	22.73	10.98	-29.8	-33.5	17.8	6.02e-01	0	42	102	524288	20	5541
2026-01-06 01:34:18.25	22.78	11.07	-29.6	-33.0	18.1	6.00e-01	0	42	102	524288	20	5334
2026-01-06 01:34:19.26	22.82	11.17	-29.8	-33.7	17.6	6.00e-01	0	42	102	524288	19	5684
2026-01-06 01:34:20.27	22.87	11.27	-29.7	-33.4	18.1	6.02e-01	0	42	102	524288	20	5500
2026-01-06 01:34:21.28	22.91	11.36	-29.6	-33.0	18.2	5.99e-01	0	42	102	524288	20	5309
2026-01-06 01:34:22.28	22.96	11.46	-29.6	-33.0	18.0	6.04e-01	0	42	102	524288	20	5341
2026-01-06 01:34:23.29	23.01	11.56	-28.6	-32.0	17.6	6.03e-01	0	42	102	524288	20	5334
2026-01-06 01:34:24.30	23.05	11.66	-29.7	-33.3	18.0	6.01e-01	0	42	102	524288	20	5427
2026-01-06 01:34:25.30	23.10	11.76	-29.7	-33.2	17.9	6.00e-01	0	42	102	524288	20	5371
2026-01-06 01:34:26.31	23.15	11.86	-29.8	-33.5	17.8	5.98e-01	0	42	102	524288	20	5528
2026-01-06 01:34:27.31	23.19	11.95	-29.8	-33.6	17.9	6.02e-01	0	42	102	524288	20	5540
2026-01-06 01:34:28.31	23.24	12.05	-29.9	-33.7	17.8	6.01e-01	0	42	102	524288	20	5614
2026-01-06 01:34:29.32	23.29	12.15	-30.2	-34.1	17.2	6.00e-01	0	42	102	524288	21	5631
2026-01-06 01:34:30.33	23.34	12.26	-29.9	-33.4	17.7	6.02e-01	0	42	102	524288	21	5339
2026-01-06 01:34:31.34	23.39	12.36	-29.9	-33.7	17.8	6.04e-01	0	42	102	524288	20	5607
2026-01-06 01:34:32.34	23.44	12.46	-29.8	-33.4	18.0	6.00e-01	0	42	102	524288	20	5449
2026-01-06 01:34:33.35	23.49	12.56	-29.8	-33.5	18.0	6.01e-01	0	42	102	524288	20	5496
2026-01-06 01:34:34.35	23.53	12.66	-29.9	-33.9	17.7	6.01e-01	0	42	102	524288	20	5655
2026-01-06 01:34:35.35	23.58	12.76	-29.7	-33.3	18.1	6.02e-01	0	42	102	524288	20	5407
2026-01-06 01:34:36.36	23.64	12.87	-29.6	-32.8	18.4	6.04e-01	0	42	102	524288	20	5230
2026-01-06 01:34:37.37	23.69	12.97	-29.5	-32.7	18.5	6.01e-01	0	42	102	524288	20	5173
2026-01-06 01:34:38.37	23.74	13.08	-29.4	-32.9	18.8	6.00e-01	0	42	102	524288	19	5358
2026-01-06 01:34:39.37	23.79	13.18	-29.4	-32.9	18.8	6.02e-01	0	42	102	524288	19	5349
2026-01-06 01:34:40.38	23.84	13.29	-29.5	-33.1	18.6	6.01e-01	0	42	102	524288	19	5438
2026-01-06 01:34:41.39	23.89	13.39	-29.5	-33.2	18.6	6.01e-01	0	42	102	524288	19	5459
2026-01-06 01:34:42.39	23.94	13.50	-29.3	-32.5	19.0	6.01e-01	0	42	102	524288	19	5219
2026-01-06 01:34:43.40	24.00	13.61	-29.3	-32.4	19.1	5.99e-01	0	42	102	524288	19	5173
2026-01-06 01:34:44.40	24.05	13.71	-29.2	-32.2	19.2	6.02e-01	0	42	102	524288	19	5109
2026-01-06 01:34:45.41	24.10	13.82	-29.3	-32.4	19.1	6.00e-01	0	42	102	524288	19	5175
2026-01-06 01:34:46.42	24.16	13.93	-29.3	-32.6	19.0	5.99e-01	0	42	102	524288	19	5241
2026-01-06 01:34:47.43	24.21	14.04	-29.3	-32.4	19.2	6.03e-01	0	43	102	524288	19	5151
2026-01-06 01:34:48.44	24.27	14.15	-29.3	-32.6	19.0	6.01e-01	0	43	102	524288	19	5227
2026-01-06 01:34:49.45	24.32	14.26	-29.4	-32.7	19.0	6.00e-01	0	42	102	524288	19	5271
2026-01-06 01:34:50.45	24.38	14.37	-29.2	-32.3	19.2	6.03e-01	0	42	102	524288	19	5136
2026-01-06 01:34:51.46	24.43	14.48	-29.2	-32.4	19.2	6.02e-01	0	43	102	524288	19	5147
2026-01-06 01:34:52.47	24.49	14.59	-29.2	-32.3	19.3	5.99e-01	0	42	102	524288	19	5118
2026-01-06 01:34:53.48	24.55	14.71	-29.2	-32.2	19.3	6.01e-01	0	42	102	524288	19	5103
2026-01-06 01:34:54.49	24.61	14.82	-29.3	-32.5	19.2	6.00e-01	0	43	102	524288	19	5183
2026-01-06 01:34:55.49	24.66	14.93	-29.2	-32.3	19.2	6.02e-01	0	42	102	524288	19	5143
2026-01-06 01:34:56.50	24.72	15.05	-29.2	-32.2	19.3	6.00e-01	0	42	102	524288	19	5072
2026-01-06 01:34:57.51	24.78	15.16	-29.2	-32.1	19.4	6.02e-01	0	42	102	524288	19	5066
2026-01-06 01:34:58.51	24.84	15.28	-29.2	-32.3	19.3	6.02e-01	0	42	102	524288	19	5115
2026-01-06 01:34:59.50	24.90	15.39	-29.2	-32.2	19.3	6.00e-01	0	43	102	524288	19	5103
2026-01-06 01:35:00.51	24.96	15.51	-29.3	-32.5	19.1	6.02e-01	0	43	102	524288	19	5211
2026-01-06 01:35:01.51	25.02	15.62	-29.3	-32.5	19.2	5.99e-01	0	43	102	524288	19	5198
2026-01-06 01:35:02.52	25.08	15.74	-29.5	-33.0	18.9	6.00e-01	0	42	102	524288	19	5373
2026-01-06 01:35:03.53	25.14	15.86	-29.3	-32.5	19.2	6.01e-01	0	43	102	524288	19	5179
2026-01-06 01:35:04.53	25.20	15.98	-29.5	-33.1	18.8	6.01e-01	0	42	102	524288	19	5419
2026-01-06 01:35:05.54	25.26	16.10	-29.5	-32.6	18.7	6.01e-01	0	42	102	524288	20	5141
2026-01-06 01:35:06.55	25.33	16.22	-29.4	-32.3	19.0	5.99e-01	0	42	102	524288	20	5018
2026-01-06 01:35:07.56	25.39	16.34	-29.6	-32.7	18.7	5.99e-01	0	43	102	524288	20	5165
2026-01-06 01:35:08.56	25.45	16.46	-29.6	-32.6	18.7	6.00e-01	0	43	102	524288	20	5135
2026-01-06 01:35:09.57	25.52	16.58	-29.3	-32.0	19.2	6.01e-01	0	42	102	524288	20	4894
2026-01-06 01:35:10.58	25.58	16.70	-29.3	-32.4	19.3	6.00e-01	0	43	102	524288	19	5145
2026-01-06 01:35:11.58	25.65	16.83	-29.3	-32.4	19.3	6.00e-01	0	43	102	524288	19	5151
2026-01-06 01:35:12.59	25.72	16.95	-29.4	-32.7	19.1	6.02e-01	0	43	102	524288	19	5257
2026-01-06 01:35:13.59	25.78	17.07	-29.5	-32.9	19.0	6.00e-01	0	43	102	524288	19	5343
2026-01-06 01:35:14.60	25.85	17.20	-29.5	-33.0	18.9	5.99e-01	0	43	102	524288	19	5354
2026-01-06 01:35:15.61	25.92	17.33	-29.5	-33.0	19.0	6.02e-01	0	43	102	524288	19	5354
2026-01-06 01:35:16.61	25.98	17.45	-29.5	-32.9	19.0	6.02e-01	0	43	102	524288	19	5326
2026-01-06 01:35:17.63	26.05	17.58	-29.5	-32.4	18.9	5.98e-01	0	43	102	524288	20	5025
2026-01-06 01:35:18.62	26.12	17.71	-29.5	-32.9	19.0	6.01e-01	0	43	102	524288	19	5321
2026-01-06 01:35:19.63	26.19	17.84	-29.4	-32.8	19.1	6.01e-01	0	43	102	524288	19	5283
2026-01-06 01:35:20.63	26.26	17.96	-29.4	-32.5	19.3	6.00e-01	0	43	102	524288	19	5186
2026-01-06 01:35:21.63	26.33	18.09	-29.3	-32.4	19.3	6.00e-01	0	43	102	524288	19	5155
2026-01-06 01:35:22.64	26.41	18.22	-29.4	-32.7	19.2	5.99e-01	0	43	102	524288	19	5243
2026-01-06 01:35:23.64	26.48	18.35	-29.3	-32.4	19.3	6.02e-01	0	43	102	524288	19	5154
2026-01-06 01:35:24.65	26.55	18.49	-29.3	-32.3	19.3	6.01e-01	0	43	102	524288	19	5097
2026-01-06 01:35:25.66	26.62	18.62	-29.2	-32.2	19.4	6.00e-01	0	43	102	524288	19	5067
2026-01-06 01:35:26.67	26.70	18.75	-29.1	-31.9	19.6	6.01e-01	0	43	102	524288	19	4947
2026-01-06 01:35:27.68	26.77	18.89	-29.1	-31.8	19.7	6.02e-01	0	43	102	524288	19	4924
2026-01-06 01:35:28.68	26.85	19.02	-29.1	-32.3	19.7	5.98e-01	0	43	102	524288	18	5226
2026-01-06 01:35:29.69	26.93	19.16	-29.1	-31.8	19.7	6.02e-01	0	43	102	524288	19	4924
2026-01-06 01:35:30.69	27.00	19.30	-29.1	-31.9	19.6	6.00e-01	0	43	102	524288	19	4967
2026-01-06 01:35:31.70	27.08	19.43	-29.2	-32.0	19.6	6.00e-01	0	43	102	524288	19	4986
2026-01-06 01:35:32.71	27.16	19.57	-29.1	-32.0	19.6	6.01e-01	0	43	102	524288	19	4987
2026-01-06 01:35:33.72	27.24	19.71	-29.2	-32.2	19.5	6.02e-01	0	43	102	524288	19	5070
2026-01-06 01:35:34.72	27.32	19.85	-29.2	-32.0	19.6	5.99e-01	0	43	102	524288	19	5006
2026-01-06 01:35:35.73	27.40	19.99	-29.0	-32.1	19.9	6.02e-01	0	43	102	524288	18	5150
2026-01-06 01:35:36.73	27.48	20.13	-29.0	-32.0	19.9	6.00e-01	0	43	102	524288	18	5102
2026-01-06 01:35:37.74	27.56	20.28	-29.2	-32.1	19.6	6.02e-01	0	43	102	524288	19	5018
2026-01-06 01:35:38.74	27.64	20.42	-29.4	-32.5	19.3	6.01e-01	0	43	102	524288	19	5159
2026-01-06 01:35:39.74	27.73	20.56	-29.4	-32.5	19.4	6.01e-01	0	43	102	524288	19	5164
2026-01-06 01:35:40.75	27.81	20.71	-29.3	-32.4	19.4	6.01e-01	0	43	102	524288	19	5140
2026-01-06 01:35:41.76	27.90	20.85	-29.4	-32.6	19.3	6.02e-01	0	43	102	524288	19	5199
2026-01-06 01:35:42.77	27.98	21.00	-29.5	-32.8	19.2	6.00e-01	0	43	102	524288	19	5289
2026-01-06 01:35:43.77	28.07	21.15	-29.4	-32.2	19.2	6.00e-01	0	43	102	524288	20	4942
2026-01-06 01:35:44.78	28.16	21.30	-29.6	-33.1	19.0	6.02e-01	0	43	102	524288	19	5396
2026-01-06 01:35:45.79	28.24	21.45	-29.4	-32.0	19.3	6.00e-01	0	43	102	524288	20	4894
2026-01-06 01:35:46.79	28.33	21.60	-29.4	-32.6	19.3	6.01e-01	0	43	102	524288	19	5183
2026-01-06 01:35:47.80	28.42	21.75	-29.2	-32.4	19.3	6.00e-01	0	43	102	524288	19	5200
2026-01-06 01:35:48.80	28.51	21.90	-29.5	-32.6	19.0	6.01e-01	0	43	102	524288	20	5119
2026-01-06 01:35:49.81	28.61	22.05	-30.0	-33.7	18.3	6.00e-01	0	43	102	524288	20	5515
2026-01-06 01:35:50.81	28.70	22.21	-29.8	-33.2	18.6	6.00e-01	0	43	102	524288	20	5320
2026-01-06 01:35:51.82	28.79	22.36	-29.6	-32.8	18.8	6.04e-01	0	43	102	524288	20	5154
2026-01-06 01:35:52.83	28.89	22.52	-29.5	-32.7	18.6	6.01e-01	0	43	102	524288	20	5216
2026-01-06 01:35:53.84	28.98	22.68	-29.7	-32.8	18.8	6.00e-01	0	43	102	524288	20	5178
2026-01-06 01:35:54.84	29.08	22.83	-29.7	-33.0	18.4	6.02e-01	0	43	102	524288	20	5233
2026-01-06 01:35:55.85	29.18	22.99	-29.7	-33.0	18.2	6.02e-01	0	43	102	524288	20	5253
2026-01-06 01:35:56.85	29.28	23.15	-29.8	-33.1	18.7	6.00e-01	0	43	102	524288	20	5283
2026-01-06 01:35:57.86	29.38	23.31	-29.2	-33.1	18.5	6.03e-01	0	43	102	524288	18	5639
2026-01-06 01:35:58.86	29.48	23.47	-29.4	-32.6	19.2	6.02e-01	0	43	102	524288	19	5201
2026-01-06 01:35:59.86	29.58	23.64	-29.6	-33.0	19.2	6.01e-01	0	43	102	524288	19	5318
2026-01-06 01:36:00.87	29.68	23.80	-29.4	-32.5	19.1	6.02e-01	0	43	102	524288	19	5134
2026-01-06 01:36:01.87	29.78	23.96	-29.2	-31.9	18.9	6.03e-01	0	43	102	524288	19	4945
2026-01-06 01:36:02.87	29.89	24.13	-29.3	-32.5	19.2	6.02e-01	0	43	102	524288	19	5165
2026-01-06 01:36:03.88	29.99	24.30	-29.3	-32.3	18.7	6.01e-01	0	43	102	524288	19	5088
2026-01-06 01:36:04.89	30.10	24.47	-29.5	-32.7	18.7	6.02e-01	0	43	102	524288	19	5228
2026-01-06 01:36:05.89	30.21	24.63	-29.3	-32.4	19.6	6.04e-01	0	43	102	524288	19	5097
2026-01-06 01:36:06.90	30.32	24.81	-29.3	-32.1	19.7	5.99e-01	0	43	102	524288	19	5019
2026-01-06 01:36:07.91	30.43	24.98	-29.2	-32.1	19.7	6.04e-01	0	43	102	524288	19	5036
2026-01-06 01:36:08.91	30.54	25.15	-29.3	-32.3	19.7	6.00e-01	0	43	102	524288	19	5071
2026-01-06 01:36:09.92	30.65	25.32	-29.3	-32.2	19.7	6.00e-01	0	43	102	524288	19	5043
2026-01-06 01:36:10.93	30.77	25.50	-29.4	-32.5	19.5	6.01e-01	0	43	102	524288	19	5158
2026-01-06 01:36:11.94	30.89	25.68	-29.3	-32.3	19.6	6.02e-01	0	43	102	524288	19	5075
2026-01-06 01:36:12.95	31.00	25.85	-29.3	-32.2	19.7	6.03e-01	0	43	102	524288	19	5021
2026-01-06 01:36:13.95	31.12	26.03	-29.3	-32.2	19.7	5.99e-01	0	43	102	524288	19	5032
2026-01-06 01:36:14.96	31.24	26.21	-29.4	-32.5	19.6	6.02e-01	0	43	102	524288	19	5136
2026-01-06 01:36:15.96	31.36	26.39	-29.3	-32.2	19.8	6.02e-01	0	43	102	524288	19	5021
2026-01-06 01:36:16.97	31.48	26.57	-29.3	-32.1	19.8	6.03e-01	0	43	102	524288	19	5001
2026-01-06 01:36:17.97	31.61	26.76	-29.2	-32.1	19.8	6.04e-01	0	43	102	524288	19	4990
2026-01-06 01:36:18.98	31.73	26.94	-29.3	-32.3	19.7	6.02e-01	0	43	102	524288	19	5069
2026-01-06 01:36:19.99	31.86	27.13	-29.1	-31.8	19.9	6.00e-01	0	43	102	524288	19	4895
2026-01-06 01:36:21.00	31.99	27.31	-29.1	-31.8	20.0	6.00e-01	0	43	102	524288	19	4879
2026-01-06 01:36:22.00	32.12	27.50	-29.2	-32.0	19.9	6.00e-01	0	43	102	524288	19	4971
2026-01-06 01:36:23.01	32.25	27.69	-29.2	-31.9	19.9	6.02e-01	0	43	102	524288	19	4927
2026-01-06 01:36:24.02	32.38	27.88	-29.2	-31.9	20.0	6.02e-01	0	43	102	524288	19	4911
2026-01-06 01:36:25.03	32.52	28.07	-29.0	-32.0	20.2	6.00e-01	0	43	102	524288	18	5078
2026-01-06 01:36:26.03	32.65	28.27	-29.1	-32.1	20.2	6.03e-01	0	43	102	524288	18	5107
2026-01-06 01:36:27.04	32.79	28.46	-28.9	-31.8	20.3	6.02e-01	0	43	102	524288	18	5004
2026-01-06 01:36:28.05	32.93	28.66	-29.0	-31.9	20.3	6.00e-01	0	43	102	524288	18	5052
2026-01-06 01:36:29.05	33.07	28.85	-29.1	-32.1	20.1	6.03e-01	0	43	102	524288	18	5111
2026-01-06 01:36:30.06	33.22	29.05	-28.9	-31.8	20.3	6.03e-01	0	43	102	524288	18	5001
2026-01-06 01:36:31.06	33.36	29.25	-28.9	-31.6	20.5	6.02e-01	0	43	102	524288	18	4939
2026-01-06 01:36:32.07	33.51	29.45	-29.0	-31.9	20.3	6.00e-01	0	43	102	524288	18	5023
2026-01-06 01:36:33.08	33.66	29.66	-28.9	-31.8	20.4	6.00e-01	0	43	102	524288	18	5001
2026-01-06 01:36:34.08	33.81	29.86	-28.9	-31.7	20.4	6.00e-01	0	43	102	524288	18	4959
2026-01-06 01:36:35.09	33.96	30.07	-29.0	-32.0	20.2	6.02e-01	0	43	102	524288	18	5063
2026-01-06 01:36:36.09	34.11	30.27	-28.9	-31.7	20.4	6.01e-01	0	43	102	524288	18	4968
2026-01-06 01:36:37.10	34.27	30.48	-28.9	-31.6	20.5	6.02e-01	0	43	102	524288	18	4929
2026-01-06 01:36:38.11	34.43	30.69	-29.0	-32.0	20.2	6.00e-01	0	43	102	524288	18	5078
2026-01-06 01:36:39.12	34.59	30.90	-29.0	-32.0	20.2	6.02e-01	0	43	102	524288	18	5058
2026-01-06 01:36:40.13	34.75	31.11	-29.0	-32.0	20.2	6.01e-01	0	43	102	524288	18	5079
2026-01-06 01:36:41.13	34.92	31.33	-29.0	-32.0	20.2	6.02e-01	0	43	102	524288	18	5075
2026-01-06 01:36:42.13	35.08	31.54	-29.0	-32.0	20.3	6.03e-01	0	43	102	524288	18	5057
2026-01-06 01:36:43.14	35.25	31.76	-29.1	-31.8	20.1	6.01e-01	0	43	102	524288	19	4871
2026-01-06 01:36:44.15	35.42	31.98	-29.3	-32.1	19.9	6.01e-01	0	43	102	524288	19	4999
2026-01-06 01:36:45.16	35.60	32.20	-29.2	-31.9	20.0	6.02e-01	0	43	102	524288	19	4930
2026-01-06 01:36:46.17	35.78	32.42	-29.5	-32.6	19.7	6.00e-01	0	43	102	524288	19	5152
2026-01-06 01:36:47.17	35.95	32.64	-29.6	-32.6	19.3	6.04e-01	0	43	102	524288	20	5061
2026-01-06 01:36:48.17	36.13	32.86	-29.8	-33.0	19.0	6.01e-01	0	43	102	524288	20	5208
2026-01-06 01:36:49.18	36.32	33.09	-29.6	-32.6	19.3	6.02e-01	0	43	102	524288	20	5045
2026-01-06 01:36:50.19	36.50	33.32	-29.9	-33.1	19.0	6.03e-01	0	43	102	524288	20	5258
2026-01-06 01:36:51.20	36.69	33.54	-29.7	-32.8	19.1	6.01e-01	0	43	102	524288	20	5148
2026-01-06 01:36:52.20	36.88	33.77	-29.7	-32.8	19.2	6.02e-01	0	43	102	524288	20	5134
2026-01-06 01:36:53.21	37.08	34.01	-29.9	-33.2	18.9	6.02e-01	0	43	102	524288	20	5266
2026-01-06 01:36:54.21	37.28	34.24	-29.6	-32.5	19.3	6.00e-01	0	43	102	524288	20	5019
2026-01-06 01:36:55.21	37.47	34.47	-29.5	-32.2	19.6	6.01e-01	0	43	102	524288	20	4897
2026-01-06 01:36:56.22	37.68	34.71	-29.5	-32.3	19.5	6.01e-01	0	43	102	524288	20	4953
2026-01-06 01:36:57.22	37.88	34.94	-29.6	-32.4	19.4	5.99e-01	0	43	102	524288	20	4985
2026-01-06 01:36:58.23	38.09	35.18	-29.7	-32.7	19.3	5.99e-01	0	43	102	524288	20	5097
2026-01-06 01:36:59.23	38.30	35.42	-29.8	-33.0	19.1	6.04e-01	0	43	102	524288	20	5228
2026-01-06 01:37:00.25	38.52	35.67	-29.7	-32.8	19.2	6.01e-01	0	43	102	524288	20	5122
2026-01-06 01:37:01.25	38.74	35.91	-29.7	-32.6	19.4	6.01e-01	0	43	102	524288	20	5042
2026-01-06 01:37:02.27	38.96	36.16	-29.9	-33.2	19.0	6.00e-01	0	43	102	524288	20	5282
2026-01-06 01:37:03.27	39.19	36.40	-30.0	-33.5	18.8	6.02e-01	0	43	102	524288	20	5366
2026-01-06 01:37:04.27	39.41	36.65	-29.9	-33.3	18.9	6.04e-01	0	43	102	524288	20	5289
2026-01-06 01:37:05.27	39.64	36.90	-30.1	-33.4	18.6	6.00e-01	0	43	102	524288	21	5219
2026-01-06 01:37:06.28	39.88	37.15	-30.4	-34.1	18.1	6.01e-01	0	43	102	524288	21	5521
2026-01-06 01:37:07.29	40.12	37.40	-30.3	-33.8	18.3	6.02e-01	0	43	102	524288	21	5399
2026-01-06 01:37:08.30	40.36	37.66	-30.3	-33.9	18.3	6.03e-01	0	43	102	524288	21	5420
2026-01-06 01:37:09.30	40.61	37.91	-30.6	-34.6	17.9	6.01e-01	0	43	102	524288	21	5706
2026-01-06 01:37:10.31	40.86	38.17	-30.3	-33.9	18.3	6.01e-01	0	43	102	524288	21	5431
2026-01-06 01:37:11.32	41.12	38.43	-30.1	-33.1	18.8	6.02e-01	0	43	102	524288	21	5130
2026-01-06 01:37:12.32	41.38	38.69	-30.0	-33.1	18.8	6.01e-01	0	43	102	524288	21	5117
2026-01-06 01:37:13.33	41.64	38.95	-30.2	-33.4	18.6	6.02e-01	0	43	102	524288	21	5221
2026-01-06 01:37:14.33	41.91	39.21	-30.0	-32.9	18.9	6.01e-01	0	43	102	524288	21	5035
2026-01-06 01:37:15.34	42.18	39.48	-30.0	-32.8	19.0	6.01e-01	0	43	102	524288	21	5007
2026-01-06 01:37:16.35	42.46	39.75	-30.0	-33.1	18.8	6.02e-01	0	43	102	524288	21	5113
2026-01-06 01:37:17.36	42.74	40.01	-29.9	-32.7	19.0	6.01e-01	0	43	102	524288	21	4974
2026-01-06 01:37:18.36	43.02	40.28	-29.8	-32.8	18.9	6.01e-01	0	43	102	524288	20	5126
2026-01-06 01:37:19.37	43.31	40.55	-29.8	-32.8	18.9	6.02e-01	0	43	102	524288	20	5122
2026-01-06 01:37:20.38	43.61	40.83	-29.8	-33.0	19.2	6.02e-01	0	43	102	524288	20	5193
2026-01-06 01:37:21.38	43.91	41.10	-29.9	-33.1	18.9	5.99e-01	0	43	102	524288	20	5229
2026-01-06 01:37:22.39	44.22	41.37	-29.8	-32.9	18.8	6.02e-01	0	43	102	524288	20	5164
2026-01-06 01:37:23.40	44.53	41.65	-29.8	-32.8	19.3	6.00e-01	0	43	102	524288	20	5097
2026-01-06 01:37:24.41	44.85	41.93	-30.1	-33.7	18.8	6.01e-01	0	43	102	524288	20	5436
2026-01-06 01:37:25.42	45.17	42.21	-30.1	-33.2	18.7	6.00e-01	0	43	102	524288	21	5154
2026-01-06 01:37:26.42	45.50	42.48	-30.0	-32.9	19.0	6.00e-01	0	43	102	524288	21	5045
2026-01-06 01:37:27.43	45.83	42.77	-30.0	-33.0	18.9	6.01e-01	0	43	102	524288	21	5067
2026-01-06 01:37:28.44	46.17	43.05	-29.5	-32.2	19.6	6.02e-01	0	43	102	524288	20	4908
2026-01-06 01:37:29.44	46.51	43.33	-29.4	-32.0	19.9	5.99e-01	0	43	102	524288	20	4813
2026-01-06 01:37:30.45	46.87	43.62	-29.3	-31.7	20.0	6.00e-01	0	43	102	524288	20	4721
2026-01-06 01:37:31.46	47.23	43.90	-29.4	-31.8	20.0	6.02e-01	0	43	102	524288	20	4749
2026-01-06 01:37:32.47	47.59	44.19	-29.1	-31.2	20.3	6.00e-01	0	43	102	524288	20	4572
2026-01-06 01:37:33.48	47.96	44.48	-28.8	-30.7	20.9	6.03e-01	0	43	102	524288	19	4522
2026-01-06 01:37:34.49	48.34	44.77	-28.7	-30.7	21.0	6.02e-01	0	43	102	524288	19	4518
2026-01-06 01:37:35.49	48.73	45.05	-28.7	-30.5	21.1	6.00e-01	0	43	102	524288	19	4458
2026-01-06 01:37:36.49	49.12	45.34	-28.9	-31.5	20.8	6.05e-01	0	43	102	524288	18	4883
2026-01-06 01:37:37.50	49.52	45.63	-28.7	-31.0	21.0	6.01e-01	0	43	102	524288	18	4711
2026-01-06 01:37:38.51	49.93	45.92	-28.6	-30.8	21.1	6.04e-01	0	43	102	524288	18	4664
2026-01-06 01:37:39.52	50.34	46.22	-28.6	-30.8	21.2	5.98e-01	0	43	102	524288	18	4649
2026-01-06 01:37:40.53	50.76	46.51	-28.6	-31.0	21.1	6.04e-01	0	43	102	524288	18	4696
2026-01-06 01:37:41.53	51.19	46.80	-28.7	-31.1	21.0	6.01e-01	0	43	102	524288	18	4742
2026-01-06 01:37:42.53	51.63	47.09	-28.6	-30.8	21.2	6.03e-01	0	43	102	524288	18	4648
2026-01-06 01:37:43.54	52.08	47.39	-28.8	-31.4	20.8	6.03e-01	0	43	102	524288	18	4855
2026-01-06 01:37:44.54	52.53	47.68	-28.7	-31.1	21.0	6.01e-01	0	43	102	524288	18	4737
2026-01-06 01:37:45.55	52.99	47.98	-28.8	-31.4	20.8	5.99e-01	0	43	102	524288	18	4844
2026-01-06 01:37:46.55	53.46	48.27	-28.7	-31.1	21.1	6.02e-01	0	43	102	524288	18	4748
2026-01-06 01:37:47.55	53.94	48.56	-29.0	-31.9	20.6	6.01e-01	0	43	102	524288	18	5012
2026-01-06 01:37:48.56	54.44	48.86	-28.9	-31.6	20.8	6.03e-01	0	43	102	524288	18	4906
2026-01-06 01:37:49.56	54.93	49.15	-28.9	-31.6	20.7	6.02e-01	0	43	102	524288	18	4913
2026-01-06 01:37:50.56	55.44	49.44	-28.9	-31.6	20.6	6.01e-01	0	43	102	524288	18	4920
2026-01-06 01:37:51.57	55.96	49.74	-29.0	-31.7	20.7	6.00e-01	0	43	102	524288	18	4951
2026-01-06 01:37:52.57	56.49	50.03	-29.0	-31.7	20.7	6.00e-01	0	43	102	524288	18	4942
2026-01-06 01:37:53.58	57.03	50.32	-29.0	-31.8	20.7	6.01e-01	0	43	102	524288	18	4964
2026-01-06 01:37:54.59	57.59	50.61	-29.1	-31.5	20.5	6.01e-01	0	43	102	524288	19	4772
2026-01-06 01:37:55.59	58.14	50.90	-28.7	-30.7	20.9	6.00e-01	0	43	102	524288	19	4496
2026-01-06 01:37:56.60	58.72	51.19	-28.8	-30.9	20.9	5.99e-01	0	43	102	524288	19	4553
2026-01-06 01:37:57.60	59.30	51.48	-28.8	-30.8	21.0	6.01e-01	0	43	102	524288	19	4545
2026-01-06 01:37:58.61	59.90	51.77	-28.7	-31.0	21.1	6.02e-01	0	43	102	524288	18	4720
2026-01-06 01:37:59.62	60.51	52.05	-28.9	-31.5	20.9	6.00e-01	0	43	102	524288	18	4869
2026-01-06 01:38:00.63	61.13	52.34	-28.8	-31.4	21.0	6.01e-01	0	43	102	524288	18	4837
2026-01-06 01:38:01.64	61.76	52.62	-28.7	-31.1	21.0	6.02e-01	0	43	102	524288	18	4752
2026-01-06 01:38:02.65	62.41	52.91	-28.5	-30.9	21.1	6.02e-01	0	43	102	524288	18	4736
2026-01-06 01:38:03.65	63.06	53.18	-29.1	-31.9	20.6	6.03e-01	0	43	102	524288	18	5014
2026-01-06 01:38:04.66	63.73	53.46	-28.8	-30.9	20.9	6.04e-01	0	43	102	524288	19	4556
2026-01-06 01:38:05.67	64.42	53.74	-29.1	-31.4	20.7	6.00e-01	0	43	102	524288	19	4726
2026-01-06 01:38:06.68	65.11	54.01	-29.1	-31.4	20.5	6.02e-01	0	43	102	524288	19	4734
2026-01-06 01:38:07.69	65.82	54.28	-29.1	-31.6	20.2	6.02e-01	0	43	102	524288	19	4788
2026-01-06 01:38:08.69	66.54	54.54	-29.2	-31.8	20.5	6.00e-01	0	43	102	524288	19	4839
2026-01-06 01:38:09.69	67.27	54.80	-29.2	-31.8	20.5	6.01e-01	0	43	102	524288	19	4849
2026-01-06 01:38:10.70	68.02	55.06	-29.4	-32.3	20.1	6.02e-01	0	43	102	524288	19	5035
2026-01-06 01:38:11.70	68.78	55.32	-29.4	-32.1	20.2	6.00e-01	0	43	102	524288	19	4961
2026-01-06 01:38:12.71	69.56	55.57	-29.5	-32.5	20.0	6.05e-01	0	43	102	524288	19	5112
2026-01-06 01:38:13.71	70.34	55.82	-29.5	-32.5	20.1	5.99e-01	0	43	102	524288	19	5093
2026-01-06 01:38:14.71	71.14	56.06	-29.6	-32.3	19.8	6.00e-01	0	43	102	524288	20	4894
2026-01-06 01:38:15.71	71.96	56.30	-29.6	-32.4	19.8	6.02e-01	0	43	102	524288	20	4935
2026-01-06 01:38:16.71	72.78	56.54	-29.6	-32.4	19.7	6.02e-01	0	43	102	524288	20	4954
2026-01-06 01:38:17.72	73.63	56.77	-29.9	-33.1	19.4	5.99e-01	0	43	102	524288	20	5185
2026-01-06 01:38:18.73	74.50	56.99	-30.0	-32.9	19.2	6.02e-01	0	43	102	524288	21	4997
2026-01-06 01:38:19.74	75.37	57.21	-29.8	-32.4	19.5	6.00e-01	0	43	102	524288	21	4833
2026-01-06 01:38:20.75	76.27	57.43	-30.1	-33.1	19.0	6.01e-01	0	43	102	524288	21	5096
2026-01-06 01:38:21.75	77.16	57.64	-30.3	-33.6	18.7	6.01e-01	0	43	102	524288	21	5270
2026-01-06 01:38:22.76	78.08	57.84	-30.3	-33.5	18.8	6.00e-01	0	43	102	524288	21	5244
2026-01-06 01:38:23.77	79.02	58.04	-30.5	-34.1	18.4	6.00e-01	0	43	102	524288	21	5471
2026-01-06 01:38:24.77	79.96	58.23	-30.5	-34.2	18.4	5.99e-01	0	43	102	524288	21	5509
2026-01-06 01:38:25.78	80.92	58.41	-30.6	-33.9	18.2	6.02e-01	0	43	102	524288	22	5266
2026-01-06 01:38:26.78	81.88	58.59	-30.5	-33.6	18.4	6.00e-01	0	43	102	524288	22	5168
2026-01-06 01:38:27.79	82.87	58.76	-30.4	-33.9	18.6	6.00e-01	0	43	102	524288	21	5385
2026-01-06 01:38:28.79	83.86	58.92	-30.4	-33.5	18.5	6.00e-01	0	43	102	524288	22	5100
2026-01-06 01:38:29.81	84.88	59.08	-30.6	-33.9	18.3	6.01e-01	0	43	102	524288	22	5287
2026-01-06 01:38:30.81	85.90	59.23	-30.4	-33.5	18.5	6.03e-01	0	43	102	524288	22	5094
2026-01-06 01:38:31.81	86.92	59.37	-30.5	-34.1	18.5	6.00e-01	0	43	102	524288	21	5457
2026-01-06 01:38:32.82	87.97	59.50	-30.5	-34.2	18.4	5.99e-01	0	43	102	524288	21	5490
2026-01-06 01:38:33.83	89.02	59.62	-30.6	-34.3	18.2	5.99e-01	0	43	102	524288	21	5563
2026-01-06 01:38:34.84	90.09	59.74	-30.6	-34.0	18.2	6.03e-01	0	43	102	524288	22	5321
2026-01-06 01:38:35.85	91.17	59.84	-30.7	-34.3	18.1	6.02e-01	0	43	102	524288	22	5409
2026-01-06 01:38:36.85	92.24	59.94	-30.9	-34.8	17.7	6.01e-01	0	44	102	524288	22	5634
2026-01-06 01:38:37.86	93.33	60.03	-30.7	-34.2	18.0	6.02e-01	0	43	102	524288	22	5377
2026-01-06 01:38:38.87	94.43	60.11	-30.9	-34.6	17.8	6.01e-01	0	43	102	524288	22	5555
2026-01-06 01:38:39.86	95.51	60.18	-30.8	-34.6	17.9	6.02e-01	0	43	102	524288	22	5529
2026-01-06 01:38:40.87	96.63	60.24	-31.1	-35.3	17.4	6.00e-01	0	43	102	524288	22	5843
2026-01-06 01:38:41.88	97.74	60.29	-30.7	-34.2	18.1	5.98e-01	0	43	102	524288	22	5363
2026-01-06 01:38:42.89	98.86	60.33	-30.8	-34.3	18.0	6.02e-01	0	43	102	524288	22	5444
2026-01-06 01:38:43.90	99.99	60.37	-30.7	-34.3	18.0	6.01e-01	0	43	102	524288	22	5419
2026-01-06 01:38:44.90	101.10	60.39	-30.8	-34.5	17.5	6.03e-01	0	43	102	524288	22	5496
2026-01-06 01:38:45.91	102.23	60.40	-30.5	-34.3	18.2	5.99e-01	0	43	102	524288	21	5516
2026-01-06 01:38:46.92	103.36	60.41	-30.6	-33.9	18.3	6.01e-01	0	43	102	524288	22	5265
2026-01-06 01:38:47.92	104.48	60.40	-30.8	-34.5	17.9	6.03e-01	0	43	102	524288	22	5518
2026-01-06 01:38:48.93	105.60	60.38	-30.5	-34.1	18.5	6.02e-01	0	43	102	524288	21	5467
2026-01-06 01:38:49.94	106.73	60.36	-30.6	-34.3	18.3	6.01e-01	0	43	102	524288	21	5561
2026-01-06 01:38:50.95	107.85	60.32	-30.7	-34.3	18.0	6.02e-01	0	43	102	524288	22	5417
2026-01-06 01:38:51.96	108.97	60.28	-30.8	-34.6	17.8	6.00e-01	0	43	102	524288	22	5557
2026-01-06 01:38:52.97	110.09	60.22	-30.5	-33.5	18.5	6.03e-01	0	43	102	524288	22	5119
2026-01-06 01:38:53.98	111.20	60.16	-31.0	-35.0	17.7	6.02e-01	0	43	102	524288	22	5712
2026-01-06 01:38:54.98	112.29	60.09	-30.8	-34.4	18.0	6.01e-01	0	43	102	524288	22	5475
2026-01-06 01:38:55.99	113.39	60.00	-30.6	-33.8	18.3	6.00e-01	0	43	102	524288	22	5242
2026-01-06 01:38:57.00	114.48	59.91	-30.5	-33.7	18.5	6.01e-01	0	43	102	524288	22	5172
2026-01-06 01:38:58.00	115.55	59.81	-30.8	-34.5	17.9	5.99e-01	0	43	102	524288	22	5523
2026-01-06 01:38:59.01	116.62	59.70	-30.6	-34.0	18.2	5.99e-01	0	43	102	524288	22	5288
2026-01-06 01:39:00.01	117.68	59.59	-30.3	-33.6	18.8	6.03e-01	0	43	102	524288	21	5246
2026-01-06 01:39:01.02	118.73	59.46	-30.5	-34.0	18.6	6.00e-01	0	43	102	524288	21	5434
2026-01-06 01:39:02.03	119.78	59.33	-30.4	-33.9	18.6	6.00e-01	0	43	102	524288	21	5364
2026-01-06 01:39:03.04	120.81	59.18	-30.6	-33.9	18.2	6.01e-01	0	43	102	524288	22	5279
2026-01-06 01:39:04.04	121.82	59.03	-30.7	-34.1	18.2	6.01e-01	0	43	102	524288	22	5323
2026-01-06 01:39:05.05	122.83	58.87	-30.6	-34.0	18.2	5.98e-01	0	43	102	524288	22	5318
2026-01-06 01:39:06.06	123.83	58.71	-30.8	-34.5	17.9	6.05e-01	0	43	102	524288	22	5515
2026-01-06 01:39:07.06	124.80	58.54	-30.8	-34.6	17.8	6.01e-01	0	43	102	524288	22	5566
2026-01-06 01:39:08.07	125.77	58.36	-30.6	-34.0	18.2	6.01e-01	0	43	102	524288	22	5301
2026-01-06 01:39:09.08	126.73	58.17	-30.6	-34.0	18.2	6.02e-01	0	43	102	524288	22	5307
2026-01-06 01:39:10.08	127.67	57.98	-30.9	-34.9	17.7	5.99e-01	0	43	102	524288	22	5674
2026-01-06 01:39:11.09	128.60	57.78	-30.5	-33.7	18.3	6.00e-01	0	43	102	524288	22	5210
2026-01-06 01:39:12.10	129.52	57.57	-30.2	-33.4	18.9	6.03e-01	0	43	102	524288	21	5195
2026-01-06 01:39:13.11	130.42	57.36	-30.1	-33.0	19.2	6.00e-01	0	43	102	524288	21	5055
2026-01-06 01:39:14.11	131.30	57.14	-30.3	-33.7	18.7	6.03e-01	0	43	102	524288	21	5314
2026-01-06 01:39:15.11	132.17	56.92	-30.2	-33.4	18.9	6.00e-01	0	43	102	524288	21	5206
2026-01-06 01:39:16.11	133.02	56.70	-30.0	-33.4	19.2	6.01e-01	0	43	102	524288	20	5306
2026-01-06 01:39:17.12	133.87	56.46	-30.0	-33.3	19.2	6.03e-01	0	43	102	524288	20	5279
2026-01-06 01:39:18.13	134.70	56.22	-30.3	-33.5	18.9	6.01e-01	0	43	102	524288	21	5225
2026-01-06 01:39:19.13	135.51	55.98	-30.3	-33.7	18.6	6.04e-01	0	43	102	524288	21	5334
2026-01-06 01:39:20.14	136.31	55.74	-30.2	-33.4	18.9	6.03e-01	0	43	102	524288	21	5216
2026-01-06 01:39:21.14	137.10	55.49	-30.4	-34.0	18.5	6.00e-01	0	43	102	524288	21	5425
2026-01-06 01:39:22.15	137.87	55.23	-30.0	-32.9	19.2	6.03e-01	0	43	102	524288	21	5010
2026-01-06 01:39:23.16	138.63	54.97	-30.0	-32.9	19.2	6.03e-01	0	43	102	524288	21	5030
2026-01-06 01:39:24.16	139.37	54.71	-30.1	-33.6	19.1	6.00e-01	0	43	102	524288	20	5371
2026-01-06 01:39:25.17	140.11	54.45	-30.0	-33.4	19.1	6.03e-01	0	43	102	524288	20	5320
2026-01-06 01:39:26.18	140.83	54.18	-30.0	-33.2	19.2	6.01e-01	0	43	102	524288	20	5250
2026-01-06 01:39:27.18	141.53	53.91	-29.9	-33.1	19.4	6.02e-01	0	43	102	524288	20	5196
2026-01-06 01:39:28.19	142.22	53.63	-30.2	-33.5	18.9	5.99e-01	0	43	102	524288	21	5225
2026-01-06 01:39:29.19	142.90	53.36	-30.1	-33.1	19.1	6.02e-01	0	43	102	524288	21	5084
2026-01-06 01:39:30.20	143.57	53.08	-30.2	-33.4	18.8	5.99e-01	0	43	102	524288	21	5206
2026-01-06 01:39:31.21	144.22	52.80	-29.7	-32.6	19.6	5.99e-01	0	43	102	524288	20	5005
2026-01-06 01:39:32.21	144.86	52.52	-29.6	-32.2	19.9	6.04e-01	0	43	102	524288	20	4885
2026-01-06 01:39:33.21	145.48	52.24	-30.0	-33.2	19.3	6.02e-01	0	43	102	524288	20	5257
2026-01-06 01:39:34.22	146.10	51.95	-30.0	-33.4	19.2	6.01e-01	0	43	102	524288	20	5321
2026-01-06 01:39:35.22	146.70	51.66	-30.3	-33.7	18.7	6.01e-01	0	43	102	524288	21	5333
2026-01-06 01:39:36.23	147.30	51.37	-30.6	-33.9	18.2	6.00e-01	0	43	102	524288	22	5262
2026-01-06 01:39:37.24	147.88	51.08	-30.3	-33.3	18.7	5.99e-01	0	43	102	524288	22	5035
2026-01-06 01:39:38.24	148.45	50.79	-29.9	-32.6	19.3	6.02e-01	0	43	102	524288	21	4920
2026-01-06 01:39:39.25	149.01	50.50	-30.1	-33.6	19.1	6.00e-01	0	43	102	524288	20	5371
2026-01-06 01:39:40.25	149.56	50.21	-30.5	-34.1	18.4	6.01e-01	0	43	102	524288	21	5473
2026-01-06 01:39:41.25	150.09	49.92	-30.5	-34.3	18.2	6.01e-01	0	43	102	524288	21	5572
2026-01-06 01:39:42.26	150.62	49.62	-30.2	-33.3	18.8	6.03e-01	0	43	102	524288	21	5159
2026-01-06 01:39:43.27	151.14	49.33	-30.1	-33.0	19.1	6.02e-01	0	43	102	524288	21	5061
2026-01-06 01:39:44.27	151.65	49.03	-30.1	-33.1	19.0	6.02e-01	0	43	102	524288	21	5106
2026-01-06 01:39:45.28	152.15	48.74	-30.1	-33.2	18.9	5.98e-01	0	43	102	524288	21	5135
2026-01-06 01:39:46.28	152.64	48.44	-30.2	-33.3	18.9	6.01e-01	0	43	102	524288	21	5174
2026-01-06 01:39:47.29	153.12	48.15	-30.2	-33.4	18.8	6.00e-01	0	43	102	524288	21	5211
2026-01-06 01:39:48.30	153.59	47.85	-30.2	-33.5	18.7	6.00e-01	0	43	102	524288	21	5236
2026-01-06 01:39:49.31	154.05	47.55	-30.3	-33.8	18.6	6.00e-01	0	43	102	524288	21	5341
2026-01-06 01:39:50.31	154.50	47.26	-30.6	-33.9	18.2	6.01e-01	0	43	102	524288	22	5304
2026-01-06 01:39:51.32	154.95	46.96	-30.1	-33.2	18.9	6.03e-01	0	43	102	524288	21	5135
2026-01-06 01:39:52.32	155.38	46.67	-30.1	-33.0	19.1	6.00e-01	0	43	102	524288	21	5054
2026-01-06 01:39:53.33	155.81	46.38	-30.0	-33.4	19.1	6.03e-01	0	43	102	524288	20	5329
2026-01-06 01:39:54.33	156.23	46.08	-30.1	-33.2	18.9	6.02e-01	0	43	102	524288	21	5129
2026-01-06 01:39:55.33	156.64	45.79	-30.0	-32.9	19.0	6.01e-01	0	43	102	524288	21	5018
2026-01-06 01:39:56.34	157.05	45.50	-29.8	-32.3	19.5	6.03e-01	0	43	102	524288	21	4792
2026-01-06 01:39:57.35	157.45	45.21	-29.7	-32.1	19.6	6.00e-01	0	43	102	524288	21	4749
2026-01-06 01:39:58.35	157.84	44.92	-29.9	-33.2	19.2	6.00e-01	0	44	102	524288	20	5238
2026-01-06 01:39:59.36	158.22	44.63	-30.1	-33.5	19.0	6.04e-01	0	43	102	524288	20	5381
2026-01-06 01:40:00.36	158.59	44.34	-30.0	-33.4	19.1	6.00e-01	0	43	102	524288	20	5321
2026-01-06 01:40:01.36	158.96	44.05	-29.8	-32.8	19.4	6.01e-01	0	43	102	524288	20	5113
2026-01-06 01:40:02.37	159.33	43.77	-29.3	-32.5	19.3	6.01e-01	0	43	102	524288	20	5182
2026-01-06 01:40:03.37	159.68	43.48	-29.9	-33.1	19.2	5.99e-01	0	43	102	524288	20	5231
2026-01-06 01:40:04.37	160.03	43.20	-29.9	-33.3	19.1	6.01e-01	0	43	102	524288	20	5287
2026-01-06 01:40:05.38	160.37	42.91	-30.0	-33.4	19.0	6.02e-01	0	43	102	524288	20	5342
2026-01-06 01:40:06.39	160.71	42.63	-29.8	-33.0	19.3	6.03e-01	0	43	102	524288	20	5173
2026-01-06 01:40:07.40	161.05	42.35	-29.4	-32.8	19.0	5.99e-01	0	43	102	524288	20	5316
2026-01-06 01:40:08.41	161.37	42.06	-30.2	-33.4	17.8	6.04e-01	0	43	102	524288	21	5229
2026-01-06 01:40:09.41	161.69	41.79	-30.1	-33.6	18.7	6.00e-01	0	43	102	524288	20	5428
2026-01-06 01:40:10.42	162.01	41.51	-30.1	-33.6	18.9	6.00e-01	0	43	102	524288	20	5421
2026-01-06 01:40:11.42	162.32	41.23	-30.1	-33.2	18.3	6.04e-01	0	43	102	524288	21	5155
2026-01-06 01:40:12.43	162.62	40.96	-30.7	-34.3	17.8	6.01e-01	0	43	102	524288	21	5465
2026-01-06 01:40:13.44	162.92	40.68	-30.1	-33.3	18.8	6.00e-01	0	43	102	524288	21	5191
2026-01-06 01:40:14.45	163.22	40.41	-30.1	-33.6	18.4	5.99e-01	0	43	102	524288	20	5430
2026-01-06 01:40:15.45	163.51	40.14	-30.0	-33.4	18.9	6.04e-01	0	43	102	524288	20	5350
2026-01-06 01:40:16.46	163.79	39.87	-30.1	-33.1	18.9	6.01e-01	0	43	102	524288	21	5094
2026-01-06 01:40:17.47	164.07	39.60	-29.9	-33.3	19.0	6.02e-01	0	43	102	524288	20	5285
2026-01-06 01:40:18.48	164.35	39.33	-30.0	-33.3	19.0	5.99e-01	0	43	102	524288	20	5308
2026-01-06 01:40:19.48	164.62	39.07	-30.0	-33.5	18.9	6.02e-01	0	43	102	524288	20	5367
2026-01-06 01:40:20.49	164.89	38.80	-30.0	-33.5	18.9	6.00e-01	0	43	102	524288	20	5384
2026-01-06 01:40:21.50	165.15	38.54	-30.0	-33.5	18.9	6.02e-01	0	43	102	524288	20	5384
2026-01-06 01:40:22.51	165.41	38.28	-30.0	-33.6	18.9	6.01e-01	0	43	102	524288	20	5438
2026-01-06 01:40:23.51	165.66	38.02	-30.3	-33.7	18.5	6.01e-01	0	43	102	524288	21	5355
2026-01-06 01:40:24.52	165.91	37.76	-30.3	-33.7	18.5	6.02e-01	0	43	102	524288	21	5316
2026-01-06 01:40:25.52	166.16	37.51	-30.2	-33.4	18.7	6.02e-01	0	43	102	524288	21	5226
2026-01-06 01:40:26.53	166.40	37.25	-30.1	-33.3	18.7	6.01e-01	0	43	102	524288	21	5200
2026-01-06 01:40:27.54	166.64	37.00	-30.0	-33.4	18.9	6.01e-01	0	43	102	524288	20	5348
2026-01-06 01:40:28.55	166.87	36.74	-29.9	-33.2	19.1	6.02e-01	0	43	102	524288	20	5247
2026-01-06 01:40:29.55	167.10	36.49	-29.8	-33.0	19.2	6.02e-01	0	43	102	524288	20	5200
2026-01-06 01:40:30.56	167.33	36.24	-29.8	-32.8	19.3	6.02e-01	0	43	102	524288	20	5110
2026-01-06 01:40:31.56	167.56	36.00	-29.5	-32.2	19.7	6.02e-01	0	43	102	524288	20	4912
2026-01-06 01:40:32.58	167.78	35.75	-29.5	-32.5	19.9	6.03e-01	0	43	102	524288	19	5130
2026-01-06 01:40:33.58	168.00	35.51	-29.5	-32.5	19.9	6.04e-01	0	43	102	524288	19	5117
2026-01-06 01:40:34.59	168.21	35.26	-29.5	-32.7	19.7	6.03e-01	0	43	102	524288	19	5187
2026-01-06 01:40:35.59	168.42	35.02	-29.4	-32.3	20.0	6.03e-01	0	43	102	524288	19	5041
2026-01-06 01:40:36.60	168.63	34.78	-29.1	-31.6	20.3	5.99e-01	0	43	102	524288	19	4816
2026-01-06 01:40:37.61	168.84	34.54	-29.0	-31.9	20.5	5.99e-01	0	43	102	524288	18	5008
2026-01-06 01:40:38.62	169.04	34.31	-29.0	-31.8	20.6	6.00e-01	0	43	102	524288	18	4990
2026-01-06 01:40:39.62	169.24	34.07	-29.0	-31.9	20.5	6.01e-01	0	43	102	524288	18	5018
2026-01-06 01:40:40.62	169.43	33.84	-29.1	-31.7	20.4	5.99e-01	0	43	102	524288	19	4825
2026-01-06 01:40:41.63	169.62	33.61	-29.3	-32.1	20.1	5.99e-01	0	43	102	524288	19	4961
2026-01-06 01:40:42.63	169.81	33.38	-29.2	-31.8	20.3	6.03e-01	0	43	102	524288	19	4863
2026-01-06 01:40:43.64	170.00	33.15	-29.0	-31.2	20.6	6.00e-01	0	43	102	524288	19	4684
2026-01-06 01:40:44.65	170.19	32.92	-28.8	-31.5	20.7	6.01e-01	0	43	102	524288	18	4868
2026-01-06 01:40:45.66	170.37	32.69	-28.8	-31.2	20.8	6.00e-01	0	43	102	524288	18	4797
2026-01-06 01:40:46.66	170.55	32.47	-28.8	-31.5	20.7	5.99e-01	0	43	102	524288	18	4872
2026-01-06 01:40:47.67	170.73	32.25	-28.9	-31.5	20.7	6.03e-01	0	43	102	524288	18	4896
2026-01-06 01:40:48.68	170.91	32.03	-28.8	-31.5	20.7	6.02e-01	0	43	102	524288	18	4881
2026-01-06 01:40:49.69	171.08	31.80	-28.9	-31.6	20.6	6.04e-01	0	43	102	524288	18	4917
2026-01-06 01:40:50.69	171.25	31.59	-28.9	-31.8	20.5	6.01e-01	0	43	102	524288	18	4976
2026-01-06 01:40:51.70	171.42	31.37	-28.8	-31.5	20.6	6.00e-01	0	43	102	524288	18	4890
2026-01-06 01:40:52.71	171.59	31.15	-28.8	-31.4	20.7	6.01e-01	0	43	102	524288	18	4864
2026-01-06 01:40:53.71	171.75	30.94	-28.8	-31.3	20.8	6.01e-01	0	43	102	524288	18	4826
2026-01-06 01:40:54.72	171.91	30.73	-28.7	-31.3	20.8	6.00e-01	0	43	102	524288	18	4808
2026-01-06 01:40:55.72	172.07	30.52	-28.7	-31.2	20.9	5.99e-01	0	43	102	524288	18	4781
2026-01-06 01:40:56.73	172.23	30.31	-28.8	-31.3	20.8	6.00e-01	0	43	102	524288	18	4835
2026-01-06 01:40:57.74	172.38	30.10	-29.0	-31.8	20.5	6.00e-01	0	43	102	524288	18	4984
2026-01-06 01:40:58.75	172.54	29.89	-29.2	-31.9	20.2	6.01e-01	0	43	102	524288	19	4895
2026-01-06 01:40:59.76	172.69	29.68	-29.2	-31.8	20.3	6.04e-01	0	43	102	524288	19	4864
2026-01-06 01:41:00.74	172.84	29.48	-29.1	-31.7	20.3	6.01e-01	0	43	102	524288	19	4839
2026-01-06 01:41:01.75	172.98	29.28	-29.1	-31.7	20.3	6.03e-01	0	43	102	524288	19	4854
2026-01-06 01:41:02.76	173.13	29.08	-29.3	-32.1	20.0	5.98e-01	0	43	102	524288	19	4977
2026-01-06 01:41:03.77	173.27	28.88	-29.2	-32.0	20.1	6.01e-01	0	43	102	524288	19	4949
2026-01-06 01:41:04.78	173.42	28.68	-29.5	-32.7	19.6	6.02e-01	0	43	102	524288	19	5186
2026-01-06 01:41:05.78	173.56	28.48	-29.3	-31.8	19.8	6.00e-01	0	43	102	524288	20	4784
2026-01-06 01:41:06.79	173.70	28.28	-29.2	-32.0	20.0	6.03e-01	0	43	102	524288	19	4958
2026-01-06 01:41:07.80	173.83	28.09	-29.4	-32.4	19.8	6.05e-01	0	43	102	524288	19	5102
2026-01-06 01:41:08.80	173.97	27.90	-29.3	-32.2	19.9	6.02e-01	0	43	102	524288	19	5023
2026-01-06 01:41:09.82	174.10	27.70	-29.2	-32.0	20.1	6.03e-01	0	43	102	524288	19	4957
2026-01-06 01:41:10.83	174.24	27.51	-29.2	-32.0	20.1	6.00e-01	0	43	102	524288	19	4949
2026-01-06 01:41:11.83	174.37	27.32	-29.4	-32.4	19.8	6.03e-01	0	43	102	524288	19	5086
2026-01-06 01:41:12.83	174.50	27.13	-29.5	-32.7	19.7	6.02e-01	0	43	102	524288	19	5205
2026-01-06 01:41:13.84	174.62	26.95	-29.4	-32.4	19.8	5.99e-01	0	43	102	524288	19	5083
2026-01-06 01:41:14.85	174.75	26.76	-29.2	-32.0	20.1	6.03e-01	0	43	102	524288	19	4946
2026-01-06 01:41:15.85	174.87	26.58	-29.2	-31.9	20.0	6.03e-01	0	43	102	524288	19	4927
2026-01-06 01:41:16.85	175.00	26.39	-29.4	-32.3	19.8	6.02e-01	0	43	102	524288	19	5068
2026-01-06 01:41:17.86	175.12	26.21	-29.3	-32.3	19.9	6.01e-01	0	43	102	524288	19	5045
2026-01-06 01:41:18.86	175.24	26.03	-29.4	-32.5	19.7	6.01e-01	0	43	102	524288	19	5138
2026-01-06 01:41:19.87	175.36	25.85	-29.4	-32.5	19.7	6.01e-01	0	43	102	524288	19	5118
2026-01-06 01:41:20.88	175.48	25.67	-29.5	-32.6	19.7	6.01e-01	0	43	102	524288	19	5173
2026-01-06 01:41:21.88	175.59	25.49	-29.6	-32.4	19.4	6.03e-01	0	43	102	524288	20	4981
2026-01-06 01:41:22.88	175.71	25.32	-29.8	-33.1	19.0	6.01e-01	0	43	102	524288	20	5236
2026-01-06 01:41:23.89	175.82	25.14	-29.7	-32.7	19.2	5.99e-01	0	43	102	524288	20	5103
2026-01-06 01:41:24.90	175.93	24.97	-29.7	-32.8	19.2	6.00e-01	0	43	102	524288	20	5135
2026-01-06 01:41:25.90	176.04	24.80	-29.8	-33.1	19.0	6.04e-01	0	43	102	524288	20	5253
2026-01-06 01:41:26.91	176.15	24.62	-29.8	-33.1	18.9	6.03e-01	0	43	102	524288	20	5258
2026-01-06 01:41:27.92	176.26	24.45	-30.0	-33.5	18.7	6.01e-01	0	43	102	524288	20	5407
2026-01-06 01:41:28.92	176.37	24.28	-29.9	-33.3	18.8	6.01e-01	0	43	102	524288	20	5325
2026-01-06 01:41:29.93	176.48	24.11	-29.9	-33.4	18.8	6.02e-01	0	43	102	524288	20	5355
2026-01-06 01:41:30.94	176.58	23.95	-29.7	-32.9	19.0	6.00e-01	0	43	102	524288	20	5168
2026-01-06 01:41:31.95	176.69	23.78	-29.6	-32.6	19.2	6.00e-01	0	43	102	524288	20	5067
2026-01-06 01:41:32.95	176.79	23.61	-28.9	-31.9	19.2	6.00e-01	0	43	102	524288	20	5095
2026-01-06 01:41:33.96	176.89	23.45	-29.7	-32.7	19.1	6.01e-01	0	43	102	524288	20	5106
2026-01-06 01:41:34.97	176.99	23.29	-29.7	-32.8	18.3	6.04e-01	0	43	102	524288	20	5136
2026-01-06 01:41:35.98	177.09	23.12	-29.7	-32.9	18.2	6.01e-01	0	43	102	524288	20	5163
2026-01-06 01:41:36.98	177.19	22.96	-29.8	-32.9	19.0	6.01e-01	0	43	102	524288	20	5196
2026-01-06 01:41:37.99	177.29	22.80	-29.9	-33.4	18.3	6.03e-01	0	43	102	524288	20	5369
2026-01-06 01:41:39.00	177.39	22.64	-29.7	-32.9	18.6	5.98e-01	0	43	102	524288	20	5165
2026-01-06 01:41:40.00	177.48	22.49	-29.5	-32.3	19.4	6.02e-01	0	43	102	524288	20	4965
2026-01-06 01:41:41.00	177.58	22.33	-29.5	-32.8	19.5	6.02e-01	0	43	102	524288	19	5238
2026-01-06 01:41:42.01	177.67	22.17	-29.6	-32.9	19.4	6.02e-01	0	43	102	524288	19	5307
2026-01-06 01:41:43.03	177.77	22.01	-29.5	-32.7	19.5	5.99e-01	0	43	102	524288	19	5207
2026-01-06 01:41:44.03	177.86	21.86	-29.5	-32.8	19.4	6.00e-01	0	43	102	524288	19	5261
2026-01-06 01:41:45.04	177.95	21.71	-29.5	-32.7	19.5	6.01e-01	0	43	102	524288	19	5206
2026-01-06 01:41:46.04	178.04	21.56	-29.5	-32.7	19.5	6.00e-01	0	43	102	524288	19	5210
2026-01-06 01:41:47.05	178.13	21.40	-29.6	-33.0	19.3	5.97e-01	0	43	102	524288	19	5326
2026-01-06 01:41:48.06	178.22	21.25	-29.4	-32.5	19.6	6.02e-01	0	43	102	524288	19	5144
2026-01-06 01:41:49.06	178.31	21.10	-29.3	-32.3	19.7	6.00e-01	0	43	102	524288	19	5083
2026-01-06 01:41:50.07	178.39	20.95	-29.3	-32.2	19.7	6.01e-01	0	43	102	524288	19	5045
2026-01-06 01:41:51.08	178.48	20.81	-29.2	-32.0	19.9	6.04e-01	0	43	102	524288	19	4977
2026-01-06 01:41:52.08	178.56	20.66	-29.2	-32.1	19.8	6.01e-01	0	43	102	524288	19	5005
2026-01-06 01:41:53.09	178.65	20.51	-29.2	-32.0	19.9	6.00e-01	0	43	102	524288	19	4974
2026-01-06 01:41:54.09	178.73	20.37	-29.3	-32.3	19.7	6.02e-01	0	43	102	524288	19	5082
2026-01-06 01:41:55.10	178.81	20.22	-29.4	-32.4	19.5	6.03e-01	0	43	102	524288	19	5119
2026-01-06 01:41:56.11	178.90	20.08	-29.2	-31.9	19.8	5.99e-01	0	43	102	524288	19	4945
2026-01-06 01:41:57.12	178.98	19.94	-29.1	-31.8	19.9	6.00e-01	0	43	102	524288	19	4912
2026-01-06 01:41:58.13	179.06	19.79	-29.2	-32.0	19.8	6.03e-01	0	43	102	524288	19	4969
2026-01-06 01:41:59.13	179.14	19.65	-29.2	-32.0	19.8	6.00e-01	0	43	102	524288	19	4977
2026-01-06 01:42:00.14	179.22	19.51	-29.2	-32.1	19.8	6.01e-01	0	43	102	524288	19	5020
2026-01-06 01:42:01.14	179.30	19.38	-29.2	-32.0	19.8	6.00e-01	0	43	102	524288	19	4998
2026-01-06 01:42:02.15	179.37	19.24	-29.2	-32.2	19.7	6.00e-01	0	43	102	524288	19	5062
2026-01-06 01:42:03.16	179.45	19.10	-29.2	-32.0	19.8	5.99e-01	0	43	102	524288	19	4991
2026-01-06 01:42:04.17	179.53	18.96	-29.2	-32.1	19.8	6.02e-01	0	43	102	524288	19	5033
2026-01-06 01:42:05.17	179.60	18.83	-29.4	-32.4	19.6	6.01e-01	0	43	102	524288	19	5143
2026-01-06 01:42:06.18	179.68	18.69	-29.2	-32.1	19.7	6.00e-01	0	43	102	524288	19	5031
2026-01-06 01:42:07.19	179.75	18.55	-29.3	-32.3	19.6	6.02e-01	0	43	102	524288	19	5106
2026-01-06 01:42:08.19	179.82	18.42	-29.4	-32.7	19.4	6.02e-01	0	43	102	524288	19	5247
2026-01-06 01:42:09.19	179.90	18.29	-29.4	-32.6	19.5	6.00e-01	0	43	102	524288	19	5187
2026-01-06 01:42:10.20	179.97	18.16	-29.4	-32.6	19.4	5.99e-01	0	43	102	524288	19	5217
2026-01-06 01:42:11.20	180.04	18.03	-29.4	-32.5	19.5	6.01e-01	0	43	102	524288	19	5174
2026-01-06 01:42:12.21	180.11	17.89	-29.0	-32.0	19.3	5.99e-01	0	43	102	524288	19	5128
2026-01-06 01:42:13.22	180.18	17.76	-29.3	-32.3	19.6	5.98e-01	0	43	102	524288	19	5102
2026-01-06 01:42:14.22	180.25	17.63	-29.2	-32.0	19.8	6.01e-01	0	43	102	524288	19	4997
2026-01-06 01:42:15.23	180.32	17.51	-29.2	-32.0	19.7	5.98e-01	0	43	102	524288	19	4999
2026-01-06 01:42:16.22	180.39	17.38	-29.2	-32.0	19.8	6.00e-01	0	43	102	524288	19	5001
2026-01-06 01:42:17.23	180.46	17.25	-29.2	-32.2	19.4	6.01e-01	0	43	102	524288	19	5091
2026-01-06 01:42:18.24	180.52	17.12	-29.2	-32.1	19.7	6.02e-01	0	43	102	524288	19	5009
2026-01-06 01:42:19.24	180.59	17.00	-29.2	-32.0	19.8	6.01e-01	0	43	102	524288	19	4989
2026-01-06 01:42:20.25	180.66	16.87	-29.3	-32.3	19.6	6.00e-01	0	43	102	524288	19	5110
2026-01-06 01:42:21.26	180.72	16.75	-29.2	-32.2	19.7	5.99e-01	0	43	102	524288	19	5042
2026-01-06 01:42:22.26	180.79	16.63	-29.2	-32.2	19.6	6.04e-01	0	43	102	524288	19	5080
2026-01-06 01:42:23.27	180.85	16.50	-29.2	-32.0	19.7	6.00e-01	0	43	102	524288	19	5002
2026-01-06 01:42:24.27	180.92	16.38	-29.2	-32.0	19.7	6.03e-01	0	43	102	524288	19	4993
2026-01-06 01:42:25.27	180.98	16.26	-29.2	-32.1	19.6	5.99e-01	0	43	102	524288	19	5038
2026-01-06 01:42:26.27	181.04	16.14	-29.2	-32.1	19.7	6.01e-01	0	43	102	524288	19	5027
2026-01-06 01:42:27.28	181.11	16.02	-29.3	-32.3	19.6	6.01e-01	0	43	102	524288	19	5094
2026-01-06 01:42:28.28	181.17	15.90	-29.3	-32.3	19.5	6.00e-01	0	43	102	524288	19	5117
2026-01-06 01:42:29.28	181.23	15.78	-29.3	-32.3	19.5	5.99e-01	0	43	102	524288	19	5087
2026-01-06 01:42:30.28	181.29	15.66	-29.3	-32.2	19.5	6.00e-01	0	43	102	524288	19	5080
2026-01-06 01:42:31.28	181.35	15.54	-29.3	-32.5	19.4	6.01e-01	0	43	102	524288	19	5156
2026-01-06 01:42:32.28	181.41	15.43	-29.2	-32.2	19.5	6.00e-01	0	43	102	524288	19	5072
2026-01-06 01:42:33.28	181.47	15.31	-29.4	-32.7	19.3	5.99e-01	0	43	102	524288	19	5231
2026-01-06 01:42:34.29	181.53	15.19	-29.5	-32.8	19.2	6.00e-01	0	43	102	524288	19	5299
2026-01-06 01:42:35.30	181.59	15.08	-29.5	-32.8	19.1	6.02e-01	0	43	102	524288	19	5300
2026-01-06 01:42:36.31	181.65	14.96	-29.5	-33.0	19.0	6.00e-01	0	43	102	524288	19	5353
2026-01-06 01:42:37.31	181.70	14.85	-29.5	-32.8	19.1	6.00e-01	0	43	102	524288	19	5292
2026-01-06 01:42:38.32	181.76	14.73	-29.4	-32.8	19.1	6.01e-01	0	43	102	524288	19	5297
2026-01-06 01:42:39.33	181.82	14.62	-29.5	-32.8	19.1	6.01e-01	0	43	102	524288	19	5309
2026-01-06 01:42:40.34	181.87	14.50	-29.5	-33.0	19.0	5.99e-01	0	43	102	524288	19	5369
2026-01-06 01:42:41.34	181.93	14.39	-29.7	-33.0	18.6	6.00e-01	0	43	102	524288	20	5252
2026-01-06 01:42:42.35	181.99	14.28	-29.8	-33.2	18.4	6.02e-01	0	43	102	524288	20	5361
2026-01-06 01:42:43.35	182.04	14.17	-29.5	-32.4	18.9	6.02e-01	0	43	102	524288	20	5059
2026-01-06 01:42:44.36	182.10	14.06	-29.4	-32.7	19.2	6.00e-01	0	43	102	524288	19	5243
2026-01-06 01:42:45.36	182.15	13.95	-29.5	-32.6	18.9	6.03e-01	0	43	102	524288	20	5099
2026-01-06 01:42:46.37	182.20	13.84	-29.4	-32.3	19.0	6.00e-01	0	43	102	524288	20	5025
2026-01-06 01:42:47.37	182.26	13.73	-29.5	-32.9	19.1	6.02e-01	0	43	102	524288	19	5311
2026-01-06 01:42:48.37	182.31	13.62	-29.5	-32.9	19.0	5.99e-01	0	43	102	524288	19	5328
2026-01-06 01:42:49.38	182.36	13.51	-29.5	-33.0	19.0	5.99e-01	0	43	102	524288	19	5364
2026-01-06 01:42:50.38	182.42	13.41	-29.5	-33.0	19.0	6.03e-01	0	43	102	524288	19	5365
2026-01-06 01:42:51.39	182.47	13.30	-29.5	-32.8	19.1	6.02e-01	0	43	102	524288	19	5293
2026-01-06 01:42:52.40	182.52	13.19	-29.4	-32.7	19.1	6.00e-01	0	43	102	524288	19	5275
2026-01-06 01:42:53.41	182.57	13.09	-29.5	-33.0	19.0	6.02e-01	0	43	102	524288	19	5348
2026-01-06 01:42:54.41	182.62	12.98	-29.4	-32.7	19.2	6.00e-01	0	43	102	524288	19	5244
2026-01-06 01:42:55.42	182.67	12.87	-29.3	-32.3	19.4	6.02e-01	0	43	102	524288	19	5117
2026-01-06 01:42:56.42	182.72	12.77	-29.2	-32.2	19.4	6.03e-01	0	43	102	524288	19	5083
2026-01-06 01:42:57.43	182.77	12.67	-29.3	-32.4	19.3	6.01e-01	0	43	102	524288	19	5124
2026-01-06 01:42:58.44	182.82	12.56	-29.3	-32.4	19.3	6.00e-01	0	43	102	524288	19	5155
2026-01-06 01:42:59.44	182.87	12.46	-29.3	-32.3	19.4	6.02e-01	0	43	102	524288	19	5118
2026-01-06 01:43:00.45	182.92	12.36	-29.3	-32.4	19.3	6.02e-01	0	43	102	524288	19	5155
2026-01-06 01:43:01.45	182.97	12.25	-29.3	-32.3	19.2	6.03e-01	0	43	102	524288	19	5122
2026-01-06 01:43:02.46	183.02	12.15	-29.3	-32.4	19.2	5.99e-01	0	43	102	524288	19	5139
2026-01-06 01:43:03.47	183.07	12.05	-29.3	-32.3	19.3	6.03e-01	0	43	102	524288	19	5122
2026-01-06 01:43:04.48	183.11	11.95	-29.4	-32.6	19.2	6.00e-01	0	43	102	524288	19	5202
2026-01-06 01:43:05.49	183.16	11.85	-29.4	-32.7	19.1	6.02e-01	0	43	102	524288	19	5251
2026-01-06 01:43:06.50	183.21	11.75	-29.3	-32.5	19.2	6.03e-01	0	43	102	524288	19	5179
2026-01-06 01:43:07.51	183.25	11.65	-29.3	-32.5	18.5	6.02e-01	0	43	102	524288	19	5182
2026-01-06 01:43:08.51	183.30	11.55	-29.5	-32.9	18.4	6.02e-01	0	43	102	524288	19	5326
2026-01-06 01:43:09.52	183.35	11.45	-29.4	-32.7	19.1	6.01e-01	0	43	102	524288	19	5250
2026-01-06 01:43:10.53	183.39	11.35	-29.4	-32.7	19.1	6.01e-01	0	43	102	524288	19	5246
2026-01-06 01:43:11.53	183.44	11.25	-29.5	-32.9	18.8	6.03e-01	0	43	102	524288	19	5329
2026-01-06 01:43:12.53	183.48	11.16	-29.5	-33.0	18.9	5.99e-01	0	43	102	524288	19	5376
2026-01-06 01:43:13.54	183.53	11.06	-29.5	-33.0	18.8	6.00e-01	0	43	102	524288	19	5406
2026-01-06 01:43:14.55	183.57	10.96	-29.6	-32.7	18.7	6.02e-01	0	43	102	524288	20	5174
2026-01-06 01:43:15.55	183.62	10.87	-29.8	-33.2	18.3	6.02e-01	0	43	102	524288	20	5377
2026-01-06 01:43:16.55	183.66	10.77	-29.7	-33.2	18.3	6.04e-01	0	43	102	524288	20	5368
2026-01-06 01:43:17.56	183.70	10.68	-29.7	-33.2	18.3	6.02e-01	0	43	102	524288	20	5343
2026-01-06 01:43:18.56	183.75	10.58	-29.7	-33.0	18.5	6.00e-01	0	43	102	524288	20	5285
2026-01-06 01:43:19.57	183.79	10.49	-29.8	-33.3	18.2	6.01e-01	0	43	102	524288	20	5422
2026-01-06 01:43:20.58	183.83	10.39	-29.7	-33.1	18.4	6.01e-01	0	43	102	524288	20	5315
2026-01-06 01:43:21.59	183.87	10.30	-29.7	-33.0	18.4	6.00e-01	0	43	102	524288	20	5310
2026-01-06 01:43:22.59	183.92	10.20	-29.6	-32.8	18.5	6.03e-01	0	43	102	524288	20	5208
2026-01-06 01:43:23.60	183.96	10.11	-29.5	-33.1	18.7	6.00e-01	0	43	102	524288	19	5421
2026-01-06 01:43:24.60	184.00	10.02	-29.6	-33.3	18.6	6.03e-01	0	43	102	524288	19	5492
2026-01-06 01:43:25.60	184.04	9.93	-29.6	-33.2	18.6	6.00e-01	0	43	102	524288	19	5490
2026-01-06 01:43:26.61	184.08	9.84	-29.6	-33.3	18.6	6.00e-01	0	43	102	524288	19	5520
2026-01-06 01:43:27.62	184.12	9.74	-29.5	-32.7	18.6	6.00e-01	0	43	102	524288	20	5182
2026-01-06 01:43:28.62	184.16	9.65	-29.5	-32.7	18.5	6.02e-01	0	43	102	524288	20	5179
2026-01-06 01:43:29.62	184.20	9.56	-29.6	-33.0	18.3	6.03e-01	0	43	102	524288	20	5307
2026-01-06 01:43:30.62	184.24	9.47	-29.6	-33.0	18.3	6.04e-01	0	44	102	524288	20	5304
2026-01-06 01:43:31.63	184.28	9.38	-29.6	-33.0	18.3	6.01e-01	0	43	102	524288	20	5302
2026-01-06 01:43:32.64	184.32	9.29	-29.6	-33.0	18.3	5.98e-01	0	44	102	524288	20	5293
2026-01-06 01:43:33.64	184.36	9.20	-29.6	-33.0	18.3	6.01e-01	0	43	102	524288	20	5316
2026-01-06 01:43:34.64	184.40	9.11	-29.7	-33.3	18.1	6.00e-01	0	43	102	524288	20	5444
2026-01-06 01:43:35.64	184.44	9.03	-29.8	-33.5	18.0	6.03e-01	0	43	102	524288	20	5513
2026-01-06 01:43:36.65	184.48	8.94	-29.8	-33.5	18.0	6.03e-01	0	43	102	524288	20	5511
2026-01-06 01:43:37.66	184.52	8.85	-30.0	-34.1	17.6	6.02e-01	0	44	102	524288	20	5755
2026-01-06 01:43:38.66	184.56	8.76	-29.9	-33.9	17.7	6.00e-01	0	43	102	524288	20	5676
2026-01-06 01:43:39.66	184.59	8.67	-29.9	-33.8	17.8	5.98e-01	0	43	102	524288	20	5629
2026-01-06 01:43:40.67	184.63	8.59	-29.9	-33.9	17.7	6.01e-01	0	43	102	524288	20	5672
2026-01-06 01:43:41.67	184.67	8.50	-29.9	-33.9	17.7	6.01e-01	0	43	102	524288	20	5680
2026-01-06 01:43:42.68	184.71	8.41	-30.0	-34.1	17.5	5.98e-01	0	43	102	524288	20	5779
2026-01-06 01:43:43.69	184.74	8.33	-30.0	-34.0	17.6	6.01e-01	0	43	102	524288	20	5752
2026-01-06 01:43:44.69	184.78	8.24	-30.1	-34.0	17.3	5.98e-01	0	43	102	524288	21	5607
2026-01-06 01:43:45.70	184.82	8.16	-30.2	-34.1	17.2	6.01e-01	0	43	102	524288	21	5670
2026-01-06 01:43:46.70	184.85	8.07	-30.2	-34.4	17.0	6.01e-01	0	43	102	524288	21	5790
2026-01-06 01:43:47.70	184.89	7.99	-30.3	-34.4	17.0	6.02e-01	0	43	102	524288	21	5796
2026-01-06 01:43:48.71	184.93	7.90	-30.2	-34.1	17.1	6.01e-01	0	43	102	524288	21	5689
2026-01-06 01:43:49.72	184.96	7.82	-30.1	-34.0	17.1	6.01e-01	0	43	102	524288	21	5681
2026-01-06 01:43:50.72	185.00	7.73	-30.2	-34.3	17.0	6.00e-01	0	43	102	524288	21	5746
2026-01-06 01:43:51.73	185.03	7.65	-30.2	-34.2	17.0	6.00e-01	0	43	102	524288	21	5731
2026-01-06 01:43:52.73	185.07	7.57	-30.3	-34.7	16.7	5.98e-01	0	43	102	524288	21	5941
2026-01-06 01:43:53.74	185.10	7.48	-30.3	-34.6	16.7	6.01e-01	0	43	102	524288	21	5929
2026-01-06 01:43:54.74	185.14	7.40	-30.1	-34.1	17.0	6.01e-01	0	43	102	524288	21	5707
2026-01-06 01:43:55.75	185.17	7.32	-30.1	-34.4	17.2	6.00e-01	0	43	102	524288	20	5907
2026-01-06 01:43:56.76	185.21	7.24	-30.2	-34.3	16.9	6.02e-01	0	43	102	524288	21	5783
2026-01-06 01:43:57.76	185.24	7.16	-30.2	-34.2	16.9	6.01e-01	0	43	102	524288	21	5731
2026-01-06 01:43:58.77	185.28	7.07	-33.0	-52.5	3.8	7.44e-01	0	43	104	524288	26	33914
2026-01-06 01:43:59.78	185.31	6.99	-33.2	-52.7	3.8	7.47e-01	0	43	104	524288	27	33671
2026-01-06 01:44:00.78	185.34	6.91	-33.4	-53.0	3.8	7.45e-01	0	43	104	524288	27	34253
2026-01-06 01:44:01.79	185.38	6.83	-33.4	-52.6	3.8	7.46e-01	0	43	104	524288	28	32878

#Closed at: 2026-01-06 01:44:02
#Recorded file [0 MB]: D:/data/31010_260106_043333.dat