passes_logs/2026/01/06/R2M6_AANII_01/R2M6_AANII_01__20260106_110946_AQUA_rec.log

#Pass ID: 20260106_110946_AQUA
#Satellite: AQUA
#Configuration: AQUA
#almurnet v.1.7.20240730
#Start time: 2026-01-06 11:09:46

#Version: 2.2.20231116
#Station: R2M6_AANII_01
#Location: 30.233357 lon 59.946436 lat
#TLE: 1 27424U 02022A   26004.96787593  .00001598  00000+0  32997-3 0  9996
#TLE: 2 27424  98.4069 331.2279 0002002  90.2377   0.6092 14.61798176259425

#Time	Az	El	Level	Level2	SNR	BER	BlckErr	Temp	State	Recorded	gain1	gain2
2026-01-06 11:09:46.64	131.43	7.01	-34.3	-53.1	3.8	7.49e-01	0	43	0	0	30	31435
2026-01-06 11:09:47.64	131.38	7.09	-33.8	-52.8	3.8	7.46e-01	0	43	104	0	29	31875
2026-01-06 11:09:48.65	131.32	7.17	-33.7	-52.5	3.8	7.44e-01	0	43	104	0	29	31435
2026-01-06 11:09:49.66	131.26	7.25	-33.3	-52.3	3.7	7.46e-01	0	43	104	0	28	32209
2026-01-06 11:09:50.67	131.21	7.33	-33.0	-48.4	4.0	7.35e-01	0	43	104	0	28	21225
2026-01-06 11:09:51.67	131.15	7.41	-32.7	-45.2	5.8	6.87e-01	0	43	104	0	27	15134
2026-01-06 11:09:52.68	131.09	7.49	-32.8	-46.2	5.3	7.02e-01	0	43	0	0	27	16803
2026-01-06 11:09:53.69	131.03	7.57	-32.8	-48.1	4.0	7.36e-01	0	43	104	0	27	20754
2026-01-06 11:09:54.70	130.98	7.65	-32.9	-49.0	4.1	7.35e-01	0	43	104	0	27	23014
2026-01-06 11:09:55.71	130.92	7.73	-32.9	-50.9	3.8	7.46e-01	0	44	104	0	27	28434
2026-01-06 11:09:56.72	130.86	7.81	-32.9	-51.7	3.8	7.45e-01	0	43	104	0	27	31357
2026-01-06 11:09:57.72	130.80	7.90	-32.9	-51.0	3.8	7.46e-01	0	43	104	0	27	28945
2026-01-06 11:09:58.72	130.74	7.98	-32.8	-48.8	3.9	7.41e-01	0	44	104	0	27	22553
2026-01-06 11:09:59.73	130.68	8.06	-32.7	-46.5	4.1	7.32e-01	0	43	104	0	27	17579
2026-01-06 11:10:00.74	130.62	8.14	-32.6	-43.4	7.2	6.60e-01	0	43	0	0	27	12455
2026-01-06 11:10:01.74	130.56	8.22	-32.4	-41.4	9.0	6.32e-01	0	43	102	524288	27	10152
2026-01-06 11:10:02.74	130.50	8.31	-32.2	-40.5	10.3	6.19e-01	0	43	102	524288	26	9325
2026-01-06 11:10:03.75	130.43	8.39	-32.0	-39.0	11.6	6.14e-01	0	44	102	524288	26	8095
2026-01-06 11:10:04.76	130.37	8.47	-31.8	-38.7	12.3	6.11e-01	0	43	102	524288	25	7923
2026-01-06 11:10:05.76	130.31	8.56	-31.7	-37.8	13.1	6.07e-01	0	43	102	524288	25	7293
2026-01-06 11:10:06.77	130.24	8.64	-31.5	-37.3	13.5	6.08e-01	0	43	102	524288	25	6954
2026-01-06 11:10:07.78	130.18	8.72	-31.5	-37.0	13.7	6.08e-01	0	44	102	524288	25	6818
2026-01-06 11:10:08.79	130.12	8.81	-31.5	-37.0	13.7	6.09e-01	0	43	102	524288	25	6806
2026-01-06 11:10:09.79	130.05	8.89	-31.5	-37.2	13.6	6.11e-01	0	43	102	524288	25	6922
2026-01-06 11:10:10.80	129.99	8.98	-31.5	-37.1	13.7	6.09e-01	0	44	102	524288	25	6846
2026-01-06 11:10:11.80	129.92	9.06	-31.4	-36.7	14.0	6.08e-01	0	43	102	524288	25	6564
2026-01-06 11:10:12.80	129.86	9.15	-31.4	-36.7	14.1	6.08e-01	0	43	102	524288	25	6583
2026-01-06 11:10:13.81	129.79	9.23	-31.6	-37.3	13.6	6.10e-01	0	43	102	524288	25	6943
2026-01-06 11:10:14.81	129.73	9.32	-31.5	-36.8	14.0	6.05e-01	0	43	102	524288	25	6640
2026-01-06 11:10:15.82	129.66	9.41	-31.3	-36.7	14.4	6.07e-01	0	43	102	524288	24	6665
2026-01-06 11:10:16.83	129.59	9.49	-31.4	-36.9	14.3	6.09e-01	0	43	102	524288	24	6792
2026-01-06 11:10:17.83	129.52	9.58	-31.6	-37.8	13.6	6.09e-01	0	43	102	524288	24	7341
2026-01-06 11:10:18.84	129.45	9.67	-31.4	-37.1	14.1	6.08e-01	0	43	102	524288	24	6941
2026-01-06 11:10:19.84	129.39	9.76	-31.1	-35.8	15.2	6.04e-01	0	43	102	524288	24	6178
2026-01-06 11:10:20.85	129.32	9.84	-30.8	-35.1	16.0	6.07e-01	0	43	102	524288	23	5939
2026-01-06 11:10:21.86	129.25	9.93	-30.5	-34.3	16.6	6.06e-01	0	43	102	524288	23	5558
2026-01-06 11:10:22.87	129.18	10.02	-30.2	-33.8	17.3	6.08e-01	0	43	102	524288	22	5428
2026-01-06 11:10:23.87	129.11	10.11	-30.0	-33.1	17.8	6.05e-01	0	44	102	524288	22	5158
2026-01-06 11:10:24.87	129.04	10.20	-29.8	-33.1	18.1	6.07e-01	0	43	102	524288	21	5249
2026-01-06 11:10:25.88	128.96	10.29	-29.9	-33.4	18.0	6.05e-01	0	43	102	524288	21	5344
2026-01-06 11:10:26.88	128.89	10.38	-29.9	-33.1	18.1	6.06e-01	0	43	102	524288	21	5252
2026-01-06 11:10:27.89	128.82	10.47	-29.9	-33.3	18.0	6.06e-01	0	43	102	524288	21	5310
2026-01-06 11:10:28.89	128.75	10.56	-30.1	-33.7	17.8	6.07e-01	0	44	102	524288	21	5477
2026-01-06 11:10:29.89	128.67	10.65	-30.0	-33.4	18.0	6.05e-01	0	44	102	524288	21	5345
2026-01-06 11:10:30.90	128.60	10.74	-29.9	-33.1	18.2	6.08e-01	0	43	102	524288	21	5219
2026-01-06 11:10:31.90	128.52	10.83	-29.8	-33.0	18.3	6.05e-01	0	43	102	524288	21	5168
2026-01-06 11:10:32.91	128.45	10.92	-29.8	-33.0	18.3	6.05e-01	0	44	102	524288	21	5167
2026-01-06 11:10:33.91	128.37	11.01	-30.0	-33.4	18.0	6.08e-01	0	44	102	524288	21	5349
2026-01-06 11:10:34.92	128.30	11.11	-29.8	-32.8	18.4	6.08e-01	0	43	102	524288	21	5105
2026-01-06 11:10:35.93	128.22	11.20	-29.7	-32.5	18.6	6.05e-01	0	44	102	524288	21	4981
2026-01-06 11:10:36.94	128.14	11.29	-29.6	-32.3	18.8	6.06e-01	0	44	102	524288	21	4896
2026-01-06 11:10:37.95	128.06	11.39	-29.6	-32.2	18.8	6.06e-01	0	43	102	524288	21	4863
2026-01-06 11:10:38.96	127.98	11.48	-29.5	-32.1	18.9	6.07e-01	0	44	102	524288	21	4841
2026-01-06 11:10:39.97	127.91	11.58	-29.6	-32.2	18.8	6.05e-01	0	43	102	524288	21	4868
2026-01-06 11:10:40.98	127.83	11.67	-29.6	-32.2	18.9	6.08e-01	0	43	102	524288	21	4862
2026-01-06 11:10:41.99	127.75	11.77	-29.5	-32.1	18.9	6.07e-01	0	43	102	524288	21	4829
2026-01-06 11:10:42.99	127.66	11.86	-29.5	-32.0	19.0	6.05e-01	0	43	102	524288	21	4805
2026-01-06 11:10:44.00	127.58	11.96	-29.6	-32.2	18.9	6.06e-01	0	43	102	524288	21	4847
2026-01-06 11:10:45.00	127.50	12.05	-29.6	-32.1	19.0	6.06e-01	0	43	102	524288	21	4825
2026-01-06 11:10:46.01	127.42	12.15	-29.6	-32.2	18.9	6.07e-01	0	43	102	524288	21	4861
2026-01-06 11:10:47.01	127.34	12.25	-29.6	-32.1	19.0	6.08e-01	0	43	102	524288	21	4797
2026-01-06 11:10:48.02	127.25	12.34	-29.6	-32.1	19.0	6.06e-01	0	43	102	524288	21	4818
2026-01-06 11:10:49.03	127.17	12.44	-29.5	-32.0	19.1	6.05e-01	0	43	102	524288	21	4770
2026-01-06 11:10:50.03	127.08	12.54	-29.6	-32.1	19.0	6.07e-01	0	43	102	524288	21	4801
2026-01-06 11:10:51.04	127.00	12.64	-29.7	-32.5	18.8	6.07e-01	0	43	102	524288	21	4956
2026-01-06 11:10:52.05	126.91	12.74	-29.8	-32.7	18.7	6.04e-01	0	43	102	524288	21	5024
2026-01-06 11:10:53.06	126.82	12.84	-29.7	-32.4	18.8	6.06e-01	0	43	102	524288	21	4925
2026-01-06 11:10:54.07	126.74	12.94	-29.8	-32.7	18.7	6.07e-01	0	43	102	524288	21	5028
2026-01-06 11:10:55.07	126.65	13.04	-29.7	-32.5	18.8	6.06e-01	0	43	102	524288	21	4941
2026-01-06 11:10:56.08	126.56	13.14	-29.7	-32.4	18.9	6.05e-01	0	43	102	524288	21	4917
2026-01-06 11:10:57.09	126.47	13.24	-29.7	-32.4	18.9	6.06e-01	0	43	102	524288	21	4927
2026-01-06 11:10:58.10	126.38	13.34	-29.8	-32.6	18.7	6.07e-01	0	43	102	524288	21	4988
2026-01-06 11:10:59.10	126.29	13.44	-29.6	-32.1	19.1	6.08e-01	0	43	102	524288	21	4813
2026-01-06 11:11:00.11	126.20	13.54	-29.6	-32.0	19.2	6.05e-01	0	43	102	524288	21	4783
2026-01-06 11:11:01.11	126.10	13.64	-29.5	-32.0	19.2	6.05e-01	0	43	102	524288	21	4770
2026-01-06 11:11:02.12	126.01	13.75	-29.6	-32.1	19.2	6.08e-01	0	43	102	524288	21	4793
2026-01-06 11:11:03.13	125.92	13.85	-29.7	-32.3	19.0	6.07e-01	0	43	102	524288	21	4857
2026-01-06 11:11:04.13	125.82	13.95	-29.6	-32.0	19.2	6.07e-01	0	43	102	524288	21	4771
2026-01-06 11:11:05.14	125.73	14.06	-29.7	-32.3	19.0	6.07e-01	0	43	102	524288	21	4862
2026-01-06 11:11:06.15	125.63	14.16	-29.6	-32.0	19.2	6.07e-01	0	43	102	524288	21	4770
2026-01-06 11:11:07.16	125.53	14.27	-29.5	-31.9	19.3	6.07e-01	0	43	102	524288	21	4710
2026-01-06 11:11:08.16	125.44	14.37	-29.5	-31.9	19.4	6.06e-01	0	44	102	524288	21	4711
2026-01-06 11:11:09.16	125.34	14.48	-29.5	-31.8	19.4	6.05e-01	0	44	102	524288	21	4680
2026-01-06 11:11:10.17	125.24	14.58	-29.5	-31.9	19.3	6.04e-01	0	43	102	524288	21	4712
2026-01-06 11:11:11.17	125.14	14.69	-29.5	-31.8	19.4	6.04e-01	0	43	102	524288	21	4696
2026-01-06 11:11:12.18	125.04	14.80	-29.5	-31.8	19.4	6.08e-01	0	43	102	524288	21	4679
2026-01-06 11:11:13.18	124.94	14.90	-29.5	-31.8	19.4	6.07e-01	0	43	102	524288	21	4674
2026-01-06 11:11:14.19	124.84	15.01	-29.5	-31.8	19.4	6.07e-01	0	43	102	524288	21	4701
2026-01-06 11:11:15.20	124.74	15.12	-29.5	-31.7	19.5	6.07e-01	0	43	102	524288	21	4662
2026-01-06 11:11:16.21	124.63	15.23	-29.5	-31.8	19.5	6.07e-01	0	43	102	524288	21	4667
2026-01-06 11:11:17.21	124.53	15.34	-29.5	-31.7	19.5	6.09e-01	0	43	102	524288	21	4660
2026-01-06 11:11:18.22	124.42	15.45	-29.5	-31.8	19.4	6.05e-01	0	43	102	524288	21	4699
2026-01-06 11:11:19.22	124.32	15.55	-29.6	-32.0	19.4	6.07e-01	0	43	102	524288	21	4744
2026-01-06 11:11:20.23	124.21	15.67	-29.5	-31.8	19.5	6.07e-01	0	43	102	524288	21	4679
2026-01-06 11:11:21.24	124.10	15.78	-29.5	-31.8	19.5	6.05e-01	0	43	102	524288	21	4676
2026-01-06 11:11:22.25	123.99	15.89	-29.5	-31.9	19.4	6.05e-01	0	43	102	524288	21	4718
2026-01-06 11:11:23.26	123.88	16.00	-29.6	-32.0	19.3	6.08e-01	0	43	102	524288	21	4764
2026-01-06 11:11:24.26	123.77	16.11	-29.5	-31.8	19.5	6.06e-01	0	44	102	524288	21	4696
2026-01-06 11:11:25.27	123.66	16.23	-29.6	-32.1	19.3	6.07e-01	0	43	102	524288	21	4789
2026-01-06 11:11:26.27	123.55	16.34	-29.7	-32.3	19.2	6.06e-01	0	44	102	524288	21	4856
2026-01-06 11:11:27.28	123.43	16.45	-29.5	-31.8	19.5	6.06e-01	0	44	102	524288	21	4697
2026-01-06 11:11:28.28	123.32	16.57	-29.4	-31.7	19.6	6.08e-01	0	43	102	524288	21	4655
2026-01-06 11:11:29.29	123.20	16.68	-29.5	-31.7	19.5	6.06e-01	0	43	102	524288	21	4676
2026-01-06 11:11:30.29	123.09	16.79	-29.4	-31.6	19.7	6.08e-01	0	43	102	524288	21	4616
2026-01-06 11:11:31.30	122.97	16.91	-29.4	-31.6	19.7	6.06e-01	0	43	102	524288	21	4610
2026-01-06 11:11:32.31	122.85	17.03	-29.4	-31.6	19.6	6.05e-01	0	43	102	524288	21	4616
2026-01-06 11:11:33.32	122.73	17.14	-29.4	-31.5	19.7	6.05e-01	0	43	102	524288	21	4587
2026-01-06 11:11:34.32	122.61	17.26	-29.5	-31.7	19.6	6.06e-01	0	43	102	524288	21	4632
2026-01-06 11:11:35.33	122.49	17.38	-29.5	-31.7	19.6	6.05e-01	0	43	102	524288	21	4651
2026-01-06 11:11:36.34	122.37	17.50	-29.4	-31.5	19.7	6.05e-01	0	43	102	524288	21	4582
2026-01-06 11:11:37.35	122.25	17.62	-29.4	-31.6	19.7	6.05e-01	0	43	102	524288	21	4607
2026-01-06 11:11:38.36	122.12	17.73	-29.4	-31.5	19.7	6.07e-01	0	43	102	524288	21	4593
2026-01-06 11:11:39.36	122.00	17.85	-29.5	-31.7	19.6	6.05e-01	0	43	102	524288	21	4647
2026-01-06 11:11:40.37	121.87	17.97	-29.5	-31.9	19.6	6.07e-01	0	43	102	524288	21	4700
2026-01-06 11:11:41.38	121.74	18.10	-29.4	-31.5	19.8	6.06e-01	0	44	102	524288	21	4593
2026-01-06 11:11:42.38	121.62	18.22	-29.4	-31.9	19.8	6.07e-01	0	43	102	524288	20	4828
2026-01-06 11:11:43.39	121.48	18.34	-29.4	-32.0	19.8	6.07e-01	0	43	102	524288	20	4856
2026-01-06 11:11:44.39	121.35	18.46	-29.3	-31.9	19.8	6.07e-01	0	43	102	524288	20	4817
2026-01-06 11:11:45.40	121.22	18.58	-29.4	-31.9	19.8	6.07e-01	0	43	102	524288	20	4833
2026-01-06 11:11:46.41	121.09	18.71	-29.5	-32.1	19.7	6.06e-01	0	43	102	524288	20	4896
2026-01-06 11:11:47.41	120.96	18.83	-29.4	-32.1	19.8	6.06e-01	0	43	102	524288	20	4876
2026-01-06 11:11:48.42	120.82	18.95	-29.5	-32.3	19.6	6.06e-01	0	43	102	524288	20	4947
2026-01-06 11:11:49.43	120.68	19.08	-29.6	-32.5	19.5	6.07e-01	0	44	102	524288	20	5027
2026-01-06 11:11:50.43	120.55	19.20	-29.6	-32.5	19.5	6.07e-01	0	43	102	524288	20	5035
2026-01-06 11:11:51.43	120.41	19.33	-29.7	-32.8	19.3	6.06e-01	0	43	102	524288	20	5146
2026-01-06 11:11:52.44	120.27	19.45	-29.8	-33.0	19.2	6.07e-01	0	43	102	524288	20	5197
2026-01-06 11:11:53.45	120.12	19.58	-29.8	-33.0	19.2	6.06e-01	0	43	102	524288	20	5217
2026-01-06 11:11:54.46	119.98	19.71	-29.9	-33.3	19.0	6.08e-01	0	43	102	524288	20	5346
2026-01-06 11:11:55.46	119.84	19.84	-29.9	-33.4	18.9	6.06e-01	0	43	102	524288	20	5370
2026-01-06 11:11:56.47	119.69	19.96	-29.9	-33.1	19.1	6.07e-01	0	43	102	524288	20	5257
2026-01-06 11:11:57.47	119.55	20.09	-29.8	-33.0	19.2	6.06e-01	0	44	102	524288	20	5220
2026-01-06 11:11:58.48	119.40	20.22	-29.8	-33.1	19.2	6.05e-01	0	43	102	524288	20	5220
2026-01-06 11:11:59.48	119.25	20.35	-29.9	-33.1	19.2	6.06e-01	0	43	102	524288	20	5252
2026-01-06 11:12:00.48	119.10	20.48	-29.9	-33.2	19.1	6.08e-01	0	43	102	524288	20	5281
2026-01-06 11:12:01.49	118.95	20.61	-29.8	-32.9	19.3	6.05e-01	0	43	102	524288	20	5162
2026-01-06 11:12:02.50	118.79	20.74	-29.7	-32.8	19.4	6.07e-01	0	43	102	524288	20	5128
2026-01-06 11:12:03.50	118.64	20.88	-29.8	-32.8	19.4	6.06e-01	0	43	102	524288	20	5133
2026-01-06 11:12:04.51	118.48	21.01	-29.8	-33.0	19.3	6.09e-01	0	43	102	524288	20	5180
2026-01-06 11:12:05.52	118.32	21.14	-29.9	-33.1	19.2	6.09e-01	0	43	102	524288	20	5245
2026-01-06 11:12:06.52	118.17	21.28	-29.9	-33.1	19.2	6.05e-01	0	43	102	524288	20	5213
2026-01-06 11:12:07.53	118.00	21.41	-29.8	-33.0	19.3	6.07e-01	0	43	102	524288	20	5185
2026-01-06 11:12:08.54	117.84	21.55	-29.9	-33.2	19.2	6.07e-01	0	44	102	524288	20	5274
2026-01-06 11:12:09.54	117.68	21.68	-29.9	-33.2	19.1	6.06e-01	0	43	102	524288	20	5272
2026-01-06 11:12:10.55	117.51	21.82	-29.9	-33.3	19.1	6.07e-01	0	43	102	524288	20	5303
2026-01-06 11:12:11.55	117.35	21.95	-30.0	-33.4	19.0	6.07e-01	0	43	102	524288	20	5333
2026-01-06 11:12:12.56	117.18	22.09	-30.0	-33.6	18.9	6.05e-01	0	43	102	524288	20	5402
2026-01-06 11:12:13.56	117.01	22.23	-30.1	-33.1	18.9	6.04e-01	0	43	102	524288	21	5129
2026-01-06 11:12:14.57	116.84	22.36	-30.1	-33.2	18.9	6.04e-01	0	43	102	524288	21	5136
2026-01-06 11:12:15.58	116.66	22.50	-30.1	-33.2	18.9	6.06e-01	0	43	102	524288	21	5157
2026-01-06 11:12:16.58	116.49	22.64	-30.2	-33.4	18.8	6.07e-01	0	43	102	524288	21	5216
2026-01-06 11:12:17.59	116.31	22.78	-30.2	-33.3	18.8	6.05e-01	0	43	102	524288	21	5180
2026-01-06 11:12:18.60	116.13	22.92	-30.3	-33.7	18.6	6.07e-01	0	43	102	524288	21	5330
2026-01-06 11:12:19.61	115.95	23.06	-30.3	-33.8	18.5	6.05e-01	0	43	102	524288	21	5360
2026-01-06 11:12:20.61	115.77	23.20	-30.3	-33.8	18.5	6.06e-01	0	43	102	524288	21	5385
2026-01-06 11:12:21.61	115.59	23.35	-30.3	-33.7	18.6	6.07e-01	0	44	102	524288	21	5313
2026-01-06 11:12:22.61	115.41	23.49	-30.0	-32.9	19.1	6.07e-01	0	44	102	524288	21	5037
2026-01-06 11:12:23.62	115.22	23.63	-29.9	-32.5	19.4	6.07e-01	0	43	102	524288	21	4878
2026-01-06 11:12:24.62	115.03	23.77	-29.8	-32.3	19.5	6.07e-01	0	43	102	524288	21	4822
2026-01-06 11:12:25.62	114.84	23.92	-29.9	-32.6	19.4	6.04e-01	0	43	102	524288	21	4901
2026-01-06 11:12:26.63	114.65	24.06	-29.9	-32.6	19.4	6.04e-01	0	43	102	524288	21	4910
2026-01-06 11:12:27.63	114.46	24.21	-29.9	-32.6	19.4	6.07e-01	0	43	102	524288	21	4907
2026-01-06 11:12:28.64	114.26	24.35	-29.9	-32.6	19.4	6.09e-01	0	43	102	524288	21	4910
2026-01-06 11:12:29.65	114.06	24.50	-30.0	-32.8	19.3	6.08e-01	0	43	102	524288	21	4974
2026-01-06 11:12:30.65	113.86	24.64	-29.9	-32.6	19.4	6.06e-01	0	43	102	524288	21	4902
2026-01-06 11:12:31.65	113.66	24.79	-29.9	-32.5	19.4	6.08e-01	0	43	102	524288	21	4866
2026-01-06 11:12:32.66	113.46	24.94	-29.9	-32.6	19.4	6.04e-01	0	43	102	524288	21	4899
2026-01-06 11:12:33.67	113.25	25.09	-29.9	-32.6	19.4	6.05e-01	0	44	102	524288	21	4902
2026-01-06 11:12:34.67	113.04	25.24	-29.9	-32.7	19.4	6.10e-01	0	43	102	524288	21	4933
2026-01-06 11:12:35.68	112.83	25.39	-29.9	-32.6	19.4	6.06e-01	0	43	102	524288	21	4903
2026-01-06 11:12:36.69	112.62	25.54	-29.9	-32.6	19.4	6.06e-01	0	44	102	524288	21	4905
2026-01-06 11:12:37.70	112.40	25.69	-29.8	-32.3	19.6	6.07e-01	0	44	102	524288	21	4816
2026-01-06 11:12:38.71	112.19	25.84	-29.8	-32.2	19.7	6.05e-01	0	43	102	524288	21	4774
2026-01-06 11:12:39.71	111.97	25.99	-29.8	-32.4	19.6	6.06e-01	0	43	102	524288	21	4827
2026-01-06 11:12:40.72	111.75	26.14	-29.8	-32.3	19.6	6.08e-01	0	44	102	524288	21	4804
2026-01-06 11:12:41.73	111.52	26.29	-29.8	-32.2	19.7	6.07e-01	0	43	102	524288	21	4750
2026-01-06 11:12:42.74	111.30	26.45	-29.8	-32.2	19.7	6.08e-01	0	43	102	524288	21	4758
2026-01-06 11:12:43.74	111.07	26.60	-29.7	-31.9	19.9	6.06e-01	0	43	102	524288	21	4676
2026-01-06 11:12:44.75	110.84	26.75	-29.7	-31.9	19.9	6.06e-01	0	43	102	524288	21	4653
2026-01-06 11:12:45.76	110.61	26.91	-29.8	-32.2	19.7	6.07e-01	0	43	102	524288	21	4758
2026-01-06 11:12:46.76	110.37	27.06	-29.8	-32.4	19.7	6.06e-01	0	43	102	524288	21	4814
2026-01-06 11:12:47.76	110.14	27.21	-29.9	-32.6	19.5	6.07e-01	0	43	102	524288	21	4893
2026-01-06 11:12:48.77	109.90	27.37	-29.7	-32.1	19.8	6.06e-01	0	44	102	524288	21	4724
2026-01-06 11:12:49.78	109.66	27.52	-29.5	-31.5	20.2	6.06e-01	0	43	102	524288	21	4533
2026-01-06 11:12:50.78	109.41	27.68	-29.4	-31.3	20.3	6.08e-01	0	43	102	524288	21	4481
2026-01-06 11:12:51.78	109.17	27.83	-29.5	-31.4	20.3	6.08e-01	0	43	102	524288	21	4487
2026-01-06 11:12:52.80	108.91	27.99	-29.3	-31.6	20.4	6.07e-01	0	43	102	524288	20	4664
2026-01-06 11:12:53.80	108.66	28.15	-29.4	-31.7	20.4	6.06e-01	0	43	102	524288	20	4700
2026-01-06 11:12:54.81	108.41	28.31	-29.5	-31.9	20.3	6.07e-01	0	43	102	524288	20	4754
2026-01-06 11:12:55.81	108.15	28.46	-29.5	-31.9	20.2	6.06e-01	0	43	102	524288	20	4769
2026-01-06 11:12:56.82	107.89	28.62	-29.5	-32.0	20.2	6.07e-01	0	43	102	524288	20	4796
2026-01-06 11:12:57.83	107.63	28.78	-29.4	-31.7	20.4	6.08e-01	0	43	102	524288	20	4695
2026-01-06 11:12:58.84	107.36	28.94	-29.3	-31.4	20.5	6.09e-01	0	43	102	524288	20	4602
2026-01-06 11:12:59.84	107.10	29.10	-29.3	-31.4	20.5	6.04e-01	0	43	102	524288	20	4610
2026-01-06 11:13:00.85	106.82	29.26	-29.3	-31.4	20.6	6.08e-01	0	43	102	524288	20	4597
2026-01-06 11:13:01.86	106.55	29.42	-29.3	-31.4	20.6	6.06e-01	0	44	102	524288	20	4611
2026-01-06 11:13:02.87	106.27	29.58	-29.3	-31.5	20.5	6.06e-01	0	43	102	524288	20	4642
2026-01-06 11:13:03.87	105.99	29.74	-29.2	-31.3	20.7	6.04e-01	0	43	102	524288	20	4558
2026-01-06 11:13:04.87	105.71	29.90	-29.3	-31.4	20.6	6.05e-01	0	43	102	524288	20	4604
2026-01-06 11:13:05.88	105.43	30.06	-29.3	-31.5	20.6	6.06e-01	0	43	102	524288	20	4615
2026-01-06 11:13:06.89	105.14	30.22	-29.2	-31.2	20.7	6.07e-01	0	43	102	524288	20	4542
2026-01-06 11:13:07.90	104.85	30.38	-29.2	-31.1	20.8	6.06e-01	0	43	102	524288	20	4501
2026-01-06 11:13:08.90	104.55	30.54	-29.2	-31.2	20.7	6.07e-01	0	43	102	524288	20	4533
2026-01-06 11:13:09.91	104.26	30.70	-29.1	-31.0	20.9	6.08e-01	0	43	102	524288	20	4457
2026-01-06 11:13:10.91	103.96	30.86	-29.2	-31.1	20.8	6.07e-01	0	43	102	524288	20	4506
2026-01-06 11:13:11.92	103.65	31.02	-29.2	-31.1	20.8	6.06e-01	0	43	102	524288	20	4503
2026-01-06 11:13:12.92	103.35	31.18	-29.4	-31.7	20.5	6.04e-01	0	43	102	524288	20	4686
2026-01-06 11:13:13.92	103.04	31.34	-29.4	-31.6	20.5	6.07e-01	0	43	102	524288	20	4664
2026-01-06 11:13:14.93	102.73	31.51	-29.3	-31.3	20.7	6.05e-01	0	43	102	524288	20	4572
2026-01-06 11:13:15.94	102.41	31.67	-29.3	-31.5	20.7	6.04e-01	0	43	102	524288	20	4605
2026-01-06 11:13:16.95	102.09	31.83	-29.5	-31.9	20.3	6.05e-01	0	43	102	524288	20	4760
2026-01-06 11:13:17.95	101.77	31.99	-29.3	-31.5	20.6	6.07e-01	0	43	102	524288	20	4619
2026-01-06 11:13:18.95	101.44	32.15	-29.3	-31.4	20.7	6.07e-01	0	43	102	524288	20	4580
2026-01-06 11:13:19.96	101.11	32.31	-29.3	-31.4	20.7	6.06e-01	0	43	102	524288	20	4588
2026-01-06 11:13:20.97	100.78	32.47	-29.5	-31.8	20.4	6.07e-01	0	43	102	524288	20	4719
2026-01-06 11:13:21.98	100.44	32.63	-29.5	-31.9	20.4	6.06e-01	0	43	102	524288	20	4755
2026-01-06 11:13:22.98	100.10	32.79	-29.4	-31.7	20.5	6.04e-01	0	44	102	524288	20	4691
2026-01-06 11:13:23.98	99.76	32.95	-29.5	-31.9	20.4	6.06e-01	0	43	102	524288	20	4742
2026-01-06 11:13:24.99	99.42	33.11	-29.3	-31.5	20.6	6.05e-01	0	43	102	524288	20	4616
2026-01-06 11:13:25.99	99.07	33.27	-29.3	-31.5	20.6	6.08e-01	0	43	102	524288	20	4614
2026-01-06 11:13:27.01	98.71	33.43	-29.8	-32.6	20.0	6.08e-01	0	43	102	524288	20	4987
2026-01-06 11:13:28.01	98.35	33.59	-29.8	-32.7	20.0	6.08e-01	0	43	102	524288	20	5011
2026-01-06 11:13:29.02	97.99	33.75	-29.7	-32.5	20.1	6.06e-01	0	43	102	524288	20	4940
2026-01-06 11:13:30.03	97.63	33.91	-29.7	-32.5	20.1	6.06e-01	0	44	102	524288	20	4935
2026-01-06 11:13:31.03	97.26	34.07	-29.6	-32.2	20.3	6.05e-01	0	43	102	524288	20	4838
2026-01-06 11:13:32.04	96.89	34.22	-29.6	-32.2	20.2	6.07e-01	0	43	102	524288	20	4859
2026-01-06 11:13:33.05	96.51	34.38	-29.9	-32.9	19.8	6.07e-01	0	43	102	524288	20	5098
2026-01-06 11:13:34.05	96.13	34.54	-29.9	-32.8	19.9	6.05e-01	0	43	102	524288	20	5066
2026-01-06 11:13:35.05	95.75	34.69	-29.9	-33.0	19.8	6.06e-01	0	43	102	524288	20	5108
2026-01-06 11:13:36.06	95.36	34.85	-29.8	-32.6	20.0	6.07e-01	0	43	102	524288	20	4997
2026-01-06 11:13:37.06	94.98	35.00	-29.9	-32.9	19.9	6.06e-01	0	43	102	524288	20	5079
2026-01-06 11:13:38.07	94.58	35.15	-30.0	-33.2	19.6	6.04e-01	0	43	102	524288	20	5188
2026-01-06 11:13:39.08	94.18	35.31	-30.0	-33.2	19.7	6.08e-01	0	43	102	524288	20	5205
2026-01-06 11:13:40.09	93.78	35.46	-30.0	-33.2	19.6	6.06e-01	0	43	102	524288	20	5206
2026-01-06 11:13:41.09	93.37	35.61	-29.9	-32.9	19.8	6.06e-01	0	43	102	524288	20	5089
2026-01-06 11:13:42.10	92.96	35.76	-30.0	-33.2	19.7	6.06e-01	0	43	102	524288	20	5185
2026-01-06 11:13:43.11	92.55	35.91	-30.2	-33.2	19.3	6.04e-01	0	43	102	524288	21	5090
2026-01-06 11:13:44.12	92.13	36.06	-30.3	-33.5	19.2	6.07e-01	0	43	102	524288	21	5192
2026-01-06 11:13:45.12	91.71	36.21	-30.1	-33.0	19.5	6.07e-01	0	44	102	524288	21	4990
2026-01-06 11:13:46.13	91.28	36.35	-30.2	-33.2	19.4	6.08e-01	0	43	102	524288	21	5083
2026-01-06 11:13:47.14	90.85	36.50	-30.3	-33.3	19.3	6.07e-01	0	43	102	524288	21	5117
2026-01-06 11:13:48.14	90.42	36.64	-30.3	-33.3	19.3	6.07e-01	0	43	102	524288	21	5122
2026-01-06 11:13:49.14	89.98	36.79	-30.3	-33.5	19.2	6.07e-01	0	43	102	524288	21	5183
2026-01-06 11:13:50.15	89.54	36.93	-30.4	-33.6	19.2	6.05e-01	0	43	102	524288	21	5215
2026-01-06 11:13:51.16	89.09	37.07	-30.5	-33.8	19.0	6.06e-01	0	43	102	524288	21	5293
2026-01-06 11:13:52.16	88.65	37.21	-30.4	-33.6	19.2	6.08e-01	0	43	102	524288	21	5212
2026-01-06 11:13:53.17	88.19	37.35	-30.3	-33.4	19.3	6.07e-01	0	43	102	524288	21	5128
2026-01-06 11:13:54.17	87.74	37.48	-30.4	-33.7	19.1	6.10e-01	0	43	102	524288	21	5246
2026-01-06 11:13:55.18	87.28	37.62	-30.4	-33.8	19.1	6.07e-01	0	43	102	524288	21	5277
2026-01-06 11:13:56.19	86.81	37.75	-30.6	-33.7	18.8	6.04e-01	0	44	102	524288	22	5139
2026-01-06 11:13:57.19	86.35	37.88	-30.5	-33.3	19.1	6.08e-01	0	43	102	524288	22	4993
2026-01-06 11:13:58.20	85.87	38.01	-30.5	-33.3	19.1	6.03e-01	0	43	102	524288	22	4990
2026-01-06 11:13:59.20	85.40	38.14	-30.4	-33.2	19.2	6.08e-01	0	43	102	524288	22	4941
2026-01-06 11:14:00.22	84.91	38.27	-30.4	-33.2	19.1	6.06e-01	0	43	102	524288	22	4972
2026-01-06 11:14:01.22	84.43	38.39	-30.6	-33.7	18.9	6.06e-01	0	43	102	524288	22	5127
2026-01-06 11:14:02.23	83.94	38.52	-30.6	-33.7	18.8	6.08e-01	0	43	102	524288	22	5134
2026-01-06 11:14:03.23	83.45	38.64	-30.5	-33.4	19.0	6.06e-01	0	43	102	524288	22	5045
2026-01-06 11:14:04.24	82.95	38.76	-30.4	-33.1	19.2	6.09e-01	0	43	102	524288	22	4908
2026-01-06 11:14:05.24	82.46	38.88	-30.5	-33.5	18.9	6.07e-01	0	43	102	524288	22	5072
2026-01-06 11:14:06.25	81.95	38.99	-30.5	-33.3	19.1	6.06e-01	0	44	102	524288	22	4997
2026-01-06 11:14:07.25	81.45	39.10	-30.6	-33.8	18.8	6.06e-01	0	44	102	524288	22	5178
2026-01-06 11:14:08.26	80.94	39.22	-30.4	-33.0	19.3	6.05e-01	0	43	102	524288	22	4887
2026-01-06 11:14:09.27	80.42	39.33	-30.4	-33.1	19.2	6.06e-01	0	43	102	524288	22	4936
2026-01-06 11:14:10.27	79.91	39.43	-30.4	-33.2	19.1	6.08e-01	0	43	102	524288	22	4972
2026-01-06 11:14:11.28	79.39	39.54	-30.4	-33.1	19.2	6.07e-01	0	43	102	524288	22	4938
2026-01-06 11:14:12.29	78.86	39.64	-30.4	-33.3	19.1	6.07e-01	0	44	102	524288	22	4976
2026-01-06 11:14:13.30	78.33	39.74	-30.4	-33.2	19.1	6.08e-01	0	44	102	524288	22	4968
2026-01-06 11:14:14.30	77.81	39.84	-30.4	-33.0	19.3	6.08e-01	0	43	102	524288	22	4888
2026-01-06 11:14:15.30	77.28	39.93	-30.2	-32.7	19.4	6.06e-01	0	43	102	524288	22	4783
2026-01-06 11:14:16.31	76.74	40.02	-30.4	-33.2	19.1	6.07e-01	0	44	102	524288	22	4963
2026-01-06 11:14:17.31	76.20	40.11	-30.4	-33.2	19.2	6.04e-01	0	43	102	524288	22	4943
2026-01-06 11:14:18.31	75.66	40.20	-30.3	-33.0	19.3	6.07e-01	0	43	102	524288	22	4887
2026-01-06 11:14:19.32	75.11	40.28	-30.3	-32.8	19.4	6.06e-01	0	43	102	524288	22	4824
2026-01-06 11:14:20.33	74.56	40.37	-30.3	-32.9	19.4	6.07e-01	0	43	102	524288	22	4831
2026-01-06 11:14:21.34	74.01	40.45	-30.4	-33.1	19.3	6.07e-01	0	43	102	524288	22	4909
2026-01-06 11:14:22.35	73.46	40.52	-30.3	-32.8	19.4	6.05e-01	0	43	102	524288	22	4802
2026-01-06 11:14:23.36	72.90	40.60	-30.4	-33.0	19.3	6.07e-01	0	43	102	524288	22	4884
2026-01-06 11:14:24.36	72.34	40.67	-30.2	-32.6	19.5	6.08e-01	0	43	102	524288	22	4739
2026-01-06 11:14:25.37	71.78	40.73	-30.3	-32.9	19.4	6.06e-01	0	43	102	524288	22	4836
2026-01-06 11:14:26.38	71.21	40.80	-30.3	-32.7	19.5	6.05e-01	0	43	102	524288	22	4789
2026-01-06 11:14:27.38	70.65	40.86	-30.3	-32.8	19.4	6.06e-01	0	43	102	524288	22	4820
2026-01-06 11:14:28.38	70.08	40.92	-30.2	-32.7	19.4	6.07e-01	0	43	102	524288	22	4787
2026-01-06 11:14:29.39	69.51	40.97	-30.0	-32.1	19.8	6.07e-01	0	43	102	524288	22	4587
2026-01-06 11:14:30.39	68.94	41.03	-30.2	-32.6	19.5	6.06e-01	0	43	102	524288	22	4735
2026-01-06 11:14:31.40	68.37	41.08	-30.3	-32.9	19.4	6.06e-01	0	44	102	524288	22	4845
2026-01-06 11:14:32.40	67.79	41.12	-30.1	-32.3	19.7	6.06e-01	0	43	102	524288	22	4633
2026-01-06 11:14:33.41	67.22	41.17	-30.3	-32.8	19.4	6.05e-01	0	44	102	524288	22	4801
2026-01-06 11:14:34.42	66.63	41.21	-30.4	-33.0	19.3	6.07e-01	0	43	102	524288	22	4887
2026-01-06 11:14:35.43	66.05	41.24	-30.2	-32.5	19.6	6.09e-01	0	43	102	524288	22	4727
2026-01-06 11:14:36.43	65.47	41.28	-30.2	-32.6	19.6	6.06e-01	0	43	102	524288	22	4735
2026-01-06 11:14:37.44	64.89	41.31	-30.3	-32.8	19.4	6.08e-01	0	44	102	524288	22	4803
2026-01-06 11:14:38.45	64.30	41.33	-30.4	-33.0	19.3	6.05e-01	0	44	102	524288	22	4882
2026-01-06 11:14:39.45	63.72	41.36	-30.3	-32.9	19.3	6.07e-01	0	43	102	524288	22	4858
2026-01-06 11:14:40.46	63.13	41.38	-30.2	-32.5	19.6	6.07e-01	0	43	102	524288	22	4717
2026-01-06 11:14:41.47	62.55	41.39	-30.0	-32.2	19.8	6.04e-01	0	44	102	524288	22	4602
2026-01-06 11:14:42.48	61.96	41.41	-30.0	-32.1	19.8	6.08e-01	0	43	102	524288	22	4593
2026-01-06 11:14:43.49	61.37	41.42	-30.1	-32.4	19.6	6.07e-01	0	43	102	524288	22	4676
2026-01-06 11:14:44.48	60.79	41.43	-30.2	-32.6	19.5	6.06e-01	0	43	102	524288	22	4749
2026-01-06 11:14:45.49	60.20	41.43	-29.9	-31.9	20.0	6.06e-01	0	44	102	524288	22	4514
2026-01-06 11:14:46.49	59.62	41.43	-29.9	-32.4	19.9	6.06e-01	0	43	102	524288	21	4803
2026-01-06 11:14:47.50	59.03	41.43	-30.2	-33.1	19.5	6.08e-01	0	43	102	524288	21	5020
2026-01-06 11:14:48.50	58.44	41.42	-30.1	-32.8	19.7	6.06e-01	0	43	102	524288	21	4914
2026-01-06 11:14:49.51	57.85	41.41	-29.9	-32.4	19.9	6.07e-01	0	43	102	524288	21	4793
2026-01-06 11:14:50.51	57.27	41.40	-30.3	-33.5	19.3	6.06e-01	0	43	102	524288	21	5160
2026-01-06 11:14:51.53	56.68	41.38	-30.7	-34.1	18.6	6.06e-01	0	44	102	524288	22	5273
2026-01-06 11:14:52.54	56.09	41.36	-30.6	-33.7	18.8	6.06e-01	0	43	102	524288	22	5153
2026-01-06 11:14:53.54	55.51	41.34	-30.5	-33.3	19.1	6.07e-01	0	43	102	524288	22	4976
2026-01-06 11:14:54.55	54.92	41.31	-30.6	-33.8	18.8	6.06e-01	0	43	102	524288	22	5162
2026-01-06 11:14:55.55	54.34	41.28	-30.7	-34.0	18.6	6.07e-01	0	43	102	524288	22	5267
2026-01-06 11:14:56.56	53.76	41.25	-30.5	-33.5	18.9	6.04e-01	0	43	102	524288	22	5073
2026-01-06 11:14:57.57	53.18	41.21	-30.5	-33.4	19.0	6.06e-01	0	43	102	524288	22	5015
2026-01-06 11:14:58.58	52.60	41.17	-30.5	-33.4	19.0	6.05e-01	0	43	102	524288	22	5031
2026-01-06 11:14:59.59	52.02	41.13	-30.8	-34.2	18.5	6.07e-01	0	44	102	524288	22	5329
2026-01-06 11:15:00.60	51.44	41.08	-30.6	-33.6	18.8	6.08e-01	0	43	102	524288	22	5109
2026-01-06 11:15:01.60	50.87	41.04	-30.2	-32.6	19.5	6.06e-01	0	43	102	524288	22	4743
2026-01-06 11:15:02.61	50.30	40.98	-30.1	-32.3	19.7	6.03e-01	0	43	102	524288	22	4646
2026-01-06 11:15:03.62	49.72	40.93	-30.0	-32.1	19.8	6.05e-01	0	43	102	524288	22	4602
2026-01-06 11:15:04.63	49.15	40.87	-29.8	-32.1	20.1	6.07e-01	0	43	102	524288	21	4680
2026-01-06 11:15:05.63	48.59	40.81	-29.9	-32.3	20.0	6.04e-01	0	43	102	524288	21	4753
2026-01-06 11:15:06.64	48.03	40.74	-29.8	-32.1	20.1	6.04e-01	0	44	102	524288	21	4679
2026-01-06 11:15:07.64	47.47	40.68	-30.1	-32.9	19.6	6.05e-01	0	43	102	524288	21	4951
2026-01-06 11:15:08.65	46.91	40.61	-30.0	-32.6	19.8	6.07e-01	0	43	102	524288	21	4861
2026-01-06 11:15:09.66	46.35	40.53	-29.9	-32.4	19.9	6.06e-01	0	43	102	524288	21	4792
2026-01-06 11:15:10.66	45.80	40.46	-29.9	-32.5	19.8	6.06e-01	0	43	102	524288	21	4815
2026-01-06 11:15:11.67	45.25	40.38	-30.1	-32.8	19.6	6.07e-01	0	43	102	524288	21	4942
2026-01-06 11:15:12.67	44.70	40.30	-30.0	-32.7	19.7	6.07e-01	0	43	102	524288	21	4881
2026-01-06 11:15:13.68	44.15	40.21	-30.3	-33.4	19.3	6.06e-01	0	43	102	524288	21	5147
2026-01-06 11:15:14.69	43.61	40.13	-30.3	-33.4	19.3	6.06e-01	0	43	102	524288	21	5133
2026-01-06 11:15:15.70	43.07	40.04	-30.2	-33.2	19.4	6.07e-01	0	43	102	524288	21	5079
2026-01-06 11:15:16.70	42.54	39.95	-30.2	-33.2	19.4	6.06e-01	0	43	102	524288	21	5064
2026-01-06 11:15:17.71	42.00	39.85	-30.4	-33.7	19.1	6.06e-01	0	43	102	524288	21	5238
2026-01-06 11:15:18.72	41.47	39.75	-30.4	-33.7	19.0	6.04e-01	0	43	102	524288	21	5273
2026-01-06 11:15:19.72	40.95	39.66	-30.5	-34.0	18.9	6.07e-01	0	43	102	524288	21	5369
2026-01-06 11:15:20.73	40.42	39.55	-30.3	-33.3	19.3	6.06e-01	0	43	102	524288	21	5114
2026-01-06 11:15:21.73	39.90	39.45	-30.3	-33.3	19.3	6.09e-01	0	44	102	524288	21	5120
2026-01-06 11:15:22.73	39.39	39.34	-30.3	-33.4	19.3	6.06e-01	0	43	102	524288	21	5143
2026-01-06 11:15:23.74	38.88	39.24	-30.3	-33.5	19.2	6.06e-01	0	43	102	524288	21	5176
2026-01-06 11:15:24.74	38.37	39.13	-30.5	-34.0	18.9	6.07e-01	0	43	102	524288	21	5367
2026-01-06 11:15:25.74	37.87	39.01	-30.2	-33.1	19.4	6.07e-01	0	43	102	524288	21	5024
2026-01-06 11:15:26.74	37.37	38.90	-30.0	-32.6	19.8	6.07e-01	0	43	102	524288	21	4842
2026-01-06 11:15:27.75	36.87	38.78	-30.3	-33.5	19.2	6.09e-01	0	43	102	524288	21	5169
2026-01-06 11:15:28.76	36.37	38.66	-30.3	-33.3	19.3	6.05e-01	0	43	102	524288	21	5111
2026-01-06 11:15:29.76	35.88	38.54	-30.3	-33.3	19.3	6.08e-01	0	43	102	524288	21	5094
2026-01-06 11:15:30.77	35.40	38.42	-30.3	-33.3	19.3	6.06e-01	0	43	102	524288	21	5097
2026-01-06 11:15:31.78	34.91	38.29	-30.7	-33.9	18.7	6.08e-01	0	43	102	524288	22	5207
2026-01-06 11:15:32.79	34.43	38.17	-30.7	-33.9	18.6	6.06e-01	0	43	102	524288	22	5233
2026-01-06 11:15:33.79	33.96	38.04	-30.7	-33.9	18.6	6.07e-01	0	43	102	524288	22	5224
2026-01-06 11:15:34.79	33.49	37.91	-30.8	-34.3	18.4	6.07e-01	0	43	102	524288	22	5371
2026-01-06 11:15:35.80	33.02	37.78	-30.8	-34.2	18.4	6.06e-01	0	43	102	524288	22	5354
2026-01-06 11:15:36.80	32.56	37.65	-31.1	-35.1	17.9	6.09e-01	0	43	102	524288	22	5687
2026-01-06 11:15:37.80	32.10	37.51	-31.1	-34.7	17.8	6.07e-01	0	43	102	524288	23	5421
2026-01-06 11:15:38.80	31.64	37.38	-30.9	-34.1	18.2	5.99e-01	0	44	102	524288	23	5182
2026-01-06 11:15:39.81	31.19	37.24	-30.9	-33.9	18.3	6.00e-01	0	43	102	524288	23	5116
2026-01-06 11:15:40.81	30.74	37.10	-31.0	-34.2	18.1	6.00e-01	0	43	102	524288	23	5237
2026-01-06 11:15:41.82	30.30	36.96	-31.0	-34.3	18.1	6.01e-01	0	43	102	524288	23	5281
2026-01-06 11:15:42.83	29.86	36.82	-30.9	-34.1	18.2	6.02e-01	0	43	102	524288	23	5184
2026-01-06 11:15:43.83	29.42	36.68	-31.3	-35.2	17.5	6.03e-01	0	43	102	524288	23	5645
2026-01-06 11:15:44.85	28.98	36.54	-31.1	-34.6	17.8	6.02e-01	0	43	102	524288	23	5402
2026-01-06 11:15:45.86	28.55	36.39	-30.6	-33.1	18.8	6.02e-01	0	44	102	524288	23	4836
2026-01-06 11:15:46.87	28.13	36.24	-30.4	-33.1	19.1	6.03e-01	0	43	102	524288	22	4917
2026-01-06 11:15:47.87	27.71	36.10	-30.7	-33.9	18.6	6.02e-01	0	43	102	524288	22	5222
2026-01-06 11:15:48.87	27.29	35.95	-30.3	-32.8	19.3	6.03e-01	0	43	102	524288	22	4828
2026-01-06 11:15:49.88	26.88	35.80	-30.0	-32.2	19.7	6.03e-01	0	43	102	524288	22	4613
2026-01-06 11:15:50.89	26.47	35.65	-30.1	-32.3	19.6	6.03e-01	0	44	102	524288	22	4664
2026-01-06 11:15:51.89	26.06	35.50	-30.0	-32.1	19.7	6.02e-01	0	43	102	524288	22	4590
2026-01-06 11:15:52.90	25.66	35.35	-30.1	-32.3	19.6	6.04e-01	0	43	102	524288	22	4651
2026-01-06 11:15:53.91	25.26	35.20	-30.2	-32.8	19.2	6.03e-01	0	44	102	524288	22	4826
2026-01-06 11:15:54.92	24.87	35.04	-30.1	-32.4	19.4	6.04e-01	0	43	102	524288	22	4709
2026-01-06 11:15:55.93	24.48	34.89	-30.0	-32.2	19.6	6.01e-01	0	43	102	524288	22	4626
2026-01-06 11:15:56.94	24.09	34.73	-30.3	-32.9	19.2	6.03e-01	0	43	102	524288	22	4865
2026-01-06 11:15:57.95	23.70	34.58	-30.2	-32.6	19.4	6.02e-01	0	43	102	524288	22	4767
2026-01-06 11:15:58.95	23.33	34.42	-30.4	-33.1	19.1	6.02e-01	0	43	102	524288	22	4932
2026-01-06 11:15:59.96	22.95	34.27	-30.3	-32.9	19.2	6.04e-01	0	43	102	524288	22	4856
2026-01-06 11:16:00.95	22.59	34.11	-30.6	-33.8	18.7	6.03e-01	0	43	102	524288	22	5179
2026-01-06 11:16:01.96	22.22	33.96	-30.3	-32.9	19.1	6.05e-01	0	43	102	524288	22	4861
2026-01-06 11:16:02.97	21.85	33.80	-29.8	-32.1	19.9	6.03e-01	0	43	102	524288	21	4723
2026-01-06 11:16:03.97	21.49	33.64	-29.6	-31.8	20.1	6.03e-01	0	43	102	524288	21	4603
2026-01-06 11:16:04.98	21.14	33.48	-29.8	-32.3	19.8	6.03e-01	0	43	102	524288	21	4769
2026-01-06 11:16:05.98	20.78	33.32	-29.9	-32.5	19.7	6.04e-01	0	43	102	524288	21	4837
2026-01-06 11:16:06.98	20.44	33.17	-30.1	-33.0	19.4	6.02e-01	0	43	102	524288	21	5028
2026-01-06 11:16:07.99	20.09	33.01	-29.8	-32.2	19.8	6.02e-01	0	43	102	524288	21	4755
2026-01-06 11:16:09.00	19.75	32.85	-29.5	-31.3	20.3	6.01e-01	0	43	102	524288	21	4463
2026-01-06 11:16:10.01	19.41	32.69	-29.5	-31.4	20.3	6.02e-01	0	43	102	524288	21	4497
2026-01-06 11:16:11.01	19.07	32.53	-29.7	-32.0	20.0	6.02e-01	0	44	102	524288	21	4694
2026-01-06 11:16:12.02	18.74	32.37	-29.6	-31.7	20.1	6.02e-01	0	43	102	524288	21	4592
2026-01-06 11:16:13.03	18.41	32.21	-29.5	-31.5	20.2	6.01e-01	0	43	102	524288	21	4534
2026-01-06 11:16:14.03	18.09	32.05	-29.8	-32.2	19.9	6.01e-01	0	43	102	524288	21	4730
2026-01-06 11:16:15.04	17.76	31.89	-29.7	-32.0	20.0	6.06e-01	0	43	102	524288	21	4685
2026-01-06 11:16:16.05	17.44	31.72	-29.7	-32.1	19.9	6.03e-01	0	43	102	524288	21	4702
2026-01-06 11:16:17.04	17.13	31.57	-29.8	-32.2	19.8	6.02e-01	0	44	102	524288	21	4728
2026-01-06 11:16:18.05	16.82	31.41	-30.2	-33.2	19.2	6.00e-01	0	43	102	524288	21	5078
2026-01-06 11:16:19.06	16.51	31.24	-30.0	-32.7	19.5	6.02e-01	0	43	102	524288	21	4925
2026-01-06 11:16:20.06	16.20	31.09	-30.0	-32.7	19.5	6.00e-01	0	43	102	524288	21	4916
2026-01-06 11:16:21.07	15.90	30.92	-29.9	-32.5	19.6	6.03e-01	0	43	102	524288	21	4840
2026-01-06 11:16:22.08	15.60	30.76	-30.2	-33.3	19.1	6.03e-01	0	43	102	524288	21	5149
2026-01-06 11:16:23.09	15.30	30.60	-30.3	-33.7	18.9	6.02e-01	0	44	102	524288	21	5279
2026-01-06 11:16:24.10	15.01	30.44	-30.3	-33.5	19.0	6.03e-01	0	43	102	524288	21	5199
2026-01-06 11:16:25.11	14.72	30.28	-29.8	-32.2	19.8	6.00e-01	0	43	102	524288	21	4738
2026-01-06 11:16:26.10	14.43	30.12	-29.7	-31.9	19.9	6.02e-01	0	43	102	524288	21	4659
2026-01-06 11:16:27.11	14.15	29.96	-29.9	-32.4	19.7	6.03e-01	0	43	102	524288	21	4819
2026-01-06 11:16:28.12	13.86	29.80	-30.0	-32.6	19.4	6.03e-01	0	43	102	524288	21	4896
2026-01-06 11:16:29.13	13.58	29.64	-29.5	-31.4	20.2	6.02e-01	0	43	102	524288	21	4493
2026-01-06 11:16:30.13	13.31	29.49	-29.3	-31.4	20.5	6.03e-01	0	43	102	524288	20	4601
2026-01-06 11:16:31.13	13.04	29.33	-29.5	-31.9	20.3	6.01e-01	0	43	102	524288	20	4767
2026-01-06 11:16:32.14	12.77	29.17	-29.7	-32.5	19.9	6.03e-01	0	43	102	524288	20	4955
2026-01-06 11:16:33.15	12.50	29.01	-29.7	-32.5	19.9	6.02e-01	0	43	102	524288	20	4952
2026-01-06 11:16:34.15	12.24	28.85	-29.8	-32.8	19.7	6.01e-01	0	43	102	524288	20	5078
2026-01-06 11:16:35.15	11.98	28.70	-30.2	-33.3	19.1	6.04e-01	0	43	102	524288	21	5147
2026-01-06 11:16:36.17	11.71	28.54	-30.1	-33.2	19.2	6.01e-01	0	43	102	524288	21	5091
2026-01-06 11:16:37.17	11.46	28.38	-30.4	-33.8	18.7	6.01e-01	0	43	102	524288	21	5350
2026-01-06 11:16:38.18	11.20	28.22	-30.0	-32.7	19.4	6.00e-01	0	43	102	524288	21	4936
2026-01-06 11:16:39.19	10.95	28.07	-30.2	-33.3	19.1	6.00e-01	0	43	102	524288	21	5131
2026-01-06 11:16:40.20	10.70	27.91	-30.5	-34.1	18.6	5.98e-01	0	43	102	524288	21	5433
2026-01-06 11:16:41.20	10.46	27.76	-30.2	-33.4	18.9	6.04e-01	0	43	102	524288	21	5188
2026-01-06 11:16:42.21	10.21	27.60	-29.9	-32.5	19.5	6.02e-01	0	43	102	524288	21	4849
2026-01-06 11:16:43.23	9.97	27.44	-29.7	-32.1	19.8	6.03e-01	0	43	102	524288	21	4704
2026-01-06 11:16:44.24	9.73	27.29	-29.9	-32.5	19.6	6.03e-01	0	43	102	524288	21	4862
2026-01-06 11:16:45.24	9.49	27.13	-30.2	-33.4	19.0	6.04e-01	0	44	102	524288	21	5192
2026-01-06 11:16:46.25	9.26	26.98	-30.5	-34.0	18.5	6.00e-01	0	43	102	524288	21	5434
2026-01-06 11:16:47.26	9.02	26.83	-30.1	-33.0	19.1	6.01e-01	0	43	102	524288	21	5052
2026-01-06 11:16:48.27	8.79	26.67	-29.7	-32.0	19.8	6.02e-01	0	43	102	524288	21	4690
2026-01-06 11:16:49.27	8.57	26.52	-29.5	-31.6	20.0	6.01e-01	0	43	102	524288	21	4555
2026-01-06 11:16:50.28	8.34	26.37	-29.5	-31.6	20.0	6.04e-01	0	43	102	524288	21	4565
2026-01-06 11:16:51.29	8.12	26.22	-29.6	-31.8	19.9	6.01e-01	0	43	102	524288	21	4631
2026-01-06 11:16:52.29	7.90	26.07	-29.7	-32.0	19.8	6.03e-01	0	43	102	524288	21	4681
2026-01-06 11:16:53.30	7.68	25.92	-29.6	-31.9	19.9	6.00e-01	0	43	102	524288	21	4652
2026-01-06 11:16:54.31	7.46	25.77	-29.7	-32.0	19.8	6.02e-01	0	43	102	524288	21	4694
2026-01-06 11:16:55.32	7.25	25.62	-29.8	-32.2	19.7	6.03e-01	0	43	102	524288	21	4770
2026-01-06 11:16:56.32	7.04	25.47	-29.8	-32.2	19.7	6.02e-01	0	43	102	524288	21	4749
2026-01-06 11:16:57.33	6.83	25.32	-29.9	-32.5	19.4	6.02e-01	0	43	102	524288	21	4876
2026-01-06 11:16:58.34	6.62	25.17	-29.7	-32.1	19.7	6.02e-01	0	43	102	524288	21	4742
2026-01-06 11:16:59.34	6.42	25.02	-29.8	-32.2	19.6	6.04e-01	0	43	102	524288	21	4766
2026-01-06 11:17:00.35	6.21	24.88	-29.8	-32.2	19.5	6.02e-01	0	43	102	524288	21	4781
2026-01-06 11:17:01.36	6.01	24.73	-29.6	-31.8	19.8	6.03e-01	0	43	102	524288	21	4639
2026-01-06 11:17:02.37	5.81	24.58	-29.6	-31.8	19.8	6.03e-01	0	43	102	524288	21	4636
2026-01-06 11:17:03.37	5.61	24.44	-29.6	-31.8	19.8	6.02e-01	0	43	102	524288	21	4649
2026-01-06 11:17:04.38	5.42	24.29	-29.6	-31.7	19.9	6.03e-01	0	43	102	524288	21	4595
2026-01-06 11:17:05.38	5.23	24.15	-29.6	-31.8	19.8	6.02e-01	0	43	102	524288	21	4635
2026-01-06 11:17:06.39	5.03	24.00	-29.7	-32.0	19.7	6.01e-01	0	43	102	524288	21	4708
2026-01-06 11:17:07.39	4.84	23.86	-29.8	-32.4	19.5	6.01e-01	0	43	102	524288	21	4832
2026-01-06 11:17:08.40	4.66	23.72	-29.9	-32.5	19.4	6.02e-01	0	43	102	524288	21	4868
2026-01-06 11:17:09.41	4.47	23.57	-29.8	-32.3	19.5	6.01e-01	0	43	102	524288	21	4791
2026-01-06 11:17:10.41	4.29	23.43	-29.7	-32.0	19.7	6.02e-01	0	43	102	524288	21	4716
2026-01-06 11:17:11.42	4.10	23.29	-29.7	-32.1	19.7	6.03e-01	0	43	102	524288	21	4726
2026-01-06 11:17:12.43	3.92	23.15	-29.8	-32.4	19.5	6.04e-01	0	43	102	524288	21	4819
2026-01-06 11:17:13.43	3.74	23.01	-30.0	-32.8	19.2	6.03e-01	0	43	102	524288	21	4970
2026-01-06 11:17:14.43	3.57	22.87	-30.1	-33.1	19.0	6.03e-01	0	43	102	524288	21	5078
2026-01-06 11:17:15.43	3.39	22.73	-30.2	-33.3	18.9	6.01e-01	0	43	102	524288	21	5166
2026-01-06 11:17:16.44	3.22	22.59	-30.1	-33.1	19.0	6.01e-01	0	43	102	524288	21	5107
2026-01-06 11:17:17.44	3.04	22.46	-30.1	-33.2	18.9	6.02e-01	0	43	102	524288	21	5126
2026-01-06 11:17:18.44	2.87	22.32	-30.1	-33.2	18.9	6.01e-01	0	43	102	524288	21	5137
2026-01-06 11:17:19.45	2.70	22.18	-30.2	-33.3	18.8	6.02e-01	0	43	102	524288	21	5175
2026-01-06 11:17:20.44	2.54	22.05	-30.2	-33.5	18.7	6.02e-01	0	43	102	524288	21	5242
2026-01-06 11:17:21.44	2.37	21.91	-30.0	-32.8	19.1	6.03e-01	0	43	102	524288	21	4981
2026-01-06 11:17:22.44	2.21	21.78	-29.8	-32.3	19.4	6.02e-01	0	43	102	524288	21	4807
2026-01-06 11:17:23.45	2.05	21.64	-29.7	-32.1	19.6	6.00e-01	0	43	102	524288	21	4745
2026-01-06 11:17:24.45	1.89	21.51	-29.8	-32.3	19.4	6.01e-01	0	43	102	524288	21	4815
2026-01-06 11:17:25.45	1.73	21.38	-29.8	-32.4	19.4	6.04e-01	0	44	102	524288	21	4841
2026-01-06 11:17:26.46	1.57	21.24	-29.8	-32.3	19.4	6.03e-01	0	43	102	524288	21	4806
2026-01-06 11:17:27.46	1.41	21.11	-29.7	-32.2	19.5	6.01e-01	0	43	102	524288	21	4767
2026-01-06 11:17:28.47	1.26	20.98	-29.7	-32.2	19.5	6.03e-01	0	43	102	524288	21	4785
2026-01-06 11:17:29.48	1.10	20.85	-29.7	-32.1	19.5	6.02e-01	0	43	102	524288	21	4755
2026-01-06 11:17:30.48	0.95	20.72	-29.6	-31.9	19.6	6.01e-01	0	43	102	524288	21	4692
2026-01-06 11:17:31.49	0.80	20.59	-29.7	-32.0	19.6	6.03e-01	0	43	102	524288	21	4717
2026-01-06 11:17:32.49	0.65	20.46	-29.7	-32.2	19.4	6.04e-01	0	43	102	524288	21	4799
2026-01-06 11:17:33.50	0.50	20.33	-29.8	-32.3	19.4	6.05e-01	0	43	102	524288	21	4817
2026-01-06 11:17:34.50	0.35	20.20	-29.8	-32.3	19.4	6.02e-01	0	43	102	524288	21	4823
2026-01-06 11:17:35.51	0.21	20.07	-29.8	-32.4	19.3	6.03e-01	0	43	102	524288	21	4842
2026-01-06 11:17:36.52	0.06	19.94	-29.8	-32.3	19.4	6.02e-01	0	43	102	524288	21	4808
2026-01-06 11:17:37.52	359.92	19.81	-29.6	-31.9	19.6	6.03e-01	0	43	102	524288	21	4667
2026-01-06 11:17:38.52	359.78	19.69	-29.6	-31.8	19.7	6.03e-01	0	43	102	524288	21	4635
2026-01-06 11:17:39.53	359.63	19.56	-29.6	-31.8	19.6	6.03e-01	0	43	102	524288	21	4665
2026-01-06 11:17:40.53	359.50	19.44	-29.6	-32.0	19.5	6.00e-01	0	43	102	524288	21	4717
2026-01-06 11:17:41.54	359.36	19.31	-29.7	-32.1	19.5	6.02e-01	0	43	102	524288	21	4753
2026-01-06 11:17:42.55	359.22	19.19	-29.7	-32.2	19.4	6.01e-01	0	43	102	524288	21	4781
2026-01-06 11:17:43.56	359.08	19.06	-29.6	-32.0	19.5	6.01e-01	0	43	102	524288	21	4726
2026-01-06 11:17:44.56	358.95	18.94	-29.6	-31.9	19.6	6.05e-01	0	43	102	524288	21	4681
2026-01-06 11:17:45.57	358.81	18.81	-29.6	-31.9	19.6	6.02e-01	0	43	102	524288	21	4682
2026-01-06 11:17:46.58	358.68	18.69	-29.6	-31.8	19.6	6.04e-01	0	43	102	524288	21	4657
2026-01-06 11:17:47.59	358.55	18.57	-29.6	-31.9	19.5	6.03e-01	0	43	102	524288	21	4697
2026-01-06 11:17:48.59	358.42	18.45	-29.8	-32.3	19.3	6.03e-01	0	43	102	524288	21	4843
2026-01-06 11:17:49.59	358.29	18.33	-29.8	-32.5	19.1	6.02e-01	0	43	102	524288	21	4912
2026-01-06 11:17:50.59	358.16	18.21	-29.9	-32.6	19.1	6.01e-01	0	43	102	524288	21	4941
2026-01-06 11:17:51.60	358.04	18.09	-29.9	-32.6	19.1	6.03e-01	0	43	102	524288	21	4953
2026-01-06 11:17:52.61	357.91	17.97	-29.9	-32.7	19.1	6.03e-01	0	43	102	524288	21	4945
2026-01-06 11:17:53.61	357.79	17.85	-29.7	-32.2	19.4	6.01e-01	0	43	102	524288	21	4779
2026-01-06 11:17:54.62	357.66	17.73	-29.7	-32.1	19.4	6.03e-01	0	43	102	524288	21	4742
2026-01-06 11:17:55.63	357.54	17.61	-29.7	-32.2	19.3	6.01e-01	0	43	102	524288	21	4802
2026-01-06 11:17:56.64	357.42	17.49	-29.7	-32.0	19.4	6.04e-01	0	43	102	524288	21	4741
2026-01-06 11:17:57.65	357.30	17.37	-29.6	-31.8	19.6	6.02e-01	0	44	102	524288	21	4648
2026-01-06 11:17:58.66	357.18	17.26	-29.5	-31.8	19.6	6.03e-01	0	43	102	524288	21	4643
2026-01-06 11:17:59.67	357.06	17.14	-29.6	-31.9	19.5	6.01e-01	0	43	102	524288	21	4692
2026-01-06 11:18:00.68	356.94	17.03	-29.7	-32.1	19.4	6.03e-01	0	43	102	524288	21	4773
2026-01-06 11:18:01.69	356.82	16.91	-29.7	-32.2	19.3	6.01e-01	0	43	102	524288	21	4781
2026-01-06 11:18:02.69	356.71	16.80	-29.7	-32.2	19.3	6.02e-01	0	43	102	524288	21	4811
2026-01-06 11:18:03.70	356.59	16.68	-29.7	-32.2	19.2	6.00e-01	0	43	102	524288	21	4817
2026-01-06 11:18:04.70	356.48	16.57	-29.8	-32.3	19.2	6.03e-01	0	43	102	524288	21	4847
2026-01-06 11:18:05.71	356.37	16.45	-29.7	-32.2	19.3	6.04e-01	0	43	102	524288	21	4784
2026-01-06 11:18:06.72	356.26	16.34	-29.6	-32.0	19.4	6.01e-01	0	43	102	524288	21	4740
2026-01-06 11:18:07.73	356.14	16.23	-29.7	-32.2	19.3	6.04e-01	0	43	102	524288	21	4799
2026-01-06 11:18:08.74	356.03	16.12	-29.7	-32.2	19.3	6.00e-01	0	43	102	524288	21	4807
2026-01-06 11:18:09.75	355.92	16.00	-29.7	-32.2	19.3	6.00e-01	0	43	102	524288	21	4801
2026-01-06 11:18:10.75	355.82	15.89	-29.8	-32.5	19.1	6.02e-01	0	43	102	524288	21	4912
2026-01-06 11:18:11.76	355.71	15.78	-29.8	-32.4	19.2	6.02e-01	0	43	102	524288	21	4867
2026-01-06 11:18:12.76	355.60	15.67	-29.7	-32.3	19.2	6.00e-01	0	43	102	524288	21	4838
2026-01-06 11:18:13.77	355.50	15.56	-29.7	-32.3	19.2	6.00e-01	0	44	102	524288	21	4838
2026-01-06 11:18:14.78	355.39	15.45	-29.8	-32.4	19.1	6.02e-01	0	43	102	524288	21	4863
2026-01-06 11:18:15.79	355.29	15.34	-29.8	-32.6	19.0	6.00e-01	0	44	102	524288	21	4954
2026-01-06 11:18:16.79	355.19	15.24	-29.8	-32.5	19.0	6.00e-01	0	43	102	524288	21	4925
2026-01-06 11:18:17.79	355.08	15.13	-29.8	-32.6	19.0	6.03e-01	0	43	102	524288	21	4936
2026-01-06 11:18:18.79	354.98	15.02	-29.8	-32.6	19.0	6.03e-01	0	44	102	524288	21	4953
2026-01-06 11:18:19.79	354.88	14.92	-30.0	-33.0	18.7	6.01e-01	0	44	102	524288	21	5102
2026-01-06 11:18:20.79	354.78	14.81	-29.9	-32.7	18.9	6.01e-01	0	43	102	524288	21	4986
2026-01-06 11:18:21.80	354.68	14.70	-29.9	-32.7	18.9	6.02e-01	0	43	102	524288	21	4977
2026-01-06 11:18:22.81	354.59	14.60	-30.0	-32.9	18.8	6.04e-01	0	43	102	524288	21	5077
2026-01-06 11:18:23.82	354.49	14.49	-29.8	-32.6	18.9	6.03e-01	0	43	102	524288	21	4961
2026-01-06 11:18:24.82	354.39	14.39	-29.8	-32.5	19.0	6.03e-01	0	43	102	524288	21	4901
2026-01-06 11:18:25.83	354.30	14.28	-29.7	-32.3	19.1	6.00e-01	0	43	102	524288	21	4835
2026-01-06 11:18:26.84	354.20	14.18	-29.8	-32.5	19.0	6.02e-01	0	43	102	524288	21	4924
2026-01-06 11:18:27.85	354.11	14.08	-29.8	-32.6	18.9	6.00e-01	0	43	102	524288	21	4955
2026-01-06 11:18:28.85	354.01	13.97	-30.0	-33.0	18.7	6.02e-01	0	43	102	524288	21	5109
2026-01-06 11:18:29.86	353.92	13.87	-29.9	-32.9	18.7	6.03e-01	0	43	102	524288	21	5063
2026-01-06 11:18:30.87	353.83	13.77	-30.0	-33.2	18.5	6.02e-01	0	43	102	524288	21	5196
2026-01-06 11:18:31.87	353.74	13.67	-30.0	-33.0	18.6	6.04e-01	0	43	102	524288	21	5105
2026-01-06 11:18:32.87	353.64	13.57	-29.9	-32.7	18.8	6.02e-01	0	43	102	524288	21	4995
2026-01-06 11:18:33.87	353.56	13.46	-29.8	-32.6	18.8	6.02e-01	0	43	102	524288	21	4973
2026-01-06 11:18:34.87	353.47	13.36	-29.9	-32.8	18.8	6.01e-01	0	43	102	524288	21	5020
2026-01-06 11:18:35.88	353.38	13.26	-29.8	-32.5	18.9	6.01e-01	0	43	102	524288	21	4939
2026-01-06 11:18:36.88	353.29	13.16	-29.7	-32.4	19.0	5.99e-01	0	43	102	524288	21	4882
2026-01-06 11:18:37.90	353.20	13.06	-29.8	-32.5	18.9	6.02e-01	0	43	102	524288	21	4920
2026-01-06 11:18:38.90	353.11	12.96	-29.8	-32.6	18.8	6.00e-01	0	43	102	524288	21	4963
2026-01-06 11:18:39.91	353.03	12.87	-30.0	-33.1	18.5	6.03e-01	0	43	102	524288	21	5155
2026-01-06 11:18:40.91	352.94	12.77	-29.9	-32.9	18.6	6.01e-01	0	43	102	524288	21	5075
2026-01-06 11:18:41.92	352.86	12.67	-30.1	-33.3	18.4	6.02e-01	0	43	102	524288	21	5234
2026-01-06 11:18:42.93	352.77	12.57	-30.1	-33.3	18.4	6.03e-01	0	44	102	524288	21	5219
2026-01-06 11:18:43.94	352.69	12.47	-30.1	-33.4	18.3	6.04e-01	0	43	102	524288	21	5265
2026-01-06 11:18:44.95	352.61	12.38	-30.2	-33.6	18.2	6.01e-01	0	43	102	524288	21	5339
2026-01-06 11:18:45.96	352.52	12.28	-30.1	-33.5	18.2	6.03e-01	0	44	102	524288	21	5316
2026-01-06 11:18:46.96	352.44	12.18	-30.2	-33.7	18.1	6.02e-01	0	44	102	524288	21	5383
2026-01-06 11:18:47.97	352.36	12.09	-30.4	-34.2	17.8	6.02e-01	0	43	102	524288	21	5577
2026-01-06 11:18:48.97	352.28	11.99	-30.2	-33.7	18.1	6.01e-01	0	44	102	524288	21	5373
2026-01-06 11:18:49.97	352.20	11.90	-30.0	-33.2	18.4	6.02e-01	0	43	102	524288	21	5193
2026-01-06 11:18:50.97	352.12	11.80	-30.0	-33.0	18.5	6.04e-01	0	43	102	524288	21	5133
2026-01-06 11:18:51.98	352.04	11.71	-30.0	-33.1	18.5	6.01e-01	0	43	102	524288	21	5140
2026-01-06 11:18:52.98	351.96	11.62	-29.9	-33.0	18.5	6.04e-01	0	43	102	524288	21	5111
2026-01-06 11:18:53.99	351.89	11.52	-30.0	-33.1	18.4	6.02e-01	0	44	102	524288	21	5163
2026-01-06 11:18:55.00	351.81	11.43	-29.9	-33.0	18.5	6.01e-01	0	43	102	524288	21	5120
2026-01-06 11:18:56.00	351.73	11.34	-30.1	-33.4	18.2	6.03e-01	0	43	102	524288	21	5288
2026-01-06 11:18:57.01	351.66	11.24	-30.0	-33.1	18.4	6.02e-01	0	43	102	524288	21	5143
2026-01-06 11:18:58.02	351.58	11.15	-30.0	-33.1	18.4	6.05e-01	0	43	102	524288	21	5148
2026-01-06 11:18:59.03	351.50	11.06	-30.0	-33.3	18.3	6.03e-01	0	43	102	524288	21	5252
2026-01-06 11:19:00.04	351.43	10.97	-30.0	-33.2	18.3	6.01e-01	0	43	102	524288	21	5198
2026-01-06 11:19:01.04	351.36	10.88	-30.0	-33.3	18.3	6.04e-01	0	43	102	524288	21	5223
2026-01-06 11:19:02.05	351.28	10.78	-30.2	-33.7	18.0	6.03e-01	0	44	102	524288	21	5385
2026-01-06 11:19:03.06	351.21	10.69	-30.0	-33.3	18.3	6.01e-01	0	43	102	524288	21	5233
2026-01-06 11:19:04.06	351.14	10.60	-30.1	-33.5	18.1	6.01e-01	0	44	102	524288	21	5310
2026-01-06 11:19:05.06	351.07	10.51	-30.3	-34.0	17.8	6.03e-01	0	43	102	524288	21	5509
2026-01-06 11:19:06.07	350.99	10.42	-30.2	-33.7	18.0	5.99e-01	0	43	102	524288	21	5394
2026-01-06 11:19:07.08	350.92	10.33	-30.1	-33.4	18.1	6.00e-01	0	43	102	524288	21	5274
2026-01-06 11:19:08.09	350.85	10.24	-30.0	-33.2	18.3	5.99e-01	0	43	102	524288	21	5211
2026-01-06 11:19:09.10	350.78	10.16	-30.1	-33.4	18.1	6.02e-01	0	43	102	524288	21	5304
2026-01-06 11:19:10.11	350.71	10.07	-30.1	-33.5	18.0	6.01e-01	0	44	102	524288	21	5344
2026-01-06 11:19:11.12	350.64	9.98	-30.1	-33.4	18.1	6.03e-01	0	44	102	524288	21	5294
2026-01-06 11:19:12.12	350.57	9.89	-30.0	-33.3	18.2	6.02e-01	0	43	102	524288	21	5254
2026-01-06 11:19:13.13	350.51	9.80	-30.1	-33.7	17.9	6.01e-01	0	43	102	524288	21	5395
2026-01-06 11:19:14.14	350.44	9.72	-30.0	-33.4	18.1	6.03e-01	0	44	102	524288	21	5277
2026-01-06 11:19:15.14	350.37	9.63	-30.1	-33.4	18.1	6.03e-01	0	43	102	524288	21	5295
2026-01-06 11:19:16.14	350.31	9.54	-30.1	-33.5	18.0	6.00e-01	0	44	102	524288	21	5334
2026-01-06 11:19:17.15	350.24	9.46	-30.1	-33.6	17.9	6.02e-01	0	43	102	524288	21	5385
2026-01-06 11:19:18.15	350.17	9.37	-30.1	-33.6	18.0	6.01e-01	0	43	102	524288	21	5374
2026-01-06 11:19:19.16	350.11	9.29	-30.1	-33.6	17.9	6.03e-01	0	44	102	524288	21	5375
2026-01-06 11:19:20.16	350.04	9.20	-30.1	-33.5	18.0	6.01e-01	0	43	102	524288	21	5353
2026-01-06 11:19:21.16	349.98	9.12	-30.2	-33.8	17.8	6.02e-01	0	43	102	524288	21	5462
2026-01-06 11:19:22.16	349.92	9.03	-30.1	-33.7	17.8	6.02e-01	0	44	102	524288	21	5427
2026-01-06 11:19:23.17	349.85	8.95	-30.3	-34.1	17.6	6.01e-01	0	43	102	524288	21	5581
2026-01-06 11:19:24.18	349.79	8.86	-30.2	-33.9	17.7	6.02e-01	0	43	102	524288	21	5486
2026-01-06 11:19:25.17	349.73	8.78	-30.1	-33.6	17.9	6.02e-01	0	44	102	524288	21	5368
2026-01-06 11:19:26.18	349.66	8.70	-30.1	-33.5	17.9	6.04e-01	0	43	102	524288	21	5362
2026-01-06 11:19:27.18	349.60	8.61	-30.1	-33.6	17.9	6.02e-01	0	44	102	524288	21	5392
2026-01-06 11:19:28.18	349.54	8.53	-30.1	-33.7	17.8	6.01e-01	0	44	102	524288	21	5435
2026-01-06 11:19:29.19	349.48	8.45	-30.2	-33.8	17.7	6.01e-01	0	43	102	524288	21	5477
2026-01-06 11:19:30.20	349.42	8.36	-30.2	-33.9	17.6	6.04e-01	0	43	102	524288	21	5511
2026-01-06 11:19:31.20	349.36	8.28	-30.2	-33.9	17.6	6.02e-01	0	43	102	524288	21	5527
2026-01-06 11:19:32.21	349.30	8.20	-30.2	-33.8	17.7	6.02e-01	0	44	102	524288	21	5486
2026-01-06 11:19:33.22	349.24	8.12	-30.3	-34.2	17.4	6.02e-01	0	43	102	524288	21	5638
2026-01-06 11:19:34.23	349.18	8.04	-30.4	-34.5	17.1	6.01e-01	0	43	102	524288	21	5810
2026-01-06 11:19:35.24	349.12	7.95	-30.3	-34.2	17.3	6.03e-01	0	43	102	524288	21	5663
2026-01-06 11:19:36.25	349.06	7.87	-30.3	-34.2	17.3	6.00e-01	0	43	102	524288	21	5650
2026-01-06 11:19:37.25	349.00	7.79	-30.3	-34.3	17.2	6.01e-01	0	44	102	524288	21	5707
2026-01-06 11:19:38.25	348.95	7.71	-30.3	-34.2	17.4	6.04e-01	0	43	102	524288	21	5637
2026-01-06 11:19:39.26	348.89	7.63	-30.3	-34.4	17.2	6.00e-01	0	43	102	524288	21	5746
2026-01-06 11:19:40.27	348.83	7.55	-30.3	-34.2	17.3	6.02e-01	0	43	102	524288	21	5677
2026-01-06 11:19:41.27	348.78	7.47	-30.4	-34.6	17.1	6.03e-01	0	43	102	524288	21	5820
2026-01-06 11:19:42.28	348.72	7.39	-30.4	-34.6	17.0	6.01e-01	0	43	102	524288	21	5840
2026-01-06 11:19:43.29	348.66	7.31	-30.3	-34.4	17.1	6.04e-01	0	43	102	524288	21	5746
2026-01-06 11:19:44.29	348.61	7.23	-30.3	-34.4	17.2	6.00e-01	0	43	102	524288	21	5734
2026-01-06 11:19:45.30	348.55	7.16	-30.3	-34.4	17.1	6.01e-01	0	43	102	524288	21	5769
2026-01-06 11:19:46.30	348.50	7.08	-31.2	-36.2	15.9	6.02e-01	0	44	102	524288	23	6422
2026-01-06 11:19:47.30	348.44	7.00	-33.5	-50.4	3.8	7.44e-01	0	43	104	524288	27	25272

#Closed at: 2026-01-06 11:19:48
#Recorded file [0 MB]: D:/data/31010_260106_141000.dat