passes_logs/2026/01/06/R2M6_AANII_01/R2M6_AANII_01__20260106_004333_SUOMI_NPP_rec.log

#Pass ID: 20260106_004333_SUOMI NPP
#Satellite: SUOMI NPP
#Configuration: NPP
#almurnet v.1.7.20240730
#Start time: 2026-01-06 00:43:34

#Version: 2.2.20231116
#Station: R2M6_AANII_01
#Location: 30.233357 lon 59.946436 lat
#TLE: 1 37849U 11061A   26004.95404768  .00000136  00000+0  85334-4 0  9991
#TLE: 2 37849  98.7801 307.0898 0002575  80.6707 279.4760 14.19522289735281

#Time	Az	El	Level	Level2	SNR	BER	BlckErr	Temp	State	Recorded	gain1	gain2
2026-01-06 00:43:34.60	16.62	7.07	-31.8	-38.3	4.5	1.38e+00	0	41	0	0	23	7596
2026-01-06 00:43:35.60	16.60	7.15	-32.0	-38.5	4.4	1.43e+00	0	41	104	0	24	7676
2026-01-06 00:43:36.61	16.59	7.23	-32.0	-38.6	5.5	3.81e-01	0	41	0	0	24	7699
2026-01-06 00:43:37.62	16.58	7.30	-32.0	-38.7	5.7	4.41e-01	0	41	102	1048576	23	7801
2026-01-06 00:43:38.62	16.56	7.38	-31.8	-37.8	6.4	3.06e-01	0	41	102	1048576	23	7132
2026-01-06 00:43:39.63	16.55	7.46	-31.8	-37.6	6.5	2.32e-01	0	41	102	1048576	23	7011
2026-01-06 00:43:40.64	16.54	7.54	-31.6	-36.5	7.3	1.63e-01	0	41	102	1048576	23	6312
2026-01-06 00:43:41.65	16.52	7.62	-31.5	-35.9	7.8	8.68e-02	0	41	102	1048576	23	5981
2026-01-06 00:43:42.65	16.51	7.70	-31.4	-35.8	8.3	6.65e-02	0	41	102	1048576	22	5998
2026-01-06 00:43:43.66	16.50	7.78	-31.2	-35.2	8.8	4.30e-02	0	41	102	1048576	22	5685
2026-01-06 00:43:44.67	16.48	7.86	-31.2	-35.1	9.0	3.09e-02	0	41	102	1048576	22	5609
2026-01-06 00:43:45.68	16.47	7.94	-31.3	-35.5	8.7	2.97e-02	0	41	102	1048576	22	5802
2026-01-06 00:43:46.69	16.45	8.02	-31.3	-35.3	8.8	3.23e-02	0	41	102	1048576	22	5741
2026-01-06 00:43:47.70	16.44	8.10	-31.4	-36.0	8.3	5.29e-02	0	42	102	1048576	22	6084
2026-01-06 00:43:48.71	16.43	8.18	-31.5	-36.2	8.1	4.03e-02	0	42	102	1048576	22	6188
2026-01-06 00:43:49.72	16.41	8.26	-31.6	-36.4	7.6	6.40e-02	0	41	102	1048576	23	6240
2026-01-06 00:43:50.72	16.40	8.34	-31.6	-36.3	7.6	9.45e-02	0	41	102	1048576	23	6166
2026-01-06 00:43:51.73	16.38	8.42	-31.4	-35.2	8.5	5.96e-02	0	42	102	1048576	23	5607
2026-01-06 00:43:52.74	16.37	8.50	-31.4	-35.4	8.4	4.06e-02	0	42	102	1048576	23	5668
2026-01-06 00:43:53.74	16.35	8.58	-31.4	-35.8	8.4	4.01e-02	0	42	102	1048576	22	5987
2026-01-06 00:43:54.75	16.34	8.67	-31.3	-35.4	8.8	3.75e-02	0	42	102	1048576	22	5778
2026-01-06 00:43:55.76	16.32	8.75	-31.4	-35.9	8.4	3.97e-02	0	42	102	1048576	22	6040
2026-01-06 00:43:56.76	16.31	8.83	-31.3	-35.2	8.9	4.74e-02	0	42	102	1048576	22	5680
2026-01-06 00:43:57.76	16.29	8.91	-31.2	-34.8	9.3	1.83e-02	0	42	102	1048576	22	5464
2026-01-06 00:43:58.77	16.28	9.00	-31.1	-34.7	9.4	1.99e-02	0	42	102	1048576	22	5421
2026-01-06 00:43:59.78	16.26	9.08	-31.1	-34.3	9.7	1.95e-02	0	42	102	1048576	22	5245
2026-01-06 00:44:00.79	16.25	9.17	-31.1	-34.5	9.5	1.88e-02	0	42	102	1048576	22	5337
2026-01-06 00:44:01.79	16.23	9.25	-31.2	-34.7	9.5	1.15e-02	0	42	102	1048576	22	5419
2026-01-06 00:44:02.80	16.22	9.33	-31.1	-34.3	9.7	1.71e-02	0	42	102	1048576	22	5250
2026-01-06 00:44:03.81	16.20	9.42	-30.9	-34.4	10.0	1.05e-02	0	42	102	1048576	21	5347
2026-01-06 00:44:04.82	16.18	9.50	-31.0	-34.0	10.0	7.24e-03	0	42	102	1048576	22	5123
2026-01-06 00:44:05.82	16.17	9.59	-31.1	-34.5	9.6	1.11e-02	0	42	102	1048576	22	5308
2026-01-06 00:44:06.83	16.15	9.67	-31.1	-34.5	9.6	1.79e-02	0	42	102	1048576	22	5332
2026-01-06 00:44:07.83	16.13	9.76	-31.0	-34.1	9.9	9.48e-03	0	42	102	1048576	22	5139
2026-01-06 00:44:08.83	16.12	9.84	-31.2	-34.6	9.6	1.33e-02	0	42	102	1048576	22	5364
2026-01-06 00:44:09.83	16.10	9.93	-31.0	-34.1	9.9	1.52e-02	0	42	102	1048576	22	5156
2026-01-06 00:44:10.84	16.08	10.02	-30.9	-33.6	10.4	5.01e-03	0	42	102	1048576	22	4923
2026-01-06 00:44:11.85	16.07	10.10	-30.9	-34.1	10.3	8.88e-03	0	42	102	1048576	21	5243
2026-01-06 00:44:12.85	16.05	10.19	-30.8	-34.0	10.4	7.89e-03	0	42	102	1048576	21	5192
2026-01-06 00:44:13.85	16.03	10.28	-31.0	-34.1	10.0	5.06e-03	0	42	102	1048576	22	5129
2026-01-06 00:44:14.86	16.02	10.37	-31.2	-34.8	9.5	1.40e-02	0	42	102	1048576	22	5439
2026-01-06 00:44:15.87	16.00	10.46	-31.1	-34.3	9.8	1.89e-02	0	42	102	1048576	22	5210
2026-01-06 00:44:16.88	15.98	10.54	-30.9	-33.7	10.3	9.55e-03	0	42	102	1048576	22	4952
2026-01-06 00:44:17.88	15.96	10.63	-30.7	-33.4	10.9	2.98e-03	0	42	102	1048576	21	4924
2026-01-06 00:44:18.89	15.95	10.72	-30.5	-32.9	11.2	4.05e-03	0	42	102	1048576	21	4756
2026-01-06 00:44:19.90	15.93	10.81	-30.4	-32.6	11.5	1.35e-03	0	42	102	1048576	21	4618
2026-01-06 00:44:20.91	15.91	10.90	-30.4	-32.9	11.6	6.38e-04	0	42	102	1048576	20	4820
2026-01-06 00:44:21.91	15.89	10.99	-30.2	-32.5	11.9	4.28e-04	0	42	102	1048576	20	4692
2026-01-06 00:44:22.92	15.87	11.08	-30.4	-33.0	11.6	8.38e-04	0	42	102	1048576	20	4863
2026-01-06 00:44:23.92	15.85	11.17	-30.2	-32.4	12.0	8.08e-04	0	42	102	1048576	20	4625
2026-01-06 00:44:24.93	15.84	11.26	-30.3	-32.6	11.8	8.79e-04	0	42	102	1048576	20	4721
2026-01-06 00:44:25.94	15.82	11.36	-30.3	-32.6	11.9	7.48e-04	0	42	102	1048576	20	4693
2026-01-06 00:44:26.95	15.80	11.45	-30.3	-32.7	11.8	3.15e-03	0	42	102	1048576	20	4759
2026-01-06 00:44:27.95	15.78	11.54	-30.3	-32.8	11.7	1.40e-03	0	42	102	1048576	20	4802
2026-01-06 00:44:28.96	15.76	11.63	-30.3	-32.7	11.8	7.37e-04	0	42	102	1048576	20	4736
2026-01-06 00:44:29.96	15.74	11.72	-30.3	-32.7	11.9	2.93e-03	0	42	102	1048576	20	4728
2026-01-06 00:44:30.97	15.72	11.82	-30.4	-33.1	11.5	1.35e-03	0	42	102	1048576	20	4886
2026-01-06 00:44:31.98	15.70	11.91	-30.4	-32.9	11.7	6.25e-04	0	42	102	1048576	20	4809
2026-01-06 00:44:32.98	15.68	12.00	-30.5	-32.8	11.4	2.76e-03	0	42	102	1048576	21	4695
2026-01-06 00:44:33.99	15.66	12.10	-30.4	-33.1	11.6	1.43e-03	0	43	102	1048576	20	4878
2026-01-06 00:44:35.00	15.64	12.19	-30.3	-32.7	11.8	2.78e-04	0	42	102	1048576	20	4735
2026-01-06 00:44:36.00	15.62	12.29	-30.2	-32.3	12.1	9.09e-04	0	42	102	1048576	20	4597
2026-01-06 00:44:37.01	15.60	12.38	-30.1	-32.0	12.3	1.03e-03	0	42	102	1048576	20	4500
2026-01-06 00:44:38.01	15.58	12.48	-30.2	-32.3	12.1	1.81e-04	0	43	102	1048576	20	4611
2026-01-06 00:44:39.02	15.56	12.58	-30.2	-32.3	12.1	1.05e-03	0	42	102	1048576	20	4582
2026-01-06 00:44:40.02	15.54	12.67	-30.1	-32.1	12.2	2.00e-04	0	43	102	1048576	20	4543
2026-01-06 00:44:41.03	15.52	12.77	-30.3	-32.7	11.8	4.86e-04	0	43	102	1048576	20	4751
2026-01-06 00:44:42.03	15.50	12.87	-30.2	-32.4	12.1	1.26e-03	0	43	102	1048576	20	4636
2026-01-06 00:44:43.04	15.48	12.96	-30.0	-31.9	12.4	1.02e-03	0	42	102	1048576	20	4468
2026-01-06 00:44:44.05	15.45	13.06	-30.0	-31.9	12.5	1.20e-04	0	43	102	1048576	20	4450
2026-01-06 00:44:45.05	15.43	13.16	-30.1	-32.2	12.3	9.51e-04	0	42	102	1048576	20	4543
2026-01-06 00:44:46.06	15.41	13.26	-30.1	-32.0	12.4	1.22e-03	0	43	102	1048576	20	4483
2026-01-06 00:44:47.07	15.39	13.36	-30.1	-32.1	12.4	1.30e-04	0	43	102	1048576	20	4517
2026-01-06 00:44:48.07	15.37	13.46	-30.1	-32.0	12.4	7.59e-04	0	43	102	1048576	20	4479
2026-01-06 00:44:49.08	15.34	13.56	-30.1	-32.0	12.4	8.80e-04	0	42	102	1048576	20	4500
2026-01-06 00:44:50.08	15.32	13.66	-30.1	-31.9	12.5	1.12e-04	0	43	102	1048576	20	4448
2026-01-06 00:44:51.09	15.30	13.76	-30.1	-32.0	12.4	8.32e-04	0	43	102	1048576	20	4500
2026-01-06 00:44:52.10	15.27	13.86	-29.3	-31.2	12.4	8.40e-04	0	43	102	1048576	20	4507
2026-01-06 00:44:53.09	15.25	13.96	-30.1	-32.6	11.7	1.07e-04	0	43	102	1048576	19	4814
2026-01-06 00:44:54.10	15.23	14.06	-30.6	-32.6	11.7	1.13e-04	0	43	102	1048576	20	4518
2026-01-06 00:44:55.10	15.20	14.16	-30.2	-32.3	12.1	7.40e-04	0	43	102	1048576	20	4586
2026-01-06 00:44:56.11	15.18	14.27	-30.1	-31.9	12.5	1.20e-04	0	43	102	1048576	20	4457
2026-01-06 00:44:57.12	15.16	14.37	-30.1	-32.0	12.5	2.45e-03	0	43	102	1048576	20	4466
2026-01-06 00:44:58.13	15.13	14.47	-30.0	-31.8	12.6	6.51e-04	0	43	102	1048576	20	4418
2026-01-06 00:44:59.13	15.11	14.58	-30.0	-31.8	12.6	8.31e-05	0	43	102	1048576	20	4412
2026-01-06 00:45:00.14	15.08	14.68	-30.0	-31.7	12.7	6.29e-04	0	43	102	1048576	20	4363
2026-01-06 00:45:01.14	15.06	14.79	-30.0	-31.5	12.8	2.94e-04	0	43	102	1048576	20	4324
2026-01-06 00:45:02.15	15.03	14.89	-30.1	-31.9	12.6	8.39e-05	0	43	102	1048576	20	4450
2026-01-06 00:45:03.16	15.01	15.00	-30.0	-31.6	12.8	6.82e-04	0	43	102	1048576	20	4351
2026-01-06 00:45:04.16	14.98	15.11	-29.9	-31.5	12.9	2.98e-04	0	43	102	1048576	20	4308
2026-01-06 00:45:05.17	14.96	15.21	-30.0	-32.0	12.9	3.66e-05	0	43	102	1048576	19	4570
2026-01-06 00:45:06.18	14.93	15.32	-29.9	-31.7	13.0	6.27e-04	0	43	102	1048576	19	4465
2026-01-06 00:45:07.18	14.91	15.43	-29.9	-31.7	13.2	3.19e-04	0	43	102	1048576	19	4451
2026-01-06 00:45:08.18	14.88	15.54	-29.9	-31.9	13.0	2.37e-03	0	43	102	1048576	19	4516
2026-01-06 00:45:09.19	14.85	15.64	-30.0	-31.6	12.8	6.52e-04	0	43	102	1048576	20	4358
2026-01-06 00:45:10.19	14.83	15.75	-30.2	-32.1	12.4	6.63e-04	0	43	102	1048576	20	4510
2026-01-06 00:45:11.20	14.80	15.86	-30.0	-31.6	12.9	2.71e-03	0	43	102	1048576	20	4341
2026-01-06 00:45:12.21	14.77	15.97	-29.8	-31.7	13.2	2.44e-05	0	43	102	1048576	19	4440
2026-01-06 00:45:13.22	14.75	16.09	-29.9	-31.8	13.1	7.98e-04	0	43	102	1048576	19	4496
2026-01-06 00:45:14.23	14.72	16.20	-29.9	-31.9	13.2	2.54e-03	0	43	102	1048576	19	4508
2026-01-06 00:45:15.22	14.69	16.31	-29.8	-31.6	13.3	2.33e-03	0	43	102	1048576	19	4417
2026-01-06 00:45:16.23	14.66	16.42	-29.9	-31.4	13.0	8.80e-04	0	43	102	1048576	20	4270
2026-01-06 00:45:17.23	14.63	16.53	-30.0	-31.7	12.9	2.41e-03	0	43	102	1048576	20	4353
2026-01-06 00:45:18.23	14.61	16.64	-30.0	-31.7	12.8	2.59e-03	0	43	102	1048576	20	4355
2026-01-06 00:45:19.24	14.58	16.76	-30.1	-31.8	12.8	4.20e-04	0	43	102	1048576	20	4393
2026-01-06 00:45:20.24	14.55	16.87	-30.2	-32.2	12.5	8.31e-05	0	43	102	1048576	20	4528
2026-01-06 00:45:21.25	14.52	16.99	-29.9	-31.3	13.1	2.45e-03	0	43	102	1048576	20	4248
2026-01-06 00:45:22.25	14.49	17.10	-29.9	-31.8	13.3	3.53e-04	0	43	102	1048576	19	4469
2026-01-06 00:45:23.26	14.46	17.22	-30.1	-31.8	12.8	3.81e-05	0	43	102	1048576	20	4383
2026-01-06 00:45:24.27	14.43	17.33	-30.2	-32.1	12.6	2.40e-03	0	43	102	1048576	20	4484
2026-01-06 00:45:25.28	14.40	17.45	-29.9	-31.4	13.1	3.73e-04	0	43	102	1048576	20	4267
2026-01-06 00:45:26.28	14.37	17.57	-29.9	-31.8	13.2	2.23e-03	0	43	102	1048576	19	4463
2026-01-06 00:45:27.29	14.34	17.69	-29.9	-31.8	13.3	2.49e-03	0	43	102	1048576	19	4470
2026-01-06 00:45:28.30	14.31	17.81	-30.0	-32.0	13.1	3.33e-04	0	43	102	1048576	19	4535
2026-01-06 00:45:29.31	14.27	17.93	-29.9	-31.7	13.3	2.51e-03	0	43	102	1048576	19	4436
2026-01-06 00:45:30.31	14.24	18.05	-29.9	-31.7	13.3	8.62e-05	0	43	102	1048576	19	4439
2026-01-06 00:45:31.32	14.21	18.17	-29.8	-31.6	13.4	3.49e-04	0	43	102	1048576	19	4399
2026-01-06 00:45:32.32	14.18	18.29	-29.7	-31.2	13.6	2.38e-03	0	43	102	1048576	19	4282
2026-01-06 00:45:33.33	14.15	18.41	-29.7	-31.2	13.7	2.21e-03	0	43	102	1048576	19	4268
2026-01-06 00:45:34.34	14.11	18.53	-29.7	-31.2	13.7	3.11e-04	0	43	102	1048576	19	4280
2026-01-06 00:45:35.35	14.08	18.65	-29.6	-30.9	13.9	2.14e-03	0	43	102	1048576	19	4173
2026-01-06 00:45:36.36	14.05	18.78	-29.6	-31.0	13.8	2.41e-03	0	43	102	1048576	19	4220
2026-01-06 00:45:37.36	14.01	18.90	-29.7	-31.1	13.7	4.50e-06	0	43	102	1048576	19	4246
2026-01-06 00:45:38.36	13.98	19.03	-29.7	-31.1	13.7	2.41e-03	0	43	102	1048576	19	4239
2026-01-06 00:45:39.36	13.95	19.15	-29.5	-30.7	14.0	2.30e-03	0	43	102	1048576	19	4140
2026-01-06 00:45:40.37	13.91	19.28	-29.5	-30.8	14.0	1.50e-06	0	43	102	1048576	19	4145
2026-01-06 00:45:41.38	13.88	19.40	-29.6	-30.9	13.9	2.31e-03	0	43	102	1048576	19	4173
2026-01-06 00:45:42.38	13.84	19.53	-29.6	-30.8	13.9	2.15e-03	0	43	102	1048576	19	4157
2026-01-06 00:45:43.39	13.80	19.66	-29.6	-30.9	13.9	2.33e-04	0	43	102	1048576	19	4190
2026-01-06 00:45:44.40	13.77	19.79	-29.6	-31.0	13.5	7.60e-06	0	43	102	1048576	19	4218
2026-01-06 00:45:45.41	13.73	19.92	-29.6	-31.0	13.8	2.47e-03	0	43	102	1048576	19	4213
2026-01-06 00:45:46.42	13.69	20.05	-29.5	-30.7	14.0	2.58e-04	0	43	102	1048576	19	4134
2026-01-06 00:45:47.43	13.66	20.18	-29.5	-30.7	14.0	6.10e-06	0	43	102	1048576	19	4120
2026-01-06 00:45:48.43	13.62	20.31	-29.5	-30.7	14.0	3.80e-06	0	43	102	1048576	19	4120
2026-01-06 00:45:49.44	13.58	20.44	-29.6	-30.9	13.9	2.08e-04	0	43	102	1048576	19	4181
2026-01-06 00:45:50.44	13.54	20.57	-29.6	-30.8	14.0	1.10e-03	0	43	102	1048576	19	4148
2026-01-06 00:45:51.45	13.51	20.70	-29.5	-30.7	14.0	7.00e-07	0	43	102	1048576	19	4113
2026-01-06 00:45:52.46	13.47	20.84	-29.5	-30.5	14.2	2.13e-04	0	43	102	1048576	19	4067
2026-01-06 00:45:53.47	13.43	20.97	-29.5	-31.0	14.2	8.67e-04	0	43	102	1048576	18	4316
2026-01-06 00:45:54.47	13.39	21.11	-29.6	-30.8	14.0	4.90e-04	0	43	102	1048576	19	4159
2026-01-06 00:45:55.48	13.35	21.24	-29.6	-30.8	14.0	1.50e-06	0	43	102	1048576	19	4151
2026-01-06 00:45:56.49	13.31	21.38	-29.4	-30.8	14.3	2.38e-03	0	43	102	1048576	18	4238
2026-01-06 00:45:57.50	13.27	21.52	-29.4	-31.0	14.2	8.83e-04	0	43	102	1048576	18	4294
2026-01-06 00:45:58.50	13.23	21.66	-29.5	-31.0	14.2	2.20e-06	0	43	102	1048576	18	4299
2026-01-06 00:45:59.51	13.18	21.80	-29.4	-30.3	14.3	2.28e-03	0	43	102	1048576	19	4019
2026-01-06 00:46:00.51	13.14	21.93	-29.3	-30.7	14.4	8.38e-04	0	43	102	1048576	18	4198
2026-01-06 00:46:01.52	13.10	22.08	-29.2	-30.4	14.6	0.00e+00	0	43	102	1048576	18	4116
2026-01-06 00:46:02.53	13.06	22.22	-29.4	-30.8	14.4	7.00e-07	0	43	102	1048576	18	4225
2026-01-06 00:46:03.53	13.01	22.36	-29.2	-30.4	14.6	9.29e-04	0	43	102	1048576	18	4129
2026-01-06 00:46:04.54	12.97	22.50	-29.3	-30.5	14.5	7.00e-07	0	43	102	1048576	18	4150
2026-01-06 00:46:05.54	12.93	22.64	-29.3	-30.7	14.4	2.20e-06	0	43	102	1048576	18	4198
2026-01-06 00:46:06.54	12.88	22.79	-29.2	-30.2	14.8	0.00e+00	0	43	102	1048576	18	4059
2026-01-06 00:46:07.55	12.84	22.93	-29.0	-29.9	14.9	0.00e+00	0	43	102	1048576	18	3993
2026-01-06 00:46:08.55	12.79	23.08	-29.0	-29.9	14.9	9.28e-04	0	43	102	1048576	18	3980
2026-01-06 00:46:09.56	12.75	23.23	-29.0	-29.9	15.0	0.00e+00	0	43	102	1048576	18	3964
2026-01-06 00:46:10.56	12.70	23.37	-29.1	-30.1	14.8	0.00e+00	0	43	102	1048576	18	4035
2026-01-06 00:46:11.57	12.65	23.52	-28.8	-29.9	15.2	7.57e-04	0	43	102	1048576	17	4065
2026-01-06 00:46:12.57	12.61	23.67	-28.9	-30.0	15.2	0.00e+00	0	43	102	1048576	17	4089
2026-01-06 00:46:13.58	12.56	23.82	-28.8	-29.9	15.2	0.00e+00	0	43	102	1048576	17	4072
2026-01-06 00:46:14.59	12.51	23.97	-28.7	-29.6	15.4	4.89e-04	0	43	102	1048576	17	3995
2026-01-06 00:46:15.60	12.46	24.12	-28.9	-30.0	15.2	4.76e-04	0	43	102	1048576	17	4096
2026-01-06 00:46:16.61	12.41	24.28	-28.2	-29.3	13.9	0.00e+00	0	43	102	1048576	17	4107
2026-01-06 00:46:17.61	12.36	24.43	-29.1	-30.5	13.8	4.04e-04	0	43	102	1048576	17	4233
2026-01-06 00:46:18.61	12.31	24.58	-29.4	-30.9	14.3	4.33e-04	0	43	102	1048576	18	4266
2026-01-06 00:46:19.62	12.26	24.74	-29.4	-30.8	13.1	7.00e-07	0	43	102	1048576	18	4223
2026-01-06 00:46:20.62	12.21	24.89	-29.3	-30.7	13.9	2.97e-04	0	43	102	1048576	18	4187
2026-01-06 00:46:21.63	12.16	25.05	-29.5	-30.7	14.1	3.04e-04	0	43	102	1048576	19	4094
2026-01-06 00:46:22.63	12.10	25.21	-29.7	-31.0	13.9	5.30e-06	0	43	102	1048576	19	4196
2026-01-06 00:46:23.64	12.05	25.37	-29.7	-31.1	13.9	2.19e-03	0	43	102	1048576	19	4240
2026-01-06 00:46:24.65	12.00	25.53	-29.6	-30.9	14.1	2.97e-04	0	43	102	1048576	19	4174
2026-01-06 00:46:25.65	11.94	25.69	-29.5	-30.6	14.2	2.20e-06	0	43	102	1048576	19	4078
2026-01-06 00:46:26.66	11.89	25.85	-29.7	-31.0	14.0	2.00e-03	0	43	102	1048576	19	4195
2026-01-06 00:46:27.66	11.83	26.01	-29.5	-30.5	14.3	3.59e-04	0	43	102	1048576	19	4040
2026-01-06 00:46:28.66	11.78	26.17	-29.5	-30.6	14.3	0.00e+00	0	43	102	1048576	19	4065
2026-01-06 00:46:29.67	11.72	26.34	-29.4	-30.3	14.4	3.84e-04	0	43	102	1048576	19	3996
2026-01-06 00:46:30.68	11.66	26.50	-29.5	-31.0	14.4	3.80e-04	0	43	102	1048576	18	4276
2026-01-06 00:46:31.69	11.60	26.67	-29.5	-31.0	14.3	7.00e-07	0	43	102	1048576	18	4299
2026-01-06 00:46:32.70	11.55	26.84	-29.4	-30.9	14.5	3.89e-04	0	43	102	1048576	18	4256
2026-01-06 00:46:33.70	11.49	27.01	-29.5	-30.6	14.3	0.00e+00	0	43	102	1048576	19	4077
2026-01-06 00:46:34.71	11.43	27.18	-29.9	-31.5	13.7	3.80e-06	0	43	102	1048576	19	4359
2026-01-06 00:46:35.71	11.37	27.35	-29.8	-31.4	13.8	3.83e-04	0	43	102	1048576	19	4322
2026-01-06 00:46:36.72	11.30	27.52	-29.8	-31.3	13.9	3.00e-06	0	43	102	1048576	19	4292
2026-01-06 00:46:37.73	11.24	27.69	-29.8	-31.4	13.8	1.58e-03	0	43	102	1048576	19	4319
2026-01-06 00:46:38.74	11.18	27.86	-30.0	-31.3	13.5	2.82e-04	0	43	102	1048576	20	4191
2026-01-06 00:46:39.74	11.12	28.04	-30.3	-32.1	13.0	2.69e-04	0	43	102	1048576	20	4460
2026-01-06 00:46:40.75	11.05	28.21	-30.0	-31.8	13.6	1.43e-03	0	43	102	1048576	19	4426
2026-01-06 00:46:41.76	10.99	28.39	-29.7	-31.0	14.0	1.40e-03	0	43	102	1048576	19	4185
2026-01-06 00:46:42.77	10.92	28.57	-29.8	-31.3	13.8	2.02e-04	0	43	102	1048576	19	4286
2026-01-06 00:46:43.78	10.85	28.75	-29.7	-31.0	14.1	7.37e-04	0	43	102	1048576	19	4177
2026-01-06 00:46:44.79	10.79	28.93	-29.8	-31.4	13.8	9.23e-04	0	43	102	1048576	19	4314
2026-01-06 00:46:45.80	10.72	29.11	-29.8	-31.3	14.1	2.88e-04	0	43	102	1048576	19	4279
2026-01-06 00:46:46.80	10.65	29.29	-29.8	-30.9	13.8	7.86e-04	0	43	102	1048576	20	4073
2026-01-06 00:46:47.81	10.58	29.48	-30.2	-32.0	13.1	8.56e-04	0	43	102	1048576	20	4412
2026-01-06 00:46:48.81	10.51	29.66	-30.2	-31.9	13.1	3.65e-04	0	43	102	1048576	20	4379
2026-01-06 00:46:49.81	10.44	29.85	-30.3	-32.3	12.8	8.22e-04	0	43	102	1048576	20	4502
2026-01-06 00:46:50.83	10.36	30.04	-30.7	-32.8	12.2	8.57e-04	0	43	102	1048576	21	4575
2026-01-06 00:46:51.84	10.29	30.23	-30.4	-32.1	12.7	1.21e-04	0	43	102	1048576	21	4348
2026-01-06 00:46:52.85	10.22	30.42	-30.4	-32.5	12.7	9.30e-05	0	43	102	1048576	20	4580
2026-01-06 00:46:53.85	10.14	30.61	-30.2	-31.5	13.1	5.43e-04	0	43	102	1048576	21	4164
2026-01-06 00:46:54.86	10.06	30.80	-30.3	-32.1	13.0	4.73e-05	0	43	102	1048576	20	4444
2026-01-06 00:46:55.86	9.99	30.99	-30.4	-32.4	12.8	4.05e-04	0	43	102	1048576	20	4535
2026-01-06 00:46:56.87	9.91	31.18	-30.4	-32.5	12.8	3.13e-04	0	43	102	1048576	20	4569
2026-01-06 00:46:57.88	9.83	31.38	-30.7	-32.8	12.2	1.22e-04	0	43	102	1048576	21	4589
2026-01-06 00:46:58.89	9.75	31.58	-31.0	-33.2	11.6	4.86e-04	0	43	102	1048576	22	4646
2026-01-06 00:46:59.90	9.67	31.78	-31.2	-33.9	11.1	7.99e-04	0	43	102	1048576	22	4887
2026-01-06 00:47:00.91	9.59	31.98	-31.3	-34.2	11.0	1.55e-03	0	43	102	1048576	22	5026
2026-01-06 00:47:01.92	9.50	32.18	-31.5	-34.2	10.5	5.93e-03	0	43	102	1048576	23	4917
2026-01-06 00:47:02.93	9.42	32.38	-31.7	-34.9	10.0	6.18e-03	0	43	102	1048576	23	5230
2026-01-06 00:47:03.93	9.33	32.58	-31.9	-35.6	9.4	6.15e-03	0	43	102	1048576	23	5516
2026-01-06 00:47:04.94	9.25	32.79	-31.6	-34.8	10.2	7.22e-03	0	43	102	1048576	23	5161
2026-01-06 00:47:05.94	9.16	32.99	-31.7	-35.0	9.9	9.36e-03	0	43	102	1048576	23	5259
2026-01-06 00:47:06.95	9.07	33.20	-31.8	-35.2	9.8	1.18e-02	0	43	102	1048576	23	5355
2026-01-06 00:47:07.95	8.98	33.41	-31.8	-35.4	9.7	5.85e-03	0	43	102	1048576	23	5427
2026-01-06 00:47:08.95	8.89	33.62	-31.6	-34.7	10.2	7.06e-03	0	43	102	1048576	23	5127
2026-01-06 00:47:09.96	8.80	33.83	-31.8	-34.7	9.8	1.00e-02	0	43	102	1048576	24	5044
2026-01-06 00:47:10.97	8.70	34.04	-31.9	-35.2	9.5	1.81e-02	0	43	102	1048576	24	5261
2026-01-06 00:47:11.98	8.61	34.26	-32.1	-35.9	8.9	1.60e-02	0	43	102	1048576	24	5570
2026-01-06 00:47:12.99	8.51	34.47	-31.7	-34.5	10.0	9.53e-03	0	43	102	1048576	24	4976
2026-01-06 00:47:14.00	8.41	34.69	-31.6	-34.2	10.2	1.09e-02	0	43	102	1048576	24	4841
2026-01-06 00:47:15.00	8.32	34.91	-31.5	-34.2	10.5	1.08e-02	0	43	102	1048576	23	4935
2026-01-06 00:47:16.01	8.21	35.13	-31.4	-34.4	10.8	2.43e-03	0	43	102	1048576	22	5078
2026-01-06 00:47:17.01	8.11	35.35	-31.3	-34.1	11.0	9.31e-04	0	43	102	1048576	22	4965
2026-01-06 00:47:18.02	8.01	35.57	-31.3	-33.5	11.1	1.46e-03	0	43	102	1048576	23	4641
2026-01-06 00:47:19.02	7.91	35.79	-31.5	-34.1	10.6	1.48e-03	0	43	102	1048576	23	4883
2026-01-06 00:47:20.03	7.80	36.02	-31.6	-34.8	10.1	4.48e-03	0	43	102	1048576	23	5151
2026-01-06 00:47:21.03	7.69	36.24	-31.7	-34.9	10.0	5.87e-03	0	43	102	1048576	23	5217
2026-01-06 00:47:22.04	7.58	36.47	-31.9	-35.5	9.6	1.17e-02	0	43	102	1048576	23	5469
2026-01-06 00:47:23.05	7.47	36.70	-31.7	-35.0	9.9	8.70e-03	0	43	102	1048576	23	5244
2026-01-06 00:47:24.05	7.36	36.93	-31.4	-33.9	10.8	3.96e-03	0	43	102	1048576	23	4789
2026-01-06 00:47:25.06	7.24	37.17	-31.2	-33.2	11.1	2.73e-03	0	43	102	1048576	23	4550
2026-01-06 00:47:26.06	7.13	37.40	-31.1	-33.5	11.5	2.72e-03	0	43	102	1048576	22	4730
2026-01-06 00:47:27.07	7.01	37.64	-31.1	-33.4	11.5	5.28e-04	0	43	102	1048576	22	4700
2026-01-06 00:47:28.08	6.89	37.88	-31.0	-33.1	11.8	5.88e-04	0	43	102	1048576	22	4589
2026-01-06 00:47:29.08	6.77	38.11	-31.3	-33.9	11.2	6.97e-04	0	43	102	1048576	22	4879
2026-01-06 00:47:30.09	6.65	38.35	-30.9	-32.8	11.9	1.19e-03	0	43	102	1048576	22	4498
2026-01-06 00:47:31.10	6.52	38.60	-30.8	-32.6	12.1	2.32e-04	0	43	102	1048576	22	4424
2026-01-06 00:47:32.11	6.39	38.84	-31.0	-33.0	11.8	4.85e-04	0	44	102	1048576	22	4541
2026-01-06 00:47:33.11	6.27	39.09	-31.0	-33.1	11.7	1.48e-03	0	44	102	1048576	22	4591
2026-01-06 00:47:34.11	6.14	39.33	-31.3	-34.1	11.1	7.98e-04	0	44	102	1048576	22	4957
2026-01-06 00:47:35.12	6.00	39.58	-31.4	-34.3	10.9	1.62e-03	0	44	102	1048576	22	5040
2026-01-06 00:47:36.13	5.87	39.83	-31.3	-33.9	11.3	1.96e-03	0	43	102	1048576	22	4873
2026-01-06 00:47:37.13	5.73	40.08	-31.6	-34.4	10.6	3.81e-03	0	43	102	1048576	23	4972
2026-01-06 00:47:38.14	5.59	40.34	-31.3	-34.1	11.1	2.14e-03	0	43	102	1048576	22	4952
2026-01-06 00:47:39.14	5.45	40.59	-31.1	-33.4	11.6	8.09e-04	0	43	102	1048576	22	4673
2026-01-06 00:47:40.15	5.31	40.85	-31.0	-33.0	11.8	3.36e-04	0	43	102	1048576	22	4546
2026-01-06 00:47:41.16	5.16	41.11	-30.8	-33.0	12.1	2.08e-04	0	43	102	1048576	21	4655
2026-01-06 00:47:42.17	5.01	41.37	-31.1	-33.5	11.5	7.17e-04	0	44	102	1048576	22	4727
2026-01-06 00:47:43.17	4.86	41.63	-30.2	-32.2	11.9	3.75e-04	0	43	102	1048576	22	4550
2026-01-06 00:47:44.18	4.71	41.89	-30.6	-33.0	12.1	4.04e-04	0	43	102	1048576	21	4706
2026-01-06 00:47:45.19	4.55	42.16	-30.9	-32.9	12.2	4.13e-04	0	43	102	1048576	22	4522
2026-01-06 00:47:46.20	4.39	42.42	-30.9	-33.2	11.6	2.38e-03	0	43	102	1048576	21	4700
2026-01-06 00:47:47.20	4.23	42.69	-31.4	-34.5	10.5	9.83e-04	0	43	102	1048576	22	5094
2026-01-06 00:47:48.21	4.06	42.96	-31.6	-34.3	10.6	2.18e-03	0	44	102	1048576	23	4953
2026-01-06 00:47:49.22	3.89	43.23	-31.8	-35.3	10.0	4.13e-03	0	43	102	1048576	23	5378
2026-01-06 00:47:50.23	3.72	43.51	-31.9	-35.6	9.7	9.89e-03	0	43	102	1048576	23	5486
2026-01-06 00:47:51.23	3.55	43.78	-31.5	-34.1	10.7	7.07e-03	0	43	102	1048576	23	4870
2026-01-06 00:47:52.24	3.37	44.06	-31.1	-33.4	11.6	2.27e-03	0	43	102	1048576	22	4671
2026-01-06 00:47:53.25	3.19	44.34	-31.3	-33.9	11.2	3.15e-03	0	43	102	1048576	22	4862
2026-01-06 00:47:54.25	3.01	44.62	-31.1	-33.3	11.5	6.71e-04	0	44	102	1048576	22	4656
2026-01-06 00:47:55.26	2.82	44.90	-30.8	-32.9	12.3	4.40e-04	0	43	102	1048576	21	4603
2026-01-06 00:47:56.27	2.63	45.18	-30.4	-31.8	13.1	2.11e-03	0	44	102	1048576	21	4231
2026-01-06 00:47:57.28	2.44	45.47	-30.3	-31.7	13.1	1.83e-05	0	43	102	1048576	21	4196
2026-01-06 00:47:58.29	2.24	45.76	-30.0	-31.4	13.6	6.80e-06	0	43	102	1048576	20	4195
2026-01-06 00:47:59.29	2.04	46.04	-30.3	-32.0	13.2	1.52e-05	0	43	102	1048576	20	4403
2026-01-06 00:48:00.30	1.84	46.33	-30.3	-31.6	13.2	5.03e-05	0	44	102	1048576	21	4191
2026-01-06 00:48:01.31	1.63	46.63	-30.7	-32.7	12.5	5.11e-05	0	44	102	1048576	21	4547
2026-01-06 00:48:02.31	1.42	46.92	-30.7	-32.2	12.4	2.47e-04	0	43	102	1048576	22	4283
2026-01-06 00:48:03.32	1.20	47.21	-30.4	-31.3	13.2	8.46e-05	0	44	102	1048576	22	3996
2026-01-06 00:48:04.32	0.98	47.51	-30.3	-32.2	13.2	1.90e-03	0	44	102	1048576	20	4438
2026-01-06 00:48:05.32	0.76	47.80	-30.1	-31.4	13.7	3.50e-05	0	43	102	1048576	20	4204
2026-01-06 00:48:06.33	0.53	48.10	-30.1	-31.5	13.6	1.60e-05	0	44	102	1048576	20	4232
2026-01-06 00:48:07.34	0.30	48.41	-30.4	-32.0	13.0	1.97e-03	0	43	102	1048576	21	4292
2026-01-06 00:48:08.34	0.06	48.71	-30.5	-32.6	12.9	3.81e-05	0	43	102	1048576	20	4591
2026-01-06 00:48:09.34	359.82	49.01	-30.6	-32.4	12.7	6.63e-05	0	43	102	1048576	21	4446
2026-01-06 00:48:10.34	359.57	49.31	-30.5	-32.3	12.7	2.06e-03	0	44	102	1048576	21	4390
2026-01-06 00:48:11.35	359.32	49.62	-30.0	-31.3	13.7	1.82e-03	0	43	102	1048576	20	4173
2026-01-06 00:48:12.36	359.06	49.93	-29.6	-30.3	14.4	9.90e-06	0	43	102	1048576	20	3897
2026-01-06 00:48:13.36	358.80	50.24	-29.6	-30.6	14.5	1.57e-03	0	43	102	1048576	19	4062
2026-01-06 00:48:14.37	358.53	50.55	-29.7	-31.0	14.3	1.48e-03	0	43	102	1048576	19	4167
2026-01-06 00:48:15.38	358.25	50.87	-29.7	-31.0	14.3	2.21e-05	0	44	102	1048576	19	4176
2026-01-06 00:48:16.39	357.97	51.18	-29.8	-31.3	14.1	1.35e-03	0	43	102	1048576	19	4273
2026-01-06 00:48:17.39	357.68	51.50	-29.8	-31.3	14.2	1.55e-03	0	43	102	1048576	19	4271
2026-01-06 00:48:18.40	357.39	51.81	-29.5	-30.6	14.6	1.90e-05	0	43	102	1048576	19	4047
2026-01-06 00:48:19.40	357.09	52.13	-29.7	-31.0	14.3	0.00e+00	0	43	102	1048576	19	4186
2026-01-06 00:48:20.41	356.78	52.45	-29.8	-30.9	14.0	1.41e-03	0	44	102	1048576	20	4055
2026-01-06 00:48:21.42	356.47	52.77	-29.7	-30.3	14.3	4.65e-05	0	44	102	1048576	20	3900
2026-01-06 00:48:22.43	356.15	53.10	-29.7	-30.8	14.4	1.26e-03	0	44	102	1048576	19	4121
2026-01-06 00:48:23.43	355.82	53.42	-29.4	-30.2	14.9	1.11e-03	0	43	102	1048576	19	3942
2026-01-06 00:48:24.44	355.49	53.74	-28.7	-29.0	15.9	2.28e-05	0	43	102	1048576	18	3722
2026-01-06 00:48:25.44	355.15	54.07	-29.2	-30.1	15.2	7.87e-04	0	43	102	1048576	18	4007
2026-01-06 00:48:26.45	354.80	54.39	-29.8	-31.2	14.2	5.17e-04	0	44	102	1048576	19	4218
2026-01-06 00:48:27.46	354.44	54.72	-29.9	-31.0	14.0	6.80e-06	0	44	102	1048576	20	4089
2026-01-06 00:48:28.47	354.07	55.05	-29.8	-31.1	14.3	4.01e-04	0	44	102	1048576	19	4189
2026-01-06 00:48:29.48	353.69	55.38	-29.5	-30.5	14.7	0.00e+00	0	43	102	1048576	19	4037
2026-01-06 00:48:30.49	353.30	55.71	-29.3	-30.0	15.0	0.00e+00	0	43	102	1048576	19	3877
2026-01-06 00:48:31.49	352.91	56.04	-29.5	-30.4	14.8	7.77e-04	0	44	102	1048576	19	3993
2026-01-06 00:48:32.50	352.51	56.38	-30.0	-31.1	13.8	1.03e-03	0	44	102	1048576	20	4124
2026-01-06 00:48:33.50	352.10	56.71	-30.1	-31.6	13.5	1.29e-05	0	44	102	1048576	20	4257
2026-01-06 00:48:34.51	351.67	57.04	-30.0	-31.3	13.8	7.75e-04	0	43	102	1048576	20	4156
2026-01-06 00:48:35.51	351.24	57.37	-30.0	-31.2	13.8	9.95e-04	0	43	102	1048576	20	4151
2026-01-06 00:48:36.52	350.80	57.70	-30.1	-31.5	13.7	9.10e-06	0	44	102	1048576	20	4242
2026-01-06 00:48:37.53	350.34	58.04	-30.1	-31.5	13.7	1.30e-03	0	44	102	1048576	20	4240
2026-01-06 00:48:38.54	349.87	58.37	-30.2	-31.8	13.4	1.20e-03	0	43	102	1048576	20	4332
2026-01-06 00:48:39.53	349.40	58.70	-30.4	-32.2	13.0	1.37e-05	0	44	102	1048576	20	4462
2026-01-06 00:48:40.54	348.90	59.04	-30.6	-32.5	12.7	2.44e-05	0	43	102	1048576	21	4449
2026-01-06 00:48:41.55	348.40	59.37	-30.6	-32.5	12.6	4.08e-04	0	44	102	1048576	21	4470
2026-01-06 00:48:42.56	347.88	59.70	-30.5	-32.3	12.8	6.63e-05	0	43	102	1048576	21	4390
2026-01-06 00:48:43.57	347.34	60.04	-29.9	-31.0	14.0	8.30e-06	0	44	102	1048576	20	4071
2026-01-06 00:48:44.57	346.80	60.37	-30.0	-31.3	13.6	3.43e-05	0	43	102	1048576	20	4178
2026-01-06 00:48:45.58	346.24	60.70	-30.1	-31.6	13.5	3.00e-06	0	43	102	1048576	20	4275
2026-01-06 00:48:46.58	345.67	61.03	-30.5	-32.1	13.0	2.97e-05	0	44	102	1048576	21	4320
2026-01-06 00:48:47.59	345.08	61.36	-30.0	-30.9	13.8	1.83e-05	0	44	102	1048576	21	3961
2026-01-06 00:48:48.59	344.47	61.69	-30.1	-31.0	13.8	3.80e-06	0	43	102	1048576	21	4005
2026-01-06 00:48:49.60	343.85	62.01	-29.9	-31.0	14.0	1.50e-06	0	44	102	1048576	20	4076
2026-01-06 00:48:50.61	343.21	62.34	-29.6	-30.3	14.4	3.00e-06	0	43	102	1048576	20	3877
2026-01-06 00:48:51.61	342.56	62.66	-29.6	-30.1	14.5	1.50e-06	0	44	102	1048576	20	3837
2026-01-06 00:48:52.62	341.88	62.99	-29.2	-29.6	15.2	0.00e+00	0	43	102	1048576	19	3790
2026-01-06 00:48:53.62	341.19	63.31	-28.7	-28.8	15.9	0.00e+00	0	43	102	1048576	18	3673
2026-01-06 00:48:54.62	340.48	63.62	-28.7	-28.8	16.0	0.00e+00	0	44	102	1048576	18	3661
2026-01-06 00:48:55.63	339.75	63.94	-29.1	-29.9	15.3	7.00e-07	0	44	102	1048576	18	3956
2026-01-06 00:48:56.64	338.99	64.26	-29.7	-31.0	14.3	7.00e-07	0	43	102	1048576	19	4172
2026-01-06 00:48:57.65	338.22	64.57	-29.8	-31.2	14.2	0.00e+00	0	43	102	1048576	19	4219
2026-01-06 00:48:58.66	337.42	64.88	-29.5	-30.4	14.8	1.50e-06	0	43	102	1048576	19	3993
2026-01-06 00:48:59.66	336.61	65.18	-29.4	-30.6	15.0	0.00e+00	0	44	102	1048576	18	4135
2026-01-06 00:49:00.66	335.77	65.48	-30.2	-31.7	13.6	1.50e-06	0	44	102	1048576	20	4281
2026-01-06 00:49:01.67	334.91	65.78	-30.9	-33.4	12.1	5.41e-05	0	43	102	1048576	21	4786
2026-01-06 00:49:02.68	334.02	66.07	-31.6	-34.3	10.8	1.63e-03	0	44	102	1048576	23	4926
2026-01-06 00:49:03.69	333.11	66.36	-31.8	-35.2	10.1	3.09e-03	0	44	102	1048576	23	5303
2026-01-06 00:49:04.69	332.18	66.64	-31.8	-35.0	10.3	7.50e-03	0	44	102	1048576	23	5226
2026-01-06 00:49:05.70	331.21	66.92	-31.9	-34.9	10.0	1.15e-02	0	43	102	1048576	24	5074
2026-01-06 00:49:06.71	330.23	67.20	-31.5	-33.7	10.9	3.44e-03	0	44	102	1048576	24	4600
2026-01-06 00:49:07.72	329.21	67.47	-31.1	-32.8	11.8	7.50e-04	0	44	102	1048576	23	4363
2026-01-06 00:49:08.72	328.18	67.73	-30.8	-32.3	12.6	3.50e-04	0	44	102	1048576	22	4299
2026-01-06 00:49:09.72	327.12	67.99	-29.8	-30.7	14.0	7.60e-06	0	43	102	1048576	20	3963
2026-01-06 00:49:10.72	326.04	68.23	-30.0	-31.5	13.8	0.00e+00	0	44	102	1048576	19	4317
2026-01-06 00:49:11.74	324.90	68.48	-30.2	-31.6	13.6	3.00e-06	0	44	102	1048576	20	4236
2026-01-06 00:49:12.74	323.76	68.72	-30.3	-31.5	13.3	2.51e-05	0	44	102	1048576	21	4134
2026-01-06 00:49:13.76	322.57	68.95	-30.1	-30.9	13.8	6.80e-06	0	43	102	1048576	21	3963
2026-01-06 00:49:14.76	321.38	69.17	-30.2	-31.8	13.6	4.50e-06	0	44	102	1048576	20	4310
2026-01-06 00:49:15.77	320.14	69.38	-30.7	-32.5	12.8	1.14e-04	0	43	102	1048576	21	4460
2026-01-06 00:49:16.77	318.90	69.58	-31.3	-34.0	11.7	6.19e-04	0	43	102	1048576	22	4885
2026-01-06 00:49:17.78	317.61	69.78	-30.4	-31.7	13.4	1.51e-04	0	43	102	1048576	21	4176
2026-01-06 00:49:18.79	316.29	69.97	-30.1	-31.4	13.9	3.80e-06	0	44	102	1048576	20	4178
2026-01-06 00:49:19.80	314.95	70.14	-30.8	-32.8	12.6	1.04e-04	0	44	102	1048576	21	4567
2026-01-06 00:49:20.81	313.59	70.31	-31.1	-33.3	12.0	5.90e-04	0	44	102	1048576	22	4627
2026-01-06 00:49:21.81	312.21	70.46	-30.9	-32.8	12.2	1.56e-04	0	44	102	1048576	22	4436
2026-01-06 00:49:22.82	310.80	70.61	-31.0	-33.0	12.1	1.97e-04	0	44	102	1048576	22	4525
2026-01-06 00:49:23.83	309.37	70.75	-30.7	-32.1	12.8	1.32e-04	0	44	102	1048576	22	4234
2026-01-06 00:49:24.83	307.93	70.87	-31.0	-33.0	12.4	8.46e-05	0	44	102	1048576	22	4522
2026-01-06 00:49:25.84	306.45	70.98	-31.7	-34.5	10.8	1.31e-03	0	44	102	1048576	23	4998
2026-01-06 00:49:26.85	304.96	71.08	-31.8	-35.1	10.3	3.11e-03	0	43	102	1048576	23	5219
2026-01-06 00:49:27.85	303.47	71.17	-32.0	-35.2	9.9	5.09e-03	0	43	102	1048576	24	5197
2026-01-06 00:49:28.86	301.95	71.24	-32.2	-36.0	9.2	1.33e-02	0	43	102	1048576	24	5536
2026-01-06 00:49:29.87	300.41	71.30	-31.3	-33.2	11.7	4.16e-03	0	43	102	1048576	23	4491
2026-01-06 00:49:30.88	298.87	71.35	-30.5	-31.5	13.3	6.86e-05	0	44	102	1048576	22	4045
2026-01-06 00:49:31.89	297.32	71.39	-30.8	-32.9	12.6	2.05e-05	0	44	102	1048576	21	4556
2026-01-06 00:49:32.89	295.78	71.42	-31.6	-34.3	10.8	1.44e-03	0	43	102	1048576	23	4907
2026-01-06 00:49:33.90	294.22	71.43	-31.6	-34.2	11.0	4.33e-03	0	44	102	1048576	23	4868
2026-01-06 00:49:34.91	292.66	71.42	-31.4	-34.0	11.4	1.01e-03	0	43	102	1048576	22	4884
2026-01-06 00:49:35.91	291.11	71.41	-31.8	-34.9	10.4	1.79e-03	0	44	102	1048576	23	5128
2026-01-06 00:49:36.92	289.56	71.38	-31.7	-34.4	10.8	3.61e-03	0	44	102	1048576	23	4962
2026-01-06 00:49:37.93	288.01	71.34	-31.2	-33.4	11.7	2.31e-03	0	43	102	1048576	22	4658
2026-01-06 00:49:38.93	286.48	71.29	-31.5	-33.9	11.0	3.05e-03	0	43	102	1048576	23	4759
2026-01-06 00:49:39.94	284.95	71.22	-31.5	-33.8	11.3	3.24e-03	0	44	102	1048576	23	4728
2026-01-06 00:49:40.94	283.45	71.15	-31.0	-32.9	12.1	2.59e-03	0	43	102	1048576	22	4485
2026-01-06 00:49:41.95	281.94	71.06	-30.9	-32.8	12.3	2.19e-04	0	44	102	1048576	22	4444
2026-01-06 00:49:42.96	280.46	70.95	-30.7	-32.7	12.7	1.95e-03	0	43	102	1048576	21	4513
2026-01-06 00:49:43.97	278.99	70.84	-30.6	-32.2	12.8	1.90e-03	0	44	102	1048576	21	4354
2026-01-06 00:49:44.98	277.54	70.71	-30.9	-33.2	12.4	2.75e-04	0	44	102	1048576	21	4673
2026-01-06 00:49:45.98	276.12	70.58	-31.4	-34.2	11.3	1.89e-03	0	44	102	1048576	22	4953
2026-01-06 00:49:46.99	274.71	70.43	-31.0	-33.3	12.3	5.89e-04	0	44	102	1048576	21	4728
2026-01-06 00:49:47.99	273.34	70.27	-30.4	-31.9	13.3	3.29e-04	0	44	102	1048576	21	4259
2026-01-06 00:49:49.00	271.98	70.10	-30.5	-32.2	13.0	1.22e-03	0	43	102	1048576	21	4333
2026-01-06 00:49:50.01	270.65	69.92	-31.0	-33.4	12.1	1.64e-03	0	43	102	1048576	21	4757
2026-01-06 00:49:51.02	269.34	69.73	-31.2	-33.6	11.6	1.08e-03	0	44	102	1048576	22	4719
2026-01-06 00:49:52.03	268.06	69.53	-30.7	-32.1	12.8	1.13e-04	0	43	102	1048576	22	4230
2026-01-06 00:49:53.03	266.81	69.33	-30.8	-32.9	12.4	1.14e-03	0	43	102	1048576	21	4595
2026-01-06 00:49:54.04	265.59	69.11	-31.5	-34.4	11.1	8.90e-04	0	44	102	1048576	22	5050
2026-01-06 00:49:55.05	264.39	68.89	-31.2	-33.0	11.7	4.93e-03	0	43	102	1048576	23	4430
2026-01-06 00:49:56.06	263.21	68.66	-31.1	-33.2	12.0	4.82e-04	0	43	102	1048576	22	4616
2026-01-06 00:49:57.06	262.08	68.42	-30.8	-32.3	12.4	7.13e-04	0	43	102	1048576	22	4286
2026-01-06 00:49:58.06	260.97	68.18	-30.1	-30.9	13.8	1.80e-03	0	43	102	1048576	21	3960
2026-01-06 00:49:59.07	259.88	67.92	-30.5	-32.2	12.8	2.97e-05	0	43	102	1048576	21	4348
2026-01-06 00:50:00.08	258.82	67.66	-30.5	-32.0	12.9	3.12e-05	0	43	102	1048576	21	4306
2026-01-06 00:50:01.09	257.78	67.40	-30.2	-31.3	13.5	7.55e-04	0	43	102	1048576	21	4082
2026-01-06 00:50:02.09	256.78	67.13	-30.4	-31.8	13.2	3.12e-05	0	44	102	1048576	21	4233
2026-01-06 00:50:03.10	255.80	66.85	-29.9	-30.6	13.9	1.29e-05	0	44	102	1048576	21	3869
2026-01-06 00:50:04.11	254.84	66.57	-30.1	-31.4	13.8	1.94e-03	0	44	102	1048576	20	4189
2026-01-06 00:50:05.11	253.92	66.28	-30.3	-31.9	13.4	3.80e-06	0	44	102	1048576	20	4349
2026-01-06 00:50:06.11	253.02	66.00	-29.8	-30.7	14.2	6.10e-06	0	44	102	1048576	20	3984
2026-01-06 00:50:07.12	252.13	65.70	-29.7	-30.9	14.4	2.26e-03	0	44	102	1048576	19	4128
2026-01-06 00:50:08.13	251.27	65.40	-30.1	-31.5	13.7	2.40e-03	0	43	102	1048576	20	4236
2026-01-06 00:50:09.13	250.44	65.10	-30.0	-31.2	13.8	3.00e-06	0	44	102	1048576	20	4138
2026-01-06 00:50:10.14	249.63	64.79	-28.9	-29.0	15.6	0.00e+00	0	44	102	1048576	19	3631
2026-01-06 00:50:11.15	248.83	64.48	-28.8	-29.7	15.8	7.67e-04	0	44	102	1048576	17	3985
2026-01-06 00:50:12.16	248.06	64.17	-29.8	-31.1	14.2	7.00e-07	0	43	102	1048576	19	4203
2026-01-06 00:50:13.16	247.32	63.86	-29.5	-30.5	14.6	1.50e-06	0	44	102	1048576	19	4011
2026-01-06 00:50:14.17	246.59	63.54	-29.0	-29.6	15.4	0.00e+00	0	43	102	1048576	18	3882
2026-01-06 00:50:15.17	245.88	63.22	-29.4	-30.8	14.9	0.00e+00	0	43	102	1048576	18	4190
2026-01-06 00:50:16.17	245.20	62.90	-29.3	-30.0	14.9	7.00e-07	0	44	102	1048576	19	3877
2026-01-06 00:50:17.17	244.53	62.58	-28.9	-29.5	15.6	0.00e+00	0	43	102	1048576	18	3836
2026-01-06 00:50:18.18	243.88	62.25	-29.5	-30.5	14.6	0.00e+00	0	43	102	1048576	19	4038
2026-01-06 00:50:19.19	243.24	61.92	-29.3	-29.8	15.0	0.00e+00	0	44	102	1048576	19	3841
2026-01-06 00:50:20.20	242.62	61.59	-28.9	-29.4	15.6	0.00e+00	0	43	102	1048576	18	3820
2026-01-06 00:50:21.21	242.01	61.26	-29.0	-29.8	15.3	0.00e+00	0	44	102	1048576	18	3923
2026-01-06 00:50:22.21	241.43	60.93	-28.7	-29.0	15.8	0.00e+00	0	43	102	1048576	18	3714
2026-01-06 00:50:23.22	240.85	60.60	-28.3	-28.6	16.3	0.00e+00	0	43	102	1048576	17	3709
2026-01-06 00:50:24.23	240.29	60.27	-28.4	-29.3	16.3	0.00e+00	0	43	102	1048576	16	3973
2026-01-06 00:50:25.24	239.75	59.93	-29.1	-29.9	15.2	0.00e+00	0	43	102	1048576	18	3966
2026-01-06 00:50:26.24	239.23	59.60	-29.0	-29.7	15.3	7.00e-07	0	44	102	1048576	18	3897
2026-01-06 00:50:27.25	238.71	59.27	-29.3	-30.4	15.0	0.00e+00	0	43	102	1048576	18	4077
2026-01-06 00:50:28.26	238.20	58.93	-29.5	-30.5	14.7	0.00e+00	0	43	102	1048576	19	4021
2026-01-06 00:50:29.27	237.71	58.60	-29.8	-31.2	14.2	0.00e+00	0	43	102	1048576	19	4219
2026-01-06 00:50:30.27	237.24	58.26	-30.0	-31.3	13.6	2.20e-06	0	44	102	1048576	20	4167
2026-01-06 00:50:31.28	236.77	57.93	-30.4	-32.0	12.9	2.05e-05	0	44	102	1048576	21	4320
2026-01-06 00:50:32.29	236.32	57.59	-30.3	-31.7	13.1	2.67e-05	0	43	102	1048576	21	4217
2026-01-06 00:50:33.29	235.88	57.26	-30.3	-31.6	13.1	3.28e-05	0	44	102	1048576	21	4191
2026-01-06 00:50:34.30	235.44	56.93	-29.9	-31.1	13.7	9.10e-06	0	43	102	1048576	20	4128
2026-01-06 00:50:35.31	235.02	56.59	-30.0	-31.4	13.5	1.29e-05	0	43	102	1048576	20	4209
2026-01-06 00:50:36.32	234.61	56.26	-29.7	-31.0	14.3	1.50e-06	0	43	102	1048576	19	4177
2026-01-06 00:50:37.33	234.21	55.93	-29.5	-30.5	14.5	0.00e+00	0	44	102	1048576	19	4033
2026-01-06 00:50:38.33	233.82	55.60	-30.0	-31.7	13.8	2.84e-04	0	44	102	1048576	19	4385
2026-01-06 00:50:39.33	233.44	55.27	-29.6	-30.8	14.4	7.00e-07	0	44	102	1048576	19	4123
2026-01-06 00:50:40.34	233.06	54.94	-29.2	-30.1	15.1	0.00e+00	0	44	102	1048576	18	4020
2026-01-06 00:50:41.35	232.69	54.61	-29.2	-30.1	15.1	0.00e+00	0	44	102	1048576	18	4018
2026-01-06 00:50:42.36	232.34	54.28	-29.3	-30.0	14.8	7.60e-06	0	43	102	1048576	19	3906
2026-01-06 00:50:43.36	231.99	53.95	-28.7	-29.5	15.8	0.00e+00	0	44	102	1048576	17	3944
2026-01-06 00:50:44.37	231.65	53.62	-29.5	-31.0	14.6	0.00e+00	0	43	102	1048576	18	4268
2026-01-06 00:50:45.38	231.31	53.30	-30.2	-32.0	13.3	1.83e-04	0	44	102	1048576	20	4412
2026-01-06 00:50:46.38	230.99	52.98	-30.0	-31.3	13.6	2.13e-05	0	44	102	1048576	20	4201
2026-01-06 00:50:47.38	230.67	52.66	-29.3	-30.0	14.8	7.00e-07	0	44	102	1048576	19	3903
2026-01-06 00:50:48.40	230.36	52.33	-29.5	-30.6	14.5	3.68e-04	0	44	102	1048576	19	4075
2026-01-06 00:50:49.41	230.05	52.01	-30.0	-31.3	13.6	1.15e-03	0	44	102	1048576	20	4198
2026-01-06 00:50:50.41	229.75	51.69	-30.0	-31.5	13.6	2.89e-05	0	44	102	1048576	20	4239
2026-01-06 00:50:51.42	229.46	51.37	-30.1	-31.1	13.4	8.32e-04	0	44	102	1048576	21	4043
2026-01-06 00:50:52.42	229.18	51.06	-30.3	-32.2	13.1	9.36e-04	0	44	102	1048576	20	4457
2026-01-06 00:50:53.43	228.90	50.74	-31.1	-33.4	11.5	1.61e-04	0	44	102	1048576	22	4714
2026-01-06 00:50:54.44	228.62	50.43	-31.5	-34.3	10.6	1.97e-03	0	44	102	1048576	23	4970
2026-01-06 00:50:55.44	228.35	50.12	-31.4	-33.8	10.8	6.04e-03	0	44	102	1048576	23	4785
2026-01-06 00:50:56.45	228.09	49.80	-31.1	-33.6	11.4	2.44e-03	0	44	102	1048576	22	4788
2026-01-06 00:50:57.45	227.83	49.50	-31.1	-33.3	11.6	1.33e-03	0	44	102	1048576	22	4681
2026-01-06 00:50:58.46	227.58	49.19	-31.0	-33.3	11.6	1.32e-03	0	43	102	1048576	22	4665
2026-01-06 00:50:59.46	227.34	48.88	-30.3	-31.7	13.0	4.15e-04	0	44	102	1048576	21	4226
2026-01-06 00:51:00.47	227.09	48.58	-29.9	-30.5	13.9	7.09e-05	0	43	102	1048576	21	3866
2026-01-06 00:51:01.47	226.86	48.28	-30.1	-31.5	13.5	2.70e-04	0	44	102	1048576	20	4238
2026-01-06 00:51:02.48	226.62	47.97	-29.5	-30.0	14.4	1.73e-04	0	44	102	1048576	20	3814
2026-01-06 00:51:03.49	226.39	47.67	-28.9	-28.9	15.4	1.69e-04	0	44	102	1048576	19	3623
2026-01-06 00:51:04.50	226.17	47.37	-28.6	-28.8	15.9	7.00e-07	0	43	102	1048576	18	3684
2026-01-06 00:51:05.49	225.95	47.08	-28.9	-29.4	15.5	0.00e+00	0	43	102	1048576	18	3828
2026-01-06 00:51:06.50	225.74	46.79	-29.5	-30.8	14.6	4.72e-04	0	44	102	1048576	18	4229
2026-01-06 00:51:07.51	225.52	46.49	-29.5	-30.4	14.5	4.08e-04	0	43	102	1048576	19	4002
2026-01-06 00:51:08.52	225.32	46.20	-29.0	-29.3	15.3	0.00e+00	0	43	102	1048576	19	3710
2026-01-06 00:51:09.52	225.11	45.91	-29.5	-30.6	14.4	2.79e-04	0	44	102	1048576	19	4055
2026-01-06 00:51:10.53	224.91	45.62	-29.9	-31.6	13.9	1.75e-04	0	44	102	1048576	19	4352
2026-01-06 00:51:11.54	224.72	45.33	-30.9	-33.5	11.9	2.02e-04	0	44	102	1048576	21	4855
2026-01-06 00:51:12.55	224.52	45.05	-31.0	-33.2	11.7	6.05e-04	0	43	102	1048576	22	4648
2026-01-06 00:51:13.55	224.34	44.76	-30.9	-33.0	11.8	8.43e-04	0	43	102	1048576	22	4567
2026-01-06 00:51:14.56	224.15	44.48	-30.7	-32.4	12.3	7.98e-04	0	44	102	1048576	22	4352
2026-01-06 00:51:15.57	223.97	44.20	-30.9	-32.8	11.9	5.77e-04	0	43	102	1048576	22	4487
2026-01-06 00:51:16.58	223.79	43.92	-30.9	-33.0	11.8	8.03e-04	0	44	102	1048576	22	4584
2026-01-06 00:51:17.57	223.61	43.65	-31.2	-34.0	11.0	8.64e-04	0	44	102	1048576	22	4925
2026-01-06 00:51:18.58	223.44	43.37	-30.9	-33.0	11.8	4.90e-04	0	44	102	1048576	22	4560
2026-01-06 00:51:19.59	223.27	43.10	-31.2	-33.8	11.3	6.43e-04	0	44	102	1048576	22	4864
2026-01-06 00:51:20.60	223.10	42.82	-31.1	-33.4	11.5	1.74e-03	0	44	102	1048576	22	4705
2026-01-06 00:51:21.60	222.94	42.55	-30.8	-32.6	12.0	3.84e-04	0	43	102	1048576	22	4426
2026-01-06 00:51:22.61	222.78	42.28	-31.3	-34.1	11.1	1.70e-03	0	43	102	1048576	22	4968
2026-01-06 00:51:23.61	222.62	42.02	-31.7	-34.9	10.2	3.52e-03	0	43	102	1048576	23	5232
2026-01-06 00:51:24.62	222.46	41.75	-32.2	-36.6	8.3	1.42e-02	0	43	102	1048576	24	5949
2026-01-06 00:51:25.62	222.31	41.49	-32.0	-36.1	9.1	1.71e-02	0	44	102	1048576	23	5757
2026-01-06 00:51:26.63	222.16	41.23	-31.9	-35.1	9.4	1.84e-02	0	44	102	1048576	24	5247
2026-01-06 00:51:27.63	222.01	40.97	-31.7	-34.6	9.8	1.14e-02	0	44	102	1048576	24	5026
2026-01-06 00:51:28.63	221.86	40.71	-31.5	-34.5	10.3	7.18e-03	0	43	102	1048576	23	5047
2026-01-06 00:51:29.63	221.72	40.46	-31.3	-33.8	10.8	2.58e-03	0	44	102	1048576	23	4786
2026-01-06 00:51:30.64	221.58	40.20	-31.6	-34.6	10.2	3.49e-03	0	44	102	1048576	23	5098
2026-01-06 00:51:31.65	221.44	39.95	-31.2	-33.8	11.2	1.31e-03	0	44	102	1048576	22	4870
2026-01-06 00:51:32.66	221.30	39.69	-31.4	-34.4	10.7	1.90e-03	0	43	102	1048576	22	5092
2026-01-06 00:51:33.66	221.17	39.44	-31.3	-33.7	11.0	2.22e-03	0	44	102	1048576	23	4751
2026-01-06 00:51:34.67	221.03	39.19	-31.7	-34.9	9.9	2.58e-03	0	43	102	1048576	23	5232
2026-01-06 00:51:35.68	220.90	38.95	-31.3	-33.7	10.9	7.89e-03	0	44	102	1048576	23	4729
2026-01-06 00:51:36.69	220.77	38.70	-31.7	-35.0	9.9	5.26e-03	0	44	102	1048576	23	5256
2026-01-06 00:51:37.69	220.65	38.46	-31.6	-34.5	10.2	6.47e-03	0	43	102	1048576	23	5067
2026-01-06 00:51:38.70	220.52	38.21	-31.1	-33.0	11.4	1.95e-03	0	44	102	1048576	23	4474
2026-01-06 00:51:39.71	220.40	37.97	-30.5	-31.8	12.6	4.15e-04	0	44	102	1048576	22	4175
2026-01-06 00:51:40.71	220.28	37.73	-30.5	-32.1	12.7	2.83e-04	0	43	102	1048576	21	4374
2026-01-06 00:51:41.72	220.16	37.50	-30.4	-32.1	12.6	1.48e-04	0	44	102	1048576	21	4358
2026-01-06 00:51:42.73	220.04	37.26	-30.3	-31.8	12.8	4.65e-05	0	44	102	1048576	21	4273
2026-01-06 00:51:43.74	219.92	37.02	-30.3	-31.6	13.0	2.00e-04	0	44	102	1048576	21	4191
2026-01-06 00:51:44.74	219.81	36.79	-30.1	-31.7	13.2	1.59e-04	0	44	102	1048576	20	4313
2026-01-06 00:51:45.75	219.70	36.56	-30.2	-32.0	13.1	3.12e-05	0	44	102	1048576	20	4419
2026-01-06 00:51:46.76	219.59	36.33	-30.1	-31.8	13.1	3.28e-05	0	44	102	1048576	20	4353
2026-01-06 00:51:47.76	219.48	36.10	-30.1	-31.6	13.3	1.85e-04	0	44	102	1048576	20	4304
2026-01-06 00:51:48.77	219.37	35.87	-29.9	-31.0	13.6	1.60e-05	0	44	102	1048576	20	4125
2026-01-06 00:51:49.78	219.26	35.65	-29.7	-31.1	14.0	2.20e-06	0	44	102	1048576	19	4229
2026-01-06 00:51:50.79	219.16	35.42	-29.3	-30.0	14.7	1.81e-04	0	44	102	1048576	19	3910
2026-01-06 00:51:51.80	219.05	35.20	-29.2	-29.7	14.9	2.20e-06	0	44	102	1048576	19	3831
2026-01-06 00:51:52.80	218.95	34.98	-29.1	-30.0	15.0	0.00e+00	0	44	102	1048576	18	3992
2026-01-06 00:51:53.81	218.85	34.76	-29.4	-30.8	14.5	7.00e-07	0	44	102	1048576	18	4225
2026-01-06 00:51:54.82	218.75	34.54	-30.2	-32.0	13.1	1.52e-05	0	44	102	1048576	20	4418
2026-01-06 00:51:55.82	218.66	34.32	-30.7	-32.9	12.1	1.54e-04	0	43	102	1048576	21	4628
2026-01-06 00:51:56.83	218.56	34.10	-31.3	-34.1	11.2	1.02e-03	0	44	102	1048576	22	5003
2026-01-06 00:51:57.84	218.46	33.89	-31.1	-33.5	11.3	1.30e-03	0	43	102	1048576	22	4747
2026-01-06 00:51:58.85	218.37	33.68	-30.7	-32.5	12.0	4.61e-04	0	44	102	1048576	22	4404
2026-01-06 00:51:59.85	218.28	33.47	-30.6	-32.7	12.1	2.59e-04	0	44	102	1048576	21	4579
2026-01-06 00:52:00.86	218.19	33.26	-30.4	-32.7	12.5	1.77e-04	0	43	102	1048576	20	4645
2026-01-06 00:52:01.87	218.09	33.05	-30.2	-32.0	13.0	6.10e-05	0	44	102	1048576	20	4411
2026-01-06 00:52:02.88	218.01	32.84	-30.2	-31.9	13.1	7.70e-05	0	44	102	1048576	20	4391
2026-01-06 00:52:03.89	217.92	32.63	-30.4	-32.2	12.5	1.36e-04	0	43	102	1048576	21	4391
2026-01-06 00:52:04.90	217.83	32.43	-30.4	-32.1	12.8	1.50e-04	0	44	102	1048576	21	4380
2026-01-06 00:52:05.90	217.75	32.22	-30.4	-32.4	12.7	1.05e-04	0	44	102	1048576	20	4577
2026-01-06 00:52:06.91	217.66	32.02	-29.3	-30.7	13.2	5.26e-05	0	44	102	1048576	20	4250
2026-01-06 00:52:07.91	217.58	31.82	-30.0	-31.3	13.2	1.29e-05	0	44	102	1048576	20	4220
2026-01-06 00:52:08.92	217.50	31.62	-30.0	-31.5	13.3	9.90e-06	0	44	102	1048576	20	4261
2026-01-06 00:52:09.93	217.41	31.42	-30.1	-31.7	13.0	1.06e-05	0	44	102	1048576	20	4318
2026-01-06 00:52:10.93	217.33	31.23	-30.3	-32.2	12.7	4.57e-05	0	44	102	1048576	20	4501
2026-01-06 00:52:11.94	217.25	31.03	-30.8	-33.2	11.8	7.16e-04	0	43	102	1048576	21	4735
2026-01-06 00:52:12.94	217.18	30.84	-30.8	-32.8	11.7	6.86e-04	0	44	102	1048576	22	4521
2026-01-06 00:52:13.95	217.10	30.64	-31.1	-33.6	11.1	7.58e-04	0	44	102	1048576	22	4822
2026-01-06 00:52:14.96	217.02	30.45	-31.3	-34.4	10.7	2.08e-03	0	44	102	1048576	22	5106
2026-01-06 00:52:15.97	216.95	30.26	-31.2	-33.9	10.9	2.02e-03	0	44	102	1048576	22	4945
2026-01-06 00:52:16.98	216.87	30.07	-31.2	-33.9	11.0	1.75e-03	0	44	102	1048576	22	4917
2026-01-06 00:52:17.99	216.80	29.88	-31.1	-33.5	11.2	1.37e-03	0	44	102	1048576	22	4765
2026-01-06 00:52:19.00	216.73	29.69	-31.1	-33.7	11.1	1.45e-03	0	44	102	1048576	22	4860
2026-01-06 00:52:20.00	216.65	29.51	-31.3	-34.4	10.5	1.85e-03	0	44	102	1048576	22	5130
2026-01-06 00:52:21.01	216.58	29.32	-31.4	-34.8	10.2	5.05e-03	0	44	102	1048576	22	5302
2026-01-06 00:52:22.01	216.51	29.14	-31.4	-34.3	10.2	6.71e-03	0	44	102	1048576	23	4981
2026-01-06 00:52:23.02	216.44	28.95	-31.5	-34.5	10.1	6.73e-03	0	43	102	1048576	23	5064
2026-01-06 00:52:24.03	216.38	28.77	-31.6	-34.8	9.9	5.87e-03	0	44	102	1048576	23	5220
2026-01-06 00:52:25.03	216.31	28.59	-31.4	-34.7	10.3	8.52e-03	0	44	102	1048576	22	5271
2026-01-06 00:52:26.03	216.24	28.41	-31.3	-34.4	10.5	4.30e-03	0	44	102	1048576	22	5133
2026-01-06 00:52:27.03	216.18	28.24	-31.3	-34.5	10.5	4.16e-03	0	44	102	1048576	22	5158
2026-01-06 00:52:28.04	216.11	28.06	-31.2	-34.0	10.8	6.28e-03	0	44	102	1048576	22	4960
2026-01-06 00:52:29.05	216.05	27.88	-31.1	-33.6	11.2	2.20e-03	0	43	102	1048576	22	4813
2026-01-06 00:52:30.05	215.98	27.71	-31.2	-34.0	10.9	4.05e-03	0	44	102	1048576	22	4971
2026-01-06 00:52:31.06	215.92	27.53	-31.1	-33.8	11.0	4.88e-03	0	44	102	1048576	22	4881
2026-01-06 00:52:32.07	215.86	27.36	-31.0	-33.4	11.2	1.91e-03	0	44	102	1048576	22	4764
2026-01-06 00:52:33.07	215.79	27.19	-30.9	-33.2	11.4	4.03e-03	0	44	102	1048576	22	4667
2026-01-06 00:52:34.08	215.73	27.02	-30.7	-33.1	11.8	2.81e-03	0	44	102	1048576	21	4726
2026-01-06 00:52:35.09	215.67	26.85	-30.6	-32.6	12.1	1.15e-03	0	44	102	1048576	21	4559
2026-01-06 00:52:36.09	215.61	26.68	-30.5	-32.5	12.2	2.41e-03	0	43	102	1048576	21	4519
2026-01-06 00:52:37.09	215.55	26.51	-30.5	-32.4	12.3	2.59e-03	0	44	102	1048576	21	4475
2026-01-06 00:52:38.10	215.50	26.35	-30.6	-32.7	12.1	1.64e-03	0	44	102	1048576	21	4568
2026-01-06 00:52:39.10	215.44	26.18	-30.6	-32.6	12.1	2.62e-03	0	44	102	1048576	21	4539
2026-01-06 00:52:40.11	215.38	26.02	-30.1	-31.8	13.0	2.25e-03	0	44	102	1048576	20	4384
2026-01-06 00:52:41.11	215.33	25.85	-30.4	-32.7	12.4	1.65e-03	0	44	102	1048576	20	4671
2026-01-06 00:52:42.12	215.27	25.69	-30.2	-32.2	12.8	2.31e-03	0	44	102	1048576	20	4488
2026-01-06 00:52:43.13	215.21	25.53	-30.2	-32.0	12.9	3.61e-03	0	44	102	1048576	20	4447
2026-01-06 00:52:44.13	215.16	25.37	-30.5	-32.4	12.2	2.57e-04	0	44	102	1048576	21	4477
2026-01-06 00:52:45.13	215.11	25.21	-30.4	-32.6	12.4	2.13e-03	0	44	102	1048576	20	4650
2026-01-06 00:52:46.14	215.05	25.05	-30.6	-32.8	11.9	3.54e-03	0	44	102	1048576	21	4625
2026-01-06 00:52:47.15	215.00	24.89	-31.1	-33.6	11.0	1.08e-03	0	44	102	1048576	22	4840
2026-01-06 00:52:48.15	214.95	24.74	-31.1	-33.6	11.0	1.74e-03	0	43	102	1048576	22	4835
2026-01-06 00:52:49.16	214.89	24.58	-31.1	-33.7	11.0	4.06e-03	0	44	102	1048576	22	4849
2026-01-06 00:52:50.17	214.84	24.42	-31.6	-34.8	10.0	4.05e-03	0	44	102	1048576	23	5231
2026-01-06 00:52:51.17	214.79	24.27	-31.5	-34.5	10.0	7.91e-03	0	44	102	1048576	23	5081
2026-01-06 00:52:52.18	214.74	24.11	-31.6	-34.9	9.7	9.35e-03	0	44	102	1048576	23	5254
2026-01-06 00:52:53.19	214.69	23.96	-31.7	-35.5	9.3	1.47e-02	0	44	102	1048576	23	5536
2026-01-06 00:52:54.20	214.64	23.81	-31.9	-36.0	8.9	2.86e-02	0	44	102	1048576	23	5804
2026-01-06 00:52:55.20	214.59	23.66	-31.6	-35.1	9.5	1.97e-02	0	44	102	1048576	23	5361
2026-01-06 00:52:56.21	214.55	23.51	-31.6	-35.2	9.5	1.58e-02	0	44	102	1048576	23	5394
2026-01-06 00:52:57.22	214.50	23.36	-31.4	-34.4	10.0	1.16e-02	0	44	102	1048576	23	5061
2026-01-06 00:52:58.22	214.45	23.21	-31.1	-33.9	10.8	4.56e-03	0	44	102	1048576	22	4931
2026-01-06 00:52:59.23	214.40	23.06	-31.0	-33.6	10.9	2.47e-03	0	44	102	1048576	22	4855
2026-01-06 00:53:00.24	214.36	22.92	-31.1	-33.8	10.8	3.02e-03	0	44	102	1048576	22	4907
2026-01-06 00:53:01.25	214.31	22.77	-30.7	-33.1	11.7	9.51e-04	0	44	102	1048576	21	4724
2026-01-06 00:53:02.26	214.27	22.62	-30.5	-32.6	12.1	9.53e-04	0	44	102	1048576	21	4546
2026-01-06 00:53:03.26	214.22	22.48	-30.4	-32.2	12.3	1.12e-03	0	44	102	1048576	21	4420
2026-01-06 00:53:04.27	214.18	22.34	-30.3	-32.5	12.4	1.28e-04	0	44	102	1048576	20	4638
2026-01-06 00:53:05.28	214.13	22.19	-30.5	-32.5	12.1	7.61e-04	0	44	102	1048576	21	4536
2026-01-06 00:53:06.29	214.09	22.05	-30.3	-32.0	12.4	2.88e-04	0	44	102	1048576	21	4366
2026-01-06 00:53:07.29	214.04	21.91	-30.5	-32.9	12.1	1.70e-03	0	44	102	1048576	20	4773
2026-01-06 00:53:08.29	214.00	21.77	-30.6	-32.7	11.8	2.59e-04	0	44	102	1048576	21	4611
2026-01-06 00:53:09.30	213.96	21.63	-30.6	-32.9	11.8	2.48e-04	0	44	102	1048576	21	4680
2026-01-06 00:53:10.31	213.92	21.49	-30.6	-32.9	11.8	9.82e-04	0	44	102	1048576	21	4696
2026-01-06 00:53:11.32	213.88	21.35	-30.7	-33.2	11.5	6.35e-04	0	44	102	1048576	21	4780
2026-01-06 00:53:12.32	213.83	21.21	-30.6	-32.9	11.7	6.74e-04	0	44	102	1048576	21	4666
2026-01-06 00:53:13.33	213.79	21.08	-30.4	-32.3	12.1	7.82e-04	0	44	102	1048576	21	4481
2026-01-06 00:53:14.33	213.75	20.94	-30.6	-32.9	11.7	4.35e-04	0	44	102	1048576	21	4688
2026-01-06 00:53:15.35	213.71	20.80	-30.6	-32.9	11.7	1.06e-03	0	44	102	1048576	21	4692
2026-01-06 00:53:16.36	213.67	20.67	-30.5	-32.5	12.0	6.19e-04	0	44	102	1048576	21	4526
2026-01-06 00:53:17.36	213.63	20.54	-30.5	-32.5	12.0	3.67e-04	0	44	102	1048576	21	4529
2026-01-06 00:53:18.36	213.59	20.40	-30.4	-32.4	12.1	3.89e-04	0	44	102	1048576	21	4507
2026-01-06 00:53:19.37	213.56	20.27	-30.3	-32.6	12.2	6.44e-04	0	44	102	1048576	20	4664
2026-01-06 00:53:20.38	213.52	20.14	-30.4	-32.2	12.2	5.43e-04	0	44	102	1048576	21	4438
2026-01-06 00:53:21.38	213.48	20.01	-30.3	-32.5	12.2	2.74e-04	0	44	102	1048576	20	4634
2026-01-06 00:53:22.39	213.44	19.88	-30.3	-32.5	12.3	2.37e-04	0	44	102	1048576	20	4619
2026-01-06 00:53:23.39	213.41	19.75	-30.1	-31.9	12.7	4.47e-04	0	44	102	1048576	20	4416
2026-01-06 00:53:24.40	213.37	19.62	-30.2	-32.1	12.6	7.17e-05	0	44	102	1048576	20	4503
2026-01-06 00:53:25.41	213.33	19.49	-30.0	-31.8	12.8	6.71e-05	0	44	102	1048576	20	4382
2026-01-06 00:53:26.41	213.30	19.36	-30.0	-31.7	12.4	2.92e-04	0	44	102	1048576	20	4361
2026-01-06 00:53:27.42	213.26	19.23	-30.0	-31.7	12.8	1.56e-03	0	44	102	1048576	20	4365
2026-01-06 00:53:28.43	213.22	19.11	-29.9	-31.3	13.0	5.03e-05	0	44	102	1048576	20	4240
2026-01-06 00:53:29.43	213.19	18.98	-29.9	-31.5	12.9	5.49e-05	0	44	102	1048576	20	4308
2026-01-06 00:53:30.44	213.15	18.86	-29.9	-31.4	12.9	5.64e-05	0	44	102	1048576	20	4277
2026-01-06 00:53:31.45	213.12	18.73	-29.8	-31.1	13.2	1.37e-05	0	44	102	1048576	20	4171
2026-01-06 00:53:32.45	213.08	18.61	-29.8	-31.7	13.2	2.89e-05	0	44	102	1048576	19	4437
2026-01-06 00:53:33.46	213.05	18.48	-29.8	-31.5	13.3	1.29e-05	0	44	102	1048576	19	4399
2026-01-06 00:53:34.46	213.02	18.36	-30.0	-31.6	12.9	3.43e-05	0	44	102	1048576	20	4338
2026-01-06 00:53:35.47	212.98	18.24	-30.0	-31.7	12.8	4.27e-05	0	44	102	1048576	20	4362
2026-01-06 00:53:36.48	212.95	18.12	-29.9	-31.4	12.9	5.41e-05	0	44	102	1048576	20	4276
2026-01-06 00:53:37.49	212.92	18.00	-30.1	-31.8	12.7	7.78e-05	0	44	102	1048576	20	4412
2026-01-06 00:53:38.48	212.89	17.88	-30.0	-31.8	12.7	6.48e-05	0	44	102	1048576	20	4394
2026-01-06 00:53:39.49	212.85	17.76	-30.2	-32.3	12.4	9.84e-05	0	44	102	1048576	20	4579
2026-01-06 00:53:40.50	212.82	17.64	-30.4	-32.7	12.1	2.28e-04	0	44	102	1048576	20	4717
2026-01-06 00:53:41.51	212.79	17.52	-30.3	-32.5	12.2	1.06e-03	0	44	102	1048576	20	4653
2026-01-06 00:53:42.51	212.76	17.40	-30.5	-32.8	11.6	5.60e-04	0	44	102	1048576	21	4672
2026-01-06 00:53:43.52	212.73	17.28	-30.5	-32.6	11.8	8.12e-04	0	44	102	1048576	21	4595
2026-01-06 00:53:44.53	212.70	17.16	-30.6	-33.1	11.5	1.17e-03	0	44	102	1048576	21	4759
2026-01-06 00:53:45.53	212.66	17.05	-30.7	-33.3	11.2	1.31e-03	0	44	102	1048576	21	4856
2026-01-06 00:53:46.54	212.63	16.93	-30.8	-33.5	11.1	1.36e-03	0	44	102	1048576	21	4922
2026-01-06 00:53:47.55	212.60	16.82	-30.7	-33.4	11.2	2.27e-03	0	44	102	1048576	21	4895
2026-01-06 00:53:48.56	212.57	16.70	-30.6	-33.1	11.4	1.49e-03	0	44	102	1048576	21	4762
2026-01-06 00:53:49.57	212.54	16.59	-30.7	-33.5	11.1	1.57e-03	0	44	102	1048576	21	4925
2026-01-06 00:53:50.57	212.51	16.47	-30.5	-32.7	11.6	1.40e-03	0	44	102	1048576	21	4642
2026-01-06 00:53:51.58	212.49	16.36	-30.5	-32.6	11.7	1.14e-03	0	44	102	1048576	21	4617
2026-01-06 00:53:52.58	212.46	16.25	-30.4	-32.6	11.7	8.94e-04	0	44	102	1048576	21	4610
2026-01-06 00:53:53.59	212.43	16.13	-30.4	-33.0	11.8	5.76e-04	0	44	102	1048576	20	4830
2026-01-06 00:53:54.59	212.40	16.02	-30.3	-32.6	12.0	1.37e-03	0	44	102	1048576	20	4683
2026-01-06 00:53:55.59	212.37	15.91	-30.3	-32.8	11.9	3.07e-04	0	44	102	1048576	20	4750
2026-01-06 00:53:56.60	212.34	15.80	-30.3	-32.7	12.0	1.10e-03	0	44	102	1048576	20	4733
2026-01-06 00:53:57.61	212.32	15.69	-30.4	-32.8	11.8	1.23e-03	0	44	102	1048576	20	4782
2026-01-06 00:53:58.62	212.29	15.58	-30.2	-32.4	12.1	2.56e-04	0	44	102	1048576	20	4630
2026-01-06 00:53:59.62	212.26	15.47	-30.2	-32.5	12.1	9.60e-04	0	44	102	1048576	20	4652
2026-01-06 00:54:00.63	212.23	15.36	-30.2	-32.4	12.1	1.28e-03	0	44	102	1048576	20	4634
2026-01-06 00:54:01.63	212.21	15.25	-30.3	-32.7	11.9	4.50e-04	0	44	102	1048576	20	4731
2026-01-06 00:54:02.64	212.18	15.15	-30.3	-32.8	11.8	1.55e-03	0	44	102	1048576	20	4762
2026-01-06 00:54:03.64	212.15	15.04	-30.5	-32.8	11.5	1.69e-03	0	44	102	1048576	21	4691
2026-01-06 00:54:04.65	212.13	14.93	-30.6	-33.2	11.2	1.19e-03	0	44	102	1048576	21	4826
2026-01-06 00:54:05.66	212.10	14.82	-30.7	-33.5	10.9	3.07e-03	0	44	102	1048576	21	4957
2026-01-06 00:54:06.66	212.08	14.72	-30.8	-33.7	10.8	3.34e-03	0	44	102	1048576	21	5047
2026-01-06 00:54:07.67	212.05	14.61	-30.7	-33.5	10.9	2.17e-03	0	44	102	1048576	21	4949
2026-01-06 00:54:08.68	212.02	14.51	-30.9	-33.9	10.6	3.27e-03	0	44	102	1048576	21	5133
2026-01-06 00:54:09.69	212.00	14.40	-31.0	-34.0	10.2	6.12e-03	0	44	102	1048576	22	5066
2026-01-06 00:54:10.69	211.97	14.30	-31.1	-34.1	10.1	5.73e-03	0	44	102	1048576	22	5118
2026-01-06 00:54:11.70	211.95	14.19	-31.2	-34.4	9.9	9.01e-03	0	44	102	1048576	22	5250
2026-01-06 00:54:12.71	211.92	14.09	-31.2	-34.7	9.6	1.13e-02	0	44	102	1048576	22	5374
2026-01-06 00:54:13.71	211.90	13.99	-31.0	-34.1	10.1	8.22e-03	0	44	102	1048576	22	5106
2026-01-06 00:54:14.72	211.88	13.89	-31.2	-34.6	9.7	1.46e-02	0	44	102	1048576	22	5314
2026-01-06 00:54:15.73	211.85	13.78	-31.2	-34.7	9.7	1.36e-02	0	44	102	1048576	22	5359
2026-01-06 00:54:16.73	211.83	13.68	-31.1	-34.2	10.0	8.73e-03	0	44	102	1048576	22	5175
2026-01-06 00:54:17.74	211.80	13.58	-31.2	-34.7	9.7	1.14e-02	0	44	102	1048576	22	5356
2026-01-06 00:54:18.74	211.78	13.48	-31.0	-33.9	10.2	8.94e-03	0	44	102	1048576	22	5022
2026-01-06 00:54:19.75	211.76	13.38	-31.0	-34.0	10.1	5.72e-03	0	44	102	1048576	22	5098
2026-01-06 00:54:20.75	211.73	13.28	-30.8	-33.8	10.7	4.24e-03	0	44	102	1048576	21	5067
2026-01-06 00:54:21.76	211.71	13.18	-30.8	-34.0	10.5	3.48e-03	0	44	102	1048576	21	5155
2026-01-06 00:54:22.77	211.69	13.08	-30.9	-34.3	10.2	4.78e-03	0	44	102	1048576	21	5311
2026-01-06 00:54:23.78	211.67	12.98	-30.9	-33.8	10.3	4.65e-03	0	44	102	1048576	22	4980
2026-01-06 00:54:24.79	211.64	12.88	-30.6	-33.1	11.1	2.39e-03	0	44	102	1048576	21	4830
2026-01-06 00:54:25.80	211.62	12.78	-30.4	-32.4	11.5	1.01e-03	0	44	102	1048576	21	4565
2026-01-06 00:54:26.80	211.60	12.69	-30.2	-32.4	11.9	5.30e-04	0	44	102	1048576	20	4653
2026-01-06 00:54:27.81	211.58	12.59	-30.1	-32.3	12.0	3.78e-04	0	44	102	1048576	20	4609
2026-01-06 00:54:28.82	211.55	12.49	-30.1	-32.2	12.0	3.27e-04	0	44	102	1048576	20	4587
2026-01-06 00:54:29.82	211.53	12.40	-30.2	-32.5	11.8	8.40e-04	0	44	102	1048576	20	4701
2026-01-06 00:54:30.83	211.51	12.30	-30.2	-32.5	11.9	4.16e-04	0	44	102	1048576	20	4672
2026-01-06 00:54:31.84	211.49	12.20	-30.0	-31.9	12.3	2.64e-04	0	44	102	1048576	20	4470
2026-01-06 00:54:32.85	211.47	12.11	-30.0	-31.8	12.3	1.72e-04	0	44	102	1048576	20	4451
2026-01-06 00:54:33.84	211.45	12.01	-29.9	-31.6	12.4	1.29e-04	0	44	102	1048576	20	4379
2026-01-06 00:54:34.85	211.43	11.92	-30.0	-31.8	12.3	2.04e-04	0	44	102	1048576	20	4459
2026-01-06 00:54:35.86	211.41	11.82	-29.8	-31.3	12.6	2.08e-04	0	44	102	1048576	20	4287
2026-01-06 00:54:36.87	211.39	11.73	-30.2	-32.5	11.9	2.02e-04	0	44	102	1048576	20	4681
2026-01-06 00:54:37.87	211.37	11.64	-30.1	-32.1	12.1	2.78e-04	0	44	102	1048576	20	4541
2026-01-06 00:54:38.88	211.34	11.54	-30.1	-32.1	12.1	1.95e-04	0	43	102	1048576	20	4544
2026-01-06 00:54:39.89	211.32	11.45	-30.2	-32.6	11.7	3.15e-04	0	44	102	1048576	20	4713
2026-01-06 00:54:40.89	211.30	11.36	-30.1	-32.3	11.9	4.99e-04	0	44	102	1048576	20	4613
2026-01-06 00:54:41.89	211.29	11.27	-29.9	-31.7	12.3	1.94e-04	0	44	102	1048576	20	4420
2026-01-06 00:54:42.90	211.27	11.17	-30.0	-31.8	12.2	1.73e-04	0	44	102	1048576	20	4456
2026-01-06 00:54:43.91	211.25	11.08	-30.0	-31.9	12.2	2.45e-04	0	44	102	1048576	20	4489
2026-01-06 00:54:44.92	211.23	10.99	-30.1	-32.4	11.8	3.30e-04	0	44	102	1048576	20	4655
2026-01-06 00:54:45.92	211.21	10.90	-30.1	-32.2	11.9	4.15e-04	0	44	102	1048576	20	4589
2026-01-06 00:54:46.93	211.19	10.81	-29.9	-31.8	12.2	2.12e-04	0	44	102	1048576	20	4441
2026-01-06 00:54:47.93	211.17	10.72	-30.0	-32.1	12.0	2.81e-04	0	44	102	1048576	20	4543
2026-01-06 00:54:48.94	211.15	10.63	-30.1	-32.1	12.0	3.11e-04	0	44	102	1048576	20	4575
2026-01-06 00:54:49.94	211.13	10.54	-30.0	-32.1	12.0	2.82e-04	0	44	102	1048576	20	4575
2026-01-06 00:54:50.95	211.11	10.45	-30.2	-32.7	11.6	5.77e-04	0	44	102	1048576	20	4759
2026-01-06 00:54:51.96	211.09	10.36	-30.1	-32.3	11.8	5.69e-04	0	44	102	1048576	20	4623
2026-01-06 00:54:52.96	211.08	10.27	-30.2	-32.5	11.6	3.91e-04	0	44	102	1048576	20	4716
2026-01-06 00:54:53.97	211.06	10.19	-30.2	-32.5	11.6	5.95e-04	0	44	102	1048576	20	4698
2026-01-06 00:54:54.98	211.04	10.10	-30.3	-32.8	11.5	8.51e-04	0	44	102	1048576	20	4824
2026-01-06 00:54:55.99	211.02	10.01	-30.2	-32.6	11.6	9.37e-04	0	44	102	1048576	20	4740
2026-01-06 00:54:57.00	211.00	9.92	-30.3	-33.0	11.3	9.70e-04	0	44	102	1048576	20	4892
2026-01-06 00:54:58.00	210.99	9.84	-30.3	-32.9	11.4	1.23e-03	0	44	102	1048576	20	4875
2026-01-06 00:54:59.01	210.97	9.75	-30.4	-33.3	11.1	1.08e-03	0	44	102	1048576	20	5017
2026-01-06 00:55:00.02	210.95	9.66	-30.4	-33.2	11.2	1.40e-03	0	44	102	1048576	20	4960
2026-01-06 00:55:01.02	210.93	9.58	-30.5	-33.0	10.9	2.02e-03	0	44	102	1048576	21	4807
2026-01-06 00:55:02.03	210.92	9.49	-30.4	-32.7	11.2	1.69e-03	0	44	102	1048576	21	4690
2026-01-06 00:55:03.04	210.90	9.40	-30.5	-33.1	10.8	2.04e-03	0	44	102	1048576	21	4863
2026-01-06 00:55:04.04	210.88	9.32	-30.4	-32.8	11.0	2.12e-03	0	44	102	1048576	21	4754
2026-01-06 00:55:05.05	210.86	9.23	-30.5	-33.0	10.9	1.82e-03	0	44	102	1048576	21	4815
2026-01-06 00:55:06.05	210.85	9.15	-30.6	-33.3	10.7	2.28e-03	0	44	102	1048576	21	4921
2026-01-06 00:55:07.06	210.83	9.07	-30.5	-33.1	10.9	3.03e-03	0	44	102	1048576	21	4859
2026-01-06 00:55:08.07	210.81	8.98	-30.7	-33.7	10.3	5.22e-03	0	44	102	1048576	21	5103
