passes_logs/2026/01/06/R2M6_AANII_01/R2M6_AANII_01__20260106_015431_NOAA_21_JPSS-2_rec.log

#Pass ID: 20260106_015431_NOAA 21 (JPSS-2)
#Satellite: NOAA 21 (JPSS-2)
#Configuration: NOAA 21
#almurnet v.1.7.20240730
#Start time: 2026-01-06 01:56:11

#Version: 2.2.20231116
#Station: R2M6_AANII_01
#Location: 30.233357 lon 59.946436 lat
#TLE: 1 54234U 22150A   26005.21525222  .00000150  00000+0  91957-4 0  9992
#TLE: 2 54234  98.7490 306.2339 0001053 341.6032  18.5106 14.19532220163427

#Time	Az	El	Level	Level2	SNR	BER	BlckErr	Temp	State	Recorded	gain1	gain2
2026-01-06 01:56:11.61	1.66	14.54	-33.3	-44.7	3.8	8.47e-01	0	44	0	0	26	13336
2026-01-06 01:56:12.61	1.53	14.62	-33.7	-45.4	3.8	1.49e+00	0	44	104	0	28	13728
2026-01-06 01:56:13.62	1.40	14.70	-33.8	-45.5	3.8	1.49e+00	0	44	104	0	28	13807
2026-01-06 01:56:14.63	1.27	14.79	-33.8	-45.6	3.8	1.49e+00	0	44	104	0	28	13878
2026-01-06 01:56:15.64	1.14	14.87	-33.9	-45.6	3.8	1.49e+00	0	44	104	0	28	13912
2026-01-06 01:56:16.64	1.00	14.95	-33.9	-45.6	3.8	1.49e+00	0	44	104	0	28	13897
2026-01-06 01:56:17.64	0.87	15.04	-33.9	-45.6	3.8	1.49e+00	0	44	104	0	28	13924
2026-01-06 01:56:18.65	0.74	15.12	-33.9	-45.7	3.8	1.49e+00	0	44	104	0	28	13996
2026-01-06 01:56:19.66	0.60	15.21	-33.9	-45.7	3.8	1.49e+00	0	43	104	0	28	13950
2026-01-06 01:56:20.67	0.47	15.29	-33.9	-45.7	3.8	1.49e+00	0	44	104	0	28	13997
2026-01-06 01:56:21.67	0.33	15.37	-33.9	-45.7	3.8	1.49e+00	0	44	104	0	28	13971
2026-01-06 01:56:22.68	0.20	15.46	-33.9	-45.7	3.8	1.49e+00	0	44	104	0	28	14007
2026-01-06 01:56:23.68	0.06	15.54	-33.9	-45.7	3.8	1.49e+00	0	44	104	0	28	13993
2026-01-06 01:56:24.69	359.92	15.63	-33.9	-45.8	3.8	1.49e+00	0	44	104	0	28	14039
2026-01-06 01:56:25.70	359.78	15.71	-33.9	-45.7	3.8	1.49e+00	0	44	104	0	28	13966
2026-01-06 01:56:26.70	359.64	15.79	-33.9	-45.7	3.8	1.49e+00	0	44	104	0	28	13984
2026-01-06 01:56:27.71	359.50	15.88	-33.9	-45.8	3.8	1.49e+00	0	44	104	0	28	14024
2026-01-06 01:56:28.72	359.36	15.96	-34.0	-45.7	3.8	1.49e+00	0	44	104	0	28	13978
2026-01-06 01:56:29.73	359.22	16.05	-34.0	-45.8	3.8	1.49e+00	0	44	104	0	28	14038
2026-01-06 01:56:30.73	359.08	16.13	-34.0	-45.8	3.8	1.49e+00	0	44	104	0	28	14057
2026-01-06 01:56:31.74	358.93	16.22	-34.0	-45.8	3.8	1.49e+00	0	44	104	0	28	13998
2026-01-06 01:56:32.75	358.79	16.31	-33.9	-45.7	3.8	1.49e+00	0	44	104	0	28	13983
2026-01-06 01:56:33.75	358.64	16.39	-33.9	-45.7	3.8	1.49e+00	0	44	104	0	28	13969
2026-01-06 01:56:34.76	358.50	16.48	-33.9	-45.7	3.8	1.49e+00	0	44	104	0	28	13916
2026-01-06 01:56:35.77	358.35	16.56	-33.9	-45.6	3.8	1.49e+00	0	44	104	0	28	13873
2026-01-06 01:56:36.77	358.20	16.65	-33.9	-46.1	3.8	1.49e+00	0	44	104	0	27	14733
2026-01-06 01:56:37.77	358.06	16.73	-33.9	-46.0	3.8	1.49e+00	0	44	104	0	27	14601
2026-01-06 01:56:38.77	357.91	16.82	-33.8	-46.0	3.8	1.49e+00	0	44	104	0	27	14571
2026-01-06 01:56:39.78	357.76	16.90	-33.8	-45.9	3.8	1.49e+00	0	44	104	0	27	14495
2026-01-06 01:56:40.79	357.60	16.99	-33.7	-45.6	3.8	1.49e+00	0	44	104	0	27	14213
2026-01-06 01:56:41.79	357.45	17.08	-33.6	-45.6	3.8	1.49e+00	0	44	104	0	27	14263
2026-01-06 01:56:42.80	357.30	17.16	-33.5	-44.8	3.8	1.49e+00	0	44	104	0	27	13273
2026-01-06 01:56:43.81	357.14	17.25	-33.4	-45.3	3.8	1.49e+00	0	44	104	0	26	14254
2026-01-06 01:56:44.82	356.99	17.34	-33.4	-45.3	3.8	1.49e+00	0	44	104	0	26	14184
2026-01-06 01:56:45.83	356.83	17.42	-33.4	-45.4	3.8	1.49e+00	0	44	104	0	26	14318
2026-01-06 01:56:46.83	356.68	17.51	-32.5	-44.6	3.8	1.49e+00	0	44	104	0	26	14446
2026-01-06 01:56:47.84	356.52	17.60	-33.4	-45.5	3.8	1.49e+00	0	44	104	0	26	14523
2026-01-06 01:56:48.84	356.36	17.68	-33.4	-46.1	3.9	1.49e+00	0	44	104	0	25	15511
2026-01-06 01:56:49.85	356.20	17.77	-33.4	-45.7	3.8	1.49e+00	0	44	104	0	26	14809
2026-01-06 01:56:50.86	356.04	17.86	-33.4	-45.7	3.8	1.49e+00	0	44	104	0	26	14820
2026-01-06 01:56:51.87	355.88	17.95	-33.4	-45.7	3.8	1.49e+00	0	44	104	0	26	14803
2026-01-06 01:56:52.88	355.71	18.03	-33.4	-45.7	3.8	1.49e+00	0	44	104	0	26	14717
2026-01-06 01:56:53.89	355.55	18.12	-33.4	-45.4	3.8	1.49e+00	0	44	104	0	26	14276
2026-01-06 01:56:54.89	355.39	18.21	-33.3	-44.9	3.8	1.49e+00	0	44	104	0	26	13589
2026-01-06 01:56:55.90	355.22	18.29	-33.3	-44.4	3.8	1.49e+00	0	44	104	0	26	12914
2026-01-06 01:56:56.91	355.05	18.38	-33.3	-44.1	3.8	1.49e+00	0	44	104	0	26	12562
2026-01-06 01:56:57.91	354.89	18.47	-33.3	-44.5	3.8	1.49e+00	0	44	104	0	26	13036
2026-01-06 01:56:58.92	354.72	18.56	-33.4	-45.3	3.8	1.49e+00	0	44	104	0	26	14242
2026-01-06 01:56:59.92	354.55	18.64	-33.4	-45.7	3.8	1.49e+00	0	44	104	0	26	14715
2026-01-06 01:57:00.93	354.38	18.73	-33.2	-43.7	3.8	1.49e+00	0	44	104	0	26	12025
2026-01-06 01:57:01.93	354.21	18.82	-32.7	-40.0	5.0	1.48e+00	0	44	104	0	25	8333
2026-01-06 01:57:02.94	354.04	18.91	-31.9	-36.9	7.0	2.71e-01	0	44	102	1048576	24	6395
2026-01-06 01:57:03.95	353.86	18.99	-31.2	-34.9	8.8	4.92e-02	0	44	102	1048576	23	5493
2026-01-06 01:57:04.91	353.70	19.08	-30.6	-34.0	10.0	1.01e-02	0	44	102	1048576	21	5355
2026-01-06 01:57:05.92	353.52	19.17	-30.4	-34.0	10.4	6.58e-03	0	44	102	1048576	20	5434
2026-01-06 01:57:06.92	353.35	19.25	-30.2	-33.5	10.7	7.22e-03	0	44	102	1048576	20	5252
2026-01-06 01:57:07.93	353.17	19.34	-30.2	-33.5	10.8	2.87e-03	0	44	102	1048576	20	5245
2026-01-06 01:57:08.94	352.99	19.43	-30.2	-33.4	10.8	4.46e-03	0	44	102	1048576	20	5202
2026-01-06 01:57:09.94	352.81	19.52	-30.2	-33.5	10.7	4.52e-03	0	44	102	1048576	20	5256
2026-01-06 01:57:10.95	352.63	19.61	-30.3	-33.7	10.6	3.33e-03	0	44	102	1048576	20	5303
2026-01-06 01:57:11.96	352.45	19.69	-30.4	-34.1	10.4	7.84e-03	0	44	102	1048576	20	5470
2026-01-06 01:57:12.96	352.27	19.78	-30.9	-35.0	9.4	1.52e-02	0	44	102	1048576	21	5770
2026-01-06 01:57:13.97	352.08	19.87	-30.4	-33.6	10.4	7.78e-03	0	44	102	1048576	21	5173
2026-01-06 01:57:14.98	351.90	19.96	-30.0	-32.7	11.3	3.07e-03	0	44	102	1048576	20	4942
2026-01-06 01:57:15.99	351.71	20.05	-29.6	-32.1	12.1	2.03e-03	0	44	102	1048576	19	4831
2026-01-06 01:57:17.00	351.52	20.13	-29.0	-30.8	13.0	8.01e-05	0	44	102	1048576	19	4396
2026-01-06 01:57:18.01	351.33	20.22	-28.5	-30.5	13.7	8.41e-04	0	44	102	1048576	17	4542
2026-01-06 01:57:19.02	351.14	20.31	-28.1	-30.1	14.3	7.86e-04	0	44	102	1048576	16	4516
2026-01-06 01:57:20.02	350.95	20.40	-28.5	-31.0	13.7	5.30e-06	0	44	102	1048576	16	4788
2026-01-06 01:57:21.02	350.76	20.48	-28.3	-30.5	14.0	2.35e-03	0	44	102	1048576	16	4643
2026-01-06 01:57:22.03	350.57	20.57	-27.9	-30.1	14.4	3.36e-03	0	44	102	1048576	15	4635
2026-01-06 01:57:23.03	350.38	20.66	-27.8	-30.0	14.4	0.00e+00	0	44	102	1048576	15	4612
2026-01-06 01:57:24.04	350.18	20.75	-27.8	-29.9	14.5	7.18e-04	0	44	102	1048576	15	4579
2026-01-06 01:57:25.04	349.99	20.83	-28.0	-30.3	14.3	7.19e-04	0	44	102	1048576	15	4700
2026-01-06 01:57:26.05	349.79	20.92	-27.9	-30.2	14.3	2.05e-04	0	44	102	1048576	15	4674
2026-01-06 01:57:27.05	349.59	21.01	-28.5	-30.4	13.7	2.99e-03	0	44	102	1048576	17	4517
2026-01-06 01:57:28.06	349.39	21.10	-28.1	-30.0	14.3	5.51e-04	0	44	102	1048576	16	4494
2026-01-06 01:57:29.07	349.19	21.18	-27.8	-29.2	14.8	7.00e-07	0	44	102	1048576	16	4276
2026-01-06 01:57:30.07	348.99	21.27	-27.9	-30.2	14.3	3.05e-04	0	44	102	1048576	15	4660
2026-01-06 01:57:31.08	348.79	21.36	-27.5	-29.2	14.9	2.16e-04	0	44	102	1048576	15	4364
2026-01-06 01:57:32.09	348.59	21.45	-27.1	-28.2	15.5	0.00e+00	0	44	102	1048576	15	4094
2026-01-06 01:57:33.10	348.38	21.53	-26.9	-28.2	15.8	7.47e-05	0	44	102	1048576	14	4207
2026-01-06 01:57:34.10	348.17	21.62	-26.7	-28.0	15.9	2.67e-05	0	44	102	1048576	14	4142
2026-01-06 01:57:35.11	347.97	21.71	-26.8	-28.1	15.8	0.00e+00	0	44	102	1048576	14	4175
2026-01-06 01:57:36.12	347.76	21.79	-26.8	-28.1	15.8	2.67e-05	0	44	102	1048576	14	4170
2026-01-06 01:57:37.12	347.55	21.88	-26.9	-28.3	15.7	0.00e+00	0	44	102	1048576	14	4224
2026-01-06 01:57:38.13	347.34	21.97	-26.7	-27.9	15.9	0.00e+00	0	44	102	1048576	14	4119
2026-01-06 01:57:39.14	347.12	22.05	-26.5	-27.5	16.1	1.75e-05	0	44	102	1048576	14	4030
2026-01-06 01:57:40.14	346.91	22.14	-26.5	-27.5	16.2	4.50e-06	0	44	102	1048576	14	4026
2026-01-06 01:57:41.15	346.70	22.23	-26.6	-27.8	16.0	0.00e+00	0	44	102	1048576	14	4091
2026-01-06 01:57:42.15	346.48	22.31	-26.5	-27.5	16.1	0.00e+00	0	44	102	1048576	14	4026
2026-01-06 01:57:43.16	346.27	22.40	-26.5	-27.9	16.2	0.00e+00	0	44	102	1048576	13	4241
2026-01-06 01:57:44.17	346.05	22.48	-26.5	-28.0	16.1	0.00e+00	0	44	102	1048576	13	4254
2026-01-06 01:57:45.17	345.83	22.57	-26.6	-28.1	16.1	0.00e+00	0	44	102	1048576	13	4279
2026-01-06 01:57:46.17	345.61	22.65	-26.6	-28.2	16.0	0.00e+00	0	44	102	1048576	13	4328
2026-01-06 01:57:47.18	345.39	22.74	-26.6	-28.1	16.1	0.00e+00	0	44	102	1048576	13	4305
2026-01-06 01:57:48.18	345.16	22.82	-26.6	-28.2	16.0	0.00e+00	0	44	102	1048576	13	4329
2026-01-06 01:57:49.19	344.94	22.91	-26.5	-27.9	16.2	0.00e+00	0	44	102	1048576	13	4247
2026-01-06 01:57:50.20	344.71	22.99	-26.5	-27.8	16.2	1.06e-05	0	44	102	1048576	13	4216
2026-01-06 01:57:51.20	344.49	23.08	-26.6	-28.1	16.1	0.00e+00	0	44	102	1048576	13	4278
2026-01-06 01:57:52.21	344.26	23.16	-26.5	-27.9	16.2	0.00e+00	0	44	102	1048576	13	4232
2026-01-06 01:57:53.22	344.03	23.25	-26.5	-27.8	16.2	0.00e+00	0	44	102	1048576	13	4219
2026-01-06 01:57:54.22	343.80	23.33	-26.5	-27.9	16.2	0.00e+00	0	44	102	1048576	13	4247
2026-01-06 01:57:55.23	343.57	23.41	-26.6	-28.2	16.1	5.30e-06	0	44	102	1048576	13	4305
2026-01-06 01:57:56.23	343.34	23.50	-26.5	-27.9	16.2	0.00e+00	0	44	102	1048576	13	4247
2026-01-06 01:57:57.24	343.10	23.58	-26.4	-28.2	16.3	0.00e+00	0	44	102	1048576	12	4431
2026-01-06 01:57:58.25	342.86	23.66	-26.4	-28.1	16.3	0.00e+00	0	44	102	1048576	12	4407
2026-01-06 01:57:59.25	342.63	23.74	-26.4	-28.1	16.4	0.00e+00	0	44	102	1048576	12	4405
2026-01-06 01:58:00.26	342.39	23.83	-26.5	-27.9	16.2	0.00e+00	0	44	102	1048576	13	4228
2026-01-06 01:58:01.27	342.15	23.91	-26.3	-27.4	16.5	0.00e+00	0	44	102	1048576	13	4102
2026-01-06 01:58:02.27	341.91	23.99	-26.3	-27.6	16.4	0.00e+00	0	44	102	1048576	13	4149
2026-01-06 01:58:03.28	341.67	24.07	-26.5	-27.8	16.3	0.00e+00	0	44	102	1048576	13	4208
2026-01-06 01:58:04.29	341.42	24.15	-26.5	-28.0	16.2	0.00e+00	0	44	102	1048576	13	4250
2026-01-06 01:58:05.30	341.18	24.23	-26.5	-28.0	16.2	0.00e+00	0	44	102	1048576	13	4256
2026-01-06 01:58:06.31	340.93	24.31	-26.5	-27.8	16.3	0.00e+00	0	44	102	1048576	13	4214
2026-01-06 01:58:07.32	340.68	24.39	-26.4	-28.3	16.3	0.00e+00	0	44	102	1048576	12	4440
2026-01-06 01:58:08.33	340.44	24.47	-25.6	-27.5	15.4	0.00e+00	0	44	102	1048576	12	4498
2026-01-06 01:58:09.33	340.19	24.55	-26.6	-28.1	13.7	0.00e+00	0	44	102	1048576	13	4273
2026-01-06 01:58:10.33	339.94	24.63	-26.8	-28.5	15.9	0.00e+00	0	44	102	1048576	13	4401
2026-01-06 01:58:11.34	339.69	24.71	-27.0	-29.0	13.6	0.00e+00	0	44	102	1048576	13	4536
2026-01-06 01:58:12.35	339.43	24.79	-27.1	-28.8	15.0	0.00e+00	0	44	102	1048576	14	4366
2026-01-06 01:58:13.36	339.18	24.87	-27.1	-28.9	15.5	0.00e+00	0	44	102	1048576	14	4389
2026-01-06 01:58:14.36	338.92	24.94	-27.0	-28.6	15.6	0.00e+00	0	44	102	1048576	14	4320
2026-01-06 01:58:15.37	338.66	25.02	-27.1	-28.7	15.6	4.02e-03	0	44	102	1048576	14	4327
2026-01-06 01:58:16.37	338.41	25.10	-27.1	-28.8	15.5	0.00e+00	0	44	102	1048576	14	4373
2026-01-06 01:58:17.38	338.15	25.17	-27.1	-28.8	15.5	0.00e+00	0	44	102	1048576	14	4377
2026-01-06 01:58:18.39	337.88	25.25	-27.0	-28.9	15.7	0.00e+00	0	44	102	1048576	13	4522
2026-01-06 01:58:19.40	337.62	25.33	-27.0	-29.0	15.6	0.00e+00	0	44	102	1048576	13	4546
2026-01-06 01:58:20.41	337.36	25.40	-27.0	-28.6	15.6	3.77e-03	0	44	102	1048576	14	4301
2026-01-06 01:58:21.41	337.09	25.47	-27.1	-28.6	15.6	3.44e-03	0	43	102	1048576	14	4325
2026-01-06 01:58:22.41	336.83	25.55	-26.9	-28.2	15.8	0.00e+00	0	44	102	1048576	14	4215
2026-01-06 01:58:23.42	336.56	25.62	-26.8	-28.1	15.9	0.00e+00	0	44	102	1048576	14	4179
2026-01-06 01:58:24.43	336.29	25.70	-26.8	-28.6	15.9	0.00e+00	0	44	102	1048576	13	4433
2026-01-06 01:58:25.44	336.02	25.77	-26.8	-28.7	15.8	4.50e-06	0	44	102	1048576	13	4453
2026-01-06 01:58:26.45	335.75	25.84	-26.8	-28.6	15.9	2.76e-03	0	44	102	1048576	13	4434
2026-01-06 01:58:27.45	335.48	25.91	-26.7	-28.4	16.0	2.78e-03	0	44	102	1048576	13	4360
2026-01-06 01:58:28.46	335.20	25.98	-26.8	-28.6	15.9	1.50e-06	0	44	102	1048576	13	4418
2026-01-06 01:58:29.48	334.93	26.05	-26.8	-28.7	15.9	4.46e-03	0	44	102	1048576	13	4437
2026-01-06 01:58:30.48	334.65	26.12	-26.8	-28.6	15.9	3.34e-03	0	44	102	1048576	13	4420
2026-01-06 01:58:31.49	334.37	26.19	-26.9	-28.8	15.8	0.00e+00	0	44	102	1048576	13	4467
2026-01-06 01:58:32.50	334.09	26.26	-26.9	-28.9	15.7	2.87e-03	0	44	102	1048576	13	4508
2026-01-06 01:58:33.50	333.82	26.33	-27.0	-28.6	15.6	2.59e-03	0	44	102	1048576	14	4320
2026-01-06 01:58:34.51	333.53	26.40	-27.3	-29.2	15.3	0.00e+00	0	44	102	1048576	14	4485
2026-01-06 01:58:35.52	333.25	26.46	-27.3	-29.2	15.3	1.19e-03	0	44	102	1048576	14	4485
2026-01-06 01:58:36.52	332.97	26.53	-27.1	-28.8	15.6	7.35e-04	0	44	102	1048576	14	4353
2026-01-06 01:58:37.52	332.69	26.60	-27.1	-28.7	15.6	2.91e-04	0	44	102	1048576	14	4323
2026-01-06 01:58:38.53	332.40	26.66	-27.1	-28.7	15.6	2.98e-03	0	44	102	1048576	14	4342
2026-01-06 01:58:39.54	332.11	26.73	-27.0	-28.6	15.7	1.34e-03	0	44	102	1048576	14	4301
2026-01-06 01:58:40.55	331.82	26.79	-27.0	-28.6	15.7	0.00e+00	0	44	102	1048576	14	4312
2026-01-06 01:58:41.56	331.53	26.85	-27.1	-28.7	15.6	2.44e-03	0	44	102	1048576	14	4342
2026-01-06 01:58:42.56	331.24	26.92	-26.9	-28.9	15.8	2.89e-03	0	44	102	1048576	13	4506
2026-01-06 01:58:43.57	330.95	26.98	-26.8	-28.6	15.9	3.00e-04	0	44	102	1048576	13	4424
2026-01-06 01:58:44.58	330.66	27.04	-26.7	-28.3	16.1	1.04e-03	0	44	102	1048576	13	4345
2026-01-06 01:58:45.58	330.37	27.10	-26.8	-28.5	16.0	4.03e-04	0	44	102	1048576	13	4383
2026-01-06 01:58:46.58	330.07	27.16	-26.7	-28.4	16.0	0.00e+00	0	44	102	1048576	13	4378
2026-01-06 01:58:47.59	329.78	27.22	-26.8	-28.5	15.9	0.00e+00	0	44	102	1048576	13	4407
2026-01-06 01:58:48.60	329.48	27.28	-26.8	-28.6	15.9	2.70e-03	0	44	102	1048576	13	4433
2026-01-06 01:58:49.60	329.18	27.33	-26.8	-28.5	15.9	0.00e+00	0	44	102	1048576	13	4399
2026-01-06 01:58:50.61	328.88	27.39	-26.8	-28.6	15.9	0.00e+00	0	44	102	1048576	13	4419
2026-01-06 01:58:51.62	328.58	27.45	-26.8	-28.5	16.0	0.00e+00	0	44	102	1048576	13	4388
2026-01-06 01:58:52.63	328.28	27.50	-26.6	-28.2	16.2	0.00e+00	0	44	102	1048576	13	4301
2026-01-06 01:58:53.63	327.98	27.56	-26.6	-28.1	16.2	0.00e+00	0	44	102	1048576	13	4283
2026-01-06 01:58:54.64	327.67	27.61	-26.8	-28.6	15.9	4.39e-04	0	44	102	1048576	13	4421
2026-01-06 01:58:55.64	327.37	27.66	-26.9	-28.7	15.9	0.00e+00	0	44	102	1048576	13	4454
2026-01-06 01:58:56.65	327.06	27.72	-26.9	-28.9	15.8	2.09e-03	0	44	102	1048576	13	4494
2026-01-06 01:58:57.66	326.75	27.77	-26.8	-28.6	15.9	2.14e-03	0	44	102	1048576	13	4426
2026-01-06 01:58:58.67	326.45	27.82	-26.7	-28.4	16.1	0.00e+00	0	44	102	1048576	13	4349
2026-01-06 01:58:59.67	326.14	27.87	-26.7	-28.4	16.0	0.00e+00	0	44	102	1048576	13	4373
2026-01-06 01:59:00.68	325.83	27.92	-26.8	-28.5	16.0	0.00e+00	0	44	102	1048576	13	4379
2026-01-06 01:59:01.69	325.52	27.97	-26.8	-28.5	16.0	0.00e+00	0	44	102	1048576	13	4380
2026-01-06 01:59:02.69	325.21	28.01	-26.9	-28.7	15.9	1.83e-03	0	44	102	1048576	13	4463
2026-01-06 01:59:03.70	324.89	28.06	-26.8	-28.5	16.0	0.00e+00	0	44	102	1048576	13	4390
2026-01-06 01:59:04.70	324.58	28.10	-26.6	-28.2	16.1	0.00e+00	0	44	102	1048576	13	4310
2026-01-06 01:59:05.71	324.27	28.15	-26.7	-28.3	16.1	0.00e+00	0	44	102	1048576	13	4338
2026-01-06 01:59:06.72	323.95	28.19	-26.6	-28.2	16.2	2.36e-03	0	44	102	1048576	13	4295
2026-01-06 01:59:07.72	323.64	28.24	-26.7	-28.4	16.0	0.00e+00	0	44	102	1048576	13	4362
2026-01-06 01:59:08.72	323.32	28.28	-26.9	-28.8	15.8	0.00e+00	0	44	102	1048576	13	4480
2026-01-06 01:59:09.73	323.00	28.32	-26.9	-28.9	15.8	0.00e+00	0	44	102	1048576	13	4501
2026-01-06 01:59:10.74	322.68	28.36	-27.0	-28.9	15.8	0.00e+00	0	44	102	1048576	13	4503
2026-01-06 01:59:11.75	322.36	28.40	-27.1	-28.7	15.6	0.00e+00	0	44	102	1048576	14	4345
2026-01-06 01:59:12.76	322.04	28.44	-27.4	-29.3	15.3	0.00e+00	0	43	102	1048576	14	4519
2026-01-06 01:59:13.76	321.72	28.47	-27.1	-28.8	15.6	0.00e+00	0	44	102	1048576	14	4359
2026-01-06 01:59:14.77	321.40	28.51	-27.0	-28.6	15.7	0.00e+00	0	44	102	1048576	14	4309
2026-01-06 01:59:15.77	321.08	28.55	-27.0	-28.5	15.7	0.00e+00	0	44	102	1048576	14	4273
2026-01-06 01:59:16.77	320.76	28.58	-27.0	-28.5	15.7	0.00e+00	0	44	102	1048576	14	4288
2026-01-06 01:59:17.78	320.44	28.61	-26.8	-28.7	15.9	0.00e+00	0	43	102	1048576	13	4438
2026-01-06 01:59:18.79	320.11	28.65	-26.8	-28.6	15.9	0.00e+00	0	44	102	1048576	13	4433
2026-01-06 01:59:19.80	319.78	28.68	-27.0	-28.5	15.7	0.00e+00	0	44	102	1048576	14	4289
2026-01-06 01:59:20.81	319.46	28.71	-27.2	-29.0	15.5	0.00e+00	0	44	102	1048576	14	4431
2026-01-06 01:59:21.81	319.13	28.74	-27.1	-28.8	15.6	0.00e+00	0	44	102	1048576	14	4352
2026-01-06 01:59:22.82	318.81	28.77	-27.0	-28.5	15.7	0.00e+00	0	44	102	1048576	14	4281
2026-01-06 01:59:23.82	318.48	28.79	-27.0	-28.5	15.8	0.00e+00	0	44	102	1048576	14	4271
2026-01-06 01:59:24.83	318.15	28.82	-27.0	-28.5	15.7	0.00e+00	0	44	102	1048576	14	4288
2026-01-06 01:59:25.84	317.82	28.84	-27.0	-28.5	15.7	0.00e+00	0	44	102	1048576	14	4288
2026-01-06 01:59:26.84	317.49	28.87	-27.1	-28.7	15.6	0.00e+00	0	44	102	1048576	14	4338
2026-01-06 01:59:27.85	317.16	28.89	-27.3	-29.1	15.4	0.00e+00	0	44	102	1048576	14	4455
2026-01-06 01:59:28.86	316.83	28.91	-27.4	-29.4	15.2	0.00e+00	0	44	102	1048576	14	4548
2026-01-06 01:59:29.86	316.50	28.94	-27.3	-29.3	15.3	0.00e+00	0	44	102	1048576	14	4499
2026-01-06 01:59:30.87	316.17	28.96	-27.4	-29.4	15.3	0.00e+00	0	44	102	1048576	14	4528
2026-01-06 01:59:31.87	315.84	28.97	-27.2	-29.0	15.4	9.61e-04	0	44	102	1048576	14	4432
2026-01-06 01:59:32.88	315.51	28.99	-27.3	-29.3	15.3	0.00e+00	0	44	102	1048576	14	4502
2026-01-06 01:59:33.89	315.18	29.01	-26.9	-28.4	15.8	0.00e+00	0	44	102	1048576	14	4236
2026-01-06 01:59:34.90	314.84	29.03	-26.8	-28.6	15.9	0.00e+00	0	44	102	1048576	13	4424
2026-01-06 01:59:35.91	314.51	29.04	-26.9	-28.8	15.8	0.00e+00	0	44	102	1048576	13	4474
2026-01-06 01:59:36.92	314.18	29.05	-26.9	-28.9	15.8	5.30e-06	0	44	102	1048576	13	4499
2026-01-06 01:59:37.92	313.84	29.07	-26.9	-28.7	15.9	0.00e+00	0	44	102	1048576	13	4454
2026-01-06 01:59:38.93	313.51	29.08	-27.0	-28.6	15.7	0.00e+00	0	44	102	1048576	14	4313
2026-01-06 01:59:39.94	313.17	29.09	-27.3	-29.1	15.4	0.00e+00	0	44	102	1048576	14	4451
2026-01-06 01:59:40.95	312.84	29.10	-27.0	-28.5	15.7	7.04e-04	0	44	102	1048576	14	4275
2026-01-06 01:59:41.95	312.51	29.11	-26.9	-28.4	15.8	1.14e-03	0	44	102	1048576	14	4248
2026-01-06 01:59:42.96	312.17	29.11	-26.9	-28.9	15.8	1.42e-04	0	44	102	1048576	13	4498
2026-01-06 01:59:43.97	311.84	29.12	-26.7	-28.4	16.1	2.79e-03	0	44	102	1048576	13	4369
2026-01-06 01:59:44.98	311.50	29.13	-26.7	-28.3	16.1	3.86e-03	0	44	102	1048576	13	4330
2026-01-06 01:59:45.98	311.17	29.13	-26.8	-28.6	15.9	2.61e-04	0	44	102	1048576	13	4416
2026-01-06 01:59:46.99	310.83	29.13	-26.9	-28.9	15.8	3.96e-03	0	44	102	1048576	13	4496
2026-01-06 01:59:48.00	310.50	29.13	-27.2	-28.9	15.5	3.82e-03	0	44	102	1048576	14	4405
2026-01-06 01:59:49.01	310.16	29.14	-27.1	-28.8	15.6	2.54e-04	0	44	102	1048576	14	4359
2026-01-06 01:59:50.02	309.82	29.13	-26.5	-28.1	15.6	3.70e-03	0	44	102	1048576	14	4333
2026-01-06 01:59:51.02	309.49	29.13	-27.1	-29.2	14.3	3.42e-03	0	44	102	1048576	13	4610
2026-01-06 01:59:52.03	309.15	29.13	-27.1	-28.8	15.6	0.00e+00	0	44	102	1048576	14	4366
2026-01-06 01:59:53.04	308.82	29.13	-27.3	-29.2	15.3	3.75e-03	0	44	102	1048576	14	4491
2026-01-06 01:59:54.05	308.48	29.12	-27.4	-29.5	15.2	4.11e-03	0	44	102	1048576	14	4555
2026-01-06 01:59:55.05	308.15	29.12	-27.5	-29.2	15.1	3.20e-05	0	44	102	1048576	15	4376
2026-01-06 01:59:56.06	307.81	29.11	-27.8	-29.8	14.7	1.72e-03	0	44	102	1048576	15	4544
2026-01-06 01:59:57.07	307.48	29.10	-27.6	-29.3	15.0	1.96e-03	0	43	102	1048576	15	4398
2026-01-06 01:59:58.08	307.14	29.09	-27.5	-29.2	15.1	0.00e+00	0	44	102	1048576	15	4362
2026-01-06 01:59:59.08	306.81	29.08	-27.5	-29.2	15.1	3.75e-03	0	44	102	1048576	15	4367
2026-01-06 02:00:00.09	306.48	29.07	-27.6	-29.4	15.0	3.37e-03	0	44	102	1048576	15	4412
2026-01-06 02:00:01.10	306.14	29.06	-27.3	-29.2	15.3	0.00e+00	0	44	102	1048576	14	4479
2026-01-06 02:00:02.11	305.81	29.04	-27.1	-28.7	15.7	1.61e-03	0	44	102	1048576	14	4321
2026-01-06 02:00:03.12	305.47	29.03	-27.0	-28.6	15.7	1.32e-03	0	44	102	1048576	14	4315
2026-01-06 02:00:04.13	305.14	29.01	-27.1	-28.7	15.7	0.00e+00	0	44	102	1048576	14	4324
2026-01-06 02:00:05.13	304.81	29.00	-27.2	-29.0	15.5	3.87e-04	0	44	102	1048576	14	4425
2026-01-06 02:00:06.14	304.48	28.98	-27.3	-29.3	15.3	3.78e-04	0	44	102	1048576	14	4510
2026-01-06 02:00:07.14	304.15	28.96	-27.1	-28.7	15.6	0.00e+00	0	44	102	1048576	14	4332
2026-01-06 02:00:08.14	303.82	28.94	-27.1	-28.8	15.6	4.31e-04	0	44	102	1048576	14	4364
2026-01-06 02:00:09.15	303.48	28.92	-27.2	-29.0	15.5	8.06e-04	0	44	102	1048576	14	4410
2026-01-06 02:00:10.16	303.15	28.90	-26.9	-28.3	15.9	0.00e+00	0	44	102	1048576	14	4214
2026-01-06 02:00:11.17	302.82	28.88	-26.8	-28.4	16.0	9.54e-04	0	44	102	1048576	13	4375
2026-01-06 02:00:12.17	302.49	28.85	-26.9	-28.8	15.8	1.00e-03	0	44	102	1048576	13	4468
2026-01-06 02:00:13.18	302.16	28.83	-26.8	-28.5	16.0	0.00e+00	0	44	102	1048576	13	4402
2026-01-06 02:00:14.18	301.84	28.80	-26.8	-28.6	16.0	2.94e-04	0	44	102	1048576	13	4404
2026-01-06 02:00:15.19	301.51	28.77	-26.8	-28.7	15.9	5.41e-05	0	44	102	1048576	13	4437
2026-01-06 02:00:16.20	301.18	28.74	-26.8	-28.4	16.0	0.00e+00	0	44	102	1048576	13	4373
2026-01-06 02:00:17.20	300.86	28.72	-26.7	-28.4	16.1	0.00e+00	0	44	102	1048576	13	4350
2026-01-06 02:00:18.21	300.53	28.69	-26.8	-28.5	16.0	0.00e+00	0	44	102	1048576	13	4380
2026-01-06 02:00:19.21	300.21	28.65	-26.9	-28.8	15.8	0.00e+00	0	44	102	1048576	13	4481
2026-01-06 02:00:20.22	299.88	28.62	-27.2	-28.9	15.5	0.00e+00	0	44	102	1048576	14	4390
2026-01-06 02:00:21.22	299.56	28.59	-27.2	-29.0	15.5	0.00e+00	0	44	102	1048576	14	4418
2026-01-06 02:00:22.23	299.23	28.55	-27.2	-29.1	15.4	0.00e+00	0	44	102	1048576	14	4441
2026-01-06 02:00:23.23	298.91	28.52	-27.1	-28.7	15.6	0.00e+00	0	44	102	1048576	14	4338
2026-01-06 02:00:24.25	298.59	28.48	-27.0	-28.6	15.7	9.76e-05	0	44	102	1048576	14	4312
2026-01-06 02:00:25.26	298.26	28.45	-27.0	-28.6	15.7	0.00e+00	0	44	102	1048576	14	4313
2026-01-06 02:00:26.26	297.94	28.41	-27.1	-28.8	15.6	0.00e+00	0	44	102	1048576	14	4356
2026-01-06 02:00:27.27	297.62	28.37	-27.2	-29.0	15.4	0.00e+00	0	44	102	1048576	14	4420
2026-01-06 02:00:28.28	297.30	28.33	-26.9	-28.3	15.9	0.00e+00	0	44	102	1048576	14	4221
2026-01-06 02:00:29.28	296.99	28.29	-26.6	-28.2	16.1	0.00e+00	0	43	102	1048576	13	4309
2026-01-06 02:00:30.28	296.67	28.25	-26.6	-28.2	16.2	0.00e+00	0	44	102	1048576	13	4294
2026-01-06 02:00:31.28	296.36	28.20	-26.7	-28.4	16.1	0.00e+00	0	43	102	1048576	13	4351
2026-01-06 02:00:32.29	296.04	28.16	-26.8	-28.7	15.9	0.00e+00	0	44	102	1048576	13	4442
2026-01-06 02:00:33.30	295.72	28.12	-27.0	-28.6	15.7	0.00e+00	0	44	102	1048576	14	4299
2026-01-06 02:00:34.30	295.41	28.07	-27.0	-28.4	15.8	0.00e+00	0	44	102	1048576	14	4253
2026-01-06 02:00:35.31	295.10	28.03	-27.0	-28.9	15.7	0.00e+00	0	44	102	1048576	13	4504
2026-01-06 02:00:36.32	294.78	27.98	-27.0	-29.0	15.7	0.00e+00	0	44	102	1048576	13	4526
2026-01-06 02:00:37.33	294.47	27.93	-26.9	-28.3	15.8	0.00e+00	0	44	102	1048576	14	4228
2026-01-06 02:00:38.33	294.16	27.88	-26.7	-28.4	16.0	0.00e+00	0	44	102	1048576	13	4377
2026-01-06 02:00:39.34	293.85	27.83	-26.8	-28.5	16.0	0.00e+00	0	44	102	1048576	13	4388
2026-01-06 02:00:40.34	293.55	27.78	-26.8	-28.6	15.9	0.00e+00	0	44	102	1048576	13	4420
2026-01-06 02:00:41.35	293.24	27.73	-26.7	-28.4	16.0	0.00e+00	0	44	102	1048576	13	4380
2026-01-06 02:00:42.36	292.93	27.68	-26.8	-28.5	15.9	0.00e+00	0	44	102	1048576	13	4394
2026-01-06 02:00:43.37	292.62	27.62	-26.9	-28.9	15.7	0.00e+00	0	44	102	1048576	13	4505
2026-01-06 02:00:44.37	292.32	27.57	-27.1	-28.7	15.6	0.00e+00	0	44	102	1048576	14	4342
2026-01-06 02:00:45.38	292.02	27.52	-27.2	-28.9	15.5	0.00e+00	0	44	102	1048576	14	4383
2026-01-06 02:00:46.39	291.71	27.46	-27.0	-28.6	15.6	0.00e+00	0	44	102	1048576	14	4304
2026-01-06 02:00:47.40	291.41	27.40	-27.0	-28.6	15.6	0.00e+00	0	44	102	1048576	14	4311
2026-01-06 02:00:48.40	291.11	27.35	-27.1	-28.8	15.5	0.00e+00	0	44	102	1048576	14	4378
2026-01-06 02:00:49.41	290.81	27.29	-26.2	-28.0	14.8	0.00e+00	0	44	102	1048576	14	4402
2026-01-06 02:00:50.42	290.51	27.23	-27.0	-28.6	13.9	0.00e+00	0	44	102	1048576	14	4309
2026-01-06 02:00:51.42	290.22	27.17	-27.1	-28.6	15.6	7.00e-07	0	44	102	1048576	14	4322
2026-01-06 02:00:52.43	289.92	27.11	-27.2	-28.9	15.5	0.00e+00	0	44	102	1048576	14	4387
2026-01-06 02:00:53.43	289.63	27.05	-27.3	-29.2	15.3	3.87e-03	0	44	102	1048576	14	4471
2026-01-06 02:00:54.44	289.33	26.99	-27.3	-29.2	15.3	0.00e+00	0	44	102	1048576	14	4468
2026-01-06 02:00:55.44	289.04	26.93	-27.2	-28.9	15.4	0.00e+00	0	44	102	1048576	14	4401
2026-01-06 02:00:56.45	288.75	26.87	-27.2	-29.0	15.4	0.00e+00	0	44	102	1048576	14	4422
2026-01-06 02:00:57.46	288.46	26.80	-27.2	-29.0	15.4	0.00e+00	0	44	102	1048576	14	4440
2026-01-06 02:00:58.47	288.17	26.74	-27.2	-29.0	15.4	4.16e-03	0	44	102	1048576	14	4424
2026-01-06 02:00:59.48	287.88	26.67	-27.3	-29.1	15.3	3.84e-03	0	44	102	1048576	14	4453
2026-01-06 02:01:00.49	287.59	26.61	-27.3	-29.2	15.3	0.00e+00	0	44	102	1048576	14	4470
2026-01-06 02:01:01.49	287.31	26.54	-27.2	-29.0	15.4	0.00e+00	0	44	102	1048576	14	4429
2026-01-06 02:01:02.50	287.02	26.48	-27.2	-28.9	15.4	1.14e-05	0	44	102	1048576	14	4404
2026-01-06 02:01:03.50	286.74	26.41	-27.2	-28.9	15.4	0.00e+00	0	44	102	1048576	14	4398
2026-01-06 02:01:04.51	286.46	26.34	-27.0	-28.6	15.6	3.52e-03	0	44	102	1048576	14	4300
2026-01-06 02:01:05.51	286.18	26.28	-26.7	-28.4	15.9	3.86e-03	0	44	102	1048576	13	4378
2026-01-06 02:01:06.52	285.90	26.21	-26.6	-28.1	16.1	1.50e-06	0	44	102	1048576	13	4282
2026-01-06 02:01:07.53	285.62	26.14	-26.4	-28.2	16.3	2.44e-03	0	44	102	1048576	12	4410
2026-01-06 02:01:08.54	285.34	26.07	-26.4	-28.2	16.1	9.39e-04	0	44	102	1048576	12	4434
2026-01-06 02:01:09.54	285.07	26.00	-26.5	-28.0	16.1	7.00e-07	0	44	102	1048576	13	4258
2026-01-06 02:01:10.55	284.79	25.92	-26.8	-28.6	15.6	6.10e-06	0	44	102	1048576	13	4412
2026-01-06 02:01:11.55	284.52	25.85	-27.0	-28.9	15.6	1.48e-04	0	43	102	1048576	13	4524
2026-01-06 02:01:12.56	284.25	25.78	-27.1	-28.7	15.5	0.00e+00	0	44	102	1048576	14	4355
2026-01-06 02:01:13.57	283.97	25.71	-27.4	-29.4	15.1	1.25e-03	0	43	102	1048576	14	4551
2026-01-06 02:01:14.58	283.70	25.64	-27.2	-29.0	15.3	9.96e-04	0	44	102	1048576	14	4425
2026-01-06 02:01:15.59	283.43	25.56	-26.8	-28.0	15.9	0.00e+00	0	44	102	1048576	14	4162
2026-01-06 02:01:16.60	283.17	25.49	-26.4	-27.7	16.3	4.28e-04	0	44	102	1048576	13	4178
2026-01-06 02:01:17.61	282.90	25.41	-26.2	-27.3	16.5	2.21e-04	0	43	102	1048576	13	4070
2026-01-06 02:01:18.62	282.63	25.34	-26.3	-27.5	16.4	0.00e+00	0	43	102	1048576	13	4112
2026-01-06 02:01:19.62	282.37	25.26	-26.4	-28.3	16.3	2.08e-04	0	43	102	1048576	12	4450
2026-01-06 02:01:20.63	282.11	25.19	-26.7	-28.4	15.9	1.12e-03	0	44	102	1048576	13	4381
2026-01-06 02:01:21.64	281.85	25.11	-26.9	-28.9	15.6	0.00e+00	0	44	102	1048576	13	4525
2026-01-06 02:01:22.64	281.59	25.03	-27.1	-28.8	15.4	2.13e-04	0	44	102	1048576	14	4376
2026-01-06 02:01:23.65	281.33	24.96	-27.3	-29.2	15.2	1.34e-04	0	44	102	1048576	14	4486
2026-01-06 02:01:24.66	281.07	24.88	-27.1	-28.9	15.4	0.00e+00	0	44	102	1048576	14	4395
2026-01-06 02:01:25.67	280.82	24.80	-26.9	-28.3	15.7	8.77e-05	0	44	102	1048576	14	4238
2026-01-06 02:01:26.67	280.56	24.72	-26.8	-28.0	15.9	2.80e-04	0	44	102	1048576	14	4167
2026-01-06 02:01:27.68	280.31	24.64	-26.7	-27.9	15.9	0.00e+00	0	44	102	1048576	14	4128
2026-01-06 02:01:28.68	280.06	24.56	-26.8	-28.7	15.7	0.00e+00	0	44	102	1048576	13	4456
2026-01-06 02:01:29.69	279.81	24.48	-27.2	-28.9	15.4	0.00e+00	0	44	102	1048576	14	4402
2026-01-06 02:01:30.70	279.56	24.40	-27.3	-29.1	15.2	0.00e+00	0	44	102	1048576	14	4468
2026-01-06 02:01:31.71	279.31	24.32	-27.4	-29.5	15.0	0.00e+00	0	44	102	1048576	14	4580
2026-01-06 02:01:32.72	279.06	24.24	-27.4	-29.4	15.1	0.00e+00	0	44	102	1048576	14	4539
2026-01-06 02:01:33.73	278.81	24.16	-27.2	-29.0	15.3	0.00e+00	0	44	102	1048576	14	4421
2026-01-06 02:01:34.74	278.57	24.08	-27.1	-28.8	15.4	6.34e-04	0	44	102	1048576	14	4388
2026-01-06 02:01:35.75	278.32	24.00	-27.1	-28.7	15.4	1.50e-03	0	44	102	1048576	14	4344
2026-01-06 02:01:36.75	278.08	23.92	-27.1	-28.9	15.4	0.00e+00	0	44	102	1048576	14	4387
2026-01-06 02:01:37.76	277.84	23.83	-27.0	-28.5	15.6	0.00e+00	0	44	102	1048576	14	4279
2026-01-06 02:01:38.77	277.60	23.75	-27.1	-28.9	15.4	2.47e-03	0	44	102	1048576	14	4392
2026-01-06 02:01:39.77	277.37	23.67	-27.2	-28.9	15.3	0.00e+00	0	44	102	1048576	14	4411
2026-01-06 02:01:40.78	277.13	23.59	-27.0	-28.6	15.5	2.68e-03	0	44	102	1048576	14	4329
2026-01-06 02:01:41.79	276.89	23.50	-26.9	-28.9	15.6	0.00e+00	0	44	102	1048576	13	4515
2026-01-06 02:01:42.79	276.66	23.42	-27.0	-28.6	15.5	0.00e+00	0	44	102	1048576	14	4322
2026-01-06 02:01:43.79	276.43	23.34	-27.2	-29.0	15.2	0.00e+00	0	44	102	1048576	14	4426
2026-01-06 02:01:44.80	276.19	23.25	-26.9	-28.4	15.5	1.02e-04	0	44	102	1048576	14	4261
2026-01-06 02:01:45.81	275.96	23.17	-26.8	-28.0	15.8	0.00e+00	0	44	102	1048576	14	4158
2026-01-06 02:01:46.81	275.74	23.08	-26.5	-27.9	16.1	0.00e+00	0	44	102	1048576	13	4249
2026-01-06 02:01:47.82	275.51	23.00	-26.6	-28.1	16.0	0.00e+00	0	44	102	1048576	13	4289
2026-01-06 02:01:48.83	275.28	22.91	-26.5	-28.0	16.0	0.00e+00	0	44	102	1048576	13	4276
2026-01-06 02:01:49.84	275.05	22.83	-26.7	-28.4	15.9	7.85e-05	0	44	102	1048576	13	4368
2026-01-06 02:01:50.84	274.83	22.74	-26.8	-28.6	15.7	5.30e-06	0	44	102	1048576	13	4431
2026-01-06 02:01:51.85	274.61	22.66	-27.0	-28.6	15.4	0.00e+00	0	44	102	1048576	14	4333
2026-01-06 02:01:52.86	274.38	22.57	-27.3	-29.3	15.1	0.00e+00	0	44	102	1048576	14	4519
2026-01-06 02:01:53.86	274.16	22.49	-27.1	-28.8	15.4	7.60e-06	0	44	102	1048576	14	4361
2026-01-06 02:01:54.87	273.94	22.40	-26.8	-28.0	15.8	2.28e-05	0	44	102	1048576	14	4153
2026-01-06 02:01:55.87	273.73	22.32	-26.5	-28.0	16.0	0.00e+00	0	44	102	1048576	13	4254
2026-01-06 02:01:56.88	273.51	22.23	-26.4	-27.7	16.2	0.00e+00	0	44	102	1048576	13	4194
2026-01-06 02:01:57.89	273.29	22.14	-26.4	-27.7	16.2	0.00e+00	0	44	102	1048576	13	4186
2026-01-06 02:01:58.90	273.08	22.06	-26.5	-28.4	16.1	0.00e+00	0	44	102	1048576	12	4481
2026-01-06 02:01:59.91	272.86	21.97	-26.4	-28.3	16.1	8.30e-06	0	44	102	1048576	12	4467
2026-01-06 02:02:00.91	272.65	21.88	-26.5	-28.0	16.0	0.00e+00	0	44	102	1048576	13	4273
2026-01-06 02:02:01.92	272.44	21.80	-26.8	-28.7	15.6	0.00e+00	0	44	102	1048576	13	4453
2026-01-06 02:02:02.93	272.23	21.71	-26.7	-28.4	15.8	0.00e+00	0	44	102	1048576	13	4378
2026-01-06 02:02:03.94	272.02	21.62	-26.6	-28.1	15.9	0.00e+00	0	44	102	1048576	13	4307
2026-01-06 02:02:04.94	271.82	21.53	-26.5	-28.1	16.0	0.00e+00	0	44	102	1048576	13	4281
2026-01-06 02:02:05.95	271.61	21.45	-26.7	-28.3	15.8	0.00e+00	0	44	102	1048576	13	4356
2026-01-06 02:02:06.97	271.40	21.36	-25.7	-27.2	15.8	0.00e+00	0	44	102	1048576	13	4261
2026-01-06 02:02:07.97	271.20	21.27	-26.4	-28.2	14.7	0.00e+00	0	44	102	1048576	12	4445
2026-01-06 02:02:08.97	271.00	21.18	-26.4	-28.2	16.1	0.00e+00	0	44	102	1048576	12	4435
2026-01-06 02:02:09.98	270.80	21.10	-26.6	-28.1	15.9	5.62e-04	0	44	102	1048576	13	4281
2026-01-06 02:02:10.99	270.59	21.01	-26.8	-28.5	15.7	0.00e+00	0	44	102	1048576	13	4415
2026-01-06 02:02:12.00	270.39	20.92	-26.7	-28.4	15.8	0.00e+00	0	44	102	1048576	13	4373
2026-01-06 02:02:13.01	270.20	20.83	-26.8	-28.5	15.7	0.00e+00	0	44	102	1048576	13	4414
2026-01-06 02:02:14.01	270.00	20.74	-27.0	-29.0	15.4	0.00e+00	0	44	102	1048576	13	4561
2026-01-06 02:02:15.02	269.80	20.66	-27.0	-28.5	15.5	0.00e+00	0	44	102	1048576	14	4288
2026-01-06 02:02:16.03	269.61	20.57	-27.0	-28.5	15.5	2.11e-03	0	44	102	1048576	14	4295
2026-01-06 02:02:17.04	269.41	20.48	-27.1	-28.8	15.3	2.42e-03	0	44	102	1048576	14	4382
2026-01-06 02:02:18.05	269.22	20.39	-27.0	-28.6	15.4	0.00e+00	0	44	102	1048576	14	4324
2026-01-06 02:02:19.05	269.03	20.30	-27.0	-28.5	15.4	0.00e+00	0	44	102	1048576	14	4300
2026-01-06 02:02:20.06	268.84	20.21	-27.1	-28.7	15.3	3.77e-03	0	44	102	1048576	14	4365
2026-01-06 02:02:21.06	268.65	20.13	-26.9	-28.4	15.5	0.00e+00	0	44	102	1048576	14	4256
2026-01-06 02:02:22.07	268.46	20.04	-26.8	-28.7	15.6	3.92e-03	0	44	102	1048576	13	4465
2026-01-06 02:02:23.08	268.28	19.95	-26.8	-28.7	13.2	3.84e-03	0	44	102	1048576	13	4456
2026-01-06 02:02:24.08	268.09	19.86	-26.6	-28.2	15.8	0.00e+00	0	44	102	1048576	13	4333
2026-01-06 02:02:25.09	267.91	19.77	-26.5	-27.9	15.9	3.98e-03	0	44	102	1048576	13	4250
2026-01-06 02:02:26.09	267.72	19.69	-26.5	-28.4	16.0	4.49e-03	0	44	102	1048576	12	4494
2026-01-06 02:02:27.10	267.54	19.60	-26.6	-28.1	15.9	4.69e-04	0	44	102	1048576	13	4286
2026-01-06 02:02:28.11	267.36	19.51	-26.4	-28.3	16.0	4.55e-03	0	43	102	1048576	12	4472
2026-01-06 02:02:29.11	267.18	19.42	-26.5	-27.9	16.0	5.98e-03	0	44	102	1048576	13	4257
2026-01-06 02:02:30.11	267.00	19.33	-26.5	-27.9	16.0	1.11e-03	0	44	102	1048576	13	4245
2026-01-06 02:02:31.12	266.82	19.25	-26.6	-28.2	15.8	4.87e-03	0	44	102	1048576	13	4309
2026-01-06 02:02:32.13	266.64	19.16	-26.5	-28.0	15.9	4.34e-03	0	44	102	1048576	13	4260
2026-01-06 02:02:33.14	266.47	19.07	-26.5	-28.0	15.9	1.42e-03	0	44	102	1048576	13	4258
2026-01-06 02:02:34.14	266.29	18.98	-26.5	-27.9	15.9	3.77e-03	0	44	102	1048576	13	4256
2026-01-06 02:02:35.15	266.12	18.89	-26.5	-28.0	15.9	3.71e-03	0	44	102	1048576	13	4270
2026-01-06 02:02:36.16	265.94	18.80	-26.6	-28.1	15.8	6.02e-04	0	44	102	1048576	13	4300
2026-01-06 02:02:37.16	265.77	18.72	-26.8	-28.5	15.6	4.06e-03	0	44	102	1048576	13	4423
2026-01-06 02:02:38.17	265.60	18.63	-26.7	-28.3	15.7	3.70e-03	0	44	102	1048576	13	4360
2026-01-06 02:02:39.17	265.43	18.54	-26.7	-28.4	15.7	0.00e+00	0	44	102	1048576	13	4393
2026-01-06 02:02:40.18	265.26	18.45	-26.7	-28.4	15.7	3.42e-03	0	44	102	1048576	13	4369
2026-01-06 02:02:41.19	265.09	18.36	-26.7	-28.4	15.6	2.26e-03	0	44	102	1048576	13	4388
2026-01-06 02:02:42.19	264.92	18.28	-26.7	-28.3	15.7	0.00e+00	0	44	102	1048576	13	4357
2026-01-06 02:02:43.20	264.76	18.19	-26.4	-27.8	16.0	3.34e-03	0	44	102	1048576	13	4211
2026-01-06 02:02:44.21	264.59	18.10	-26.3	-28.0	16.1	2.51e-04	0	44	102	1048576	12	4383
2026-01-06 02:02:45.22	264.43	18.01	-26.3	-28.1	16.1	0.00e+00	0	43	102	1048576	12	4405
2026-01-06 02:02:46.22	264.26	17.93	-26.4	-28.3	16.0	0.00e+00	0	44	102	1048576	12	4456
2026-01-06 02:02:47.23	264.10	17.84	-26.7	-28.3	15.7	9.10e-06	0	43	102	1048576	13	4363
2026-01-06 02:02:48.23	263.94	17.75	-26.9	-28.8	15.4	0.00e+00	0	44	102	1048576	13	4504
2026-01-06 02:02:49.24	263.78	17.67	-27.0	-28.7	15.2	6.10e-05	0	44	102	1048576	14	4348
2026-01-06 02:02:50.24	263.62	17.58	-27.2	-29.1	15.0	1.91e-04	0	44	102	1048576	14	4457
2026-01-06 02:02:51.25	263.46	17.49	-27.0	-28.6	15.3	0.00e+00	0	44	102	1048576	14	4330
2026-01-06 02:02:52.26	263.30	17.40	-26.9	-28.3	15.4	2.36e-04	0	44	102	1048576	14	4256
2026-01-06 02:02:53.27	263.15	17.32	-26.8	-28.6	15.5	0.00e+00	0	44	102	1048576	13	4428
2026-01-06 02:02:54.27	262.99	17.23	-26.7	-28.4	15.6	0.00e+00	0	44	102	1048576	13	4385
2026-01-06 02:02:55.27	262.84	17.14	-26.6	-28.2	15.7	2.97e-04	0	44	102	1048576	13	4342
2026-01-06 02:02:56.28	262.68	17.06	-26.6	-28.2	15.7	4.26e-04	0	43	102	1048576	13	4327
2026-01-06 02:02:57.29	262.53	16.97	-26.5	-27.9	15.9	0.00e+00	0	44	102	1048576	13	4236
2026-01-06 02:02:58.29	262.38	16.88	-26.4	-28.3	16.0	0.00e+00	0	44	102	1048576	12	4460
2026-01-06 02:02:59.29	262.23	16.80	-26.5	-28.1	15.8	0.00e+00	0	44	102	1048576	13	4294
2026-01-06 02:03:00.30	262.07	16.71	-26.7	-28.5	15.6	0.00e+00	0	44	102	1048576	13	4414
2026-01-06 02:03:01.31	261.92	16.63	-27.0	-29.1	15.2	3.07e-03	0	44	102	1048576	13	4586
2026-01-06 02:03:02.32	261.77	16.54	-27.2	-29.1	14.9	3.09e-03	0	44	102	1048576	14	4486
2026-01-06 02:03:03.32	261.63	16.45	-27.4	-29.7	14.6	0.00e+00	0	43	102	1048576	14	4651
2026-01-06 02:03:04.32	261.48	16.37	-27.5	-29.3	14.5	0.00e+00	0	43	102	1048576	15	4438
2026-01-06 02:03:05.32	261.34	16.28	-27.7	-29.6	14.3	0.00e+00	0	44	102	1048576	15	4526
2026-01-06 02:03:06.33	261.19	16.20	-27.7	-29.6	14.3	2.20e-06	0	44	102	1048576	15	4528
2026-01-06 02:03:07.34	261.04	16.11	-27.4	-29.4	14.7	3.52e-03	0	44	102	1048576	14	4579
2026-01-06 02:03:08.35	260.90	16.03	-27.3	-29.2	14.8	7.00e-07	0	44	102	1048576	14	4515
2026-01-06 02:03:09.35	260.76	15.94	-27.1	-28.9	15.0	0.00e+00	0	44	102	1048576	14	4412
2026-01-06 02:03:10.36	260.62	15.86	-27.1	-28.9	15.1	0.00e+00	0	44	102	1048576	14	4414
2026-01-06 02:03:11.36	260.47	15.77	-27.1	-29.0	15.0	7.00e-07	0	44	102	1048576	14	4435
2026-01-06 02:03:12.37	260.33	15.69	-27.0	-28.7	15.1	0.00e+00	0	44	102	1048576	14	4369
2026-01-06 02:03:13.38	260.19	15.60	-27.2	-29.1	14.9	7.00e-07	0	43	102	1048576	14	4464
2026-01-06 02:03:14.38	260.06	15.52	-27.3	-29.3	14.8	1.50e-06	0	44	102	1048576	14	4536
2026-01-06 02:03:15.39	259.92	15.43	-27.5	-29.7	14.5	0.00e+00	0	44	102	1048576	14	4661
2026-01-06 02:03:16.40	259.78	15.35	-27.9	-30.1	14.0	1.50e-06	0	44	102	1048576	15	4682
2026-01-06 02:03:17.40	259.64	15.26	-28.3	-30.7	13.5	1.44e-05	0	44	102	1048576	16	4739
2026-01-06 02:03:18.40	259.51	15.18	-28.3	-30.8	13.5	9.10e-06	0	43	102	1048576	16	4753
2026-01-06 02:03:19.41	259.37	15.09	-28.4	-30.5	13.3	2.44e-05	0	44	102	1048576	17	4554
2026-01-06 02:03:20.42	259.24	15.01	-28.1	-30.1	13.8	3.80e-06	0	44	102	1048576	16	4544
2026-01-06 02:03:21.43	259.10	14.93	-27.6	-29.5	14.3	1.50e-06	0	44	102	1048576	15	4479
2026-01-06 02:03:22.43	258.97	14.84	-27.3	-28.9	14.6	7.00e-07	0	43	102	1048576	15	4319
2026-01-06 02:03:23.44	258.84	14.76	-27.2	-29.2	14.8	0.00e+00	0	44	102	1048576	14	4511
2026-01-06 02:03:24.44	258.71	14.68	-27.2	-29.2	14.7	7.00e-07	0	44	102	1048576	14	4509
2026-01-06 02:03:25.44	258.58	14.59	-27.2	-29.1	14.8	7.00e-07	0	43	102	1048576	14	4474
2026-01-06 02:03:26.45	258.45	14.51	-27.1	-28.8	15.0	0.00e+00	0	44	102	1048576	14	4403
2026-01-06 02:03:27.46	258.32	14.43	-26.9	-28.5	15.2	0.00e+00	0	43	102	1048576	14	4294
2026-01-06 02:03:28.46	258.19	14.34	-26.9	-29.0	15.1	0.00e+00	0	44	102	1048576	13	4554
2026-01-06 02:03:29.47	258.06	14.26	-27.2	-29.0	14.8	0.00e+00	0	44	102	1048576	14	4462
2026-01-06 02:03:30.48	257.94	14.18	-26.6	-28.6	13.4	7.00e-07	0	44	102	1048576	14	4525
2026-01-06 02:03:31.49	257.81	14.10	-27.4	-29.5	12.2	2.67e-05	0	44	102	1048576	14	4601
2026-01-06 02:03:32.49	257.69	14.01	-27.4	-29.6	14.4	0.00e+00	0	43	102	1048576	14	4641
2026-01-06 02:03:33.50	257.56	13.93	-27.7	-29.9	13.6	7.00e-07	0	43	102	1048576	15	4602
2026-01-06 02:03:34.50	257.44	13.85	-27.8	-30.1	13.8	2.20e-06	0	44	102	1048576	15	4689
2026-01-06 02:03:35.51	257.31	13.77	-27.9	-30.3	13.8	6.80e-06	0	44	102	1048576	15	4732
2026-01-06 02:03:36.52	257.19	13.69	-28.2	-30.4	13.6	4.61e-03	0	44	102	1048576	16	4634
2026-01-06 02:03:37.52	257.07	13.60	-28.3	-30.6	13.5	1.37e-05	0	44	102	1048576	16	4709
2026-01-06 02:03:38.53	256.95	13.52	-28.2	-30.3	13.6	6.10e-06	0	44	102	1048576	16	4625
2026-01-06 02:03:39.53	256.83	13.44	-27.9	-30.2	13.8	6.80e-06	0	44	102	1048576	15	4694
2026-01-06 02:03:40.54	256.71	13.36	-27.8	-30.0	13.9	1.22e-05	0	44	102	1048576	15	4657
2026-01-06 02:03:41.55	256.59	13.28	-27.8	-30.0	13.9	5.41e-04	0	44	102	1048576	15	4643
2026-01-06 02:03:42.56	256.47	13.20	-27.9	-30.4	13.7	5.21e-03	0	43	102	1048576	15	4767
2026-01-06 02:03:43.57	256.35	13.12	-27.8	-30.0	13.9	4.69e-03	0	43	102	1048576	15	4640
2026-01-06 02:03:44.57	256.23	13.04	-27.4	-29.1	14.4	0.00e+00	0	44	102	1048576	15	4389
2026-01-06 02:03:45.58	256.12	12.96	-27.2	-29.0	14.7	0.00e+00	0	44	102	1048576	14	4466
2026-01-06 02:03:46.58	256.00	12.88	-27.0	-28.7	14.9	5.21e-03	0	44	102	1048576	14	4370
2026-01-06 02:03:47.59	255.89	12.80	-27.1	-28.8	14.9	6.02e-04	0	44	102	1048576	14	4409
2026-01-06 02:03:48.59	255.77	12.72	-27.1	-29.0	14.8	4.97e-03	0	44	102	1048576	14	4445
2026-01-06 02:03:49.59	255.66	12.64	-27.2	-29.2	14.6	4.56e-03	0	44	102	1048576	14	4528
2026-01-06 02:03:50.60	255.54	12.56	-27.2	-29.2	14.6	7.00e-07	0	43	102	1048576	14	4526
2026-01-06 02:03:51.61	255.43	12.48	-27.4	-29.5	14.4	4.34e-03	0	44	102	1048576	14	4619
2026-01-06 02:03:52.62	255.32	12.40	-26.6	-28.4	13.9	3.67e-03	0	44	102	1048576	15	4433
2026-01-06 02:03:53.63	255.21	12.32	-27.5	-29.7	14.3	2.46e-04	0	44	102	1048576	14	4682
2026-01-06 02:03:54.63	255.10	12.24	-27.7	-29.7	14.0	3.69e-03	0	43	102	1048576	15	4562
2026-01-06 02:03:55.64	254.99	12.16	-27.9	-30.3	13.7	4.49e-03	0	44	102	1048576	15	4752
2026-01-06 02:03:56.65	254.88	12.08	-28.2	-30.5	13.4	1.06e-05	0	44	102	1048576	16	4672
2026-01-06 02:03:57.65	254.77	12.00	-28.2	-30.4	13.4	4.46e-03	0	44	102	1048576	16	4672
2026-01-06 02:03:58.66	254.66	11.92	-28.2	-30.5	13.4	4.58e-03	0	44	102	1048576	16	4681
2026-01-06 02:03:59.67	254.55	11.84	-28.2	-30.6	13.4	8.99e-04	0	43	102	1048576	16	4712
2026-01-06 02:04:00.67	254.44	11.77	-28.1	-30.3	13.5	7.14e-03	0	44	102	1048576	16	4625
2026-01-06 02:04:01.68	254.34	11.69	-27.9	-30.2	13.7	2.63e-03	0	44	102	1048576	15	4724
2026-01-06 02:04:02.68	254.23	11.61	-27.7	-29.8	13.9	2.20e-06	0	44	102	1048576	15	4585
2026-01-06 02:04:03.69	254.12	11.53	-27.8	-30.1	13.7	5.00e-03	0	44	102	1048576	15	4696
2026-01-06 02:04:04.70	254.02	11.46	-27.7	-29.9	13.8	5.24e-03	0	44	102	1048576	15	4623
2026-01-06 02:04:05.70	253.91	11.38	-27.4	-29.2	14.3	3.80e-06	0	44	102	1048576	15	4402
2026-01-06 02:04:06.71	253.81	11.30	-27.2	-29.2	14.5	3.43e-03	0	44	102	1048576	14	4520
2026-01-06 02:04:07.72	253.71	11.22	-27.2	-29.1	14.6	3.45e-03	0	44	102	1048576	14	4504
2026-01-06 02:04:08.73	253.60	11.15	-27.4	-29.7	14.3	0.00e+00	0	44	102	1048576	14	4675
2026-01-06 02:04:09.73	253.50	11.07	-27.5	-29.4	14.2	5.28e-03	0	44	102	1048576	15	4460
2026-01-06 02:04:10.73	253.40	10.99	-27.6	-29.7	14.0	3.50e-03	0	44	102	1048576	15	4562
2026-01-06 02:04:11.74	253.30	10.92	-27.7	-29.8	13.9	3.80e-06	0	44	102	1048576	15	4589
2026-01-06 02:04:12.74	253.20	10.84	-27.8	-30.0	13.7	3.05e-03	0	44	102	1048576	15	4653
2026-01-06 02:04:13.75	253.10	10.76	-27.8	-30.2	13.6	2.76e-03	0	44	102	1048576	15	4712
2026-01-06 02:04:14.76	253.00	10.69	-27.9	-30.5	13.5	1.29e-05	0	44	102	1048576	15	4810
2026-01-06 02:04:15.76	252.90	10.61	-28.2	-30.5	13.3	2.12e-03	0	44	102	1048576	16	4699
2026-01-06 02:04:16.77	252.80	10.54	-28.4	-31.1	13.0	1.61e-03	0	44	102	1048576	16	4884
2026-01-06 02:04:17.78	252.70	10.46	-28.5	-30.7	12.9	5.79e-05	0	44	102	1048576	17	4653
2026-01-06 02:04:18.78	252.61	10.39	-28.3	-30.7	13.2	6.62e-04	0	44	102	1048576	16	4750
2026-01-06 02:04:19.79	252.51	10.31	-28.3	-30.9	13.0	3.91e-04	0	44	102	1048576	16	4829
2026-01-06 02:04:20.80	252.41	10.23	-28.3	-30.7	13.2	2.82e-05	0	44	102	1048576	16	4760
2026-01-06 02:04:21.80	252.32	10.16	-28.1	-30.3	13.3	1.11e-04	0	44	102	1048576	16	4648
2026-01-06 02:04:22.81	252.22	10.08	-28.0	-30.6	13.3	2.13e-05	0	44	102	1048576	15	4845
2026-01-06 02:04:23.81	252.13	10.01	-28.2	-30.5	13.2	2.82e-05	0	44	102	1048576	16	4714
2026-01-06 02:04:24.82	252.03	9.93	-28.2	-30.5	13.2	2.59e-05	0	44	102	1048576	16	4697
2026-01-06 02:04:25.83	251.94	9.86	-27.9	-30.4	13.4	1.60e-05	0	44	102	1048576	15	4799
2026-01-06 02:04:26.84	251.84	9.79	-28.0	-30.5	13.3	1.67e-05	0	44	102	1048576	15	4839
2026-01-06 02:04:27.85	251.75	9.71	-27.9	-30.4	13.4	1.44e-05	0	44	102	1048576	15	4806
2026-01-06 02:04:28.85	251.66	9.64	-28.0	-30.5	13.3	5.26e-05	0	44	102	1048576	15	4838
2026-01-06 02:04:29.85	251.57	9.56	-27.9	-30.4	13.4	1.37e-05	0	44	102	1048576	15	4809
2026-01-06 02:04:30.86	251.47	9.49	-27.9	-30.5	13.3	9.10e-06	0	44	102	1048576	15	4831
2026-01-06 02:04:31.88	251.38	9.42	-28.1	-30.3	13.3	1.29e-05	0	44	102	1048576	16	4626
2026-01-06 02:04:32.88	251.29	9.34	-28.1	-30.3	13.4	1.06e-05	0	44	102	1048576	16	4624
2026-01-06 02:04:33.89	251.20	9.27	-28.2	-30.6	13.1	3.58e-05	0	44	102	1048576	16	4738
2026-01-06 02:04:34.89	251.11	9.20	-28.2	-30.5	13.2	2.82e-05	0	44	102	1048576	16	4711
2026-01-06 02:04:35.90	251.02	9.12	-28.1	-30.4	13.2	1.90e-05	0	44	102	1048576	16	4675
2026-01-06 02:04:36.91	250.93	9.05	-28.2	-30.5	13.2	2.97e-05	0	44	102	1048576	16	4706
2026-01-06 02:04:37.92	250.84	8.98	-28.2	-30.6	13.1	3.58e-05	0	44	102	1048576	16	4738
2026-01-06 02:04:38.93	250.76	8.90	-28.3	-30.8	13.0	3.81e-05	0	44	102	1048576	16	4799
2026-01-06 02:04:39.94	250.67	8.83	-28.3	-30.8	13.0	4.65e-05	0	44	102	1048576	16	4800
2026-01-06 02:04:40.95	250.58	8.76	-28.5	-31.3	12.7	6.17e-05	0	44	102	1048576	16	4954
2026-01-06 02:04:41.96	250.49	8.69	-28.5	-31.2	12.7	6.71e-05	0	43	102	1048576	16	4942
2026-01-06 02:04:42.96	250.41	8.61	-28.5	-30.9	12.6	1.01e-04	0	44	102	1048576	17	4731
2026-01-06 02:04:43.97	250.32	8.54	-28.6	-31.1	12.5	1.23e-04	0	44	102	1048576	17	4783
2026-01-06 02:04:44.98	250.24	8.47	-28.6	-31.1	12.4	1.55e-04	0	44	102	1048576	17	4810
2026-01-06 02:04:45.99	250.15	8.40	-28.6	-31.2	12.4	1.31e-04	0	44	102	1048576	17	4823
2026-01-06 02:04:46.99	250.07	8.33	-28.9	-31.9	11.9	4.15e-04	0	44	102	1048576	17	5088
2026-01-06 02:04:48.00	249.98	8.26	-28.7	-31.4	12.2	2.68e-04	0	44	102	1048576	17	4913
2026-01-06 02:04:49.01	249.90	8.19	-28.7	-31.4	12.2	2.07e-04	0	44	102	1048576	17	4888
2026-01-06 02:04:50.01	249.82	8.11	-28.8	-31.5	12.1	2.46e-04	0	44	102	1048576	17	4954
2026-01-06 02:04:51.02	249.74	8.04	-28.7	-31.3	12.3	2.02e-04	0	44	102	1048576	17	4877
2026-01-06 02:04:52.03	249.65	7.97	-28.7	-31.3	10.8	1.71e-04	0	44	102	1048576	17	4849
2026-01-06 02:04:53.04	249.57	7.90	-28.7	-31.4	12.2	2.20e-04	0	44	102	1048576	17	4904
2026-01-06 02:04:54.04	249.49	7.83	-28.6	-31.1	12.2	1.72e-04	0	44	102	1048576	17	4793
2026-01-06 02:04:55.04	249.41	7.76	-28.7	-31.3	12.2	1.74e-04	0	43	102	1048576	17	4879
2026-01-06 02:04:56.05	249.33	7.69	-28.5	-31.0	12.4	1.43e-04	0	44	102	1048576	17	4765
2026-01-06 02:04:57.06	249.25	7.62	-28.6	-31.0	12.4	1.41e-04	0	44	102	1048576	17	4780
2026-01-06 02:04:58.06	249.17	7.55	-28.6	-31.2	12.3	1.77e-04	0	44	102	1048576	17	4849
2026-01-06 02:04:59.07	249.09	7.48	-28.6	-31.2	12.3	1.85e-04	0	44	102	1048576	17	4840
2026-01-06 02:05:00.07	249.01	7.41	-28.6	-31.1	12.3	1.59e-04	0	44	102	1048576	17	4807
2026-01-06 02:05:01.08	248.93	7.34	-28.7	-31.4	12.1	2.28e-04	0	44	102	1048576	17	4929
2026-01-06 02:05:02.08	248.85	7.27	-28.6	-31.2	12.2	2.31e-04	0	44	102	1048576	17	4847
2026-01-06 02:05:03.09	248.77	7.20	-28.7	-31.5	12.1	1.36e-03	0	44	102	1048576	17	4949
2026-01-06 02:05:04.10	248.70	7.14	-28.6	-31.1	12.3	4.70e-03	0	44	102	1048576	17	4800
2026-01-06 02:05:05.10	248.62	7.07	-28.8	-31.6	12.0	6.89e-04	0	44	102	1048576	17	4991
2026-01-06 02:05:06.12	248.54	7.00	-32.9	-45.0	3.8	1.49e+00	0	43	104	1048576	25	14549

#Closed at: 2026-01-06 02:05:07
#Recorded file [1 MB]: D:/data/31010_260106_045702.dat