passes_logs/2026/01/06/R2M6_AANII_01/R2M6_AANII_01__20260106_091718_NOAA_20_JPSS-1_rec.log

#Pass ID: 20260106_091718_NOAA 20 (JPSS-1)
#Satellite: NOAA 20 (JPSS-1)
#Configuration: NOAA 20
#almurnet v.1.7.20240730
#Start time: 2026-01-06 09:17:20

#Version: 2.2.20231116
#Station: R2M6_AANII_01
#Location: 30.233357 lon 59.946436 lat
#TLE: 1 43013U 17073A   26005.46207808  .00000128  00000+0  81791-4 0  9997
#TLE: 2 43013  98.7627 306.5027 0001826  53.0458 307.0885 14.19533487421381

#Time	Az	El	Level	Level2	SNR	BER	BlckErr	Temp	State	Recorded	gain1	gain2
2026-01-06 09:17:20.17	128.27	7.15	-31.5	-37.7	4.9	1.29e+00	0	41	0	0	24	7341
2026-01-06 09:17:21.17	128.22	7.22	-31.5	-37.4	5.0	1.29e+00	0	41	104	0	24	7103
2026-01-06 09:17:22.17	128.17	7.30	-31.5	-37.6	7.4	1.07e-01	0	41	0	0	24	7219
2026-01-06 09:17:23.18	128.12	7.37	-31.6	-37.8	7.2	1.32e-01	0	41	102	1048576	24	7376
2026-01-06 09:17:24.18	128.07	7.45	-31.5	-37.3	7.7	1.03e-01	0	41	102	1048576	24	6994
2026-01-06 09:17:25.19	128.01	7.52	-31.4	-36.9	7.9	7.93e-02	0	41	102	1048576	24	6779
2026-01-06 09:17:26.19	127.96	7.60	-31.4	-36.7	8.1	6.48e-02	0	41	102	1048576	24	6631
2026-01-06 09:17:27.20	127.91	7.67	-31.4	-36.9	8.0	6.70e-02	0	41	102	1048576	24	6742
2026-01-06 09:17:28.21	127.86	7.75	-31.2	-36.5	8.7	4.75e-02	0	41	102	1048576	23	6586
2026-01-06 09:17:29.22	127.80	7.83	-31.1	-35.7	9.4	2.50e-02	0	41	102	1048576	23	6171
2026-01-06 09:17:30.23	127.75	7.90	-30.8	-34.9	10.0	1.03e-02	0	41	102	1048576	23	5745
2026-01-06 09:17:31.23	127.70	7.98	-30.7	-34.8	10.5	4.83e-03	0	41	102	1048576	22	5779
2026-01-06 09:17:32.24	127.64	8.06	-30.6	-34.4	10.8	3.05e-03	0	41	102	1048576	22	5579
2026-01-06 09:17:33.24	127.59	8.13	-30.4	-33.9	11.2	1.72e-03	0	41	102	1048576	22	5381
2026-01-06 09:17:34.25	127.53	8.21	-30.5	-34.0	11.1	1.52e-03	0	41	102	1048576	22	5435
2026-01-06 09:17:35.25	127.48	8.29	-30.5	-34.2	11.0	1.91e-03	0	41	102	1048576	22	5500
2026-01-06 09:17:36.26	127.42	8.37	-30.4	-34.0	11.2	1.51e-03	0	41	102	1048576	22	5407
2026-01-06 09:17:37.27	127.37	8.44	-30.5	-34.0	11.2	1.70e-03	0	41	102	1048576	22	5404
2026-01-06 09:17:38.28	127.31	8.52	-30.5	-34.1	11.1	1.42e-03	0	41	102	1048576	22	5448
2026-01-06 09:17:39.28	127.25	8.60	-30.6	-34.3	10.9	1.84e-03	0	41	102	1048576	22	5554
2026-01-06 09:17:40.29	127.20	8.68	-30.5	-34.0	11.2	1.47e-03	0	41	102	1048576	22	5411
2026-01-06 09:17:41.29	127.14	8.76	-30.5	-34.0	11.2	1.24e-03	0	41	102	1048576	22	5390
2026-01-06 09:17:42.30	127.08	8.84	-30.5	-34.0	11.2	1.34e-03	0	42	102	1048576	22	5399
2026-01-06 09:17:43.30	127.03	8.92	-30.4	-33.7	11.4	1.00e-03	0	42	102	1048576	22	5291
2026-01-06 09:17:44.30	126.97	8.99	-30.4	-33.7	11.4	9.22e-04	0	42	102	1048576	22	5269
2026-01-06 09:17:45.30	126.91	9.07	-30.5	-34.0	11.2	1.11e-03	0	41	102	1048576	22	5382
2026-01-06 09:17:46.30	126.85	9.15	-30.6	-34.2	11.1	1.59e-03	0	42	102	1048576	22	5492
2026-01-06 09:17:47.31	126.79	9.23	-30.5	-34.0	11.3	1.29e-03	0	41	102	1048576	22	5406
2026-01-06 09:17:48.32	126.73	9.31	-30.3	-33.5	11.6	8.69e-04	0	42	102	1048576	22	5189
2026-01-06 09:17:49.33	126.67	9.40	-30.4	-33.6	11.6	6.32e-04	0	42	102	1048576	22	5219
2026-01-06 09:17:50.33	126.61	9.48	-30.4	-33.6	11.6	7.15e-04	0	42	102	1048576	22	5217
2026-01-06 09:17:51.34	126.55	9.56	-30.4	-33.6	11.6	6.59e-04	0	42	102	1048576	22	5201
2026-01-06 09:17:52.34	126.49	9.64	-30.4	-33.6	11.6	6.29e-04	0	42	102	1048576	22	5231
2026-01-06 09:17:53.35	126.43	9.72	-30.4	-33.6	11.6	7.17e-04	0	42	102	1048576	22	5199
2026-01-06 09:17:54.35	126.37	9.80	-30.4	-33.7	11.5	7.22e-04	0	42	102	1048576	22	5270
2026-01-06 09:17:55.37	126.31	9.88	-30.4	-33.6	11.6	9.46e-04	0	42	102	1048576	22	5241
2026-01-06 09:17:56.37	126.25	9.97	-30.2	-33.5	12.0	3.89e-04	0	42	102	1048576	21	5278
2026-01-06 09:17:57.37	126.18	10.05	-30.1	-33.2	12.2	2.03e-04	0	42	102	1048576	21	5152
2026-01-06 09:17:58.38	126.12	10.13	-30.1	-33.1	12.3	2.59e-04	0	42	102	1048576	21	5116
2026-01-06 09:17:59.39	126.06	10.21	-30.0	-33.1	12.3	1.94e-04	0	42	102	1048576	21	5091
2026-01-06 09:18:00.39	125.99	10.30	-30.1	-33.2	12.2	1.98e-04	0	42	102	1048576	21	5158
2026-01-06 09:18:01.38	125.93	10.38	-30.1	-33.2	12.2	1.90e-04	0	42	102	1048576	21	5158
2026-01-06 09:18:02.39	125.87	10.46	-30.1	-33.3	12.2	2.10e-04	0	42	102	1048576	21	5187
2026-01-06 09:18:03.40	125.80	10.55	-30.2	-33.5	12.0	2.67e-04	0	42	102	1048576	21	5269
2026-01-06 09:18:04.41	125.74	10.63	-30.2	-33.5	12.1	3.13e-04	0	42	102	1048576	21	5273
2026-01-06 09:18:05.41	125.67	10.72	-30.1	-33.3	12.2	2.83e-04	0	42	102	1048576	21	5217
2026-01-06 09:18:06.42	125.60	10.80	-30.1	-33.2	12.3	1.69e-04	0	42	102	1048576	21	5173
2026-01-06 09:18:07.43	125.54	10.89	-30.1	-33.1	12.3	1.77e-04	0	42	102	1048576	21	5124
2026-01-06 09:18:08.43	125.47	10.97	-30.0	-33.0	12.4	1.52e-04	0	42	102	1048576	21	5076
2026-01-06 09:18:09.43	125.40	11.06	-30.0	-33.1	12.4	1.69e-04	0	42	102	1048576	21	5103
2026-01-06 09:18:10.44	125.34	11.14	-30.1	-33.2	12.3	1.39e-04	0	42	102	1048576	21	5156
2026-01-06 09:18:11.44	125.27	11.23	-30.2	-33.4	12.2	2.61e-04	0	42	102	1048576	21	5221
2026-01-06 09:18:12.45	125.20	11.31	-30.2	-33.4	12.1	2.40e-04	0	42	102	1048576	21	5243
2026-01-06 09:18:13.46	125.13	11.40	-30.2	-33.5	12.1	3.10e-04	0	42	102	1048576	21	5284
2026-01-06 09:18:14.47	125.06	11.49	-30.2	-33.6	12.1	2.40e-04	0	42	102	1048576	21	5299
2026-01-06 09:18:15.47	124.99	11.57	-30.3	-33.9	11.8	2.95e-04	0	42	102	1048576	21	5437
2026-01-06 09:18:16.47	124.92	11.66	-30.4	-34.0	11.8	5.58e-04	0	42	102	1048576	21	5464
2026-01-06 09:18:17.47	124.85	11.75	-30.4	-33.9	11.9	3.87e-04	0	42	102	1048576	21	5418
2026-01-06 09:18:18.48	124.78	11.84	-30.4	-34.1	11.7	4.66e-04	0	42	102	1048576	21	5512
2026-01-06 09:18:19.49	124.71	11.92	-30.4	-34.1	11.8	6.47e-04	0	42	102	1048576	21	5477
2026-01-06 09:18:20.50	124.64	12.01	-30.3	-33.7	12.1	3.52e-04	0	42	102	1048576	21	5322
2026-01-06 09:18:21.50	124.57	12.10	-30.2	-33.4	12.3	2.32e-04	0	42	102	1048576	21	5209
2026-01-06 09:18:22.51	124.49	12.19	-30.2	-33.4	12.2	2.26e-04	0	42	102	1048576	21	5221
2026-01-06 09:18:23.51	124.42	12.28	-30.4	-33.9	12.0	2.61e-04	0	42	102	1048576	21	5409
2026-01-06 09:18:24.52	124.35	12.37	-30.4	-34.0	11.9	4.79e-04	0	42	102	1048576	21	5465
2026-01-06 09:18:25.53	124.27	12.46	-30.2	-33.5	12.2	3.41e-04	0	42	102	1048576	21	5262
2026-01-06 09:18:26.53	124.20	12.55	-30.1	-33.1	12.5	1.56e-04	0	42	102	1048576	21	5102
2026-01-06 09:18:27.54	124.12	12.64	-30.0	-32.9	12.7	8.62e-05	0	42	102	1048576	21	5011
2026-01-06 09:18:28.54	124.05	12.73	-30.0	-32.9	12.7	8.16e-05	0	42	102	1048576	21	5025
2026-01-06 09:18:29.55	123.97	12.82	-30.0	-32.8	12.7	8.23e-05	0	42	102	1048576	21	4975
2026-01-06 09:18:30.56	123.90	12.91	-30.0	-32.8	12.8	7.32e-05	0	42	102	1048576	21	4974
2026-01-06 09:18:31.56	123.82	13.00	-30.1	-33.1	12.6	6.48e-05	0	42	102	1048576	21	5065
2026-01-06 09:18:32.57	123.74	13.10	-30.1	-33.2	12.5	1.27e-04	0	42	102	1048576	21	5105
2026-01-06 09:18:33.58	123.66	13.19	-30.1	-33.1	12.6	1.18e-04	0	42	102	1048576	21	5104
2026-01-06 09:18:34.58	123.58	13.28	-30.1	-33.1	12.6	8.62e-05	0	42	102	1048576	21	5096
2026-01-06 09:18:35.59	123.51	13.37	-30.2	-33.4	12.4	1.16e-04	0	42	102	1048576	21	5206
2026-01-06 09:18:36.60	123.43	13.47	-30.2	-33.4	12.4	1.57e-04	0	42	102	1048576	21	5191
2026-01-06 09:18:37.60	123.35	13.56	-30.1	-33.2	12.5	1.40e-04	0	42	102	1048576	21	5113
2026-01-06 09:18:38.60	123.27	13.65	-30.1	-33.2	12.6	1.15e-04	0	42	102	1048576	21	5106
2026-01-06 09:18:39.61	123.18	13.75	-30.2	-33.4	12.4	1.32e-04	0	42	102	1048576	21	5187
2026-01-06 09:18:40.61	123.10	13.84	-30.2	-33.3	12.5	1.43e-04	0	42	102	1048576	21	5160
2026-01-06 09:18:41.62	123.02	13.94	-30.2	-33.3	12.5	1.22e-04	0	42	102	1048576	21	5135
2026-01-06 09:18:42.63	122.94	14.03	-30.2	-33.3	12.5	1.09e-04	0	43	102	1048576	21	5153
2026-01-06 09:18:43.64	122.85	14.13	-30.3	-33.6	12.3	1.43e-04	0	43	102	1048576	21	5289
2026-01-06 09:18:44.64	122.77	14.22	-30.2	-33.4	12.4	2.28e-04	0	42	102	1048576	21	5195
2026-01-06 09:18:45.65	122.69	14.32	-30.1	-33.0	12.7	1.09e-04	0	43	102	1048576	21	5035
2026-01-06 09:18:46.66	122.60	14.41	-30.0	-32.8	12.9	5.34e-05	0	43	102	1048576	21	4956
2026-01-06 09:18:47.66	122.52	14.51	-30.0	-32.6	13.0	3.50e-05	0	42	102	1048576	21	4883
2026-01-06 09:18:48.67	122.43	14.61	-30.0	-32.7	13.0	3.73e-05	0	43	102	1048576	21	4919
2026-01-06 09:18:49.67	122.34	14.70	-30.1	-32.9	12.8	5.79e-05	0	42	102	1048576	21	4981
2026-01-06 09:18:50.68	122.26	14.80	-30.1	-32.9	12.8	6.71e-05	0	43	102	1048576	21	5002
2026-01-06 09:18:51.68	122.17	14.90	-30.2	-33.1	12.7	6.94e-05	0	43	102	1048576	21	5074
2026-01-06 09:18:52.69	122.08	15.00	-30.1	-33.1	12.8	7.47e-05	0	42	102	1048576	21	5043
2026-01-06 09:18:53.70	121.99	15.09	-30.2	-33.2	12.7	8.69e-05	0	43	102	1048576	21	5107
2026-01-06 09:18:54.70	121.90	15.19	-30.2	-33.3	12.6	1.34e-04	0	43	102	1048576	21	5118
2026-01-06 09:18:55.71	121.81	15.29	-30.2	-33.2	12.7	7.47e-05	0	43	102	1048576	21	5101
2026-01-06 09:18:56.72	121.72	15.39	-30.2	-33.3	12.6	7.93e-05	0	42	102	1048576	21	5136
2026-01-06 09:18:57.73	121.63	15.49	-30.1	-33.0	12.8	7.93e-05	0	43	102	1048576	21	5019
2026-01-06 09:18:58.73	121.54	15.59	-30.0	-32.7	13.0	4.34e-05	0	42	102	1048576	21	4913
2026-01-06 09:18:59.74	121.44	15.69	-30.0	-32.7	13.1	3.89e-05	0	43	102	1048576	21	4903
2026-01-06 09:19:00.75	121.35	15.79	-30.1	-32.9	12.9	3.35e-05	0	42	102	1048576	21	4965
2026-01-06 09:19:01.75	121.26	15.89	-30.0	-32.8	13.0	4.65e-05	0	42	102	1048576	21	4930
2026-01-06 09:19:02.76	121.16	15.99	-30.1	-33.0	12.9	3.73e-05	0	43	102	1048576	21	5005
2026-01-06 09:19:03.77	121.07	16.10	-30.1	-32.9	13.0	4.95e-05	0	42	102	1048576	21	4963
2026-01-06 09:19:04.77	120.97	16.20	-30.0	-32.7	13.1	2.67e-05	0	43	102	1048576	21	4901
2026-01-06 09:19:05.78	120.87	16.30	-29.9	-32.5	13.2	2.28e-05	0	43	102	1048576	21	4823
2026-01-06 09:19:06.79	120.78	16.40	-30.0	-32.6	13.2	2.13e-05	0	43	102	1048576	21	4861
2026-01-06 09:19:07.80	120.68	16.51	-30.1	-32.8	13.0	2.97e-05	0	43	102	1048576	21	4958
2026-01-06 09:19:08.81	120.58	16.61	-30.1	-32.9	12.9	3.89e-05	0	43	102	1048576	21	4991
2026-01-06 09:19:09.82	120.48	16.72	-30.1	-32.9	12.9	4.34e-05	0	43	102	1048576	21	4996
2026-01-06 09:19:10.83	120.38	16.82	-30.3	-33.4	12.6	7.40e-05	0	43	102	1048576	21	5161
2026-01-06 09:19:11.83	120.28	16.92	-30.2	-33.2	12.7	9.23e-05	0	43	102	1048576	21	5098
2026-01-06 09:19:12.84	120.18	17.03	-30.2	-33.1	12.8	5.34e-05	0	43	102	1048576	21	5066
2026-01-06 09:19:13.84	120.08	17.13	-30.2	-33.2	12.8	4.88e-05	0	43	102	1048576	21	5079
2026-01-06 09:19:14.85	119.97	17.24	-30.3	-33.4	12.6	7.24e-05	0	43	102	1048576	21	5177
2026-01-06 09:19:15.86	119.87	17.35	-30.2	-33.2	12.8	6.94e-05	0	43	102	1048576	21	5094
2026-01-06 09:19:16.86	119.76	17.45	-30.1	-32.8	13.1	3.35e-05	0	43	102	1048576	21	4945
2026-01-06 09:19:17.87	119.66	17.56	-30.0	-32.6	13.2	2.05e-05	0	43	102	1048576	21	4876
2026-01-06 09:19:18.87	119.55	17.66	-30.1	-33.0	13.0	3.35e-05	0	43	102	1048576	21	4994
2026-01-06 09:19:19.87	119.45	17.77	-30.1	-32.8	13.1	3.50e-05	0	43	102	1048576	21	4951
2026-01-06 09:19:20.87	119.34	17.88	-30.1	-32.8	13.1	2.28e-05	0	43	102	1048576	21	4940
2026-01-06 09:19:21.88	119.23	17.99	-30.2	-33.2	12.9	3.81e-05	0	43	102	1048576	21	5076
2026-01-06 09:19:22.89	119.12	18.09	-30.1	-32.8	13.1	3.28e-05	0	43	102	1048576	21	4936
2026-01-06 09:19:23.90	119.01	18.20	-30.0	-32.5	13.3	2.05e-05	0	43	102	1048576	21	4832
2026-01-06 09:19:24.91	118.90	18.31	-29.8	-32.2	13.5	9.90e-06	0	43	102	1048576	21	4702
2026-01-06 09:19:25.91	118.79	18.42	-29.8	-32.1	13.6	6.80e-06	0	43	102	1048576	21	4680
2026-01-06 09:19:26.92	118.68	18.53	-29.9	-32.4	13.4	7.60e-06	0	43	102	1048576	21	4784
2026-01-06 09:19:27.93	118.56	18.64	-29.8	-32.2	13.6	1.06e-05	0	43	102	1048576	21	4711
2026-01-06 09:19:28.94	118.45	18.75	-29.9	-32.4	13.4	8.30e-06	0	43	102	1048576	21	4789
2026-01-06 09:19:29.94	118.33	18.86	-29.9	-32.3	13.5	9.90e-06	0	43	102	1048576	21	4739
2026-01-06 09:19:30.95	118.22	18.98	-29.9	-32.3	13.5	9.90e-06	0	43	102	1048576	21	4762
2026-01-06 09:19:31.95	118.10	19.09	-29.9	-32.4	13.4	8.30e-06	0	43	102	1048576	21	4780
2026-01-06 09:19:32.96	117.98	19.20	-30.0	-32.5	13.3	4.50e-06	0	43	102	1048576	21	4830
2026-01-06 09:19:33.96	117.87	19.31	-30.1	-32.8	13.2	1.90e-05	0	43	102	1048576	21	4941
2026-01-06 09:19:34.97	117.75	19.43	-30.2	-33.2	13.0	2.82e-05	0	43	102	1048576	21	5063
2026-01-06 09:19:35.98	117.63	19.54	-30.2	-33.1	13.0	2.74e-05	0	43	102	1048576	21	5040
2026-01-06 09:19:36.98	117.51	19.65	-30.1	-33.0	13.1	3.20e-05	0	43	102	1048576	21	4991
2026-01-06 09:19:37.98	117.38	19.77	-30.3	-33.3	12.8	4.65e-05	0	43	102	1048576	21	5132
2026-01-06 09:19:38.99	117.26	19.88	-30.2	-33.2	12.9	5.56e-05	0	43	102	1048576	21	5067
2026-01-06 09:19:40.00	117.14	20.00	-30.3	-33.4	12.8	5.95e-05	0	43	102	1048576	21	5171
2026-01-06 09:19:41.00	117.01	20.11	-30.2	-33.3	12.9	4.50e-05	0	43	102	1048576	21	5124
2026-01-06 09:19:42.01	116.89	20.23	-30.4	-33.7	12.6	7.09e-05	0	43	102	1048576	21	5285
2026-01-06 09:19:43.01	116.76	20.34	-30.2	-33.1	12.9	6.25e-05	0	43	102	1048576	21	5062
2026-01-06 09:19:44.03	116.63	20.46	-30.0	-32.8	13.2	3.66e-05	0	43	102	1048576	21	4914
2026-01-06 09:19:45.03	116.50	20.58	-30.0	-32.6	13.3	1.22e-05	0	43	102	1048576	21	4851
2026-01-06 09:19:46.04	116.37	20.69	-30.0	-32.5	13.4	1.37e-05	0	43	102	1048576	21	4837
2026-01-06 09:19:47.04	116.24	20.81	-30.0	-32.6	13.3	2.05e-05	0	43	102	1048576	21	4840
2026-01-06 09:19:48.05	116.11	20.93	-30.1	-32.8	13.2	2.51e-05	0	43	102	1048576	21	4933
2026-01-06 09:19:49.05	115.98	21.05	-30.2	-33.3	12.9	3.20e-05	0	43	102	1048576	21	5107
2026-01-06 09:19:50.06	115.84	21.17	-30.2	-33.0	13.1	2.89e-05	0	43	102	1048576	21	5009
2026-01-06 09:19:51.07	115.71	21.28	-30.1	-32.8	13.2	2.13e-05	0	43	102	1048576	21	4941
2026-01-06 09:19:52.07	115.57	21.40	-30.1	-32.8	13.2	1.98e-05	0	43	102	1048576	21	4934
2026-01-06 09:19:53.08	115.44	21.52	-30.1	-32.8	13.3	1.14e-05	0	43	102	1048576	21	4920
2026-01-06 09:19:54.08	115.30	21.64	-30.2	-33.0	13.1	3.05e-05	0	43	102	1048576	21	5005
2026-01-06 09:19:55.09	115.16	21.76	-30.1	-32.9	13.2	2.67e-05	0	43	102	1048576	21	4961
2026-01-06 09:19:56.09	115.02	21.88	-30.2	-33.2	13.0	2.89e-05	0	43	102	1048576	21	5065
2026-01-06 09:19:57.09	114.88	22.01	-30.2	-33.0	13.1	3.12e-05	0	43	102	1048576	21	4990
2026-01-06 09:19:58.10	114.73	22.13	-30.2	-33.0	13.1	2.89e-05	0	43	102	1048576	21	5004
2026-01-06 09:19:59.10	114.59	22.25	-30.3	-33.4	12.9	2.89e-05	0	43	102	1048576	21	5116
2026-01-06 09:20:00.11	114.45	22.37	-30.3	-33.2	13.0	3.28e-05	0	43	102	1048576	21	5073
2026-01-06 09:20:01.11	114.30	22.49	-30.3	-33.3	13.0	3.89e-05	0	43	102	1048576	21	5092
2026-01-06 09:20:02.11	114.16	22.62	-30.4	-33.6	12.8	4.19e-05	0	43	102	1048576	21	5213
2026-01-06 09:20:03.11	114.01	22.74	-30.3	-33.3	13.0	5.03e-05	0	43	102	1048576	21	5082
2026-01-06 09:20:04.12	113.86	22.86	-30.4	-33.6	12.8	4.95e-05	0	43	102	1048576	21	5215
2026-01-06 09:20:05.12	113.71	22.99	-30.5	-33.8	12.7	6.33e-05	0	43	102	1048576	21	5308
2026-01-06 09:20:06.13	113.56	23.11	-30.4	-33.6	12.9	4.19e-05	0	43	102	1048576	21	5188
2026-01-06 09:20:07.13	113.40	23.24	-30.3	-33.3	13.1	3.89e-05	0	43	102	1048576	21	5067
2026-01-06 09:20:08.14	113.25	23.36	-30.4	-33.6	12.9	4.04e-05	0	43	102	1048576	21	5211
2026-01-06 09:20:09.15	113.09	23.49	-30.4	-33.7	12.8	4.73e-05	0	43	102	1048576	21	5251
2026-01-06 09:20:10.15	112.94	23.62	-30.4	-33.6	12.8	6.02e-05	0	43	102	1048576	21	5213
2026-01-06 09:20:11.16	112.78	23.74	-30.4	-33.7	12.8	7.17e-05	0	43	102	1048576	21	5228
2026-01-06 09:20:12.17	112.62	23.87	-30.4	-33.4	13.0	8.01e-05	0	43	102	1048576	21	5125
2026-01-06 09:20:13.18	112.45	24.00	-30.4	-33.5	12.9	4.34e-05	0	43	102	1048576	21	5169
2026-01-06 09:20:14.18	112.29	24.13	-30.5	-33.9	12.7	4.57e-05	0	43	102	1048576	21	5329
2026-01-06 09:20:15.19	112.13	24.26	-30.6	-34.2	12.5	1.11e-04	0	43	102	1048576	21	5430
2026-01-06 09:20:16.19	111.96	24.38	-30.5	-33.7	12.8	7.24e-05	0	43	102	1048576	21	5237
2026-01-06 09:20:17.20	111.80	24.51	-30.4	-33.6	12.9	4.88e-05	0	43	102	1048576	21	5189
2026-01-06 09:20:18.20	111.63	24.64	-30.3	-33.2	13.2	2.44e-05	0	43	102	1048576	21	5032
2026-01-06 09:20:19.19	111.46	24.77	-30.3	-33.2	13.2	2.51e-05	0	43	102	1048576	21	5024
2026-01-06 09:20:20.20	111.29	24.90	-30.3	-33.3	13.1	2.36e-05	0	43	102	1048576	21	5070
2026-01-06 09:20:21.21	111.12	25.03	-30.4	-33.7	12.9	4.88e-05	0	43	102	1048576	21	5208
2026-01-06 09:20:22.21	110.95	25.16	-30.3	-33.3	13.1	2.59e-05	0	43	102	1048576	21	5073
2026-01-06 09:20:23.22	110.77	25.29	-30.3	-33.1	13.3	2.44e-05	0	43	102	1048576	21	4985
2026-01-06 09:20:24.23	110.60	25.43	-30.2	-33.0	13.4	1.06e-05	0	43	102	1048576	21	4955
2026-01-06 09:20:25.24	110.42	25.56	-30.2	-33.0	13.4	2.21e-05	0	43	102	1048576	21	4942
2026-01-06 09:20:26.24	110.24	25.69	-30.3	-33.3	13.2	2.74e-05	0	43	102	1048576	21	5053
2026-01-06 09:20:27.25	110.06	25.82	-30.3	-33.3	13.2	2.44e-05	0	43	102	1048576	21	5058
2026-01-06 09:20:28.25	109.88	25.96	-30.4	-33.4	13.1	2.51e-05	0	43	102	1048576	21	5116
2026-01-06 09:20:29.26	109.69	26.09	-30.4	-33.6	13.0	3.58e-05	0	43	102	1048576	21	5167
2026-01-06 09:20:30.27	109.50	26.22	-30.5	-33.8	12.9	3.43e-05	0	43	102	1048576	21	5251
2026-01-06 09:20:31.27	109.32	26.36	-30.5	-33.7	12.9	6.25e-05	0	43	102	1048576	21	5235
2026-01-06 09:20:32.28	109.13	26.49	-30.4	-33.5	13.0	5.87e-05	0	43	102	1048576	21	5150
2026-01-06 09:20:33.28	108.94	26.63	-30.5	-33.7	12.9	5.18e-05	0	43	102	1048576	21	5222
2026-01-06 09:20:34.29	108.75	26.76	-30.6	-34.0	12.8	5.95e-05	0	43	102	1048576	21	5305
2026-01-06 09:20:35.29	108.55	26.90	-30.7	-34.3	12.6	1.06e-04	0	43	102	1048576	21	5443
2026-01-06 09:20:36.29	108.36	27.03	-30.6	-34.1	12.7	7.85e-05	0	43	102	1048576	21	5372
2026-01-06 09:20:37.30	108.16	27.17	-30.6	-33.9	12.8	5.56e-05	0	43	102	1048576	21	5279
2026-01-06 09:20:38.30	107.96	27.30	-30.7	-34.3	12.6	5.03e-05	0	43	102	1048576	21	5429
2026-01-06 09:20:39.31	107.76	27.44	-30.8	-34.6	12.3	8.39e-05	0	43	102	1048576	21	5557
2026-01-06 09:20:40.32	107.56	27.58	-30.9	-34.9	12.2	2.14e-04	0	43	102	1048576	21	5698
2026-01-06 09:20:41.32	107.36	27.71	-31.2	-35.1	11.7	4.13e-04	0	43	102	1048576	22	5690
2026-01-06 09:20:42.33	107.15	27.85	-31.2	-35.2	11.6	6.31e-04	0	43	102	1048576	22	5729
2026-01-06 09:20:43.34	106.94	27.99	-31.2	-35.4	11.5	8.38e-04	0	43	102	1048576	22	5800
2026-01-06 09:20:44.35	106.73	28.13	-31.4	-35.7	11.3	9.44e-04	0	43	102	1048576	22	5960
2026-01-06 09:20:45.35	106.52	28.26	-31.5	-35.6	11.0	1.73e-03	0	43	102	1048576	23	5787
2026-01-06 09:20:46.35	106.31	28.40	-31.6	-35.9	10.8	2.28e-03	0	43	102	1048576	23	5923
2026-01-06 09:20:47.36	106.10	28.54	-31.7	-36.3	10.5	3.88e-03	0	43	102	1048576	23	6136
2026-01-06 09:20:48.36	105.88	28.68	-31.6	-36.1	10.6	3.73e-03	0	43	102	1048576	23	6017
2026-01-06 09:20:49.37	105.66	28.82	-31.7	-36.3	10.5	3.81e-03	0	43	102	1048576	23	6143
2026-01-06 09:20:50.37	105.44	28.96	-31.7	-36.5	10.4	4.69e-03	0	43	102	1048576	23	6215
2026-01-06 09:20:51.38	105.22	29.10	-31.8	-36.8	10.2	4.64e-03	0	43	102	1048576	23	6381
2026-01-06 09:20:52.39	104.99	29.24	-31.8	-36.7	10.2	6.15e-03	0	43	102	1048576	23	6307
2026-01-06 09:20:53.40	104.77	29.38	-31.8	-36.7	10.3	5.48e-03	0	43	102	1048576	23	6317
2026-01-06 09:20:54.40	104.54	29.52	-31.8	-36.5	10.4	4.78e-03	0	43	102	1048576	23	6234
2026-01-06 09:20:55.41	104.31	29.66	-31.7	-36.4	10.5	3.94e-03	0	43	102	1048576	23	6170
2026-01-06 09:20:56.41	104.08	29.80	-31.8	-36.7	10.3	4.90e-03	0	43	102	1048576	23	6322
2026-01-06 09:20:57.41	103.84	29.94	-31.8	-36.6	10.3	5.63e-03	0	43	102	1048576	23	6276
2026-01-06 09:20:58.42	103.61	30.08	-31.7	-36.3	10.5	4.11e-03	0	43	102	1048576	23	6122
2026-01-06 09:20:59.43	103.37	30.22	-31.6	-36.0	10.8	3.03e-03	0	43	102	1048576	23	5959
2026-01-06 09:21:00.44	103.12	30.36	-31.7	-36.3	10.6	3.52e-03	0	43	102	1048576	23	6125
2026-01-06 09:21:01.44	102.88	30.50	-31.8	-36.7	10.3	4.70e-03	0	43	102	1048576	23	6311
2026-01-06 09:21:02.45	102.64	30.64	-31.7	-36.4	10.4	5.51e-03	0	43	102	1048576	23	6183
2026-01-06 09:21:03.45	102.39	30.78	-31.7	-36.3	10.6	3.84e-03	0	43	102	1048576	23	6124
2026-01-06 09:21:04.46	102.14	30.92	-31.7	-36.4	10.5	3.52e-03	0	43	102	1048576	23	6147
2026-01-06 09:21:05.46	101.89	31.06	-31.7	-36.3	10.6	3.35e-03	0	43	102	1048576	23	6096
2026-01-06 09:21:06.47	101.64	31.21	-31.6	-36.1	10.7	2.97e-03	0	43	102	1048576	23	5999
2026-01-06 09:21:07.48	101.38	31.35	-31.7	-36.4	10.4	3.95e-03	0	43	102	1048576	23	6171
2026-01-06 09:21:08.48	101.12	31.49	-31.9	-37.2	9.9	6.20e-03	0	43	102	1048576	23	6565
2026-01-06 09:21:09.49	100.86	31.63	-32.0	-36.8	9.8	1.04e-02	0	43	102	1048576	24	6251
2026-01-06 09:21:10.50	100.60	31.77	-32.0	-36.9	9.7	9.05e-03	0	43	102	1048576	24	6325
2026-01-06 09:21:11.51	100.33	31.91	-32.1	-37.1	9.6	1.15e-02	0	43	102	1048576	24	6405
2026-01-06 09:21:12.51	100.06	32.06	-32.1	-37.4	9.4	1.55e-02	0	43	102	1048576	24	6596
2026-01-06 09:21:13.52	99.79	32.20	-32.0	-37.0	9.7	1.41e-02	0	43	102	1048576	24	6353
2026-01-06 09:21:14.53	99.52	32.34	-32.0	-36.7	9.9	1.02e-02	0	43	102	1048576	24	6217
2026-01-06 09:21:15.54	99.24	32.48	-31.9	-36.5	10.1	7.13e-03	0	43	102	1048576	24	6121
2026-01-06 09:21:16.54	98.97	32.62	-31.7	-35.9	10.5	5.71e-03	0	43	102	1048576	24	5805
2026-01-06 09:21:17.55	98.69	32.76	-31.6	-35.3	11.0	2.31e-03	0	43	102	1048576	24	5553
2026-01-06 09:21:18.55	98.41	32.90	-31.6	-35.3	11.0	1.81e-03	0	43	102	1048576	24	5536
2026-01-06 09:21:19.56	98.12	33.04	-31.7	-35.6	10.7	2.45e-03	0	43	102	1048576	24	5668
2026-01-06 09:21:20.57	97.83	33.19	-31.6	-35.5	10.8	3.45e-03	0	43	102	1048576	24	5631
2026-01-06 09:21:21.58	97.54	33.33	-31.5	-35.0	11.2	1.87e-03	0	43	102	1048576	24	5382
2026-01-06 09:21:22.59	97.25	33.47	-31.3	-34.8	11.6	6.62e-04	0	43	102	1048576	23	5424
2026-01-06 09:21:23.59	96.96	33.61	-31.3	-34.9	11.6	5.35e-04	0	43	102	1048576	23	5474
2026-01-06 09:21:24.60	96.66	33.75	-31.4	-35.4	11.3	8.12e-04	0	43	102	1048576	23	5680
2026-01-06 09:21:25.60	96.36	33.89	-31.4	-35.2	11.4	1.10e-03	0	43	102	1048576	23	5571
2026-01-06 09:21:26.61	96.06	34.03	-31.2	-34.8	11.7	5.52e-04	0	43	102	1048576	23	5392
2026-01-06 09:21:27.62	95.75	34.16	-31.3	-35.0	11.6	6.06e-04	0	43	102	1048576	23	5512
2026-01-06 09:21:28.62	95.45	34.30	-31.5	-35.5	11.2	8.82e-04	0	43	102	1048576	23	5712
2026-01-06 09:21:29.62	95.14	34.44	-31.6	-35.9	10.9	1.91e-03	0	43	102	1048576	23	5917
2026-01-06 09:21:30.63	94.82	34.58	-31.6	-36.0	10.9	2.34e-03	0	43	102	1048576	23	5941
2026-01-06 09:21:31.64	94.51	34.72	-31.7	-36.2	10.8	2.08e-03	0	43	102	1048576	23	6027
2026-01-06 09:21:32.65	94.19	34.85	-31.5	-35.7	11.1	2.11e-03	0	43	102	1048576	23	5791
2026-01-06 09:21:33.65	93.87	34.99	-31.4	-35.3	11.4	1.06e-03	0	43	102	1048576	23	5622
2026-01-06 09:21:34.65	93.55	35.13	-31.5	-35.4	11.3	1.00e-03	0	43	102	1048576	23	5661
2026-01-06 09:21:35.66	93.22	35.26	-31.5	-35.5	11.3	1.08e-03	0	43	102	1048576	23	5709
2026-01-06 09:21:36.67	92.89	35.40	-31.5	-35.6	11.2	1.55e-03	0	43	102	1048576	23	5737
2026-01-06 09:21:37.68	92.56	35.53	-31.5	-35.6	11.2	1.44e-03	0	43	102	1048576	23	5775
2026-01-06 09:21:38.68	92.22	35.67	-31.5	-35.5	11.3	1.13e-03	0	43	102	1048576	23	5688
2026-01-06 09:21:39.69	91.89	35.80	-31.5	-35.6	11.2	1.44e-03	0	43	102	1048576	23	5746
2026-01-06 09:21:40.70	91.54	35.93	-31.6	-35.8	11.1	1.45e-03	0	43	102	1048576	23	5824
2026-01-06 09:21:41.70	91.20	36.07	-31.6	-35.7	11.1	1.68e-03	0	43	102	1048576	23	5802
2026-01-06 09:21:42.70	90.86	36.20	-31.6	-35.9	11.0	1.59e-03	0	43	102	1048576	23	5896
2026-01-06 09:21:43.71	90.51	36.33	-31.7	-36.1	10.9	2.10e-03	0	43	102	1048576	23	6013
2026-01-06 09:21:44.72	90.16	36.46	-31.8	-36.6	10.5	3.02e-03	0	43	102	1048576	23	6233
2026-01-06 09:21:45.73	89.80	36.59	-31.8	-36.6	10.5	4.60e-03	0	43	102	1048576	23	6206
2026-01-06 09:21:46.74	89.44	36.72	-31.8	-36.3	10.8	3.43e-03	0	43	102	1048576	23	6101
2026-01-06 09:21:47.75	89.08	36.85	-31.8	-36.4	10.7	2.52e-03	0	43	102	1048576	23	6114
2026-01-06 09:21:48.75	88.72	36.98	-31.6	-35.8	11.1	2.89e-03	0	43	102	1048576	23	5816
2026-01-06 09:21:49.76	88.36	37.10	-31.5	-35.4	11.3	1.26e-03	0	43	102	1048576	23	5670
2026-01-06 09:21:50.77	87.99	37.23	-31.6	-35.8	11.1	1.37e-03	0	43	102	1048576	23	5829
2026-01-06 09:21:51.78	87.61	37.36	-31.6	-35.9	11.0	1.73e-03	0	43	102	1048576	23	5880
2026-01-06 09:21:52.78	87.24	37.48	-31.6	-35.9	11.0	1.92e-03	0	43	102	1048576	23	5862
2026-01-06 09:21:53.79	86.86	37.60	-31.6	-35.7	11.1	1.50e-03	0	43	102	1048576	23	5801
2026-01-06 09:21:54.80	86.48	37.72	-31.4	-35.2	11.5	1.27e-03	0	43	102	1048576	23	5579
2026-01-06 09:21:55.81	86.10	37.85	-31.4	-35.2	11.6	6.92e-04	0	43	102	1048576	23	5559
2026-01-06 09:21:56.81	85.71	37.97	-31.5	-35.4	11.4	9.10e-04	0	43	102	1048576	23	5656
2026-01-06 09:21:57.82	85.32	38.08	-31.5	-35.3	11.4	1.13e-03	0	43	102	1048576	23	5614
2026-01-06 09:21:58.83	84.93	38.20	-31.5	-35.3	11.5	1.00e-03	0	43	102	1048576	23	5622
2026-01-06 09:21:59.83	84.54	38.32	-31.3	-34.9	11.8	6.02e-04	0	43	102	1048576	23	5417
2026-01-06 09:22:00.84	84.14	38.44	-31.2	-34.5	12.1	2.94e-04	0	43	102	1048576	23	5246
2026-01-06 09:22:01.85	83.74	38.55	-31.0	-34.1	12.3	2.56e-04	0	43	102	1048576	23	5095
2026-01-06 09:22:02.86	83.34	38.66	-31.1	-34.3	12.2	1.62e-04	0	43	102	1048576	23	5179
2026-01-06 09:22:03.87	82.93	38.78	-31.1	-34.2	12.2	2.22e-04	0	43	102	1048576	23	5153
2026-01-06 09:22:04.87	82.52	38.89	-31.0	-33.8	12.5	1.52e-04	0	43	102	1048576	23	4993
2026-01-06 09:22:05.88	82.11	39.00	-30.8	-33.4	12.8	6.71e-05	0	43	102	1048576	23	4853
2026-01-06 09:22:06.89	81.70	39.10	-30.8	-33.9	12.8	4.11e-05	0	43	102	1048576	22	5124
2026-01-06 09:22:07.90	81.28	39.21	-30.8	-33.9	12.8	6.79e-05	0	43	102	1048576	22	5128
2026-01-06 09:22:08.90	80.86	39.32	-30.9	-34.1	12.7	7.40e-05	0	43	102	1048576	22	5196
2026-01-06 09:22:09.91	80.44	39.42	-31.0	-34.4	12.5	9.07e-05	0	43	102	1048576	22	5310
2026-01-06 09:22:10.91	80.02	39.52	-30.9	-34.2	12.6	1.14e-04	0	43	102	1048576	22	5256
2026-01-06 09:22:11.92	79.59	39.62	-30.8	-33.8	12.9	5.79e-05	0	43	102	1048576	22	5105
2026-01-06 09:22:12.92	79.16	39.72	-30.8	-33.9	12.8	4.65e-05	0	43	102	1048576	22	5118
2026-01-06 09:22:13.93	78.73	39.82	-30.9	-34.2	12.6	5.95e-05	0	43	102	1048576	22	5251
2026-01-06 09:22:14.94	78.29	39.92	-30.7	-33.6	13.0	8.77e-05	0	43	102	1048576	22	5009
2026-01-06 09:22:15.94	77.86	40.01	-30.7	-33.6	13.1	2.97e-05	0	43	102	1048576	22	5003
2026-01-06 09:22:16.95	77.41	40.10	-30.6	-33.1	13.4	2.13e-05	0	43	102	1048576	22	4848
2026-01-06 09:22:17.96	76.97	40.19	-30.5	-32.9	13.5	1.37e-05	0	43	102	1048576	22	4760
2026-01-06 09:22:18.95	76.53	40.28	-30.6	-33.2	13.4	1.37e-05	0	43	102	1048576	22	4855
2026-01-06 09:22:19.96	76.08	40.37	-30.3	-32.4	13.8	6.80e-06	0	43	102	1048576	22	4602
2026-01-06 09:22:20.97	75.63	40.46	-30.1	-32.3	14.2	2.20e-06	0	43	102	1048576	21	4665
2026-01-06 09:22:21.98	75.18	40.54	-29.9	-31.8	14.6	0.00e+00	0	43	102	1048576	21	4485
2026-01-06 09:22:22.99	74.72	40.62	-29.7	-31.9	14.8	0.00e+00	0	43	102	1048576	20	4643
2026-01-06 09:22:23.98	74.27	40.70	-29.9	-32.4	14.5	7.00e-07	0	43	102	1048576	20	4806
2026-01-06 09:22:24.99	73.81	40.78	-29.9	-32.4	14.4	7.00e-07	0	43	102	1048576	20	4811
2026-01-06 09:22:25.99	73.35	40.86	-30.1	-32.9	14.1	1.50e-06	0	43	102	1048576	20	4975
2026-01-06 09:22:27.00	72.89	40.93	-30.2	-33.1	14.1	3.80e-06	0	43	102	1048576	20	5029
2026-01-06 09:22:27.99	72.43	41.00	-30.0	-32.8	14.2	7.00e-07	0	43	102	1048576	20	4936
2026-01-06 09:22:29.00	71.96	41.07	-29.9	-32.5	14.4	7.00e-07	0	43	102	1048576	20	4820
2026-01-06 09:22:30.01	71.49	41.14	-30.0	-32.7	14.3	0.00e+00	0	43	102	1048576	20	4899
2026-01-06 09:22:31.02	71.01	41.21	-30.0	-32.6	14.3	7.00e-07	0	43	102	1048576	20	4866
2026-01-06 09:22:32.02	70.54	41.27	-29.7	-32.0	14.7	7.00e-07	0	43	102	1048576	20	4674
2026-01-06 09:22:33.02	70.07	41.33	-29.7	-31.8	14.8	0.00e+00	0	43	102	1048576	20	4612
2026-01-06 09:22:34.02	69.60	41.39	-29.8	-32.2	14.6	7.00e-07	0	43	102	1048576	20	4738
2026-01-06 09:22:35.03	69.12	41.45	-29.7	-31.9	14.7	7.00e-07	0	43	102	1048576	20	4644
2026-01-06 09:22:36.04	68.63	41.51	-29.7	-31.9	14.7	7.00e-07	0	43	102	1048576	20	4637
2026-01-06 09:22:37.05	68.15	41.56	-29.8	-32.1	14.7	0.00e+00	0	43	102	1048576	20	4688
2026-01-06 09:22:38.05	67.67	41.61	-29.7	-31.9	14.9	7.00e-07	0	43	102	1048576	20	4623
2026-01-06 09:22:39.06	67.18	41.66	-29.8	-32.1	14.7	2.20e-06	0	43	102	1048576	20	4704
2026-01-06 09:22:40.07	66.69	41.71	-29.7	-32.0	14.7	7.00e-07	0	43	102	1048576	20	4664
2026-01-06 09:22:41.08	66.20	41.75	-29.8	-32.1	14.7	0.00e+00	0	43	102	1048576	20	4696
2026-01-06 09:22:42.09	65.71	41.79	-30.0	-32.6	14.3	0.00e+00	0	43	102	1048576	20	4882
2026-01-06 09:22:43.09	65.23	41.83	-30.0	-32.8	14.2	0.00e+00	0	43	102	1048576	20	4947
2026-01-06 09:22:44.09	64.74	41.87	-29.9	-32.5	14.4	0.00e+00	0	43	102	1048576	20	4836
2026-01-06 09:22:45.10	64.24	41.91	-29.9	-32.5	14.4	1.50e-06	0	43	102	1048576	20	4840
2026-01-06 09:22:46.11	63.75	41.94	-30.0	-32.6	14.3	7.00e-07	0	43	102	1048576	20	4863
2026-01-06 09:22:47.12	63.25	41.97	-30.1	-33.0	14.1	7.00e-07	0	43	102	1048576	20	4997
2026-01-06 09:22:48.12	62.76	42.00	-30.2	-33.1	14.0	3.00e-06	0	43	102	1048576	20	5038
2026-01-06 09:22:49.13	62.26	42.02	-30.1	-33.0	14.1	5.30e-06	0	43	102	1048576	20	5020
2026-01-06 09:22:50.14	61.76	42.05	-30.1	-32.9	14.1	3.80e-06	0	43	102	1048576	20	4989
2026-01-06 09:22:51.15	61.26	42.07	-30.3	-33.3	13.9	2.20e-06	0	43	102	1048576	20	5133
2026-01-06 09:22:52.15	60.76	42.09	-30.5	-34.0	13.5	1.14e-05	0	43	102	1048576	20	5391
2026-01-06 09:22:53.16	60.26	42.10	-30.6	-33.7	13.3	8.30e-06	0	43	102	1048576	21	5161
2026-01-06 09:22:54.16	59.77	42.12	-30.6	-33.8	13.3	1.98e-05	0	43	102	1048576	21	5203
2026-01-06 09:22:55.17	59.27	42.13	-30.7	-34.0	13.1	1.83e-05	0	43	102	1048576	21	5286
2026-01-06 09:22:56.18	58.76	42.13	-30.8	-34.3	12.9	5.64e-05	0	43	102	1048576	21	5375
2026-01-06 09:22:57.19	58.26	42.14	-30.8	-34.4	12.9	4.80e-05	0	43	102	1048576	21	5425
2026-01-06 09:22:58.19	57.76	42.14	-30.9	-34.7	12.6	6.48e-05	0	43	102	1048576	21	5570
2026-01-06 09:22:59.19	57.27	42.15	-30.9	-34.6	12.7	9.15e-05	0	43	102	1048576	21	5525
2026-01-06 09:23:00.20	56.76	42.14	-30.9	-34.6	12.7	6.48e-05	0	43	102	1048576	21	5498
2026-01-06 09:23:01.21	56.26	42.14	-30.9	-34.7	12.7	7.70e-05	0	43	102	1048576	21	5559
2026-01-06 09:23:02.22	55.76	42.13	-31.2	-34.9	12.2	1.65e-04	0	43	102	1048576	22	5520
2026-01-06 09:23:03.23	55.26	42.13	-31.5	-35.8	11.6	5.14e-04	0	43	102	1048576	22	5913
2026-01-06 09:23:04.24	54.76	42.11	-31.5	-35.3	11.5	8.81e-04	0	43	102	1048576	23	5601
2026-01-06 09:23:05.24	54.26	42.10	-31.5	-35.4	11.5	1.07e-03	0	43	102	1048576	23	5646
2026-01-06 09:23:06.25	53.76	42.08	-31.6	-35.8	11.2	1.37e-03	0	43	102	1048576	23	5822
2026-01-06 09:23:07.26	53.26	42.07	-31.6	-35.8	11.1	1.34e-03	0	43	102	1048576	23	5816
2026-01-06 09:23:08.27	52.76	42.04	-31.8	-36.5	10.7	2.86e-03	0	43	102	1048576	23	6176
2026-01-06 09:23:09.28	52.26	42.02	-31.8	-36.2	10.9	2.56e-03	0	43	102	1048576	23	6013
2026-01-06 09:23:10.28	51.77	41.99	-31.9	-36.6	10.7	2.08e-03	0	43	102	1048576	23	6184
2026-01-06 09:23:11.28	51.28	41.97	-32.0	-36.6	10.2	3.75e-03	0	43	102	1048576	24	6132
2026-01-06 09:23:12.29	50.78	41.94	-32.3	-37.5	9.5	1.09e-02	0	43	102	1048576	24	6598
2026-01-06 09:23:13.29	50.29	41.90	-32.3	-37.7	9.4	1.52e-02	0	43	102	1048576	24	6682
2026-01-06 09:23:14.30	49.79	41.87	-32.3	-37.7	9.3	1.67e-02	0	43	102	1048576	24	6717
2026-01-06 09:23:15.31	49.30	41.83	-32.3	-37.6	9.5	1.49e-02	0	43	102	1048576	24	6640
2026-01-06 09:23:16.32	48.81	41.79	-32.3	-37.9	9.2	2.24e-02	0	43	102	1048576	24	6792
2026-01-06 09:23:17.33	48.32	41.75	-32.2	-37.5	9.5	1.48e-02	0	43	102	1048576	24	6600
2026-01-06 09:23:18.33	47.83	41.70	-32.3	-37.9	9.3	1.49e-02	0	43	102	1048576	24	6804
2026-01-06 09:23:19.33	47.35	41.66	-32.4	-38.3	8.9	2.61e-02	0	43	102	1048576	24	7056
2026-01-06 09:23:20.34	46.87	41.61	-32.4	-38.2	8.9	2.36e-02	0	43	102	1048576	24	6985
2026-01-06 09:23:21.34	46.39	41.56	-32.3	-37.9	9.2	2.50e-02	0	43	102	1048576	24	6802
2026-01-06 09:23:22.35	45.90	41.50	-32.1	-37.1	9.8	1.19e-02	0	43	102	1048576	24	6375
2026-01-06 09:23:23.36	45.42	41.45	-31.9	-36.3	10.3	6.07e-03	0	43	102	1048576	24	5971
2026-01-06 09:23:24.36	44.95	41.39	-31.8	-36.0	10.7	4.24e-03	0	43	102	1048576	24	5843
2026-01-06 09:23:25.37	44.47	41.33	-31.8	-36.0	10.6	3.13e-03	0	43	102	1048576	24	5843
2026-01-06 09:23:26.38	43.99	41.26	-31.8	-35.9	10.7	3.71e-03	0	43	102	1048576	24	5772
2026-01-06 09:23:27.39	43.52	41.20	-31.4	-34.6	11.7	1.57e-03	0	43	102	1048576	24	5202
2026-01-06 09:23:28.39	43.05	41.13	-31.1	-34.0	12.4	1.73e-04	0	43	102	1048576	23	5075
2026-01-06 09:23:29.40	42.58	41.06	-30.9	-33.5	12.8	6.63e-05	0	43	102	1048576	23	4888
2026-01-06 09:23:30.40	42.12	40.99	-30.9	-33.6	12.7	5.49e-05	0	43	102	1048576	23	4908
2026-01-06 09:23:31.41	41.65	40.92	-30.9	-33.5	12.8	5.64e-05	0	43	102	1048576	23	4900
2026-01-06 09:23:32.42	41.18	40.85	-30.7	-33.6	13.0	5.34e-05	0	43	102	1048576	22	5028
2026-01-06 09:23:33.43	40.72	40.77	-30.5	-33.1	13.4	2.67e-05	0	43	102	1048576	22	4837
2026-01-06 09:23:34.44	40.26	40.69	-30.3	-32.6	13.7	1.22e-05	0	43	102	1048576	22	4651
2026-01-06 09:23:35.44	39.81	40.61	-30.1	-32.4	14.1	2.20e-06	0	43	102	1048576	21	4687
2026-01-06 09:23:36.45	39.36	40.53	-29.9	-31.9	14.4	7.00e-07	0	43	102	1048576	21	4551
2026-01-06 09:23:37.45	38.91	40.45	-29.9	-32.0	14.4	3.80e-06	0	43	102	1048576	21	4570
2026-01-06 09:23:38.46	38.46	40.36	-29.9	-31.9	14.4	7.00e-07	0	43	102	1048576	21	4543
2026-01-06 09:23:39.47	38.01	40.27	-29.9	-31.9	14.5	7.00e-07	0	43	102	1048576	21	4531
2026-01-06 09:23:40.47	37.57	40.18	-29.6	-31.7	14.8	0.00e+00	0	43	102	1048576	20	4583
2026-01-06 09:23:41.48	37.12	40.09	-29.3	-30.8	15.4	0.00e+00	0	43	102	1048576	20	4301
2026-01-06 09:23:42.48	36.69	40.00	-29.3	-31.3	15.5	0.00e+00	0	43	102	1048576	19	4535
2026-01-06 09:23:43.48	36.25	39.90	-29.1	-30.9	15.7	0.00e+00	0	43	102	1048576	19	4404
2026-01-06 09:23:44.49	35.82	39.81	-29.1	-30.8	15.8	0.00e+00	0	43	102	1048576	19	4378
2026-01-06 09:23:45.50	35.39	39.71	-29.2	-31.0	15.6	0.00e+00	0	43	102	1048576	19	4464
2026-01-06 09:23:46.50	34.96	39.61	-29.2	-31.2	15.5	0.00e+00	0	43	102	1048576	19	4512
2026-01-06 09:23:47.51	34.53	39.51	-29.4	-31.6	15.3	0.00e+00	0	43	102	1048576	19	4651
2026-01-06 09:23:48.52	34.11	39.41	-29.3	-31.3	15.5	0.00e+00	0	43	102	1048576	19	4558
2026-01-06 09:23:49.52	33.69	39.31	-29.2	-31.0	15.7	0.00e+00	0	43	102	1048576	19	4467
2026-01-06 09:23:50.53	33.27	39.20	-29.2	-31.2	15.5	0.00e+00	0	43	102	1048576	19	4517
2026-01-06 09:23:51.54	32.85	39.09	-29.2	-31.1	15.6	0.00e+00	0	43	102	1048576	19	4494
2026-01-06 09:23:52.55	32.44	38.98	-29.1	-31.0	15.7	0.00e+00	0	43	102	1048576	19	4453
2026-01-06 09:23:53.56	32.03	38.88	-29.3	-31.4	15.4	0.00e+00	0	43	102	1048576	19	4575
2026-01-06 09:23:54.56	31.63	38.77	-29.6	-32.0	15.0	0.00e+00	0	43	102	1048576	19	4781
2026-01-06 09:23:55.58	31.22	38.65	-29.5	-32.0	15.1	7.00e-07	0	43	102	1048576	19	4767
2026-01-06 09:23:56.58	30.82	38.54	-29.4	-31.6	15.4	0.00e+00	0	43	102	1048576	19	4629
2026-01-06 09:23:57.59	30.42	38.43	-29.2	-31.2	15.5	0.00e+00	0	43	102	1048576	19	4512
2026-01-06 09:23:58.59	30.03	38.31	-29.3	-31.4	15.4	0.00e+00	0	43	102	1048576	19	4575
2026-01-06 09:23:59.60	29.63	38.19	-29.3	-31.4	15.4	0.00e+00	0	43	102	1048576	19	4574
2026-01-06 09:24:00.60	29.24	38.08	-29.5	-32.0	15.1	0.00e+00	0	43	102	1048576	19	4768
2026-01-06 09:24:01.61	28.86	37.96	-29.6	-32.1	15.0	0.00e+00	0	43	102	1048576	19	4806
2026-01-06 09:24:02.61	28.47	37.84	-29.5	-31.8	15.1	7.00e-07	0	43	102	1048576	19	4717
2026-01-06 09:24:03.62	28.09	37.72	-29.4	-31.5	15.3	0.00e+00	0	43	102	1048576	19	4622
2026-01-06 09:24:04.62	27.71	37.60	-29.3	-31.5	15.3	0.00e+00	0	43	102	1048576	19	4603
2026-01-06 09:24:05.62	27.34	37.47	-29.3	-31.3	15.4	0.00e+00	0	43	102	1048576	19	4557
2026-01-06 09:24:06.63	26.97	37.35	-29.4	-31.6	15.3	0.00e+00	0	43	102	1048576	19	4638
2026-01-06 09:24:07.64	26.60	37.22	-29.4	-31.7	15.2	0.00e+00	0	43	102	1048576	19	4663
2026-01-06 09:24:08.65	26.23	37.10	-29.5	-31.9	15.1	0.00e+00	0	43	102	1048576	19	4738
2026-01-06 09:24:09.66	25.86	36.97	-29.6	-32.1	15.0	0.00e+00	0	43	102	1048576	19	4791
2026-01-06 09:24:10.66	25.50	36.85	-29.7	-32.3	14.8	0.00e+00	0	43	102	1048576	19	4892
2026-01-06 09:24:11.67	25.14	36.72	-29.7	-32.3	14.9	0.00e+00	0	43	102	1048576	19	4883
2026-01-06 09:24:12.68	24.79	36.59	-29.9	-32.8	14.5	0.00e+00	0	43	102	1048576	19	5057
2026-01-06 09:24:13.68	24.44	36.46	-29.8	-32.8	14.6	7.00e-07	0	43	102	1048576	19	5040
2026-01-06 09:24:14.69	24.09	36.33	-29.9	-33.0	14.4	0.00e+00	0	43	102	1048576	19	5131
2026-01-06 09:24:15.70	23.74	36.20	-29.9	-33.0	14.3	7.00e-07	0	43	102	1048576	19	5136
2026-01-06 09:24:16.70	23.39	36.07	-30.0	-32.7	14.2	7.00e-07	0	43	102	1048576	20	4899
2026-01-06 09:24:17.71	23.05	35.93	-30.1	-33.0	14.0	7.00e-07	0	43	102	1048576	20	5029
2026-01-06 09:24:18.72	22.71	35.80	-30.2	-33.3	13.8	1.50e-06	0	43	102	1048576	20	5144
2026-01-06 09:24:19.72	22.38	35.67	-30.4	-33.8	13.5	5.30e-06	0	43	102	1048576	20	5323
2026-01-06 09:24:20.73	22.04	35.53	-30.6	-33.8	13.1	1.22e-05	0	43	102	1048576	21	5201
2026-01-06 09:24:21.74	21.71	35.40	-30.6	-33.8	13.2	1.90e-05	0	43	102	1048576	21	5217
2026-01-06 09:24:22.75	21.38	35.26	-30.5	-33.7	13.2	2.67e-05	0	43	102	1048576	21	5167
2026-01-06 09:24:23.75	21.06	35.13	-30.5	-33.5	13.3	1.52e-05	0	43	102	1048576	21	5093
2026-01-06 09:24:24.76	20.74	34.99	-30.6	-34.0	13.0	2.36e-05	0	43	102	1048576	21	5288
2026-01-06 09:24:25.77	20.42	34.86	-30.8	-34.5	12.6	4.42e-05	0	43	102	1048576	21	5483
2026-01-06 09:24:26.77	20.10	34.72	-30.8	-34.4	12.7	9.07e-05	0	43	102	1048576	21	5469
2026-01-06 09:24:27.78	19.79	34.58	-31.0	-34.9	12.4	6.94e-05	0	43	102	1048576	21	5682
2026-01-06 09:24:28.79	19.47	34.44	-31.0	-34.5	12.3	2.01e-04	0	43	102	1048576	22	5398
2026-01-06 09:24:29.80	19.16	34.31	-31.0	-34.6	12.3	1.86e-04	0	43	102	1048576	22	5410
2026-01-06 09:24:30.80	18.86	34.17	-31.1	-34.7	12.2	1.59e-04	0	43	102	1048576	22	5454
2026-01-06 09:24:31.81	18.56	34.03	-31.1	-34.9	12.1	3.00e-04	0	43	102	1048576	22	5561
2026-01-06 09:24:32.82	18.25	33.89	-31.3	-35.5	11.6	4.81e-04	0	43	102	1048576	22	5831
2026-01-06 09:24:33.82	17.96	33.75	-31.5	-35.9	11.3	9.62e-04	0	43	102	1048576	22	6009
2026-01-06 09:24:34.82	17.66	33.61	-31.6	-35.7	11.1	1.43e-03	0	43	102	1048576	23	5826
2026-01-06 09:24:35.83	17.37	33.47	-31.7	-36.2	10.7	2.27e-03	0	43	102	1048576	23	6042
2026-01-06 09:24:36.84	17.08	33.33	-31.6	-36.0	10.9	2.53e-03	0	43	102	1048576	23	5932
2026-01-06 09:24:37.85	16.79	33.19	-31.8	-36.5	10.5	2.33e-03	0	43	102	1048576	23	6172
2026-01-06 09:24:38.85	16.50	33.05	-31.6	-35.9	10.9	2.66e-03	0	43	102	1048576	23	5887
2026-01-06 09:24:39.86	16.22	32.91	-31.5	-35.6	11.1	1.56e-03	0	43	102	1048576	23	5750
2026-01-06 09:24:40.87	15.94	32.77	-31.5	-35.6	11.2	1.64e-03	0	43	102	1048576	23	5743
2026-01-06 09:24:41.87	15.66	32.63	-31.7	-36.3	10.6	2.69e-03	0	43	102	1048576	23	6101
2026-01-06 09:24:42.87	15.39	32.49	-31.7	-36.3	10.6	3.67e-03	0	43	102	1048576	23	6105
2026-01-06 09:24:43.88	15.11	32.35	-31.8	-36.5	10.5	3.93e-03	0	43	102	1048576	23	6180
2026-01-06 09:24:44.89	14.84	32.21	-31.8	-36.6	10.3	3.95e-03	0	43	102	1048576	23	6269
2026-01-06 09:24:45.89	14.57	32.07	-32.0	-36.8	9.8	6.51e-03	0	43	102	1048576	24	6233
2026-01-06 09:24:46.90	14.31	31.93	-31.9	-36.3	10.2	7.83e-03	0	43	102	1048576	24	5976
2026-01-06 09:24:47.91	14.04	31.79	-31.7	-35.8	10.5	4.89e-03	0	43	102	1048576	24	5781
2026-01-06 09:24:48.91	13.78	31.65	-31.7	-35.6	10.8	3.33e-03	0	43	102	1048576	24	5667
2026-01-06 09:24:49.91	13.52	31.51	-31.7	-35.7	10.7	3.24e-03	0	43	102	1048576	24	5703
2026-01-06 09:24:50.92	13.27	31.37	-31.6	-35.4	10.9	3.04e-03	0	43	102	1048576	24	5557
2026-01-06 09:24:51.93	13.01	31.22	-31.8	-36.1	10.4	4.14e-03	0	43	102	1048576	24	5893
2026-01-06 09:24:52.94	12.76	31.08	-31.8	-36.0	10.4	4.45e-03	0	43	102	1048576	24	5854
2026-01-06 09:24:53.94	12.51	30.94	-31.9	-36.4	10.1	4.68e-03	0	43	102	1048576	24	6049
2026-01-06 09:24:54.95	12.26	30.80	-31.8	-36.1	10.3	6.09e-03	0	43	102	1048576	24	5906
2026-01-06 09:24:55.96	12.01	30.66	-31.8	-36.2	10.3	4.86e-03	0	43	102	1048576	24	5963
2026-01-06 09:24:56.96	11.77	30.52	-31.8	-36.3	10.2	6.37e-03	0	43	102	1048576	24	5994
2026-01-06 09:24:57.97	11.53	30.38	-31.6	-35.5	10.7	3.52e-03	0	43	102	1048576	24	5622
2026-01-06 09:24:58.98	11.29	30.24	-31.5	-35.1	11.0	2.13e-03	0	43	102	1048576	24	5456
2026-01-06 09:24:59.98	11.05	30.10	-31.6	-35.3	10.9	1.80e-03	0	43	102	1048576	24	5562
2026-01-06 09:25:00.98	10.82	29.96	-31.4	-34.9	11.2	2.02e-03	0	43	102	1048576	24	5364
2026-01-06 09:25:01.99	10.58	29.82	-31.2	-34.8	11.6	7.88e-04	0	43	102	1048576	23	5428
2026-01-06 09:25:03.00	10.35	29.68	-31.3	-34.9	11.5	7.62e-04	0	43	102	1048576	23	5448
2026-01-06 09:25:04.00	10.12	29.54	-31.3	-34.9	11.5	6.61e-04	0	43	102	1048576	23	5470
2026-01-06 09:25:05.01	9.89	29.40	-31.1	-34.4	11.8	5.53e-04	0	43	102	1048576	23	5280
2026-01-06 09:25:06.01	9.67	29.26	-30.9	-34.0	12.2	2.86e-04	0	43	102	1048576	23	5089
2026-01-06 09:25:07.02	9.45	29.12	-30.9	-33.9	12.2	1.85e-04	0	43	102	1048576	23	5073
2026-01-06 09:25:08.02	9.23	28.99	-30.8	-33.7	12.4	1.62e-04	0	43	102	1048576	23	4978
2026-01-06 09:25:09.02	9.01	28.85	-31.0	-34.0	12.1	2.42e-04	0	43	102	1048576	23	5120
2026-01-06 09:25:10.03	8.79	28.71	-30.8	-33.9	12.6	1.48e-04	0	43	102	1048576	22	5161
2026-01-06 09:25:11.04	8.57	28.57	-30.8	-33.9	12.5	1.13e-04	0	43	102	1048576	22	5181
2026-01-06 09:25:12.05	8.36	28.43	-30.7	-33.7	12.7	9.61e-05	0	43	102	1048576	22	5088
2026-01-06 09:25:13.06	8.15	28.29	-30.6	-33.4	12.9	7.78e-05	0	43	102	1048576	22	4968
2026-01-06 09:25:14.06	7.94	28.16	-30.5	-33.0	13.1	3.58e-05	0	43	102	1048576	22	4843
2026-01-06 09:25:15.08	7.73	28.02	-30.5	-33.2	13.0	2.74e-05	0	43	102	1048576	22	4896
2026-01-06 09:25:16.08	7.52	27.88	-30.3	-32.6	13.4	2.05e-05	0	43	102	1048576	22	4705
2026-01-06 09:25:17.08	7.32	27.75	-30.3	-32.7	13.3	1.83e-05	0	43	102	1048576	22	4740
2026-01-06 09:25:18.09	7.11	27.61	-30.4	-32.9	13.2	2.36e-05	0	43	102	1048576	22	4793
2026-01-06 09:25:19.10	6.91	27.47	-30.6	-33.3	12.9	4.11e-05	0	43	102	1048576	22	4963
2026-01-06 09:25:20.10	6.71	27.34	-30.6	-33.3	12.9	5.49e-05	0	43	102	1048576	22	4955
2026-01-06 09:25:21.11	6.51	27.20	-30.6	-33.3	12.9	4.50e-05	0	43	102	1048576	22	4959
2026-01-06 09:25:22.11	6.32	27.07	-30.6	-33.5	12.8	5.64e-05	0	43	102	1048576	22	5023
2026-01-06 09:25:23.12	6.12	26.93	-30.4	-33.0	13.1	3.66e-05	0	43	102	1048576	22	4846
2026-01-06 09:25:24.13	5.93	26.80	-30.2	-32.9	13.5	2.59e-05	0	43	102	1048576	21	4902
2026-01-06 09:25:25.14	5.74	26.66	-30.2	-33.0	13.4	1.52e-05	0	43	102	1048576	21	4928
2026-01-06 09:25:26.14	5.55	26.53	-30.3	-33.1	13.3	1.14e-05	0	43	102	1048576	21	4993
2026-01-06 09:25:27.15	5.36	26.39	-30.4	-33.5	13.1	2.21e-05	0	43	102	1048576	21	5121
2026-01-06 09:25:28.15	5.18	26.26	-30.4	-33.4	13.1	2.44e-05	0	43	102	1048576	21	5111
2026-01-06 09:25:29.15	4.99	26.13	-30.6	-34.0	12.7	5.49e-05	0	43	102	1048576	21	5311
2026-01-06 09:25:30.16	4.81	26.00	-30.6	-34.0	12.7	7.24e-05	0	43	102	1048576	21	5322
2026-01-06 09:25:31.17	4.63	25.86	-30.7	-34.4	12.4	1.30e-04	0	43	102	1048576	21	5478
2026-01-06 09:25:32.17	4.45	25.73	-30.6	-34.1	12.6	1.20e-04	0	43	102	1048576	21	5392
2026-01-06 09:25:33.18	4.27	25.60	-30.7	-34.2	12.5	1.12e-04	0	43	102	1048576	21	5429
2026-01-06 09:25:34.18	4.10	25.47	-30.7	-34.3	12.5	1.27e-04	0	43	102	1048576	21	5462
2026-01-06 09:25:35.19	3.92	25.34	-30.6	-33.9	12.7	9.38e-05	0	43	102	1048576	21	5306
2026-01-06 09:25:36.19	3.75	25.21	-30.5	-33.9	12.7	7.09e-05	0	43	102	1048576	21	5284
2026-01-06 09:25:37.19	3.58	25.08	-30.7	-34.3	12.5	1.09e-04	0	43	102	1048576	21	5440
2026-01-06 09:25:38.20	3.40	24.95	-30.6	-34.2	12.5	9.15e-05	0	43	102	1048576	21	5422
2026-01-06 09:25:39.21	3.23	24.82	-30.7	-34.4	12.4	1.43e-04	0	43	102	1048576	21	5524
2026-01-06 09:25:40.22	3.06	24.69	-30.8	-34.6	12.2	2.21e-04	0	43	102	1048576	21	5589
2026-01-06 09:25:41.23	2.90	24.56	-30.7	-34.3	12.4	1.79e-04	0	43	102	1048576	21	5464
2026-01-06 09:25:42.24	2.73	24.43	-30.7	-34.4	12.4	1.25e-04	0	43	102	1048576	21	5516
2026-01-06 09:25:43.25	2.57	24.30	-30.8	-34.6	12.2	2.62e-04	0	43	102	1048576	21	5595
2026-01-06 09:25:44.25	2.40	24.18	-30.5	-33.9	12.7	1.36e-04	0	43	102	1048576	21	5310
2026-01-06 09:25:45.26	2.24	24.05	-30.4	-33.6	12.9	6.25e-05	0	43	102	1048576	21	5167
2026-01-06 09:25:46.27	2.08	23.92	-30.3	-33.3	13.1	4.19e-05	0	43	102	1048576	21	5074
2026-01-06 09:25:47.28	1.92	23.79	-30.4	-33.5	13.0	3.66e-05	0	43	102	1048576	21	5134
2026-01-06 09:25:48.28	1.77	23.67	-30.3	-33.3	13.1	2.97e-05	0	43	102	1048576	21	5071
2026-01-06 09:25:49.28	1.61	23.54	-30.4	-33.5	13.0	4.65e-05	0	43	102	1048576	21	5133
2026-01-06 09:25:50.28	1.46	23.42	-30.2	-33.0	13.2	4.27e-05	0	43	102	1048576	21	4960
2026-01-06 09:25:51.29	1.30	23.29	-30.3	-33.3	13.1	3.05e-05	0	43	102	1048576	21	5060
2026-01-06 09:25:52.29	1.15	23.17	-30.4	-33.5	12.9	4.88e-05	0	43	102	1048576	21	5144
2026-01-06 09:25:53.30	1.00	23.04	-30.5	-33.7	12.8	3.96e-05	0	43	102	1048576	21	5231
2026-01-06 09:25:54.31	0.85	22.92	-30.6	-34.0	12.6	6.56e-05	0	43	102	1048576	21	5347
2026-01-06 09:25:55.32	0.70	22.79	-30.6	-34.1	12.5	1.24e-04	0	43	102	1048576	21	5391
2026-01-06 09:25:56.32	0.55	22.67	-30.6	-34.1	12.5	1.10e-04	0	43	102	1048576	21	5382
2026-01-06 09:25:57.33	0.41	22.55	-30.7	-34.3	12.4	1.51e-04	0	43	102	1048576	21	5471
2026-01-06 09:25:58.34	0.26	22.43	-30.7	-34.3	12.4	1.34e-04	0	43	102	1048576	21	5473
2026-01-06 09:25:59.34	0.12	22.30	-30.7	-34.3	12.4	1.85e-04	0	43	102	1048576	21	5483
2026-01-06 09:26:00.35	359.98	22.18	-30.7	-34.4	12.2	1.67e-04	0	43	102	1048576	21	5540
2026-01-06 09:26:01.36	359.83	22.06	-30.8	-34.6	12.1	2.71e-04	0	43	102	1048576	21	5617
2026-01-06 09:26:02.37	359.69	21.94	-30.7	-34.4	12.3	1.95e-04	0	43	102	1048576	21	5516
2026-01-06 09:26:03.37	359.55	21.82	-30.6	-34.1	12.5	1.52e-04	0	43	102	1048576	21	5393
2026-01-06 09:26:04.37	359.42	21.70	-30.5	-33.9	12.6	7.47e-05	0	43	102	1048576	21	5310
2026-01-06 09:26:05.38	359.28	21.58	-30.5	-33.7	12.7	7.32e-05	0	43	102	1048576	21	5252
2026-01-06 09:26:06.38	359.14	21.46	-30.3	-33.3	13.0	4.65e-05	0	43	102	1048576	21	5092
2026-01-06 09:26:07.39	359.01	21.34	-30.3	-33.2	13.0	3.05e-05	0	43	102	1048576	21	5052
2026-01-06 09:26:08.39	358.88	21.22	-30.3	-33.4	12.9	3.73e-05	0	43	102	1048576	21	5109
2026-01-06 09:26:09.40	358.74	21.11	-30.4	-33.6	12.8	5.49e-05	0	43	102	1048576	21	5214
2026-01-06 09:26:10.41	358.61	20.99	-30.4	-33.7	12.7	7.70e-05	0	43	102	1048576	21	5224
2026-01-06 09:26:11.41	358.48	20.87	-30.5	-33.8	12.6	8.01e-05	0	43	102	1048576	21	5270
2026-01-06 09:26:12.42	358.35	20.75	-30.6	-34.1	12.4	1.10e-04	0	43	102	1048576	21	5399
2026-01-06 09:26:13.43	358.22	20.64	-30.7	-34.4	12.2	2.08e-04	0	43	102	1048576	21	5528
2026-01-06 09:26:14.43	358.09	20.52	-30.7	-34.5	12.0	2.76e-04	0	43	102	1048576	21	5598
2026-01-06 09:26:15.43	357.97	20.41	-30.7	-34.6	12.1	3.09e-04	0	43	102	1048576	21	5598
2026-01-06 09:26:16.44	357.84	20.29	-30.6	-34.1	12.4	1.62e-04	0	43	102	1048576	21	5408
2026-01-06 09:26:17.45	357.72	20.17	-30.5	-33.8	12.6	9.84e-05	0	43	102	1048576	21	5279
2026-01-06 09:26:18.45	357.59	20.06	-30.4	-33.7	12.7	9.91e-05	0	43	102	1048576	21	5249
2026-01-06 09:26:19.45	357.47	19.95	-30.4	-33.7	12.7	8.31e-05	0	43	102	1048576	21	5236
2026-01-06 09:26:20.45	357.35	19.83	-30.4	-33.6	12.7	6.63e-05	0	43	102	1048576	21	5217
2026-01-06 09:26:21.46	357.23	19.72	-30.5	-33.9	12.6	8.85e-05	0	43	102	1048576	21	5317
2026-01-06 09:26:22.47	357.11	19.61	-30.5	-33.9	12.6	1.32e-04	0	43	102	1048576	21	5307
2026-01-06 09:26:23.47	356.99	19.49	-30.4	-33.4	12.9	7.17e-05	0	43	102	1048576	21	5139
2026-01-06 09:26:24.47	356.87	19.38	-30.3	-33.3	13.0	4.80e-05	0	43	102	1048576	21	5079
2026-01-06 09:26:25.48	356.75	19.27	-30.3	-33.3	13.0	6.63e-05	0	43	102	1048576	21	5076
2026-01-06 09:26:26.49	356.64	19.16	-30.3	-33.4	12.9	4.42e-05	0	43	102	1048576	21	5118
2026-01-06 09:26:27.50	356.52	19.05	-30.3	-33.4	12.8	5.56e-05	0	43	102	1048576	21	5144
2026-01-06 09:26:28.50	356.41	18.94	-30.3	-33.4	12.9	5.03e-05	0	43	102	1048576	21	5110
2026-01-06 09:26:29.51	356.29	18.83	-30.4	-33.5	12.8	8.23e-05	0	43	102	1048576	21	5160
2026-01-06 09:26:30.51	356.18	18.72	-30.4	-33.5	12.8	5.41e-05	0	43	102	1048576	21	5184
2026-01-06 09:26:31.52	356.07	18.61	-30.4	-33.7	12.7	9.38e-05	0	43	102	1048576	21	5236
2026-01-06 09:26:32.53	355.95	18.50	-30.3	-33.5	12.8	6.71e-05	0	43	102	1048576	21	5155
2026-01-06 09:26:33.54	355.84	18.39	-30.4	-33.7	12.7	8.31e-05	0	43	102	1048576	21	5237
2026-01-06 09:26:34.54	355.73	18.28	-30.5	-33.8	12.6	8.77e-05	0	43	102	1048576	21	5279
2026-01-06 09:26:35.55	355.62	18.17	-30.5	-33.8	12.5	9.68e-05	0	43	102	1048576	21	5297
2026-01-06 09:26:36.56	355.52	18.06	-30.5	-33.9	12.5	1.23e-04	0	43	102	1048576	21	5332
2026-01-06 09:26:37.57	355.41	17.95	-30.5	-33.8	12.4	1.38e-04	0	43	102	1048576	21	5309
2026-01-06 09:26:38.57	355.30	17.85	-30.5	-34.0	12.4	1.41e-04	0	43	102	1048576	21	5392
2026-01-06 09:26:39.57	355.20	17.74	-30.5	-34.0	12.4	1.91e-04	0	43	102	1048576	21	5362
2026-01-06 09:26:40.58	355.09	17.63	-30.4	-33.7	12.6	1.07e-04	0	43	102	1048576	21	5253
2026-01-06 09:26:41.58	354.99	17.53	-30.3	-33.4	12.8	6.71e-05	0	43	102	1048576	21	5141
2026-01-06 09:26:42.59	354.88	17.42	-30.4	-33.5	12.7	6.56e-05	0	43	102	1048576	21	5198
2026-01-06 09:26:43.60	354.78	17.32	-30.4	-33.5	12.7	9.99e-05	0	43	102	1048576	21	5190
2026-01-06 09:26:44.60	354.68	17.21	-30.3	-33.4	12.8	4.88e-05	0	43	102	1048576	21	5128
2026-01-06 09:26:45.61	354.58	17.11	-30.3	-33.5	12.7	5.87e-05	0	43	102	1048576	21	5160
2026-01-06 09:26:46.61	354.48	17.00	-30.3	-33.4	12.8	6.33e-05	0	43	102	1048576	21	5143
2026-01-06 09:26:47.62	354.38	16.90	-30.4	-33.6	12.6	8.46e-05	0	43	102	1048576	21	5228
2026-01-06 09:26:48.63	354.28	16.79	-30.4	-33.7	12.6	1.40e-04	0	43	102	1048576	21	5258
2026-01-06 09:26:49.63	354.18	16.69	-30.4	-33.8	12.5	1.01e-04	0	43	102	1048576	21	5317
2026-01-06 09:26:50.63	354.08	16.59	-30.5	-34.1	12.3	1.56e-04	0	43	102	1048576	21	5431
2026-01-06 09:26:51.64	353.98	16.49	-30.5	-34.1	12.3	2.23e-04	0	43	102	1048576	21	5411
2026-01-06 09:26:52.64	353.89	16.38	-30.6	-34.2	12.2	2.20e-04	0	43	102	1048576	21	5453
2026-01-06 09:26:53.65	353.79	16.28	-30.5	-34.0	12.3	2.75e-04	0	43	102	1048576	21	5388
2026-01-06 09:26:54.66	353.70	16.18	-30.6	-34.3	12.1	2.62e-04	0	43	102	1048576	21	5530
2026-01-06 09:26:55.67	353.60	16.08	-30.6	-34.3	12.1	3.20e-04	0	43	102	1048576	21	5532
2026-01-06 09:26:56.67	353.51	15.98	-30.7	-34.6	11.9	3.18e-04	0	43	102	1048576	21	5627
2026-01-06 09:26:57.67	353.42	15.88	-30.7	-34.5	11.9	5.13e-04	0	43	102	1048576	21	5620
2026-01-06 09:26:58.68	353.32	15.78	-30.6	-34.3	12.1	3.04e-04	0	43	102	1048576	21	5496
2026-01-06 09:26:59.69	353.23	15.68	-30.6	-34.2	12.1	2.30e-04	0	43	102	1048576	21	5458
2026-01-06 09:27:00.69	353.14	15.58	-30.5	-34.1	12.2	1.99e-04	0	43	102	1048576	21	5429
2026-01-06 09:27:01.70	353.05	15.48	-30.5	-34.1	12.2	2.27e-04	0	43	102	1048576	21	5432
2026-01-06 09:27:02.69	352.96	15.38	-30.6	-34.2	12.1	2.53e-04	0	43	102	1048576	21	5475
2026-01-06 09:27:03.70	352.87	15.28	-30.6	-34.3	12.1	2.75e-04	0	43	102	1048576	21	5510
2026-01-06 09:27:04.70	352.78	15.19	-30.6	-34.3	12.0	3.46e-04	0	43	102	1048576	21	5505
2026-01-06 09:27:05.70	352.70	15.09	-30.5	-34.1	12.1	2.54e-04	0	43	102	1048576	21	5435
2026-01-06 09:27:06.70	352.61	14.99	-30.6	-34.3	12.1	2.59e-04	0	43	102	1048576	21	5508
2026-01-06 09:27:07.71	352.52	14.89	-30.6	-34.3	12.0	3.46e-04	0	43	102	1048576	21	5532
2026-01-06 09:27:08.72	352.44	14.80	-30.6	-34.3	12.0	2.97e-04	0	43	102	1048576	21	5530
2026-01-06 09:27:09.73	352.35	14.70	-30.6	-34.4	12.0	3.65e-04	0	43	102	1048576	21	5555
2026-01-06 09:27:10.73	352.26	14.60	-30.6	-34.4	11.9	4.05e-04	0	43	102	1048576	21	5548
2026-01-06 09:27:11.74	352.18	14.51	-30.6	-34.4	11.9	3.75e-04	0	43	102	1048576	21	5587
2026-01-06 09:27:12.75	352.10	14.41	-30.7	-34.7	11.7	5.24e-04	0	43	102	1048576	21	5706
2026-01-06 09:27:13.75	352.01	14.32	-30.8	-34.8	11.6	7.17e-04	0	43	102	1048576	21	5769
2026-01-06 09:27:14.76	351.93	14.22	-30.8	-35.0	11.4	7.72e-04	0	43	102	1048576	21	5857
2026-01-06 09:27:15.76	351.85	14.13	-30.7	-34.8	11.6	7.15e-04	0	43	102	1048576	21	5733
2026-01-06 09:27:16.76	351.77	14.03	-30.8	-34.9	11.5	7.58e-04	0	43	102	1048576	21	5806
2026-01-06 09:27:17.77	351.68	13.94	-30.7	-34.8	11.6	7.48e-04	0	43	102	1048576	21	5735
2026-01-06 09:27:18.77	351.60	13.84	-30.7	-34.8	11.6	6.75e-04	0	43	102	1048576	21	5742
2026-01-06 09:27:19.77	351.52	13.75	-30.7	-34.7	11.7	6.71e-04	0	43	102	1048576	21	5698
2026-01-06 09:27:20.78	351.44	13.66	-30.6	-34.6	11.7	5.89e-04	0	43	102	1048576	21	5656
2026-01-06 09:27:21.79	351.36	13.56	-30.7	-34.8	11.5	7.32e-04	0	43	102	1048576	21	5777
2026-01-06 09:27:22.79	351.29	13.47	-30.8	-35.2	11.3	1.07e-03	0	43	102	1048576	21	5961
2026-01-06 09:27:23.79	351.21	13.38	-30.8	-34.9	11.4	1.41e-03	0	43	102	1048576	21	5816
2026-01-06 09:27:24.79	351.13	13.29	-30.6	-34.5	11.7	6.06e-04	0	43	102	1048576	21	5646
2026-01-06 09:27:25.80	351.05	13.20	-30.6	-34.5	11.8	5.83e-04	0	43	102	1048576	21	5606
2026-01-06 09:27:26.80	350.98	13.11	-30.6	-34.3	11.8	4.85e-04	0	43	102	1048576	21	5563
2026-01-06 09:27:27.81	350.90	13.01	-30.6	-34.6	11.6	5.40e-04	0	43	102	1048576	21	5683
2026-01-06 09:27:28.82	350.83	12.92	-30.6	-34.6	11.6	8.31e-04	0	43	102	1048576	21	5685
2026-01-06 09:27:29.82	350.75	12.83	-30.7	-34.9	11.4	7.06e-04	0	43	102	1048576	21	5819
2026-01-06 09:27:30.83	350.68	12.74	-30.7	-34.8	11.4	1.05e-03	0	43	102	1048576	21	5791
2026-01-06 09:27:31.83	350.60	12.65	-30.8	-35.2	11.2	1.12e-03	0	43	102	1048576	21	5976
2026-01-06 09:27:32.84	350.53	12.56	-30.8	-35.0	11.3	1.48e-03	0	43	102	1048576	21	5883
2026-01-06 09:27:33.84	350.46	12.47	-30.7	-34.9	11.4	1.05e-03	0	43	102	1048576	21	5812
2026-01-06 09:27:34.85	350.38	12.38	-30.8	-35.2	11.2	1.21e-03	0	43	102	1048576	21	5950
2026-01-06 09:27:35.86	350.31	12.30	-30.9	-35.5	10.9	1.84e-03	0	43	102	1048576	21	6130
2026-01-06 09:27:36.86	350.24	12.21	-30.9	-35.5	10.9	2.24e-03	0	43	102	1048576	21	6121
2026-01-06 09:27:37.86	350.17	12.12	-31.0	-35.5	10.6	2.91e-03	0	43	102	1048576	22	5986
2026-01-06 09:27:38.87	350.10	12.03	-31.1	-35.8	10.4	4.57e-03	0	43	102	1048576	22	6149
2026-01-06 09:27:39.88	350.03	11.94	-31.1	-35.7	10.4	5.02e-03	0	43	102	1048576	22	6118
2026-01-06 09:27:40.89	349.96	11.86	-31.2	-36.2	10.1	5.26e-03	0	43	102	1048576	22	6349
2026-01-06 09:27:41.90	349.89	11.77	-31.2	-35.9	10.2	6.06e-03	0	43	102	1048576	22	6209
2026-01-06 09:27:42.90	349.82	11.68	-31.1	-35.8	10.3	5.07e-03	0	43	102	1048576	22	6151
2026-01-06 09:27:43.91	349.75	11.59	-31.1	-35.8	10.3	5.21e-03	0	43	102	1048576	22	6161
2026-01-06 09:27:44.92	349.68	11.51	-31.1	-35.7	10.4	4.79e-03	0	43	102	1048576	22	6093
2026-01-06 09:27:45.93	349.61	11.42	-31.2	-35.9	10.2	5.28e-03	0	43	102	1048576	22	6227
2026-01-06 09:27:46.93	349.54	11.34	-31.1	-35.8	10.3	5.58e-03	0	43	102	1048576	22	6156
2026-01-06 09:27:47.94	349.48	11.25	-31.2	-36.1	10.1	6.82e-03	0	43	102	1048576	22	6318
2026-01-06 09:27:48.94	349.41	11.16	-31.1	-35.7	10.4	5.97e-03	0	43	102	1048576	22	6095
2026-01-06 09:27:49.94	349.34	11.08	-31.0	-35.4	10.6	4.20e-03	0	43	102	1048576	22	5953
2026-01-06 09:27:50.95	349.28	10.99	-30.9	-34.9	10.9	2.37e-03	0	43	102	1048576	22	5738
2026-01-06 09:27:51.96	349.21	10.91	-30.8	-34.8	11.0	1.91e-03	0	43	102	1048576	22	5690
2026-01-06 09:27:52.97	349.15	10.82	-30.9	-35.1	10.8	2.29e-03	0	44	102	1048576	22	5811
2026-01-06 09:27:53.98	349.08	10.74	-30.9	-34.9	10.9	2.08e-03	0	43	102	1048576	22	5732
2026-01-06 09:27:54.99	349.02	10.66	-30.9	-35.0	10.8	1.95e-03	0	43	102	1048576	22	5768
2026-01-06 09:27:55.99	348.96	10.57	-30.9	-35.0	10.8	2.65e-03	0	43	102	1048576	22	5799
2026-01-06 09:27:56.99	348.89	10.49	-30.8	-34.7	11.0	2.35e-03	0	43	102	1048576	22	5668
2026-01-06 09:27:58.00	348.83	10.41	-30.8	-34.9	10.9	2.34e-03	0	43	102	1048576	22	5722
2026-01-06 09:27:59.01	348.77	10.32	-30.8	-34.9	10.9	2.32e-03	0	43	102	1048576	22	5725
2026-01-06 09:28:00.01	348.70	10.24	-30.8	-34.9	10.8	2.42e-03	0	43	102	1048576	22	5772
2026-01-06 09:28:01.02	348.64	10.16	-30.9	-35.1	10.7	3.00e-03	0	43	102	1048576	22	5851
2026-01-06 09:28:02.03	348.58	10.08	-30.9	-35.1	10.7	2.97e-03	0	43	102	1048576	22	5848
2026-01-06 09:28:03.03	348.52	9.99	-30.9	-35.3	10.5	3.24e-03	0	43	102	1048576	22	5930
2026-01-06 09:28:04.04	348.46	9.91	-31.1	-35.7	10.2	4.47e-03	0	43	102	1048576	22	6135
2026-01-06 09:28:05.04	348.40	9.83	-31.0	-35.3	10.4	4.78e-03	0	43	102	1048576	22	5964
2026-01-06 09:28:06.05	348.34	9.75	-31.1	-35.7	10.2	5.73e-03	0	43	102	1048576	22	6149
2026-01-06 09:28:07.05	348.28	9.67	-31.0	-35.5	10.3	5.21e-03	0	43	102	1048576	22	6043
2026-01-06 09:28:08.06	348.22	9.59	-31.0	-35.5	10.3	4.77e-03	0	43	102	1048576	22	6066
2026-01-06 09:28:09.06	348.16	9.51	-31.0	-35.5	10.3	5.23e-03	0	43	102	1048576	22	6062
2026-01-06 09:28:10.07	348.10	9.43	-31.0	-35.6	10.2	5.93e-03	0	43	102	1048576	22	6097
2026-01-06 09:28:11.08	348.04	9.35	-31.0	-35.5	10.3	5.52e-03	0	43	102	1048576	22	6063
2026-01-06 09:28:12.09	347.98	9.27	-31.1	-35.8	10.0	6.22e-03	0	43	102	1048576	22	6218
2026-01-06 09:28:13.09	347.93	9.19	-31.0	-35.6	10.2	6.49e-03	0	43	102	1048576	22	6097
2026-01-06 09:28:14.10	347.87	9.11	-30.9	-35.3	10.4	5.22e-03	0	43	102	1048576	22	5981
2026-01-06 09:28:15.10	347.81	9.03	-30.9	-35.3	10.4	4.86e-03	0	43	102	1048576	22	5981
2026-01-06 09:28:16.11	347.76	8.95	-30.9	-35.3	10.4	4.76e-03	0	43	102	1048576	22	5982
2026-01-06 09:28:17.12	347.70	8.87	-31.0	-35.6	10.1	4.58e-03	0	43	102	1048576	22	6129
2026-01-06 09:28:18.13	347.64	8.79	-31.0	-35.8	10.0	8.16e-03	0	43	102	1048576	22	6196
2026-01-06 09:28:19.13	347.59	8.71	-30.9	-35.4	10.3	6.06e-03	0	43	102	1048576	22	6016
2026-01-06 09:28:20.14	347.53	8.63	-31.0	-35.7	10.0	6.84e-03	0	43	102	1048576	22	6185
2026-01-06 09:28:21.14	347.48	8.56	-31.0	-35.5	10.2	6.42e-03	0	43	102	1048576	22	6085
2026-01-06 09:28:22.15	347.42	8.48	-30.9	-35.3	10.3	5.49e-03	0	43	102	1048576	22	5983
2026-01-06 09:28:23.15	347.37	8.40	-30.9	-35.3	10.3	4.85e-03	0	43	102	1048576	22	5985
2026-01-06 09:28:24.16	347.31	8.32	-30.9	-35.5	10.2	5.19e-03	0	43	102	1048576	22	6064
2026-01-06 09:28:25.17	347.26	8.25	-31.0	-35.6	10.0	6.69e-03	0	43	102	1048576	22	6154
2026-01-06 09:28:26.17	347.21	8.17	-31.1	-36.1	9.7	9.79e-03	0	43	102	1048576	22	6398
2026-01-06 09:28:27.18	347.15	8.09	-31.0	-35.8	9.9	1.02e-02	0	43	102	1048576	22	6264
2026-01-06 09:28:28.18	347.10	8.02	-31.1	-36.0	9.7	1.06e-02	0	43	102	1048576	22	6352
2026-01-06 09:28:29.19	347.05	7.94	-31.2	-36.4	9.3	1.50e-02	0	43	102	1048576	22	6594
2026-01-06 09:28:30.20	346.99	7.87	-31.2	-36.5	9.3	1.66e-02	0	43	102	1048576	22	6630
2026-01-06 09:28:31.21	346.94	7.79	-31.2	-36.6	9.2	2.00e-02	0	43	102	1048576	22	6694
2026-01-06 09:28:32.21	346.89	7.71	-31.2	-36.6	9.1	1.77e-02	0	43	102	1048576	22	6713
2026-01-06 09:28:33.22	346.84	7.64	-31.3	-36.8	9.0	2.40e-02	0	43	102	1048576	22	6822
2026-01-06 09:28:34.22	346.79	7.56	-31.3	-36.8	9.0	2.37e-02	0	43	102	1048576	22	6801
2026-01-06 09:28:35.22	346.74	7.49	-31.3	-36.9	8.9	2.88e-02	0	43	102	1048576	22	6893
2026-01-06 09:28:36.22	346.69	7.41	-31.2	-36.6	9.1	2.44e-02	0	43	102	1048576	22	6715
2026-01-06 09:28:37.23	346.64	7.34	-31.3	-36.8	9.0	2.36e-02	0	43	102	1048576	22	6832
2026-01-06 09:28:38.23	346.59	7.27	-31.3	-36.9	8.9	3.07e-02	0	43	102	1048576	22	6868
2026-01-06 09:28:39.23	346.54	7.19	-31.2	-36.6	9.2	2.04e-02	0	43	102	1048576	22	6683
2026-01-06 09:28:40.24	346.49	7.12	-31.7	-38.0	8.0	2.00e-02	0	43	102	1048576	23	7489
2026-01-06 09:28:41.25	346.44	7.04	-33.0	-47.1	3.8	1.49e+00	0	43	104	1048576	25	18259
2026-01-06 09:28:42.25	346.39	6.97	-33.3	-47.7	3.8	1.49e+00	0	43	104	1048576	26	18804

#Closed at: 2026-01-06 09:28:42
#Recorded file [1 MB]: D:/data/31010_260106_121722.dat