passes_logs/2026/01/06/R2M6_AANII_01/R2M6_AANII_01__20260106_100644_NOAA_21_JPSS-2_rec.log

#Pass ID: 20260106_100644_NOAA 21 (JPSS-2)
#Satellite: NOAA 21 (JPSS-2)
#Configuration: NOAA 21
#almurnet v.1.7.20240730
#Start time: 2026-01-06 10:08:22

#Version: 2.2.20231116
#Station: R2M6_AANII_01
#Location: 30.233357 lon 59.946436 lat
#TLE: 1 54234U 22150A   26005.21525222  .00000150  00000+0  91957-4 0  9992
#TLE: 2 54234  98.7490 306.2339 0001053 341.6032  18.5106 14.19532220163427

#Time	Az	El	Level	Level2	SNR	BER	BlckErr	Temp	State	Recorded	gain1	gain2
2026-01-06 10:08:22.91	152.81	16.06	-33.3	-44.6	3.8	8.46e-01	0	43	0	0	26	13272
2026-01-06 10:08:23.91	152.79	16.18	-33.9	-45.2	3.8	1.49e+00	0	44	104	0	29	13188
2026-01-06 10:08:24.92	152.78	16.29	-34.0	-45.3	3.8	1.49e+00	0	43	104	0	29	13250
2026-01-06 10:08:25.92	152.76	16.40	-34.0	-45.3	3.8	1.49e+00	0	43	104	0	29	13244
2026-01-06 10:08:26.92	152.75	16.52	-34.0	-45.4	3.8	1.49e+00	0	44	104	0	29	13324
2026-01-06 10:08:27.93	152.73	16.63	-34.0	-45.4	3.8	1.49e+00	0	43	104	0	29	13337
2026-01-06 10:08:28.94	152.71	16.75	-34.1	-45.4	3.8	1.49e+00	0	44	104	0	29	13353
2026-01-06 10:08:29.95	152.70	16.86	-34.1	-45.4	3.8	1.49e+00	0	44	104	0	29	13347
2026-01-06 10:08:30.95	152.68	16.98	-34.1	-45.5	3.8	1.49e+00	0	44	104	0	29	13436
2026-01-06 10:08:31.95	152.67	17.10	-34.1	-45.5	3.8	1.49e+00	0	44	104	0	29	13412
2026-01-06 10:08:32.96	152.65	17.21	-34.1	-45.5	3.8	1.49e+00	0	44	104	0	29	13391
2026-01-06 10:08:33.97	152.64	17.33	-34.1	-45.5	3.8	1.49e+00	0	43	104	0	29	13394
2026-01-06 10:08:34.97	152.62	17.45	-34.1	-45.4	3.8	1.49e+00	0	43	104	0	29	13340
2026-01-06 10:08:35.98	152.60	17.57	-34.1	-45.5	3.8	1.49e+00	0	43	104	0	29	13403
2026-01-06 10:08:36.99	152.59	17.69	-34.1	-45.5	3.8	1.49e+00	0	44	104	0	29	13354
2026-01-06 10:08:38.00	152.57	17.81	-34.1	-45.5	3.8	1.49e+00	0	43	104	0	29	13412
2026-01-06 10:08:39.01	152.55	17.93	-34.1	-45.5	3.8	1.49e+00	0	44	104	0	29	13394
2026-01-06 10:08:40.02	152.53	18.06	-34.1	-45.5	3.8	1.49e+00	0	44	104	0	29	13400
2026-01-06 10:08:41.03	152.52	18.18	-34.1	-45.5	3.8	1.49e+00	0	43	104	0	29	13430
2026-01-06 10:08:42.03	152.50	18.30	-34.2	-45.7	3.8	1.49e+00	0	43	104	0	29	13554
2026-01-06 10:08:43.04	152.48	18.42	-34.2	-45.7	3.8	1.49e+00	0	43	104	0	29	13568
2026-01-06 10:08:44.05	152.46	18.55	-34.2	-45.7	3.8	1.49e+00	0	43	104	0	29	13573
2026-01-06 10:08:45.06	152.45	18.67	-34.1	-45.6	3.8	1.49e+00	0	43	104	0	29	13516
2026-01-06 10:08:46.06	152.43	18.80	-34.1	-45.5	3.8	1.49e+00	0	43	104	0	29	13417
2026-01-06 10:08:47.07	152.41	18.92	-34.0	-45.4	3.8	1.49e+00	0	43	104	0	29	13342
2026-01-06 10:08:48.07	152.39	19.05	-34.0	-45.3	3.8	1.49e+00	0	43	104	0	29	13275
2026-01-06 10:08:49.08	152.37	19.18	-33.9	-45.1	3.8	1.49e+00	0	44	104	0	29	13117
2026-01-06 10:08:50.08	152.35	19.31	-33.8	-44.9	3.8	1.49e+00	0	43	104	0	29	12991
2026-01-06 10:08:51.09	152.33	19.43	-33.7	-45.3	3.8	1.49e+00	0	43	104	0	28	13684
2026-01-06 10:08:52.09	152.31	19.56	-33.7	-45.3	3.8	1.49e+00	0	44	104	0	28	13656
2026-01-06 10:08:53.10	152.29	19.69	-33.6	-45.1	3.8	1.49e+00	0	44	104	0	28	13557
2026-01-06 10:08:54.11	152.28	19.82	-33.6	-45.0	3.8	1.49e+00	0	43	104	0	28	13393
2026-01-06 10:08:55.12	152.26	19.96	-33.4	-44.5	3.8	1.49e+00	0	44	104	0	28	12912
2026-01-06 10:08:56.12	152.24	20.09	-33.3	-44.8	3.8	1.49e+00	0	44	104	0	27	13548
2026-01-06 10:08:57.13	152.21	20.22	-33.3	-45.0	3.8	1.49e+00	0	44	104	0	27	13833
2026-01-06 10:08:58.13	152.19	20.35	-33.4	-45.1	3.8	1.49e+00	0	44	104	0	27	13942
2026-01-06 10:08:59.14	152.17	20.49	-33.3	-45.0	3.8	1.49e+00	0	44	104	0	27	13792
2026-01-06 10:09:00.15	152.15	20.62	-33.3	-44.6	3.8	1.49e+00	0	44	104	0	27	13195
2026-01-06 10:09:01.16	152.13	20.76	-33.2	-43.7	3.8	1.49e+00	0	43	104	0	27	12084
2026-01-06 10:09:02.17	152.11	20.90	-33.1	-42.7	3.8	1.49e+00	0	43	104	0	27	10893
2026-01-06 10:09:03.17	152.09	21.03	-32.9	-41.0	4.2	1.45e+00	0	44	104	0	27	9114
2026-01-06 10:09:04.18	152.07	21.17	-32.7	-40.7	4.0	1.47e+00	0	43	104	0	26	9023
2026-01-06 10:09:05.19	152.05	21.31	-32.5	-38.7	5.3	6.26e-01	0	43	0	0	26	7333
2026-01-06 10:09:06.20	152.02	21.45	-32.1	-37.4	6.3	3.01e-01	0	44	102	1048576	25	6617
2026-01-06 10:09:07.21	152.00	21.59	-31.6	-35.8	7.7	1.34e-01	0	44	102	1048576	24	5852
2026-01-06 10:09:08.21	151.98	21.73	-30.9	-34.1	9.3	3.33e-02	0	44	102	1048576	23	5174
2026-01-06 10:09:09.22	151.95	21.87	-30.1	-32.7	10.9	4.12e-03	0	44	102	1048576	21	4846
2026-01-06 10:09:10.23	151.93	22.01	-29.3	-31.1	12.3	3.52e-04	0	44	102	1048576	20	4424
2026-01-06 10:09:11.24	151.91	22.16	-28.7	-30.4	13.4	2.51e-05	0	43	102	1048576	18	4416
2026-01-06 10:09:12.25	151.88	22.30	-28.1	-29.5	14.2	2.20e-06	0	44	102	1048576	17	4254
2026-01-06 10:09:13.25	151.86	22.45	-27.7	-29.2	14.7	0.00e+00	0	44	102	1048576	16	4265
2026-01-06 10:09:14.26	151.84	22.59	-27.6	-28.9	14.9	0.00e+00	0	44	102	1048576	16	4192
2026-01-06 10:09:15.26	151.81	22.74	-27.7	-29.1	14.7	0.00e+00	0	44	102	1048576	16	4239
2026-01-06 10:09:16.28	151.79	22.89	-28.0	-29.8	14.3	7.00e-07	0	44	102	1048576	16	4445
2026-01-06 10:09:17.28	151.76	23.03	-28.4	-30.8	13.7	2.20e-06	0	44	102	1048576	16	4765
2026-01-06 10:09:18.28	151.74	23.18	-28.2	-30.3	14.1	3.00e-06	0	44	102	1048576	16	4582
2026-01-06 10:09:19.29	151.71	23.33	-27.8	-29.4	14.6	0.00e+00	0	43	102	1048576	16	4331
2026-01-06 10:09:20.29	151.69	23.48	-27.9	-29.7	14.4	7.00e-07	0	44	102	1048576	16	4421
2026-01-06 10:09:21.30	151.66	23.63	-27.5	-28.8	14.9	0.00e+00	0	44	102	1048576	16	4149
2026-01-06 10:09:22.31	151.63	23.79	-27.3	-28.2	15.3	0.00e+00	0	44	102	1048576	16	3991
2026-01-06 10:09:23.31	151.61	23.94	-26.9	-27.9	15.6	0.00e+00	0	43	102	1048576	15	4033
2026-01-06 10:09:24.32	151.58	24.09	-26.8	-27.6	15.7	0.00e+00	0	43	102	1048576	15	3957
2026-01-06 10:09:25.33	151.55	24.25	-26.9	-27.8	15.6	0.00e+00	0	43	102	1048576	15	4013
2026-01-06 10:09:26.33	151.53	24.41	-27.0	-28.0	15.6	0.00e+00	0	44	102	1048576	15	4046
2026-01-06 10:09:27.34	151.50	24.56	-27.0	-28.1	15.5	0.00e+00	0	44	102	1048576	15	4087
2026-01-06 10:09:28.35	151.47	24.72	-27.2	-28.5	15.3	0.00e+00	0	43	102	1048576	15	4187
2026-01-06 10:09:29.35	151.44	24.88	-26.9	-27.9	15.6	0.00e+00	0	43	102	1048576	15	4031
2026-01-06 10:09:30.36	151.41	25.04	-26.8	-28.0	15.8	0.00e+00	0	44	102	1048576	14	4159
2026-01-06 10:09:31.36	151.38	25.20	-26.6	-27.7	16.0	0.00e+00	0	43	102	1048576	14	4086
2026-01-06 10:09:32.37	151.36	25.36	-26.7	-27.8	15.9	0.00e+00	0	43	102	1048576	14	4107
2026-01-06 10:09:33.38	151.33	25.53	-26.6	-27.7	16.0	0.00e+00	0	44	102	1048576	14	4080
2026-01-06 10:09:34.38	151.30	25.69	-26.7	-27.8	15.9	0.00e+00	0	44	102	1048576	14	4109
2026-01-06 10:09:35.39	151.27	25.85	-26.7	-27.9	15.9	0.00e+00	0	43	102	1048576	14	4131
2026-01-06 10:09:36.40	151.23	26.02	-26.7	-27.8	16.0	0.00e+00	0	44	102	1048576	14	4102
2026-01-06 10:09:37.40	151.20	26.19	-26.8	-28.1	15.8	0.00e+00	0	44	102	1048576	14	4178
2026-01-06 10:09:38.40	151.17	26.35	-26.9	-28.3	15.7	0.00e+00	0	44	102	1048576	14	4227
2026-01-06 10:09:39.41	151.14	26.52	-27.0	-28.4	15.6	0.00e+00	0	44	102	1048576	14	4273
2026-01-06 10:09:40.42	151.11	26.69	-27.1	-28.7	15.5	0.00e+00	0	43	102	1048576	14	4350
2026-01-06 10:09:41.42	151.08	26.86	-27.3	-29.2	15.2	0.00e+00	0	43	102	1048576	14	4483
2026-01-06 10:09:42.43	151.04	27.03	-27.3	-29.3	15.1	0.00e+00	0	44	102	1048576	14	4526
2026-01-06 10:09:43.43	151.01	27.21	-27.5	-29.1	15.0	0.00e+00	0	43	102	1048576	15	4361
2026-01-06 10:09:44.44	150.98	27.38	-27.5	-29.1	15.0	0.00e+00	0	44	102	1048576	15	4347
2026-01-06 10:09:45.44	150.94	27.56	-27.5	-29.1	15.0	0.00e+00	0	44	102	1048576	15	4360
2026-01-06 10:09:46.45	150.91	27.73	-27.7	-29.6	14.8	7.00e-07	0	44	102	1048576	15	4484
2026-01-06 10:09:47.46	150.87	27.91	-27.8	-29.8	14.6	7.00e-07	0	44	102	1048576	15	4557
2026-01-06 10:09:48.47	150.84	28.09	-27.8	-29.8	14.6	0.00e+00	0	44	102	1048576	15	4556
2026-01-06 10:09:49.47	150.80	28.27	-27.9	-30.1	14.5	0.00e+00	0	44	102	1048576	15	4659
2026-01-06 10:09:50.48	150.76	28.45	-27.9	-30.2	14.4	7.00e-07	0	43	102	1048576	15	4664
2026-01-06 10:09:51.49	150.73	28.63	-27.9	-30.2	14.4	0.00e+00	0	44	102	1048576	15	4676
2026-01-06 10:09:52.49	150.69	28.81	-28.0	-30.3	14.4	7.00e-07	0	44	102	1048576	15	4717
2026-01-06 10:09:53.50	150.65	29.00	-28.3	-30.4	14.2	4.50e-06	0	44	102	1048576	16	4621
2026-01-06 10:09:54.50	150.62	29.18	-28.4	-30.7	14.1	3.00e-06	0	44	102	1048576	16	4694
2026-01-06 10:09:55.51	150.58	29.37	-28.1	-30.0	14.4	0.00e+00	0	44	102	1048576	16	4504
2026-01-06 10:09:56.52	150.54	29.56	-27.9	-29.5	14.7	7.00e-07	0	43	102	1048576	16	4351
2026-01-06 10:09:57.52	150.50	29.75	-27.7	-29.1	14.9	7.00e-07	0	43	102	1048576	16	4243
2026-01-06 10:09:58.53	150.46	29.94	-27.7	-29.0	15.0	0.00e+00	0	44	102	1048576	16	4203
2026-01-06 10:09:59.53	150.42	30.13	-27.6	-28.9	15.1	0.00e+00	0	44	102	1048576	16	4167
2026-01-06 10:10:00.54	150.38	30.32	-27.7	-29.0	15.0	0.00e+00	0	44	102	1048576	16	4205
2026-01-06 10:10:01.54	150.34	30.52	-27.7	-29.0	15.1	0.00e+00	0	44	102	1048576	16	4201
2026-01-06 10:10:02.55	150.29	30.71	-27.5	-28.6	15.3	0.00e+00	0	43	102	1048576	16	4082
2026-01-06 10:10:03.55	150.25	30.91	-27.5	-28.7	15.2	0.00e+00	0	43	102	1048576	16	4116
2026-01-06 10:10:04.56	150.21	31.11	-27.4	-28.4	15.4	0.00e+00	0	43	102	1048576	16	4046
2026-01-06 10:10:05.57	150.16	31.31	-27.1	-28.3	15.6	0.00e+00	0	44	102	1048576	15	4123
2026-01-06 10:10:06.57	150.12	31.51	-27.0	-28.1	15.7	0.00e+00	0	44	102	1048576	15	4064
2026-01-06 10:10:07.57	150.07	31.71	-27.0	-28.1	15.7	0.00e+00	0	44	102	1048576	15	4056
2026-01-06 10:10:08.58	150.03	31.92	-27.0	-27.9	15.8	0.00e+00	0	44	102	1048576	15	4020
2026-01-06 10:10:09.59	149.98	32.12	-26.8	-27.5	16.0	0.00e+00	0	44	102	1048576	15	3912
2026-01-06 10:10:10.60	149.94	32.33	-26.8	-28.0	16.0	0.00e+00	0	44	102	1048576	14	4155
2026-01-06 10:10:11.61	149.89	32.54	-26.9	-28.2	15.9	0.00e+00	0	43	102	1048576	14	4203
2026-01-06 10:10:12.61	149.84	32.74	-26.8	-28.0	16.1	0.00e+00	0	44	102	1048576	14	4140
2026-01-06 10:10:13.62	149.79	32.96	-26.9	-28.3	15.9	7.00e-07	0	43	102	1048576	14	4234
2026-01-06 10:10:14.63	149.74	33.17	-27.1	-28.6	15.7	0.00e+00	0	44	102	1048576	14	4317
2026-01-06 10:10:15.64	149.69	33.38	-27.3	-29.1	15.5	0.00e+00	0	44	102	1048576	14	4435
2026-01-06 10:10:16.65	149.64	33.60	-27.4	-29.3	15.3	0.00e+00	0	44	102	1048576	14	4511
2026-01-06 10:10:17.65	149.59	33.82	-27.6	-29.3	15.1	0.00e+00	0	44	102	1048576	15	4378
2026-01-06 10:10:18.65	149.54	34.03	-27.8	-29.7	14.9	0.00e+00	0	43	102	1048576	15	4509
2026-01-06 10:10:19.66	149.48	34.25	-27.8	-29.8	14.8	0.00e+00	0	43	102	1048576	15	4528
2026-01-06 10:10:20.67	149.43	34.48	-27.8	-29.7	14.9	0.00e+00	0	44	102	1048576	15	4516
2026-01-06 10:10:21.68	149.37	34.70	-28.1	-30.1	14.5	0.00e+00	0	44	102	1048576	16	4496
2026-01-06 10:10:22.68	149.32	34.92	-28.1	-30.1	14.6	0.00e+00	0	44	102	1048576	16	4494
2026-01-06 10:10:23.69	149.26	35.15	-28.2	-30.2	14.5	0.00e+00	0	44	102	1048576	16	4521
2026-01-06 10:10:24.70	149.21	35.38	-28.3	-30.4	14.3	0.00e+00	0	43	102	1048576	16	4596
2026-01-06 10:10:25.70	149.15	35.60	-28.4	-30.8	14.1	0.00e+00	0	44	102	1048576	16	4722
2026-01-06 10:10:26.71	149.09	35.84	-28.6	-30.6	14.0	7.60e-06	0	44	102	1048576	17	4543
2026-01-06 10:10:27.71	149.03	36.07	-28.5	-30.5	14.1	1.50e-06	0	44	102	1048576	17	4497
2026-01-06 10:10:28.72	148.97	36.30	-28.3	-30.0	14.3	2.20e-06	0	43	102	1048576	17	4368
2026-01-06 10:10:29.72	148.91	36.54	-28.3	-29.9	14.4	7.00e-07	0	43	102	1048576	17	4324
2026-01-06 10:10:30.73	148.85	36.77	-28.3	-29.8	14.4	0.00e+00	0	43	102	1048576	17	4297
2026-01-06 10:10:31.74	148.78	37.01	-28.3	-29.9	14.4	0.00e+00	0	43	102	1048576	17	4338
2026-01-06 10:10:32.73	148.72	37.25	-28.2	-29.7	14.5	1.50e-06	0	44	102	1048576	17	4258
2026-01-06 10:10:33.74	148.65	37.49	-28.2	-29.6	14.6	0.00e+00	0	44	102	1048576	17	4234
2026-01-06 10:10:34.74	148.59	37.74	-28.2	-29.6	14.6	0.00e+00	0	43	102	1048576	17	4235
2026-01-06 10:10:35.75	148.52	37.98	-28.2	-29.6	14.5	7.00e-07	0	44	102	1048576	17	4254
2026-01-06 10:10:36.75	148.45	38.23	-28.3	-29.8	14.5	7.00e-07	0	43	102	1048576	17	4303
2026-01-06 10:10:37.76	148.38	38.48	-28.3	-29.9	14.4	1.50e-06	0	43	102	1048576	17	4315
2026-01-06 10:10:38.77	148.31	38.73	-28.4	-30.1	14.3	1.50e-06	0	43	102	1048576	17	4374
2026-01-06 10:10:39.78	148.24	38.99	-28.3	-29.9	14.4	0.00e+00	0	44	102	1048576	17	4324
2026-01-06 10:10:40.78	148.17	39.24	-28.2	-29.8	14.5	7.00e-07	0	44	102	1048576	17	4285
2026-01-06 10:10:41.79	148.09	39.50	-28.3	-29.8	14.5	0.00e+00	0	43	102	1048576	17	4315
2026-01-06 10:10:42.80	148.01	39.76	-28.2	-29.6	14.6	7.00e-07	0	44	102	1048576	17	4250
2026-01-06 10:10:43.81	147.94	40.02	-28.2	-29.8	14.5	0.00e+00	0	43	102	1048576	17	4302
2026-01-06 10:10:44.82	147.86	40.28	-28.1	-29.4	14.7	0.00e+00	0	43	102	1048576	17	4188
2026-01-06 10:10:45.83	147.78	40.55	-28.1	-29.4	14.7	0.00e+00	0	43	102	1048576	17	4195
2026-01-06 10:10:46.83	147.70	40.81	-28.2	-29.6	14.6	0.00e+00	0	43	102	1048576	17	4256
2026-01-06 10:10:47.84	147.62	41.08	-28.2	-29.6	14.6	1.50e-06	0	43	102	1048576	17	4255
2026-01-06 10:10:48.85	147.53	41.35	-28.5	-30.4	14.2	7.00e-07	0	44	102	1048576	17	4464
2026-01-06 10:10:49.86	147.45	41.62	-28.8	-31.1	13.8	1.06e-05	0	44	102	1048576	17	4687
2026-01-06 10:10:50.87	147.36	41.90	-29.0	-31.5	13.5	7.60e-06	0	43	102	1048576	17	4815
2026-01-06 10:10:51.87	147.27	42.17	-29.1	-31.4	13.3	1.29e-05	0	44	102	1048576	18	4670
2026-01-06 10:10:52.87	147.18	42.45	-29.2	-31.5	13.2	2.28e-05	0	44	102	1048576	18	4705
2026-01-06 10:10:53.88	147.09	42.73	-29.2	-31.5	13.2	1.52e-05	0	44	102	1048576	18	4708
2026-01-06 10:10:54.89	147.00	43.01	-29.2	-31.5	13.2	1.83e-05	0	44	102	1048576	18	4726
2026-01-06 10:10:55.90	146.90	43.30	-29.3	-31.9	13.0	3.28e-05	0	44	102	1048576	18	4829
2026-01-06 10:10:56.91	146.81	43.59	-29.3	-31.8	13.1	3.35e-05	0	44	102	1048576	18	4797
2026-01-06 10:10:57.92	146.71	43.87	-29.5	-32.3	12.7	6.40e-05	0	44	102	1048576	18	4982
2026-01-06 10:10:58.92	146.61	44.16	-29.5	-31.8	12.7	7.32e-05	0	43	102	1048576	19	4701
2026-01-06 10:10:59.93	146.51	44.46	-29.5	-31.8	12.8	7.40e-05	0	44	102	1048576	19	4678
2026-01-06 10:11:00.94	146.40	44.75	-29.7	-32.3	12.4	1.12e-04	0	44	102	1048576	19	4873
2026-01-06 10:11:01.94	146.30	45.05	-29.7	-32.4	12.4	1.61e-04	0	44	102	1048576	19	4878
2026-01-06 10:11:02.95	146.19	45.34	-29.9	-32.7	12.2	2.29e-04	0	44	102	1048576	19	5007
2026-01-06 10:11:03.95	146.08	45.64	-29.9	-32.9	12.1	2.46e-04	0	44	102	1048576	19	5076
2026-01-06 10:11:04.96	145.97	45.95	-29.9	-32.9	12.0	3.21e-04	0	43	102	1048576	19	5064
2026-01-06 10:11:05.97	145.85	46.25	-29.9	-32.8	12.1	2.78e-04	0	43	102	1048576	19	5021
2026-01-06 10:11:06.98	145.73	46.56	-29.9	-32.8	12.1	2.19e-04	0	44	102	1048576	19	5021
2026-01-06 10:11:07.98	145.62	46.87	-29.5	-31.9	12.7	1.11e-04	0	43	102	1048576	19	4715
2026-01-06 10:11:08.98	145.49	47.18	-29.3	-31.3	13.1	4.42e-05	0	43	102	1048576	19	4548
2026-01-06 10:11:09.99	145.37	47.49	-29.2	-31.1	13.2	2.59e-05	0	44	102	1048576	19	4473
2026-01-06 10:11:11.00	145.24	47.81	-29.2	-31.1	13.2	2.89e-05	0	43	102	1048576	19	4477
2026-01-06 10:11:12.01	145.11	48.13	-29.0	-30.5	13.5	7.60e-06	0	43	102	1048576	19	4301
2026-01-06 10:11:13.01	144.98	48.44	-28.7	-30.4	13.9	5.30e-06	0	43	102	1048576	18	4360
2026-01-06 10:11:14.02	144.85	48.77	-28.7	-30.3	14.0	4.50e-06	0	43	102	1048576	18	4328
2026-01-06 10:11:15.03	144.71	49.09	-28.7	-30.4	13.9	3.00e-06	0	44	102	1048576	18	4371
2026-01-06 10:11:16.03	144.57	49.42	-28.8	-30.5	13.9	4.50e-06	0	43	102	1048576	18	4408
2026-01-06 10:11:17.04	144.42	49.75	-28.8	-30.5	13.9	1.50e-06	0	43	102	1048576	18	4400
2026-01-06 10:11:18.05	144.27	50.08	-28.9	-30.9	13.6	8.30e-06	0	43	102	1048576	18	4521
2026-01-06 10:11:19.05	144.13	50.41	-28.9	-30.8	13.7	6.80e-06	0	43	102	1048576	18	4495
2026-01-06 10:11:20.06	143.97	50.75	-28.9	-30.9	13.7	3.00e-06	0	44	102	1048576	18	4510
2026-01-06 10:11:21.07	143.81	51.08	-28.9	-30.7	13.8	5.30e-06	0	43	102	1048576	18	4463
2026-01-06 10:11:22.08	143.65	51.42	-28.8	-30.5	13.9	3.80e-06	0	44	102	1048576	18	4397
2026-01-06 10:11:23.08	143.49	51.76	-28.8	-30.6	13.8	3.80e-06	0	44	102	1048576	18	4415
2026-01-06 10:11:24.09	143.32	52.11	-28.5	-29.8	14.3	1.50e-06	0	43	102	1048576	18	4196
2026-01-06 10:11:25.09	143.14	52.45	-28.3	-29.4	14.5	0.00e+00	0	44	102	1048576	18	4082
2026-01-06 10:11:26.09	142.97	52.80	-28.2	-29.7	14.6	7.00e-07	0	43	102	1048576	17	4276
2026-01-06 10:11:27.09	142.79	53.15	-28.1	-29.5	14.8	1.50e-06	0	43	102	1048576	17	4202
2026-01-06 10:11:28.10	142.60	53.50	-28.2	-29.7	14.7	7.00e-07	0	44	102	1048576	17	4276
2026-01-06 10:11:29.11	142.41	53.86	-28.3	-29.8	14.6	0.00e+00	0	43	102	1048576	17	4285
2026-01-06 10:11:30.11	142.22	54.21	-28.3	-29.8	14.6	0.00e+00	0	43	102	1048576	17	4305
2026-01-06 10:11:31.13	142.01	54.58	-28.0	-29.2	15.0	7.00e-07	0	43	102	1048576	17	4119
2026-01-06 10:11:32.13	141.81	54.93	-27.8	-28.8	15.2	0.00e+00	0	43	102	1048576	17	4016
2026-01-06 10:11:33.13	141.60	55.29	-27.8	-28.8	15.2	0.00e+00	0	43	102	1048576	17	4029
2026-01-06 10:11:34.14	141.38	55.66	-28.0	-29.2	15.0	0.00e+00	0	43	102	1048576	17	4119
2026-01-06 10:11:35.15	141.16	56.03	-27.7	-29.0	15.4	0.00e+00	0	43	102	1048576	16	4180
2026-01-06 10:11:36.15	140.93	56.40	-27.7	-29.0	15.4	0.00e+00	0	44	102	1048576	16	4172
2026-01-06 10:11:37.16	140.69	56.77	-27.7	-29.0	15.3	7.00e-07	0	43	102	1048576	16	4178
2026-01-06 10:11:38.16	140.45	57.14	-27.8	-29.3	15.2	0.00e+00	0	43	102	1048576	16	4268
2026-01-06 10:11:39.17	140.20	57.52	-27.5	-28.4	15.7	0.00e+00	0	43	102	1048576	16	4027
2026-01-06 10:11:40.18	139.95	57.89	-27.0	-28.0	16.0	0.00e+00	0	43	102	1048576	15	4023
2026-01-06 10:11:41.18	139.69	58.27	-26.9	-27.6	16.2	0.00e+00	0	44	102	1048576	15	3939
2026-01-06 10:11:42.19	139.42	58.65	-26.7	-27.8	16.4	0.00e+00	0	43	102	1048576	14	4071
2026-01-06 10:11:43.20	139.14	59.04	-26.8	-28.1	16.3	0.00e+00	0	44	102	1048576	14	4157
2026-01-06 10:11:44.21	138.85	59.42	-27.1	-28.6	16.0	0.00e+00	0	44	102	1048576	14	4304
2026-01-06 10:11:45.21	138.56	59.81	-26.7	-27.9	16.4	0.00e+00	0	44	102	1048576	14	4102
2026-01-06 10:11:46.21	138.25	60.19	-26.4	-27.2	16.8	7.00e-07	0	44	102	1048576	14	3918
2026-01-06 10:11:47.22	137.94	60.58	-26.4	-27.0	16.9	0.00e+00	0	44	102	1048576	14	3890
2026-01-06 10:11:48.23	137.61	60.97	-26.5	-27.3	16.8	0.00e+00	0	44	102	1048576	14	3948
2026-01-06 10:11:49.23	137.28	61.36	-26.7	-27.7	16.5	2.20e-06	0	44	102	1048576	14	4063
2026-01-06 10:11:50.24	136.94	61.76	-26.4	-27.2	16.7	0.00e+00	0	43	102	1048576	14	3942
2026-01-06 10:11:51.25	136.58	62.16	-26.3	-27.3	17.0	0.00e+00	0	44	102	1048576	13	4053
2026-01-06 10:11:52.26	136.21	62.55	-26.2	-27.2	17.0	3.00e-06	0	43	102	1048576	13	4033
2026-01-06 10:11:53.26	135.83	62.95	-26.1	-26.9	17.2	0.00e+00	0	43	102	1048576	13	3966
2026-01-06 10:11:54.27	135.44	63.35	-26.1	-26.9	17.2	0.00e+00	0	44	102	1048576	13	3950
2026-01-06 10:11:55.27	135.03	63.75	-26.2	-27.3	17.0	0.00e+00	0	44	102	1048576	13	4058
2026-01-06 10:11:56.28	134.61	64.15	-26.3	-27.4	16.9	0.00e+00	0	43	102	1048576	13	4098
2026-01-06 10:11:57.28	134.18	64.55	-26.4	-27.6	16.8	0.00e+00	0	44	102	1048576	13	4152
2026-01-06 10:11:58.29	133.72	64.95	-26.6	-28.2	16.5	5.30e-06	0	43	102	1048576	13	4302
2026-01-06 10:11:59.29	133.26	65.35	-26.4	-27.5	16.9	0.00e+00	0	44	102	1048576	13	4122
2026-01-06 10:12:00.30	132.77	65.76	-26.2	-27.2	17.0	0.00e+00	0	44	102	1048576	13	4033
2026-01-06 10:12:01.31	132.26	66.16	-26.2	-27.2	17.0	0.00e+00	0	44	102	1048576	13	4029
2026-01-06 10:12:02.32	131.74	66.57	-26.0	-26.8	17.2	0.00e+00	0	43	102	1048576	13	3938
2026-01-06 10:12:03.32	131.20	66.97	-26.1	-27.0	17.1	0.00e+00	0	43	102	1048576	13	4000
2026-01-06 10:12:04.33	130.63	67.38	-26.6	-28.1	16.5	0.00e+00	0	44	102	1048576	13	4284
2026-01-06 10:12:05.34	130.04	67.78	-26.6	-28.2	16.5	0.00e+00	0	43	102	1048576	13	4296
2026-01-06 10:12:06.34	129.43	68.18	-26.7	-28.2	16.5	0.00e+00	0	44	102	1048576	13	4303
2026-01-06 10:12:07.35	128.79	68.59	-26.5	-27.8	16.7	0.00e+00	0	44	102	1048576	13	4207
2026-01-06 10:12:08.36	128.12	68.99	-26.4	-27.6	16.8	0.00e+00	0	43	102	1048576	13	4128
2026-01-06 10:12:09.37	127.43	69.40	-26.3	-27.5	16.8	0.00e+00	0	43	102	1048576	13	4108
2026-01-06 10:12:10.38	126.71	69.80	-26.3	-27.5	16.8	0.00e+00	0	44	102	1048576	13	4115
2026-01-06 10:12:11.39	125.95	70.20	-26.4	-27.6	16.7	0.00e+00	0	43	102	1048576	13	4135
2026-01-06 10:12:12.40	125.16	70.60	-25.9	-26.5	17.4	0.00e+00	0	43	102	1048576	13	3865
2026-01-06 10:12:13.40	124.34	70.99	-25.3	-26.3	18.0	0.00e+00	0	43	102	1048576	11	4009
2026-01-06 10:12:14.40	123.49	71.38	-25.5	-26.7	17.8	0.00e+00	0	43	102	1048576	11	4123
2026-01-06 10:12:15.41	122.59	71.77	-25.4	-26.4	18.0	0.00e+00	0	43	102	1048576	11	4048
2026-01-06 10:12:16.42	121.65	72.16	-25.7	-27.0	17.7	0.00e+00	0	44	102	1048576	11	4185
2026-01-06 10:12:17.42	120.67	72.54	-25.9	-27.0	17.4	0.00e+00	0	43	102	1048576	12	4089
2026-01-06 10:12:18.43	119.64	72.92	-26.0	-27.3	17.3	0.00e+00	0	44	102	1048576	12	4161
2026-01-06 10:12:19.43	118.57	73.29	-26.0	-27.2	17.3	0.00e+00	0	43	102	1048576	12	4138
2026-01-06 10:12:20.43	117.44	73.66	-25.6	-26.4	17.7	0.00e+00	0	43	102	1048576	12	3946
2026-01-06 10:12:21.44	116.26	74.03	-25.7	-26.6	17.6	0.00e+00	0	44	102	1048576	12	3993
2026-01-06 10:12:22.44	115.02	74.38	-25.4	-26.0	17.9	0.00e+00	0	44	102	1048576	12	3846
2026-01-06 10:12:23.44	113.73	74.73	-25.4	-26.3	18.1	0.00e+00	0	44	102	1048576	11	4021
2026-01-06 10:12:24.44	112.37	75.08	-25.5	-26.7	17.9	0.00e+00	0	43	102	1048576	11	4114
2026-01-06 10:12:25.44	110.95	75.41	-25.4	-26.5	18.0	0.00e+00	0	44	102	1048576	11	4066
2026-01-06 10:12:26.44	109.46	75.74	-25.4	-26.4	18.1	0.00e+00	0	44	102	1048576	11	4044
2026-01-06 10:12:27.45	107.88	76.06	-25.3	-26.2	18.2	0.00e+00	0	44	102	1048576	11	3998
2026-01-06 10:12:28.45	106.24	76.37	-25.7	-27.1	17.7	0.00e+00	0	44	102	1048576	11	4227
2026-01-06 10:12:29.45	104.52	76.67	-25.8	-27.3	17.6	0.00e+00	0	44	102	1048576	11	4284
2026-01-06 10:12:30.46	102.71	76.96	-25.8	-27.2	17.7	0.00e+00	0	43	102	1048576	11	4240
2026-01-06 10:12:31.47	100.81	77.24	-25.7	-27.1	17.8	0.00e+00	0	44	102	1048576	11	4212
2026-01-06 10:12:32.46	98.87	77.49	-25.8	-27.4	17.6	0.00e+00	0	43	102	1048576	11	4287
2026-01-06 10:12:33.47	96.81	77.74	-25.9	-27.5	17.5	0.00e+00	0	43	102	1048576	11	4338
2026-01-06 10:12:34.47	94.68	77.97	-26.3	-27.8	17.0	0.00e+00	0	43	102	1048576	12	4313
2026-01-06 10:12:35.48	92.45	78.19	-26.4	-28.0	16.8	0.00e+00	0	44	102	1048576	12	4366
2026-01-06 10:12:36.49	90.14	78.39	-26.6	-28.1	16.6	0.00e+00	0	44	102	1048576	13	4269
2026-01-06 10:12:37.49	87.77	78.56	-26.8	-28.4	16.5	0.00e+00	0	43	102	1048576	13	4356
2026-01-06 10:12:38.49	85.33	78.72	-26.4	-27.5	17.0	0.00e+00	0	44	102	1048576	13	4112
2026-01-06 10:12:39.49	82.83	78.86	-26.5	-27.9	16.8	0.00e+00	0	43	102	1048576	13	4215
2026-01-06 10:12:40.50	80.24	78.98	-26.5	-27.8	16.8	0.00e+00	0	43	102	1048576	13	4189
2026-01-06 10:12:41.51	77.60	79.07	-26.4	-27.7	16.9	0.00e+00	0	43	102	1048576	13	4149
2026-01-06 10:12:42.51	74.94	79.14	-26.4	-27.5	17.0	0.00e+00	0	43	102	1048576	13	4110
2026-01-06 10:12:43.52	72.23	79.19	-26.2	-27.2	17.1	0.00e+00	0	43	102	1048576	13	4024
2026-01-06 10:12:44.53	69.50	79.21	-26.0	-26.6	17.4	0.00e+00	0	43	102	1048576	13	3890
2026-01-06 10:12:45.54	66.76	79.21	-26.0	-26.7	17.4	0.00e+00	0	43	102	1048576	13	3899
2026-01-06 10:12:46.54	64.06	79.19	-26.2	-27.1	17.2	0.00e+00	0	43	102	1048576	13	3999
2026-01-06 10:12:47.55	61.35	79.14	-26.4	-27.5	16.9	0.00e+00	0	44	102	1048576	13	4101
2026-01-06 10:12:48.56	58.67	79.07	-26.5	-27.8	16.8	0.00e+00	0	43	102	1048576	13	4182
2026-01-06 10:12:49.57	56.03	78.97	-25.8	-26.3	17.6	0.00e+00	0	44	102	1048576	13	3802
2026-01-06 10:12:50.58	53.45	78.85	-25.7	-26.4	17.8	0.00e+00	0	44	102	1048576	12	3940
2026-01-06 10:12:51.59	50.92	78.71	-26.1	-27.5	17.3	0.00e+00	0	43	102	1048576	12	4209
2026-01-06 10:12:52.59	48.49	78.56	-25.9	-27.0	17.5	0.00e+00	0	44	102	1048576	12	4092
2026-01-06 10:12:53.59	46.12	78.38	-25.8	-26.8	17.7	0.00e+00	0	44	102	1048576	12	4031
2026-01-06 10:12:54.60	43.82	78.18	-26.2	-27.7	17.2	0.00e+00	0	44	102	1048576	12	4256
2026-01-06 10:12:55.60	41.61	77.97	-26.3	-27.8	17.1	0.00e+00	0	44	102	1048576	12	4292
2026-01-06 10:12:56.61	39.47	77.73	-26.4	-28.1	17.0	0.00e+00	0	43	102	1048576	12	4370
2026-01-06 10:12:57.62	37.41	77.48	-26.5	-27.8	16.8	7.00e-07	0	43	102	1048576	13	4179
2026-01-06 10:12:58.63	35.43	77.22	-26.5	-27.7	16.9	0.00e+00	0	43	102	1048576	13	4158
2026-01-06 10:12:59.64	33.54	76.94	-26.3	-27.4	17.1	0.00e+00	0	43	102	1048576	13	4062
2026-01-06 10:13:00.65	31.74	76.65	-26.2	-27.2	17.2	9.10e-06	0	44	102	1048576	13	4026
2026-01-06 10:13:01.65	30.03	76.36	-26.5	-27.7	16.9	0.00e+00	0	43	102	1048576	13	4164
2026-01-06 10:13:02.66	28.38	76.04	-26.3	-27.3	17.0	0.00e+00	0	44	102	1048576	13	4047
2026-01-06 10:13:03.67	26.81	75.72	-25.9	-26.6	17.4	0.00e+00	0	44	102	1048576	13	3870
2026-01-06 10:13:04.68	25.31	75.39	-26.0	-26.7	17.4	0.00e+00	0	43	102	1048576	13	3909
2026-01-06 10:13:05.69	23.88	75.05	-25.7	-26.7	17.7	0.00e+00	0	43	102	1048576	12	3998
2026-01-06 10:13:06.69	22.53	74.71	-25.8	-26.8	17.6	0.00e+00	0	44	102	1048576	12	4027
2026-01-06 10:13:07.69	21.24	74.35	-25.9	-27.0	17.5	0.00e+00	0	43	102	1048576	12	4084
2026-01-06 10:13:08.70	20.00	73.99	-26.2	-27.6	17.2	0.00e+00	0	43	102	1048576	12	4241
2026-01-06 10:13:09.71	18.82	73.63	-26.6	-27.9	16.7	0.00e+00	0	44	102	1048576	13	4210
2026-01-06 10:13:10.71	17.70	73.26	-26.1	-26.9	17.3	0.00e+00	0	44	102	1048576	13	3942
2026-01-06 10:13:11.72	16.63	72.88	-25.8	-26.3	17.6	0.00e+00	0	43	102	1048576	13	3816
2026-01-06 10:13:12.72	15.61	72.51	-26.0	-26.8	17.4	0.00e+00	0	43	102	1048576	13	3913
2026-01-06 10:13:13.73	14.63	72.12	-26.2	-27.1	17.1	0.00e+00	0	44	102	1048576	13	3997
2026-01-06 10:13:14.74	13.69	71.73	-26.6	-28.1	16.5	0.00e+00	0	43	102	1048576	13	4259
2026-01-06 10:13:15.75	12.80	71.34	-26.1	-27.0	17.2	0.00e+00	0	43	102	1048576	13	3968
2026-01-06 10:13:16.75	11.95	70.95	-25.6	-26.2	17.8	0.00e+00	0	44	102	1048576	12	3893
2026-01-06 10:13:17.76	11.13	70.56	-25.1	-25.8	18.4	0.00e+00	0	43	102	1048576	11	3881
2026-01-06 10:13:18.76	10.35	70.16	-24.9	-25.3	18.6	0.00e+00	0	43	102	1048576	11	3782
2026-01-06 10:13:19.76	9.61	69.77	-25.4	-26.4	18.1	0.00e+00	0	43	102	1048576	11	4045
2026-01-06 10:13:20.77	8.89	69.37	-26.1	-27.4	17.2	0.00e+00	0	43	102	1048576	12	4208
2026-01-06 10:13:21.77	8.21	68.97	-26.5	-27.8	16.6	0.00e+00	0	43	102	1048576	13	4189
2026-01-06 10:13:22.78	7.54	68.57	-26.5	-27.9	16.6	0.00e+00	0	44	102	1048576	13	4226
2026-01-06 10:13:23.79	6.91	68.16	-26.4	-27.7	16.8	0.00e+00	0	43	102	1048576	13	4158
2026-01-06 10:13:24.79	6.30	67.76	-26.5	-27.9	16.7	0.00e+00	0	43	102	1048576	13	4204
2026-01-06 10:13:25.80	5.71	67.36	-26.6	-28.2	16.5	0.00e+00	0	44	102	1048576	13	4284
2026-01-06 10:13:26.81	5.15	66.95	-27.0	-28.5	16.1	0.00e+00	0	44	102	1048576	14	4271
2026-01-06 10:13:27.82	4.60	66.55	-27.5	-29.5	15.6	0.00e+00	0	43	102	1048576	14	4553
2026-01-06 10:13:28.82	4.09	66.15	-27.1	-28.2	16.0	0.00e+00	0	43	102	1048576	15	4069
2026-01-06 10:13:29.83	3.58	65.74	-26.2	-27.2	17.0	0.00e+00	0	43	102	1048576	13	4032
2026-01-06 10:13:30.84	3.10	65.34	-26.0	-26.7	17.3	0.00e+00	0	43	102	1048576	13	3912
2026-01-06 10:13:31.85	2.63	64.94	-26.4	-27.5	16.9	0.00e+00	0	43	102	1048576	13	4113
2026-01-06 10:13:32.86	2.18	64.53	-26.4	-27.7	16.6	0.00e+00	0	44	102	1048576	13	4157
2026-01-06 10:13:33.87	1.74	64.13	-26.6	-28.0	16.5	0.00e+00	0	44	102	1048576	13	4244
2026-01-06 10:13:34.88	1.32	63.73	-27.0	-28.9	16.1	0.00e+00	0	44	102	1048576	13	4492
2026-01-06 10:13:35.89	0.91	63.33	-27.1	-28.7	16.0	0.00e+00	0	43	102	1048576	14	4326
2026-01-06 10:13:36.89	0.53	62.93	-27.1	-28.7	15.8	0.00e+00	0	43	102	1048576	14	4310
2026-01-06 10:13:37.90	0.15	62.54	-26.9	-28.2	15.9	0.00e+00	0	44	102	1048576	14	4187
2026-01-06 10:13:38.90	359.78	62.14	-26.8	-28.0	16.3	0.00e+00	0	43	102	1048576	14	4123
2026-01-06 10:13:39.91	359.43	61.75	-27.3	-29.0	15.8	0.00e+00	0	44	102	1048576	14	4412
2026-01-06 10:13:40.91	359.08	61.36	-27.3	-29.1	15.8	0.00e+00	0	43	102	1048576	14	4434
2026-01-06 10:13:41.92	358.75	60.97	-28.6	-30.6	14.2	0.00e+00	0	43	102	1048576	17	4532
2026-01-06 10:13:42.93	358.43	60.58	-29.0	-31.1	13.7	1.14e-05	0	43	102	1048576	18	4555
2026-01-06 10:13:43.93	358.12	60.19	-29.4	-32.0	13.1	1.44e-05	0	43	102	1048576	18	4854
2026-01-06 10:13:44.94	357.81	59.80	-28.7	-30.2	13.9	7.60e-06	0	43	102	1048576	18	4310
2026-01-06 10:13:45.95	357.52	59.42	-27.8	-28.8	14.9	7.00e-07	0	43	102	1048576	17	4028
2026-01-06 10:13:46.96	357.23	59.03	-27.0	-27.9	15.9	0.00e+00	0	43	102	1048576	15	3995
2026-01-06 10:13:47.96	356.96	58.65	-26.8	-27.9	16.3	0.00e+00	0	43	102	1048576	14	4095
2026-01-06 10:13:48.97	356.69	58.27	-27.0	-28.5	16.0	0.00e+00	0	43	102	1048576	14	4252
2026-01-06 10:13:49.98	356.42	57.89	-28.0	-30.1	14.8	0.00e+00	0	44	102	1048576	15	4609
2026-01-06 10:13:50.99	356.17	57.52	-28.2	-30.2	14.5	0.00e+00	0	44	102	1048576	16	4508
2026-01-06 10:13:51.99	355.92	57.15	-29.2	-31.6	13.2	1.29e-05	0	44	102	1048576	18	4708
2026-01-06 10:13:52.99	355.68	56.78	-29.1	-31.3	13.5	1.22e-05	0	43	102	1048576	18	4623
2026-01-06 10:13:54.00	355.45	56.40	-29.3	-31.7	13.2	2.28e-05	0	43	102	1048576	18	4766
2026-01-06 10:13:55.00	355.22	56.04	-28.4	-29.6	14.5	2.20e-06	0	43	102	1048576	18	4122
2026-01-06 10:13:56.01	355.00	55.67	-28.3	-29.3	14.7	0.00e+00	0	44	102	1048576	18	4049
2026-01-06 10:13:57.01	354.79	55.31	-28.7	-30.4	14.1	0.00e+00	0	43	102	1048576	18	4346
2026-01-06 10:13:58.02	354.58	54.95	-28.8	-30.4	14.0	0.00e+00	0	44	102	1048576	18	4361
2026-01-06 10:13:59.02	354.37	54.59	-29.3	-31.8	13.2	1.83e-05	0	43	102	1048576	18	4793
2026-01-06 10:14:00.03	354.17	54.23	-29.2	-31.6	13.3	1.90e-05	0	44	102	1048576	18	4713
2026-01-06 10:14:01.04	353.98	53.88	-29.7	-32.2	12.6	4.65e-05	0	43	102	1048576	19	4817
2026-01-06 10:14:02.04	353.79	53.52	-30.4	-33.5	11.4	4.45e-04	0	43	102	1048576	20	5176
2026-01-06 10:14:03.05	353.60	53.17	-30.2	-32.9	11.8	5.89e-04	0	44	102	1048576	20	4962
2026-01-06 10:14:04.05	353.42	52.83	-29.7	-31.8	12.5	1.89e-04	0	43	102	1048576	20	4590
2026-01-06 10:14:05.06	353.24	52.48	-29.2	-31.0	13.3	2.36e-05	0	43	102	1048576	19	4439
2026-01-06 10:14:06.07	353.07	52.13	-28.8	-30.1	13.9	6.10e-06	0	43	102	1048576	19	4157
2026-01-06 10:14:07.07	352.90	51.79	-28.6	-30.0	14.3	3.00e-06	0	43	102	1048576	18	4237
2026-01-06 10:14:08.08	352.74	51.45	-28.6	-30.0	14.3	7.00e-07	0	44	102	1048576	18	4230
2026-01-06 10:14:09.08	352.58	51.11	-28.9	-30.8	13.7	3.80e-06	0	43	102	1048576	18	4464
2026-01-06 10:14:10.09	352.42	50.78	-28.6	-30.0	14.2	1.50e-06	0	43	102	1048576	18	4253
2026-01-06 10:14:11.10	352.27	50.44	-28.4	-29.6	14.4	1.50e-06	0	44	102	1048576	18	4139
2026-01-06 10:14:12.11	352.12	50.11	-28.6	-30.1	14.1	1.50e-06	0	43	102	1048576	18	4282
2026-01-06 10:14:13.11	351.97	49.78	-29.0	-31.0	13.6	3.80e-06	0	43	102	1048576	18	4543
2026-01-06 10:14:14.11	351.83	49.46	-29.2	-31.5	13.3	1.75e-05	0	43	102	1048576	18	4707
2026-01-06 10:14:15.11	351.69	49.13	-29.8	-32.5	12.4	7.78e-05	0	44	102	1048576	19	4913
2026-01-06 10:14:16.11	351.55	48.81	-29.9	-32.5	12.1	2.85e-04	0	44	102	1048576	20	4813
2026-01-06 10:14:17.11	351.42	48.49	-29.9	-32.3	12.1	2.89e-04	0	44	102	1048576	20	4755
2026-01-06 10:14:18.12	351.29	48.18	-29.8	-32.1	12.2	2.37e-04	0	43	102	1048576	20	4675
2026-01-06 10:14:19.13	351.16	47.86	-29.5	-31.3	12.6	1.41e-04	0	43	102	1048576	20	4442
2026-01-06 10:14:20.14	351.03	47.54	-29.4	-30.9	13.0	4.57e-05	0	44	102	1048576	20	4319
2026-01-06 10:14:21.14	350.91	47.23	-29.4	-31.0	12.9	5.11e-05	0	43	102	1048576	20	4343
2026-01-06 10:14:22.15	350.79	46.92	-29.2	-31.0	13.3	1.90e-05	0	44	102	1048576	19	4424
2026-01-06 10:14:23.16	350.67	46.61	-29.3	-31.3	13.1	1.90e-05	0	43	102	1048576	19	4510
2026-01-06 10:14:24.17	350.55	46.31	-29.8	-32.4	12.4	1.17e-04	0	43	102	1048576	19	4894
2026-01-06 10:14:25.18	350.44	46.00	-30.0	-33.0	12.1	2.27e-04	0	44	102	1048576	19	5093
2026-01-06 10:14:26.18	350.33	45.70	-30.3	-33.4	11.3	9.44e-04	0	44	102	1048576	20	5140
2026-01-06 10:14:27.19	350.22	45.40	-30.1	-32.9	11.7	7.03e-04	0	43	102	1048576	20	4966
2026-01-06 10:14:28.20	350.11	45.10	-29.8	-32.1	12.3	3.01e-04	0	44	102	1048576	20	4666
2026-01-06 10:14:29.21	350.00	44.81	-29.6	-31.5	12.6	1.23e-04	0	44	102	1048576	20	4492
2026-01-06 10:14:30.21	349.90	44.52	-29.7	-31.7	12.4	1.62e-04	0	43	102	1048576	20	4561
2026-01-06 10:14:31.22	349.80	44.23	-29.5	-31.2	12.7	1.09e-04	0	43	102	1048576	20	4413
2026-01-06 10:14:32.22	349.70	43.94	-29.3	-31.2	13.1	3.89e-05	0	43	102	1048576	19	4486
2026-01-06 10:14:33.23	349.60	43.65	-29.4	-31.4	13.0	2.82e-05	0	44	102	1048576	19	4572
2026-01-06 10:14:34.23	349.50	43.37	-29.7	-32.4	12.2	1.23e-04	0	43	102	1048576	19	4910
2026-01-06 10:14:35.24	349.41	43.08	-29.9	-32.5	11.8	4.35e-04	0	44	102	1048576	20	4823
2026-01-06 10:14:36.24	349.32	42.80	-30.1	-32.8	11.6	5.65e-04	0	43	102	1048576	20	4941
2026-01-06 10:14:37.25	349.23	42.53	-29.9	-32.4	11.9	5.24e-04	0	44	102	1048576	20	4797
2026-01-06 10:14:38.26	349.14	42.25	-29.3	-30.8	12.9	9.07e-05	0	44	102	1048576	20	4288
2026-01-06 10:14:39.26	349.05	41.97	-29.0	-30.6	13.5	1.75e-05	0	43	102	1048576	19	4310
2026-01-06 10:14:40.27	348.96	41.70	-28.8	-30.2	13.7	5.30e-06	0	44	102	1048576	19	4196
2026-01-06 10:14:41.28	348.88	41.43	-29.0	-30.4	13.6	5.30e-06	0	43	102	1048576	19	4274
2026-01-06 10:14:42.28	348.80	41.16	-29.1	-30.7	13.4	1.44e-05	0	44	102	1048576	19	4363
2026-01-06 10:14:43.29	348.71	40.89	-28.9	-30.4	13.6	9.90e-06	0	43	102	1048576	19	4263
2026-01-06 10:14:44.29	348.63	40.63	-28.9	-30.4	13.6	9.10e-06	0	44	102	1048576	19	4261
2026-01-06 10:14:45.30	348.56	40.37	-29.0	-30.6	13.4	6.80e-06	0	44	102	1048576	19	4311
2026-01-06 10:14:46.31	348.48	40.10	-29.2	-31.1	13.1	2.13e-05	0	43	102	1048576	19	4467
2026-01-06 10:14:47.32	348.40	39.84	-29.3	-31.3	13.0	4.11e-05	0	44	102	1048576	19	4536
2026-01-06 10:14:48.32	348.33	39.59	-29.1	-30.9	13.3	2.05e-05	0	44	102	1048576	19	4394
2026-01-06 10:14:49.33	348.25	39.33	-29.0	-30.6	13.4	1.14e-05	0	44	102	1048576	19	4326
2026-01-06 10:14:50.34	348.18	39.08	-29.0	-30.6	13.5	1.14e-05	0	44	102	1048576	19	4318
2026-01-06 10:14:51.34	348.11	38.83	-29.1	-30.8	13.3	1.06e-05	0	43	102	1048576	19	4369
2026-01-06 10:14:52.35	348.04	38.58	-29.2	-31.1	13.1	3.12e-05	0	44	102	1048576	19	4477
2026-01-06 10:14:53.36	347.97	38.33	-29.3	-31.2	13.0	3.58e-05	0	44	102	1048576	19	4505
2026-01-06 10:14:54.36	347.90	38.08	-29.3	-31.3	12.9	4.19e-05	0	44	102	1048576	19	4549
2026-01-06 10:14:55.37	347.83	37.83	-29.3	-31.4	12.9	4.19e-05	0	44	102	1048576	19	4557
2026-01-06 10:14:56.37	347.77	37.59	-29.2	-31.1	13.1	6.25e-05	0	43	102	1048576	19	4492
2026-01-06 10:14:57.38	347.70	37.35	-28.8	-30.5	13.7	1.29e-05	0	43	102	1048576	18	4414
2026-01-06 10:14:58.38	347.64	37.11	-28.4	-29.6	14.3	1.50e-06	0	44	102	1048576	18	4139
2026-01-06 10:14:59.38	347.58	36.88	-28.1	-29.5	14.7	0.00e+00	0	43	102	1048576	17	4212
2026-01-06 10:15:00.39	347.51	36.64	-28.0	-29.3	14.7	0.00e+00	0	43	102	1048576	17	4165
2026-01-06 10:15:01.39	347.45	36.41	-28.0	-29.1	14.8	7.00e-07	0	44	102	1048576	17	4122
2026-01-06 10:15:02.39	347.39	36.17	-27.9	-28.9	14.9	0.00e+00	0	44	102	1048576	17	4064
2026-01-06 10:15:03.40	347.33	35.94	-28.0	-29.3	14.7	0.00e+00	0	44	102	1048576	17	4177
2026-01-06 10:15:04.40	347.28	35.71	-28.0	-29.3	14.7	0.00e+00	0	44	102	1048576	17	4167
2026-01-06 10:15:05.41	347.22	35.48	-28.1	-29.4	14.6	7.00e-07	0	43	102	1048576	17	4200
2026-01-06 10:15:06.42	347.16	35.26	-28.1	-29.4	14.7	0.00e+00	0	44	102	1048576	17	4197
2026-01-06 10:15:07.43	347.11	35.03	-28.1	-29.5	14.6	7.00e-07	0	44	102	1048576	17	4227
2026-01-06 10:15:08.43	347.05	34.81	-28.2	-29.7	14.5	0.00e+00	0	44	102	1048576	17	4265
2026-01-06 10:15:09.44	347.00	34.59	-28.2	-29.6	14.5	7.00e-07	0	44	102	1048576	17	4252
2026-01-06 10:15:10.45	346.94	34.36	-28.1	-29.5	14.6	7.00e-07	0	44	102	1048576	17	4234
2026-01-06 10:15:11.45	346.89	34.15	-28.1	-29.4	14.6	7.00e-07	0	43	102	1048576	17	4204
2026-01-06 10:15:12.46	346.84	33.93	-28.2	-29.6	14.5	0.00e+00	0	44	102	1048576	17	4247
2026-01-06 10:15:13.47	346.79	33.71	-28.1	-29.5	14.6	0.00e+00	0	43	102	1048576	17	4214
2026-01-06 10:15:14.48	346.74	33.50	-27.9	-28.9	14.9	0.00e+00	0	44	102	1048576	17	4063
2026-01-06 10:15:15.49	346.69	33.28	-27.7	-29.0	15.2	0.00e+00	0	44	102	1048576	16	4181
2026-01-06 10:15:16.49	346.64	33.07	-27.6	-28.7	15.3	0.00e+00	0	44	102	1048576	16	4124
2026-01-06 10:15:17.50	346.59	32.86	-27.4	-28.5	15.4	0.00e+00	0	44	102	1048576	16	4049
2026-01-06 10:15:18.50	346.54	32.65	-27.5	-28.5	15.4	0.00e+00	0	44	102	1048576	16	4061
2026-01-06 10:15:19.51	346.50	32.45	-27.5	-28.6	15.4	0.00e+00	0	44	102	1048576	16	4073
2026-01-06 10:15:20.52	346.45	32.24	-27.3	-28.2	15.6	0.00e+00	0	44	102	1048576	16	3978
2026-01-06 10:15:21.52	346.40	32.04	-27.1	-28.3	15.6	0.00e+00	0	44	102	1048576	15	4125
2026-01-06 10:15:22.53	346.36	31.83	-27.3	-28.7	15.4	0.00e+00	0	43	102	1048576	15	4226
2026-01-06 10:15:23.54	346.31	31.63	-27.4	-28.9	15.3	0.00e+00	0	44	102	1048576	15	4270
2026-01-06 10:15:24.55	346.27	31.43	-27.4	-29.0	15.3	0.00e+00	0	44	102	1048576	15	4307
2026-01-06 10:15:25.56	346.23	31.23	-27.5	-29.2	15.1	0.00e+00	0	44	102	1048576	15	4362
2026-01-06 10:15:26.57	346.18	31.03	-27.5	-29.2	15.1	0.00e+00	0	44	102	1048576	15	4375
2026-01-06 10:15:27.58	346.14	30.84	-27.6	-29.4	14.9	0.00e+00	0	44	102	1048576	15	4424
2026-01-06 10:15:28.59	346.10	30.64	-27.6	-29.3	15.0	0.00e+00	0	44	102	1048576	15	4392
2026-01-06 10:15:29.60	346.06	30.45	-27.5	-29.2	15.0	0.00e+00	0	43	102	1048576	15	4366
2026-01-06 10:15:30.61	346.02	30.25	-27.5	-29.0	15.1	0.00e+00	0	43	102	1048576	15	4321
2026-01-06 10:15:31.61	345.98	30.06	-27.4	-29.0	15.2	0.00e+00	0	44	102	1048576	15	4305
2026-01-06 10:15:32.62	345.94	29.87	-27.4	-28.9	15.2	0.00e+00	0	43	102	1048576	15	4289
2026-01-06 10:15:33.63	345.90	29.68	-27.4	-29.0	15.2	0.00e+00	0	43	102	1048576	15	4302
2026-01-06 10:15:34.63	345.86	29.50	-27.4	-28.9	15.2	0.00e+00	0	44	102	1048576	15	4283
2026-01-06 10:15:35.64	345.82	29.31	-27.5	-29.3	15.1	0.00e+00	0	43	102	1048576	15	4384
2026-01-06 10:15:36.65	345.78	29.12	-27.5	-29.2	15.0	0.00e+00	0	43	102	1048576	15	4380
2026-01-06 10:15:37.66	345.75	28.94	-27.5	-29.1	15.1	7.00e-07	0	44	102	1048576	15	4336
2026-01-06 10:15:38.66	345.71	28.76	-27.4	-29.0	15.2	1.50e-06	0	44	102	1048576	15	4300
2026-01-06 10:15:39.67	345.67	28.58	-27.5	-29.1	15.1	2.20e-06	0	43	102	1048576	15	4346
2026-01-06 10:15:40.67	345.64	28.40	-27.4	-28.9	15.2	0.00e+00	0	44	102	1048576	15	4295
2026-01-06 10:15:41.67	345.60	28.22	-27.3	-28.7	15.3	0.00e+00	0	44	102	1048576	15	4241
2026-01-06 10:15:42.68	345.57	28.04	-27.4	-28.9	15.3	0.00e+00	0	44	102	1048576	15	4273
2026-01-06 10:15:43.68	345.53	27.86	-27.2	-28.5	15.5	0.00e+00	0	43	102	1048576	15	4167
2026-01-06 10:15:44.69	345.50	27.69	-27.2	-28.5	15.5	0.00e+00	0	44	102	1048576	15	4167
2026-01-06 10:15:45.69	345.47	27.51	-27.2	-28.4	15.5	0.00e+00	0	44	102	1048576	15	4147
2026-01-06 10:15:46.69	345.43	27.34	-27.0	-27.9	15.7	0.00e+00	0	44	102	1048576	15	4022
2026-01-06 10:15:47.70	345.40	27.17	-26.8	-28.0	16.0	0.00e+00	0	44	102	1048576	14	4142
2026-01-06 10:15:48.71	345.37	27.00	-26.8	-28.0	16.0	0.00e+00	0	44	102	1048576	14	4155
2026-01-06 10:15:49.71	345.34	26.83	-26.7	-27.8	16.1	0.00e+00	0	44	102	1048576	14	4103
2026-01-06 10:15:50.71	345.31	26.66	-26.6	-27.7	16.1	0.00e+00	0	44	102	1048576	14	4070
2026-01-06 10:15:51.72	345.27	26.49	-26.7	-27.8	16.1	0.00e+00	0	44	102	1048576	14	4101
2026-01-06 10:15:52.73	345.24	26.32	-26.6	-27.7	16.1	0.00e+00	0	44	102	1048576	14	4072
2026-01-06 10:15:53.74	345.21	26.16	-26.6	-27.7	16.1	0.00e+00	0	44	102	1048576	14	4075
2026-01-06 10:15:54.74	345.18	25.99	-26.6	-27.7	16.1	0.00e+00	0	44	102	1048576	14	4055
2026-01-06 10:15:55.75	345.15	25.83	-26.8	-28.0	15.9	0.00e+00	0	44	102	1048576	14	4140
2026-01-06 10:15:56.76	345.12	25.66	-26.7	-27.9	16.0	0.00e+00	0	44	102	1048576	14	4116
2026-01-06 10:15:57.76	345.09	25.50	-26.8	-28.1	15.9	0.00e+00	0	43	102	1048576	14	4162
2026-01-06 10:15:58.76	345.07	25.34	-26.8	-28.1	15.9	0.00e+00	0	44	102	1048576	14	4176
2026-01-06 10:15:59.77	345.04	25.18	-26.8	-28.0	15.9	0.00e+00	0	44	102	1048576	14	4160
2026-01-06 10:16:00.77	345.01	25.02	-26.8	-28.0	15.9	0.00e+00	0	44	102	1048576	14	4148
2026-01-06 10:16:01.78	344.98	24.87	-26.7	-27.9	16.0	0.00e+00	0	44	102	1048576	14	4113
2026-01-06 10:16:02.78	344.95	24.71	-26.8	-28.2	15.8	0.00e+00	0	43	102	1048576	14	4195
2026-01-06 10:16:03.79	344.93	24.55	-26.7	-27.9	16.0	0.00e+00	0	44	102	1048576	14	4127
2026-01-06 10:16:04.79	344.90	24.40	-26.6	-27.5	16.1	0.00e+00	0	43	102	1048576	14	4026
2026-01-06 10:16:05.80	344.87	24.24	-26.6	-27.6	16.1	0.00e+00	0	43	102	1048576	14	4041
2026-01-06 10:16:06.81	344.85	24.09	-26.6	-27.6	16.1	0.00e+00	0	43	102	1048576	14	4037
2026-01-06 10:16:07.82	344.82	23.93	-26.7	-27.9	15.9	0.00e+00	0	44	102	1048576	14	4139
2026-01-06 10:16:08.82	344.80	23.78	-26.6	-27.7	16.0	0.00e+00	0	44	102	1048576	14	4081
2026-01-06 10:16:09.83	344.77	23.63	-26.6	-27.7	16.0	0.00e+00	0	44	102	1048576	14	4084
2026-01-06 10:16:10.84	344.75	23.48	-26.7	-27.8	16.0	0.00e+00	0	44	102	1048576	14	4100
2026-01-06 10:16:11.84	344.72	23.33	-26.7	-27.9	15.9	0.00e+00	0	44	102	1048576	14	4127
2026-01-06 10:16:12.85	344.70	23.18	-26.6	-27.7	16.0	0.00e+00	0	44	102	1048576	14	4071
2026-01-06 10:16:13.86	344.67	23.04	-26.7	-27.8	16.0	0.00e+00	0	44	102	1048576	14	4095
2026-01-06 10:16:14.87	344.65	22.89	-26.6	-27.7	16.0	0.00e+00	0	44	102	1048576	14	4076
2026-01-06 10:16:15.88	344.62	22.74	-26.7	-27.8	16.0	0.00e+00	0	44	102	1048576	14	4089
2026-01-06 10:16:16.88	344.60	22.60	-26.9	-28.2	15.8	0.00e+00	0	44	102	1048576	14	4205
2026-01-06 10:16:17.89	344.58	22.45	-26.7	-27.9	15.9	0.00e+00	0	44	102	1048576	14	4117
2026-01-06 10:16:18.90	344.55	22.31	-26.5	-27.5	16.1	0.00e+00	0	43	102	1048576	14	4024
2026-01-06 10:16:19.90	344.53	22.17	-26.5	-27.4	16.2	0.00e+00	0	44	102	1048576	14	4006
2026-01-06 10:16:20.91	344.51	22.02	-26.6	-27.6	16.1	0.00e+00	0	43	102	1048576	14	4054
2026-01-06 10:16:21.92	344.49	21.88	-26.5	-27.4	16.2	0.00e+00	0	43	102	1048576	14	4010
2026-01-06 10:16:22.92	344.46	21.74	-26.5	-27.5	16.1	0.00e+00	0	44	102	1048576	14	4014
2026-01-06 10:16:23.93	344.44	21.60	-26.5	-27.4	16.2	0.00e+00	0	43	102	1048576	14	4006
2026-01-06 10:16:24.93	344.42	21.47	-26.5	-27.4	16.1	0.00e+00	0	43	102	1048576	14	3999
2026-01-06 10:16:25.94	344.40	21.33	-26.7	-27.8	16.0	0.00e+00	0	43	102	1048576	14	4097
2026-01-06 10:16:26.95	344.38	21.19	-26.6	-27.6	16.0	0.00e+00	0	43	102	1048576	14	4043
2026-01-06 10:16:27.96	344.36	21.05	-26.4	-27.3	16.2	0.00e+00	0	44	102	1048576	14	3967
2026-01-06 10:16:28.96	344.34	20.92	-26.5	-27.4	16.1	0.00e+00	0	44	102	1048576	14	3991
2026-01-06 10:16:29.97	344.32	20.78	-26.5	-27.4	16.1	0.00e+00	0	44	102	1048576	14	3989
2026-01-06 10:16:30.98	344.30	20.65	-26.5	-27.4	16.1	0.00e+00	0	44	102	1048576	14	3995
2026-01-06 10:16:31.99	344.28	20.51	-26.6	-27.7	15.9	0.00e+00	0	44	102	1048576	14	4083
2026-01-06 10:16:32.99	344.26	20.38	-26.6	-27.6	16.0	0.00e+00	0	44	102	1048576	14	4049
2026-01-06 10:16:33.99	344.24	20.25	-26.6	-27.7	16.0	0.00e+00	0	44	102	1048576	14	4067
2026-01-06 10:16:35.00	344.22	20.12	-26.6	-27.8	15.9	0.00e+00	0	44	102	1048576	14	4091
2026-01-06 10:16:36.01	344.20	19.99	-26.7	-27.9	15.8	0.00e+00	0	43	102	1048576	14	4138
2026-01-06 10:16:37.01	344.18	19.86	-26.8	-28.0	15.8	0.00e+00	0	44	102	1048576	14	4156
2026-01-06 10:16:38.02	344.16	19.73	-26.8	-28.1	15.7	0.00e+00	0	44	102	1048576	14	4187
2026-01-06 10:16:39.02	344.14	19.60	-26.8	-28.2	15.7	7.00e-07	0	43	102	1048576	14	4198
2026-01-06 10:16:40.02	344.12	19.47	-26.9	-28.2	15.6	0.00e+00	0	44	102	1048576	14	4214
2026-01-06 10:16:41.03	344.10	19.34	-26.9	-28.3	15.6	0.00e+00	0	44	102	1048576	14	4245
2026-01-06 10:16:42.04	344.09	19.22	-27.0	-28.6	15.4	0.00e+00	0	44	102	1048576	14	4308
2026-01-06 10:16:43.04	344.07	19.09	-27.0	-28.5	15.5	0.00e+00	0	44	102	1048576	14	4291
2026-01-06 10:16:44.05	344.05	18.96	-27.1	-28.9	15.3	7.00e-07	0	44	102	1048576	14	4403
2026-01-06 10:16:45.06	344.03	18.84	-27.1	-28.7	15.4	0.00e+00	0	44	102	1048576	14	4344
2026-01-06 10:16:46.07	344.02	18.71	-27.2	-29.0	15.2	0.00e+00	0	44	102	1048576	14	4433
2026-01-06 10:16:47.07	344.00	18.59	-27.1	-28.8	15.3	0.00e+00	0	43	102	1048576	14	4382
2026-01-06 10:16:48.08	343.98	18.47	-27.1	-28.9	15.3	0.00e+00	0	44	102	1048576	14	4393
2026-01-06 10:16:49.08	343.97	18.35	-27.2	-28.9	15.2	7.00e-07	0	43	102	1048576	14	4414
2026-01-06 10:16:50.09	343.95	18.22	-27.2	-29.1	15.1	0.00e+00	0	44	102	1048576	14	4477
2026-01-06 10:16:51.10	343.93	18.10	-27.2	-29.2	15.1	0.00e+00	0	44	102	1048576	14	4484
2026-01-06 10:16:52.11	343.92	17.98	-27.4	-29.5	14.9	0.00e+00	0	44	102	1048576	14	4583
2026-01-06 10:16:53.12	343.90	17.86	-27.4	-29.5	14.9	0.00e+00	0	44	102	1048576	14	4598
2026-01-06 10:16:54.13	343.88	17.74	-27.5	-29.3	14.7	0.00e+00	0	44	102	1048576	15	4408
2026-01-06 10:16:55.13	343.87	17.62	-27.5	-29.2	14.8	0.00e+00	0	44	102	1048576	15	4393
2026-01-06 10:16:56.14	343.85	17.50	-27.6	-29.6	14.5	0.00e+00	0	44	102	1048576	15	4500
2026-01-06 10:16:57.14	343.84	17.39	-27.6	-29.4	14.7	7.00e-07	0	44	102	1048576	15	4439
2026-01-06 10:16:58.15	343.82	17.27	-27.5	-29.4	14.7	7.00e-07	0	44	102	1048576	15	4440
2026-01-06 10:16:59.16	343.81	17.15	-27.7	-29.7	14.4	0.00e+00	0	44	102	1048576	15	4551
2026-01-06 10:17:00.17	343.79	17.03	-27.7	-29.6	14.5	7.00e-07	0	44	102	1048576	15	4505
2026-01-06 10:17:01.17	343.78	16.92	-27.7	-29.7	14.5	0.00e+00	0	44	102	1048576	15	4536
2026-01-06 10:17:02.18	343.76	16.80	-27.8	-30.1	14.2	3.00e-06	0	44	102	1048576	15	4649
2026-01-06 10:17:03.19	343.75	16.69	-27.9	-30.1	14.2	0.00e+00	0	43	102	1048576	15	4671
2026-01-06 10:17:04.20	343.73	16.57	-27.8	-30.0	14.2	0.00e+00	0	44	102	1048576	15	4644
2026-01-06 10:17:05.20	343.72	16.46	-27.9	-30.2	14.1	7.00e-07	0	44	102	1048576	15	4685
2026-01-06 10:17:06.21	343.70	16.35	-28.2	-30.3	14.0	1.50e-06	0	44	102	1048576	16	4583
2026-01-06 10:17:07.22	343.69	16.24	-28.1	-30.2	14.0	3.80e-06	0	44	102	1048576	16	4570
2026-01-06 10:17:08.22	343.67	16.12	-28.1	-30.2	14.0	3.80e-06	0	44	102	1048576	16	4560
2026-01-06 10:17:09.23	343.66	16.01	-28.2	-30.4	13.9	3.80e-06	0	44	102	1048576	16	4625
2026-01-06 10:17:10.23	343.65	15.90	-28.0	-29.8	14.2	4.50e-06	0	44	102	1048576	16	4461
2026-01-06 10:17:11.24	343.63	15.79	-27.9	-29.7	14.3	7.00e-07	0	44	102	1048576	16	4413
2026-01-06 10:17:12.24	343.62	15.68	-27.9	-29.6	14.3	1.50e-06	0	44	102	1048576	16	4397
2026-01-06 10:17:13.25	343.61	15.57	-27.9	-29.7	14.2	2.20e-06	0	44	102	1048576	16	4432
2026-01-06 10:17:14.25	343.59	15.46	-27.9	-29.5	14.4	7.00e-07	0	44	102	1048576	16	4373
2026-01-06 10:17:15.26	343.58	15.36	-27.8	-29.5	14.4	2.20e-06	0	44	102	1048576	16	4354
2026-01-06 10:17:16.27	343.57	15.25	-27.8	-29.5	14.4	0.00e+00	0	43	102	1048576	16	4356
2026-01-06 10:17:17.28	343.55	15.14	-27.8	-29.5	14.3	7.00e-07	0	44	102	1048576	16	4364
2026-01-06 10:17:18.28	343.54	15.03	-27.8	-29.5	14.3	7.00e-07	0	44	102	1048576	16	4354
2026-01-06 10:17:19.29	343.53	14.93	-27.9	-29.5	14.3	2.20e-06	0	44	102	1048576	16	4372
2026-01-06 10:17:20.29	343.52	14.82	-27.9	-29.6	14.3	7.00e-07	0	44	102	1048576	16	4382
2026-01-06 10:17:21.30	343.50	14.72	-27.9	-29.6	14.3	1.50e-06	0	44	102	1048576	16	4393
2026-01-06 10:17:22.31	343.49	14.61	-27.9	-29.6	14.3	2.20e-06	0	43	102	1048576	16	4387
2026-01-06 10:17:23.32	343.48	14.50	-27.9	-29.8	14.2	7.00e-07	0	44	102	1048576	16	4438
2026-01-06 10:17:24.32	343.47	14.40	-28.0	-29.9	14.1	1.50e-06	0	44	102	1048576	16	4481
2026-01-06 10:17:25.33	343.46	14.30	-28.0	-29.9	14.1	0.00e+00	0	44	102	1048576	16	4477
2026-01-06 10:17:26.33	343.44	14.19	-28.0	-30.0	14.0	1.50e-06	0	44	102	1048576	16	4497
2026-01-06 10:17:27.33	343.43	14.09	-27.9	-29.7	14.1	7.00e-07	0	44	102	1048576	16	4437
2026-01-06 10:17:28.34	343.42	13.99	-28.1	-30.1	13.9	5.30e-06	0	44	102	1048576	16	4535
2026-01-06 10:17:29.34	343.41	13.89	-28.0	-30.0	14.0	1.50e-06	0	43	102	1048576	16	4517
2026-01-06 10:17:30.35	343.40	13.79	-28.1	-30.1	13.9	6.10e-06	0	44	102	1048576	16	4559
2026-01-06 10:17:31.35	343.39	13.68	-28.0	-30.0	14.0	4.50e-06	0	44	102	1048576	16	4513
2026-01-06 10:17:32.36	343.38	13.58	-28.0	-29.9	14.0	1.50e-06	0	43	102	1048576	16	4493
2026-01-06 10:17:33.37	343.37	13.48	-28.0	-29.9	14.0	7.00e-07	0	43	102	1048576	16	4490
2026-01-06 10:17:34.38	343.35	13.38	-28.0	-30.0	13.9	2.20e-06	0	44	102	1048576	16	4529
2026-01-06 10:17:35.39	343.34	13.28	-28.1	-30.1	13.9	4.50e-06	0	44	102	1048576	16	4534
2026-01-06 10:17:36.39	343.33	13.18	-28.0	-30.0	13.9	5.30e-06	0	44	102	1048576	16	4521
2026-01-06 10:17:37.40	343.32	13.09	-28.0	-30.0	13.9	3.80e-06	0	44	102	1048576	16	4523
2026-01-06 10:17:38.41	343.31	12.99	-28.1	-30.2	13.8	5.30e-06	0	43	102	1048576	16	4581
2026-01-06 10:17:39.42	343.30	12.89	-28.1	-30.1	13.9	2.20e-06	0	44	102	1048576	16	4560
2026-01-06 10:17:40.42	343.29	12.79	-28.1	-30.1	13.9	2.20e-06	0	44	102	1048576	16	4554
2026-01-06 10:17:41.43	343.28	12.69	-28.1	-30.2	13.8	8.30e-06	0	44	102	1048576	16	4575
2026-01-06 10:17:42.43	343.27	12.60	-28.1	-30.2	13.8	6.80e-06	0	43	102	1048576	16	4591
2026-01-06 10:17:43.43	343.26	12.50	-28.2	-30.3	13.7	6.10e-06	0	43	102	1048576	16	4615
2026-01-06 10:17:44.44	343.25	12.41	-28.3	-30.6	13.5	4.50e-06	0	44	102	1048576	16	4693
2026-01-06 10:17:45.44	343.24	12.31	-28.3	-30.6	13.5	1.14e-05	0	44	102	1048576	16	4708
2026-01-06 10:17:46.45	343.23	12.21	-28.3	-30.7	13.5	4.50e-06	0	43	102	1048576	16	4743
2026-01-06 10:17:47.46	343.22	12.12	-28.3	-30.8	13.4	9.90e-06	0	43	102	1048576	16	4762
2026-01-06 10:17:48.46	343.21	12.03	-28.2	-30.5	13.5	1.06e-05	0	44	102	1048576	16	4691
2026-01-06 10:17:49.46	343.20	11.93	-28.2	-30.5	13.6	1.22e-05	0	43	102	1048576	16	4680
2026-01-06 10:17:50.46	343.19	11.84	-28.3	-30.8	13.4	1.44e-05	0	44	102	1048576	16	4778
2026-01-06 10:17:51.47	343.18	11.74	-28.4	-30.9	13.3	2.21e-05	0	44	102	1048576	16	4796
2026-01-06 10:17:52.47	343.17	11.65	-28.3	-30.7	13.4	1.14e-05	0	44	102	1048576	16	4756
2026-01-06 10:17:53.47	343.16	11.56	-28.4	-31.0	13.2	2.59e-05	0	44	102	1048576	16	4844
2026-01-06 10:17:54.48	343.16	11.47	-28.5	-31.1	13.1	2.67e-05	0	44	102	1048576	16	4885
2026-01-06 10:17:55.48	343.15	11.38	-28.5	-31.1	13.1	1.75e-05	0	43	102	1048576	16	4886
2026-01-06 10:17:56.49	343.14	11.28	-28.5	-30.6	13.1	2.97e-05	0	43	102	1048576	17	4616
2026-01-06 10:17:57.49	343.13	11.19	-28.5	-30.7	13.1	2.51e-05	0	43	102	1048576	17	4619
2026-01-06 10:17:58.50	343.12	11.10	-28.6	-30.9	13.0	3.35e-05	0	43	102	1048576	17	4700
2026-01-06 10:17:59.51	343.11	11.01	-28.5	-30.8	13.0	3.35e-05	0	43	102	1048576	17	4668
2026-01-06 10:18:00.51	343.10	10.92	-28.5	-30.7	13.1	3.50e-05	0	44	102	1048576	17	4626
2026-01-06 10:18:01.52	343.09	10.83	-28.5	-30.7	13.1	3.20e-05	0	44	102	1048576	17	4637
2026-01-06 10:18:02.53	343.09	10.74	-28.6	-31.0	12.9	5.41e-05	0	44	102	1048576	17	4727
2026-01-06 10:18:03.54	343.08	10.65	-28.6	-31.0	12.8	5.72e-05	0	44	102	1048576	17	4741
2026-01-06 10:18:04.55	343.07	10.56	-28.6	-30.9	13.0	5.34e-05	0	44	102	1048576	17	4689
2026-01-06 10:18:05.56	343.06	10.47	-28.5	-30.8	13.0	2.67e-05	0	44	102	1048576	17	4671
2026-01-06 10:18:06.56	343.05	10.38	-28.6	-30.9	12.9	5.72e-05	0	43	102	1048576	17	4716
2026-01-06 10:18:07.57	343.04	10.30	-28.7	-31.2	12.7	7.47e-05	0	44	102	1048576	17	4804
2026-01-06 10:18:08.57	343.04	10.21	-28.7	-31.1	12.7	8.08e-05	0	44	102	1048576	17	4781
2026-01-06 10:18:09.58	343.03	10.12	-28.6	-31.0	12.8	6.63e-05	0	43	102	1048576	17	4740
2026-01-06 10:18:10.58	343.02	10.03	-28.6	-31.0	12.8	6.63e-05	0	44	102	1048576	17	4720
2026-01-06 10:18:11.59	343.01	9.95	-28.8	-31.4	12.6	9.53e-05	0	43	102	1048576	17	4861
2026-01-06 10:18:12.59	343.01	9.86	-28.8	-31.4	12.6	1.11e-04	0	43	102	1048576	17	4867
2026-01-06 10:18:13.60	343.00	9.77	-28.8	-31.5	12.5	1.17e-04	0	44	102	1048576	17	4898
2026-01-06 10:18:14.60	342.99	9.69	-28.8	-31.5	12.5	1.27e-04	0	44	102	1048576	17	4893
2026-01-06 10:18:15.61	342.98	9.60	-28.8	-31.4	12.5	1.11e-04	0	43	102	1048576	17	4886
2026-01-06 10:18:16.61	342.98	9.52	-28.9	-31.7	12.3	1.52e-04	0	44	102	1048576	17	4982
2026-01-06 10:18:17.62	342.97	9.43	-28.9	-31.7	12.3	2.10e-04	0	43	102	1048576	17	4994
2026-01-06 10:18:18.63	342.96	9.35	-28.9	-31.7	12.3	1.43e-04	0	44	102	1048576	17	5000
2026-01-06 10:18:19.63	342.95	9.26	-29.1	-31.8	11.9	3.41e-04	0	43	102	1048576	18	4917
2026-01-06 10:18:20.64	342.95	9.18	-29.3	-32.4	11.5	6.66e-04	0	44	102	1048576	18	5116
2026-01-06 10:18:21.65	342.94	9.09	-29.4	-32.5	11.4	9.07e-04	0	44	102	1048576	18	5171
2026-01-06 10:18:22.65	342.93	9.01	-29.3	-32.3	11.6	7.21e-04	0	44	102	1048576	18	5097
2026-01-06 10:18:23.66	342.93	8.93	-29.3	-32.3	11.6	7.70e-04	0	43	102	1048576	18	5075
2026-01-06 10:18:24.67	342.92	8.84	-29.2	-32.0	11.7	5.84e-04	0	44	102	1048576	18	4995
2026-01-06 10:18:25.67	342.91	8.76	-29.2	-32.1	11.7	5.35e-04	0	43	102	1048576	18	5020
2026-01-06 10:18:26.68	342.91	8.68	-29.3	-32.2	11.6	7.01e-04	0	43	102	1048576	18	5049
2026-01-06 10:18:27.68	342.90	8.60	-29.4	-32.6	11.3	9.58e-04	0	44	102	1048576	18	5204
2026-01-06 10:18:28.69	342.89	8.51	-29.3	-31.9	11.5	1.20e-03	0	44	102	1048576	19	4836
2026-01-06 10:18:29.70	342.89	8.43	-29.2	-31.5	11.7	6.12e-04	0	44	102	1048576	19	4695
2026-01-06 10:18:30.70	342.88	8.35	-29.0	-30.9	12.1	3.49e-04	0	44	102	1048576	19	4528
2026-01-06 10:18:31.71	342.87	8.27	-28.9	-30.8	12.2	2.49e-04	0	43	102	1048576	19	4477
2026-01-06 10:18:32.71	342.87	8.19	-28.9	-30.8	12.2	2.08e-04	0	43	102	1048576	19	4475
2026-01-06 10:18:33.72	342.86	8.11	-28.9	-30.7	12.2	2.33e-04	0	43	102	1048576	19	4445
2026-01-06 10:18:34.73	342.85	8.03	-29.0	-31.0	12.0	2.69e-04	0	44	102	1048576	19	4539
2026-01-06 10:18:35.74	342.85	7.95	-28.9	-30.8	12.1	2.53e-04	0	44	102	1048576	19	4495
2026-01-06 10:18:36.74	342.84	7.87	-28.9	-30.8	12.1	2.51e-04	0	44	102	1048576	19	4490
2026-01-06 10:18:37.75	342.83	7.79	-28.9	-30.9	12.1	2.80e-04	0	43	102	1048576	19	4506
2026-01-06 10:18:38.75	342.83	7.71	-29.0	-31.0	12.0	3.13e-04	0	44	102	1048576	19	4533
2026-01-06 10:18:39.75	342.82	7.63	-29.0	-30.9	12.0	2.94e-04	0	44	102	1048576	19	4525
2026-01-06 10:18:40.76	342.82	7.55	-29.0	-31.2	11.8	4.31e-04	0	44	102	1048576	19	4607
2026-01-06 10:18:41.76	342.81	7.47	-29.0	-31.1	11.9	4.10e-04	0	43	102	1048576	19	4576
2026-01-06 10:18:42.77	342.81	7.39	-29.0	-31.1	11.9	3.92e-04	0	44	102	1048576	19	4595
2026-01-06 10:18:43.77	342.80	7.32	-29.0	-31.2	11.8	3.94e-04	0	44	102	1048576	19	4605
2026-01-06 10:18:44.78	342.79	7.24	-29.1	-31.3	11.8	5.01e-04	0	44	102	1048576	19	4635
2026-01-06 10:18:45.78	342.79	7.16	-29.2	-31.6	11.5	7.48e-04	0	44	102	1048576	19	4745
2026-01-06 10:18:46.79	342.78	7.08	-31.7	-37.9	6.1	4.89e-02	0	44	102	1048576	23	7299
2026-01-06 10:18:47.80	342.78	7.01	-33.1	-44.8	3.8	1.49e+00	0	44	104	1048576	26	13799

#Closed at: 2026-01-06 10:18:48
#Recorded file [1 MB]: D:/data/31010_260106_130905.dat