passes_logs/2026/01/06/R2M6_AANII_01/R2M6_AANII_01__20260106_235510_NOAA_21_JPSS-2_rec.log

#Pass ID: 20260106_235510_NOAA 21 (JPSS-2)
#Satellite: NOAA 21 (JPSS-2)
#Configuration: NOAA 21
#almurnet v.1.7.20240730
#Start time: 2026-01-06 23:55:11

#Version: 2.2.20231116
#Station: R2M6_AANII_01
#Location: 30.233357 lon 59.946436 lat
#TLE: 1 54234U 22150A   26005.56767909  .00000152  00000+0  92756-4 0  9990
#TLE: 2 54234  98.7490 306.5820 0001036 340.2747  19.8389 14.19532370163472

#Time	Az	El	Level	Level2	SNR	BER	BlckErr	Temp	State	Recorded	gain1	gain2
2026-01-06 23:55:11.17	20.46	7.07	-30.1	-34.7	4.7	1.39e+00	0	41	0	0	20	6156
2026-01-06 23:55:12.17	20.49	7.15	-30.5	-35.5	4.6	1.41e+00	0	41	104	0	21	6445
2026-01-06 23:55:13.18	20.51	7.23	-30.4	-35.1	8.4	4.35e-02	0	41	0	0	20	6139
2026-01-06 23:55:14.18	20.54	7.30	-30.6	-35.2	7.9	7.52e-02	0	41	102	1048576	21	6107
2026-01-06 23:55:15.19	20.57	7.38	-30.6	-35.1	8.1	6.79e-02	0	41	102	1048576	21	6022
2026-01-06 23:55:16.20	20.60	7.46	-30.6	-35.1	8.0	6.28e-02	0	41	102	1048576	21	6054
2026-01-06 23:55:17.21	20.62	7.54	-30.8	-36.0	7.4	8.83e-02	0	41	102	1048576	21	6489
2026-01-06 23:55:18.21	20.65	7.61	-30.7	-35.5	7.8	8.95e-02	0	41	102	1048576	21	6253
2026-01-06 23:55:19.21	20.68	7.69	-30.9	-36.4	7.2	1.27e-01	0	41	102	1048576	21	6710
2026-01-06 23:55:20.22	20.71	7.77	-30.7	-35.4	7.8	9.33e-02	0	41	102	1048576	21	6172
2026-01-06 23:55:21.22	20.74	7.85	-30.4	-34.3	8.6	4.54e-02	0	41	102	1048576	21	5675
2026-01-06 23:55:22.22	20.76	7.93	-30.1	-33.9	9.3	2.23e-02	0	41	102	1048576	20	5601
2026-01-06 23:55:23.23	20.79	8.01	-29.9	-33.7	9.8	1.02e-02	0	41	102	1048576	19	5598
2026-01-06 23:55:24.23	20.82	8.08	-29.6	-33.0	10.3	7.45e-03	0	41	102	1048576	19	5286
2026-01-06 23:55:25.23	20.85	8.16	-29.4	-32.5	10.7	3.34e-03	0	41	102	1048576	19	5091
2026-01-06 23:55:26.24	20.88	8.24	-29.3	-32.6	11.0	2.86e-03	0	42	102	1048576	18	5254
2026-01-06 23:55:27.24	20.91	8.32	-29.2	-32.3	11.2	1.45e-03	0	42	102	1048576	18	5124
2026-01-06 23:55:28.24	20.94	8.40	-29.3	-32.6	11.0	1.60e-03	0	42	102	1048576	18	5248
2026-01-06 23:55:29.25	20.97	8.48	-29.5	-32.7	10.6	4.69e-03	0	42	102	1048576	19	5181
2026-01-06 23:55:30.26	21.00	8.56	-29.3	-32.6	11.0	2.88e-03	0	42	102	1048576	18	5244
2026-01-06 23:55:31.26	21.03	8.65	-29.5	-32.7	10.6	2.70e-03	0	42	102	1048576	19	5181
2026-01-06 23:55:32.27	21.06	8.73	-29.8	-33.3	10.1	7.86e-03	0	42	102	1048576	19	5435
2026-01-06 23:55:33.27	21.09	8.81	-29.4	-32.4	10.8	2.77e-03	0	42	102	1048576	19	5043
2026-01-06 23:55:34.28	21.12	8.89	-29.2	-32.2	11.3	1.01e-03	0	42	102	1048576	18	5082
2026-01-06 23:55:35.28	21.15	8.97	-29.4	-32.7	10.9	3.14e-03	0	42	102	1048576	18	5299
2026-01-06 23:55:36.29	21.18	9.05	-29.4	-32.8	11.0	3.16e-03	0	42	102	1048576	18	5302
2026-01-06 23:55:37.30	21.21	9.14	-29.4	-32.7	11.0	1.93e-03	0	42	102	1048576	18	5263
2026-01-06 23:55:38.31	21.24	9.22	-29.3	-32.5	11.1	1.76e-03	0	42	102	1048576	18	5209
2026-01-06 23:55:39.32	21.27	9.30	-29.3	-32.4	11.2	1.35e-03	0	42	102	1048576	18	5157
2026-01-06 23:55:40.33	21.30	9.39	-29.3	-32.6	11.1	1.55e-03	0	42	102	1048576	18	5233
2026-01-06 23:55:41.34	21.33	9.47	-29.5	-32.9	10.9	2.24e-03	0	42	102	1048576	18	5348
2026-01-06 23:55:42.35	21.36	9.56	-29.1	-32.0	11.5	1.23e-03	0	42	102	1048576	18	5014
2026-01-06 23:55:43.35	21.40	9.64	-29.0	-31.6	11.8	5.61e-04	0	42	102	1048576	18	4869
2026-01-06 23:55:44.36	21.43	9.72	-28.8	-31.6	11.0	3.18e-04	0	42	102	1048576	17	4987
2026-01-06 23:55:45.36	21.46	9.81	-28.8	-31.5	11.0	2.88e-04	0	42	102	1048576	17	4952
2026-01-06 23:55:46.36	21.49	9.89	-28.8	-31.7	12.1	2.59e-04	0	42	102	1048576	17	5000
2026-01-06 23:55:47.37	21.52	9.98	-28.9	-31.8	11.9	3.99e-04	0	42	102	1048576	17	5050
2026-01-06 23:55:48.37	21.56	10.06	-28.8	-31.7	12.0	2.56e-04	0	42	102	1048576	17	5000
2026-01-06 23:55:49.37	21.59	10.15	-28.9	-31.9	11.9	4.17e-04	0	42	102	1048576	17	5093
2026-01-06 23:55:50.38	21.62	10.24	-28.6	-31.1	12.5	1.62e-04	0	42	102	1048576	17	4793
2026-01-06 23:55:51.38	21.65	10.32	-28.3	-31.0	12.8	7.09e-05	0	42	102	1048576	16	4871
2026-01-06 23:55:52.39	21.69	10.41	-28.2	-30.7	13.0	2.67e-05	0	42	102	1048576	16	4764
2026-01-06 23:55:53.40	21.72	10.50	-28.4	-31.0	12.8	3.46e-03	0	42	102	1048576	16	4884
2026-01-06 23:55:54.41	21.75	10.58	-28.5	-30.8	12.7	1.17e-04	0	42	102	1048576	17	4697
2026-01-06 23:55:55.42	21.79	10.67	-28.3	-30.2	13.0	4.34e-05	0	42	102	1048576	17	4524
2026-01-06 23:55:56.43	21.82	10.76	-28.2	-30.6	13.1	3.28e-05	0	42	102	1048576	16	4742
2026-01-06 23:55:57.44	21.85	10.85	-28.3	-30.8	13.0	3.15e-03	0	42	102	1048576	16	4826
2026-01-06 23:55:58.44	21.89	10.94	-28.4	-31.1	12.8	7.17e-05	0	42	102	1048576	16	4903
2026-01-06 23:55:59.44	21.92	11.03	-28.2	-30.6	13.1	3.21e-03	0	42	102	1048576	16	4758
2026-01-06 23:56:00.45	21.96	11.12	-28.1	-30.4	13.2	2.13e-05	0	42	102	1048576	16	4675
2026-01-06 23:56:01.46	21.99	11.21	-28.1	-30.4	13.2	2.36e-05	0	42	102	1048576	16	4687
2026-01-06 23:56:02.47	22.03	11.30	-28.0	-30.6	13.3	3.42e-03	0	42	102	1048576	15	4867
2026-01-06 23:56:03.48	22.06	11.39	-27.8	-30.2	13.5	3.33e-03	0	42	102	1048576	15	4724
2026-01-06 23:56:04.48	22.10	11.48	-27.6	-29.6	13.8	4.50e-06	0	42	102	1048576	15	4564
2026-01-06 23:56:05.49	22.13	11.57	-27.5	-29.4	13.9	3.31e-03	0	42	102	1048576	15	4500
2026-01-06 23:56:06.49	22.17	11.66	-27.4	-29.8	14.0	2.76e-03	0	42	102	1048576	14	4711
2026-01-06 23:56:07.50	22.20	11.75	-27.5	-29.9	14.0	3.00e-06	0	42	102	1048576	14	4741
2026-01-06 23:56:08.50	22.24	11.84	-27.6	-29.7	13.9	3.02e-03	0	42	102	1048576	15	4568
2026-01-06 23:56:09.50	22.27	11.93	-27.6	-29.8	13.8	3.31e-03	0	42	102	1048576	15	4596
2026-01-06 23:56:10.51	22.31	12.03	-27.5	-29.5	13.9	2.20e-06	0	42	102	1048576	15	4518
2026-01-06 23:56:11.52	22.35	12.12	-27.5	-29.5	13.9	2.20e-06	0	42	102	1048576	15	4515
2026-01-06 23:56:12.52	22.38	12.21	-27.5	-29.5	13.9	3.29e-03	0	42	102	1048576	15	4531
2026-01-06 23:56:13.53	22.42	12.31	-27.4	-29.3	14.1	7.00e-07	0	42	102	1048576	15	4442
2026-01-06 23:56:14.54	22.46	12.40	-27.4	-29.7	14.2	3.40e-03	0	42	102	1048576	14	4676
2026-01-06 23:56:15.54	22.50	12.49	-27.4	-29.7	14.2	3.33e-03	0	42	102	1048576	14	4676
2026-01-06 23:56:16.55	22.53	12.59	-27.6	-29.6	13.9	5.30e-06	0	42	102	1048576	15	4556
2026-01-06 23:56:17.56	22.57	12.68	-27.8	-30.1	13.6	8.30e-06	0	42	102	1048576	15	4701
2026-01-06 23:56:18.56	22.61	12.78	-27.8	-30.2	13.5	3.23e-03	0	42	102	1048576	15	4741
2026-01-06 23:56:19.56	22.65	12.88	-27.6	-29.7	13.9	3.80e-06	0	43	102	1048576	15	4584
2026-01-06 23:56:20.57	22.69	12.97	-27.5	-29.3	14.1	3.10e-03	0	43	102	1048576	15	4471
2026-01-06 23:56:21.58	22.72	13.07	-27.4	-29.6	14.2	7.00e-07	0	43	102	1048576	14	4657
2026-01-06 23:56:22.59	22.76	13.17	-27.4	-29.6	14.2	1.50e-06	0	43	102	1048576	14	4665
2026-01-06 23:56:23.60	22.80	13.26	-27.5	-29.4	14.0	7.00e-07	0	42	102	1048576	15	4495
2026-01-06 23:56:24.61	22.84	13.36	-27.8	-30.2	13.6	6.80e-06	0	42	102	1048576	15	4713
2026-01-06 23:56:25.62	22.88	13.46	-27.9	-30.3	13.5	1.22e-05	0	43	102	1048576	15	4761
2026-01-06 23:56:26.62	22.92	13.56	-27.9	-30.4	13.4	6.80e-06	0	43	102	1048576	15	4810
2026-01-06 23:56:27.63	22.96	13.66	-28.4	-31.1	13.0	3.05e-05	0	43	102	1048576	16	4882
2026-01-06 23:56:28.64	23.00	13.76	-27.7	-29.7	13.1	4.42e-05	0	43	102	1048576	17	4510
2026-01-06 23:56:29.64	23.04	13.86	-28.2	-30.5	13.2	1.29e-05	0	43	102	1048576	16	4696
2026-01-06 23:56:30.65	23.08	13.96	-28.1	-30.4	13.4	1.52e-05	0	43	102	1048576	16	4654
2026-01-06 23:56:31.66	23.12	14.06	-27.8	-30.1	13.5	1.29e-05	0	43	102	1048576	15	4686
2026-01-06 23:56:32.66	23.17	14.16	-27.8	-30.1	13.6	6.10e-06	0	43	102	1048576	15	4681
2026-01-06 23:56:33.67	23.21	14.26	-27.8	-30.0	13.8	5.30e-06	0	43	102	1048576	15	4661
2026-01-06 23:56:34.67	23.25	14.36	-27.7	-29.8	13.8	4.50e-06	0	43	102	1048576	15	4609
2026-01-06 23:56:35.68	23.29	14.46	-27.7	-30.0	13.8	5.30e-06	0	43	102	1048576	15	4662
2026-01-06 23:56:36.69	23.33	14.57	-27.8	-30.1	13.7	5.30e-06	0	43	102	1048576	15	4697
2026-01-06 23:56:37.70	23.38	14.67	-28.0	-30.6	13.4	8.09e-04	0	43	102	1048576	15	4848
2026-01-06 23:56:38.70	23.42	14.77	-28.1	-30.2	13.5	1.52e-05	0	43	102	1048576	16	4610
2026-01-06 23:56:39.70	23.46	14.87	-27.7	-29.3	14.1	3.00e-06	0	43	102	1048576	16	4331
2026-01-06 23:56:40.70	23.50	14.98	-27.3	-28.9	14.4	2.20e-06	0	43	102	1048576	15	4326
2026-01-06 23:56:41.71	23.55	15.08	-27.1	-29.0	14.6	1.01e-03	0	43	102	1048576	14	4479
2026-01-06 23:56:42.71	23.59	15.19	-27.1	-29.0	14.7	7.00e-07	0	43	102	1048576	14	4468
2026-01-06 23:56:43.72	23.64	15.29	-27.3	-29.4	14.4	7.00e-07	0	43	102	1048576	14	4598
2026-01-06 23:56:44.73	23.68	15.40	-27.3	-29.3	14.5	0.00e+00	0	43	102	1048576	14	4567
2026-01-06 23:56:45.74	23.73	15.51	-27.1	-29.0	14.7	0.00e+00	0	43	102	1048576	14	4475
2026-01-06 23:56:46.75	23.77	15.61	-27.1	-29.0	14.7	1.06e-03	0	43	102	1048576	14	4469
2026-01-06 23:56:47.75	23.82	15.72	-27.1	-28.9	14.7	9.99e-04	0	43	102	1048576	14	4432
2026-01-06 23:56:48.75	23.86	15.83	-27.1	-28.9	14.7	0.00e+00	0	43	102	1048576	14	4445
2026-01-06 23:56:49.76	23.91	15.94	-27.1	-28.9	14.7	1.05e-03	0	43	102	1048576	14	4445
2026-01-06 23:56:50.76	23.95	16.04	-27.2	-29.2	14.6	7.00e-07	0	43	102	1048576	14	4529
2026-01-06 23:56:51.77	24.00	16.15	-27.1	-28.9	14.8	0.00e+00	0	43	102	1048576	14	4437
2026-01-06 23:56:52.78	24.05	16.26	-26.9	-28.9	15.0	8.25e-04	0	43	102	1048576	13	4550
2026-01-06 23:56:53.78	24.09	16.37	-26.9	-29.1	14.9	8.23e-04	0	43	102	1048576	13	4601
2026-01-06 23:56:54.79	24.14	16.48	-26.9	-29.0	15.0	0.00e+00	0	43	102	1048576	13	4569
2026-01-06 23:56:55.80	24.19	16.60	-26.8	-28.8	15.1	7.93e-04	0	43	102	1048576	13	4532
2026-01-06 23:56:56.81	24.24	16.71	-26.9	-29.0	15.0	7.61e-04	0	43	102	1048576	13	4571
2026-01-06 23:56:57.81	24.29	16.82	-26.9	-29.1	14.9	7.00e-07	0	43	102	1048576	13	4606
2026-01-06 23:56:58.82	24.33	16.93	-27.1	-28.9	14.8	6.67e-04	0	43	102	1048576	14	4433
2026-01-06 23:56:59.82	24.38	17.05	-27.3	-29.3	14.6	6.49e-04	0	43	102	1048576	14	4559
2026-01-06 23:57:00.83	24.43	17.16	-27.3	-29.3	14.6	0.00e+00	0	43	102	1048576	14	4567
2026-01-06 23:57:01.84	24.48	17.27	-27.4	-29.5	14.5	0.00e+00	0	43	102	1048576	14	4626
2026-01-06 23:57:02.84	24.53	17.39	-27.3	-29.5	14.5	6.03e-04	0	43	102	1048576	14	4605
2026-01-06 23:57:03.85	24.58	17.50	-27.5	-29.8	14.3	0.00e+00	0	43	102	1048576	14	4691
2026-01-06 23:57:04.86	24.63	17.62	-27.6	-29.5	14.2	5.78e-04	0	43	102	1048576	15	4515
2026-01-06 23:57:05.86	24.68	17.74	-27.7	-30.0	13.9	5.43e-04	0	43	102	1048576	15	4643
2026-01-06 23:57:06.87	24.74	17.85	-27.7	-29.7	14.0	3.80e-06	0	43	102	1048576	15	4574
2026-01-06 23:57:07.87	24.79	17.97	-27.5	-29.4	14.2	7.00e-07	0	43	102	1048576	15	4480
2026-01-06 23:57:08.88	24.84	18.09	-27.6	-29.7	14.1	7.00e-07	0	43	102	1048576	15	4555
2026-01-06 23:57:09.89	24.89	18.21	-27.6	-29.5	14.2	7.00e-07	0	43	102	1048576	15	4500
2026-01-06 23:57:10.90	24.95	18.33	-27.6	-29.8	13.2	4.58e-04	0	43	102	1048576	15	4602
2026-01-06 23:57:11.90	25.00	18.44	-28.1	-30.3	12.9	7.00e-07	0	43	102	1048576	15	4640
2026-01-06 23:57:12.91	25.05	18.57	-27.3	-28.9	14.5	7.00e-07	0	43	102	1048576	15	4333
2026-01-06 23:57:13.91	25.11	18.69	-27.3	-29.3	14.6	7.00e-07	0	43	102	1048576	14	4547
2026-01-06 23:57:14.91	25.16	18.81	-27.2	-29.2	14.6	3.22e-04	0	43	102	1048576	14	4525
2026-01-06 23:57:15.92	25.22	18.93	-27.2	-29.1	14.7	0.00e+00	0	43	102	1048576	14	4497
2026-01-06 23:57:16.93	25.27	19.05	-27.3	-29.3	14.6	7.00e-07	0	43	102	1048576	14	4559
2026-01-06 23:57:17.93	25.33	19.17	-27.2	-29.2	14.7	0.00e+00	0	43	102	1048576	14	4519
2026-01-06 23:57:18.94	25.38	19.30	-27.2	-29.2	14.7	7.00e-07	0	43	102	1048576	14	4515
2026-01-06 23:57:19.94	25.44	19.42	-27.4	-29.5	14.5	3.49e-04	0	43	102	1048576	14	4620
2026-01-06 23:57:20.95	25.50	19.55	-27.2	-29.2	14.7	4.35e-04	0	43	102	1048576	14	4510
2026-01-06 23:57:21.94	25.55	19.67	-27.1	-28.9	14.9	0.00e+00	0	43	102	1048576	14	4434
2026-01-06 23:57:22.94	25.61	19.79	-27.0	-28.7	15.0	0.00e+00	0	43	102	1048576	14	4372
2026-01-06 23:57:23.95	25.67	19.92	-27.0	-28.8	15.0	0.00e+00	0	43	102	1048576	14	4403
2026-01-06 23:57:24.96	25.73	20.05	-26.9	-28.4	15.2	0.00e+00	0	43	102	1048576	14	4295
2026-01-06 23:57:25.96	25.79	20.18	-26.7	-28.6	15.3	1.40e-03	0	43	102	1048576	13	4460
2026-01-06 23:57:26.97	25.85	20.31	-26.6	-28.3	15.5	1.44e-03	0	43	102	1048576	13	4381
2026-01-06 23:57:27.97	25.91	20.43	-26.7	-28.4	15.4	0.00e+00	0	43	102	1048576	13	4409
2026-01-06 23:57:28.97	25.97	20.56	-26.5	-28.2	15.6	0.00e+00	0	43	102	1048576	13	4331
2026-01-06 23:57:29.98	26.03	20.69	-26.5	-28.5	15.7	1.98e-03	0	43	102	1048576	12	4530
2026-01-06 23:57:30.98	26.09	20.82	-26.4	-28.3	15.8	0.00e+00	0	43	102	1048576	12	4482
2026-01-06 23:57:31.99	26.15	20.96	-26.2	-27.8	16.0	1.99e-03	0	43	102	1048576	12	4349
2026-01-06 23:57:33.00	26.22	21.09	-26.2	-27.9	16.0	0.00e+00	0	43	102	1048576	12	4381
2026-01-06 23:57:34.01	26.28	21.22	-26.3	-28.2	15.9	0.00e+00	0	43	102	1048576	12	4444
2026-01-06 23:57:35.01	26.34	21.36	-26.1	-27.7	16.1	2.25e-03	0	43	102	1048576	12	4311
2026-01-06 23:57:36.02	26.41	21.49	-26.0	-27.4	16.3	2.02e-03	0	43	102	1048576	12	4232
2026-01-06 23:57:37.02	26.47	21.62	-26.0	-27.4	16.3	0.00e+00	0	43	102	1048576	12	4245
2026-01-06 23:57:38.03	26.54	21.76	-25.9	-27.7	16.5	2.00e-03	0	43	102	1048576	11	4416
2026-01-06 23:57:39.04	26.60	21.90	-25.8	-27.6	16.5	1.84e-03	0	43	102	1048576	11	4383
2026-01-06 23:57:40.04	26.67	22.03	-25.9	-27.6	16.5	0.00e+00	0	43	102	1048576	11	4397
2026-01-06 23:57:41.05	26.74	22.17	-26.0	-27.3	16.3	1.79e-03	0	43	102	1048576	12	4214
2026-01-06 23:57:42.05	26.80	22.31	-25.9	-27.6	16.5	1.72e-03	0	43	102	1048576	11	4407
2026-01-06 23:57:43.06	26.87	22.45	-25.8	-27.4	16.6	0.00e+00	0	43	102	1048576	11	4340
2026-01-06 23:57:44.06	26.94	22.59	-25.7	-27.3	16.7	1.56e-03	0	43	102	1048576	11	4320
2026-01-06 23:57:45.07	27.01	22.73	-25.8	-27.5	16.6	0.00e+00	0	43	102	1048576	11	4358
2026-01-06 23:57:46.08	27.08	22.87	-25.8	-27.3	16.7	0.00e+00	0	43	102	1048576	11	4322
2026-01-06 23:57:47.09	27.15	23.02	-25.8	-27.5	16.6	1.57e-03	0	43	102	1048576	11	4375
2026-01-06 23:57:48.10	27.22	23.16	-25.7	-27.3	16.7	9.76e-04	0	43	102	1048576	11	4303
2026-01-06 23:57:49.10	27.29	23.30	-25.9	-27.6	16.6	0.00e+00	0	43	102	1048576	11	4387
2026-01-06 23:57:50.10	27.36	23.45	-25.9	-27.6	16.6	0.00e+00	0	43	102	1048576	11	4394
2026-01-06 23:57:51.11	27.44	23.59	-26.0	-27.8	16.5	0.00e+00	0	43	102	1048576	11	4445
2026-01-06 23:57:52.11	27.51	23.74	-25.9	-27.7	16.5	0.00e+00	0	43	102	1048576	11	4421
2026-01-06 23:57:53.12	27.58	23.88	-26.0	-27.4	16.4	5.68e-04	0	43	102	1048576	12	4219
2026-01-06 23:57:54.13	27.66	24.03	-26.1	-27.7	16.2	5.21e-04	0	43	102	1048576	12	4301
2026-01-06 23:57:55.14	27.73	24.18	-26.0	-27.3	16.4	0.00e+00	0	43	102	1048576	12	4206
2026-01-06 23:57:56.15	27.81	24.33	-25.8	-26.8	16.6	0.00e+00	0	43	102	1048576	12	4077
2026-01-06 23:57:57.15	27.89	24.48	-25.9	-27.7	16.6	0.00e+00	0	43	102	1048576	11	4415
2026-01-06 23:57:58.16	27.96	24.63	-26.0	-27.8	16.5	0.00e+00	0	43	102	1048576	11	4453
2026-01-06 23:57:59.17	28.04	24.79	-26.0	-27.5	16.3	4.32e-04	0	43	102	1048576	12	4251
2026-01-06 23:58:00.17	28.12	24.94	-26.2	-27.8	16.2	0.00e+00	0	43	102	1048576	12	4333
2026-01-06 23:58:01.18	28.20	25.09	-26.1	-27.5	16.3	0.00e+00	0	43	102	1048576	12	4261
2026-01-06 23:58:02.18	28.28	25.24	-26.0	-27.4	16.4	0.00e+00	0	43	102	1048576	12	4227
2026-01-06 23:58:03.19	28.36	25.40	-26.1	-27.7	16.2	0.00e+00	0	43	102	1048576	12	4304
2026-01-06 23:58:04.20	28.44	25.56	-26.1	-27.7	16.3	0.00e+00	0	43	102	1048576	12	4298
2026-01-06 23:58:05.21	28.53	25.71	-26.2	-27.9	16.1	0.00e+00	0	43	102	1048576	12	4375
2026-01-06 23:58:06.21	28.61	25.87	-26.3	-28.1	16.0	0.00e+00	0	43	102	1048576	12	4436
2026-01-06 23:58:07.22	28.69	26.03	-26.5	-28.5	15.8	0.00e+00	0	43	102	1048576	12	4523
2026-01-06 23:58:08.23	28.78	26.19	-26.5	-28.4	15.8	0.00e+00	0	43	102	1048576	12	4507
2026-01-06 23:58:09.24	28.87	26.35	-26.6	-28.2	15.7	0.00e+00	0	43	102	1048576	13	4331
2026-01-06 23:58:10.25	28.95	26.51	-26.7	-28.4	15.6	0.00e+00	0	43	102	1048576	13	4383
2026-01-06 23:58:11.26	29.04	26.68	-26.6	-28.3	15.7	0.00e+00	0	43	102	1048576	13	4355
2026-01-06 23:58:12.26	29.13	26.84	-26.6	-28.3	15.6	0.00e+00	0	43	102	1048576	13	4372
2026-01-06 23:58:13.27	29.22	27.00	-26.7	-28.4	15.6	0.00e+00	0	43	102	1048576	13	4384
2026-01-06 23:58:14.28	29.31	27.17	-26.8	-28.6	15.5	0.00e+00	0	43	102	1048576	13	4445
2026-01-06 23:58:15.28	29.40	27.33	-26.8	-28.6	15.5	0.00e+00	0	43	102	1048576	13	4439
2026-01-06 23:58:16.29	29.49	27.50	-26.8	-28.7	15.5	2.17e-04	0	43	102	1048576	13	4469
2026-01-06 23:58:17.29	29.58	27.67	-26.9	-28.9	15.4	0.00e+00	0	43	102	1048576	13	4525
2026-01-06 23:58:18.30	29.68	27.84	-27.0	-29.0	15.3	1.50e-06	0	43	102	1048576	13	4575
2026-01-06 23:58:19.31	29.77	28.01	-26.9	-28.8	15.4	0.00e+00	0	43	102	1048576	13	4509
2026-01-06 23:58:20.31	29.87	28.18	-26.9	-28.8	15.4	0.00e+00	0	43	102	1048576	13	4500
2026-01-06 23:58:21.31	29.96	28.35	-26.9	-29.0	15.3	0.00e+00	0	43	102	1048576	13	4547
2026-01-06 23:58:22.31	30.06	28.52	-26.9	-29.0	15.3	2.68e-04	0	43	102	1048576	13	4560
2026-01-06 23:58:23.32	30.16	28.69	-26.9	-29.0	15.3	2.73e-04	0	43	102	1048576	13	4561
2026-01-06 23:58:24.33	30.26	28.87	-27.0	-29.1	15.3	0.00e+00	0	43	102	1048576	13	4577
2026-01-06 23:58:25.33	30.36	29.04	-27.1	-28.9	15.1	0.00e+00	0	43	102	1048576	14	4420
2026-01-06 23:58:26.34	30.46	29.22	-27.2	-29.1	15.0	3.07e-04	0	43	102	1048576	14	4470
2026-01-06 23:58:27.35	30.57	29.40	-27.0	-28.6	15.3	0.00e+00	0	43	102	1048576	14	4324
2026-01-06 23:58:28.35	30.67	29.58	-26.9	-28.4	15.4	5.11e-04	0	43	102	1048576	14	4290
2026-01-06 23:58:29.36	30.77	29.76	-26.9	-28.4	15.4	0.00e+00	0	43	102	1048576	14	4281
2026-01-06 23:58:30.36	30.88	29.94	-26.9	-28.4	15.4	0.00e+00	0	43	102	1048576	14	4292
2026-01-06 23:58:31.37	30.99	30.12	-26.9	-28.4	15.4	5.36e-04	0	43	102	1048576	14	4283
2026-01-06 23:58:32.37	31.10	30.30	-26.7	-28.6	15.6	5.32e-04	0	43	102	1048576	13	4431
2026-01-06 23:58:33.38	31.21	30.49	-26.7	-28.5	15.6	0.00e+00	0	43	102	1048576	13	4425
2026-01-06 23:58:34.39	31.32	30.67	-26.7	-28.5	15.6	4.88e-04	0	43	102	1048576	13	4427
2026-01-06 23:58:35.39	31.43	30.86	-26.8	-28.5	15.6	3.97e-04	0	43	102	1048576	13	4428
2026-01-06 23:58:36.40	31.54	31.05	-26.7	-28.4	15.7	0.00e+00	0	43	102	1048576	13	4388
2026-01-06 23:58:37.41	31.66	31.23	-26.6	-28.1	15.8	2.38e-04	0	43	102	1048576	13	4310
2026-01-06 23:58:38.41	31.77	31.42	-26.6	-28.3	15.7	2.08e-04	0	43	102	1048576	13	4357
2026-01-06 23:58:39.42	31.89	31.61	-26.6	-28.3	15.8	0.00e+00	0	43	102	1048576	13	4352
2026-01-06 23:58:40.41	32.01	31.80	-26.6	-28.2	15.8	3.00e-04	0	43	102	1048576	13	4332
2026-01-06 23:58:41.42	32.13	32.00	-26.7	-28.4	15.7	0.00e+00	0	43	102	1048576	13	4372
2026-01-06 23:58:42.43	32.25	32.19	-26.7	-28.4	15.7	0.00e+00	0	43	102	1048576	13	4369
2026-01-06 23:58:43.44	32.37	32.39	-26.7	-28.5	15.7	6.09e-04	0	43	102	1048576	13	4396
2026-01-06 23:58:44.44	32.50	32.58	-26.9	-28.8	15.5	6.76e-04	0	43	102	1048576	13	4494
2026-01-06 23:58:45.45	32.62	32.78	-26.9	-28.8	15.5	0.00e+00	0	43	102	1048576	13	4494
2026-01-06 23:58:46.46	32.75	32.98	-26.9	-28.8	15.5	0.00e+00	0	43	102	1048576	13	4500
2026-01-06 23:58:47.47	32.88	33.18	-26.9	-28.8	15.5	0.00e+00	0	43	102	1048576	13	4487
2026-01-06 23:58:48.47	33.01	33.38	-26.9	-28.9	15.4	0.00e+00	0	43	102	1048576	13	4537
2026-01-06 23:58:49.48	33.14	33.58	-27.0	-28.6	15.3	1.17e-03	0	43	102	1048576	14	4335
2026-01-06 23:58:50.49	33.28	33.79	-27.1	-28.8	15.3	1.07e-03	0	43	102	1048576	14	4383
2026-01-06 23:58:51.49	33.41	33.99	-27.1	-28.9	15.2	0.00e+00	0	43	102	1048576	14	4408
2026-01-06 23:58:52.49	33.55	34.19	-27.2	-29.1	15.1	0.00e+00	0	43	102	1048576	14	4460
2026-01-06 23:58:53.50	33.68	34.40	-27.3	-29.2	15.0	0.00e+00	0	43	102	1048576	14	4497
2026-01-06 23:58:54.51	33.83	34.61	-27.4	-29.4	14.9	7.00e-07	0	43	102	1048576	14	4560
2026-01-06 23:58:55.51	33.97	34.82	-27.5	-29.3	14.7	7.85e-04	0	43	102	1048576	15	4419
2026-01-06 23:58:56.51	34.11	35.03	-27.8	-29.9	14.4	0.00e+00	0	43	102	1048576	15	4582
2026-01-06 23:58:57.52	34.25	35.24	-27.9	-30.2	14.2	7.00e-07	0	43	102	1048576	15	4682
2026-01-06 23:58:58.53	34.40	35.45	-28.2	-30.4	14.0	0.00e+00	0	43	102	1048576	16	4610
2026-01-06 23:58:59.54	34.55	35.67	-28.4	-30.7	13.8	4.50e-06	0	43	102	1048576	16	4728
2026-01-06 23:59:00.54	34.70	35.88	-28.6	-30.7	13.5	1.29e-05	0	43	102	1048576	17	4607
2026-01-06 23:59:01.55	34.86	36.10	-28.6	-30.8	13.5	9.90e-06	0	43	102	1048576	17	4626
2026-01-06 23:59:02.55	35.01	36.32	-28.6	-30.8	13.5	1.60e-05	0	43	102	1048576	17	4649
2026-01-06 23:59:03.55	35.17	36.54	-28.6	-30.7	13.5	7.60e-06	0	43	102	1048576	17	4611
2026-01-06 23:59:04.56	35.33	36.76	-28.7	-31.0	13.4	1.29e-05	0	44	102	1048576	17	4702
2026-01-06 23:59:05.57	35.49	36.98	-28.7	-30.9	13.4	1.44e-05	0	43	102	1048576	17	4672
2026-01-06 23:59:06.58	35.65	37.20	-28.8	-31.2	13.3	2.59e-05	0	43	102	1048576	17	4760
2026-01-06 23:59:07.58	35.82	37.43	-28.8	-31.2	13.2	1.37e-05	0	43	102	1048576	17	4756
2026-01-06 23:59:08.59	35.99	37.65	-28.9	-31.5	13.1	3.20e-05	0	43	102	1048576	17	4851
2026-01-06 23:59:09.59	36.15	37.88	-29.0	-31.7	13.0	3.28e-05	0	43	102	1048576	17	4917
2026-01-06 23:59:10.60	36.33	38.11	-29.2	-31.8	12.6	9.46e-05	0	43	102	1048576	18	4828
2026-01-06 23:59:11.61	36.50	38.34	-29.2	-31.8	12.6	1.94e-04	0	43	102	1048576	18	4841
2026-01-06 23:59:12.61	36.68	38.57	-29.2	-31.7	12.7	6.71e-05	0	43	102	1048576	18	4815
2026-01-06 23:59:13.62	36.86	38.80	-29.2	-31.8	12.6	9.23e-05	0	43	102	1048576	18	4858
2026-01-06 23:59:14.63	37.04	39.03	-29.1	-31.5	12.8	2.94e-04	0	43	102	1048576	18	4750
2026-01-06 23:59:15.63	37.23	39.27	-28.9	-30.9	13.1	2.97e-05	0	43	102	1048576	18	4560
2026-01-06 23:59:16.63	37.41	39.50	-28.7	-31.1	13.4	4.98e-04	0	43	102	1048576	17	4725
2026-01-06 23:59:17.64	37.60	39.74	-28.8	-31.2	13.3	6.13e-04	0	43	102	1048576	17	4744
2026-01-06 23:59:18.64	37.80	39.98	-28.9	-31.5	13.1	2.13e-05	0	43	102	1048576	17	4854
2026-01-06 23:59:19.65	37.99	40.22	-28.8	-31.2	13.3	5.80e-04	0	43	102	1048576	17	4749
2026-01-06 23:59:20.66	38.19	40.46	-28.6	-30.7	13.6	5.41e-04	0	43	102	1048576	17	4592
2026-01-06 23:59:21.67	38.39	40.70	-28.5	-30.5	13.7	6.10e-06	0	43	102	1048576	17	4516
2026-01-06 23:59:22.67	38.60	40.94	-28.3	-29.9	14.0	6.05e-04	0	43	102	1048576	17	4363
2026-01-06 23:59:23.68	38.81	41.19	-28.3	-30.4	14.2	7.00e-07	0	43	102	1048576	16	4593
2026-01-06 23:59:24.69	39.02	41.44	-28.1	-30.0	14.4	1.50e-06	0	43	102	1048576	16	4474
2026-01-06 23:59:25.69	39.23	41.68	-28.3	-30.5	14.0	1.75e-04	0	43	102	1048576	16	4643
2026-01-06 23:59:26.70	39.45	41.93	-28.4	-30.7	13.9	1.75e-05	0	43	102	1048576	16	4715
2026-01-06 23:59:27.70	39.67	42.18	-28.7	-30.9	13.6	9.90e-06	0	43	102	1048576	17	4641
2026-01-06 23:59:28.71	39.89	42.43	-28.7	-31.0	13.4	8.30e-06	0	43	102	1048576	17	4688
2026-01-06 23:59:29.72	40.12	42.68	-29.0	-31.6	13.1	2.05e-05	0	43	102	1048576	17	4887
2026-01-06 23:59:30.73	40.35	42.94	-28.8	-30.7	13.4	1.52e-05	0	44	102	1048576	18	4485
2026-01-06 23:59:31.73	40.58	43.19	-28.8	-30.6	13.4	4.95e-05	0	43	102	1048576	18	4465
2026-01-06 23:59:32.74	40.82	43.45	-28.8	-30.7	13.4	4.11e-05	0	44	102	1048576	18	4471
2026-01-06 23:59:33.75	41.07	43.71	-29.0	-31.1	13.1	3.05e-05	0	43	102	1048576	18	4615
2026-01-06 23:59:34.75	41.31	43.96	-29.1	-31.3	13.0	3.43e-05	0	44	102	1048576	18	4680
2026-01-06 23:59:35.76	41.56	44.22	-29.1	-31.5	12.9	4.73e-05	0	43	102	1048576	18	4718
2026-01-06 23:59:36.77	41.82	44.48	-29.1	-31.6	12.9	5.34e-05	0	44	102	1048576	18	4755
2026-01-06 23:59:37.78	42.07	44.75	-29.3	-31.8	12.7	7.24e-05	0	43	102	1048576	18	4847
2026-01-06 23:59:38.79	42.34	45.01	-29.2	-31.8	12.7	4.50e-05	0	44	102	1048576	18	4851
2026-01-06 23:59:39.79	42.60	45.27	-29.3	-32.1	12.6	8.69e-05	0	43	102	1048576	18	4938
2026-01-06 23:59:40.80	42.87	45.54	-29.5	-31.9	12.4	1.41e-04	0	43	102	1048576	19	4782
2026-01-06 23:59:41.81	43.15	45.81	-29.5	-31.9	12.4	1.50e-04	0	44	102	1048576	19	4741
2026-01-06 23:59:42.82	43.43	46.07	-29.3	-31.5	12.6	9.53e-05	0	43	102	1048576	19	4632
2026-01-06 23:59:43.83	43.72	46.34	-29.2	-31.1	12.9	5.18e-05	0	43	102	1048576	19	4495
2026-01-06 23:59:44.83	44.01	46.61	-29.1	-31.0	12.9	4.42e-05	0	43	102	1048576	19	4483
2026-01-06 23:59:45.83	44.30	46.88	-29.2	-31.3	12.8	8.77e-05	0	43	102	1048576	19	4562
2026-01-06 23:59:46.84	44.60	47.15	-29.3	-31.5	12.6	9.07e-05	0	43	102	1048576	19	4622
2026-01-06 23:59:47.84	44.90	47.42	-29.3	-31.5	12.6	7.85e-05	0	43	102	1048576	19	4626
2026-01-06 23:59:48.85	45.21	47.69	-29.2	-31.2	12.8	5.26e-05	0	43	102	1048576	19	4543
2026-01-06 23:59:49.85	45.53	47.97	-29.0	-30.7	13.1	2.28e-05	0	43	102	1048576	19	4378
2026-01-06 23:59:50.86	45.85	48.24	-29.0	-30.7	13.1	3.28e-05	0	43	102	1048576	19	4382
2026-01-06 23:59:51.86	46.17	48.51	-29.3	-31.3	12.7	3.66e-05	0	44	102	1048576	19	4573
2026-01-06 23:59:52.87	46.51	48.79	-29.3	-31.5	12.7	7.55e-05	0	43	102	1048576	19	4613
2026-01-06 23:59:53.88	46.85	49.07	-29.5	-32.0	12.3	1.14e-04	0	43	102	1048576	19	4801
2026-01-06 23:59:54.89	47.19	49.35	-29.6	-32.2	12.2	2.46e-04	0	43	102	1048576	19	4860
2026-01-06 23:59:55.89	47.54	49.62	-29.7	-32.3	12.2	2.10e-04	0	44	102	1048576	19	4905
2026-01-06 23:59:56.90	47.90	49.90	-29.2	-31.1	12.8	7.62e-05	0	43	102	1048576	19	4502
2026-01-06 23:59:57.89	48.26	50.18	-28.9	-30.3	13.3	2.89e-05	0	43	102	1048576	19	4265
2026-01-06 23:59:58.90	48.63	50.46	-28.5	-30.4	13.5	1.37e-05	0	44	102	1048576	18	4449
2026-01-06 23:59:59.90	49.01	50.74	-28.7	-30.4	13.6	9.10e-06	0	43	102	1048576	18	4396
2026-01-07 00:00:00.91	49.39	51.02	-28.3	-29.6	14.1	1.50e-06	0	43	102	1048576	18	4146
2026-01-07 00:00:01.91	49.78	51.30	-28.1	-29.4	14.5	1.67e-05	0	43	102	1048576	17	4210
2026-01-07 00:00:02.91	50.18	51.58	-27.9	-29.0	14.8	0.00e+00	0	44	102	1048576	17	4093
2026-01-07 00:00:03.92	50.58	51.86	-28.0	-29.2	14.7	0.00e+00	0	43	102	1048576	17	4141
2026-01-07 00:00:04.93	51.00	52.14	-27.8	-29.2	14.8	1.50e-06	0	44	102	1048576	16	4261
2026-01-07 00:00:05.93	51.42	52.42	-27.8	-29.3	14.9	0.00e+00	0	43	102	1048576	16	4270
2026-01-07 00:00:06.94	51.85	52.71	-27.7	-29.2	14.9	2.67e-05	0	44	102	1048576	16	4258
2026-01-07 00:00:07.95	52.29	52.99	-27.6	-29.5	14.9	1.22e-04	0	43	102	1048576	15	4455
2026-01-07 00:00:08.95	52.73	53.27	-27.2	-28.5	15.4	0.00e+00	0	43	102	1048576	15	4190
2026-01-07 00:00:09.96	53.19	53.55	-27.0	-28.1	15.6	0.00e+00	0	43	102	1048576	15	4069
2026-01-07 00:00:10.97	53.66	53.83	-27.1	-28.7	15.6	0.00e+00	0	43	102	1048576	14	4335
2026-01-07 00:00:11.98	54.13	54.11	-27.0	-28.6	15.7	0.00e+00	0	43	102	1048576	14	4306
2026-01-07 00:00:12.98	54.61	54.39	-27.1	-28.8	15.6	6.48e-05	0	43	102	1048576	14	4381
2026-01-07 00:00:13.99	55.10	54.67	-27.2	-28.9	15.5	1.01e-04	0	43	102	1048576	14	4394
2026-01-07 00:00:15.00	55.61	54.95	-27.1	-28.7	15.6	0.00e+00	0	43	102	1048576	14	4353
2026-01-07 00:00:16.01	56.12	55.23	-27.0	-28.5	15.7	0.00e+00	0	43	102	1048576	14	4271
2026-01-07 00:00:17.02	56.64	55.51	-26.8	-28.1	15.9	1.78e-04	0	43	102	1048576	14	4175
2026-01-07 00:00:18.02	57.17	55.79	-26.9	-28.2	15.9	0.00e+00	0	43	102	1048576	14	4200
2026-01-07 00:00:19.02	57.71	56.06	-27.3	-29.3	15.3	1.89e-04	0	43	102	1048576	14	4507
2026-01-07 00:00:20.03	58.27	56.34	-26.9	-28.2	15.8	2.05e-04	0	43	102	1048576	14	4205
2026-01-07 00:00:21.04	58.83	56.61	-27.1	-28.7	15.6	0.00e+00	0	44	102	1048576	14	4348
2026-01-07 00:00:22.05	59.41	56.88	-27.0	-28.6	15.7	1.23e-04	0	43	102	1048576	14	4293
2026-01-07 00:00:23.06	60.00	57.16	-27.2	-29.0	15.5	2.04e-04	0	44	102	1048576	14	4418
2026-01-07 00:00:24.07	60.60	57.43	-27.3	-29.2	15.4	0.00e+00	0	43	102	1048576	14	4481
2026-01-07 00:00:25.07	61.21	57.69	-27.5	-29.2	15.1	1.46e-04	0	44	102	1048576	15	4377
2026-01-07 00:00:26.07	61.83	57.96	-27.5	-29.3	15.0	3.13e-04	0	43	102	1048576	15	4395
2026-01-07 00:00:27.08	62.46	58.22	-27.4	-28.9	15.3	0.00e+00	0	44	102	1048576	15	4291
2026-01-07 00:00:28.08	63.11	58.48	-26.7	-27.8	16.2	1.44e-05	0	43	102	1048576	14	4082
2026-01-07 00:00:29.09	63.77	58.74	-26.3	-26.9	16.6	1.47e-04	0	44	102	1048576	14	3864
2026-01-07 00:00:30.10	64.44	59.00	-26.2	-27.1	16.8	0.00e+00	0	43	102	1048576	13	4028
2026-01-07 00:00:31.10	65.12	59.25	-26.2	-27.2	16.7	9.23e-05	0	43	102	1048576	13	4056
2026-01-07 00:00:32.11	65.83	59.50	-26.3	-27.5	16.6	2.20e-06	0	43	102	1048576	13	4107
2026-01-07 00:00:33.12	66.54	59.75	-26.6	-28.0	16.3	0.00e+00	0	43	102	1048576	13	4242
2026-01-07 00:00:34.12	67.26	60.00	-26.6	-28.2	16.3	4.80e-05	0	43	102	1048576	13	4297
2026-01-07 00:00:35.13	68.01	60.24	-26.9	-28.7	15.9	1.31e-04	0	43	102	1048576	13	4462
2026-01-07 00:00:36.14	68.76	60.48	-27.1	-28.8	15.7	0.00e+00	0	43	102	1048576	14	4358
2026-01-07 00:00:37.14	69.53	60.71	-27.4	-29.3	15.3	7.03e-04	0	43	102	1048576	14	4521
2026-01-07 00:00:38.14	70.30	60.94	-27.3	-29.3	15.4	1.09e-03	0	44	102	1048576	14	4506
2026-01-07 00:00:39.15	71.10	61.17	-27.3	-29.1	15.5	0.00e+00	0	43	102	1048576	14	4447
2026-01-07 00:00:40.15	71.91	61.40	-27.2	-29.0	15.6	1.10e-03	0	44	102	1048576	14	4403
2026-01-07 00:00:41.15	72.73	61.61	-26.5	-27.9	16.4	1.59e-03	0	44	102	1048576	13	4225
2026-01-07 00:00:42.16	73.58	61.83	-26.0	-26.8	16.9	0.00e+00	0	44	102	1048576	13	3949
2026-01-07 00:00:43.17	74.43	62.04	-25.8	-26.8	17.2	1.07e-03	0	44	102	1048576	12	4051
2026-01-07 00:00:44.18	75.31	62.25	-25.8	-26.7	17.3	8.26e-04	0	44	102	1048576	12	4032
2026-01-07 00:00:45.19	76.19	62.45	-26.1	-27.5	17.0	0.00e+00	0	43	102	1048576	12	4218
2026-01-07 00:00:46.19	77.09	62.64	-26.0	-27.4	17.0	0.00e+00	0	43	102	1048576	12	4198
2026-01-07 00:00:47.20	78.00	62.83	-26.0	-27.3	17.0	9.06e-04	0	43	102	1048576	12	4184
2026-01-07 00:00:48.21	78.93	63.02	-25.9	-27.1	17.1	0.00e+00	0	43	102	1048576	12	4133
2026-01-07 00:00:49.21	79.87	63.20	-26.2	-27.8	16.7	1.17e-04	0	43	102	1048576	12	4312
2026-01-07 00:00:50.22	80.83	63.37	-26.5	-28.3	16.5	0.00e+00	0	44	102	1048576	12	4449
2026-01-07 00:00:51.23	81.80	63.54	-26.5	-28.0	16.4	0.00e+00	0	43	102	1048576	13	4239
2026-01-07 00:00:52.24	82.79	63.70	-26.3	-27.4	16.7	0.00e+00	0	43	102	1048576	13	4081
2026-01-07 00:00:53.24	83.78	63.85	-26.2	-27.7	16.8	1.41e-03	0	44	102	1048576	12	4280
2026-01-07 00:00:54.25	84.79	64.00	-25.9	-27.1	17.1	0.00e+00	0	43	102	1048576	12	4118
2026-01-07 00:00:55.25	85.81	64.14	-25.7	-26.7	17.3	0.00e+00	0	43	102	1048576	12	4024
2026-01-07 00:00:56.25	86.84	64.27	-25.9	-27.6	17.2	0.00e+00	0	44	102	1048576	11	4352
2026-01-07 00:00:57.25	87.88	64.39	-26.2	-27.8	16.8	0.00e+00	0	43	102	1048576	12	4296
2026-01-07 00:00:58.26	88.94	64.51	-25.9	-27.1	17.1	2.55e-03	0	44	102	1048576	12	4130
2026-01-07 00:00:59.26	90.00	64.62	-25.8	-27.3	17.3	0.00e+00	0	44	102	1048576	11	4274
2026-01-07 00:01:00.27	91.08	64.72	-25.6	-27.0	17.5	0.00e+00	0	43	102	1048576	11	4197
2026-01-07 00:01:01.27	92.16	64.82	-25.8	-27.4	17.3	0.00e+00	0	44	102	1048576	11	4308
2026-01-07 00:01:02.28	93.26	64.90	-25.8	-27.2	17.4	0.00e+00	0	43	102	1048576	11	4265
2026-01-07 00:01:03.28	94.35	64.98	-25.9	-27.2	17.1	0.00e+00	0	43	102	1048576	12	4142
2026-01-07 00:01:04.29	95.47	65.05	-26.3	-28.0	16.6	0.00e+00	0	43	102	1048576	12	4377
2026-01-07 00:01:05.30	96.59	65.12	-26.1	-27.4	16.9	0.00e+00	0	43	102	1048576	12	4208
2026-01-07 00:01:06.30	97.71	65.17	-25.7	-26.5	17.5	0.00e+00	0	43	102	1048576	12	3973
2026-01-07 00:01:07.31	98.84	65.21	-25.8	-27.3	17.4	0.00e+00	0	43	102	1048576	11	4291
2026-01-07 00:01:08.31	99.96	65.25	-25.9	-27.1	17.1	0.00e+00	0	44	102	1048576	12	4115
2026-01-07 00:01:09.32	101.10	65.28	-26.1	-27.4	17.0	0.00e+00	0	43	102	1048576	12	4195
2026-01-07 00:01:10.33	102.25	65.30	-26.1	-27.5	16.9	0.00e+00	0	44	102	1048576	12	4230
2026-01-07 00:01:11.34	103.39	65.31	-26.0	-27.3	16.9	0.00e+00	0	43	102	1048576	12	4185
2026-01-07 00:01:12.34	104.52	65.31	-26.3	-28.0	16.6	0.00e+00	0	44	102	1048576	12	4370
2026-01-07 00:01:13.35	105.67	65.30	-26.2	-27.7	16.9	0.00e+00	0	43	102	1048576	12	4280
2026-01-07 00:01:14.35	106.80	65.29	-26.3	-28.0	16.6	0.00e+00	0	43	102	1048576	12	4367
2026-01-07 00:01:15.36	107.94	65.26	-26.6	-28.2	16.3	0.00e+00	0	43	102	1048576	13	4293
2026-01-07 00:01:16.36	109.07	65.23	-26.7	-28.3	16.2	0.00e+00	0	43	102	1048576	13	4323
2026-01-07 00:01:17.37	110.20	65.19	-26.1	-27.1	17.0	0.00e+00	0	43	102	1048576	13	4008
2026-01-07 00:01:18.38	111.33	65.14	-25.5	-26.1	17.7	0.00e+00	0	44	102	1048576	12	3876
2026-01-07 00:01:19.38	112.44	65.08	-25.4	-26.4	17.8	0.00e+00	0	43	102	1048576	11	4060
2026-01-07 00:01:20.39	113.56	65.01	-25.5	-26.7	17.7	0.00e+00	0	44	102	1048576	11	4118
2026-01-07 00:01:21.40	114.67	64.93	-26.0	-27.3	17.0	0.00e+00	0	44	102	1048576	12	4189
2026-01-07 00:01:22.41	115.78	64.85	-26.2	-27.6	16.9	0.00e+00	0	44	102	1048576	12	4260
2026-01-07 00:01:23.42	116.87	64.76	-25.7	-26.7	17.3	0.00e+00	0	44	102	1048576	12	4030
2026-01-07 00:01:24.42	117.94	64.66	-25.5	-26.3	17.6	0.00e+00	0	44	102	1048576	12	3923
2026-01-07 00:01:25.43	119.02	64.55	-25.7	-26.7	17.3	0.00e+00	0	43	102	1048576	12	4009
2026-01-07 00:01:26.43	120.08	64.44	-26.1	-27.6	16.8	0.00e+00	0	43	102	1048576	12	4253
2026-01-07 00:01:27.43	121.12	64.31	-26.4	-28.2	16.5	0.00e+00	0	43	102	1048576	12	4401
2026-01-07 00:01:28.44	122.16	64.18	-26.3	-27.8	16.7	0.00e+00	0	43	102	1048576	12	4313
2026-01-07 00:01:29.44	123.18	64.05	-26.1	-27.6	16.9	0.00e+00	0	43	102	1048576	12	4253
2026-01-07 00:01:30.45	124.20	63.90	-26.0	-27.3	17.0	0.00e+00	0	43	102	1048576	12	4190
2026-01-07 00:01:31.46	125.21	63.75	-25.6	-26.5	17.4	0.00e+00	0	43	102	1048576	12	3961
2026-01-07 00:01:32.46	126.19	63.59	-25.5	-26.7	17.7	0.00e+00	0	43	102	1048576	11	4122
2026-01-07 00:01:33.47	127.17	63.43	-26.0	-27.3	17.1	0.00e+00	0	43	102	1048576	12	4177
2026-01-07 00:01:34.48	128.14	63.26	-26.3	-27.9	16.7	0.00e+00	0	44	102	1048576	12	4346
2026-01-07 00:01:35.49	129.09	63.08	-25.7	-26.6	17.4	0.00e+00	0	44	102	1048576	12	4004
2026-01-07 00:01:36.49	130.02	62.90	-25.0	-25.6	18.2	0.00e+00	0	43	102	1048576	11	3852
2026-01-07 00:01:37.49	130.93	62.71	-25.3	-26.6	17.9	0.00e+00	0	44	102	1048576	10	4208
2026-01-07 00:01:38.49	131.83	62.52	-25.9	-27.6	17.3	0.00e+00	0	43	102	1048576	11	4361
2026-01-07 00:01:39.50	132.72	62.32	-26.2	-27.8	16.8	0.00e+00	0	43	102	1048576	12	4297
2026-01-07 00:01:40.51	133.60	62.12	-26.6	-28.0	16.4	0.00e+00	0	43	102	1048576	13	4250
2026-01-07 00:01:41.51	134.46	61.91	-26.5	-27.8	16.5	0.00e+00	0	43	102	1048576	13	4193
2026-01-07 00:01:42.51	135.30	61.70	-25.9	-27.1	15.1	0.00e+00	0	44	102	1048576	12	4123
2026-01-07 00:01:43.52	136.14	61.48	-25.4	-26.4	17.8	0.00e+00	0	43	102	1048576	11	4053
2026-01-07 00:01:44.53	136.96	61.25	-25.8	-27.4	17.4	0.00e+00	0	43	102	1048576	11	4295
2026-01-07 00:01:45.54	137.76	61.02	-26.8	-28.6	16.1	7.00e-07	0	44	102	1048576	13	4417
2026-01-07 00:01:46.55	138.56	60.79	-27.6	-29.3	15.1	2.44e-03	0	44	102	1048576	15	4397
2026-01-07 00:01:47.55	139.33	60.56	-27.8	-29.9	14.8	0.00e+00	0	43	102	1048576	15	4580
2026-01-07 00:01:48.56	140.09	60.32	-27.3	-29.1	15.5	0.00e+00	0	43	102	1048576	14	4453
2026-01-07 00:01:49.57	140.84	60.08	-26.8	-28.4	16.2	0.00e+00	0	43	102	1048576	13	4357
2026-01-07 00:01:50.58	141.57	59.83	-26.8	-28.5	16.1	0.00e+00	0	43	102	1048576	13	4389
2026-01-07 00:01:51.58	142.29	59.58	-27.1	-28.6	15.9	3.22e-03	0	43	102	1048576	14	4292
2026-01-07 00:01:52.59	143.00	59.33	-27.4	-29.3	15.4	2.86e-03	0	43	102	1048576	14	4503
2026-01-07 00:01:53.59	143.68	59.08	-28.3	-30.3	14.5	2.20e-06	0	43	102	1048576	16	4570
2026-01-07 00:01:54.60	144.36	58.82	-28.4	-30.3	14.2	3.00e-06	0	43	102	1048576	17	4442
2026-01-07 00:01:55.61	145.03	58.56	-27.3	-28.7	15.4	0.00e+00	0	43	102	1048576	15	4219
2026-01-07 00:01:56.62	145.69	58.30	-26.2	-27.1	16.8	0.00e+00	0	43	102	1048576	13	4006
2026-01-07 00:01:57.63	146.33	58.04	-26.0	-26.8	17.0	1.22e-03	0	43	102	1048576	13	3941
2026-01-07 00:01:58.63	146.95	57.77	-26.4	-28.1	16.6	8.39e-04	0	43	102	1048576	12	4400
2026-01-07 00:01:59.64	147.57	57.50	-27.2	-28.9	15.6	0.00e+00	0	43	102	1048576	14	4404
2026-01-07 00:02:00.63	148.16	57.24	-27.6	-29.5	15.0	1.75e-04	0	43	102	1048576	15	4443
2026-01-07 00:02:01.64	148.76	56.97	-27.8	-29.9	14.8	4.34e-04	0	44	102	1048576	15	4578
2026-01-07 00:02:02.65	149.34	56.69	-27.7	-29.6	14.9	0.00e+00	0	43	102	1048576	15	4480
2026-01-07 00:02:03.65	149.91	56.42	-27.0	-28.5	15.8	7.69e-04	0	43	102	1048576	14	4279
2026-01-07 00:02:04.66	150.47	56.14	-26.3	-27.4	16.7	7.67e-04	0	44	102	1048576	13	4084
2026-01-07 00:02:05.67	151.01	55.87	-26.2	-27.1	16.9	0.00e+00	0	44	102	1048576	13	4019
2026-01-07 00:02:06.67	151.55	55.59	-26.8	-28.6	16.0	0.00e+00	0	44	102	1048576	13	4410
2026-01-07 00:02:07.68	152.08	55.31	-27.8	-29.8	14.7	8.75e-04	0	43	102	1048576	15	4537
2026-01-07 00:02:08.68	152.59	55.03	-28.5	-30.9	13.8	5.30e-06	0	43	102	1048576	16	4742
2026-01-07 00:02:09.69	153.10	54.75	-28.2	-30.2	14.4	1.23e-03	0	43	102	1048576	16	4525
2026-01-07 00:02:10.69	153.59	54.47	-28.1	-30.0	14.6	8.31e-05	0	43	102	1048576	16	4464
2026-01-07 00:02:11.70	154.08	54.19	-27.9	-29.6	14.8	0.00e+00	0	43	102	1048576	16	4352
2026-01-07 00:02:12.71	154.56	53.91	-27.4	-29.0	15.3	7.85e-04	0	44	102	1048576	15	4298
2026-01-07 00:02:13.71	155.02	53.63	-27.5	-29.1	15.3	6.59e-04	0	44	102	1048576	15	4345
2026-01-07 00:02:14.72	155.48	53.35	-27.4	-28.9	15.3	7.00e-07	0	43	102	1048576	15	4289
2026-01-07 00:02:15.73	155.93	53.06	-27.7	-29.6	15.0	1.56e-04	0	44	102	1048576	15	4480
2026-01-07 00:02:16.74	156.38	52.78	-28.2	-30.1	14.4	0.00e+00	0	43	102	1048576	16	4497
2026-01-07 00:02:17.74	156.81	52.50	-28.3	-30.3	14.4	7.00e-07	0	43	102	1048576	16	4577
2026-01-07 00:02:18.75	157.24	52.21	-28.3	-30.4	14.2	7.00e-07	0	44	102	1048576	16	4601
2026-01-07 00:02:19.76	157.65	51.93	-28.3	-30.6	13.9	8.68e-04	0	43	102	1048576	16	4660
2026-01-07 00:02:20.77	158.07	51.65	-28.7	-30.9	13.6	7.60e-06	0	43	102	1048576	17	4664
2026-01-07 00:02:21.77	158.46	51.37	-28.8	-31.1	13.6	9.10e-06	0	43	102	1048576	17	4713
2026-01-07 00:02:22.78	158.86	51.08	-28.6	-30.7	13.8	6.10e-06	0	43	102	1048576	17	4583
2026-01-07 00:02:23.79	159.25	50.80	-28.8	-31.3	13.5	3.00e-06	0	43	102	1048576	17	4769
2026-01-07 00:02:24.80	159.63	50.52	-29.5	-31.9	12.5	8.46e-05	0	43	102	1048576	19	4757
2026-01-07 00:02:25.81	160.01	50.24	-29.7	-32.5	12.2	2.19e-04	0	43	102	1048576	19	4938
2026-01-07 00:02:26.82	160.37	49.95	-29.6	-32.1	12.4	1.36e-04	0	43	102	1048576	19	4820
2026-01-07 00:02:27.81	160.73	49.68	-29.9	-32.9	11.9	3.10e-04	0	43	102	1048576	19	5095
2026-01-07 00:02:28.82	161.08	49.40	-29.7	-32.4	12.3	2.78e-04	0	43	102	1048576	19	4904
2026-01-07 00:02:29.83	161.43	49.12	-28.9	-30.4	13.5	2.97e-05	0	43	102	1048576	19	4264
2026-01-07 00:02:30.83	161.77	48.84	-28.2	-29.8	14.3	3.00e-06	0	43	102	1048576	17	4310
2026-01-07 00:02:31.84	162.11	48.56	-28.0	-29.2	14.7	0.00e+00	0	43	102	1048576	17	4148
2026-01-07 00:02:32.85	162.44	48.29	-28.4	-30.2	14.2	7.00e-07	0	43	102	1048576	17	4420
2026-01-07 00:02:33.85	162.76	48.01	-29.1	-31.4	13.2	6.10e-06	0	43	102	1048576	18	4675
2026-01-07 00:02:34.86	163.08	47.74	-29.8	-32.6	12.1	1.96e-04	0	44	102	1048576	19	4978
2026-01-07 00:02:35.86	163.39	47.46	-29.9	-33.0	11.8	4.94e-04	0	43	102	1048576	19	5123
2026-01-07 00:02:36.87	163.69	47.19	-29.5	-31.9	12.5	2.23e-04	0	43	102	1048576	19	4757
2026-01-07 00:02:37.87	163.99	46.92	-29.2	-31.6	12.9	6.33e-05	0	43	102	1048576	18	4758
2026-01-07 00:02:38.88	164.29	46.65	-29.2	-31.6	12.9	3.20e-05	0	43	102	1048576	18	4763
2026-01-07 00:02:39.88	164.58	46.38	-29.3	-32.0	12.7	5.79e-05	0	43	102	1048576	18	4884
2026-01-07 00:02:40.89	164.87	46.11	-29.2	-31.7	12.9	5.34e-05	0	43	102	1048576	18	4799
2026-01-07 00:02:41.90	165.15	45.84	-29.0	-31.2	13.2	2.28e-05	0	43	102	1048576	18	4640
2026-01-07 00:02:42.91	165.43	45.57	-29.0	-31.2	13.2	1.83e-05	0	43	102	1048576	18	4638
2026-01-07 00:02:43.92	165.70	45.30	-29.4	-32.2	12.6	7.62e-05	0	43	102	1048576	18	4963
2026-01-07 00:02:44.93	165.97	45.03	-29.5	-31.8	12.6	1.14e-04	0	43	102	1048576	19	4731
2026-01-07 00:02:45.94	166.24	44.77	-29.5	-31.8	12.5	1.11e-04	0	43	102	1048576	19	4729
2026-01-07 00:02:46.94	166.49	44.51	-29.7	-32.5	12.1	1.87e-04	0	44	102	1048576	19	4951
2026-01-07 00:02:47.94	166.75	44.25	-30.0	-32.7	11.5	6.41e-04	0	44	102	1048576	20	4935
2026-01-07 00:02:48.95	167.00	43.99	-30.4	-33.8	10.8	2.30e-03	0	44	102	1048576	20	5345
2026-01-07 00:02:49.96	167.25	43.73	-30.2	-33.4	11.2	1.67e-03	0	43	102	1048576	20	5177
2026-01-07 00:02:50.97	167.49	43.47	-29.6	-31.8	12.1	3.59e-04	0	44	102	1048576	20	4612
2026-01-07 00:02:51.97	167.73	43.21	-29.0	-30.6	13.3	5.72e-05	0	44	102	1048576	19	4344
2026-01-07 00:02:52.98	167.97	42.95	-28.6	-30.2	13.8	8.30e-06	0	44	102	1048576	18	4318
2026-01-07 00:02:53.99	168.20	42.70	-28.8	-30.8	13.5	2.36e-05	0	43	102	1048576	18	4485
2026-01-07 00:02:55.00	168.43	42.44	-29.1	-31.3	13.2	1.29e-05	0	43	102	1048576	18	4667
2026-01-07 00:02:56.00	168.65	42.19	-29.2	-31.7	12.9	4.73e-05	0	43	102	1048576	18	4797
2026-01-07 00:02:57.01	168.88	41.94	-29.0	-31.3	13.2	5.03e-05	0	44	102	1048576	18	4654
2026-01-07 00:02:58.01	169.09	41.69	-28.6	-30.2	13.8	9.10e-06	0	44	102	1048576	18	4334
2026-01-07 00:02:59.02	169.31	41.44	-28.7	-30.4	13.7	1.50e-06	0	44	102	1048576	18	4384
2026-01-07 00:03:00.03	169.52	41.19	-29.0	-31.1	13.2	1.06e-05	0	43	102	1048576	18	4614
2026-01-07 00:03:01.03	169.73	40.95	-28.6	-30.2	13.8	1.14e-05	0	43	102	1048576	18	4324
2026-01-07 00:03:02.04	169.93	40.70	-28.5	-29.9	14.0	7.00e-07	0	44	102	1048576	18	4234
2026-01-07 00:03:03.04	170.14	40.46	-28.7	-30.3	13.4	2.20e-06	0	44	102	1048576	18	4359
2026-01-07 00:03:04.05	170.34	40.22	-28.9	-31.3	13.0	1.06e-05	0	44	102	1048576	17	4770
2026-01-07 00:03:05.05	170.53	39.98	-29.2	-31.6	12.9	2.89e-05	0	44	102	1048576	18	4760
2026-01-07 00:03:06.06	170.73	39.74	-29.3	-32.0	12.7	6.56e-05	0	44	102	1048576	18	4891
2026-01-07 00:03:07.06	170.92	39.50	-29.5	-31.9	12.4	1.16e-04	0	44	102	1048576	19	4763
2026-01-07 00:03:08.07	171.11	39.26	-29.2	-31.2	12.9	1.69e-04	0	44	102	1048576	19	4523
2026-01-07 00:03:09.07	171.29	39.03	-29.0	-31.1	13.2	6.74e-04	0	43	102	1048576	18	4605
2026-01-07 00:03:10.07	171.47	38.79	-28.8	-30.7	13.5	1.22e-05	0	43	102	1048576	18	4463
2026-01-07 00:03:11.08	171.65	38.56	-28.8	-31.1	13.5	7.60e-06	0	43	102	1048576	17	4710
2026-01-07 00:03:12.09	171.83	38.33	-28.8	-31.3	13.3	1.60e-05	0	43	102	1048576	17	4771
2026-01-07 00:03:13.09	172.01	38.10	-28.7	-31.0	13.4	7.31e-04	0	43	102	1048576	17	4673
2026-01-07 00:03:14.10	172.18	37.87	-28.7	-31.0	13.5	1.23e-04	0	44	102	1048576	17	4670
2026-01-07 00:03:15.10	172.35	37.64	-28.6	-30.7	13.7	5.52e-04	0	43	102	1048576	17	4575
2026-01-07 00:03:16.11	172.52	37.41	-28.5	-30.5	13.8	4.50e-06	0	43	102	1048576	17	4514
2026-01-07 00:03:17.11	172.69	37.19	-28.4	-30.2	14.0	2.20e-06	0	43	102	1048576	17	4421
2026-01-07 00:03:18.12	172.85	36.96	-27.9	-29.4	14.7	2.69e-04	0	44	102	1048576	16	4322
2026-01-07 00:03:19.12	173.01	36.74	-27.7	-29.0	15.0	3.60e-04	0	44	102	1048576	16	4192
2026-01-07 00:03:20.13	173.17	36.52	-27.7	-29.2	14.9	7.00e-07	0	44	102	1048576	16	4245
2026-01-07 00:03:21.13	173.33	36.30	-27.8	-29.4	14.8	4.25e-04	0	43	102	1048576	16	4305
2026-01-07 00:03:22.14	173.48	36.08	-27.8	-29.3	14.8	0.00e+00	0	43	102	1048576	16	4283
2026-01-07 00:03:23.14	173.64	35.86	-27.8	-29.4	14.8	2.36e-05	0	43	102	1048576	16	4328
2026-01-07 00:03:24.14	173.79	35.65	-27.8	-29.8	14.6	5.66e-04	0	43	102	1048576	15	4547
2026-01-07 00:03:25.15	173.94	35.43	-28.2	-30.2	14.3	6.51e-04	0	43	102	1048576	16	4547
2026-01-07 00:03:26.17	174.09	35.21	-27.9	-29.5	14.7	7.00e-07	0	44	102	1048576	16	4332
2026-01-07 00:03:27.17	174.23	35.00	-27.5	-29.2	14.9	8.02e-04	0	44	102	1048576	15	4386
2026-01-07 00:03:28.18	174.38	34.79	-27.5	-29.2	15.0	7.77e-04	0	43	102	1048576	15	4358
2026-01-07 00:03:29.19	174.52	34.58	-27.6	-29.5	14.8	0.00e+00	0	43	102	1048576	15	4459
2026-01-07 00:03:30.19	174.66	34.37	-28.0	-30.3	14.3	7.86e-04	0	43	102	1048576	15	4719
2026-01-07 00:03:31.20	174.80	34.16	-28.5	-31.0	13.8	1.07e-03	0	44	102	1048576	16	4795
2026-01-07 00:03:32.21	174.94	33.95	-28.7	-31.1	13.4	6.17e-05	0	43	102	1048576	17	4709
2026-01-07 00:03:33.21	175.07	33.75	-28.7	-31.0	13.5	2.14e-04	0	43	102	1048576	17	4696
2026-01-07 00:03:34.22	175.21	33.54	-28.5	-30.6	13.7	1.79e-04	0	43	102	1048576	17	4574
2026-01-07 00:03:35.23	175.34	33.34	-28.3	-30.1	14.0	8.23e-05	0	43	102	1048576	17	4418
2026-01-07 00:03:36.23	175.47	33.14	-28.1	-29.6	14.2	3.08e-04	0	43	102	1048576	17	4274
2026-01-07 00:03:37.24	175.60	32.94	-28.1	-29.6	14.3	1.27e-04	0	43	102	1048576	17	4260
2026-01-07 00:03:38.25	175.72	32.74	-28.0	-29.3	14.5	7.00e-07	0	43	102	1048576	17	4176
2026-01-07 00:03:39.25	175.85	32.54	-27.3	-28.6	15.3	2.79e-04	0	43	102	1048576	15	4209
2026-01-07 00:03:40.26	175.98	32.34	-27.2	-28.5	15.3	3.66e-05	0	44	102	1048576	15	4175
2026-01-07 00:03:41.26	176.10	32.14	-27.3	-29.1	15.2	2.09e-04	0	43	102	1048576	14	4448
2026-01-07 00:03:42.27	176.22	31.95	-27.1	-28.7	15.5	3.52e-04	0	43	102	1048576	14	4328
2026-01-07 00:03:43.29	176.34	31.75	-27.0	-28.4	15.6	3.80e-04	0	44	102	1048576	14	4268
2026-01-07 00:03:44.29	176.46	31.56	-27.0	-28.5	15.6	0.00e+00	0	44	102	1048576	14	4293
2026-01-07 00:03:45.30	176.58	31.37	-27.2	-29.0	15.3	4.61e-04	0	43	102	1048576	14	4438
2026-01-07 00:03:46.31	176.69	31.18	-27.4	-29.5	15.0	4.50e-05	0	43	102	1048576	14	4565
2026-01-07 00:03:47.31	176.81	30.99	-27.0	-28.5	15.5	0.00e+00	0	43	102	1048576	14	4297
2026-01-07 00:03:48.32	176.92	30.80	-26.8	-28.1	15.8	4.37e-04	0	43	102	1048576	14	4187
2026-01-07 00:03:49.33	177.03	30.61	-26.8	-28.1	15.8	4.17e-04	0	43	102	1048576	14	4178
2026-01-07 00:03:50.34	177.15	30.42	-26.8	-28.1	15.7	6.10e-06	0	43	102	1048576	14	4189
2026-01-07 00:03:51.34	177.26	30.24	-26.9	-28.9	15.6	1.17e-04	0	43	102	1048576	13	4527
2026-01-07 00:03:52.35	177.36	30.05	-27.1	-28.7	15.5	0.00e+00	0	43	102	1048576	14	4340
2026-01-07 00:03:53.36	177.47	29.87	-27.2	-29.0	15.2	0.00e+00	0	43	102	1048576	14	4444
2026-01-07 00:03:54.36	177.58	29.69	-27.3	-29.3	15.1	4.59e-04	0	43	102	1048576	14	4521
2026-01-07 00:03:55.37	177.68	29.51	-27.4	-29.5	15.0	5.08e-04	0	43	102	1048576	14	4583
2026-01-07 00:03:56.38	177.79	29.33	-27.4	-29.5	15.0	1.37e-05	0	43	102	1048576	14	4595
2026-01-07 00:03:57.39	177.89	29.15	-27.4	-29.4	15.0	0.00e+00	0	44	102	1048576	14	4550
2026-01-07 00:03:58.39	177.99	28.97	-27.3	-29.3	15.1	0.00e+00	0	43	102	1048576	14	4530
2026-01-07 00:03:59.40	178.09	28.79	-27.4	-29.4	15.0	4.50e-06	0	43	102	1048576	14	4564
2026-01-07 00:04:00.40	178.19	28.62	-27.4	-29.5	14.9	3.92e-04	0	43	102	1048576	14	4596
2026-01-07 00:04:01.41	178.29	28.44	-27.4	-29.4	15.0	4.26e-04	0	44	102	1048576	14	4567
2026-01-07 00:04:02.42	178.39	28.27	-27.4	-29.6	14.9	9.10e-06	0	43	102	1048576	14	4603
2026-01-07 00:04:03.42	178.48	28.10	-27.4	-29.5	15.0	7.00e-07	0	43	102	1048576	14	4582
2026-01-07 00:04:04.42	178.58	27.93	-27.2	-29.0	15.2	0.00e+00	0	43	102	1048576	14	4450
2026-01-07 00:04:05.43	178.67	27.76	-27.1	-28.9	15.3	0.00e+00	0	43	102	1048576	14	4399
2026-01-07 00:04:06.43	178.77	27.59	-27.1	-28.9	15.3	4.56e-04	0	44	102	1048576	14	4397
2026-01-07 00:04:07.44	178.86	27.42	-27.1	-28.7	15.4	0.00e+00	0	43	102	1048576	14	4351
2026-01-07 00:04:08.45	178.95	27.25	-27.0	-28.6	15.4	0.00e+00	0	44	102	1048576	14	4325
2026-01-07 00:04:09.45	179.04	27.08	-27.1	-28.8	15.3	0.00e+00	0	44	102	1048576	14	4387
2026-01-07 00:04:10.47	179.13	26.92	-27.0	-28.6	15.5	0.00e+00	0	44	102	1048576	14	4316
2026-01-07 00:04:11.47	179.22	26.75	-26.7	-27.9	15.8	0.00e+00	0	44	102	1048576	14	4133
2026-01-07 00:04:12.48	179.31	26.59	-26.5	-27.9	16.1	0.00e+00	0	43	102	1048576	13	4245
2026-01-07 00:04:13.48	179.40	26.43	-26.4	-27.7	16.2	0.00e+00	0	43	102	1048576	13	4178
2026-01-07 00:04:14.49	179.48	26.26	-26.4	-27.7	16.2	0.00e+00	0	43	102	1048576	13	4169
2026-01-07 00:04:15.50	179.57	26.10	-26.3	-27.9	16.3	0.00e+00	0	43	102	1048576	12	4353
2026-01-07 00:04:16.51	179.66	25.94	-26.1	-27.5	16.5	0.00e+00	0	43	102	1048576	12	4242
2026-01-07 00:04:17.52	179.74	25.78	-26.1	-27.5	16.5	0.00e+00	0	43	102	1048576	12	4246
2026-01-07 00:04:18.52	179.82	25.62	-26.2	-27.7	16.5	0.00e+00	0	44	102	1048576	12	4284
2026-01-07 00:04:19.53	179.91	25.46	-26.2	-27.8	16.4	0.00e+00	0	44	102	1048576	12	4322
2026-01-07 00:04:20.53	179.99	25.31	-26.3	-28.0	16.3	0.00e+00	0	44	102	1048576	12	4390
2026-01-07 00:04:21.54	180.07	25.15	-26.4	-28.2	16.1	0.00e+00	0	44	102	1048576	12	4437
2026-01-07 00:04:22.55	180.15	25.00	-26.7	-28.3	15.8	0.00e+00	0	44	102	1048576	13	4362
2026-01-07 00:04:23.56	180.23	24.84	-26.7	-28.5	15.7	0.00e+00	0	43	102	1048576	13	4408
2026-01-07 00:04:24.56	180.31	24.69	-26.5	-27.9	16.0	0.00e+00	0	43	102	1048576	13	4241
2026-01-07 00:04:25.57	180.38	24.53	-26.3	-27.6	16.2	0.00e+00	0	44	102	1048576	13	4154
2026-01-07 00:04:26.57	180.46	24.38	-26.3	-28.1	15.7	0.00e+00	0	44	102	1048576	12	4396
2026-01-07 00:04:27.58	180.54	24.23	-26.3	-28.0	16.1	0.00e+00	0	43	102	1048576	12	4387
2026-01-07 00:04:28.58	180.61	24.08	-26.4	-28.3	16.1	0.00e+00	0	44	102	1048576	12	4463
2026-01-07 00:04:29.59	180.69	23.93	-26.5	-27.9	16.0	0.00e+00	0	43	102	1048576	13	4241
2026-01-07 00:04:30.59	180.76	23.79	-26.4	-27.8	16.1	3.05e-03	0	44	102	1048576	13	4202
2026-01-07 00:04:31.60	180.84	23.64	-26.5	-28.0	16.0	0.00e+00	0	44	102	1048576	13	4270
2026-01-07 00:04:32.61	180.91	23.49	-26.5	-28.1	15.9	0.00e+00	0	43	102	1048576	13	4292
2026-01-07 00:04:33.61	180.98	23.34	-26.5	-28.1	15.9	0.00e+00	0	43	102	1048576	13	4286
2026-01-07 00:04:34.61	181.05	23.20	-26.7	-28.3	15.8	0.00e+00	0	44	102	1048576	13	4360
2026-01-07 00:04:35.62	181.12	23.05	-26.7	-28.3	15.8	3.14e-03	0	44	102	1048576	13	4357
2026-01-07 00:04:36.63	181.20	22.91	-26.7	-28.3	15.8	3.10e-03	0	43	102	1048576	13	4354
2026-01-07 00:04:37.64	181.27	22.77	-26.6	-28.2	15.8	0.00e+00	0	44	102	1048576	13	4340
2026-01-07 00:04:38.64	181.33	22.63	-26.6	-28.3	15.8	0.00e+00	0	44	102	1048576	13	4355
2026-01-07 00:04:39.65	181.40	22.48	-26.7	-28.4	15.7	3.63e-03	0	43	102	1048576	13	4385
2026-01-07 00:04:40.65	181.47	22.34	-26.7	-28.4	15.7	5.30e-06	0	44	102	1048576	13	4398
2026-01-07 00:04:41.66	181.54	22.20	-26.6	-28.3	15.8	3.74e-03	0	43	102	1048576	13	4344
2026-01-07 00:04:42.67	181.61	22.06	-26.6	-28.2	15.8	3.67e-03	0	44	102	1048576	13	4338
2026-01-07 00:04:43.68	181.67	21.92	-26.6	-28.3	15.8	0.00e+00	0	44	102	1048576	13	4352
2026-01-07 00:04:44.68	181.74	21.79	-26.6	-28.1	15.8	3.68e-03	0	43	102	1048576	13	4310
2026-01-07 00:04:45.69	181.80	21.65	-26.6	-28.2	15.7	3.31e-03	0	43	102	1048576	13	4347
2026-01-07 00:04:46.70	181.87	21.51	-26.8	-28.7	15.5	2.74e-05	0	44	102	1048576	13	4482
2026-01-07 00:04:47.71	181.93	21.38	-26.9	-29.0	15.3	3.35e-03	0	44	102	1048576	13	4560
2026-01-07 00:04:48.70	182.00	21.24	-26.9	-28.9	15.4	3.79e-03	0	43	102	1048576	13	4527
2026-01-07 00:04:49.71	182.06	21.11	-26.9	-28.9	15.4	1.98e-05	0	44	102	1048576	13	4540
2026-01-07 00:04:50.71	182.12	20.97	-26.9	-29.0	15.3	3.77e-03	0	43	102	1048576	13	4555
2026-01-07 00:04:51.72	182.18	20.84	-27.0	-29.1	15.3	3.65e-03	0	44	102	1048576	13	4583
2026-01-07 00:04:52.73	182.25	20.71	-27.0	-29.0	15.3	9.07e-05	0	43	102	1048576	13	4574
2026-01-07 00:04:53.73	182.31	20.58	-27.2	-29.2	15.0	3.64e-03	0	43	102	1048576	14	4499
2026-01-07 00:04:54.73	182.37	20.45	-27.1	-28.9	15.1	0.00e+00	0	43	102	1048576	14	4428
2026-01-07 00:04:55.74	182.43	20.32	-26.9	-28.4	15.4	1.60e-05	0	43	102	1048576	14	4273
2026-01-07 00:04:56.75	182.49	20.19	-26.7	-28.3	15.6	3.19e-03	0	44	102	1048576	13	4375
2026-01-07 00:04:57.76	182.55	20.06	-26.8	-28.7	15.5	3.26e-03	0	43	102	1048576	13	4477
2026-01-07 00:04:58.76	182.61	19.93	-26.7	-28.5	15.5	0.00e+00	0	43	102	1048576	13	4434
2026-01-07 00:04:59.77	182.66	19.80	-26.6	-28.3	15.4	0.00e+00	0	44	102	1048576	13	4359
2026-01-07 00:05:00.78	182.72	19.67	-26.6	-28.2	15.4	0.00e+00	0	43	102	1048576	13	4349
2026-01-07 00:05:01.79	182.78	19.55	-26.6	-28.2	15.7	7.00e-07	0	44	102	1048576	13	4335
2026-01-07 00:05:02.80	182.84	19.42	-26.6	-28.2	15.7	2.95e-03	0	43	102	1048576	13	4332
2026-01-07 00:05:03.80	182.89	19.29	-26.7	-28.5	15.5	2.81e-03	0	44	102	1048576	13	4428
2026-01-07 00:05:04.81	182.95	19.17	-26.6	-28.2	15.7	2.20e-06	0	44	102	1048576	13	4336
2026-01-07 00:05:05.82	183.01	19.04	-26.6	-28.1	15.7	0.00e+00	0	43	102	1048576	13	4323
2026-01-07 00:05:06.83	183.06	18.92	-26.5	-28.1	15.7	2.63e-04	0	43	102	1048576	13	4304
2026-01-07 00:05:07.83	183.12	18.80	-26.5	-28.1	15.7	3.80e-06	0	43	102	1048576	13	4298
2026-01-07 00:05:08.84	183.17	18.67	-26.6	-28.2	15.7	2.53e-03	0	44	102	1048576	13	4339
2026-01-07 00:05:09.85	183.23	18.55	-26.6	-28.2	15.7	0.00e+00	0	44	102	1048576	13	4328
2026-01-07 00:05:10.86	183.28	18.43	-26.6	-28.3	15.6	3.80e-06	0	44	102	1048576	13	4356
2026-01-07 00:05:11.86	183.33	18.31	-26.7	-28.6	15.5	3.36e-04	0	43	102	1048576	13	4440
2026-01-07 00:05:12.86	183.38	18.19	-26.7	-28.5	15.5	3.23e-04	0	43	102	1048576	13	4429
2026-01-07 00:05:13.87	183.44	18.07	-26.7	-28.5	15.5	0.00e+00	0	43	102	1048576	13	4409
2026-01-07 00:05:14.88	183.49	17.95	-26.8	-28.6	15.4	0.00e+00	0	43	102	1048576	13	4444
2026-01-07 00:05:15.89	183.54	17.83	-26.9	-28.9	15.3	0.00e+00	0	43	102	1048576	13	4529
2026-01-07 00:05:16.89	183.59	17.72	-26.9	-28.8	15.3	8.30e-06	0	44	102	1048576	13	4513
2026-01-07 00:05:17.89	183.64	17.60	-26.9	-28.9	15.3	3.68e-04	0	44	102	1048576	13	4541
2026-01-07 00:05:18.90	183.69	17.48	-27.1	-28.9	15.0	4.35e-04	0	44	102	1048576	14	4415
2026-01-07 00:05:19.91	183.74	17.37	-27.4	-29.5	14.7	0.00e+00	0	43	102	1048576	14	4597
2026-01-07 00:05:20.92	183.79	17.25	-27.2	-29.1	14.9	4.00e-04	0	44	102	1048576	14	4473
2026-01-07 00:05:21.92	183.84	17.13	-27.3	-29.3	14.8	4.07e-04	0	44	102	1048576	14	4533
2026-01-07 00:05:22.93	183.89	17.02	-27.5	-29.3	14.5	0.00e+00	0	43	102	1048576	15	4436
2026-01-07 00:05:23.93	183.94	16.91	-27.4	-29.6	14.6	4.09e-04	0	44	102	1048576	14	4635
2026-01-07 00:05:24.94	183.99	16.79	-27.3	-29.3	14.8	3.96e-04	0	44	102	1048576	14	4542
2026-01-07 00:05:25.95	184.04	16.68	-27.2	-29.2	14.8	7.00e-07	0	44	102	1048576	14	4515
2026-01-07 00:05:26.96	184.09	16.57	-27.3	-29.2	14.8	3.17e-04	0	44	102	1048576	14	4517
2026-01-07 00:05:27.97	184.13	16.45	-27.4	-29.5	14.6	3.23e-04	0	44	102	1048576	14	4603
2026-01-07 00:05:28.97	184.18	16.34	-27.7	-29.7	14.2	7.00e-07	0	43	102	1048576	15	4540
2026-01-07 00:05:29.98	184.23	16.23	-27.5	-29.3	14.4	3.23e-04	0	43	102	1048576	15	4433
2026-01-07 00:05:30.98	184.27	16.12	-27.4	-29.1	14.6	2.98e-04	0	43	102	1048576	15	4357
2026-01-07 00:05:31.99	184.32	16.01	-27.4	-29.0	14.6	0.00e+00	0	43	102	1048576	15	4350
2026-01-07 00:05:32.99	184.37	15.90	-27.4	-29.7	14.5	0.00e+00	0	43	102	1048576	14	4647
2026-01-07 00:05:34.00	184.41	15.79	-27.4	-29.5	14.6	2.82e-04	0	43	102	1048576	14	4604
2026-01-07 00:05:35.01	184.46	15.68	-27.6	-29.5	14.4	0.00e+00	0	44	102	1048576	15	4478
2026-01-07 00:05:36.02	184.50	15.57	-27.9	-30.2	13.9	3.76e-04	0	44	102	1048576	15	4714
2026-01-07 00:05:37.03	184.55	15.46	-27.7	-29.8	14.1	2.20e-06	0	44	102	1048576	15	4584
2026-01-07 00:05:38.03	184.59	15.36	-27.4	-29.2	14.5	0.00e+00	0	43	102	1048576	15	4396
2026-01-07 00:05:39.03	184.64	15.25	-27.3	-28.9	14.7	0.00e+00	0	43	102	1048576	15	4308
2026-01-07 00:05:40.04	184.68	15.14	-27.2	-29.2	14.7	4.61e-04	0	44	102	1048576	14	4518
2026-01-07 00:05:41.05	184.72	15.04	-27.3	-29.4	14.6	0.00e+00	0	44	102	1048576	14	4580
2026-01-07 00:05:42.06	184.77	14.93	-27.5	-29.8	14.4	0.00e+00	0	44	102	1048576	14	4683
2026-01-07 00:05:43.06	184.81	14.83	-27.4	-29.7	14.5	1.50e-06	0	43	102	1048576	14	4666
2026-01-07 00:05:44.07	184.85	14.72	-27.5	-29.4	14.3	0.00e+00	0	44	102	1048576	15	4463
2026-01-07 00:05:45.08	184.89	14.62	-27.7	-29.8	14.1	7.00e-07	0	44	102	1048576	15	4595
2026-01-07 00:05:46.09	184.94	14.51	-27.9	-30.3	13.8	3.80e-06	0	44	102	1048576	15	4746
2026-01-07 00:05:47.09	184.98	14.41	-27.8	-30.0	14.0	4.50e-06	0	44	102	1048576	15	4651
2026-01-07 00:05:48.09	185.02	14.31	-28.0	-30.4	13.7	3.80e-06	0	44	102	1048576	15	4789
2026-01-07 00:05:49.09	185.06	14.21	-27.9	-30.2	13.9	6.10e-06	0	44	102	1048576	15	4705
2026-01-07 00:05:50.10	185.10	14.10	-28.0	-30.4	13.7	4.50e-06	0	44	102	1048576	15	4784
2026-01-07 00:05:51.11	185.14	14.00	-28.3	-30.6	13.5	1.37e-05	0	44	102	1048576	16	4729
2026-01-07 00:05:52.12	185.18	13.90	-28.2	-30.5	13.5	7.60e-06	0	44	102	1048576	16	4695
2026-01-07 00:05:53.12	185.22	13.80	-28.4	-30.9	13.3	1.29e-05	0	43	102	1048576	16	4812
2026-01-07 00:05:54.12	185.26	13.70	-28.3	-30.7	13.4	1.44e-05	0	44	102	1048576	16	4755
2026-01-07 00:05:55.12	185.30	13.60	-28.4	-30.9	13.3	1.83e-05	0	44	102	1048576	16	4812
2026-01-07 00:05:56.13	185.34	13.50	-28.3	-30.7	13.4	1.14e-05	0	44	102	1048576	16	4745
2026-01-07 00:05:57.12	185.38	13.40	-28.1	-30.3	13.6	3.24e-04	0	44	102	1048576	16	4622
2026-01-07 00:05:58.13	185.42	13.30	-28.2	-30.4	13.6	6.10e-06	0	44	102	1048576	16	4639
2026-01-07 00:05:59.13	185.46	13.21	-28.2	-30.5	13.5	5.30e-06	0	44	102	1048576	16	4694
2026-01-07 00:06:00.14	185.50	13.11	-28.0	-30.0	13.8	5.30e-06	0	44	102	1048576	16	4544
2026-01-07 00:06:01.15	185.54	13.01	-27.9	-29.6	14.0	3.00e-06	0	44	102	1048576	16	4425
2026-01-07 00:06:02.16	185.57	12.91	-27.9	-29.7	14.0	2.57e-04	0	44	102	1048576	16	4441
2026-01-07 00:06:03.16	185.61	12.82	-27.7	-29.9	14.0	2.72e-04	0	44	102	1048576	15	4632
2026-01-07 00:06:04.17	185.65	12.72	-27.7	-29.9	14.0	1.37e-05	0	44	102	1048576	15	4623
2026-01-07 00:06:05.18	185.69	12.62	-27.7	-29.9	14.0	2.20e-06	0	44	102	1048576	15	4620
2026-01-07 00:06:06.19	185.73	12.53	-27.9	-30.2	13.8	6.10e-06	0	44	102	1048576	15	4728
2026-01-07 00:06:07.19	185.76	12.43	-28.2	-30.4	13.5	2.21e-05	0	44	102	1048576	16	4644
2026-01-07 00:06:08.20	185.80	12.34	-28.0	-30.1	13.7	3.52e-04	0	44	102	1048576	16	4557
2026-01-07 00:06:09.20	185.84	12.24	-28.0	-30.1	13.7	3.50e-04	0	43	102	1048576	16	4554
2026-01-07 00:06:10.21	185.87	12.15	-27.9	-30.3	13.7	5.30e-06	0	44	102	1048576	15	4740
2026-01-07 00:06:11.22	185.91	12.05	-27.9	-30.3	13.7	9.10e-06	0	44	102	1048576	15	4757
2026-01-07 00:06:12.22	185.94	11.96	-27.9	-30.4	13.6	3.42e-04	0	44	102	1048576	15	4780
2026-01-07 00:06:13.23	185.98	11.87	-28.3	-30.6	13.4	2.89e-05	0	44	102	1048576	16	4716
2026-01-07 00:06:14.24	186.02	11.77	-28.2	-30.5	13.4	3.64e-04	0	44	102	1048576	16	4709
2026-01-07 00:06:15.25	186.05	11.68	-28.3	-30.8	13.2	3.91e-04	0	44	102	1048576	16	4777
2026-01-07 00:06:16.25	186.09	11.59	-28.2	-30.5	13.4	2.59e-05	0	44	102	1048576	16	4699
2026-01-07 00:06:17.26	186.12	11.50	-28.0	-30.1	13.6	2.82e-04	0	44	102	1048576	16	4569
2026-01-07 00:06:18.26	186.16	11.40	-28.1	-30.2	13.6	2.39e-04	0	44	102	1048576	16	4595
2026-01-07 00:06:19.26	186.19	11.31	-28.1	-30.3	13.5	2.51e-05	0	43	102	1048576	16	4638
2026-01-07 00:06:20.27	186.22	11.22	-28.2	-30.5	13.4	2.80e-04	0	44	102	1048576	16	4679
2026-01-07 00:06:21.27	186.26	11.13	-28.1	-30.2	13.6	3.13e-04	0	44	102	1048576	16	4581
2026-01-07 00:06:22.28	186.29	11.04	-28.1	-30.2	13.5	1.14e-05	0	44	102	1048576	16	4608
2026-01-07 00:06:23.29	186.33	10.95	-28.1	-30.4	13.4	4.90e-04	0	44	102	1048576	16	4651
2026-01-07 00:06:24.29	186.36	10.86	-28.2	-30.6	13.3	5.50e-04	0	44	102	1048576	16	4724
2026-01-07 00:06:25.29	186.39	10.77	-28.2	-30.4	13.4	2.36e-05	0	44	102	1048576	16	4675
2026-01-07 00:06:26.29	186.43	10.68	-28.2	-30.6	13.3	6.49e-04	0	44	102	1048576	16	4716
2026-01-07 00:06:27.30	186.46	10.60	-28.4	-31.0	13.0	3.58e-05	0	43	102	1048576	16	4847
2026-01-07 00:06:28.30	186.49	10.51	-28.2	-30.5	13.3	1.67e-05	0	43	102	1048576	16	4692
2026-01-07 00:06:29.31	186.52	10.42	-28.2	-30.5	13.3	1.04e-03	0	43	102	1048576	16	4695
2026-01-07 00:06:30.31	186.56	10.33	-28.2	-30.4	13.4	1.62e-03	0	44	102	1048576	16	4672
2026-01-07 00:06:31.32	186.59	10.24	-28.2	-30.5	13.3	1.37e-05	0	44	102	1048576	16	4696
2026-01-07 00:06:32.32	186.62	10.16	-28.2	-30.6	13.2	1.37e-05	0	44	102	1048576	16	4723
2026-01-07 00:06:33.33	186.65	10.07	-28.2	-30.5	13.3	1.52e-05	0	43	102	1048576	16	4712
2026-01-07 00:06:34.34	186.68	9.98	-28.2	-30.5	13.3	2.21e-05	0	43	102	1048576	16	4694
2026-01-07 00:06:35.34	186.72	9.90	-28.3	-30.8	13.1	1.81e-03	0	43	102	1048576	16	4780
2026-01-07 00:06:36.35	186.75	9.81	-28.4	-30.9	13.1	4.11e-05	0	43	102	1048576	16	4827
2026-01-07 00:06:37.36	186.78	9.73	-28.3	-30.8	13.1	2.21e-05	0	44	102	1048576	16	4803
2026-01-07 00:06:38.36	186.81	9.64	-28.4	-31.1	12.9	3.05e-05	0	44	102	1048576	16	4889
2026-01-07 00:06:39.36	186.84	9.56	-28.6	-30.9	12.7	8.46e-05	0	44	102	1048576	17	4734
2026-01-07 00:06:40.37	186.87	9.47	-28.4	-30.6	12.9	5.79e-05	0	43	102	1048576	17	4621
2026-01-07 00:06:41.38	186.90	9.39	-28.3	-30.8	13.0	3.66e-05	0	44	102	1048576	16	4814
2026-01-07 00:06:42.39	186.93	9.30	-28.3	-30.9	13.0	3.43e-05	0	44	102	1048576	16	4816
2026-01-07 00:06:43.39	186.96	9.22	-28.4	-31.0	12.9	4.42e-05	0	43	102	1048576	16	4878
