passes_logs/2026/01/06/R2M6_AANII_01/R2M6_AANII_01__20260106_095918_FENGYUN_3D_rec.log

#Pass ID: 20260106_095918_FENGYUN 3D
#Satellite: FENGYUN 3D
#Configuration: FENGYUN 3D
#almurnet v.1.7.20240730
#Start time: 2026-01-06 09:59:17

#Version: 2.2.20231116
#Station: R2M6_AANII_01
#Location: 30.233357 lon 59.946436 lat
#TLE: 1 43010U 17072A   26005.48915933 -.00000051  00000+0 -21983-5 0  9995
#TLE: 2 43010  98.9919 337.1582 0002001 124.6377 235.4988 14.19691925421909

#Time	Az	El	Level	Level2	SNR	BER	BlckErr	Temp	State	Recorded	gain1	gain2
2026-01-06 09:59:17.85	87.14	6.97	-31.7	-38.3	4.2	8.38e-01	0	41	0	0	24	7619
2026-01-06 09:59:18.85	87.03	7.02	-30.3	-33.6	5.1	7.91e-01	0	41	104	0	22	5247
2026-01-06 09:59:19.86	86.92	7.08	-30.1	-33.5	8.4	5.39e-02	0	41	0	0	21	5326
2026-01-06 09:59:20.87	86.82	7.14	-30.2	-33.6	8.4	4.97e-02	0	41	102	1048576	21	5344
2026-01-06 09:59:21.87	86.71	7.20	-30.1	-33.4	8.6	5.19e-02	0	41	102	1048576	21	5259
2026-01-06 09:59:22.88	86.60	7.26	-30.0	-33.2	8.7	3.98e-02	0	41	102	1048576	21	5188
2026-01-06 09:59:23.88	86.49	7.31	-30.0	-33.0	8.8	3.79e-02	0	41	102	1048576	21	5094
2026-01-06 09:59:24.89	86.37	7.37	-30.1	-33.2	8.6	4.12e-02	0	41	102	1048576	21	5192
2026-01-06 09:59:25.90	86.26	7.43	-30.0	-33.1	8.8	3.82e-02	0	41	102	1048576	21	5134
2026-01-06 09:59:26.90	86.15	7.49	-29.7	-32.6	9.5	2.07e-02	0	41	102	1048576	20	5035
2026-01-06 09:59:27.91	86.04	7.55	-29.1	-31.6	10.5	8.19e-03	0	41	102	1048576	19	4788
2026-01-06 09:59:28.92	85.92	7.61	-28.7	-31.0	11.3	2.00e-03	0	41	102	1048576	18	4676
2026-01-06 09:59:29.93	85.81	7.66	-28.2	-30.3	12.0	6.06e-04	0	41	102	1048576	17	4576
2026-01-06 09:59:30.93	85.70	7.72	-27.9	-29.4	12.6	1.99e-04	0	41	102	1048576	17	4293
2026-01-06 09:59:31.94	85.58	7.78	-27.4	-28.9	13.2	4.92e-05	0	41	102	1048576	16	4251
2026-01-06 09:59:32.95	85.47	7.84	-27.1	-28.6	13.5	2.05e-05	0	41	102	1048576	15	4275
2026-01-06 09:59:33.96	85.35	7.90	-27.0	-28.3	13.7	9.10e-06	0	41	102	1048576	15	4198
2026-01-06 09:59:34.96	85.24	7.96	-26.9	-28.1	13.8	1.37e-05	0	42	102	1048576	15	4153
2026-01-06 09:59:35.96	85.12	8.02	-27.0	-28.3	13.7	1.71e-05	0	41	102	1048576	15	4207
2026-01-06 09:59:36.97	85.00	8.07	-27.0	-28.3	13.7	9.10e-06	0	42	102	1048576	15	4212
2026-01-06 09:59:37.98	84.89	8.13	-27.0	-28.4	13.7	1.02e-05	0	41	102	1048576	15	4222
2026-01-06 09:59:38.99	84.77	8.19	-26.9	-28.1	13.9	1.02e-05	0	42	102	1048576	15	4137
2026-01-06 09:59:40.00	84.65	8.25	-26.9	-28.1	13.9	2.20e-06	0	42	102	1048576	15	4141
2026-01-06 09:59:41.01	84.53	8.31	-26.9	-28.0	13.9	1.02e-05	0	42	102	1048576	15	4128
2026-01-06 09:59:42.00	84.41	8.37	-27.0	-28.3	13.8	9.10e-06	0	42	102	1048576	15	4199
2026-01-06 09:59:43.01	84.29	8.43	-26.9	-28.2	13.9	8.00e-06	0	42	102	1048576	15	4175
2026-01-06 09:59:44.02	84.17	8.49	-26.8	-27.9	14.0	4.50e-06	0	42	102	1048576	15	4087
2026-01-06 09:59:45.03	84.05	8.55	-26.9	-28.0	14.0	8.00e-06	0	42	102	1048576	15	4124
2026-01-06 09:59:46.03	83.93	8.60	-26.8	-28.3	14.1	3.40e-06	0	42	102	1048576	14	4299
2026-01-06 09:59:47.04	83.81	8.66	-26.8	-28.4	14.0	6.80e-06	0	42	102	1048576	14	4318
2026-01-06 09:59:48.05	83.69	8.72	-26.7	-28.1	14.2	4.50e-06	0	42	102	1048576	14	4236
2026-01-06 09:59:49.06	83.56	8.78	-26.7	-28.1	14.2	2.20e-06	0	42	102	1048576	14	4241
2026-01-06 09:59:50.07	83.44	8.84	-26.7	-28.1	14.2	0.00e+00	0	42	102	1048576	14	4230
2026-01-06 09:59:51.07	83.32	8.90	-26.5	-27.7	14.5	5.70e-06	0	42	102	1048576	14	4138
2026-01-06 09:59:52.08	83.19	8.96	-26.5	-27.6	14.5	1.10e-06	0	42	102	1048576	14	4105
2026-01-06 09:59:53.09	83.07	9.02	-26.4	-27.6	14.6	0.00e+00	0	42	102	1048576	14	4096
2026-01-06 09:59:54.09	82.94	9.08	-26.4	-27.4	14.7	0.00e+00	0	42	102	1048576	14	4058
2026-01-06 09:59:55.10	82.82	9.13	-26.5	-27.7	14.5	0.00e+00	0	42	102	1048576	14	4122
2026-01-06 09:59:56.11	82.69	9.19	-26.4	-27.5	14.7	0.00e+00	0	42	102	1048576	14	4067
2026-01-06 09:59:57.12	82.56	9.25	-26.4	-27.4	14.7	2.20e-06	0	42	102	1048576	14	4045
2026-01-06 09:59:58.12	82.44	9.31	-26.3	-27.2	14.8	1.10e-06	0	42	102	1048576	14	3995
2026-01-06 09:59:59.13	82.31	9.37	-26.3	-27.6	14.8	0.00e+00	0	42	102	1048576	13	4214
2026-01-06 10:00:00.14	82.18	9.43	-26.1	-27.4	15.0	0.00e+00	0	42	102	1048576	13	4157
2026-01-06 10:00:01.14	82.05	9.49	-26.3	-27.7	14.8	0.00e+00	0	42	102	1048576	13	4253
2026-01-06 10:00:02.15	81.92	9.55	-26.2	-27.6	14.8	1.10e-06	0	42	102	1048576	13	4220
2026-01-06 10:00:03.16	81.79	9.61	-26.4	-28.0	14.6	0.00e+00	0	42	102	1048576	13	4311
2026-01-06 10:00:04.16	81.66	9.67	-26.3	-27.7	14.8	0.00e+00	0	42	102	1048576	13	4251
2026-01-06 10:00:05.17	81.53	9.72	-26.4	-27.9	14.7	0.00e+00	0	42	102	1048576	13	4284
2026-01-06 10:00:06.17	81.40	9.78	-26.5	-28.1	14.6	0.00e+00	0	42	102	1048576	13	4351
2026-01-06 10:00:07.18	81.27	9.84	-26.5	-28.2	14.6	0.00e+00	0	42	102	1048576	13	4364
2026-01-06 10:00:08.19	81.14	9.90	-26.6	-28.4	14.4	0.00e+00	0	42	102	1048576	13	4446
2026-01-06 10:00:09.20	81.00	9.96	-26.5	-28.3	14.5	1.10e-06	0	42	102	1048576	13	4403
2026-01-06 10:00:10.21	80.87	10.02	-26.5	-28.3	14.5	0.00e+00	0	42	102	1048576	13	4406
2026-01-06 10:00:11.21	80.73	10.08	-26.5	-28.2	14.5	0.00e+00	0	42	102	1048576	13	4383
2026-01-06 10:00:12.22	80.60	10.14	-26.5	-28.3	14.5	1.10e-06	0	42	102	1048576	13	4394
2026-01-06 10:00:13.23	80.46	10.20	-26.6	-28.4	14.4	0.00e+00	0	42	102	1048576	13	4440
2026-01-06 10:00:14.23	80.33	10.25	-26.8	-28.8	14.2	1.10e-06	0	42	102	1048576	13	4560
2026-01-06 10:00:15.24	80.19	10.31	-26.6	-28.4	14.4	0.00e+00	0	42	102	1048576	13	4426
2026-01-06 10:00:16.25	80.05	10.37	-26.5	-28.2	14.6	0.00e+00	0	42	102	1048576	13	4385
2026-01-06 10:00:17.26	79.92	10.43	-26.5	-28.1	14.6	1.10e-06	0	42	102	1048576	13	4352
2026-01-06 10:00:18.26	79.78	10.49	-26.5	-28.1	14.7	2.20e-06	0	42	102	1048576	13	4332
2026-01-06 10:00:19.26	79.64	10.55	-26.4	-27.9	14.7	0.00e+00	0	42	102	1048576	13	4303
2026-01-06 10:00:20.27	79.50	10.61	-26.5	-28.1	14.7	1.10e-06	0	42	102	1048576	13	4355
2026-01-06 10:00:21.27	79.36	10.67	-26.5	-28.1	14.7	1.10e-06	0	42	102	1048576	13	4339
2026-01-06 10:00:22.28	79.22	10.72	-26.6	-28.3	14.6	1.10e-06	0	42	102	1048576	13	4413
2026-01-06 10:00:23.29	79.08	10.78	-26.4	-27.9	14.8	0.00e+00	0	42	102	1048576	13	4299
2026-01-06 10:00:24.29	78.94	10.84	-26.3	-27.7	14.9	0.00e+00	0	42	102	1048576	13	4238
2026-01-06 10:00:25.30	78.80	10.90	-26.2	-27.6	15.0	1.10e-06	0	42	102	1048576	13	4195
2026-01-06 10:00:26.31	78.65	10.96	-26.2	-27.6	15.0	4.50e-06	0	43	102	1048576	13	4202
2026-01-06 10:00:27.32	78.51	11.02	-26.1	-27.4	15.1	0.00e+00	0	42	102	1048576	13	4140
2026-01-06 10:00:28.32	78.37	11.08	-26.2	-27.4	15.1	0.00e+00	0	42	102	1048576	13	4154
2026-01-06 10:00:29.33	78.22	11.14	-26.2	-27.5	15.0	0.00e+00	0	42	102	1048576	13	4181
2026-01-06 10:00:30.34	78.08	11.19	-26.1	-27.2	15.2	0.00e+00	0	42	102	1048576	13	4102
2026-01-06 10:00:31.34	77.93	11.25	-26.1	-27.2	15.2	0.00e+00	0	42	102	1048576	13	4085
2026-01-06 10:00:32.35	77.78	11.31	-26.1	-27.2	15.2	0.00e+00	0	43	102	1048576	13	4099
2026-01-06 10:00:33.35	77.64	11.37	-25.9	-26.9	15.4	1.10e-06	0	43	102	1048576	13	4020
2026-01-06 10:00:34.36	77.49	11.43	-26.0	-27.1	15.3	0.00e+00	0	42	102	1048576	13	4066
2026-01-06 10:00:35.37	77.34	11.49	-26.1	-27.3	15.2	4.50e-06	0	42	102	1048576	13	4115
2026-01-06 10:00:36.37	77.19	11.54	-26.1	-27.1	15.3	0.00e+00	0	43	102	1048576	13	4084
2026-01-06 10:00:37.37	77.05	11.60	-26.1	-27.3	15.2	0.00e+00	0	42	102	1048576	13	4135
2026-01-06 10:00:38.38	76.90	11.66	-26.2	-27.4	15.2	4.50e-06	0	43	102	1048576	13	4144
2026-01-06 10:00:39.39	76.74	11.72	-26.0	-27.1	15.3	0.00e+00	0	42	102	1048576	13	4066
2026-01-06 10:00:40.39	76.59	11.77	-26.0	-27.1	15.3	0.00e+00	0	42	102	1048576	13	4077
2026-01-06 10:00:41.39	76.44	11.83	-26.1	-27.3	15.2	1.37e-05	0	43	102	1048576	13	4125
2026-01-06 10:00:42.39	76.29	11.89	-26.2	-27.5	15.1	0.00e+00	0	42	102	1048576	13	4164
2026-01-06 10:00:43.40	76.14	11.95	-26.1	-27.2	15.2	0.00e+00	0	42	102	1048576	13	4095
2026-01-06 10:00:44.40	75.99	12.00	-26.0	-27.0	15.4	1.10e-06	0	43	102	1048576	13	4034
2026-01-06 10:00:45.40	75.83	12.06	-26.0	-27.0	15.4	0.00e+00	0	42	102	1048576	13	4034
2026-01-06 10:00:46.41	75.68	12.12	-25.9	-26.9	15.4	0.00e+00	0	43	102	1048576	13	4022
2026-01-06 10:00:47.42	75.52	12.18	-25.8	-26.6	15.6	4.50e-06	0	43	102	1048576	13	3941
2026-01-06 10:00:48.42	75.37	12.23	-25.8	-27.1	15.6	0.00e+00	0	43	102	1048576	12	4164
2026-01-06 10:00:49.43	75.21	12.29	-25.8	-27.1	15.6	0.00e+00	0	43	102	1048576	12	4179
2026-01-06 10:00:50.43	75.06	12.35	-25.9	-27.2	15.5	5.70e-06	0	43	102	1048576	12	4205
2026-01-06 10:00:51.44	74.90	12.41	-25.9	-27.3	15.5	0.00e+00	0	43	102	1048576	12	4239
2026-01-06 10:00:52.45	74.74	12.46	-25.9	-27.4	15.4	0.00e+00	0	43	102	1048576	12	4251
2026-01-06 10:00:53.45	74.58	12.52	-25.9	-27.3	15.5	0.00e+00	0	43	102	1048576	12	4244
2026-01-06 10:00:54.46	74.42	12.58	-25.9	-27.3	15.5	0.00e+00	0	43	102	1048576	12	4235
2026-01-06 10:00:55.46	74.26	12.63	-26.0	-27.5	15.4	0.00e+00	0	43	102	1048576	12	4284
2026-01-06 10:00:56.46	74.10	12.69	-26.0	-27.5	15.4	0.00e+00	0	43	102	1048576	12	4286
2026-01-06 10:00:57.47	73.94	12.75	-26.0	-27.5	15.4	0.00e+00	0	43	102	1048576	12	4301
2026-01-06 10:00:58.47	73.78	12.80	-26.1	-27.7	15.3	0.00e+00	0	43	102	1048576	12	4348
2026-01-06 10:00:59.48	73.61	12.86	-26.0	-27.5	15.4	0.00e+00	0	43	102	1048576	12	4288
2026-01-06 10:01:00.49	73.45	12.92	-25.8	-27.2	15.6	0.00e+00	0	43	102	1048576	12	4198
2026-01-06 10:01:01.49	73.29	12.97	-25.8	-27.2	15.6	0.00e+00	0	43	102	1048576	12	4203
2026-01-06 10:01:02.50	73.12	13.03	-26.0	-27.5	15.5	0.00e+00	0	43	102	1048576	12	4272
2026-01-06 10:01:03.51	72.96	13.09	-26.0	-27.4	15.5	0.00e+00	0	43	102	1048576	12	4264
2026-01-06 10:01:04.51	72.79	13.14	-25.7	-26.9	15.7	0.00e+00	0	43	102	1048576	12	4127
2026-01-06 10:01:05.52	72.62	13.20	-25.6	-26.5	15.9	0.00e+00	0	43	102	1048576	12	4029
2026-01-06 10:01:06.53	72.46	13.25	-25.5	-26.4	16.0	0.00e+00	0	43	102	1048576	12	3990
2026-01-06 10:01:07.53	72.29	13.31	-25.5	-26.3	16.0	0.00e+00	0	43	102	1048576	12	3978
2026-01-06 10:01:08.54	72.12	13.36	-25.4	-26.1	16.2	0.00e+00	0	43	102	1048576	12	3923
2026-01-06 10:01:09.54	71.95	13.42	-25.4	-26.2	16.1	0.00e+00	0	43	102	1048576	12	3957
2026-01-06 10:01:10.55	71.78	13.47	-25.5	-26.4	16.0	0.00e+00	0	43	102	1048576	12	3996
2026-01-06 10:01:11.54	71.62	13.53	-25.4	-26.1	16.1	0.00e+00	0	43	102	1048576	12	3923
2026-01-06 10:01:12.56	71.44	13.58	-25.4	-26.2	16.1	0.00e+00	0	43	102	1048576	12	3941
2026-01-06 10:01:13.56	71.27	13.64	-25.4	-26.2	16.1	0.00e+00	0	43	102	1048576	12	3945
2026-01-06 10:01:14.57	71.10	13.69	-25.4	-26.1	16.2	0.00e+00	0	43	102	1048576	12	3930
2026-01-06 10:01:15.58	70.93	13.75	-25.4	-26.3	16.1	0.00e+00	0	43	102	1048576	12	3963
2026-01-06 10:01:16.58	70.75	13.80	-25.5	-26.5	16.0	0.00e+00	0	43	102	1048576	12	4022
2026-01-06 10:01:17.59	70.58	13.86	-25.6	-26.6	15.9	0.00e+00	0	43	102	1048576	12	4055
2026-01-06 10:01:18.59	70.40	13.91	-25.7	-26.8	16.0	0.00e+00	0	43	102	1048576	12	4069
2026-01-06 10:01:19.59	70.23	13.97	-25.7	-26.7	16.0	0.00e+00	0	43	102	1048576	12	4068
2026-01-06 10:01:20.60	70.05	14.02	-25.7	-26.7	16.0	0.00e+00	0	43	102	1048576	12	4062
2026-01-06 10:01:21.60	69.88	14.07	-25.6	-26.7	16.0	0.00e+00	0	43	102	1048576	12	4042
2026-01-06 10:01:22.61	69.70	14.13	-25.7	-26.8	16.0	0.00e+00	0	43	102	1048576	12	4076
2026-01-06 10:01:23.62	69.52	14.18	-25.9	-27.1	15.8	0.00e+00	0	43	102	1048576	12	4167
2026-01-06 10:01:24.62	69.34	14.23	-25.8	-27.0	15.9	0.00e+00	0	43	102	1048576	12	4128
2026-01-06 10:01:25.63	69.16	14.29	-25.7	-26.8	16.0	0.00e+00	0	43	102	1048576	12	4070
2026-01-06 10:01:26.64	68.98	14.34	-25.7	-26.7	16.0	0.00e+00	0	43	102	1048576	12	4057
2026-01-06 10:01:27.65	68.80	14.39	-25.7	-26.8	16.0	0.00e+00	0	43	102	1048576	12	4090
2026-01-06 10:01:28.66	68.62	14.45	-25.7	-26.8	16.0	0.00e+00	0	43	102	1048576	12	4070
2026-01-06 10:01:29.67	68.44	14.50	-25.9	-27.1	15.8	0.00e+00	0	43	102	1048576	12	4168
2026-01-06 10:01:30.68	68.25	14.55	-25.8	-26.9	15.9	0.00e+00	0	43	102	1048576	12	4104
2026-01-06 10:01:31.68	68.07	14.60	-25.5	-26.3	16.3	0.00e+00	0	43	102	1048576	12	3957
2026-01-06 10:01:32.69	67.89	14.65	-25.3	-26.0	16.4	0.00e+00	0	43	102	1048576	12	3868
2026-01-06 10:01:33.69	67.70	14.71	-25.3	-26.4	16.5	0.00e+00	0	43	102	1048576	11	4081
2026-01-06 10:01:34.69	67.52	14.76	-25.3	-26.3	16.6	0.00e+00	0	43	102	1048576	11	4051
2026-01-06 10:01:35.70	67.33	14.81	-25.2	-26.2	16.7	0.00e+00	0	43	102	1048576	11	4024
2026-01-06 10:01:36.71	67.15	14.86	-25.2	-26.1	16.7	0.00e+00	0	43	102	1048576	11	4008
2026-01-06 10:01:37.71	66.96	14.91	-25.2	-26.2	16.7	0.00e+00	0	43	102	1048576	11	4024
2026-01-06 10:01:38.72	66.77	14.96	-25.3	-26.3	16.6	0.00e+00	0	43	102	1048576	11	4041
2026-01-06 10:01:39.72	66.58	15.01	-25.4	-26.6	16.5	0.00e+00	0	43	102	1048576	11	4121
2026-01-06 10:01:40.73	66.39	15.06	-25.4	-26.6	16.5	0.00e+00	0	43	102	1048576	11	4123
2026-01-06 10:01:41.74	66.20	15.11	-25.4	-26.6	16.5	0.00e+00	0	43	102	1048576	11	4128
2026-01-06 10:01:42.75	66.01	15.16	-25.4	-26.6	16.5	0.00e+00	0	43	102	1048576	11	4121
2026-01-06 10:01:43.75	65.82	15.21	-25.4	-26.6	16.5	0.00e+00	0	43	102	1048576	11	4134
2026-01-06 10:01:44.76	65.63	15.26	-25.3	-26.5	16.6	0.00e+00	0	43	102	1048576	11	4094
2026-01-06 10:01:45.76	65.44	15.31	-25.3	-26.3	16.6	0.00e+00	0	43	102	1048576	11	4052
2026-01-06 10:01:46.77	65.25	15.36	-25.3	-26.5	16.6	0.00e+00	0	43	102	1048576	11	4095
2026-01-06 10:01:47.78	65.05	15.41	-25.3	-26.4	16.6	0.00e+00	0	43	102	1048576	11	4069
2026-01-06 10:01:48.78	64.86	15.46	-25.3	-26.3	16.6	0.00e+00	0	43	102	1048576	11	4046
2026-01-06 10:01:49.79	64.66	15.50	-25.2	-26.1	16.8	0.00e+00	0	43	102	1048576	11	4000
2026-01-06 10:01:50.79	64.47	15.55	-25.2	-26.0	16.8	0.00e+00	0	43	102	1048576	11	3985
2026-01-06 10:01:51.80	64.27	15.60	-25.3	-26.3	16.7	0.00e+00	0	43	102	1048576	11	4049
2026-01-06 10:01:52.80	64.08	15.65	-25.2	-26.1	16.8	0.00e+00	0	43	102	1048576	11	3992
2026-01-06 10:01:53.81	63.88	15.70	-25.1	-25.8	16.9	0.00e+00	0	43	102	1048576	11	3931
2026-01-06 10:01:54.81	63.68	15.74	-25.1	-25.9	16.9	0.00e+00	0	43	102	1048576	11	3958
2026-01-06 10:01:55.82	63.48	15.79	-25.1	-25.9	16.9	0.00e+00	0	43	102	1048576	11	3942
2026-01-06 10:01:56.83	63.28	15.84	-25.1	-25.9	16.9	0.00e+00	0	43	102	1048576	11	3959
2026-01-06 10:01:57.84	63.08	15.88	-25.1	-26.0	16.8	0.00e+00	0	43	102	1048576	11	3981
2026-01-06 10:01:58.84	62.88	15.93	-25.0	-25.7	17.0	0.00e+00	0	43	102	1048576	11	3901
2026-01-06 10:01:59.85	62.68	15.97	-24.9	-25.5	17.1	0.00e+00	0	43	102	1048576	11	3850
2026-01-06 10:02:00.86	62.48	16.02	-24.9	-25.6	17.1	0.00e+00	0	43	102	1048576	11	3873
2026-01-06 10:02:01.86	62.28	16.06	-24.9	-25.5	17.1	0.00e+00	0	43	102	1048576	11	3855
2026-01-06 10:02:02.87	62.07	16.11	-25.0	-25.7	17.0	0.00e+00	0	43	102	1048576	11	3897
2026-01-06 10:02:03.87	61.87	16.15	-24.9	-25.5	17.1	0.00e+00	0	43	102	1048576	11	3865
2026-01-06 10:02:04.87	61.67	16.20	-24.9	-25.5	17.1	0.00e+00	0	43	102	1048576	11	3856
2026-01-06 10:02:05.89	61.46	16.24	-24.8	-25.2	17.3	0.00e+00	0	43	102	1048576	11	3789
2026-01-06 10:02:06.89	61.26	16.29	-24.7	-25.6	17.4	0.00e+00	0	43	102	1048576	10	3974
2026-01-06 10:02:07.90	61.05	16.33	-24.6	-25.3	17.5	0.00e+00	0	43	102	1048576	10	3911
2026-01-06 10:02:08.91	60.84	16.37	-24.5	-25.2	17.6	0.00e+00	0	43	102	1048576	10	3894
2026-01-06 10:02:09.91	60.64	16.42	-24.7	-25.5	17.4	0.00e+00	0	43	102	1048576	10	3954
2026-01-06 10:02:10.92	60.43	16.46	-24.6	-25.3	17.5	0.00e+00	0	43	102	1048576	10	3907
2026-01-06 10:02:11.92	60.22	16.50	-24.6	-25.4	17.5	0.00e+00	0	43	102	1048576	10	3927
2026-01-06 10:02:12.93	60.01	16.54	-24.7	-25.6	17.4	0.00e+00	0	43	102	1048576	10	3969
2026-01-06 10:02:13.93	59.80	16.58	-24.7	-25.5	17.4	0.00e+00	0	43	102	1048576	10	3959
2026-01-06 10:02:14.94	59.59	16.62	-24.8	-25.7	17.3	0.00e+00	0	43	102	1048576	10	4003
2026-01-06 10:02:15.94	59.38	16.67	-24.8	-25.7	17.3	0.00e+00	0	43	102	1048576	10	4012
2026-01-06 10:02:16.95	59.17	16.71	-24.8	-25.8	17.3	0.00e+00	0	43	102	1048576	10	4036
2026-01-06 10:02:17.95	58.96	16.75	-25.0	-26.2	17.1	0.00e+00	0	43	102	1048576	10	4129
2026-01-06 10:02:18.96	58.75	16.79	-24.6	-25.4	17.5	0.00e+00	0	43	102	1048576	10	3936
2026-01-06 10:02:19.96	58.54	16.83	-24.4	-25.0	17.7	0.00e+00	0	43	102	1048576	10	3826
2026-01-06 10:02:20.97	58.32	16.87	-24.3	-24.8	17.8	0.00e+00	0	43	102	1048576	10	3791
2026-01-06 10:02:21.98	58.11	16.90	-24.4	-25.0	17.7	0.00e+00	0	43	102	1048576	10	3840
2026-01-06 10:02:22.99	57.89	16.94	-24.4	-24.9	17.8	0.00e+00	0	43	102	1048576	10	3815
2026-01-06 10:02:24.00	57.67	16.98	-24.6	-25.2	17.6	0.00e+00	0	43	102	1048576	10	3895
2026-01-06 10:02:25.01	57.46	17.02	-24.4	-25.0	17.7	0.00e+00	0	43	102	1048576	10	3841
2026-01-06 10:02:26.01	57.24	17.06	-24.4	-24.9	17.8	0.00e+00	0	43	102	1048576	10	3805
2026-01-06 10:02:27.02	57.03	17.09	-24.4	-25.0	17.7	0.00e+00	0	43	102	1048576	10	3835
2026-01-06 10:02:28.02	56.81	17.13	-24.5	-25.1	17.7	0.00e+00	0	43	102	1048576	10	3852
2026-01-06 10:02:29.03	56.59	17.17	-24.6	-25.4	17.5	0.00e+00	0	43	102	1048576	10	3924
2026-01-06 10:02:30.03	56.37	17.20	-24.8	-25.8	17.3	0.00e+00	0	43	102	1048576	10	4023
2026-01-06 10:02:31.04	56.15	17.24	-24.8	-25.7	17.3	1.10e-06	0	43	102	1048576	10	4014
2026-01-06 10:02:32.05	55.93	17.27	-24.8	-25.8	17.3	0.00e+00	0	43	102	1048576	10	4027
2026-01-06 10:02:33.06	55.71	17.31	-24.9	-26.0	17.2	0.00e+00	0	43	102	1048576	10	4085
2026-01-06 10:02:34.06	55.49	17.34	-24.7	-25.5	17.4	0.00e+00	0	43	102	1048576	10	3969
2026-01-06 10:02:35.07	55.27	17.38	-24.6	-25.3	17.5	0.00e+00	0	43	102	1048576	10	3909
2026-01-06 10:02:36.08	55.05	17.41	-24.6	-25.3	17.6	0.00e+00	0	43	102	1048576	10	3906
2026-01-06 10:02:37.08	54.83	17.45	-24.8	-25.7	17.4	0.00e+00	0	43	102	1048576	10	3992
2026-01-06 10:02:38.08	54.61	17.48	-24.6	-25.3	17.6	0.00e+00	0	43	102	1048576	10	3896
2026-01-06 10:02:39.09	54.38	17.51	-24.7	-25.6	17.4	0.00e+00	0	43	102	1048576	10	3990
2026-01-06 10:02:40.09	54.16	17.54	-24.6	-25.4	17.5	1.10e-06	0	43	102	1048576	10	3937
2026-01-06 10:02:41.09	53.94	17.57	-24.7	-25.5	17.5	0.00e+00	0	43	102	1048576	10	3953
2026-01-06 10:02:42.10	53.71	17.61	-24.7	-25.6	17.4	0.00e+00	0	43	102	1048576	10	3994
2026-01-06 10:02:43.11	53.49	17.64	-24.7	-25.6	17.4	0.00e+00	0	43	102	1048576	10	3978
2026-01-06 10:02:44.11	53.27	17.67	-24.8	-25.7	17.3	0.00e+00	0	43	102	1048576	10	4011
2026-01-06 10:02:45.12	53.04	17.70	-24.6	-25.4	17.5	0.00e+00	0	43	102	1048576	10	3933
2026-01-06 10:02:46.13	52.81	17.73	-24.5	-25.1	17.6	0.00e+00	0	43	102	1048576	10	3863
2026-01-06 10:02:47.14	52.58	17.76	-24.5	-25.1	17.6	0.00e+00	0	43	102	1048576	10	3870
2026-01-06 10:02:48.15	52.36	17.79	-24.7	-25.5	17.4	0.00e+00	0	43	102	1048576	10	3960
2026-01-06 10:02:49.16	52.13	17.81	-24.6	-25.3	17.6	0.00e+00	0	43	102	1048576	10	3912
2026-01-06 10:02:50.16	51.90	17.84	-24.5	-25.2	17.6	0.00e+00	0	43	102	1048576	10	3887
2026-01-06 10:02:51.17	51.67	17.87	-24.5	-25.2	17.6	0.00e+00	0	43	102	1048576	10	3879
2026-01-06 10:02:52.18	51.44	17.90	-24.5	-25.1	17.7	0.00e+00	0	43	102	1048576	10	3868
2026-01-06 10:02:53.19	51.21	17.92	-24.5	-25.2	17.7	1.10e-06	0	43	102	1048576	10	3889
2026-01-06 10:02:54.19	50.98	17.95	-24.4	-24.9	17.8	0.00e+00	0	43	102	1048576	10	3807
2026-01-06 10:02:55.20	50.75	17.97	-24.3	-24.8	17.9	0.00e+00	0	43	102	1048576	10	3779
2026-01-06 10:02:56.21	50.52	18.00	-24.4	-24.9	17.8	0.00e+00	0	43	102	1048576	10	3817
2026-01-06 10:02:57.22	50.29	18.03	-24.5	-25.1	17.7	0.00e+00	0	43	102	1048576	10	3853
2026-01-06 10:02:58.23	50.06	18.05	-24.5	-25.1	17.8	1.10e-06	0	43	102	1048576	10	3849
2026-01-06 10:02:59.24	49.83	18.07	-24.5	-25.1	17.7	0.00e+00	0	43	102	1048576	10	3870
2026-01-06 10:03:00.25	49.59	18.10	-24.4	-25.0	17.8	0.00e+00	0	43	102	1048576	10	3832
2026-01-06 10:03:01.25	49.36	18.12	-24.5	-25.1	17.7	0.00e+00	0	43	102	1048576	10	3865
2026-01-06 10:03:02.25	49.13	18.14	-24.5	-25.1	17.8	0.00e+00	0	43	102	1048576	10	3855
2026-01-06 10:03:03.27	48.90	18.16	-24.6	-25.3	17.7	0.00e+00	0	43	102	1048576	10	3901
2026-01-06 10:03:04.27	48.66	18.19	-24.7	-25.4	17.6	0.00e+00	0	43	102	1048576	10	3939
2026-01-06 10:03:05.28	48.43	18.21	-24.8	-25.6	17.4	0.00e+00	0	43	102	1048576	10	3988
2026-01-06 10:03:06.28	48.20	18.23	-24.4	-25.0	17.8	0.00e+00	0	43	102	1048576	10	3828
2026-01-06 10:03:07.29	47.96	18.25	-24.2	-24.9	18.1	0.00e+00	0	43	102	1048576	9	3921
2026-01-06 10:03:08.30	47.73	18.27	-24.1	-24.8	18.1	0.00e+00	0	43	102	1048576	9	3892
2026-01-06 10:03:09.30	47.49	18.29	-24.1	-24.8	18.1	0.00e+00	0	43	102	1048576	9	3895
2026-01-06 10:03:10.30	47.26	18.31	-24.0	-24.6	18.2	0.00e+00	0	43	102	1048576	9	3840
2026-01-06 10:03:11.32	47.02	18.32	-24.0	-24.6	18.2	0.00e+00	0	43	102	1048576	9	3857
2026-01-06 10:03:12.32	46.79	18.34	-24.1	-24.8	18.1	0.00e+00	0	43	102	1048576	9	3887
2026-01-06 10:03:13.33	46.55	18.36	-24.1	-24.7	18.2	0.00e+00	0	43	102	1048576	9	3860
2026-01-06 10:03:14.33	46.32	18.38	-24.1	-24.8	18.1	0.00e+00	0	43	102	1048576	9	3884
2026-01-06 10:03:15.34	46.08	18.39	-24.2	-24.9	18.1	0.00e+00	0	43	102	1048576	9	3918
2026-01-06 10:03:16.34	45.84	18.41	-24.1	-24.8	18.1	0.00e+00	0	43	102	1048576	9	3888
2026-01-06 10:03:17.35	45.60	18.42	-24.1	-24.8	18.1	0.00e+00	0	43	102	1048576	9	3899
2026-01-06 10:03:18.36	45.37	18.44	-24.2	-25.0	18.0	0.00e+00	0	43	102	1048576	9	3951
2026-01-06 10:03:19.36	45.13	18.45	-24.2	-25.0	18.0	0.00e+00	0	43	102	1048576	9	3951
2026-01-06 10:03:20.36	44.89	18.47	-24.3	-25.2	17.9	0.00e+00	0	43	102	1048576	9	3981
2026-01-06 10:03:21.37	44.66	18.48	-24.2	-25.0	18.0	0.00e+00	0	43	102	1048576	9	3943
2026-01-06 10:03:22.38	44.42	18.49	-24.2	-25.1	18.0	0.00e+00	0	43	102	1048576	9	3955
2026-01-06 10:03:23.39	44.18	18.50	-24.2	-25.0	18.0	0.00e+00	0	43	102	1048576	9	3942
2026-01-06 10:03:24.39	43.94	18.52	-24.1	-24.8	18.1	0.00e+00	0	43	102	1048576	9	3894
2026-01-06 10:03:25.40	43.70	18.53	-24.1	-24.7	18.2	0.00e+00	0	43	102	1048576	9	3868
2026-01-06 10:03:26.40	43.46	18.54	-24.1	-24.7	18.2	0.00e+00	0	44	102	1048576	9	3873
2026-01-06 10:03:27.41	43.22	18.55	-24.1	-24.7	18.2	0.00e+00	0	43	102	1048576	9	3871
2026-01-06 10:03:28.42	42.98	18.56	-24.2	-25.0	18.0	0.00e+00	0	43	102	1048576	9	3947
2026-01-06 10:03:29.43	42.74	18.57	-24.3	-25.2	17.9	0.00e+00	0	43	102	1048576	9	3988
2026-01-06 10:03:30.43	42.51	18.58	-24.1	-24.7	18.2	0.00e+00	0	43	102	1048576	9	3877
2026-01-06 10:03:31.44	42.27	18.58	-24.0	-24.5	18.3	0.00e+00	0	43	102	1048576	9	3820
2026-01-06 10:03:32.44	42.03	18.59	-23.9	-24.4	18.4	0.00e+00	0	43	102	1048576	9	3808
2026-01-06 10:03:33.45	41.79	18.60	-23.9	-24.4	18.3	0.00e+00	0	43	102	1048576	9	3809
2026-01-06 10:03:34.46	41.55	18.61	-24.0	-24.5	18.3	0.00e+00	0	43	102	1048576	9	3818
2026-01-06 10:03:35.47	41.31	18.61	-24.0	-24.6	18.3	0.00e+00	0	43	102	1048576	9	3845
2026-01-06 10:03:36.46	41.07	18.62	-24.0	-24.5	18.3	0.00e+00	0	43	102	1048576	9	3815
2026-01-06 10:03:37.47	40.83	18.62	-24.0	-24.5	18.3	0.00e+00	0	43	102	1048576	9	3837
2026-01-06 10:03:38.48	40.59	18.63	-24.0	-24.6	18.2	0.00e+00	0	43	102	1048576	9	3847
2026-01-06 10:03:39.49	40.35	18.63	-24.1	-24.7	18.2	0.00e+00	0	43	102	1048576	9	3876
2026-01-06 10:03:40.50	40.10	18.63	-24.1	-24.8	18.1	0.00e+00	0	43	102	1048576	9	3898
2026-01-06 10:03:41.50	39.87	18.64	-24.3	-25.2	17.9	0.00e+00	0	43	102	1048576	9	3983
2026-01-06 10:03:42.50	39.63	18.64	-24.3	-25.2	17.9	0.00e+00	0	43	102	1048576	9	3996
2026-01-06 10:03:43.51	39.39	18.64	-24.4	-25.3	17.9	0.00e+00	0	43	102	1048576	9	4021
2026-01-06 10:03:44.52	39.14	18.64	-24.4	-25.4	17.8	0.00e+00	0	43	102	1048576	9	4038
2026-01-06 10:03:45.53	38.90	18.64	-24.4	-25.5	17.8	0.00e+00	0	44	102	1048576	9	4057
2026-01-06 10:03:46.53	38.66	18.64	-24.4	-25.5	17.8	0.00e+00	0	43	102	1048576	9	4066
2026-01-06 10:03:47.53	38.43	18.64	-24.4	-25.5	17.8	0.00e+00	0	43	102	1048576	9	4066
2026-01-06 10:03:48.54	38.18	18.64	-24.3	-25.2	17.9	0.00e+00	0	43	102	1048576	9	3998
2026-01-06 10:03:49.55	37.94	18.64	-24.3	-25.2	17.9	0.00e+00	0	43	102	1048576	9	3998
2026-01-06 10:03:50.55	37.70	18.64	-24.3	-25.2	17.9	0.00e+00	0	43	102	1048576	9	3987
2026-01-06 10:03:51.56	37.46	18.64	-24.2	-25.0	18.0	0.00e+00	0	43	102	1048576	9	3957
2026-01-06 10:03:52.57	37.22	18.64	-24.2	-25.1	18.0	0.00e+00	0	43	102	1048576	9	3960
2026-01-06 10:03:53.57	36.98	18.63	-24.1	-24.8	18.1	0.00e+00	0	43	102	1048576	9	3896
2026-01-06 10:03:54.58	36.74	18.63	-24.1	-24.8	18.1	0.00e+00	0	43	102	1048576	9	3893
2026-01-06 10:03:55.59	36.50	18.62	-24.1	-24.7	18.2	0.00e+00	0	43	102	1048576	9	3879
2026-01-06 10:03:56.59	36.26	18.62	-24.0	-24.5	18.3	0.00e+00	0	43	102	1048576	9	3819
2026-01-06 10:03:57.60	36.02	18.61	-23.9	-24.4	18.4	0.00e+00	0	43	102	1048576	9	3803
2026-01-06 10:03:58.61	35.78	18.61	-24.0	-24.5	18.3	0.00e+00	0	43	102	1048576	9	3826
2026-01-06 10:03:59.62	35.54	18.60	-23.9	-24.4	18.3	0.00e+00	0	43	102	1048576	9	3810
2026-01-06 10:04:00.62	35.30	18.60	-23.8	-24.2	18.4	0.00e+00	0	43	102	1048576	9	3763
2026-01-06 10:04:01.63	35.06	18.59	-23.8	-24.5	18.6	0.00e+00	0	43	102	1048576	8	3939
2026-01-06 10:04:02.64	34.82	18.58	-23.8	-24.6	18.5	0.00e+00	0	43	102	1048576	8	3941
2026-01-06 10:04:03.64	34.58	18.57	-23.8	-24.7	18.4	0.00e+00	0	43	102	1048576	8	3978
2026-01-06 10:04:04.65	34.34	18.56	-23.9	-24.8	18.4	0.00e+00	0	43	102	1048576	8	4008
2026-01-06 10:04:05.66	34.10	18.55	-23.9	-24.8	18.4	0.00e+00	0	43	102	1048576	8	4012
2026-01-06 10:04:06.67	33.86	18.54	-23.9	-24.8	18.4	0.00e+00	0	44	102	1048576	8	4002
2026-01-06 10:04:07.67	33.62	18.53	-24.0	-25.0	18.3	0.00e+00	0	43	102	1048576	8	4055
2026-01-06 10:04:08.68	33.39	18.52	-24.0	-25.1	18.2	0.00e+00	0	43	102	1048576	8	4069
2026-01-06 10:04:09.69	33.15	18.51	-24.0	-25.1	18.2	0.00e+00	0	44	102	1048576	8	4069
2026-01-06 10:04:10.69	32.91	18.50	-24.1	-25.2	18.2	0.00e+00	0	44	102	1048576	8	4107
2026-01-06 10:04:11.70	32.67	18.48	-24.1	-25.3	18.1	0.00e+00	0	43	102	1048576	8	4124
2026-01-06 10:04:12.70	32.43	18.47	-24.2	-25.4	18.1	0.00e+00	0	43	102	1048576	8	4154
2026-01-06 10:04:13.70	32.20	18.46	-24.3	-25.6	18.0	0.00e+00	0	43	102	1048576	8	4205
2026-01-06 10:04:14.71	31.96	18.44	-24.2	-25.4	18.0	0.00e+00	0	44	102	1048576	8	4158
2026-01-06 10:04:15.72	31.72	18.43	-24.2	-25.4	18.1	0.00e+00	0	43	102	1048576	8	4154
2026-01-06 10:04:16.72	31.49	18.41	-24.2	-25.5	18.0	0.00e+00	0	44	102	1048576	8	4181
2026-01-06 10:04:17.73	31.25	18.40	-24.2	-25.5	18.0	0.00e+00	0	43	102	1048576	8	4164
2026-01-06 10:04:18.73	31.01	18.38	-24.1	-25.3	18.1	0.00e+00	0	43	102	1048576	8	4127
2026-01-06 10:04:19.73	30.78	18.37	-24.2	-25.6	18.0	0.00e+00	0	43	102	1048576	8	4195
2026-01-06 10:04:20.74	30.54	18.35	-24.2	-25.5	18.0	0.00e+00	0	43	102	1048576	8	4188
2026-01-06 10:04:21.74	30.31	18.33	-24.3	-25.6	17.9	0.00e+00	0	43	102	1048576	8	4211
2026-01-06 10:04:22.75	30.07	18.31	-24.2	-25.6	18.0	0.00e+00	0	43	102	1048576	8	4191
2026-01-06 10:04:23.75	29.84	18.30	-24.2	-25.5	18.1	0.00e+00	0	43	102	1048576	8	4164
2026-01-06 10:04:24.76	29.60	18.28	-24.3	-25.7	17.9	0.00e+00	0	43	102	1048576	8	4219
2026-01-06 10:04:25.76	29.37	18.26	-24.2	-25.5	18.0	0.00e+00	0	43	102	1048576	8	4187
2026-01-06 10:04:26.77	29.14	18.24	-24.3	-25.8	17.9	0.00e+00	0	43	102	1048576	8	4249
2026-01-06 10:04:27.77	28.90	18.22	-24.3	-25.6	17.9	0.00e+00	0	43	102	1048576	8	4214
2026-01-06 10:04:28.77	28.67	18.20	-24.2	-25.4	18.1	0.00e+00	0	43	102	1048576	8	4150
2026-01-06 10:04:29.78	28.44	18.17	-24.1	-25.4	18.1	0.00e+00	0	43	102	1048576	8	4144
2026-01-06 10:04:30.79	28.20	18.15	-24.2	-25.5	18.0	0.00e+00	0	43	102	1048576	8	4176
2026-01-06 10:04:31.80	27.97	18.13	-24.2	-25.6	18.0	0.00e+00	0	44	102	1048576	8	4200
2026-01-06 10:04:32.80	27.74	18.11	-24.3	-25.6	17.9	0.00e+00	0	43	102	1048576	8	4215
2026-01-06 10:04:33.80	27.51	18.08	-24.3	-25.7	17.9	0.00e+00	0	44	102	1048576	8	4229
2026-01-06 10:04:34.81	27.28	18.06	-24.3	-25.8	17.8	0.00e+00	0	43	102	1048576	8	4265
2026-01-06 10:04:35.81	27.05	18.04	-24.3	-25.7	17.9	0.00e+00	0	43	102	1048576	8	4218
2026-01-06 10:04:36.82	26.82	18.01	-24.3	-25.6	17.9	0.00e+00	0	43	102	1048576	8	4214
2026-01-06 10:04:37.83	26.59	17.99	-24.4	-25.9	17.8	0.00e+00	0	44	102	1048576	8	4267
2026-01-06 10:04:38.83	26.36	17.96	-24.2	-25.5	18.0	0.00e+00	0	44	102	1048576	8	4169
2026-01-06 10:04:39.84	26.13	17.94	-24.3	-25.6	18.0	0.00e+00	0	43	102	1048576	8	4209
2026-01-06 10:04:40.85	25.90	17.91	-24.2	-25.5	18.0	0.00e+00	0	43	102	1048576	8	4182
2026-01-06 10:04:41.86	25.67	17.88	-24.2	-25.5	18.0	0.00e+00	0	43	102	1048576	8	4181
2026-01-06 10:04:42.87	25.44	17.85	-24.2	-25.5	18.0	0.00e+00	0	43	102	1048576	8	4173
2026-01-06 10:04:43.87	25.21	17.83	-24.3	-25.6	17.9	0.00e+00	0	43	102	1048576	8	4204
2026-01-06 10:04:44.88	24.98	17.80	-24.1	-25.2	18.1	0.00e+00	0	43	102	1048576	8	4111
2026-01-06 10:04:45.88	24.76	17.77	-24.0	-25.0	18.2	0.00e+00	0	43	102	1048576	8	4052
2026-01-06 10:04:46.89	24.53	17.74	-24.0	-25.1	18.2	0.00e+00	0	43	102	1048576	8	4081
2026-01-06 10:04:47.89	24.31	17.71	-24.1	-25.4	18.0	0.00e+00	0	43	102	1048576	8	4140
2026-01-06 10:04:48.90	24.08	17.68	-24.2	-25.6	18.0	0.00e+00	0	43	102	1048576	8	4198
2026-01-06 10:04:49.90	23.86	17.65	-24.3	-25.7	17.9	0.00e+00	0	43	102	1048576	8	4231
2026-01-06 10:04:50.91	23.63	17.62	-24.3	-25.8	17.8	0.00e+00	0	43	102	1048576	8	4254
2026-01-06 10:04:51.91	23.41	17.59	-24.4	-25.9	17.8	0.00e+00	0	44	102	1048576	8	4276
2026-01-06 10:04:52.92	23.18	17.56	-24.3	-25.7	17.9	0.00e+00	0	44	102	1048576	8	4219
2026-01-06 10:04:53.93	22.96	17.53	-24.3	-25.7	17.9	0.00e+00	0	44	102	1048576	8	4223
2026-01-06 10:04:54.94	22.74	17.49	-24.4	-25.9	17.8	0.00e+00	0	44	102	1048576	8	4266
2026-01-06 10:04:55.95	22.51	17.46	-24.5	-25.6	17.6	0.00e+00	0	44	102	1048576	9	4094
2026-01-06 10:04:56.95	22.29	17.43	-24.3	-25.3	17.8	0.00e+00	0	43	102	1048576	9	4008
2026-01-06 10:04:57.96	22.07	17.39	-24.2	-25.0	18.0	0.00e+00	0	43	102	1048576	9	3936
2026-01-06 10:04:58.97	21.85	17.36	-24.2	-25.0	18.0	0.00e+00	0	44	102	1048576	9	3932
2026-01-06 10:04:59.98	21.63	17.33	-24.1	-24.9	18.0	0.00e+00	0	43	102	1048576	9	3913
2026-01-06 10:05:00.99	21.41	17.29	-24.4	-25.4	17.8	0.00e+00	0	43	102	1048576	9	4037
2026-01-06 10:05:02.00	21.19	17.26	-24.3	-25.2	17.9	0.00e+00	0	43	102	1048576	9	3986
2026-01-06 10:05:03.01	20.97	17.22	-24.3	-25.1	17.9	0.00e+00	0	43	102	1048576	9	3972
2026-01-06 10:05:04.02	20.75	17.18	-24.4	-25.3	17.8	0.00e+00	0	43	102	1048576	9	4014
2026-01-06 10:05:05.03	20.53	17.15	-24.3	-25.2	17.9	0.00e+00	0	43	102	1048576	9	3983
2026-01-06 10:05:06.03	20.31	17.11	-24.4	-25.4	17.7	0.00e+00	0	43	102	1048576	9	4042
2026-01-06 10:05:07.04	20.10	17.07	-24.5	-25.6	17.7	0.00e+00	0	43	102	1048576	9	4093
2026-01-06 10:05:08.04	19.88	17.04	-24.4	-25.5	17.7	0.00e+00	0	43	102	1048576	9	4070
2026-01-06 10:05:09.05	19.67	17.00	-24.5	-25.6	17.7	0.00e+00	0	43	102	1048576	9	4081
2026-01-06 10:05:10.06	19.45	16.96	-24.4	-25.4	17.7	0.00e+00	0	44	102	1048576	9	4052
2026-01-06 10:05:11.06	19.24	16.92	-24.5	-25.5	17.7	0.00e+00	0	43	102	1048576	9	4075
2026-01-06 10:05:12.06	19.02	16.88	-24.7	-26.0	17.4	0.00e+00	0	43	102	1048576	9	4190
2026-01-06 10:05:13.07	18.81	16.85	-24.7	-26.1	17.4	0.00e+00	0	43	102	1048576	9	4205
2026-01-06 10:05:14.07	18.60	16.81	-24.9	-26.5	17.1	0.00e+00	0	43	102	1048576	9	4332
2026-01-06 10:05:15.08	18.39	16.77	-25.0	-26.6	17.1	0.00e+00	0	43	102	1048576	9	4357
2026-01-06 10:05:16.09	18.17	16.73	-25.1	-26.5	16.9	0.00e+00	0	43	102	1048576	10	4216
2026-01-06 10:05:17.10	17.96	16.69	-25.3	-26.8	16.7	0.00e+00	0	43	102	1048576	10	4290
2026-01-06 10:05:18.10	17.75	16.65	-25.1	-26.4	17.0	0.00e+00	0	44	102	1048576	10	4170
2026-01-06 10:05:19.11	17.54	16.60	-25.2	-26.6	16.8	0.00e+00	0	43	102	1048576	10	4239
2026-01-06 10:05:20.12	17.33	16.56	-25.0	-26.1	17.1	0.00e+00	0	43	102	1048576	10	4114
2026-01-06 10:05:21.12	17.12	16.52	-24.9	-25.9	17.2	0.00e+00	0	43	102	1048576	10	4061
2026-01-06 10:05:22.13	16.91	16.48	-24.8	-25.8	17.3	0.00e+00	0	44	102	1048576	10	4047
2026-01-06 10:05:23.14	16.71	16.44	-24.8	-25.8	17.3	0.00e+00	0	43	102	1048576	10	4037
2026-01-06 10:05:24.15	16.50	16.39	-24.8	-25.9	17.2	0.00e+00	0	43	102	1048576	10	4047
2026-01-06 10:05:25.15	16.29	16.35	-24.7	-25.5	17.4	0.00e+00	0	43	102	1048576	10	3966
2026-01-06 10:05:26.16	16.09	16.31	-24.7	-25.4	17.5	0.00e+00	0	44	102	1048576	10	3938
2026-01-06 10:05:27.17	15.88	16.26	-24.7	-25.6	17.4	0.00e+00	0	43	102	1048576	10	3981
2026-01-06 10:05:28.18	15.68	16.22	-24.7	-25.5	17.4	0.00e+00	0	43	102	1048576	10	3950
2026-01-06 10:05:29.19	15.47	16.18	-24.7	-25.7	17.4	0.00e+00	0	43	102	1048576	10	3994
2026-01-06 10:05:30.18	15.27	16.13	-24.8	-25.7	17.3	0.00e+00	0	43	102	1048576	10	4001
2026-01-06 10:05:31.19	15.07	16.09	-24.9	-26.0	17.1	0.00e+00	0	43	102	1048576	10	4088
2026-01-06 10:05:32.19	14.87	16.04	-25.1	-26.4	16.9	0.00e+00	0	43	102	1048576	10	4183
2026-01-06 10:05:33.20	14.67	16.00	-25.1	-26.4	17.0	0.00e+00	0	44	102	1048576	10	4179
2026-01-06 10:05:34.21	14.46	15.95	-25.1	-26.5	16.9	0.00e+00	0	43	102	1048576	10	4219
2026-01-06 10:05:35.21	14.26	15.91	-25.1	-26.5	16.9	0.00e+00	0	43	102	1048576	10	4206
2026-01-06 10:05:36.22	14.06	15.86	-25.1	-26.3	17.0	0.00e+00	0	43	102	1048576	10	4164
2026-01-06 10:05:37.23	13.86	15.81	-25.1	-26.4	16.9	0.00e+00	0	43	102	1048576	10	4188
2026-01-06 10:05:38.23	13.67	15.77	-25.1	-26.4	16.9	0.00e+00	0	43	102	1048576	10	4182
2026-01-06 10:05:39.24	13.47	15.72	-25.0	-26.2	17.0	0.00e+00	0	43	102	1048576	10	4141
2026-01-06 10:05:40.25	13.27	15.67	-25.1	-26.4	16.9	0.00e+00	0	43	102	1048576	10	4171
2026-01-06 10:05:41.26	13.07	15.62	-25.1	-26.5	16.9	0.00e+00	0	44	102	1048576	10	4214
2026-01-06 10:05:42.26	12.88	15.58	-25.3	-26.8	16.7	0.00e+00	0	43	102	1048576	10	4284
2026-01-06 10:05:43.27	12.68	15.53	-25.3	-26.8	16.7	0.00e+00	0	44	102	1048576	10	4293
2026-01-06 10:05:44.28	12.49	15.48	-25.3	-26.8	16.7	0.00e+00	0	44	102	1048576	10	4280
2026-01-06 10:05:45.29	12.29	15.43	-25.1	-26.4	16.9	0.00e+00	0	43	102	1048576	10	4183
2026-01-06 10:05:46.30	12.10	15.38	-25.0	-26.2	17.0	0.00e+00	0	44	102	1048576	10	4123
2026-01-06 10:05:47.31	11.91	15.33	-25.0	-26.1	17.0	0.00e+00	0	43	102	1048576	10	4119
2026-01-06 10:05:48.31	11.72	15.29	-25.1	-26.3	16.9	0.00e+00	0	43	102	1048576	10	4167
2026-01-06 10:05:49.32	11.52	15.24	-25.2	-26.6	16.8	0.00e+00	0	44	102	1048576	10	4235
2026-01-06 10:05:50.32	11.33	15.19	-25.2	-26.6	16.8	0.00e+00	0	44	102	1048576	10	4243
2026-01-06 10:05:51.33	11.14	15.14	-25.3	-26.7	16.7	0.00e+00	0	44	102	1048576	10	4277
2026-01-06 10:05:52.33	10.96	15.09	-25.2	-26.6	16.8	0.00e+00	0	44	102	1048576	10	4231
2026-01-06 10:05:53.34	10.77	15.04	-25.2	-26.6	16.8	0.00e+00	0	43	102	1048576	10	4224
2026-01-06 10:05:54.34	10.58	14.99	-25.1	-26.5	16.8	0.00e+00	0	43	102	1048576	10	4203
2026-01-06 10:05:55.35	10.39	14.94	-25.3	-26.8	16.7	0.00e+00	0	44	102	1048576	10	4285
2026-01-06 10:05:56.36	10.20	14.89	-25.3	-26.8	16.6	0.00e+00	0	43	102	1048576	10	4300
2026-01-06 10:05:57.37	10.02	14.84	-25.3	-26.9	16.6	0.00e+00	0	43	102	1048576	10	4321
2026-01-06 10:05:58.37	9.83	14.78	-25.3	-26.8	16.7	0.00e+00	0	43	102	1048576	10	4285
2026-01-06 10:05:59.38	9.65	14.73	-25.2	-26.7	16.7	0.00e+00	0	43	102	1048576	10	4253
2026-01-06 10:06:00.39	9.46	14.68	-25.1	-26.5	16.8	0.00e+00	0	44	102	1048576	10	4219
2026-01-06 10:06:01.39	9.28	14.63	-25.1	-26.4	16.9	0.00e+00	0	44	102	1048576	10	4182
2026-01-06 10:06:02.39	9.10	14.58	-25.2	-26.5	16.8	0.00e+00	0	43	102	1048576	10	4216
2026-01-06 10:06:03.40	8.92	14.53	-25.3	-26.8	16.6	0.00e+00	0	43	102	1048576	10	4300
2026-01-06 10:06:04.41	8.73	14.47	-25.4	-27.0	16.5	0.00e+00	0	43	102	1048576	10	4346
2026-01-06 10:06:05.42	8.55	14.42	-25.3	-26.8	16.6	0.00e+00	0	43	102	1048576	10	4294
2026-01-06 10:06:06.42	8.37	14.37	-25.2	-26.6	16.7	0.00e+00	0	44	102	1048576	10	4250
2026-01-06 10:06:07.43	8.19	14.32	-25.2	-26.7	16.7	0.00e+00	0	43	102	1048576	10	4259
2026-01-06 10:06:08.43	8.01	14.26	-25.2	-26.7	16.7	0.00e+00	0	43	102	1048576	10	4256
2026-01-06 10:06:09.45	7.83	14.21	-25.1	-26.4	16.8	0.00e+00	0	43	102	1048576	10	4196
2026-01-06 10:06:10.45	7.66	14.16	-25.2	-26.6	16.7	0.00e+00	0	43	102	1048576	10	4241
2026-01-06 10:06:11.46	7.48	14.10	-25.3	-26.8	16.6	0.00e+00	0	43	102	1048576	10	4294
2026-01-06 10:06:12.47	7.30	14.05	-25.3	-27.0	16.5	0.00e+00	0	43	102	1048576	10	4338
2026-01-06 10:06:13.47	7.13	14.00	-25.4	-27.1	16.4	0.00e+00	0	43	102	1048576	10	4390
2026-01-06 10:06:14.48	6.95	13.94	-25.4	-27.1	16.4	0.00e+00	0	43	102	1048576	10	4384
2026-01-06 10:06:15.48	6.78	13.89	-25.3	-26.9	16.5	0.00e+00	0	43	102	1048576	10	4325
2026-01-06 10:06:16.49	6.60	13.83	-25.4	-27.0	16.5	0.00e+00	0	43	102	1048576	10	4337
2026-01-06 10:06:17.50	6.43	13.78	-25.3	-26.9	16.5	0.00e+00	0	43	102	1048576	10	4322
2026-01-06 10:06:18.50	6.26	13.72	-25.2	-26.7	16.6	0.00e+00	0	44	102	1048576	10	4268
2026-01-06 10:06:19.51	6.09	13.67	-25.3	-26.9	16.6	0.00e+00	0	43	102	1048576	10	4311
2026-01-06 10:06:20.51	5.92	13.62	-25.3	-27.0	16.5	0.00e+00	0	43	102	1048576	10	4335
2026-01-06 10:06:21.52	5.74	13.56	-25.4	-27.1	16.4	0.00e+00	0	43	102	1048576	10	4375
2026-01-06 10:06:22.52	5.58	13.51	-25.4	-27.2	16.4	0.00e+00	0	43	102	1048576	10	4387
2026-01-06 10:06:23.53	5.41	13.45	-25.4	-27.1	16.4	0.00e+00	0	43	102	1048576	10	4378
2026-01-06 10:06:24.54	5.24	13.40	-25.4	-27.1	16.5	0.00e+00	0	44	102	1048576	10	4356
2026-01-06 10:06:25.55	5.07	13.34	-25.4	-27.1	16.4	0.00e+00	0	43	102	1048576	10	4361
2026-01-06 10:06:26.55	4.90	13.28	-25.4	-27.2	16.4	0.00e+00	0	43	102	1048576	10	4388
2026-01-06 10:06:27.56	4.73	13.23	-25.5	-27.3	16.3	0.00e+00	0	43	102	1048576	10	4422
2026-01-06 10:06:28.57	4.57	13.17	-25.7	-27.2	16.1	0.00e+00	0	43	102	1048576	11	4274
2026-01-06 10:06:29.57	4.40	13.12	-25.8	-27.4	16.0	0.00e+00	0	43	102	1048576	11	4334
2026-01-06 10:06:30.57	4.24	13.06	-25.8	-27.5	15.9	0.00e+00	0	43	102	1048576	11	4380
2026-01-06 10:06:31.58	4.07	13.01	-25.8	-27.6	15.9	0.00e+00	0	43	102	1048576	11	4393
2026-01-06 10:06:32.57	3.91	12.95	-25.7	-27.3	16.0	0.00e+00	0	43	102	1048576	11	4318
2026-01-06 10:06:33.58	3.75	12.89	-25.8	-27.4	16.0	0.00e+00	0	43	102	1048576	11	4341
2026-01-06 10:06:34.59	3.59	12.84	-25.8	-27.4	15.9	0.00e+00	0	43	102	1048576	11	4346
2026-01-06 10:06:35.60	3.42	12.78	-25.8	-27.5	15.9	0.00e+00	0	43	102	1048576	11	4369
2026-01-06 10:06:36.60	3.26	12.72	-25.9	-27.8	15.7	0.00e+00	0	43	102	1048576	11	4451
2026-01-06 10:06:37.61	3.10	12.67	-25.9	-27.2	15.7	0.00e+00	0	44	102	1048576	12	4176
2026-01-06 10:06:38.62	2.94	12.61	-25.8	-27.0	15.8	0.00e+00	0	43	102	1048576	12	4127
2026-01-06 10:06:39.63	2.78	12.55	-25.8	-26.9	15.8	0.00e+00	0	43	102	1048576	12	4113
2026-01-06 10:06:40.64	2.62	12.50	-25.7	-26.8	15.9	0.00e+00	0	44	102	1048576	12	4087
2026-01-06 10:06:41.65	2.47	12.44	-25.7	-26.8	15.9	0.00e+00	0	43	102	1048576	12	4078
2026-01-06 10:06:42.65	2.31	12.38	-25.7	-26.8	15.9	0.00e+00	0	43	102	1048576	12	4088
2026-01-06 10:06:43.66	2.15	12.33	-25.8	-27.0	15.8	0.00e+00	0	44	102	1048576	12	4122
2026-01-06 10:06:44.66	2.00	12.27	-25.8	-27.0	15.8	0.00e+00	0	43	102	1048576	12	4123
2026-01-06 10:06:45.67	1.84	12.21	-25.9	-27.1	15.7	0.00e+00	0	43	102	1048576	12	4157
2026-01-06 10:06:46.67	1.69	12.15	-25.9	-27.1	15.7	0.00e+00	0	43	102	1048576	12	4162
2026-01-06 10:06:47.68	1.53	12.10	-25.7	-26.9	15.9	0.00e+00	0	43	102	1048576	12	4098
2026-01-06 10:06:48.69	1.38	12.04	-25.8	-27.0	15.8	0.00e+00	0	44	102	1048576	12	4132
2026-01-06 10:06:49.70	1.23	11.98	-25.8	-27.0	15.8	0.00e+00	0	43	102	1048576	12	4135
2026-01-06 10:06:50.69	1.08	11.93	-25.9	-27.2	15.7	0.00e+00	0	43	102	1048576	12	4174
2026-01-06 10:06:51.70	0.92	11.87	-25.9	-27.2	15.6	0.00e+00	0	43	102	1048576	12	4185
2026-01-06 10:06:52.71	0.77	11.81	-26.0	-27.3	15.6	0.00e+00	0	43	102	1048576	12	4214
2026-01-06 10:06:53.72	0.62	11.75	-25.9	-27.2	15.6	0.00e+00	0	44	102	1048576	12	4191
2026-01-06 10:06:54.73	0.47	11.69	-26.0	-27.3	15.6	0.00e+00	0	43	102	1048576	12	4222
2026-01-06 10:06:55.73	0.32	11.64	-26.0	-27.4	15.6	0.00e+00	0	44	102	1048576	12	4232
2026-01-06 10:06:56.74	0.17	11.58	-26.0	-27.5	15.5	0.00e+00	0	44	102	1048576	12	4260
2026-01-06 10:06:57.75	0.02	11.52	-26.0	-27.5	15.5	0.00e+00	0	43	102	1048576	12	4265
2026-01-06 10:06:58.75	359.88	11.46	-26.1	-27.6	15.4	0.00e+00	0	43	102	1048576	12	4299
2026-01-06 10:06:59.76	359.73	11.40	-26.0	-27.4	15.5	0.00e+00	0	44	102	1048576	12	4242
2026-01-06 10:07:00.77	359.58	11.35	-26.0	-27.4	15.5	0.00e+00	0	44	102	1048576	12	4230
2026-01-06 10:07:01.77	359.44	11.29	-26.0	-27.5	15.4	0.00e+00	0	44	102	1048576	12	4275
2026-01-06 10:07:02.78	359.29	11.23	-26.1	-27.6	15.4	0.00e+00	0	44	102	1048576	12	4291
2026-01-06 10:07:03.78	359.15	11.17	-26.1	-27.7	15.4	0.00e+00	0	44	102	1048576	12	4312
2026-01-06 10:07:04.79	359.00	11.11	-26.2	-27.8	15.3	0.00e+00	0	43	102	1048576	12	4354
2026-01-06 10:07:05.80	358.86	11.05	-26.2	-27.8	15.3	0.00e+00	0	44	102	1048576	12	4340
2026-01-06 10:07:06.80	358.72	11.00	-26.1	-27.6	15.4	0.00e+00	0	43	102	1048576	12	4301
2026-01-06 10:07:07.81	358.58	10.94	-26.2	-27.8	15.3	0.00e+00	0	43	102	1048576	12	4343
2026-01-06 10:07:08.82	358.43	10.88	-26.2	-27.8	15.3	0.00e+00	0	44	102	1048576	12	4339
2026-01-06 10:07:09.83	358.29	10.82	-26.3	-28.0	15.1	0.00e+00	0	44	102	1048576	12	4418
2026-01-06 10:07:10.83	358.15	10.76	-26.2	-27.8	15.3	0.00e+00	0	43	102	1048576	12	4349
2026-01-06 10:07:11.84	358.01	10.70	-26.0	-27.5	15.4	0.00e+00	0	44	102	1048576	12	4258
2026-01-06 10:07:12.84	357.87	10.64	-26.0	-27.4	15.5	0.00e+00	0	44	102	1048576	12	4244
2026-01-06 10:07:13.85	357.73	10.59	-26.1	-27.7	15.3	0.00e+00	0	43	102	1048576	12	4327
2026-01-06 10:07:14.86	357.60	10.53	-26.2	-27.9	15.2	0.00e+00	0	44	102	1048576	12	4372
2026-01-06 10:07:15.86	357.46	10.47	-26.3	-28.2	15.0	0.00e+00	0	44	102	1048576	12	4468
2026-01-06 10:07:16.87	357.32	10.41	-26.3	-28.2	15.0	0.00e+00	0	43	102	1048576	12	4466
2026-01-06 10:07:17.88	357.18	10.35	-26.3	-28.1	15.1	0.00e+00	0	44	102	1048576	12	4436
2026-01-06 10:07:18.89	357.05	10.29	-26.3	-28.1	15.1	0.00e+00	0	44	102	1048576	12	4432
2026-01-06 10:07:19.89	356.91	10.23	-26.4	-28.4	14.9	0.00e+00	0	43	102	1048576	12	4506
2026-01-06 10:07:20.90	356.78	10.17	-26.3	-28.1	15.0	1.10e-06	0	44	102	1048576	12	4440
2026-01-06 10:07:21.89	356.65	10.12	-26.4	-28.3	14.9	1.10e-06	0	44	102	1048576	12	4498
2026-01-06 10:07:22.90	356.51	10.06	-26.5	-28.1	14.7	1.10e-06	0	44	102	1048576	13	4328
2026-01-06 10:07:23.91	356.38	10.00	-26.8	-28.8	14.3	0.00e+00	0	44	102	1048576	13	4526
2026-01-06 10:07:24.92	356.25	9.94	-26.7	-28.6	14.5	1.10e-06	0	43	102	1048576	13	4451
2026-01-06 10:07:25.93	356.11	9.88	-26.5	-28.0	14.8	1.10e-06	0	43	102	1048576	13	4307
2026-01-06 10:07:26.94	355.98	9.82	-26.6	-28.2	14.7	1.10e-06	0	44	102	1048576	13	4345
2026-01-06 10:07:27.95	355.85	9.76	-26.5	-28.1	14.7	0.00e+00	0	44	102	1048576	13	4319
2026-01-06 10:07:28.95	355.72	9.70	-26.4	-27.9	14.8	0.00e+00	0	43	102	1048576	13	4263
2026-01-06 10:07:29.96	355.59	9.65	-26.4	-27.8	14.9	1.10e-06	0	43	102	1048576	13	4232
2026-01-06 10:07:30.96	355.46	9.59	-26.6	-28.4	14.5	1.10e-06	0	44	102	1048576	13	4400
2026-01-06 10:07:31.97	355.33	9.53	-26.5	-28.1	14.7	2.20e-06	0	44	102	1048576	13	4334
2026-01-06 10:07:32.98	355.20	9.47	-26.6	-28.3	14.6	0.00e+00	0	44	102	1048576	13	4370
2026-01-06 10:07:33.99	355.07	9.41	-26.5	-28.1	14.7	0.00e+00	0	44	102	1048576	13	4324
2026-01-06 10:07:34.98	354.95	9.35	-26.5	-28.0	14.8	0.00e+00	0	43	102	1048576	13	4297
2026-01-06 10:07:35.99	354.82	9.29	-26.5	-28.1	14.7	0.00e+00	0	43	102	1048576	13	4332
2026-01-06 10:07:36.99	354.70	9.23	-26.4	-28.0	14.8	0.00e+00	0	43	102	1048576	13	4283
2026-01-06 10:07:38.00	354.57	9.18	-26.4	-27.9	14.8	1.10e-06	0	43	102	1048576	13	4257
2026-01-06 10:07:39.01	354.45	9.12	-26.6	-28.2	14.6	0.00e+00	0	43	102	1048576	13	4354
2026-01-06 10:07:40.01	354.32	9.06	-26.5	-28.1	14.7	0.00e+00	0	43	102	1048576	13	4320
2026-01-06 10:07:41.02	354.20	9.00	-26.5	-28.0	14.7	0.00e+00	0	43	102	1048576	13	4303
2026-01-06 10:07:42.03	354.07	8.94	-26.6	-28.3	14.6	1.10e-06	0	44	102	1048576	13	4372
2026-01-06 10:07:43.04	353.95	8.88	-26.7	-28.5	14.4	1.10e-06	0	43	102	1048576	13	4450
2026-01-06 10:07:44.05	353.83	8.82	-26.8	-28.7	14.3	2.20e-06	0	44	102	1048576	13	4492
2026-01-06 10:07:45.05	353.70	8.76	-26.7	-28.5	14.4	1.10e-06	0	44	102	1048576	13	4451
2026-01-06 10:07:46.06	353.58	8.70	-26.8	-28.7	14.3	2.20e-06	0	44	102	1048576	13	4493
2026-01-06 10:07:47.07	353.46	8.65	-26.8	-28.7	14.3	3.40e-06	0	44	102	1048576	13	4501
2026-01-06 10:07:48.07	353.34	8.59	-26.8	-28.7	14.3	2.20e-06	0	43	102	1048576	13	4502
2026-01-06 10:07:49.07	353.22	8.53	-26.9	-29.0	14.1	1.14e-05	0	44	102	1048576	13	4590
2026-01-06 10:07:50.08	353.10	8.47	-26.7	-28.6	14.3	2.20e-06	0	43	102	1048576	13	4482
2026-01-06 10:07:51.08	352.98	8.41	-26.7	-28.6	14.4	2.20e-06	0	44	102	1048576	13	4463
2026-01-06 10:07:52.09	352.86	8.35	-26.7	-28.6	14.3	3.40e-06	0	43	102	1048576	13	4479
2026-01-06 10:07:53.09	352.75	8.29	-27.0	-28.8	13.9	6.80e-06	0	43	102	1048576	14	4420
2026-01-06 10:07:54.10	352.63	8.24	-27.0	-28.7	14.0	5.70e-06	0	43	102	1048576	14	4374
2026-01-06 10:07:55.10	352.51	8.18	-27.0	-28.9	13.9	8.00e-06	0	43	102	1048576	14	4437
2026-01-06 10:07:56.11	352.40	8.12	-27.0	-28.8	13.9	2.20e-06	0	43	102	1048576	14	4424
2026-01-06 10:07:57.12	352.28	8.06	-27.1	-29.0	13.8	1.37e-05	0	43	102	1048576	14	4483
2026-01-06 10:07:58.13	352.16	8.00	-27.1	-29.0	13.8	1.14e-05	0	44	102	1048576	14	4464
2026-01-06 10:07:59.14	352.05	7.94	-27.1	-29.0	13.8	1.25e-05	0	43	102	1048576	14	4469
2026-01-06 10:08:00.15	351.93	7.88	-27.1	-28.9	13.9	2.20e-06	0	44	102	1048576	14	4442
2026-01-06 10:08:01.15	351.82	7.83	-27.2	-29.2	13.6	1.14e-05	0	43	102	1048576	14	4536
2026-01-06 10:08:02.16	351.71	7.77	-27.0	-28.8	13.8	3.40e-06	0	44	102	1048576	14	4416
2026-01-06 10:08:03.16	351.59	7.71	-27.0	-28.7	13.9	5.70e-06	0	44	102	1048576	14	4375
2026-01-06 10:08:04.17	351.48	7.65	-27.0	-28.8	13.9	1.25e-05	0	43	102	1048576	14	4410
2026-01-06 10:08:05.18	351.37	7.59	-27.1	-28.9	13.8	5.70e-06	0	43	102	1048576	14	4462
2026-01-06 10:08:06.19	351.25	7.53	-27.2	-29.2	13.6	1.25e-05	0	44	102	1048576	14	4525
2026-01-06 10:08:07.19	351.14	7.48	-27.1	-29.1	13.6	1.02e-05	0	44	102	1048576	14	4514
2026-01-06 10:08:08.20	351.03	7.42	-27.1	-29.1	13.6	1.25e-05	0	44	102	1048576	14	4525
2026-01-06 10:08:09.20	350.92	7.36	-27.1	-29.1	13.6	1.25e-05	0	43	102	1048576	14	4511
2026-01-06 10:08:10.21	350.81	7.30	-27.1	-29.0	13.7	8.00e-06	0	44	102	1048576	14	4495
2026-01-06 10:08:11.22	350.70	7.24	-27.1	-29.1	13.6	1.02e-05	0	44	102	1048576	14	4502
2026-01-06 10:08:12.22	350.59	7.19	-27.0	-28.7	13.8	1.37e-05	0	44	102	1048576	14	4408
2026-01-06 10:08:13.23	350.48	7.13	-27.0	-28.9	13.7	8.00e-06	0	43	102	1048576	14	4448
2026-01-06 10:08:14.24	350.38	7.07	-27.3	-29.5	13.5	1.14e-05	0	44	102	1048576	14	4641
2026-01-06 10:08:15.25	350.27	7.01	-32.8	-42.9	3.8	8.41e-01	0	44	104	1048576	25	11438

#Closed at: 2026-01-06 10:08:16
#Recorded file [1 MB]: D:/data/31010_260106_125919.dat