passes_logs/2026/01/06/R2M6_AANII_01/R2M6_AANII_01__20260106_065143_FENGYUN_3E_rec.log

#Pass ID: 20260106_065143_FENGYUN 3E
#Satellite: FENGYUN 3E
#Configuration: FENGYUN 3E
#almurnet v.1.7.20240730
#Start time: 2026-01-06 06:51:45

#Version: 2.2.20231116
#Station: R2M6_AANII_01
#Location: 30.233357 lon 59.946436 lat
#TLE: 1 49008U 21062A   26005.56299987  .00000339  00000+0  18069-3 0  9991
#TLE: 2 49008  98.7472  10.8019 0001562 158.0357 202.0886 14.19884907233502

#Time	Az	El	Level	Level2	SNR	BER	BlckErr	Temp	State	Recorded	gain1	gain2
2026-01-06 06:51:45.09	9.16	7.09	-31.2	-35.5	4.4	8.26e-01	0	41	0	0	23	5913
2026-01-06 06:51:46.09	9.05	7.15	-30.7	-34.8	4.7	8.07e-01	0	41	104	0	21	5714
2026-01-06 06:51:47.10	8.95	7.21	-30.6	-34.3	6.6	2.26e-01	0	42	0	0	21	5486
2026-01-06 06:51:48.10	8.84	7.27	-30.6	-34.1	6.7	1.99e-01	0	42	102	1048576	21	5388
2026-01-06 06:51:49.11	8.74	7.33	-30.5	-33.9	6.9	1.87e-01	0	42	102	1048576	21	5287
2026-01-06 06:51:50.12	8.63	7.39	-30.4	-33.6	7.1	1.74e-01	0	42	102	1048576	21	5184
2026-01-06 06:51:51.12	8.52	7.45	-30.0	-32.3	8.0	8.77e-02	0	42	102	1048576	21	4660
2026-01-06 06:51:52.13	8.42	7.51	-29.6	-31.5	8.8	3.75e-02	0	42	102	1048576	20	4473
2026-01-06 06:51:53.14	8.31	7.57	-29.1	-30.6	9.8	1.40e-02	0	42	102	1048576	19	4273
2026-01-06 06:51:54.14	8.20	7.63	-28.6	-29.9	10.6	5.22e-03	0	42	102	1048576	18	4174
2026-01-06 06:51:55.15	8.09	7.69	-27.6	-28.7	11.4	1.47e-03	0	42	102	1048576	17	4073
2026-01-06 06:51:56.15	7.98	7.75	-27.7	-28.7	12.0	6.23e-04	0	42	102	1048576	16	4033
2026-01-06 06:51:57.16	7.87	7.81	-27.6	-28.4	12.2	3.29e-04	0	42	102	1048576	16	3958
2026-01-06 06:51:58.17	7.76	7.87	-27.2	-28.1	12.5	1.51e-04	0	42	102	1048576	15	3967
2026-01-06 06:51:59.18	7.65	7.93	-27.0	-27.6	12.8	6.06e-05	0	42	102	1048576	15	3848
2026-01-06 06:52:00.19	7.54	7.99	-27.1	-27.7	12.8	6.17e-05	0	42	102	1048576	15	3868
2026-01-06 06:52:01.19	7.43	8.05	-27.0	-28.1	12.8	6.52e-05	0	42	102	1048576	14	4086
2026-01-06 06:52:02.20	7.32	8.11	-26.9	-27.8	13.0	4.92e-05	0	42	102	1048576	14	4004
2026-01-06 06:52:03.21	7.21	8.17	-26.9	-27.8	13.0	4.92e-05	0	42	102	1048576	14	4004
2026-01-06 06:52:04.22	7.09	8.23	-27.0	-28.0	12.9	1.36e-04	0	42	102	1048576	14	4049
2026-01-06 06:52:05.23	6.98	8.29	-26.9	-27.8	13.0	5.03e-05	0	42	102	1048576	14	4005
2026-01-06 06:52:06.23	6.87	8.35	-26.8	-27.6	13.1	8.01e-05	0	42	102	1048576	14	3935
2026-01-06 06:52:07.24	6.75	8.41	-26.9	-27.9	13.0	4.46e-05	0	42	102	1048576	14	4009
2026-01-06 06:52:08.25	6.64	8.48	-27.1	-28.3	12.8	9.72e-05	0	42	102	1048576	14	4116
2026-01-06 06:52:09.25	6.52	8.54	-27.1	-28.3	12.7	2.56e-04	0	42	102	1048576	14	4124
2026-01-06 06:52:10.26	6.41	8.60	-27.2	-28.4	12.7	2.89e-04	0	42	102	1048576	14	4159
2026-01-06 06:52:11.27	6.29	8.66	-27.2	-28.6	12.6	1.10e-04	0	42	102	1048576	14	4195
2026-01-06 06:52:12.28	6.17	8.72	-27.3	-28.6	12.5	4.63e-04	0	42	102	1048576	14	4205
2026-01-06 06:52:13.28	6.06	8.78	-27.2	-28.4	12.7	3.71e-04	0	42	102	1048576	14	4161
2026-01-06 06:52:14.29	5.94	8.84	-27.1	-28.4	12.7	7.78e-05	0	42	102	1048576	14	4144
2026-01-06 06:52:15.30	5.82	8.90	-27.1	-28.3	12.8	2.85e-04	0	42	102	1048576	14	4114
2026-01-06 06:52:16.30	5.70	8.96	-27.2	-28.5	12.7	2.13e-04	0	42	102	1048576	14	4173
2026-01-06 06:52:17.31	5.58	9.02	-27.3	-28.8	12.5	1.22e-04	0	42	102	1048576	14	4251
2026-01-06 06:52:18.32	5.46	9.08	-27.1	-28.2	12.9	2.46e-04	0	42	102	1048576	14	4082
2026-01-06 06:52:19.33	5.34	9.14	-26.9	-27.7	13.1	2.51e-04	0	42	102	1048576	14	3960
2026-01-06 06:52:20.33	5.22	9.20	-26.7	-27.4	13.3	2.28e-05	0	42	102	1048576	14	3881
2026-01-06 06:52:21.34	5.10	9.27	-26.6	-27.7	13.4	2.40e-04	0	42	102	1048576	13	4068
2026-01-06 06:52:22.34	4.98	9.33	-26.8	-28.1	13.2	2.40e-05	0	42	102	1048576	13	4165
2026-01-06 06:52:23.35	4.86	9.39	-26.7	-27.9	13.3	1.83e-05	0	42	102	1048576	13	4111
2026-01-06 06:52:24.35	4.73	9.45	-26.8	-28.1	13.2	1.60e-05	0	42	102	1048576	13	4177
2026-01-06 06:52:25.36	4.61	9.51	-26.9	-28.2	13.1	3.08e-05	0	42	102	1048576	13	4213
2026-01-06 06:52:26.35	4.49	9.57	-26.8	-28.1	13.2	1.83e-05	0	42	102	1048576	13	4169
2026-01-06 06:52:27.35	4.36	9.63	-26.8	-28.2	13.1	3.89e-05	0	43	102	1048576	13	4191
2026-01-06 06:52:28.36	4.24	9.69	-26.8	-28.0	13.3	2.05e-05	0	42	102	1048576	13	4139
2026-01-06 06:52:29.37	4.11	9.75	-26.9	-28.2	13.2	1.60e-05	0	43	102	1048576	13	4195
2026-01-06 06:52:30.38	3.99	9.81	-26.9	-28.3	13.1	3.43e-05	0	43	102	1048576	13	4225
2026-01-06 06:52:31.38	3.86	9.88	-27.0	-28.5	13.0	3.31e-05	0	43	102	1048576	13	4280
2026-01-06 06:52:32.39	3.73	9.94	-26.9	-28.3	13.1	4.00e-05	0	42	102	1048576	13	4235
2026-01-06 06:52:33.40	3.60	10.00	-27.0	-28.4	13.0	4.11e-05	0	43	102	1048576	13	4262
2026-01-06 06:52:34.41	3.48	10.06	-26.9	-28.3	13.1	3.31e-05	0	42	102	1048576	13	4217
2026-01-06 06:52:35.41	3.35	10.12	-26.8	-28.1	13.2	3.08e-05	0	43	102	1048576	13	4165
2026-01-06 06:52:36.42	3.22	10.18	-26.7	-27.9	13.4	1.37e-05	0	43	102	1048576	13	4106
2026-01-06 06:52:37.42	3.09	10.24	-26.6	-27.6	13.5	1.25e-05	0	43	102	1048576	13	4043
2026-01-06 06:52:38.43	2.96	10.30	-26.7	-27.9	13.4	1.94e-05	0	43	102	1048576	13	4105
2026-01-06 06:52:39.43	2.83	10.36	-26.7	-27.9	13.4	1.25e-05	0	43	102	1048576	13	4110
2026-01-06 06:52:40.44	2.70	10.43	-26.7	-27.7	13.5	2.28e-05	0	43	102	1048576	13	4072
2026-01-06 06:52:41.44	2.56	10.49	-26.6	-27.5	13.6	1.02e-05	0	43	102	1048576	13	4010
2026-01-06 06:52:42.45	2.43	10.55	-26.5	-27.3	13.7	6.80e-06	0	43	102	1048576	13	3945
2026-01-06 06:52:43.46	2.30	10.61	-26.6	-27.5	13.6	6.80e-06	0	43	102	1048576	13	4020
2026-01-06 06:52:44.47	2.16	10.67	-26.4	-27.1	13.8	5.70e-06	0	43	102	1048576	13	3904
2026-01-06 06:52:45.48	2.03	10.73	-26.4	-27.0	13.9	4.50e-06	0	43	102	1048576	13	3889
2026-01-06 06:52:46.49	1.89	10.79	-26.4	-27.1	13.9	1.10e-06	0	43	102	1048576	13	3907
2026-01-06 06:52:47.50	1.76	10.86	-26.3	-26.9	14.0	5.70e-06	0	43	102	1048576	13	3861
2026-01-06 06:52:48.51	1.62	10.92	-26.4	-27.2	13.8	4.50e-06	0	43	102	1048576	13	3923
2026-01-06 06:52:49.52	1.48	10.98	-26.5	-27.3	13.8	5.70e-06	0	43	102	1048576	13	3946
2026-01-06 06:52:50.53	1.34	11.04	-26.3	-26.9	14.0	6.80e-06	0	43	102	1048576	13	3860
2026-01-06 06:52:51.54	1.20	11.10	-26.2	-26.6	14.1	0.00e+00	0	43	102	1048576	13	3790
2026-01-06 06:52:52.54	1.07	11.16	-26.3	-26.9	14.0	3.40e-06	0	43	102	1048576	13	3862
2026-01-06 06:52:53.55	0.93	11.22	-26.3	-26.9	14.0	0.00e+00	0	43	102	1048576	13	3869
2026-01-06 06:52:54.56	0.79	11.29	-26.4	-27.7	13.8	3.40e-06	0	43	102	1048576	12	4163
2026-01-06 06:52:55.57	0.65	11.35	-26.4	-27.7	13.8	9.10e-06	0	43	102	1048576	12	4180
2026-01-06 06:52:56.58	0.50	11.41	-26.4	-27.7	13.8	6.80e-06	0	43	102	1048576	12	4165
2026-01-06 06:52:57.58	0.36	11.47	-26.4	-27.5	14.0	5.70e-06	0	43	102	1048576	12	4114
2026-01-06 06:52:58.59	0.22	11.53	-26.4	-27.7	13.8	5.70e-06	0	43	102	1048576	12	4174
2026-01-06 06:52:59.60	0.08	11.59	-26.4	-27.5	14.0	1.02e-05	0	43	102	1048576	12	4116
2026-01-06 06:53:00.60	359.94	11.65	-26.3	-27.5	14.0	4.50e-06	0	43	102	1048576	12	4100
2026-01-06 06:53:01.61	359.79	11.71	-26.3	-27.4	14.0	6.80e-06	0	43	102	1048576	12	4082
2026-01-06 06:53:02.62	359.65	11.77	-26.3	-27.4	14.0	1.10e-06	0	43	102	1048576	12	4080
2026-01-06 06:53:03.62	359.50	11.83	-26.3	-27.5	14.0	1.10e-06	0	43	102	1048576	12	4100
2026-01-06 06:53:04.63	359.35	11.90	-26.2	-27.2	14.1	4.50e-06	0	43	102	1048576	12	4040
2026-01-06 06:53:05.64	359.21	11.96	-26.1	-27.0	14.3	1.10e-06	0	43	102	1048576	12	3966
2026-01-06 06:53:06.65	359.06	12.02	-25.9	-26.6	14.5	0.00e+00	0	43	102	1048576	12	3876
2026-01-06 06:53:07.65	358.91	12.08	-25.9	-26.6	14.5	1.10e-06	0	43	102	1048576	12	3874
2026-01-06 06:53:08.66	358.76	12.14	-25.9	-26.6	14.5	0.00e+00	0	43	102	1048576	12	3873
2026-01-06 06:53:09.67	358.61	12.20	-26.0	-26.6	14.5	0.00e+00	0	43	102	1048576	12	3892
2026-01-06 06:53:10.68	358.46	12.26	-25.8	-26.3	14.7	1.10e-06	0	43	102	1048576	12	3807
2026-01-06 06:53:11.68	358.31	12.32	-25.8	-26.1	14.7	1.10e-06	0	43	102	1048576	12	3765
2026-01-06 06:53:12.68	358.16	12.38	-25.7	-26.1	14.8	0.00e+00	0	43	102	1048576	12	3761
2026-01-06 06:53:13.69	358.01	12.44	-25.7	-26.1	14.8	0.00e+00	0	43	102	1048576	12	3764
2026-01-06 06:53:14.70	357.86	12.50	-25.7	-26.6	14.9	1.18e-04	0	43	102	1048576	11	3985
2026-01-06 06:53:15.70	357.71	12.56	-25.7	-26.5	14.9	0.00e+00	0	43	102	1048576	11	3953
2026-01-06 06:53:16.70	357.56	12.62	-25.7	-26.6	14.9	0.00e+00	0	43	102	1048576	11	3964
2026-01-06 06:53:17.71	357.40	12.68	-25.8	-26.7	14.8	2.04e-04	0	43	102	1048576	11	4001
2026-01-06 06:53:18.71	357.25	12.74	-25.7	-26.6	14.9	0.00e+00	0	43	102	1048576	11	3971
2026-01-06 06:53:19.72	357.09	12.80	-25.8	-26.7	14.8	0.00e+00	0	43	102	1048576	11	4006
2026-01-06 06:53:20.73	356.93	12.87	-25.8	-26.7	14.8	1.56e-04	0	43	102	1048576	11	4006
2026-01-06 06:53:21.73	356.78	12.93	-26.1	-27.3	14.5	0.00e+00	0	43	102	1048576	11	4161
2026-01-06 06:53:22.75	356.62	12.99	-26.1	-26.8	14.4	1.10e-06	0	43	102	1048576	12	3936
2026-01-06 06:53:23.75	356.46	13.05	-26.2	-27.1	14.3	0.00e+00	0	43	102	1048576	12	4002
2026-01-06 06:53:24.76	356.30	13.11	-26.1	-27.0	14.3	2.76e-04	0	43	102	1048576	12	3990
2026-01-06 06:53:25.76	356.14	13.17	-26.2	-27.1	14.2	1.10e-06	0	43	102	1048576	12	4016
2026-01-06 06:53:26.76	355.99	13.22	-26.3	-27.3	14.2	2.38e-04	0	43	102	1048576	12	4054
2026-01-06 06:53:27.77	355.82	13.28	-26.1	-26.9	14.4	2.86e-04	0	43	102	1048576	12	3951
2026-01-06 06:53:28.78	355.66	13.34	-26.2	-27.2	14.2	1.10e-06	0	43	102	1048576	12	4021
2026-01-06 06:53:29.79	355.50	13.40	-26.0	-26.7	14.5	3.74e-04	0	43	102	1048576	12	3909
2026-01-06 06:53:30.79	355.34	13.46	-25.9	-27.0	14.7	3.57e-04	0	43	102	1048576	11	4087
2026-01-06 06:53:31.80	355.17	13.52	-25.9	-27.0	14.7	1.10e-06	0	43	102	1048576	11	4075
2026-01-06 06:53:32.81	355.01	13.58	-26.1	-26.9	14.4	2.71e-04	0	43	102	1048576	12	3943
2026-01-06 06:53:33.81	354.85	13.64	-26.3	-27.4	14.1	0.00e+00	0	43	102	1048576	12	4077
2026-01-06 06:53:34.82	354.68	13.70	-26.1	-27.0	14.4	2.20e-06	0	43	102	1048576	12	3968
2026-01-06 06:53:35.82	354.51	13.76	-26.1	-26.9	14.4	2.76e-04	0	43	102	1048576	12	3947
2026-01-06 06:53:36.83	354.35	13.82	-26.1	-27.0	14.4	0.00e+00	0	43	102	1048576	12	3979
2026-01-06 06:53:37.83	354.18	13.88	-26.1	-26.8	14.5	0.00e+00	0	43	102	1048576	12	3934
2026-01-06 06:53:38.84	354.01	13.94	-26.1	-27.3	14.6	0.00e+00	0	43	102	1048576	11	4170
2026-01-06 06:53:39.85	353.84	13.99	-25.9	-26.5	14.6	2.21e-04	0	43	102	1048576	12	3854
2026-01-06 06:53:40.86	353.67	14.05	-26.2	-27.0	14.3	1.10e-06	0	43	102	1048576	12	3983
2026-01-06 06:53:41.86	353.50	14.11	-26.1	-26.9	14.5	1.10e-06	0	44	102	1048576	12	3942
2026-01-06 06:53:42.87	353.33	14.17	-26.0	-27.1	14.7	0.00e+00	0	43	102	1048576	11	4098
2026-01-06 06:53:43.88	353.16	14.23	-26.0	-26.8	14.5	0.00e+00	0	43	102	1048576	12	3928
2026-01-06 06:53:44.88	352.99	14.29	-26.4	-27.5	14.1	0.00e+00	0	43	102	1048576	12	4107
2026-01-06 06:53:45.89	352.82	14.34	-26.1	-26.9	14.4	0.00e+00	0	44	102	1048576	12	3961
2026-01-06 06:53:46.89	352.64	14.40	-25.8	-26.3	14.8	0.00e+00	0	43	102	1048576	12	3805
2026-01-06 06:53:47.90	352.47	14.46	-25.6	-25.8	15.0	0.00e+00	0	43	102	1048576	12	3693
2026-01-06 06:53:48.91	352.29	14.52	-25.5	-26.0	15.3	0.00e+00	0	43	102	1048576	11	3825
2026-01-06 06:53:49.91	352.12	14.57	-25.4	-26.0	15.3	0.00e+00	0	43	102	1048576	11	3823
2026-01-06 06:53:50.92	351.94	14.63	-25.4	-25.9	15.3	1.10e-06	0	44	102	1048576	11	3806
2026-01-06 06:53:51.93	351.76	14.69	-25.4	-26.3	15.4	0.00e+00	0	43	102	1048576	10	4014
2026-01-06 06:53:52.93	351.59	14.75	-25.3	-26.2	15.5	0.00e+00	0	44	102	1048576	10	3977
2026-01-06 06:53:53.94	351.41	14.80	-25.4	-26.3	15.4	0.00e+00	0	44	102	1048576	10	4014
2026-01-06 06:53:54.94	351.23	14.86	-25.3	-26.1	15.5	0.00e+00	0	43	102	1048576	10	3946
2026-01-06 06:53:55.95	351.05	14.92	-25.3	-26.2	15.5	0.00e+00	0	43	102	1048576	10	3973
2026-01-06 06:53:56.96	350.87	14.97	-25.5	-26.5	15.3	0.00e+00	0	43	102	1048576	10	4064
2026-01-06 06:53:57.97	350.69	15.03	-25.4	-26.3	15.4	0.00e+00	0	44	102	1048576	10	4007
2026-01-06 06:53:58.97	350.51	15.08	-25.5	-26.6	15.3	0.00e+00	0	43	102	1048576	10	4089
2026-01-06 06:53:59.98	350.32	15.14	-25.4	-26.3	15.4	0.00e+00	0	43	102	1048576	10	4008
2026-01-06 06:54:00.99	350.14	15.20	-25.2	-26.0	15.6	0.00e+00	0	43	102	1048576	10	3920
2026-01-06 06:54:01.99	349.96	15.25	-25.2	-25.9	15.7	0.00e+00	0	44	102	1048576	10	3895
2026-01-06 06:54:03.00	349.77	15.31	-25.2	-25.9	15.7	0.00e+00	0	44	102	1048576	10	3900
2026-01-06 06:54:04.01	349.59	15.36	-25.1	-25.6	15.8	0.00e+00	0	44	102	1048576	10	3838
2026-01-06 06:54:05.01	349.40	15.42	-25.0	-25.6	15.9	0.00e+00	0	44	102	1048576	10	3830
2026-01-06 06:54:06.03	349.21	15.47	-24.9	-25.2	16.0	0.00e+00	0	43	102	1048576	10	3747
2026-01-06 06:54:07.03	349.02	15.53	-25.0	-25.4	16.0	0.00e+00	0	44	102	1048576	10	3779
2026-01-06 06:54:08.04	348.84	15.58	-25.1	-25.8	15.7	0.00e+00	0	43	102	1048576	10	3880
2026-01-06 06:54:09.05	348.65	15.64	-24.9	-25.2	16.0	0.00e+00	0	44	102	1048576	10	3747
2026-01-06 06:54:10.06	348.46	15.69	-24.8	-25.0	16.2	0.00e+00	0	44	102	1048576	10	3691
2026-01-06 06:54:11.07	348.27	15.74	-24.9	-25.2	16.1	0.00e+00	0	44	102	1048576	10	3733
2026-01-06 06:54:12.07	348.08	15.80	-24.8	-25.1	16.1	0.00e+00	0	44	102	1048576	10	3716
2026-01-06 06:54:13.08	347.88	15.85	-24.9	-25.2	16.1	0.00e+00	0	44	102	1048576	10	3740
2026-01-06 06:54:14.09	347.69	15.90	-25.1	-25.7	15.8	0.00e+00	0	44	102	1048576	10	3865
2026-01-06 06:54:15.10	347.50	15.96	-25.0	-25.4	16.0	0.00e+00	0	43	102	1048576	10	3786
2026-01-06 06:54:16.10	347.30	16.01	-24.8	-25.0	16.2	0.00e+00	0	44	102	1048576	10	3684
2026-01-06 06:54:17.10	347.11	16.06	-24.8	-25.0	16.2	0.00e+00	0	44	102	1048576	10	3684
2026-01-06 06:54:18.10	346.92	16.11	-24.8	-25.1	16.1	0.00e+00	0	43	102	1048576	10	3707
2026-01-06 06:54:19.11	346.72	16.17	-24.7	-24.9	16.2	0.00e+00	0	44	102	1048576	10	3677
2026-01-06 06:54:20.12	346.52	16.22	-24.9	-25.2	16.1	0.00e+00	0	44	102	1048576	10	3735
2026-01-06 06:54:21.13	346.32	16.27	-24.8	-25.1	16.1	0.00e+00	0	44	102	1048576	10	3711
2026-01-06 06:54:22.14	346.13	16.32	-24.8	-25.1	16.1	0.00e+00	0	44	102	1048576	10	3723
2026-01-06 06:54:23.14	345.93	16.37	-24.8	-25.1	16.1	0.00e+00	0	44	102	1048576	10	3714
2026-01-06 06:54:24.15	345.73	16.42	-24.9	-25.3	16.0	0.00e+00	0	44	102	1048576	10	3753
2026-01-06 06:54:25.16	345.53	16.48	-24.9	-25.7	16.0	0.00e+00	0	44	102	1048576	9	3972
2026-01-06 06:54:26.17	345.33	16.53	-24.9	-25.8	16.0	0.00e+00	0	44	102	1048576	9	3984
2026-01-06 06:54:27.17	345.13	16.58	-24.8	-25.5	16.1	0.00e+00	0	44	102	1048576	9	3913
2026-01-06 06:54:28.18	344.92	16.63	-24.8	-25.5	16.2	0.00e+00	0	44	102	1048576	9	3919
2026-01-06 06:54:29.18	344.72	16.68	-24.8	-25.5	16.0	0.00e+00	0	44	102	1048576	9	3910
2026-01-06 06:54:30.19	344.52	16.72	-24.6	-25.2	15.9	0.00e+00	0	44	102	1048576	9	3844
2026-01-06 06:54:31.20	344.31	16.77	-24.6	-25.2	16.4	0.00e+00	0	44	102	1048576	9	3831
2026-01-06 06:54:32.21	344.11	16.82	-24.7	-25.2	16.3	0.00e+00	0	44	102	1048576	9	3849
2026-01-06 06:54:33.21	343.90	16.87	-24.7	-25.4	16.3	0.00e+00	0	44	102	1048576	9	3884
2026-01-06 06:54:34.22	343.70	16.92	-24.8	-25.6	16.1	0.00e+00	0	44	102	1048576	9	3946
2026-01-06 06:54:35.22	343.49	16.97	-24.6	-25.2	16.3	0.00e+00	0	44	102	1048576	9	3842
2026-01-06 06:54:36.23	343.28	17.02	-24.6	-25.1	16.4	1.02e-05	0	44	102	1048576	9	3829
2026-01-06 06:54:37.24	343.07	17.06	-24.6	-25.2	16.3	0.00e+00	0	44	102	1048576	9	3845
2026-01-06 06:54:38.25	342.86	17.11	-24.6	-25.1	16.4	0.00e+00	0	44	102	1048576	9	3828
2026-01-06 06:54:39.25	342.66	17.16	-24.7	-25.2	16.3	0.00e+00	0	44	102	1048576	9	3853
2026-01-06 06:54:40.26	342.45	17.20	-24.6	-25.0	16.4	0.00e+00	0	44	102	1048576	9	3804
2026-01-06 06:54:41.26	342.24	17.25	-24.6	-25.1	16.4	0.00e+00	0	44	102	1048576	9	3810
2026-01-06 06:54:42.26	342.03	17.30	-24.6	-25.1	16.4	0.00e+00	0	44	102	1048576	9	3816
2026-01-06 06:54:43.27	341.81	17.34	-24.6	-25.0	16.4	0.00e+00	0	43	102	1048576	9	3800
2026-01-06 06:54:44.28	341.60	17.39	-24.6	-25.1	16.4	0.00e+00	0	43	102	1048576	9	3808
2026-01-06 06:54:45.28	341.39	17.43	-24.6	-25.2	16.4	0.00e+00	0	44	102	1048576	9	3833
2026-01-06 06:54:46.29	341.17	17.48	-24.6	-25.2	16.4	0.00e+00	0	44	102	1048576	9	3835
2026-01-06 06:54:47.29	340.96	17.52	-24.7	-25.3	16.3	0.00e+00	0	43	102	1048576	9	3856
2026-01-06 06:54:48.30	340.74	17.56	-24.8	-25.5	16.2	0.00e+00	0	44	102	1048576	9	3912
2026-01-06 06:54:49.31	340.53	17.61	-24.6	-25.2	16.4	0.00e+00	0	44	102	1048576	9	3834
2026-01-06 06:54:50.32	340.31	17.65	-24.6	-25.0	16.4	0.00e+00	0	44	102	1048576	9	3799
2026-01-06 06:54:51.33	340.09	17.69	-24.6	-25.1	16.4	0.00e+00	0	44	102	1048576	9	3811
2026-01-06 06:54:52.34	339.87	17.74	-24.5	-24.8	16.5	1.10e-06	0	44	102	1048576	9	3754
2026-01-06 06:54:53.35	339.65	17.78	-24.4	-24.7	16.6	0.00e+00	0	44	102	1048576	9	3734
2026-01-06 06:54:54.36	339.43	17.82	-24.5	-24.9	16.5	0.00e+00	0	44	102	1048576	9	3781
2026-01-06 06:54:55.36	339.22	17.86	-24.3	-24.5	16.7	0.00e+00	0	44	102	1048576	9	3685
2026-01-06 06:54:56.37	338.99	17.90	-24.2	-24.2	16.9	5.03e-05	0	44	102	1048576	9	3622
2026-01-06 06:54:57.38	338.77	17.94	-24.2	-24.2	16.9	0.00e+00	0	44	102	1048576	9	3615
2026-01-06 06:54:58.39	338.55	17.99	-24.2	-24.2	16.9	0.00e+00	0	44	102	1048576	9	3602
2026-01-06 06:54:59.39	338.33	18.03	-24.3	-25.0	16.7	0.00e+00	0	44	102	1048576	8	3893
2026-01-06 06:55:00.39	338.11	18.06	-24.3	-24.9	16.8	0.00e+00	0	44	102	1048576	8	3879
2026-01-06 06:55:01.41	337.88	18.10	-24.2	-24.8	16.8	0.00e+00	0	44	102	1048576	8	3862
2026-01-06 06:55:02.41	337.66	18.14	-24.3	-25.0	16.7	0.00e+00	0	44	102	1048576	8	3890
2026-01-06 06:55:03.42	337.43	18.18	-24.3	-24.9	16.8	0.00e+00	0	44	102	1048576	8	3882
2026-01-06 06:55:04.43	337.21	18.22	-24.2	-24.8	16.8	0.00e+00	0	44	102	1048576	8	3850
2026-01-06 06:55:05.43	336.98	18.26	-24.3	-24.9	16.8	0.00e+00	0	44	102	1048576	8	3875
2026-01-06 06:55:06.44	336.76	18.29	-24.3	-24.9	16.8	0.00e+00	0	44	102	1048576	8	3863
2026-01-06 06:55:07.45	336.53	18.33	-24.3	-24.9	16.8	0.00e+00	0	44	102	1048576	8	3883
2026-01-06 06:55:08.46	336.30	18.37	-24.4	-25.1	16.7	0.00e+00	0	44	102	1048576	8	3922
2026-01-06 06:55:09.46	336.08	18.40	-24.1	-24.6	16.9	0.00e+00	0	44	102	1048576	8	3804
2026-01-06 06:55:10.47	335.85	18.44	-24.1	-24.5	17.0	0.00e+00	0	44	102	1048576	8	3767
2026-01-06 06:55:11.48	335.62	18.47	-24.1	-24.5	17.0	0.00e+00	0	44	102	1048576	8	3791
2026-01-06 06:55:12.48	335.39	18.51	-24.1	-24.4	17.0	0.00e+00	0	44	102	1048576	8	3769
2026-01-06 06:55:13.49	335.16	18.54	-24.0	-24.4	17.1	0.00e+00	0	44	102	1048576	8	3751
2026-01-06 06:55:14.50	334.93	18.58	-24.0	-24.8	17.1	0.00e+00	0	44	102	1048576	7	3960
2026-01-06 06:55:15.50	334.70	18.61	-23.9	-24.7	17.2	0.00e+00	0	44	102	1048576	7	3920
2026-01-06 06:55:16.51	334.46	18.64	-23.8	-24.4	17.3	0.00e+00	0	44	102	1048576	7	3857
2026-01-06 06:55:17.51	334.23	18.68	-23.8	-24.4	17.3	0.00e+00	0	44	102	1048576	7	3868
2026-01-06 06:55:18.52	334.00	18.71	-23.9	-24.6	17.2	0.00e+00	0	44	102	1048576	7	3898
2026-01-06 06:55:19.53	333.77	18.74	-23.8	-24.5	17.3	0.00e+00	0	44	102	1048576	7	3882
2026-01-06 06:55:20.54	333.53	18.77	-23.9	-24.6	17.2	0.00e+00	0	44	102	1048576	7	3906
2026-01-06 06:55:21.53	333.30	18.80	-23.9	-24.7	17.2	0.00e+00	0	44	102	1048576	7	3930
2026-01-06 06:55:22.54	333.07	18.83	-24.0	-24.9	17.1	0.00e+00	0	44	102	1048576	7	3973
2026-01-06 06:55:23.55	332.83	18.86	-24.1	-25.0	17.0	0.00e+00	0	44	102	1048576	7	4001
2026-01-06 06:55:24.55	332.60	18.89	-24.1	-24.6	17.0	0.00e+00	0	44	102	1048576	8	3802
2026-01-06 06:55:25.55	332.36	18.92	-24.2	-24.8	16.9	0.00e+00	0	44	102	1048576	8	3843
2026-01-06 06:55:26.56	332.12	18.95	-24.2	-24.7	16.9	0.00e+00	0	44	102	1048576	8	3823
2026-01-06 06:55:27.56	331.89	18.98	-24.2	-24.7	16.9	0.00e+00	0	44	102	1048576	8	3833
2026-01-06 06:55:28.57	331.65	19.00	-24.4	-25.3	16.6	0.00e+00	0	44	102	1048576	8	3958
2026-01-06 06:55:29.57	331.41	19.03	-24.4	-24.8	16.6	0.00e+00	0	44	102	1048576	9	3732
2026-01-06 06:55:30.58	331.18	19.06	-24.2	-24.8	16.8	0.00e+00	0	44	102	1048576	8	3846
2026-01-06 06:55:31.58	330.94	19.08	-24.1	-24.7	17.0	0.00e+00	0	44	102	1048576	8	3816
2026-01-06 06:55:32.59	330.70	19.11	-24.2	-24.7	16.9	0.00e+00	0	44	102	1048576	8	3828
2026-01-06 06:55:33.60	330.46	19.13	-24.2	-24.7	17.0	0.00e+00	0	44	102	1048576	8	3814
2026-01-06 06:55:34.61	330.22	19.16	-24.1	-24.5	17.0	0.00e+00	0	44	102	1048576	8	3769
2026-01-06 06:55:35.62	329.98	19.18	-24.0	-24.4	17.1	0.00e+00	0	44	102	1048576	8	3756
2026-01-06 06:55:36.62	329.74	19.21	-23.9	-24.6	17.2	0.00e+00	0	44	102	1048576	7	3904
2026-01-06 06:55:37.63	329.50	19.23	-23.8	-24.5	17.3	0.00e+00	0	44	102	1048576	7	3875
2026-01-06 06:55:38.64	329.25	19.25	-23.9	-24.7	17.1	0.00e+00	0	44	102	1048576	7	3934
2026-01-06 06:55:39.65	329.01	19.27	-23.9	-24.6	17.2	0.00e+00	0	44	102	1048576	7	3894
2026-01-06 06:55:40.66	328.77	19.30	-23.9	-24.5	17.3	0.00e+00	0	44	102	1048576	7	3894
2026-01-06 06:55:41.66	328.53	19.32	-23.9	-24.7	17.2	0.00e+00	0	44	102	1048576	7	3929
2026-01-06 06:55:42.67	328.28	19.34	-23.9	-24.7	17.2	0.00e+00	0	44	102	1048576	7	3921
2026-01-06 06:55:43.68	328.04	19.36	-23.9	-24.6	17.2	0.00e+00	0	44	102	1048576	7	3904
2026-01-06 06:55:44.69	327.80	19.38	-23.9	-24.7	17.2	0.00e+00	0	44	102	1048576	7	3927
2026-01-06 06:55:45.70	327.55	19.40	-24.0	-24.7	17.1	0.00e+00	0	44	102	1048576	7	3940
2026-01-06 06:55:46.70	327.31	19.41	-24.1	-25.0	17.0	0.00e+00	0	44	102	1048576	7	3999
2026-01-06 06:55:47.71	327.06	19.43	-24.0	-24.4	17.1	3.29e-04	0	44	102	1048576	8	3750
2026-01-06 06:55:48.72	326.82	19.45	-23.9	-24.1	17.2	0.00e+00	0	44	102	1048576	8	3688
2026-01-06 06:55:49.73	326.57	19.47	-23.9	-24.6	17.2	0.00e+00	0	44	102	1048576	7	3893
2026-01-06 06:55:50.73	326.33	19.48	-23.8	-24.5	17.3	0.00e+00	0	44	102	1048576	7	3878
2026-01-06 06:55:51.74	326.08	19.50	-23.9	-24.5	17.2	0.00e+00	0	44	102	1048576	7	3896
2026-01-06 06:55:52.75	325.84	19.51	-23.9	-24.6	17.2	3.05e-04	0	44	102	1048576	7	3909
2026-01-06 06:55:53.75	325.59	19.53	-23.8	-24.3	17.4	0.00e+00	0	44	102	1048576	7	3847
2026-01-06 06:55:54.76	325.35	19.54	-23.8	-24.5	17.3	0.00e+00	0	44	102	1048576	7	3878
2026-01-06 06:55:55.77	325.10	19.56	-23.8	-24.3	17.4	1.41e-04	0	44	102	1048576	7	3845
2026-01-06 06:55:56.78	324.85	19.57	-23.8	-24.5	17.3	0.00e+00	0	44	102	1048576	7	3873
2026-01-06 06:55:57.78	324.61	19.58	-23.8	-24.4	17.3	0.00e+00	0	44	102	1048576	7	3866
2026-01-06 06:55:58.79	324.36	19.59	-23.9	-24.5	17.3	0.00e+00	0	44	102	1048576	7	3892
2026-01-06 06:55:59.80	324.11	19.60	-23.9	-24.6	17.2	0.00e+00	0	44	102	1048576	7	3918
2026-01-06 06:56:00.81	323.86	19.62	-23.9	-24.5	17.3	0.00e+00	0	44	102	1048576	7	3892
2026-01-06 06:56:01.81	323.62	19.63	-23.9	-24.6	17.2	1.02e-04	0	44	102	1048576	7	3899
2026-01-06 06:56:02.82	323.37	19.64	-23.8	-24.5	17.3	1.83e-04	0	44	102	1048576	7	3889
2026-01-06 06:56:03.83	323.12	19.64	-23.8	-24.5	17.3	0.00e+00	0	44	102	1048576	7	3877
2026-01-06 06:56:04.84	322.87	19.65	-24.0	-24.8	17.1	1.43e-04	0	44	102	1048576	7	3950
2026-01-06 06:56:05.84	322.62	19.66	-23.9	-24.6	17.2	2.86e-05	0	44	102	1048576	7	3913
2026-01-06 06:56:06.85	322.37	19.67	-23.9	-24.7	17.1	0.00e+00	0	44	102	1048576	7	3941
2026-01-06 06:56:07.86	322.12	19.68	-23.9	-24.6	17.2	0.00e+00	0	44	102	1048576	7	3919
2026-01-06 06:56:08.86	321.88	19.68	-23.9	-24.7	17.2	0.00e+00	0	44	102	1048576	7	3943
2026-01-06 06:56:09.87	321.63	19.69	-23.9	-24.5	17.3	0.00e+00	0	44	102	1048576	7	3896
2026-01-06 06:56:10.87	321.38	19.69	-23.9	-24.5	17.3	0.00e+00	0	44	102	1048576	7	3895
2026-01-06 06:56:11.88	321.13	19.70	-23.8	-24.3	17.4	0.00e+00	0	44	102	1048576	7	3842
2026-01-06 06:56:12.88	320.88	19.70	-24.0	-24.9	17.1	0.00e+00	0	44	102	1048576	7	3972
2026-01-06 06:56:13.88	320.64	19.70	-23.9	-24.5	17.3	0.00e+00	0	44	102	1048576	7	3892
2026-01-06 06:56:14.89	320.39	19.71	-23.7	-24.1	17.5	0.00e+00	0	44	102	1048576	7	3800
2026-01-06 06:56:15.90	320.14	19.71	-23.6	-24.0	17.5	0.00e+00	0	44	102	1048576	7	3777
2026-01-06 06:56:16.91	319.89	19.71	-23.6	-24.1	17.5	0.00e+00	0	44	102	1048576	7	3784
2026-01-06 06:56:17.90	319.64	19.71	-23.6	-23.9	17.6	0.00e+00	0	44	102	1048576	7	3752
2026-01-06 06:56:18.91	319.39	19.71	-23.6	-24.1	17.5	0.00e+00	0	44	102	1048576	7	3783
2026-01-06 06:56:19.91	319.14	19.71	-23.6	-24.0	17.5	0.00e+00	0	44	102	1048576	7	3764
2026-01-06 06:56:20.92	318.89	19.71	-23.6	-24.0	17.5	0.00e+00	0	44	102	1048576	7	3774
2026-01-06 06:56:21.92	318.65	19.71	-23.7	-24.3	17.3	0.00e+00	0	44	102	1048576	7	3833
2026-01-06 06:56:22.93	318.40	19.71	-23.7	-24.2	17.4	0.00e+00	0	44	102	1048576	7	3817
2026-01-06 06:56:23.94	318.15	19.71	-23.9	-24.5	17.2	0.00e+00	0	44	102	1048576	7	3895
2026-01-06 06:56:24.95	317.90	19.71	-23.7	-24.2	17.4	0.00e+00	0	44	102	1048576	7	3825
2026-01-06 06:56:25.95	317.65	19.70	-23.7	-24.1	17.5	0.00e+00	0	44	102	1048576	7	3791
2026-01-06 06:56:26.96	317.40	19.70	-23.8	-24.4	17.4	0.00e+00	0	44	102	1048576	7	3852
2026-01-06 06:56:27.97	317.15	19.69	-23.7	-24.1	17.5	0.00e+00	0	44	102	1048576	7	3791
2026-01-06 06:56:28.97	316.90	19.69	-23.6	-24.1	17.5	0.00e+00	0	44	102	1048576	7	3790
2026-01-06 06:56:29.98	316.65	19.68	-23.6	-24.0	17.5	0.00e+00	0	44	102	1048576	7	3767
2026-01-06 06:56:30.99	316.40	19.68	-23.7	-24.3	17.4	0.00e+00	0	44	102	1048576	7	3830
2026-01-06 06:56:32.00	316.15	19.67	-23.6	-24.1	17.5	0.00e+00	0	44	102	1048576	7	3782
2026-01-06 06:56:33.00	315.91	19.66	-23.7	-24.2	17.4	0.00e+00	0	44	102	1048576	7	3822
2026-01-06 06:56:34.00	315.66	19.66	-23.8	-24.3	17.3	0.00e+00	0	44	102	1048576	7	3845
2026-01-06 06:56:35.01	315.41	19.65	-23.8	-24.5	17.3	0.00e+00	0	44	102	1048576	7	3878
2026-01-06 06:56:36.02	315.16	19.64	-23.7	-24.1	17.4	0.00e+00	0	44	102	1048576	7	3793
2026-01-06 06:56:37.03	314.91	19.63	-23.7	-24.1	17.5	0.00e+00	0	44	102	1048576	7	3795
2026-01-06 06:56:38.03	314.67	19.62	-23.9	-24.5	17.3	0.00e+00	0	44	102	1048576	7	3886
2026-01-06 06:56:39.04	314.42	19.61	-23.6	-24.0	17.5	0.00e+00	0	44	102	1048576	7	3763
2026-01-06 06:56:40.05	314.17	19.60	-23.5	-23.8	17.6	0.00e+00	0	44	102	1048576	7	3726
2026-01-06 06:56:41.06	313.92	19.59	-23.6	-24.0	17.5	0.00e+00	0	44	102	1048576	7	3762
2026-01-06 06:56:42.07	313.67	19.57	-23.6	-24.0	17.5	0.00e+00	0	44	102	1048576	7	3763
2026-01-06 06:56:43.07	313.43	19.56	-23.7	-24.2	17.4	0.00e+00	0	44	102	1048576	7	3804
2026-01-06 06:56:44.08	313.18	19.55	-23.7	-24.2	17.4	0.00e+00	0	44	102	1048576	7	3801
2026-01-06 06:56:45.08	312.94	19.53	-23.7	-24.2	17.4	0.00e+00	0	44	102	1048576	7	3805
2026-01-06 06:56:46.09	312.69	19.52	-23.7	-24.2	17.4	0.00e+00	0	44	102	1048576	7	3819
2026-01-06 06:56:47.10	312.44	19.50	-23.8	-24.3	17.3	0.00e+00	0	44	102	1048576	7	3843
2026-01-06 06:56:48.11	312.20	19.49	-23.7	-24.2	17.4	0.00e+00	0	44	102	1048576	7	3811
2026-01-06 06:56:49.11	311.95	19.47	-23.5	-23.8	17.6	0.00e+00	0	44	102	1048576	7	3729
2026-01-06 06:56:50.12	311.71	19.46	-23.5	-24.2	17.6	0.00e+00	0	44	102	1048576	6	3929
2026-01-06 06:56:51.13	311.46	19.44	-23.4	-24.1	17.7	0.00e+00	0	44	102	1048576	6	3884
2026-01-06 06:56:52.14	311.22	19.42	-23.5	-24.3	17.6	0.00e+00	0	44	102	1048576	6	3939
2026-01-06 06:56:53.14	310.97	19.40	-23.5	-24.3	17.6	0.00e+00	0	44	102	1048576	6	3953
2026-01-06 06:56:54.15	310.73	19.38	-23.6	-24.5	17.5	0.00e+00	0	44	102	1048576	6	3982
2026-01-06 06:56:55.16	310.48	19.36	-23.8	-24.4	17.3	0.00e+00	0	44	102	1048576	7	3856
2026-01-06 06:56:56.16	310.24	19.34	-24.1	-24.9	17.0	0.00e+00	0	44	102	1048576	7	3989
2026-01-06 06:56:57.17	310.00	19.32	-23.8	-24.5	17.2	0.00e+00	0	44	102	1048576	7	3883
2026-01-06 06:56:58.18	309.75	19.30	-23.9	-24.6	17.1	1.10e-06	0	44	102	1048576	7	3919
2026-01-06 06:56:59.19	309.51	19.28	-23.9	-24.7	17.1	0.00e+00	0	44	102	1048576	7	3935
2026-01-06 06:57:00.19	309.27	19.26	-24.0	-24.9	17.0	0.00e+00	0	44	102	1048576	7	3982
2026-01-06 06:57:01.20	309.03	19.24	-23.7	-24.3	17.3	0.00e+00	0	44	102	1048576	7	3839
2026-01-06 06:57:02.20	308.79	19.21	-23.1	-23.5	15.8	0.00e+00	0	44	102	1048576	7	3774
2026-01-06 06:57:03.21	308.54	19.19	-23.6	-24.0	17.5	0.00e+00	0	44	102	1048576	7	3763
2026-01-06 06:57:04.21	308.31	19.17	-23.7	-24.1	17.4	0.00e+00	0	44	102	1048576	7	3801
2026-01-06 06:57:05.17	308.08	19.14	-23.7	-24.2	17.4	0.00e+00	0	44	102	1048576	7	3806
2026-01-06 06:57:06.18	307.84	19.12	-23.9	-24.7	17.1	0.00e+00	0	44	102	1048576	7	3923
2026-01-06 06:57:07.19	307.60	19.09	-23.8	-24.3	17.3	0.00e+00	0	44	102	1048576	7	3845
2026-01-06 06:57:08.20	307.36	19.07	-23.6	-24.1	17.4	3.18e-04	0	44	102	1048576	7	3795
2026-01-06 06:57:09.20	307.12	19.04	-23.6	-24.0	17.5	0.00e+00	0	44	102	1048576	7	3759
2026-01-06 06:57:10.21	306.88	19.01	-23.7	-24.1	17.4	0.00e+00	0	44	102	1048576	7	3800
2026-01-06 06:57:11.22	306.64	18.99	-23.7	-24.2	17.3	8.23e-04	0	44	102	1048576	7	3822
2026-01-06 06:57:12.23	306.40	18.96	-23.7	-24.1	17.4	0.00e+00	0	44	102	1048576	7	3802
2026-01-06 06:57:13.23	306.17	18.93	-23.6	-24.0	17.4	9.26e-04	0	44	102	1048576	7	3778
2026-01-06 06:57:14.24	305.93	18.90	-23.7	-24.1	17.4	8.96e-04	0	44	102	1048576	7	3800
2026-01-06 06:57:15.25	305.69	18.87	-23.6	-24.1	17.4	0.00e+00	0	44	102	1048576	7	3793
2026-01-06 06:57:16.25	305.46	18.84	-23.8	-24.3	17.3	8.24e-04	0	44	102	1048576	7	3842
2026-01-06 06:57:17.26	305.22	18.81	-23.9	-24.6	17.2	0.00e+00	0	44	102	1048576	7	3895
2026-01-06 06:57:18.27	304.99	18.78	-23.9	-24.6	17.2	0.00e+00	0	44	102	1048576	7	3903
2026-01-06 06:57:19.27	304.75	18.75	-24.0	-24.3	17.0	7.12e-04	0	44	102	1048576	8	3739
2026-01-06 06:57:20.28	304.52	18.72	-23.8	-24.5	17.2	4.70e-04	0	44	102	1048576	7	3880
2026-01-06 06:57:21.29	304.28	18.69	-23.7	-24.3	17.3	0.00e+00	0	44	102	1048576	7	3827
2026-01-06 06:57:22.30	304.05	18.66	-23.9	-24.6	17.1	0.00e+00	0	44	102	1048576	7	3917
2026-01-06 06:57:23.30	303.82	18.62	-23.9	-24.7	17.1	2.63e-04	0	44	102	1048576	7	3934
2026-01-06 06:57:24.31	303.59	18.59	-23.7	-24.3	17.3	0.00e+00	0	44	102	1048576	7	3837
2026-01-06 06:57:25.31	303.36	18.56	-23.7	-24.3	17.3	3.81e-04	0	44	102	1048576	7	3831
2026-01-06 06:57:26.32	303.13	18.52	-23.8	-24.5	17.2	7.28e-04	0	44	102	1048576	7	3886
2026-01-06 06:57:27.32	302.90	18.49	-23.9	-24.7	17.1	0.00e+00	0	44	102	1048576	7	3926
2026-01-06 06:57:28.33	302.67	18.45	-24.0	-24.9	17.0	8.28e-04	0	44	102	1048576	7	3997
2026-01-06 06:57:29.34	302.44	18.42	-24.2	-24.8	16.8	5.10e-04	0	44	102	1048576	8	3842
2026-01-06 06:57:30.35	302.21	18.38	-24.3	-24.9	16.7	0.00e+00	0	44	102	1048576	8	3884
2026-01-06 06:57:31.36	301.98	18.34	-24.3	-25.1	16.6	1.10e-06	0	44	102	1048576	8	3921
2026-01-06 06:57:32.35	301.75	18.31	-24.4	-25.2	16.6	0.00e+00	0	44	102	1048576	8	3950
2026-01-06 06:57:33.36	301.53	18.27	-24.2	-24.8	16.8	0.00e+00	0	44	102	1048576	8	3861
2026-01-06 06:57:34.37	301.30	18.23	-24.1	-24.6	16.9	0.00e+00	0	44	102	1048576	8	3812
2026-01-06 06:57:35.38	301.07	18.19	-24.2	-24.7	16.8	0.00e+00	0	44	102	1048576	8	3826
2026-01-06 06:57:36.39	300.85	18.16	-24.2	-24.7	16.8	0.00e+00	0	44	102	1048576	8	3839
2026-01-06 06:57:37.39	300.62	18.12	-24.0	-24.4	17.0	0.00e+00	0	44	102	1048576	8	3765
2026-01-06 06:57:38.40	300.40	18.08	-24.1	-24.6	16.9	0.00e+00	0	44	102	1048576	8	3796
2026-01-06 06:57:39.41	300.17	18.04	-24.2	-24.7	16.8	0.00e+00	0	44	102	1048576	8	3834
2026-01-06 06:57:40.42	299.95	18.00	-24.0	-24.3	17.0	0.00e+00	0	44	102	1048576	8	3741
2026-01-06 06:57:41.42	299.73	17.96	-24.2	-24.7	16.8	0.00e+00	0	44	102	1048576	8	3834
2026-01-06 06:57:42.43	299.51	17.92	-24.2	-24.8	16.8	0.00e+00	0	44	102	1048576	8	3851
2026-01-06 06:57:43.44	299.29	17.88	-24.3	-25.0	16.7	0.00e+00	0	44	102	1048576	8	3896
2026-01-06 06:57:44.44	299.07	17.83	-24.4	-25.3	16.5	0.00e+00	0	44	102	1048576	8	3966
2026-01-06 06:57:45.46	298.84	17.79	-24.5	-25.4	16.5	0.00e+00	0	44	102	1048576	8	3991
2026-01-06 06:57:46.45	298.63	17.75	-24.3	-25.1	16.6	0.00e+00	0	44	102	1048576	8	3913
2026-01-06 06:57:47.46	298.41	17.71	-24.4	-25.1	16.6	0.00e+00	0	44	102	1048576	8	3925
2026-01-06 06:57:48.46	298.19	17.66	-24.3	-25.1	16.6	0.00e+00	0	44	102	1048576	8	3914
2026-01-06 06:57:49.47	297.97	17.62	-24.3	-25.1	16.6	0.00e+00	0	44	102	1048576	8	3913
2026-01-06 06:57:50.47	297.76	17.58	-24.3	-25.0	16.6	0.00e+00	0	44	102	1048576	8	3899
2026-01-06 06:57:51.49	297.54	17.53	-24.4	-25.2	16.6	0.00e+00	0	44	102	1048576	8	3937
2026-01-06 06:57:52.50	297.32	17.49	-24.3	-25.1	16.6	0.00e+00	0	44	102	1048576	8	3917
2026-01-06 06:57:53.50	297.11	17.44	-24.2	-24.8	16.8	0.00e+00	0	44	102	1048576	8	3848
2026-01-06 06:57:54.51	296.89	17.40	-24.2	-24.7	16.8	0.00e+00	0	44	102	1048576	8	3821
2026-01-06 06:57:55.51	296.68	17.35	-24.1	-24.6	16.8	0.00e+00	0	44	102	1048576	8	3812
2026-01-06 06:57:56.53	296.46	17.31	-24.2	-24.7	16.8	0.00e+00	0	44	102	1048576	8	3829
2026-01-06 06:57:57.53	296.25	17.26	-24.2	-24.7	16.8	0.00e+00	0	44	102	1048576	8	3838
2026-01-06 06:57:58.53	296.04	17.22	-24.2	-24.8	16.7	0.00e+00	0	44	102	1048576	8	3860
2026-01-06 06:57:59.54	295.83	17.17	-24.3	-24.9	16.7	0.00e+00	0	44	102	1048576	8	3883
2026-01-06 06:58:00.55	295.62	17.12	-24.3	-25.1	16.6	0.00e+00	0	44	102	1048576	8	3920
2026-01-06 06:58:01.55	295.41	17.08	-24.3	-25.0	16.6	0.00e+00	0	44	102	1048576	8	3907
2026-01-06 06:58:02.56	295.20	17.03	-24.3	-25.0	16.6	0.00e+00	0	44	102	1048576	8	3893
2026-01-06 06:58:03.56	294.99	16.98	-24.2	-24.9	16.7	0.00e+00	0	44	102	1048576	8	3866
2026-01-06 06:58:04.57	294.79	16.93	-24.2	-24.8	16.7	0.00e+00	0	44	102	1048576	8	3850
2026-01-06 06:58:05.58	294.58	16.88	-24.2	-24.7	16.8	0.00e+00	0	44	102	1048576	8	3829
2026-01-06 06:58:06.58	294.37	16.84	-24.2	-24.8	16.7	0.00e+00	0	44	102	1048576	8	3859
2026-01-06 06:58:07.59	294.17	16.79	-24.2	-24.8	16.7	0.00e+00	0	44	102	1048576	8	3845
2026-01-06 06:58:08.60	293.96	16.74	-24.2	-24.7	16.7	0.00e+00	0	44	102	1048576	8	3819
2026-01-06 06:58:09.61	293.76	16.69	-24.2	-24.8	16.7	0.00e+00	0	44	102	1048576	8	3862
2026-01-06 06:58:10.61	293.55	16.64	-24.4	-25.1	16.5	0.00e+00	0	44	102	1048576	8	3937
2026-01-06 06:58:11.62	293.35	16.59	-24.4	-25.3	16.4	0.00e+00	0	44	102	1048576	8	3969
2026-01-06 06:58:12.63	293.15	16.54	-24.4	-25.1	16.5	0.00e+00	0	44	102	1048576	8	3936
2026-01-06 06:58:13.64	292.94	16.49	-24.5	-25.4	16.4	0.00e+00	0	44	102	1048576	8	3990
2026-01-06 06:58:14.64	292.74	16.44	-24.4	-25.2	16.5	0.00e+00	0	44	102	1048576	8	3958
2026-01-06 06:58:15.65	292.54	16.39	-24.4	-25.2	16.5	0.00e+00	0	44	102	1048576	8	3954
2026-01-06 06:58:16.66	292.34	16.33	-24.6	-25.1	16.2	0.00e+00	0	44	102	1048576	9	3828
2026-01-06 06:58:17.66	292.15	16.28	-24.9	-25.8	15.8	0.00e+00	0	44	102	1048576	9	4001
2026-01-06 06:58:18.66	291.95	16.23	-24.8	-25.5	16.1	0.00e+00	0	44	102	1048576	9	3916
2026-01-06 06:58:19.66	291.75	16.18	-24.6	-25.2	16.2	0.00e+00	0	44	102	1048576	9	3834
2026-01-06 06:58:20.67	291.55	16.13	-24.7	-25.2	16.2	0.00e+00	0	44	102	1048576	9	3855
2026-01-06 06:58:21.68	291.36	16.08	-24.6	-25.2	16.2	0.00e+00	0	44	102	1048576	9	3851
2026-01-06 06:58:22.69	291.16	16.02	-24.7	-25.3	16.2	0.00e+00	0	44	102	1048576	9	3877
2026-01-06 06:58:23.70	290.97	15.97	-24.8	-25.6	16.0	0.00e+00	0	44	102	1048576	9	3943
2026-01-06 06:58:24.71	290.77	15.92	-24.9	-25.8	15.8	5.08e-04	0	44	102	1048576	9	3996
2026-01-06 06:58:25.72	290.58	15.86	-25.3	-26.1	15.5	0.00e+00	0	44	102	1048576	10	3969
2026-01-06 06:58:26.72	290.39	15.81	-25.1	-25.8	15.6	0.00e+00	0	44	102	1048576	10	3882
2026-01-06 06:58:27.73	290.19	15.76	-24.9	-25.3	15.9	0.00e+00	0	44	102	1048576	10	3760
2026-01-06 06:58:28.74	290.00	15.70	-24.8	-25.1	16.0	0.00e+00	0	44	102	1048576	10	3721
2026-01-06 06:58:29.74	289.81	15.65	-24.8	-25.0	16.1	0.00e+00	0	44	102	1048576	10	3699
2026-01-06 06:58:30.75	289.62	15.59	-24.8	-25.2	16.0	0.00e+00	0	44	102	1048576	10	3734
2026-01-06 06:58:31.76	289.43	15.54	-24.8	-25.1	16.0	1.65e-04	0	44	102	1048576	10	3714
2026-01-06 06:58:32.77	289.24	15.48	-24.8	-25.2	16.0	0.00e+00	0	44	102	1048576	10	3736
2026-01-06 06:58:33.77	289.05	15.43	-24.8	-25.5	16.0	0.00e+00	0	44	102	1048576	9	3920
2026-01-06 06:58:34.78	288.87	15.37	-24.8	-25.7	15.9	8.87e-04	0	44	102	1048576	9	3966
2026-01-06 06:58:35.79	288.68	15.32	-24.7	-25.4	16.0	0.00e+00	0	44	102	1048576	9	3891
2026-01-06 06:58:36.79	288.50	15.26	-24.7	-25.3	16.1	8.69e-04	0	44	102	1048576	9	3870
2026-01-06 06:58:37.80	288.31	15.21	-24.7	-25.4	16.1	8.71e-04	0	44	102	1048576	9	3884
2026-01-06 06:58:38.81	288.12	15.15	-24.7	-25.3	16.1	0.00e+00	0	44	102	1048576	9	3882
2026-01-06 06:58:39.82	287.94	15.09	-24.7	-25.4	16.0	9.11e-04	0	44	102	1048576	9	3891
2026-01-06 06:58:40.82	287.76	15.04	-24.7	-25.4	16.0	8.93e-04	0	44	102	1048576	9	3898
2026-01-06 06:58:41.83	287.58	14.98	-24.7	-25.5	16.0	1.10e-06	0	44	102	1048576	9	3910
2026-01-06 06:58:42.84	287.39	14.93	-24.9	-25.7	15.8	9.80e-04	0	44	102	1048576	9	3978
2026-01-06 06:58:43.84	287.21	14.87	-24.9	-25.7	15.9	1.01e-03	0	44	102	1048576	9	3964
2026-01-06 06:58:44.85	287.03	14.81	-25.0	-26.0	15.7	0.00e+00	0	44	102	1048576	9	4039
2026-01-06 06:58:45.85	286.85	14.76	-25.1	-25.7	15.6	0.00e+00	0	44	102	1048576	10	3867
2026-01-06 06:58:46.86	286.67	14.70	-25.0	-26.1	15.6	1.01e-03	0	44	102	1048576	9	4064
2026-01-06 06:58:47.87	286.50	14.64	-25.1	-26.2	15.6	0.00e+00	0	44	102	1048576	9	4093
2026-01-06 06:58:48.87	286.32	14.58	-25.0	-26.1	15.7	1.28e-03	0	44	102	1048576	9	4059
2026-01-06 06:58:49.88	286.14	14.53	-25.0	-26.0	15.7	1.25e-03	0	44	102	1048576	9	4046
2026-01-06 06:58:50.89	285.97	14.47	-25.1	-26.2	15.6	0.00e+00	0	44	102	1048576	9	4089
2026-01-06 06:58:51.90	285.79	14.41	-24.9	-25.7	15.8	1.30e-03	0	44	102	1048576	9	3977
2026-01-06 06:58:52.91	285.61	14.35	-25.1	-26.2	15.6	0.00e+00	0	44	102	1048576	9	4087
2026-01-06 06:58:53.91	285.44	14.29	-24.9	-25.8	15.8	0.00e+00	0	44	102	1048576	9	3993
2026-01-06 06:58:54.92	285.27	14.24	-24.9	-25.8	15.8	0.00e+00	0	44	102	1048576	9	3981
2026-01-06 06:58:55.93	285.09	14.18	-25.0	-26.0	15.7	0.00e+00	0	44	102	1048576	9	4035
2026-01-06 06:58:56.94	284.92	14.12	-24.9	-25.8	15.8	0.00e+00	0	44	102	1048576	9	3993
2026-01-06 06:58:57.94	284.75	14.06	-24.9	-25.9	15.7	0.00e+00	0	44	102	1048576	9	4022
2026-01-06 06:58:58.95	284.58	14.00	-24.9	-25.9	15.7	0.00e+00	0	44	102	1048576	9	4018
2026-01-06 06:58:59.96	284.41	13.94	-24.9	-25.8	15.8	0.00e+00	0	44	102	1048576	9	3987
2026-01-06 06:59:00.97	284.24	13.88	-24.9	-25.9	15.7	0.00e+00	0	44	102	1048576	9	4007
2026-01-06 06:59:01.97	284.07	13.82	-24.9	-25.8	15.8	0.00e+00	0	44	102	1048576	9	3989
2026-01-06 06:59:02.98	283.90	13.77	-24.9	-25.9	15.7	0.00e+00	0	44	102	1048576	9	4014
2026-01-06 06:59:03.99	283.74	13.71	-24.9	-25.8	15.7	0.00e+00	0	44	102	1048576	9	4001
2026-01-06 06:59:04.99	283.57	13.65	-25.0	-26.1	15.6	0.00e+00	0	44	102	1048576	9	4060
2026-01-06 06:59:05.99	283.41	13.59	-24.9	-25.9	15.7	0.00e+00	0	44	102	1048576	9	4016
2026-01-06 06:59:07.00	283.24	13.53	-25.0	-26.1	15.5	0.00e+00	0	44	102	1048576	9	4078
2026-01-06 06:59:08.00	283.08	13.47	-25.0	-26.0	15.6	0.00e+00	0	44	102	1048576	9	4044
2026-01-06 06:59:09.01	282.91	13.41	-25.1	-25.8	15.5	1.10e-06	0	44	102	1048576	10	3892
2026-01-06 06:59:10.02	282.75	13.35	-25.0	-26.0	15.6	0.00e+00	0	44	102	1048576	9	4044
2026-01-06 06:59:11.03	282.59	13.29	-25.0	-26.1	15.5	0.00e+00	0	44	102	1048576	9	4071
2026-01-06 06:59:12.03	282.43	13.23	-25.0	-26.0	15.6	0.00e+00	0	44	102	1048576	9	4041
2026-01-06 06:59:13.04	282.26	13.17	-25.1	-25.8	15.5	0.00e+00	0	44	102	1048576	10	3881
2026-01-06 06:59:14.04	282.10	13.11	-25.0	-26.1	15.6	0.00e+00	0	44	102	1048576	9	4070
2026-01-06 06:59:15.05	281.94	13.05	-25.2	-25.9	15.4	0.00e+00	0	44	102	1048576	10	3919
2026-01-06 06:59:16.06	281.78	12.99	-25.4	-26.4	15.2	0.00e+00	0	44	102	1048576	10	4027
2026-01-06 06:59:17.06	281.63	12.93	-25.2	-26.0	15.3	0.00e+00	0	44	102	1048576	10	3948
2026-01-06 06:59:18.06	281.47	12.87	-25.3	-26.1	15.3	0.00e+00	0	44	102	1048576	10	3970
2026-01-06 06:59:19.05	281.32	12.81	-25.4	-26.3	15.2	0.00e+00	0	44	102	1048576	10	4020
2026-01-06 06:59:20.06	281.16	12.75	-25.4	-26.5	15.1	0.00e+00	0	44	102	1048576	10	4066
2026-01-06 06:59:21.07	281.00	12.69	-25.4	-26.4	15.1	0.00e+00	0	44	102	1048576	10	4047
2026-01-06 06:59:22.08	280.85	12.63	-25.5	-26.5	15.1	0.00e+00	0	44	102	1048576	10	4073
2026-01-06 06:59:23.08	280.69	12.57	-25.5	-26.6	15.0	0.00e+00	0	44	102	1048576	10	4093
2026-01-06 06:59:24.09	280.54	12.51	-25.6	-26.3	14.9	0.00e+00	0	44	102	1048576	11	3918
2026-01-06 06:59:25.10	280.38	12.45	-25.8	-26.8	14.6	1.10e-06	0	44	102	1048576	11	4022
2026-01-06 06:59:26.11	280.23	12.38	-25.7	-26.6	14.7	0.00e+00	0	44	102	1048576	11	3993
2026-01-06 06:59:27.12	280.08	12.32	-25.9	-26.9	14.5	1.10e-06	0	44	102	1048576	11	4057
2026-01-06 06:59:28.12	279.93	12.26	-25.7	-26.5	14.7	0.00e+00	0	44	102	1048576	11	3968
2026-01-06 06:59:29.12	279.78	12.20	-25.6	-26.3	14.9	0.00e+00	0	44	102	1048576	11	3910
2026-01-06 06:59:30.13	279.63	12.14	-25.6	-26.3	14.9	0.00e+00	0	44	102	1048576	11	3901
2026-01-06 06:59:31.14	279.48	12.08	-25.5	-26.6	15.0	0.00e+00	0	44	102	1048576	10	4078
2026-01-06 06:59:32.15	279.33	12.02	-25.3	-26.2	15.1	0.00e+00	0	44	102	1048576	10	4003
2026-01-06 06:59:33.16	279.18	11.96	-25.3	-26.2	15.2	0.00e+00	0	44	102	1048576	10	3982
2026-01-06 06:59:34.16	279.03	11.90	-25.3	-26.3	15.1	0.00e+00	0	44	102	1048576	10	4016
2026-01-06 06:59:35.17	278.88	11.84	-25.2	-26.0	15.3	0.00e+00	0	44	102	1048576	10	3945
2026-01-06 06:59:36.18	278.74	11.77	-25.1	-25.8	15.4	0.00e+00	0	44	102	1048576	10	3897
2026-01-06 06:59:37.18	278.59	11.71	-25.2	-26.1	15.3	0.00e+00	0	44	102	1048576	10	3957
2026-01-06 06:59:38.19	278.45	11.65	-25.3	-26.1	15.2	0.00e+00	0	44	102	1048576	10	3964
2026-01-06 06:59:39.20	278.30	11.59	-25.4	-26.4	15.1	2.20e-06	0	44	102	1048576	10	4028
2026-01-06 06:59:40.20	278.16	11.53	-25.4	-26.5	15.0	0.00e+00	0	44	102	1048576	10	4070
2026-01-06 06:59:41.21	278.02	11.47	-25.6	-26.8	14.8	0.00e+00	0	44	102	1048576	10	4150
2026-01-06 06:59:42.21	277.87	11.41	-25.8	-26.7	14.6	0.00e+00	0	44	102	1048576	11	4022
2026-01-06 06:59:43.22	277.73	11.35	-26.0	-27.2	14.3	2.20e-06	0	44	102	1048576	11	4149
2026-01-06 06:59:44.23	277.59	11.28	-25.8	-26.8	14.6	2.20e-06	0	44	102	1048576	11	4039
2026-01-06 06:59:45.23	277.45	11.22	-25.7	-26.6	14.6	0.00e+00	0	44	102	1048576	11	3991
2026-01-06 06:59:46.24	277.31	11.16	-25.7	-26.7	14.6	0.00e+00	0	44	102	1048576	11	4009
2026-01-06 06:59:47.25	277.17	11.10	-25.8	-26.7	14.6	0.00e+00	0	44	102	1048576	11	4013
2026-01-06 06:59:48.26	277.03	11.04	-25.7	-26.6	14.7	1.02e-05	0	44	102	1048576	11	3992
2026-01-06 06:59:49.26	276.89	10.98	-25.8	-26.8	14.5	0.00e+00	0	44	102	1048576	11	4043
2026-01-06 06:59:50.26	276.75	10.92	-25.7	-26.5	14.7	0.00e+00	0	44	102	1048576	11	3973
2026-01-06 06:59:51.27	276.62	10.85	-25.6	-26.4	14.7	1.10e-06	0	44	102	1048576	11	3942
2026-01-06 06:59:52.28	276.48	10.79	-25.7	-26.5	14.7	1.10e-06	0	44	102	1048576	11	3967
2026-01-06 06:59:53.28	276.34	10.73	-25.6	-26.4	14.7	0.00e+00	0	44	102	1048576	11	3935
2026-01-06 06:59:54.29	276.21	10.67	-25.6	-26.4	14.7	0.00e+00	0	44	102	1048576	11	3948
2026-01-06 06:59:55.30	276.07	10.61	-25.7	-26.6	14.6	4.10e-04	0	44	102	1048576	11	3993
2026-01-06 06:59:56.31	275.94	10.55	-25.8	-26.7	14.5	2.20e-06	0	44	102	1048576	11	4014
2026-01-06 06:59:57.31	275.80	10.49	-25.6	-26.4	14.7	0.00e+00	0	44	102	1048576	11	3942
2026-01-06 06:59:58.31	275.67	10.42	-25.6	-26.5	14.7	0.00e+00	0	44	102	1048576	11	3956
2026-01-06 06:59:59.32	275.54	10.36	-25.6	-26.5	14.7	1.10e-06	0	44	102	1048576	11	3954
2026-01-06 07:00:00.33	275.40	10.30	-25.6	-26.3	14.8	4.06e-04	0	44	102	1048576	11	3919
2026-01-06 07:00:01.34	275.27	10.24	-25.8	-26.7	14.5	4.99e-04	0	44	102	1048576	11	4027
2026-01-06 07:00:02.34	275.14	10.18	-25.8	-26.7	14.5	3.40e-06	0	44	102	1048576	11	4014
2026-01-06 07:00:03.35	275.01	10.12	-25.8	-26.7	14.5	1.15e-03	0	44	102	1048576	11	4020
2026-01-06 07:00:04.35	274.88	10.06	-25.8	-26.9	14.4	1.44e-03	0	44	102	1048576	11	4065
2026-01-06 07:00:05.36	274.75	9.99	-25.9	-27.0	14.3	1.10e-06	0	44	102	1048576	11	4104
2026-01-06 07:00:06.36	274.62	9.93	-25.9	-27.1	14.2	1.43e-03	0	44	102	1048576	11	4118
2026-01-06 07:00:07.37	274.50	9.87	-26.0	-27.2	14.2	1.57e-03	0	44	102	1048576	11	4155
2026-01-06 07:00:08.37	274.37	9.81	-26.1	-27.4	14.1	1.10e-06	0	44	102	1048576	11	4211
2026-01-06 07:00:09.38	274.24	9.75	-26.3	-27.4	13.7	1.65e-03	0	44	102	1048576	12	4099
2026-01-06 07:00:10.39	274.11	9.69	-26.4	-27.6	13.6	1.85e-03	0	44	102	1048576	12	4153
2026-01-06 07:00:11.40	273.99	9.63	-26.2	-27.2	13.8	3.40e-06	0	44	102	1048576	12	4043
2026-01-06 07:00:12.40	273.86	9.57	-26.1	-26.9	14.0	1.94e-03	0	44	102	1048576	12	3968
2026-01-06 07:00:13.40	273.74	9.50	-26.1	-27.4	14.1	1.90e-03	0	44	102	1048576	11	4198
2026-01-06 07:00:14.40	273.61	9.44	-26.0	-26.8	14.1	8.00e-06	0	44	102	1048576	12	3934
2026-01-06 07:00:15.41	273.49	9.38	-26.0	-26.9	14.0	2.08e-03	0	44	102	1048576	12	3958
2026-01-06 07:00:16.41	273.37	9.32	-26.0	-26.9	14.1	2.20e-06	0	44	102	1048576	12	3962
2026-01-06 07:00:17.42	273.24	9.26	-26.0	-26.9	14.0	6.80e-06	0	44	102	1048576	12	3957
2026-01-06 07:00:18.43	273.12	9.20	-26.0	-27.3	14.1	4.50e-06	0	44	102	1048576	11	4183
2026-01-06 07:00:19.43	273.00	9.14	-26.0	-26.8	14.0	3.40e-06	0	44	102	1048576	12	3945
2026-01-06 07:00:20.43	272.88	9.08	-26.0	-26.9	14.0	1.60e-05	0	44	102	1048576	12	3965
2026-01-06 07:00:21.44	272.76	9.02	-26.1	-27.0	13.9	5.70e-06	0	44	102	1048576	12	3989
2026-01-06 07:00:22.45	272.64	8.95	-26.2	-27.2	13.8	2.23e-03	0	44	102	1048576	12	4034
2026-01-06 07:00:23.46	272.52	8.89	-26.2	-27.2	13.8	9.10e-06	0	44	102	1048576	12	4040
2026-01-06 07:00:24.47	272.40	8.83	-26.1	-27.0	13.9	8.00e-06	0	44	102	1048576	12	3984
2026-01-06 07:00:25.47	272.28	8.77	-26.1	-27.1	13.8	3.40e-06	0	44	102	1048576	12	4024
2026-01-06 07:00:26.48	272.16	8.71	-26.1	-26.9	13.9	3.40e-06	0	44	102	1048576	12	3979
2026-01-06 07:00:27.49	272.04	8.65	-26.1	-27.1	13.8	1.23e-03	0	44	102	1048576	12	4036
2026-01-06 07:00:28.49	271.93	8.59	-26.2	-27.2	13.8	6.80e-06	0	44	102	1048576	12	4044
2026-01-06 07:00:29.50	271.81	8.53	-26.1	-27.0	13.9	2.20e-06	0	44	102	1048576	12	3991
2026-01-06 07:00:30.51	271.69	8.47	-26.1	-27.0	13.9	4.50e-06	0	44	102	1048576	12	3987
2026-01-06 07:00:31.51	271.58	8.41	-26.1	-26.9	13.9	6.80e-06	0	44	102	1048576	12	3985
2026-01-06 07:00:32.52	271.46	8.34	-26.0	-26.7	14.0	5.70e-06	0	44	102	1048576	12	3930
2026-01-06 07:00:33.53	271.35	8.28	-26.0	-26.8	13.9	3.40e-06	0	44	102	1048576	12	3950
2026-01-06 07:00:34.54	271.23	8.22	-26.0	-26.8	14.0	5.70e-06	0	44	102	1048576	12	3936
2026-01-06 07:00:35.55	271.12	8.16	-25.9	-26.6	14.1	5.70e-06	0	44	102	1048576	12	3903
2026-01-06 07:00:36.55	271.00	8.10	-26.0	-27.3	14.0	1.10e-06	0	44	102	1048576	11	4178
2026-01-06 07:00:37.56	270.89	8.04	-26.1	-26.9	13.9	3.40e-06	0	44	102	1048576	12	3980
2026-01-06 07:00:38.55	270.78	7.98	-26.0	-26.9	13.9	9.10e-06	0	44	102	1048576	12	3964
2026-01-06 07:00:39.56	270.67	7.92	-26.1	-27.0	13.8	2.20e-06	0	44	102	1048576	12	3995
2026-01-06 07:00:40.57	270.56	7.86	-26.1	-27.0	13.8	3.40e-06	0	44	102	1048576	12	4011
2026-01-06 07:00:41.58	270.44	7.80	-26.3	-27.4	13.6	1.14e-05	0	44	102	1048576	12	4104
2026-01-06 07:00:42.59	270.33	7.74	-26.2	-27.2	13.7	6.80e-06	0	44	102	1048576	12	4063
2026-01-06 07:00:43.59	270.22	7.68	-26.2	-27.3	13.6	4.50e-06	0	44	102	1048576	12	4088
2026-01-06 07:00:44.59	270.12	7.62	-26.2	-27.2	13.7	8.00e-06	0	44	102	1048576	12	4055
2026-01-06 07:00:45.60	270.01	7.56	-26.2	-27.3	13.6	9.10e-06	0	44	102	1048576	12	4085
2026-01-06 07:00:46.61	269.90	7.50	-26.1	-27.1	13.7	8.00e-06	0	44	102	1048576	12	4031
2026-01-06 07:00:47.62	269.79	7.44	-26.2	-27.2	13.6	1.94e-05	0	44	102	1048576	12	4053
2026-01-06 07:00:48.62	269.68	7.38	-26.3	-27.4	13.5	1.48e-05	0	44	102	1048576	12	4117
2026-01-06 07:00:49.63	269.57	7.32	-26.3	-27.4	13.5	1.25e-05	0	44	102	1048576	12	4108
2026-01-06 07:00:50.64	269.47	7.26	-26.3	-27.5	13.5	5.70e-06	0	44	102	1048576	12	4122
2026-01-06 07:00:51.64	269.36	7.20	-26.5	-28.0	13.2	3.43e-05	0	44	102	1048576	12	4272
2026-01-06 07:00:52.65	269.25	7.14	-26.5	-27.5	13.2	3.20e-05	0	44	102	1048576	13	4024
2026-01-06 07:00:53.66	269.15	7.08	-32.5	-41.7	3.8	8.43e-01	0	44	104	1048576	24	10433
2026-01-06 07:00:54.67	269.04	7.02	-32.8	-42.5	3.8	8.47e-01	0	44	104	1048576	25	10968

#Closed at: 2026-01-06 07:00:55
#Recorded file [1 MB]: D:/data/31010_260106_095146.dat