passes_logs/2026/01/06/R2M6_AANII_01/R2M6_AANII_01__20260106_082808_NOAA_21_JPSS-2_rec.log

#Pass ID: 20260106_082808_NOAA 21 (JPSS-2)
#Satellite: NOAA 21 (JPSS-2)
#Configuration: NOAA 21
#almurnet v.1.7.20240730
#Start time: 2026-01-06 08:28:08

#Version: 2.2.20231116
#Station: R2M6_AANII_01
#Location: 30.233357 lon 59.946436 lat
#TLE: 1 54234U 22150A   26005.21525222  .00000150  00000+0  91957-4 0  9992
#TLE: 2 54234  98.7490 306.2339 0001053 341.6032  18.5106 14.19532220163427

#Time	Az	El	Level	Level2	SNR	BER	BlckErr	Temp	State	Recorded	gain1	gain2
2026-01-06 08:28:08.55	102.92	7.04	-31.3	-37.3	4.2	1.45e+00	0	41	0	0	24	7231
2026-01-06 08:28:09.55	102.83	7.10	-30.6	-35.7	4.5	1.42e+00	0	41	104	0	22	6454
2026-01-06 08:28:10.56	102.74	7.17	-30.6	-34.8	7.7	9.40e-02	0	41	0	0	22	5857
2026-01-06 08:28:11.57	102.65	7.23	-30.5	-34.6	7.9	7.94e-02	0	41	102	1048576	22	5724
2026-01-06 08:28:12.57	102.56	7.30	-30.6	-34.7	7.8	8.42e-02	0	41	102	1048576	22	5805
2026-01-06 08:28:13.58	102.47	7.36	-30.6	-34.6	7.9	7.55e-02	0	41	102	1048576	22	5750
2026-01-06 08:28:14.59	102.38	7.43	-30.5	-34.6	7.9	7.77e-02	0	41	102	1048576	22	5724
2026-01-06 08:28:15.60	102.28	7.50	-30.3	-33.7	8.5	5.63e-02	0	41	102	1048576	22	5314
2026-01-06 08:28:16.60	102.19	7.56	-29.9	-33.0	9.4	2.03e-02	0	41	102	1048576	21	5119
2026-01-06 08:28:17.61	102.10	7.63	-29.6	-32.6	10.1	9.12e-03	0	41	102	1048576	20	5057
2026-01-06 08:28:18.61	102.01	7.69	-29.2	-31.8	11.0	2.38e-03	0	41	102	1048576	19	4861
2026-01-06 08:28:19.62	101.91	7.76	-28.9	-31.1	11.5	1.04e-03	0	41	102	1048576	19	4610
2026-01-06 08:28:20.62	101.82	7.83	-28.6	-30.8	12.0	4.04e-04	0	41	102	1048576	18	4627
2026-01-06 08:28:21.63	101.72	7.89	-28.4	-30.1	12.5	1.40e-04	0	41	102	1048576	18	4414
2026-01-06 08:28:22.64	101.63	7.96	-28.3	-30.0	12.6	1.01e-04	0	41	102	1048576	18	4375
2026-01-06 08:28:23.65	101.53	8.03	-28.4	-30.2	12.5	9.38e-05	0	41	102	1048576	18	4421
2026-01-06 08:28:24.65	101.44	8.09	-28.4	-30.2	12.4	1.33e-04	0	41	102	1048576	18	4418
2026-01-06 08:28:25.65	101.34	8.16	-28.4	-30.3	12.4	1.73e-04	0	41	102	1048576	18	4451
2026-01-06 08:28:26.66	101.25	8.23	-28.3	-30.0	12.6	1.09e-04	0	41	102	1048576	18	4361
2026-01-06 08:28:27.67	101.15	8.30	-28.2	-30.3	12.6	8.69e-05	0	41	102	1048576	17	4561
2026-01-06 08:28:28.68	101.05	8.36	-28.2	-30.3	12.6	9.30e-05	0	41	102	1048576	17	4566
2026-01-06 08:28:29.68	100.95	8.43	-28.3	-30.4	12.6	7.09e-05	0	41	102	1048576	17	4594
2026-01-06 08:28:30.69	100.85	8.50	-28.3	-30.5	12.6	1.09e-04	0	41	102	1048576	17	4620
2026-01-06 08:28:31.70	100.76	8.57	-28.1	-30.0	12.8	5.95e-05	0	41	102	1048576	17	4484
2026-01-06 08:28:32.71	100.66	8.63	-28.2	-30.2	12.8	6.10e-05	0	42	102	1048576	17	4532
2026-01-06 08:28:33.71	100.56	8.70	-28.1	-30.0	12.9	6.33e-05	0	41	102	1048576	17	4472
2026-01-06 08:28:34.71	100.46	8.77	-28.0	-29.8	13.0	3.28e-05	0	42	102	1048576	17	4401
2026-01-06 08:28:35.72	100.36	8.84	-28.0	-29.8	13.0	2.36e-05	0	42	102	1048576	17	4419
2026-01-06 08:28:36.73	100.25	8.91	-28.0	-29.8	13.0	3.81e-05	0	42	102	1048576	17	4406
2026-01-06 08:28:37.74	100.15	8.97	-28.3	-30.5	12.6	7.62e-05	0	42	102	1048576	17	4623
2026-01-06 08:28:38.75	100.05	9.04	-28.2	-30.3	12.7	6.86e-05	0	42	102	1048576	17	4554
2026-01-06 08:28:39.76	99.95	9.11	-28.0	-29.7	13.1	4.04e-05	0	42	102	1048576	17	4382
2026-01-06 08:28:40.77	99.84	9.18	-27.9	-29.3	13.3	1.98e-05	0	42	102	1048576	17	4263
2026-01-06 08:28:41.78	99.74	9.25	-27.8	-29.6	13.5	9.10e-06	0	42	102	1048576	16	4448
2026-01-06 08:28:42.78	99.63	9.32	-27.8	-29.7	13.4	1.44e-05	0	42	102	1048576	16	4478
2026-01-06 08:28:43.78	99.53	9.39	-27.9	-29.9	13.3	1.52e-05	0	42	102	1048576	16	4532
2026-01-06 08:28:44.79	99.42	9.45	-27.8	-29.8	13.4	1.29e-05	0	42	102	1048576	16	4512
2026-01-06 08:28:45.80	99.32	9.52	-27.9	-29.8	13.4	1.22e-05	0	42	102	1048576	16	4514
2026-01-06 08:28:46.81	99.21	9.59	-27.9	-29.8	13.4	1.67e-05	0	42	102	1048576	16	4516
2026-01-06 08:28:47.82	99.10	9.66	-28.0	-30.1	13.2	2.21e-05	0	42	102	1048576	16	4593
2026-01-06 08:28:48.82	99.00	9.73	-27.9	-29.9	13.3	1.98e-05	0	42	102	1048576	16	4549
2026-01-06 08:28:49.83	98.89	9.80	-28.0	-30.1	13.2	1.83e-05	0	42	102	1048576	16	4611
2026-01-06 08:28:50.84	98.78	9.87	-27.9	-29.9	13.4	2.21e-05	0	42	102	1048576	16	4538
2026-01-06 08:28:51.84	98.67	9.94	-27.7	-29.5	13.6	9.10e-06	0	42	102	1048576	16	4412
2026-01-06 08:28:52.86	98.56	10.01	-27.7	-29.5	13.6	6.10e-06	0	42	102	1048576	16	4422
2026-01-06 08:28:53.86	98.45	10.08	-27.8	-29.6	13.6	8.30e-06	0	42	102	1048576	16	4433
2026-01-06 08:28:54.87	98.34	10.15	-27.9	-29.8	13.4	9.90e-06	0	42	102	1048576	16	4511
2026-01-06 08:28:55.87	98.23	10.22	-28.1	-30.3	13.1	2.89e-05	0	42	102	1048576	16	4657
2026-01-06 08:28:56.88	98.12	10.29	-28.1	-30.4	13.1	2.05e-05	0	42	102	1048576	16	4688
2026-01-06 08:28:57.89	98.01	10.36	-28.1	-30.4	13.0	2.97e-05	0	42	102	1048576	16	4710
2026-01-06 08:28:58.90	97.89	10.43	-28.0	-30.1	13.3	2.67e-05	0	42	102	1048576	16	4596
2026-01-06 08:28:59.91	97.78	10.50	-27.8	-29.6	13.6	1.22e-05	0	42	102	1048576	16	4446
2026-01-06 08:29:00.92	97.67	10.57	-27.8	-29.7	13.6	1.67e-05	0	42	102	1048576	16	4466
2026-01-06 08:29:01.93	97.55	10.64	-27.7	-29.3	13.8	9.90e-06	0	42	102	1048576	16	4344
2026-01-06 08:29:02.94	97.43	10.71	-27.7	-29.5	13.7	6.10e-06	0	42	102	1048576	16	4420
2026-01-06 08:29:03.94	97.32	10.78	-27.8	-29.6	13.7	4.50e-06	0	42	102	1048576	16	4430
2026-01-06 08:29:04.95	97.20	10.86	-27.8	-29.6	13.7	5.30e-06	0	42	102	1048576	16	4420
2026-01-06 08:29:05.96	97.09	10.93	-27.8	-29.6	13.7	6.10e-06	0	42	102	1048576	16	4431
2026-01-06 08:29:06.96	96.97	11.00	-27.6	-29.0	14.1	1.50e-06	0	42	102	1048576	16	4262
2026-01-06 08:29:07.97	96.85	11.07	-27.5	-28.8	14.2	1.50e-06	0	42	102	1048576	16	4210
2026-01-06 08:29:08.97	96.73	11.14	-27.6	-29.0	14.1	1.50e-06	0	42	102	1048576	16	4266
2026-01-06 08:29:09.98	96.61	11.21	-27.6	-29.0	14.1	3.00e-06	0	42	102	1048576	16	4266
2026-01-06 08:29:10.98	96.50	11.28	-27.7	-29.4	13.9	1.50e-06	0	42	102	1048576	16	4357
2026-01-06 08:29:11.99	96.38	11.35	-27.6	-29.2	14.0	3.00e-06	0	42	102	1048576	16	4294
2026-01-06 08:29:12.99	96.26	11.42	-27.5	-28.9	14.2	2.20e-06	0	42	102	1048576	16	4235
2026-01-06 08:29:14.00	96.13	11.50	-27.6	-29.2	14.0	7.00e-07	0	42	102	1048576	16	4310
2026-01-06 08:29:15.01	96.01	11.57	-27.6	-29.1	14.1	1.50e-06	0	42	102	1048576	16	4271
2026-01-06 08:29:16.01	95.89	11.64	-27.7	-29.3	14.0	3.00e-06	0	42	102	1048576	16	4340
2026-01-06 08:29:17.02	95.77	11.71	-27.8	-29.5	13.8	3.00e-06	0	42	102	1048576	16	4410
2026-01-06 08:29:18.03	95.64	11.78	-27.6	-29.1	14.1	0.00e+00	0	42	102	1048576	16	4279
2026-01-06 08:29:19.04	95.52	11.86	-27.5	-28.8	14.3	1.50e-06	0	42	102	1048576	16	4205
2026-01-06 08:29:20.04	95.39	11.93	-27.5	-29.0	14.2	7.00e-07	0	42	102	1048576	16	4237
2026-01-06 08:29:21.04	95.27	12.00	-27.4	-28.7	14.4	1.50e-06	0	42	102	1048576	16	4158
2026-01-06 08:29:22.05	95.14	12.07	-27.5	-28.8	14.3	0.00e+00	0	42	102	1048576	16	4176
2026-01-06 08:29:23.06	95.01	12.14	-27.4	-28.6	14.5	7.00e-07	0	42	102	1048576	16	4146
2026-01-06 08:29:24.07	94.89	12.22	-27.5	-28.9	14.3	1.50e-06	0	42	102	1048576	16	4207
2026-01-06 08:29:25.08	94.76	12.29	-27.5	-28.8	14.4	0.00e+00	0	42	102	1048576	16	4176
2026-01-06 08:29:26.09	94.63	12.36	-27.5	-28.8	14.4	2.20e-06	0	42	102	1048576	16	4181
2026-01-06 08:29:27.09	94.50	12.43	-27.7	-29.4	14.0	1.50e-06	0	42	102	1048576	16	4353
2026-01-06 08:29:28.09	94.37	12.51	-27.5	-28.8	14.3	7.00e-07	0	42	102	1048576	16	4197
2026-01-06 08:29:29.10	94.24	12.58	-27.4	-28.7	14.5	0.00e+00	0	42	102	1048576	16	4153
2026-01-06 08:29:30.11	94.11	12.65	-27.3	-28.4	14.7	7.00e-07	0	42	102	1048576	16	4077
2026-01-06 08:29:31.12	93.97	12.73	-27.4	-28.7	14.5	7.00e-07	0	42	102	1048576	16	4160
2026-01-06 08:29:32.13	93.84	12.80	-27.4	-28.6	14.5	1.50e-06	0	42	102	1048576	16	4142
2026-01-06 08:29:33.13	93.71	12.87	-27.4	-28.5	14.6	7.00e-07	0	42	102	1048576	16	4110
2026-01-06 08:29:34.14	93.57	12.94	-27.6	-28.9	14.4	2.20e-06	0	42	102	1048576	16	4218
2026-01-06 08:29:35.14	93.44	13.02	-27.3	-28.5	14.7	7.00e-07	0	42	102	1048576	16	4089
2026-01-06 08:29:36.15	93.30	13.09	-27.1	-28.4	14.8	0.00e+00	0	43	102	1048576	15	4195
2026-01-06 08:29:37.15	93.17	13.16	-27.2	-28.5	14.7	0.00e+00	0	42	102	1048576	15	4215
2026-01-06 08:29:38.16	93.03	13.24	-27.1	-28.4	14.8	0.00e+00	0	42	102	1048576	15	4192
2026-01-06 08:29:39.17	92.89	13.31	-27.2	-28.6	14.8	0.00e+00	0	42	102	1048576	15	4231
2026-01-06 08:29:40.17	92.75	13.38	-27.2	-28.6	14.8	0.00e+00	0	43	102	1048576	15	4225
2026-01-06 08:29:41.18	92.62	13.46	-27.3	-28.8	14.6	0.00e+00	0	42	102	1048576	15	4293
2026-01-06 08:29:42.18	92.48	13.53	-27.3	-28.8	14.6	0.00e+00	0	42	102	1048576	15	4289
2026-01-06 08:29:43.19	92.34	13.60	-27.3	-28.9	14.6	7.00e-07	0	43	102	1048576	15	4335
2026-01-06 08:29:44.20	92.19	13.68	-27.3	-29.0	14.6	0.00e+00	0	43	102	1048576	15	4337
2026-01-06 08:29:45.21	92.05	13.75	-27.3	-29.0	14.6	0.00e+00	0	42	102	1048576	15	4342
2026-01-06 08:29:46.21	91.91	13.82	-27.4	-29.2	14.5	7.00e-07	0	42	102	1048576	15	4399
2026-01-06 08:29:47.22	91.77	13.90	-27.4	-29.1	14.5	0.00e+00	0	43	102	1048576	15	4364
2026-01-06 08:29:48.23	91.62	13.97	-27.4	-29.0	14.6	1.50e-06	0	42	102	1048576	15	4347
2026-01-06 08:29:49.24	91.48	14.05	-27.4	-29.0	14.6	7.00e-07	0	43	102	1048576	15	4356
2026-01-06 08:29:50.24	91.33	14.12	-27.4	-29.0	14.6	0.00e+00	0	43	102	1048576	15	4348
2026-01-06 08:29:51.25	91.19	14.19	-27.4	-29.0	14.6	7.00e-07	0	43	102	1048576	15	4336
2026-01-06 08:29:52.26	91.04	14.27	-27.3	-28.9	14.7	1.50e-06	0	43	102	1048576	15	4312
2026-01-06 08:29:53.26	90.89	14.34	-27.3	-28.8	14.7	0.00e+00	0	43	102	1048576	15	4291
2026-01-06 08:29:54.27	90.74	14.42	-27.4	-29.0	14.6	7.00e-07	0	43	102	1048576	15	4356
2026-01-06 08:29:55.28	90.59	14.49	-27.5	-29.3	14.5	7.00e-07	0	43	102	1048576	15	4428
2026-01-06 08:29:56.29	90.44	14.56	-27.4	-29.1	14.6	7.00e-07	0	42	102	1048576	15	4380
2026-01-06 08:29:57.30	90.29	14.64	-27.5	-29.2	14.5	7.00e-07	0	43	102	1048576	15	4415
2026-01-06 08:29:58.31	90.14	14.71	-27.5	-29.3	14.5	1.50e-06	0	42	102	1048576	15	4421
2026-01-06 08:29:59.31	89.99	14.79	-27.5	-29.4	14.5	7.00e-07	0	42	102	1048576	15	4463
2026-01-06 08:30:00.31	89.84	14.86	-27.6	-29.4	14.4	7.00e-07	0	43	102	1048576	15	4470
2026-01-06 08:30:01.32	89.68	14.94	-27.4	-28.9	14.7	0.00e+00	0	43	102	1048576	15	4324
2026-01-06 08:30:02.33	89.53	15.01	-27.3	-28.9	14.8	0.00e+00	0	43	102	1048576	15	4300
2026-01-06 08:30:03.34	89.37	15.08	-27.3	-28.7	14.8	0.00e+00	0	43	102	1048576	15	4261
2026-01-06 08:30:04.34	89.22	15.16	-27.3	-28.8	14.8	0.00e+00	0	43	102	1048576	15	4274
2026-01-06 08:30:05.35	89.06	15.23	-27.2	-28.6	14.9	0.00e+00	0	43	102	1048576	15	4239
2026-01-06 08:30:06.35	88.90	15.31	-27.4	-29.0	14.7	0.00e+00	0	43	102	1048576	15	4337
2026-01-06 08:30:07.36	88.74	15.38	-27.5	-29.4	14.5	7.00e-07	0	43	102	1048576	15	4454
2026-01-06 08:30:08.36	88.59	15.45	-27.5	-29.3	14.5	0.00e+00	0	43	102	1048576	15	4422
2026-01-06 08:30:09.37	88.42	15.53	-27.6	-29.4	14.5	7.00e-07	0	43	102	1048576	15	4463
2026-01-06 08:30:10.38	88.26	15.60	-27.6	-29.5	14.5	7.00e-07	0	43	102	1048576	15	4477
2026-01-06 08:30:11.38	88.10	15.68	-27.5	-29.4	14.5	1.50e-06	0	43	102	1048576	15	4449
2026-01-06 08:30:12.39	87.94	15.75	-27.5	-29.4	14.5	1.50e-06	0	43	102	1048576	15	4447
2026-01-06 08:30:13.40	87.78	15.83	-27.6	-29.4	14.5	0.00e+00	0	43	102	1048576	15	4464
2026-01-06 08:30:14.41	87.61	15.90	-27.5	-29.3	14.6	7.00e-07	0	43	102	1048576	15	4434
2026-01-06 08:30:15.42	87.45	15.98	-27.4	-29.1	14.7	0.00e+00	0	43	102	1048576	15	4372
2026-01-06 08:30:16.42	87.28	16.05	-27.4	-29.0	14.7	7.00e-07	0	43	102	1048576	15	4339
2026-01-06 08:30:17.42	87.12	16.12	-27.5	-29.3	14.6	7.00e-07	0	43	102	1048576	15	4421
2026-01-06 08:30:18.43	86.95	16.20	-27.5	-29.2	14.7	0.00e+00	0	43	102	1048576	15	4386
2026-01-06 08:30:19.44	86.78	16.27	-27.4	-29.1	14.7	0.00e+00	0	43	102	1048576	15	4354
2026-01-06 08:30:20.44	86.61	16.35	-27.4	-29.0	14.7	7.00e-07	0	43	102	1048576	15	4342
2026-01-06 08:30:21.45	86.44	16.42	-27.4	-29.0	14.7	7.00e-07	0	43	102	1048576	15	4348
2026-01-06 08:30:22.46	86.27	16.49	-27.3	-28.9	14.8	0.00e+00	0	43	102	1048576	15	4303
2026-01-06 08:30:23.46	86.10	16.57	-27.2	-28.6	15.0	0.00e+00	0	43	102	1048576	15	4219
2026-01-06 08:30:24.47	85.93	16.64	-27.2	-28.5	15.0	0.00e+00	0	43	102	1048576	15	4210
2026-01-06 08:30:25.48	85.75	16.72	-27.1	-28.4	15.2	0.00e+00	0	43	102	1048576	15	4160
2026-01-06 08:30:26.48	85.58	16.79	-27.1	-28.4	15.2	0.00e+00	0	43	102	1048576	15	4153
2026-01-06 08:30:27.49	85.40	16.86	-27.2	-28.5	15.1	0.00e+00	0	43	102	1048576	15	4196
2026-01-06 08:30:28.49	85.23	16.94	-27.2	-28.7	15.0	0.00e+00	0	43	102	1048576	15	4247
2026-01-06 08:30:29.50	85.05	17.01	-27.3	-28.9	14.9	0.00e+00	0	43	102	1048576	15	4292
2026-01-06 08:30:30.50	84.87	17.08	-27.3	-28.8	14.9	0.00e+00	0	43	102	1048576	15	4288
2026-01-06 08:30:31.51	84.69	17.16	-27.3	-28.8	14.9	0.00e+00	0	43	102	1048576	15	4288
2026-01-06 08:30:32.52	84.51	17.23	-27.2	-28.6	15.0	0.00e+00	0	43	102	1048576	15	4227
2026-01-06 08:30:33.52	84.34	17.30	-27.1	-28.4	15.2	0.00e+00	0	43	102	1048576	15	4167
2026-01-06 08:30:34.53	84.15	17.38	-27.2	-28.5	15.1	0.00e+00	0	43	102	1048576	15	4197
2026-01-06 08:30:35.53	83.97	17.45	-27.1	-28.4	15.2	0.00e+00	0	43	102	1048576	15	4166
2026-01-06 08:30:36.54	83.79	17.52	-26.9	-27.9	15.5	0.00e+00	0	43	102	1048576	15	4032
2026-01-06 08:30:37.55	83.60	17.60	-26.8	-27.7	15.6	0.00e+00	0	43	102	1048576	15	3967
2026-01-06 08:30:38.56	83.42	17.67	-26.8	-27.7	15.6	0.00e+00	0	43	102	1048576	15	3965
2026-01-06 08:30:39.56	83.23	17.74	-26.8	-28.1	15.6	0.00e+00	0	43	102	1048576	14	4184
2026-01-06 08:30:40.57	83.05	17.82	-26.8	-28.2	15.6	0.00e+00	0	43	102	1048576	14	4220
2026-01-06 08:30:41.57	82.86	17.89	-26.9	-28.3	15.5	0.00e+00	0	43	102	1048576	14	4247
2026-01-06 08:30:42.58	82.67	17.96	-26.9	-28.4	15.5	0.00e+00	0	43	102	1048576	14	4256
2026-01-06 08:30:43.59	82.48	18.03	-26.9	-28.4	15.5	0.00e+00	0	43	102	1048576	14	4274
2026-01-06 08:30:44.60	82.29	18.11	-27.0	-28.5	15.4	0.00e+00	0	43	102	1048576	14	4296
2026-01-06 08:30:45.61	82.10	18.18	-27.0	-28.6	15.4	3.00e-06	0	43	102	1048576	14	4327
2026-01-06 08:30:46.61	81.91	18.25	-27.0	-28.5	15.4	0.00e+00	0	43	102	1048576	14	4310
2026-01-06 08:30:47.62	81.71	18.32	-27.0	-28.5	15.4	0.00e+00	0	43	102	1048576	14	4295
2026-01-06 08:30:48.63	81.52	18.40	-27.0	-28.7	15.3	0.00e+00	0	43	102	1048576	14	4349
2026-01-06 08:30:49.64	81.32	18.47	-27.2	-29.0	15.2	0.00e+00	0	43	102	1048576	14	4452
2026-01-06 08:30:50.65	81.13	18.54	-27.2	-29.1	15.1	0.00e+00	0	43	102	1048576	14	4469
2026-01-06 08:30:51.65	80.93	18.61	-27.3	-29.2	15.1	0.00e+00	0	43	102	1048576	14	4502
2026-01-06 08:30:52.65	80.74	18.68	-27.3	-29.3	15.0	0.00e+00	0	43	102	1048576	14	4527
2026-01-06 08:30:53.66	80.54	18.75	-27.2	-29.1	15.1	0.00e+00	0	43	102	1048576	14	4461
2026-01-06 08:30:54.67	80.34	18.82	-27.1	-28.8	15.3	3.00e-06	0	43	102	1048576	14	4389
2026-01-06 08:30:55.67	80.14	18.89	-27.2	-28.9	15.2	0.00e+00	0	43	102	1048576	14	4415
2026-01-06 08:30:56.68	79.94	18.97	-27.2	-29.0	15.2	0.00e+00	0	43	102	1048576	14	4431
2026-01-06 08:30:57.69	79.73	19.04	-27.2	-29.0	15.2	7.60e-06	0	43	102	1048576	14	4434
2026-01-06 08:30:58.69	79.53	19.11	-27.2	-29.1	15.2	0.00e+00	0	43	102	1048576	14	4474
2026-01-06 08:30:59.69	79.33	19.18	-27.3	-29.2	15.1	0.00e+00	0	43	102	1048576	14	4491
2026-01-06 08:31:00.70	79.12	19.25	-27.2	-29.0	15.3	4.50e-06	0	43	102	1048576	14	4426
2026-01-06 08:31:01.71	78.91	19.32	-27.2	-28.9	15.3	0.00e+00	0	43	102	1048576	14	4421
2026-01-06 08:31:02.72	78.71	19.39	-27.3	-29.3	15.0	7.00e-07	0	43	102	1048576	14	4536
2026-01-06 08:31:03.73	78.50	19.46	-27.3	-29.2	15.1	0.00e+00	0	43	102	1048576	14	4490
2026-01-06 08:31:04.73	78.29	19.52	-27.3	-29.2	15.1	7.00e-07	0	43	102	1048576	14	4491
2026-01-06 08:31:05.74	78.08	19.59	-27.1	-28.8	15.4	0.00e+00	0	43	102	1048576	14	4371
2026-01-06 08:31:06.74	77.87	19.66	-27.0	-28.7	15.4	6.10e-06	0	43	102	1048576	14	4338
2026-01-06 08:31:07.75	77.66	19.73	-27.1	-28.7	15.4	0.00e+00	0	43	102	1048576	14	4357
2026-01-06 08:31:08.76	77.44	19.80	-27.1	-28.7	15.4	0.00e+00	0	43	102	1048576	14	4355
2026-01-06 08:31:09.77	77.23	19.87	-27.1	-28.7	15.4	0.00e+00	0	43	102	1048576	14	4357
2026-01-06 08:31:10.78	77.01	19.94	-27.2	-29.1	15.2	0.00e+00	0	43	102	1048576	14	4465
2026-01-06 08:31:11.78	76.80	20.00	-27.1	-28.8	15.4	0.00e+00	0	43	102	1048576	14	4387
2026-01-06 08:31:12.80	76.58	20.07	-26.9	-28.4	15.6	0.00e+00	0	43	102	1048576	14	4271
2026-01-06 08:31:13.81	76.36	20.14	-26.8	-28.2	15.8	0.00e+00	0	43	102	1048576	14	4199
2026-01-06 08:31:14.82	76.14	20.21	-26.8	-28.2	15.7	0.00e+00	0	43	102	1048576	14	4217
2026-01-06 08:31:15.82	75.92	20.27	-26.9	-28.3	15.6	0.00e+00	0	43	102	1048576	14	4239
2026-01-06 08:31:16.83	75.70	20.34	-27.1	-28.9	15.3	0.00e+00	0	43	102	1048576	14	4395
2026-01-06 08:31:17.84	75.48	20.40	-27.2	-29.0	15.3	0.00e+00	0	43	102	1048576	14	4447
2026-01-06 08:31:18.84	75.26	20.47	-27.2	-29.1	15.3	0.00e+00	0	43	102	1048576	14	4446
2026-01-06 08:31:19.85	75.04	20.54	-27.2	-29.1	15.2	0.00e+00	0	43	102	1048576	14	4455
2026-01-06 08:31:20.85	74.81	20.60	-27.3	-29.2	15.2	0.00e+00	0	43	102	1048576	14	4484
2026-01-06 08:31:21.86	74.59	20.67	-27.3	-29.1	15.2	0.00e+00	0	43	102	1048576	14	4473
2026-01-06 08:31:22.87	74.36	20.73	-27.3	-29.2	15.2	0.00e+00	0	43	102	1048576	14	4486
2026-01-06 08:31:23.88	74.13	20.80	-27.4	-29.6	15.0	2.20e-06	0	43	102	1048576	14	4603
2026-01-06 08:31:24.88	73.91	20.86	-27.2	-29.1	15.3	0.00e+00	0	43	102	1048576	14	4456
2026-01-06 08:31:25.88	73.68	20.92	-26.9	-28.4	15.6	0.00e+00	0	43	102	1048576	14	4268
2026-01-06 08:31:26.88	73.45	20.98	-26.8	-28.1	15.8	0.00e+00	0	43	102	1048576	14	4185
2026-01-06 08:31:27.89	73.22	21.05	-26.8	-28.0	15.9	0.00e+00	0	43	102	1048576	14	4164
2026-01-06 08:31:28.90	72.99	21.11	-26.8	-28.1	15.8	0.00e+00	0	43	102	1048576	14	4174
2026-01-06 08:31:29.90	72.75	21.17	-26.9	-28.3	15.7	0.00e+00	0	43	102	1048576	14	4237
2026-01-06 08:31:30.91	72.52	21.23	-26.7	-27.9	15.9	0.00e+00	0	43	102	1048576	14	4138
2026-01-06 08:31:31.92	72.28	21.30	-26.7	-27.8	15.9	0.00e+00	0	43	102	1048576	14	4113
2026-01-06 08:31:32.93	72.05	21.36	-26.7	-27.8	16.0	0.00e+00	0	43	102	1048576	14	4108
2026-01-06 08:31:33.93	71.81	21.42	-26.8	-28.0	15.9	0.00e+00	0	43	102	1048576	14	4161
2026-01-06 08:31:34.94	71.57	21.48	-26.7	-27.9	15.9	0.00e+00	0	43	102	1048576	14	4124
2026-01-06 08:31:35.94	71.34	21.54	-26.8	-28.1	15.8	0.00e+00	0	43	102	1048576	14	4187
2026-01-06 08:31:36.94	71.10	21.60	-26.7	-27.9	15.9	0.00e+00	0	43	102	1048576	14	4123
2026-01-06 08:31:37.95	70.86	21.66	-26.8	-28.0	15.9	0.00e+00	0	43	102	1048576	14	4152
2026-01-06 08:31:38.96	70.62	21.72	-26.9	-28.3	15.7	0.00e+00	0	43	102	1048576	14	4222
2026-01-06 08:31:39.96	70.38	21.78	-27.0	-28.5	15.6	0.00e+00	0	43	102	1048576	14	4289
2026-01-06 08:31:40.96	70.13	21.83	-27.0	-28.5	15.6	0.00e+00	0	43	102	1048576	14	4298
2026-01-06 08:31:41.96	69.89	21.89	-27.1	-28.8	15.4	1.50e-06	0	43	102	1048576	14	4360
2026-01-06 08:31:42.97	69.65	21.95	-27.2	-28.9	15.4	0.00e+00	0	43	102	1048576	14	4403
2026-01-06 08:31:43.98	69.40	22.00	-26.9	-28.4	15.6	0.00e+00	0	43	102	1048576	14	4270
2026-01-06 08:31:44.99	69.15	22.06	-26.8	-28.1	15.8	0.00e+00	0	43	102	1048576	14	4171
2026-01-06 08:31:45.99	68.91	22.12	-26.8	-28.1	15.8	0.00e+00	0	43	102	1048576	14	4181
2026-01-06 08:31:47.00	68.66	22.17	-27.0	-28.6	15.6	0.00e+00	0	43	102	1048576	14	4304
2026-01-06 08:31:48.01	68.41	22.23	-26.8	-28.1	15.8	1.50e-06	0	43	102	1048576	14	4168
2026-01-06 08:31:49.02	68.15	22.28	-27.0	-28.6	15.6	0.00e+00	0	43	102	1048576	14	4305
2026-01-06 08:31:50.02	67.91	22.34	-26.7	-27.9	15.9	0.00e+00	0	43	102	1048576	14	4139
2026-01-06 08:31:51.03	67.65	22.39	-26.6	-27.6	16.1	1.50e-06	0	43	102	1048576	14	4060
2026-01-06 08:31:52.03	67.40	22.44	-26.5	-27.5	16.2	0.00e+00	0	43	102	1048576	14	4022
2026-01-06 08:31:53.04	67.15	22.50	-26.7	-27.8	16.0	0.00e+00	0	43	102	1048576	14	4110
2026-01-06 08:31:54.04	66.89	22.55	-26.5	-27.4	16.2	0.00e+00	0	43	102	1048576	14	4008
2026-01-06 08:31:55.05	66.64	22.60	-26.4	-27.2	16.3	0.00e+00	0	43	102	1048576	14	3948
2026-01-06 08:31:56.05	66.38	22.65	-26.5	-27.4	16.2	0.00e+00	0	43	102	1048576	14	4007
2026-01-06 08:31:57.06	66.12	22.70	-26.5	-27.4	16.2	2.20e-06	0	43	102	1048576	14	4005
2026-01-06 08:31:58.07	65.87	22.75	-26.7	-27.8	16.0	0.00e+00	0	43	102	1048576	14	4097
2026-01-06 08:31:59.07	65.61	22.80	-26.7	-27.8	16.0	0.00e+00	0	43	102	1048576	14	4102
2026-01-06 08:32:00.08	65.35	22.85	-26.8	-28.1	15.9	0.00e+00	0	43	102	1048576	14	4166
2026-01-06 08:32:01.09	65.09	22.90	-26.9	-28.4	15.7	0.00e+00	0	43	102	1048576	14	4264
2026-01-06 08:32:02.09	64.83	22.95	-26.8	-28.1	15.9	0.00e+00	0	43	102	1048576	14	4177
2026-01-06 08:32:03.10	64.56	22.99	-26.8	-28.0	16.0	0.00e+00	0	43	102	1048576	14	4150
2026-01-06 08:32:04.11	64.30	23.04	-26.8	-28.2	15.8	0.00e+00	0	43	102	1048576	14	4193
2026-01-06 08:32:05.12	64.04	23.09	-26.7	-27.9	16.0	0.00e+00	0	43	102	1048576	14	4121
2026-01-06 08:32:06.12	63.77	23.13	-26.7	-28.0	16.0	0.00e+00	0	43	102	1048576	14	4143
2026-01-06 08:32:07.13	63.51	23.18	-26.9	-28.3	15.8	0.00e+00	0	43	102	1048576	14	4244
2026-01-06 08:32:08.14	63.24	23.22	-26.8	-28.1	15.9	0.00e+00	0	43	102	1048576	14	4173
2026-01-06 08:32:09.14	62.98	23.27	-27.0	-28.4	15.7	0.00e+00	0	43	102	1048576	14	4266
2026-01-06 08:32:10.15	62.71	23.31	-26.8	-28.1	15.9	0.00e+00	0	43	102	1048576	14	4166
2026-01-06 08:32:11.17	62.44	23.35	-26.8	-28.0	15.9	0.00e+00	0	43	102	1048576	14	4158
2026-01-06 08:32:12.17	62.17	23.39	-26.7	-27.9	16.0	0.00e+00	0	43	102	1048576	14	4117
2026-01-06 08:32:13.18	61.90	23.44	-26.7	-27.9	16.0	0.00e+00	0	43	102	1048576	14	4126
2026-01-06 08:32:14.18	61.63	23.48	-26.6	-27.6	16.1	0.00e+00	0	43	102	1048576	14	4054
2026-01-06 08:32:15.20	61.35	23.52	-26.5	-27.5	16.2	0.00e+00	0	43	102	1048576	14	4024
2026-01-06 08:32:16.20	61.08	23.56	-26.6	-27.6	16.1	0.00e+00	0	43	102	1048576	14	4054
2026-01-06 08:32:17.21	60.81	23.60	-26.6	-27.6	16.2	0.00e+00	0	43	102	1048576	14	4044
2026-01-06 08:32:18.22	60.54	23.63	-26.6	-27.7	16.1	0.00e+00	0	43	102	1048576	14	4083
2026-01-06 08:32:19.22	60.27	23.67	-26.6	-27.6	16.2	0.00e+00	0	43	102	1048576	14	4035
2026-01-06 08:32:20.22	59.99	23.71	-26.7	-27.8	16.1	0.00e+00	0	43	102	1048576	14	4092
2026-01-06 08:32:21.23	59.72	23.75	-26.7	-27.8	16.0	0.00e+00	0	43	102	1048576	14	4099
2026-01-06 08:32:22.23	59.44	23.78	-26.7	-27.9	16.0	0.00e+00	0	43	102	1048576	14	4130
2026-01-06 08:32:23.25	59.16	23.82	-26.8	-28.1	15.9	0.00e+00	0	43	102	1048576	14	4172
2026-01-06 08:32:24.26	58.89	23.85	-26.7	-27.9	16.0	0.00e+00	0	43	102	1048576	14	4121
2026-01-06 08:32:25.26	58.61	23.88	-26.7	-27.9	16.0	0.00e+00	0	43	102	1048576	14	4129
2026-01-06 08:32:26.26	58.33	23.92	-26.7	-27.8	16.0	0.00e+00	0	43	102	1048576	14	4110
2026-01-06 08:32:27.27	58.05	23.95	-26.8	-28.0	16.0	0.00e+00	0	43	102	1048576	14	4145
2026-01-06 08:32:28.27	57.78	23.98	-26.7	-27.8	16.1	0.00e+00	0	43	102	1048576	14	4091
2026-01-06 08:32:29.28	57.50	24.01	-26.8	-28.0	16.0	0.00e+00	0	43	102	1048576	14	4142
2026-01-06 08:32:30.27	57.22	24.04	-26.9	-28.2	15.8	0.00e+00	0	43	102	1048576	14	4205
2026-01-06 08:32:31.28	56.94	24.07	-26.7	-27.8	16.1	0.00e+00	0	43	102	1048576	14	4109
2026-01-06 08:32:32.29	56.66	24.10	-26.6	-27.7	16.2	0.00e+00	0	43	102	1048576	14	4070
2026-01-06 08:32:33.29	56.38	24.13	-26.6	-27.7	16.1	0.00e+00	0	43	102	1048576	14	4071
2026-01-06 08:32:34.30	56.09	24.16	-26.6	-27.7	16.2	0.00e+00	0	43	102	1048576	14	4063
2026-01-06 08:32:35.30	55.81	24.18	-26.4	-27.2	16.4	0.00e+00	0	43	102	1048576	14	3945
2026-01-06 08:32:36.31	55.53	24.21	-26.3	-27.1	16.5	0.00e+00	0	43	102	1048576	14	3909
2026-01-06 08:32:37.31	55.25	24.23	-26.3	-27.1	16.4	0.00e+00	0	43	102	1048576	14	3906
2026-01-06 08:32:38.31	54.96	24.26	-26.2	-27.3	16.5	0.00e+00	0	43	102	1048576	13	4076
2026-01-06 08:32:39.31	54.68	24.28	-26.2	-27.3	16.6	0.00e+00	0	43	102	1048576	13	4063
2026-01-06 08:32:40.32	54.39	24.30	-26.2	-27.1	16.7	0.00e+00	0	43	102	1048576	13	4035
2026-01-06 08:32:41.32	54.11	24.33	-26.2	-27.1	16.7	7.00e-07	0	43	102	1048576	13	4034
2026-01-06 08:32:42.32	53.83	24.35	-26.1	-27.1	16.7	0.00e+00	0	43	102	1048576	13	4025
2026-01-06 08:32:43.33	53.54	24.37	-26.3	-27.4	16.5	0.00e+00	0	43	102	1048576	13	4103
2026-01-06 08:32:44.34	53.25	24.39	-26.3	-27.6	16.4	0.00e+00	0	43	102	1048576	13	4144
2026-01-06 08:32:45.35	52.96	24.41	-26.4	-27.7	16.4	0.00e+00	0	43	102	1048576	13	4185
2026-01-06 08:32:46.36	52.68	24.43	-26.5	-27.8	16.3	0.00e+00	0	43	102	1048576	13	4215
2026-01-06 08:32:47.37	52.39	24.44	-26.6	-28.1	16.2	7.00e-07	0	43	102	1048576	13	4289
2026-01-06 08:32:48.37	52.10	24.46	-26.6	-28.2	16.1	0.00e+00	0	43	102	1048576	13	4320
2026-01-06 08:32:49.37	51.81	24.48	-26.6	-28.2	16.2	0.00e+00	0	43	102	1048576	13	4303
2026-01-06 08:32:50.37	51.53	24.49	-26.6	-28.2	16.1	0.00e+00	0	43	102	1048576	13	4310
2026-01-06 08:32:51.36	51.24	24.50	-26.6	-28.1	16.1	0.00e+00	0	43	102	1048576	13	4287
2026-01-06 08:32:52.36	50.96	24.52	-26.6	-28.2	16.1	0.00e+00	0	43	102	1048576	13	4308
2026-01-06 08:32:53.34	50.67	24.53	-26.8	-28.5	15.9	0.00e+00	0	43	102	1048576	13	4406
2026-01-06 08:32:54.34	50.39	24.54	-26.8	-28.7	15.8	0.00e+00	0	43	102	1048576	13	4441
2026-01-06 08:32:55.34	50.10	24.55	-26.7	-28.3	16.1	0.00e+00	0	43	102	1048576	13	4331
2026-01-06 08:32:56.34	49.81	24.56	-26.6	-28.1	16.2	0.00e+00	0	43	102	1048576	13	4286
2026-01-06 08:32:57.34	49.52	24.57	-26.7	-28.2	16.1	0.00e+00	0	43	102	1048576	13	4322
2026-01-06 08:32:58.34	49.23	24.58	-26.7	-28.3	16.1	0.00e+00	0	43	102	1048576	13	4342
2026-01-06 08:32:59.34	48.95	24.59	-26.6	-28.1	16.2	0.00e+00	0	43	102	1048576	13	4287
2026-01-06 08:33:00.34	48.66	24.60	-26.6	-28.0	16.2	0.00e+00	0	43	102	1048576	13	4260
2026-01-06 08:33:01.35	48.37	24.61	-26.6	-28.1	16.2	0.00e+00	0	43	102	1048576	13	4288
2026-01-06 08:33:02.35	48.08	24.61	-26.6	-28.1	16.2	0.00e+00	0	43	102	1048576	13	4272
2026-01-06 08:33:03.35	47.79	24.62	-26.6	-28.1	16.2	0.00e+00	0	43	102	1048576	13	4276
2026-01-06 08:33:04.36	47.50	24.62	-26.5	-27.9	16.3	0.00e+00	0	43	102	1048576	13	4219
2026-01-06 08:33:05.35	47.21	24.62	-26.5	-28.0	16.2	0.00e+00	0	43	102	1048576	13	4258
2026-01-06 08:33:06.36	46.92	24.63	-26.6	-28.1	16.2	0.00e+00	0	43	102	1048576	13	4285
2026-01-06 08:33:07.36	46.63	24.63	-26.6	-28.2	16.1	0.00e+00	0	43	102	1048576	13	4302
2026-01-06 08:33:08.37	46.34	24.63	-26.7	-28.3	16.1	0.00e+00	0	43	102	1048576	13	4342
2026-01-06 08:33:09.36	46.05	24.63	-26.8	-28.5	15.9	0.00e+00	0	43	102	1048576	13	4394
2026-01-06 08:33:10.37	45.76	24.63	-26.8	-28.6	15.9	0.00e+00	0	43	102	1048576	13	4418
2026-01-06 08:33:11.37	45.47	24.63	-26.8	-28.6	15.9	0.00e+00	0	43	102	1048576	13	4431
2026-01-06 08:33:12.38	45.18	24.63	-26.8	-28.5	15.9	0.00e+00	0	43	102	1048576	13	4402
2026-01-06 08:33:13.38	44.89	24.62	-26.6	-28.1	16.2	0.00e+00	0	43	102	1048576	13	4284
2026-01-06 08:33:14.38	44.60	24.62	-26.5	-28.0	16.2	0.00e+00	0	43	102	1048576	13	4256
2026-01-06 08:33:15.38	44.31	24.61	-26.5	-28.0	16.2	0.00e+00	0	43	102	1048576	13	4258
2026-01-06 08:33:16.39	44.02	24.61	-26.5	-28.0	16.2	0.00e+00	0	43	102	1048576	13	4262
2026-01-06 08:33:17.40	43.73	24.60	-26.7	-28.2	16.1	0.00e+00	0	43	102	1048576	13	4320
2026-01-06 08:33:18.41	43.44	24.60	-26.5	-28.0	16.2	0.00e+00	0	43	102	1048576	13	4249
2026-01-06 08:33:19.41	43.15	24.59	-26.5	-27.9	16.3	0.00e+00	0	43	102	1048576	13	4232
2026-01-06 08:33:20.41	42.86	24.58	-26.5	-27.9	16.3	0.00e+00	0	43	102	1048576	13	4223
2026-01-06 08:33:21.42	42.57	24.57	-26.4	-27.6	16.4	0.00e+00	0	43	102	1048576	13	4148
2026-01-06 08:33:22.43	42.28	24.56	-26.2	-27.2	16.6	0.00e+00	0	43	102	1048576	13	4052
2026-01-06 08:33:23.42	41.99	24.55	-26.3	-27.5	16.5	0.00e+00	0	43	102	1048576	13	4112
2026-01-06 08:33:24.43	41.70	24.54	-26.4	-27.6	16.4	0.00e+00	0	43	102	1048576	13	4153
2026-01-06 08:33:25.44	41.41	24.52	-26.2	-27.3	16.6	0.00e+00	0	43	102	1048576	13	4080
2026-01-06 08:33:26.45	41.12	24.51	-26.2	-27.2	16.6	0.00e+00	0	43	102	1048576	13	4058
2026-01-06 08:33:27.44	40.84	24.50	-26.2	-27.2	16.6	0.00e+00	0	43	102	1048576	13	4059
2026-01-06 08:33:28.45	40.55	24.48	-26.1	-27.1	16.7	0.00e+00	0	43	102	1048576	13	4022
2026-01-06 08:33:29.44	40.26	24.47	-26.2	-27.3	16.6	0.00e+00	0	43	102	1048576	13	4062
2026-01-06 08:33:30.43	39.98	24.45	-26.5	-27.8	16.3	0.00e+00	0	43	102	1048576	13	4211
2026-01-06 08:33:31.43	39.70	24.43	-26.6	-28.0	16.2	0.00e+00	0	43	102	1048576	13	4261
2026-01-06 08:33:32.43	39.41	24.42	-26.6	-28.1	16.2	0.00e+00	0	43	102	1048576	13	4289
2026-01-06 08:33:33.43	39.13	24.40	-26.6	-28.2	16.1	0.00e+00	0	43	102	1048576	13	4320
2026-01-06 08:33:34.44	38.84	24.38	-26.7	-28.3	16.1	0.00e+00	0	43	102	1048576	13	4333
2026-01-06 08:33:35.44	38.55	24.36	-26.6	-28.2	16.1	0.00e+00	0	43	102	1048576	13	4316
2026-01-06 08:33:36.44	38.27	24.34	-26.8	-28.5	15.9	0.00e+00	0	43	102	1048576	13	4406
2026-01-06 08:33:37.43	37.99	24.32	-26.8	-28.6	15.9	0.00e+00	0	43	102	1048576	13	4421
2026-01-06 08:33:38.43	37.71	24.29	-26.6	-28.1	16.1	0.00e+00	0	43	102	1048576	13	4294
2026-01-06 08:33:39.43	37.42	24.27	-26.5	-27.9	16.2	0.00e+00	0	43	102	1048576	13	4240
2026-01-06 08:33:40.42	37.14	24.25	-26.5	-28.0	16.2	0.00e+00	0	43	102	1048576	13	4252
2026-01-06 08:33:41.42	36.86	24.22	-26.6	-28.2	16.1	0.00e+00	0	43	102	1048576	13	4313
2026-01-06 08:33:42.42	36.58	24.20	-26.6	-28.1	16.1	0.00e+00	0	43	102	1048576	13	4299
2026-01-06 08:33:43.42	36.30	24.17	-26.5	-28.0	16.2	7.00e-07	0	43	102	1048576	13	4250
2026-01-06 08:33:44.42	36.02	24.14	-26.6	-28.1	16.2	0.00e+00	0	43	102	1048576	13	4274
2026-01-06 08:33:45.42	35.74	24.12	-26.6	-28.1	16.1	0.00e+00	0	43	102	1048576	13	4296
2026-01-06 08:33:46.43	35.46	24.09	-26.7	-28.4	16.0	0.00e+00	0	43	102	1048576	13	4373
2026-01-06 08:33:47.44	35.18	24.06	-26.9	-28.8	15.8	0.00e+00	0	43	102	1048576	13	4480
2026-01-06 08:33:48.44	34.90	24.03	-26.9	-28.9	15.7	0.00e+00	0	43	102	1048576	13	4508
2026-01-06 08:33:49.43	34.62	24.00	-26.9	-28.8	15.8	0.00e+00	0	43	102	1048576	13	4484
2026-01-06 08:33:50.44	34.34	23.97	-26.8	-28.6	15.9	0.00e+00	0	43	102	1048576	13	4415
2026-01-06 08:33:51.44	34.07	23.94	-26.8	-28.5	15.9	0.00e+00	0	43	102	1048576	13	4392
2026-01-06 08:33:52.44	33.79	23.90	-26.8	-28.6	15.8	0.00e+00	0	43	102	1048576	13	4437
2026-01-06 08:33:53.45	33.51	23.87	-26.9	-28.2	15.8	0.00e+00	0	43	102	1048576	14	4207
2026-01-06 08:33:54.45	33.24	23.84	-26.7	-27.8	16.1	0.00e+00	0	43	102	1048576	14	4101
2026-01-06 08:33:55.45	32.96	23.80	-26.6	-27.7	16.1	0.00e+00	0	43	102	1048576	14	4076
2026-01-06 08:33:56.46	32.69	23.77	-26.7	-27.9	16.0	0.00e+00	0	43	102	1048576	14	4113
2026-01-06 08:33:57.47	32.41	23.73	-26.7	-27.8	16.0	0.00e+00	0	43	102	1048576	14	4110
2026-01-06 08:33:58.46	32.14	23.70	-26.8	-28.0	16.0	0.00e+00	0	43	102	1048576	14	4148
2026-01-06 08:33:59.47	31.87	23.66	-26.8	-28.0	15.9	0.00e+00	0	43	102	1048576	14	4150
2026-01-06 08:34:00.47	31.59	23.62	-26.7	-27.8	16.1	0.00e+00	0	43	102	1048576	14	4107
2026-01-06 08:34:01.47	31.32	23.58	-26.6	-27.7	16.1	0.00e+00	0	43	102	1048576	14	4077
2026-01-06 08:34:02.47	31.05	23.54	-26.5	-27.4	16.2	0.00e+00	0	43	102	1048576	14	4001
2026-01-06 08:34:03.48	30.78	23.50	-26.6	-27.6	16.2	0.00e+00	0	43	102	1048576	14	4032
2026-01-06 08:34:04.48	30.51	23.46	-26.6	-27.6	16.1	0.00e+00	0	43	102	1048576	14	4050
2026-01-06 08:34:05.48	30.25	23.42	-26.6	-27.7	16.1	0.00e+00	0	43	102	1048576	14	4059
2026-01-06 08:34:06.49	29.98	23.38	-26.7	-27.9	16.0	0.00e+00	0	43	102	1048576	14	4124
2026-01-06 08:34:07.49	29.71	23.34	-26.8	-28.0	15.9	0.00e+00	0	43	102	1048576	14	4149
2026-01-06 08:34:08.49	29.44	23.30	-26.8	-28.1	15.9	0.00e+00	0	43	102	1048576	14	4174
2026-01-06 08:34:09.49	29.18	23.25	-26.8	-28.1	15.9	0.00e+00	0	43	102	1048576	14	4175
2026-01-06 08:34:10.50	28.91	23.21	-26.8	-28.1	15.8	0.00e+00	0	43	102	1048576	14	4188
2026-01-06 08:34:11.49	28.65	23.17	-26.8	-28.0	15.9	0.00e+00	0	43	102	1048576	14	4160
2026-01-06 08:34:12.50	28.39	23.12	-26.8	-28.2	15.8	0.00e+00	0	43	102	1048576	14	4198
2026-01-06 08:34:13.50	28.13	23.07	-26.9	-28.3	15.7	0.00e+00	0	43	102	1048576	14	4238
2026-01-06 08:34:14.51	27.86	23.03	-26.7	-27.9	16.0	0.00e+00	0	43	102	1048576	14	4129
2026-01-06 08:34:15.50	27.60	22.98	-26.6	-27.7	16.1	0.00e+00	0	43	102	1048576	14	4065
2026-01-06 08:34:16.52	27.34	22.93	-26.7	-27.7	16.1	0.00e+00	0	43	102	1048576	14	4076
2026-01-06 08:34:17.52	27.08	22.89	-26.6	-27.6	16.1	0.00e+00	0	43	102	1048576	14	4036
2026-01-06 08:34:18.52	26.82	22.84	-26.6	-27.7	16.1	0.00e+00	0	43	102	1048576	14	4062
2026-01-06 08:34:19.53	26.56	22.79	-26.6	-27.7	16.0	0.00e+00	0	43	102	1048576	14	4079
2026-01-06 08:34:20.53	26.31	22.74	-26.6	-27.7	16.1	0.00e+00	0	43	102	1048576	14	4063
2026-01-06 08:34:21.54	26.05	22.69	-26.7	-28.0	15.9	0.00e+00	0	43	102	1048576	14	4143
2026-01-06 08:34:22.54	25.80	22.64	-26.7	-27.9	15.9	0.00e+00	0	43	102	1048576	14	4131
2026-01-06 08:34:23.54	25.54	22.59	-26.6	-27.7	16.1	0.00e+00	0	43	102	1048576	14	4060
2026-01-06 08:34:24.54	25.29	22.54	-26.6	-27.7	16.1	0.00e+00	0	43	102	1048576	14	4062
2026-01-06 08:34:25.54	25.04	22.49	-26.7	-27.9	16.0	0.00e+00	0	43	102	1048576	14	4112
2026-01-06 08:34:26.54	24.79	22.43	-26.8	-28.0	15.9	0.00e+00	0	43	102	1048576	14	4155
2026-01-06 08:34:27.54	24.54	22.38	-26.8	-28.1	15.8	0.00e+00	0	43	102	1048576	14	4186
2026-01-06 08:34:28.54	24.29	22.33	-26.8	-28.0	15.9	0.00e+00	0	43	102	1048576	14	4167
2026-01-06 08:34:29.55	24.04	22.27	-26.8	-28.2	15.8	0.00e+00	0	43	102	1048576	14	4193
2026-01-06 08:34:30.55	23.79	22.22	-26.7	-27.9	15.9	0.00e+00	0	43	102	1048576	14	4125
2026-01-06 08:34:31.56	23.54	22.16	-26.5	-27.4	16.2	0.00e+00	0	43	102	1048576	14	4004
2026-01-06 08:34:32.57	23.29	22.11	-26.5	-27.3	16.3	0.00e+00	0	43	102	1048576	14	3969
2026-01-06 08:34:33.58	23.04	22.05	-26.4	-27.3	16.3	0.00e+00	0	43	102	1048576	14	3966
2026-01-06 08:34:34.58	22.80	22.00	-26.6	-27.6	16.1	0.00e+00	0	43	102	1048576	14	4043
2026-01-06 08:34:35.58	22.56	21.94	-26.7	-27.9	16.0	0.00e+00	0	43	102	1048576	14	4123
2026-01-06 08:34:36.59	22.31	21.88	-26.8	-28.2	15.8	0.00e+00	0	43	102	1048576	14	4197
2026-01-06 08:34:37.59	22.07	21.82	-26.9	-28.3	15.7	0.00e+00	0	43	102	1048576	14	4229
2026-01-06 08:34:38.60	21.83	21.77	-26.9	-28.3	15.7	0.00e+00	0	43	102	1048576	14	4236
2026-01-06 08:34:39.60	21.59	21.71	-26.9	-28.2	15.8	0.00e+00	0	43	102	1048576	14	4209
2026-01-06 08:34:40.60	21.35	21.65	-26.7	-27.9	15.9	0.00e+00	0	43	102	1048576	14	4132
2026-01-06 08:34:41.61	21.11	21.59	-26.7	-27.9	15.9	0.00e+00	0	43	102	1048576	14	4115
2026-01-06 08:34:42.61	20.87	21.53	-26.9	-28.2	15.8	0.00e+00	0	43	102	1048576	14	4200
2026-01-06 08:34:43.61	20.64	21.47	-26.8	-28.2	15.8	0.00e+00	0	43	102	1048576	14	4208
2026-01-06 08:34:44.61	20.40	21.41	-27.1	-28.7	15.5	0.00e+00	0	43	102	1048576	14	4343
2026-01-06 08:34:45.62	20.16	21.35	-27.1	-28.8	15.4	0.00e+00	0	43	102	1048576	14	4363
2026-01-06 08:34:46.62	19.93	21.29	-26.9	-28.4	15.6	0.00e+00	0	43	102	1048576	14	4277
2026-01-06 08:34:47.63	19.70	21.23	-27.0	-28.6	15.6	0.00e+00	0	43	102	1048576	14	4313
2026-01-06 08:34:48.63	19.47	21.17	-27.0	-28.5	15.6	0.00e+00	0	43	102	1048576	14	4299
2026-01-06 08:34:49.64	19.23	21.10	-26.9	-28.4	15.6	0.00e+00	0	43	102	1048576	14	4257
2026-01-06 08:34:50.64	19.00	21.04	-26.9	-28.3	15.7	0.00e+00	0	43	102	1048576	14	4240
2026-01-06 08:34:51.64	18.78	20.98	-26.9	-28.3	15.7	0.00e+00	0	43	102	1048576	14	4242
2026-01-06 08:34:52.64	18.55	20.92	-27.0	-28.6	15.5	0.00e+00	0	43	102	1048576	14	4327
2026-01-06 08:34:53.64	18.32	20.85	-27.2	-29.0	15.3	0.00e+00	0	43	102	1048576	14	4438
2026-01-06 08:34:54.64	18.10	20.79	-27.3	-29.1	15.2	0.00e+00	0	43	102	1048576	14	4471
2026-01-06 08:34:55.64	17.87	20.73	-27.3	-29.1	15.2	0.00e+00	0	43	102	1048576	14	4454
2026-01-06 08:34:56.65	17.65	20.66	-27.4	-29.4	15.0	0.00e+00	0	43	102	1048576	14	4558
2026-01-06 08:34:57.66	17.42	20.60	-27.4	-29.0	15.0	0.00e+00	0	43	102	1048576	15	4327
2026-01-06 08:34:58.66	17.20	20.53	-27.3	-28.8	15.1	7.00e-07	0	43	102	1048576	15	4272
2026-01-06 08:34:59.67	16.98	20.47	-27.3	-28.7	15.2	0.00e+00	0	43	102	1048576	15	4223
2026-01-06 08:35:00.67	16.76	20.40	-27.3	-28.7	15.2	0.00e+00	0	43	102	1048576	15	4229
2026-01-06 08:35:01.67	16.54	20.34	-27.5	-29.3	14.8	0.00e+00	0	43	102	1048576	15	4402
2026-01-06 08:35:02.68	16.32	20.27	-27.4	-29.0	14.9	7.00e-07	0	43	102	1048576	15	4336
2026-01-06 08:35:03.68	16.10	20.20	-27.1	-28.3	15.4	0.00e+00	0	43	102	1048576	15	4119
2026-01-06 08:35:04.68	15.88	20.14	-26.8	-27.7	15.7	0.00e+00	0	43	102	1048576	15	3962
2026-01-06 08:35:05.69	15.67	20.07	-26.7	-27.8	15.9	0.00e+00	0	43	102	1048576	14	4112
2026-01-06 08:35:06.70	15.45	20.00	-26.8	-28.0	15.8	0.00e+00	0	43	102	1048576	14	4163
2026-01-06 08:35:07.70	15.24	19.94	-26.9	-28.2	15.6	0.00e+00	0	43	102	1048576	14	4212
2026-01-06 08:35:08.71	15.02	19.87	-26.8	-28.2	15.7	0.00e+00	0	43	102	1048576	14	4201
2026-01-06 08:35:09.71	14.81	19.80	-26.8	-28.1	15.7	0.00e+00	0	43	102	1048576	14	4184
2026-01-06 08:35:10.72	14.60	19.73	-26.9	-28.3	15.6	0.00e+00	0	43	102	1048576	14	4221
2026-01-06 08:35:11.73	14.39	19.66	-26.8	-28.1	15.7	0.00e+00	0	43	102	1048576	14	4186
2026-01-06 08:35:12.74	14.18	19.59	-26.7	-27.9	15.8	0.00e+00	0	43	102	1048576	14	4140
2026-01-06 08:35:13.74	13.97	19.53	-26.7	-27.9	15.8	0.00e+00	0	43	102	1048576	14	4129
2026-01-06 08:35:14.75	13.76	19.46	-26.8	-28.2	15.7	0.00e+00	0	43	102	1048576	14	4210
2026-01-06 08:35:15.76	13.55	19.39	-26.8	-28.2	15.7	0.00e+00	0	43	102	1048576	14	4206
2026-01-06 08:35:16.76	13.35	19.32	-26.9	-28.4	15.5	0.00e+00	0	43	102	1048576	14	4281
2026-01-06 08:35:17.77	13.14	19.25	-26.9	-28.4	15.6	0.00e+00	0	43	102	1048576	14	4265
2026-01-06 08:35:18.77	12.94	19.18	-26.9	-28.4	15.5	0.00e+00	0	43	102	1048576	14	4272
2026-01-06 08:35:19.77	12.74	19.11	-26.8	-28.2	15.6	0.00e+00	0	43	102	1048576	14	4207
2026-01-06 08:35:20.78	12.54	19.04	-26.7	-27.9	15.8	0.00e+00	0	43	102	1048576	14	4136
2026-01-06 08:35:21.79	12.33	18.97	-26.7	-28.0	15.7	0.00e+00	0	43	102	1048576	14	4155
2026-01-06 08:35:22.79	12.13	18.90	-26.7	-27.8	15.9	0.00e+00	0	43	102	1048576	14	4096
2026-01-06 08:35:23.80	11.93	18.83	-26.6	-27.7	16.0	0.00e+00	0	43	102	1048576	14	4070
2026-01-06 08:35:24.80	11.74	18.76	-26.7	-28.0	15.8	0.00e+00	0	43	102	1048576	14	4156
2026-01-06 08:35:25.80	11.54	18.69	-26.8	-28.0	15.7	0.00e+00	0	43	102	1048576	14	4167
2026-01-06 08:35:26.81	11.34	18.62	-26.9	-28.4	15.6	0.00e+00	0	43	102	1048576	14	4269
2026-01-06 08:35:27.81	11.15	18.55	-26.9	-28.3	15.6	0.00e+00	0	43	102	1048576	14	4247
2026-01-06 08:35:28.81	10.96	18.47	-26.9	-28.2	15.6	0.00e+00	0	43	102	1048576	14	4225
2026-01-06 08:35:29.81	10.76	18.40	-27.0	-28.5	15.5	0.00e+00	0	43	102	1048576	14	4285
2026-01-06 08:35:30.82	10.57	18.33	-27.1	-28.8	15.3	0.00e+00	0	43	102	1048576	14	4391
2026-01-06 08:35:31.83	10.38	18.26	-27.0	-28.6	15.4	0.00e+00	0	43	102	1048576	14	4319
2026-01-06 08:35:32.83	10.19	18.19	-26.9	-28.3	15.5	0.00e+00	0	43	102	1048576	14	4248
2026-01-06 08:35:33.84	10.00	18.12	-26.9	-28.5	15.5	0.00e+00	0	43	102	1048576	14	4284
2026-01-06 08:35:34.85	9.81	18.04	-26.9	-28.3	15.5	0.00e+00	0	43	102	1048576	14	4244
2026-01-06 08:35:35.86	9.62	17.97	-26.9	-28.3	15.5	0.00e+00	0	43	102	1048576	14	4249
2026-01-06 08:35:36.87	9.43	17.90	-26.9	-28.3	15.6	0.00e+00	0	43	102	1048576	14	4231
2026-01-06 08:35:37.87	9.24	17.83	-27.0	-28.6	15.4	0.00e+00	0	43	102	1048576	14	4325
2026-01-06 08:35:38.87	9.06	17.75	-27.0	-28.5	15.4	0.00e+00	0	43	102	1048576	14	4309
2026-01-06 08:35:39.88	8.88	17.68	-27.2	-29.0	15.2	0.00e+00	0	43	102	1048576	14	4431
2026-01-06 08:35:40.88	8.69	17.61	-27.2	-29.0	15.2	0.00e+00	0	43	102	1048576	14	4430
2026-01-06 08:35:41.88	8.51	17.54	-27.4	-29.4	14.9	0.00e+00	0	43	102	1048576	14	4560
2026-01-06 08:35:42.89	8.33	17.46	-27.3	-29.2	15.0	0.00e+00	0	43	102	1048576	14	4509
2026-01-06 08:35:43.90	8.15	17.39	-27.3	-29.3	15.0	0.00e+00	0	43	102	1048576	14	4527
2026-01-06 08:35:44.91	7.97	17.32	-27.4	-29.5	14.9	0.00e+00	0	43	102	1048576	14	4577
2026-01-06 08:35:45.92	7.79	17.24	-27.2	-29.1	15.1	0.00e+00	0	43	102	1048576	14	4478
2026-01-06 08:35:46.92	7.61	17.17	-27.1	-28.9	15.2	7.00e-07	0	43	102	1048576	14	4410
2026-01-06 08:35:47.92	7.43	17.10	-27.2	-28.9	15.2	0.00e+00	0	43	102	1048576	14	4418
2026-01-06 08:35:48.93	7.26	17.02	-27.2	-29.0	15.1	0.00e+00	0	43	102	1048576	14	4453
2026-01-06 08:35:49.94	7.08	16.95	-27.3	-29.2	15.0	0.00e+00	0	43	102	1048576	14	4488
2026-01-06 08:35:50.94	6.90	16.88	-27.4	-29.5	14.9	7.00e-07	0	43	102	1048576	14	4579
2026-01-06 08:35:51.94	6.73	16.81	-27.3	-29.2	15.0	0.00e+00	0	43	102	1048576	14	4494
2026-01-06 08:35:52.95	6.56	16.73	-27.2	-29.0	15.1	0.00e+00	0	43	102	1048576	14	4455
2026-01-06 08:35:53.95	6.39	16.66	-27.1	-28.9	15.2	0.00e+00	0	43	102	1048576	14	4423
2026-01-06 08:35:54.96	6.22	16.58	-27.2	-29.1	15.1	0.00e+00	0	43	102	1048576	14	4461
2026-01-06 08:35:55.97	6.04	16.51	-27.2	-29.0	15.1	0.00e+00	0	43	102	1048576	14	4438
2026-01-06 08:35:56.97	5.88	16.44	-27.3	-29.3	15.0	0.00e+00	0	43	102	1048576	14	4527
2026-01-06 08:35:57.98	5.71	16.36	-27.2	-29.1	15.1	7.00e-07	0	43	102	1048576	14	4457
2026-01-06 08:35:58.98	5.54	16.29	-27.2	-29.0	15.1	0.00e+00	0	43	102	1048576	14	4447
2026-01-06 08:35:59.99	5.37	16.22	-27.2	-29.1	15.1	0.00e+00	0	43	102	1048576	14	4469
2026-01-06 08:36:00.99	5.21	16.14	-27.2	-29.1	15.1	0.00e+00	0	43	102	1048576	14	4459
2026-01-06 08:36:02.00	5.04	16.07	-27.3	-29.2	15.0	7.00e-07	0	43	102	1048576	14	4519
2026-01-06 08:36:03.01	4.87	15.99	-27.2	-29.1	15.0	0.00e+00	0	43	102	1048576	14	4485
2026-01-06 08:36:04.01	4.71	15.92	-27.3	-29.2	15.0	1.50e-06	0	43	102	1048576	14	4512
2026-01-06 08:36:05.01	4.55	15.85	-27.2	-29.2	15.0	0.00e+00	0	43	102	1048576	14	4495
2026-01-06 08:36:06.02	4.39	15.77	-27.3	-29.4	14.8	0.00e+00	0	43	102	1048576	14	4562
2026-01-06 08:36:07.02	4.23	15.70	-27.3	-29.3	14.9	0.00e+00	0	43	102	1048576	14	4523
2026-01-06 08:36:08.03	4.07	15.63	-27.3	-29.3	14.9	7.00e-07	0	43	102	1048576	14	4534
2026-01-06 08:36:09.03	3.91	15.55	-27.3	-29.2	14.9	0.00e+00	0	43	102	1048576	14	4515
2026-01-06 08:36:10.04	3.75	15.48	-27.3	-29.3	14.9	0.00e+00	0	43	102	1048576	14	4535
2026-01-06 08:36:11.05	3.59	15.40	-27.5	-29.3	14.6	0.00e+00	0	43	102	1048576	15	4421
2026-01-06 08:36:12.05	3.43	15.33	-27.4	-29.0	14.8	0.00e+00	0	43	102	1048576	15	4324
2026-01-06 08:36:13.06	3.27	15.26	-27.4	-29.0	14.7	0.00e+00	0	43	102	1048576	15	4338
2026-01-06 08:36:14.06	3.12	15.18	-27.4	-29.1	14.7	0.00e+00	0	43	102	1048576	15	4373
2026-01-06 08:36:15.07	2.96	15.11	-27.4	-29.1	14.7	1.50e-06	0	43	102	1048576	15	4365
2026-01-06 08:36:16.08	2.81	15.03	-27.5	-29.2	14.6	0.00e+00	0	43	102	1048576	15	4397
2026-01-06 08:36:17.09	2.66	14.96	-27.4	-29.1	14.7	2.20e-06	0	43	102	1048576	15	4374
2026-01-06 08:36:18.10	2.50	14.89	-27.4	-29.2	14.6	7.00e-07	0	43	102	1048576	15	4382
2026-01-06 08:36:19.10	2.35	14.81	-27.3	-28.8	14.8	0.00e+00	0	43	102	1048576	15	4291
2026-01-06 08:36:20.11	2.20	14.74	-27.2	-28.6	14.9	0.00e+00	0	43	102	1048576	15	4232
2026-01-06 08:36:21.12	2.05	14.66	-27.3	-28.8	14.9	0.00e+00	0	43	102	1048576	15	4268
2026-01-06 08:36:22.12	1.90	14.59	-27.3	-28.8	14.8	7.00e-07	0	43	102	1048576	15	4273
2026-01-06 08:36:23.13	1.75	14.52	-27.4	-29.1	14.7	7.00e-07	0	43	102	1048576	15	4371
2026-01-06 08:36:24.13	1.60	14.44	-27.4	-29.0	14.7	0.00e+00	0	43	102	1048576	15	4340
2026-01-06 08:36:25.14	1.46	14.37	-27.5	-29.3	14.5	7.00e-07	0	43	102	1048576	15	4431
2026-01-06 08:36:26.15	1.31	14.30	-27.5	-29.3	14.6	7.00e-07	0	43	102	1048576	15	4412
2026-01-06 08:36:27.16	1.16	14.22	-27.7	-29.7	14.3	1.50e-06	0	43	102	1048576	15	4555
2026-01-06 08:36:28.17	1.02	14.15	-27.7	-29.7	14.3	1.50e-06	0	43	102	1048576	15	4546
2026-01-06 08:36:29.18	0.87	14.07	-27.8	-30.0	14.1	3.00e-06	0	43	102	1048576	15	4638
2026-01-06 08:36:30.18	0.73	14.00	-27.9	-30.1	14.0	0.00e+00	0	43	102	1048576	15	4686
2026-01-06 08:36:31.19	0.59	13.93	-27.9	-30.3	13.9	1.50e-06	0	43	102	1048576	15	4735
2026-01-06 08:36:32.20	0.44	13.85	-27.9	-30.2	13.9	5.30e-06	0	43	102	1048576	15	4714
2026-01-06 08:36:33.21	0.30	13.78	-28.0	-30.4	13.8	5.30e-06	0	43	102	1048576	15	4773
2026-01-06 08:36:34.21	0.16	13.71	-28.2	-30.5	13.7	3.80e-06	0	43	102	1048576	16	4657
2026-01-06 08:36:35.22	0.02	13.63	-28.2	-30.3	13.7	8.30e-06	0	43	102	1048576	16	4618
2026-01-06 08:36:36.23	359.88	13.56	-28.0	-29.9	14.0	1.50e-06	0	43	102	1048576	16	4473
2026-01-06 08:36:37.23	359.74	13.49	-27.9	-29.7	14.1	0.00e+00	0	43	102	1048576	16	4438
2026-01-06 08:36:38.24	359.60	13.41	-27.9	-29.8	14.1	7.00e-07	0	43	102	1048576	16	4440
2026-01-06 08:36:39.23	359.47	13.34	-27.9	-29.6	14.2	7.00e-07	0	43	102	1048576	16	4406
2026-01-06 08:36:40.24	359.33	13.27	-28.0	-30.0	14.0	1.50e-06	0	43	102	1048576	16	4504
2026-01-06 08:36:41.24	359.20	13.20	-28.2	-30.4	13.7	5.30e-06	0	43	102	1048576	16	4630
2026-01-06 08:36:42.25	359.06	13.12	-28.1	-30.2	13.8	3.80e-06	0	43	102	1048576	16	4563
2026-01-06 08:36:43.26	358.93	13.05	-28.2	-30.3	13.8	4.50e-06	0	43	102	1048576	16	4612
2026-01-06 08:36:44.26	358.79	12.98	-28.3	-30.6	13.5	7.60e-06	0	43	102	1048576	16	4714
2026-01-06 08:36:45.27	358.66	12.90	-28.3	-30.7	13.5	1.06e-05	0	43	102	1048576	16	4727
2026-01-06 08:36:46.27	358.53	12.83	-28.3	-30.7	13.5	1.06e-05	0	43	102	1048576	16	4746
2026-01-06 08:36:47.28	358.40	12.76	-28.3	-30.7	13.5	9.90e-06	0	44	102	1048576	16	4754
2026-01-06 08:36:48.29	358.26	12.69	-28.4	-30.9	13.4	1.52e-05	0	43	102	1048576	16	4794
2026-01-06 08:36:49.30	358.13	12.61	-28.2	-30.3	13.7	9.10e-06	0	43	102	1048576	16	4612
2026-01-06 08:36:50.30	358.00	12.54	-28.1	-30.1	13.8	5.30e-06	0	43	102	1048576	16	4562
2026-01-06 08:36:51.31	357.87	12.47	-28.0	-29.9	14.0	3.80e-06	0	43	102	1048576	16	4482
2026-01-06 08:36:52.32	357.75	12.40	-28.0	-30.0	13.9	5.30e-06	0	43	102	1048576	16	4520
2026-01-06 08:36:53.33	357.62	12.32	-27.9	-29.7	14.1	6.10e-06	0	43	102	1048576	16	4420
2026-01-06 08:36:54.33	357.49	12.25	-27.9	-29.6	14.1	0.00e+00	0	43	102	1048576	16	4412
2026-01-06 08:36:55.33	357.36	12.18	-27.8	-29.5	14.2	7.00e-07	0	43	102	1048576	16	4382
2026-01-06 08:36:56.33	357.24	12.11	-27.8	-29.6	14.1	3.80e-06	0	43	102	1048576	16	4394
2026-01-06 08:36:57.34	357.11	12.04	-27.9	-29.6	14.1	7.00e-07	0	43	102	1048576	16	4414
2026-01-06 08:36:58.35	356.99	11.97	-27.9	-29.8	14.0	2.20e-06	0	43	102	1048576	16	4446
2026-01-06 08:36:59.35	356.87	11.89	-28.0	-30.0	13.8	7.00e-07	0	43	102	1048576	16	4528
2026-01-06 08:37:00.36	356.74	11.82	-28.1	-30.2	13.7	3.80e-06	0	43	102	1048576	16	4598
2026-01-06 08:37:01.36	356.62	11.75	-28.1	-30.2	13.7	6.80e-06	0	43	102	1048576	16	4567
2026-01-06 08:37:02.37	356.50	11.68	-28.2	-30.3	13.6	5.30e-06	0	43	102	1048576	16	4630
2026-01-06 08:37:03.38	356.37	11.61	-28.2	-30.5	13.5	9.90e-06	0	43	102	1048576	16	4682
2026-01-06 08:37:04.39	356.25	11.54	-28.1	-30.2	13.7	3.80e-06	0	43	102	1048576	16	4601
2026-01-06 08:37:05.40	356.13	11.46	-28.1	-30.1	13.7	4.50e-06	0	43	102	1048576	16	4570
2026-01-06 08:37:06.41	356.01	11.39	-28.0	-30.0	13.8	6.80e-06	0	43	102	1048576	16	4535
2026-01-06 08:37:07.41	355.89	11.32	-28.1	-30.2	13.7	2.20e-06	0	43	102	1048576	16	4578
2026-01-06 08:37:08.42	355.77	11.25	-28.1	-30.3	13.6	6.10e-06	0	43	102	1048576	16	4603
2026-01-06 08:37:09.42	355.66	11.18	-28.1	-30.1	13.7	9.90e-06	0	43	102	1048576	16	4551
2026-01-06 08:37:10.43	355.54	11.11	-27.8	-29.4	14.1	1.50e-06	0	43	102	1048576	16	4359
2026-01-06 08:37:11.44	355.42	11.04	-27.6	-29.0	14.3	7.00e-07	0	43	102	1048576	16	4238
2026-01-06 08:37:12.45	355.31	10.97	-27.5	-28.7	14.5	7.00e-07	0	43	102	1048576	16	4156
2026-01-06 08:37:13.46	355.19	10.90	-27.5	-28.7	14.6	0.00e+00	0	43	102	1048576	16	4142
2026-01-06 08:37:14.46	355.08	10.83	-27.6	-28.9	14.4	1.50e-06	0	43	102	1048576	16	4218
2026-01-06 08:37:15.47	354.96	10.76	-27.7	-29.2	14.2	7.00e-07	0	43	102	1048576	16	4293
2026-01-06 08:37:16.48	354.85	10.69	-27.8	-29.4	14.1	7.00e-07	0	43	102	1048576	16	4343
2026-01-06 08:37:17.49	354.73	10.61	-27.9	-29.8	13.9	5.30e-06	0	43	102	1048576	16	4463
2026-01-06 08:37:18.49	354.62	10.55	-28.0	-30.0	13.8	4.50e-06	0	43	102	1048576	16	4514
2026-01-06 08:37:19.50	354.51	10.47	-28.1	-30.3	13.5	1.14e-05	0	43	102	1048576	16	4636
2026-01-06 08:37:20.51	354.40	10.40	-28.2	-30.5	13.4	1.14e-05	0	43	102	1048576	16	4700
2026-01-06 08:37:21.51	354.28	10.34	-28.3	-30.8	13.2	1.29e-05	0	43	102	1048576	16	4800
2026-01-06 08:37:22.51	354.17	10.27	-28.4	-31.1	13.1	3.28e-05	0	43	102	1048576	16	4881
2026-01-06 08:37:23.52	354.06	10.20	-28.6	-30.9	12.9	4.73e-05	0	43	102	1048576	17	4701
2026-01-06 08:37:24.53	353.95	10.13	-28.5	-30.8	12.9	4.80e-05	0	43	102	1048576	17	4691
2026-01-06 08:37:25.54	353.84	10.06	-28.6	-31.0	12.8	6.25e-05	0	43	102	1048576	17	4736
2026-01-06 08:37:26.54	353.74	9.99	-28.6	-31.1	12.8	7.47e-05	0	43	102	1048576	17	4762
2026-01-06 08:37:27.54	353.63	9.92	-28.7	-31.3	12.5	8.77e-05	0	43	102	1048576	17	4849
2026-01-06 08:37:28.55	353.52	9.85	-28.7	-31.2	12.6	1.21e-04	0	43	102	1048576	17	4829
2026-01-06 08:37:29.55	353.42	9.78	-28.5	-30.7	12.9	4.73e-05	0	43	102	1048576	17	4631
2026-01-06 08:37:30.56	353.31	9.71	-28.3	-30.3	13.2	2.82e-05	0	43	102	1048576	17	4515
2026-01-06 08:37:31.57	353.20	9.64	-28.3	-30.3	13.2	1.75e-05	0	43	102	1048576	17	4506
2026-01-06 08:37:32.57	353.10	9.57	-28.2	-30.1	13.3	1.90e-05	0	43	102	1048576	17	4447
2026-01-06 08:37:33.58	352.99	9.50	-28.3	-30.3	13.1	2.36e-05	0	43	102	1048576	17	4535
2026-01-06 08:37:34.58	352.89	9.44	-28.3	-30.3	13.2	2.82e-05	0	43	102	1048576	17	4506
2026-01-06 08:37:35.59	352.78	9.37	-28.1	-29.7	13.5	1.14e-05	0	43	102	1048576	17	4342
2026-01-06 08:37:36.59	352.68	9.30	-28.0	-29.6	13.6	1.22e-05	0	43	102	1048576	17	4312
2026-01-06 08:37:37.60	352.58	9.23	-28.1	-29.7	13.5	1.22e-05	0	43	102	1048576	17	4330
2026-01-06 08:37:38.61	352.48	9.16	-28.1	-29.8	13.4	9.10e-06	0	43	102	1048576	17	4366
2026-01-06 08:37:39.61	352.37	9.09	-28.3	-30.2	13.2	1.83e-05	0	43	102	1048576	17	4495
2026-01-06 08:37:40.62	352.27	9.03	-28.3	-30.3	13.1	3.73e-05	0	43	102	1048576	17	4521
2026-01-06 08:37:41.63	352.17	8.96	-28.3	-30.3	13.1	3.66e-05	0	43	102	1048576	17	4512
2026-01-06 08:37:42.64	352.07	8.89	-28.4	-30.5	13.0	3.73e-05	0	43	102	1048576	17	4586
2026-01-06 08:37:43.64	351.97	8.82	-28.5	-30.9	12.8	5.87e-05	0	43	102	1048576	17	4705
2026-01-06 08:37:44.64	351.87	8.75	-28.7	-31.3	12.5	7.47e-05	0	43	102	1048576	17	4851
2026-01-06 08:37:45.65	351.77	8.69	-28.7	-31.2	12.5	1.13e-04	0	43	102	1048576	17	4838
2026-01-06 08:37:46.65	351.68	8.62	-28.7	-31.3	12.5	1.28e-04	0	43	102	1048576	17	4866
2026-01-06 08:37:47.66	351.58	8.55	-28.7	-31.4	12.4	1.64e-04	0	43	102	1048576	17	4894
2026-01-06 08:37:48.67	351.48	8.48	-28.7	-31.2	12.5	1.33e-04	0	43	102	1048576	17	4830
2026-01-06 08:37:49.68	351.38	8.42	-28.8	-31.6	12.3	1.43e-04	0	43	102	1048576	17	4965
2026-01-06 08:37:50.69	351.29	8.35	-28.6	-31.2	12.5	1.43e-04	0	43	102	1048576	17	4819
2026-01-06 08:37:51.70	351.19	8.28	-28.7	-31.3	12.4	1.43e-04	0	43	102	1048576	17	4865
2026-01-06 08:37:52.70	351.09	8.22	-28.6	-31.1	12.5	1.26e-04	0	43	102	1048576	17	4780
2026-01-06 08:37:53.71	351.00	8.15	-28.5	-30.8	12.7	7.47e-05	0	43	102	1048576	17	4679
2026-01-06 08:37:54.72	350.90	8.08	-28.5	-30.8	12.7	6.71e-05	0	43	102	1048576	17	4686
2026-01-06 08:37:55.73	350.81	8.02	-28.4	-30.6	12.8	5.72e-05	0	44	102	1048576	17	4626
2026-01-06 08:37:56.72	350.72	7.95	-28.5	-30.8	12.7	7.09e-05	0	44	102	1048576	17	4705
2026-01-06 08:37:57.73	350.62	7.88	-28.5	-30.7	12.7	6.25e-05	0	44	102	1048576	17	4661
2026-01-06 08:37:58.74	350.53	7.82	-28.4	-30.6	12.8	7.55e-05	0	43	102	1048576	17	4643
2026-01-06 08:37:59.75	350.44	7.75	-28.5	-30.7	12.7	7.85e-05	0	43	102	1048576	17	4664
2026-01-06 08:38:00.76	350.34	7.68	-28.5	-30.8	12.6	7.47e-05	0	43	102	1048576	17	4709
2026-01-06 08:38:01.76	350.25	7.62	-28.5	-30.9	12.6	9.68e-05	0	43	102	1048576	17	4726
2026-01-06 08:38:02.77	350.16	7.55	-28.6	-31.2	12.4	1.19e-04	0	43	102	1048576	17	4819
2026-01-06 08:38:03.77	350.07	7.49	-28.6	-31.1	12.4	1.17e-04	0	43	102	1048576	17	4806
2026-01-06 08:38:04.76	349.98	7.42	-28.7	-31.2	12.4	1.66e-04	0	43	102	1048576	17	4846
2026-01-06 08:38:05.76	349.89	7.36	-28.7	-31.4	12.2	2.00e-04	0	43	102	1048576	17	4915
2026-01-06 08:38:06.77	349.80	7.29	-28.7	-31.4	12.2	2.53e-04	0	43	102	1048576	17	4902
2026-01-06 08:38:07.77	349.71	7.23	-28.8	-31.7	12.0	2.17e-04	0	43	102	1048576	17	5004
2026-01-06 08:38:08.78	349.63	7.16	-28.9	-31.9	11.9	3.62e-04	0	43	102	1048576	17	5094
2026-01-06 08:38:09.79	349.54	7.10	-28.9	-32.0	11.8	4.40e-04	0	43	102	1048576	17	5111
2026-01-06 08:38:10.80	349.45	7.03	-32.5	-42.0	3.9	1.49e+00	0	43	104	1048576	25	10757
2026-01-06 08:38:11.80	349.36	6.97	-33.1	-44.7	3.8	1.49e+00	0	44	104	1048576	26	13642
2026-01-06 08:38:12.80	349.28	6.90	-33.3	-45.5	3.8	1.49e+00	0	43	104	1048576	26	14660

#Closed at: 2026-01-06 08:38:12
#Recorded file [1 MB]: D:/data/31010_260106_112810.dat