passes_logs/2026/01/06/R2M6_AANII_01/R2M6_AANII_01__20260106_121852_SUOMI_NPP_rec.log

#Pass ID: 20260106_121852_SUOMI NPP
#Satellite: SUOMI NPP
#Configuration: NPP
#almurnet v.1.7.20240730
#Start time: 2026-01-06 12:18:53

#Version: 2.2.20231116
#Station: R2M6_AANII_01
#Location: 30.233357 lon 59.946436 lat
#TLE: 1 37849U 11061A   26004.95404768  .00000136  00000+0  85334-4 0  9991
#TLE: 2 37849  98.7801 307.0898 0002575  80.6707 279.4760 14.19522289735281

#Time	Az	El	Level	Level2	SNR	BER	BlckErr	Temp	State	Recorded	gain1	gain2
2026-01-06 12:18:53.29	224.77	7.06	-31.0	-34.4	5.2	1.19e+00	0	41	0	0	23	5336
2026-01-06 12:18:54.29	224.88	7.11	-31.4	-35.9	4.9	1.24e+00	0	41	104	0	23	6105
2026-01-06 12:18:55.30	224.99	7.17	-31.3	-35.6	7.7	1.00e-01	0	41	0	0	23	5914
2026-01-06 12:18:56.31	225.11	7.23	-31.4	-35.9	7.6	1.05e-01	0	41	102	1048576	23	6034
2026-01-06 12:18:57.31	225.22	7.28	-31.2	-35.2	8.2	7.31e-02	0	41	102	1048576	23	5669
2026-01-06 12:18:58.32	225.34	7.34	-31.1	-34.7	8.5	4.92e-02	0	41	102	1048576	23	5437
2026-01-06 12:18:59.34	225.45	7.40	-31.0	-34.2	8.9	3.44e-02	0	41	102	1048576	23	5197
2026-01-06 12:19:00.34	225.57	7.46	-30.9	-33.8	9.2	2.30e-02	0	41	102	1048576	23	5035
2026-01-06 12:19:01.35	225.68	7.51	-30.9	-33.6	9.4	1.80e-02	0	41	102	1048576	23	4946
2026-01-06 12:19:02.36	225.80	7.57	-30.9	-33.7	9.4	1.77e-02	0	41	102	1048576	23	4970
2026-01-06 12:19:03.36	225.92	7.63	-31.0	-34.2	9.0	2.00e-02	0	41	102	1048576	23	5168
2026-01-06 12:19:04.37	226.03	7.68	-31.1	-34.4	8.8	3.83e-02	0	41	102	1048576	23	5302
2026-01-06 12:19:05.37	226.15	7.74	-30.8	-33.5	9.6	2.25e-02	0	41	102	1048576	23	4874
2026-01-06 12:19:06.37	226.27	7.80	-30.7	-33.3	10.1	8.42e-03	0	41	102	1048576	22	4895
2026-01-06 12:19:07.38	226.39	7.86	-30.5	-32.7	10.5	4.88e-03	0	41	102	1048576	22	4660
2026-01-06 12:19:08.38	226.50	7.91	-30.4	-32.3	10.9	3.40e-03	0	41	102	1048576	22	4500
2026-01-06 12:19:09.38	226.62	7.97	-30.2	-32.4	11.1	1.99e-03	0	42	102	1048576	21	4628
2026-01-06 12:19:10.39	226.74	8.03	-30.3	-32.4	11.1	1.48e-03	0	41	102	1048576	21	4624
2026-01-06 12:19:11.40	226.86	8.09	-30.3	-32.7	10.9	1.88e-03	0	42	102	1048576	21	4735
2026-01-06 12:19:12.40	226.98	8.14	-30.2	-32.3	11.2	1.70e-03	0	42	102	1048576	21	4580
2026-01-06 12:19:13.41	227.11	8.20	-30.3	-32.6	11.0	1.83e-03	0	42	102	1048576	21	4683
2026-01-06 12:19:14.42	227.23	8.26	-30.3	-32.7	11.0	1.87e-03	0	42	102	1048576	21	4719
2026-01-06 12:19:15.41	227.35	8.31	-30.2	-32.2	11.3	1.09e-03	0	42	102	1048576	21	4559
2026-01-06 12:19:16.42	227.47	8.37	-30.1	-32.1	11.5	9.30e-04	0	42	102	1048576	21	4493
2026-01-06 12:19:17.43	227.59	8.43	-30.2	-32.3	11.3	9.67e-04	0	42	102	1048576	21	4571
2026-01-06 12:19:18.43	227.72	8.49	-30.2	-32.2	11.4	9.38e-04	0	42	102	1048576	21	4523
2026-01-06 12:19:19.43	227.84	8.54	-30.2	-32.2	11.3	1.19e-03	0	42	102	1048576	21	4561
2026-01-06 12:19:20.43	227.96	8.60	-30.1	-32.1	11.4	8.83e-04	0	42	102	1048576	21	4492
2026-01-06 12:19:21.43	228.09	8.66	-30.0	-31.8	11.7	5.85e-04	0	42	102	1048576	21	4383
2026-01-06 12:19:22.44	228.21	8.72	-30.1	-31.9	11.6	6.74e-04	0	42	102	1048576	21	4418
2026-01-06 12:19:23.44	228.34	8.77	-29.9	-31.4	11.9	4.65e-04	0	42	102	1048576	21	4280
2026-01-06 12:19:24.45	228.47	8.83	-30.0	-31.5	11.9	5.32e-04	0	42	102	1048576	21	4305
2026-01-06 12:19:25.45	228.59	8.89	-30.1	-31.9	11.6	6.35e-04	0	42	102	1048576	21	4427
2026-01-06 12:19:26.46	228.72	8.95	-30.0	-31.7	11.8	5.27e-04	0	42	102	1048576	21	4367
2026-01-06 12:19:27.47	228.85	9.00	-30.1	-32.0	11.5	7.41e-04	0	42	102	1048576	21	4452
2026-01-06 12:19:28.48	228.98	9.06	-30.1	-31.8	11.7	5.38e-04	0	42	102	1048576	21	4385
2026-01-06 12:19:29.49	229.11	9.12	-30.1	-31.8	11.7	5.65e-04	0	42	102	1048576	21	4379
2026-01-06 12:19:30.50	229.24	9.18	-30.1	-31.9	11.6	7.22e-04	0	42	102	1048576	21	4439
2026-01-06 12:19:31.51	229.37	9.24	-30.2	-32.1	11.5	8.64e-04	0	42	102	1048576	21	4490
2026-01-06 12:19:32.52	229.50	9.29	-30.1	-31.9	11.7	7.57e-04	0	42	102	1048576	21	4416
2026-01-06 12:19:33.51	229.62	9.35	-30.0	-31.6	11.9	5.47e-04	0	42	102	1048576	21	4330
2026-01-06 12:19:34.52	229.76	9.41	-30.1	-32.0	11.6	5.13e-04	0	42	102	1048576	21	4444
2026-01-06 12:19:35.53	229.89	9.47	-30.1	-31.9	11.6	8.26e-04	0	42	102	1048576	21	4420
2026-01-06 12:19:36.53	230.02	9.52	-29.9	-31.3	12.1	3.87e-04	0	42	102	1048576	21	4233
2026-01-06 12:19:37.53	230.15	9.58	-30.0	-31.5	11.9	3.08e-04	0	42	102	1048576	21	4298
2026-01-06 12:19:38.54	230.29	9.64	-30.0	-31.6	11.9	2.97e-04	0	42	102	1048576	21	4326
2026-01-06 12:19:39.54	230.42	9.70	-30.1	-31.9	11.7	4.98e-04	0	42	102	1048576	21	4402
2026-01-06 12:19:40.54	230.55	9.75	-30.1	-31.9	11.7	6.64e-04	0	42	102	1048576	21	4419
2026-01-06 12:19:41.54	230.69	9.81	-30.0	-31.5	12.0	4.46e-04	0	42	102	1048576	21	4283
2026-01-06 12:19:42.55	230.82	9.87	-29.9	-31.3	12.1	3.24e-04	0	42	102	1048576	21	4218
2026-01-06 12:19:43.56	230.96	9.93	-29.9	-31.2	12.1	2.89e-04	0	42	102	1048576	21	4182
2026-01-06 12:19:44.57	231.10	9.99	-30.0	-31.6	12.0	2.68e-04	0	42	102	1048576	21	4307
2026-01-06 12:19:45.58	231.23	10.04	-30.0	-31.4	12.0	3.05e-04	0	42	102	1048576	21	4262
2026-01-06 12:19:46.59	231.37	10.10	-30.0	-31.6	12.0	3.53e-04	0	42	102	1048576	21	4295
2026-01-06 12:19:47.59	231.51	10.16	-30.2	-32.0	11.7	5.52e-04	0	42	102	1048576	21	4465
2026-01-06 12:19:48.60	231.65	10.22	-30.1	-31.8	11.8	3.57e-04	0	42	102	1048576	21	4391
2026-01-06 12:19:49.61	231.79	10.28	-30.2	-32.1	11.6	6.04e-04	0	43	102	1048576	21	4495
2026-01-06 12:19:50.61	231.92	10.33	-30.1	-31.9	11.8	4.94e-04	0	42	102	1048576	21	4405
2026-01-06 12:19:51.61	232.06	10.39	-30.1	-32.0	11.7	4.50e-04	0	42	102	1048576	21	4441
2026-01-06 12:19:52.61	232.20	10.45	-30.1	-31.8	11.8	4.40e-04	0	42	102	1048576	21	4387
2026-01-06 12:19:53.62	232.35	10.51	-30.2	-32.2	11.6	6.35e-04	0	42	102	1048576	21	4501
2026-01-06 12:19:54.63	232.49	10.56	-30.2	-32.0	11.8	6.90e-04	0	42	102	1048576	21	4443
2026-01-06 12:19:55.63	232.63	10.62	-30.1	-31.6	12.0	3.65e-04	0	42	102	1048576	21	4314
2026-01-06 12:19:56.63	232.77	10.68	-30.0	-31.6	12.1	2.87e-04	0	43	102	1048576	21	4286
2026-01-06 12:19:57.64	232.91	10.74	-30.0	-31.5	12.1	2.62e-04	0	43	102	1048576	21	4256
2026-01-06 12:19:58.65	233.06	10.79	-30.0	-31.4	12.2	2.59e-04	0	43	102	1048576	21	4224
2026-01-06 12:19:59.65	233.20	10.85	-30.0	-31.4	12.2	2.26e-04	0	42	102	1048576	21	4230
2026-01-06 12:20:00.66	233.35	10.91	-30.1	-31.6	12.0	4.07e-04	0	43	102	1048576	21	4291
2026-01-06 12:20:01.66	233.49	10.96	-30.0	-31.4	12.2	2.47e-04	0	42	102	1048576	21	4248
2026-01-06 12:20:02.67	233.64	11.02	-29.9	-31.1	12.4	2.44e-04	0	43	102	1048576	21	4133
2026-01-06 12:20:03.68	233.79	11.08	-30.0	-31.3	12.2	2.10e-04	0	43	102	1048576	21	4209
2026-01-06 12:20:04.69	233.93	11.14	-29.9	-31.2	12.4	1.91e-04	0	43	102	1048576	21	4166
2026-01-06 12:20:05.70	234.08	11.20	-29.9	-31.1	12.4	1.90e-04	0	42	102	1048576	21	4140
2026-01-06 12:20:06.70	234.23	11.25	-29.9	-31.1	12.4	1.08e-04	0	43	102	1048576	21	4128
2026-01-06 12:20:07.71	234.38	11.31	-29.9	-31.6	12.4	9.23e-05	0	43	102	1048576	20	4378
2026-01-06 12:20:08.72	234.53	11.37	-29.8	-31.3	12.7	8.23e-05	0	43	102	1048576	20	4290
2026-01-06 12:20:09.73	234.68	11.42	-29.9	-31.7	12.4	1.03e-04	0	43	102	1048576	20	4399
2026-01-06 12:20:10.74	234.83	11.48	-29.9	-31.6	12.5	1.42e-04	0	43	102	1048576	20	4365
2026-01-06 12:20:11.75	234.98	11.54	-29.8	-31.2	12.7	7.62e-05	0	43	102	1048576	20	4258
2026-01-06 12:20:12.75	235.13	11.60	-29.7	-31.1	12.8	6.25e-05	0	43	102	1048576	20	4221
2026-01-06 12:20:13.76	235.29	11.65	-29.7	-31.1	12.8	4.65e-05	0	43	102	1048576	20	4211
2026-01-06 12:20:14.77	235.44	11.71	-29.7	-31.0	12.9	3.96e-05	0	43	102	1048576	20	4195
2026-01-06 12:20:15.78	235.59	11.77	-29.7	-31.0	12.9	5.56e-05	0	43	102	1048576	20	4179
2026-01-06 12:20:16.78	235.75	11.82	-29.8	-31.4	12.6	7.70e-05	0	43	102	1048576	20	4303
2026-01-06 12:20:17.79	235.90	11.88	-29.8	-31.4	12.6	9.91e-05	0	43	102	1048576	20	4316
2026-01-06 12:20:18.79	236.05	11.94	-29.9	-31.6	12.5	7.32e-05	0	43	102	1048576	20	4379
2026-01-06 12:20:19.80	236.21	11.99	-29.9	-31.5	12.5	1.20e-04	0	43	102	1048576	20	4357
2026-01-06 12:20:20.81	236.37	12.05	-29.9	-31.5	12.4	1.12e-04	0	43	102	1048576	20	4358
2026-01-06 12:20:21.81	236.52	12.11	-29.9	-31.5	12.5	1.09e-04	0	43	102	1048576	20	4347
2026-01-06 12:20:22.82	236.68	12.16	-29.9	-31.7	12.4	1.69e-04	0	43	102	1048576	20	4409
2026-01-06 12:20:23.82	236.84	12.22	-30.0	-31.8	12.4	1.91e-04	0	43	102	1048576	20	4439
2026-01-06 12:20:24.82	237.00	12.28	-30.0	-31.7	12.4	1.23e-04	0	43	102	1048576	20	4423
2026-01-06 12:20:25.83	237.16	12.33	-30.0	-31.9	12.4	1.52e-04	0	43	102	1048576	20	4467
2026-01-06 12:20:26.84	237.32	12.39	-29.9	-31.5	12.5	1.14e-04	0	43	102	1048576	20	4348
2026-01-06 12:20:27.85	237.48	12.45	-29.8	-31.3	12.7	6.71e-05	0	43	102	1048576	20	4274
2026-01-06 12:20:28.85	237.64	12.50	-29.9	-31.4	12.7	6.25e-05	0	43	102	1048576	20	4315
2026-01-06 12:20:29.86	237.80	12.56	-29.8	-31.4	12.7	6.48e-05	0	43	102	1048576	20	4292
2026-01-06 12:20:30.87	237.96	12.61	-30.0	-31.7	12.4	7.01e-05	0	43	102	1048576	20	4406
2026-01-06 12:20:31.88	238.13	12.67	-29.8	-31.4	12.7	9.76e-05	0	43	102	1048576	20	4304
2026-01-06 12:20:32.88	238.29	12.73	-29.9	-31.6	12.5	1.29e-04	0	43	102	1048576	20	4367
2026-01-06 12:20:33.89	238.45	12.78	-29.9	-31.5	12.6	9.99e-05	0	43	102	1048576	20	4328
2026-01-06 12:20:34.90	238.62	12.84	-30.0	-32.0	12.3	1.41e-04	0	43	102	1048576	20	4489
2026-01-06 12:20:35.90	238.78	12.89	-29.8	-31.4	12.7	1.15e-04	0	43	102	1048576	20	4291
2026-01-06 12:20:36.91	238.95	12.95	-29.8	-31.3	12.8	7.32e-05	0	43	102	1048576	20	4277
2026-01-06 12:20:37.91	239.11	13.00	-29.6	-30.8	13.1	6.02e-05	0	43	102	1048576	20	4130
2026-01-06 12:20:38.92	239.28	13.06	-29.7	-31.0	13.0	4.42e-05	0	43	102	1048576	20	4179
2026-01-06 12:20:39.94	239.45	13.11	-29.6	-30.6	13.2	3.50e-05	0	43	102	1048576	20	4054
2026-01-06 12:20:40.94	239.62	13.17	-29.4	-30.3	13.4	1.37e-05	0	43	102	1048576	20	3961
2026-01-06 12:20:41.95	239.79	13.22	-29.4	-30.2	13.5	1.44e-05	0	43	102	1048576	20	3946
2026-01-06 12:20:42.96	239.96	13.28	-29.6	-30.6	13.2	1.83e-05	0	43	102	1048576	20	4053
2026-01-06 12:20:43.96	240.13	13.33	-29.7	-30.9	13.0	2.05e-05	0	43	102	1048576	20	4139
2026-01-06 12:20:44.97	240.30	13.39	-29.7	-30.9	13.0	4.73e-05	0	43	102	1048576	20	4158
2026-01-06 12:20:45.98	240.47	13.44	-29.8	-31.3	12.8	5.49e-05	0	43	102	1048576	20	4275
2026-01-06 12:20:46.98	240.64	13.50	-29.9	-31.6	12.6	5.26e-05	0	43	102	1048576	20	4376
2026-01-06 12:20:47.99	240.81	13.55	-29.8	-31.2	12.9	5.18e-05	0	43	102	1048576	20	4222
2026-01-06 12:20:48.99	240.99	13.61	-29.9	-31.6	12.6	5.34e-05	0	43	102	1048576	20	4350
2026-01-06 12:20:50.00	241.16	13.66	-29.8	-31.1	12.9	4.11e-05	0	43	102	1048576	20	4211
2026-01-06 12:20:51.01	241.33	13.71	-29.7	-31.1	12.9	4.27e-05	0	43	102	1048576	20	4193
2026-01-06 12:20:52.01	241.51	13.77	-29.8	-31.3	12.8	4.04e-05	0	43	102	1048576	20	4266
2026-01-06 12:20:53.02	241.68	13.82	-29.9	-31.6	12.6	5.64e-05	0	43	102	1048576	20	4349
2026-01-06 12:20:54.03	241.86	13.88	-29.7	-30.9	13.1	4.34e-05	0	43	102	1048576	20	4136
2026-01-06 12:20:55.03	242.04	13.93	-29.6	-30.6	13.3	2.21e-05	0	43	102	1048576	20	4047
2026-01-06 12:20:56.04	242.22	13.98	-29.6	-30.6	13.4	9.10e-06	0	43	102	1048576	20	4034
2026-01-06 12:20:57.05	242.39	14.04	-29.6	-30.5	13.4	5.30e-06	0	43	102	1048576	20	4031
2026-01-06 12:20:58.05	242.57	14.09	-29.6	-30.7	13.3	2.13e-05	0	43	102	1048576	20	4070
2026-01-06 12:20:59.06	242.75	14.14	-29.6	-30.5	13.4	1.37e-05	0	43	102	1048576	20	4019
2026-01-06 12:21:00.06	242.93	14.19	-29.5	-30.4	13.4	1.52e-05	0	43	102	1048576	20	3991
2026-01-06 12:21:01.06	243.11	14.25	-29.7	-30.8	13.2	2.67e-05	0	43	102	1048576	20	4119
2026-01-06 12:21:02.07	243.29	14.30	-29.6	-30.8	13.2	2.05e-05	0	43	102	1048576	20	4094
2026-01-06 12:21:03.07	243.47	14.35	-29.7	-31.0	13.2	3.12e-05	0	43	102	1048576	20	4162
2026-01-06 12:21:04.08	243.65	14.40	-29.6	-30.7	13.2	2.05e-05	0	43	102	1048576	20	4090
2026-01-06 12:21:05.09	243.84	14.45	-29.8	-31.3	12.9	2.51e-05	0	43	102	1048576	20	4244
2026-01-06 12:21:06.10	244.02	14.51	-29.9	-31.6	12.7	6.86e-05	0	43	102	1048576	20	4363
2026-01-06 12:21:07.11	244.21	14.56	-29.8	-31.2	12.9	7.17e-05	0	43	102	1048576	20	4220
2026-01-06 12:21:08.11	244.39	14.61	-29.9	-31.4	12.8	6.63e-05	0	43	102	1048576	20	4304
2026-01-06 12:21:09.12	244.58	14.66	-29.9	-31.5	12.7	8.31e-05	0	43	102	1048576	20	4336
2026-01-06 12:21:10.13	244.76	14.71	-29.7	-30.9	13.1	4.34e-05	0	43	102	1048576	20	4132
2026-01-06 12:21:11.14	244.95	14.76	-29.6	-30.6	13.3	1.75e-05	0	43	102	1048576	20	4041
2026-01-06 12:21:12.14	245.14	14.81	-29.6	-30.8	13.2	9.90e-06	0	43	102	1048576	20	4099
2026-01-06 12:21:13.15	245.33	14.86	-29.7	-30.9	13.2	2.51e-05	0	43	102	1048576	20	4131
2026-01-06 12:21:14.16	245.52	14.92	-29.7	-30.8	13.2	3.35e-05	0	43	102	1048576	20	4107
2026-01-06 12:21:15.16	245.70	14.97	-29.9	-31.3	12.9	2.21e-05	0	43	102	1048576	20	4267
2026-01-06 12:21:16.16	245.89	15.02	-30.0	-31.7	12.6	6.56e-05	0	43	102	1048576	20	4401
2026-01-06 12:21:17.17	246.08	15.07	-30.0	-31.8	12.6	7.01e-05	0	43	102	1048576	20	4409
2026-01-06 12:21:18.18	246.27	15.12	-30.2	-32.3	12.3	1.36e-04	0	43	102	1048576	20	4576
2026-01-06 12:21:19.18	246.46	15.16	-30.0	-31.6	12.7	7.55e-05	0	43	102	1048576	20	4367
2026-01-06 12:21:20.19	246.66	15.21	-29.9	-31.5	12.9	5.41e-05	0	43	102	1048576	20	4297
2026-01-06 12:21:21.19	246.85	15.26	-30.0	-31.7	12.7	6.94e-05	0	43	102	1048576	20	4377
2026-01-06 12:21:22.20	247.04	15.31	-30.0	-31.7	12.6	5.56e-05	0	43	102	1048576	20	4380
2026-01-06 12:21:23.21	247.24	15.36	-30.0	-31.7	12.6	8.69e-05	0	43	102	1048576	20	4383
2026-01-06 12:21:24.21	247.43	15.41	-30.1	-31.9	12.6	1.14e-04	0	43	102	1048576	20	4444
2026-01-06 12:21:25.22	247.63	15.46	-30.2	-32.3	12.3	1.59e-04	0	43	102	1048576	20	4591
2026-01-06 12:21:26.22	247.82	15.50	-30.2	-32.4	12.3	2.10e-04	0	43	102	1048576	20	4596
2026-01-06 12:21:27.23	248.02	15.55	-30.3	-32.5	12.2	2.63e-04	0	43	102	1048576	20	4639
2026-01-06 12:21:28.24	248.22	15.60	-30.2	-32.1	12.4	2.01e-04	0	43	102	1048576	20	4516
2026-01-06 12:21:29.24	248.41	15.65	-30.3	-32.4	12.2	1.84e-04	0	43	102	1048576	20	4618
2026-01-06 12:21:30.25	248.61	15.69	-30.1	-32.0	12.5	1.36e-04	0	43	102	1048576	20	4478
2026-01-06 12:21:31.26	248.81	15.74	-30.2	-32.2	12.4	1.27e-04	0	43	102	1048576	20	4532
2026-01-06 12:21:32.27	249.01	15.79	-30.2	-32.4	12.3	1.76e-04	0	43	102	1048576	20	4605
2026-01-06 12:21:33.27	249.21	15.83	-30.1	-32.1	12.5	1.14e-04	0	43	102	1048576	20	4492
2026-01-06 12:21:34.28	249.41	15.88	-30.1	-32.1	12.5	1.09e-04	0	43	102	1048576	20	4502
2026-01-06 12:21:35.28	249.61	15.93	-30.1	-31.9	12.6	1.24e-04	0	43	102	1048576	20	4449
2026-01-06 12:21:36.29	249.82	15.97	-30.0	-31.8	12.7	1.13e-04	0	43	102	1048576	20	4394
2026-01-06 12:21:37.29	250.02	16.02	-30.1	-32.0	12.6	1.20e-04	0	43	102	1048576	20	4477
2026-01-06 12:21:38.30	250.22	16.06	-30.1	-32.1	12.5	1.33e-04	0	43	102	1048576	20	4509
2026-01-06 12:21:39.31	250.43	16.11	-30.2	-32.3	12.4	1.05e-04	0	43	102	1048576	20	4563
2026-01-06 12:21:40.31	250.63	16.15	-30.4	-32.7	12.1	1.64e-04	0	43	102	1048576	20	4726
2026-01-06 12:21:41.31	250.83	16.20	-30.4	-32.8	12.0	2.80e-04	0	43	102	1048576	20	4731
2026-01-06 12:21:42.32	251.04	16.24	-30.4	-32.8	12.0	3.21e-04	0	43	102	1048576	20	4734
2026-01-06 12:21:43.32	251.24	16.28	-30.3	-32.5	12.3	1.91e-04	0	43	102	1048576	20	4625
2026-01-06 12:21:44.33	251.45	16.33	-30.3	-32.6	12.2	2.14e-04	0	43	102	1048576	20	4665
2026-01-06 12:21:45.34	251.66	16.37	-30.3	-32.6	12.1	1.95e-04	0	43	102	1048576	20	4696
2026-01-06 12:21:46.34	251.87	16.41	-30.4	-32.9	11.9	3.39e-04	0	43	102	1048576	20	4799
2026-01-06 12:21:47.34	252.07	16.46	-30.2	-32.3	12.4	1.69e-04	0	43	102	1048576	20	4574
2026-01-06 12:21:48.34	252.28	16.50	-30.4	-32.8	12.0	1.65e-04	0	43	102	1048576	20	4764
2026-01-06 12:21:49.34	252.49	16.54	-30.5	-32.7	11.7	3.49e-04	0	43	102	1048576	21	4640
2026-01-06 12:21:50.35	252.70	16.58	-30.5	-32.8	11.7	5.13e-04	0	43	102	1048576	21	4643
2026-01-06 12:21:51.37	252.91	16.63	-30.6	-33.0	11.5	7.67e-04	0	43	102	1048576	21	4747
2026-01-06 12:21:52.37	253.12	16.67	-30.5	-32.7	11.7	7.10e-04	0	43	102	1048576	21	4633
2026-01-06 12:21:53.37	253.33	16.71	-30.6	-32.9	11.6	6.12e-04	0	43	102	1048576	21	4711
2026-01-06 12:21:54.38	253.55	16.75	-30.5	-32.5	11.9	5.60e-04	0	43	102	1048576	21	4533
2026-01-06 12:21:55.38	253.76	16.79	-30.2	-31.8	12.4	2.62e-04	0	43	102	1048576	21	4314
2026-01-06 12:21:56.39	253.97	16.83	-30.2	-31.6	12.5	1.06e-04	0	43	102	1048576	21	4244
2026-01-06 12:21:57.39	254.19	16.87	-30.2	-31.7	12.5	1.49e-04	0	43	102	1048576	21	4297
2026-01-06 12:21:58.40	254.40	16.91	-30.2	-31.6	12.5	1.59e-04	0	43	102	1048576	21	4255
2026-01-06 12:21:59.41	254.62	16.95	-30.2	-31.7	12.4	1.50e-04	0	43	102	1048576	21	4278
2026-01-06 12:22:00.41	254.83	16.99	-30.2	-31.8	12.4	1.75e-04	0	43	102	1048576	21	4311
2026-01-06 12:22:01.41	255.05	17.02	-30.1	-31.5	12.6	1.28e-04	0	43	102	1048576	21	4219
2026-01-06 12:22:02.42	255.26	17.06	-30.2	-31.7	12.5	1.01e-04	0	43	102	1048576	21	4266
2026-01-06 12:22:03.43	255.48	17.10	-30.1	-31.4	12.7	8.85e-05	0	43	102	1048576	21	4193
2026-01-06 12:22:04.43	255.70	17.14	-29.9	-31.0	12.9	6.71e-05	0	43	102	1048576	21	4053
2026-01-06 12:22:05.43	255.92	17.17	-30.0	-31.0	12.9	4.88e-05	0	43	102	1048576	21	4065
2026-01-06 12:22:06.44	256.13	17.21	-30.1	-31.4	12.7	9.53e-05	0	43	102	1048576	21	4195
2026-01-06 12:22:07.45	256.35	17.25	-30.2	-31.7	12.5	8.92e-05	0	43	102	1048576	21	4267
2026-01-06 12:22:08.46	256.58	17.28	-30.4	-32.3	12.1	1.62e-04	0	43	102	1048576	21	4460
2026-01-06 12:22:09.46	256.79	17.32	-30.3	-32.0	12.3	1.40e-04	0	43	102	1048576	21	4371
2026-01-06 12:22:10.47	257.02	17.35	-30.1	-31.3	12.8	9.00e-05	0	43	102	1048576	21	4161
2026-01-06 12:22:11.48	257.24	17.39	-30.1	-31.3	12.8	7.01e-05	0	43	102	1048576	21	4155
2026-01-06 12:22:12.49	257.46	17.42	-30.0	-31.0	12.9	5.34e-05	0	43	102	1048576	21	4063
2026-01-06 12:22:13.49	257.68	17.46	-30.2	-31.6	12.5	7.55e-05	0	43	102	1048576	21	4245
2026-01-06 12:22:14.50	257.91	17.49	-30.1	-31.5	12.6	1.28e-04	0	43	102	1048576	21	4223
2026-01-06 12:22:15.50	258.13	17.53	-30.1	-31.5	12.6	7.09e-05	0	43	102	1048576	21	4218
2026-01-06 12:22:16.51	258.35	17.56	-30.2	-31.8	12.4	1.14e-04	0	43	102	1048576	21	4310
2026-01-06 12:22:17.52	258.58	17.59	-30.4	-32.4	12.1	1.88e-04	0	43	102	1048576	21	4505
2026-01-06 12:22:18.52	258.80	17.62	-30.5	-32.6	11.9	3.35e-04	0	43	102	1048576	21	4587
2026-01-06 12:22:19.52	259.02	17.66	-30.4	-32.2	12.1	4.61e-04	0	43	102	1048576	21	4442
2026-01-06 12:22:20.53	259.25	17.69	-30.4	-32.4	12.0	3.12e-04	0	43	102	1048576	21	4498
2026-01-06 12:22:21.54	259.48	17.72	-30.6	-32.8	11.7	2.91e-04	0	43	102	1048576	21	4666
2026-01-06 12:22:22.54	259.70	17.75	-30.7	-33.3	11.4	6.07e-04	0	43	102	1048576	21	4835
2026-01-06 12:22:23.55	259.93	17.78	-30.7	-33.1	11.6	1.04e-03	0	43	102	1048576	21	4783
2026-01-06 12:22:24.56	260.16	17.81	-30.4	-32.2	12.2	5.60e-04	0	43	102	1048576	21	4457
2026-01-06 12:22:25.57	260.39	17.84	-30.2	-31.6	12.6	1.33e-04	0	43	102	1048576	21	4243
2026-01-06 12:22:26.57	260.61	17.87	-29.9	-30.9	13.1	6.02e-05	0	43	102	1048576	21	4014
2026-01-06 12:22:27.58	260.84	17.90	-29.8	-31.0	13.3	9.10e-06	0	43	102	1048576	20	4135
2026-01-06 12:22:28.59	261.07	17.93	-29.5	-30.3	13.7	1.29e-05	0	43	102	1048576	20	3938
2026-01-06 12:22:29.60	261.30	17.96	-29.6	-30.7	13.5	3.00e-06	0	43	102	1048576	20	4044
2026-01-06 12:22:30.60	261.53	17.98	-29.7	-30.7	13.5	1.67e-05	0	43	102	1048576	20	4063
2026-01-06 12:22:31.61	261.76	18.01	-29.9	-31.3	13.1	9.10e-06	0	43	102	1048576	20	4228
2026-01-06 12:22:32.61	261.99	18.04	-30.0	-31.6	12.9	5.64e-05	0	43	102	1048576	20	4337
2026-01-06 12:22:33.61	262.22	18.06	-30.3	-32.4	12.4	8.46e-05	0	44	102	1048576	20	4589
2026-01-06 12:22:34.62	262.46	18.09	-30.1	-32.0	12.7	1.61e-04	0	43	102	1048576	20	4457
2026-01-06 12:22:35.63	262.69	18.12	-29.9	-31.4	13.0	3.35e-05	0	43	102	1048576	20	4269
2026-01-06 12:22:36.63	262.92	18.14	-29.6	-30.4	13.7	1.22e-05	0	43	102	1048576	20	3981
2026-01-06 12:22:37.63	263.15	18.16	-29.4	-29.9	14.0	7.60e-06	0	43	102	1048576	20	3829
2026-01-06 12:22:38.64	263.38	18.19	-29.4	-30.0	14.0	4.50e-06	0	43	102	1048576	20	3847
2026-01-06 12:22:39.65	263.62	18.21	-29.4	-30.0	13.9	4.50e-06	0	43	102	1048576	20	3864
2026-01-06 12:22:40.66	263.85	18.24	-29.3	-29.7	14.1	4.50e-06	0	43	102	1048576	20	3776
2026-01-06 12:22:41.66	264.09	18.26	-29.3	-30.2	14.1	3.00e-06	0	43	102	1048576	19	4002
2026-01-06 12:22:42.67	264.32	18.28	-29.3	-30.2	14.2	0.00e+00	0	43	102	1048576	19	3998
2026-01-06 12:22:43.67	264.55	18.30	-29.3	-30.3	14.2	7.00e-07	0	43	102	1048576	19	4010
2026-01-06 12:22:44.68	264.79	18.33	-29.3	-30.2	14.2	0.00e+00	0	43	102	1048576	19	3979
2026-01-06 12:22:45.69	265.03	18.35	-29.3	-30.1	14.3	7.00e-07	0	43	102	1048576	19	3961
2026-01-06 12:22:46.69	265.26	18.37	-29.4	-30.5	14.0	1.50e-06	0	43	102	1048576	19	4078
2026-01-06 12:22:47.70	265.50	18.39	-29.5	-30.7	13.9	2.20e-06	0	43	102	1048576	19	4121
2026-01-06 12:22:48.70	265.73	18.41	-29.5	-30.7	13.9	7.00e-07	0	43	102	1048576	19	4122
2026-01-06 12:22:49.70	265.97	18.43	-29.3	-30.2	14.2	3.00e-06	0	44	102	1048576	19	3981
2026-01-06 12:22:50.71	266.21	18.45	-29.3	-30.1	14.3	3.00e-06	0	43	102	1048576	19	3960
2026-01-06 12:22:51.72	266.44	18.46	-29.2	-30.0	14.4	0.00e+00	0	43	102	1048576	19	3934
2026-01-06 12:22:52.73	266.68	18.48	-29.4	-30.4	14.2	0.00e+00	0	44	102	1048576	19	4040
2026-01-06 12:22:53.73	266.92	18.50	-29.6	-30.9	13.8	5.30e-06	0	44	102	1048576	19	4198
2026-01-06 12:22:54.74	267.16	18.52	-29.8	-31.4	13.5	6.10e-06	0	44	102	1048576	19	4342
2026-01-06 12:22:55.75	267.40	18.53	-29.9	-31.9	13.2	2.67e-05	0	43	102	1048576	19	4497
2026-01-06 12:22:56.75	267.63	18.55	-30.0	-31.4	13.1	3.58e-05	0	44	102	1048576	20	4274
2026-01-06 12:22:57.76	267.87	18.56	-29.9	-31.4	13.1	3.28e-05	0	43	102	1048576	20	4260
2026-01-06 12:22:58.76	268.11	18.58	-30.0	-31.6	12.9	3.05e-05	0	43	102	1048576	20	4320
2026-01-06 12:22:59.77	268.35	18.59	-30.0	-31.4	13.1	5.49e-05	0	43	102	1048576	20	4278
2026-01-06 12:23:00.77	268.59	18.61	-30.0	-31.6	13.0	2.89e-05	0	43	102	1048576	20	4322
2026-01-06 12:23:01.78	268.83	18.62	-30.0	-31.7	12.9	2.44e-05	0	43	102	1048576	20	4356
2026-01-06 12:23:02.79	269.07	18.64	-30.1	-31.8	12.8	6.71e-05	0	43	102	1048576	20	4394
2026-01-06 12:23:03.80	269.31	18.65	-30.2	-32.1	12.6	5.95e-05	0	43	102	1048576	20	4471
2026-01-06 12:23:04.81	269.55	18.66	-30.0	-31.6	13.0	7.24e-05	0	43	102	1048576	20	4338
2026-01-06 12:23:05.82	269.79	18.67	-29.9	-31.2	13.2	3.73e-05	0	43	102	1048576	20	4186
2026-01-06 12:23:06.82	270.03	18.68	-29.8	-31.2	13.2	1.67e-05	0	43	102	1048576	20	4184
2026-01-06 12:23:07.83	270.27	18.69	-29.9	-31.3	13.1	2.36e-05	0	44	102	1048576	20	4234
2026-01-06 12:23:08.83	270.51	18.70	-30.0	-31.5	13.1	3.28e-05	0	43	102	1048576	20	4290
2026-01-06 12:23:09.84	270.75	18.71	-30.2	-32.2	12.6	5.41e-05	0	43	102	1048576	20	4533
2026-01-06 12:23:10.84	270.99	18.72	-30.3	-32.4	12.4	1.57e-04	0	43	102	1048576	20	4599
2026-01-06 12:23:11.84	271.23	18.73	-30.4	-32.7	12.2	1.80e-04	0	43	102	1048576	20	4702
2026-01-06 12:23:12.86	271.48	18.74	-30.3	-32.3	12.5	1.80e-04	0	44	102	1048576	20	4572
2026-01-06 12:23:13.86	271.72	18.75	-30.2	-32.2	12.6	1.13e-04	0	43	102	1048576	20	4510
2026-01-06 12:23:14.87	271.96	18.76	-30.1	-31.9	12.8	6.79e-05	0	43	102	1048576	20	4427
2026-01-06 12:23:15.88	272.20	18.76	-30.1	-32.0	12.7	7.70e-05	0	43	102	1048576	20	4441
2026-01-06 12:23:16.88	272.44	18.77	-30.1	-32.0	12.7	7.78e-05	0	43	102	1048576	20	4442
2026-01-06 12:23:17.87	272.68	18.78	-30.2	-32.1	12.6	7.70e-05	0	43	102	1048576	20	4489
2026-01-06 12:23:18.88	272.92	18.78	-30.1	-31.8	12.8	5.03e-05	0	43	102	1048576	20	4392
2026-01-06 12:23:19.89	273.17	18.79	-30.0	-31.6	13.0	4.57e-05	0	43	102	1048576	20	4329
2026-01-06 12:23:20.90	273.41	18.79	-30.0	-31.6	13.0	3.96e-05	0	43	102	1048576	20	4306
2026-01-06 12:23:21.90	273.65	18.79	-30.1	-31.7	12.9	4.57e-05	0	43	102	1048576	20	4364
2026-01-06 12:23:22.90	273.89	18.80	-29.9	-31.3	13.2	3.20e-05	0	43	102	1048576	20	4236
2026-01-06 12:23:23.91	274.13	18.80	-30.0	-31.5	13.0	3.20e-05	0	44	102	1048576	20	4296
2026-01-06 12:23:24.91	274.38	18.80	-30.0	-31.6	12.9	3.43e-05	0	44	102	1048576	20	4331
2026-01-06 12:23:25.92	274.62	18.80	-30.0	-31.6	13.0	3.73e-05	0	43	102	1048576	20	4330
2026-01-06 12:23:26.93	274.86	18.81	-30.0	-31.6	13.0	4.88e-05	0	43	102	1048576	20	4320
2026-01-06 12:23:27.93	275.10	18.81	-30.1	-31.8	12.8	5.03e-05	0	43	102	1048576	20	4375
2026-01-06 12:23:28.94	275.35	18.81	-30.2	-32.2	12.6	8.16e-05	0	43	102	1048576	20	4527
2026-01-06 12:23:29.94	275.59	18.81	-30.4	-32.7	12.3	1.32e-04	0	44	102	1048576	20	4692
2026-01-06 12:23:30.95	275.83	18.81	-30.3	-32.3	12.5	1.64e-04	0	43	102	1048576	20	4559
2026-01-06 12:23:31.95	276.07	18.81	-30.5	-33.0	12.1	2.32e-04	0	43	102	1048576	20	4816
2026-01-06 12:23:32.96	276.31	18.80	-30.4	-32.2	12.2	2.66e-04	0	43	102	1048576	21	4419
2026-01-06 12:23:33.97	276.56	18.80	-30.5	-32.4	12.1	2.43e-04	0	43	102	1048576	21	4499
2026-01-06 12:23:34.98	276.80	18.80	-30.6	-32.8	11.8	3.00e-04	0	43	102	1048576	21	4658
2026-01-06 12:23:35.98	277.04	18.80	-30.7	-33.0	11.6	5.22e-04	0	43	102	1048576	21	4723
2026-01-06 12:23:36.99	277.28	18.79	-30.6	-32.7	11.9	5.09e-04	0	43	102	1048576	21	4597
2026-01-06 12:23:37.99	277.52	18.79	-30.5	-32.4	12.1	3.71e-04	0	43	102	1048576	21	4486
2026-01-06 12:23:39.01	277.77	18.78	-30.5	-32.5	12.0	2.55e-04	0	43	102	1048576	21	4548
2026-01-06 12:23:40.01	278.01	18.78	-30.5	-32.6	11.9	3.41e-04	0	43	102	1048576	21	4586
2026-01-06 12:23:41.02	278.25	18.77	-30.5	-32.5	12.0	2.87e-04	0	43	102	1048576	21	4553
2026-01-06 12:23:42.02	278.49	18.77	-30.5	-32.6	12.0	2.38e-04	0	43	102	1048576	21	4561
2026-01-06 12:23:43.02	278.73	18.76	-30.5	-32.7	11.9	3.04e-04	0	43	102	1048576	21	4588
2026-01-06 12:23:44.03	278.98	18.75	-30.1	-31.4	12.8	1.67e-04	0	43	102	1048576	21	4180
2026-01-06 12:23:45.04	279.22	18.75	-29.9	-30.8	13.1	4.27e-05	0	43	102	1048576	21	4003
2026-01-06 12:23:46.05	279.46	18.74	-29.8	-31.0	13.4	1.90e-05	0	43	102	1048576	20	4126
2026-01-06 12:23:47.06	279.70	18.73	-29.8	-31.1	13.4	1.14e-05	0	43	102	1048576	20	4156
2026-01-06 12:23:48.06	279.94	18.72	-30.0	-31.5	13.1	1.37e-05	0	43	102	1048576	20	4279
2026-01-06 12:23:49.07	280.18	18.71	-30.1	-32.0	12.8	4.73e-05	0	43	102	1048576	20	4444
2026-01-06 12:23:50.08	280.42	18.70	-30.2	-32.1	12.7	8.31e-05	0	43	102	1048576	20	4471
2026-01-06 12:23:51.08	280.66	18.69	-30.2	-32.2	12.6	9.84e-05	0	44	102	1048576	20	4536
2026-01-06 12:23:52.09	280.91	18.68	-30.3	-32.5	12.4	1.60e-04	0	43	102	1048576	20	4619
2026-01-06 12:23:53.10	281.15	18.67	-30.2	-32.2	12.6	1.10e-04	0	44	102	1048576	20	4539
2026-01-06 12:23:54.10	281.38	18.66	-30.3	-32.5	12.4	1.36e-04	0	44	102	1048576	20	4639
2026-01-06 12:23:55.11	281.63	18.64	-30.4	-32.6	12.3	1.75e-04	0	43	102	1048576	20	4672
2026-01-06 12:23:56.12	281.87	18.63	-30.4	-32.7	12.2	1.84e-04	0	43	102	1048576	20	4715
2026-01-06 12:23:57.11	282.10	18.62	-30.5	-32.6	12.0	2.61e-04	0	43	102	1048576	21	4555
2026-01-06 12:23:58.11	282.34	18.60	-30.5	-32.6	12.0	2.70e-04	0	44	102	1048576	21	4578
2026-01-06 12:23:59.12	282.58	18.59	-30.5	-32.6	11.9	3.68e-04	0	43	102	1048576	21	4554
2026-01-06 12:24:00.13	282.82	18.57	-30.4	-32.3	12.1	3.56e-04	0	43	102	1048576	21	4482
2026-01-06 12:24:01.13	283.06	18.56	-30.5	-32.4	12.1	2.46e-04	0	43	102	1048576	21	4502
2026-01-06 12:24:02.13	283.29	18.54	-30.5	-32.4	12.1	3.07e-04	0	44	102	1048576	21	4504
2026-01-06 12:24:03.14	283.53	18.53	-30.4	-32.1	12.3	2.20e-04	0	43	102	1048576	21	4409
2026-01-06 12:24:04.15	283.77	18.51	-30.4	-32.2	12.1	1.70e-04	0	43	102	1048576	21	4449
2026-01-06 12:24:05.16	284.01	18.49	-30.4	-32.2	12.2	2.55e-04	0	43	102	1048576	21	4433
2026-01-06 12:24:06.16	284.24	18.48	-30.1	-31.5	12.7	1.15e-04	0	43	102	1048576	21	4203
2026-01-06 12:24:07.17	284.48	18.46	-30.0	-31.1	13.0	6.33e-05	0	44	102	1048576	21	4087
2026-01-06 12:24:08.17	284.72	18.44	-29.9	-30.9	13.1	3.12e-05	0	43	102	1048576	21	4035
2026-01-06 12:24:09.18	284.95	18.42	-29.8	-30.6	13.2	2.13e-05	0	43	102	1048576	21	3948
2026-01-06 12:24:10.19	285.19	18.40	-29.9	-30.7	13.3	2.13e-05	0	43	102	1048576	21	3962
2026-01-06 12:24:11.19	285.43	18.38	-29.7	-30.7	13.6	1.52e-05	0	43	102	1048576	20	4052
2026-01-06 12:24:12.19	285.66	18.36	-29.6	-30.5	13.7	6.10e-06	0	43	102	1048576	20	3997
2026-01-06 12:24:13.20	285.90	18.34	-29.8	-31.0	13.4	6.10e-06	0	43	102	1048576	20	4144
2026-01-06 12:24:14.21	286.13	18.32	-29.9	-31.3	13.1	1.52e-05	0	43	102	1048576	20	4244
2026-01-06 12:24:15.21	286.36	18.30	-30.1	-31.9	12.8	5.11e-05	0	43	102	1048576	20	4415
2026-01-06 12:24:16.21	286.60	18.28	-30.3	-32.4	12.4	1.14e-04	0	44	102	1048576	20	4587
2026-01-06 12:24:17.22	286.83	18.25	-30.3	-32.6	12.3	1.36e-04	0	43	102	1048576	20	4646
2026-01-06 12:24:18.23	287.07	18.23	-30.4	-32.3	12.2	2.01e-04	0	43	102	1048576	21	4467
2026-01-06 12:24:19.24	287.30	18.21	-30.3	-31.9	12.4	2.08e-04	0	44	102	1048576	21	4344
2026-01-06 12:24:20.25	287.53	18.18	-30.3	-31.9	12.4	1.46e-04	0	43	102	1048576	21	4335
2026-01-06 12:24:21.25	287.76	18.16	-30.2	-31.8	12.5	1.53e-04	0	43	102	1048576	21	4303
2026-01-06 12:24:22.26	288.00	18.13	-30.3	-31.9	12.4	1.52e-04	0	43	102	1048576	21	4324
2026-01-06 12:24:23.27	288.23	18.11	-30.3	-31.9	12.4	1.81e-04	0	43	102	1048576	21	4343
2026-01-06 12:24:24.27	288.46	18.08	-30.2	-31.8	12.5	1.44e-04	0	43	102	1048576	21	4305
2026-01-06 12:24:25.28	288.69	18.06	-30.2	-31.6	12.6	9.53e-05	0	43	102	1048576	21	4252
2026-01-06 12:24:26.29	288.92	18.03	-30.2	-31.5	12.6	9.53e-05	0	43	102	1048576	21	4217
2026-01-06 12:24:27.30	289.15	18.00	-29.9	-30.8	13.1	4.04e-05	0	43	102	1048576	21	4010
2026-01-06 12:24:28.31	289.38	17.98	-29.8	-31.1	13.2	1.98e-05	0	43	102	1048576	20	4170
2026-01-06 12:24:29.32	289.61	17.95	-29.9	-31.3	13.1	1.52e-05	0	43	102	1048576	20	4242
2026-01-06 12:24:30.33	289.84	17.92	-30.1	-31.8	12.8	4.50e-05	0	43	102	1048576	20	4383
2026-01-06 12:24:31.34	290.07	17.89	-30.0	-31.7	12.9	5.26e-05	0	43	102	1048576	20	4361
2026-01-06 12:24:32.34	290.30	17.86	-30.2	-32.3	12.5	1.31e-04	0	43	102	1048576	20	4575
2026-01-06 12:24:33.34	290.53	17.83	-30.2	-32.2	12.5	1.46e-04	0	43	102	1048576	20	4540
2026-01-06 12:24:34.35	290.75	17.80	-30.3	-32.3	12.4	1.36e-04	0	43	102	1048576	20	4576
2026-01-06 12:24:35.36	290.98	17.77	-30.2	-32.3	12.5	1.40e-04	0	43	102	1048576	20	4552
2026-01-06 12:24:36.36	291.21	17.74	-30.1	-31.8	12.8	6.94e-05	0	43	102	1048576	20	4398
2026-01-06 12:24:37.38	291.43	17.71	-29.9	-31.3	13.1	3.89e-05	0	43	102	1048576	20	4227
2026-01-06 12:24:38.38	291.66	17.68	-29.8	-31.1	13.3	3.05e-05	0	43	102	1048576	20	4183
2026-01-06 12:24:39.38	291.88	17.65	-29.9	-31.4	13.0	2.82e-05	0	43	102	1048576	20	4284
2026-01-06 12:24:40.39	292.11	17.62	-29.9	-31.5	13.0	5.18e-05	0	44	102	1048576	20	4305
2026-01-06 12:24:41.40	292.33	17.58	-30.0	-31.7	12.8	4.88e-05	0	43	102	1048576	20	4357
2026-01-06 12:24:42.40	292.55	17.55	-30.0	-31.6	12.9	5.49e-05	0	43	102	1048576	20	4342
2026-01-06 12:24:43.41	292.78	17.52	-30.0	-31.8	12.8	5.11e-05	0	44	102	1048576	20	4379
2026-01-06 12:24:44.42	293.00	17.49	-30.0	-31.6	12.9	6.94e-05	0	43	102	1048576	20	4325
2026-01-06 12:24:45.42	293.22	17.45	-30.0	-31.6	12.9	4.27e-05	0	43	102	1048576	20	4338
2026-01-06 12:24:46.43	293.44	17.42	-30.0	-31.6	12.9	7.17e-05	0	43	102	1048576	20	4323
2026-01-06 12:24:47.44	293.67	17.38	-29.6	-30.5	13.6	2.28e-05	0	43	102	1048576	20	4009
2026-01-06 12:24:48.44	293.88	17.35	-29.5	-30.3	13.7	3.80e-06	0	43	102	1048576	20	3937
2026-01-06 12:24:49.45	294.10	17.31	-29.4	-30.1	13.9	4.50e-06	0	43	102	1048576	20	3876
2026-01-06 12:24:50.45	294.32	17.28	-29.5	-30.2	13.8	3.80e-06	0	43	102	1048576	20	3909
2026-01-06 12:24:51.46	294.54	17.24	-29.5	-30.4	13.7	4.50e-06	0	43	102	1048576	20	3963
2026-01-06 12:24:52.46	294.76	17.20	-29.6	-30.4	13.7	6.10e-06	0	44	102	1048576	20	3974
2026-01-06 12:24:53.47	294.98	17.17	-29.6	-30.5	13.6	6.80e-06	0	43	102	1048576	20	4007
2026-01-06 12:24:54.47	295.19	17.13	-29.5	-30.3	13.7	7.60e-06	0	43	102	1048576	20	3934
2026-01-06 12:24:55.48	295.41	17.09	-29.5	-30.4	13.6	8.30e-06	0	43	102	1048576	20	3969
2026-01-06 12:24:56.49	295.63	17.06	-29.4	-30.1	13.8	9.90e-06	0	43	102	1048576	20	3895
2026-01-06 12:24:57.50	295.85	17.02	-29.5	-30.2	13.8	5.30e-06	0	43	102	1048576	20	3916
2026-01-06 12:24:58.51	296.06	16.98	-29.4	-30.1	13.8	6.10e-06	0	44	102	1048576	20	3899
2026-01-06 12:24:59.52	296.28	16.94	-29.5	-30.3	13.7	3.00e-06	0	43	102	1048576	20	3953
2026-01-06 12:25:00.52	296.49	16.90	-29.5	-30.4	13.7	8.30e-06	0	43	102	1048576	20	3960
2026-01-06 12:25:01.52	296.70	16.86	-29.4	-30.1	13.8	6.10e-06	0	43	102	1048576	20	3891
2026-01-06 12:25:02.53	296.92	16.82	-29.4	-30.1	13.9	4.50e-06	0	43	102	1048576	20	3880
2026-01-06 12:25:03.54	297.13	16.78	-29.4	-29.9	14.0	3.80e-06	0	43	102	1048576	20	3835
2026-01-06 12:25:04.54	297.34	16.74	-29.5	-30.3	13.7	7.60e-06	0	43	102	1048576	20	3951
2026-01-06 12:25:05.55	297.55	16.70	-29.6	-30.5	13.6	5.30e-06	0	43	102	1048576	20	4008
2026-01-06 12:25:06.55	297.76	16.66	-29.6	-30.6	13.5	9.90e-06	0	43	102	1048576	20	4040
2026-01-06 12:25:07.55	297.97	16.62	-29.8	-31.1	13.2	1.83e-05	0	44	102	1048576	20	4185
2026-01-06 12:25:08.56	298.18	16.58	-29.9	-31.3	13.1	2.59e-05	0	43	102	1048576	20	4233
2026-01-06 12:25:09.57	298.39	16.54	-29.8	-31.1	13.2	2.74e-05	0	44	102	1048576	20	4184
2026-01-06 12:25:10.58	298.60	16.50	-29.8	-31.2	13.2	3.20e-05	0	43	102	1048576	20	4201
2026-01-06 12:25:11.58	298.81	16.45	-29.8	-31.1	13.2	1.98e-05	0	43	102	1048576	20	4192
2026-01-06 12:25:12.59	299.02	16.41	-29.8	-31.1	13.2	2.44e-05	0	43	102	1048576	20	4181
2026-01-06 12:25:13.60	299.22	16.37	-29.7	-30.9	13.4	5.26e-05	0	43	102	1048576	20	4104
2026-01-06 12:25:14.60	299.43	16.32	-29.6	-30.6	13.5	1.06e-05	0	43	102	1048576	20	4041
2026-01-06 12:25:15.61	299.63	16.28	-29.6	-30.6	13.5	8.30e-06	0	43	102	1048576	20	4016
2026-01-06 12:25:16.61	299.84	16.24	-29.7	-30.8	13.3	1.44e-05	0	43	102	1048576	20	4090
2026-01-06 12:25:17.62	300.04	16.19	-29.8	-31.1	13.1	1.52e-05	0	43	102	1048576	20	4189
2026-01-06 12:25:18.62	300.25	16.15	-29.8	-31.1	13.2	2.59e-05	0	43	102	1048576	20	4172
2026-01-06 12:25:19.62	300.45	16.11	-29.9	-31.3	13.1	2.97e-05	0	43	102	1048576	20	4228
2026-01-06 12:25:20.62	300.65	16.06	-29.8	-31.2	13.1	1.83e-05	0	43	102	1048576	20	4200
2026-01-06 12:25:21.63	300.85	16.02	-29.7	-30.8	13.4	9.90e-06	0	43	102	1048576	20	4078
2026-01-06 12:25:22.65	301.06	15.97	-29.6	-30.6	13.6	6.10e-06	0	44	102	1048576	20	4024
2026-01-06 12:25:23.65	301.26	15.93	-29.6	-30.6	13.5	5.30e-06	0	44	102	1048576	20	4020
2026-01-06 12:25:24.66	301.46	15.88	-29.7	-30.9	13.3	6.80e-06	0	44	102	1048576	20	4131
2026-01-06 12:25:25.66	301.66	15.83	-30.0	-31.5	12.9	3.12e-05	0	43	102	1048576	20	4319
2026-01-06 12:25:26.67	301.86	15.79	-30.2	-32.1	12.5	5.11e-05	0	43	102	1048576	20	4510
2026-01-06 12:25:27.67	302.05	15.74	-30.2	-32.3	12.3	1.61e-04	0	43	102	1048576	20	4584
2026-01-06 12:25:28.68	302.25	15.69	-30.3	-32.6	12.1	3.42e-04	0	43	102	1048576	20	4696
2026-01-06 12:25:29.69	302.45	15.65	-30.4	-32.9	11.9	3.55e-04	0	43	102	1048576	20	4772
2026-01-06 12:25:30.70	302.65	15.60	-30.3	-32.5	12.2	2.93e-04	0	43	102	1048576	20	4647
2026-01-06 12:25:31.70	302.84	15.55	-30.3	-32.7	12.0	2.47e-04	0	43	102	1048576	20	4720
2026-01-06 12:25:32.71	303.04	15.51	-30.2	-32.1	12.5	1.60e-04	0	43	102	1048576	20	4520
2026-01-06 12:25:33.71	303.23	15.46	-30.0	-31.7	12.7	8.01e-05	0	44	102	1048576	20	4370
2026-01-06 12:25:34.72	303.43	15.41	-29.9	-31.4	13.0	3.20e-05	0	43	102	1048576	20	4270
2026-01-06 12:25:35.73	303.62	15.36	-29.9	-31.3	13.0	3.81e-05	0	43	102	1048576	20	4260
2026-01-06 12:25:36.74	303.82	15.31	-29.9	-31.3	13.0	3.35e-05	0	43	102	1048576	20	4255
2026-01-06 12:25:37.74	304.01	15.27	-29.8	-31.2	13.1	5.56e-05	0	43	102	1048576	20	4209
2026-01-06 12:25:38.75	304.20	15.22	-29.8	-31.1	13.1	3.35e-05	0	43	102	1048576	20	4190
2026-01-06 12:25:39.75	304.39	15.17	-29.7	-30.9	13.3	3.96e-05	0	43	102	1048576	20	4134
2026-01-06 12:25:40.76	304.58	15.12	-29.9	-31.3	13.0	2.59e-05	0	43	102	1048576	20	4248
2026-01-06 12:25:41.77	304.77	15.07	-29.8	-31.3	13.0	3.66e-05	0	43	102	1048576	20	4239
2026-01-06 12:25:42.78	304.96	15.02	-29.9	-31.5	12.8	6.17e-05	0	43	102	1048576	20	4325
2026-01-06 12:25:43.78	305.15	14.97	-29.9	-31.6	12.8	7.70e-05	0	44	102	1048576	20	4330
2026-01-06 12:25:44.79	305.34	14.92	-30.2	-32.2	12.4	9.30e-05	0	43	102	1048576	20	4543
2026-01-06 12:25:45.80	305.53	14.87	-30.4	-33.0	11.8	2.95e-04	0	43	102	1048576	20	4841
2026-01-06 12:25:46.81	305.71	14.82	-30.5	-32.8	11.6	6.48e-04	0	43	102	1048576	21	4661
2026-01-06 12:25:47.81	305.90	14.77	-30.6	-33.1	11.4	9.68e-04	0	43	102	1048576	21	4787
2026-01-06 12:25:48.82	306.09	14.72	-30.8	-33.6	11.0	1.69e-03	0	44	102	1048576	21	4985
2026-01-06 12:25:49.83	306.27	14.67	-30.9	-33.9	10.8	2.67e-03	0	44	102	1048576	21	5114
2026-01-06 12:25:50.84	306.46	14.62	-30.8	-33.7	10.9	2.86e-03	0	43	102	1048576	21	5031
2026-01-06 12:25:51.84	306.64	14.56	-30.8	-33.6	10.9	2.26e-03	0	43	102	1048576	21	4973
2026-01-06 12:25:52.85	306.82	14.51	-30.8	-33.8	10.9	1.74e-03	0	44	102	1048576	21	5040
2026-01-06 12:25:53.85	307.00	14.46	-30.6	-32.9	11.4	1.68e-03	0	43	102	1048576	21	4729
2026-01-06 12:25:54.86	307.19	14.41	-30.6	-32.9	11.5	8.06e-04	0	44	102	1048576	21	4730
2026-01-06 12:25:55.87	307.37	14.36	-30.7	-33.4	11.1	1.18e-03	0	44	102	1048576	21	4904
2026-01-06 12:25:56.87	307.55	14.31	-30.6	-33.1	11.3	1.55e-03	0	44	102	1048576	21	4801
2026-01-06 12:25:57.87	307.73	14.26	-30.5	-32.7	11.6	9.26e-04	0	43	102	1048576	21	4634
2026-01-06 12:25:58.88	307.91	14.20	-30.3	-32.2	11.9	4.71e-04	0	44	102	1048576	21	4475
2026-01-06 12:25:59.89	308.09	14.15	-30.3	-32.1	12.1	3.51e-04	0	43	102	1048576	21	4419
2026-01-06 12:26:00.90	308.27	14.10	-30.3	-32.2	12.0	3.05e-04	0	43	102	1048576	21	4457
2026-01-06 12:26:01.91	308.44	14.04	-30.2	-31.8	12.2	2.29e-04	0	43	102	1048576	21	4342
2026-01-06 12:26:02.91	308.62	13.99	-30.1	-31.6	12.4	1.17e-04	0	43	102	1048576	21	4255
2026-01-06 12:26:03.92	308.80	13.94	-30.1	-31.5	12.5	1.19e-04	0	44	102	1048576	21	4223
2026-01-06 12:26:04.93	308.97	13.89	-30.2	-31.7	12.3	1.27e-04	0	44	102	1048576	21	4279
2026-01-06 12:26:05.93	309.15	13.83	-30.3	-32.1	12.0	2.10e-04	0	43	102	1048576	21	4423
2026-01-06 12:26:06.93	309.32	13.78	-30.3	-32.2	12.0	3.07e-04	0	43	102	1048576	21	4452
2026-01-06 12:26:07.94	309.50	13.73	-30.4	-32.4	11.8	5.65e-04	0	44	102	1048576	21	4543
2026-01-06 12:26:08.95	309.67	13.67	-30.5	-32.8	11.6	5.87e-04	0	43	102	1048576	21	4663
2026-01-06 12:26:09.95	309.84	13.62	-30.3	-32.1	12.0	4.47e-04	0	43	102	1048576	21	4434
2026-01-06 12:26:10.95	310.01	13.57	-30.3	-32.1	12.0	3.80e-04	0	43	102	1048576	21	4447
2026-01-06 12:26:11.96	310.19	13.51	-30.4	-32.5	11.8	3.65e-04	0	43	102	1048576	21	4553
2026-01-06 12:26:12.97	310.36	13.46	-30.6	-33.1	11.3	6.14e-04	0	43	102	1048576	21	4794
2026-01-06 12:26:13.98	310.53	13.40	-30.4	-32.6	11.6	8.32e-04	0	44	102	1048576	21	4599
2026-01-06 12:26:14.99	310.70	13.35	-30.5	-32.8	11.5	7.29e-04	0	43	102	1048576	21	4687
2026-01-06 12:26:15.99	310.87	13.30	-30.5	-32.8	11.5	1.10e-03	0	43	102	1048576	21	4698
2026-01-06 12:26:17.00	311.04	13.24	-30.5	-32.8	11.5	9.12e-04	0	43	102	1048576	21	4682
2026-01-06 12:26:18.01	311.20	13.19	-30.6	-33.0	11.4	1.01e-03	0	43	102	1048576	21	4736
2026-01-06 12:26:19.01	311.37	13.13	-30.3	-32.1	11.9	6.08e-04	0	43	102	1048576	21	4448
2026-01-06 12:26:20.02	311.54	13.08	-30.2	-32.0	12.1	4.14e-04	0	43	102	1048576	21	4393
2026-01-06 12:26:21.03	311.70	13.02	-30.2	-31.9	12.1	3.29e-04	0	43	102	1048576	21	4371
2026-01-06 12:26:22.04	311.87	12.97	-30.1	-31.5	12.3	2.21e-04	0	44	102	1048576	21	4256
2026-01-06 12:26:23.04	312.03	12.91	-30.4	-32.4	11.8	4.28e-04	0	44	102	1048576	21	4547
2026-01-06 12:26:24.05	312.20	12.86	-30.3	-32.3	11.8	6.00e-04	0	43	102	1048576	21	4522
2026-01-06 12:26:25.05	312.36	12.80	-30.6	-33.0	11.3	8.49e-04	0	43	102	1048576	21	4767
2026-01-06 12:26:26.06	312.53	12.75	-30.5	-32.7	11.5	1.16e-03	0	44	102	1048576	21	4660
2026-01-06 12:26:27.06	312.69	12.69	-30.6	-33.1	11.2	1.12e-03	0	44	102	1048576	21	4810
2026-01-06 12:26:28.07	312.85	12.64	-30.8	-33.8	10.6	2.48e-03	0	44	102	1048576	21	5108
2026-01-06 12:26:29.07	313.01	12.58	-30.5	-32.9	11.4	1.46e-03	0	44	102	1048576	21	4726
2026-01-06 12:26:30.08	313.17	12.53	-30.3	-32.3	11.8	5.73e-04	0	44	102	1048576	21	4526
2026-01-06 12:26:31.09	313.33	12.47	-30.1	-31.5	12.3	3.02e-04	0	44	102	1048576	21	4256
2026-01-06 12:26:32.09	313.49	12.41	-30.0	-31.2	12.5	1.04e-04	0	43	102	1048576	21	4152
2026-01-06 12:26:33.10	313.65	12.36	-29.9	-31.0	12.6	9.53e-05	0	43	102	1048576	21	4096
2026-01-06 12:26:34.10	313.81	12.30	-29.8	-30.7	12.9	7.40e-05	0	44	102	1048576	21	3983
2026-01-06 12:26:35.11	313.97	12.25	-29.8	-31.3	12.8	4.50e-05	0	44	102	1048576	20	4258
2026-01-06 12:26:36.11	314.12	12.19	-29.8	-31.3	12.8	4.95e-05	0	44	102	1048576	20	4260
2026-01-06 12:26:37.12	314.28	12.14	-29.9	-31.4	12.8	5.18e-05	0	43	102	1048576	20	4295
2026-01-06 12:26:38.13	314.44	12.08	-29.9	-31.6	12.6	8.08e-05	0	44	102	1048576	20	4363
2026-01-06 12:26:39.14	314.59	12.02	-29.8	-31.2	12.9	6.48e-05	0	43	102	1048576	20	4234
2026-01-06 12:26:40.14	314.75	11.97	-30.0	-31.9	12.4	6.63e-05	0	44	102	1048576	20	4451
2026-01-06 12:26:41.15	314.90	11.91	-29.9	-31.4	12.7	7.47e-05	0	44	102	1048576	20	4313
2026-01-06 12:26:42.15	315.05	11.85	-29.9	-31.4	12.7	1.01e-04	0	44	102	1048576	20	4312
2026-01-06 12:26:43.16	315.21	11.80	-30.0	-31.8	12.4	1.12e-04	0	43	102	1048576	20	4436
2026-01-06 12:26:44.16	315.36	11.74	-29.8	-31.2	12.8	9.76e-05	0	44	102	1048576	20	4246
2026-01-06 12:26:45.17	315.51	11.69	-29.7	-31.1	12.9	4.57e-05	0	44	102	1048576	20	4204
2026-01-06 12:26:46.18	315.66	11.63	-29.9	-31.4	12.7	7.62e-05	0	43	102	1048576	20	4304
2026-01-06 12:26:47.19	315.82	11.57	-29.8	-31.3	12.8	6.40e-05	0	43	102	1048576	20	4263
2026-01-06 12:26:48.19	315.97	11.52	-29.9	-31.7	12.5	8.39e-05	0	43	102	1048576	20	4386
2026-01-06 12:26:49.20	316.12	11.46	-30.0	-31.8	12.4	1.38e-04	0	43	102	1048576	20	4426
2026-01-06 12:26:50.20	316.26	11.40	-29.9	-31.6	12.6	1.17e-04	0	43	102	1048576	20	4357
2026-01-06 12:26:51.21	316.41	11.35	-30.0	-31.8	12.4	1.27e-04	0	44	102	1048576	20	4434
2026-01-06 12:26:52.21	316.56	11.29	-30.0	-31.7	12.5	1.03e-04	0	44	102	1048576	20	4396
2026-01-06 12:26:53.22	316.71	11.23	-29.9	-31.5	12.6	8.77e-05	0	43	102	1048576	20	4331
2026-01-06 12:26:54.22	316.86	11.18	-29.9	-31.5	12.6	7.55e-05	0	44	102	1048576	20	4324
2026-01-06 12:26:55.22	317.00	11.12	-29.7	-30.8	13.0	3.28e-05	0	43	102	1048576	20	4127
2026-01-06 12:26:56.23	317.15	11.06	-29.7	-30.8	13.0	2.13e-05	0	43	102	1048576	20	4125
2026-01-06 12:26:57.23	317.29	11.01	-29.6	-30.7	13.1	3.58e-05	0	43	102	1048576	20	4079
2026-01-06 12:26:58.24	317.44	10.95	-29.3	-29.9	13.6	1.14e-05	0	43	102	1048576	20	3868
2026-01-06 12:26:59.24	317.58	10.89	-29.3	-30.4	13.7	9.90e-06	0	43	102	1048576	19	4083
2026-01-06 12:27:00.25	317.72	10.84	-29.3	-30.4	13.7	8.30e-06	0	43	102	1048576	19	4077
2026-01-06 12:27:01.26	317.87	10.78	-29.3	-30.5	13.6	7.60e-06	0	43	102	1048576	19	4105
2026-01-06 12:27:02.26	318.01	10.72	-29.5	-30.9	13.3	1.67e-05	0	44	102	1048576	19	4233
2026-01-06 12:27:03.27	318.15	10.66	-29.5	-31.0	13.3	1.29e-05	0	43	102	1048576	19	4254
2026-01-06 12:27:04.28	318.30	10.61	-29.7	-31.4	13.0	2.97e-05	0	44	102	1048576	19	4379
2026-01-06 12:27:05.29	318.44	10.55	-29.7	-31.5	13.0	3.89e-05	0	43	102	1048576	19	4423
2026-01-06 12:27:06.29	318.58	10.49	-29.6	-31.3	13.1	2.67e-05	0	43	102	1048576	19	4351
2026-01-06 12:27:07.30	318.72	10.44	-29.7	-31.5	12.9	4.34e-05	0	44	102	1048576	19	4437
2026-01-06 12:27:08.31	318.86	10.38	-29.8	-31.8	12.7	7.93e-05	0	43	102	1048576	19	4508
2026-01-06 12:27:09.31	319.00	10.32	-29.9	-31.9	12.6	1.08e-04	0	43	102	1048576	19	4563
2026-01-06 12:27:10.32	319.13	10.26	-29.9	-32.2	12.5	1.24e-04	0	43	102	1048576	19	4662
2026-01-06 12:27:11.33	319.27	10.21	-30.1	-32.2	12.0	2.34e-04	0	43	102	1048576	20	4583
2026-01-06 12:27:12.34	319.41	10.15	-30.3	-32.6	11.7	5.19e-04	0	44	102	1048576	20	4742
2026-01-06 12:27:13.35	319.55	10.09	-30.3	-32.9	11.6	4.90e-04	0	44	102	1048576	20	4829
2026-01-06 12:27:14.36	319.68	10.03	-30.3	-33.0	11.5	7.05e-04	0	43	102	1048576	20	4865
2026-01-06 12:27:15.36	319.82	9.98	-30.4	-33.1	11.4	1.05e-03	0	43	102	1048576	20	4900
2026-01-06 12:27:16.37	319.96	9.92	-30.4	-33.2	11.3	1.26e-03	0	43	102	1048576	20	4937
2026-01-06 12:27:17.37	320.09	9.86	-30.4	-33.0	11.4	1.08e-03	0	44	102	1048576	20	4888
2026-01-06 12:27:18.38	320.22	9.81	-30.3	-32.9	11.5	9.89e-04	0	43	102	1048576	20	4847
2026-01-06 12:27:19.38	320.36	9.75	-30.2	-32.5	11.7	6.98e-04	0	43	102	1048576	20	4706
2026-01-06 12:27:20.39	320.49	9.69	-30.2	-32.6	11.7	5.62e-04	0	43	102	1048576	20	4742
2026-01-06 12:27:21.39	320.62	9.64	-30.1	-32.3	11.9	4.97e-04	0	43	102	1048576	20	4609
2026-01-06 12:27:22.40	320.76	9.58	-30.1	-32.3	11.9	4.69e-04	0	43	102	1048576	20	4628
2026-01-06 12:27:23.40	320.89	9.52	-29.9	-31.6	12.3	2.04e-04	0	43	102	1048576	20	4393
2026-01-06 12:27:24.40	321.02	9.46	-29.9	-31.5	12.5	1.16e-04	0	43	102	1048576	20	4351
2026-01-06 12:27:25.41	321.15	9.41	-29.9	-31.6	12.4	1.04e-04	0	44	102	1048576	20	4376
2026-01-06 12:27:26.41	321.28	9.35	-29.9	-31.7	12.3	1.61e-04	0	43	102	1048576	20	4423
2026-01-06 12:27:27.42	321.41	9.29	-30.1	-32.1	12.0	2.27e-04	0	43	102	1048576	20	4556
2026-01-06 12:27:28.43	321.54	9.24	-30.2	-32.6	11.7	3.75e-04	0	43	102	1048576	20	4725
2026-01-06 12:27:29.43	321.67	9.18	-30.3	-32.9	11.5	6.52e-04	0	43	102	1048576	20	4849
2026-01-06 12:27:30.44	321.80	9.12	-30.5	-32.9	11.1	1.24e-03	0	43	102	1048576	21	4739
2026-01-06 12:27:31.44	321.92	9.06	-30.3	-32.5	11.4	1.15e-03	0	44	102	1048576	21	4604
2026-01-06 12:27:32.44	322.05	9.01	-30.4	-32.5	11.4	1.31e-03	0	43	102	1048576	21	4608
2026-01-06 12:27:33.45	322.18	8.95	-30.3	-32.5	11.4	1.03e-03	0	43	102	1048576	21	4601
2026-01-06 12:27:34.45	322.30	8.89	-30.3	-32.3	11.5	9.41e-04	0	43	102	1048576	21	4548
2026-01-06 12:27:35.46	322.43	8.84	-30.4	-32.6	11.3	1.12e-03	0	43	102	1048576	21	4641
2026-01-06 12:27:36.47	322.55	8.78	-30.3	-32.4	11.4	1.24e-03	0	43	102	1048576	21	4583
2026-01-06 12:27:37.47	322.68	8.72	-30.3	-32.4	11.5	9.86e-04	0	44	102	1048576	21	4572
2026-01-06 12:27:38.48	322.80	8.67	-30.4	-32.7	11.2	9.66e-04	0	44	102	1048576	21	4684
2026-01-06 12:27:39.49	322.93	8.61	-30.4	-32.6	11.3	1.44e-03	0	43	102	1048576	21	4631
2026-01-06 12:27:40.49	323.05	8.55	-30.4	-32.8	11.2	1.20e-03	0	43	102	1048576	21	4708
2026-01-06 12:27:41.50	323.18	8.49	-30.5	-32.9	11.1	1.58e-03	0	43	102	1048576	21	4751
2026-01-06 12:27:42.51	323.30	8.44	-30.6	-33.2	10.8	1.73e-03	0	43	102	1048576	21	4899
2026-01-06 12:27:43.52	323.42	8.38	-30.5	-33.1	10.9	2.18e-03	0	43	102	1048576	21	4842
2026-01-06 12:27:44.53	323.54	8.32	-30.6	-33.4	10.7	2.88e-03	0	44	102	1048576	21	4974
2026-01-06 12:27:45.53	323.66	8.27	-30.7	-33.7	10.4	4.10e-03	0	43	102	1048576	21	5062
2026-01-06 12:27:46.54	323.79	8.21	-30.6	-33.5	10.6	3.44e-03	0	44	102	1048576	21	5005
2026-01-06 12:27:47.55	323.91	8.15	-30.7	-33.7	10.5	4.15e-03	0	43	102	1048576	21	5067
2026-01-06 12:27:48.55	324.03	8.10	-30.8	-33.9	10.3	5.32e-03	0	43	102	1048576	21	5162
2026-01-06 12:27:49.55	324.14	8.04	-30.7	-33.7	10.5	3.57e-03	0	44	102	1048576	21	5069
2026-01-06 12:27:50.56	324.26	7.98	-30.7	-33.7	10.5	4.04e-03	0	43	102	1048576	21	5068
2026-01-06 12:27:51.56	324.38	7.93	-30.6	-33.3	10.7	3.31e-03	0	43	102	1048576	21	4922
2026-01-06 12:27:52.57	324.50	7.87	-30.6	-33.4	10.6	3.64e-03	0	44	102	1048576	21	4957
2026-01-06 12:27:53.58	324.62	7.81	-30.6	-33.6	10.4	5.32e-03	0	43	102	1048576	21	5043
2026-01-06 12:27:54.59	324.74	7.76	-30.7	-33.7	10.4	4.82e-03	0	43	102	1048576	21	5103
2026-01-06 12:27:55.59	324.85	7.70	-30.7	-33.8	10.3	6.23e-03	0	43	102	1048576	21	5153
2026-01-06 12:27:56.59	324.97	7.64	-30.8	-34.0	10.1	7.08e-03	0	44	102	1048576	21	5236
2026-01-06 12:27:57.59	325.08	7.59	-30.8	-34.3	9.9	7.44e-03	0	43	102	1048576	21	5329
2026-01-06 12:27:58.60	325.20	7.53	-30.8	-34.2	10.0	6.80e-03	0	43	102	1048576	21	5315
2026-01-06 12:27:59.61	325.31	7.47	-30.8	-34.1	10.1	7.32e-03	0	43	102	1048576	21	5285
2026-01-06 12:28:00.62	325.43	7.42	-30.7	-33.8	10.2	6.17e-03	0	43	102	1048576	21	5147
2026-01-06 12:28:01.63	325.54	7.36	-30.6	-33.5	10.5	5.11e-03	0	43	102	1048576	21	5022
2026-01-06 12:28:02.63	325.66	7.30	-30.6	-33.4	10.6	3.26e-03	0	43	102	1048576	21	4996
2026-01-06 12:28:03.63	325.77	7.25	-30.6	-33.6	10.4	3.90e-03	0	43	102	1048576	21	5072
2026-01-06 12:28:04.64	325.88	7.19	-30.5	-33.1	10.7	3.88e-03	0	44	102	1048576	21	4888
2026-01-06 12:28:05.64	326.00	7.13	-30.2	-32.3	11.3	1.93e-03	0	43	102	1048576	21	4553
2026-01-06 12:28:06.65	326.11	7.08	-30.3	-32.5	11.1	1.22e-03	0	44	102	1048576	21	4649
2026-01-06 12:28:07.65	326.22	7.02	-32.9	-45.3	3.8	8.45e-01	0	44	104	1048576	25	15061
2026-01-06 12:28:08.66	326.33	6.97	-33.2	-45.5	3.8	1.49e+00	0	43	104	1048576	26	14832

#Closed at: 2026-01-06 12:28:09
#Recorded file [1 MB]: D:/data/31010_260106_151855.dat