passes_logs/2026/01/06/R2M6_AANII_01/R2M6_AANII_01__20260106_085703_SUOMI_NPP_rec.log

#Pass ID: 20260106_085703_SUOMI NPP
#Satellite: SUOMI NPP
#Configuration: NPP
#almurnet v.1.7.20240730
#Start time: 2026-01-06 08:57:04

#Version: 2.2.20231116
#Station: R2M6_AANII_01
#Location: 30.233357 lon 59.946436 lat
#TLE: 1 37849U 11061A   26004.95404768  .00000136  00000+0  85334-4 0  9991
#TLE: 2 37849  98.7801 307.0898 0002575  80.6707 279.4760 14.19522289735281

#Time	Az	El	Level	Level2	SNR	BER	BlckErr	Temp	State	Recorded	gain1	gain2
2026-01-06 08:57:04.50	115.62	7.09	-31.8	-37.2	4.6	1.34e+00	0	40	0	0	24	6764
2026-01-06 08:57:05.50	115.55	7.16	-31.7	-36.9	4.7	1.35e+00	0	41	104	0	24	6568
2026-01-06 08:57:06.50	115.48	7.23	-31.7	-36.9	6.6	1.94e-01	0	41	0	0	24	6521
2026-01-06 08:57:07.50	115.41	7.30	-31.7	-36.7	6.7	1.75e-01	0	41	102	1048576	24	6429
2026-01-06 08:57:08.51	115.34	7.38	-31.7	-36.6	6.8	2.06e-01	0	41	102	1048576	24	6330
2026-01-06 08:57:09.52	115.26	7.45	-31.7	-36.5	6.9	1.93e-01	0	41	102	1048576	24	6252
2026-01-06 08:57:10.53	115.19	7.52	-31.6	-36.0	7.2	1.72e-01	0	41	102	1048576	24	6020
2026-01-06 08:57:11.54	115.12	7.59	-31.4	-35.3	7.8	8.50e-02	0	41	102	1048576	24	5640
2026-01-06 08:57:12.54	115.04	7.66	-31.3	-34.7	8.4	6.34e-02	0	41	102	1048576	24	5301
2026-01-06 08:57:13.55	114.97	7.73	-31.2	-34.8	8.7	4.95e-02	0	41	102	1048576	23	5423
2026-01-06 08:57:14.56	114.89	7.81	-31.1	-34.3	9.0	3.09e-02	0	41	102	1048576	23	5205
2026-01-06 08:57:15.57	114.82	7.88	-31.1	-34.1	9.3	1.82e-02	0	41	102	1048576	23	5114
2026-01-06 08:57:16.57	114.75	7.95	-31.0	-33.8	9.5	1.64e-02	0	41	102	1048576	23	4986
2026-01-06 08:57:17.57	114.67	8.02	-30.9	-33.6	9.7	1.39e-02	0	41	102	1048576	23	4910
2026-01-06 08:57:18.58	114.59	8.10	-31.0	-33.7	9.6	1.15e-02	0	41	102	1048576	23	4939
2026-01-06 08:57:19.57	114.52	8.17	-31.0	-33.7	9.7	1.25e-02	0	41	102	1048576	23	4943
2026-01-06 08:57:20.58	114.44	8.24	-30.7	-33.3	10.3	1.01e-02	0	41	102	1048576	22	4867
2026-01-06 08:57:21.59	114.36	8.31	-30.6	-32.9	10.6	3.85e-03	0	41	102	1048576	22	4694
2026-01-06 08:57:22.59	114.29	8.39	-30.7	-33.3	10.4	4.14e-03	0	41	102	1048576	22	4831
2026-01-06 08:57:23.60	114.21	8.46	-30.7	-33.2	10.4	3.75e-03	0	41	102	1048576	22	4811
2026-01-06 08:57:24.60	114.13	8.53	-30.7	-33.1	10.5	3.82e-03	0	41	102	1048576	22	4778
2026-01-06 08:57:25.61	114.05	8.61	-30.8	-33.4	10.3	6.38e-03	0	41	102	1048576	22	4901
2026-01-06 08:57:26.62	113.97	8.68	-30.8	-33.7	10.1	5.63e-03	0	41	102	1048576	22	5017
2026-01-06 08:57:27.63	113.89	8.76	-30.9	-33.9	9.9	6.09e-03	0	42	102	1048576	22	5085
2026-01-06 08:57:28.64	113.81	8.83	-30.7	-33.1	10.6	3.95e-03	0	41	102	1048576	22	4766
2026-01-06 08:57:29.64	113.73	8.91	-30.6	-33.0	10.6	3.47e-03	0	42	102	1048576	22	4723
2026-01-06 08:57:30.65	113.65	8.98	-30.6	-32.8	10.8	3.74e-03	0	41	102	1048576	22	4655
2026-01-06 08:57:31.65	113.57	9.05	-30.4	-32.2	11.2	1.59e-03	0	41	102	1048576	22	4436
2026-01-06 08:57:32.65	113.49	9.13	-30.4	-32.1	11.3	1.18e-03	0	42	102	1048576	22	4384
2026-01-06 08:57:33.65	113.41	9.20	-30.6	-32.7	10.9	2.24e-03	0	42	102	1048576	22	4597
2026-01-06 08:57:34.66	113.33	9.28	-30.6	-32.7	10.9	1.91e-03	0	42	102	1048576	22	4584
2026-01-06 08:57:35.66	113.24	9.35	-30.8	-33.3	10.5	2.93e-03	0	42	102	1048576	22	4834
2026-01-06 08:57:36.66	113.16	9.43	-30.7	-33.1	10.6	3.51e-03	0	42	102	1048576	22	4763
2026-01-06 08:57:37.67	113.08	9.51	-30.7	-33.1	10.7	3.17e-03	0	42	102	1048576	22	4742
2026-01-06 08:57:38.68	112.99	9.58	-30.7	-33.2	10.6	4.42e-03	0	42	102	1048576	22	4794
2026-01-06 08:57:39.69	112.91	9.66	-30.7	-32.9	10.8	3.24e-03	0	42	102	1048576	22	4673
2026-01-06 08:57:40.69	112.82	9.73	-30.5	-32.3	11.3	2.08e-03	0	42	102	1048576	22	4429
2026-01-06 08:57:41.70	112.74	9.81	-30.4	-32.0	11.5	1.01e-03	0	42	102	1048576	22	4340
2026-01-06 08:57:42.71	112.65	9.89	-30.4	-32.1	11.4	8.99e-04	0	42	102	1048576	22	4377
2026-01-06 08:57:43.72	112.56	9.96	-30.6	-32.6	11.1	8.38e-04	0	42	102	1048576	22	4553
2026-01-06 08:57:44.72	112.48	10.04	-30.5	-32.4	11.2	1.45e-03	0	42	102	1048576	22	4474
2026-01-06 08:57:45.72	112.39	10.12	-30.4	-32.2	11.3	1.32e-03	0	42	102	1048576	22	4419
2026-01-06 08:57:46.73	112.30	10.20	-30.7	-32.9	10.8	1.72e-03	0	42	102	1048576	22	4674
2026-01-06 08:57:47.74	112.21	10.27	-30.7	-33.2	10.7	2.75e-03	0	42	102	1048576	22	4758
2026-01-06 08:57:48.75	112.13	10.35	-30.7	-33.0	10.7	3.05e-03	0	42	102	1048576	22	4710
2026-01-06 08:57:49.75	112.04	10.43	-30.5	-32.3	11.3	2.62e-03	0	42	102	1048576	22	4460
2026-01-06 08:57:50.76	111.95	10.51	-30.5	-32.4	11.3	1.19e-03	0	42	102	1048576	22	4492
2026-01-06 08:57:51.76	111.86	10.58	-30.5	-32.2	11.4	1.09e-03	0	42	102	1048576	22	4414
2026-01-06 08:57:52.77	111.76	10.66	-30.4	-32.0	11.6	7.57e-04	0	42	102	1048576	22	4320
2026-01-06 08:57:53.78	111.67	10.74	-30.4	-32.1	11.5	8.41e-04	0	42	102	1048576	22	4363
2026-01-06 08:57:54.79	111.58	10.82	-30.4	-32.2	11.4	1.04e-03	0	42	102	1048576	22	4390
2026-01-06 08:57:55.79	111.49	10.90	-30.5	-32.2	11.4	7.19e-04	0	42	102	1048576	22	4413
2026-01-06 08:57:56.80	111.40	10.98	-30.5	-32.3	11.4	7.67e-04	0	42	102	1048576	22	4434
2026-01-06 08:57:57.80	111.30	11.06	-30.5	-32.3	11.4	1.13e-03	0	42	102	1048576	22	4424
2026-01-06 08:57:58.81	111.21	11.14	-30.5	-32.4	11.3	1.05e-03	0	42	102	1048576	22	4452
2026-01-06 08:57:59.82	111.11	11.22	-30.5	-32.2	11.5	1.19e-03	0	42	102	1048576	22	4390
2026-01-06 08:58:00.83	111.02	11.30	-30.4	-31.9	11.7	5.54e-04	0	42	102	1048576	22	4293
2026-01-06 08:58:01.84	110.92	11.38	-30.2	-32.0	12.0	4.59e-04	0	42	102	1048576	21	4418
2026-01-06 08:58:02.84	110.83	11.46	-30.4	-32.5	11.7	4.17e-04	0	42	102	1048576	21	4567
2026-01-06 08:58:03.85	110.73	11.54	-30.4	-32.5	11.6	4.49e-04	0	42	102	1048576	21	4589
2026-01-06 08:58:04.85	110.63	11.62	-30.4	-32.4	11.7	5.68e-04	0	42	102	1048576	21	4565
2026-01-06 08:58:05.86	110.54	11.70	-30.2	-31.8	12.1	3.68e-04	0	42	102	1048576	21	4353
2026-01-06 08:58:06.87	110.44	11.78	-30.1	-31.7	12.3	2.47e-04	0	42	102	1048576	21	4289
2026-01-06 08:58:07.88	110.34	11.86	-30.2	-32.0	12.1	3.56e-04	0	42	102	1048576	21	4390
2026-01-06 08:58:08.88	110.24	11.94	-30.1	-31.5	12.4	2.12e-04	0	42	102	1048576	21	4247
2026-01-06 08:58:09.89	110.14	12.03	-30.2	-31.9	12.2	2.37e-04	0	42	102	1048576	21	4365
2026-01-06 08:58:10.89	110.04	12.11	-30.3	-32.2	11.9	3.58e-04	0	42	102	1048576	21	4470
2026-01-06 08:58:11.90	109.94	12.19	-30.2	-32.0	12.1	3.03e-04	0	42	102	1048576	21	4388
2026-01-06 08:58:12.90	109.84	12.27	-30.4	-32.3	11.8	3.86e-04	0	42	102	1048576	21	4503
2026-01-06 08:58:13.91	109.73	12.35	-30.3	-32.1	12.0	4.37e-04	0	42	102	1048576	21	4435
2026-01-06 08:58:14.92	109.63	12.44	-30.2	-31.9	12.2	3.20e-04	0	42	102	1048576	21	4365
2026-01-06 08:58:15.93	109.53	12.52	-30.3	-32.1	12.1	2.62e-04	0	42	102	1048576	21	4421
2026-01-06 08:58:16.94	109.42	12.60	-30.4	-32.3	11.9	3.52e-04	0	42	102	1048576	21	4492
2026-01-06 08:58:17.95	109.32	12.69	-30.3	-32.0	12.1	2.28e-04	0	42	102	1048576	21	4399
2026-01-06 08:58:18.95	109.21	12.77	-30.3	-32.1	12.0	2.33e-04	0	42	102	1048576	21	4432
2026-01-06 08:58:19.95	109.11	12.85	-30.4	-32.3	11.9	2.67e-04	0	43	102	1048576	21	4493
2026-01-06 08:58:20.96	109.00	12.94	-30.4	-32.4	11.8	5.77e-04	0	43	102	1048576	21	4523
2026-01-06 08:58:21.96	108.89	13.02	-30.4	-32.5	11.8	6.81e-04	0	42	102	1048576	21	4576
2026-01-06 08:58:22.96	108.79	13.10	-30.4	-32.5	11.8	5.10e-04	0	42	102	1048576	21	4549
2026-01-06 08:58:23.97	108.68	13.19	-30.3	-32.2	12.0	2.38e-04	0	42	102	1048576	21	4459
2026-01-06 08:58:24.97	108.57	13.27	-30.4	-32.4	11.9	3.17e-04	0	42	102	1048576	21	4530
2026-01-06 08:58:25.97	108.46	13.35	-30.4	-32.4	11.9	3.83e-04	0	42	102	1048576	21	4516
2026-01-06 08:58:26.97	108.35	13.44	-30.4	-32.5	11.8	3.31e-04	0	43	102	1048576	21	4567
2026-01-06 08:58:27.98	108.24	13.52	-30.5	-32.8	11.6	4.81e-04	0	42	102	1048576	21	4691
2026-01-06 08:58:28.98	108.13	13.61	-30.4	-32.4	11.9	6.73e-04	0	42	102	1048576	21	4519
2026-01-06 08:58:29.98	108.02	13.69	-30.5	-32.7	11.7	7.10e-04	0	43	102	1048576	21	4626
2026-01-06 08:58:30.99	107.90	13.78	-30.6	-32.9	11.5	7.23e-04	0	42	102	1048576	21	4717
2026-01-06 08:58:31.99	107.79	13.86	-30.5	-32.6	11.7	4.99e-04	0	42	102	1048576	21	4600
2026-01-06 08:58:33.00	107.68	13.95	-30.5	-32.6	11.8	4.87e-04	0	42	102	1048576	21	4603
2026-01-06 08:58:34.01	107.56	14.04	-30.4	-32.3	12.0	3.06e-04	0	43	102	1048576	21	4473
2026-01-06 08:58:35.02	107.45	14.12	-30.4	-32.4	11.9	3.31e-04	0	42	102	1048576	21	4513
2026-01-06 08:58:36.02	107.33	14.21	-30.3	-32.1	12.2	3.17e-04	0	43	102	1048576	21	4426
2026-01-06 08:58:37.02	107.21	14.30	-30.1	-31.4	12.6	2.23e-04	0	43	102	1048576	21	4192
2026-01-06 08:58:38.03	107.10	14.38	-30.3	-32.1	12.2	2.35e-04	0	43	102	1048576	21	4423
2026-01-06 08:58:39.03	106.98	14.47	-30.4	-32.3	12.0	2.70e-04	0	43	102	1048576	21	4500
2026-01-06 08:58:40.04	106.86	14.56	-30.5	-32.6	11.8	3.42e-04	0	42	102	1048576	21	4601
2026-01-06 08:58:41.05	106.74	14.64	-30.7	-33.2	11.4	7.19e-04	0	43	102	1048576	21	4793
2026-01-06 08:58:42.05	106.62	14.73	-30.4	-32.3	12.0	4.85e-04	0	42	102	1048576	21	4470
2026-01-06 08:58:43.05	106.50	14.82	-30.2	-31.8	12.4	1.02e-04	0	43	102	1048576	21	4304
2026-01-06 08:58:44.06	106.38	14.91	-30.1	-31.5	12.7	9.53e-05	0	43	102	1048576	21	4204
2026-01-06 08:58:45.07	106.25	14.99	-29.7	-30.9	13.4	5.79e-05	0	43	102	1048576	20	4108
2026-01-06 08:58:46.08	106.13	15.08	-30.0	-31.5	13.0	3.50e-05	0	42	102	1048576	20	4309
2026-01-06 08:58:47.08	106.01	15.17	-30.0	-31.6	12.9	4.73e-05	0	43	102	1048576	20	4334
2026-01-06 08:58:48.09	105.88	15.26	-30.0	-31.7	12.9	1.83e-05	0	43	102	1048576	20	4353
2026-01-06 08:58:49.09	105.76	15.35	-30.2	-32.1	12.6	5.41e-05	0	43	102	1048576	20	4499
2026-01-06 08:58:50.08	105.63	15.44	-30.2	-32.3	12.4	1.17e-04	0	43	102	1048576	20	4565
2026-01-06 08:58:51.08	105.51	15.52	-30.3	-32.6	12.3	2.04e-04	0	43	102	1048576	20	4668
2026-01-06 08:58:52.09	105.38	15.61	-30.2	-32.3	12.5	1.49e-04	0	43	102	1048576	20	4562
2026-01-06 08:58:53.10	105.25	15.70	-29.8	-31.2	13.2	9.38e-05	0	43	102	1048576	20	4210
2026-01-06 08:58:54.11	105.12	15.79	-30.2	-32.3	12.5	1.28e-04	0	43	102	1048576	20	4557
2026-01-06 08:58:55.12	104.99	15.88	-30.2	-32.3	12.5	1.04e-04	0	43	102	1048576	20	4588
2026-01-06 08:58:56.12	104.86	15.97	-30.4	-32.9	12.1	1.08e-04	0	43	102	1048576	20	4771
2026-01-06 08:58:57.13	104.72	16.06	-30.8	-33.5	11.3	4.94e-04	0	43	102	1048576	21	4897
2026-01-06 08:58:58.13	104.59	16.15	-30.7	-33.3	11.5	1.02e-03	0	43	102	1048576	21	4813
2026-01-06 08:58:59.14	104.46	16.25	-30.8	-33.4	11.4	9.67e-04	0	43	102	1048576	21	4868
2026-01-06 08:59:00.15	104.32	16.34	-30.6	-32.9	11.7	6.73e-04	0	43	102	1048576	21	4695
2026-01-06 08:59:01.16	104.19	16.43	-30.3	-31.9	12.4	2.17e-04	0	43	102	1048576	21	4342
2026-01-06 08:59:02.16	104.05	16.52	-30.5	-32.5	12.1	2.36e-04	0	43	102	1048576	21	4551
2026-01-06 08:59:03.17	103.91	16.61	-30.6	-32.7	11.9	3.29e-04	0	43	102	1048576	21	4617
2026-01-06 08:59:04.18	103.78	16.70	-30.6	-32.9	11.7	3.31e-04	0	43	102	1048576	21	4694
2026-01-06 08:59:05.19	103.64	16.79	-30.9	-33.8	11.2	1.23e-03	0	43	102	1048576	21	5017
2026-01-06 08:59:06.20	103.50	16.89	-30.8	-33.3	11.4	1.32e-03	0	43	102	1048576	21	4825
2026-01-06 08:59:07.20	103.36	16.98	-30.9	-33.7	11.3	9.71e-04	0	43	102	1048576	21	4977
2026-01-06 08:59:08.20	103.22	17.07	-30.9	-33.7	11.2	1.59e-03	0	43	102	1048576	21	4980
2026-01-06 08:59:09.21	103.08	17.16	-30.6	-32.7	12.0	6.28e-04	0	43	102	1048576	21	4607
2026-01-06 08:59:10.22	102.93	17.26	-30.6	-32.9	11.8	3.23e-04	0	43	102	1048576	21	4675
2026-01-06 08:59:11.22	102.79	17.35	-30.8	-33.4	11.5	7.31e-04	0	43	102	1048576	21	4862
2026-01-06 08:59:12.22	102.64	17.44	-30.6	-32.9	11.8	3.47e-04	0	43	102	1048576	21	4686
2026-01-06 08:59:13.22	102.50	17.53	-30.6	-32.8	11.9	4.39e-04	0	43	102	1048576	21	4638
2026-01-06 08:59:14.23	102.35	17.63	-30.8	-33.3	11.6	6.01e-04	0	43	102	1048576	21	4804
2026-01-06 08:59:15.24	102.20	17.72	-30.9	-33.7	11.3	9.67e-04	0	43	102	1048576	21	4953
2026-01-06 08:59:16.25	102.06	17.81	-30.9	-33.7	11.3	1.36e-03	0	43	102	1048576	21	4970
2026-01-06 08:59:17.26	101.91	17.91	-30.7	-33.0	11.8	4.32e-04	0	43	102	1048576	21	4702
2026-01-06 08:59:18.26	101.76	18.00	-30.4	-32.2	12.4	3.02e-04	0	43	102	1048576	21	4428
2026-01-06 08:59:19.26	101.61	18.09	-30.4	-32.1	12.4	1.51e-04	0	43	102	1048576	21	4383
2026-01-06 08:59:20.27	101.45	18.19	-30.2	-31.7	12.7	9.68e-05	0	43	102	1048576	21	4276
2026-01-06 08:59:21.27	101.30	18.28	-30.4	-32.1	12.4	1.45e-04	0	43	102	1048576	21	4401
2026-01-06 08:59:22.28	101.15	18.38	-30.4	-32.2	12.4	1.36e-04	0	43	102	1048576	21	4412
2026-01-06 08:59:23.29	100.99	18.47	-30.8	-33.3	11.6	5.22e-04	0	43	102	1048576	21	4802
2026-01-06 08:59:24.29	100.84	18.57	-30.5	-32.6	12.1	2.81e-04	0	43	102	1048576	21	4549
2026-01-06 08:59:25.30	100.68	18.66	-30.3	-31.8	12.7	8.69e-05	0	43	102	1048576	21	4279
2026-01-06 08:59:26.31	100.52	18.76	-30.1	-31.3	13.0	4.50e-05	0	43	102	1048576	21	4120
2026-01-06 08:59:27.31	100.36	18.85	-30.0	-30.9	13.3	2.05e-05	0	43	102	1048576	21	4021
2026-01-06 08:59:28.32	100.20	18.95	-29.9	-31.3	13.3	2.36e-05	0	43	102	1048576	20	4234
2026-01-06 08:59:29.33	100.04	19.04	-30.0	-31.7	13.0	2.13e-05	0	43	102	1048576	20	4357
2026-01-06 08:59:30.34	99.88	19.14	-30.0	-31.5	13.1	4.65e-05	0	43	102	1048576	20	4314
2026-01-06 08:59:31.35	99.71	19.23	-30.0	-31.7	13.1	3.96e-05	0	43	102	1048576	20	4365
2026-01-06 08:59:32.35	99.55	19.33	-30.1	-32.0	12.8	3.96e-05	0	43	102	1048576	20	4478
2026-01-06 08:59:33.35	99.39	19.42	-30.3	-32.5	12.5	6.25e-05	0	43	102	1048576	20	4643
2026-01-06 08:59:34.35	99.22	19.52	-30.2	-32.1	12.7	7.40e-05	0	43	102	1048576	20	4504
2026-01-06 08:59:35.35	99.05	19.62	-30.2	-32.3	12.6	6.86e-05	0	43	102	1048576	20	4570
2026-01-06 08:59:36.36	98.88	19.71	-30.2	-32.3	12.7	6.48e-05	0	43	102	1048576	20	4555
2026-01-06 08:59:37.37	98.71	19.81	-30.2	-32.1	12.7	7.09e-05	0	43	102	1048576	20	4500
2026-01-06 08:59:38.37	98.55	19.90	-30.0	-31.6	13.1	3.89e-05	0	43	102	1048576	20	4340
2026-01-06 08:59:39.37	98.37	20.00	-29.8	-31.3	13.3	1.90e-05	0	43	102	1048576	20	4238
2026-01-06 08:59:40.37	98.20	20.10	-29.8	-31.1	13.4	1.67e-05	0	43	102	1048576	20	4193
2026-01-06 08:59:41.39	98.03	20.19	-29.8	-31.1	13.4	1.52e-05	0	43	102	1048576	20	4194
2026-01-06 08:59:42.40	97.85	20.29	-29.6	-30.5	13.8	8.30e-06	0	43	102	1048576	20	4004
2026-01-06 08:59:43.40	97.68	20.39	-29.5	-30.2	14.0	7.00e-07	0	43	102	1048576	20	3936
2026-01-06 08:59:44.40	97.50	20.48	-29.6	-30.7	13.7	5.30e-06	0	43	102	1048576	20	4065
2026-01-06 08:59:45.41	97.32	20.58	-29.6	-30.7	13.7	3.80e-06	0	43	102	1048576	20	4058
2026-01-06 08:59:46.42	97.14	20.68	-29.6	-30.6	13.7	6.10e-06	0	43	102	1048576	20	4033
2026-01-06 08:59:47.41	96.96	20.77	-29.5	-30.3	14.0	4.50e-06	0	43	102	1048576	20	3942
2026-01-06 08:59:48.42	96.78	20.87	-29.5	-30.2	14.0	2.20e-06	0	43	102	1048576	20	3919
2026-01-06 08:59:49.43	96.60	20.97	-29.7	-30.8	13.7	4.50e-06	0	43	102	1048576	20	4079
2026-01-06 08:59:50.44	96.41	21.07	-29.9	-31.2	13.4	1.37e-05	0	43	102	1048576	20	4222
2026-01-06 08:59:51.44	96.23	21.16	-30.0	-31.7	13.1	2.59e-05	0	43	102	1048576	20	4366
2026-01-06 08:59:52.46	96.04	21.26	-30.2	-32.2	12.8	3.73e-05	0	43	102	1048576	20	4529
2026-01-06 08:59:53.46	95.85	21.36	-30.3	-32.4	12.6	7.40e-05	0	43	102	1048576	20	4607
2026-01-06 08:59:54.46	95.67	21.46	-30.2	-32.2	12.8	5.72e-05	0	43	102	1048576	20	4518
2026-01-06 08:59:55.47	95.47	21.56	-30.2	-32.0	13.0	4.73e-05	0	43	102	1048576	20	4450
2026-01-06 08:59:56.47	95.28	21.65	-30.2	-32.0	12.9	8.31e-05	0	43	102	1048576	20	4453
2026-01-06 08:59:57.48	95.09	21.75	-30.0	-31.5	13.3	2.51e-05	0	43	102	1048576	20	4276
2026-01-06 08:59:58.48	94.90	21.85	-30.0	-31.4	13.3	2.21e-05	0	43	102	1048576	20	4270
2026-01-06 08:59:59.48	94.70	21.95	-29.9	-31.3	13.5	1.83e-05	0	43	102	1048576	20	4219
2026-01-06 09:00:00.50	94.51	22.04	-30.0	-31.5	13.4	1.52e-05	0	43	102	1048576	20	4279
2026-01-06 09:00:01.49	94.31	22.14	-29.9	-31.4	13.4	1.37e-05	0	43	102	1048576	20	4242
2026-01-06 09:00:02.50	94.11	22.24	-29.9	-31.2	13.4	1.22e-05	0	43	102	1048576	20	4200
2026-01-06 09:00:03.51	93.91	22.34	-29.8	-30.9	13.7	9.90e-06	0	43	102	1048576	20	4117
2026-01-06 09:00:04.52	93.71	22.44	-29.9	-31.1	13.6	1.22e-05	0	43	102	1048576	20	4168
2026-01-06 09:00:05.52	93.51	22.53	-30.0	-31.6	13.3	9.10e-06	0	43	102	1048576	20	4318
2026-01-06 09:00:06.53	93.30	22.63	-30.0	-31.5	13.3	2.13e-05	0	43	102	1048576	20	4290
2026-01-06 09:00:07.53	93.10	22.73	-30.0	-31.5	13.3	2.82e-05	0	43	102	1048576	20	4290
2026-01-06 09:00:08.54	92.89	22.83	-30.3	-32.4	12.8	4.57e-05	0	43	102	1048576	20	4570
2026-01-06 09:00:09.54	92.69	22.92	-30.2	-32.1	13.0	3.66e-05	0	43	102	1048576	20	4466
2026-01-06 09:00:10.55	92.48	23.02	-30.4	-32.6	12.6	3.73e-05	0	43	102	1048576	20	4639
2026-01-06 09:00:11.56	92.26	23.12	-30.2	-32.0	13.0	5.26e-05	0	43	102	1048576	20	4445
2026-01-06 09:00:12.57	92.05	23.22	-30.1	-31.8	13.1	2.59e-05	0	43	102	1048576	20	4390
2026-01-06 09:00:13.57	91.84	23.31	-30.1	-31.7	13.2	4.57e-05	0	43	102	1048576	20	4345
2026-01-06 09:00:14.58	91.63	23.41	-30.2	-32.2	12.9	3.81e-05	0	43	102	1048576	20	4500
2026-01-06 09:00:15.59	91.41	23.51	-30.4	-32.7	12.6	5.87e-05	0	43	102	1048576	20	4703
2026-01-06 09:00:16.60	91.19	23.61	-30.4	-32.7	12.6	6.56e-05	0	43	102	1048576	20	4696
2026-01-06 09:00:17.60	90.97	23.70	-30.4	-32.7	12.6	7.85e-05	0	43	102	1048576	20	4690
2026-01-06 09:00:18.61	90.75	23.80	-30.3	-31.9	12.8	1.20e-04	0	43	102	1048576	21	4319
2026-01-06 09:00:19.61	90.53	23.90	-30.8	-33.2	11.9	1.87e-04	0	43	102	1048576	21	4765
2026-01-06 09:00:20.62	90.31	24.00	-30.6	-32.8	12.2	3.41e-04	0	43	102	1048576	21	4606
2026-01-06 09:00:21.63	90.09	24.09	-30.3	-31.9	12.7	7.62e-05	0	43	102	1048576	21	4295
2026-01-06 09:00:22.64	89.86	24.19	-30.2	-31.4	13.1	4.19e-05	0	43	102	1048576	21	4164
2026-01-06 09:00:23.64	89.63	24.29	-29.9	-30.8	13.5	2.51e-05	0	43	102	1048576	21	3965
2026-01-06 09:00:24.65	89.40	24.38	-30.0	-31.1	13.3	1.06e-05	0	43	102	1048576	21	4054
2026-01-06 09:00:25.65	89.18	24.48	-29.9	-30.6	13.7	6.80e-06	0	43	102	1048576	21	3913
2026-01-06 09:00:26.66	88.94	24.58	-29.7	-30.7	13.9	7.00e-07	0	43	102	1048576	20	4039
2026-01-06 09:00:27.68	88.71	24.67	-29.7	-30.7	13.9	2.20e-06	0	43	102	1048576	20	4034
2026-01-06 09:00:28.68	88.48	24.77	-29.6	-30.5	14.0	3.80e-06	0	43	102	1048576	20	3977
2026-01-06 09:00:29.69	88.24	24.86	-29.6	-30.3	14.1	2.20e-06	0	43	102	1048576	20	3938
2026-01-06 09:00:30.69	88.00	24.96	-29.6	-30.3	14.1	1.50e-06	0	43	102	1048576	20	3921
2026-01-06 09:00:31.69	87.77	25.05	-29.4	-29.8	14.5	7.00e-07	0	43	102	1048576	20	3779
2026-01-06 09:00:32.70	87.53	25.15	-29.3	-30.1	14.7	0.00e+00	0	43	102	1048576	19	3948
2026-01-06 09:00:33.71	87.29	25.24	-29.4	-30.4	14.5	0.00e+00	0	43	102	1048576	19	4044
2026-01-06 09:00:34.71	87.04	25.34	-29.5	-30.7	14.2	7.00e-07	0	43	102	1048576	19	4140
2026-01-06 09:00:35.72	86.80	25.43	-29.6	-30.8	14.2	7.00e-07	0	43	102	1048576	19	4160
2026-01-06 09:00:36.72	86.56	25.53	-29.6	-30.8	14.2	0.00e+00	0	43	102	1048576	19	4167
2026-01-06 09:00:37.73	86.31	25.62	-29.7	-31.1	14.0	2.20e-06	0	43	102	1048576	19	4243
2026-01-06 09:00:38.73	86.06	25.71	-29.7	-31.1	14.0	3.80e-06	0	43	102	1048576	19	4253
2026-01-06 09:00:39.73	85.81	25.81	-29.9	-31.7	13.6	3.00e-06	0	43	102	1048576	19	4447
2026-01-06 09:00:40.75	85.56	25.90	-29.8	-31.1	13.6	6.10e-06	0	43	102	1048576	20	4173
2026-01-06 09:00:41.75	85.31	25.99	-29.9	-31.3	13.5	1.44e-05	0	43	102	1048576	20	4237
2026-01-06 09:00:42.76	85.05	26.09	-30.0	-31.7	13.2	1.60e-05	0	43	102	1048576	20	4361
2026-01-06 09:00:43.77	84.79	26.18	-30.0	-31.6	13.3	2.05e-05	0	43	102	1048576	20	4328
2026-01-06 09:00:44.78	84.54	26.27	-29.9	-31.3	13.5	1.60e-05	0	43	102	1048576	20	4237
2026-01-06 09:00:45.79	84.28	26.36	-29.9	-31.2	13.7	7.60e-06	0	43	102	1048576	20	4182
2026-01-06 09:00:46.80	84.01	26.45	-29.8	-30.9	13.8	3.80e-06	0	43	102	1048576	20	4108
2026-01-06 09:00:47.81	83.75	26.55	-29.8	-31.0	13.7	3.80e-06	0	43	102	1048576	20	4132
2026-01-06 09:00:48.81	83.49	26.64	-29.8	-30.9	13.8	1.06e-05	0	43	102	1048576	20	4099
2026-01-06 09:00:49.82	83.22	26.73	-29.7	-30.8	13.8	3.80e-06	0	43	102	1048576	20	4061
2026-01-06 09:00:50.82	82.96	26.82	-30.0	-31.4	13.5	1.06e-05	0	43	102	1048576	20	4250
2026-01-06 09:00:51.83	82.69	26.91	-29.8	-31.1	13.7	1.06e-05	0	43	102	1048576	20	4147
2026-01-06 09:00:52.83	82.42	26.99	-30.2	-31.9	13.1	7.60e-06	0	43	102	1048576	20	4421
2026-01-06 09:00:53.84	82.15	27.08	-30.1	-31.7	13.3	2.36e-05	0	43	102	1048576	20	4347
2026-01-06 09:00:54.84	81.88	27.17	-30.1	-31.8	13.2	1.75e-05	0	43	102	1048576	20	4386
2026-01-06 09:00:55.84	81.61	27.26	-30.0	-31.4	13.5	1.29e-05	0	43	102	1048576	20	4245
2026-01-06 09:00:56.86	81.33	27.35	-30.0	-31.4	13.5	9.10e-06	0	43	102	1048576	20	4254
2026-01-06 09:00:57.86	81.05	27.43	-29.8	-31.1	13.8	5.30e-06	0	43	102	1048576	20	4141
2026-01-06 09:00:58.87	80.77	27.52	-29.7	-30.7	14.0	3.00e-06	0	43	102	1048576	20	4027
2026-01-06 09:00:59.87	80.50	27.60	-30.0	-31.4	13.5	3.00e-06	0	43	102	1048576	20	4243
2026-01-06 09:01:00.88	80.21	27.69	-29.9	-31.2	13.7	6.10e-06	0	43	102	1048576	20	4190
2026-01-06 09:01:01.89	79.93	27.77	-30.2	-32.0	13.1	1.44e-05	0	43	102	1048576	20	4452
2026-01-06 09:01:02.89	79.65	27.86	-30.3	-32.4	12.9	4.11e-05	0	43	102	1048576	20	4584
2026-01-06 09:01:03.90	79.36	27.94	-30.7	-32.9	12.2	1.08e-04	0	43	102	1048576	21	4669
2026-01-06 09:01:04.90	79.07	28.03	-30.5	-32.3	12.5	1.75e-04	0	43	102	1048576	21	4448
2026-01-06 09:01:05.91	78.78	28.11	-30.5	-32.5	12.5	7.93e-05	0	43	102	1048576	21	4517
2026-01-06 09:01:06.92	78.49	28.19	-30.8	-33.3	11.9	2.22e-04	0	43	102	1048576	21	4783
2026-01-06 09:01:07.93	78.20	28.27	-30.6	-32.7	12.4	1.82e-04	0	43	102	1048576	21	4560
2026-01-06 09:01:08.93	77.91	28.35	-30.6	-32.7	12.5	9.91e-05	0	43	102	1048576	21	4568
2026-01-06 09:01:09.94	77.61	28.43	-30.6	-32.8	12.4	1.03e-04	0	43	102	1048576	21	4611
2026-01-06 09:01:10.95	77.31	28.51	-30.6	-32.6	12.4	1.60e-04	0	43	102	1048576	21	4529
2026-01-06 09:01:11.95	77.02	28.59	-30.6	-32.7	12.4	1.20e-04	0	43	102	1048576	21	4570
2026-01-06 09:01:12.96	76.72	28.67	-30.7	-33.0	12.2	1.14e-04	0	43	102	1048576	21	4668
2026-01-06 09:01:13.97	76.41	28.75	-30.5	-32.3	12.7	6.40e-05	0	43	102	1048576	21	4418
2026-01-06 09:01:14.97	76.11	28.83	-30.4	-32.0	12.8	4.88e-05	0	43	102	1048576	21	4343
2026-01-06 09:01:15.98	75.81	28.90	-30.3	-31.6	13.1	3.96e-05	0	43	102	1048576	21	4225
2026-01-06 09:01:16.99	75.50	28.98	-30.3	-31.7	13.0	3.20e-05	0	43	102	1048576	21	4236
2026-01-06 09:01:17.99	75.20	29.05	-30.3	-31.9	12.9	4.34e-05	0	43	102	1048576	21	4331
2026-01-06 09:01:19.00	74.89	29.13	-30.6	-32.6	12.4	3.20e-05	0	43	102	1048576	21	4549
2026-01-06 09:01:20.00	74.58	29.20	-30.7	-33.0	12.1	2.08e-04	0	43	102	1048576	21	4714
2026-01-06 09:01:21.01	74.27	29.27	-30.7	-33.1	12.1	3.36e-04	0	43	102	1048576	21	4730
2026-01-06 09:01:22.01	73.96	29.34	-30.4	-32.2	12.6	1.54e-04	0	43	102	1048576	21	4428
2026-01-06 09:01:23.02	73.64	29.42	-30.2	-31.7	13.0	5.34e-05	0	43	102	1048576	21	4253
2026-01-06 09:01:24.02	73.33	29.49	-30.4	-32.1	12.7	3.58e-05	0	43	102	1048576	21	4389
2026-01-06 09:01:25.03	73.01	29.56	-30.3	-31.9	13.0	3.50e-05	0	43	102	1048576	21	4310
2026-01-06 09:01:26.04	72.69	29.62	-30.3	-31.9	12.9	2.74e-05	0	43	102	1048576	21	4313
2026-01-06 09:01:27.05	72.37	29.69	-30.2	-31.6	13.1	2.51e-05	0	43	102	1048576	21	4225
2026-01-06 09:01:28.05	72.05	29.76	-30.4	-32.2	12.7	5.87e-05	0	43	102	1048576	21	4394
2026-01-06 09:01:29.06	71.73	29.83	-30.3	-31.7	13.0	3.96e-05	0	43	102	1048576	21	4264
2026-01-06 09:01:30.06	71.41	29.89	-30.2	-31.5	13.1	2.74e-05	0	43	102	1048576	21	4191
2026-01-06 09:01:31.07	71.08	29.96	-30.1	-31.2	13.3	1.83e-05	0	43	102	1048576	21	4106
2026-01-06 09:01:32.07	70.76	30.02	-30.1	-31.2	13.4	7.60e-06	0	43	102	1048576	21	4085
2026-01-06 09:01:33.08	70.43	30.08	-30.0	-30.9	13.6	9.90e-06	0	43	102	1048576	21	4010
2026-01-06 09:01:34.09	70.10	30.14	-30.3	-31.8	13.0	2.89e-05	0	43	102	1048576	21	4269
2026-01-06 09:01:35.10	69.77	30.21	-30.5	-32.3	12.6	6.17e-05	0	43	102	1048576	21	4447
2026-01-06 09:01:36.10	69.44	30.26	-30.6	-32.8	12.3	9.07e-05	0	43	102	1048576	21	4610
2026-01-06 09:01:37.11	69.11	30.32	-30.8	-33.2	12.0	2.35e-04	0	43	102	1048576	21	4784
2026-01-06 09:01:38.12	68.77	30.38	-30.6	-32.7	12.4	1.28e-04	0	43	102	1048576	21	4589
2026-01-06 09:01:39.12	68.44	30.44	-30.3	-31.9	12.9	1.01e-04	0	43	102	1048576	21	4325
2026-01-06 09:01:40.13	68.11	30.50	-30.2	-31.6	13.2	2.44e-05	0	43	102	1048576	21	4207
2026-01-06 09:01:41.14	67.77	30.55	-30.4	-32.0	12.8	4.19e-05	0	43	102	1048576	21	4351
2026-01-06 09:01:42.14	67.43	30.60	-30.3	-31.7	13.1	3.50e-05	0	43	102	1048576	21	4231
2026-01-06 09:01:43.14	67.09	30.66	-30.0	-31.0	13.6	2.13e-05	0	43	102	1048576	21	4036
2026-01-06 09:01:44.15	66.75	30.71	-29.8	-31.1	13.8	5.30e-06	0	43	102	1048576	20	4144
2026-01-06 09:01:45.16	66.41	30.76	-29.6	-30.3	14.3	2.20e-06	0	43	102	1048576	20	3902
2026-01-06 09:01:46.17	66.07	30.81	-29.7	-30.5	14.2	4.50e-06	0	43	102	1048576	20	3982
2026-01-06 09:01:47.18	65.72	30.86	-29.9	-31.2	13.7	5.30e-06	0	43	102	1048576	20	4185
2026-01-06 09:01:48.17	65.38	30.91	-30.0	-31.4	13.6	7.60e-06	0	43	102	1048576	20	4248
2026-01-06 09:01:49.18	65.04	30.95	-30.4	-32.6	12.9	1.90e-05	0	43	102	1048576	20	4628
2026-01-06 09:01:50.19	64.69	31.00	-30.6	-32.8	12.4	9.99e-05	0	43	102	1048576	21	4619
2026-01-06 09:01:51.19	64.34	31.04	-31.0	-33.9	11.6	2.78e-04	0	43	102	1048576	21	5025
2026-01-06 09:01:52.20	63.99	31.09	-31.0	-33.5	11.5	5.61e-04	0	43	102	1048576	22	4771
2026-01-06 09:01:53.21	63.64	31.13	-31.1	-33.9	11.2	1.43e-03	0	43	102	1048576	22	4946
2026-01-06 09:01:54.21	63.30	31.17	-31.0	-33.5	11.6	1.17e-03	0	43	102	1048576	22	4796
2026-01-06 09:01:55.22	62.94	31.21	-30.8	-32.8	12.0	3.64e-04	0	43	102	1048576	22	4517
2026-01-06 09:01:56.23	62.59	31.25	-30.8	-32.6	12.2	2.62e-04	0	43	102	1048576	22	4434
2026-01-06 09:01:57.24	62.24	31.29	-31.1	-33.6	11.4	8.52e-04	0	43	102	1048576	22	4814
2026-01-06 09:01:58.24	61.89	31.32	-31.2	-33.9	11.3	6.87e-04	0	43	102	1048576	22	4900
2026-01-06 09:01:59.25	61.53	31.36	-31.3	-34.1	11.1	1.80e-03	0	43	102	1048576	22	4978
2026-01-06 09:02:00.26	61.17	31.39	-31.1	-33.7	11.4	1.34e-03	0	43	102	1048576	22	4850
2026-01-06 09:02:01.27	60.82	31.42	-30.8	-32.8	12.0	4.02e-04	0	43	102	1048576	22	4521
2026-01-06 09:02:02.27	60.46	31.45	-30.6	-32.2	12.5	1.93e-04	0	43	102	1048576	22	4298
2026-01-06 09:02:03.28	60.10	31.49	-30.8	-32.5	12.3	2.37e-04	0	43	102	1048576	22	4412
2026-01-06 09:02:04.28	59.75	31.51	-30.7	-32.4	12.4	1.48e-04	0	43	102	1048576	22	4375
2026-01-06 09:02:05.29	59.39	31.54	-30.5	-31.8	12.8	1.26e-04	0	43	102	1048576	22	4170
2026-01-06 09:02:06.30	59.03	31.57	-30.8	-32.7	12.2	1.41e-04	0	43	102	1048576	22	4486
2026-01-06 09:02:07.30	58.67	31.59	-31.1	-33.6	11.5	6.15e-04	0	43	102	1048576	22	4813
2026-01-06 09:02:08.31	58.31	31.62	-30.9	-33.0	11.9	7.27e-04	0	43	102	1048576	22	4590
2026-01-06 09:02:09.31	57.95	31.64	-30.8	-32.7	12.0	5.15e-04	0	43	102	1048576	22	4484
2026-01-06 09:02:10.32	57.59	31.66	-30.5	-31.9	12.6	1.41e-04	0	43	102	1048576	22	4204
2026-01-06 09:02:11.33	57.23	31.68	-30.5	-31.7	12.9	7.09e-05	0	43	102	1048576	22	4139
2026-01-06 09:02:12.34	56.86	31.70	-30.6	-32.1	12.5	1.24e-04	0	43	102	1048576	22	4289
2026-01-06 09:02:13.34	56.50	31.72	-30.9	-32.9	12.0	2.49e-04	0	43	102	1048576	22	4536
2026-01-06 09:02:14.35	56.14	31.74	-31.2	-33.7	11.4	7.98e-04	0	43	102	1048576	22	4848
2026-01-06 09:02:15.36	55.77	31.75	-30.9	-33.0	11.9	6.57e-04	0	43	102	1048576	22	4594
2026-01-06 09:02:16.36	55.41	31.76	-30.6	-32.1	12.5	2.22e-04	0	43	102	1048576	22	4296
2026-01-06 09:02:17.36	55.05	31.78	-30.6	-32.1	12.6	1.28e-04	0	43	102	1048576	22	4276
2026-01-06 09:02:18.37	54.69	31.79	-30.6	-32.0	12.6	1.56e-04	0	43	102	1048576	22	4237
2026-01-06 09:02:19.36	54.33	31.80	-30.7	-32.5	12.3	2.32e-04	0	43	102	1048576	22	4423
2026-01-06 09:02:20.37	53.96	31.81	-31.0	-33.3	11.7	4.96e-04	0	43	102	1048576	22	4684
2026-01-06 09:02:21.38	53.60	31.81	-31.0	-33.2	11.8	5.54e-04	0	43	102	1048576	22	4644
2026-01-06 09:02:22.39	53.23	31.82	-31.0	-33.2	11.8	3.91e-04	0	43	102	1048576	22	4675
2026-01-06 09:02:23.40	52.86	31.82	-31.0	-33.3	11.8	5.36e-04	0	43	102	1048576	22	4694
2026-01-06 09:02:24.41	52.50	31.83	-30.9	-33.1	11.9	6.30e-04	0	43	102	1048576	22	4616
2026-01-06 09:02:25.42	52.13	31.83	-30.8	-32.7	12.2	5.08e-04	0	43	102	1048576	22	4470
2026-01-06 09:02:26.42	51.77	31.83	-30.6	-32.1	12.5	3.26e-04	0	43	102	1048576	22	4272
2026-01-06 09:02:27.42	51.41	31.83	-30.5	-31.9	12.7	1.04e-04	0	43	102	1048576	22	4190
2026-01-06 09:02:28.43	51.04	31.83	-30.5	-31.6	12.9	6.71e-05	0	43	102	1048576	22	4119
2026-01-06 09:02:29.44	50.67	31.83	-30.7	-32.2	12.5	5.18e-05	0	43	102	1048576	22	4309
2026-01-06 09:02:30.45	50.31	31.82	-30.8	-32.5	12.3	2.62e-04	0	43	102	1048576	22	4397
2026-01-06 09:02:31.44	49.95	31.82	-30.8	-32.7	12.2	1.89e-04	0	43	102	1048576	22	4459
2026-01-06 09:02:32.45	49.58	31.81	-31.1	-33.6	11.6	5.26e-04	0	43	102	1048576	22	4800
2026-01-06 09:02:33.46	49.22	31.80	-31.5	-34.7	10.9	2.03e-03	0	43	102	1048576	22	5199
2026-01-06 09:02:34.47	48.85	31.79	-31.5	-34.3	10.7	3.59e-03	0	43	102	1048576	23	4973
2026-01-06 09:02:35.48	48.49	31.78	-31.4	-34.0	10.8	3.17e-03	0	43	102	1048576	23	4859
2026-01-06 09:02:36.48	48.13	31.77	-31.4	-33.9	11.0	1.94e-03	0	43	102	1048576	23	4803
2026-01-06 09:02:37.48	47.76	31.75	-31.5	-34.1	10.8	5.21e-03	0	43	102	1048576	23	4858
2026-01-06 09:02:38.49	47.40	31.74	-31.4	-33.8	11.0	2.53e-03	0	43	102	1048576	23	4769
2026-01-06 09:02:39.50	47.04	31.72	-31.3	-33.6	11.2	1.78e-03	0	43	102	1048576	23	4705
2026-01-06 09:02:40.50	46.68	31.70	-31.2	-33.3	11.5	7.63e-04	0	43	102	1048576	23	4577
2026-01-06 09:02:41.51	46.31	31.69	-31.0	-32.7	11.8	4.99e-04	0	43	102	1048576	23	4371
2026-01-06 09:02:42.51	45.95	31.67	-30.8	-32.7	12.2	3.90e-04	0	43	102	1048576	22	4452
2026-01-06 09:02:43.52	45.59	31.64	-30.8	-32.6	12.2	2.76e-04	0	43	102	1048576	22	4422
2026-01-06 09:02:44.52	45.23	31.62	-30.6	-31.9	12.6	1.23e-04	0	43	102	1048576	22	4223
2026-01-06 09:02:45.53	44.87	31.60	-30.3	-31.3	13.1	8.62e-05	0	43	102	1048576	22	4016
2026-01-06 09:02:46.54	44.51	31.57	-30.3	-31.7	13.0	2.05e-05	0	43	102	1048576	21	4246
2026-01-06 09:02:47.54	44.15	31.55	-30.5	-32.4	12.8	5.26e-05	0	43	102	1048576	21	4470
2026-01-06 09:02:48.54	43.80	31.52	-30.7	-32.9	12.3	1.14e-04	0	43	102	1048576	21	4625
2026-01-06 09:02:49.55	43.44	31.49	-30.7	-33.0	12.2	1.67e-04	0	43	102	1048576	21	4689
2026-01-06 09:02:50.56	43.08	31.46	-30.6	-32.8	12.3	1.67e-04	0	43	102	1048576	21	4609
2026-01-06 09:02:51.56	42.73	31.43	-30.7	-32.9	12.3	3.17e-04	0	43	102	1048576	21	4648
2026-01-06 09:02:52.57	42.37	31.40	-30.4	-32.0	12.9	1.74e-04	0	43	102	1048576	21	4342
2026-01-06 09:02:53.58	42.02	31.36	-30.3	-31.8	13.1	5.34e-05	0	43	102	1048576	21	4270
2026-01-06 09:02:54.59	41.66	31.33	-30.3	-31.8	12.9	4.04e-05	0	43	102	1048576	21	4283
2026-01-06 09:02:55.60	41.31	31.29	-30.5	-32.4	12.5	6.71e-05	0	43	102	1048576	21	4477
2026-01-06 09:02:56.60	40.96	31.25	-30.5	-32.5	12.5	1.37e-04	0	43	102	1048576	21	4514
2026-01-06 09:02:57.61	40.60	31.22	-30.6	-32.7	12.4	1.71e-04	0	43	102	1048576	21	4574
2026-01-06 09:02:58.62	40.25	31.18	-30.6	-32.5	12.5	1.84e-04	0	43	102	1048576	21	4510
2026-01-06 09:02:59.62	39.90	31.14	-30.4	-32.0	12.8	1.89e-04	0	43	102	1048576	21	4334
2026-01-06 09:03:00.63	39.55	31.09	-30.6	-32.5	12.5	1.14e-04	0	43	102	1048576	21	4505
2026-01-06 09:03:01.64	39.20	31.05	-30.6	-32.7	12.3	1.61e-04	0	43	102	1048576	21	4584
2026-01-06 09:03:02.64	38.86	31.01	-30.9	-33.4	11.9	2.10e-04	0	43	102	1048576	21	4821
2026-01-06 09:03:03.65	38.51	30.96	-31.2	-34.0	11.2	5.97e-04	0	43	102	1048576	22	4957
2026-01-06 09:03:04.66	38.17	30.91	-31.0	-33.3	11.6	1.94e-03	0	43	102	1048576	22	4678
2026-01-06 09:03:05.67	37.82	30.87	-30.5	-31.9	12.6	5.56e-04	0	43	102	1048576	22	4215
2026-01-06 09:03:06.68	37.48	30.82	-30.3	-31.4	12.9	6.86e-05	0	43	102	1048576	22	4072
2026-01-06 09:03:07.69	37.13	30.77	-30.2	-31.6	13.1	3.28e-05	0	43	102	1048576	21	4200
2026-01-06 09:03:08.69	36.79	30.72	-30.3	-31.7	13.0	3.50e-05	0	43	102	1048576	21	4253
2026-01-06 09:03:09.69	36.46	30.67	-30.2	-31.4	13.2	2.82e-05	0	43	102	1048576	21	4150
2026-01-06 09:03:10.70	36.12	30.61	-30.0	-30.8	13.6	2.36e-05	0	43	102	1048576	21	3970
2026-01-06 09:03:11.71	35.78	30.56	-30.0	-30.8	13.6	1.44e-05	0	43	102	1048576	21	3975
2026-01-06 09:03:12.72	35.44	30.51	-30.0	-30.9	13.5	1.29e-05	0	43	102	1048576	21	3992
2026-01-06 09:03:13.73	35.10	30.45	-30.1	-31.1	13.4	9.10e-06	0	43	102	1048576	21	4050
2026-01-06 09:03:14.73	34.77	30.39	-30.2	-31.4	13.3	2.28e-05	0	43	102	1048576	21	4139
2026-01-06 09:03:15.74	34.44	30.33	-30.3	-31.7	13.0	2.67e-05	0	43	102	1048576	21	4243
2026-01-06 09:03:16.75	34.10	30.28	-30.5	-32.2	12.7	7.55e-05	0	43	102	1048576	21	4413
2026-01-06 09:03:17.76	33.77	30.22	-30.8	-33.2	12.0	3.62e-04	0	43	102	1048576	21	4764
2026-01-06 09:03:18.77	33.44	30.16	-31.0	-33.3	11.7	8.32e-04	0	43	102	1048576	22	4706
2026-01-06 09:03:19.77	33.12	30.09	-30.9	-33.0	11.9	4.50e-04	0	43	102	1048576	22	4575
2026-01-06 09:03:20.78	32.79	30.03	-30.8	-32.8	12.0	3.25e-04	0	43	102	1048576	22	4534
2026-01-06 09:03:21.78	32.47	29.97	-31.0	-33.4	11.6	5.27e-04	0	43	102	1048576	22	4716
2026-01-06 09:03:22.79	32.14	29.90	-31.4	-34.8	10.6	1.96e-03	0	43	102	1048576	22	5287
2026-01-06 09:03:23.80	31.82	29.84	-31.6	-34.8	10.2	7.28e-03	0	43	102	1048576	23	5206
2026-01-06 09:03:24.80	31.50	29.77	-31.6	-35.0	10.1	1.16e-02	0	43	102	1048576	23	5285
2026-01-06 09:03:25.81	31.18	29.71	-31.6	-34.7	10.2	1.03e-02	0	43	102	1048576	23	5186
2026-01-06 09:03:26.81	30.86	29.64	-31.4	-34.1	10.6	3.65e-03	0	43	102	1048576	23	4926
2026-01-06 09:03:27.82	30.54	29.57	-31.2	-33.6	11.0	2.40e-03	0	43	102	1048576	23	4713
2026-01-06 09:03:28.83	30.22	29.50	-31.3	-33.8	10.9	1.89e-03	0	43	102	1048576	23	4801
2026-01-06 09:03:29.84	29.91	29.43	-31.1	-33.2	11.3	1.57e-03	0	43	102	1048576	23	4583
2026-01-06 09:03:30.84	29.60	29.36	-31.4	-34.2	10.6	2.71e-03	0	43	102	1048576	23	4953
2026-01-06 09:03:31.85	29.28	29.29	-31.4	-34.3	10.5	4.56e-03	0	43	102	1048576	23	5013
2026-01-06 09:03:32.86	28.97	29.21	-31.5	-34.5	10.6	3.50e-03	0	43	102	1048576	23	5083
2026-01-06 09:03:33.87	28.66	29.14	-31.4	-34.2	10.5	4.42e-03	0	43	102	1048576	23	4976
2026-01-06 09:03:34.88	28.35	29.07	-31.1	-33.1	11.5	2.24e-03	0	43	102	1048576	23	4524
2026-01-06 09:03:35.88	28.05	28.99	-30.7	-32.4	12.3	5.88e-04	0	43	102	1048576	22	4386
2026-01-06 09:03:36.89	27.74	28.92	-30.2	-31.6	13.1	7.78e-05	0	43	102	1048576	21	4208
2026-01-06 09:03:37.90	27.44	28.84	-29.7	-30.6	14.1	6.80e-06	0	43	102	1048576	20	3995
2026-01-06 09:03:38.91	27.14	28.76	-29.1	-29.7	15.0	1.50e-06	0	43	102	1048576	19	3828
2026-01-06 09:03:39.91	26.84	28.69	-29.3	-30.1	14.7	0.00e+00	0	43	102	1048576	19	3953
2026-01-06 09:03:40.91	26.54	28.61	-29.6	-30.8	14.3	0.00e+00	0	43	102	1048576	19	4158
2026-01-06 09:03:41.92	26.24	28.53	-29.5	-30.7	14.3	0.00e+00	0	43	102	1048576	19	4135
2026-01-06 09:03:42.93	25.95	28.45	-29.6	-31.0	14.2	7.00e-07	0	43	102	1048576	19	4196
2026-01-06 09:03:43.93	25.65	28.37	-30.0	-31.4	13.5	9.10e-06	0	43	102	1048576	20	4246
2026-01-06 09:03:44.93	25.36	28.29	-30.0	-31.5	13.5	9.90e-06	0	43	102	1048576	20	4276
2026-01-06 09:03:45.94	25.07	28.21	-30.7	-33.1	12.1	3.20e-05	0	43	102	1048576	21	4721
2026-01-06 09:03:46.95	24.78	28.13	-30.9	-33.7	11.7	3.55e-04	0	43	102	1048576	21	4948
2026-01-06 09:03:47.96	24.49	28.05	-31.0	-33.3	11.6	8.62e-04	0	43	102	1048576	22	4715
2026-01-06 09:03:48.96	24.20	27.96	-30.3	-31.7	13.0	2.62e-04	0	43	102	1048576	21	4247
2026-01-06 09:03:49.97	23.92	27.88	-29.9	-30.7	13.7	1.90e-05	0	43	102	1048576	21	3956
2026-01-06 09:03:50.97	23.64	27.80	-30.1	-31.2	13.4	1.22e-05	0	43	102	1048576	21	4109
2026-01-06 09:03:51.97	23.36	27.71	-30.6	-32.8	12.2	2.82e-05	0	43	102	1048576	21	4639
2026-01-06 09:03:52.98	23.07	27.63	-31.1	-33.8	11.2	9.46e-04	0	43	102	1048576	22	4907
2026-01-06 09:03:53.98	22.80	27.54	-31.7	-35.2	9.8	6.34e-03	0	43	102	1048576	23	5404
2026-01-06 09:03:54.99	22.52	27.46	-31.7	-35.3	9.7	1.16e-02	0	43	102	1048576	23	5452
2026-01-06 09:03:55.99	22.24	27.37	-31.7	-35.2	9.9	1.13e-02	0	43	102	1048576	23	5381
2026-01-06 09:03:57.00	21.97	27.28	-31.4	-34.2	10.6	7.31e-03	0	43	102	1048576	23	4955
2026-01-06 09:03:58.01	21.69	27.19	-31.2	-33.5	11.1	2.12e-03	0	43	102	1048576	23	4691
2026-01-06 09:03:59.02	21.42	27.11	-30.9	-32.6	11.7	1.05e-03	0	43	102	1048576	23	4387
2026-01-06 09:04:00.02	21.15	27.02	-30.7	-32.5	12.2	3.46e-04	0	43	102	1048576	22	4409
2026-01-06 09:04:01.03	20.88	26.93	-30.6	-32.1	12.5	1.46e-04	0	43	102	1048576	22	4268
2026-01-06 09:04:02.03	20.62	26.84	-30.8	-32.6	12.1	1.25e-04	0	43	102	1048576	22	4440
2026-01-06 09:04:03.04	20.35	26.75	-30.6	-32.2	12.4	2.67e-04	0	43	102	1048576	22	4321
2026-01-06 09:04:04.05	20.08	26.66	-30.6	-32.1	12.4	1.32e-04	0	43	102	1048576	22	4282
2026-01-06 09:04:05.05	19.82	26.57	-30.4	-31.6	12.8	1.02e-04	0	43	102	1048576	22	4135
2026-01-06 09:04:06.06	19.56	26.48	-30.3	-31.8	12.9	4.88e-05	0	43	102	1048576	21	4281
2026-01-06 09:04:07.07	19.30	26.39	-30.4	-31.9	12.8	4.73e-05	0	43	102	1048576	21	4311
2026-01-06 09:04:08.07	19.04	26.30	-29.9	-30.7	13.6	2.05e-05	0	43	102	1048576	21	3936
2026-01-06 09:04:09.07	18.79	26.21	-29.7	-30.6	14.0	4.50e-06	0	43	102	1048576	20	4014
2026-01-06 09:04:10.08	18.53	26.12	-29.6	-30.5	14.1	7.00e-07	0	43	102	1048576	20	3960
2026-01-06 09:04:11.09	18.28	26.02	-29.6	-30.5	14.1	1.50e-06	0	43	102	1048576	20	3975
2026-01-06 09:04:12.09	18.03	25.93	-29.6	-30.5	14.1	2.20e-06	0	43	102	1048576	20	3974
2026-01-06 09:04:13.09	17.78	25.84	-29.6	-30.6	14.0	3.00e-06	0	43	102	1048576	20	4001
2026-01-06 09:04:14.10	17.53	25.75	-29.9	-31.1	13.6	9.10e-06	0	43	102	1048576	20	4164
2026-01-06 09:04:15.11	17.28	25.65	-29.8	-30.9	13.8	6.10e-06	0	43	102	1048576	20	4089
2026-01-06 09:04:16.11	17.03	25.56	-30.1	-31.7	13.3	1.44e-05	0	43	102	1048576	20	4339
2026-01-06 09:04:17.12	16.79	25.47	-29.9	-31.3	13.5	9.10e-06	0	43	102	1048576	20	4222
2026-01-06 09:04:18.13	16.54	25.37	-29.9	-31.1	13.6	7.60e-06	0	43	102	1048576	20	4170
2026-01-06 09:04:19.14	16.30	25.28	-29.7	-30.8	13.9	8.30e-06	0	43	102	1048576	20	4058
2026-01-06 09:04:20.14	16.06	25.18	-29.6	-30.4	14.1	1.50e-06	0	43	102	1048576	20	3946
2026-01-06 09:04:21.14	15.82	25.09	-29.6	-30.4	14.1	3.80e-06	0	43	102	1048576	20	3960
2026-01-06 09:04:22.15	15.59	24.99	-29.7	-30.6	14.0	3.80e-06	0	43	102	1048576	20	4014
2026-01-06 09:04:23.16	15.35	24.90	-29.7	-30.7	13.9	3.00e-06	0	43	102	1048576	20	4037
2026-01-06 09:04:24.17	15.11	24.80	-29.9	-31.1	13.6	1.37e-05	0	43	102	1048576	20	4167
2026-01-06 09:04:25.18	14.88	24.71	-29.6	-30.4	14.1	5.30e-06	0	43	102	1048576	20	3938
2026-01-06 09:04:26.19	14.65	24.61	-29.5	-30.1	14.3	2.20e-06	0	43	102	1048576	20	3871
2026-01-06 09:04:27.19	14.42	24.52	-29.4	-29.8	14.5	7.00e-07	0	43	102	1048576	20	3775
2026-01-06 09:04:28.20	14.19	24.42	-29.2	-29.8	14.8	0.00e+00	0	43	102	1048576	19	3867
2026-01-06 09:04:29.21	13.96	24.32	-28.7	-29.1	15.5	0.00e+00	0	43	102	1048576	18	3769
2026-01-06 09:04:30.22	13.73	24.23	-28.5	-28.6	15.8	0.00e+00	0	43	102	1048576	18	3629
2026-01-06 09:04:31.22	13.51	24.13	-28.3	-28.2	16.1	0.00e+00	0	43	102	1048576	18	3539
2026-01-06 09:04:32.22	13.29	24.03	-28.3	-28.7	16.0	0.00e+00	0	43	102	1048576	17	3754
2026-01-06 09:04:33.22	13.07	23.94	-28.1	-28.2	16.3	0.00e+00	0	43	102	1048576	17	3632
2026-01-06 09:04:34.23	12.85	23.84	-28.4	-28.8	15.9	0.00e+00	0	43	102	1048576	17	3785
2026-01-06 09:04:35.24	12.63	23.74	-28.8	-29.7	15.4	0.00e+00	0	43	102	1048576	17	4028
2026-01-06 09:04:36.25	12.41	23.65	-29.0	-30.0	15.0	0.00e+00	0	43	102	1048576	18	4010
2026-01-06 09:04:37.26	12.19	23.55	-29.4	-30.4	14.4	1.50e-06	0	43	102	1048576	19	4029
2026-01-06 09:04:38.26	11.98	23.45	-29.3	-30.0	14.6	2.20e-06	0	43	102	1048576	19	3925
2026-01-06 09:04:39.26	11.76	23.36	-29.1	-29.6	14.9	0.00e+00	0	43	102	1048576	19	3807
2026-01-06 09:04:40.27	11.55	23.26	-29.0	-29.3	15.1	7.00e-07	0	43	102	1048576	19	3737
2026-01-06 09:04:41.28	11.34	23.16	-29.1	-29.5	15.0	0.00e+00	0	43	102	1048576	19	3776
2026-01-06 09:04:42.28	11.13	23.06	-28.9	-29.1	15.2	0.00e+00	0	43	102	1048576	19	3680
2026-01-06 09:04:43.28	10.92	22.97	-29.1	-29.5	15.0	0.00e+00	0	43	102	1048576	19	3782
2026-01-06 09:04:44.30	10.71	22.87	-29.2	-30.0	14.7	0.00e+00	0	43	102	1048576	19	3911
2026-01-06 09:04:45.30	10.51	22.77	-29.3	-30.1	14.6	0.00e+00	0	43	102	1048576	19	3943
2026-01-06 09:04:46.30	10.31	22.68	-29.2	-29.9	14.7	0.00e+00	0	43	102	1048576	19	3909
2026-01-06 09:04:47.30	10.11	22.58	-29.3	-30.1	14.6	0.00e+00	0	43	102	1048576	19	3950
2026-01-06 09:04:48.31	9.90	22.48	-29.5	-30.6	14.3	7.00e-07	0	43	102	1048576	19	4100
2026-01-06 09:04:49.32	9.70	22.38	-29.6	-30.9	14.0	3.00e-06	0	43	102	1048576	19	4198
2026-01-06 09:04:50.32	9.50	22.29	-29.5	-30.6	14.2	1.50e-06	0	43	102	1048576	19	4104
2026-01-06 09:04:51.32	9.31	22.19	-29.5	-30.7	14.2	1.50e-06	0	43	102	1048576	19	4130
2026-01-06 09:04:52.33	9.11	22.09	-29.4	-30.5	14.3	0.00e+00	0	43	102	1048576	19	4058
2026-01-06 09:04:53.34	8.91	21.99	-29.2	-29.9	14.7	0.00e+00	0	43	102	1048576	19	3887
2026-01-06 09:04:54.35	8.72	21.90	-29.3	-30.1	14.6	7.00e-07	0	43	102	1048576	19	3941
2026-01-06 09:04:55.35	8.53	21.80	-29.2	-30.0	14.6	0.00e+00	0	43	102	1048576	19	3911
2026-01-06 09:04:56.36	8.33	21.70	-29.3	-30.2	14.5	0.00e+00	0	43	102	1048576	19	3964
2026-01-06 09:04:57.36	8.14	21.61	-29.4	-30.5	14.3	1.50e-06	0	43	102	1048576	19	4057
2026-01-06 09:04:58.37	7.95	21.51	-29.7	-31.1	13.9	0.00e+00	0	43	102	1048576	19	4247
2026-01-06 09:04:59.37	7.77	21.41	-29.9	-31.8	13.4	1.37e-05	0	43	102	1048576	19	4445
2026-01-06 09:05:00.38	7.58	21.31	-30.0	-32.0	13.3	1.14e-05	0	43	102	1048576	19	4520
2026-01-06 09:05:01.39	7.39	21.22	-30.3	-32.3	12.8	3.73e-05	0	43	102	1048576	20	4524
2026-01-06 09:05:02.40	7.21	21.12	-30.3	-32.0	12.6	1.43e-04	0	43	102	1048576	21	4353
2026-01-06 09:05:03.40	7.03	21.02	-30.1	-31.3	13.0	4.57e-05	0	43	102	1048576	21	4139
2026-01-06 09:05:04.41	6.84	20.92	-29.9	-30.7	13.4	1.52e-05	0	43	102	1048576	21	3969
2026-01-06 09:05:05.41	6.66	20.83	-30.0	-31.0	13.2	1.75e-05	0	43	102	1048576	21	4054
2026-01-06 09:05:06.42	6.48	20.73	-29.9	-30.7	13.4	2.05e-05	0	43	102	1048576	21	3941
2026-01-06 09:05:07.42	6.30	20.63	-29.8	-30.4	13.6	8.30e-06	0	43	102	1048576	21	3861
2026-01-06 09:05:08.43	6.13	20.54	-29.7	-30.7	13.8	6.10e-06	0	43	102	1048576	20	4027
2026-01-06 09:05:09.43	5.95	20.44	-29.7	-30.6	13.8	6.80e-06	0	43	102	1048576	20	4019
2026-01-06 09:05:10.44	5.77	20.34	-29.3	-30.2	14.4	1.50e-06	0	43	102	1048576	19	3980
2026-01-06 09:05:11.44	5.60	20.25	-29.4	-30.4	14.3	7.00e-07	0	43	102	1048576	19	4045
2026-01-06 09:05:12.45	5.43	20.15	-29.6	-30.9	14.1	4.50e-06	0	43	102	1048576	19	4169
2026-01-06 09:05:13.45	5.26	20.06	-29.6	-30.9	14.0	7.00e-07	0	43	102	1048576	19	4178
2026-01-06 09:05:14.46	5.08	19.96	-29.9	-31.8	13.4	4.50e-06	0	43	102	1048576	19	4459
2026-01-06 09:05:15.47	4.91	19.86	-30.2	-32.1	12.8	2.13e-05	0	43	102	1048576	20	4491
2026-01-06 09:05:16.47	4.75	19.77	-30.3	-32.3	12.7	8.39e-05	0	43	102	1048576	20	4557
2026-01-06 09:05:17.48	4.58	19.67	-30.2	-32.1	12.8	1.01e-04	0	43	102	1048576	20	4479
2026-01-06 09:05:18.49	4.41	19.58	-30.3	-32.5	12.5	1.07e-04	0	43	102	1048576	20	4615
2026-01-06 09:05:19.49	4.25	19.48	-30.2	-32.2	12.7	8.31e-05	0	43	102	1048576	20	4523
2026-01-06 09:05:20.50	4.08	19.39	-30.2	-32.1	12.7	6.25e-05	0	43	102	1048576	20	4498
2026-01-06 09:05:21.49	3.92	19.29	-30.0	-31.6	13.1	5.87e-05	0	43	102	1048576	20	4333
2026-01-06 09:05:22.50	3.76	19.20	-29.9	-31.4	13.3	1.98e-05	0	43	102	1048576	20	4255
2026-01-06 09:05:23.51	3.60	19.10	-29.9	-31.2	13.3	2.05e-05	0	43	102	1048576	20	4203
2026-01-06 09:05:24.51	3.44	19.01	-29.7	-30.7	13.6	6.80e-06	0	43	102	1048576	20	4062
2026-01-06 09:05:25.51	3.28	18.91	-29.9	-31.4	13.2	9.90e-06	0	43	102	1048576	20	4262
2026-01-06 09:05:26.51	3.12	18.82	-30.0	-31.7	13.0	3.35e-05	0	43	102	1048576	20	4355
2026-01-06 09:05:27.52	2.96	18.72	-30.1	-31.9	12.9	4.19e-05	0	43	102	1048576	20	4439
2026-01-06 09:05:28.52	2.81	18.63	-30.2	-32.2	12.6	7.09e-05	0	43	102	1048576	20	4529
2026-01-06 09:05:29.52	2.65	18.53	-30.3	-32.3	12.6	9.15e-05	0	43	102	1048576	20	4569
2026-01-06 09:05:30.52	2.50	18.44	-30.1	-31.8	12.9	1.11e-04	0	43	102	1048576	20	4398
2026-01-06 09:05:31.53	2.35	18.35	-30.0	-31.5	13.1	3.58e-05	0	43	102	1048576	20	4282
2026-01-06 09:05:32.54	2.19	18.25	-29.8	-31.0	13.4	2.51e-05	0	43	102	1048576	20	4150
2026-01-06 09:05:33.55	2.04	18.16	-29.6	-30.5	13.7	5.30e-06	0	43	102	1048576	20	4006
2026-01-06 09:05:34.55	1.89	18.07	-29.5	-30.3	13.9	4.50e-06	0	43	102	1048576	20	3937
2026-01-06 09:05:35.56	1.74	17.97	-29.6	-30.5	13.7	3.00e-06	0	43	102	1048576	20	3996
2026-01-06 09:05:36.57	1.59	17.88	-29.5	-30.2	13.9	9.90e-06	0	43	102	1048576	20	3906
2026-01-06 09:05:37.58	1.44	17.78	-29.3	-29.8	14.2	7.00e-07	0	43	102	1048576	20	3802
2026-01-06 09:05:38.58	1.30	17.69	-29.4	-29.9	14.2	1.50e-06	0	43	102	1048576	20	3821
2026-01-06 09:05:39.59	1.15	17.60	-29.4	-29.9	14.2	1.50e-06	0	43	102	1048576	20	3818
2026-01-06 09:05:40.60	1.00	17.51	-29.6	-30.5	13.7	4.50e-06	0	43	102	1048576	20	4009
2026-01-06 09:05:41.60	0.86	17.41	-29.6	-30.5	13.7	7.60e-06	0	43	102	1048576	20	3998
2026-01-06 09:05:42.61	0.72	17.32	-29.7	-30.9	13.5	1.14e-05	0	43	102	1048576	20	4103
2026-01-06 09:05:43.62	0.58	17.23	-30.0	-31.5	13.0	1.22e-05	0	44	102	1048576	20	4285
2026-01-06 09:05:44.62	0.43	17.14	-30.0	-31.7	12.9	5.64e-05	0	43	102	1048576	20	4349
2026-01-06 09:05:45.63	0.29	17.04	-30.0	-31.7	13.0	3.58e-05	0	43	102	1048576	20	4355
2026-01-06 09:05:46.65	0.15	16.95	-30.0	-31.5	13.1	2.51e-05	0	43	102	1048576	20	4286
2026-01-06 09:05:47.65	0.01	16.86	-29.8	-31.1	13.3	2.13e-05	0	43	102	1048576	20	4180
2026-01-06 09:05:48.66	359.88	16.77	-29.6	-30.4	13.8	1.14e-05	0	43	102	1048576	20	3974
2026-01-06 09:05:49.67	359.74	16.68	-29.5	-30.3	13.8	3.80e-06	0	43	102	1048576	20	3950
2026-01-06 09:05:50.67	359.60	16.59	-29.5	-30.3	13.9	3.80e-06	0	43	102	1048576	20	3932
2026-01-06 09:05:51.68	359.47	16.50	-29.6	-30.7	13.6	2.20e-06	0	43	102	1048576	20	4041
2026-01-06 09:05:52.69	359.33	16.40	-29.7	-30.8	13.5	3.80e-06	0	43	102	1048576	20	4091
2026-01-06 09:05:53.70	359.20	16.31	-29.9	-31.4	13.1	1.44e-05	0	43	102	1048576	20	4271
2026-01-06 09:05:54.71	359.06	16.22	-30.2	-32.2	12.5	5.79e-05	0	43	102	1048576	20	4517
2026-01-06 09:05:55.71	358.93	16.13	-30.5	-32.6	11.9	2.99e-04	0	43	102	1048576	21	4591
2026-01-06 09:05:56.71	358.80	16.04	-30.8	-33.5	11.2	1.26e-03	0	43	102	1048576	21	4930
2026-01-06 09:05:57.72	358.67	15.95	-31.1	-34.1	10.4	2.39e-03	0	43	102	1048576	22	5064
2026-01-06 09:05:58.73	358.54	15.86	-31.3	-34.8	9.9	5.67e-03	0	43	102	1048576	22	5362
2026-01-06 09:05:59.73	358.41	15.78	-31.4	-34.9	9.8	1.09e-02	0	43	102	1048576	22	5397
2026-01-06 09:06:00.74	358.29	15.69	-31.1	-34.1	10.3	5.74e-03	0	43	102	1048576	22	5079
2026-01-06 09:06:01.75	358.16	15.60	-31.0	-33.5	10.9	3.24e-03	0	43	102	1048576	22	4837
2026-01-06 09:06:02.75	358.03	15.51	-30.7	-32.8	11.4	1.05e-03	0	43	102	1048576	22	4553
2026-01-06 09:06:03.75	357.91	15.42	-30.7	-32.5	11.6	7.71e-04	0	43	102	1048576	22	4468
2026-01-06 09:06:04.76	357.78	15.33	-30.7	-32.6	11.6	7.01e-04	0	43	102	1048576	22	4502
2026-01-06 09:06:05.76	357.66	15.24	-30.4	-31.9	12.0	4.54e-04	0	43	102	1048576	22	4255
2026-01-06 09:06:06.76	357.54	15.16	-30.3	-31.6	12.3	1.47e-04	0	43	102	1048576	22	4155
2026-01-06 09:06:07.77	357.41	15.07	-30.5	-32.2	11.9	2.63e-04	0	43	102	1048576	22	4347
2026-01-06 09:06:08.77	357.29	14.98	-30.5	-32.1	11.9	6.23e-04	0	43	102	1048576	22	4332
2026-01-06 09:06:09.78	357.17	14.89	-30.4	-31.9	12.0	2.74e-04	0	43	102	1048576	22	4271
2026-01-06 09:06:10.79	357.05	14.80	-30.8	-33.0	11.3	4.32e-04	0	43	102	1048576	22	4618
2026-01-06 09:06:11.79	356.93	14.72	-30.8	-33.0	11.3	1.12e-03	0	43	102	1048576	22	4655
2026-01-06 09:06:12.79	356.81	14.63	-31.1	-33.8	10.7	2.24e-03	0	43	102	1048576	22	4958
2026-01-06 09:06:13.79	356.69	14.54	-31.1	-34.0	10.5	4.07e-03	0	43	102	1048576	22	5033
2026-01-06 09:06:14.80	356.58	14.46	-31.0	-33.7	10.7	3.42e-03	0	43	102	1048576	22	4927
2026-01-06 09:06:15.81	356.46	14.37	-30.8	-33.2	11.0	2.52e-03	0	43	102	1048576	22	4737
2026-01-06 09:06:16.81	356.34	14.28	-30.8	-33.1	11.1	1.61e-03	0	43	102	1048576	22	4679
2026-01-06 09:06:17.82	356.23	14.20	-30.8	-33.2	11.0	1.38e-03	0	43	102	1048576	22	4722
2026-01-06 09:06:18.82	356.11	14.11	-30.7	-32.8	11.4	1.37e-03	0	43	102	1048576	22	4567
2026-01-06 09:06:19.82	356.00	14.03	-30.6	-32.5	11.6	7.88e-04	0	43	102	1048576	22	4475
2026-01-06 09:06:20.82	355.89	13.94	-30.6	-32.4	11.7	5.93e-04	0	43	102	1048576	22	4441
2026-01-06 09:06:21.83	355.77	13.86	-30.5	-32.3	11.7	4.81e-04	0	43	102	1048576	22	4409
2026-01-06 09:06:22.84	355.66	13.77	-30.6	-32.5	11.5	5.39e-04	0	43	102	1048576	22	4486
2026-01-06 09:06:23.84	355.55	13.69	-30.5	-32.3	11.6	6.77e-04	0	43	102	1048576	22	4410
2026-01-06 09:06:24.85	355.44	13.60	-30.5	-32.1	11.9	6.08e-04	0	43	102	1048576	22	4334
2026-01-06 09:06:25.85	355.33	13.52	-30.4	-31.9	12.0	3.65e-04	0	43	102	1048576	22	4266
2026-01-06 09:06:26.86	355.22	13.43	-30.4	-31.9	11.9	3.98e-04	0	43	102	1048576	22	4286
2026-01-06 09:06:27.86	355.11	13.35	-30.4	-31.9	11.9	4.33e-04	0	43	102	1048576	22	4277
2026-01-06 09:06:28.87	355.00	13.26	-30.5	-32.1	11.9	4.66e-04	0	43	102	1048576	22	4328
2026-01-06 09:06:29.89	354.89	13.18	-30.4	-32.0	11.8	5.03e-04	0	43	102	1048576	22	4319
2026-01-06 09:06:30.89	354.79	13.10	-30.5	-32.3	11.6	5.40e-04	0	43	102	1048576	22	4403
2026-01-06 09:06:31.90	354.68	13.01	-30.5	-32.3	11.6	6.35e-04	0	43	102	1048576	22	4433
2026-01-06 09:06:32.90	354.58	12.93	-30.5	-32.1	11.7	6.29e-04	0	43	102	1048576	22	4355
2026-01-06 09:06:33.91	354.47	12.85	-30.4	-32.0	11.8	5.36e-04	0	43	102	1048576	22	4324
2026-01-06 09:06:34.91	354.37	12.76	-30.6	-32.4	11.5	6.45e-04	0	43	102	1048576	22	4439
2026-01-06 09:06:35.92	354.26	12.68	-30.6	-32.5	11.5	7.66e-04	0	43	102	1048576	22	4490
2026-01-06 09:06:36.93	354.16	12.60	-30.5	-32.4	11.4	8.55e-04	0	43	102	1048576	22	4455
2026-01-06 09:06:37.93	354.06	12.52	-30.5	-32.3	11.6	6.87e-04	0	43	102	1048576	22	4411
2026-01-06 09:06:38.94	353.95	12.43	-30.5	-32.3	11.6	6.00e-04	0	43	102	1048576	22	4405
2026-01-06 09:06:39.95	353.85	12.35	-30.3	-31.6	12.0	5.54e-04	0	43	102	1048576	22	4195
2026-01-06 09:06:40.96	353.75	12.27	-30.2	-31.8	12.2	2.61e-04	0	43	102	1048576	21	4344
2026-01-06 09:06:41.97	353.65	12.19	-30.0	-31.4	12.5	1.74e-04	0	43	102	1048576	21	4211
2026-01-06 09:06:42.98	353.55	12.11	-30.1	-31.5	12.4	1.06e-04	0	43	102	1048576	21	4255
2026-01-06 09:06:43.99	353.45	12.02	-29.8	-30.8	12.9	7.47e-05	0	43	102	1048576	21	4014
2026-01-06 09:06:45.00	353.35	11.94	-29.7	-31.1	13.0	4.04e-05	0	43	102	1048576	20	4191
2026-01-06 09:06:46.00	353.25	11.86	-29.8	-31.2	13.0	3.96e-05	0	43	102	1048576	20	4220
2026-01-06 09:06:47.01	353.16	11.78	-29.6	-30.8	13.2	2.97e-05	0	43	102	1048576	20	4099
2026-01-06 09:06:48.01	353.06	11.70	-29.8	-31.1	13.0	2.82e-05	0	43	102	1048576	20	4212
2026-01-06 09:06:49.02	352.96	11.62	-30.0	-31.7	12.6	6.71e-05	0	43	102	1048576	20	4387
2026-01-06 09:06:50.02	352.87	11.54	-29.9	-31.6	12.7	8.62e-05	0	43	102	1048576	20	4352
2026-01-06 09:06:51.03	352.77	11.46	-30.1	-32.0	12.4	1.33e-04	0	43	102	1048576	20	4506
2026-01-06 09:06:52.03	352.68	11.38	-30.3	-32.6	12.0	2.20e-04	0	43	102	1048576	20	4692
2026-01-06 09:06:53.05	352.58	11.30	-30.5	-33.2	11.5	5.42e-04	0	43	102	1048576	20	4938
2026-01-06 09:06:54.06	352.49	11.22	-30.6	-33.2	11.1	1.00e-03	0	43	102	1048576	21	4841
2026-01-06 09:06:55.07	352.40	11.14	-30.9	-34.0	10.6	2.34e-03	0	43	102	1048576	21	5156
2026-01-06 09:06:56.07	352.30	11.06	-31.0	-34.3	10.4	4.82e-03	0	43	102	1048576	21	5296
2026-01-06 09:06:57.08	352.21	10.98	-31.2	-34.5	9.9	6.52e-03	0	43	102	1048576	22	5292
2026-01-06 09:06:58.09	352.12	10.90	-31.2	-34.7	9.7	1.09e-02	0	43	102	1048576	22	5365
2026-01-06 09:06:59.10	352.03	10.83	-31.2	-34.8	9.6	1.35e-02	0	43	102	1048576	22	5438
2026-01-06 09:07:00.11	351.94	10.75	-31.3	-35.1	9.4	1.48e-02	0	43	102	1048576	22	5553
2026-01-06 09:07:01.12	351.85	10.67	-31.3	-35.0	9.5	1.58e-02	0	43	102	1048576	22	5534
2026-01-06 09:07:02.13	351.76	10.59	-31.3	-35.1	9.4	1.70e-02	0	43	102	1048576	22	5545
2026-01-06 09:07:03.14	351.67	10.51	-31.3	-35.0	9.4	1.76e-02	0	43	102	1048576	22	5514
2026-01-06 09:07:04.14	351.58	10.43	-31.4	-35.4	9.1	1.60e-02	0	43	102	1048576	22	5711
2026-01-06 09:07:05.15	351.49	10.36	-31.2	-34.7	9.6	1.61e-02	0	43	102	1048576	22	5409
2026-01-06 09:07:06.16	351.40	10.28	-31.3	-35.0	9.4	1.42e-02	0	43	102	1048576	22	5513
2026-01-06 09:07:07.16	351.32	10.20	-31.2	-34.8	9.5	1.57e-02	0	43	102	1048576	22	5439
2026-01-06 09:07:08.17	351.23	10.12	-31.1	-34.4	9.8	1.28e-02	0	43	102	1048576	22	5275
2026-01-06 09:07:09.18	351.14	10.05	-31.0	-34.1	10.0	7.37e-03	0	43	102	1048576	22	5124
2026-01-06 09:07:10.18	351.06	9.97	-31.0	-33.9	10.1	7.53e-03	0	43	102	1048576	22	5066
2026-01-06 09:07:11.19	350.97	9.89	-30.9	-33.9	10.1	6.76e-03	0	43	102	1048576	22	5047
2026-01-06 09:07:12.19	350.89	9.82	-31.0	-34.0	10.0	7.28e-03	0	43	102	1048576	22	5113
2026-01-06 09:07:13.21	350.80	9.74	-31.1	-34.3	9.8	1.07e-02	0	43	102	1048576	22	5220
2026-01-06 09:07:14.21	350.72	9.67	-30.8	-33.4	10.5	7.60e-03	0	43	102	1048576	22	4858
2026-01-06 09:07:15.22	350.64	9.59	-30.6	-32.7	10.9	3.45e-03	0	43	102	1048576	22	4578
2026-01-06 09:07:16.22	350.55	9.52	-30.5	-32.5	11.1	1.55e-03	0	43	102	1048576	22	4529
2026-01-06 09:07:17.23	350.47	9.44	-30.4	-32.2	11.3	1.19e-03	0	43	102	1048576	22	4429
2026-01-06 09:07:18.24	350.39	9.36	-30.3	-31.9	11.5	8.63e-04	0	43	102	1048576	22	4310
2026-01-06 09:07:19.24	350.31	9.29	-30.4	-32.1	11.5	9.10e-04	0	43	102	1048576	22	4369
2026-01-06 09:07:20.25	350.23	9.21	-30.3	-31.9	11.6	7.85e-04	0	43	102	1048576	22	4304
2026-01-06 09:07:21.26	350.14	9.14	-30.3	-32.3	11.5	7.44e-04	0	43	102	1048576	21	4560
2026-01-06 09:07:22.27	350.06	9.06	-30.3	-32.5	11.3	7.82e-04	0	43	102	1048576	21	4622
2026-01-06 09:07:23.28	349.98	8.99	-30.3	-32.5	11.4	1.05e-03	0	43	102	1048576	21	4608
2026-01-06 09:07:24.29	349.90	8.92	-30.3	-32.5	11.3	1.06e-03	0	43	102	1048576	21	4628
2026-01-06 09:07:25.29	349.83	8.84	-30.5	-32.9	11.0	1.40e-03	0	43	102	1048576	21	4782
2026-01-06 09:07:26.30	349.75	8.77	-30.3	-32.5	11.3	1.39e-03	0	43	102	1048576	21	4631
2026-01-06 09:07:27.31	349.67	8.69	-30.4	-32.8	11.0	1.23e-03	0	43	102	1048576	21	4745
2026-01-06 09:07:28.31	349.59	8.62	-30.7	-33.6	10.5	2.68e-03	0	43	102	1048576	21	5028
2026-01-06 09:07:29.32	349.51	8.55	-30.7	-33.5	10.6	3.31e-03	0	43	102	1048576	21	5015
2026-01-06 09:07:30.33	349.44	8.47	-30.7	-33.7	10.5	4.01e-03	0	43	102	1048576	21	5100
2026-01-06 09:07:31.34	349.36	8.40	-30.9	-34.4	10.0	5.63e-03	0	43	102	1048576	21	5365
2026-01-06 09:07:32.34	349.28	8.33	-30.9	-34.3	10.0	7.35e-03	0	43	102	1048576	21	5357
2026-01-06 09:07:33.34	349.21	8.25	-30.9	-34.3	10.0	8.48e-03	0	43	102	1048576	21	5342
2026-01-06 09:07:34.35	349.13	8.18	-30.8	-34.3	10.0	7.90e-03	0	43	102	1048576	21	5337
2026-01-06 09:07:35.36	349.06	8.11	-31.1	-34.5	9.5	1.17e-02	0	43	102	1048576	22	5328
2026-01-06 09:07:36.36	348.98	8.04	-31.0	-34.4	9.5	1.41e-02	0	43	102	1048576	22	5320
2026-01-06 09:07:37.36	348.91	7.97	-31.1	-34.8	9.2	1.78e-02	0	43	102	1048576	22	5503
2026-01-06 09:07:38.37	348.83	7.89	-31.1	-34.6	9.3	1.92e-02	0	43	102	1048576	22	5409
2026-01-06 09:07:39.37	348.76	7.82	-31.1	-34.8	9.2	1.79e-02	0	43	102	1048576	22	5478
2026-01-06 09:07:40.38	348.69	7.75	-31.2	-35.0	9.1	2.14e-02	0	43	102	1048576	22	5576
2026-01-06 09:07:41.39	348.62	7.68	-31.1	-34.7	9.2	1.94e-02	0	43	102	1048576	22	5467
2026-01-06 09:07:42.39	348.54	7.61	-31.2	-34.9	9.1	2.49e-02	0	43	102	1048576	22	5561
2026-01-06 09:07:43.40	348.47	7.54	-31.1	-34.7	9.3	2.00e-02	0	43	102	1048576	22	5440
2026-01-06 09:07:44.39	348.40	7.47	-31.1	-34.8	9.2	2.15e-02	0	43	102	1048576	22	5498
2026-01-06 09:07:45.40	348.33	7.39	-31.3	-35.3	8.8	2.67e-02	0	43	102	1048576	22	5759
2026-01-06 09:07:46.41	348.26	7.32	-31.2	-35.3	8.8	3.93e-02	0	43	102	1048576	22	5741
2026-01-06 09:07:47.42	348.19	7.25	-31.0	-34.4	9.4	2.43e-02	0	43	102	1048576	22	5329
2026-01-06 09:07:48.43	348.12	7.18	-31.2	-35.0	9.0	1.72e-02	0	43	102	1048576	22	5608
2026-01-06 09:07:49.44	348.05	7.11	-31.2	-35.2	8.9	2.77e-02	0	43	102	1048576	22	5677
2026-01-06 09:07:50.43	347.98	7.04	-32.3	-39.5	5.7	2.87e-02	0	43	102	1048576	24	8235
2026-01-06 09:07:51.44	347.91	6.97	-33.1	-45.3	3.8	1.49e+00	0	43	104	1048576	26	14581
2026-01-06 09:07:52.45	347.84	6.90	-33.4	-45.9	3.8	1.49e+00	0	43	104	1048576	26	15284
2026-01-06 09:07:53.46	347.77	6.83	-33.6	-45.8	3.8	1.49e+00	0	43	104	1048576	27	14693

#Closed at: 2026-01-06 09:07:53
#Recorded file [1 MB]: D:/data/31010_260106_115706.dat