passes_logs/2026/01/06/R2M6_AANII_01/R2M6_AANII_01__20260106_113709_FENGYUN_3D_rec.log

#Pass ID: 20260106_113709_FENGYUN 3D
#Satellite: FENGYUN 3D
#Configuration: FENGYUN 3D
#almurnet v.1.7.20240730
#Start time: 2026-01-06 11:37:09

#Version: 2.2.20231116
#Station: R2M6_AANII_01
#Location: 30.233357 lon 59.946436 lat
#TLE: 1 43010U 17072A   26005.48915933 -.00000051  00000+0 -21983-5 0  9995
#TLE: 2 43010  98.9919 337.1582 0002001 124.6377 235.4988 14.19691925421909

#Time	Az	El	Level	Level2	SNR	BER	BlckErr	Temp	State	Recorded	gain1	gain2
2026-01-06 11:37:09.48	137.65	7.01	-29.5	-32.8	5.2	7.96e-01	0	41	0	0	20	5225
2026-01-06 11:37:10.48	137.62	7.08	-29.8	-33.6	5.1	8.00e-01	0	41	104	0	20	5583
2026-01-06 11:37:11.48	137.59	7.16	-29.8	-33.5	8.4	5.99e-02	0	41	0	0	20	5491
2026-01-06 11:37:12.49	137.55	7.24	-29.7	-33.1	8.6	4.40e-02	0	41	102	1048576	20	5338
2026-01-06 11:37:13.49	137.52	7.31	-29.8	-33.4	8.5	4.28e-02	0	41	102	1048576	20	5458
2026-01-06 11:37:14.49	137.48	7.39	-29.8	-33.5	8.3	6.79e-02	0	41	102	1048576	20	5508
2026-01-06 11:37:15.50	137.45	7.47	-29.5	-32.5	9.0	3.73e-02	0	41	102	1048576	20	5106
2026-01-06 11:37:16.50	137.41	7.54	-29.3	-32.1	9.4	2.13e-02	0	41	102	1048576	20	4941
2026-01-06 11:37:17.51	137.38	7.62	-29.3	-32.4	9.5	2.03e-02	0	41	102	1048576	19	5153
2026-01-06 11:37:18.52	137.34	7.70	-29.1	-31.8	9.9	1.07e-02	0	41	102	1048576	19	4946
2026-01-06 11:37:19.52	137.31	7.78	-29.0	-31.5	10.1	1.12e-02	0	41	102	1048576	19	4823
2026-01-06 11:37:20.53	137.27	7.86	-28.7	-31.2	10.7	4.84e-03	0	41	102	1048576	18	4838
2026-01-06 11:37:21.54	137.23	7.94	-28.3	-30.2	11.4	2.19e-03	0	41	102	1048576	18	4498
2026-01-06 11:37:22.54	137.20	8.02	-28.0	-29.9	11.9	6.40e-04	0	42	102	1048576	17	4479
2026-01-06 11:37:23.56	137.16	8.10	-27.7	-29.8	12.3	2.78e-04	0	41	102	1048576	16	4551
2026-01-06 11:37:24.56	137.12	8.18	-27.4	-29.0	12.8	1.67e-04	0	41	102	1048576	16	4333
2026-01-06 11:37:25.57	137.09	8.26	-27.3	-28.8	13.0	8.23e-05	0	41	102	1048576	16	4252
2026-01-06 11:37:26.58	137.05	8.34	-27.0	-28.7	13.2	4.11e-05	0	42	102	1048576	15	4338
2026-01-06 11:37:27.58	137.01	8.42	-27.0	-28.5	13.3	3.77e-05	0	42	102	1048576	15	4298
2026-01-06 11:37:28.59	136.97	8.50	-27.0	-28.5	13.3	3.20e-05	0	42	102	1048576	15	4288
2026-01-06 11:37:29.59	136.94	8.58	-27.0	-28.5	13.3	2.63e-05	0	42	102	1048576	15	4276
2026-01-06 11:37:30.60	136.90	8.66	-27.1	-28.8	13.1	3.66e-05	0	42	102	1048576	15	4354
2026-01-06 11:37:31.61	136.86	8.74	-27.1	-28.7	13.2	4.23e-05	0	42	102	1048576	15	4329
2026-01-06 11:37:32.61	136.82	8.82	-26.9	-28.3	13.4	2.05e-05	0	42	102	1048576	15	4238
2026-01-06 11:37:33.62	136.78	8.90	-26.8	-28.1	13.6	1.94e-05	0	42	102	1048576	15	4157
2026-01-06 11:37:34.62	136.74	8.98	-26.8	-28.0	13.6	1.14e-05	0	42	102	1048576	15	4151
2026-01-06 11:37:35.63	136.70	9.07	-26.8	-28.4	13.7	1.14e-05	0	42	102	1048576	14	4352
2026-01-06 11:37:36.64	136.66	9.15	-26.7	-28.3	13.8	3.40e-06	0	42	102	1048576	14	4323
2026-01-06 11:37:37.64	136.62	9.23	-26.8	-28.4	13.8	1.60e-05	0	42	102	1048576	14	4358
2026-01-06 11:37:38.65	136.58	9.32	-26.7	-28.2	13.9	1.14e-05	0	42	102	1048576	14	4290
2026-01-06 11:37:39.65	136.54	9.40	-26.7	-28.2	13.9	3.40e-06	0	42	102	1048576	14	4289
2026-01-06 11:37:40.66	136.50	9.48	-26.8	-28.5	13.7	6.80e-06	0	42	102	1048576	14	4368
2026-01-06 11:37:41.66	136.46	9.57	-26.7	-28.3	13.8	1.25e-05	0	42	102	1048576	14	4306
2026-01-06 11:37:42.67	136.42	9.65	-26.6	-28.0	14.0	4.50e-06	0	42	102	1048576	14	4246
2026-01-06 11:37:43.67	136.38	9.73	-26.8	-28.5	13.7	1.02e-05	0	42	102	1048576	14	4361
2026-01-06 11:37:44.68	136.34	9.82	-26.7	-28.2	13.9	6.80e-06	0	42	102	1048576	14	4285
2026-01-06 11:37:45.68	136.30	9.90	-26.6	-27.9	14.1	1.10e-06	0	42	102	1048576	14	4194
2026-01-06 11:37:46.69	136.25	9.99	-26.5	-27.8	14.2	3.40e-06	0	42	102	1048576	14	4185
2026-01-06 11:37:47.69	136.21	10.07	-26.6	-28.0	14.1	4.50e-06	0	42	102	1048576	14	4231
2026-01-06 11:37:48.70	136.17	10.16	-26.5	-27.8	14.2	4.50e-06	0	42	102	1048576	14	4181
2026-01-06 11:37:49.70	136.13	10.25	-26.4	-27.5	14.4	3.40e-06	0	42	102	1048576	14	4101
2026-01-06 11:37:50.70	136.08	10.33	-26.4	-27.6	14.3	1.10e-06	0	42	102	1048576	14	4120
2026-01-06 11:37:51.71	136.04	10.42	-26.4	-27.5	14.4	1.10e-06	0	42	102	1048576	14	4101
2026-01-06 11:37:52.71	135.99	10.51	-26.4	-27.5	14.4	1.10e-06	0	42	102	1048576	14	4083
2026-01-06 11:37:53.72	135.95	10.59	-26.5	-27.7	14.3	1.10e-06	0	42	102	1048576	14	4150
2026-01-06 11:37:54.73	135.91	10.68	-26.4	-27.6	14.4	0.00e+00	0	42	102	1048576	14	4115
2026-01-06 11:37:55.73	135.86	10.77	-26.2	-27.6	14.6	0.00e+00	0	42	102	1048576	13	4224
2026-01-06 11:37:56.74	135.82	10.86	-26.2	-27.5	14.7	0.00e+00	0	42	102	1048576	13	4203
2026-01-06 11:37:57.75	135.77	10.95	-26.2	-27.6	14.6	1.10e-06	0	42	102	1048576	13	4222
2026-01-06 11:37:58.75	135.73	11.03	-26.2	-27.6	14.6	1.10e-06	0	42	102	1048576	13	4225
2026-01-06 11:37:59.76	135.68	11.12	-26.2	-27.5	14.7	0.00e+00	0	42	102	1048576	13	4191
2026-01-06 11:38:00.77	135.63	11.21	-26.1	-27.4	14.7	0.00e+00	0	42	102	1048576	13	4177
2026-01-06 11:38:01.77	135.59	11.30	-26.2	-27.5	14.7	1.10e-06	0	42	102	1048576	13	4195
2026-01-06 11:38:02.78	135.54	11.39	-26.1	-27.3	14.8	0.00e+00	0	42	102	1048576	13	4146
2026-01-06 11:38:03.79	135.49	11.48	-26.2	-27.5	14.7	1.10e-06	0	43	102	1048576	13	4204
2026-01-06 11:38:04.80	135.45	11.57	-26.0	-27.2	14.9	0.00e+00	0	42	102	1048576	13	4117
2026-01-06 11:38:05.80	135.40	11.66	-25.9	-26.9	15.0	0.00e+00	0	42	102	1048576	13	4043
2026-01-06 11:38:06.81	135.35	11.76	-25.9	-26.9	15.1	0.00e+00	0	42	102	1048576	13	4033
2026-01-06 11:38:07.82	135.30	11.85	-25.9	-26.9	15.1	0.00e+00	0	42	102	1048576	13	4041
2026-01-06 11:38:08.83	135.25	11.94	-25.9	-26.9	15.0	0.00e+00	0	43	102	1048576	13	4030
2026-01-06 11:38:09.83	135.21	12.03	-25.9	-26.9	15.1	0.00e+00	0	42	102	1048576	13	4041
2026-01-06 11:38:10.84	135.16	12.12	-26.1	-27.4	14.8	0.00e+00	0	43	102	1048576	13	4166
2026-01-06 11:38:11.85	135.11	12.22	-26.0	-27.1	15.0	0.00e+00	0	42	102	1048576	13	4086
2026-01-06 11:38:12.86	135.06	12.31	-25.9	-26.8	15.1	1.10e-06	0	43	102	1048576	13	4023
2026-01-06 11:38:13.87	135.01	12.40	-25.8	-26.7	15.2	0.00e+00	0	43	102	1048576	13	3996
2026-01-06 11:38:14.87	134.96	12.50	-25.8	-26.7	15.2	0.00e+00	0	43	102	1048576	13	4000
2026-01-06 11:38:15.88	134.90	12.59	-25.9	-26.8	15.2	0.00e+00	0	43	102	1048576	13	4024
2026-01-06 11:38:16.87	134.85	12.69	-25.9	-26.8	15.1	0.00e+00	0	43	102	1048576	13	4016
2026-01-06 11:38:17.88	134.80	12.78	-26.0	-27.2	14.9	0.00e+00	0	43	102	1048576	13	4125
2026-01-06 11:38:18.88	134.75	12.87	-25.9	-27.0	15.1	0.00e+00	0	43	102	1048576	13	4059
2026-01-06 11:38:19.89	134.70	12.97	-25.8	-26.7	15.2	0.00e+00	0	43	102	1048576	13	3982
2026-01-06 11:38:20.89	134.65	13.07	-25.8	-27.2	15.2	0.00e+00	0	43	102	1048576	12	4216
2026-01-06 11:38:21.90	134.59	13.16	-25.8	-27.1	15.3	0.00e+00	0	42	102	1048576	12	4206
2026-01-06 11:38:22.90	134.54	13.26	-25.8	-27.3	15.2	0.00e+00	0	43	102	1048576	12	4252
2026-01-06 11:38:23.91	134.49	13.36	-25.8	-27.1	15.3	0.00e+00	0	43	102	1048576	12	4203
2026-01-06 11:38:24.91	134.43	13.45	-25.7	-27.0	15.3	1.10e-06	0	43	102	1048576	12	4183
2026-01-06 11:38:25.92	134.38	13.55	-25.7	-27.0	15.4	0.00e+00	0	42	102	1048576	12	4161
2026-01-06 11:38:26.92	134.32	13.65	-25.8	-27.1	15.3	0.00e+00	0	43	102	1048576	12	4207
2026-01-06 11:38:27.93	134.27	13.75	-25.7	-26.9	15.4	0.00e+00	0	43	102	1048576	12	4143
2026-01-06 11:38:28.94	134.21	13.85	-25.7	-26.9	15.4	1.10e-06	0	43	102	1048576	12	4153
2026-01-06 11:38:29.95	134.16	13.95	-25.8	-27.3	15.2	0.00e+00	0	43	102	1048576	12	4242
2026-01-06 11:38:30.95	134.10	14.05	-25.7	-26.9	15.4	0.00e+00	0	43	102	1048576	12	4142
2026-01-06 11:38:31.96	134.04	14.15	-25.6	-26.8	15.5	0.00e+00	0	42	102	1048576	12	4110
2026-01-06 11:38:32.97	133.99	14.25	-25.6	-26.7	15.5	0.00e+00	0	43	102	1048576	12	4090
2026-01-06 11:38:33.97	133.93	14.35	-25.6	-26.6	15.6	0.00e+00	0	43	102	1048576	12	4073
2026-01-06 11:38:34.98	133.87	14.45	-25.5	-26.5	15.6	0.00e+00	0	43	102	1048576	12	4049
2026-01-06 11:38:35.99	133.81	14.55	-25.5	-26.6	15.7	0.00e+00	0	43	102	1048576	12	4051
2026-01-06 11:38:37.00	133.75	14.65	-25.4	-26.3	15.8	0.00e+00	0	43	102	1048576	12	3991
2026-01-06 11:38:38.00	133.69	14.75	-25.4	-26.2	15.8	0.00e+00	0	43	102	1048576	12	3964
2026-01-06 11:38:39.01	133.63	14.86	-25.4	-26.3	15.8	0.00e+00	0	43	102	1048576	12	3978
2026-01-06 11:38:40.02	133.57	14.96	-25.5	-26.6	15.6	0.00e+00	0	43	102	1048576	12	4064
2026-01-06 11:38:41.02	133.51	15.06	-25.5	-26.4	15.7	0.00e+00	0	43	102	1048576	12	4020
2026-01-06 11:38:42.03	133.45	15.17	-25.5	-26.4	15.8	1.10e-06	0	43	102	1048576	12	4009
2026-01-06 11:38:43.04	133.39	15.27	-25.5	-26.5	15.7	0.00e+00	0	43	102	1048576	12	4028
2026-01-06 11:38:44.05	133.33	15.38	-25.8	-27.1	15.5	1.10e-06	0	43	102	1048576	12	4179
2026-01-06 11:38:45.05	133.27	15.48	-25.5	-26.5	15.8	0.00e+00	0	43	102	1048576	12	4033
2026-01-06 11:38:46.06	133.20	15.59	-25.4	-26.1	16.0	0.00e+00	0	43	102	1048576	12	3939
2026-01-06 11:38:47.06	133.14	15.69	-25.4	-26.2	15.9	0.00e+00	0	43	102	1048576	12	3962
2026-01-06 11:38:48.07	133.08	15.80	-25.4	-26.3	15.9	0.00e+00	0	43	102	1048576	12	3974
2026-01-06 11:38:49.08	133.01	15.91	-25.3	-26.5	16.2	0.00e+00	0	43	102	1048576	11	4130
2026-01-06 11:38:50.08	132.95	16.01	-25.4	-26.8	16.0	1.10e-06	0	43	102	1048576	11	4211
2026-01-06 11:38:51.08	132.88	16.12	-25.2	-26.3	16.3	0.00e+00	0	43	102	1048576	11	4079
2026-01-06 11:38:52.10	132.82	16.23	-25.2	-26.2	16.3	0.00e+00	0	43	102	1048576	11	4059
2026-01-06 11:38:53.09	132.75	16.34	-25.1	-26.1	16.4	5.70e-06	0	43	102	1048576	11	4042
2026-01-06 11:38:54.10	132.68	16.45	-25.2	-26.3	16.3	0.00e+00	0	43	102	1048576	11	4086
2026-01-06 11:38:55.11	132.62	16.56	-25.1	-26.0	16.4	0.00e+00	0	43	102	1048576	11	4007
2026-01-06 11:38:56.11	132.55	16.67	-25.1	-25.9	16.5	0.00e+00	0	43	102	1048576	11	3985
2026-01-06 11:38:57.12	132.48	16.78	-25.1	-26.1	16.4	0.00e+00	0	43	102	1048576	11	4023
2026-01-06 11:38:58.12	132.41	16.89	-25.0	-25.7	16.7	0.00e+00	0	43	102	1048576	11	3933
2026-01-06 11:38:59.13	132.34	17.00	-24.9	-25.5	16.7	0.00e+00	0	43	102	1048576	11	3891
2026-01-06 11:39:00.14	132.27	17.11	-24.9	-25.5	16.7	0.00e+00	0	43	102	1048576	11	3888
2026-01-06 11:39:01.14	132.20	17.22	-25.0	-25.7	16.7	0.00e+00	0	43	102	1048576	11	3930
2026-01-06 11:39:02.14	132.13	17.33	-24.8	-25.8	16.9	1.10e-06	0	43	102	1048576	10	4057
2026-01-06 11:39:03.15	132.06	17.45	-24.6	-25.6	17.0	0.00e+00	0	43	102	1048576	10	3999
2026-01-06 11:39:04.15	131.99	17.56	-24.6	-25.5	17.0	0.00e+00	0	43	102	1048576	10	3990
2026-01-06 11:39:05.16	131.92	17.68	-24.7	-25.7	17.0	0.00e+00	0	43	102	1048576	10	4033
2026-01-06 11:39:06.17	131.84	17.79	-24.5	-25.3	17.1	0.00e+00	0	43	102	1048576	10	3945
2026-01-06 11:39:07.18	131.77	17.91	-24.5	-25.1	17.2	0.00e+00	0	43	102	1048576	10	3892
2026-01-06 11:39:08.18	131.70	18.02	-24.5	-25.3	17.2	0.00e+00	0	43	102	1048576	10	3939
2026-01-06 11:39:09.20	131.62	18.14	-24.6	-25.4	17.1	0.00e+00	0	43	102	1048576	10	3967
2026-01-06 11:39:10.20	131.54	18.25	-24.7	-25.6	17.0	0.00e+00	0	43	102	1048576	10	4000
2026-01-06 11:39:11.21	131.47	18.37	-24.5	-25.2	17.2	0.00e+00	0	43	102	1048576	10	3914
2026-01-06 11:39:12.22	131.39	18.49	-24.5	-25.2	17.2	0.00e+00	0	43	102	1048576	10	3908
2026-01-06 11:39:13.23	131.31	18.61	-24.6	-25.5	17.1	0.00e+00	0	43	102	1048576	10	3979
2026-01-06 11:39:14.24	131.24	18.73	-24.8	-25.8	16.9	0.00e+00	0	43	102	1048576	10	4066
2026-01-06 11:39:15.24	131.16	18.85	-24.6	-25.5	17.1	0.00e+00	0	43	102	1048576	10	3986
2026-01-06 11:39:16.24	131.08	18.97	-24.5	-25.4	17.2	0.00e+00	0	43	102	1048576	10	3948
2026-01-06 11:39:17.25	131.00	19.09	-24.7	-25.6	17.1	0.00e+00	0	43	102	1048576	10	4018
2026-01-06 11:39:18.26	130.92	19.21	-24.7	-25.6	17.0	0.00e+00	0	43	102	1048576	10	4017
2026-01-06 11:39:19.25	130.84	19.33	-24.8	-26.0	16.9	0.00e+00	0	43	102	1048576	10	4107
2026-01-06 11:39:20.25	130.76	19.45	-24.6	-25.4	17.2	0.00e+00	0	43	102	1048576	10	3956
2026-01-06 11:39:21.26	130.67	19.57	-24.4	-25.0	17.4	0.00e+00	0	43	102	1048576	10	3869
2026-01-06 11:39:22.26	130.59	19.69	-24.2	-25.2	17.6	0.00e+00	0	43	102	1048576	9	4021
2026-01-06 11:39:23.27	130.51	19.82	-24.2	-25.0	17.7	0.00e+00	0	43	102	1048576	9	3974
2026-01-06 11:39:24.28	130.42	19.94	-24.1	-24.8	17.8	0.00e+00	0	43	102	1048576	9	3909
2026-01-06 11:39:25.28	130.34	20.06	-24.0	-24.7	17.8	0.00e+00	0	43	102	1048576	9	3899
2026-01-06 11:39:26.29	130.25	20.19	-24.1	-25.0	17.7	0.00e+00	0	43	102	1048576	9	3958
2026-01-06 11:39:27.30	130.16	20.32	-24.2	-25.1	17.7	0.00e+00	0	43	102	1048576	9	3983
2026-01-06 11:39:28.30	130.08	20.44	-23.9	-24.5	18.0	0.00e+00	0	43	102	1048576	9	3840
2026-01-06 11:39:29.30	129.99	20.57	-23.8	-24.6	18.2	0.00e+00	0	43	102	1048576	8	3982
2026-01-06 11:39:30.31	129.90	20.69	-23.7	-24.6	18.2	0.00e+00	0	43	102	1048576	8	3962
2026-01-06 11:39:31.32	129.81	20.82	-23.8	-24.7	18.1	0.00e+00	0	43	102	1048576	8	4012
2026-01-06 11:39:32.33	129.72	20.95	-23.8	-24.8	18.1	0.00e+00	0	43	102	1048576	8	4033
2026-01-06 11:39:33.34	129.63	21.08	-23.9	-25.0	18.0	0.00e+00	0	43	102	1048576	8	4069
2026-01-06 11:39:34.35	129.53	21.21	-24.0	-25.2	17.9	0.00e+00	0	43	102	1048576	8	4123
2026-01-06 11:39:35.35	129.44	21.34	-24.0	-25.2	17.9	0.00e+00	0	43	102	1048576	8	4125
2026-01-06 11:39:36.35	129.35	21.47	-24.1	-25.3	17.8	0.00e+00	0	43	102	1048576	8	4156
2026-01-06 11:39:37.36	129.25	21.60	-24.1	-25.4	17.8	0.00e+00	0	43	102	1048576	8	4174
2026-01-06 11:39:38.37	129.16	21.74	-24.2	-25.6	17.7	0.00e+00	0	43	102	1048576	8	4229
2026-01-06 11:39:39.37	129.06	21.87	-24.0	-25.2	17.9	0.00e+00	0	43	102	1048576	8	4126
2026-01-06 11:39:40.38	128.97	22.00	-24.0	-25.1	18.0	1.10e-06	0	43	102	1048576	8	4116
2026-01-06 11:39:41.39	128.87	22.14	-24.0	-25.1	18.0	0.00e+00	0	43	102	1048576	8	4107
2026-01-06 11:39:42.40	128.77	22.27	-23.9	-25.0	18.1	0.00e+00	0	43	102	1048576	8	4069
2026-01-06 11:39:43.40	128.67	22.40	-23.7	-24.6	18.3	1.10e-06	0	43	102	1048576	8	3973
2026-01-06 11:39:44.41	128.57	22.54	-23.7	-24.4	18.4	0.00e+00	0	43	102	1048576	8	3939
2026-01-06 11:39:45.41	128.47	22.68	-23.7	-24.5	18.3	0.00e+00	0	43	102	1048576	8	3955
2026-01-06 11:39:46.42	128.37	22.81	-23.7	-24.5	18.3	0.00e+00	0	43	102	1048576	8	3956
2026-01-06 11:39:47.43	128.26	22.95	-23.5	-24.2	18.5	0.00e+00	0	43	102	1048576	8	3869
2026-01-06 11:39:48.43	128.16	23.09	-23.6	-24.3	18.4	0.00e+00	0	43	102	1048576	8	3891
2026-01-06 11:39:49.43	128.05	23.23	-23.6	-24.3	18.5	0.00e+00	0	43	102	1048576	8	3887
2026-01-06 11:39:50.43	127.95	23.37	-23.5	-24.0	18.6	0.00e+00	0	43	102	1048576	8	3836
2026-01-06 11:39:51.44	127.84	23.51	-23.5	-24.0	18.6	0.00e+00	0	43	102	1048576	8	3828
2026-01-06 11:39:52.45	127.73	23.65	-23.5	-24.0	18.6	0.00e+00	0	43	102	1048576	8	3833
2026-01-06 11:39:53.46	127.62	23.79	-23.4	-23.9	18.7	0.00e+00	0	43	102	1048576	8	3799
2026-01-06 11:39:54.47	127.51	23.93	-23.3	-23.7	18.8	0.00e+00	0	43	102	1048576	8	3763
2026-01-06 11:39:55.48	127.40	24.07	-23.5	-24.0	18.6	0.00e+00	0	43	102	1048576	8	3839
2026-01-06 11:39:56.48	127.29	24.22	-23.5	-24.0	18.6	0.00e+00	0	43	102	1048576	8	3837
2026-01-06 11:39:57.49	127.18	24.36	-23.4	-23.9	18.7	0.00e+00	0	43	102	1048576	8	3818
2026-01-06 11:39:58.49	127.06	24.51	-23.4	-23.9	18.7	0.00e+00	0	43	102	1048576	8	3811
2026-01-06 11:39:59.50	126.95	24.65	-23.4	-23.8	18.7	0.00e+00	0	43	102	1048576	8	3787
2026-01-06 11:40:00.50	126.83	24.80	-23.5	-24.0	18.6	0.00e+00	0	43	102	1048576	8	3842
2026-01-06 11:40:01.52	126.71	24.95	-23.4	-23.9	18.7	3.40e-06	0	43	102	1048576	8	3809
2026-01-06 11:40:02.52	126.59	25.09	-23.2	-24.0	18.9	0.00e+00	0	43	102	1048576	7	3939
2026-01-06 11:40:03.53	126.47	25.24	-23.2	-24.0	18.9	0.00e+00	0	43	102	1048576	7	3939
2026-01-06 11:40:04.54	126.35	25.39	-23.3	-24.2	18.8	0.00e+00	0	43	102	1048576	7	3986
2026-01-06 11:40:05.54	126.23	25.54	-23.4	-24.3	18.7	0.00e+00	0	43	102	1048576	7	4008
2026-01-06 11:40:06.55	126.11	25.69	-23.3	-24.2	18.8	0.00e+00	0	43	102	1048576	7	3976
2026-01-06 11:40:07.56	125.98	25.84	-23.4	-24.4	18.7	0.00e+00	0	43	102	1048576	7	4037
2026-01-06 11:40:08.56	125.86	25.99	-23.4	-24.4	18.7	0.00e+00	0	43	102	1048576	7	4037
2026-01-06 11:40:09.57	125.73	26.14	-23.4	-24.3	18.7	0.00e+00	0	43	102	1048576	7	4018
2026-01-06 11:40:10.58	125.60	26.30	-23.4	-24.3	18.7	0.00e+00	0	43	102	1048576	7	4014
2026-01-06 11:40:11.58	125.47	26.45	-23.5	-24.6	18.6	0.00e+00	0	43	102	1048576	7	4073
2026-01-06 11:40:12.59	125.34	26.61	-23.4	-24.4	18.7	0.00e+00	0	43	102	1048576	7	4028
2026-01-06 11:40:13.59	125.21	26.76	-23.2	-24.0	18.9	0.00e+00	0	43	102	1048576	7	3943
2026-01-06 11:40:14.60	125.08	26.92	-23.3	-24.2	18.8	0.00e+00	0	43	102	1048576	7	3978
2026-01-06 11:40:15.61	124.94	27.07	-23.3	-24.2	18.8	0.00e+00	0	43	102	1048576	7	3995
2026-01-06 11:40:16.61	124.80	27.23	-23.4	-24.3	18.7	0.00e+00	0	43	102	1048576	7	4017
2026-01-06 11:40:17.62	124.67	27.39	-23.3	-24.1	18.9	0.00e+00	0	43	102	1048576	7	3959
2026-01-06 11:40:18.63	124.53	27.55	-23.4	-24.3	18.8	0.00e+00	0	43	102	1048576	7	4012
2026-01-06 11:40:19.63	124.39	27.71	-23.2	-24.0	18.9	0.00e+00	0	43	102	1048576	7	3937
2026-01-06 11:40:20.64	124.25	27.87	-23.1	-23.6	19.1	0.00e+00	0	43	102	1048576	7	3853
2026-01-06 11:40:21.65	124.10	28.03	-23.0	-23.5	19.2	0.00e+00	0	43	102	1048576	7	3819
2026-01-06 11:40:22.65	123.96	28.19	-23.1	-23.8	19.0	0.00e+00	0	43	102	1048576	7	3890
2026-01-06 11:40:23.66	123.81	28.35	-23.2	-23.9	19.0	0.00e+00	0	43	102	1048576	7	3907
2026-01-06 11:40:24.67	123.66	28.52	-23.3	-24.1	18.9	0.00e+00	0	43	102	1048576	7	3958
2026-01-06 11:40:25.67	123.51	28.68	-23.2	-24.0	18.9	0.00e+00	0	43	102	1048576	7	3940
2026-01-06 11:40:26.68	123.36	28.84	-23.3	-24.2	18.8	0.00e+00	0	43	102	1048576	7	3983
2026-01-06 11:40:27.69	123.21	29.01	-23.2	-24.0	18.9	0.00e+00	0	43	102	1048576	7	3942
2026-01-06 11:40:28.70	123.06	29.18	-23.2	-23.9	18.9	0.00e+00	0	43	102	1048576	7	3925
2026-01-06 11:40:29.71	122.90	29.34	-23.2	-24.0	19.0	0.00e+00	0	43	102	1048576	7	3928
2026-01-06 11:40:30.71	122.74	29.51	-23.3	-24.2	18.9	0.00e+00	0	43	102	1048576	7	3984
2026-01-06 11:40:31.72	122.58	29.68	-23.3	-24.1	18.9	0.00e+00	0	43	102	1048576	7	3956
2026-01-06 11:40:32.72	122.42	29.85	-23.3	-24.2	18.9	0.00e+00	0	43	102	1048576	7	3981
2026-01-06 11:40:33.73	122.26	30.02	-23.3	-24.1	18.9	0.00e+00	0	43	102	1048576	7	3973
2026-01-06 11:40:34.74	122.10	30.19	-23.4	-24.4	18.7	0.00e+00	0	43	102	1048576	7	4033
2026-01-06 11:40:35.74	121.93	30.36	-23.4	-24.3	18.8	0.00e+00	0	43	102	1048576	7	4009
2026-01-06 11:40:36.75	121.76	30.53	-23.4	-24.3	18.8	0.00e+00	0	43	102	1048576	7	4008
2026-01-06 11:40:37.76	121.59	30.71	-23.5	-24.5	18.7	0.00e+00	0	44	102	1048576	7	4057
2026-01-06 11:40:38.77	121.42	30.88	-23.3	-24.2	18.9	0.00e+00	0	43	102	1048576	7	3983
2026-01-06 11:40:39.77	121.25	31.05	-23.1	-23.7	19.1	4.50e-06	0	43	102	1048576	7	3876
2026-01-06 11:40:40.78	121.07	31.23	-23.0	-23.5	19.3	0.00e+00	0	44	102	1048576	7	3811
2026-01-06 11:40:41.78	120.90	31.41	-23.1	-23.7	19.2	0.00e+00	0	43	102	1048576	7	3856
2026-01-06 11:40:42.78	120.72	31.58	-22.9	-23.3	19.3	0.00e+00	0	43	102	1048576	7	3776
2026-01-06 11:40:43.79	120.54	31.76	-22.7	-23.5	19.5	0.00e+00	0	44	102	1048576	6	3918
2026-01-06 11:40:44.79	120.36	31.94	-22.8	-23.5	19.5	0.00e+00	0	44	102	1048576	6	3932
2026-01-06 11:40:45.80	120.17	32.11	-23.0	-24.0	19.3	0.00e+00	0	43	102	1048576	6	4036
2026-01-06 11:40:46.81	119.98	32.30	-22.8	-23.7	19.4	0.00e+00	0	43	102	1048576	6	3966
2026-01-06 11:40:47.82	119.79	32.48	-22.7	-23.3	19.6	0.00e+00	0	43	102	1048576	6	3884
2026-01-06 11:40:48.83	119.60	32.66	-22.7	-23.4	19.6	0.00e+00	0	43	102	1048576	6	3899
2026-01-06 11:40:49.83	119.41	32.84	-22.7	-23.5	19.5	0.00e+00	0	44	102	1048576	6	3917
2026-01-06 11:40:50.83	119.21	33.02	-22.8	-23.5	19.5	0.00e+00	0	43	102	1048576	6	3929
2026-01-06 11:40:51.84	119.01	33.20	-22.7	-23.5	19.6	4.50e-06	0	43	102	1048576	6	3924
2026-01-06 11:40:52.85	118.81	33.39	-22.7	-23.4	19.6	0.00e+00	0	43	102	1048576	6	3907
2026-01-06 11:40:53.85	118.61	33.57	-22.8	-23.6	19.5	0.00e+00	0	43	102	1048576	6	3944
2026-01-06 11:40:54.86	118.41	33.76	-22.6	-23.2	19.7	0.00e+00	0	44	102	1048576	6	3856
2026-01-06 11:40:55.86	118.20	33.94	-22.6	-23.2	19.7	0.00e+00	0	43	102	1048576	6	3863
2026-01-06 11:40:56.87	117.99	34.13	-22.7	-23.5	19.5	0.00e+00	0	43	102	1048576	6	3916
2026-01-06 11:40:57.88	117.78	34.32	-22.8	-23.6	19.4	4.50e-06	0	43	102	1048576	6	3956
2026-01-06 11:40:58.89	117.56	34.51	-22.8	-23.7	19.4	0.00e+00	0	43	102	1048576	6	3963
2026-01-06 11:40:59.90	117.34	34.70	-22.8	-23.6	19.4	0.00e+00	0	44	102	1048576	6	3957
2026-01-06 11:41:00.90	117.13	34.88	-22.8	-23.6	19.5	1.10e-06	0	43	102	1048576	6	3949
2026-01-06 11:41:01.91	116.90	35.07	-22.9	-23.8	19.4	0.00e+00	0	43	102	1048576	6	3991
2026-01-06 11:41:02.91	116.68	35.26	-22.8	-23.6	19.5	0.00e+00	0	43	102	1048576	6	3948
2026-01-06 11:41:03.93	116.45	35.46	-22.8	-23.6	19.5	0.00e+00	0	43	102	1048576	6	3963
2026-01-06 11:41:04.93	116.22	35.65	-22.8	-23.7	19.4	0.00e+00	0	43	102	1048576	6	3978
2026-01-06 11:41:05.94	115.98	35.84	-22.9	-23.9	19.4	0.00e+00	0	43	102	1048576	6	4011
2026-01-06 11:41:06.95	115.75	36.04	-22.6	-23.3	19.7	0.00e+00	0	43	102	1048576	6	3876
2026-01-06 11:41:07.95	115.51	36.23	-22.5	-22.9	19.9	0.00e+00	0	43	102	1048576	6	3787
2026-01-06 11:41:08.96	115.27	36.42	-22.5	-23.0	19.9	0.00e+00	0	43	102	1048576	6	3797
2026-01-06 11:41:09.96	115.03	36.62	-22.5	-22.9	19.9	0.00e+00	0	43	102	1048576	6	3795
2026-01-06 11:41:10.97	114.78	36.81	-22.6	-23.3	19.7	0.00e+00	0	44	102	1048576	6	3864
2026-01-06 11:41:11.97	114.53	37.01	-22.7	-23.4	19.7	0.00e+00	0	43	102	1048576	6	3888
2026-01-06 11:41:12.98	114.27	37.20	-22.8	-23.6	19.6	0.00e+00	0	43	102	1048576	6	3931
2026-01-06 11:41:13.99	114.02	37.40	-22.7	-23.3	19.7	0.00e+00	0	43	102	1048576	6	3873
2026-01-06 11:41:14.99	113.76	37.60	-22.7	-23.4	19.6	0.00e+00	0	43	102	1048576	6	3901
2026-01-06 11:41:16.00	113.49	37.80	-22.8	-23.5	19.6	0.00e+00	0	43	102	1048576	6	3921
2026-01-06 11:41:17.00	113.23	37.99	-22.8	-23.5	19.6	0.00e+00	0	43	102	1048576	6	3915
2026-01-06 11:41:18.01	112.96	38.19	-22.5	-23.0	19.8	0.00e+00	0	43	102	1048576	6	3810
2026-01-06 11:41:19.02	112.68	38.39	-22.5	-23.0	19.9	0.00e+00	0	43	102	1048576	6	3809
2026-01-06 11:41:20.02	112.41	38.59	-22.6	-23.2	19.7	0.00e+00	0	43	102	1048576	6	3859
2026-01-06 11:41:21.03	112.13	38.79	-22.5	-23.0	19.9	0.00e+00	0	43	102	1048576	6	3801
2026-01-06 11:41:22.03	111.85	38.99	-22.5	-22.9	19.9	0.00e+00	0	43	102	1048576	6	3788
2026-01-06 11:41:23.04	111.56	39.19	-22.6	-23.3	19.8	0.00e+00	0	43	102	1048576	6	3860
2026-01-06 11:41:24.05	111.27	39.40	-22.7	-23.3	19.7	0.00e+00	0	44	102	1048576	6	3874
2026-01-06 11:41:25.04	110.98	39.59	-22.7	-23.4	19.7	0.00e+00	0	43	102	1048576	6	3883
2026-01-06 11:41:26.04	110.68	39.80	-22.7	-23.4	19.7	0.00e+00	0	44	102	1048576	6	3887
2026-01-06 11:41:27.05	110.38	40.00	-22.6	-23.2	19.8	0.00e+00	0	43	102	1048576	6	3846
2026-01-06 11:41:28.05	110.08	40.20	-22.7	-23.3	19.7	0.00e+00	0	43	102	1048576	6	3879
2026-01-06 11:41:29.06	109.77	40.40	-23.0	-24.0	19.4	0.00e+00	0	44	102	1048576	6	4052
2026-01-06 11:41:30.07	109.45	40.61	-22.9	-23.7	19.5	0.00e+00	0	43	102	1048576	6	3971
2026-01-06 11:41:31.07	109.14	40.81	-22.8	-23.5	19.7	0.00e+00	0	43	102	1048576	6	3920
2026-01-06 11:41:32.08	108.81	41.01	-22.7	-23.3	19.7	0.00e+00	0	43	102	1048576	6	3879
2026-01-06 11:41:33.08	108.49	41.21	-22.8	-23.6	19.6	1.10e-06	0	43	102	1048576	6	3932
2026-01-06 11:41:34.08	108.16	41.42	-22.6	-23.2	19.8	0.00e+00	0	43	102	1048576	6	3859
2026-01-06 11:41:35.08	107.83	41.62	-22.6	-23.2	19.8	0.00e+00	0	43	102	1048576	6	3857
2026-01-06 11:41:36.09	107.49	41.82	-22.7	-23.4	19.7	0.00e+00	0	43	102	1048576	6	3901
2026-01-06 11:41:37.09	107.15	42.02	-22.7	-23.2	19.8	0.00e+00	0	43	102	1048576	6	3857
2026-01-06 11:41:38.10	106.81	42.23	-22.7	-23.4	19.7	0.00e+00	0	43	102	1048576	6	3891
2026-01-06 11:41:39.10	106.46	42.43	-22.8	-23.5	19.7	0.00e+00	0	43	102	1048576	6	3928
2026-01-06 11:41:40.10	106.11	42.63	-22.6	-23.2	19.9	0.00e+00	0	44	102	1048576	6	3845
2026-01-06 11:41:41.11	105.74	42.83	-22.4	-22.7	20.1	0.00e+00	0	44	102	1048576	6	3738
2026-01-06 11:41:42.11	105.38	43.04	-22.5	-22.9	20.0	0.00e+00	0	43	102	1048576	6	3778
2026-01-06 11:41:43.11	105.02	43.24	-22.5	-23.0	20.0	0.00e+00	0	43	102	1048576	6	3799
2026-01-06 11:41:44.11	104.64	43.44	-22.8	-23.6	19.6	0.00e+00	0	44	102	1048576	6	3951
2026-01-06 11:41:45.11	104.27	43.64	-22.7	-23.3	19.8	0.00e+00	0	43	102	1048576	6	3877
2026-01-06 11:41:46.12	103.88	43.84	-22.6	-23.1	19.9	0.00e+00	0	43	102	1048576	6	3829
2026-01-06 11:41:47.13	103.49	44.04	-22.8	-23.5	19.7	0.00e+00	0	43	102	1048576	6	3908
2026-01-06 11:41:48.14	103.10	44.24	-22.8	-23.7	19.6	0.00e+00	0	43	102	1048576	6	3961
2026-01-06 11:41:49.15	102.70	44.44	-22.9	-23.8	19.6	0.00e+00	0	43	102	1048576	6	3996
2026-01-06 11:41:50.15	102.30	44.64	-22.8	-23.5	19.7	0.00e+00	0	43	102	1048576	6	3928
2026-01-06 11:41:51.16	101.89	44.84	-22.6	-23.1	19.9	1.10e-06	0	43	102	1048576	6	3836
2026-01-06 11:41:52.16	101.48	45.04	-22.6	-23.1	19.9	0.00e+00	0	43	102	1048576	6	3830
2026-01-06 11:41:53.17	101.06	45.24	-22.8	-23.6	19.7	0.00e+00	0	43	102	1048576	6	3932
2026-01-06 11:41:54.18	100.64	45.43	-22.9	-23.8	19.6	1.10e-06	0	43	102	1048576	6	3993
2026-01-06 11:41:55.18	100.21	45.63	-23.3	-24.6	19.2	0.00e+00	0	44	102	1048576	6	4200
2026-01-06 11:41:56.19	99.77	45.82	-23.1	-24.2	19.4	0.00e+00	0	43	102	1048576	6	4090
2026-01-06 11:41:57.20	99.33	46.02	-23.0	-23.9	19.5	0.00e+00	0	43	102	1048576	6	4022
2026-01-06 11:41:58.20	98.89	46.21	-23.1	-24.2	19.4	0.00e+00	0	43	102	1048576	6	4078
2026-01-06 11:41:59.21	98.44	46.40	-23.3	-24.7	19.2	0.00e+00	0	43	102	1048576	6	4205
2026-01-06 11:42:00.21	97.98	46.59	-23.2	-24.5	19.2	0.00e+00	0	43	102	1048576	6	4167
2026-01-06 11:42:01.22	97.52	46.78	-23.3	-24.7	19.2	0.00e+00	0	43	102	1048576	6	4204
2026-01-06 11:42:02.23	97.05	46.97	-23.3	-24.7	19.2	0.00e+00	0	43	102	1048576	6	4200
2026-01-06 11:42:03.23	96.58	47.16	-23.6	-24.7	19.0	0.00e+00	0	43	102	1048576	7	4083
2026-01-06 11:42:04.24	96.10	47.35	-23.5	-24.6	19.0	0.00e+00	0	43	102	1048576	7	4076
2026-01-06 11:42:05.25	95.61	47.53	-23.7	-25.0	18.8	0.00e+00	0	43	102	1048576	7	4171
2026-01-06 11:42:06.25	95.13	47.71	-23.8	-25.1	18.7	0.00e+00	0	43	102	1048576	7	4206
2026-01-06 11:42:07.26	94.63	47.90	-23.7	-24.9	18.8	0.00e+00	0	43	102	1048576	7	4152
2026-01-06 11:42:08.26	94.13	48.08	-23.8	-25.2	18.7	0.00e+00	0	43	102	1048576	7	4216
2026-01-06 11:42:09.27	93.62	48.25	-23.6	-24.6	19.0	0.00e+00	0	44	102	1048576	7	4077
2026-01-06 11:42:10.28	93.10	48.43	-23.7	-24.9	18.8	0.00e+00	0	43	102	1048576	7	4151
2026-01-06 11:42:11.28	92.59	48.60	-24.0	-25.0	18.6	0.00e+00	0	44	102	1048576	8	4061
2026-01-06 11:42:12.28	92.06	48.78	-23.6	-24.3	19.0	0.00e+00	0	43	102	1048576	8	3882
2026-01-06 11:42:13.28	91.54	48.95	-23.4	-23.7	19.2	0.00e+00	0	43	102	1048576	8	3746
2026-01-06 11:42:14.29	91.00	49.12	-23.3	-24.0	19.3	1.10e-06	0	43	102	1048576	7	3923
2026-01-06 11:42:15.29	90.46	49.28	-23.4	-24.3	19.2	0.00e+00	0	43	102	1048576	7	4001
2026-01-06 11:42:16.29	89.91	49.45	-23.6	-24.8	18.9	0.00e+00	0	43	102	1048576	7	4124
2026-01-06 11:42:17.29	89.36	49.61	-23.6	-24.8	18.9	0.00e+00	0	43	102	1048576	7	4120
2026-01-06 11:42:18.30	88.80	49.77	-23.3	-24.1	19.3	0.00e+00	0	43	102	1048576	7	3944
2026-01-06 11:42:19.30	88.23	49.92	-23.3	-24.1	19.3	0.00e+00	0	43	102	1048576	7	3940
2026-01-06 11:42:20.30	87.66	50.08	-23.6	-24.7	19.0	0.00e+00	0	44	102	1048576	7	4083
2026-01-06 11:42:21.31	87.08	50.23	-23.8	-25.2	18.7	0.00e+00	0	43	102	1048576	7	4231
2026-01-06 11:42:22.30	86.51	50.38	-24.0	-25.1	18.5	0.00e+00	0	44	102	1048576	8	4093
2026-01-06 11:42:23.31	85.92	50.53	-23.9	-24.9	18.7	0.00e+00	0	44	102	1048576	8	4025
2026-01-06 11:42:24.32	85.32	50.67	-24.0	-25.1	18.6	0.00e+00	0	43	102	1048576	8	4077
2026-01-06 11:42:25.32	84.72	50.81	-23.9	-24.9	18.7	0.00e+00	0	44	102	1048576	8	4022
2026-01-06 11:42:26.33	84.11	50.95	-24.0	-25.1	18.6	0.00e+00	0	44	102	1048576	8	4072
2026-01-06 11:42:27.33	83.50	51.09	-24.1	-25.2	18.5	0.00e+00	0	44	102	1048576	8	4105
2026-01-06 11:42:28.34	82.88	51.22	-24.0	-25.0	18.6	0.00e+00	0	43	102	1048576	8	4056
2026-01-06 11:42:29.35	82.26	51.35	-23.9	-24.9	18.7	0.00e+00	0	43	102	1048576	8	4017
2026-01-06 11:42:30.35	81.63	51.47	-24.0	-25.0	18.6	0.00e+00	0	44	102	1048576	8	4048
2026-01-06 11:42:31.36	80.99	51.60	-24.2	-25.4	18.4	0.00e+00	0	44	102	1048576	8	4159
2026-01-06 11:42:32.36	80.36	51.71	-24.2	-25.5	18.4	0.00e+00	0	43	102	1048576	8	4172
2026-01-06 11:42:33.37	79.71	51.83	-24.2	-25.5	18.4	0.00e+00	0	44	102	1048576	8	4187
2026-01-06 11:42:34.38	79.06	51.94	-23.7	-24.4	19.0	0.00e+00	0	43	102	1048576	8	3898
2026-01-06 11:42:35.39	78.40	52.05	-23.6	-24.2	19.0	0.00e+00	0	43	102	1048576	8	3851
2026-01-06 11:42:36.39	77.75	52.16	-23.8	-24.7	18.8	0.00e+00	0	44	102	1048576	8	3977
2026-01-06 11:42:37.39	77.09	52.26	-23.8	-24.7	18.8	0.00e+00	0	43	102	1048576	8	3983
2026-01-06 11:42:38.39	76.42	52.35	-23.5	-24.0	19.1	0.00e+00	0	44	102	1048576	8	3802
2026-01-06 11:42:39.40	75.75	52.45	-23.2	-23.9	19.4	0.00e+00	0	43	102	1048576	7	3893
2026-01-06 11:42:40.40	75.08	52.54	-23.4	-24.3	19.2	0.00e+00	0	44	102	1048576	7	3982
2026-01-06 11:42:41.41	74.39	52.62	-23.6	-24.8	19.0	0.00e+00	0	43	102	1048576	7	4105
2026-01-06 11:42:42.41	73.71	52.71	-23.4	-24.3	19.2	0.00e+00	0	43	102	1048576	7	3993
2026-01-06 11:42:43.41	73.03	52.78	-23.5	-24.5	19.1	0.00e+00	0	43	102	1048576	7	4031
2026-01-06 11:42:44.42	72.34	52.86	-23.8	-25.1	18.8	0.00e+00	0	44	102	1048576	7	4192
2026-01-06 11:42:45.42	71.64	52.92	-23.7	-25.0	18.8	0.00e+00	0	44	102	1048576	7	4174
2026-01-06 11:42:46.43	70.94	52.99	-23.7	-24.8	18.9	0.00e+00	0	44	102	1048576	7	4127
2026-01-06 11:42:47.44	70.24	53.05	-23.5	-24.5	19.1	0.00e+00	0	44	102	1048576	7	4044
2026-01-06 11:42:48.45	69.53	53.11	-23.2	-23.9	19.4	0.00e+00	0	44	102	1048576	7	3904
2026-01-06 11:42:49.46	68.82	53.16	-23.4	-24.3	19.3	0.00e+00	0	44	102	1048576	7	3983
2026-01-06 11:42:50.46	68.12	53.21	-23.5	-24.4	19.3	0.00e+00	0	44	102	1048576	7	4003
2026-01-06 11:42:51.47	67.41	53.25	-23.2	-23.9	19.6	0.00e+00	0	43	102	1048576	7	3885
2026-01-06 11:42:52.48	66.69	53.29	-23.6	-24.6	19.2	0.00e+00	0	44	102	1048576	7	4040
2026-01-06 11:42:53.49	65.97	53.32	-23.9	-25.3	18.8	0.00e+00	0	44	102	1048576	7	4238
2026-01-06 11:42:54.49	65.26	53.35	-23.9	-25.4	18.8	0.00e+00	0	44	102	1048576	7	4252
2026-01-06 11:42:55.50	64.54	53.38	-23.8	-25.0	19.0	0.00e+00	0	44	102	1048576	7	4153
2026-01-06 11:42:56.51	63.82	53.40	-24.1	-25.3	18.7	0.00e+00	0	43	102	1048576	8	4105
2026-01-06 11:42:57.52	63.09	53.41	-24.2	-25.5	18.6	0.00e+00	0	44	102	1048576	8	4157
2026-01-06 11:42:58.52	62.38	53.42	-23.9	-24.8	18.9	0.00e+00	0	44	102	1048576	8	3984
2026-01-06 11:42:59.53	61.65	53.43	-23.7	-24.5	19.1	0.00e+00	0	44	102	1048576	8	3913
2026-01-06 11:43:00.52	60.95	53.43	-23.6	-24.1	19.2	0.00e+00	0	44	102	1048576	8	3835
2026-01-06 11:43:01.53	60.22	53.43	-23.6	-24.1	19.2	0.00e+00	0	44	102	1048576	8	3833
2026-01-06 11:43:02.54	59.50	53.42	-23.5	-24.0	19.3	0.00e+00	0	44	102	1048576	8	3804
2026-01-06 11:43:03.55	58.77	53.41	-23.4	-23.7	19.4	0.00e+00	0	43	102	1048576	8	3744
2026-01-06 11:43:04.56	58.05	53.39	-23.5	-23.9	19.4	0.00e+00	0	43	102	1048576	8	3782
2026-01-06 11:43:05.56	57.34	53.37	-23.8	-24.6	19.0	0.00e+00	0	43	102	1048576	8	3936
2026-01-06 11:43:06.56	56.63	53.34	-24.1	-25.1	18.7	0.00e+00	0	44	102	1048576	8	4075
2026-01-06 11:43:07.57	55.91	53.31	-23.9	-24.7	18.9	0.00e+00	0	44	102	1048576	8	3977
2026-01-06 11:43:08.57	55.20	53.28	-23.5	-23.9	19.3	0.00e+00	0	44	102	1048576	8	3787
2026-01-06 11:43:09.58	54.48	53.24	-23.3	-23.5	19.5	0.00e+00	0	43	102	1048576	8	3692
2026-01-06 11:43:10.58	53.78	53.20	-23.5	-24.0	19.3	0.00e+00	0	44	102	1048576	8	3794
2026-01-06 11:43:11.59	53.06	53.15	-23.8	-24.6	19.0	0.00e+00	0	43	102	1048576	8	3946
2026-01-06 11:43:12.60	52.36	53.09	-23.8	-24.5	19.0	0.00e+00	0	44	102	1048576	8	3925
2026-01-06 11:43:13.60	51.66	53.04	-23.7	-24.3	19.1	0.00e+00	0	44	102	1048576	8	3869
2026-01-06 11:43:14.61	50.95	52.98	-24.1	-25.1	18.7	0.00e+00	0	44	102	1048576	8	4070
2026-01-06 11:43:15.61	50.26	52.91	-24.2	-25.5	18.5	0.00e+00	0	44	102	1048576	8	4157
2026-01-06 11:43:16.62	49.57	52.84	-23.9	-24.8	18.9	0.00e+00	0	43	102	1048576	8	3985
2026-01-06 11:43:17.62	48.88	52.77	-23.5	-23.9	19.4	0.00e+00	0	43	102	1048576	8	3774
2026-01-06 11:43:18.63	48.19	52.69	-23.2	-23.8	19.6	0.00e+00	0	44	102	1048576	7	3866
2026-01-06 11:43:19.63	47.51	52.60	-23.2	-23.9	19.6	0.00e+00	0	44	102	1048576	7	3882
2026-01-06 11:43:20.63	46.84	52.52	-23.5	-24.4	19.3	0.00e+00	0	43	102	1048576	7	4004
2026-01-06 11:43:21.63	46.17	52.43	-23.4	-24.3	19.4	0.00e+00	0	43	102	1048576	7	3977
2026-01-06 11:43:22.64	45.49	52.33	-23.4	-24.2	19.4	0.00e+00	0	43	102	1048576	7	3966
2026-01-06 11:43:23.65	44.82	52.24	-23.5	-24.4	19.3	0.00e+00	0	44	102	1048576	7	4010
2026-01-06 11:43:24.66	44.16	52.13	-23.5	-24.4	19.3	0.00e+00	0	44	102	1048576	7	4016
2026-01-06 11:43:25.66	43.51	52.03	-23.4	-24.2	19.4	0.00e+00	0	43	102	1048576	7	3959
2026-01-06 11:43:26.67	42.85	51.92	-23.3	-24.0	19.5	0.00e+00	0	44	102	1048576	7	3916
2026-01-06 11:43:27.68	42.20	51.80	-23.2	-23.8	19.6	0.00e+00	0	44	102	1048576	7	3867
2026-01-06 11:43:28.68	41.56	51.69	-23.3	-24.1	19.5	0.00e+00	0	43	102	1048576	7	3933
2026-01-06 11:43:29.68	40.93	51.57	-23.2	-23.9	19.6	0.00e+00	0	43	102	1048576	7	3885
2026-01-06 11:43:30.68	40.30	51.45	-23.1	-23.7	19.7	0.00e+00	0	44	102	1048576	7	3847
2026-01-06 11:43:31.68	39.68	51.32	-23.2	-23.9	19.5	0.00e+00	0	43	102	1048576	7	3893
2026-01-06 11:43:32.69	39.05	51.19	-23.2	-23.8	19.6	0.00e+00	0	43	102	1048576	7	3875
2026-01-06 11:43:33.70	38.44	51.06	-23.1	-23.5	19.7	0.00e+00	0	43	102	1048576	7	3806
2026-01-06 11:43:34.71	37.82	50.92	-23.2	-23.8	19.6	0.00e+00	0	43	102	1048576	7	3850
2026-01-06 11:43:35.72	37.22	50.78	-23.2	-23.8	19.6	0.00e+00	0	44	102	1048576	7	3860
2026-01-06 11:43:36.72	36.62	50.64	-23.1	-23.6	19.7	0.00e+00	0	44	102	1048576	7	3824
2026-01-06 11:43:37.73	36.02	50.50	-23.2	-23.8	19.6	0.00e+00	0	43	102	1048576	7	3876
2026-01-06 11:43:38.73	35.44	50.35	-23.0	-23.4	19.8	0.00e+00	0	43	102	1048576	7	3780
2026-01-06 11:43:39.74	34.86	50.20	-22.8	-23.0	20.0	0.00e+00	0	43	102	1048576	7	3688
2026-01-06 11:43:40.75	34.28	50.05	-22.9	-23.3	19.8	0.00e+00	0	43	102	1048576	7	3740
2026-01-06 11:43:41.76	33.71	49.89	-22.9	-23.2	19.9	0.00e+00	0	44	102	1048576	7	3726
2026-01-06 11:43:42.76	33.14	49.73	-23.1	-23.5	19.7	0.00e+00	0	44	102	1048576	7	3790
2026-01-06 11:43:43.77	32.58	49.57	-23.2	-23.8	19.6	0.00e+00	0	43	102	1048576	7	3876
2026-01-06 11:43:44.77	32.03	49.41	-23.4	-24.3	19.3	0.00e+00	0	43	102	1048576	7	3993
2026-01-06 11:43:45.78	31.49	49.24	-23.4	-24.3	19.3	0.00e+00	0	44	102	1048576	7	3975
2026-01-06 11:43:46.79	30.94	49.08	-23.2	-23.8	19.6	0.00e+00	0	43	102	1048576	7	3855
2026-01-06 11:43:47.80	30.41	48.91	-23.0	-23.4	19.8	0.00e+00	0	44	102	1048576	7	3768
2026-01-06 11:43:48.80	29.88	48.74	-23.2	-23.9	19.5	0.00e+00	0	43	102	1048576	7	3886
2026-01-06 11:43:49.80	29.36	48.57	-23.2	-23.9	19.5	0.00e+00	0	44	102	1048576	7	3886
2026-01-06 11:43:50.81	28.84	48.39	-23.1	-23.5	19.7	0.00e+00	0	43	102	1048576	7	3805
2026-01-06 11:43:51.82	28.33	48.21	-22.9	-23.2	19.9	0.00e+00	0	43	102	1048576	7	3729
2026-01-06 11:43:52.82	27.83	48.04	-22.9	-23.3	19.8	0.00e+00	0	43	102	1048576	7	3740
2026-01-06 11:43:53.83	27.33	47.86	-23.2	-23.8	19.6	0.00e+00	0	44	102	1048576	7	3868
2026-01-06 11:43:54.83	26.83	47.67	-23.0	-23.5	19.7	0.00e+00	0	44	102	1048576	7	3788
2026-01-06 11:43:55.84	26.34	47.49	-22.8	-23.0	20.0	0.00e+00	0	43	102	1048576	7	3688
2026-01-06 11:43:56.84	25.87	47.31	-22.7	-23.3	20.0	0.00e+00	0	44	102	1048576	6	3861
2026-01-06 11:43:57.85	25.39	47.12	-22.7	-23.4	20.0	0.00e+00	0	43	102	1048576	6	3875
2026-01-06 11:43:58.85	24.92	46.94	-22.8	-23.6	19.9	0.00e+00	0	43	102	1048576	6	3918
2026-01-06 11:43:59.85	24.46	46.75	-22.7	-23.2	20.1	0.00e+00	0	44	102	1048576	6	3839
2026-01-06 11:44:00.85	24.00	46.56	-22.5	-22.9	20.3	0.00e+00	0	44	102	1048576	6	3768
2026-01-06 11:44:01.85	23.55	46.37	-22.5	-22.8	20.3	0.00e+00	0	44	102	1048576	6	3748
2026-01-06 11:44:02.86	23.10	46.18	-22.7	-23.3	20.1	0.00e+00	0	43	102	1048576	6	3846
2026-01-06 11:44:03.86	22.66	45.99	-22.6	-23.1	20.2	0.00e+00	0	44	102	1048576	6	3806
2026-01-06 11:44:04.87	22.22	45.79	-22.7	-23.4	20.0	0.00e+00	0	44	102	1048576	6	3874
2026-01-06 11:44:05.88	21.79	45.60	-22.6	-23.1	20.1	0.00e+00	0	44	102	1048576	6	3808
2026-01-06 11:44:06.89	21.36	45.40	-22.6	-23.1	20.2	0.00e+00	0	43	102	1048576	6	3801
2026-01-06 11:44:07.89	20.94	45.20	-22.6	-23.1	20.2	0.00e+00	0	43	102	1048576	6	3799
2026-01-06 11:44:08.90	20.52	45.01	-22.7	-23.3	20.0	0.00e+00	0	43	102	1048576	6	3859
2026-01-06 11:44:09.91	20.11	44.81	-22.5	-22.9	20.2	0.00e+00	0	44	102	1048576	6	3770
2026-01-06 11:44:10.91	19.71	44.61	-22.3	-22.5	20.5	0.00e+00	0	43	102	1048576	6	3667
2026-01-06 11:44:11.92	19.30	44.41	-22.3	-22.6	20.4	0.00e+00	0	43	102	1048576	6	3689
2026-01-06 11:44:12.92	18.91	44.21	-22.5	-22.9	20.2	0.00e+00	0	44	102	1048576	6	3763
2026-01-06 11:44:13.93	18.52	44.01	-22.6	-23.1	20.1	0.00e+00	0	44	102	1048576	6	3806
2026-01-06 11:44:14.94	18.13	43.81	-22.6	-23.1	20.1	0.00e+00	0	43	102	1048576	6	3810
2026-01-06 11:44:15.95	17.75	43.61	-22.7	-23.2	20.1	0.00e+00	0	44	102	1048576	6	3841
2026-01-06 11:44:16.95	17.37	43.41	-22.7	-23.3	20.0	0.00e+00	0	44	102	1048576	6	3865
2026-01-06 11:44:17.95	17.01	43.21	-22.9	-23.7	19.8	0.00e+00	0	44	102	1048576	6	3948
2026-01-06 11:44:18.95	16.64	43.01	-22.7	-23.3	20.0	0.00e+00	0	44	102	1048576	6	3857
2026-01-06 11:44:19.96	16.28	42.81	-22.6	-23.0	20.2	0.00e+00	0	43	102	1048576	6	3782
2026-01-06 11:44:20.97	15.92	42.60	-22.6	-23.0	20.2	0.00e+00	0	43	102	1048576	6	3786
2026-01-06 11:44:21.98	15.56	42.40	-22.5	-23.0	20.2	0.00e+00	0	43	102	1048576	6	3780
2026-01-06 11:44:22.99	15.21	42.20	-22.6	-23.2	20.1	0.00e+00	0	43	102	1048576	6	3832
2026-01-06 11:44:23.99	14.87	42.00	-22.5	-22.9	20.2	0.00e+00	0	43	102	1048576	6	3759
2026-01-06 11:44:25.00	14.53	41.79	-22.4	-22.7	20.3	0.00e+00	0	43	102	1048576	6	3713
2026-01-06 11:44:26.01	14.19	41.59	-22.4	-22.8	20.3	0.00e+00	0	44	102	1048576	6	3732
2026-01-06 11:44:27.02	13.86	41.39	-22.5	-22.8	20.2	0.00e+00	0	44	102	1048576	6	3738
2026-01-06 11:44:28.02	13.54	41.19	-22.7	-23.2	20.0	0.00e+00	0	44	102	1048576	6	3839
2026-01-06 11:44:29.03	13.21	40.98	-22.7	-23.4	20.0	0.00e+00	0	43	102	1048576	6	3872
2026-01-06 11:44:30.03	12.90	40.78	-22.7	-23.3	20.0	0.00e+00	0	44	102	1048576	6	3853
2026-01-06 11:44:31.03	12.58	40.58	-22.6	-23.1	20.1	0.00e+00	0	43	102	1048576	6	3805
2026-01-06 11:44:32.04	12.27	40.38	-22.6	-23.0	20.1	0.00e+00	0	43	102	1048576	6	3792
2026-01-06 11:44:33.05	11.96	40.17	-22.7	-23.4	20.0	0.00e+00	0	43	102	1048576	6	3871
2026-01-06 11:44:34.06	11.66	39.97	-22.4	-22.6	20.4	0.00e+00	0	44	102	1048576	6	3697
2026-01-06 11:44:35.06	11.36	39.77	-22.2	-22.7	20.5	0.00e+00	0	43	102	1048576	5	3832
2026-01-06 11:44:36.07	11.06	39.57	-22.4	-23.1	20.3	0.00e+00	0	43	102	1048576	5	3929
2026-01-06 11:44:37.07	10.77	39.37	-22.6	-23.6	20.1	0.00e+00	0	44	102	1048576	5	4024
2026-01-06 11:44:38.08	10.48	39.17	-22.6	-23.5	20.1	0.00e+00	0	44	102	1048576	5	4016
2026-01-06 11:44:39.09	10.20	38.97	-22.8	-24.0	19.8	0.00e+00	0	43	102	1048576	5	4140
2026-01-06 11:44:40.11	9.91	38.77	-22.8	-23.9	19.9	0.00e+00	0	43	102	1048576	5	4115
2026-01-06 11:44:41.10	9.64	38.57	-22.9	-24.3	19.7	0.00e+00	0	43	102	1048576	5	4211
2026-01-06 11:44:42.11	9.36	38.37	-22.8	-24.1	19.8	0.00e+00	0	43	102	1048576	5	4160
2026-01-06 11:44:43.11	9.09	38.17	-23.2	-24.2	19.5	0.00e+00	0	44	102	1048576	6	4078
2026-01-06 11:44:44.12	8.82	37.97	-23.5	-24.6	19.1	0.00e+00	0	43	102	1048576	7	4045
2026-01-06 11:44:45.12	8.56	37.78	-23.2	-23.9	19.4	0.00e+00	0	44	102	1048576	7	3890
2026-01-06 11:44:46.13	8.30	37.58	-22.9	-23.2	19.7	0.00e+00	0	43	102	1048576	7	3744
2026-01-06 11:44:47.12	8.04	37.39	-22.7	-23.3	19.9	0.00e+00	0	43	102	1048576	6	3868
2026-01-06 11:44:48.13	7.79	37.19	-22.7	-23.4	19.9	0.00e+00	0	43	102	1048576	6	3882
2026-01-06 11:44:49.14	7.54	36.99	-22.9	-23.7	19.8	0.00e+00	0	44	102	1048576	6	3942
2026-01-06 11:44:50.15	7.29	36.80	-22.7	-23.2	20.0	0.00e+00	0	44	102	1048576	6	3839
2026-01-06 11:44:51.15	7.04	36.60	-22.7	-23.4	19.9	0.00e+00	0	44	102	1048576	6	3878
2026-01-06 11:44:52.16	6.80	36.41	-22.8	-23.5	19.8	0.00e+00	0	43	102	1048576	6	3915
2026-01-06 11:44:53.17	6.56	36.22	-22.7	-23.4	19.9	0.00e+00	0	43	102	1048576	6	3873
2026-01-06 11:44:54.18	6.32	36.02	-22.7	-23.2	20.0	0.00e+00	0	43	102	1048576	6	3837
2026-01-06 11:44:55.18	6.09	35.83	-22.7	-23.2	19.9	0.00e+00	0	43	102	1048576	6	3844
2026-01-06 11:44:56.19	5.85	35.64	-22.4	-22.7	20.2	0.00e+00	0	44	102	1048576	6	3729
2026-01-06 11:44:57.20	5.62	35.45	-22.4	-22.7	20.2	0.00e+00	0	43	102	1048576	6	3713
2026-01-06 11:44:58.21	5.40	35.26	-22.4	-22.8	20.2	0.00e+00	0	43	102	1048576	6	3737
2026-01-06 11:44:59.21	5.17	35.07	-22.4	-22.7	20.2	0.00e+00	0	43	102	1048576	6	3737
2026-01-06 11:45:00.22	4.95	34.88	-22.5	-22.9	20.1	0.00e+00	0	44	102	1048576	6	3758
2026-01-06 11:45:01.21	4.74	34.69	-22.6	-23.1	20.0	0.00e+00	0	43	102	1048576	6	3803
2026-01-06 11:45:02.22	4.52	34.50	-22.4	-22.8	20.2	0.00e+00	0	44	102	1048576	6	3737
2026-01-06 11:45:03.22	4.31	34.32	-22.5	-22.8	20.1	0.00e+00	0	43	102	1048576	6	3747
2026-01-06 11:45:04.22	4.10	34.13	-22.5	-23.0	20.0	0.00e+00	0	44	102	1048576	6	3790
2026-01-06 11:45:05.23	3.89	33.95	-22.5	-22.9	20.1	0.00e+00	0	44	102	1048576	6	3779
2026-01-06 11:45:06.23	3.69	33.76	-22.5	-22.9	20.1	0.00e+00	0	44	102	1048576	6	3766
2026-01-06 11:45:07.23	3.48	33.58	-22.4	-22.7	20.2	0.00e+00	0	43	102	1048576	6	3728
2026-01-06 11:45:08.24	3.28	33.39	-22.5	-22.8	20.1	0.00e+00	0	44	102	1048576	6	3756
2026-01-06 11:45:09.24	3.08	33.21	-22.7	-23.3	19.9	0.00e+00	0	43	102	1048576	6	3855
2026-01-06 11:45:10.25	2.89	33.03	-22.8	-23.5	19.7	0.00e+00	0	44	102	1048576	6	3917
2026-01-06 11:45:11.25	2.69	32.85	-22.7	-23.4	19.8	0.00e+00	0	43	102	1048576	6	3880
2026-01-06 11:45:12.25	2.50	32.67	-22.8	-23.5	19.8	0.00e+00	0	44	102	1048576	6	3900
2026-01-06 11:45:13.26	2.31	32.49	-22.9	-23.8	19.6	0.00e+00	0	44	102	1048576	6	3966
2026-01-06 11:45:14.27	2.12	32.31	-23.0	-23.9	19.6	0.00e+00	0	44	102	1048576	6	3997
2026-01-06 11:45:15.27	1.94	32.13	-23.1	-24.1	19.5	0.00e+00	0	44	102	1048576	6	4043
2026-01-06 11:45:16.28	1.75	31.95	-23.1	-24.1	19.4	0.00e+00	0	44	102	1048576	6	4061
2026-01-06 11:45:17.29	1.57	31.77	-23.3	-24.6	19.2	0.00e+00	0	44	102	1048576	6	4174
2026-01-06 11:45:18.30	1.39	31.60	-23.0	-23.9	19.5	0.00e+00	0	43	102	1048576	6	4013
2026-01-06 11:45:19.30	1.21	31.42	-22.8	-23.5	19.7	0.00e+00	0	43	102	1048576	6	3917
2026-01-06 11:45:20.30	1.04	31.25	-22.7	-23.3	19.8	0.00e+00	0	44	102	1048576	6	3870
2026-01-06 11:45:21.31	0.86	31.07	-22.7	-23.3	19.8	0.00e+00	0	43	102	1048576	6	3857
2026-01-06 11:45:22.31	0.69	30.90	-22.7	-23.3	19.8	0.00e+00	0	44	102	1048576	6	3868
2026-01-06 11:45:23.32	0.52	30.73	-22.6	-23.1	19.9	0.00e+00	0	44	102	1048576	6	3814
2026-01-06 11:45:24.33	0.35	30.56	-22.7	-23.2	19.9	0.00e+00	0	43	102	1048576	6	3834
2026-01-06 11:45:25.33	0.19	30.39	-22.6	-23.2	19.9	0.00e+00	0	43	102	1048576	6	3829
2026-01-06 11:45:26.34	0.02	30.21	-22.7	-23.3	19.8	0.00e+00	0	43	102	1048576	6	3859
2026-01-06 11:45:27.34	359.86	30.05	-22.8	-23.5	19.7	0.00e+00	0	43	102	1048576	6	3899
2026-01-06 11:45:28.35	359.70	29.88	-22.9	-23.7	19.6	0.00e+00	0	44	102	1048576	6	3951
2026-01-06 11:45:29.36	359.54	29.71	-23.0	-24.0	19.5	0.00e+00	0	43	102	1048576	6	4023
2026-01-06 11:45:30.37	359.38	29.54	-23.2	-24.3	19.3	0.00e+00	0	44	102	1048576	6	4098
2026-01-06 11:45:31.37	359.22	29.37	-23.2	-24.3	19.3	0.00e+00	0	44	102	1048576	6	4089
2026-01-06 11:45:32.37	359.07	29.21	-23.2	-24.4	19.2	0.00e+00	0	44	102	1048576	6	4127
2026-01-06 11:45:33.38	358.92	29.04	-23.3	-24.5	19.2	0.00e+00	0	44	102	1048576	6	4153
2026-01-06 11:45:34.39	358.77	28.88	-23.1	-24.2	19.3	0.00e+00	0	44	102	1048576	6	4080
2026-01-06 11:45:35.40	358.61	28.71	-23.1	-24.2	19.3	0.00e+00	0	43	102	1048576	6	4061
2026-01-06 11:45:36.40	358.47	28.55	-23.1	-24.1	19.4	0.00e+00	0	44	102	1048576	6	4059
2026-01-06 11:45:37.41	358.32	28.39	-23.0	-23.9	19.5	0.00e+00	0	44	102	1048576	6	4002
2026-01-06 11:45:38.41	358.18	28.23	-23.0	-23.9	19.5	0.00e+00	0	44	102	1048576	6	4008
2026-01-06 11:45:39.42	358.03	28.06	-22.9	-23.7	19.6	0.00e+00	0	43	102	1048576	6	3950
2026-01-06 11:45:40.43	357.89	27.90	-22.9	-23.8	19.5	0.00e+00	0	44	102	1048576	6	3966
2026-01-06 11:45:41.44	357.75	27.74	-22.9	-23.8	19.5	0.00e+00	0	44	102	1048576	6	3977
2026-01-06 11:45:42.45	357.61	27.58	-22.9	-23.7	19.5	0.00e+00	0	44	102	1048576	6	3960
2026-01-06 11:45:43.46	357.47	27.42	-22.9	-23.7	19.5	0.00e+00	0	44	102	1048576	6	3961
2026-01-06 11:45:44.46	357.33	27.27	-22.9	-23.8	19.5	0.00e+00	0	44	102	1048576	6	3974
2026-01-06 11:45:45.47	357.20	27.11	-22.9	-23.8	19.5	0.00e+00	0	44	102	1048576	6	3971
2026-01-06 11:45:46.48	357.06	26.95	-22.9	-23.8	19.5	0.00e+00	0	43	102	1048576	6	3980
2026-01-06 11:45:47.48	356.93	26.80	-22.9	-23.8	19.5	0.00e+00	0	44	102	1048576	6	3971
2026-01-06 11:45:48.49	356.80	26.65	-22.9	-23.7	19.5	0.00e+00	0	44	102	1048576	6	3954
2026-01-06 11:45:49.49	356.67	26.49	-23.0	-24.0	19.4	0.00e+00	0	43	102	1048576	6	4026
2026-01-06 11:45:50.49	356.54	26.34	-23.1	-24.2	19.3	0.00e+00	0	44	102	1048576	6	4076
2026-01-06 11:45:51.49	356.42	26.19	-23.1	-24.2	19.3	0.00e+00	0	44	102	1048576	6	4076
2026-01-06 11:45:52.50	356.29	26.04	-23.1	-24.2	19.3	0.00e+00	0	44	102	1048576	6	4084
2026-01-06 11:45:53.51	356.17	25.89	-23.3	-24.5	19.1	0.00e+00	0	44	102	1048576	6	4149
2026-01-06 11:45:54.52	356.04	25.74	-23.2	-24.4	19.1	0.00e+00	0	44	102	1048576	6	4137
2026-01-06 11:45:55.53	355.92	25.58	-23.1	-24.2	19.3	0.00e+00	0	43	102	1048576	6	4064
2026-01-06 11:45:56.53	355.80	25.44	-23.1	-24.1	19.3	0.00e+00	0	44	102	1048576	6	4052
2026-01-06 11:45:57.54	355.68	25.29	-23.1	-24.2	19.3	0.00e+00	0	43	102	1048576	6	4072
2026-01-06 11:45:58.55	355.56	25.14	-23.3	-24.6	19.1	0.00e+00	0	44	102	1048576	6	4178
2026-01-06 11:45:59.56	355.44	24.99	-23.3	-24.2	19.0	0.00e+00	0	44	102	1048576	7	3951
2026-01-06 11:46:00.56	355.32	24.85	-23.2	-23.8	19.2	0.00e+00	0	44	102	1048576	7	3871
2026-01-06 11:46:01.57	355.21	24.70	-23.1	-23.7	19.3	0.00e+00	0	43	102	1048576	7	3841
2026-01-06 11:46:02.58	355.09	24.56	-23.1	-23.7	19.2	0.00e+00	0	44	102	1048576	7	3859
2026-01-06 11:46:03.59	354.98	24.41	-23.3	-24.0	19.1	0.00e+00	0	44	102	1048576	7	3930
2026-01-06 11:46:04.59	354.87	24.27	-23.4	-24.3	19.0	0.00e+00	0	43	102	1048576	7	3992
2026-01-06 11:46:05.59	354.76	24.13	-23.5	-24.5	18.8	0.00e+00	0	43	102	1048576	7	4031
2026-01-06 11:46:06.60	354.65	23.98	-23.5	-24.6	18.8	0.00e+00	0	44	102	1048576	7	4051
2026-01-06 11:46:07.61	354.54	23.84	-23.5	-24.5	18.8	0.00e+00	0	43	102	1048576	7	4042
2026-01-06 11:46:08.62	354.43	23.70	-23.6	-24.6	18.7	0.00e+00	0	44	102	1048576	7	4076
2026-01-06 11:46:09.62	354.32	23.56	-23.6	-24.7	18.7	0.00e+00	0	44	102	1048576	7	4094
2026-01-06 11:46:10.63	354.22	23.42	-23.6	-24.8	18.6	0.00e+00	0	44	102	1048576	7	4118
2026-01-06 11:46:11.63	354.11	23.28	-23.5	-24.6	18.8	0.00e+00	0	44	102	1048576	7	4054
2026-01-06 11:46:12.64	354.01	23.15	-23.4	-24.3	18.9	0.00e+00	0	44	102	1048576	7	3992
2026-01-06 11:46:13.64	353.90	23.01	-23.4	-24.2	18.9	0.00e+00	0	44	102	1048576	7	3981
2026-01-06 11:46:14.65	353.80	22.87	-23.3	-24.1	19.0	0.00e+00	0	44	102	1048576	7	3955
2026-01-06 11:46:15.66	353.70	22.73	-23.4	-24.2	18.9	0.00e+00	0	44	102	1048576	7	3971
2026-01-06 11:46:16.67	353.60	22.60	-23.3	-24.2	19.0	0.00e+00	0	44	102	1048576	7	3958
2026-01-06 11:46:17.67	353.50	22.46	-23.4	-24.3	18.9	0.00e+00	0	44	102	1048576	7	3997
2026-01-06 11:46:18.68	353.40	22.33	-23.4	-24.2	18.9	0.00e+00	0	44	102	1048576	7	3968
2026-01-06 11:46:19.68	353.30	22.20	-23.4	-24.3	18.9	0.00e+00	0	44	102	1048576	7	3988
2026-01-06 11:46:20.69	353.21	22.06	-23.4	-24.3	18.9	0.00e+00	0	44	102	1048576	7	3982
2026-01-06 11:46:21.69	353.11	21.93	-23.4	-24.2	19.0	0.00e+00	0	44	102	1048576	7	3963
2026-01-06 11:46:22.70	353.01	21.80	-23.4	-24.3	18.9	0.00e+00	0	44	102	1048576	7	3981
2026-01-06 11:46:23.70	352.92	21.67	-23.4	-24.4	18.8	0.00e+00	0	43	102	1048576	7	4013
2026-01-06 11:46:24.71	352.83	21.54	-23.5	-24.4	18.8	0.00e+00	0	44	102	1048576	7	4016
2026-01-06 11:46:25.72	352.73	21.41	-23.5	-24.5	18.8	0.00e+00	0	44	102	1048576	7	4042
2026-01-06 11:46:26.72	352.64	21.28	-23.5	-24.6	18.8	0.00e+00	0	44	102	1048576	7	4054
2026-01-06 11:46:27.73	352.55	21.15	-23.6	-24.7	18.7	0.00e+00	0	44	102	1048576	7	4102
2026-01-06 11:46:28.73	352.46	21.02	-23.6	-24.7	18.7	0.00e+00	0	44	102	1048576	7	4082
2026-01-06 11:46:29.74	352.37	20.89	-23.7	-24.9	18.6	0.00e+00	0	44	102	1048576	7	4141
2026-01-06 11:46:30.75	352.28	20.76	-23.7	-24.9	18.6	0.00e+00	0	44	102	1048576	7	4135
2026-01-06 11:46:31.75	352.19	20.64	-23.8	-25.1	18.4	0.00e+00	0	44	102	1048576	7	4186
2026-01-06 11:46:32.75	352.11	20.51	-23.8	-25.1	18.5	0.00e+00	0	44	102	1048576	7	4179
2026-01-06 11:46:33.76	352.02	20.39	-23.8	-25.1	18.4	0.00e+00	0	44	102	1048576	7	4189
2026-01-06 11:46:34.76	351.93	20.26	-23.8	-25.2	18.4	0.00e+00	0	44	102	1048576	7	4219
2026-01-06 11:46:35.77	351.85	20.14	-23.9	-25.4	18.3	0.00e+00	0	44	102	1048576	7	4267
2026-01-06 11:46:36.78	351.76	20.01	-24.1	-25.2	18.1	0.00e+00	0	44	102	1048576	8	4109
2026-01-06 11:46:37.79	351.68	19.89	-24.3	-25.8	17.8	0.00e+00	0	44	102	1048576	8	4253
2026-01-06 11:46:38.79	351.60	19.77	-24.3	-25.6	17.9	0.00e+00	0	44	102	1048576	8	4216
2026-01-06 11:46:39.79	351.52	19.64	-24.2	-25.5	18.0	0.00e+00	0	44	102	1048576	8	4179
2026-01-06 11:46:40.80	351.43	19.52	-24.3	-25.6	17.9	0.00e+00	0	44	102	1048576	8	4212
2026-01-06 11:46:41.81	351.35	19.40	-24.3	-25.6	17.9	0.00e+00	0	44	102	1048576	8	4213
2026-01-06 11:46:42.81	351.27	19.28	-24.3	-25.7	17.8	0.00e+00	0	44	102	1048576	8	4244
2026-01-06 11:46:43.82	351.19	19.16	-24.4	-25.8	17.8	0.00e+00	0	44	102	1048576	8	4269
2026-01-06 11:46:44.83	351.11	19.04	-24.4	-25.8	17.8	0.00e+00	0	44	102	1048576	8	4274
2026-01-06 11:46:45.83	351.04	18.92	-24.4	-26.0	17.7	0.00e+00	0	44	102	1048576	8	4307
2026-01-06 11:46:46.83	350.96	18.80	-24.4	-25.9	17.8	0.00e+00	0	44	102	1048576	8	4273
2026-01-06 11:46:47.84	350.88	18.68	-24.3	-25.8	17.8	0.00e+00	0	43	102	1048576	8	4249
2026-01-06 11:46:48.84	350.80	18.57	-24.4	-26.0	17.7	0.00e+00	0	44	102	1048576	8	4295
2026-01-06 11:46:49.84	350.73	18.45	-24.4	-25.9	17.8	0.00e+00	0	44	102	1048576	8	4279
2026-01-06 11:46:50.84	350.65	18.33	-24.5	-26.0	17.7	0.00e+00	0	44	102	1048576	8	4314
2026-01-06 11:46:51.85	350.58	18.22	-24.4	-25.9	17.7	0.00e+00	0	44	102	1048576	8	4280
2026-01-06 11:46:52.86	350.50	18.10	-24.4	-25.9	17.7	0.00e+00	0	44	102	1048576	8	4280
2026-01-06 11:46:53.87	350.43	17.99	-24.4	-26.0	17.7	0.00e+00	0	44	102	1048576	8	4300
2026-01-06 11:46:54.88	350.36	17.87	-24.4	-26.0	17.7	0.00e+00	0	43	102	1048576	8	4305
2026-01-06 11:46:55.88	350.29	17.76	-24.5	-26.0	17.7	0.00e+00	0	44	102	1048576	8	4311
2026-01-06 11:46:56.89	350.21	17.64	-24.5	-25.7	17.6	0.00e+00	0	44	102	1048576	9	4110
2026-01-06 11:46:57.90	350.14	17.53	-24.7	-26.0	17.4	0.00e+00	0	43	102	1048576	9	4186
2026-01-06 11:46:58.91	350.07	17.42	-24.7	-26.0	17.4	0.00e+00	0	44	102	1048576	9	4199
2026-01-06 11:46:59.92	350.00	17.30	-24.8	-26.3	17.2	0.00e+00	0	44	102	1048576	9	4273
2026-01-06 11:47:00.93	349.93	17.19	-24.8	-26.3	17.2	0.00e+00	0	44	102	1048576	9	4284
2026-01-06 11:47:01.93	349.86	17.08	-24.9	-26.5	17.1	0.00e+00	0	43	102	1048576	9	4337
2026-01-06 11:47:02.94	349.79	16.97	-24.9	-26.5	17.1	0.00e+00	0	44	102	1048576	9	4345
2026-01-06 11:47:03.94	349.73	16.86	-25.1	-26.4	16.9	0.00e+00	0	44	102	1048576	10	4197
2026-01-06 11:47:04.95	349.66	16.75	-25.3	-27.0	16.6	0.00e+00	0	44	102	1048576	10	4339
2026-01-06 11:47:05.95	349.59	16.64	-25.1	-26.5	16.8	0.00e+00	0	44	102	1048576	10	4222
2026-01-06 11:47:06.96	349.53	16.53	-25.0	-26.2	17.0	0.00e+00	0	44	102	1048576	10	4151
2026-01-06 11:47:07.96	349.46	16.42	-25.0	-26.2	17.0	0.00e+00	0	44	102	1048576	10	4127
2026-01-06 11:47:08.96	349.40	16.32	-25.0	-26.2	17.0	0.00e+00	0	44	102	1048576	10	4148
2026-01-06 11:47:09.97	349.33	16.21	-25.0	-26.3	16.9	0.00e+00	0	44	102	1048576	10	4172
2026-01-06 11:47:10.97	349.27	16.10	-25.2	-26.6	16.7	0.00e+00	0	44	102	1048576	10	4251
2026-01-06 11:47:11.98	349.20	15.99	-25.1	-26.4	16.8	0.00e+00	0	44	102	1048576	10	4193
2026-01-06 11:47:12.99	349.14	15.89	-25.0	-26.3	16.9	0.00e+00	0	44	102	1048576	10	4159
2026-01-06 11:47:14.00	349.08	15.78	-25.1	-26.4	16.9	0.00e+00	0	44	102	1048576	10	4185
2026-01-06 11:47:15.00	349.01	15.68	-25.0	-26.2	16.9	0.00e+00	0	44	102	1048576	10	4148
2026-01-06 11:47:16.01	348.95	15.57	-25.2	-26.6	16.7	0.00e+00	0	43	102	1048576	10	4233
2026-01-06 11:47:17.01	348.89	15.47	-25.1	-26.3	16.9	0.00e+00	0	44	102	1048576	10	4171
2026-01-06 11:47:18.02	348.83	15.36	-25.0	-26.3	16.9	0.00e+00	0	44	102	1048576	10	4158
2026-01-06 11:47:19.03	348.77	15.26	-25.1	-26.4	16.8	0.00e+00	0	44	102	1048576	10	4199
2026-01-06 11:47:20.03	348.71	15.15	-25.1	-26.3	16.9	0.00e+00	0	43	102	1048576	10	4171
2026-01-06 11:47:21.03	348.65	15.05	-25.2	-26.6	16.7	0.00e+00	0	44	102	1048576	10	4234
2026-01-06 11:47:22.04	348.59	14.95	-25.1	-26.4	16.8	0.00e+00	0	44	102	1048576	10	4194
2026-01-06 11:47:23.05	348.53	14.85	-25.2	-26.6	16.7	0.00e+00	0	44	102	1048576	10	4247
2026-01-06 11:47:24.06	348.47	14.74	-25.2	-26.6	16.7	0.00e+00	0	44	102	1048576	10	4236
2026-01-06 11:47:25.06	348.41	14.64	-25.2	-26.7	16.7	0.00e+00	0	44	102	1048576	10	4266
2026-01-06 11:47:26.07	348.36	14.54	-25.2	-26.7	16.6	0.00e+00	0	44	102	1048576	10	4260
2026-01-06 11:47:27.07	348.30	14.44	-25.3	-26.8	16.6	0.00e+00	0	44	102	1048576	10	4291
2026-01-06 11:47:28.08	348.24	14.34	-25.4	-27.0	16.5	0.00e+00	0	44	102	1048576	10	4344
2026-01-06 11:47:29.09	348.19	14.24	-25.3	-27.0	16.5	0.00e+00	0	44	102	1048576	10	4339
2026-01-06 11:47:30.09	348.13	14.14	-25.4	-27.1	16.4	0.00e+00	0	44	102	1048576	10	4365
2026-01-06 11:47:31.09	348.08	14.04	-25.4	-27.1	16.4	0.00e+00	0	44	102	1048576	10	4377
2026-01-06 11:47:32.09	348.02	13.94	-25.5	-26.9	16.2	2.20e-06	0	44	102	1048576	11	4207
2026-01-06 11:47:33.10	347.97	13.84	-25.5	-26.7	16.3	0.00e+00	0	44	102	1048576	11	4163
2026-01-06 11:47:34.11	347.91	13.75	-25.5	-26.8	16.2	0.00e+00	0	44	102	1048576	11	4195
2026-01-06 11:47:35.12	347.86	13.65	-25.5	-26.8	16.2	0.00e+00	0	44	102	1048576	11	4197
2026-01-06 11:47:36.12	347.80	13.55	-25.7	-27.2	16.0	0.00e+00	0	44	102	1048576	11	4286
2026-01-06 11:47:37.13	347.75	13.45	-25.6	-27.0	16.2	1.10e-06	0	44	102	1048576	11	4229
2026-01-06 11:47:38.13	347.70	13.36	-25.7	-27.2	16.0	0.00e+00	0	44	102	1048576	11	4302
2026-01-06 11:47:39.14	347.65	13.26	-25.6	-27.1	16.0	0.00e+00	0	44	102	1048576	11	4266
2026-01-06 11:47:40.14	347.59	13.17	-25.6	-27.1	16.0	0.00e+00	0	43	102	1048576	11	4264
2026-01-06 11:47:41.14	347.54	13.07	-25.6	-27.2	16.0	0.00e+00	0	44	102	1048576	11	4283
2026-01-06 11:47:42.15	347.49	12.97	-25.8	-27.4	15.8	0.00e+00	0	44	102	1048576	11	4363
2026-01-06 11:47:43.16	347.44	12.88	-25.8	-27.5	15.8	0.00e+00	0	43	102	1048576	11	4367
2026-01-06 11:47:44.17	347.39	12.78	-25.9	-27.6	15.7	0.00e+00	0	44	102	1048576	11	4410
2026-01-06 11:47:45.17	347.34	12.69	-25.8	-27.5	15.7	0.00e+00	0	44	102	1048576	11	4376
2026-01-06 11:47:46.18	347.29	12.60	-25.9	-27.6	15.7	0.00e+00	0	44	102	1048576	11	4415
2026-01-06 11:47:47.18	347.24	12.50	-25.8	-27.5	15.7	0.00e+00	0	44	102	1048576	11	4385
2026-01-06 11:47:48.19	347.19	12.41	-25.9	-27.6	15.7	0.00e+00	0	44	102	1048576	11	4408
2026-01-06 11:47:49.20	347.14	12.32	-25.9	-27.7	15.7	0.00e+00	0	43	102	1048576	11	4425
2026-01-06 11:47:50.20	347.09	12.22	-25.9	-27.3	15.5	0.00e+00	0	44	102	1048576	12	4222
2026-01-06 11:47:51.21	347.04	12.13	-25.9	-27.1	15.6	0.00e+00	0	44	102	1048576	12	4173
2026-01-06 11:47:52.21	347.00	12.04	-25.8	-27.1	15.6	0.00e+00	0	44	102	1048576	12	4176
2026-01-06 11:47:53.22	346.95	11.95	-25.9	-27.3	15.5	2.20e-06	0	44	102	1048576	12	4222
2026-01-06 11:47:54.22	346.90	11.86	-26.0	-27.5	15.4	0.00e+00	0	44	102	1048576	12	4272
2026-01-06 11:47:55.23	346.85	11.77	-26.1	-27.6	15.3	0.00e+00	0	44	102	1048576	12	4310
2026-01-06 11:47:56.23	346.81	11.68	-26.1	-27.7	15.3	0.00e+00	0	44	102	1048576	12	4318
2026-01-06 11:47:57.23	346.76	11.59	-26.2	-27.9	15.1	0.00e+00	0	44	102	1048576	12	4383
2026-01-06 11:47:58.24	346.71	11.50	-26.1	-27.7	15.2	0.00e+00	0	44	102	1048576	12	4336
2026-01-06 11:47:59.24	346.67	11.41	-26.2	-27.9	15.1	0.00e+00	0	44	102	1048576	12	4389
2026-01-06 11:48:00.24	346.62	11.32	-26.1	-27.7	15.2	1.10e-06	0	43	102	1048576	12	4331
2026-01-06 11:48:01.26	346.58	11.23	-26.2	-28.0	15.1	0.00e+00	0	44	102	1048576	12	4398
2026-01-06 11:48:02.26	346.53	11.14	-26.0	-27.6	15.3	0.00e+00	0	44	102	1048576	12	4289
2026-01-06 11:48:03.26	346.49	11.05	-26.0	-27.4	15.4	0.00e+00	0	44	102	1048576	12	4245
2026-01-06 11:48:04.27	346.44	10.96	-26.0	-27.6	15.3	0.00e+00	0	44	102	1048576	12	4296
2026-01-06 11:48:05.28	346.40	10.88	-26.0	-27.5	15.3	0.00e+00	0	44	102	1048576	12	4258
2026-01-06 11:48:06.28	346.36	10.79	-26.1	-27.7	15.2	0.00e+00	0	44	102	1048576	12	4336
2026-01-06 11:48:07.29	346.31	10.70	-26.2	-27.9	15.1	1.10e-06	0	44	102	1048576	12	4373
2026-01-06 11:48:08.30	346.27	10.61	-26.1	-27.8	15.2	3.40e-06	0	43	102	1048576	12	4349
2026-01-06 11:48:09.31	346.23	10.53	-26.2	-27.9	15.0	0.00e+00	0	44	102	1048576	12	4394
2026-01-06 11:48:10.31	346.18	10.44	-26.2	-27.9	15.1	0.00e+00	0	44	102	1048576	12	4372
2026-01-06 11:48:11.31	346.14	10.36	-26.2	-27.9	15.1	0.00e+00	0	44	102	1048576	12	4383
2026-01-06 11:48:12.31	346.10	10.27	-26.2	-27.9	15.0	0.00e+00	0	43	102	1048576	12	4388
2026-01-06 11:48:13.32	346.06	10.18	-26.2	-28.0	15.0	1.10e-06	0	44	102	1048576	12	4421
2026-01-06 11:48:14.32	346.02	10.10	-26.2	-27.9	15.1	2.20e-06	0	44	102	1048576	12	4376
2026-01-06 11:48:15.33	345.98	10.01	-26.2	-27.9	15.0	1.10e-06	0	44	102	1048576	12	4385
2026-01-06 11:48:16.34	345.94	9.93	-26.3	-28.2	14.9	0.00e+00	0	44	102	1048576	12	4456
2026-01-06 11:48:17.34	345.89	9.84	-26.2	-28.0	15.0	0.00e+00	0	44	102	1048576	12	4399
2026-01-06 11:48:18.34	345.85	9.76	-26.3	-28.2	14.9	0.00e+00	0	44	102	1048576	12	4465
2026-01-06 11:48:19.35	345.81	9.68	-26.3	-28.2	14.8	0.00e+00	0	44	102	1048576	12	4482
2026-01-06 11:48:20.36	345.77	9.59	-26.4	-28.4	14.7	1.10e-06	0	44	102	1048576	12	4518
2026-01-06 11:48:21.37	345.73	9.51	-26.3	-28.3	14.8	0.00e+00	0	44	102	1048576	12	4491
2026-01-06 11:48:22.38	345.69	9.43	-26.3	-28.2	14.8	0.00e+00	0	44	102	1048576	12	4482
2026-01-06 11:48:23.39	345.65	9.34	-26.4	-28.4	14.7	0.00e+00	0	44	102	1048576	12	4523
2026-01-06 11:48:24.39	345.62	9.26	-26.4	-28.4	14.7	0.00e+00	0	44	102	1048576	12	4532
2026-01-06 11:48:25.39	345.58	9.18	-26.4	-28.4	14.7	1.10e-06	0	44	102	1048576	12	4534
2026-01-06 11:48:26.40	345.54	9.10	-26.4	-28.5	14.6	1.10e-06	0	44	102	1048576	12	4551
2026-01-06 11:48:27.41	345.50	9.01	-26.4	-28.5	14.6	0.00e+00	0	44	102	1048576	12	4555
2026-01-06 11:48:28.41	345.46	8.93	-26.4	-28.5	14.6	0.00e+00	0	44	102	1048576	12	4574
2026-01-06 11:48:29.42	345.42	8.85	-26.5	-28.6	14.6	0.00e+00	0	44	102	1048576	12	4581
2026-01-06 11:48:30.42	345.39	8.77	-26.5	-28.6	14.6	0.00e+00	0	44	102	1048576	12	4585
2026-01-06 11:48:31.43	345.35	8.69	-26.6	-28.3	14.4	1.10e-06	0	44	102	1048576	13	4391
2026-01-06 11:48:32.43	345.31	8.61	-26.7	-28.6	14.2	2.20e-06	0	44	102	1048576	13	4486
2026-01-06 11:48:33.44	345.28	8.53	-26.8	-28.9	14.1	2.20e-06	0	43	102	1048576	13	4562
2026-01-06 11:48:34.45	345.24	8.45	-26.7	-28.7	14.2	5.70e-06	0	44	102	1048576	13	4506
2026-01-06 11:48:35.46	345.20	8.37	-26.7	-28.7	14.2	5.70e-06	0	44	102	1048576	13	4502
2026-01-06 11:48:36.46	345.17	8.29	-26.8	-28.7	14.1	3.40e-06	0	44	102	1048576	13	4517
2026-01-06 11:48:37.47	345.13	8.21	-26.8	-28.9	14.0	4.50e-06	0	43	102	1048576	13	4560
2026-01-06 11:48:38.48	345.09	8.13	-26.7	-28.6	14.2	5.70e-06	0	44	102	1048576	13	4492
2026-01-06 11:48:39.49	345.06	8.05	-26.9	-29.1	13.9	3.40e-06	0	43	102	1048576	13	4630
2026-01-06 11:48:40.50	345.02	7.97	-27.1	-29.1	13.6	1.25e-05	0	44	102	1048576	14	4531
2026-01-06 11:48:41.50	344.99	7.89	-27.2	-29.2	13.5	2.51e-05	0	44	102	1048576	14	4566
2026-01-06 11:48:42.51	344.95	7.82	-27.0	-28.7	13.8	6.80e-06	0	44	102	1048576	14	4406
2026-01-06 11:48:43.51	344.92	7.74	-26.8	-28.4	13.9	4.50e-06	0	44	102	1048576	14	4322
2026-01-06 11:48:44.52	344.88	7.66	-27.0	-28.8	13.7	9.10e-06	0	44	102	1048576	14	4432
2026-01-06 11:48:45.52	344.85	7.58	-26.9	-28.7	13.8	1.83e-05	0	44	102	1048576	14	4400
