passes_logs/2026/01/06/R2M6_AANII_01/R2M6_AANII_01__20260106_051104_FENGYUN_3E_rec.log

#Pass ID: 20260106_051104_FENGYUN 3E
#Satellite: FENGYUN 3E
#Configuration: FENGYUN 3E
#almurnet v.1.7.20240730
#Start time: 2026-01-06 05:13:34

#Version: 2.2.20231116
#Station: R2M6_AANII_01
#Location: 30.233357 lon 59.946436 lat
#TLE: 1 49008U 21062A   26005.56299987  .00000339  00000+0  18069-3 0  9991
#TLE: 2 49008  98.7472  10.8019 0001562 158.0357 202.0886 14.19884907233502

#Time	Az	El	Level	Level2	SNR	BER	BlckErr	Temp	State	Recorded	gain1	gain2
2026-01-06 05:13:34.17	8.55	21.89	-33.4	-44.8	3.8	8.46e-01	0	43	0	0	26	13363
2026-01-06 05:13:35.17	8.47	22.02	-34.0	-43.8	3.8	8.47e-01	0	44	104	0	27	11146
2026-01-06 05:13:36.18	8.39	22.16	-34.0	-43.8	3.8	8.45e-01	0	44	104	0	27	11179
2026-01-06 05:13:37.19	8.31	22.29	-34.0	-43.9	3.8	8.46e-01	0	44	104	0	27	11177
2026-01-06 05:13:38.20	8.23	22.43	-34.0	-43.9	3.8	8.45e-01	0	44	104	0	27	11208
2026-01-06 05:13:39.21	8.14	22.57	-34.0	-43.9	3.8	8.46e-01	0	44	104	0	27	11296
2026-01-06 05:13:40.21	8.06	22.71	-34.1	-44.0	3.8	8.46e-01	0	44	104	0	27	11288
2026-01-06 05:13:41.22	7.98	22.85	-34.1	-44.0	3.8	8.47e-01	0	43	104	0	27	11249
2026-01-06 05:13:42.22	7.89	22.99	-34.1	-44.0	3.8	8.46e-01	0	44	104	0	27	11306
2026-01-06 05:13:43.23	7.81	23.13	-34.1	-44.0	3.8	8.46e-01	0	44	104	0	27	11298
2026-01-06 05:13:44.24	7.72	23.27	-34.1	-44.0	3.8	8.46e-01	0	44	104	0	27	11255
2026-01-06 05:13:45.24	7.64	23.41	-34.0	-43.9	3.8	8.47e-01	0	44	104	0	27	11257
2026-01-06 05:13:46.25	7.55	23.56	-34.0	-44.0	3.8	8.46e-01	0	44	104	0	27	11280
2026-01-06 05:13:47.25	7.46	23.70	-34.0	-43.9	3.8	8.46e-01	0	44	104	0	27	11255
2026-01-06 05:13:48.25	7.37	23.84	-34.0	-44.0	3.8	8.47e-01	0	44	104	0	27	11279
2026-01-06 05:13:49.26	7.28	23.99	-34.0	-43.9	3.8	8.45e-01	0	44	104	0	27	11223
2026-01-06 05:13:50.27	7.19	24.14	-34.0	-43.9	3.8	8.47e-01	0	44	104	0	27	11224
2026-01-06 05:13:51.27	7.10	24.28	-34.0	-43.9	3.8	8.45e-01	0	44	104	0	27	11248
2026-01-06 05:13:52.26	7.01	24.43	-34.0	-43.4	3.8	8.46e-01	0	44	104	0	28	10625
2026-01-06 05:13:53.27	6.91	24.57	-34.0	-43.4	3.8	8.46e-01	0	44	104	0	28	10548
2026-01-06 05:13:54.28	6.82	24.72	-34.0	-43.4	3.8	8.47e-01	0	44	104	0	28	10622
2026-01-06 05:13:55.29	6.72	24.87	-34.0	-43.4	3.8	8.46e-01	0	44	104	0	28	10597
2026-01-06 05:13:56.29	6.63	25.02	-34.0	-43.3	3.8	8.47e-01	0	44	104	0	28	10543
2026-01-06 05:13:57.30	6.53	25.18	-34.0	-43.3	3.8	8.45e-01	0	44	104	0	28	10555
2026-01-06 05:13:58.31	6.43	25.33	-34.0	-43.3	3.8	8.46e-01	0	44	104	0	28	10574
2026-01-06 05:13:59.32	6.33	25.48	-33.9	-43.2	3.8	8.45e-01	0	44	104	0	28	10519
2026-01-06 05:14:00.32	6.23	25.63	-33.9	-43.1	3.8	8.46e-01	0	44	104	0	28	10401
2026-01-06 05:14:01.33	6.13	25.79	-33.9	-43.1	3.8	8.45e-01	0	44	104	0	28	10417
2026-01-06 05:14:02.33	6.03	25.94	-33.8	-43.0	3.8	8.46e-01	0	44	104	0	28	10326
2026-01-06 05:14:03.33	5.92	26.10	-33.9	-43.5	3.8	8.46e-01	0	44	104	0	27	10882
2026-01-06 05:14:04.34	5.82	26.26	-33.7	-42.7	3.8	8.46e-01	0	44	104	0	27	10120
2026-01-06 05:14:05.35	5.71	26.41	-33.3	-39.9	3.9	8.47e-01	0	44	104	0	27	7696
2026-01-06 05:14:06.36	5.61	26.57	-33.0	-38.6	4.0	8.41e-01	0	44	104	0	27	6823
2026-01-06 05:14:07.36	5.50	26.73	-33.0	-38.3	4.4	8.26e-01	0	44	104	0	27	6610
2026-01-06 05:14:08.37	5.39	26.89	-33.0	-38.7	4.4	8.26e-01	0	44	0	0	26	6978
2026-01-06 05:14:09.38	5.28	27.05	-33.0	-38.8	4.4	8.26e-01	0	44	0	0	26	7033
2026-01-06 05:14:10.38	5.17	27.21	-32.9	-38.5	4.5	8.22e-01	0	44	0	0	26	6820
2026-01-06 05:14:11.39	5.06	27.38	-32.8	-37.7	4.8	8.01e-01	0	44	0	0	26	6343
2026-01-06 05:14:12.40	4.94	27.54	-32.5	-36.6	5.3	7.55e-01	0	44	0	0	26	5783
2026-01-06 05:14:13.41	4.83	27.71	-32.2	-36.0	5.8	6.24e-01	0	44	102	1048576	25	5576
2026-01-06 05:14:14.41	4.71	27.87	-32.0	-35.1	6.3	2.90e-01	0	44	102	1048576	25	5158
2026-01-06 05:14:15.42	4.59	28.04	-31.7	-34.7	6.8	2.00e-01	0	44	102	1048576	24	5086
2026-01-06 05:14:16.43	4.48	28.21	-31.7	-34.7	6.9	1.71e-01	0	44	102	1048576	24	5069
2026-01-06 05:14:17.43	4.36	28.37	-31.9	-35.3	6.5	2.06e-01	0	44	102	1048576	24	5348
2026-01-06 05:14:18.44	4.23	28.54	-32.4	-37.1	5.5	5.86e-01	0	44	102	1048576	24	6207
2026-01-06 05:14:19.45	4.11	28.71	-33.1	-39.9	4.2	8.22e-01	0	44	102	1048576	25	7934
2026-01-06 05:14:20.46	3.99	28.88	-33.4	-41.6	3.8	8.45e-01	0	44	104	1048576	26	9212
2026-01-06 05:14:21.45	3.86	29.05	-32.5	-36.6	5.2	8.04e-01	0	44	104	1048576	26	5776
2026-01-06 05:14:22.46	3.74	29.22	-30.5	-32.2	9.0	6.91e-02	0	44	102	1048576	22	4379
2026-01-06 05:14:23.46	3.61	29.40	-28.6	-29.4	12.2	4.22e-04	0	44	102	1048576	18	3956
2026-01-06 05:14:24.47	3.48	29.57	-27.0	-27.2	14.2	3.40e-06	0	44	102	1048576	15	3691
2026-01-06 05:14:25.47	3.35	29.74	-26.1	-26.4	15.1	0.00e+00	0	44	102	1048576	13	3705
2026-01-06 05:14:26.48	3.22	29.92	-25.7	-26.0	15.6	0.00e+00	0	44	102	1048576	12	3710
2026-01-06 05:14:27.48	3.08	30.10	-26.1	-26.9	15.2	0.00e+00	0	44	102	1048576	12	3913
2026-01-06 05:14:28.48	2.95	30.27	-26.6	-27.3	14.6	1.10e-06	0	44	102	1048576	13	3925
2026-01-06 05:14:29.48	2.81	30.45	-26.1	-26.3	15.2	0.00e+00	0	44	102	1048576	13	3675
2026-01-06 05:14:30.48	2.68	30.63	-25.8	-26.1	15.6	0.00e+00	0	44	102	1048576	12	3744
2026-01-06 05:14:31.48	2.54	30.81	-25.9	-26.5	15.4	0.00e+00	0	44	102	1048576	12	3818
2026-01-06 05:14:32.49	2.40	30.99	-25.5	-25.4	16.0	0.00e+00	0	44	102	1048576	12	3578
2026-01-06 05:14:33.50	2.25	31.17	-25.2	-25.3	16.4	0.00e+00	0	44	102	1048576	11	3638
2026-01-06 05:14:34.50	2.11	31.35	-25.0	-25.0	16.6	0.00e+00	0	44	102	1048576	11	3571
2026-01-06 05:14:35.51	1.96	31.54	-25.0	-24.9	16.6	0.00e+00	0	44	102	1048576	11	3557
2026-01-06 05:14:36.52	1.81	31.73	-25.1	-25.1	16.5	0.00e+00	0	44	102	1048576	11	3608
2026-01-06 05:14:37.52	1.66	31.91	-24.8	-25.0	16.8	0.00e+00	0	44	102	1048576	10	3681
2026-01-06 05:14:38.53	1.51	32.10	-24.2	-24.3	17.4	0.00e+00	0	44	102	1048576	9	3620
2026-01-06 05:14:39.54	1.36	32.29	-23.7	-23.6	18.0	0.00e+00	0	44	102	1048576	8	3573
2026-01-06 05:14:40.55	1.20	32.48	-23.4	-23.1	18.2	0.00e+00	0	44	102	1048576	8	3469
2026-01-06 05:14:41.55	1.04	32.66	-23.3	-23.2	18.4	0.00e+00	0	44	102	1048576	7	3591
2026-01-06 05:14:42.56	0.88	32.86	-23.2	-23.1	18.5	0.00e+00	0	44	102	1048576	7	3552
2026-01-06 05:14:43.57	0.72	33.05	-23.2	-23.1	18.5	0.00e+00	0	44	102	1048576	7	3566
2026-01-06 05:14:44.57	0.56	33.24	-23.3	-23.2	18.4	0.00e+00	0	44	102	1048576	7	3590
2026-01-06 05:14:45.58	0.39	33.43	-23.4	-23.5	18.3	0.00e+00	0	44	102	1048576	7	3643
2026-01-06 05:14:46.58	0.23	33.63	-23.3	-23.2	18.4	0.00e+00	0	44	102	1048576	7	3586
2026-01-06 05:14:47.59	0.06	33.82	-23.4	-23.5	18.3	0.00e+00	0	44	102	1048576	7	3642
2026-01-06 05:14:48.60	359.89	34.02	-23.3	-23.8	18.4	0.00e+00	0	44	102	1048576	6	3813
2026-01-06 05:14:49.60	359.71	34.22	-23.0	-23.3	18.6	0.00e+00	0	44	102	1048576	6	3702
2026-01-06 05:14:50.60	359.54	34.41	-23.0	-23.2	18.7	0.00e+00	0	44	102	1048576	6	3674
2026-01-06 05:14:51.61	359.36	34.61	-22.8	-22.8	18.9	0.00e+00	0	44	102	1048576	6	3582
2026-01-06 05:14:52.61	359.18	34.81	-23.0	-23.3	18.7	0.00e+00	0	44	102	1048576	6	3699
2026-01-06 05:14:53.61	359.00	35.01	-23.0	-23.1	18.7	0.00e+00	0	44	102	1048576	6	3666
2026-01-06 05:14:54.61	358.82	35.21	-22.9	-23.4	18.8	0.00e+00	0	44	102	1048576	5	3832
2026-01-06 05:14:55.62	358.63	35.42	-22.9	-23.4	18.8	0.00e+00	0	44	102	1048576	5	3835
2026-01-06 05:14:56.63	358.44	35.62	-22.7	-23.2	19.0	0.00e+00	0	44	102	1048576	5	3781
2026-01-06 05:14:57.64	358.25	35.83	-22.9	-23.4	18.8	0.00e+00	0	44	102	1048576	5	3838
2026-01-06 05:14:58.64	358.05	36.03	-22.9	-23.5	18.8	0.00e+00	0	44	102	1048576	5	3846
2026-01-06 05:14:59.65	357.86	36.24	-22.9	-23.5	18.8	0.00e+00	0	44	102	1048576	5	3855
2026-01-06 05:15:00.66	357.66	36.45	-22.9	-23.6	18.8	0.00e+00	0	44	102	1048576	5	3868
2026-01-06 05:15:01.66	357.46	36.66	-23.0	-23.8	18.7	0.00e+00	0	44	102	1048576	5	3922
2026-01-06 05:15:02.66	357.25	36.87	-23.0	-23.2	18.7	0.00e+00	0	44	102	1048576	6	3683
2026-01-06 05:15:03.67	357.05	37.08	-22.9	-23.6	18.7	0.00e+00	0	44	102	1048576	5	3872
2026-01-06 05:15:04.68	356.83	37.29	-23.0	-23.6	18.7	0.00e+00	0	44	102	1048576	5	3882
2026-01-06 05:15:05.68	356.62	37.50	-22.3	-23.0	18.7	0.00e+00	0	44	102	1048576	5	3904
2026-01-06 05:15:06.69	356.41	37.72	-23.0	-23.7	18.7	0.00e+00	0	44	102	1048576	5	3900
2026-01-06 05:15:07.70	356.19	37.93	-23.1	-23.4	18.4	0.00e+00	0	44	102	1048576	6	3725
2026-01-06 05:15:08.70	355.97	38.15	-23.1	-23.8	18.6	0.00e+00	0	44	102	1048576	5	3925
2026-01-06 05:15:09.71	355.74	38.36	-23.2	-23.6	18.5	0.00e+00	0	44	102	1048576	6	3762
2026-01-06 05:15:10.72	355.51	38.58	-23.3	-23.8	18.4	0.00e+00	0	44	102	1048576	6	3822
2026-01-06 05:15:11.73	355.28	38.80	-23.4	-24.0	18.3	0.00e+00	0	44	102	1048576	6	3862
2026-01-06 05:15:12.73	355.05	39.02	-23.3	-23.4	18.4	0.00e+00	0	44	102	1048576	7	3624
2026-01-06 05:15:13.74	354.81	39.24	-23.5	-23.8	18.2	0.00e+00	0	44	102	1048576	7	3710
2026-01-06 05:15:14.75	354.57	39.46	-23.5	-23.7	18.3	4.57e-05	0	44	102	1048576	7	3684
2026-01-06 05:15:15.76	354.33	39.68	-23.3	-23.2	18.5	0.00e+00	0	44	102	1048576	7	3589
2026-01-06 05:15:16.76	354.08	39.90	-23.3	-23.3	18.4	0.00e+00	0	44	102	1048576	7	3609
2026-01-06 05:15:17.76	353.83	40.12	-23.4	-23.4	18.4	0.00e+00	0	44	102	1048576	7	3630
2026-01-06 05:15:18.77	353.58	40.35	-23.4	-23.5	18.3	0.00e+00	0	44	102	1048576	7	3642
2026-01-06 05:15:19.77	353.32	40.57	-23.5	-23.6	18.3	0.00e+00	0	44	102	1048576	7	3678
2026-01-06 05:15:20.78	353.06	40.80	-23.4	-23.6	18.3	0.00e+00	0	44	102	1048576	7	3665
2026-01-06 05:15:21.78	352.79	41.02	-23.5	-23.8	18.2	0.00e+00	0	44	102	1048576	7	3712
2026-01-06 05:15:22.79	352.52	41.25	-23.9	-24.6	17.8	0.00e+00	0	44	102	1048576	7	3892
2026-01-06 05:15:23.80	352.25	41.48	-23.6	-23.9	18.2	0.00e+00	0	44	102	1048576	7	3740
2026-01-06 05:15:24.80	351.98	41.70	-23.5	-23.7	18.2	0.00e+00	0	44	102	1048576	7	3698
2026-01-06 05:15:25.81	351.69	41.93	-23.5	-23.7	18.2	0.00e+00	0	44	102	1048576	7	3696
2026-01-06 05:15:26.82	351.41	42.16	-23.6	-23.9	18.2	0.00e+00	0	44	102	1048576	7	3725
2026-01-06 05:15:27.82	351.12	42.39	-23.0	-22.6	18.8	0.00e+00	0	44	102	1048576	7	3455
2026-01-06 05:15:28.83	350.83	42.62	-23.0	-22.7	18.8	0.00e+00	0	44	102	1048576	7	3470
2026-01-06 05:15:29.84	350.53	42.85	-23.0	-22.7	18.8	0.00e+00	0	44	102	1048576	7	3484
2026-01-06 05:15:30.84	350.23	43.08	-23.3	-23.2	18.5	0.00e+00	0	44	102	1048576	7	3581
2026-01-06 05:15:31.85	349.92	43.32	-23.2	-23.1	18.5	0.00e+00	0	44	102	1048576	7	3567
2026-01-06 05:15:32.85	349.61	43.55	-23.2	-23.1	18.6	4.50e-06	0	44	102	1048576	7	3549
2026-01-06 05:15:33.86	349.30	43.78	-23.3	-23.2	18.5	0.00e+00	0	44	102	1048576	7	3579
2026-01-06 05:15:34.86	348.98	44.01	-23.4	-23.5	18.4	1.71e-05	0	44	102	1048576	7	3637
2026-01-06 05:15:35.87	348.65	44.25	-23.5	-23.8	18.2	0.00e+00	0	44	102	1048576	7	3710
2026-01-06 05:15:36.88	348.32	44.48	-23.5	-23.7	18.3	0.00e+00	0	44	102	1048576	7	3689
2026-01-06 05:15:37.88	347.99	44.72	-24.0	-24.7	17.8	0.00e+00	0	44	102	1048576	7	3912
2026-01-06 05:15:38.87	347.66	44.95	-23.7	-23.7	18.1	0.00e+00	0	44	102	1048576	8	3576
2026-01-06 05:15:39.88	347.31	45.18	-23.5	-23.3	18.3	0.00e+00	0	44	102	1048576	8	3492
2026-01-06 05:15:40.89	346.96	45.42	-23.4	-23.4	18.4	0.00e+00	0	44	102	1048576	7	3631
2026-01-06 05:15:41.89	346.61	45.65	-23.3	-23.3	18.5	0.00e+00	0	44	102	1048576	7	3610
2026-01-06 05:15:42.89	346.25	45.89	-23.5	-23.8	18.2	0.00e+00	0	44	102	1048576	7	3708
2026-01-06 05:15:43.90	345.88	46.12	-23.3	-23.3	18.5	0.00e+00	0	44	102	1048576	7	3603
2026-01-06 05:15:44.90	345.51	46.36	-23.2	-23.6	18.6	0.00e+00	0	44	102	1048576	6	3777
2026-01-06 05:15:45.91	345.14	46.59	-23.4	-24.1	18.4	0.00e+00	0	44	102	1048576	6	3876
2026-01-06 05:15:46.92	344.75	46.83	-23.6	-23.9	18.2	0.00e+00	0	44	102	1048576	7	3742
2026-01-06 05:15:47.92	344.37	47.06	-23.9	-24.6	17.8	0.00e+00	0	44	102	1048576	7	3908
2026-01-06 05:15:48.93	343.97	47.30	-24.0	-24.3	17.8	0.00e+00	0	44	102	1048576	8	3713
2026-01-06 05:15:49.93	343.57	47.53	-24.4	-25.2	17.3	0.00e+00	0	44	102	1048576	8	3924
2026-01-06 05:15:50.94	343.16	47.77	-24.4	-25.1	17.3	0.00e+00	0	44	102	1048576	8	3908
2026-01-06 05:15:51.94	342.75	48.00	-24.4	-25.1	17.3	0.00e+00	0	44	102	1048576	8	3907
2026-01-06 05:15:52.95	342.33	48.24	-24.7	-25.2	17.0	0.00e+00	0	44	102	1048576	9	3825
2026-01-06 05:15:53.96	341.90	48.47	-25.1	-25.5	16.6	0.00e+00	0	44	102	1048576	10	3797
2026-01-06 05:15:54.96	341.47	48.71	-24.8	-24.9	16.9	0.00e+00	0	44	102	1048576	10	3652
2026-01-06 05:15:55.97	341.03	48.94	-25.1	-25.7	16.5	0.00e+00	0	44	102	1048576	10	3834
2026-01-06 05:15:56.98	340.59	49.17	-24.9	-25.2	16.8	0.00e+00	0	44	102	1048576	10	3721
2026-01-06 05:15:57.99	340.13	49.40	-25.2	-25.8	16.5	0.00e+00	0	44	102	1048576	10	3858
2026-01-06 05:15:58.99	339.68	49.63	-25.1	-25.7	16.6	0.00e+00	0	44	102	1048576	10	3847
2026-01-06 05:16:00.00	339.21	49.86	-25.1	-25.7	16.5	0.00e+00	0	44	102	1048576	10	3855
2026-01-06 05:16:01.01	338.73	50.09	-25.1	-25.7	16.6	0.00e+00	0	44	102	1048576	10	3831
2026-01-06 05:16:02.02	338.25	50.32	-25.2	-25.9	16.4	0.00e+00	0	44	102	1048576	10	3886
2026-01-06 05:16:03.02	337.76	50.55	-25.0	-25.4	16.7	0.00e+00	0	44	102	1048576	10	3776
2026-01-06 05:16:04.03	337.27	50.78	-24.4	-24.7	17.3	0.00e+00	0	44	102	1048576	9	3698
2026-01-06 05:16:05.04	336.76	51.00	-24.6	-25.1	17.1	0.00e+00	0	44	102	1048576	9	3804
2026-01-06 05:16:06.05	336.25	51.22	-24.5	-25.3	17.2	0.00e+00	0	44	102	1048576	8	3959
2026-01-06 05:16:07.05	335.73	51.45	-24.4	-25.1	17.4	0.00e+00	0	44	102	1048576	8	3895
2026-01-06 05:16:08.06	335.20	51.67	-24.6	-25.6	17.1	0.00e+00	0	44	102	1048576	8	4015
2026-01-06 05:16:09.07	334.67	51.89	-24.5	-24.9	17.3	0.00e+00	0	44	102	1048576	9	3750
2026-01-06 05:16:10.07	334.13	52.10	-24.6	-25.0	17.1	0.00e+00	0	44	102	1048576	9	3778
2026-01-06 05:16:11.08	333.58	52.32	-24.8	-25.4	17.0	0.00e+00	0	44	102	1048576	9	3872
2026-01-06 05:16:12.09	333.01	52.53	-24.6	-25.1	17.1	0.00e+00	0	44	102	1048576	9	3811
2026-01-06 05:16:13.10	332.45	52.75	-24.7	-25.2	17.0	0.00e+00	0	44	102	1048576	9	3833
2026-01-06 05:16:14.10	331.87	52.95	-24.8	-25.6	16.8	0.00e+00	0	44	102	1048576	9	3916
2026-01-06 05:16:15.11	331.29	53.16	-24.8	-25.5	16.9	0.00e+00	0	44	102	1048576	9	3901
2026-01-06 05:16:16.12	330.69	53.37	-25.2	-25.7	16.4	0.00e+00	0	44	102	1048576	10	3844
2026-01-06 05:16:17.13	330.09	53.57	-25.0	-25.5	16.7	0.00e+00	0	44	102	1048576	10	3778
2026-01-06 05:16:18.14	329.48	53.77	-24.8	-25.0	16.9	0.00e+00	0	44	102	1048576	10	3677
2026-01-06 05:16:19.14	328.87	53.97	-24.6	-24.5	17.2	0.00e+00	0	44	102	1048576	10	3562
2026-01-06 05:16:20.15	328.24	54.17	-24.4	-24.7	17.3	0.00e+00	0	44	102	1048576	9	3698
2026-01-06 05:16:21.16	327.60	54.36	-24.2	-24.3	17.5	0.00e+00	0	44	102	1048576	9	3609
2026-01-06 05:16:22.17	326.96	54.55	-24.3	-24.4	17.5	0.00e+00	0	44	102	1048576	9	3641
2026-01-06 05:16:23.17	326.31	54.74	-24.3	-24.4	17.5	0.00e+00	0	44	102	1048576	9	3635
2026-01-06 05:16:24.17	325.65	54.92	-24.4	-24.5	17.4	0.00e+00	0	44	102	1048576	9	3674
2026-01-06 05:16:25.18	324.98	55.10	-24.4	-24.5	17.1	0.00e+00	0	44	102	1048576	9	3669
2026-01-06 05:16:26.19	324.30	55.28	-24.4	-24.6	17.3	1.20e-04	0	44	102	1048576	9	3692
2026-01-06 05:16:27.19	323.62	55.45	-24.7	-25.3	17.0	0.00e+00	0	44	102	1048576	9	3843
2026-01-06 05:16:28.20	322.93	55.62	-24.6	-25.0	17.1	0.00e+00	0	44	102	1048576	9	3788
2026-01-06 05:16:29.21	322.22	55.79	-24.3	-24.4	17.5	0.00e+00	0	44	102	1048576	9	3641
2026-01-06 05:16:30.22	321.51	55.95	-24.4	-24.5	17.4	0.00e+00	0	44	102	1048576	9	3680
2026-01-06 05:16:31.22	320.79	56.11	-24.2	-24.2	17.6	0.00e+00	0	44	102	1048576	9	3591
2026-01-06 05:16:32.22	320.07	56.26	-24.0	-23.7	17.8	0.00e+00	0	44	102	1048576	9	3501
2026-01-06 05:16:33.23	319.33	56.41	-23.9	-24.1	17.9	0.00e+00	0	44	102	1048576	8	3669
2026-01-06 05:16:34.24	318.59	56.56	-24.1	-24.5	17.7	1.56e-04	0	44	102	1048576	8	3758
2026-01-06 05:16:35.25	317.83	56.70	-24.2	-24.6	17.6	0.00e+00	0	44	102	1048576	8	3788
2026-01-06 05:16:36.26	317.07	56.84	-24.3	-24.9	17.5	0.00e+00	0	44	102	1048576	8	3850
2026-01-06 05:16:37.26	316.31	56.97	-24.4	-24.6	17.4	0.00e+00	0	44	102	1048576	9	3688
2026-01-06 05:16:38.27	315.53	57.10	-24.4	-25.0	17.4	1.91e-04	0	44	102	1048576	8	3886
2026-01-06 05:16:39.27	314.75	57.22	-24.2	-24.7	17.6	0.00e+00	0	44	102	1048576	8	3811
2026-01-06 05:16:40.28	313.96	57.34	-24.1	-24.6	17.6	2.77e-04	0	44	102	1048576	8	3782
2026-01-06 05:16:41.29	313.17	57.46	-24.1	-24.5	17.7	1.58e-04	0	44	102	1048576	8	3756
2026-01-06 05:16:42.30	312.36	57.57	-24.2	-24.7	17.6	0.00e+00	0	44	102	1048576	8	3805
2026-01-06 05:16:43.30	311.56	57.67	-24.5	-25.3	17.3	6.17e-05	0	44	102	1048576	8	3942
2026-01-06 05:16:44.31	310.74	57.77	-24.6	-25.0	17.1	1.93e-04	0	44	102	1048576	9	3766
2026-01-06 05:16:45.32	309.92	57.86	-24.6	-24.9	17.2	0.00e+00	0	44	102	1048576	9	3764
2026-01-06 05:16:46.33	309.09	57.95	-24.5	-24.9	17.2	4.00e-04	0	44	102	1048576	9	3749
2026-01-06 05:16:47.33	308.26	58.03	-24.3	-24.4	17.4	0.00e+00	0	44	102	1048576	9	3628
2026-01-06 05:16:48.34	307.43	58.10	-24.0	-23.7	17.8	0.00e+00	0	44	102	1048576	9	3493
2026-01-06 05:16:49.34	306.59	58.17	-24.2	-24.7	17.5	0.00e+00	0	44	102	1048576	8	3817
2026-01-06 05:16:50.35	305.74	58.24	-24.4	-25.0	17.4	0.00e+00	0	44	102	1048576	8	3887
2026-01-06 05:16:51.35	304.90	58.30	-24.4	-25.2	17.2	0.00e+00	0	44	102	1048576	8	3932
2026-01-06 05:16:52.36	304.04	58.35	-24.6	-25.5	17.1	0.00e+00	0	44	102	1048576	8	3999
2026-01-06 05:16:53.36	303.19	58.40	-24.6	-25.0	17.1	0.00e+00	0	44	102	1048576	9	3778
2026-01-06 05:16:54.36	302.34	58.44	-24.8	-25.4	16.9	0.00e+00	0	44	102	1048576	9	3876
2026-01-06 05:16:55.37	301.48	58.48	-24.6	-25.0	17.0	0.00e+00	0	44	102	1048576	9	3785
2026-01-06 05:16:56.38	300.61	58.50	-24.7	-25.3	17.0	0.00e+00	0	44	102	1048576	9	3844
2026-01-06 05:16:57.39	299.74	58.53	-24.6	-25.0	17.1	0.00e+00	0	44	102	1048576	9	3780
2026-01-06 05:16:58.40	298.87	58.54	-24.6	-25.1	17.1	4.59e-04	0	44	102	1048576	9	3788
2026-01-06 05:16:59.41	298.00	58.56	-25.1	-25.5	16.6	0.00e+00	0	44	102	1048576	10	3786
2026-01-06 05:17:00.42	297.13	58.56	-25.3	-26.1	16.3	0.00e+00	0	44	102	1048576	10	3938
2026-01-06 05:17:01.42	296.27	58.56	-25.2	-25.8	16.4	0.00e+00	0	44	102	1048576	10	3859
2026-01-06 05:17:02.43	295.40	58.55	-24.6	-25.1	17.1	0.00e+00	0	44	102	1048576	9	3791
2026-01-06 05:17:03.44	294.53	58.54	-24.3	-24.3	17.5	0.00e+00	0	44	102	1048576	9	3629
2026-01-06 05:17:04.44	293.67	58.52	-24.2	-24.6	17.6	0.00e+00	0	44	102	1048576	8	3794
2026-01-06 05:17:05.45	292.80	58.49	-24.1	-24.5	17.6	0.00e+00	0	44	102	1048576	8	3767
2026-01-06 05:17:06.45	291.95	58.46	-24.2	-24.7	17.5	0.00e+00	0	44	102	1048576	8	3815
2026-01-06 05:17:07.45	291.09	58.42	-24.4	-25.1	17.3	0.00e+00	0	44	102	1048576	8	3907
2026-01-06 05:17:08.45	290.24	58.38	-24.3	-24.9	17.4	0.00e+00	0	44	102	1048576	8	3847
2026-01-06 05:17:09.46	289.38	58.33	-24.3	-25.0	17.4	0.00e+00	0	44	102	1048576	8	3880
2026-01-06 05:17:10.47	288.53	58.28	-24.4	-25.0	17.3	0.00e+00	0	44	102	1048576	8	3895
2026-01-06 05:17:11.48	287.68	58.21	-24.3	-24.8	17.5	0.00e+00	0	44	102	1048576	8	3845
2026-01-06 05:17:12.49	286.83	58.15	-24.4	-25.1	17.3	0.00e+00	0	44	102	1048576	8	3920
2026-01-06 05:17:13.50	285.99	58.07	-24.5	-25.3	17.2	0.00e+00	0	44	102	1048576	8	3959
2026-01-06 05:17:14.51	285.15	57.99	-24.7	-25.3	17.0	0.00e+00	0	44	102	1048576	9	3843
2026-01-06 05:17:15.51	284.33	57.91	-24.8	-25.5	16.8	0.00e+00	0	44	102	1048576	9	3914
2026-01-06 05:17:16.52	283.50	57.82	-24.9	-25.7	16.7	0.00e+00	0	44	102	1048576	9	3941
2026-01-06 05:17:17.53	282.68	57.73	-24.7	-25.3	16.8	0.00e+00	0	44	102	1048576	9	3855
2026-01-06 05:17:18.53	281.87	57.63	-24.5	-24.8	17.2	0.00e+00	0	44	102	1048576	9	3722
2026-01-06 05:17:19.53	281.07	57.52	-24.6	-25.5	17.1	0.00e+00	0	44	102	1048576	8	3997
2026-01-06 05:17:20.54	280.27	57.41	-24.7	-25.4	16.9	0.00e+00	0	44	102	1048576	9	3869
2026-01-06 05:17:21.54	279.48	57.29	-24.8	-25.4	16.9	0.00e+00	0	44	102	1048576	9	3883
2026-01-06 05:17:22.54	278.70	57.17	-24.4	-24.7	17.3	0.00e+00	0	44	102	1048576	9	3703
2026-01-06 05:17:23.54	277.92	57.05	-24.1	-24.6	17.6	0.00e+00	0	44	102	1048576	8	3783
2026-01-06 05:17:24.55	277.15	56.92	-24.0	-24.3	17.8	0.00e+00	0	44	102	1048576	8	3713
2026-01-06 05:17:25.56	276.38	56.78	-24.1	-24.5	17.6	0.00e+00	0	44	102	1048576	8	3759
2026-01-06 05:17:26.56	275.63	56.64	-24.2	-24.6	17.5	0.00e+00	0	44	102	1048576	8	3787
2026-01-06 05:17:27.57	274.88	56.50	-23.9	-24.1	17.8	0.00e+00	0	44	102	1048576	8	3674
2026-01-06 05:17:28.58	274.13	56.35	-23.9	-24.6	17.8	1.10e-06	0	44	102	1048576	7	3893
2026-01-06 05:17:29.59	273.40	56.20	-24.2	-24.7	17.4	0.00e+00	0	44	102	1048576	8	3818
2026-01-06 05:17:30.59	272.68	56.04	-24.3	-24.9	17.3	0.00e+00	0	44	102	1048576	8	3857
2026-01-06 05:17:31.60	271.96	55.88	-24.4	-25.1	17.2	0.00e+00	0	44	102	1048576	8	3895
2026-01-06 05:17:32.60	271.25	55.72	-24.2	-24.7	17.4	0.00e+00	0	44	102	1048576	8	3822
2026-01-06 05:17:33.61	270.55	55.55	-24.1	-24.4	17.6	0.00e+00	0	44	102	1048576	8	3748
2026-01-06 05:17:34.62	269.86	55.38	-23.8	-24.3	17.9	0.00e+00	0	44	102	1048576	7	3822
2026-01-06 05:17:35.62	269.18	55.20	-23.7	-24.1	18.0	0.00e+00	0	44	102	1048576	7	3778
2026-01-06 05:17:36.62	268.51	55.02	-24.0	-24.8	17.5	0.00e+00	0	44	102	1048576	7	3954
2026-01-06 05:17:37.64	267.83	54.84	-24.0	-24.4	17.6	0.00e+00	0	44	102	1048576	8	3738
2026-01-06 05:17:38.64	267.18	54.66	-24.2	-24.8	17.4	0.00e+00	0	44	102	1048576	8	3836
2026-01-06 05:17:39.64	266.53	54.47	-24.2	-24.7	17.5	0.00e+00	0	44	102	1048576	8	3810
2026-01-06 05:17:40.65	265.89	54.28	-24.2	-24.6	17.5	0.00e+00	0	44	102	1048576	8	3795
2026-01-06 05:17:41.66	265.25	54.08	-24.3	-24.9	17.4	0.00e+00	0	44	102	1048576	8	3869
2026-01-06 05:17:42.66	264.63	53.89	-24.4	-25.0	17.3	0.00e+00	0	44	102	1048576	8	3884
2026-01-06 05:17:43.67	264.02	53.69	-24.3	-25.0	17.3	0.00e+00	0	44	102	1048576	8	3872
2026-01-06 05:17:44.68	263.41	53.48	-24.6	-25.5	17.1	0.00e+00	0	44	102	1048576	8	4002
2026-01-06 05:17:45.69	262.81	53.28	-24.3	-25.0	17.2	0.00e+00	0	44	102	1048576	8	3876
2026-01-06 05:17:46.69	262.22	53.07	-24.1	-24.5	17.5	0.00e+00	0	44	102	1048576	8	3776
2026-01-06 05:17:47.70	261.64	52.86	-24.1	-24.5	17.6	0.00e+00	0	44	102	1048576	8	3759
2026-01-06 05:17:48.70	261.07	52.65	-24.1	-24.6	17.5	0.00e+00	0	44	102	1048576	8	3780
2026-01-06 05:17:49.71	260.50	52.44	-24.1	-24.9	17.6	0.00e+00	0	44	102	1048576	7	3970
2026-01-06 05:17:50.71	259.95	52.23	-24.1	-24.6	17.5	0.00e+00	0	44	102	1048576	8	3784
2026-01-06 05:17:51.71	259.40	52.01	-24.1	-24.6	17.5	0.00e+00	0	44	102	1048576	8	3785
2026-01-06 05:17:52.72	258.86	51.79	-24.1	-24.4	17.6	0.00e+00	0	44	102	1048576	8	3753
2026-01-06 05:17:53.73	258.33	51.57	-23.9	-24.1	17.8	0.00e+00	0	44	102	1048576	8	3665
2026-01-06 05:17:54.73	257.80	51.35	-23.8	-23.8	17.9	3.57e-04	0	44	102	1048576	8	3616
2026-01-06 05:17:55.73	257.29	51.13	-23.7	-24.2	17.9	3.28e-04	0	44	102	1048576	7	3814
2026-01-06 05:17:56.74	256.78	50.90	-23.9	-24.5	17.7	0.00e+00	0	44	102	1048576	7	3877
2026-01-06 05:17:57.75	256.28	50.68	-24.1	-24.9	17.6	1.66e-04	0	44	102	1048576	7	3963
2026-01-06 05:17:58.75	255.78	50.45	-24.0	-24.2	17.7	1.25e-05	0	44	102	1048576	8	3705
2026-01-06 05:17:59.76	255.30	50.22	-23.8	-23.9	17.9	0.00e+00	0	44	102	1048576	8	3622
2026-01-06 05:18:00.77	254.81	49.99	-23.8	-24.4	17.8	6.58e-04	0	44	102	1048576	7	3852
2026-01-06 05:18:01.78	254.34	49.76	-23.9	-24.5	17.7	5.78e-04	0	44	102	1048576	7	3880
2026-01-06 05:18:02.79	253.87	49.53	-24.1	-24.5	17.5	0.00e+00	0	44	102	1048576	8	3773
2026-01-06 05:18:03.79	253.42	49.30	-24.3	-25.0	17.2	0.00e+00	0	44	102	1048576	8	3897
2026-01-06 05:18:04.80	252.97	49.06	-24.4	-25.2	17.1	3.18e-04	0	44	102	1048576	8	3941
2026-01-06 05:18:05.81	252.52	48.83	-24.3	-24.9	17.3	0.00e+00	0	44	102	1048576	8	3874
2026-01-06 05:18:06.82	252.08	48.60	-24.3	-24.9	17.3	6.40e-04	0	44	102	1048576	8	3856
2026-01-06 05:18:07.82	251.65	48.36	-24.4	-25.1	17.1	6.02e-04	0	44	102	1048576	8	3905
2026-01-06 05:18:08.83	251.23	48.13	-24.0	-24.4	17.6	0.00e+00	0	44	102	1048576	8	3742
2026-01-06 05:18:09.84	250.81	47.89	-23.9	-24.1	17.4	1.65e-04	0	44	102	1048576	8	3687
2026-01-06 05:18:10.84	250.40	47.66	-24.3	-24.8	17.3	0.00e+00	0	44	102	1048576	8	3852
2026-01-06 05:18:11.85	249.99	47.42	-23.9	-24.0	17.8	0.00e+00	0	44	102	1048576	8	3646
2026-01-06 05:18:12.86	249.59	47.18	-23.5	-23.8	18.1	2.88e-04	0	44	102	1048576	7	3711
2026-01-06 05:18:13.87	249.19	46.95	-23.5	-23.8	18.1	0.00e+00	0	44	102	1048576	7	3707
2026-01-06 05:18:14.87	248.81	46.71	-23.7	-24.2	17.7	0.00e+00	0	44	102	1048576	7	3799
2026-01-06 05:18:15.88	248.43	46.47	-23.5	-23.8	18.1	0.00e+00	0	44	102	1048576	7	3715
2026-01-06 05:18:16.89	248.05	46.24	-23.2	-23.1	18.4	0.00e+00	0	44	102	1048576	7	3566
2026-01-06 05:18:17.90	247.68	46.00	-23.1	-22.9	18.5	0.00e+00	0	44	102	1048576	7	3510
2026-01-06 05:18:18.90	247.32	45.76	-23.2	-23.6	18.4	0.00e+00	0	44	102	1048576	6	3766
2026-01-06 05:18:19.91	246.96	45.53	-23.0	-23.3	18.4	0.00e+00	0	44	102	1048576	6	3703
2026-01-06 05:18:20.92	246.60	45.29	-23.1	-23.4	18.5	0.00e+00	0	44	102	1048576	6	3735
2026-01-06 05:18:21.93	246.25	45.05	-23.1	-23.4	18.5	0.00e+00	0	44	102	1048576	6	3730
2026-01-06 05:18:22.94	245.91	44.81	-22.8	-23.4	18.7	0.00e+00	0	44	102	1048576	5	3821
2026-01-06 05:18:23.94	245.57	44.58	-22.9	-23.5	18.7	0.00e+00	0	44	102	1048576	5	3853
2026-01-06 05:18:24.95	245.24	44.34	-23.2	-23.7	18.4	0.00e+00	0	44	102	1048576	6	3793
2026-01-06 05:18:25.96	244.91	44.11	-23.2	-23.5	18.4	0.00e+00	0	44	102	1048576	6	3760
2026-01-06 05:18:26.97	244.58	43.87	-23.4	-24.1	18.1	0.00e+00	0	44	102	1048576	6	3897
2026-01-06 05:18:27.97	244.27	43.64	-23.2	-23.7	18.3	0.00e+00	0	44	102	1048576	6	3793
2026-01-06 05:18:28.98	243.95	43.41	-23.3	-23.9	18.2	0.00e+00	0	44	102	1048576	6	3846
2026-01-06 05:18:29.99	243.64	43.17	-23.6	-24.4	18.0	0.00e+00	0	44	102	1048576	6	3963
2026-01-06 05:18:31.00	243.33	42.94	-23.3	-23.3	18.2	0.00e+00	0	44	102	1048576	7	3616
2026-01-06 05:18:32.00	243.03	42.71	-23.3	-23.3	18.3	0.00e+00	0	44	102	1048576	7	3599
2026-01-06 05:18:33.01	242.74	42.47	-23.4	-23.5	18.2	0.00e+00	0	44	102	1048576	7	3655
2026-01-06 05:18:34.02	242.44	42.24	-23.2	-23.7	18.3	0.00e+00	0	44	102	1048576	6	3791
2026-01-06 05:18:35.03	242.16	42.01	-23.5	-24.3	18.0	0.00e+00	0	44	102	1048576	6	3938
2026-01-06 05:18:36.04	241.87	41.78	-23.3	-23.9	18.2	0.00e+00	0	44	102	1048576	6	3848
2026-01-06 05:18:37.04	241.59	41.55	-23.2	-23.6	18.4	0.00e+00	0	44	102	1048576	6	3780
2026-01-06 05:18:38.05	241.32	41.32	-23.2	-23.6	18.4	0.00e+00	0	44	102	1048576	6	3779
2026-01-06 05:18:39.05	241.05	41.10	-23.2	-23.6	18.4	0.00e+00	0	44	102	1048576	6	3765
2026-01-06 05:18:40.06	240.78	40.87	-23.2	-23.6	18.4	0.00e+00	0	44	102	1048576	6	3774
2026-01-06 05:18:41.06	240.52	40.64	-22.9	-22.9	18.2	0.00e+00	0	44	102	1048576	6	3621
2026-01-06 05:18:42.07	240.25	40.42	-22.9	-23.0	18.6	0.00e+00	0	44	102	1048576	6	3649
2026-01-06 05:18:43.07	240.00	40.19	-23.0	-23.3	18.5	0.00e+00	0	44	102	1048576	6	3709
2026-01-06 05:18:44.08	239.74	39.97	-23.2	-23.6	18.3	0.00e+00	0	44	102	1048576	6	3781
2026-01-06 05:18:45.09	239.49	39.74	-23.3	-23.8	18.3	0.00e+00	0	44	102	1048576	6	3824
2026-01-06 05:18:46.10	239.25	39.52	-23.2	-23.7	18.3	0.00e+00	0	44	102	1048576	6	3790
2026-01-06 05:18:47.11	239.00	39.30	-23.0	-23.1	18.6	0.00e+00	0	44	102	1048576	6	3668
2026-01-06 05:18:48.11	238.76	39.08	-22.7	-22.5	18.9	0.00e+00	0	44	102	1048576	6	3530
2026-01-06 05:18:49.12	238.53	38.86	-22.7	-22.5	18.9	0.00e+00	0	44	102	1048576	6	3524
2026-01-06 05:18:50.14	238.29	38.63	-22.8	-22.8	18.7	0.00e+00	0	44	102	1048576	6	3607
2026-01-06 05:18:51.14	238.06	38.42	-22.8	-22.7	18.8	0.00e+00	0	44	102	1048576	6	3583
2026-01-06 05:18:52.15	237.83	38.20	-23.0	-23.2	18.5	0.00e+00	0	44	102	1048576	6	3700
2026-01-06 05:18:53.16	237.61	37.98	-22.9	-23.0	18.6	0.00e+00	0	44	102	1048576	6	3651
2026-01-06 05:18:54.16	237.39	37.77	-23.0	-23.2	18.5	0.00e+00	0	44	102	1048576	6	3689
2026-01-06 05:18:55.16	237.17	37.55	-22.9	-23.0	18.6	0.00e+00	0	44	102	1048576	6	3649
2026-01-06 05:18:56.17	236.96	37.34	-22.9	-23.1	18.6	0.00e+00	0	44	102	1048576	6	3658
2026-01-06 05:18:57.17	236.75	37.13	-23.1	-23.3	18.3	0.00e+00	0	44	102	1048576	6	3715
2026-01-06 05:18:58.18	236.54	36.91	-22.9	-23.0	18.6	0.00e+00	0	44	102	1048576	6	3651
2026-01-06 05:18:59.18	236.33	36.70	-22.9	-23.0	18.6	0.00e+00	0	44	102	1048576	6	3633
2026-01-06 05:19:00.19	236.13	36.49	-22.9	-23.1	18.5	0.00e+00	0	44	102	1048576	6	3670
2026-01-06 05:19:01.20	235.92	36.28	-23.1	-23.4	18.4	0.00e+00	0	44	102	1048576	6	3729
2026-01-06 05:19:02.21	235.73	36.07	-22.9	-23.0	18.4	0.00e+00	0	44	102	1048576	6	3642
2026-01-06 05:19:03.21	235.53	35.87	-22.9	-22.9	18.7	0.00e+00	0	44	102	1048576	6	3625
2026-01-06 05:19:04.21	235.34	35.66	-22.7	-23.1	18.8	2.94e-04	0	44	102	1048576	5	3774
2026-01-06 05:19:05.22	235.15	35.46	-22.6	-22.9	18.9	0.00e+00	0	44	102	1048576	5	3715
2026-01-06 05:19:06.23	234.96	35.25	-22.4	-22.5	19.1	3.10e-04	0	44	102	1048576	5	3630
2026-01-06 05:19:07.24	234.77	35.05	-22.4	-23.0	19.1	0.00e+00	0	44	102	1048576	4	3849
2026-01-06 05:19:08.25	234.58	34.84	-22.5	-23.2	18.9	0.00e+00	0	44	102	1048576	4	3898
2026-01-06 05:19:09.25	234.40	34.64	-22.4	-23.0	19.0	2.71e-04	0	44	102	1048576	4	3852
2026-01-06 05:19:10.25	234.22	34.44	-22.5	-23.1	19.0	0.00e+00	0	44	102	1048576	4	3868
2026-01-06 05:19:11.26	234.05	34.24	-22.6	-22.9	18.9	0.00e+00	0	44	102	1048576	5	3728
2026-01-06 05:19:12.27	233.87	34.04	-22.5	-22.7	18.9	2.94e-04	0	44	102	1048576	5	3688
2026-01-06 05:19:13.28	233.70	33.84	-22.5	-23.1	19.0	3.54e-04	0	44	102	1048576	4	3887
2026-01-06 05:19:14.28	233.53	33.65	-22.5	-23.1	19.0	0.00e+00	0	44	102	1048576	4	3878
2026-01-06 05:19:15.29	233.36	33.45	-22.4	-23.0	19.1	5.37e-04	0	44	102	1048576	4	3839
2026-01-06 05:19:16.30	233.19	33.26	-22.5	-23.1	19.0	7.01e-04	0	44	102	1048576	4	3881
2026-01-06 05:19:17.30	233.03	33.06	-22.7	-23.2	18.7	0.00e+00	0	44	102	1048576	5	3786
2026-01-06 05:19:18.31	232.86	32.87	-23.0	-23.8	18.4	4.03e-04	0	44	102	1048576	5	3920
2026-01-06 05:19:19.31	232.70	32.68	-22.9	-23.6	18.5	3.75e-04	0	44	102	1048576	5	3878
2026-01-06 05:19:20.31	232.55	32.49	-23.1	-23.9	18.4	0.00e+00	0	44	102	1048576	5	3949
2026-01-06 05:19:21.32	232.39	32.30	-23.2	-23.5	18.3	3.59e-04	0	44	102	1048576	6	3763
2026-01-06 05:19:22.32	232.23	32.11	-23.2	-23.7	18.1	0.00e+00	0	44	102	1048576	6	3794
2026-01-06 05:19:23.33	232.08	31.92	-23.0	-23.3	18.4	0.00e+00	0	44	102	1048576	6	3704
2026-01-06 05:19:24.33	231.93	31.74	-23.0	-23.6	18.4	4.43e-04	0	44	102	1048576	5	3891
2026-01-06 05:19:25.34	231.78	31.55	-23.0	-23.7	18.4	0.00e+00	0	44	102	1048576	5	3911
2026-01-06 05:19:26.34	231.63	31.36	-22.8	-23.4	18.6	0.00e+00	0	44	102	1048576	5	3835
2026-01-06 05:19:27.35	231.48	31.18	-22.7	-23.1	18.7	0.00e+00	0	44	102	1048576	5	3774
2026-01-06 05:19:28.36	231.34	30.99	-22.7	-23.2	18.7	0.00e+00	0	44	102	1048576	5	3797
2026-01-06 05:19:29.36	231.20	30.81	-22.8	-23.4	18.6	0.00e+00	0	44	102	1048576	5	3831
2026-01-06 05:19:30.37	231.05	30.63	-22.9	-23.6	18.5	0.00e+00	0	44	102	1048576	5	3876
2026-01-06 05:19:31.38	230.91	30.45	-22.8	-23.3	18.6	2.45e-04	0	44	102	1048576	5	3815
2026-01-06 05:19:32.39	230.78	30.27	-22.7	-23.1	18.7	0.00e+00	0	44	102	1048576	5	3781
2026-01-06 05:19:33.40	230.64	30.09	-22.8	-23.3	18.6	0.00e+00	0	44	102	1048576	5	3823
2026-01-06 05:19:34.40	230.50	29.91	-22.8	-23.2	18.6	0.00e+00	0	44	102	1048576	5	3797
2026-01-06 05:19:35.41	230.37	29.74	-22.6	-22.9	18.8	0.00e+00	0	44	102	1048576	5	3732
2026-01-06 05:19:36.42	230.24	29.56	-22.7	-23.0	18.7	0.00e+00	0	44	102	1048576	5	3754
2026-01-06 05:19:37.43	230.11	29.38	-22.7	-23.1	18.7	0.00e+00	0	44	102	1048576	5	3758
2026-01-06 05:19:38.43	229.98	29.21	-22.8	-23.2	18.6	0.00e+00	0	44	102	1048576	5	3797
2026-01-06 05:19:39.44	229.85	29.04	-22.8	-23.3	18.6	0.00e+00	0	44	102	1048576	5	3824
2026-01-06 05:19:40.45	229.72	28.86	-22.9	-23.4	18.5	0.00e+00	0	44	102	1048576	5	3847
2026-01-06 05:19:41.45	229.60	28.69	-23.0	-23.8	18.3	0.00e+00	0	44	102	1048576	5	3932
2026-01-06 05:19:42.46	229.47	28.52	-23.1	-23.3	18.3	0.00e+00	0	44	102	1048576	6	3719
2026-01-06 05:19:43.46	229.35	28.35	-22.9	-23.5	18.5	0.00e+00	0	44	102	1048576	5	3870
2026-01-06 05:19:44.47	229.23	28.18	-22.9	-23.5	18.5	0.00e+00	0	44	102	1048576	5	3856
2026-01-06 05:19:45.48	229.11	28.01	-22.9	-23.5	18.5	0.00e+00	0	44	102	1048576	5	3862
2026-01-06 05:19:46.48	228.99	27.85	-22.9	-23.5	18.5	0.00e+00	0	44	102	1048576	5	3856
2026-01-06 05:19:47.48	228.88	27.68	-23.0	-23.7	18.4	0.00e+00	0	44	102	1048576	5	3906
2026-01-06 05:19:48.49	228.76	27.52	-23.0	-23.7	18.3	0.00e+00	0	44	102	1048576	5	3909
2026-01-06 05:19:49.49	228.65	27.35	-23.0	-23.8	18.3	0.00e+00	0	44	102	1048576	5	3929
2026-01-06 05:19:50.50	228.53	27.19	-23.2	-23.6	18.2	0.00e+00	0	44	102	1048576	6	3787
2026-01-06 05:19:51.51	228.42	27.03	-23.4	-24.1	17.9	0.00e+00	0	44	102	1048576	6	3900
2026-01-06 05:19:52.52	228.31	26.86	-23.5	-23.8	17.8	0.00e+00	0	44	102	1048576	7	3727
2026-01-06 05:19:53.53	228.20	26.70	-23.5	-23.8	17.8	0.00e+00	0	44	102	1048576	7	3718
2026-01-06 05:19:54.53	228.09	26.54	-23.5	-23.8	17.8	0.00e+00	0	44	102	1048576	7	3719
2026-01-06 05:19:55.53	227.98	26.38	-23.5	-24.3	17.8	0.00e+00	0	44	102	1048576	6	3931
2026-01-06 05:19:56.53	227.87	26.23	-23.5	-23.7	17.8	0.00e+00	0	44	102	1048576	7	3701
2026-01-06 05:19:57.54	227.77	26.07	-23.2	-23.7	18.1	0.00e+00	0	44	102	1048576	6	3809
2026-01-06 05:19:58.54	227.66	25.91	-23.2	-23.6	18.1	0.00e+00	0	44	102	1048576	6	3771
2026-01-06 05:19:59.56	227.56	25.75	-23.2	-23.7	18.0	0.00e+00	0	44	102	1048576	6	3795
2026-01-06 05:20:00.57	227.46	25.60	-23.1	-23.5	18.2	0.00e+00	0	44	102	1048576	6	3749
2026-01-06 05:20:01.58	227.35	25.44	-23.0	-23.1	18.4	0.00e+00	0	44	102	1048576	6	3676
2026-01-06 05:20:02.58	227.25	25.29	-22.9	-23.0	18.3	0.00e+00	0	44	102	1048576	6	3637
2026-01-06 05:20:03.59	227.16	25.14	-22.8	-23.2	18.6	0.00e+00	0	44	102	1048576	5	3798
2026-01-06 05:20:04.60	227.06	24.98	-22.8	-23.3	18.5	0.00e+00	0	44	102	1048576	5	3826
2026-01-06 05:20:05.61	226.96	24.83	-22.8	-23.3	18.5	0.00e+00	0	44	102	1048576	5	3815
2026-01-06 05:20:06.61	226.86	24.68	-22.8	-23.2	18.5	0.00e+00	0	44	102	1048576	5	3797
2026-01-06 05:20:07.61	226.77	24.53	-22.8	-23.3	18.5	0.00e+00	0	44	102	1048576	5	3822
2026-01-06 05:20:08.62	226.67	24.38	-22.8	-23.3	18.5	0.00e+00	0	44	102	1048576	5	3807
2026-01-06 05:20:09.62	226.58	24.23	-22.9	-23.4	18.4	0.00e+00	0	44	102	1048576	5	3846
2026-01-06 05:20:10.62	226.49	24.09	-22.9	-23.5	18.4	0.00e+00	0	44	102	1048576	5	3867
2026-01-06 05:20:11.63	226.39	23.94	-23.0	-23.6	18.3	0.00e+00	0	44	102	1048576	5	3896
2026-01-06 05:20:12.64	226.30	23.79	-23.0	-23.7	18.3	0.00e+00	0	44	102	1048576	5	3902
2026-01-06 05:20:13.64	226.21	23.65	-23.1	-23.9	18.2	0.00e+00	0	44	102	1048576	5	3958
2026-01-06 05:20:14.65	226.12	23.50	-23.3	-23.8	18.0	0.00e+00	0	44	102	1048576	6	3835
2026-01-06 05:20:15.65	226.04	23.36	-23.3	-23.8	18.0	0.00e+00	0	44	102	1048576	6	3838
2026-01-06 05:20:16.66	225.95	23.22	-23.3	-23.8	18.0	0.00e+00	0	44	102	1048576	6	3830
2026-01-06 05:20:17.67	225.86	23.07	-23.4	-24.0	17.9	0.00e+00	0	44	102	1048576	6	3881
2026-01-06 05:20:18.68	225.77	22.93	-23.4	-24.2	17.8	0.00e+00	0	44	102	1048576	6	3912
2026-01-06 05:20:19.68	225.69	22.79	-23.5	-24.2	17.8	0.00e+00	0	44	102	1048576	6	3919
2026-01-06 05:20:20.68	225.60	22.65	-23.7	-24.2	17.5	1.97e-04	0	44	102	1048576	7	3807
2026-01-06 05:20:21.69	225.52	22.51	-24.0	-24.9	17.1	0.00e+00	0	44	102	1048576	7	3992
2026-01-06 05:20:22.69	225.44	22.37	-23.9	-24.2	17.3	0.00e+00	0	44	102	1048576	8	3718
2026-01-06 05:20:23.69	225.36	22.24	-23.6	-24.1	17.6	0.00e+00	0	44	102	1048576	7	3786
2026-01-06 05:20:24.70	225.27	22.10	-23.5	-23.7	17.7	0.00e+00	0	44	102	1048576	7	3706
2026-01-06 05:20:25.71	225.19	21.96	-23.4	-23.6	17.8	0.00e+00	0	44	102	1048576	7	3687
2026-01-06 05:20:26.72	225.11	21.82	-23.5	-24.2	17.7	0.00e+00	0	44	102	1048576	6	3928
2026-01-06 05:20:27.72	225.03	21.69	-23.4	-24.1	17.8	5.76e-04	0	44	102	1048576	6	3900
2026-01-06 05:20:28.73	224.96	21.55	-23.4	-24.2	17.7	0.00e+00	0	44	102	1048576	6	3912
2026-01-06 05:20:29.74	224.88	21.42	-23.4	-24.1	17.8	6.99e-04	0	44	102	1048576	6	3896
2026-01-06 05:20:30.74	224.80	21.29	-23.4	-24.1	17.8	6.35e-04	0	44	102	1048576	6	3890
2026-01-06 05:20:31.75	224.72	21.15	-23.5	-24.3	17.6	0.00e+00	0	44	102	1048576	6	3943
2026-01-06 05:20:32.76	224.65	21.02	-23.5	-24.2	17.7	8.01e-04	0	44	102	1048576	6	3922
2026-01-06 05:20:33.76	224.57	20.89	-23.4	-24.2	17.7	8.03e-04	0	44	102	1048576	6	3917
2026-01-06 05:20:34.77	224.50	20.76	-23.5	-24.2	17.7	0.00e+00	0	44	102	1048576	6	3934
2026-01-06 05:20:35.78	224.42	20.63	-23.5	-24.3	17.7	7.88e-04	0	44	102	1048576	6	3942
2026-01-06 05:20:36.79	224.35	20.50	-23.6	-24.4	17.6	1.71e-05	0	44	102	1048576	6	3981
2026-01-06 05:20:37.79	224.28	20.37	-23.6	-24.4	17.6	0.00e+00	0	44	102	1048576	6	3975
2026-01-06 05:20:38.79	224.21	20.24	-23.7	-24.2	17.4	9.47e-04	0	44	102	1048576	7	3818
2026-01-06 05:20:39.80	224.14	20.11	-24.0	-24.9	17.1	1.00e-03	0	44	102	1048576	7	3972
2026-01-06 05:20:40.80	224.07	19.98	-23.9	-24.7	17.2	0.00e+00	0	44	102	1048576	7	3927
2026-01-06 05:20:41.81	224.00	19.86	-24.0	-24.9	17.1	0.00e+00	0	44	102	1048576	7	3975
2026-01-06 05:20:42.82	223.93	19.73	-23.9	-24.7	17.1	1.18e-03	0	44	102	1048576	7	3938
2026-01-06 05:20:43.83	223.86	19.60	-23.9	-24.6	17.2	0.00e+00	0	44	102	1048576	7	3922
2026-01-06 05:20:44.84	223.79	19.48	-23.9	-24.7	17.1	9.01e-04	0	44	102	1048576	7	3933
2026-01-06 05:20:45.84	223.72	19.36	-23.9	-24.7	17.1	0.00e+00	0	44	102	1048576	7	3931
2026-01-06 05:20:46.85	223.65	19.23	-24.1	-25.0	17.0	0.00e+00	0	44	102	1048576	7	4005
2026-01-06 05:20:47.86	223.59	19.11	-24.4	-25.2	16.6	9.22e-04	0	44	102	1048576	8	3945
2026-01-06 05:20:48.86	223.52	18.99	-24.3	-25.0	16.7	0.00e+00	0	44	102	1048576	8	3892
2026-01-06 05:20:49.87	223.46	18.86	-24.2	-24.7	16.9	0.00e+00	0	44	102	1048576	8	3832
2026-01-06 05:20:50.88	223.39	18.74	-24.1	-24.6	16.9	0.00e+00	0	44	102	1048576	8	3811
2026-01-06 05:20:51.88	223.33	18.62	-24.3	-24.9	16.8	0.00e+00	0	44	102	1048576	8	3874
2026-01-06 05:20:52.89	223.26	18.50	-24.3	-25.0	16.7	2.20e-06	0	44	102	1048576	8	3895
2026-01-06 05:20:53.89	223.20	18.38	-24.4	-25.1	16.7	0.00e+00	0	44	102	1048576	8	3934
2026-01-06 05:20:54.89	223.14	18.26	-24.4	-25.2	16.6	0.00e+00	0	44	102	1048576	8	3954
2026-01-06 05:20:55.90	223.07	18.14	-24.5	-25.4	16.5	1.10e-06	0	44	102	1048576	8	3993
2026-01-06 05:20:56.91	223.01	18.02	-24.6	-25.5	16.4	0.00e+00	0	44	102	1048576	8	4033
2026-01-06 05:20:57.92	222.95	17.91	-24.6	-25.5	16.4	0.00e+00	0	44	102	1048576	8	4032
2026-01-06 05:20:58.92	222.89	17.79	-24.6	-25.2	16.3	1.10e-06	0	44	102	1048576	9	3857
2026-01-06 05:20:59.93	222.83	17.67	-24.9	-25.8	16.0	0.00e+00	0	44	102	1048576	9	3988
2026-01-06 05:21:00.94	222.77	17.56	-24.8	-25.5	16.1	0.00e+00	0	44	102	1048576	9	3924
2026-01-06 05:21:01.94	222.71	17.44	-24.9	-25.8	16.0	1.10e-06	0	44	102	1048576	9	3979
2026-01-06 05:21:02.95	222.65	17.32	-24.8	-25.6	16.1	0.00e+00	0	44	102	1048576	9	3931
2026-01-06 05:21:03.96	222.59	17.21	-24.7	-25.4	16.2	0.00e+00	0	44	102	1048576	9	3890
2026-01-06 05:21:04.97	222.53	17.10	-24.7	-25.4	16.1	0.00e+00	0	44	102	1048576	9	3903
2026-01-06 05:21:05.97	222.48	16.98	-24.7	-25.3	16.2	0.00e+00	0	44	102	1048576	9	3859
2026-01-06 05:21:06.98	222.42	16.87	-24.7	-25.3	16.2	0.00e+00	0	44	102	1048576	9	3858
2026-01-06 05:21:07.99	222.36	16.76	-24.7	-25.2	16.3	0.00e+00	0	44	102	1048576	9	3855
2026-01-06 05:21:09.00	222.31	16.64	-24.5	-25.4	16.5	0.00e+00	0	44	102	1048576	8	3988
2026-01-06 05:21:10.00	222.25	16.53	-24.6	-25.6	16.3	0.00e+00	0	44	102	1048576	8	4052
2026-01-06 05:21:11.01	222.20	16.42	-24.4	-25.3	16.5	0.00e+00	0	44	102	1048576	8	3968
2026-01-06 05:21:12.02	222.14	16.31	-24.5	-25.4	16.5	0.00e+00	0	44	102	1048576	8	3987
2026-01-06 05:21:13.03	222.09	16.20	-24.5	-25.3	16.5	0.00e+00	0	44	102	1048576	8	3981
2026-01-06 05:21:14.03	222.03	16.09	-24.6	-25.6	16.3	0.00e+00	0	44	102	1048576	8	4033
2026-01-06 05:21:15.04	221.98	15.98	-24.5	-25.3	16.4	0.00e+00	0	44	102	1048576	8	3980
2026-01-06 05:21:16.04	221.93	15.87	-24.6	-25.6	16.3	0.00e+00	0	44	102	1048576	8	4047
2026-01-06 05:21:17.05	221.87	15.76	-24.5	-25.4	16.3	0.00e+00	0	44	102	1048576	8	4004
2026-01-06 05:21:18.06	221.82	15.65	-24.6	-25.2	16.2	0.00e+00	0	44	102	1048576	9	3849
2026-01-06 05:21:19.07	221.77	15.55	-24.8	-25.5	16.1	0.00e+00	0	44	102	1048576	9	3918
2026-01-06 05:21:20.07	221.72	15.44	-24.6	-25.2	16.2	0.00e+00	0	44	102	1048576	9	3848
2026-01-06 05:21:21.08	221.67	15.33	-24.6	-25.2	16.2	0.00e+00	0	44	102	1048576	9	3856
2026-01-06 05:21:22.08	221.62	15.23	-24.8	-25.5	16.0	0.00e+00	0	44	102	1048576	9	3923
2026-01-06 05:21:23.09	221.56	15.12	-24.8	-25.7	16.0	0.00e+00	0	44	102	1048576	9	3957
2026-01-06 05:21:24.10	221.51	15.02	-24.8	-25.6	16.0	0.00e+00	0	44	102	1048576	9	3937
2026-01-06 05:21:25.10	221.46	14.91	-25.0	-26.0	15.8	0.00e+00	0	44	102	1048576	9	4034
2026-01-06 05:21:26.11	221.42	14.81	-24.8	-25.7	15.9	0.00e+00	0	44	102	1048576	9	3970
2026-01-06 05:21:27.11	221.37	14.70	-24.9	-25.7	15.9	0.00e+00	0	44	102	1048576	9	3976
2026-01-06 05:21:28.12	221.32	14.60	-24.9	-25.9	15.8	0.00e+00	0	44	102	1048576	9	4009
2026-01-06 05:21:29.13	221.27	14.50	-24.9	-25.9	15.8	0.00e+00	0	44	102	1048576	9	4015
2026-01-06 05:21:30.13	221.22	14.39	-24.9	-25.9	15.8	0.00e+00	0	44	102	1048576	9	4013
2026-01-06 05:21:31.14	221.17	14.29	-25.0	-26.0	15.7	0.00e+00	0	44	102	1048576	9	4042
2026-01-06 05:21:32.15	221.13	14.19	-25.2	-26.0	15.5	0.00e+00	0	44	102	1048576	10	3932
2026-01-06 05:21:33.16	221.08	14.09	-25.1	-25.7	15.6	0.00e+00	0	44	102	1048576	10	3858
2026-01-06 05:21:34.16	221.03	13.99	-24.9	-25.8	15.8	0.00e+00	0	44	102	1048576	9	4002
2026-01-06 05:21:35.17	220.99	13.88	-25.0	-26.1	15.6	0.00e+00	0	44	102	1048576	9	4080
2026-01-06 05:21:36.18	220.94	13.78	-25.2	-25.9	15.5	0.00e+00	0	44	102	1048576	10	3915
2026-01-06 05:21:37.19	220.90	13.68	-25.4	-26.3	15.2	0.00e+00	0	44	102	1048576	10	4015
2026-01-06 05:21:38.19	220.85	13.58	-25.2	-25.9	15.5	0.00e+00	0	44	102	1048576	10	3903
2026-01-06 05:21:39.20	220.81	13.49	-25.1	-25.7	15.6	9.74e-04	0	44	102	1048576	10	3863
2026-01-06 05:21:40.21	220.76	13.39	-25.2	-25.9	15.5	0.00e+00	0	44	102	1048576	10	3911
2026-01-06 05:21:41.21	220.72	13.29	-25.3	-26.1	15.4	0.00e+00	0	44	102	1048576	10	3954
2026-01-06 05:21:42.22	220.67	13.19	-25.1	-25.8	15.5	1.03e-03	0	44	102	1048576	10	3892
2026-01-06 05:21:43.22	220.63	13.09	-25.2	-26.0	15.4	0.00e+00	0	44	102	1048576	10	3939
2026-01-06 05:21:44.23	220.59	13.00	-25.2	-26.0	15.4	9.89e-04	0	44	102	1048576	10	3939
2026-01-06 05:21:45.24	220.54	12.90	-25.2	-25.9	15.4	0.00e+00	0	44	102	1048576	10	3921
2026-01-06 05:21:46.24	220.50	12.80	-25.4	-26.3	15.2	0.00e+00	0	44	102	1048576	10	4004
2026-01-06 05:21:47.25	220.46	12.71	-25.3	-26.2	15.3	9.94e-04	0	44	102	1048576	10	3995
2026-01-06 05:21:48.26	220.41	12.61	-25.4	-26.3	15.2	0.00e+00	0	44	102	1048576	10	4002
2026-01-06 05:21:49.27	220.37	12.51	-25.5	-26.6	15.1	0.00e+00	0	44	102	1048576	10	4076
2026-01-06 05:21:50.28	220.33	12.42	-25.3	-26.3	15.2	9.07e-04	0	44	102	1048576	10	4004
2026-01-06 05:21:51.28	220.29	12.32	-25.4	-26.3	15.2	9.03e-04	0	44	102	1048576	10	4008
2026-01-06 05:21:52.29	220.25	12.23	-25.4	-26.4	15.1	0.00e+00	0	44	102	1048576	10	4039
2026-01-06 05:21:53.30	220.21	12.13	-25.4	-26.4	15.2	8.50e-04	0	44	102	1048576	10	4039
2026-01-06 05:21:54.31	220.17	12.04	-25.5	-26.6	15.1	1.04e-03	0	44	102	1048576	10	4084
2026-01-06 05:21:55.31	220.13	11.95	-25.6	-26.8	15.0	1.10e-06	0	44	102	1048576	10	4130
2026-01-06 05:21:56.32	220.09	11.85	-25.6	-26.8	14.9	1.00e-03	0	44	102	1048576	10	4141
2026-01-06 05:21:57.32	220.05	11.76	-25.7	-26.6	14.8	1.04e-03	0	44	102	1048576	11	3976
2026-01-06 05:21:58.33	220.01	11.67	-25.8	-26.7	14.6	0.00e+00	0	44	102	1048576	11	4010
2026-01-06 05:21:59.34	219.97	11.58	-25.9	-27.0	14.5	1.07e-03	0	44	102	1048576	11	4091
2026-01-06 05:22:00.35	219.93	11.49	-26.0	-27.3	14.3	0.00e+00	0	44	102	1048576	11	4180
2026-01-06 05:22:01.35	219.89	11.39	-26.0	-27.2	14.4	2.20e-06	0	44	102	1048576	11	4152
2026-01-06 05:22:02.36	219.85	11.30	-26.0	-26.8	14.2	1.10e-06	0	44	102	1048576	12	3942
2026-01-06 05:22:03.37	219.82	11.21	-26.0	-27.2	14.4	1.10e-06	0	44	102	1048576	11	4140
2026-01-06 05:22:04.38	219.78	11.12	-26.1	-27.0	14.1	2.20e-06	0	44	102	1048576	12	3977
2026-01-06 05:22:05.38	219.74	11.03	-26.0	-26.9	14.2	1.10e-06	0	44	102	1048576	12	3957
2026-01-06 05:22:06.39	219.70	10.94	-26.1	-27.0	14.1	2.20e-06	0	44	102	1048576	12	3986
2026-01-06 05:22:07.40	219.67	10.85	-26.1	-27.1	14.0	1.10e-06	0	44	102	1048576	12	4012
2026-01-06 05:22:08.40	219.63	10.76	-26.4	-27.6	13.8	6.80e-06	0	44	102	1048576	12	4144
2026-01-06 05:22:09.40	219.59	10.68	-26.1	-27.1	14.0	0.00e+00	0	44	102	1048576	12	4011
2026-01-06 05:22:10.41	219.56	10.59	-25.8	-26.4	14.4	0.00e+00	0	44	102	1048576	12	3856
2026-01-06 05:22:11.42	219.52	10.50	-25.9	-27.0	14.5	1.10e-06	0	44	102	1048576	11	4081
2026-01-06 05:22:12.43	219.48	10.41	-25.9	-27.0	14.4	0.00e+00	0	44	102	1048576	11	4099
2026-01-06 05:22:13.43	219.45	10.32	-26.0	-27.1	14.3	0.00e+00	0	44	102	1048576	11	4125
2026-01-06 05:22:14.44	219.41	10.24	-25.9	-27.0	14.4	0.00e+00	0	44	102	1048576	11	4092
2026-01-06 05:22:15.45	219.38	10.15	-26.0	-27.3	14.2	2.20e-06	0	44	102	1048576	11	4184
2026-01-06 05:22:16.46	219.34	10.06	-26.1	-27.4	14.2	1.10e-06	0	44	102	1048576	11	4209
2026-01-06 05:22:17.47	219.31	9.97	-26.0	-27.3	14.2	0.00e+00	0	44	102	1048576	11	4177
2026-01-06 05:22:18.47	219.27	9.89	-26.1	-27.4	14.2	2.20e-06	0	44	102	1048576	11	4196
2026-01-06 05:22:19.48	219.24	9.80	-26.0	-26.9	14.1	1.10e-06	0	44	102	1048576	12	3962
2026-01-06 05:22:20.48	219.20	9.72	-26.3	-27.4	13.8	5.70e-06	0	44	102	1048576	12	4083
2026-01-06 05:22:21.49	219.17	9.63	-26.6	-27.7	13.4	6.80e-06	0	44	102	1048576	13	4058
2026-01-06 05:22:22.50	219.14	9.55	-26.6	-27.7	13.3	1.71e-05	0	44	102	1048576	13	4068
2026-01-06 05:22:23.51	219.10	9.46	-26.6	-27.6	13.4	6.80e-06	0	44	102	1048576	13	4038
2026-01-06 05:22:24.51	219.07	9.38	-26.5	-27.5	13.4	8.00e-06	0	44	102	1048576	13	4019
2026-01-06 05:22:25.51	219.04	9.29	-26.5	-27.4	13.5	5.70e-06	0	44	102	1048576	13	3991
2026-01-06 05:22:26.52	219.00	9.21	-26.5	-27.9	13.5	9.10e-06	0	44	102	1048576	12	4220
2026-01-06 05:22:27.52	218.97	9.13	-26.5	-27.9	13.5	5.70e-06	0	44	102	1048576	12	4236
2026-01-06 05:22:28.53	218.94	9.04	-26.6	-28.0	13.4	1.25e-05	0	44	102	1048576	12	4261
2026-01-06 05:22:29.54	218.91	8.96	-26.6	-27.6	13.4	6.80e-06	0	44	102	1048576	13	4033
2026-01-06 05:22:30.55	218.87	8.88	-26.6	-27.7	13.3	2.40e-05	0	44	102	1048576	13	4076
2026-01-06 05:22:31.55	218.84	8.80	-27.0	-28.5	12.8	3.20e-05	0	44	102	1048576	13	4279
2026-01-06 05:22:32.56	218.81	8.71	-27.0	-28.1	12.8	7.09e-05	0	44	102	1048576	14	4081
2026-01-06 05:22:33.57	218.78	8.63	-26.8	-28.1	13.0	4.57e-05	0	44	102	1048576	13	4170
2026-01-06 05:22:34.58	218.75	8.55	-26.5	-27.4	13.4	4.50e-06	0	44	102	1048576	13	3995
2026-01-06 05:22:35.59	218.72	8.47	-26.4	-27.7	13.5	1.25e-05	0	44	102	1048576	12	4175
2026-01-06 05:22:36.59	218.69	8.39	-26.3	-27.5	13.6	8.00e-06	0	44	102	1048576	12	4139
2026-01-06 05:22:37.59	218.66	8.31	-26.4	-27.6	13.5	5.70e-06	0	44	102	1048576	12	4163
2026-01-06 05:22:38.60	218.63	8.22	-26.3	-27.6	13.5	1.02e-05	0	44	102	1048576	12	4148
2026-01-06 05:22:39.60	218.59	8.14	-26.4	-27.6	13.5	5.70e-06	0	44	102	1048576	12	4156
2026-01-06 05:22:40.61	218.56	8.06	-26.3	-27.4	13.6	3.40e-06	0	44	102	1048576	12	4091
2026-01-06 05:22:41.61	218.53	7.98	-26.4	-27.6	13.5	6.80e-06	0	44	102	1048576	12	4164
2026-01-06 05:22:42.62	218.50	7.90	-26.4	-27.6	13.5	9.10e-06	0	44	102	1048576	12	4165
2026-01-06 05:22:43.63	218.48	7.82	-26.3	-27.5	13.6	1.25e-05	0	44	102	1048576	12	4127
2026-01-06 05:22:44.63	218.45	7.75	-26.4	-27.6	13.5	1.14e-05	0	44	102	1048576	12	4158
2026-01-06 05:22:45.63	218.42	7.67	-26.4	-27.7	13.4	1.71e-05	0	44	102	1048576	12	4188
2026-01-06 05:22:46.65	218.39	7.59	-26.2	-27.3	13.7	8.00e-06	0	44	102	1048576	12	4069
2026-01-06 05:22:47.66	218.36	7.51	-26.4	-27.8	13.3	1.60e-05	0	44	102	1048576	12	4211
2026-01-06 05:22:48.66	218.33	7.43	-26.4	-27.6	13.4	1.02e-05	0	44	102	1048576	12	4167
2026-01-06 05:22:49.67	218.30	7.35	-25.7	-26.9	12.5	1.25e-05	0	44	102	1048576	12	4137
2026-01-06 05:22:50.67	218.27	7.28	-26.3	-27.6	12.3	1.25e-05	0	44	102	1048576	12	4153
2026-01-06 05:22:51.67	218.24	7.20	-26.4	-27.6	13.4	1.37e-05	0	44	102	1048576	12	4171
2026-01-06 05:22:52.68	218.22	7.12	-26.4	-27.7	13.4	5.70e-06	0	44	102	1048576	12	4178
2026-01-06 05:22:53.69	218.19	7.04	-32.5	-42.0	3.8	8.44e-01	0	44	104	1048576	24	10672
2026-01-06 05:22:54.69	218.16	6.97	-33.0	-42.7	3.8	8.47e-01	0	44	104	1048576	25	11106
2026-01-06 05:22:55.70	218.13	6.89	-33.3	-42.9	3.8	8.45e-01	0	44	104	1048576	26	10896

#Closed at: 2026-01-06 05:22:56
#Recorded file [1 MB]: D:/data/31010_260106_081421.dat