passes_logs/2026/01/06/R2M6_AANII_01/R2M6_AANII_01__20260106_132405_FENGYUN_3E_rec.log

#Pass ID: 20260106_132405_FENGYUN 3E
#Satellite: FENGYUN 3E
#Configuration: FENGYUN 3E
#almurnet v.1.7.20240730
#Start time: 2026-01-06 13:29:17

#Version: 2.2.20231116
#Station: R2M6_AANII_01
#Location: 30.233357 lon 59.946436 lat
#TLE: 1 49008U 21062A   26005.63346808  .00000216  00000+0  12264-3 0  9999
#TLE: 2 49008  98.7472  10.8714 0001569 158.0856 202.0387 14.19884439233512

#Time	Az	El	Level	Level2	SNR	BER	BlckErr	Temp	State	Recorded	gain1	gain2
2026-01-06 13:29:17.51	64.62	36.95	-33.2	-44.4	3.8	8.45e-01	0	43	0	0	26	13057
2026-01-06 13:29:18.51	64.20	36.99	-33.8	-42.8	3.8	8.46e-01	0	44	104	0	28	10256
2026-01-06 13:29:19.52	63.78	37.03	-33.8	-42.9	3.8	8.47e-01	0	44	104	0	28	10308
2026-01-06 13:29:20.53	63.35	37.06	-33.8	-43.0	3.8	8.47e-01	0	44	104	0	28	10297
2026-01-06 13:29:21.53	62.93	37.10	-33.9	-43.0	3.8	8.45e-01	0	43	104	0	28	10342
2026-01-06 13:29:22.54	62.50	37.13	-33.9	-43.1	3.8	8.45e-01	0	44	104	0	28	10437
2026-01-06 13:29:23.55	62.08	37.16	-33.9	-43.1	3.8	8.46e-01	0	44	104	0	28	10384
2026-01-06 13:29:24.56	61.65	37.19	-33.9	-43.1	3.8	8.45e-01	0	44	104	0	28	10345
2026-01-06 13:29:25.56	61.22	37.22	-33.9	-43.1	3.8	8.46e-01	0	44	104	0	28	10393
2026-01-06 13:29:26.56	60.80	37.24	-33.9	-43.1	3.8	8.45e-01	0	44	104	0	28	10377
2026-01-06 13:29:27.57	60.37	37.26	-33.8	-42.9	3.8	8.46e-01	0	44	104	0	28	10261
2026-01-06 13:29:28.57	59.94	37.29	-33.8	-43.0	3.8	8.47e-01	0	44	104	0	28	10278
2026-01-06 13:29:29.58	59.51	37.31	-33.8	-42.9	3.8	8.46e-01	0	44	104	0	28	10255
2026-01-06 13:29:30.58	59.08	37.32	-33.8	-42.9	3.8	8.46e-01	0	44	104	0	28	10276
2026-01-06 13:29:31.59	58.65	37.34	-33.8	-43.0	3.8	8.46e-01	0	43	104	0	28	10294
2026-01-06 13:29:32.60	58.22	37.36	-33.8	-43.0	3.8	8.47e-01	0	43	104	0	28	10316
2026-01-06 13:29:33.61	57.78	37.37	-33.9	-43.2	3.8	8.46e-01	0	44	104	0	28	10447
2026-01-06 13:29:34.61	57.35	37.38	-33.9	-43.1	3.8	8.45e-01	0	44	104	0	28	10422
2026-01-06 13:29:35.62	56.92	37.39	-33.8	-42.9	3.8	8.45e-01	0	44	104	0	28	10301
2026-01-06 13:29:36.63	56.49	37.39	-33.8	-42.8	3.8	8.46e-01	0	44	104	0	28	10237
2026-01-06 13:29:37.64	56.05	37.40	-33.8	-42.9	3.8	8.47e-01	0	44	104	0	28	10305
2026-01-06 13:29:38.65	55.62	37.40	-33.7	-42.8	3.8	8.46e-01	0	44	104	0	28	10214
2026-01-06 13:29:39.66	55.18	37.40	-33.9	-43.0	3.8	8.48e-01	0	44	104	0	28	10301
2026-01-06 13:29:40.66	54.75	37.40	-33.8	-42.9	3.8	8.46e-01	0	44	104	0	28	10255
2026-01-06 13:29:41.67	54.32	37.40	-33.8	-42.8	3.8	8.44e-01	0	44	104	0	28	10226
2026-01-06 13:29:42.67	53.89	37.40	-33.7	-42.6	3.8	8.46e-01	0	44	104	0	28	10015
2026-01-06 13:29:43.68	53.46	37.39	-33.7	-42.7	3.8	8.46e-01	0	44	104	0	28	10163
2026-01-06 13:29:44.69	53.02	37.38	-33.7	-42.5	3.8	8.46e-01	0	44	104	0	28	10015
2026-01-06 13:29:45.69	52.59	37.37	-33.6	-42.5	3.8	8.46e-01	0	44	104	0	28	9989
2026-01-06 13:29:46.70	52.16	37.36	-33.6	-42.4	3.8	8.46e-01	0	44	104	0	28	9845
2026-01-06 13:29:47.71	51.73	37.35	-33.6	-42.2	3.8	8.46e-01	0	44	104	0	28	9706
2026-01-06 13:29:48.71	51.30	37.33	-33.6	-42.2	3.8	8.45e-01	0	44	104	0	28	9743
2026-01-06 13:29:49.72	50.87	37.32	-33.6	-42.3	3.8	8.46e-01	0	44	104	0	28	9840
2026-01-06 13:29:50.73	50.44	37.30	-33.6	-42.4	3.8	8.45e-01	0	44	104	0	28	9885
2026-01-06 13:29:51.74	50.01	37.28	-33.6	-42.3	3.8	8.44e-01	0	44	104	0	28	9842
2026-01-06 13:29:52.74	49.58	37.25	-33.6	-42.1	3.8	8.47e-01	0	44	104	0	28	9661
2026-01-06 13:29:53.75	49.15	37.23	-33.6	-42.0	3.8	8.47e-01	0	44	104	0	28	9492
2026-01-06 13:29:54.75	48.73	37.20	-33.6	-42.2	3.8	8.46e-01	0	44	104	0	28	9702
2026-01-06 13:29:55.76	48.30	37.18	-33.6	-42.4	3.8	8.48e-01	0	44	104	0	28	9961
2026-01-06 13:29:56.77	47.87	37.15	-33.6	-42.5	3.8	8.47e-01	0	44	104	0	28	9997
2026-01-06 13:29:57.78	47.44	37.11	-33.6	-42.5	3.8	8.46e-01	0	44	104	0	28	10003
2026-01-06 13:29:58.79	47.02	37.08	-33.6	-42.1	3.8	8.46e-01	0	44	104	0	28	9666
2026-01-06 13:29:59.79	46.60	37.05	-33.5	-41.4	3.8	8.45e-01	0	44	104	0	28	8941
2026-01-06 13:30:00.80	46.17	37.01	-33.4	-40.9	3.8	8.45e-01	0	44	104	0	28	8564
2026-01-06 13:30:01.81	45.75	36.97	-33.4	-41.1	3.8	8.45e-01	0	44	104	0	28	8719
2026-01-06 13:30:02.81	45.33	36.93	-33.5	-41.7	3.8	8.45e-01	0	44	104	0	28	9211
2026-01-06 13:30:03.82	44.91	36.89	-33.6	-42.1	3.8	8.47e-01	0	44	104	0	28	9613
2026-01-06 13:30:04.83	44.49	36.84	-33.5	-41.9	3.8	8.45e-01	0	44	104	0	28	9458
2026-01-06 13:30:05.83	44.08	36.80	-33.5	-41.8	3.8	8.46e-01	0	44	104	0	28	9323
2026-01-06 13:30:06.84	43.66	36.75	-33.4	-41.1	3.8	8.46e-01	0	44	104	0	27	8721
2026-01-06 13:30:07.84	43.25	36.70	-32.9	-38.3	4.5	8.42e-01	0	44	104	0	26	6726
2026-01-06 13:30:08.85	42.83	36.65	-32.3	-36.4	5.6	7.19e-01	0	44	0	0	25	5765
2026-01-06 13:30:09.86	42.42	36.60	-31.5	-34.3	7.0	2.52e-01	0	44	102	1048576	24	4942
2026-01-06 13:30:10.86	42.01	36.55	-29.4	-30.3	10.9	7.11e-03	0	44	102	1048576	20	4003
2026-01-06 13:30:11.87	41.60	36.49	-26.9	-27.1	14.1	6.80e-06	0	44	102	1048576	15	3679
2026-01-06 13:30:12.88	41.19	36.44	-26.4	-26.5	14.8	0.00e+00	0	44	102	1048576	14	3637
2026-01-06 13:30:13.87	40.79	36.38	-27.0	-27.7	14.1	1.10e-06	0	44	102	1048576	14	3925
2026-01-06 13:30:14.88	40.38	36.32	-26.7	-27.1	14.4	0.00e+00	0	44	102	1048576	14	3771
2026-01-06 13:30:15.88	39.98	36.26	-26.2	-26.6	14.9	0.00e+00	0	44	102	1048576	13	3759
2026-01-06 13:30:16.88	39.58	36.20	-25.8	-26.2	15.4	0.00e+00	0	44	102	1048576	12	3757
2026-01-06 13:30:17.89	39.18	36.13	-25.5	-25.6	15.8	0.00e+00	0	44	102	1048576	12	3626
2026-01-06 13:30:18.90	38.78	36.07	-25.4	-25.4	15.9	0.00e+00	0	44	102	1048576	12	3569
2026-01-06 13:30:19.90	38.39	36.00	-25.6	-26.2	15.8	0.00e+00	0	44	102	1048576	11	3849
2026-01-06 13:30:20.91	37.99	35.93	-25.7	-26.3	15.7	0.00e+00	0	44	102	1048576	11	3891
2026-01-06 13:30:21.92	37.59	35.86	-26.4	-27.4	14.8	0.00e+00	0	44	102	1048576	12	4050
2026-01-06 13:30:22.93	37.20	35.79	-25.6	-25.8	15.7	0.00e+00	0	44	102	1048576	12	3667
2026-01-06 13:30:23.93	36.81	35.72	-24.9	-24.7	16.6	0.00e+00	0	44	102	1048576	11	3521
2026-01-06 13:30:24.94	36.42	35.64	-24.2	-24.2	17.3	0.00e+00	0	44	102	1048576	9	3605
2026-01-06 13:30:25.95	36.03	35.57	-23.7	-23.7	17.9	0.00e+00	0	44	102	1048576	8	3592
2026-01-06 13:30:26.96	35.65	35.49	-23.3	-23.4	18.2	0.00e+00	0	44	102	1048576	7	3624
2026-01-06 13:30:27.96	35.27	35.41	-23.0	-22.8	18.5	0.00e+00	0	44	102	1048576	7	3502
2026-01-06 13:30:28.97	34.88	35.33	-22.8	-22.9	18.7	0.00e+00	0	44	102	1048576	6	3614
2026-01-06 13:30:29.98	34.50	35.25	-22.8	-22.9	18.7	0.00e+00	0	44	102	1048576	6	3612
2026-01-06 13:30:30.99	34.12	35.17	-22.8	-22.8	18.7	0.00e+00	0	44	102	1048576	6	3603
2026-01-06 13:30:32.00	33.75	35.09	-22.9	-23.0	18.7	0.00e+00	0	44	102	1048576	6	3642
2026-01-06 13:30:33.01	33.37	35.00	-22.6	-22.5	18.9	0.00e+00	0	44	102	1048576	6	3524
2026-01-06 13:30:34.02	33.00	34.92	-22.5	-22.2	19.0	0.00e+00	0	44	102	1048576	6	3481
2026-01-06 13:30:35.03	32.63	34.83	-22.6	-22.5	18.9	0.00e+00	0	44	102	1048576	6	3528
2026-01-06 13:30:36.04	32.26	34.74	-22.7	-22.5	18.9	0.00e+00	0	44	102	1048576	6	3542
2026-01-06 13:30:37.04	31.90	34.66	-22.6	-22.3	19.0	0.00e+00	0	44	102	1048576	6	3491
2026-01-06 13:30:38.04	31.53	34.57	-22.5	-22.2	19.0	0.00e+00	0	44	102	1048576	6	3471
2026-01-06 13:30:39.04	31.17	34.48	-22.6	-22.4	19.0	0.00e+00	0	44	102	1048576	6	3505
2026-01-06 13:30:40.05	30.81	34.38	-22.4	-21.9	19.2	0.00e+00	0	44	102	1048576	6	3410
2026-01-06 13:30:41.05	30.46	34.29	-22.3	-22.3	19.2	0.00e+00	0	44	102	1048576	5	3583
2026-01-06 13:30:42.06	30.10	34.20	-22.3	-22.2	19.3	0.00e+00	0	44	102	1048576	5	3558
2026-01-06 13:30:43.07	29.75	34.10	-22.4	-22.5	19.1	0.00e+00	0	44	102	1048576	5	3633
2026-01-06 13:30:44.07	29.40	34.01	-22.4	-22.4	19.2	0.00e+00	0	44	102	1048576	5	3610
2026-01-06 13:30:45.08	29.05	33.91	-22.5	-22.6	19.0	0.00e+00	0	44	102	1048576	5	3649
2026-01-06 13:30:46.08	28.70	33.82	-22.4	-22.5	19.1	0.00e+00	0	44	102	1048576	5	3640
2026-01-06 13:30:47.09	28.36	33.72	-22.3	-22.3	19.1	0.00e+00	0	44	102	1048576	5	3597
2026-01-06 13:30:48.10	28.01	33.62	-22.4	-22.4	19.1	0.00e+00	0	44	102	1048576	5	3622
2026-01-06 13:30:49.10	27.67	33.52	-22.2	-22.0	19.4	0.00e+00	0	44	102	1048576	5	3536
2026-01-06 13:30:50.11	27.33	33.42	-22.2	-22.1	19.3	0.00e+00	0	44	102	1048576	5	3541
2026-01-06 13:30:51.12	26.99	33.32	-22.0	-21.7	19.5	0.00e+00	0	44	102	1048576	5	3460
2026-01-06 13:30:52.13	26.66	33.21	-22.0	-21.6	19.5	0.00e+00	0	44	102	1048576	5	3453
2026-01-06 13:30:53.14	26.33	33.11	-22.2	-22.1	19.3	0.00e+00	0	44	102	1048576	5	3538
2026-01-06 13:30:54.14	26.00	33.01	-22.2	-22.0	19.3	0.00e+00	0	44	102	1048576	5	3533
2026-01-06 13:30:55.16	25.66	32.90	-22.5	-22.6	19.1	0.00e+00	0	44	102	1048576	5	3659
2026-01-06 13:30:56.16	25.34	32.80	-22.5	-22.7	19.0	0.00e+00	0	44	102	1048576	5	3676
2026-01-06 13:30:57.17	25.02	32.69	-22.6	-22.9	18.9	0.00e+00	0	44	102	1048576	5	3728
2026-01-06 13:30:58.18	24.69	32.58	-22.7	-23.2	18.8	0.00e+00	0	44	102	1048576	5	3779
2026-01-06 13:30:59.19	24.37	32.48	-22.9	-23.5	18.6	0.00e+00	0	44	102	1048576	5	3868
2026-01-06 13:31:00.19	24.06	32.37	-22.9	-23.6	18.6	0.00e+00	0	44	102	1048576	5	3876
2026-01-06 13:31:01.20	23.74	32.26	-22.9	-23.5	18.6	0.00e+00	0	44	102	1048576	5	3849
2026-01-06 13:31:02.21	23.43	32.15	-22.7	-23.1	18.8	0.00e+00	0	44	102	1048576	5	3777
2026-01-06 13:31:03.22	23.11	32.04	-22.6	-23.0	18.9	0.00e+00	0	44	102	1048576	5	3735
2026-01-06 13:31:04.22	22.81	31.93	-22.7	-23.0	18.8	0.00e+00	0	44	102	1048576	5	3755
2026-01-06 13:31:05.23	22.50	31.82	-22.5	-22.7	19.0	0.00e+00	0	44	102	1048576	5	3680
2026-01-06 13:31:06.24	22.19	31.71	-22.5	-22.7	19.0	0.00e+00	0	44	102	1048576	5	3686
2026-01-06 13:31:07.24	21.89	31.60	-22.6	-22.9	18.9	0.00e+00	0	44	102	1048576	5	3720
2026-01-06 13:31:08.23	21.60	31.49	-22.5	-22.7	19.0	0.00e+00	0	44	102	1048576	5	3673
2026-01-06 13:31:09.24	21.30	31.37	-22.6	-22.8	18.9	0.00e+00	0	44	102	1048576	5	3708
2026-01-06 13:31:10.24	21.00	31.26	-22.8	-23.2	18.7	0.00e+00	0	44	102	1048576	5	3796
2026-01-06 13:31:11.25	20.71	31.15	-22.7	-23.1	18.8	0.00e+00	0	44	102	1048576	5	3756
2026-01-06 13:31:12.25	20.42	31.03	-22.8	-23.3	18.7	0.00e+00	0	44	102	1048576	5	3809
2026-01-06 13:31:13.25	20.13	30.92	-23.0	-23.8	18.4	0.00e+00	0	44	102	1048576	5	3924
2026-01-06 13:31:14.26	19.84	30.81	-23.1	-23.9	18.3	0.00e+00	0	44	102	1048576	5	3954
2026-01-06 13:31:15.27	19.55	30.69	-23.3	-23.8	18.2	0.00e+00	0	44	102	1048576	6	3813
2026-01-06 13:31:16.28	19.27	30.58	-23.3	-23.9	18.1	0.00e+00	0	44	102	1048576	6	3842
2026-01-06 13:31:17.28	18.99	30.46	-23.0	-23.2	18.5	0.00e+00	0	44	102	1048576	6	3676
2026-01-06 13:31:18.29	18.71	30.34	-22.8	-22.8	18.5	0.00e+00	0	44	102	1048576	6	3608
2026-01-06 13:31:19.30	18.43	30.23	-22.8	-22.7	18.7	0.00e+00	0	44	102	1048576	6	3587
2026-01-06 13:31:20.31	18.15	30.11	-22.9	-23.0	18.6	0.00e+00	0	44	102	1048576	6	3631
2026-01-06 13:31:21.31	17.88	29.99	-22.8	-22.7	18.7	0.00e+00	0	44	102	1048576	6	3584
2026-01-06 13:31:22.32	17.61	29.88	-22.8	-22.9	18.7	0.00e+00	0	44	102	1048576	6	3616
2026-01-06 13:31:23.33	17.33	29.76	-22.9	-23.1	18.5	0.00e+00	0	44	102	1048576	6	3668
2026-01-06 13:31:24.34	17.07	29.64	-23.0	-23.2	18.5	0.00e+00	0	44	102	1048576	6	3682
2026-01-06 13:31:25.34	16.80	29.53	-23.1	-23.4	18.4	0.00e+00	0	44	102	1048576	6	3734
2026-01-06 13:31:26.34	16.54	29.41	-23.1	-23.5	18.3	0.00e+00	0	44	102	1048576	6	3759
2026-01-06 13:31:27.35	16.28	29.29	-23.1	-23.4	18.4	0.00e+00	0	44	102	1048576	6	3730
2026-01-06 13:31:28.36	16.02	29.17	-23.1	-23.4	18.3	0.00e+00	0	44	102	1048576	6	3740
2026-01-06 13:31:29.37	15.76	29.05	-23.2	-23.6	18.3	0.00e+00	0	44	102	1048576	6	3768
2026-01-06 13:31:30.37	15.50	28.93	-23.1	-23.5	18.3	0.00e+00	0	44	102	1048576	6	3752
2026-01-06 13:31:31.37	15.25	28.82	-23.2	-23.6	18.2	0.00e+00	0	44	102	1048576	6	3783
2026-01-06 13:31:32.38	15.00	28.70	-23.1	-23.5	18.3	0.00e+00	0	44	102	1048576	6	3744
2026-01-06 13:31:33.39	14.74	28.58	-23.0	-23.3	18.4	0.00e+00	0	44	102	1048576	6	3718
2026-01-06 13:31:34.40	14.50	28.46	-23.0	-23.2	18.4	0.00e+00	0	44	102	1048576	6	3678
2026-01-06 13:31:35.40	14.25	28.34	-22.9	-23.0	18.5	0.00e+00	0	44	102	1048576	6	3656
2026-01-06 13:31:36.40	14.01	28.22	-23.0	-23.2	18.4	0.00e+00	0	44	102	1048576	6	3687
2026-01-06 13:31:37.41	13.76	28.10	-23.0	-23.3	18.4	0.00e+00	0	44	102	1048576	6	3707
2026-01-06 13:31:38.42	13.52	27.98	-22.9	-23.0	18.5	0.00e+00	0	44	102	1048576	6	3643
2026-01-06 13:31:39.43	13.28	27.86	-22.9	-22.9	18.6	0.00e+00	0	44	102	1048576	6	3629
2026-01-06 13:31:40.44	13.04	27.74	-22.9	-23.1	18.5	0.00e+00	0	44	102	1048576	6	3664
2026-01-06 13:31:41.44	12.81	27.62	-23.0	-23.2	18.4	0.00e+00	0	44	102	1048576	6	3693
2026-01-06 13:31:42.45	12.57	27.50	-23.0	-23.2	18.4	0.00e+00	0	44	102	1048576	6	3680
2026-01-06 13:31:43.46	12.34	27.38	-23.0	-23.2	18.4	0.00e+00	0	44	102	1048576	6	3679
2026-01-06 13:31:44.45	12.11	27.27	-23.0	-23.3	18.4	0.00e+00	0	44	102	1048576	6	3707
2026-01-06 13:31:45.46	11.88	27.15	-23.0	-23.3	18.3	0.00e+00	0	44	102	1048576	6	3715
2026-01-06 13:31:46.46	11.66	27.03	-23.1	-23.4	18.3	0.00e+00	0	44	102	1048576	6	3741
2026-01-06 13:31:47.47	11.43	26.91	-23.1	-23.5	18.2	0.00e+00	0	44	102	1048576	6	3755
2026-01-06 13:31:48.47	11.21	26.79	-23.2	-23.6	18.2	0.00e+00	0	44	102	1048576	6	3778
2026-01-06 13:31:49.48	10.99	26.67	-23.1	-23.4	18.3	0.00e+00	0	44	102	1048576	6	3728
2026-01-06 13:31:50.49	10.77	26.55	-23.1	-23.4	18.3	0.00e+00	0	44	102	1048576	6	3737
2026-01-06 13:31:51.50	10.55	26.43	-23.2	-23.5	18.2	0.00e+00	0	44	102	1048576	6	3764
2026-01-06 13:31:52.51	10.33	26.31	-23.2	-23.6	18.2	0.00e+00	0	44	102	1048576	6	3780
2026-01-06 13:31:53.52	10.11	26.19	-23.2	-23.7	18.1	0.00e+00	0	44	102	1048576	6	3805
2026-01-06 13:31:54.53	9.90	26.07	-23.2	-23.7	18.1	0.00e+00	0	44	102	1048576	6	3808
2026-01-06 13:31:55.53	9.69	25.95	-23.2	-23.6	18.2	0.00e+00	0	44	102	1048576	6	3784
2026-01-06 13:31:56.54	9.48	25.83	-23.0	-23.3	18.3	0.00e+00	0	44	102	1048576	6	3713
2026-01-06 13:31:57.55	9.27	25.72	-23.0	-23.3	18.3	0.00e+00	0	44	102	1048576	6	3704
2026-01-06 13:31:58.55	9.06	25.60	-23.0	-23.2	18.4	0.00e+00	0	44	102	1048576	6	3675
2026-01-06 13:31:59.56	8.85	25.48	-22.9	-22.9	18.5	0.00e+00	0	44	102	1048576	6	3629
2026-01-06 13:32:00.57	8.65	25.36	-22.9	-23.1	18.4	0.00e+00	0	44	102	1048576	6	3658
2026-01-06 13:32:01.57	8.45	25.24	-22.9	-23.1	18.4	0.00e+00	0	44	102	1048576	6	3665
2026-01-06 13:32:02.58	8.25	25.12	-22.9	-23.1	18.4	0.00e+00	0	44	102	1048576	6	3667
2026-01-06 13:32:03.59	8.05	25.01	-22.9	-23.1	18.4	0.00e+00	0	44	102	1048576	6	3668
2026-01-06 13:32:04.60	7.85	24.89	-23.0	-23.2	18.3	0.00e+00	0	44	102	1048576	6	3690
2026-01-06 13:32:05.61	7.65	24.77	-23.0	-23.3	18.3	0.00e+00	0	44	102	1048576	6	3720
2026-01-06 13:32:06.62	7.45	24.65	-23.2	-23.7	18.1	0.00e+00	0	44	102	1048576	6	3802
2026-01-06 13:32:07.62	7.26	24.54	-23.3	-23.9	18.0	0.00e+00	0	44	102	1048576	6	3851
2026-01-06 13:32:08.63	7.07	24.42	-23.4	-24.0	17.9	0.00e+00	0	44	102	1048576	6	3883
2026-01-06 13:32:09.64	6.88	24.30	-23.4	-24.1	17.9	0.00e+00	0	44	102	1048576	6	3885
2026-01-06 13:32:10.64	6.69	24.18	-23.3	-23.8	18.0	0.00e+00	0	44	102	1048576	6	3816
2026-01-06 13:32:11.65	6.50	24.07	-23.3	-23.8	18.0	0.00e+00	0	44	102	1048576	6	3820
2026-01-06 13:32:12.66	6.32	23.95	-23.2	-23.6	18.1	0.00e+00	0	44	102	1048576	6	3767
2026-01-06 13:32:13.66	6.13	23.83	-23.1	-23.4	18.3	0.00e+00	0	44	102	1048576	6	3729
2026-01-06 13:32:14.67	5.95	23.72	-23.2	-23.6	18.1	0.00e+00	0	44	102	1048576	6	3776
2026-01-06 13:32:15.68	5.76	23.60	-23.1	-23.5	18.1	0.00e+00	0	44	102	1048576	6	3751
2026-01-06 13:32:16.68	5.58	23.49	-23.2	-23.7	18.0	0.00e+00	0	44	102	1048576	6	3804
2026-01-06 13:32:17.69	5.40	23.37	-23.3	-23.8	18.0	0.00e+00	0	44	102	1048576	6	3825
2026-01-06 13:32:18.69	5.23	23.26	-23.4	-24.1	17.9	0.00e+00	0	44	102	1048576	6	3885
2026-01-06 13:32:19.70	5.05	23.14	-23.4	-24.1	17.9	0.00e+00	0	44	102	1048576	6	3886
2026-01-06 13:32:20.70	4.88	23.03	-23.3	-23.9	17.9	0.00e+00	0	44	102	1048576	6	3844
2026-01-06 13:32:21.71	4.70	22.91	-23.4	-24.0	17.9	0.00e+00	0	44	102	1048576	6	3876
2026-01-06 13:32:22.72	4.53	22.80	-23.3	-23.8	18.0	0.00e+00	0	44	102	1048576	6	3813
2026-01-06 13:32:23.72	4.36	22.68	-23.2	-23.6	18.1	0.00e+00	0	44	102	1048576	6	3778
2026-01-06 13:32:24.73	4.19	22.57	-23.1	-23.5	18.1	0.00e+00	0	44	102	1048576	6	3754
2026-01-06 13:32:25.74	4.02	22.46	-23.2	-23.6	18.1	0.00e+00	0	44	102	1048576	6	3774
2026-01-06 13:32:26.75	3.85	22.34	-23.1	-23.5	18.1	0.00e+00	0	44	102	1048576	6	3755
2026-01-06 13:32:27.76	3.68	22.23	-23.1	-23.5	18.2	0.00e+00	0	44	102	1048576	6	3754
2026-01-06 13:32:28.75	3.52	22.12	-23.2	-23.6	18.1	0.00e+00	0	44	102	1048576	6	3771
2026-01-06 13:32:29.75	3.36	22.01	-23.2	-23.6	18.0	0.00e+00	0	44	102	1048576	6	3793
2026-01-06 13:32:30.76	3.19	21.89	-23.2	-23.6	18.0	0.00e+00	0	44	102	1048576	6	3785
2026-01-06 13:32:31.77	3.03	21.78	-23.3	-23.8	17.9	0.00e+00	0	44	102	1048576	6	3824
2026-01-06 13:32:32.78	2.87	21.67	-23.3	-23.8	18.0	0.00e+00	0	44	102	1048576	6	3817
2026-01-06 13:32:33.78	2.71	21.56	-23.3	-23.9	17.9	0.00e+00	0	44	102	1048576	6	3856
2026-01-06 13:32:34.79	2.55	21.45	-23.4	-24.1	17.8	0.00e+00	0	44	102	1048576	6	3889
2026-01-06 13:32:35.80	2.39	21.33	-23.5	-24.3	17.7	0.00e+00	0	44	102	1048576	6	3933
2026-01-06 13:32:36.81	2.24	21.22	-23.5	-24.3	17.6	0.00e+00	0	44	102	1048576	6	3951
2026-01-06 13:32:37.82	2.08	21.11	-23.6	-24.0	17.6	0.00e+00	0	44	102	1048576	7	3764
2026-01-06 13:32:38.83	1.93	21.00	-23.8	-24.4	17.4	0.00e+00	0	44	102	1048576	7	3849
2026-01-06 13:32:39.83	1.78	20.89	-23.6	-24.0	17.6	0.00e+00	0	44	102	1048576	7	3762
2026-01-06 13:32:40.84	1.63	20.78	-23.4	-23.5	17.8	0.00e+00	0	44	102	1048576	7	3664
2026-01-06 13:32:41.85	1.47	20.67	-23.3	-23.4	17.9	0.00e+00	0	44	102	1048576	7	3631
2026-01-06 13:32:42.85	1.33	20.56	-23.4	-23.5	17.8	0.00e+00	0	44	102	1048576	7	3656
2026-01-06 13:32:43.86	1.18	20.45	-23.3	-23.2	18.0	0.00e+00	0	44	102	1048576	7	3597
2026-01-06 13:32:44.86	1.03	20.34	-23.3	-23.4	17.9	0.00e+00	0	44	102	1048576	7	3624
2026-01-06 13:32:45.87	0.89	20.24	-23.4	-23.5	17.8	0.00e+00	0	44	102	1048576	7	3650
2026-01-06 13:32:46.89	0.74	20.13	-23.5	-23.8	17.7	0.00e+00	0	44	102	1048576	7	3718
2026-01-06 13:32:47.89	0.60	20.02	-23.6	-24.0	17.6	0.00e+00	0	44	102	1048576	7	3772
2026-01-06 13:32:48.90	0.45	19.91	-23.8	-24.5	17.3	0.00e+00	0	44	102	1048576	7	3883
2026-01-06 13:32:49.90	0.31	19.80	-23.9	-24.7	17.2	0.00e+00	0	44	102	1048576	7	3932
2026-01-06 13:32:50.91	0.17	19.70	-24.2	-24.7	16.9	0.00e+00	0	44	102	1048576	8	3835
2026-01-06 13:32:51.92	0.03	19.59	-24.1	-24.6	17.0	0.00e+00	0	44	102	1048576	8	3807
2026-01-06 13:32:52.92	359.89	19.48	-24.1	-24.6	17.0	0.00e+00	0	44	102	1048576	8	3798
2026-01-06 13:32:53.93	359.75	19.38	-24.2	-24.7	16.9	0.00e+00	0	44	102	1048576	8	3819
2026-01-06 13:32:54.94	359.62	19.27	-24.1	-24.5	17.0	0.00e+00	0	44	102	1048576	8	3783
2026-01-06 13:32:55.94	359.48	19.17	-24.1	-24.6	16.9	0.00e+00	0	44	102	1048576	8	3813
2026-01-06 13:32:56.95	359.35	19.06	-24.1	-24.6	17.0	0.00e+00	0	44	102	1048576	8	3797
2026-01-06 13:32:57.96	359.21	18.95	-24.2	-24.8	16.9	0.00e+00	0	44	102	1048576	8	3852
2026-01-06 13:32:58.96	359.08	18.85	-24.2	-24.8	16.9	0.00e+00	0	44	102	1048576	8	3852
2026-01-06 13:32:59.96	358.95	18.75	-24.4	-25.1	16.7	0.00e+00	0	44	102	1048576	8	3931
2026-01-06 13:33:00.97	358.82	18.64	-24.3	-25.0	16.7	0.00e+00	0	44	102	1048576	8	3906
2026-01-06 13:33:01.98	358.69	18.54	-24.5	-25.4	16.5	0.00e+00	0	44	102	1048576	8	3985
2026-01-06 13:33:02.98	358.56	18.43	-24.4	-25.3	16.6	0.00e+00	0	44	102	1048576	8	3964
2026-01-06 13:33:03.99	358.43	18.33	-24.5	-25.4	16.5	0.00e+00	0	44	102	1048576	8	3990
2026-01-06 13:33:05.00	358.30	18.23	-24.6	-25.6	16.4	0.00e+00	0	44	102	1048576	8	4048
2026-01-06 13:33:06.01	358.17	18.12	-24.4	-24.7	16.6	0.00e+00	0	44	102	1048576	9	3733
2026-01-06 13:33:07.02	358.05	18.02	-24.3	-24.4	16.8	0.00e+00	0	44	102	1048576	9	3663
2026-01-06 13:33:08.02	357.92	17.92	-24.3	-24.5	16.7	0.00e+00	0	44	102	1048576	9	3682
2026-01-06 13:33:09.03	357.80	17.82	-24.2	-24.3	16.8	0.00e+00	0	44	102	1048576	9	3638
2026-01-06 13:33:10.03	357.68	17.71	-24.3	-24.4	16.7	0.00e+00	0	44	102	1048576	9	3671
2026-01-06 13:33:11.05	357.55	17.61	-24.2	-24.3	16.8	0.00e+00	0	44	102	1048576	9	3646
2026-01-06 13:33:12.04	357.43	17.51	-24.3	-24.5	16.7	0.00e+00	0	44	102	1048576	9	3678
2026-01-06 13:33:13.05	357.31	17.41	-24.3	-24.4	16.8	0.00e+00	0	44	102	1048576	9	3654
2026-01-06 13:33:14.06	357.19	17.31	-24.3	-24.4	16.8	0.00e+00	0	44	102	1048576	9	3664
2026-01-06 13:33:15.07	357.07	17.21	-24.3	-24.6	16.6	0.00e+00	0	44	102	1048576	9	3690
2026-01-06 13:33:16.07	356.96	17.11	-24.4	-24.8	16.5	0.00e+00	0	44	102	1048576	9	3743
2026-01-06 13:33:17.08	356.84	17.01	-24.4	-24.6	16.6	0.00e+00	0	44	102	1048576	9	3715
2026-01-06 13:33:18.08	356.72	16.91	-24.5	-24.9	16.5	0.00e+00	0	44	102	1048576	9	3771
2026-01-06 13:33:19.09	356.61	16.81	-24.7	-25.3	16.3	0.00e+00	0	44	102	1048576	9	3855
2026-01-06 13:33:20.09	356.49	16.71	-24.6	-25.0	16.4	0.00e+00	0	44	102	1048576	9	3803
2026-01-06 13:33:21.10	356.38	16.61	-24.5	-25.0	16.4	0.00e+00	0	44	102	1048576	9	3797
2026-01-06 13:33:22.11	356.26	16.51	-24.6	-25.2	16.3	0.00e+00	0	44	102	1048576	9	3833
2026-01-06 13:33:23.12	356.15	16.42	-24.6	-25.1	16.3	0.00e+00	0	44	102	1048576	9	3828
2026-01-06 13:33:24.12	356.04	16.32	-24.7	-25.4	16.2	0.00e+00	0	44	102	1048576	9	3896
2026-01-06 13:33:25.13	355.93	16.22	-24.7	-25.4	16.2	0.00e+00	0	44	102	1048576	9	3898
2026-01-06 13:33:26.13	355.82	16.12	-24.9	-25.7	16.0	0.00e+00	0	44	102	1048576	9	3963
2026-01-06 13:33:27.13	355.71	16.03	-24.8	-25.7	16.0	0.00e+00	0	44	102	1048576	9	3954
2026-01-06 13:33:28.14	355.60	15.93	-25.0	-25.9	15.9	0.00e+00	0	44	102	1048576	9	4017
2026-01-06 13:33:29.15	355.49	15.83	-24.9	-25.8	16.0	0.00e+00	0	44	102	1048576	9	3979
2026-01-06 13:33:30.15	355.38	15.74	-24.9	-25.9	15.9	0.00e+00	0	44	102	1048576	9	4002
2026-01-06 13:33:31.15	355.28	15.64	-24.9	-25.9	15.9	0.00e+00	0	44	102	1048576	9	4006
2026-01-06 13:33:32.16	355.17	15.55	-25.0	-26.0	15.7	0.00e+00	0	44	102	1048576	9	4034
2026-01-06 13:33:33.17	355.07	15.45	-25.0	-26.0	15.9	0.00e+00	0	44	102	1048576	9	4029
2026-01-06 13:33:34.18	354.96	15.36	-25.0	-26.0	15.8	0.00e+00	0	44	102	1048576	9	4035
2026-01-06 13:33:35.19	354.86	15.26	-25.0	-25.9	15.9	0.00e+00	0	44	102	1048576	9	4015
2026-01-06 13:33:36.20	354.75	15.17	-25.0	-26.0	15.8	1.10e-06	0	44	102	1048576	9	4049
2026-01-06 13:33:37.21	354.65	15.07	-25.2	-25.9	15.6	0.00e+00	0	44	102	1048576	10	3902
2026-01-06 13:33:38.22	354.55	14.98	-25.1	-25.8	15.7	0.00e+00	0	44	102	1048576	10	3883
2026-01-06 13:33:39.22	354.45	14.88	-25.2	-25.9	15.6	0.00e+00	0	44	102	1048576	10	3917
2026-01-06 13:33:40.23	354.35	14.79	-25.2	-25.9	15.6	0.00e+00	0	44	102	1048576	10	3909
2026-01-06 13:33:41.23	354.25	14.70	-25.3	-26.0	15.5	0.00e+00	0	44	102	1048576	10	3940
2026-01-06 13:33:42.24	354.15	14.60	-25.3	-26.1	15.4	0.00e+00	0	44	102	1048576	10	3968
2026-01-06 13:33:43.25	354.05	14.51	-25.4	-26.3	15.4	0.00e+00	0	44	102	1048576	10	4000
2026-01-06 13:33:44.25	353.95	14.42	-25.4	-26.4	15.3	0.00e+00	0	44	102	1048576	10	4022
2026-01-06 13:33:45.26	353.85	14.33	-25.5	-26.6	15.2	0.00e+00	0	44	102	1048576	10	4080
2026-01-06 13:33:46.27	353.75	14.23	-25.5	-26.6	15.2	0.00e+00	0	44	102	1048576	10	4097
2026-01-06 13:33:47.28	353.66	14.14	-25.8	-26.7	14.8	0.00e+00	0	44	102	1048576	11	4013
2026-01-06 13:33:48.28	353.56	14.05	-25.9	-27.0	14.7	1.10e-06	0	44	102	1048576	11	4086
2026-01-06 13:33:49.29	353.47	13.96	-25.8	-26.9	14.7	1.10e-06	0	44	102	1048576	11	4049
2026-01-06 13:33:50.30	353.37	13.87	-26.0	-27.2	14.6	1.10e-06	0	44	102	1048576	11	4126
2026-01-06 13:33:51.31	353.28	13.78	-25.9	-26.9	14.7	0.00e+00	0	44	102	1048576	11	4062
2026-01-06 13:33:52.32	353.19	13.69	-25.9	-27.0	14.7	0.00e+00	0	44	102	1048576	11	4075
2026-01-06 13:33:53.32	353.09	13.60	-25.9	-27.0	14.6	3.40e-06	0	44	102	1048576	11	4097
2026-01-06 13:33:54.33	353.00	13.51	-25.9	-26.9	14.7	0.00e+00	0	44	102	1048576	11	4048
2026-01-06 13:33:55.33	352.91	13.42	-25.9	-26.9	14.7	0.00e+00	0	44	102	1048576	11	4064
2026-01-06 13:33:56.34	352.82	13.33	-25.8	-26.8	14.7	0.00e+00	0	44	102	1048576	11	4039
2026-01-06 13:33:57.35	352.73	13.24	-25.6	-26.4	14.9	0.00e+00	0	44	102	1048576	11	3938
2026-01-06 13:33:58.35	352.64	13.15	-25.5	-26.1	15.1	0.00e+00	0	44	102	1048576	11	3863
2026-01-06 13:33:59.35	352.55	13.06	-25.5	-26.1	15.1	0.00e+00	0	44	102	1048576	11	3866
2026-01-06 13:34:00.36	352.46	12.98	-25.5	-26.1	15.1	0.00e+00	0	44	102	1048576	11	3868
2026-01-06 13:34:01.37	352.37	12.89	-25.4	-25.9	15.2	0.00e+00	0	44	102	1048576	11	3809
2026-01-06 13:34:02.37	352.29	12.80	-25.4	-25.8	15.3	0.00e+00	0	44	102	1048576	11	3789
2026-01-06 13:34:03.38	352.20	12.71	-25.4	-25.9	15.2	0.00e+00	0	44	102	1048576	11	3816
2026-01-06 13:34:04.39	352.11	12.62	-25.6	-26.4	14.9	0.00e+00	0	44	102	1048576	11	3922
2026-01-06 13:34:05.40	352.03	12.54	-25.6	-26.4	14.9	0.00e+00	0	44	102	1048576	11	3933
2026-01-06 13:34:06.40	351.94	12.45	-25.6	-26.2	15.0	0.00e+00	0	44	102	1048576	11	3891
2026-01-06 13:34:07.41	351.86	12.36	-25.6	-26.4	14.9	0.00e+00	0	44	102	1048576	11	3935
2026-01-06 13:34:08.42	351.77	12.28	-25.7	-26.6	14.8	1.10e-06	0	44	102	1048576	11	3980
2026-01-06 13:34:09.42	351.69	12.19	-25.7	-26.6	14.8	0.00e+00	0	44	102	1048576	11	3975
2026-01-06 13:34:10.43	351.60	12.11	-25.7	-26.6	14.8	0.00e+00	0	44	102	1048576	11	3985
2026-01-06 13:34:11.44	351.52	12.02	-25.7	-26.5	14.9	2.20e-06	0	44	102	1048576	11	3950
2026-01-06 13:34:12.44	351.44	11.94	-25.5	-26.2	15.0	0.00e+00	0	44	102	1048576	11	3879
2026-01-06 13:34:13.45	351.36	11.85	-25.5	-26.2	15.0	0.00e+00	0	44	102	1048576	11	3884
2026-01-06 13:34:14.46	351.28	11.76	-25.6	-26.3	14.9	1.10e-06	0	44	102	1048576	11	3914
2026-01-06 13:34:15.47	351.19	11.68	-25.6	-26.4	14.9	0.00e+00	0	44	102	1048576	11	3937
2026-01-06 13:34:16.47	351.12	11.60	-25.7	-26.5	14.8	0.00e+00	0	44	102	1048576	11	3966
2026-01-06 13:34:17.47	351.04	11.51	-25.7	-26.5	14.8	0.00e+00	0	44	102	1048576	11	3948
2026-01-06 13:34:18.48	350.96	11.43	-25.7	-26.6	14.7	0.00e+00	0	44	102	1048576	11	3980
2026-01-06 13:34:19.48	350.88	11.34	-25.7	-26.6	14.8	0.00e+00	0	44	102	1048576	11	3972
2026-01-06 13:34:20.49	350.80	11.26	-25.7	-26.6	14.7	0.00e+00	0	44	102	1048576	11	3978
2026-01-06 13:34:21.50	350.72	11.18	-25.7	-26.7	14.7	0.00e+00	0	44	102	1048576	11	4001
2026-01-06 13:34:22.50	350.64	11.09	-25.8	-26.8	14.6	0.00e+00	0	44	102	1048576	11	4022
2026-01-06 13:34:23.51	350.57	11.01	-25.8	-26.7	14.7	0.00e+00	0	44	102	1048576	11	4018
2026-01-06 13:34:24.52	350.49	10.93	-25.8	-26.8	14.6	2.20e-06	0	44	102	1048576	11	4032
2026-01-06 13:34:25.53	350.41	10.85	-25.8	-26.8	14.5	3.40e-06	0	44	102	1048576	11	4043
2026-01-06 13:34:26.53	350.34	10.76	-25.9	-26.9	14.5	0.00e+00	0	44	102	1048576	11	4063
2026-01-06 13:34:27.54	350.26	10.68	-25.9	-27.1	14.4	2.20e-06	0	44	102	1048576	11	4101
2026-01-06 13:34:28.55	350.19	10.60	-26.0	-27.3	14.3	2.20e-06	0	44	102	1048576	11	4179
2026-01-06 13:34:29.55	350.11	10.52	-26.0	-26.8	14.2	0.00e+00	0	44	102	1048576	12	3931
2026-01-06 13:34:30.55	350.04	10.44	-26.0	-26.8	14.2	2.20e-06	0	44	102	1048576	12	3945
2026-01-06 13:34:31.56	349.97	10.36	-26.1	-27.0	14.1	2.20e-06	0	44	102	1048576	12	3975
2026-01-06 13:34:32.57	349.89	10.28	-26.1	-27.1	14.0	2.20e-06	0	44	102	1048576	12	4019
2026-01-06 13:34:33.57	349.82	10.20	-26.2	-27.3	13.9	2.20e-06	0	44	102	1048576	12	4067
2026-01-06 13:34:34.58	349.75	10.12	-26.3	-27.4	13.9	1.25e-05	0	44	102	1048576	12	4095
2026-01-06 13:34:35.59	349.68	10.04	-26.3	-27.4	13.8	6.80e-06	0	44	102	1048576	12	4096
2026-01-06 13:34:36.59	349.60	9.96	-26.3	-27.4	13.8	3.40e-06	0	44	102	1048576	12	4106
2026-01-06 13:34:37.60	349.53	9.88	-26.4	-27.6	13.7	6.80e-06	0	44	102	1048576	12	4136
2026-01-06 13:34:38.61	349.46	9.80	-26.2	-27.3	13.9	3.40e-06	0	44	102	1048576	12	4069
2026-01-06 13:34:39.62	349.39	9.72	-26.2	-27.1	14.0	3.40e-06	0	44	102	1048576	12	4022
2026-01-06 13:34:40.62	349.32	9.64	-26.2	-27.2	13.9	1.10e-06	0	44	102	1048576	12	4052
2026-01-06 13:34:41.62	349.25	9.56	-26.2	-27.2	13.9	3.40e-06	0	44	102	1048576	12	4054
2026-01-06 13:34:42.62	349.19	9.48	-26.3	-27.4	13.8	4.50e-06	0	44	102	1048576	12	4091
2026-01-06 13:34:43.62	349.12	9.40	-26.2	-27.3	13.8	1.02e-05	0	44	102	1048576	12	4078
2026-01-06 13:34:44.64	349.05	9.32	-26.2	-27.3	13.9	3.40e-06	0	44	102	1048576	12	4060
2026-01-06 13:34:45.64	348.98	9.25	-26.3	-27.3	13.8	3.40e-06	0	44	102	1048576	12	4079
2026-01-06 13:34:46.65	348.91	9.17	-26.2	-27.3	13.8	8.00e-06	0	44	102	1048576	12	4075
2026-01-06 13:34:47.65	348.85	9.09	-26.1	-27.1	13.9	3.40e-06	0	44	102	1048576	12	4016
2026-01-06 13:34:48.66	348.78	9.01	-26.2	-27.3	13.8	4.50e-06	0	44	102	1048576	12	4071
2026-01-06 13:34:49.67	348.71	8.94	-26.3	-27.4	13.7	8.00e-06	0	44	102	1048576	12	4106
2026-01-06 13:34:50.68	348.65	8.86	-26.3	-27.4	13.7	4.50e-06	0	44	102	1048576	12	4112
2026-01-06 13:34:51.69	348.58	8.78	-26.2	-27.3	13.8	6.80e-06	0	44	102	1048576	12	4064
2026-01-06 13:34:52.69	348.52	8.70	-26.2	-27.1	13.9	3.40e-06	0	44	102	1048576	12	4021
2026-01-06 13:34:53.69	348.45	8.63	-26.1	-27.0	14.0	5.70e-06	0	44	102	1048576	12	3996
2026-01-06 13:34:54.70	348.39	8.55	-26.2	-27.3	13.8	4.50e-06	0	44	102	1048576	12	4066
2026-01-06 13:34:55.70	348.32	8.48	-26.2	-27.2	13.8	6.80e-06	0	44	102	1048576	12	4042
2026-01-06 13:34:56.71	348.26	8.40	-26.2	-27.3	13.8	6.80e-06	0	44	102	1048576	12	4063
2026-01-06 13:34:57.71	348.20	8.33	-26.2	-27.3	13.7	4.50e-06	0	44	102	1048576	12	4062
2026-01-06 13:34:58.71	348.13	8.25	-26.3	-27.5	13.6	1.14e-05	0	44	102	1048576	12	4123
2026-01-06 13:34:59.72	348.07	8.17	-26.3	-27.4	13.7	6.80e-06	0	44	102	1048576	12	4101
2026-01-06 13:35:00.72	348.01	8.10	-26.3	-27.4	13.7	1.14e-05	0	44	102	1048576	12	4100
2026-01-06 13:35:01.72	347.95	8.03	-26.3	-27.4	13.7	6.80e-06	0	44	102	1048576	12	4095
2026-01-06 13:35:02.72	347.89	7.95	-26.5	-27.9	13.3	1.25e-05	0	44	102	1048576	12	4224
2026-01-06 13:35:03.73	347.82	7.88	-26.4	-27.6	13.5	1.25e-05	0	44	102	1048576	12	4160
2026-01-06 13:35:04.73	347.76	7.80	-26.5	-27.9	13.3	1.25e-05	0	44	102	1048576	12	4232
2026-01-06 13:35:05.74	347.70	7.73	-26.4	-27.3	13.4	2.17e-05	0	44	102	1048576	13	3974
2026-01-06 13:35:06.75	347.64	7.65	-26.4	-27.3	13.4	2.05e-05	0	44	102	1048576	13	3977
2026-01-06 13:35:07.76	347.58	7.58	-26.4	-27.3	13.4	1.02e-05	0	44	102	1048576	13	3975
2026-01-06 13:35:08.77	347.52	7.51	-26.4	-27.2	13.4	1.48e-05	0	44	102	1048576	13	3942
2026-01-06 13:35:09.77	347.46	7.43	-26.5	-27.4	13.3	1.83e-05	0	44	102	1048576	13	4013
2026-01-06 13:35:10.78	347.40	7.36	-26.4	-27.3	13.3	1.25e-05	0	44	102	1048576	13	3975
2026-01-06 13:35:11.78	347.34	7.29	-26.4	-27.2	13.4	1.48e-05	0	44	102	1048576	13	3949
2026-01-06 13:35:12.80	347.28	7.21	-26.5	-27.3	13.3	2.17e-05	0	44	102	1048576	13	3987
2026-01-06 13:35:13.80	347.23	7.14	-26.4	-27.2	13.4	1.94e-05	0	44	102	1048576	13	3938
2026-01-06 13:35:14.81	347.17	7.07	-32.2	-39.1	3.9	8.46e-01	0	44	104	1048576	24	7990
2026-01-06 13:35:15.81	347.11	7.00	-32.9	-42.3	3.8	8.46e-01	0	44	104	1048576	25	10635
2026-01-06 13:35:16.82	347.05	6.92	-33.2	-42.8	3.8	8.47e-01	0	44	104	1048576	26	10858
2026-01-06 13:35:17.82	347.00	6.85	-33.4	-43.2	3.8	8.47e-01	0	44	104	1048576	26	11035

#Closed at: 2026-01-06 13:35:18
#Recorded file [1 MB]: D:/data/31010_260106_163008.dat