passes_logs/2026/01/06/R2M6_AANII_01/R2M6_AANII_01__20260106_114819_NOAA_21_JPSS-2_rec.log

#Pass ID: 20260106_114819_NOAA 21 (JPSS-2)
#Satellite: NOAA 21 (JPSS-2)
#Configuration: NOAA 21
#almurnet v.1.7.20240730
#Start time: 2026-01-06 11:49:02

#Version: 2.2.20231116
#Station: R2M6_AANII_01
#Location: 30.233357 lon 59.946436 lat
#TLE: 1 54234U 22150A   26005.21525222  .00000150  00000+0  91957-4 0  9992
#TLE: 2 54234  98.7490 306.2339 0001053 341.6032  18.5106 14.19532220163427

#Time	Az	El	Level	Level2	SNR	BER	BlckErr	Temp	State	Recorded	gain1	gain2
2026-01-06 11:49:02.92	212.80	9.96	-33.6	-44.7	3.8	8.47e-01	0	43	0	0	27	12875
2026-01-06 11:49:03.92	212.91	10.03	-34.0	-45.3	3.8	1.49e+00	0	43	104	0	29	13243
2026-01-06 11:49:04.93	213.02	10.10	-34.0	-45.3	3.8	1.49e+00	0	43	104	0	29	13260
2026-01-06 11:49:05.94	213.13	10.17	-34.0	-45.3	3.8	1.49e+00	0	43	104	0	29	13258
2026-01-06 11:49:06.95	213.24	10.25	-34.0	-45.3	3.8	1.49e+00	0	43	104	0	29	13249
2026-01-06 11:49:07.95	213.35	10.32	-34.0	-45.3	3.8	1.49e+00	0	44	104	0	29	13229
2026-01-06 11:49:08.96	213.46	10.39	-34.0	-45.3	3.8	1.49e+00	0	43	104	0	29	13277
2026-01-06 11:49:09.97	213.57	10.46	-34.0	-45.3	3.8	1.49e+00	0	43	104	0	29	13277
2026-01-06 11:49:10.98	213.68	10.53	-34.0	-45.3	3.8	1.49e+00	0	44	104	0	29	13284
2026-01-06 11:49:11.98	213.79	10.60	-34.0	-45.3	3.8	1.49e+00	0	44	104	0	29	13280
2026-01-06 11:49:12.99	213.90	10.68	-34.0	-45.3	3.8	1.49e+00	0	43	104	0	29	13243
2026-01-06 11:49:14.00	214.01	10.75	-34.0	-45.3	3.8	1.49e+00	0	43	104	0	29	13218
2026-01-06 11:49:15.01	214.13	10.82	-34.0	-45.3	3.8	1.49e+00	0	43	104	0	29	13236
2026-01-06 11:49:16.01	214.24	10.89	-34.0	-45.3	3.8	1.49e+00	0	43	104	0	29	13240
2026-01-06 11:49:17.02	214.36	10.96	-34.0	-45.3	3.8	1.49e+00	0	43	104	0	29	13237
2026-01-06 11:49:18.01	214.47	11.04	-34.0	-45.3	3.8	1.49e+00	0	44	104	0	29	13229
2026-01-06 11:49:19.02	214.59	11.11	-34.0	-45.3	3.8	1.49e+00	0	43	104	0	29	13261
2026-01-06 11:49:20.02	214.70	11.18	-34.0	-45.3	3.8	1.49e+00	0	44	104	0	29	13218
2026-01-06 11:49:21.02	214.82	11.25	-34.0	-45.3	3.8	1.49e+00	0	43	104	0	29	13235
2026-01-06 11:49:22.02	214.93	11.33	-33.9	-45.2	3.8	1.49e+00	0	43	104	0	29	13181
2026-01-06 11:49:23.03	215.05	11.40	-33.8	-45.1	3.8	1.49e+00	0	43	104	0	29	13130
2026-01-06 11:49:24.04	215.17	11.47	-33.9	-45.1	3.8	1.49e+00	0	43	104	0	29	13088
2026-01-06 11:49:25.05	215.29	11.54	-33.8	-45.0	3.8	1.49e+00	0	43	104	0	29	13003
2026-01-06 11:49:26.06	215.41	11.62	-33.7	-45.4	3.8	1.49e+00	0	44	104	0	28	13703
2026-01-06 11:49:27.07	215.53	11.69	-33.7	-45.3	3.8	1.49e+00	0	43	104	0	28	13714
2026-01-06 11:49:28.08	215.65	11.77	-33.7	-45.2	3.8	1.49e+00	0	43	104	0	28	13634
2026-01-06 11:49:29.09	215.77	11.84	-33.6	-45.1	3.8	1.49e+00	0	43	104	0	28	13542
2026-01-06 11:49:30.09	215.89	11.91	-33.6	-45.0	3.8	1.49e+00	0	44	104	0	28	13446
2026-01-06 11:49:31.10	216.01	11.99	-33.5	-44.9	3.8	1.49e+00	0	43	104	0	28	13388
2026-01-06 11:49:32.10	216.14	12.06	-33.4	-44.7	3.8	1.49e+00	0	44	104	0	28	13221
2026-01-06 11:49:33.10	216.26	12.13	-33.3	-44.6	3.8	1.49e+00	0	43	104	0	28	13145
2026-01-06 11:49:34.11	216.38	12.21	-33.3	-44.8	3.8	1.49e+00	0	44	104	0	27	13603
2026-01-06 11:49:35.11	216.51	12.28	-33.1	-43.9	3.8	1.49e+00	0	44	104	0	27	12549
2026-01-06 11:49:36.12	216.63	12.36	-33.0	-44.3	3.8	1.49e+00	0	44	104	0	27	13233
2026-01-06 11:49:37.12	216.76	12.43	-33.0	-44.2	3.8	1.49e+00	0	43	104	0	27	13121
2026-01-06 11:49:38.13	216.89	12.51	-33.0	-44.1	3.8	1.49e+00	0	44	104	0	27	12932
2026-01-06 11:49:39.14	217.01	12.58	-33.0	-43.8	3.8	1.49e+00	0	43	104	0	27	12512
2026-01-06 11:49:40.15	217.14	12.66	-32.9	-43.4	3.8	1.49e+00	0	43	104	0	27	12002
2026-01-06 11:49:41.15	217.27	12.73	-32.9	-43.1	3.8	1.49e+00	0	43	104	0	27	11708
2026-01-06 11:49:42.16	217.40	12.81	-32.9	-43.0	3.8	1.49e+00	0	44	104	0	27	11581
2026-01-06 11:49:43.16	217.53	12.88	-32.9	-43.3	3.8	1.49e+00	0	43	104	0	27	11893
2026-01-06 11:49:44.17	217.66	12.96	-33.0	-43.8	3.8	1.49e+00	0	43	104	0	27	12531
2026-01-06 11:49:45.18	217.79	13.03	-33.0	-44.0	3.8	1.49e+00	0	43	104	0	27	12866
2026-01-06 11:49:46.19	217.92	13.11	-32.9	-43.0	3.8	1.49e+00	0	43	104	0	27	11592
2026-01-06 11:49:47.20	218.05	13.18	-32.5	-40.9	3.9	1.48e+00	0	43	104	0	26	9413
2026-01-06 11:49:48.20	218.19	13.26	-31.9	-37.3	5.9	6.47e-01	0	43	104	0	25	6692
2026-01-06 11:49:49.21	218.32	13.33	-31.1	-35.0	8.0	1.02e-01	0	44	102	1048576	23	5675
2026-01-06 11:49:50.23	218.46	13.41	-30.1	-32.9	10.2	1.08e-02	0	43	102	1048576	21	5000
2026-01-06 11:49:51.23	218.59	13.49	-29.3	-31.2	11.7	1.02e-03	0	44	102	1048576	20	4511
2026-01-06 11:49:52.24	218.73	13.56	-28.8	-30.4	12.6	1.19e-04	0	43	102	1048576	19	4353
2026-01-06 11:49:53.25	218.86	13.64	-28.4	-30.0	13.1	4.88e-05	0	44	102	1048576	18	4335
2026-01-06 11:49:54.26	219.00	13.71	-28.2	-30.1	13.4	1.29e-05	0	44	102	1048576	17	4459
2026-01-06 11:49:55.26	219.14	13.79	-28.5	-30.7	13.0	2.74e-05	0	43	102	1048576	17	4639
2026-01-06 11:49:56.27	219.28	13.87	-28.8	-31.6	12.5	1.12e-04	0	44	102	1048576	17	4936
2026-01-06 11:49:57.27	219.41	13.94	-29.4	-32.5	11.6	6.09e-04	0	43	102	1048576	18	5150
2026-01-06 11:49:58.27	219.55	14.02	-29.4	-32.1	11.5	9.29e-04	0	43	102	1048576	19	4898
2026-01-06 11:49:59.27	219.69	14.09	-29.3	-31.7	11.8	4.01e-04	0	44	102	1048576	19	4746
2026-01-06 11:50:00.28	219.83	14.17	-29.4	-32.1	11.5	9.63e-04	0	43	102	1048576	19	4894
2026-01-06 11:50:01.28	219.97	14.25	-29.1	-31.3	12.1	3.43e-04	0	43	102	1048576	19	4610
2026-01-06 11:50:02.29	220.12	14.32	-28.8	-30.5	12.6	1.13e-04	0	43	102	1048576	19	4356
2026-01-06 11:50:03.29	220.26	14.40	-28.6	-30.5	12.9	6.25e-05	0	43	102	1048576	18	4455
2026-01-06 11:50:04.30	220.40	14.48	-28.4	-30.0	13.2	3.05e-05	0	44	102	1048576	18	4327
2026-01-06 11:50:05.30	220.55	14.55	-28.3	-29.7	13.4	2.28e-05	0	43	102	1048576	18	4234
2026-01-06 11:50:06.31	220.69	14.63	-28.3	-29.7	13.4	1.14e-05	0	43	102	1048576	18	4226
2026-01-06 11:50:07.31	220.84	14.71	-28.3	-30.1	13.5	9.10e-06	0	44	102	1048576	17	4455
2026-01-06 11:50:08.32	220.99	14.79	-28.2	-29.9	13.6	9.90e-06	0	43	102	1048576	17	4392
2026-01-06 11:50:09.32	221.13	14.86	-27.8	-29.1	14.1	1.50e-06	0	43	102	1048576	17	4153
2026-01-06 11:50:10.33	221.28	14.94	-27.7	-29.3	14.3	3.00e-06	0	43	102	1048576	16	4314
2026-01-06 11:50:11.33	221.43	15.02	-27.8	-29.5	14.2	1.50e-06	0	43	102	1048576	16	4377
2026-01-06 11:50:12.35	221.58	15.10	-27.5	-28.9	14.5	7.00e-07	0	43	102	1048576	16	4194
2026-01-06 11:50:13.35	221.73	15.17	-27.4	-28.5	14.7	0.00e+00	0	43	102	1048576	16	4100
2026-01-06 11:50:14.36	221.88	15.25	-27.4	-28.5	14.8	0.00e+00	0	43	102	1048576	16	4086
2026-01-06 11:50:15.37	222.04	15.33	-27.4	-28.4	14.8	0.00e+00	0	43	102	1048576	16	4070
2026-01-06 11:50:16.38	222.19	15.41	-27.4	-28.4	14.8	7.00e-07	0	43	102	1048576	16	4076
2026-01-06 11:50:17.39	222.34	15.49	-27.4	-28.5	14.8	0.00e+00	0	43	102	1048576	16	4086
2026-01-06 11:50:18.39	222.50	15.56	-27.4	-28.5	14.8	0.00e+00	0	44	102	1048576	16	4083
2026-01-06 11:50:19.40	222.65	15.64	-27.4	-28.5	14.7	0.00e+00	0	44	102	1048576	16	4102
2026-01-06 11:50:20.40	222.81	15.72	-27.5	-28.7	14.7	7.00e-07	0	44	102	1048576	16	4140
2026-01-06 11:50:21.40	222.96	15.80	-27.4	-28.6	14.7	0.00e+00	0	43	102	1048576	16	4109
2026-01-06 11:50:22.41	223.12	15.87	-27.4	-28.6	14.7	2.20e-06	0	44	102	1048576	16	4118
2026-01-06 11:50:23.42	223.28	15.95	-27.5	-28.7	14.7	0.00e+00	0	43	102	1048576	16	4137
2026-01-06 11:50:24.43	223.44	16.03	-27.5	-28.8	14.7	0.00e+00	0	44	102	1048576	16	4163
2026-01-06 11:50:25.43	223.60	16.11	-27.6	-28.9	14.6	4.50e-06	0	43	102	1048576	16	4200
2026-01-06 11:50:26.44	223.76	16.19	-27.7	-29.1	14.4	0.00e+00	0	43	102	1048576	16	4263
2026-01-06 11:50:27.44	223.92	16.27	-27.7	-29.2	14.4	0.00e+00	0	44	102	1048576	16	4277
2026-01-06 11:50:28.44	224.08	16.34	-27.7	-29.3	14.4	7.00e-07	0	43	102	1048576	16	4304
2026-01-06 11:50:29.45	224.25	16.42	-27.7	-29.2	14.4	2.20e-06	0	44	102	1048576	16	4294
2026-01-06 11:50:30.46	224.41	16.50	-27.8	-29.4	14.3	1.50e-06	0	44	102	1048576	16	4355
2026-01-06 11:50:31.47	224.58	16.58	-27.9	-29.6	14.2	1.14e-05	0	44	102	1048576	16	4391
2026-01-06 11:50:32.48	224.74	16.66	-27.9	-29.7	14.2	7.00e-07	0	43	102	1048576	16	4419
2026-01-06 11:50:33.48	224.91	16.74	-27.9	-29.6	14.2	2.20e-06	0	44	102	1048576	16	4407
2026-01-06 11:50:34.49	225.08	16.82	-27.9	-29.7	14.1	1.50e-06	0	43	102	1048576	16	4431
2026-01-06 11:50:35.50	225.24	16.89	-28.0	-30.0	13.9	7.00e-07	0	43	102	1048576	16	4526
2026-01-06 11:50:36.51	225.41	16.97	-28.1	-30.1	13.9	5.30e-06	0	43	102	1048576	16	4551
2026-01-06 11:50:37.52	225.58	17.05	-28.1	-30.1	14.0	2.20e-06	0	43	102	1048576	16	4531
2026-01-06 11:50:38.52	225.75	17.13	-28.2	-30.5	13.7	4.50e-06	0	44	102	1048576	16	4659
2026-01-06 11:50:39.53	225.93	17.21	-28.2	-30.4	13.7	7.60e-06	0	43	102	1048576	16	4642
2026-01-06 11:50:40.54	226.10	17.29	-28.0	-29.9	14.0	1.50e-06	0	44	102	1048576	16	4486
2026-01-06 11:50:41.55	226.27	17.37	-27.9	-29.7	14.2	0.00e+00	0	44	102	1048576	16	4439
2026-01-06 11:50:42.55	226.45	17.44	-27.9	-29.6	14.2	7.00e-07	0	43	102	1048576	16	4404
2026-01-06 11:50:43.56	226.62	17.52	-27.9	-29.7	14.2	1.50e-06	0	44	102	1048576	16	4416
2026-01-06 11:50:44.57	226.80	17.60	-28.0	-30.0	14.0	1.50e-06	0	43	102	1048576	16	4501
2026-01-06 11:50:45.57	226.97	17.68	-28.0	-29.9	14.1	2.20e-06	0	43	102	1048576	16	4476
2026-01-06 11:50:46.57	227.15	17.76	-27.8	-29.5	14.3	7.00e-07	0	44	102	1048576	16	4360
2026-01-06 11:50:47.58	227.33	17.84	-27.7	-29.2	14.5	1.50e-06	0	43	102	1048576	16	4290
2026-01-06 11:50:48.58	227.51	17.92	-27.7	-29.3	14.5	3.00e-06	0	43	102	1048576	16	4303
2026-01-06 11:50:49.58	227.69	17.99	-27.7	-29.3	14.5	7.00e-07	0	43	102	1048576	16	4297
2026-01-06 11:50:50.58	227.87	18.07	-27.7	-29.3	14.5	1.50e-06	0	43	102	1048576	16	4302
2026-01-06 11:50:51.59	228.05	18.15	-27.8	-29.5	14.4	7.00e-07	0	44	102	1048576	16	4350
2026-01-06 11:50:52.60	228.24	18.23	-27.7	-29.3	14.4	7.00e-07	0	44	102	1048576	16	4313
2026-01-06 11:50:53.60	228.42	18.31	-27.7	-29.2	14.5	0.00e+00	0	43	102	1048576	16	4269
2026-01-06 11:50:54.61	228.61	18.39	-27.7	-29.1	14.6	7.00e-07	0	43	102	1048576	16	4263
2026-01-06 11:50:55.62	228.79	18.46	-27.6	-29.0	14.6	0.00e+00	0	43	102	1048576	16	4224
2026-01-06 11:50:56.63	228.98	18.54	-27.5	-28.8	14.8	0.00e+00	0	43	102	1048576	16	4157
2026-01-06 11:50:57.64	229.17	18.62	-27.6	-28.9	14.7	7.00e-07	0	43	102	1048576	16	4191
2026-01-06 11:50:58.64	229.36	18.70	-27.5	-28.8	14.7	0.00e+00	0	43	102	1048576	16	4169
2026-01-06 11:50:59.65	229.55	18.78	-27.5	-28.7	14.8	0.00e+00	0	43	102	1048576	16	4145
2026-01-06 11:51:00.65	229.74	18.85	-27.6	-29.0	14.7	0.00e+00	0	43	102	1048576	16	4211
2026-01-06 11:51:01.66	229.93	18.93	-27.6	-29.0	14.6	1.50e-06	0	43	102	1048576	16	4226
2026-01-06 11:51:02.67	230.12	19.01	-27.5	-28.8	14.8	0.00e+00	0	43	102	1048576	16	4155
2026-01-06 11:51:03.67	230.31	19.09	-27.5	-28.7	14.8	0.00e+00	0	43	102	1048576	16	4148
2026-01-06 11:51:04.69	230.51	19.17	-27.4	-28.6	14.9	0.00e+00	0	44	102	1048576	16	4100
2026-01-06 11:51:05.69	230.71	19.24	-27.3	-28.3	15.1	0.00e+00	0	43	102	1048576	16	4043
2026-01-06 11:51:06.70	230.90	19.32	-27.3	-28.3	15.0	0.00e+00	0	44	102	1048576	16	4043
2026-01-06 11:51:07.70	231.10	19.40	-27.3	-28.2	15.1	0.00e+00	0	44	102	1048576	16	4013
2026-01-06 11:51:08.71	231.30	19.48	-27.3	-28.3	15.1	0.00e+00	0	44	102	1048576	16	4029
2026-01-06 11:51:09.72	231.50	19.55	-27.4	-28.5	14.9	0.00e+00	0	43	102	1048576	16	4096
2026-01-06 11:51:10.73	231.70	19.63	-27.5	-28.6	14.9	0.00e+00	0	44	102	1048576	16	4125
2026-01-06 11:51:11.73	231.90	19.71	-27.5	-28.6	14.9	0.00e+00	0	43	102	1048576	16	4118
2026-01-06 11:51:12.74	232.10	19.79	-27.5	-28.6	14.9	3.80e-06	0	43	102	1048576	16	4117
2026-01-06 11:51:13.74	232.31	19.86	-27.4	-28.6	14.9	0.00e+00	0	43	102	1048576	16	4103
2026-01-06 11:51:14.74	232.51	19.94	-27.5	-28.6	14.9	0.00e+00	0	44	102	1048576	16	4112
2026-01-06 11:51:15.75	232.71	20.02	-27.3	-28.3	15.1	0.00e+00	0	43	102	1048576	16	4033
2026-01-06 11:51:16.76	232.92	20.09	-27.0	-28.1	15.3	0.00e+00	0	44	102	1048576	15	4095
2026-01-06 11:51:17.77	233.13	20.17	-27.0	-28.0	15.4	0.00e+00	0	44	102	1048576	15	4071
2026-01-06 11:51:18.77	233.34	20.25	-26.9	-27.8	15.5	0.00e+00	0	44	102	1048576	15	4006
2026-01-06 11:51:19.78	233.55	20.32	-26.8	-28.1	15.6	0.00e+00	0	43	102	1048576	14	4203
2026-01-06 11:51:20.77	233.75	20.40	-26.7	-27.9	15.7	0.00e+00	0	44	102	1048576	14	4139
2026-01-06 11:51:21.78	233.97	20.47	-26.6	-27.7	15.8	4.50e-06	0	43	102	1048576	14	4094
2026-01-06 11:51:22.79	234.18	20.55	-26.7	-28.0	15.7	0.00e+00	0	43	102	1048576	14	4159
2026-01-06 11:51:23.79	234.39	20.62	-26.7	-27.8	15.8	0.00e+00	0	43	102	1048576	14	4111
2026-01-06 11:51:24.79	234.61	20.70	-26.5	-27.5	16.0	5.30e-06	0	44	102	1048576	14	4026
2026-01-06 11:51:25.80	234.82	20.77	-26.5	-27.4	16.0	0.00e+00	0	44	102	1048576	14	4021
2026-01-06 11:51:26.81	235.04	20.85	-26.4	-27.2	16.1	0.00e+00	0	44	102	1048576	14	3963
2026-01-06 11:51:27.82	235.26	20.92	-26.4	-27.2	16.1	5.30e-06	0	43	102	1048576	14	3966
2026-01-06 11:51:28.82	235.47	21.00	-26.5	-27.4	16.0	0.00e+00	0	43	102	1048576	14	4008
2026-01-06 11:51:29.83	235.69	21.07	-26.3	-27.0	16.2	0.00e+00	0	43	102	1048576	14	3908
2026-01-06 11:51:30.84	235.92	21.15	-26.2	-27.3	16.3	0.00e+00	0	43	102	1048576	13	4077
2026-01-06 11:51:31.85	236.14	21.22	-26.2	-27.4	16.3	0.00e+00	0	43	102	1048576	13	4104
2026-01-06 11:51:32.85	236.36	21.29	-26.2	-27.3	16.3	0.00e+00	0	44	102	1048576	13	4079
2026-01-06 11:51:33.86	236.58	21.37	-26.2	-27.4	16.3	3.80e-06	0	44	102	1048576	13	4104
2026-01-06 11:51:34.87	236.81	21.44	-26.3	-27.5	16.3	0.00e+00	0	44	102	1048576	13	4130
2026-01-06 11:51:35.87	237.03	21.51	-26.3	-27.6	16.2	0.00e+00	0	43	102	1048576	13	4169
2026-01-06 11:51:36.88	237.26	21.59	-26.3	-27.6	16.2	0.00e+00	0	43	102	1048576	13	4153
2026-01-06 11:51:37.88	237.49	21.66	-26.5	-27.9	16.0	0.00e+00	0	43	102	1048576	13	4248
2026-01-06 11:51:38.89	237.72	21.73	-26.4	-27.7	16.1	0.00e+00	0	44	102	1048576	13	4203
2026-01-06 11:51:39.90	237.95	21.80	-26.4	-27.7	16.1	0.00e+00	0	43	102	1048576	13	4187
2026-01-06 11:51:40.91	238.18	21.88	-26.4	-27.6	16.2	0.00e+00	0	44	102	1048576	13	4168
2026-01-06 11:51:41.92	238.41	21.95	-26.3	-27.6	16.2	0.00e+00	0	43	102	1048576	13	4157
2026-01-06 11:51:42.93	238.65	22.02	-26.5	-27.9	16.0	0.00e+00	0	43	102	1048576	13	4246
2026-01-06 11:51:43.93	238.88	22.09	-26.3	-27.5	16.2	0.00e+00	0	44	102	1048576	13	4147
2026-01-06 11:51:44.94	239.12	22.16	-26.3	-27.4	16.3	0.00e+00	0	44	102	1048576	13	4119
2026-01-06 11:51:45.95	239.35	22.23	-26.4	-27.6	16.2	0.00e+00	0	44	102	1048576	13	4173
2026-01-06 11:51:46.95	239.59	22.30	-26.3	-27.4	16.3	0.00e+00	0	44	102	1048576	13	4112
2026-01-06 11:51:47.96	239.83	22.37	-26.3	-27.4	16.3	0.00e+00	0	44	102	1048576	13	4124
2026-01-06 11:51:48.96	240.07	22.44	-26.2	-27.3	16.3	0.00e+00	0	44	102	1048576	13	4093
2026-01-06 11:51:49.97	240.31	22.51	-26.3	-27.6	16.2	0.00e+00	0	43	102	1048576	13	4159
2026-01-06 11:51:50.97	240.55	22.58	-26.2	-27.2	16.4	0.00e+00	0	44	102	1048576	13	4068
2026-01-06 11:51:51.98	240.79	22.65	-26.2	-27.3	16.4	0.00e+00	0	44	102	1048576	13	4079
2026-01-06 11:51:52.98	241.03	22.72	-26.2	-27.3	16.4	0.00e+00	0	44	102	1048576	13	4087
2026-01-06 11:51:53.99	241.28	22.78	-26.3	-27.6	16.2	0.00e+00	0	44	102	1048576	13	4152
2026-01-06 11:51:54.99	241.52	22.85	-26.4	-27.7	16.2	0.00e+00	0	44	102	1048576	13	4179
2026-01-06 11:51:56.00	241.77	22.92	-26.4	-27.6	16.2	0.00e+00	0	43	102	1048576	13	4174
2026-01-06 11:51:57.01	242.02	22.98	-26.4	-27.8	16.1	0.00e+00	0	43	102	1048576	13	4205
2026-01-06 11:51:58.02	242.27	23.05	-26.4	-27.7	16.2	2.20e-06	0	43	102	1048576	13	4192
2026-01-06 11:51:59.02	242.52	23.12	-26.4	-27.7	16.2	0.00e+00	0	43	102	1048576	13	4192
2026-01-06 11:52:00.03	242.77	23.18	-26.3	-27.5	16.3	0.00e+00	0	43	102	1048576	13	4140
2026-01-06 11:52:01.03	243.02	23.25	-26.5	-27.9	16.0	0.00e+00	0	43	102	1048576	13	4252
2026-01-06 11:52:02.04	243.27	23.31	-26.3	-27.5	16.3	0.00e+00	0	43	102	1048576	13	4128
2026-01-06 11:52:03.05	243.53	23.38	-26.2	-27.3	16.4	0.00e+00	0	44	102	1048576	13	4079
2026-01-06 11:52:04.05	243.78	23.44	-26.2	-27.3	16.4	0.00e+00	0	43	102	1048576	13	4089
2026-01-06 11:52:05.06	244.04	23.50	-26.3	-27.4	16.3	0.00e+00	0	43	102	1048576	13	4107
2026-01-06 11:52:06.06	244.29	23.57	-26.3	-27.5	16.3	0.00e+00	0	43	102	1048576	13	4122
2026-01-06 11:52:07.07	244.55	23.63	-26.3	-27.6	16.3	0.00e+00	0	44	102	1048576	13	4156
2026-01-06 11:52:08.08	244.81	23.69	-26.3	-27.4	16.3	0.00e+00	0	43	102	1048576	13	4113
2026-01-06 11:52:09.08	245.07	23.75	-26.3	-27.5	16.3	0.00e+00	0	44	102	1048576	13	4123
2026-01-06 11:52:10.09	245.33	23.82	-26.3	-27.5	16.3	0.00e+00	0	44	102	1048576	13	4124
2026-01-06 11:52:11.10	245.59	23.88	-26.4	-27.7	16.2	0.00e+00	0	44	102	1048576	13	4187
2026-01-06 11:52:12.11	245.86	23.94	-26.3	-27.5	16.3	0.00e+00	0	44	102	1048576	13	4139
2026-01-06 11:52:13.12	246.12	24.00	-26.4	-27.7	16.3	0.00e+00	0	44	102	1048576	13	4172
2026-01-06 11:52:14.13	246.39	24.06	-26.5	-28.0	16.1	0.00e+00	0	44	102	1048576	13	4252
2026-01-06 11:52:15.14	246.66	24.12	-26.5	-27.9	16.1	1.50e-06	0	44	102	1048576	13	4226
2026-01-06 11:52:16.14	246.92	24.17	-26.6	-28.1	16.0	0.00e+00	0	44	102	1048576	13	4306
2026-01-06 11:52:17.14	247.19	24.23	-26.6	-28.1	16.0	0.00e+00	0	43	102	1048576	13	4307
2026-01-06 11:52:18.15	247.46	24.29	-26.7	-28.4	15.8	0.00e+00	0	44	102	1048576	13	4379
2026-01-06 11:52:19.16	247.73	24.35	-26.6	-28.2	15.9	0.00e+00	0	43	102	1048576	13	4337
2026-01-06 11:52:20.16	248.00	24.40	-26.6	-28.2	15.9	0.00e+00	0	44	102	1048576	13	4335
2026-01-06 11:52:21.16	248.27	24.46	-26.7	-28.3	15.9	5.30e-06	0	44	102	1048576	13	4360
2026-01-06 11:52:22.16	248.54	24.51	-26.6	-28.2	16.0	0.00e+00	0	44	102	1048576	13	4303
2026-01-06 11:52:23.17	248.81	24.57	-26.7	-28.3	15.9	1.90e-05	0	44	102	1048576	13	4346
2026-01-06 11:52:24.18	249.09	24.62	-26.8	-28.6	15.7	1.50e-06	0	43	102	1048576	13	4435
2026-01-06 11:52:25.18	249.36	24.68	-26.9	-28.8	15.6	7.00e-07	0	44	102	1048576	13	4498
2026-01-06 11:52:26.19	249.64	24.73	-27.0	-28.6	15.5	0.00e+00	0	43	102	1048576	14	4328
2026-01-06 11:52:27.19	249.91	24.78	-26.9	-28.3	15.6	1.50e-06	0	44	102	1048576	14	4238
2026-01-06 11:52:28.19	250.19	24.83	-26.8	-28.1	15.8	0.00e+00	0	44	102	1048576	14	4177
2026-01-06 11:52:29.20	250.47	24.88	-26.8	-28.1	15.8	0.00e+00	0	43	102	1048576	14	4173
2026-01-06 11:52:30.20	250.75	24.93	-26.8	-28.2	15.7	3.00e-06	0	43	102	1048576	14	4206
2026-01-06 11:52:31.21	251.03	24.98	-26.7	-27.9	15.9	0.00e+00	0	43	102	1048576	14	4133
2026-01-06 11:52:32.22	251.31	25.03	-26.9	-28.3	15.7	0.00e+00	0	43	102	1048576	14	4224
2026-01-06 11:52:33.23	251.59	25.08	-26.9	-28.3	15.7	0.00e+00	0	43	102	1048576	14	4228
2026-01-06 11:52:34.23	251.87	25.13	-26.9	-28.3	15.7	0.00e+00	0	43	102	1048576	14	4240
2026-01-06 11:52:35.24	252.16	25.18	-27.0	-28.5	15.6	6.80e-06	0	44	102	1048576	14	4279
2026-01-06 11:52:36.25	252.44	25.22	-26.8	-28.2	15.7	0.00e+00	0	43	102	1048576	14	4206
2026-01-06 11:52:37.26	252.73	25.27	-26.8	-28.2	15.8	0.00e+00	0	43	102	1048576	14	4201
2026-01-06 11:52:38.26	253.02	25.32	-26.7	-28.0	15.9	0.00e+00	0	44	102	1048576	14	4145
2026-01-06 11:52:39.26	253.30	25.36	-26.7	-27.8	16.0	0.00e+00	0	43	102	1048576	14	4095
2026-01-06 11:52:40.27	253.59	25.40	-26.7	-27.9	15.9	0.00e+00	0	43	102	1048576	14	4125
2026-01-06 11:52:41.28	253.88	25.45	-26.8	-28.1	15.8	0.00e+00	0	43	102	1048576	14	4182
2026-01-06 11:52:42.29	254.17	25.49	-26.7	-27.8	15.9	0.00e+00	0	43	102	1048576	14	4099
2026-01-06 11:52:43.29	254.46	25.53	-26.7	-27.9	15.9	0.00e+00	0	44	102	1048576	14	4127
2026-01-06 11:52:44.30	254.75	25.57	-26.8	-28.1	15.8	0.00e+00	0	44	102	1048576	14	4183
2026-01-06 11:52:45.31	255.04	25.62	-26.7	-27.9	15.9	0.00e+00	0	44	102	1048576	14	4119
2026-01-06 11:52:46.31	255.33	25.65	-26.7	-27.9	15.9	0.00e+00	0	44	102	1048576	14	4116
2026-01-06 11:52:47.32	255.63	25.69	-26.6	-27.7	16.0	0.00e+00	0	43	102	1048576	14	4067
2026-01-06 11:52:48.33	255.92	25.73	-26.6	-27.7	16.0	0.00e+00	0	44	102	1048576	14	4078
2026-01-06 11:52:49.33	256.22	25.77	-26.6	-27.6	16.1	0.00e+00	0	44	102	1048576	14	4059
2026-01-06 11:52:50.34	256.51	25.81	-26.6	-27.7	16.0	0.00e+00	0	44	102	1048576	14	4079
2026-01-06 11:52:51.34	256.81	25.84	-26.6	-27.7	16.0	0.00e+00	0	44	102	1048576	14	4068
2026-01-06 11:52:52.35	257.10	25.88	-26.6	-27.7	16.0	0.00e+00	0	44	102	1048576	14	4086
2026-01-06 11:52:53.35	257.40	25.91	-26.6	-27.6	16.1	0.00e+00	0	43	102	1048576	14	4061
2026-01-06 11:52:54.36	257.70	25.95	-26.7	-27.8	16.0	0.00e+00	0	44	102	1048576	14	4092
2026-01-06 11:52:55.36	258.00	25.98	-26.7	-27.9	15.9	0.00e+00	0	43	102	1048576	14	4128
2026-01-06 11:52:56.37	258.30	26.01	-26.6	-27.7	16.0	0.00e+00	0	44	102	1048576	14	4065
2026-01-06 11:52:57.37	258.59	26.04	-26.6	-27.7	16.0	0.00e+00	0	44	102	1048576	14	4085
2026-01-06 11:52:58.38	258.89	26.08	-26.7	-27.9	15.9	0.00e+00	0	43	102	1048576	14	4118
2026-01-06 11:52:59.38	259.19	26.11	-26.8	-28.0	15.8	0.00e+00	0	43	102	1048576	14	4163
2026-01-06 11:53:00.38	259.49	26.13	-26.7	-28.0	15.9	0.00e+00	0	43	102	1048576	14	4156
2026-01-06 11:53:01.39	259.80	26.16	-26.8	-28.0	15.8	0.00e+00	0	44	102	1048576	14	4166
2026-01-06 11:53:02.40	260.10	26.19	-26.7	-28.0	15.9	0.00e+00	0	44	102	1048576	14	4155
2026-01-06 11:53:03.41	260.40	26.22	-26.6	-27.8	16.0	0.00e+00	0	43	102	1048576	14	4094
2026-01-06 11:53:04.42	260.71	26.24	-26.7	-27.9	15.9	0.00e+00	0	44	102	1048576	14	4141
2026-01-06 11:53:05.42	261.01	26.27	-26.8	-28.1	15.8	0.00e+00	0	43	102	1048576	14	4181
2026-01-06 11:53:06.43	261.31	26.29	-26.6	-27.6	16.0	0.00e+00	0	43	102	1048576	14	4053
2026-01-06 11:53:07.44	261.62	26.32	-26.4	-27.2	16.3	0.00e+00	0	44	102	1048576	14	3941
2026-01-06 11:53:08.44	261.92	26.34	-26.4	-27.1	16.3	0.00e+00	0	44	102	1048576	14	3923
2026-01-06 11:53:09.45	262.23	26.36	-26.5	-27.3	16.3	0.00e+00	0	44	102	1048576	14	3975
2026-01-06 11:53:10.46	262.54	26.38	-26.5	-27.4	16.2	0.00e+00	0	44	102	1048576	14	4008
2026-01-06 11:53:11.47	262.84	26.40	-26.4	-27.3	16.3	0.00e+00	0	44	102	1048576	14	3972
2026-01-06 11:53:12.48	263.15	26.42	-26.5	-27.4	16.2	0.00e+00	0	44	102	1048576	14	4007
2026-01-06 11:53:13.49	263.46	26.44	-26.6	-27.6	16.1	0.00e+00	0	44	102	1048576	14	4041
2026-01-06 11:53:14.49	263.77	26.46	-26.5	-27.5	16.2	0.00e+00	0	43	102	1048576	14	4013
2026-01-06 11:53:15.49	264.07	26.48	-26.5	-27.5	16.2	0.00e+00	0	43	102	1048576	14	4016
2026-01-06 11:53:16.50	264.38	26.49	-26.6	-27.6	16.1	0.00e+00	0	43	102	1048576	14	4046
2026-01-06 11:53:17.51	264.69	26.51	-26.8	-28.0	15.9	0.00e+00	0	43	102	1048576	14	4156
2026-01-06 11:53:18.51	265.00	26.52	-26.8	-28.0	15.8	0.00e+00	0	44	102	1048576	14	4162
2026-01-06 11:53:19.51	265.30	26.54	-26.6	-27.6	16.0	0.00e+00	0	43	102	1048576	14	4061
2026-01-06 11:53:20.52	265.61	26.55	-26.5	-27.5	16.2	0.00e+00	0	43	102	1048576	14	4013
2026-01-06 11:53:21.52	265.92	26.56	-26.5	-27.4	16.2	0.00e+00	0	44	102	1048576	14	3991
2026-01-06 11:53:22.53	266.23	26.57	-26.6	-27.7	16.0	0.00e+00	0	43	102	1048576	14	4075
2026-01-06 11:53:23.54	266.54	26.58	-26.7	-27.8	15.9	6.10e-06	0	43	102	1048576	14	4102
2026-01-06 11:53:24.55	266.85	26.59	-26.7	-28.0	15.9	0.00e+00	0	44	102	1048576	14	4136
2026-01-06 11:53:25.56	267.16	26.60	-26.9	-28.2	15.7	0.00e+00	0	44	102	1048576	14	4206
2026-01-06 11:53:26.56	267.47	26.60	-26.9	-28.4	15.7	0.00e+00	0	44	102	1048576	14	4253
2026-01-06 11:53:27.57	267.78	26.61	-26.8	-28.1	15.8	0.00e+00	0	44	102	1048576	14	4180
2026-01-06 11:53:28.57	268.09	26.62	-26.7	-27.9	15.9	0.00e+00	0	44	102	1048576	14	4130
2026-01-06 11:53:29.58	268.40	26.62	-26.8	-28.0	15.8	3.00e-06	0	44	102	1048576	14	4150
2026-01-06 11:53:30.59	268.72	26.63	-26.8	-28.1	15.8	0.00e+00	0	44	102	1048576	14	4169
2026-01-06 11:53:31.60	269.03	26.63	-27.0	-28.5	15.6	0.00e+00	0	44	102	1048576	14	4282
2026-01-06 11:53:32.60	269.34	26.63	-27.0	-28.6	15.5	3.80e-06	0	44	102	1048576	14	4322
2026-01-06 11:53:33.60	269.64	26.63	-26.8	-28.0	15.8	0.00e+00	0	44	102	1048576	14	4168
2026-01-06 11:53:34.61	269.96	26.63	-26.5	-27.4	16.2	0.00e+00	0	44	102	1048576	14	4009
2026-01-06 11:53:35.62	270.27	26.63	-26.3	-27.0	16.4	0.00e+00	0	43	102	1048576	14	3908
2026-01-06 11:53:36.62	270.58	26.63	-26.3	-27.1	16.4	0.00e+00	0	44	102	1048576	14	3917
2026-01-06 11:53:37.63	270.89	26.63	-26.3	-27.0	16.4	0.00e+00	0	44	102	1048576	14	3903
2026-01-06 11:53:38.63	271.20	26.62	-26.3	-27.4	16.5	4.50e-06	0	44	102	1048576	13	4099
2026-01-06 11:53:39.64	271.51	26.62	-26.2	-27.3	16.5	0.00e+00	0	44	102	1048576	13	4091
2026-01-06 11:53:40.65	271.82	26.61	-26.3	-27.4	16.4	0.00e+00	0	43	102	1048576	13	4102
2026-01-06 11:53:41.66	272.13	26.61	-26.3	-27.4	16.4	0.00e+00	0	43	102	1048576	13	4107
2026-01-06 11:53:42.67	272.44	26.60	-26.3	-27.4	16.4	0.00e+00	0	43	102	1048576	13	4111
2026-01-06 11:53:43.68	272.75	26.59	-26.2	-27.3	16.5	0.00e+00	0	43	102	1048576	13	4076
2026-01-06 11:53:44.69	273.06	26.59	-26.3	-27.4	16.4	7.60e-06	0	43	102	1048576	13	4098
2026-01-06 11:53:45.70	273.37	26.58	-26.2	-27.4	16.5	0.00e+00	0	44	102	1048576	13	4092
2026-01-06 11:53:46.70	273.68	26.57	-26.2	-27.2	16.5	0.00e+00	0	44	102	1048576	13	4062
2026-01-06 11:53:47.70	273.99	26.55	-26.2	-27.3	16.5	0.00e+00	0	44	102	1048576	13	4087
2026-01-06 11:53:48.71	274.30	26.54	-26.2	-27.3	16.5	0.00e+00	0	43	102	1048576	13	4083
2026-01-06 11:53:49.71	274.61	26.53	-26.3	-27.5	16.4	0.00e+00	0	44	102	1048576	13	4124
2026-01-06 11:53:50.72	274.92	26.52	-26.4	-27.6	16.4	0.00e+00	0	43	102	1048576	13	4158
2026-01-06 11:53:51.72	275.22	26.50	-26.4	-27.8	16.2	0.00e+00	0	44	102	1048576	13	4197
2026-01-06 11:53:52.72	275.53	26.49	-26.3	-27.5	16.3	0.00e+00	0	43	102	1048576	13	4135
2026-01-06 11:53:53.73	275.84	26.47	-26.2	-27.3	16.5	0.00e+00	0	43	102	1048576	13	4087
2026-01-06 11:53:54.74	276.14	26.45	-26.3	-27.4	16.4	0.00e+00	0	43	102	1048576	13	4100
2026-01-06 11:53:55.74	276.45	26.43	-26.2	-27.2	16.5	0.00e+00	0	43	102	1048576	13	4059
2026-01-06 11:53:56.75	276.76	26.41	-26.1	-26.9	16.7	0.00e+00	0	43	102	1048576	13	3986
2026-01-06 11:53:57.75	277.06	26.40	-26.1	-27.1	16.6	0.00e+00	0	43	102	1048576	13	4033
2026-01-06 11:53:58.76	277.37	26.37	-26.2	-27.2	16.5	0.00e+00	0	44	102	1048576	13	4045
2026-01-06 11:53:59.77	277.67	26.35	-26.3	-27.5	16.4	0.00e+00	0	43	102	1048576	13	4124
2026-01-06 11:54:00.78	277.98	26.33	-26.3	-27.6	16.3	0.00e+00	0	43	102	1048576	13	4145
2026-01-06 11:54:01.77	278.28	26.31	-26.4	-27.7	16.2	0.00e+00	0	43	102	1048576	13	4193
2026-01-06 11:54:02.78	278.59	26.28	-26.4	-27.6	16.3	0.00e+00	0	43	102	1048576	13	4168
2026-01-06 11:54:03.79	278.89	26.26	-26.3	-27.6	16.3	0.00e+00	0	44	102	1048576	13	4143
2026-01-06 11:54:04.80	279.19	26.23	-26.4	-27.7	16.2	0.00e+00	0	43	102	1048576	13	4192
2026-01-06 11:54:05.80	279.49	26.21	-26.3	-27.6	16.3	0.00e+00	0	44	102	1048576	13	4147
2026-01-06 11:54:06.81	279.80	26.18	-26.3	-27.5	16.4	0.00e+00	0	43	102	1048576	13	4140
2026-01-06 11:54:07.82	280.10	26.15	-26.4	-27.6	16.3	0.00e+00	0	44	102	1048576	13	4168
2026-01-06 11:54:08.83	280.40	26.12	-26.2	-27.3	16.5	0.00e+00	0	43	102	1048576	13	4080
2026-01-06 11:54:09.83	280.70	26.09	-26.1	-27.1	16.6	0.00e+00	0	44	102	1048576	13	4034
2026-01-06 11:54:10.83	281.00	26.06	-26.3	-27.4	16.4	0.00e+00	0	44	102	1048576	13	4099
2026-01-06 11:54:11.84	281.30	26.03	-26.3	-27.4	16.4	0.00e+00	0	43	102	1048576	13	4106
2026-01-06 11:54:12.84	281.60	26.00	-26.3	-27.5	16.4	0.00e+00	0	44	102	1048576	13	4119
2026-01-06 11:54:13.85	281.90	25.97	-26.3	-27.6	16.3	0.00e+00	0	43	102	1048576	13	4154
2026-01-06 11:54:14.86	282.19	25.93	-26.3	-27.6	16.3	0.00e+00	0	44	102	1048576	13	4144
2026-01-06 11:54:15.87	282.49	25.90	-26.4	-27.8	16.2	0.00e+00	0	43	102	1048576	13	4198
2026-01-06 11:54:16.87	282.79	25.86	-26.4	-27.7	16.2	0.00e+00	0	44	102	1048576	13	4172
2026-01-06 11:54:17.88	283.08	25.83	-26.3	-27.5	16.3	0.00e+00	0	44	102	1048576	13	4141
2026-01-06 11:54:18.89	283.38	25.79	-26.3	-27.6	16.3	0.00e+00	0	44	102	1048576	13	4156
2026-01-06 11:54:19.89	283.67	25.76	-26.2	-27.4	16.4	0.00e+00	0	44	102	1048576	13	4098
2026-01-06 11:54:20.89	283.96	25.72	-26.2	-27.3	16.4	0.00e+00	0	43	102	1048576	13	4090
2026-01-06 11:54:21.90	284.26	25.68	-26.3	-27.5	16.3	0.00e+00	0	43	102	1048576	13	4140
2026-01-06 11:54:22.91	284.55	25.64	-26.2	-27.4	16.4	0.00e+00	0	43	102	1048576	13	4094
2026-01-06 11:54:23.92	284.84	25.60	-26.3	-27.4	16.4	0.00e+00	0	43	102	1048576	13	4108
2026-01-06 11:54:24.92	285.13	25.56	-26.4	-27.8	16.2	0.00e+00	0	43	102	1048576	13	4206
2026-01-06 11:54:25.93	285.42	25.52	-26.4	-27.7	16.3	0.00e+00	0	43	102	1048576	13	4177
2026-01-06 11:54:26.94	285.71	25.47	-26.4	-27.7	16.3	0.00e+00	0	44	102	1048576	13	4172
2026-01-06 11:54:27.95	286.00	25.43	-26.5	-27.9	16.1	0.00e+00	0	43	102	1048576	13	4245
2026-01-06 11:54:28.95	286.29	25.39	-26.4	-27.6	16.3	0.00e+00	0	44	102	1048576	13	4169
2026-01-06 11:54:29.96	286.58	25.34	-26.3	-27.4	16.4	0.00e+00	0	43	102	1048576	13	4109
2026-01-06 11:54:30.97	286.86	25.30	-26.3	-27.5	16.3	0.00e+00	0	43	102	1048576	13	4133
2026-01-06 11:54:31.98	287.15	25.25	-26.3	-27.4	16.4	0.00e+00	0	44	102	1048576	13	4112
2026-01-06 11:54:32.99	287.43	25.21	-26.3	-27.6	16.3	0.00e+00	0	44	102	1048576	13	4153
2026-01-06 11:54:34.00	287.72	25.16	-26.3	-27.6	16.3	0.00e+00	0	43	102	1048576	13	4158
2026-01-06 11:54:35.01	288.00	25.11	-26.3	-27.6	16.3	0.00e+00	0	43	102	1048576	13	4149
2026-01-06 11:54:36.02	288.29	25.06	-26.4	-27.8	16.2	7.00e-07	0	43	102	1048576	13	4202
2026-01-06 11:54:37.02	288.56	25.02	-26.4	-27.7	16.2	0.00e+00	0	43	102	1048576	13	4188
2026-01-06 11:54:38.02	288.84	24.97	-26.5	-28.0	16.1	0.00e+00	0	43	102	1048576	13	4253
2026-01-06 11:54:39.03	289.12	24.92	-26.4	-27.8	16.2	0.00e+00	0	44	102	1048576	13	4198
2026-01-06 11:54:40.03	289.40	24.87	-26.5	-27.8	16.2	0.00e+00	0	43	102	1048576	13	4223
2026-01-06 11:54:41.04	289.68	24.81	-26.5	-27.9	16.1	7.00e-07	0	43	102	1048576	13	4251
2026-01-06 11:54:42.05	289.96	24.76	-26.5	-28.0	16.1	0.00e+00	0	44	102	1048576	13	4265
2026-01-06 11:54:43.06	290.23	24.71	-26.4	-27.8	16.1	0.00e+00	0	44	102	1048576	13	4214
2026-01-06 11:54:44.06	290.51	24.66	-26.5	-27.9	16.1	0.00e+00	0	44	102	1048576	13	4249
2026-01-06 11:54:45.07	290.78	24.60	-26.4	-27.7	16.2	0.00e+00	0	43	102	1048576	13	4186
2026-01-06 11:54:46.08	291.05	24.55	-26.4	-27.8	16.2	0.00e+00	0	43	102	1048576	13	4201
2026-01-06 11:54:47.09	291.33	24.49	-26.5	-28.0	16.1	0.00e+00	0	44	102	1048576	13	4258
2026-01-06 11:54:48.10	291.60	24.44	-26.5	-27.9	16.1	0.00e+00	0	44	102	1048576	13	4231
2026-01-06 11:54:49.11	291.87	24.38	-26.4	-27.7	16.1	0.00e+00	0	44	102	1048576	13	4194
2026-01-06 11:54:50.11	292.14	24.33	-26.5	-27.9	16.1	0.00e+00	0	43	102	1048576	13	4238
2026-01-06 11:54:51.11	292.40	24.27	-26.4	-27.6	16.2	0.00e+00	0	44	102	1048576	13	4158
2026-01-06 11:54:52.11	292.67	24.21	-26.4	-27.8	16.1	0.00e+00	0	43	102	1048576	13	4206
2026-01-06 11:54:53.12	292.94	24.16	-26.5	-27.9	16.1	0.00e+00	0	43	102	1048576	13	4225
2026-01-06 11:54:54.13	293.20	24.10	-26.6	-28.3	15.9	0.00e+00	0	43	102	1048576	13	4335
2026-01-06 11:54:55.14	293.47	24.04	-26.5	-27.9	16.0	0.00e+00	0	44	102	1048576	13	4236
2026-01-06 11:54:56.15	293.73	23.98	-26.4	-27.8	16.1	0.00e+00	0	43	102	1048576	13	4205
2026-01-06 11:54:57.15	293.99	23.92	-26.4	-27.7	16.2	0.00e+00	0	43	102	1048576	13	4195
2026-01-06 11:54:58.16	294.26	23.86	-26.5	-27.8	16.1	0.00e+00	0	43	102	1048576	13	4223
2026-01-06 11:54:59.16	294.52	23.80	-26.6	-28.2	15.9	0.00e+00	0	43	102	1048576	13	4318
2026-01-06 11:55:00.17	294.78	23.74	-26.5	-27.9	16.1	0.00e+00	0	43	102	1048576	13	4236
2026-01-06 11:55:01.18	295.03	23.68	-26.5	-27.9	16.0	0.00e+00	0	43	102	1048576	13	4253
2026-01-06 11:55:02.19	295.29	23.61	-26.6	-28.0	16.0	0.00e+00	0	43	102	1048576	13	4274
2026-01-06 11:55:03.20	295.55	23.55	-26.6	-28.3	15.9	0.00e+00	0	43	102	1048576	13	4334
2026-01-06 11:55:04.21	295.81	23.49	-26.4	-27.8	16.1	0.00e+00	0	43	102	1048576	13	4208
2026-01-06 11:55:05.20	296.06	23.43	-26.4	-27.6	16.2	0.00e+00	0	44	102	1048576	13	4157
2026-01-06 11:55:06.21	296.31	23.36	-26.4	-27.6	16.2	0.00e+00	0	43	102	1048576	13	4170
2026-01-06 11:55:07.21	296.56	23.30	-26.4	-27.6	16.2	0.00e+00	0	44	102	1048576	13	4166
2026-01-06 11:55:08.22	296.81	23.23	-26.2	-27.4	16.3	0.00e+00	0	43	102	1048576	13	4090
2026-01-06 11:55:09.23	297.07	23.17	-26.2	-27.2	16.5	0.00e+00	0	43	102	1048576	13	4044
2026-01-06 11:55:10.24	297.32	23.10	-26.2	-27.3	16.4	0.00e+00	0	44	102	1048576	13	4067
2026-01-06 11:55:11.24	297.56	23.04	-26.2	-27.3	16.4	0.00e+00	0	44	102	1048576	13	4070
2026-01-06 11:55:12.24	297.81	22.97	-26.3	-27.4	16.3	0.00e+00	0	43	102	1048576	13	4107
2026-01-06 11:55:13.25	298.06	22.90	-26.4	-27.7	16.2	0.00e+00	0	43	102	1048576	13	4177
2026-01-06 11:55:14.26	298.30	22.84	-26.3	-27.6	16.2	0.00e+00	0	44	102	1048576	13	4161
2026-01-06 11:55:15.26	298.54	22.77	-26.4	-27.8	16.1	0.00e+00	0	44	102	1048576	13	4210
2026-01-06 11:55:16.27	298.79	22.70	-26.5	-27.9	16.1	0.00e+00	0	43	102	1048576	13	4228
2026-01-06 11:55:17.28	299.03	22.64	-26.5	-28.0	16.0	0.00e+00	0	43	102	1048576	13	4257
2026-01-06 11:55:18.29	299.27	22.57	-26.5	-28.0	16.0	0.00e+00	0	43	102	1048576	13	4256
2026-01-06 11:55:19.29	299.51	22.50	-26.6	-28.0	15.9	0.00e+00	0	44	102	1048576	13	4274
2026-01-06 11:55:20.30	299.75	22.43	-26.5	-27.9	16.0	0.00e+00	0	43	102	1048576	13	4239
2026-01-06 11:55:21.31	299.99	22.36	-26.5	-27.9	16.0	0.00e+00	0	43	102	1048576	13	4232
2026-01-06 11:55:22.32	300.23	22.29	-26.5	-27.9	16.0	0.00e+00	0	44	102	1048576	13	4237
2026-01-06 11:55:23.32	300.46	22.22	-26.4	-27.7	16.1	0.00e+00	0	44	102	1048576	13	4177
2026-01-06 11:55:24.33	300.70	22.15	-26.5	-27.9	16.0	0.00e+00	0	43	102	1048576	13	4229
2026-01-06 11:55:25.34	300.93	22.08	-26.5	-28.0	16.0	0.00e+00	0	43	102	1048576	13	4261
2026-01-06 11:55:26.34	301.16	22.01	-26.3	-27.5	16.2	0.00e+00	0	44	102	1048576	13	4133
2026-01-06 11:55:27.35	301.40	21.94	-26.3	-27.5	16.2	0.00e+00	0	44	102	1048576	13	4133
2026-01-06 11:55:28.36	301.63	21.87	-26.3	-27.4	16.2	3.80e-06	0	44	102	1048576	13	4118
2026-01-06 11:55:29.36	301.86	21.80	-26.3	-27.6	16.2	0.00e+00	0	44	102	1048576	13	4146
2026-01-06 11:55:30.37	302.08	21.72	-26.4	-27.7	16.0	0.00e+00	0	43	102	1048576	13	4193
2026-01-06 11:55:31.38	302.31	21.65	-26.4	-27.8	16.1	2.20e-06	0	44	102	1048576	13	4207
2026-01-06 11:55:32.39	302.54	21.58	-26.5	-28.0	16.0	0.00e+00	0	43	102	1048576	13	4263
2026-01-06 11:55:33.39	302.76	21.51	-26.6	-28.1	15.9	0.00e+00	0	44	102	1048576	13	4302
2026-01-06 11:55:34.40	302.99	21.44	-26.6	-28.2	15.8	7.00e-07	0	43	102	1048576	13	4331
2026-01-06 11:55:35.41	303.21	21.36	-26.6	-28.2	15.8	0.00e+00	0	44	102	1048576	13	4333
2026-01-06 11:55:36.41	303.43	21.29	-26.7	-28.3	15.8	0.00e+00	0	43	102	1048576	13	4364
2026-01-06 11:55:37.42	303.66	21.22	-26.5	-28.0	15.9	3.80e-06	0	43	102	1048576	13	4281
2026-01-06 11:55:38.43	303.88	21.14	-26.5	-28.0	16.0	0.00e+00	0	44	102	1048576	13	4265
2026-01-06 11:55:39.44	304.10	21.07	-26.5	-27.9	16.0	0.00e+00	0	44	102	1048576	13	4238
2026-01-06 11:55:40.45	304.32	20.99	-26.3	-27.6	16.1	0.00e+00	0	44	102	1048576	13	4159
2026-01-06 11:55:41.45	304.53	20.92	-26.3	-27.5	16.2	0.00e+00	0	44	102	1048576	13	4147
2026-01-06 11:55:42.46	304.75	20.85	-26.4	-27.7	16.1	0.00e+00	0	43	102	1048576	13	4175
2026-01-06 11:55:43.47	304.97	20.77	-26.4	-27.7	16.1	0.00e+00	0	44	102	1048576	13	4185
2026-01-06 11:55:44.47	305.18	20.70	-26.4	-27.8	16.0	0.00e+00	0	44	102	1048576	13	4208
2026-01-06 11:55:45.48	305.39	20.62	-26.4	-27.8	16.0	0.00e+00	0	44	102	1048576	13	4222
2026-01-06 11:55:46.48	305.60	20.55	-26.5	-28.0	15.9	0.00e+00	0	44	102	1048576	13	4284
2026-01-06 11:55:47.48	305.81	20.47	-26.6	-28.2	15.8	0.00e+00	0	44	102	1048576	13	4333
2026-01-06 11:55:48.48	306.02	20.40	-26.5	-28.1	15.9	0.00e+00	0	44	102	1048576	13	4290
2026-01-06 11:55:49.49	306.23	20.32	-26.5	-28.1	15.9	0.00e+00	0	44	102	1048576	13	4287
2026-01-06 11:55:50.50	306.44	20.25	-26.5	-28.1	15.8	0.00e+00	0	44	102	1048576	13	4294
2026-01-06 11:55:51.51	306.65	20.17	-26.5	-28.0	15.9	0.00e+00	0	44	102	1048576	13	4267
2026-01-06 11:55:52.51	306.85	20.10	-26.5	-28.0	15.9	0.00e+00	0	43	102	1048576	13	4279
2026-01-06 11:55:53.52	307.06	20.02	-26.5	-28.1	15.9	0.00e+00	0	43	102	1048576	13	4289
2026-01-06 11:55:54.53	307.26	19.94	-26.5	-28.0	15.9	0.00e+00	0	44	102	1048576	13	4286
2026-01-06 11:55:55.53	307.47	19.87	-26.6	-28.2	15.8	0.00e+00	0	43	102	1048576	13	4326
2026-01-06 11:55:56.53	307.67	19.79	-26.6	-28.2	15.8	0.00e+00	0	43	102	1048576	13	4340
2026-01-06 11:55:57.53	307.87	19.72	-26.6	-28.3	15.7	0.00e+00	0	43	102	1048576	13	4350
2026-01-06 11:55:58.54	308.07	19.64	-26.7	-28.3	15.7	0.00e+00	0	44	102	1048576	13	4363
2026-01-06 11:55:59.55	308.27	19.56	-26.6	-28.3	15.7	0.00e+00	0	43	102	1048576	13	4361
2026-01-06 11:56:00.55	308.46	19.49	-26.7	-28.5	15.6	0.00e+00	0	43	102	1048576	13	4411
2026-01-06 11:56:01.56	308.66	19.41	-26.7	-28.4	15.6	0.00e+00	0	43	102	1048576	13	4381
2026-01-06 11:56:02.57	308.86	19.33	-26.6	-28.2	15.8	0.00e+00	0	43	102	1048576	13	4324
2026-01-06 11:56:03.57	309.05	19.26	-26.6	-28.2	15.8	0.00e+00	0	43	102	1048576	13	4328
2026-01-06 11:56:04.58	309.25	19.18	-26.8	-28.7	15.5	0.00e+00	0	43	102	1048576	13	4471
2026-01-06 11:56:05.58	309.44	19.10	-26.8	-28.6	15.5	0.00e+00	0	43	102	1048576	13	4447
2026-01-06 11:56:06.59	309.63	19.02	-26.7	-28.5	15.6	0.00e+00	0	43	102	1048576	13	4400
2026-01-06 11:56:07.59	309.82	18.95	-26.7	-28.4	15.6	0.00e+00	0	44	102	1048576	13	4388
2026-01-06 11:56:08.60	310.01	18.87	-26.7	-28.5	15.6	0.00e+00	0	44	102	1048576	13	4413
2026-01-06 11:56:09.61	310.20	18.79	-26.7	-28.5	15.6	0.00e+00	0	43	102	1048576	13	4419
2026-01-06 11:56:10.61	310.39	18.72	-26.8	-28.6	15.5	0.00e+00	0	44	102	1048576	13	4433
2026-01-06 11:56:11.62	310.58	18.64	-26.7	-28.4	15.6	0.00e+00	0	43	102	1048576	13	4386
2026-01-06 11:56:12.63	310.77	18.56	-26.8	-28.5	15.5	7.00e-07	0	44	102	1048576	13	4422
2026-01-06 11:56:13.64	310.95	18.48	-26.7	-28.5	15.6	7.00e-07	0	43	102	1048576	13	4418
2026-01-06 11:56:14.64	311.14	18.40	-26.7	-28.4	15.6	0.00e+00	0	44	102	1048576	13	4390
2026-01-06 11:56:15.65	311.32	18.33	-26.7	-28.5	15.6	0.00e+00	0	43	102	1048576	13	4406
2026-01-06 11:56:16.65	311.51	18.25	-26.7	-28.5	15.6	0.00e+00	0	43	102	1048576	13	4413
2026-01-06 11:56:17.65	311.69	18.17	-26.8	-28.6	15.5	0.00e+00	0	43	102	1048576	13	4445
2026-01-06 11:56:18.66	311.87	18.09	-26.8	-28.6	15.5	0.00e+00	0	43	102	1048576	13	4455
2026-01-06 11:56:19.67	312.05	18.02	-26.7	-28.4	15.7	0.00e+00	0	44	102	1048576	13	4375
2026-01-06 11:56:20.67	312.23	17.94	-26.7	-28.4	15.6	0.00e+00	0	44	102	1048576	13	4376
2026-01-06 11:56:21.67	312.40	17.86	-26.7	-28.5	15.6	0.00e+00	0	43	102	1048576	13	4405
2026-01-06 11:56:22.68	312.58	17.78	-26.8	-28.5	15.6	0.00e+00	0	43	102	1048576	13	4422
2026-01-06 11:56:23.69	312.76	17.70	-26.8	-28.7	15.5	0.00e+00	0	44	102	1048576	13	4460
2026-01-06 11:56:24.69	312.94	17.63	-26.9	-29.0	15.3	0.00e+00	0	43	102	1048576	13	4564
2026-01-06 11:56:25.70	313.11	17.55	-26.9	-28.9	15.3	0.00e+00	0	44	102	1048576	13	4539
2026-01-06 11:56:26.71	313.29	17.47	-26.9	-28.8	15.4	0.00e+00	0	44	102	1048576	13	4513
2026-01-06 11:56:27.72	313.46	17.39	-26.9	-28.9	15.3	0.00e+00	0	44	102	1048576	13	4516
2026-01-06 11:56:28.73	313.63	17.31	-27.0	-29.1	15.2	0.00e+00	0	43	102	1048576	13	4588
2026-01-06 11:56:29.74	313.81	17.24	-27.0	-28.5	15.3	0.00e+00	0	44	102	1048576	14	4308
2026-01-06 11:56:30.74	313.97	17.16	-27.0	-28.7	15.2	0.00e+00	0	44	102	1048576	14	4363
2026-01-06 11:56:31.75	314.15	17.08	-27.0	-28.6	15.2	0.00e+00	0	44	102	1048576	14	4337
2026-01-06 11:56:32.76	314.31	17.00	-27.0	-28.7	15.2	0.00e+00	0	44	102	1048576	14	4363
2026-01-06 11:56:33.77	314.48	16.93	-27.1	-28.7	15.2	0.00e+00	0	44	102	1048576	14	4374
2026-01-06 11:56:34.77	314.65	16.85	-27.2	-29.1	15.0	0.00e+00	0	44	102	1048576	14	4465
2026-01-06 11:56:35.77	314.82	16.77	-27.1	-28.9	15.0	0.00e+00	0	43	102	1048576	14	4431
2026-01-06 11:56:36.79	314.98	16.69	-27.2	-29.0	15.0	0.00e+00	0	43	102	1048576	14	4436
2026-01-06 11:56:37.79	315.15	16.61	-27.1	-29.0	15.0	7.00e-07	0	43	102	1048576	14	4434
2026-01-06 11:56:38.80	315.31	16.54	-27.2	-29.0	15.0	0.00e+00	0	43	102	1048576	14	4460
2026-01-06 11:56:39.80	315.47	16.46	-27.1	-28.8	15.1	7.00e-07	0	44	102	1048576	14	4391
2026-01-06 11:56:40.81	315.64	16.38	-27.1	-28.9	15.1	0.00e+00	0	44	102	1048576	14	4406
2026-01-06 11:56:41.82	315.80	16.30	-27.1	-29.0	15.0	7.00e-07	0	44	102	1048576	14	4431
2026-01-06 11:56:42.82	315.96	16.23	-27.3	-29.2	14.9	0.00e+00	0	43	102	1048576	14	4515
2026-01-06 11:56:43.83	316.12	16.15	-27.2	-29.0	15.0	7.00e-07	0	43	102	1048576	14	4454
2026-01-06 11:56:44.84	316.28	16.07	-27.2	-29.0	15.0	0.00e+00	0	44	102	1048576	14	4440
2026-01-06 11:56:45.85	316.44	15.99	-27.1	-28.9	15.0	0.00e+00	0	43	102	1048576	14	4425
2026-01-06 11:56:46.85	316.59	15.92	-27.2	-29.1	14.9	0.00e+00	0	43	102	1048576	14	4479
2026-01-06 11:56:47.85	316.75	15.84	-27.1	-29.0	15.0	0.00e+00	0	43	102	1048576	14	4436
2026-01-06 11:56:48.87	316.91	15.76	-27.1	-28.9	15.0	0.00e+00	0	43	102	1048576	14	4415
2026-01-06 11:56:49.87	317.06	15.68	-27.2	-29.2	14.8	7.00e-07	0	44	102	1048576	14	4508
2026-01-06 11:56:50.87	317.22	15.61	-27.3	-29.3	14.7	0.00e+00	0	44	102	1048576	14	4543
2026-01-06 11:56:51.88	317.37	15.53	-27.3	-29.4	14.7	0.00e+00	0	44	102	1048576	14	4575
2026-01-06 11:56:52.89	317.52	15.45	-27.3	-29.4	14.7	0.00e+00	0	43	102	1048576	14	4568
2026-01-06 11:56:53.89	317.67	15.38	-27.3	-29.4	14.7	0.00e+00	0	43	102	1048576	14	4578
2026-01-06 11:56:54.90	317.83	15.30	-27.5	-29.8	14.5	7.00e-07	0	44	102	1048576	14	4674
2026-01-06 11:56:55.91	317.98	15.22	-27.3	-28.8	14.7	7.00e-07	0	43	102	1048576	15	4293
2026-01-06 11:56:56.92	318.13	15.14	-27.2	-28.6	14.9	0.00e+00	0	44	102	1048576	15	4232
2026-01-06 11:56:57.93	318.28	15.07	-27.3	-28.8	14.8	7.00e-07	0	44	102	1048576	15	4275
2026-01-06 11:56:58.93	318.42	14.99	-27.3	-28.8	14.7	0.00e+00	0	43	102	1048576	15	4291
2026-01-06 11:56:59.94	318.57	14.91	-27.3	-28.9	14.7	0.00e+00	0	43	102	1048576	15	4317
2026-01-06 11:57:00.95	318.72	14.84	-27.4	-29.0	14.6	7.00e-07	0	44	102	1048576	15	4333
2026-01-06 11:57:01.95	318.86	14.76	-27.5	-29.2	14.5	7.00e-07	0	44	102	1048576	15	4403
2026-01-06 11:57:02.96	319.01	14.68	-27.5	-29.2	14.5	0.00e+00	0	44	102	1048576	15	4413
2026-01-06 11:57:03.96	319.15	14.61	-27.5	-29.4	14.4	1.50e-06	0	44	102	1048576	15	4457
2026-01-06 11:57:04.97	319.30	14.53	-27.6	-29.5	14.3	1.50e-06	0	43	102	1048576	15	4488
2026-01-06 11:57:05.95	319.44	14.46	-27.6	-29.5	14.3	7.00e-07	0	43	102	1048576	15	4505
2026-01-06 11:57:06.95	319.58	14.38	-27.7	-29.7	14.2	1.50e-06	0	44	102	1048576	15	4546
2026-01-06 11:57:07.96	319.72	14.31	-27.6	-29.6	14.3	0.00e+00	0	43	102	1048576	15	4519
2026-01-06 11:57:08.96	319.86	14.23	-27.7	-29.7	14.2	7.00e-07	0	43	102	1048576	15	4542
2026-01-06 11:57:09.97	320.00	14.15	-27.5	-29.4	14.4	1.50e-06	0	43	102	1048576	15	4444
2026-01-06 11:57:10.98	320.14	14.08	-27.5	-29.3	14.5	0.00e+00	0	44	102	1048576	15	4411
2026-01-06 11:57:11.99	320.28	14.00	-27.5	-29.4	14.3	7.00e-07	0	44	102	1048576	15	4450
2026-01-06 11:57:12.99	320.42	13.93	-27.5	-29.3	14.4	1.50e-06	0	43	102	1048576	15	4434
2026-01-06 11:57:14.00	320.56	13.85	-27.5	-29.4	14.4	7.00e-07	0	44	102	1048576	15	4446
2026-01-06 11:57:15.01	320.70	13.78	-27.5	-29.3	14.4	2.20e-06	0	44	102	1048576	15	4422
2026-01-06 11:57:16.02	320.83	13.70	-27.5	-29.4	14.4	7.00e-07	0	44	102	1048576	15	4453
2026-01-06 11:57:17.03	320.97	13.62	-27.4	-29.1	14.5	7.00e-07	0	43	102	1048576	15	4365
2026-01-06 11:57:18.03	321.10	13.55	-27.5	-29.2	14.4	7.00e-07	0	44	102	1048576	15	4404
2026-01-06 11:57:19.04	321.24	13.47	-27.6	-29.6	14.2	7.00e-07	0	44	102	1048576	15	4517
2026-01-06 11:57:20.04	321.37	13.40	-27.5	-29.2	14.5	0.00e+00	0	44	102	1048576	15	4397
2026-01-06 11:57:21.04	321.50	13.33	-27.5	-29.3	14.4	0.00e+00	0	44	102	1048576	15	4434
2026-01-06 11:57:22.05	321.64	13.25	-27.5	-29.4	14.3	7.00e-07	0	43	102	1048576	15	4448
2026-01-06 11:57:23.05	321.77	13.18	-27.7	-29.8	14.1	2.20e-06	0	44	102	1048576	15	4579
2026-01-06 11:57:24.06	321.90	13.10	-27.7	-29.8	14.1	3.00e-06	0	43	102	1048576	15	4575
2026-01-06 11:57:25.06	322.03	13.03	-27.8	-30.0	13.9	4.50e-06	0	44	102	1048576	15	4652
2026-01-06 11:57:26.06	322.16	12.95	-27.8	-30.1	13.9	3.00e-06	0	44	102	1048576	15	4674
2026-01-06 11:57:27.07	322.29	12.88	-28.2	-30.3	13.6	5.30e-06	0	44	102	1048576	16	4626
2026-01-06 11:57:28.07	322.42	12.81	-28.0	-29.9	13.9	3.80e-06	0	44	102	1048576	16	4491
2026-01-06 11:57:29.08	322.54	12.73	-27.9	-29.7	14.0	3.80e-06	0	44	102	1048576	16	4448
2026-01-06 11:57:30.09	322.67	12.66	-28.0	-29.8	13.9	2.20e-06	0	44	102	1048576	16	4471
2026-01-06 11:57:31.09	322.80	12.58	-27.9	-29.8	13.9	3.00e-06	0	44	102	1048576	16	4465
2026-01-06 11:57:32.10	322.92	12.51	-28.0	-30.0	13.8	6.10e-06	0	44	102	1048576	16	4522
2026-01-06 11:57:33.11	323.05	12.43	-28.1	-30.1	13.7	5.30e-06	0	43	102	1048576	16	4574
2026-01-06 11:57:34.11	323.18	12.36	-28.1	-30.1	13.7	4.50e-06	0	44	102	1048576	16	4565
2026-01-06 11:57:35.12	323.30	12.29	-28.1	-30.3	13.6	1.06e-05	0	44	102	1048576	16	4622
2026-01-06 11:57:36.12	323.42	12.21	-28.1	-30.2	13.6	7.60e-06	0	44	102	1048576	16	4607
2026-01-06 11:57:37.13	323.55	12.14	-28.1	-30.3	13.6	9.10e-06	0	44	102	1048576	16	4616
2026-01-06 11:57:38.13	323.67	12.07	-28.0	-30.1	13.7	8.30e-06	0	44	102	1048576	16	4547
2026-01-06 11:57:39.14	323.79	12.00	-28.1	-30.3	13.6	9.10e-06	0	44	102	1048576	16	4614
2026-01-06 11:57:40.14	323.91	11.92	-28.0	-29.9	13.8	1.06e-05	0	44	102	1048576	16	4508
2026-01-06 11:57:41.15	324.03	11.85	-27.9	-29.7	13.9	3.80e-06	0	44	102	1048576	16	4450
2026-01-06 11:57:42.16	324.15	11.78	-27.9	-29.8	13.8	6.80e-06	0	43	102	1048576	16	4474
2026-01-06 11:57:43.16	324.27	11.70	-28.0	-29.9	13.8	1.50e-06	0	43	102	1048576	16	4504
2026-01-06 11:57:44.16	324.39	11.63	-28.1	-30.2	13.6	1.14e-05	0	44	102	1048576	16	4600
2026-01-06 11:57:45.17	324.51	11.56	-28.1	-30.2	13.6	6.10e-06	0	43	102	1048576	16	4578
2026-01-06 11:57:46.17	324.63	11.49	-28.1	-30.3	13.6	8.30e-06	0	43	102	1048576	16	4614
2026-01-06 11:57:47.18	324.74	11.42	-28.2	-30.5	13.4	1.06e-05	0	43	102	1048576	16	4700
2026-01-06 11:57:48.19	324.86	11.34	-28.1	-30.2	13.6	1.14e-05	0	43	102	1048576	16	4602
2026-01-06 11:57:49.20	324.98	11.27	-28.0	-30.0	13.7	1.06e-05	0	43	102	1048576	16	4543
2026-01-06 11:57:50.20	325.09	11.20	-28.0	-30.0	13.7	6.80e-06	0	44	102	1048576	16	4532
2026-01-06 11:57:51.20	325.21	11.13	-28.1	-30.2	13.6	8.30e-06	0	43	102	1048576	16	4598
2026-01-06 11:57:52.20	325.32	11.06	-28.0	-29.9	13.8	5.30e-06	0	44	102	1048576	16	4498
2026-01-06 11:57:53.21	325.44	10.98	-28.0	-30.0	13.7	5.30e-06	0	44	102	1048576	16	4520
2026-01-06 11:57:54.22	325.55	10.91	-28.0	-30.1	13.7	4.50e-06	0	43	102	1048576	16	4546
2026-01-06 11:57:55.23	325.66	10.84	-28.1	-30.1	13.6	8.30e-06	0	43	102	1048576	16	4571
2026-01-06 11:57:56.23	325.78	10.77	-28.1	-30.2	13.6	1.14e-05	0	44	102	1048576	16	4603
2026-01-06 11:57:57.25	325.89	10.70	-28.0	-30.1	13.6	9.90e-06	0	43	102	1048576	16	4557
2026-01-06 11:57:58.25	326.00	10.63	-28.1	-30.2	13.6	1.06e-05	0	43	102	1048576	16	4591
2026-01-06 11:57:59.26	326.11	10.56	-28.1	-30.2	13.5	8.30e-06	0	43	102	1048576	16	4613
2026-01-06 11:58:00.27	326.22	10.49	-28.1	-30.3	13.5	1.37e-05	0	44	102	1048576	16	4636
2026-01-06 11:58:01.27	326.33	10.42	-28.2	-30.5	13.4	1.52e-05	0	43	102	1048576	16	4695
2026-01-06 11:58:02.27	326.44	10.35	-28.2	-30.6	13.4	1.44e-05	0	43	102	1048576	16	4708
2026-01-06 11:58:03.27	326.55	10.28	-28.1	-30.3	13.5	1.06e-05	0	43	102	1048576	16	4633
2026-01-06 11:58:04.28	326.66	10.20	-28.0	-30.1	13.7	5.30e-06	0	43	102	1048576	16	4553
2026-01-06 11:58:05.28	326.77	10.14	-28.0	-30.1	13.6	5.30e-06	0	43	102	1048576	16	4575
2026-01-06 11:58:06.28	326.87	10.07	-28.1	-30.3	13.5	9.90e-06	0	44	102	1048576	16	4618
2026-01-06 11:58:07.29	326.98	10.00	-28.0	-30.0	13.6	8.30e-06	0	44	102	1048576	16	4551
2026-01-06 11:58:08.29	327.09	9.93	-28.1	-30.2	13.5	1.52e-05	0	44	102	1048576	16	4611
2026-01-06 11:58:09.29	327.19	9.86	-28.0	-30.1	13.6	3.80e-06	0	44	102	1048576	16	4551
2026-01-06 11:58:10.29	327.30	9.79	-28.1	-30.2	13.5	7.60e-06	0	43	102	1048576	16	4596
2026-01-06 11:58:11.29	327.40	9.72	-28.2	-30.5	13.3	2.13e-05	0	43	102	1048576	16	4690
2026-01-06 11:58:12.30	327.51	9.65	-28.1	-30.3	13.4	1.14e-05	0	43	102	1048576	16	4643
2026-01-06 11:58:13.31	327.61	9.58	-28.2	-30.5	13.3	9.10e-06	0	44	102	1048576	16	4679
2026-01-06 11:58:14.31	327.71	9.51	-28.2	-30.6	13.2	2.28e-05	0	44	102	1048576	16	4739
2026-01-06 11:58:15.32	327.82	9.44	-28.3	-30.7	13.1	3.35e-05	0	43	102	1048576	16	4762
2026-01-06 11:58:16.32	327.92	9.37	-28.3	-30.8	13.1	3.58e-05	0	43	102	1048576	16	4800
2026-01-06 11:58:17.33	328.02	9.30	-28.4	-31.0	13.0	4.73e-05	0	44	102	1048576	16	4863
2026-01-06 11:58:18.33	328.12	9.24	-28.4	-30.9	13.0	5.26e-05	0	43	102	1048576	16	4840
2026-01-06 11:58:19.34	328.22	9.17	-28.4	-31.1	12.9	4.04e-05	0	43	102	1048576	16	4894
2026-01-06 11:58:20.34	328.33	9.10	-28.4	-31.1	12.9	4.80e-05	0	43	102	1048576	16	4889
2026-01-06 11:58:21.34	328.42	9.03	-28.5	-31.2	12.8	5.03e-05	0	44	102	1048576	16	4942
2026-01-06 11:58:22.35	328.53	8.96	-28.4	-31.2	12.8	6.33e-05	0	43	102	1048576	16	4921
2026-01-06 11:58:23.35	328.62	8.89	-28.6	-31.0	12.6	8.46e-05	0	43	102	1048576	17	4772
2026-01-06 11:58:24.36	328.72	8.83	-28.7	-31.3	12.4	1.88e-04	0	44	102	1048576	17	4867
2026-01-06 11:58:25.36	328.82	8.76	-28.6	-31.0	12.6	8.46e-05	0	43	102	1048576	17	4754
2026-01-06 11:58:26.37	328.92	8.69	-28.4	-30.6	12.8	4.95e-05	0	44	102	1048576	17	4633
2026-01-06 11:58:27.38	329.02	8.62	-28.4	-30.7	12.8	5.87e-05	0	43	102	1048576	17	4650
2026-01-06 11:58:28.39	329.12	8.55	-28.4	-30.6	12.8	5.95e-05	0	44	102	1048576	17	4631
2026-01-06 11:58:29.40	329.21	8.49	-28.4	-30.6	12.8	4.57e-05	0	43	102	1048576	17	4637
2026-01-06 11:58:30.41	329.31	8.42	-28.4	-30.7	12.7	7.09e-05	0	44	102	1048576	17	4684
2026-01-06 11:58:31.41	329.41	8.35	-28.3	-30.5	12.9	4.73e-05	0	43	102	1048576	17	4611
2026-01-06 11:58:32.42	329.50	8.28	-28.4	-30.7	12.8	5.56e-05	0	43	102	1048576	17	4668
2026-01-06 11:58:33.43	329.60	8.22	-28.5	-30.9	12.7	8.46e-05	0	43	102	1048576	17	4725
2026-01-06 11:58:34.43	329.69	8.15	-28.5	-30.7	12.7	6.25e-05	0	43	102	1048576	17	4676
2026-01-06 11:58:35.45	329.79	8.08	-28.6	-31.0	12.6	9.23e-05	0	43	102	1048576	17	4758
2026-01-06 11:58:36.45	329.88	8.02	-28.6	-31.1	12.5	1.27e-04	0	43	102	1048576	17	4785
2026-01-06 11:58:37.46	329.98	7.95	-28.6	-31.1	12.5	1.11e-04	0	44	102	1048576	17	4803
2026-01-06 11:58:38.47	330.07	7.88	-28.5	-30.9	12.6	9.07e-05	0	44	102	1048576	17	4724
2026-01-06 11:58:39.48	330.16	7.82	-28.6	-31.2	12.4	1.40e-04	0	44	102	1048576	17	4827
2026-01-06 11:58:40.48	330.25	7.75	-28.7	-31.4	12.2	2.18e-04	0	43	102	1048576	17	4914
2026-01-06 11:58:41.49	330.35	7.68	-28.5	-30.9	12.5	9.91e-05	0	43	102	1048576	17	4739
2026-01-06 11:58:42.49	330.44	7.62	-28.6	-31.1	12.4	1.21e-04	0	43	102	1048576	17	4809
2026-01-06 11:58:43.50	330.53	7.55	-28.6	-31.2	12.3	1.59e-04	0	43	102	1048576	17	4837
2026-01-06 11:58:44.51	330.62	7.49	-28.6	-31.1	12.4	1.43e-04	0	43	102	1048576	17	4811
2026-01-06 11:58:45.52	330.71	7.42	-28.7	-31.4	12.2	1.99e-04	0	43	102	1048576	17	4892
2026-01-06 11:58:46.52	330.80	7.36	-28.8	-31.5	12.2	2.17e-04	0	44	102	1048576	17	4944
2026-01-06 11:58:47.54	330.89	7.29	-28.8	-31.7	12.0	3.36e-04	0	44	102	1048576	17	5023
2026-01-06 11:58:48.54	330.98	7.23	-28.9	-31.8	12.0	2.91e-04	0	43	102	1048576	17	5026
2026-01-06 11:58:49.55	331.07	7.16	-28.9	-31.9	11.9	3.91e-04	0	44	102	1048576	17	5064
2026-01-06 11:58:50.56	331.16	7.09	-28.9	-31.8	12.0	3.47e-04	0	43	102	1048576	17	5026
2026-01-06 11:58:51.56	331.25	7.03	-32.7	-44.4	3.8	3.67e-01	0	44	104	1048576	25	13703

#Closed at: 2026-01-06 11:58:52
#Recorded file [1 MB]: D:/data/31010_260106_144948.dat