passes_logs/2026/01/06/R2M6_AANII_01/R2M6_AANII_01__20260106_014413_FENGYUN_3D_rec.log

#Pass ID: 20260106_014413_FENGYUN 3D
#Satellite: FENGYUN 3D
#Configuration: FENGYUN 3D
#almurnet v.1.7.20240730
#Start time: 2026-01-06 01:44:15

#Version: 2.2.20231116
#Station: R2M6_AANII_01
#Location: 30.233357 lon 59.946436 lat
#TLE: 1 43010U 17072A   26005.48915933 -.00000051  00000+0 -21983-5 0  9995
#TLE: 2 43010  98.9919 337.1582 0002001 124.6377 235.4988 14.19691925421909

#Time	Az	El	Level	Level2	SNR	BER	BlckErr	Temp	State	Recorded	gain1	gain2
2026-01-06 01:44:15.37	22.64	7.15	-33.9	-45.3	3.8	8.46e-01	0	44	0	0	27	13426
2026-01-06 01:44:16.37	22.68	7.23	-33.9	-44.8	3.8	8.46e-01	0	44	104	0	28	12612
2026-01-06 01:44:17.37	22.72	7.30	-33.9	-44.8	3.8	8.46e-01	0	44	104	0	28	12694
2026-01-06 01:44:18.37	22.76	7.38	-33.9	-44.8	3.8	8.46e-01	0	44	104	0	28	12676
2026-01-06 01:44:19.38	22.80	7.45	-34.0	-45.5	3.8	8.45e-01	0	44	104	0	27	13577
2026-01-06 01:44:20.39	22.85	7.53	-34.0	-45.4	3.8	8.47e-01	0	43	104	0	27	13508
2026-01-06 01:44:21.39	22.89	7.61	-34.0	-45.4	3.8	8.46e-01	0	44	104	0	27	13510
2026-01-06 01:44:22.40	22.93	7.68	-34.0	-45.5	3.8	8.46e-01	0	43	104	0	27	13548
2026-01-06 01:44:23.41	22.98	7.76	-34.0	-45.5	3.8	8.45e-01	0	43	104	0	27	13565
2026-01-06 01:44:24.41	23.02	7.84	-34.0	-45.5	3.8	8.47e-01	0	44	104	0	27	13540
2026-01-06 01:44:25.41	23.06	7.91	-34.0	-45.5	3.8	8.46e-01	0	44	104	0	27	13569
2026-01-06 01:44:26.42	23.11	7.99	-34.0	-44.9	3.8	8.45e-01	0	44	104	0	28	12741
2026-01-06 01:44:27.43	23.15	8.07	-33.9	-44.9	3.8	8.46e-01	0	44	104	0	28	12788
2026-01-06 01:44:28.43	23.20	8.15	-33.9	-44.9	3.8	8.47e-01	0	44	104	0	28	12783
2026-01-06 01:44:29.44	23.24	8.23	-33.9	-44.8	3.8	8.46e-01	0	44	104	0	28	12647
2026-01-06 01:44:30.45	23.29	8.30	-33.9	-45.3	3.8	8.46e-01	0	43	104	0	27	13412
2026-01-06 01:44:31.46	23.33	8.38	-33.8	-45.2	3.8	8.46e-01	0	44	104	0	27	13368
2026-01-06 01:44:32.46	23.38	8.46	-33.8	-45.1	3.8	8.46e-01	0	44	104	0	27	13264
2026-01-06 01:44:33.47	23.42	8.54	-33.7	-44.9	3.8	8.46e-01	0	44	104	0	27	13125
2026-01-06 01:44:34.48	23.47	8.62	-33.6	-44.8	3.8	8.47e-01	0	44	104	0	27	13049
2026-01-06 01:44:35.49	23.52	8.70	-33.6	-44.7	3.8	8.45e-01	0	44	104	0	27	12952
2026-01-06 01:44:36.49	23.56	8.78	-33.5	-44.6	3.8	8.47e-01	0	44	104	0	27	12898
2026-01-06 01:44:37.50	23.61	8.86	-33.5	-44.5	3.8	8.45e-01	0	44	104	0	27	12814
2026-01-06 01:44:38.51	23.66	8.94	-33.4	-44.8	3.8	8.45e-01	0	44	104	0	26	13510
2026-01-06 01:44:39.51	23.70	9.02	-33.3	-44.7	3.8	8.46e-01	0	44	104	0	26	13399
2026-01-06 01:44:40.52	23.75	9.10	-33.1	-44.4	3.8	8.46e-01	0	44	104	0	26	13276
2026-01-06 01:44:41.52	23.80	9.18	-33.1	-44.2	3.8	8.46e-01	0	44	104	0	26	12923
2026-01-06 01:44:42.53	23.84	9.26	-33.0	-44.0	3.8	8.46e-01	0	44	104	0	26	12795
2026-01-06 01:44:43.54	23.89	9.34	-32.5	-41.9	3.8	8.46e-01	0	44	104	0	25	10625
2026-01-06 01:44:44.54	23.94	9.43	-31.8	-38.5	5.0	8.34e-01	0	44	104	0	23	7729
2026-01-06 01:44:45.55	23.99	9.51	-31.8	-38.1	5.2	7.54e-01	0	44	0	0	23	7474
2026-01-06 01:44:46.55	24.04	9.59	-31.7	-37.7	5.4	7.21e-01	0	44	0	0	23	7232
2026-01-06 01:44:47.55	24.09	9.67	-31.5	-37.1	5.8	5.14e-01	0	44	102	1048576	23	6815
2026-01-06 01:44:48.55	24.14	9.75	-31.4	-36.6	6.0	3.95e-01	0	44	102	1048576	23	6565
2026-01-06 01:44:49.56	24.19	9.84	-31.2	-36.3	6.5	2.93e-01	0	44	102	1048576	22	6450
2026-01-06 01:44:50.57	24.24	9.92	-31.0	-35.7	6.9	2.19e-01	0	44	102	1048576	22	6161
2026-01-06 01:44:51.58	24.29	10.00	-30.7	-34.6	7.6	1.39e-01	0	44	102	1048576	22	5623
2026-01-06 01:44:52.58	24.34	10.09	-30.3	-33.8	8.4	7.21e-02	0	44	102	1048576	21	5406
2026-01-06 01:44:53.59	24.39	10.17	-30.0	-33.4	9.1	3.28e-02	0	44	102	1048576	20	5314
2026-01-06 01:44:54.60	24.44	10.26	-29.5	-32.1	10.0	1.44e-02	0	44	102	1048576	20	4840
2026-01-06 01:44:55.60	24.49	10.34	-29.1	-32.0	10.8	3.59e-03	0	44	102	1048576	18	4986
2026-01-06 01:44:56.61	24.54	10.43	-28.9	-31.4	11.2	2.44e-03	0	44	102	1048576	18	4804
2026-01-06 01:44:57.61	24.59	10.51	-28.5	-30.4	11.8	7.86e-04	0	44	102	1048576	18	4477
2026-01-06 01:44:58.62	24.64	10.60	-28.4	-30.6	12.0	5.93e-04	0	44	102	1048576	17	4637
2026-01-06 01:44:59.63	24.69	10.68	-28.3	-30.9	12.1	4.35e-04	0	44	102	1048576	16	4841
2026-01-06 01:45:00.63	24.75	10.77	-28.1	-30.4	12.4	2.60e-04	0	44	102	1048576	16	4701
2026-01-06 01:45:01.63	24.80	10.85	-28.4	-31.1	11.9	3.89e-04	0	44	102	1048576	16	4930
2026-01-06 01:45:02.65	24.85	10.94	-28.8	-31.6	11.3	1.32e-03	0	44	102	1048576	17	4986
2026-01-06 01:45:03.65	24.91	11.03	-28.9	-32.0	11.1	2.30e-03	0	44	102	1048576	17	5102
2026-01-06 01:45:04.66	24.96	11.12	-29.2	-32.1	10.8	3.88e-03	0	44	102	1048576	18	5041
2026-01-06 01:45:05.66	25.01	11.20	-29.1	-31.9	10.9	3.11e-03	0	44	102	1048576	18	4974
2026-01-06 01:45:06.67	25.07	11.29	-29.5	-32.5	10.2	6.55e-03	0	44	102	1048576	19	5070
2026-01-06 01:45:07.68	25.12	11.38	-29.6	-32.8	10.0	1.26e-02	0	44	102	1048576	19	5183
2026-01-06 01:45:08.69	25.18	11.47	-29.3	-31.9	10.6	5.06e-03	0	44	102	1048576	19	4851
2026-01-06 01:45:09.69	25.23	11.56	-28.9	-30.8	11.3	2.76e-03	0	44	102	1048576	19	4489
2026-01-06 01:45:10.70	25.29	11.65	-28.7	-31.3	11.6	9.51e-04	0	44	102	1048576	17	4872
2026-01-06 01:45:11.70	25.34	11.73	-28.7	-31.4	11.5	1.28e-03	0	44	102	1048576	17	4889
2026-01-06 01:45:12.70	25.40	11.82	-28.4	-30.5	12.1	5.39e-04	0	44	102	1048576	17	4599
2026-01-06 01:45:13.71	25.45	11.91	-27.9	-29.7	12.9	1.17e-04	0	44	102	1048576	16	4473
2026-01-06 01:45:14.72	25.51	12.00	-27.3	-28.9	13.5	2.63e-05	0	44	102	1048576	15	4336
2026-01-06 01:45:15.72	25.57	12.09	-26.8	-28.4	14.1	2.20e-06	0	44	102	1048576	14	4295
2026-01-06 01:45:16.71	25.62	12.18	-26.5	-28.2	13.9	1.10e-06	0	44	102	1048576	13	4362
2026-01-06 01:45:17.71	25.68	12.27	-26.2	-27.5	14.9	0.00e+00	0	44	102	1048576	13	4173
2026-01-06 01:45:18.72	25.74	12.37	-26.1	-27.2	15.0	0.00e+00	0	44	102	1048576	13	4098
2026-01-06 01:45:19.73	25.80	12.46	-26.1	-27.7	15.1	2.02e-04	0	44	102	1048576	12	4337
2026-01-06 01:45:20.73	25.86	12.55	-26.4	-28.3	14.7	0.00e+00	0	44	102	1048576	12	4500
2026-01-06 01:45:21.74	25.92	12.64	-26.4	-27.9	14.6	0.00e+00	0	44	102	1048576	13	4284
2026-01-06 01:45:22.75	25.98	12.73	-26.0	-27.0	15.1	0.00e+00	0	44	102	1048576	13	4046
2026-01-06 01:45:23.76	26.03	12.83	-25.7	-26.8	15.6	0.00e+00	0	44	102	1048576	12	4083
2026-01-06 01:45:24.77	26.10	12.92	-25.5	-26.3	15.8	1.19e-04	0	44	102	1048576	12	3966
2026-01-06 01:45:25.78	26.16	13.02	-25.6	-27.1	15.8	0.00e+00	0	44	102	1048576	11	4284
2026-01-06 01:45:26.79	26.22	13.11	-25.6	-27.1	15.8	0.00e+00	0	44	102	1048576	11	4270
2026-01-06 01:45:27.79	26.28	13.20	-25.5	-26.9	15.9	0.00e+00	0	44	102	1048576	11	4221
2026-01-06 01:45:28.80	26.34	13.30	-25.6	-27.0	15.8	1.49e-04	0	44	102	1048576	11	4255
2026-01-06 01:45:29.80	26.40	13.39	-25.4	-26.7	16.0	0.00e+00	0	44	102	1048576	11	4172
2026-01-06 01:45:30.81	26.46	13.49	-25.5	-27.3	16.0	9.76e-04	0	44	102	1048576	10	4440
2026-01-06 01:45:31.82	26.53	13.59	-25.4	-26.8	16.0	2.52e-04	0	44	102	1048576	11	4188
2026-01-06 01:45:32.82	26.59	13.68	-25.4	-26.7	16.0	0.00e+00	0	44	102	1048576	11	4175
2026-01-06 01:45:33.84	26.65	13.78	-25.3	-26.8	16.2	3.70e-04	0	44	102	1048576	10	4311
2026-01-06 01:45:34.84	26.72	13.88	-25.6	-27.0	15.9	0.00e+00	0	44	102	1048576	11	4246
2026-01-06 01:45:35.85	26.78	13.97	-25.4	-26.7	16.0	0.00e+00	0	44	102	1048576	11	4172
2026-01-06 01:45:36.86	26.84	14.07	-25.2	-26.8	16.3	4.23e-04	0	44	102	1048576	10	4298
2026-01-06 01:45:37.87	26.91	14.17	-25.4	-27.0	16.1	1.22e-03	0	44	102	1048576	10	4375
2026-01-06 01:45:38.87	26.97	14.27	-25.2	-26.7	16.3	0.00e+00	0	44	102	1048576	10	4270
2026-01-06 01:45:39.88	27.04	14.37	-25.2	-26.7	16.3	1.15e-03	0	44	102	1048576	10	4289
2026-01-06 01:45:40.89	27.11	14.47	-25.2	-26.7	16.3	1.10e-03	0	44	102	1048576	10	4289
2026-01-06 01:45:41.89	27.17	14.56	-25.2	-26.7	16.3	0.00e+00	0	44	102	1048576	10	4276
2026-01-06 01:45:42.89	27.24	14.66	-25.3	-27.0	16.1	1.15e-03	0	44	102	1048576	10	4365
2026-01-06 01:45:43.90	27.31	14.76	-25.4	-27.1	16.1	6.86e-04	0	44	102	1048576	10	4384
2026-01-06 01:45:44.91	27.37	14.86	-25.3	-26.9	16.2	0.00e+00	0	44	102	1048576	10	4334
2026-01-06 01:45:45.91	27.44	14.97	-25.7	-27.2	15.8	3.70e-04	0	44	102	1048576	11	4315
2026-01-06 01:45:46.92	27.51	15.07	-25.5	-26.8	16.0	9.12e-04	0	44	102	1048576	11	4193
2026-01-06 01:45:47.92	27.58	15.17	-25.4	-26.7	16.1	0.00e+00	0	44	102	1048576	11	4170
2026-01-06 01:45:48.93	27.65	15.27	-25.6	-27.0	15.9	5.23e-04	0	44	102	1048576	11	4261
2026-01-06 01:45:49.93	27.72	15.37	-25.4	-27.1	16.1	6.29e-04	0	44	102	1048576	10	4379
2026-01-06 01:45:50.94	27.79	15.48	-25.3	-27.0	16.2	0.00e+00	0	44	102	1048576	10	4360
2026-01-06 01:45:51.94	27.86	15.58	-25.7	-27.2	15.8	5.25e-04	0	44	102	1048576	11	4308
2026-01-06 01:45:52.95	27.93	15.68	-25.3	-26.5	16.2	0.00e+00	0	44	102	1048576	11	4114
2026-01-06 01:45:53.96	28.00	15.79	-25.0	-25.8	16.6	0.00e+00	0	44	102	1048576	11	3928
2026-01-06 01:45:54.97	28.08	15.89	-25.0	-26.2	16.7	4.34e-04	0	44	102	1048576	10	4136
2026-01-06 01:45:55.98	28.15	16.00	-24.8	-25.9	16.9	3.68e-04	0	44	102	1048576	10	4058
2026-01-06 01:45:56.98	28.22	16.10	-24.8	-25.7	16.9	0.00e+00	0	44	102	1048576	10	4030
2026-01-06 01:45:57.98	28.29	16.21	-25.1	-26.5	16.5	4.75e-04	0	44	102	1048576	10	4217
2026-01-06 01:45:58.99	28.37	16.31	-24.9	-26.0	16.8	7.30e-04	0	44	102	1048576	10	4093
2026-01-06 01:46:00.00	28.44	16.42	-24.8	-25.8	16.9	0.00e+00	0	44	102	1048576	10	4044
2026-01-06 01:46:01.00	28.52	16.53	-24.8	-26.2	16.9	7.16e-04	0	44	102	1048576	9	4264
2026-01-06 01:46:02.01	28.59	16.64	-24.8	-26.3	16.9	0.00e+00	0	44	102	1048576	9	4271
2026-01-06 01:46:03.01	28.67	16.74	-25.0	-26.3	16.6	0.00e+00	0	44	102	1048576	10	4183
2026-01-06 01:46:04.01	28.75	16.85	-24.8	-25.8	16.9	0.00e+00	0	44	102	1048576	10	4054
2026-01-06 01:46:05.02	28.82	16.96	-24.6	-25.9	17.1	0.00e+00	0	44	102	1048576	9	4180
2026-01-06 01:46:06.02	28.90	17.07	-24.7	-26.2	17.0	0.00e+00	0	44	102	1048576	9	4255
2026-01-06 01:46:07.03	28.98	17.18	-24.6	-25.9	17.1	0.00e+00	0	44	102	1048576	9	4187
2026-01-06 01:46:08.04	29.06	17.29	-24.4	-25.5	17.3	7.63e-04	0	44	102	1048576	9	4080
2026-01-06 01:46:09.05	29.14	17.40	-24.4	-25.4	17.4	0.00e+00	0	44	102	1048576	9	4048
2026-01-06 01:46:10.04	29.22	17.51	-24.4	-26.0	17.3	7.35e-04	0	44	102	1048576	8	4319
2026-01-06 01:46:11.04	29.30	17.62	-24.3	-25.8	17.5	0.00e+00	0	44	102	1048576	8	4253
2026-01-06 01:46:12.05	29.38	17.73	-24.5	-26.1	17.3	0.00e+00	0	44	102	1048576	8	4356
2026-01-06 01:46:13.06	29.46	17.84	-24.3	-25.7	17.5	0.00e+00	0	44	102	1048576	8	4235
2026-01-06 01:46:14.06	29.54	17.96	-24.1	-25.3	17.7	0.00e+00	0	44	102	1048576	8	4126
2026-01-06 01:46:15.06	29.62	18.07	-24.2	-25.4	17.6	0.00e+00	0	44	102	1048576	8	4170
2026-01-06 01:46:16.07	29.71	18.18	-24.0	-25.1	17.8	0.00e+00	0	44	102	1048576	8	4095
2026-01-06 01:46:17.08	29.79	18.30	-24.4	-26.0	17.4	0.00e+00	0	44	102	1048576	8	4308
2026-01-06 01:46:18.08	29.88	18.41	-24.2	-25.4	17.7	0.00e+00	0	44	102	1048576	8	4169
2026-01-06 01:46:19.09	29.96	18.53	-24.1	-25.4	17.7	0.00e+00	0	44	102	1048576	8	4166
2026-01-06 01:46:20.10	30.05	18.64	-24.3	-25.7	17.5	0.00e+00	0	44	102	1048576	8	4244
2026-01-06 01:46:21.11	30.13	18.76	-24.1	-25.3	17.7	0.00e+00	0	44	102	1048576	8	4130
2026-01-06 01:46:22.11	30.22	18.88	-24.1	-25.3	17.8	0.00e+00	0	44	102	1048576	8	4124
2026-01-06 01:46:23.12	30.31	18.99	-24.1	-25.3	17.8	0.00e+00	0	44	102	1048576	8	4140
2026-01-06 01:46:24.13	30.40	19.11	-24.0	-25.1	17.9	0.00e+00	0	44	102	1048576	8	4074
2026-01-06 01:46:25.13	30.48	19.23	-24.0	-25.0	17.9	0.00e+00	0	44	102	1048576	8	4063
2026-01-06 01:46:26.13	30.57	19.35	-24.1	-25.4	17.7	0.00e+00	0	44	102	1048576	8	4155
2026-01-06 01:46:27.14	30.66	19.47	-23.9	-24.9	18.0	0.00e+00	0	44	102	1048576	8	4032
2026-01-06 01:46:28.15	30.76	19.59	-23.8	-25.1	18.1	0.00e+00	0	44	102	1048576	7	4202
2026-01-06 01:46:29.15	30.85	19.71	-23.8	-25.2	18.1	0.00e+00	0	44	102	1048576	7	4218
2026-01-06 01:46:30.16	30.94	19.83	-24.0	-25.1	17.9	0.00e+00	0	44	102	1048576	8	4091
2026-01-06 01:46:31.16	31.03	19.95	-23.9	-25.0	18.0	0.00e+00	0	44	102	1048576	8	4047
2026-01-06 01:46:32.17	31.13	20.07	-23.8	-24.7	18.1	0.00e+00	0	44	102	1048576	8	3987
2026-01-06 01:46:33.17	31.22	20.19	-24.1	-25.3	17.8	0.00e+00	0	44	102	1048576	8	4126
2026-01-06 01:46:34.18	31.32	20.32	-23.9	-24.9	18.0	0.00e+00	0	44	102	1048576	8	4028
2026-01-06 01:46:35.18	31.41	20.44	-23.9	-25.3	18.0	0.00e+00	0	44	102	1048576	7	4257
2026-01-06 01:46:36.19	31.51	20.56	-23.9	-25.4	18.0	0.00e+00	0	44	102	1048576	7	4274
2026-01-06 01:46:37.20	31.61	20.69	-24.0	-25.5	17.9	0.00e+00	0	44	102	1048576	7	4311
2026-01-06 01:46:38.20	31.70	20.81	-24.1	-25.3	17.8	0.00e+00	0	44	102	1048576	8	4147
2026-01-06 01:46:39.21	31.80	20.94	-24.2	-25.5	17.7	0.00e+00	0	44	102	1048576	8	4185
2026-01-06 01:46:40.21	31.90	21.06	-23.9	-25.0	18.0	0.00e+00	0	44	102	1048576	8	4054
2026-01-06 01:46:41.22	32.00	21.19	-23.9	-24.8	18.1	0.00e+00	0	44	102	1048576	8	4008
2026-01-06 01:46:42.23	32.10	21.32	-23.6	-24.3	17.9	0.00e+00	0	44	102	1048576	8	3884
2026-01-06 01:46:43.24	32.21	21.45	-23.7	-25.0	16.2	0.00e+00	0	44	102	1048576	7	4179
2026-01-06 01:46:44.24	32.31	21.58	-23.7	-25.0	18.2	0.00e+00	0	44	102	1048576	7	4161
2026-01-06 01:46:45.25	32.41	21.71	-23.7	-25.1	18.1	0.00e+00	0	44	102	1048576	7	4185
2026-01-06 01:46:46.26	32.52	21.84	-23.5	-24.6	18.4	0.00e+00	0	44	102	1048576	7	4073
2026-01-06 01:46:47.26	32.62	21.96	-23.4	-24.4	18.5	0.00e+00	0	44	102	1048576	7	4024
2026-01-06 01:46:48.27	32.73	22.10	-23.4	-24.4	18.6	0.00e+00	0	44	102	1048576	7	4024
2026-01-06 01:46:49.28	32.84	22.23	-23.5	-24.6	18.5	0.00e+00	0	44	102	1048576	7	4066
2026-01-06 01:46:50.28	32.94	22.36	-23.5	-24.6	18.5	0.00e+00	0	44	102	1048576	7	4059
2026-01-06 01:46:51.29	33.05	22.49	-23.5	-24.6	18.5	0.00e+00	0	44	102	1048576	7	4071
2026-01-06 01:46:52.30	33.16	22.63	-23.6	-24.7	18.4	0.00e+00	0	44	102	1048576	7	4097
2026-01-06 01:46:53.30	33.27	22.76	-23.5	-24.5	18.5	0.00e+00	0	44	102	1048576	7	4037
2026-01-06 01:46:54.31	33.38	22.89	-23.4	-24.3	18.6	0.00e+00	0	44	102	1048576	7	4006
2026-01-06 01:46:55.31	33.50	23.03	-23.4	-24.3	18.6	4.35e-04	0	44	102	1048576	7	3990
2026-01-06 01:46:56.32	33.61	23.16	-23.2	-24.0	18.8	0.00e+00	0	44	102	1048576	7	3918
2026-01-06 01:46:57.33	33.72	23.30	-23.2	-24.4	18.8	4.74e-04	0	44	102	1048576	6	4134
2026-01-06 01:46:58.34	33.84	23.44	-23.2	-24.3	18.9	1.45e-04	0	44	102	1048576	6	4114
2026-01-06 01:46:59.35	33.96	23.57	-23.0	-24.1	19.0	0.00e+00	0	44	102	1048576	6	4054
2026-01-06 01:47:00.35	34.07	23.71	-23.1	-24.2	18.9	5.38e-04	0	44	102	1048576	6	4088
2026-01-06 01:47:01.36	34.19	23.85	-23.1	-24.3	18.9	0.00e+00	0	44	102	1048576	6	4094
2026-01-06 01:47:02.37	34.31	23.99	-23.2	-24.4	18.8	0.00e+00	0	44	102	1048576	6	4125
2026-01-06 01:47:03.37	34.43	24.13	-23.2	-24.5	18.8	0.00e+00	0	44	102	1048576	6	4144
2026-01-06 01:47:04.37	34.55	24.27	-23.1	-24.3	18.9	4.98e-04	0	44	102	1048576	6	4098
2026-01-06 01:47:05.38	34.67	24.41	-23.2	-24.3	18.9	0.00e+00	0	44	102	1048576	6	4112
2026-01-06 01:47:06.39	34.80	24.55	-23.2	-24.4	18.9	4.58e-04	0	44	102	1048576	6	4121
2026-01-06 01:47:07.40	34.92	24.69	-23.2	-24.5	18.8	2.84e-04	0	44	102	1048576	6	4153
2026-01-06 01:47:08.40	35.05	24.84	-23.2	-24.4	18.9	0.00e+00	0	44	102	1048576	6	4126
2026-01-06 01:47:09.40	35.17	24.98	-23.4	-24.8	18.7	2.29e-04	0	44	102	1048576	6	4240
2026-01-06 01:47:10.41	35.30	25.12	-23.4	-24.3	18.7	1.60e-04	0	44	102	1048576	7	3996
2026-01-06 01:47:11.41	35.43	25.27	-23.2	-23.9	18.9	0.00e+00	0	44	102	1048576	7	3911
2026-01-06 01:47:12.42	35.56	25.41	-23.1	-23.6	19.0	2.56e-04	0	44	102	1048576	7	3830
2026-01-06 01:47:13.43	35.69	25.56	-23.2	-24.3	18.9	2.76e-04	0	44	102	1048576	6	4108
2026-01-06 01:47:14.44	35.83	25.71	-23.0	-24.0	19.1	0.00e+00	0	44	102	1048576	6	4025
2026-01-06 01:47:15.44	35.96	25.86	-22.9	-23.8	19.2	2.61e-04	0	44	102	1048576	6	3988
2026-01-06 01:47:16.44	36.09	26.00	-23.0	-24.0	19.1	0.00e+00	0	44	102	1048576	6	4036
2026-01-06 01:47:17.45	36.23	26.15	-23.0	-24.1	19.0	0.00e+00	0	44	102	1048576	6	4049
2026-01-06 01:47:18.45	36.37	26.30	-22.9	-23.7	19.3	2.95e-04	0	44	102	1048576	6	3962
2026-01-06 01:47:19.45	36.50	26.45	-22.9	-23.8	19.2	2.91e-04	0	44	102	1048576	6	3995
2026-01-06 01:47:20.46	36.64	26.60	-23.0	-24.1	19.1	0.00e+00	0	44	102	1048576	6	4047
2026-01-06 01:47:21.46	36.78	26.75	-23.3	-24.6	18.8	2.43e-04	0	44	102	1048576	6	4168
2026-01-06 01:47:22.46	36.93	26.90	-23.3	-24.5	18.8	2.97e-04	0	44	102	1048576	6	4165
2026-01-06 01:47:23.47	37.07	27.06	-23.2	-24.3	18.9	0.00e+00	0	44	102	1048576	6	4116
2026-01-06 01:47:24.47	37.22	27.21	-23.3	-24.5	18.8	2.53e-04	0	44	102	1048576	6	4166
2026-01-06 01:47:25.48	37.36	27.36	-23.3	-24.7	18.8	5.70e-04	0	44	102	1048576	6	4197
2026-01-06 01:47:26.49	37.51	27.52	-23.3	-24.5	18.8	0.00e+00	0	44	102	1048576	6	4166
2026-01-06 01:47:27.49	37.66	27.67	-23.4	-24.7	18.7	3.89e-04	0	44	102	1048576	6	4218
2026-01-06 01:47:28.50	37.81	27.83	-23.6	-24.8	18.5	0.00e+00	0	44	102	1048576	7	4105
2026-01-06 01:47:29.51	37.96	27.99	-23.8	-25.1	18.3	0.00e+00	0	44	102	1048576	7	4199
2026-01-06 01:47:30.51	38.12	28.15	-24.0	-25.0	18.1	0.00e+00	0	44	102	1048576	8	4053
2026-01-06 01:47:31.52	38.27	28.30	-23.5	-24.0	18.7	2.09e-04	0	44	102	1048576	8	3812
2026-01-06 01:47:32.53	38.43	28.46	-23.3	-23.6	18.9	0.00e+00	0	44	102	1048576	8	3732
2026-01-06 01:47:33.54	38.59	28.62	-23.4	-24.2	18.8	2.36e-04	0	44	102	1048576	7	3980
2026-01-06 01:47:34.55	38.75	28.79	-23.3	-24.2	18.8	2.21e-04	0	44	102	1048576	7	3961
2026-01-06 01:47:35.55	38.91	28.95	-23.1	-23.7	19.1	0.00e+00	0	44	102	1048576	7	3853
2026-01-06 01:47:36.56	39.07	29.11	-23.2	-23.9	18.9	1.49e-04	0	44	102	1048576	7	3905
2026-01-06 01:47:37.57	39.24	29.27	-23.2	-23.9	18.9	0.00e+00	0	44	102	1048576	7	3912
2026-01-06 01:47:38.57	39.40	29.43	-23.3	-24.0	18.9	0.00e+00	0	44	102	1048576	7	3923
2026-01-06 01:47:39.58	39.57	29.60	-23.3	-24.1	18.9	0.00e+00	0	44	102	1048576	7	3940
2026-01-06 01:47:40.59	39.74	29.76	-23.4	-24.3	18.8	0.00e+00	0	44	102	1048576	7	3995
2026-01-06 01:47:41.60	39.91	29.93	-23.4	-24.2	18.8	0.00e+00	0	44	102	1048576	7	3976
2026-01-06 01:47:42.60	40.08	30.09	-22.9	-23.2	19.3	0.00e+00	0	44	102	1048576	7	3745
2026-01-06 01:47:43.61	40.26	30.26	-22.7	-23.3	19.5	8.12e-05	0	44	102	1048576	6	3859
2026-01-06 01:47:44.62	40.44	30.43	-22.7	-23.3	19.6	0.00e+00	0	44	102	1048576	6	3859
2026-01-06 01:47:45.63	40.61	30.60	-22.9	-23.8	19.3	0.00e+00	0	44	102	1048576	6	3972
2026-01-06 01:47:46.64	40.80	30.77	-23.0	-24.1	19.2	0.00e+00	0	44	102	1048576	6	4047
2026-01-06 01:47:47.64	40.98	30.94	-23.0	-24.1	19.2	0.00e+00	0	44	102	1048576	6	4046
2026-01-06 01:47:48.64	41.16	31.11	-23.0	-24.0	19.2	0.00e+00	0	44	102	1048576	6	4022
2026-01-06 01:47:49.65	41.34	31.28	-23.0	-24.0	19.2	0.00e+00	0	44	102	1048576	6	4039
2026-01-06 01:47:50.66	41.53	31.45	-23.1	-24.2	19.1	0.00e+00	0	44	102	1048576	6	4082
2026-01-06 01:47:51.67	41.72	31.62	-23.2	-24.3	19.1	0.00e+00	0	44	102	1048576	6	4114
2026-01-06 01:47:52.68	41.92	31.80	-23.2	-24.4	19.0	0.00e+00	0	44	102	1048576	6	4142
2026-01-06 01:47:53.67	42.11	31.97	-23.0	-24.0	19.2	0.00e+00	0	44	102	1048576	6	4030
2026-01-06 01:47:54.68	42.30	32.14	-22.8	-23.6	19.4	0.00e+00	0	44	102	1048576	6	3932
2026-01-06 01:47:55.68	42.50	32.32	-22.8	-23.5	19.5	0.00e+00	0	44	102	1048576	6	3916
2026-01-06 01:47:56.69	42.70	32.49	-22.7	-23.4	19.5	0.00e+00	0	44	102	1048576	6	3891
2026-01-06 01:47:57.70	42.90	32.67	-22.8	-23.5	19.5	0.00e+00	0	44	102	1048576	6	3906
2026-01-06 01:47:58.70	43.10	32.85	-22.7	-23.3	19.6	0.00e+00	0	44	102	1048576	6	3866
2026-01-06 01:47:59.71	43.31	33.02	-22.8	-23.5	19.5	0.00e+00	0	44	102	1048576	6	3903
2026-01-06 01:48:00.71	43.52	33.20	-22.7	-23.3	19.6	0.00e+00	0	44	102	1048576	6	3862
2026-01-06 01:48:01.72	43.73	33.38	-22.6	-23.2	19.7	0.00e+00	0	44	102	1048576	6	3840
2026-01-06 01:48:02.72	43.94	33.56	-22.8	-23.6	19.4	0.00e+00	0	44	102	1048576	6	3940
2026-01-06 01:48:03.72	44.16	33.74	-22.9	-23.8	19.3	0.00e+00	0	44	102	1048576	6	3987
2026-01-06 01:48:04.73	44.37	33.92	-23.0	-24.0	19.3	0.00e+00	0	44	102	1048576	6	4024
2026-01-06 01:48:05.74	44.59	34.10	-23.0	-24.0	19.3	0.00e+00	0	44	102	1048576	6	4020
2026-01-06 01:48:06.74	44.82	34.28	-23.1	-24.1	19.2	0.00e+00	0	44	102	1048576	6	4058
2026-01-06 01:48:07.75	45.04	34.47	-22.7	-23.4	19.5	0.00e+00	0	44	102	1048576	6	3885
2026-01-06 01:48:08.76	45.27	34.65	-22.5	-22.9	19.4	0.00e+00	0	44	102	1048576	6	3764
2026-01-06 01:48:09.77	45.50	34.83	-22.4	-22.7	19.9	0.00e+00	0	44	102	1048576	6	3733
2026-01-06 01:48:10.78	45.73	35.02	-22.5	-22.8	19.9	0.00e+00	0	44	102	1048576	6	3752
2026-01-06 01:48:11.79	45.97	35.21	-22.4	-22.6	20.0	0.00e+00	0	44	102	1048576	6	3708
2026-01-06 01:48:12.79	46.21	35.39	-22.5	-22.9	19.8	1.84e-04	0	44	102	1048576	6	3782
2026-01-06 01:48:13.80	46.45	35.58	-22.5	-22.9	19.8	0.00e+00	0	44	102	1048576	6	3779
2026-01-06 01:48:14.80	46.69	35.76	-22.5	-23.0	19.8	2.48e-04	0	44	102	1048576	6	3791
2026-01-06 01:48:15.81	46.94	35.95	-22.6	-23.1	19.7	0.00e+00	0	44	102	1048576	6	3820
2026-01-06 01:48:16.82	47.18	36.14	-22.5	-23.0	19.8	0.00e+00	0	44	102	1048576	6	3797
2026-01-06 01:48:17.82	47.43	36.33	-22.5	-22.8	19.9	0.00e+00	0	44	102	1048576	6	3756
2026-01-06 01:48:18.82	47.69	36.51	-22.6	-23.0	19.8	1.86e-04	0	44	102	1048576	6	3802
2026-01-06 01:48:19.83	47.95	36.70	-22.4	-22.7	19.9	0.00e+00	0	44	102	1048576	6	3721
2026-01-06 01:48:20.83	48.20	36.89	-22.5	-22.8	19.9	0.00e+00	0	44	102	1048576	6	3760
2026-01-06 01:48:21.84	48.47	37.08	-22.7	-23.4	19.6	1.99e-04	0	44	102	1048576	6	3904
2026-01-06 01:48:22.84	48.73	37.27	-22.6	-23.2	19.7	0.00e+00	0	44	102	1048576	6	3845
2026-01-06 01:48:23.84	49.00	37.46	-22.4	-22.7	19.9	1.38e-04	0	44	102	1048576	6	3727
2026-01-06 01:48:24.86	49.28	37.66	-22.3	-22.9	20.1	1.33e-04	0	44	102	1048576	5	3880
2026-01-06 01:48:25.86	49.55	37.85	-22.1	-22.6	20.2	0.00e+00	0	44	102	1048576	5	3808
2026-01-06 01:48:26.87	49.83	38.04	-22.1	-22.6	20.2	6.29e-05	0	44	102	1048576	5	3812
2026-01-06 01:48:27.87	50.11	38.23	-22.2	-22.7	20.2	2.20e-06	0	44	102	1048576	5	3828
2026-01-06 01:48:28.88	50.40	38.42	-22.2	-22.8	20.2	0.00e+00	0	44	102	1048576	5	3845
2026-01-06 01:48:29.89	50.69	38.62	-22.2	-22.7	20.2	8.00e-06	0	44	102	1048576	5	3829
2026-01-06 01:48:30.90	50.98	38.81	-22.3	-23.0	20.1	2.74e-05	0	44	102	1048576	5	3893
2026-01-06 01:48:31.90	51.27	39.01	-22.3	-22.9	20.1	0.00e+00	0	44	102	1048576	5	3888
2026-01-06 01:48:32.91	51.57	39.20	-22.5	-23.4	19.9	2.08e-04	0	44	102	1048576	5	3985
2026-01-06 01:48:33.91	51.88	39.39	-22.4	-23.2	19.9	1.50e-04	0	44	102	1048576	5	3956
2026-01-06 01:48:34.92	52.18	39.59	-22.4	-23.2	19.9	0.00e+00	0	44	102	1048576	5	3948
2026-01-06 01:48:35.93	52.49	39.78	-22.4	-23.3	19.9	1.93e-04	0	44	102	1048576	5	3973
2026-01-06 01:48:36.93	52.81	39.98	-22.7	-23.9	19.6	0.00e+00	0	44	102	1048576	5	4120
2026-01-06 01:48:37.94	53.12	40.17	-22.5	-23.4	19.9	0.00e+00	0	44	102	1048576	5	3992
2026-01-06 01:48:38.95	53.45	40.37	-22.5	-23.5	19.8	0.00e+00	0	44	102	1048576	5	4018
2026-01-06 01:48:39.95	53.77	40.56	-22.5	-23.5	19.8	1.75e-04	0	44	102	1048576	5	4008
2026-01-06 01:48:40.96	54.10	40.76	-22.7	-23.9	19.6	0.00e+00	0	44	102	1048576	5	4110
2026-01-06 01:48:41.97	54.43	40.96	-22.7	-23.8	19.7	0.00e+00	0	44	102	1048576	5	4090
2026-01-06 01:48:42.97	54.77	41.15	-22.9	-24.2	19.5	1.72e-04	0	44	102	1048576	5	4188
2026-01-06 01:48:43.98	55.11	41.35	-22.7	-23.9	19.6	0.00e+00	0	44	102	1048576	5	4113
2026-01-06 01:48:44.99	55.46	41.54	-22.6	-23.6	19.8	0.00e+00	0	44	102	1048576	5	4056
2026-01-06 01:48:46.00	55.81	41.74	-22.6	-23.7	19.7	0.00e+00	0	44	102	1048576	5	4072
2026-01-06 01:48:47.01	56.16	41.93	-22.5	-23.3	19.9	0.00e+00	0	44	102	1048576	5	3981
2026-01-06 01:48:48.01	56.52	42.13	-22.4	-23.2	20.0	0.00e+00	0	43	102	1048576	5	3943
2026-01-06 01:48:49.02	56.88	42.32	-22.4	-23.2	20.0	0.00e+00	0	44	102	1048576	5	3939
2026-01-06 01:48:50.03	57.25	42.52	-22.6	-23.6	19.8	0.00e+00	0	44	102	1048576	5	4050
2026-01-06 01:48:51.04	57.62	42.71	-22.7	-23.8	19.7	0.00e+00	0	44	102	1048576	5	4084
2026-01-06 01:48:52.04	57.99	42.90	-22.6	-23.6	19.8	8.69e-05	0	44	102	1048576	5	4048
2026-01-06 01:48:53.05	58.37	43.10	-22.3	-23.1	20.1	0.00e+00	0	44	102	1048576	5	3908
2026-01-06 01:48:54.06	58.76	43.29	-22.3	-23.0	20.1	0.00e+00	0	43	102	1048576	5	3907
2026-01-06 01:48:55.06	59.15	43.48	-22.5	-23.4	19.9	0.00e+00	0	43	102	1048576	5	3999
2026-01-06 01:48:56.07	59.54	43.68	-22.4	-23.2	20.0	0.00e+00	0	44	102	1048576	5	3952
2026-01-06 01:48:57.08	59.94	43.87	-22.4	-23.3	20.0	0.00e+00	0	44	102	1048576	5	3965
2026-01-06 01:48:58.08	60.34	44.06	-22.4	-23.2	20.0	0.00e+00	0	44	102	1048576	5	3945
2026-01-06 01:48:59.08	60.75	44.25	-22.5	-23.5	19.9	1.10e-06	0	44	102	1048576	5	4012
2026-01-06 01:49:00.09	61.16	44.44	-22.8	-24.0	19.6	1.10e-06	0	43	102	1048576	5	4132
2026-01-06 01:49:01.10	61.58	44.63	-22.9	-24.1	19.5	0.00e+00	0	44	102	1048576	5	4179
2026-01-06 01:49:02.10	62.00	44.82	-23.1	-24.1	19.3	2.20e-06	0	44	102	1048576	6	4064
2026-01-06 01:49:03.11	62.43	45.00	-23.2	-24.5	19.2	0.00e+00	0	44	102	1048576	6	4143
2026-01-06 01:49:04.12	62.86	45.19	-22.7	-23.3	19.8	0.00e+00	0	44	102	1048576	6	3860
2026-01-06 01:49:05.12	63.30	45.38	-22.5	-22.8	20.0	0.00e+00	0	44	102	1048576	6	3743
2026-01-06 01:49:06.13	63.74	45.56	-22.5	-22.9	19.9	0.00e+00	0	44	102	1048576	6	3768
2026-01-06 01:49:07.14	64.19	45.75	-22.8	-23.5	19.7	0.00e+00	0	44	102	1048576	6	3901
2026-01-06 01:49:08.14	64.64	45.93	-23.0	-23.9	19.4	0.00e+00	0	44	102	1048576	6	4015
2026-01-06 01:49:09.16	65.10	46.11	-23.0	-23.9	19.4	0.00e+00	0	44	102	1048576	6	4005
2026-01-06 01:49:10.16	65.57	46.29	-22.8	-23.5	19.6	0.00e+00	0	44	102	1048576	6	3910
2026-01-06 01:49:11.16	66.03	46.47	-22.6	-23.2	19.8	0.00e+00	0	44	102	1048576	6	3833
2026-01-06 01:49:12.17	66.51	46.65	-22.7	-23.2	19.8	0.00e+00	0	44	102	1048576	6	3842
2026-01-06 01:49:13.17	66.98	46.82	-22.4	-22.8	20.0	0.00e+00	0	44	102	1048576	6	3742
2026-01-06 01:49:14.18	67.47	47.00	-22.6	-23.0	19.9	0.00e+00	0	44	102	1048576	6	3794
2026-01-06 01:49:15.19	67.96	47.17	-22.8	-23.5	19.7	0.00e+00	0	44	102	1048576	6	3912
2026-01-06 01:49:16.20	68.46	47.35	-22.8	-23.5	19.7	0.00e+00	0	44	102	1048576	6	3896
2026-01-06 01:49:17.20	68.96	47.52	-22.7	-23.3	19.8	0.00e+00	0	44	102	1048576	6	3863
2026-01-06 01:49:18.21	69.46	47.69	-22.9	-23.8	19.6	0.00e+00	0	44	102	1048576	6	3970
2026-01-06 01:49:19.21	69.97	47.85	-22.9	-23.7	19.6	0.00e+00	0	44	102	1048576	6	3953
2026-01-06 01:49:20.22	70.49	48.02	-22.8	-23.6	19.6	0.00e+00	0	44	102	1048576	6	3927
2026-01-06 01:49:21.22	71.01	48.18	-22.6	-23.1	19.7	0.00e+00	0	44	102	1048576	6	3827
2026-01-06 01:49:22.23	71.54	48.34	-22.8	-23.6	19.5	0.00e+00	0	44	102	1048576	6	3943
2026-01-06 01:49:23.23	72.07	48.50	-23.0	-24.0	19.3	0.00e+00	0	44	102	1048576	6	4042
2026-01-06 01:49:24.24	72.61	48.66	-23.1	-24.2	19.2	0.00e+00	0	44	102	1048576	6	4094
2026-01-06 01:49:25.25	73.16	48.82	-22.6	-23.1	19.7	0.00e+00	0	44	102	1048576	6	3825
2026-01-06 01:49:26.25	73.71	48.97	-22.3	-22.5	20.0	0.00e+00	0	44	102	1048576	6	3699
2026-01-06 01:49:27.26	74.27	49.12	-22.4	-22.8	19.9	0.00e+00	0	44	102	1048576	6	3755
2026-01-06 01:49:28.27	74.83	49.27	-22.6	-23.2	19.7	0.00e+00	0	44	102	1048576	6	3860
2026-01-06 01:49:29.27	75.39	49.41	-22.6	-23.1	19.7	0.00e+00	0	44	102	1048576	6	3819
2026-01-06 01:49:30.28	75.97	49.56	-22.7	-23.3	19.6	0.00e+00	0	44	102	1048576	6	3874
2026-01-06 01:49:31.29	76.55	49.70	-23.1	-24.2	19.2	0.00e+00	0	44	102	1048576	6	4090
2026-01-06 01:49:32.30	77.13	49.84	-22.9	-23.9	19.3	2.28e-05	0	44	102	1048576	6	4014
2026-01-06 01:49:33.30	77.71	49.97	-22.7	-23.5	19.6	0.00e+00	0	44	102	1048576	6	3907
2026-01-06 01:49:34.31	78.31	50.11	-22.9	-23.7	19.5	0.00e+00	0	44	102	1048576	6	3961
2026-01-06 01:49:35.31	78.90	50.24	-22.9	-23.8	19.4	0.00e+00	0	44	102	1048576	6	3997
2026-01-06 01:49:36.32	79.51	50.36	-23.1	-24.2	19.2	5.72e-05	0	44	102	1048576	6	4088
2026-01-06 01:49:37.33	80.12	50.49	-23.0	-24.1	19.3	0.00e+00	0	44	102	1048576	6	4063
2026-01-06 01:49:38.33	80.73	50.61	-23.0	-24.0	19.3	0.00e+00	0	44	102	1048576	6	4050
2026-01-06 01:49:39.34	81.35	50.73	-23.2	-24.4	19.1	1.32e-04	0	44	102	1048576	6	4133
2026-01-06 01:49:40.35	81.97	50.84	-23.2	-24.3	19.1	0.00e+00	0	44	102	1048576	6	4127
2026-01-06 01:49:41.35	82.60	50.95	-22.8	-23.5	19.5	5.72e-05	0	44	102	1048576	6	3912
2026-01-06 01:49:42.35	83.23	51.06	-22.8	-23.5	19.6	0.00e+00	0	44	102	1048576	6	3926
2026-01-06 01:49:43.36	83.86	51.17	-23.1	-24.2	19.2	0.00e+00	0	44	102	1048576	6	4098
2026-01-06 01:49:44.37	84.51	51.27	-23.4	-24.9	18.9	1.14e-05	0	44	102	1048576	6	4259
2026-01-06 01:49:45.37	85.15	51.37	-23.4	-24.3	18.9	9.10e-06	0	44	102	1048576	7	4000
2026-01-06 01:49:46.38	85.80	51.46	-23.0	-23.4	19.4	0.00e+00	0	44	102	1048576	7	3788
2026-01-06 01:49:47.38	86.45	51.55	-22.8	-23.2	19.4	8.00e-06	0	44	102	1048576	7	3736
2026-01-06 01:49:48.39	87.11	51.64	-22.9	-23.3	19.3	1.02e-04	0	44	102	1048576	7	3778
2026-01-06 01:49:49.39	87.77	51.72	-23.1	-23.6	19.2	0.00e+00	0	44	102	1048576	7	3845
2026-01-06 01:49:50.40	88.43	51.80	-23.1	-23.7	19.2	1.85e-04	0	44	102	1048576	7	3868
2026-01-06 01:49:51.41	89.10	51.88	-23.1	-23.6	19.2	1.59e-04	0	44	102	1048576	7	3838
2026-01-06 01:49:52.42	89.78	51.95	-22.8	-23.2	19.5	0.00e+00	0	44	102	1048576	7	3737
2026-01-06 01:49:53.42	90.45	52.02	-22.8	-23.1	19.5	0.00e+00	0	44	102	1048576	7	3723
2026-01-06 01:49:54.43	91.13	52.08	-22.8	-23.1	19.5	2.63e-05	0	44	102	1048576	7	3724
2026-01-06 01:49:55.43	91.81	52.14	-22.8	-23.1	19.5	0.00e+00	0	44	102	1048576	7	3718
2026-01-06 01:49:56.44	92.49	52.20	-23.0	-23.5	19.3	0.00e+00	0	44	102	1048576	7	3807
2026-01-06 01:49:57.45	93.18	52.25	-23.3	-24.6	19.0	3.51e-04	0	44	102	1048576	6	4192
2026-01-06 01:49:58.45	93.86	52.30	-23.1	-24.2	19.2	0.00e+00	0	44	102	1048576	6	4095
2026-01-06 01:49:59.46	94.56	52.34	-22.9	-23.7	19.5	1.60e-04	0	44	102	1048576	6	3948
2026-01-06 01:50:00.47	95.25	52.38	-23.1	-24.2	19.2	0.00e+00	0	44	102	1048576	6	4076
2026-01-06 01:50:01.47	95.94	52.42	-23.3	-24.7	18.9	0.00e+00	0	44	102	1048576	6	4225
2026-01-06 01:50:02.48	96.64	52.45	-23.0	-24.0	19.3	0.00e+00	0	44	102	1048576	6	4033
2026-01-06 01:50:03.49	97.34	52.48	-22.7	-23.3	19.6	0.00e+00	0	44	102	1048576	6	3882
2026-01-06 01:50:04.50	98.04	52.50	-23.0	-24.0	19.4	0.00e+00	0	44	102	1048576	6	4031
2026-01-06 01:50:05.50	98.73	52.52	-23.2	-24.5	19.1	0.00e+00	0	44	102	1048576	6	4160
2026-01-06 01:50:06.51	99.44	52.53	-23.3	-24.6	19.0	0.00e+00	0	44	102	1048576	6	4191
2026-01-06 01:50:07.52	100.14	52.54	-23.3	-24.7	18.9	0.00e+00	0	44	102	1048576	6	4213
2026-01-06 01:50:08.53	100.84	52.55	-23.1	-24.3	19.1	0.00e+00	0	44	102	1048576	6	4114
2026-01-06 01:50:09.53	101.54	52.55	-23.1	-24.2	19.2	0.00e+00	0	44	102	1048576	6	4091
2026-01-06 01:50:10.55	102.25	52.54	-23.3	-24.6	19.0	0.00e+00	0	44	102	1048576	6	4186
2026-01-06 01:50:11.54	102.94	52.54	-23.2	-24.5	19.0	0.00e+00	0	44	102	1048576	6	4162
2026-01-06 01:50:12.55	103.64	52.53	-23.0	-23.9	19.4	0.00e+00	0	44	102	1048576	6	4014
2026-01-06 01:50:13.56	104.35	52.51	-23.1	-24.2	19.2	0.00e+00	0	44	102	1048576	6	4076
2026-01-06 01:50:14.58	105.05	52.49	-23.2	-24.5	19.1	0.00e+00	0	44	102	1048576	6	4162
2026-01-06 01:50:15.58	105.75	52.46	-23.4	-24.8	18.9	0.00e+00	0	44	102	1048576	6	4247
2026-01-06 01:50:16.59	106.45	52.43	-23.2	-24.4	19.1	0.00e+00	0	44	102	1048576	6	4134
2026-01-06 01:50:17.60	107.14	52.40	-22.9	-23.8	19.4	0.00e+00	0	44	102	1048576	6	3996
2026-01-06 01:50:18.61	107.84	52.36	-23.3	-24.6	19.0	0.00e+00	0	44	102	1048576	6	4196
2026-01-06 01:50:19.61	108.53	52.32	-23.6	-24.9	18.6	0.00e+00	0	44	102	1048576	7	4153
2026-01-06 01:50:20.62	109.22	52.27	-23.3	-24.1	19.0	0.00e+00	0	44	102	1048576	7	3967
2026-01-06 01:50:21.62	109.90	52.22	-23.0	-23.5	19.3	2.40e-05	0	44	102	1048576	7	3804
2026-01-06 01:50:22.63	110.59	52.17	-23.1	-23.7	19.2	0.00e+00	0	44	102	1048576	7	3850
2026-01-06 01:50:23.64	111.28	52.11	-23.2	-24.0	19.1	0.00e+00	0	44	102	1048576	7	3924
2026-01-06 01:50:24.65	111.96	52.05	-23.5	-24.6	18.8	0.00e+00	0	44	102	1048576	7	4080
2026-01-06 01:50:25.66	112.64	51.98	-23.7	-25.1	18.5	0.00e+00	0	44	102	1048576	7	4198
2026-01-06 01:50:26.67	113.31	51.91	-23.8	-25.2	18.5	0.00e+00	0	44	102	1048576	7	4218
2026-01-06 01:50:27.67	113.98	51.84	-23.5	-24.6	18.8	0.00e+00	0	44	102	1048576	7	4080
2026-01-06 01:50:28.68	114.65	51.76	-23.4	-24.3	18.9	0.00e+00	0	44	102	1048576	7	4000
2026-01-06 01:50:29.69	115.31	51.67	-23.5	-24.5	18.8	0.00e+00	0	44	102	1048576	7	4050
2026-01-06 01:50:30.70	115.98	51.59	-23.4	-24.4	18.9	0.00e+00	0	44	102	1048576	7	4038
2026-01-06 01:50:31.70	116.63	51.50	-23.1	-23.8	19.2	0.00e+00	0	44	102	1048576	7	3878
2026-01-06 01:50:32.71	117.28	51.41	-22.9	-23.2	19.5	0.00e+00	0	44	102	1048576	7	3752
2026-01-06 01:50:33.71	117.93	51.31	-22.8	-23.0	19.6	0.00e+00	0	44	102	1048576	7	3709
2026-01-06 01:50:34.72	118.57	51.21	-22.8	-23.6	19.5	0.00e+00	0	44	102	1048576	6	3936
2026-01-06 01:50:35.73	119.21	51.10	-23.0	-24.0	19.3	0.00e+00	0	44	102	1048576	6	4049
2026-01-06 01:50:36.73	119.84	51.00	-23.0	-24.1	19.3	0.00e+00	0	44	102	1048576	6	4058
2026-01-06 01:50:37.73	120.47	50.89	-22.9	-23.9	19.4	0.00e+00	0	44	102	1048576	6	4014
2026-01-06 01:50:38.74	121.10	50.77	-22.7	-23.4	19.6	0.00e+00	0	44	102	1048576	6	3900
2026-01-06 01:50:39.75	121.72	50.66	-22.7	-23.5	19.6	0.00e+00	0	44	102	1048576	6	3908
2026-01-06 01:50:40.76	122.34	50.54	-22.8	-23.6	19.5	0.00e+00	0	44	102	1048576	6	3939
2026-01-06 01:50:41.77	122.95	50.41	-23.3	-24.5	19.0	0.00e+00	0	44	102	1048576	6	4179
2026-01-06 01:50:42.78	123.56	50.28	-23.2	-24.5	19.0	0.00e+00	0	44	102	1048576	6	4174
2026-01-06 01:50:43.78	124.16	50.16	-22.9	-23.7	19.5	0.00e+00	0	44	102	1048576	6	3970
2026-01-06 01:50:44.79	124.76	50.02	-22.8	-23.5	19.6	0.00e+00	0	44	102	1048576	6	3915
2026-01-06 01:50:45.80	125.35	49.89	-23.0	-24.1	19.3	0.00e+00	0	44	102	1048576	6	4065
2026-01-06 01:50:46.80	125.93	49.75	-23.0	-23.9	19.4	0.00e+00	0	44	102	1048576	6	4017
2026-01-06 01:50:47.81	126.52	49.61	-22.8	-23.6	19.5	0.00e+00	0	44	102	1048576	6	3941
2026-01-06 01:50:48.81	127.09	49.47	-22.9	-23.8	19.4	0.00e+00	0	44	102	1048576	6	3996
2026-01-06 01:50:49.81	127.65	49.32	-23.0	-24.0	19.3	0.00e+00	0	44	102	1048576	6	4056
2026-01-06 01:50:50.82	128.22	49.17	-23.0	-24.0	19.1	0.00e+00	0	44	102	1048576	6	4041
2026-01-06 01:50:51.82	128.78	49.02	-22.9	-23.8	19.5	0.00e+00	0	44	102	1048576	6	3983
2026-01-06 01:50:52.82	129.33	48.87	-23.0	-24.0	19.3	0.00e+00	0	44	102	1048576	6	4037
2026-01-06 01:50:53.83	129.88	48.72	-22.9	-23.8	19.4	2.97e-05	0	44	102	1048576	6	3979
2026-01-06 01:50:54.84	130.42	48.56	-23.0	-24.0	19.3	0.00e+00	0	44	102	1048576	6	4051
2026-01-06 01:50:55.84	130.96	48.40	-23.2	-24.4	19.1	1.21e-04	0	44	102	1048576	6	4147
2026-01-06 01:50:56.85	131.49	48.24	-22.8	-23.7	19.5	0.00e+00	0	44	102	1048576	6	3961
2026-01-06 01:50:57.86	132.02	48.08	-22.5	-22.9	19.8	0.00e+00	0	44	102	1048576	6	3779
2026-01-06 01:50:58.87	132.54	47.91	-22.8	-23.6	19.5	0.00e+00	0	44	102	1048576	6	3934
2026-01-06 01:50:59.88	133.06	47.74	-23.1	-24.2	19.2	0.00e+00	0	44	102	1048576	6	4092
2026-01-06 01:51:00.88	133.56	47.57	-23.4	-25.0	18.8	0.00e+00	0	44	102	1048576	6	4292
2026-01-06 01:51:01.89	134.07	47.40	-23.0	-24.0	19.3	0.00e+00	0	44	102	1048576	6	4036
2026-01-06 01:51:02.90	134.57	47.23	-22.6	-23.1	19.8	3.22e-04	0	44	102	1048576	6	3811
2026-01-06 01:51:03.90	135.06	47.06	-22.6	-23.0	19.8	0.00e+00	0	44	102	1048576	6	3811
2026-01-06 01:51:04.91	135.55	46.88	-22.9	-23.8	19.4	2.30e-04	0	44	102	1048576	6	3990
2026-01-06 01:51:05.92	136.04	46.70	-22.9	-23.7	19.4	2.88e-04	0	44	102	1048576	6	3983
2026-01-06 01:51:06.92	136.51	46.53	-22.7	-23.5	19.5	0.00e+00	0	44	102	1048576	6	3919
2026-01-06 01:51:07.93	136.98	46.35	-22.5	-23.0	19.7	3.03e-04	0	44	102	1048576	6	3813
2026-01-06 01:51:08.93	137.45	46.17	-22.5	-23.5	19.7	4.08e-04	0	44	102	1048576	5	4038
2026-01-06 01:51:09.94	137.91	45.98	-22.5	-23.5	19.7	0.00e+00	0	44	102	1048576	5	4041
2026-01-06 01:51:10.94	138.36	45.80	-22.8	-24.2	19.4	6.87e-04	0	44	102	1048576	5	4198
2026-01-06 01:51:11.94	138.81	45.62	-23.0	-24.5	19.2	6.27e-04	0	44	102	1048576	5	4289
2026-01-06 01:51:12.95	139.26	45.43	-23.2	-24.5	19.0	0.00e+00	0	44	102	1048576	6	4179
2026-01-06 01:51:13.96	139.70	45.25	-23.1	-24.3	19.1	5.97e-04	0	44	102	1048576	6	4128
2026-01-06 01:51:14.96	140.13	45.06	-22.9	-23.8	19.3	4.93e-04	0	44	102	1048576	6	3990
2026-01-06 01:51:15.97	140.57	44.87	-22.8	-23.6	19.4	0.00e+00	0	44	102	1048576	6	3948
2026-01-06 01:51:16.98	140.99	44.68	-23.1	-24.2	19.2	3.94e-04	0	44	102	1048576	6	4087
2026-01-06 01:51:17.98	141.41	44.49	-23.0	-24.0	19.2	0.00e+00	0	44	102	1048576	6	4055
2026-01-06 01:51:18.98	141.82	44.30	-23.1	-24.2	19.1	0.00e+00	0	44	102	1048576	6	4100
2026-01-06 01:51:19.99	142.24	44.11	-23.1	-24.4	19.0	6.83e-04	0	44	102	1048576	6	4140
2026-01-06 01:51:20.99	142.64	43.92	-23.3	-24.6	18.9	6.38e-04	0	44	102	1048576	6	4205
2026-01-06 01:51:21.99	143.04	43.73	-22.9	-23.8	19.3	0.00e+00	0	44	102	1048576	6	4008
2026-01-06 01:51:23.00	143.43	43.54	-22.6	-23.3	19.6	0.00e+00	0	44	102	1048576	6	3870
2026-01-06 01:51:24.00	143.82	43.35	-22.6	-23.6	19.6	3.94e-04	0	44	102	1048576	5	4065
2026-01-06 01:51:25.02	144.22	43.15	-22.7	-23.8	19.5	0.00e+00	0	44	102	1048576	5	4108
2026-01-06 01:51:26.02	144.60	42.96	-22.8	-24.2	19.3	3.22e-04	0	44	102	1048576	5	4212
2026-01-06 01:51:27.02	144.97	42.76	-22.8	-24.1	19.4	0.00e+00	0	44	102	1048576	5	4188
2026-01-06 01:51:28.03	145.35	42.57	-22.8	-24.1	19.3	0.00e+00	0	44	102	1048576	5	4192
2026-01-06 01:51:29.03	145.71	42.37	-22.8	-24.1	19.4	0.00e+00	0	44	102	1048576	5	4188
2026-01-06 01:51:30.04	146.08	42.18	-22.8	-24.2	19.3	0.00e+00	0	44	102	1048576	5	4210
2026-01-06 01:51:31.05	146.44	41.98	-22.5	-23.5	19.6	0.00e+00	0	44	102	1048576	5	4042
2026-01-06 01:51:32.06	146.80	41.78	-22.3	-23.1	19.8	0.00e+00	0	44	102	1048576	5	3948
2026-01-06 01:51:33.07	147.15	41.59	-22.3	-23.1	19.8	3.59e-04	0	44	102	1048576	5	3951
2026-01-06 01:51:34.07	147.50	41.39	-22.2	-22.9	19.9	0.00e+00	0	44	102	1048576	5	3886
2026-01-06 01:51:35.08	147.84	41.19	-22.3	-23.1	19.8	0.00e+00	0	44	102	1048576	5	3937
2026-01-06 01:51:36.09	148.18	41.00	-22.3	-23.0	19.9	0.00e+00	0	44	102	1048576	5	3923
2026-01-06 01:51:37.09	148.51	40.80	-22.4	-23.2	19.7	0.00e+00	0	44	102	1048576	5	3976
2026-01-06 01:51:38.10	148.85	40.61	-22.3	-23.1	19.8	0.00e+00	0	44	102	1048576	5	3943
2026-01-06 01:51:39.11	149.18	40.41	-22.5	-23.4	19.7	0.00e+00	0	44	102	1048576	5	4011
2026-01-06 01:51:40.12	149.50	40.21	-22.6	-23.7	19.5	0.00e+00	0	44	102	1048576	5	4100
2026-01-06 01:51:41.13	149.82	40.01	-22.8	-24.2	19.3	0.00e+00	0	44	102	1048576	5	4210
2026-01-06 01:51:42.13	150.14	39.82	-22.8	-24.1	19.3	0.00e+00	0	44	102	1048576	5	4191
2026-01-06 01:51:43.14	150.45	39.62	-22.7	-24.0	19.4	0.00e+00	0	44	102	1048576	5	4172
2026-01-06 01:51:44.14	150.75	39.43	-22.8	-24.1	19.3	0.00e+00	0	44	102	1048576	5	4192
2026-01-06 01:51:45.15	151.06	39.23	-22.4	-23.3	19.7	0.00e+00	0	44	102	1048576	5	3982
2026-01-06 01:51:46.15	151.36	39.04	-22.2	-22.9	19.9	0.00e+00	0	44	102	1048576	5	3891
2026-01-06 01:51:47.17	151.66	38.84	-22.2	-22.8	20.0	0.00e+00	0	44	102	1048576	5	3865
2026-01-06 01:51:48.18	151.96	38.65	-22.3	-23.0	19.9	0.00e+00	0	44	102	1048576	5	3908
2026-01-06 01:51:49.18	152.25	38.45	-22.2	-22.8	20.0	0.00e+00	0	44	102	1048576	5	3859
2026-01-06 01:51:50.19	152.53	38.26	-22.2	-23.4	19.9	0.00e+00	0	44	102	1048576	4	4136
2026-01-06 01:51:51.19	152.82	38.06	-22.2	-23.3	20.0	1.10e-06	0	44	102	1048576	4	4099
2026-01-06 01:51:52.20	153.10	37.87	-22.3	-23.5	19.8	0.00e+00	0	44	102	1048576	4	4149
2026-01-06 01:51:53.21	153.38	37.68	-22.3	-23.6	19.8	0.00e+00	0	44	102	1048576	4	4179
2026-01-06 01:51:54.21	153.65	37.49	-22.4	-23.9	19.7	0.00e+00	0	44	102	1048576	4	4256
2026-01-06 01:51:55.22	153.92	37.29	-22.5	-24.0	19.6	0.00e+00	0	44	102	1048576	4	4276
2026-01-06 01:51:56.22	154.19	37.10	-22.6	-23.8	19.5	0.00e+00	0	44	102	1048576	5	4121
2026-01-06 01:51:57.23	154.45	36.91	-22.7	-23.9	19.4	0.00e+00	0	44	102	1048576	5	4141
2026-01-06 01:51:58.24	154.72	36.72	-22.5	-23.4	19.6	0.00e+00	0	44	102	1048576	5	4020
2026-01-06 01:51:59.24	154.97	36.53	-22.3	-23.2	19.8	0.00e+00	0	44	102	1048576	5	3955
2026-01-06 01:52:00.24	155.23	36.34	-22.4	-23.3	19.7	0.00e+00	0	44	102	1048576	5	3998
2026-01-06 01:52:01.25	155.48	36.15	-22.4	-23.3	19.7	0.00e+00	0	44	102	1048576	5	3984
2026-01-06 01:52:02.26	155.73	35.96	-22.4	-23.3	19.7	0.00e+00	0	44	102	1048576	5	3998
2026-01-06 01:52:03.27	155.98	35.77	-22.3	-23.0	19.8	0.00e+00	0	44	102	1048576	5	3932
2026-01-06 01:52:04.27	156.22	35.58	-22.3	-23.1	19.8	0.00e+00	0	44	102	1048576	5	3940
2026-01-06 01:52:05.28	156.47	35.40	-22.3	-23.0	19.8	0.00e+00	0	44	102	1048576	5	3921
2026-01-06 01:52:06.29	156.71	35.21	-22.1	-22.7	20.0	0.00e+00	0	44	102	1048576	5	3857
2026-01-06 01:52:07.29	156.94	35.02	-22.1	-22.6	20.0	0.00e+00	0	44	102	1048576	5	3832
2026-01-06 01:52:08.30	157.18	34.84	-22.1	-22.7	20.0	0.00e+00	0	44	102	1048576	5	3857
2026-01-06 01:52:09.31	157.41	34.65	-22.2	-22.9	19.9	0.00e+00	0	44	102	1048576	5	3889
2026-01-06 01:52:10.31	157.64	34.47	-22.3	-23.2	19.7	0.00e+00	0	44	102	1048576	5	3961
2026-01-06 01:52:11.32	157.86	34.28	-22.3	-23.1	19.8	0.00e+00	0	44	102	1048576	5	3946
2026-01-06 01:52:12.33	158.09	34.10	-22.4	-23.2	19.7	0.00e+00	0	44	102	1048576	5	3970
2026-01-06 01:52:13.33	158.31	33.92	-22.4	-23.3	19.7	0.00e+00	0	44	102	1048576	5	3998
2026-01-06 01:52:14.34	158.53	33.73	-22.5	-23.5	19.6	0.00e+00	0	44	102	1048576	5	4037
2026-01-06 01:52:15.33	158.74	33.56	-22.4	-23.4	19.6	0.00e+00	0	44	102	1048576	5	4008
2026-01-06 01:52:16.34	158.96	33.37	-22.5	-23.5	19.6	0.00e+00	0	44	102	1048576	5	4031
2026-01-06 01:52:17.34	159.17	33.20	-22.5	-23.5	19.6	0.00e+00	0	44	102	1048576	5	4032
2026-01-06 01:52:18.34	159.37	33.02	-22.3	-23.2	19.7	0.00e+00	0	44	102	1048576	5	3959
2026-01-06 01:52:19.35	159.58	32.84	-22.3	-23.1	19.7	0.00e+00	0	44	102	1048576	5	3944
2026-01-06 01:52:20.35	159.79	32.66	-22.0	-22.7	19.6	0.00e+00	0	44	102	1048576	5	3934
2026-01-06 01:52:21.35	159.99	32.48	-22.4	-23.4	19.6	0.00e+00	0	44	102	1048576	5	4013
2026-01-06 01:52:22.36	160.19	32.31	-22.6	-23.8	14.5	7.53e-04	0	44	102	1048576	5	4108
2026-01-06 01:52:23.36	160.39	32.13	-22.6	-23.7	15.3	0.00e+00	0	44	102	1048576	5	4091
2026-01-06 01:52:24.37	160.58	31.95	-22.7	-23.9	19.3	0.00e+00	0	44	102	1048576	5	4144
2026-01-06 01:52:25.37	160.78	31.78	-22.6	-23.8	19.4	0.00e+00	0	44	102	1048576	5	4107
2026-01-06 01:52:26.38	160.97	31.61	-22.6	-23.7	19.5	0.00e+00	0	44	102	1048576	5	4084
2026-01-06 01:52:27.38	161.16	31.43	-22.7	-24.0	19.3	0.00e+00	0	44	102	1048576	5	4159
2026-01-06 01:52:28.40	161.35	31.26	-22.9	-24.3	19.1	0.00e+00	0	44	102	1048576	5	4238
2026-01-06 01:52:29.40	161.54	31.09	-23.0	-24.0	19.0	9.97e-04	0	44	102	1048576	6	4060
2026-01-06 01:52:30.40	161.72	30.92	-23.0	-24.1	19.0	0.00e+00	0	44	102	1048576	6	4087
2026-01-06 01:52:31.41	161.90	30.75	-23.1	-24.3	18.9	9.81e-04	0	44	102	1048576	6	4122
2026-01-06 01:52:32.42	162.08	30.57	-23.1	-24.4	18.9	0.00e+00	0	44	102	1048576	6	4147
2026-01-06 01:52:33.42	162.26	30.41	-23.0	-24.0	19.0	0.00e+00	0	44	102	1048576	6	4059
2026-01-06 01:52:34.43	162.44	30.24	-23.0	-24.0	19.1	8.67e-04	0	44	102	1048576	6	4049
2026-01-06 01:52:35.44	162.62	30.07	-23.0	-24.1	19.0	0.00e+00	0	44	102	1048576	6	4069
2026-01-06 01:52:36.44	162.79	29.90	-23.0	-24.0	19.0	0.00e+00	0	44	102	1048576	6	4052
2026-01-06 01:52:37.44	162.96	29.74	-23.0	-24.0	19.1	0.00e+00	0	44	102	1048576	6	4035
2026-01-06 01:52:38.45	163.13	29.57	-23.0	-24.1	19.0	8.27e-04	0	44	102	1048576	6	4069
2026-01-06 01:52:39.45	163.30	29.41	-22.8	-23.7	19.2	0.00e+00	0	44	102	1048576	6	3974
2026-01-06 01:52:40.46	163.46	29.24	-22.7	-23.5	19.3	7.68e-04	0	44	102	1048576	6	3927
2026-01-06 01:52:41.45	163.63	29.08	-22.8	-23.7	19.2	7.12e-04	0	44	102	1048576	6	3972
2026-01-06 01:52:42.46	163.79	28.92	-22.9	-24.3	19.1	0.00e+00	0	44	102	1048576	5	4246
2026-01-06 01:52:43.47	163.95	28.75	-22.8	-24.2	19.2	7.04e-04	0	44	102	1048576	5	4211
2026-01-06 01:52:44.48	164.12	28.59	-22.8	-24.1	19.2	1.10e-03	0	44	102	1048576	5	4188
2026-01-06 01:52:45.48	164.27	28.43	-22.9	-24.3	19.1	0.00e+00	0	44	102	1048576	5	4235
2026-01-06 01:52:46.49	164.43	28.27	-22.9	-24.3	19.1	7.61e-04	0	44	102	1048576	5	4241
2026-01-06 01:52:47.50	164.59	28.11	-22.8	-24.0	19.3	8.09e-04	0	44	102	1048576	5	4175
2026-01-06 01:52:48.51	164.74	27.95	-22.7	-23.9	19.3	0.00e+00	0	44	102	1048576	5	4137
2026-01-06 01:52:49.51	164.89	27.79	-22.7	-23.9	19.3	1.07e-03	0	44	102	1048576	5	4135
2026-01-06 01:52:50.52	165.05	27.64	-22.6	-23.7	19.4	6.93e-04	0	44	102	1048576	5	4098
2026-01-06 01:52:51.53	165.20	27.48	-22.7	-23.9	19.3	0.00e+00	0	44	102	1048576	5	4147
2026-01-06 01:52:52.53	165.34	27.32	-22.7	-23.9	19.3	7.54e-04	0	44	102	1048576	5	4128
2026-01-06 01:52:53.54	165.49	27.17	-22.6	-23.7	19.4	3.46e-04	0	44	102	1048576	5	4082
2026-01-06 01:52:54.55	165.64	27.01	-22.7	-23.8	19.3	0.00e+00	0	44	102	1048576	5	4121
2026-01-06 01:52:55.55	165.78	26.86	-22.7	-23.8	19.3	8.39e-04	0	44	102	1048576	5	4123
2026-01-06 01:52:56.56	165.92	26.70	-22.7	-23.9	19.3	1.19e-03	0	44	102	1048576	5	4143
2026-01-06 01:52:57.57	166.07	26.55	-22.7	-23.9	19.3	0.00e+00	0	44	102	1048576	5	4134
2026-01-06 01:52:58.57	166.21	26.40	-22.7	-23.9	19.3	4.37e-04	0	44	102	1048576	5	4138
2026-01-06 01:52:59.58	166.35	26.25	-22.7	-24.0	19.2	7.29e-04	0	44	102	1048576	5	4167
2026-01-06 01:53:00.59	166.48	26.10	-22.8	-24.1	19.2	0.00e+00	0	44	102	1048576	5	4192
2026-01-06 01:53:01.59	166.62	25.95	-22.9	-24.3	19.1	1.21e-03	0	44	102	1048576	5	4245
2026-01-06 01:53:02.60	166.75	25.80	-22.9	-24.3	19.1	5.06e-04	0	44	102	1048576	5	4234
2026-01-06 01:53:03.61	166.89	25.65	-22.8	-24.1	19.2	0.00e+00	0	44	102	1048576	5	4198
2026-01-06 01:53:04.61	167.02	25.50	-22.9	-24.3	19.0	5.92e-04	0	44	102	1048576	5	4246
2026-01-06 01:53:05.62	167.15	25.35	-22.9	-24.5	19.0	6.05e-04	0	44	102	1048576	5	4281
2026-01-06 01:53:06.62	167.28	25.21	-23.2	-24.6	18.7	0.00e+00	0	44	102	1048576	6	4186
2026-01-06 01:53:07.63	167.41	25.06	-23.2	-24.5	18.7	5.76e-04	0	44	102	1048576	6	4174
2026-01-06 01:53:08.63	167.54	24.92	-23.1	-24.2	18.9	1.20e-03	0	44	102	1048576	6	4102
2026-01-06 01:53:09.64	167.67	24.77	-23.1	-24.3	18.9	0.00e+00	0	44	102	1048576	6	4118
2026-01-06 01:53:10.65	167.79	24.63	-23.1	-24.3	18.8	3.91e-04	0	44	102	1048576	6	4119
2026-01-06 01:53:11.65	167.92	24.49	-23.3	-24.6	18.7	0.00e+00	0	44	102	1048576	6	4202
2026-01-06 01:53:12.65	168.04	24.34	-23.2	-24.5	18.7	0.00e+00	0	44	102	1048576	6	4175
2026-01-06 01:53:13.65	168.16	24.20	-23.2	-24.4	18.8	0.00e+00	0	44	102	1048576	6	4150
2026-01-06 01:53:14.66	168.28	24.06	-23.2	-24.5	18.7	4.30e-04	0	44	102	1048576	6	4187
2026-01-06 01:53:15.66	168.40	23.92	-23.3	-24.6	18.7	0.00e+00	0	44	102	1048576	6	4205
2026-01-06 01:53:16.66	168.52	23.78	-23.3	-24.6	18.6	4.34e-04	0	44	102	1048576	6	4202
2026-01-06 01:53:17.67	168.64	23.64	-23.3	-24.6	18.7	4.27e-04	0	44	102	1048576	6	4214
2026-01-06 01:53:18.67	168.76	23.50	-23.3	-24.7	18.6	0.00e+00	0	44	102	1048576	6	4230
2026-01-06 01:53:19.67	168.87	23.37	-23.4	-25.0	18.5	3.24e-04	0	44	102	1048576	6	4301
2026-01-06 01:53:20.67	168.99	23.23	-23.4	-24.4	18.5	0.00e+00	0	44	102	1048576	7	4030
2026-01-06 01:53:21.68	169.10	23.09	-23.3	-24.2	18.6	0.00e+00	0	44	102	1048576	7	3989
2026-01-06 01:53:22.69	169.22	22.95	-23.3	-24.3	18.6	0.00e+00	0	44	102	1048576	7	4001
2026-01-06 01:53:23.69	169.33	22.82	-23.5	-25.0	18.4	0.00e+00	0	44	102	1048576	6	4315
2026-01-06 01:53:24.70	169.44	22.68	-23.5	-24.6	18.4	0.00e+00	0	44	102	1048576	7	4094
2026-01-06 01:53:25.71	169.55	22.55	-23.5	-24.6	18.4	0.00e+00	0	44	102	1048576	7	4080
2026-01-06 01:53:26.72	169.66	22.41	-23.6	-24.9	18.3	2.95e-04	0	44	102	1048576	7	4150
2026-01-06 01:53:27.73	169.77	22.28	-23.6	-24.9	18.3	0.00e+00	0	44	102	1048576	7	4152
2026-01-06 01:53:28.72	169.88	22.15	-23.7	-25.1	18.1	3.42e-04	0	44	102	1048576	7	4222
2026-01-06 01:53:29.72	169.99	22.02	-23.7	-25.0	18.2	0.00e+00	0	44	102	1048576	7	4198
2026-01-06 01:53:30.72	170.09	21.89	-23.9	-25.5	18.0	0.00e+00	0	44	102	1048576	7	4313
2026-01-06 01:53:31.73	170.20	21.76	-23.8	-24.8	18.1	0.00e+00	0	44	102	1048576	8	4032
2026-01-06 01:53:32.73	170.30	21.63	-23.6	-24.9	18.2	0.00e+00	0	44	102	1048576	7	4173
2026-01-06 01:53:33.74	170.40	21.50	-23.8	-25.2	18.1	0.00e+00	0	44	102	1048576	7	4231
2026-01-06 01:53:34.74	170.51	21.37	-23.8	-25.2	18.1	0.00e+00	0	44	102	1048576	7	4242
2026-01-06 01:53:35.74	170.61	21.24	-23.9	-25.4	18.0	0.00e+00	0	44	102	1048576	7	4307
2026-01-06 01:53:36.75	170.71	21.11	-24.1	-25.4	17.7	0.00e+00	0	44	102	1048576	8	4187
2026-01-06 01:53:37.75	170.81	20.98	-24.3	-25.9	17.5	0.00e+00	0	44	102	1048576	8	4311
2026-01-06 01:53:38.75	170.91	20.86	-24.3	-25.8	17.6	0.00e+00	0	44	102	1048576	8	4275
2026-01-06 01:53:39.76	171.01	20.73	-24.2	-25.5	17.7	0.00e+00	0	44	102	1048576	8	4209
2026-01-06 01:53:40.77	171.11	20.60	-24.2	-25.5	17.7	0.00e+00	0	44	102	1048576	8	4203
2026-01-06 01:53:41.78	171.20	20.48	-24.1	-25.5	17.7	0.00e+00	0	44	102	1048576	8	4193
2026-01-06 01:53:42.78	171.30	20.35	-24.4	-26.1	17.4	0.00e+00	0	44	102	1048576	8	4360
2026-01-06 01:53:43.79	171.40	20.23	-24.2	-25.2	17.6	0.00e+00	0	44	102	1048576	9	4020
2026-01-06 01:53:44.80	171.49	20.11	-24.1	-25.3	17.8	0.00e+00	0	44	102	1048576	8	4151
2026-01-06 01:53:45.80	171.59	19.98	-24.1	-25.4	17.7	0.00e+00	0	44	102	1048576	8	4179
2026-01-06 01:53:46.81	171.68	19.86	-24.0	-25.1	17.9	0.00e+00	0	44	102	1048576	8	4110
2026-01-06 01:53:47.82	171.77	19.74	-23.9	-24.9	18.0	0.00e+00	0	44	102	1048576	8	4046
2026-01-06 01:53:48.83	171.86	19.61	-23.9	-24.9	18.0	0.00e+00	0	44	102	1048576	8	4054
2026-01-06 01:53:49.83	171.96	19.49	-23.8	-25.2	18.0	0.00e+00	0	44	102	1048576	7	4244
2026-01-06 01:53:50.83	172.05	19.37	-23.3	-24.8	17.9	0.00e+00	0	44	102	1048576	7	4250
2026-01-06 01:53:51.84	172.14	19.25	-23.7	-25.1	15.5	0.00e+00	0	44	102	1048576	7	4246
2026-01-06 01:53:52.85	172.23	19.13	-23.8	-25.2	15.1	0.00e+00	0	44	102	1048576	7	4249
2026-01-06 01:53:53.86	172.32	19.01	-23.9	-25.3	17.7	0.00e+00	0	44	102	1048576	7	4275
2026-01-06 01:53:54.87	172.40	18.90	-23.9	-25.4	17.8	0.00e+00	0	44	102	1048576	7	4292
2026-01-06 01:53:55.88	172.49	18.78	-23.9	-25.5	17.9	7.08e-04	0	44	102	1048576	7	4311
2026-01-06 01:53:56.88	172.58	18.66	-24.0	-25.2	17.8	0.00e+00	0	44	102	1048576	8	4120
2026-01-06 01:53:57.89	172.66	18.54	-24.1	-25.4	17.7	4.57e-04	0	44	102	1048576	8	4167
2026-01-06 01:53:58.90	172.75	18.43	-24.2	-25.5	17.6	0.00e+00	0	44	102	1048576	8	4209
2026-01-06 01:53:59.91	172.84	18.31	-24.3	-25.7	17.5	0.00e+00	0	44	102	1048576	8	4264
2026-01-06 01:54:00.91	172.92	18.19	-24.3	-25.7	17.5	3.95e-04	0	44	102	1048576	8	4257
2026-01-06 01:54:01.92	173.00	18.08	-24.3	-25.9	17.4	6.80e-06	0	44	102	1048576	8	4303
2026-01-06 01:54:02.93	173.09	17.96	-24.4	-26.0	17.4	0.00e+00	0	44	102	1048576	8	4321
2026-01-06 01:54:03.93	173.17	17.85	-24.4	-26.0	17.3	0.00e+00	0	44	102	1048576	8	4346
2026-01-06 01:54:04.94	173.25	17.74	-24.4	-26.1	17.3	3.82e-04	0	44	102	1048576	8	4358
2026-01-06 01:54:05.95	173.33	17.62	-24.6	-25.9	17.2	0.00e+00	0	44	102	1048576	9	4188
2026-01-06 01:54:06.96	173.41	17.51	-24.7	-26.3	17.0	3.84e-04	0	44	102	1048576	9	4287
2026-01-06 01:54:07.95	173.49	17.40	-24.7	-26.1	17.0	3.51e-04	0	44	102	1048576	9	4259
2026-01-06 01:54:08.96	173.57	17.29	-24.7	-26.2	17.0	0.00e+00	0	44	102	1048576	9	4277
2026-01-06 01:54:09.97	173.65	17.18	-25.0	-26.8	16.7	3.78e-04	0	44	102	1048576	9	4431
2026-01-06 01:54:10.98	173.73	17.06	-24.8	-26.5	16.8	9.34e-04	0	44	102	1048576	9	4345
2026-01-06 01:54:11.98	173.81	16.95	-24.7	-26.2	17.0	0.00e+00	0	44	102	1048576	9	4279
2026-01-06 01:54:12.99	173.89	16.84	-24.8	-26.3	16.9	4.14e-04	0	44	102	1048576	9	4306
2026-01-06 01:54:13.99	173.96	16.74	-24.8	-26.3	16.9	4.43e-04	0	44	102	1048576	9	4313
2026-01-06 01:54:15.00	174.04	16.63	-24.9	-26.6	16.7	0.00e+00	0	44	102	1048576	9	4383
2026-01-06 01:54:16.01	174.11	16.52	-25.1	-26.4	16.6	8.83e-04	0	44	102	1048576	10	4224
2026-01-06 01:54:17.02	174.19	16.41	-25.3	-27.0	16.3	4.21e-04	0	44	102	1048576	10	4372
2026-01-06 01:54:18.03	174.27	16.30	-25.2	-26.7	16.5	0.00e+00	0	44	102	1048576	10	4291
2026-01-06 01:54:19.03	174.34	16.19	-25.1	-26.6	16.5	4.32e-04	0	44	102	1048576	10	4273
2026-01-06 01:54:20.04	174.41	16.09	-25.2	-26.8	16.3	3.44e-04	0	44	102	1048576	10	4323
2026-01-06 01:54:21.04	174.49	15.98	-25.2	-26.8	16.4	0.00e+00	0	44	102	1048576	10	4326
2026-01-06 01:54:22.05	174.56	15.87	-25.1	-26.7	16.5	3.99e-04	0	44	102	1048576	10	4285
2026-01-06 01:54:23.06	174.63	15.77	-25.2	-26.8	16.4	9.05e-04	0	44	102	1048576	10	4320
2026-01-06 01:54:24.07	174.70	15.66	-25.2	-26.8	16.4	0.00e+00	0	44	102	1048576	10	4316
2026-01-06 01:54:25.08	174.77	15.56	-25.3	-27.0	16.2	5.39e-04	0	44	102	1048576	10	4391
2026-01-06 01:54:26.08	174.85	15.45	-25.2	-26.8	16.3	3.52e-04	0	44	102	1048576	10	4327
2026-01-06 01:54:27.09	174.92	15.35	-25.2	-26.9	16.3	0.00e+00	0	44	102	1048576	10	4344
2026-01-06 01:54:28.09	174.99	15.25	-25.3	-27.0	16.3	7.90e-04	0	44	102	1048576	10	4369
2026-01-06 01:54:29.10	175.06	15.14	-25.2	-26.8	16.4	3.84e-04	0	44	102	1048576	10	4324
2026-01-06 01:54:30.11	175.12	15.04	-25.5	-27.0	16.0	0.00e+00	0	44	102	1048576	11	4257
2026-01-06 01:54:31.11	175.19	14.94	-25.2	-26.8	16.3	3.47e-04	0	44	102	1048576	10	4326
2026-01-06 01:54:32.12	175.26	14.84	-25.2	-26.8	16.3	3.46e-04	0	44	102	1048576	10	4335
2026-01-06 01:54:33.12	175.33	14.73	-25.2	-26.8	16.3	0.00e+00	0	44	102	1048576	10	4318
2026-01-06 01:54:34.13	175.40	14.63	-25.2	-26.8	16.3	3.32e-04	0	44	102	1048576	10	4312
2026-01-06 01:54:35.14	175.46	14.53	-25.3	-26.9	16.2	3.57e-04	0	44	102	1048576	10	4360
2026-01-06 01:54:36.15	175.53	14.43	-25.2	-26.7	16.4	0.00e+00	0	44	102	1048576	10	4301
2026-01-06 01:54:37.16	175.60	14.33	-25.2	-26.8	16.3	5.12e-04	0	44	102	1048576	10	4322
2026-01-06 01:54:38.17	175.66	14.23	-25.2	-26.8	16.3	4.18e-04	0	44	102	1048576	10	4326
2026-01-06 01:54:39.17	175.73	14.13	-25.2	-26.8	16.3	0.00e+00	0	44	102	1048576	10	4312
2026-01-06 01:54:40.18	175.79	14.03	-25.1	-26.7	16.4	0.00e+00	0	44	102	1048576	10	4288
2026-01-06 01:54:41.19	175.86	13.93	-25.3	-26.9	16.2	4.99e-04	0	44	102	1048576	10	4359
2026-01-06 01:54:42.20	175.92	13.83	-25.2	-26.7	16.3	0.00e+00	0	44	102	1048576	10	4288
2026-01-06 01:54:43.21	175.98	13.74	-25.2	-26.7	16.3	7.09e-04	0	44	102	1048576	10	4308
2026-01-06 01:54:44.21	176.05	13.64	-25.2	-26.8	16.3	7.27e-04	0	44	102	1048576	10	4324
2026-01-06 01:54:45.22	176.11	13.54	-25.3	-27.0	16.2	0.00e+00	0	44	102	1048576	10	4370
2026-01-06 01:54:46.22	176.17	13.45	-25.3	-27.0	16.2	1.37e-05	0	44	102	1048576	10	4370
2026-01-06 01:54:47.22	176.23	13.35	-25.3	-27.0	16.2	0.00e+00	0	44	102	1048576	10	4390
2026-01-06 01:54:48.23	176.29	13.25	-25.3	-27.1	16.1	0.00e+00	0	44	102	1048576	10	4400
2026-01-06 01:54:49.23	176.36	13.16	-25.4	-27.2	16.1	1.14e-05	0	44	102	1048576	10	4420
2026-01-06 01:54:50.24	176.42	13.06	-25.6	-27.1	15.8	0.00e+00	0	44	102	1048576	11	4299
2026-01-06 01:54:51.25	176.48	12.97	-25.6	-27.3	15.7	0.00e+00	0	44	102	1048576	11	4341
2026-01-06 01:54:52.26	176.54	12.87	-25.7	-27.4	15.7	1.37e-05	0	44	102	1048576	11	4370
2026-01-06 01:54:53.26	176.60	12.78	-25.7	-27.4	15.7	0.00e+00	0	44	102	1048576	11	4372
2026-01-06 01:54:54.26	176.66	12.69	-25.8	-27.5	15.6	0.00e+00	0	44	102	1048576	11	4407
2026-01-06 01:54:55.27	176.72	12.59	-25.9	-27.7	15.5	6.13e-04	0	44	102	1048576	11	4468
2026-01-06 01:54:56.28	176.77	12.50	-25.9	-27.4	15.3	0.00e+00	0	44	102	1048576	12	4271
2026-01-06 01:54:57.29	176.83	12.41	-25.9	-27.3	15.3	0.00e+00	0	44	102	1048576	12	4241
2026-01-06 01:54:58.29	176.89	12.31	-26.0	-28.0	15.3	1.71e-05	0	44	102	1048576	11	4539
2026-01-06 01:54:59.30	176.95	12.22	-26.0	-28.0	15.3	0.00e+00	0	44	102	1048576	11	4558
2026-01-06 01:55:00.30	177.00	12.13	-26.0	-27.6	15.2	0.00e+00	0	44	102	1048576	12	4324
2026-01-06 01:55:01.31	177.06	12.04	-26.2	-28.1	14.9	1.25e-05	0	44	102	1048576	12	4453
2026-01-06 01:55:02.32	177.12	11.95	-26.1	-27.7	15.1	0.00e+00	0	44	102	1048576	12	4358
2026-01-06 01:55:03.32	177.17	11.85	-26.0	-27.5	15.2	0.00e+00	0	44	102	1048576	12	4294
2026-01-06 01:55:04.33	177.23	11.76	-26.0	-27.6	15.2	1.10e-06	0	44	102	1048576	12	4319
2026-01-06 01:55:05.34	177.29	11.67	-26.0	-27.7	15.1	0.00e+00	0	44	102	1048576	12	4341
2026-01-06 01:55:06.34	177.34	11.58	-25.9	-27.4	15.3	0.00e+00	0	44	102	1048576	12	4259
2026-01-06 01:55:07.35	177.40	11.49	-26.0	-27.7	15.1	0.00e+00	0	44	102	1048576	12	4337
2026-01-06 01:55:08.36	177.45	11.40	-26.0	-27.6	15.1	0.00e+00	0	44	102	1048576	12	4331
2026-01-06 01:55:09.36	177.51	11.32	-26.1	-27.7	15.1	0.00e+00	0	44	102	1048576	12	4349
2026-01-06 01:55:10.37	177.56	11.23	-26.1	-27.9	15.0	0.00e+00	0	44	102	1048576	12	4399
2026-01-06 01:55:11.38	177.61	11.14	-26.1	-27.9	15.0	0.00e+00	0	44	102	1048576	12	4390
2026-01-06 01:55:12.38	177.67	11.05	-26.0	-27.6	15.1	0.00e+00	0	44	102	1048576	12	4326
2026-01-06 01:55:13.39	177.72	10.96	-25.9	-27.4	15.2	0.00e+00	0	44	102	1048576	12	4269
2026-01-06 01:55:14.39	177.77	10.87	-26.0	-27.5	15.1	0.00e+00	0	44	102	1048576	12	4306
2026-01-06 01:55:15.40	177.83	10.79	-26.0	-27.6	15.1	7.36e-04	0	44	102	1048576	12	4322
2026-01-06 01:55:16.40	177.88	10.70	-26.0	-27.7	15.1	0.00e+00	0	44	102	1048576	12	4340
2026-01-06 01:55:17.40	177.93	10.61	-26.1	-27.8	15.0	0.00e+00	0	44	102	1048576	12	4384
2026-01-06 01:55:18.41	177.98	10.53	-26.0	-27.6	15.1	1.10e-06	0	44	102	1048576	12	4321
2026-01-06 01:55:19.42	178.03	10.44	-26.1	-27.8	15.0	1.10e-06	0	44	102	1048576	12	4369
2026-01-06 01:55:20.43	178.08	10.35	-26.1	-27.9	14.9	0.00e+00	0	44	102	1048576	12	4390
2026-01-06 01:55:21.43	178.14	10.27	-26.2	-28.0	14.8	0.00e+00	0	44	102	1048576	12	4439
2026-01-06 01:55:22.44	178.19	10.18	-26.1	-27.8	14.9	4.22e-04	0	44	102	1048576	12	4378
2026-01-06 01:55:23.44	178.24	10.10	-26.2	-28.0	14.8	0.00e+00	0	44	102	1048576	12	4442
2026-01-06 01:55:24.45	178.29	10.01	-26.3	-28.2	14.7	4.49e-04	0	44	102	1048576	12	4502
2026-01-06 01:55:25.46	178.34	9.93	-26.3	-28.3	14.7	1.10e-06	0	44	102	1048576	12	4522
2026-01-06 01:55:26.46	178.39	9.84	-26.3	-28.3	14.7	0.00e+00	0	44	102	1048576	12	4530
2026-01-06 01:55:27.47	178.43	9.76	-26.3	-28.3	13.2	3.80e-04	0	44	102	1048576	12	4529
2026-01-06 01:55:28.48	178.48	9.68	-26.5	-28.7	14.1	3.68e-04	0	44	102	1048576	12	4629
2026-01-06 01:55:29.49	178.53	9.59	-26.4	-28.0	14.6	0.00e+00	0	44	102	1048576	13	4321
2026-01-06 01:55:30.49	178.58	9.51	-26.5	-28.1	14.5	0.00e+00	0	44	102	1048576	13	4365
2026-01-06 01:55:31.50	178.63	9.43	-26.5	-28.2	14.4	2.78e-04	0	44	102	1048576	13	4392
2026-01-06 01:55:32.51	178.68	9.34	-26.4	-28.0	14.5	1.10e-06	0	44	102	1048576	13	4322
2026-01-06 01:55:33.51	178.72	9.26	-26.4	-28.5	14.5	3.05e-04	0	44	102	1048576	12	4570
2026-01-06 01:55:34.52	178.77	9.18	-26.4	-28.5	14.5	3.43e-04	0	44	102	1048576	12	4595
2026-01-06 01:55:35.53	178.82	9.10	-26.4	-28.5	14.5	0.00e+00	0	44	102	1048576	12	4596
2026-01-06 01:55:36.53	178.87	9.02	-26.3	-28.3	14.6	3.01e-04	0	44	102	1048576	12	4537
2026-01-06 01:55:37.54	178.91	8.93	-26.3	-28.3	14.6	1.15e-03	0	44	102	1048576	12	4526
2026-01-06 01:55:38.55	178.96	8.85	-26.3	-28.3	14.6	1.10e-06	0	44	102	1048576	12	4542
2026-01-06 01:55:39.55	179.01	8.77	-26.5	-28.7	14.4	8.56e-04	0	44	102	1048576	12	4650
2026-01-06 01:55:40.56	179.05	8.69	-26.6	-28.4	14.3	2.85e-04	0	44	102	1048576	13	4428
2026-01-06 01:55:41.57	179.10	8.61	-26.4	-28.1	14.4	0.00e+00	0	44	102	1048576	13	4357
2026-01-06 01:55:42.57	179.14	8.53	-26.6	-28.4	14.3	1.04e-03	0	44	102	1048576	13	4435
2026-01-06 01:55:43.58	179.19	8.45	-26.6	-28.4	14.2	2.23e-04	0	44	102	1048576	13	4454
2026-01-06 01:55:44.58	179.23	8.37	-26.6	-28.4	14.2	0.00e+00	0	44	102	1048576	13	4451
2026-01-06 01:55:45.59	179.28	8.29	-26.6	-28.3	14.3	1.91e-04	0	44	102	1048576	13	4423
2026-01-06 01:55:46.59	179.32	8.21	-26.4	-28.6	14.4	8.71e-04	0	44	102	1048576	12	4602
2026-01-06 01:55:47.60	179.37	8.13	-26.5	-28.3	14.3	1.10e-06	0	44	102	1048576	13	4399
2026-01-06 01:55:48.61	179.41	8.06	-26.5	-28.2	14.3	8.70e-04	0	44	102	1048576	13	4386
2026-01-06 01:55:49.62	179.46	7.98	-26.5	-28.3	14.3	1.04e-03	0	44	102	1048576	13	4398
2026-01-06 01:55:50.62	179.50	7.90	-26.8	-28.9	13.9	9.10e-06	0	44	102	1048576	13	4577
2026-01-06 01:55:51.62	179.54	7.82	-26.7	-28.7	14.0	9.30e-04	0	44	102	1048576	13	4523
2026-01-06 01:55:52.63	179.59	7.74	-26.5	-28.3	14.2	2.79e-04	0	44	102	1048576	13	4414
2026-01-06 01:55:53.63	179.63	7.67	-26.6	-28.4	14.2	1.10e-06	0	44	102	1048576	13	4436
2026-01-06 01:55:54.64	179.67	7.59	-26.5	-28.2	14.3	1.28e-03	0	44	102	1048576	13	4379
2026-01-06 01:55:55.65	179.71	7.51	-26.7	-28.6	14.0	8.77e-04	0	44	102	1048576	13	4501
