passes_logs/2026/01/06/R2M6_AANII_01/R2M6_AANII_01__20260106_073952_NOAA_20_JPSS-1_rec.log

#Pass ID: 20260106_073952_NOAA 20 (JPSS-1)
#Satellite: NOAA 20 (JPSS-1)
#Configuration: NOAA 20
#almurnet v.1.7.20240730
#Start time: 2026-01-06 07:39:52

#Version: 2.2.20231116
#Station: R2M6_AANII_01
#Location: 30.233357 lon 59.946436 lat
#TLE: 1 43013U 17073A   26005.46207808  .00000128  00000+0  81791-4 0  9997
#TLE: 2 43013  98.7627 306.5027 0001826  53.0458 307.0885 14.19533487421381

#Time	Az	El	Level	Level2	SNR	BER	BlckErr	Temp	State	Recorded	gain1	gain2
2026-01-06 07:39:52.27	77.42	6.99	-32.4	-43.3	3.9	1.49e+00	0	40	0	0	26	12694
2026-01-06 07:39:53.27	77.30	7.04	-31.9	-40.0	4.4	1.37e+00	0	40	104	0	25	9088
2026-01-06 07:39:54.27	77.18	7.10	-31.9	-39.6	5.5	5.08e-01	0	40	0	0	25	8757
2026-01-06 07:39:55.28	77.06	7.15	-31.9	-39.5	5.6	4.73e-01	0	40	102	1048576	25	8640
2026-01-06 07:39:56.29	76.94	7.20	-31.9	-39.2	5.8	4.16e-01	0	40	102	1048576	25	8373
2026-01-06 07:39:57.30	76.81	7.25	-31.9	-39.2	5.8	3.85e-01	0	40	102	1048576	25	8357
2026-01-06 07:39:58.30	76.69	7.31	-31.9	-39.2	5.8	3.68e-01	0	41	102	1048576	25	8374
2026-01-06 07:39:59.31	76.57	7.36	-31.9	-39.2	5.8	3.96e-01	0	41	102	1048576	25	8350
2026-01-06 07:40:00.32	76.44	7.41	-31.8	-38.7	6.1	3.49e-01	0	41	102	1048576	25	7970
2026-01-06 07:40:01.33	76.32	7.46	-31.7	-38.4	6.7	2.46e-01	0	41	102	1048576	24	7788
2026-01-06 07:40:02.33	76.20	7.52	-31.5	-37.2	7.6	1.19e-01	0	41	102	1048576	24	6987
2026-01-06 07:40:03.34	76.07	7.57	-31.3	-36.4	8.3	6.81e-02	0	41	102	1048576	24	6480
2026-01-06 07:40:04.35	75.95	7.62	-31.1	-36.0	9.0	3.58e-02	0	41	102	1048576	23	6336
2026-01-06 07:40:05.36	75.82	7.67	-31.0	-35.4	9.5	1.71e-02	0	41	102	1048576	23	6022
2026-01-06 07:40:06.36	75.69	7.73	-30.9	-35.0	9.9	1.10e-02	0	41	102	1048576	23	5787
2026-01-06 07:40:07.36	75.57	7.78	-30.8	-34.9	10.0	8.36e-03	0	41	102	1048576	23	5733
2026-01-06 07:40:08.37	75.44	7.83	-30.8	-34.7	10.2	6.47e-03	0	41	102	1048576	23	5632
2026-01-06 07:40:09.38	75.31	7.88	-30.7	-34.9	10.3	5.24e-03	0	41	102	1048576	22	5856
2026-01-06 07:40:10.38	75.19	7.93	-30.7	-34.9	10.4	4.35e-03	0	41	102	1048576	22	5816
2026-01-06 07:40:11.39	75.06	7.99	-30.8	-35.1	10.2	5.46e-03	0	41	102	1048576	22	5954
2026-01-06 07:40:12.40	74.93	8.04	-30.8	-35.2	10.2	5.76e-03	0	41	102	1048576	22	5997
2026-01-06 07:40:13.41	74.80	8.09	-30.8	-35.1	10.3	6.37e-03	0	41	102	1048576	22	5926
2026-01-06 07:40:14.42	74.67	8.14	-30.6	-34.6	10.7	4.43e-03	0	41	102	1048576	22	5684
2026-01-06 07:40:15.43	74.54	8.20	-30.6	-34.7	10.6	3.45e-03	0	41	102	1048576	22	5723
2026-01-06 07:40:16.43	74.41	8.25	-30.7	-34.8	10.5	3.65e-03	0	41	102	1048576	22	5783
2026-01-06 07:40:17.44	74.27	8.30	-30.7	-34.8	10.5	4.07e-03	0	41	102	1048576	22	5802
2026-01-06 07:40:18.45	74.14	8.35	-30.7	-34.8	10.5	4.21e-03	0	41	102	1048576	22	5802
2026-01-06 07:40:19.45	74.01	8.40	-30.7	-34.9	10.5	3.67e-03	0	41	102	1048576	22	5801
2026-01-06 07:40:20.46	73.88	8.46	-30.7	-34.8	10.5	3.99e-03	0	41	102	1048576	22	5785
2026-01-06 07:40:21.46	73.74	8.51	-30.7	-34.7	10.7	3.37e-03	0	41	102	1048576	22	5719
2026-01-06 07:40:22.47	73.61	8.56	-30.7	-34.9	10.5	3.55e-03	0	41	102	1048576	22	5824
2026-01-06 07:40:23.48	73.48	8.61	-30.7	-34.9	10.5	4.42e-03	0	41	102	1048576	22	5826
2026-01-06 07:40:24.49	73.34	8.66	-30.8	-35.1	10.4	4.56e-03	0	41	102	1048576	22	5894
2026-01-06 07:40:25.50	73.20	8.72	-30.8	-35.1	10.3	4.80e-03	0	42	102	1048576	22	5919
2026-01-06 07:40:26.50	73.07	8.77	-30.8	-35.3	10.3	5.11e-03	0	41	102	1048576	22	5987
2026-01-06 07:40:27.51	72.93	8.82	-30.9	-35.3	10.2	6.12e-03	0	41	102	1048576	22	6025
2026-01-06 07:40:28.52	72.80	8.87	-30.8	-35.2	10.4	5.10e-03	0	41	102	1048576	22	5937
2026-01-06 07:40:29.53	72.66	8.92	-30.8	-35.1	10.4	4.45e-03	0	41	102	1048576	22	5891
2026-01-06 07:40:30.53	72.52	8.97	-30.8	-35.1	10.4	4.42e-03	0	42	102	1048576	22	5907
2026-01-06 07:40:31.54	72.38	9.02	-30.9	-35.4	10.2	4.90e-03	0	41	102	1048576	22	6031
2026-01-06 07:40:32.54	72.25	9.08	-30.9	-35.4	10.2	7.20e-03	0	41	102	1048576	22	6046
2026-01-06 07:40:33.55	72.11	9.13	-30.7	-34.8	10.7	3.91e-03	0	41	102	1048576	22	5736
2026-01-06 07:40:34.55	71.97	9.18	-30.7	-34.6	10.8	2.63e-03	0	42	102	1048576	22	5678
2026-01-06 07:40:35.56	71.83	9.23	-30.7	-34.8	10.7	2.83e-03	0	41	102	1048576	22	5730
2026-01-06 07:40:36.56	71.69	9.28	-30.8	-34.9	10.6	3.06e-03	0	42	102	1048576	22	5802
2026-01-06 07:40:37.57	71.54	9.33	-30.8	-35.2	10.4	4.70e-03	0	42	102	1048576	22	5956
2026-01-06 07:40:38.58	71.40	9.38	-30.9	-35.3	10.3	5.02e-03	0	42	102	1048576	22	6002
2026-01-06 07:40:39.58	71.26	9.43	-30.9	-35.4	10.2	5.89e-03	0	42	102	1048576	22	6073
2026-01-06 07:40:40.59	71.12	9.48	-30.9	-35.2	10.4	5.79e-03	0	42	102	1048576	22	5969
2026-01-06 07:40:41.60	70.97	9.54	-30.9	-35.3	10.4	4.66e-03	0	42	102	1048576	22	5976
2026-01-06 07:40:42.61	70.83	9.59	-30.9	-35.4	10.3	5.12e-03	0	42	102	1048576	22	6036
2026-01-06 07:40:43.62	70.69	9.64	-30.9	-35.2	10.4	6.04e-03	0	42	102	1048576	22	5950
2026-01-06 07:40:44.62	70.54	9.69	-30.8	-35.2	10.5	4.01e-03	0	42	102	1048576	22	5915
2026-01-06 07:40:45.63	70.40	9.74	-30.8	-35.1	10.5	3.91e-03	0	42	102	1048576	22	5890
2026-01-06 07:40:46.63	70.25	9.79	-30.9	-35.5	10.3	4.24e-03	0	42	102	1048576	22	6062
2026-01-06 07:40:47.64	70.10	9.84	-30.9	-35.2	10.5	5.61e-03	0	42	102	1048576	22	5906
2026-01-06 07:40:48.65	69.96	9.89	-30.7	-34.8	10.8	2.72e-03	0	42	102	1048576	22	5720
2026-01-06 07:40:49.66	69.81	9.94	-30.7	-34.6	11.0	2.20e-03	0	42	102	1048576	22	5639
2026-01-06 07:40:50.66	69.66	9.99	-30.8	-34.9	10.8	2.35e-03	0	42	102	1048576	22	5758
2026-01-06 07:40:51.67	69.51	10.04	-30.7	-34.7	10.9	2.58e-03	0	42	102	1048576	22	5660
2026-01-06 07:40:52.68	69.36	10.09	-30.8	-34.8	10.8	2.16e-03	0	42	102	1048576	22	5740
2026-01-06 07:40:53.69	69.22	10.14	-30.6	-34.4	11.1	2.52e-03	0	42	102	1048576	22	5553
2026-01-06 07:40:54.69	69.07	10.19	-30.6	-34.2	11.2	1.16e-03	0	42	102	1048576	22	5465
2026-01-06 07:40:55.70	68.92	10.24	-30.5	-33.9	11.5	8.66e-04	0	42	102	1048576	22	5325
2026-01-06 07:40:56.71	68.76	10.29	-30.4	-33.8	11.6	7.72e-04	0	42	102	1048576	22	5266
2026-01-06 07:40:57.72	68.61	10.34	-30.4	-33.6	11.7	6.45e-04	0	42	102	1048576	22	5197
2026-01-06 07:40:58.72	68.46	10.39	-30.4	-33.7	11.6	6.06e-04	0	42	102	1048576	22	5238
2026-01-06 07:40:59.72	68.31	10.44	-30.4	-33.5	11.8	5.82e-04	0	42	102	1048576	22	5145
2026-01-06 07:41:00.73	68.16	10.49	-30.3	-33.3	11.9	4.14e-04	0	42	102	1048576	22	5089
2026-01-06 07:41:01.74	68.00	10.54	-30.3	-33.3	12.0	3.98e-04	0	42	102	1048576	22	5068
2026-01-06 07:41:02.74	67.85	10.58	-30.4	-33.5	11.8	4.90e-04	0	42	102	1048576	22	5164
2026-01-06 07:41:03.74	67.70	10.63	-30.3	-33.3	11.9	4.52e-04	0	42	102	1048576	22	5078
2026-01-06 07:41:04.75	67.54	10.68	-30.3	-33.7	11.9	3.34e-04	0	42	102	1048576	21	5356
2026-01-06 07:41:05.76	67.38	10.73	-30.3	-34.0	11.7	4.62e-04	0	42	102	1048576	21	5496
2026-01-06 07:41:06.77	67.23	10.78	-30.5	-34.4	11.4	7.98e-04	0	42	102	1048576	21	5674
2026-01-06 07:41:07.78	67.07	10.83	-30.5	-34.4	11.5	9.19e-04	0	42	102	1048576	21	5646
2026-01-06 07:41:08.78	66.91	10.88	-30.4	-34.0	11.8	5.78e-04	0	42	102	1048576	21	5493
2026-01-06 07:41:09.79	66.76	10.92	-30.3	-33.9	11.8	4.86e-04	0	42	102	1048576	21	5444
2026-01-06 07:41:10.79	66.60	10.97	-30.4	-34.2	11.7	5.97e-04	0	42	102	1048576	21	5534
2026-01-06 07:41:11.80	66.44	11.02	-30.4	-34.1	11.7	6.11e-04	0	42	102	1048576	21	5490
2026-01-06 07:41:12.81	66.28	11.07	-30.5	-34.5	11.5	6.74e-04	0	42	102	1048576	21	5675
2026-01-06 07:41:13.82	66.12	11.12	-30.4	-34.1	11.7	9.29e-04	0	42	102	1048576	21	5510
2026-01-06 07:41:14.82	65.96	11.16	-30.2	-33.4	12.2	2.94e-04	0	42	102	1048576	21	5237
2026-01-06 07:41:15.83	65.80	11.21	-30.1	-33.0	12.5	1.74e-04	0	42	102	1048576	21	5077
2026-01-06 07:41:16.83	65.64	11.26	-30.0	-32.9	12.6	1.01e-04	0	42	102	1048576	21	5011
2026-01-06 07:41:17.83	65.48	11.31	-30.0	-33.0	12.5	9.53e-05	0	42	102	1048576	21	5042
2026-01-06 07:41:18.84	65.31	11.35	-30.0	-32.8	12.7	8.62e-05	0	42	102	1048576	21	4980
2026-01-06 07:41:19.84	65.15	11.40	-30.0	-32.8	12.7	7.47e-05	0	42	102	1048576	21	4972
2026-01-06 07:41:20.84	64.99	11.45	-30.0	-32.7	12.7	7.32e-05	0	42	102	1048576	21	4961
2026-01-06 07:41:21.84	64.83	11.49	-30.0	-32.8	12.7	7.78e-05	0	42	102	1048576	21	4964
2026-01-06 07:41:22.85	64.66	11.54	-30.0	-32.7	12.7	7.93e-05	0	42	102	1048576	21	4961
2026-01-06 07:41:23.86	64.50	11.59	-30.0	-33.0	12.5	1.07e-04	0	42	102	1048576	21	5044
2026-01-06 07:41:24.87	64.33	11.63	-30.0	-32.7	12.7	9.46e-05	0	42	102	1048576	21	4964
2026-01-06 07:41:25.87	64.17	11.68	-30.0	-32.9	12.6	6.40e-05	0	42	102	1048576	21	5032
2026-01-06 07:41:26.87	64.00	11.72	-29.9	-32.6	12.8	9.00e-05	0	42	102	1048576	21	4923
2026-01-06 07:41:27.88	63.83	11.77	-29.8	-32.4	12.9	3.66e-05	0	42	102	1048576	21	4843
2026-01-06 07:41:28.89	63.66	11.82	-29.9	-32.6	12.8	5.41e-05	0	42	102	1048576	21	4914
2026-01-06 07:41:29.90	63.50	11.86	-29.8	-32.4	13.0	3.89e-05	0	42	102	1048576	21	4829
2026-01-06 07:41:30.90	63.33	11.91	-29.8	-32.4	12.9	3.89e-05	0	42	102	1048576	21	4841
2026-01-06 07:41:31.91	63.16	11.95	-29.9	-32.4	13.0	4.42e-05	0	42	102	1048576	21	4834
2026-01-06 07:41:32.92	62.99	12.00	-29.8	-32.7	13.1	2.59e-05	0	42	102	1048576	20	5033
2026-01-06 07:41:33.93	62.82	12.04	-29.8	-32.8	13.1	2.82e-05	0	42	102	1048576	20	5073
2026-01-06 07:41:34.93	62.65	12.09	-29.9	-33.0	12.9	5.49e-05	0	42	102	1048576	20	5149
2026-01-06 07:41:35.93	62.48	12.13	-29.9	-32.9	13.0	3.96e-05	0	42	102	1048576	20	5124
2026-01-06 07:41:36.94	62.30	12.18	-29.9	-33.1	12.9	4.11e-05	0	42	102	1048576	20	5213
2026-01-06 07:41:37.95	62.13	12.22	-30.1	-33.6	12.6	9.00e-05	0	42	102	1048576	20	5370
2026-01-06 07:41:38.96	61.96	12.26	-30.0	-33.4	12.6	9.30e-05	0	42	102	1048576	20	5325
2026-01-06 07:41:39.97	61.78	12.31	-30.1	-33.7	12.5	1.02e-04	0	42	102	1048576	20	5443
2026-01-06 07:41:40.98	61.61	12.35	-30.3	-34.3	12.0	2.40e-04	0	42	102	1048576	20	5699
2026-01-06 07:41:41.98	61.44	12.40	-30.3	-34.1	12.2	2.70e-04	0	42	102	1048576	20	5585
2026-01-06 07:41:42.98	61.26	12.44	-30.2	-34.0	12.3	1.57e-04	0	42	102	1048576	20	5544
2026-01-06 07:41:43.99	61.09	12.48	-30.2	-33.8	12.4	1.76e-04	0	42	102	1048576	20	5487
2026-01-06 07:41:45.00	60.91	12.53	-30.2	-33.9	12.3	1.50e-04	0	42	102	1048576	20	5510
2026-01-06 07:41:46.01	60.73	12.57	-30.4	-34.5	11.9	2.97e-04	0	42	102	1048576	20	5788
2026-01-06 07:41:47.01	60.56	12.61	-30.2	-34.0	12.3	3.19e-04	0	42	102	1048576	20	5543
2026-01-06 07:41:48.01	60.38	12.65	-30.1	-33.6	12.5	1.24e-04	0	42	102	1048576	20	5392
2026-01-06 07:41:49.01	60.20	12.69	-30.0	-33.2	12.8	9.07e-05	0	42	102	1048576	20	5239
2026-01-06 07:41:50.02	60.02	12.74	-29.9	-33.1	12.9	6.02e-05	0	43	102	1048576	20	5189
2026-01-06 07:41:51.02	59.85	12.78	-30.0	-33.2	12.8	5.11e-05	0	42	102	1048576	20	5226
2026-01-06 07:41:52.02	59.67	12.82	-30.1	-33.7	12.5	9.07e-05	0	42	102	1048576	20	5412
2026-01-06 07:41:53.03	59.49	12.86	-30.1	-33.7	12.5	1.20e-04	0	42	102	1048576	20	5422
2026-01-06 07:41:54.03	59.31	12.90	-30.2	-33.9	12.3	1.18e-04	0	42	102	1048576	20	5525
2026-01-06 07:41:55.04	59.12	12.94	-30.2	-33.8	12.5	1.65e-04	0	42	102	1048576	20	5460
2026-01-06 07:41:56.05	58.94	12.98	-30.2	-33.9	12.4	1.35e-04	0	42	102	1048576	20	5498
2026-01-06 07:41:57.06	58.76	13.02	-30.3	-34.1	12.2	1.62e-04	0	42	102	1048576	20	5594
2026-01-06 07:41:58.07	58.58	13.07	-30.4	-34.5	12.0	3.28e-04	0	42	102	1048576	20	5761
2026-01-06 07:41:59.08	58.39	13.11	-30.3	-34.0	12.2	2.64e-04	0	42	102	1048576	20	5561
2026-01-06 07:42:00.08	58.21	13.15	-30.2	-33.8	12.4	1.75e-04	0	42	102	1048576	20	5483
2026-01-06 07:42:01.07	58.03	13.18	-30.2	-33.8	12.4	1.27e-04	0	43	102	1048576	20	5452
2026-01-06 07:42:02.08	57.84	13.22	-30.2	-33.7	12.5	1.30e-04	0	43	102	1048576	20	5443
2026-01-06 07:42:03.08	57.66	13.26	-30.1	-33.6	12.6	1.26e-04	0	42	102	1048576	20	5390
2026-01-06 07:42:04.09	57.47	13.30	-30.1	-33.7	12.5	1.01e-04	0	42	102	1048576	20	5430
2026-01-06 07:42:05.11	57.28	13.34	-30.4	-34.4	12.0	2.45e-04	0	43	102	1048576	20	5740
2026-01-06 07:42:06.11	57.10	13.38	-30.2	-33.8	12.4	1.83e-04	0	42	102	1048576	20	5480
2026-01-06 07:42:07.11	56.91	13.42	-30.0	-33.2	12.9	9.91e-05	0	43	102	1048576	20	5225
2026-01-06 07:42:08.12	56.72	13.46	-29.8	-32.7	13.2	2.36e-05	0	42	102	1048576	20	5026
2026-01-06 07:42:09.14	56.53	13.49	-29.8	-32.7	13.3	1.98e-05	0	42	102	1048576	20	5014
2026-01-06 07:42:10.14	56.35	13.53	-29.8	-32.7	13.2	2.21e-05	0	43	102	1048576	20	5021
2026-01-06 07:42:11.15	56.16	13.57	-29.8	-32.6	13.3	1.52e-05	0	42	102	1048576	20	4978
2026-01-06 07:42:12.15	55.97	13.60	-29.8	-32.5	13.3	1.52e-05	0	42	102	1048576	20	4964
2026-01-06 07:42:13.16	55.78	13.64	-29.8	-32.8	13.2	1.52e-05	0	42	102	1048576	20	5060
2026-01-06 07:42:14.17	55.59	13.68	-29.7	-32.4	13.5	1.60e-05	0	43	102	1048576	20	4900
2026-01-06 07:42:15.17	55.40	13.71	-29.6	-32.1	13.6	7.60e-06	0	43	102	1048576	20	4816
2026-01-06 07:42:16.18	55.20	13.75	-29.6	-32.1	13.7	9.10e-06	0	42	102	1048576	20	4794
2026-01-06 07:42:17.18	55.01	13.79	-29.6	-32.3	13.5	6.80e-06	0	42	102	1048576	20	4862
2026-01-06 07:42:18.19	54.82	13.82	-29.7	-32.3	13.5	9.90e-06	0	43	102	1048576	20	4892
2026-01-06 07:42:19.20	54.63	13.86	-29.7	-32.3	13.5	9.90e-06	0	43	102	1048576	20	4887
2026-01-06 07:42:20.21	54.43	13.89	-29.7	-32.4	13.5	7.60e-06	0	42	102	1048576	20	4904
2026-01-06 07:42:21.22	54.24	13.93	-29.6	-32.0	13.7	7.60e-06	0	42	102	1048576	20	4782
2026-01-06 07:42:22.22	54.05	13.96	-29.5	-32.0	13.8	3.00e-06	0	42	102	1048576	20	4752
2026-01-06 07:42:23.23	53.85	13.99	-29.6	-32.2	13.6	6.10e-06	0	43	102	1048576	20	4840
2026-01-06 07:42:24.24	53.66	14.03	-29.7	-32.4	13.4	1.37e-05	0	43	102	1048576	20	4928
2026-01-06 07:42:25.24	53.46	14.06	-29.7	-32.3	13.5	8.30e-06	0	43	102	1048576	20	4864
2026-01-06 07:42:26.25	53.26	14.09	-29.6	-32.2	13.6	9.10e-06	0	43	102	1048576	20	4857
2026-01-06 07:42:27.25	53.07	14.13	-29.6	-32.2	13.6	7.60e-06	0	43	102	1048576	20	4827
2026-01-06 07:42:28.26	52.87	14.16	-29.6	-32.2	13.7	9.90e-06	0	42	102	1048576	20	4824
2026-01-06 07:42:29.27	52.67	14.19	-29.7	-32.4	13.5	1.06e-05	0	43	102	1048576	20	4899
2026-01-06 07:42:30.28	52.47	14.22	-29.6	-32.3	13.6	1.44e-05	0	42	102	1048576	20	4864
2026-01-06 07:42:31.28	52.28	14.26	-29.8	-32.6	13.3	1.52e-05	0	43	102	1048576	20	4974
2026-01-06 07:42:32.29	52.08	14.29	-29.6	-32.1	13.7	7.60e-06	0	43	102	1048576	20	4793
2026-01-06 07:42:33.30	51.88	14.32	-29.5	-31.9	13.9	4.50e-06	0	43	102	1048576	20	4721
2026-01-06 07:42:34.30	51.68	14.35	-29.5	-31.9	13.8	3.00e-06	0	43	102	1048576	20	4741
2026-01-06 07:42:35.31	51.48	14.38	-29.6	-32.1	13.7	9.10e-06	0	42	102	1048576	20	4817
2026-01-06 07:42:36.32	51.28	14.41	-29.6	-32.0	13.7	4.50e-06	0	43	102	1048576	20	4769
2026-01-06 07:42:37.32	51.08	14.44	-29.5	-31.9	13.9	3.80e-06	0	43	102	1048576	20	4722
2026-01-06 07:42:38.33	50.88	14.47	-29.4	-31.7	14.0	1.50e-06	0	43	102	1048576	20	4660
2026-01-06 07:42:39.33	50.68	14.50	-29.5	-31.8	13.9	3.00e-06	0	43	102	1048576	20	4695
2026-01-06 07:42:40.34	50.48	14.53	-29.5	-31.9	13.8	3.00e-06	0	42	102	1048576	20	4713
2026-01-06 07:42:41.35	50.27	14.56	-29.7	-32.2	13.6	6.10e-06	0	43	102	1048576	20	4844
2026-01-06 07:42:42.35	50.07	14.58	-29.7	-32.3	13.5	8.30e-06	0	43	102	1048576	20	4871
2026-01-06 07:42:43.36	49.87	14.61	-29.7	-32.4	13.5	1.29e-05	0	43	102	1048576	20	4915
2026-01-06 07:42:44.36	49.67	14.64	-29.8	-32.5	13.4	2.05e-05	0	43	102	1048576	20	4951
2026-01-06 07:42:45.37	49.46	14.67	-29.7	-32.4	13.5	1.14e-05	0	43	102	1048576	20	4926
2026-01-06 07:42:46.37	49.26	14.69	-29.8	-32.7	13.3	1.29e-05	0	43	102	1048576	20	4995
2026-01-06 07:42:47.37	49.06	14.72	-29.9	-32.8	13.3	2.97e-05	0	43	102	1048576	20	5043
2026-01-06 07:42:48.38	48.85	14.75	-29.8	-32.7	13.3	1.44e-05	0	43	102	1048576	20	5017
2026-01-06 07:42:49.38	48.65	14.77	-29.9	-32.8	13.2	2.89e-05	0	43	102	1048576	20	5044
2026-01-06 07:42:50.39	48.44	14.80	-29.8	-32.6	13.4	1.83e-05	0	43	102	1048576	20	4962
2026-01-06 07:42:51.40	48.23	14.82	-29.8	-32.6	13.4	9.10e-06	0	43	102	1048576	20	4982
2026-01-06 07:42:52.40	48.03	14.85	-29.8	-32.7	13.3	1.67e-05	0	43	102	1048576	20	5011
2026-01-06 07:42:53.41	47.82	14.87	-29.9	-32.8	13.3	1.06e-05	0	43	102	1048576	20	5064
2026-01-06 07:42:54.42	47.61	14.90	-29.9	-33.0	13.1	2.82e-05	0	43	102	1048576	20	5139
2026-01-06 07:42:55.43	47.40	14.92	-29.9	-32.9	13.1	2.82e-05	0	43	102	1048576	20	5101
2026-01-06 07:42:56.43	47.20	14.94	-29.8	-32.6	13.4	2.21e-05	0	43	102	1048576	20	4993
2026-01-06 07:42:57.44	46.99	14.97	-29.8	-32.7	13.3	1.37e-05	0	43	102	1048576	20	5019
2026-01-06 07:42:58.45	46.78	14.99	-29.9	-32.9	13.2	1.75e-05	0	43	102	1048576	20	5087
2026-01-06 07:42:59.46	46.57	15.01	-30.0	-33.2	13.0	3.28e-05	0	43	102	1048576	20	5218
2026-01-06 07:43:00.46	46.36	15.03	-30.1	-33.4	12.9	5.11e-05	0	43	102	1048576	20	5263
2026-01-06 07:43:01.48	46.15	15.06	-30.0	-33.2	13.0	4.11e-05	0	43	102	1048576	20	5193
2026-01-06 07:43:02.49	45.94	15.08	-29.9	-33.0	13.2	3.89e-05	0	43	102	1048576	20	5109
2026-01-06 07:43:03.49	45.73	15.10	-29.8	-32.7	13.3	1.90e-05	0	43	102	1048576	20	5010
2026-01-06 07:43:04.50	45.52	15.12	-29.8	-32.7	13.3	2.44e-05	0	43	102	1048576	20	5016
2026-01-06 07:43:05.50	45.31	15.14	-29.9	-33.0	13.1	1.90e-05	0	43	102	1048576	20	5137
2026-01-06 07:43:06.51	45.10	15.16	-29.9	-33.0	13.1	3.81e-05	0	43	102	1048576	20	5126
2026-01-06 07:43:07.51	44.89	15.18	-29.9	-32.9	13.2	1.90e-05	0	43	102	1048576	20	5096
2026-01-06 07:43:08.52	44.68	15.20	-29.9	-32.8	13.2	2.28e-05	0	43	102	1048576	20	5052
2026-01-06 07:43:09.52	44.47	15.22	-29.8	-32.8	13.3	1.90e-05	0	43	102	1048576	20	5041
2026-01-06 07:43:10.53	44.26	15.23	-29.9	-33.0	13.1	1.98e-05	0	43	102	1048576	20	5118
2026-01-06 07:43:11.53	44.05	15.25	-30.0	-33.1	13.1	3.96e-05	0	43	102	1048576	20	5164
2026-01-06 07:43:12.54	43.83	15.27	-29.9	-32.9	13.2	2.59e-05	0	43	102	1048576	20	5091
2026-01-06 07:43:13.55	43.62	15.29	-29.9	-32.8	13.2	1.90e-05	0	42	102	1048576	20	5055
2026-01-06 07:43:14.55	43.41	15.30	-29.8	-32.7	13.3	2.36e-05	0	43	102	1048576	20	5024
2026-01-06 07:43:15.56	43.20	15.32	-29.9	-32.9	13.2	1.90e-05	0	43	102	1048576	20	5099
2026-01-06 07:43:16.57	42.98	15.34	-30.0	-33.1	13.1	2.59e-05	0	43	102	1048576	20	5158
2026-01-06 07:43:17.58	42.77	15.35	-30.0	-33.3	13.0	3.66e-05	0	43	102	1048576	20	5232
2026-01-06 07:43:18.58	42.55	15.37	-30.1	-33.5	12.8	6.86e-05	0	43	102	1048576	20	5313
2026-01-06 07:43:19.58	42.34	15.38	-30.2	-33.7	12.7	5.95e-05	0	43	102	1048576	20	5396
2026-01-06 07:43:20.59	42.13	15.40	-30.2	-33.7	12.7	1.16e-04	0	43	102	1048576	20	5390
2026-01-06 07:43:21.60	41.91	15.41	-30.1	-33.5	12.8	6.56e-05	0	43	102	1048576	20	5318
2026-01-06 07:43:22.60	41.70	15.42	-30.2	-33.8	12.6	6.17e-05	0	43	102	1048576	20	5451
2026-01-06 07:43:23.61	41.48	15.44	-30.2	-33.7	12.7	1.13e-04	0	43	102	1048576	20	5393
2026-01-06 07:43:24.62	41.27	15.45	-30.1	-33.4	12.9	6.33e-05	0	43	102	1048576	20	5291
2026-01-06 07:43:25.62	41.05	15.46	-30.1	-33.4	12.8	5.41e-05	0	43	102	1048576	20	5295
2026-01-06 07:43:26.63	40.84	15.48	-30.1	-33.5	12.8	5.95e-05	0	43	102	1048576	20	5326
2026-01-06 07:43:27.64	40.62	15.49	-30.1	-33.4	12.9	6.40e-05	0	43	102	1048576	20	5288
2026-01-06 07:43:28.64	40.41	15.50	-30.0	-33.2	13.0	5.11e-05	0	43	102	1048576	20	5195
2026-01-06 07:43:29.65	40.19	15.51	-29.9	-32.9	13.2	2.74e-05	0	43	102	1048576	20	5085
2026-01-06 07:43:30.65	39.98	15.52	-29.9	-32.9	13.2	2.51e-05	0	43	102	1048576	20	5091
2026-01-06 07:43:31.66	39.76	15.53	-29.9	-32.9	13.2	2.89e-05	0	43	102	1048576	20	5103
2026-01-06 07:43:32.67	39.54	15.54	-29.9	-33.0	13.2	2.21e-05	0	43	102	1048576	20	5126
2026-01-06 07:43:33.68	39.33	15.55	-30.0	-33.3	13.0	2.44e-05	0	43	102	1048576	20	5235
2026-01-06 07:43:34.68	39.11	15.56	-30.0	-33.2	13.0	3.43e-05	0	43	102	1048576	20	5210
2026-01-06 07:43:35.68	38.90	15.57	-30.0	-33.2	13.1	3.81e-05	0	43	102	1048576	20	5192
2026-01-06 07:43:36.68	38.68	15.57	-30.0	-33.1	13.1	3.12e-05	0	43	102	1048576	20	5165
2026-01-06 07:43:37.69	38.46	15.58	-30.0	-33.0	13.1	2.36e-05	0	43	102	1048576	20	5138
2026-01-06 07:43:38.69	38.25	15.59	-29.9	-32.9	13.3	2.13e-05	0	42	102	1048576	20	5064
2026-01-06 07:43:39.70	38.03	15.60	-29.9	-33.0	13.2	2.59e-05	0	43	102	1048576	20	5108
2026-01-06 07:43:40.71	37.81	15.60	-30.0	-33.2	13.0	3.35e-05	0	43	102	1048576	20	5182
2026-01-06 07:43:41.72	37.59	15.61	-30.0	-33.1	13.1	3.81e-05	0	43	102	1048576	20	5165
2026-01-06 07:43:42.72	37.38	15.61	-29.9	-32.8	13.3	2.05e-05	0	43	102	1048576	20	5049
2026-01-06 07:43:43.73	37.16	15.62	-29.8	-32.7	13.4	1.44e-05	0	43	102	1048576	20	4998
2026-01-06 07:43:44.74	36.94	15.62	-29.8	-32.8	13.3	1.06e-05	0	43	102	1048576	20	5036
2026-01-06 07:43:45.75	36.72	15.63	-29.9	-33.0	13.2	2.28e-05	0	43	102	1048576	20	5113
2026-01-06 07:43:46.75	36.51	15.63	-30.0	-33.2	13.0	2.44e-05	0	43	102	1048576	20	5213
2026-01-06 07:43:47.75	36.29	15.64	-30.1	-33.3	12.9	3.05e-05	0	43	102	1048576	20	5257
2026-01-06 07:43:48.76	36.07	15.64	-30.2	-33.7	12.7	7.47e-05	0	43	102	1048576	20	5396
2026-01-06 07:43:49.77	35.85	15.64	-30.2	-33.7	12.7	7.55e-05	0	43	102	1048576	20	5400
2026-01-06 07:43:50.78	35.64	15.64	-30.2	-33.6	12.7	7.85e-05	0	43	102	1048576	20	5371
2026-01-06 07:43:51.78	35.42	15.64	-30.2	-33.7	12.7	7.47e-05	0	43	102	1048576	20	5403
2026-01-06 07:43:52.79	35.20	15.65	-30.1	-33.4	12.9	7.78e-05	0	43	102	1048576	20	5266
2026-01-06 07:43:53.80	34.98	15.65	-30.0	-33.1	13.1	4.11e-05	0	43	102	1048576	20	5155
2026-01-06 07:43:54.80	34.77	15.65	-30.0	-33.1	13.1	3.28e-05	0	43	102	1048576	20	5147
2026-01-06 07:43:55.81	34.55	15.65	-30.0	-33.1	13.0	2.74e-05	0	43	102	1048576	20	5164
2026-01-06 07:43:56.82	34.33	15.65	-30.0	-33.2	13.0	2.59e-05	0	43	102	1048576	20	5209
2026-01-06 07:43:57.83	34.11	15.65	-30.0	-33.3	12.9	4.80e-05	0	43	102	1048576	20	5240
2026-01-06 07:43:58.84	33.89	15.65	-30.1	-33.5	12.9	5.03e-05	0	43	102	1048576	20	5310
2026-01-06 07:43:59.85	33.67	15.64	-30.0	-33.2	13.0	4.04e-05	0	43	102	1048576	20	5185
2026-01-06 07:44:00.84	33.46	15.64	-29.9	-32.9	13.2	1.90e-05	0	43	102	1048576	20	5068
2026-01-06 07:44:01.85	33.24	15.64	-29.9	-32.9	13.2	2.13e-05	0	43	102	1048576	20	5099
2026-01-06 07:44:02.86	33.02	15.64	-30.0	-33.0	13.2	2.67e-05	0	43	102	1048576	20	5124
2026-01-06 07:44:03.86	32.81	15.63	-30.1	-33.3	13.0	2.13e-05	0	43	102	1048576	20	5243
2026-01-06 07:44:04.87	32.59	15.63	-30.0	-33.2	13.0	3.58e-05	0	43	102	1048576	20	5204
2026-01-06 07:44:05.88	32.37	15.63	-30.1	-33.5	12.8	4.11e-05	0	43	102	1048576	20	5316
2026-01-06 07:44:06.88	32.15	15.62	-30.0	-33.3	13.0	4.73e-05	0	43	102	1048576	20	5230
2026-01-06 07:44:07.89	31.94	15.62	-30.0	-33.1	13.1	3.89e-05	0	43	102	1048576	20	5166
2026-01-06 07:44:08.89	31.72	15.61	-30.0	-33.1	13.1	2.44e-05	0	43	102	1048576	20	5149
2026-01-06 07:44:09.89	31.51	15.61	-29.9	-32.8	13.2	2.82e-05	0	43	102	1048576	20	5057
2026-01-06 07:44:10.90	31.29	15.60	-29.9	-32.8	13.3	2.13e-05	0	43	102	1048576	20	5063
2026-01-06 07:44:11.91	31.07	15.59	-29.9	-32.9	13.2	2.44e-05	0	43	102	1048576	20	5095
2026-01-06 07:44:12.92	30.85	15.59	-30.0	-33.1	13.1	2.44e-05	0	43	102	1048576	20	5153
2026-01-06 07:44:13.93	30.63	15.58	-30.1	-33.5	12.8	5.49e-05	0	43	102	1048576	20	5316
2026-01-06 07:44:14.94	30.42	15.57	-30.1	-33.3	12.9	4.88e-05	0	43	102	1048576	20	5246
2026-01-06 07:44:15.95	30.20	15.56	-30.0	-33.3	13.0	4.50e-05	0	43	102	1048576	20	5233
2026-01-06 07:44:16.94	29.99	15.55	-30.1	-33.5	12.9	4.19e-05	0	43	102	1048576	20	5308
2026-01-06 07:44:17.95	29.77	15.55	-30.1	-33.4	12.9	3.20e-05	0	43	102	1048576	20	5259
2026-01-06 07:44:18.95	29.56	15.54	-30.2	-33.6	12.7	6.25e-05	0	43	102	1048576	20	5377
2026-01-06 07:44:19.96	29.34	15.53	-30.0	-33.3	13.0	6.40e-05	0	43	102	1048576	20	5239
2026-01-06 07:44:20.96	29.12	15.52	-29.9	-32.9	13.1	2.89e-05	0	43	102	1048576	20	5104
2026-01-06 07:44:21.97	28.91	15.51	-29.8	-32.8	13.3	1.52e-05	0	43	102	1048576	20	5050
2026-01-06 07:44:22.98	28.69	15.49	-29.8	-32.7	13.3	1.37e-05	0	43	102	1048576	20	5012
2026-01-06 07:44:23.98	28.48	15.48	-29.8	-32.5	13.4	1.37e-05	0	43	102	1048576	20	4960
2026-01-06 07:44:24.99	28.26	15.47	-29.8	-32.6	13.4	2.13e-05	0	43	102	1048576	20	4988
2026-01-06 07:44:26.00	28.05	15.46	-29.8	-32.8	13.3	1.98e-05	0	43	102	1048576	20	5049
2026-01-06 07:44:27.01	27.83	15.45	-29.9	-32.9	13.2	2.05e-05	0	43	102	1048576	20	5086
2026-01-06 07:44:28.01	27.62	15.43	-30.0	-33.1	13.0	2.89e-05	0	43	102	1048576	20	5182
2026-01-06 07:44:29.02	27.40	15.42	-29.8	-32.7	13.3	2.05e-05	0	43	102	1048576	20	5020
2026-01-06 07:44:30.03	27.19	15.41	-29.8	-32.5	13.4	1.52e-05	0	43	102	1048576	20	4943
2026-01-06 07:44:31.04	26.97	15.39	-29.8	-32.5	13.5	1.14e-05	0	43	102	1048576	20	4953
2026-01-06 07:44:32.04	26.76	15.38	-29.7	-32.5	13.4	1.29e-05	0	43	102	1048576	20	4941
2026-01-06 07:44:33.05	26.55	15.36	-29.9	-32.9	13.2	1.52e-05	0	43	102	1048576	20	5079
2026-01-06 07:44:34.06	26.33	15.35	-29.7	-32.4	13.5	9.10e-06	0	43	102	1048576	20	4920
2026-01-06 07:44:35.06	26.12	15.33	-29.6	-32.1	13.7	1.22e-05	0	43	102	1048576	20	4805
2026-01-06 07:44:36.06	25.91	15.32	-29.5	-31.9	13.8	4.50e-06	0	43	102	1048576	20	4743
2026-01-06 07:44:37.07	25.69	15.30	-29.5	-31.9	13.8	6.10e-06	0	43	102	1048576	20	4733
2026-01-06 07:44:38.07	25.48	15.28	-29.6	-32.0	13.8	3.80e-06	0	43	102	1048576	20	4765
2026-01-06 07:44:39.08	25.27	15.26	-29.5	-31.8	13.9	6.10e-06	0	43	102	1048576	20	4702
2026-01-06 07:44:40.08	25.06	15.25	-29.6	-32.0	13.8	5.30e-06	0	43	102	1048576	20	4776
2026-01-06 07:44:41.09	24.85	15.23	-29.5	-31.9	13.9	5.30e-06	0	43	102	1048576	20	4715
2026-01-06 07:44:42.10	24.64	15.21	-29.5	-31.9	13.9	3.00e-06	0	43	102	1048576	20	4711
2026-01-06 07:44:43.11	24.42	15.19	-29.6	-32.2	13.7	2.20e-06	0	43	102	1048576	20	4822
2026-01-06 07:44:44.12	24.21	15.17	-29.6	-32.0	13.8	3.80e-06	0	43	102	1048576	20	4758
2026-01-06 07:44:45.12	24.00	15.15	-29.6	-32.0	13.8	9.10e-06	0	43	102	1048576	20	4769
2026-01-06 07:44:46.13	23.79	15.13	-29.6	-32.0	13.8	8.30e-06	0	43	102	1048576	20	4777
2026-01-06 07:44:47.14	23.58	15.11	-29.7	-32.3	13.6	6.80e-06	0	43	102	1048576	20	4871
2026-01-06 07:44:48.14	23.37	15.09	-29.7	-32.3	13.6	1.14e-05	0	43	102	1048576	20	4858
2026-01-06 07:44:49.15	23.16	15.07	-29.7	-32.5	13.5	1.44e-05	0	43	102	1048576	20	4929
2026-01-06 07:44:50.16	22.95	15.05	-29.7	-32.4	13.5	1.52e-05	0	43	102	1048576	20	4893
2026-01-06 07:44:51.17	22.74	15.03	-29.8	-32.6	13.4	1.22e-05	0	43	102	1048576	20	4967
2026-01-06 07:44:52.17	22.54	15.00	-29.9	-32.8	13.2	2.13e-05	0	43	102	1048576	20	5059
2026-01-06 07:44:53.18	22.33	14.98	-29.9	-32.9	13.1	2.05e-05	0	43	102	1048576	20	5099
2026-01-06 07:44:54.19	22.12	14.96	-29.9	-33.0	13.1	2.05e-05	0	43	102	1048576	20	5113
2026-01-06 07:44:55.20	21.91	14.94	-30.0	-33.1	13.0	2.74e-05	0	43	102	1048576	20	5157
2026-01-06 07:44:56.21	21.70	14.91	-30.1	-33.4	12.8	4.57e-05	0	43	102	1048576	20	5299
2026-01-06 07:44:57.21	21.50	14.89	-30.0	-33.2	13.0	4.34e-05	0	43	102	1048576	20	5188
2026-01-06 07:44:58.22	21.29	14.86	-30.0	-33.2	13.0	3.20e-05	0	43	102	1048576	20	5191
2026-01-06 07:44:59.23	21.08	14.84	-30.0	-33.3	12.9	4.88e-05	0	43	102	1048576	20	5238
2026-01-06 07:45:00.23	20.88	14.81	-30.0	-33.3	12.9	5.64e-05	0	43	102	1048576	20	5260
2026-01-06 07:45:01.24	20.67	14.79	-30.0	-33.1	13.0	4.73e-05	0	43	102	1048576	20	5177
2026-01-06 07:45:02.25	20.47	14.76	-30.0	-33.1	13.0	3.12e-05	0	43	102	1048576	20	5177
2026-01-06 07:45:03.26	20.26	14.74	-30.0	-33.1	13.0	3.96e-05	0	43	102	1048576	20	5170
2026-01-06 07:45:04.26	20.06	14.71	-30.0	-33.1	13.0	3.81e-05	0	43	102	1048576	20	5155
2026-01-06 07:45:05.27	19.85	14.68	-29.9	-33.0	13.0	3.96e-05	0	43	102	1048576	20	5144
2026-01-06 07:45:06.28	19.65	14.66	-29.9	-32.9	13.1	3.12e-05	0	43	102	1048576	20	5110
2026-01-06 07:45:07.29	19.45	14.63	-30.0	-33.1	13.0	3.43e-05	0	43	102	1048576	20	5183
2026-01-06 07:45:08.29	19.24	14.60	-30.0	-33.3	12.9	5.11e-05	0	43	102	1048576	20	5247
2026-01-06 07:45:09.30	19.04	14.57	-29.9	-33.0	13.1	4.95e-05	0	43	102	1048576	20	5131
2026-01-06 07:45:10.31	18.84	14.55	-29.8	-32.8	13.2	2.59e-05	0	43	102	1048576	20	5077
2026-01-06 07:45:11.32	18.64	14.52	-29.9	-32.9	13.1	2.44e-05	0	43	102	1048576	20	5095
2026-01-06 07:45:12.33	18.43	14.49	-29.8	-32.8	13.2	2.36e-05	0	43	102	1048576	20	5058
2026-01-06 07:45:13.34	18.23	14.46	-29.8	-32.7	13.2	2.05e-05	0	43	102	1048576	20	5021
2026-01-06 07:45:14.34	18.03	14.43	-29.8	-32.8	13.2	2.21e-05	0	43	102	1048576	20	5045
2026-01-06 07:45:15.35	17.83	14.40	-29.9	-32.8	13.2	2.51e-05	0	43	102	1048576	20	5056
2026-01-06 07:45:16.35	17.63	14.37	-29.8	-32.6	13.3	1.44e-05	0	43	102	1048576	20	4973
2026-01-06 07:45:17.36	17.43	14.34	-29.7	-32.4	13.5	1.52e-05	0	43	102	1048576	20	4904
2026-01-06 07:45:18.37	17.23	14.31	-29.7	-32.4	13.4	9.10e-06	0	43	102	1048576	20	4921
2026-01-06 07:45:19.37	17.04	14.28	-29.7	-32.5	13.3	1.29e-05	0	43	102	1048576	20	4953
2026-01-06 07:45:20.38	16.84	14.25	-29.7	-32.4	13.4	1.44e-05	0	43	102	1048576	20	4915
2026-01-06 07:45:21.39	16.64	14.21	-29.8	-32.7	13.2	2.44e-05	0	43	102	1048576	20	5026
2026-01-06 07:45:22.40	16.44	14.18	-29.8	-32.8	13.1	3.28e-05	0	43	102	1048576	20	5058
2026-01-06 07:45:23.41	16.25	14.15	-29.7	-32.5	13.3	2.13e-05	0	43	102	1048576	20	4964
2026-01-06 07:45:24.42	16.05	14.12	-29.7	-32.4	13.4	1.60e-05	0	43	102	1048576	20	4913
2026-01-06 07:45:25.43	15.85	14.08	-29.7	-32.4	13.4	8.30e-06	0	43	102	1048576	20	4924
2026-01-06 07:45:26.43	15.66	14.05	-29.7	-32.3	13.5	9.90e-06	0	43	102	1048576	20	4872
2026-01-06 07:45:27.44	15.46	14.02	-29.6	-32.2	13.5	9.90e-06	0	43	102	1048576	20	4855
2026-01-06 07:45:28.44	15.27	13.98	-29.7	-32.4	13.4	8.30e-06	0	43	102	1048576	20	4918
2026-01-06 07:45:29.45	15.08	13.95	-29.7	-32.5	13.3	1.22e-05	0	43	102	1048576	20	4952
2026-01-06 07:45:30.46	14.88	13.91	-29.7	-32.5	13.4	1.75e-05	0	43	102	1048576	20	4945
2026-01-06 07:45:31.46	14.69	13.88	-29.8	-32.6	13.3	1.75e-05	0	43	102	1048576	20	4992
2026-01-06 07:45:32.47	14.50	13.84	-29.7	-32.5	13.4	1.44e-05	0	43	102	1048576	20	4942
2026-01-06 07:45:33.47	14.30	13.81	-29.8	-32.7	13.2	1.60e-05	0	43	102	1048576	20	5010
2026-01-06 07:45:34.48	14.11	13.77	-29.8	-32.6	13.3	2.59e-05	0	43	102	1048576	20	4985
2026-01-06 07:45:35.49	13.92	13.74	-29.6	-32.2	13.5	1.90e-05	0	43	102	1048576	20	4842
2026-01-06 07:45:36.49	13.73	13.70	-29.6	-32.1	13.6	7.60e-06	0	43	102	1048576	20	4815
2026-01-06 07:45:37.50	13.54	13.67	-29.6	-32.2	13.5	7.60e-06	0	43	102	1048576	20	4843
2026-01-06 07:45:38.51	13.35	13.63	-29.7	-32.3	13.5	1.14e-05	0	43	102	1048576	20	4867
2026-01-06 07:45:39.52	13.16	13.59	-29.6	-32.0	13.6	8.30e-06	0	43	102	1048576	20	4781
2026-01-06 07:45:40.53	12.97	13.56	-29.5	-32.0	13.7	8.30e-06	0	43	102	1048576	20	4761
2026-01-06 07:45:41.53	12.78	13.52	-29.6	-32.1	13.6	7.60e-06	0	43	102	1048576	20	4820
2026-01-06 07:45:42.54	12.59	13.48	-29.6	-32.2	13.5	1.44e-05	0	43	102	1048576	20	4846
2026-01-06 07:45:43.55	12.41	13.44	-29.7	-32.3	13.5	8.30e-06	0	43	102	1048576	20	4877
2026-01-06 07:45:44.55	12.22	13.41	-29.7	-32.3	13.5	9.90e-06	0	43	102	1048576	20	4868
2026-01-06 07:45:45.56	12.03	13.37	-29.7	-32.5	13.3	1.37e-05	0	43	102	1048576	20	4945
2026-01-06 07:45:46.57	11.85	13.33	-29.8	-32.7	13.2	2.36e-05	0	43	102	1048576	20	5004
2026-01-06 07:45:47.58	11.66	13.29	-29.7	-32.5	13.3	1.90e-05	0	43	102	1048576	20	4950
2026-01-06 07:45:48.58	11.48	13.25	-29.7	-32.3	13.4	1.22e-05	0	43	102	1048576	20	4874
2026-01-06 07:45:49.59	11.29	13.21	-29.7	-32.3	13.4	1.29e-05	0	43	102	1048576	20	4890
2026-01-06 07:45:50.59	11.11	13.17	-29.7	-32.4	13.3	1.29e-05	0	43	102	1048576	20	4933
2026-01-06 07:45:51.60	10.93	13.13	-29.7	-32.6	13.3	2.82e-05	0	43	102	1048576	20	4976
2026-01-06 07:45:52.61	10.74	13.09	-29.8	-32.7	13.2	2.51e-05	0	43	102	1048576	20	5033
2026-01-06 07:45:53.62	10.56	13.05	-29.9	-32.9	13.0	3.58e-05	0	43	102	1048576	20	5118
2026-01-06 07:45:54.63	10.38	13.01	-29.9	-33.1	12.9	4.50e-05	0	43	102	1048576	20	5166
2026-01-06 07:45:55.64	10.19	12.97	-30.0	-33.2	12.8	4.50e-05	0	43	102	1048576	20	5233
2026-01-06 07:45:56.65	10.01	12.93	-30.0	-33.3	12.7	9.38e-05	0	43	102	1048576	20	5274
2026-01-06 07:45:57.65	9.83	12.89	-30.1	-33.5	12.6	7.78e-05	0	43	102	1048576	20	5341
2026-01-06 07:45:58.66	9.65	12.85	-30.2	-33.8	12.4	1.27e-04	0	43	102	1048576	20	5452
2026-01-06 07:45:59.67	9.47	12.81	-30.2	-33.8	12.4	1.30e-04	0	43	102	1048576	20	5475
2026-01-06 07:46:00.67	9.30	12.77	-30.2	-33.7	12.4	1.43e-04	0	43	102	1048576	20	5439
2026-01-06 07:46:01.68	9.12	12.72	-30.2	-34.0	12.2	1.69e-04	0	43	102	1048576	20	5546
2026-01-06 07:46:02.69	8.94	12.68	-30.3	-34.1	12.2	2.33e-04	0	43	102	1048576	20	5613
2026-01-06 07:46:03.69	8.76	12.64	-30.3	-34.3	12.0	2.66e-04	0	43	102	1048576	20	5672
2026-01-06 07:46:04.70	8.59	12.60	-30.3	-34.3	12.0	3.30e-04	0	43	102	1048576	20	5657
2026-01-06 07:46:05.70	8.41	12.55	-30.3	-34.2	12.1	2.48e-04	0	43	102	1048576	20	5653
2026-01-06 07:46:06.71	8.23	12.51	-30.3	-34.2	12.1	2.75e-04	0	43	102	1048576	20	5632
2026-01-06 07:46:07.72	8.06	12.47	-30.4	-34.5	11.9	3.47e-04	0	43	102	1048576	20	5782
2026-01-06 07:46:08.72	7.88	12.43	-30.4	-34.6	11.8	4.73e-04	0	43	102	1048576	20	5813
2026-01-06 07:46:09.73	7.71	12.38	-30.5	-34.7	11.7	4.80e-04	0	43	102	1048576	20	5875
2026-01-06 07:46:10.74	7.54	12.34	-30.4	-34.1	11.8	5.90e-04	0	43	102	1048576	21	5504
2026-01-06 07:46:11.74	7.36	12.30	-30.5	-34.3	11.7	4.87e-04	0	43	102	1048576	21	5585
2026-01-06 07:46:12.75	7.19	12.25	-30.5	-34.4	11.6	6.62e-04	0	43	102	1048576	21	5602
2026-01-06 07:46:13.76	7.02	12.21	-30.5	-34.3	11.6	6.53e-04	0	43	102	1048576	21	5573
2026-01-06 07:46:14.76	6.85	12.16	-30.6	-34.5	11.5	6.33e-04	0	43	102	1048576	21	5662
2026-01-06 07:46:15.77	6.68	12.12	-30.6	-34.7	11.3	9.68e-04	0	43	102	1048576	21	5745
2026-01-06 07:46:16.78	6.50	12.07	-30.6	-34.8	11.3	1.20e-03	0	43	102	1048576	21	5810
2026-01-06 07:46:17.78	6.34	12.03	-30.8	-35.2	11.0	1.66e-03	0	43	102	1048576	21	5996
2026-01-06 07:46:18.78	6.17	11.99	-30.7	-35.1	11.0	2.07e-03	0	43	102	1048576	21	5964
2026-01-06 07:46:19.79	6.00	11.94	-30.7	-35.0	11.1	1.48e-03	0	43	102	1048576	21	5899
2026-01-06 07:46:20.80	5.83	11.89	-30.7	-34.9	11.2	1.33e-03	0	43	102	1048576	21	5872
2026-01-06 07:46:21.80	5.66	11.85	-30.8	-35.2	11.0	1.60e-03	0	43	102	1048576	21	5980
2026-01-06 07:46:22.82	5.49	11.80	-30.7	-35.0	11.1	1.70e-03	0	43	102	1048576	21	5912
2026-01-06 07:46:23.83	5.33	11.76	-30.8	-35.2	10.9	1.75e-03	0	43	102	1048576	21	6012
2026-01-06 07:46:24.83	5.16	11.71	-30.8	-35.2	10.9	2.18e-03	0	43	102	1048576	21	6004
2026-01-06 07:46:25.84	4.99	11.67	-30.8	-35.5	10.7	2.75e-03	0	43	102	1048576	21	6168
2026-01-06 07:46:26.85	4.83	11.62	-30.9	-35.6	10.7	3.33e-03	0	43	102	1048576	21	6195
2026-01-06 07:46:27.86	4.66	11.57	-31.0	-36.0	10.4	3.91e-03	0	43	102	1048576	21	6393
2026-01-06 07:46:28.87	4.50	11.53	-31.0	-35.6	10.3	5.41e-03	0	43	102	1048576	22	6091
2026-01-06 07:46:29.87	4.34	11.48	-31.0	-35.4	10.4	4.71e-03	0	43	102	1048576	22	5996
2026-01-06 07:46:30.88	4.17	11.43	-31.0	-35.5	10.3	4.74e-03	0	43	102	1048576	22	6049
2026-01-06 07:46:31.89	4.01	11.39	-31.1	-35.8	10.1	5.85e-03	0	43	102	1048576	22	6210
2026-01-06 07:46:32.89	3.85	11.34	-31.1	-35.7	10.2	6.09e-03	0	43	102	1048576	22	6149
2026-01-06 07:46:33.90	3.69	11.29	-31.1	-35.9	10.1	6.50e-03	0	43	102	1048576	22	6230
2026-01-06 07:46:34.91	3.52	11.25	-31.2	-36.2	9.8	8.10e-03	0	43	102	1048576	22	6434
2026-01-06 07:46:35.92	3.36	11.20	-31.1	-36.0	10.0	8.75e-03	0	43	102	1048576	22	6312
2026-01-06 07:46:36.92	3.20	11.15	-31.1	-36.0	10.0	7.93e-03	0	43	102	1048576	22	6277
2026-01-06 07:46:37.93	3.04	11.10	-31.2	-36.1	9.9	7.66e-03	0	43	102	1048576	22	6358
2026-01-06 07:46:38.94	2.89	11.05	-31.1	-36.0	9.9	8.73e-03	0	43	102	1048576	22	6318
2026-01-06 07:46:39.94	2.73	11.01	-31.2	-36.1	9.9	8.75e-03	0	43	102	1048576	22	6353
2026-01-06 07:46:40.95	2.57	10.96	-31.2	-36.3	9.7	1.01e-02	0	43	102	1048576	22	6499
2026-01-06 07:46:41.96	2.41	10.91	-31.2	-36.2	9.8	1.09e-02	0	43	102	1048576	22	6414
2026-01-06 07:46:42.97	2.25	10.86	-31.3	-36.6	9.5	1.24e-02	0	43	102	1048576	22	6626
2026-01-06 07:46:43.97	2.10	10.81	-31.2	-36.1	9.8	1.22e-02	0	43	102	1048576	22	6384
2026-01-06 07:46:44.98	1.94	10.77	-31.1	-35.8	10.1	8.43e-03	0	43	102	1048576	22	6183
2026-01-06 07:46:45.99	1.79	10.72	-31.0	-35.4	10.3	5.96e-03	0	43	102	1048576	22	6008
2026-01-06 07:46:46.99	1.63	10.67	-31.0	-35.6	10.2	5.67e-03	0	43	102	1048576	22	6114
2026-01-06 07:46:48.00	1.48	10.62	-31.1	-35.9	10.0	6.68e-03	0	43	102	1048576	22	6245
2026-01-06 07:46:49.00	1.33	10.57	-31.0	-35.5	10.3	6.20e-03	0	43	102	1048576	22	6042
2026-01-06 07:46:50.01	1.17	10.52	-31.0	-35.5	10.2	5.59e-03	0	43	102	1048576	22	6073
2026-01-06 07:46:51.02	1.02	10.47	-31.0	-35.5	10.3	5.41e-03	0	43	102	1048576	22	6043
2026-01-06 07:46:52.03	0.87	10.42	-31.1	-35.9	10.0	6.40e-03	0	43	102	1048576	22	6270
2026-01-06 07:46:53.03	0.72	10.37	-31.0	-35.7	10.1	7.42e-03	0	43	102	1048576	22	6177
2026-01-06 07:46:54.04	0.57	10.33	-31.1	-36.0	9.9	7.47e-03	0	43	102	1048576	22	6295
2026-01-06 07:46:55.05	0.41	10.28	-31.2	-36.2	9.7	9.93e-03	0	43	102	1048576	22	6448
2026-01-06 07:46:56.05	0.27	10.23	-31.2	-36.5	9.5	1.38e-02	0	43	102	1048576	22	6611
2026-01-06 07:46:57.06	0.12	10.18	-31.1	-36.1	9.7	1.31e-02	0	43	102	1048576	22	6391
2026-01-06 07:46:58.05	359.97	10.13	-31.0	-35.7	10.1	8.57e-03	0	43	102	1048576	22	6159
2026-01-06 07:46:59.06	359.82	10.08	-31.0	-35.5	10.3	6.34e-03	0	43	102	1048576	22	6052
2026-01-06 07:47:00.07	359.67	10.03	-30.9	-35.2	10.4	4.88e-03	0	43	102	1048576	22	5936
2026-01-06 07:47:01.07	359.53	9.98	-30.9	-35.2	10.4	4.40e-03	0	43	102	1048576	22	5932
2026-01-06 07:47:02.08	359.38	9.93	-30.8	-35.0	10.6	4.56e-03	0	43	102	1048576	22	5838
2026-01-06 07:47:03.09	359.23	9.88	-31.0	-35.6	10.1	5.60e-03	0	43	102	1048576	22	6130
2026-01-06 07:47:04.09	359.09	9.83	-30.8	-34.9	10.6	4.64e-03	0	43	102	1048576	22	5799
2026-01-06 07:47:05.10	358.94	9.78	-30.7	-34.6	10.9	2.61e-03	0	43	102	1048576	22	5650
2026-01-06 07:47:06.11	358.80	9.73	-30.7	-34.5	10.9	2.22e-03	0	43	102	1048576	22	5616
2026-01-06 07:47:07.12	358.65	9.68	-30.7	-34.5	10.9	2.43e-03	0	43	102	1048576	22	5605
2026-01-06 07:47:08.12	358.51	9.63	-30.6	-34.4	11.0	2.00e-03	0	43	102	1048576	22	5575
2026-01-06 07:47:09.12	358.37	9.58	-30.6	-34.3	11.1	1.66e-03	0	43	102	1048576	22	5496
2026-01-06 07:47:10.13	358.22	9.52	-30.6	-34.4	11.0	1.74e-03	0	43	102	1048576	22	5538
2026-01-06 07:47:11.14	358.08	9.47	-30.6	-34.4	11.0	1.95e-03	0	43	102	1048576	22	5552
2026-01-06 07:47:12.14	357.94	9.42	-30.5	-33.9	11.3	1.57e-03	0	43	102	1048576	22	5364
2026-01-06 07:47:13.15	357.80	9.37	-30.5	-33.9	11.3	1.13e-03	0	43	102	1048576	22	5347
2026-01-06 07:47:14.15	357.66	9.32	-30.4	-33.8	11.4	1.00e-03	0	43	102	1048576	22	5314
2026-01-06 07:47:15.16	357.52	9.27	-30.5	-33.9	11.4	9.93e-04	0	43	102	1048576	22	5337
2026-01-06 07:47:16.17	357.38	9.22	-30.4	-33.8	11.4	1.03e-03	0	43	102	1048576	22	5316
2026-01-06 07:47:17.18	357.24	9.17	-30.5	-34.0	11.2	1.37e-03	0	43	102	1048576	22	5415
2026-01-06 07:47:18.18	357.10	9.12	-30.4	-33.7	11.4	1.17e-03	0	43	102	1048576	22	5259
2026-01-06 07:47:19.19	356.96	9.07	-30.3	-33.4	11.7	7.29e-04	0	43	102	1048576	22	5130
2026-01-06 07:47:20.20	356.82	9.01	-30.3	-33.4	11.6	7.05e-04	0	43	102	1048576	22	5141
2026-01-06 07:47:21.20	356.69	8.96	-30.3	-34.0	11.6	5.50e-04	0	43	102	1048576	21	5491
2026-01-06 07:47:22.21	356.55	8.91	-30.2	-33.6	11.8	6.85e-04	0	43	102	1048576	21	5336
2026-01-06 07:47:23.22	356.41	8.86	-30.2	-33.5	11.9	4.29e-04	0	43	102	1048576	21	5298
2026-01-06 07:47:24.22	356.28	8.81	-30.3	-33.8	11.6	5.71e-04	0	43	102	1048576	21	5429
2026-01-06 07:47:25.23	356.14	8.76	-30.2	-33.6	11.8	5.65e-04	0	43	102	1048576	21	5329
2026-01-06 07:47:26.24	356.01	8.71	-30.1	-33.3	12.0	3.87e-04	0	43	102	1048576	21	5203
2026-01-06 07:47:27.25	355.87	8.65	-30.1	-33.4	11.9	3.11e-04	0	43	102	1048576	21	5257
2026-01-06 07:47:28.26	355.74	8.60	-30.2	-33.6	11.8	4.00e-04	0	43	102	1048576	21	5327
2026-01-06 07:47:29.26	355.61	8.55	-30.0	-33.2	12.1	3.68e-04	0	43	102	1048576	21	5168
2026-01-06 07:47:30.27	355.47	8.50	-30.0	-33.1	12.2	2.43e-04	0	43	102	1048576	21	5120
2026-01-06 07:47:31.27	355.34	8.45	-30.1	-33.3	11.9	2.82e-04	0	43	102	1048576	21	5215
2026-01-06 07:47:32.28	355.21	8.40	-29.9	-32.9	12.2	2.27e-04	0	43	102	1048576	21	5053
2026-01-06 07:47:33.28	355.08	8.34	-29.9	-32.7	12.4	1.79e-04	0	43	102	1048576	21	4996
2026-01-06 07:47:34.29	354.95	8.29	-29.9	-32.8	12.3	1.72e-04	0	43	102	1048576	21	5012
2026-01-06 07:47:35.29	354.82	8.24	-29.9	-32.7	12.3	1.44e-04	0	43	102	1048576	21	5005
2026-01-06 07:47:36.30	354.69	8.19	-29.9	-32.7	12.3	1.84e-04	0	43	102	1048576	21	5002
2026-01-06 07:47:37.30	354.56	8.14	-29.9	-32.8	12.3	1.52e-04	0	43	102	1048576	21	5031
2026-01-06 07:47:38.31	354.43	8.08	-29.9	-32.9	12.2	2.04e-04	0	43	102	1048576	21	5087
2026-01-06 07:47:39.32	354.30	8.03	-29.9	-32.8	12.3	1.71e-04	0	43	102	1048576	21	5016
2026-01-06 07:47:40.32	354.17	7.98	-29.8	-32.6	12.4	1.47e-04	0	43	102	1048576	21	4970
2026-01-06 07:47:41.33	354.04	7.93	-29.9	-32.7	12.3	1.72e-04	0	43	102	1048576	21	4991
2026-01-06 07:47:42.34	353.92	7.88	-29.9	-32.7	12.3	1.79e-04	0	43	102	1048576	21	5006
2026-01-06 07:47:43.35	353.79	7.82	-29.9	-32.8	12.2	1.57e-04	0	43	102	1048576	21	5033
2026-01-06 07:47:44.35	353.66	7.77	-29.9	-32.9	12.2	2.66e-04	0	43	102	1048576	21	5060
2026-01-06 07:47:45.35	353.54	7.72	-29.9	-32.8	12.2	2.27e-04	0	43	102	1048576	21	5022
2026-01-06 07:47:46.36	353.41	7.67	-29.9	-32.7	12.2	1.83e-04	0	43	102	1048576	21	5004
2026-01-06 07:47:47.37	353.29	7.62	-29.9	-32.8	12.2	2.26e-04	0	43	102	1048576	21	5043
2026-01-06 07:47:48.37	353.16	7.56	-29.9	-32.7	12.3	2.01e-04	0	43	102	1048576	21	4998
2026-01-06 07:47:49.38	353.04	7.51	-29.9	-33.0	12.1	2.17e-04	0	43	102	1048576	21	5096
2026-01-06 07:47:50.39	352.92	7.46	-30.0	-33.2	11.9	3.95e-04	0	43	102	1048576	21	5210
2026-01-06 07:47:51.39	352.79	7.41	-30.0	-33.2	11.9	3.42e-04	0	43	102	1048576	21	5182
2026-01-06 07:47:52.39	352.67	7.35	-30.0	-33.2	11.9	3.97e-04	0	43	102	1048576	21	5203
2026-01-06 07:47:53.40	352.55	7.30	-30.0	-33.2	11.9	5.45e-04	0	43	102	1048576	21	5198
2026-01-06 07:47:54.41	352.43	7.25	-29.9	-33.0	12.0	3.26e-04	0	43	102	1048576	21	5139
2026-01-06 07:47:55.42	352.31	7.20	-30.1	-33.4	11.8	4.80e-04	0	43	102	1048576	21	5262
2026-01-06 07:47:56.42	352.19	7.14	-30.1	-33.4	11.7	6.58e-04	0	43	102	1048576	21	5270
2026-01-06 07:47:57.43	352.07	7.09	-30.0	-33.3	11.8	6.26e-04	0	43	102	1048576	21	5241
2026-01-06 07:47:58.44	351.95	7.04	-32.7	-46.9	3.7	3.43e-04	0	43	102	1048576	25	18458

#Closed at: 2026-01-06 07:47:59
#Recorded file [1 MB]: D:/data/31010_260106_103954.dat