passes_logs/2026/01/06/R2M6_AANII_01/R2M6_AANII_01__20260106_124708_AQUA_rec.log

#Pass ID: 20260106_124708_AQUA
#Satellite: AQUA
#Configuration: AQUA
#almurnet v.1.7.20240730
#Start time: 2026-01-06 12:47:10

#Version: 2.2.20231116
#Station: R2M6_AANII_01
#Location: 30.233357 lon 59.946436 lat
#TLE: 1 27424U 02022A   26004.96787593  .00001598  00000+0  32997-3 0  9996
#TLE: 2 27424  98.4069 331.2279 0002002  90.2377   0.6092 14.61798176259425

#Time	Az	El	Level	Level2	SNR	BER	BlckErr	Temp	State	Recorded	gain1	gain2
2026-01-06 12:47:10.04	185.92	7.15	-30.8	-36.6	5.2	7.10e-01	0	41	0	0	22	7055
2026-01-06 12:47:11.04	185.98	7.23	-31.3	-37.5	5.0	7.10e-01	0	41	104	0	24	7377
2026-01-06 12:47:12.05	186.03	7.31	-31.6	-38.0	12.9	6.11e-01	0	41	0	0	24	7536
2026-01-06 12:47:13.06	186.09	7.39	-31.8	-39.0	12.1	6.13e-01	0	41	102	524288	24	8257
2026-01-06 12:47:14.06	186.15	7.46	-31.6	-37.9	13.0	6.11e-01	0	41	102	524288	24	7457
2026-01-06 12:47:15.07	186.21	7.55	-31.4	-37.0	13.7	6.10e-01	0	41	102	524288	24	6891
2026-01-06 12:47:16.07	186.27	7.63	-31.1	-35.9	14.7	6.05e-01	0	41	102	524288	24	6226
2026-01-06 12:47:17.07	186.33	7.71	-30.8	-35.2	15.5	6.08e-01	0	41	102	524288	23	5987
2026-01-06 12:47:18.07	186.39	7.79	-30.5	-34.3	16.2	6.05e-01	0	41	102	524288	23	5566
2026-01-06 12:47:19.07	186.45	7.87	-30.3	-34.2	16.6	6.06e-01	0	41	102	524288	22	5608
2026-01-06 12:47:20.07	186.51	7.95	-30.1	-33.5	17.1	6.08e-01	0	41	102	524288	22	5333
2026-01-06 12:47:21.08	186.57	8.03	-30.0	-33.3	17.3	6.07e-01	0	41	102	524288	22	5224
2026-01-06 12:47:22.09	186.63	8.11	-29.9	-32.9	17.6	6.09e-01	0	41	102	524288	22	5061
2026-01-06 12:47:23.10	186.69	8.20	-30.0	-33.0	17.5	6.05e-01	0	41	102	524288	22	5105
2026-01-06 12:47:24.10	186.75	8.28	-29.9	-32.8	17.7	6.04e-01	0	41	102	524288	22	5041
2026-01-06 12:47:25.11	186.82	8.36	-30.0	-33.2	17.4	6.06e-01	0	41	102	524288	22	5175
2026-01-06 12:47:26.12	186.88	8.44	-29.9	-32.8	17.6	6.04e-01	0	41	102	524288	22	5043
2026-01-06 12:47:27.12	186.94	8.53	-29.9	-33.2	17.7	6.07e-01	0	41	102	524288	21	5291
2026-01-06 12:47:28.13	187.01	8.61	-29.9	-33.3	17.7	6.07e-01	0	41	102	524288	21	5321
2026-01-06 12:47:29.13	187.07	8.70	-29.8	-33.1	17.8	6.08e-01	0	41	102	524288	21	5237
2026-01-06 12:47:30.14	187.14	8.78	-29.9	-33.2	17.8	6.05e-01	0	42	102	524288	21	5265
2026-01-06 12:47:31.15	187.20	8.86	-29.9	-33.1	17.8	6.07e-01	0	41	102	524288	21	5262
2026-01-06 12:47:32.15	187.26	8.95	-29.9	-33.3	17.7	6.07e-01	0	41	102	524288	21	5315
2026-01-06 12:47:33.16	187.33	9.03	-30.0	-33.5	17.6	6.07e-01	0	41	102	524288	21	5406
2026-01-06 12:47:34.16	187.40	9.12	-30.1	-33.9	17.3	6.05e-01	0	41	102	524288	21	5575
2026-01-06 12:47:35.17	187.46	9.21	-29.9	-33.4	17.7	6.06e-01	0	42	102	524288	21	5349
2026-01-06 12:47:36.18	187.53	9.29	-29.8	-33.0	17.9	6.06e-01	0	42	102	524288	21	5193
2026-01-06 12:47:37.19	187.60	9.38	-29.7	-32.8	18.1	6.07e-01	0	42	102	524288	21	5136
2026-01-06 12:47:38.20	187.66	9.47	-29.7	-32.8	18.1	6.05e-01	0	42	102	524288	21	5109
2026-01-06 12:47:39.20	187.73	9.55	-29.7	-32.6	18.2	6.09e-01	0	42	102	524288	21	5048
2026-01-06 12:47:40.21	187.80	9.64	-29.7	-32.7	18.2	6.06e-01	0	42	102	524288	21	5070
2026-01-06 12:47:41.22	187.87	9.73	-29.8	-32.9	18.0	6.05e-01	0	42	102	524288	21	5147
2026-01-06 12:47:42.22	187.94	9.82	-29.6	-32.4	18.4	6.05e-01	0	42	102	524288	21	4967
2026-01-06 12:47:43.23	188.01	9.90	-29.5	-32.3	18.4	6.08e-01	0	42	102	524288	21	4917
2026-01-06 12:47:44.23	188.08	9.99	-29.6	-32.4	18.4	6.07e-01	0	42	102	524288	21	4977
2026-01-06 12:47:45.24	188.15	10.08	-29.6	-32.4	18.3	6.06e-01	0	42	102	524288	21	4986
2026-01-06 12:47:46.25	188.22	10.17	-29.6	-32.5	18.3	6.08e-01	0	42	102	524288	21	4997
2026-01-06 12:47:47.26	188.29	10.26	-29.7	-32.7	18.2	6.08e-01	0	42	102	524288	21	5091
2026-01-06 12:47:48.27	188.36	10.35	-29.7	-32.6	18.2	6.07e-01	0	42	102	524288	21	5043
2026-01-06 12:47:49.28	188.44	10.44	-29.6	-32.5	18.3	6.06e-01	0	42	102	524288	21	5024
2026-01-06 12:47:50.28	188.51	10.53	-29.7	-32.7	18.2	6.09e-01	0	42	102	524288	21	5070
2026-01-06 12:47:51.29	188.58	10.62	-29.8	-32.9	18.1	6.06e-01	0	42	102	524288	21	5147
2026-01-06 12:47:52.30	188.66	10.72	-29.8	-32.9	18.1	6.06e-01	0	42	102	524288	21	5137
2026-01-06 12:47:53.31	188.73	10.81	-29.7	-32.7	18.2	6.05e-01	0	42	102	524288	21	5082
2026-01-06 12:47:54.32	188.81	10.90	-29.7	-32.8	18.1	6.05e-01	0	42	102	524288	21	5115
2026-01-06 12:47:55.33	188.88	10.99	-29.7	-32.7	18.2	6.07e-01	0	42	102	524288	21	5082
2026-01-06 12:47:56.33	188.96	11.08	-29.7	-32.5	18.3	6.07e-01	0	42	102	524288	21	5019
2026-01-06 12:47:57.34	189.03	11.18	-29.7	-32.6	18.3	6.07e-01	0	42	102	524288	21	5027
2026-01-06 12:47:58.35	189.11	11.27	-29.6	-32.5	18.4	6.07e-01	0	42	102	524288	21	4986
2026-01-06 12:47:59.35	189.19	11.36	-29.7	-32.7	18.3	6.07e-01	0	42	102	524288	21	5058
2026-01-06 12:48:00.35	189.26	11.46	-29.6	-32.4	18.4	6.07e-01	0	42	102	524288	21	4975
2026-01-06 12:48:01.36	189.34	11.55	-29.8	-32.8	18.2	6.06e-01	0	42	102	524288	21	5128
2026-01-06 12:48:02.36	189.42	11.65	-29.9	-33.1	18.0	6.05e-01	0	42	102	524288	21	5237
2026-01-06 12:48:03.37	189.50	11.74	-29.7	-32.5	18.4	6.08e-01	0	42	102	524288	21	4984
2026-01-06 12:48:04.38	189.58	11.84	-29.6	-32.2	18.6	6.07e-01	0	42	102	524288	21	4877
2026-01-06 12:48:05.39	189.66	11.94	-29.5	-32.0	18.7	6.08e-01	0	42	102	524288	21	4823
2026-01-06 12:48:06.39	189.74	12.03	-29.5	-32.0	18.7	6.05e-01	0	42	102	524288	21	4820
2026-01-06 12:48:07.40	189.82	12.13	-29.5	-32.0	18.7	6.07e-01	0	42	102	524288	21	4811
2026-01-06 12:48:08.41	189.90	12.23	-29.5	-32.0	18.7	6.06e-01	0	42	102	524288	21	4812
2026-01-06 12:48:09.41	189.99	12.32	-29.6	-32.2	18.6	6.05e-01	0	42	102	524288	21	4878
2026-01-06 12:48:10.42	190.07	12.42	-29.5	-32.2	18.6	6.07e-01	0	42	102	524288	21	4863
2026-01-06 12:48:11.42	190.15	12.52	-29.4	-31.8	18.9	6.07e-01	0	42	102	524288	21	4728
2026-01-06 12:48:12.42	190.24	12.62	-29.3	-32.1	19.0	6.07e-01	0	42	102	524288	20	4941
2026-01-06 12:48:13.43	190.32	12.72	-29.4	-32.2	19.0	6.08e-01	0	42	102	524288	20	4980
2026-01-06 12:48:14.44	190.41	12.82	-29.4	-32.2	19.0	6.08e-01	0	42	102	524288	20	4985
2026-01-06 12:48:15.44	190.49	12.91	-29.4	-32.3	18.9	6.06e-01	0	42	102	524288	20	5023
2026-01-06 12:48:16.45	190.58	13.01	-29.4	-32.4	18.9	6.08e-01	0	42	102	524288	20	5041
2026-01-06 12:48:17.46	190.67	13.12	-29.5	-32.4	18.9	6.06e-01	0	42	102	524288	20	5055
2026-01-06 12:48:18.47	190.75	13.22	-29.6	-32.8	18.6	6.07e-01	0	42	102	524288	20	5212
2026-01-06 12:48:19.47	190.84	13.32	-29.6	-32.8	18.6	6.06e-01	0	42	102	524288	20	5214
2026-01-06 12:48:20.47	190.93	13.42	-29.5	-32.6	18.8	6.07e-01	0	42	102	524288	20	5117
2026-01-06 12:48:21.47	191.02	13.52	-29.5	-32.6	18.8	6.05e-01	0	42	102	524288	20	5119
2026-01-06 12:48:22.48	191.11	13.62	-29.5	-32.6	18.7	6.06e-01	0	42	102	524288	20	5139
2026-01-06 12:48:23.49	191.20	13.73	-29.5	-32.6	18.8	6.06e-01	0	42	102	524288	20	5129
2026-01-06 12:48:24.50	191.29	13.83	-29.6	-32.8	18.7	6.06e-01	0	42	102	524288	20	5206
2026-01-06 12:48:25.50	191.38	13.93	-29.6	-32.6	18.7	6.05e-01	0	42	102	524288	20	5135
2026-01-06 12:48:26.51	191.48	14.04	-29.6	-32.8	18.7	6.08e-01	0	42	102	524288	20	5185
2026-01-06 12:48:27.52	191.57	14.14	-29.6	-32.7	18.7	6.05e-01	0	42	102	524288	20	5155
2026-01-06 12:48:28.52	191.66	14.25	-29.4	-32.2	19.1	6.07e-01	0	42	102	524288	20	4969
2026-01-06 12:48:29.53	191.76	14.36	-29.3	-31.9	19.3	6.07e-01	0	42	102	524288	20	4870
2026-01-06 12:48:30.54	191.86	14.46	-29.2	-31.8	19.3	6.05e-01	0	42	102	524288	20	4819
2026-01-06 12:48:31.55	191.95	14.57	-29.2	-31.7	19.4	6.05e-01	0	42	102	524288	20	4794
2026-01-06 12:48:32.56	192.05	14.68	-29.2	-31.6	19.4	6.06e-01	0	42	102	524288	20	4773
2026-01-06 12:48:33.56	192.15	14.78	-29.2	-31.7	19.4	6.05e-01	0	42	102	524288	20	4795
2026-01-06 12:48:34.57	192.25	14.89	-29.2	-31.8	19.4	6.05e-01	0	42	102	524288	20	4827
2026-01-06 12:48:35.57	192.34	15.00	-29.2	-31.8	19.4	6.06e-01	0	42	102	524288	20	4812
2026-01-06 12:48:36.58	192.44	15.11	-29.3	-32.0	19.2	6.06e-01	0	42	102	524288	20	4886
2026-01-06 12:48:37.59	192.55	15.22	-29.3	-31.9	19.3	6.06e-01	0	42	102	524288	20	4868
2026-01-06 12:48:38.59	192.65	15.33	-29.3	-31.8	19.4	6.05e-01	0	42	102	524288	20	4816
2026-01-06 12:48:39.60	192.75	15.44	-29.4	-32.1	19.2	6.06e-01	0	42	102	524288	20	4908
2026-01-06 12:48:40.61	192.85	15.55	-29.3	-31.9	19.3	6.07e-01	0	43	102	524288	20	4861
2026-01-06 12:48:41.61	192.96	15.66	-29.2	-31.5	19.6	6.07e-01	0	42	102	524288	20	4731
2026-01-06 12:48:42.62	193.06	15.77	-29.1	-31.5	19.6	6.09e-01	0	42	102	524288	20	4706
2026-01-06 12:48:43.62	193.17	15.88	-29.1	-31.4	19.7	6.06e-01	0	43	102	524288	20	4668
2026-01-06 12:48:44.63	193.27	16.00	-29.1	-31.3	19.7	6.05e-01	0	42	102	524288	20	4638
2026-01-06 12:48:45.64	193.38	16.11	-29.1	-31.3	19.7	6.05e-01	0	43	102	524288	20	4635
2026-01-06 12:48:46.65	193.49	16.22	-29.1	-31.5	19.6	6.05e-01	0	42	102	524288	20	4713
2026-01-06 12:48:47.66	193.60	16.34	-29.2	-31.6	19.5	6.06e-01	0	42	102	524288	20	4742
2026-01-06 12:48:48.66	193.71	16.45	-29.2	-31.6	19.6	6.08e-01	0	43	102	524288	20	4736
2026-01-06 12:48:49.67	193.82	16.57	-29.2	-31.7	19.5	6.08e-01	0	43	102	524288	20	4773
2026-01-06 12:48:50.68	193.93	16.68	-29.2	-31.6	19.5	6.07e-01	0	43	102	524288	20	4755
2026-01-06 12:48:51.68	194.04	16.80	-29.2	-31.6	19.6	6.07e-01	0	42	102	524288	20	4736
2026-01-06 12:48:52.69	194.15	16.92	-29.2	-31.7	19.5	6.07e-01	0	43	102	524288	20	4778
2026-01-06 12:48:53.70	194.27	17.03	-29.1	-31.5	19.7	6.08e-01	0	43	102	524288	20	4699
2026-01-06 12:48:54.71	194.38	17.15	-29.0	-31.2	19.8	6.05e-01	0	43	102	524288	20	4602
2026-01-06 12:48:55.71	194.50	17.27	-29.0	-31.1	19.9	6.08e-01	0	43	102	524288	20	4588
2026-01-06 12:48:56.72	194.61	17.39	-29.0	-31.1	19.9	6.08e-01	0	42	102	524288	20	4570
2026-01-06 12:48:57.73	194.73	17.51	-29.1	-31.2	19.8	6.07e-01	0	43	102	524288	20	4614
2026-01-06 12:48:58.73	194.85	17.63	-29.0	-31.2	19.9	6.07e-01	0	43	102	524288	20	4595
2026-01-06 12:48:59.74	194.97	17.75	-29.1	-31.2	19.8	6.07e-01	0	43	102	524288	20	4619
2026-01-06 12:49:00.75	195.09	17.87	-29.2	-31.5	19.7	6.05e-01	0	43	102	524288	20	4704
2026-01-06 12:49:01.75	195.21	17.99	-29.1	-31.4	19.7	6.08e-01	0	43	102	524288	20	4666
2026-01-06 12:49:02.76	195.34	18.11	-29.0	-31.1	19.9	6.07e-01	0	43	102	524288	20	4583
2026-01-06 12:49:03.77	195.46	18.24	-29.1	-31.2	19.9	6.07e-01	0	42	102	524288	20	4617
2026-01-06 12:49:04.78	195.59	18.36	-29.1	-31.3	19.8	6.09e-01	0	43	102	524288	20	4621
2026-01-06 12:49:05.78	195.71	18.48	-29.1	-31.3	19.8	6.07e-01	0	43	102	524288	20	4652
2026-01-06 12:49:06.79	195.84	18.61	-29.1	-31.3	19.8	6.07e-01	0	43	102	524288	20	4644
2026-01-06 12:49:07.80	195.97	18.73	-29.2	-31.5	19.7	6.04e-01	0	43	102	524288	20	4698
2026-01-06 12:49:08.81	196.10	18.86	-29.1	-31.3	19.8	6.06e-01	0	43	102	524288	20	4653
2026-01-06 12:49:09.81	196.22	18.98	-29.1	-31.4	19.8	6.09e-01	0	43	102	524288	20	4665
2026-01-06 12:49:10.81	196.35	19.11	-29.1	-31.4	19.8	6.06e-01	0	43	102	524288	20	4659
2026-01-06 12:49:11.82	196.49	19.24	-29.1	-31.3	19.9	6.04e-01	0	43	102	524288	20	4634
2026-01-06 12:49:12.83	196.62	19.37	-29.2	-31.5	19.7	6.08e-01	0	43	102	524288	20	4716
2026-01-06 12:49:13.83	196.75	19.49	-29.2	-31.5	19.7	6.06e-01	0	43	102	524288	20	4701
2026-01-06 12:49:14.84	196.89	19.62	-29.3	-31.9	19.6	6.05e-01	0	43	102	524288	20	4824
2026-01-06 12:49:15.85	197.03	19.75	-29.3	-31.7	19.6	6.06e-01	0	43	102	524288	20	4782
2026-01-06 12:49:16.86	197.17	19.88	-29.2	-31.6	19.7	6.07e-01	0	43	102	524288	20	4741
2026-01-06 12:49:17.86	197.31	20.01	-29.3	-31.6	19.7	6.07e-01	0	43	102	524288	20	4745
2026-01-06 12:49:18.87	197.45	20.14	-29.1	-31.3	19.9	6.05e-01	0	43	102	524288	20	4647
2026-01-06 12:49:19.87	197.59	20.28	-29.1	-31.3	19.9	6.07e-01	0	43	102	524288	20	4642
2026-01-06 12:49:20.88	197.73	20.41	-29.3	-31.7	19.7	6.05e-01	0	43	102	524288	20	4750
2026-01-06 12:49:21.88	197.87	20.54	-29.2	-31.6	19.7	6.06e-01	0	43	102	524288	20	4731
2026-01-06 12:49:22.88	198.02	20.67	-29.2	-31.6	19.8	6.08e-01	0	43	102	524288	20	4725
2026-01-06 12:49:23.89	198.17	20.81	-29.3	-31.6	19.7	6.05e-01	0	43	102	524288	20	4743
2026-01-06 12:49:24.90	198.31	20.94	-29.4	-31.9	19.6	6.09e-01	0	43	102	524288	20	4840
2026-01-06 12:49:25.90	198.46	21.08	-29.4	-31.9	19.6	6.08e-01	0	43	102	524288	20	4829
2026-01-06 12:49:26.90	198.61	21.21	-29.3	-31.8	19.6	6.07e-01	0	43	102	524288	20	4788
2026-01-06 12:49:27.91	198.77	21.35	-29.4	-31.9	19.6	6.06e-01	0	43	102	524288	20	4843
2026-01-06 12:49:28.91	198.92	21.49	-29.4	-31.9	19.6	6.04e-01	0	43	102	524288	20	4833
2026-01-06 12:49:29.92	199.07	21.63	-29.5	-32.4	19.4	6.06e-01	0	43	102	524288	20	4986
2026-01-06 12:49:30.92	199.23	21.76	-29.5	-32.2	19.4	6.07e-01	0	43	102	524288	20	4946
2026-01-06 12:49:31.93	199.39	21.90	-29.6	-32.6	19.2	6.05e-01	0	43	102	524288	20	5062
2026-01-06 12:49:32.94	199.55	22.04	-29.4	-32.1	19.5	6.07e-01	0	43	102	524288	20	4907
2026-01-06 12:49:33.94	199.71	22.18	-29.3	-31.7	19.7	6.06e-01	0	43	102	524288	20	4775
2026-01-06 12:49:34.95	199.87	22.32	-29.2	-31.6	19.8	6.06e-01	0	43	102	524288	20	4737
2026-01-06 12:49:35.96	200.03	22.47	-29.3	-31.9	19.6	6.06e-01	0	43	102	524288	20	4822
2026-01-06 12:49:36.96	200.20	22.61	-29.3	-31.8	19.7	6.06e-01	0	43	102	524288	20	4800
2026-01-06 12:49:37.97	200.36	22.75	-29.4	-32.0	19.6	6.06e-01	0	43	102	524288	20	4860
2026-01-06 12:49:38.97	200.53	22.89	-29.3	-31.7	19.7	6.06e-01	0	43	102	524288	20	4757
2026-01-06 12:49:39.98	200.70	23.04	-29.2	-31.5	19.9	6.06e-01	0	43	102	524288	20	4694
2026-01-06 12:49:40.99	200.87	23.18	-29.3	-31.8	19.7	6.04e-01	0	43	102	524288	20	4810
2026-01-06 12:49:41.99	201.05	23.33	-29.3	-31.8	19.7	6.07e-01	0	43	102	524288	20	4781
2026-01-06 12:49:43.00	201.22	23.47	-29.3	-31.8	19.7	6.07e-01	0	43	102	524288	20	4798
2026-01-06 12:49:44.01	201.40	23.62	-29.4	-32.1	19.6	6.06e-01	0	43	102	524288	20	4881
2026-01-06 12:49:45.01	201.58	23.77	-29.4	-32.1	19.5	6.08e-01	0	43	102	524288	20	4916
2026-01-06 12:49:46.02	201.76	23.92	-29.4	-31.9	19.7	6.06e-01	0	43	102	524288	20	4839
2026-01-06 12:49:47.02	201.94	24.06	-29.4	-32.0	19.6	6.06e-01	0	43	102	524288	20	4855
2026-01-06 12:49:48.03	202.12	24.21	-29.5	-32.2	19.5	6.06e-01	0	43	102	524288	20	4935
2026-01-06 12:49:49.03	202.31	24.36	-29.4	-31.9	19.6	6.06e-01	0	43	102	524288	20	4845
2026-01-06 12:49:50.03	202.49	24.51	-29.3	-31.8	19.7	6.06e-01	0	43	102	524288	20	4815
2026-01-06 12:49:51.04	202.68	24.66	-29.3	-31.7	19.8	6.06e-01	0	43	102	524288	20	4752
2026-01-06 12:49:52.05	202.87	24.82	-29.5	-32.3	19.4	6.07e-01	0	43	102	524288	20	4956
2026-01-06 12:49:53.05	203.06	24.97	-29.3	-31.7	19.7	6.07e-01	0	43	102	524288	20	4762
2026-01-06 12:49:54.06	203.26	25.12	-29.2	-31.4	19.9	6.06e-01	0	43	102	524288	20	4677
2026-01-06 12:49:55.07	203.46	25.28	-29.1	-31.2	20.1	6.07e-01	0	43	102	524288	20	4607
2026-01-06 12:49:56.07	203.65	25.43	-29.2	-31.6	19.8	6.04e-01	0	43	102	524288	20	4744
2026-01-06 12:49:57.07	203.85	25.58	-29.2	-31.4	20.0	6.08e-01	0	43	102	524288	20	4680
2026-01-06 12:49:58.08	204.05	25.74	-29.2	-31.6	19.9	6.08e-01	0	43	102	524288	20	4727
2026-01-06 12:49:59.08	204.26	25.89	-29.1	-31.3	20.0	6.07e-01	0	43	102	524288	20	4629
2026-01-06 12:50:00.09	204.47	26.05	-29.1	-31.3	20.0	6.05e-01	0	43	102	524288	20	4623
2026-01-06 12:50:01.10	204.67	26.21	-29.2	-31.5	19.9	6.06e-01	0	43	102	524288	20	4698
2026-01-06 12:50:02.10	204.88	26.37	-29.1	-31.3	20.1	6.06e-01	0	43	102	524288	20	4613
2026-01-06 12:50:03.11	205.10	26.53	-29.3	-31.7	19.9	6.06e-01	0	43	102	524288	20	4756
2026-01-06 12:50:04.12	205.31	26.69	-29.3	-31.7	19.8	6.04e-01	0	43	102	524288	20	4773
2026-01-06 12:50:05.13	205.53	26.85	-29.2	-31.5	19.9	6.09e-01	0	43	102	524288	20	4697
2026-01-06 12:50:06.14	205.75	27.01	-29.2	-31.6	19.9	6.07e-01	0	43	102	524288	20	4717
2026-01-06 12:50:07.15	205.97	27.17	-29.5	-32.2	19.6	6.06e-01	0	43	102	524288	20	4919
2026-01-06 12:50:08.15	206.20	27.33	-29.4	-32.0	19.6	6.08e-01	0	43	102	524288	20	4876
2026-01-06 12:50:09.15	206.42	27.49	-29.2	-31.6	19.9	6.08e-01	0	43	102	524288	20	4720
2026-01-06 12:50:10.16	206.65	27.65	-29.1	-31.2	20.2	6.07e-01	0	43	102	524288	20	4586
2026-01-06 12:50:11.17	206.88	27.82	-29.1	-31.3	20.1	6.06e-01	0	43	102	524288	20	4627
2026-01-06 12:50:12.17	207.11	27.98	-29.3	-31.8	19.8	6.06e-01	0	43	102	524288	20	4777
2026-01-06 12:50:13.18	207.35	28.14	-29.3	-31.8	19.8	6.05e-01	0	43	102	524288	20	4802
2026-01-06 12:50:14.18	207.59	28.31	-29.3	-31.7	19.9	6.06e-01	0	43	102	524288	20	4738
2026-01-06 12:50:15.18	207.83	28.47	-29.4	-32.0	19.7	6.06e-01	0	43	102	524288	20	4837
2026-01-06 12:50:16.19	208.07	28.64	-29.6	-32.4	19.4	6.06e-01	0	43	102	524288	20	5001
2026-01-06 12:50:17.20	208.32	28.81	-29.5	-32.2	19.6	6.04e-01	0	43	102	524288	20	4917
2026-01-06 12:50:18.21	208.57	28.97	-29.3	-31.8	19.8	6.08e-01	0	43	102	524288	20	4777
2026-01-06 12:50:19.21	208.82	29.14	-29.3	-31.6	19.9	6.08e-01	0	43	102	524288	20	4719
2026-01-06 12:50:20.22	209.07	29.31	-29.4	-31.9	19.8	6.08e-01	0	43	102	524288	20	4813
2026-01-06 12:50:21.23	209.33	29.48	-29.4	-31.9	19.8	6.09e-01	0	43	102	524288	20	4814
2026-01-06 12:50:22.23	209.59	29.65	-29.5	-32.2	19.6	6.06e-01	0	43	102	524288	20	4907
2026-01-06 12:50:23.24	209.85	29.82	-29.1	-31.2	20.2	6.08e-01	0	43	102	524288	20	4597
2026-01-06 12:50:24.25	210.11	29.99	-29.0	-31.0	20.3	6.07e-01	0	43	102	524288	20	4527
2026-01-06 12:50:25.26	210.38	30.16	-29.2	-31.5	20.1	6.05e-01	0	43	102	524288	20	4671
2026-01-06 12:50:26.26	210.65	30.33	-29.3	-31.6	20.0	6.06e-01	0	43	102	524288	20	4703
2026-01-06 12:50:27.27	210.93	30.50	-29.1	-31.2	20.2	6.06e-01	0	43	102	524288	20	4581
2026-01-06 12:50:28.28	211.20	30.67	-29.1	-31.2	20.2	6.06e-01	0	43	102	524288	20	4591
2026-01-06 12:50:29.28	211.48	30.84	-29.2	-31.5	20.1	6.05e-01	0	43	102	524288	20	4671
2026-01-06 12:50:30.29	211.77	31.02	-29.1	-31.2	20.2	6.06e-01	0	43	102	524288	20	4587
2026-01-06 12:50:31.29	212.05	31.19	-29.2	-31.3	20.2	6.05e-01	0	43	102	524288	20	4616
2026-01-06 12:50:32.30	212.34	31.36	-29.3	-31.6	20.0	6.04e-01	0	43	102	524288	20	4712
2026-01-06 12:50:33.30	212.63	31.53	-29.4	-31.8	19.9	6.06e-01	0	43	102	524288	20	4785
2026-01-06 12:50:34.31	212.92	31.71	-29.5	-32.1	19.7	6.08e-01	0	43	102	524288	20	4867
2026-01-06 12:50:35.31	213.22	31.88	-29.3	-31.6	20.0	6.07e-01	0	43	102	524288	20	4711
2026-01-06 12:50:36.32	213.52	32.06	-29.2	-31.4	20.2	6.06e-01	0	43	102	524288	20	4632
2026-01-06 12:50:37.33	213.83	32.23	-29.4	-31.8	19.9	6.07e-01	0	43	102	524288	20	4761
2026-01-06 12:50:38.34	214.14	32.41	-29.4	-31.9	19.9	6.05e-01	0	43	102	524288	20	4793
2026-01-06 12:50:39.34	214.45	32.58	-29.3	-31.6	20.0	6.06e-01	0	43	102	524288	20	4693
2026-01-06 12:50:40.35	214.76	32.76	-29.2	-31.4	20.1	6.06e-01	0	43	102	524288	20	4649
2026-01-06 12:50:41.35	215.08	32.93	-29.4	-32.0	19.8	6.04e-01	0	43	102	524288	20	4832
2026-01-06 12:50:42.35	215.40	33.11	-29.4	-32.0	19.8	6.05e-01	0	43	102	524288	20	4835
2026-01-06 12:50:43.36	215.73	33.28	-29.3	-31.6	20.1	6.06e-01	0	43	102	524288	20	4713
2026-01-06 12:50:44.37	216.06	33.46	-29.3	-31.7	20.0	6.05e-01	0	43	102	524288	20	4732
2026-01-06 12:50:45.37	216.39	33.63	-29.3	-31.6	20.1	6.06e-01	0	43	102	524288	20	4711
2026-01-06 12:50:46.38	216.72	33.81	-29.4	-31.9	19.9	6.05e-01	0	43	102	524288	20	4796
2026-01-06 12:50:47.39	217.06	33.98	-29.5	-32.1	19.8	6.03e-01	0	43	102	524288	20	4852
2026-01-06 12:50:48.40	217.41	34.16	-29.4	-31.9	19.9	6.06e-01	0	43	102	524288	20	4795
2026-01-06 12:50:49.40	217.75	34.34	-29.5	-32.1	19.8	6.05e-01	0	43	102	524288	20	4852
2026-01-06 12:50:50.41	218.11	34.51	-29.6	-32.3	19.6	6.08e-01	0	43	102	524288	20	4951
2026-01-06 12:50:51.42	218.46	34.69	-29.4	-32.0	19.8	6.06e-01	0	43	102	524288	20	4820
2026-01-06 12:50:52.42	218.82	34.86	-29.5	-32.2	19.7	6.07e-01	0	43	102	524288	20	4905
2026-01-06 12:50:53.43	219.18	35.04	-29.6	-32.4	19.6	6.04e-01	0	43	102	524288	20	4958
2026-01-06 12:50:54.44	219.55	35.21	-29.7	-32.7	19.5	6.07e-01	0	43	102	524288	20	5073
2026-01-06 12:50:55.44	219.92	35.39	-29.8	-32.9	19.3	6.07e-01	0	43	102	524288	20	5144
2026-01-06 12:50:56.45	220.30	35.56	-29.6	-32.4	19.6	6.06e-01	0	43	102	524288	20	4979
2026-01-06 12:50:57.45	220.67	35.73	-29.6	-32.4	19.7	6.06e-01	0	43	102	524288	20	4945
2026-01-06 12:50:58.45	221.05	35.91	-29.9	-33.1	19.2	6.07e-01	0	43	102	524288	20	5212
2026-01-06 12:50:59.46	221.44	36.08	-29.8	-33.0	19.3	6.06e-01	0	43	102	524288	20	5173
2026-01-06 12:51:00.46	221.83	36.25	-29.8	-32.8	19.3	6.06e-01	0	43	102	524288	20	5120
2026-01-06 12:51:01.46	222.22	36.42	-29.9	-33.1	19.2	6.07e-01	0	43	102	524288	20	5234
2026-01-06 12:51:02.47	222.62	36.59	-29.7	-32.7	19.5	6.04e-01	0	43	102	524288	20	5068
2026-01-06 12:51:03.48	223.03	36.77	-29.6	-32.2	19.7	6.05e-01	0	43	102	524288	20	4901
2026-01-06 12:51:04.49	223.44	36.94	-29.9	-33.1	19.3	6.08e-01	0	43	102	524288	20	5199
2026-01-06 12:51:05.50	223.85	37.11	-29.9	-33.1	19.2	6.07e-01	0	43	102	524288	20	5222
2026-01-06 12:51:06.51	224.27	37.28	-29.7	-32.7	19.4	6.07e-01	0	43	102	524288	20	5079
2026-01-06 12:51:07.51	224.69	37.45	-29.6	-32.3	19.7	6.07e-01	0	43	102	524288	20	4929
2026-01-06 12:51:08.52	225.11	37.61	-29.7	-32.5	19.6	6.07e-01	0	43	102	524288	20	5012
2026-01-06 12:51:09.52	225.54	37.78	-29.8	-33.0	19.3	6.05e-01	0	43	102	524288	20	5168
2026-01-06 12:51:10.53	225.98	37.95	-29.7	-32.7	19.5	6.05e-01	0	43	102	524288	20	5055
2026-01-06 12:51:11.53	226.41	38.11	-30.0	-33.5	19.0	6.06e-01	0	43	102	524288	20	5353
2026-01-06 12:51:12.53	226.85	38.27	-29.9	-33.1	19.2	6.07e-01	0	43	102	524288	20	5208
2026-01-06 12:51:13.54	227.30	38.44	-29.7	-32.7	19.5	6.04e-01	0	43	102	524288	20	5071
2026-01-06 12:51:14.55	227.76	38.60	-29.6	-32.4	19.6	6.06e-01	0	43	102	524288	20	4971
2026-01-06 12:51:15.55	228.21	38.76	-29.7	-32.6	19.6	6.08e-01	0	43	102	524288	20	5013
2026-01-06 12:51:16.56	228.67	38.92	-29.6	-32.4	19.6	6.06e-01	0	43	102	524288	20	4955
2026-01-06 12:51:17.56	229.14	39.08	-29.5	-32.0	19.9	6.08e-01	0	43	102	524288	20	4838
2026-01-06 12:51:18.57	229.61	39.23	-29.5	-32.2	19.8	6.05e-01	0	43	102	524288	20	4880
2026-01-06 12:51:19.57	230.08	39.39	-29.5	-32.0	19.9	6.05e-01	0	43	102	524288	20	4831
2026-01-06 12:51:20.58	230.56	39.54	-29.5	-32.0	19.9	6.08e-01	0	43	102	524288	20	4841
2026-01-06 12:51:21.59	231.05	39.70	-29.4	-31.9	19.9	6.05e-01	0	43	102	524288	20	4789
2026-01-06 12:51:22.59	231.53	39.85	-29.3	-31.7	20.1	6.06e-01	0	43	102	524288	20	4723
2026-01-06 12:51:23.60	232.03	40.00	-29.3	-31.7	20.1	6.08e-01	0	43	102	524288	20	4726
2026-01-06 12:51:24.61	232.53	40.14	-29.4	-31.8	20.0	6.05e-01	0	43	102	524288	20	4768
2026-01-06 12:51:25.61	233.03	40.29	-29.3	-31.7	20.1	6.05e-01	0	43	102	524288	20	4716
2026-01-06 12:51:26.62	233.53	40.43	-29.5	-32.0	20.0	6.09e-01	0	43	102	524288	20	4810
2026-01-06 12:51:27.62	234.04	40.57	-29.4	-31.7	20.1	6.08e-01	0	43	102	524288	20	4720
2026-01-06 12:51:28.62	234.56	40.71	-29.3	-31.5	20.2	6.05e-01	0	43	102	524288	20	4662
2026-01-06 12:51:29.63	235.08	40.85	-29.2	-31.4	20.3	6.07e-01	0	43	102	524288	20	4609
2026-01-06 12:51:30.63	235.60	40.99	-29.1	-31.0	20.5	6.06e-01	0	43	102	524288	20	4488
2026-01-06 12:51:31.64	236.13	41.12	-29.2	-31.3	20.4	6.08e-01	0	43	102	524288	20	4581
2026-01-06 12:51:32.65	236.67	41.26	-29.2	-31.2	20.4	6.06e-01	0	43	102	524288	20	4569
2026-01-06 12:51:33.66	237.21	41.39	-28.9	-31.0	20.9	6.07e-01	0	43	102	524288	19	4585
2026-01-06 12:51:34.66	237.74	41.51	-29.2	-31.7	20.5	6.05e-01	0	43	102	524288	19	4817
2026-01-06 12:51:35.67	238.29	41.64	-29.2	-31.7	20.5	6.06e-01	0	43	102	524288	19	4816
2026-01-06 12:51:36.68	238.85	41.76	-29.1	-31.4	20.7	6.06e-01	0	43	102	524288	19	4718
2026-01-06 12:51:37.69	239.40	41.88	-29.1	-31.6	20.6	6.07e-01	0	43	102	524288	19	4780
2026-01-06 12:51:38.69	239.96	42.00	-29.2	-31.8	20.4	6.07e-01	0	43	102	524288	19	4851
2026-01-06 12:51:39.69	240.52	42.12	-29.1	-31.4	20.7	6.03e-01	0	43	102	524288	19	4725
2026-01-06 12:51:40.70	241.09	42.23	-29.3	-31.9	20.4	6.05e-01	0	43	102	524288	19	4885
2026-01-06 12:51:41.71	241.66	42.34	-29.2	-31.8	20.4	6.07e-01	0	43	102	524288	19	4855
2026-01-06 12:51:42.71	242.23	42.45	-29.1	-31.6	20.6	6.04e-01	0	43	102	524288	19	4773
2026-01-06 12:51:43.72	242.81	42.55	-29.2	-31.8	20.5	6.06e-01	0	43	102	524288	19	4850
2026-01-06 12:51:44.72	243.39	42.65	-29.0	-31.4	20.7	6.06e-01	0	43	102	524288	19	4696
2026-01-06 12:51:45.73	243.98	42.75	-29.2	-31.7	20.5	6.07e-01	0	43	102	524288	19	4820
2026-01-06 12:51:46.73	244.57	42.85	-29.1	-31.4	20.7	6.06e-01	0	43	102	524288	19	4726
2026-01-06 12:51:47.73	245.16	42.94	-29.2	-31.7	20.6	6.06e-01	0	43	102	524288	19	4799
2026-01-06 12:51:48.74	245.76	43.03	-29.0	-31.3	20.7	6.08e-01	0	43	102	524288	19	4694
2026-01-06 12:51:49.74	246.35	43.11	-29.1	-31.6	20.6	6.06e-01	0	43	102	524288	19	4771
2026-01-06 12:51:50.75	246.96	43.20	-29.1	-31.5	20.7	6.06e-01	0	43	102	524288	19	4737
2026-01-06 12:51:51.76	247.56	43.28	-28.9	-31.0	20.9	6.04e-01	0	43	102	524288	19	4602
2026-01-06 12:51:52.77	248.18	43.35	-29.2	-31.7	20.6	6.07e-01	0	43	102	524288	19	4812
2026-01-06 12:51:53.77	248.78	43.43	-29.2	-31.8	20.5	6.08e-01	0	43	102	524288	19	4835
2026-01-06 12:51:54.78	249.40	43.50	-29.1	-31.6	20.6	6.06e-01	0	43	102	524288	19	4766
2026-01-06 12:51:55.79	250.02	43.56	-29.2	-31.8	20.6	6.07e-01	0	43	102	524288	19	4830
2026-01-06 12:51:56.79	250.64	43.62	-29.3	-32.0	20.4	6.07e-01	0	43	102	524288	19	4919
2026-01-06 12:51:57.80	251.26	43.68	-29.5	-32.5	20.1	6.06e-01	0	43	102	524288	19	5102
2026-01-06 12:51:58.81	251.89	43.74	-29.2	-31.6	20.6	6.07e-01	0	43	102	524288	19	4788
2026-01-06 12:51:59.81	252.51	43.79	-29.1	-31.6	20.6	6.05e-01	0	43	102	524288	19	4765
2026-01-06 12:52:00.82	253.14	43.84	-29.4	-32.2	20.3	6.05e-01	0	43	102	524288	19	4984
2026-01-06 12:52:01.83	253.77	43.88	-29.1	-31.6	20.6	6.05e-01	0	43	102	524288	19	4789
2026-01-06 12:52:02.83	254.40	43.93	-29.2	-31.7	20.5	6.06e-01	0	43	102	524288	19	4823
2026-01-06 12:52:03.84	255.04	43.96	-29.1	-31.4	20.6	6.06e-01	0	43	102	524288	19	4721
2026-01-06 12:52:04.85	255.67	44.00	-29.3	-31.9	20.4	6.05e-01	0	43	102	524288	19	4889
2026-01-06 12:52:05.85	256.31	44.03	-29.2	-31.7	20.5	6.05e-01	0	43	102	524288	19	4816
2026-01-06 12:52:06.86	256.95	44.05	-29.3	-32.0	20.4	6.07e-01	0	43	102	524288	19	4904
2026-01-06 12:52:07.87	257.59	44.07	-29.1	-31.4	20.7	6.07e-01	0	43	102	524288	19	4714
2026-01-06 12:52:08.88	258.23	44.09	-29.3	-32.1	20.3	6.07e-01	0	43	102	524288	19	4947
2026-01-06 12:52:09.88	258.86	44.11	-29.3	-32.1	20.3	6.07e-01	0	43	102	524288	19	4951
2026-01-06 12:52:10.88	259.50	44.12	-29.3	-31.9	20.4	6.06e-01	0	43	102	524288	19	4891
2026-01-06 12:52:11.89	260.14	44.12	-29.4	-32.3	20.2	6.07e-01	0	43	102	524288	19	5003
2026-01-06 12:52:12.90	260.79	44.13	-29.6	-32.4	19.9	6.06e-01	0	43	102	524288	20	4928
2026-01-06 12:52:13.90	261.42	44.13	-29.6	-32.3	19.8	6.05e-01	0	43	102	524288	20	4918
2026-01-06 12:52:14.90	262.06	44.12	-29.3	-31.6	20.3	6.07e-01	0	43	102	524288	20	4674
2026-01-06 12:52:15.91	262.70	44.11	-29.3	-31.6	20.4	6.08e-01	0	43	102	524288	20	4670
2026-01-06 12:52:16.92	263.34	44.10	-29.4	-31.7	20.3	6.05e-01	0	43	102	524288	20	4691
2026-01-06 12:52:17.92	263.98	44.08	-29.3	-31.6	20.3	6.06e-01	0	43	102	524288	20	4655
2026-01-06 12:52:18.92	264.61	44.06	-29.4	-31.7	20.2	6.05e-01	0	43	102	524288	20	4718
2026-01-06 12:52:19.93	265.25	44.04	-29.4	-31.8	20.2	6.07e-01	0	43	102	524288	20	4756
2026-01-06 12:52:20.93	265.89	44.01	-29.3	-31.6	20.3	6.07e-01	0	43	102	524288	20	4677
2026-01-06 12:52:21.94	266.52	43.98	-29.6	-32.4	19.9	6.07e-01	0	43	102	524288	20	4924
2026-01-06 12:52:22.94	267.15	43.95	-29.5	-32.0	20.0	6.05e-01	0	43	102	524288	20	4820
2026-01-06 12:52:23.95	267.79	43.91	-29.4	-31.7	20.3	6.06e-01	0	43	102	524288	20	4715
2026-01-06 12:52:24.96	268.42	43.86	-29.4	-31.8	20.2	6.06e-01	0	43	102	524288	20	4749
2026-01-06 12:52:25.97	269.05	43.82	-29.6	-32.2	20.0	6.06e-01	0	43	102	524288	20	4863
2026-01-06 12:52:26.97	269.67	43.77	-29.3	-31.6	20.3	6.05e-01	0	43	102	524288	20	4665
2026-01-06 12:52:27.97	270.30	43.72	-29.4	-31.8	20.2	6.03e-01	0	43	102	524288	20	4741
2026-01-06 12:52:28.98	270.92	43.66	-29.4	-31.8	20.2	6.06e-01	0	43	102	524288	20	4726
2026-01-06 12:52:29.99	271.54	43.60	-29.6	-32.3	19.9	6.07e-01	0	43	102	524288	20	4892
2026-01-06 12:52:31.00	272.16	43.53	-29.5	-32.0	20.1	6.06e-01	0	43	102	524288	20	4786
2026-01-06 12:52:32.00	272.78	43.47	-29.4	-31.7	20.3	6.08e-01	0	43	102	524288	20	4691
2026-01-06 12:52:33.01	273.39	43.39	-29.7	-32.5	19.8	6.07e-01	0	43	102	524288	20	4976
2026-01-06 12:52:34.02	274.00	43.32	-29.7	-32.4	19.9	6.09e-01	0	43	102	524288	20	4938
2026-01-06 12:52:35.02	274.61	43.24	-29.5	-32.0	20.1	6.07e-01	0	43	102	524288	20	4806
2026-01-06 12:52:36.03	275.21	43.16	-29.5	-32.1	20.0	6.05e-01	0	43	102	524288	20	4828
2026-01-06 12:52:37.04	275.81	43.08	-29.6	-32.4	19.8	6.07e-01	0	43	102	524288	20	4932
2026-01-06 12:52:38.05	276.41	42.99	-29.6	-32.1	20.0	6.05e-01	0	43	102	524288	20	4848
2026-01-06 12:52:39.06	277.01	42.90	-29.8	-32.9	19.6	6.06e-01	0	43	102	524288	20	5124
2026-01-06 12:52:40.07	277.60	42.80	-29.6	-32.4	19.8	6.05e-01	0	43	102	524288	20	4931
2026-01-06 12:52:41.08	278.19	42.71	-29.6	-32.2	19.9	6.06e-01	0	43	102	524288	20	4880
2026-01-06 12:52:42.08	278.77	42.61	-29.9	-32.9	19.5	6.08e-01	0	43	102	524288	20	5123
2026-01-06 12:52:43.09	279.35	42.50	-29.8	-32.7	19.7	6.06e-01	0	43	102	524288	20	5036
2026-01-06 12:52:44.10	279.93	42.40	-29.6	-32.4	19.9	6.06e-01	0	43	102	524288	20	4927
2026-01-06 12:52:45.10	280.50	42.29	-30.0	-33.2	19.4	6.04e-01	0	43	102	524288	20	5243
2026-01-06 12:52:46.11	281.07	42.18	-29.9	-33.1	19.4	6.07e-01	0	43	102	524288	20	5197
2026-01-06 12:52:47.12	281.64	42.07	-29.7	-32.4	19.8	6.06e-01	0	43	102	524288	20	4947
2026-01-06 12:52:48.12	282.19	41.95	-29.8	-32.8	19.6	6.07e-01	0	43	102	524288	20	5092
2026-01-06 12:52:49.13	282.75	41.83	-29.7	-32.5	19.7	6.06e-01	0	43	102	524288	20	4965
2026-01-06 12:52:50.14	283.31	41.71	-29.9	-32.9	19.6	6.07e-01	0	43	102	524288	20	5123
2026-01-06 12:52:51.14	283.85	41.59	-30.0	-33.4	19.2	6.07e-01	0	43	102	524288	20	5285
2026-01-06 12:52:52.14	284.39	41.46	-29.8	-32.8	19.6	6.05e-01	0	43	102	524288	20	5079
2026-01-06 12:52:53.14	284.93	41.33	-29.7	-32.5	19.8	6.06e-01	0	43	102	524288	20	4972
2026-01-06 12:52:54.14	285.46	41.20	-29.8	-32.7	19.7	6.06e-01	0	43	102	524288	20	5024
2026-01-06 12:52:55.15	285.99	41.07	-29.9	-32.9	19.6	6.08e-01	0	43	102	524288	20	5117
2026-01-06 12:52:56.16	286.52	40.93	-29.9	-33.1	19.5	6.07e-01	0	43	102	524288	20	5184
2026-01-06 12:52:57.17	287.04	40.80	-29.8	-32.8	19.6	6.07e-01	0	43	102	524288	20	5092
2026-01-06 12:52:58.17	287.55	40.66	-30.0	-33.2	19.4	6.08e-01	0	43	102	524288	20	5239
2026-01-06 12:52:59.19	288.07	40.52	-30.3	-33.5	18.9	6.07e-01	0	43	102	524288	21	5226
2026-01-06 12:53:00.20	288.58	40.37	-30.3	-33.4	18.9	6.06e-01	0	43	102	524288	21	5196
2026-01-06 12:53:01.20	289.08	40.23	-30.2	-33.3	19.0	6.04e-01	0	43	102	524288	21	5140
2026-01-06 12:53:02.21	289.58	40.08	-30.2	-33.4	18.9	6.06e-01	0	43	102	524288	21	5174
2026-01-06 12:53:03.22	290.08	39.93	-30.2	-33.3	19.0	6.06e-01	0	43	102	524288	21	5143
2026-01-06 12:53:04.23	290.57	39.78	-30.4	-34.0	18.6	6.08e-01	0	43	102	524288	21	5399
2026-01-06 12:53:05.24	291.06	39.63	-30.3	-33.7	18.8	6.05e-01	0	43	102	524288	21	5290
2026-01-06 12:53:06.24	291.54	39.48	-30.4	-33.9	18.6	6.07e-01	0	43	102	524288	21	5362
2026-01-06 12:53:07.24	292.01	39.33	-30.1	-33.0	19.2	6.05e-01	0	43	102	524288	21	5036
2026-01-06 12:53:08.25	292.48	39.17	-30.0	-32.7	19.4	6.06e-01	0	43	102	524288	21	4936
2026-01-06 12:53:09.26	292.95	39.01	-30.0	-32.8	19.3	6.07e-01	0	43	102	524288	21	4963
2026-01-06 12:53:10.26	293.41	38.86	-29.9	-32.6	19.4	6.06e-01	0	43	102	524288	21	4904
2026-01-06 12:53:11.27	293.87	38.70	-29.7	-32.0	19.7	6.05e-01	0	43	102	524288	21	4699
2026-01-06 12:53:12.28	294.32	38.54	-29.7	-32.1	19.8	6.06e-01	0	43	102	524288	21	4720
2026-01-06 12:53:13.28	294.77	38.38	-30.0	-32.9	19.2	6.07e-01	0	43	102	524288	21	5006
2026-01-06 12:53:14.28	295.21	38.21	-30.0	-32.9	19.2	6.04e-01	0	43	102	524288	21	5007
2026-01-06 12:53:15.29	295.65	38.05	-30.0	-32.8	19.3	6.08e-01	0	43	102	524288	21	4949
2026-01-06 12:53:16.30	296.09	37.88	-29.8	-32.3	19.6	6.05e-01	0	43	102	524288	21	4805
2026-01-06 12:53:17.31	296.52	37.72	-29.8	-32.2	19.7	6.06e-01	0	43	102	524288	21	4743
2026-01-06 12:53:18.31	296.95	37.55	-29.7	-32.1	19.8	6.08e-01	0	43	102	524288	21	4721
2026-01-06 12:53:19.32	297.37	37.39	-29.9	-32.4	19.5	6.06e-01	0	43	102	524288	21	4824
2026-01-06 12:53:20.32	297.79	37.22	-29.9	-32.5	19.5	6.06e-01	0	43	102	524288	21	4873
2026-01-06 12:53:21.33	298.20	37.05	-29.9	-32.6	19.4	6.05e-01	0	43	102	524288	21	4895
2026-01-06 12:53:22.34	298.61	36.88	-29.6	-31.7	19.9	6.07e-01	0	43	102	524288	21	4580
2026-01-06 12:53:23.35	299.02	36.71	-29.5	-31.6	20.0	6.07e-01	0	43	102	524288	21	4561
2026-01-06 12:53:24.36	299.42	36.54	-29.4	-31.4	20.1	6.07e-01	0	43	102	524288	21	4495
2026-01-06 12:53:25.37	299.82	36.37	-29.5	-31.4	20.1	6.07e-01	0	43	102	524288	21	4505
2026-01-06 12:53:26.36	300.20	36.20	-29.5	-31.6	20.0	6.06e-01	0	43	102	524288	21	4572
2026-01-06 12:53:27.37	300.59	36.03	-29.4	-31.2	20.1	6.07e-01	0	43	102	524288	21	4447
2026-01-06 12:53:28.37	300.97	35.85	-29.2	-31.4	20.4	6.09e-01	0	43	102	524288	20	4595
2026-01-06 12:53:29.38	301.35	35.68	-29.2	-31.3	20.4	6.06e-01	0	43	102	524288	20	4580
2026-01-06 12:53:30.38	301.73	35.51	-29.4	-31.8	20.1	6.07e-01	0	43	102	524288	20	4740
2026-01-06 12:53:31.39	302.10	35.33	-29.3	-31.4	20.3	6.06e-01	0	43	102	524288	20	4619
2026-01-06 12:53:32.40	302.47	35.16	-29.1	-31.1	20.5	6.07e-01	0	43	102	524288	20	4524
2026-01-06 12:53:33.40	302.83	34.99	-29.1	-31.0	20.6	6.05e-01	0	43	102	524288	20	4496
2026-01-06 12:53:34.41	303.19	34.81	-29.2	-31.2	20.5	6.05e-01	0	43	102	524288	20	4535
2026-01-06 12:53:35.42	303.55	34.64	-29.2	-31.2	20.5	6.06e-01	0	43	102	524288	20	4567
2026-01-06 12:53:36.42	303.90	34.46	-29.1	-31.0	20.5	6.08e-01	0	43	102	524288	20	4497
2026-01-06 12:53:37.43	304.25	34.29	-28.9	-30.5	20.8	6.05e-01	0	43	102	524288	20	4346
2026-01-06 12:53:38.44	304.59	34.11	-28.9	-30.9	21.0	6.04e-01	0	43	102	524288	19	4568
2026-01-06 12:53:39.45	304.94	33.94	-28.9	-31.0	21.0	6.05e-01	0	43	102	524288	19	4584
2026-01-06 12:53:40.45	305.27	33.76	-29.0	-31.4	20.7	6.05e-01	0	43	102	524288	19	4705
2026-01-06 12:53:41.46	305.60	33.59	-29.0	-31.4	20.7	6.06e-01	0	43	102	524288	19	4707
2026-01-06 12:53:42.47	305.94	33.41	-29.0	-31.2	20.8	6.07e-01	0	43	102	524288	19	4662
2026-01-06 12:53:43.48	306.26	33.24	-29.0	-31.2	20.8	6.05e-01	0	43	102	524288	19	4661
2026-01-06 12:53:44.48	306.58	33.07	-28.9	-31.1	20.9	6.07e-01	0	43	102	524288	19	4604
2026-01-06 12:53:45.49	306.90	32.89	-28.8	-30.9	21.0	6.06e-01	0	43	102	524288	19	4561
2026-01-06 12:53:46.50	307.22	32.72	-28.8	-30.8	21.0	6.06e-01	0	43	102	524288	19	4540
2026-01-06 12:53:47.51	307.53	32.54	-28.9	-31.0	20.9	6.06e-01	0	43	102	524288	19	4583
2026-01-06 12:53:48.51	307.84	32.37	-28.9	-31.1	20.8	6.08e-01	0	43	102	524288	19	4632
2026-01-06 12:53:49.51	308.14	32.20	-29.0	-31.4	20.7	6.06e-01	0	43	102	524288	19	4704
2026-01-06 12:53:50.52	308.45	32.02	-29.0	-31.4	20.6	6.05e-01	0	43	102	524288	19	4720
2026-01-06 12:53:51.53	308.75	31.85	-28.9	-30.9	20.9	6.06e-01	0	43	102	524288	19	4573
2026-01-06 12:53:52.54	309.04	31.68	-28.8	-30.8	21.0	6.05e-01	0	43	102	524288	19	4528
2026-01-06 12:53:53.55	309.34	31.50	-28.8	-30.8	21.0	6.04e-01	0	43	102	524288	19	4520
2026-01-06 12:53:54.56	309.63	31.33	-28.8	-30.9	21.0	6.07e-01	0	43	102	524288	19	4546
2026-01-06 12:53:55.56	309.91	31.16	-28.9	-31.1	20.8	6.06e-01	0	43	102	524288	19	4635
2026-01-06 12:53:56.56	310.20	30.99	-29.1	-31.6	20.6	6.08e-01	0	43	102	524288	19	4775
2026-01-06 12:53:57.57	310.48	30.82	-29.1	-31.5	20.6	6.07e-01	0	43	102	524288	19	4769
2026-01-06 12:53:58.57	310.75	30.65	-29.0	-31.2	20.7	6.06e-01	0	43	102	524288	19	4654
2026-01-06 12:53:59.57	311.02	30.48	-29.0	-31.2	20.8	6.07e-01	0	43	102	524288	19	4647
2026-01-06 12:54:00.58	311.30	30.31	-29.0	-31.2	20.8	6.05e-01	0	43	102	524288	19	4647
2026-01-06 12:54:01.58	311.56	30.14	-29.0	-31.2	20.7	6.05e-01	0	43	102	524288	19	4661
2026-01-06 12:54:02.59	311.83	29.97	-29.0	-31.3	20.7	6.06e-01	0	43	102	524288	19	4678
2026-01-06 12:54:03.60	312.09	29.80	-29.1	-31.5	20.6	6.08e-01	0	43	102	524288	19	4747
2026-01-06 12:54:04.61	312.36	29.63	-29.1	-31.5	20.6	6.05e-01	0	43	102	524288	19	4759
2026-01-06 12:54:05.62	312.61	29.46	-29.2	-31.7	20.5	6.06e-01	0	43	102	524288	19	4828
2026-01-06 12:54:06.62	312.87	29.30	-29.1	-31.7	20.4	6.06e-01	0	43	102	524288	19	4813
2026-01-06 12:54:07.62	313.12	29.13	-29.1	-31.5	20.5	6.06e-01	0	43	102	524288	19	4759
2026-01-06 12:54:08.61	313.36	28.97	-29.1	-31.6	20.5	6.07e-01	0	43	102	524288	19	4793
2026-01-06 12:54:09.62	313.61	28.80	-29.2	-31.8	20.4	6.06e-01	0	43	102	524288	19	4866
2026-01-06 12:54:10.63	313.85	28.63	-29.2	-31.7	20.4	6.06e-01	0	43	102	524288	19	4825
2026-01-06 12:54:11.63	314.09	28.47	-29.2	-31.7	20.4	6.02e-01	0	43	102	524288	19	4832
2026-01-06 12:54:12.64	314.33	28.30	-29.3	-31.9	20.3	6.04e-01	0	43	102	524288	19	4897
2026-01-06 12:54:13.64	314.57	28.14	-29.2	-31.9	20.3	6.04e-01	0	43	102	524288	19	4882
2026-01-06 12:54:14.65	314.81	27.98	-29.3	-32.0	20.2	6.02e-01	0	43	102	524288	19	4917
2026-01-06 12:54:15.65	315.04	27.82	-29.3	-32.0	20.2	6.04e-01	0	43	102	524288	19	4933
2026-01-06 12:54:16.66	315.27	27.65	-29.3	-31.9	20.2	6.02e-01	0	43	102	524288	19	4900
2026-01-06 12:54:17.67	315.49	27.49	-29.3	-32.0	20.2	6.03e-01	0	43	102	524288	19	4935
2026-01-06 12:54:18.67	315.72	27.33	-29.5	-32.5	20.0	6.05e-01	0	43	102	524288	19	5099
2026-01-06 12:54:19.68	315.94	27.17	-29.5	-32.6	19.9	6.04e-01	0	43	102	524288	19	5118
2026-01-06 12:54:20.69	316.16	27.01	-29.6	-32.2	19.7	6.02e-01	0	43	102	524288	20	4906
2026-01-06 12:54:21.70	316.38	26.85	-29.8	-32.8	19.4	6.02e-01	0	43	102	524288	20	5106
2026-01-06 12:54:22.71	316.60	26.69	-29.6	-32.3	19.7	6.00e-01	0	43	102	524288	20	4916
2026-01-06 12:54:23.71	316.81	26.53	-29.4	-31.7	20.0	6.02e-01	0	43	102	524288	20	4731
2026-01-06 12:54:24.72	317.02	26.38	-29.2	-31.3	20.3	6.03e-01	0	43	102	524288	20	4581
2026-01-06 12:54:25.72	317.23	26.22	-29.1	-31.2	20.4	6.03e-01	0	43	102	524288	20	4543
2026-01-06 12:54:26.72	317.43	26.07	-29.2	-31.2	20.3	6.04e-01	0	43	102	524288	20	4567
2026-01-06 12:54:27.73	317.64	25.91	-29.2	-31.3	20.2	6.04e-01	0	43	102	524288	20	4607
2026-01-06 12:54:28.73	317.84	25.76	-29.3	-31.6	20.0	6.02e-01	0	43	102	524288	20	4701
2026-01-06 12:54:29.74	318.04	25.60	-29.4	-31.8	20.0	6.02e-01	0	43	102	524288	20	4747
2026-01-06 12:54:30.74	318.24	25.45	-29.5	-32.1	19.7	6.03e-01	0	43	102	524288	20	4865
2026-01-06 12:54:31.75	318.44	25.29	-29.6	-32.3	19.6	6.01e-01	0	43	102	524288	20	4936
2026-01-06 12:54:32.76	318.64	25.14	-29.6	-32.3	19.6	6.02e-01	0	43	102	524288	20	4934
2026-01-06 12:54:33.76	318.83	24.99	-29.6	-32.3	19.6	6.01e-01	0	43	102	524288	20	4929
2026-01-06 12:54:34.77	319.02	24.84	-29.6	-32.4	19.5	6.02e-01	0	43	102	524288	20	4974
2026-01-06 12:54:35.78	319.21	24.69	-29.5	-32.1	19.7	6.05e-01	0	43	102	524288	20	4872
2026-01-06 12:54:36.79	319.40	24.54	-29.4	-31.9	19.8	6.02e-01	0	43	102	524288	20	4799
2026-01-06 12:54:37.79	319.58	24.39	-29.4	-32.0	19.8	6.04e-01	0	43	102	524288	20	4818
2026-01-06 12:54:38.80	319.77	24.24	-29.5	-32.0	19.7	6.02e-01	0	43	102	524288	20	4839
2026-01-06 12:54:39.81	319.95	24.09	-29.6	-32.3	19.6	6.04e-01	0	43	102	524288	20	4950
2026-01-06 12:54:40.82	320.13	23.94	-29.5	-32.1	19.7	6.02e-01	0	43	102	524288	20	4880
2026-01-06 12:54:41.82	320.31	23.80	-29.5	-32.1	19.7	6.03e-01	0	43	102	524288	20	4863
2026-01-06 12:54:42.83	320.49	23.65	-29.4	-31.8	19.8	6.03e-01	0	43	102	524288	20	4775
2026-01-06 12:54:43.84	320.67	23.50	-29.4	-31.8	19.8	6.02e-01	0	43	102	524288	20	4745
2026-01-06 12:54:44.85	320.84	23.36	-29.3	-31.5	20.0	6.02e-01	0	43	102	524288	20	4669
2026-01-06 12:54:45.85	321.01	23.22	-29.4	-31.8	19.9	6.03e-01	0	43	102	524288	20	4753
2026-01-06 12:54:46.86	321.18	23.07	-29.3	-31.7	19.9	6.01e-01	0	43	102	524288	20	4743
2026-01-06 12:54:47.86	321.35	22.93	-29.5	-32.1	19.7	6.02e-01	0	43	102	524288	20	4863
2026-01-06 12:54:48.87	321.52	22.79	-29.4	-31.9	19.8	6.05e-01	0	43	102	524288	20	4807
2026-01-06 12:54:49.88	321.68	22.64	-29.4	-31.9	19.8	6.04e-01	0	43	102	524288	20	4797
2026-01-06 12:54:50.89	321.85	22.50	-29.4	-31.9	19.8	6.06e-01	0	43	102	524288	20	4803
2026-01-06 12:54:51.90	322.01	22.36	-29.5	-32.2	19.6	6.04e-01	0	43	102	524288	20	4916
2026-01-06 12:54:52.91	322.18	22.22	-29.6	-32.5	19.4	6.01e-01	0	43	102	524288	20	5023
2026-01-06 12:54:53.92	322.34	22.08	-29.6	-32.4	19.5	6.01e-01	0	43	102	524288	20	4967
2026-01-06 12:54:54.92	322.49	21.94	-29.6	-32.4	19.5	6.03e-01	0	43	102	524288	20	4978
2026-01-06 12:54:55.93	322.65	21.81	-29.7	-32.7	19.3	6.03e-01	0	43	102	524288	20	5079
2026-01-06 12:54:56.94	322.81	21.67	-29.6	-32.3	19.5	6.01e-01	0	43	102	524288	20	4957
2026-01-06 12:54:57.94	322.96	21.53	-29.4	-31.9	19.7	6.04e-01	0	43	102	524288	20	4813
2026-01-06 12:54:58.95	323.11	21.40	-29.3	-31.7	19.8	6.04e-01	0	43	102	524288	20	4753
2026-01-06 12:54:59.95	323.26	21.26	-29.4	-31.8	19.8	6.03e-01	0	43	102	524288	20	4788
2026-01-06 12:55:00.96	323.41	21.12	-29.3	-31.7	19.9	6.03e-01	0	43	102	524288	20	4752
2026-01-06 12:55:01.97	323.56	20.99	-29.5	-32.3	19.5	6.03e-01	0	43	102	524288	20	4933
2026-01-06 12:55:02.97	323.71	20.86	-29.4	-32.0	19.6	6.05e-01	0	43	102	524288	20	4850
2026-01-06 12:55:03.98	323.86	20.72	-29.3	-31.8	19.8	6.03e-01	0	43	102	524288	20	4762
2026-01-06 12:55:04.98	324.00	20.59	-29.4	-31.8	19.8	6.01e-01	0	43	102	524288	20	4782
2026-01-06 12:55:05.98	324.14	20.46	-29.3	-31.8	19.8	6.04e-01	0	43	102	524288	20	4764
2026-01-06 12:55:06.98	324.29	20.33	-29.4	-32.0	19.6	6.04e-01	0	43	102	524288	20	4847
2026-01-06 12:55:07.99	324.43	20.20	-29.4	-32.1	19.6	6.03e-01	0	43	102	524288	20	4868
2026-01-06 12:55:09.00	324.57	20.07	-29.4	-31.9	19.7	6.03e-01	0	43	102	524288	20	4807
2026-01-06 12:55:10.01	324.71	19.94	-29.4	-32.0	19.7	6.04e-01	0	43	102	524288	20	4834
2026-01-06 12:55:11.02	324.85	19.81	-29.4	-31.9	19.7	6.03e-01	0	43	102	524288	20	4811
2026-01-06 12:55:12.03	324.98	19.68	-29.4	-32.0	19.7	6.04e-01	0	43	102	524288	20	4856
2026-01-06 12:55:13.03	325.12	19.55	-29.3	-31.8	19.8	6.02e-01	0	43	102	524288	20	4766
2026-01-06 12:55:14.04	325.25	19.43	-29.5	-32.2	19.5	6.03e-01	0	43	102	524288	20	4913
2026-01-06 12:55:15.05	325.38	19.30	-29.3	-31.7	19.8	6.03e-01	0	43	102	524288	20	4740
2026-01-06 12:55:16.05	325.52	19.17	-29.2	-31.5	20.0	6.01e-01	0	43	102	524288	20	4667
2026-01-06 12:55:17.06	325.65	19.05	-29.2	-31.5	20.0	6.03e-01	0	43	102	524288	20	4668
2026-01-06 12:55:18.07	325.78	18.92	-29.3	-31.6	19.9	6.02e-01	0	43	102	524288	20	4717
2026-01-06 12:55:19.07	325.90	18.80	-29.2	-31.4	20.0	6.01e-01	0	43	102	524288	20	4652
2026-01-06 12:55:20.08	326.03	18.67	-29.2	-31.5	19.9	6.02e-01	0	43	102	524288	20	4685
2026-01-06 12:55:21.09	326.16	18.55	-29.3	-31.8	19.7	6.03e-01	0	43	102	524288	20	4781
2026-01-06 12:55:22.09	326.28	18.43	-29.4	-32.0	19.6	6.04e-01	0	43	102	524288	20	4847
2026-01-06 12:55:23.10	326.41	18.31	-29.4	-31.9	19.7	6.02e-01	0	43	102	524288	20	4815
2026-01-06 12:55:24.11	326.53	18.18	-29.4	-32.0	19.6	6.02e-01	0	43	102	524288	20	4853
2026-01-06 12:55:25.12	326.66	18.06	-29.5	-32.3	19.4	6.05e-01	0	43	102	524288	20	4941
2026-01-06 12:55:26.13	326.78	17.94	-29.4	-32.0	19.6	6.02e-01	0	43	102	524288	20	4857
2026-01-06 12:55:27.13	326.90	17.82	-29.4	-31.9	19.6	6.01e-01	0	43	102	524288	20	4810
2026-01-06 12:55:28.14	327.02	17.70	-29.4	-32.0	19.5	6.03e-01	0	43	102	524288	20	4852
2026-01-06 12:55:29.15	327.14	17.58	-29.4	-31.9	19.6	6.03e-01	0	43	102	524288	20	4809
2026-01-06 12:55:30.15	327.25	17.46	-29.5	-32.2	19.4	6.04e-01	0	43	102	524288	20	4907
2026-01-06 12:55:31.15	327.37	17.35	-29.3	-31.7	19.7	6.02e-01	0	43	102	524288	20	4751
2026-01-06 12:55:32.16	327.48	17.23	-29.2	-31.4	19.9	6.03e-01	0	43	102	524288	20	4649
2026-01-06 12:55:33.17	327.60	17.11	-29.1	-31.3	20.0	6.04e-01	0	43	102	524288	20	4620
2026-01-06 12:55:34.17	327.71	17.00	-29.2	-31.4	19.9	6.01e-01	0	43	102	524288	20	4646
2026-01-06 12:55:35.17	327.82	16.88	-29.1	-31.2	20.0	6.03e-01	0	43	102	524288	20	4585
2026-01-06 12:55:36.18	327.94	16.77	-29.1	-31.3	20.0	6.02e-01	0	43	102	524288	20	4607
2026-01-06 12:55:37.19	328.05	16.65	-29.2	-31.3	19.9	6.03e-01	0	43	102	524288	20	4635
2026-01-06 12:55:38.20	328.16	16.54	-29.1	-31.1	20.1	6.02e-01	0	43	102	524288	20	4567
2026-01-06 12:55:39.20	328.27	16.42	-29.1	-31.2	20.0	6.01e-01	0	43	102	524288	20	4600
2026-01-06 12:55:40.21	328.38	16.31	-29.2	-31.4	19.9	6.02e-01	0	43	102	524288	20	4652
2026-01-06 12:55:41.21	328.48	16.20	-29.3	-31.7	19.7	6.03e-01	0	43	102	524288	20	4743
2026-01-06 12:55:42.21	328.59	16.08	-29.3	-31.7	19.7	6.00e-01	0	43	102	524288	20	4744
2026-01-06 12:55:43.22	328.70	15.97	-29.3	-31.7	19.7	6.04e-01	0	43	102	524288	20	4768
2026-01-06 12:55:44.23	328.80	15.86	-29.3	-31.8	19.6	6.02e-01	0	43	102	524288	20	4808
2026-01-06 12:55:45.24	328.91	15.75	-29.5	-32.2	19.4	6.03e-01	0	43	102	524288	20	4918
2026-01-06 12:55:46.25	329.01	15.64	-29.4	-32.0	19.5	6.04e-01	0	43	102	524288	20	4843
2026-01-06 12:55:47.25	329.11	15.53	-29.5	-32.2	19.4	6.03e-01	0	43	102	524288	20	4931
2026-01-06 12:55:48.25	329.22	15.42	-29.4	-32.1	19.4	6.03e-01	0	43	102	524288	20	4884
2026-01-06 12:55:49.26	329.32	15.31	-29.5	-32.4	19.2	6.01e-01	0	43	102	524288	20	4993
2026-01-06 12:55:50.27	329.42	15.20	-29.4	-31.9	19.5	6.03e-01	0	43	102	524288	20	4841
2026-01-06 12:55:51.27	329.52	15.09	-29.2	-31.6	19.7	6.03e-01	0	43	102	524288	20	4733
2026-01-06 12:55:52.28	329.62	14.99	-29.3	-31.7	19.6	6.02e-01	0	43	102	524288	20	4765
2026-01-06 12:55:53.29	329.72	14.88	-29.3	-31.7	19.6	6.03e-01	0	43	102	524288	20	4773
2026-01-06 12:55:54.30	329.81	14.77	-29.5	-32.2	19.3	6.04e-01	0	43	102	524288	20	4949
2026-01-06 12:55:55.30	329.91	14.67	-29.6	-32.5	19.1	6.01e-01	0	43	102	524288	20	5038
2026-01-06 12:55:56.31	330.01	14.56	-29.4	-32.1	19.3	6.03e-01	0	43	102	524288	20	4911
2026-01-06 12:55:57.32	330.10	14.45	-29.4	-32.1	19.4	6.03e-01	0	43	102	524288	20	4896
2026-01-06 12:55:58.33	330.20	14.35	-29.4	-32.0	19.4	6.04e-01	0	43	102	524288	20	4886
2026-01-06 12:55:59.33	330.29	14.24	-29.4	-32.1	19.4	6.03e-01	0	43	102	524288	20	4893
2026-01-06 12:56:00.34	330.39	14.14	-29.4	-32.2	19.3	6.03e-01	0	43	102	524288	20	4924
2026-01-06 12:56:01.35	330.48	14.04	-29.3	-31.9	19.4	6.02e-01	0	43	102	524288	20	4841
2026-01-06 12:56:02.35	330.57	13.93	-29.3	-31.9	19.4	6.04e-01	0	43	102	524288	20	4850
2026-01-06 12:56:03.36	330.66	13.83	-29.4	-32.1	19.2	6.01e-01	0	43	102	524288	20	4928
2026-01-06 12:56:04.37	330.76	13.73	-29.5	-32.2	19.2	6.05e-01	0	43	102	524288	20	4961
2026-01-06 12:56:05.38	330.85	13.63	-29.4	-32.0	19.3	6.02e-01	0	43	102	524288	20	4873
2026-01-06 12:56:06.38	330.94	13.52	-29.3	-32.0	19.4	6.02e-01	0	43	102	524288	20	4859
2026-01-06 12:56:07.39	331.03	13.42	-29.3	-32.0	19.3	6.02e-01	0	43	102	524288	20	4860
2026-01-06 12:56:08.40	331.11	13.32	-29.4	-32.0	19.3	6.02e-01	0	43	102	524288	20	4891
2026-01-06 12:56:09.40	331.20	13.22	-29.4	-32.2	19.2	6.01e-01	0	43	102	524288	20	4931
2026-01-06 12:56:10.40	331.29	13.12	-29.3	-31.9	19.4	6.01e-01	0	43	102	524288	20	4836
2026-01-06 12:56:11.40	331.37	13.02	-29.3	-31.9	19.4	6.01e-01	0	43	102	524288	20	4825
2026-01-06 12:56:12.41	331.46	12.92	-29.3	-31.9	19.3	6.01e-01	0	43	102	524288	20	4852
2026-01-06 12:56:13.42	331.55	12.83	-29.4	-32.0	19.3	6.03e-01	0	43	102	524288	20	4887
2026-01-06 12:56:14.43	331.63	12.73	-29.4	-32.0	19.3	6.00e-01	0	43	102	524288	20	4884
2026-01-06 12:56:15.43	331.72	12.63	-29.4	-32.0	19.3	6.01e-01	0	43	102	524288	20	4891
2026-01-06 12:56:16.44	331.80	12.53	-29.4	-32.2	19.2	6.02e-01	0	43	102	524288	20	4946
2026-01-06 12:56:17.45	331.88	12.43	-29.5	-32.3	19.1	6.01e-01	0	43	102	524288	20	4989
2026-01-06 12:56:18.46	331.97	12.34	-29.4	-32.0	19.3	6.02e-01	0	43	102	524288	20	4878
2026-01-06 12:56:19.46	332.05	12.24	-29.4	-32.1	19.2	6.03e-01	0	43	102	524288	20	4927
2026-01-06 12:56:20.46	332.13	12.15	-29.4	-32.2	19.2	6.03e-01	0	43	102	524288	20	4943
2026-01-06 12:56:21.47	332.21	12.05	-29.4	-32.1	19.3	6.03e-01	0	43	102	524288	20	4898
2026-01-06 12:56:22.48	332.29	11.95	-29.4	-32.1	19.2	6.02e-01	0	43	102	524288	20	4920
2026-01-06 12:56:23.49	332.37	11.86	-29.4	-32.2	19.1	6.02e-01	0	43	102	524288	20	4957
2026-01-06 12:56:24.49	332.45	11.76	-29.4	-32.2	19.1	6.03e-01	0	43	102	524288	20	4961
2026-01-06 12:56:25.50	332.53	11.67	-29.5	-32.3	19.0	6.04e-01	0	43	102	524288	20	5009
2026-01-06 12:56:26.51	332.61	11.58	-29.5	-32.4	19.0	6.02e-01	0	43	102	524288	20	5013
2026-01-06 12:56:27.52	332.69	11.48	-29.5	-32.4	19.0	6.02e-01	0	43	102	524288	20	5026
2026-01-06 12:56:28.52	332.76	11.39	-29.5	-32.5	18.9	6.05e-01	0	43	102	524288	20	5075
2026-01-06 12:56:29.53	332.84	11.30	-29.6	-32.6	18.9	6.04e-01	0	43	102	524288	20	5112
2026-01-06 12:56:30.54	332.92	11.20	-29.6	-32.7	18.8	6.01e-01	0	43	102	524288	20	5152
2026-01-06 12:56:31.55	332.99	11.11	-29.6	-32.7	18.8	6.02e-01	0	43	102	524288	20	5134
2026-01-06 12:56:32.56	333.07	11.02	-29.6	-32.8	18.7	6.02e-01	0	43	102	524288	20	5173
2026-01-06 12:56:33.56	333.14	10.93	-29.6	-32.8	18.7	6.02e-01	0	43	102	524288	20	5193
2026-01-06 12:56:34.57	333.22	10.84	-29.7	-32.9	18.6	6.06e-01	0	43	102	524288	20	5238
2026-01-06 12:56:35.58	333.29	10.75	-29.7	-33.0	18.6	6.02e-01	0	43	102	524288	20	5264
2026-01-06 12:56:36.59	333.37	10.65	-29.8	-33.3	18.4	6.03e-01	0	43	102	524288	20	5393
2026-01-06 12:56:37.59	333.44	10.57	-29.8	-33.3	18.4	6.04e-01	0	43	102	524288	20	5372
2026-01-06 12:56:38.60	333.51	10.48	-29.7	-33.0	18.5	6.02e-01	0	43	102	524288	20	5261
2026-01-06 12:56:39.61	333.59	10.39	-29.6	-32.8	18.7	6.04e-01	0	43	102	524288	20	5188
2026-01-06 12:56:40.61	333.66	10.30	-29.7	-32.9	18.6	6.02e-01	0	43	102	524288	20	5240
2026-01-06 12:56:41.62	333.73	10.21	-29.7	-32.9	18.6	6.04e-01	0	43	102	524288	20	5232
2026-01-06 12:56:42.63	333.80	10.12	-29.8	-33.2	18.4	6.02e-01	0	43	102	524288	20	5351
2026-01-06 12:56:43.64	333.87	10.03	-29.8	-33.3	18.3	6.03e-01	0	43	102	524288	20	5364
2026-01-06 12:56:44.64	333.94	9.94	-29.8	-33.3	18.3	6.02e-01	0	43	102	524288	20	5390
2026-01-06 12:56:45.65	334.01	9.86	-29.9	-33.7	18.1	6.02e-01	0	43	102	524288	20	5552
2026-01-06 12:56:46.66	334.08	9.77	-29.9	-33.6	18.1	6.01e-01	0	43	102	524288	20	5517
2026-01-06 12:56:47.66	334.15	9.68	-29.9	-33.7	18.0	6.03e-01	0	43	102	524288	20	5560
2026-01-06 12:56:48.67	334.22	9.60	-29.9	-33.6	18.1	6.06e-01	0	43	102	524288	20	5515
2026-01-06 12:56:49.68	334.28	9.51	-29.9	-33.5	18.2	6.02e-01	0	43	102	524288	20	5456
2026-01-06 12:56:50.68	334.35	9.42	-29.8	-33.4	18.2	6.03e-01	0	43	102	524288	20	5435
2026-01-06 12:56:51.69	334.42	9.34	-29.9	-33.5	18.1	6.04e-01	0	43	102	524288	20	5464
2026-01-06 12:56:52.70	334.49	9.25	-29.9	-33.6	18.1	6.01e-01	0	43	102	524288	20	5503
2026-01-06 12:56:53.70	334.55	9.17	-29.9	-33.6	18.0	6.03e-01	0	43	102	524288	20	5537
2026-01-06 12:56:54.71	334.62	9.08	-29.9	-33.5	18.1	6.00e-01	0	43	102	524288	20	5469
2026-01-06 12:56:55.72	334.68	9.00	-29.9	-33.6	18.1	6.02e-01	0	43	102	524288	20	5507
2026-01-06 12:56:56.72	334.75	8.91	-29.9	-33.6	18.0	6.02e-01	0	43	102	524288	20	5534
2026-01-06 12:56:57.73	334.81	8.83	-29.9	-33.7	17.9	6.03e-01	0	43	102	524288	20	5571
2026-01-06 12:56:58.74	334.88	8.75	-29.9	-33.5	18.1	6.03e-01	0	43	102	524288	20	5494
2026-01-06 12:56:59.75	334.94	8.66	-30.0	-33.8	17.8	6.02e-01	0	43	102	524288	20	5616
2026-01-06 12:57:00.76	335.01	8.58	-29.9	-33.8	17.9	6.04e-01	0	43	102	524288	20	5597
2026-01-06 12:57:01.77	335.07	8.50	-30.0	-33.9	17.8	6.04e-01	0	43	102	524288	20	5636
2026-01-06 12:57:02.78	335.13	8.41	-29.9	-33.8	17.8	6.02e-01	0	43	102	524288	20	5615
2026-01-06 12:57:03.79	335.20	8.33	-29.9	-33.7	17.8	6.03e-01	0	43	102	524288	20	5588
2026-01-06 12:57:04.79	335.26	8.25	-29.9	-33.7	17.9	6.04e-01	0	43	102	524288	20	5578
2026-01-06 12:57:05.80	335.32	8.17	-30.0	-33.9	17.7	6.02e-01	0	43	102	524288	20	5662
2026-01-06 12:57:06.80	335.38	8.09	-30.1	-34.3	17.5	6.03e-01	0	43	102	524288	20	5825
2026-01-06 12:57:07.81	335.44	8.01	-30.1	-33.7	17.5	6.00e-01	0	43	102	524288	21	5485
2026-01-06 12:57:08.81	335.50	7.92	-30.1	-33.8	17.4	6.02e-01	0	43	102	524288	21	5521
2026-01-06 12:57:09.82	335.56	7.84	-30.3	-34.3	17.1	6.02e-01	0	43	102	524288	21	5728
2026-01-06 12:57:10.82	335.62	7.76	-30.2	-34.1	17.2	6.02e-01	0	43	102	524288	21	5634
2026-01-06 12:57:11.83	335.68	7.68	-30.1	-33.7	17.4	6.03e-01	0	43	102	524288	21	5488
2026-01-06 12:57:12.83	335.74	7.60	-30.1	-33.8	17.4	6.04e-01	0	43	102	524288	21	5499
2026-01-06 12:57:13.84	335.80	7.52	-30.2	-34.1	17.2	6.04e-01	0	43	102	524288	21	5647
2026-01-06 12:57:14.84	335.86	7.45	-30.1	-33.9	17.3	6.02e-01	0	43	102	524288	21	5547
2026-01-06 12:57:15.86	335.92	7.37	-30.0	-33.6	17.5	6.02e-01	0	43	102	524288	21	5433
2026-01-06 12:57:16.86	335.98	7.29	-30.1	-33.9	17.3	6.02e-01	0	43	102	524288	21	5552
2026-01-06 12:57:17.86	336.04	7.21	-30.1	-33.8	17.3	6.03e-01	0	43	102	524288	21	5538
2026-01-06 12:57:18.87	336.09	7.13	-30.1	-33.9	17.3	6.01e-01	0	43	102	524288	21	5552
2026-01-06 12:57:19.88	336.15	7.05	-33.2	-49.5	4.0	7.40e-01	0	43	104	524288	27	23487
2026-01-06 12:57:20.88	336.21	6.98	-33.6	-53.2	3.8	7.43e-01	0	43	104	524288	27	34292
2026-01-06 12:57:21.88	336.27	6.90	-33.7	-52.9	3.8	7.45e-01	0	43	104	524288	28	32676
2026-01-06 12:57:22.89	336.32	6.82	-33.9	-53.2	3.8	7.45e-01	0	43	104	524288	28	33391

#Closed at: 2026-01-06 12:57:23
#Recorded file [0 MB]: D:/data/31010_260106_154711.dat