passes_logs/2026/01/06/R2M6_AANII_01/R2M6_AANII_01__20260106_022411_SUOMI_NPP_rec.log

#Pass ID: 20260106_022411_SUOMI NPP
#Satellite: SUOMI NPP
#Configuration: NPP
#almurnet v.1.7.20240730
#Start time: 2026-01-06 02:24:13

#Version: 2.2.20231116
#Station: R2M6_AANII_01
#Location: 30.233357 lon 59.946436 lat
#TLE: 1 37849U 11061A   26004.95404768  .00000136  00000+0  85334-4 0  9991
#TLE: 2 37849  98.7801 307.0898 0002575  80.6707 279.4760 14.19522289735281

#Time	Az	El	Level	Level2	SNR	BER	BlckErr	Temp	State	Recorded	gain1	gain2
2026-01-06 02:24:13.35	10.02	7.12	-32.1	-39.5	4.2	1.42e+00	0	41	0	0	24	8408
2026-01-06 02:24:14.35	9.93	7.18	-32.0	-38.9	4.3	1.41e+00	0	41	104	0	24	7921
2026-01-06 02:24:15.36	9.83	7.25	-32.1	-39.2	5.2	5.67e-01	0	41	0	0	24	8104
2026-01-06 02:24:16.36	9.74	7.31	-32.1	-39.3	5.1	6.06e-01	0	41	102	1048576	24	8207
2026-01-06 02:24:17.37	9.64	7.37	-32.1	-39.4	5.1	6.45e-01	0	41	102	1048576	24	8282
2026-01-06 02:24:18.37	9.55	7.44	-32.2	-39.6	5.0	6.61e-01	0	41	102	1048576	24	8463
2026-01-06 02:24:19.38	9.45	7.50	-32.2	-39.9	4.9	7.42e-01	0	41	102	1048576	24	8724
2026-01-06 02:24:20.38	9.35	7.56	-32.1	-39.0	5.3	5.49e-01	0	41	102	1048576	24	7948
2026-01-06 02:24:21.39	9.25	7.63	-31.9	-38.4	6.0	4.17e-01	0	41	102	1048576	23	7548
2026-01-06 02:24:22.40	9.16	7.69	-31.6	-36.7	7.1	2.83e-01	0	41	102	1048576	23	6480
2026-01-06 02:24:23.41	9.06	7.76	-31.4	-36.1	8.1	8.76e-02	0	42	102	1048576	22	6197
2026-01-06 02:24:24.42	8.96	7.82	-31.3	-35.7	8.4	6.78e-02	0	41	102	1048576	22	5963
2026-01-06 02:24:25.43	8.86	7.89	-31.0	-34.6	9.2	3.15e-02	0	41	102	1048576	22	5438
2026-01-06 02:24:26.44	8.76	7.95	-30.8	-34.4	9.7	1.59e-02	0	42	102	1048576	21	5438
2026-01-06 02:24:27.45	8.66	8.02	-30.8	-34.3	9.8	1.21e-02	0	42	102	1048576	21	5379
2026-01-06 02:24:28.45	8.56	8.08	-30.8	-34.2	9.9	8.44e-03	0	42	102	1048576	21	5361
2026-01-06 02:24:29.45	8.46	8.14	-30.8	-34.3	9.9	1.23e-02	0	42	102	1048576	21	5389
2026-01-06 02:24:30.46	8.36	8.21	-30.8	-34.3	9.8	1.31e-02	0	42	102	1048576	21	5398
2026-01-06 02:24:31.47	8.25	8.27	-30.8	-34.1	10.0	8.69e-03	0	42	102	1048576	21	5294
2026-01-06 02:24:32.48	8.15	8.34	-30.9	-34.5	9.8	1.41e-02	0	42	102	1048576	21	5462
2026-01-06 02:24:33.48	8.05	8.40	-30.9	-34.4	9.9	1.34e-02	0	42	102	1048576	21	5423
2026-01-06 02:24:34.49	7.94	8.47	-30.9	-34.6	9.7	8.41e-03	0	42	102	1048576	21	5502
2026-01-06 02:24:35.50	7.84	8.53	-30.8	-34.2	10.0	1.51e-02	0	42	102	1048576	21	5312
2026-01-06 02:24:36.50	7.74	8.60	-30.5	-33.3	10.6	6.60e-03	0	42	102	1048576	21	4960
2026-01-06 02:24:37.51	7.63	8.66	-30.4	-33.0	10.9	3.14e-03	0	42	102	1048576	21	4829
2026-01-06 02:24:38.52	7.53	8.73	-30.3	-33.1	11.2	4.09e-03	0	42	102	1048576	20	4968
2026-01-06 02:24:39.52	7.42	8.80	-30.3	-33.1	11.3	1.29e-03	0	42	102	1048576	20	4964
2026-01-06 02:24:40.54	7.31	8.86	-30.3	-33.1	11.2	1.62e-03	0	42	102	1048576	20	4958
2026-01-06 02:24:41.54	7.21	8.93	-30.3	-32.9	11.4	3.60e-03	0	42	102	1048576	20	4855
2026-01-06 02:24:42.55	7.10	8.99	-30.3	-33.2	11.2	4.10e-03	0	42	102	1048576	20	4972
2026-01-06 02:24:43.55	6.99	9.06	-30.3	-33.1	11.2	1.49e-03	0	42	102	1048576	20	4954
2026-01-06 02:24:44.56	6.88	9.12	-30.4	-33.4	11.0	4.04e-03	0	42	102	1048576	20	5056
2026-01-06 02:24:45.57	6.77	9.19	-30.5	-33.0	10.9	4.69e-03	0	42	102	1048576	21	4843
2026-01-06 02:24:46.58	6.66	9.26	-30.5	-33.2	10.8	2.25e-03	0	42	102	1048576	21	4900
2026-01-06 02:24:47.58	6.55	9.32	-30.6	-33.4	10.7	4.79e-03	0	42	102	1048576	21	4989
2026-01-06 02:24:48.59	6.44	9.39	-30.5	-33.6	10.9	4.79e-03	0	42	102	1048576	20	5130
2026-01-06 02:24:49.60	6.33	9.45	-30.5	-33.1	10.9	1.95e-03	0	42	102	1048576	21	4848
2026-01-06 02:24:50.60	6.22	9.52	-30.5	-32.9	11.0	2.03e-03	0	42	102	1048576	21	4791
2026-01-06 02:24:51.60	6.11	9.59	-30.4	-33.1	11.3	4.76e-03	0	42	102	1048576	20	4952
2026-01-06 02:24:52.60	6.00	9.65	-30.4	-33.2	11.3	9.76e-04	0	42	102	1048576	20	4972
2026-01-06 02:24:53.61	5.89	9.72	-30.5	-33.1	11.0	1.77e-03	0	42	102	1048576	21	4859
2026-01-06 02:24:54.61	5.77	9.79	-30.6	-33.3	10.8	4.47e-03	0	42	102	1048576	21	4919
2026-01-06 02:24:55.61	5.66	9.85	-30.7	-33.8	10.5	2.51e-03	0	42	102	1048576	21	5114
2026-01-06 02:24:56.62	5.54	9.92	-30.6	-33.5	10.7	3.17e-03	0	42	102	1048576	21	4990
2026-01-06 02:24:57.62	5.43	9.98	-30.6	-33.5	10.7	2.11e-03	0	42	102	1048576	21	4986
2026-01-06 02:24:58.62	5.31	10.05	-30.6	-33.4	10.8	3.09e-03	0	42	102	1048576	21	4945
2026-01-06 02:24:59.63	5.20	10.12	-30.7	-33.7	10.6	4.47e-03	0	42	102	1048576	21	5060
2026-01-06 02:25:00.64	5.08	10.19	-30.7	-33.8	10.5	3.39e-03	0	42	102	1048576	21	5111
2026-01-06 02:25:01.64	4.96	10.25	-30.7	-33.8	10.5	6.00e-03	0	42	102	1048576	21	5113
2026-01-06 02:25:02.65	4.85	10.32	-30.7	-33.5	10.7	3.12e-03	0	43	102	1048576	21	5001
2026-01-06 02:25:03.66	4.73	10.39	-30.7	-33.7	10.6	2.80e-03	0	42	102	1048576	21	5071
2026-01-06 02:25:04.66	4.61	10.45	-30.6	-33.5	10.7	2.83e-03	0	42	102	1048576	21	4979
2026-01-06 02:25:05.67	4.49	10.52	-30.6	-33.4	10.8	5.03e-03	0	42	102	1048576	21	4962
2026-01-06 02:25:06.68	4.37	10.59	-30.6	-33.2	10.9	2.81e-03	0	42	102	1048576	21	4894
2026-01-06 02:25:07.69	4.25	10.66	-30.7	-33.6	10.7	2.80e-03	0	42	102	1048576	21	5035
2026-01-06 02:25:08.70	4.12	10.72	-30.7	-33.6	10.7	3.24e-03	0	42	102	1048576	21	5027
2026-01-06 02:25:09.71	4.00	10.79	-30.7	-33.7	10.6	3.29e-03	0	42	102	1048576	21	5082
2026-01-06 02:25:10.71	3.88	10.86	-30.1	-33.0	10.7	3.68e-03	0	43	102	1048576	21	5028
2026-01-06 02:25:11.71	3.76	10.93	-30.9	-34.4	10.1	3.71e-03	0	43	102	1048576	21	5372
2026-01-06 02:25:12.72	3.63	10.99	-30.7	-33.7	10.5	4.72e-03	0	43	102	1048576	21	5090
2026-01-06 02:25:13.73	3.51	11.06	-30.7	-33.6	10.7	3.33e-03	0	43	102	1048576	21	5040
2026-01-06 02:25:14.73	3.39	11.13	-30.7	-33.6	10.7	3.00e-03	0	43	102	1048576	21	5007
2026-01-06 02:25:15.74	3.26	11.20	-30.5	-33.0	11.2	2.11e-03	0	43	102	1048576	21	4808
2026-01-06 02:25:16.75	3.13	11.27	-30.2	-32.8	11.1	1.35e-03	0	43	102	1048576	21	4853
2026-01-06 02:25:17.75	3.01	11.33	-29.1	-32.0	10.7	1.98e-03	0	43	102	1048576	20	5053
2026-01-06 02:25:18.77	2.88	11.40	-30.4	-32.7	11.2	1.18e-03	0	43	102	1048576	21	4673
2026-01-06 02:25:19.77	2.75	11.47	-30.4	-33.2	10.6	1.03e-03	0	43	102	1048576	20	4976
2026-01-06 02:25:20.78	2.62	11.54	-30.4	-33.1	10.7	8.00e-04	0	43	102	1048576	20	4904
2026-01-06 02:25:21.78	2.49	11.61	-30.3	-32.9	11.5	7.14e-04	0	43	102	1048576	20	4844
2026-01-06 02:25:22.79	2.36	11.67	-30.3	-32.8	11.5	8.12e-04	0	43	102	1048576	20	4823
2026-01-06 02:25:23.79	2.23	11.74	-30.3	-32.7	11.6	8.28e-04	0	43	102	1048576	20	4777
2026-01-06 02:25:24.80	2.10	11.81	-30.4	-33.3	11.4	9.73e-04	0	43	102	1048576	20	4988
2026-01-06 02:25:25.81	1.97	11.88	-30.4	-33.2	11.4	4.16e-03	0	43	102	1048576	20	4977
2026-01-06 02:25:26.82	1.84	11.95	-30.4	-33.1	11.5	1.49e-03	0	43	102	1048576	20	4931
2026-01-06 02:25:27.83	1.71	12.02	-30.5	-32.9	11.3	8.11e-04	0	43	102	1048576	21	4753
2026-01-06 02:25:28.83	1.57	12.08	-30.5	-33.0	11.2	1.05e-03	0	43	102	1048576	21	4798
2026-01-06 02:25:29.84	1.44	12.15	-30.4	-33.0	11.6	3.69e-03	0	43	102	1048576	20	4894
2026-01-06 02:25:30.85	1.30	12.22	-30.3	-32.8	11.8	7.01e-04	0	43	102	1048576	20	4790
2026-01-06 02:25:31.86	1.17	12.29	-30.3	-32.8	11.7	4.89e-04	0	43	102	1048576	20	4804
2026-01-06 02:25:32.86	1.03	12.36	-30.3	-32.7	11.9	3.55e-03	0	43	102	1048576	20	4767
2026-01-06 02:25:33.87	0.90	12.43	-30.1	-32.2	12.2	3.33e-04	0	43	102	1048576	20	4566
2026-01-06 02:25:34.88	0.76	12.50	-30.2	-32.5	12.0	2.73e-04	0	43	102	1048576	20	4671
2026-01-06 02:25:35.89	0.62	12.56	-30.2	-32.5	12.0	3.76e-03	0	43	102	1048576	20	4673
2026-01-06 02:25:36.89	0.48	12.63	-30.2	-32.3	12.1	5.77e-04	0	43	102	1048576	20	4620
2026-01-06 02:25:37.90	0.34	12.70	-30.2	-32.4	12.1	6.51e-04	0	43	102	1048576	20	4661
2026-01-06 02:25:38.90	0.20	12.77	-30.2	-32.5	12.0	3.06e-03	0	43	102	1048576	20	4691
2026-01-06 02:25:39.91	0.06	12.84	-30.1	-32.3	12.2	4.97e-04	0	43	102	1048576	20	4595
2026-01-06 02:25:40.92	359.92	12.91	-30.3	-32.7	11.9	1.93e-03	0	43	102	1048576	20	4743
2026-01-06 02:25:41.93	359.78	12.98	-30.2	-32.3	12.1	6.21e-04	0	43	102	1048576	20	4617
2026-01-06 02:25:42.93	359.63	13.05	-30.1	-32.0	12.3	4.45e-04	0	43	102	1048576	20	4514
2026-01-06 02:25:43.94	359.49	13.11	-30.0	-31.8	12.5	3.42e-03	0	43	102	1048576	20	4452
2026-01-06 02:25:44.95	359.35	13.18	-29.9	-31.7	12.6	4.69e-04	0	43	102	1048576	20	4410
2026-01-06 02:25:45.96	359.20	13.25	-30.0	-31.9	12.4	3.87e-04	0	43	102	1048576	20	4490
2026-01-06 02:25:46.96	359.06	13.32	-30.1	-32.2	12.2	3.04e-03	0	43	102	1048576	20	4564
2026-01-06 02:25:47.97	358.91	13.39	-30.2	-32.4	12.1	3.02e-03	0	43	102	1048576	20	4650
2026-01-06 02:25:48.98	358.76	13.46	-30.2	-32.5	12.0	5.34e-04	0	43	102	1048576	20	4704
2026-01-06 02:25:49.98	358.62	13.53	-30.3	-32.8	11.9	3.13e-03	0	43	102	1048576	20	4781
2026-01-06 02:25:50.99	358.47	13.60	-30.2	-32.4	12.1	3.68e-03	0	43	102	1048576	20	4669
2026-01-06 02:25:52.00	358.32	13.67	-30.2	-32.3	12.1	6.00e-04	0	43	102	1048576	20	4630
2026-01-06 02:25:53.00	358.17	13.73	-30.3	-32.7	11.9	3.41e-03	0	43	102	1048576	20	4761
2026-01-06 02:25:54.01	358.02	13.80	-30.2	-32.4	12.1	3.61e-03	0	43	102	1048576	20	4657
2026-01-06 02:25:55.02	357.87	13.87	-30.1	-32.2	12.2	6.84e-04	0	43	102	1048576	20	4575
2026-01-06 02:25:56.03	357.71	13.94	-30.2	-32.5	12.0	2.89e-03	0	43	102	1048576	20	4685
2026-01-06 02:25:57.02	357.56	14.01	-30.4	-33.1	11.6	3.57e-03	0	43	102	1048576	20	4925
2026-01-06 02:25:58.03	357.41	14.08	-30.5	-33.0	11.3	1.01e-03	0	43	102	1048576	21	4779
2026-01-06 02:25:59.04	357.26	14.15	-30.6	-33.1	11.2	9.81e-04	0	43	102	1048576	21	4825
2026-01-06 02:26:00.05	357.10	14.22	-30.6	-33.2	11.2	4.59e-03	0	43	102	1048576	21	4862
2026-01-06 02:26:01.06	356.94	14.29	-30.5	-33.0	11.3	1.89e-03	0	43	102	1048576	21	4797
2026-01-06 02:26:02.06	356.79	14.35	-30.5	-33.0	11.3	1.11e-03	0	43	102	1048576	21	4778
2026-01-06 02:26:03.07	356.63	14.42	-30.5	-32.9	11.5	3.29e-03	0	43	102	1048576	21	4726
2026-01-06 02:26:04.08	356.47	14.49	-30.4	-32.6	11.7	9.83e-04	0	43	102	1048576	21	4623
2026-01-06 02:26:05.09	356.31	14.56	-30.4	-33.1	11.6	4.18e-03	0	43	102	1048576	20	4901
2026-01-06 02:26:06.09	356.16	14.63	-30.1	-32.2	12.3	2.39e-04	0	43	102	1048576	20	4585
2026-01-06 02:26:07.10	356.00	14.70	-30.1	-32.0	12.4	3.87e-04	0	43	102	1048576	20	4503
2026-01-06 02:26:08.11	355.84	14.77	-30.1	-32.2	12.4	3.59e-03	0	43	102	1048576	20	4554
2026-01-06 02:26:09.12	355.67	14.84	-30.2	-32.4	12.2	2.37e-04	0	43	102	1048576	20	4638
2026-01-06 02:26:10.13	355.51	14.90	-30.4	-32.9	11.8	4.40e-04	0	43	102	1048576	20	4829
2026-01-06 02:26:11.13	355.35	14.97	-30.4	-33.0	11.8	2.76e-03	0	43	102	1048576	20	4871
2026-01-06 02:26:12.14	355.18	15.04	-30.6	-33.2	11.2	1.21e-03	0	43	102	1048576	21	4827
2026-01-06 02:26:13.15	355.02	15.11	-30.7	-33.4	11.1	1.22e-03	0	43	102	1048576	21	4937
2026-01-06 02:26:14.16	354.85	15.18	-30.6	-33.2	11.3	3.60e-03	0	43	102	1048576	21	4836
2026-01-06 02:26:15.16	354.69	15.25	-30.5	-32.9	11.4	1.03e-03	0	43	102	1048576	21	4733
2026-01-06 02:26:16.16	354.52	15.31	-30.4	-32.6	11.6	7.48e-04	0	43	102	1048576	21	4631
2026-01-06 02:26:17.16	354.36	15.38	-30.5	-33.2	11.6	5.68e-04	0	43	102	1048576	20	4937
2026-01-06 02:26:18.17	354.19	15.45	-30.5	-33.2	11.7	2.60e-03	0	43	102	1048576	20	4925
2026-01-06 02:26:19.18	354.02	15.52	-30.5	-33.2	11.7	5.76e-04	0	43	102	1048576	20	4954
2026-01-06 02:26:20.18	353.85	15.59	-30.6	-33.0	11.4	6.19e-04	0	43	102	1048576	21	4781
2026-01-06 02:26:21.18	353.68	15.65	-30.6	-33.2	11.3	3.02e-03	0	43	102	1048576	21	4859
2026-01-06 02:26:22.19	353.51	15.72	-30.7	-33.5	11.1	1.37e-03	0	43	102	1048576	21	4947
2026-01-06 02:26:23.20	353.33	15.79	-30.6	-33.2	11.2	1.41e-03	0	43	102	1048576	21	4852
2026-01-06 02:26:24.21	353.16	15.86	-30.7	-33.5	11.0	1.54e-03	0	43	102	1048576	21	4950
2026-01-06 02:26:25.21	352.99	15.93	-29.8	-32.5	11.2	1.43e-03	0	43	102	1048576	21	4874
2026-01-06 02:26:26.22	352.81	15.99	-30.6	-33.2	11.1	1.60e-03	0	43	102	1048576	21	4846
2026-01-06 02:26:27.23	352.64	16.06	-30.7	-33.5	11.2	1.57e-03	0	43	102	1048576	21	4942
2026-01-06 02:26:28.24	352.46	16.13	-30.8	-33.8	10.8	2.20e-03	0	43	102	1048576	21	5060
2026-01-06 02:26:29.24	352.28	16.20	-30.8	-33.6	10.9	1.44e-03	0	43	102	1048576	21	5005
2026-01-06 02:26:30.24	352.11	16.26	-30.7	-33.4	11.2	1.17e-03	0	43	102	1048576	21	4890
2026-01-06 02:26:31.25	351.93	16.33	-30.7	-33.3	11.3	1.25e-03	0	43	102	1048576	21	4874
2026-01-06 02:26:32.26	351.75	16.40	-30.7	-33.3	11.3	2.24e-03	0	43	102	1048576	21	4864
2026-01-06 02:26:33.27	351.57	16.46	-30.5	-32.9	11.5	1.16e-03	0	43	102	1048576	21	4725
2026-01-06 02:26:34.27	351.39	16.53	-30.5	-32.7	11.7	8.57e-04	0	43	102	1048576	21	4651
2026-01-06 02:26:35.28	351.20	16.60	-30.7	-33.5	11.1	2.66e-03	0	43	102	1048576	21	4955
2026-01-06 02:26:36.28	351.02	16.66	-30.5	-32.9	11.5	1.08e-03	0	43	102	1048576	21	4721
2026-01-06 02:26:37.29	350.84	16.73	-30.5	-32.8	11.6	4.55e-04	0	43	102	1048576	21	4669
2026-01-06 02:26:38.30	350.65	16.80	-29.4	-31.9	11.9	8.51e-04	0	43	102	1048576	20	4782
2026-01-06 02:26:39.31	350.47	16.86	-30.6	-33.0	11.5	6.42e-04	0	43	102	1048576	21	4776
2026-01-06 02:26:40.31	350.28	16.93	-30.7	-33.4	10.8	7.51e-04	0	43	102	1048576	21	4897
2026-01-06 02:26:41.32	350.09	17.00	-30.8	-33.8	10.4	1.31e-03	0	43	102	1048576	21	5076
2026-01-06 02:26:42.33	349.90	17.06	-30.7	-33.5	11.2	2.35e-03	0	43	102	1048576	21	4951
2026-01-06 02:26:43.33	349.72	17.13	-30.7	-33.6	11.0	3.01e-03	0	43	102	1048576	21	4981
2026-01-06 02:26:44.33	349.53	17.19	-30.6	-33.1	11.3	1.12e-03	0	43	102	1048576	21	4787
2026-01-06 02:26:45.34	349.34	17.26	-30.5	-32.8	11.6	9.15e-04	0	43	102	1048576	21	4693
2026-01-06 02:26:46.35	349.15	17.32	-30.2	-32.4	12.3	6.97e-04	0	43	102	1048576	20	4623
2026-01-06 02:26:47.36	348.95	17.39	-30.1	-32.1	12.5	1.43e-04	0	43	102	1048576	20	4535
2026-01-06 02:26:48.37	348.76	17.45	-30.0	-31.8	12.7	2.29e-04	0	43	102	1048576	20	4415
2026-01-06 02:26:49.38	348.56	17.52	-30.0	-31.8	12.7	5.05e-04	0	43	102	1048576	20	4410
2026-01-06 02:26:50.38	348.37	17.58	-30.1	-32.2	12.5	4.12e-04	0	43	102	1048576	20	4544
2026-01-06 02:26:51.39	348.18	17.65	-30.2	-32.4	12.4	1.69e-04	0	43	102	1048576	20	4620
2026-01-06 02:26:52.39	347.98	17.71	-30.3	-32.6	12.1	8.28e-04	0	43	102	1048576	20	4709
2026-01-06 02:26:53.40	347.78	17.78	-30.3	-32.6	12.2	3.98e-04	0	43	102	1048576	20	4691
2026-01-06 02:26:54.41	347.58	17.84	-30.1	-32.2	12.4	2.33e-04	0	43	102	1048576	20	4570
2026-01-06 02:26:55.42	347.38	17.90	-30.0	-31.8	12.7	1.59e-04	0	43	102	1048576	20	4444
2026-01-06 02:26:56.43	347.18	17.97	-29.9	-31.5	12.8	8.69e-05	0	43	102	1048576	20	4339
2026-01-06 02:26:57.43	346.98	18.03	-29.8	-31.4	12.9	4.57e-05	0	43	102	1048576	20	4291
2026-01-06 02:26:58.45	346.78	18.09	-29.9	-31.4	12.9	1.36e-04	0	43	102	1048576	20	4317
2026-01-06 02:26:59.46	346.58	18.16	-29.9	-31.9	13.0	4.68e-04	0	43	102	1048576	19	4555
2026-01-06 02:27:00.47	346.37	18.22	-29.9	-31.9	13.0	3.89e-05	0	43	102	1048576	19	4563
2026-01-06 02:27:01.47	346.17	18.28	-29.8	-31.6	13.2	2.04e-04	0	43	102	1048576	19	4456
2026-01-06 02:27:02.47	345.97	18.34	-29.8	-31.6	13.2	1.96e-03	0	44	102	1048576	19	4461
2026-01-06 02:27:03.49	345.76	18.41	-29.8	-31.5	13.2	2.74e-05	0	43	102	1048576	19	4428
2026-01-06 02:27:04.52	345.55	18.47	-29.8	-31.7	13.2	1.89e-04	0	44	102	1048576	19	4478
2026-01-06 02:27:05.43	345.36	18.52	-29.9	-31.9	13.0	2.24e-03	0	43	102	1048576	19	4534
2026-01-06 02:27:06.44	345.15	18.59	-29.5	-30.8	13.7	1.29e-05	0	43	102	1048576	19	4190
2026-01-06 02:27:07.45	344.94	18.65	-29.4	-30.7	13.9	2.43e-03	0	43	102	1048576	19	4156
2026-01-06 02:27:08.46	344.73	18.71	-29.5	-30.9	13.7	9.07e-05	0	43	102	1048576	19	4235
2026-01-06 02:27:09.47	344.52	18.77	-29.7	-31.5	13.3	1.44e-05	0	44	102	1048576	19	4394
2026-01-06 02:27:10.48	344.31	18.83	-29.7	-31.4	13.4	2.14e-03	0	44	102	1048576	19	4378
2026-01-06 02:27:11.49	344.09	18.89	-29.8	-31.7	13.3	6.33e-05	0	43	102	1048576	19	4470
2026-01-06 02:27:12.49	343.88	18.95	-29.6	-31.1	13.6	2.05e-05	0	44	102	1048576	19	4279
2026-01-06 02:27:13.50	343.67	19.01	-29.4	-31.0	14.0	2.36e-03	0	43	102	1048576	18	4333
2026-01-06 02:27:14.50	343.45	19.07	-29.1	-30.4	14.4	2.36e-03	0	43	102	1048576	18	4156
2026-01-06 02:27:15.51	343.24	19.13	-29.1	-30.4	14.3	0.00e+00	0	43	102	1048576	18	4157
2026-01-06 02:27:16.52	343.02	19.19	-29.2	-30.5	14.3	2.51e-03	0	43	102	1048576	18	4201
2026-01-06 02:27:17.52	342.80	19.24	-29.3	-30.8	14.1	2.28e-03	0	43	102	1048576	18	4281
2026-01-06 02:27:18.52	342.59	19.30	-29.5	-31.3	13.8	4.50e-06	0	44	102	1048576	18	4435
2026-01-06 02:27:19.53	342.37	19.36	-29.6	-31.2	13.6	2.44e-03	0	43	102	1048576	19	4320
2026-01-06 02:27:20.54	342.15	19.42	-29.7	-31.5	13.4	2.84e-03	0	44	102	1048576	19	4399
2026-01-06 02:27:21.54	341.93	19.47	-29.8	-31.7	13.2	2.13e-05	0	43	102	1048576	19	4468
2026-01-06 02:27:22.54	341.71	19.53	-29.7	-31.3	13.4	2.66e-03	0	43	102	1048576	19	4349
2026-01-06 02:27:23.54	341.48	19.59	-29.5	-30.7	13.8	2.57e-03	0	43	102	1048576	19	4166
2026-01-06 02:27:24.55	341.26	19.64	-29.2	-30.0	14.3	2.20e-06	0	43	102	1048576	19	3968
2026-01-06 02:27:25.56	341.04	19.70	-29.1	-30.2	14.5	7.00e-07	0	43	102	1048576	18	4112
2026-01-06 02:27:26.56	340.81	19.75	-29.1	-30.2	14.5	2.39e-03	0	43	102	1048576	18	4108
2026-01-06 02:27:27.56	340.59	19.81	-29.1	-30.3	14.4	1.50e-06	0	43	102	1048576	18	4143
2026-01-06 02:27:28.57	340.36	19.86	-29.2	-30.7	14.2	2.20e-06	0	43	102	1048576	18	4238
2026-01-06 02:27:29.58	340.13	19.92	-29.3	-30.7	14.2	2.65e-03	0	43	102	1048576	18	4239
2026-01-06 02:27:30.58	339.90	19.97	-29.4	-31.0	14.0	5.95e-05	0	44	102	1048576	18	4337
2026-01-06 02:27:31.59	339.67	20.03	-29.2	-30.4	14.4	2.75e-03	0	43	102	1048576	18	4164
2026-01-06 02:27:32.59	339.45	20.08	-29.1	-30.2	14.5	4.80e-05	0	43	102	1048576	18	4101
2026-01-06 02:27:33.59	339.22	20.13	-29.1	-30.2	14.6	9.15e-05	0	44	102	1048576	18	4085
2026-01-06 02:27:34.60	338.98	20.18	-28.9	-30.2	14.8	2.53e-03	0	44	102	1048576	17	4203
2026-01-06 02:27:35.61	338.75	20.24	-29.0	-30.1	14.7	7.00e-07	0	43	102	1048576	18	4062
2026-01-06 02:27:36.60	338.52	20.29	-29.2	-30.5	14.4	0.00e+00	0	44	102	1048576	18	4180
2026-01-06 02:27:37.61	338.29	20.34	-29.2	-30.4	14.4	2.38e-03	0	43	102	1048576	18	4151
2026-01-06 02:27:38.61	338.05	20.39	-29.1	-30.3	14.5	3.08e-03	0	43	102	1048576	18	4120
2026-01-06 02:27:39.62	337.82	20.44	-29.2	-30.5	14.4	0.00e+00	0	43	102	1048576	18	4178
2026-01-06 02:27:40.63	337.58	20.49	-29.0	-29.9	14.7	2.56e-03	0	43	102	1048576	18	3999
2026-01-06 02:27:41.63	337.35	20.54	-28.8	-29.9	15.0	2.52e-03	0	43	102	1048576	17	4104
2026-01-06 02:27:42.64	337.11	20.59	-28.8	-29.9	15.1	4.50e-05	0	44	102	1048576	17	4090
2026-01-06 02:27:43.64	336.87	20.64	-28.7	-29.7	15.1	0.00e+00	0	44	102	1048576	17	4051
2026-01-06 02:27:44.64	336.63	20.69	-28.6	-29.4	15.3	2.35e-03	0	44	102	1048576	17	3963
2026-01-06 02:27:45.65	336.39	20.74	-28.6	-29.5	15.3	0.00e+00	0	44	102	1048576	17	3979
2026-01-06 02:27:46.66	336.15	20.78	-28.8	-29.9	15.1	0.00e+00	0	43	102	1048576	17	4104
2026-01-06 02:27:47.66	335.91	20.83	-28.8	-30.0	15.0	1.52e-05	0	43	102	1048576	17	4123
2026-01-06 02:27:48.67	335.67	20.88	-28.8	-30.0	15.0	0.00e+00	0	43	102	1048576	17	4115
2026-01-06 02:27:49.68	335.42	20.92	-28.7	-29.6	15.3	0.00e+00	0	43	102	1048576	17	4007
2026-01-06 02:27:50.68	335.18	20.97	-28.6	-29.4	15.4	0.00e+00	0	43	102	1048576	17	3945
2026-01-06 02:27:51.69	334.93	21.02	-28.7	-29.7	15.2	0.00e+00	0	44	102	1048576	17	4031
2026-01-06 02:27:52.70	334.69	21.06	-28.8	-30.0	15.0	0.00e+00	0	43	102	1048576	17	4131
2026-01-06 02:27:53.71	334.44	21.10	-28.9	-30.1	15.0	0.00e+00	0	43	102	1048576	17	4161
2026-01-06 02:27:54.72	334.19	21.15	-28.9	-29.8	14.9	0.00e+00	0	43	102	1048576	18	3965
2026-01-06 02:27:55.73	333.94	21.19	-29.0	-30.0	14.7	0.00e+00	0	43	102	1048576	18	4041
2026-01-06 02:27:56.73	333.70	21.24	-29.0	-30.0	14.8	0.00e+00	0	43	102	1048576	18	4028
2026-01-06 02:27:57.74	333.45	21.28	-29.0	-30.0	14.8	2.20e-06	0	43	102	1048576	18	4012
2026-01-06 02:27:58.75	333.20	21.32	-29.0	-29.8	14.9	9.41e-04	0	43	102	1048576	18	3981
2026-01-06 02:27:59.75	332.95	21.36	-28.9	-29.7	14.9	7.00e-07	0	43	102	1048576	18	3946
2026-01-06 02:28:00.76	332.70	21.40	-28.8	-29.8	15.1	7.00e-07	0	44	102	1048576	17	4071
2026-01-06 02:28:01.76	332.45	21.44	-28.8	-29.9	15.1	0.00e+00	0	44	102	1048576	17	4081
2026-01-06 02:28:02.76	332.20	21.48	-28.9	-30.1	15.0	0.00e+00	0	44	102	1048576	17	4158
2026-01-06 02:28:03.76	331.94	21.52	-28.9	-30.2	14.9	0.00e+00	0	43	102	1048576	17	4185
2026-01-06 02:28:04.77	331.69	21.56	-28.7	-29.8	15.1	0.00e+00	0	43	102	1048576	17	4069
2026-01-06 02:28:05.78	331.43	21.60	-28.8	-29.9	15.1	0.00e+00	0	44	102	1048576	17	4104
2026-01-06 02:28:06.79	331.18	21.64	-28.7	-29.7	15.2	0.00e+00	0	43	102	1048576	17	4035
2026-01-06 02:28:07.80	330.92	21.67	-28.4	-29.4	15.7	0.00e+00	0	43	102	1048576	16	4055
2026-01-06 02:28:08.81	330.67	21.71	-28.4	-28.9	15.7	0.00e+00	0	43	102	1048576	17	3819
2026-01-06 02:28:09.81	330.41	21.75	-28.4	-29.4	15.7	1.74e-03	0	44	102	1048576	16	4045
2026-01-06 02:28:10.81	330.15	21.78	-27.5	-28.4	15.7	0.00e+00	0	44	102	1048576	16	3996
2026-01-06 02:28:11.81	329.90	21.82	-28.4	-29.5	15.7	0.00e+00	0	43	102	1048576	16	4070
2026-01-06 02:28:12.82	329.64	21.85	-28.6	-29.3	13.8	1.52e-03	0	44	102	1048576	17	3929
2026-01-06 02:28:13.83	329.38	21.88	-28.7	-29.7	15.3	0.00e+00	0	44	102	1048576	17	4034
2026-01-06 02:28:14.83	329.12	21.92	-28.8	-29.8	15.2	0.00e+00	0	43	102	1048576	17	4069
2026-01-06 02:28:15.84	328.86	21.95	-28.9	-30.2	15.0	3.37e-03	0	44	102	1048576	17	4162
2026-01-06 02:28:16.85	328.60	21.98	-29.1	-30.1	14.8	8.22e-04	0	43	102	1048576	18	4054
2026-01-06 02:28:17.85	328.34	22.01	-29.1	-30.1	14.7	0.00e+00	0	43	102	1048576	18	4047
2026-01-06 02:28:18.86	328.08	22.04	-29.2	-30.3	14.6	2.75e-03	0	43	102	1048576	18	4105
2026-01-06 02:28:19.87	327.81	22.07	-29.5	-30.7	14.0	7.92e-04	0	44	102	1048576	19	4140
2026-01-06 02:28:20.87	327.55	22.10	-29.8	-31.6	13.4	6.80e-06	0	43	102	1048576	19	4423
2026-01-06 02:28:21.88	327.29	22.13	-30.1	-31.8	12.9	3.16e-03	0	44	102	1048576	20	4404
2026-01-06 02:28:22.89	327.02	22.16	-30.2	-32.3	12.7	3.46e-03	0	44	102	1048576	20	4547
2026-01-06 02:28:23.90	326.76	22.19	-30.3	-32.4	12.5	8.01e-05	0	44	102	1048576	20	4605
2026-01-06 02:28:24.91	326.49	22.22	-30.1	-32.0	12.8	1.13e-04	0	44	102	1048576	20	4465
2026-01-06 02:28:25.90	326.23	22.24	-30.0	-31.5	13.1	2.97e-03	0	44	102	1048576	20	4313
2026-01-06 02:28:26.91	325.96	22.27	-29.8	-31.1	13.4	1.44e-05	0	44	102	1048576	20	4174
2026-01-06 02:28:27.92	325.70	22.29	-29.9	-31.7	13.4	4.38e-04	0	43	102	1048576	19	4438
2026-01-06 02:28:28.92	325.43	22.32	-29.7	-31.2	13.7	2.51e-03	0	44	102	1048576	19	4302
2026-01-06 02:28:29.93	325.16	22.34	-29.7	-31.2	13.8	3.24e-04	0	44	102	1048576	19	4287
2026-01-06 02:28:30.94	324.89	22.37	-29.7	-31.2	13.8	1.41e-04	0	43	102	1048576	19	4279
2026-01-06 02:28:31.95	324.62	22.39	-29.5	-30.8	13.9	1.78e-03	0	43	102	1048576	19	4181
2026-01-06 02:28:32.95	324.36	22.41	-29.8	-31.5	13.6	4.10e-04	0	44	102	1048576	19	4374
2026-01-06 02:28:33.96	324.09	22.43	-29.8	-31.5	13.5	8.70e-04	0	44	102	1048576	19	4382
2026-01-06 02:28:34.97	323.82	22.45	-29.7	-31.3	13.6	1.60e-05	0	44	102	1048576	19	4325
2026-01-06 02:28:35.98	323.55	22.47	-29.7	-31.2	13.7	4.78e-04	0	44	102	1048576	19	4288
2026-01-06 02:28:36.98	323.28	22.49	-29.6	-30.9	13.9	2.42e-03	0	44	102	1048576	19	4208
2026-01-06 02:28:37.99	323.01	22.51	-29.5	-30.8	13.9	1.40e-04	0	43	102	1048576	19	4173
2026-01-06 02:28:39.00	322.74	22.53	-29.5	-30.9	13.9	2.46e-04	0	44	102	1048576	19	4191
2026-01-06 02:28:40.01	322.47	22.55	-29.7	-31.3	13.6	2.18e-03	0	44	102	1048576	19	4337
2026-01-06 02:28:41.01	322.20	22.56	-29.7	-31.3	13.6	2.46e-03	0	43	102	1048576	19	4329
2026-01-06 02:28:42.02	321.92	22.58	-29.8	-31.5	13.5	5.60e-04	0	43	102	1048576	19	4398
2026-01-06 02:28:43.03	321.65	22.59	-29.9	-31.9	13.2	2.41e-03	0	44	102	1048576	19	4511
2026-01-06 02:28:44.03	321.38	22.61	-30.0	-31.8	13.0	3.74e-03	0	43	102	1048576	20	4383
2026-01-06 02:28:45.03	321.11	22.62	-30.0	-31.5	13.1	3.96e-05	0	44	102	1048576	20	4317
2026-01-06 02:28:46.04	320.84	22.64	-30.1	-31.8	12.9	1.08e-03	0	44	102	1048576	20	4402
2026-01-06 02:28:47.04	320.57	22.65	-30.2	-32.1	12.6	2.52e-03	0	44	102	1048576	20	4516
2026-01-06 02:28:48.05	320.29	22.66	-30.0	-31.6	13.0	6.00e-04	0	43	102	1048576	20	4322
2026-01-06 02:28:49.05	320.02	22.67	-30.0	-31.6	13.1	2.10e-03	0	44	102	1048576	20	4322
2026-01-06 02:28:50.06	319.75	22.68	-29.9	-31.9	13.2	2.49e-03	0	44	102	1048576	19	4520
2026-01-06 02:28:51.06	319.48	22.69	-29.9	-31.4	13.2	7.30e-04	0	44	102	1048576	20	4257
2026-01-06 02:28:52.07	319.20	22.70	-30.2	-32.2	12.6	1.33e-04	0	43	102	1048576	20	4546
2026-01-06 02:28:53.07	318.93	22.71	-30.5	-32.7	12.0	2.81e-03	0	43	102	1048576	21	4604
2026-01-06 02:28:54.08	318.65	22.72	-30.7	-33.2	11.6	1.91e-03	0	44	102	1048576	21	4816
2026-01-06 02:28:55.09	318.38	22.72	-30.7	-33.1	11.7	6.98e-04	0	44	102	1048576	21	4774
2026-01-06 02:28:56.10	318.10	22.73	-30.9	-33.7	11.3	3.14e-03	0	44	102	1048576	21	5003
2026-01-06 02:28:57.10	317.83	22.74	-30.8	-33.4	11.5	2.14e-03	0	43	102	1048576	21	4875
2026-01-06 02:28:58.11	317.56	22.74	-30.6	-33.0	11.7	5.84e-03	0	43	102	1048576	21	4736
2026-01-06 02:28:59.11	317.28	22.75	-30.6	-33.0	11.6	4.23e-04	0	43	102	1048576	21	4757
2026-01-06 02:29:00.12	317.01	22.75	-30.5	-32.8	11.9	9.28e-04	0	44	102	1048576	21	4665
2026-01-06 02:29:01.13	316.73	22.75	-30.3	-32.7	12.3	3.25e-03	0	44	102	1048576	20	4700
2026-01-06 02:29:02.13	316.46	22.75	-30.3	-32.4	12.5	1.93e-04	0	44	102	1048576	20	4614
2026-01-06 02:29:03.14	316.18	22.76	-30.2	-32.2	12.6	1.02e-04	0	44	102	1048576	20	4548
2026-01-06 02:29:04.14	315.91	22.76	-30.1	-32.0	12.7	2.72e-03	0	43	102	1048576	20	4484
2026-01-06 02:29:05.15	315.64	22.76	-29.9	-31.4	13.1	3.89e-05	0	43	102	1048576	20	4290
2026-01-06 02:29:06.16	315.36	22.76	-29.9	-32.0	13.2	1.75e-05	0	44	102	1048576	19	4549
2026-01-06 02:29:07.16	315.09	22.75	-29.8	-31.6	13.4	2.65e-03	0	43	102	1048576	19	4419
2026-01-06 02:29:08.17	314.81	22.75	-29.8	-31.6	13.3	2.71e-03	0	44	102	1048576	19	4441
2026-01-06 02:29:09.17	314.54	22.75	-29.9	-31.8	13.2	1.83e-05	0	44	102	1048576	19	4503
2026-01-06 02:29:10.18	314.26	22.75	-29.8	-31.5	13.4	1.52e-05	0	43	102	1048576	19	4401
2026-01-06 02:29:11.19	313.99	22.74	-29.6	-31.1	13.7	2.72e-03	0	43	102	1048576	19	4283
2026-01-06 02:29:12.19	313.71	22.74	-29.5	-30.8	13.9	1.67e-05	0	44	102	1048576	19	4180
2026-01-06 02:29:13.19	313.44	22.73	-29.5	-30.8	14.0	1.50e-06	0	44	102	1048576	19	4162
2026-01-06 02:29:14.20	313.17	22.72	-29.5	-30.7	13.8	2.20e-06	0	44	102	1048576	19	4141
2026-01-06 02:29:15.21	312.89	22.72	-29.7	-31.2	13.6	4.50e-06	0	44	102	1048576	19	4316
2026-01-06 02:29:16.21	312.62	22.71	-29.8	-31.7	13.3	7.60e-06	0	43	102	1048576	19	4452
2026-01-06 02:29:17.22	312.34	22.70	-29.8	-31.2	13.2	1.98e-05	0	43	102	1048576	20	4231
2026-01-06 02:29:18.22	312.07	22.69	-30.0	-31.5	13.0	1.25e-04	0	43	102	1048576	20	4325
2026-01-06 02:29:19.22	311.80	22.68	-30.1	-31.9	12.8	4.11e-05	0	43	102	1048576	20	4425
2026-01-06 02:29:20.23	311.53	22.67	-30.0	-31.5	13.0	2.51e-05	0	44	102	1048576	20	4322
2026-01-06 02:29:21.23	311.25	22.66	-29.8	-31.1	13.3	2.28e-05	0	44	102	1048576	20	4194
2026-01-06 02:29:22.24	310.98	22.65	-29.6	-31.1	13.7	6.80e-06	0	44	102	1048576	19	4247
2026-01-06 02:29:23.24	310.71	22.64	-29.5	-30.7	13.9	5.30e-06	0	43	102	1048576	19	4154
2026-01-06 02:29:24.25	310.44	22.62	-29.3	-30.2	14.3	0.00e+00	0	43	102	1048576	19	4008
2026-01-06 02:29:25.25	310.17	22.61	-29.2	-30.4	14.4	1.60e-04	0	43	102	1048576	18	4156
2026-01-06 02:29:26.26	309.89	22.59	-29.0	-29.9	14.8	0.00e+00	0	43	102	1048576	18	4010
2026-01-06 02:29:27.27	309.62	22.58	-29.1	-30.2	14.6	0.00e+00	0	44	102	1048576	18	4080
2026-01-06 02:29:28.27	309.35	22.56	-29.2	-30.5	14.5	7.00e-07	0	44	102	1048576	18	4161
2026-01-06 02:29:29.28	309.08	22.55	-29.4	-30.9	14.2	0.00e+00	0	44	102	1048576	18	4304
2026-01-06 02:29:30.29	308.81	22.53	-29.3	-30.3	14.3	2.20e-06	0	43	102	1048576	19	4020
2026-01-06 02:29:31.30	308.53	22.51	-29.3	-30.7	14.3	0.00e+00	0	43	102	1048576	18	4221
2026-01-06 02:29:32.31	308.26	22.49	-29.1	-30.2	14.6	0.00e+00	0	44	102	1048576	18	4091
2026-01-06 02:29:33.31	307.99	22.47	-29.2	-30.4	14.5	0.00e+00	0	43	102	1048576	18	4125
2026-01-06 02:29:34.32	307.72	22.45	-29.2	-30.4	14.6	1.50e-06	0	43	102	1048576	18	4129
2026-01-06 02:29:35.33	307.45	22.43	-29.2	-30.5	14.4	7.00e-07	0	44	102	1048576	18	4156
2026-01-06 02:29:36.33	307.19	22.41	-29.2	-30.4	14.6	3.69e-04	0	43	102	1048576	18	4124
2026-01-06 02:29:37.34	306.92	22.39	-29.1	-30.1	14.7	0.00e+00	0	44	102	1048576	18	4052
2026-01-06 02:29:38.35	306.65	22.36	-29.0	-29.9	14.8	4.19e-05	0	43	102	1048576	18	4004
2026-01-06 02:29:39.35	306.38	22.34	-28.8	-30.0	15.1	9.53e-05	0	43	102	1048576	17	4112
2026-01-06 02:29:40.36	306.11	22.32	-28.7	-29.6	15.3	0.00e+00	0	43	102	1048576	17	4017
2026-01-06 02:29:41.36	305.85	22.29	-28.5	-29.2	15.6	0.00e+00	0	44	102	1048576	17	3885
2026-01-06 02:29:42.37	305.58	22.27	-28.3	-29.2	15.8	1.26e-03	0	44	102	1048576	16	3998
2026-01-06 02:29:43.37	305.32	22.24	-28.4	-29.4	15.7	0.00e+00	0	43	102	1048576	16	4054
2026-01-06 02:29:44.38	305.05	22.22	-28.2	-29.0	15.9	0.00e+00	0	43	102	1048576	16	3949
2026-01-06 02:29:45.39	304.78	22.19	-28.4	-29.5	15.7	1.27e-03	0	44	102	1048576	16	4063
2026-01-06 02:29:46.40	304.52	22.16	-28.6	-29.4	15.4	0.00e+00	0	44	102	1048576	17	3942
2026-01-06 02:29:47.41	304.25	22.13	-28.6	-29.4	15.4	0.00e+00	0	44	102	1048576	17	3957
2026-01-06 02:29:48.41	303.99	22.10	-28.8	-29.8	15.1	1.76e-03	0	44	102	1048576	17	4077
2026-01-06 02:29:49.42	303.73	22.07	-28.8	-29.9	15.1	1.95e-03	0	44	102	1048576	17	4079
2026-01-06 02:29:50.43	303.46	22.04	-28.8	-29.9	15.1	0.00e+00	0	44	102	1048576	17	4087
2026-01-06 02:29:51.43	303.20	22.01	-28.5	-29.3	15.5	0.00e+00	0	44	102	1048576	17	3926
2026-01-06 02:29:52.44	302.94	21.98	-28.6	-29.3	15.5	2.28e-03	0	44	102	1048576	17	3932
2026-01-06 02:29:53.45	302.68	21.95	-28.6	-29.5	15.3	9.03e-04	0	44	102	1048576	17	3965
2026-01-06 02:29:54.46	302.42	21.92	-28.5	-29.2	15.6	0.00e+00	0	43	102	1048576	17	3886
2026-01-06 02:29:55.46	302.16	21.88	-28.6	-29.4	15.4	2.35e-03	0	44	102	1048576	17	3957
2026-01-06 02:29:56.47	301.90	21.85	-28.5	-29.3	15.5	1.21e-03	0	44	102	1048576	17	3915
2026-01-06 02:29:57.48	301.64	21.81	-28.3	-29.3	15.7	5.79e-05	0	44	102	1048576	16	4019
2026-01-06 02:29:58.48	301.38	21.78	-28.5	-29.3	15.5	2.34e-03	0	44	102	1048576	17	3914
2026-01-06 02:29:59.49	301.12	21.74	-28.7	-29.6	15.3	1.30e-03	0	44	102	1048576	17	4018
2026-01-06 02:30:00.50	300.86	21.71	-29.0	-29.9	14.9	2.38e-03	0	44	102	1048576	18	3996
2026-01-06 02:30:01.50	300.61	21.67	-29.0	-30.0	14.7	0.00e+00	0	43	102	1048576	18	4038
2026-01-06 02:30:02.51	300.35	21.63	-29.1	-30.2	14.6	1.13e-03	0	43	102	1048576	18	4092
2026-01-06 02:30:03.52	300.09	21.60	-29.0	-29.8	14.8	3.08e-03	0	43	102	1048576	18	3974
2026-01-06 02:30:04.52	299.84	21.56	-28.8	-29.9	15.0	4.28e-04	0	43	102	1048576	17	4100
2026-01-06 02:30:05.53	299.59	21.52	-28.8	-29.9	15.1	7.61e-04	0	44	102	1048576	17	4093
2026-01-06 02:30:06.54	299.33	21.48	-28.9	-30.1	14.9	3.91e-03	0	44	102	1048576	17	4155
2026-01-06 02:30:07.55	299.08	21.44	-28.7	-29.7	15.3	3.68e-03	0	44	102	1048576	17	4038
2026-01-06 02:30:08.56	298.83	21.40	-28.8	-29.9	15.0	3.67e-04	0	44	102	1048576	17	4105
2026-01-06 02:30:09.56	298.58	21.36	-28.9	-30.3	14.8	2.61e-03	0	44	102	1048576	17	4215
2026-01-06 02:30:10.57	298.32	21.32	-29.1	-30.2	14.6	3.23e-03	0	44	102	1048576	18	4093
2026-01-06 02:30:11.57	298.08	21.27	-29.4	-31.0	14.1	3.00e-06	0	44	102	1048576	18	4311
2026-01-06 02:30:12.58	297.83	21.23	-29.7	-31.2	13.7	3.12e-03	0	43	102	1048576	19	4286
2026-01-06 02:30:13.58	297.58	21.19	-29.8	-31.6	13.3	3.51e-03	0	43	102	1048576	19	4434
2026-01-06 02:30:14.59	297.33	21.14	-30.0	-31.8	12.8	3.26e-04	0	44	102	1048576	20	4401
2026-01-06 02:30:15.60	297.08	21.10	-30.3	-32.2	12.7	3.46e-03	0	44	102	1048576	20	4522
2026-01-06 02:30:16.60	296.84	21.06	-30.4	-32.7	12.3	3.45e-03	0	44	102	1048576	20	4685
2026-01-06 02:30:17.61	296.59	21.01	-30.4	-32.0	12.4	4.28e-04	0	44	102	1048576	21	4357
2026-01-06 02:30:18.61	296.35	20.97	-30.4	-32.6	12.4	1.30e-04	0	44	102	1048576	20	4651
2026-01-06 02:30:19.62	296.10	20.92	-30.6	-32.7	12.0	3.53e-03	0	44	102	1048576	21	4595
2026-01-06 02:30:20.63	295.86	20.87	-30.4	-32.2	12.3	3.46e-04	0	44	102	1048576	21	4428
2026-01-06 02:30:21.64	295.61	20.83	-30.3	-32.3	12.6	9.46e-05	0	44	102	1048576	20	4555
2026-01-06 02:30:22.64	295.37	20.78	-30.0	-31.6	13.1	3.58e-05	0	44	102	1048576	20	4311
2026-01-06 02:30:23.65	295.13	20.73	-30.0	-31.5	13.1	1.90e-05	0	44	102	1048576	20	4275
2026-01-06 02:30:24.65	294.89	20.68	-30.0	-31.6	13.1	2.72e-03	0	44	102	1048576	20	4300
2026-01-06 02:30:25.66	294.65	20.63	-30.1	-31.9	12.9	3.28e-05	0	44	102	1048576	20	4398
2026-01-06 02:30:26.67	294.41	20.59	-30.2	-32.1	12.7	2.19e-04	0	44	102	1048576	20	4487
2026-01-06 02:30:27.67	294.17	20.54	-30.2	-32.0	12.8	2.77e-03	0	44	102	1048576	20	4438
2026-01-06 02:30:28.68	293.93	20.49	-30.1	-31.7	13.0	3.43e-05	0	44	102	1048576	20	4339
2026-01-06 02:30:29.68	293.70	20.44	-30.0	-31.5	13.1	1.83e-05	0	44	102	1048576	20	4280
2026-01-06 02:30:30.69	293.46	20.38	-30.0	-31.6	13.0	3.04e-03	0	44	102	1048576	20	4305
2026-01-06 02:30:31.70	293.22	20.33	-29.7	-30.8	13.5	2.97e-05	0	44	102	1048576	20	4089
2026-01-06 02:30:32.71	292.99	20.28	-29.6	-30.5	13.8	1.06e-05	0	44	102	1048576	20	3984
2026-01-06 02:30:33.71	292.76	20.23	-29.6	-30.8	14.0	1.78e-03	0	44	102	1048576	19	4150
2026-01-06 02:30:34.71	292.53	20.18	-29.5	-31.0	14.1	2.08e-03	0	44	102	1048576	18	4307
2026-01-06 02:30:35.72	292.29	20.13	-29.3	-30.6	14.4	1.50e-06	0	44	102	1048576	18	4198
2026-01-06 02:30:36.73	292.06	20.07	-29.3	-30.5	14.4	0.00e+00	0	44	102	1048576	18	4163
2026-01-06 02:30:37.74	291.83	20.02	-29.4	-30.5	14.1	2.36e-03	0	44	102	1048576	19	4069
2026-01-06 02:30:38.75	291.60	19.96	-29.5	-30.6	14.0	4.50e-06	0	44	102	1048576	19	4108
2026-01-06 02:30:39.76	291.37	19.91	-29.7	-31.1	13.7	1.50e-06	0	44	102	1048576	19	4248
2026-01-06 02:30:40.77	291.14	19.85	-29.7	-31.2	13.7	1.50e-06	0	44	102	1048576	19	4272
2026-01-06 02:30:41.77	290.91	19.80	-29.9	-31.7	13.3	1.76e-03	0	44	102	1048576	19	4439
2026-01-06 02:30:42.78	290.69	19.74	-30.1	-31.9	12.9	3.73e-05	0	44	102	1048576	20	4402
2026-01-06 02:30:43.78	290.46	19.69	-30.5	-32.9	12.1	1.07e-04	0	44	102	1048576	20	4779
2026-01-06 02:30:44.79	290.24	19.63	-30.7	-33.1	11.7	1.81e-03	0	44	102	1048576	21	4737
2026-01-06 02:30:45.80	290.01	19.58	-30.5	-32.6	12.0	4.13e-04	0	43	102	1048576	21	4577
2026-01-06 02:30:46.81	289.79	19.52	-30.4	-32.3	12.2	2.62e-04	0	44	102	1048576	21	4463
2026-01-06 02:30:47.82	289.57	19.46	-30.2	-32.2	12.5	1.17e-04	0	44	102	1048576	20	4510
2026-01-06 02:30:48.82	289.35	19.41	-30.2	-32.2	12.6	2.14e-04	0	44	102	1048576	20	4529
2026-01-06 02:30:49.83	289.12	19.35	-30.3	-32.5	12.4	9.46e-05	0	44	102	1048576	20	4619
2026-01-06 02:30:50.83	288.91	19.29	-30.7	-33.0	11.7	3.71e-04	0	44	102	1048576	21	4717
2026-01-06 02:30:51.84	288.69	19.23	-30.0	-32.9	11.1	1.11e-03	0	44	102	1048576	21	5036
2026-01-06 02:30:52.85	288.47	19.17	-31.3	-34.5	10.2	3.06e-03	0	44	102	1048576	22	5205
2026-01-06 02:30:53.86	288.25	19.11	-31.3	-34.6	10.0	6.06e-03	0	44	102	1048576	22	5260
2026-01-06 02:30:54.87	288.03	19.05	-31.5	-34.7	9.4	1.14e-02	0	44	102	1048576	23	5242
2026-01-06 02:30:55.88	287.82	19.00	-31.5	-35.2	9.7	9.49e-03	0	43	102	1048576	22	5511
2026-01-06 02:30:56.88	287.60	18.94	-31.2	-34.3	10.4	6.61e-03	0	43	102	1048576	22	5113
2026-01-06 02:30:57.89	287.39	18.88	-30.9	-33.8	11.1	4.87e-03	0	44	102	1048576	21	5017
2026-01-06 02:30:58.90	287.17	18.82	-30.8	-33.3	11.4	1.42e-03	0	44	102	1048576	21	4830
2026-01-06 02:30:59.90	286.96	18.76	-30.6	-32.9	11.7	6.45e-04	0	44	102	1048576	21	4657
2026-01-06 02:31:00.91	286.75	18.69	-30.5	-32.6	11.9	3.99e-04	0	44	102	1048576	21	4576
2026-01-06 02:31:01.92	286.54	18.63	-30.7	-33.0	11.6	9.99e-04	0	44	102	1048576	21	4731
2026-01-06 02:31:02.92	286.33	18.57	-30.3	-32.4	12.4	3.00e-04	0	44	102	1048576	20	4578
2026-01-06 02:31:03.92	286.12	18.51	-30.1	-31.9	12.7	8.01e-05	0	44	102	1048576	20	4429
2026-01-06 02:31:04.93	285.92	18.45	-29.9	-31.4	13.1	7.32e-05	0	44	102	1048576	20	4248
2026-01-06 02:31:05.94	285.71	18.39	-30.0	-31.9	13.1	3.36e-04	0	44	102	1048576	19	4515
2026-01-06 02:31:06.93	285.50	18.33	-29.9	-31.4	13.1	5.41e-04	0	44	102	1048576	20	4248
2026-01-06 02:31:07.94	285.30	18.26	-30.1	-31.9	12.7	4.88e-05	0	43	102	1048576	20	4427
2026-01-06 02:31:08.93	285.10	18.20	-30.0	-31.6	12.9	3.37e-03	0	44	102	1048576	20	4340
2026-01-06 02:31:09.94	284.89	18.14	-30.2	-32.1	12.6	1.08e-03	0	44	102	1048576	20	4481
2026-01-06 02:31:10.95	284.69	18.08	-30.1	-32.0	12.7	1.01e-04	0	44	102	1048576	20	4444
2026-01-06 02:31:11.96	284.49	18.01	-29.9	-31.8	13.2	2.48e-03	0	44	102	1048576	19	4469
2026-01-06 02:31:12.96	284.29	17.95	-29.5	-30.6	14.0	9.84e-04	0	44	102	1048576	19	4107
2026-01-06 02:31:13.96	284.09	17.89	-29.2	-29.9	14.4	1.50e-06	0	43	102	1048576	19	3912
2026-01-06 02:31:14.97	283.89	17.82	-29.0	-30.0	14.6	1.30e-03	0	43	102	1048576	18	4020
2026-01-06 02:31:15.98	283.69	17.76	-29.1	-30.1	14.6	1.50e-03	0	44	102	1048576	18	4040
2026-01-06 02:31:16.99	283.49	17.69	-29.4	-31.0	14.1	1.72e-04	0	44	102	1048576	18	4321
2026-01-06 02:31:17.99	283.29	17.63	-29.5	-30.8	13.8	1.07e-03	0	44	102	1048576	19	4170
2026-01-06 02:31:19.00	283.10	17.56	-29.8	-31.4	13.4	2.22e-03	0	44	102	1048576	19	4366
2026-01-06 02:31:20.01	282.90	17.50	-30.0	-32.0	13.1	2.74e-05	0	44	102	1048576	19	4538
2026-01-06 02:31:21.01	282.71	17.43	-30.2	-32.1	12.6	2.18e-03	0	44	102	1048576	20	4497
2026-01-06 02:31:22.02	282.51	17.37	-30.4	-32.8	12.2	2.51e-03	0	44	102	1048576	20	4727
2026-01-06 02:31:23.03	282.32	17.30	-30.5	-32.5	11.9	4.49e-04	0	44	102	1048576	21	4536
2026-01-06 02:31:24.04	282.13	17.24	-30.4	-32.9	12.0	2.51e-03	0	44	102	1048576	20	4778
2026-01-06 02:31:25.04	281.94	17.17	-30.3	-32.5	12.2	2.67e-03	0	44	102	1048576	20	4628
2026-01-06 02:31:26.05	281.75	17.11	-30.1	-32.0	12.6	6.37e-04	0	44	102	1048576	20	4454
2026-01-06 02:31:27.06	281.56	17.04	-30.1	-31.8	12.7	3.87e-03	0	43	102	1048576	20	4396
2026-01-06 02:31:28.07	281.37	16.97	-30.0	-31.7	12.8	1.36e-03	0	44	102	1048576	20	4373
2026-01-06 02:31:29.07	281.18	16.91	-29.8	-31.2	13.2	4.27e-05	0	44	102	1048576	20	4196
2026-01-06 02:31:30.08	280.99	16.84	-29.8	-31.6	13.2	3.28e-03	0	44	102	1048576	19	4418
2026-01-06 02:31:31.09	280.81	16.78	-29.7	-31.3	13.5	9.10e-06	0	44	102	1048576	19	4316
2026-01-06 02:31:32.10	280.62	16.71	-29.8	-31.6	13.2	4.42e-05	0	44	102	1048576	19	4419
2026-01-06 02:31:33.10	280.44	16.64	-29.6	-31.1	13.6	1.58e-03	0	44	102	1048576	19	4249
2026-01-06 02:31:34.11	280.25	16.58	-29.5	-30.6	13.9	2.35e-03	0	44	102	1048576	19	4109
2026-01-06 02:31:35.11	280.07	16.51	-29.5	-30.6	13.9	7.00e-07	0	44	102	1048576	19	4115
2026-01-06 02:31:36.11	279.89	16.44	-29.4	-31.0	13.9	2.38e-03	0	44	102	1048576	18	4327
2026-01-06 02:31:37.12	279.71	16.38	-29.6	-30.9	13.7	3.80e-03	0	44	102	1048576	19	4195
2026-01-06 02:31:38.13	279.53	16.31	-29.9	-31.9	13.2	1.60e-05	0	44	102	1048576	19	4505
2026-01-06 02:31:39.13	279.35	16.24	-29.9	-31.7	13.2	2.81e-03	0	44	102	1048576	19	4442
2026-01-06 02:31:40.14	279.17	16.17	-30.0	-32.0	13.0	3.12e-03	0	44	102	1048576	19	4563
2026-01-06 02:31:41.15	278.99	16.11	-30.2	-32.1	12.5	9.07e-05	0	44	102	1048576	20	4519
2026-01-06 02:31:42.15	278.82	16.04	-30.2	-32.2	12.4	2.69e-03	0	44	102	1048576	20	4534
2026-01-06 02:31:43.16	278.64	15.97	-30.1	-31.9	12.6	2.28e-03	0	44	102	1048576	20	4447
2026-01-06 02:31:44.17	278.46	15.90	-29.9	-31.5	12.9	2.15e-04	0	44	102	1048576	20	4294
2026-01-06 02:31:45.18	278.29	15.83	-29.9	-31.8	13.1	4.50e-05	0	44	102	1048576	19	4503
2026-01-06 02:31:46.18	278.12	15.77	-29.7	-31.2	13.4	2.03e-03	0	44	102	1048576	19	4282
2026-01-06 02:31:47.18	277.94	15.70	-29.6	-31.0	13.6	2.45e-04	0	44	102	1048576	19	4254
2026-01-06 02:31:48.19	277.77	15.63	-29.7	-31.3	13.4	1.29e-05	0	44	102	1048576	19	4341
2026-01-06 02:31:49.20	277.60	15.56	-29.7	-31.4	13.4	2.05e-05	0	44	102	1048576	19	4355
2026-01-06 02:31:50.21	277.43	15.49	-29.8	-31.5	13.2	4.36e-04	0	44	102	1048576	19	4403
2026-01-06 02:31:51.22	277.26	15.43	-29.7	-31.4	13.3	2.28e-05	0	44	102	1048576	19	4366
2026-01-06 02:31:52.23	277.09	15.36	-29.8	-31.7	13.1	3.35e-05	0	44	102	1048576	19	4463
2026-01-06 02:31:53.23	276.92	15.29	-29.0	-31.0	12.9	2.33e-04	0	44	102	1048576	19	4541
2026-01-06 02:31:54.24	276.75	15.22	-29.9	-31.4	12.7	5.03e-05	0	44	102	1048576	20	4290
2026-01-06 02:31:55.25	276.59	15.15	-29.9	-31.3	12.9	5.95e-05	0	44	102	1048576	20	4263
2026-01-06 02:31:56.25	276.42	15.08	-29.9	-31.8	12.4	3.28e-05	0	44	102	1048576	19	4486
2026-01-06 02:31:57.27	276.25	15.01	-29.8	-31.7	12.6	2.67e-03	0	44	102	1048576	19	4470
2026-01-06 02:31:58.28	276.09	14.94	-29.7	-31.3	13.4	1.90e-05	0	44	102	1048576	19	4327
2026-01-06 02:31:59.28	275.93	14.88	-29.7	-31.3	13.4	9.10e-06	0	44	102	1048576	19	4325
2026-01-06 02:32:00.29	275.76	14.81	-29.6	-31.0	13.5	1.29e-05	0	44	102	1048576	19	4255
2026-01-06 02:32:01.30	275.60	14.74	-29.3	-30.9	13.9	4.50e-06	0	44	102	1048576	18	4298
2026-01-06 02:32:02.30	275.44	14.67	-29.2	-30.5	14.2	1.50e-06	0	44	102	1048576	18	4184
2026-01-06 02:32:03.31	275.28	14.60	-29.3	-30.7	14.0	7.00e-07	0	44	102	1048576	18	4249
2026-01-06 02:32:04.32	275.12	14.53	-29.4	-31.1	13.8	4.50e-06	0	44	102	1048576	18	4380
2026-01-06 02:32:05.33	274.96	14.46	-29.4	-30.9	13.9	4.50e-06	0	44	102	1048576	18	4311
2026-01-06 02:32:06.34	274.80	14.39	-29.3	-30.7	14.0	2.20e-06	0	44	102	1048576	18	4246
2026-01-06 02:32:07.35	274.64	14.32	-29.1	-30.2	14.3	1.60e-05	0	44	102	1048576	18	4083
2026-01-06 02:32:08.35	274.49	14.26	-29.1	-30.2	14.3	2.24e-03	0	44	102	1048576	18	4083
2026-01-06 02:32:09.35	274.33	14.19	-29.0	-29.9	14.5	2.20e-06	0	44	102	1048576	18	4025
2026-01-06 02:32:10.35	274.18	14.12	-29.1	-30.2	14.3	0.00e+00	0	44	102	1048576	18	4088
2026-01-06 02:32:11.36	274.02	14.05	-28.8	-30.0	14.8	2.12e-03	0	44	102	1048576	17	4123
2026-01-06 02:32:12.37	273.87	13.98	-28.8	-30.0	14.8	2.14e-03	0	44	102	1048576	17	4133
2026-01-06 02:32:13.37	273.71	13.91	-28.9	-30.2	14.2	0.00e+00	0	44	102	1048576	17	4201
2026-01-06 02:32:14.38	273.56	13.84	-29.1	-30.2	13.5	2.12e-03	0	44	102	1048576	18	4102
2026-01-06 02:32:15.39	273.41	13.77	-29.2	-30.7	13.4	2.12e-03	0	44	102	1048576	18	4234
2026-01-06 02:32:16.38	273.26	13.70	-29.4	-31.0	13.8	1.50e-06	0	44	102	1048576	18	4335
2026-01-06 02:32:17.39	273.11	13.63	-29.6	-31.0	13.4	4.40e-03	0	44	102	1048576	19	4246
2026-01-06 02:32:18.40	272.96	13.57	-29.8	-31.7	13.0	2.25e-03	0	44	102	1048576	19	4482
2026-01-06 02:32:19.40	272.81	13.50	-30.0	-31.7	12.5	6.71e-05	0	44	102	1048576	20	4403
2026-01-06 02:32:20.40	272.66	13.43	-29.9	-31.8	12.9	1.03e-04	0	44	102	1048576	19	4513
2026-01-06 02:32:21.41	272.52	13.36	-29.8	-31.8	12.9	2.18e-03	0	44	102	1048576	19	4496
2026-01-06 02:32:22.42	272.37	13.29	-29.9	-32.0	12.8	6.40e-05	0	44	102	1048576	19	4562
2026-01-06 02:32:23.43	272.22	13.22	-29.8	-31.7	13.0	5.49e-05	0	44	102	1048576	19	4475
2026-01-06 02:32:24.44	272.08	13.15	-29.7	-31.5	13.1	4.14e-03	0	44	102	1048576	19	4419
2026-01-06 02:32:25.44	271.93	13.08	-29.6	-31.2	13.3	2.82e-05	0	44	102	1048576	19	4300
2026-01-06 02:32:26.44	271.79	13.01	-29.3	-31.0	13.7	2.19e-03	0	44	102	1048576	18	4362
2026-01-06 02:32:27.45	271.64	12.94	-29.2	-30.5	14.1	4.20e-03	0	44	102	1048576	18	4191
2026-01-06 02:32:28.45	271.50	12.88	-29.1	-30.3	14.2	3.46e-04	0	44	102	1048576	18	4128
2026-01-06 02:32:29.46	271.36	12.81	-29.3	-30.8	13.9	2.02e-03	0	44	102	1048576	18	4266
2026-01-06 02:32:30.47	271.22	12.74	-29.5	-31.3	13.5	1.66e-03	0	44	102	1048576	18	4437
2026-01-06 02:32:31.47	271.08	12.67	-29.6	-31.1	13.2	2.12e-04	0	44	102	1048576	19	4280
2026-01-06 02:32:32.48	270.94	12.60	-29.5	-31.3	13.5	1.49e-03	0	44	102	1048576	18	4438
2026-01-06 02:32:33.49	270.80	12.53	-29.5	-31.3	13.5	1.38e-03	0	44	102	1048576	18	4447
2026-01-06 02:32:34.48	270.66	12.46	-29.6	-31.2	13.3	2.13e-05	0	43	102	1048576	19	4308
2026-01-06 02:32:35.49	270.52	12.39	-29.7	-31.6	13.0	3.93e-03	0	44	102	1048576	19	4438
2026-01-06 02:32:36.50	270.39	12.33	-29.7	-31.4	13.1	1.66e-03	0	44	102	1048576	19	4393
2026-01-06 02:32:37.50	270.25	12.26	-29.6	-31.1	13.3	1.98e-05	0	44	102	1048576	19	4287
2026-01-06 02:32:38.51	270.11	12.19	-29.7	-31.5	13.0	4.30e-03	0	44	102	1048576	19	4423
2026-01-06 02:32:39.52	269.98	12.12	-29.9	-31.9	12.9	4.55e-03	0	44	102	1048576	19	4539
2026-01-06 02:32:40.53	269.84	12.05	-29.8	-31.8	12.8	2.53e-04	0	44	102	1048576	19	4524
2026-01-06 02:32:41.54	269.71	11.98	-29.8	-31.6	12.9	2.56e-03	0	44	102	1048576	19	4456
2026-01-06 02:32:42.54	269.57	11.91	-29.9	-31.9	12.8	5.17e-03	0	43	102	1048576	19	4550
2026-01-06 02:32:43.55	269.44	11.84	-29.9	-31.5	12.6	1.13e-04	0	44	102	1048576	20	4333
2026-01-06 02:32:44.55	269.31	11.78	-29.9	-31.7	12.5	3.39e-03	0	44	102	1048576	20	4395
2026-01-06 02:32:45.56	269.18	11.71	-29.9	-31.7	12.5	5.63e-03	0	44	102	1048576	20	4390
2026-01-06 02:32:46.57	269.05	11.64	-29.6	-31.2	13.2	5.07e-04	0	44	102	1048576	19	4313
2026-01-06 02:32:47.57	268.92	11.57	-29.4	-31.1	13.6	2.91e-03	0	44	102	1048576	18	4375
2026-01-06 02:32:48.58	268.79	11.50	-29.0	-30.1	14.2	2.42e-03	0	44	102	1048576	18	4087
2026-01-06 02:32:49.58	268.66	11.43	-28.9	-30.4	14.3	1.93e-04	0	44	102	1048576	17	4257
2026-01-06 02:32:50.59	268.53	11.37	-28.7	-29.8	14.6	3.39e-04	0	44	102	1048576	17	4081
2026-01-06 02:32:51.59	268.40	11.30	-28.8	-30.0	14.6	5.74e-04	0	44	102	1048576	17	4144
2026-01-06 02:32:52.60	268.27	11.23	-28.8	-30.2	14.4	7.00e-07	0	44	102	1048576	17	4214
2026-01-06 02:32:53.61	268.15	11.16	-28.9	-30.5	14.2	4.73e-03	0	44	102	1048576	17	4287
2026-01-06 02:32:54.62	268.02	11.09	-29.1	-30.4	14.0	2.73e-03	0	44	102	1048576	18	4181
2026-01-06 02:32:55.63	267.89	11.03	-29.3	-31.0	13.6	1.47e-03	0	44	102	1048576	18	4353
2026-01-06 02:32:56.64	267.77	10.96	-29.6	-31.1	13.2	5.66e-03	0	44	102	1048576	19	4310
2026-01-06 02:32:57.64	267.64	10.89	-29.8	-31.7	12.8	5.72e-05	0	44	102	1048576	19	4488
2026-01-06 02:32:58.65	267.52	10.82	-29.9	-32.1	12.5	2.33e-03	0	44	102	1048576	19	4622
2026-01-06 02:32:59.65	267.40	10.75	-30.0	-32.2	12.4	3.88e-03	0	44	102	1048576	19	4682
2026-01-06 02:33:00.66	267.28	10.69	-29.8	-31.9	12.6	1.06e-04	0	44	102	1048576	19	4562
2026-01-06 02:33:01.67	267.15	10.62	-29.8	-31.8	12.7	2.32e-03	0	44	102	1048576	19	4539
2026-01-06 02:33:02.68	267.03	10.55	-29.7	-31.6	12.8	5.79e-03	0	44	102	1048576	19	4471
2026-01-06 02:33:03.69	266.91	10.48	-29.9	-32.1	12.4	6.22e-03	0	44	102	1048576	19	4635
2026-01-06 02:33:04.69	266.79	10.42	-29.7	-31.6	12.8	7.78e-05	0	44	102	1048576	19	4462
2026-01-06 02:33:05.70	266.67	10.35	-29.6	-31.4	12.9	6.63e-03	0	44	102	1048576	19	4410
2026-01-06 02:33:06.71	266.55	10.28	-29.8	-31.9	12.6	5.55e-03	0	44	102	1048576	19	4564
2026-01-06 02:33:07.72	266.43	10.21	-29.8	-31.8	12.6	9.38e-05	0	44	102	1048576	19	4537
2026-01-06 02:33:08.73	266.31	10.15	-29.7	-31.6	12.8	4.65e-05	0	44	102	1048576	19	4458
2026-01-06 02:33:09.73	266.20	10.08	-29.6	-31.4	12.9	4.16e-03	0	44	102	1048576	19	4415
2026-01-06 02:33:10.73	266.08	10.01	-29.8	-31.8	12.6	9.61e-05	0	43	102	1048576	19	4558
2026-01-06 02:33:11.74	265.96	9.95	-29.8	-31.9	12.5	5.55e-04	0	44	102	1048576	19	4591
2026-01-06 02:33:12.75	265.85	9.88	-29.9	-31.8	12.1	2.80e-03	0	43	102	1048576	20	4479
2026-01-06 02:33:13.75	265.73	9.81	-30.2	-32.6	11.7	4.93e-04	0	44	102	1048576	20	4733
2026-01-06 02:33:14.76	265.62	9.74	-30.0	-32.1	12.0	4.59e-04	0	44	102	1048576	20	4562
2026-01-06 02:33:15.76	265.50	9.68	-29.9	-31.9	12.1	3.35e-04	0	44	102	1048576	20	4485
2026-01-06 02:33:16.77	265.39	9.61	-29.8	-32.0	12.4	3.78e-04	0	44	102	1048576	19	4597
2026-01-06 02:33:17.78	265.27	9.54	-30.0	-32.4	12.2	2.03e-04	0	43	102	1048576	19	4749
2026-01-06 02:33:18.78	265.16	9.48	-30.0	-32.0	12.0	2.37e-04	0	44	102	1048576	20	4517
2026-01-06 02:33:19.79	265.05	9.41	-30.0	-32.2	11.9	3.11e-04	0	44	102	1048576	20	4600
2026-01-06 02:33:20.80	264.94	9.35	-30.1	-32.4	11.7	2.88e-03	0	44	102	1048576	20	4696
2026-01-06 02:33:21.80	264.83	9.28	-30.2	-32.6	11.5	9.47e-04	0	44	102	1048576	20	4764
2026-01-06 02:33:22.80	264.72	9.21	-30.2	-32.8	11.4	8.02e-04	0	44	102	1048576	20	4812
2026-01-06 02:33:23.81	264.61	9.15	-30.2	-32.6	11.5	3.29e-03	0	44	102	1048576	20	4767
2026-01-06 02:33:24.81	264.50	9.08	-30.3	-33.0	11.2	1.07e-03	0	44	102	1048576	20	4908
2026-01-06 02:33:25.82	264.39	9.02	-30.3	-33.0	11.2	1.70e-03	0	43	102	1048576	20	4893
2026-01-06 02:33:26.83	264.28	8.95	-30.4	-33.2	11.0	1.94e-03	0	44	102	1048576	20	4997
2026-01-06 02:33:27.84	264.17	8.88	-30.3	-33.0	11.2	1.50e-03	0	44	102	1048576	20	4902
2026-01-06 02:33:28.85	264.06	8.82	-30.1	-32.5	11.5	8.39e-04	0	44	102	1048576	20	4720
2026-01-06 02:33:29.85	263.96	8.75	-30.1	-32.4	11.6	7.90e-04	0	44	102	1048576	20	4708
2026-01-06 02:33:30.86	263.85	8.69	-30.1	-32.3	11.7	6.04e-04	0	44	102	1048576	20	4645
2026-01-06 02:33:31.86	263.74	8.62	-30.3	-33.2	11.0	1.77e-03	0	44	102	1048576	20	4999
2026-01-06 02:33:32.87	263.64	8.56	-30.5	-33.1	10.7	2.39e-03	0	44	102	1048576	21	4883
2026-01-06 02:33:33.88	263.53	8.49	-30.5	-33.8	10.2	3.68e-03	0	44	102	1048576	20	5258
2026-01-06 02:33:34.88	263.43	8.42	-30.7	-34.1	9.3	8.05e-03	0	44	102	1048576	21	5281
2026-01-06 02:33:35.89	263.32	8.36	-30.7	-33.8	9.4	8.75e-03	0	44	102	1048576	21	5160
2026-01-06 02:33:36.89	263.22	8.29	-30.7	-33.9	9.9	8.22e-03	0	44	102	1048576	21	5196
2026-01-06 02:33:37.90	263.12	8.23	-30.9	-34.6	9.5	1.17e-02	0	44	102	1048576	21	5498
2026-01-06 02:33:38.90	263.02	8.16	-30.9	-34.8	9.4	1.45e-02	0	44	102	1048576	21	5606
2026-01-06 02:33:39.91	262.91	8.10	-30.9	-34.8	9.4	1.35e-02	0	44	102	1048576	21	5609
2026-01-06 02:33:40.91	262.81	8.03	-31.1	-34.7	9.1	2.09e-02	0	44	102	1048576	22	5496
2026-01-06 02:33:41.92	262.71	7.97	-31.1	-34.8	8.9	2.64e-02	0	44	102	1048576	22	5534
2026-01-06 02:33:42.92	262.61	7.91	-31.1	-34.9	8.9	2.47e-02	0	44	102	1048576	22	5588
2026-01-06 02:33:43.93	262.51	7.84	-31.0	-34.7	9.1	2.84e-02	0	44	102	1048576	22	5462
2026-01-06 02:33:44.93	262.41	7.78	-30.7	-34.1	9.9	1.39e-02	0	44	102	1048576	21	5286
2026-01-06 02:33:45.94	262.31	7.71	-30.5	-33.2	10.5	5.46e-03	0	44	102	1048576	21	4940
2026-01-06 02:33:46.94	262.21	7.65	-30.3	-33.1	11.0	3.67e-03	0	44	102	1048576	20	4978
2026-01-06 02:33:47.95	262.11	7.58	-30.3	-33.1	11.0	7.19e-03	0	44	102	1048576	20	4960
2026-01-06 02:33:48.96	262.01	7.52	-30.3	-33.0	11.0	1.86e-03	0	44	102	1048576	20	4931
2026-01-06 02:33:49.97	261.91	7.45	-30.2	-32.9	11.1	1.35e-03	0	44	102	1048576	20	4900
2026-01-06 02:33:50.97	261.82	7.39	-30.3	-33.0	11.0	4.89e-03	0	44	102	1048576	20	4929
2026-01-06 02:33:51.98	261.72	7.33	-30.1	-32.6	11.2	1.58e-03	0	44	102	1048576	20	4797
2026-01-06 02:33:52.99	261.62	7.26	-30.3	-33.2	10.9	1.63e-03	0	44	102	1048576	20	5019
2026-01-06 02:33:54.00	261.53	7.20	-30.3	-33.0	11.0	3.53e-03	0	44	102	1048576	20	4936
2026-01-06 02:33:55.00	261.43	7.14	-30.4	-33.4	10.7	1.81e-03	0	44	102	1048576	20	5093
2026-01-06 02:33:56.01	261.34	7.07	-30.2	-32.9	11.0	2.53e-03	0	44	102	1048576	20	4918
2026-01-06 02:33:57.02	261.24	7.01	-32.8	-45.2	3.8	1.49e+00	0	44	104	1048576	25	14891
2026-01-06 02:33:58.03	261.15	6.94	-33.2	-45.6	3.8	1.49e+00	0	44	104	1048576	26	14987
2026-01-06 02:33:59.04	261.05	6.88	-33.4	-46.1	3.8	1.49e+00	0	44	104	1048576	26	15441

#Closed at: 2026-01-06 02:33:59
#Recorded file [1 MB]: D:/data/31010_260106_052415.dat