passes_logs/2026/01/06/R2M6_AANII_01/R2M6_AANII_01__20260106_031112_AQUA_rec.log

#Pass ID: 20260106_031112_AQUA
#Satellite: AQUA
#Configuration: AQUA
#almurnet v.1.7.20240730
#Start time: 2026-01-06 03:11:12

#Version: 2.2.20231116
#Station: R2M6_AANII_01
#Location: 30.233357 lon 59.946436 lat
#TLE: 1 27424U 02022A   26004.96787593  .00001598  00000+0  32997-3 0  9996
#TLE: 2 27424  98.4069 331.2279 0002002  90.2377   0.6092 14.61798176259425

#Time	Az	El	Level	Level2	SNR	BER	BlckErr	Temp	State	Recorded	gain1	gain2
2026-01-06 03:11:12.26	9.53	6.98	-31.9	-47.9	3.8	7.46e-01	0	41	0	0	24	22631
2026-01-06 03:11:13.25	9.46	7.05	-31.9	-48.1	3.8	7.44e-01	0	41	104	0	24	23079
2026-01-06 03:11:14.26	9.39	7.13	-31.9	-48.0	3.8	7.42e-01	0	41	104	0	24	22878
2026-01-06 03:11:15.27	9.31	7.20	-31.8	-47.6	3.8	7.44e-01	0	41	104	0	24	22036
2026-01-06 03:11:16.28	9.23	7.28	-31.8	-47.3	3.8	7.48e-01	0	41	104	0	24	21547
2026-01-06 03:11:17.28	9.16	7.35	-31.8	-47.5	3.8	7.46e-01	0	41	104	0	24	21755
2026-01-06 03:11:18.29	9.08	7.43	-31.8	-47.3	3.8	7.43e-01	0	41	104	0	24	21364
2026-01-06 03:11:19.30	9.00	7.50	-31.7	-46.9	3.8	7.45e-01	0	41	104	0	24	20658
2026-01-06 03:11:20.31	8.93	7.58	-31.4	-46.4	3.8	7.47e-01	0	41	104	0	23	20038
2026-01-06 03:11:21.31	8.85	7.66	-31.2	-45.6	3.8	7.44e-01	0	41	104	0	23	18799
2026-01-06 03:11:22.32	8.77	7.73	-31.0	-45.2	3.8	7.45e-01	0	41	104	0	22	18454
2026-01-06 03:11:23.32	8.69	7.81	-30.8	-44.6	3.8	7.45e-01	0	41	104	0	22	17550
2026-01-06 03:11:24.33	8.61	7.89	-30.6	-43.9	3.8	7.45e-01	0	41	104	0	22	16696
2026-01-06 03:11:25.35	8.53	7.97	-30.5	-44.2	3.8	7.46e-01	0	42	104	0	21	17393
2026-01-06 03:11:26.35	8.45	8.04	-30.6	-43.9	3.8	7.42e-01	0	42	104	0	22	16714
2026-01-06 03:11:27.35	8.37	8.12	-30.5	-44.1	3.8	7.43e-01	0	42	104	0	21	17213
2026-01-06 03:11:28.35	8.29	8.20	-30.4	-43.8	3.8	7.44e-01	0	42	104	0	21	16863
2026-01-06 03:11:29.36	8.21	8.28	-30.4	-43.8	3.8	7.44e-01	0	42	104	0	21	16902
2026-01-06 03:11:30.36	8.13	8.35	-30.3	-43.5	3.8	7.46e-01	0	42	104	0	21	16475
2026-01-06 03:11:31.37	8.04	8.43	-30.4	-43.8	3.8	7.41e-01	0	42	104	0	21	16894
2026-01-06 03:11:32.37	7.96	8.51	-30.5	-44.3	3.8	7.44e-01	0	42	104	0	21	17487
2026-01-06 03:11:33.38	7.88	8.59	-30.8	-44.4	3.8	7.45e-01	0	42	104	0	22	17285
2026-01-06 03:11:34.39	7.79	8.67	-30.9	-45.0	3.8	7.45e-01	0	42	104	0	22	18091
2026-01-06 03:11:35.40	7.71	8.75	-31.2	-45.2	3.8	7.46e-01	0	42	104	0	23	18187
2026-01-06 03:11:36.40	7.62	8.83	-31.5	-46.3	3.8	7.46e-01	0	42	104	0	23	19732
2026-01-06 03:11:37.41	7.53	8.91	-31.8	-46.8	3.8	7.45e-01	0	42	104	0	24	20214
2026-01-06 03:11:38.42	7.45	8.99	-32.0	-47.5	3.8	7.44e-01	0	42	104	0	24	21410
2026-01-06 03:11:39.42	7.36	9.07	-32.1	-47.9	3.8	7.45e-01	0	42	104	0	24	22221
2026-01-06 03:11:40.43	7.27	9.15	-32.2	-47.8	3.8	7.43e-01	0	42	104	0	25	21741
2026-01-06 03:11:41.44	7.18	9.23	-32.3	-48.4	3.8	7.43e-01	0	42	104	0	25	22962
2026-01-06 03:11:42.45	7.10	9.31	-32.4	-48.9	3.8	7.48e-01	0	42	104	0	25	24013
2026-01-06 03:11:43.45	7.01	9.39	-32.5	-49.5	3.8	7.41e-01	0	42	104	0	25	25350
2026-01-06 03:11:44.46	6.92	9.48	-32.7	-49.6	3.8	7.51e-01	0	42	104	0	26	25381
2026-01-06 03:11:45.46	6.83	9.56	-32.8	-50.2	3.8	7.47e-01	0	42	104	0	26	26600
2026-01-06 03:11:46.47	6.74	9.64	-32.9	-50.6	3.8	7.45e-01	0	42	104	0	26	27620
2026-01-06 03:11:47.47	6.64	9.72	-32.9	-50.9	3.8	7.49e-01	0	42	104	0	26	28420
2026-01-06 03:11:48.48	6.55	9.80	-33.0	-51.2	3.8	7.44e-01	0	42	104	0	26	29460
2026-01-06 03:11:49.49	6.46	9.89	-33.0	-51.5	3.8	7.46e-01	0	42	104	0	26	30195
2026-01-06 03:11:50.49	6.37	9.97	-33.0	-51.6	3.8	7.47e-01	0	42	104	0	26	30369
2026-01-06 03:11:51.50	6.27	10.05	-33.0	-51.2	3.8	7.42e-01	0	42	104	0	26	29268
2026-01-06 03:11:52.51	6.18	10.14	-32.9	-50.8	3.8	7.45e-01	0	42	104	0	26	28118
2026-01-06 03:11:53.51	6.08	10.22	-32.8	-50.4	3.8	7.45e-01	0	42	104	0	26	27152
2026-01-06 03:11:54.52	5.99	10.31	-32.8	-50.1	3.8	7.47e-01	0	42	104	0	26	26448
2026-01-06 03:11:55.53	5.89	10.39	-32.7	-49.8	3.8	7.43e-01	0	42	104	0	26	25652
2026-01-06 03:11:56.54	5.79	10.47	-32.7	-49.5	3.8	7.42e-01	0	42	104	0	26	25057
2026-01-06 03:11:57.54	5.70	10.56	-32.6	-49.2	3.8	7.45e-01	0	42	104	0	26	24314
2026-01-06 03:11:58.55	5.60	10.64	-32.5	-49.4	3.8	7.49e-01	0	42	104	0	25	24989
2026-01-06 03:11:59.56	5.50	10.73	-31.2	-47.6	3.8	7.42e-01	0	42	104	0	24	23764
2026-01-06 03:12:00.56	5.40	10.81	-32.3	-48.2	3.8	7.47e-01	0	42	104	0	25	22472
2026-01-06 03:12:01.57	5.30	10.90	-32.0	-47.7	3.8	7.45e-01	0	42	104	0	24	21948
2026-01-06 03:12:02.57	5.20	10.99	-31.8	-46.9	3.8	7.45e-01	0	42	104	0	24	20389
2026-01-06 03:12:03.57	5.10	11.07	-31.6	-46.2	3.8	7.46e-01	0	42	104	0	24	19293
2026-01-06 03:12:04.58	4.99	11.16	-31.6	-46.2	3.8	7.43e-01	0	42	104	0	24	19314
2026-01-06 03:12:05.57	4.89	11.24	-31.6	-46.4	3.8	7.43e-01	0	42	104	0	23	19819
2026-01-06 03:12:06.58	4.79	11.33	-31.6	-46.4	3.8	7.48e-01	0	43	104	0	23	19770
2026-01-06 03:12:07.58	4.69	11.42	-31.7	-46.4	3.8	7.42e-01	0	43	104	0	24	19450
2026-01-06 03:12:08.59	4.58	11.50	-31.7	-46.3	3.8	7.46e-01	0	42	104	0	24	19342
2026-01-06 03:12:09.59	4.48	11.59	-31.5	-46.2	3.8	7.47e-01	0	42	104	0	23	19569
2026-01-06 03:12:10.60	4.37	11.68	-31.2	-45.0	3.8	7.46e-01	0	42	104	0	23	17627
2026-01-06 03:12:11.61	4.26	11.77	-30.9	-44.7	3.8	7.44e-01	0	42	104	0	22	17623
2026-01-06 03:12:12.62	4.15	11.86	-30.6	-43.6	3.8	7.45e-01	0	43	104	0	22	16223
2026-01-06 03:12:13.62	4.05	11.95	-30.4	-43.7	3.8	7.46e-01	0	43	104	0	21	16639
2026-01-06 03:12:14.63	3.94	12.03	-30.2	-43.0	3.8	7.44e-01	0	43	104	0	21	15835
2026-01-06 03:12:15.63	3.83	12.12	-30.0	-43.2	3.8	7.44e-01	0	42	104	0	20	16403
2026-01-06 03:12:16.63	3.72	12.21	-29.9	-42.9	3.8	7.45e-01	0	42	104	0	20	16064
2026-01-06 03:12:17.64	3.60	12.30	-29.9	-42.9	3.8	7.39e-01	0	42	104	0	20	16012
2026-01-06 03:12:18.65	3.49	12.39	-29.9	-42.8	3.8	7.43e-01	0	43	104	0	20	15918
2026-01-06 03:12:19.66	3.38	12.48	-30.0	-43.1	3.8	7.41e-01	0	43	104	0	20	16326
2026-01-06 03:12:20.67	3.26	12.57	-30.2	-43.1	3.8	7.42e-01	0	43	104	0	21	15945
2026-01-06 03:12:21.67	3.15	12.66	-30.3	-43.5	3.8	7.46e-01	0	43	104	0	21	16378
2026-01-06 03:12:22.68	3.04	12.76	-30.5	-44.0	3.8	7.45e-01	0	43	104	0	21	17150
2026-01-06 03:12:23.69	2.92	12.85	-30.7	-44.2	3.8	7.45e-01	0	43	104	0	22	16901
2026-01-06 03:12:24.70	2.80	12.94	-31.1	-45.2	3.8	7.45e-01	0	43	104	0	22	18194
2026-01-06 03:12:25.70	2.68	13.03	-31.4	-45.5	3.8	7.46e-01	0	43	104	0	23	18334
2026-01-06 03:12:26.71	2.57	13.12	-31.7	-46.1	3.8	7.46e-01	0	43	104	0	24	18916
2026-01-06 03:12:27.72	2.45	13.22	-32.0	-47.0	3.8	7.45e-01	0	43	104	0	24	20379
2026-01-06 03:12:28.72	2.33	13.31	-32.1	-47.2	3.8	7.46e-01	0	43	104	0	25	20300
2026-01-06 03:12:29.73	2.20	13.40	-32.3	-47.8	3.8	7.44e-01	0	43	104	0	25	21501
2026-01-06 03:12:30.73	2.08	13.49	-32.4	-48.4	3.8	7.47e-01	0	43	104	0	25	22588
2026-01-06 03:12:31.74	1.96	13.59	-32.6	-49.2	3.8	7.41e-01	0	43	104	0	25	24248
2026-01-06 03:12:32.74	1.84	13.68	-32.5	-48.3	3.8	7.48e-01	0	43	104	0	26	22129
2026-01-06 03:12:33.74	1.71	13.77	-32.3	-47.9	3.8	7.44e-01	0	43	104	0	25	21792
2026-01-06 03:12:34.75	1.59	13.87	-32.4	-48.3	3.8	7.46e-01	0	43	104	0	25	22477
2026-01-06 03:12:35.75	1.46	13.96	-32.5	-49.1	3.8	7.47e-01	0	43	104	0	25	24234
2026-01-06 03:12:36.75	1.34	14.06	-32.7	-49.3	3.8	7.48e-01	0	43	104	0	26	24394
2026-01-06 03:12:37.76	1.21	14.15	-32.8	-49.9	3.8	7.46e-01	0	43	104	0	26	25694
2026-01-06 03:12:38.76	1.08	14.25	-32.9	-50.4	3.8	7.45e-01	0	43	104	0	26	26848
2026-01-06 03:12:39.77	0.95	14.34	-33.0	-50.8	3.8	7.47e-01	0	43	104	0	26	27988
2026-01-06 03:12:40.78	0.82	14.44	-33.0	-50.7	3.8	7.45e-01	0	43	104	0	26	27487
2026-01-06 03:12:41.78	0.69	14.54	-33.0	-50.3	3.8	7.44e-01	0	43	104	0	26	26503
2026-01-06 03:12:42.79	0.55	14.63	-32.9	-49.9	3.8	7.45e-01	0	43	104	0	26	25552
2026-01-06 03:12:43.80	0.42	14.73	-32.8	-49.6	3.8	7.47e-01	0	43	104	0	26	24749
2026-01-06 03:12:44.81	0.29	14.83	-32.8	-49.2	3.8	7.46e-01	0	43	104	0	26	23926
2026-01-06 03:12:45.81	0.15	14.92	-32.8	-49.1	3.8	7.44e-01	0	43	104	0	26	23570
2026-01-06 03:12:46.82	0.01	15.02	-32.7	-49.0	3.8	7.49e-01	0	43	104	0	26	23338
2026-01-06 03:12:47.83	359.88	15.12	-32.7	-48.8	3.8	7.45e-01	0	43	104	0	26	22912
2026-01-06 03:12:48.84	359.74	15.22	-32.6	-48.3	3.8	7.43e-01	0	43	104	0	26	21998
2026-01-06 03:12:49.84	359.60	15.32	-32.4	-48.1	3.8	7.43e-01	0	43	104	0	25	21985
2026-01-06 03:12:50.85	359.46	15.42	-32.2	-47.2	3.8	7.45e-01	0	43	104	0	25	20326
2026-01-06 03:12:51.86	359.32	15.52	-31.9	-46.7	3.8	7.42e-01	0	43	104	0	24	19656
2026-01-06 03:12:52.86	359.17	15.61	-31.6	-45.6	3.8	7.42e-01	0	43	104	0	24	17991
2026-01-06 03:12:53.87	359.03	15.71	-31.5	-45.9	3.8	7.41e-01	0	43	104	0	23	18832
2026-01-06 03:12:54.88	358.89	15.81	-30.0	-44.8	3.9	7.49e-01	0	43	104	0	22	19781
2026-01-06 03:12:55.88	358.74	15.91	-31.7	-46.1	3.8	7.45e-01	0	43	104	0	24	18816
2026-01-06 03:12:56.89	358.59	16.01	-31.6	-45.8	3.8	7.46e-01	0	43	104	0	24	18337
2026-01-06 03:12:57.90	358.45	16.12	-31.6	-45.6	3.8	7.42e-01	0	43	104	0	24	18109
2026-01-06 03:12:58.91	358.30	16.22	-31.5	-45.9	3.8	7.46e-01	0	43	104	0	23	18855
2026-01-06 03:12:59.91	358.15	16.32	-31.0	-44.6	3.7	7.40e-01	0	43	104	0	23	17259
2026-01-06 03:13:00.91	358.00	16.42	-30.8	-44.1	3.8	7.46e-01	0	43	104	0	22	16636
2026-01-06 03:13:01.92	357.84	16.52	-30.4	-43.1	3.8	7.43e-01	0	43	104	0	22	15429
2026-01-06 03:13:02.93	357.69	16.62	-30.0	-42.6	3.8	7.46e-01	0	43	104	0	21	15202
2026-01-06 03:13:03.94	357.54	16.73	-29.8	-42.4	3.8	7.43e-01	0	43	104	0	20	15369
2026-01-06 03:13:04.95	357.38	16.83	-29.7	-42.1	3.8	7.46e-01	0	43	104	0	20	15072
2026-01-06 03:13:05.96	357.22	16.93	-29.6	-41.9	3.8	7.44e-01	0	43	104	0	20	14841
2026-01-06 03:13:06.96	357.06	17.03	-29.7	-42.0	3.8	7.42e-01	0	43	104	0	20	14947
2026-01-06 03:13:07.97	356.91	17.14	-29.7	-42.3	3.8	7.44e-01	0	43	104	0	20	15245
2026-01-06 03:13:08.97	356.75	17.24	-29.8	-42.5	3.8	7.45e-01	0	43	104	0	20	15439
2026-01-06 03:13:09.98	356.58	17.35	-30.0	-43.0	3.8	7.46e-01	0	43	104	0	20	16120
2026-01-06 03:13:10.99	356.42	17.45	-29.2	-42.1	3.8	7.48e-01	0	43	104	0	21	15881
2026-01-06 03:13:11.99	356.26	17.55	-30.7	-43.7	3.8	7.45e-01	0	43	104	0	22	16091
2026-01-06 03:13:13.00	356.09	17.66	-30.9	-44.4	3.8	7.42e-01	0	43	104	0	22	17122
2026-01-06 03:13:14.01	355.92	17.76	-31.1	-44.5	3.8	7.43e-01	0	43	104	0	23	16790
2026-01-06 03:13:15.02	355.76	17.87	-31.4	-45.4	3.8	7.42e-01	0	43	104	0	23	18128
2026-01-06 03:13:16.02	355.59	17.97	-31.8	-46.1	3.8	7.48e-01	0	43	104	0	24	18656
2026-01-06 03:13:17.03	355.42	18.08	-32.1	-47.1	3.8	7.48e-01	0	43	104	0	24	20287
2026-01-06 03:13:18.04	355.25	18.19	-32.4	-47.7	3.8	7.45e-01	0	43	104	0	25	20948
2026-01-06 03:13:19.05	355.07	18.29	-32.5	-48.2	3.8	7.40e-01	0	43	104	0	26	21776
2026-01-06 03:13:20.05	354.90	18.40	-32.7	-49.0	3.8	7.45e-01	0	43	104	0	26	23289
2026-01-06 03:13:21.05	354.73	18.50	-32.7	-48.4	3.8	7.46e-01	0	43	104	0	26	21988
2026-01-06 03:13:22.06	354.55	18.61	-32.5	-48.1	3.8	7.42e-01	0	43	104	0	25	21721
2026-01-06 03:13:23.07	354.37	18.72	-32.2	-47.4	3.8	7.47e-01	0	43	104	0	25	20570
2026-01-06 03:13:24.08	354.19	18.83	-32.0	-46.8	3.8	7.47e-01	0	43	104	0	24	19751
2026-01-06 03:13:25.08	354.01	18.93	-32.2	-39.2	5.1	7.10e-01	0	43	104	0	25	8040
2026-01-06 03:13:26.08	353.83	19.04	-32.5	-40.3	5.0	7.14e-01	0	43	104	0	25	8874
2026-01-06 03:13:27.09	353.64	19.15	-32.7	-40.2	11.3	6.13e-01	0	43	104	0	26	8543
2026-01-06 03:13:28.10	353.46	19.26	-32.4	-39.3	12.3	6.08e-01	0	43	102	524288	25	7980
2026-01-06 03:13:29.11	353.27	19.37	-32.2	-38.2	13.6	6.02e-01	0	43	102	524288	25	7178
2026-01-06 03:13:30.11	353.08	19.48	-31.8	-37.2	14.8	6.00e-01	0	43	102	524288	24	6744
2026-01-06 03:13:31.11	352.90	19.58	-31.4	-36.4	15.7	6.00e-01	0	43	102	524288	23	6403
2026-01-06 03:13:32.12	352.71	19.69	-31.1	-35.3	16.5	5.98e-01	0	43	102	524288	23	5835
2026-01-06 03:13:33.13	352.51	19.80	-30.8	-34.8	17.2	6.01e-01	0	43	102	524288	22	5710
2026-01-06 03:13:34.13	352.32	19.91	-30.6	-34.6	17.7	5.99e-01	0	43	102	524288	21	5759
2026-01-06 03:13:35.14	352.12	20.02	-30.9	-35.3	16.9	6.00e-01	0	43	102	524288	22	5937
2026-01-06 03:13:36.14	351.93	20.13	-31.2	-35.4	16.5	5.99e-01	0	43	102	524288	23	5889
2026-01-06 03:13:37.15	351.73	20.24	-30.8	-35.0	17.1	6.01e-01	0	43	102	524288	22	5785
2026-01-06 03:13:38.15	351.53	20.35	-30.6	-34.2	17.6	5.99e-01	0	43	102	524288	22	5463
2026-01-06 03:13:39.17	351.33	20.46	-30.4	-34.1	18.0	6.03e-01	0	43	102	524288	21	5541
2026-01-06 03:13:40.18	351.12	20.57	-30.2	-33.8	18.2	6.01e-01	0	43	102	524288	21	5427
2026-01-06 03:13:41.18	350.92	20.68	-30.3	-34.1	18.0	6.00e-01	0	43	102	524288	21	5528
2026-01-06 03:13:42.19	350.71	20.80	-30.3	-34.0	18.1	6.01e-01	0	43	102	524288	21	5499
2026-01-06 03:13:43.19	350.51	20.91	-30.6	-34.3	17.5	6.00e-01	0	43	102	524288	22	5500
2026-01-06 03:13:44.20	350.30	21.02	-30.2	-33.6	18.3	6.00e-01	0	43	102	524288	21	5337
2026-01-06 03:13:45.21	350.09	21.13	-29.8	-33.2	18.9	6.02e-01	0	43	102	524288	20	5295
2026-01-06 03:13:46.22	349.87	21.24	-29.7	-32.7	19.2	6.04e-01	0	43	102	524288	20	5093
2026-01-06 03:13:47.23	349.66	21.35	-29.5	-32.3	19.5	6.01e-01	0	43	102	524288	20	4952
2026-01-06 03:13:48.24	349.44	21.46	-29.6	-32.8	19.6	6.00e-01	0	43	102	524288	19	5248
2026-01-06 03:13:49.24	349.23	21.58	-29.5	-32.3	19.5	6.01e-01	0	43	102	524288	20	4951
2026-01-06 03:13:50.25	349.01	21.69	-29.6	-32.4	19.5	5.99e-01	0	43	102	524288	20	4986
2026-01-06 03:13:51.26	348.78	21.80	-29.7	-32.7	19.3	6.03e-01	0	43	102	524288	20	5090
2026-01-06 03:13:52.27	348.56	21.91	-29.7	-32.7	19.2	6.02e-01	0	43	102	524288	20	5110
2026-01-06 03:13:53.27	348.34	22.03	-29.6	-32.3	19.5	5.99e-01	0	43	102	524288	20	4961
2026-01-06 03:13:54.27	348.11	22.14	-29.5	-32.7	19.7	6.00e-01	0	43	102	524288	19	5190
2026-01-06 03:13:55.27	347.89	22.25	-29.5	-32.7	19.7	6.01e-01	0	43	102	524288	19	5181
2026-01-06 03:13:56.28	347.66	22.36	-29.5	-32.6	19.7	6.01e-01	0	43	102	524288	19	5154
2026-01-06 03:13:57.29	347.42	22.47	-29.6	-32.3	19.5	6.00e-01	0	43	102	524288	20	4957
2026-01-06 03:13:58.29	347.19	22.59	-29.6	-32.3	19.6	6.01e-01	0	43	102	524288	20	4952
2026-01-06 03:13:59.30	346.96	22.70	-29.5	-32.4	19.4	6.03e-01	0	43	102	524288	20	5012
2026-01-06 03:14:00.31	346.72	22.81	-29.6	-32.5	19.5	6.00e-01	0	43	102	524288	20	5010
2026-01-06 03:14:01.32	346.48	22.93	-29.6	-32.6	19.4	6.02e-01	0	43	102	524288	20	5068
2026-01-06 03:14:02.32	346.24	23.04	-29.7	-32.7	19.3	6.04e-01	0	43	102	524288	20	5096
2026-01-06 03:14:03.33	346.00	23.15	-29.7	-32.8	19.2	6.02e-01	0	44	102	524288	20	5134
2026-01-06 03:14:04.34	345.75	23.26	-29.7	-32.6	19.4	6.01e-01	0	43	102	524288	20	5038
2026-01-06 03:14:05.36	345.51	23.38	-29.6	-32.3	19.6	5.99e-01	0	43	102	524288	20	4953
2026-01-06 03:14:06.35	345.26	23.49	-29.5	-32.3	19.6	6.00e-01	0	43	102	524288	20	4961
2026-01-06 03:14:07.36	345.01	23.60	-29.5	-32.3	19.6	6.00e-01	0	43	102	524288	20	4944
2026-01-06 03:14:08.37	344.76	23.72	-29.5	-32.2	19.7	6.00e-01	0	43	102	524288	20	4900
2026-01-06 03:14:09.38	344.50	23.83	-29.5	-32.2	19.6	6.00e-01	0	43	102	524288	20	4921
2026-01-06 03:14:10.39	344.25	23.94	-29.6	-32.3	19.6	6.01e-01	0	43	102	524288	20	4936
2026-01-06 03:14:11.39	343.99	24.05	-29.6	-32.4	19.5	6.01e-01	0	43	102	524288	20	4986
2026-01-06 03:14:12.40	343.73	24.17	-29.5	-32.2	19.7	6.00e-01	0	43	102	524288	20	4905
2026-01-06 03:14:13.41	343.47	24.28	-29.6	-32.3	19.6	5.99e-01	0	43	102	524288	20	4948
2026-01-06 03:14:14.42	343.20	24.39	-29.6	-32.6	19.4	6.00e-01	0	44	102	524288	20	5054
2026-01-06 03:14:15.43	342.94	24.50	-29.8	-32.9	19.3	6.01e-01	0	43	102	524288	20	5141
2026-01-06 03:14:16.43	342.67	24.62	-29.8	-32.8	19.3	6.02e-01	0	43	102	524288	20	5118
2026-01-06 03:14:17.44	342.40	24.73	-29.8	-33.0	19.2	6.01e-01	0	43	102	524288	20	5176
2026-01-06 03:14:18.45	342.13	24.84	-29.7	-32.6	19.4	6.01e-01	0	43	102	524288	20	5060
2026-01-06 03:14:19.45	341.86	24.95	-29.5	-32.2	19.6	6.02e-01	0	44	102	524288	20	4921
2026-01-06 03:14:20.46	341.58	25.06	-29.4	-32.5	19.8	6.01e-01	0	43	102	524288	19	5133
2026-01-06 03:14:21.46	341.31	25.17	-29.5	-32.6	19.8	6.02e-01	0	43	102	524288	19	5145
2026-01-06 03:14:22.47	341.03	25.28	-29.5	-32.6	19.8	5.98e-01	0	43	102	524288	19	5153
2026-01-06 03:14:23.48	340.74	25.40	-29.5	-32.7	19.8	6.02e-01	0	43	102	524288	19	5193
2026-01-06 03:14:24.48	340.46	25.50	-29.5	-32.3	19.3	6.03e-01	0	43	102	524288	20	4965
2026-01-06 03:14:25.49	340.17	25.62	-29.6	-32.5	18.9	6.01e-01	0	43	102	524288	20	5030
2026-01-06 03:14:26.50	339.89	25.73	-29.5	-32.1	19.7	5.98e-01	0	43	102	524288	20	4896
2026-01-06 03:14:27.50	339.60	25.83	-29.5	-32.8	18.2	6.04e-01	0	43	102	524288	19	5228
2026-01-06 03:14:28.51	339.30	25.94	-29.6	-32.9	18.0	6.01e-01	0	43	102	524288	19	5252
2026-01-06 03:14:29.52	339.01	26.05	-29.6	-32.7	19.4	6.01e-01	0	43	102	524288	20	5099
2026-01-06 03:14:30.53	338.71	26.16	-29.7	-32.7	19.4	5.99e-01	0	43	102	524288	20	5071
2026-01-06 03:14:31.53	338.41	26.27	-29.6	-32.4	19.6	5.99e-01	0	44	102	524288	20	4963
2026-01-06 03:14:32.54	338.11	26.38	-29.5	-32.2	19.8	6.04e-01	0	43	102	524288	20	4888
2026-01-06 03:14:33.55	337.81	26.49	-29.5	-32.5	19.9	6.00e-01	0	43	102	524288	19	5104
2026-01-06 03:14:34.55	337.51	26.59	-29.1	-32.2	19.9	6.01e-01	0	44	102	524288	19	5155
2026-01-06 03:14:35.56	337.20	26.70	-29.5	-32.6	19.9	6.00e-01	0	44	102	524288	19	5158
2026-01-06 03:14:36.57	336.89	26.81	-29.5	-32.7	19.8	6.01e-01	0	44	102	524288	19	5185
2026-01-06 03:14:37.58	336.57	26.91	-29.5	-32.5	19.9	6.00e-01	0	43	102	524288	19	5111
2026-01-06 03:14:38.59	336.26	27.02	-29.5	-32.5	19.9	6.00e-01	0	44	102	524288	19	5115
2026-01-06 03:14:39.59	335.95	27.12	-28.5	-31.8	19.1	6.02e-01	0	43	102	524288	19	5272
2026-01-06 03:14:40.60	335.63	27.23	-29.5	-32.2	19.7	6.00e-01	0	43	102	524288	20	4923
2026-01-06 03:14:41.61	335.30	27.33	-29.6	-32.8	18.7	6.02e-01	0	44	102	524288	19	5242
2026-01-06 03:14:42.62	334.98	27.44	-29.5	-32.7	18.7	6.00e-01	0	44	102	524288	19	5169
2026-01-06 03:14:43.62	334.66	27.54	-29.5	-32.7	19.8	6.00e-01	0	43	102	524288	19	5184
2026-01-06 03:14:44.63	334.33	27.64	-29.4	-32.5	18.7	6.05e-01	0	44	102	524288	19	5130
2026-01-06 03:14:45.64	334.00	27.74	-29.3	-32.0	20.2	6.01e-01	0	44	102	524288	19	4936
2026-01-06 03:14:46.65	333.67	27.84	-29.1	-31.6	20.4	6.01e-01	0	44	102	524288	19	4814
2026-01-06 03:14:47.66	333.33	27.94	-29.2	-31.9	20.3	5.98e-01	0	44	102	524288	19	4892
2026-01-06 03:14:48.66	333.00	28.04	-29.2	-31.9	20.3	6.00e-01	0	43	102	524288	19	4899
2026-01-06 03:14:49.67	332.66	28.14	-29.0	-31.7	20.0	6.01e-01	0	43	102	524288	19	4907
2026-01-06 03:14:50.68	332.32	28.24	-29.2	-31.8	20.4	5.98e-01	0	44	102	524288	19	4857
2026-01-06 03:14:51.68	331.98	28.34	-29.2	-31.9	20.4	6.02e-01	0	43	102	524288	19	4893
2026-01-06 03:14:52.68	331.64	28.44	-29.1	-32.1	20.5	6.00e-01	0	43	102	524288	18	5084
2026-01-06 03:14:53.69	331.29	28.53	-29.1	-32.0	20.5	5.99e-01	0	43	102	524288	18	5059
2026-01-06 03:14:54.70	330.94	28.63	-29.3	-32.1	20.1	6.01e-01	0	43	102	524288	19	4976
2026-01-06 03:14:55.70	330.59	28.72	-29.3	-32.0	20.2	6.01e-01	0	44	102	524288	19	4946
2026-01-06 03:14:56.71	330.24	28.81	-29.0	-31.9	20.6	6.02e-01	0	44	102	524288	18	5024
2026-01-06 03:14:57.72	329.88	28.91	-29.0	-31.8	20.6	6.01e-01	0	44	102	524288	18	4994
2026-01-06 03:14:58.74	329.52	29.00	-29.2	-31.9	20.4	6.00e-01	0	44	102	524288	19	4887
2026-01-06 03:14:59.74	329.16	29.09	-29.4	-32.4	20.0	5.99e-01	0	44	102	524288	19	5085
2026-01-06 03:15:00.75	328.80	29.18	-29.3	-32.1	20.2	6.01e-01	0	44	102	524288	19	4969
2026-01-06 03:15:01.75	328.44	29.27	-29.3	-32.2	20.2	5.99e-01	0	44	102	524288	19	4983
2026-01-06 03:15:02.76	328.07	29.36	-29.2	-31.7	20.4	6.00e-01	0	44	102	524288	19	4837
2026-01-06 03:15:03.77	327.70	29.45	-29.1	-31.5	20.6	6.02e-01	0	44	102	524288	19	4781
2026-01-06 03:15:04.78	327.33	29.53	-29.1	-31.6	20.5	5.98e-01	0	44	102	524288	19	4814
2026-01-06 03:15:05.78	326.96	29.62	-29.0	-31.9	20.6	6.01e-01	0	44	102	524288	18	5014
2026-01-06 03:15:06.79	326.58	29.70	-29.2	-31.8	20.4	6.00e-01	0	44	102	524288	19	4849
2026-01-06 03:15:07.79	326.21	29.78	-29.1	-32.0	20.6	6.00e-01	0	43	102	524288	18	5041
2026-01-06 03:15:08.80	325.83	29.87	-29.1	-32.0	20.5	6.02e-01	0	44	102	524288	18	5051
2026-01-06 03:15:09.80	325.45	29.95	-29.1	-32.0	20.5	6.01e-01	0	44	102	524288	18	5041
2026-01-06 03:15:10.81	325.07	30.03	-28.9	-31.7	20.7	6.01e-01	0	44	102	524288	18	4927
2026-01-06 03:15:11.82	324.68	30.11	-29.0	-31.8	20.7	5.98e-01	0	44	102	524288	18	4962
2026-01-06 03:15:12.83	324.30	30.18	-29.0	-31.8	20.7	5.99e-01	0	44	102	524288	18	4962
2026-01-06 03:15:13.83	323.91	30.26	-29.0	-31.9	20.7	6.00e-01	0	44	102	524288	18	4996
2026-01-06 03:15:14.84	323.52	30.33	-29.0	-31.8	20.7	6.01e-01	0	44	102	524288	18	4995
2026-01-06 03:15:15.84	323.13	30.41	-28.9	-31.6	20.8	6.03e-01	0	43	102	524288	18	4892
2026-01-06 03:15:16.85	322.74	30.48	-29.1	-31.6	20.5	6.02e-01	0	43	102	524288	19	4785
2026-01-06 03:15:17.85	322.34	30.55	-28.9	-31.7	20.8	6.02e-01	0	43	102	524288	18	4925
2026-01-06 03:15:18.86	321.94	30.62	-28.8	-31.3	21.0	6.01e-01	0	44	102	524288	18	4793
2026-01-06 03:15:19.86	321.55	30.69	-29.0	-31.7	20.7	5.99e-01	0	44	102	524288	18	4953
2026-01-06 03:15:20.87	321.15	30.76	-29.2	-31.7	20.5	5.99e-01	0	43	102	524288	19	4815
2026-01-06 03:15:21.87	320.75	30.82	-28.9	-31.1	20.8	6.01e-01	0	43	102	524288	19	4634
2026-01-06 03:15:22.88	320.34	30.89	-29.2	-31.7	20.4	6.01e-01	0	43	102	524288	19	4821
2026-01-06 03:15:23.88	319.94	30.95	-28.9	-31.6	20.9	5.99e-01	0	43	102	524288	18	4886
2026-01-06 03:15:24.89	319.53	31.01	-28.9	-31.7	20.8	6.01e-01	0	43	102	524288	18	4923
2026-01-06 03:15:25.90	319.12	31.07	-29.1	-31.6	20.5	6.00e-01	0	43	102	524288	19	4792
2026-01-06 03:15:26.91	318.71	31.13	-29.1	-32.1	20.6	6.01e-01	0	44	102	524288	18	5071
2026-01-06 03:15:27.91	318.30	31.18	-28.8	-30.9	20.9	6.02e-01	0	44	102	524288	19	4560
2026-01-06 03:15:28.92	317.88	31.24	-29.0	-31.7	20.6	6.01e-01	0	43	102	524288	18	4961
2026-01-06 03:15:29.93	317.46	31.29	-29.2	-31.7	20.5	6.01e-01	0	44	102	524288	19	4848
2026-01-06 03:15:30.94	317.05	31.35	-28.7	-31.1	21.2	6.02e-01	0	44	102	524288	18	4733
2026-01-06 03:15:31.95	316.63	31.40	-28.9	-31.6	20.9	6.00e-01	0	44	102	524288	18	4892
2026-01-06 03:15:32.96	316.21	31.45	-29.1	-31.6	20.6	6.02e-01	0	43	102	524288	19	4781
2026-01-06 03:15:33.97	315.78	31.50	-28.9	-31.7	20.8	6.02e-01	0	43	102	524288	18	4937
2026-01-06 03:15:34.97	315.37	31.54	-28.9	-31.0	20.8	6.03e-01	0	44	102	524288	19	4599
2026-01-06 03:15:35.98	314.94	31.59	-28.3	-31.0	20.3	6.05e-01	0	44	102	524288	19	4857
2026-01-06 03:15:36.99	314.52	31.63	-29.2	-31.9	20.3	6.00e-01	0	43	102	524288	19	4894
2026-01-06 03:15:37.99	314.09	31.67	-29.1	-32.0	20.6	6.01e-01	0	44	102	524288	18	5038
2026-01-06 03:15:39.00	313.66	31.71	-28.8	-31.3	20.1	6.01e-01	0	44	102	524288	18	4806
2026-01-06 03:15:40.01	313.24	31.75	-29.0	-31.2	20.8	6.00e-01	0	44	102	524288	19	4670
2026-01-06 03:15:41.02	312.81	31.78	-29.1	-31.6	20.5	6.04e-01	0	44	102	524288	19	4792
2026-01-06 03:15:42.02	312.38	31.82	-29.2	-31.9	20.4	6.02e-01	0	44	102	524288	19	4899
2026-01-06 03:15:43.03	311.95	31.85	-28.9	-31.1	20.9	6.03e-01	0	44	102	524288	19	4643
2026-01-06 03:15:44.04	311.51	31.88	-28.7	-30.5	21.2	6.01e-01	0	44	102	524288	19	4443
2026-01-06 03:15:45.05	311.08	31.91	-29.1	-31.6	20.4	5.99e-01	0	44	102	524288	19	4783
2026-01-06 03:15:46.06	310.65	31.94	-29.5	-32.5	20.0	6.00e-01	0	44	102	524288	19	5120
2026-01-06 03:15:47.07	310.21	31.96	-29.4	-32.3	20.3	5.98e-01	0	44	102	524288	19	5023
2026-01-06 03:15:48.07	309.78	31.99	-29.1	-31.6	20.6	5.98e-01	0	44	102	524288	19	4760
2026-01-06 03:15:49.08	309.34	32.01	-29.0	-31.2	20.6	6.01e-01	0	44	102	524288	19	4642
2026-01-06 03:15:50.09	308.90	32.03	-29.6	-32.5	19.5	5.99e-01	0	44	102	524288	20	5009
2026-01-06 03:15:51.10	308.47	32.05	-29.6	-32.3	19.8	6.01e-01	0	44	102	524288	20	4925
2026-01-06 03:15:52.10	308.03	32.06	-29.0	-31.7	20.9	6.01e-01	0	43	102	524288	18	4931
2026-01-06 03:15:53.11	307.59	32.08	-29.0	-30.9	20.5	6.02e-01	0	44	102	524288	20	4460
2026-01-06 03:15:54.11	307.16	32.09	-29.4	-31.8	19.9	5.99e-01	0	44	102	524288	20	4748
2026-01-06 03:15:55.12	306.72	32.10	-29.9	-33.1	19.3	6.00e-01	0	44	102	524288	20	5238
2026-01-06 03:15:56.12	306.28	32.11	-28.4	-31.7	19.9	6.01e-01	0	44	102	524288	19	5261
2026-01-06 03:15:57.12	305.85	32.12	-29.6	-32.9	18.6	6.07e-01	0	44	102	524288	19	5228
2026-01-06 03:15:58.13	305.41	32.12	-29.9	-32.6	19.2	6.01e-01	0	44	102	524288	21	4924
2026-01-06 03:15:59.14	304.97	32.12	-30.4	-34.1	16.6	6.07e-01	0	44	102	524288	21	5477
2026-01-06 03:16:00.15	304.53	32.13	-30.1	-33.2	17.5	6.08e-01	0	44	102	524288	21	5148
2026-01-06 03:16:01.15	304.09	32.13	-29.8	-32.8	19.5	6.01e-01	0	44	102	524288	20	5098
2026-01-06 03:16:02.15	303.66	32.12	-30.5	-34.3	16.5	6.00e-01	0	44	102	524288	21	5571
2026-01-06 03:16:03.16	303.22	32.12	-30.1	-33.2	18.9	6.02e-01	0	44	102	524288	21	5145
2026-01-06 03:16:04.16	302.78	32.11	-29.6	-32.4	19.7	6.00e-01	0	44	102	524288	20	4959
2026-01-06 03:16:05.17	302.34	32.11	-29.6	-32.2	19.8	5.99e-01	0	43	102	524288	20	4896
2026-01-06 03:16:06.17	301.90	32.10	-30.0	-33.3	19.2	6.00e-01	0	43	102	524288	20	5282
2026-01-06 03:16:07.18	301.47	32.09	-30.0	-32.9	19.1	6.02e-01	0	43	102	524288	21	5004
2026-01-06 03:16:08.18	301.03	32.07	-29.9	-33.0	19.3	5.99e-01	0	44	102	524288	20	5181
2026-01-06 03:16:09.19	300.59	32.06	-29.9	-33.3	19.2	6.01e-01	0	44	102	524288	20	5278
2026-01-06 03:16:10.19	300.16	32.04	-29.5	-32.6	20.0	6.01e-01	0	43	102	524288	19	5130
2026-01-06 03:16:11.19	299.72	32.02	-29.4	-32.2	20.2	5.99e-01	0	43	102	524288	19	4988
2026-01-06 03:16:12.20	299.29	32.00	-29.5	-32.5	20.0	6.03e-01	0	44	102	524288	19	5095
2026-01-06 03:16:13.21	298.85	31.98	-29.1	-31.9	20.7	6.00e-01	0	43	102	524288	18	4998
2026-01-06 03:16:14.22	298.41	31.96	-28.8	-30.8	20.9	6.00e-01	0	44	102	524288	19	4535
2026-01-06 03:16:15.22	297.98	31.93	-29.6	-32.2	19.8	6.00e-01	0	44	102	524288	20	4898
2026-01-06 03:16:16.22	297.55	31.90	-29.3	-32.1	20.3	6.02e-01	0	44	102	524288	19	4945
2026-01-06 03:16:17.23	297.12	31.87	-29.1	-31.1	20.4	5.99e-01	0	44	102	524288	20	4504
2026-01-06 03:16:18.23	296.69	31.84	-29.9	-33.1	19.2	6.02e-01	0	44	102	524288	20	5215
2026-01-06 03:16:19.23	296.26	31.81	-29.5	-32.3	19.7	6.02e-01	0	44	102	524288	20	4979
2026-01-06 03:16:20.24	295.83	31.78	-29.8	-32.8	19.5	6.00e-01	0	44	102	524288	20	5093
2026-01-06 03:16:21.24	295.40	31.74	-29.9	-32.7	19.1	6.01e-01	0	43	102	524288	21	4966
2026-01-06 03:16:22.24	294.98	31.70	-30.4	-34.0	18.5	5.99e-01	0	44	102	524288	21	5454
2026-01-06 03:16:23.24	294.56	31.66	-30.3	-33.6	18.7	6.00e-01	0	44	102	524288	21	5288
2026-01-06 03:16:24.25	294.13	31.62	-29.8	-32.3	19.3	6.02e-01	0	44	102	524288	21	4813
2026-01-06 03:16:25.26	293.70	31.58	-30.6	-34.2	17.7	6.00e-01	0	44	102	524288	22	5466
2026-01-06 03:16:26.26	293.28	31.53	-30.3	-33.9	18.5	6.00e-01	0	44	102	524288	21	5439
2026-01-06 03:16:27.27	292.86	31.49	-29.6	-32.0	19.6	6.01e-01	0	44	102	524288	21	4709
2026-01-06 03:16:28.27	292.44	31.44	-30.6	-34.3	17.8	6.01e-01	0	44	102	524288	22	5462
2026-01-06 03:16:29.28	292.02	31.39	-29.5	-33.7	17.6	6.01e-01	0	44	102	524288	21	5787
2026-01-06 03:16:30.29	291.60	31.34	-30.4	-33.4	18.4	6.00e-01	0	44	102	524288	22	5071
2026-01-06 03:16:31.30	291.18	31.29	-31.1	-35.1	17.0	6.01e-01	0	44	102	524288	23	5678
2026-01-06 03:16:32.30	290.77	31.23	-31.1	-35.4	17.3	6.01e-01	0	44	102	524288	22	5940
2026-01-06 03:16:33.31	290.35	31.18	-31.2	-34.9	16.7	6.01e-01	0	44	102	524288	24	5484
2026-01-06 03:16:34.32	289.94	31.12	-30.9	-35.0	17.3	5.98e-01	0	44	102	524288	22	5767
2026-01-06 03:16:35.33	289.52	31.06	-30.4	-34.1	18.4	6.02e-01	0	44	102	524288	21	5482
2026-01-06 03:16:36.33	289.12	31.00	-30.2	-33.4	18.8	6.00e-01	0	43	102	524288	21	5188
2026-01-06 03:16:37.34	288.71	30.94	-31.2	-35.2	17.0	6.02e-01	0	44	102	524288	23	5748
2026-01-06 03:16:38.34	288.30	30.87	-30.8	-34.5	17.8	6.01e-01	0	44	102	524288	22	5530
2026-01-06 03:16:39.34	287.90	30.81	-31.4	-35.9	16.3	6.00e-01	0	44	102	524288	23	6073
2026-01-06 03:16:40.34	287.50	30.74	-30.8	-34.7	17.7	6.02e-01	0	44	102	524288	22	5615
2026-01-06 03:16:41.35	287.10	30.68	-30.8	-34.6	17.6	6.00e-01	0	44	102	524288	22	5567
2026-01-06 03:16:42.36	286.70	30.61	-31.3	-35.5	16.7	6.00e-01	0	44	102	524288	23	5901
2026-01-06 03:16:43.37	286.30	30.54	-30.9	-34.4	17.5	6.00e-01	0	44	102	524288	23	5384
2026-01-06 03:16:44.38	285.90	30.47	-31.3	-35.8	16.4	6.01e-01	0	44	102	524288	23	6022
2026-01-06 03:16:45.39	285.51	30.39	-30.3	-33.2	18.6	6.02e-01	0	44	102	524288	22	4998
2026-01-06 03:16:46.39	285.12	30.32	-30.6	-34.2	18.0	5.98e-01	0	44	102	524288	22	5408
2026-01-06 03:16:47.39	284.73	30.24	-29.9	-32.6	19.2	5.99e-01	0	44	102	524288	21	4933
2026-01-06 03:16:48.40	284.34	30.17	-30.0	-33.4	19.0	6.00e-01	0	44	102	524288	20	5341
2026-01-06 03:16:49.41	283.95	30.09	-29.8	-32.9	19.2	5.98e-01	0	44	102	524288	20	5180
2026-01-06 03:16:50.41	283.57	30.01	-29.4	-32.0	19.8	6.01e-01	0	44	102	524288	20	4831
2026-01-06 03:16:51.42	283.18	29.93	-30.0	-33.6	18.9	6.01e-01	0	44	102	524288	20	5417
2026-01-06 03:16:52.43	282.80	29.85	-29.6	-31.9	19.6	5.98e-01	0	44	102	524288	21	4691
2026-01-06 03:16:53.44	282.42	29.77	-29.7	-32.6	19.5	6.00e-01	0	44	102	524288	20	5054
2026-01-06 03:16:54.45	282.04	29.68	-29.6	-32.5	19.4	6.00e-01	0	43	102	524288	20	5008
2026-01-06 03:16:55.46	281.67	29.60	-29.7	-32.6	19.6	6.00e-01	0	44	102	524288	20	5025
2026-01-06 03:16:56.47	281.29	29.51	-29.9	-33.1	19.2	6.00e-01	0	44	102	524288	20	5208
2026-01-06 03:16:57.48	280.92	29.43	-29.8	-33.0	19.2	6.02e-01	0	44	102	524288	20	5197
2026-01-06 03:16:58.49	280.55	29.34	-29.8	-33.1	19.2	6.02e-01	0	44	102	524288	20	5222
2026-01-06 03:16:59.49	280.19	29.25	-29.7	-32.8	19.3	6.00e-01	0	44	102	524288	20	5139
2026-01-06 03:17:00.50	279.82	29.16	-29.5	-32.3	19.7	6.00e-01	0	44	102	524288	20	4927
2026-01-06 03:17:01.50	279.46	29.07	-29.3	-31.7	20.0	6.01e-01	0	44	102	524288	20	4742
2026-01-06 03:17:02.50	279.10	28.98	-29.6	-32.5	19.6	5.99e-01	0	44	102	524288	20	5024
2026-01-06 03:17:03.51	278.75	28.89	-29.7	-32.7	19.4	6.00e-01	0	43	102	524288	20	5086
2026-01-06 03:17:04.52	278.39	28.79	-29.5	-32.0	19.8	6.02e-01	0	44	102	524288	20	4817
2026-01-06 03:17:05.53	278.03	28.70	-29.6	-32.3	19.6	6.00e-01	0	44	102	524288	20	4940
2026-01-06 03:17:06.54	277.68	28.60	-29.5	-32.1	19.7	6.03e-01	0	44	102	524288	20	4863
2026-01-06 03:17:07.55	277.33	28.51	-29.2	-31.4	20.2	6.00e-01	0	44	102	524288	20	4619
2026-01-06 03:17:08.56	276.98	28.41	-29.4	-32.5	19.9	5.98e-01	0	44	102	524288	19	5100
2026-01-06 03:17:09.56	276.64	28.31	-29.5	-32.7	19.7	6.03e-01	0	44	102	524288	19	5179
2026-01-06 03:17:10.57	276.29	28.21	-29.3	-32.0	20.2	6.02e-01	0	44	102	524288	19	4919
2026-01-06 03:17:11.57	275.96	28.12	-29.6	-32.4	19.6	6.03e-01	0	44	102	524288	20	4992
2026-01-06 03:17:12.58	275.62	28.02	-29.5	-32.3	19.5	6.01e-01	0	44	102	524288	20	4948
2026-01-06 03:17:13.59	275.28	27.92	-29.2	-31.4	20.1	6.00e-01	0	44	102	524288	20	4634
2026-01-06 03:17:14.60	274.94	27.81	-29.4	-32.4	20.0	6.02e-01	0	44	102	524288	19	5064
2026-01-06 03:17:15.60	274.61	27.71	-29.5	-32.3	19.6	6.00e-01	0	44	102	524288	20	4950
2026-01-06 03:17:16.60	274.29	27.61	-29.4	-31.8	19.9	6.03e-01	0	44	102	524288	20	4759
2026-01-06 03:17:17.61	273.96	27.51	-29.4	-32.2	19.6	6.02e-01	0	44	102	524288	19	5010
2026-01-06 03:17:18.61	273.63	27.41	-29.6	-32.8	19.7	6.00e-01	0	44	102	524288	19	5220
2026-01-06 03:17:19.62	273.31	27.30	-29.5	-32.2	19.6	6.02e-01	0	44	102	524288	20	4922
2026-01-06 03:17:20.62	272.99	27.20	-29.2	-32.0	19.9	5.98e-01	0	44	102	524288	19	4932
2026-01-06 03:17:21.63	272.67	27.09	-29.4	-32.5	19.8	6.00e-01	0	44	102	524288	19	5116
2026-01-06 03:17:22.63	272.36	26.99	-29.6	-32.5	19.5	5.99e-01	0	44	102	524288	20	5018
2026-01-06 03:17:23.64	272.04	26.88	-29.5	-32.2	19.6	6.00e-01	0	44	102	524288	20	4930
2026-01-06 03:17:24.64	271.73	26.78	-29.1	-31.6	20.4	6.00e-01	0	44	102	524288	19	4808
2026-01-06 03:17:25.65	271.42	26.67	-29.4	-32.3	19.9	6.00e-01	0	44	102	524288	19	5055
2026-01-06 03:17:26.65	271.11	26.56	-29.7	-32.9	19.3	6.02e-01	0	44	102	524288	20	5148
2026-01-06 03:17:27.66	270.81	26.46	-29.7	-32.7	19.3	6.01e-01	0	43	102	524288	20	5085
2026-01-06 03:17:28.67	270.50	26.35	-29.5	-32.2	19.6	6.03e-01	0	44	102	524288	20	4910
2026-01-06 03:17:29.68	270.20	26.24	-29.5	-32.3	19.6	6.02e-01	0	44	102	524288	20	4919
2026-01-06 03:17:30.68	269.90	26.13	-29.8	-32.9	19.1	5.98e-01	0	44	102	524288	20	5160
2026-01-06 03:17:31.69	269.60	26.02	-29.9	-33.2	19.0	6.01e-01	0	44	102	524288	20	5286
2026-01-06 03:17:32.69	269.31	25.91	-29.7	-32.8	19.2	6.02e-01	0	44	102	524288	20	5102
2026-01-06 03:17:33.70	269.01	25.80	-29.5	-32.3	19.5	5.98e-01	0	44	102	524288	20	4961
2026-01-06 03:17:34.71	268.72	25.69	-29.7	-32.6	19.5	5.99e-01	0	44	102	524288	20	5027
2026-01-06 03:17:35.71	268.44	25.58	-29.8	-33.1	19.1	6.01e-01	0	44	102	524288	20	5250
2026-01-06 03:17:36.72	268.15	25.47	-29.8	-33.1	19.0	6.02e-01	0	44	102	524288	20	5257
2026-01-06 03:17:37.73	267.86	25.36	-29.5	-32.3	19.5	6.01e-01	0	44	102	524288	20	4958
2026-01-06 03:17:38.73	267.58	25.25	-29.4	-32.5	19.8	6.03e-01	0	44	102	524288	19	5122
2026-01-06 03:17:39.74	267.30	25.14	-29.5	-32.6	19.7	5.98e-01	0	44	102	524288	19	5160
2026-01-06 03:17:40.74	267.02	25.03	-29.7	-32.6	19.3	6.01e-01	0	44	102	524288	20	5067
2026-01-06 03:17:41.75	266.75	24.91	-29.7	-32.8	19.2	5.99e-01	0	44	102	524288	20	5140
2026-01-06 03:17:42.75	266.47	24.80	-29.7	-32.6	19.3	6.00e-01	0	44	102	524288	20	5070
2026-01-06 03:17:43.76	266.20	24.69	-29.4	-32.3	19.4	6.03e-01	0	44	102	524288	20	4989
2026-01-06 03:17:44.77	265.93	24.58	-29.6	-32.9	19.6	5.99e-01	0	44	102	524288	19	5258
2026-01-06 03:17:45.78	265.66	24.46	-29.5	-32.3	19.6	6.03e-01	0	44	102	524288	20	4940
2026-01-06 03:17:46.78	265.40	24.35	-29.6	-32.8	19.5	5.99e-01	0	44	102	524288	19	5245
2026-01-06 03:17:47.79	265.13	24.24	-29.5	-32.4	19.4	6.02e-01	0	44	102	524288	20	5030
2026-01-06 03:17:48.80	264.87	24.13	-29.6	-32.7	19.2	5.98e-01	0	44	102	524288	20	5117
2026-01-06 03:17:49.80	264.61	24.01	-29.8	-33.2	18.9	6.02e-01	0	44	102	524288	20	5280
2026-01-06 03:17:50.81	264.35	23.90	-29.7	-32.8	19.2	6.01e-01	0	44	102	524288	20	5137
2026-01-06 03:17:51.81	264.10	23.79	-29.6	-32.6	19.3	6.01e-01	0	44	102	524288	20	5091
2026-01-06 03:17:52.82	263.84	23.67	-29.7	-32.8	19.2	5.99e-01	0	44	102	524288	20	5144
2026-01-06 03:17:53.82	263.59	23.56	-29.6	-32.6	19.3	6.01e-01	0	44	102	524288	20	5049
2026-01-06 03:17:54.83	263.34	23.45	-29.6	-32.6	19.3	6.02e-01	0	44	102	524288	20	5047
2026-01-06 03:17:55.84	263.09	23.33	-29.7	-32.7	19.2	5.99e-01	0	44	102	524288	20	5106
2026-01-06 03:17:56.85	262.84	23.22	-29.7	-32.8	19.2	5.99e-01	0	44	102	524288	20	5121
2026-01-06 03:17:57.86	262.60	23.11	-29.8	-33.1	19.0	6.01e-01	0	44	102	524288	20	5271
2026-01-06 03:17:58.87	262.35	22.99	-29.8	-33.0	19.0	6.03e-01	0	44	102	524288	20	5209
2026-01-06 03:17:59.88	262.11	22.88	-29.8	-33.0	19.0	6.00e-01	0	44	102	524288	20	5207
2026-01-06 03:18:00.89	261.87	22.77	-29.9	-33.3	18.8	6.01e-01	0	44	102	524288	20	5345
2026-01-06 03:18:01.90	261.63	22.65	-29.7	-32.7	19.2	6.00e-01	0	44	102	524288	20	5103
2026-01-06 03:18:02.90	261.40	22.54	-29.9	-33.2	18.9	5.99e-01	0	44	102	524288	20	5300
2026-01-06 03:18:03.91	261.16	22.43	-29.7	-32.9	19.0	6.00e-01	0	44	102	524288	20	5199
2026-01-06 03:18:04.92	260.93	22.31	-29.6	-32.7	18.4	6.04e-01	0	44	102	524288	20	5115
2026-01-06 03:18:05.92	260.70	22.20	-29.6	-32.7	19.0	6.02e-01	0	44	102	524288	20	5118
2026-01-06 03:18:06.93	260.47	22.09	-29.6	-32.6	19.2	6.02e-01	0	44	102	524288	20	5092
2026-01-06 03:18:07.93	260.25	21.97	-29.6	-32.5	19.2	6.00e-01	0	44	102	524288	20	5058
2026-01-06 03:18:08.94	260.02	21.86	-29.5	-32.4	19.2	6.02e-01	0	44	102	524288	20	5044
2026-01-06 03:18:09.95	259.80	21.75	-29.4	-32.1	19.6	6.00e-01	0	44	102	524288	20	4887
2026-01-06 03:18:10.95	259.58	21.64	-29.4	-32.6	19.6	6.01e-01	0	44	102	524288	19	5196
2026-01-06 03:18:11.96	259.35	21.52	-29.5	-32.8	19.4	6.00e-01	0	44	102	524288	19	5272
2026-01-06 03:18:12.96	259.14	21.41	-29.6	-32.7	19.1	6.01e-01	0	44	102	524288	20	5126
2026-01-06 03:18:13.98	258.92	21.30	-28.9	-32.7	18.8	6.02e-01	0	44	102	524288	18	5616
2026-01-06 03:18:14.98	258.71	21.19	-29.6	-32.5	19.2	6.02e-01	0	44	102	524288	20	5050
2026-01-06 03:18:15.99	258.49	21.07	-29.7	-32.9	19.0	6.00e-01	0	44	102	524288	20	5208
2026-01-06 03:18:16.99	258.28	20.96	-30.0	-33.6	18.6	6.02e-01	0	44	102	524288	20	5458
2026-01-06 03:18:18.00	258.07	20.85	-29.8	-33.1	18.8	5.99e-01	0	44	102	524288	20	5280
2026-01-06 03:18:19.01	257.86	20.74	-28.2	-32.1	18.4	6.03e-01	0	44	102	524288	19	5619
2026-01-06 03:18:20.01	257.66	20.63	-29.5	-32.4	19.3	6.01e-01	0	44	102	524288	20	5025
2026-01-06 03:18:21.02	257.45	20.52	-29.4	-32.2	19.4	6.03e-01	0	44	102	524288	20	4914
2026-01-06 03:18:22.03	257.25	20.40	-29.5	-32.7	19.5	6.00e-01	0	44	102	524288	19	5230
2026-01-06 03:18:23.03	257.04	20.29	-29.5	-32.7	19.5	6.00e-01	0	44	102	524288	19	5217
2026-01-06 03:18:24.04	256.84	20.18	-29.2	-32.3	18.9	6.01e-01	0	44	102	524288	20	5110
2026-01-06 03:18:25.04	256.65	20.07	-29.9	-33.5	18.6	6.00e-01	0	44	102	524288	20	5429
2026-01-06 03:18:26.05	256.45	19.96	-29.7	-32.8	19.0	6.02e-01	0	44	102	524288	20	5159
2026-01-06 03:18:27.06	256.25	19.85	-29.5	-32.4	19.2	6.03e-01	0	44	102	524288	20	5018
2026-01-06 03:18:28.07	256.06	19.74	-29.5	-32.7	19.4	6.00e-01	0	44	102	524288	19	5222
2026-01-06 03:18:29.08	255.86	19.63	-29.6	-33.1	19.2	5.99e-01	0	44	102	524288	19	5375
2026-01-06 03:18:30.09	255.67	19.52	-29.6	-32.6	19.1	6.02e-01	0	44	102	524288	20	5091
2026-01-06 03:18:31.09	255.48	19.41	-29.7	-32.9	18.9	6.01e-01	0	44	102	524288	20	5198
2026-01-06 03:18:32.10	255.29	19.30	-29.5	-32.8	19.3	6.01e-01	0	44	102	524288	19	5290
2026-01-06 03:18:33.11	255.10	19.19	-29.3	-32.3	19.4	6.02e-01	0	44	102	524288	19	5116
2026-01-06 03:18:34.12	254.92	19.09	-29.3	-32.3	18.3	6.09e-01	0	44	102	524288	19	5120
2026-01-06 03:18:35.12	254.73	18.98	-29.4	-32.7	17.3	6.06e-01	0	44	102	524288	19	5265
2026-01-06 03:18:36.13	254.55	18.87	-29.4	-32.7	18.8	6.02e-01	0	44	102	524288	19	5241
2026-01-06 03:18:37.13	254.37	18.76	-29.4	-32.7	16.8	6.04e-01	0	44	102	524288	19	5228
2026-01-06 03:18:38.13	254.19	18.65	-29.4	-32.6	16.9	6.00e-01	0	44	102	524288	19	5219
2026-01-06 03:18:39.14	254.01	18.55	-29.5	-32.7	18.5	6.00e-01	0	44	102	524288	19	5249
2026-01-06 03:18:40.14	253.83	18.44	-29.5	-32.8	17.7	6.03e-01	0	44	102	524288	19	5292
2026-01-06 03:18:41.15	253.66	18.33	-29.5	-32.8	18.0	6.02e-01	0	44	102	524288	19	5270
2026-01-06 03:18:42.16	253.48	18.23	-29.5	-32.9	19.2	6.01e-01	0	44	102	524288	19	5308
2026-01-06 03:18:43.16	253.31	18.12	-29.6	-32.7	19.0	6.04e-01	0	44	102	524288	20	5143
2026-01-06 03:18:44.17	253.14	18.01	-29.6	-32.7	18.8	6.02e-01	0	44	102	524288	20	5200
2026-01-06 03:18:45.18	252.97	17.91	-29.5	-32.8	19.2	6.03e-01	0	44	102	524288	19	5289
2026-01-06 03:18:46.18	252.80	17.80	-29.3	-32.4	19.5	5.99e-01	0	44	102	524288	19	5123
2026-01-06 03:18:47.19	252.63	17.69	-29.4	-32.7	19.3	6.01e-01	0	44	102	524288	19	5266
2026-01-06 03:18:48.20	252.46	17.59	-29.6	-32.9	18.9	6.01e-01	0	44	102	524288	20	5217
2026-01-06 03:18:49.20	252.30	17.48	-29.8	-33.4	18.4	6.00e-01	0	44	102	524288	20	5442
2026-01-06 03:18:50.21	252.13	17.38	-29.7	-32.9	18.8	5.99e-01	0	44	102	524288	20	5214
2026-01-06 03:18:51.22	251.97	17.27	-29.5	-32.5	19.0	6.00e-01	0	44	102	524288	20	5095
2026-01-06 03:18:52.23	251.80	17.17	-29.5	-33.0	19.1	6.00e-01	0	44	102	524288	19	5361
2026-01-06 03:18:53.23	251.64	17.07	-29.5	-33.0	19.1	6.03e-01	0	44	102	524288	19	5374
2026-01-06 03:18:54.23	251.48	16.96	-29.4	-32.9	19.2	5.99e-01	0	44	102	524288	19	5340
2026-01-06 03:18:55.24	251.33	16.86	-29.6	-32.8	18.8	6.01e-01	0	44	102	524288	20	5225
2026-01-06 03:18:56.25	251.17	16.76	-29.5	-33.1	19.0	6.00e-01	0	43	102	524288	19	5443
2026-01-06 03:18:57.26	251.01	16.65	-29.4	-32.9	19.1	6.01e-01	0	44	102	524288	19	5339
2026-01-06 03:18:58.27	250.85	16.55	-29.5	-33.0	19.1	6.01e-01	0	44	102	524288	19	5389
2026-01-06 03:18:59.27	250.70	16.45	-29.3	-32.6	19.3	6.01e-01	0	44	102	524288	19	5259
2026-01-06 03:19:00.28	250.55	16.35	-29.3	-32.5	19.3	6.03e-01	0	44	102	524288	19	5233
2026-01-06 03:19:01.29	250.40	16.24	-29.4	-32.9	19.1	6.02e-01	0	44	102	524288	19	5363
2026-01-06 03:19:02.29	250.25	16.14	-29.4	-32.9	19.0	5.99e-01	0	44	102	524288	19	5379
2026-01-06 03:19:03.30	250.10	16.04	-29.4	-32.7	19.2	6.01e-01	0	44	102	524288	19	5302
2026-01-06 03:19:04.31	249.95	15.94	-29.3	-32.6	19.2	6.03e-01	0	44	102	524288	19	5247
2026-01-06 03:19:05.31	249.80	15.84	-29.2	-32.4	19.4	6.02e-01	0	44	102	524288	19	5191
2026-01-06 03:19:06.32	249.65	15.74	-29.1	-32.4	19.3	6.02e-01	0	44	102	524288	19	5226
2026-01-06 03:19:07.33	249.51	15.64	-29.3	-32.8	19.1	6.02e-01	0	44	102	524288	19	5335
2026-01-06 03:19:08.34	249.36	15.54	-29.3	-32.6	19.2	6.02e-01	0	44	102	524288	19	5293
2026-01-06 03:19:09.35	249.22	15.44	-29.5	-33.1	18.9	6.00e-01	0	44	102	524288	19	5477
2026-01-06 03:19:10.36	249.08	15.34	-29.4	-32.9	19.0	6.01e-01	0	44	102	524288	19	5396
2026-01-06 03:19:11.36	248.94	15.24	-29.4	-33.0	19.0	6.00e-01	0	44	102	524288	19	5427
2026-01-06 03:19:12.37	248.79	15.14	-29.5	-33.1	18.9	6.04e-01	0	44	102	524288	19	5461
2026-01-06 03:19:13.38	248.66	15.04	-29.3	-32.7	19.1	5.98e-01	0	44	102	524288	19	5339
2026-01-06 03:19:14.38	248.52	14.94	-29.3	-32.6	19.2	6.02e-01	0	44	102	524288	19	5265
2026-01-06 03:19:15.39	248.38	14.84	-29.3	-32.6	19.3	6.01e-01	0	44	102	524288	19	5235
2026-01-06 03:19:16.40	248.24	14.75	-29.3	-32.4	19.3	6.01e-01	0	44	102	524288	19	5177
2026-01-06 03:19:17.41	248.11	14.65	-28.6	-31.8	19.0	5.99e-01	0	44	102	524288	18	5256
2026-01-06 03:19:18.41	247.97	14.55	-29.4	-32.8	19.1	6.01e-01	0	44	102	524288	19	5326
2026-01-06 03:19:19.42	247.84	14.45	-29.5	-33.1	18.7	6.01e-01	0	44	102	524288	19	5455
2026-01-06 03:19:20.42	247.71	14.36	-29.4	-32.8	19.0	6.03e-01	0	44	102	524288	19	5350
2026-01-06 03:19:21.43	247.58	14.26	-29.3	-32.7	19.1	5.99e-01	0	44	102	524288	19	5315
2026-01-06 03:19:22.44	247.45	14.17	-29.4	-32.9	19.0	6.01e-01	0	44	102	524288	19	5397
2026-01-06 03:19:23.44	247.32	14.07	-29.5	-33.3	18.6	6.00e-01	0	44	102	524288	19	5589
2026-01-06 03:19:24.44	247.19	13.98	-29.5	-32.9	18.5	5.99e-01	0	44	102	524288	20	5326
2026-01-06 03:19:25.45	247.06	13.88	-29.3	-32.9	18.8	5.98e-01	0	44	102	524288	19	5440
2026-01-06 03:19:26.46	246.93	13.78	-29.3	-32.8	18.9	6.00e-01	0	44	102	524288	19	5390
2026-01-06 03:19:27.47	246.81	13.69	-29.3	-32.8	18.9	6.01e-01	0	44	102	524288	19	5377
2026-01-06 03:19:28.48	246.68	13.59	-29.4	-32.9	18.9	6.01e-01	0	44	102	524288	19	5410
2026-01-06 03:19:29.48	246.56	13.50	-29.4	-33.0	18.8	6.02e-01	0	44	102	524288	19	5428
2026-01-06 03:19:30.49	246.43	13.41	-29.3	-32.9	18.8	6.02e-01	0	44	102	524288	19	5411
2026-01-06 03:19:31.50	246.31	13.31	-29.3	-32.8	18.9	6.02e-01	0	44	102	524288	19	5372
2026-01-06 03:19:32.51	246.19	13.22	-29.6	-33.4	18.6	6.00e-01	0	44	102	524288	19	5616
2026-01-06 03:19:33.52	246.07	13.13	-29.7	-33.4	18.2	6.02e-01	0	44	102	524288	20	5514
2026-01-06 03:19:34.53	245.95	13.03	-29.7	-33.5	18.1	5.98e-01	0	44	102	524288	20	5538
2026-01-06 03:19:35.54	245.83	12.94	-29.6	-33.0	18.4	6.01e-01	0	44	102	524288	20	5326
2026-01-06 03:19:36.54	245.71	12.85	-29.6	-32.9	18.5	6.01e-01	0	44	102	524288	20	5282
2026-01-06 03:19:37.55	245.59	12.76	-29.6	-33.0	18.4	6.01e-01	0	44	102	524288	20	5323
2026-01-06 03:19:38.55	245.48	12.67	-29.6	-33.1	18.4	5.99e-01	0	44	102	524288	20	5344
2026-01-06 03:19:39.55	245.36	12.57	-29.7	-33.1	18.3	5.99e-01	0	43	102	524288	20	5374
2026-01-06 03:19:40.56	245.24	12.48	-29.7	-33.3	18.2	6.01e-01	0	44	102	524288	20	5448
2026-01-06 03:19:41.57	245.13	12.39	-29.9	-34.0	17.8	6.01e-01	0	44	102	524288	20	5734
2026-01-06 03:19:42.57	245.02	12.30	-29.9	-34.0	17.7	6.00e-01	0	44	102	524288	20	5753
2026-01-06 03:19:43.58	244.90	12.21	-29.7	-33.4	18.1	6.00e-01	0	44	102	524288	20	5509
2026-01-06 03:19:44.59	244.79	12.12	-29.5	-33.0	18.4	6.02e-01	0	44	102	524288	20	5327
2026-01-06 03:19:45.59	244.68	12.03	-29.5	-32.7	18.5	5.99e-01	0	44	102	524288	20	5217
2026-01-06 03:19:46.60	244.57	11.94	-29.5	-33.2	18.6	5.99e-01	0	44	102	524288	19	5525
2026-01-06 03:19:47.61	244.46	11.85	-29.5	-33.2	18.6	6.01e-01	0	44	102	524288	19	5530
2026-01-06 03:19:48.61	244.35	11.76	-29.6	-33.0	18.4	5.98e-01	0	44	102	524288	20	5318
2026-01-06 03:19:49.62	244.24	11.67	-29.7	-33.4	18.1	6.02e-01	0	44	102	524288	20	5469
2026-01-06 03:19:50.62	244.13	11.59	-29.7	-33.3	18.2	6.01e-01	0	44	102	524288	20	5456
2026-01-06 03:19:51.63	244.03	11.50	-29.5	-32.8	18.5	6.02e-01	0	44	102	524288	20	5248
2026-01-06 03:19:52.64	243.92	11.41	-29.6	-33.3	18.6	5.97e-01	0	44	102	524288	19	5521
2026-01-06 03:19:53.65	243.81	11.32	-29.5	-32.8	18.5	5.98e-01	0	44	102	524288	20	5248
2026-01-06 03:19:54.65	243.71	11.23	-28.7	-32.3	18.2	6.01e-01	0	44	102	524288	20	5472
2026-01-06 03:19:55.66	243.60	11.15	-29.8	-33.4	18.0	6.02e-01	0	44	102	524288	20	5451
2026-01-06 03:19:56.67	243.50	11.06	-29.8	-33.4	18.1	5.99e-01	0	44	102	524288	20	5459
2026-01-06 03:19:57.68	243.40	10.97	-29.8	-33.3	18.1	6.01e-01	0	44	102	524288	20	5427
2026-01-06 03:19:58.69	243.29	10.89	-27.9	-31.6	18.1	6.01e-01	0	44	102	524288	19	5477
2026-01-06 03:19:59.69	243.19	10.80	-29.7	-33.2	18.2	6.01e-01	0	44	102	524288	20	5411
2026-01-06 03:20:00.70	243.09	10.71	-29.7	-33.1	18.3	6.00e-01	0	44	102	524288	20	5356
2026-01-06 03:20:01.71	242.99	10.63	-29.8	-33.4	18.1	6.03e-01	0	44	102	524288	20	5474
2026-01-06 03:20:02.72	242.89	10.54	-29.7	-33.3	18.1	6.02e-01	0	44	102	524288	20	5445
2026-01-06 03:20:03.72	242.79	10.46	-29.6	-32.9	18.2	5.98e-01	0	44	102	524288	20	5302
2026-01-06 03:20:04.73	242.69	10.37	-29.6	-33.0	18.3	6.02e-01	0	44	102	524288	20	5313
2026-01-06 03:20:05.74	242.60	10.29	-29.6	-33.1	18.3	6.03e-01	0	44	102	524288	20	5348
2026-01-06 03:20:06.75	242.50	10.20	-29.6	-33.1	18.2	6.00e-01	0	44	102	524288	20	5379
2026-01-06 03:20:07.76	242.40	10.12	-29.8	-33.4	18.0	5.99e-01	0	44	102	524288	20	5508
2026-01-06 03:20:08.77	242.31	10.03	-29.7	-33.4	18.0	5.98e-01	0	44	102	524288	20	5510
2026-01-06 03:20:09.78	242.21	9.95	-29.7	-33.4	18.0	6.00e-01	0	44	102	524288	20	5482
2026-01-06 03:20:10.78	242.12	9.87	-29.9	-34.0	17.6	6.01e-01	0	44	102	524288	20	5752
2026-01-06 03:20:11.79	242.02	9.78	-29.8	-33.7	17.8	6.00e-01	0	44	102	524288	20	5605
2026-01-06 03:20:12.80	241.93	9.70	-29.8	-33.6	17.9	5.99e-01	0	44	102	524288	20	5571
2026-01-06 03:20:13.80	241.84	9.62	-29.8	-33.6	17.8	6.01e-01	0	44	102	524288	20	5603
2026-01-06 03:20:14.81	241.74	9.54	-29.8	-33.5	17.9	6.00e-01	0	44	102	524288	20	5540
2026-01-06 03:20:15.82	241.65	9.45	-29.9	-34.0	17.6	6.02e-01	0	44	102	524288	20	5735
2026-01-06 03:20:16.83	241.56	9.37	-29.9	-33.7	17.7	6.00e-01	0	44	102	524288	20	5629
2026-01-06 03:20:17.83	241.47	9.29	-29.8	-33.5	17.9	6.04e-01	0	44	102	524288	20	5524
2026-01-06 03:20:18.83	241.38	9.21	-29.8	-33.6	17.9	6.01e-01	0	43	102	524288	20	5559
2026-01-06 03:20:19.84	241.29	9.13	-29.7	-33.4	17.9	6.00e-01	0	44	102	524288	20	5523
2026-01-06 03:20:20.85	241.20	9.05	-29.8	-33.8	17.7	6.01e-01	0	44	102	524288	20	5667
2026-01-06 03:20:21.85	241.11	8.97	-29.8	-33.6	17.7	6.01e-01	0	44	102	524288	20	5617
2026-01-06 03:20:22.86	241.02	8.88	-29.8	-33.7	17.7	6.02e-01	0	44	102	524288	20	5653
2026-01-06 03:20:23.86	240.94	8.80	-29.8	-33.6	17.7	6.04e-01	0	44	102	524288	20	5627
2026-01-06 03:20:24.87	240.85	8.72	-29.8	-33.6	17.7	5.99e-01	0	44	102	524288	20	5616
2026-01-06 03:20:25.87	240.77	8.64	-29.8	-33.8	17.7	6.00e-01	0	44	102	524288	20	5663
2026-01-06 03:20:26.87	240.68	8.57	-29.8	-33.8	17.7	6.01e-01	0	44	102	524288	20	5663
2026-01-06 03:20:27.88	240.59	8.49	-29.8	-33.7	17.6	6.00e-01	0	44	102	524288	20	5656
2026-01-06 03:20:28.89	240.51	8.41	-29.8	-33.6	17.7	6.01e-01	0	44	102	524288	20	5611
2026-01-06 03:20:29.90	240.43	8.33	-29.8	-33.7	17.7	6.00e-01	0	44	102	524288	20	5629
2026-01-06 03:20:30.91	240.34	8.25	-29.8	-33.8	17.3	6.01e-01	0	44	102	524288	20	5702
2026-01-06 03:20:31.92	240.26	8.17	-29.8	-33.9	17.5	6.01e-01	0	44	102	524288	20	5743
2026-01-06 03:20:32.92	240.18	8.09	-29.8	-33.7	17.6	6.01e-01	0	44	102	524288	20	5662
2026-01-06 03:20:33.93	240.09	8.01	-29.9	-34.1	17.3	6.01e-01	0	44	102	524288	20	5824
2026-01-06 03:20:34.93	240.01	7.94	-29.8	-33.8	17.6	6.00e-01	0	44	102	524288	20	5687
2026-01-06 03:20:35.94	239.93	7.86	-29.9	-34.0	17.4	6.01e-01	0	44	102	524288	20	5782
2026-01-06 03:20:36.95	239.85	7.78	-29.9	-34.0	17.4	5.98e-01	0	44	102	524288	20	5780
2026-01-06 03:20:37.96	239.77	7.70	-29.9	-34.0	17.4	6.01e-01	0	44	102	524288	20	5774
2026-01-06 03:20:38.95	239.69	7.63	-30.0	-34.2	17.2	6.00e-01	0	44	102	524288	20	5870
2026-01-06 03:20:39.96	239.61	7.55	-29.9	-34.0	17.3	6.02e-01	0	44	102	524288	20	5787
2026-01-06 03:20:40.96	239.53	7.47	-29.8	-33.8	17.5	6.01e-01	0	44	102	524288	20	5679
2026-01-06 03:20:41.97	239.45	7.40	-29.9	-34.0	17.3	6.02e-01	0	44	102	524288	20	5777
2026-01-06 03:20:42.97	239.38	7.32	-29.8	-33.8	17.5	6.02e-01	0	44	102	524288	20	5680
2026-01-06 03:20:43.98	239.30	7.24	-29.8	-33.8	17.4	6.00e-01	0	44	102	524288	20	5712
2026-01-06 03:20:44.99	239.22	7.17	-29.9	-34.0	17.3	6.01e-01	0	44	102	524288	20	5800
2026-01-06 03:20:46.00	239.15	7.09	-29.9	-34.0	17.4	6.02e-01	0	44	102	524288	20	5762
2026-01-06 03:20:47.01	239.07	7.02	-32.9	-51.6	3.7	7.49e-01	0	44	104	524288	26	30668
2026-01-06 03:20:48.01	238.99	6.94	-33.4	-53.0	3.8	7.48e-01	0	44	104	524288	27	34070
2026-01-06 03:20:49.02	238.92	6.87	-33.6	-52.7	3.8	7.44e-01	0	44	104	524288	28	32731

#Closed at: 2026-01-06 03:20:49
#Recorded file [0 MB]: D:/data/31010_260106_061327.dat