passes_logs/2026/01/06/R2M6_AANII_01/R2M6_AANII_01__20260106_032435_FENGYUN_3D_rec.log

#Pass ID: 20260106_032435_FENGYUN 3D
#Satellite: FENGYUN 3D
#Configuration: FENGYUN 3D
#almurnet v.1.7.20240730
#Start time: 2026-01-06 03:24:35

#Version: 2.2.20231116
#Station: R2M6_AANII_01
#Location: 30.233357 lon 59.946436 lat
#TLE: 1 43010U 17072A   26005.48915933 -.00000051  00000+0 -21983-5 0  9995
#TLE: 2 43010  98.9919 337.1582 0002001 124.6377 235.4988 14.19691925421909

#Time	Az	El	Level	Level2	SNR	BER	BlckErr	Temp	State	Recorded	gain1	gain2
2026-01-06 03:24:35.90	14.16	7.00	-30.0	-33.5	5.2	7.95e-01	0	41	0	0	20	5405
2026-01-06 03:24:36.90	14.11	7.08	-30.2	-34.1	5.1	7.98e-01	0	41	104	0	20	5634
2026-01-06 03:24:37.91	14.06	7.15	-30.0	-33.5	8.9	3.81e-02	0	42	0	0	20	5401
2026-01-06 03:24:38.92	14.01	7.22	-30.2	-34.0	8.5	4.32e-02	0	42	102	1048576	20	5585
2026-01-06 03:24:39.93	13.96	7.30	-29.9	-33.0	9.2	3.46e-02	0	42	102	1048576	20	5185
2026-01-06 03:24:40.94	13.91	7.37	-29.7	-32.5	9.6	1.94e-02	0	42	102	1048576	20	4978
2026-01-06 03:24:41.94	13.86	7.45	-29.6	-32.8	9.8	1.10e-02	0	42	102	1048576	19	5199
2026-01-06 03:24:42.95	13.81	7.52	-29.8	-33.2	9.6	1.44e-02	0	42	102	1048576	19	5329
2026-01-06 03:24:43.96	13.76	7.60	-30.0	-33.5	8.9	2.46e-02	0	42	102	1048576	20	5376
2026-01-06 03:24:44.96	13.71	7.67	-29.6	-32.4	9.8	1.78e-02	0	42	102	1048576	20	4933
2026-01-06 03:24:45.97	13.66	7.75	-29.3	-32.0	10.4	8.01e-03	0	42	102	1048576	19	4885
2026-01-06 03:24:46.98	13.61	7.83	-28.8	-30.5	11.4	1.51e-03	0	42	102	1048576	19	4398
2026-01-06 03:24:47.99	13.56	7.90	-28.3	-30.4	12.1	5.86e-04	0	42	102	1048576	17	4577
2026-01-06 03:24:48.99	13.51	7.98	-27.9	-29.8	12.8	1.03e-04	0	42	102	1048576	16	4483
2026-01-06 03:24:50.00	13.46	8.06	-27.6	-29.0	13.3	3.08e-05	0	42	102	1048576	16	4262
2026-01-06 03:24:51.01	13.40	8.13	-27.2	-28.6	13.6	1.60e-05	0	42	102	1048576	15	4255
2026-01-06 03:24:52.02	13.35	8.21	-26.9	-28.4	14.1	1.10e-06	0	42	102	1048576	14	4313
2026-01-06 03:24:53.03	13.30	8.29	-26.9	-28.4	14.1	0.00e+00	0	42	102	1048576	14	4313
2026-01-06 03:24:54.04	13.24	8.36	-26.9	-28.9	14.1	4.50e-06	0	42	102	1048576	13	4565
2026-01-06 03:24:55.04	13.19	8.44	-26.8	-28.9	14.1	3.40e-06	0	42	102	1048576	13	4558
2026-01-06 03:24:56.05	13.14	8.52	-26.9	-29.1	14.0	3.40e-06	0	42	102	1048576	13	4610
2026-01-06 03:24:57.05	13.08	8.60	-26.8	-28.7	14.2	0.00e+00	0	42	102	1048576	13	4501
2026-01-06 03:24:58.06	13.03	8.68	-26.8	-28.7	14.3	1.10e-06	0	42	102	1048576	13	4507
2026-01-06 03:24:59.06	12.97	8.75	-26.8	-28.8	14.2	4.50e-06	0	42	102	1048576	13	4546
2026-01-06 03:25:00.07	12.92	8.83	-26.8	-28.9	14.2	8.65e-04	0	42	102	1048576	13	4546
2026-01-06 03:25:01.07	12.86	8.91	-27.2	-29.1	13.7	5.70e-06	0	42	102	1048576	14	4517
2026-01-06 03:25:02.07	12.81	8.99	-27.1	-28.9	13.9	9.10e-06	0	42	102	1048576	14	4442
2026-01-06 03:25:03.08	12.75	9.07	-27.1	-29.1	13.8	9.10e-06	0	42	102	1048576	14	4496
2026-01-06 03:25:04.09	12.69	9.15	-27.1	-29.0	13.9	8.00e-06	0	42	102	1048576	14	4471
2026-01-06 03:25:05.10	12.64	9.23	-27.2	-29.2	13.8	8.46e-04	0	42	102	1048576	14	4540
2026-01-06 03:25:06.11	12.58	9.31	-27.2	-29.2	13.7	9.10e-06	0	42	102	1048576	14	4530
2026-01-06 03:25:07.12	12.52	9.39	-27.2	-29.2	13.7	1.71e-05	0	42	102	1048576	14	4540
2026-01-06 03:25:08.13	12.46	9.47	-27.5	-29.8	13.4	1.25e-05	0	42	102	1048576	14	4712
2026-01-06 03:25:09.13	12.41	9.55	-27.2	-29.3	13.7	8.24e-04	0	42	102	1048576	14	4557
2026-01-06 03:25:10.14	12.35	9.63	-27.0	-28.8	14.0	8.00e-06	0	42	102	1048576	14	4417
2026-01-06 03:25:11.15	12.29	9.71	-27.0	-28.7	14.1	8.19e-04	0	42	102	1048576	14	4382
2026-01-06 03:25:12.16	12.23	9.80	-26.9	-28.5	14.2	8.23e-04	0	42	102	1048576	14	4341
2026-01-06 03:25:13.16	12.17	9.88	-26.9	-28.5	14.2	2.20e-06	0	42	102	1048576	14	4339
2026-01-06 03:25:14.17	12.11	9.96	-26.8	-28.7	14.4	8.02e-04	0	43	102	1048576	13	4507
2026-01-06 03:25:15.18	12.05	10.04	-26.8	-28.7	14.4	0.00e+00	0	43	102	1048576	13	4491
2026-01-06 03:25:16.18	11.99	10.12	-26.8	-28.7	14.4	2.20e-06	0	43	102	1048576	13	4507
2026-01-06 03:25:17.18	11.93	10.21	-26.6	-28.4	14.6	7.92e-04	0	42	102	1048576	13	4411
2026-01-06 03:25:18.19	11.87	10.29	-26.6	-28.3	14.6	7.05e-04	0	43	102	1048576	13	4378
2026-01-06 03:25:19.19	11.81	10.37	-26.7	-28.5	14.5	2.20e-06	0	43	102	1048576	13	4444
2026-01-06 03:25:20.20	11.74	10.45	-26.8	-28.7	14.4	5.86e-04	0	42	102	1048576	13	4506
2026-01-06 03:25:21.20	11.68	10.54	-26.7	-28.6	14.5	6.68e-04	0	43	102	1048576	13	4469
2026-01-06 03:25:22.20	11.62	10.62	-26.8	-28.9	14.3	3.40e-06	0	43	102	1048576	13	4544
2026-01-06 03:25:23.21	11.56	10.71	-26.7	-28.6	14.5	7.67e-04	0	43	102	1048576	13	4451
2026-01-06 03:25:24.22	11.49	10.79	-26.7	-28.6	14.5	1.10e-06	0	43	102	1048576	13	4452
2026-01-06 03:25:25.22	11.43	10.87	-26.6	-28.4	14.6	0.00e+00	0	43	102	1048576	13	4410
2026-01-06 03:25:26.23	11.36	10.96	-26.6	-28.3	14.7	8.22e-04	0	43	102	1048576	13	4375
2026-01-06 03:25:27.23	11.30	11.04	-26.6	-28.3	14.7	4.92e-05	0	43	102	1048576	13	4381
2026-01-06 03:25:28.24	11.23	11.13	-26.7	-28.6	14.5	0.00e+00	0	43	102	1048576	13	4454
2026-01-06 03:25:29.25	11.17	11.21	-26.5	-28.1	14.8	1.10e-06	0	43	102	1048576	13	4317
2026-01-06 03:25:30.26	11.10	11.30	-26.3	-27.7	15.0	7.40e-04	0	43	102	1048576	13	4215
2026-01-06 03:25:31.26	11.04	11.39	-26.3	-27.6	15.1	0.00e+00	0	43	102	1048576	13	4192
2026-01-06 03:25:32.27	10.97	11.47	-26.3	-28.2	15.0	6.44e-04	0	43	102	1048576	12	4468
2026-01-06 03:25:33.28	10.90	11.56	-26.3	-28.0	15.2	1.10e-06	0	43	102	1048576	12	4402
2026-01-06 03:25:34.29	10.83	11.65	-26.3	-28.2	15.1	0.00e+00	0	43	102	1048576	12	4450
2026-01-06 03:25:35.29	10.77	11.73	-26.2	-27.9	15.2	3.52e-04	0	43	102	1048576	12	4370
2026-01-06 03:25:36.30	10.70	11.82	-26.1	-27.7	15.3	0.00e+00	0	43	102	1048576	12	4326
2026-01-06 03:25:37.30	10.63	11.91	-26.2	-27.9	15.2	0.00e+00	0	43	102	1048576	12	4377
2026-01-06 03:25:38.31	10.56	12.00	-26.3	-28.0	15.1	0.00e+00	0	43	102	1048576	12	4417
2026-01-06 03:25:39.32	10.49	12.09	-26.1	-27.7	15.3	0.00e+00	0	43	102	1048576	12	4330
2026-01-06 03:25:40.33	10.42	12.17	-26.1	-27.6	15.4	0.00e+00	0	43	102	1048576	12	4288
2026-01-06 03:25:41.33	10.35	12.26	-26.2	-27.9	15.3	0.00e+00	0	43	102	1048576	12	4368
2026-01-06 03:25:42.34	10.28	12.35	-26.1	-27.7	15.4	0.00e+00	0	43	102	1048576	12	4326
2026-01-06 03:25:43.34	10.21	12.44	-26.2	-27.9	15.3	0.00e+00	0	43	102	1048576	12	4364
2026-01-06 03:25:44.35	10.13	12.53	-26.2	-27.9	15.3	0.00e+00	0	43	102	1048576	12	4364
2026-01-06 03:25:45.36	10.06	12.62	-26.1	-27.7	15.4	0.00e+00	0	43	102	1048576	12	4322
2026-01-06 03:25:46.37	9.99	12.71	-26.1	-27.7	15.4	1.10e-06	0	43	102	1048576	12	4315
2026-01-06 03:25:47.37	9.91	12.80	-26.1	-27.8	15.3	0.00e+00	0	43	102	1048576	12	4336
2026-01-06 03:25:48.38	9.84	12.89	-26.2	-27.8	15.3	0.00e+00	0	43	102	1048576	12	4343
2026-01-06 03:25:49.38	9.77	12.98	-26.2	-27.8	15.3	0.00e+00	0	43	102	1048576	12	4352
2026-01-06 03:25:50.38	9.69	13.07	-26.2	-27.9	15.3	0.00e+00	0	43	102	1048576	12	4370
2026-01-06 03:25:51.39	9.62	13.17	-26.1	-27.6	15.4	0.00e+00	0	43	102	1048576	12	4301
2026-01-06 03:25:52.40	9.54	13.26	-26.1	-27.6	15.5	0.00e+00	0	43	102	1048576	12	4297
2026-01-06 03:25:53.41	9.46	13.35	-26.1	-27.8	15.4	0.00e+00	0	43	102	1048576	12	4336
2026-01-06 03:25:54.41	9.39	13.44	-26.1	-27.7	15.4	0.00e+00	0	43	102	1048576	12	4314
2026-01-06 03:25:55.42	9.31	13.54	-26.1	-27.7	15.4	0.00e+00	0	43	102	1048576	12	4316
2026-01-06 03:25:56.43	9.23	13.63	-26.1	-27.7	15.4	0.00e+00	0	43	102	1048576	12	4325
2026-01-06 03:25:57.43	9.15	13.72	-25.9	-27.3	15.6	0.00e+00	0	43	102	1048576	12	4205
2026-01-06 03:25:58.44	9.07	13.82	-25.9	-27.1	15.8	0.00e+00	0	43	102	1048576	12	4150
2026-01-06 03:25:59.45	8.99	13.91	-25.8	-27.6	15.9	0.00e+00	0	43	102	1048576	11	4391
2026-01-06 03:26:00.46	8.91	14.01	-25.9	-27.6	15.9	0.00e+00	0	43	102	1048576	11	4400
2026-01-06 03:26:01.46	8.83	14.10	-25.9	-27.6	15.9	0.00e+00	0	43	102	1048576	11	4394
2026-01-06 03:26:02.47	8.75	14.20	-25.7	-27.3	16.0	0.00e+00	0	43	102	1048576	11	4325
2026-01-06 03:26:03.48	8.67	14.29	-25.7	-27.3	16.0	0.00e+00	0	43	102	1048576	11	4315
2026-01-06 03:26:04.48	8.59	14.39	-25.7	-27.3	16.1	0.00e+00	0	43	102	1048576	11	4311
2026-01-06 03:26:05.49	8.50	14.48	-25.6	-27.1	16.2	0.00e+00	0	43	102	1048576	11	4254
2026-01-06 03:26:06.49	8.42	14.58	-25.7	-27.2	16.1	0.00e+00	0	43	102	1048576	11	4292
2026-01-06 03:26:07.50	8.34	14.68	-25.7	-27.2	16.1	0.00e+00	0	43	102	1048576	11	4286
2026-01-06 03:26:08.51	8.25	14.77	-25.6	-27.0	16.2	0.00e+00	0	43	102	1048576	11	4230
2026-01-06 03:26:09.51	8.17	14.87	-25.6	-27.1	16.2	0.00e+00	0	43	102	1048576	11	4263
2026-01-06 03:26:10.52	8.08	14.97	-25.6	-27.0	16.2	0.00e+00	0	43	102	1048576	11	4244
2026-01-06 03:26:11.52	8.00	15.07	-25.6	-27.0	16.2	0.00e+00	0	43	102	1048576	11	4233
2026-01-06 03:26:12.53	7.91	15.16	-25.6	-27.0	16.2	0.00e+00	0	43	102	1048576	11	4244
2026-01-06 03:26:13.54	7.82	15.26	-25.1	-26.4	16.1	0.00e+00	0	43	102	1048576	11	4218
2026-01-06 03:26:14.55	7.73	15.36	-25.6	-27.0	16.3	0.00e+00	0	43	102	1048576	11	4222
2026-01-06 03:26:15.56	7.64	15.46	-25.6	-27.0	16.3	0.00e+00	0	43	102	1048576	11	4220
2026-01-06 03:26:16.57	7.55	15.56	-25.5	-26.8	16.4	0.00e+00	0	43	102	1048576	11	4189
2026-01-06 03:26:17.57	7.47	15.66	-25.5	-26.8	16.4	2.54e-04	0	43	102	1048576	11	4176
2026-01-06 03:26:18.58	7.37	15.76	-25.4	-26.7	16.4	0.00e+00	0	43	102	1048576	11	4150
2026-01-06 03:26:19.58	7.28	15.86	-25.3	-26.4	16.6	2.99e-04	0	43	102	1048576	11	4086
2026-01-06 03:26:20.59	7.19	15.96	-25.3	-26.9	16.6	0.00e+00	0	43	102	1048576	10	4318
2026-01-06 03:26:21.60	7.10	16.06	-25.3	-26.8	16.7	0.00e+00	0	43	102	1048576	10	4287
2026-01-06 03:26:22.60	7.01	16.16	-25.1	-26.4	16.9	1.66e-04	0	43	102	1048576	10	4189
2026-01-06 03:26:23.61	6.91	16.27	-25.1	-26.3	16.9	0.00e+00	0	43	102	1048576	10	4171
2026-01-06 03:26:24.61	6.82	16.37	-25.1	-26.3	17.0	0.00e+00	0	43	102	1048576	10	4164
2026-01-06 03:26:25.61	6.72	16.47	-25.0	-26.2	17.0	0.00e+00	0	43	102	1048576	10	4123
2026-01-06 03:26:26.62	6.63	16.57	-25.0	-26.1	17.1	1.76e-04	0	43	102	1048576	10	4114
2026-01-06 03:26:27.62	6.53	16.68	-25.1	-26.4	16.9	0.00e+00	0	43	102	1048576	10	4171
2026-01-06 03:26:28.62	6.44	16.78	-25.1	-26.4	16.9	3.04e-04	0	43	102	1048576	10	4173
2026-01-06 03:26:29.62	6.34	16.88	-25.0	-26.3	17.0	3.24e-04	0	43	102	1048576	10	4152
2026-01-06 03:26:30.63	6.24	16.99	-25.2	-26.7	16.7	0.00e+00	0	43	102	1048576	10	4269
2026-01-06 03:26:31.64	6.14	17.09	-25.4	-27.1	16.6	4.37e-04	0	43	102	1048576	10	4365
2026-01-06 03:26:32.65	6.04	17.20	-25.4	-27.0	16.6	0.00e+00	0	43	102	1048576	10	4345
2026-01-06 03:26:33.65	5.94	17.30	-25.4	-27.1	16.6	0.00e+00	0	43	102	1048576	10	4359
2026-01-06 03:26:34.65	5.84	17.41	-25.3	-26.9	16.7	4.00e-04	0	43	102	1048576	10	4307
2026-01-06 03:26:35.66	5.74	17.52	-25.3	-27.0	16.7	3.44e-04	0	43	102	1048576	10	4336
2026-01-06 03:26:36.67	5.63	17.62	-25.3	-27.0	16.6	0.00e+00	0	43	102	1048576	10	4334
2026-01-06 03:26:37.67	5.53	17.73	-25.2	-26.7	16.8	3.39e-04	0	43	102	1048576	10	4270
2026-01-06 03:26:38.68	5.42	17.84	-25.4	-26.9	16.7	3.59e-04	0	43	102	1048576	10	4321
2026-01-06 03:26:39.69	5.32	17.94	-25.3	-26.8	16.8	0.00e+00	0	43	102	1048576	10	4288
2026-01-06 03:26:40.70	5.21	18.05	-25.4	-27.0	16.7	4.67e-04	0	43	102	1048576	10	4329
2026-01-06 03:26:41.70	5.11	18.16	-25.2	-26.5	16.9	0.00e+00	0	43	102	1048576	10	4214
2026-01-06 03:26:42.71	5.00	18.27	-24.8	-25.8	17.3	0.00e+00	0	43	102	1048576	10	4040
2026-01-06 03:26:43.72	4.89	18.38	-24.6	-25.9	17.5	3.66e-04	0	43	102	1048576	9	4174
2026-01-06 03:26:44.73	4.78	18.49	-24.7	-26.0	17.4	3.25e-04	0	44	102	1048576	9	4192
2026-01-06 03:26:45.73	4.67	18.60	-24.8	-26.3	17.3	0.00e+00	0	43	102	1048576	9	4272
2026-01-06 03:26:46.73	4.56	18.71	-25.1	-26.3	17.0	0.00e+00	0	43	102	1048576	10	4158
2026-01-06 03:26:47.74	4.45	18.82	-25.3	-26.8	16.8	9.84e-05	0	43	102	1048576	10	4281
2026-01-06 03:26:48.75	4.34	18.93	-25.2	-26.6	16.9	0.00e+00	0	43	102	1048576	10	4226
2026-01-06 03:26:49.75	4.22	19.04	-25.0	-26.2	17.1	8.00e-06	0	43	102	1048576	10	4126
2026-01-06 03:26:50.76	4.11	19.15	-25.0	-26.1	17.2	0.00e+00	0	43	102	1048576	10	4097
2026-01-06 03:26:51.77	3.99	19.27	-24.9	-26.0	17.2	0.00e+00	0	43	102	1048576	10	4085
2026-01-06 03:26:52.78	3.88	19.38	-25.0	-26.2	17.1	0.00e+00	0	43	102	1048576	10	4144
2026-01-06 03:26:53.79	3.76	19.49	-24.9	-26.0	17.3	0.00e+00	0	44	102	1048576	10	4084
2026-01-06 03:26:54.79	3.64	19.60	-25.0	-26.3	17.1	0.00e+00	0	43	102	1048576	10	4150
2026-01-06 03:26:55.80	3.52	19.72	-24.8	-25.9	17.3	0.00e+00	0	43	102	1048576	10	4045
2026-01-06 03:26:56.80	3.41	19.83	-24.6	-25.3	17.7	0.00e+00	0	43	102	1048576	10	3896
2026-01-06 03:26:57.81	3.28	19.95	-24.4	-24.8	17.9	0.00e+00	0	43	102	1048576	10	3801
2026-01-06 03:26:58.81	3.16	20.06	-24.3	-24.8	17.9	0.00e+00	0	43	102	1048576	10	3784
2026-01-06 03:26:59.82	3.04	20.18	-24.4	-24.8	17.9	0.00e+00	0	43	102	1048576	10	3785
2026-01-06 03:27:00.83	2.92	20.29	-24.2	-25.0	18.1	0.00e+00	0	44	102	1048576	9	3931
2026-01-06 03:27:01.84	2.79	20.41	-24.3	-25.1	18.0	0.00e+00	0	43	102	1048576	9	3971
2026-01-06 03:27:02.85	2.67	20.53	-24.2	-24.9	18.1	0.00e+00	0	44	102	1048576	9	3925
2026-01-06 03:27:03.86	2.54	20.64	-24.2	-25.0	18.0	0.00e+00	0	43	102	1048576	9	3942
2026-01-06 03:27:04.86	2.41	20.76	-24.3	-25.2	17.9	0.00e+00	0	44	102	1048576	9	3997
2026-01-06 03:27:05.87	2.28	20.88	-24.3	-25.1	18.0	0.00e+00	0	43	102	1048576	9	3960
2026-01-06 03:27:06.87	2.16	21.00	-24.3	-25.2	18.0	0.00e+00	0	44	102	1048576	9	3984
2026-01-06 03:27:07.88	2.03	21.12	-24.4	-25.3	17.9	0.00e+00	0	44	102	1048576	9	4021
2026-01-06 03:27:08.89	1.89	21.23	-24.5	-25.6	17.8	0.00e+00	0	44	102	1048576	9	4084
2026-01-06 03:27:09.90	1.76	21.35	-24.3	-25.3	17.9	0.00e+00	0	44	102	1048576	9	4014
2026-01-06 03:27:10.90	1.63	21.47	-24.3	-25.2	18.0	0.00e+00	0	43	102	1048576	9	3980
2026-01-06 03:27:11.91	1.49	21.59	-24.4	-25.4	17.9	0.00e+00	0	44	102	1048576	9	4031
2026-01-06 03:27:12.92	1.36	21.71	-24.2	-25.1	18.1	0.00e+00	0	44	102	1048576	9	3958
2026-01-06 03:27:13.93	1.22	21.84	-24.1	-24.8	18.2	0.00e+00	0	44	102	1048576	9	3885
2026-01-06 03:27:14.94	1.08	21.96	-24.2	-24.9	18.1	0.00e+00	0	44	102	1048576	9	3923
2026-01-06 03:27:15.94	0.94	22.08	-24.1	-24.7	18.3	0.00e+00	0	43	102	1048576	9	3873
2026-01-06 03:27:16.95	0.80	22.20	-24.2	-24.9	18.2	0.00e+00	0	43	102	1048576	9	3915
2026-01-06 03:27:17.95	0.66	22.32	-24.3	-25.3	18.0	0.00e+00	0	44	102	1048576	9	4008
2026-01-06 03:27:18.96	0.52	22.45	-24.2	-25.0	18.1	0.00e+00	0	44	102	1048576	9	3934
2026-01-06 03:27:19.97	0.38	22.57	-24.1	-24.8	18.2	0.00e+00	0	44	102	1048576	9	3899
2026-01-06 03:27:20.97	0.23	22.69	-24.2	-24.9	18.1	0.00e+00	0	43	102	1048576	9	3930
2026-01-06 03:27:21.98	0.09	22.82	-24.2	-25.0	18.1	0.00e+00	0	44	102	1048576	9	3934
2026-01-06 03:27:22.98	359.94	22.94	-24.2	-25.1	18.1	0.00e+00	0	44	102	1048576	9	3961
2026-01-06 03:27:23.99	359.79	23.07	-24.1	-24.9	18.2	0.00e+00	0	43	102	1048576	9	3910
2026-01-06 03:27:25.00	359.64	23.19	-24.1	-24.7	18.3	0.00e+00	0	43	102	1048576	9	3866
2026-01-06 03:27:26.00	359.49	23.32	-24.2	-24.9	18.2	0.00e+00	0	44	102	1048576	9	3915
2026-01-06 03:27:27.01	359.34	23.44	-23.9	-24.4	18.5	0.00e+00	0	44	102	1048576	9	3788
2026-01-06 03:27:28.01	359.19	23.57	-23.8	-24.1	18.6	0.00e+00	0	44	102	1048576	9	3728
2026-01-06 03:27:29.02	359.03	23.70	-23.8	-24.7	18.6	0.00e+00	0	44	102	1048576	8	3976
2026-01-06 03:27:30.02	358.88	23.82	-23.7	-24.3	18.8	0.00e+00	0	44	102	1048576	8	3888
2026-01-06 03:27:31.03	358.72	23.95	-23.7	-24.4	18.7	2.20e-06	0	43	102	1048576	8	3911
2026-01-06 03:27:32.04	358.56	24.08	-23.3	-23.8	17.5	0.00e+00	0	44	102	1048576	8	3851
2026-01-06 03:27:33.05	358.40	24.21	-23.6	-24.2	18.9	0.00e+00	0	43	102	1048576	8	3846
2026-01-06 03:27:34.05	358.24	24.34	-23.7	-24.9	18.7	0.00e+00	0	44	102	1048576	7	4127
2026-01-06 03:27:35.06	358.08	24.47	-23.6	-24.8	18.8	0.00e+00	0	43	102	1048576	7	4106
2026-01-06 03:27:36.06	357.92	24.59	-23.9	-25.3	18.5	0.00e+00	0	44	102	1048576	7	4225
2026-01-06 03:27:37.06	357.75	24.72	-23.8	-25.0	18.7	5.95e-05	0	43	102	1048576	7	4173
2026-01-06 03:27:38.07	357.59	24.85	-23.8	-25.1	18.6	0.00e+00	0	44	102	1048576	7	4196
2026-01-06 03:27:39.07	357.42	24.98	-23.8	-25.1	18.6	0.00e+00	0	44	102	1048576	7	4180
2026-01-06 03:27:40.07	357.25	25.11	-23.8	-25.1	18.6	0.00e+00	0	44	102	1048576	7	4183
2026-01-06 03:27:41.08	357.08	25.25	-23.6	-24.8	18.8	0.00e+00	0	44	102	1048576	7	4107
2026-01-06 03:27:42.08	356.91	25.38	-23.7	-24.9	18.8	0.00e+00	0	43	102	1048576	7	4125
2026-01-06 03:27:43.09	356.73	25.51	-23.8	-25.1	18.6	0.00e+00	0	44	102	1048576	7	4192
2026-01-06 03:27:44.10	356.56	25.64	-23.6	-24.7	18.9	0.00e+00	0	44	102	1048576	7	4083
2026-01-06 03:27:45.10	356.38	25.78	-23.5	-24.6	18.9	0.00e+00	0	43	102	1048576	7	4060
2026-01-06 03:27:46.10	356.21	25.91	-23.6	-24.7	18.9	1.10e-06	0	44	102	1048576	7	4078
2026-01-06 03:27:47.11	356.03	26.04	-23.7	-24.9	18.7	0.00e+00	0	44	102	1048576	7	4137
2026-01-06 03:27:48.11	355.85	26.18	-23.5	-24.5	19.0	0.00e+00	0	44	102	1048576	7	4040
2026-01-06 03:27:49.11	355.66	26.31	-23.4	-24.3	19.0	0.00e+00	0	44	102	1048576	7	4000
2026-01-06 03:27:50.11	355.48	26.44	-23.5	-24.4	19.0	0.00e+00	0	43	102	1048576	7	4017
2026-01-06 03:27:51.12	355.29	26.58	-23.5	-24.4	19.0	0.00e+00	0	44	102	1048576	7	4017
2026-01-06 03:27:52.12	355.11	26.71	-23.4	-24.4	19.0	0.00e+00	0	44	102	1048576	7	4010
2026-01-06 03:27:53.13	354.92	26.85	-23.5	-24.4	19.0	0.00e+00	0	44	102	1048576	7	4015
2026-01-06 03:27:54.13	354.73	26.98	-23.6	-24.6	18.9	0.00e+00	0	43	102	1048576	7	4066
2026-01-06 03:27:55.13	354.54	27.12	-23.4	-24.2	19.1	0.00e+00	0	43	102	1048576	7	3960
2026-01-06 03:27:56.14	354.34	27.26	-23.2	-23.9	19.3	0.00e+00	0	43	102	1048576	7	3894
2026-01-06 03:27:57.14	354.15	27.39	-23.3	-24.0	19.2	0.00e+00	0	43	102	1048576	7	3928
2026-01-06 03:27:58.15	353.95	27.53	-23.3	-24.1	19.2	0.00e+00	0	44	102	1048576	7	3932
2026-01-06 03:27:59.16	353.75	27.67	-23.3	-24.0	19.2	0.00e+00	0	43	102	1048576	7	3924
2026-01-06 03:28:00.16	353.55	27.81	-23.3	-24.1	19.2	0.00e+00	0	44	102	1048576	7	3946
2026-01-06 03:28:01.17	353.35	27.94	-23.3	-24.1	19.2	0.00e+00	0	44	102	1048576	7	3944
2026-01-06 03:28:02.17	353.14	28.08	-23.2	-23.9	19.3	0.00e+00	0	44	102	1048576	7	3885
2026-01-06 03:28:03.18	352.94	28.22	-23.2	-23.8	19.3	0.00e+00	0	43	102	1048576	7	3874
2026-01-06 03:28:04.19	352.73	28.36	-23.2	-23.9	19.3	0.00e+00	0	44	102	1048576	7	3893
2026-01-06 03:28:05.19	352.52	28.50	-23.1	-23.7	19.4	8.00e-06	0	44	102	1048576	7	3840
2026-01-06 03:28:06.20	352.30	28.64	-23.2	-23.9	19.3	0.00e+00	0	44	102	1048576	7	3885
2026-01-06 03:28:07.21	352.09	28.78	-23.4	-24.2	19.1	5.49e-05	0	43	102	1048576	7	3973
2026-01-06 03:28:08.21	351.88	28.92	-23.3	-24.0	19.2	0.00e+00	0	44	102	1048576	7	3923
2026-01-06 03:28:09.22	351.66	29.06	-23.3	-24.0	19.2	0.00e+00	0	44	102	1048576	7	3924
2026-01-06 03:28:10.23	351.44	29.20	-23.4	-24.3	19.1	2.33e-04	0	43	102	1048576	7	3987
2026-01-06 03:28:11.23	351.22	29.34	-23.4	-24.2	19.1	0.00e+00	0	44	102	1048576	7	3967
2026-01-06 03:28:12.24	350.99	29.48	-23.3	-24.1	19.2	0.00e+00	0	44	102	1048576	7	3937
2026-01-06 03:28:13.25	350.77	29.62	-23.3	-24.1	19.2	0.00e+00	0	44	102	1048576	7	3933
2026-01-06 03:28:14.26	350.54	29.77	-23.2	-23.9	19.3	2.62e-04	0	44	102	1048576	7	3896
2026-01-06 03:28:15.27	350.31	29.91	-22.9	-23.3	19.6	0.00e+00	0	44	102	1048576	7	3754
2026-01-06 03:28:16.28	350.07	30.05	-22.9	-23.6	19.7	0.00e+00	0	44	102	1048576	6	3938
2026-01-06 03:28:17.29	349.84	30.19	-23.0	-23.9	19.6	0.00e+00	0	44	102	1048576	6	3995
2026-01-06 03:28:18.30	349.60	30.34	-23.1	-24.1	19.4	0.00e+00	0	44	102	1048576	6	4060
2026-01-06 03:28:19.31	349.36	30.48	-23.1	-24.2	19.4	0.00e+00	0	44	102	1048576	6	4068
2026-01-06 03:28:20.32	349.12	30.62	-23.1	-24.2	19.4	0.00e+00	0	44	102	1048576	6	4080
2026-01-06 03:28:21.32	348.88	30.76	-23.1	-24.2	19.4	0.00e+00	0	44	102	1048576	6	4079
2026-01-06 03:28:22.32	348.64	30.90	-23.2	-24.4	19.3	0.00e+00	0	44	102	1048576	6	4128
2026-01-06 03:28:23.33	348.39	31.05	-23.2	-24.4	19.3	0.00e+00	0	44	102	1048576	6	4126
2026-01-06 03:28:24.34	348.14	31.19	-23.2	-24.4	19.3	0.00e+00	0	44	102	1048576	6	4116
2026-01-06 03:28:25.34	347.89	31.33	-23.0	-23.9	19.6	0.00e+00	0	44	102	1048576	6	3999
2026-01-06 03:28:26.34	347.64	31.48	-22.9	-23.8	19.7	0.00e+00	0	44	102	1048576	6	3965
2026-01-06 03:28:27.35	347.38	31.62	-22.9	-23.8	19.7	0.00e+00	0	44	102	1048576	6	3968
2026-01-06 03:28:28.36	347.13	31.76	-22.9	-23.7	19.7	0.00e+00	0	44	102	1048576	6	3946
2026-01-06 03:28:29.37	346.86	31.91	-23.0	-24.0	19.5	0.00e+00	0	44	102	1048576	6	4028
2026-01-06 03:28:30.38	346.60	32.05	-23.2	-24.4	19.4	0.00e+00	0	44	102	1048576	6	4113
2026-01-06 03:28:31.38	346.34	32.19	-23.2	-24.3	19.4	0.00e+00	0	44	102	1048576	6	4106
2026-01-06 03:28:32.39	346.07	32.34	-23.0	-24.0	19.6	0.00e+00	0	43	102	1048576	6	4026
2026-01-06 03:28:33.40	345.80	32.48	-23.0	-24.0	19.6	0.00e+00	0	44	102	1048576	6	4027
2026-01-06 03:28:34.41	345.52	32.62	-23.0	-23.9	19.5	0.00e+00	0	44	102	1048576	6	4010
2026-01-06 03:28:35.41	345.25	32.77	-22.9	-23.8	19.7	0.00e+00	0	44	102	1048576	6	3970
2026-01-06 03:28:36.42	344.97	32.91	-23.0	-24.0	19.6	0.00e+00	0	43	102	1048576	6	4031
2026-01-06 03:28:37.42	344.70	33.05	-23.1	-24.1	19.5	0.00e+00	0	44	102	1048576	6	4049
2026-01-06 03:28:38.43	344.41	33.19	-23.1	-24.2	19.4	0.00e+00	0	44	102	1048576	6	4086
2026-01-06 03:28:39.44	344.13	33.34	-23.3	-24.5	19.3	0.00e+00	0	44	102	1048576	6	4142
2026-01-06 03:28:40.45	343.84	33.48	-23.1	-24.2	19.4	0.00e+00	0	44	102	1048576	6	4085
2026-01-06 03:28:41.45	343.55	33.62	-23.0	-23.9	19.6	0.00e+00	0	44	102	1048576	6	4012
2026-01-06 03:28:42.46	343.26	33.76	-23.0	-23.9	19.6	0.00e+00	0	44	102	1048576	6	3990
2026-01-06 03:28:43.47	342.96	33.91	-22.9	-23.7	19.7	0.00e+00	0	44	102	1048576	6	3959
2026-01-06 03:28:44.48	342.66	34.05	-22.9	-23.7	19.7	0.00e+00	0	44	102	1048576	6	3957
2026-01-06 03:28:45.48	342.37	34.19	-22.9	-23.8	19.6	0.00e+00	0	44	102	1048576	6	3982
2026-01-06 03:28:46.49	342.06	34.33	-22.8	-23.5	19.8	0.00e+00	0	44	102	1048576	6	3905
2026-01-06 03:28:47.49	341.76	34.47	-22.7	-23.3	19.9	0.00e+00	0	44	102	1048576	6	3863
2026-01-06 03:28:48.50	341.45	34.61	-22.8	-23.5	19.8	0.00e+00	0	44	102	1048576	6	3915
2026-01-06 03:28:49.51	341.14	34.75	-22.8	-23.5	19.8	0.00e+00	0	44	102	1048576	6	3907
2026-01-06 03:28:50.52	340.82	34.89	-22.6	-23.1	20.0	0.00e+00	0	44	102	1048576	6	3809
2026-01-06 03:28:51.52	340.51	35.03	-22.5	-23.0	20.1	0.00e+00	0	44	102	1048576	6	3783
2026-01-06 03:28:52.52	340.19	35.17	-22.7	-23.2	20.0	0.00e+00	0	44	102	1048576	6	3845
2026-01-06 03:28:53.52	339.87	35.31	-22.7	-23.9	19.9	0.00e+00	0	44	102	1048576	5	4108
2026-01-06 03:28:54.53	339.55	35.45	-22.9	-24.1	19.7	0.00e+00	0	44	102	1048576	5	4174
2026-01-06 03:28:55.53	339.22	35.58	-23.0	-23.9	19.6	0.00e+00	0	44	102	1048576	6	3992
2026-01-06 03:28:56.54	338.89	35.72	-22.8	-23.5	19.9	0.00e+00	0	44	102	1048576	6	3907
2026-01-06 03:28:57.54	338.56	35.86	-22.7	-23.8	19.9	0.00e+00	0	44	102	1048576	5	4078
2026-01-06 03:28:58.55	338.22	35.99	-22.6	-23.6	20.0	0.00e+00	0	44	102	1048576	5	4032
2026-01-06 03:28:59.55	337.89	36.13	-22.5	-23.5	20.1	0.00e+00	0	44	102	1048576	5	4006
2026-01-06 03:29:00.55	337.55	36.26	-22.5	-23.5	20.1	0.00e+00	0	44	102	1048576	5	4016
2026-01-06 03:29:01.56	337.20	36.40	-22.5	-23.5	20.1	2.23e-04	0	44	102	1048576	5	4021
2026-01-06 03:29:02.57	336.85	36.53	-22.6	-23.5	20.0	0.00e+00	0	44	102	1048576	5	4021
2026-01-06 03:29:03.58	336.50	36.67	-22.5	-23.4	20.1	1.44e-04	0	44	102	1048576	5	4000
2026-01-06 03:29:04.58	336.15	36.80	-22.5	-23.5	20.1	0.00e+00	0	44	102	1048576	5	4002
2026-01-06 03:29:05.59	335.79	36.93	-22.5	-23.3	20.2	0.00e+00	0	44	102	1048576	5	3970
2026-01-06 03:29:06.60	335.43	37.06	-22.6	-23.5	20.1	0.00e+00	0	44	102	1048576	5	4010
2026-01-06 03:29:07.60	335.07	37.19	-22.7	-23.8	19.9	1.62e-04	0	44	102	1048576	5	4083
2026-01-06 03:29:08.61	334.71	37.32	-22.9	-24.2	19.7	0.00e+00	0	44	102	1048576	5	4198
2026-01-06 03:29:09.61	334.34	37.45	-23.0	-23.9	19.6	0.00e+00	0	44	102	1048576	6	4012
2026-01-06 03:29:10.63	333.97	37.58	-23.0	-23.9	19.7	2.29e-04	0	44	102	1048576	6	3992
2026-01-06 03:29:11.63	333.60	37.71	-23.0	-23.9	19.7	0.00e+00	0	44	102	1048576	6	3991
2026-01-06 03:29:12.63	333.22	37.83	-23.0	-24.0	19.6	1.90e-04	0	44	102	1048576	6	4014
2026-01-06 03:29:13.64	332.84	37.96	-22.9	-23.8	19.7	1.65e-04	0	44	102	1048576	6	3971
2026-01-06 03:29:14.65	332.46	38.08	-22.7	-23.4	19.9	0.00e+00	0	44	102	1048576	6	3877
2026-01-06 03:29:15.65	332.08	38.20	-22.9	-23.7	19.8	2.86e-04	0	44	102	1048576	6	3945
2026-01-06 03:29:16.66	331.69	38.33	-23.0	-24.0	19.6	3.05e-04	0	44	102	1048576	6	4018
2026-01-06 03:29:17.66	331.30	38.45	-23.0	-24.0	19.6	0.00e+00	0	44	102	1048576	6	4022
2026-01-06 03:29:18.67	330.90	38.57	-23.0	-23.9	19.7	0.00e+00	0	44	102	1048576	6	3998
2026-01-06 03:29:19.68	330.50	38.69	-23.0	-24.0	19.6	3.95e-04	0	44	102	1048576	6	4011
2026-01-06 03:29:20.69	330.10	38.81	-22.9	-23.7	19.8	0.00e+00	0	44	102	1048576	6	3941
2026-01-06 03:29:21.69	329.70	38.92	-22.8	-24.1	19.8	5.83e-04	0	44	102	1048576	5	4158
2026-01-06 03:29:22.70	329.30	39.04	-23.0	-24.0	19.6	5.31e-04	0	44	102	1048576	6	4029
2026-01-06 03:29:23.71	328.89	39.15	-23.4	-24.7	19.3	0.00e+00	0	43	102	1048576	6	4199
2026-01-06 03:29:24.72	328.47	39.26	-23.2	-24.4	19.4	2.96e-04	0	44	102	1048576	6	4110
2026-01-06 03:29:25.72	328.06	39.37	-23.1	-24.2	19.5	0.00e+00	0	44	102	1048576	6	4061
2026-01-06 03:29:26.72	327.65	39.48	-23.0	-23.9	19.7	0.00e+00	0	44	102	1048576	6	4002
2026-01-06 03:29:27.73	327.23	39.59	-23.0	-23.8	19.7	0.00e+00	0	44	102	1048576	6	3986
2026-01-06 03:29:28.74	326.80	39.70	-23.0	-23.9	19.7	5.62e-04	0	44	102	1048576	6	3991
2026-01-06 03:29:29.75	326.37	39.81	-23.0	-23.9	19.7	0.00e+00	0	44	102	1048576	6	3995
2026-01-06 03:29:30.76	325.94	39.91	-22.8	-23.4	19.9	7.60e-04	0	44	102	1048576	6	3885
2026-01-06 03:29:31.76	325.52	40.01	-22.6	-23.6	20.0	8.09e-04	0	44	102	1048576	5	4026
2026-01-06 03:29:32.77	325.08	40.11	-22.7	-23.7	20.0	0.00e+00	0	44	102	1048576	5	4069
2026-01-06 03:29:33.77	324.65	40.21	-22.7	-23.8	20.0	7.48e-04	0	44	102	1048576	5	4082
2026-01-06 03:29:34.78	324.21	40.31	-22.8	-24.1	19.8	0.00e+00	0	44	102	1048576	5	4162
2026-01-06 03:29:35.79	323.76	40.41	-22.8	-24.0	19.8	0.00e+00	0	44	102	1048576	5	4141
2026-01-06 03:29:36.79	323.32	40.50	-22.7	-23.8	19.9	0.00e+00	0	44	102	1048576	5	4094
2026-01-06 03:29:37.80	322.87	40.60	-22.8	-24.0	19.9	0.00e+00	0	44	102	1048576	5	4131
2026-01-06 03:29:38.81	322.42	40.69	-22.6	-23.7	20.0	0.00e+00	0	44	102	1048576	5	4053
2026-01-06 03:29:39.82	321.97	40.78	-22.5	-23.4	20.1	0.00e+00	0	44	102	1048576	5	3997
2026-01-06 03:29:40.83	321.51	40.86	-22.5	-23.4	20.1	0.00e+00	0	44	102	1048576	5	3996
2026-01-06 03:29:41.84	321.05	40.95	-22.4	-23.2	20.2	0.00e+00	0	44	102	1048576	5	3952
2026-01-06 03:29:42.85	320.59	41.03	-22.5	-23.4	20.1	0.00e+00	0	44	102	1048576	5	3988
2026-01-06 03:29:43.85	320.13	41.12	-22.6	-23.5	20.1	0.00e+00	0	44	102	1048576	5	4012
2026-01-06 03:29:44.86	319.66	41.20	-22.7	-23.7	20.0	0.00e+00	0	44	102	1048576	5	4063
2026-01-06 03:29:45.87	319.20	41.27	-22.8	-24.0	19.8	0.00e+00	0	44	102	1048576	5	4141
2026-01-06 03:29:46.88	318.72	41.35	-22.6	-23.6	20.0	0.00e+00	0	44	102	1048576	5	4045
2026-01-06 03:29:47.88	318.26	41.42	-22.6	-23.6	20.0	0.00e+00	0	44	102	1048576	5	4034
2026-01-06 03:29:48.89	317.78	41.49	-22.6	-23.7	20.0	0.00e+00	0	44	102	1048576	5	4056
2026-01-06 03:29:49.90	317.30	41.56	-22.6	-23.6	20.1	0.00e+00	0	44	102	1048576	5	4040
2026-01-06 03:29:50.90	316.83	41.63	-22.5	-23.4	20.2	0.00e+00	0	44	102	1048576	5	3997
2026-01-06 03:29:51.91	316.35	41.70	-22.5	-23.5	20.1	0.00e+00	0	44	102	1048576	5	3998
2026-01-06 03:29:52.92	315.87	41.76	-22.3	-22.9	20.4	0.00e+00	0	44	102	1048576	5	3873
2026-01-06 03:29:53.92	315.39	41.82	-22.5	-23.3	20.2	0.00e+00	0	44	102	1048576	5	3969
2026-01-06 03:29:54.93	314.90	41.88	-22.4	-23.2	20.2	0.00e+00	0	44	102	1048576	5	3947
2026-01-06 03:29:55.94	314.41	41.94	-22.5	-23.5	20.1	0.00e+00	0	44	102	1048576	5	4006
2026-01-06 03:29:56.94	313.92	41.99	-22.4	-23.2	20.3	0.00e+00	0	44	102	1048576	5	3941
2026-01-06 03:29:57.95	313.43	42.04	-22.3	-23.0	20.4	0.00e+00	0	44	102	1048576	5	3899
2026-01-06 03:29:58.96	312.94	42.09	-22.4	-23.2	20.3	0.00e+00	0	44	102	1048576	5	3951
2026-01-06 03:29:59.96	312.45	42.14	-22.5	-23.5	20.1	0.00e+00	0	44	102	1048576	5	4005
2026-01-06 03:30:00.97	311.95	42.19	-23.1	-24.1	19.6	0.00e+00	0	44	102	1048576	6	4060
2026-01-06 03:30:01.98	311.45	42.23	-22.9	-23.7	19.8	0.00e+00	0	44	102	1048576	6	3952
2026-01-06 03:30:02.98	310.96	42.27	-22.7	-23.3	20.0	0.00e+00	0	44	102	1048576	6	3849
2026-01-06 03:30:04.00	310.45	42.31	-22.7	-23.8	20.0	0.00e+00	0	44	102	1048576	5	4077
2026-01-06 03:30:05.00	309.96	42.34	-22.6	-23.6	20.0	0.00e+00	0	44	102	1048576	5	4048
2026-01-06 03:30:06.01	309.45	42.38	-22.4	-23.2	20.2	0.00e+00	0	44	102	1048576	5	3955
2026-01-06 03:30:07.01	308.96	42.41	-22.2	-22.7	20.5	0.00e+00	0	44	102	1048576	5	3830
2026-01-06 03:30:08.02	308.45	42.44	-22.2	-22.8	20.5	0.00e+00	0	44	102	1048576	5	3837
2026-01-06 03:30:09.03	307.95	42.46	-22.5	-23.4	20.2	0.00e+00	0	44	102	1048576	5	3982
2026-01-06 03:30:10.03	307.44	42.48	-22.5	-23.5	20.2	0.00e+00	0	44	102	1048576	5	4002
2026-01-06 03:30:11.04	306.94	42.50	-22.9	-24.1	19.8	0.00e+00	0	44	102	1048576	5	4160
2026-01-06 03:30:12.04	306.44	42.52	-22.7	-23.8	20.0	0.00e+00	0	44	102	1048576	5	4076
2026-01-06 03:30:13.05	305.93	42.54	-22.8	-23.9	19.9	0.00e+00	0	44	102	1048576	5	4120
2026-01-06 03:30:14.05	305.42	42.55	-22.7	-23.8	20.0	0.00e+00	0	44	102	1048576	5	4082
2026-01-06 03:30:15.06	304.91	42.56	-22.7	-23.8	20.0	0.00e+00	0	44	102	1048576	5	4077
2026-01-06 03:30:16.07	304.40	42.57	-22.5	-23.3	20.2	0.00e+00	0	44	102	1048576	5	3965
2026-01-06 03:30:17.08	303.90	42.58	-22.5	-23.3	20.2	0.00e+00	0	44	102	1048576	5	3957
2026-01-06 03:30:18.08	303.39	42.58	-22.8	-24.0	19.9	0.00e+00	0	44	102	1048576	5	4143
2026-01-06 03:30:19.08	302.89	42.58	-22.9	-24.1	19.8	0.00e+00	0	44	102	1048576	5	4176
2026-01-06 03:30:20.09	302.38	42.58	-22.8	-24.1	19.8	0.00e+00	0	44	102	1048576	5	4148
2026-01-06 03:30:21.10	301.87	42.57	-22.9	-24.2	19.8	0.00e+00	0	44	102	1048576	5	4178
2026-01-06 03:30:22.10	301.36	42.57	-23.2	-24.4	19.4	0.00e+00	0	44	102	1048576	6	4120
2026-01-06 03:30:23.11	300.85	42.56	-22.9	-23.8	19.7	0.00e+00	0	44	102	1048576	6	3974
2026-01-06 03:30:24.11	300.35	42.55	-22.4	-23.3	20.2	0.00e+00	0	44	102	1048576	5	3960
2026-01-06 03:30:25.12	299.84	42.53	-22.0	-22.4	20.6	1.83e-05	0	44	102	1048576	5	3762
2026-01-06 03:30:26.13	299.33	42.51	-22.0	-22.3	20.7	0.00e+00	0	44	102	1048576	5	3745
2026-01-06 03:30:27.13	298.83	42.49	-22.1	-22.6	20.5	0.00e+00	0	44	102	1048576	5	3813
2026-01-06 03:30:28.13	298.33	42.47	-22.2	-22.8	20.5	1.76e-04	0	44	102	1048576	5	3851
2026-01-06 03:30:29.14	297.82	42.45	-22.4	-23.2	20.3	0.00e+00	0	44	102	1048576	5	3941
2026-01-06 03:30:30.15	297.32	42.42	-22.5	-23.4	20.2	3.10e-04	0	44	102	1048576	5	3982
2026-01-06 03:30:31.16	296.81	42.39	-22.6	-23.6	20.1	0.00e+00	0	44	102	1048576	5	4037
2026-01-06 03:30:32.15	296.32	42.36	-22.2	-22.8	20.5	0.00e+00	0	44	102	1048576	5	3843
2026-01-06 03:30:33.16	295.82	42.32	-22.0	-22.8	20.7	2.55e-04	0	44	102	1048576	4	3953
2026-01-06 03:30:34.17	295.31	42.29	-22.1	-23.0	20.6	2.31e-04	0	44	102	1048576	4	4011
2026-01-06 03:30:35.17	294.82	42.25	-22.0	-22.9	20.7	0.00e+00	0	44	102	1048576	4	3977
2026-01-06 03:30:36.18	294.32	42.21	-22.0	-22.8	20.7	2.87e-04	0	44	102	1048576	4	3960
2026-01-06 03:30:37.18	293.83	42.16	-22.2	-23.2	20.5	4.55e-04	0	44	102	1048576	4	4051
2026-01-06 03:30:38.19	293.33	42.12	-22.2	-23.2	20.5	0.00e+00	0	44	102	1048576	4	4043
2026-01-06 03:30:39.20	292.84	42.07	-22.3	-23.5	20.3	2.86e-04	0	44	102	1048576	4	4129
2026-01-06 03:30:40.21	292.34	42.02	-22.0	-22.9	20.6	1.83e-04	0	44	102	1048576	4	3969
2026-01-06 03:30:41.22	291.85	41.96	-22.0	-22.8	20.7	0.00e+00	0	44	102	1048576	4	3961
2026-01-06 03:30:42.21	291.37	41.91	-22.1	-23.1	20.5	2.15e-04	0	44	102	1048576	4	4023
2026-01-06 03:30:43.22	290.88	41.85	-22.3	-23.5	20.4	2.79e-04	0	44	102	1048576	4	4124
2026-01-06 03:30:44.22	290.40	41.79	-22.5	-23.4	20.1	0.00e+00	0	44	102	1048576	5	3996
2026-01-06 03:30:45.23	289.92	41.73	-22.2	-22.7	20.5	0.00e+00	0	44	102	1048576	5	3837
2026-01-06 03:30:46.23	289.44	41.66	-22.0	-22.9	20.7	3.32e-04	0	44	102	1048576	4	3976
2026-01-06 03:30:47.24	288.96	41.60	-22.0	-22.9	20.6	0.00e+00	0	44	102	1048576	4	3972
2026-01-06 03:30:48.24	288.48	41.53	-22.0	-22.9	20.7	2.78e-04	0	44	102	1048576	4	3968
2026-01-06 03:30:49.25	288.01	41.46	-22.1	-23.1	20.5	0.00e+00	0	44	102	1048576	4	4038
2026-01-06 03:30:50.25	287.54	41.38	-22.1	-23.1	20.5	0.00e+00	0	44	102	1048576	4	4034
2026-01-06 03:30:51.26	287.06	41.31	-22.1	-23.1	20.5	1.17e-04	0	44	102	1048576	4	4031
2026-01-06 03:30:52.27	286.59	41.23	-22.1	-23.0	20.6	0.00e+00	0	44	102	1048576	4	4002
2026-01-06 03:30:53.28	286.13	41.15	-22.2	-23.2	20.5	0.00e+00	0	44	102	1048576	4	4054
2026-01-06 03:30:54.28	285.67	41.07	-22.2	-23.2	20.5	0.00e+00	0	44	102	1048576	4	4060
2026-01-06 03:30:55.29	285.20	40.99	-22.2	-23.2	20.5	5.54e-04	0	44	102	1048576	4	4050
2026-01-06 03:30:56.29	284.75	40.90	-22.0	-22.8	20.6	0.00e+00	0	44	102	1048576	4	3968
2026-01-06 03:30:57.30	284.29	40.82	-22.0	-22.8	20.6	0.00e+00	0	44	102	1048576	4	3963
2026-01-06 03:30:58.30	283.84	40.73	-22.0	-22.8	20.6	0.00e+00	0	44	102	1048576	4	3966
2026-01-06 03:30:59.31	283.38	40.64	-22.0	-22.9	20.6	0.00e+00	0	44	102	1048576	4	3968
2026-01-06 03:31:00.32	282.93	40.55	-22.1	-23.1	20.5	5.97e-04	0	44	102	1048576	4	4028
2026-01-06 03:31:01.33	282.48	40.45	-22.1	-23.0	20.6	0.00e+00	0	44	102	1048576	4	4007
2026-01-06 03:31:02.33	282.04	40.36	-22.1	-23.0	20.6	0.00e+00	0	44	102	1048576	4	3994
2026-01-06 03:31:03.34	281.60	40.26	-22.1	-23.0	20.5	0.00e+00	0	44	102	1048576	4	4003
2026-01-06 03:31:04.35	281.16	40.16	-22.2	-23.3	20.4	0.00e+00	0	44	102	1048576	4	4073
2026-01-06 03:31:05.36	280.72	40.06	-22.3	-23.5	20.3	0.00e+00	0	44	102	1048576	4	4120
2026-01-06 03:31:06.36	280.29	39.96	-22.4	-23.7	20.2	0.00e+00	0	44	102	1048576	4	4177
2026-01-06 03:31:07.37	279.86	39.85	-22.2	-23.3	20.4	0.00e+00	0	44	102	1048576	4	4071
2026-01-06 03:31:08.38	279.43	39.75	-22.2	-23.3	20.4	0.00e+00	0	44	102	1048576	4	4077
2026-01-06 03:31:09.38	279.01	39.64	-22.4	-23.6	20.3	0.00e+00	0	44	102	1048576	4	4147
2026-01-06 03:31:10.39	278.58	39.53	-22.3	-23.4	20.3	0.00e+00	0	44	102	1048576	4	4115
2026-01-06 03:31:11.40	278.16	39.42	-22.2	-23.3	20.4	0.00e+00	0	44	102	1048576	4	4076
2026-01-06 03:31:12.40	277.75	39.31	-22.2	-23.3	20.4	0.00e+00	0	44	102	1048576	4	4086
2026-01-06 03:31:13.41	277.33	39.20	-22.3	-23.4	20.3	0.00e+00	0	44	102	1048576	4	4106
2026-01-06 03:31:14.41	276.92	39.09	-22.1	-23.1	20.5	0.00e+00	0	44	102	1048576	4	4035
2026-01-06 03:31:15.42	276.51	38.97	-22.0	-22.9	20.6	0.00e+00	0	44	102	1048576	4	3981
2026-01-06 03:31:16.42	276.11	38.86	-22.0	-22.9	20.6	0.00e+00	0	44	102	1048576	4	3981
2026-01-06 03:31:17.43	275.71	38.74	-22.2	-23.2	20.4	0.00e+00	0	44	102	1048576	4	4044
2026-01-06 03:31:18.44	275.31	38.62	-22.3	-23.4	20.3	0.00e+00	0	44	102	1048576	4	4105
2026-01-06 03:31:19.44	274.91	38.50	-22.3	-23.4	20.3	0.00e+00	0	44	102	1048576	4	4115
2026-01-06 03:31:20.45	274.52	38.38	-22.1	-23.1	20.5	0.00e+00	0	44	102	1048576	4	4021
2026-01-06 03:31:21.46	274.13	38.26	-22.1	-23.1	20.4	0.00e+00	0	44	102	1048576	4	4029
2026-01-06 03:31:22.46	273.74	38.13	-22.2	-23.3	20.3	3.40e-06	0	44	102	1048576	4	4079
2026-01-06 03:31:23.47	273.35	38.01	-22.4	-23.6	20.2	0.00e+00	0	44	102	1048576	4	4157
2026-01-06 03:31:24.48	272.97	37.88	-22.5	-23.5	20.0	0.00e+00	0	44	102	1048576	5	4004
2026-01-06 03:31:25.49	272.59	37.76	-22.8	-23.9	19.8	2.20e-06	0	44	102	1048576	5	4116
2026-01-06 03:31:26.50	272.21	37.63	-22.8	-24.0	19.8	0.00e+00	0	44	102	1048576	5	4136
2026-01-06 03:31:27.50	271.84	37.50	-22.6	-23.6	20.0	0.00e+00	0	44	102	1048576	5	4032
2026-01-06 03:31:28.51	271.47	37.37	-22.5	-23.4	20.1	1.10e-06	0	44	102	1048576	5	3985
2026-01-06 03:31:29.51	271.11	37.24	-22.4	-23.2	20.1	0.00e+00	0	44	102	1048576	5	3955
2026-01-06 03:31:30.52	270.74	37.11	-22.4	-23.1	20.2	0.00e+00	0	44	102	1048576	5	3927
2026-01-06 03:31:31.53	270.38	36.98	-22.4	-23.3	20.1	0.00e+00	0	44	102	1048576	5	3960
2026-01-06 03:31:32.54	270.02	36.85	-22.5	-23.3	20.1	0.00e+00	0	44	102	1048576	5	3966
2026-01-06 03:31:33.54	269.67	36.72	-22.3	-23.0	20.3	0.00e+00	0	44	102	1048576	5	3897
2026-01-06 03:31:34.55	269.31	36.58	-22.3	-23.0	20.3	2.20e-06	0	44	102	1048576	5	3886
2026-01-06 03:31:35.56	268.96	36.45	-22.4	-23.1	20.2	0.00e+00	0	44	102	1048576	5	3924
2026-01-06 03:31:36.56	268.62	36.31	-21.8	-23.1	17.7	0.00e+00	0	44	102	1048576	4	4178
2026-01-06 03:31:37.57	268.27	36.18	-22.5	-23.4	20.0	2.20e-06	0	44	102	1048576	5	3997
2026-01-06 03:31:38.58	267.93	36.04	-22.6	-23.6	16.8	0.00e+00	0	44	102	1048576	5	4048
2026-01-06 03:31:39.58	267.60	35.91	-22.5	-23.5	19.9	0.00e+00	0	44	102	1048576	5	4011
2026-01-06 03:31:40.58	267.26	35.77	-22.4	-23.2	20.1	0.00e+00	0	44	102	1048576	5	3939
2026-01-06 03:31:41.59	266.93	35.63	-22.3	-23.1	20.2	0.00e+00	0	44	102	1048576	5	3910
2026-01-06 03:31:42.60	266.60	35.49	-22.3	-23.5	20.2	9.77e-04	0	44	102	1048576	4	4125
2026-01-06 03:31:43.61	266.27	35.35	-22.3	-23.6	20.2	0.00e+00	0	44	102	1048576	4	4139
2026-01-06 03:31:44.62	265.94	35.21	-22.3	-23.6	20.2	9.07e-04	0	44	102	1048576	4	4149
2026-01-06 03:31:45.63	265.62	35.07	-22.4	-23.6	20.1	0.00e+00	0	44	102	1048576	4	4168
2026-01-06 03:31:46.64	265.30	34.93	-22.4	-23.6	20.2	0.00e+00	0	44	102	1048576	4	4155
2026-01-06 03:31:47.64	264.99	34.79	-22.3	-23.4	20.2	5.85e-04	0	44	102	1048576	4	4102
2026-01-06 03:31:48.65	264.67	34.65	-22.3	-23.4	20.3	0.00e+00	0	44	102	1048576	4	4101
2026-01-06 03:31:49.66	264.36	34.51	-22.1	-23.1	20.4	0.00e+00	0	44	102	1048576	4	4035
2026-01-06 03:31:50.67	264.05	34.37	-22.2	-23.2	20.4	0.00e+00	0	44	102	1048576	4	4045
2026-01-06 03:31:51.67	263.75	34.23	-22.1	-23.2	20.4	2.20e-06	0	44	102	1048576	4	4051
2026-01-06 03:31:52.68	263.45	34.09	-22.1	-23.0	20.5	0.00e+00	0	44	102	1048576	4	4004
2026-01-06 03:31:53.68	263.15	33.95	-22.1	-23.1	20.4	3.19e-04	0	44	102	1048576	4	4027
2026-01-06 03:31:54.69	262.85	33.80	-22.0	-22.9	20.5	6.80e-04	0	44	102	1048576	4	3991
2026-01-06 03:31:55.70	262.56	33.66	-22.0	-22.8	20.5	0.00e+00	0	44	102	1048576	4	3970
2026-01-06 03:31:56.71	262.26	33.52	-22.1	-23.1	20.4	9.75e-04	0	44	102	1048576	4	4042
2026-01-06 03:31:57.70	261.98	33.38	-22.4	-23.6	20.1	1.08e-03	0	44	102	1048576	4	4163
2026-01-06 03:31:58.71	261.69	33.23	-22.3	-23.5	20.2	0.00e+00	0	44	102	1048576	4	4137
2026-01-06 03:31:59.72	261.41	33.09	-22.2	-23.3	20.3	1.18e-03	0	44	102	1048576	4	4083
2026-01-06 03:32:00.73	261.12	32.94	-22.4	-23.6	20.1	1.12e-03	0	44	102	1048576	4	4166
2026-01-06 03:32:01.73	260.85	32.80	-22.5	-23.4	20.0	0.00e+00	0	44	102	1048576	5	4009
2026-01-06 03:32:02.73	260.57	32.66	-22.6	-23.7	19.8	1.15e-03	0	44	102	1048576	5	4077
2026-01-06 03:32:03.74	260.30	32.51	-22.5	-23.5	19.9	1.07e-03	0	44	102	1048576	5	4021
2026-01-06 03:32:04.74	260.03	32.37	-22.5	-23.5	19.9	0.00e+00	0	44	102	1048576	5	4011
2026-01-06 03:32:05.75	259.75	32.23	-22.7	-23.8	19.8	6.24e-04	0	44	102	1048576	5	4092
2026-01-06 03:32:06.76	259.49	32.08	-22.6	-23.5	19.9	0.00e+00	0	44	102	1048576	5	4011
2026-01-06 03:32:07.76	259.22	31.94	-22.4	-23.1	20.1	0.00e+00	0	44	102	1048576	5	3926
2026-01-06 03:32:08.77	258.96	31.80	-22.3	-23.1	20.1	1.53e-04	0	44	102	1048576	5	3911
2026-01-06 03:32:09.78	258.70	31.65	-22.5	-23.4	20.0	1.57e-04	0	44	102	1048576	5	3981
2026-01-06 03:32:10.78	258.44	31.51	-22.5	-23.5	19.9	0.00e+00	0	44	102	1048576	5	4015
2026-01-06 03:32:11.79	258.19	31.37	-22.7	-23.8	19.8	0.00e+00	0	44	102	1048576	5	4080
2026-01-06 03:32:12.79	257.94	31.22	-22.6	-23.7	19.8	2.35e-04	0	44	102	1048576	5	4058
2026-01-06 03:32:13.80	257.68	31.08	-22.7	-23.8	19.8	0.00e+00	0	44	102	1048576	5	4090
2026-01-06 03:32:14.81	257.43	30.93	-22.9	-24.1	19.6	2.75e-04	0	44	102	1048576	5	4172
2026-01-06 03:32:15.81	257.19	30.79	-22.8	-24.1	19.6	3.40e-06	0	44	102	1048576	5	4159
2026-01-06 03:32:16.82	256.94	30.65	-22.9	-24.3	19.6	0.00e+00	0	44	102	1048576	5	4205
2026-01-06 03:32:17.83	256.70	30.50	-23.0	-24.4	19.5	0.00e+00	0	44	102	1048576	5	4248
2026-01-06 03:32:18.84	256.46	30.36	-22.9	-23.8	19.5	3.40e-06	0	44	102	1048576	6	3977
2026-01-06 03:32:19.84	256.22	30.22	-22.9	-23.7	19.6	0.00e+00	0	44	102	1048576	6	3950
2026-01-06 03:32:20.85	255.99	30.08	-22.9	-23.8	19.5	0.00e+00	0	44	102	1048576	6	3981
2026-01-06 03:32:21.86	255.75	29.93	-23.2	-24.3	19.3	1.35e-04	0	44	102	1048576	6	4091
2026-01-06 03:32:22.86	255.52	29.79	-23.0	-24.0	19.4	0.00e+00	0	44	102	1048576	6	4031
2026-01-06 03:32:23.87	255.29	29.65	-23.2	-24.3	19.3	0.00e+00	0	44	102	1048576	6	4091
2026-01-06 03:32:24.88	255.06	29.51	-22.9	-23.8	19.5	6.80e-06	0	44	102	1048576	6	3964
2026-01-06 03:32:25.88	254.84	29.37	-22.7	-23.4	19.7	0.00e+00	0	44	102	1048576	6	3880
2026-01-06 03:32:26.88	254.62	29.23	-22.7	-23.3	19.8	0.00e+00	0	44	102	1048576	6	3850
2026-01-06 03:32:27.89	254.40	29.08	-22.9	-23.7	19.6	5.70e-06	0	44	102	1048576	6	3946
2026-01-06 03:32:28.90	254.18	28.94	-22.7	-23.4	19.7	0.00e+00	0	44	102	1048576	6	3890
2026-01-06 03:32:29.90	253.96	28.80	-22.7	-23.4	19.7	0.00e+00	0	44	102	1048576	6	3882
2026-01-06 03:32:30.91	253.74	28.66	-22.7	-23.4	19.7	0.00e+00	0	44	102	1048576	6	3878
2026-01-06 03:32:31.92	253.53	28.52	-22.9	-23.7	19.6	0.00e+00	0	44	102	1048576	6	3953
2026-01-06 03:32:32.93	253.32	28.38	-22.8	-23.6	19.6	0.00e+00	0	44	102	1048576	6	3929
2026-01-06 03:32:33.93	253.11	28.24	-23.0	-24.0	19.4	0.00e+00	0	44	102	1048576	6	4024
2026-01-06 03:32:34.94	252.90	28.10	-23.0	-23.9	19.4	0.00e+00	0	44	102	1048576	6	4001
2026-01-06 03:32:35.95	252.69	27.96	-23.2	-24.3	19.2	0.00e+00	0	44	102	1048576	6	4113
2026-01-06 03:32:36.96	252.49	27.82	-23.3	-24.6	19.1	5.70e-06	0	44	102	1048576	6	4185
2026-01-06 03:32:37.96	252.28	27.68	-23.2	-24.3	19.2	0.00e+00	0	44	102	1048576	6	4103
2026-01-06 03:32:38.97	252.08	27.54	-23.1	-24.1	19.3	0.00e+00	0	44	102	1048576	6	4049
2026-01-06 03:32:39.98	251.88	27.41	-23.1	-24.2	19.3	0.00e+00	0	44	102	1048576	6	4075
2026-01-06 03:32:40.98	251.69	27.27	-23.0	-24.0	19.4	0.00e+00	0	44	102	1048576	6	4036
2026-01-06 03:32:41.99	251.49	27.13	-23.1	-24.2	19.3	0.00e+00	0	44	102	1048576	6	4068
2026-01-06 03:32:42.98	251.30	27.00	-23.2	-24.3	19.2	0.00e+00	0	44	102	1048576	6	4101
2026-01-06 03:32:43.99	251.10	26.86	-23.5	-24.9	18.9	0.00e+00	0	44	102	1048576	6	4263
2026-01-06 03:32:44.99	250.92	26.72	-23.2	-24.3	19.2	0.00e+00	0	44	102	1048576	6	4100
2026-01-06 03:32:46.00	250.73	26.59	-23.0	-23.8	19.4	0.00e+00	0	44	102	1048576	6	3988
2026-01-06 03:32:47.01	250.54	26.45	-22.9	-23.8	19.5	0.00e+00	0	44	102	1048576	6	3980
2026-01-06 03:32:48.02	250.35	26.31	-23.0	-24.0	19.4	0.00e+00	0	44	102	1048576	6	4023
2026-01-06 03:32:49.02	250.17	26.18	-23.0	-23.9	19.4	0.00e+00	0	44	102	1048576	6	4009
2026-01-06 03:32:50.03	249.98	26.05	-23.1	-24.2	19.3	0.00e+00	0	44	102	1048576	6	4068
2026-01-06 03:32:51.04	249.80	25.91	-23.1	-24.2	19.2	0.00e+00	0	44	102	1048576	6	4087
2026-01-06 03:32:52.05	249.62	25.78	-23.2	-24.3	19.2	0.00e+00	0	44	102	1048576	6	4106
2026-01-06 03:32:53.06	249.44	25.64	-23.3	-24.5	19.1	0.00e+00	0	44	102	1048576	6	4161
2026-01-06 03:32:54.06	249.27	25.51	-23.0	-24.0	19.4	0.00e+00	0	44	102	1048576	6	4014
2026-01-06 03:32:55.07	249.09	25.38	-22.9	-23.8	19.4	0.00e+00	0	44	102	1048576	6	3984
2026-01-06 03:32:56.08	248.92	25.24	-23.0	-24.0	19.3	0.00e+00	0	44	102	1048576	6	4022
2026-01-06 03:32:57.09	248.74	25.11	-23.0	-23.9	19.4	0.00e+00	0	44	102	1048576	6	4003
2026-01-06 03:32:58.09	248.57	24.98	-23.1	-24.1	19.3	0.00e+00	0	44	102	1048576	6	4049
2026-01-06 03:32:59.09	248.41	24.85	-23.1	-24.1	19.2	0.00e+00	0	44	102	1048576	6	4062
2026-01-06 03:33:00.10	248.24	24.72	-23.2	-24.3	19.2	0.00e+00	0	44	102	1048576	6	4091
2026-01-06 03:33:01.11	248.07	24.59	-23.1	-24.2	19.2	0.00e+00	0	44	102	1048576	6	4087
2026-01-06 03:33:02.12	247.91	24.45	-23.2	-24.3	19.1	3.25e-04	0	44	102	1048576	6	4104
2026-01-06 03:33:03.12	247.74	24.33	-23.4	-24.7	18.9	0.00e+00	0	44	102	1048576	6	4197
2026-01-06 03:33:04.13	247.58	24.20	-23.2	-24.3	19.2	0.00e+00	0	44	102	1048576	6	4090
2026-01-06 03:33:05.14	247.42	24.07	-23.2	-24.4	19.1	0.00e+00	0	44	102	1048576	6	4118
2026-01-06 03:33:06.14	247.26	23.94	-23.4	-24.7	19.0	7.14e-04	0	44	102	1048576	6	4199
2026-01-06 03:33:07.15	247.10	23.81	-23.2	-24.4	19.1	0.00e+00	0	44	102	1048576	6	4114
2026-01-06 03:33:08.15	246.94	23.68	-23.2	-24.4	19.1	0.00e+00	0	44	102	1048576	6	4129
2026-01-06 03:33:09.15	246.79	23.56	-23.3	-24.5	19.0	7.95e-04	0	44	102	1048576	6	4153
2026-01-06 03:33:10.16	246.64	23.43	-23.2	-24.3	19.1	0.00e+00	0	44	102	1048576	6	4093
2026-01-06 03:33:11.16	246.48	23.30	-23.1	-24.1	19.2	7.51e-04	0	44	102	1048576	6	4050
2026-01-06 03:33:12.17	246.33	23.18	-23.1	-24.1	19.2	0.00e+00	0	44	102	1048576	6	4059
2026-01-06 03:33:13.17	246.18	23.05	-23.1	-24.1	19.2	0.00e+00	0	44	102	1048576	6	4060
2026-01-06 03:33:14.17	246.03	22.93	-23.2	-24.3	19.1	6.96e-04	0	44	102	1048576	6	4110
2026-01-06 03:33:15.18	245.88	22.80	-23.2	-24.4	19.1	0.00e+00	0	44	102	1048576	6	4117
2026-01-06 03:33:16.19	245.74	22.67	-23.4	-24.7	18.9	0.00e+00	0	44	102	1048576	6	4214
2026-01-06 03:33:17.20	245.59	22.55	-23.5	-24.4	18.8	0.00e+00	0	44	102	1048576	7	4025
2026-01-06 03:33:18.20	245.45	22.43	-23.5	-24.4	18.8	2.63e-04	0	44	102	1048576	7	4022
2026-01-06 03:33:19.21	245.30	22.30	-23.5	-24.6	18.7	0.00e+00	0	44	102	1048576	7	4058
2026-01-06 03:33:20.21	245.16	22.18	-23.6	-24.7	18.7	1.82e-04	0	44	102	1048576	7	4086
2026-01-06 03:33:21.22	245.02	22.06	-23.6	-24.7	18.6	3.05e-04	0	44	102	1048576	7	4100
2026-01-06 03:33:22.23	244.88	21.93	-23.6	-24.7	18.6	0.00e+00	0	44	102	1048576	7	4092
2026-01-06 03:33:23.23	244.74	21.81	-23.8	-25.0	18.5	7.74e-04	0	44	102	1048576	7	4167
2026-01-06 03:33:24.24	244.60	21.69	-23.6	-24.7	18.6	0.00e+00	0	44	102	1048576	7	4093
2026-01-06 03:33:25.25	244.46	21.57	-23.5	-24.4	18.8	0.00e+00	0	44	102	1048576	7	4015
2026-01-06 03:33:26.25	244.33	21.45	-23.5	-24.5	18.7	0.00e+00	0	44	102	1048576	7	4042
2026-01-06 03:33:27.26	244.19	21.33	-23.6	-24.6	18.7	9.70e-04	0	44	102	1048576	7	4068
2026-01-06 03:33:28.26	244.06	21.21	-23.5	-24.6	18.7	0.00e+00	0	44	102	1048576	7	4053
2026-01-06 03:33:29.27	243.93	21.09	-23.6	-24.6	18.6	9.49e-04	0	44	102	1048576	7	4073
2026-01-06 03:33:30.28	243.80	20.97	-23.7	-24.8	18.6	9.59e-04	0	44	102	1048576	7	4114
2026-01-06 03:33:31.29	243.67	20.85	-23.7	-25.0	18.5	0.00e+00	0	44	102	1048576	7	4156
2026-01-06 03:33:32.30	243.54	20.73	-23.7	-25.0	18.4	8.22e-04	0	44	102	1048576	7	4164
2026-01-06 03:33:33.31	243.41	20.61	-23.7	-25.0	18.5	0.00e+00	0	44	102	1048576	7	4153
2026-01-06 03:33:34.31	243.28	20.50	-23.8	-25.1	18.4	0.00e+00	0	44	102	1048576	7	4190
2026-01-06 03:33:35.32	243.15	20.38	-23.9	-25.3	18.3	0.00e+00	0	44	102	1048576	7	4242
2026-01-06 03:33:36.32	243.03	20.26	-23.9	-25.3	18.2	7.71e-04	0	44	102	1048576	7	4250
2026-01-06 03:33:37.33	242.90	20.15	-24.2	-25.6	17.9	0.00e+00	0	44	102	1048576	8	4198
2026-01-06 03:33:38.34	242.78	20.03	-24.5	-25.6	17.6	0.00e+00	0	44	102	1048576	9	4081
2026-01-06 03:33:39.34	242.66	19.91	-24.2	-25.4	18.0	0.00e+00	0	44	102	1048576	8	4161
2026-01-06 03:33:40.35	242.54	19.80	-24.1	-25.4	18.0	0.00e+00	0	44	102	1048576	8	4152
2026-01-06 03:33:41.36	242.41	19.68	-24.2	-25.6	17.9	7.31e-04	0	44	102	1048576	8	4202
2026-01-06 03:33:42.37	242.29	19.57	-24.1	-25.3	18.0	0.00e+00	0	44	102	1048576	8	4125
2026-01-06 03:33:43.38	242.17	19.45	-24.2	-25.6	17.9	0.00e+00	0	44	102	1048576	8	4207
2026-01-06 03:33:44.38	242.06	19.34	-24.1	-25.3	18.0	0.00e+00	0	44	102	1048576	8	4139
2026-01-06 03:33:45.39	241.94	19.23	-24.2	-25.4	17.9	0.00e+00	0	44	102	1048576	8	4159
2026-01-06 03:33:46.40	241.82	19.12	-24.2	-25.4	18.0	0.00e+00	0	44	102	1048576	8	4157
2026-01-06 03:33:47.40	241.71	19.00	-24.1	-25.3	18.0	0.00e+00	0	44	102	1048576	8	4121
2026-01-06 03:33:48.40	241.59	18.89	-24.0	-25.2	18.0	0.00e+00	0	44	102	1048576	8	4094
2026-01-06 03:33:49.41	241.48	18.78	-24.0	-25.1	18.1	0.00e+00	0	44	102	1048576	8	4078
2026-01-06 03:33:50.42	241.37	18.67	-23.9	-24.9	18.2	0.00e+00	0	44	102	1048576	8	4038
2026-01-06 03:33:51.43	241.26	18.56	-24.0	-25.0	18.1	0.00e+00	0	44	102	1048576	8	4054
2026-01-06 03:33:52.43	241.14	18.45	-24.0	-25.1	18.1	0.00e+00	0	44	102	1048576	8	4083
2026-01-06 03:33:53.44	241.03	18.34	-24.1	-25.3	18.0	0.00e+00	0	44	102	1048576	8	4123
2026-01-06 03:33:54.45	240.92	18.23	-24.1	-25.4	17.9	0.00e+00	0	44	102	1048576	8	4150
2026-01-06 03:33:55.45	240.82	18.12	-24.2	-25.6	17.8	0.00e+00	0	44	102	1048576	8	4199
2026-01-06 03:33:56.46	240.71	18.01	-24.3	-25.8	17.7	0.00e+00	0	44	102	1048576	8	4266
2026-01-06 03:33:57.47	240.60	17.90	-24.4	-26.0	17.6	0.00e+00	0	44	102	1048576	8	4306
2026-01-06 03:33:58.47	240.49	17.79	-24.5	-26.1	17.5	0.00e+00	0	44	102	1048576	8	4345
2026-01-06 03:33:59.48	240.39	17.68	-24.7	-26.1	17.3	0.00e+00	0	44	102	1048576	9	4231
2026-01-06 03:34:00.49	240.28	17.58	-24.7	-26.1	17.2	0.00e+00	0	44	102	1048576	9	4236
2026-01-06 03:34:01.50	240.18	17.47	-24.7	-26.0	17.3	0.00e+00	0	44	102	1048576	9	4196
2026-01-06 03:34:02.51	240.08	17.36	-24.6	-25.9	17.4	0.00e+00	0	44	102	1048576	9	4169
2026-01-06 03:34:03.51	239.97	17.26	-24.6	-25.9	17.3	0.00e+00	0	44	102	1048576	9	4179
2026-01-06 03:34:04.52	239.87	17.15	-24.7	-26.0	17.3	0.00e+00	0	44	102	1048576	9	4194
2026-01-06 03:34:05.53	239.77	17.04	-24.8	-26.2	17.2	0.00e+00	0	44	102	1048576	9	4244
2026-01-06 03:34:06.53	239.67	16.94	-24.6	-25.8	17.4	0.00e+00	0	44	102	1048576	9	4132
2026-01-06 03:34:07.54	239.57	16.83	-24.6	-25.9	17.3	0.00e+00	0	44	102	1048576	9	4177
2026-01-06 03:34:08.55	239.47	16.73	-24.6	-25.9	17.4	0.00e+00	0	44	102	1048576	9	4159
2026-01-06 03:34:09.55	239.37	16.62	-24.7	-26.0	17.3	0.00e+00	0	44	102	1048576	9	4181
2026-01-06 03:34:10.56	239.28	16.52	-24.7	-26.0	17.3	0.00e+00	0	44	102	1048576	9	4188
2026-01-06 03:34:11.57	239.18	16.42	-24.7	-26.0	17.3	0.00e+00	0	44	102	1048576	9	4192
2026-01-06 03:34:12.57	239.08	16.31	-24.7	-26.0	17.2	0.00e+00	0	44	102	1048576	9	4207
2026-01-06 03:34:13.57	238.99	16.21	-24.7	-26.1	17.2	0.00e+00	0	44	102	1048576	9	4225
2026-01-06 03:34:14.57	238.89	16.11	-24.8	-26.2	17.2	0.00e+00	0	44	102	1048576	9	4240
2026-01-06 03:34:15.58	238.80	16.01	-24.8	-26.3	17.1	0.00e+00	0	44	102	1048576	9	4266
2026-01-06 03:34:16.59	238.71	15.91	-24.8	-26.4	17.1	0.00e+00	0	44	102	1048576	9	4296
2026-01-06 03:34:17.60	238.61	15.80	-24.9	-26.5	17.0	0.00e+00	0	44	102	1048576	9	4319
2026-01-06 03:34:18.61	238.52	15.70	-24.9	-26.4	17.0	0.00e+00	0	44	102	1048576	9	4319
2026-01-06 03:34:19.61	238.43	15.60	-24.9	-26.5	17.0	0.00e+00	0	44	102	1048576	9	4327
2026-01-06 03:34:20.62	238.34	15.50	-24.9	-26.6	16.9	0.00e+00	0	44	102	1048576	9	4346
2026-01-06 03:34:21.62	238.25	15.40	-25.0	-26.7	16.8	0.00e+00	0	44	102	1048576	9	4374
2026-01-06 03:34:22.62	238.16	15.30	-25.0	-26.3	16.8	0.00e+00	0	44	102	1048576	10	4155
2026-01-06 03:34:23.63	238.07	15.20	-25.0	-26.3	16.8	0.00e+00	0	44	102	1048576	10	4172
2026-01-06 03:34:24.63	237.98	15.10	-25.1	-26.4	16.7	0.00e+00	0	44	102	1048576	10	4198
2026-01-06 03:34:25.63	237.89	15.01	-25.1	-26.5	16.7	0.00e+00	0	44	102	1048576	10	4210
2026-01-06 03:34:26.63	237.81	14.91	-25.1	-26.4	16.7	0.00e+00	0	44	102	1048576	10	4196
2026-01-06 03:34:27.64	237.72	14.81	-25.2	-26.7	16.5	0.00e+00	0	44	102	1048576	10	4267
2026-01-06 03:34:28.64	237.63	14.71	-25.2	-26.7	16.5	0.00e+00	0	44	102	1048576	10	4264
2026-01-06 03:34:29.65	237.55	14.62	-25.2	-26.7	16.5	1.10e-06	0	44	102	1048576	10	4259
2026-01-06 03:34:30.66	237.46	14.52	-25.3	-26.9	16.4	0.00e+00	0	44	102	1048576	10	4325
2026-01-06 03:34:31.67	237.38	14.42	-25.4	-27.1	16.3	0.00e+00	0	44	102	1048576	10	4388
2026-01-06 03:34:32.67	237.30	14.33	-25.4	-26.6	16.3	1.10e-06	0	44	102	1048576	11	4139
2026-01-06 03:34:33.68	237.21	14.23	-25.4	-26.5	16.3	0.00e+00	0	44	102	1048576	11	4122
2026-01-06 03:34:34.69	237.13	14.13	-25.4	-27.1	16.3	5.37e-04	0	44	102	1048576	10	4379
2026-01-06 03:34:35.69	237.05	14.04	-25.4	-27.1	16.3	0.00e+00	0	44	102	1048576	10	4381
2026-01-06 03:34:36.70	236.97	13.94	-25.4	-27.1	16.3	0.00e+00	0	44	102	1048576	10	4386
2026-01-06 03:34:37.70	236.89	13.85	-25.6	-26.9	16.1	4.15e-04	0	44	102	1048576	11	4220
2026-01-06 03:34:38.71	236.80	13.75	-25.9	-27.7	15.7	0.00e+00	0	44	102	1048576	11	4425
2026-01-06 03:34:39.72	236.72	13.66	-25.7	-26.8	15.8	0.00e+00	0	44	102	1048576	12	4082
2026-01-06 03:34:40.72	236.64	13.57	-25.5	-26.9	16.1	0.00e+00	0	44	102	1048576	11	4205
2026-01-06 03:34:41.73	236.57	13.47	-25.6	-27.1	16.0	5.33e-04	0	44	102	1048576	11	4258
2026-01-06 03:34:42.74	236.49	13.38	-25.6	-26.9	16.1	0.00e+00	0	44	102	1048576	11	4222
2026-01-06 03:34:43.74	236.41	13.29	-25.6	-27.0	16.0	5.89e-04	0	44	102	1048576	11	4228
2026-01-06 03:34:44.74	236.33	13.19	-25.6	-26.9	16.0	5.54e-04	0	44	102	1048576	11	4223
2026-01-06 03:34:45.75	236.26	13.10	-25.5	-26.8	16.1	0.00e+00	0	44	102	1048576	11	4188
2026-01-06 03:34:46.76	236.18	13.01	-25.5	-26.9	16.1	5.30e-04	0	44	102	1048576	11	4209
2026-01-06 03:34:47.76	236.10	12.92	-25.5	-26.9	16.1	0.00e+00	0	44	102	1048576	11	4212
2026-01-06 03:34:48.77	236.03	12.82	-25.6	-27.0	16.0	0.00e+00	0	44	102	1048576	11	4226
2026-01-06 03:34:49.78	235.95	12.73	-25.6	-27.0	16.0	4.59e-04	0	44	102	1048576	11	4245
2026-01-06 03:34:50.79	235.88	12.64	-25.8	-27.5	15.7	4.23e-04	0	44	102	1048576	11	4361
2026-01-06 03:34:51.79	235.80	12.55	-25.7	-27.3	15.8	0.00e+00	0	44	102	1048576	11	4310
2026-01-06 03:34:52.80	235.73	12.46	-25.6	-27.1	15.9	5.31e-04	0	44	102	1048576	11	4260
2026-01-06 03:34:53.80	235.66	12.37	-25.7	-27.2	15.9	5.03e-04	0	44	102	1048576	11	4282
2026-01-06 03:34:54.82	235.58	12.28	-25.7	-27.2	15.8	0.00e+00	0	44	102	1048576	11	4302
2026-01-06 03:34:55.82	235.51	12.19	-25.7	-27.3	15.8	5.23e-04	0	44	102	1048576	11	4336
2026-01-06 03:34:56.83	235.44	12.10	-25.9	-27.7	15.6	4.78e-04	0	44	102	1048576	11	4423
2026-01-06 03:34:57.83	235.37	12.01	-25.8	-27.5	15.7	0.00e+00	0	44	102	1048576	11	4387
2026-01-06 03:34:58.83	235.30	11.93	-25.8	-27.6	15.6	4.08e-04	0	44	102	1048576	11	4394
2026-01-06 03:34:59.84	235.23	11.84	-25.9	-27.7	15.6	4.18e-04	0	44	102	1048576	11	4419
2026-01-06 03:35:00.85	235.16	11.75	-25.9	-27.8	15.5	0.00e+00	0	44	102	1048576	11	4460
2026-01-06 03:35:01.86	235.09	11.66	-25.8	-27.5	15.6	0.00e+00	0	44	102	1048576	11	4382
2026-01-06 03:35:02.87	235.02	11.57	-26.0	-27.9	15.4	3.78e-04	0	44	102	1048576	11	4497
2026-01-06 03:35:03.87	234.95	11.49	-25.8	-27.0	15.5	0.00e+00	0	44	102	1048576	12	4147
2026-01-06 03:35:04.88	234.88	11.40	-25.7	-26.7	15.7	3.63e-04	0	44	102	1048576	12	4071
2026-01-06 03:35:05.89	234.81	11.31	-25.8	-27.5	15.7	0.00e+00	0	44	102	1048576	11	4367
2026-01-06 03:35:06.89	234.75	11.23	-25.7	-27.4	15.7	0.00e+00	0	44	102	1048576	11	4340
2026-01-06 03:35:07.90	234.68	11.14	-25.8	-27.6	15.6	1.10e-06	0	44	102	1048576	11	4394
2026-01-06 03:35:08.91	234.61	11.05	-25.8	-27.6	15.6	0.00e+00	0	44	102	1048576	11	4410
2026-01-06 03:35:09.92	234.55	10.97	-25.8	-27.6	15.6	0.00e+00	0	44	102	1048576	11	4402
2026-01-06 03:35:10.93	234.48	10.88	-26.0	-27.9	15.4	0.00e+00	0	44	102	1048576	11	4501
2026-01-06 03:35:11.94	234.41	10.80	-25.8	-27.1	15.4	3.66e-04	0	44	102	1048576	12	4174
2026-01-06 03:35:12.96	234.35	10.71	-25.8	-27.0	15.5	0.00e+00	0	44	102	1048576	12	4146
2026-01-06 03:35:13.96	234.28	10.63	-26.0	-27.6	15.2	0.00e+00	0	44	102	1048576	12	4288
2026-01-06 03:35:14.96	234.22	10.54	-25.9	-27.2	15.4	0.00e+00	0	44	102	1048576	12	4207
2026-01-06 03:35:15.97	234.16	10.46	-26.1	-27.6	15.1	0.00e+00	0	44	102	1048576	12	4315
2026-01-06 03:35:16.97	234.09	10.37	-26.0	-27.4	15.3	0.00e+00	0	44	102	1048576	12	4253
2026-01-06 03:35:17.98	234.03	10.29	-26.0	-27.4	15.3	0.00e+00	0	44	102	1048576	12	4259
2026-01-06 03:35:18.99	233.97	10.21	-26.0	-27.5	15.2	0.00e+00	0	44	102	1048576	12	4277
2026-01-06 03:35:19.99	233.90	10.12	-26.1	-27.7	15.1	1.10e-06	0	44	102	1048576	12	4323
2026-01-06 03:35:21.00	233.84	10.04	-26.0	-27.5	15.2	1.10e-06	0	44	102	1048576	12	4278
2026-01-06 03:35:22.00	233.78	9.96	-26.1	-27.6	15.1	0.00e+00	0	44	102	1048576	12	4309
2026-01-06 03:35:23.01	233.72	9.87	-26.2	-27.8	15.0	1.10e-06	0	44	102	1048576	12	4372
2026-01-06 03:35:24.02	233.66	9.79	-26.1	-27.7	15.0	0.00e+00	0	44	102	1048576	12	4337
2026-01-06 03:35:25.03	233.60	9.71	-26.2	-28.0	14.9	0.00e+00	0	44	102	1048576	12	4407
2026-01-06 03:35:26.04	233.54	9.63	-26.1	-27.7	15.1	2.20e-06	0	44	102	1048576	12	4318
2026-01-06 03:35:27.04	233.48	9.55	-26.1	-27.8	15.0	0.00e+00	0	44	102	1048576	12	4351
2026-01-06 03:35:28.05	233.42	9.47	-26.1	-27.8	14.9	0.00e+00	0	44	102	1048576	12	4355
2026-01-06 03:35:29.05	233.36	9.39	-26.1	-27.8	15.0	2.20e-06	0	44	102	1048576	12	4361
2026-01-06 03:35:30.06	233.30	9.30	-26.1	-27.7	15.0	0.00e+00	0	44	102	1048576	12	4328
2026-01-06 03:35:31.07	233.24	9.22	-26.2	-27.9	14.9	1.10e-06	0	44	102	1048576	12	4395
2026-01-06 03:35:32.07	233.18	9.14	-26.1	-27.8	14.9	1.10e-06	0	44	102	1048576	12	4368
2026-01-06 03:35:33.08	233.13	9.06	-26.2	-27.9	14.9	0.00e+00	0	44	102	1048576	12	4390
2026-01-06 03:35:34.09	233.07	8.98	-26.2	-28.0	14.8	0.00e+00	0	44	102	1048576	12	4437
2026-01-06 03:35:35.10	233.01	8.90	-26.3	-28.1	14.8	0.00e+00	0	44	102	1048576	12	4442
2026-01-06 03:35:36.10	232.95	8.82	-26.2	-28.1	14.8	0.00e+00	0	44	102	1048576	12	4437
2026-01-06 03:35:37.11	232.90	8.74	-26.3	-28.3	14.6	0.00e+00	0	44	102	1048576	12	4503
2026-01-06 03:35:38.11	232.84	8.67	-26.3	-28.2	14.7	0.00e+00	0	44	102	1048576	12	4482
2026-01-06 03:35:39.12	232.79	8.59	-26.4	-28.5	14.5	0.00e+00	0	44	102	1048576	12	4569
2026-01-06 03:35:40.13	232.73	8.51	-26.5	-28.2	14.3	0.00e+00	0	44	102	1048576	13	4381
2026-01-06 03:35:41.13	232.68	8.43	-26.4	-27.9	14.5	2.20e-06	0	44	102	1048576	13	4290
2026-01-06 03:35:42.14	232.62	8.35	-26.5	-28.3	14.3	2.20e-06	0	44	102	1048576	13	4384
2026-01-06 03:35:43.14	232.57	8.27	-26.5	-28.2	14.4	1.10e-06	0	44	102	1048576	13	4375
2026-01-06 03:35:44.15	232.51	8.20	-26.5	-28.2	14.3	2.20e-06	0	44	102	1048576	13	4368
2026-01-06 03:35:45.15	232.46	8.12	-26.6	-28.3	14.3	1.10e-06	0	44	102	1048576	13	4394
2026-01-06 03:35:46.16	232.40	8.04	-26.8	-28.8	13.9	4.50e-06	0	44	102	1048576	13	4557
2026-01-06 03:35:47.17	232.35	7.97	-26.5	-28.1	14.4	2.20e-06	0	44	102	1048576	13	4352
2026-01-06 03:35:48.18	232.30	7.89	-26.5	-28.6	14.4	1.10e-06	0	44	102	1048576	12	4592
2026-01-06 03:35:49.18	232.24	7.81	-26.7	-28.6	14.1	1.10e-06	0	44	102	1048576	13	4484
2026-01-06 03:35:50.18	232.19	7.74	-26.8	-28.8	13.9	9.10e-06	0	44	102	1048576	13	4546
2026-01-06 03:35:51.18	232.14	7.66	-26.6	-28.5	14.1	6.80e-06	0	44	102	1048576	13	4447
2026-01-06 03:35:52.19	232.09	7.58	-26.6	-28.3	13.1	4.50e-06	0	44	102	1048576	13	4397
2026-01-06 03:35:53.19	232.04	7.51	-26.4	-28.0	14.3	2.20e-06	0	44	102	1048576	13	4308
2026-01-06 03:35:54.20	231.99	7.43	-26.6	-28.3	14.2	0.00e+00	0	44	102	1048576	13	4393
2026-01-06 03:35:55.21	231.93	7.36	-26.5	-28.3	14.2	2.20e-06	0	44	102	1048576	13	4390
2026-01-06 03:35:56.21	231.88	7.28	-26.6	-28.5	14.1	2.20e-06	0	44	102	1048576	13	4447
2026-01-06 03:35:57.22	231.83	7.21	-26.5	-28.2	14.3	0.00e+00	0	44	102	1048576	13	4362
2026-01-06 03:35:58.23	231.78	7.13	-26.5	-28.2	14.3	5.70e-06	0	44	102	1048576	13	4369
2026-01-06 03:35:59.23	231.73	7.06	-27.7	-30.1	12.7	4.51e-04	0	44	102	1048576	15	4719
2026-01-06 03:36:00.24	231.68	6.98	-32.9	-44.3	3.8	8.46e-01	0	44	104	1048576	25	13349
2026-01-06 03:36:01.25	231.63	6.91	-33.2	-44.5	3.8	8.46e-01	0	44	104	1048576	26	13162

#Closed at: 2026-01-06 03:36:01
#Recorded file [1 MB]: D:/data/31010_260106_062437.dat