passes_logs/2026/01/20/T1/T1__20260120_202340_FENGYUN_3G_rec.log

#Pass ID: 20260120_202340_FENGYUN 3G
#Satellite: FENGYUN 3G
#Configuration: FENGYUN 3G
#almurnet v.1.7.20251203
#Start time: 2026-01-20 20:23:42

#Version: 2.0.20230620
#Station: T1
#Location: 37.570604 lon 55.790049 lat
#TLE: 1 56232U 23055A   26020.00144243  .00036531  00000+0  56251-3 0  9990
#TLE: 2 56232  49.9940  30.1229 0004155  52.6154 307.5191 15.53783627156971

#Time	Az	El	Level	Level2	SNR	BER	BlckErr	Temp	State	Recorded	gain1	gain2
2026-01-20 20:23:42.30	237.40	5.38	-50.4	-69.3	3.8	8.47e-01	0	38	0	0	72	31549
2026-01-20 20:23:43.29	237.31	5.46	-50.3	-69.1	3.8	8.38e-01	0	38	104	0	72	30773
2026-01-20 20:23:44.28	237.22	5.53	-50.4	-68.9	3.8	8.47e-01	0	38	104	0	72	30248
2026-01-20 20:23:45.27	237.12	5.61	-50.3	-68.8	3.8	8.47e-01	0	38	104	0	72	29989
2026-01-20 20:23:46.27	237.03	5.69	-50.3	-68.8	3.8	8.47e-01	0	38	104	0	72	29927
2026-01-20 20:23:47.26	236.93	5.76	-50.3	-68.8	3.8	8.47e-01	0	38	104	0	72	29718
2026-01-20 20:23:48.25	236.84	5.84	-50.3	-68.7	3.8	8.46e-01	0	38	104	0	72	29568
2026-01-20 20:23:49.25	236.74	5.92	-50.3	-68.8	3.8	8.46e-01	0	38	104	0	72	29739
2026-01-20 20:23:50.24	236.64	6.00	-50.3	-68.8	3.8	8.46e-01	0	38	104	0	72	29696
2026-01-20 20:23:51.23	236.55	6.07	-50.3	-68.8	3.8	8.47e-01	0	38	104	0	72	29860
2026-01-20 20:23:52.22	236.45	6.15	-50.3	-68.9	3.8	8.47e-01	0	38	104	0	72	30166
2026-01-20 20:23:53.22	236.35	6.23	-50.3	-68.9	3.8	8.47e-01	0	38	104	0	72	30202
2026-01-20 20:23:54.21	236.25	6.31	-50.3	-68.9	3.8	8.46e-01	0	38	104	0	72	30084
2026-01-20 20:23:55.20	236.15	6.39	-50.3	-68.8	3.8	8.46e-01	0	38	104	0	72	29824
2026-01-20 20:23:56.20	236.04	6.47	-50.3	-68.8	3.8	8.47e-01	0	38	104	0	72	29858
2026-01-20 20:23:57.19	235.94	6.55	-50.4	-68.9	3.8	8.46e-01	0	39	104	0	72	30089
2026-01-20 20:23:58.18	235.84	6.63	-50.3	-69.0	3.8	8.46e-01	0	38	104	0	72	30411
2026-01-20 20:23:59.17	235.73	6.71	-50.3	-69.1	3.8	8.46e-01	0	38	104	0	72	30840
2026-01-20 20:24:00.17	235.63	6.79	-50.3	-69.2	3.8	8.47e-01	0	39	104	0	72	31161
2026-01-20 20:24:01.16	235.52	6.87	-50.4	-69.1	3.8	8.47e-01	0	39	104	0	72	30872
2026-01-20 20:24:02.15	235.42	6.95	-50.3	-69.0	3.8	8.47e-01	0	39	104	0	72	30700
2026-01-20 20:24:03.15	235.31	7.04	-50.3	-69.0	3.8	8.47e-01	0	38	104	0	72	30519
2026-01-20 20:24:04.14	235.20	7.12	-50.3	-69.0	3.8	8.47e-01	0	39	104	0	72	30716
2026-01-20 20:24:05.13	235.09	7.20	-50.4	-69.1	3.8	8.47e-01	0	39	104	0	72	30964
2026-01-20 20:24:06.12	234.98	7.28	-50.3	-69.0	3.8	8.46e-01	0	39	104	0	72	30456
2026-01-20 20:24:07.12	234.87	7.37	-50.3	-68.4	3.8	8.46e-01	0	39	104	0	72	28568
2026-01-20 20:24:08.11	234.76	7.45	-50.3	-67.8	3.8	8.46e-01	0	39	104	0	72	26564
2026-01-20 20:24:09.10	234.64	7.53	-50.3	-67.3	3.8	8.47e-01	0	39	104	0	72	25253
2026-01-20 20:24:10.10	234.53	7.62	-50.3	-67.2	3.8	8.46e-01	0	39	104	0	72	24786
2026-01-20 20:24:11.09	234.41	7.70	-50.3	-67.6	3.8	8.46e-01	0	39	104	0	72	26034
2026-01-20 20:24:12.08	234.30	7.79	-50.3	-68.3	3.8	8.47e-01	0	39	104	0	72	28280
2026-01-20 20:24:13.08	234.18	7.87	-50.4	-69.0	3.8	8.46e-01	0	39	104	0	72	30444
2026-01-20 20:24:14.07	234.06	7.96	-50.4	-69.0	3.8	8.46e-01	0	39	104	0	72	30386
2026-01-20 20:24:15.06	233.94	8.05	-50.3	-68.2	3.8	8.47e-01	0	39	104	0	72	27952
2026-01-20 20:24:16.05	233.82	8.13	-50.3	-67.4	3.8	8.46e-01	0	39	104	0	72	25409
2026-01-20 20:24:17.05	233.70	8.22	-50.3	-67.0	3.8	8.46e-01	0	39	104	0	72	24351
2026-01-20 20:24:18.04	233.58	8.31	-50.3	-66.7	3.9	8.45e-01	0	39	104	0	72	23493
2026-01-20 20:24:19.03	233.46	8.39	-50.2	-64.7	4.5	8.44e-01	0	39	0	0	72	18624
2026-01-20 20:24:20.02	233.34	8.48	-50.0	-61.4	6.5	8.44e-01	0	39	0	0	72	12778
2026-01-20 20:24:21.02	233.21	8.57	-49.6	-58.5	9.4	6.51e-01	0	39	0	0	71	9697
2026-01-20 20:24:22.01	233.08	8.66	-49.1	-56.2	12.0	5.13e-02	0	39	0	0	70	7816
2026-01-20 20:24:23.00	232.96	8.75	-48.6	-54.6	13.5	4.87e-04	0	39	0	0	69	6956
2026-01-20 20:24:24.00	232.83	8.84	-48.4	-54.1	14.1	4.87e-04	0	39	0	0	68	6914
2026-01-20 20:24:24.99	232.70	8.93	-48.4	-54.2	14.0	3.40e-06	0	39	0	0	68	7038
2026-01-20 20:24:25.98	232.57	9.02	-48.7	-55.1	13.2	9.10e-06	0	39	0	0	68	7750
2026-01-20 20:24:26.98	232.44	9.11	-50.3	-62.7	5.8	9.10e-06	0	39	0	0	71	15624
2026-01-20 20:24:27.97	232.31	9.20	-44.1	-46.9	21.2	8.53e-02	0	39	0	0	59	5091
2026-01-20 20:24:28.97	232.17	9.29	-50.3	-66.6	3.9	6.94e-02	0	39	0	0	71	24659
2026-01-20 20:24:29.96	232.04	9.38	-46.0	-49.4	18.4	6.94e-02	0	39	0	0	63	5386
2026-01-20 20:24:30.96	231.90	9.47	-47.5	-52.3	16.0	3.05e-01	0	39	0	0	65	6673
2026-01-20 20:24:31.95	231.76	9.57	-45.2	-48.4	19.8	0.00e+00	0	39	0	0	62	5042
2026-01-20 20:24:32.95	231.62	9.66	-44.8	-47.9	20.0	0.00e+00	0	39	0	0	61	5051
2026-01-20 20:24:33.94	231.48	9.75	-44.0	-46.8	21.2	0.00e+00	0	39	0	0	60	4706
2026-01-20 20:24:34.94	231.34	9.85	-44.2	-47.0	21.3	0.00e+00	0	39	0	0	59	5126
2026-01-20 20:24:35.93	231.20	9.94	-44.0	-46.8	21.3	0.00e+00	0	39	0	0	59	4997
2026-01-20 20:24:36.92	231.06	10.03	-43.5	-46.1	21.9	0.00e+00	0	39	0	0	58	4876
2026-01-20 20:24:37.92	230.91	10.13	-43.3	-45.9	22.1	0.00e+00	0	39	0	0	58	4766
2026-01-20 20:24:38.92	230.76	10.23	-43.4	-46.0	22.0	0.00e+00	0	39	0	0	58	4846
2026-01-20 20:24:39.91	230.62	10.32	-43.6	-46.2	21.8	0.00e+00	0	39	0	0	58	4981
2026-01-20 20:24:40.91	230.47	10.42	-43.5	-46.1	22.0	0.00e+00	0	39	0	0	58	4894
2026-01-20 20:24:41.90	230.32	10.51	-43.4	-46.0	22.0	0.00e+00	0	39	0	0	58	4852
2026-01-20 20:24:42.89	230.17	10.61	-43.3	-45.8	22.2	0.00e+00	0	39	0	0	58	4736
2026-01-20 20:24:43.89	230.01	10.71	-43.0	-45.5	22.4	0.00e+00	0	39	0	0	58	4583
2026-01-20 20:24:44.88	229.86	10.81	-42.5	-44.9	23.0	0.00e+00	0	39	0	0	57	4515
2026-01-20 20:24:45.88	229.70	10.91	-42.1	-44.5	23.4	0.00e+00	0	40	0	0	56	4550
2026-01-20 20:24:46.87	229.55	11.00	-42.2	-44.5	23.3	0.00e+00	0	39	0	0	56	4591
2026-01-20 20:24:47.87	229.39	11.10	-42.2	-44.5	23.4	0.00e+00	0	39	0	0	56	4571
2026-01-20 20:24:48.87	229.23	11.20	-42.1	-44.4	23.4	0.00e+00	0	40	0	0	56	4535
2026-01-20 20:24:49.86	229.07	11.30	-41.8	-44.1	23.6	0.00e+00	0	39	0	0	55	4613
2026-01-20 20:24:50.85	228.91	11.40	-41.5	-43.8	23.8	0.00e+00	0	40	0	0	55	4468
2026-01-20 20:24:51.85	228.74	11.50	-41.4	-43.6	24.0	0.00e+00	0	40	0	0	54	4612
2026-01-20 20:24:52.84	228.57	11.61	-41.4	-43.7	24.0	0.00e+00	0	39	0	0	54	4661
2026-01-20 20:24:53.84	228.41	11.71	-41.5	-43.7	23.9	0.00e+00	0	40	0	0	54	4678
2026-01-20 20:24:54.83	228.24	11.81	-41.4	-43.6	24.0	0.00e+00	0	40	0	0	54	4643
2026-01-20 20:24:55.83	228.07	11.91	-41.5	-43.7	23.9	0.00e+00	0	40	0	0	54	4703
2026-01-20 20:24:56.82	227.90	12.02	-41.5	-43.7	23.9	0.00e+00	0	40	0	0	54	4695
2026-01-20 20:24:57.82	227.72	12.12	-41.5	-43.7	23.9	0.00e+00	0	40	0	0	54	4700
2026-01-20 20:24:58.81	227.55	12.22	-41.4	-43.6	24.0	0.00e+00	0	40	0	0	54	4617
2026-01-20 20:24:59.81	227.37	12.33	-41.2	-43.4	24.1	0.00e+00	0	39	0	0	54	4518
2026-01-20 20:25:00.80	227.19	12.43	-41.1	-43.3	24.2	0.00e+00	0	39	0	0	54	4480
2026-01-20 20:25:01.80	227.01	12.54	-41.1	-43.3	24.2	0.00e+00	0	40	0	0	54	4483
2026-01-20 20:25:02.79	226.83	12.64	-41.1	-43.3	24.3	0.00e+00	0	40	0	0	54	4479
2026-01-20 20:25:03.79	226.64	12.75	-40.9	-43.1	24.5	0.00e+00	0	39	0	0	53	4632
2026-01-20 20:25:04.78	226.46	12.86	-40.7	-42.9	24.7	0.00e+00	0	39	0	0	53	4505
2026-01-20 20:25:05.78	226.27	12.97	-40.6	-42.7	24.8	0.00e+00	0	39	0	0	53	4434
2026-01-20 20:25:06.77	226.08	13.07	-40.6	-42.8	24.7	0.00e+00	0	40	0	0	53	4446
2026-01-20 20:25:07.77	225.89	13.18	-40.7	-42.9	24.7	0.00e+00	0	40	0	0	53	4497
2026-01-20 20:25:08.76	225.70	13.29	-40.7	-42.9	24.7	0.00e+00	0	40	0	0	53	4512
2026-01-20 20:25:09.76	225.50	13.40	-40.7	-42.8	24.8	0.00e+00	0	40	0	0	53	4463
2026-01-20 20:25:10.75	225.30	13.51	-40.8	-43.0	24.6	0.00e+00	0	39	0	0	53	4552
2026-01-20 20:25:11.75	225.10	13.62	-40.6	-42.7	24.9	0.00e+00	0	40	0	0	53	4402
2026-01-20 20:25:12.74	224.90	13.73	-40.5	-42.6	24.9	0.00e+00	0	40	0	0	53	4383
2026-01-20 20:25:13.74	224.70	13.84	-40.4	-42.5	25.0	0.00e+00	0	40	0	0	52	4550
2026-01-20 20:25:14.73	224.50	13.95	-40.3	-42.4	25.1	0.00e+00	0	40	0	0	52	4499
2026-01-20 20:25:15.72	224.29	14.06	-40.1	-42.2	25.2	0.00e+00	0	40	0	0	52	4423
2026-01-20 20:25:16.72	224.08	14.18	-40.1	-42.2	25.2	0.00e+00	0	39	0	0	52	4427
2026-01-20 20:25:17.71	223.87	14.29	-40.1	-42.1	25.3	0.00e+00	0	40	0	0	52	4385
2026-01-20 20:25:18.71	223.66	14.40	-40.1	-42.1	25.3	0.00e+00	0	39	0	0	52	4367
2026-01-20 20:25:19.70	223.44	14.51	-40.3	-42.3	25.2	0.00e+00	0	39	0	0	52	4490
2026-01-20 20:25:20.70	223.23	14.63	-40.3	-42.4	25.1	0.00e+00	0	39	0	0	52	4517
2026-01-20 20:25:21.70	223.01	14.74	-40.4	-42.5	25.1	0.00e+00	0	39	0	0	52	4566
2026-01-20 20:25:22.69	222.79	14.86	-40.4	-42.5	25.1	0.00e+00	0	40	0	0	52	4588
2026-01-20 20:25:23.69	222.56	14.97	-40.3	-42.4	25.2	0.00e+00	0	39	0	0	52	4529
2026-01-20 20:25:24.68	222.34	15.09	-40.0	-42.1	25.4	0.00e+00	0	40	0	0	52	4369
2026-01-20 20:25:25.68	222.11	15.21	-39.9	-41.9	25.6	0.00e+00	0	40	0	0	51	4535
2026-01-20 20:25:26.67	221.88	15.32	-39.9	-41.9	25.6	0.00e+00	0	39	0	0	51	4531
2026-01-20 20:25:27.67	221.64	15.44	-39.9	-41.9	25.6	0.00e+00	0	39	0	0	51	4527
2026-01-20 20:25:28.66	221.41	15.56	-39.7	-41.8	25.7	0.00e+00	0	39	0	0	51	4442
2026-01-20 20:25:29.65	221.17	15.67	-39.8	-41.8	25.7	0.00e+00	0	39	0	0	51	4456
2026-01-20 20:25:30.65	220.93	15.79	-39.9	-41.9	25.6	0.00e+00	0	40	0	0	51	4530
2026-01-20 20:25:31.64	220.69	15.91	-39.9	-42.0	25.6	0.00e+00	0	40	0	0	51	4546
2026-01-20 20:25:32.64	220.45	16.03	-40.1	-42.1	25.5	0.00e+00	0	40	0	0	51	4630
2026-01-20 20:25:33.63	220.20	16.15	-40.1	-42.1	25.4	0.00e+00	0	39	0	0	51	4644
2026-01-20 20:25:34.63	219.95	16.27	-40.1	-42.1	25.4	0.00e+00	0	40	0	0	51	4634
2026-01-20 20:25:35.62	219.70	16.39	-40.0	-42.0	25.5	0.00e+00	0	40	0	0	51	4578
2026-01-20 20:25:36.62	219.44	16.51	-39.6	-41.6	25.8	0.00e+00	0	40	0	0	51	4382
2026-01-20 20:25:37.61	219.19	16.63	-39.2	-41.2	26.1	0.00e+00	0	40	0	0	50	4401
2026-01-20 20:25:38.61	218.92	16.75	-39.3	-41.3	26.1	0.00e+00	0	40	0	0	50	4444
2026-01-20 20:25:39.60	218.66	16.88	-39.3	-41.3	26.1	0.00e+00	0	40	0	0	50	4470
2026-01-20 20:25:40.60	218.40	17.00	-39.5	-41.4	26.0	0.00e+00	0	40	0	0	50	4540
2026-01-20 20:25:41.59	218.13	17.12	-39.2	-41.2	26.2	0.00e+00	0	40	0	0	50	4418
2026-01-20 20:25:42.59	217.86	17.24	-39.2	-41.2	26.2	0.00e+00	0	39	0	0	50	4413
2026-01-20 20:25:43.58	217.59	17.37	-39.4	-41.4	26.1	0.00e+00	0	40	0	0	50	4506
2026-01-20 20:25:44.58	217.31	17.49	-39.7	-41.7	25.8	0.00e+00	0	39	0	0	50	4687
2026-01-20 20:25:45.57	217.03	17.61	-39.8	-41.9	25.7	0.00e+00	0	39	0	0	50	4775
2026-01-20 20:25:46.57	216.75	17.74	-39.8	-41.8	25.8	0.00e+00	0	40	0	0	50	4743
2026-01-20 20:25:47.56	216.46	17.86	-39.7	-41.7	25.8	0.00e+00	0	40	0	0	50	4703
2026-01-20 20:25:48.56	216.17	17.99	-39.7	-41.7	25.9	0.00e+00	0	40	0	0	50	4691
2026-01-20 20:25:49.55	215.88	18.11	-39.6	-41.6	25.9	0.00e+00	0	39	0	0	50	4636
2026-01-20 20:25:50.55	215.59	18.24	-39.5	-41.5	26.0	0.00e+00	0	39	0	0	50	4582
2026-01-20 20:25:51.54	215.29	18.36	-39.2	-41.2	26.2	0.00e+00	0	40	0	0	50	4435
2026-01-20 20:25:52.54	214.99	18.49	-39.3	-41.3	26.2	0.00e+00	0	39	0	0	50	4460
2026-01-20 20:25:53.53	214.69	18.61	-39.2	-41.2	26.2	0.00e+00	0	39	0	0	50	4409
2026-01-20 20:25:54.53	214.38	18.74	-39.0	-41.0	26.4	0.00e+00	0	40	0	0	50	4319
2026-01-20 20:25:55.52	214.08	18.87	-39.1	-41.1	26.3	0.00e+00	0	40	0	0	50	4350
2026-01-20 20:25:56.52	213.76	18.99	-39.3	-41.3	26.2	0.00e+00	0	40	0	0	50	4460
2026-01-20 20:25:57.52	213.45	19.12	-39.4	-41.4	26.1	0.00e+00	0	40	0	0	50	4523
2026-01-20 20:25:58.51	213.13	19.25	-39.6	-41.6	26.0	0.00e+00	0	39	0	0	50	4624
2026-01-20 20:25:59.51	212.80	19.37	-39.6	-41.6	26.0	0.00e+00	0	40	0	0	50	4603
2026-01-20 20:26:00.50	212.48	19.50	-39.4	-41.4	26.1	0.00e+00	0	40	0	0	50	4509
2026-01-20 20:26:01.49	212.15	19.63	-39.4	-41.3	26.1	0.00e+00	0	40	0	0	50	4487
2026-01-20 20:26:02.49	211.82	19.76	-39.0	-40.9	26.4	0.00e+00	0	40	0	0	50	4285
2026-01-20 20:26:03.48	211.49	19.88	-38.7	-40.6	26.6	0.00e+00	0	40	0	0	49	4376
2026-01-20 20:26:04.48	211.15	20.01	-38.5	-40.5	26.7	0.00e+00	0	39	0	0	49	4299
2026-01-20 20:26:05.48	210.80	20.14	-38.7	-40.7	26.7	0.00e+00	0	39	0	0	49	4395
2026-01-20 20:26:06.47	210.46	20.26	-38.9	-40.8	26.6	0.00e+00	0	40	0	0	49	4465
2026-01-20 20:26:07.46	210.11	20.39	-38.8	-40.7	26.6	0.00e+00	0	40	0	0	49	4429
2026-01-20 20:26:08.46	209.76	20.52	-39.0	-40.9	26.5	0.00e+00	0	40	0	0	49	4528
2026-01-20 20:26:09.45	209.40	20.64	-39.1	-41.0	26.5	0.00e+00	0	40	0	0	49	4569
2026-01-20 20:26:10.45	209.04	20.77	-39.4	-41.3	26.2	0.00e+00	0	40	0	0	49	4754
2026-01-20 20:26:11.44	208.68	20.90	-39.2	-41.2	26.3	0.00e+00	0	40	0	0	49	4680
2026-01-20 20:26:12.44	208.31	21.02	-39.1	-41.1	26.4	0.00e+00	0	40	0	0	49	4618
2026-01-20 20:26:13.43	207.94	21.15	-39.1	-41.1	26.4	0.00e+00	0	39	0	0	49	4606
2026-01-20 20:26:14.43	207.57	21.28	-38.9	-40.8	26.7	0.00e+00	0	40	0	0	49	4453
2026-01-20 20:26:15.42	207.19	21.40	-38.7	-40.6	26.7	0.00e+00	0	40	0	0	49	4384
2026-01-20 20:26:16.42	206.81	21.53	-38.6	-40.5	26.9	0.00e+00	0	40	0	0	49	4326
2026-01-20 20:26:17.41	206.43	21.65	-38.7	-40.6	26.7	0.00e+00	0	40	0	0	49	4387
2026-01-20 20:26:18.41	206.04	21.78	-38.4	-40.3	26.9	0.00e+00	0	40	0	0	48	4492
2026-01-20 20:26:19.40	205.64	21.90	-38.6	-40.5	26.8	0.00e+00	0	40	0	0	48	4561
2026-01-20 20:26:20.39	205.25	22.02	-38.7	-40.6	26.8	0.00e+00	0	40	0	0	48	4648
2026-01-20 20:26:21.39	204.85	22.15	-38.7	-40.6	26.8	0.00e+00	0	40	0	0	48	4637
2026-01-20 20:26:22.38	204.45	22.27	-38.8	-40.7	26.7	0.00e+00	0	40	0	0	48	4699
2026-01-20 20:26:23.38	204.04	22.39	-38.8	-40.7	26.8	0.00e+00	0	40	0	0	48	4662
2026-01-20 20:26:24.37	203.63	22.51	-38.8	-40.7	26.8	0.00e+00	0	40	0	0	48	4692
2026-01-20 20:26:25.37	203.21	22.64	-38.8	-40.8	26.8	0.00e+00	0	40	0	0	48	4719
2026-01-20 20:26:26.36	202.79	22.76	-38.7	-40.6	26.9	0.00e+00	0	40	0	0	48	4621
2026-01-20 20:26:27.36	202.37	22.88	-38.7	-40.6	26.8	0.00e+00	0	40	0	0	48	4638
2026-01-20 20:26:28.36	201.94	23.00	-38.8	-40.7	26.8	0.00e+00	0	40	0	0	48	4682
2026-01-20 20:26:29.35	201.51	23.11	-38.6	-40.5	26.9	0.00e+00	0	40	0	0	48	4579
2026-01-20 20:26:30.35	201.07	23.23	-38.7	-40.5	26.9	0.00e+00	0	40	0	0	48	4598
2026-01-20 20:26:31.34	200.64	23.35	-38.5	-40.4	27.1	0.00e+00	0	40	0	0	48	4498
2026-01-20 20:26:32.33	200.20	23.46	-38.5	-40.4	27.1	0.00e+00	0	39	0	0	48	4515
2026-01-20 20:26:33.33	199.75	23.58	-38.6	-40.5	27.0	0.00e+00	0	40	0	0	48	4558
2026-01-20 20:26:34.32	199.30	23.69	-38.6	-40.5	27.0	0.00e+00	0	40	0	0	48	4557
2026-01-20 20:26:35.32	198.85	23.81	-38.4	-40.3	27.1	0.00e+00	0	40	0	0	48	4457
2026-01-20 20:26:36.31	198.39	23.92	-38.3	-40.2	27.2	0.00e+00	0	40	0	0	48	4430
2026-01-20 20:26:37.30	197.93	24.03	-38.4	-40.3	27.2	0.00e+00	0	40	0	0	48	4458
2026-01-20 20:26:38.30	197.47	24.14	-38.3	-40.2	27.2	0.00e+00	0	40	0	0	48	4416
2026-01-20 20:26:39.29	197.00	24.25	-38.5	-40.4	27.1	0.00e+00	0	40	0	0	48	4532
2026-01-20 20:26:40.29	196.52	24.36	-38.5	-40.4	27.1	0.00e+00	0	40	0	0	48	4529
2026-01-20 20:26:41.28	196.05	24.46	-38.6	-40.5	27.1	0.00e+00	0	40	0	0	48	4574
2026-01-20 20:26:42.28	195.57	24.57	-38.7	-40.6	27.1	0.00e+00	0	40	0	0	48	4610
2026-01-20 20:26:43.27	195.09	24.67	-38.6	-40.5	27.1	0.00e+00	0	40	0	0	48	4557
2026-01-20 20:26:44.26	194.60	24.77	-38.7	-40.6	27.0	0.00e+00	0	40	0	0	48	4609
2026-01-20 20:26:45.26	194.11	24.87	-38.8	-40.7	27.0	0.00e+00	0	40	0	0	48	4665
2026-01-20 20:26:46.25	193.62	24.97	-38.7	-40.6	27.1	0.00e+00	0	40	0	0	48	4606
2026-01-20 20:26:47.25	193.12	25.07	-38.9	-40.8	26.9	0.00e+00	0	40	0	0	48	4712
2026-01-20 20:26:48.24	192.62	25.16	-39.1	-41.0	26.8	0.00e+00	0	40	0	0	48	4842
2026-01-20 20:26:49.24	192.11	25.26	-38.9	-40.8	26.9	0.00e+00	0	40	0	0	48	4732
2026-01-20 20:26:50.23	191.60	25.35	-38.8	-40.6	27.0	0.00e+00	0	40	0	0	48	4649
2026-01-20 20:26:51.23	191.09	25.44	-38.6	-40.5	27.1	0.00e+00	0	40	0	0	48	4557
2026-01-20 20:26:52.22	190.58	25.53	-38.5	-40.3	27.2	0.00e+00	0	40	0	0	48	4492
2026-01-20 20:26:53.22	190.05	25.62	-38.6	-40.5	27.1	0.00e+00	0	40	0	0	48	4562
2026-01-20 20:26:54.21	189.54	25.70	-38.8	-40.7	27.0	0.00e+00	0	40	0	0	48	4698
2026-01-20 20:26:55.21	189.01	25.78	-38.9	-40.8	27.0	0.00e+00	0	40	0	0	48	4706
2026-01-20 20:26:56.20	188.48	25.86	-38.8	-40.7	27.0	0.00e+00	0	40	0	0	48	4699
2026-01-20 20:26:57.20	187.95	25.94	-38.7	-40.5	27.1	0.00e+00	0	40	0	0	48	4590
2026-01-20 20:26:58.19	187.42	26.02	-38.7	-40.6	27.1	0.00e+00	0	40	0	0	48	4615
2026-01-20 20:26:59.19	186.88	26.10	-38.6	-40.5	27.1	0.00e+00	0	40	0	0	48	4550
2026-01-20 20:27:00.18	186.34	26.17	-38.8	-40.7	26.9	0.00e+00	0	40	0	0	48	4692
2026-01-20 20:27:01.18	185.79	26.24	-38.7	-40.6	27.1	0.00e+00	0	40	0	0	48	4602
2026-01-20 20:27:02.17	185.25	26.31	-38.8	-40.7	27.1	0.00e+00	0	40	0	0	48	4655
2026-01-20 20:27:03.17	184.70	26.37	-38.2	-40.1	27.5	0.00e+00	0	40	0	0	48	4358
2026-01-20 20:27:04.16	184.15	26.43	-38.2	-40.1	27.3	0.00e+00	0	40	0	0	48	4348
2026-01-20 20:27:05.16	183.59	26.50	-38.1	-39.9	27.5	0.00e+00	0	40	0	0	48	4288
2026-01-20 20:27:06.15	183.04	26.55	-38.2	-40.1	27.4	0.00e+00	0	39	0	0	48	4348
2026-01-20 20:27:07.15	182.48	26.61	-38.4	-40.3	27.3	0.00e+00	0	40	0	0	48	4458
2026-01-20 20:27:08.14	181.92	26.66	-38.3	-40.1	27.4	0.00e+00	0	40	0	0	48	4379
2026-01-20 20:27:09.14	181.36	26.71	-38.1	-39.9	27.5	0.00e+00	0	40	0	0	48	4274
2026-01-20 20:27:10.13	180.80	26.76	-38.0	-39.8	27.6	0.00e+00	0	40	0	0	48	4234
2026-01-20 20:27:11.13	180.23	26.81	-38.0	-39.9	27.4	0.00e+00	0	40	0	0	47	4518
2026-01-20 20:27:12.12	179.66	26.85	-38.1	-40.0	27.4	0.00e+00	0	40	0	0	47	4551
2026-01-20 20:27:13.12	179.09	26.89	-38.3	-40.2	27.3	0.00e+00	0	40	0	0	47	4662
2026-01-20 20:27:14.11	178.52	26.93	-38.4	-40.2	27.3	0.00e+00	0	40	0	0	47	4698
2026-01-20 20:27:15.11	177.95	26.96	-38.3	-40.1	27.3	0.00e+00	0	40	0	0	47	4644
2026-01-20 20:27:16.10	177.38	27.00	-38.2	-40.1	27.3	0.00e+00	0	40	0	0	47	4606
2026-01-20 20:27:17.09	176.80	27.03	-38.1	-40.0	27.5	0.00e+00	0	40	0	0	47	4549
2026-01-20 20:27:18.09	176.22	27.05	-38.1	-40.0	27.4	0.00e+00	0	40	0	0	47	4552
2026-01-20 20:27:19.08	175.65	27.08	-38.2	-40.0	27.4	0.00e+00	0	40	0	0	47	4596
2026-01-20 20:27:20.08	175.07	27.10	-38.2	-40.1	27.4	0.00e+00	0	40	0	0	47	4601
2026-01-20 20:27:21.07	174.49	27.12	-38.2	-40.1	27.3	0.00e+00	0	40	0	0	47	4628
2026-01-20 20:27:22.07	173.91	27.13	-38.1	-40.0	27.3	0.00e+00	0	40	0	0	47	4577
2026-01-20 20:27:23.06	173.33	27.14	-38.1	-40.0	27.4	0.00e+00	0	40	0	0	47	4570
2026-01-20 20:27:24.06	172.75	27.15	-38.2	-40.0	27.4	0.00e+00	0	40	0	0	47	4598
2026-01-20 20:27:25.05	172.17	27.16	-38.4	-40.3	27.3	0.00e+00	0	40	0	0	47	4722
2026-01-20 20:27:26.05	171.58	27.16	-38.4	-40.3	27.2	0.00e+00	0	40	0	0	47	4708
2026-01-20 20:27:27.04	171.01	27.16	-38.3	-40.2	27.3	0.00e+00	0	40	0	0	47	4656
2026-01-20 20:27:28.04	170.42	27.16	-38.2	-40.1	27.3	0.00e+00	0	40	0	0	47	4604
2026-01-20 20:27:29.03	169.84	27.16	-38.3	-40.2	27.3	0.00e+00	0	40	0	0	47	4681
2026-01-20 20:27:30.03	169.26	27.15	-38.6	-40.5	27.1	0.00e+00	0	40	0	0	47	4824
2026-01-20 20:27:31.02	168.68	27.14	-38.3	-40.2	27.3	0.00e+00	0	39	0	0	47	4657
2026-01-20 20:27:32.02	168.10	27.12	-38.1	-40.0	27.4	0.00e+00	0	40	0	0	47	4572
2026-01-20 20:27:33.01	167.52	27.11	-38.1	-39.9	27.4	0.00e+00	0	40	0	0	47	4543
2026-01-20 20:27:34.00	166.94	27.09	-37.9	-39.8	27.5	0.00e+00	0	40	0	0	47	4452
2026-01-20 20:27:35.00	166.36	27.07	-37.8	-39.7	27.6	0.00e+00	0	40	0	0	47	4417
2026-01-20 20:27:35.99	165.79	27.04	-38.0	-39.9	27.5	0.00e+00	0	39	0	0	47	4495
2026-01-20 20:27:36.99	165.21	27.01	-38.4	-40.3	27.2	0.00e+00	0	40	0	0	47	4752
2026-01-20 20:27:37.98	164.64	26.98	-38.7	-40.6	26.9	0.00e+00	0	40	0	0	48	4608
2026-01-20 20:27:38.98	164.06	26.95	-38.8	-40.7	27.2	0.00e+00	0	40	0	0	48	4655
2026-01-20 20:27:39.97	163.49	26.91	-38.3	-40.1	27.5	0.00e+00	0	40	0	0	48	4384
2026-01-20 20:27:40.97	162.92	26.88	-38.0	-39.9	27.7	0.00e+00	0	40	0	0	48	4249
2026-01-20 20:27:41.96	162.35	26.83	-37.7	-39.6	27.7	0.00e+00	0	40	0	0	47	4344
2026-01-20 20:27:42.96	161.79	26.79	-38.0	-39.8	27.6	0.00e+00	0	40	0	0	47	4486
2026-01-20 20:27:43.95	161.22	26.74	-38.4	-40.3	27.2	0.00e+00	0	40	0	0	47	4723
2026-01-20 20:27:44.94	160.66	26.69	-38.5	-40.3	27.2	0.00e+00	0	40	0	0	47	4758
2026-01-20 20:27:45.94	160.10	26.64	-38.5	-40.3	27.2	0.00e+00	0	40	0	0	47	4755
2026-01-20 20:27:46.93	159.54	26.59	-38.2	-40.1	27.4	0.00e+00	0	40	0	0	47	4605
2026-01-20 20:27:47.93	158.98	26.53	-38.3	-40.2	27.4	0.00e+00	0	40	0	0	47	4665
2026-01-20 20:27:48.92	158.43	26.47	-38.3	-40.2	27.4	0.00e+00	0	40	0	0	47	4678
2026-01-20 20:27:49.91	157.88	26.41	-38.4	-40.3	27.3	0.00e+00	0	40	0	0	47	4708
2026-01-20 20:27:50.91	157.33	26.35	-38.4	-40.3	27.3	0.00e+00	0	40	0	0	47	4749
2026-01-20 20:27:51.90	156.79	26.28	-38.5	-40.4	27.2	0.00e+00	0	40	0	0	47	4800
2026-01-20 20:27:52.90	156.24	26.21	-38.7	-40.5	27.2	0.00e+00	0	40	0	0	48	4593
2026-01-20 20:27:53.89	155.70	26.14	-38.8	-40.7	27.1	0.00e+00	0	40	0	0	48	4695
2026-01-20 20:27:54.89	155.16	26.07	-39.1	-41.0	27.0	0.00e+00	0	40	0	0	48	4826
2026-01-20 20:27:55.88	154.63	25.99	-39.4	-41.4	26.8	0.00e+00	0	40	0	0	49	4760
2026-01-20 20:27:56.88	154.09	25.91	-39.6	-41.5	26.6	0.00e+00	0	39	0	0	49	4848
2026-01-20 20:27:57.87	153.56	25.83	-39.6	-41.6	26.6	0.00e+00	0	40	0	0	49	4878
2026-01-20 20:27:58.86	153.04	25.75	-39.5	-41.4	26.7	0.00e+00	0	40	0	0	49	4800
2026-01-20 20:27:59.86	152.51	25.67	-39.4	-41.4	26.7	0.00e+00	0	40	0	0	49	4761
2026-01-20 20:28:00.85	152.00	25.58	-39.1	-41.1	27.0	0.00e+00	0	40	0	0	49	4608
2026-01-20 20:28:01.85	151.48	25.49	-39.0	-40.9	27.0	0.00e+00	0	40	0	0	49	4499
2026-01-20 20:28:02.84	150.97	25.41	-39.0	-40.9	27.0	0.00e+00	0	40	0	0	49	4533
2026-01-20 20:28:03.84	150.45	25.31	-38.9	-40.8	27.1	0.00e+00	0	40	0	0	49	4471
2026-01-20 20:28:04.83	149.95	25.22	-38.9	-40.8	27.1	0.00e+00	0	40	0	0	49	4480
2026-01-20 20:28:05.82	149.45	25.13	-39.2	-41.1	26.9	0.00e+00	0	40	0	0	49	4614
2026-01-20 20:28:06.82	148.95	25.03	-39.2	-41.2	26.9	0.00e+00	0	40	0	0	49	4654
2026-01-20 20:28:07.81	148.45	24.93	-39.6	-41.6	26.6	0.00e+00	0	40	0	0	49	4872
2026-01-20 20:28:08.81	147.96	24.83	-39.1	-41.1	27.0	0.00e+00	0	40	0	0	49	4603
2026-01-20 20:28:09.80	147.47	24.73	-39.0	-40.9	27.0	0.00e+00	0	40	0	0	49	4533
2026-01-20 20:28:10.79	146.99	24.63	-39.2	-41.1	26.9	0.00e+00	0	40	0	0	49	4616
2026-01-20 20:28:11.79	146.50	24.53	-39.1	-41.0	27.0	0.00e+00	0	40	0	0	49	4581
2026-01-20 20:28:12.79	146.02	24.42	-39.2	-41.1	26.9	0.00e+00	0	40	0	0	49	4637
2026-01-20 20:28:13.78	145.55	24.32	-39.6	-41.6	26.6	0.00e+00	0	40	0	0	49	4879
2026-01-20 20:28:14.77	145.08	24.21	-39.5	-41.4	26.7	0.00e+00	0	40	0	0	49	4788
2026-01-20 20:28:15.77	144.62	24.10	-39.3	-41.2	26.9	0.00e+00	0	40	0	0	49	4676
2026-01-20 20:28:16.76	144.15	23.99	-39.0	-40.9	27.0	0.00e+00	0	40	0	0	49	4494
2026-01-20 20:28:17.76	143.69	23.88	-38.7	-40.6	27.2	0.00e+00	0	40	0	0	49	4380
2026-01-20 20:28:18.75	143.24	23.77	-38.6	-40.5	27.3	0.00e+00	0	40	0	0	49	4293
2026-01-20 20:28:19.74	142.79	23.65	-38.8	-40.7	27.2	0.00e+00	0	40	0	0	49	4412
2026-01-20 20:28:20.74	142.34	23.54	-39.0	-41.0	27.0	0.00e+00	0	40	0	0	49	4546
2026-01-20 20:28:21.74	141.90	23.42	-39.3	-41.2	26.8	0.00e+00	0	40	0	0	49	4673
2026-01-20 20:28:22.73	141.46	23.31	-39.6	-41.5	26.6	0.00e+00	0	40	0	0	49	4845
2026-01-20 20:28:23.73	141.02	23.19	-39.6	-41.5	26.7	0.00e+00	0	40	0	0	50	4553
2026-01-20 20:28:24.72	140.59	23.07	-39.3	-41.2	26.9	0.00e+00	0	40	0	0	50	4409
2026-01-20 20:28:25.71	140.16	22.95	-39.4	-41.3	26.8	0.00e+00	0	40	0	0	50	4459
2026-01-20 20:28:26.71	139.74	22.83	-39.3	-41.2	26.8	0.00e+00	0	40	0	0	50	4420
2026-01-20 20:28:27.70	139.32	22.71	-39.3	-41.2	26.8	0.00e+00	0	40	0	0	50	4440
2026-01-20 20:28:28.70	138.90	22.59	-39.0	-40.9	27.0	0.00e+00	0	40	0	0	50	4249
2026-01-20 20:28:29.69	138.49	22.47	-39.1	-41.0	27.0	0.00e+00	0	40	0	0	50	4313
2026-01-20 20:28:30.69	138.08	22.35	-39.1	-41.0	27.0	0.00e+00	0	40	0	0	49	4558
2026-01-20 20:28:31.68	137.67	22.23	-39.3	-41.2	26.8	0.00e+00	0	40	0	0	49	4663
2026-01-20 20:28:32.67	137.27	22.11	-39.5	-41.4	26.7	0.00e+00	0	40	0	0	49	4768
2026-01-20 20:28:33.67	136.87	21.98	-39.6	-41.5	26.6	0.00e+00	0	40	0	0	49	4843
2026-01-20 20:28:34.66	136.48	21.86	-39.7	-41.7	26.5	0.00e+00	0	40	0	0	50	4652
2026-01-20 20:28:35.66	136.09	21.73	-39.7	-41.6	26.6	0.00e+00	0	40	0	0	50	4620
2026-01-20 20:28:36.65	135.71	21.61	-39.6	-41.6	26.6	0.00e+00	0	40	0	0	50	4614
2026-01-20 20:28:37.65	135.32	21.48	-39.7	-41.6	26.5	0.00e+00	0	40	0	0	50	4648
2026-01-20 20:28:38.64	134.94	21.36	-39.7	-41.6	26.3	0.00e+00	0	40	0	0	50	4629
2026-01-20 20:28:39.64	134.57	21.23	-39.8	-41.7	26.4	0.00e+00	0	40	0	0	50	4674
2026-01-20 20:28:40.63	134.20	21.11	-39.9	-41.8	26.4	0.00e+00	0	40	0	0	50	4738
2026-01-20 20:28:41.62	133.83	20.98	-40.0	-42.0	26.3	0.00e+00	0	40	0	0	50	4833
2026-01-20 20:28:42.62	133.46	20.86	-39.9	-41.8	26.4	0.00e+00	0	40	0	0	50	4747
2026-01-20 20:28:43.62	133.10	20.73	-39.9	-41.9	26.4	0.00e+00	0	40	0	0	50	4777
2026-01-20 20:28:44.61	132.74	20.60	-40.0	-42.0	26.3	0.00e+00	0	40	0	0	50	4824
2026-01-20 20:28:45.61	132.39	20.48	-40.1	-42.0	26.3	0.00e+00	0	40	0	0	50	4861
2026-01-20 20:28:46.60	132.04	20.35	-40.2	-42.1	26.2	0.00e+00	0	40	0	0	50	4907
2026-01-20 20:28:47.60	131.69	20.22	-40.2	-42.1	26.2	0.00e+00	0	40	0	0	51	4649
2026-01-20 20:28:48.59	131.35	20.10	-40.0	-42.0	26.3	0.00e+00	0	40	0	0	51	4564
2026-01-20 20:28:49.59	131.01	19.97	-39.9	-41.9	26.4	0.00e+00	0	40	0	0	51	4498
2026-01-20 20:28:50.58	130.67	19.84	-39.9	-41.8	26.4	0.00e+00	0	40	0	0	51	4470
2026-01-20 20:28:51.58	130.34	19.72	-40.0	-42.0	26.3	0.00e+00	0	40	0	0	51	4567
2026-01-20 20:28:52.57	130.01	19.59	-40.4	-42.4	26.0	0.00e+00	0	40	0	0	51	4794
2026-01-20 20:28:53.56	129.68	19.46	-40.6	-42.6	25.9	0.00e+00	0	40	0	0	51	4906
2026-01-20 20:28:54.56	129.36	19.34	-40.4	-42.4	26.0	0.00e+00	0	40	0	0	51	4763
2026-01-20 20:28:55.55	129.04	19.21	-40.2	-42.1	26.1	0.00e+00	0	40	0	0	51	4649
2026-01-20 20:28:56.55	128.72	19.08	-40.2	-42.2	26.2	0.00e+00	0	40	0	0	51	4671
2026-01-20 20:28:57.54	128.41	18.96	-40.2	-42.2	26.2	0.00e+00	0	40	0	0	51	4656
2026-01-20 20:28:58.53	128.10	18.83	-40.3	-42.2	26.1	0.00e+00	0	40	0	0	51	4687
2026-01-20 20:28:59.53	127.79	18.71	-40.3	-42.3	26.1	0.00e+00	0	40	0	0	51	4709
2026-01-20 20:29:00.52	127.49	18.58	-40.3	-42.3	26.0	0.00e+00	0	40	0	0	51	4734
2026-01-20 20:29:01.52	127.19	18.45	-40.4	-42.3	26.1	0.00e+00	0	40	0	0	51	4749
2026-01-20 20:29:02.51	126.89	18.33	-40.3	-42.2	26.1	0.00e+00	0	40	0	0	51	4692
2026-01-20 20:29:03.51	126.59	18.20	-40.2	-42.2	26.1	0.00e+00	0	40	0	0	51	4671
2026-01-20 20:29:04.50	126.30	18.08	-40.2	-42.2	26.1	0.00e+00	0	40	0	0	51	4682
2026-01-20 20:29:05.50	126.01	17.96	-40.4	-42.4	26.0	0.00e+00	0	40	0	0	51	4794
2026-01-20 20:29:06.49	125.73	17.83	-40.7	-42.7	25.8	0.00e+00	0	40	0	0	51	4950
2026-01-20 20:29:07.49	125.44	17.71	-40.6	-42.6	25.8	0.00e+00	0	40	0	0	52	4616
2026-01-20 20:29:08.48	125.16	17.58	-40.6	-42.7	25.7	0.00e+00	0	40	0	0	52	4659
2026-01-20 20:29:09.48	124.88	17.46	-40.6	-42.6	25.8	0.00e+00	0	40	0	0	52	4638
2026-01-20 20:29:10.47	124.61	17.34	-40.6	-42.6	25.8	0.00e+00	0	40	0	0	52	4605
2026-01-20 20:29:11.46	124.34	17.21	-40.5	-42.5	25.8	0.00e+00	0	40	0	0	52	4590
2026-01-20 20:29:12.46	124.07	17.09	-40.7	-42.7	25.7	0.00e+00	0	40	0	0	52	4686
2026-01-20 20:29:13.45	123.81	16.97	-40.8	-42.8	25.6	0.00e+00	0	40	0	0	52	4759
2026-01-20 20:29:14.45	123.54	16.85	-40.8	-42.8	25.6	0.00e+00	0	40	0	0	52	4745
2026-01-20 20:29:15.44	123.28	16.73	-41.0	-43.0	25.5	0.00e+00	0	40	0	0	52	4838
2026-01-20 20:29:16.44	123.02	16.61	-41.1	-43.2	25.4	0.00e+00	0	40	0	0	52	4936
2026-01-20 20:29:17.43	122.77	16.49	-41.2	-43.3	25.3	0.00e+00	0	40	0	0	53	4725
2026-01-20 20:29:18.42	122.51	16.37	-41.4	-43.4	25.1	0.00e+00	0	40	0	0	53	4804
2026-01-20 20:29:19.42	122.26	16.24	-41.2	-43.3	25.2	0.00e+00	0	40	0	0	53	4758
2026-01-20 20:29:20.41	122.01	16.13	-41.2	-43.3	25.3	0.00e+00	0	40	0	0	53	4731
2026-01-20 20:29:21.41	121.77	16.01	-41.2	-43.2	25.3	0.00e+00	0	40	0	0	53	4686
2026-01-20 20:29:22.40	121.53	15.89	-41.2	-43.3	25.2	0.00e+00	0	40	0	0	53	4713
2026-01-20 20:29:23.40	121.28	15.77	-41.1	-43.2	25.3	0.00e+00	0	40	0	0	53	4696
2026-01-20 20:29:24.39	121.05	15.65	-41.1	-43.2	25.3	0.00e+00	0	40	0	0	53	4673
2026-01-20 20:29:25.39	120.81	15.53	-41.2	-43.3	25.2	0.00e+00	0	40	0	0	53	4723
2026-01-20 20:29:26.38	120.58	15.42	-41.5	-43.7	25.0	0.00e+00	0	40	0	0	53	4941
2026-01-20 20:29:27.38	120.34	15.30	-41.8	-43.9	24.8	0.00e+00	0	40	0	0	54	4767
2026-01-20 20:29:28.37	120.12	15.18	-41.9	-44.0	24.7	0.00e+00	0	40	0	0	54	4846
2026-01-20 20:29:29.37	119.89	15.07	-41.9	-44.0	24.7	0.00e+00	0	40	0	0	54	4858
2026-01-20 20:29:30.36	119.66	14.95	-41.8	-43.9	24.8	0.00e+00	0	40	0	0	54	4778
2026-01-20 20:29:31.36	119.44	14.84	-41.7	-43.8	24.9	0.00e+00	0	40	0	0	54	4716
2026-01-20 20:29:32.35	119.22	14.72	-41.8	-43.9	24.8	0.00e+00	0	39	0	0	54	4793
2026-01-20 20:29:33.35	119.00	14.61	-41.8	-44.0	24.7	0.00e+00	0	40	0	0	54	4828
2026-01-20 20:29:34.34	118.79	14.50	-41.8	-43.9	24.7	0.00e+00	0	40	0	0	54	4803
2026-01-20 20:29:35.33	118.58	14.38	-41.8	-43.9	24.8	0.00e+00	0	40	0	0	54	4783
2026-01-20 20:29:36.33	118.36	14.27	-41.9	-44.1	24.6	0.00e+00	0	40	0	0	54	4893
2026-01-20 20:29:37.32	118.15	14.16	-42.0	-44.2	24.5	0.00e+00	0	40	0	0	54	4956
2026-01-20 20:29:38.32	117.95	14.04	-42.2	-44.3	24.4	0.00e+00	0	40	0	0	54	5030
2026-01-20 20:29:39.31	117.74	13.93	-42.3	-44.5	24.3	0.00e+00	0	40	0	0	55	4837
2026-01-20 20:29:40.31	117.54	13.82	-42.4	-44.6	24.2	0.00e+00	0	40	0	0	55	4884
2026-01-20 20:29:41.30	117.34	13.71	-42.3	-44.5	24.3	0.00e+00	0	40	0	0	55	4839
2026-01-20 20:29:42.30	117.14	13.60	-42.2	-44.4	24.3	0.00e+00	0	39	0	0	55	4790
2026-01-20 20:29:43.29	116.94	13.49	-42.1	-44.2	24.5	0.00e+00	0	40	0	0	55	4692
2026-01-20 20:29:44.29	116.74	13.38	-42.1	-44.3	24.4	0.00e+00	0	40	0	0	55	4723
2026-01-20 20:29:45.28	116.55	13.27	-42.2	-44.4	24.3	0.00e+00	0	40	0	0	55	4780
2026-01-20 20:29:46.28	116.36	13.17	-42.2	-44.3	24.3	0.00e+00	0	40	0	0	55	4753
2026-01-20 20:29:47.27	116.17	13.06	-42.2	-44.3	24.4	0.00e+00	0	40	0	0	55	4728
2026-01-20 20:29:48.26	115.98	12.95	-42.4	-44.6	24.2	0.00e+00	0	40	0	0	55	4893
2026-01-20 20:29:49.26	115.79	12.84	-42.6	-44.9	24.0	0.00e+00	0	40	0	0	55	5048
2026-01-20 20:29:50.25	115.61	12.74	-43.0	-45.3	23.7	0.00e+00	0	40	0	0	56	5008
2026-01-20 20:29:51.25	115.42	12.63	-43.0	-45.2	23.8	0.00e+00	0	40	0	0	56	4966
2026-01-20 20:29:52.24	115.24	12.53	-42.9	-45.2	23.8	0.00e+00	0	40	0	0	56	4928
2026-01-20 20:29:53.24	115.06	12.42	-42.9	-45.2	23.8	0.00e+00	0	40	0	0	56	4951
2026-01-20 20:29:54.23	114.89	12.32	-43.0	-45.2	23.8	0.00e+00	0	40	0	0	56	4960
2026-01-20 20:29:55.23	114.71	12.21	-42.9	-45.1	23.8	0.00e+00	0	40	0	0	56	4911
2026-01-20 20:29:56.22	114.54	12.11	-42.8	-45.1	23.9	0.00e+00	0	40	0	0	56	4873
2026-01-20 20:29:57.22	114.36	12.01	-42.9	-45.1	23.8	0.00e+00	0	40	0	0	56	4926
2026-01-20 20:29:58.21	114.19	11.90	-43.1	-45.3	23.7	0.00e+00	0	40	0	0	56	5036
2026-01-20 20:29:59.20	114.02	11.80	-43.3	-45.6	23.5	0.00e+00	0	40	0	0	57	4886
2026-01-20 20:30:00.20	113.85	11.70	-43.3	-45.6	23.4	0.00e+00	0	40	0	0	57	4918
2026-01-20 20:30:01.19	113.69	11.60	-43.4	-45.7	23.3	0.00e+00	0	40	0	0	57	4969
2026-01-20 20:30:02.19	113.52	11.50	-43.4	-45.8	23.3	0.00e+00	0	40	0	0	57	4995
2026-01-20 20:30:03.18	113.36	11.40	-43.5	-45.8	23.2	0.00e+00	0	40	0	0	57	5030
2026-01-20 20:30:04.18	113.20	11.30	-43.5	-45.9	23.2	0.00e+00	0	40	0	0	57	5045
2026-01-20 20:30:05.17	113.04	11.20	-43.4	-45.8	23.3	0.00e+00	0	40	0	0	57	4985
2026-01-20 20:30:06.17	112.88	11.10	-43.4	-45.7	23.3	0.00e+00	0	40	0	0	57	4975
2026-01-20 20:30:07.16	112.72	11.00	-43.4	-45.8	23.2	0.00e+00	0	40	0	0	57	5027
2026-01-20 20:30:08.16	112.56	10.90	-43.4	-45.9	23.2	0.00e+00	0	40	0	0	57	5049
2026-01-20 20:30:09.15	112.41	10.80	-43.7	-46.1	23.0	0.00e+00	0	40	0	0	58	4918
2026-01-20 20:30:10.15	112.25	10.70	-43.6	-46.0	23.0	0.00e+00	0	40	0	0	58	4842
2026-01-20 20:30:11.14	112.10	10.61	-43.5	-45.9	23.1	0.00e+00	0	40	0	0	58	4785
2026-01-20 20:30:12.14	111.95	10.51	-43.5	-45.9	23.2	0.00e+00	0	40	0	0	58	4773
2026-01-20 20:30:13.13	111.80	10.41	-43.5	-45.9	23.1	0.00e+00	0	40	0	0	58	4765
2026-01-20 20:30:14.13	111.65	10.32	-43.6	-46.0	23.0	0.00e+00	0	40	0	0	58	4820
2026-01-20 20:30:15.12	111.51	10.22	-43.7	-46.1	22.9	0.00e+00	0	40	0	0	58	4875
2026-01-20 20:30:16.12	111.36	10.13	-43.8	-46.3	22.8	0.00e+00	0	40	0	0	58	5010
2026-01-20 20:30:17.11	111.22	10.03	-44.0	-46.6	22.5	0.00e+00	0	40	0	0	58	5160
2026-01-20 20:30:18.11	111.07	9.94	-44.2	-46.7	22.4	0.00e+00	0	40	0	0	58	5220
2026-01-20 20:30:19.10	110.93	9.84	-44.4	-46.9	22.2	0.00e+00	0	40	0	0	59	5065
2026-01-20 20:30:20.09	110.79	9.75	-44.5	-47.0	22.1	0.00e+00	0	40	0	0	59	5146
2026-01-20 20:30:21.09	110.65	9.66	-44.3	-46.8	22.3	0.00e+00	0	40	0	0	59	5022
2026-01-20 20:30:22.08	110.52	9.56	-44.3	-46.8	22.3	0.00e+00	0	40	0	0	59	5023
2026-01-20 20:30:23.08	110.38	9.47	-44.2	-46.7	22.4	0.00e+00	0	40	0	0	59	4949
2026-01-20 20:30:24.07	110.24	9.38	-44.2	-46.7	22.4	0.00e+00	0	40	0	0	59	4937
2026-01-20 20:30:25.07	110.11	9.29	-44.1	-46.6	22.5	0.00e+00	0	40	0	0	59	4884
2026-01-20 20:30:26.07	109.98	9.20	-44.2	-46.6	22.4	0.00e+00	0	40	0	0	59	4919
2026-01-20 20:30:27.06	109.84	9.11	-44.2	-46.7	22.3	0.00e+00	0	40	0	0	59	4973
2026-01-20 20:30:28.05	109.71	9.02	-44.2	-46.8	22.3	0.00e+00	0	40	0	0	59	5010
2026-01-20 20:30:29.05	109.58	8.93	-51.8	-65.5	6.3	0.00e+00	0	40	0	0	74	18192
2026-01-20 20:30:30.04	109.46	8.84	-52.0	-70.2	3.8	0.00e+00	0	40	104	0	74	31409
2026-01-20 20:30:31.03	109.33	8.75	-52.3	-70.9	3.8	7.04e-01	0	40	104	0	75	32109
2026-01-20 20:30:32.03	109.20	8.66	-52.4	-71.1	3.8	8.47e-01	0	40	104	0	75	32909
2026-01-20 20:30:33.02	109.08	8.57	-52.4	-71.2	3.8	8.47e-01	0	40	104	0	75	33044
2026-01-20 20:30:34.01	108.95	8.48	-52.4	-71.2	3.8	8.47e-01	0	40	104	0	75	33259
2026-01-20 20:30:35.01	108.83	8.40	-52.4	-71.3	3.8	8.47e-01	0	40	104	0	75	33330
2026-01-20 20:30:36.00	108.71	8.31	-52.3	-71.3	3.8	8.46e-01	0	40	104	0	75	33505
2026-01-20 20:30:36.99	108.59	8.22	-52.2	-71.3	3.8	8.46e-01	0	40	104	0	75	33639
2026-01-20 20:30:37.98	108.47	8.14	-52.2	-71.4	3.8	8.48e-01	0	40	104	0	75	33774
2026-01-20 20:30:38.98	108.35	8.05	-52.2	-71.4	3.8	8.47e-01	0	40	104	0	75	33860
2026-01-20 20:30:39.97	108.23	7.96	-52.2	-71.4	3.8	8.47e-01	0	40	104	0	75	33873
2026-01-20 20:30:40.96	108.11	7.88	-52.3	-71.4	3.8	8.47e-01	0	40	104	0	75	33957
2026-01-20 20:30:41.96	107.99	7.79	-52.3	-71.4	3.8	8.47e-01	0	40	104	0	75	34007
2026-01-20 20:30:42.95	107.88	7.71	-52.5	-71.4	3.8	8.47e-01	0	40	104	0	75	34028
2026-01-20 20:30:43.94	107.76	7.62	-52.5	-71.4	3.8	8.46e-01	0	40	104	0	75	34001
2026-01-20 20:30:44.94	107.65	7.54	-52.4	-71.4	3.8	8.47e-01	0	40	104	0	75	33946
2026-01-20 20:30:45.93	107.54	7.46	-52.4	-71.5	3.8	8.47e-01	0	40	104	0	75	34105
2026-01-20 20:30:46.92	107.43	7.37	-52.3	-71.4	3.8	8.46e-01	0	40	104	0	75	33923
2026-01-20 20:30:47.92	107.32	7.29	-52.4	-71.5	3.8	8.47e-01	0	40	104	0	75	34111
2026-01-20 20:30:48.91	107.21	7.21	-52.5	-71.5	3.8	8.47e-01	0	40	104	0	75	34135
2026-01-20 20:30:49.90	107.10	7.12	-52.5	-71.5	3.8	8.46e-01	0	40	104	0	75	34138
2026-01-20 20:30:50.90	106.99	7.04	-52.4	-71.4	3.8	8.47e-01	0	40	104	0	75	33873
2026-01-20 20:30:51.89	106.88	6.96	-52.4	-71.4	3.8	8.47e-01	0	40	104	0	75	33962
2026-01-20 20:30:52.88	106.78	6.88	-52.4	-71.4	3.8	8.48e-01	0	40	104	0	75	33918
2026-01-20 20:30:53.88	106.67	6.80	-52.4	-71.4	3.8	8.47e-01	0	40	104	0	75	33877
2026-01-20 20:30:54.87	106.57	6.72	-52.4	-71.4	3.8	8.47e-01	0	40	104	0	75	33888
2026-01-20 20:30:55.86	106.46	6.64	-52.4	-71.4	3.8	8.47e-01	0	40	104	0	75	33889
2026-01-20 20:30:56.86	106.36	6.56	-52.4	-71.4	3.8	8.47e-01	0	40	104	0	75	33817
2026-01-20 20:30:57.85	106.26	6.48	-52.4	-71.4	3.8	8.47e-01	0	40	104	0	75	33720
2026-01-20 20:30:58.84	106.16	6.40	-52.4	-71.4	3.8	8.46e-01	0	40	104	0	75	33819
2026-01-20 20:30:59.84	106.05	6.32	-52.4	-71.4	3.8	8.46e-01	0	40	104	0	75	33835
2026-01-20 20:31:00.83	105.95	6.24	-52.4	-71.4	3.8	8.46e-01	0	40	104	0	75	33898
2026-01-20 20:31:01.82	105.86	6.16	-52.4	-71.4	3.8	8.46e-01	0	40	104	0	75	33769
2026-01-20 20:31:02.81	105.76	6.08	-52.4	-71.4	3.8	8.47e-01	0	40	104	0	75	33735
2026-01-20 20:31:03.81	105.66	6.00	-52.4	-71.4	3.8	8.47e-01	0	40	104	0	75	33842
2026-01-20 20:31:04.80	105.56	5.93	-52.4	-71.4	3.8	8.47e-01	0	40	104	0	75	33835
2026-01-20 20:31:05.79	105.47	5.85	-52.4	-71.4	3.8	8.47e-01	0	40	104	0	75	33822
2026-01-20 20:31:06.79	105.37	5.77	-52.4	-71.4	3.8	8.46e-01	0	40	104	0	75	33817
2026-01-20 20:31:07.78	105.28	5.70	-52.4	-71.3	3.8	8.46e-01	0	40	104	0	75	33674
2026-01-20 20:31:08.77	105.18	5.62	-52.4	-71.4	3.8	8.47e-01	0	40	104	0	75	33710
2026-01-20 20:31:09.77	105.09	5.54	-52.4	-71.4	3.8	8.47e-01	0	40	104	0	75	33753
2026-01-20 20:31:10.76	105.00	5.47	-52.4	-71.3	3.8	8.47e-01	0	40	104	0	75	33638
2026-01-20 20:31:11.75	104.91	5.39	-52.4	-71.3	3.8	8.48e-01	0	40	104	0	75	33645
2026-01-20 20:31:12.75	104.81	5.31	-52.4	-71.4	3.8	8.48e-01	0	40	104	0	75	33721
2026-01-20 20:31:13.74	104.72	5.24	-52.4	-71.3	3.8	8.48e-01	0	40	104	0	75	33690
2026-01-20 20:31:14.73	104.63	5.17	-52.4	-71.3	3.8	8.46e-01	0	40	104	0	75	33688
2026-01-20 20:31:15.73	104.54	5.09	-52.4	-71.4	3.8	8.48e-01	0	40	104	0	75	33757
2026-01-20 20:31:16.72	104.46	5.02	-52.4	-71.3	3.8	8.48e-01	0	40	104	0	75	33638
2026-01-20 20:31:17.71	104.37	4.94	-52.4	-71.4	3.8	8.47e-01	0	40	104	0	75	33760
2026-01-20 20:31:18.70	104.28	4.87	-52.4	-71.4	3.8	8.47e-01	0	40	104	0	75	33699
2026-01-20 20:31:19.70	104.19	4.79	-52.4	-71.4	3.8	8.47e-01	0	40	104	0	75	33769
2026-01-20 20:31:20.69	104.11	4.72	-52.3	-71.3	3.8	8.47e-01	0	40	104	0	75	33627

#Closed at: 2026-01-20 20:31:21
#Recorded file [0 MB]: D:/Data/31040_260120_232342.dat