passes_logs/2026/01/20/T1/T1__20260120_095240_NOAA_20_JPSS-1_rec.log

#Pass ID: 20260120_095240_NOAA 20 (JPSS-1)
#Satellite: NOAA 20 (JPSS-1)
#Configuration: NOAA 20
#almurnet v.1.7.20251203
#Start time: 2026-01-20 09:52:39

#Version: 2.0.20230620
#Station: T1
#Location: 37.570604 lon 55.790049 lat
#TLE: 1 43013U 17073A   26019.55911981  .00000079  00000+0  58510-4 0  9994
#TLE: 2 43013  98.7641 320.4504 0001323  32.6518 327.4739 14.19537050423380

#Time	Az	El	Level	Level2	SNR	BER	BlckErr	Temp	State	Recorded	gain1	gain2
2026-01-20 09:52:39.77	158.62	4.98	-50.3	-65.6	3.8	1.49e+00	0	40	0	0	71	21841
2026-01-20 09:52:40.76	158.62	5.05	-50.1	-65.2	3.8	1.49e+00	0	40	104	0	72	19839
2026-01-20 09:52:41.75	158.62	5.12	-50.1	-65.3	3.8	1.49e+00	0	40	104	0	72	19854
2026-01-20 09:52:42.74	158.62	5.19	-50.1	-65.3	3.8	1.49e+00	0	40	104	0	72	19903
2026-01-20 09:52:43.74	158.62	5.27	-50.1	-65.3	3.8	1.49e+00	0	40	104	0	72	19895
2026-01-20 09:52:44.73	158.62	5.34	-50.1	-65.3	3.8	1.49e+00	0	40	104	0	72	20023
2026-01-20 09:52:45.73	158.62	5.41	-50.1	-65.4	3.8	1.49e+00	0	40	104	0	72	20085
2026-01-20 09:52:46.72	158.62	5.48	-50.1	-65.4	3.8	1.49e+00	0	41	104	0	72	20172
2026-01-20 09:52:47.71	158.61	5.56	-50.1	-65.4	3.8	1.49e+00	0	41	104	0	72	20250
2026-01-20 09:52:48.70	158.61	5.63	-50.1	-65.4	3.8	1.49e+00	0	41	104	0	72	20159
2026-01-20 09:52:49.70	158.61	5.70	-50.2	-65.4	3.8	1.49e+00	0	41	104	0	72	20118
2026-01-20 09:52:50.69	158.61	5.78	-50.1	-65.3	3.8	1.49e+00	0	41	104	0	72	19922
2026-01-20 09:52:51.69	158.61	5.85	-50.1	-65.2	3.8	1.49e+00	0	41	104	0	72	19666
2026-01-20 09:52:52.68	158.61	5.92	-50.1	-64.9	3.8	1.49e+00	0	41	104	0	72	19110
2026-01-20 09:52:53.67	158.61	6.00	-50.1	-64.8	3.8	1.49e+00	0	41	104	0	72	18835
2026-01-20 09:52:54.67	158.60	6.07	-50.1	-64.6	3.8	1.49e+00	0	41	104	0	72	18467
2026-01-20 09:52:55.66	158.60	6.15	-50.1	-64.5	3.8	1.49e+00	0	41	104	0	72	18187
2026-01-20 09:52:56.65	158.60	6.22	-50.1	-64.4	3.8	1.49e+00	0	41	104	0	72	18003
2026-01-20 09:52:57.65	158.60	6.30	-50.1	-64.4	3.8	1.49e+00	0	41	104	0	72	18054
2026-01-20 09:52:58.64	158.60	6.37	-50.1	-64.4	3.8	1.49e+00	0	41	104	0	72	18052
2026-01-20 09:52:59.63	158.60	6.45	-50.1	-64.6	3.8	1.49e+00	0	41	104	0	72	18470
2026-01-20 09:53:00.62	158.60	6.52	-50.1	-64.8	3.8	1.49e+00	0	41	104	0	72	18884
2026-01-20 09:53:01.62	158.59	6.60	-50.1	-65.0	3.8	1.49e+00	0	41	104	0	72	19311
2026-01-20 09:53:02.61	158.59	6.67	-50.1	-65.2	3.8	1.49e+00	0	41	104	0	72	19619
2026-01-20 09:53:03.61	158.59	6.75	-50.1	-65.3	3.8	1.49e+00	0	41	104	0	72	19887
2026-01-20 09:53:04.60	158.59	6.83	-50.1	-65.4	3.8	1.49e+00	0	41	104	0	72	20197
2026-01-20 09:53:05.59	158.59	6.90	-50.1	-65.4	3.8	1.49e+00	0	41	104	0	72	20198
2026-01-20 09:53:06.59	158.59	6.98	-50.1	-65.4	3.8	1.49e+00	0	41	104	0	72	20218
2026-01-20 09:53:07.58	158.58	7.06	-50.1	-65.4	3.8	1.49e+00	0	41	104	0	72	20091
2026-01-20 09:53:08.57	158.58	7.13	-50.1	-65.3	3.8	1.49e+00	0	41	104	0	72	19953
2026-01-20 09:53:09.57	158.58	7.21	-50.1	-65.1	3.8	1.49e+00	0	42	104	0	72	19514
2026-01-20 09:53:10.56	158.58	7.29	-50.1	-64.8	3.8	1.49e+00	0	41	104	0	72	18849
2026-01-20 09:53:11.55	158.58	7.37	-50.0	-64.2	3.8	1.49e+00	0	41	104	0	72	17571
2026-01-20 09:53:12.55	158.57	7.45	-50.0	-63.3	3.8	1.49e+00	0	42	104	0	72	15894
2026-01-20 09:53:13.54	158.57	7.52	-50.0	-62.2	4.1	1.48e+00	0	41	104	0	71	14843
2026-01-20 09:53:14.54	158.57	7.60	-49.8	-60.9	4.5	1.32e+00	0	42	0	0	71	12730
2026-01-20 09:53:15.53	158.57	7.68	-49.7	-59.5	5.2	8.23e-01	0	41	0	2097152	71	10848
2026-01-20 09:53:16.52	158.57	7.76	-49.5	-58.3	6.0	3.87e-01	0	41	0	4194304	71	9411
2026-01-20 09:53:17.52	158.56	7.84	-49.3	-57.3	6.9	2.17e-01	0	42	0	6291456	70	8900
2026-01-20 09:53:18.51	158.56	7.92	-49.0	-56.3	7.8	1.15e-01	0	42	0	7340032	70	7951
2026-01-20 09:53:19.50	158.56	8.00	-48.8	-55.5	8.6	6.00e-02	0	42	0	9437184	69	7684
2026-01-20 09:53:20.50	158.56	8.08	-48.6	-54.8	9.2	2.33e-02	0	42	0	11534336	69	7119
2026-01-20 09:53:21.49	158.56	8.16	-48.4	-54.4	9.8	1.37e-02	0	42	0	13631488	68	7127
2026-01-20 09:53:22.48	158.55	8.24	-48.3	-54.0	10.1	6.99e-03	0	42	0	14680064	68	6840
2026-01-20 09:53:23.48	158.55	8.32	-48.3	-53.9	10.2	6.11e-03	0	42	0	16777216	68	6796
2026-01-20 09:53:24.47	158.55	8.40	-48.3	-54.0	10.2	5.73e-03	0	42	0	18874368	68	6814
2026-01-20 09:53:25.46	158.55	8.49	-48.3	-54.0	10.2	6.36e-03	0	42	0	20971520	68	6818
2026-01-20 09:53:26.46	158.55	8.57	-48.5	-54.4	9.7	7.25e-03	0	42	0	23068672	68	7184
2026-01-20 09:53:27.45	158.54	8.65	-48.6	-54.9	9.2	1.65e-02	0	42	0	24117248	68	7584
2026-01-20 09:53:28.44	158.54	8.73	-48.9	-55.7	8.4	3.24e-02	0	42	0	26214400	68	8285
2026-01-20 09:53:29.44	158.54	8.82	-49.1	-56.5	7.6	6.37e-02	0	42	0	28311552	68	9169
2026-01-20 09:53:30.43	158.54	8.90	-49.3	-57.5	6.7	1.30e-01	0	42	0	30408704	69	9645
2026-01-20 09:53:31.42	158.53	8.98	-49.5	-58.7	5.8	3.30e-01	0	42	0	31457280	69	11072
2026-01-20 09:53:32.42	158.53	9.07	-49.2	-56.7	7.2	5.95e-01	0	42	0	33554432	69	8780
2026-01-20 09:53:33.41	158.53	9.15	-47.5	-52.4	11.8	5.65e-04	0	42	0	35651584	66	6365
2026-01-20 09:53:34.41	158.53	9.23	-49.1	-56.5	7.9	2.50e-03	0	42	0	37748736	68	9154
2026-01-20 09:53:35.40	158.52	9.32	-50.1	-64.1	3.8	1.49e+00	0	42	104	37748736	70	19584
2026-01-20 09:53:36.40	158.52	9.40	-49.7	-59.1	5.3	1.34e+00	0	42	0	37748736	70	10992
2026-01-20 09:53:37.40	158.52	9.49	-48.0	-53.5	10.5	7.16e-03	0	42	0	39845888	67	6837
2026-01-20 09:53:38.39	158.52	9.57	-48.8	-55.5	8.6	3.04e-02	0	42	0	41943040	68	8104
2026-01-20 09:53:39.38	158.51	9.66	-48.3	-54.0	10.2	1.30e-02	0	42	0	42991616	68	6838
2026-01-20 09:53:40.38	158.51	9.74	-47.8	-52.9	11.2	2.61e-02	0	42	0	45088768	67	6379
2026-01-20 09:53:41.38	158.51	9.83	-47.4	-52.1	12.0	6.73e-04	0	42	0	47185920	66	6184
2026-01-20 09:53:42.37	158.51	9.92	-47.5	-52.3	12.0	4.56e-04	0	42	0	49283072	66	6282
2026-01-20 09:53:43.37	158.50	10.00	-47.3	-51.8	12.3	2.63e-02	0	42	0	51380224	66	5988
2026-01-20 09:53:44.36	158.50	10.09	-47.3	-51.8	12.3	1.81e-04	0	42	0	52428800	66	5960
2026-01-20 09:53:45.36	158.50	10.18	-47.2	-51.7	12.5	1.39e-04	0	42	0	54525952	66	5872
2026-01-20 09:53:46.35	158.49	10.27	-47.2	-51.6	12.5	1.06e-04	0	42	0	56623104	66	5854
2026-01-20 09:53:47.35	158.49	10.36	-47.1	-51.5	12.7	4.57e-05	0	42	0	58720256	65	6112
2026-01-20 09:53:48.34	158.49	10.44	-46.8	-50.9	13.2	3.43e-05	0	42	0	59768832	65	5714
2026-01-20 09:53:49.34	158.49	10.53	-46.9	-51.1	13.1	3.28e-05	0	42	0	61865984	65	5805
2026-01-20 09:53:50.34	158.48	10.62	-46.7	-50.8	13.4	1.60e-05	0	42	0	63963136	65	5617
2026-01-20 09:53:51.33	158.48	10.71	-46.3	-50.1	14.1	5.30e-06	0	42	0	66060288	64	5482
2026-01-20 09:53:52.32	158.48	10.80	-46.3	-50.1	14.1	1.50e-06	0	42	0	68157440	64	5524
2026-01-20 09:53:53.32	158.47	10.89	-46.1	-49.7	14.5	0.00e+00	0	42	0	69206016	64	5256
2026-01-20 09:53:54.31	158.47	10.98	-46.1	-49.6	14.7	0.00e+00	0	42	0	71303168	63	5519
2026-01-20 09:53:55.31	158.47	11.07	-45.9	-49.4	14.9	7.00e-07	0	42	0	73400320	63	5373
2026-01-20 09:53:56.30	158.46	11.16	-45.7	-49.1	15.3	0.00e+00	0	42	0	75497472	63	5169
2026-01-20 09:53:57.30	158.46	11.25	-45.8	-49.1	14.9	0.00e+00	0	42	0	77594624	63	5212
2026-01-20 09:53:58.30	158.46	11.35	-45.7	-49.0	15.3	0.00e+00	0	42	0	78643200	63	5158
2026-01-20 09:53:59.29	158.45	11.44	-45.7	-49.0	15.4	0.00e+00	0	42	0	80740352	63	5108
2026-01-20 09:54:00.29	158.45	11.53	-45.7	-49.0	15.4	1.84e-02	0	42	0	82837504	63	5115
2026-01-20 09:54:01.28	158.45	11.62	-45.6	-48.8	15.5	0.00e+00	0	42	0	84934656	63	5015
2026-01-20 09:54:02.28	158.44	11.72	-45.5	-48.7	15.6	0.00e+00	0	42	0	85983232	63	4961
2026-01-20 09:54:03.27	158.44	11.81	-45.4	-48.6	15.8	1.57e-02	0	42	0	88080384	62	5182
2026-01-20 09:54:04.27	158.44	11.90	-45.4	-48.5	15.9	0.00e+00	0	42	0	90177536	62	5124
2026-01-20 09:54:05.26	158.43	12.00	-45.3	-48.4	15.9	0.00e+00	0	42	0	92274688	62	5077
2026-01-20 09:54:06.26	158.43	12.09	-45.3	-48.4	15.9	1.86e-03	0	42	0	94371840	62	5070
2026-01-20 09:54:07.25	158.43	12.19	-45.3	-48.3	16.1	0.00e+00	0	42	0	95420416	62	5024
2026-01-20 09:54:08.25	158.42	12.28	-45.3	-48.3	16.0	0.00e+00	0	42	0	97517568	62	5037
2026-01-20 09:54:09.25	158.42	12.38	-45.2	-48.2	16.2	1.00e-02	0	42	0	99614720	62	4960
2026-01-20 09:54:10.24	158.42	12.48	-45.1	-48.1	16.2	0.00e+00	0	43	0	101711872	62	4915
2026-01-20 09:54:11.23	158.41	12.57	-45.1	-48.1	16.2	0.00e+00	0	42	0	102760448	62	4908
2026-01-20 09:54:12.23	158.41	12.67	-45.1	-48.1	16.2	1.04e-02	0	42	0	104857600	62	4910
2026-01-20 09:54:13.23	158.40	12.77	-45.1	-48.1	16.3	0.00e+00	0	42	0	106954752	62	4914
2026-01-20 09:54:14.22	158.40	12.86	-45.1	-48.1	16.3	0.00e+00	0	42	0	109051904	62	4899
2026-01-20 09:54:15.22	158.40	12.96	-45.1	-48.1	16.3	0.00e+00	0	42	0	111149056	62	4881
2026-01-20 09:54:16.21	158.39	13.06	-45.0	-47.9	16.4	0.00e+00	0	42	0	112197632	62	4813
2026-01-20 09:54:17.20	158.39	13.16	-45.0	-47.9	16.4	0.00e+00	0	42	0	114294784	61	5098
2026-01-20 09:54:18.20	158.38	13.26	-45.0	-47.9	16.5	0.00e+00	0	42	0	116391936	61	5087
2026-01-20 09:54:19.19	158.38	13.36	-45.0	-47.9	16.5	0.00e+00	0	42	0	118489088	61	5065
2026-01-20 09:54:20.19	158.38	13.46	-45.0	-47.9	16.4	0.00e+00	0	42	0	119537664	61	5093
2026-01-20 09:54:21.18	158.37	13.56	-45.0	-47.9	16.4	0.00e+00	0	42	0	121634816	61	5100
2026-01-20 09:54:22.18	158.37	13.66	-44.9	-47.8	16.6	0.00e+00	0	43	0	123731968	61	5023
2026-01-20 09:54:23.18	158.36	13.76	-44.9	-47.7	13.4	0.00e+00	0	43	0	125829120	61	4968
2026-01-20 09:54:24.17	158.36	13.86	-44.9	-47.7	16.6	0.00e+00	0	43	0	127926272	61	4978
2026-01-20 09:54:25.17	158.35	13.96	-44.9	-47.8	16.6	0.00e+00	0	42	0	128974848	61	4999
2026-01-20 09:54:26.16	158.35	14.07	-44.8	-47.7	16.7	0.00e+00	0	43	0	131072000	61	4958
2026-01-20 09:54:27.16	158.35	14.17	-44.9	-47.7	16.7	0.00e+00	0	43	0	133169152	61	4968
2026-01-20 09:54:28.15	158.34	14.27	-44.9	-47.7	16.7	0.00e+00	0	43	0	135266304	61	4973
2026-01-20 09:54:29.15	158.34	14.38	-44.8	-47.7	16.7	0.00e+00	0	42	0	136314880	61	4950
2026-01-20 09:54:30.15	158.33	14.48	-44.8	-47.6	16.8	0.00e+00	0	43	0	138412032	61	4926
2026-01-20 09:54:31.14	158.33	14.59	-44.8	-47.7	16.7	0.00e+00	0	42	0	140509184	61	4948
2026-01-20 09:54:32.14	158.32	14.69	-44.9	-47.8	16.6	0.00e+00	0	43	0	142606336	61	5010
2026-01-20 09:54:33.13	158.32	14.80	-44.9	-47.8	16.7	0.00e+00	0	43	0	144703488	61	4989
2026-01-20 09:54:34.13	158.31	14.90	-44.8	-47.6	16.8	0.00e+00	0	43	0	145752064	61	4900
2026-01-20 09:54:35.12	158.31	15.01	-44.8	-47.6	16.8	0.00e+00	0	43	0	147849216	61	4893
2026-01-20 09:54:36.12	158.30	15.12	-44.8	-47.6	16.8	0.00e+00	0	43	0	149946368	61	4895
2026-01-20 09:54:37.11	158.30	15.22	-44.7	-47.5	16.9	0.00e+00	0	43	0	152043520	61	4845
2026-01-20 09:54:38.10	158.29	15.33	-44.7	-47.4	17.0	0.00e+00	0	42	0	153092096	61	4810
2026-01-20 09:54:39.10	158.29	15.44	-44.6	-47.4	17.0	0.00e+00	0	43	0	155189248	61	4803
2026-01-20 09:54:40.09	158.28	15.55	-44.6	-47.4	17.0	0.00e+00	0	43	0	157286400	61	4802
2026-01-20 09:54:41.09	158.28	15.66	-44.6	-47.4	17.1	0.00e+00	0	43	0	159383552	61	4771
2026-01-20 09:54:42.08	158.27	15.77	-44.4	-47.2	17.2	0.00e+00	0	43	0	161480704	60	4954
2026-01-20 09:54:43.08	158.27	15.88	-44.4	-47.2	17.2	0.00e+00	0	42	0	162529280	60	4958
2026-01-20 09:54:44.07	158.26	15.99	-44.4	-47.1	17.3	0.00e+00	0	43	0	164626432	60	4892
2026-01-20 09:54:45.07	158.25	16.10	-44.3	-47.1	17.3	0.00e+00	0	43	0	166723584	60	4893
2026-01-20 09:54:46.06	158.25	16.21	-44.3	-47.0	17.4	0.00e+00	0	43	0	168820736	60	4845
2026-01-20 09:54:47.06	158.24	16.33	-44.3	-47.0	17.5	0.00e+00	0	43	0	169869312	60	4822
2026-01-20 09:54:48.06	158.24	16.44	-44.3	-47.1	17.4	0.00e+00	0	43	0	171966464	60	4873
2026-01-20 09:54:49.05	158.23	16.55	-44.3	-47.0	17.4	0.00e+00	0	43	0	174063616	60	4845
2026-01-20 09:54:50.05	158.23	16.67	-44.3	-47.0	17.4	0.00e+00	0	43	0	176160768	60	4849
2026-01-20 09:54:51.04	158.22	16.78	-44.3	-47.1	17.4	0.00e+00	0	43	0	178257920	60	4889
2026-01-20 09:54:52.04	158.21	16.90	-44.3	-47.0	17.4	0.00e+00	0	42	0	179306496	60	4863
2026-01-20 09:54:53.03	158.21	17.01	-44.3	-47.0	17.5	0.00e+00	0	43	0	181403648	60	4824
2026-01-20 09:54:54.03	158.20	17.13	-44.2	-46.9	17.5	0.00e+00	0	43	0	183500800	60	4796
2026-01-20 09:54:55.03	158.20	17.25	-44.2	-46.9	17.5	0.00e+00	0	43	0	185597952	60	4807
2026-01-20 09:54:56.02	158.19	17.36	-44.2	-46.8	17.6	0.00e+00	0	43	0	187695104	60	4758
2026-01-20 09:54:57.02	158.18	17.48	-44.2	-46.9	17.6	0.00e+00	0	43	0	188743680	60	4771
2026-01-20 09:54:58.01	158.18	17.60	-44.2	-46.9	17.6	0.00e+00	0	43	0	190840832	60	4768
2026-01-20 09:54:59.00	158.17	17.72	-44.2	-46.9	17.6	0.00e+00	0	43	0	192937984	60	4764
2026-01-20 09:55:00.00	158.16	17.84	-44.1	-46.7	17.7	0.00e+00	0	43	0	195035136	60	4690
2026-01-20 09:55:00.99	158.16	17.96	-44.0	-46.6	17.8	0.00e+00	0	42	0	196083712	60	4639
2026-01-20 09:55:01.99	158.15	18.08	-44.0	-46.6	17.8	0.00e+00	0	43	0	198180864	60	4621
2026-01-20 09:55:02.98	158.14	18.20	-44.0	-46.7	17.8	0.00e+00	0	43	0	200278016	60	4654
2026-01-20 09:55:03.98	158.14	18.32	-44.0	-46.5	17.9	0.00e+00	0	43	0	202375168	59	4844
2026-01-20 09:55:04.97	158.13	18.45	-43.9	-46.4	18.0	0.00e+00	0	43	0	204472320	59	4778
2026-01-20 09:55:05.97	158.12	18.57	-43.9	-46.4	17.9	0.00e+00	0	43	0	205520896	59	4814
2026-01-20 09:55:06.96	158.12	18.69	-43.9	-46.4	18.0	0.00e+00	0	43	0	207618048	59	4778
2026-01-20 09:55:07.96	158.11	18.82	-43.8	-46.3	18.1	0.00e+00	0	43	0	209715200	59	4721
2026-01-20 09:55:08.96	158.10	18.94	-43.8	-46.3	18.0	0.00e+00	0	43	0	211812352	59	4754
2026-01-20 09:55:09.95	158.10	19.07	-43.8	-46.3	18.1	0.00e+00	0	43	0	212860928	59	4726
2026-01-20 09:55:10.95	158.09	19.20	-43.9	-46.4	17.9	0.00e+00	0	43	0	214958080	59	4814
2026-01-20 09:55:11.94	158.08	19.32	-43.7	-46.2	18.2	0.00e+00	0	43	0	217055232	59	4697
2026-01-20 09:55:12.93	158.07	19.45	-43.7	-46.2	18.2	0.00e+00	0	43	0	219152384	59	4666
2026-01-20 09:55:13.93	158.06	19.58	-43.7	-46.2	18.2	0.00e+00	0	43	0	221249536	59	4672
2026-01-20 09:55:14.92	158.06	19.71	-43.7	-46.3	18.1	0.00e+00	0	43	0	222298112	59	4713
2026-01-20 09:55:15.92	158.05	19.84	-43.7	-46.2	18.2	0.00e+00	0	43	0	224395264	59	4689
2026-01-20 09:55:16.91	158.04	19.97	-43.7	-46.3	18.1	0.00e+00	0	43	0	226492416	59	4712
2026-01-20 09:55:17.91	158.03	20.10	-43.7	-46.2	17.7	0.00e+00	0	43	0	228589568	59	4704
2026-01-20 09:55:18.90	158.03	20.23	-43.7	-46.3	18.1	0.00e+00	0	43	0	229638144	59	4707
2026-01-20 09:55:19.90	158.02	20.36	-43.7	-46.2	18.1	0.00e+00	0	43	0	231735296	59	4698
2026-01-20 09:55:20.89	158.01	20.50	-43.7	-46.2	18.2	0.00e+00	0	43	0	233832448	59	4669
2026-01-20 09:55:21.89	158.00	20.63	-43.6	-46.1	18.3	0.00e+00	0	43	0	235929600	59	4615
2026-01-20 09:55:22.88	157.99	20.77	-43.6	-46.1	18.3	0.00e+00	0	43	0	238026752	59	4626
2026-01-20 09:55:23.88	157.98	20.90	-43.7	-46.1	18.2	0.00e+00	0	43	0	239075328	59	4640
2026-01-20 09:55:24.88	157.97	21.04	-43.7	-46.2	18.2	0.00e+00	0	43	0	241172480	59	4670
2026-01-20 09:55:25.87	157.97	21.17	-43.8	-46.3	18.1	0.00e+00	0	43	0	243269632	59	4715
2026-01-20 09:55:26.86	157.96	21.31	-43.7	-46.2	18.2	0.00e+00	0	43	0	245366784	59	4694
2026-01-20 09:55:27.86	157.95	21.45	-43.7	-46.2	18.2	0.00e+00	0	43	0	246415360	59	4683
2026-01-20 09:55:28.86	157.94	21.59	-43.7	-46.1	18.2	0.00e+00	0	43	0	248512512	59	4650
2026-01-20 09:55:29.85	157.93	21.73	-43.7	-46.2	18.2	0.00e+00	0	43	0	250609664	59	4667
2026-01-20 09:55:30.85	157.92	21.87	-43.7	-46.1	18.2	0.00e+00	0	43	0	252706816	59	4648
2026-01-20 09:55:31.84	157.91	22.01	-43.7	-46.2	18.2	0.00e+00	0	43	0	254803968	59	4661
2026-01-20 09:55:32.84	157.90	22.15	-43.8	-46.2	18.1	0.00e+00	0	43	0	255852544	59	4695
2026-01-20 09:55:33.83	157.89	22.30	-43.8	-46.3	18.1	0.00e+00	0	43	0	257949696	59	4719
2026-01-20 09:55:34.83	157.88	22.44	-43.7	-46.1	18.3	0.00e+00	0	43	0	260046848	59	4622
2026-01-20 09:55:35.83	157.87	22.59	-43.6	-46.0	18.4	0.00e+00	0	43	0	262144000	59	4584
2026-01-20 09:55:36.82	157.86	22.73	-43.6	-46.0	18.4	0.00e+00	0	43	0	264241152	59	4584
2026-01-20 09:55:37.82	157.85	22.88	-43.6	-46.0	18.4	0.00e+00	0	43	0	265289728	59	4561
2026-01-20 09:55:38.81	157.84	23.03	-43.5	-45.8	18.5	0.00e+00	0	43	0	267386880	59	4492
2026-01-20 09:55:39.81	157.83	23.17	-43.5	-45.8	18.5	0.00e+00	0	43	0	269484032	58	4748
2026-01-20 09:55:40.80	157.82	23.32	-43.5	-45.9	18.5	0.00e+00	0	43	0	271581184	58	4778
2026-01-20 09:55:41.80	157.81	23.47	-43.5	-45.9	18.5	0.00e+00	0	43	0	272629760	58	4791
2026-01-20 09:55:42.80	157.80	23.62	-43.5	-45.9	18.5	0.00e+00	0	43	0	274726912	58	4770
2026-01-20 09:55:43.79	157.79	23.77	-43.5	-45.9	18.2	0.00e+00	0	43	0	276824064	58	4812
2026-01-20 09:55:44.78	157.78	23.93	-43.6	-46.0	18.4	0.00e+00	0	43	0	278921216	58	4859
2026-01-20 09:55:45.78	157.77	24.08	-43.6	-46.0	18.4	0.00e+00	0	43	0	281018368	58	4851
2026-01-20 09:55:46.77	157.76	24.23	-43.5	-45.9	18.5	0.00e+00	0	43	0	282066944	58	4777
2026-01-20 09:55:47.77	157.74	24.39	-43.6	-46.0	18.4	0.00e+00	0	43	0	284164096	58	4870
2026-01-20 09:55:48.76	157.73	24.54	-43.7	-46.1	18.3	0.00e+00	0	43	0	286261248	58	4924
2026-01-20 09:55:49.76	157.72	24.70	-43.7	-46.2	18.3	0.00e+00	0	43	0	288358400	58	4945
2026-01-20 09:55:50.75	157.71	24.86	-43.8	-46.3	18.2	0.00e+00	0	43	0	289406976	58	4997
2026-01-20 09:55:51.75	157.70	25.02	-43.8	-46.2	18.2	0.00e+00	0	43	0	291504128	58	4967
2026-01-20 09:55:52.74	157.68	25.18	-43.9	-46.4	18.1	0.00e+00	0	43	0	293601280	58	5043
2026-01-20 09:55:53.74	157.67	25.34	-43.9	-46.4	18.1	0.00e+00	0	43	0	295698432	58	5063
2026-01-20 09:55:54.74	157.66	25.50	-43.8	-46.3	18.2	0.00e+00	0	43	0	297795584	58	4986
2026-01-20 09:55:55.73	157.65	25.66	-43.9	-46.3	18.1	0.00e+00	0	43	0	298844160	58	5021
2026-01-20 09:55:56.73	157.63	25.83	-44.0	-46.5	18.0	0.00e+00	0	43	0	300941312	58	5115
2026-01-20 09:55:57.72	157.62	25.99	-43.9	-46.4	18.0	0.00e+00	0	43	0	303038464	58	5094
2026-01-20 09:55:58.72	157.61	26.16	-44.2	-46.7	17.8	0.00e+00	0	43	0	305135616	58	5243
2026-01-20 09:55:59.71	157.59	26.32	-44.2	-46.7	17.8	0.00e+00	0	43	0	306184192	59	4955
2026-01-20 09:56:00.71	157.58	26.49	-44.3	-46.8	17.6	0.00e+00	0	43	0	308281344	59	5041
2026-01-20 09:56:01.71	157.57	26.66	-44.2	-46.8	17.6	0.00e+00	0	43	0	310378496	59	5025
2026-01-20 09:56:02.70	157.55	26.83	-44.3	-46.9	17.6	0.00e+00	0	43	0	312475648	59	5072
2026-01-20 09:56:03.70	157.54	27.00	-44.2	-46.9	17.6	0.00e+00	0	43	0	314572800	59	5042
2026-01-20 09:56:04.69	157.53	27.17	-44.3	-46.9	17.6	0.00e+00	0	43	0	315621376	59	5066
2026-01-20 09:56:05.68	157.51	27.35	-44.2	-46.8	17.7	0.00e+00	0	43	0	317718528	59	5007
2026-01-20 09:56:06.68	157.50	27.52	-44.3	-46.9	17.6	0.00e+00	0	43	0	319815680	59	5052
2026-01-20 09:56:07.67	157.48	27.70	-44.4	-47.0	17.5	0.00e+00	0	43	0	321912832	59	5131
2026-01-20 09:56:08.67	157.47	27.87	-44.2	-46.8	17.6	0.00e+00	0	43	0	322961408	59	5036
2026-01-20 09:56:09.66	157.45	28.05	-44.5	-47.2	17.3	0.00e+00	0	43	0	325058560	59	5225
2026-01-20 09:56:10.66	157.44	28.23	-44.6	-47.3	17.2	0.00e+00	0	43	0	327155712	59	5293
2026-01-20 09:56:11.65	157.42	28.41	-44.6	-47.3	17.1	0.00e+00	0	43	0	329252864	59	5336
2026-01-20 09:56:12.65	157.40	28.59	-44.6	-47.3	17.2	0.00e+00	0	43	0	331350016	59	5340
2026-01-20 09:56:13.64	157.39	28.77	-44.6	-47.4	17.1	0.00e+00	0	43	0	332398592	59	5366
2026-01-20 09:56:14.64	157.37	28.96	-44.8	-47.6	16.9	0.00e+00	0	43	0	334495744	60	5206
2026-01-20 09:56:15.63	157.36	29.14	-44.9	-47.8	16.8	0.00e+00	0	43	0	336592896	60	5288
2026-01-20 09:56:16.62	157.34	29.33	-44.9	-47.8	16.8	0.00e+00	0	43	0	338690048	60	5324
2026-01-20 09:56:17.62	157.32	29.51	-45.0	-48.0	16.6	0.00e+00	0	43	0	339738624	60	5431
2026-01-20 09:56:18.61	157.31	29.70	-45.1	-48.1	16.5	0.00e+00	0	43	0	341835776	60	5468
2026-01-20 09:56:19.61	157.29	29.89	-45.2	-48.3	16.3	0.00e+00	0	43	0	343932928	61	5297
2026-01-20 09:56:20.60	157.27	30.08	-45.3	-48.5	16.1	0.00e+00	0	43	0	346030080	61	5403
2026-01-20 09:56:21.59	157.25	30.27	-45.4	-48.7	15.9	0.00e+00	0	43	0	348127232	61	5544
2026-01-20 09:56:22.59	157.24	30.47	-45.6	-48.9	15.7	0.00e+00	0	43	0	349175808	61	5696
2026-01-20 09:56:23.58	157.22	30.66	-45.8	-49.2	15.4	0.00e+00	0	43	0	351272960	62	5549
2026-01-20 09:56:24.58	157.20	30.86	-45.9	-49.4	15.3	0.00e+00	0	43	0	353370112	62	5683
2026-01-20 09:56:25.58	157.18	31.06	-46.0	-49.5	15.1	0.00e+00	0	43	0	355467264	62	5762
2026-01-20 09:56:26.57	157.16	31.25	-46.0	-49.6	15.1	0.00e+00	0	43	0	356515840	62	5814
2026-01-20 09:56:27.57	157.14	31.45	-46.2	-49.8	14.9	0.00e+00	0	43	0	358612992	63	5594
2026-01-20 09:56:28.56	157.12	31.65	-46.2	-49.7	14.9	0.00e+00	0	43	0	360710144	63	5570
2026-01-20 09:56:29.56	157.10	31.86	-46.3	-49.9	14.8	0.00e+00	0	43	0	362807296	63	5675
2026-01-20 09:56:30.55	157.08	32.06	-46.3	-49.8	14.8	0.00e+00	0	43	0	364904448	63	5601
2026-01-20 09:56:31.55	157.06	32.27	-46.3	-49.8	14.8	0.00e+00	0	43	0	365953024	63	5606
2026-01-20 09:56:32.54	157.04	32.47	-46.3	-49.7	14.9	0.00e+00	0	43	0	368050176	63	5544
2026-01-20 09:56:33.54	157.02	32.68	-46.2	-49.6	15.0	0.00e+00	0	43	0	370147328	63	5489
2026-01-20 09:56:34.53	157.00	32.89	-46.2	-49.6	15.1	0.00e+00	0	43	0	372244480	63	5469
2026-01-20 09:56:35.53	156.98	33.10	-46.1	-49.4	15.2	0.00e+00	0	43	0	373293056	63	5366
2026-01-20 09:56:36.53	156.95	33.32	-46.1	-49.4	15.2	0.00e+00	0	43	0	375390208	63	5376
2026-01-20 09:56:37.52	156.93	33.53	-46.0	-49.3	15.4	0.00e+00	0	43	0	377487360	63	5298
2026-01-20 09:56:38.52	156.91	33.75	-45.9	-49.1	15.5	0.00e+00	0	43	0	379584512	63	5172
2026-01-20 09:56:39.51	156.89	33.96	-45.7	-48.9	15.8	0.00e+00	0	43	0	381681664	63	5061
2026-01-20 09:56:40.51	156.86	34.18	-45.6	-48.7	15.9	0.00e+00	0	43	0	382730240	63	4964
2026-01-20 09:56:41.50	156.84	34.40	-45.5	-48.5	16.1	0.00e+00	0	43	0	384827392	62	5155
2026-01-20 09:56:42.50	156.81	34.63	-45.3	-48.3	16.3	0.00e+00	0	43	0	386924544	62	5022
2026-01-20 09:56:43.49	156.79	34.85	-45.1	-48.0	16.6	0.00e+00	0	43	0	389021696	62	4817
2026-01-20 09:56:44.49	156.76	35.08	-44.9	-47.8	16.9	0.00e+00	0	43	0	390070272	61	4986
2026-01-20 09:56:45.48	156.74	35.30	-44.8	-47.5	17.1	0.00e+00	0	43	0	392167424	61	4858
2026-01-20 09:56:46.48	156.71	35.53	-44.8	-47.5	17.1	0.00e+00	0	43	0	394264576	61	4864
2026-01-20 09:56:47.47	156.69	35.76	-44.6	-47.2	17.4	0.00e+00	0	43	0	396361728	61	4683
2026-01-20 09:56:48.47	156.66	35.99	-44.1	-46.6	18.0	0.00e+00	0	43	0	398458880	60	4611
2026-01-20 09:56:49.46	156.63	36.22	-43.7	-46.1	18.4	0.00e+00	0	43	0	399507456	59	4628
2026-01-20 09:56:50.46	156.61	36.46	-43.5	-45.9	18.5	0.00e+00	0	43	0	401604608	59	4523
2026-01-20 09:56:51.45	156.58	36.70	-43.4	-45.8	18.7	0.00e+00	0	43	0	403701760	58	4732
2026-01-20 09:56:52.45	156.55	36.94	-43.3	-45.7	18.8	0.00e+00	0	43	0	405798912	58	4676
2026-01-20 09:56:53.44	156.52	37.17	-43.3	-45.6	18.8	0.00e+00	0	43	0	406847488	58	4636
2026-01-20 09:56:54.44	156.49	37.42	-43.1	-45.5	19.0	0.00e+00	0	43	0	408944640	58	4547
2026-01-20 09:56:55.43	156.46	37.66	-43.0	-45.2	19.2	0.00e+00	0	43	0	411041792	57	4700
2026-01-20 09:56:56.43	156.43	37.91	-43.0	-45.3	19.1	0.00e+00	0	43	0	413138944	57	4720
2026-01-20 09:56:57.42	156.40	38.15	-43.0	-45.2	19.2	0.00e+00	0	43	0	415236096	57	4702
2026-01-20 09:56:58.42	156.37	38.40	-43.0	-45.3	19.2	0.00e+00	0	43	0	416284672	57	4720
2026-01-20 09:56:59.41	156.34	38.65	-43.2	-45.5	18.9	0.00e+00	0	43	0	418381824	57	4859
2026-01-20 09:57:00.41	156.31	38.91	-43.2	-45.5	19.0	0.00e+00	0	43	0	420478976	57	4864
2026-01-20 09:57:01.40	156.27	39.16	-43.3	-45.7	18.8	0.00e+00	0	43	0	422576128	57	4933
2026-01-20 09:57:02.40	156.24	39.42	-43.4	-45.7	18.7	0.00e+00	0	43	0	423624704	57	4978
2026-01-20 09:57:03.39	156.21	39.68	-43.5	-45.9	18.6	0.00e+00	0	43	0	425721856	57	5049
2026-01-20 09:57:04.38	156.17	39.93	-43.5	-45.8	18.6	0.00e+00	0	43	0	427819008	57	5036
2026-01-20 09:57:05.38	156.14	40.20	-43.7	-46.1	18.4	0.00e+00	0	43	0	429916160	58	4908
2026-01-20 09:57:06.38	156.10	40.46	-43.9	-46.3	18.2	0.00e+00	0	43	0	432013312	58	5015
2026-01-20 09:57:07.37	156.06	40.73	-43.9	-46.3	18.2	0.00e+00	0	43	0	433061888	58	5031
2026-01-20 09:57:08.36	156.03	41.00	-44.1	-46.6	17.9	0.00e+00	0	43	0	435159040	58	5211
2026-01-20 09:57:09.36	155.99	41.27	-44.2	-46.8	17.8	0.00e+00	0	43	0	437256192	59	4994
2026-01-20 09:57:10.35	155.95	41.54	-44.3	-46.9	17.7	0.00e+00	0	43	0	439353344	59	5064
2026-01-20 09:57:11.35	155.91	41.81	-44.4	-47.0	17.6	0.00e+00	0	43	0	440401920	59	5101
2026-01-20 09:57:12.34	155.87	42.09	-44.4	-46.9	17.6	0.00e+00	0	43	0	442499072	59	5085
2026-01-20 09:57:13.34	155.83	42.37	-44.4	-46.9	17.6	0.00e+00	0	43	0	444596224	59	5099
2026-01-20 09:57:14.33	155.79	42.65	-44.4	-47.0	17.5	0.00e+00	0	43	0	446693376	59	5123
2026-01-20 09:57:15.33	155.75	42.93	-44.4	-47.0	17.5	0.00e+00	0	43	0	448790528	59	5150
2026-01-20 09:57:16.32	155.70	43.21	-44.5	-47.1	17.4	0.00e+00	0	43	0	449839104	59	5199
2026-01-20 09:57:17.31	155.66	43.50	-44.4	-47.0	17.5	0.00e+00	0	43	0	451936256	59	5139
2026-01-20 09:57:18.31	155.62	43.79	-44.6	-47.2	17.3	0.00e+00	0	43	0	454033408	59	5260
2026-01-20 09:57:19.30	155.57	44.08	-44.8	-47.6	17.1	0.00e+00	0	43	0	456130560	60	5183
2026-01-20 09:57:20.30	155.52	44.37	-44.8	-47.6	17.0	0.00e+00	0	43	0	458227712	60	5174
2026-01-20 09:57:21.29	155.48	44.67	-44.8	-47.5	17.2	0.00e+00	0	43	0	459276288	60	5114
2026-01-20 09:57:22.29	155.43	44.96	-44.9	-47.7	16.9	0.00e+00	0	43	0	461373440	60	5260
2026-01-20 09:57:23.28	155.38	45.26	-45.2	-48.0	16.5	0.00e+00	0	43	0	463470592	61	5142
2026-01-20 09:57:24.28	155.33	45.57	-45.5	-48.5	16.2	0.00e+00	0	43	0	465567744	61	5406
2026-01-20 09:57:25.27	155.28	45.87	-45.5	-48.4	16.2	0.00e+00	0	43	0	466616320	61	5386
2026-01-20 09:57:26.27	155.23	46.18	-45.7	-48.8	15.9	0.00e+00	0	43	0	468713472	62	5308
2026-01-20 09:57:27.26	155.17	46.48	-45.9	-49.0	15.7	0.00e+00	0	43	0	470810624	62	5415
2026-01-20 09:57:28.26	155.12	46.80	-46.2	-49.4	15.2	0.00e+00	0	43	0	472907776	63	5381
2026-01-20 09:57:29.25	155.06	47.11	-46.5	-49.9	14.8	0.00e+00	0	43	0	475004928	63	5712
2026-01-20 09:57:30.25	155.00	47.43	-46.6	-50.2	14.4	0.00e+00	0	43	0	476053504	64	5576
2026-01-20 09:57:31.24	154.95	47.74	-46.6	-50.1	14.5	7.00e-07	0	43	0	478150656	64	5496
2026-01-20 09:57:32.24	154.89	48.06	-46.6	-50.2	14.4	1.50e-06	0	43	0	480247808	64	5565
2026-01-20 09:57:33.23	154.83	48.38	-46.4	-50.0	14.6	1.50e-06	0	43	0	482344960	64	5440
2026-01-20 09:57:34.23	154.76	48.71	-46.2	-49.6	15.0	0.00e+00	0	43	0	483393536	64	5174
2026-01-20 09:57:35.22	154.70	49.04	-46.1	-49.5	15.2	0.00e+00	0	43	0	485490688	64	5116
2026-01-20 09:57:36.22	154.64	49.37	-45.9	-49.1	15.6	0.00e+00	0	43	0	487587840	63	5204
2026-01-20 09:57:37.21	154.57	49.70	-45.4	-48.4	16.3	0.00e+00	0	43	0	489684992	62	5063
2026-01-20 09:57:38.20	154.50	50.03	-45.0	-47.8	16.8	0.00e+00	0	43	0	491782144	62	4730
2026-01-20 09:57:39.20	154.43	50.37	-44.5	-47.1	17.6	0.00e+00	0	43	0	492830720	60	4888
2026-01-20 09:57:40.20	154.36	50.71	-44.0	-46.4	18.1	0.00e+00	0	43	0	494927872	60	4531
2026-01-20 09:57:41.19	154.29	51.05	-43.9	-46.3	18.2	0.00e+00	0	43	0	497025024	59	4732
2026-01-20 09:57:42.19	154.21	51.40	-43.4	-45.7	18.8	0.00e+00	0	43	0	499122176	58	4675
2026-01-20 09:57:43.18	154.14	51.74	-42.8	-45.0	19.4	0.00e+00	0	43	0	500170752	57	4579
2026-01-20 09:57:44.17	154.06	52.09	-42.5	-44.6	19.8	0.00e+00	0	43	0	502267904	57	4373
2026-01-20 09:57:45.17	153.98	52.44	-42.4	-44.6	19.9	0.00e+00	0	43	0	504365056	56	4618
2026-01-20 09:57:46.16	153.90	52.79	-42.4	-44.5	19.9	0.00e+00	0	43	0	506462208	56	4588
2026-01-20 09:57:47.16	153.81	53.15	-42.5	-44.6	19.8	0.00e+00	0	43	0	508559360	56	4635
2026-01-20 09:57:48.15	153.73	53.51	-42.6	-44.8	19.7	0.00e+00	0	43	0	509607936	56	4722
2026-01-20 09:57:49.15	153.64	53.87	-42.6	-44.8	19.6	0.00e+00	0	43	0	511705088	56	4740
2026-01-20 09:57:50.14	153.55	54.24	-42.8	-45.0	19.5	0.00e+00	0	43	0	513802240	56	4848
2026-01-20 09:57:51.14	153.45	54.60	-42.8	-45.0	19.4	0.00e+00	0	43	0	515899392	56	4861
2026-01-20 09:57:52.13	153.36	54.97	-43.0	-45.2	19.2	0.00e+00	0	43	0	516947968	56	4967
2026-01-20 09:57:53.13	153.26	55.34	-43.2	-45.5	19.0	0.00e+00	0	43	0	519045120	57	4836
2026-01-20 09:57:54.12	153.16	55.72	-43.5	-45.9	18.6	0.00e+00	0	43	0	521142272	57	5067
2026-01-20 09:57:55.12	153.05	56.09	-43.9	-46.4	18.1	0.00e+00	0	43	0	523239424	58	5071
2026-01-20 09:57:56.11	152.95	56.47	-44.4	-46.9	17.6	0.00e+00	0	43	0	525336576	59	5100
2026-01-20 09:57:57.11	152.83	56.86	-45.3	-48.2	16.4	0.00e+00	0	43	0	526385152	61	5275
2026-01-20 09:57:58.11	152.72	57.24	-46.1	-49.3	15.4	0.00e+00	0	43	0	528482304	62	5618
2026-01-20 09:57:59.10	152.60	57.63	-46.5	-50.0	14.7	0.00e+00	0	43	0	530579456	63	5781
2026-01-20 09:58:00.10	152.48	58.02	-47.0	-50.9	13.8	1.50e-06	0	43	0	532676608	64	6005
2026-01-20 09:58:01.09	152.36	58.41	-47.0	-50.8	13.7	4.50e-06	0	43	0	533725184	64	5977
2026-01-20 09:58:02.08	152.23	58.80	-47.0	-50.9	13.6	6.80e-06	0	43	0	535822336	64	6044
2026-01-20 09:58:03.08	152.10	59.20	-46.8	-50.5	14.2	3.80e-06	0	43	0	537919488	64	5725
2026-01-20 09:58:04.08	151.96	59.60	-46.4	-49.9	14.7	1.50e-06	0	43	0	540016640	64	5377
2026-01-20 09:58:05.07	151.82	60.00	-45.8	-49.0	15.7	0.00e+00	0	43	0	542113792	63	5134
2026-01-20 09:58:06.06	151.68	60.40	-45.5	-48.4	16.3	0.00e+00	0	43	0	543162368	62	5093
2026-01-20 09:58:07.06	151.53	60.80	-44.8	-47.5	17.2	0.00e+00	0	43	0	545259520	61	4855
2026-01-20 09:58:08.05	151.38	61.21	-44.4	-47.0	17.6	0.00e+00	0	43	0	547356672	60	4836
2026-01-20 09:58:09.05	151.22	61.62	-43.9	-46.3	18.1	0.00e+00	0	43	0	549453824	59	4755
2026-01-20 09:58:10.04	151.05	62.03	-43.4	-45.8	18.7	0.00e+00	0	43	0	550502400	58	4722
2026-01-20 09:58:11.04	150.88	62.45	-43.4	-45.8	18.8	0.00e+00	0	43	0	552599552	58	4712
2026-01-20 09:58:12.03	150.70	62.87	-43.1	-45.5	18.9	0.00e+00	0	43	0	554696704	58	4563
2026-01-20 09:58:13.03	150.52	63.29	-42.8	-45.1	19.4	0.00e+00	0	43	0	556793856	57	4628
2026-01-20 09:58:14.02	150.33	63.71	-43.0	-45.2	19.2	0.00e+00	0	43	0	558891008	57	4703
2026-01-20 09:58:15.02	150.13	64.14	-42.9	-45.2	19.3	0.00e+00	0	43	0	559939584	57	4658
2026-01-20 09:58:16.01	149.93	64.56	-43.1	-45.4	19.1	0.00e+00	0	43	0	562036736	57	4793
2026-01-20 09:58:17.01	149.71	64.99	-43.5	-45.8	18.7	0.00e+00	0	43	0	564133888	57	5029
2026-01-20 09:58:18.00	149.49	65.42	-44.1	-46.6	17.9	0.00e+00	0	43	0	566231040	58	5207
2026-01-20 09:58:19.00	149.26	65.85	-44.5	-47.1	17.5	0.00e+00	0	43	0	567279616	59	5207
2026-01-20 09:58:19.99	149.02	66.29	-44.5	-47.2	17.3	0.00e+00	0	43	0	569376768	59	5263
2026-01-20 09:58:20.99	148.77	66.72	-44.9	-47.8	16.9	0.00e+00	0	43	0	571473920	60	5297
2026-01-20 09:58:21.99	148.51	67.16	-44.9	-47.7	17.0	0.00e+00	0	43	0	573571072	60	5231
2026-01-20 09:58:22.98	148.24	67.60	-44.8	-47.6	17.1	0.00e+00	0	43	0	575668224	60	5166
2026-01-20 09:58:23.98	147.96	68.05	-44.9	-47.6	17.1	0.00e+00	0	43	0	576716800	60	5212
2026-01-20 09:58:24.98	147.66	68.49	-45.0	-47.7	16.9	0.00e+00	0	43	0	578813952	60	5278
2026-01-20 09:58:25.97	147.35	68.94	-44.9	-47.7	17.0	0.00e+00	0	43	0	580911104	60	5253
2026-01-20 09:58:26.97	147.02	69.38	-44.5	-47.0	17.6	0.00e+00	0	43	0	583008256	60	4855
2026-01-20 09:58:27.96	146.68	69.83	-44.5	-47.1	17.5	0.00e+00	0	43	0	584056832	60	4912
2026-01-20 09:58:28.96	146.32	70.28	-44.4	-47.0	17.6	0.00e+00	0	43	0	586153984	60	4816
2026-01-20 09:58:29.95	145.95	70.73	-44.1	-46.6	18.0	0.00e+00	0	43	0	588251136	60	4617
2026-01-20 09:58:30.95	145.55	71.19	-44.1	-46.7	18.0	0.00e+00	0	43	0	590348288	60	4653
2026-01-20 09:58:31.94	145.14	71.64	-44.5	-47.2	17.4	0.00e+00	0	43	0	592445440	60	4950
2026-01-20 09:58:32.94	144.70	72.09	-44.6	-47.3	17.3	0.00e+00	0	43	0	593494016	60	4992
2026-01-20 09:58:33.93	144.24	72.55	-44.4	-47.0	17.5	0.00e+00	0	43	0	595591168	60	4846
2026-01-20 09:58:34.93	143.75	73.00	-44.3	-46.9	17.7	0.00e+00	0	43	0	597688320	60	4806
2026-01-20 09:58:35.92	143.24	73.46	-44.5	-47.3	17.3	0.00e+00	0	43	0	599785472	60	4999
2026-01-20 09:58:36.92	142.68	73.92	-44.9	-47.8	16.9	0.00e+00	0	43	0	600834048	60	5282
2026-01-20 09:58:37.91	142.11	74.37	-45.4	-48.4	16.2	0.00e+00	0	43	0	602931200	61	5357
2026-01-20 09:58:38.91	141.48	74.83	-45.6	-48.6	16.1	0.00e+00	0	43	0	605028352	61	5518
2026-01-20 09:58:39.90	140.83	75.28	-44.8	-47.5	17.1	0.00e+00	0	43	0	607125504	61	4847
2026-01-20 09:58:40.89	140.13	75.74	-44.4	-46.9	17.7	0.00e+00	0	43	0	609222656	60	4804
2026-01-20 09:58:41.89	139.38	76.20	-44.4	-46.9	17.7	0.00e+00	0	43	0	610271232	60	4814
2026-01-20 09:58:42.88	138.58	76.65	-44.8	-47.6	17.0	0.00e+00	0	43	0	612368384	60	5192
2026-01-20 09:58:43.88	137.71	77.10	-44.9	-47.7	17.0	0.00e+00	0	43	0	614465536	60	5246
2026-01-20 09:58:44.87	136.79	77.55	-45.2	-48.0	16.7	0.00e+00	0	43	0	616562688	61	5124
2026-01-20 09:58:45.87	135.78	78.00	-45.8	-48.9	15.8	0.00e+00	0	43	0	618659840	62	5390
2026-01-20 09:58:46.86	134.71	78.45	-45.7	-48.8	15.9	0.00e+00	0	43	0	619708416	62	5322
2026-01-20 09:58:47.86	133.54	78.89	-45.0	-47.9	16.7	0.00e+00	0	43	0	621805568	62	4774
2026-01-20 09:58:48.85	132.28	79.33	-44.1	-46.6	18.0	0.00e+00	0	43	0	623902720	60	4624
2026-01-20 09:58:49.85	130.89	79.77	-43.4	-45.7	18.8	0.00e+00	0	43	0	625999872	58	4680
2026-01-20 09:58:50.85	129.39	80.20	-43.4	-45.8	18.7	0.00e+00	0	43	0	627048448	58	4745
2026-01-20 09:58:51.84	127.75	80.62	-44.0	-46.5	18.1	0.00e+00	0	43	0	629145600	58	5140
2026-01-20 09:58:52.84	125.95	81.04	-44.6	-47.3	17.3	0.00e+00	0	43	0	631242752	59	5281
2026-01-20 09:58:53.83	123.99	81.44	-45.0	-47.9	16.8	0.00e+00	0	43	0	633339904	60	5344
2026-01-20 09:58:54.83	121.81	81.84	-44.8	-47.6	17.0	0.00e+00	0	43	0	635437056	61	4907
2026-01-20 09:58:55.82	119.43	82.22	-44.7	-47.5	17.1	0.00e+00	0	43	0	636485632	61	4862
2026-01-20 09:58:56.81	116.81	82.59	-44.6	-47.3	17.3	0.00e+00	0	43	0	638582784	61	4753
2026-01-20 09:58:57.81	113.88	82.95	-44.2	-46.8	17.9	0.00e+00	0	43	0	640679936	60	4733
2026-01-20 09:58:58.80	110.69	83.28	-43.9	-46.3	18.2	0.00e+00	0	43	0	642777088	59	4758
2026-01-20 09:58:59.80	107.14	83.59	-43.5	-45.9	18.5	0.00e+00	0	43	0	643825664	59	4527
2026-01-20 09:59:00.80	103.24	83.88	-42.9	-45.2	19.2	0.00e+00	0	43	0	645922816	57	4685
2026-01-20 09:59:01.79	99.02	84.13	-42.5	-44.7	19.6	0.00e+00	0	43	0	648019968	57	4440
2026-01-20 09:59:02.79	94.39	84.35	-42.8	-45.1	19.4	0.00e+00	0	43	0	650117120	56	4888
2026-01-20 09:59:03.78	89.48	84.53	-43.4	-45.8	18.7	0.00e+00	0	43	0	652214272	57	5016
2026-01-20 09:59:04.78	84.21	84.67	-43.9	-46.4	18.1	0.00e+00	0	43	0	653262848	58	5081
2026-01-20 09:59:05.77	78.77	84.76	-44.2	-46.8	17.7	0.00e+00	0	43	0	655360000	59	5011
2026-01-20 09:59:06.77	73.14	84.80	-44.4	-47.1	17.5	0.00e+00	0	43	0	657457152	59	5183
2026-01-20 09:59:07.76	67.52	84.79	-44.2	-46.9	17.7	0.00e+00	0	43	0	659554304	59	5047
2026-01-20 09:59:08.76	61.92	84.73	-44.0	-46.5	18.0	0.00e+00	0	43	0	660602880	59	4834
2026-01-20 09:59:09.75	56.55	84.63	-44.1	-46.7	17.8	0.00e+00	0	43	0	662700032	59	4955
2026-01-20 09:59:10.75	51.37	84.48	-44.7	-47.5	17.2	0.00e+00	0	43	0	664797184	60	5113
2026-01-20 09:59:11.75	46.52	84.28	-44.7	-47.4	17.3	0.00e+00	0	43	0	666894336	60	5077
2026-01-20 09:59:12.74	42.06	84.05	-44.3	-46.9	17.7	0.00e+00	0	43	0	668991488	60	4768
2026-01-20 09:59:13.74	37.92	83.79	-44.2	-46.7	17.8	0.00e+00	0	43	0	670040064	59	4970
2026-01-20 09:59:14.73	34.17	83.49	-44.4	-47.0	17.7	0.00e+00	0	43	0	672137216	59	5132
2026-01-20 09:59:15.73	30.73	83.17	-44.8	-47.5	17.1	0.00e+00	0	43	0	674234368	60	5125
2026-01-20 09:59:16.72	27.64	82.83	-45.8	-48.9	15.8	0.00e+00	0	43	0	676331520	62	5389
2026-01-20 09:59:17.72	24.81	82.47	-46.1	-49.4	15.3	0.00e+00	0	43	0	677380096	62	5687
2026-01-20 09:59:18.71	22.27	82.10	-46.0	-49.2	15.4	0.00e+00	0	43	0	679477248	63	5279
2026-01-20 09:59:19.71	19.94	81.71	-45.7	-48.8	15.9	0.00e+00	0	43	0	681574400	63	5017
2026-01-20 09:59:20.70	17.86	81.31	-44.6	-47.2	17.3	0.00e+00	0	43	0	683671552	61	4688
2026-01-20 09:59:21.70	15.93	80.90	-44.1	-46.6	18.0	0.00e+00	0	43	0	685768704	60	4629
2026-01-20 09:59:22.69	14.20	80.49	-43.4	-45.7	18.8	0.00e+00	0	43	0	686817280	58	4670
2026-01-20 09:59:23.69	12.60	80.06	-43.5	-45.9	18.7	0.00e+00	0	43	0	688914432	58	4762
2026-01-20 09:59:24.68	11.15	79.63	-43.4	-45.7	18.9	0.00e+00	0	43	0	691011584	58	4680
2026-01-20 09:59:25.68	9.81	79.19	-43.7	-46.1	18.5	0.00e+00	0	43	0	693108736	58	4873
2026-01-20 09:59:26.68	8.57	78.75	-44.0	-46.5	18.1	0.00e+00	0	43	0	695205888	58	5132
2026-01-20 09:59:27.67	7.44	78.31	-44.2	-46.7	17.9	0.00e+00	0	43	0	696254464	59	4967
2026-01-20 09:59:28.66	6.39	77.86	-44.3	-46.9	17.8	0.00e+00	0	43	0	698351616	59	5048
2026-01-20 09:59:29.66	5.41	77.41	-45.2	-48.1	16.7	0.00e+00	0	43	0	700448768	60	5468
2026-01-20 09:59:30.65	4.51	76.96	-45.6	-48.7	16.0	0.00e+00	0	43	0	702545920	62	5226
2026-01-20 09:59:31.65	3.66	76.51	-45.7	-48.7	16.0	0.00e+00	0	43	0	703594496	62	5270
2026-01-20 09:59:32.64	2.88	76.06	-45.7	-48.8	15.9	0.00e+00	0	43	0	705691648	62	5318
2026-01-20 09:59:33.64	2.15	75.60	-45.9	-49.0	15.7	0.00e+00	0	43	0	707788800	62	5431
2026-01-20 09:59:34.63	1.46	75.15	-45.6	-48.6	16.0	0.00e+00	0	43	0	709885952	62	5218
2026-01-20 09:59:35.63	0.81	74.69	-45.6	-48.7	16.1	0.00e+00	0	43	0	711983104	62	5223
2026-01-20 09:59:36.62	0.21	74.23	-45.9	-49.0	15.8	0.00e+00	0	43	0	713031680	62	5425
2026-01-20 09:59:37.62	359.64	73.78	-45.4	-48.4	16.3	0.00e+00	0	43	0	715128832	62	5059
2026-01-20 09:59:38.61	359.10	73.32	-45.3	-48.2	16.4	0.00e+00	0	43	0	717225984	62	4978
2026-01-20 09:59:39.61	358.59	72.87	-44.8	-47.5	17.1	0.00e+00	0	43	0	719323136	61	4853
2026-01-20 09:59:40.60	358.12	72.41	-44.1	-46.7	18.0	0.00e+00	0	43	0	720371712	60	4655
2026-01-20 09:59:41.60	357.66	71.96	-44.0	-46.5	18.1	0.00e+00	0	43	0	722468864	60	4576
2026-01-20 09:59:42.59	357.23	71.51	-43.7	-46.1	18.5	0.00e+00	0	43	0	724566016	59	4620
2026-01-20 09:59:43.59	356.82	71.05	-43.7	-46.1	18.5	0.00e+00	0	43	0	726663168	59	4618
2026-01-20 09:59:44.59	356.43	70.60	-44.3	-46.9	17.7	0.00e+00	0	43	0	728760320	59	5061
2026-01-20 09:59:45.58	356.06	70.15	-45.0	-47.8	17.0	0.00e+00	0	43	0	729808896	60	5311
2026-01-20 09:59:46.58	355.71	69.70	-45.3	-48.2	16.6	0.00e+00	0	43	0	731906048	61	5249
2026-01-20 09:59:47.58	355.38	69.25	-45.2	-48.1	16.6	0.00e+00	0	43	0	734003200	61	5162
2026-01-20 09:59:48.57	355.06	68.81	-45.8	-48.8	15.9	0.00e+00	0	43	0	736100352	62	5340
2026-01-20 09:59:49.57	354.75	68.36	-46.3	-49.6	15.1	0.00e+00	0	43	0	737148928	63	5526
2026-01-20 09:59:50.56	354.46	67.92	-46.6	-50.1	14.5	0.00e+00	0	43	0	739246080	64	5515
2026-01-20 09:59:51.56	354.18	67.48	-46.5	-50.0	14.6	0.00e+00	0	43	0	741343232	64	5440
2026-01-20 09:59:52.55	353.91	67.05	-46.2	-49.6	15.0	0.00e+00	0	43	0	743440384	64	5211
2026-01-20 09:59:53.55	353.66	66.61	-45.7	-48.9	15.8	0.00e+00	0	43	0	745537536	63	5072
2026-01-20 09:59:54.54	353.41	66.17	-45.0	-47.9	16.9	0.00e+00	0	43	0	746586112	61	5045
2026-01-20 09:59:55.54	353.17	65.74	-44.9	-47.8	16.9	0.00e+00	0	43	0	748683264	61	5009
2026-01-20 09:59:56.53	352.95	65.31	-44.7	-47.4	17.2	0.00e+00	0	43	0	750780416	61	4813
2026-01-20 09:59:57.53	352.73	64.88	-43.9	-46.4	18.2	0.00e+00	0	43	0	752877568	59	4798
2026-01-20 09:59:58.52	352.52	64.46	-43.4	-45.7	18.8	0.00e+00	0	43	0	753926144	58	4690
2026-01-20 09:59:59.51	352.32	64.03	-42.7	-44.9	19.6	0.00e+00	0	43	0	756023296	57	4530
2026-01-20 10:00:00.51	352.12	63.61	-42.3	-44.5	20.0	0.00e+00	0	43	0	758120448	56	4558
2026-01-20 10:00:01.51	351.93	63.19	-42.7	-44.9	19.6	0.00e+00	0	43	0	760217600	56	4780
2026-01-20 10:00:02.50	351.75	62.77	-42.4	-44.6	19.8	0.00e+00	0	43	0	762314752	56	4625
2026-01-20 10:00:03.49	351.58	62.36	-42.1	-44.2	20.3	0.00e+00	0	43	0	763363328	56	4395
2026-01-20 10:00:04.49	351.41	61.94	-41.8	-43.8	20.4	0.00e+00	0	43	0	765460480	55	4479
2026-01-20 10:00:05.48	351.25	61.53	-41.7	-43.8	20.5	0.00e+00	0	43	0	767557632	55	4456
2026-01-20 10:00:06.48	351.09	61.12	-42.3	-44.4	20.0	0.00e+00	0	43	0	769654784	55	4772
2026-01-20 10:00:07.47	350.94	60.72	-43.5	-45.9	18.7	0.00e+00	0	43	0	770703360	57	5069
2026-01-20 10:00:08.47	350.79	60.31	-44.6	-47.3	17.5	0.00e+00	0	43	0	772800512	59	5292
2026-01-20 10:00:09.46	350.65	59.91	-45.0	-47.7	16.9	0.00e+00	0	43	0	774897664	60	5265
2026-01-20 10:00:10.46	350.51	59.51	-44.7	-47.4	17.3	0.00e+00	0	43	0	776994816	60	5044
2026-01-20 10:00:11.45	350.37	59.12	-44.8	-47.5	17.2	0.00e+00	0	43	0	779091968	60	5150
2026-01-20 10:00:12.45	350.24	58.72	-44.9	-47.8	16.9	0.00e+00	0	43	0	780140544	60	5289
2026-01-20 10:00:13.45	350.11	58.33	-45.1	-47.9	16.7	0.00e+00	0	43	0	782237696	60	5393
2026-01-20 10:00:14.44	349.99	57.94	-45.5	-48.6	16.2	0.00e+00	0	43	0	784334848	61	5472
2026-01-20 10:00:15.44	349.87	57.55	-46.1	-49.4	15.4	0.00e+00	0	43	0	786432000	62	5686
2026-01-20 10:00:16.43	349.76	57.17	-46.0	-49.4	15.4	0.00e+00	0	43	0	787480576	62	5660
2026-01-20 10:00:17.42	349.65	56.79	-45.4	-48.5	16.2	0.00e+00	0	43	0	789577728	62	5116
2026-01-20 10:00:18.42	349.54	56.41	-44.7	-47.6	17.1	0.00e+00	0	43	0	791674880	61	4888
2026-01-20 10:00:19.41	349.43	56.03	-44.2	-46.8	17.9	0.00e+00	0	43	0	793772032	60	4739
2026-01-20 10:00:20.41	349.33	55.66	-43.9	-46.4	18.2	0.00e+00	0	43	0	795869184	59	4793
2026-01-20 10:00:21.40	349.23	55.29	-43.4	-45.8	18.7	0.00e+00	0	43	0	796917760	58	4731
2026-01-20 10:00:22.40	349.13	54.92	-43.3	-45.7	18.9	0.00e+00	0	43	0	799014912	58	4668
2026-01-20 10:00:23.39	349.04	54.55	-43.1	-45.4	19.2	0.00e+00	0	43	0	801112064	58	4500
2026-01-20 10:00:24.38	348.94	54.19	-43.0	-45.3	19.2	0.00e+00	0	43	0	803209216	58	4484
2026-01-20 10:00:25.38	348.85	53.82	-43.1	-45.4	19.1	0.00e+00	0	43	0	804257792	58	4540
2026-01-20 10:00:26.37	348.77	53.47	-43.2	-45.5	19.0	0.00e+00	0	43	0	806354944	58	4579
2026-01-20 10:00:27.37	348.68	53.11	-42.9	-45.2	19.3	0.00e+00	0	43	0	808452096	57	4666
2026-01-20 10:00:28.36	348.60	52.76	-42.8	-45.1	19.4	0.00e+00	0	43	0	810549248	57	4600
2026-01-20 10:00:29.36	348.52	52.40	-43.2	-45.5	19.1	0.00e+00	0	43	0	812646400	57	4835
2026-01-20 10:00:30.36	348.44	52.05	-44.3	-46.9	17.7	0.00e+00	0	43	0	813694976	59	5085
2026-01-20 10:00:31.35	348.36	51.70	-45.1	-48.0	16.7	0.00e+00	0	43	0	815792128	60	5428
2026-01-20 10:00:32.34	348.28	51.36	-45.4	-48.4	16.3	0.00e+00	0	43	0	817889280	61	5370
2026-01-20 10:00:33.34	348.21	51.02	-45.1	-48.0	16.7	0.00e+00	0	43	0	819986432	61	5128
2026-01-20 10:00:34.34	348.14	50.68	-45.1	-48.0	16.7	0.00e+00	0	43	0	821035008	61	5129
2026-01-20 10:00:35.33	348.07	50.34	-45.1	-48.0	16.7	0.00e+00	0	43	0	823132160	61	5120
2026-01-20 10:00:36.33	348.00	50.00	-45.3	-48.2	16.5	0.00e+00	0	43	0	825229312	61	5265
2026-01-20 10:00:37.32	347.93	49.67	-45.2	-48.2	16.5	0.00e+00	0	43	0	827326464	61	5234
2026-01-20 10:00:38.31	347.87	49.35	-45.8	-48.9	15.8	0.00e+00	0	43	0	829423616	62	5395
2026-01-20 10:00:39.31	347.80	49.02	-46.3	-49.8	14.9	0.00e+00	0	43	0	830472192	63	5633
2026-01-20 10:00:40.31	347.74	48.69	-47.1	-51.3	13.4	3.80e-06	0	43	0	832569344	64	6290
2026-01-20 10:00:41.30	347.68	48.37	-47.4	-52.0	12.6	6.10e-05	0	43	0	834666496	65	6471
2026-01-20 10:00:42.29	347.62	48.05	-46.9	-51.0	13.6	6.86e-05	0	43	0	836763648	65	5729
2026-01-20 10:00:43.29	347.56	47.73	-45.6	-48.8	15.8	0.00e+00	0	43	0	837812224	63	5027
2026-01-20 10:00:44.28	347.50	47.41	-44.8	-47.6	17.0	0.00e+00	0	43	0	839909376	61	4878
2026-01-20 10:00:45.28	347.44	47.10	-44.3	-46.9	17.7	0.00e+00	0	43	0	842006528	60	4793
2026-01-20 10:00:46.27	347.39	46.79	-44.3	-46.9	17.8	0.00e+00	0	43	0	844103680	60	4763
2026-01-20 10:00:47.27	347.34	46.48	-44.7	-47.4	17.3	0.00e+00	0	43	0	846200832	60	5054
2026-01-20 10:00:48.26	347.28	46.17	-45.2	-48.1	16.6	0.00e+00	0	43	0	847249408	61	5205
2026-01-20 10:00:49.25	347.23	45.87	-45.8	-49.1	15.7	0.00e+00	0	43	0	849346560	62	5483
2026-01-20 10:00:50.25	347.18	45.57	-46.5	-50.2	14.5	0.00e+00	0	43	0	851443712	63	5904
2026-01-20 10:00:51.24	347.13	45.27	-46.5	-50.3	14.2	1.50e-06	0	43	0	853540864	64	5648
2026-01-20 10:00:52.24	347.08	44.97	-46.6	-50.4	14.2	1.50e-06	0	43	0	855638016	64	5718
2026-01-20 10:00:53.23	347.04	44.67	-46.4	-50.1	14.5	1.50e-06	0	43	0	856686592	64	5509
2026-01-20 10:00:54.23	346.99	44.38	-45.7	-49.0	15.7	0.00e+00	0	43	0	858783744	63	5112
2026-01-20 10:00:55.23	346.94	44.09	-45.0	-47.9	16.7	0.00e+00	0	43	0	860880896	62	4809
2026-01-20 10:00:56.22	346.90	43.80	-44.3	-47.0	17.7	0.00e+00	0	43	0	862978048	60	4830
2026-01-20 10:00:57.22	346.85	43.51	-43.9	-46.5	18.1	0.00e+00	0	43	0	864026624	59	4821
2026-01-20 10:00:58.21	346.81	43.23	-44.0	-46.6	18.0	0.00e+00	0	43	0	866123776	59	4892
2026-01-20 10:00:59.20	346.77	42.95	-44.8	-47.6	17.0	0.00e+00	0	43	0	868220928	60	5206
2026-01-20 10:01:00.20	346.73	42.66	-45.4	-48.4	16.3	0.00e+00	0	43	0	870318080	61	5362
2026-01-20 10:01:01.20	346.69	42.38	-46.1	-49.5	15.3	0.00e+00	0	43	0	872415232	62	5745
2026-01-20 10:01:02.19	346.65	42.11	-46.6	-50.4	14.4	0.00e+00	0	43	0	873463808	63	6022
2026-01-20 10:01:03.18	346.61	41.84	-47.0	-51.3	13.4	3.00e-06	0	43	0	875560960	64	6288
2026-01-20 10:01:04.18	346.57	41.56	-47.0	-51.2	13.3	2.13e-05	0	43	0	877658112	64	6259
2026-01-20 10:01:05.17	346.53	41.29	-46.8	-50.7	13.8	7.60e-06	0	43	0	879755264	64	5912
2026-01-20 10:01:06.17	346.49	41.02	-46.2	-49.7	14.9	2.20e-06	0	43	0	880803840	64	5245
2026-01-20 10:01:07.16	346.46	40.76	-45.8	-48.9	15.7	0.00e+00	0	43	0	882900992	63	5100
2026-01-20 10:01:08.16	346.42	40.49	-45.2	-48.1	16.5	0.00e+00	0	43	0	884998144	62	4910
2026-01-20 10:01:09.15	346.39	40.23	-44.9	-47.7	16.9	0.00e+00	0	43	0	887095296	61	4942
2026-01-20 10:01:10.15	346.35	39.97	-44.9	-47.7	16.9	0.00e+00	0	43	0	889192448	61	4958
2026-01-20 10:01:11.15	346.32	39.71	-45.2	-48.0	16.6	0.00e+00	0	43	0	890241024	61	5135
2026-01-20 10:01:12.14	346.28	39.45	-45.7	-48.7	16.0	0.00e+00	0	43	0	892338176	61	5572
2026-01-20 10:01:13.14	346.25	39.20	-46.1	-49.4	15.3	0.00e+00	0	43	0	894435328	62	5706
2026-01-20 10:01:14.13	346.22	38.95	-46.7	-50.5	14.1	7.00e-07	0	43	0	896532480	64	5734
2026-01-20 10:01:15.13	346.19	38.69	-47.1	-51.2	13.5	8.30e-06	0	43	0	897581056	64	6234
2026-01-20 10:01:16.12	346.15	38.44	-47.4	-52.0	12.6	4.88e-05	0	43	0	899678208	65	6462
2026-01-20 10:01:17.12	346.12	38.20	-47.3	-52.0	12.6	9.46e-05	0	43	0	901775360	65	6463
2026-01-20 10:01:18.11	346.09	37.95	-47.2	-51.8	12.8	8.16e-05	0	43	0	903872512	65	6276
2026-01-20 10:01:19.11	346.06	37.71	-46.9	-51.3	13.2	3.28e-05	0	43	0	905969664	65	5954
2026-01-20 10:01:20.11	346.04	37.46	-46.6	-50.8	13.7	9.10e-06	0	43	0	907018240	65	5646
2026-01-20 10:01:21.10	346.01	37.22	-46.3	-50.2	14.3	1.50e-06	0	43	0	909115392	64	5582
2026-01-20 10:01:22.09	345.98	36.99	-45.9	-49.5	15.2	7.00e-07	0	43	0	911212544	63	5431
2026-01-20 10:01:23.09	345.95	36.75	-45.7	-49.1	15.6	0.00e+00	0	43	0	913309696	63	5171
2026-01-20 10:01:24.08	345.92	36.51	-45.7	-49.0	15.7	0.00e+00	0	43	0	914358272	63	5113
2026-01-20 10:01:25.08	345.90	36.28	-45.6	-48.8	15.9	0.00e+00	0	43	0	916455424	63	5004
2026-01-20 10:01:26.07	345.87	36.05	-45.6	-48.8	15.9	0.00e+00	0	43	0	918552576	63	5021
2026-01-20 10:01:27.07	345.84	35.82	-45.8	-49.0	15.7	0.00e+00	0	43	0	920649728	63	5115
2026-01-20 10:01:28.06	345.82	35.59	-46.0	-49.3	15.3	0.00e+00	0	43	0	922746880	63	5307
2026-01-20 10:01:29.06	345.79	35.36	-46.2	-49.7	15.0	0.00e+00	0	43	0	923795456	63	5582
2026-01-20 10:01:30.05	345.77	35.14	-46.5	-50.2	14.4	7.00e-07	0	43	0	925892608	63	5918
2026-01-20 10:01:31.04	345.74	34.91	-46.7	-50.7	13.9	1.50e-06	0	43	0	927989760	64	5907
2026-01-20 10:01:32.04	345.72	34.69	-47.0	-51.3	13.3	7.60e-06	0	43	0	930086912	64	6303
2026-01-20 10:01:33.03	345.70	34.47	-47.2	-51.6	13.0	2.36e-05	0	43	0	931135488	65	6198
2026-01-20 10:01:34.03	345.67	34.25	-47.5	-52.2	12.4	1.04e-04	0	43	0	933232640	65	6607
2026-01-20 10:01:35.02	345.65	34.03	-47.5	-52.4	12.1	2.15e-04	0	43	0	935329792	65	6784
2026-01-20 10:01:36.01	345.63	33.82	-47.5	-52.6	11.9	2.97e-04	0	43	0	937426944	65	6944
2026-01-20 10:01:37.01	345.61	33.60	-47.3	-52.5	12.0	3.83e-04	0	43	0	939524096	65	6829
2026-01-20 10:01:38.01	345.58	33.39	-47.2	-52.5	12.1	2.59e-04	0	43	0	940572672	65	6803
2026-01-20 10:01:39.00	345.56	33.18	-47.1	-52.1	12.4	2.62e-04	0	43	0	942669824	65	6568
2026-01-20 10:01:40.00	345.54	32.97	-47.1	-52.0	12.6	1.65e-04	0	43	0	944766976	65	6435
2026-01-20 10:01:40.99	345.52	32.76	-46.9	-51.4	13.1	4.50e-05	0	43	0	946864128	65	6057
2026-01-20 10:01:41.98	345.50	32.55	-46.7	-50.9	13.6	1.44e-05	0	43	0	947912704	65	5700
2026-01-20 10:01:42.98	345.48	32.35	-46.6	-50.7	13.9	3.00e-06	0	43	0	950009856	65	5531
2026-01-20 10:01:43.98	345.46	32.14	-46.5	-50.2	14.4	1.50e-06	0	43	0	952107008	64	5567
2026-01-20 10:01:44.97	345.44	31.94	-46.0	-49.5	15.1	7.00e-07	0	43	0	954204160	64	5112
2026-01-20 10:01:45.96	345.42	31.74	-46.0	-49.3	15.3	0.00e+00	0	43	0	956301312	63	5307
2026-01-20 10:01:46.96	345.40	31.54	-45.8	-49.1	15.6	0.00e+00	0	43	0	957349888	63	5185
2026-01-20 10:01:47.95	345.38	31.34	-45.8	-49.2	15.5	0.00e+00	0	43	0	959447040	63	5237
2026-01-20 10:01:48.95	345.36	31.14	-45.9	-49.3	15.3	0.00e+00	0	43	0	961544192	63	5327
2026-01-20 10:01:49.94	345.35	30.95	-46.1	-49.7	15.0	0.00e+00	0	43	0	963641344	63	5552
2026-01-20 10:01:50.93	345.33	30.75	-46.2	-49.9	14.8	0.00e+00	0	43	0	964689920	63	5660
2026-01-20 10:01:51.93	345.31	30.56	-46.4	-50.1	14.6	0.00e+00	0	43	0	966787072	63	5798
2026-01-20 10:01:52.93	345.29	30.36	-46.6	-50.3	14.4	0.00e+00	0	43	0	968884224	63	5952
2026-01-20 10:01:53.92	345.28	30.17	-46.6	-50.5	14.1	2.20e-06	0	43	0	970981376	64	5725
2026-01-20 10:01:54.92	345.26	29.98	-46.6	-50.5	14.1	2.20e-06	0	43	0	973078528	64	5727
2026-01-20 10:01:55.91	345.24	29.80	-46.6	-50.7	13.9	3.80e-06	0	43	0	974127104	64	5865
2026-01-20 10:01:56.91	345.23	29.61	-46.6	-50.7	13.9	3.00e-06	0	43	0	976224256	64	5864
2026-01-20 10:01:57.90	345.21	29.42	-46.5	-50.5	14.0	1.50e-06	0	43	0	978321408	64	5776
2026-01-20 10:01:58.90	345.19	29.24	-46.3	-50.3	14.3	7.00e-07	0	43	0	980418560	64	5604
2026-01-20 10:01:59.89	345.18	29.05	-46.1	-50.0	14.5	0.00e+00	0	43	0	981467136	64	5451
2026-01-20 10:02:00.89	345.16	28.87	-46.0	-49.9	14.7	1.50e-06	0	43	0	983564288	64	5358
2026-01-20 10:02:01.88	345.15	28.69	-45.9	-49.5	15.1	0.00e+00	0	43	0	985661440	63	5441
2026-01-20 10:02:02.88	345.13	28.51	-45.8	-49.4	15.3	0.00e+00	0	43	0	987758592	63	5347
2026-01-20 10:02:03.87	345.12	28.33	-45.6	-49.0	15.7	0.00e+00	0	43	0	989855744	63	5110
2026-01-20 10:02:04.87	345.10	28.15	-45.3	-48.3	16.3	0.00e+00	0	43	0	990904320	62	5023
2026-01-20 10:02:05.86	345.09	27.98	-45.2	-48.1	16.5	0.00e+00	0	43	0	993001472	62	4876
2026-01-20 10:02:06.86	345.07	27.80	-44.8	-47.6	17.0	0.00e+00	0	43	0	995098624	61	4888
2026-01-20 10:02:07.85	345.06	27.63	-44.6	-47.3	17.3	0.00e+00	0	43	0	997195776	61	4718
2026-01-20 10:02:08.85	345.05	27.45	-44.3	-47.0	17.6	0.00e+00	0	43	0	998244352	60	4842
2026-01-20 10:02:09.84	345.03	27.28	-44.1	-46.8	17.8	0.00e+00	0	43	0	1000341504	60	4720
2026-01-20 10:02:10.84	345.02	27.11	-44.0	-46.7	17.8	0.00e+00	0	43	0	1002438656	60	4700
2026-01-20 10:02:11.83	345.00	26.94	-44.0	-46.8	17.7	0.00e+00	0	43	0	1004535808	60	4740
2026-01-20 10:02:12.83	344.99	26.77	-44.0	-46.7	17.8	0.00e+00	0	43	0	1006632960	59	4943
2026-01-20 10:02:13.82	344.98	26.60	-44.0	-46.7	17.8	0.00e+00	0	43	0	1007681536	59	4971
2026-01-20 10:02:14.82	344.97	26.44	-44.1	-46.8	17.7	0.00e+00	0	43	0	1009778688	59	4999
2026-01-20 10:02:15.81	344.95	26.27	-44.1	-46.7	17.7	0.00e+00	0	43	0	1011875840	59	4977
2026-01-20 10:02:16.81	344.94	26.10	-44.0	-46.6	17.9	0.00e+00	0	43	0	1013972992	59	4900
2026-01-20 10:02:17.80	344.93	25.94	-44.0	-46.6	17.9	0.00e+00	0	43	0	1015021568	59	4910
2026-01-20 10:02:18.80	344.92	25.78	-44.0	-46.6	17.9	0.00e+00	0	43	0	1017118720	59	4891
2026-01-20 10:02:19.79	344.90	25.62	-44.0	-46.5	17.9	0.00e+00	0	43	0	1019215872	59	4861
2026-01-20 10:02:20.79	344.89	25.46	-44.0	-46.5	17.9	0.00e+00	0	44	0	1021313024	59	4866
2026-01-20 10:02:21.78	344.88	25.30	-43.9	-46.5	18.0	0.00e+00	0	43	0	1023410176	59	4837
2026-01-20 10:02:22.78	344.87	25.14	-43.9	-46.5	18.0	0.00e+00	0	43	0	1024458752	59	4819
2026-01-20 10:02:23.77	344.86	24.98	-43.8	-46.4	18.0	0.00e+00	0	43	0	1026555904	59	4809
2026-01-20 10:02:24.76	344.85	24.82	-43.8	-46.4	18.1	0.00e+00	0	43	0	1028653056	59	4782
2026-01-20 10:02:25.76	344.84	24.67	-43.8	-46.4	18.0	0.00e+00	0	43	0	1030750208	59	4796
2026-01-20 10:02:26.75	344.82	24.51	-43.7	-46.4	18.0	0.00e+00	0	43	0	1031798784	59	4777
2026-01-20 10:02:27.75	344.81	24.36	-43.7	-46.4	18.1	0.00e+00	0	43	0	1033895936	59	4766
2026-01-20 10:02:28.74	344.80	24.20	-43.6	-46.3	18.2	0.00e+00	0	43	0	1035993088	59	4715
2026-01-20 10:02:29.74	344.79	24.05	-43.6	-46.3	18.1	0.00e+00	0	43	0	1038090240	59	4721
2026-01-20 10:02:30.73	344.78	23.90	-43.5	-46.0	18.3	0.00e+00	0	43	0	1040187392	58	4853
2026-01-20 10:02:31.73	344.77	23.75	-43.4	-46.0	18.4	0.00e+00	0	43	0	1041235968	58	4827
2026-01-20 10:02:32.72	344.76	23.60	-43.4	-45.9	18.5	0.00e+00	0	43	0	1043333120	58	4780
2026-01-20 10:02:33.72	344.75	23.45	-43.2	-45.6	18.8	0.00e+00	0	43	0	1045430272	58	4628
2026-01-20 10:02:34.71	344.74	23.30	-43.1	-45.4	18.9	0.00e+00	0	43	0	1047527424	58	4533
2026-01-20 10:02:35.71	344.73	23.15	-43.2	-45.6	18.8	0.00e+00	0	43	0	1048576000	58	4608
2026-01-20 10:02:36.70	344.72	23.01	-43.0	-45.4	19.0	0.00e+00	0	43	0	1050673152	58	4501
2026-01-20 10:02:37.69	344.71	22.86	-42.8	-45.3	19.1	0.00e+00	0	43	0	1052770304	57	4706
2026-01-20 10:02:38.69	344.70	22.72	-42.6	-45.1	19.2	0.00e+00	0	43	0	1054867456	57	4629
2026-01-20 10:02:39.68	344.69	22.58	-42.7	-45.3	19.0	0.00e+00	0	43	0	1056964608	57	4715
2026-01-20 10:02:40.67	344.69	22.43	-42.6	-45.2	19.1	0.00e+00	0	43	0	1058013184	57	4679
2026-01-20 10:02:41.67	344.68	22.29	-42.7	-45.3	19.0	0.00e+00	0	43	0	1060110336	57	4732
2026-01-20 10:02:42.66	344.67	22.15	-42.8	-45.4	18.9	0.00e+00	0	43	0	1062207488	57	4792
2026-01-20 10:02:43.66	344.66	22.01	-42.8	-45.4	19.0	0.00e+00	0	43	0	1064304640	57	4771
2026-01-20 10:02:44.65	344.65	21.87	-43.0	-45.5	18.8	0.00e+00	0	43	0	1065353216	57	4848
2026-01-20 10:02:45.65	344.64	21.73	-43.0	-45.5	18.9	0.00e+00	0	43	0	1067450368	57	4821
2026-01-20 10:02:46.64	344.63	21.59	-43.2	-45.6	18.7	0.00e+00	0	43	0	1069547520	57	4919
2026-01-20 10:02:47.63	344.63	21.45	-43.3	-45.7	18.6	0.00e+00	0	43	0	1071644672	57	4977
2026-01-20 10:02:48.63	344.62	21.32	-43.2	-45.5	18.8	0.00e+00	0	43	0	1073741824	57	4866
2026-01-20 10:02:49.62	344.61	21.18	-43.3	-45.7	18.6	0.00e+00	0	43	0	1074790400	57	4951
2026-01-20 10:02:50.62	344.60	21.04	-43.3	-45.7	18.6	0.00e+00	0	43	0	1076887552	57	4961
2026-01-20 10:02:51.61	344.59	20.91	-43.3	-45.7	18.7	0.00e+00	0	43	0	1078984704	57	4935
2026-01-20 10:02:52.61	344.59	20.77	-43.3	-45.8	18.6	0.00e+00	0	43	0	1081081856	57	5004
2026-01-20 10:02:53.60	344.58	20.64	-43.3	-45.8	18.5	0.00e+00	0	43	0	1082130432	57	4986
2026-01-20 10:02:54.60	344.57	20.51	-43.4	-45.8	18.5	0.00e+00	0	43	0	1084227584	57	5033
2026-01-20 10:02:55.59	344.56	20.38	-43.4	-45.9	18.4	0.00e+00	0	43	0	1086324736	57	5070
2026-01-20 10:02:56.59	344.56	20.25	-43.4	-45.9	18.4	0.00e+00	0	43	0	1088421888	57	5098
2026-01-20 10:02:57.58	344.55	20.12	-43.5	-46.1	18.3	0.00e+00	0	43	0	1090519040	57	5176
2026-01-20 10:02:58.58	344.54	19.99	-43.7	-46.3	18.1	0.00e+00	0	43	0	1091567616	58	5003
2026-01-20 10:02:59.57	344.53	19.86	-43.6	-46.2	18.2	0.00e+00	0	43	0	1093664768	58	4965
2026-01-20 10:03:00.57	344.53	19.73	-43.7	-46.2	18.1	0.00e+00	0	43	0	1095761920	58	4968
2026-01-20 10:03:01.56	344.52	19.60	-43.9	-46.5	17.9	0.00e+00	0	43	0	1097859072	58	5113
2026-01-20 10:03:02.56	344.51	19.47	-44.0	-46.5	17.8	0.00e+00	0	43	0	1098907648	58	5155
2026-01-20 10:03:03.55	344.51	19.35	-43.8	-46.3	18.0	0.00e+00	0	43	0	1101004800	58	5026
2026-01-20 10:03:04.55	344.50	19.22	-43.9	-46.5	17.9	0.00e+00	0	43	0	1103101952	58	5108
2026-01-20 10:03:05.54	344.49	19.10	-43.9	-46.4	17.9	0.00e+00	0	43	0	1105199104	58	5087
2026-01-20 10:03:06.54	344.49	18.97	-43.9	-46.5	17.9	0.00e+00	0	43	0	1107296256	58	5126
2026-01-20 10:03:07.53	344.48	18.85	-44.0	-46.6	17.7	0.00e+00	0	43	0	1108344832	58	5204
2026-01-20 10:03:08.53	344.47	18.72	-43.9	-46.6	17.8	0.00e+00	0	43	0	1110441984	58	5177
2026-01-20 10:03:09.52	344.47	18.60	-43.9	-46.7	17.7	0.00e+00	0	43	0	1112539136	58	5233
2026-01-20 10:03:10.52	344.46	18.48	-43.9	-46.7	17.7	0.00e+00	0	43	0	1114636288	58	5254
2026-01-20 10:03:11.51	344.46	18.36	-43.8	-46.7	17.7	0.00e+00	0	43	0	1115684864	58	5219
2026-01-20 10:03:12.51	344.45	18.24	-43.9	-46.7	17.6	0.00e+00	0	43	0	1117782016	58	5261
2026-01-20 10:03:13.50	344.44	18.12	-43.9	-46.7	17.6	0.00e+00	0	43	0	1119879168	58	5278
2026-01-20 10:03:14.50	344.44	17.99	-44.0	-46.8	17.6	0.00e+00	0	43	0	1121976320	58	5286
2026-01-20 10:03:15.49	344.43	17.88	-44.0	-46.8	17.6	0.00e+00	0	43	0	1124073472	58	5289
2026-01-20 10:03:16.49	344.43	17.76	-44.1	-46.9	17.5	0.00e+00	0	43	0	1125122048	58	5368
2026-01-20 10:03:17.48	344.42	17.64	-44.2	-46.9	17.5	0.00e+00	0	43	0	1127219200	59	5076
2026-01-20 10:03:18.47	344.42	17.52	-44.3	-47.0	17.3	0.00e+00	0	43	0	1129316352	59	5145
2026-01-20 10:03:19.47	344.41	17.41	-44.2	-46.9	17.5	0.00e+00	0	43	0	1131413504	59	5048
2026-01-20 10:03:20.46	344.40	17.29	-44.2	-46.8	17.5	0.00e+00	0	43	0	1132462080	59	5030
2026-01-20 10:03:21.46	344.40	17.17	-44.2	-46.9	17.4	0.00e+00	0	43	0	1134559232	59	5067
2026-01-20 10:03:22.46	344.39	17.06	-44.2	-47.0	17.4	0.00e+00	0	43	0	1136656384	59	5117
2026-01-20 10:03:23.45	344.39	16.94	-44.2	-47.0	17.3	0.00e+00	0	43	0	1138753536	59	5158
2026-01-20 10:03:24.44	344.38	16.83	-44.2	-47.1	17.3	0.00e+00	0	43	0	1140850688	59	5164
2026-01-20 10:03:25.44	344.38	16.72	-44.2	-47.2	17.2	0.00e+00	0	43	0	1141899264	59	5232
2026-01-20 10:03:26.43	344.37	16.60	-44.1	-47.2	17.2	0.00e+00	0	43	0	1143996416	59	5236
2026-01-20 10:03:27.43	344.37	16.49	-44.1	-47.3	17.0	0.00e+00	0	43	0	1146093568	59	5307
2026-01-20 10:03:28.43	344.36	16.38	-44.0	-47.3	17.1	0.00e+00	0	43	0	1148190720	59	5309
2026-01-20 10:03:29.42	344.36	16.27	-44.0	-47.3	17.0	0.00e+00	0	43	0	1150287872	59	5329
2026-01-20 10:03:30.42	344.36	16.15	-44.0	-47.4	17.0	0.00e+00	0	43	0	1151336448	59	5341
2026-01-20 10:03:31.41	344.35	16.04	-44.0	-47.3	17.1	0.00e+00	0	43	0	1153433600	59	5280
2026-01-20 10:03:32.41	344.35	15.93	-44.1	-47.3	17.1	0.00e+00	0	43	0	1155530752	59	5280
2026-01-20 10:03:33.40	344.34	15.82	-44.2	-47.3	17.0	0.00e+00	0	44	0	1157627904	59	5313
2026-01-20 10:03:34.40	344.34	15.71	-44.1	-47.2	17.1	0.00e+00	0	43	0	1158676480	59	5252
2026-01-20 10:03:35.39	344.33	15.61	-44.3	-47.4	16.9	0.00e+00	0	43	0	1160773632	59	5358
2026-01-20 10:03:36.39	344.33	15.50	-44.2	-47.1	17.2	0.00e+00	0	43	0	1162870784	59	5207
2026-01-20 10:03:37.38	344.32	15.39	-44.2	-47.1	17.2	0.00e+00	0	43	0	1164967936	59	5198
2026-01-20 10:03:38.38	344.32	15.28	-44.2	-47.2	17.1	0.00e+00	0	43	0	1167065088	59	5248
2026-01-20 10:03:39.37	344.32	15.18	-44.3	-47.2	17.1	0.00e+00	0	43	0	1168113664	59	5265
2026-01-20 10:03:40.37	344.31	15.07	-44.1	-47.0	17.2	0.00e+00	0	43	0	1170210816	59	5156
2026-01-20 10:03:41.36	344.31	14.97	-44.2	-47.2	17.1	0.00e+00	0	43	0	1172307968	59	5270
2026-01-20 10:03:42.36	344.30	14.86	-44.1	-47.1	17.2	0.00e+00	0	43	0	1174405120	59	5175
2026-01-20 10:03:43.35	344.30	14.76	-44.1	-47.1	17.1	0.00e+00	0	43	0	1175453696	59	5217
2026-01-20 10:03:44.35	344.30	14.65	-43.9	-47.0	17.2	0.00e+00	0	43	0	1177550848	59	5145
2026-01-20 10:03:45.34	344.29	14.55	-44.0	-47.1	17.2	0.00e+00	0	43	0	1179648000	59	5183
2026-01-20 10:03:46.34	344.29	14.44	-44.0	-47.1	17.1	0.00e+00	0	43	0	1181745152	59	5217
2026-01-20 10:03:47.33	344.28	14.34	-43.9	-47.1	17.1	0.00e+00	0	43	0	1183842304	59	5194
2026-01-20 10:03:48.33	344.28	14.24	-43.8	-47.1	17.2	0.00e+00	0	43	0	1184890880	59	5172
2026-01-20 10:03:49.32	344.28	14.14	-43.9	-47.1	17.1	0.00e+00	0	43	0	1186988032	59	5207
2026-01-20 10:03:50.32	344.27	14.03	-43.9	-47.2	17.1	0.00e+00	0	43	0	1189085184	59	5237
2026-01-20 10:03:51.31	344.27	13.93	-43.9	-47.2	17.1	0.00e+00	0	43	0	1191182336	59	5226
2026-01-20 10:03:52.31	344.27	13.83	-44.0	-47.3	17.0	0.00e+00	0	43	0	1192230912	59	5305
2026-01-20 10:03:53.30	344.26	13.73	-44.1	-47.4	16.9	0.00e+00	0	43	0	1194328064	59	5346
2026-01-20 10:03:54.30	344.26	13.63	-44.2	-47.4	16.9	0.00e+00	0	43	0	1196425216	59	5387
2026-01-20 10:03:55.29	344.26	13.53	-44.2	-47.4	16.8	0.00e+00	0	43	0	1198522368	59	5398
2026-01-20 10:03:56.29	344.25	13.43	-44.3	-47.5	16.8	0.00e+00	0	43	0	1200619520	59	5403
2026-01-20 10:03:57.28	344.25	13.33	-44.3	-47.4	16.8	0.00e+00	0	43	0	1201668096	59	5388
2026-01-20 10:03:58.28	344.25	13.23	-44.3	-47.5	16.7	0.00e+00	0	43	0	1203765248	59	5420
2026-01-20 10:03:59.27	344.24	13.14	-44.4	-47.6	16.7	0.00e+00	0	43	0	1205862400	59	5478
2026-01-20 10:04:00.27	344.24	13.04	-44.4	-47.6	16.6	0.00e+00	0	43	0	1207959552	59	5519
2026-01-20 10:04:01.26	344.24	12.94	-44.4	-47.6	16.6	0.00e+00	0	43	0	1209008128	59	5508
2026-01-20 10:04:02.26	344.24	12.84	-44.4	-47.7	16.6	0.00e+00	0	43	0	1211105280	59	5547
