passes_logs/2026/01/20/T1/T1__20260120_211139_KHAYYAM_rec.log

#Pass ID: 20260120_211139_KHAYYAM
#Satellite: KHAYYAM
#Configuration: KHAYYAM_480M
#almurnet v.1.7.20251203
#Start time: 2026-01-20 21:11:39

#Version: 2.0.20230620
#Station: T1
#Location: 37.570604 lon 55.790049 lat
#TLE: 1 53370U 22096A   26020.14177223  .00010117  00000+0  41245-3 0  9992
#TLE: 2 53370  97.3561 287.0594 0001744 107.9120 252.2308 15.24640779192023

#Time	Az	El	Level	Level2	SNR	BER	BlckErr	Temp	State	Recorded	gain1	gain2
2026-01-20 21:11:39.46	15.81	5.04	-54.2	-58.7	3.5	0.00e+00	0	41	0	0	78	26457
2026-01-20 21:11:40.45	15.82	5.12	-52.8	-57.9	3.7	0.00e+00	0	41	104	0	76	26973
2026-01-20 21:11:41.44	15.84	5.20	-52.8	-57.9	3.7	0.00e+00	0	41	104	0	76	26933
2026-01-20 21:11:42.43	15.85	5.28	-52.8	-57.8	3.7	0.00e+00	0	41	104	0	76	26865
2026-01-20 21:11:43.43	15.87	5.36	-52.8	-57.9	3.7	0.00e+00	0	41	104	0	76	26969
2026-01-20 21:11:44.42	15.89	5.44	-52.8	-57.9	3.7	0.00e+00	0	41	104	0	76	26934
2026-01-20 21:11:45.41	15.90	5.52	-52.8	-57.9	3.7	0.00e+00	0	41	104	0	76	26981
2026-01-20 21:11:46.41	15.92	5.61	-52.8	-57.9	3.7	0.00e+00	0	42	104	0	76	26966
2026-01-20 21:11:47.40	15.93	5.69	-52.8	-57.9	3.7	0.00e+00	0	42	104	0	76	27039
2026-01-20 21:11:48.39	15.95	5.77	-52.7	-57.9	3.7	0.00e+00	0	42	104	0	76	27031
2026-01-20 21:11:49.39	15.97	5.85	-52.7	-57.9	3.7	0.00e+00	0	42	104	0	76	26946
2026-01-20 21:11:50.38	15.98	5.94	-52.8	-57.9	3.7	0.00e+00	0	42	104	0	76	27045
2026-01-20 21:11:51.37	16.00	6.02	-52.7	-57.9	3.7	0.00e+00	0	42	104	0	76	26961
2026-01-20 21:11:52.37	16.02	6.11	-52.7	-57.9	3.7	0.00e+00	0	42	104	0	76	26934
2026-01-20 21:11:53.36	16.04	6.19	-52.8	-57.8	3.7	0.00e+00	0	42	104	0	76	26861
2026-01-20 21:11:54.35	16.05	6.28	-52.8	-57.8	3.7	0.00e+00	0	42	104	0	76	26846
2026-01-20 21:11:55.34	16.07	6.36	-52.8	-57.9	3.7	0.00e+00	0	42	104	0	76	26902
2026-01-20 21:11:56.34	16.09	6.45	-52.8	-57.9	3.7	0.00e+00	0	42	104	0	76	27021
2026-01-20 21:11:57.33	16.11	6.53	-52.8	-57.9	3.7	0.00e+00	0	43	104	0	76	26952
2026-01-20 21:11:58.32	16.12	6.62	-52.7	-57.9	3.7	0.00e+00	0	43	104	0	76	27001
2026-01-20 21:11:59.32	16.14	6.71	-52.8	-57.8	3.7	0.00e+00	0	43	104	0	76	26882
2026-01-20 21:12:00.31	16.16	6.80	-52.7	-57.9	3.7	0.00e+00	0	43	104	0	76	27018
2026-01-20 21:12:01.30	16.18	6.88	-52.8	-57.9	3.7	0.00e+00	0	43	104	0	76	27037
2026-01-20 21:12:02.29	16.19	6.97	-52.7	-57.9	3.7	0.00e+00	0	43	104	0	76	27046
2026-01-20 21:12:03.29	16.21	7.06	-52.7	-57.9	3.7	0.00e+00	0	43	104	0	76	26890
2026-01-20 21:12:04.28	16.23	7.15	-52.7	-57.9	3.7	0.00e+00	0	43	104	0	76	26913
2026-01-20 21:12:05.28	16.25	7.24	-52.7	-57.8	3.7	0.00e+00	0	43	104	0	76	26866
2026-01-20 21:12:06.27	16.27	7.33	-52.8	-57.8	3.7	0.00e+00	0	43	104	0	76	26874
2026-01-20 21:12:07.26	16.29	7.42	-52.7	-57.9	3.7	0.00e+00	0	43	104	0	76	26984
2026-01-20 21:12:08.25	16.30	7.51	-52.7	-57.9	3.7	0.00e+00	0	43	104	0	76	26933
2026-01-20 21:12:09.25	16.32	7.60	-52.7	-57.8	3.7	0.00e+00	0	43	104	0	76	26851
2026-01-20 21:12:10.24	16.34	7.69	-52.7	-57.9	3.7	0.00e+00	0	43	104	0	76	26988
2026-01-20 21:12:11.23	16.36	7.79	-52.7	-57.8	3.7	0.00e+00	0	43	104	0	76	26771
2026-01-20 21:12:12.23	16.38	7.88	-52.7	-57.8	3.7	0.00e+00	0	43	104	0	76	26833
2026-01-20 21:12:13.22	16.40	7.97	-52.7	-57.9	3.7	0.00e+00	0	44	104	0	76	26923
2026-01-20 21:12:14.21	16.42	8.06	-52.7	-57.9	3.7	0.00e+00	0	44	104	0	76	26980
2026-01-20 21:12:15.21	16.44	8.16	-52.7	-57.9	3.7	0.00e+00	0	44	104	0	76	26913
2026-01-20 21:12:16.20	16.46	8.25	-52.7	-57.8	3.7	0.00e+00	0	44	104	0	76	26882
2026-01-20 21:12:17.19	16.48	8.35	-52.7	-57.8	3.7	0.00e+00	0	44	104	0	76	26785
2026-01-20 21:12:18.19	16.50	8.44	-52.7	-57.8	3.7	0.00e+00	0	44	104	0	76	26822
2026-01-20 21:12:19.18	16.52	8.54	-52.7	-57.8	3.7	0.00e+00	0	44	104	0	76	26877
2026-01-20 21:12:20.17	16.54	8.64	-52.8	-57.9	3.7	0.00e+00	0	44	104	0	76	27007
2026-01-20 21:12:21.17	16.56	8.73	-52.7	-57.8	3.7	0.00e+00	0	44	104	0	76	26873
2026-01-20 21:12:22.16	16.58	8.83	-52.7	-57.8	3.7	0.00e+00	0	44	104	0	76	26823
2026-01-20 21:12:23.15	16.60	8.93	-52.7	-57.8	3.7	0.00e+00	0	44	104	0	76	26864
2026-01-20 21:12:24.15	16.62	9.03	-52.7	-57.9	3.7	0.00e+00	0	44	104	0	76	26939
2026-01-20 21:12:25.14	16.64	9.13	-53.2	-58.1	3.7	0.00e+00	0	44	104	0	76	27618
2026-01-20 21:12:26.13	16.66	9.23	-53.3	-58.4	3.7	0.00e+00	0	44	104	0	77	26904
2026-01-20 21:12:27.13	16.68	9.33	-52.8	-58.0	3.7	0.00e+00	0	44	104	0	77	25781
2026-01-20 21:12:28.13	16.70	9.43	-53.2	-58.1	3.7	0.00e+00	0	44	104	0	77	26057
2026-01-20 21:12:29.12	16.72	9.53	-52.7	-57.9	3.7	0.00e+00	0	44	104	0	77	25598
2026-01-20 21:12:30.12	16.75	9.63	-53.6	-58.7	3.7	0.00e+00	0	44	104	0	77	28009
2026-01-20 21:12:31.11	16.77	9.73	-52.9	-57.8	3.7	0.00e+00	0	44	104	0	77	25331
2026-01-20 21:12:32.11	16.79	9.84	-53.2	-58.0	3.7	0.00e+00	0	44	104	0	77	25797
2026-01-20 21:12:33.10	16.81	9.94	-52.6	-57.8	3.7	0.00e+00	0	44	104	0	77	25275
2026-01-20 21:12:34.10	16.83	10.05	-52.7	-57.9	3.7	0.00e+00	0	45	104	0	77	25598
2026-01-20 21:12:35.09	16.86	10.15	-52.7	-58.0	3.7	0.00e+00	0	45	104	0	77	25948
2026-01-20 21:12:36.09	16.88	10.26	-52.9	-58.3	3.7	0.00e+00	0	45	104	0	77	26590
2026-01-20 21:12:37.08	16.90	10.36	-53.1	-58.4	3.7	0.00e+00	0	44	104	0	77	26955
2026-01-20 21:12:38.07	16.92	10.47	-53.0	-58.3	3.7	0.00e+00	0	45	104	0	77	26775
2026-01-20 21:12:39.07	16.95	10.58	-53.5	-58.6	3.7	0.00e+00	0	45	104	0	77	27745
2026-01-20 21:12:40.06	16.97	10.68	-54.4	-59.0	3.7	0.00e+00	0	45	104	0	79	25744
2026-01-20 21:12:41.06	16.99	10.79	-54.6	-59.2	3.7	0.00e+00	0	45	104	0	80	25028
2026-01-20 21:12:42.05	17.02	10.90	-54.1	-59.0	3.7	0.00e+00	0	45	104	0	79	25913
2026-01-20 21:12:43.05	17.04	11.01	-54.3	-58.7	3.7	0.00e+00	0	45	104	0	79	25032
2026-01-20 21:12:44.04	17.07	11.12	-54.1	-58.9	3.7	0.00e+00	0	45	104	0	79	25660
2026-01-20 21:12:45.04	17.09	11.23	-54.9	-59.5	3.7	0.00e+00	0	45	104	0	80	25861
2026-01-20 21:12:46.03	17.11	11.35	-54.2	-58.8	3.7	0.00e+00	0	45	104	0	80	23933
2026-01-20 21:12:47.03	17.14	11.46	-54.3	-58.9	3.7	0.00e+00	0	45	104	0	80	24229
2026-01-20 21:12:48.02	17.16	11.57	-54.4	-59.0	3.7	0.00e+00	0	45	104	0	80	24300
2026-01-20 21:12:49.01	17.19	11.69	-54.5	-59.1	3.7	0.00e+00	0	45	104	0	80	24560
2026-01-20 21:12:50.01	17.21	11.80	-54.6	-59.2	3.7	0.00e+00	0	45	104	0	80	24926
2026-01-20 21:12:51.00	17.24	11.92	-54.6	-59.2	3.7	0.00e+00	0	45	104	0	80	25001
2026-01-20 21:12:52.00	17.26	12.03	-54.9	-59.4	3.7	0.00e+00	0	45	104	0	80	25626
2026-01-20 21:12:52.99	17.29	12.15	-55.1	-59.6	3.7	0.00e+00	0	45	104	0	80	26232
2026-01-20 21:12:53.99	17.31	12.27	-54.9	-59.5	3.7	0.00e+00	0	45	104	0	80	25779
2026-01-20 21:12:54.98	17.34	12.39	-54.9	-59.3	3.7	0.00e+00	0	45	104	0	80	25222
2026-01-20 21:12:55.98	17.37	12.51	-55.1	-59.7	3.7	0.00e+00	0	45	104	0	80	26417
2026-01-20 21:12:56.97	17.39	12.62	-55.0	-59.6	3.7	0.00e+00	0	45	104	0	80	26019
2026-01-20 21:12:57.97	17.42	12.75	-54.9	-59.5	3.7	0.00e+00	0	45	104	0	80	25712
2026-01-20 21:12:58.96	17.45	12.87	-55.1	-59.6	3.7	0.00e+00	0	45	104	0	80	26155
2026-01-20 21:12:59.96	17.48	12.99	-55.2	-59.8	3.7	0.00e+00	0	45	104	0	81	25112
2026-01-20 21:13:00.95	17.50	13.11	-55.1	-59.6	3.6	0.00e+00	0	45	104	0	81	24784
2026-01-20 21:13:01.95	17.53	13.24	-54.8	-59.3	3.7	0.00e+00	0	45	104	0	81	23937
2026-01-20 21:13:02.94	17.56	13.36	-55.2	-59.8	3.7	0.00e+00	0	45	104	0	81	25166
2026-01-20 21:13:03.94	17.59	13.49	-55.1	-59.6	3.7	0.00e+00	0	45	104	0	81	24665
2026-01-20 21:13:04.93	17.61	13.61	-55.2	-59.8	3.7	0.00e+00	0	45	104	0	81	25116
2026-01-20 21:13:05.93	17.64	13.74	-54.7	-59.5	3.7	0.00e+00	0	45	104	0	81	24364
2026-01-20 21:13:06.92	17.67	13.87	-55.2	-59.6	3.7	0.00e+00	0	46	104	0	81	24633
2026-01-20 21:13:07.92	17.70	14.00	-54.4	-59.1	3.7	0.00e+00	0	45	104	0	80	24622
2026-01-20 21:13:08.91	17.73	14.13	-55.1	-59.7	3.7	0.00e+00	0	45	104	0	80	26555
2026-01-20 21:13:09.91	17.76	14.26	-54.5	-59.5	3.7	0.00e+00	0	45	104	0	80	25723
2026-01-20 21:13:10.90	17.79	14.39	-55.1	-59.5	3.7	0.00e+00	0	46	104	0	80	25785
2026-01-20 21:13:11.90	17.82	14.53	-54.8	-59.4	3.7	0.00e+00	0	45	104	0	80	25586
2026-01-20 21:13:12.89	17.85	14.66	-54.4	-59.2	3.7	0.00e+00	0	45	104	0	80	24962
2026-01-20 21:13:13.89	17.88	14.80	-54.0	-59.0	3.7	0.00e+00	0	46	104	0	80	24451
2026-01-20 21:13:14.88	17.91	14.93	-53.9	-59.0	3.7	0.00e+00	0	46	104	0	79	25704
2026-01-20 21:13:15.88	17.95	15.07	-53.2	-58.4	3.7	0.00e+00	0	46	104	0	78	25675
2026-01-20 21:13:16.87	17.98	15.21	-54.0	-59.0	3.7	0.00e+00	0	46	104	0	78	27420
2026-01-20 21:13:17.87	18.01	15.35	-53.3	-58.7	3.7	0.00e+00	0	46	104	0	78	26435
2026-01-20 21:13:18.86	18.04	15.49	-53.2	-58.7	3.7	0.00e+00	0	46	104	0	78	26345
2026-01-20 21:13:19.86	18.07	15.63	-53.3	-58.6	3.7	0.00e+00	0	46	104	0	78	26251
2026-01-20 21:13:20.85	18.11	15.77	-53.2	-58.6	3.7	0.00e+00	0	46	104	0	78	26189
2026-01-20 21:13:21.84	18.14	15.91	-53.2	-58.6	3.7	0.00e+00	0	46	104	0	78	26239
2026-01-20 21:13:22.84	18.18	16.06	-53.5	-58.8	3.7	0.00e+00	0	46	104	0	78	26689
2026-01-20 21:13:23.83	18.21	16.20	-53.6	-58.9	3.7	0.00e+00	0	46	104	0	78	26922
2026-01-20 21:13:24.83	18.24	16.35	-53.8	-59.0	3.7	0.00e+00	0	46	104	0	78	27262
2026-01-20 21:13:25.82	18.28	16.50	-54.0	-59.2	3.7	0.00e+00	0	46	104	0	78	27875
2026-01-20 21:13:26.82	18.31	16.65	-53.2	-58.6	3.7	0.00e+00	0	46	104	0	78	26238
2026-01-20 21:13:27.81	18.35	16.80	-54.0	-59.0	3.7	0.00e+00	0	46	104	0	78	27453
2026-01-20 21:13:28.81	18.38	16.95	-53.8	-59.0	3.7	0.00e+00	0	46	104	0	78	27417
2026-01-20 21:13:29.80	18.42	17.10	-54.2	-59.2	3.7	0.00e+00	0	46	104	0	79	26442
2026-01-20 21:13:30.80	18.46	17.25	-54.0	-59.1	3.7	0.00e+00	0	46	104	0	79	26063
2026-01-20 21:13:31.79	18.49	17.41	-54.3	-59.3	3.7	0.00e+00	0	46	104	0	79	26835
2026-01-20 21:13:32.79	18.53	17.57	-54.1	-59.0	3.7	0.00e+00	0	46	104	0	79	25765
2026-01-20 21:13:33.78	18.57	17.72	-54.4	-59.1	3.7	0.00e+00	0	46	104	0	79	26162
2026-01-20 21:13:34.78	18.61	17.88	-54.3	-59.2	3.7	0.00e+00	0	46	104	0	79	26467
2026-01-20 21:13:35.78	18.65	18.04	-54.5	-59.4	3.7	0.00e+00	0	46	104	0	79	26963
2026-01-20 21:13:36.77	18.69	18.20	-54.5	-59.1	3.7	0.00e+00	0	46	104	0	79	26042
2026-01-20 21:13:37.77	18.73	18.37	-54.4	-59.3	3.7	0.00e+00	0	46	104	0	79	26691
2026-01-20 21:13:38.76	18.77	18.53	-54.5	-59.2	3.7	0.00e+00	0	46	104	0	79	26378
2026-01-20 21:13:39.76	18.81	18.70	-54.3	-59.2	3.7	0.00e+00	0	46	104	0	79	26530
2026-01-20 21:13:40.75	18.85	18.87	-54.5	-59.3	3.7	0.00e+00	0	46	104	0	79	26832
2026-01-20 21:13:41.75	18.89	19.03	-53.8	-59.0	3.7	0.00e+00	0	46	104	0	79	25702
2026-01-20 21:13:42.74	18.93	19.20	-54.3	-59.2	3.7	0.00e+00	0	46	104	0	79	26489
2026-01-20 21:13:43.73	18.97	19.37	-53.6	-58.8	3.7	0.00e+00	0	46	104	0	79	25203
2026-01-20 21:13:44.73	19.02	19.55	-53.9	-59.0	3.7	0.00e+00	0	46	104	0	79	25694
2026-01-20 21:13:45.72	19.06	19.72	-53.6	-58.7	3.7	0.00e+00	0	46	104	0	79	24959
2026-01-20 21:13:46.72	19.10	19.90	-53.7	-58.8	3.7	0.00e+00	0	46	104	0	79	25101
2026-01-20 21:13:47.71	19.15	20.08	-53.7	-58.6	3.7	0.00e+00	0	46	104	0	79	24716
2026-01-20 21:13:48.70	19.19	20.26	-53.7	-58.8	3.7	0.00e+00	0	46	104	0	79	25297
2026-01-20 21:13:49.70	19.24	20.44	-54.4	-59.2	3.7	0.00e+00	0	46	104	0	79	26318
2026-01-20 21:13:50.69	19.29	20.62	-54.0	-59.0	3.7	0.00e+00	0	46	104	0	79	25720
2026-01-20 21:13:51.69	19.33	20.81	-54.5	-59.3	3.7	0.00e+00	0	46	104	0	79	26584
2026-01-20 21:13:52.68	19.38	20.99	-54.4	-59.2	3.7	0.00e+00	0	46	104	0	79	26331
2026-01-20 21:13:53.68	19.43	21.18	-54.5	-59.3	3.7	0.00e+00	0	46	104	0	79	26711
2026-01-20 21:13:54.67	19.48	21.37	-54.5	-59.1	3.7	0.00e+00	0	46	104	0	79	26164
2026-01-20 21:13:55.66	19.52	21.56	-54.5	-59.1	3.7	0.00e+00	0	46	104	0	79	26030
2026-01-20 21:13:56.66	19.58	21.75	-54.4	-59.3	3.7	0.00e+00	0	46	104	0	79	26615
2026-01-20 21:13:57.65	19.63	21.95	-54.5	-59.4	3.7	0.00e+00	0	46	104	0	79	27015
2026-01-20 21:13:58.65	19.68	22.15	-54.3	-59.1	3.7	0.00e+00	0	46	104	0	80	24765
2026-01-20 21:13:59.64	19.73	22.35	-54.4	-59.1	3.7	0.00e+00	0	46	104	0	80	24761
2026-01-20 21:14:00.64	19.78	22.55	-54.6	-59.4	3.7	0.00e+00	0	46	104	0	80	25525
2026-01-20 21:14:01.63	19.83	22.75	-54.8	-59.5	3.7	0.00e+00	0	46	104	0	80	25705
2026-01-20 21:14:02.63	19.89	22.96	-54.8	-59.5	3.7	0.00e+00	0	46	104	0	80	25884
2026-01-20 21:14:03.62	19.94	23.16	-55.0	-59.7	3.7	0.00e+00	0	46	104	0	80	26370
2026-01-20 21:14:04.62	20.00	23.37	-54.9	-59.4	3.7	0.00e+00	0	46	104	0	80	25559
2026-01-20 21:14:05.61	20.06	23.58	-54.6	-58.7	3.7	0.00e+00	0	46	104	0	80	23512
2026-01-20 21:14:06.61	20.11	23.80	-54.8	-59.1	3.6	0.00e+00	0	46	104	0	80	24725
2026-01-20 21:14:07.60	20.17	24.01	-54.2	-58.4	3.7	0.00e+00	0	46	104	0	80	22707
2026-01-20 21:14:08.60	20.23	24.23	-53.8	-58.0	3.7	0.00e+00	0	46	104	0	79	23050
2026-01-20 21:14:09.59	20.29	24.45	-53.8	-58.1	3.7	0.00e+00	0	46	104	0	79	23225
2026-01-20 21:14:10.59	20.35	24.67	-53.7	-58.0	3.7	0.00e+00	0	46	104	0	79	23046
2026-01-20 21:14:11.59	20.41	24.90	-53.8	-58.3	3.7	0.00e+00	0	46	104	0	79	23739
2026-01-20 21:14:12.58	20.47	25.12	-54.1	-58.7	3.6	0.00e+00	0	46	104	0	79	24869
2026-01-20 21:14:13.58	20.54	25.36	-54.2	-59.1	3.7	0.00e+00	0	46	104	0	79	26003
2026-01-20 21:14:14.57	20.60	25.59	-54.4	-59.3	3.7	0.00e+00	0	46	104	0	79	26881
2026-01-20 21:14:15.57	20.67	25.82	-54.3	-59.1	3.7	0.00e+00	0	46	104	0	79	26101
2026-01-20 21:14:16.56	20.73	26.06	-54.1	-58.8	3.7	0.00e+00	0	46	104	0	79	25110
2026-01-20 21:14:17.55	20.80	26.30	-54.3	-59.2	3.7	0.00e+00	0	46	104	0	79	26376
2026-01-20 21:14:18.55	20.87	26.54	-54.4	-59.3	3.7	0.00e+00	0	46	104	0	79	26706
2026-01-20 21:14:19.54	20.94	26.78	-54.3	-59.1	3.7	0.00e+00	0	46	104	0	79	26118
2026-01-20 21:14:20.54	21.01	27.03	-54.3	-58.7	3.7	0.00e+00	0	46	104	0	79	25094
2026-01-20 21:14:21.53	21.08	27.28	-54.2	-58.5	3.7	0.00e+00	0	46	104	0	79	24422
2026-01-20 21:14:22.53	21.16	27.53	-54.3	-58.6	3.7	0.00e+00	0	46	104	0	79	24768
2026-01-20 21:14:23.52	21.23	27.79	-54.6	-59.0	3.7	0.00e+00	0	46	104	0	79	25809
2026-01-20 21:14:24.51	21.31	28.05	-55.1	-59.6	3.7	0.00e+00	0	46	104	0	80	26187
2026-01-20 21:14:25.51	21.38	28.31	-55.1	-59.6	3.7	0.00e+00	0	46	104	0	80	26255
2026-01-20 21:14:26.50	21.46	28.57	-55.1	-59.6	3.7	0.00e+00	0	46	104	0	80	26150
2026-01-20 21:14:27.50	21.54	28.84	-55.0	-59.5	3.7	0.00e+00	0	46	104	0	80	25723
2026-01-20 21:14:28.49	21.62	29.11	-54.8	-59.3	3.7	0.00e+00	0	46	104	0	80	25347
2026-01-20 21:14:29.49	21.70	29.39	-54.7	-59.1	3.7	0.00e+00	0	46	104	0	80	24637
2026-01-20 21:14:30.48	21.79	29.66	-54.5	-58.9	3.7	0.00e+00	0	46	104	0	80	23971
2026-01-20 21:14:31.48	21.87	29.94	-54.4	-58.6	3.7	0.00e+00	0	46	104	0	80	23314
2026-01-20 21:14:32.47	21.96	30.22	-54.6	-58.9	3.7	0.00e+00	0	46	104	0	80	24106
2026-01-20 21:14:33.47	22.05	30.51	-55.1	-59.6	3.7	0.00e+00	0	46	104	0	80	26009
2026-01-20 21:14:34.46	22.14	30.80	-55.2	-59.7	3.7	0.00e+00	0	46	104	0	81	24841
2026-01-20 21:14:35.46	22.23	31.10	-55.1	-59.6	3.7	0.00e+00	0	46	104	0	81	24530
2026-01-20 21:14:36.45	22.32	31.39	-55.3	-59.9	3.7	0.00e+00	0	46	104	0	81	25396
2026-01-20 21:14:37.44	22.42	31.69	-55.2	-59.8	3.7	0.00e+00	0	46	104	0	81	25236
2026-01-20 21:14:38.44	22.52	32.00	-55.0	-59.6	3.7	0.00e+00	0	46	104	0	81	24545
2026-01-20 21:14:39.43	22.62	32.30	-54.8	-59.4	3.7	0.00e+00	0	46	104	0	81	24061
2026-01-20 21:14:40.43	22.72	32.62	-54.6	-59.3	3.7	0.00e+00	0	46	104	0	81	23717
2026-01-20 21:14:41.42	22.82	32.93	-54.4	-59.3	3.7	0.00e+00	0	46	104	0	80	25219
2026-01-20 21:14:42.42	22.93	33.25	-53.8	-58.8	3.7	0.00e+00	0	46	104	0	79	25152
2026-01-20 21:14:43.41	23.03	33.57	-54.6	-59.5	3.7	0.00e+00	0	46	104	0	79	27334
2026-01-20 21:14:44.41	23.15	33.90	-54.6	-59.5	3.7	0.00e+00	0	46	104	0	80	25727
2026-01-20 21:14:45.40	23.26	34.23	-54.7	-59.3	3.7	0.00e+00	0	46	104	0	80	25226
2026-01-20 21:14:46.40	23.37	34.57	-54.9	-59.4	3.7	0.00e+00	0	46	104	0	80	25666
2026-01-20 21:14:47.39	23.49	34.90	-54.9	-59.4	3.7	0.00e+00	0	46	104	0	80	25669
2026-01-20 21:14:48.39	23.61	35.25	-54.8	-59.4	3.7	0.00e+00	0	46	104	0	80	25648
2026-01-20 21:14:49.38	23.73	35.60	-54.8	-59.5	3.7	0.00e+00	0	46	104	0	80	25721
2026-01-20 21:14:50.38	23.86	35.95	-54.7	-59.5	3.7	0.00e+00	0	46	104	0	80	25757
2026-01-20 21:14:51.37	23.98	36.30	-54.7	-59.4	3.7	0.00e+00	0	46	104	0	80	25665
2026-01-20 21:14:52.37	24.12	36.67	-54.6	-59.4	3.7	0.00e+00	0	46	104	0	80	25390
2026-01-20 21:14:53.36	24.25	37.03	-54.8	-59.5	3.7	0.00e+00	0	46	104	0	80	25735
2026-01-20 21:14:54.36	24.39	37.40	-54.7	-59.5	3.7	0.00e+00	0	47	104	0	80	25744
2026-01-20 21:14:55.36	24.53	37.78	-55.1	-59.5	3.7	0.00e+00	0	46	104	0	80	25803
2026-01-20 21:14:56.35	24.67	38.16	-55.2	-59.6	3.7	0.00e+00	0	46	104	0	81	24724
2026-01-20 21:14:57.35	24.82	38.54	-55.4	-59.8	3.7	0.00e+00	0	46	104	0	81	25111
2026-01-20 21:14:58.34	24.97	38.93	-55.4	-59.7	3.7	0.00e+00	0	46	104	0	81	25091
2026-01-20 21:14:59.34	25.12	39.33	-55.2	-59.6	3.7	0.00e+00	0	46	104	0	81	24774
2026-01-20 21:15:00.34	25.28	39.73	-55.2	-59.7	3.7	0.00e+00	0	46	104	0	81	24855
2026-01-20 21:15:01.33	25.45	40.13	-55.4	-59.8	3.7	0.00e+00	0	46	104	0	81	25327
2026-01-20 21:15:02.33	25.61	40.54	-55.3	-59.6	3.7	0.00e+00	0	46	104	0	81	24793
2026-01-20 21:15:03.32	25.78	40.96	-55.4	-59.9	3.7	0.00e+00	0	46	104	0	81	25413
2026-01-20 21:15:04.31	25.96	41.37	-55.1	-59.4	3.7	0.00e+00	0	46	104	0	81	24230
2026-01-20 21:15:05.31	26.14	41.80	-54.5	-59.1	3.7	0.00e+00	0	46	104	0	81	23157
2026-01-20 21:15:06.30	26.33	42.23	-54.7	-59.1	3.7	0.00e+00	0	46	104	0	81	23211
2026-01-20 21:15:07.30	26.52	42.67	-54.4	-58.9	3.7	0.00e+00	0	46	104	0	80	23998
2026-01-20 21:15:08.29	26.71	43.11	-54.7	-59.5	3.7	0.00e+00	0	47	104	0	80	25732
2026-01-20 21:15:09.29	26.92	43.56	-55.2	-59.6	3.7	0.00e+00	0	47	104	0	81	24653
2026-01-20 21:15:10.28	27.12	44.01	-55.2	-59.5	3.7	0.00e+00	0	46	104	0	81	24517
2026-01-20 21:15:11.28	27.34	44.47	-54.8	-58.8	3.7	0.00e+00	0	46	104	0	81	22539
2026-01-20 21:15:12.27	27.56	44.93	-54.7	-58.6	3.7	0.00e+00	0	46	104	0	81	21895
2026-01-20 21:15:13.27	27.78	45.40	-54.8	-58.7	3.7	0.00e+00	0	46	104	0	81	22286
2026-01-20 21:15:14.26	28.02	45.88	-55.1	-59.0	3.7	0.00e+00	0	46	104	0	81	23029
2026-01-20 21:15:15.26	28.26	46.36	-55.2	-59.3	3.7	0.00e+00	0	46	104	0	81	23783
2026-01-20 21:15:16.25	28.51	46.85	-55.4	-59.7	3.7	0.00e+00	0	46	104	0	81	25018
2026-01-20 21:15:17.25	28.77	47.34	-54.9	-59.0	3.7	0.00e+00	0	46	104	0	81	23104
2026-01-20 21:15:18.24	29.03	47.84	-54.7	-59.0	3.7	0.00e+00	0	46	104	0	81	22933
2026-01-20 21:15:19.24	29.31	48.35	-54.8	-58.9	3.7	0.00e+00	0	46	104	0	81	22791
2026-01-20 21:15:20.23	29.59	48.86	-54.5	-59.0	3.7	0.00e+00	0	46	104	0	81	22949
2026-01-20 21:15:21.23	29.88	49.38	-54.6	-58.8	3.7	0.00e+00	0	46	104	0	80	23869
2026-01-20 21:15:22.22	30.19	49.90	-55.0	-59.4	3.7	0.00e+00	0	47	104	0	80	25533
2026-01-20 21:15:23.22	30.50	50.43	-55.1	-59.6	3.7	0.00e+00	0	46	104	0	80	26023
2026-01-20 21:15:24.21	30.83	50.96	-55.3	-59.4	3.7	0.00e+00	0	46	104	0	81	24108
2026-01-20 21:15:25.21	31.17	51.50	-55.3	-59.4	3.7	0.00e+00	0	47	104	0	81	24178
2026-01-20 21:15:26.20	31.52	52.05	-55.4	-59.7	3.7	0.00e+00	0	47	104	0	81	25004
2026-01-20 21:15:27.20	31.88	52.60	-55.2	-59.5	3.7	0.00e+00	0	47	104	0	81	24460
2026-01-20 21:15:28.19	32.26	53.16	-55.2	-59.4	3.7	0.00e+00	0	46	104	0	81	24120
2026-01-20 21:15:29.18	32.65	53.72	-55.6	-59.9	3.7	0.00e+00	0	46	104	0	81	25426
2026-01-20 21:15:30.18	33.07	54.29	-55.4	-59.6	3.7	0.00e+00	0	47	104	0	81	24633
2026-01-20 21:15:31.17	33.49	54.87	-55.3	-59.6	3.7	0.00e+00	0	46	104	0	81	24724
2026-01-20 21:15:32.16	33.93	55.44	-55.3	-59.6	3.7	0.00e+00	0	46	104	0	81	24694
2026-01-20 21:15:33.16	34.40	56.03	-55.2	-59.7	3.7	0.00e+00	0	47	104	0	81	24907
2026-01-20 21:15:34.16	34.88	56.63	-55.2	-59.7	3.7	0.00e+00	0	47	104	0	81	24940
2026-01-20 21:15:35.15	35.39	57.22	-55.5	-59.5	3.7	0.00e+00	0	46	104	0	81	24352
2026-01-20 21:15:36.14	35.91	57.82	-55.4	-59.4	3.7	0.00e+00	0	47	104	0	81	24118
2026-01-20 21:15:37.14	36.47	58.43	-55.5	-60.0	3.7	0.00e+00	0	46	104	0	81	25880
2026-01-20 21:15:38.13	37.04	59.04	-55.4	-59.7	3.7	0.00e+00	0	47	104	0	81	25014
2026-01-20 21:15:39.13	37.65	59.65	-55.7	-60.2	3.7	0.00e+00	0	47	104	0	82	24871
2026-01-20 21:15:40.12	38.29	60.27	-55.7	-60.1	3.7	0.00e+00	0	47	104	0	82	24615
2026-01-20 21:15:41.12	38.96	60.89	-55.5	-60.0	3.7	0.00e+00	0	47	104	0	82	24398
2026-01-20 21:15:42.11	39.66	61.51	-55.6	-60.0	3.7	0.00e+00	0	47	104	0	82	24447
2026-01-20 21:15:43.10	40.39	62.14	-55.7	-60.1	3.7	0.00e+00	0	46	104	0	82	24780
2026-01-20 21:15:44.10	41.17	62.77	-55.8	-60.2	3.7	0.00e+00	0	47	104	0	82	25003
2026-01-20 21:15:45.09	41.99	63.40	-55.5	-60.0	3.7	0.00e+00	0	46	104	0	82	24397
2026-01-20 21:15:46.09	42.86	64.03	-55.6	-60.0	3.7	0.00e+00	0	46	104	0	82	24418
2026-01-20 21:15:47.08	43.77	64.66	-55.9	-60.2	3.7	0.00e+00	0	47	104	0	82	24984
2026-01-20 21:15:48.08	44.74	65.30	-55.9	-60.2	3.7	0.00e+00	0	46	104	0	82	24857
2026-01-20 21:15:49.08	45.77	65.93	-55.8	-60.2	3.7	0.00e+00	0	47	104	0	82	25041
2026-01-20 21:15:50.07	46.85	66.56	-55.8	-60.2	3.7	0.00e+00	0	46	104	0	82	24882
2026-01-20 21:15:51.07	48.01	67.19	-55.5	-60.1	3.7	0.00e+00	0	46	104	0	82	24591
2026-01-20 21:15:52.06	49.23	67.80	-55.5	-60.1	3.7	0.00e+00	0	47	104	0	82	24707
2026-01-20 21:15:53.06	50.53	68.43	-55.8	-60.3	3.7	0.00e+00	0	46	104	0	82	25186
2026-01-20 21:15:54.05	51.91	69.03	-55.7	-60.2	3.7	0.00e+00	0	47	104	0	82	24825
2026-01-20 21:15:55.05	53.39	69.64	-55.6	-60.2	3.7	0.00e+00	0	46	104	0	82	24856
2026-01-20 21:15:56.04	54.95	70.23	-55.6	-60.2	3.7	0.00e+00	0	46	104	0	82	24890
2026-01-20 21:15:57.03	56.62	70.81	-55.8	-60.2	3.7	0.00e+00	0	47	104	0	82	25085
2026-01-20 21:15:58.03	58.41	71.39	-55.7	-60.2	3.7	0.00e+00	0	47	104	0	82	24830
2026-01-20 21:15:59.02	60.30	71.94	-55.5	-60.1	3.7	0.00e+00	0	47	104	0	82	24725
2026-01-20 21:16:00.02	62.34	72.49	-55.4	-60.0	3.7	0.00e+00	0	47	104	0	82	24488
2026-01-20 21:16:01.01	64.49	73.00	-55.8	-60.3	3.7	0.00e+00	0	47	104	0	82	25201
2026-01-20 21:16:02.00	66.79	73.50	-55.7	-60.2	3.7	0.00e+00	0	46	104	0	82	24857
2026-01-20 21:16:03.00	69.25	73.98	-55.3	-59.9	3.7	0.00e+00	0	47	104	0	82	24077
2026-01-20 21:16:04.00	71.87	74.43	-55.3	-59.9	3.7	0.00e+00	0	47	104	0	82	24058
2026-01-20 21:16:04.99	74.61	74.84	-55.4	-60.0	3.7	0.00e+00	0	47	104	0	82	24376
2026-01-20 21:16:05.98	77.51	75.22	-55.4	-60.1	3.7	0.00e+00	0	46	104	0	82	24585
2026-01-20 21:16:06.98	80.59	75.56	-55.3	-60.0	3.7	0.00e+00	0	47	104	0	82	24360
2026-01-20 21:16:07.98	83.82	75.87	-55.3	-60.0	3.7	0.00e+00	0	47	104	0	82	24340
2026-01-20 21:16:08.97	87.15	76.13	-55.0	-59.9	3.7	0.00e+00	0	46	104	0	81	25422
2026-01-20 21:16:09.97	90.64	76.34	-55.4	-60.1	3.7	0.00e+00	0	47	104	0	81	26010
2026-01-20 21:16:10.96	94.19	76.50	-54.9	-59.7	3.7	0.00e+00	0	47	104	0	81	24943
2026-01-20 21:16:11.96	97.85	76.61	-54.9	-59.7	3.7	0.00e+00	0	47	104	0	81	25054
2026-01-20 21:16:12.95	101.52	76.67	-55.2	-59.8	3.7	0.00e+00	0	47	104	0	81	25357
2026-01-20 21:16:13.94	105.21	76.67	-55.3	-60.0	3.7	0.00e+00	0	47	104	0	81	25788
2026-01-20 21:16:14.94	108.93	76.63	-55.3	-59.9	3.7	0.00e+00	0	47	104	0	81	25581
2026-01-20 21:16:15.93	112.57	76.52	-55.2	-59.9	3.7	0.00e+00	0	47	104	0	81	25626
2026-01-20 21:16:16.93	116.17	76.37	-55.8	-60.3	3.7	0.00e+00	0	47	104	0	82	25112
2026-01-20 21:16:17.92	119.64	76.16	-55.6	-60.0	3.7	0.00e+00	0	47	104	0	82	24412
2026-01-20 21:16:18.92	123.02	75.91	-55.5	-60.1	3.7	0.00e+00	0	47	104	0	82	24766
2026-01-20 21:16:19.91	126.24	75.62	-55.6	-60.2	3.7	0.00e+00	0	47	104	0	82	24860
2026-01-20 21:16:20.91	129.35	75.28	-55.6	-60.1	3.7	0.00e+00	0	47	104	0	82	24721
2026-01-20 21:16:21.90	132.28	74.90	-55.9	-60.3	3.7	0.00e+00	0	47	104	0	82	25193
2026-01-20 21:16:22.90	135.08	74.49	-55.1	-59.9	3.7	0.00e+00	0	47	104	0	82	24040
2026-01-20 21:16:23.89	137.70	74.05	-55.2	-59.8	3.7	0.00e+00	0	46	104	0	82	23903
2026-01-20 21:16:24.89	140.19	73.58	-55.2	-59.8	3.7	0.00e+00	0	47	104	0	81	25159
2026-01-20 21:16:25.88	142.51	73.08	-55.4	-59.9	3.7	0.00e+00	0	46	104	0	81	25545
2026-01-20 21:16:26.88	144.70	72.56	-55.3	-59.8	3.7	0.00e+00	0	47	104	0	81	25170
2026-01-20 21:16:27.88	146.77	72.02	-55.2	-59.7	3.7	0.00e+00	0	47	104	0	81	25025
2026-01-20 21:16:28.87	148.68	71.47	-55.8	-60.1	3.7	0.00e+00	0	47	104	0	82	24741
2026-01-20 21:16:29.86	150.47	70.90	-55.6	-59.8	3.7	0.00e+00	0	47	104	0	82	23870
2026-01-20 21:16:30.86	152.17	70.32	-55.8	-60.1	3.7	0.00e+00	0	47	104	0	82	24658
2026-01-20 21:16:31.86	153.77	69.72	-55.8	-60.1	3.7	0.00e+00	0	47	104	0	82	24613
2026-01-20 21:16:32.85	155.25	69.12	-55.4	-60.0	3.7	0.00e+00	0	47	104	0	82	24462
2026-01-20 21:16:33.85	156.65	68.50	-55.2	-59.7	3.7	0.00e+00	0	47	104	0	82	23669
2026-01-20 21:16:34.84	157.96	67.89	-55.7	-60.2	3.7	0.00e+00	0	47	104	0	82	24936
2026-01-20 21:16:35.84	159.20	67.26	-55.7	-60.2	3.7	0.00e+00	0	47	104	0	82	24933
2026-01-20 21:16:36.83	160.36	66.64	-55.5	-60.1	3.7	0.00e+00	0	47	104	0	82	24539
2026-01-20 21:16:37.82	161.45	66.01	-55.4	-60.0	3.7	0.00e+00	0	47	104	0	82	24426
2026-01-20 21:16:38.82	162.49	65.37	-55.2	-60.0	3.7	0.00e+00	0	47	104	0	82	24295
2026-01-20 21:16:39.81	163.46	64.74	-55.2	-60.0	3.7	0.00e+00	0	47	104	0	82	24266
2026-01-20 21:16:40.81	164.39	64.10	-55.7	-60.2	3.7	0.00e+00	0	47	104	0	82	25021
2026-01-20 21:16:41.80	165.26	63.47	-55.9	-60.3	3.6	0.00e+00	0	47	104	0	82	25191
2026-01-20 21:16:42.80	166.09	62.84	-55.8	-60.2	3.7	0.00e+00	0	47	104	0	82	25094
2026-01-20 21:16:43.79	166.87	62.21	-55.7	-60.2	3.7	0.00e+00	0	47	104	0	82	25017
2026-01-20 21:16:44.79	167.62	61.58	-55.5	-60.2	3.7	0.00e+00	0	47	104	0	82	24948
2026-01-20 21:16:45.78	168.33	60.95	-55.5	-60.2	3.7	0.00e+00	0	47	104	0	82	24861
2026-01-20 21:16:46.77	169.00	60.33	-55.8	-60.3	3.7	0.00e+00	0	47	104	0	82	25291
2026-01-20 21:16:47.77	169.64	59.71	-55.9	-60.3	3.7	0.00e+00	0	46	104	0	82	25260
2026-01-20 21:16:48.76	170.25	59.10	-55.7	-60.2	3.7	0.00e+00	0	47	104	0	82	24911
2026-01-20 21:16:49.76	170.84	58.48	-55.8	-60.3	3.7	0.00e+00	0	46	104	0	82	25208
2026-01-20 21:16:50.75	171.39	57.87	-55.8	-60.2	3.7	0.00e+00	0	46	104	0	82	25071
2026-01-20 21:16:51.75	171.92	57.27	-55.7	-60.2	3.7	0.00e+00	0	47	104	0	82	24945
2026-01-20 21:16:52.74	172.43	56.67	-55.2	-60.0	3.7	0.00e+00	0	47	104	0	82	24463
2026-01-20 21:16:53.74	172.92	56.07	-55.3	-60.0	3.7	0.00e+00	0	47	104	0	82	24379
2026-01-20 21:16:54.73	173.39	55.49	-55.4	-60.1	3.7	0.00e+00	0	47	104	0	82	24622
2026-01-20 21:16:55.73	173.84	54.90	-55.4	-60.1	3.7	0.00e+00	0	47	104	0	82	24557
2026-01-20 21:16:56.72	174.26	54.33	-55.8	-60.3	3.7	0.00e+00	0	47	104	0	82	25243
2026-01-20 21:16:57.72	174.68	53.75	-55.7	-60.2	3.7	0.00e+00	0	47	104	0	82	24972
2026-01-20 21:16:58.71	175.07	53.19	-55.6	-60.0	3.7	0.00e+00	0	47	104	0	82	24499
2026-01-20 21:16:59.71	175.46	52.62	-55.6	-60.0	3.7	0.00e+00	0	47	104	0	82	24342
2026-01-20 21:17:00.70	175.82	52.07	-55.8	-60.2	3.7	0.00e+00	0	47	104	0	82	25049
2026-01-20 21:17:01.70	176.18	51.52	-55.8	-60.3	3.7	0.00e+00	0	47	104	0	82	25151
2026-01-20 21:17:02.69	176.51	50.97	-55.6	-60.1	3.7	0.00e+00	0	46	104	0	82	24587
2026-01-20 21:17:03.69	176.84	50.43	-55.6	-60.1	3.7	0.00e+00	0	47	104	0	82	24564
2026-01-20 21:17:04.68	177.16	49.90	-55.6	-60.1	3.7	0.00e+00	0	47	104	0	82	24708
2026-01-20 21:17:05.68	177.47	49.38	-55.8	-60.2	3.7	0.00e+00	0	47	104	0	82	24947
2026-01-20 21:17:06.67	177.76	48.86	-55.6	-59.9	3.7	0.00e+00	0	47	104	0	82	24177
2026-01-20 21:17:07.67	178.05	48.34	-55.6	-59.9	3.7	0.00e+00	0	47	104	0	82	24099
2026-01-20 21:17:08.66	178.32	47.84	-55.6	-59.9	3.7	0.00e+00	0	47	104	0	82	23971
2026-01-20 21:17:09.66	178.59	47.33	-55.7	-60.0	3.7	0.00e+00	0	47	104	0	82	24512
2026-01-20 21:17:10.65	178.85	46.84	-55.6	-60.2	3.7	0.00e+00	0	47	104	0	82	24882
2026-01-20 21:17:11.64	179.10	46.35	-55.6	-60.1	3.7	0.00e+00	0	47	104	0	82	24773
2026-01-20 21:17:12.64	179.34	45.86	-55.5	-60.0	3.7	0.00e+00	0	47	104	0	82	24523
2026-01-20 21:17:13.63	179.57	45.39	-55.6	-60.1	3.7	0.00e+00	0	47	104	0	82	24697
2026-01-20 21:17:14.63	179.80	44.91	-55.6	-60.1	3.7	0.00e+00	0	47	104	0	82	24558
2026-01-20 21:17:15.62	180.02	44.45	-55.6	-60.0	3.7	0.00e+00	0	47	104	0	82	24410
2026-01-20 21:17:16.62	180.24	43.98	-55.5	-60.0	3.7	0.00e+00	0	47	104	0	82	24463
2026-01-20 21:17:17.61	180.45	43.53	-55.5	-60.0	3.7	0.00e+00	0	47	104	0	82	24420
2026-01-20 21:17:18.61	180.65	43.08	-55.5	-59.9	3.7	0.00e+00	0	47	104	0	82	24148
2026-01-20 21:17:19.60	180.85	42.64	-55.5	-59.9	3.7	0.00e+00	0	47	104	0	82	24023
2026-01-20 21:17:20.60	181.04	42.20	-55.6	-59.9	3.7	0.00e+00	0	47	104	0	82	24219
2026-01-20 21:17:21.59	181.22	41.76	-55.6	-60.1	3.7	0.00e+00	0	47	104	0	82	24571
2026-01-20 21:17:22.58	181.40	41.34	-55.4	-60.0	3.7	0.00e+00	0	47	104	0	82	24347
2026-01-20 21:17:23.58	181.58	40.91	-55.3	-60.0	3.7	0.00e+00	0	47	104	0	82	24316
2026-01-20 21:17:24.58	181.75	40.49	-55.4	-60.0	3.7	0.00e+00	0	47	104	0	82	24417
2026-01-20 21:17:25.57	181.92	40.08	-55.5	-60.1	3.7	0.00e+00	0	47	104	0	82	24758
2026-01-20 21:17:26.57	182.08	39.68	-55.4	-60.0	3.7	0.00e+00	0	47	104	0	82	24384
2026-01-20 21:17:27.56	182.24	39.28	-55.3	-60.0	3.7	0.00e+00	0	47	104	0	82	24322
2026-01-20 21:17:28.56	182.40	38.88	-55.3	-59.9	3.7	0.00e+00	0	47	104	0	82	24194
2026-01-20 21:17:29.55	182.55	38.49	-55.4	-59.9	3.7	0.00e+00	0	47	104	0	82	24202
2026-01-20 21:17:30.55	182.70	38.10	-55.2	-59.8	3.7	0.00e+00	0	47	104	0	82	23810
2026-01-20 21:17:31.54	182.84	37.72	-54.8	-59.6	3.7	0.00e+00	0	47	104	0	81	24568
2026-01-20 21:17:32.53	182.98	37.34	-54.8	-59.5	3.7	0.00e+00	0	47	104	0	81	24516
2026-01-20 21:17:33.53	183.12	36.97	-55.0	-59.6	3.7	0.00e+00	0	47	104	0	81	24670
2026-01-20 21:17:34.52	183.25	36.60	-55.2	-59.7	3.7	0.00e+00	0	47	104	0	81	24940
2026-01-20 21:17:35.52	183.38	36.24	-55.3	-59.8	3.7	0.00e+00	0	47	104	0	81	25198
2026-01-20 21:17:36.51	183.51	35.88	-55.5	-59.9	3.7	0.00e+00	0	47	104	0	81	25587
2026-01-20 21:17:37.51	183.64	35.53	-55.5	-60.0	3.7	0.00e+00	0	47	104	0	81	25782
2026-01-20 21:17:38.50	183.76	35.18	-55.5	-59.9	3.7	0.00e+00	0	47	104	0	81	25642
2026-01-20 21:17:39.50	183.88	34.83	-55.5	-59.9	3.7	0.00e+00	0	47	104	0	81	25473
2026-01-20 21:17:40.49	184.00	34.49	-55.4	-59.9	3.7	0.00e+00	0	47	104	0	81	25530
2026-01-20 21:17:41.49	184.11	34.15	-55.2	-59.7	3.7	0.00e+00	0	47	104	0	81	24937
2026-01-20 21:17:42.48	184.22	33.82	-55.2	-59.6	3.7	0.00e+00	0	46	104	0	81	24770
2026-01-20 21:17:43.48	184.33	33.49	-55.3	-59.7	3.7	0.00e+00	0	47	104	0	81	25017
2026-01-20 21:17:44.47	184.44	33.17	-55.3	-59.7	3.7	0.00e+00	0	47	104	0	81	24908
2026-01-20 21:17:45.47	184.55	32.84	-55.5	-59.9	3.7	0.00e+00	0	47	104	0	81	25607
2026-01-20 21:17:46.46	184.65	32.53	-55.5	-59.9	3.7	0.00e+00	0	47	104	0	81	25603
2026-01-20 21:17:47.45	184.75	32.22	-55.4	-59.9	3.7	0.00e+00	0	47	104	0	81	25568
2026-01-20 21:17:48.45	184.85	31.91	-55.4	-59.9	3.7	0.00e+00	0	47	104	0	81	25650
2026-01-20 21:17:49.44	184.95	31.60	-55.3	-59.8	3.7	0.00e+00	0	47	104	0	81	25262
2026-01-20 21:17:50.44	185.04	31.30	-55.4	-59.9	3.7	0.00e+00	0	47	104	0	81	25441
2026-01-20 21:17:51.43	185.14	31.00	-55.3	-59.8	3.7	0.00e+00	0	47	104	0	81	25264
2026-01-20 21:17:52.43	185.23	30.70	-55.2	-59.8	3.7	0.00e+00	0	47	104	0	81	25312
2026-01-20 21:17:53.42	185.32	30.41	-55.2	-59.8	3.7	0.00e+00	0	47	104	0	81	25120
2026-01-20 21:17:54.42	185.41	30.12	-55.2	-59.8	3.7	0.00e+00	0	47	104	0	81	25169
2026-01-20 21:17:55.41	185.50	29.84	-55.1	-59.6	3.7	0.00e+00	0	47	104	0	81	24629
2026-01-20 21:17:56.40	185.58	29.56	-55.1	-59.6	3.7	0.00e+00	0	47	104	0	81	24762
2026-01-20 21:17:57.40	185.67	29.28	-55.1	-59.5	3.7	0.00e+00	0	47	104	0	81	24490
2026-01-20 21:17:58.39	185.75	29.01	-55.1	-59.7	3.7	0.00e+00	0	47	104	0	81	25040
2026-01-20 21:17:59.39	185.83	28.73	-55.1	-59.7	3.7	0.00e+00	0	47	104	0	81	25036
2026-01-20 21:18:00.38	185.91	28.47	-55.1	-59.7	3.7	0.00e+00	0	47	104	0	81	24860
2026-01-20 21:18:01.38	185.99	28.20	-55.1	-59.7	3.7	0.00e+00	0	47	104	0	81	24831
2026-01-20 21:18:02.37	186.06	27.94	-55.0	-59.5	3.7	0.00e+00	0	47	104	0	81	24500
2026-01-20 21:18:03.37	186.14	27.68	-55.3	-59.7	3.7	0.00e+00	0	47	104	0	81	24992
2026-01-20 21:18:04.36	186.21	27.42	-55.1	-59.6	3.7	0.00e+00	0	47	104	0	81	24699
2026-01-20 21:18:05.36	186.29	27.16	-55.3	-59.9	3.7	0.00e+00	0	47	104	0	81	25399
2026-01-20 21:18:06.33	186.36	26.92	-55.2	-59.6	3.7	0.00e+00	0	47	104	0	81	24632
2026-01-20 21:18:07.33	186.43	26.67	-55.2	-59.5	3.7	0.00e+00	0	47	104	0	81	24345
2026-01-20 21:18:08.32	186.50	26.42	-55.2	-59.6	3.7	0.00e+00	0	47	104	0	81	24578
2026-01-20 21:18:09.32	186.56	26.18	-55.0	-59.4	3.7	0.00e+00	0	47	104	0	81	24196
2026-01-20 21:18:10.31	186.63	25.94	-55.2	-59.7	3.7	0.00e+00	0	47	104	0	81	24835
2026-01-20 21:18:11.31	186.70	25.70	-55.0	-59.5	3.7	0.00e+00	0	47	104	0	81	24467
2026-01-20 21:18:12.30	186.76	25.47	-55.0	-59.5	3.7	0.00e+00	0	47	104	0	81	24437
2026-01-20 21:18:13.29	186.83	25.23	-55.2	-59.7	3.7	0.00e+00	0	47	104	0	81	24852
2026-01-20 21:18:14.29	186.89	25.00	-55.1	-59.7	3.7	0.00e+00	0	47	104	0	81	24833
2026-01-20 21:18:15.28	186.95	24.78	-55.1	-59.6	3.7	0.00e+00	0	47	104	0	81	24652
2026-01-20 21:18:16.28	187.01	24.55	-55.2	-59.6	3.7	0.00e+00	0	47	104	0	81	24792
2026-01-20 21:18:17.27	187.07	24.33	-54.9	-59.5	3.7	0.00e+00	0	47	104	0	81	24315
2026-01-20 21:18:18.27	187.13	24.10	-54.9	-59.3	3.7	0.00e+00	0	47	104	0	81	23818
2026-01-20 21:18:19.26	187.19	23.89	-54.8	-59.4	3.7	0.00e+00	0	47	104	0	81	24048
2026-01-20 21:18:20.26	187.25	23.67	-54.8	-59.3	3.7	0.00e+00	0	47	104	0	81	23945
2026-01-20 21:18:21.25	187.31	23.45	-54.8	-59.4	3.7	0.00e+00	0	47	104	0	81	24155
2026-01-20 21:18:22.25	187.36	23.24	-54.9	-59.4	3.6	0.00e+00	0	47	104	0	81	24150
2026-01-20 21:18:23.24	187.42	23.03	-54.7	-59.3	3.7	0.00e+00	0	47	104	0	81	23803
2026-01-20 21:18:24.23	187.47	22.83	-54.8	-59.4	3.7	0.00e+00	0	47	104	0	81	24073
2026-01-20 21:18:25.23	187.53	22.62	-54.6	-59.2	3.7	0.00e+00	0	47	104	0	81	23659
2026-01-20 21:18:26.22	187.58	22.41	-54.7	-59.4	3.7	0.00e+00	0	47	104	0	81	24051
2026-01-20 21:18:27.22	187.63	22.21	-54.4	-58.9	3.7	0.00e+00	0	47	104	0	80	24219
2026-01-20 21:18:28.21	187.68	22.01	-54.6	-59.3	3.7	0.00e+00	0	47	104	0	80	25221
2026-01-20 21:18:29.21	187.74	21.81	-54.4	-59.0	3.7	0.00e+00	0	47	104	0	80	24411
2026-01-20 21:18:30.20	187.79	21.62	-54.3	-58.9	3.7	0.00e+00	0	47	104	0	80	24064
2026-01-20 21:18:31.20	187.84	21.42	-54.4	-59.1	3.7	0.00e+00	0	47	104	0	80	24628
2026-01-20 21:18:32.19	187.88	21.23	-54.4	-58.9	3.7	0.00e+00	0	47	104	0	80	24027
2026-01-20 21:18:33.19	187.93	21.04	-54.4	-59.0	3.7	0.00e+00	0	47	104	0	80	24413
2026-01-20 21:18:34.18	187.98	20.85	-54.5	-59.2	3.7	0.00e+00	0	47	104	0	80	24969
2026-01-20 21:18:35.18	188.03	20.66	-54.5	-59.1	3.7	0.00e+00	0	47	104	0	80	24774
2026-01-20 21:18:36.17	188.07	20.48	-54.5	-59.2	3.7	0.00e+00	0	47	104	0	80	24833
2026-01-20 21:18:37.17	188.12	20.29	-54.3	-59.0	3.7	0.00e+00	0	47	104	0	80	24522
2026-01-20 21:18:38.16	188.16	20.11	-54.4	-59.0	3.7	0.00e+00	0	47	104	0	80	24461
2026-01-20 21:18:39.16	188.21	19.93	-54.2	-58.9	3.7	0.00e+00	0	47	104	0	80	24189
2026-01-20 21:18:40.15	188.25	19.75	-54.4	-59.1	3.7	0.00e+00	0	47	104	0	80	24558
2026-01-20 21:18:41.15	188.30	19.58	-54.2	-58.9	3.7	0.00e+00	0	47	104	0	80	24142
2026-01-20 21:18:42.14	188.34	19.40	-54.3	-59.1	3.7	0.00e+00	0	47	104	0	80	24552
2026-01-20 21:18:43.14	188.38	19.23	-54.4	-59.1	3.7	0.00e+00	0	47	104	0	80	24686
2026-01-20 21:18:44.13	188.42	19.05	-54.2	-59.0	3.7	0.00e+00	0	47	104	0	80	24248
2026-01-20 21:18:45.12	188.47	18.88	-54.2	-58.9	3.7	0.00e+00	0	47	104	0	80	24138
2026-01-20 21:18:46.12	188.51	18.71	-54.3	-59.0	3.7	0.00e+00	0	47	104	0	80	24356
2026-01-20 21:18:47.11	188.55	18.55	-54.4	-59.0	3.7	0.00e+00	0	47	104	0	80	24419
2026-01-20 21:18:48.11	188.59	18.38	-54.4	-59.1	3.7	0.00e+00	0	47	104	0	80	24537
2026-01-20 21:18:49.10	188.63	18.21	-54.2	-59.0	3.7	0.00e+00	0	47	104	0	80	24264
2026-01-20 21:18:50.10	188.67	18.05	-54.3	-59.0	3.7	0.00e+00	0	47	104	0	80	24250
2026-01-20 21:18:51.09	188.71	17.89	-54.0	-58.9	3.7	0.00e+00	0	47	104	0	80	23976
2026-01-20 21:18:52.09	188.74	17.73	-54.4	-59.0	3.7	0.00e+00	0	47	104	0	80	24352
2026-01-20 21:18:53.08	188.78	17.57	-54.1	-58.8	3.7	0.00e+00	0	47	104	0	80	23840
2026-01-20 21:18:54.08	188.82	17.41	-54.2	-58.9	3.7	0.00e+00	0	47	104	0	80	24075
2026-01-20 21:18:55.07	188.86	17.25	-54.1	-58.8	3.7	0.00e+00	0	47	104	0	79	25381
2026-01-20 21:18:56.07	188.89	17.10	-54.1	-58.9	3.7	0.00e+00	0	47	104	0	79	25597
2026-01-20 21:18:57.06	188.93	16.94	-54.0	-58.8	3.7	0.00e+00	0	47	104	0	79	25189
2026-01-20 21:18:58.06	188.96	16.79	-54.0	-58.8	3.7	0.00e+00	0	47	104	0	79	25166
2026-01-20 21:18:59.05	189.00	16.64	-53.8	-58.6	3.7	0.00e+00	0	47	104	0	79	24701
2026-01-20 21:19:00.05	189.03	16.49	-54.1	-58.8	3.7	0.00e+00	0	47	104	0	79	25276
2026-01-20 21:19:01.04	189.07	16.34	-53.7	-58.6	3.7	0.00e+00	0	47	104	0	79	24540
2026-01-20 21:19:02.04	189.10	16.19	-54.0	-58.8	3.7	0.00e+00	0	47	104	0	79	25292
2026-01-20 21:19:03.03	189.14	16.04	-53.6	-58.5	3.7	0.00e+00	0	47	104	0	79	24509
2026-01-20 21:19:04.03	189.17	15.89	-53.8	-58.6	3.7	0.00e+00	0	47	104	0	79	24542
2026-01-20 21:19:05.02	189.20	15.75	-53.5	-58.5	3.7	0.00e+00	0	47	104	0	79	24274
2026-01-20 21:19:06.02	189.24	15.60	-53.8	-58.6	3.7	0.00e+00	0	47	104	0	78	26238
2026-01-20 21:19:07.01	189.27	15.46	-53.3	-58.3	3.7	0.00e+00	0	47	104	0	78	25196
2026-01-20 21:19:08.00	189.30	15.32	-53.7	-58.6	3.7	0.00e+00	0	47	104	0	78	26095
2026-01-20 21:19:09.00	189.33	15.18	-53.4	-58.4	3.7	0.00e+00	0	47	104	0	78	25399
2026-01-20 21:19:09.99	189.37	15.04	-53.7	-58.5	3.7	0.00e+00	0	47	104	0	78	25832
2026-01-20 21:19:10.99	189.40	14.90	-53.2	-58.1	3.7	0.00e+00	0	47	104	0	78	24793
2026-01-20 21:19:11.98	189.43	14.77	-53.5	-58.4	3.7	0.00e+00	0	47	104	0	78	25612
2026-01-20 21:19:12.98	189.46	14.63	-53.4	-58.2	3.7	0.00e+00	0	47	104	0	78	24971
2026-01-20 21:19:13.97	189.49	14.49	-53.2	-58.1	3.7	0.00e+00	0	47	104	0	78	24684
2026-01-20 21:19:14.97	189.52	14.36	-53.3	-58.3	3.7	0.00e+00	0	47	104	0	78	25211
2026-01-20 21:19:15.96	189.55	14.23	-53.2	-58.1	3.7	0.00e+00	0	47	104	0	78	24736
2026-01-20 21:19:16.96	189.58	14.09	-53.6	-58.5	3.7	0.00e+00	0	47	104	0	78	25701
2026-01-20 21:19:17.96	189.61	13.96	-53.2	-58.2	3.7	0.00e+00	0	47	104	0	78	24982
2026-01-20 21:19:18.95	189.64	13.83	-53.6	-58.4	3.7	0.00e+00	0	47	104	0	78	25552
2026-01-20 21:19:19.95	189.67	13.70	-53.2	-58.2	3.7	0.00e+00	0	47	104	0	78	24820
2026-01-20 21:19:20.94	189.69	13.57	-53.8	-58.7	3.7	0.00e+00	0	47	104	0	78	26290
2026-01-20 21:19:21.94	189.72	13.44	-53.3	-58.2	3.7	0.00e+00	0	47	104	0	78	24948
2026-01-20 21:19:22.93	189.75	13.32	-53.6	-58.4	3.7	0.00e+00	0	47	104	0	78	25393
2026-01-20 21:19:23.92	189.78	13.19	-53.4	-58.3	3.7	0.00e+00	0	47	104	0	78	25157
2026-01-20 21:19:24.92	189.80	13.06	-53.7	-58.5	3.7	0.00e+00	0	47	104	0	78	25820
2026-01-20 21:19:25.91	189.83	12.94	-53.1	-58.0	3.7	0.00e+00	0	47	104	0	78	24423
2026-01-20 21:19:26.91	189.86	12.82	-53.2	-58.1	3.7	0.00e+00	0	47	104	0	78	24712
2026-01-20 21:19:27.90	189.89	12.69	-53.2	-58.1	3.7	0.00e+00	0	47	104	0	78	24631
2026-01-20 21:19:28.90	189.91	12.57	-53.1	-58.1	3.7	0.00e+00	0	47	104	0	78	24572
2026-01-20 21:19:29.89	189.94	12.45	-53.2	-58.1	3.7	0.00e+00	0	47	104	0	78	24635
2026-01-20 21:19:30.88	189.96	12.33	-53.2	-58.1	3.7	0.00e+00	0	47	104	0	78	24600
2026-01-20 21:19:31.88	189.99	12.21	-53.2	-58.1	3.7	0.00e+00	0	47	104	0	78	24746
2026-01-20 21:19:32.87	190.01	12.09	-53.3	-58.1	3.7	0.00e+00	0	47	104	0	78	24744
2026-01-20 21:19:33.87	190.04	11.97	-53.3	-58.0	3.7	0.00e+00	0	47	104	0	78	24503
2026-01-20 21:19:34.86	190.07	11.86	-53.4	-58.3	3.7	0.00e+00	0	47	104	0	78	25270
2026-01-20 21:19:35.86	190.09	11.74	-53.3	-58.1	3.7	0.00e+00	0	47	104	0	78	24706
2026-01-20 21:19:36.85	190.11	11.62	-53.4	-58.2	3.7	0.00e+00	0	47	104	0	78	25058
2026-01-20 21:19:37.85	190.14	11.51	-53.4	-58.2	3.7	0.00e+00	0	47	104	0	78	24890
2026-01-20 21:19:38.84	190.16	11.39	-53.1	-57.9	3.7	0.00e+00	0	47	104	0	78	24167
2026-01-20 21:19:39.83	190.19	11.28	-53.2	-58.0	3.7	0.00e+00	0	47	104	0	78	24449
2026-01-20 21:19:40.83	190.21	11.17	-53.3	-58.2	3.7	0.00e+00	0	47	104	0	78	24890
2026-01-20 21:19:41.82	190.23	11.06	-53.3	-58.1	3.7	0.00e+00	0	47	104	0	78	24755
2026-01-20 21:19:42.82	190.26	10.94	-53.0	-57.9	3.7	0.00e+00	0	47	104	0	78	24154
2026-01-20 21:19:43.81	190.28	10.83	-52.9	-57.9	3.7	0.00e+00	0	47	104	0	77	25478
2026-01-20 21:19:44.81	190.30	10.72	-53.2	-58.0	3.7	0.00e+00	0	47	104	0	77	25751
2026-01-20 21:19:45.80	190.33	10.61	-53.6	-58.4	3.7	0.00e+00	0	47	104	0	77	26967
2026-01-20 21:19:46.80	190.35	10.50	-52.9	-57.9	3.7	0.00e+00	0	47	104	0	77	25387
2026-01-20 21:19:47.79	190.37	10.40	-52.8	-57.6	3.7	0.00e+00	0	47	104	0	77	24779
2026-01-20 21:19:48.79	190.39	10.29	-52.9	-57.9	3.7	0.00e+00	0	47	104	0	77	25432
2026-01-20 21:19:49.78	190.42	10.18	-52.7	-57.6	3.7	0.00e+00	0	47	104	0	77	24807
2026-01-20 21:19:50.78	190.44	10.07	-52.7	-57.6	3.7	0.00e+00	0	47	104	0	77	24710
2026-01-20 21:19:51.77	190.46	9.97	-52.7	-57.6	3.7	0.00e+00	0	47	104	0	77	24796
2026-01-20 21:19:52.77	190.48	9.86	-52.7	-57.6	3.7	0.00e+00	0	47	104	0	77	24778
2026-01-20 21:19:53.76	190.50	9.76	-52.8	-57.7	3.7	0.00e+00	0	47	104	0	77	24944
2026-01-20 21:19:54.75	190.53	9.65	-52.8	-57.7	3.7	0.00e+00	0	47	104	0	77	24931
2026-01-20 21:19:55.75	190.55	9.55	-53.5	-58.2	3.7	0.00e+00	0	47	104	0	77	26387
2026-01-20 21:19:56.75	190.57	9.45	-53.2	-58.1	3.7	0.00e+00	0	47	104	0	77	26030
2026-01-20 21:19:57.74	190.59	9.35	-52.8	-57.7	3.7	0.00e+00	0	47	104	0	77	24945
2026-01-20 21:19:58.74	190.61	9.24	-53.0	-57.9	3.7	0.00e+00	0	47	104	0	77	25639
2026-01-20 21:19:59.73	190.63	9.14	-53.1	-58.0	3.7	0.00e+00	0	47	104	0	77	25797
2026-01-20 21:20:00.73	190.65	9.04	-53.1	-58.0	3.7	0.00e+00	0	47	104	0	77	25861
2026-01-20 21:20:01.72	190.67	8.94	-52.8	-57.8	3.7	0.00e+00	0	47	104	0	77	25124
2026-01-20 21:20:02.71	190.69	8.84	-53.8	-58.6	3.7	0.00e+00	0	47	104	0	78	26234
2026-01-20 21:20:03.71	190.71	8.74	-54.0	-58.7	3.7	0.00e+00	0	47	104	0	78	26333
2026-01-20 21:20:04.70	190.73	8.64	-53.9	-58.8	3.7	0.00e+00	0	47	104	0	79	25126
2026-01-20 21:20:05.69	190.75	8.55	-54.9	-59.2	3.7	0.00e+00	0	47	104	0	80	25089
2026-01-20 21:20:06.69	190.77	8.45	-55.1	-59.6	3.7	0.00e+00	0	47	104	0	81	24595
2026-01-20 21:20:07.68	190.79	8.35	-55.5	-60.1	3.7	0.00e+00	0	47	104	0	81	26105
2026-01-20 21:20:08.67	190.81	8.26	-55.4	-60.0	3.7	0.00e+00	0	47	104	0	81	25703
2026-01-20 21:20:09.67	190.83	8.16	-55.6	-60.0	3.7	0.00e+00	0	47	104	0	82	24453
2026-01-20 21:20:10.66	190.85	8.07	-55.5	-59.9	3.7	0.00e+00	0	47	104	0	82	24034
2026-01-20 21:20:11.65	190.86	7.97	-55.5	-60.0	3.7	0.00e+00	0	47	104	0	82	24450
2026-01-20 21:20:12.65	190.88	7.88	-55.7	-60.2	3.7	0.00e+00	0	47	104	0	82	24933
2026-01-20 21:20:13.64	190.90	7.78	-55.8	-60.2	3.7	0.00e+00	0	47	104	0	82	25014
2026-01-20 21:20:14.63	190.92	7.69	-55.8	-60.3	3.7	0.00e+00	0	47	104	0	82	25106
2026-01-20 21:20:15.63	190.94	7.60	-55.4	-60.0	3.7	0.00e+00	0	47	104	0	81	25912
2026-01-20 21:20:16.62	190.96	7.50	-55.9	-60.3	3.7	0.00e+00	0	47	104	0	82	25363
2026-01-20 21:20:17.61	190.97	7.41	-55.7	-60.3	3.7	0.00e+00	0	47	104	0	82	25100
2026-01-20 21:20:18.60	190.99	7.32	-55.4	-60.1	3.7	0.00e+00	0	47	104	0	82	24696
2026-01-20 21:20:19.60	191.01	7.23	-55.8	-60.2	3.7	0.00e+00	0	47	104	0	82	25017
2026-01-20 21:20:20.59	191.03	7.14	-55.9	-60.3	3.7	0.00e+00	0	47	104	0	82	25270
2026-01-20 21:20:21.58	191.05	7.05	-55.7	-60.1	3.7	0.00e+00	0	47	104	0	82	24590
2026-01-20 21:20:22.58	191.06	6.96	-55.0	-59.7	3.7	0.00e+00	0	47	104	0	82	23432
2026-01-20 21:20:23.57	191.08	6.87	-55.6	-59.9	3.7	0.00e+00	0	47	104	0	82	24166
2026-01-20 21:20:24.56	191.10	6.78	-55.6	-60.0	3.7	0.00e+00	0	47	104	0	82	24515
2026-01-20 21:20:25.56	191.12	6.69	-55.4	-60.0	3.7	0.00e+00	0	47	104	0	82	24378
2026-01-20 21:20:26.55	191.13	6.60	-55.4	-60.0	3.7	0.00e+00	0	47	104	0	81	25930
2026-01-20 21:20:27.54	191.15	6.51	-55.0	-59.5	3.7	0.00e+00	0	47	104	0	81	24496
2026-01-20 21:20:28.54	191.17	6.43	-55.0	-59.5	3.7	0.00e+00	0	47	104	0	81	24515
2026-01-20 21:20:29.53	191.18	6.34	-55.0	-59.5	3.7	0.00e+00	0	47	104	0	81	24453
2026-01-20 21:20:30.52	191.20	6.25	-55.0	-59.5	3.7	0.00e+00	0	47	104	0	81	24409
2026-01-20 21:20:31.52	191.22	6.17	-55.0	-59.5	3.7	0.00e+00	0	47	104	0	81	24461
2026-01-20 21:20:32.51	191.23	6.08	-55.0	-59.5	3.7	0.00e+00	0	47	104	0	81	24415
2026-01-20 21:20:33.50	191.25	6.00	-55.0	-59.5	3.7	0.00e+00	0	47	104	0	81	24388
2026-01-20 21:20:34.49	191.26	5.91	-55.0	-59.5	3.7	0.00e+00	0	47	104	0	81	24428
2026-01-20 21:20:35.49	191.28	5.83	-55.0	-59.5	3.7	0.00e+00	0	47	104	0	81	24391
2026-01-20 21:20:36.48	191.30	5.74	-55.0	-59.5	3.7	0.00e+00	0	47	104	0	81	24469
2026-01-20 21:20:37.47	191.31	5.66	-55.0	-59.5	3.7	0.00e+00	0	47	104	0	81	24402
2026-01-20 21:20:38.47	191.33	5.57	-55.0	-59.5	3.7	0.00e+00	0	47	104	0	81	24424
2026-01-20 21:20:39.46	191.34	5.49	-55.0	-59.5	3.7	0.00e+00	0	47	104	0	81	24402
2026-01-20 21:20:40.45	191.36	5.41	-55.0	-59.5	3.7	0.00e+00	0	47	104	0	81	24330
2026-01-20 21:20:41.45	191.38	5.33	-55.0	-59.5	3.7	0.00e+00	0	47	104	0	81	24355
2026-01-20 21:20:42.44	191.39	5.24	-55.0	-59.5	3.7	0.00e+00	0	47	104	0	81	24385
2026-01-20 21:20:43.43	191.41	5.16	-55.0	-59.5	3.7	0.00e+00	0	47	104	0	81	24389
2026-01-20 21:20:44.42	191.42	5.08	-55.0	-59.5	3.7	0.00e+00	0	47	104	0	81	24360
2026-01-20 21:20:45.42	191.44	5.00	-55.0	-59.5	3.7	0.00e+00	0	47	104	0	81	24360
2026-01-20 21:20:46.41	191.45	4.92	-55.0	-59.5	3.7	0.00e+00	0	47	104	0	81	24312

#Closed at: 2026-01-20 21:20:47
#Recorded file [0 MB]: D:/Data/31040_260121_001139.dat