passes_logs/2026/01/20/T1/T1__20260120_234317_NOAA_20_JPSS-1_rec.log

#Pass ID: 20260120_234317_NOAA 20 (JPSS-1)
#Satellite: NOAA 20 (JPSS-1)
#Configuration: NOAA 20
#almurnet v.1.7.20251203
#Start time: 2026-01-20 23:43:17

#Version: 2.0.20230620
#Station: T1
#Location: 37.570604 lon 55.790049 lat
#TLE: 1 43013U 17073A   26020.26397077  .00000127  00000+0  80954-4 0  9999
#TLE: 2 43013  98.7643 321.1479 0001288  31.3158 328.8095 14.19537595423482

#Time	Az	El	Level	Level2	SNR	BER	BlckErr	Temp	State	Recorded	gain1	gain2
2026-01-20 23:43:17.32	16.16	4.97	-50.9	-67.2	3.8	1.49e+00	0	43	0	0	73	23330
2026-01-20 23:43:18.31	16.16	5.04	-50.9	-67.2	3.8	1.49e+00	0	43	104	0	72	24783
2026-01-20 23:43:19.30	16.16	5.11	-50.8	-67.2	3.8	1.49e+00	0	43	104	0	72	24909
2026-01-20 23:43:20.30	16.16	5.18	-50.9	-67.2	3.8	1.49e+00	0	43	104	0	72	24783
2026-01-20 23:43:21.29	16.17	5.25	-50.9	-67.2	3.8	1.49e+00	0	43	104	0	72	24914
2026-01-20 23:43:22.28	16.17	5.32	-50.8	-67.2	3.8	1.49e+00	0	43	104	0	72	24847
2026-01-20 23:43:23.28	16.17	5.40	-50.9	-67.2	3.8	1.49e+00	0	43	104	0	72	24810
2026-01-20 23:43:24.27	16.17	5.47	-50.8	-67.1	3.8	1.49e+00	0	43	104	0	72	24636
2026-01-20 23:43:25.26	16.18	5.54	-50.8	-67.2	3.8	1.49e+00	0	43	104	0	72	24787
2026-01-20 23:43:26.26	16.18	5.61	-50.8	-67.2	3.8	1.49e+00	0	43	104	0	72	24785
2026-01-20 23:43:27.25	16.18	5.68	-50.8	-67.2	3.8	1.49e+00	0	43	104	0	72	24698
2026-01-20 23:43:28.24	16.18	5.76	-50.8	-67.2	3.8	1.49e+00	0	44	104	0	72	24717
2026-01-20 23:43:29.24	16.18	5.83	-50.8	-67.2	3.8	1.49e+00	0	44	104	0	72	24732
2026-01-20 23:43:30.23	16.19	5.90	-50.8	-67.2	3.8	1.49e+00	0	44	104	0	72	24711
2026-01-20 23:43:31.22	16.19	5.98	-50.8	-67.1	3.8	1.49e+00	0	43	104	0	72	24671
2026-01-20 23:43:32.21	16.19	6.05	-50.8	-67.2	3.8	1.49e+00	0	43	104	0	72	24727
2026-01-20 23:43:33.21	16.19	6.12	-50.8	-67.2	3.8	1.49e+00	0	43	104	0	72	24711
2026-01-20 23:43:34.20	16.19	6.20	-50.8	-67.2	3.8	1.49e+00	0	44	104	0	72	24739
2026-01-20 23:43:35.19	16.20	6.27	-50.8	-67.2	3.8	1.49e+00	0	44	104	0	72	24726
2026-01-20 23:43:36.18	16.20	6.34	-50.8	-67.2	3.8	1.49e+00	0	44	104	0	72	24699
2026-01-20 23:43:37.18	16.20	6.42	-50.8	-67.1	3.8	1.49e+00	0	44	104	0	72	24632
2026-01-20 23:43:38.17	16.20	6.49	-50.8	-67.1	3.8	1.49e+00	0	44	104	0	72	24477
2026-01-20 23:43:39.17	16.21	6.57	-50.8	-67.0	3.8	1.49e+00	0	44	104	0	72	24273
2026-01-20 23:43:40.16	16.21	6.64	-50.8	-67.0	3.8	1.49e+00	0	43	104	0	72	24353
2026-01-20 23:43:41.15	16.21	6.72	-50.8	-67.0	3.8	1.49e+00	0	44	104	0	72	24202
2026-01-20 23:43:42.15	16.21	6.79	-50.8	-66.9	3.8	1.49e+00	0	44	104	0	72	23870
2026-01-20 23:43:43.14	16.21	6.87	-50.8	-66.8	3.8	1.49e+00	0	44	104	0	72	23772
2026-01-20 23:43:44.13	16.22	6.95	-50.8	-66.7	3.8	1.49e+00	0	44	104	0	72	23415
2026-01-20 23:43:45.12	16.22	7.02	-50.8	-66.6	3.8	1.49e+00	0	44	104	0	72	23175
2026-01-20 23:43:46.12	16.22	7.10	-50.8	-66.5	3.8	1.49e+00	0	44	104	0	72	22801
2026-01-20 23:43:47.11	16.22	7.17	-50.8	-66.4	3.8	1.49e+00	0	44	104	0	72	22593
2026-01-20 23:43:48.10	16.22	7.25	-50.8	-66.2	3.8	1.49e+00	0	44	104	0	72	22187
2026-01-20 23:43:49.10	16.23	7.33	-50.8	-66.0	3.8	1.49e+00	0	44	104	0	72	21752
2026-01-20 23:43:50.09	16.23	7.41	-50.8	-65.8	3.8	1.49e+00	0	44	104	0	72	21200
2026-01-20 23:43:51.08	16.23	7.48	-50.8	-65.6	3.8	1.49e+00	0	44	104	0	72	20733
2026-01-20 23:43:52.08	16.23	7.56	-50.8	-65.4	3.8	1.49e+00	0	44	104	0	72	20109
2026-01-20 23:43:53.07	16.23	7.64	-50.7	-65.0	3.8	1.49e+00	0	44	104	0	72	19321
2026-01-20 23:43:54.06	16.24	7.72	-50.7	-64.7	3.8	1.48e+00	0	44	104	0	72	18626
2026-01-20 23:43:55.05	16.24	7.80	-50.7	-64.1	4.1	1.47e+00	0	44	104	0	72	17374
2026-01-20 23:43:56.05	16.24	7.88	-50.7	-63.5	4.2	1.41e+00	0	44	0	0	72	16295
2026-01-20 23:43:57.04	16.24	7.95	-50.6	-63.0	4.4	1.35e+00	0	44	0	0	72	15233
2026-01-20 23:43:58.03	16.24	8.03	-50.6	-62.2	4.7	9.32e-01	0	44	0	2097152	72	13936
2026-01-20 23:43:59.03	16.24	8.11	-50.5	-61.5	5.1	7.56e-01	0	44	0	4194304	72	12828
2026-01-20 23:44:00.02	16.25	8.19	-50.4	-60.7	5.5	5.54e-01	0	44	0	5242880	72	11803
2026-01-20 23:44:01.01	16.25	8.27	-50.3	-60.0	6.1	4.04e-01	0	44	0	7340032	72	10805
2026-01-20 23:44:02.00	16.25	8.35	-50.2	-59.2	6.7	2.31e-01	0	44	0	9437184	72	9917
2026-01-20 23:44:03.00	16.25	8.43	-50.0	-58.5	7.3	1.52e-01	0	44	0	11534336	72	9148
2026-01-20 23:44:03.99	16.25	8.51	-50.0	-58.0	7.9	9.05e-02	0	44	0	13631488	71	9072
2026-01-20 23:44:04.98	16.26	8.60	-49.8	-57.4	8.5	5.02e-02	0	44	0	14680064	71	8509
2026-01-20 23:44:05.98	16.26	8.68	-49.7	-56.8	9.1	2.84e-02	0	44	0	16777216	71	7905
2026-01-20 23:44:06.97	16.26	8.76	-49.6	-56.6	9.3	1.97e-02	0	44	0	18874368	71	7782
2026-01-20 23:44:07.96	16.26	8.84	-49.5	-56.2	9.7	1.53e-02	0	44	0	20971520	71	7431
2026-01-20 23:44:08.96	16.26	8.92	-49.5	-56.2	9.7	1.05e-02	0	44	0	22020096	71	7419
2026-01-20 23:44:09.95	16.26	9.00	-49.5	-56.1	9.8	1.05e-02	0	44	0	24117248	71	7355
2026-01-20 23:44:10.94	16.27	9.09	-50.4	-59.4	6.6	3.85e-02	0	44	0	26214400	71	10689
2026-01-20 23:44:11.94	16.27	9.17	-50.1	-58.2	7.8	1.46e-01	0	44	0	28311552	71	9301
2026-01-20 23:44:12.93	16.27	9.25	-50.3	-59.4	6.7	3.14e-02	0	44	0	30408704	71	10656
2026-01-20 23:44:13.93	16.27	9.34	-50.9	-62.8	4.5	4.13e-01	0	44	0	31457280	72	15045
2026-01-20 23:44:14.92	16.27	9.42	-48.0	-52.6	13.4	3.57e-01	0	44	0	33554432	68	5800
2026-01-20 23:44:15.92	16.27	9.51	-47.7	-52.2	13.7	4.50e-06	0	44	0	35651584	67	5857
2026-01-20 23:44:16.91	16.28	9.59	-47.4	-51.5	14.4	1.50e-06	0	44	0	37748736	66	5787
2026-01-20 23:44:17.91	16.28	9.68	-47.2	-51.3	14.6	7.00e-07	0	44	0	38797312	66	5632
2026-01-20 23:44:18.90	16.28	9.76	-47.1	-51.1	14.8	7.00e-07	0	44	0	40894464	66	5518
2026-01-20 23:44:19.90	16.28	9.85	-47.0	-50.9	15.1	0.00e+00	0	44	0	42991616	66	5372
2026-01-20 23:44:20.89	16.28	9.93	-47.0	-50.9	15.0	0.00e+00	0	44	0	45088768	66	5365
2026-01-20 23:44:21.88	16.28	10.02	-47.0	-50.9	15.1	0.00e+00	0	44	0	47185920	66	5347
2026-01-20 23:44:22.88	16.28	10.10	-47.1	-51.0	14.9	0.00e+00	0	44	0	48234496	65	5775
2026-01-20 23:44:23.87	16.29	10.19	-47.1	-51.0	14.9	0.00e+00	0	44	0	50331648	65	5788
2026-01-20 23:44:24.87	16.29	10.28	-47.1	-51.1	14.9	0.00e+00	0	44	0	52428800	65	5807
2026-01-20 23:44:25.86	16.29	10.36	-47.0	-50.9	15.0	0.00e+00	0	44	0	54525952	65	5717
2026-01-20 23:44:26.86	16.29	10.45	-46.9	-50.7	15.2	7.00e-07	0	44	0	55574528	65	5587
2026-01-20 23:44:27.85	16.29	10.54	-46.9	-50.7	15.2	0.00e+00	0	44	0	57671680	65	5573
2026-01-20 23:44:28.85	16.29	10.63	-46.9	-50.6	15.4	0.00e+00	0	44	0	59768832	65	5488
2026-01-20 23:44:29.84	16.29	10.72	-46.9	-50.6	15.4	0.00e+00	0	44	0	61865984	65	5477
2026-01-20 23:44:30.84	16.30	10.80	-47.0	-50.6	15.3	0.00e+00	0	44	0	63963136	65	5517
2026-01-20 23:44:31.83	16.30	10.89	-46.9	-50.6	15.4	0.00e+00	0	44	0	65011712	65	5491
2026-01-20 23:44:32.83	16.30	10.98	-46.8	-50.4	15.6	0.00e+00	0	44	0	67108864	65	5394
2026-01-20 23:44:33.82	16.30	11.07	-46.8	-50.5	15.5	0.00e+00	0	44	0	69206016	65	5417
2026-01-20 23:44:34.82	16.30	11.16	-46.8	-50.5	15.4	0.00e+00	0	44	0	71303168	65	5453
2026-01-20 23:44:35.81	16.30	11.25	-46.8	-50.5	15.5	0.00e+00	0	44	0	72351744	65	5444
2026-01-20 23:44:36.81	16.30	11.34	-46.8	-50.4	15.5	0.00e+00	0	44	0	74448896	65	5399
2026-01-20 23:44:37.80	16.31	11.43	-46.7	-50.4	15.6	0.00e+00	0	44	0	76546048	65	5342
2026-01-20 23:44:38.80	16.31	11.53	-46.6	-50.2	15.8	0.00e+00	0	44	0	78643200	65	5262
2026-01-20 23:44:39.79	16.31	11.62	-46.6	-50.2	15.8	0.00e+00	0	44	0	80740352	65	5246
2026-01-20 23:44:40.78	16.31	11.71	-46.6	-50.1	15.8	0.00e+00	0	44	0	81788928	65	5213
2026-01-20 23:44:41.78	16.31	11.80	-46.6	-50.2	15.8	0.00e+00	0	44	0	83886080	65	5247
2026-01-20 23:44:42.77	16.31	11.90	-46.7	-50.2	15.8	0.00e+00	0	44	0	85983232	65	5254
2026-01-20 23:44:43.77	16.31	11.99	-46.5	-50.0	16.0	0.00e+00	0	44	0	88080384	65	5121
2026-01-20 23:44:44.76	16.31	12.08	-46.6	-50.0	16.0	0.00e+00	0	44	0	89128960	65	5129
2026-01-20 23:44:45.75	16.31	12.18	-46.6	-50.1	15.9	0.00e+00	0	44	0	91226112	65	5175
2026-01-20 23:44:46.75	16.32	12.27	-46.6	-50.0	16.0	0.00e+00	0	44	0	93323264	65	5156
2026-01-20 23:44:47.74	16.32	12.36	-46.5	-49.9	16.1	0.00e+00	0	44	0	95420416	64	5366
2026-01-20 23:44:48.74	16.32	12.46	-46.5	-50.0	16.0	0.00e+00	0	44	0	97517568	64	5429
2026-01-20 23:44:49.73	16.32	12.55	-46.4	-49.9	16.2	0.00e+00	0	44	0	98566144	64	5349
2026-01-20 23:44:50.72	16.32	12.65	-46.4	-49.8	16.2	0.00e+00	0	44	0	100663296	64	5338
2026-01-20 23:44:51.72	16.32	12.75	-46.5	-49.9	16.2	0.00e+00	0	44	0	102760448	64	5351
2026-01-20 23:44:52.71	16.32	12.84	-46.4	-49.8	16.2	0.00e+00	0	44	0	104857600	64	5312
2026-01-20 23:44:53.71	16.32	12.94	-46.5	-49.9	16.1	0.00e+00	0	44	0	105906176	64	5369
2026-01-20 23:44:54.70	16.32	13.04	-46.4	-49.7	16.3	0.00e+00	0	44	0	108003328	64	5268
2026-01-20 23:44:55.70	16.32	13.13	-46.4	-49.8	16.3	0.00e+00	0	44	0	110100480	64	5285
2026-01-20 23:44:56.69	16.32	13.23	-46.4	-49.6	16.4	0.00e+00	0	44	0	112197632	64	5196
2026-01-20 23:44:57.69	16.33	13.33	-46.4	-49.6	16.4	0.00e+00	0	44	0	114294784	64	5205
2026-01-20 23:44:58.68	16.33	13.43	-46.4	-49.6	16.5	0.00e+00	0	44	0	115343360	64	5166
2026-01-20 23:44:59.68	16.33	13.53	-46.4	-49.5	16.5	0.00e+00	0	44	0	117440512	64	5158
2026-01-20 23:45:00.67	16.33	13.63	-46.3	-49.4	16.6	0.00e+00	0	44	0	119537664	64	5091
2026-01-20 23:45:01.67	16.33	13.73	-46.4	-49.5	16.6	0.00e+00	0	44	0	121634816	64	5135
2026-01-20 23:45:02.66	16.33	13.83	-46.5	-49.6	16.5	0.00e+00	0	44	0	122683392	64	5166
2026-01-20 23:45:03.66	16.33	13.93	-46.3	-49.4	16.7	0.00e+00	0	44	0	124780544	64	5053
2026-01-20 23:45:04.65	16.33	14.03	-46.4	-49.4	16.7	0.00e+00	0	44	0	126877696	64	5075
2026-01-20 23:45:05.65	16.33	14.13	-46.4	-49.5	16.6	0.00e+00	0	44	0	128974848	64	5120
2026-01-20 23:45:06.65	16.33	14.24	-46.5	-49.5	16.5	0.00e+00	0	44	0	131072000	64	5149
2026-01-20 23:45:07.64	16.33	14.34	-46.3	-49.3	16.8	0.00e+00	0	44	0	132120576	64	4998
2026-01-20 23:45:08.64	16.33	14.44	-46.2	-49.1	17.0	0.00e+00	0	44	0	134217728	64	4891
2026-01-20 23:45:09.63	16.33	14.54	-46.2	-49.1	16.9	0.00e+00	0	44	0	136314880	64	4911
2026-01-20 23:45:10.63	16.33	14.65	-46.2	-49.0	17.0	0.00e+00	0	44	0	138412032	64	4845
2026-01-20 23:45:11.62	16.34	14.75	-46.1	-49.0	17.1	0.00e+00	0	44	0	139460608	64	4824
2026-01-20 23:45:12.61	16.34	14.86	-46.2	-49.0	17.0	0.00e+00	0	44	0	141557760	64	4853
2026-01-20 23:45:13.61	16.34	14.96	-46.2	-49.0	17.1	0.00e+00	0	44	0	143654912	64	4827
2026-01-20 23:45:14.60	16.34	15.07	-46.3	-49.0	17.1	0.00e+00	0	44	0	145752064	64	4855
2026-01-20 23:45:15.59	16.34	15.17	-46.3	-49.0	17.1	0.00e+00	0	44	0	147849216	64	4853
2026-01-20 23:45:16.59	16.34	15.28	-46.2	-48.9	17.1	0.00e+00	0	44	0	148897792	64	4813
2026-01-20 23:45:17.58	16.34	15.39	-46.3	-49.0	17.1	0.00e+00	0	44	0	150994944	64	4844
2026-01-20 23:45:18.58	16.34	15.50	-46.1	-48.9	17.2	0.00e+00	0	44	0	153092096	64	4761
2026-01-20 23:45:19.57	16.34	15.60	-46.0	-48.7	17.4	0.00e+00	0	44	0	155189248	64	4657
2026-01-20 23:45:20.57	16.34	15.71	-46.1	-48.7	17.4	0.00e+00	0	44	0	156237824	63	4955
2026-01-20 23:45:21.56	16.34	15.82	-46.1	-48.8	17.4	0.00e+00	0	44	0	158334976	63	5004
2026-01-20 23:45:22.56	16.34	15.93	-46.0	-48.7	17.5	0.00e+00	0	44	0	160432128	63	4936
2026-01-20 23:45:23.55	16.34	16.04	-46.0	-48.6	17.5	0.00e+00	0	44	0	162529280	63	4911
2026-01-20 23:45:24.54	16.34	16.15	-46.1	-48.7	17.4	0.00e+00	0	44	0	164626432	63	4964
2026-01-20 23:45:25.54	16.34	16.26	-46.1	-48.8	17.4	0.00e+00	0	44	0	165675008	63	4993
2026-01-20 23:45:26.53	16.34	16.37	-46.0	-48.6	17.5	0.00e+00	0	44	0	167772160	63	4926
2026-01-20 23:45:27.53	16.34	16.49	-46.0	-48.6	17.6	0.00e+00	0	44	0	169869312	63	4888
2026-01-20 23:45:28.52	16.34	16.60	-46.0	-48.6	17.6	0.00e+00	0	44	0	171966464	63	4884
2026-01-20 23:45:29.52	16.34	16.71	-46.0	-48.6	17.6	0.00e+00	0	44	0	173015040	63	4897
2026-01-20 23:45:30.51	16.34	16.83	-45.9	-48.5	17.7	0.00e+00	0	44	0	175112192	63	4833
2026-01-20 23:45:31.51	16.34	16.94	-45.9	-48.4	17.7	0.00e+00	0	44	0	177209344	63	4804
2026-01-20 23:45:32.50	16.34	17.05	-45.9	-48.4	17.7	0.00e+00	0	44	0	179306496	63	4814
2026-01-20 23:45:33.50	16.34	17.17	-45.8	-48.4	17.8	0.00e+00	0	44	0	181403648	63	4767
2026-01-20 23:45:34.50	16.34	17.29	-45.9	-48.5	17.7	0.00e+00	0	44	0	182452224	63	4826
2026-01-20 23:45:35.49	16.34	17.40	-45.8	-48.4	17.7	0.00e+00	0	44	0	184549376	63	4784
2026-01-20 23:45:36.49	16.34	17.52	-45.8	-48.4	17.8	0.00e+00	0	44	0	186646528	63	4773
2026-01-20 23:45:37.48	16.34	17.64	-45.9	-48.4	17.7	0.00e+00	0	44	0	188743680	63	4804
2026-01-20 23:45:38.48	16.34	17.76	-45.8	-48.4	17.8	0.00e+00	0	44	0	190840832	63	4767
2026-01-20 23:45:39.47	16.34	17.87	-45.7	-48.3	17.9	0.00e+00	0	44	0	191889408	63	4706
2026-01-20 23:45:40.47	16.34	17.99	-45.8	-48.4	17.8	0.00e+00	0	44	0	193986560	63	4769
2026-01-20 23:45:41.46	16.34	18.11	-45.8	-48.3	17.8	0.00e+00	0	44	0	196083712	63	4729
2026-01-20 23:45:42.45	16.34	18.23	-45.7	-48.3	17.9	0.00e+00	0	44	0	198180864	63	4713
2026-01-20 23:45:43.45	16.34	18.35	-45.7	-48.2	18.0	0.00e+00	0	44	0	199229440	63	4676
2026-01-20 23:45:44.44	16.34	18.48	-45.7	-48.2	17.9	0.00e+00	0	44	0	201326592	63	4688
2026-01-20 23:45:45.44	16.34	18.60	-45.7	-48.3	17.9	0.00e+00	0	44	0	203423744	63	4707
2026-01-20 23:45:46.43	16.34	18.72	-45.6	-48.1	18.0	0.00e+00	0	44	0	205520896	63	4632
2026-01-20 23:45:47.43	16.33	18.84	-45.7	-48.2	17.9	0.00e+00	0	44	0	207618048	63	4688
2026-01-20 23:45:48.42	16.33	18.97	-45.6	-48.1	18.0	0.00e+00	0	44	0	208666624	63	4633
2026-01-20 23:45:49.42	16.33	19.09	-45.5	-48.1	18.1	0.00e+00	0	44	0	210763776	63	4601
2026-01-20 23:45:50.41	16.33	19.22	-45.5	-48.0	18.1	0.00e+00	0	44	0	212860928	62	4847
2026-01-20 23:45:51.41	16.33	19.34	-45.5	-48.1	18.0	0.00e+00	0	44	0	214958080	62	4887
2026-01-20 23:45:52.40	16.33	19.47	-45.4	-47.9	18.3	0.00e+00	0	44	0	216006656	62	4774
2026-01-20 23:45:53.40	16.33	19.60	-45.4	-47.9	18.2	0.00e+00	0	44	0	218103808	62	4794
2026-01-20 23:45:54.39	16.33	19.73	-45.4	-48.0	18.2	0.00e+00	0	44	0	220200960	62	4821
2026-01-20 23:45:55.39	16.33	19.85	-45.4	-48.0	18.2	0.00e+00	0	44	0	222298112	62	4816
2026-01-20 23:45:56.38	16.33	19.98	-45.3	-47.9	18.3	0.00e+00	0	44	0	224395264	62	4770
2026-01-20 23:45:57.37	16.33	20.11	-45.3	-47.9	18.3	0.00e+00	0	44	0	225443840	62	4765
2026-01-20 23:45:58.37	16.33	20.24	-45.4	-47.9	18.2	0.00e+00	0	44	0	227540992	62	4808
2026-01-20 23:45:59.36	16.33	20.37	-45.4	-48.0	18.2	0.00e+00	0	44	0	229638144	62	4830
2026-01-20 23:46:00.34	16.32	20.50	-45.3	-47.8	18.3	0.00e+00	0	44	0	231735296	62	4724
2026-01-20 23:46:01.32	16.32	20.63	-45.4	-47.9	18.3	0.00e+00	0	44	0	232783872	62	4775
2026-01-20 23:46:02.32	16.32	20.77	-45.5	-48.0	18.1	0.00e+00	0	44	0	234881024	62	4864
2026-01-20 23:46:03.31	16.32	20.90	-45.5	-48.0	18.2	0.00e+00	0	44	0	236978176	62	4859
2026-01-20 23:46:04.31	16.32	21.04	-45.5	-48.0	18.2	0.00e+00	0	44	0	239075328	62	4828
2026-01-20 23:46:05.30	16.32	21.17	-45.5	-48.0	18.2	0.00e+00	0	44	0	240123904	62	4856
2026-01-20 23:46:06.29	16.32	21.31	-45.4	-47.9	18.3	0.00e+00	0	44	0	242221056	62	4766
2026-01-20 23:46:07.29	16.32	21.45	-45.4	-47.8	18.3	0.00e+00	0	44	0	244318208	62	4745
2026-01-20 23:46:08.29	16.31	21.58	-45.3	-47.8	18.4	0.00e+00	0	44	0	246415360	62	4732
2026-01-20 23:46:09.28	16.31	21.72	-45.4	-47.8	18.4	0.00e+00	0	44	0	248512512	62	4748
2026-01-20 23:46:10.27	16.31	21.86	-45.4	-47.9	18.2	0.00e+00	0	44	0	249561088	62	4797
2026-01-20 23:46:11.27	16.31	22.00	-45.4	-47.9	18.3	0.00e+00	0	44	0	251658240	62	4761
2026-01-20 23:46:12.26	16.31	22.14	-45.3	-47.7	18.5	0.00e+00	0	44	0	253755392	62	4687
2026-01-20 23:46:13.26	16.31	22.28	-45.4	-47.9	18.3	0.00e+00	0	44	0	255852544	62	4767
2026-01-20 23:46:14.25	16.30	22.43	-45.3	-47.7	18.5	0.00e+00	0	44	0	256901120	62	4691
2026-01-20 23:46:15.25	16.30	22.57	-45.4	-47.8	18.4	0.00e+00	0	44	0	258998272	62	4754
2026-01-20 23:46:16.25	16.30	22.71	-45.3	-47.8	18.4	0.00e+00	0	44	0	261095424	62	4708
2026-01-20 23:46:17.24	16.30	22.86	-45.3	-47.7	18.5	0.00e+00	0	44	0	263192576	62	4696
2026-01-20 23:46:18.24	16.30	23.00	-45.3	-47.8	18.4	0.00e+00	0	44	0	265289728	62	4711
2026-01-20 23:46:19.23	16.29	23.15	-45.3	-47.8	18.4	0.00e+00	0	44	0	266338304	62	4709
2026-01-20 23:46:20.23	16.29	23.30	-45.2	-47.7	18.5	0.00e+00	0	44	0	268435456	62	4686
2026-01-20 23:46:21.22	16.29	23.45	-45.3	-47.8	18.4	0.00e+00	0	44	0	270532608	62	4722
2026-01-20 23:46:22.22	16.29	23.59	-45.3	-47.8	18.4	0.00e+00	0	44	0	272629760	62	4731
2026-01-20 23:46:23.21	16.29	23.74	-45.3	-47.8	18.4	0.00e+00	0	44	0	273678336	62	4735
2026-01-20 23:46:24.21	16.28	23.90	-45.3	-47.9	18.3	0.00e+00	0	44	0	275775488	62	4761
2026-01-20 23:46:25.20	16.28	24.05	-45.3	-47.9	18.3	0.00e+00	0	44	0	277872640	62	4780
2026-01-20 23:46:26.20	16.28	24.20	-45.4	-47.9	18.3	0.00e+00	0	44	0	279969792	62	4775
2026-01-20 23:46:27.19	16.28	24.35	-45.4	-47.9	18.3	0.00e+00	0	44	0	282066944	62	4800
2026-01-20 23:46:28.19	16.27	24.51	-45.4	-47.9	18.3	0.00e+00	0	44	0	283115520	62	4788
2026-01-20 23:46:29.18	16.27	24.66	-45.5	-48.1	18.2	0.00e+00	0	44	0	285212672	62	4878
2026-01-20 23:46:30.18	16.27	24.82	-45.5	-48.1	18.1	0.00e+00	0	44	0	287309824	62	4876
2026-01-20 23:46:31.17	16.27	24.98	-45.6	-48.1	18.1	0.00e+00	0	44	0	289406976	62	4925
2026-01-20 23:46:32.17	16.26	25.13	-45.7	-48.2	18.0	0.00e+00	0	44	0	290455552	62	4977
2026-01-20 23:46:33.16	16.26	25.29	-45.7	-48.2	18.1	0.00e+00	0	44	0	292552704	62	4955
2026-01-20 23:46:34.16	16.26	25.45	-45.8	-48.3	17.9	0.00e+00	0	44	0	294649856	62	5033
2026-01-20 23:46:35.15	16.25	25.61	-45.8	-48.4	17.9	0.00e+00	0	44	0	296747008	62	5061
2026-01-20 23:46:36.15	16.25	25.78	-45.9	-48.5	17.8	0.00e+00	0	44	0	298844160	62	5134
2026-01-20 23:46:37.14	16.25	25.94	-45.9	-48.5	17.7	0.00e+00	0	44	0	299892736	62	5145
2026-01-20 23:46:38.14	16.24	26.10	-46.1	-48.7	17.6	0.00e+00	0	44	0	301989888	62	5248
2026-01-20 23:46:39.13	16.24	26.27	-46.1	-48.7	17.5	0.00e+00	0	44	0	304087040	62	5278
2026-01-20 23:46:40.13	16.24	26.43	-46.3	-49.0	17.3	0.00e+00	0	44	0	306184192	63	5109
2026-01-20 23:46:41.12	16.23	26.60	-46.2	-48.9	17.4	0.00e+00	0	44	0	307232768	63	5052
2026-01-20 23:46:42.12	16.23	26.77	-46.3	-49.0	17.3	0.00e+00	0	44	0	309329920	63	5120
2026-01-20 23:46:43.12	16.23	26.94	-46.5	-49.3	17.0	0.00e+00	0	44	0	311427072	63	5320
2026-01-20 23:46:44.11	16.22	27.11	-46.6	-49.4	16.9	0.00e+00	0	44	0	313524224	63	5370
2026-01-20 23:46:45.11	16.22	27.28	-46.6	-49.4	16.9	0.00e+00	0	44	0	315621376	63	5376
2026-01-20 23:46:46.10	16.22	27.45	-46.7	-49.6	16.7	0.00e+00	0	44	0	316669952	64	5175
2026-01-20 23:46:47.10	16.21	27.63	-46.8	-49.7	16.6	0.00e+00	0	44	0	318767104	64	5250
2026-01-20 23:46:48.09	16.21	27.80	-46.8	-49.8	16.5	0.00e+00	0	44	0	320864256	64	5306
2026-01-20 23:46:49.09	16.20	27.98	-46.9	-49.8	16.4	0.00e+00	0	44	0	322961408	64	5327
2026-01-20 23:46:50.08	16.20	28.15	-47.0	-50.1	16.2	0.00e+00	0	44	0	325058560	64	5474
2026-01-20 23:46:51.07	16.20	28.33	-47.2	-50.3	16.0	0.00e+00	0	44	0	326107136	65	5301
2026-01-20 23:46:52.07	16.19	28.51	-47.3	-50.5	15.8	0.00e+00	0	44	0	328204288	65	5414
2026-01-20 23:46:53.06	16.19	28.69	-47.4	-50.5	15.8	0.00e+00	0	44	0	330301440	65	5450
2026-01-20 23:46:54.06	16.18	28.87	-47.5	-50.8	15.5	0.00e+00	0	44	0	332398592	65	5632
2026-01-20 23:46:55.05	16.18	29.05	-47.6	-50.8	15.5	0.00e+00	0	44	0	333447168	65	5652
2026-01-20 23:46:56.05	16.17	29.24	-47.6	-51.0	15.4	0.00e+00	0	44	0	335544320	65	5740
2026-01-20 23:46:57.04	16.17	29.42	-47.7	-51.0	15.3	0.00e+00	0	44	0	337641472	66	5440
2026-01-20 23:46:58.04	16.16	29.61	-47.8	-51.2	15.1	0.00e+00	0	44	0	339738624	66	5588
2026-01-20 23:46:59.03	16.16	29.79	-47.8	-51.3	15.0	0.00e+00	0	44	0	341835776	66	5647
2026-01-20 23:47:00.03	16.15	29.98	-47.9	-51.4	15.0	0.00e+00	0	44	0	342884352	66	5688
2026-01-20 23:47:01.02	16.15	30.17	-47.9	-51.5	14.9	0.00e+00	0	44	0	344981504	66	5728
2026-01-20 23:47:02.02	16.14	30.36	-48.0	-51.6	14.7	0.00e+00	0	44	0	347078656	66	5811
2026-01-20 23:47:03.01	16.14	30.56	-48.0	-51.5	14.8	0.00e+00	0	44	0	349175808	66	5778
2026-01-20 23:47:04.00	16.13	30.75	-48.0	-51.6	14.8	7.00e-07	0	44	0	350224384	66	5821
2026-01-20 23:47:05.00	16.12	30.94	-48.1	-51.6	14.7	0.00e+00	0	44	0	352321536	66	5831
2026-01-20 23:47:06.00	16.12	31.14	-48.1	-51.6	14.8	0.00e+00	0	44	0	354418688	66	5840
2026-01-20 23:47:06.99	16.11	31.34	-48.0	-51.5	14.9	0.00e+00	0	44	0	356515840	66	5734
2026-01-20 23:47:07.99	16.11	31.54	-47.9	-51.3	15.0	0.00e+00	0	44	0	358612992	66	5654
2026-01-20 23:47:08.98	16.10	31.74	-48.0	-51.4	14.9	7.00e-07	0	44	0	359661568	66	5701
2026-01-20 23:47:09.97	16.09	31.94	-48.0	-51.3	15.0	0.00e+00	0	44	0	361758720	66	5652
2026-01-20 23:47:10.97	16.09	32.14	-48.0	-51.4	14.9	0.00e+00	0	44	0	363855872	66	5713
2026-01-20 23:47:11.96	16.08	32.35	-48.1	-51.5	14.8	0.00e+00	0	44	0	365953024	66	5786
2026-01-20 23:47:12.96	16.07	32.55	-48.0	-51.4	15.0	7.00e-07	0	44	0	367001600	66	5685
2026-01-20 23:47:13.96	16.07	32.76	-48.0	-51.4	15.0	0.00e+00	0	44	0	369098752	66	5671
2026-01-20 23:47:14.95	16.06	32.97	-47.8	-51.1	15.3	0.00e+00	0	44	0	371195904	66	5499
2026-01-20 23:47:15.94	16.05	33.18	-47.5	-50.7	15.7	0.00e+00	0	44	0	373293056	66	5230
2026-01-20 23:47:16.94	16.05	33.39	-47.4	-50.5	15.9	0.00e+00	0	44	0	375390208	66	5122
2026-01-20 23:47:17.93	16.04	33.60	-47.2	-50.2	16.1	0.00e+00	0	44	0	376438784	66	4965
2026-01-20 23:47:18.93	16.03	33.82	-46.9	-49.8	16.5	0.00e+00	0	44	0	378535936	65	4998
2026-01-20 23:47:19.92	16.02	34.04	-46.6	-49.4	16.9	0.00e+00	0	44	0	380633088	65	4774
2026-01-20 23:47:20.91	16.02	34.25	-46.3	-49.0	17.2	0.00e+00	0	44	0	382730240	64	4868
2026-01-20 23:47:21.91	16.01	34.47	-46.1	-48.7	17.6	0.00e+00	0	44	0	383778816	64	4678
2026-01-20 23:47:22.90	16.00	34.69	-45.9	-48.4	17.9	0.00e+00	0	44	0	385875968	63	4789
2026-01-20 23:47:23.89	15.99	34.91	-45.7	-48.2	18.2	0.00e+00	0	44	0	387973120	63	4658
2026-01-20 23:47:24.89	15.98	35.14	-45.6	-48.1	18.2	0.00e+00	0	44	0	390070272	63	4619
2026-01-20 23:47:25.88	15.97	35.36	-45.5	-47.9	18.4	0.00e+00	0	44	0	392167424	63	4524
2026-01-20 23:47:26.88	15.97	35.59	-45.2	-47.6	18.7	0.00e+00	0	44	0	393216000	62	4618
2026-01-20 23:47:27.87	15.96	35.82	-45.1	-47.5	18.8	0.00e+00	0	44	0	395313152	62	4562
2026-01-20 23:47:28.86	15.95	36.05	-45.2	-47.5	18.8	0.00e+00	0	44	0	397410304	62	4570
2026-01-20 23:47:29.86	15.94	36.28	-45.2	-47.5	18.7	0.00e+00	0	44	0	399507456	62	4594
2026-01-20 23:47:30.86	15.93	36.52	-45.2	-47.5	18.8	0.00e+00	0	44	0	400556032	62	4571
2026-01-20 23:47:31.85	15.92	36.75	-45.2	-47.6	18.8	0.00e+00	0	44	0	402653184	62	4600
2026-01-20 23:47:32.84	15.91	36.99	-45.1	-47.4	18.9	0.00e+00	0	44	0	404750336	62	4511
2026-01-20 23:47:33.84	15.90	37.23	-44.9	-47.2	19.1	0.00e+00	0	44	0	406847488	61	4685
2026-01-20 23:47:34.83	15.89	37.47	-44.8	-47.2	19.1	0.00e+00	0	44	0	408944640	61	4652
2026-01-20 23:47:35.83	15.88	37.71	-44.7	-47.0	19.3	0.00e+00	0	44	0	409993216	61	4553
2026-01-20 23:47:36.82	15.87	37.96	-44.6	-46.9	19.3	0.00e+00	0	44	0	412090368	61	4530
2026-01-20 23:47:37.82	15.86	38.20	-44.8	-47.1	19.2	0.00e+00	0	44	0	414187520	61	4623
2026-01-20 23:47:38.81	15.84	38.45	-44.6	-46.9	19.3	0.00e+00	0	44	0	416284672	61	4545
2026-01-20 23:47:39.81	15.83	38.70	-44.6	-46.9	19.3	0.00e+00	0	44	0	417333248	61	4527
2026-01-20 23:47:40.80	15.82	38.95	-44.5	-46.8	19.4	0.00e+00	0	44	0	419430400	61	4488
2026-01-20 23:47:41.80	15.81	39.21	-44.4	-46.7	19.5	0.00e+00	0	44	0	421527552	60	4680
2026-01-20 23:47:42.79	15.80	39.46	-44.5	-46.8	19.5	0.00e+00	0	44	0	423624704	60	4711
2026-01-20 23:47:43.79	15.79	39.72	-44.5	-46.7	19.5	0.00e+00	0	44	0	425721856	60	4692
2026-01-20 23:47:44.78	15.77	39.98	-44.5	-46.8	19.5	0.00e+00	0	44	0	426770432	60	4714
2026-01-20 23:47:45.78	15.76	40.24	-44.5	-46.8	19.5	0.00e+00	0	44	0	428867584	60	4714
2026-01-20 23:47:46.77	15.75	40.50	-44.5	-46.7	19.6	0.00e+00	0	44	0	430964736	60	4668
2026-01-20 23:47:47.77	15.73	40.77	-44.5	-46.7	19.6	0.00e+00	0	44	0	433061888	60	4664
2026-01-20 23:47:48.76	15.72	41.03	-44.4	-46.6	19.6	0.00e+00	0	44	0	434110464	60	4620
2026-01-20 23:47:49.76	15.70	41.30	-44.5	-46.7	19.5	0.00e+00	0	44	0	436207616	60	4700
2026-01-20 23:47:50.75	15.69	41.57	-44.6	-46.8	19.4	0.00e+00	0	44	0	438304768	60	4742
2026-01-20 23:47:51.75	15.68	41.85	-44.6	-46.9	19.4	0.00e+00	0	44	0	440401920	60	4769
2026-01-20 23:47:52.74	15.66	42.12	-44.7	-46.9	19.3	0.00e+00	0	44	0	442499072	60	4806
2026-01-20 23:47:53.74	15.65	42.40	-44.7	-46.9	19.3	0.00e+00	0	44	0	443547648	60	4796
2026-01-20 23:47:54.73	15.63	42.68	-44.6	-46.8	19.4	0.00e+00	0	44	0	445644800	60	4751
2026-01-20 23:47:55.73	15.61	42.96	-44.6	-46.9	19.4	0.00e+00	0	44	0	447741952	60	4786
2026-01-20 23:47:56.72	15.60	43.24	-44.6	-46.8	19.5	0.00e+00	0	44	0	449839104	60	4758
2026-01-20 23:47:57.72	15.58	43.53	-44.7	-47.0	19.3	0.00e+00	0	44	0	450887680	60	4841
2026-01-20 23:47:58.71	15.56	43.82	-45.0	-47.3	19.0	0.00e+00	0	44	0	452984832	60	5007
2026-01-20 23:47:59.71	15.55	44.11	-45.4	-47.8	18.6	0.00e+00	0	44	0	455081984	61	4987
2026-01-20 23:48:00.70	15.53	44.40	-45.9	-48.4	18.0	0.00e+00	0	44	0	457179136	62	5070
2026-01-20 23:48:01.69	15.51	44.69	-46.4	-49.0	17.4	0.00e+00	0	44	0	459276288	63	5152
2026-01-20 23:48:02.69	15.49	44.99	-46.7	-49.4	16.9	0.00e+00	0	44	0	460324864	64	5074
2026-01-20 23:48:03.68	15.47	45.29	-46.9	-49.7	16.7	0.00e+00	0	44	0	462422016	64	5275
2026-01-20 23:48:04.68	15.45	45.59	-47.1	-50.0	16.3	0.00e+00	0	44	0	464519168	64	5459
2026-01-20 23:48:05.67	15.43	45.89	-47.2	-50.1	16.3	0.00e+00	0	44	0	466616320	65	5196
2026-01-20 23:48:06.65	15.41	46.19	-47.3	-50.3	16.1	0.00e+00	0	44	0	467664896	65	5284
2026-01-20 23:48:07.65	15.39	46.50	-47.2	-50.1	16.3	0.00e+00	0	44	0	469762048	65	5211
2026-01-20 23:48:08.64	15.37	46.81	-47.1	-49.9	16.5	0.00e+00	0	44	0	471859200	65	5094
2026-01-20 23:48:09.63	15.35	47.12	-47.1	-50.0	16.4	0.00e+00	0	44	0	473956352	65	5119
2026-01-20 23:48:10.63	15.33	47.44	-47.3	-50.3	16.1	0.00e+00	0	44	0	476053504	65	5329
2026-01-20 23:48:11.63	15.30	47.76	-47.2	-50.1	16.3	0.00e+00	0	44	0	477102080	65	5208
2026-01-20 23:48:12.62	15.28	48.07	-47.2	-50.1	16.3	0.00e+00	0	44	0	479199232	65	5202
2026-01-20 23:48:13.62	15.26	48.40	-47.2	-50.3	16.2	0.00e+00	0	44	0	481296384	65	5285
2026-01-20 23:48:14.61	15.23	48.72	-47.3	-50.3	16.1	0.00e+00	0	44	0	483393536	65	5319
2026-01-20 23:48:15.60	15.21	49.04	-47.3	-50.5	16.0	0.00e+00	0	44	0	484442112	65	5404
2026-01-20 23:48:16.60	15.18	49.38	-47.3	-50.3	16.1	0.00e+00	0	44	0	486539264	65	5312
2026-01-20 23:48:17.60	15.15	49.71	-47.2	-50.2	16.2	0.00e+00	0	44	0	488636416	65	5244
2026-01-20 23:48:18.59	15.13	50.04	-47.1	-50.0	16.3	0.00e+00	0	44	0	490733568	65	5138
2026-01-20 23:48:19.58	15.10	50.38	-46.9	-49.8	16.6	0.00e+00	0	44	0	492830720	65	5006
2026-01-20 23:48:20.58	15.07	50.72	-46.6	-49.3	17.1	0.00e+00	0	44	0	493879296	65	4727
2026-01-20 23:48:21.57	15.04	51.06	-46.0	-48.6	17.8	0.00e+00	0	44	0	495976448	64	4638
2026-01-20 23:48:22.57	15.01	51.40	-45.7	-48.1	18.3	0.00e+00	0	44	0	498073600	63	4621
2026-01-20 23:48:23.57	14.98	51.75	-45.0	-47.3	19.0	0.00e+00	0	44	0	500170752	62	4469
2026-01-20 23:48:24.56	14.95	52.10	-44.7	-46.9	19.4	0.00e+00	0	44	0	502267904	61	4530
2026-01-20 23:48:25.56	14.92	52.45	-44.4	-46.5	19.7	0.00e+00	0	44	0	503316480	60	4583
2026-01-20 23:48:26.55	14.88	52.80	-44.3	-46.4	19.8	0.00e+00	0	44	0	505413632	60	4532
2026-01-20 23:48:27.55	14.85	53.16	-44.2	-46.4	19.9	0.00e+00	0	44	0	507510784	60	4499
2026-01-20 23:48:28.54	14.81	53.52	-44.1	-46.3	20.0	0.00e+00	0	44	0	509607936	60	4460
2026-01-20 23:48:29.54	14.78	53.88	-44.0	-46.1	20.1	0.00e+00	0	44	0	510656512	60	4387
2026-01-20 23:48:30.53	14.74	54.25	-43.7	-45.7	20.4	0.00e+00	0	44	0	512753664	59	4434
2026-01-20 23:48:31.52	14.70	54.61	-43.7	-45.7	20.4	0.00e+00	0	44	0	514850816	59	4427
2026-01-20 23:48:32.52	14.66	54.98	-43.9	-46.0	20.1	0.00e+00	0	44	0	516947968	59	4595
2026-01-20 23:48:33.51	14.62	55.35	-44.2	-46.4	19.8	0.00e+00	0	44	0	519045120	59	4790
2026-01-20 23:48:34.51	14.58	55.73	-44.8	-47.1	19.2	0.00e+00	0	44	0	520093696	60	4919
2026-01-20 23:48:35.50	14.54	56.10	-45.3	-47.8	18.6	0.00e+00	0	44	0	522190848	61	5009
2026-01-20 23:48:36.50	14.49	56.49	-46.0	-48.7	17.7	0.00e+00	0	44	0	524288000	62	5235
2026-01-20 23:48:37.50	14.45	56.87	-46.8	-49.7	16.7	0.00e+00	0	44	0	526385152	64	5249
2026-01-20 23:48:38.49	14.40	57.25	-47.1	-50.1	16.3	0.00e+00	0	44	0	527433728	64	5501
2026-01-20 23:48:39.48	14.35	57.64	-47.2	-50.3	16.1	0.00e+00	0	44	0	529530880	65	5287
2026-01-20 23:48:40.48	14.30	58.03	-46.9	-49.7	16.6	0.00e+00	0	44	0	531628032	65	4972
2026-01-20 23:48:41.47	14.25	58.42	-46.7	-49.5	16.9	0.00e+00	0	44	0	533725184	65	4828
2026-01-20 23:48:42.47	14.20	58.82	-46.6	-49.4	17.0	0.00e+00	0	44	0	535822336	65	4780
2026-01-20 23:48:43.46	14.14	59.22	-46.6	-49.3	17.1	0.00e+00	0	44	0	536870912	65	4740
2026-01-20 23:48:44.46	14.09	59.62	-46.3	-48.9	17.5	0.00e+00	0	44	0	538968064	64	4770
2026-01-20 23:48:45.45	14.03	60.02	-46.0	-48.5	17.9	0.00e+00	0	44	0	541065216	63	4862
2026-01-20 23:48:46.44	13.97	60.43	-45.6	-48.0	18.4	0.00e+00	0	44	0	543162368	63	4578
2026-01-20 23:48:47.44	13.90	60.84	-45.3	-47.7	18.7	0.00e+00	0	44	0	544210944	62	4668
2026-01-20 23:48:48.43	13.84	61.24	-44.8	-47.1	19.2	0.00e+00	0	44	0	546308096	61	4619
2026-01-20 23:48:49.43	13.77	61.66	-44.4	-46.6	19.7	0.00e+00	0	44	0	548405248	60	4630
2026-01-20 23:48:50.42	13.70	62.07	-44.3	-46.4	19.8	0.00e+00	0	44	0	550502400	60	4520
2026-01-20 23:48:51.42	13.63	62.50	-43.8	-45.9	20.2	0.00e+00	0	44	0	552599552	59	4512
2026-01-20 23:48:52.41	13.56	62.91	-43.6	-45.6	20.4	0.00e+00	0	44	0	553648128	59	4387
2026-01-20 23:48:53.41	13.48	63.34	-43.7	-45.7	20.3	0.00e+00	0	44	0	555745280	59	4440
2026-01-20 23:48:54.40	13.40	63.76	-44.0	-46.1	20.0	0.00e+00	0	44	0	557842432	59	4605
2026-01-20 23:48:55.40	13.31	64.20	-44.5	-46.7	19.5	0.00e+00	0	44	0	559939584	59	4960
2026-01-20 23:48:56.39	13.23	64.62	-45.0	-47.3	19.0	0.00e+00	0	44	0	560988160	60	5001
2026-01-20 23:48:57.39	13.14	65.06	-45.5	-47.9	18.4	0.00e+00	0	44	0	563085312	61	5097
2026-01-20 23:48:58.38	13.04	65.49	-45.9	-48.4	18.1	0.00e+00	0	44	0	565182464	62	5042
2026-01-20 23:48:59.38	12.95	65.94	-46.0	-48.5	17.9	0.00e+00	0	44	0	567279616	62	5119
2026-01-20 23:49:00.37	12.84	66.37	-46.4	-49.1	17.3	0.00e+00	0	44	0	569376768	63	5174
2026-01-20 23:49:01.37	12.74	66.82	-46.6	-49.3	17.1	0.00e+00	0	44	0	570425344	63	5306
2026-01-20 23:49:02.36	12.63	67.26	-46.6	-49.3	17.1	0.00e+00	0	44	0	572522496	64	5012
2026-01-20 23:49:03.36	12.51	67.71	-46.6	-49.3	17.0	0.00e+00	0	44	0	574619648	64	5041
2026-01-20 23:49:04.35	12.39	68.16	-46.9	-49.7	16.7	0.00e+00	0	44	0	576716800	64	5263
2026-01-20 23:49:05.35	12.26	68.61	-47.4	-50.4	16.0	0.00e+00	0	44	0	577765376	65	5349
2026-01-20 23:49:06.34	12.13	69.07	-47.6	-50.8	15.6	0.00e+00	0	44	0	579862528	65	5602
2026-01-20 23:49:07.33	11.99	69.52	-48.0	-51.3	15.1	0.00e+00	0	44	0	581959680	66	5641
2026-01-20 23:49:08.33	11.84	69.98	-47.9	-51.1	15.3	0.00e+00	0	44	0	584056832	66	5511
2026-01-20 23:49:09.32	11.68	70.44	-47.6	-50.6	15.8	0.00e+00	0	44	0	586153984	66	5214
2026-01-20 23:49:10.32	11.52	70.91	-47.4	-50.3	16.0	0.00e+00	0	44	0	587202560	66	5036
2026-01-20 23:49:11.31	11.35	71.37	-47.1	-50.0	16.5	0.00e+00	0	44	0	589299712	66	4823
2026-01-20 23:49:12.30	11.17	71.83	-46.9	-49.7	16.7	0.00e+00	0	44	0	591396864	65	4963
2026-01-20 23:49:13.30	10.97	72.30	-47.0	-49.8	16.6	0.00e+00	0	44	0	593494016	65	5035
2026-01-20 23:49:14.29	10.77	72.77	-47.5	-50.6	15.9	0.00e+00	0	44	0	594542592	65	5479
2026-01-20 23:49:15.29	10.56	73.25	-47.9	-51.2	15.2	0.00e+00	0	44	0	596639744	66	5537
2026-01-20 23:49:16.28	10.33	73.72	-48.3	-51.7	14.7	0.00e+00	0	44	0	598736896	67	5589
2026-01-20 23:49:17.28	10.08	74.20	-48.7	-52.3	14.2	0.00e+00	0	44	0	600834048	67	5974
2026-01-20 23:49:18.27	9.82	74.67	-49.0	-52.7	13.9	7.00e-07	0	44	0	602931200	68	5921
2026-01-20 23:49:19.27	9.55	75.15	-48.8	-52.4	14.1	3.80e-06	0	44	0	603979776	68	5718
2026-01-20 23:49:20.26	9.25	75.63	-48.9	-52.7	13.9	2.20e-06	0	44	0	606076928	68	5907
2026-01-20 23:49:21.26	8.93	76.11	-49.1	-53.0	13.6	5.30e-06	0	44	0	608174080	69	5761
2026-01-20 23:49:22.25	8.59	76.59	-49.1	-52.9	13.7	6.80e-06	0	44	0	610271232	69	5675
2026-01-20 23:49:23.25	8.22	77.08	-49.0	-52.8	13.8	4.50e-06	0	44	0	611319808	69	5606
2026-01-20 23:49:24.24	7.82	77.56	-49.2	-53.4	13.2	9.10e-06	0	44	0	613416960	69	5999
2026-01-20 23:49:25.24	7.39	78.05	-49.3	-53.6	13.0	2.51e-05	0	44	0	615514112	69	6144
2026-01-20 23:49:26.23	6.92	78.53	-48.7	-52.5	14.0	2.20e-06	0	44	0	617611264	69	5440
2026-01-20 23:49:27.23	6.41	79.02	-47.8	-51.1	15.3	0.00e+00	0	44	0	619708416	67	5183
2026-01-20 23:49:28.22	5.85	79.51	-46.7	-49.4	17.0	0.00e+00	0	44	0	620756992	65	4788
2026-01-20 23:49:29.22	5.23	80.00	-46.3	-48.9	17.4	0.00e+00	0	44	0	622854144	64	4811
2026-01-20 23:49:30.22	4.54	80.49	-46.1	-48.6	17.7	0.00e+00	0	44	0	624951296	64	4626
2026-01-20 23:49:31.21	3.79	80.97	-46.3	-48.9	17.4	0.00e+00	0	44	0	627048448	64	4802
2026-01-20 23:49:32.21	2.93	81.46	-47.2	-50.1	16.2	0.00e+00	0	44	0	629145600	65	5170
2026-01-20 23:49:33.20	1.99	81.94	-48.3	-51.7	14.8	0.00e+00	0	44	0	630194176	67	5559
2026-01-20 23:49:34.20	0.91	82.43	-48.1	-51.4	14.9	0.00e+00	0	44	0	632291328	67	5388
2026-01-20 23:49:35.19	359.69	82.91	-46.8	-49.6	16.7	0.00e+00	0	44	0	634388480	65	4900
2026-01-20 23:49:36.19	358.28	83.39	-45.6	-48.0	18.3	0.00e+00	0	44	0	636485632	63	4594
2026-01-20 23:49:37.19	356.65	83.87	-44.4	-46.6	19.5	0.00e+00	0	44	0	637534208	60	4619
2026-01-20 23:49:38.18	354.77	84.33	-43.2	-45.3	20.6	0.00e+00	0	44	0	639631360	58	4453
2026-01-20 23:49:39.18	352.52	84.80	-42.8	-44.8	21.1	0.00e+00	0	44	0	641728512	57	4456
2026-01-20 23:49:40.17	349.85	85.25	-43.0	-44.9	20.9	0.00e+00	0	44	0	643825664	57	4543
2026-01-20 23:49:41.16	346.64	85.69	-43.7	-45.8	20.2	0.00e+00	0	44	0	645922816	57	4985
2026-01-20 23:49:42.16	342.66	86.12	-44.2	-46.4	19.6	0.00e+00	0	44	0	646971392	59	4786
2026-01-20 23:49:43.15	337.77	86.52	-44.5	-46.8	19.2	0.00e+00	0	44	0	649068544	59	5004
2026-01-20 23:49:44.14	331.67	86.89	-44.8	-47.1	19.0	0.00e+00	0	44	0	651165696	60	4902
2026-01-20 23:49:45.14	323.94	87.22	-45.3	-47.8	18.3	0.00e+00	0	44	0	653262848	61	5023
2026-01-20 23:49:46.13	314.48	87.48	-45.5	-48.0	18.1	0.00e+00	0	44	0	654311424	61	5115
2026-01-20 23:49:47.13	303.07	87.66	-45.1	-47.5	18.7	0.00e+00	0	44	0	656408576	61	4824
2026-01-20 23:49:48.12	290.47	87.74	-44.9	-47.2	18.9	0.00e+00	0	44	0	658505728	61	4682
2026-01-20 23:49:49.12	277.52	87.70	-44.5	-46.8	19.3	0.00e+00	0	44	0	660602880	60	4711
2026-01-20 23:49:50.11	265.70	87.55	-44.7	-47.1	19.0	0.00e+00	0	44	0	662700032	60	4885
2026-01-20 23:49:51.11	255.49	87.31	-45.1	-47.6	18.5	0.00e+00	0	44	0	663748608	60	5170
2026-01-20 23:49:52.10	247.25	87.01	-45.9	-48.6	17.5	0.00e+00	0	44	0	665845760	62	5162
2026-01-20 23:49:53.10	240.59	86.65	-46.1	-48.8	17.3	0.00e+00	0	44	0	667942912	63	5038
2026-01-20 23:49:54.09	235.33	86.26	-45.5	-48.1	18.0	0.00e+00	0	44	0	670040064	63	4621
2026-01-20 23:49:55.09	231.06	85.83	-44.7	-47.0	18.9	0.00e+00	0	44	0	671088640	61	4567
2026-01-20 23:49:56.08	227.62	85.40	-44.2	-46.5	19.5	0.00e+00	0	44	0	673185792	60	4558
2026-01-20 23:49:57.08	224.76	84.95	-44.5	-46.8	19.2	0.00e+00	0	44	0	675282944	60	4714
2026-01-20 23:49:58.07	222.40	84.49	-44.3	-46.6	19.3	0.00e+00	0	44	0	677380096	60	4631
2026-01-20 23:49:59.06	220.41	84.02	-44.5	-46.8	19.2	0.00e+00	0	44	0	679477248	60	4736
2026-01-20 23:50:00.06	218.69	83.54	-45.0	-47.4	18.6	0.00e+00	0	44	0	680525824	60	5089
2026-01-20 23:50:01.06	217.21	83.06	-45.4	-47.9	18.1	0.00e+00	0	44	0	682622976	61	5079
2026-01-20 23:50:02.05	215.94	82.59	-45.5	-48.1	18.0	0.00e+00	0	44	0	684720128	61	5161
2026-01-20 23:50:03.05	214.82	82.10	-46.1	-48.8	17.3	0.00e+00	0	44	0	686817280	62	5289
2026-01-20 23:50:04.04	213.83	81.62	-46.1	-48.8	17.4	0.00e+00	0	44	0	687865856	63	4991
2026-01-20 23:50:05.04	212.95	81.13	-45.3	-47.7	18.3	0.00e+00	0	44	0	689963008	62	4703
2026-01-20 23:50:06.03	212.17	80.64	-44.5	-46.8	19.2	0.00e+00	0	44	0	692060160	60	4709
2026-01-20 23:50:07.03	211.46	80.15	-44.0	-46.1	19.7	0.00e+00	0	44	0	694157312	59	4644
2026-01-20 23:50:08.02	210.82	79.67	-43.8	-45.9	19.9	0.00e+00	0	44	0	696254464	59	4515
2026-01-20 23:50:09.02	210.24	79.18	-44.2	-46.4	19.5	0.00e+00	0	44	0	697303040	59	4768
2026-01-20 23:50:10.01	209.71	78.69	-44.7	-47.0	18.9	0.00e+00	0	44	0	699400192	60	4868
2026-01-20 23:50:11.00	209.23	78.21	-45.7	-48.2	17.9	0.00e+00	0	44	0	701497344	61	5270
2026-01-20 23:50:12.00	208.78	77.72	-46.7	-49.6	16.4	0.00e+00	0	44	0	703594496	64	5183
2026-01-20 23:50:13.00	208.37	77.23	-46.7	-49.6	16.4	0.00e+00	0	44	0	704643072	64	5191
2026-01-20 23:50:13.99	207.99	76.75	-46.5	-49.4	16.6	0.00e+00	0	44	0	706740224	64	5070
2026-01-20 23:50:14.99	207.64	76.26	-46.6	-49.4	16.5	0.00e+00	0	44	0	708837376	64	5080
2026-01-20 23:50:15.98	207.32	75.78	-47.2	-50.3	15.7	0.00e+00	0	44	0	710934528	65	5307
2026-01-20 23:50:16.97	207.01	75.31	-47.4	-50.6	15.5	0.00e+00	0	44	0	713031680	65	5471
2026-01-20 23:50:17.97	206.73	74.82	-47.7	-51.0	15.0	0.00e+00	0	44	0	714080256	65	5769
2026-01-20 23:50:18.96	206.46	74.35	-47.4	-50.6	15.4	0.00e+00	0	44	0	716177408	65	5505
2026-01-20 23:50:19.96	206.21	73.87	-46.7	-49.6	16.3	0.00e+00	0	44	0	718274560	65	4910
2026-01-20 23:50:20.95	205.98	73.39	-46.6	-49.5	16.5	0.00e+00	0	44	0	720371712	64	5136
2026-01-20 23:50:21.94	205.76	72.92	-46.4	-49.3	16.5	0.00e+00	0	44	0	721420288	64	5036
2026-01-20 23:50:22.94	205.55	72.45	-46.4	-49.3	16.6	0.00e+00	0	44	0	723517440	64	5008
2026-01-20 23:50:23.93	205.36	71.98	-46.3	-49.1	16.8	0.00e+00	0	44	0	725614592	64	4902
2026-01-20 23:50:24.92	205.17	71.52	-46.4	-49.3	16.7	0.00e+00	0	44	0	727711744	64	4989
2026-01-20 23:50:25.92	205.00	71.05	-46.4	-49.2	16.7	0.00e+00	0	44	0	729808896	64	4966
2026-01-20 23:50:26.91	204.83	70.58	-46.4	-49.2	16.7	0.00e+00	0	44	0	730857472	64	4965
2026-01-20 23:50:27.91	204.67	70.12	-46.5	-49.3	16.5	0.00e+00	0	44	0	732954624	64	5023
2026-01-20 23:50:28.90	204.52	69.66	-46.7	-49.6	16.4	0.00e+00	0	44	0	735051776	64	5164
2026-01-20 23:50:29.90	204.38	69.20	-46.5	-49.3	16.6	0.00e+00	0	44	0	737148928	64	5036
2026-01-20 23:50:30.89	204.25	68.75	-47.0	-50.0	15.9	0.00e+00	0	44	0	738197504	64	5434
2026-01-20 23:50:31.89	204.11	68.29	-47.2	-50.4	15.4	0.00e+00	0	44	0	740294656	65	5347
2026-01-20 23:50:32.88	203.99	67.84	-47.8	-51.4	14.6	7.00e-07	0	44	0	742391808	66	5659
2026-01-20 23:50:33.88	203.87	67.39	-48.3	-52.2	13.7	1.50e-06	0	44	0	744488960	67	5864
2026-01-20 23:50:34.87	203.76	66.94	-47.9	-51.5	14.4	0.00e+00	0	44	0	746586112	67	5459
2026-01-20 23:50:35.86	203.65	66.50	-47.1	-50.2	15.6	0.00e+00	0	44	0	747634688	66	4950
2026-01-20 23:50:36.86	203.55	66.06	-46.7	-49.7	16.1	0.00e+00	0	44	0	749731840	65	4964
2026-01-20 23:50:37.85	203.45	65.62	-46.1	-48.9	16.8	0.00e+00	0	44	0	751828992	64	4787
2026-01-20 23:50:38.85	203.35	65.18	-45.1	-47.6	18.1	0.00e+00	0	44	0	753926144	62	4605
2026-01-20 23:50:39.84	203.26	64.74	-44.3	-46.7	19.0	0.00e+00	0	44	0	754974720	60	4653
2026-01-20 23:50:40.84	203.17	64.31	-43.6	-45.8	19.7	0.00e+00	0	44	0	757071872	59	4445
2026-01-20 23:50:41.83	203.09	63.88	-43.4	-45.6	19.8	0.00e+00	0	44	0	759169024	58	4615
2026-01-20 23:50:42.82	203.01	63.45	-43.2	-45.3	20.1	0.00e+00	0	44	0	761266176	58	4470
2026-01-20 23:50:43.82	202.93	63.03	-43.4	-45.6	19.4	0.00e+00	0	44	0	763363328	58	4621
2026-01-20 23:50:44.82	202.85	62.60	-43.1	-45.3	20.1	0.00e+00	0	44	0	764411904	58	4446
2026-01-20 23:50:45.81	202.78	62.18	-43.2	-45.3	20.1	0.00e+00	0	44	0	766509056	58	4447
2026-01-20 23:50:46.81	202.71	61.76	-43.4	-45.5	19.9	0.00e+00	0	44	0	768606208	58	4584
2026-01-20 23:50:47.80	202.64	61.35	-43.7	-45.9	19.5	0.00e+00	0	44	0	770703360	58	4804
2026-01-20 23:50:48.80	202.57	60.93	-44.6	-47.0	18.4	0.00e+00	0	44	0	771751936	59	5146
2026-01-20 23:50:49.79	202.51	60.53	-45.7	-48.4	17.1	0.00e+00	0	44	0	773849088	62	5100
2026-01-20 23:50:50.79	202.45	60.12	-45.9	-48.7	16.8	0.00e+00	0	44	0	775946240	62	5262
2026-01-20 23:50:51.78	202.39	59.71	-45.8	-48.5	17.1	0.00e+00	0	44	0	778043392	62	5138
2026-01-20 23:50:52.78	202.33	59.31	-45.6	-48.3	17.3	0.00e+00	0	44	0	780140544	62	5002
2026-01-20 23:50:53.77	202.28	58.91	-45.6	-48.2	17.2	0.00e+00	0	44	0	781189120	62	4977
2026-01-20 23:50:54.77	202.22	58.51	-45.8	-48.5	17.0	0.00e+00	0	44	0	783286272	62	5122
2026-01-20 23:50:55.76	202.17	58.12	-46.2	-49.0	16.5	0.00e+00	0	44	0	785383424	62	5454
2026-01-20 23:50:56.75	202.12	57.73	-46.8	-50.0	15.5	0.00e+00	0	44	0	787480576	64	5451
2026-01-20 23:50:57.75	202.07	57.33	-47.0	-50.4	15.0	0.00e+00	0	44	0	788529152	65	5377
2026-01-20 23:50:58.74	202.02	56.95	-46.6	-49.7	15.7	0.00e+00	0	44	0	790626304	65	4964
2026-01-20 23:50:59.74	201.98	56.56	-45.7	-48.5	16.9	0.00e+00	0	44	0	792723456	63	4821
2026-01-20 23:51:00.73	201.93	56.18	-45.2	-47.7	17.6	0.00e+00	0	44	0	794820608	62	4699
2026-01-20 23:51:01.72	201.89	55.80	-45.0	-47.5	17.8	0.00e+00	0	44	0	796917760	61	4868
2026-01-20 23:51:02.72	201.85	55.43	-44.6	-47.0	18.2	0.00e+00	0	44	0	797966336	61	4592
2026-01-20 23:51:03.71	201.80	55.05	-44.2	-46.5	18.7	0.00e+00	0	44	0	800063488	60	4588
2026-01-20 23:51:04.71	201.76	54.68	-43.8	-46.0	19.1	0.00e+00	0	44	0	802160640	59	4569
2026-01-20 23:51:05.70	201.73	54.31	-43.5	-45.7	19.5	0.00e+00	0	44	0	804257792	58	4660
2026-01-20 23:51:06.70	201.69	53.95	-43.5	-45.7	19.4	0.00e+00	0	44	0	805306368	58	4694
2026-01-20 23:51:07.69	201.65	53.58	-43.3	-45.5	19.5	0.00e+00	0	44	0	807403520	58	4572
2026-01-20 23:51:08.69	201.62	53.22	-43.4	-45.6	19.4	0.00e+00	0	44	0	809500672	58	4611
2026-01-20 23:51:09.68	201.58	52.86	-43.3	-45.4	19.6	0.00e+00	0	44	0	811597824	58	4537
2026-01-20 23:51:10.68	201.55	52.51	-43.8	-46.1	19.0	0.00e+00	0	44	0	813694976	58	4881
2026-01-20 23:51:11.67	201.51	52.15	-44.5	-46.9	18.2	0.00e+00	0	44	0	814743552	59	5076
2026-01-20 23:51:12.66	201.48	51.80	-45.7	-48.5	16.7	0.00e+00	0	44	0	816840704	61	5431
2026-01-20 23:51:13.66	201.45	51.45	-46.1	-49.0	16.2	0.00e+00	0	44	0	818937856	62	5455
2026-01-20 23:51:14.65	201.42	51.11	-46.0	-48.9	16.3	0.00e+00	0	44	0	821035008	62	5374
2026-01-20 23:51:15.65	201.39	50.76	-45.9	-48.7	16.5	0.00e+00	0	44	0	822083584	62	5271
2026-01-20 23:51:16.65	201.36	50.42	-45.9	-48.8	16.3	0.00e+00	0	44	0	824180736	62	5328
2026-01-20 23:51:17.64	201.33	50.08	-45.9	-48.9	16.3	0.00e+00	0	44	0	826277888	62	5349
2026-01-20 23:51:18.64	201.30	49.75	-46.0	-49.0	16.1	0.00e+00	0	44	0	828375040	62	5447
2026-01-20 23:51:19.63	201.28	49.42	-46.0	-49.1	16.1	0.00e+00	0	44	0	830472192	62	5496
2026-01-20 23:51:20.63	201.25	49.08	-46.4	-49.7	15.5	0.00e+00	0	44	0	831520768	63	5541
2026-01-20 23:51:21.62	201.23	48.76	-46.9	-50.5	14.6	1.50e-06	0	44	0	833617920	64	5738
2026-01-20 23:51:22.62	201.20	48.43	-47.3	-51.3	13.8	4.50e-06	0	44	0	835715072	65	5936
2026-01-20 23:51:23.61	201.18	48.11	-47.0	-50.8	14.2	4.50e-06	0	44	0	837812224	65	5597
2026-01-20 23:51:24.60	201.15	47.79	-46.5	-49.9	15.1	0.00e+00	0	44	0	838860800	65	5047
2026-01-20 23:51:25.60	201.13	47.46	-45.8	-48.7	16.4	0.00e+00	0	44	0	840957952	63	4932
2026-01-20 23:51:26.59	201.11	47.15	-45.1	-47.8	17.3	0.00e+00	0	44	0	843055104	62	4715
2026-01-20 23:51:27.59	201.08	46.83	-45.1	-47.7	17.3	0.00e+00	0	44	0	845152256	62	4692
2026-01-20 23:51:28.58	201.06	46.52	-45.3	-48.1	17.0	0.00e+00	0	44	0	847249408	62	4888
2026-01-20 23:51:29.58	201.04	46.21	-45.6	-48.5	16.5	0.00e+00	0	44	0	848297984	62	5139
2026-01-20 23:51:30.58	201.02	45.90	-45.9	-49.0	16.0	0.00e+00	0	44	0	850395136	62	5447
2026-01-20 23:51:31.57	201.00	45.60	-46.6	-49.9	15.1	0.00e+00	0	44	0	852492288	63	5716
2026-01-20 23:51:32.56	200.98	45.30	-46.6	-50.0	15.0	0.00e+00	0	44	0	854589440	63	5779
2026-01-20 23:51:33.56	200.96	45.00	-46.6	-50.0	15.0	0.00e+00	0	44	0	856686592	64	5441
2026-01-20 23:51:34.56	200.94	44.70	-46.2	-49.4	15.5	0.00e+00	0	44	0	857735168	64	5084
2026-01-20 23:51:35.55	200.92	44.40	-45.7	-48.7	16.3	0.00e+00	0	44	0	859832320	63	4947
2026-01-20 23:51:36.55	200.90	44.11	-45.0	-47.7	17.3	0.00e+00	0	44	0	861929472	62	4656
2026-01-20 23:51:37.54	200.89	43.82	-44.6	-47.2	17.7	0.00e+00	0	44	0	864026624	61	4681
2026-01-20 23:51:38.53	200.87	43.53	-44.5	-47.0	17.9	0.00e+00	0	44	0	865075200	60	4833
2026-01-20 23:51:39.53	200.85	43.24	-44.3	-46.8	18.1	0.00e+00	0	44	0	867172352	60	4744
2026-01-20 23:51:40.52	200.83	42.96	-44.6	-47.1	17.8	0.00e+00	0	44	0	869269504	60	4926
2026-01-20 23:51:41.52	200.82	42.67	-45.3	-48.1	16.9	0.00e+00	0	44	0	871366656	61	5161
2026-01-20 23:51:42.51	200.80	42.39	-46.1	-49.2	15.7	0.00e+00	0	44	0	873463808	62	5581
2026-01-20 23:51:43.51	200.79	42.11	-46.6	-50.1	14.9	0.00e+00	0	44	0	874512384	64	5483
2026-01-20 23:51:44.51	200.77	41.83	-46.9	-50.5	14.4	1.50e-06	0	44	0	876609536	64	5775
2026-01-20 23:51:45.50	200.75	41.56	-47.1	-51.0	14.0	3.00e-06	0	44	0	878706688	64	6062
2026-01-20 23:51:46.50	200.74	41.29	-46.9	-50.6	14.3	1.50e-06	0	44	0	880803840	64	5807
2026-01-20 23:51:47.49	200.73	41.02	-46.8	-50.3	14.6	0.00e+00	0	44	0	881852416	64	5651
2026-01-20 23:51:48.49	200.71	40.75	-46.7	-50.1	14.8	1.50e-06	0	44	0	883949568	64	5503
2026-01-20 23:51:49.48	200.70	40.48	-46.4	-49.6	15.3	0.00e+00	0	44	0	886046720	64	5195
2026-01-20 23:51:50.48	200.68	40.22	-45.9	-48.9	16.1	0.00e+00	0	44	0	888143872	63	5064
2026-01-20 23:51:51.47	200.67	39.95	-45.7	-48.6	16.3	0.00e+00	0	44	0	890241024	63	4908
2026-01-20 23:51:52.47	200.66	39.69	-45.7	-48.6	16.3	0.00e+00	0	44	0	891289600	63	4901
2026-01-20 23:51:53.46	200.64	39.44	-45.8	-48.8	16.2	0.00e+00	0	44	0	893386752	63	5020
2026-01-20 23:51:54.46	200.63	39.18	-46.0	-49.0	16.0	0.00e+00	0	44	0	895483904	63	5118
2026-01-20 23:51:55.45	200.62	38.92	-46.3	-49.4	15.5	0.00e+00	0	44	0	897581056	63	5398
2026-01-20 23:51:56.45	200.61	38.67	-46.4	-49.6	15.4	0.00e+00	0	44	0	898629632	63	5519
2026-01-20 23:51:57.44	200.59	38.42	-46.7	-50.1	14.9	0.00e+00	0	44	0	900726784	63	5821
2026-01-20 23:51:58.44	200.58	38.17	-46.7	-50.2	14.7	0.00e+00	0	44	0	902823936	64	5568
2026-01-20 23:51:59.43	200.57	37.92	-46.9	-50.5	14.4	0.00e+00	0	44	0	904921088	64	5746
2026-01-20 23:52:00.42	200.56	37.68	-46.7	-50.3	14.7	2.20e-06	0	44	0	907018240	64	5617
2026-01-20 23:52:01.42	200.55	37.43	-46.7	-50.2	14.7	0.00e+00	0	44	0	908066816	64	5544
2026-01-20 23:52:02.41	200.54	37.19	-46.6	-50.1	14.8	0.00e+00	0	44	0	910163968	64	5476
2026-01-20 23:52:03.41	200.53	36.95	-46.4	-49.7	15.2	0.00e+00	0	44	0	912261120	64	5226
2026-01-20 23:52:04.40	200.52	36.71	-46.1	-49.3	15.6	0.00e+00	0	44	0	914358272	64	5019
2026-01-20 23:52:05.40	200.51	36.47	-46.0	-49.1	15.7	0.00e+00	0	44	0	915406848	64	4922
2026-01-20 23:52:06.39	200.50	36.24	-45.8	-48.7	16.2	0.00e+00	0	44	0	917504000	63	4979
2026-01-20 23:52:07.39	200.49	36.01	-45.5	-48.3	16.6	0.00e+00	0	44	0	919601152	63	4753
2026-01-20 23:52:08.38	200.48	35.77	-45.6	-48.4	16.5	0.00e+00	0	44	0	921698304	62	5099
2026-01-20 23:52:09.38	200.47	35.54	-45.6	-48.5	16.4	0.00e+00	0	44	0	923795456	62	5150
2026-01-20 23:52:10.37	200.46	35.32	-45.6	-48.6	16.3	0.00e+00	0	44	0	924844032	62	5171
2026-01-20 23:52:11.37	200.45	35.09	-45.9	-48.9	16.0	0.00e+00	0	44	0	926941184	62	5378
2026-01-20 23:52:12.36	200.44	34.86	-46.1	-49.2	15.7	0.00e+00	0	44	0	929038336	62	5589
2026-01-20 23:52:13.36	200.43	34.64	-46.4	-49.7	15.3	0.00e+00	0	44	0	931135488	63	5559
2026-01-20 23:52:14.35	200.42	34.42	-46.6	-50.1	14.7	0.00e+00	0	44	0	932184064	64	5498
2026-01-20 23:52:15.35	200.41	34.20	-46.8	-50.3	14.5	0.00e+00	0	44	0	934281216	64	5647
2026-01-20 23:52:16.34	200.41	33.98	-46.9	-50.5	14.3	3.00e-06	0	44	0	936378368	64	5751
2026-01-20 23:52:17.34	200.40	33.76	-47.2	-51.0	13.6	4.50e-06	0	44	0	938475520	65	5746
2026-01-20 23:52:18.33	200.39	33.54	-47.3	-51.2	13.6	6.80e-06	0	44	0	940572672	65	5884
2026-01-20 23:52:19.33	200.38	33.33	-47.3	-51.2	13.6	8.30e-06	0	44	0	941621248	65	5893
2026-01-20 23:52:20.32	200.37	33.12	-47.1	-51.0	13.7	3.80e-06	0	44	0	943718400	65	5759
2026-01-20 23:52:21.32	200.37	32.90	-47.1	-50.9	13.9	4.50e-06	0	44	0	945815552	65	5702
2026-01-20 23:52:22.31	200.36	32.70	-47.0	-50.7	14.1	4.50e-06	0	44	0	947912704	65	5585
2026-01-20 23:52:23.31	200.35	32.49	-46.7	-50.3	14.5	1.50e-06	0	44	0	948961280	65	5328
2026-01-20 23:52:24.30	200.34	32.28	-46.7	-50.3	14.5	0.00e+00	0	44	0	951058432	65	5328
2026-01-20 23:52:25.30	200.34	32.07	-46.4	-49.8	15.0	0.00e+00	0	44	0	953155584	64	5298
2026-01-20 23:52:26.29	200.33	31.87	-46.1	-49.3	15.5	0.00e+00	0	44	0	955252736	64	5027
2026-01-20 23:52:27.29	200.32	31.67	-46.1	-49.2	15.6	0.00e+00	0	44	0	957349888	64	4967
2026-01-20 23:52:28.28	200.32	31.47	-46.0	-49.1	15.6	0.00e+00	0	44	0	958398464	64	4915
2026-01-20 23:52:29.28	200.31	31.27	-46.1	-49.2	15.7	0.00e+00	0	44	0	960495616	63	5262
2026-01-20 23:52:30.27	200.30	31.07	-45.9	-49.0	15.9	0.00e+00	0	44	0	962592768	63	5130
2026-01-20 23:52:31.27	200.30	30.87	-46.0	-49.1	15.8	0.00e+00	0	44	0	964689920	63	5164
2026-01-20 23:52:32.26	200.29	30.67	-45.9	-49.0	15.9	0.00e+00	0	44	0	965738496	63	5118
2026-01-20 23:52:33.26	200.29	30.48	-46.0	-49.2	15.7	0.00e+00	0	44	0	967835648	63	5246
2026-01-20 23:52:34.25	200.28	30.29	-46.1	-49.3	15.5	0.00e+00	0	44	0	969932800	63	5328
2026-01-20 23:52:35.25	200.27	30.09	-46.1	-49.4	15.5	0.00e+00	0	44	0	972029952	63	5344
2026-01-20 23:52:36.24	200.27	29.90	-46.2	-49.5	15.3	0.00e+00	0	44	0	974127104	63	5426
2026-01-20 23:52:37.24	200.26	29.71	-46.2	-49.5	15.4	0.00e+00	0	44	0	975175680	63	5412
2026-01-20 23:52:38.23	200.26	29.52	-46.3	-49.6	15.2	0.00e+00	0	44	0	977272832	63	5515
2026-01-20 23:52:39.23	200.25	29.34	-46.1	-49.4	15.4	0.00e+00	0	44	0	979369984	63	5375
2026-01-20 23:52:40.22	200.25	29.15	-46.2	-49.5	15.4	0.00e+00	0	44	0	981467136	63	5432
2026-01-20 23:52:41.21	200.24	28.97	-46.1	-49.4	15.4	0.00e+00	0	44	0	982515712	63	5375
2026-01-20 23:52:42.21	200.23	28.78	-46.1	-49.4	15.5	0.00e+00	0	44	0	984612864	63	5345
2026-01-20 23:52:43.20	200.23	28.60	-46.0	-49.2	15.6	0.00e+00	0	44	0	986710016	63	5254
2026-01-20 23:52:44.20	200.22	28.42	-46.0	-49.2	15.6	0.00e+00	0	44	0	988807168	63	5266
2026-01-20 23:52:45.19	200.22	28.24	-46.0	-49.2	15.6	0.00e+00	0	44	0	990904320	63	5235
2026-01-20 23:52:46.19	200.21	28.06	-45.8	-48.9	15.9	0.00e+00	0	44	0	991952896	63	5097
2026-01-20 23:52:47.18	200.21	27.88	-45.7	-48.8	16.0	0.00e+00	0	44	0	994050048	63	4987
2026-01-20 23:52:48.18	200.21	27.71	-45.6	-48.7	16.1	0.00e+00	0	44	0	996147200	63	4938
2026-01-20 23:52:49.17	200.20	27.53	-45.5	-48.5	16.3	0.00e+00	0	44	0	998244352	63	4839
2026-01-20 23:52:50.17	200.20	27.36	-45.4	-48.4	16.4	0.00e+00	0	44	0	999292928	62	5063
2026-01-20 23:52:51.16	200.19	27.19	-45.0	-47.8	16.9	0.00e+00	0	44	0	1001390080	62	4746
2026-01-20 23:52:52.16	200.19	27.01	-44.9	-47.7	17.0	0.00e+00	0	44	0	1003487232	61	4963
2026-01-20 23:52:53.15	200.18	26.84	-45.0	-47.8	16.9	0.00e+00	0	44	0	1005584384	61	5005
2026-01-20 23:52:54.15	200.18	26.67	-44.8	-47.5	17.2	0.00e+00	0	44	0	1007681536	61	4865
2026-01-20 23:52:55.14	200.17	26.50	-44.5	-47.2	17.5	0.00e+00	0	44	0	1008730112	61	4663
2026-01-20 23:52:56.14	200.17	26.34	-44.4	-47.0	17.6	0.00e+00	0	44	0	1010827264	60	4861
2026-01-20 23:52:57.13	200.17	26.17	-44.4	-47.0	17.7	0.00e+00	0	44	0	1012924416	60	4830
2026-01-20 23:52:58.13	200.16	26.00	-44.4	-47.0	17.7	0.00e+00	0	44	0	1015021568	60	4857
2026-01-20 23:52:59.12	200.16	25.84	-44.3	-46.9	17.8	0.00e+00	0	44	0	1016070144	60	4769
2026-01-20 23:53:00.11	200.15	25.68	-44.3	-46.9	17.8	0.00e+00	0	44	0	1018167296	60	4809
2026-01-20 23:53:01.11	200.15	25.51	-44.3	-46.8	17.8	0.00e+00	0	44	0	1020264448	60	4759
2026-01-20 23:53:02.10	200.15	25.35	-44.2	-46.7	17.9	0.00e+00	0	44	0	1022361600	60	4688
2026-01-20 23:53:03.10	200.14	25.19	-44.2	-46.7	17.9	0.00e+00	0	44	0	1024458752	60	4668
2026-01-20 23:53:04.09	200.14	25.03	-44.1	-46.7	18.0	0.00e+00	0	44	0	1025507328	60	4656
2026-01-20 23:53:05.09	200.14	24.87	-44.3	-46.9	17.7	0.00e+00	0	44	0	1027604480	60	4796
2026-01-20 23:53:06.08	200.13	24.71	-44.3	-46.8	17.8	0.00e+00	0	44	0	1029701632	60	4749
2026-01-20 23:53:07.07	200.13	24.56	-44.3	-46.8	17.8	0.00e+00	0	44	0	1031798784	60	4748
2026-01-20 23:53:08.06	200.13	24.40	-44.3	-46.8	17.8	0.00e+00	0	44	0	1032847360	60	4743
2026-01-20 23:53:09.06	200.12	24.25	-44.3	-46.8	17.8	0.00e+00	0	44	0	1034944512	60	4758
2026-01-20 23:53:10.05	200.12	24.09	-44.3	-46.9	17.7	0.00e+00	0	44	0	1037041664	60	4793
2026-01-20 23:53:11.04	200.12	23.94	-44.4	-46.9	17.7	0.00e+00	0	44	0	1039138816	60	4811
2026-01-20 23:53:12.04	200.11	23.79	-44.3	-46.9	17.8	0.00e+00	0	44	0	1041235968	60	4782
2026-01-20 23:53:13.03	200.11	23.64	-44.4	-47.0	17.6	0.00e+00	0	44	0	1042284544	60	4863
2026-01-20 23:53:14.03	200.11	23.49	-44.4	-47.0	17.7	0.00e+00	0	44	0	1044381696	60	4830
2026-01-20 23:53:15.02	200.11	23.34	-44.4	-47.0	17.7	0.00e+00	0	44	0	1046478848	60	4824
2026-01-20 23:53:16.01	200.10	23.19	-44.3	-46.9	17.7	0.00e+00	0	44	0	1048576000	60	4790
2026-01-20 23:53:17.01	200.10	23.04	-44.4	-47.1	17.6	0.00e+00	0	44	0	1049624576	60	4876
2026-01-20 23:53:18.01	200.10	22.89	-44.4	-47.0	17.6	0.00e+00	0	44	0	1051721728	60	4852
2026-01-20 23:53:19.00	200.10	22.75	-44.4	-47.1	17.6	0.00e+00	0	44	0	1053818880	60	4881
2026-01-20 23:53:19.99	200.09	22.60	-44.5	-47.1	17.5	0.00e+00	0	44	0	1055916032	60	4903
2026-01-20 23:53:20.99	200.09	22.46	-44.4	-47.1	17.6	0.00e+00	0	44	0	1058013184	60	4875
2026-01-20 23:53:21.99	200.09	22.31	-44.4	-47.1	17.6	0.00e+00	0	44	0	1059061760	60	4878
2026-01-20 23:53:22.98	200.09	22.17	-44.2	-46.8	17.8	0.00e+00	0	44	0	1061158912	60	4750
2026-01-20 23:53:23.98	200.08	22.03	-44.3	-46.9	17.7	0.00e+00	0	44	0	1063256064	60	4776
2026-01-20 23:53:24.97	200.08	21.89	-44.3	-46.9	17.7	0.00e+00	0	44	0	1065353216	60	4782
2026-01-20 23:53:25.97	200.08	21.75	-44.2	-46.7	17.9	0.00e+00	0	44	0	1066401792	60	4695
2026-01-20 23:53:26.96	200.08	21.61	-44.1	-46.7	17.9	0.00e+00	0	44	0	1068498944	60	4688
2026-01-20 23:53:27.96	200.07	21.47	-44.1	-46.7	17.9	0.00e+00	0	44	0	1070596096	60	4655
2026-01-20 23:53:28.95	200.07	21.33	-44.0	-46.6	18.0	0.00e+00	0	44	0	1072693248	60	4603
2026-01-20 23:53:29.95	200.07	21.19	-44.1	-46.7	17.9	0.00e+00	0	44	0	1074790400	60	4674
2026-01-20 23:53:30.94	200.07	21.05	-44.1	-46.7	17.9	0.00e+00	0	44	0	1075838976	60	4665
2026-01-20 23:53:31.94	200.07	20.92	-44.2	-46.8	17.8	0.00e+00	0	44	0	1077936128	60	4723
2026-01-20 23:53:32.93	200.06	20.78	-44.2	-46.8	17.7	0.00e+00	0	44	0	1080033280	60	4756
2026-01-20 23:53:33.93	200.06	20.65	-44.4	-47.0	17.6	0.00e+00	0	44	0	1082130432	60	4846
2026-01-20 23:53:34.93	200.06	20.51	-44.4	-47.0	17.5	0.00e+00	0	44	0	1084227584	60	4867
2026-01-20 23:53:35.92	200.06	20.38	-44.4	-47.1	17.5	0.00e+00	0	44	0	1085276160	60	4899
2026-01-20 23:53:36.92	200.06	20.25	-44.5	-47.2	17.4	0.00e+00	0	44	0	1087373312	60	4936
2026-01-20 23:53:37.91	200.05	20.12	-44.5	-47.3	17.3	0.00e+00	0	44	0	1089470464	60	5012
2026-01-20 23:53:38.91	200.05	19.98	-44.6	-47.4	17.2	0.00e+00	0	44	0	1091567616	60	5068
2026-01-20 23:53:39.90	200.05	19.85	-44.6	-47.4	17.2	0.00e+00	0	44	0	1092616192	60	5059
2026-01-20 23:53:40.90	200.05	19.72	-44.6	-47.5	17.1	0.00e+00	0	44	0	1094713344	60	5102
2026-01-20 23:53:41.89	200.05	19.60	-44.8	-47.7	16.9	0.00e+00	0	44	0	1096810496	60	5235
2026-01-20 23:53:42.88	200.05	19.47	-44.6	-47.4	17.2	0.00e+00	0	44	0	1098907648	60	5079
2026-01-20 23:53:43.88	200.04	19.34	-44.6	-47.4	17.2	0.00e+00	0	44	0	1101004800	60	5048
2026-01-20 23:53:44.87	200.04	19.21	-44.6	-47.4	17.1	0.00e+00	0	44	0	1102053376	60	5093
2026-01-20 23:53:45.87	200.04	19.09	-44.5	-47.3	17.3	0.00e+00	0	44	0	1104150528	60	4998
2026-01-20 23:53:46.86	200.04	18.96	-44.6	-47.4	17.2	0.00e+00	0	44	0	1106247680	60	5071
2026-01-20 23:53:47.86	200.04	18.83	-44.7	-47.5	17.1	0.00e+00	0	44	0	1108344832	60	5113
2026-01-20 23:53:48.85	200.04	18.71	-44.6	-47.4	17.1	0.00e+00	0	44	0	1109393408	60	5060
2026-01-20 23:53:49.85	200.04	18.59	-44.7	-47.5	17.1	0.00e+00	0	44	0	1111490560	60	5130
2026-01-20 23:53:50.84	200.03	18.46	-44.7	-47.5	17.1	0.00e+00	0	44	0	1113587712	60	5109
2026-01-20 23:53:51.84	200.03	18.34	-44.7	-47.5	17.0	0.00e+00	0	44	0	1115684864	60	5156
2026-01-20 23:53:52.83	200.03	18.22	-44.7	-47.5	17.0	0.00e+00	0	44	0	1117782016	60	5149
2026-01-20 23:53:53.83	200.03	18.10	-44.8	-47.7	16.9	0.00e+00	0	44	0	1118830592	60	5232
2026-01-20 23:53:54.82	200.03	17.98	-44.9	-47.7	16.8	0.00e+00	0	44	0	1120927744	60	5275
2026-01-20 23:53:55.82	200.03	17.86	-44.9	-47.8	16.8	0.00e+00	0	44	0	1123024896	60	5296
2026-01-20 23:53:56.81	200.03	17.74	-45.0	-47.9	16.6	0.00e+00	0	44	0	1125122048	60	5371
2026-01-20 23:53:57.81	200.03	17.62	-45.0	-48.0	16.6	0.00e+00	0	44	0	1126170624	60	5403
2026-01-20 23:53:58.80	200.03	17.50	-45.1	-48.1	16.5	0.00e+00	0	44	0	1128267776	60	5479
2026-01-20 23:53:59.80	200.02	17.38	-45.2	-48.2	16.3	0.00e+00	0	44	0	1130364928	61	5263
2026-01-20 23:54:00.79	200.02	17.26	-45.2	-48.2	16.3	0.00e+00	0	44	0	1132462080	61	5272
2026-01-20 23:54:01.79	200.02	17.15	-45.3	-48.4	16.1	0.00e+00	0	44	0	1134559232	61	5378
2026-01-20 23:54:02.78	200.02	17.03	-45.4	-48.5	16.1	0.00e+00	0	44	0	1135607808	61	5417
2026-01-20 23:54:03.78	200.02	16.91	-45.3	-48.4	16.2	0.00e+00	0	44	0	1137704960	61	5341
2026-01-20 23:54:04.77	200.02	16.80	-45.3	-48.4	16.2	0.00e+00	0	44	0	1139802112	61	5358
2026-01-20 23:54:05.77	200.02	16.68	-45.4	-48.4	16.1	0.00e+00	0	44	0	1141899264	61	5391
2026-01-20 23:54:06.76	200.02	16.57	-45.5	-48.6	15.9	0.00e+00	0	44	0	1142947840	61	5490
2026-01-20 23:54:07.76	200.02	16.46	-45.5	-48.6	15.9	0.00e+00	0	44	0	1145044992	61	5498
2026-01-20 23:54:08.75	200.02	16.34	-45.5	-48.6	15.9	0.00e+00	0	44	0	1147142144	61	5526
2026-01-20 23:54:09.75	200.02	16.23	-45.5	-48.6	15.9	0.00e+00	0	44	0	1149239296	61	5527
2026-01-20 23:54:10.74	200.02	16.12	-45.6	-48.8	15.7	0.00e+00	0	44	0	1151336448	61	5616
2026-01-20 23:54:11.74	200.01	16.01	-45.5	-48.7	15.8	0.00e+00	0	44	0	1152385024	61	5566
2026-01-20 23:54:12.74	200.01	15.90	-45.6	-48.8	15.7	0.00e+00	0	44	0	1154482176	61	5601
2026-01-20 23:54:13.73	200.01	15.79	-45.5	-48.7	15.8	0.00e+00	0	44	0	1156579328	61	5559
2026-01-20 23:54:14.72	200.01	15.68	-45.6	-48.9	15.6	0.00e+00	0	44	0	1158676480	61	5668
2026-01-20 23:54:15.72	200.01	15.57	-45.6	-48.8	15.7	0.00e+00	0	44	0	1159725056	61	5645
2026-01-20 23:54:16.71	200.01	15.46	-45.7	-48.9	15.6	0.00e+00	0	44	0	1161822208	62	5395
2026-01-20 23:54:17.71	200.01	15.35	-45.6	-48.9	15.7	0.00e+00	0	44	0	1163919360	62	5344
2026-01-20 23:54:18.70	200.01	15.24	-45.6	-48.8	15.7	0.00e+00	0	44	0	1166016512	62	5333
2026-01-20 23:54:19.70	200.01	15.13	-45.6	-48.8	15.7	0.00e+00	0	44	0	1168113664	62	5314
2026-01-20 23:54:20.69	200.01	15.03	-45.6	-48.9	15.6	0.00e+00	0	44	0	1169162240	62	5357
2026-01-20 23:54:21.69	200.01	14.92	-45.6	-48.9	15.6	0.00e+00	0	44	0	1171259392	62	5361
2026-01-20 23:54:22.68	200.01	14.81	-45.6	-48.8	15.7	0.00e+00	0	44	0	1173356544	62	5317
2026-01-20 23:54:23.68	200.01	14.71	-45.6	-48.8	15.7	0.00e+00	0	44	0	1175453696	62	5297
2026-01-20 23:54:24.67	200.01	14.60	-45.6	-48.8	15.7	0.00e+00	0	44	0	1176502272	62	5290
2026-01-20 23:54:25.67	200.01	14.50	-45.6	-48.7	15.8	0.00e+00	0	44	0	1178599424	62	5265
2026-01-20 23:54:26.66	200.01	14.39	-45.5	-48.6	15.8	0.00e+00	0	44	0	1180696576	62	5211
2026-01-20 23:54:27.66	200.01	14.29	-45.4	-48.5	16.0	0.00e+00	0	44	0	1182793728	62	5111
2026-01-20 23:54:28.65	200.01	14.19	-45.4	-48.5	15.9	0.00e+00	0	44	0	1184890880	62	5151
2026-01-20 23:54:29.65	200.01	14.08	-45.4	-48.6	15.9	0.00e+00	0	44	0	1185939456	62	5185
2026-01-20 23:54:30.64	200.01	13.98	-45.4	-48.6	15.9	0.00e+00	0	44	0	1188036608	62	5193
2026-01-20 23:54:31.64	200.01	13.88	-45.4	-48.5	15.9	0.00e+00	0	44	0	1190133760	62	5158
2026-01-20 23:54:32.63	200.01	13.78	-45.4	-48.6	15.9	0.00e+00	0	44	0	1192230912	62	5174
2026-01-20 23:54:33.63	200.01	13.68	-45.4	-48.6	15.8	0.00e+00	0	44	0	1193279488	62	5190
2026-01-20 23:54:34.62	200.01	13.58	-45.4	-48.6	15.9	0.00e+00	0	44	0	1195376640	62	5176
2026-01-20 23:54:35.61	200.01	13.48	-45.4	-48.5	16.0	0.00e+00	0	44	0	1197473792	62	5124
2026-01-20 23:54:36.61	200.01	13.38	-45.4	-48.5	15.9	0.00e+00	0	44	0	1199570944	62	5146
2026-01-20 23:54:37.61	200.00	13.28	-45.5	-48.7	15.8	0.00e+00	0	44	0	1201668096	62	5229
2026-01-20 23:54:38.60	200.00	13.18	-45.6	-48.8	15.6	0.00e+00	0	44	0	1202716672	62	5315
2026-01-20 23:54:39.60	200.00	13.08	-45.6	-48.9	15.6	0.00e+00	0	44	0	1204813824	62	5352
2026-01-20 23:54:40.59	200.00	12.98	-45.6	-48.8	15.6	0.00e+00	0	44	0	1206910976	62	5321
2026-01-20 23:54:41.59	200.00	12.88	-45.4	-48.6	15.8	0.00e+00	0	44	0	1209008128	62	5179
2026-01-20 23:54:42.58	200.00	12.78	-45.4	-48.6	15.8	0.00e+00	0	44	0	1210056704	62	5201
2026-01-20 23:54:43.58	200.00	12.69	-45.4	-48.7	15.7	0.00e+00	0	44	0	1212153856	62	5225
2026-01-20 23:54:44.57	200.00	12.59	-45.4	-48.6	15.8	0.00e+00	0	44	0	1214251008	62	5189
