passes_logs/2026/01/20/T1/T1__20260120_023325_NOAA_21_JPSS-2_rec.log

#Pass ID: 20260120_023325_NOAA 21 (JPSS-2)
#Satellite: NOAA 21 (JPSS-2)
#Configuration: NOAA 21
#almurnet v.1.7.20251203
#Start time: 2026-01-20 02:33:25

#Version: 2.0.20230620
#Station: T1
#Location: 37.570604 lon 55.790049 lat
#TLE: 1 54234U 22150A   26019.31231101  .00000073  00000+0  55355-4 0  9994
#TLE: 2 54234  98.7504 320.1599 0000604 258.3686 101.7423 14.19535697165426

#Time	Az	El	Level	Level2	SNR	BER	BlckErr	Temp	State	Recorded	gain1	gain2
2026-01-20 02:33:25.32	359.13	4.99	-48.5	-63.3	3.8	1.49e+00	0	44	0	0	69	18859
2026-01-20 02:33:26.31	359.01	5.03	-49.1	-63.2	3.8	1.49e+00	0	44	104	0	70	17533
2026-01-20 02:33:27.30	358.88	5.07	-49.1	-63.2	3.8	1.49e+00	0	43	104	0	70	17522
2026-01-20 02:33:28.30	358.76	5.11	-49.1	-63.1	3.8	1.49e+00	0	44	104	0	70	17462
2026-01-20 02:33:29.29	358.63	5.15	-49.1	-63.2	3.8	1.49e+00	0	44	104	0	70	17550
2026-01-20 02:33:30.28	358.51	5.18	-49.1	-63.2	3.8	1.49e+00	0	43	104	0	70	17589
2026-01-20 02:33:31.29	358.38	5.22	-49.1	-63.2	3.8	1.49e+00	0	44	104	0	70	17538
2026-01-20 02:33:32.33	358.25	5.26	-49.2	-63.2	3.8	1.49e+00	0	44	104	0	70	17487
2026-01-20 02:33:33.36	358.11	5.30	-49.1	-63.2	3.8	1.49e+00	0	44	104	0	70	17544
2026-01-20 02:33:34.38	357.98	5.34	-49.1	-63.2	3.8	1.49e+00	0	44	104	0	70	17500
2026-01-20 02:33:35.41	357.85	5.38	-49.1	-63.2	3.8	1.49e+00	0	44	104	0	70	17530
2026-01-20 02:33:36.43	357.72	5.42	-49.1	-63.2	3.8	1.49e+00	0	44	104	0	70	17511
2026-01-20 02:33:37.46	357.59	5.46	-49.1	-63.2	3.8	1.49e+00	0	44	104	0	70	17511
2026-01-20 02:33:38.48	357.46	5.50	-49.1	-63.2	3.8	1.49e+00	0	44	104	0	70	17554
2026-01-20 02:33:39.51	357.32	5.54	-49.1	-63.2	3.8	1.49e+00	0	44	104	0	70	17566
2026-01-20 02:33:40.53	357.19	5.58	-49.1	-63.2	3.8	1.49e+00	0	44	104	0	70	17527
2026-01-20 02:33:41.56	357.05	5.62	-49.1	-63.2	3.8	1.49e+00	0	44	104	0	70	17518
2026-01-20 02:33:42.55	356.92	5.66	-49.1	-63.2	3.8	1.49e+00	0	44	104	0	70	17563
2026-01-20 02:33:43.54	356.79	5.70	-49.1	-63.2	3.8	1.49e+00	0	44	104	0	70	17529
2026-01-20 02:33:44.54	356.66	5.73	-49.1	-63.2	3.8	1.49e+00	0	44	104	0	70	17495
2026-01-20 02:33:45.53	356.53	5.77	-49.1	-63.2	3.8	1.49e+00	0	44	104	0	70	17566
2026-01-20 02:33:46.53	356.40	5.81	-49.1	-63.2	3.8	1.49e+00	0	44	104	0	70	17514
2026-01-20 02:33:47.52	356.27	5.85	-49.1	-63.2	3.8	1.49e+00	0	44	104	0	70	17493
2026-01-20 02:33:48.51	356.14	5.88	-49.1	-63.2	3.8	1.49e+00	0	43	104	0	70	17506
2026-01-20 02:33:49.51	356.00	5.92	-49.1	-63.2	3.8	1.49e+00	0	44	104	0	70	17506
2026-01-20 02:33:50.50	355.87	5.96	-49.1	-63.2	3.8	1.49e+00	0	44	104	0	70	17564
2026-01-20 02:33:51.49	355.74	6.00	-49.1	-63.2	3.8	1.49e+00	0	44	104	0	70	17546
2026-01-20 02:33:52.49	355.60	6.03	-49.1	-63.2	3.8	1.49e+00	0	44	104	0	70	17518
2026-01-20 02:33:53.48	355.47	6.07	-49.1	-63.2	3.8	1.49e+00	0	44	104	0	70	17508
2026-01-20 02:33:54.47	355.34	6.11	-49.1	-63.2	3.8	1.49e+00	0	44	104	0	70	17506
2026-01-20 02:33:55.47	355.20	6.14	-49.1	-63.2	3.8	1.49e+00	0	44	104	0	70	17529
2026-01-20 02:33:56.46	355.07	6.18	-49.1	-63.2	3.8	1.49e+00	0	44	104	0	70	17502
2026-01-20 02:33:57.45	354.93	6.22	-49.1	-63.2	3.8	1.49e+00	0	44	104	0	70	17494
2026-01-20 02:33:58.48	354.79	6.26	-49.1	-63.1	3.8	1.49e+00	0	44	104	0	70	17480
2026-01-20 02:33:59.50	354.65	6.29	-49.1	-63.2	3.8	1.49e+00	0	44	104	0	70	17513
2026-01-20 02:34:00.53	354.51	6.33	-49.1	-63.2	3.8	1.49e+00	0	44	104	0	70	17550
2026-01-20 02:34:01.55	354.37	6.37	-49.1	-63.2	3.8	1.49e+00	0	44	104	0	70	17490
2026-01-20 02:34:02.55	354.23	6.40	-49.1	-63.2	3.8	1.49e+00	0	44	104	0	70	17561
2026-01-20 02:34:03.54	354.09	6.44	-49.1	-63.2	3.8	1.49e+00	0	44	104	0	70	17517
2026-01-20 02:34:04.53	353.96	6.48	-49.1	-63.2	3.8	1.49e+00	0	44	104	0	70	17570
2026-01-20 02:34:05.53	353.82	6.51	-49.1	-63.2	3.8	1.49e+00	0	44	104	0	70	17544
2026-01-20 02:34:06.52	353.68	6.55	-49.1	-63.2	3.8	1.49e+00	0	44	104	0	70	17556
2026-01-20 02:34:07.51	353.54	6.58	-49.1	-63.2	3.8	1.49e+00	0	44	104	0	70	17575
2026-01-20 02:34:08.50	353.40	6.62	-49.1	-63.1	3.8	1.49e+00	0	44	104	0	70	17477
2026-01-20 02:34:09.50	353.26	6.65	-49.1	-63.2	3.8	1.49e+00	0	44	104	0	70	17525
2026-01-20 02:34:10.49	353.12	6.69	-49.1	-63.2	3.8	1.49e+00	0	44	104	0	70	17495
2026-01-20 02:34:11.49	352.98	6.72	-49.1	-63.2	3.8	1.49e+00	0	44	104	0	70	17484
2026-01-20 02:34:12.48	352.84	6.76	-49.1	-63.2	3.8	1.49e+00	0	44	104	0	70	17508
2026-01-20 02:34:13.47	352.70	6.79	-49.1	-63.1	3.8	1.49e+00	0	44	104	0	70	17458
2026-01-20 02:34:14.47	352.56	6.83	-49.1	-63.1	3.8	1.49e+00	0	44	104	0	70	17474
2026-01-20 02:34:15.46	352.42	6.86	-49.1	-63.2	3.8	1.49e+00	0	44	104	0	70	17528
2026-01-20 02:34:16.47	352.27	6.90	-49.1	-63.2	3.8	1.49e+00	0	44	104	0	70	17524
2026-01-20 02:34:17.49	352.13	6.93	-49.1	-63.2	3.8	1.49e+00	0	44	104	0	70	17530
2026-01-20 02:34:18.52	351.98	6.97	-49.1	-63.2	3.8	1.49e+00	0	44	104	0	70	17513
2026-01-20 02:34:19.54	351.83	7.00	-49.1	-63.1	3.8	1.49e+00	0	44	104	0	70	17437
2026-01-20 02:34:20.54	351.69	7.04	-49.1	-63.2	3.8	1.49e+00	0	44	104	0	70	17506
2026-01-20 02:34:21.53	351.54	7.07	-49.1	-63.1	3.8	1.49e+00	0	44	104	0	70	17463
2026-01-20 02:34:22.52	351.40	7.11	-49.1	-63.2	3.8	1.49e+00	0	44	104	0	70	17515
2026-01-20 02:34:23.52	351.26	7.14	-49.1	-63.2	3.8	1.49e+00	0	44	104	0	70	17526
2026-01-20 02:34:24.51	351.11	7.17	-49.1	-63.2	3.8	1.49e+00	0	44	104	0	70	17496
2026-01-20 02:34:25.50	350.97	7.21	-49.1	-63.1	3.8	1.49e+00	0	44	104	0	70	17481
2026-01-20 02:34:26.50	350.82	7.24	-49.1	-63.2	3.8	1.49e+00	0	44	104	0	70	17591
2026-01-20 02:34:27.49	350.67	7.27	-49.1	-63.1	3.8	1.49e+00	0	44	104	0	70	17473
2026-01-20 02:34:28.49	350.53	7.31	-49.1	-63.2	3.8	1.49e+00	0	44	104	0	70	17520
2026-01-20 02:34:29.48	350.38	7.34	-49.1	-63.2	3.8	1.49e+00	0	44	104	0	70	17551
2026-01-20 02:34:30.47	350.24	7.37	-49.1	-63.2	3.8	1.49e+00	0	44	104	0	70	17554
2026-01-20 02:34:31.47	350.09	7.41	-49.1	-63.2	3.8	1.49e+00	0	44	104	0	70	17486
2026-01-20 02:34:32.46	349.94	7.44	-49.1	-63.2	3.8	1.49e+00	0	44	104	0	70	17525
2026-01-20 02:34:33.46	349.79	7.47	-49.1	-63.2	3.8	1.49e+00	0	44	104	0	70	17482
2026-01-20 02:34:34.46	349.64	7.50	-49.1	-63.2	3.8	1.49e+00	0	44	104	0	70	17512
2026-01-20 02:34:35.49	349.49	7.54	-49.1	-63.2	3.8	1.49e+00	0	44	104	0	70	17523
2026-01-20 02:34:36.51	349.34	7.57	-49.1	-63.2	3.8	1.49e+00	0	44	104	0	70	17539
2026-01-20 02:34:37.54	349.18	7.60	-49.1	-63.2	3.8	1.49e+00	0	44	104	0	70	17482
2026-01-20 02:34:38.56	349.03	7.63	-49.1	-63.2	3.8	1.49e+00	0	44	104	0	70	17483
2026-01-20 02:34:39.56	348.88	7.67	-49.1	-63.1	3.8	1.49e+00	0	44	104	0	70	17456
2026-01-20 02:34:40.55	348.73	7.70	-49.1	-63.1	3.8	1.49e+00	0	44	104	0	70	17445
2026-01-20 02:34:41.54	348.58	7.73	-49.1	-63.2	3.8	1.49e+00	0	44	104	0	70	17504
2026-01-20 02:34:42.54	348.42	7.76	-49.1	-63.1	3.8	1.49e+00	0	44	104	0	70	17433
2026-01-20 02:34:43.53	348.27	7.79	-49.1	-63.1	3.8	1.49e+00	0	44	104	0	70	17473
2026-01-20 02:34:44.52	348.12	7.82	-49.1	-63.1	3.8	1.49e+00	0	44	104	0	70	17458
2026-01-20 02:34:45.52	347.97	7.85	-49.1	-63.1	3.8	1.49e+00	0	44	104	0	70	17474
2026-01-20 02:34:46.51	347.82	7.88	-49.1	-63.1	3.8	1.49e+00	0	44	104	0	70	17460
2026-01-20 02:34:47.50	347.67	7.91	-49.1	-63.1	3.8	1.49e+00	0	44	104	0	70	17461
2026-01-20 02:34:48.50	347.51	7.94	-49.1	-63.1	3.8	1.49e+00	0	44	104	0	70	17458
2026-01-20 02:34:49.49	347.36	7.97	-49.1	-63.1	3.8	1.49e+00	0	44	104	0	70	17458
2026-01-20 02:34:50.49	347.21	8.00	-49.1	-63.1	3.8	1.49e+00	0	44	104	0	70	17440
2026-01-20 02:34:51.48	347.05	8.03	-49.1	-63.1	3.8	1.49e+00	0	44	104	0	70	17465
2026-01-20 02:34:52.47	346.90	8.06	-49.1	-63.1	3.8	1.49e+00	0	44	104	0	70	17445
2026-01-20 02:34:53.47	346.74	8.09	-49.1	-63.1	3.8	1.49e+00	0	44	104	0	70	17386
2026-01-20 02:34:54.47	346.59	8.12	-49.1	-63.1	3.8	1.49e+00	0	44	104	0	70	17454
2026-01-20 02:34:55.50	346.43	8.15	-49.1	-63.1	3.8	1.49e+00	0	44	104	0	70	17441
2026-01-20 02:34:56.52	346.27	8.18	-49.1	-63.1	3.8	1.49e+00	0	44	104	0	70	17409
2026-01-20 02:34:57.55	346.11	8.21	-49.1	-63.1	3.8	1.49e+00	0	44	104	0	70	17400
2026-01-20 02:34:58.54	345.95	8.24	-49.1	-63.1	3.8	1.49e+00	0	44	104	0	70	17374
2026-01-20 02:34:59.54	345.79	8.27	-49.1	-63.1	3.8	1.49e+00	0	44	104	0	70	17351
2026-01-20 02:35:00.53	345.64	8.29	-49.1	-63.1	3.8	1.49e+00	0	44	104	0	70	17365
2026-01-20 02:35:01.52	345.48	8.32	-49.1	-63.1	3.8	1.49e+00	0	44	104	0	70	17376
2026-01-20 02:35:02.52	345.32	8.35	-49.1	-63.1	3.8	1.49e+00	0	44	104	0	70	17426
2026-01-20 02:35:03.51	345.17	8.38	-49.1	-63.1	3.8	1.49e+00	0	44	104	0	70	17433
2026-01-20 02:35:04.50	345.01	8.40	-49.1	-63.2	3.8	1.49e+00	0	44	104	0	70	17522
2026-01-20 02:35:05.50	344.85	8.43	-49.1	-63.2	3.8	1.49e+00	0	44	104	0	70	17520
2026-01-20 02:35:06.49	344.69	8.46	-49.1	-63.1	3.8	1.49e+00	0	44	104	0	70	17456
2026-01-20 02:35:07.48	344.53	8.49	-49.1	-63.2	3.8	1.49e+00	0	44	104	0	70	17510
2026-01-20 02:35:08.48	344.37	8.51	-49.1	-63.2	3.8	1.49e+00	0	44	104	0	70	17528
2026-01-20 02:35:09.47	344.21	8.54	-49.1	-63.2	3.8	1.49e+00	0	44	104	0	70	17509
2026-01-20 02:35:10.46	344.05	8.56	-49.1	-63.1	3.8	1.49e+00	0	44	104	0	70	17342
2026-01-20 02:35:11.46	343.89	8.59	-49.1	-63.0	3.8	1.49e+00	0	44	104	0	70	17114
2026-01-20 02:35:12.45	343.73	8.62	-49.1	-62.9	3.8	1.49e+00	0	44	104	0	70	16969
2026-01-20 02:35:13.46	343.57	8.64	-49.1	-62.9	3.8	1.49e+00	0	44	104	0	70	17036
2026-01-20 02:35:14.48	343.41	8.67	-49.1	-63.1	3.8	1.49e+00	0	44	104	0	70	17293
2026-01-20 02:35:15.51	343.24	8.70	-49.1	-63.2	3.8	1.49e+00	0	44	104	0	70	17488
2026-01-20 02:35:16.53	343.07	8.72	-49.1	-63.1	3.8	1.49e+00	0	44	104	0	70	17302
2026-01-20 02:35:17.56	342.90	8.75	-49.1	-62.8	3.8	1.49e+00	0	44	104	0	70	16813
2026-01-20 02:35:18.55	342.74	8.77	-49.1	-62.6	3.8	1.49e+00	0	44	104	0	70	16336
2026-01-20 02:35:19.55	342.58	8.80	-49.0	-62.3	3.8	1.49e+00	0	44	104	0	70	15812
2026-01-20 02:35:20.54	342.42	8.82	-49.0	-61.9	3.8	1.49e+00	0	44	104	0	70	15154
2026-01-20 02:35:21.54	342.25	8.85	-48.9	-61.4	3.8	1.49e+00	0	44	104	0	69	15163
2026-01-20 02:35:22.53	342.09	8.87	-48.9	-60.6	4.0	1.49e+00	0	44	104	0	69	13809
2026-01-20 02:35:23.52	341.93	8.89	-48.8	-60.1	4.1	1.48e+00	0	44	104	0	69	12967
2026-01-20 02:35:24.52	341.76	8.92	-48.8	-59.9	3.9	1.47e+00	0	44	104	0	69	12768
2026-01-20 02:35:25.51	341.60	8.94	-48.6	-58.3	4.7	1.30e+00	0	44	104	0	69	10566
2026-01-20 02:35:26.50	341.44	8.96	-48.3	-56.2	5.8	4.68e-01	0	44	0	0	68	8806
2026-01-20 02:35:27.50	341.27	8.99	-47.4	-53.4	8.2	8.19e-02	0	44	0	0	66	7179
2026-01-20 02:35:28.49	341.11	9.01	-46.3	-50.7	11.0	8.33e-03	0	44	0	0	64	5904
2026-01-20 02:35:29.48	340.94	9.03	-45.2	-48.7	13.1	8.46e-05	0	44	0	0	62	5241
2026-01-20 02:35:30.48	340.78	9.05	-46.7	-51.1	10.9	1.44e-05	0	44	0	0	63	6561
2026-01-20 02:35:31.47	340.61	9.08	-46.3	-50.5	11.1	7.54e-02	0	44	0	0	64	5749
2026-01-20 02:35:32.47	340.44	9.10	-44.3	-47.1	14.7	0.00e+00	0	44	0	0	59	5199
2026-01-20 02:35:33.49	340.27	9.12	-43.9	-46.6	15.2	6.67e-03	0	44	0	0	59	4888
2026-01-20 02:35:34.49	340.11	9.14	-43.6	-46.2	15.5	0.00e+00	0	44	0	0	59	4689
2026-01-20 02:35:35.56	339.93	9.17	-43.2	-45.6	16.1	0.00e+00	0	44	0	0	58	4650
2026-01-20 02:35:36.42	339.78	9.18	-42.9	-45.3	16.4	0.00e+00	0	44	0	0	57	4727
2026-01-20 02:35:37.56	339.59	9.21	-42.5	-44.8	16.9	0.00e+00	0	44	0	0	57	4467
2026-01-20 02:35:38.41	339.45	9.23	-42.4	-44.6	17.0	0.00e+00	0	44	0	0	56	4636
2026-01-20 02:35:39.55	339.26	9.25	-42.4	-44.7	17.0	0.00e+00	0	44	0	0	56	4685
2026-01-20 02:35:40.40	339.11	9.27	-42.6	-44.9	16.8	0.00e+00	0	44	0	0	56	4773
2026-01-20 02:35:41.54	338.92	9.29	-42.3	-44.5	17.2	0.00e+00	0	44	0	0	56	4556
2026-01-20 02:35:42.39	338.77	9.31	-42.2	-44.3	17.3	0.00e+00	0	44	0	0	56	4487
2026-01-20 02:35:43.53	338.58	9.33	-42.1	-44.3	17.4	0.00e+00	0	44	0	0	56	4482
2026-01-20 02:35:44.38	338.44	9.35	-42.2	-44.4	17.3	0.00e+00	0	44	0	0	56	4522
2026-01-20 02:35:45.52	338.24	9.37	-42.2	-44.4	17.3	0.00e+00	0	44	0	0	56	4541
2026-01-20 02:35:46.37	338.10	9.38	-42.1	-44.5	17.3	0.00e+00	0	44	0	0	56	4558
2026-01-20 02:35:47.50	337.91	9.41	-42.2	-44.6	17.1	0.00e+00	0	44	0	0	56	4612
2026-01-20 02:35:48.36	337.76	9.42	-42.2	-44.6	17.1	0.00e+00	0	44	0	0	56	4601
2026-01-20 02:35:49.49	337.57	9.44	-42.0	-44.3	17.4	0.00e+00	0	44	0	0	56	4488
2026-01-20 02:35:50.35	337.42	9.46	-42.0	-44.3	17.4	0.00e+00	0	44	0	0	56	4446
2026-01-20 02:35:51.48	337.22	9.48	-41.8	-44.0	17.5	0.00e+00	0	44	0	0	55	4588
2026-01-20 02:35:52.34	337.08	9.49	-41.9	-44.1	17.4	0.00e+00	0	44	0	0	55	4634
2026-01-20 02:35:53.47	336.88	9.51	-41.7	-44.0	17.5	0.00e+00	0	44	0	0	55	4562
2026-01-20 02:35:54.32	336.74	9.53	-41.9	-44.1	17.4	0.00e+00	0	44	0	0	55	4642
2026-01-20 02:35:55.46	336.54	9.55	-41.9	-44.2	17.3	0.00e+00	0	44	0	0	55	4691
2026-01-20 02:35:56.31	336.39	9.56	-41.9	-44.2	17.2	0.00e+00	0	44	0	0	55	4691
2026-01-20 02:35:57.45	336.20	9.58	-41.9	-44.3	17.2	0.00e+00	0	44	0	0	55	4719
2026-01-20 02:35:58.31	336.05	9.59	-42.0	-44.3	17.1	0.00e+00	0	44	0	0	55	4734
2026-01-20 02:35:59.44	335.85	9.61	-42.0	-44.3	17.1	0.00e+00	0	44	0	0	55	4728
2026-01-20 02:36:00.30	335.70	9.63	-42.1	-44.3	17.1	0.00e+00	0	44	0	0	55	4753
2026-01-20 02:36:01.43	335.51	9.64	-42.1	-44.4	17.1	0.00e+00	0	44	0	0	55	4760
2026-01-20 02:36:02.29	335.36	9.66	-42.1	-44.3	17.2	0.00e+00	0	44	0	0	55	4741
2026-01-20 02:36:03.42	335.16	9.67	-42.2	-44.4	17.1	0.00e+00	0	44	0	0	55	4800
2026-01-20 02:36:04.27	335.01	9.69	-42.2	-44.4	17.1	0.00e+00	0	44	0	0	55	4792
2026-01-20 02:36:05.41	334.82	9.70	-42.2	-44.4	17.1	0.00e+00	0	44	0	0	55	4808
2026-01-20 02:36:06.27	334.67	9.72	-42.2	-44.4	17.2	0.00e+00	0	44	0	0	55	4781
2026-01-20 02:36:07.40	334.47	9.73	-42.2	-44.4	17.1	0.00e+00	0	44	0	0	55	4803
2026-01-20 02:36:08.25	334.32	9.74	-42.2	-44.3	17.2	0.00e+00	0	44	0	0	55	4751
2026-01-20 02:36:09.39	334.12	9.76	-42.2	-44.3	17.2	0.00e+00	0	44	0	0	55	4731
2026-01-20 02:36:10.25	333.97	9.77	-42.1	-44.2	17.3	0.00e+00	0	44	0	0	55	4698
2026-01-20 02:36:11.38	333.77	9.79	-42.1	-44.3	17.2	0.00e+00	0	44	0	0	55	4736
2026-01-20 02:36:12.23	333.62	9.80	-42.2	-44.3	17.2	0.00e+00	0	44	0	0	55	4755
2026-01-20 02:36:13.37	333.42	9.81	-42.1	-44.3	17.2	0.00e+00	0	44	0	0	55	4741
2026-01-20 02:36:14.22	333.27	9.82	-42.1	-44.3	17.3	0.00e+00	0	44	0	0	55	4726
2026-01-20 02:36:15.36	333.07	9.83	-42.1	-44.2	17.3	0.00e+00	0	44	0	0	55	4692
2026-01-20 02:36:16.21	332.92	9.84	-42.0	-44.1	17.4	0.00e+00	0	44	0	0	55	4641
2026-01-20 02:36:17.35	332.72	9.86	-42.1	-44.2	17.3	0.00e+00	0	44	0	0	55	4678
2026-01-20 02:36:18.21	332.57	9.87	-42.1	-44.2	17.2	0.00e+00	0	44	0	0	55	4690
2026-01-20 02:36:19.34	332.37	9.88	-42.0	-44.2	17.3	0.00e+00	0	44	0	0	55	4652
2026-01-20 02:36:20.19	332.22	9.89	-42.0	-44.2	17.3	0.00e+00	0	44	0	0	55	4670
2026-01-20 02:36:21.41	332.01	9.90	-42.0	-44.2	17.3	0.00e+00	0	44	0	0	55	4673
2026-01-20 02:36:22.26	331.86	9.91	-42.0	-44.2	17.3	0.00e+00	0	44	0	0	55	4670
2026-01-20 02:36:23.40	331.65	9.92	-42.1	-44.2	17.3	0.00e+00	0	44	0	0	55	4684
2026-01-20 02:36:24.25	331.50	9.93	-42.0	-44.1	17.3	0.00e+00	0	44	0	0	55	4650
2026-01-20 02:36:25.50	331.28	9.94	-42.0	-44.1	17.3	0.00e+00	0	44	0	0	55	4646
2026-01-20 02:36:26.35	331.13	9.95	-41.9	-44.0	17.4	0.00e+00	0	44	0	0	55	4569
2026-01-20 02:36:27.49	330.93	9.96	-42.1	-44.1	17.3	0.00e+00	0	44	0	0	55	4648
2026-01-20 02:36:28.34	330.78	9.97	-42.1	-44.2	17.3	0.00e+00	0	44	0	0	55	4664
2026-01-20 02:36:29.48	330.58	9.98	-42.1	-44.2	17.3	0.00e+00	0	44	0	0	55	4699
2026-01-20 02:36:30.33	330.43	9.99	-42.1	-44.3	17.3	0.00e+00	0	44	0	0	55	4707
2026-01-20 02:36:31.47	330.22	9.99	-42.0	-44.0	17.5	0.00e+00	0	44	0	0	55	4593
2026-01-20 02:36:32.32	330.07	10.00	-41.9	-44.0	17.5	0.00e+00	0	44	0	0	55	4562
2026-01-20 02:36:33.46	329.87	10.01	-41.9	-44.0	17.5	0.00e+00	0	44	0	0	55	4580
2026-01-20 02:36:34.31	329.72	10.02	-41.8	-43.9	17.6	0.00e+00	0	44	0	0	55	4517
2026-01-20 02:36:35.45	329.51	10.02	-41.9	-43.9	17.6	0.00e+00	0	44	0	0	55	4529
2026-01-20 02:36:36.30	329.36	10.03	-41.9	-44.0	17.5	0.00e+00	0	44	0	0	55	4553
2026-01-20 02:36:37.44	329.16	10.04	-41.8	-43.9	17.6	0.00e+00	0	44	0	0	55	4516
2026-01-20 02:36:38.29	329.01	10.04	-41.9	-44.0	17.5	0.00e+00	0	44	0	0	55	4554
2026-01-20 02:36:39.43	328.80	10.05	-42.0	-44.1	17.5	0.00e+00	0	44	0	0	55	4599
2026-01-20 02:36:40.28	328.65	10.05	-42.1	-44.2	17.3	0.00e+00	0	44	0	0	55	4678
2026-01-20 02:36:41.41	328.45	10.06	-42.0	-44.1	17.5	0.00e+00	0	44	0	0	55	4612
2026-01-20 02:36:42.27	328.30	10.06	-41.9	-44.0	17.5	0.00e+00	0	44	0	0	55	4588
2026-01-20 02:36:43.51	328.07	10.07	-41.8	-43.9	17.6	0.00e+00	0	44	0	0	55	4517
2026-01-20 02:36:44.37	327.92	10.07	-41.7	-43.8	17.7	0.00e+00	0	44	0	0	55	4483
2026-01-20 02:36:45.50	327.72	10.08	-41.8	-43.9	17.6	0.00e+00	0	44	0	0	55	4530
2026-01-20 02:36:46.36	327.56	10.08	-41.8	-43.9	17.6	0.00e+00	0	44	0	0	55	4522
2026-01-20 02:36:47.62	327.34	10.09	-41.7	-43.7	17.8	0.00e+00	0	44	0	0	55	4432
2026-01-20 02:36:48.41	327.20	10.09	-41.7	-43.7	17.8	0.00e+00	0	44	0	0	55	4422
2026-01-20 02:36:49.58	326.99	10.09	-41.8	-43.9	17.6	0.00e+00	0	44	0	0	55	4500
2026-01-20 02:36:50.43	326.84	10.10	-41.8	-43.8	17.7	0.00e+00	0	44	0	0	55	4465
2026-01-20 02:36:51.57	326.63	10.10	-41.8	-43.9	17.6	0.00e+00	0	44	0	0	55	4516
2026-01-20 02:36:52.42	326.48	10.10	-41.8	-43.9	17.6	0.00e+00	0	44	0	0	55	4514
2026-01-20 02:36:53.56	326.27	10.10	-41.7	-43.8	17.7	0.00e+00	0	44	0	0	55	4474
2026-01-20 02:36:54.41	326.12	10.10	-41.6	-43.8	17.7	0.00e+00	0	44	0	0	55	4474
2026-01-20 02:36:55.55	325.92	10.11	-41.6	-43.8	17.7	0.00e+00	0	44	0	0	55	4488
2026-01-20 02:36:56.40	325.77	10.11	-41.5	-43.8	17.7	0.00e+00	0	44	0	0	55	4446
2026-01-20 02:36:57.53	325.56	10.11	-41.5	-43.7	17.8	0.00e+00	0	44	0	0	55	4420
2026-01-20 02:36:58.39	325.41	10.11	-41.6	-43.8	17.7	0.00e+00	0	44	0	0	55	4467
2026-01-20 02:36:59.53	325.20	10.11	-41.6	-43.8	17.7	0.00e+00	0	44	0	0	55	4449
2026-01-20 02:37:00.38	325.05	10.11	-41.7	-43.9	17.7	0.00e+00	0	44	0	0	55	4495
2026-01-20 02:37:01.51	324.85	10.11	-41.7	-43.8	17.7	0.00e+00	0	44	0	0	55	4477
2026-01-20 02:37:02.37	324.69	10.11	-41.7	-43.9	17.6	0.00e+00	0	44	0	0	55	4526
2026-01-20 02:37:03.50	324.49	10.11	-41.8	-44.0	17.6	0.00e+00	0	44	0	0	55	4549
2026-01-20 02:37:04.35	324.34	10.11	-41.8	-44.0	17.6	0.00e+00	0	44	0	0	55	4554
2026-01-20 02:37:05.60	324.11	10.11	-41.7	-43.9	17.7	0.00e+00	0	44	0	0	55	4520
2026-01-20 02:37:06.45	323.96	10.11	-41.7	-43.9	17.7	0.00e+00	0	44	0	0	55	4517
2026-01-20 02:37:07.59	323.76	10.10	-41.6	-43.8	17.7	0.00e+00	0	44	0	0	55	4490
2026-01-20 02:37:08.44	323.61	10.10	-41.7	-43.8	17.7	0.00e+00	0	44	0	0	55	4491
2026-01-20 02:37:09.58	323.40	10.10	-41.7	-43.8	17.7	0.00e+00	0	44	0	0	55	4486
2026-01-20 02:37:10.43	323.25	10.10	-41.7	-43.8	17.7	0.00e+00	0	44	0	0	55	4477
2026-01-20 02:37:11.57	323.04	10.09	-41.7	-43.9	17.7	0.00e+00	0	44	0	0	55	4497
2026-01-20 02:37:12.42	322.89	10.09	-41.8	-43.9	17.6	0.00e+00	0	44	0	0	55	4503
2026-01-20 02:37:13.56	322.69	10.09	-41.9	-44.0	17.6	0.00e+00	0	44	0	0	55	4558
2026-01-20 02:37:14.41	322.54	10.09	-41.9	-44.0	17.5	0.00e+00	0	44	0	0	55	4568
2026-01-20 02:37:15.55	322.33	10.08	-41.9	-44.0	17.5	0.00e+00	0	44	0	0	55	4553
2026-01-20 02:37:16.40	322.18	10.08	-42.0	-44.0	17.5	0.00e+00	0	44	0	0	55	4585
2026-01-20 02:37:17.53	321.98	10.07	-42.0	-44.1	17.4	0.00e+00	0	44	0	0	55	4637
2026-01-20 02:37:18.39	321.82	10.07	-42.0	-44.1	17.5	0.00e+00	0	44	0	0	55	4626
2026-01-20 02:37:19.53	321.62	10.06	-42.1	-44.2	17.4	0.00e+00	0	44	0	0	55	4652
2026-01-20 02:37:20.38	321.47	10.06	-42.0	-44.2	17.4	0.00e+00	0	44	0	0	55	4656
2026-01-20 02:37:21.52	321.26	10.05	-42.1	-44.3	17.3	0.00e+00	0	44	0	0	55	4706
2026-01-20 02:37:22.37	321.11	10.05	-42.1	-44.3	17.3	0.00e+00	0	44	0	0	55	4715
2026-01-20 02:37:23.51	320.91	10.04	-42.2	-44.4	17.2	0.00e+00	0	44	0	0	55	4769
2026-01-20 02:37:24.36	320.76	10.04	-42.1	-44.3	17.3	0.00e+00	0	44	0	0	55	4726
2026-01-20 02:37:25.50	320.55	10.03	-42.1	-44.3	17.2	0.00e+00	0	44	0	0	55	4747
2026-01-20 02:37:26.35	320.40	10.02	-42.2	-44.3	17.2	0.00e+00	0	44	0	0	55	4745
2026-01-20 02:37:27.49	320.20	10.02	-42.1	-44.3	17.2	0.00e+00	0	44	0	0	55	4751
2026-01-20 02:37:28.34	320.05	10.01	-42.2	-44.4	17.1	0.00e+00	0	44	0	0	55	4793
2026-01-20 02:37:29.48	319.84	10.00	-42.1	-44.4	17.2	0.00e+00	0	44	0	0	55	4764
2026-01-20 02:37:30.33	319.69	9.99	-42.1	-44.3	17.3	0.00e+00	0	44	0	0	55	4725
2026-01-20 02:37:31.47	319.49	9.98	-42.1	-44.3	17.2	0.00e+00	0	44	0	0	55	4752
2026-01-20 02:37:32.32	319.34	9.98	-42.2	-44.4	17.1	0.00e+00	0	44	0	0	55	4801
2026-01-20 02:37:33.45	319.14	9.97	-42.2	-44.4	17.1	0.00e+00	0	44	0	0	55	4812
2026-01-20 02:37:34.30	318.99	9.96	-42.2	-44.4	17.2	0.00e+00	0	44	0	0	55	4785
2026-01-20 02:37:35.44	318.78	9.95	-42.4	-44.6	17.0	0.00e+00	0	44	0	0	55	4883
2026-01-20 02:37:36.29	318.63	9.94	-42.4	-44.6	17.0	0.00e+00	0	44	0	0	55	4906
2026-01-20 02:37:37.43	318.43	9.93	-42.5	-44.7	16.9	0.00e+00	0	44	0	0	55	4931
2026-01-20 02:37:38.28	318.28	9.92	-42.5	-44.7	16.9	0.00e+00	0	44	0	0	55	4934
2026-01-20 02:37:39.42	318.08	9.91	-42.8	-45.0	16.8	0.00e+00	0	44	0	0	56	4853
2026-01-20 02:37:40.28	317.93	9.90	-42.9	-45.0	16.7	0.00e+00	0	44	0	0	56	4865
2026-01-20 02:37:41.41	317.73	9.89	-43.0	-45.2	16.6	0.00e+00	0	44	0	0	56	4931
2026-01-20 02:37:42.27	317.57	9.88	-42.9	-45.1	16.7	0.00e+00	0	44	0	0	56	4881
2026-01-20 02:37:43.51	317.35	9.87	-42.9	-45.1	16.7	0.00e+00	0	44	0	0	56	4890
2026-01-20 02:37:44.37	317.20	9.86	-42.8	-45.0	16.7	0.00e+00	0	44	0	0	56	4857
2026-01-20 02:37:45.58	316.99	9.84	-42.8	-45.0	16.8	0.00e+00	0	44	0	0	56	4835
2026-01-20 02:37:46.43	316.84	9.83	-42.8	-45.0	16.7	0.00e+00	0	44	0	0	56	4849
2026-01-20 02:37:47.63	316.63	9.82	-42.8	-45.0	16.7	0.00e+00	0	44	0	0	56	4838
2026-01-20 02:37:48.49	316.48	9.81	-42.7	-44.9	16.8	0.00e+00	0	44	0	0	56	4797
2026-01-20 02:37:49.69	316.27	9.79	-42.8	-45.0	16.8	0.00e+00	0	44	0	0	56	4816
2026-01-20 02:37:50.54	316.12	9.78	-42.8	-45.0	16.7	0.00e+00	0	44	0	0	56	4832
2026-01-20 02:37:51.68	315.92	9.77	-42.7	-44.9	16.8	0.00e+00	0	44	0	0	56	4774
2026-01-20 02:37:52.53	315.77	9.76	-42.7	-44.9	16.8	0.00e+00	0	44	0	0	56	4791
2026-01-20 02:37:53.66	315.57	9.74	-42.7	-44.9	16.8	0.00e+00	0	44	0	0	56	4799
2026-01-20 02:37:54.52	315.42	9.73	-42.8	-45.0	16.8	0.00e+00	0	44	0	0	56	4817
2026-01-20 02:37:55.65	315.22	9.71	-42.6	-44.8	17.0	0.00e+00	0	44	0	0	56	4734
2026-01-20 02:37:56.51	315.07	9.70	-42.5	-44.6	17.1	0.00e+00	0	44	0	0	56	4631
2026-01-20 02:37:57.64	314.88	9.68	-42.5	-44.6	17.1	0.00e+00	0	44	0	0	56	4627
2026-01-20 02:37:58.72	314.69	9.67	-42.5	-44.7	17.0	0.00e+00	0	44	0	0	56	4656
2026-01-20 02:37:59.57	314.54	9.65	-42.5	-44.6	17.0	0.00e+00	0	44	0	0	56	4647
2026-01-20 02:38:00.71	314.34	9.64	-42.6	-44.7	16.9	0.00e+00	0	44	0	0	56	4672
2026-01-20 02:38:01.56	314.19	9.62	-42.6	-44.7	16.9	0.00e+00	0	44	0	0	56	4698
2026-01-20 02:38:02.70	314.00	9.60	-42.7	-44.8	16.8	0.00e+00	0	44	0	0	56	4737
2026-01-20 02:38:03.55	313.85	9.59	-42.6	-44.8	16.9	0.00e+00	0	44	0	0	56	4726
2026-01-20 02:38:04.69	313.65	9.57	-42.6	-44.8	16.9	0.00e+00	0	44	0	0	56	4721
2026-01-20 02:38:05.54	313.50	9.56	-42.6	-44.8	16.8	0.00e+00	0	44	0	0	56	4759
2026-01-20 02:38:06.68	313.31	9.54	-42.7	-44.9	16.8	0.00e+00	0	44	0	0	56	4799
2026-01-20 02:38:07.53	313.16	9.52	-42.8	-45.0	16.7	0.00e+00	0	44	0	0	56	4829
2026-01-20 02:38:08.67	312.96	9.51	-42.8	-45.0	16.7	0.00e+00	0	44	0	0	56	4864
2026-01-20 02:38:09.52	312.82	9.49	-42.9	-45.1	16.6	0.00e+00	0	44	0	0	56	4903
2026-01-20 02:38:10.66	312.62	9.47	-42.9	-45.1	16.6	0.00e+00	0	44	0	0	56	4891
2026-01-20 02:38:11.51	312.48	9.45	-42.8	-45.0	16.6	0.00e+00	0	44	0	0	56	4859
2026-01-20 02:38:12.64	312.28	9.43	-42.8	-45.0	16.7	0.00e+00	0	44	0	0	56	4824
2026-01-20 02:38:13.50	312.13	9.42	-42.9	-45.1	16.6	0.00e+00	0	44	0	0	56	4872
2026-01-20 02:38:14.63	311.94	9.40	-42.8	-45.0	16.7	0.00e+00	0	44	0	0	56	4846
2026-01-20 02:38:15.49	311.79	9.38	-42.9	-45.1	16.6	0.00e+00	0	44	0	0	56	4904
2026-01-20 02:38:16.62	311.60	9.36	-42.9	-45.1	16.6	0.00e+00	0	44	0	0	56	4899
2026-01-20 02:38:17.48	311.46	9.34	-42.9	-45.2	16.6	0.00e+00	0	44	0	0	56	4943
2026-01-20 02:38:18.62	311.26	9.32	-43.0	-45.2	16.5	0.00e+00	0	44	0	0	56	4970
2026-01-20 02:38:19.80	311.06	9.30	-43.0	-45.3	16.4	0.00e+00	0	44	0	0	56	5016
2026-01-20 02:38:20.81	310.89	9.28	-43.1	-45.4	16.4	0.00e+00	0	44	0	0	56	5061
2026-01-20 02:38:21.98	310.69	9.25	-43.0	-45.2	16.5	0.00e+00	0	44	0	0	56	4972
2026-01-20 02:38:22.83	310.55	9.23	-43.0	-45.2	16.5	0.00e+00	0	44	0	0	56	4981
2026-01-20 02:38:23.97	310.36	9.21	-43.0	-45.3	16.4	0.00e+00	0	44	0	0	56	5002
2026-01-20 02:38:24.82	310.21	9.19	-43.1	-45.3	16.3	0.00e+00	0	44	0	0	56	5032
2026-01-20 02:38:25.96	310.02	9.17	-43.0	-45.3	16.4	0.00e+00	0	44	0	0	56	4986
2026-01-20 02:38:26.81	309.88	9.15	-43.0	-45.3	16.4	0.00e+00	0	44	0	0	56	4986
2026-01-20 02:38:27.95	309.69	9.13	-43.1	-45.4	16.3	0.00e+00	0	44	0	0	56	5068
2026-01-20 02:38:28.80	309.54	9.11	-43.1	-45.3	16.3	0.00e+00	0	44	0	0	56	5040
2026-01-20 02:38:29.94	309.35	9.08	-43.1	-45.4	16.3	0.00e+00	0	44	0	0	56	5096
2026-01-20 02:38:30.79	309.21	9.06	-43.1	-45.4	16.3	0.00e+00	0	44	0	0	56	5091
2026-01-20 02:38:31.93	309.02	9.04	-43.1	-45.4	16.3	0.00e+00	0	44	0	0	56	5088
2026-01-20 02:38:32.78	308.88	9.02	-43.2	-45.5	16.2	0.00e+00	0	44	0	0	57	4865
2026-01-20 02:38:33.91	308.69	8.99	-49.3	-57.3	5.7	3.80e-06	0	44	0	0	69	9485
2026-01-20 02:38:34.76	308.55	8.97	-50.2	-63.1	3.8	1.49e+00	0	44	104	0	71	16485
2026-01-20 02:38:35.90	308.36	8.95	-50.5	-63.5	3.8	1.49e+00	0	44	104	0	71	17112
2026-01-20 02:38:36.75	308.22	8.93	-50.5	-63.6	3.8	1.49e+00	0	44	104	0	71	17475
2026-01-20 02:38:37.89	308.03	8.90	-50.6	-63.7	3.8	1.49e+00	0	44	104	0	71	17655
2026-01-20 02:38:38.74	307.89	8.88	-50.6	-63.8	3.8	1.49e+00	0	44	104	0	71	17739
2026-01-20 02:38:39.87	307.70	8.85	-50.7	-63.8	3.8	1.49e+00	0	44	104	0	72	16697
2026-01-20 02:38:40.72	307.56	8.83	-50.7	-63.8	3.8	1.49e+00	0	44	104	0	72	16780
2026-01-20 02:38:41.86	307.38	8.80	-50.8	-63.8	3.8	1.49e+00	0	44	104	0	72	16823
2026-01-20 02:38:42.71	307.24	8.78	-50.8	-63.8	3.8	1.49e+00	0	44	104	0	72	16828
2026-01-20 02:38:43.85	307.05	8.75	-50.8	-63.8	3.8	1.49e+00	0	44	104	0	72	16883
2026-01-20 02:38:44.70	306.91	8.73	-50.8	-63.8	3.8	1.49e+00	0	44	104	0	72	16868
2026-01-20 02:38:45.83	306.73	8.70	-50.7	-63.8	3.8	1.49e+00	0	44	104	0	72	16875
2026-01-20 02:38:46.69	306.59	8.68	-50.8	-63.9	3.8	1.49e+00	0	44	104	0	72	16918
2026-01-20 02:38:47.82	306.40	8.65	-50.8	-63.9	3.8	1.49e+00	0	44	104	0	72	16919
2026-01-20 02:38:48.67	306.27	8.63	-50.8	-63.8	3.8	1.49e+00	0	44	104	0	72	16868
2026-01-20 02:38:49.81	306.08	8.60	-50.7	-63.8	3.8	1.49e+00	0	44	104	0	72	16847
2026-01-20 02:38:50.66	305.94	8.58	-50.7	-63.8	3.8	1.49e+00	0	44	104	0	72	16823
2026-01-20 02:38:51.79	305.76	8.55	-50.6	-63.8	3.8	1.49e+00	0	44	104	0	72	16830
2026-01-20 02:38:52.65	305.62	8.53	-50.6	-63.8	3.8	1.49e+00	0	44	104	0	72	16770
2026-01-20 02:38:53.78	305.44	8.50	-50.5	-63.8	3.8	1.49e+00	0	44	104	0	72	16723
2026-01-20 02:38:54.63	305.31	8.47	-50.4	-63.8	3.8	1.49e+00	0	44	104	0	72	16746
2026-01-20 02:38:55.77	305.12	8.44	-50.4	-63.7	3.8	1.49e+00	0	44	104	0	72	16631
2026-01-20 02:38:56.62	304.99	8.42	-50.3	-63.8	3.8	1.49e+00	0	44	104	0	72	16700
2026-01-20 02:38:57.76	304.81	8.39	-50.4	-63.8	3.8	1.49e+00	0	44	104	0	72	16732
2026-01-20 02:38:58.61	304.67	8.36	-50.4	-63.7	3.8	1.49e+00	0	44	104	0	72	16652
2026-01-20 02:38:59.74	304.49	8.33	-50.4	-63.7	3.8	1.49e+00	0	44	104	0	72	16672
2026-01-20 02:39:00.59	304.36	8.31	-50.3	-63.7	3.8	1.49e+00	0	44	104	0	72	16643
2026-01-20 02:39:01.73	304.17	8.28	-50.3	-63.8	3.8	1.49e+00	0	44	104	0	72	16703
2026-01-20 02:39:02.58	304.04	8.25	-50.3	-63.7	3.8	1.49e+00	0	44	104	0	72	16625
2026-01-20 02:39:03.72	303.86	8.22	-50.4	-63.8	3.8	1.49e+00	0	44	104	0	72	16713
2026-01-20 02:39:04.57	303.73	8.19	-50.3	-63.7	3.8	1.49e+00	0	44	104	0	72	16644
2026-01-20 02:39:05.70	303.55	8.16	-50.3	-63.7	3.8	1.49e+00	0	44	104	0	72	16630
2026-01-20 02:39:06.56	303.41	8.14	-50.4	-63.7	3.8	1.49e+00	0	44	104	0	72	16636
2026-01-20 02:39:07.69	303.24	8.10	-50.3	-63.7	3.8	1.49e+00	0	44	104	0	72	16646
2026-01-20 02:39:08.54	303.11	8.08	-50.3	-63.7	3.8	1.49e+00	0	44	104	0	72	16644
2026-01-20 02:39:09.68	302.93	8.04	-50.3	-63.7	3.8	1.49e+00	0	44	104	0	72	16615
2026-01-20 02:39:10.53	302.80	8.02	-50.3	-63.7	3.8	1.49e+00	0	44	104	0	72	16656
2026-01-20 02:39:11.66	302.62	7.99	-50.3	-63.7	3.8	1.49e+00	0	44	104	0	72	16627
2026-01-20 02:39:12.51	302.49	7.96	-50.3	-63.7	3.8	1.49e+00	0	44	104	0	72	16595
2026-01-20 02:39:13.65	302.31	7.93	-50.3	-63.7	3.8	1.49e+00	0	44	104	0	72	16624
2026-01-20 02:39:14.50	302.18	7.90	-50.3	-63.7	3.8	1.49e+00	0	44	104	0	72	16629
2026-01-20 02:39:15.63	302.01	7.87	-50.3	-63.7	3.8	1.49e+00	0	44	104	0	72	16617
2026-01-20 02:39:16.49	301.87	7.84	-50.3	-63.7	3.8	1.49e+00	0	44	104	0	72	16625
2026-01-20 02:39:17.62	301.70	7.80	-50.3	-63.7	3.8	1.49e+00	0	44	104	0	72	16636
2026-01-20 02:39:18.47	301.57	7.78	-50.3	-63.7	3.8	1.49e+00	0	44	104	0	72	16661
2026-01-20 02:39:19.61	301.40	7.74	-50.3	-63.7	3.8	1.49e+00	0	44	104	0	72	16628
2026-01-20 02:39:20.46	301.27	7.72	-50.3	-63.7	3.8	1.49e+00	0	44	104	0	72	16670
2026-01-20 02:39:21.60	301.09	7.68	-50.3	-63.7	3.8	1.49e+00	0	44	104	0	72	16580
2026-01-20 02:39:22.45	300.97	7.65	-50.3	-63.7	3.8	1.49e+00	0	44	104	0	72	16583
2026-01-20 02:39:23.58	300.79	7.62	-50.3	-63.7	3.8	1.49e+00	0	44	104	0	72	16563
2026-01-20 02:39:24.43	300.67	7.59	-50.3	-63.7	3.8	1.49e+00	0	44	104	0	72	16634
2026-01-20 02:39:25.57	300.49	7.55	-50.3	-63.7	3.8	1.49e+00	0	44	104	0	72	16594
2026-01-20 02:39:26.42	300.37	7.53	-50.3	-63.7	3.8	1.49e+00	0	44	104	0	72	16616
2026-01-20 02:39:27.55	300.20	7.49	-50.3	-63.7	3.8	1.49e+00	0	44	104	0	72	16605
2026-01-20 02:39:28.41	300.07	7.46	-50.3	-63.7	3.8	1.49e+00	0	44	104	0	72	16641
2026-01-20 02:39:29.54	299.90	7.42	-50.3	-63.7	3.8	1.49e+00	0	44	104	0	72	16588
2026-01-20 02:39:30.39	299.77	7.40	-50.3	-63.7	3.8	1.49e+00	0	44	104	0	72	16598
2026-01-20 02:39:31.53	299.60	7.36	-50.3	-63.7	3.8	1.49e+00	0	44	104	0	72	16550
2026-01-20 02:39:32.38	299.48	7.33	-50.3	-63.7	3.8	1.49e+00	0	44	104	0	72	16626
2026-01-20 02:39:33.52	299.31	7.29	-50.3	-63.7	3.8	1.49e+00	0	44	104	0	72	16634
2026-01-20 02:39:34.37	299.18	7.26	-50.3	-63.7	3.8	1.49e+00	0	44	104	0	72	16570
2026-01-20 02:39:35.50	299.02	7.23	-50.3	-63.7	3.8	1.49e+00	0	44	104	0	72	16615
2026-01-20 02:39:36.35	298.89	7.20	-50.3	-63.7	3.8	1.49e+00	0	44	104	0	72	16554
2026-01-20 02:39:37.49	298.73	7.16	-50.3	-63.7	3.8	1.49e+00	0	44	104	0	72	16559
2026-01-20 02:39:38.34	298.60	7.13	-50.3	-63.7	3.8	1.49e+00	0	44	104	0	72	16557
2026-01-20 02:39:39.48	298.43	7.09	-50.3	-63.7	3.8	1.49e+00	0	44	104	0	72	16603
2026-01-20 02:39:40.33	298.31	7.06	-50.3	-63.7	3.8	1.49e+00	0	44	104	0	72	16541
2026-01-20 02:39:41.46	298.15	7.02	-50.3	-63.7	3.8	1.49e+00	0	44	104	0	72	16568
2026-01-20 02:39:42.31	298.02	7.00	-50.3	-63.7	3.8	1.49e+00	0	44	104	0	72	16588
2026-01-20 02:39:43.45	297.86	6.96	-50.3	-63.7	3.8	1.49e+00	0	44	104	0	72	16592
2026-01-20 02:39:44.30	297.74	6.93	-50.3	-63.7	3.8	1.49e+00	0	44	104	0	72	16610
2026-01-20 02:39:45.44	297.57	6.89	-50.3	-63.7	3.8	1.49e+00	0	44	104	0	72	16591
2026-01-20 02:39:46.29	297.45	6.86	-50.3	-63.7	3.8	1.49e+00	0	44	104	0	72	16586
2026-01-20 02:39:47.42	297.29	6.82	-50.3	-63.7	3.8	1.49e+00	0	44	104	0	72	16588
2026-01-20 02:39:48.28	297.17	6.79	-50.3	-63.7	3.8	1.49e+00	0	44	104	0	72	16612
2026-01-20 02:39:49.41	297.00	6.75	-50.3	-63.7	3.8	1.49e+00	0	44	104	0	72	16549
2026-01-20 02:39:50.26	296.88	6.72	-50.3	-63.7	3.8	1.49e+00	0	44	104	0	72	16590
2026-01-20 02:39:51.40	296.72	6.68	-50.3	-63.7	3.8	1.49e+00	0	44	104	0	72	16628
2026-01-20 02:39:52.25	296.60	6.65	-50.3	-63.7	3.8	1.49e+00	0	44	104	0	72	16570
2026-01-20 02:39:53.39	296.44	6.61	-50.3	-63.7	3.8	1.49e+00	0	44	104	0	72	16589
2026-01-20 02:39:54.24	296.32	6.58	-50.3	-63.7	3.8	1.49e+00	0	44	104	0	72	16616
2026-01-20 02:39:55.37	296.16	6.54	-50.3	-63.7	3.8	1.49e+00	0	44	104	0	72	16566
2026-01-20 02:39:56.22	296.04	6.51	-50.3	-63.7	3.8	1.49e+00	0	44	104	0	72	16561
2026-01-20 02:39:57.36	295.88	6.46	-50.3	-63.7	3.8	1.49e+00	0	44	104	0	72	16625
2026-01-20 02:39:58.21	295.77	6.43	-50.3	-63.7	3.8	1.49e+00	0	44	104	0	72	16677
2026-01-20 02:39:59.35	295.61	6.39	-50.3	-63.7	3.8	1.49e+00	0	44	104	0	72	16620
2026-01-20 02:40:00.19	295.49	6.36	-50.3	-63.7	3.8	1.49e+00	0	44	104	0	72	16573
2026-01-20 02:40:01.33	295.33	6.32	-50.3	-63.7	3.8	1.49e+00	0	44	104	0	72	16572
2026-01-20 02:40:02.18	295.22	6.29	-50.3	-63.7	3.8	1.49e+00	0	44	104	0	72	16617
2026-01-20 02:40:03.32	295.06	6.25	-50.3	-63.7	3.8	1.49e+00	0	44	104	0	72	16556
2026-01-20 02:40:04.17	294.94	6.22	-50.3	-63.7	3.8	1.49e+00	0	44	104	0	72	16557
2026-01-20 02:40:05.30	294.79	6.17	-50.3	-63.7	3.8	1.49e+00	0	44	104	0	72	16593
2026-01-20 02:40:06.15	294.67	6.14	-50.3	-63.7	3.8	1.49e+00	0	44	104	0	72	16582
2026-01-20 02:40:07.29	294.52	6.10	-50.3	-63.7	3.8	1.49e+00	0	44	104	0	72	16574
2026-01-20 02:40:08.14	294.40	6.07	-50.3	-63.7	3.8	1.49e+00	0	44	104	0	72	16570
2026-01-20 02:40:09.28	294.25	6.03	-50.3	-63.7	3.8	1.49e+00	0	44	104	0	72	16564
2026-01-20 02:40:10.13	294.13	5.99	-50.3	-63.7	3.8	1.49e+00	0	44	104	0	72	16601
2026-01-20 02:40:11.26	293.98	5.95	-50.3	-63.7	3.8	1.49e+00	0	44	104	0	72	16612
2026-01-20 02:40:12.11	293.87	5.92	-50.3	-63.7	3.8	1.49e+00	0	44	104	0	72	16575
2026-01-20 02:40:13.25	293.71	5.88	-50.3	-63.7	3.8	1.49e+00	0	44	104	0	72	16625
2026-01-20 02:40:14.10	293.60	5.84	-50.3	-63.7	3.8	1.49e+00	0	44	104	0	72	16533
2026-01-20 02:40:15.24	293.45	5.80	-50.3	-63.7	3.8	1.49e+00	0	44	104	0	72	16549
2026-01-20 02:40:16.09	293.33	5.77	-50.3	-63.7	3.8	1.49e+00	0	44	104	0	72	16607
2026-01-20 02:40:17.22	293.18	5.73	-50.3	-63.7	3.8	1.49e+00	0	44	104	0	72	16561
2026-01-20 02:40:18.07	293.07	5.69	-50.3	-63.7	3.8	1.49e+00	0	44	104	0	72	16594
2026-01-20 02:40:19.21	292.92	5.65	-50.3	-63.7	3.8	1.49e+00	0	44	104	0	72	16512
2026-01-20 02:40:20.06	292.81	5.62	-50.3	-63.7	3.8	1.49e+00	0	44	104	0	72	16505
2026-01-20 02:40:21.19	292.66	5.57	-50.3	-63.7	3.8	1.49e+00	0	44	104	0	72	16547
2026-01-20 02:40:22.04	292.55	5.54	-50.3	-63.7	3.8	1.49e+00	0	44	104	0	72	16522
2026-01-20 02:40:23.18	292.40	5.50	-50.3	-63.7	3.8	1.49e+00	0	44	104	0	72	16544
2026-01-20 02:40:24.03	292.29	5.46	-50.3	-63.7	3.8	1.49e+00	0	44	104	0	72	16509
2026-01-20 02:40:25.17	292.14	5.42	-50.3	-63.7	3.8	1.49e+00	0	44	104	0	72	16548
2026-01-20 02:40:26.02	292.03	5.39	-50.3	-63.7	3.8	1.49e+00	0	44	104	0	72	16569
2026-01-20 02:40:27.15	291.89	5.34	-50.3	-63.7	3.8	1.49e+00	0	44	104	0	72	16563
2026-01-20 02:40:28.00	291.78	5.31	-50.3	-63.7	3.8	1.49e+00	0	44	104	0	72	16527
2026-01-20 02:40:29.14	291.63	5.27	-50.3	-63.6	3.8	1.49e+00	0	44	104	0	72	16485
2026-01-20 02:40:29.99	291.52	5.23	-50.3	-63.6	3.8	1.49e+00	0	44	104	0	72	16462
2026-01-20 02:40:31.12	291.38	5.19	-50.3	-63.6	3.8	1.49e+00	0	44	104	0	72	16461
2026-01-20 02:40:31.98	291.27	5.15	-50.2	-63.6	3.8	1.49e+00	0	44	104	0	72	16477
2026-01-20 02:40:33.11	291.12	5.11	-50.3	-63.7	3.8	1.49e+00	0	44	104	0	72	16541
2026-01-20 02:40:33.96	291.01	5.08	-50.3	-63.6	3.8	1.49e+00	0	44	104	0	72	16474
2026-01-20 02:40:35.10	290.87	5.03	-50.3	-63.7	3.8	1.49e+00	0	44	104	0	72	16559
2026-01-20 02:40:35.95	290.76	5.00	-50.3	-63.7	3.8	1.49e+00	0	44	104	0	72	16534

#Closed at: 2026-01-20 02:40:37
#Recorded file [0 MB]: D:/Data/31040_260120_053325.dat