passes_logs/2026/01/20/T1/T1__20260120_000207_NOAA_20_JPSS-1_rec.log

#Pass ID: 20260120_000207_NOAA 20 (JPSS-1)
#Satellite: NOAA 20 (JPSS-1)
#Configuration: NOAA 20
#almurnet v.1.7.20251203
#Start time: 2026-01-20 00:02:08

#Version: 2.0.20230620
#Station: T1
#Location: 37.570604 lon 55.790049 lat
#TLE: 1 43013U 17073A   26019.27717929  .00000087  00000+0  62288-4 0  9995
#TLE: 2 43013  98.7641 320.1715 0001339  33.1986 326.9274 14.19537047423343

#Time	Az	El	Level	Level2	SNR	BER	BlckErr	Temp	State	Recorded	gain1	gain2
2026-01-20 00:02:08.41	14.14	5.08	-49.4	-65.1	3.8	1.49e+00	0	37	0	0	69	23166
2026-01-20 00:02:09.40	14.13	5.15	-49.4	-65.1	3.8	1.49e+00	0	36	104	0	70	21763
2026-01-20 00:02:10.50	14.11	5.23	-49.4	-65.1	3.8	1.49e+00	0	37	104	0	70	21765
2026-01-20 00:02:11.37	14.10	5.29	-49.4	-65.1	3.8	1.49e+00	0	37	104	0	70	21883
2026-01-20 00:02:12.66	14.08	5.39	-49.4	-65.1	3.8	1.49e+00	0	37	104	0	70	21948
2026-01-20 00:02:13.37	14.07	5.44	-49.4	-65.1	3.8	1.49e+00	0	37	104	0	70	21872
2026-01-20 00:02:14.82	14.05	5.54	-49.4	-65.1	3.8	1.49e+00	0	37	104	0	70	21947
2026-01-20 00:02:15.53	14.04	5.59	-49.4	-65.2	3.8	1.49e+00	0	37	104	0	70	22059
2026-01-20 00:02:16.84	14.02	5.69	-49.4	-65.2	3.8	1.49e+00	0	37	104	0	70	22097
2026-01-20 00:02:17.55	14.01	5.74	-49.4	-65.2	3.8	1.49e+00	0	37	104	0	70	22050
2026-01-20 00:02:18.87	13.99	5.84	-49.4	-65.2	3.8	1.49e+00	0	37	104	0	70	22032
2026-01-20 00:02:19.58	13.98	5.89	-49.4	-65.2	3.8	1.49e+00	0	37	104	0	70	22010
2026-01-20 00:02:20.86	13.96	5.98	-49.4	-65.2	3.8	1.49e+00	0	37	104	0	70	22089
2026-01-20 00:02:21.57	13.94	6.03	-49.4	-65.1	3.8	1.49e+00	0	37	104	0	70	21867
2026-01-20 00:02:22.85	13.92	6.13	-49.4	-65.1	3.8	1.49e+00	0	37	104	0	70	21918
2026-01-20 00:02:23.56	13.91	6.18	-49.4	-65.1	3.8	1.49e+00	0	37	104	0	70	21832
2026-01-20 00:02:24.84	13.89	6.28	-49.4	-65.1	3.8	1.49e+00	0	37	104	0	70	21806
2026-01-20 00:02:25.55	13.88	6.33	-49.4	-65.0	3.8	1.49e+00	0	37	104	0	70	21755
2026-01-20 00:02:26.82	13.86	6.42	-49.4	-65.0	3.8	1.49e+00	0	37	104	0	70	21560
2026-01-20 00:02:27.55	13.85	6.48	-49.4	-65.0	3.8	1.49e+00	0	37	104	0	70	21550
2026-01-20 00:02:28.82	13.83	6.57	-49.3	-64.9	3.8	1.49e+00	0	37	104	0	70	21368
2026-01-20 00:02:29.53	13.82	6.63	-49.4	-64.9	3.8	1.49e+00	0	37	104	0	70	21273
2026-01-20 00:02:30.81	13.79	6.72	-49.3	-64.8	3.8	1.49e+00	0	38	104	0	70	21225
2026-01-20 00:02:31.52	13.78	6.78	-49.3	-64.8	3.8	1.49e+00	0	37	104	0	70	21129
2026-01-20 00:02:32.80	13.76	6.87	-49.3	-64.8	3.8	1.49e+00	0	37	104	0	70	21080
2026-01-20 00:02:33.54	13.75	6.93	-49.4	-64.8	3.8	1.49e+00	0	37	104	0	70	21075
2026-01-20 00:02:34.81	13.73	7.03	-49.3	-64.8	3.8	1.49e+00	0	37	104	0	70	21100
2026-01-20 00:02:35.52	13.71	7.08	-49.3	-64.8	3.8	1.49e+00	0	38	104	0	70	21088
2026-01-20 00:02:36.80	13.69	7.18	-49.4	-64.8	3.8	1.49e+00	0	38	104	0	70	21248
2026-01-20 00:02:37.51	13.68	7.23	-49.4	-64.8	3.8	1.49e+00	0	38	104	0	70	21158
2026-01-20 00:02:38.79	13.66	7.33	-49.4	-64.8	3.8	1.49e+00	0	37	104	0	70	21157
2026-01-20 00:02:39.52	13.64	7.39	-49.4	-64.7	3.8	1.49e+00	0	38	104	0	70	20988
2026-01-20 00:02:40.79	13.62	7.49	-49.4	-64.5	3.8	1.49e+00	0	38	104	0	70	20512
2026-01-20 00:02:41.50	13.61	7.54	-49.4	-64.4	3.8	1.49e+00	0	38	104	0	70	20117
2026-01-20 00:02:42.78	13.59	7.64	-49.3	-63.9	3.8	1.49e+00	0	38	104	0	70	19135
2026-01-20 00:02:43.49	13.57	7.70	-49.3	-63.6	3.8	1.49e+00	0	38	104	0	70	18477
2026-01-20 00:02:44.77	13.55	7.80	-49.3	-62.8	3.8	1.49e+00	0	38	104	0	70	16813
2026-01-20 00:02:45.49	13.54	7.86	-49.2	-62.2	4.0	1.48e+00	0	38	0	0	70	15739
2026-01-20 00:02:46.77	13.51	7.96	-49.1	-61.0	4.3	1.39e+00	0	38	0	0	70	13690
2026-01-20 00:02:47.48	13.50	8.01	-49.1	-60.4	4.6	1.13e+00	0	38	0	1048576	70	12733
2026-01-20 00:02:48.77	13.48	8.12	-48.9	-59.2	5.2	6.89e-01	0	38	0	3145728	69	11764
2026-01-20 00:02:49.48	13.46	8.17	-48.8	-58.5	5.7	5.82e-01	0	38	0	4194304	69	10820
2026-01-20 00:02:50.77	13.44	8.28	-48.6	-57.3	6.6	3.08e-01	0	38	0	7340032	69	9441
2026-01-20 00:02:51.48	13.42	8.33	-48.5	-56.9	6.9	1.97e-01	0	38	0	8388608	69	9016
2026-01-20 00:02:52.79	13.40	8.44	-48.3	-55.9	7.9	9.70e-02	0	38	0	10485760	68	8496
2026-01-20 00:02:53.50	13.38	8.50	-48.3	-55.6	8.2	6.25e-02	0	38	0	12582912	68	8207
2026-01-20 00:02:54.81	13.36	8.60	-48.0	-54.9	8.9	3.06e-02	0	38	0	14680064	68	7569
2026-01-20 00:02:55.52	13.34	8.66	-48.0	-54.7	9.1	2.61e-02	0	38	0	15728640	68	7375
2026-01-20 00:02:56.83	13.32	8.77	-47.7	-54.2	9.5	1.63e-02	0	38	0	18874368	67	7406
2026-01-20 00:02:57.54	13.30	8.83	-47.7	-54.1	9.6	1.40e-02	0	38	0	19922944	67	7310
2026-01-20 00:02:58.82	13.28	8.93	-47.7	-54.2	9.5	1.30e-02	0	38	0	22020096	67	7378
2026-01-20 00:02:59.53	13.26	8.99	-47.8	-54.4	9.3	1.47e-02	0	38	0	23068672	67	7560
2026-01-20 00:03:00.80	13.24	9.09	-48.6	-58.6	5.6	2.91e-02	0	38	0	26214400	67	12276
2026-01-20 00:03:01.53	13.22	9.16	-48.5	-57.1	6.7	5.57e-01	0	38	0	27262976	68	9746
2026-01-20 00:03:02.81	13.20	9.26	-48.4	-56.7	7.0	1.77e-02	0	38	0	29360128	67	9938
2026-01-20 00:03:03.53	13.18	9.32	-48.7	-58.9	5.5	3.95e-01	0	38	0	31457280	67	12687
2026-01-20 00:03:04.81	13.16	9.43	-46.0	-50.1	13.5	1.19e+00	0	38	0	32505856	64	5519
2026-01-20 00:03:05.52	13.14	9.49	-45.5	-49.3	14.6	0.00e+00	0	38	0	33554432	62	5616
2026-01-20 00:03:06.80	13.11	9.60	-45.1	-48.6	15.3	7.00e-07	0	38	0	36700160	62	5207
2026-01-20 00:03:07.51	13.10	9.66	-44.8	-48.3	15.6	0.00e+00	0	38	0	37748736	61	5293
2026-01-20 00:03:08.79	13.07	9.77	-44.6	-48.1	15.8	0.00e+00	0	38	0	39845888	61	5174
2026-01-20 00:03:09.50	13.06	9.83	-44.6	-48.0	15.9	0.00e+00	0	38	0	40894464	61	5127
2026-01-20 00:03:10.78	13.03	9.93	-44.6	-47.9	16.0	0.00e+00	0	38	0	44040192	61	5084
2026-01-20 00:03:11.57	13.01	10.00	-44.6	-47.9	16.0	0.00e+00	0	39	0	45088768	61	5100
2026-01-20 00:03:12.77	12.98	10.11	-44.6	-47.9	16.0	0.00e+00	0	38	0	47185920	61	5085
2026-01-20 00:03:13.73	12.96	10.19	-44.5	-47.8	16.1	0.00e+00	0	38	0	49283072	61	4987
2026-01-20 00:03:14.72	12.94	10.27	-44.5	-47.8	16.2	0.00e+00	0	38	0	51380224	61	4991
2026-01-20 00:03:15.72	12.92	10.36	-44.5	-47.7	16.2	0.00e+00	0	38	0	53477376	61	4981
2026-01-20 00:03:16.93	12.89	10.47	-44.5	-47.7	16.2	0.00e+00	0	38	0	55574528	60	5256
2026-01-20 00:03:17.82	12.87	10.55	-44.5	-47.8	16.2	0.00e+00	0	38	0	56623104	60	5287
2026-01-20 00:03:18.96	12.84	10.65	-44.4	-47.6	16.3	0.00e+00	0	38	0	58720256	60	5197
2026-01-20 00:03:19.81	12.82	10.72	-44.4	-47.6	16.4	0.00e+00	0	38	0	60817408	60	5175
2026-01-20 00:03:20.94	12.80	10.82	-44.4	-47.6	16.4	0.00e+00	0	38	0	62914560	60	5185
2026-01-20 00:03:21.80	12.78	10.90	-44.4	-47.5	16.4	0.00e+00	0	38	0	63963136	60	5147
2026-01-20 00:03:22.93	12.75	11.00	-44.3	-47.5	16.5	0.00e+00	0	38	0	67108864	60	5123
2026-01-20 00:03:23.79	12.73	11.07	-44.2	-47.3	16.6	0.00e+00	0	39	0	68157440	60	5038
2026-01-20 00:03:24.92	12.70	11.18	-44.3	-47.4	16.6	0.00e+00	0	38	0	70254592	60	5072
2026-01-20 00:03:25.78	12.68	11.25	-44.3	-47.5	16.5	0.00e+00	0	38	0	72351744	60	5122
2026-01-20 00:03:26.91	12.65	11.36	-44.2	-47.3	16.6	0.00e+00	0	38	0	74448896	60	5028
2026-01-20 00:03:27.76	12.63	11.43	-44.2	-47.4	16.6	0.00e+00	0	39	0	75497472	60	5048
2026-01-20 00:03:29.07	12.60	11.55	-44.1	-47.2	16.8	0.00e+00	0	38	0	78643200	60	4982
2026-01-20 00:03:29.78	12.58	11.62	-44.2	-47.3	16.7	0.00e+00	0	39	0	79691776	60	5008
2026-01-20 00:03:31.28	12.54	11.76	-44.1	-47.2	16.8	0.00e+00	0	38	0	81788928	60	4939
2026-01-20 00:03:31.99	12.53	11.82	-44.1	-47.1	16.8	0.00e+00	0	39	0	83886080	60	4925
2026-01-20 00:03:33.27	12.49	11.94	-44.1	-47.1	16.9	0.00e+00	0	39	0	85983232	60	4919
2026-01-20 00:03:33.98	12.47	12.00	-44.0	-47.1	16.9	0.00e+00	0	39	0	87031808	60	4878
2026-01-20 00:03:35.26	12.44	12.12	-44.0	-47.1	17.0	0.00e+00	0	38	0	90177536	60	4872
2026-01-20 00:03:36.00	12.42	12.19	-44.0	-46.9	17.0	0.00e+00	0	38	0	91226112	59	5094
2026-01-20 00:03:37.28	12.39	12.31	-43.9	-46.9	17.1	0.00e+00	0	39	0	93323264	59	5061
2026-01-20 00:03:37.99	12.37	12.38	-44.0	-46.9	17.0	0.00e+00	0	38	0	94371840	59	5098
2026-01-20 00:03:39.26	12.34	12.50	-43.9	-46.9	17.1	0.00e+00	0	39	0	97517568	59	5056
2026-01-20 00:03:39.99	12.32	12.57	-43.9	-46.8	17.1	0.00e+00	0	39	0	98566144	59	5025
2026-01-20 00:03:41.27	12.28	12.69	-43.8	-46.6	17.3	0.00e+00	0	39	0	100663296	59	4920
2026-01-20 00:03:41.99	12.26	12.76	-43.8	-46.6	17.3	0.00e+00	0	39	0	102760448	59	4926
2026-01-20 00:03:43.27	12.23	12.88	-43.7	-46.6	17.4	0.00e+00	0	38	0	104857600	59	4900
2026-01-20 00:03:44.00	12.21	12.96	-43.8	-46.7	17.3	0.00e+00	0	38	0	105906176	59	4941
2026-01-20 00:03:45.28	12.17	13.08	-43.7	-46.5	17.4	0.00e+00	0	39	0	108003328	59	4866
2026-01-20 00:03:46.00	12.15	13.15	-43.7	-46.6	17.4	0.00e+00	0	39	0	110100480	59	4872
2026-01-20 00:03:47.28	12.11	13.27	-43.7	-46.6	17.4	0.00e+00	0	39	0	112197632	59	4878
2026-01-20 00:03:48.09	12.09	13.35	-43.6	-46.5	17.5	0.00e+00	0	39	0	114294784	59	4818
2026-01-20 00:03:49.22	12.06	13.46	-43.6	-46.5	17.5	0.00e+00	0	39	0	116391936	59	4825
2026-01-20 00:03:50.08	12.03	13.55	-43.7	-46.5	17.5	0.00e+00	0	39	0	117440512	59	4837
2026-01-20 00:03:51.21	12.00	13.66	-43.6	-46.3	17.6	0.00e+00	0	39	0	119537664	59	4758
2026-01-20 00:03:52.07	11.97	13.75	-43.5	-46.3	17.7	0.00e+00	0	39	0	121634816	59	4734
2026-01-20 00:03:53.20	11.94	13.86	-43.5	-46.3	17.7	0.00e+00	0	39	0	123731968	59	4738
2026-01-20 00:03:54.05	11.92	13.95	-43.5	-46.3	17.7	0.00e+00	0	39	0	124780544	59	4726
2026-01-20 00:03:55.19	11.88	14.06	-43.6	-46.3	17.7	0.00e+00	0	39	0	126877696	59	4759
2026-01-20 00:03:56.04	11.86	14.15	-43.5	-46.2	17.8	0.00e+00	0	39	0	128974848	59	4699
2026-01-20 00:03:57.18	11.82	14.26	-43.4	-46.2	17.8	0.00e+00	0	39	0	131072000	58	4960
2026-01-20 00:03:58.03	11.79	14.35	-43.4	-46.2	17.8	0.00e+00	0	39	0	132120576	58	4947
2026-01-20 00:03:59.17	11.76	14.47	-43.4	-46.1	17.9	0.00e+00	0	39	0	134217728	58	4901
2026-01-20 00:04:00.02	11.73	14.55	-43.4	-46.2	17.8	0.00e+00	0	39	0	136314880	58	4940
2026-01-20 00:04:01.16	11.70	14.67	-43.3	-46.1	17.9	0.00e+00	0	38	0	138412032	58	4879
2026-01-20 00:04:02.23	11.66	14.78	-43.2	-45.9	18.1	0.00e+00	0	39	0	140509184	58	4808
2026-01-20 00:04:03.09	11.63	14.87	-43.2	-45.9	18.1	0.00e+00	0	39	0	141557760	58	4780
2026-01-20 00:04:04.23	11.60	14.99	-43.2	-45.9	18.1	0.00e+00	0	39	0	143654912	58	4811
2026-01-20 00:04:05.08	11.57	15.08	-43.2	-45.9	18.1	0.00e+00	0	39	0	145752064	58	4810
2026-01-20 00:04:06.21	11.53	15.20	-43.1	-45.8	18.2	0.00e+00	0	39	0	147849216	58	4716
2026-01-20 00:04:07.07	11.50	15.29	-43.1	-45.7	18.3	0.00e+00	0	39	0	148897792	58	4684
2026-01-20 00:04:08.20	11.47	15.41	-43.1	-45.8	18.3	0.00e+00	0	39	0	150994944	58	4709
2026-01-20 00:04:09.06	11.44	15.50	-43.1	-45.7	18.3	0.00e+00	0	39	0	153092096	58	4690
2026-01-20 00:04:10.19	11.40	15.63	-43.0	-45.6	18.4	0.00e+00	0	39	0	155189248	58	4620
2026-01-20 00:04:11.39	11.36	15.75	-42.9	-45.5	18.5	0.00e+00	0	38	0	157286400	57	4858
2026-01-20 00:04:12.42	11.32	15.87	-42.9	-45.6	18.4	0.00e+00	0	39	0	159383552	57	4882
2026-01-20 00:04:13.42	11.29	15.98	-43.0	-45.6	18.4	0.00e+00	0	39	0	161480704	57	4901
2026-01-20 00:04:14.41	11.25	16.08	-42.9	-45.5	18.5	0.00e+00	0	39	0	163577856	57	4844
2026-01-20 00:04:15.41	11.22	16.19	-42.9	-45.5	18.5	0.00e+00	0	39	0	164626432	57	4860
2026-01-20 00:04:16.40	11.18	16.30	-42.8	-45.5	18.5	0.00e+00	0	39	0	166723584	57	4820
2026-01-20 00:04:17.40	11.15	16.41	-42.7	-45.3	18.7	0.00e+00	0	39	0	168820736	57	4748
2026-01-20 00:04:18.39	11.11	16.52	-42.7	-45.3	18.7	0.00e+00	0	39	0	170917888	57	4712
2026-01-20 00:04:19.39	11.07	16.64	-42.7	-45.3	18.7	0.00e+00	0	39	0	171966464	57	4752
2026-01-20 00:04:20.38	11.04	16.75	-42.7	-45.3	18.7	0.00e+00	0	39	0	174063616	57	4717
2026-01-20 00:04:21.38	11.00	16.86	-42.7	-45.3	18.7	0.00e+00	0	38	0	176160768	57	4722
2026-01-20 00:04:22.37	10.96	16.97	-42.6	-45.2	18.9	0.00e+00	0	39	0	178257920	57	4661
2026-01-20 00:04:23.37	10.92	17.09	-42.6	-45.2	18.8	0.00e+00	0	39	0	180355072	57	4679
2026-01-20 00:04:24.37	10.89	17.20	-42.5	-45.0	18.9	0.00e+00	0	39	0	181403648	57	4598
2026-01-20 00:04:25.36	10.85	17.31	-42.5	-45.1	18.9	0.00e+00	0	39	0	183500800	57	4608
2026-01-20 00:04:26.43	10.81	17.44	-42.6	-45.2	18.9	0.00e+00	0	39	0	185597952	57	4657
2026-01-20 00:04:27.32	10.77	17.54	-42.5	-45.1	18.9	0.00e+00	0	39	0	187695104	57	4617
2026-01-20 00:04:28.45	10.73	17.67	-42.6	-45.1	18.9	0.00e+00	0	39	0	189792256	57	4646
2026-01-20 00:04:29.31	10.69	17.77	-42.5	-45.0	19.0	0.00e+00	0	39	0	190840832	56	4853
2026-01-20 00:04:30.44	10.65	17.91	-42.4	-45.0	19.1	0.00e+00	0	39	0	192937984	56	4823
2026-01-20 00:04:31.29	10.61	18.01	-42.4	-45.0	19.1	0.00e+00	0	39	0	195035136	56	4828
2026-01-20 00:04:32.43	10.57	18.14	-42.5	-45.1	19.0	0.00e+00	0	39	0	197132288	56	4876
2026-01-20 00:04:33.28	10.53	18.24	-42.5	-45.0	19.0	0.00e+00	0	39	0	198180864	56	4849
2026-01-20 00:04:34.42	10.48	18.38	-42.4	-44.9	19.1	0.00e+00	0	39	0	200278016	56	4799
2026-01-20 00:04:35.27	10.45	18.48	-42.3	-44.8	19.2	0.00e+00	0	39	0	202375168	56	4748
2026-01-20 00:04:36.42	10.40	18.62	-42.4	-44.9	19.1	0.00e+00	0	39	0	204472320	56	4785
2026-01-20 00:04:37.28	10.36	18.72	-42.4	-45.0	19.1	0.00e+00	0	39	0	205520896	56	4824
2026-01-20 00:04:38.41	10.31	18.86	-42.3	-44.9	19.1	0.00e+00	0	39	0	208666624	56	4783
2026-01-20 00:04:39.27	10.28	18.97	-42.3	-44.9	19.2	0.00e+00	0	39	0	209715200	56	4773
2026-01-20 00:04:40.51	10.22	19.12	-42.3	-44.9	19.2	0.00e+00	0	39	0	211812352	56	4777
2026-01-20 00:04:41.37	10.19	19.23	-42.3	-44.8	19.2	0.00e+00	0	39	0	213909504	56	4746
2026-01-20 00:04:42.58	10.13	19.38	-42.3	-44.9	19.2	0.00e+00	0	39	0	216006656	56	4761
2026-01-20 00:04:43.43	10.09	19.48	-42.3	-44.8	19.3	0.00e+00	0	39	0	217055232	56	4717
2026-01-20 00:04:44.63	10.04	19.64	-42.4	-44.8	19.2	0.00e+00	0	39	0	220200960	56	4751
2026-01-20 00:04:45.48	10.00	19.74	-42.4	-44.8	19.2	0.00e+00	0	39	0	221249536	56	4733
2026-01-20 00:04:46.70	9.94	19.90	-42.3	-44.7	19.3	0.00e+00	0	39	0	223346688	56	4694
2026-01-20 00:04:47.55	9.90	20.01	-42.3	-44.8	19.3	0.00e+00	0	39	0	225443840	56	4707
2026-01-20 00:04:48.69	9.85	20.15	-42.3	-44.7	19.4	0.00e+00	0	39	0	227540992	56	4667
2026-01-20 00:04:49.54	9.81	20.26	-42.3	-44.7	19.3	0.00e+00	0	39	0	228589568	56	4700
2026-01-20 00:04:50.68	9.75	20.41	-42.3	-44.7	19.3	0.00e+00	0	39	0	230686720	56	4690
2026-01-20 00:04:51.53	9.71	20.52	-42.3	-44.7	19.4	0.00e+00	0	39	0	232783872	56	4685
2026-01-20 00:04:52.67	9.66	20.67	-42.3	-44.7	19.3	0.00e+00	0	39	0	234881024	56	4677
2026-01-20 00:04:53.52	9.62	20.78	-42.4	-44.7	19.3	0.00e+00	0	39	0	236978176	56	4697
2026-01-20 00:04:54.65	9.56	20.93	-42.2	-44.6	19.5	0.00e+00	0	39	0	239075328	56	4601
2026-01-20 00:04:55.71	9.51	21.07	-42.2	-44.6	19.5	0.00e+00	0	39	0	240123904	56	4604
2026-01-20 00:04:56.57	9.46	21.19	-42.2	-44.5	19.6	0.00e+00	0	39	0	242221056	56	4560
2026-01-20 00:04:57.70	9.41	21.34	-42.2	-44.5	19.5	0.00e+00	0	39	0	244318208	56	4592
2026-01-20 00:04:58.56	9.36	21.46	-42.2	-44.5	19.5	0.00e+00	0	39	0	245366784	56	4580
2026-01-20 00:04:59.70	9.30	21.61	-42.2	-44.5	19.5	0.00e+00	0	39	0	248512512	56	4593
2026-01-20 00:05:00.55	9.26	21.73	-42.1	-44.4	19.6	0.00e+00	0	39	0	249561088	56	4520
2026-01-20 00:05:01.69	9.20	21.88	-42.1	-44.4	19.6	0.00e+00	0	39	0	251658240	56	4520
2026-01-20 00:05:02.54	9.15	22.00	-42.1	-44.3	19.7	0.00e+00	0	39	0	253755392	56	4487
2026-01-20 00:05:03.68	9.09	22.16	-42.0	-44.3	19.8	0.00e+00	0	39	0	255852544	56	4463
2026-01-20 00:05:04.53	9.04	22.28	-41.8	-44.0	19.8	0.00e+00	0	39	0	256901120	55	4585
2026-01-20 00:05:05.67	8.98	22.44	-41.8	-44.1	19.8	0.00e+00	0	39	0	258998272	55	4636
2026-01-20 00:05:06.52	8.93	22.56	-41.8	-44.1	19.8	0.00e+00	0	39	0	261095424	55	4618
2026-01-20 00:05:07.66	8.87	22.72	-41.8	-44.1	19.8	0.00e+00	0	39	0	263192576	55	4624
2026-01-20 00:05:08.64	8.81	22.86	-41.8	-44.1	19.8	0.00e+00	0	39	0	265289728	55	4644
2026-01-20 00:05:09.63	8.76	23.00	-41.8	-44.1	19.8	0.00e+00	0	39	0	266338304	55	4633
2026-01-20 00:05:10.63	8.70	23.14	-41.8	-44.1	19.5	0.00e+00	0	39	0	268435456	55	4605
2026-01-20 00:05:11.62	8.64	23.29	-41.8	-44.1	19.8	0.00e+00	0	39	0	270532608	55	4604
2026-01-20 00:05:12.62	8.58	23.43	-41.7	-44.0	19.9	0.00e+00	0	39	0	272629760	55	4550
2026-01-20 00:05:13.61	8.52	23.58	-41.9	-44.1	19.8	0.00e+00	0	39	0	273678336	55	4645
2026-01-20 00:05:14.94	8.44	23.77	-41.9	-44.1	19.8	0.00e+00	0	39	0	276824064	55	4636
2026-01-20 00:05:15.68	8.40	23.88	-41.9	-44.2	19.7	0.00e+00	0	39	0	277872640	55	4664
2026-01-20 00:05:16.96	8.32	24.07	-42.0	-44.2	19.7	0.00e+00	0	39	0	279969792	55	4696
2026-01-20 00:05:17.69	8.27	24.18	-42.1	-44.3	19.7	0.00e+00	0	39	0	282066944	55	4722
2026-01-20 00:05:18.97	8.19	24.37	-42.2	-44.4	19.5	0.00e+00	0	39	0	284164096	55	4806
2026-01-20 00:05:19.69	8.15	24.48	-42.3	-44.5	19.4	0.00e+00	0	39	0	285212672	55	4843
2026-01-20 00:05:20.97	8.06	24.68	-42.4	-44.6	19.3	0.00e+00	0	39	0	288358400	55	4916
2026-01-20 00:05:21.69	8.02	24.79	-42.4	-44.7	19.3	0.00e+00	0	39	0	289406976	55	4939
2026-01-20 00:05:22.96	7.93	24.98	-42.5	-44.8	19.2	0.00e+00	0	39	0	291504128	55	4999
2026-01-20 00:05:23.68	7.89	25.09	-42.6	-44.8	19.1	0.00e+00	0	39	0	292552704	55	5036
2026-01-20 00:05:24.95	7.80	25.29	-42.7	-45.0	19.0	0.00e+00	0	39	0	295698432	55	5118
2026-01-20 00:05:25.68	7.75	25.41	-42.9	-45.2	19.0	0.00e+00	0	39	0	296747008	56	4937
2026-01-20 00:05:26.96	7.67	25.61	-43.0	-45.4	18.8	0.00e+00	0	39	0	298844160	56	5042
2026-01-20 00:05:27.70	7.61	25.72	-43.1	-45.5	18.7	0.00e+00	0	39	0	300941312	56	5142
2026-01-20 00:05:29.14	7.51	25.95	-43.2	-45.7	18.5	0.00e+00	0	39	0	303038464	57	4930
2026-01-20 00:05:29.85	7.46	26.07	-43.3	-45.7	18.5	0.00e+00	0	39	0	304087040	57	4982
2026-01-20 00:05:31.13	7.37	26.27	-43.3	-45.7	18.5	0.00e+00	0	39	0	307232768	57	4964
2026-01-20 00:05:31.85	7.32	26.39	-43.4	-45.9	18.3	0.00e+00	0	39	0	308281344	57	5045
2026-01-20 00:05:33.13	7.23	26.60	-43.4	-45.9	18.3	0.00e+00	0	39	0	310378496	57	5062
2026-01-20 00:05:33.87	7.17	26.72	-43.4	-45.9	18.3	0.00e+00	0	39	0	312475648	57	5068
2026-01-20 00:05:35.15	7.08	26.93	-43.6	-46.0	18.2	0.00e+00	0	39	0	314572800	57	5155
2026-01-20 00:05:35.88	7.02	27.05	-43.6	-46.1	18.1	0.00e+00	0	39	0	315621376	57	5205
2026-01-20 00:05:37.16	6.93	27.26	-43.7	-46.2	18.0	0.00e+00	0	39	0	318767104	58	4973
2026-01-20 00:05:37.92	6.87	27.39	-43.8	-46.4	17.9	0.00e+00	0	39	0	319815680	58	5055
2026-01-20 00:05:39.19	6.77	27.61	-43.8	-46.4	17.9	0.00e+00	0	39	0	321912832	58	5062
2026-01-20 00:05:40.00	6.70	27.74	-44.0	-46.6	17.6	0.00e+00	0	39	0	324009984	58	5207
2026-01-20 00:05:41.13	6.61	27.94	-44.1	-46.7	17.6	0.00e+00	0	39	0	326107136	58	5232
2026-01-20 00:05:41.98	6.55	28.08	-44.2	-46.8	17.4	0.00e+00	0	39	0	327155712	59	5028
2026-01-20 00:05:43.12	6.45	28.28	-44.3	-47.0	17.3	0.00e+00	0	39	0	329252864	59	5131
2026-01-20 00:05:43.97	6.38	28.43	-44.4	-47.2	17.1	0.00e+00	0	39	0	331350016	59	5233
2026-01-20 00:05:45.11	6.29	28.63	-44.6	-47.3	16.9	0.00e+00	0	39	0	333447168	59	5339
2026-01-20 00:05:45.96	6.22	28.78	-44.8	-47.6	16.7	0.00e+00	0	39	0	334495744	60	5218
2026-01-20 00:05:47.10	6.12	28.98	-44.9	-47.8	16.6	0.00e+00	0	39	0	336592896	60	5330
2026-01-20 00:05:48.30	6.02	29.19	-44.9	-47.8	16.5	0.00e+00	0	39	0	338690048	60	5330
2026-01-20 00:05:49.32	5.93	29.37	-45.1	-48.1	16.3	0.00e+00	0	39	0	340787200	60	5475
2026-01-20 00:05:50.49	5.82	29.58	-45.2	-48.2	16.2	0.00e+00	0	39	0	342884352	61	5256
2026-01-20 00:05:51.34	5.75	29.74	-45.2	-48.3	16.1	0.00e+00	0	39	0	344981504	61	5307
2026-01-20 00:05:52.70	5.62	29.99	-45.3	-48.4	15.9	0.00e+00	0	39	0	347078656	61	5390
2026-01-20 00:05:53.41	5.56	30.12	-45.3	-48.5	15.9	0.00e+00	0	39	0	349175808	61	5416
2026-01-20 00:05:54.69	5.44	30.35	-45.3	-48.4	16.0	0.00e+00	0	39	0	351272960	61	5379
2026-01-20 00:05:55.40	5.37	30.49	-45.3	-48.5	15.9	0.00e+00	0	39	0	352321536	61	5434
2026-01-20 00:05:56.68	5.25	30.72	-45.4	-48.6	15.8	0.00e+00	0	39	0	354418688	61	5502
2026-01-20 00:05:57.40	5.18	30.86	-45.4	-48.7	15.8	0.00e+00	0	39	0	356515840	61	5533
2026-01-20 00:05:58.68	5.06	31.10	-45.4	-48.7	15.7	0.00e+00	0	39	0	358612992	61	5540
2026-01-20 00:05:59.39	4.99	31.24	-45.4	-48.7	15.6	0.00e+00	0	39	0	359661568	61	5592
2026-01-20 00:06:00.67	4.86	31.48	-45.6	-49.0	15.4	0.00e+00	0	39	0	362807296	61	5726
2026-01-20 00:06:01.39	4.79	31.62	-45.7	-49.2	15.2	0.00e+00	0	39	0	363855872	62	5536
2026-01-20 00:06:02.67	4.65	31.87	-45.9	-49.4	15.0	7.00e-07	0	39	0	365953024	62	5686
2026-01-20 00:06:03.59	4.56	32.05	-46.0	-49.5	14.9	0.00e+00	0	39	0	368050176	62	5776
2026-01-20 00:06:04.89	4.42	32.30	-46.2	-49.9	14.6	7.00e-07	0	39	0	370147328	63	5661
2026-01-20 00:06:05.60	4.35	32.45	-46.4	-50.1	14.4	0.00e+00	0	39	0	371195904	63	5792
2026-01-20 00:06:06.88	4.21	32.70	-46.4	-50.1	14.3	7.00e-07	0	39	0	374341632	63	5817
2026-01-20 00:06:07.60	4.13	32.84	-46.4	-50.1	14.3	1.50e-06	0	39	0	375390208	63	5827
2026-01-20 00:06:08.89	3.99	33.10	-46.4	-50.1	14.3	7.00e-07	0	39	0	377487360	63	5822
2026-01-20 00:06:09.60	3.91	33.25	-46.4	-50.1	14.3	1.50e-06	0	39	0	379584512	63	5839
2026-01-20 00:06:10.87	3.76	33.51	-46.4	-50.1	14.2	7.00e-07	0	39	0	381681664	63	5844
2026-01-20 00:06:11.58	3.68	33.65	-46.5	-50.2	14.3	7.00e-07	0	39	0	382730240	63	5898
2026-01-20 00:06:12.86	3.53	33.92	-46.4	-50.1	14.4	3.00e-06	0	39	0	384827392	63	5814
2026-01-20 00:06:13.58	3.45	34.06	-46.5	-50.2	14.3	7.00e-07	0	39	0	386924544	63	5917
2026-01-20 00:06:14.85	3.30	34.33	-46.4	-50.1	14.2	0.00e+00	0	39	0	389021696	63	5831
2026-01-20 00:06:15.58	3.21	34.48	-46.3	-50.0	14.4	0.00e+00	0	39	0	390070272	63	5737
2026-01-20 00:06:16.86	3.05	34.75	-46.1	-49.7	14.8	0.00e+00	0	39	0	393216000	63	5532
2026-01-20 00:06:17.58	2.96	34.91	-46.1	-49.7	14.8	0.00e+00	0	39	0	394264576	63	5547
2026-01-20 00:06:19.16	2.76	35.24	-45.9	-49.4	15.0	0.00e+00	0	39	0	397410304	63	5373
2026-01-20 00:06:19.79	2.68	35.38	-45.8	-49.3	15.1	0.00e+00	0	39	0	398458880	63	5340
2026-01-20 00:06:21.29	2.48	35.71	-45.7	-49.2	15.2	0.00e+00	0	39	0	400556032	63	5221
2026-01-20 00:06:22.00	2.39	35.86	-45.5	-48.9	15.5	0.00e+00	0	39	0	402653184	63	5093
2026-01-20 00:06:23.28	2.22	36.14	-45.6	-49.2	15.2	0.00e+00	0	39	0	404750336	63	5241
2026-01-20 00:06:23.99	2.12	36.30	-45.7	-49.3	15.1	0.00e+00	0	39	0	405798912	63	5324
2026-01-20 00:06:25.27	1.95	36.58	-45.8	-49.5	14.9	0.00e+00	0	39	0	408944640	63	5443
2026-01-20 00:06:25.99	1.85	36.74	-46.0	-49.9	14.6	0.00e+00	0	39	0	409993216	63	5666
2026-01-20 00:06:27.28	1.66	37.03	-46.1	-49.9	14.5	1.50e-06	0	39	0	412090368	63	5721
2026-01-20 00:06:27.99	1.56	37.19	-46.5	-50.5	14.0	7.00e-07	0	39	0	413138944	63	6112
2026-01-20 00:06:29.27	1.37	37.49	-46.5	-50.6	13.8	3.80e-06	0	39	0	416284672	63	6151
2026-01-20 00:06:29.98	1.27	37.65	-46.5	-50.5	14.0	1.50e-06	0	39	0	417333248	63	6084
2026-01-20 00:06:31.26	1.08	37.94	-46.6	-50.5	13.9	2.20e-06	0	39	0	419430400	63	6101
2026-01-20 00:06:31.99	0.97	38.11	-46.7	-50.5	14.0	1.50e-06	0	39	0	421527552	63	6094
2026-01-20 00:06:33.26	0.77	38.41	-46.6	-50.5	14.0	3.00e-06	0	39	0	423624704	64	5732
2026-01-20 00:06:34.10	0.64	38.61	-46.7	-50.5	13.8	7.00e-07	0	39	0	424673280	64	5769
2026-01-20 00:06:35.24	0.46	38.87	-46.9	-50.9	13.5	4.50e-06	0	39	0	426770432	64	6019
2026-01-20 00:06:36.09	0.32	39.08	-46.7	-50.6	13.8	8.30e-06	0	39	0	428867584	64	5795
2026-01-20 00:06:37.23	0.13	39.35	-46.6	-50.5	13.9	1.50e-06	0	39	0	430964736	64	5776
2026-01-20 00:06:38.08	359.99	39.55	-46.6	-50.4	13.9	2.20e-06	0	39	0	433061888	64	5711
2026-01-20 00:06:39.22	359.80	39.83	-46.3	-50.0	14.4	1.50e-06	0	39	0	435159040	64	5448
2026-01-20 00:06:40.08	359.65	40.04	-46.3	-49.9	14.5	7.00e-07	0	39	0	436207616	64	5391
2026-01-20 00:06:41.22	359.45	40.31	-46.2	-49.7	14.7	7.00e-07	0	39	0	438304768	64	5260
2026-01-20 00:06:42.07	359.30	40.52	-46.1	-49.6	14.8	0.00e+00	0	39	0	440401920	64	5165
2026-01-20 00:06:43.30	359.08	40.83	-46.1	-49.6	14.8	0.00e+00	0	39	0	442499072	63	5503
2026-01-20 00:06:44.15	358.93	41.04	-46.0	-49.5	14.9	7.00e-07	0	39	0	443547648	63	5462
2026-01-20 00:06:45.29	358.71	41.32	-45.8	-49.3	15.2	0.00e+00	0	39	0	445644800	63	5289
2026-01-20 00:06:46.14	358.55	41.54	-45.7	-49.1	15.4	0.00e+00	0	39	0	447741952	63	5172
2026-01-20 00:06:47.28	358.33	41.82	-45.6	-48.9	15.6	0.00e+00	0	39	0	449839104	63	5099
2026-01-20 00:06:48.13	358.17	42.04	-45.4	-48.5	16.0	0.00e+00	0	39	0	450887680	62	5138
2026-01-20 00:06:49.27	357.94	42.33	-45.3	-48.4	16.1	0.00e+00	0	39	0	454033408	62	5066
2026-01-20 00:06:50.12	357.77	42.55	-45.3	-48.4	16.1	0.00e+00	0	39	0	455081984	62	5082
2026-01-20 00:06:51.26	357.54	42.84	-45.4	-48.4	16.1	0.00e+00	0	39	0	457179136	62	5091
2026-01-20 00:06:52.11	357.36	43.06	-45.3	-48.4	16.1	0.00e+00	0	39	0	459276288	62	5045
2026-01-20 00:06:53.25	357.12	43.36	-45.4	-48.5	16.0	0.00e+00	0	39	0	461373440	62	5106
2026-01-20 00:06:54.10	356.94	43.58	-45.3	-48.3	16.2	0.00e+00	0	39	0	462422016	62	5029
2026-01-20 00:06:55.24	356.69	43.88	-44.8	-47.7	16.8	0.00e+00	0	39	0	464519168	61	4931
2026-01-20 00:06:56.09	356.50	44.11	-44.5	-47.3	17.1	0.00e+00	0	39	0	466616320	61	4739
2026-01-20 00:06:57.23	356.25	44.41	-44.4	-47.1	17.3	0.00e+00	0	39	0	468713472	60	4905
2026-01-20 00:06:58.08	356.05	44.64	-44.3	-47.1	17.4	0.00e+00	0	39	0	469762048	60	4879
2026-01-20 00:06:59.22	355.79	44.94	-44.4	-47.2	17.3	0.00e+00	0	39	0	471859200	60	4945
2026-01-20 00:07:00.07	355.58	45.17	-44.3	-47.1	17.4	0.00e+00	0	39	0	473956352	60	4906
2026-01-20 00:07:01.32	355.28	45.51	-44.2	-46.9	17.5	0.00e+00	0	39	0	476053504	60	4805
2026-01-20 00:07:02.17	355.07	45.74	-44.1	-46.7	17.7	0.00e+00	0	39	0	478150656	59	4979
2026-01-20 00:07:03.31	354.79	46.06	-44.2	-46.8	17.6	0.00e+00	0	39	0	480247808	59	5028
2026-01-20 00:07:04.16	354.57	46.29	-44.1	-46.8	17.6	0.00e+00	0	39	0	481296384	59	4990
2026-01-20 00:07:05.29	354.28	46.60	-44.1	-46.7	17.7	0.00e+00	0	39	0	483393536	59	4956
2026-01-20 00:07:06.15	354.05	46.84	-44.1	-46.6	17.8	0.00e+00	0	39	0	485490688	59	4908
2026-01-20 00:07:07.29	353.74	47.16	-43.9	-46.4	18.0	0.00e+00	0	39	0	487587840	59	4796
2026-01-20 00:07:08.14	353.51	47.40	-44.0	-46.5	17.9	0.00e+00	0	39	0	488636416	59	4860
2026-01-20 00:07:09.28	353.19	47.72	-44.2	-46.8	17.6	0.00e+00	0	39	0	490733568	59	5021
2026-01-20 00:07:10.13	352.95	47.96	-44.2	-46.8	17.6	0.00e+00	0	39	0	492830720	59	5039
2026-01-20 00:07:11.26	352.63	48.28	-44.1	-46.7	17.7	0.00e+00	0	39	0	494927872	59	4949
2026-01-20 00:07:12.12	352.37	48.52	-44.1	-46.6	17.8	0.00e+00	0	39	0	495976448	59	4918
2026-01-20 00:07:13.65	351.91	48.96	-44.1	-46.7	17.7	0.00e+00	0	39	0	499122176	59	4951
2026-01-20 00:07:14.36	351.69	49.16	-44.1	-46.7	17.7	0.00e+00	0	39	0	500170752	59	4932
2026-01-20 00:07:15.85	351.23	49.59	-44.0	-46.6	17.8	0.00e+00	0	39	0	503316480	59	4907
2026-01-20 00:07:16.56	351.00	49.79	-43.8	-46.4	18.0	0.00e+00	0	39	0	504365056	59	4762
2026-01-20 00:07:17.84	350.58	50.16	-43.7	-46.2	18.2	0.00e+00	0	39	0	507510784	59	4682
2026-01-20 00:07:18.56	350.34	50.37	-43.6	-46.1	18.3	0.00e+00	0	39	0	508559360	59	4605
2026-01-20 00:07:19.84	349.90	50.74	-43.6	-46.0	18.4	0.00e+00	0	39	0	510656512	59	4577
2026-01-20 00:07:20.55	349.66	50.95	-43.6	-46.0	18.5	0.00e+00	0	39	0	511705088	59	4560
2026-01-20 00:07:21.83	349.21	51.32	-43.5	-45.9	18.5	0.00e+00	0	39	0	514850816	58	4798
2026-01-20 00:07:22.55	348.95	51.53	-43.4	-45.8	18.6	0.00e+00	0	39	0	515899392	58	4734
2026-01-20 00:07:23.83	348.48	51.91	-43.1	-45.4	19.0	0.00e+00	0	39	0	517996544	58	4503
2026-01-20 00:07:24.59	348.19	52.13	-42.9	-45.2	19.1	0.00e+00	0	39	0	520093696	57	4680
2026-01-20 00:07:26.17	347.58	52.60	-42.9	-45.2	19.1	0.00e+00	0	39	0	523239424	57	4698
2026-01-20 00:07:26.80	347.34	52.78	-42.7	-45.0	19.3	0.00e+00	0	39	0	524288000	57	4554
2026-01-20 00:07:28.30	346.74	53.23	-42.4	-44.5	19.8	0.00e+00	0	39	0	526385152	56	4584
2026-01-20 00:07:29.18	346.37	53.49	-42.4	-44.6	19.7	0.00e+00	0	39	0	528482304	56	4625
2026-01-20 00:07:30.63	345.76	53.92	-42.9	-45.2	19.2	0.00e+00	0	39	0	530579456	56	4933
2026-01-20 00:07:31.34	345.46	54.13	-43.0	-45.3	19.1	0.00e+00	0	39	0	532676608	56	4991
2026-01-20 00:07:32.86	344.79	54.58	-43.1	-45.5	18.9	0.00e+00	0	39	0	534773760	57	4834
2026-01-20 00:07:33.57	344.47	54.79	-43.4	-45.9	18.5	0.00e+00	0	39	0	536870912	57	5053
2026-01-20 00:07:34.85	343.88	55.16	-44.2	-46.8	17.7	0.00e+00	0	39	0	538968064	59	5020
2026-01-20 00:07:35.57	343.54	55.38	-44.5	-47.2	17.3	0.00e+00	0	39	0	540016640	59	5243
2026-01-20 00:07:36.85	342.92	55.75	-44.7	-47.5	17.0	0.00e+00	0	39	0	543162368	60	5112
2026-01-20 00:07:37.59	342.56	55.97	-45.0	-48.0	16.6	0.00e+00	0	39	0	544210944	60	5409
2026-01-20 00:07:39.06	341.82	56.41	-45.8	-49.1	15.5	0.00e+00	0	39	0	546308096	62	5483
2026-01-20 00:07:39.77	341.46	56.61	-46.1	-49.5	15.0	0.00e+00	0	39	0	548405248	62	5780
2026-01-20 00:07:41.04	340.79	56.99	-46.4	-50.0	14.6	0.00e+00	0	39	0	550502400	63	5733
2026-01-20 00:07:41.75	340.41	57.19	-46.5	-50.3	14.3	0.00e+00	0	39	0	551550976	63	5975
2026-01-20 00:07:43.04	339.70	57.57	-46.2	-49.9	14.6	0.00e+00	0	39	0	554696704	63	5703
2026-01-20 00:07:43.76	339.30	57.78	-46.0	-49.7	14.9	7.00e-07	0	39	0	555745280	63	5536
2026-01-20 00:07:45.04	338.57	58.15	-45.4	-48.7	15.8	0.00e+00	0	39	0	557842432	62	5263
2026-01-20 00:07:45.75	338.15	58.35	-45.5	-48.8	15.8	0.00e+00	0	39	0	558891008	62	5290
2026-01-20 00:07:47.03	337.39	58.72	-45.3	-48.3	16.3	0.00e+00	0	39	0	562036736	62	5022
2026-01-20 00:07:47.74	336.95	58.92	-45.1	-48.1	16.4	0.00e+00	0	39	0	563085312	62	4896
2026-01-20 00:07:49.02	336.15	59.28	-44.7	-47.6	16.9	0.00e+00	0	39	0	565182464	61	4913
2026-01-20 00:07:49.73	335.70	59.48	-44.8	-47.8	16.7	0.00e+00	0	39	0	567279616	61	4995
2026-01-20 00:07:51.01	334.87	59.84	-44.5	-47.3	17.2	0.00e+00	0	39	0	569376768	61	4734
2026-01-20 00:07:51.72	334.39	60.03	-44.3	-46.9	17.5	0.00e+00	0	39	0	570425344	60	4814
2026-01-20 00:07:53.02	333.51	60.39	-43.6	-46.0	18.3	0.00e+00	0	39	0	573571072	59	4592
2026-01-20 00:07:53.73	333.02	60.58	-43.4	-45.8	18.6	0.00e+00	0	39	0	574619648	58	4727
2026-01-20 00:07:55.01	332.11	60.92	-42.6	-44.9	19.4	0.00e+00	0	39	0	576716800	57	4515
2026-01-20 00:07:55.72	331.59	61.11	-42.3	-44.5	19.8	0.00e+00	0	39	0	577765376	56	4569
2026-01-20 00:07:57.00	330.65	61.45	-41.7	-43.8	20.3	0.00e+00	0	39	0	580911104	55	4459
2026-01-20 00:07:57.72	330.10	61.64	-41.6	-43.7	20.3	0.00e+00	0	39	0	581959680	55	4423
2026-01-20 00:07:59.00	329.11	61.96	-41.5	-43.5	20.6	0.00e+00	0	39	0	584056832	54	4577
2026-01-20 00:07:59.71	328.55	62.14	-41.5	-43.5	20.6	0.00e+00	0	39	0	586153984	54	4574
2026-01-20 00:08:01.24	327.32	62.52	-42.2	-44.4	19.7	0.00e+00	0	39	0	588251136	55	4790
2026-01-20 00:08:01.95	326.73	62.70	-42.4	-44.7	19.5	0.00e+00	0	39	0	589299712	55	4953
2026-01-20 00:08:03.23	325.65	63.00	-42.0	-44.2	19.9	0.00e+00	0	39	0	592445440	55	4676
2026-01-20 00:08:03.94	325.04	63.17	-41.9	-44.1	20.0	0.00e+00	0	39	0	593494016	55	4624
2026-01-20 00:08:05.22	323.92	63.47	-41.8	-44.0	20.1	0.00e+00	0	39	0	595591168	55	4569
2026-01-20 00:08:05.96	323.26	63.63	-41.9	-44.0	20.1	0.00e+00	0	39	0	597688320	55	4571
2026-01-20 00:08:07.24	322.09	63.91	-41.8	-43.8	20.2	0.00e+00	0	39	0	599785472	55	4482
2026-01-20 00:08:07.98	321.40	64.07	-41.8	-43.8	20.3	0.00e+00	0	39	0	600834048	55	4488
2026-01-20 00:08:09.26	320.19	64.34	-42.1	-44.2	19.9	0.00e+00	0	39	0	603979776	55	4670
2026-01-20 00:08:09.99	319.49	64.49	-42.2	-44.3	19.8	0.00e+00	0	39	0	605028352	55	4756
2026-01-20 00:08:11.27	318.23	64.74	-42.3	-44.5	19.7	0.00e+00	0	39	0	607125504	55	4845
2026-01-20 00:08:11.99	317.52	64.88	-42.4	-44.6	19.5	0.00e+00	0	39	0	608174080	55	4874
2026-01-20 00:08:13.28	316.21	65.12	-42.9	-45.2	19.2	0.00e+00	0	39	0	611319808	56	4930
2026-01-20 00:08:14.00	315.46	65.25	-43.2	-45.5	18.8	0.00e+00	0	39	0	612368384	57	4831
2026-01-20 00:08:15.28	314.12	65.46	-43.8	-46.2	18.2	0.00e+00	0	39	0	614465536	58	4980
2026-01-20 00:08:16.09	313.26	65.60	-44.3	-46.8	17.6	0.00e+00	0	39	0	616562688	59	5032
2026-01-20 00:08:17.52	311.71	65.82	-44.7	-47.5	17.0	0.00e+00	0	39	0	618659840	60	5140
2026-01-20 00:08:18.23	310.93	65.92	-44.7	-47.4	17.1	0.00e+00	0	39	0	620756992	60	5095
2026-01-20 00:08:19.51	309.51	66.10	-44.5	-47.2	17.4	0.00e+00	0	39	0	622854144	60	4930
2026-01-20 00:08:20.24	308.69	66.19	-44.5	-47.1	17.4	0.00e+00	0	39	0	623902720	60	4896
2026-01-20 00:08:21.52	307.23	66.35	-44.6	-47.3	17.3	0.00e+00	0	39	0	625999872	60	4992
2026-01-20 00:08:22.23	306.41	66.43	-44.6	-47.3	17.2	0.00e+00	0	39	0	628097024	60	5006
2026-01-20 00:08:23.51	304.92	66.57	-44.7	-47.5	17.1	0.00e+00	0	39	0	630194176	60	5143
2026-01-20 00:08:24.23	304.07	66.64	-44.8	-47.5	17.0	0.00e+00	0	39	0	631242752	60	5156
2026-01-20 00:08:25.52	302.54	66.75	-44.8	-47.6	16.9	0.00e+00	0	39	0	634388480	60	5217
2026-01-20 00:08:26.24	301.68	66.80	-44.8	-47.7	16.8	0.00e+00	0	39	0	635437056	60	5221
2026-01-20 00:08:27.52	300.14	66.89	-44.9	-47.7	16.8	0.00e+00	0	39	0	637534208	60	5237
2026-01-20 00:08:28.25	299.26	66.94	-44.7	-47.5	17.0	0.00e+00	0	39	0	638582784	60	5109
2026-01-20 00:08:29.53	297.70	67.00	-44.7	-47.4	17.0	0.00e+00	0	39	0	641728512	60	5069
2026-01-20 00:08:30.24	296.83	67.03	-44.6	-47.3	17.3	0.00e+00	0	39	0	642777088	60	4991
2026-01-20 00:08:31.52	295.26	67.07	-44.7	-47.4	17.1	0.00e+00	0	39	0	644874240	60	5100
2026-01-20 00:08:32.25	294.36	67.08	-44.9	-47.7	16.8	0.00e+00	0	39	0	646971392	60	5239
2026-01-20 00:08:33.52	292.80	67.10	-44.9	-47.8	16.7	0.00e+00	0	39	0	649068544	60	5339
2026-01-20 00:08:34.25	291.90	67.10	-44.6	-47.3	17.2	0.00e+00	0	39	0	650117120	60	5030
2026-01-20 00:08:35.62	290.21	67.09	-44.6	-47.4	17.2	0.00e+00	0	39	0	653262848	60	5067
2026-01-20 00:08:36.33	289.34	67.08	-44.7	-47.5	17.1	0.00e+00	0	39	0	654311424	60	5114
2026-01-20 00:08:37.67	287.69	67.04	-45.0	-47.9	16.7	0.00e+00	0	39	0	656408576	60	5364
2026-01-20 00:08:38.38	286.82	67.01	-45.2	-48.1	16.4	0.00e+00	0	39	0	658505728	61	5209
2026-01-20 00:08:39.66	285.26	66.95	-44.7	-47.5	17.1	0.00e+00	0	39	0	660602880	61	4821
2026-01-20 00:08:40.37	284.40	66.91	-44.8	-47.5	17.0	0.00e+00	0	39	0	661651456	61	4859
2026-01-20 00:08:41.76	282.72	66.82	-44.6	-47.2	17.3	0.00e+00	0	39	0	664797184	61	4700
2026-01-20 00:08:42.47	281.87	66.76	-44.5	-47.2	17.4	0.00e+00	0	39	0	665845760	60	4947
2026-01-20 00:08:43.84	280.25	66.64	-44.4	-47.1	17.4	0.00e+00	0	39	0	667942912	60	4903
2026-01-20 00:08:44.56	279.40	66.57	-44.4	-47.0	17.5	0.00e+00	0	39	0	670040064	60	4863
2026-01-20 00:08:45.83	277.92	66.44	-44.5	-47.2	17.4	0.00e+00	0	39	0	672137216	60	4972
2026-01-20 00:08:46.56	277.08	66.36	-44.4	-47.1	17.4	0.00e+00	0	39	0	673185792	60	4899
2026-01-20 00:08:47.84	275.61	66.20	-44.5	-47.2	17.4	0.00e+00	0	39	0	676331520	60	4960
2026-01-20 00:08:48.58	274.78	66.11	-44.2	-46.9	17.6	0.00e+00	0	39	0	677380096	60	4762
2026-01-20 00:08:49.85	273.36	65.93	-43.9	-46.5	18.0	0.00e+00	0	39	0	679477248	59	4822
2026-01-20 00:08:50.57	272.57	65.82	-43.9	-46.4	18.1	0.00e+00	0	39	0	680525824	59	4772
2026-01-20 00:08:51.85	271.18	65.63	-43.7	-46.1	18.3	0.00e+00	0	39	0	683671552	59	4633
2026-01-20 00:08:52.57	270.41	65.51	-43.5	-45.9	18.5	0.00e+00	0	39	0	684720128	59	4537
2026-01-20 00:08:53.85	269.07	65.30	-43.3	-45.7	18.8	0.00e+00	0	39	0	686817280	58	4652
2026-01-20 00:08:54.59	268.30	65.17	-42.8	-45.0	19.4	0.00e+00	0	39	0	688914432	57	4576
2026-01-20 00:08:55.87	266.99	64.93	-42.3	-44.4	19.9	0.00e+00	0	39	0	691011584	56	4518
2026-01-20 00:08:56.58	266.28	64.80	-42.0	-44.1	20.2	0.00e+00	0	39	0	692060160	56	4385
2026-01-20 00:08:57.86	265.02	64.55	-41.7	-43.8	20.3	0.00e+00	0	39	0	694157312	55	4492
2026-01-20 00:08:58.59	264.31	64.40	-41.8	-43.9	20.3	0.00e+00	0	39	0	696254464	55	4508
2026-01-20 00:08:59.87	263.09	64.13	-41.3	-43.4	20.7	0.00e+00	0	39	0	698351616	54	4505
2026-01-20 00:09:00.58	262.42	63.98	-41.4	-43.4	20.6	0.00e+00	0	39	0	699400192	54	4542
2026-01-20 00:09:01.86	261.25	63.70	-41.4	-43.5	20.6	0.00e+00	0	39	0	702545920	54	4561
2026-01-20 00:09:02.60	260.58	63.53	-41.4	-43.5	20.6	0.00e+00	0	39	0	703594496	54	4573
2026-01-20 00:09:03.88	259.45	63.24	-41.7	-43.8	20.3	0.00e+00	0	39	0	705691648	54	4735
2026-01-20 00:09:04.60	258.83	63.07	-41.8	-44.0	20.1	0.00e+00	0	39	0	706740224	54	4850
2026-01-20 00:09:05.88	257.74	62.77	-42.3	-44.5	19.7	0.00e+00	0	39	0	709885952	55	4827
2026-01-20 00:09:06.62	257.13	62.59	-42.4	-44.6	19.6	0.00e+00	0	39	0	710934528	55	4913
2026-01-20 00:09:07.90	256.08	62.27	-43.0	-45.3	19.1	0.00e+00	0	39	0	713031680	56	5025
2026-01-20 00:09:08.63	255.50	62.09	-43.3	-45.7	18.7	0.00e+00	0	39	0	715128832	57	4968
2026-01-20 00:09:09.91	254.50	61.76	-43.9	-46.4	18.1	0.00e+00	0	39	0	717225984	58	5079
2026-01-20 00:09:10.63	253.95	61.57	-44.3	-46.9	17.6	0.00e+00	0	39	0	718274560	59	5052
2026-01-20 00:09:11.91	252.99	61.24	-44.8	-47.6	17.0	0.00e+00	0	39	0	721420288	60	5193
2026-01-20 00:09:12.64	252.45	61.05	-45.1	-48.0	16.6	0.00e+00	0	39	0	722468864	60	5434
2026-01-20 00:09:14.15	251.37	60.64	-45.4	-48.4	16.2	0.00e+00	0	39	0	725614592	61	5387
2026-01-20 00:09:14.86	250.87	60.45	-45.6	-48.6	16.0	0.00e+00	0	39	0	726663168	61	5524
2026-01-20 00:09:16.14	250.00	60.10	-45.8	-48.9	15.7	0.00e+00	0	39	0	728760320	62	5396
2026-01-20 00:09:16.87	249.51	59.90	-45.8	-49.0	15.6	0.00e+00	0	39	0	729808896	62	5416
2026-01-20 00:09:18.26	248.60	59.51	-45.8	-49.0	15.6	0.00e+00	0	39	0	732954624	62	5430
2026-01-20 00:09:18.97	248.14	59.31	-46.1	-49.3	15.3	0.00e+00	0	39	0	734003200	62	5648
2026-01-20 00:09:20.25	247.34	58.95	-46.5	-49.9	14.7	0.00e+00	0	39	0	736100352	63	5708
2026-01-20 00:09:21.31	246.69	58.64	-46.3	-49.7	14.9	0.00e+00	0	39	0	738197504	63	5555
2026-01-20 00:09:22.16	246.18	58.40	-46.2	-49.5	15.0	0.00e+00	0	39	0	740294656	63	5447
2026-01-20 00:09:23.30	245.51	58.07	-46.1	-49.4	15.1	0.00e+00	0	39	0	742391808	63	5399
2026-01-20 00:09:24.15	245.03	57.83	-46.2	-49.6	15.1	0.00e+00	0	39	0	743440384	63	5467
2026-01-20 00:09:25.30	244.38	57.49	-45.8	-49.0	15.6	0.00e+00	0	39	0	745537536	63	5121
2026-01-20 00:09:26.15	243.91	57.24	-45.2	-48.1	16.5	0.00e+00	0	39	0	747634688	62	4881
2026-01-20 00:09:27.29	243.30	56.91	-44.9	-47.7	16.8	0.00e+00	0	39	0	749731840	61	4960
2026-01-20 00:09:28.14	242.85	56.66	-44.4	-47.0	17.5	0.00e+00	0	39	0	751828992	60	4842
2026-01-20 00:09:29.28	242.27	56.32	-43.9	-46.3	18.1	0.00e+00	0	39	0	753926144	59	4743
2026-01-20 00:09:30.13	241.84	56.07	-43.6	-46.0	18.5	0.00e+00	0	39	0	754974720	59	4568
2026-01-20 00:09:31.27	241.27	55.74	-43.7	-46.1	18.4	0.00e+00	0	39	0	757071872	58	4877
2026-01-20 00:09:32.12	240.86	55.49	-43.7	-46.1	18.4	0.00e+00	0	39	0	759169024	58	4914
2026-01-20 00:09:33.26	240.32	55.15	-43.7	-46.1	18.3	0.00e+00	0	39	0	761266176	58	4914
2026-01-20 00:09:34.27	239.86	54.85	-43.7	-46.1	18.3	0.00e+00	0	39	0	763363328	58	4915
2026-01-20 00:09:35.27	239.40	54.55	-43.7	-46.1	18.3	0.00e+00	0	39	0	764411904	58	4919
2026-01-20 00:09:36.45	238.88	54.20	-43.4	-45.7	18.7	0.00e+00	0	39	0	766509056	58	4697
2026-01-20 00:09:37.34	238.49	53.94	-43.4	-45.7	18.7	0.00e+00	0	39	0	768606208	58	4694
2026-01-20 00:09:38.48	238.01	53.60	-43.5	-45.9	18.5	0.00e+00	0	39	0	770703360	58	4802
2026-01-20 00:09:39.33	237.66	53.35	-43.7	-46.2	18.2	0.00e+00	0	39	0	772800512	58	4953
2026-01-20 00:09:40.47	237.19	53.01	-44.3	-47.0	17.5	0.00e+00	0	39	0	774897664	59	5120
2026-01-20 00:09:41.32	236.85	52.76	-44.6	-47.3	17.2	0.00e+00	0	39	0	775946240	59	5308
2026-01-20 00:09:42.46	236.40	52.42	-44.8	-47.6	17.0	0.00e+00	0	39	0	778043392	60	5180
2026-01-20 00:09:43.31	236.08	52.17	-44.7	-47.5	17.0	0.00e+00	0	39	0	780140544	60	5128
2026-01-20 00:09:44.45	235.65	51.83	-44.4	-47.1	17.4	0.00e+00	0	39	0	782237696	60	4917
2026-01-20 00:09:45.30	235.34	51.58	-44.3	-46.9	17.6	0.00e+00	0	39	0	783286272	60	4813
2026-01-20 00:09:46.44	234.92	51.25	-44.2	-46.8	17.7	0.00e+00	0	39	0	785383424	60	4752
2026-01-20 00:09:47.29	234.62	51.00	-44.3	-46.9	17.6	0.00e+00	0	39	0	787480576	60	4807
2026-01-20 00:09:48.43	234.23	50.66	-44.5	-47.2	17.3	0.00e+00	0	39	0	789577728	60	4953
2026-01-20 00:09:49.28	233.94	50.42	-44.8	-47.6	17.0	0.00e+00	0	39	0	790626304	60	5162
2026-01-20 00:09:50.42	233.56	50.08	-45.2	-48.1	16.5	0.00e+00	0	39	0	792723456	61	5212
2026-01-20 00:09:51.27	233.28	49.84	-45.4	-48.4	16.2	0.00e+00	0	39	0	794820608	61	5392
2026-01-20 00:09:52.41	232.91	49.51	-45.5	-48.5	16.1	0.00e+00	0	39	0	796917760	62	5146
2026-01-20 00:09:53.26	232.64	49.26	-45.3	-48.2	16.3	0.00e+00	0	39	0	797966336	62	4980
2026-01-20 00:09:54.39	232.29	48.94	-45.1	-47.9	16.6	0.00e+00	0	39	0	801112064	62	4788
2026-01-20 00:09:55.31	232.01	48.67	-44.7	-47.4	17.1	0.00e+00	0	39	0	802160640	61	4803
2026-01-20 00:09:56.48	231.66	48.34	-44.4	-47.1	17.4	0.00e+00	0	39	0	804257792	60	4884
2026-01-20 00:09:57.33	231.41	48.10	-44.5	-47.2	17.3	0.00e+00	0	39	0	806354944	60	4936
2026-01-20 00:09:58.47	231.09	47.78	-44.7	-47.4	17.1	0.00e+00	0	39	0	808452096	60	5067
2026-01-20 00:09:59.32	230.85	47.54	-44.9	-47.7	16.9	0.00e+00	0	39	0	809500672	60	5254
2026-01-20 00:10:00.46	230.53	47.22	-44.9	-47.7	16.8	0.00e+00	0	39	0	811597824	60	5272
2026-01-20 00:10:01.32	230.30	46.97	-44.9	-47.7	16.8	0.00e+00	0	39	0	813694976	60	5267
2026-01-20 00:10:02.45	229.99	46.66	-44.9	-47.8	16.8	0.00e+00	0	39	0	815792128	60	5328
2026-01-20 00:10:03.30	229.77	46.42	-44.8	-47.7	16.8	0.00e+00	0	39	0	816840704	60	5270
2026-01-20 00:10:04.44	229.48	46.11	-44.6	-47.5	17.0	0.00e+00	0	39	0	818937856	60	5130
2026-01-20 00:10:05.29	229.26	45.87	-44.6	-47.5	17.1	0.00e+00	0	39	0	821035008	60	5106
2026-01-20 00:10:06.43	228.98	45.56	-44.5	-47.3	17.2	0.00e+00	0	39	0	823132160	60	5019
2026-01-20 00:10:07.28	228.77	45.33	-44.7	-47.5	17.0	0.00e+00	0	39	0	825229312	60	5151
2026-01-20 00:10:08.42	228.50	45.02	-45.0	-48.0	16.5	0.00e+00	0	39	0	827326464	60	5446
2026-01-20 00:10:09.27	228.30	44.79	-45.4	-48.5	16.0	0.00e+00	0	39	0	828375040	61	5410
2026-01-20 00:10:10.41	228.03	44.48	-45.6	-48.7	15.8	0.00e+00	0	39	0	830472192	61	5578
2026-01-20 00:10:11.29	227.83	44.25	-45.6	-48.8	15.8	0.00e+00	0	39	0	832569344	61	5626
2026-01-20 00:10:12.62	227.53	43.89	-45.8	-49.1	15.5	0.00e+00	0	39	0	834666496	62	5465
2026-01-20 00:10:13.33	227.37	43.71	-45.9	-49.2	15.4	0.00e+00	0	39	0	835715072	62	5562
2026-01-20 00:10:14.61	227.10	43.37	-45.9	-49.2	15.4	0.00e+00	0	39	0	838860800	62	5580
2026-01-20 00:10:15.35	226.94	43.17	-46.0	-49.3	15.3	0.00e+00	0	39	0	839909376	62	5618
2026-01-20 00:10:16.63	226.67	42.84	-46.0	-49.3	15.2	0.00e+00	0	39	0	842006528	62	5626
2026-01-20 00:10:17.40	226.51	42.64	-46.1	-49.4	15.1	0.00e+00	0	39	0	844103680	62	5707
2026-01-20 00:10:18.68	226.25	42.31	-46.2	-49.7	14.8	0.00e+00	0	39	0	846200832	63	5543
2026-01-20 00:10:19.39	226.11	42.13	-46.3	-49.8	14.7	7.00e-07	0	39	0	847249408	63	5623
2026-01-20 00:10:20.67	225.86	41.80	-46.5	-50.1	14.5	7.00e-07	0	39	0	850395136	63	5803
2026-01-20 00:10:21.51	225.70	41.59	-46.6	-50.2	14.2	1.50e-06	0	39	0	851443712	63	5896
2026-01-20 00:10:22.64	225.48	41.30	-46.8	-50.7	13.7	6.10e-06	0	39	0	853540864	64	5894
2026-01-20 00:10:23.50	225.32	41.09	-46.9	-50.9	13.6	9.10e-06	0	39	0	855638016	64	5996
2026-01-20 00:10:24.63	225.11	40.80	-47.1	-51.2	13.2	1.90e-05	0	39	0	857735168	64	6246
2026-01-20 00:10:25.83	224.90	40.51	-47.4	-51.8	12.6	3.05e-05	0	39	0	859832320	65	6292
2026-01-20 00:10:26.69	224.74	40.29	-47.3	-51.5	12.8	6.40e-05	0	39	0	860880896	65	6116
2026-01-20 00:10:27.82	224.55	40.02	-47.1	-51.2	13.2	2.28e-05	0	39	0	862978048	65	5867
2026-01-20 00:10:28.68	224.40	39.81	-46.9	-50.8	13.6	1.37e-05	0	39	0	865075200	65	5597
2026-01-20 00:10:29.81	224.20	39.53	-46.7	-50.4	13.9	1.50e-06	0	39	0	867172352	65	5399
2026-01-20 00:10:30.66	224.06	39.33	-46.5	-50.1	14.2	2.20e-06	0	39	0	868220928	65	5217
2026-01-20 00:10:31.80	223.87	39.05	-46.4	-50.2	14.3	0.00e+00	0	39	0	870318080	64	5529
2026-01-20 00:10:32.65	223.74	38.85	-46.6	-50.4	14.0	1.50e-06	0	39	0	872415232	64	5716
2026-01-20 00:10:33.79	223.55	38.58	-46.7	-50.5	13.9	7.00e-07	0	39	0	874512384	64	5783
2026-01-20 00:10:34.64	223.42	38.38	-46.7	-50.6	13.9	3.00e-06	0	39	0	875560960	64	5806
2026-01-20 00:10:35.78	223.24	38.11	-46.6	-50.5	14.0	5.30e-06	0	39	0	878706688	64	5730
2026-01-20 00:10:36.63	223.11	37.92	-46.5	-50.3	14.1	4.50e-06	0	39	0	879755264	64	5597
2026-01-20 00:10:37.77	222.94	37.65	-46.3	-49.9	14.6	1.50e-06	0	39	0	881852416	64	5358
2026-01-20 00:10:38.67	222.80	37.45	-46.2	-49.7	14.7	0.00e+00	0	39	0	883949568	64	5253
2026-01-20 00:10:39.90	222.62	37.16	-46.0	-49.4	15.0	0.00e+00	0	39	0	886046720	64	5090
2026-01-20 00:10:40.75	222.50	36.97	-46.0	-49.3	15.2	0.00e+00	0	39	0	887095296	63	5290
2026-01-20 00:10:41.89	222.34	36.71	-45.6	-48.7	15.8	0.00e+00	0	39	0	889192448	63	4947
2026-01-20 00:10:42.77	222.21	36.52	-45.5	-48.6	15.9	0.00e+00	0	39	0	891289600	62	5176
2026-01-20 00:10:44.08	222.03	36.22	-45.5	-48.5	16.0	0.00e+00	0	39	0	893386752	62	5141
2026-01-20 00:10:44.79	221.94	36.07	-45.4	-48.5	16.0	0.00e+00	0	39	0	895483904	62	5136
2026-01-20 00:10:46.07	221.76	35.78	-45.5	-48.5	16.0	0.00e+00	0	39	0	897581056	62	5128
2026-01-20 00:10:46.78	221.67	35.63	-45.6	-48.7	15.8	0.00e+00	0	39	0	898629632	62	5240
2026-01-20 00:10:48.06	221.50	35.35	-45.7	-48.8	15.7	0.00e+00	0	39	0	901775360	62	5325
2026-01-20 00:10:48.78	221.41	35.19	-45.6	-48.8	15.7	0.00e+00	0	39	0	902823936	62	5295
2026-01-20 00:10:50.05	221.25	34.92	-45.4	-48.4	16.0	0.00e+00	0	39	0	904921088	62	5094
2026-01-20 00:10:50.79	221.15	34.76	-45.3	-48.2	16.2	0.00e+00	0	39	0	905969664	62	4982
2026-01-20 00:10:52.07	220.99	34.49	-45.0	-47.9	16.6	0.00e+00	0	39	0	909115392	62	4774
2026-01-20 00:10:52.78	220.91	34.34	-44.8	-47.7	16.8	0.00e+00	0	39	0	910163968	61	4931
2026-01-20 00:10:54.08	220.75	34.07	-44.9	-47.7	16.7	0.00e+00	0	39	0	912261120	61	4950
2026-01-20 00:10:54.79	220.67	33.92	-44.8	-47.6	16.8	0.00e+00	0	39	0	914358272	61	4914
2026-01-20 00:10:56.13	220.51	33.64	-45.1	-48.0	16.5	0.00e+00	0	39	0	916455424	61	5119
2026-01-20 00:10:56.84	220.43	33.49	-45.4	-48.4	16.1	0.00e+00	0	39	0	917504000	61	5374
2026-01-20 00:10:58.17	220.27	33.22	-45.6	-48.8	15.7	0.00e+00	0	39	0	920649728	61	5612
2026-01-20 00:10:58.88	220.19	33.08	-45.9	-49.2	15.2	0.00e+00	0	39	0	921698304	62	5541
2026-01-20 00:11:00.16	220.05	32.82	-46.1	-49.6	15.0	0.00e+00	0	39	0	923795456	62	5792
2026-01-20 00:11:00.88	219.97	32.67	-46.3	-49.8	14.8	0.00e+00	0	39	0	924844032	63	5594
2026-01-20 00:11:02.16	219.83	32.42	-46.3	-49.8	14.7	0.00e+00	0	39	0	927989760	63	5618
2026-01-20 00:11:02.87	219.75	32.27	-46.4	-50.0	14.5	0.00e+00	0	39	0	929038336	63	5748
2026-01-20 00:11:04.15	219.62	32.02	-46.3	-49.9	14.6	7.00e-07	0	39	0	931135488	63	5687
2026-01-20 00:11:04.91	219.54	31.87	-46.4	-50.0	14.5	1.50e-06	0	39	0	933232640	63	5765
2026-01-20 00:11:06.19	219.41	31.62	-46.4	-50.1	14.4	0.00e+00	0	39	0	935329792	63	5797
2026-01-20 00:11:06.91	219.33	31.48	-46.5	-50.3	14.2	1.50e-06	0	39	0	936378368	63	5975
2026-01-20 00:11:08.19	219.20	31.24	-46.3	-50.0	14.5	7.00e-07	0	39	0	938475520	63	5746
2026-01-20 00:11:08.90	219.13	31.10	-46.4	-50.1	14.4	7.00e-07	0	39	0	940572672	63	5818
2026-01-20 00:11:10.18	219.00	30.86	-46.3	-49.9	14.6	0.00e+00	0	39	0	942669824	63	5674
2026-01-20 00:11:10.90	218.93	30.72	-46.3	-49.9	14.6	7.00e-07	0	39	0	943718400	63	5668
2026-01-20 00:11:12.19	218.81	30.48	-46.4	-50.0	14.6	0.00e+00	0	39	0	946864128	63	5744
2026-01-20 00:11:12.91	218.74	30.34	-46.5	-50.1	14.4	0.00e+00	0	39	0	947912704	63	5793
2026-01-20 00:11:14.19	218.62	30.10	-46.5	-50.1	14.3	0.00e+00	0	39	0	950009856	63	5815
2026-01-20 00:11:14.92	218.55	29.97	-46.5	-50.2	14.2	7.00e-07	0	39	0	952107008	63	5893
2026-01-20 00:11:16.20	218.44	29.73	-46.6	-50.3	14.1	3.00e-06	0	39	0	954204160	63	5982
2026-01-20 00:11:17.27	218.34	29.54	-46.6	-50.5	13.9	0.00e+00	0	39	0	956301312	64	5738
2026-01-20 00:11:18.14	218.26	29.38	-46.7	-50.7	13.7	3.80e-06	0	39	0	957349888	64	5860
2026-01-20 00:11:19.28	218.16	29.18	-46.8	-50.8	13.5	1.06e-05	0	39	0	959447040	64	5967
2026-01-20 00:11:20.13	218.09	29.02	-46.9	-51.0	13.3	1.44e-05	0	39	0	961544192	64	6120
2026-01-20 00:11:21.27	217.99	28.82	-46.8	-50.8	13.5	1.06e-05	0	39	0	963641344	64	5970
2026-01-20 00:11:22.12	217.91	28.67	-46.8	-50.8	13.6	8.30e-06	0	39	0	964689920	64	5956
2026-01-20 00:11:23.25	217.82	28.47	-46.7	-50.5	13.8	7.60e-06	0	39	0	966787072	64	5785
2026-01-20 00:11:24.11	217.75	28.32	-46.4	-50.1	14.2	3.00e-06	0	39	0	968884224	64	5527
2026-01-20 00:11:25.38	217.64	28.10	-46.1	-49.6	14.7	1.50e-06	0	39	0	970981376	64	5217
2026-01-20 00:11:26.09	217.58	27.98	-46.0	-49.4	15.0	0.00e+00	0	39	0	972029952	63	5379
2026-01-20 00:11:27.37	217.48	27.75	-45.7	-49.0	15.5	0.00e+00	0	39	0	975175680	63	5108
2026-01-20 00:11:28.10	217.42	27.63	-45.5	-48.6	15.8	0.00e+00	0	39	0	976224256	63	4926
2026-01-20 00:11:29.63	217.30	27.37	-45.3	-48.4	16.1	0.00e+00	0	39	0	979369984	62	5060
2026-01-20 00:11:30.34	217.24	27.25	-45.3	-48.3	16.2	0.00e+00	0	39	0	980418560	62	5009
2026-01-20 00:11:31.62	217.15	27.04	-45.3	-48.3	16.1	0.00e+00	0	39	0	982515712	62	5026
2026-01-20 00:11:32.34	217.09	26.92	-45.4	-48.4	16.0	0.00e+00	0	39	0	984612864	62	5058
2026-01-20 00:11:33.73	216.99	26.68	-45.5	-48.6	15.8	0.00e+00	0	39	0	986710016	62	5191
2026-01-20 00:11:34.44	216.93	26.57	-45.5	-48.7	15.7	0.00e+00	0	39	0	987758592	62	5243
2026-01-20 00:11:35.72	216.84	26.36	-45.8	-49.1	15.3	0.00e+00	0	39	0	990904320	62	5497
2026-01-20 00:11:36.43	216.79	26.24	-45.8	-49.1	15.3	0.00e+00	0	39	0	991952896	62	5498
2026-01-20 00:11:37.71	216.69	26.03	-46.0	-49.4	15.0	0.00e+00	0	39	0	994050048	62	5718
2026-01-20 00:11:38.42	216.64	25.92	-46.1	-49.5	14.9	0.00e+00	0	39	0	996147200	62	5763
2026-01-20 00:11:39.70	216.55	25.72	-46.0	-49.4	15.0	0.00e+00	0	39	0	998244352	62	5713
2026-01-20 00:11:40.41	216.50	25.60	-46.0	-49.5	15.0	0.00e+00	0	39	0	999292928	62	5729
2026-01-20 00:11:41.69	216.41	25.40	-45.9	-49.2	15.2	7.00e-07	0	39	0	1001390080	62	5567
2026-01-20 00:11:42.40	216.36	25.29	-45.8	-49.1	15.3	0.00e+00	0	39	0	1003487232	62	5500
2026-01-20 00:11:43.68	216.28	25.09	-45.6	-48.9	15.5	0.00e+00	0	39	0	1005584384	62	5362
2026-01-20 00:11:44.39	216.23	24.98	-45.5	-48.7	15.8	0.00e+00	0	39	0	1006632960	62	5221
2026-01-20 00:11:45.67	216.14	24.78	-45.2	-48.3	16.1	0.00e+00	0	39	0	1009778688	62	5031
2026-01-20 00:11:46.57	216.09	24.64	-45.1	-48.1	16.3	0.00e+00	0	39	0	1010827264	62	4903
2026-01-20 00:11:47.61	216.02	24.48	-45.1	-48.1	16.3	0.00e+00	0	39	0	1012924416	62	4879
2026-01-20 00:11:48.61	215.95	24.33	-44.8	-47.6	16.7	0.00e+00	0	39	0	1015021568	61	4926
2026-01-20 00:11:49.61	215.89	24.18	-44.9	-47.9	16.5	0.00e+00	0	39	0	1017118720	61	5044
2026-01-20 00:11:50.97	215.80	23.97	-44.7	-47.5	16.9	0.00e+00	0	39	0	1019215872	61	4819
2026-01-20 00:11:51.68	215.76	23.87	-44.6	-47.4	16.9	0.00e+00	0	39	0	1020264448	61	4806
2026-01-20 00:11:53.32	215.66	23.62	-44.6	-47.4	16.9	0.00e+00	0	39	0	1023410176	61	4801
2026-01-20 00:11:53.89	215.62	23.54	-44.6	-47.4	17.0	0.00e+00	0	39	0	1024458752	61	4771
2026-01-20 00:11:55.59	215.52	23.29	-44.6	-47.5	16.9	0.00e+00	0	39	0	1027604480	61	4825
2026-01-20 00:11:56.16	215.49	23.20	-44.7	-47.5	16.9	0.00e+00	0	39	0	1028653056	61	4818
2026-01-20 00:11:57.87	215.38	22.96	-44.5	-47.3	17.0	0.00e+00	0	39	0	1031798784	61	4755
2026-01-20 00:11:58.43	215.35	22.88	-44.5	-47.2	17.1	0.00e+00	0	39	0	1032847360	60	4974
2026-01-20 00:12:00.14	215.25	22.63	-44.5	-47.4	17.0	0.00e+00	0	39	0	1035993088	60	5046
2026-01-20 00:12:00.71	215.22	22.55	-44.5	-47.3	17.0	0.00e+00	0	39	0	1037041664	60	5014
2026-01-20 00:12:02.41	215.12	22.31	-44.2	-46.9	17.4	0.00e+00	0	39	0	1040187392	60	4802
2026-01-20 00:12:02.98	215.09	22.23	-44.1	-46.8	17.5	0.00e+00	0	39	0	1041235968	60	4739
2026-01-20 00:12:04.69	215.00	21.99	-44.2	-46.9	17.4	0.00e+00	0	39	0	1045430272	60	4784
2026-01-20 00:12:05.52	214.95	21.87	-44.0	-46.7	17.7	0.00e+00	0	39	0	1046478848	60	4655
2026-01-20 00:12:06.66	214.89	21.72	-44.0	-46.6	17.7	0.00e+00	0	39	0	1048576000	60	4625
2026-01-20 00:12:07.84	214.83	21.55	-43.8	-46.4	17.8	0.00e+00	0	39	0	1050673152	59	4781
2026-01-20 00:12:08.85	214.77	21.42	-43.8	-46.4	17.8	0.00e+00	0	39	0	1052770304	59	4778
2026-01-20 00:12:10.01	214.71	21.26	-43.9	-46.5	17.8	0.00e+00	0	39	0	1054867456	59	4818
2026-01-20 00:12:10.86	214.67	21.14	-43.9	-46.4	17.7	0.00e+00	0	39	0	1056964608	59	4807
2026-01-20 00:12:12.00	214.61	20.99	-44.1	-46.7	17.5	0.00e+00	0	39	0	1059061760	59	4966
2026-01-20 00:12:12.85	214.57	20.88	-44.1	-46.7	17.5	0.00e+00	0	39	0	1060110336	59	4970
2026-01-20 00:12:13.99	214.51	20.72	-44.2	-46.9	17.4	0.00e+00	0	39	0	1062207488	59	5062
2026-01-20 00:12:14.84	214.47	20.61	-44.2	-46.9	17.3	0.00e+00	0	39	0	1064304640	59	5096
2026-01-20 00:12:15.98	214.41	20.46	-44.4	-47.1	17.1	0.00e+00	0	39	0	1066401792	59	5193
2026-01-20 00:12:16.83	214.37	20.35	-44.4	-47.2	17.1	0.00e+00	0	39	0	1067450368	59	5237
2026-01-20 00:12:17.96	214.31	20.20	-44.4	-47.2	17.0	0.00e+00	0	39	0	1069547520	59	5253
2026-01-20 00:12:18.82	214.27	20.09	-44.6	-47.4	16.8	0.00e+00	0	39	0	1071644672	59	5366
2026-01-20 00:12:19.95	214.22	19.95	-44.5	-47.3	16.9	0.00e+00	0	39	0	1073741824	59	5307
2026-01-20 00:12:20.81	214.17	19.84	-44.6	-47.4	16.9	0.00e+00	0	39	0	1074790400	59	5361
2026-01-20 00:12:21.94	214.12	19.69	-44.5	-47.3	16.9	0.00e+00	0	39	0	1076887552	59	5336
2026-01-20 00:12:22.80	214.08	19.58	-44.6	-47.4	16.9	0.00e+00	0	39	0	1078984704	59	5374
2026-01-20 00:12:24.11	214.02	19.42	-44.6	-47.4	16.8	0.00e+00	0	39	0	1081081856	59	5391
2026-01-20 00:12:24.82	213.99	19.33	-44.5	-47.3	16.9	0.00e+00	0	39	0	1083179008	59	5308
2026-01-20 00:12:26.32	213.92	19.14	-44.6	-47.5	16.8	0.00e+00	0	39	0	1085276160	59	5405
2026-01-20 00:12:27.03	213.89	19.05	-44.5	-47.3	16.9	0.00e+00	0	39	0	1086324736	59	5310
2026-01-20 00:12:28.31	213.83	18.89	-44.4	-47.2	17.0	0.00e+00	0	39	0	1089470464	59	5269
2026-01-20 00:12:29.02	213.80	18.80	-44.4	-47.2	17.0	0.00e+00	0	39	0	1090519040	59	5273
2026-01-20 00:12:30.29	213.74	18.65	-44.4	-47.1	17.1	0.00e+00	0	39	0	1092616192	59	5213
2026-01-20 00:12:31.01	213.71	18.56	-44.3	-47.1	17.1	0.00e+00	0	39	0	1094713344	59	5185
2026-01-20 00:12:32.28	213.66	18.41	-44.3	-47.0	17.2	0.00e+00	0	39	0	1096810496	59	5138
2026-01-20 00:12:33.01	213.62	18.32	-44.4	-47.1	17.1	0.00e+00	0	39	0	1097859072	59	5200
2026-01-20 00:12:34.29	213.57	18.16	-44.1	-46.8	17.3	0.00e+00	0	39	0	1099956224	59	5035
2026-01-20 00:12:35.00	213.54	18.08	-44.2	-46.9	17.3	0.00e+00	0	39	0	1102053376	59	5044
2026-01-20 00:12:36.28	213.49	17.92	-44.1	-46.8	17.4	0.00e+00	0	39	0	1104150528	59	5034
2026-01-20 00:12:36.99	213.46	17.84	-44.1	-46.8	17.4	0.00e+00	0	39	0	1105199104	59	5023
2026-01-20 00:12:38.26	213.41	17.69	-44.1	-46.7	17.4	0.00e+00	0	39	0	1108344832	59	4981
2026-01-20 00:12:38.99	213.38	17.60	-44.1	-46.8	17.4	0.00e+00	0	39	0	1109393408	59	5007
2026-01-20 00:12:40.27	213.32	17.45	-44.3	-47.0	17.2	0.00e+00	0	39	0	1111490560	59	5123
2026-01-20 00:12:41.18	213.29	17.35	-44.1	-46.8	17.4	0.00e+00	0	39	0	1113587712	59	5001
2026-01-20 00:12:42.48	213.24	17.20	-44.1	-46.7	17.4	0.00e+00	0	39	0	1115684864	59	4968
2026-01-20 00:12:43.19	213.21	17.12	-44.2	-46.9	17.3	0.00e+00	0	39	0	1116733440	59	5054
2026-01-20 00:12:44.47	213.16	16.97	-44.3	-46.9	17.2	0.00e+00	0	39	0	1119879168	59	5097
2026-01-20 00:12:45.20	213.13	16.89	-44.3	-47.0	17.2	0.00e+00	0	39	0	1120927744	59	5120
2026-01-20 00:12:46.47	213.08	16.74	-44.4	-47.1	17.0	0.00e+00	0	39	0	1123024896	59	5218
2026-01-20 00:12:47.19	213.05	16.66	-44.4	-47.2	17.0	0.00e+00	0	39	0	1124073472	59	5224
2026-01-20 00:12:48.48	213.00	16.51	-44.5	-47.3	16.8	0.00e+00	0	39	0	1127219200	59	5329
2026-01-20 00:12:49.19	212.98	16.43	-44.5	-47.3	16.8	0.00e+00	0	39	0	1128267776	59	5333
2026-01-20 00:12:50.47	212.93	16.29	-44.6	-47.5	16.7	0.00e+00	0	39	0	1130364928	59	5409
2026-01-20 00:12:51.19	212.90	16.21	-44.7	-47.6	16.6	0.00e+00	0	39	0	1132462080	59	5465
2026-01-20 00:12:52.47	212.86	16.07	-44.7	-47.7	16.5	0.00e+00	0	39	0	1134559232	60	5233
2026-01-20 00:12:53.20	212.83	15.99	-44.8	-47.7	16.5	0.00e+00	0	39	0	1135607808	60	5260
2026-01-20 00:12:54.57	212.78	15.84	-44.7	-47.7	16.5	0.00e+00	0	39	0	1138753536	60	5248
2026-01-20 00:12:55.28	212.76	15.76	-44.8	-47.8	16.4	0.00e+00	0	39	0	1139802112	60	5299
2026-01-20 00:12:56.62	212.71	15.61	-44.8	-47.9	16.4	0.00e+00	0	39	0	1141899264	60	5341
2026-01-20 00:12:57.33	212.68	15.54	-44.8	-47.8	16.3	0.00e+00	0	39	0	1143996416	60	5336
2026-01-20 00:12:58.61	212.64	15.40	-44.9	-47.9	16.3	0.00e+00	0	39	0	1146093568	60	5377
2026-01-20 00:12:59.32	212.61	15.32	-44.9	-48.0	16.2	0.00e+00	0	39	0	1147142144	60	5418
2026-01-20 00:13:00.60	212.57	15.19	-44.9	-47.9	16.2	0.00e+00	0	39	0	1149239296	60	5399
2026-01-20 00:13:01.33	212.54	15.11	-44.9	-47.9	16.2	0.00e+00	0	39	0	1151336448	60	5391
2026-01-20 00:13:02.61	212.50	14.97	-44.8	-47.8	16.4	0.00e+00	0	39	0	1153433600	60	5309
2026-01-20 00:13:03.33	212.48	14.90	-44.8	-47.8	16.3	0.00e+00	0	39	0	1154482176	60	5332
2026-01-20 00:13:04.61	212.43	14.76	-44.8	-47.9	16.3	0.00e+00	0	39	0	1157627904	60	5354
2026-01-20 00:13:05.34	212.41	14.69	-44.8	-47.8	16.4	0.00e+00	0	39	0	1158676480	60	5297
2026-01-20 00:13:06.62	212.37	14.55	-44.8	-47.9	16.3	0.00e+00	0	39	0	1160773632	60	5345
2026-01-20 00:13:07.34	212.34	14.48	-44.8	-47.8	16.3	0.00e+00	0	39	0	1162870784	60	5338
2026-01-20 00:13:08.62	212.30	14.34	-44.8	-47.8	16.4	0.00e+00	0	39	0	1164967936	60	5321
2026-01-20 00:13:09.44	212.28	14.26	-44.8	-47.8	16.3	0.00e+00	0	39	0	1166016512	60	5330
2026-01-20 00:13:10.58	212.24	14.14	-44.8	-47.9	16.3	0.00e+00	0	39	0	1168113664	60	5367
2026-01-20 00:13:11.43	212.21	14.06	-44.8	-47.8	16.4	0.00e+00	0	39	0	1170210816	60	5303
2026-01-20 00:13:12.57	212.18	13.94	-44.8	-47.8	16.3	0.00e+00	0	39	0	1172307968	60	5326
2026-01-20 00:13:13.42	212.15	13.85	-44.8	-47.9	16.3	0.00e+00	0	39	0	1173356544	60	5348
2026-01-20 00:13:14.56	212.12	13.74	-44.9	-47.9	16.2	0.00e+00	0	39	0	1175453696	60	5375
2026-01-20 00:13:15.41	212.09	13.65	-44.9	-48.0	16.2	0.00e+00	0	39	0	1177550848	60	5420
2026-01-20 00:13:16.55	212.06	13.54	-44.9	-48.0	16.2	0.00e+00	0	39	0	1179648000	60	5427
2026-01-20 00:13:17.40	212.03	13.46	-44.9	-48.0	16.2	0.00e+00	0	39	0	1181745152	60	5403
2026-01-20 00:13:18.54	212.00	13.34	-44.9	-48.0	16.1	0.00e+00	0	39	0	1183842304	60	5424
2026-01-20 00:13:19.39	211.97	13.26	-44.9	-48.0	16.2	0.00e+00	0	39	0	1184890880	60	5418
2026-01-20 00:13:20.62	211.93	13.14	-45.0	-48.1	16.1	0.00e+00	0	39	0	1186988032	60	5473
2026-01-20 00:13:21.48	211.91	13.05	-45.0	-48.1	16.0	0.00e+00	0	39	0	1189085184	60	5525
2026-01-20 00:13:22.61	211.88	12.94	-45.1	-48.2	15.9	0.00e+00	0	39	0	1191182336	60	5577
2026-01-20 00:13:23.47	211.85	12.86	-45.7	-48.7	15.8	0.00e+00	0	39	0	1192230912	61	5531
2026-01-20 00:13:24.60	211.82	12.75	-45.1	-48.1	16.0	0.00e+00	0	39	0	1194328064	61	5217
2026-01-20 00:13:25.46	211.79	12.67	-45.1	-48.2	15.9	0.00e+00	0	39	0	1196425216	61	5239
2026-01-20 00:13:26.60	211.76	12.56	-45.2	-48.3	15.8	0.00e+00	0	39	0	1198522368	61	5313
2026-01-20 00:13:27.45	211.74	12.48	-45.2	-48.4	15.7	0.00e+00	0	39	0	1199570944	61	5368
2026-01-20 00:13:28.59	211.71	12.37	-45.2	-48.3	15.8	0.00e+00	0	39	0	1202716672	61	5332
2026-01-20 00:13:29.44	211.68	12.29	-45.2	-48.4	15.7	0.00e+00	0	39	0	1203765248	61	5345
2026-01-20 00:13:30.57	211.65	12.18	-45.3	-48.5	15.6	0.00e+00	0	39	0	1205862400	61	5416
2026-01-20 00:13:31.43	211.63	12.10	-45.3	-48.6	15.5	0.00e+00	0	39	0	1207959552	61	5474
2026-01-20 00:13:32.56	211.60	11.99	-45.3	-48.5	15.6	0.00e+00	0	39	0	1210056704	61	5412
2026-01-20 00:13:33.42	211.57	11.91	-45.2	-48.4	15.6	0.00e+00	0	39	0	1211105280	61	5381
2026-01-20 00:13:34.55	211.54	11.81	-45.3	-48.5	15.5	0.00e+00	0	39	0	1213202432	61	5456
2026-01-20 00:13:35.41	211.52	11.73	-45.3	-48.6	15.5	0.00e+00	0	39	0	1215299584	61	5465
2026-01-20 00:13:36.54	211.49	11.62	-45.4	-48.6	15.5	0.00e+00	0	39	0	1217396736	61	5485
2026-01-20 00:13:37.39	211.47	11.54	-45.4	-48.6	15.4	0.00e+00	0	39	0	1218445312	61	5510
2026-01-20 00:13:38.53	211.44	11.44	-45.4	-48.7	15.4	0.00e+00	0	39	0	1220542464	61	5567
2026-01-20 00:13:39.39	211.42	11.36	-45.5	-48.8	15.3	0.00e+00	0	39	0	1222639616	61	5624
2026-01-20 00:13:40.52	211.39	11.26	-45.5	-48.8	15.2	0.00e+00	0	39	0	1224736768	61	5638
2026-01-20 00:13:41.38	211.36	11.18	-45.5	-48.9	15.2	0.00e+00	0	39	0	1225785344	61	5673
2026-01-20 00:13:42.51	211.34	11.08	-45.6	-48.9	15.1	0.00e+00	0	39	0	1227882496	61	5702
2026-01-20 00:13:43.36	211.31	11.00	-45.6	-49.0	15.1	0.00e+00	0	39	0	1229979648	61	5726
2026-01-20 00:13:44.50	211.29	10.90	-45.5	-48.9	15.2	0.00e+00	0	39	0	1232076800	61	5698
2026-01-20 00:13:45.35	211.26	10.82	-45.5	-48.9	15.1	0.00e+00	0	39	0	1233125376	61	5708
2026-01-20 00:13:46.49	211.24	10.72	-45.6	-49.0	15.0	0.00e+00	0	39	0	1236271104	61	5779
2026-01-20 00:13:47.34	211.22	10.64	-45.6	-49.0	15.0	0.00e+00	0	39	0	1237319680	61	5759
2026-01-20 00:13:48.48	211.19	10.54	-45.6	-49.0	15.0	0.00e+00	0	39	0	1239416832	61	5779
