passes_logs/2026/01/20/T1/T1__20260120_184825_FENGYUN_3G_rec.log

#Pass ID: 20260120_184825_FENGYUN 3G
#Satellite: FENGYUN 3G
#Configuration: FENGYUN 3G
#almurnet v.1.7.20251203
#Start time: 2026-01-20 18:48:25

#Version: 2.0.20230620
#Station: T1
#Location: 37.570604 lon 55.790049 lat
#TLE: 1 56232U 23055A   26020.00144243  .00036531  00000+0  56251-3 0  9990
#TLE: 2 56232  49.9940  30.1229 0004155  52.6154 307.5191 15.53783627156971

#Time	Az	El	Level	Level2	SNR	BER	BlckErr	Temp	State	Recorded	gain1	gain2
2026-01-20 18:48:25.22	200.51	5.13	-49.4	-69.3	3.8	8.47e-01	0	41	0	0	70	35381
2026-01-20 18:48:26.21	200.36	5.19	-49.7	-69.1	3.8	8.38e-01	0	41	104	0	71	32655
2026-01-20 18:48:27.21	200.20	5.25	-49.7	-69.1	3.8	8.46e-01	0	41	104	0	71	32623
2026-01-20 18:48:28.20	200.04	5.31	-49.7	-69.1	3.8	8.47e-01	0	41	104	0	71	32669
2026-01-20 18:48:29.19	199.89	5.37	-49.7	-69.1	3.8	8.47e-01	0	41	104	0	71	32781
2026-01-20 18:48:30.19	199.73	5.43	-49.7	-69.1	3.8	8.47e-01	0	41	104	0	71	32776
2026-01-20 18:48:31.18	199.57	5.49	-49.7	-69.1	3.8	8.47e-01	0	41	104	0	71	32661
2026-01-20 18:48:32.17	199.41	5.56	-49.7	-69.1	3.8	8.47e-01	0	41	104	0	71	32616
2026-01-20 18:48:33.16	199.25	5.62	-49.7	-69.0	3.8	8.47e-01	0	41	104	0	71	32458
2026-01-20 18:48:34.16	199.09	5.68	-49.7	-69.0	3.8	8.47e-01	0	41	104	0	71	32475
2026-01-20 18:48:35.15	198.92	5.74	-49.7	-69.1	3.8	8.47e-01	0	41	104	0	71	32611
2026-01-20 18:48:36.14	198.76	5.80	-49.7	-69.1	3.8	8.47e-01	0	41	104	0	71	32632
2026-01-20 18:48:37.14	198.59	5.86	-49.7	-69.1	3.8	8.46e-01	0	41	104	0	71	32601
2026-01-20 18:48:38.13	198.43	5.93	-49.7	-69.1	3.8	8.46e-01	0	41	104	0	71	32562
2026-01-20 18:48:39.12	198.26	5.99	-49.7	-69.0	3.8	8.47e-01	0	41	104	0	71	32523
2026-01-20 18:48:40.12	198.09	6.05	-49.7	-69.0	3.8	8.47e-01	0	41	104	0	71	32541
2026-01-20 18:48:41.11	197.92	6.11	-49.7	-69.1	3.8	8.47e-01	0	41	104	0	71	32675
2026-01-20 18:48:42.10	197.75	6.17	-49.7	-69.1	3.8	8.47e-01	0	41	104	0	71	32596
2026-01-20 18:48:43.10	197.58	6.23	-49.7	-69.1	3.8	8.47e-01	0	41	104	0	71	32683
2026-01-20 18:48:44.09	197.41	6.30	-49.7	-69.0	3.8	8.46e-01	0	41	104	0	71	32482
2026-01-20 18:48:45.08	197.24	6.36	-49.7	-69.0	3.8	8.46e-01	0	41	104	0	71	32237
2026-01-20 18:48:46.08	197.06	6.42	-49.7	-68.9	3.8	8.47e-01	0	41	104	0	71	32030
2026-01-20 18:48:47.07	196.89	6.48	-49.7	-68.9	3.8	8.47e-01	0	41	104	0	71	31942
2026-01-20 18:48:48.06	196.71	6.54	-49.7	-69.0	3.8	8.47e-01	0	42	104	0	71	32184
2026-01-20 18:48:49.05	196.54	6.61	-49.7	-69.0	3.8	8.47e-01	0	41	104	0	71	32498
2026-01-20 18:48:50.05	196.36	6.67	-49.7	-69.1	3.8	8.47e-01	0	41	104	0	71	32694
2026-01-20 18:48:51.04	196.18	6.73	-49.7	-69.1	3.8	8.47e-01	0	41	104	0	71	32681
2026-01-20 18:48:52.03	196.00	6.79	-49.7	-69.1	3.8	8.47e-01	0	41	104	0	71	32738
2026-01-20 18:48:53.03	195.81	6.86	-49.7	-69.1	3.8	8.47e-01	0	41	104	0	71	32556
2026-01-20 18:48:54.02	195.63	6.92	-49.7	-69.0	3.8	8.47e-01	0	42	104	0	71	32422
2026-01-20 18:48:55.01	195.45	6.98	-49.7	-69.0	3.8	8.47e-01	0	42	104	0	71	32277
2026-01-20 18:48:56.00	195.26	7.04	-49.7	-69.0	3.8	8.47e-01	0	42	104	0	71	32439
2026-01-20 18:48:57.00	195.08	7.11	-49.7	-69.0	3.8	8.47e-01	0	42	104	0	71	32473
2026-01-20 18:48:57.99	194.89	7.17	-49.7	-69.0	3.8	8.48e-01	0	42	104	0	71	32548
2026-01-20 18:48:58.98	194.70	7.23	-49.7	-69.1	3.8	8.48e-01	0	42	104	0	71	32759
2026-01-20 18:48:59.98	194.51	7.29	-49.7	-69.0	3.8	8.48e-01	0	42	104	0	71	32547
2026-01-20 18:49:00.97	194.32	7.35	-49.7	-68.9	3.8	8.47e-01	0	42	104	0	71	32119
2026-01-20 18:49:01.96	194.13	7.42	-49.7	-68.8	3.8	8.46e-01	0	42	104	0	71	31717
2026-01-20 18:49:02.96	193.94	7.48	-49.7	-68.8	3.8	8.46e-01	0	42	104	0	71	31468
2026-01-20 18:49:03.95	193.74	7.54	-49.7	-68.8	3.8	8.48e-01	0	42	104	0	71	31627
2026-01-20 18:49:04.94	193.55	7.60	-49.7	-68.9	3.8	8.48e-01	0	42	104	0	71	31837
2026-01-20 18:49:05.94	193.35	7.67	-49.7	-69.0	3.8	8.47e-01	0	42	104	0	71	32250
2026-01-20 18:49:06.93	193.15	7.73	-49.7	-69.1	3.8	8.47e-01	0	42	104	0	71	32680
2026-01-20 18:49:07.92	192.96	7.79	-49.7	-69.0	3.8	8.47e-01	0	42	104	0	71	32405
2026-01-20 18:49:08.92	192.76	7.85	-49.7	-68.9	3.8	8.46e-01	0	42	104	0	71	32095
2026-01-20 18:49:09.91	192.55	7.92	-49.7	-69.1	3.8	8.46e-01	0	42	104	0	71	32598
2026-01-20 18:49:10.90	192.35	7.98	-49.7	-69.0	3.8	8.48e-01	0	42	104	0	71	32538
2026-01-20 18:49:11.89	192.15	8.04	-49.7	-68.6	3.8	8.49e-01	0	42	104	0	71	30915
2026-01-20 18:49:12.89	191.94	8.10	-49.7	-68.4	3.8	8.49e-01	0	42	104	0	71	30062
2026-01-20 18:49:13.88	191.74	8.17	-49.7	-68.6	3.8	8.47e-01	0	42	104	0	71	31055
2026-01-20 18:49:14.87	191.53	8.23	-49.7	-68.9	3.8	8.46e-01	0	42	104	0	71	32098
2026-01-20 18:49:15.87	191.32	8.29	-49.7	-68.4	3.8	8.46e-01	0	42	104	0	71	30369
2026-01-20 18:49:16.86	191.11	8.35	-49.7	-67.6	3.8	8.47e-01	0	42	104	0	71	27420
2026-01-20 18:49:17.85	190.90	8.41	-49.7	-67.3	3.8	8.47e-01	0	42	104	0	71	26719
2026-01-20 18:49:18.85	190.69	8.48	-49.7	-68.2	3.8	8.47e-01	0	42	104	0	71	29431
2026-01-20 18:49:19.84	190.48	8.54	-49.7	-68.6	3.8	8.46e-01	0	42	104	0	71	31000
2026-01-20 18:49:20.83	190.26	8.60	-49.7	-67.2	3.8	8.45e-01	0	42	104	0	71	26394
2026-01-20 18:49:21.83	190.05	8.66	-49.6	-66.1	3.9	8.45e-01	0	42	104	0	71	23202
2026-01-20 18:49:22.82	189.83	8.72	-49.6	-66.3	3.9	8.44e-01	0	42	104	0	71	23674
2026-01-20 18:49:23.81	189.61	8.79	-49.5	-63.4	5.0	8.41e-01	0	42	0	0	71	16972
2026-01-20 18:49:24.81	189.39	8.85	-49.1	-59.1	8.6	8.41e-01	0	42	0	0	70	10973
2026-01-20 18:49:25.80	189.17	8.91	-48.6	-56.5	11.3	4.10e-01	0	42	0	0	69	8597
2026-01-20 18:49:26.79	188.95	8.97	-48.4	-55.8	12.2	6.22e-03	0	42	0	0	68	8375
2026-01-20 18:49:27.78	188.73	9.03	-48.8	-57.1	10.8	9.42e-04	0	43	0	0	68	9759
2026-01-20 18:49:28.78	188.50	9.09	-49.3	-60.8	7.2	9.42e-04	0	42	0	0	69	14120
2026-01-20 18:49:29.77	188.28	9.15	-48.4	-55.7	12.4	1.21e-01	0	42	0	0	68	8339
2026-01-20 18:49:30.77	188.05	9.22	-49.4	-61.5	7.1	2.16e-02	0	43	0	0	69	15277
2026-01-20 18:49:31.76	187.82	9.28	-45.7	-49.5	18.1	2.16e-02	0	42	0	0	63	5431
2026-01-20 18:49:32.76	187.59	9.34	-49.3	-60.5	7.7	2.82e-01	0	42	0	0	69	13605
2026-01-20 18:49:33.75	187.36	9.40	-46.1	-50.3	16.9	9.37e-02	0	43	0	0	64	5612
2026-01-20 18:49:34.75	187.13	9.46	-44.5	-47.6	20.6	9.37e-02	0	42	0	0	60	5183
2026-01-20 18:49:35.74	186.89	9.52	-44.5	-47.6	20.7	0.00e+00	0	43	0	0	60	5194
2026-01-20 18:49:36.74	186.66	9.58	-44.6	-47.8	20.2	0.00e+00	0	42	0	0	60	5303
2026-01-20 18:49:37.73	186.42	9.64	-44.3	-47.4	20.2	0.00e+00	0	42	0	0	60	5074
2026-01-20 18:49:38.73	186.18	9.70	-44.5	-47.6	20.2	0.00e+00	0	42	0	0	60	5201
2026-01-20 18:49:39.72	185.94	9.76	-44.5	-47.6	20.1	0.00e+00	0	42	0	0	60	5203
2026-01-20 18:49:40.72	185.70	9.82	-44.1	-47.2	20.7	0.00e+00	0	42	0	0	60	4958
2026-01-20 18:49:41.71	185.46	9.88	-44.2	-47.4	20.4	0.00e+00	0	43	0	0	60	5070
2026-01-20 18:49:42.71	185.22	9.94	-44.0	-47.0	21.0	0.00e+00	0	43	0	0	59	5158
2026-01-20 18:49:43.70	184.97	10.00	-43.9	-46.9	21.1	0.00e+00	0	43	0	0	59	5062
2026-01-20 18:49:44.69	184.73	10.06	-43.6	-46.5	21.4	0.00e+00	0	43	0	0	59	4839
2026-01-20 18:49:45.69	184.48	10.12	-43.8	-46.7	21.1	0.00e+00	0	43	0	0	58	5254
2026-01-20 18:49:46.68	184.23	10.18	-43.8	-46.7	20.6	0.00e+00	0	43	0	0	59	4941
2026-01-20 18:49:47.68	183.98	10.23	-43.7	-46.5	20.9	0.00e+00	0	43	0	0	58	5159
2026-01-20 18:49:48.67	183.73	10.29	-43.3	-46.1	20.9	0.00e+00	0	43	0	0	58	4871
2026-01-20 18:49:49.67	183.48	10.35	-43.0	-45.6	22.1	0.00e+00	0	43	0	0	58	4636
2026-01-20 18:49:50.66	183.22	10.41	-43.3	-46.1	22.1	0.00e+00	0	42	0	0	57	5193
2026-01-20 18:49:51.66	182.97	10.47	-43.6	-46.4	21.8	0.00e+00	0	42	0	0	58	5077
2026-01-20 18:49:52.65	182.71	10.52	-43.6	-46.5	21.3	2.74e-05	0	42	0	0	58	5101
2026-01-20 18:49:53.65	182.45	10.58	-43.4	-46.1	21.6	2.74e-05	0	43	0	0	58	4922
2026-01-20 18:49:54.65	182.19	10.64	-43.5	-46.3	21.4	0.00e+00	0	43	0	0	58	5041
2026-01-20 18:49:55.64	181.93	10.70	-43.7	-46.5	21.2	0.00e+00	0	43	0	0	58	5159
2026-01-20 18:49:56.64	181.67	10.75	-43.8	-46.6	21.1	0.00e+00	0	42	0	0	59	4923
2026-01-20 18:49:57.63	181.40	10.81	-43.8	-46.6	21.5	0.00e+00	0	43	0	0	59	4922
2026-01-20 18:49:58.62	181.14	10.87	-43.7	-46.5	21.4	0.00e+00	0	43	0	0	59	4815
2026-01-20 18:49:59.62	180.87	10.92	-43.7	-46.4	21.6	0.00e+00	0	42	0	0	59	4811
2026-01-20 18:50:00.61	180.61	10.98	-43.5	-46.3	21.6	0.00e+00	0	43	0	0	59	4716
2026-01-20 18:50:01.61	180.34	11.03	-43.4	-46.0	22.0	0.00e+00	0	43	0	0	58	4865
2026-01-20 18:50:02.60	180.07	11.09	-43.2	-45.8	21.9	0.00e+00	0	43	0	0	57	5013
2026-01-20 18:50:03.60	179.79	11.14	-42.9	-45.5	22.2	0.00e+00	0	43	0	0	57	4831
2026-01-20 18:50:04.59	179.52	11.20	-42.8	-45.4	22.2	0.00e+00	0	43	0	0	57	4781
2026-01-20 18:50:05.59	179.25	11.25	-43.1	-45.6	22.0	0.00e+00	0	43	0	0	57	4921
2026-01-20 18:50:06.58	178.97	11.30	-42.9	-45.5	22.1	0.00e+00	0	43	0	0	57	4840
2026-01-20 18:50:07.58	178.69	11.36	-43.0	-45.5	22.0	0.00e+00	0	43	0	0	57	4867
2026-01-20 18:50:08.57	178.42	11.41	-42.7	-45.2	22.6	0.00e+00	0	43	0	0	57	4691
2026-01-20 18:50:09.57	178.13	11.46	-42.9	-45.5	22.3	0.00e+00	0	43	0	0	57	4841
2026-01-20 18:50:10.56	177.85	11.51	-42.5	-44.9	22.8	0.00e+00	0	43	0	0	56	4807
2026-01-20 18:50:11.55	177.57	11.57	-42.6	-45.1	22.6	0.00e+00	0	43	0	0	56	4900
2026-01-20 18:50:12.55	177.29	11.62	-42.4	-44.8	22.9	0.00e+00	0	43	0	0	56	4735
2026-01-20 18:50:13.55	177.00	11.67	-42.0	-44.4	23.3	0.00e+00	0	43	0	0	56	4517
2026-01-20 18:50:14.54	176.72	11.72	-41.6	-43.9	23.5	0.00e+00	0	43	0	0	55	4536
2026-01-20 18:50:15.54	176.43	11.77	-41.4	-43.7	23.7	0.00e+00	0	43	0	0	54	4696
2026-01-20 18:50:16.53	176.14	11.82	-41.3	-43.6	23.8	0.00e+00	0	43	0	0	54	4648
2026-01-20 18:50:17.52	175.85	11.87	-41.3	-43.6	23.9	0.00e+00	0	43	0	0	54	4615
2026-01-20 18:50:18.52	175.56	11.92	-41.1	-43.3	24.1	0.00e+00	0	43	0	0	54	4482
2026-01-20 18:50:19.51	175.27	11.97	-40.9	-43.1	24.2	0.00e+00	0	42	0	0	53	4643
2026-01-20 18:50:20.51	174.97	12.02	-40.8	-43.0	24.3	0.00e+00	0	42	0	0	53	4582
2026-01-20 18:50:21.51	174.67	12.06	-40.8	-43.1	24.3	0.00e+00	0	43	0	0	53	4599
2026-01-20 18:50:22.50	174.38	12.11	-40.9	-43.2	24.1	0.00e+00	0	43	0	0	53	4690
2026-01-20 18:50:23.49	174.08	12.16	-40.9	-43.2	24.2	0.00e+00	0	43	0	0	53	4669
2026-01-20 18:50:24.49	173.78	12.21	-40.9	-43.2	24.1	0.00e+00	0	43	0	0	53	4671
2026-01-20 18:50:25.48	173.48	12.25	-41.0	-43.3	24.1	0.00e+00	0	43	0	0	53	4721
2026-01-20 18:50:26.48	173.18	12.30	-40.9	-43.2	24.1	0.00e+00	0	43	0	0	53	4683
2026-01-20 18:50:27.47	172.88	12.34	-40.8	-43.1	24.3	0.00e+00	0	43	0	0	53	4615
2026-01-20 18:50:28.46	172.58	12.39	-40.7	-42.9	24.4	0.00e+00	0	43	0	0	53	4526
2026-01-20 18:50:29.46	172.27	12.43	-40.8	-43.0	24.3	1.21e-04	0	43	0	0	53	4595
2026-01-20 18:50:30.46	171.96	12.47	-40.6	-42.8	24.5	0.00e+00	0	43	0	0	53	4465
2026-01-20 18:50:31.45	171.65	12.52	-40.6	-42.8	24.4	0.00e+00	0	43	0	0	53	4488
2026-01-20 18:50:32.45	171.34	12.56	-40.5	-42.7	24.6	1.66e-03	0	43	0	0	53	4394
2026-01-20 18:50:33.44	171.04	12.60	-40.6	-42.8	24.5	0.00e+00	0	43	0	0	53	4471
2026-01-20 18:50:34.44	170.72	12.64	-40.6	-42.7	24.5	0.00e+00	0	43	0	0	53	4438
2026-01-20 18:50:35.44	170.41	12.68	-40.7	-42.9	24.4	1.07e-03	0	43	0	0	53	4526
2026-01-20 18:50:36.43	170.10	12.72	-40.5	-42.7	24.5	0.00e+00	0	43	0	0	53	4416
2026-01-20 18:50:37.42	169.78	12.76	-40.6	-42.8	24.5	0.00e+00	0	43	0	0	53	4474
2026-01-20 18:50:38.42	169.47	12.80	-40.5	-42.7	24.5	0.00e+00	0	43	0	0	53	4412
2026-01-20 18:50:39.42	169.15	12.84	-40.5	-42.7	24.5	0.00e+00	0	43	0	0	53	4431
2026-01-20 18:50:40.41	168.83	12.88	-40.4	-42.5	24.7	0.00e+00	0	43	0	0	52	4573
2026-01-20 18:50:41.41	168.51	12.92	-40.6	-42.7	24.5	0.00e+00	0	43	0	0	52	4705
2026-01-20 18:50:42.40	168.19	12.95	-40.4	-42.6	24.6	0.00e+00	0	43	0	0	52	4624
2026-01-20 18:50:43.39	167.88	12.99	-40.4	-42.6	23.9	0.00e+00	0	43	0	0	52	4611
2026-01-20 18:50:44.39	167.55	13.02	-40.2	-42.3	24.9	0.00e+00	0	43	0	0	52	4463
2026-01-20 18:50:45.38	167.23	13.06	-40.2	-42.4	24.8	0.00e+00	0	43	0	0	52	4526
2026-01-20 18:50:46.38	166.91	13.09	-40.0	-42.2	24.9	0.00e+00	0	43	0	0	52	4402
2026-01-20 18:50:47.37	166.58	13.13	-40.1	-42.3	24.9	0.00e+00	0	43	0	0	52	4467
2026-01-20 18:50:48.37	166.25	13.16	-39.9	-42.0	25.1	0.00e+00	0	43	0	0	51	4580
2026-01-20 18:50:49.36	165.93	13.19	-40.1	-42.3	24.9	0.00e+00	0	43	0	0	51	4709
2026-01-20 18:50:50.36	165.60	13.22	-39.9	-42.1	25.1	0.00e+00	0	43	0	0	51	4599
2026-01-20 18:50:51.36	165.27	13.25	-40.3	-42.4	24.8	0.00e+00	0	43	0	0	51	4800
2026-01-20 18:50:52.35	164.94	13.28	-40.3	-42.4	24.8	0.00e+00	0	43	0	0	51	4796
2026-01-20 18:50:53.35	164.61	13.31	-40.3	-42.4	24.8	0.00e+00	0	43	0	0	51	4809
2026-01-20 18:50:54.34	164.28	13.34	-40.7	-42.8	24.5	0.00e+00	0	43	0	0	51	5035
2026-01-20 18:50:55.34	163.95	13.37	-40.7	-42.8	24.5	0.00e+00	0	43	0	0	52	4744
2026-01-20 18:50:56.33	163.62	13.40	-40.8	-43.1	24.3	0.00e+00	0	43	0	0	52	4874
2026-01-20 18:50:57.33	163.28	13.42	-40.7	-42.9	24.4	0.00e+00	0	43	0	0	52	4782
2026-01-20 18:50:58.32	162.95	13.45	-40.8	-43.0	24.3	0.00e+00	0	43	0	0	52	4833
2026-01-20 18:50:59.32	162.61	13.48	-40.8	-43.0	24.3	0.00e+00	0	43	0	0	52	4860
2026-01-20 18:51:00.31	162.28	13.50	-40.9	-43.2	24.2	0.00e+00	0	43	0	0	52	4938
2026-01-20 18:51:01.31	161.94	13.52	-41.0	-43.3	24.1	0.00e+00	0	43	0	0	52	4991
2026-01-20 18:51:02.30	161.61	13.55	-40.3	-42.5	24.7	0.00e+00	0	43	0	0	52	4562
2026-01-20 18:51:03.30	161.27	13.57	-40.2	-42.4	24.8	0.00e+00	0	43	0	0	52	4528
2026-01-20 18:51:04.29	160.93	13.59	-40.1	-42.3	24.9	1.02e-05	0	43	0	0	52	4448
2026-01-20 18:51:05.28	160.59	13.61	-40.1	-42.2	25.0	1.02e-05	0	43	0	0	51	4678
2026-01-20 18:51:06.28	160.25	13.63	-40.1	-42.3	25.0	0.00e+00	0	43	0	0	51	4713
2026-01-20 18:51:07.28	159.91	13.65	-40.0	-42.1	25.1	3.89e-05	0	43	0	0	51	4646
2026-01-20 18:51:08.27	159.57	13.67	-40.0	-42.1	25.1	3.89e-05	0	43	0	0	51	4614
2026-01-20 18:51:09.26	159.23	13.69	-40.2	-42.3	22.1	0.00e+00	0	43	0	0	51	4717
2026-01-20 18:51:10.26	158.89	13.70	-39.8	-41.9	25.3	2.42e-03	0	43	0	0	51	4507
2026-01-20 18:51:11.25	158.55	13.72	-40.0	-42.1	25.1	0.00e+00	0	43	0	0	51	4604
2026-01-20 18:51:12.25	158.20	13.73	-40.0	-42.2	24.8	0.00e+00	0	43	0	0	51	4658
2026-01-20 18:51:13.25	157.86	13.75	-40.1	-42.2	25.1	3.06e-03	0	43	0	0	51	4705
2026-01-20 18:51:14.24	157.52	13.76	-40.3	-42.4	24.8	0.00e+00	0	43	0	0	51	4801
2026-01-20 18:51:15.24	157.17	13.77	-40.6	-42.7	24.6	0.00e+00	0	43	0	0	51	4982
2026-01-20 18:51:16.23	156.83	13.79	-40.7	-42.9	24.4	2.05e-03	0	43	0	0	52	4797
2026-01-20 18:51:17.23	156.48	13.80	-40.6	-42.8	24.5	0.00e+00	0	43	0	0	52	4707
2026-01-20 18:51:18.22	156.14	13.81	-40.4	-42.6	24.6	0.00e+00	0	43	0	0	52	4620
2026-01-20 18:51:19.22	155.79	13.82	-40.5	-42.7	24.5	5.70e-06	0	43	0	0	52	4686
2026-01-20 18:51:20.21	155.45	13.83	-40.2	-42.3	24.8	0.00e+00	0	43	0	0	52	4481
2026-01-20 18:51:21.21	155.10	13.83	-40.1	-42.2	25.0	0.00e+00	0	43	0	0	51	4700
2026-01-20 18:51:22.21	154.75	13.84	-39.9	-42.0	25.1	0.00e+00	0	43	0	0	51	4596
2026-01-20 18:51:23.20	154.41	13.85	-40.1	-42.2	25.0	0.00e+00	0	43	0	0	51	4702
2026-01-20 18:51:24.20	154.06	13.85	-40.2	-42.4	24.8	0.00e+00	0	43	0	0	51	4774
2026-01-20 18:51:25.19	153.72	13.86	-40.2	-42.3	24.8	0.00e+00	0	43	0	0	51	4739
2026-01-20 18:51:26.19	153.37	13.86	-40.2	-42.4	24.9	0.00e+00	0	43	0	0	51	4776
2026-01-20 18:51:27.18	153.02	13.86	-40.5	-42.6	24.6	0.00e+00	0	43	0	0	51	4922
2026-01-20 18:51:28.18	152.68	13.87	-40.5	-42.7	24.5	0.00e+00	0	43	0	0	51	4969
2026-01-20 18:51:29.17	152.33	13.87	-40.6	-42.8	24.5	0.00e+00	0	43	0	0	51	5034
2026-01-20 18:51:30.17	151.98	13.87	-40.8	-43.0	24.3	0.00e+00	0	43	0	0	52	4843
2026-01-20 18:51:31.16	151.64	13.87	-40.9	-43.1	24.2	0.00e+00	0	43	0	0	52	4898
2026-01-20 18:51:32.16	151.29	13.86	-41.1	-43.4	24.0	0.00e+00	0	43	0	0	52	5054
2026-01-20 18:51:33.15	150.95	13.86	-41.2	-43.5	23.9	0.00e+00	0	43	0	0	53	4831
2026-01-20 18:51:34.15	150.60	13.86	-41.0	-43.3	24.1	0.00e+00	0	43	0	0	53	4710
2026-01-20 18:51:35.14	150.25	13.86	-40.9	-43.1	24.2	0.00e+00	0	43	0	0	53	4612
2026-01-20 18:51:36.14	149.90	13.85	-40.7	-42.9	24.4	0.00e+00	0	43	0	0	53	4505
2026-01-20 18:51:37.13	149.56	13.85	-40.5	-42.7	24.6	0.00e+00	0	43	0	0	52	4652
2026-01-20 18:51:38.12	149.22	13.84	-40.5	-42.7	24.6	0.00e+00	0	43	0	0	52	4661
2026-01-20 18:51:39.12	148.87	13.83	-40.5	-42.6	24.6	0.00e+00	0	43	0	0	52	4649
2026-01-20 18:51:40.12	148.52	13.82	-40.3	-42.4	24.8	0.00e+00	0	43	0	0	52	4512
2026-01-20 18:51:41.11	148.18	13.82	-40.4	-42.5	24.7	0.00e+00	0	43	0	0	52	4584
2026-01-20 18:51:42.11	147.83	13.81	-40.7	-42.9	24.4	0.00e+00	0	43	0	0	52	4793
2026-01-20 18:51:43.10	147.49	13.80	-40.6	-42.9	24.3	0.00e+00	0	43	0	0	52	4766
2026-01-20 18:51:44.10	147.14	13.78	-40.8	-43.0	24.3	0.00e+00	0	43	0	0	52	4860
2026-01-20 18:51:45.09	146.80	13.77	-40.9	-43.1	24.2	0.00e+00	0	43	0	0	52	4902
2026-01-20 18:51:46.08	146.46	13.76	-40.6	-42.8	24.4	0.00e+00	0	43	0	0	52	4743
2026-01-20 18:51:47.08	146.11	13.75	-40.5	-42.7	24.5	0.00e+00	0	43	0	0	52	4668
2026-01-20 18:51:48.07	145.77	13.73	-40.3	-42.4	24.7	0.00e+00	0	43	0	0	52	4536
2026-01-20 18:51:49.07	145.43	13.72	-40.2	-42.4	24.8	0.00e+00	0	43	0	0	52	4510
2026-01-20 18:51:50.06	145.09	13.70	-40.0	-42.1	25.0	0.00e+00	0	43	0	0	52	4384
2026-01-20 18:51:51.05	144.75	13.68	-40.3	-42.5	24.8	0.00e+00	0	43	0	0	52	4547
2026-01-20 18:51:52.05	144.41	13.67	-40.4	-42.5	24.6	0.00e+00	0	43	0	0	52	4572
2026-01-20 18:51:53.04	144.07	13.65	-40.4	-42.5	24.7	0.00e+00	0	43	0	0	52	4569
2026-01-20 18:51:54.04	143.73	13.63	-40.4	-42.6	24.6	0.00e+00	0	43	0	0	52	4627
2026-01-20 18:51:55.03	143.39	13.61	-40.4	-42.5	24.6	0.00e+00	0	43	0	0	52	4586
2026-01-20 18:51:56.03	143.05	13.59	-40.1	-42.3	24.8	0.00e+00	0	43	0	0	52	4461
2026-01-20 18:51:57.02	142.72	13.57	-40.3	-42.5	24.7	0.00e+00	0	43	0	0	52	4576
2026-01-20 18:51:58.02	142.38	13.54	-40.1	-42.2	24.9	0.00e+00	0	43	0	0	52	4411
2026-01-20 18:51:59.01	142.04	13.52	-40.0	-42.2	24.9	0.00e+00	0	43	0	0	52	4400
2026-01-20 18:52:00.01	141.70	13.50	-40.0	-42.1	25.0	0.00e+00	0	43	0	0	51	4639
2026-01-20 18:52:01.00	141.37	13.47	-40.1	-42.2	25.0	0.00e+00	0	43	0	0	51	4669
2026-01-20 18:52:01.99	141.04	13.45	-40.1	-42.3	25.0	0.00e+00	0	43	0	0	51	4709
2026-01-20 18:52:02.99	140.70	13.42	-40.1	-42.2	25.0	0.00e+00	0	43	0	0	51	4705
2026-01-20 18:52:03.98	140.37	13.40	-40.3	-42.4	24.8	0.00e+00	0	43	0	0	51	4814
2026-01-20 18:52:04.98	140.04	13.37	-40.3	-42.4	24.8	0.00e+00	0	43	0	0	51	4800
2026-01-20 18:52:05.97	139.71	13.34	-40.2	-42.3	24.9	0.00e+00	0	43	0	0	51	4736
2026-01-20 18:52:06.97	139.38	13.31	-40.1	-42.2	25.0	0.00e+00	0	43	0	0	51	4678
2026-01-20 18:52:07.97	139.05	13.28	-40.1	-42.2	24.9	0.00e+00	0	43	0	0	51	4693
2026-01-20 18:52:08.96	138.72	13.25	-40.0	-42.1	25.0	0.00e+00	0	43	0	0	51	4615
2026-01-20 18:52:09.96	138.39	13.22	-39.6	-41.7	25.4	0.00e+00	0	43	0	0	51	4404
2026-01-20 18:52:10.95	138.07	13.19	-39.8	-41.9	25.2	0.00e+00	0	43	0	0	51	4515
2026-01-20 18:52:11.94	137.74	13.16	-40.1	-42.3	24.9	0.00e+00	0	43	0	0	51	4719
2026-01-20 18:52:12.94	137.42	13.12	-40.4	-42.6	24.7	0.00e+00	0	43	0	0	51	4878
2026-01-20 18:52:13.93	137.09	13.09	-40.5	-42.6	24.6	0.00e+00	0	43	0	0	51	4926
2026-01-20 18:52:14.93	136.77	13.06	-40.4	-42.5	24.7	0.00e+00	0	43	0	0	51	4844
2026-01-20 18:52:15.93	136.45	13.02	-40.1	-42.2	24.9	0.00e+00	0	43	0	0	51	4690
2026-01-20 18:52:16.92	136.13	12.99	-40.0	-42.1	25.0	0.00e+00	0	43	0	0	51	4630
2026-01-20 18:52:17.91	135.81	12.95	-39.8	-41.9	25.2	0.00e+00	0	43	0	0	51	4500
2026-01-20 18:52:18.91	135.49	12.91	-39.5	-41.6	25.5	0.00e+00	0	43	0	0	51	4357
2026-01-20 18:52:19.90	135.17	12.88	-39.7	-41.8	25.3	0.00e+00	0	43	0	0	51	4462
2026-01-20 18:52:20.90	134.85	12.84	-40.0	-42.1	25.0	0.00e+00	0	43	0	0	51	4640
2026-01-20 18:52:21.89	134.54	12.80	-40.4	-42.5	24.7	0.00e+00	0	43	0	0	51	4855
2026-01-20 18:52:22.89	134.22	12.76	-40.7	-42.8	24.4	0.00e+00	0	43	0	0	51	5037
2026-01-20 18:52:23.88	133.91	12.72	-40.8	-43.0	24.2	0.00e+00	0	43	0	0	52	4840
2026-01-20 18:52:24.87	133.60	12.68	-40.8	-43.0	24.2	0.00e+00	0	43	0	0	52	4832
2026-01-20 18:52:25.87	133.29	12.64	-40.7	-42.9	24.3	0.00e+00	0	43	0	0	52	4807
2026-01-20 18:52:26.87	132.98	12.60	-40.7	-42.9	24.3	0.00e+00	0	43	0	0	52	4763
2026-01-20 18:52:27.86	132.67	12.56	-40.5	-42.7	24.5	0.00e+00	0	43	0	0	52	4658
2026-01-20 18:52:28.86	132.36	12.51	-40.1	-42.2	24.9	0.00e+00	0	43	0	0	52	4414
2026-01-20 18:52:29.85	132.05	12.47	-40.1	-42.2	24.8	0.00e+00	0	43	0	0	52	4421
2026-01-20 18:52:30.85	131.75	12.43	-40.2	-42.3	24.8	0.00e+00	0	43	0	0	52	4475
2026-01-20 18:52:31.84	131.45	12.38	-40.3	-42.5	24.7	0.00e+00	0	43	0	0	52	4556
2026-01-20 18:52:32.83	131.14	12.34	-40.6	-42.8	24.4	0.00e+00	0	43	0	0	52	4755
2026-01-20 18:52:33.83	130.84	12.29	-40.8	-43.0	24.2	0.00e+00	0	43	0	0	52	4867
2026-01-20 18:52:34.82	130.54	12.25	-41.1	-43.4	23.9	0.00e+00	0	43	0	0	52	5075
2026-01-20 18:52:35.82	130.24	12.20	-41.3	-43.6	23.7	0.00e+00	0	43	0	0	53	4882
2026-01-20 18:52:36.81	129.94	12.16	-41.5	-43.8	23.6	0.00e+00	0	43	0	0	53	5004
2026-01-20 18:52:37.81	129.65	12.11	-41.3	-43.6	23.7	0.00e+00	0	43	0	0	53	4902
2026-01-20 18:52:38.80	129.35	12.06	-41.3	-43.6	23.7	0.00e+00	0	43	0	0	53	4891
2026-01-20 18:52:39.80	129.06	12.02	-41.1	-43.4	23.9	0.00e+00	0	43	0	0	53	4781
2026-01-20 18:52:40.79	128.76	11.97	-40.9	-43.1	24.1	0.00e+00	0	43	0	0	53	4625
2026-01-20 18:52:41.79	128.47	11.92	-40.7	-42.9	24.3	0.00e+00	0	43	0	0	53	4518
2026-01-20 18:52:42.78	128.18	11.87	-40.7	-43.0	24.2	0.00e+00	0	43	0	0	53	4559
2026-01-20 18:52:43.78	127.89	11.82	-40.7	-42.9	24.3	0.00e+00	0	43	0	0	53	4526
2026-01-20 18:52:44.77	127.61	11.77	-40.5	-42.7	24.5	0.00e+00	0	43	0	0	53	4404
2026-01-20 18:52:45.77	127.32	11.72	-40.6	-42.8	24.3	0.00e+00	0	43	0	0	53	4489
2026-01-20 18:52:46.76	127.03	11.67	-40.9	-43.1	24.1	0.00e+00	0	43	0	0	53	4622
2026-01-20 18:52:47.75	126.75	11.62	-41.2	-43.4	23.9	0.00e+00	0	43	0	0	53	4811
2026-01-20 18:52:48.75	126.47	11.57	-41.4	-43.7	23.6	0.00e+00	0	43	0	0	53	4959
2026-01-20 18:52:49.75	126.19	11.51	-41.5	-43.9	23.5	0.00e+00	0	43	0	0	53	5045
2026-01-20 18:52:50.74	125.91	11.46	-41.3	-43.6	23.7	0.00e+00	0	43	0	0	53	4913
2026-01-20 18:52:51.74	125.63	11.41	-41.3	-43.6	23.7	0.00e+00	0	43	0	0	53	4913
2026-01-20 18:52:52.73	125.35	11.36	-41.3	-43.5	23.7	0.00e+00	0	43	0	0	53	4864
2026-01-20 18:52:53.73	125.07	11.30	-41.0	-43.3	23.9	0.00e+00	0	43	0	0	53	4720
2026-01-20 18:52:54.72	124.80	11.25	-40.7	-43.0	24.2	0.00e+00	0	43	0	0	53	4550
2026-01-20 18:52:55.72	124.53	11.20	-40.7	-43.0	24.1	0.00e+00	0	43	0	0	53	4573
2026-01-20 18:52:56.71	124.26	11.14	-40.9	-43.1	24.1	0.00e+00	0	43	0	0	53	4619
2026-01-20 18:52:57.71	123.98	11.09	-41.3	-43.5	23.7	0.00e+00	0	43	0	0	53	4862
2026-01-20 18:52:58.70	123.72	11.03	-41.5	-43.9	23.4	0.00e+00	0	43	0	0	53	5055
2026-01-20 18:52:59.69	123.45	10.98	-41.9	-44.2	23.2	0.00e+00	0	43	0	0	54	4972
2026-01-20 18:53:00.69	123.18	10.92	-41.9	-44.4	23.0	0.00e+00	0	43	0	0	54	5074
2026-01-20 18:53:01.68	122.92	10.87	-41.7	-44.3	23.1	0.00e+00	0	43	0	0	54	4993
2026-01-20 18:53:02.68	122.65	10.81	-41.7	-44.1	23.3	0.00e+00	0	43	0	0	54	4873
2026-01-20 18:53:03.67	122.39	10.76	-41.4	-43.8	23.5	0.00e+00	0	43	0	0	54	4747
2026-01-20 18:53:04.67	122.13	10.70	-41.5	-43.8	23.4	0.00e+00	0	43	0	0	54	4757
2026-01-20 18:53:05.66	121.87	10.64	-41.5	-43.8	23.5	0.00e+00	0	43	0	0	54	4758
2026-01-20 18:53:06.65	121.61	10.59	-41.4	-43.7	23.6	0.00e+00	0	43	0	0	54	4663
2026-01-20 18:53:07.65	121.36	10.53	-41.4	-43.7	23.6	0.00e+00	0	43	0	0	54	4658
2026-01-20 18:53:08.64	121.10	10.47	-41.2	-43.6	23.7	0.00e+00	0	43	0	0	54	4599
2026-01-20 18:53:09.64	120.85	10.41	-41.2	-43.6	23.6	0.00e+00	0	43	0	0	54	4604
2026-01-20 18:53:10.64	120.59	10.36	-41.4	-43.7	23.5	0.00e+00	0	43	0	0	54	4691
2026-01-20 18:53:11.63	120.34	10.30	-41.3	-43.8	23.5	0.00e+00	0	43	0	0	54	4710
2026-01-20 18:53:12.63	120.09	10.24	-41.5	-43.9	23.4	0.00e+00	0	43	0	0	54	4781
2026-01-20 18:53:13.62	119.84	10.18	-41.6	-44.0	23.3	0.00e+00	0	43	0	0	54	4855
2026-01-20 18:53:14.61	119.60	10.12	-41.8	-44.3	23.0	0.00e+00	0	43	0	0	54	5011
2026-01-20 18:53:15.61	119.35	10.06	-42.2	-44.7	22.7	0.00e+00	0	43	0	0	55	4957
2026-01-20 18:53:16.60	119.11	10.01	-42.3	-44.8	22.6	0.00e+00	0	43	0	0	55	5020
2026-01-20 18:53:17.60	118.86	9.95	-42.3	-44.8	22.5	0.00e+00	0	43	0	0	55	5010
2026-01-20 18:53:18.59	118.62	9.89	-42.2	-44.7	22.7	0.00e+00	0	43	0	0	55	4933
2026-01-20 18:53:19.59	118.38	9.83	-42.0	-44.5	22.8	0.00e+00	0	43	0	0	55	4853
2026-01-20 18:53:20.58	118.14	9.77	-41.8	-44.2	23.1	0.00e+00	0	43	0	0	55	4681
2026-01-20 18:53:21.57	117.90	9.71	-41.9	-44.4	22.9	0.00e+00	0	43	0	0	55	4780
2026-01-20 18:53:22.57	117.66	9.65	-41.9	-44.3	22.9	0.00e+00	0	43	0	0	55	4752
2026-01-20 18:53:23.57	117.43	9.59	-42.1	-44.5	22.8	0.00e+00	0	43	0	0	55	4862
2026-01-20 18:53:24.56	117.20	9.53	-42.1	-44.6	22.7	0.00e+00	0	43	0	0	55	4903
2026-01-20 18:53:25.56	116.96	9.47	-42.2	-44.7	22.7	0.00e+00	0	43	0	0	55	4951
2026-01-20 18:53:26.55	116.73	9.41	-42.2	-44.7	22.7	0.00e+00	0	43	0	0	55	4946
2026-01-20 18:53:27.55	116.50	9.35	-42.2	-44.6	22.7	0.00e+00	0	43	0	0	55	4907
2026-01-20 18:53:28.54	116.27	9.29	-42.0	-44.5	22.8	0.00e+00	0	43	0	0	55	4826
2026-01-20 18:53:29.54	116.04	9.22	-42.1	-44.6	22.7	0.00e+00	0	43	0	0	55	4889
2026-01-20 18:53:30.53	115.82	9.16	-42.1	-44.6	22.6	0.00e+00	0	43	0	0	55	4899
2026-01-20 18:53:31.52	115.59	9.10	-42.1	-44.6	22.7	0.00e+00	0	43	0	0	55	4900
2026-01-20 18:53:32.52	115.37	9.04	-42.2	-44.7	22.6	0.00e+00	0	43	0	0	55	4927
2026-01-20 18:53:33.51	115.15	8.98	-42.4	-45.0	22.5	0.00e+00	0	43	0	0	55	5109
2026-01-20 18:53:34.51	114.93	8.92	-49.9	-68.6	3.7	3.83e-02	0	43	104	0	71	30836
2026-01-20 18:53:35.50	114.71	8.86	-50.5	-69.4	3.8	8.46e-01	0	43	104	0	71	33698
2026-01-20 18:53:36.49	114.49	8.80	-50.6	-69.5	3.8	8.46e-01	0	43	104	0	71	34345
2026-01-20 18:53:37.48	114.27	8.74	-50.6	-69.5	3.8	8.47e-01	0	43	104	0	72	32373
2026-01-20 18:53:38.48	114.06	8.67	-50.7	-69.5	3.8	8.47e-01	0	43	104	0	72	32503
2026-01-20 18:53:39.47	113.84	8.61	-50.7	-69.6	3.8	8.47e-01	0	43	104	0	72	32630
2026-01-20 18:53:40.46	113.63	8.55	-50.7	-69.6	3.8	8.47e-01	0	43	104	0	72	32811
2026-01-20 18:53:41.46	113.42	8.49	-50.7	-69.6	3.8	8.48e-01	0	43	104	0	72	32875
2026-01-20 18:53:42.45	113.21	8.43	-50.8	-69.7	3.8	8.48e-01	0	43	104	0	72	32935
2026-01-20 18:53:43.44	113.00	8.37	-50.5	-69.6	3.8	8.47e-01	0	43	104	0	72	32920
2026-01-20 18:53:44.44	112.79	8.30	-50.4	-69.7	3.8	8.48e-01	0	43	104	0	72	33178
2026-01-20 18:53:45.43	112.58	8.24	-50.6	-69.7	3.8	8.48e-01	0	43	104	0	72	33241
2026-01-20 18:53:46.42	112.38	8.18	-50.6	-69.7	3.8	8.48e-01	0	43	104	0	72	33178
2026-01-20 18:53:47.42	112.17	8.12	-50.6	-69.7	3.8	8.46e-01	0	43	104	0	72	33294
2026-01-20 18:53:48.41	111.97	8.06	-50.7	-69.8	3.8	8.46e-01	0	43	104	0	72	33348
2026-01-20 18:53:49.40	111.77	7.99	-50.7	-69.8	3.8	8.46e-01	0	43	104	0	72	33386
2026-01-20 18:53:50.40	111.56	7.93	-50.6	-69.8	3.8	8.47e-01	0	43	104	0	72	33382
2026-01-20 18:53:51.39	111.37	7.87	-50.5	-69.8	3.8	8.47e-01	0	43	104	0	72	33338
2026-01-20 18:53:52.38	111.17	7.81	-50.7	-69.8	3.8	8.46e-01	0	43	104	0	72	33420
2026-01-20 18:53:53.38	110.97	7.75	-50.7	-69.8	3.8	8.47e-01	0	43	104	0	72	33435
2026-01-20 18:53:54.37	110.77	7.68	-50.8	-69.8	3.8	8.47e-01	0	43	104	0	72	33444
2026-01-20 18:53:55.36	110.58	7.62	-50.7	-69.7	3.8	8.47e-01	0	43	104	0	72	33271
2026-01-20 18:53:56.36	110.38	7.56	-50.7	-69.8	3.8	8.47e-01	0	43	104	0	72	33367
2026-01-20 18:53:57.35	110.19	7.50	-50.7	-69.7	3.8	8.47e-01	0	43	104	0	72	33209
2026-01-20 18:53:58.34	110.00	7.43	-50.7	-69.7	3.8	8.46e-01	0	43	104	0	72	33165
2026-01-20 18:53:59.33	109.81	7.37	-50.7	-69.7	3.8	8.46e-01	0	43	104	0	72	33224
2026-01-20 18:54:00.33	109.62	7.31	-50.7	-69.7	3.8	8.47e-01	0	44	104	0	72	33238
2026-01-20 18:54:01.32	109.43	7.25	-50.7	-69.7	3.8	8.47e-01	0	43	104	0	72	33051
2026-01-20 18:54:02.31	109.25	7.19	-50.7	-69.7	3.8	8.47e-01	0	43	104	0	72	33208
2026-01-20 18:54:03.31	109.06	7.12	-50.7	-69.7	3.8	8.47e-01	0	43	104	0	72	33145
2026-01-20 18:54:04.30	108.88	7.06	-50.7	-69.7	3.8	8.47e-01	0	44	104	0	72	33243
2026-01-20 18:54:05.29	108.69	7.00	-50.7	-69.7	3.8	8.48e-01	0	43	104	0	72	33147
2026-01-20 18:54:06.28	108.51	6.94	-50.7	-69.7	3.8	8.47e-01	0	43	104	0	72	33183
2026-01-20 18:54:07.28	108.33	6.88	-50.7	-69.7	3.8	8.47e-01	0	43	104	0	72	33241
2026-01-20 18:54:08.27	108.15	6.81	-50.7	-69.7	3.8	8.47e-01	0	43	104	0	72	33130
2026-01-20 18:54:09.26	107.97	6.75	-50.7	-69.7	3.8	8.45e-01	0	43	104	0	72	33102
2026-01-20 18:54:10.26	107.79	6.69	-50.7	-69.7	3.8	8.45e-01	0	43	104	0	72	33036
2026-01-20 18:54:11.25	107.61	6.63	-50.7	-69.7	3.8	8.46e-01	0	43	104	0	72	33114
2026-01-20 18:54:12.24	107.44	6.57	-50.7	-69.7	3.8	8.48e-01	0	43	104	0	72	33132
2026-01-20 18:54:13.23	107.26	6.50	-50.7	-69.7	3.8	8.48e-01	0	43	104	0	72	33079
2026-01-20 18:54:14.23	107.09	6.44	-50.7	-69.7	3.8	8.48e-01	0	43	104	0	72	33152
2026-01-20 18:54:15.22	106.91	6.38	-50.7	-69.7	3.8	8.46e-01	0	43	104	0	72	33105
2026-01-20 18:54:16.21	106.74	6.32	-50.7	-69.7	3.8	8.46e-01	0	43	104	0	72	33054
2026-01-20 18:54:17.21	106.57	6.26	-50.7	-69.7	3.8	8.47e-01	0	43	104	0	72	33070
2026-01-20 18:54:18.20	106.40	6.20	-50.7	-69.7	3.8	8.47e-01	0	43	104	0	72	33068
2026-01-20 18:54:19.19	106.23	6.13	-50.7	-69.7	3.8	8.47e-01	0	43	104	0	72	33044
2026-01-20 18:54:20.18	106.07	6.07	-50.7	-69.7	3.8	8.47e-01	0	43	104	0	72	33113
2026-01-20 18:54:21.18	105.90	6.01	-50.7	-69.7	3.8	8.46e-01	0	43	104	0	72	33068
2026-01-20 18:54:22.17	105.73	5.95	-50.7	-69.7	3.8	8.47e-01	0	43	104	0	72	33073
2026-01-20 18:54:23.16	105.57	5.89	-50.7	-69.7	3.8	8.47e-01	0	44	104	0	72	32980
2026-01-20 18:54:24.16	105.40	5.83	-50.7	-69.7	3.8	8.47e-01	0	43	104	0	72	33090
2026-01-20 18:54:25.15	105.24	5.77	-50.7	-69.7	3.8	8.47e-01	0	43	104	0	72	33051
2026-01-20 18:54:26.14	105.08	5.70	-50.7	-69.7	3.8	8.47e-01	0	43	104	0	72	33100
2026-01-20 18:54:27.14	104.92	5.64	-50.6	-69.7	3.8	8.46e-01	0	43	104	0	72	32962
2026-01-20 18:54:28.13	104.76	5.58	-50.7	-69.7	3.8	8.47e-01	0
