passes_logs/2026/01/20/T1/T1__20260120_232241_SUOMI_NPP_rec.log

#Pass ID: 20260120_232241_SUOMI NPP
#Satellite: SUOMI NPP
#Configuration: NPP
#almurnet v.1.7.20251203
#Start time: 2026-01-20 23:22:43

#Version: 2.0.20230620
#Station: T1
#Location: 37.570604 lon 55.790049 lat
#TLE: 1 37849U 11061A   26020.31993517  .00000142  00000+0  88240-4 0  9990
#TLE: 2 37849  98.7818 322.3228 0002330  54.3778 305.7615 14.19527005737466

#Time	Az	El	Level	Level2	SNR	BER	BlckErr	Temp	State	Recorded	gain1	gain2
2026-01-20 23:22:43.56	19.16	5.13	-49.3	-66.1	3.8	1.49e+00	0	41	0	0	70	24542
2026-01-20 23:22:44.55	19.19	5.20	-49.2	-66.0	3.8	1.49e+00	0	41	104	0	69	25709
2026-01-20 23:22:45.55	19.22	5.27	-49.2	-66.0	3.8	1.49e+00	0	41	104	0	69	25629
2026-01-20 23:22:46.54	19.24	5.34	-49.2	-66.0	3.8	1.49e+00	0	41	104	0	69	25573
2026-01-20 23:22:47.53	19.27	5.41	-49.2	-65.9	3.8	1.49e+00	0	41	104	0	69	25560
2026-01-20 23:22:48.52	19.29	5.48	-49.2	-66.0	3.8	1.49e+00	0	41	104	0	69	25582
2026-01-20 23:22:49.52	19.32	5.56	-49.3	-66.0	3.8	1.49e+00	0	41	104	0	69	25630
2026-01-20 23:22:50.51	19.34	5.63	-49.3	-65.9	3.8	1.49e+00	0	42	104	0	69	25527
2026-01-20 23:22:51.50	19.37	5.70	-49.3	-66.0	3.8	1.49e+00	0	42	104	0	69	25697
2026-01-20 23:22:52.49	19.40	5.77	-49.2	-66.0	3.8	1.49e+00	0	41	104	0	69	25767
2026-01-20 23:22:53.49	19.42	5.84	-49.3	-66.0	3.8	1.49e+00	0	42	104	0	69	25704
2026-01-20 23:22:54.48	19.45	5.91	-49.3	-66.1	3.8	1.49e+00	0	42	104	0	69	25971
2026-01-20 23:22:55.47	19.47	5.98	-49.2	-66.1	3.8	1.49e+00	0	42	104	0	69	26066
2026-01-20 23:22:56.47	19.50	6.06	-49.3	-66.1	3.8	1.49e+00	0	42	104	0	69	26086
2026-01-20 23:22:57.46	19.53	6.13	-49.3	-66.2	3.8	1.49e+00	0	41	104	0	69	26172
2026-01-20 23:22:58.45	19.55	6.20	-49.2	-66.2	3.8	1.49e+00	0	42	104	0	69	26173
2026-01-20 23:22:59.45	19.58	6.28	-49.3	-66.2	3.8	1.49e+00	0	42	104	0	69	26174
2026-01-20 23:23:00.44	19.61	6.35	-49.3	-66.1	3.8	1.49e+00	0	42	104	0	69	26117
2026-01-20 23:23:01.43	19.63	6.42	-49.2	-66.1	3.8	1.49e+00	0	42	104	0	69	25941
2026-01-20 23:23:02.43	19.66	6.50	-49.3	-66.1	3.8	1.49e+00	0	42	104	0	69	25901
2026-01-20 23:23:03.42	19.69	6.57	-49.2	-66.0	3.8	1.49e+00	0	42	104	0	69	25608
2026-01-20 23:23:04.41	19.72	6.64	-49.3	-65.8	3.8	1.49e+00	0	42	104	0	69	25165
2026-01-20 23:23:05.40	19.74	6.72	-49.2	-65.6	3.8	1.49e+00	0	42	104	0	69	24659
2026-01-20 23:23:06.40	19.77	6.79	-49.2	-65.4	3.8	1.49e+00	0	42	104	0	69	24109
2026-01-20 23:23:07.39	19.80	6.87	-49.2	-65.2	3.8	1.49e+00	0	42	104	0	69	23446
2026-01-20 23:23:08.38	19.83	6.94	-49.2	-65.0	3.8	1.49e+00	0	42	104	0	69	22919
2026-01-20 23:23:09.38	19.86	7.02	-49.2	-64.7	3.8	1.49e+00	0	42	104	0	69	22195
2026-01-20 23:23:10.37	19.88	7.09	-49.2	-64.4	3.8	1.49e+00	0	42	104	0	69	21436
2026-01-20 23:23:11.36	19.91	7.17	-49.2	-64.2	3.8	1.49e+00	0	42	104	0	69	20996
2026-01-20 23:23:12.35	19.94	7.24	-49.2	-64.0	3.8	1.49e+00	0	42	104	0	69	20401
2026-01-20 23:23:13.35	19.97	7.32	-49.2	-63.6	4.0	1.48e+00	0	42	104	0	69	19575
2026-01-20 23:23:14.34	20.00	7.39	-49.1	-63.6	4.0	1.49e+00	0	42	104	0	69	19492
2026-01-20 23:23:15.33	20.03	7.47	-49.2	-63.5	3.8	1.47e+00	0	42	104	0	69	19385
2026-01-20 23:23:16.33	20.06	7.55	-49.2	-63.3	3.9	1.45e+00	0	42	104	0	69	18887
2026-01-20 23:23:17.32	20.08	7.62	-49.2	-63.2	4.1	1.44e+00	0	42	0	0	69	18637
2026-01-20 23:23:18.31	20.11	7.70	-49.2	-63.2	4.1	1.44e+00	0	42	0	0	69	18720
2026-01-20 23:23:19.31	20.14	7.78	-49.2	-63.4	3.9	1.46e+00	0	42	104	0	69	18997
2026-01-20 23:23:20.30	20.17	7.86	-49.2	-63.2	4.1	1.48e+00	0	43	104	0	69	18684
2026-01-20 23:23:21.29	20.20	7.93	-49.2	-63.2	3.9	1.44e+00	0	42	104	0	69	18710
2026-01-20 23:23:22.28	20.23	8.01	-49.2	-63.0	4.1	1.43e+00	0	42	0	0	69	18239
2026-01-20 23:23:23.28	20.26	8.09	-49.2	-62.7	4.2	1.42e+00	0	42	0	0	69	17605
2026-01-20 23:23:24.27	20.29	8.17	-49.1	-62.4	4.3	1.36e+00	0	42	0	0	69	16984
2026-01-20 23:23:25.26	20.32	8.25	-49.1	-61.9	4.5	1.27e+00	0	42	0	1048576	69	15991
2026-01-20 23:23:26.26	20.35	8.33	-49.1	-61.2	4.7	9.35e-01	0	42	0	2097152	69	14803
2026-01-20 23:23:27.25	20.38	8.41	-48.9	-60.2	5.3	7.41e-01	0	43	0	4194304	69	13219
2026-01-20 23:23:28.24	20.41	8.48	-48.9	-59.5	5.7	4.72e-01	0	43	0	6291456	69	12162
2026-01-20 23:23:29.24	20.44	8.56	-48.8	-58.5	6.5	2.82e-01	0	43	0	8388608	69	10781
2026-01-20 23:23:30.23	20.47	8.64	-48.6	-57.6	7.3	1.65e-01	0	42	0	10485760	69	9795
2026-01-20 23:23:31.22	20.50	8.72	-48.5	-56.6	8.3	6.63e-02	0	43	0	11534336	68	9260
2026-01-20 23:23:32.22	20.54	8.80	-48.3	-55.9	9.1	3.09e-02	0	43	0	13631488	68	8493
2026-01-20 23:23:33.21	20.57	8.89	-48.1	-55.2	9.8	1.66e-02	0	43	0	15728640	68	7859
2026-01-20 23:23:34.20	20.60	8.97	-47.8	-54.5	10.3	7.45e-03	0	43	0	17825792	67	7655
2026-01-20 23:23:35.20	20.63	9.05	-47.7	-54.2	10.6	3.41e-03	0	43	0	18874368	67	7429
2026-01-20 23:23:36.19	20.66	9.13	-48.0	-54.9	9.9	6.95e-03	0	43	0	20971520	67	8031
2026-01-20 23:23:37.18	20.69	9.21	-48.5	-56.6	8.1	4.87e-02	0	43	0	23068672	67	9812
2026-01-20 23:23:38.18	20.73	9.29	-48.0	-55.6	9.3	5.82e-03	0	43	0	25165824	67	8687
2026-01-20 23:23:39.18	20.76	9.38	-49.0	-59.9	5.4	5.22e-01	0	43	0	27262976	68	13507
2026-01-20 23:23:40.17	20.79	9.46	-45.7	-49.5	15.5	1.56e-04	0	43	0	28311552	63	5414
2026-01-20 23:23:41.17	20.82	9.54	-45.8	-49.6	15.4	0.00e+00	0	43	0	30408704	63	5507
2026-01-20 23:23:42.16	20.86	9.62	-45.3	-48.8	16.2	0.00e+00	0	43	0	32505856	62	5332
2026-01-20 23:23:43.15	20.89	9.71	-45.4	-48.9	16.1	0.00e+00	0	43	0	34603008	62	5368
2026-01-20 23:23:44.15	20.92	9.79	-45.4	-48.8	16.2	0.00e+00	0	43	0	35651584	62	5329
2026-01-20 23:23:45.15	20.95	9.88	-45.3	-48.7	16.3	0.00e+00	0	43	0	37748736	62	5222
2026-01-20 23:23:46.14	20.99	9.96	-45.1	-48.4	16.6	0.00e+00	0	43	0	39845888	62	5079
2026-01-20 23:23:47.13	21.02	10.04	-45.2	-48.5	16.6	0.00e+00	0	43	0	41943040	62	5109
2026-01-20 23:23:48.13	21.06	10.13	-45.3	-48.6	16.4	0.00e+00	0	43	0	44040192	62	5196
2026-01-20 23:23:49.12	21.09	10.21	-45.2	-48.6	16.4	0.00e+00	0	43	0	45088768	62	5170
2026-01-20 23:23:50.12	21.12	10.30	-45.2	-48.5	16.6	0.00e+00	0	43	0	47185920	62	5114
2026-01-20 23:23:51.11	21.16	10.39	-45.0	-48.3	16.8	0.00e+00	0	43	0	49283072	62	5014
2026-01-20 23:23:52.11	21.19	10.47	-44.9	-48.2	16.9	0.00e+00	0	43	0	51380224	61	5228
2026-01-20 23:23:53.11	21.23	10.56	-45.0	-48.2	16.9	0.00e+00	0	43	0	52428800	61	5248
2026-01-20 23:23:54.10	21.26	10.64	-44.9	-48.0	17.0	0.00e+00	0	43	0	54525952	61	5133
2026-01-20 23:23:55.10	21.30	10.73	-44.9	-48.1	17.0	0.00e+00	0	43	0	56623104	61	5175
2026-01-20 23:23:56.09	21.33	10.82	-44.9	-48.0	17.1	0.00e+00	0	43	0	58720256	61	5120
2026-01-20 23:23:57.09	21.37	10.91	-45.0	-48.1	17.0	0.00e+00	0	43	0	60817408	61	5183
2026-01-20 23:23:58.08	21.40	10.99	-44.9	-47.9	17.2	0.00e+00	0	43	0	61865984	61	5068
2026-01-20 23:23:59.08	21.44	11.08	-45.0	-48.0	17.1	0.00e+00	0	43	0	63963136	61	5140
2026-01-20 23:24:00.07	21.47	11.17	-44.8	-47.8	17.3	0.00e+00	0	43	0	66060288	61	5020
2026-01-20 23:24:01.07	21.51	11.26	-44.8	-47.8	17.3	0.00e+00	0	43	0	68157440	61	5032
2026-01-20 23:24:02.06	21.55	11.35	-44.8	-47.8	17.4	0.00e+00	0	43	0	69206016	61	5002
2026-01-20 23:24:03.05	21.58	11.44	-44.8	-47.8	17.3	0.00e+00	0	43	0	71303168	61	5024
2026-01-20 23:24:04.05	21.62	11.53	-44.9	-47.9	17.3	0.00e+00	0	43	0	73400320	61	5090
2026-01-20 23:24:05.04	21.66	11.62	-44.9	-47.9	17.3	0.00e+00	0	43	0	75497472	61	5063
2026-01-20 23:24:06.04	21.69	11.71	-44.8	-47.8	17.5	0.00e+00	0	43	0	77594624	61	4996
2026-01-20 23:24:07.03	21.73	11.80	-44.9	-47.8	17.5	0.00e+00	0	43	0	78643200	61	4986
2026-01-20 23:24:08.03	21.77	11.89	-44.7	-47.5	17.7	0.00e+00	0	43	0	80740352	61	4836
2026-01-20 23:24:09.02	21.80	11.98	-44.9	-47.7	17.5	0.00e+00	0	43	0	82837504	61	4975
2026-01-20 23:24:10.02	21.84	12.07	-44.9	-47.6	17.7	0.00e+00	0	43	0	84934656	61	4907
2026-01-20 23:24:11.01	21.88	12.16	-44.9	-47.6	17.6	0.00e+00	0	43	0	85983232	61	4921
2026-01-20 23:24:12.00	21.92	12.26	-44.8	-47.5	17.7	0.00e+00	0	43	0	88080384	61	4860
2026-01-20 23:24:13.00	21.96	12.35	-44.9	-47.7	17.6	0.00e+00	0	43	0	90177536	61	4931
2026-01-20 23:24:13.99	22.00	12.44	-44.8	-47.5	17.8	0.00e+00	0	43	0	92274688	61	4837
2026-01-20 23:24:14.98	22.03	12.53	-44.9	-47.6	17.8	0.00e+00	0	43	0	94371840	61	4881
2026-01-20 23:24:15.98	22.07	12.63	-44.9	-47.5	17.8	0.00e+00	0	43	0	95420416	61	4821
2026-01-20 23:24:16.97	22.11	12.72	-45.0	-47.6	17.7	0.00e+00	0	43	0	97517568	61	4926
2026-01-20 23:24:17.97	22.15	12.82	-45.1	-47.7	17.7	0.00e+00	0	43	0	99614720	61	4950
2026-01-20 23:24:18.96	22.19	12.91	-44.9	-47.6	17.8	0.00e+00	0	43	0	101711872	61	4874
2026-01-20 23:24:19.96	22.23	13.01	-45.0	-47.5	17.8	0.00e+00	0	43	0	102760448	61	4867
2026-01-20 23:24:20.95	22.27	13.10	-45.0	-47.5	17.8	0.00e+00	0	43	0	104857600	61	4860
2026-01-20 23:24:21.95	22.31	13.20	-45.0	-47.5	17.8	0.00e+00	0	43	0	106954752	61	4861
2026-01-20 23:24:22.94	22.35	13.29	-44.9	-47.5	17.9	0.00e+00	0	43	0	109051904	61	4826
2026-01-20 23:24:23.94	22.39	13.39	-44.9	-47.5	17.9	0.00e+00	0	43	0	111149056	61	4826
2026-01-20 23:24:24.93	22.44	13.49	-44.9	-47.5	17.9	0.00e+00	0	43	0	112197632	61	4829
2026-01-20 23:24:25.93	22.48	13.59	-45.0	-47.6	17.8	0.00e+00	0	43	0	114294784	61	4898
2026-01-20 23:24:26.92	22.52	13.68	-44.7	-47.1	18.3	0.00e+00	0	43	0	116391936	61	4636
2026-01-20 23:24:27.92	22.56	13.78	-44.8	-47.2	18.2	0.00e+00	0	43	0	118489088	61	4698
2026-01-20 23:24:28.92	22.60	13.88	-44.9	-47.4	18.0	0.00e+00	0	43	0	120586240	61	4776
2026-01-20 23:24:29.91	22.65	13.98	-44.8	-47.2	18.2	0.00e+00	0	43	0	121634816	61	4683
2026-01-20 23:24:30.91	22.69	14.08	-44.9	-47.4	18.1	0.00e+00	0	43	0	123731968	61	4761
2026-01-20 23:24:31.90	22.73	14.18	-44.8	-47.2	18.2	0.00e+00	0	43	0	125829120	61	4688
2026-01-20 23:24:32.89	22.77	14.28	-44.7	-47.2	18.2	0.00e+00	0	43	0	127926272	61	4687
2026-01-20 23:24:33.89	22.82	14.38	-44.6	-47.1	18.3	0.00e+00	0	43	0	128974848	61	4626
2026-01-20 23:24:34.89	22.86	14.48	-44.6	-47.1	18.3	0.00e+00	0	43	0	131072000	61	4633
2026-01-20 23:24:35.88	22.91	14.58	-44.6	-47.1	18.4	0.00e+00	0	43	0	133169152	61	4624
2026-01-20 23:24:36.87	22.95	14.68	-44.8	-47.4	18.2	0.00e+00	0	43	0	135266304	61	4761
2026-01-20 23:24:37.87	23.00	14.79	-44.7	-47.2	18.3	0.00e+00	0	43	0	137363456	61	4665
2026-01-20 23:24:38.86	23.04	14.89	-44.7	-47.2	18.3	0.00e+00	0	43	0	138412032	61	4672
2026-01-20 23:24:39.86	23.09	14.99	-44.8	-47.3	18.2	0.00e+00	0	43	0	140509184	61	4740
2026-01-20 23:24:40.85	23.13	15.09	-44.7	-47.2	18.2	0.00e+00	0	43	0	142606336	61	4704
2026-01-20 23:24:41.85	23.18	15.20	-44.8	-47.3	18.2	0.00e+00	0	43	0	144703488	61	4759
2026-01-20 23:24:42.84	23.22	15.30	-44.9	-47.5	18.0	0.00e+00	0	43	0	145752064	61	4848
2026-01-20 23:24:43.84	23.27	15.41	-44.9	-47.5	18.0	0.00e+00	0	43	0	147849216	61	4839
2026-01-20 23:24:44.83	23.31	15.51	-45.0	-47.6	17.9	0.00e+00	0	43	0	149946368	61	4896
2026-01-20 23:24:45.83	23.36	15.62	-45.0	-47.6	17.9	0.00e+00	0	43	0	152043520	61	4914
2026-01-20 23:24:46.82	23.41	15.72	-44.8	-47.5	18.1	0.00e+00	0	43	0	154140672	61	4818
2026-01-20 23:24:47.82	23.46	15.83	-45.0	-47.6	18.0	0.00e+00	0	43	0	155189248	61	4911
2026-01-20 23:24:48.81	23.50	15.94	-45.0	-47.6	17.9	0.00e+00	0	43	0	157286400	61	4921
2026-01-20 23:24:49.81	23.55	16.05	-45.1	-47.7	17.9	0.00e+00	0	43	0	159383552	61	4954
2026-01-20 23:24:50.80	23.60	16.15	-45.2	-47.9	17.7	0.00e+00	0	43	0	161480704	61	5061
2026-01-20 23:24:51.80	23.65	16.26	-45.0	-47.6	17.9	0.00e+00	0	43	0	162529280	61	4916
2026-01-20 23:24:52.79	23.70	16.37	-45.1	-47.7	17.9	0.00e+00	0	43	0	164626432	61	4938
2026-01-20 23:24:53.79	23.75	16.48	-45.1	-47.7	17.9	0.00e+00	0	43	0	166723584	61	4959
2026-01-20 23:24:54.78	23.80	16.59	-45.1	-47.7	17.9	0.00e+00	0	43	0	168820736	61	4953
2026-01-20 23:24:55.78	23.85	16.70	-45.0	-47.6	18.1	0.00e+00	0	43	0	170917888	61	4886
2026-01-20 23:24:56.77	23.90	16.81	-45.1	-47.7	17.9	0.00e+00	0	43	0	171966464	61	4959
2026-01-20 23:24:57.77	23.95	16.92	-45.2	-47.8	17.9	0.00e+00	0	43	0	174063616	61	4984
2026-01-20 23:24:58.76	24.00	17.03	-45.1	-47.7	17.9	0.00e+00	0	43	0	176160768	61	4964
2026-01-20 23:24:59.76	24.05	17.15	-45.3	-47.9	17.8	0.00e+00	0	43	0	178257920	61	5052
2026-01-20 23:25:00.75	24.10	17.26	-45.2	-47.7	17.9	0.00e+00	0	43	0	179306496	61	4965
2026-01-20 23:25:01.75	24.16	17.37	-45.2	-47.8	17.9	0.00e+00	0	43	0	181403648	61	4998
2026-01-20 23:25:02.74	24.21	17.49	-45.3	-47.9	17.8	0.00e+00	0	43	0	183500800	61	5073
2026-01-20 23:25:03.74	24.26	17.60	-45.4	-47.9	17.8	0.00e+00	0	43	0	185597952	61	5085
2026-01-20 23:25:04.73	24.31	17.71	-45.4	-48.0	17.7	0.00e+00	0	43	0	187695104	61	5128
2026-01-20 23:25:05.73	24.37	17.83	-45.4	-48.0	17.8	0.00e+00	0	43	0	188743680	61	5118
2026-01-20 23:25:06.72	24.42	17.95	-45.5	-48.1	17.7	0.00e+00	0	43	0	190840832	61	5166
2026-01-20 23:25:07.71	24.48	18.06	-45.6	-48.3	17.5	0.00e+00	0	43	0	192937984	61	5287
2026-01-20 23:25:08.71	24.53	18.18	-45.6	-48.3	17.5	0.00e+00	0	43	0	195035136	61	5284
2026-01-20 23:25:09.71	24.59	18.30	-45.5	-48.1	17.7	0.00e+00	0	44	0	196083712	61	5194
2026-01-20 23:25:10.70	24.64	18.41	-45.6	-48.2	17.5	0.00e+00	0	43	0	198180864	61	5275
2026-01-20 23:25:11.70	24.70	18.53	-45.5	-48.2	17.6	0.00e+00	0	43	0	200278016	62	4962
2026-01-20 23:25:12.69	24.75	18.65	-45.6	-48.4	17.4	0.00e+00	0	43	0	202375168	62	5071
2026-01-20 23:25:13.69	24.81	18.77	-45.7	-48.5	17.3	0.00e+00	0	43	0	204472320	62	5155
2026-01-20 23:25:14.68	24.87	18.89	-45.5	-48.3	17.5	0.00e+00	0	43	0	205520896	62	5011
2026-01-20 23:25:15.67	24.93	19.01	-45.6	-48.4	17.4	0.00e+00	0	43	0	207618048	62	5079
2026-01-20 23:25:16.67	24.98	19.13	-45.6	-48.5	17.4	0.00e+00	0	43	0	209715200	62	5103
2026-01-20 23:25:17.66	25.04	19.25	-45.6	-48.4	17.5	0.00e+00	0	43	0	211812352	62	5085
2026-01-20 23:25:18.66	25.10	19.38	-45.6	-48.5	17.3	0.00e+00	0	44	0	212860928	62	5115
2026-01-20 23:25:19.65	25.16	19.50	-45.8	-48.8	17.0	0.00e+00	0	43	0	214958080	62	5324
2026-01-20 23:25:20.65	25.22	19.62	-45.8	-48.8	17.0	0.00e+00	0	43	0	217055232	62	5338
2026-01-20 23:25:21.64	25.28	19.75	-45.8	-48.7	17.1	0.00e+00	0	43	0	219152384	62	5266
2026-01-20 23:25:22.64	25.34	19.87	-45.9	-48.9	17.0	0.00e+00	0	43	0	221249536	62	5353
2026-01-20 23:25:23.63	25.40	20.00	-45.9	-48.9	17.0	0.00e+00	0	44	0	222298112	62	5386
2026-01-20 23:25:24.63	25.46	20.12	-46.0	-49.0	16.9	0.00e+00	0	43	0	224395264	62	5414
2026-01-20 23:25:25.62	25.53	20.25	-45.9	-48.9	16.9	0.00e+00	0	43	0	226492416	63	5081
2026-01-20 23:25:26.62	25.59	20.38	-46.0	-48.9	17.0	0.00e+00	0	43	0	228589568	63	5084
2026-01-20 23:25:27.61	25.65	20.51	-45.9	-48.8	17.0	0.00e+00	0	43	0	229638144	63	5030
2026-01-20 23:25:28.61	25.72	20.63	-46.0	-48.9	17.0	0.00e+00	0	43	0	231735296	63	5073
2026-01-20 23:25:29.60	25.78	20.76	-45.9	-48.7	17.1	0.00e+00	0	43	0	233832448	63	4976
2026-01-20 23:25:30.59	25.84	20.89	-45.7	-48.5	17.4	0.00e+00	0	43	0	235929600	63	4820
2026-01-20 23:25:31.59	25.91	21.02	-45.7	-48.5	17.3	0.00e+00	0	43	0	238026752	63	4846
2026-01-20 23:25:32.58	25.97	21.15	-45.5	-48.1	17.6	0.00e+00	0	43	0	239075328	63	4649
2026-01-20 23:25:33.58	26.04	21.29	-45.6	-48.3	17.5	0.00e+00	0	44	0	241172480	63	4710
2026-01-20 23:25:34.58	26.11	21.42	-45.4	-48.0	17.8	0.00e+00	0	43	0	243269632	62	4840
2026-01-20 23:25:35.57	26.17	21.55	-45.1	-47.6	18.1	0.00e+00	0	43	0	245366784	62	4629
2026-01-20 23:25:36.56	26.24	21.68	-45.2	-47.7	18.1	0.00e+00	0	43	0	247463936	62	4665
2026-01-20 23:25:37.56	26.31	21.82	-45.0	-47.4	18.3	0.00e+00	0	43	0	248512512	62	4539
2026-01-20 23:25:38.55	26.38	21.95	-45.1	-47.6	18.2	0.00e+00	0	44	0	250609664	61	4873
2026-01-20 23:25:39.55	26.45	22.09	-44.9	-47.4	18.3	0.00e+00	0	43	0	252706816	61	4764
2026-01-20 23:25:40.54	26.52	22.23	-44.9	-47.4	18.3	0.00e+00	0	44	0	254803968	61	4766
2026-01-20 23:25:41.54	26.59	22.36	-45.0	-47.4	18.2	0.00e+00	0	43	0	255852544	61	4813
2026-01-20 23:25:42.53	26.66	22.50	-45.0	-47.4	18.3	0.00e+00	0	44	0	257949696	61	4802
2026-01-20 23:25:43.53	26.73	22.64	-44.7	-47.1	18.5	0.00e+00	0	44	0	260046848	61	4627
2026-01-20 23:25:44.52	26.80	22.78	-44.7	-47.1	18.6	0.00e+00	0	44	0	262144000	61	4599
2026-01-20 23:25:45.51	26.88	22.92	-44.6	-46.9	18.7	0.00e+00	0	44	0	264241152	61	4520
2026-01-20 23:25:46.51	26.95	23.06	-44.5	-46.8	18.8	0.00e+00	0	43	0	265289728	60	4732
2026-01-20 23:25:47.50	27.03	23.20	-44.4	-46.7	18.9	0.00e+00	0	44	0	267386880	60	4689
2026-01-20 23:25:48.50	27.10	23.34	-44.3	-46.6	19.0	0.00e+00	0	44	0	269484032	60	4644
2026-01-20 23:25:49.49	27.18	23.49	-44.1	-46.4	19.2	0.00e+00	0	44	0	271581184	60	4511
2026-01-20 23:25:50.49	27.25	23.63	-44.2	-46.5	19.1	0.00e+00	0	43	0	272629760	60	4590
2026-01-20 23:25:51.48	27.33	23.77	-44.2	-46.5	19.1	0.00e+00	0	43	0	274726912	60	4563
2026-01-20 23:25:52.47	27.41	23.92	-44.1	-46.4	19.2	0.00e+00	0	43	0	276824064	60	4507
2026-01-20 23:25:53.47	27.48	24.06	-44.3	-46.6	19.0	0.00e+00	0	43	0	278921216	60	4630
2026-01-20 23:25:54.46	27.56	24.21	-44.2	-46.4	19.1	0.00e+00	0	43	0	281018368	60	4532
2026-01-20 23:25:55.46	27.64	24.36	-44.2	-46.5	19.1	0.00e+00	0	43	0	282066944	60	4556
2026-01-20 23:25:56.46	27.72	24.51	-44.4	-46.7	18.9	0.00e+00	0	43	0	284164096	60	4671
2026-01-20 23:25:57.45	27.80	24.66	-44.2	-46.4	19.1	0.00e+00	0	43	0	286261248	60	4545
2026-01-20 23:25:58.44	27.89	24.80	-44.1	-46.3	19.2	0.00e+00	0	43	0	288358400	60	4492
2026-01-20 23:25:59.44	27.97	24.96	-44.2	-46.5	19.1	0.00e+00	0	44	0	289406976	60	4547
2026-01-20 23:26:00.43	28.05	25.11	-44.2	-46.4	19.2	0.00e+00	0	43	0	291504128	60	4522
2026-01-20 23:26:01.43	28.14	25.26	-44.2	-46.5	19.1	0.00e+00	0	43	0	293601280	60	4553
2026-01-20 23:26:02.43	28.22	25.41	-44.3	-46.5	19.1	0.00e+00	0	43	0	295698432	60	4590
2026-01-20 23:26:03.42	28.31	25.57	-44.4	-46.6	19.0	0.00e+00	0	43	0	297795584	60	4645
2026-01-20 23:26:04.42	28.39	25.72	-44.3	-46.6	19.0	0.00e+00	0	43	0	298844160	60	4613
2026-01-20 23:26:05.41	28.48	25.88	-44.6	-46.9	18.7	0.00e+00	0	43	0	300941312	60	4808
2026-01-20 23:26:06.41	28.57	26.03	-44.5	-46.9	18.7	0.00e+00	0	43	0	303038464	60	4784
2026-01-20 23:26:07.40	28.66	26.19	-44.5	-46.9	18.8	0.00e+00	0	43	0	305135616	60	4770
2026-01-20 23:26:08.40	28.75	26.35	-44.5	-46.8	18.8	0.00e+00	0	43	0	306184192	60	4751
2026-01-20 23:26:09.39	28.84	26.51	-44.3	-46.7	18.9	0.00e+00	0	44	0	308281344	60	4667
2026-01-20 23:26:10.39	28.93	26.67	-44.2	-46.6	19.0	0.00e+00	0	43	0	310378496	60	4616
2026-01-20 23:26:11.39	29.02	26.83	-44.0	-46.4	19.2	0.00e+00	0	44	0	312475648	60	4496
2026-01-20 23:26:12.38	29.11	26.99	-44.2	-46.5	19.1	0.00e+00	0	43	0	314572800	60	4572
2026-01-20 23:26:13.38	29.21	27.16	-44.1	-46.4	19.1	0.00e+00	0	44	0	315621376	60	4527
2026-01-20 23:26:14.37	29.30	27.32	-44.1	-46.4	19.2	0.00e+00	0	44	0	317718528	60	4511
2026-01-20 23:26:15.37	29.40	27.48	-44.1	-46.4	19.1	0.00e+00	0	43	0	319815680	60	4529
2026-01-20 23:26:16.36	29.50	27.65	-44.2	-46.5	19.1	0.00e+00	0	43	0	321912832	60	4546
2026-01-20 23:26:17.36	29.60	27.81	-44.3	-46.6	19.0	0.00e+00	0	44	0	322961408	60	4634
2026-01-20 23:26:18.35	29.69	27.98	-44.6	-46.9	18.7	0.00e+00	0	44	0	325058560	60	4807
2026-01-20 23:26:19.35	29.79	28.15	-44.3	-46.6	19.0	0.00e+00	0	44	0	327155712	60	4611
2026-01-20 23:26:20.34	29.89	28.32	-44.4	-46.7	18.9	0.00e+00	0	43	0	329252864	60	4702
2026-01-20 23:26:21.34	30.00	28.49	-44.5	-46.8	18.8	0.00e+00	0	43	0	331350016	60	4748
2026-01-20 23:26:22.33	30.10	28.66	-44.6	-47.0	18.6	0.00e+00	0	44	0	332398592	60	4825
2026-01-20 23:26:23.33	30.20	28.83	-44.7	-47.1	18.6	0.00e+00	0	44	0	334495744	60	4873
2026-01-20 23:26:24.32	30.31	29.00	-44.8	-47.2	18.5	0.00e+00	0	43	0	336592896	60	4936
2026-01-20 23:26:25.32	30.42	29.18	-44.8	-47.2	18.4	0.00e+00	0	43	0	338690048	60	4955
2026-01-20 23:26:26.31	30.52	29.35	-44.9	-47.4	18.3	0.00e+00	0	44	0	339738624	60	5045
2026-01-20 23:26:27.30	30.63	29.53	-45.1	-47.7	18.0	0.00e+00	0	44	0	341835776	60	5239
2026-01-20 23:26:28.30	30.74	29.71	-45.2	-47.8	17.9	0.00e+00	0	44	0	343932928	61	4985
2026-01-20 23:26:29.29	30.85	29.88	-45.5	-48.2	17.5	0.00e+00	0	43	0	346030080	61	5241
2026-01-20 23:26:30.28	30.96	30.06	-45.6	-48.2	17.5	0.00e+00	0	44	0	348127232	62	4981
2026-01-20 23:26:31.28	31.08	30.24	-45.9	-48.7	17.0	0.00e+00	0	43	0	349175808	62	5269
2026-01-20 23:26:32.28	31.19	30.42	-46.3	-49.2	16.6	0.00e+00	0	43	0	351272960	63	5262
2026-01-20 23:26:33.27	31.31	30.60	-46.4	-49.3	16.5	0.00e+00	0	44	0	353370112	63	5337
2026-01-20 23:26:34.26	31.42	30.79	-46.7	-49.8	16.0	0.00e+00	0	43	0	355467264	64	5301
2026-01-20 23:26:35.26	31.54	30.97	-46.8	-50.0	15.8	0.00e+00	0	43	0	356515840	64	5420
2026-01-20 23:26:36.25	31.66	31.15	-47.1	-50.4	15.3	0.00e+00	0	44	0	358612992	64	5696
2026-01-20 23:26:37.25	31.78	31.34	-47.7	-51.2	14.5	0.00e+00	0	44	0	360710144	65	5923
2026-01-20 23:26:38.24	31.90	31.53	-47.5	-51.0	14.9	0.00e+00	0	44	0	362807296	65	5724
2026-01-20 23:26:39.24	32.03	31.72	-47.9	-51.6	14.1	0.00e+00	0	44	0	364904448	66	5802
2026-01-20 23:26:40.23	32.15	31.91	-47.8	-51.4	14.3	2.20e-06	0	44	0	365953024	66	5693
2026-01-20 23:26:41.23	32.28	32.10	-47.6	-51.1	14.6	0.00e+00	0	44	0	368050176	66	5514
2026-01-20 23:26:42.22	32.41	32.29	-47.6	-51.0	14.6	0.00e+00	0	44	0	370147328	66	5457
2026-01-20 23:26:43.22	32.54	32.48	-47.5	-51.0	14.8	0.00e+00	0	44	0	372244480	66	5407
2026-01-20 23:26:44.21	32.67	32.67	-47.4	-50.7	15.0	0.00e+00	0	44	0	373293056	66	5270
2026-01-20 23:26:45.21	32.80	32.87	-47.4	-50.7	15.0	0.00e+00	0	44	0	375390208	66	5259
2026-01-20 23:26:46.20	32.93	33.06	-47.4	-50.8	14.9	0.00e+00	0	44	0	377487360	66	5281
2026-01-20 23:26:47.20	33.07	33.26	-47.4	-50.8	14.9	0.00e+00	0	44	0	379584512	66	5297
2026-01-20 23:26:48.19	33.20	33.46	-47.1	-50.3	15.3	0.00e+00	0	44	0	381681664	65	5324
2026-01-20 23:26:49.19	33.34	33.66	-46.8	-49.9	15.7	0.00e+00	0	44	0	382730240	65	5070
2026-01-20 23:26:50.18	33.48	33.86	-46.9	-50.0	15.7	0.00e+00	0	44	0	384827392	65	5125
2026-01-20 23:26:51.17	33.62	34.06	-46.6	-49.6	16.0	0.00e+00	0	44	0	386924544	65	4887
2026-01-20 23:26:52.17	33.77	34.26	-46.4	-49.4	16.2	0.00e+00	0	44	0	389021696	64	5085
2026-01-20 23:26:53.16	33.91	34.47	-46.2	-49.0	16.5	0.00e+00	0	44	0	390070272	64	4862
2026-01-20 23:26:54.15	34.06	34.67	-46.1	-49.0	16.5	0.00e+00	0	44	0	392167424	64	4815
2026-01-20 23:26:55.15	34.21	34.88	-46.2	-49.1	16.4	0.00e+00	0	43	0	394264576	64	4910
2026-01-20 23:26:56.14	34.36	35.08	-46.3	-49.3	16.3	0.00e+00	0	44	0	396361728	64	4985
2026-01-20 23:26:57.14	34.51	35.29	-46.4	-49.5	16.1	0.00e+00	0	44	0	398458880	64	5116
2026-01-20 23:26:58.13	34.67	35.50	-46.5	-49.6	15.9	0.00e+00	0	43	0	399507456	64	5207
2026-01-20 23:26:59.13	34.83	35.71	-46.6	-49.7	15.8	0.00e+00	0	44	0	401604608	64	5262
2026-01-20 23:27:00.12	34.98	35.92	-46.6	-49.8	15.8	0.00e+00	0	44	0	403701760	64	5293
2026-01-20 23:27:01.12	35.15	36.14	-46.8	-49.9	15.6	0.00e+00	0	44	0	405798912	64	5360
2026-01-20 23:27:02.11	35.31	36.35	-46.6	-49.6	15.9	0.00e+00	0	44	0	406847488	64	5211
2026-01-20 23:27:03.10	35.47	36.56	-46.7	-49.8	15.8	0.00e+00	0	44	0	408944640	64	5312
2026-01-20 23:27:04.10	35.64	36.78	-46.3	-49.3	16.2	0.00e+00	0	43	0	411041792	64	4985
2026-01-20 23:27:05.09	35.81	37.00	-46.6	-49.7	15.8	0.00e+00	0	44	0	413138944	64	5227
2026-01-20 23:27:06.09	35.98	37.22	-46.8	-49.9	15.6	0.00e+00	0	44	0	415236096	64	5399
2026-01-20 23:27:07.08	36.15	37.44	-46.4	-49.4	16.2	0.00e+00	0	43	0	416284672	64	5044
2026-01-20 23:27:08.08	36.33	37.66	-46.8	-50.0	15.5	0.00e+00	0	44	0	418381824	64	5416
2026-01-20 23:27:09.07	36.51	37.88	-47.0	-50.4	15.1	0.00e+00	0	44	0	420478976	64	5671
2026-01-20 23:27:10.07	36.69	38.11	-47.2	-50.7	14.8	0.00e+00	0	43	0	422576128	65	5555
2026-01-20 23:27:11.06	36.87	38.33	-46.8	-49.9	15.6	0.00e+00	0	44	0	423624704	65	5099
2026-01-20 23:27:12.06	37.06	38.56	-46.9	-50.1	15.4	0.00e+00	0	43	0	425721856	65	5184
2026-01-20 23:27:13.05	37.25	38.78	-46.3	-49.2	16.2	0.00e+00	0	44	0	427819008	64	4968
2026-01-20 23:27:14.05	37.44	39.01	-46.6	-49.7	15.7	0.00e+00	0	44	0	429916160	64	5249
2026-01-20 23:27:15.04	37.63	39.24	-46.4	-49.4	16.0	0.00e+00	0	43	0	432013312	64	5075
2026-01-20 23:27:16.04	37.83	39.47	-46.8	-49.9	15.5	0.00e+00	0	44	0	433061888	64	5398
2026-01-20 23:27:17.04	38.03	39.71	-46.9	-50.2	15.3	0.00e+00	0	44	0	435159040	64	5549
2026-01-20 23:27:18.03	38.23	39.94	-46.8	-50.0	15.5	0.00e+00	0	44	0	437256192	64	5411
2026-01-20 23:27:19.03	38.43	40.17	-47.0	-50.3	15.1	0.00e+00	0	44	0	439353344	64	5611
2026-01-20 23:27:20.02	38.64	40.41	-46.9	-50.3	15.2	0.00e+00	0	44	0	440401920	64	5594
2026-01-20 23:27:21.02	38.85	40.65	-46.7	-50.0	15.4	0.00e+00	0	44	0	442499072	64	5413
2026-01-20 23:27:22.02	39.07	40.89	-46.2	-49.2	16.2	0.00e+00	0	44	0	444596224	64	4983
2026-01-20 23:27:23.01	39.28	41.12	-46.4	-49.5	15.9	0.00e+00	0	43	0	446693376	64	5111
2026-01-20 23:27:24.01	39.50	41.36	-45.7	-48.4	16.9	0.00e+00	0	43	0	448790528	63	4813
2026-01-20 23:27:25.00	39.73	41.60	-45.9	-48.7	16.7	0.00e+00	0	44	0	449839104	63	4936
2026-01-20 23:27:26.00	39.95	41.85	-45.7	-48.4	16.9	0.00e+00	0	44	0	451936256	63	4781
2026-01-20 23:27:26.99	40.18	42.09	-45.5	-48.1	17.2	0.00e+00	0	44	0	454033408	62	4902
2026-01-20 23:27:27.99	40.42	42.34	-45.7	-48.5	16.9	0.00e+00	0	44	0	456130560	62	5104
2026-01-20 23:27:28.98	40.65	42.58	-46.1	-49.0	16.4	0.00e+00	0	44	0	458227712	62	5430
2026-01-20 23:27:29.98	40.89	42.83	-46.6	-49.7	15.7	0.00e+00	0	43	0	459276288	63	5554
2026-01-20 23:27:30.98	41.14	43.08	-46.5	-49.7	15.5	0.00e+00	0	44	0	461373440	64	5243
2026-01-20 23:27:31.97	41.39	43.33	-46.4	-49.6	15.5	0.00e+00	0	44	0	463470592	64	5197
2026-01-20 23:27:32.97	41.64	43.58	-46.6	-49.9	15.5	0.00e+00	0	44	0	465567744	64	5360
2026-01-20 23:27:33.96	41.89	43.83	-46.3	-49.5	15.8	0.00e+00	0	43	0	466616320	64	5118
2026-01-20 23:27:34.96	42.15	44.08	-46.2	-49.3	15.9	0.00e+00	0	44	0	468713472	64	4991
2026-01-20 23:27:35.95	42.42	44.33	-46.0	-48.9	16.4	0.00e+00	0	43	0	470810624	63	5073
2026-01-20 23:27:36.94	42.68	44.59	-46.1	-49.1	16.2	0.00e+00	0	44	0	472907776	63	5174
2026-01-20 23:27:37.94	42.96	44.84	-46.3	-49.4	16.0	0.00e+00	0	44	0	475004928	63	5361
2026-01-20 23:27:38.93	43.23	45.10	-46.7	-49.9	15.5	0.00e+00	0	44	0	476053504	63	5719
2026-01-20 23:27:39.93	43.51	45.35	-46.4	-49.5	15.7	0.00e+00	0	44	0	478150656	64	5139
2026-01-20 23:27:40.92	43.80	45.61	-46.3	-49.4	15.8	0.00e+00	0	43	0	480247808	63	5379
2026-01-20 23:27:41.92	44.09	45.87	-46.2	-49.3	16.0	0.00e+00	0	44	0	482344960	63	5280
2026-01-20 23:27:42.92	44.39	46.13	-46.0	-49.0	16.3	0.00e+00	0	44	0	483393536	63	5149
2026-01-20 23:27:43.91	44.68	46.39	-45.5	-48.2	16.9	0.00e+00	0	44	0	485490688	63	4700
2026-01-20 23:27:44.91	44.99	46.65	-45.0	-47.6	17.5	0.00e+00	0	44	0	487587840	61	4916
2026-01-20 23:27:45.90	45.30	46.92	-44.9	-47.5	17.6	0.00e+00	0	44	0	489684992	61	4835
2026-01-20 23:27:46.90	45.62	47.18	-45.4	-48.1	17.0	0.00e+00	0	43	0	491782144	61	5199
2026-01-20 23:27:47.89	45.93	47.44	-45.3	-48.0	17.3	0.00e+00	0	44	0	492830720	61	5112
2026-01-20 23:27:48.89	46.26	47.71	-45.5	-48.2	16.9	0.00e+00	0	44	0	494927872	61	5244
2026-01-20 23:27:49.89	46.59	47.97	-45.8	-48.7	16.6	0.00e+00	0	44	0	497025024	62	5257
2026-01-20 23:27:50.88	46.93	48.24	-45.9	-48.8	16.4	0.00e+00	0	44	0	499122176	62	5290
2026-01-20 23:27:51.88	47.27	48.51	-45.7	-48.5	16.7	0.00e+00	0	44	0	500170752	62	5119
2026-01-20 23:27:52.87	47.62	48.77	-45.8	-48.6	16.6	0.00e+00	0	44	0	502267904	62	5160
2026-01-20 23:27:53.87	47.98	49.04	-45.4	-48.2	17.0	0.00e+00	0	44	0	504365056	62	4936
2026-01-20 23:27:54.86	48.34	49.31	-45.3	-48.0	17.1	0.00e+00	0	44	0	506462208	62	4817
2026-01-20 23:27:55.86	48.71	49.57	-45.0	-47.6	17.4	0.00e+00	0	44	0	508559360	62	4634
2026-01-20 23:27:56.85	49.08	49.84	-44.9	-47.5	17.6	0.00e+00	0	44	0	509607936	61	4836
2026-01-20 23:27:57.85	49.46	50.11	-44.4	-46.8	18.1	0.00e+00	0	44	0	511705088	60	4729
2026-01-20 23:27:58.84	49.84	50.38	-44.4	-46.7	18.1	0.00e+00	0	44	0	513802240	60	4703
2026-01-20 23:27:59.83	50.24	50.65	-44.7	-47.2	17.9	0.00e+00	0	44	0	515899392	60	4933
2026-01-20 23:28:00.83	50.64	50.92	-44.9	-47.5	17.5	0.00e+00	0	44	0	516947968	60	5139
2026-01-20 23:28:01.82	51.04	51.19	-45.1	-47.8	17.2	0.00e+00	0	44	0	519045120	60	5325
2026-01-20 23:28:02.82	51.46	51.46	-44.6	-47.2	17.7	0.00e+00	0	44	0	521142272	60	4934
2026-01-20 23:28:03.81	51.88	51.73	-44.7	-47.3	17.7	0.00e+00	0	44	0	523239424	60	4998
2026-01-20 23:28:04.81	52.31	52.00	-44.7	-47.2	17.9	0.00e+00	0	44	0	525336576	60	4951
2026-01-20 23:28:05.80	52.75	52.26	-44.6	-47.1	17.9	0.00e+00	0	44	0	526385152	60	4886
2026-01-20 23:28:06.79	53.19	52.53	-44.5	-47.0	18.0	0.00e+00	0	44	0	528482304	60	4840
2026-01-20 23:28:07.79	53.65	52.80	-44.9	-47.5	17.6	0.00e+00	0	44	0	530579456	60	5114
2026-01-20 23:28:08.78	54.11	53.07	-45.2	-48.0	17.1	0.00e+00	0	44	0	532676608	61	5102
2026-01-20 23:28:09.78	54.58	53.34	-44.6	-47.1	17.9	0.00e+00	0	44	0	533725184	61	4627
2026-01-20 23:28:10.77	55.06	53.60	-43.9	-46.1	18.6	0.00e+00	0	44	0	535822336	59	4648
2026-01-20 23:28:11.77	55.55	53.87	-43.8	-46.0	18.8	0.00e+00	0	44	0	537919488	58	4856
2026-01-20 23:28:12.76	56.05	54.14	-43.6	-45.9	18.9	0.00e+00	0	44	0	540016640	58	4766
2026-01-20 23:28:13.76	56.56	54.40	-43.9	-46.3	18.6	0.00e+00	0	44	0	542113792	58	4986
2026-01-20 23:28:14.75	57.07	54.67	-43.8	-46.1	18.7	0.00e+00	0	44	0	543162368	58	4898
2026-01-20 23:28:15.75	57.60	54.93	-43.5	-45.7	19.0	0.00e+00	0	44	0	545259520	58	4686
2026-01-20 23:28:16.74	58.13	55.19	-43.0	-45.2	19.5	0.00e+00	0	44	0	547356672	58	4392
2026-01-20 23:28:17.74	58.68	55.45	-43.2	-45.4	19.3	0.00e+00	0	44	0	549453824	57	4781
2026-01-20 23:28:18.73	59.23	55.71	-43.8	-46.2	18.6	0.00e+00	0	44	0	550502400	58	4928
2026-01-20 23:28:19.73	59.80	55.97	-44.5	-47.0	17.9	0.00e+00	0	44	0	552599552	59	5123
2026-01-20 23:28:20.72	60.38	56.23	-44.5	-47.1	17.9	0.00e+00	0	44	0	554696704	59	5169
2026-01-20 23:28:21.71	60.96	56.48	-44.0	-46.3	18.5	0.00e+00	0	44	0	556793856	59	4746
2026-01-20 23:28:22.71	61.56	56.74	-43.2	-45.4	19.3	0.00e+00	0	44	0	558891008	58	4510
2026-01-20 23:28:23.70	62.17	56.99	-43.1	-45.3	19.5	0.00e+00	0	44	0	559939584	57	4725
2026-01-20 23:28:24.70	62.79	57.24	-43.4	-45.7	19.0	0.00e+00	0	44	0	562036736	57	4946
2026-01-20 23:28:25.70	63.42	57.49	-43.9	-46.2	18.6	0.00e+00	0	44	0	564133888	58	4957
2026-01-20 23:28:26.69	64.06	57.73	-44.2	-46.5	18.4	0.00e+00	0	44	0	566231040	58	5157
2026-01-20 23:28:27.68	64.72	57.97	-44.2	-46.6	18.2	0.00e+00	0	44	0	567279616	59	4899
2026-01-20 23:28:28.68	65.38	58.22	-44.3	-46.7	18.2	0.00e+00	0	44	0	569376768	59	4943
2026-01-20 23:28:29.67	66.06	58.45	-44.1	-46.4	18.4	0.00e+00	0	44	0	571473920	59	4802
2026-01-20 23:28:30.67	66.75	58.69	-43.6	-45.8	19.0	0.00e+00	0	44	0	573571072	59	4463
2026-01-20 23:28:31.66	67.45	58.92	-43.8	-46.0	18.8	0.00e+00	0	44	0	575668224	58	4870
2026-01-20 23:28:32.66	68.17	59.15	-43.9	-46.2	18.6	0.00e+00	0	44	0	576716800	58	4983
2026-01-20 23:28:33.65	68.90	59.37	-44.0	-46.3	18.6	0.00e+00	0	44	0	578813952	58	4999
2026-01-20 23:28:34.65	69.64	59.60	-43.7	-46.0	18.8	0.00e+00	0	44	0	580911104	59	4589
2026-01-20 23:28:35.64	70.39	59.82	-43.9	-46.3	18.5	0.00e+00	0	44	0	583008256	59	4746
2026-01-20 23:28:36.64	71.16	60.03	-44.7	-47.3	17.7	0.00e+00	0	44	0	584056832	60	5017
2026-01-20 23:28:37.63	71.93	60.24	-45.1	-47.9	17.2	0.00e+00	0	43	0	586153984	61	5060
2026-01-20 23:28:38.63	72.73	60.45	-44.6	-47.0	17.9	0.00e+00	0	44	0	588251136	61	4593
2026-01-20 23:28:39.62	73.53	60.65	-44.3	-46.7	18.3	0.00e+00	0	44	0	590348288	60	4663
2026-01-20 23:28:40.62	74.35	60.85	-44.1	-46.5	18.3	0.00e+00	0	44	0	592445440	60	4596
2026-01-20 23:28:41.61	75.17	61.04	-44.0	-46.4	18.5	0.00e+00	0	44	0	593494016	59	4763
2026-01-20 23:28:42.61	76.02	61.23	-43.7	-45.9	18.9	0.00e+00	0	44	0	595591168	58	4812
2026-01-20 23:28:43.60	76.87	61.42	-43.5	-45.7	19.1	0.00e+00	0	44	0	597688320	58	4685
2026-01-20 23:28:44.60	77.74	61.60	-44.0	-46.4	18.4	0.00e+00	0	44	0	599785472	58	5048
2026-01-20 23:28:45.59	78.62	61.77	-44.2	-46.6	18.3	0.00e+00	0	44	0	600834048	59	4896
2026-01-20 23:28:46.59	79.51	61.94	-43.9	-46.3	18.6	0.00e+00	0	44	0	602931200	59	4713
2026-01-20 23:28:47.58	80.41	62.10	-43.5	-45.7	19.1	0.00e+00	0	44	0	605028352	58	4700
2026-01-20 23:28:48.58	81.33	62.26	-43.5	-45.8	19.0	0.00e+00	0	44	0	607125504	58	4710
2026-01-20 23:28:49.57	82.26	62.41	-43.1	-45.3	19.4	0.00e+00	0	44	0	609222656	58	4487
2026-01-20 23:28:50.57	83.20	62.56	-43.0	-45.2	19.5	0.00e+00	0	44	0	610271232	57	4686
2026-01-20 23:28:51.56	84.15	62.70	-42.8	-45.0	19.7	0.00e+00	0	44	0	612368384	57	4564
2026-01-20 23:28:52.56	85.11	62.83	-43.1	-45.3	19.5	0.00e+00	0	44	0	614465536	57	4735
2026-01-20 23:28:53.55	86.08	62.96	-43.2	-45.5	19.2	0.00e+00	0	44	0	616562688	57	4817
2026-01-20 23:28:54.55	87.07	63.08	-43.3	-45.5	19.3	0.00e+00	0	44	0	617611264	57	4869
2026-01-20 23:28:55.54	88.05	63.19	-43.2	-45.5	19.5	0.00e+00	0	44	0	619708416	57	4816
2026-01-20 23:28:56.54	89.06	63.30	-43.7	-46.0	18.8	0.00e+00	0	44	0	621805568	57	5123
2026-01-20 23:28:57.53	90.06	63.40	-44.1	-46.5	18.4	0.00e+00	0	44	0	623902720	59	4864
2026-01-20 23:28:58.52	91.07	63.49	-44.2	-46.6	18.3	0.00e+00	0	44	0	625999872	59	4893
2026-01-20 23:28:59.52	92.10	63.57	-42.9	-45.0	19.7	0.00e+00	0	44	0	627048448	57	4565
2026-01-20 23:29:00.51	93.13	63.65	-43.0	-45.1	19.6	0.00e+00	0	44	0	629145600	57	4636
2026-01-20 23:29:01.51	94.17	63.72	-43.6	-45.9	18.9	0.00e+00	0	44	0	631242752	57	5098
2026-01-20 23:29:02.50	95.21	63.78	-45.0	-47.7	17.3	0.00e+00	0	44	0	633339904	60	5265
2026-01-20 23:29:03.50	96.27	63.84	-45.0	-47.7	17.3	0.00e+00	0	44	0	634388480	61	4943
2026-01-20 23:29:04.49	97.32	63.88	-44.5	-47.0	18.0	0.00e+00	0	44	0	636485632	60	4830
2026-01-20 23:29:05.49	98.38	63.92	-44.3	-46.9	18.1	0.00e+00	0	44	0	638582784	60	4769
2026-01-20 23:29:06.48	99.44	63.95	-43.9	-46.3	18.5	0.00e+00	0	44	0	640679936	59	4731
2026-01-20 23:29:07.48	100.51	63.98	-43.3	-45.6	19.2	0.00e+00	0	44	0	642777088	58	4625
2026-01-20 23:29:08.47	101.57	63.99	-42.8	-44.9	19.7	0.00e+00	0	44	0	643825664	57	4515
2026-01-20 23:29:09.47	102.64	64.00	-42.6	-44.7	19.9	0.00e+00	0	44	0	645922816	57	4429
2026-01-20 23:29:10.46	103.70	64.00	-42.7	-44.8	19.8	0.00e+00	0	44	0	648019968	57	4448
2026-01-20 23:29:11.46	104.77	63.99	-42.2	-44.2	20.1	0.00e+00	0	44	0	650117120	56	4439
2026-01-20 23:29:12.45	105.84	63.97	-42.4	-44.5	19.9	0.00e+00	0	44	0	651165696	55	4863
2026-01-20 23:29:13.44	106.89	63.95	-43.0	-45.2	19.5	0.00e+00	0	44	0	653262848	56	4954
2026-01-20 23:29:14.44	107.96	63.92	-43.3	-45.5	19.3	0.00e+00	0	44	0	655360000	57	4845
2026-01-20 23:29:15.43	109.01	63.88	-42.7	-44.9	19.8	0.00e+00	0	44	0	657457152	57	4520
2026-01-20 23:29:16.43	110.07	63.83	-42.6	-44.7	19.8	0.00e+00	0	44	0	659554304	57	4433
2026-01-20 23:29:17.42	111.12	63.77	-42.6	-44.7	19.9	0.00e+00	0	44	0	660602880	57	4410
2026-01-20 23:29:18.41	112.16	63.71	-42.7	-44.9	19.8	0.00e+00	0	44	0	662700032	57	4519
2026-01-20 23:29:19.41	113.20	63.64	-42.2	-44.3	20.3	0.00e+00	0	44	0	664797184	56	4464
2026-01-20 23:29:20.40	114.23	63.56	-42.9	-45.1	19.7	0.00e+00	0	44	0	666894336	56	4876
2026-01-20 23:29:21.40	115.26	63.47	-43.6	-45.9	18.9	0.00e+00	0	44	0	667942912	57	5087
2026-01-20 23:29:22.39	116.27	63.38	-43.5	-45.8	19.0	0.00e+00	0	44	0	670040064	58	4735
2026-01-20 23:29:23.39	117.28	63.28	-42.3	-44.3	20.3	0.00e+00	0	44	0	672137216	56	4475
2026-01-20 23:29:24.38	118.28	63.17	-42.3	-44.3	20.2	0.00e+00	0	44	0	674234368	56	4483
2026-01-20 23:29:25.37	119.26	63.06	-43.6	-45.9	19.0	0.00e+00	0	44	0	676331520	57	5053
2026-01-20 23:29:26.37	120.25	62.94	-43.8	-46.3	18.6	0.00e+00	0	44	0	677380096	58	4984
2026-01-20 23:29:27.36	121.21	62.81	-42.7	-44.9	19.8	0.00e+00	0	44	0	679477248	57	4506
2026-01-20 23:29:28.36	122.18	62.68	-42.7	-44.8	19.8	0.00e+00	0	44	0	681574400	56	4739
2026-01-20 23:29:29.35	123.12	62.54	-43.9	-46.3	18.5	0.00e+00	0	44	0	683671552	58	5035
2026-01-20 23:29:30.35	124.07	62.39	-44.6	-47.2	17.7	0.00e+00	0	44	0	684720128	59	5251
2026-01-20 23:29:31.34	124.99	62.24	-43.5	-45.8	18.9	0.00e+00	0	44	0	686817280	58	4750
2026-01-20 23:29:32.34	125.91	62.08	-42.3	-44.3	20.2	0.00e+00	0	44	0	688914432	56	4472
2026-01-20 23:29:33.33	126.81	61.91	-42.0	-44.0	20.3	0.00e+00	0	44	0	691011584	55	4577
2026-01-20 23:29:34.33	127.70	61.74	-43.1	-45.3	19.3	0.00e+00	0	44	0	693108736	56	5014
2026-01-20 23:29:35.32	128.58	61.57	-43.2	-45.4	19.2	0.00e+00	0	44	0	694157312	57	4803
2026-01-20 23:29:36.32	129.45	61.39	-42.7	-44.8	19.8	0.00e+00	0	44	0	696254464	57	4465
2026-01-20 23:29:37.31	130.30	61.20	-42.7	-44.8	19.7	0.00e+00	0	44	0	698351616	57	4482
2026-01-20 23:29:38.31	131.14	61.01	-43.1	-45.3	19.4	0.00e+00	0	44	0	700448768	57	4713
2026-01-20 23:29:39.30	131.97	60.82	-42.1	-44.2	20.3	0.00e+00	0	44	0	701497344	56	4403
2026-01-20 23:29:40.30	132.79	60.62	-41.0	-42.9	21.2	0.00e+00	0	44	0	703594496	54	4254
2026-01-20 23:29:41.29	133.59	60.41	-41.7	-43.7	20.6	0.00e+00	0	44	0	705691648	54	4681
2026-01-20 23:29:42.28	134.37	60.21	-43.4	-45.6	19.1	0.00e+00	0	44	0	707788800	57	4920
2026-01-20 23:29:43.28	135.15	59.99	-43.2	-45.4	19.3	0.00e+00	0	44	0	709885952	57	4795
2026-01-20 23:29:44.28	135.92	59.78	-42.6	-44.7	19.8	0.00e+00	0	44	0	710934528	57	4418
2026-01-20 23:29:45.27	136.67	59.56	-43.2	-45.5	19.3	0.00e+00	0	44	0	713031680	56	5107
2026-01-20 23:29:46.26	137.41	59.33	-42.9	-45.1	19.5	0.00e+00	0	44	0	715128832	57	4636
2026-01-20 23:29:47.26	138.14	59.11	-42.1	-44.2	20.2	0.00e+00	0	44	0	717225984	56	4435
2026-01-20 23:29:48.25	138.85	58.88	-41.5	-43.5	20.7	0.00e+00	0	44	0	718274560	54	4579
2026-01-20 23:29:49.25	139.55	58.64	-42.4	-44.5	19.8	0.00e+00	0	44	0	720371712	55	4859
2026-01-20 23:29:50.25	140.25	58.41	-42.3	-44.4	20.0	0.00e+00	0	44	0	722468864	55	4777
2026-01-20 23:29:51.24	140.92	58.17	-41.9	-44.0	20.3	0.00e+00	0	43	0	724566016	55	4563
2026-01-20 23:29:52.24	141.59	57.93	-41.5	-43.5	20.8	0.00e+00	0	44	0	726663168	54	4548
2026-01-20 23:29:53.23	142.24	57.68	-41.7	-43.7	20.5	0.00e+00	0	43	0	727711744	54	4660
2026-01-20 23:29:54.22	142.88	57.44	-41.4	-43.4	20.8	0.00e+00	0	44	0	729808896	54	4517
2026-01-20 23:29:55.22	143.51	57.19	-42.1	-44.2	20.2	0.00e+00	0	44	0	731906048	54	4947
2026-01-20 23:29:56.22	144.13	56.94	-42.6	-44.8	19.6	0.00e+00	0	44	0	734003200	55	5019
2026-01-20 23:29:57.21	144.74	56.68	-42.7	-44.9	19.8	0.00e+00	0	44	0	736100352	56	4782
2026-01-20 23:29:58.20	145.33	56.43	-42.6	-44.7	19.9	0.00e+00	0	44	0	737148928	56	4677
2026-01-20 23:29:59.20	145.92	56.17	-42.4	-44.5	20.0	0.00e+00	0	44	0	739246080	56	4592
2026-01-20 23:30:00.19	146.50	55.92	-42.4	-44.5	20.0	0.00e+00	0	44	0	741343232	56	4563
2026-01-20 23:30:01.19	147.06	55.65	-42.3	-44.4	20.1	0.00e+00	0	44	0	743440384	56	4512
2026-01-20 23:30:02.18	147.62	55.40	-42.4	-44.4	20.1	0.00e+00	0	44	0	744488960	56	4543
2026-01-20 23:30:03.18	148.16	55.13	-41.7	-43.7	20.5	0.00e+00	0	44	0	746586112	55	4408
2026-01-20 23:30:04.18	148.70	54.87	-41.1	-43.1	21.0	0.00e+00	0	44	0	748683264	54	4347
2026-01-20 23:30:05.17	149.22	54.60	-41.8	-43.9	20.4	0.00e+00	0	44	0	750780416	54	4766
2026-01-20 23:30:06.16	149.74	54.34	-43.1	-45.3	19.4	0.00e+00	0	44	0	752877568	56	5000
2026-01-20 23:30:07.16	150.24	54.07	-44.1	-46.6	18.3	0.00e+00	0	43	0	753926144	58	5162
2026-01-20 23:30:08.16	150.74	53.80	-43.0	-45.2	19.4	0.00e+00	0	44	0	756023296	58	4413
2026-01-20 23:30:09.15	151.23	53.54	-42.2	-44.3	20.1	0.00e+00	0	44	0	758120448	56	4445
2026-01-20 23:30:10.15	151.71	53.27	-42.0	-44.1	20.2	0.00e+00	0	44	0	760217600	55	4616
2026-01-20 23:30:11.14	152.18	53.00	-42.9	-45.1	19.6	0.00e+00	0	44	0	761266176	56	4889
2026-01-20 23:30:12.13	152.64	52.73	-43.2	-45.4	19.1	0.00e+00	0	44	0	763363328	57	4811
2026-01-20 23:30:13.13	153.09	52.46	-43.2	-45.3	19.2	0.00e+00	0	44	0	765460480	57	4751
2026-01-20 23:30:14.12	153.54	52.19	-43.5	-45.7	18.9	0.00e+00	0	44	0	767557632	57	4977
2026-01-20 23:30:15.12	153.98	51.92	-43.9	-46.3	18.5	0.00e+00	0	44	0	769654784	58	5006
2026-01-20 23:30:16.11	154.40	51.65	-43.8	-46.1	18.6	0.00e+00	0	44	0	770703360	59	4622
2026-01-20 23:30:17.11	154.83	51.38	-43.2	-45.4	19.3	0.00e+00	0	44	0	772800512	58	4530
2026-01-20 23:30:18.10	155.24	51.11	-43.1	-45.3	19.3	0.00e+00	0	44	0	774897664	58	4448
2026-01-20 23:30:19.10	155.65	50.84	-43.1	-45.3	19.3	0.00e+00	0	44	0	776994816	57	4750
2026-01-20 23:30:20.09	156.05	50.57	-43.9	-46.3	18.4	0.00e+00	0	44	0	778043392	58	5017
2026-01-20 23:30:21.09	156.44	50.30	-44.4	-46.9	17.9	0.00e+00	0	44	0	780140544	59	5088
2026-01-20 23:30:22.08	156.83	50.03	-44.0	-46.3	18.4	0.00e+00	0	44	0	782237696	59	4759
2026-01-20 23:30:23.08	157.21	49.76	-43.4	-45.7	18.9	0.00e+00	0	44	0	784334848	58	4670
2026-01-20 23:30:24.08	157.58	49.49	-43.8	-46.2	18.5	0.00e+00	0	44	0	786432000	58	4962
2026-01-20 23:30:25.07	157.95	49.22	-44.0	-46.4	18.3	0.00e+00	0	44	0	787480576	58	5075
2026-01-20 23:30:26.06	158.31	48.95	-44.2	-46.7	18.1	0.00e+00	0	44	0	789577728	59	4965
2026-01-20 23:30:27.06	158.66	48.68	-44.7	-47.4	17.5	0.00e+00	0	44	0	791674880	60	5071
2026-01-20 23:30:28.05	159.01	48.42	-44.1	-46.6	18.2	0.00e+00	0	44	0	793772032	60	4635
2026-01-20 23:30:29.05	159.35	48.15	-42.9	-45.1	19.4	0.00e+00	0	44	0	794820608	57	4612
2026-01-20 23:30:30.04	159.69	47.88	-42.9	-45.0	19.5	0.00e+00	0	44	0	796917760	57	4581
2026-01-20 23:30:31.04	160.02	47.62	-44.0	-46.3	18.4	0.00e+00	0	44	0	799014912	58	5030
2026-01-20 23:30:32.03	160.34	47.35	-45.4	-48.2	16.8	0.00e+00	0	44	0	801112064	61	5245
2026-01-20 23:30:33.03	160.66	47.09	-46.2	-49.4	15.5	0.00e+00	0	44	0	803209216	63	5389
2026-01-20 23:30:34.02	160.97	46.82	-45.5	-48.4	16.5	0.00e+00	0	44	0	804257792	63	4777
2026-01-20 23:30:35.02	161.29	46.56	-44.7	-47.3	17.5	0.00e+00	0	44	0	806354944	61	4742
2026-01-20 23:30:36.01	161.59	46.30	-44.3	-46.7	18.0	0.00e+00	0	44	0	808452096	60	4694
2026-01-20 23:30:37.01	161.89	46.04	-44.3	-46.8	18.1	0.00e+00	0	44	0	810549248	60	4716
2026-01-20 23:30:38.00	162.18	45.78	-45.4	-48.2	16.7	0.00e+00	0	44	0	811597824	61	5265
2026-01-20 23:30:39.00	162.47	45.52	-45.6	-48.5	16.3	0.00e+00	0	44	0	813694976	62	5154
2026-01-20 23:30:39.99	162.76	45.26	-44.4	-47.0	17.7	0.00e+00	0	44	0	815792128	60	4866
2026-01-20 23:30:40.99	163.04	45.00	-42.9	-45.1	19.5	0.00e+00	0	44	0	817889280	57	4612
2026-01-20 23:30:41.98	163.31	44.74	-42.5	-44.7	19.8	0.00e+00	0	44	0	819986432	57	4396
2026-01-20 23:30:42.98	163.59	44.49	-42.9	-45.0	19.5	0.00e+00	0	44	0	821035008	56	4867
2026-01-20 23:30:43.97	163.85	44.23	-43.6	-45.9	18.8	0.00e+00	0	44	0	823132160	57	5046
2026-01-20 23:30:44.97	164.12	43.98	-44.8	-47.4	17.4	0.00e+00	0	44	0	825229312	60	5059
2026-01-20 23:30:45.96	164.37	43.72	-46.2	-49.3	15.7	0.00e+00	0	44	0	827326464	62	5629
2026-01-20 23:30:46.95	164.63	43.47	-47.7	-52.1	12.7	1.50e-06	0	44	0	828375040	66	6133
2026-01-20 23:30:47.95	164.88	43.22	-47.9	-52.4	12.3	3.62e-04	0	44	0	830472192	67	6061
2026-01-20 23:30:48.94	165.13	42.97	-46.0	-49.2	15.5	7.00e-07	0	44	0	832569344	64	4960
2026-01-20 23:30:49.94	165.37	42.72	-44.2	-46.7	18.1	0.00e+00	0	44	0	834666496	60	4656
2026-01-20 23:30:50.93	165.61	42.48	-43.5	-45.7	18.9	0.00e+00	0	44	0	836763648	58	4673
2026-01-20 23:30:51.93	165.85	42.23	-42.8	-44.9	19.5	0.00e+00	0	44	0	837812224	57	4523
2026-01-20 23:30:52.92	166.08	41.98	-43.3	-45.5	19.0	0.00e+00	0	44	0	839909376	57	4855
2026-01-20 23:30:53.92	166.31	41.74	-44.4	-46.9	17.7	0.00e+00	0	44	0	842006528	59	5095
2026-01-20 23:30:54.91	166.53	41.50	-45.0	-47.8	16.9	0.00e+00	0	44	0	844103680	61	5021
2026-01-20 23:30:55.91	166.76	41.25	-45.1	-48.0	16.8	0.00e+00	0	44	0	845152256	61	5137
2026-01-20 23:30:56.90	166.98	41.01	-44.1	-46.7	18.0	0.00e+00	0	44	0	847249408	60	4677
2026-01-20 23:30:57.90	167.19	40.77	-43.1	-45.4	19.1	0.00e+00	0	44	0	849346560	58	4521
2026-01-20 23:30:58.89	167.41	40.53	-43.2	-45.5	19.0	0.00e+00	0	44	0	851443712	57	4858
2026-01-20 23:30:59.89	167.62	40.30	-43.3	-45.6	18.9	0.00e+00	0	44	0	853540864	57	4894
2026-01-20 23:31:00.88	167.82	40.06	-44.2	-46.6	18.0	0.00e+00	0	44	0	854589440	59	4897
2026-01-20 23:31:01.88	168.03	39.82	-44.8	-47.5	17.3	0.00e+00	0	44	0	856686592	60	5121
2026-01-20 23:31:02.87	168.23	39.59	-45.0	-47.7	17.1	0.00e+00	0	44	0	858783744	60	5260
2026-01-20 23:31:03.86	168.43	39.36	-45.2	-48.1	16.7	0.00e+00	0	44	0	860880896	61	5179
2026-01-20 23:31:04.86	168.62	39.13	-45.6	-48.6	16.2	0.00e+00	0	44	0	861929472	61	5507
2026-01-20 23:31:05.85	168.82	38.90	-45.2	-48.1	16.7	0.00e+00	0	44	0	864026624	62	4896
2026-01-20 23:31:06.85	169.01	38.67	-44.5	-47.2	17.5	0.00e+00	0	43	0	866123776	61	4672
2026-01-20 23:31:07.84	169.19	38.44	-44.2	-46.8	17.9	0.00e+00	0	44	0	868220928	60	4709
2026-01-20 23:31:08.84	169.38	38.21	-43.4	-45.7	18.9	0.00e+00	0	44	0	870318080	58	4672
2026-01-20 23:31:09.83	169.56	37.99	-42.4	-44.5	19.8	0.00e+00	0	44	0	871366656	56	4555
2026-01-20 23:31:10.83	169.74	37.76	-42.9	-45.1	19.3	0.00e+00	0	44	0	873463808	56	4886
2026-01-20 23:31:11.82	169.92	37.54	-42.7	-44.9	19.5	0.00e+00	0	44	0	875560960	56	4787
2026-01-20 23:31:12.81	170.10	37.32	-43.4	-45.7	18.8	0.00e+00	0	44	0	877658112	57	4937
2026-01-20 23:31:13.81	170.27	37.10	-43.9	-46.3	18.3	0.00e+00	0	44	0	878706688	58	5032
2026-01-20 23:31:14.81	170.44	36.88	-44.4	-46.9	17.7	0.00e+00	0	44	0	880803840	59	5083
2026-01-20 23:31:15.80	170.61	36.66	-44.4	-47.0	17.7	0.00e+00	0	44	0	882900992	59	5115
2026-01-20 23:31:16.80	170.78	36.44	-44.6	-47.2	17.6	0.00e+00	0	43	0	884998144	60	4956
2026-01-20 23:31:17.79	170.94	36.23	-44.4	-47.0	17.6	0.00e+00	0	44	0	887095296	60	4858
2026-01-20 23:31:18.78	171.10	36.01	-43.8	-46.2	18.3	0.00e+00	0	44	0	888143872	59	4696
2026-01-20 23:31:19.78	171.26	35.80	-44.0	-46.5	18.1	0.00e+00	0	44	0	890241024	59	4832
2026-01-20 23:31:20.78	171.42	35.58	-43.6	-45.9	18.6	0.00e+00	0	44	0	892338176	59	4523
2026-01-20 23:31:21.77	171.58	35.37	-43.1	-45.4	19.0	0.00e+00	0	44	0	894435328	58	4501
2026-01-20 23:31:22.77	171.73	35.16	-43.0	-45.3	19.1	0.00e+00	0	44	0	896532480	57	4741
2026-01-20 23:31:23.76	171.88	34.95	-42.9	-45.1	19.3	0.00e+00	0	44	0	897581056	57	4634
2026-01-20 23:31:24.75	172.03	34.75	-43.2	-45.5	18.9	0.00e+00	0	44	0	899678208	57	4833
2026-01-20 23:31:25.75	172.18	34.54	-43.6	-45.9	18.5	0.00e+00	0	44	0	901775360	57	5098
2026-01-20 23:31:26.74	172.33	34.33	-44.3	-46.9	17.7	0.00e+00	0	44	0	903872512	59	5077
2026-01-20 23:31:27.74	172.47	34.13	-45.1	-47.9	16.8	0.00e+00	0	44	0	904921088	60	5382
2026-01-20 23:31:28.73	172.62	33.93	-45.5	-48.5	16.3	0.00e+00	0	44	0	907018240	61	5424
2026-01-20 23:31:29.73	172.76	33.72	-46.1	-49.4	15.4	0.00e+00	0	44	0	909115392	63	5359
2026-01-20 23:31:30.72	172.90	33.52	-46.5	-50.0	14.7	1.50e-06	0	44	0	911212544	64	5409
2026-01-20 23:31:31.72	173.04	33.32	-46.6	-50.2	14.6	0.00e+00	0	44	0	913309696	64	5554
2026-01-20 23:31:32.71	173.17	33.13	-46.7	-50.2	14.5	7.00e-07	0	44	0	914358272	64	5591
2026-01-20 23:31:33.71	173.31	32.93	-46.0	-49.2	15.5	0.00e+00	0	44	0	916455424	63	5252
2026-01-20 23:31:34.71	173.44	32.73	-45.8	-48.9	15.9	0.00e+00	0	44	0	918552576	63	5058
2026-01-20 23:31:35.70	173.57	32.53	-45.4	-48.4	16.3	0.00e+00	0	44	0	920649728	62	5056
2026-01-20 23:31:36.70	173.70	32.34	-44.6	-47.2	17.4	0.00e+00	0	44	0	921698304	61	4695
2026-01-20 23:31:37.69	173.83	32.15	-44.1	-46.5	18.1	0.00e+00	0	44	0	923795456	60	4578
2026-01-20 23:31:38.69	173.96	31.95	-43.8	-46.2	18.3	0.00e+00	0	44	0	925892608	59	4672
2026-01-20 23:31:39.68	174.09	31.76	-43.4	-45.7	18.7	0.00e+00	0	44	0	927989760	58	4692
2026-01-20 23:31:40.68	174.21	31.57	-43.2	-45.5	18.9	0.00e+00	0	44	0	930086912	58	4563
2026-01-20 23:31:41.67	174.33	31.39	-43.4	-45.7	18.7	0.00e+00	0	44	0	931135488	58	4685
2026-01-20 23:31:42.67	174.46	31.20	-43.5	-45.8	18.7	0.00e+00	0	44	0	933232640	58	4716
2026-01-20 23:31:43.66	174.58	31.01	-43.9	-46.3	18.2	0.00e+00	0	44	0	935329792	58	5007
2026-01-20 23:31:44.66	174.69	30.82	-44.3	-46.9	17.6	0.00e+00	0	44	0	937426944	59	5054
2026-01-20 23:31:45.65	174.81	30.64	-44.5	-47.2	17.4	0.00e+00	0	44	0	938475520	59	5221
2026-01-20 23:31:46.64	174.93	30.46	-45.1	-48.0	16.7	0.00e+00	0	44	0	940572672	60	5432
2026-01-20 23:31:47.64	175.04	30.28	-45.2	-48.1	16.6	0.00e+00	0	44	0	942669824	61	5185
2026-01-20 23:31:48.63	175.16	30.09	-45.5	-48.5	16.2	0.00e+00	0	44	0	944766976	61	5429
2026-01-20 23:31:49.63	175.27	29.91	-45.8	-48.9	15.9	0.00e+00	0	44	0	946864128	62	5356
2026-01-20 23:31:50.62	175.38	29.73	-45.7	-48.8	15.9	0.00e+00	0	44	0	947912704	62	5308
2026-01-20 23:31:51.62	175.49	29.56	-45.8	-48.9	15.8	0.00e+00	0	44	0	950009856	62	5365
2026-01-20 23:31:52.61	175.60	29.38	-45.7	-48.8	15.9	0.00e+00	0	44	0	952107008	62	5329
2026-01-20 23:31:53.61	175.71	29.20	-45.7	-48.7	16.0	0.00e+00	0	44	0	954204160	62	5258
2026-01-20 23:31:54.60	175.81	29.03	-45.5	-48.4	16.3	0.00e+00	0	44	0	955252736	62	5091
2026-01-20 23:31:55.60	175.92	28.85	-45.4	-48.3	16.4	0.00e+00	0	44	0	957349888	62	5039
2026-01-20 23:31:56.59	176.02	28.68	-45.3	-48.2	16.5	0.00e+00	0	44	0	959447040	62	4935
2026-01-20 23:31:57.59	176.13	28.51	-44.8	-47.5	17.1	0.00e+00	0	44	0	961544192	61	4845
2026-01-20 23:31:58.58	176.23	28.34	-44.4	-47.0	17.5	0.00e+00	0	44	0	963641344	60	4827
2026-01-20 23:31:59.58	176.33	28.16	-43.8	-46.2	18.2	0.00e+00	0	44	0	964689920	59	4701
2026-01-20 23:32:00.57	176.43	28.00	-43.4	-45.7	18.7	0.00e+00	0	44	0	966787072	58	4656
2026-01-20 23:32:01.57	176.53	27.83	-43.0	-45.2	19.2	0.00e+00	0	44	0	968884224	58	4415
2026-01-20 23:32:02.56	176.63	27.66	-42.5	-44.6	19.7	0.00e+00	0	44	0	970981376	56	4610
2026-01-20 23:32:03.55	176.73	27.49	-42.5	-44.6	19.6	0.00e+00	0	44	0	972029952	56	4620
2026-01-20 23:32:04.55	176.82	27.33	-42.4	-44.5	19.7	0.00e+00	0	44	0	974127104	56	4563
2026-01-20 23:32:05.54	176.92	27.16	-42.5	-44.6	19.6	0.00e+00	0	44	0	976224256	56	4636
2026-01-20 23:32:06.54	177.01	27.00	-42.7	-44.9	19.4	0.00e+00	0	44	0	978321408	56	4776
2026-01-20 23:32:07.53	177.11	26.84	-43.2	-45.5	19.0	0.00e+00	0	44	0	980418560	56	5101
2026-01-20 23:32:08.52	177.20	26.67	-43.1	-45.4	19.0	0.00e+00	0	44	0	981467136	57	4768
2026-01-20 23:32:09.52	177.29	26.51	-43.5	-45.9	18.5	0.00e+00	0	44	0	983564288	57	5043
2026-01-20 23:32:10.51	177.38	26.35	-43.7	-46.2	18.3	0.00e+00	0	44	0	985661440	58	4927
2026-01-20 23:32:11.51	177.47	26.19	-43.7	-46.1	18.4	0.00e+00	0	44	0	987758592	58	4886
2026-01-20 23:32:12.50	177.56	26.03	-43.8	-46.2	18.1	0.00e+00	0	44	0	988807168	58	4978
2026-01-20 23:32:13.49	177.65	25.88	-43.8	-46.3	18.1	0.00e+00	0	44	0	990904320	58	5023
2026-01-20 23:32:14.49	177.74	25.72	-43.8	-46.2	18.2	0.00e+00	0	44	0	993001472	58	4968
2026-01-20 23:32:15.48	177.82	25.56	-43.7	-46.2	18.3	0.00e+00	0	44	0	995098624	58	4946
2026-01-20 23:32:16.48	177.91	25.41	-43.8	-46.3	18.2	0.00e+00	0	44	0	997195776	58	5001
2026-01-20 23:32:17.47	177.99	25.25	-43.8	-46.3	18.3	0.00e+00	0	44	0	998244352	58	4984
2026-01-20 23:32:18.47	178.08	25.10	-44.0	-46.5	17.9	0.00e+00	0	44	0	1000341504	58	5156
2026-01-20 23:32:19.46	178.16	24.95	-43.9	-46.4	17.9	0.00e+00	0	44	0	1002438656	58	5052
2026-01-20 23:32:20.46	178.24	24.79	-44.1	-46.6	17.8	0.00e+00	0	44	0	1004535808	59	4915
2026-01-20 23:32:21.45	178.33	24.64	-44.1	-46.6	17.8	0.00e+00	0	44	0	1005584384	59	4900
2026-01-20 23:32:22.45	178.41	24.49	-44.0	-46.5	17.9	0.00e+00	0	44	0	1007681536	59	4829
2026-01-20 23:32:23.44	178.49	24.34	-44.1	-46.7	17.7	0.00e+00	0	44	0	1009778688	59	4967
2026-01-20 23:32:24.43	178.57	24.20	-44.0	-46.6	17.9	0.00e+00	0	44	0	1011875840	59	4876
2026-01-20 23:32:25.43	178.65	24.05	-43.7	-46.1	18.3	0.00e+00	0	44	0	1013972992	59	4649
2026-01-20 23:32:26.42	178.72	23.90	-43.7	-46.1	18.3	0.00e+00	0	44	0	1015021568	58	4913
2026-01-20 23:32:27.42	178.80	23.75	-43.4	-45.8	18.6	0.00e+00	0	44	0	1017118720	58	4739
2026-01-20 23:32:28.41	178.88	23.61	-43.4	-45.8	18.6	0.00e+00	0	44	0	1019215872	58	4743
2026-01-20 23:32:29.41	178.95	23.46	-43.2	-45.6	18.7	0.00e+00	0	44	0	1021313024	58	4632
2026-01-20 23:32:30.40	179.03	23.32	-43.4	-45.8	18.6	0.00e+00	0	44	0	1022361600	58	4743
2026-01-20 23:32:31.40	179.10	23.18	-43.2	-45.5	18.8	0.00e+00	0	44	0	1024458752	58	4589
2026-01-20 23:32:32.39	179.18	23.03	-43.0	-45.4	19.0	0.00e+00	0	44	0	1026555904	57	4764
2026-01-20 23:32:33.38	179.25	22.89	-43.0	-45.3	19.0	0.00e+00	0	44	0	1028653056	57	4735
2026-01-20 23:32:34.38	179.32	22.75	-42.7	-45.0	19.3	0.00e+00	0	44	0	1030750208	56	4826
2026-01-20 23:32:35.37	179.40	22.61	-42.6	-44.8	19.4	0.00e+00	0	44	0	1031798784	56	4734
2026-01-20 23:32:36.37	179.47	22.47	-42.6	-44.8	19.4	0.00e+00	0	44	0	1033895936	56	4754
2026-01-20 23:32:37.36	179.54	22.33	-42.5	-44.7	19.6	0.00e+00	0	44	0	1035993088	56	4664
2026-01-20 23:32:38.36	179.61	22.19	-42.3	-44.5	19.7	0.00e+00	0	44	0	1038090240	56	4573
2026-01-20 23:32:39.35	179.68	22.06	-42.4	-44.6	19.6	0.00e+00	0	44	0	1039138816	56	4642
2026-01-20 23:32:40.34	179.75	21.92	-42.3	-44.5	19.7	0.00e+00	0	44	0	1041235968	56	4569
2026-01-20 23:32:41.34	179.82	21.79	-42.4	-44.6	19.6	0.00e+00	0	44	0	1043333120	56	4603
2026-01-20 23:32:42.34	179.89	21.65	-42.5	-44.7	19.5	0.00e+00	0	44	0	1045430272	56	4685
2026-01-20 23:32:43.33	179.95	21.51	-42.4	-44.6	19.7	0.00e+00	0	44	0	1047527424	56	4614
2026-01-20 23:32:44.32	180.02	21.38	-42.5	-44.7	19.5	0.00e+00	0	44	0	1048576000	56	4690
2026-01-20 23:32:45.32	180.09	21.25	-42.7	-45.0	19.3	0.00e+00	0	44	0	1050673152	56	4835
2026-01-20 23:32:46.31	180.15	21.12	-43.0	-45.4	19.0	0.00e+00	0	44	0	1052770304	56	5046
2026-01-20 23:32:47.31	180.22	20.98	-43.1	-45.5	18.8	0.00e+00	0	44	0	1054867456	56	5108
2026-01-20 23:32:48.30	180.28	20.85	-43.4	-45.8	18.6	0.00e+00	0	44	0	1055916032	57	4999
2026-01-20 23:32:49.30	180.35	20.72	-43.5	-46.0	18.4	0.00e+00	0	44	0	1058013184	57	5116
2026-01-20 23:32:50.29	180.41	20.59	-43.3	-45.8	18.6	0.00e+00	0	44	0	1060110336	57	4985
2026-01-20 23:32:51.28	180.47	20.46	-43.4	-45.9	18.5	0.00e+00	0	43	0	1062207488	57	5047
2026-01-20 23:32:52.28	180.54	20.33	-43.5	-45.9	18.4	0.00e+00	0	44	0	1064304640	57	5100
2026-01-20 23:32:53.27	180.60	20.21	-43.4	-45.9	18.5	0.00e+00	0	44	0	1065353216	57	5048
2026-01-20 23:32:54.27	180.66	20.08	-43.2	-45.6	18.6	0.00e+00	0	44	0	1067450368	57	4924
2026-01-20 23:32:55.26	180.72	19.95	-43.3	-45.7	18.5	0.00e+00	0	44	0	1069547520	57	4973
2026-01-20 23:32:56.26	180.78	19.82	-43.2	-45.5	18.7	0.00e+00	0	44	0	1071644672	57	4866
2026-01-20 23:32:57.25	180.84	19.70	-43.0	-45.4	18.9	0.00e+00	0	44	0	1072693248	57	4788
2026-01-20 23:32:58.25	180.90	19.57	-43.2	-45.6	18.7	0.00e+00	0	44	0	1074790400	57	4896
2026-01-20 23:32:59.24	180.96	19.45	-43.0	-45.4	18.9	0.00e+00	0	44	0	1076887552	57	4767
2026-01-20 23:33:00.23	181.02	19.33	-42.9	-45.2	19.1	0.00e+00	0	44	0	1078984704	57	4667
2026-01-20 23:33:01.23	181.08	19.20	-42.8	-45.1	19.1	0.00e+00	0	44	0	1081081856	57	4643
2026-01-20 23:33:02.23	181.14	19.08	-42.8	-45.0	19.2	0.00e+00	0	44	0	1082130432	57	4591
2026-01-20 23:33:03.22	181.20	18.96	-42.9	-45.2	19.0	0.00e+00	0	44	0	1084227584	57	4662
2026-01-20 23:33:04.22	181.26	18.83	-42.9	-45.2	19.0	0.00e+00	0	44	0	1086324736	57	4671
2026-01-20 23:33:05.21	181.31	18.71	-42.9	-45.2	19.0	0.00e+00	0	44	0	1088421888	57	4670
2026-01-20 23:33:06.21	181.37	18.59	-43.0	-45.3	19.0	0.00e+00	0	44	0	1089470464	57	4725
2026-01-20 23:33:07.20	181.42	18.47	-43.2	-45.5	18.8	0.00e+00	0	44	0	1091567616	57	4835
2026-01-20 23:33:08.20	181.48	18.35	-43.1	-45.4	18.8	0.00e+00	0	44	0	1093664768	57	4797
2026-01-20 23:33:09.20	181.54	18.23	-43.1	-45.5	18.8	0.00e+00	0	44	0	1095761920	57	4822
2026-01-20 23:33:10.19	181.59	18.12	-43.3	-45.7	18.6	0.00e+00	0	44	0	1097859072	57	4935
2026-01-20 23:33:11.18	181.64	18.00	-43.4	-45.8	18.5	0.00e+00	0	44	0	1098907648	57	4999
2026-01-20 23:33:12.18	181.70	17.88	-43.2	-45.6	18.7	0.00e+00	0	44	0	1101004800	57	4887
2026-01-20 23:33:13.17	181.75	17.77	-43.2	-45.6	18.7	0.00e+00	0	44	0	1103101952	57	4885
2026-01-20 23:33:14.17	181.81	17.65	-43.1	-45.4	18.8	0.00e+00	0	44	0	1105199104	57	4813
2026-01-20 23:33:15.16	181.86	17.53	-43.1	-45.4	18.9	0.00e+00	0	44	0	1107296256	57	4810
2026-01-20 23:33:16.16	181.91	17.42	-43.0	-45.3	19.0	0.00e+00	0	44	0	1108344832	57	4722
2026-01-20 23:33:17.15	181.96	17.30	-43.0	-45.4	18.9	0.00e+00	0	43	0	1110441984	57	4761
2026-01-20 23:33:18.15	182.01	17.19	-43.0	-45.3	18.9	0.00e+00	0	44	0	1112539136	57	4719
2026-01-20 23:33:19.14	182.07	17.08	-42.9	-45.2	17.6	0.00e+00	0	44	0	1114636288	57	4662
2026-01-20 23:33:20.14	182.12	16.96	-43.0	-45.3	18.9	0.00e+00	0	44	0	1115684864	57	4741
2026-01-20 23:33:21.13	182.17	16.85	-42.9	-45.3	19.0	0.00e+00	0	44	0	1117782016	57	4711
2026-01-20 23:33:22.13	182.22	16.74	-42.9	-45.2	19.1	0.00e+00	0	44	0	1119879168	57	4655
2026-01-20 23:33:23.12	182.27	16.63	-43.0	-45.3	18.9	0.00e+00	0	44	0	1121976320	57	4750
2026-01-20 23:33:24.12	182.32	16.52	-42.9	-45.2	19.0	0.00e+00	0	44	0	1124073472	57	4659
2026-01-20 23:33:25.11	182.37	16.41	-42.9	-45.2	19.0	0.00e+00	0	44	0	1125122048	57	4671
2026-01-20 23:33:26.11	182.42	16.29	-43.0	-45.4	18.9	0.00e+00	0	44	0	1127219200	57	4763
2026-01-20 23:33:27.10	182.46	16.19	-42.9	-45.3	18.9	0.00e+00	0	44	0	1129316352	57	4728
2026-01-20 23:33:28.10	182.51	16.08	-43.0	-45.3	18.9	0.00e+00	0	44	0	1131413504	57	4758
2026-01-20 23:33:29.09	182.56	15.97	-43.0	-45.4	18.8	0.00e+00	0	44	0	1132462080	57	4783
2026-01-20 23:33:30.09	182.61	15.86	-43.1	-45.5	18.7	0.00e+00	0	44	0	1134559232	57	4843
2026-01-20 23:33:31.08	182.66	15.75	-43.4	-45.9	18.4	0.00e+00	0	44	0	1136656384	57	5075
2026-01-20 23:33:32.08	182.70	15.64	-43.2	-45.7	18.5	0.00e+00	0	44	0	1138753536	57	4963
2026-01-20 23:33:33.07	182.75	15.54	-43.4	-46.0	18.3	0.00e+00	0	44	0	1140850688	57	5113
2026-01-20 23:33:34.07	182.80	15.43	-43.4	-46.0	18.3	0.00e+00	0	44	0	1141899264	57	5112
2026-01-20 23:33:35.06	182.84	15.33	-43.6	-46.2	18.1	0.00e+00	0	44	0	1143996416	57	5247
2026-01-20 23:33:36.06	182.89	15.22	-43.7	-46.4	17.9	0.00e+00	0	43	0	1146093568	58	5046
2026-01-20 23:33:37.05	182.93	15.12	-43.7	-46.4	17.9	0.00e+00	0	44	0	1148190720	58	5047
2026-01-20 23:33:38.04	182.98	15.01	-43.8	-46.5	17.9	0.00e+00	0	44	0	1149239296	58	5108
2026-01-20 23:33:39.04	183.02	14.91	-44.0	-46.7	17.6	0.00e+00	0	44	0	1151336448	58	5277
2026-01-20 23:33:40.03	183.07	14.80	-44.0	-46.7	17.6	0.00e+00	0	44	0	1153433600	58	5252
2026-01-20 23:33:41.03	183.11	14.70	-44.2	-47.0	17.3	0.00e+00	0	44	0	1155530752	59	5135
2026-01-20 23:33:42.03	183.16	14.60	-44.2	-47.0	17.3	0.00e+00	0	44	0	1157627904	59	5128
2026-01-20 23:33:43.02	183.20	14.49	-44.4	-47.2	17.2	0.00e+00	0	44	0	1158676480	59	5230
2026-01-20 23:33:44.01	183.24	14.39	-44.5	-47.3	17.1	0.00e+00	0	44	0	1160773632	59	5310
2026-01-20 23:33:45.01	183.29	14.29	-44.6	-47.4	16.9	0.00e+00	0	44	0	1162870784	59	5400
2026-01-20 23:33:46.00	183.33	14.19	-44.6	-47.6	16.9	0.00e+00	0	44	0	1164967936	60	5176
2026-01-20 23:33:47.00	183.37	14.09	-44.9	-48.0	16.5	0.00e+00	0	44	0	1166016512	60	5419
2026-01-20 23:33:47.99	183.41	13.99	-44.8	-47.9	16.6	0.00e+00	0	44	0	1168113664	60	5354
2026-01-20 23:33:48.98	183.45	13.89	-45.1	-48.4	16.1	0.00e+00	0	44	0	1170210816	60	5672
2026-01-20 23:33:49.98	183.50	13.79	-45.2	-48.4	16.1	0.00e+00	0	44	0	1172307968	61	5364
2026-01-20 23:33:50.97	183.54	13.69	-45.3	-48.6	15.9	0.00e+00	0	44	0	1174405120	61	5507
2026-01-20 23:33:51.96	183.58	13.59	-45.4	-48.8	15.7	0.00e+00	0	44	0	1175453696	61	5644
2026-01-20 23:33:52.96	183.62	13.49	-45.4	-48.8	15.6	0.00e+00	0	44	0	1177550848	61	5644
2026-01-20 23:33:53.96	183.66	13.39	-45.4	-48.7	15.7	0.00e+00	0	44	0	1179648000	61	5585
2026-01-20 23:33:54.95	183.70	13.30	-45.6	-49.2	15.3	0.00e+00	0	44	0	1181745152	61	5858
2026-01-20 23:33:55.95	183.74	13.20	-45.5	-49.0	15.5	0.00e+00	0	44	0	1182793728	62	5404
2026-01-20 23:33:56.94	183.78	13.10	-45.7	-49.2	15.3	0.00e+00	0	44	0	1184890880	62	5566
2026-01-20 23:33:57.93	183.82	13.01	-45.9	-49.6	14.9	0.00e+00	0	44	0	1186988032	62	5821
2026-01-20 23:33:58.93	183.86	12.91	-45.7	-49.3	15.2	0.00e+00	0	44	0	1189085184	62	5603
2026-01-20 23:33:59.92	183.90	12.81	-45.8	-49.3	15.1	0.00e+00	0	44	0	1191182336	62	5651
2026-01-20 23:34:00.92	183.94	12.72	-46.0	-49.6	14.9	0.00e+00	0	44	0	1192230912	62	5800
2026-01-20 23:34:01.92	183.98	12.62	-45.9	-49.4	15.1	0.00e+00	0	44	0	1194328064	62	5679
2026-01-20 23:34:02.91	184.02	12.53	-45.9	-49.5	15.0	0.00e+00	0	44	0	1196425216	62	5729
2026-01-20 23:34:03.90	184.06	12.44	-45.6	-48.9	15.5	0.00e+00	0	44	0	1198522368	62	5392
2026-01-20 23:34:04.90	184.09	12.34	-45.7	-49.1	15.4	0.00e+00	0	44	0	1199570944	62	5488
2026-01-20 23:34:05.89	184.13	12.25	-45.7	-49.1	15.4	0.00e+00	0	44	0	1201668096	62	5488
2026-01-20 23:34:06.89	184.17	12.15	-45.4	-48.7	15.7	0.00e+00	0	44	0	1203765248	62	5271
2026-01-20 23:34:07.88	184.21	12.06	-45.5	-48.8	15.6	0.00e+00	0	44	0	1205862400	62	5330
2026-01-20 23:34:08.88	184.24	11.97	-45.4	-48.7	15.7	0.00e+00	0	44	0	1207959552	62	5225
2026-01-20 23:34:09.87	184.28	11.88	-45.2	-48.4	16.0	0.00e+00	0	44	0	1209008128	62	5060
2026-01-20 23:34:10.87	184.32	11.78	-45.3	-48.5	15.8	0.00e+00	0	44	0	1211105280	62	5145
