passes_logs/2026/01/20/T1/T1__20260120_040357_FENGYUN_3E_rec.log

#Pass ID: 20260120_040357_FENGYUN 3E
#Satellite: FENGYUN 3E
#Configuration: FENGYUN 3E
#almurnet v.1.7.20251203
#Start time: 2026-01-20 04:03:56

#Version: 2.0.20230620
#Station: T1
#Location: 37.570604 lon 55.790049 lat
#TLE: 1 49008U 21062A   26019.23377557 -.00000048  00000+0 -18182-5 0  9997
#TLE: 2 49008  98.7482  24.3123 0002210 128.5385 231.5989 14.19885253235444

#Time	Az	El	Level	Level2	SNR	BER	BlckErr	Temp	State	Recorded	gain1	gain2
2026-01-20 04:03:56.78	15.69	4.98	-48.9	-60.9	3.8	8.46e-01	0	37	0	0	68	14097
2026-01-20 04:03:57.77	15.69	5.05	-48.8	-60.7	3.8	8.47e-01	0	37	104	0	66	15563
2026-01-20 04:03:58.76	15.69	5.12	-48.8	-60.8	3.8	8.47e-01	0	37	104	0	66	15668
2026-01-20 04:03:59.75	15.69	5.19	-48.7	-60.8	3.8	8.46e-01	0	37	104	0	66	15652
2026-01-20 04:04:00.75	15.68	5.26	-48.7	-60.8	3.8	8.46e-01	0	37	104	0	66	15631
2026-01-20 04:04:01.74	15.68	5.33	-48.7	-60.8	3.8	8.47e-01	0	37	104	0	66	15691
2026-01-20 04:04:02.73	15.68	5.40	-48.7	-60.9	3.8	8.47e-01	0	37	104	0	66	15794
2026-01-20 04:04:03.73	15.68	5.48	-48.7	-60.8	3.8	8.48e-01	0	37	104	0	66	15760
2026-01-20 04:04:04.72	15.68	5.55	-48.7	-60.9	3.8	8.47e-01	0	37	104	0	66	15815
2026-01-20 04:04:05.72	15.68	5.62	-48.6	-60.8	3.8	8.47e-01	0	37	104	0	66	15627
2026-01-20 04:04:06.71	15.68	5.69	-48.6	-60.8	3.8	8.47e-01	0	38	104	0	66	15651
2026-01-20 04:04:07.70	15.67	5.77	-48.6	-60.7	3.8	8.46e-01	0	37	104	0	66	15543
2026-01-20 04:04:08.70	15.67	5.84	-48.6	-60.7	3.8	8.46e-01	0	38	104	0	66	15475
2026-01-20 04:04:09.69	15.67	5.91	-48.6	-60.7	3.8	8.47e-01	0	38	104	0	66	15487
2026-01-20 04:04:10.68	15.67	5.99	-48.6	-60.7	3.8	8.47e-01	0	38	104	0	66	15480
2026-01-20 04:04:11.68	15.67	6.06	-48.6	-60.7	3.8	8.47e-01	0	38	104	0	66	15408
2026-01-20 04:04:12.67	15.67	6.13	-48.6	-60.8	3.8	8.47e-01	0	38	104	0	66	15603
2026-01-20 04:04:13.66	15.66	6.21	-48.6	-60.7	3.8	8.46e-01	0	38	104	0	66	15518
2026-01-20 04:04:14.66	15.66	6.28	-48.7	-60.7	3.8	8.48e-01	0	38	104	0	66	15566
2026-01-20 04:04:15.65	15.66	6.35	-48.7	-60.8	3.8	8.47e-01	0	38	104	0	66	15623
2026-01-20 04:04:16.64	15.66	6.43	-48.7	-60.8	3.8	8.48e-01	0	38	104	0	66	15649
2026-01-20 04:04:17.64	15.66	6.50	-48.7	-60.7	3.8	8.46e-01	0	38	104	0	66	15484
2026-01-20 04:04:18.63	15.65	6.58	-48.7	-60.6	3.8	8.47e-01	0	38	104	0	66	15384
2026-01-20 04:04:19.62	15.65	6.65	-48.7	-60.5	3.8	8.46e-01	0	38	104	0	66	15175
2026-01-20 04:04:20.62	15.65	6.73	-48.7	-60.4	3.8	8.47e-01	0	38	104	0	66	14928
2026-01-20 04:04:21.61	15.65	6.81	-48.7	-60.2	3.8	8.46e-01	0	38	104	0	66	14599
2026-01-20 04:04:22.60	15.65	6.88	-48.6	-59.9	3.8	8.47e-01	0	38	104	0	66	14158
2026-01-20 04:04:23.60	15.64	6.96	-48.6	-59.7	3.8	8.46e-01	0	38	104	0	66	13820
2026-01-20 04:04:24.59	15.64	7.03	-48.5	-59.4	3.8	8.47e-01	0	38	104	0	66	13407
2026-01-20 04:04:25.59	15.64	7.11	-48.5	-59.2	3.8	8.47e-01	0	38	104	0	66	13023
2026-01-20 04:04:26.58	15.64	7.19	-48.4	-58.9	3.8	8.46e-01	0	38	104	0	66	12531
2026-01-20 04:04:27.57	15.64	7.26	-48.4	-58.5	3.8	8.45e-01	0	38	104	0	66	12050
2026-01-20 04:04:28.57	15.63	7.34	-48.3	-58.0	4.0	8.45e-01	0	38	104	0	66	11408
2026-01-20 04:04:29.56	15.63	7.42	-48.3	-57.6	4.1	8.41e-01	0	38	0	0	66	10817
2026-01-20 04:04:30.55	15.63	7.50	-48.2	-57.1	4.3	8.36e-01	0	38	0	0	66	10215
2026-01-20 04:04:31.55	15.63	7.57	-48.1	-56.7	4.4	8.32e-01	0	38	0	0	66	9751
2026-01-20 04:04:32.54	15.62	7.65	-48.0	-56.1	4.6	8.16e-01	0	38	0	0	66	9136
2026-01-20 04:04:33.54	15.62	7.73	-48.0	-55.7	4.8	7.95e-01	0	38	0	0	66	8674
2026-01-20 04:04:34.53	15.62	7.81	-47.8	-55.2	5.1	7.70e-01	0	38	0	0	66	8196
2026-01-20 04:04:35.52	15.62	7.89	-47.7	-54.7	5.4	7.29e-01	0	39	0	0	66	7724
2026-01-20 04:04:36.52	15.61	7.97	-47.5	-53.9	5.9	5.35e-01	0	38	0	1048576	65	7532
2026-01-20 04:04:37.51	15.61	8.05	-47.4	-53.5	6.2	3.11e-01	0	39	0	8388608	65	7134
2026-01-20 04:04:38.50	15.61	8.13	-47.2	-52.7	6.9	2.05e-01	0	39	0	15728640	65	6561
2026-01-20 04:04:39.50	15.61	8.21	-47.0	-52.2	7.4	1.32e-01	0	39	0	23068672	64	6514
2026-01-20 04:04:40.49	15.60	8.29	-46.8	-51.6	8.0	7.83e-02	0	39	0	30408704	64	6086
2026-01-20 04:04:41.48	15.60	8.37	-46.6	-51.1	8.4	4.71e-02	0	39	0	37748736	64	5778
2026-01-20 04:04:42.51	15.60	8.45	-46.4	-50.3	9.3	2.06e-02	0	39	0	45088768	63	5573
2026-01-20 04:04:43.53	15.60	8.53	-46.1	-49.8	9.9	1.09e-02	0	39	0	52428800	63	5249
2026-01-20 04:04:44.56	15.59	8.62	-46.0	-49.5	10.3	5.66e-03	0	39	0	59768832	62	5348
2026-01-20 04:04:45.55	15.59	8.70	-45.6	-48.8	10.9	3.26e-03	0	39	0	67108864	62	4961
2026-01-20 04:04:46.54	15.59	8.78	-45.5	-48.6	11.1	1.48e-03	0	39	0	74448896	61	5142
2026-01-20 04:04:47.54	15.58	8.86	-45.3	-48.2	11.5	1.06e-03	0	39	0	80740352	61	4907
2026-01-20 04:04:48.53	15.58	8.94	-45.2	-48.1	11.6	6.30e-04	0	39	0	88080384	61	4865
2026-01-20 04:04:49.52	15.58	9.03	-45.2	-48.2	11.6	7.38e-04	0	39	0	95420416	61	4882
2026-01-20 04:04:50.52	15.57	9.11	-45.8	-49.3	10.5	1.27e-03	0	39	0	102760448	61	5530
2026-01-20 04:04:51.51	15.57	9.19	-47.6	-53.6	6.3	8.66e-02	0	39	0	110100480	64	7650
2026-01-20 04:04:52.51	15.57	9.28	-45.5	-49.4	10.0	1.73e-01	0	39	0	112197632	62	5331
2026-01-20 04:04:53.50	15.57	9.36	-41.0	-42.4	17.4	0.00e+00	0	39	0	119537664	51	4447
2026-01-20 04:04:54.50	15.56	9.45	-40.6	-41.9	17.4	0.00e+00	0	39	0	126877696	52	4001
2026-01-20 04:04:55.49	15.56	9.53	-41.9	-43.5	16.0	0.00e+00	0	39	0	134217728	54	4266
2026-01-20 04:04:56.49	15.56	9.61	-40.6	-41.9	17.8	0.00e+00	0	39	0	141557760	51	4211
2026-01-20 04:04:57.48	15.55	9.70	-40.6	-41.9	17.7	0.00e+00	0	39	0	148897792	51	4232
2026-01-20 04:04:58.48	15.55	9.78	-40.6	-41.9	17.8	0.00e+00	0	39	0	155189248	51	4198
2026-01-20 04:04:59.47	15.55	9.87	-40.2	-41.4	18.2	0.00e+00	0	39	0	162529280	50	4229
2026-01-20 04:05:00.48	15.54	9.96	-39.7	-40.9	18.7	0.00e+00	0	39	0	170917888	50	3988
2026-01-20 04:05:01.48	15.54	10.04	-39.2	-40.3	19.2	0.00e+00	0	39	0	177209344	49	3943
2026-01-20 04:05:02.47	15.53	10.13	-39.2	-40.3	19.3	0.00e+00	0	39	0	184549376	48	4171
2026-01-20 04:05:03.47	15.53	10.22	-39.1	-40.2	19.4	0.00e+00	0	39	0	191889408	48	4116
2026-01-20 04:05:04.56	15.53	10.31	-38.9	-40.0	19.6	0.00e+00	0	39	0	199229440	48	4008
2026-01-20 04:05:05.41	15.52	10.39	-39.0	-40.1	19.5	0.00e+00	0	39	0	205520896	48	4091
2026-01-20 04:05:06.55	15.52	10.49	-38.8	-39.9	19.7	0.00e+00	0	39	0	213909504	48	3998
2026-01-20 04:05:07.40	15.52	10.56	-38.8	-39.9	19.7	0.00e+00	0	39	0	220200960	48	3989
2026-01-20 04:05:08.54	15.51	10.66	-38.8	-39.9	19.8	0.00e+00	0	39	0	228589568	48	3974
2026-01-20 04:05:09.39	15.51	10.74	-38.7	-39.8	19.9	0.00e+00	0	39	0	234881024	48	3920
2026-01-20 04:05:10.53	15.50	10.84	-38.6	-39.7	19.7	0.00e+00	0	39	0	242221056	47	4117
2026-01-20 04:05:11.38	15.50	10.92	-38.6	-39.7	19.7	0.00e+00	0	39	0	249561088	47	4128
2026-01-20 04:05:12.52	15.50	11.02	-38.5	-39.6	19.7	0.00e+00	0	39	0	256901120	47	4081
2026-01-20 04:05:13.37	15.49	11.10	-38.6	-39.7	19.7	0.00e+00	0	39	0	263192576	47	4114
2026-01-20 04:05:14.51	15.49	11.20	-38.4	-39.5	19.9	0.00e+00	0	39	0	271581184	47	4020
2026-01-20 04:05:15.36	15.48	11.28	-38.3	-39.4	20.0	0.00e+00	0	39	0	277872640	47	3973
2026-01-20 04:05:16.49	15.48	11.38	-38.3	-39.4	20.0	0.00e+00	0	39	0	286261248	47	3970
2026-01-20 04:05:17.34	15.47	11.46	-38.5	-39.6	19.8	0.00e+00	0	39	0	292552704	47	4080
2026-01-20 04:05:18.57	15.47	11.57	-38.4	-39.5	19.9	0.00e+00	0	39	0	300941312	47	4021
2026-01-20 04:05:19.42	15.47	11.65	-38.4	-39.5	19.9	0.00e+00	0	39	0	307232768	47	4040
2026-01-20 04:05:20.63	15.46	11.76	-38.3	-39.4	20.0	0.00e+00	0	39	0	315621376	47	3976
2026-01-20 04:05:21.48	15.46	11.84	-38.2	-39.3	20.1	0.00e+00	0	39	0	321912832	47	3928
2026-01-20 04:05:22.68	15.45	11.95	-38.4	-39.5	20.0	0.00e+00	0	39	0	330301440	47	4016
2026-01-20 04:05:23.53	15.45	12.03	-38.2	-39.3	20.2	0.00e+00	0	39	0	336592896	47	3919
2026-01-20 04:05:24.66	15.44	12.14	-38.3	-39.4	20.0	0.00e+00	0	39	0	344981504	47	3970
2026-01-20 04:05:25.52	15.44	12.22	-38.3	-39.4	20.0	0.00e+00	0	39	0	351272960	47	3991
2026-01-20 04:05:26.65	15.43	12.33	-38.2	-39.3	20.1	0.00e+00	0	39	0	359661568	47	3940
2026-01-20 04:05:27.50	15.43	12.41	-38.1	-39.2	20.2	0.00e+00	0	39	0	364904448	47	3876
2026-01-20 04:05:28.64	15.42	12.52	-38.1	-39.2	20.2	0.00e+00	0	39	0	373293056	47	3900
2026-01-20 04:05:29.50	15.42	12.60	-38.1	-39.2	20.2	0.00e+00	0	39	0	379584512	47	3893
2026-01-20 04:05:30.63	15.41	12.71	-38.1	-39.2	20.2	0.00e+00	0	39	0	387973120	46	4130
2026-01-20 04:05:31.63	15.41	12.81	-38.1	-39.2	20.2	0.00e+00	0	39	0	395313152	46	4113
2026-01-20 04:05:32.78	15.40	12.92	-38.0	-39.1	20.4	0.00e+00	0	39	0	403701760	46	4074
2026-01-20 04:05:33.63	15.40	13.00	-38.1	-39.2	20.3	0.00e+00	0	39	0	409993216	46	4112
2026-01-20 04:05:34.98	15.39	13.14	-38.1	-39.2	20.2	0.00e+00	0	39	0	419430400	46	4112
2026-01-20 04:05:35.69	15.38	13.21	-38.1	-39.2	20.3	0.00e+00	0	39	0	424673280	46	4107
2026-01-20 04:05:37.14	15.38	13.35	-38.2	-39.2	20.2	0.00e+00	0	39	0	435159040	46	4141
2026-01-20 04:05:38.12	15.37	13.45	-38.1	-39.2	20.3	0.00e+00	0	39	0	441450496	46	4116
2026-01-20 04:05:39.11	15.37	13.55	-38.0	-39.0	20.4	0.00e+00	0	39	0	448790528	46	4049
2026-01-20 04:05:40.46	15.36	13.68	-37.9	-39.0	20.5	0.00e+00	0	39	0	459276288	46	4020
2026-01-20 04:05:41.17	15.35	13.75	-37.9	-38.9	20.5	0.00e+00	0	39	0	463470592	46	4004
2026-01-20 04:05:42.81	15.34	13.92	-38.0	-39.0	20.4	0.00e+00	0	39	0	476053504	46	4048
2026-01-20 04:05:43.38	15.34	13.98	-37.9	-39.0	20.5	0.00e+00	0	39	0	480247808	46	4006
2026-01-20 04:05:45.08	15.33	14.15	-37.9	-39.0	20.5	0.00e+00	0	39	0	492830720	46	4017
2026-01-20 04:05:45.71	15.33	14.22	-38.1	-39.1	20.3	0.00e+00	0	39	0	497025024	46	4096
2026-01-20 04:05:47.24	15.32	14.37	-37.8	-38.8	20.6	0.00e+00	0	39	0	507510784	46	3946
2026-01-20 04:05:47.95	15.31	14.45	-37.7	-38.7	20.7	0.00e+00	0	39	0	512753664	46	3891
2026-01-20 04:05:49.24	15.30	14.58	-37.7	-38.7	20.8	0.00e+00	0	39	0	522190848	46	3889
2026-01-20 04:05:49.96	15.30	14.66	-37.7	-38.7	20.7	0.00e+00	0	39	0	527433728	46	3890
2026-01-20 04:05:51.23	15.29	14.79	-37.7	-38.7	20.8	0.00e+00	0	40	0	536870912	46	3875
2026-01-20 04:05:51.98	15.29	14.87	-37.8	-38.8	20.7	0.00e+00	0	39	0	542113792	46	3930
2026-01-20 04:05:53.25	15.28	15.00	-37.5	-38.5	20.9	0.00e+00	0	40	0	551550976	45	4051
2026-01-20 04:05:54.09	15.27	15.09	-37.6	-38.6	20.8	0.00e+00	0	39	0	557842432	45	4088
2026-01-20 04:05:55.23	15.26	15.22	-37.7	-38.7	20.8	0.00e+00	0	39	0	565182464	45	4117
2026-01-20 04:05:56.08	15.26	15.31	-37.5	-38.5	20.9	0.00e+00	0	39	0	571473920	45	4037
2026-01-20 04:05:57.58	15.25	15.47	-37.6	-38.6	20.9	0.00e+00	0	39	0	583008256	45	4060
2026-01-20 04:05:58.29	15.24	15.55	-37.7	-38.6	20.8	0.00e+00	0	39	0	587202560	45	4098
2026-01-20 04:05:59.57	15.23	15.69	-37.5	-38.5	21.0	0.00e+00	0	39	0	596639744	45	4014
2026-01-20 04:06:00.31	15.23	15.77	-37.5	-38.4	21.0	0.00e+00	0	39	0	601882624	45	3992
2026-01-20 04:06:01.59	15.22	15.91	-37.4	-38.3	21.1	0.00e+00	0	39	0	611319808	45	3956
2026-01-20 04:06:02.32	15.21	15.99	-37.3	-38.3	21.1	0.00e+00	0	39	0	616562688	45	3929
2026-01-20 04:06:03.60	15.20	16.13	-37.4	-38.3	21.1	0.00e+00	0	39	0	625999872	45	3937
2026-01-20 04:06:04.32	15.20	16.21	-37.2	-38.2	21.3	0.00e+00	0	39	0	631242752	45	3872
2026-01-20 04:06:05.60	15.19	16.35	-37.2	-38.2	21.2	0.00e+00	0	39	0	640679936	45	3877
2026-01-20 04:06:06.33	15.18	16.44	-37.2	-38.1	21.3	0.00e+00	0	39	0	645922816	45	3861
2026-01-20 04:06:07.61	15.17	16.58	-37.2	-38.2	21.3	0.00e+00	0	39	0	655360000	45	3876
2026-01-20 04:06:08.52	15.17	16.68	-37.4	-38.3	21.1	0.00e+00	0	39	0	661651456	45	3938
2026-01-20 04:06:09.51	15.16	16.80	-37.4	-38.4	21.1	0.00e+00	0	40	0	668991488	45	3959
2026-01-20 04:06:10.51	15.15	16.91	-37.3	-38.2	21.2	0.00e+00	0	39	0	675282944	45	3904
2026-01-20 04:06:11.50	15.14	17.03	-37.1	-38.1	21.4	0.00e+00	0	39	0	682622976	45	3825
2026-01-20 04:06:12.49	15.13	17.14	-37.2	-38.1	21.4	0.00e+00	0	39	0	689963008	45	3845
2026-01-20 04:06:13.49	15.13	17.26	-37.3	-38.2	21.3	0.00e+00	0	39	0	697303040	45	3889
2026-01-20 04:06:14.49	15.12	17.37	-37.3	-38.2	21.2	0.00e+00	0	40	0	704643072	45	3889
2026-01-20 04:06:15.48	15.11	17.49	-37.3	-38.2	21.3	0.00e+00	0	39	0	711983104	45	3880
2026-01-20 04:06:16.47	15.10	17.61	-37.2	-38.1	21.4	0.00e+00	0	39	0	718274560	45	3825
2026-01-20 04:06:17.47	15.09	17.73	-37.2	-38.1	21.4	0.00e+00	0	40	0	725614592	45	3827
2026-01-20 04:06:18.53	15.08	17.85	-37.1	-38.0	21.5	0.00e+00	0	39	0	734003200	44	4005
2026-01-20 04:06:19.39	15.07	17.96	-37.1	-38.0	21.4	0.00e+00	0	39	0	740294656	44	4023
2026-01-20 04:06:20.53	15.06	18.09	-37.2	-38.0	21.4	0.00e+00	0	40	0	748683264	44	4046
2026-01-20 04:06:21.39	15.06	18.20	-37.1	-37.9	21.5	0.00e+00	0	39	0	754974720	44	3998
2026-01-20 04:06:22.53	15.04	18.34	-37.2	-38.1	21.4	0.00e+00	0	39	0	762314752	44	4089
2026-01-20 04:06:23.38	15.04	18.44	-37.1	-38.0	21.4	0.00e+00	0	39	0	768606208	44	4027
2026-01-20 04:06:24.51	15.03	18.58	-37.0	-37.9	21.5	0.00e+00	0	39	0	776994816	44	3989
2026-01-20 04:06:25.37	15.02	18.68	-37.0	-37.8	21.6	0.00e+00	0	39	0	783286272	44	3954
2026-01-20 04:06:26.50	15.01	18.82	-37.0	-37.9	21.5	0.00e+00	0	40	0	791674880	44	3971
2026-01-20 04:06:27.36	15.00	18.93	-37.1	-38.0	21.5	0.00e+00	0	40	0	796917760	44	4026
2026-01-20 04:06:28.49	14.99	19.07	-36.9	-37.8	21.6	0.00e+00	0	39	0	805306368	44	3927
2026-01-20 04:06:29.35	14.98	19.18	-37.0	-37.9	21.5	0.00e+00	0	39	0	811597824	44	3993
2026-01-20 04:06:30.48	14.97	19.32	-37.1	-38.0	21.4	0.00e+00	0	39	0	819986432	44	4037
2026-01-20 04:06:31.34	14.96	19.43	-36.9	-37.8	21.7	0.00e+00	0	39	0	826277888	44	3916
2026-01-20 04:06:32.47	14.95	19.58	-36.8	-37.7	21.8	0.00e+00	0	39	0	834666496	44	3872
2026-01-20 04:06:33.32	14.94	19.69	-36.9	-37.7	21.7	0.00e+00	0	39	0	839909376	44	3910
2026-01-20 04:06:34.46	14.92	19.83	-36.9	-37.8	21.6	0.00e+00	0	40	0	848297984	44	3947
2026-01-20 04:06:35.31	14.92	19.94	-36.8	-37.6	21.8	0.00e+00	0	40	0	854589440	44	3865
2026-01-20 04:06:36.45	14.90	20.09	-37.0	-37.9	21.6	0.00e+00	0	39	0	862978048	44	3959
2026-01-20 04:06:37.30	14.89	20.20	-36.9	-37.8	21.6	0.00e+00	0	40	0	869269504	44	3927
2026-01-20 04:06:38.44	14.88	20.36	-36.8	-37.7	21.7	0.00e+00	0	39	0	877658112	44	3889
2026-01-20 04:06:39.29	14.87	20.47	-36.8	-37.7	21.7	0.00e+00	0	39	0	883949568	44	3878
2026-01-20 04:06:40.63	14.86	20.65	-36.6	-37.4	21.8	0.00e+00	0	39	0	893386752	43	3992
2026-01-20 04:06:41.35	14.85	20.74	-36.5	-37.3	21.9	0.00e+00	0	39	0	898629632	43	3954
2026-01-20 04:06:42.63	14.83	20.92	-36.5	-37.3	21.9	0.00e+00	0	39	0	908066816	43	3950
2026-01-20 04:06:43.35	14.82	21.01	-36.4	-37.3	21.9	0.00e+00	0	39	0	913309696	43	3944
2026-01-20 04:06:44.63	14.81	21.19	-36.5	-37.3	21.9	0.00e+00	0	39	0	922746880	43	3952
2026-01-20 04:06:45.36	14.80	21.29	-36.4	-37.3	22.0	0.00e+00	0	40	0	926941184	43	3928
2026-01-20 04:06:46.64	14.78	21.46	-36.3	-37.2	22.0	0.00e+00	0	40	0	936378368	43	3878
2026-01-20 04:06:47.47	14.77	21.58	-36.3	-37.2	22.0	0.00e+00	0	40	0	942669824	43	3889
2026-01-20 04:06:48.61	14.76	21.74	-36.2	-37.1	22.1	0.00e+00	0	39	0	951058432	43	3853
2026-01-20 04:06:49.46	14.75	21.86	-36.2	-37.1	22.1	0.00e+00	0	39	0	957349888	43	3831
2026-01-20 04:06:50.60	14.73	22.02	-36.1	-37.0	22.2	0.00e+00	0	39	0	965738496	43	3802
2026-01-20 04:06:51.69	14.72	22.17	-36.2	-37.1	22.2	0.00e+00	0	40	0	973078528	43	3831
2026-01-20 04:06:52.71	14.71	22.32	-36.1	-37.0	22.2	0.00e+00	0	40	0	980418560	43	3789
2026-01-20 04:06:53.71	14.69	22.46	-36.1	-37.0	22.3	0.00e+00	0	39	0	987758592	43	3788
2026-01-20 04:06:54.92	14.68	22.64	-36.1	-36.9	22.2	0.00e+00	0	39	0	996147200	42	3990
2026-01-20 04:06:55.82	14.66	22.77	-35.9	-36.8	22.3	0.00e+00	0	39	0	1002438656	42	3917
2026-01-20 04:06:56.85	14.65	22.92	-36.0	-36.8	22.4	0.00e+00	0	39	0	1010827264	42	3936
2026-01-20 04:06:57.84	14.64	23.06	-35.9	-36.7	22.5	0.00e+00	0	39	0	1017118720	42	3892
2026-01-20 04:06:58.84	14.62	23.21	-35.9	-36.8	22.4	0.00e+00	0	39	0	1024458752	42	3923
2026-01-20 04:06:59.84	14.61	23.36	-35.8	-36.7	22.5	0.00e+00	0	40	0	1031798784	42	3883
2026-01-20 04:07:00.83	14.59	23.51	-35.9	-36.8	22.4	0.00e+00	0	40	0	1039138816	42	3921
2026-01-20 04:07:01.82	14.58	23.65	-35.8	-36.6	22.5	0.00e+00	0	39	0	1046478848	42	3842
2026-01-20 04:07:02.82	14.56	23.81	-35.7	-36.5	22.6	0.00e+00	0	40	0	1053818880	42	3808
2026-01-20 04:07:03.81	14.55	23.96	-35.7	-36.5	22.4	0.00e+00	0	40	0	1060110336	42	3814
2026-01-20 04:07:04.81	14.53	24.11	-35.6	-36.5	22.7	0.00e+00	0	40	0	1067450368	42	3791
2026-01-20 04:07:05.80	14.52	24.26	-35.6	-36.5	22.6	0.00e+00	0	40	0	1074790400	42	3784
2026-01-20 04:07:06.80	14.50	24.42	-35.5	-36.4	22.7	0.00e+00	0	40	0	1082130432	41	3968
2026-01-20 04:07:07.82	14.49	24.57	-35.5	-36.3	22.7	0.00e+00	0	40	0	1089470464	41	3942
2026-01-20 04:07:08.85	14.47	24.74	-35.5	-36.4	22.8	0.00e+00	0	40	0	1096810496	41	3960
2026-01-20 04:07:09.89	14.45	24.90	-35.7	-36.5	22.6	0.00e+00	0	39	0	1104150528	41	4035
2026-01-20 04:07:10.84	14.44	25.05	-35.7	-36.5	22.6	0.00e+00	0	40	0	1111490560	41	4029
2026-01-20 04:07:11.94	14.42	25.22	-35.8	-36.6	22.6	0.00e+00	0	40	0	1119879168	41	4091
2026-01-20 04:07:12.83	14.40	25.37	-35.9	-36.7	22.5	0.00e+00	0	40	0	1125122048	41	4128
2026-01-20 04:07:14.14	14.38	25.58	-35.7	-36.6	22.6	0.00e+00	0	40	0	1135607808	41	4058
2026-01-20 04:07:14.85	14.37	25.69	-35.7	-36.6	22.5	0.00e+00	0	40	0	1139802112	41	4077
2026-01-20 04:07:16.13	14.35	25.90	-35.8	-36.7	22.5	0.00e+00	0	40	0	1149239296	41	4114
2026-01-20 04:07:16.85	14.33	26.02	-35.8	-36.7	22.5	0.00e+00	0	40	0	1154482176	41	4099
2026-01-20 04:07:18.13	14.31	26.23	-35.9	-36.7	22.5	0.00e+00	0	40	0	1163919360	41	4125
2026-01-20 04:07:18.86	14.30	26.36	-35.8	-36.6	22.5	0.00e+00	0	39	0	1169162240	41	4080
2026-01-20 04:07:20.14	14.27	26.57	-35.9	-36.7	22.5	0.00e+00	0	40	0	1178599424	41	4139
2026-01-20 04:07:20.88	14.26	26.69	-35.8	-36.7	22.5	0.00e+00	0	39	0	1183842304	41	4123
2026-01-20 04:07:22.16	14.24	26.91	-36.0	-36.8	22.4	0.00e+00	0	40	0	1193279488	41	4184
2026-01-20 04:07:22.89	14.22	27.04	-35.9	-36.8	22.4	0.00e+00	0	40	0	1198522368	41	4162
2026-01-20 04:07:24.17	14.20	27.26	-35.8	-36.7	22.5	0.00e+00	0	40	0	1207959552	41	4104
2026-01-20 04:07:24.90	14.18	27.38	-36.0	-36.8	22.4	0.00e+00	0	39	0	1213202432	41	4178
2026-01-20 04:07:26.18	14.16	27.61	-35.8	-36.7	22.5	0.00e+00	0	40	0	1222639616	41	4104
2026-01-20 04:07:26.90	14.14	27.73	-35.7	-36.5	22.6	0.00e+00	0	40	0	1226833920	41	4047
2026-01-20 04:07:28.18	14.12	27.96	-35.6	-36.4	22.8	0.00e+00	0	40	0	1236271104	41	3983
2026-01-20 04:07:28.89	14.10	28.08	-35.5	-36.4	22.8	0.00e+00	0	40	0	1241513984	41	3966
2026-01-20 04:07:30.24	14.07	28.32	-35.6	-36.4	22.8	0.00e+00	0	40	0	1251999744	41	3983
2026-01-20 04:07:30.95	14.06	28.45	-35.5	-36.4	22.8	0.00e+00	0	40	0	1256194048	41	3961
2026-01-20 04:07:32.23	14.03	28.68	-35.4	-36.2	22.9	0.00e+00	0	40	0	1265631232	41	3893
2026-01-20 04:07:32.94	14.01	28.81	-35.1	-35.9	23.1	0.00e+00	0	40	0	1270874112	41	3778
2026-01-20 04:07:34.22	13.99	29.05	-35.1	-36.0	23.1	0.00e+00	0	40	0	1280311296	41	3786
2026-01-20 04:07:34.95	13.97	29.18	-35.1	-36.0	23.1	0.00e+00	0	40	0	1285554176	41	3790
2026-01-20 04:07:36.23	13.94	29.42	-35.2	-36.0	23.1	0.00e+00	0	40	0	1293942784	41	3821
2026-01-20 04:07:36.94	13.92	29.55	-35.3	-36.1	23.0	0.00e+00	0	40	0	1300234240	41	3863
2026-01-20 04:07:38.22	13.89	29.79	-35.3	-36.1	23.1	0.00e+00	0	40	0	1308622848	41	3850
2026-01-20 04:07:38.94	13.88	29.93	-35.3	-36.1	23.0	0.00e+00	0	39	0	1313865728	41	3846
2026-01-20 04:07:40.22	13.85	30.17	-35.4	-36.3	22.9	0.00e+00	0	40	0	1323302912	41	3923
2026-01-20 04:07:41.00	13.83	30.32	-35.5	-36.3	22.8	0.00e+00	0	40	0	1329594368	41	3957
2026-01-20 04:07:42.28	13.79	30.57	-35.3	-36.1	23.0	0.00e+00	0	40	0	1337982976	41	3865
2026-01-20 04:07:43.02	13.78	30.71	-35.3	-36.2	23.0	0.00e+00	0	40	0	1343225856	41	3882
2026-01-20 04:07:44.30	13.74	30.97	-35.3	-36.1	23.0	0.00e+00	0	40	0	1352663040	41	3864
2026-01-20 04:07:45.01	13.73	31.11	-35.3	-36.2	23.0	0.00e+00	0	40	0	1357905920	41	3881
2026-01-20 04:07:46.29	13.69	31.36	-35.3	-36.1	23.1	0.00e+00	0	40	0	1367343104	41	3857
2026-01-20 04:07:47.01	13.67	31.50	-35.3	-36.1	23.0	0.00e+00	0	40	0	1372585984	41	3849
2026-01-20 04:07:48.30	13.64	31.76	-35.3	-36.2	23.0	0.00e+00	0	40	0	1382023168	41	3877
2026-01-20 04:07:49.02	13.62	31.91	-35.3	-36.1	23.0	0.00e+00	0	40	0	1387266048	41	3860
2026-01-20 04:07:50.30	13.58	32.17	-35.4	-36.2	22.9	0.00e+00	0	40	0	1396703232	41	3902
2026-01-20 04:07:51.22	13.56	32.36	-35.4	-36.3	22.9	0.00e+00	0	40	0	1402994688	41	3927
2026-01-20 04:07:52.21	13.53	32.56	-35.3	-36.1	23.0	0.00e+00	0	40	0	1410334720	41	3855
2026-01-20 04:07:53.21	13.50	32.77	-35.3	-36.1	23.1	0.00e+00	0	39	0	1416626176	41	3842
2026-01-20 04:07:54.21	13.47	32.98	-35.3	-36.1	23.1	0.00e+00	0	40	0	1423966208	41	3836
2026-01-20 04:07:55.20	13.44	33.19	-35.2	-36.1	23.1	0.00e+00	0	40	0	1431306240	41	3828
2026-01-20 04:07:56.20	13.41	33.41	-35.3	-36.2	23.0	0.00e+00	0	40	0	1438646272	41	3873
2026-01-20 04:07:57.19	13.38	33.62	-35.2	-36.0	23.1	0.00e+00	0	39	0	1445986304	41	3813
2026-01-20 04:07:58.19	13.35	33.83	-35.2	-36.0	23.1	0.00e+00	0	40	0	1453326336	41	3791
2026-01-20 04:07:59.18	13.32	34.05	-35.3	-36.1	23.1	0.00e+00	0	40	0	1460666368	41	3843
2026-01-20 04:08:00.26	13.28	34.28	-35.4	-36.2	23.0	0.00e+00	0	40	0	1468006400	41	3881
2026-01-20 04:08:01.11	13.25	34.47	-35.3	-36.2	23.0	0.00e+00	0	40	0	1474297856	41	3871
2026-01-20 04:08:02.45	13.21	34.77	-35.5	-36.3	22.9	0.00e+00	0	40	0	1483735040	41	3949
2026-01-20 04:08:03.16	13.19	34.93	-35.5	-36.3	22.9	0.00e+00	0	40	0	1488977920	41	3925
2026-01-20 04:08:04.44	13.14	35.22	-35.6	-36.5	22.8	0.00e+00	0	40	0	1498415104	41	4012
2026-01-20 04:08:05.15	13.12	35.38	-35.5	-36.3	22.9	0.00e+00	0	40	0	1503657984	41	3928
2026-01-20 04:08:06.71	13.06	35.74	-35.4	-36.3	22.9	0.00e+00	0	40	0	1514143744	41	3918
2026-01-20 04:08:07.35	13.04	35.88	-35.3	-36.1	22.9	0.00e+00	0	40	0	1519386624	41	3862
2026-01-20 04:08:09.05	12.98	36.28	-35.2	-36.0	23.1	0.00e+00	0	40	0	1531969536	41	3812
2026-01-20 04:08:09.62	12.96	36.41	-35.3	-36.1	23.1	0.00e+00	0	40	0	1535115264	41	3853
2026-01-20 04:08:11.33	12.89	36.82	-35.1	-36.0	23.2	0.00e+00	0	40	0	1547698176	41	3787
2026-01-20 04:08:11.90	12.87	36.95	-35.1	-35.9	23.2	0.00e+00	0	40	0	1551892480	41	3772
2026-01-20 04:08:13.59	12.80	37.36	-35.1	-35.9	23.2	0.00e+00	0	40	0	1564475392	40	3985
2026-01-20 04:08:14.16	12.78	37.50	-35.0	-35.8	23.3	0.00e+00	0	40	0	1568669696	40	3958
2026-01-20 04:08:15.86	12.71	37.91	-35.1	-35.9	23.2	0.00e+00	0	40	0	1580204032	40	3975
2026-01-20 04:08:16.43	12.69	38.05	-35.3	-36.1	23.1	0.00e+00	0	40	0	1585446912	40	4068
2026-01-20 04:08:18.13	12.62	38.47	-35.5	-36.4	22.9	0.00e+00	0	40	0	1596981248	40	4194
2026-01-20 04:08:18.70	12.59	38.62	-35.5	-36.3	22.9	0.00e+00	0	40	0	1601175552	40	4171
2026-01-20 04:08:20.58	12.51	39.09	-35.5	-36.3	22.9	0.00e+00	0	40	0	1614807040	40	4173
2026-01-20 04:08:21.15	12.48	39.24	-35.6	-36.4	22.8	0.00e+00	0	40	0	1619001344	40	4239
2026-01-20 04:08:22.86	12.40	39.68	-35.6	-36.5	22.8	0.00e+00	0	40	0	1631584256	40	4252
2026-01-20 04:08:23.55	12.37	39.86	-35.8	-36.6	22.6	0.00e+00	0	39	0	1635778560	40	4323
2026-01-20 04:08:24.96	12.30	40.22	-35.6	-36.5	22.8	0.00e+00	0	40	0	1646264320	41	4013
2026-01-20 04:08:25.75	12.27	40.43	-35.5	-36.3	22.9	0.00e+00	0	40	0	1652555776	41	3947
2026-01-20 04:08:26.93	12.21	40.75	-35.7	-36.5	22.7	0.00e+00	0	40	0	1660944384	41	4026
2026-01-20 04:08:27.79	12.16	40.98	-35.6	-36.4	22.8	0.00e+00	0	40	0	1667235840	41	3981
2026-01-20 04:08:28.93	12.11	41.28	-35.6	-36.4	22.9	0.00e+00	0	40	0	1674575872	41	3976
2026-01-20 04:08:29.78	12.06	41.51	-35.6	-36.4	22.8	0.00e+00	0	40	0	1680867328	41	4002
2026-01-20 04:08:30.92	12.00	41.83	-35.8	-36.6	22.6	0.00e+00	0	40	0	1689255936	41	4086
2026-01-20 04:08:31.77	11.96	42.06	-35.9	-36.7	22.6	0.00e+00	0	40	0	1695547392	41	4124
2026-01-20 04:08:32.90	11.89	42.37	-35.9	-36.7	22.5	0.00e+00	0	40	0	1703936000	41	4144
2026-01-20 04:08:33.76	11.84	42.61	-35.9	-36.8	22.5	0.00e+00	0	40	0	1710227456	41	4168
2026-01-20 04:08:34.89	11.78	42.93	-36.0	-36.9	22.4	0.00e+00	0	40	0	1718616064	41	4207
2026-01-20 04:08:35.75	11.73	43.18	-36.0	-36.9	22.4	0.00e+00	0	39	0	1723858944	41	4199
2026-01-20 04:08:36.88	11.66	43.50	-36.0	-36.8	22.5	0.00e+00	0	40	0	1732247552	42	3954
2026-01-20 04:08:37.74	11.61	43.75	-36.1	-36.9	22.4	0.00e+00	0	40	0	1738539008	42	3984
2026-01-20 04:08:38.87	11.54	44.07	-36.1	-36.9	22.4	0.00e+00	0	40	0	1746927616	42	3982
2026-01-20 04:08:39.79	11.48	44.34	-36.1	-37.0	22.4	0.00e+00	0	40	0	1753219072	42	4010
2026-01-20 04:08:40.97	11.41	44.69	-36.0	-36.8	22.5	0.00e+00	0	40	0	1761607680	42	3941
2026-01-20 04:08:41.83	11.35	44.95	-36.1	-37.0	22.3	0.00e+00	0	40	0	1767899136	42	4022
2026-01-20 04:08:42.96	11.28	45.28	-36.0	-36.9	22.5	0.00e+00	0	40	0	1776287744	42	3970
2026-01-20 04:08:43.82	11.22	45.54	-36.0	-36.9	22.5	0.00e+00	0	40	0	1782579200	42	3975
2026-01-20 04:08:44.95	11.14	45.89	-36.1	-36.9	22.5	0.00e+00	0	40	0	1790967808	42	3990
2026-01-20 04:08:45.81	11.08	46.15	-36.0	-36.9	22.5	0.00e+00	0	40	0	1797259264	42	3977
2026-01-20 04:08:46.94	11.00	46.50	-36.3	-37.1	22.3	0.00e+00	0	40	0	1805647872	42	4076
2026-01-20 04:08:47.80	10.93	46.76	-36.1	-36.9	22.4	0.00e+00	0	40	0	1810890752	42	3985
2026-01-20 04:08:48.93	10.85	47.12	-36.1	-37.0	22.4	0.00e+00	0	40	0	1819279360	42	4006
2026-01-20 04:08:49.78	10.78	47.38	-36.4	-37.2	22.2	0.00e+00	0	40	0	1825570816	42	4139
2026-01-20 04:08:50.94	10.69	47.75	-36.4	-37.3	22.1	0.00e+00	0	40	0	1833959424	42	4147
2026-01-20 04:08:51.79	10.62	48.02	-36.6	-37.5	22.0	0.00e+00	0	39	0	1840250880	42	4251
2026-01-20 04:08:52.99	10.52	48.41	-36.7	-37.5	21.9	0.00e+00	0	40	0	1848639488	42	4280
2026-01-20 04:08:53.84	10.45	48.68	-36.8	-37.7	21.8	0.00e+00	0	40	0	1854930944	43	4108
2026-01-20 04:08:55.02	10.35	49.07	-36.9	-37.7	21.7	0.00e+00	0	40	0	1863319552	43	4141
2026-01-20 04:08:55.87	10.28	49.35	-37.0	-37.9	21.6	0.00e+00	0	40	0	1869611008	43	4201
2026-01-20 04:08:57.07	10.17	49.75	-37.0	-37.9	21.6	0.00e+00	0	40	0	1877999616	43	4229
2026-01-20 04:08:57.93	10.09	50.03	-37.1	-37.9	21.5	0.00e+00	0	39	0	1884291072	43	4240
2026-01-20 04:08:59.13	9.98	50.44	-36.9	-37.7	21.8	0.00e+00	0	40	0	1892679680	43	4136
2026-01-20 04:09:00.40	9.85	50.87	-36.8	-37.6	21.8	0.00e+00	0	40	0	1902116864	43	4096
2026-01-20 04:09:01.12	9.78	51.11	-36.9	-37.8	21.7	0.00e+00	0	39	0	1907359744	43	4178
2026-01-20 04:09:02.40	9.65	51.55	-37.0	-37.9	21.6	0.00e+00	0	40	0	1916796928	43	4217
2026-01-20 04:09:03.11	9.58	51.80	-37.4	-38.3	21.3	0.00e+00	0	40	0	1922039808	44	4159
2026-01-20 04:09:04.48	9.43	52.28	-37.4	-38.3	21.4	0.00e+00	0	40	0	1931476992	44	4154
2026-01-20 04:09:05.19	9.35	52.53	-37.5	-38.4	21.2	0.00e+00	0	40	0	1936719872	44	4242
2026-01-20 04:09:06.47	9.21	52.98	-37.4	-38.3	21.4	0.00e+00	0	40	0	1946157056	44	4160
2026-01-20 04:09:07.23	9.12	53.25	-37.2	-38.1	21.6	0.00e+00	0	40	0	1951399936	44	4094
2026-01-20 04:09:08.50	8.97	53.71	-37.2	-38.1	21.6	0.00e+00	0	40	0	1960837120	44	4096
2026-01-20 04:09:09.22	8.89	53.97	-37.1	-38.0	21.7	0.00e+00	0	40	0	1966080000	44	4007
2026-01-20 04:09:10.49	8.73	54.43	-37.2	-38.1	21.5	0.00e+00	0	40	0	1975517184	44	4065
2026-01-20 04:09:11.22	8.64	54.69	-37.2	-38.1	21.6	0.00e+00	0	40	0	1979711488	44	4073
2026-01-20 04:09:12.50	8.47	55.17	-37.6	-38.6	21.2	0.00e+00	0	40	0	1989148672	44	4294
2026-01-20 04:09:13.21	8.37	55.43	-37.8	-38.7	21.0	0.00e+00	0	40	0	1994391552	45	4132
2026-01-20 04:09:14.49	8.19	55.91	-38.0	-38.9	20.8	0.00e+00	0	40	0	2003828736	46	4003
2026-01-20 04:09:15.22	8.09	56.18	-37.8	-38.7	21.0	0.00e+00	0	39	0	2009071616	46	3902
2026-01-20 04:09:16.49	7.91	56.66	-37.3	-38.2	21.5	0.00e+00	0	40	0	2018508800	45	3896
2026-01-20 04:09:17.20	7.80	56.93	-37.1	-37.9	21.7	0.00e+00	0	39	0	2023751680	44	3986
2026-01-20 04:09:18.49	7.60	57.43	-37.3	-38.2	21.5	0.00e+00	0	40	0	2033188864	44	4101
2026-01-20 04:09:19.20	7.49	57.70	-36.9	-37.8	21.8	0.00e+00	0	40	0	2038431744	44	3935
2026-01-20 04:09:20.47	7.28	58.19	-37.2	-38.1	21.6	0.00e+00	0	40	0	2046820352	44	4061
2026-01-20 04:09:21.19	7.16	58.47	-37.1	-38.0	21.7	0.00e+00	0	40	0	2052063232	44	4014
2026-01-20 04:09:22.46	6.94	58.97	-37.4	-38.3	21.4	0.00e+00	0	40	0	2061500416	44	4154
2026-01-20 04:09:23.19	6.81	59.26	-37.2	-38.1	21.6	0.00e+00	0	40	0	2066743296	44	4075
2026-01-20 04:09:24.47	6.57	59.77	-36.9	-37.8	21.8	0.00e+00	0	40	0	2076180480	44	3949
2026-01-20 04:09:25.21	6.43	60.06	-36.8	-37.7	21.9	0.00e+00	0	40	0	2081423360	44	3895
2026-01-20 04:09:26.53	6.17	60.59	-36.7	-37.6	22.0	0.00e+00	0	40	0	2090860544	44	3840
2026-01-20 04:09:27.25	6.02	60.88	-36.9	-37.8	21.8	0.00e+00	0	40	0	2096103424	44	3922
2026-01-20 04:09:28.52	5.75	61.40	-36.8	-37.6	21.9	0.00e+00	0	40	0	2105540608	44	3868
2026-01-20 04:09:29.23	5.60	61.69	-36.7	-37.6	22.0	0.00e+00	0	40	0	2110783488	44	3827
2026-01-20 04:09:30.51	5.31	62.21	-36.4	-37.3	22.2	0.00e+00	0	40	0	2119172096	43	3925
2026-01-20 04:09:31.24	5.14	62.51	-36.3	-37.1	22.2	0.00e+00	0	40	0	2125463552	43	3864
2026-01-20 04:09:32.52	4.83	63.04	-36.3	-37.1	22.3	0.00e+00	0	40	0	2133852160	43	3865
2026-01-20 04:09:33.25	4.65	63.35	-36.1	-36.9	22.5	0.00e+00	0	40	0	2139095040	42	3976
2026-01-20 04:09:34.52	4.32	63.88	-36.5	-37.3	21.1	0.00e+00	0	40	0	2148532224	43	3943
2026-01-20 04:09:35.23	4.13	64.18	-35.9	-36.7	22.6	0.00e+00	0	40	0	2153775104	42	3893
2026-01-20 04:09:36.51	3.77	64.72	-35.9	-36.7	22.6	0.00e+00	0	40	0	2163212288	42	3912
2026-01-20 04:09:37.22	3.57	65.02	-36.0	-36.8	22.6	0.00e+00	0	40	0	2167406592	42	3945
2026-01-20 04:09:38.84	3.08	65.71	-35.7	-36.5	22.8	0.00e+00	0	40	0	2179989504	42	3822
2026-01-20 04:09:39.42	2.89	65.96	-36.1	-37.0	22.4	0.00e+00	0	40	0	2184183808	42	4041
2026-01-20 04:09:40.98	2.38	66.63	-35.7	-36.5	22.8	0.00e+00	0	40	0	2195718144	41	4027
2026-01-20 04:09:41.63	2.16	66.91	-35.7	-36.6	22.7	0.00e+00	0	40	0	2199912448	41	4062
2026-01-20 04:09:43.05	1.64	67.52	-35.5	-36.4	22.8	0.00e+00	0	40	0	2210398208	41	3970
2026-01-20 04:09:43.76	1.38	67.83	-35.6	-36.4	22.9	0.00e+00	0	39	0	2215641088	41	3977
2026-01-20 04:09:45.04	0.87	68.39	-35.4	-36.2	22.9	0.00e+00	0	40	0	2225078272	40	4118
2026-01-20 04:09:45.75	0.58	68.70	-35.2	-36.0	23.2	0.00e+00	0	40	0	2229272576	40	4038
2026-01-20 04:09:47.12	359.99	69.30	-35.7	-36.6	22.7	0.00e+00	0	40	0	2239758336	40	4295
2026-01-20 04:09:47.83	359.67	69.61	-35.8	-36.6	22.7	0.00e+00	0	40	0	2245001216	41	4069
2026-01-20 04:09:49.14	359.05	70.18	-35.9	-36.7	22.6	0.00e+00	0	40	0	2254438400	41	4123
2026-01-20 04:09:49.85	358.70	70.50	-36.1	-36.9	22.4	0.00e+00	0	40	0	2259681280	41	4223
2026-01-20 04:09:51.13	358.03	71.06	-35.6	-36.5	22.8	0.00e+00	0	40	0	2269118464	41	4014
2026-01-20 04:09:51.86	357.63	71.38	-35.5	-36.3	22.9	0.00e+00	0	39	0	2273312768	41	3952
2026-01-20 04:09:53.24	356.84	71.99	-35.7	-36.5	22.8	0.00e+00	0	40	0	2283798528	41	4036
2026-01-20 04:09:53.96	356.40	72.31	-35.9	-36.8	22.5	0.00e+00	0	40	0	2289041408	41	4156
2026-01-20 04:09:55.23	355.58	72.87	-35.8	-36.7	22.6	0.00e+00	0	40	0	2298478592	41	4101
2026-01-20 04:09:55.94	355.10	73.18	-35.9	-36.7	22.6	0.00e+00	0	40	0	2303721472	41	4109
2026-01-20 04:09:57.22	354.18	73.74	-35.6	-36.4	22.8	0.00e+00	0	40	0	2312110080	41	3983
2026-01-20 04:09:57.95	353.62	74.06	-35.5	-36.4	22.9	0.00e+00	0	40	0	2317352960	41	3973
2026-01-20 04:09:59.23	352.59	74.62	-35.4	-36.2	23.1	0.00e+00	0	40	0	2326790144	41	3892
2026-01-20 04:09:59.95	351.98	74.94	-35.3	-36.1	23.0	0.00e+00	0	40	0	2332033024	41	3856
2026-01-20 04:10:01.23	350.82	75.49	-35.3	-36.1	23.1	0.00e+00	0	40	0	2341470208	40	4063
2026-01-20 04:10:01.96	350.11	75.81	-35.2	-36.0	23.2	0.00e+00	0	40	0	2346713088	40	4049
2026-01-20 04:10:03.24	348.80	76.36	-34.7	-35.5	23.5	0.00e+00	0	40	0	2356150272	40	3821
2026-01-20 04:10:03.96	348.01	76.66	-34.6	-35.4	23.7	0.00e+00	0	40	0	2361393152	39	3993
2026-01-20 04:10:05.24	346.51	77.20	-34.5	-35.2	23.9	0.00e+00	0	40	0	2370830336	39	3912
2026-01-20 04:10:06.12	345.40	77.57	-34.4	-35.2	23.9	0.00e+00	0	40	0	2376073216	39	3872
2026-01-20 04:10:07.26	343.86	78.04	-34.1	-34.9	24.1	0.00e+00	0	40	0	2384461824	39	3757
2026-01-20 04:10:08.11	342.63	78.38	-34.2	-35.0	24.0	0.00e+00	0	40	0	2390753280	38	4019
2026-01-20 04:10:09.25	340.85	78.84	-34.0	-34.8	24.3	0.00e+00	0	40	0	2399141888	38	3923
2026-01-20 04:10:10.10	339.43	79.17	-34.0	-34.8	24.2	0.00e+00	0	40	0	2405433344	38	3929
2026-01-20 04:10:11.24	337.38	79.61	-34.0	-34.8	24.1	0.00e+00	0	40	0	2413821952	38	3944
2026-01-20 04:10:12.09	335.74	79.92	-34.1	-34.9	24.1	0.00e+00	0	40	0	2420113408	38	3995
2026-01-20 04:10:13.23	333.36	80.33	-33.9	-34.7	24.2	0.00e+00	0	40	0	2428502016	38	3896
2026-01-20 04:10:14.08	331.46	80.63	-33.9	-34.6	24.3	0.00e+00	0	40	0	2433744896	38	3861
2026-01-20 04:10:15.22	328.70	81.01	-34.1	-34.9	24.1	0.00e+00	0	40	0	2442133504	38	3977
2026-01-20 04:10:16.07	326.50	81.28	-34.2	-35.0	24.0	0.00e+00	0	40	0	2448424960	38	4022
2026-01-20 04:10:17.21	323.32	81.62	-34.4	-35.2	23.9	0.00e+00	0	40	0	2456813568	38	4139
2026-01-20 04:10:18.06	320.78	81.85	-34.5	-35.3	23.8	0.00e+00	0	40	0	2463105024	38	4162
2026-01-20 04:10:19.20	317.14	82.14	-34.3	-35.1	23.9	0.00e+00	0	39	0	2471493632	38	4085
2026-01-20 04:10:20.05	314.25	82.34	-34.5	-35.3	23.8	0.00e+00	0	40	0	2476736512	38	4174
2026-01-20 04:10:21.19	310.15	82.57	-34.6	-35.4	23.6	0.00e+00	0	40	0	2485125120	38	4236
2026-01-20 04:10:22.04	306.94	82.71	-34.4	-35.2	23.9	0.00e+00	0	40	0	2491416576	38	4125
2026-01-20 04:10:23.18	302.44	82.87	-34.3	-35.1	24.0	0.00e+00	0	40	0	2499805184	38	4057
2026-01-20 04:10:24.03	298.97	82.96	-34.4	-35.2	23.9	0.00e+00	0	40	0	2506096640	38	4128
2026-01-20 04:10:25.17	294.21	83.04	-34.1	-34.9	24.1	0.00e+00	0	40	0	2514485248	38	3980
2026-01-20 04:10:26.02	290.60	83.06	-34.2	-35.0	24.1	0.00e+00	0	40	0	2519728128	38	4008
2026-01-20 04:10:27.15	285.80	83.05	-34.1	-34.9	24.2	0.00e+00	0	39	0	2528116736	38	3961
2026-01-20 04:10:28.01	282.16	83.01	-34.5	-35.3	23.8	0.00e+00	0	40	0	2534408192	38	4157
2026-01-20 04:10:29.14	277.48	82.92	-34.5	-35.3	23.8	0.00e+00	0	40	0	2542796800	38	4175
2026-01-20 04:10:30.00	274.01	82.82	-34.4	-35.2	23.9	0.00e+00	0	40	0	2549088256	38	4124
2026-01-20 04:10:31.14	269.59	82.65	-34.1	-34.8	24.2	0.00e+00	0	40	0	2557476864	38	3953
2026-01-20 04:10:31.99	266.44	82.49	-34.2	-34.9	24.0	0.00e+00	0	40	0	2563768320	38	3999
2026-01-20 04:10:33.12	262.46	82.25	-34.2	-35.0	24.0	0.00e+00	0	40	0	2571108352	38	4039
2026-01-20 04:10:34.01	259.51	82.04	-34.5	-35.3	23.8	0.00e+00	0	40	0	2577399808	38	4180
2026-01-20 04:10:35.14	256.00	81.74	-34.3	-35.2	24.0	0.00e+00	0	40	0	2585788416	38	4099
2026-01-20 04:10:36.00	253.51	81.49	-34.1	-34.9	24.2	0.00e+00	0	40	0	2592079872	38	3960
2026-01-20 04:10:37.14	250.42	81.14	-33.8	-34.6	24.3	0.00e+00	0	39	0	2600468480	38	3853
2026-01-20 04:10:37.99	248.28	80.87	-34.0	-34.8	24.2	0.00e+00	0	40	0	2606759936	38	3928
2026-01-20 04:10:39.12	245.64	80.48	-34.1	-34.8	24.2	0.00e+00	0	40	0	2615148544	38	3951
2026-01-20 04:10:39.98	243.77	80.18	-34.1	-34.8	24.1	0.00e+00	0	40	0	2621440000	38	3955
2026-01-20 04:10:41.11	241.48	79.76	-34.0	-34.8	24.2	0.00e+00	0	40	0	2628780032	38	3931
2026-01-20 04:10:42.24	239.39	79.34	-34.0	-34.7	24.2	0.00e+00	0	40	0	2637168640	38	3903
2026-01-20 04:10:43.09	237.92	79.01	-33.9	-34.7	24.3	0.00e+00	0	40	0	2643460096	38	3896
2026-01-20 04:10:44.23	236.09	78.56	-34.1	-34.9	24.2	0.00e+00	0	40	0	2651848704	38	3965
2026-01-20 04:10:45.32	234.47	78.12	-34.5	-35.3	23.8	0.00e+00	0	40	0	2659188736	38	4161
2026-01-20 04:10:46.34	233.07	77.70	-34.9	-35.8	23.4	0.00e+00	0	40	0	2667577344	39	4150
2026-01-20 04:10:47.33	231.80	77.29	-35.1	-35.9	23.3	0.00e+00	0	39	0	2673868800	39	4218
2026-01-20 04:10:48.55	230.34	76.77	-34.9	-35.7	23.5	0.00e+00	0	40	0	2683305984	39	4102
2026-01-20 04:10:49.40	229.40	76.41	-34.9	-35.7	23.5	0.00e+00	0	40	0	2689597440	39	4134
2026-01-20 04:10:50.54	228.21	75.92	-35.0	-35.8	23.4	0.00e+00	0	40	0	2696937472	39	4192
2026-01-20 04:10:51.39	227.38	75.55	-35.2	-36.0	23.2	0.00e+00	0	40	0	2703228928	39	4254
2026-01-20 04:10:52.53	226.33	75.06	-35.1	-35.9	23.3	0.00e+00	0	39	0	2711617536	40	3999
2026-01-20 04:10:53.38	225.59	74.69	-35.2	-36.0	23.3	0.00e+00	0	40	0	2717908992	40	4009
2026-01-20 04:10:54.52	224.66	74.19	-35.2	-36.0	23.2	0.00e+00	0	40	0	2726297600	40	4029
2026-01-20 04:10:55.38	224.00	73.81	-35.3	-36.1	23.1	0.00e+00	0	40	0	2731540480	40	4080
2026-01-20 04:10:56.51	223.18	73.31	-35.7	-36.6	21.5	0.00e+00	0	40	0	2739929088	41	4054
2026-01-20 04:10:57.37	222.58	72.93	-35.6	-36.4	22.9	0.00e+00	0	40	0	2746220544	41	3992
2026-01-20 04:10:58.50	221.85	72.44	-35.7	-36.6	22.7	0.00e+00	0	40	0	2754609152	41	4056
2026-01-20 04:10:59.35	221.32	72.06	-35.7	-36.5	22.7	0.00e+00	0	40	0	2760900608	41	4037
2026-01-20 04:11:00.49	220.65	71.56	-35.8	-36.6	22.7	0.00e+00	0	40	0	2769289216	41	4076
2026-01-20 04:11:01.34	220.18	71.18	-36.0	-36.9	22.5	0.00e+00	0	40	0	2775580672	41	4199
2026-01-20 04:11:02.61	219.50	70.62	-35.8	-36.6	22.7	0.00e+00	0	40	0	2783969280	41	4075
2026-01-20 04:11:03.39	219.11	70.27	-35.7	-36.5	22.8	0.00e+00	0	40	0	2790260736	41	4020
2026-01-20 04:11:04.59	218.54	69.75	-35.7	-36.5	22.8	0.00e+00	0	40	0	2798649344	41	4038
2026-01-20 04:11:05.45	218.14	69.37	-35.8	-36.6	22.6	0.00e+00	0	40	0	2804940800	41	4075
2026-01-20 04:11:06.58	217.65	68.87	-35.7	-36.5	22.8	0.00e+00	0	40	0	2813329408	41	4042
2026-01-20 04:11:07.44	217.29	68.49	-35.4	-36.2	23.0	0.00e+00	0	40	0	2819620864	41	3910
2026-01-20 04:11:08.58	216.83	68.00	-35.1	-35.9	23.3	0.00e+00	0	40	0	2826960896	40	3980
2026-01-20 04:11:09.43	216.51	67.63	-35.3	-36.1	23.1	0.00e+00	0	40	0	2834300928	40	4061
2026-01-20 04:11:10.56	216.09	67.14	-35.4	-36.2	23.0	0.00e+00	0	40	0	2841640960	40	4122
2026-01-20 04:11:11.42	215.79	66.76	-35.4	-36.3	22.9	0.00e+00	0	40	0	2847932416	40	4158
2026-01-20 04:11:12.55	215.41	66.28	-35.6	-36.5	22.8	0.00e+00	0	40	0	2856321024	40	4263
2026-01-20 04:11:13.41	215.13	65.91	-35.6	-36.4	22.9	0.00e+00	0	40	0	2862612480	40	4223
2026-01-20 04:11:14.54	214.78	65.42	-35.5	-36.3	22.9	0.00e+00	0	40	0	2871001088	40	4171
2026-01-20 04:11:15.40	214.52	65.05	-35.5	-36.3	22.9	0.00e+00	0	40	0	2876243968	40	4193
2026-01-20 04:11:16.53	214.19	64.57	-35.7	-36.6	22.7	0.00e+00	0	40	0	2884632576	41	4059
2026-01-20 04:11:17.39	213.95	64.21	-35.8	-36.7	22.6	0.00e+00	0	40	0	2890924032	41	4105
2026-01-20 04:11:18.52	213.65	63.73	-36.2	-37.1	22.3	0.00e+00	0	40	0	2899312640	41	4318
2026-01-20 04:11:19.37	213.43	63.38	-36.5	-37.3	22.1	0.00e+00	0	40	0	2905604096	42	4181
2026-01-20 04:11:20.51	213.15	62.90	-36.8	-37.7	21.7	0.00e+00	0	40	0	2913992704	43	4120
2026-01-20 04:11:21.36	212.94	62.55	-37.0	-37.8	21.6	0.00e+00	0	40	0	2919235584	43	4188
2026-01-20 04:11:22.50	212.67	62.08	-36.8	-37.6	21.7	0.00e+00	0	40	0	2927624192	43	4096
2026-01-20 04:11:23.36	212.48	61.72	-36.8	-37.6	21.8	0.00e+00	0	40	0	2933915648	43	4096
2026-01-20 04:11:24.49	212.24	61.26	-36.6	-37.5	21.9	0.00e+00	0	40	0	2942304256	43	4031
2026-01-20 04:11:25.34	212.06	60.91	-36.8	-37.7	21.8	0.00e+00	0	40	0	2948595712	43	4099
2026-01-20 04:11:26.48	211.82	60.45	-37.0	-37.9	21.6	0.00e+00	0	40	0	2956984320	43	4233
2026-01-20 04:11:27.44	211.63	60.07	-37.1	-38.0	21.4	0.00e+00	0	40	0	2963275776	43	4291
2026-01-20 04:11:28.44	211.44	59.67	-37.2	-38.1	21.5	0.00e+00	0	40	0	2970615808	43	4292
2026-01-20 04:11:29.43	211.26	59.27	-37.1	-38.0	21.4	0.00e+00	0	39	0	2977955840	43	4286
2026-01-20 04:11:30.43	211.08	58.88	-37.5	-38.5	21.2	0.00e+00	0	40	0	2985295872	44	4243
2026-01-20 04:11:31.42	210.91	58.49	-37.5	-38.4	21.3	0.00e+00	0	40	0	2992635904	44	4206
2026-01-20 04:11:32.41	210.74	58.10	-37.4	-38.3	21.4	0.00e+00	0	40	0	2999975936	44	4160
2026-01-20 04:11:33.41	210.58	57.71	-37.4	-38.3	21.4	0.00e+00	0	40	0	3006267392	44	4160
2026-01-20 04:11:34.40	210.42	57.33	-37.4	-38.3	21.4	0.00e+00	0	40	0	3013607424	44	4151
2026-01-20 04:11:35.39	210.26	56.95	-37.1	-37.9	21.7	0.00e+00	0	39	0	3020947456	44	3988
2026-01-20 04:11:36.39	210.11	56.57	-37.1	-38.0	21.6	0.00e+00	0	40	0	3028287488	44	4017
2026-01-20 04:11:37.39	209.97	56.19	-37.3	-38.2	21.5	0.00e+00	0	40	0	3035627520	44	4100
2026-01-20 04:11:38.38	209.83	55.81	-37.3	-38.2	21.4	0.00e+00	0	40	0	3042967552	44	4137
2026-01-20 04:11:39.37	209.69	55.44	-37.3	-38.2	21.4	0.00e+00	0	40	0	3049259008	44	4115
2026-01-20 04:11:40.37	209.55	55.07	-37.2	-38.1	21.6	0.00e+00	0	40	0	3056599040	44	4082
2026-01-20 04:11:41.36	209.42	54.70	-37.1	-38.0	21.6	0.00e+00	0	40	0	3063939072	44	4028
2026-01-20 04:11:42.36	209.30	54.34	-37.0	-37.8	21.8	0.00e+00	0	40	0	3071279104	44	3939
2026-01-20 04:11:43.35	209.17	53.98	-36.8	-37.7	21.9	0.00e+00	0	40	0	3078619136	44	3872
2026-01-20 04:11:44.50	209.03	53.56	-36.7	-37.6	22.1	0.00e+00	0	40	0	3087007744	44	3833
2026-01-20 04:11:45.36	208.93	53.25	-36.8	-37.7	21.7	0.00e+00	0	40	0	3093299200	44	3892
2026-01-20 04:11:46.69	208.78	52.77	-36.8	-37.7	21.9	0.00e+00	0	40	0	3102736384	44	3890
2026-01-20 04:11:47.40	208.70	52.52	-36.9	-37.8	21.7	0.00e+00	0	40	0	3107979264	44	3938
2026-01-20 04:11:48.68	208.56	52.07	-37.3	-38.2	21.5	0.00e+00	0	40	0	3117416448	44	4105
2026-01-20 04:11:49.41	208.48	51.82	-37.4	-38.3	21.4	0.00e+00	0	40	0	3122659328	44	4158
2026-01-20 04:11:50.70	208.35	51.37	-37.4	-38.3	21.4	0.00e+00	0	40	0	3132096512	44	4186
2026-01-20 04:11:51.41	208.27	51.12	-37.4	-38.3	21.4	0.00e+00	0	40	0	3136290816	44	4149
2026-01-20 04:11:52.69	208.15	50.69	-37.2	-38.0	21.5	0.00e+00	0	40	0	3145728000	44	4051
2026-01-20 04:11:53.48	208.07	50.42	-37.1	-38.0	21.6	0.00e+00	0	39	0	3150970880	44	4035
2026-01-20 04:11:54.68	207.96	50.01	-36.9	-37.8	21.9	0.00e+00	0	40	0	3160408064	44	3919
2026-01-20 04:11:55.53	207.88	49.73	-36.8	-37.6	21.8	0.00e+00	0	40	0	3166699520	44	3867
2026-01-20 04:11:56.67	207.77	49.35	-36.8	-37.6	21.9	0.00e+00	0	40	0	3174039552	44	3864
2026-01-20 04:11:57.52	207.70	49.07	-36.9	-37.8	21.8	0.00e+00	0	40	0	3180331008	44	3923
2026-01-20 04:11:58.66	207.60	48.69	-37.1	-37.9	21.7	0.00e+00	0	40	0	3188719616	44	3991
2026-01-20 04:11:59.80	207.50	48.32	-37.0	-37.8	21.8	0.00e+00	0	40	0	3197108224	44	3956
2026-01-20 04:12:00.84	207.42	47.98	-36.8	-37.7	21.0	0.00e+00	0	40	0	3204448256	44	3888
2026-01-20 04:12:01.78	207.34	47.68	-36.9	-37.7	21.9	0.00e+00	0	40	0	3211788288	44	3906
2026-01-20 04:12:02.78	207.26	47.36	-36.8	-37.7	21.9	0.00e+00	0	40	0	3219128320	44	3880
2026-01-20 04:12:03.78	207.18	47.05	-36.6	-37.5	22.0	0.00e+00	0	40	0	3225419776	44	3799
2026-01-20 04:12:04.77	207.11	46.74	-36.3	-37.2	22.2	0.00e+00	0	40	0	3232759808	43	3900
2026-01-20 04:12:05.76	207.04	46.43	-36.2	-37.1	22.1	0.00e+00	0	40	0	3240099840	43	3836
2026-01-20 04:12:06.76	206.96	46.12	-36.0	-36.9	22.5	0.00e+00	0	40	0	3247439872	42	3976
2026-01-20 04:12:07.75	206.89	45.82	-36.1	-36.9	22.5	0.00e+00	0	40	0	3254779904	42	3982
2026-01-20 04:12:08.75	206.82	45.51	-35.9	-36.7	22.6	0.00e+00	0	40	0	3262119936	42	3890
2026-01-20 04:12:09.74	206.75	45.21	-35.8	-36.6	22.7	0.00e+00	0	40	0	3269459968	42	3856
2026-01-20 04:12:10.76	206.69	44.91	-35.8	-36.6	22.6	0.00e+00	0	39	0	3276800000	42	3867
2026-01-20 04:12:11.79	206.62	44.60	-35.8	-36.6	22.6	0.00e+00	0	40	0	3284140032	42	3859
2026-01-20 04:12:12.79	206.55	44.30	-35.8	-36.7	22.6	0.00e+00	0	40	0	3291480064	42	3885
2026-01-20 04:12:13.84	206.49	43.99	-35.9	-36.7	22.4	0.00e+00	0	40	0	3298820096	42	3912
2026-01-20 04:12:14.76	206.43	43.73	-35.7	-36.5	22.8	0.00e+00	0	40	0	3305111552	42	3806
2026-01-20 04:12:15.90	206.36	43.40	-35.5	-36.3	22.9	0.00e+00	0	40	0	3313500160	41	3943
2026-01-20 04:12:16.75	206.31	43.15	-35.5	-36.3	22.8	0.00e+00	0	40	0	3319791616	41	3946
2026-01-20 04:12:18.08	206.23	42.77	-35.5	-36.3	22.9	0.00e+00	0	40	0	3329228800	41	3928
2026-01-20 04:12:18.79	206.19	42.57	-35.4	-36.3	23.0	0.00e+00	0	40	0	3334471680	41	3917
2026-01-20 04:12:20.27	206.11	42.16	-35.4	-36.2	23.0	0.00e+00	0	40	0	3344957440	41	3894
2026-01-20 04:12:20.98	206.07	41.96	-35.5	-36.3	22.9	0.00e+00	0	40	0	3350200320	41	3950
2026-01-20 04:12:22.26	206.00	41.61	-35.6	-36.4	22.8	0.00e+00	0	40	0	3359637504	41	3992
2026-01-20 04:12:22.99	205.96	41.41	-35.7	-36.5	22.7	0.00e+00	0	40	0	3364880384	41	4036
2026-01-20 04:12:24.27	205.89	41.06	-35.7	-36.6	22.7	0.00e+00	0	40	0	3373268992	41	4052
2026-01-20 04:12:24.98	205.86	40.87	-35.8	-36.7	22.6	0.00e+00	0	40	0	3379560448	41	4110
2026-01-20 04:12:26.26	205.79	40.52	-35.9	-36.7	22.5	0.00e+00	0	40	0	3387949056	41	4145
2026-01-20 04:12:26.99	205.76	40.33	-36.0	-36.8	22.4	0.00e+00	0	40	0	3393191936	41	4188
2026-01-20 04:12:28.27	205.69	39.99	-35.8	-36.6	22.6	0.00e+00	0	40	0	3402629120	41	4089
2026-01-20 04:12:28.99	205.66	39.80	-35.9	-36.7	22.6	0.00e+00	0	40	0	3407872000	41	4128
2026-01-20 04:12:30.27	205.60	39.47	-35.9	-36.7	22.5	0.00e+00	0	40	0	3417309184	41	4135
2026-01-20 04:12:31.04	205.56	39.27	-35.9	-36.8	22.6	0.00e+00	0	40	0	3422552064	41	4150
2026-01-20 04:12:32.32	205.50	38.94	-35.9	-36.8	22.5	0.00e+00	0	40	0	3431989248	41	4155
2026-01-20 04:12:33.08	205.47	38.75	-35.9	-36.8	22.4	0.00e+00	0	39	0	3437232128	41	4158
2026-01-20 04:12:34.66	205.40	38.35	-35.8	-36.6	22.7	0.00e+00	0	40	0	3448766464	41	4075
2026-01-20 04:12:35.29	205.37	38.19	-35.6	-36.5	22.7	0.00e+00	0	40	0	3454009344	41	4017
2026-01-20 04:12:36.78	205.31	37.82	-35.6	-36.4	22.8	0.00e+00	0	39	0	3464495104	41	3989
2026-01-20 04:12:37.49	205.28	37.65	-35.6	-36.5	22.8	0.00e+00	0	40	0	3469737984	41	4005
2026-01-20 04:12:38.78	205.23	37.33	-35.4	-36.2	23.0	0.00e+00	0	39	0	3479175168	41	3900
2026-01-20 04:12:39.49	205.20	37.16	-35.4	-36.3	22.9	0.00e+00	0	40	0	3483369472	41	3914
2026-01-20 04:12:40.77	205.15	36.85	-35.4	-36.2	22.9	0.00e+00	0	40	0	3492806656	41	3910
2026-01-20 04:12:41.48	205.12	36.68	-35.6	-36.4	22.8	0.00e+00	0	40	0	3498049536	41	3982
2026-01-20 04:12:42.76	205.07	36.38	-35.5	-36.3	22.8	0.00e+00	0	40	0	3507486720	41	3937
2026-01-20 04:12:43.47	205.04	36.21	-35.6	-36.4	22.7	0.00e+00	0	40	0	3512729600	41	3985
2026-01-20 04:12:44.75	205.00	35.91	-35.5	-36.4	22.8	0.00e+00	0	40	0	3522166784	41	3966
2026-01-20 04:12:45.49	204.97	35.74	-35.6	-36.4	22.8	0.00e+00	0	40	0	3527409664	41	3999
2026-01-20 04:12:46.77	204.92	35.44	-35.6	-36.4	22.8	0.00e+00	0	40	0	3535798272	41	3998
2026-01-20 04:12:47.49	204.90	35.28	-35.5	-36.4	22.9	0.00e+00	0	40	0	3542089728	41	3959
2026-01-20 04:12:48.78	204.85	34.99	-35.5	-36.3	22.9	0.00e+00	0	40	0	3550478336	41	3931
2026-01-20 04:12:49.49	204.83	34.83	-35.5	-36.3	22.9	0.00e+00	0	40	0	3555721216	41	3935
2026-01-20 04:12:50.77	204.78	34.54	-35.5	-36.3	22.8	0.00e+00	0	40	0	3565158400	41	3947
2026-01-20 04:12:51.48	204.76	34.38	-35.3	-36.1	23.1	0.00e+00	0	39	0	3570401280	41	3837
2026-01-20 04:12:52.76	204.72	34.10	-35.0	-35.8	23.3	0.00e+00	0	40	0	3579838464	40	3945
2026-01-20 04:12:53.61	204.69	33.91	-35.0	-35.8	23.2	0.00e+00	0	40	0	3586129920	40	3955
2026-01-20 04:12:55.03	204.65	33.60	-35.0	-35.8	23.3	0.00e+00	0	40	0	3596615680	40	3920
2026-01-20 04:12:55.74	204.62	33.45	-35.0	-35.8	23.3	0.00e+00	0	40	0	3600809984	40	3924
2026-01-20 04:12:57.02	204.58	33.17	-35.0	-35.9	23.2	0.00e+00	0	40	0	3610247168	40	3963
2026-01-20 04:12:57.73	204.56	33.02	-35.0	-35.8	23.3	0.00e+00	0	40	0	3615490048	40	3951
2026-01-20 04:12:59.01	204.52	32.75	-35.1	-35.9	23.2	0.00e+00	0	40	0	3624927232	40	3986
2026-01-20 04:12:59.74	204.50	32.60	-35.2	-36.0	23.2	0.00e+00	0	40	0	3630170112	40	4017
2026-01-20 04:13:01.01	204.46	32.33	-35.3	-36.2	23.0	0.00e+00	0	40	0	3638558720	40	4103
2026-01-20 04:13:01.74	204.44	32.18	-35.4	-36.2	22.9	0.00e+00	0	40	0	3644850176	40	4115
2026-01-20 04:13:03.02	204.41	31.92	-35.4	-36.3	21.9	0.00e+00	0	39	0	3653238784	40	4146
2026-01-20 04:13:03.73	204.39	31.77	-35.4	-36.2	23.0	0.00e+00	0	40	0	3658481664	40	4128
2026-01-20 04:13:05.01	204.35	31.51	-35.4	-36.3	22.9	0.00e+00	0	40	0	3667918848	40	4150
2026-01-20 04:13:05.75	204.33	31.36	-35.4	-36.2	23.0	0.00e+00	0	40	0	3673161728	40	4106
2026-01-20 04:13:07.03	204.30	31.11	-35.4	-36.2	22.9	0.00e+00	0	40	0	3682598912	40	4139
2026-01-20 04:13:07.75	204.28	30.96	-35.4	-36.2	23.0	0.00e+00	0	40	0	3687841792	40	4126
2026-01-20 04:13:09.05	204.24	30.71	-35.4	-36.3	22.9	0.00e+00	0	40	0	3697278976	40	4154
2026-01-20 04:13:09.76	204.22	30.57	-35.4	-36.2	23.0	0.00e+00	0	40	0	3702521856	40	4128
2026-01-20 04:13:11.04	204.19	30.32	-35.5	-36.3	22.9	0.00e+00	0	40	0	3711959040	40	4167
2026-01-20 04:13:11.76	204.17	30.18	-35.4	-36.2	22.9	0.00e+00	0	40	0	3716153344	40	4141
2026-01-20 04:13:13.04	204.14	29.93	-35.5	-36.3	22.9	0.00e+00	0	40	0	3725590528	40	4171
2026-01-20 04:13:13.75	204.12	29.80	-35.5	-36.3	22.9	0.00e+00	0	40	0	3730833408	40	4166
2026-01-20 04:13:15.03	204.09	29.55	-35.6	-36.4	22.8	0.00e+00	0	40	0	3740270592	40	4220
2026-01-20 04:13:15.75	204.08	29.42	-35.6	-36.4	22.8	0.00e+00	0	39	0	3745513472	40	4241
2026-01-20 04:13:17.03	204.05	29.18	-35.7	-36.6	22.6	0.00e+00	0	40	0	3754950656	40	4299
2026-01-20 04:13:17.77	204.03	29.04	-35.8	-36.6	22.6	0.00e+00	0	40	0	3760193536	41	4094
2026-01-20 04:13:19.05	204.00	28.80	-35.9	-36.8	22.5	0.00e+00	0	40	0	3769630720	41	4159
2026-01-20 04:13:19.77	203.98	28.67	-35.9	-36.8	22.4	0.00e+00	0	40	0	3774873600	41	4169
2026-01-20 04:13:21.05	203.95	28.44	-36.0	-36.8	22.4	0.00e+00	0	40	0	3783262208	41	4182
2026-01-20 04:13:21.76	203.94	28.31	-36.0	-36.9	22.4	0.00e+00	0	40	0	3788505088	41	4209
2026-01-20 04:13:23.04	203.91	28.08	-36.1	-37.0	22.3	0.00e+00	0	40	0	3797942272	41	4262
2026-01-20 04:13:23.77	203.90	27.95	-36.2	-37.0	22.0	0.00e+00	0	40	0	3803185152	41	4290
2026-01-20 04:13:25.05	203.87	27.72	-36.1	-37.0	22.2	0.00e+00	0	40	0	3812622336	41	4261
2026-01-20 04:13:25.76	203.85	27.60	-36.1	-36.9	22.3	0.00e+00	0	40	0	3817865216	41	4240
2026-01-20 04:13:27.05	203.83	27.37	-36.2	-37.0	22.2	0.00e+00	0	40	0	3827302400	41	4279
2026-01-20 04:13:27.76	203.81	27.25	-36.1	-37.0	22.2	0.00e+00	0	40	0	3832545280	41	4257
2026-01-20 04:13:29.04	203.79	27.02	-36.1	-36.9	22.3	0.00e+00	0	40	0	3841982464	41	4231
2026-01-20 04:13:29.75	203.77	26.90	-36.1	-37.0	22.2	0.00e+00	0	40	0	3846176768	41	4251
2026-01-20 04:13:31.03	203.75	26.68	-36.1	-36.9	22.3	0.00e+00	0	40	0	3855613952	41	4233
2026-01-20 04:13:31.77	203.73	26.56	-36.0	-36.9	22.4	0.00e+00	0	40	0	3860856832	41	4209
2026-01-20 04:13:33.05	203.71	26.34	-36.0	-36.9	22.4	0.00e+00	0	40	0	3870294016	41	4207
2026-01-20 04:13:33.79	203.69	26.22	-36.0	-36.9	22.4	0.00e+00	0	40	0	3875536896	41	4216
2026-01-20 04:13:35.07	203.67	26.00	-36.1	-36.9	22.4	0.00e+00	0	40	0	3884974080	41	4226
2026-01-20 04:13:35.79	203.66	25.88	-36.0	-36.9	22.3	0.00e+00	0	40	0	3890216960	41	4218
2026-01-20 04:13:37.07	203.63	25.67	-36.1	-36.9	22.3	0.00e+00	0	40	0	3899654144	41	4225
2026-01-20 04:13:37.79	203.62	25.55	-36.0	-36.9	22.4	0.00e+00	0	40	0	3904897024	41	4207
2026-01-20 04:13:39.06	203.60	25.35	-36.1	-37.0	22.3	0.00e+00	0	40	0	3913285632	41	4252
2026-01-20 04:13:39.79	203.58	25.23	-36.2	-37.0	22.2	0.00e+00	0	40	0	3919577088	41	4278
2026-01-20 04:13:41.07	203.56	25.02	-36.1	-37.0	22.3	0.00e+00	0	40	0	3927965696	41	4254
2026-01-20 04:13:41.78	203.55	24.91	-36.2	-37.1	22.2	0.00e+00	0	40	0	3933208576	41	4299
2026-01-20 04:13:43.12	203.53	24.70	-36.3	-37.1	22.1	0.00e+00	0	40	0	3942645760	42	4095
2026-01-20 04:13:43.84	203.51	24.58	-36.3	-37.1	22.1	0.00e+00	0	40	0	3947888640	42	4088
2026-01-20 04:13:45.11	203.49	24.38	-36.3	-37.1	22.1	0.00e+00	0	40	0	3957325824	42	4096
2026-01-20 04:13:46.17	203.48	24.22	-36.3	-37.2	22.1	0.00e+00	0	40	0	3964665856	42	4119
2026-01-20 04:13:47.34	203.46	24.04	-36.4	-37.3	22.0	0.00e+00	0	40	0	3974103040	42	4162
2026-01-20 04:13:48.35	203.44	23.88	-36.4	-37.3	22.0	0.00e+00	0	40	0	3980394496	42	4165
2026-01-20 04:13:49.34	203.42	23.73	-36.4	-37.3	22.0	0.00e+00	0	40	0	3987734528	42	4167
2026-01-20 04:13:50.34	203.41	23.58	-36.4	-37.3	22.0	0.00e+00	0	40	0	3995074560	42	4154
2026-01-20 04:13:51.33	203.39	23.43	-36.5	-37.4	21.9	0.00e+00	0	40	0	4002414592	42	4216
2026-01-20 04:13:52.33	203.38	23.28	-36.5	-37.4	21.8	0.00e+00	0	40	0	4009754624	42	4231
2026-01-20 04:13:53.32	203.36	23.13	-36.6	-37.5	21.8	0.00e+00	0	40	0	4016046080	42	4246
2026-01-20 04:13:54.31	203.35	22.98	-36.5	-37.4	21.9	0.00e+00	0	40	0	4023386112	42	4216
2026-01-20 04:13:55.31	203.33	22.84	-36.5	-37.5	21.7	0.00e+00	0	40	0	4030726144	42	4244
2026-01-20 04:13:56.30	203.32	22.69	-36.6	-37.4	21.9	0.00e+00	0	39	0	4038066176	42	4235
2026-01-20 04:13:57.30	203.30	22.55	-36.5	-37.4	21.9	0.00e+00	0	40	0	4045406208	42	4213
2026-01-20 04:13:58.29	203.29	22.40	-36.5	-37.4	21.9	0.00e+00	0	40	0	4052746240	42	4199
2026-01-20 04:13:59.29	203.28	22.26	-36.6	-37.5	21.8	0.00e+00	0	40	0	4060086272	42	4253
2026-01-20 04:14:00.28	203.26	22.11	-36.4	-37.3	22.0	0.00e+00	0	40	0	4067426304	42	4155
2026-01-20 04:14:01.28	203.25	21.97	-36.3	-37.2	22.0	0.00e+00	0	40	0	4074766336	42	4108
2026-01-20 04:14:02.27	203.23	21.83	-36.3	-37.2	22.0	0.00e+00	0	40	0	4081057792	42	4130
2026-01-20 04:14:03.27	203.22	21.69	-36.4	-37.2	22.0	0.00e+00	0	40	0	4088397824	42	4137
2026-01-20 04:14:04.27	203.21	21.55	-36.2	-37.1	22.1	0.00e+00	0	40	0	4095737856	42	4081
2026-01-20 04:14:05.26	203.19	21.41	-36.3	-37.2	22.0	0.00e+00	0	40	0	4103077888	42	4108
2026-01-20 04:14:06.26	203.18	21.27	-36.4	-37.3	22.0	0.00e+00	0	40	0	4110417920	42	4171
2026-01-20 04:14:07.44	203.17	21.11	-36.3	-37.2	22.0	0.00e+00	0	40	0	4118806528	42	4117
2026-01-20 04:14:08.32	203.15	20.99	-36.3	-37.2	22.1	0.00e+00	0	40	0	4125097984	42	4114
2026-01-20 04:14:09.46	203.14	20.83	-36.3	-37.1	22.0	0.00e+00	0	40	0	4133486592	42	4093
2026-01-20 04:14:10.31	203.13	20.72	-36.3	-37.1	22.1	0.00e+00	0	40	0	4139778048	42	4085
2026-01-20 04:14:11.45	203.12	20.56	-36.4	-37.3	22.0	0.00e+00	0	40	0	4147118080	42	4152
2026-01-20 04:14:12.30	203.11	20.45	-36.2	-37.1	22.1	0.00e+00	0	40	0	4153409536	42	4056
2026-01-20 04:14:13.44	203.09	20.30	-36.3	-37.1	22.1	0.00e+00	0	40	0	4161798144	42	4085
2026-01-20 04:14:14.30	203.08	20.18	-36.3	-37.2	22.0	0.00e+00	0	40	0	4168089600	42	4105
2026-01-20 04:14:15.43	203.07	20.03	-36.5	-37.3	21.9	0.00e+00	0	40	0	4176478208	42	4178
2026-01-20 04:14:16.29	203.06	19.92	-36.5	-37.3	21.9	0.00e+00	0	39	0	4182769664	42	4179
2026-01-20 04:14:17.42	203.04	19.77	-36.4	-37.3	22.0	0.00e+00	0	40	0	4190109696	42	4149
2026-01-20 04:14:18.28	203.03	19.66	-36.4	-37.2	22.0	0.00e+00	0	40	0	4196401152	42	4129
2026-01-20 04:14:19.41	203.02	19.51	-36.5	-37.3	21.9	0.00e+00	0	40	0	4204789760	42	4171
2026-01-20 04:14:20.27	203.01	19.40	-36.5	-37.4	21.8	0.00e+00	0	39	0	4211081216	42	4194
2026-01-20 04:14:21.41	203.00	19.26	-36.5	-37.4	21.9	0.00e+00	0	40	0	4219469824	42	4214
2026-01-20 04:14:22.26	202.99	19.15	-36.5	-37.4	21.8	0.00e+00	0	40	0	4225761280	42	4194
2026-01-20 04:14:23.40	202.98	19.00	-36.6	-37.5	21.8	0.00e+00	0	40	0	4234149888	42	4259
2026-01-20 04:14:24.25	202.97	18.90	-36.6	-37.5	21.8	0.00e+00	0	40	0	4240441344	42	4256
2026-01-20 04:14:25.39	202.96	18.75	-36.7	-37.5	21.7	0.00e+00	0	40	0	4247781376	42	4281
2026-01-20 04:14:26.31	202.95	18.64	-36.6	-37.5	21.7	0.00e+00	0	40	0	4255121408	42	4272
2026-01-20 04:14:27.48	202.93	18.49	-36.7	-37.6	21.6	0.00e+00	0	39	0	4263510016	43	4081
2026-01-20 04:14:28.33	202.93	18.39	-36.8	-37.7	21.5	0.00e+00	0	40	0	4269801472	43	4108
2026-01-20 04:14:29.47	202.91	18.25	-36.9	-37.7	21.5	0.00e+00	0	40	0	4277141504	43	4139
2026-01-20 04:14:30.32	202.90	18.14	-36.8	-37.7	21.6	0.00e+00	0	40	0	4283432960	43	4119
2026-01-20 04:14:31.46	202.89	18.00	-36.8	-37.7	21.5	0.00e+00	0	40	0	4291821568	43	4131
2026-01-20 04:14:32.31	202.88	17.90	-36.9	-37.8	21.4	0.00e+00	0	40	0	4298113024	43	4183
2026-01-20 04:14:33.45	202.87	17.76	-36.9	-37.8	21.5	0.00e+00	0	40	0	4306501632	43	4158
2026-01-20 04:14:34.30	202.87	17.66	-37.0	-37.9	21.3	0.00e+00	0	40	0	4312793088	43	4236
2026-01-20 04:14:35.44	202.85	17.53	-37.0	-37.9	21.4	0.00e+00	0	40	0	4321181696	43	4208
2026-01-20 04:14:36.29	202.85	17.42	-37.0	-37.9	21.4	0.00e+00	0	40	0	4327473152	43	4223
2026-01-20 04:14:37.43	202.84	17.29	-37.1	-38.0	21.2	0.00e+00	0	40	0	4334813184	43	4283
2026-01-20 04:14:38.29	202.83	17.19	-37.1	-38.0	21.3	0.00e+00	0	40	0	4341104640	43	4266
2026-01-20 04:14:39.42	202.82	17.06	-37.1	-38.0	21.2	0.00e+00	0	40	0	4349493248	43	4278
2026-01-20 04:14:40.28	202.81	16.96	-37.1	-38.0	21.2	0.00e+00	0	40	0	4355784704	43	4274
2026-01-20 04:14:41.41	202.80	16.82	-37.2	-38.0	21.2	0.00e+00	0	40	0	4364173312	43	4290
2026-01-20 04:14:42.27	202.79	16.73	-37.2	-38.1	21.2	0.00e+00	0	39	0	4369416192	43	4308
2026-01-20 04:14:43.40	202.78	16.60	-37.5	-38.4	21.1	0.00e+00	0	40	0	4377804800	44	4209
2026-01-20 04:14:44.26	202.77	16.50	-37.4	-38.3	21.1	0.00e+00	0	40	0	4384096256	44	4173
2026-01-20 04:14:45.39	202.76	16.37	-37.4	-38.3	21.1	0.00e+00	0	40	0	4392484864	44	4188
2026-01-20 04:14:46.24	202.76	16.27	-37.6	-38.5	20.9	0.00e+00	0	40	0	4398776320	44	4264
2026-01-20 04:14:47.38	202.75	16.14	-37.4	-38.3	21.0	0.00e+00	0	40	0	4407164928	44	4184
2026-01-20 04:14:48.38	202.74	16.03	-37.5	-38.4	21.0	0.00e+00	0	40	0	4413456384	44	4232
2026-01-20 04:14:49.37	202.73	15.92	-37.5	-38.4	21.0	0.00e+00	0	40	0	4420796416	44	4233
2026-01-20 04:14:50.37	202.72	15.81	-37.5	-38.5	20.9	0.00e+00	0	40	0	4428136448	44	4253
2026-01-20 04:14:51.36	202.71	15.70	-37.6	-38.5	20.9	0.00e+00	0	40	0	4435476480	44	4267
2026-01-20 04:14:52.35	202.71	15.59	-37.7	-38.7	20.8	0.00e+00	0	40	0	4442816512	44	4351
2026-01-20 04:14:53.35	202.70	15.48	-37.7	-38.6	20.8	0.00e+00	0	40	0	4450156544	44	4337
2026-01-20 04:14:54.34	202.69	15.37	-37.7	-38.6	20.8	0.00e+00	0	40	0	4457496576	44	4312
2026-01-20 04:14:55.34	202.68	15.26	-37.7	-38.6	20.8	0.00e+00	0	40	0	4464836608	44	4316
2026-01-20 04:14:56.33	202.67	15.16	-37.7	-38.7	20.8	0.00e+00	0	40	0	4472176640	44	4360
2026-01-20 04:14:57.33	202.67	15.05	-37.7	-38.7	20.8	0.00e+00	0	40	0	4478468096	45	4109
2026-01-20 04:14:58.33	202.66	14.94	-37.8	-38.8	20.7	0.00e+00	0	40	0	4485808128	45	4169
2026-01-20 04:14:59.32	202.65	14.83	-37.9	-38.9	20.6	0.00e+00	0	40	0	4493148160	45	4213
2026-01-20 04:15:00.32	202.64	14.73	-37.9	-38.8	20.6	0.00e+00	0	40	0	4500488192	45	4176
2026-01-20 04:15:01.32	202.64	14.62	-37.8	-38.8	20.6	0.00e+00	0	40	0	4507828224	45	4152
2026-01-20 04:15:02.31	202.63	14.52	-37.9	-38.9	20.6	0.00e+00	0	40	0	4515168256	45	4218
2026-01-20 04:15:03.31	202.62	14.41	-38.0	-39.0	20.5	0.00e+00	0	40	0	4521459712	45	4243
2026-01-20 04:15:04.30	202.61	14.31	-38.0	-38.9	20.5	0.00e+00	0	40	0	4528799744	45	4235
2026-01-20 04:15:05.55	202.60	14.18	-38.1	-39.1	20.4	0.00e+00	0	40	0	4538236928	45	4305
2026-01-20 04:15:06.41	202.60	14.09	-38.1	-39.1	20.4	0.00e+00	0	40	0	4544528384	45	4299
2026-01-20 04:15:07.54	202.59	13.97	-38.1	-39.1	20.4	0.00e+00	0	40	0	4552916992	45	4313
2026-01-20 04:15:08.39	202.58	13.89	-38.1	-39.1	20.2	0.00e+00	0	40	0	4558159872	45	4323
2026-01-20 04:15:09.53	202.58	13.77	-38.2	-39.2	20.3	0.00e+00	0	40	0	4566548480	45	4369
2026-01-20 04:15:10.38	202.57	13.68	-38.2	-39.2	20.2	0.00e+00	0	40	0	4572839936	45	4377
2026-01-20 04:15:11.52	202.56	13.57	-38.3	-39.3	20.2	0.00e+00	0	40	0	4581228544	46	4155
2026-01-20 04:15:12.37	202.56	13.48	-38.3	-39.3	20.2	0.00e+00	0	39	0	4587520000	46	4172
2026-01-20 04:15:13.51	202.55	13.37	-38.4	-39.4	20.0	0.00e+00	0	40	0	4595908608	46	4232
2026-01-20 04:15:14.36	202.54	13.28	-38.4	-39.4	20.0	0.00e+00	0	40	0	4601151488	46	4237
2026-01-20 04:15:15.50	202.54	13.17	-38.5	-39.5	19.9	0.00e+00	0	40	0	4609540096	46	4275
2026-01-20 04:15:16.35	202.53	13.08	-38.5	-39.5	19.9	0.00e+00	0	40	0	4615831552	46	4280
2026-01-20 04:15:17.57	202.52	12.96	-38.5	-39.5	19.9	0.00e+00	0	39	0	4624220160	46	4276
2026-01-20 04:15:18.42	202.52	12.88	-38.5	-39.5	20.0	0.00e+00	0	40	0	4630511616	46	4259
2026-01-20 04:15:19.56	202.51	12.77	-38.6	-39.7	19.8	0.00e+00	0	40	0	4638900224	46	4345
2026-01-20 04:15:20.41	202.51	12.68	-38.6	-39.6	19.9	0.00e+00	0	40	0	4645191680	46	4320
2026-01-20 04:15:21.55	202.50	12.57	-38.6	-39.6	19.8	0.00e+00	0	40	0	4653580288	46	4320
2026-01-20 04:15:22.40	202.49	12.49	-38.6	-39.6	19.8	0.00e+00	0	40	0	4659871744	46	4326
2026-01-20 04:15:23.54	202.49	12.38	-38.6	-39.6	19.8	0.00e+00	0	40	0	4668260352	46	4331
2026-01-20 04:15:24.39	202.48	12.30	-38.6	-39.7	19.8	0.00e+00	0	40	0	4674551808	46	4353
2026-01-20 04:15:25.53	202.48	12.19	-38.7	-39.7	19.7	0.00e+00	0	40	0	4682940416	46	4382
2026-01-20 04:15:26.38	202.47	12.11	-38.7	-39.7	19.7	0.00e+00	0	40	0	4688183296	46	4365
2026-01-20 04:15:27.51	202.46	12.00	-38.8	-39.8	19.6	0.00e+00	0	40	0	4696571904	46	4417
2026-01-20 04:15:28.37	202.46	11.92	-38.8	-39.8	19.6	0.00e+00	0	40	0	4702863360	47	4179
2026-01-20 04:15:29.51	202.45	11.81	-38.8	-39.8	19.6	0.00e+00	0	40	0	4711251968	47	4188
2026-01-20 04:15:30.36	202.45	11.73	-38.7	-39.8	19.6	0.00e+00	0	40	0	4717543424	47	4163
2026-01-20 04:15:31.52	202.44	11.62	-38.8	-39.9	19.5	0.00e+00	0	39	0	4725932032	47	4209
