passes_logs/2026/01/20/T1/T1__20260120_104258_NOAA_21_JPSS-2_rec.log

#Pass ID: 20260120_104258_NOAA 21 (JPSS-2)
#Satellite: NOAA 21 (JPSS-2)
#Configuration: NOAA 21
#almurnet v.1.7.20251203
#Start time: 2026-01-20 10:42:59

#Version: 2.0.20230620
#Station: T1
#Location: 37.570604 lon 55.790049 lat
#TLE: 1 54234U 22150A   26019.59425193  .00000067  00000+0  52811-4 0  9997
#TLE: 2 54234  98.7505 320.4385 0000607 256.3203 103.7906 14.19535690165464

#Time	Az	El	Level	Level2	SNR	BER	BlckErr	Temp	State	Recorded	gain1	gain2
2026-01-20 10:42:59.46	185.37	5.05	-49.9	-63.4	3.8	1.49e+00	0	41	0	0	70	18008
2026-01-20 10:43:00.45	185.41	5.12	-49.6	-63.2	3.8	1.49e+00	0	41	104	0	70	17636
2026-01-20 10:43:01.44	185.46	5.19	-49.6	-63.2	3.8	1.49e+00	0	41	104	0	70	17559
2026-01-20 10:43:02.44	185.50	5.26	-49.6	-63.2	3.8	1.49e+00	0	41	104	0	70	17488
2026-01-20 10:43:03.43	185.55	5.33	-49.6	-63.1	3.8	1.49e+00	0	41	104	0	70	17302
2026-01-20 10:43:04.42	185.59	5.40	-49.6	-63.1	3.8	1.49e+00	0	41	104	0	70	17288
2026-01-20 10:43:05.42	185.64	5.47	-49.6	-63.0	3.8	1.49e+00	0	41	104	0	70	17211
2026-01-20 10:43:06.41	185.69	5.53	-49.6	-63.0	3.8	1.49e+00	0	41	104	0	70	17202
2026-01-20 10:43:07.40	185.73	5.60	-49.6	-63.0	3.8	1.49e+00	0	41	104	0	70	17131
2026-01-20 10:43:08.40	185.78	5.67	-49.6	-63.0	3.8	1.49e+00	0	41	104	0	70	17170
2026-01-20 10:43:09.39	185.83	5.74	-49.6	-63.1	3.8	1.49e+00	0	41	104	0	70	17342
2026-01-20 10:43:10.38	185.87	5.81	-49.6	-63.1	3.8	1.49e+00	0	42	104	0	70	17394
2026-01-20 10:43:11.38	185.92	5.88	-49.6	-63.1	3.8	1.49e+00	0	41	104	0	70	17428
2026-01-20 10:43:12.37	185.97	5.95	-49.6	-63.1	3.8	1.49e+00	0	41	104	0	70	17447
2026-01-20 10:43:13.37	186.02	6.03	-49.6	-63.1	3.8	1.49e+00	0	41	104	0	70	17427
2026-01-20 10:43:14.36	186.07	6.10	-49.6	-63.1	3.8	1.49e+00	0	42	104	0	70	17374
2026-01-20 10:43:15.35	186.11	6.17	-49.6	-63.1	3.8	1.49e+00	0	42	104	0	70	17303
2026-01-20 10:43:16.35	186.16	6.24	-49.6	-63.0	3.8	1.49e+00	0	42	104	0	70	17260
2026-01-20 10:43:17.34	186.21	6.31	-49.6	-63.1	3.8	1.49e+00	0	42	104	0	70	17300
2026-01-20 10:43:18.33	186.26	6.38	-49.6	-63.0	3.8	1.49e+00	0	42	104	0	70	17243
2026-01-20 10:43:19.33	186.31	6.45	-49.6	-63.1	3.8	1.49e+00	0	42	104	0	70	17339
2026-01-20 10:43:20.32	186.36	6.52	-49.6	-63.1	3.8	1.49e+00	0	42	104	0	70	17481
2026-01-20 10:43:21.31	186.41	6.60	-49.6	-63.2	3.8	1.49e+00	0	42	104	0	70	17607
2026-01-20 10:43:22.31	186.46	6.67	-49.6	-63.1	3.8	1.49e+00	0	42	104	0	70	17438
2026-01-20 10:43:23.30	186.51	6.74	-49.6	-62.9	3.8	1.49e+00	0	42	104	0	70	17037
2026-01-20 10:43:24.30	186.56	6.81	-49.5	-62.5	3.8	1.49e+00	0	42	104	0	70	16266
2026-01-20 10:43:25.29	186.61	6.89	-49.5	-62.1	3.8	1.49e+00	0	42	104	0	70	15458
2026-01-20 10:43:26.28	186.66	6.96	-49.4	-61.5	3.8	1.49e+00	0	42	104	0	70	14512
2026-01-20 10:43:27.27	186.71	7.03	-49.4	-60.8	4.0	1.49e+00	0	42	104	0	70	13385
2026-01-20 10:43:28.27	186.76	7.11	-49.4	-61.1	3.9	1.48e+00	0	42	104	0	70	13778
2026-01-20 10:43:29.26	186.81	7.18	-49.4	-61.4	3.8	1.49e+00	0	42	104	0	70	14228
2026-01-20 10:43:30.26	186.86	7.25	-49.5	-62.0	3.8	1.49e+00	0	42	104	0	70	15273
2026-01-20 10:43:31.25	186.92	7.33	-49.6	-62.8	3.8	1.49e+00	0	42	104	0	70	16816
2026-01-20 10:43:32.24	186.97	7.40	-49.6	-63.2	3.8	1.49e+00	0	42	104	0	70	17575
2026-01-20 10:43:33.24	187.02	7.48	-49.5	-61.7	3.8	1.49e+00	0	42	104	0	70	14848
2026-01-20 10:43:34.23	187.07	7.55	-49.1	-58.1	4.3	1.46e+00	0	42	104	0	70	9799
2026-01-20 10:43:35.22	187.13	7.62	-48.4	-55.0	6.9	2.90e-01	0	42	0	0	68	7685
2026-01-20 10:43:36.22	187.18	7.70	-47.3	-52.3	9.4	3.14e-02	0	42	0	0	66	6337
2026-01-20 10:43:37.21	187.23	7.77	-46.3	-50.2	11.6	1.39e-03	0	43	0	0	64	5560
2026-01-20 10:43:38.20	187.29	7.85	-45.5	-48.8	13.1	8.23e-05	0	42	0	0	63	5006
2026-01-20 10:43:39.20	187.34	7.92	-44.5	-47.3	14.5	2.20e-06	0	42	0	0	61	4759
2026-01-20 10:43:40.19	187.39	8.00	-43.8	-46.3	15.5	0.00e+00	0	42	0	0	59	4742
2026-01-20 10:43:41.18	187.45	8.08	-43.3	-45.7	16.1	0.00e+00	0	42	0	0	58	4653
2026-01-20 10:43:42.18	187.50	8.15	-43.0	-45.3	16.4	0.00e+00	0	42	0	0	58	4486
2026-01-20 10:43:43.17	187.56	8.23	-42.8	-45.1	16.7	0.00e+00	0	42	0	0	57	4606
2026-01-20 10:43:44.17	187.61	8.31	-42.9	-45.1	16.6	0.00e+00	0	42	0	0	57	4638
2026-01-20 10:43:45.16	187.67	8.38	-43.0	-45.3	16.5	0.00e+00	0	42	0	0	57	4749
2026-01-20 10:43:46.15	187.73	8.46	-43.5	-45.9	15.9	0.00e+00	0	42	0	0	57	5072
2026-01-20 10:43:47.15	187.78	8.54	-44.0	-46.6	15.2	0.00e+00	0	42	0	0	58	5210
2026-01-20 10:43:48.14	187.84	8.61	-44.7	-47.5	14.3	0.00e+00	0	42	0	0	59	5428
2026-01-20 10:43:49.13	187.90	8.69	-45.4	-48.6	13.3	9.10e-06	0	43	0	0	61	5507
2026-01-20 10:43:50.13	187.95	8.77	-46.2	-49.9	11.9	1.74e-04	0	43	0	0	63	5720
2026-01-20 10:43:51.12	188.01	8.85	-46.8	-51.3	10.5	2.38e-03	0	42	0	0	64	6282
2026-01-20 10:43:52.11	188.07	8.93	-47.5	-52.6	9.0	1.80e-02	0	43	0	0	65	6958
2026-01-20 10:43:53.11	188.13	9.00	-48.0	-54.0	7.7	6.09e-02	0	43	0	0	66	7712
2026-01-20 10:43:54.10	188.18	9.08	-48.4	-55.3	6.5	1.84e-01	0	43	0	0	67	8447
2026-01-20 10:43:55.09	188.24	9.16	-46.0	-49.6	12.4	2.25e-04	0	43	0	0	63	5465
2026-01-20 10:43:56.09	188.30	9.24	-49.3	-59.7	3.9	1.43e+00	0	43	104	0	69	12445
2026-01-20 10:43:57.08	188.36	9.32	-48.6	-55.6	6.4	1.60e-01	0	43	0	0	68	8236
2026-01-20 10:43:58.08	188.42	9.40	-44.9	-47.9	14.1	4.04e-05	0	42	0	0	61	5058
2026-01-20 10:43:59.07	188.48	9.48	-49.3	-60.0	4.1	1.38e+00	0	43	104	0	69	12853
2026-01-20 10:44:00.07	188.54	9.56	-46.0	-49.8	12.1	2.37e-03	0	43	0	0	63	5624
2026-01-20 10:44:01.06	188.60	9.64	-46.0	-49.7	12.2	3.36e-04	0	43	0	0	63	5578
2026-01-20 10:44:02.06	188.66	9.72	-46.1	-49.9	12.0	1.85e-04	0	43	0	0	63	5663
2026-01-20 10:44:03.05	188.72	9.80	-45.8	-49.4	12.5	3.75e-04	0	43	0	0	63	5390
2026-01-20 10:44:04.05	188.78	9.88	-45.7	-49.2	12.7	2.17e-04	0	43	0	0	63	5266
2026-01-20 10:44:05.04	188.84	9.96	-45.1	-48.2	13.7	1.22e-05	0	43	0	0	62	4956
2026-01-20 10:44:06.04	188.91	10.05	-44.6	-47.5	14.5	7.00e-07	0	43	0	0	61	4837
2026-01-20 10:44:07.03	188.97	10.13	-44.2	-47.0	15.0	0.00e+00	0	43	0	0	60	4816
2026-01-20 10:44:08.03	189.03	10.21	-43.7	-46.2	15.7	0.00e+00	0	43	0	0	59	4656
2026-01-20 10:44:09.02	189.10	10.29	-43.1	-45.4	16.5	0.00e+00	0	43	0	0	58	4497
2026-01-20 10:44:10.02	189.16	10.38	-42.5	-44.7	17.2	0.00e+00	0	43	0	0	57	4399
2026-01-20 10:44:11.01	189.22	10.46	-42.0	-44.1	17.7	0.00e+00	0	43	0	0	56	4375
2026-01-20 10:44:12.01	189.29	10.54	-42.0	-44.1	17.8	0.00e+00	0	43	0	0	56	4342
2026-01-20 10:44:13.01	189.35	10.63	-41.7	-43.8	17.9	0.00e+00	0	43	0	0	55	4475
2026-01-20 10:44:14.00	189.42	10.71	-41.7	-43.8	17.9	0.00e+00	0	43	0	0	55	4474
2026-01-20 10:44:14.99	189.48	10.79	-41.8	-43.9	17.9	0.00e+00	0	43	0	0	55	4501
2026-01-20 10:44:15.99	189.55	10.88	-41.6	-43.7	18.0	0.00e+00	0	43	0	0	55	4392
2026-01-20 10:44:16.99	189.61	10.96	-41.6	-43.7	18.0	0.00e+00	0	43	0	0	55	4397
2026-01-20 10:44:17.98	189.68	11.05	-41.7	-43.7	18.0	0.00e+00	0	43	0	0	55	4433
2026-01-20 10:44:18.97	189.74	11.13	-41.7	-43.8	17.9	0.00e+00	0	43	0	0	55	4463
2026-01-20 10:44:19.97	189.81	11.22	-41.6	-43.7	18.0	0.00e+00	0	43	0	0	55	4411
2026-01-20 10:44:20.96	189.88	11.30	-41.6	-43.7	18.0	0.00e+00	0	43	0	0	55	4399
2026-01-20 10:44:21.96	189.95	11.39	-41.5	-43.5	18.2	0.00e+00	0	43	0	0	55	4335
2026-01-20 10:44:22.95	190.01	11.47	-41.5	-43.5	18.1	0.00e+00	0	43	0	0	54	4596
2026-01-20 10:44:23.95	190.08	11.56	-41.4	-43.4	18.3	0.00e+00	0	43	0	0	54	4505
2026-01-20 10:44:24.94	190.15	11.65	-41.4	-43.4	18.2	0.00e+00	0	43	0	0	54	4537
2026-01-20 10:44:25.94	190.22	11.73	-41.4	-43.4	18.2	0.00e+00	0	43	0	0	54	4522
2026-01-20 10:44:26.93	190.29	11.82	-41.4	-43.4	18.2	0.00e+00	0	43	0	0	54	4541
2026-01-20 10:44:27.93	190.36	11.91	-41.4	-43.4	18.2	0.00e+00	0	43	0	0	54	4519
2026-01-20 10:44:28.92	190.43	11.99	-41.3	-43.3	18.3	0.00e+00	0	43	0	0	54	4457
2026-01-20 10:44:29.92	190.50	12.08	-41.3	-43.3	18.3	0.00e+00	0	43	0	0	54	4448
2026-01-20 10:44:30.91	190.57	12.17	-41.3	-43.2	18.4	0.00e+00	0	43	0	0	54	4441
2026-01-20 10:44:31.91	190.65	12.26	-41.2	-43.2	18.4	0.00e+00	0	43	0	0	54	4422
2026-01-20 10:44:32.90	190.72	12.35	-41.2	-43.1	18.5	0.00e+00	0	43	0	0	54	4388
2026-01-20 10:44:33.90	190.79	12.44	-41.2	-43.2	18.4	0.00e+00	0	43	0	0	54	4421
2026-01-20 10:44:34.89	190.86	12.53	-41.2	-43.2	18.5	0.00e+00	0	43	0	0	54	4409
2026-01-20 10:44:35.89	190.94	12.62	-41.3	-43.2	18.4	0.00e+00	0	43	0	0	54	4437
2026-01-20 10:44:36.89	191.01	12.71	-41.3	-43.2	18.4	0.00e+00	0	43	0	0	54	4440
2026-01-20 10:44:37.88	191.08	12.80	-41.4	-43.3	18.4	0.00e+00	0	43	0	0	54	4484
2026-01-20 10:44:38.88	191.16	12.89	-41.3	-43.3	18.4	0.00e+00	0	43	0	0	54	4445
2026-01-20 10:44:39.87	191.23	12.98	-41.2	-43.2	18.5	0.00e+00	0	43	0	0	54	4403
2026-01-20 10:44:40.87	191.31	13.07	-41.3	-43.3	18.4	0.00e+00	0	43	0	0	54	4451
2026-01-20 10:44:41.86	191.38	13.16	-41.3	-43.2	18.4	0.00e+00	0	43	0	0	54	4438
2026-01-20 10:44:42.86	191.46	13.25	-41.2	-43.2	18.5	0.00e+00	0	43	0	0	54	4396
2026-01-20 10:44:43.85	191.54	13.34	-41.3	-43.3	18.4	0.00e+00	0	43	0	0	54	4443
2026-01-20 10:44:44.85	191.62	13.44	-41.3	-43.2	18.5	0.00e+00	0	43	0	0	54	4422
2026-01-20 10:44:45.84	191.69	13.53	-41.3	-43.2	18.5	0.00e+00	0	43	0	0	54	4427
2026-01-20 10:44:46.84	191.77	13.62	-41.3	-43.2	18.5	0.00e+00	0	43	0	0	54	4416
2026-01-20 10:44:47.84	191.85	13.71	-41.2	-43.1	18.6	0.00e+00	0	43	0	0	54	4374
2026-01-20 10:44:48.83	191.93	13.81	-41.2	-43.1	18.6	0.00e+00	0	43	0	0	54	4346
2026-01-20 10:44:49.83	192.01	13.90	-41.3	-43.3	18.4	0.00e+00	0	43	0	0	54	4463
2026-01-20 10:44:50.82	192.09	14.00	-41.2	-43.1	18.5	0.00e+00	0	43	0	0	54	4368
2026-01-20 10:44:51.82	192.17	14.09	-41.1	-43.0	18.6	0.00e+00	0	43	0	0	54	4325
2026-01-20 10:44:52.81	192.25	14.18	-41.2	-43.1	18.5	0.00e+00	0	43	0	0	54	4373
2026-01-20 10:44:53.81	192.33	14.28	-41.2	-43.1	18.5	0.00e+00	0	43	0	0	54	4378
2026-01-20 10:44:54.80	192.41	14.38	-41.1	-43.0	18.6	0.00e+00	0	43	0	0	54	4322
2026-01-20 10:44:55.80	192.50	14.47	-41.1	-43.1	18.6	0.00e+00	0	43	0	0	54	4341
2026-01-20 10:44:56.80	192.58	14.57	-41.2	-43.1	18.6	0.00e+00	0	43	0	0	54	4346
2026-01-20 10:44:57.79	192.66	14.66	-41.3	-43.2	18.5	0.00e+00	0	43	0	0	54	4409
2026-01-20 10:44:58.79	192.75	14.76	-41.1	-43.0	18.6	0.00e+00	0	43	0	0	54	4338
2026-01-20 10:44:59.78	192.83	14.86	-41.2	-43.1	18.5	0.00e+00	0	43	0	0	54	4388
2026-01-20 10:45:00.75	192.92	14.95	-41.1	-43.0	18.6	0.00e+00	0	43	0	0	54	4330
2026-01-20 10:45:01.74	193.00	15.05	-41.3	-43.2	18.5	0.00e+00	0	43	0	0	54	4408
2026-01-20 10:45:02.74	193.09	15.15	-41.3	-43.2	18.4	0.00e+00	0	43	0	0	54	4430
2026-01-20 10:45:03.73	193.17	15.25	-41.3	-43.2	18.5	0.00e+00	0	43	0	0	54	4415
2026-01-20 10:45:04.72	193.26	15.34	-41.3	-43.2	18.5	7.00e-07	0	43	0	0	54	4413
2026-01-20 10:45:05.72	193.35	15.44	-41.4	-43.3	18.4	0.00e+00	0	43	0	0	54	4463
2026-01-20 10:45:06.71	193.44	15.54	-41.2	-43.1	18.6	0.00e+00	0	43	0	0	54	4367
2026-01-20 10:45:07.71	193.53	15.64	-41.2	-43.1	18.6	0.00e+00	0	43	0	0	54	4351
2026-01-20 10:45:08.70	193.62	15.74	-41.2	-43.1	18.5	0.00e+00	0	43	0	0	54	4374
2026-01-20 10:45:09.70	193.71	15.84	-41.3	-43.2	18.4	0.00e+00	0	43	0	0	54	4433
2026-01-20 10:45:10.69	193.80	15.94	-41.2	-43.1	18.5	0.00e+00	0	43	0	0	54	4388
2026-01-20 10:45:11.69	193.89	16.05	-41.2	-43.1	18.6	0.00e+00	0	43	0	0	54	4359
2026-01-20 10:45:12.68	193.98	16.15	-41.2	-43.2	18.5	0.00e+00	0	44	0	0	54	4394
2026-01-20 10:45:13.68	194.07	16.25	-41.3	-43.3	18.4	0.00e+00	0	43	0	0	54	4451
2026-01-20 10:45:14.67	194.17	16.35	-41.2	-43.2	18.5	0.00e+00	0	43	0	0	54	4399
2026-01-20 10:45:15.67	194.26	16.45	-41.3	-43.2	18.5	0.00e+00	0	43	0	0	54	4417
2026-01-20 10:45:16.67	194.36	16.56	-41.4	-43.3	18.4	0.00e+00	0	43	0	0	54	4465
2026-01-20 10:45:17.66	194.45	16.66	-41.3	-43.3	18.4	0.00e+00	0	43	0	0	54	4457
2026-01-20 10:45:18.66	194.55	16.76	-41.4	-43.4	18.3	0.00e+00	0	43	0	0	54	4494
2026-01-20 10:45:19.65	194.64	16.87	-41.4	-43.4	18.3	0.00e+00	0	43	0	0	54	4507
2026-01-20 10:45:20.65	194.74	16.97	-41.4	-43.4	18.4	0.00e+00	0	43	0	0	54	4511
2026-01-20 10:45:21.64	194.84	17.08	-41.5	-43.4	18.4	0.00e+00	0	43	0	0	54	4530
2026-01-20 10:45:22.63	194.93	17.18	-41.5	-43.4	18.4	0.00e+00	0	43	0	0	54	4532
2026-01-20 10:45:23.63	195.03	17.29	-41.4	-43.4	18.4	0.00e+00	0	43	0	0	54	4516
2026-01-20 10:45:24.62	195.13	17.39	-41.5	-43.4	18.4	0.00e+00	0	43	0	0	54	4543
2026-01-20 10:45:25.62	195.23	17.50	-41.4	-43.4	18.4	0.00e+00	0	43	0	0	54	4503
2026-01-20 10:45:26.62	195.34	17.61	-41.4	-43.4	18.5	0.00e+00	0	43	0	0	54	4498
2026-01-20 10:45:27.61	195.44	17.71	-41.5	-43.4	18.4	0.00e+00	0	44	0	0	54	4511
2026-01-20 10:45:28.60	195.54	17.82	-41.3	-43.2	18.6	0.00e+00	0	43	0	0	54	4435
2026-01-20 10:45:29.60	195.64	17.93	-41.3	-43.2	18.6	0.00e+00	0	44	0	0	54	4421
2026-01-20 10:45:30.59	195.75	18.04	-41.3	-43.2	18.6	0.00e+00	0	43	0	0	54	4424
2026-01-20 10:45:31.59	195.85	18.14	-41.3	-43.2	18.6	0.00e+00	0	43	0	0	54	4408
2026-01-20 10:45:32.58	195.95	18.25	-41.2	-43.1	18.6	0.00e+00	0	44	0	0	54	4383
2026-01-20 10:45:33.58	196.06	18.36	-41.3	-43.2	18.6	0.00e+00	0	43	0	0	54	4396
2026-01-20 10:45:34.58	196.17	18.47	-41.3	-43.1	18.6	0.00e+00	0	43	0	0	54	4391
2026-01-20 10:45:35.57	196.28	18.58	-41.3	-43.2	18.6	0.00e+00	0	44	0	0	54	4406
2026-01-20 10:45:36.56	196.38	18.69	-41.2	-43.1	18.7	0.00e+00	0	43	0	0	54	4353
2026-01-20 10:45:37.56	196.49	18.80	-41.2	-43.1	18.7	0.00e+00	0	44	0	0	54	4363
2026-01-20 10:45:38.55	196.60	18.91	-41.1	-43.0	18.8	0.00e+00	0	44	0	0	54	4298
2026-01-20 10:45:39.55	196.71	19.03	-41.2	-43.1	18.7	0.00e+00	0	43	0	0	54	4353
2026-01-20 10:45:40.54	196.82	19.14	-41.2	-43.0	18.8	0.00e+00	0	43	0	0	54	4324
2026-01-20 10:45:41.54	196.94	19.25	-41.1	-43.0	18.9	0.00e+00	0	43	0	0	54	4295
2026-01-20 10:45:42.53	197.05	19.36	-41.2	-43.0	18.8	0.00e+00	0	44	0	0	54	4340
2026-01-20 10:45:43.52	197.16	19.48	-41.0	-42.8	18.9	0.00e+00	0	44	0	0	54	4240
2026-01-20 10:45:44.52	197.28	19.59	-40.8	-42.6	19.1	0.00e+00	0	43	0	0	53	4374
2026-01-20 10:45:45.51	197.39	19.70	-40.7	-42.5	19.2	0.00e+00	0	44	0	0	53	4335
2026-01-20 10:45:46.51	197.51	19.82	-40.6	-42.4	19.3	0.00e+00	0	43	0	0	53	4265
2026-01-20 10:45:47.50	197.62	19.93	-40.6	-42.4	19.3	0.00e+00	0	43	0	0	53	4258
2026-01-20 10:45:48.49	197.74	20.05	-40.7	-42.4	19.3	0.00e+00	0	43	0	0	53	4285
2026-01-20 10:45:49.49	197.86	20.17	-40.7	-42.4	19.3	0.00e+00	0	43	0	0	53	4278
2026-01-20 10:45:50.49	197.98	20.28	-40.6	-42.4	19.3	0.00e+00	0	43	0	0	53	4279
2026-01-20 10:45:51.48	198.10	20.40	-40.6	-42.4	19.3	0.00e+00	0	43	0	0	53	4263
2026-01-20 10:45:52.48	198.22	20.52	-40.5	-42.2	19.4	0.00e+00	0	43	0	0	53	4184
2026-01-20 10:45:53.47	198.34	20.63	-40.5	-42.2	19.4	0.00e+00	0	43	0	0	52	4428
2026-01-20 10:45:54.47	198.47	20.75	-40.5	-42.3	19.4	0.00e+00	0	44	0	0	52	4442
2026-01-20 10:45:55.46	198.59	20.87	-40.4	-42.2	19.5	0.00e+00	0	43	0	0	52	4399
2026-01-20 10:45:56.46	198.72	20.99	-40.4	-42.2	19.5	0.00e+00	0	44	0	0	52	4409
2026-01-20 10:45:57.46	198.84	21.11	-40.4	-42.1	19.5	0.00e+00	0	44	0	0	52	4364
2026-01-20 10:45:58.45	198.97	21.23	-40.2	-41.9	19.6	0.00e+00	0	43	0	0	52	4288
2026-01-20 10:45:59.45	199.10	21.35	-40.2	-42.0	19.6	0.00e+00	0	44	0	0	52	4306
2026-01-20 10:46:00.44	199.23	21.47	-40.2	-41.9	19.7	0.00e+00	0	43	0	0	52	4291
2026-01-20 10:46:01.44	199.36	21.59	-40.1	-41.8	19.8	0.00e+00	0	43	0	0	52	4201
2026-01-20 10:46:02.43	199.49	21.71	-40.1	-41.8	19.8	0.00e+00	0	44	0	0	52	4225
2026-01-20 10:46:03.43	199.62	21.83	-40.1	-41.8	19.8	0.00e+00	0	43	0	0	52	4230
2026-01-20 10:46:04.42	199.75	21.95	-40.2	-41.9	19.7	0.00e+00	0	43	0	0	52	4289
2026-01-20 10:46:05.42	199.89	22.08	-40.1	-41.9	19.8	0.00e+00	0	44	0	0	52	4249
2026-01-20 10:46:06.41	200.02	22.20	-40.2	-41.9	19.7	0.00e+00	0	44	0	0	52	4265
2026-01-20 10:46:07.41	200.16	22.32	-40.3	-42.0	19.6	0.00e+00	0	43	0	0	52	4316
2026-01-20 10:46:08.40	200.29	22.45	-40.2	-41.9	19.7	0.00e+00	0	44	0	0	52	4284
2026-01-20 10:46:09.40	200.43	22.57	-40.1	-41.8	19.8	0.00e+00	0	43	0	0	52	4201
2026-01-20 10:46:10.39	200.57	22.70	-40.1	-41.8	19.8	0.00e+00	0	44	0	0	52	4214
2026-01-20 10:46:11.39	200.71	22.82	-40.1	-41.8	19.9	0.00e+00	0	44	0	0	52	4194
2026-01-20 10:46:12.39	200.85	22.95	-40.1	-41.8	19.8	0.00e+00	0	44	0	0	52	4201
2026-01-20 10:46:13.38	200.99	23.07	-40.1	-41.8	19.8	0.00e+00	0	44	0	0	52	4212
2026-01-20 10:46:14.37	201.14	23.20	-40.1	-41.8	19.8	0.00e+00	0	43	0	0	52	4234
2026-01-20 10:46:15.37	201.28	23.33	-40.0	-41.8	19.9	0.00e+00	0	44	0	0	52	4198
2026-01-20 10:46:16.37	201.43	23.46	-40.0	-41.8	19.8	0.00e+00	0	44	0	0	52	4199
2026-01-20 10:46:17.36	201.58	23.58	-40.0	-41.7	19.9	0.00e+00	0	44	0	0	51	4421
2026-01-20 10:46:18.36	201.72	23.71	-40.0	-41.7	19.9	0.00e+00	0	43	0	0	51	4436
2026-01-20 10:46:19.35	201.87	23.84	-39.9	-41.6	20.0	0.00e+00	0	44	0	0	51	4362
2026-01-20 10:46:20.35	202.02	23.97	-39.9	-41.6	20.1	0.00e+00	0	44	0	0	51	4350
2026-01-20 10:46:21.34	202.17	24.10	-39.9	-41.5	20.1	0.00e+00	0	44	0	0	51	4338
2026-01-20 10:46:22.33	202.33	24.23	-39.9	-41.6	20.1	0.00e+00	0	44	0	0	51	4380
2026-01-20 10:46:23.33	202.48	24.36	-39.9	-41.6	20.1	0.00e+00	0	44	0	0	51	4363
2026-01-20 10:46:24.32	202.64	24.49	-40.0	-41.7	20.0	0.00e+00	0	43	0	0	51	4408
2026-01-20 10:46:25.32	202.79	24.62	-40.0	-41.6	20.0	0.00e+00	0	43	0	0	51	4383
2026-01-20 10:46:26.31	202.95	24.75	-40.0	-41.7	20.0	0.00e+00	0	43	0	0	51	4397
2026-01-20 10:46:27.30	203.11	24.89	-40.0	-41.7	20.0	0.00e+00	0	43	0	0	51	4424
2026-01-20 10:46:28.30	203.27	25.02	-40.1	-41.7	20.0	0.00e+00	0	43	0	0	51	4438
2026-01-20 10:46:29.30	203.43	25.15	-40.2	-41.9	19.9	0.00e+00	0	43	0	0	51	4496
2026-01-20 10:46:30.29	203.60	25.29	-40.1	-41.8	20.0	0.00e+00	0	44	0	0	51	4478
2026-01-20 10:46:31.29	203.76	25.42	-40.1	-41.8	20.0	0.00e+00	0	43	0	0	51	4492
2026-01-20 10:46:32.29	203.93	25.56	-40.3	-42.0	19.9	0.00e+00	0	44	0	0	51	4563
2026-01-20 10:46:33.28	204.09	25.69	-40.3	-42.1	19.8	0.00e+00	0	44	0	0	51	4608
2026-01-20 10:46:34.28	204.26	25.83	-40.5	-42.2	19.7	0.00e+00	0	44	0	0	51	4672
2026-01-20 10:46:35.27	204.43	25.96	-40.4	-42.1	19.7	0.00e+00	0	44	0	0	51	4608
2026-01-20 10:46:36.27	204.61	26.10	-40.4	-42.1	19.7	0.00e+00	0	43	0	0	51	4618
2026-01-20 10:46:37.26	204.78	26.24	-40.5	-42.2	19.7	0.00e+00	0	44	0	0	51	4681
2026-01-20 10:46:38.26	204.95	26.37	-40.6	-42.3	19.5	0.00e+00	0	44	0	0	51	4737
2026-01-20 10:46:39.26	205.13	26.51	-40.5	-42.2	19.7	0.00e+00	0	44	0	0	51	4672
2026-01-20 10:46:40.25	205.31	26.65	-40.5	-42.2	19.7	0.00e+00	0	44	0	0	51	4680
2026-01-20 10:46:41.25	205.49	26.79	-40.5	-42.2	19.6	0.00e+00	0	44	0	0	52	4416
2026-01-20 10:46:42.24	205.67	26.93	-40.5	-42.3	19.5	0.00e+00	0	44	0	0	52	4444
2026-01-20 10:46:43.24	205.85	27.07	-40.5	-42.3	19.5	0.00e+00	0	44	0	0	52	4443
2026-01-20 10:46:44.23	206.03	27.21	-40.7	-42.4	19.3	0.00e+00	0	43	0	0	52	4536
2026-01-20 10:46:45.23	206.22	27.35	-40.7	-42.4	19.3	0.00e+00	0	44	0	0	52	4517
2026-01-20 10:46:46.22	206.40	27.49	-40.7	-42.5	19.2	0.00e+00	0	44	0	0	52	4567
2026-01-20 10:46:47.22	206.59	27.63	-40.8	-42.6	19.1	0.00e+00	0	44	0	0	52	4608
2026-01-20 10:46:48.21	206.78	27.77	-40.8	-42.5	19.1	0.00e+00	0	44	0	0	52	4598
2026-01-20 10:46:49.21	206.97	27.91	-40.8	-42.5	19.2	0.00e+00	0	44	0	0	52	4598
2026-01-20 10:46:50.21	207.17	28.05	-40.8	-42.5	19.2	0.00e+00	0	44	0	0	52	4585
2026-01-20 10:46:51.20	207.36	28.19	-40.9	-42.7	19.1	0.00e+00	0	44	0	0	52	4701
2026-01-20 10:46:52.19	207.56	28.34	-41.0	-42.8	19.0	0.00e+00	0	44	0	0	52	4732
2026-01-20 10:46:53.19	207.76	28.48	-40.9	-42.7	19.1	0.00e+00	0	43	0	0	52	4693
2026-01-20 10:46:54.19	207.96	28.62	-40.9	-42.7	19.2	0.00e+00	0	44	0	0	52	4654
2026-01-20 10:46:55.18	208.16	28.77	-40.9	-42.7	19.1	0.00e+00	0	44	0	0	52	4658
2026-01-20 10:46:56.18	208.36	28.91	-41.0	-42.8	19.0	0.00e+00	0	44	0	0	52	4716
2026-01-20 10:46:57.17	208.57	29.06	-40.9	-42.7	19.1	0.00e+00	0	44	0	0	52	4659
2026-01-20 10:46:58.17	208.78	29.20	-40.8	-42.6	19.1	0.00e+00	0	44	0	0	52	4617
2026-01-20 10:46:59.16	208.99	29.35	-40.8	-42.6	19.1	0.00e+00	0	44	0	0	52	4638
2026-01-20 10:47:00.16	209.20	29.49	-40.9	-42.7	19.1	0.00e+00	0	44	0	0	52	4666
2026-01-20 10:47:01.14	209.41	29.64	-40.8	-42.6	19.2	0.00e+00	0	44	0	0	52	4604
2026-01-20 10:47:02.14	209.62	29.78	-40.7	-42.5	19.3	0.00e+00	0	44	0	0	52	4555
2026-01-20 10:47:03.13	209.84	29.93	-40.7	-42.4	19.3	0.00e+00	0	43	0	0	52	4521
2026-01-20 10:47:04.13	210.06	30.08	-40.7	-42.5	19.3	0.00e+00	0	44	0	0	52	4551
2026-01-20 10:47:05.13	210.28	30.23	-40.7	-42.4	19.3	0.00e+00	0	44	0	0	52	4530
2026-01-20 10:47:06.12	210.50	30.37	-40.7	-42.5	19.3	0.00e+00	0	44	0	0	52	4556
2026-01-20 10:47:07.11	210.72	30.52	-40.6	-42.4	19.4	0.00e+00	0	44	0	0	52	4509
2026-01-20 10:47:08.11	210.95	30.67	-40.5	-42.3	19.6	0.00e+00	0	44	0	0	52	4453
2026-01-20 10:47:09.11	211.18	30.82	-40.5	-42.2	19.6	0.00e+00	0	43	0	0	52	4436
2026-01-20 10:47:10.10	211.41	30.97	-40.5	-42.2	19.6	0.00e+00	0	44	0	0	52	4425
2026-01-20 10:47:11.10	211.65	31.11	-40.5	-42.2	19.6	0.00e+00	0	44	0	0	52	4411
2026-01-20 10:47:12.10	211.88	31.26	-40.6	-42.3	19.6	0.00e+00	0	44	0	0	52	4464
2026-01-20 10:47:13.09	212.12	31.41	-40.7	-42.4	19.4	0.00e+00	0	44	0	0	52	4526
2026-01-20 10:47:14.09	212.36	31.56	-40.7	-42.5	19.4	0.00e+00	0	44	0	0	52	4564
2026-01-20 10:47:15.08	212.60	31.71	-40.7	-42.5	19.4	0.00e+00	0	43	0	0	52	4554
2026-01-20 10:47:16.07	212.84	31.86	-40.8	-42.6	19.4	0.00e+00	0	44	0	0	52	4605
2026-01-20 10:47:17.07	213.09	32.01	-40.9	-42.6	19.3	0.00e+00	0	44	0	0	52	4631
2026-01-20 10:47:18.06	213.33	32.16	-41.1	-42.9	19.0	0.00e+00	0	44	0	0	52	4772
2026-01-20 10:47:19.06	213.59	32.31	-41.2	-43.0	18.9	0.00e+00	0	44	0	0	53	4564
2026-01-20 10:47:20.05	213.84	32.46	-41.3	-43.1	18.7	0.00e+00	0	44	0	0	53	4624
2026-01-20 10:47:21.05	214.09	32.62	-41.4	-43.2	18.6	0.00e+00	0	44	0	0	53	4675
2026-01-20 10:47:22.04	214.35	32.77	-41.4	-43.2	18.6	0.00e+00	0	43	0	0	53	4697
2026-01-20 10:47:23.04	214.61	32.92	-41.4	-43.3	18.6	0.00e+00	0	44	0	0	53	4728
2026-01-20 10:47:24.03	214.87	33.07	-41.6	-43.4	18.5	0.00e+00	0	44	0	0	53	4808
2026-01-20 10:47:25.03	215.14	33.22	-41.5	-43.4	18.5	0.00e+00	0	44	0	0	53	4792
2026-01-20 10:47:26.02	215.40	33.37	-41.5	-43.4	18.6	0.00e+00	0	44	0	0	53	4774
2026-01-20 10:47:27.02	215.67	33.52	-41.6	-43.5	18.6	0.00e+00	0	44	0	0	53	4815
2026-01-20 10:47:28.01	215.94	33.67	-41.5	-43.4	18.6	0.00e+00	0	44	0	0	53	4793
2026-01-20 10:47:29.01	216.22	33.83	-41.6	-43.4	18.6	0.00e+00	0	44	0	0	53	4791
2026-01-20 10:47:30.00	216.49	33.98	-41.7	-43.6	18.5	0.00e+00	0	44	0	0	54	4611
2026-01-20 10:47:31.00	216.77	34.13	-41.7	-43.6	18.5	0.00e+00	0	43	0	0	54	4619
2026-01-20 10:47:31.99	217.05	34.28	-41.8	-43.7	18.3	0.00e+00	0	44	0	0	54	4688
2026-01-20 10:47:32.99	217.34	34.43	-41.7	-43.5	18.4	0.00e+00	0	44	0	0	54	4573
2026-01-20 10:47:33.98	217.63	34.58	-41.5	-43.3	18.6	0.00e+00	0	44	0	0	54	4457
2026-01-20 10:47:34.98	217.92	34.74	-41.4	-43.3	18.6	0.00e+00	0	44	0	0	54	4442
2026-01-20 10:47:35.97	218.21	34.89	-41.5	-43.3	18.6	0.00e+00	0	44	0	0	54	4484
2026-01-20 10:47:36.97	218.50	35.04	-41.6	-43.4	18.6	0.00e+00	0	44	0	0	54	4514
2026-01-20 10:47:37.96	218.80	35.19	-41.8	-43.6	18.4	0.00e+00	0	44	0	0	54	4650
2026-01-20 10:47:38.96	219.10	35.34	-41.9	-43.8	18.3	0.00e+00	0	44	0	0	54	4742
2026-01-20 10:47:39.95	219.40	35.49	-42.0	-43.9	18.2	0.00e+00	0	44	0	0	54	4805
2026-01-20 10:47:40.95	219.71	35.64	-42.2	-44.1	18.1	0.00e+00	0	44	0	0	55	4617
2026-01-20 10:47:41.94	220.02	35.79	-42.1	-44.0	18.1	0.00e+00	0	44	0	0	55	4586
2026-01-20 10:47:42.94	220.33	35.94	-42.2	-44.1	18.0	0.00e+00	0	44	0	0	55	4629
2026-01-20 10:47:43.93	220.64	36.09	-42.3	-44.3	17.9	0.00e+00	0	44	0	0	55	4713
2026-01-20 10:47:44.93	220.96	36.24	-42.5	-44.5	17.6	0.00e+00	0	44	0	0	55	4842
2026-01-20 10:47:45.93	221.28	36.39	-42.6	-44.6	17.4	0.00e+00	0	44	0	0	55	4916
2026-01-20 10:47:46.92	221.61	36.54	-42.8	-44.8	17.5	0.00e+00	0	44	0	0	56	4719
2026-01-20 10:47:47.92	221.93	36.69	-42.9	-44.9	17.4	0.00e+00	0	44	0	0	56	4796
2026-01-20 10:47:48.91	222.26	36.84	-42.8	-44.9	17.4	0.00e+00	0	44	0	0	56	4770
2026-01-20 10:47:49.91	222.59	36.99	-43.0	-45.0	17.3	0.00e+00	0	44	0	0	56	4870
2026-01-20 10:47:50.90	222.93	37.14	-43.0	-45.0	17.3	0.00e+00	0	44	0	0	56	4847
2026-01-20 10:47:51.90	223.27	37.28	-43.0	-45.0	17.3	0.00e+00	0	44	0	0	56	4863
2026-01-20 10:47:52.89	223.61	37.43	-43.1	-45.2	17.1	0.00e+00	0	44	0	0	56	4946
2026-01-20 10:47:53.89	223.95	37.58	-43.1	-45.2	17.1	0.00e+00	0	44	0	0	57	4656
2026-01-20 10:47:54.88	224.30	37.72	-43.2	-45.3	17.1	0.00e+00	0	44	0	0	57	4729
2026-01-20 10:47:55.88	224.65	37.87	-43.0	-45.1	17.2	0.00e+00	0	44	0	0	57	4630
2026-01-20 10:47:56.87	225.00	38.01	-43.0	-45.1	17.3	0.00e+00	0	44	0	0	57	4609
2026-01-20 10:47:57.86	225.35	38.16	-42.6	-44.6	17.7	0.00e+00	0	44	0	0	57	4352
2026-01-20 10:47:58.86	225.71	38.30	-42.4	-44.3	18.0	0.00e+00	0	44	0	0	56	4445
2026-01-20 10:47:59.86	226.08	38.45	-42.4	-44.3	18.0	0.00e+00	0	44	0	0	56	4457
2026-01-20 10:48:00.83	226.43	38.58	-42.2	-44.1	18.2	0.00e+00	0	44	0	0	56	4362
2026-01-20 10:48:01.83	226.80	38.73	-42.2	-44.0	18.2	0.00e+00	0	44	0	0	56	4339
2026-01-20 10:48:02.82	227.17	38.87	-42.3	-44.2	18.0	0.00e+00	0	44	0	0	56	4410
2026-01-20 10:48:03.82	227.55	39.01	-42.3	-44.2	18.0	0.00e+00	0	44	0	0	56	4432
2026-01-20 10:48:04.81	227.93	39.15	-42.2	-44.1	18.1	0.00e+00	0	44	0	0	56	4365
2026-01-20 10:48:05.81	228.31	39.29	-42.3	-44.2	18.0	0.00e+00	0	44	0	0	56	4401
2026-01-20 10:48:06.80	228.69	39.42	-42.3	-44.2	18.1	0.00e+00	0	44	0	0	56	4398
2026-01-20 10:48:07.80	229.08	39.56	-42.3	-44.2	18.1	0.00e+00	0	44	0	0	56	4427
2026-01-20 10:48:08.79	229.47	39.70	-42.5	-44.4	17.9	0.00e+00	0	44	0	0	56	4518
2026-01-20 10:48:09.79	229.87	39.83	-42.6	-44.6	17.7	0.00e+00	0	44	0	0	56	4639
2026-01-20 10:48:10.78	230.26	39.96	-42.6	-44.6	17.8	0.00e+00	0	44	0	0	56	4611
2026-01-20 10:48:11.78	230.67	40.10	-42.7	-44.6	17.6	0.00e+00	0	44	0	0	56	4644
2026-01-20 10:48:12.77	231.07	40.23	-42.8	-44.8	17.4	0.00e+00	0	43	0	0	56	4750
2026-01-20 10:48:13.77	231.48	40.36	-42.8	-44.8	17.5	0.00e+00	0	44	0	0	56	4742
2026-01-20 10:48:14.76	231.88	40.49	-42.6	-44.6	17.8	0.00e+00	0	44	0	0	56	4614
2026-01-20 10:48:15.76	232.30	40.62	-42.7	-44.7	17.6	0.00e+00	0	44	0	0	56	4674
2026-01-20 10:48:16.75	232.71	40.75	-42.9	-44.9	17.4	0.00e+00	0	44	0	0	56	4799
2026-01-20 10:48:17.75	233.14	40.87	-43.1	-45.2	17.2	0.00e+00	0	44	0	0	56	4938
2026-01-20 10:48:18.75	233.56	41.00	-43.2	-45.3	17.1	0.00e+00	0	44	0	0	57	4742
2026-01-20 10:48:19.74	233.99	41.12	-43.2	-45.3	17.0	0.00e+00	0	44	0	0	57	4729
2026-01-20 10:48:20.74	234.42	41.24	-43.1	-45.1	17.2	0.00e+00	0	44	0	0	57	4629
2026-01-20 10:48:21.73	234.85	41.36	-42.8	-44.8	17.5	0.00e+00	0	44	0	0	57	4472
2026-01-20 10:48:22.73	235.29	41.48	-42.9	-44.9	17.4	0.00e+00	0	44	0	0	57	4513
2026-01-20 10:48:23.72	235.72	41.60	-43.0	-45.0	17.4	0.00e+00	0	44	0	0	57	4586
2026-01-20 10:48:24.72	236.17	41.72	-43.2	-45.2	17.2	0.00e+00	0	44	0	0	57	4685
2026-01-20 10:48:25.71	236.61	41.83	-43.3	-45.3	17.0	0.00e+00	0	44	0	0	57	4756
2026-01-20 10:48:26.71	237.06	41.95	-43.4	-45.4	16.9	0.00e+00	0	43	0	0	57	4814
2026-01-20 10:48:27.70	237.51	42.06	-43.5	-45.6	16.7	0.00e+00	0	44	0	0	57	4917
2026-01-20 10:48:28.70	237.97	42.17	-43.5	-45.6	16.8	0.00e+00	0	44	0	0	57	4886
2026-01-20 10:48:29.69	238.42	42.28	-43.7	-45.8	16.6	0.00e+00	0	44	0	0	57	5025
2026-01-20 10:48:30.69	238.89	42.38	-43.8	-46.0	16.3	0.00e+00	0	44	0	0	58	4854
2026-01-20 10:48:31.69	239.35	42.49	-44.1	-46.4	16.0	0.00e+00	0	44	0	0	58	5099
2026-01-20 10:48:32.68	239.82	42.59	-44.0	-46.3	16.1	0.00e+00	0	44	0	0	59	4728
2026-01-20 10:48:33.68	240.29	42.69	-43.7	-46.0	16.4	0.00e+00	0	44	0	0	59	4547
2026-01-20 10:48:34.67	240.76	42.79	-43.6	-45.7	16.6	0.00e+00	0	44	0	0	59	4441
2026-01-20 10:48:35.67	241.24	42.89	-43.3	-45.4	16.9	0.00e+00	0	44	0	0	58	4520
2026-01-20 10:48:36.67	241.72	42.99	-43.2	-45.3	16.8	0.00e+00	0	44	0	0	58	4470
2026-01-20 10:48:37.66	242.20	43.08	-43.3	-45.5	16.7	0.00e+00	0	44	0	0	58	4547
2026-01-20 10:48:38.66	242.68	43.17	-43.5	-45.7	16.6	0.00e+00	0	44	0	0	58	4667
2026-01-20 10:48:39.65	243.17	43.26	-43.2	-45.3	17.0	0.00e+00	0	44	0	0	58	4459
2026-01-20 10:48:40.65	243.66	43.35	-42.9	-44.9	17.5	0.00e+00	0	44	0	0	57	4528
2026-01-20 10:48:41.65	244.15	43.43	-42.8	-44.8	17.5	0.00e+00	0	44	0	0	57	4454
2026-01-20 10:48:42.65	244.65	43.52	-43.1	-45.2	17.0	0.00e+00	0	44	0	0	57	4673
2026-01-20 10:48:43.64	245.14	43.60	-43.5	-45.7	16.5	0.00e+00	0	44	0	0	57	4963
2026-01-20 10:48:44.63	245.64	43.68	-43.7	-46.0	16.3	0.00e+00	0	44	0	0	58	4827
2026-01-20 10:48:45.63	246.15	43.75	-43.6	-45.7	16.6	0.00e+00	0	44	0	0	58	4703
2026-01-20 10:48:46.62	246.65	43.83	-43.2	-45.3	17.0	0.00e+00	0	44	0	0	58	4475
2026-01-20 10:48:47.62	247.16	43.90	-43.4	-45.6	16.7	0.00e+00	0	44	0	0	58	4606
2026-01-20 10:48:48.62	247.67	43.97	-43.8	-46.0	16.3	0.00e+00	0	44	0	0	58	4845
2026-01-20 10:48:49.61	248.18	44.04	-44.1	-46.4	15.8	0.00e+00	0	44	0	0	58	5092
2026-01-20 10:48:50.61	248.69	44.10	-44.4	-46.9	15.5	0.00e+00	0	44	0	0	59	5042
2026-01-20 10:48:51.60	249.20	44.17	-44.3	-46.7	15.7	0.00e+00	0	44	0	0	59	4946
2026-01-20 10:48:52.60	249.72	44.23	-43.9	-46.1	16.3	0.00e+00	0	44	0	0	59	4620
2026-01-20 10:48:53.60	250.24	44.29	-43.8	-45.9	16.4	0.00e+00	0	44	0	0	59	4531
2026-01-20 10:48:54.59	250.76	44.34	-43.8	-46.0	16.4	0.00e+00	0	44	0	0	59	4556
2026-01-20 10:48:55.59	251.29	44.39	-43.8	-46.0	16.5	0.00e+00	0	44	0	0	59	4557
2026-01-20 10:48:56.58	251.81	44.44	-43.9	-46.1	16.3	0.00e+00	0	44	0	0	59	4624
2026-01-20 10:48:57.58	252.34	44.49	-43.7	-45.8	16.6	0.00e+00	0	44	0	0	59	4477
2026-01-20 10:48:58.58	252.87	44.54	-43.5	-45.5	16.9	0.00e+00	0	44	0	0	58	4594
2026-01-20 10:48:59.57	253.39	44.58	-43.3	-45.4	17.0	0.00e+00	0	44	0	0	58	4509
2026-01-20 10:49:00.57	253.92	44.62	-43.0	-45.1	17.3	0.00e+00	0	44	0	0	58	4349
2026-01-20 10:49:01.57	254.46	44.66	-43.1	-45.2	17.2	0.00e+00	0	44	0	0	58	4401
2026-01-20 10:49:02.56	254.99	44.69	-43.0	-45.0	17.3	0.00e+00	0	44	0	0	57	4596
2026-01-20 10:49:03.56	255.52	44.72	-43.2	-45.2	17.1	0.00e+00	0	44	0	0	57	4705
2026-01-20 10:49:04.55	256.06	44.75	-43.5	-45.6	16.8	0.00e+00	0	44	0	0	57	4898
2026-01-20 10:49:05.55	256.59	44.78	-43.5	-45.6	16.8	0.00e+00	0	44	0	0	57	4910
2026-01-20 10:49:06.54	257.13	44.80	-43.4	-45.6	16.9	0.00e+00	0	44	0	0	57	4893
2026-01-20 10:49:07.54	257.67	44.83	-43.3	-45.4	17.0	0.00e+00	0	44	0	0	57	4778
2026-01-20 10:49:08.53	258.20	44.84	-43.4	-45.5	16.7	0.00e+00	0	44	0	0	57	4856
2026-01-20 10:49:09.53	258.74	44.86	-43.7	-45.9	16.4	0.00e+00	0	44	0	0	58	4763
2026-01-20 10:49:10.52	259.28	44.87	-43.7	-45.9	16.4	0.00e+00	0	44	0	0	58	4805
2026-01-20 10:49:11.51	259.81	44.88	-43.4	-45.5	16.9	0.00e+00	0	44	0	0	58	4586
2026-01-20 10:49:12.51	260.36	44.89	-43.2	-45.3	17.1	0.00e+00	0	44	0	0	58	4480
2026-01-20 10:49:13.50	260.89	44.90	-43.3	-45.5	17.0	0.00e+00	0	44	0	0	58	4551
2026-01-20 10:49:14.50	261.43	44.90	-43.4	-45.5	16.9	0.00e+00	0	44	0	0	58	4568
2026-01-20 10:49:15.50	261.98	44.90	-43.2	-45.4	17.0	0.00e+00	0	44	0	0	58	4495
2026-01-20 10:49:16.49	262.51	44.89	-43.0	-45.1	17.2	0.00e+00	0	44	0	0	58	4365
2026-01-20 10:49:17.49	263.06	44.89	-43.0	-45.1	17.3	0.00e+00	0	44	0	0	58	4359
2026-01-20 10:49:18.48	263.59	44.88	-42.9	-45.0	17.3	0.00e+00	0	44	0	0	57	4570
2026-01-20 10:49:19.48	264.13	44.87	-42.9	-44.9	17.4	0.00e+00	0	44	0	0	57	4528
2026-01-20 10:49:20.47	264.67	44.85	-43.1	-45.1	17.2	0.00e+00	0	44	0	0	57	4638
2026-01-20 10:49:21.47	265.21	44.84	-43.4	-45.5	16.9	0.00e+00	0	44	0	0	57	4846
2026-01-20 10:49:22.46	265.74	44.82	-43.4	-45.6	16.8	0.00e+00	0	44	0	0	57	4872
2026-01-20 10:49:23.46	266.28	44.79	-43.6	-45.7	16.5	0.00e+00	0	44	0	0	57	4982
2026-01-20 10:49:24.45	266.81	44.77	-43.3	-45.5	16.8	0.00e+00	0	44	0	0	57	4816
2026-01-20 10:49:25.45	267.35	44.74	-43.1	-45.2	17.0	0.00e+00	0	44	0	0	57	4680
2026-01-20 10:49:26.45	267.89	44.71	-42.9	-45.0	17.2	0.00e+00	0	44	0	0	57	4547
2026-01-20 10:49:27.45	268.42	44.68	-42.8	-44.8	17.4	0.00e+00	0	44	0	0	57	4482
2026-01-20 10:49:28.44	268.95	44.64	-42.7	-44.7	17.5	0.00e+00	0	44	0	0	57	4424
2026-01-20 10:49:29.43	269.48	44.60	-42.7	-44.7	17.6	0.00e+00	0	44	0	0	57	4423
2026-01-20 10:49:30.43	270.01	44.56	-42.5	-44.5	17.8	0.00e+00	0	44	0	0	57	4292
2026-01-20 10:49:31.42	270.54	44.52	-42.8	-44.7	17.6	0.00e+00	0	44	0	0	57	4439
2026-01-20 10:49:32.42	271.06	44.47	-43.1	-45.2	17.1	0.00e+00	0	44	0	0	57	4653
2026-01-20 10:49:33.41	271.59	44.42	-43.0	-45.0	17.2	0.00e+00	0	44	0	0	57	4566
2026-01-20 10:49:34.41	272.11	44.37	-42.7	-44.6	17.5	0.00e+00	0	44	0	0	57	4384
2026-01-20 10:49:35.40	272.63	44.32	-42.8	-44.8	17.4	0.00e+00	0	44	0	0	57	4468
2026-01-20 10:49:36.40	273.15	44.26	-43.3	-45.4	16.9	0.00e+00	0	44	0	0	57	4770
2026-01-20 10:49:37.39	273.67	44.20	-43.7	-46.0	16.6	0.00e+00	0	44	0	0	58	4819
2026-01-20 10:49:38.39	274.18	44.14	-43.7	-45.9	16.5	0.00e+00	0	44	0	0	58	4784
2026-01-20 10:49:39.39	274.70	44.08	-43.6	-45.8	16.6	0.00e+00	0	44	0	0	58	4729
2026-01-20 10:49:40.38	275.21	44.01	-43.4	-45.5	16.7	0.00e+00	0	44	0	0	58	4588
2026-01-20 10:49:41.38	275.72	43.94	-43.1	-45.2	17.0	0.00e+00	0	44	0	0	58	4431
2026-01-20 10:49:42.37	276.22	43.87	-43.1	-45.2	17.1	0.00e+00	0	44	0	0	58	4406
2026-01-20 10:49:43.37	276.73	43.80	-43.2	-45.3	17.1	0.00e+00	0	44	0	0	58	4446
2026-01-20 10:49:44.36	277.23	43.72	-43.3	-45.4	17.0	0.00e+00	0	44	0	0	58	4529
2026-01-20 10:49:45.36	277.73	43.64	-43.6	-45.8	16.7	0.00e+00	0	44	0	0	58	4726
2026-01-20 10:49:46.35	278.23	43.56	-43.8	-46.1	16.4	0.00e+00	0	44	0	0	58	4889
2026-01-20 10:49:47.35	278.72	43.48	-43.6	-45.8	16.6	0.00e+00	0	44	0	0	58	4730
2026-01-20 10:49:48.35	279.22	43.40	-43.6	-45.7	16.7	0.00e+00	0	44	0	0	58	4702
2026-01-20 10:49:49.34	279.71	43.31	-43.2	-45.3	17.0	0.00e+00	0	44	0	0	58	4487
2026-01-20 10:49:50.34	280.20	43.22	-42.9	-44.9	17.4	0.00e+00	0	44	0	0	57	4518
2026-01-20 10:49:51.33	280.68	43.13	-42.8	-44.8	17.5	0.00e+00	0	44	0	0	57	4452
2026-01-20 10:49:52.33	281.16	43.04	-42.8	-44.8	17.6	0.00e+00	0	44	0	0	57	4454
2026-01-20 10:49:53.32	281.64	42.95	-43.2	-45.3	17.1	0.00e+00	0	44	0	0	57	4753
2026-01-20 10:49:54.31	282.11	42.85	-43.9	-46.1	16.4	0.00e+00	0	44	0	0	58	4893
2026-01-20 10:49:55.31	282.59	42.75	-44.2	-46.6	16.0	0.00e+00	0	44	0	0	59	4878
2026-01-20 10:49:56.30	283.06	42.65	-43.9	-46.2	16.3	0.00e+00	0	44	0	0	59	4676
2026-01-20 10:49:57.30	283.52	42.55	-43.6	-45.8	16.6	0.00e+00	0	44	0	0	59	4445
2026-01-20 10:49:58.29	283.99	42.45	-43.4	-45.5	16.8	0.00e+00	0	44	0	0	58	4575
2026-01-20 10:49:59.29	284.45	42.34	-43.3	-45.4	16.9	0.00e+00	0	44	0	0	58	4513
2026-01-20 10:50:00.28	284.91	42.24	-43.5	-45.6	16.7	0.00e+00	0	44	0	0	58	4635
2026-01-20 10:50:01.28	285.36	42.13	-43.1	-45.1	17.3	0.00e+00	0	44	0	0	58	4369
2026-01-20 10:50:02.28	285.82	42.02	-43.3	-45.4	17.0	0.00e+00	0	44	0	0	57	4780
2026-01-20 10:50:03.27	286.27	41.90	-43.7	-45.9	16.4	0.00e+00	0	44	0	0	58	4770
2026-01-20 10:50:04.27	286.71	41.79	-44.0	-46.3	15.9	0.00e+00	0	44	0	0	58	5013
2026-01-20 10:50:05.26	287.15	41.68	-44.3	-46.6	15.6	0.00e+00	0	44	0	0	59	4915
2026-01-20 10:50:06.26	287.60	41.56	-44.0	-46.2	16.1	0.00e+00	0	44	0	0	59	4679
2026-01-20 10:50:07.26	288.04	41.44	-43.6	-45.7	16.5	0.00e+00	0	44	0	0	59	4435
2026-01-20 10:50:08.25	288.47	41.32	-43.7	-45.8	16.3	0.00e+00	0	44	0	0	58	4739
2026-01-20 10:50:09.25	288.90	41.20	-43.7	-45.9	16.3	0.00e+00	0	44	0	0	58	4790
2026-01-20 10:50:10.24	289.32	41.08	-43.7	-45.9	16.3	0.00e+00	0	44	0	0	58	4801
2026-01-20 10:50:11.24	289.75	40.95	-43.6	-45.7	16.5	0.00e+00	0	44	0	0	58	4698
2026-01-20 10:50:12.23	290.17	40.83	-43.8	-46.0	16.2	0.00e+00	0	44	0	0	58	4832
2026-01-20 10:50:13.23	290.59	40.70	-43.5	-45.7	16.5	0.00e+00	0	44	0	0	58	4662
2026-01-20 10:50:14.22	291.00	40.58	-43.1	-45.2	17.1	0.00e+00	0	44	0	0	58	4406
2026-01-20 10:50:15.22	291.41	40.45	-42.9	-44.9	17.4	0.00e+00	0	44	0	0	57	4529
2026-01-20 10:50:16.21	291.82	40.32	-42.5	-44.5	17.8	0.00e+00	0	44	0	0	57	4298
2026-01-20 10:50:17.21	292.23	40.19	-42.5	-44.4	17.8	0.00e+00	0	44	0	0	56	4541
2026-01-20 10:50:18.20	292.62	40.06	-42.5	-44.4	17.8	0.00e+00	0	44	0	0	56	4539
2026-01-20 10:50:19.20	293.03	39.92	-42.8	-44.8	17.5	0.00e+00	0	44	0	0	56	4742
2026-01-20 10:50:20.19	293.42	39.79	-42.9	-45.0	17.3	0.00e+00	0	44	0	0	56	4832
2026-01-20 10:50:21.19	293.81	39.65	-42.9	-44.9	17.4	0.00e+00	0	44	0	0	56	4797
2026-01-20 10:50:22.18	294.20	39.52	-42.7	-44.7	17.6	0.00e+00	0	44	0	0	56	4675
2026-01-20 10:50:23.18	294.59	39.38	-42.4	-44.3	18.0	0.00e+00	0	44	0	0	56	4446
2026-01-20 10:50:24.17	294.97	39.25	-42.5	-44.4	17.8	0.00e+00	0	44	0	0	56	4528
2026-01-20 10:50:25.17	295.35	39.11	-42.9	-44.9	17.4	0.00e+00	0	44	0	0	56	4808
2026-01-20 10:50:26.16	295.72	38.97	-43.1	-45.2	17.1	0.00e+00	0	44	0	0	56	4973
2026-01-20 10:50:27.16	296.09	38.83	-43.0	-45.1	17.2	0.00e+00	0	44	0	0	57	4639
2026-01-20 10:50:28.15	296.46	38.69	-42.9	-45.0	17.4	0.00e+00	0	44	0	0	57	4568
2026-01-20 10:50:29.15	296.83	38.55	-43.2	-45.3	17.1	0.00e+00	0	44	0	0	57	4739
2026-01-20 10:50:30.14	297.19	38.41	-43.4	-45.5	16.8	0.00e+00	0	44	0	0	57	4852
2026-01-20 10:50:31.14	297.55	38.26	-43.3	-45.4	17.0	0.00e+00	0	44	0	0	57	4813
2026-01-20 10:50:32.13	297.91	38.12	-43.0	-45.0	17.3	0.00e+00	0	44	0	0	57	4591
2026-01-20 10:50:33.13	298.26	37.98	-42.9	-44.9	17.4	0.00e+00	0	44	0	0	57	4526
2026-01-20 10:50:34.12	298.61	37.83	-42.7	-44.7	17.6	0.00e+00	0	44	0	0	57	4419
2026-01-20 10:50:35.12	298.96	37.69	-42.5	-44.5	17.8	0.00e+00	0	44	0	0	56	4550
2026-01-20 10:50:36.11	299.30	37.54	-42.3	-44.2	18.0	0.00e+00	0	44	0	0	56	4416
2026-01-20 10:50:37.11	299.65	37.40	-42.2	-44.1	18.1	0.00e+00	0	44	0	0	56	4391
2026-01-20 10:50:38.10	299.98	37.25	-42.2	-44.0	18.2	0.00e+00	0	44	0	0	56	4336
2026-01-20 10:50:39.10	300.32	37.10	-42.1	-44.0	18.2	0.00e+00	0	44	0	0	56	4328
2026-01-20 10:50:40.09	300.65	36.96	-42.2	-44.1	18.1	0.00e+00	0	44	0	0	56	4386
2026-01-20 10:50:41.09	300.98	36.81	-42.3	-44.2	18.0	0.00e+00	0	44	0	0	56	4437
2026-01-20 10:50:42.09	301.31	36.66	-42.4	-44.3	17.9	0.00e+00	0	44	0	0	56	4492
2026-01-20 10:50:43.08	301.63	36.51	-42.3	-44.3	17.9	0.00e+00	0	44	0	0	56	4478
2026-01-20 10:50:44.08	301.95	36.36	-42.2	-44.2	18.0	0.00e+00	0	44	0	0	56	4402
2026-01-20 10:50:45.07	302.27	36.21	-42.1	-44.0	18.1	0.00e+00	0	44	0	0	56	4333
2026-01-20 10:50:46.07	302.59	36.06	-42.1	-44.0	18.1	0.00e+00	0	44	0	0	56	4331
2026-01-20 10:50:47.06	302.90	35.92	-42.2	-44.2	18.0	0.00e+00	0	44	0	0	56	4412
2026-01-20 10:50:48.06	303.21	35.77	-42.2	-44.2	18.1	0.00e+00	0	44	0	0	56	4396
2026-01-20 10:50:49.05	303.51	35.62	-42.2	-44.2	18.1	0.00e+00	0	44	0	0	56	4408
2026-01-20 10:50:50.05	303.82	35.47	-42.4	-44.3	18.0	0.00e+00	0	44	0	0	56	4492
2026-01-20 10:50:51.04	304.12	35.32	-42.3	-44.3	18.0	0.00e+00	0	44	0	0	56	4489
2026-01-20 10:50:52.04	304.42	35.17	-42.3	-44.3	17.9	0.00e+00	0	44	0	0	56	4489
2026-01-20 10:50:53.03	304.71	35.02	-42.4	-44.5	17.8	0.00e+00	0	44	0	0	56	4557
2026-01-20 10:50:54.03	305.01	34.86	-42.4	-44.4	17.8	0.00e+00	0	44	0	0	56	4495
2026-01-20 10:50:55.02	305.30	34.72	-42.2	-44.2	18.0	0.00e+00	0	44	0	0	56	4405
2026-01-20 10:50:56.02	305.59	34.56	-42.1	-44.0	18.2	0.00e+00	0	44	0	0	56	4311
2026-01-20 10:50:57.02	305.87	34.41	-42.0	-43.9	18.3	0.00e+00	0	44	0	0	56	4260
2026-01-20 10:50:58.01	306.15	34.26	-42.1	-44.1	18.2	0.00e+00	0	44	0	0	56	4349
2026-01-20 10:50:59.01	306.43	34.11	-41.8	-43.7	18.3	0.00e+00	0	44	0	0	55	4421
2026-01-20 10:51:00.00	306.71	33.96	-41.8	-43.7	18.3	0.00e+00	0	44	0	0	55	4435
2026-01-20 10:51:01.00	306.99	33.81	-41.7	-43.6	18.5	0.00e+00	0	44	0	0	55	4349
2026-01-20 10:51:02.00	307.26	33.66	-41.4	-43.3	18.7	0.00e+00	0	44	0	0	54	4465
2026-01-20 10:51:02.99	307.53	33.51	-41.4	-43.2	18.7	0.00e+00	0	44	0	0	54	4438
2026-01-20 10:51:03.99	307.80	33.36	-41.4	-43.3	18.6	0.00e+00	0	44	0	0	54	4452
2026-01-20 10:51:04.99	308.06	33.21	-41.2	-43.0	18.9	0.00e+00	0	44	0	0	54	4327
2026-01-20 10:51:05.98	308.32	33.06	-41.1	-42.9	19.0	0.00e+00	0	44	0	0	54	4274
2026-01-20 10:51:06.98	308.59	32.91	-41.2	-43.0	19.0	0.00e+00	0	44	0	0	54	4294
2026-01-20 10:51:07.97	308.84	32.76	-40.9	-42.7	19.3	0.00e+00	0	44	0	0	53	4395
2026-01-20 10:51:08.97	309.10	32.61	-40.6	-42.4	19.5	0.00e+00	0	44	0	0	53	4247
2026-01-20 10:51:09.96	309.35	32.46	-40.5	-42.2	19.7	0.00e+00	0	44	0	0	53	4176
2026-01-20 10:51:10.96	309.60	32.31	-40.5	-42.2	19.7	0.00e+00	0	44	0	0	52	4406
2026-01-20 10:51:11.96	309.85	32.16	-40.4	-42.1	19.7	0.00e+00	0	44	0	0	52	4356
2026-01-20 10:51:12.95	310.10	32.01	-40.4	-42.1	19.7	0.00e+00	0	44	0	0	52	4369
2026-01-20 10:51:13.95	310.34	31.86	-40.5	-42.2	19.6	0.00e+00	0	44	0	0	52	4421
2026-01-20 10:51:14.94	310.58	31.71	-40.4	-42.1	19.7	0.00e+00	0	44	0	0	52	4358
2026-01-20 10:51:15.93	310.82	31.56	-40.4	-42.1	19.6	0.00e+00	0	44	0	0	52	4387
2026-01-20 10:51:16.93	311.06	31.41	-40.3	-42.0	19.7	0.00e+00	0	44	0	0	52	4328
2026-01-20 10:51:17.92	311.30	31.26	-40.3	-42.0	19.8	0.00e+00	0	44	0	0	52	4317
2026-01-20 10:51:18.92	311.53	31.12	-40.2	-41.9	19.9	0.00e+00	0	44	0	0	52	4258
2026-01-20 10:51:19.91	311.76	30.97	-40.2	-41.9	19.9	0.00e+00	0	44	0	0	52	4255
2026-01-20 10:51:20.90	311.99	30.82	-40.3	-42.0	19.8	0.00e+00	0	44	0	0	52	4299
2026-01-20 10:51:21.89	312.22	30.68	-40.2	-42.0	19.7	0.00e+00	0	44	0	0	52	4297
2026-01-20 10:51:22.89	312.44	30.53	-40.3	-42.1	19.7	0.00e+00	0	44	0	0	52	4341
2026-01-20 10:51:23.88	312.66	30.38	-40.3	-42.0	19.7	0.00e+00	0	44	0	0	52	4312
2026-01-20 10:51:24.88	312.89	30.23	-40.3	-42.0	19.6	0.00e+00	0	44	0	0	52	4333
2026-01-20 10:51:25.87	313.10	30.09	-40.4	-42.1	19.6	0.00e+00	0	44	0	0	52	4358
2026-01-20 10:51:26.87	313.32	29.94	-40.5	-42.2	19.5	0.00e+00	0	44	0	0	52	4424
2026-01-20 10:51:27.86	313.54	29.80	-40.6	-42.3	19.5	0.00e+00	0	44	0	0	52	4470
2026-01-20 10:51:28.86	313.75	29.65	-40.5	-42.2	19.5	0.00e+00	0	44	0	0	52	4438
2026-01-20 10:51:29.85	313.96	29.51	-40.4	-42.2	19.5	0.00e+00	0	44	0	0	52	4397
2026-01-20 10:51:30.85	314.17	29.36	-40.6	-42.3	19.3	0.00e+00	0	44	0	0	52	4488
2026-01-20 10:51:31.84	314.38	29.22	-40.7	-42.5	19.2	0.00e+00	0	44	0	0	52	4551
2026-01-20 10:51:32.84	314.59	29.07	-40.7	-42.5	19.1	0.00e+00	0	44	0	0	52	4587
2026-01-20 10:51:33.83	314.79	28.93	-40.7	-42.5	19.2	0.00e+00	0	44	0	0	52	4577
2026-01-20 10:51:34.83	314.99	28.79	-40.6	-42.5	19.2	0.00e+00	0	44	0	0	52	4574
2026-01-20 10:51:35.83	315.20	28.64	-40.6	-42.5	19.2	0.00e+00	0	44	0	0	52	4587
2026-01-20 10:51:36.82	315.39	28.50	-40.5	-42.4	19.4	0.00e+00	0	44	0	0	52	4517
2026-01-20 10:51:37.82	315.59	28.36	-40.6	-42.5	19.4	0.00e+00	0	44	0	0	52	4563
2026-01-20 10:51:38.81	315.79	28.22	-40.7	-42.5	19.4	0.00e+00	0	44	0	0	52	4569
2026-01-20 10:51:39.81	315.98	28.08	-40.8	-42.6	19.3	0.00e+00	0	44	0	0	52	4637
2026-01-20 10:51:40.80	316.17	27.94	-40.8	-42.6	19.3	0.00e+00	0	44	0	0	52	4637
2026-01-20 10:51:41.80	316.37	27.80	-40.8	-42.6	19.4	0.00e+00	0	44	0	0	52	4601
2026-01-20 10:51:42.79	316.55	27.66	-40.8	-42.6	19.3	0.00e+00	0	44	0	0	52	4642
2026-01-20 10:51:43.79	316.74	27.52	-40.8	-42.5	19.4	0.00e+00	0	44	0	0	52	4587
2026-01-20 10:51:44.78	316.93	27.38	-40.8	-42.6	19.3	0.00e+00	0	44	0	0	52	4621
2026-01-20 10:51:45.78	317.11	27.24	-40.8	-42.6	19.3	0.00e+00	0	44	0	0	52	4605
2026-01-20 10:51:46.78	317.30	27.10	-40.7	-42.4	19.5	0.00e+00	0	44	0	0	52	4532
2026-01-20 10:51:47.77	317.48	26.96	-40.5	-42.3	19.6	0.00e+00	0	44	0	0	52	4450
2026-01-20 10:51:48.77	317.66	26.82	-40.5	-42.2	19.7	0.00e+00	0	44	0	0	52	4423
2026-01-20 10:51:49.76	317.83	26.69	-40.5	-42.2	19.7	0.00e+00	0	44	0	0	52	4425
2026-01-20 10:51:50.76	318.01	26.55	-40.5	-42.3	19.6	0.00e+00	0	44	0	0	52	4450
2026-01-20 10:51:51.75	318.19	26.41	-40.2	-42.0	19.8	0.00e+00	0	44	0	0	52	4316
2026-01-20 10:51:52.75	318.36	26.28	-40.1	-41.8	19.9	0.00e+00	0	44	0	0	52	4239
2026-01-20 10:51:53.75	318.53	26.14	-40.1	-41.9	19.9	0.00e+00	0	44	0	0	52	4244
2026-01-20 10:51:54.74	318.70	26.01	-40.0	-41.8	20.0	0.00e+00	0	44	0	0	52	4203
2026-01-20 10:51:55.74	318.87	25.87	-40.0	-41.7	20.1	0.00e+00	0	44	0	0	51	4420
2026-01-20 10:51:56.73	319.04	25.74	-39.9	-41.7	20.1	0.00e+00	0	44	0	0	51	4397
2026-01-20 10:51:57.73	319.21	25.60	-40.1	-41.8	20.0	0.00e+00	0	44	0	0	51	4484
2026-01-20 10:51:58.72	319.37	25.47	-40.1	-41.8	19.9	0.00e+00	0	44	0	0	51	4468
2026-01-20 10:51:59.72	319.54	25.34	-40.2	-42.0	19.8	0.00e+00	0	44	0	0	51	4558
2026-01-20 10:52:00.71	319.70	25.20	-40.3	-42.0	19.7	0.00e+00	0	44	0	0	51	4594
2026-01-20 10:52:01.70	319.86	25.07	-40.4	-42.1	19.7	0.00e+00	0	44	0	0	51	4645
2026-01-20 10:52:02.70	320.02	24.94	-40.4	-42.1	19.6	0.00e+00	0	44	0	0	51	4645
2026-01-20 10:52:03.69	320.18	24.81	-40.5	-42.3	19.5	0.00e+00	0	44	0	0	51	4726
2026-01-20 10:52:04.69	320.34	24.68	-40.4	-42.2	19.6	0.00e+00	0	44	0	0	51	4656
2026-01-20 10:52:05.68	320.49	24.55	-40.3	-42.2	19.7	0.00e+00	0	44	0	0	51	4652
2026-01-20 10:52:06.68	320.65	24.42	-40.3	-42.1	19.7	0.00e+00	0	44	0	0	51	4633
2026-01-20 10:52:07.67	320.80	24.29	-40.2	-42.0	19.8	0.00e+00	0	44	0	0	51	4572
2026-01-20 10:52:08.67	320.95	24.16	-40.2	-42.0	19.8	0.00e+00	0	44	0	0	51	4569
2026-01-20 10:52:09.66	321.10	24.03	-40.1	-41.9	19.8	0.00e+00	0	44	0	0	51	4539
2026-01-20 10:52:10.66	321.25	23.90	-40.1	-41.9	19.8	0.00e+00	0	44	0	0	51	4533
2026-01-20 10:52:11.65	321.40	23.77	-40.2	-42.0	19.7	0.00e+00	0	44	0	0	51	4587
2026-01-20 10:52:12.65	321.55	23.65	-40.3	-42.1	19.6	0.00e+00	0	44	0	0	51	4626
2026-01-20 10:52:13.64	321.70	23.52	-40.4	-42.2	19.5	0.00e+00	0	44	0	0	51	4694
2026-01-20 10:52:14.64	321.84	23.39	-40.4	-42.2	19.6	0.00e+00	0	44	0	0	51	4693
2026-01-20 10:52:15.63	321.99	23.27	-40.4	-42.1	19.7	0.00e+00	0	44	0	0	51	4639
2026-01-20 10:52:16.63	322.13	23.14	-40.5	-42.2	19.6	0.00e+00	0	44	0	0	51	4698
2026-01-20 10:52:17.62	322.27	23.02	-40.5	-42.3	19.6	0.00e+00	0	44	0	0	51	4706
2026-01-20 10:52:18.62	322.41	22.89	-40.4	-42.2	19.7	0.00e+00	0	44	0	0	51	4659
2026-01-20 10:52:19.61	322.55	22.77	-40.5	-42.3	19.6	0.00e+00	0	44	0	0	51	4715
2026-01-20 10:52:20.61	322.69	22.64	-40.5	-42.3	19.6	0.00e+00	0	44	0	0	51	4745
2026-01-20 10:52:21.60	322.83	22.52	-40.5	-42.3	19.6	0.00e+00	0	44	0	0	51	4709
2026-01-20 10:52:22.60	322.97	22.40	-40.6	-42.4	19.4	0.00e+00	0	44	0	0	51	4784
2026-01-20 10:52:23.59	323.10	22.27	-40.6	-42.4	19.4	0.00e+00	0	44	0	0	51	4809
2026-01-20 10:52:24.59	323.24	22.15	-40.6	-42.4	19.4	0.00e+00	0	44	0	0	52	4509
2026-01-20 10:52:25.58	323.37	22.03	-40.6	-42.4	19.3	0.00e+00	0	44	0	0	52	4501
2026-01-20 10:52:26.58	323.50	21.91	-40.5	-42.3	19.4	0.00e+00	0	44	0	0	52	4471
2026-01-20 10:52:27.57	323.63	21.79	-40.6	-42.4	19.3	0.00e+00	0	44	0	0	52	4544
2026-01-20 10:52:28.56	323.76	21.67	-40.6	-42.4	19.3	0.00e+00	0	44	0	0	52	4536
2026-01-20 10:52:29.56	323.89	21.55	-40.6	-42.4	19.3	0.00e+00	0	44	0	0	52	4545
2026-01-20 10:52:30.55	324.02	21.43	-40.5	-42.3	19.5	0.00e+00	0	44	0	0	52	4457
2026-01-20 10:52:31.55	324.15	21.31	-40.4	-42.2	19.5	0.00e+00	0	44	0	0	52	4414
2026-01-20 10:52:32.54	324.27	21.19	-40.4	-42.3	19.5	0.00e+00	0	44	0	0	52	4446
2026-01-20 10:52:33.54	324.40	21.07	-40.4	-42.2	19.5	0.00e+00	0	44	0	0	52	4430
2026-01-20 10:52:34.53	324.53	20.96	-40.3	-42.1	19.6	0.00e+00	0	44	0	0	52	4363
2026-01-20 10:52:35.53	324.65	20.84	-40.2	-42.0	19.7	0.00e+00	0	44	0	0	52	4327
2026-01-20 10:52:36.52	324.77	20.72	-40.3	-42.1	19.6	0.00e+00	0	44	0	0	52	4373
2026-01-20 10:52:37.52	324.90	20.60	-40.3	-42.1	19.7	0.00e+00	0	44	0	0	52	4355
2026-01-20 10:52:38.51	325.02	20.49	-40.3	-42.1	19.6	0.00e+00	0	44	0	0	52	4383
2026-01-20 10:52:39.51	325.14	20.37	-40.3	-42.1	19.6	0.00e+00	0	44	0	0	52	4374
2026-01-20 10:52:40.50	325.26	20.26	-40.3	-42.1	19.6	0.00e+00	0	44	0	0	52	4363
2026-01-20 10:52:41.50	325.37	20.14	-40.4	-42.2	19.6	0.00e+00	0	44	0	0	52	4400
2026-01-20 10:52:42.49	325.49	20.03	-40.5	-42.3	19.5	0.00e+00	0	44	0	0	52	4451
2026-01-20 10:52:43.49	325.61	19.91	-40.3	-42.1	19.7	0.00e+00	0	44	0	0	52	4367
2026-01-20 10:52:44.49	325.73	19.80	-40.4	-42.1	19.6	0.00e+00	0	44	0	0	52	4373
2026-01-20 10:52:45.48	325.84	19.69	-40.3	-42.0	19.7	0.00e+00	0	44	0	0	52	4329
2026-01-20 10:52:46.47	325.95	19.57	-40.2	-42.0	19.7	0.00e+00	0	44	0	0	52	4295
2026-01-20 10:52:47.47	326.07	19.46	-40.2	-41.9	19.8	0.00e+00	0	44	0	0	52	4256
2026-01-20 10:52:48.47	326.18	19.35	-40.1	-41.8	19.8	0.00e+00	0	44	0	0	52	4237
2026-01-20 10:52:49.46	326.29	19.24	-40.2	-42.0	19.7	0.00e+00	0	44	0	0	52	4298
2026-01-20 10:52:50.46	326.41	19.13	-40.1	-41.9	19.7	0.00e+00	0	44	0	0	52	4247
2026-01-20 10:52:51.45	326.52	19.01	-40.2	-42.0	19.6	0.00e+00	0	44	0	0	52	4314
2026-01-20 10:52:52.45	326.63	18.90	-40.2	-42.0	19.5	0.00e+00	0	44	0	0	52	4323
2026-01-20 10:52:53.44	326.73	18.79	-40.1	-41.9	19.7	0.00e+00	0	44	0	0	52	4248
2026-01-20 10:52:54.43	326.84	18.69	-40.2	-42.0	19.6	0.00e+00	0	44	0	0	52	4296
2026-01-20 10:52:55.43	326.95	18.58	-40.2	-42.0	19.6	0.00e+00	0	44	0	0	52	4318
2026-01-20 10:52:56.42	327.06	18.47	-40.2	-42.0	19.5	0.00e+00	0	44	0	0	52	4332
2026-01-20 10:52:57.42	327.16	18.36	-40.4	-42.2	19.4	0.00e+00	0	44	0	0	52	4422
2026-01-20 10:52:58.41	327.27	18.25	-40.4	-42.2	19.4	0.00e+00	0	44	0	0	52	4432
2026-01-20 10:52:59.41	327.37	18.14	-40.4	-42.3	19.3	0.00e+00	0	44	0	0	52	4454
2026-01-20 10:53:00.40	327.48	18.04	-40.4	-42.2	19.4	0.00e+00	0	44	0	0	52	4429
2026-01-20 10:53:01.40	327.58	17.93	-40.5	-42.4	19.3	0.00e+00	0	44	0	0	52	4505
2026-01-20 10:53:02.40	327.68	17.82	-40.6	-42.5	19.2	0.00e+00	0	44	0	0	52	4554
2026-01-20 10:53:03.39	327.78	17.72	-40.6	-42.5	19.1	0.00e+00	0	44	0	0	52	4596
2026-01-20 10:53:04.38	327.88	17.61	-40.8	-42.7	19.0	0.00e+00	0	44	0	0	52	4697
2026-01-20 10:53:05.38	327.99	17.50	-40.8	-42.7	19.1	0.00e+00	0	44	0	0	52	4679
2026-01-20 10:53:06.37	328.08	17.40	-40.8	-42.8	19.0	0.00e+00	0	44	0	0	52	4712
2026-01-20 10:53:07.36	328.18	17.30	-40.9	-42.9	18.9	0.00e+00	0	44	0	0	52	4764
2026-01-20 10:53:08.36	328.28	17.19	-40.8	-42.8	19.0	0.00e+00	0	44	0	0	52	4745
2026-01-20 10:53:09.36	328.38	17.09	-40.8	-42.8	19.0	0.00e+00	0	44	0	0	52	4725
2026-01-20 10:53:10.35	328.48	16.98	-40.9	-42.9	18.9	0.00e+00	0	44	0	0	52	4770
2026-01-20 10:53:11.35	328.57	16.88	-41.1	-43.0	18.8	0.00e+00	0	44	0	0	52	4846
2026-01-20 10:53:12.34	328.67	16.78	-41.1	-43.0	18.7	0.00e+00	0	44	0	0	53	4590
2026-01-20 10:53:13.34	328.77	16.67	-41.3	-43.2	18.6	0.00e+00	0	44	0	0	53	4666
2026-01-20 10:53:14.34	328.86	16.57	-41.2	-43.1	18.6	0.00e+00	0	44	0	0	53	4621
2026-01-20 10:53:15.33	328.95	16.47	-41.3	-43.2	18.6	0.00e+00	0	44	0	0	53	4654
2026-01-20 10:53:16.32	329.05	16.37	-41.3	-43.2	18.6	0.00e+00	0	44	0	0	53	4663
2026-01-20 10:53:17.32	329.14	16.27	-41.3	-43.2	18.5	0.00e+00	0	44	0	0	53	4679
2026-01-20 10:53:18.31	329.23	16.17	-41.4	-43.3	18.5	0.00e+00	0	44	0	0	53	4712
2026-01-20 10:53:19.31	329.32	16.07	-41.3	-43.2	18.5	0.00e+00	0	44	0	0	53	4656
2026-01-20 10:53:20.30	329.41	15.97	-41.3	-43.1	18.6	0.00e+00	0	44	0	0	53	4630
2026-01-20 10:53:21.30	329.51	15.87	-41.2	-43.1	18.6	0.00e+00	0	44	0	0	53	4606
2026-01-20 10:53:22.29	329.60	15.77	-41.2	-43.0	18.6	0.00e+00	0	44	0	0	53	4594
2026-01-20 10:53:23.29	329.69	15.67	-41.2	-43.0	18.6	0.00e+00	0	44	0	0	53	4590
2026-01-20 10:53:24.28	329.77	15.57	-41.1	-42.9	18.7	0.00e+00	0	44	0	0	53	4544
2026-01-20 10:53:25.28	329.86	15.47	-41.1	-43.0	18.6	0.00e+00	0	44	0	0	53	4556
2026-01-20 10:53:26.27	329.95	15.37	-41.2	-43.0	18.5	0.00e+00	0	44	0	0	53	4582
2026-01-20 10:53:27.27	330.04	15.28	-41.1	-42.9	18.6	0.00e+00	0	44	0	0	53	4545
2026-01-20 10:53:28.26	330.12	15.18	-41.2	-43.0	18.5	0.00e+00	0	44	0	0	53	4583
2026-01-20 10:53:29.26	330.21	15.08	-41.1	-43.0	18.6	0.00e+00	0	44	0	0	53	4553
2026-01-20 10:53:30.25	330.29	14.99	-41.2	-43.1	18.4	0.00e+00	0	44	0	0	53	4621
2026-01-20 10:53:31.25	330.38	14.89	-41.2	-43.2	18.5	0.00e+00	0	44	0	0	53	4656
2026-01-20 10:53:32.24	330.46	14.79	-41.3	-43.2	18.5	0.00e+00	0	44	0	0	53	4675
2026-01-20 10:53:33.24	330.55	14.70	-41.4	-43.3	18.4	0.00e+00	0	44	0	0	53	4727
2026-01-20 10:53:34.24	330.63	14.60	-41.3	-43.2	18.5	0.00e+00	0	44	0	0	53	4664
2026-01-20 10:53:35.23	330.72	14.51	-41.5	-43.4	18.3	0.00e+00	0	44	0	0	53	4791
2026-01-20 10:53:36.22	330.80	14.41	-41.3	-43.3	18.5	0.00e+00	0	44	0	0	53	4709
2026-01-20 10:53:37.22	330.88	14.32	-41.3	-43.3	18.5	0.00e+00	0	44	0	0	53	4719
2026-01-20 10:53:38.21	330.96	14.22	-41.5	-43.5	18.3	0.00e+00	0	44	0	0	53	4824
2026-01-20 10:53:39.21	331.04	14.13	-41.5	-43.4	18.4	0.00e+00	0	44	0	0	53	4797
2026-01-20 10:53:40.20	331.12	14.04	-41.6	-43.6	18.2	0.00e+00	0	44	0	0	53	4888
2026-01-20 10:53:41.20	331.20	13.94	-41.5	-43.5	18.3	0.00e+00	0	44	0	0	54	4547
2026-01-20 10:53:42.19	331.28	13.85	-41.6	-43.6	18.2	0.00e+00	0	44	0	0	54	4610
2026-01-20 10:53:43.19	331.36	13.76	-41.7	-43.7	18.1	0.00e+00	0	44	0	0	54	4699
2026-01-20 10:53:44.18	331.44	13.67	-41.7	-43.6	18.2	0.00e+00	0	44	0	0	54	4637
2026-01-20 10:53:45.18	331.52	13.57	-41.8	-43.8	18.0	0.00e+00	0	44	0	0	54	4729
2026-01-20 10:53:46.18	331.60	13.48	-41.9	-43.9	18.0	0.00e+00	0	44	0	0	54	4762
2026-01-20 10:53:47.17	331.67	13.39	-42.0	-43.9	17.9	0.00e+00	0	44	0	0	54	4805
2026-01-20 10:53:48.16	331.75	13.30	-41.9	-43.9	17.9	0.00e+00	0	44	0	0	55	4499
2026-01-20 10:53:49.16	331.83	13.21	-41.9	-43.9	17.9	0.00e+00	0	44	0	0	55	4520
2026-01-20 10:53:50.15	331.90	13.12	-41.9	-43.9	17.8	0.00e+00	0	44	0	0	55	4525
2026-01-20 10:53:51.15	331.98	13.03	-41.9	-43.9	17.8	0.00e+00	0	44	0	0	55	4533
2026-01-20 10:53:52.15	332.05	12.94	-42.0	-44.0	17.7	0.00e+00	0	44	0	0	55	4570
2026-01-20 10:53:53.14	332.13	12.85	-42.0	-44.0	17.7	0.00e+00	0	44	0	0	55	4556
2026-01-20 10:53:54.14	332.20	12.76	-42.1	-44.1	17.5	0.00e+00	0	44	0	0	55	4637
2026-01-20 10:53:55.13	332.28	12.67	-42.0	-44.0	17.7	0.00e+00	0	44	0	0	55	4571
2026-01-20 10:53:56.13	332.35	12.58	-42.0	-44.0	17.6	0.00e+00	0	44	0	0	55	4581
2026-01-20 10:53:57.12	332.42	12.49	-42.3	-44.4	17.3	0.00e+00	0	44	0	0	55	4813
2026-01-20 10:53:58.12	332.50	12.41	-42.0	-44.1	17.5	0.00e+00	0	44	0	0	55	4632
2026-01-20 10:53:59.11	332.57	12.32	-42.1	-44.2	17.4	0.00e+00	0	44	0	0	55	4688
2026-01-20 10:54:00.11	332.64	12.23	-42.1	-44.2	17.4	0.00e+00	0	44	0	0	55	4685
2026-01-20 10:54:01.10	332.71	12.14	-42.1	-44.1	17.6	0.00e+00	0	44	0	0	55	4639
2026-01-20 10:54:02.09	332.78	12.06	-42.1	-44.2	17.4	0.00e+00	0	44	0	0	55	4678
2026-01-20 10:54:03.09	332.85	11.97	-42.1	-44.2	17.5	0.00e+00	0	44	0	0	55	4654
2026-01-20 10:54:04.09	332.92	11.88	-42.1	-44.1	17.5	0.00e+00	0	44	0	0	55	4650
2026-01-20 10:54:05.08	332.99	11.80	-42.2	-44.3	17.4	0.00e+00	0	44	0	0	55	4724
2026-01-20 10:54:06.08	333.06	11.71	-42.0	-44.0	17.6	0.00e+00	0	44	0	0	55	4592
2026-01-20 10:54:07.08	333.13	11.62	-42.1	-44.2	17.5	0.00e+00	0	44	0	0	55	4653
2026-01-20 10:54:08.07	333.20	11.54	-42.2	-44.2	17.5	0.00e+00	0	44	0	0	55	4694
2026-01-20 10:54:09.06	333.27	11.45	-42.1	-44.2	17.5	0.00e+00	0	44	0	0	55	4676
2026-01-20 10:54:10.06	333.34	11.37	-42.0	-44.0	17.6	0.00e+00	0	44	0	0	55	4578
2026-01-20 10:54:11.05	333.40	11.29	-42.0	-44.1	17.6	0.00e+00	0	44	0	0	55	4602
2026-01-20 10:54:12.05	333.47	11.20	-42.1	-44.2	17.5	0.00e+00	0	44	0	0	55	4662
2026-01-20 10:54:13.04	333.54	11.12	-42.0	-44.1	17.6	0.00e+00	0	44	0	0	55	4614
2026-01-20 10:54:14.04	333.60	11.03	-42.1	-44.1	17.5	0.00e+00	0	44	0	0	55	4648
2026-01-20 10:54:15.03	333.67	10.95	-42.1	-44.2	17.5	0.00e+00	0	44	0	0	55	4678
2026-01-20 10:54:16.03	333.74	10.87	-42.1	-44.2	17.4	0.00e+00	0	44	0	0	55	4692
2026-01-20 10:54:17.02	333.80	10.78	-42.2	-44.3	17.4	0.00e+00	0	44	0	0	55	4727
2026-01-20 10:54:18.02	333.87	10.70	-42.1	-44.2	17.5	0.00e+00	0	44	0	0	55	4695
2026-01-20 10:54:19.01	333.93	10.62	-42.2	-44.3	17.4	0.00e+00	0	44	0	0	55	4733
2026-01-20 10:54:20.01	334.00	10.54	-42.2	-44.3	17.4	0.00e+00	0	44	0	0	55	4740
2026-01-20 10:54:21.00	334.06	10.45	-42.2	-44.3	17.4	0.00e+00	0	44	0	0	55	4739
2026-01-20 10:54:22.00	334.12	10.37	-42.3	-44.4	17.4	0.00e+00	0	44	0	0	55	4793
2026-01-20 10:54:22.99	334.19	10.29	-42.3	-44.4	17.4	0.00e+00	0	44	0	0	55	4790
2026-01-20 10:54:23.99	334.25	10.21	-42.1	-44.2	17.5	0.00e+00	0	44	0	0	55	4671
2026-01-20 10:54:24.99	334.31	10.13	-42.2	-44.3	17.5	0.00e+00	0	44	0	0	55	4726
2026-01-20 10:54:25.98	334.38	10.05	-42.1	-44.2	17.5	0.00e+00	0	44	0	0	55	4688
2026-01-20 10:54:26.98	334.44	9.97	-42.1	-44.3	17.5	0.00e+00	0	44	0	0	55	4708
2026-01-20 10:54:27.97	334.50	9.89	-42.1	-44.2	17.6	0.00e+00	0	44	0	0	55	4669
2026-01-20 10:54:28.97	334.56	9.81	-42.1	-44.2	17.5	0.00e+00	0	44	0	0	55	4691
2026-01-20 10:54:29.96	334.62	9.73	-42.1	-44.2	17.5	0.00e+00	0	44	0	0	55	4678
2026-01-20 10:54:30.96	334.68	9.65	-42.2	-44.4	17.4	0.00e+00	0	44	0	0	55	4783
2026-01-20 10:54:31.95	334.74	9.57	-42.2	-44.3	17.4	0.00e+00	0	44	0	0	55	4750
2026-01-20 10:54:32.95	334.80	9.49	-42.3	-44.5	17.2	0.00e+00	0	44	0	0	55	4856
2026-01-20 10:54:33.94	334.86	9.41	-42.3	-44.5	17.2	0.00e+00	0	44	0	0	55	4856
2026-01-20 10:54:34.94	334.92	9.33	-42.3	-44.5	17.2	0.00e+00	0	44	0	0	55	4840
2026-01-20 10:54:35.93	334.98	9.25	-42.3	-44.5	17.2	0.00e+00	0	44	0	0	55	4866
2026-01-20 10:54:36.93	335.04	9.17	-42.3	-44.5	17.2	0.00e+00	0	44	0	0	55	4852
2026-01-20 10:54:37.92	335.10	9.09	-42.3	-44.5	17.2	0.00e+00	0	44	0	0	55	4867
2026-01-20 10:54:38.92	335.16	9.02	-42.4	-44.7	17.0	0.00e+00	0	44	0	0	55	4952
2026-01-20 10:54:39.91	335.22	8.94	-48.7	-57.2	5.8	3.70e-02	0	44	0	0	67	10462
2026-01-20 10:54:40.91	335.28	8.86	-50.0	-63.3	3.8	1.49e+00	0	44	104	0	71	16728
2026-01-20 10:54:41.90	335.33	8.78	-50.0	-63.6	3.8	1.49e+00	0	44	104	0	71	17371
2026-01-20 10:54:42.89	335.39	8.71	-49.8	-63.7	3.8	1.49e+00	0	44	104	0	71	17575
2026-01-20 10:54:43.89	335.45	8.63	-50.2	-63.8	3.8	1.49e+00	0	44	104	0	70	18837
2026-01-20 10:54:44.88	335.50	8.55	-50.2	-63.9	3.8	1.49e+00	0	44	104	0	70	19011
2026-01-20 10:54:45.88	335.56	8.48	-50.2	-63.9	3.8	1.49e+00	0	44	104	0	71	18011
2026-01-20 10:54:46.87	335.62	8.40	-50.5	-63.9	3.8	1.49e+00	0	44	104	0	72	17012
2026-01-20 10:54:47.86	335.67	8.33	-50.8	-64.0	3.8	1.49e+00	0	44	104	0	72	17090
2026-01-20 10:54:48.85	335.73	8.25	-50.7	-64.0	3.8	1.49e+00	0	44	104	0	71	18245
2026-01-20 10:54:49.85	335.78	8.17	-50.6	-64.0	3.8	1.49e+00	0	44	104	0	72	17181
2026-01-20 10:54:50.84	335.84	8.10	-50.9	-64.0	3.8	1.49e+00	0	44	104	0	72	17173
2026-01-20 10:54:51.83	335.89	8.03	-50.8	-64.0	3.8	1.49e+00	0	44	104	0	72	17220
2026-01-20 10:54:52.83	335.95	7.95	-50.9	-64.0	3.8	1.49e+00	0	44	104	0	72	17138
2026-01-20 10:54:53.82	336.00	7.88	-51.0	-64.0	3.8	1.49e+00	0	44	104	0	72	17240
2026-01-20 10:54:54.81	336.06	7.80	-51.0	-64.0	3.8	1.49e+00	0	44	104	0	72	17225
2026-01-20 10:54:55.81	336.11	7.73	-51.1	-64.0	3.8	1.49e+00	0	44	104	0	72	17278
2026-01-20 10:54:56.80	336.16	7.65	-51.0	-64.0	3.8	1.49e+00	0	44	104	0	72	17171
2026-01-20 10:54:57.79	336.22	7.58	-50.9	-64.0	3.8	1.49e+00	0	44	104	0	72	17149
2026-01-20 10:54:58.79	336.27	7.51	-50.9	-64.0	3.8	1.49e+00	0	44	104	0	72	17137
2026-01-20 10:54:59.78	336.32	7.43	-51.0	-64.0	3.8	1.49e+00	0	44	104	0	72	17125
2026-01-20 10:55:00.78	336.38	7.36	-50.9	-63.9	3.8	1.49e+00	0	44	104	0	72	17072
2026-01-20 10:55:01.77	336.43	7.29	-50.9	-64.0	3.8	1.49e+00	0	44	104	0	72	17168
2026-01-20 10:55:02.76	336.48	7.21	-50.7	-64.0	3.8	1.49e+00	0	44	104	0	72	17100
2026-01-20 10:55:03.76	336.53	7.14	-50.8	-63.9	3.8	1.49e+00	0	44	104	0	72	17074
2026-01-20 10:55:04.75	336.58	7.07	-50.7	-63.9	3.8	1.49e+00	0	44	104	0	72	17071
2026-01-20 10:55:05.74	336.63	7.00	-50.7	-63.9	3.8	1.49e+00	0	44	104	0	72	17001
2026-01-20 10:55:06.74	336.69	6.92	-50.7	-63.9	3.8	1.49e+00	0	44	104	0	72	17000
2026-01-20 10:55:07.73	336.74	6.85	-50.7	-63.9	3.8	1.49e+00	0	44	104	0	72	17034
2026-01-20 10:55:08.72	336.79	6.78	-50.7	-64.0	3.8	1.49e+00	0	44	104	0	72	17085
2026-01-20 10:55:09.72	336.84	6.71	-50.7	-63.9	3.8	1.49e+00	0	44	104	0	72	17003
2026-01-20 10:55:10.71	336.89	6.64	-50.7	-63.9	3.8	1.49e+00	0	44	104	0	72	17034
2026-01-20 10:55:11.70	336.94	6.57	-50.6	-63.9	3.8	1.49e+00	0	44	104	0	72	16990
2026-01-20 10:55:12.70	336.99	6.49	-50.6	-63.9	3.8	1.49e+00	0	44	104	0	72	16954
2026-01-20 10:55:13.69	337.04	6.42	-50.6	-63.9	3.8	1.49e+00	0	44	104	0	72	16939
2026-01-20 10:55:14.68	337.09	6.35	-50.7	-63.9	3.8	1.49e+00	0	44	104	0	72	16974
2026-01-20 10:55:15.68	337.14	6.28	-50.6	-63.9	3.8	1.49e+00	0	44	104	0	72	17015
2026-01-20 10:55:16.67	337.19	6.21	-50.6	-63.9	3.8	1.49e+00	0	44	104	0	72	16988
2026-01-20 10:55:17.66	337.23	6.14	-50.6	-63.9	3.8	1.49e+00	0	44	104	0	72	16999
2026-01-20 10:55:18.66	337.28	6.07	-50.6	-63.9	3.8	1.49e+00	0	44	104	0	72	17036
2026-01-20 10:55:19.65	337.33	6.00	-50.6	-63.9	3.8	1.49e+00	0	44	104	0	72	17007
2026-01-20 10:55:20.64	337.38	5.93	-50.6	-63.9	3.8	1.49e+00	0	44	104	0	72	17039
2026-01-20 10:55:21.64	337.43	5.86	-50.6	-63.9	3.8	1.49e+00	0	44	104	0	72	16972
2026-01-20 10:55:22.63	337.47	5.79	-50.6	-63.9	3.8	1.49e+00	0	44	104	0	72	17016
2026-01-20 10:55:23.62	337.52	5.73	-50.6	-63.9	3.8	1.49e+00	0	44	104	0	72	17041
2026-01-20 10:55:24.62	337.57	5.66	-50.6	-63.9	3.8	1.49e+00	0	44	104	0	72	16960
2026-01-20 10:55:25.61	337.62	5.59	-50.7	-63.9	3.8	1.49e+00	0	44	104	0	72	16954
2026-01-20 10:55:26.60	337.66	5.52	-50.6	-63.9	3.8	1.49e+00	0	44	104	0	72	16994
2026-01-20 10:55:27.60	337.71	5.45	-50.7	-63.9	3.8	1.49e+00	0	44	104	0	72	17014
