passes_logs/2026/01/20/T1/T1__20260120_153547_FENGYUN_3E_rec.log

#Pass ID: 20260120_153547_FENGYUN 3E
#Satellite: FENGYUN 3E
#Configuration: FENGYUN 3E
#almurnet v.1.7.20251203
#Start time: 2026-01-20 15:35:49

#Version: 2.0.20230620
#Station: T1
#Location: 37.570604 lon 55.790049 lat
#TLE: 1 49008U 21062A   26020.00892250 -.00000287  00000+0 -11478-3 0  9990
#TLE: 2 49008  98.7482  25.0782 0002252 128.5071 231.6308 14.19884466235554

#Time	Az	El	Level	Level2	SNR	BER	BlckErr	Temp	State	Recorded	gain1	gain2
2026-01-20 15:35:49.63	205.64	5.14	-50.3	-61.1	3.8	8.47e-01	0	41	0	0	71	12177
2026-01-20 15:35:50.62	205.72	5.20	-50.3	-61.1	3.8	8.47e-01	0	41	104	0	71	12164
2026-01-20 15:35:51.61	205.79	5.26	-50.3	-61.1	3.8	8.48e-01	0	41	104	0	71	12095
2026-01-20 15:35:52.61	205.87	5.32	-50.3	-61.0	3.8	8.47e-01	0	41	104	0	71	12032
2026-01-20 15:35:53.60	205.95	5.38	-50.3	-61.1	3.8	8.47e-01	0	41	104	0	71	12108
2026-01-20 15:35:54.59	206.03	5.45	-50.3	-61.1	3.8	8.47e-01	0	41	104	0	71	12146
2026-01-20 15:35:55.59	206.11	5.51	-50.2	-61.1	3.8	8.47e-01	0	41	104	0	71	12126
2026-01-20 15:35:56.58	206.19	5.57	-50.3	-61.0	3.8	8.46e-01	0	41	104	0	71	12071
2026-01-20 15:35:57.57	206.27	5.63	-50.3	-61.0	3.8	8.47e-01	0	41	104	0	71	12073
2026-01-20 15:35:58.57	206.35	5.69	-50.2	-61.1	3.8	8.48e-01	0	41	104	0	71	12170
2026-01-20 15:35:59.56	206.44	5.76	-50.2	-61.1	3.8	8.47e-01	0	41	104	0	71	12202
2026-01-20 15:36:00.55	206.52	5.82	-50.3	-61.1	3.8	8.46e-01	0	41	104	0	71	12180
2026-01-20 15:36:01.54	206.60	5.88	-50.3	-61.1	3.8	8.47e-01	0	42	104	0	71	12141
2026-01-20 15:36:02.54	206.68	5.95	-50.2	-61.1	3.8	8.47e-01	0	41	104	0	71	12115
2026-01-20 15:36:03.53	206.76	6.01	-50.2	-61.1	3.8	8.47e-01	0	42	104	0	71	12139
2026-01-20 15:36:04.52	206.85	6.07	-50.3	-61.1	3.8	8.46e-01	0	41	104	0	71	12105
2026-01-20 15:36:05.52	206.93	6.13	-50.3	-61.0	3.8	8.47e-01	0	42	104	0	71	12063
2026-01-20 15:36:06.51	207.01	6.20	-50.2	-61.0	3.8	8.46e-01	0	42	104	0	71	11979
2026-01-20 15:36:07.50	207.10	6.26	-50.2	-60.8	3.8	8.47e-01	0	42	104	0	71	11772
2026-01-20 15:36:08.50	207.18	6.32	-50.2	-60.6	3.8	8.47e-01	0	42	104	0	71	11479
2026-01-20 15:36:09.49	207.27	6.39	-50.1	-60.3	3.8	8.47e-01	0	42	104	0	71	11109
2026-01-20 15:36:10.48	207.35	6.45	-50.2	-60.1	3.8	8.47e-01	0	42	104	0	71	10834
2026-01-20 15:36:11.48	207.44	6.52	-50.1	-60.1	3.8	8.48e-01	0	42	104	0	71	10832
2026-01-20 15:36:12.47	207.52	6.58	-50.2	-60.2	3.8	8.46e-01	0	42	104	0	71	10965
2026-01-20 15:36:13.46	207.61	6.64	-50.2	-60.4	3.8	8.47e-01	0	42	104	0	71	11216
2026-01-20 15:36:14.46	207.69	6.71	-50.2	-60.5	3.8	8.48e-01	0	42	104	0	71	11415
2026-01-20 15:36:15.45	207.78	6.77	-50.2	-60.5	3.8	8.47e-01	0	42	104	0	71	11322
2026-01-20 15:36:16.44	207.87	6.84	-50.1	-60.4	3.8	8.48e-01	0	42	104	0	71	11215
2026-01-20 15:36:17.44	207.96	6.90	-50.1	-60.3	3.8	8.47e-01	0	42	104	0	71	11121
2026-01-20 15:36:18.43	208.04	6.96	-50.2	-60.3	3.8	8.46e-01	0	42	104	0	71	11114
2026-01-20 15:36:19.43	208.13	7.03	-50.1	-60.3	3.8	8.47e-01	0	42	104	0	71	11145
2026-01-20 15:36:20.42	208.22	7.09	-50.2	-60.4	3.8	8.46e-01	0	42	104	0	71	11192
2026-01-20 15:36:21.41	208.31	7.16	-50.2	-60.5	3.8	8.46e-01	0	42	104	0	71	11302
2026-01-20 15:36:22.40	208.40	7.22	-50.2	-60.6	3.8	8.47e-01	0	42	104	0	71	11464
2026-01-20 15:36:23.40	208.49	7.29	-50.2	-60.7	3.8	8.47e-01	0	42	104	0	71	11650
2026-01-20 15:36:24.39	208.58	7.35	-50.2	-60.9	3.8	8.47e-01	0	42	104	0	71	11838
2026-01-20 15:36:25.39	208.67	7.42	-50.2	-60.7	3.8	8.47e-01	0	42	104	0	71	11663
2026-01-20 15:36:26.38	208.76	7.48	-50.2	-60.3	3.8	8.48e-01	0	42	104	0	71	11039
2026-01-20 15:36:27.37	208.85	7.55	-50.1	-59.4	3.8	8.47e-01	0	42	104	0	70	10558
2026-01-20 15:36:28.36	208.94	7.61	-49.9	-58.5	4.0	8.45e-01	0	42	104	0	70	9546
2026-01-20 15:36:29.36	209.04	7.68	-49.9	-58.1	4.0	8.44e-01	0	42	104	0	70	9174
2026-01-20 15:36:30.35	209.13	7.75	-50.0	-58.7	3.9	8.45e-01	0	42	104	0	70	9829
2026-01-20 15:36:31.34	209.22	7.81	-50.1	-60.2	3.8	8.46e-01	0	42	104	0	70	11637
2026-01-20 15:36:32.34	209.31	7.88	-50.3	-61.0	3.8	8.48e-01	0	42	104	0	70	12765
2026-01-20 15:36:33.33	209.41	7.94	-49.8	-58.1	4.1	8.46e-01	0	42	104	0	70	9130
2026-01-20 15:36:34.32	209.50	8.01	-48.8	-53.9	6.1	6.47e-01	0	42	0	0	68	6297
2026-01-20 15:36:35.32	209.60	8.08	-46.9	-50.0	9.7	3.92e-02	0	42	0	7340032	64	5064
2026-01-20 15:36:36.31	209.69	8.14	-45.3	-47.5	12.4	4.61e-04	0	43	0	14680064	61	4519
2026-01-20 15:36:37.30	209.79	8.21	-43.8	-45.4	14.5	3.40e-06	0	42	0	22020096	58	4219
2026-01-20 15:36:38.30	209.88	8.28	-42.3	-43.7	16.0	0.00e+00	0	42	0	29360128	55	4118
2026-01-20 15:36:39.29	209.98	8.34	-41.4	-42.6	17.0	0.00e+00	0	43	0	36700160	53	4087
2026-01-20 15:36:40.28	210.08	8.41	-40.9	-42.0	17.6	0.00e+00	0	43	0	44040192	52	4050
2026-01-20 15:36:41.27	210.17	8.48	-40.7	-41.9	17.8	0.00e+00	0	43	0	50331648	52	3967
2026-01-20 15:36:42.27	210.27	8.54	-40.9	-42.1	17.7	0.00e+00	0	42	0	57671680	51	4302
2026-01-20 15:36:43.26	210.37	8.61	-41.3	-42.5	17.2	0.00e+00	0	43	0	65011712	52	4278
2026-01-20 15:36:44.25	210.47	8.68	-42.0	-43.3	16.4	0.00e+00	0	42	0	72351744	53	4415
2026-01-20 15:36:45.25	210.57	8.75	-42.9	-44.4	15.4	0.00e+00	0	43	0	79691776	55	4444
2026-01-20 15:36:46.24	210.66	8.81	-44.2	-46.0	13.8	4.50e-06	0	43	0	87031808	57	4784
2026-01-20 15:36:47.23	210.76	8.88	-45.5	-47.7	12.2	1.18e-04	0	43	0	94371840	60	4918
2026-01-20 15:36:48.23	210.86	8.95	-46.6	-49.4	10.4	2.57e-03	0	43	0	100663296	62	5339
2026-01-20 15:36:49.22	210.96	9.02	-47.4	-51.0	8.8	3.11e-02	0	43	0	108003328	64	5665
2026-01-20 15:36:50.21	211.07	9.08	-47.4	-50.9	8.7	4.04e-02	0	43	0	115343360	64	5640
2026-01-20 15:36:51.21	211.17	9.15	-44.2	-46.0	13.9	0.00e+00	0	43	0	122683392	57	4790
2026-01-20 15:36:52.20	211.27	9.22	-48.9	-54.7	5.5	5.20e-01	0	43	0	128974848	67	7290
2026-01-20 15:36:53.19	211.37	9.29	-49.5	-56.4	4.5	8.36e-01	0	43	0	130023424	69	7966
2026-01-20 15:36:54.19	211.48	9.36	-46.7	-49.4	10.5	3.34e-03	0	43	0	136314880	63	5038
2026-01-20 15:36:55.18	211.58	9.43	-46.4	-49.0	11.0	2.04e-03	0	43	0	143654912	63	4797
2026-01-20 15:36:56.18	211.68	9.49	-46.4	-49.0	10.9	1.24e-03	0	43	0	149946368	63	4807
2026-01-20 15:36:57.17	211.79	9.56	-46.3	-48.9	11.1	1.54e-03	0	43	0	157286400	62	5024
2026-01-20 15:36:58.17	211.89	9.63	-46.1	-48.5	11.4	2.09e-03	0	43	0	164626432	62	4810
2026-01-20 15:36:59.16	212.00	9.70	-45.9	-48.3	11.7	1.14e-03	0	43	0	171966464	62	4667
2026-01-20 15:37:00.16	212.10	9.77	-45.7	-48.0	12.0	3.87e-04	0	43	0	179306496	61	4766
2026-01-20 15:37:01.15	212.21	9.84	-45.1	-47.1	13.0	1.01e-04	0	43	0	186646528	60	4557
2026-01-20 15:37:02.14	212.32	9.91	-44.4	-46.1	13.8	6.80e-06	0	43	0	193986560	59	4334
2026-01-20 15:37:03.14	212.42	9.98	-43.7	-45.2	14.7	0.00e+00	0	43	0	201326592	58	4144
2026-01-20 15:37:04.13	212.53	10.05	-43.0	-44.4	15.6	0.00e+00	0	43	0	208666624	56	4239
2026-01-20 15:37:05.13	212.64	10.12	-42.7	-44.1	15.9	0.00e+00	0	43	0	214958080	56	4087
2026-01-20 15:37:06.12	212.75	10.19	-42.5	-43.8	16.0	0.00e+00	0	43	0	222298112	55	4181
2026-01-20 15:37:07.12	212.86	10.26	-42.4	-43.8	16.1	0.00e+00	0	43	0	229638144	55	4149
2026-01-20 15:37:08.11	212.97	10.33	-41.8	-43.1	16.8	0.00e+00	0	43	0	236978176	54	4060
2026-01-20 15:37:09.10	213.08	10.40	-41.5	-42.8	17.1	0.00e+00	0	43	0	244318208	53	4164
2026-01-20 15:37:10.10	213.19	10.47	-41.4	-42.7	17.2	0.00e+00	0	43	0	250609664	53	4102
2026-01-20 15:37:11.09	213.30	10.54	-41.2	-42.4	17.5	0.00e+00	0	43	0	257949696	53	3962
2026-01-20 15:37:12.09	213.41	10.61	-41.1	-42.3	17.5	0.00e+00	0	43	0	265289728	52	4176
2026-01-20 15:37:13.08	213.52	10.68	-40.9	-42.0	17.8	0.00e+00	0	43	0	272629760	52	4038
2026-01-20 15:37:14.08	213.64	10.75	-41.1	-42.2	17.6	0.00e+00	0	43	0	279969792	52	4130
2026-01-20 15:37:15.07	213.75	10.82	-40.6	-41.7	18.2	0.00e+00	0	43	0	287309824	51	4121
2026-01-20 15:37:16.07	213.87	10.89	-40.6	-41.7	18.2	0.00e+00	0	43	0	293601280	51	4145
2026-01-20 15:37:17.06	213.98	10.96	-39.9	-41.0	18.9	0.00e+00	0	43	0	300941312	50	4006
2026-01-20 15:37:18.05	214.09	11.03	-39.8	-40.8	19.1	0.00e+00	0	43	0	308281344	50	3925
2026-01-20 15:37:19.05	214.21	11.10	-39.6	-40.6	19.3	0.00e+00	0	43	0	315621376	50	3848
2026-01-20 15:37:20.05	214.33	11.18	-39.6	-40.7	19.2	0.00e+00	0	43	0	322961408	50	3871
2026-01-20 15:37:21.04	214.44	11.25	-39.4	-40.4	19.4	0.00e+00	0	43	0	330301440	49	4003
2026-01-20 15:37:22.04	214.56	11.32	-39.6	-40.6	19.3	0.00e+00	0	43	0	337641472	49	4062
2026-01-20 15:37:23.03	214.68	11.39	-39.5	-40.5	19.3	0.00e+00	0	43	0	344981504	49	4037
2026-01-20 15:37:24.03	214.80	11.46	-39.5	-40.5	19.3	0.00e+00	0	43	0	351272960	49	4028
2026-01-20 15:37:25.03	214.92	11.53	-39.4	-40.4	19.4	0.00e+00	0	43	0	358612992	49	3986
2026-01-20 15:37:26.02	215.04	11.61	-39.4	-40.4	19.5	0.00e+00	0	43	0	365953024	49	3970
2026-01-20 15:37:27.02	215.16	11.68	-39.5	-40.5	19.4	0.00e+00	0	43	0	373293056	49	4019
2026-01-20 15:37:28.01	215.28	11.75	-39.4	-40.4	19.4	0.00e+00	0	43	0	380633088	49	3996
2026-01-20 15:37:29.01	215.40	11.82	-39.4	-40.4	19.5	0.00e+00	0	43	0	387973120	49	3965
2026-01-20 15:37:30.00	215.52	11.89	-39.3	-40.3	19.6	0.00e+00	0	43	0	394264576	49	3921
2026-01-20 15:37:31.00	215.64	11.97	-39.3	-40.2	19.6	0.00e+00	0	43	0	401604608	49	3906
2026-01-20 15:37:31.99	215.77	12.04	-39.3	-40.3	19.6	0.00e+00	0	43	0	408944640	49	3925
2026-01-20 15:37:32.99	215.89	12.11	-39.4	-40.4	19.5	0.00e+00	0	43	0	416284672	49	3968
2026-01-20 15:37:33.98	216.01	12.18	-39.3	-40.3	19.6	0.00e+00	0	43	0	423624704	49	3915
2026-01-20 15:37:34.97	216.14	12.26	-39.3	-40.3	19.6	0.00e+00	0	43	0	430964736	49	3941
2026-01-20 15:37:35.97	216.26	12.33	-39.4	-40.4	19.5	0.00e+00	0	43	0	437256192	49	3975
2026-01-20 15:37:36.97	216.39	12.40	-39.5	-40.5	19.4	0.00e+00	0	43	0	444596224	49	4008
2026-01-20 15:37:37.96	216.52	12.48	-39.4	-40.4	19.5	0.00e+00	0	43	0	451936256	49	3971
2026-01-20 15:37:38.96	216.65	12.55	-39.2	-40.2	19.7	0.00e+00	0	43	0	459276288	49	3875
2026-01-20 15:37:39.95	216.77	12.62	-39.2	-40.1	19.7	0.00e+00	0	43	0	466616320	49	3863
2026-01-20 15:37:40.95	216.90	12.70	-39.1	-40.1	19.8	0.00e+00	0	43	0	473956352	49	3857
2026-01-20 15:37:41.94	217.03	12.77	-39.1	-40.1	19.8	0.00e+00	0	43	0	481296384	48	4063
2026-01-20 15:37:42.94	217.16	12.84	-39.1	-40.0	19.9	0.00e+00	0	43	0	488636416	48	4043
2026-01-20 15:37:43.93	217.29	12.92	-39.1	-40.0	19.9	0.00e+00	0	43	0	494927872	48	4047
2026-01-20 15:37:44.92	217.42	12.99	-39.0	-40.0	19.9	0.00e+00	0	43	0	502267904	48	4040
2026-01-20 15:37:45.92	217.55	13.06	-39.1	-40.1	19.8	0.00e+00	0	43	0	509607936	48	4089
2026-01-20 15:37:46.91	217.68	13.14	-39.2	-40.2	19.7	0.00e+00	0	43	0	516947968	48	4143
2026-01-20 15:37:47.91	217.82	13.21	-39.4	-40.4	19.5	0.00e+00	0	43	0	524288000	48	4212
2026-01-20 15:37:48.90	217.95	13.29	-39.2	-40.2	19.7	0.00e+00	0	43	0	531628032	48	4137
2026-01-20 15:37:49.90	218.09	13.36	-39.2	-40.2	19.7	0.00e+00	0	43	0	537919488	48	4144
2026-01-20 15:37:50.89	218.22	13.43	-39.2	-40.2	19.7	0.00e+00	0	43	0	545259520	48	4140
2026-01-20 15:37:51.89	218.36	13.51	-39.3	-40.3	19.6	0.00e+00	0	43	0	552599552	48	4183
2026-01-20 15:37:52.88	218.49	13.58	-39.2	-40.2	19.7	0.00e+00	0	43	0	559939584	48	4138
2026-01-20 15:37:53.87	218.63	13.66	-39.1	-40.1	19.8	0.00e+00	0	43	0	567279616	48	4079
2026-01-20 15:37:54.87	218.77	13.73	-39.2	-40.2	19.7	0.00e+00	0	43	0	574619648	48	4124
2026-01-20 15:37:55.86	218.90	13.81	-39.1	-40.1	19.8	0.00e+00	0	43	0	580911104	48	4064
2026-01-20 15:37:56.86	219.04	13.88	-39.1	-40.1	19.9	0.00e+00	0	43	0	588251136	48	4058
2026-01-20 15:37:57.85	219.18	13.96	-39.0	-40.0	19.9	0.00e+00	0	43	0	595591168	48	4036
2026-01-20 15:37:58.85	219.32	14.03	-39.0	-39.9	20.0	0.00e+00	0	43	0	602931200	48	4000
2026-01-20 15:37:59.84	219.46	14.11	-38.9	-39.9	20.0	0.00e+00	0	43	0	610271232	48	3980
2026-01-20 15:38:00.84	219.61	14.18	-38.9	-39.9	20.0	0.00e+00	0	43	0	617611264	48	3978
2026-01-20 15:38:01.83	219.75	14.26	-38.9	-39.8	20.1	0.00e+00	0	43	0	624951296	48	3946
2026-01-20 15:38:02.83	219.89	14.33	-38.7	-39.7	20.2	0.00e+00	0	43	0	631242752	48	3876
2026-01-20 15:38:03.82	220.03	14.41	-38.8	-39.8	20.2	0.00e+00	0	43	0	638582784	48	3919
2026-01-20 15:38:04.82	220.18	14.48	-38.9	-39.9	20.0	0.00e+00	0	43	0	645922816	48	3985
2026-01-20 15:38:05.81	220.32	14.56	-39.1	-40.1	19.9	0.00e+00	0	43	0	653262848	48	4061
2026-01-20 15:38:06.81	220.47	14.63	-38.8	-39.7	20.2	0.00e+00	0	43	0	660602880	48	3897
2026-01-20 15:38:07.81	220.62	14.71	-38.6	-39.6	20.4	0.00e+00	0	43	0	667942912	48	3839
2026-01-20 15:38:08.80	220.76	14.78	-38.5	-39.5	20.2	0.00e+00	0	43	0	675282944	47	4005
2026-01-20 15:38:09.79	220.91	14.86	-38.4	-39.3	20.3	0.00e+00	0	43	0	681574400	47	3948
2026-01-20 15:38:10.79	221.06	14.93	-38.4	-39.4	20.3	0.00e+00	0	43	0	688914432	47	3978
2026-01-20 15:38:11.78	221.21	15.01	-38.3	-39.2	20.4	0.00e+00	0	43	0	696254464	47	3901
2026-01-20 15:38:12.78	221.36	15.09	-38.3	-39.3	20.4	0.00e+00	0	43	0	703594496	47	3919
2026-01-20 15:38:13.77	221.51	15.16	-38.3	-39.2	20.5	0.00e+00	0	43	0	710934528	47	3884
2026-01-20 15:38:14.77	221.66	15.24	-38.2	-39.2	20.5	0.00e+00	0	43	0	718274560	47	3877
2026-01-20 15:38:15.76	221.81	15.31	-38.1	-39.0	20.6	0.00e+00	0	43	0	724566016	47	3806
2026-01-20 15:38:16.75	221.97	15.39	-38.2	-39.2	20.5	0.00e+00	0	43	0	731906048	47	3876
2026-01-20 15:38:17.75	222.12	15.47	-38.2	-39.1	20.5	0.00e+00	0	43	0	739246080	47	3845
2026-01-20 15:38:18.75	222.28	15.54	-38.0	-38.9	20.7	0.00e+00	0	43	0	746586112	46	3999
2026-01-20 15:38:19.74	222.43	15.62	-38.0	-38.9	20.7	0.00e+00	0	43	0	753926144	46	3980
2026-01-20 15:38:20.73	222.59	15.69	-37.8	-38.7	20.9	0.00e+00	0	43	0	761266176	46	3894
2026-01-20 15:38:21.73	222.75	15.77	-37.8	-38.7	20.9	0.00e+00	0	43	0	767557632	46	3898
2026-01-20 15:38:22.72	222.90	15.85	-37.8	-38.7	20.9	0.00e+00	0	43	0	774897664	46	3908
2026-01-20 15:38:23.72	223.06	15.92	-37.9	-38.8	20.8	0.00e+00	0	43	0	782237696	46	3948
2026-01-20 15:38:24.71	223.22	16.00	-37.9	-38.9	20.8	0.00e+00	0	43	0	789577728	46	3961
2026-01-20 15:38:25.71	223.38	16.07	-38.0	-38.9	20.8	0.00e+00	0	43	0	796917760	46	3977
2026-01-20 15:38:26.70	223.54	16.15	-38.0	-38.9	20.7	0.00e+00	0	43	0	804257792	46	3991
2026-01-20 15:38:27.69	223.70	16.23	-38.0	-38.9	20.7	0.00e+00	0	43	0	811597824	46	4003
2026-01-20 15:38:28.69	223.87	16.30	-38.0	-38.9	20.7	0.00e+00	0	43	0	818937856	46	3997
2026-01-20 15:38:29.68	224.03	16.38	-38.0	-38.9	20.8	0.00e+00	0	43	0	825229312	46	3973
2026-01-20 15:38:30.68	224.19	16.46	-38.0	-38.9	20.7	0.00e+00	0	43	0	832569344	46	3994
2026-01-20 15:38:31.67	224.36	16.53	-38.1	-39.0	20.7	0.00e+00	0	43	0	839909376	46	4030
2026-01-20 15:38:32.67	224.52	16.61	-37.9	-38.8	20.8	0.00e+00	0	43	0	847249408	46	3958
2026-01-20 15:38:33.67	224.69	16.69	-37.8	-38.7	21.0	0.00e+00	0	43	0	854589440	46	3872
2026-01-20 15:38:34.66	224.86	16.76	-37.6	-38.5	21.1	0.00e+00	0	43	0	861929472	46	3817
2026-01-20 15:38:35.65	225.03	16.84	-37.6	-38.6	21.1	0.00e+00	0	43	0	868220928	46	3825
2026-01-20 15:38:36.65	225.20	16.92	-37.6	-38.5	21.1	0.00e+00	0	43	0	875560960	45	4037
2026-01-20 15:38:37.65	225.37	16.99	-37.7	-38.6	21.1	0.00e+00	0	43	0	882900992	45	4062
2026-01-20 15:38:38.64	225.54	17.07	-37.6	-38.5	21.1	0.00e+00	0	43	0	890241024	45	4012
2026-01-20 15:38:39.63	225.71	17.14	-37.4	-38.2	21.4	0.00e+00	0	43	0	897581056	45	3905
2026-01-20 15:38:40.63	225.88	17.22	-37.4	-38.3	21.3	0.00e+00	0	43	0	903872512	45	3947
2026-01-20 15:38:41.62	226.05	17.30	-37.4	-38.3	21.3	0.00e+00	0	43	0	911212544	45	3925
2026-01-20 15:38:42.62	226.23	17.37	-37.3	-38.2	21.3	0.00e+00	0	43	0	918552576	45	3899
2026-01-20 15:38:43.61	226.40	17.45	-37.3	-38.2	21.4	0.00e+00	0	43	0	925892608	45	3891
2026-01-20 15:38:44.61	226.58	17.53	-37.3	-38.2	21.4	0.00e+00	0	43	0	933232640	45	3872
2026-01-20 15:38:45.60	226.76	17.60	-37.3	-38.2	21.4	0.00e+00	0	43	0	940572672	45	3887
2026-01-20 15:38:46.60	226.93	17.68	-37.5	-38.3	21.3	0.00e+00	0	43	0	947912704	45	3953
2026-01-20 15:38:47.59	227.11	17.76	-37.4	-38.3	21.3	0.00e+00	0	43	0	955252736	45	3953
2026-01-20 15:38:48.58	227.29	17.83	-37.3	-38.2	21.4	0.00e+00	0	43	0	962592768	45	3899
2026-01-20 15:38:49.58	227.47	17.91	-37.5	-38.4	21.2	0.00e+00	0	43	0	968884224	45	3984
2026-01-20 15:38:50.57	227.65	17.98	-37.6	-38.5	21.1	0.00e+00	0	43	0	976224256	45	4016
2026-01-20 15:38:51.57	227.83	18.06	-37.5	-38.4	21.2	0.00e+00	0	43	0	983564288	45	3980
2026-01-20 15:38:52.56	228.02	18.14	-37.5	-38.4	21.2	0.00e+00	0	43	0	990904320	45	3970
2026-01-20 15:38:53.56	228.20	18.21	-37.5	-38.4	21.2	0.00e+00	0	43	0	998244352	45	3975
2026-01-20 15:38:54.55	228.39	18.29	-37.5	-38.4	21.2	0.00e+00	0	43	0	1005584384	45	3975
2026-01-20 15:38:55.55	228.57	18.36	-37.5	-38.3	21.3	0.00e+00	0	43	0	1011875840	45	3953
2026-01-20 15:38:56.54	228.76	18.44	-37.4	-38.3	21.3	0.00e+00	0	43	0	1019215872	45	3927
2026-01-20 15:38:57.54	228.95	18.52	-37.5	-38.4	21.2	0.00e+00	0	43	0	1026555904	45	3992
2026-01-20 15:38:58.54	229.14	18.59	-37.5	-38.4	21.2	0.00e+00	0	43	0	1033895936	45	3995
2026-01-20 15:38:59.53	229.32	18.67	-37.4	-38.3	21.3	0.00e+00	0	43	0	1041235968	45	3931
2026-01-20 15:39:00.52	229.51	18.74	-37.3	-38.2	21.5	0.00e+00	0	43	0	1047527424	45	3884
2026-01-20 15:39:01.52	229.71	18.82	-37.3	-38.2	21.4	0.00e+00	0	43	0	1054867456	45	3887
2026-01-20 15:39:02.51	229.90	18.89	-37.3	-38.2	21.5	0.00e+00	0	43	0	1062207488	45	3873
2026-01-20 15:39:03.51	230.09	18.97	-37.2	-38.1	21.5	0.00e+00	0	43	0	1069547520	45	3850
2026-01-20 15:39:04.50	230.28	19.05	-37.2	-38.1	21.5	0.00e+00	0	43	0	1076887552	44	4059
2026-01-20 15:39:05.50	230.48	19.12	-37.1	-38.0	21.6	0.00e+00	0	43	0	1084227584	44	4038
2026-01-20 15:39:06.49	230.67	19.20	-37.2	-38.1	21.5	0.00e+00	0	43	0	1091567616	44	4080
2026-01-20 15:39:07.49	230.87	19.27	-37.1	-38.0	21.6	0.00e+00	0	43	0	1098907648	44	4017
2026-01-20 15:39:08.48	231.07	19.35	-37.1	-38.0	21.6	0.00e+00	0	43	0	1106247680	44	4022
2026-01-20 15:39:09.48	231.27	19.42	-37.1	-38.0	21.6	0.00e+00	0	43	0	1112539136	44	4035
2026-01-20 15:39:10.48	231.47	19.50	-37.2	-38.1	21.5	0.00e+00	0	43	0	1119879168	44	4064
2026-01-20 15:39:11.47	231.67	19.57	-37.3	-38.2	21.5	0.00e+00	0	43	0	1127219200	44	4104
2026-01-20 15:39:12.47	231.87	19.65	-37.2	-38.1	21.5	0.00e+00	0	43	0	1134559232	44	4067
2026-01-20 15:39:13.46	232.07	19.72	-37.1	-38.0	21.6	0.00e+00	0	43	0	1141899264	44	4034
2026-01-20 15:39:14.46	232.28	19.79	-37.1	-38.0	21.6	0.00e+00	0	43	0	1149239296	44	4022
2026-01-20 15:39:15.45	232.48	19.87	-37.1	-38.0	21.6	0.00e+00	0	43	0	1155530752	44	4018
2026-01-20 15:39:16.45	232.69	19.94	-37.1	-38.0	21.6	0.00e+00	0	43	0	1162870784	44	4008
2026-01-20 15:39:17.44	232.89	20.02	-37.0	-37.9	21.7	0.00e+00	0	43	0	1170210816	44	3991
2026-01-20 15:39:18.43	233.10	20.09	-37.0	-37.9	21.7	0.00e+00	0	43	0	1177550848	44	3992
2026-01-20 15:39:19.43	233.31	20.16	-37.1	-37.9	21.7	0.00e+00	0	43	0	1184890880	44	3997
2026-01-20 15:39:20.42	233.52	20.24	-37.1	-37.9	21.7	0.00e+00	0	43	0	1191182336	44	3995
2026-01-20 15:39:21.42	233.73	20.31	-36.9	-37.8	21.8	0.00e+00	0	43	0	1198522368	44	3947
2026-01-20 15:39:22.41	233.94	20.38	-37.0	-37.9	21.7	0.00e+00	0	43	0	1205862400	44	3979
2026-01-20 15:39:23.41	234.15	20.46	-36.9	-37.8	21.8	0.00e+00	0	43	0	1213202432	44	3941
2026-01-20 15:39:24.40	234.36	20.53	-37.0	-37.9	21.7	0.00e+00	0	43	0	1220542464	44	3971
2026-01-20 15:39:25.40	234.58	20.60	-36.9	-37.8	21.8	0.00e+00	0	43	0	1227882496	44	3927
2026-01-20 15:39:26.39	234.79	20.67	-36.9	-37.8	21.8	0.00e+00	0	43	0	1235222528	44	3916
2026-01-20 15:39:27.39	235.01	20.74	-37.0	-37.8	21.8	0.00e+00	0	43	0	1242562560	44	3957
2026-01-20 15:39:28.38	235.23	20.82	-36.9	-37.8	21.8	0.00e+00	0	43	0	1249902592	44	3941
2026-01-20 15:39:29.38	235.45	20.89	-36.8	-37.6	21.9	0.00e+00	0	43	0	1256194048	44	3862
2026-01-20 15:39:30.37	235.66	20.96	-36.7	-37.6	22.0	0.00e+00	0	43	0	1263534080	44	3838
2026-01-20 15:39:31.37	235.88	21.03	-36.6	-37.5	22.0	0.00e+00	0	43	0	1270874112	44	3801
2026-01-20 15:39:32.36	236.10	21.10	-36.7	-37.5	22.1	0.00e+00	0	43	0	1278214144	44	3808
2026-01-20 15:39:33.36	236.33	21.17	-36.8	-37.6	22.0	0.00e+00	0	43	0	1285554176	44	3857
2026-01-20 15:39:34.35	236.55	21.24	-36.8	-37.6	22.0	0.00e+00	0	43	0	1292894208	44	3849
2026-01-20 15:39:35.35	236.77	21.31	-36.9	-37.7	21.9	0.00e+00	0	43	0	1299185664	44	3899
2026-01-20 15:39:36.34	237.00	21.38	-36.9	-37.8	21.8	0.00e+00	0	43	0	1306525696	44	3923
2026-01-20 15:39:37.33	237.22	21.45	-36.9	-37.8	21.8	0.00e+00	0	43	0	1313865728	44	3926
2026-01-20 15:39:38.33	237.45	21.52	-36.9	-37.8	21.8	0.00e+00	0	43	0	1321205760	44	3923
2026-01-20 15:39:39.33	237.68	21.59	-36.9	-37.8	21.8	0.00e+00	0	43	0	1328545792	44	3923
2026-01-20 15:39:40.32	237.91	21.66	-37.0	-37.9	21.7	0.00e+00	0	43	0	1334837248	44	3991
2026-01-20 15:39:41.32	238.14	21.73	-37.1	-38.0	21.7	0.00e+00	0	43	0	1342177280	44	4025
2026-01-20 15:39:42.31	238.37	21.80	-37.0	-37.9	21.8	0.00e+00	0	43	0	1349517312	44	3959
2026-01-20 15:39:43.30	238.60	21.87	-36.9	-37.8	21.8	0.00e+00	0	43	0	1356857344	44	3925
2026-01-20 15:39:44.30	238.84	21.93	-36.8	-37.7	21.9	0.00e+00	0	43	0	1364197376	44	3872
2026-01-20 15:39:45.30	239.07	22.00	-36.9	-37.7	21.9	0.00e+00	0	43	0	1371537408	44	3913
2026-01-20 15:39:46.29	239.30	22.07	-36.8	-37.6	22.0	0.00e+00	0	43	0	1378877440	44	3855
2026-01-20 15:39:47.29	239.54	22.14	-36.9	-37.7	21.8	0.00e+00	0	43	0	1386217472	44	3913
2026-01-20 15:39:48.28	239.78	22.20	-36.8	-37.7	21.9	0.00e+00	0	43	0	1393557504	44	3895
2026-01-20 15:39:49.28	240.02	22.27	-36.8	-37.7	21.9	0.00e+00	0	43	0	1399848960	44	3874
2026-01-20 15:39:50.27	240.25	22.34	-36.8	-37.7	21.9	0.00e+00	0	43	0	1407188992	44	3871
2026-01-20 15:39:51.27	240.50	22.40	-36.7	-37.6	22.0	0.00e+00	0	43	0	1414529024	44	3835
2026-01-20 15:39:52.26	240.74	22.47	-36.7	-37.6	22.1	0.00e+00	0	43	0	1421869056	44	3827
2026-01-20 15:39:53.26	240.98	22.53	-36.8	-37.7	21.9	0.00e+00	0	43	0	1429209088	44	3878
2026-01-20 15:39:54.25	241.22	22.60	-36.3	-37.2	22.2	0.00e+00	0	43	0	1436549120	43	3875
2026-01-20 15:39:55.25	241.47	22.66	-36.3	-37.1	22.3	0.00e+00	0	43	0	1442840576	43	3845
2026-01-20 15:39:56.25	241.71	22.72	-36.2	-37.0	22.4	0.00e+00	0	43	0	1450180608	43	3796
2026-01-20 15:39:57.24	241.96	22.79	-36.3	-37.2	22.2	0.00e+00	0	43	0	1457520640	43	3885
2026-01-20 15:39:58.23	242.20	22.85	-36.2	-37.1	22.3	0.00e+00	0	43	0	1464860672	43	3832
2026-01-20 15:39:59.23	242.45	22.91	-36.3	-37.2	22.2	0.00e+00	0	43	0	1472200704	43	3885
2026-01-20 15:40:00.22	242.70	22.98	-36.3	-37.1	22.3	0.00e+00	0	43	0	1478492160	43	3862
2026-01-20 15:40:01.22	242.95	23.04	-36.3	-37.2	22.2	0.00e+00	0	43	0	1485832192	43	3879
2026-01-20 15:40:02.21	243.20	23.10	-36.3	-37.2	22.2	0.00e+00	0	43	0	1493172224	43	3876
2026-01-20 15:40:03.21	243.45	23.16	-36.4	-37.2	22.2	0.00e+00	0	43	0	1500512256	43	3890
2026-01-20 15:40:04.20	243.70	23.22	-36.5	-37.3	22.1	0.00e+00	0	43	0	1507852288	43	3938
2026-01-20 15:40:05.20	243.96	23.28	-36.4	-37.2	22.2	0.00e+00	0	43	0	1515192320	43	3900
2026-01-20 15:40:06.19	244.21	23.34	-36.3	-37.2	22.2	0.00e+00	0	43	0	1522532352	43	3890
2026-01-20 15:40:07.19	244.47	23.40	-36.4	-37.3	22.1	0.00e+00	0	43	0	1529872384	43	3932
2026-01-20 15:40:08.18	244.72	23.46	-36.4	-37.3	22.1	0.00e+00	0	43	0	1537212416	43	3937
2026-01-20 15:40:09.17	244.98	23.52	-36.5	-37.4	22.0	0.00e+00	0	43	0	1543503872	43	3985
2026-01-20 15:40:10.17	245.24	23.58	-36.6	-37.4	22.0	0.00e+00	0	43	0	1550843904	43	3993
2026-01-20 15:40:11.16	245.50	23.63	-36.6	-37.5	22.0	0.00e+00	0	43	0	1558183936	43	4020
2026-01-20 15:40:12.16	245.76	23.69	-36.5	-37.3	22.1	0.00e+00	0	43	0	1565523968	43	3950
2026-01-20 15:40:13.15	246.02	23.75	-36.4	-37.2	22.2	0.00e+00	0	43	0	1572864000	43	3910
2026-01-20 15:40:14.15	246.28	23.80	-36.3	-37.2	22.3	0.00e+00	0	43	0	1580204032	43	3872
2026-01-20 15:40:15.14	246.54	23.86	-36.3	-37.1	22.3	0.00e+00	0	43	0	1586495488	43	3867
2026-01-20 15:40:16.14	246.81	23.91	-36.2	-37.1	22.3	0.00e+00	0	43	0	1593835520	43	3842
2026-01-20 15:40:17.13	247.07	23.97	-36.4	-37.2	22.2	0.00e+00	0	43	0	1601175552	43	3895
2026-01-20 15:40:18.12	247.34	24.02	-36.3	-37.1	22.3	0.00e+00	0	43	0	1608515584	43	3855
2026-01-20 15:40:19.12	247.60	24.08	-36.2	-37.1	22.3	0.00e+00	0	43	0	1615855616	43	3833
2026-01-20 15:40:20.12	247.87	24.13	-36.3	-37.1	22.3	0.00e+00	0	43	0	1622147072	43	3854
2026-01-20 15:40:21.11	248.14	24.18	-36.2	-37.0	22.4	0.00e+00	0	43	0	1629487104	43	3805
2026-01-20 15:40:22.11	248.41	24.23	-36.1	-36.9	22.5	0.00e+00	0	43	0	1636827136	42	3984
2026-01-20 15:40:23.10	248.68	24.29	-36.1	-36.9	22.5	0.00e+00	0	43	0	1644167168	42	3981
2026-01-20 15:40:24.09	248.95	24.34	-36.0	-36.8	22.5	0.00e+00	0	43	0	1651507200	42	3947
2026-01-20 15:40:25.09	249.22	24.39	-36.0	-36.8	22.5	0.00e+00	0	43	0	1658847232	42	3929
2026-01-20 15:40:26.08	249.49	24.44	-36.0	-36.8	22.6	0.00e+00	0	43	0	1666187264	42	3935
2026-01-20 15:40:27.08	249.77	24.49	-36.0	-36.8	22.6	0.00e+00	0	43	0	1672478720	42	3941
2026-01-20 15:40:28.08	250.04	24.53	-35.9	-36.8	22.6	0.00e+00	0	43	0	1679818752	42	3924
2026-01-20 15:40:29.07	250.32	24.58	-35.8	-36.6	22.7	0.00e+00	0	43	0	1687158784	42	3865
2026-01-20 15:40:30.06	250.59	24.63	-35.8	-36.7	22.7	0.00e+00	0	43	0	1694498816	42	3872
2026-01-20 15:40:31.06	250.87	24.68	-35.8	-36.6	22.7	0.00e+00	0	43	0	1701838848	42	3860
2026-01-20 15:40:32.05	251.15	24.72	-35.8	-36.6	22.7	0.00e+00	0	43	0	1709178880	42	3856
2026-01-20 15:40:33.05	251.43	24.77	-35.8	-36.6	22.7	0.00e+00	0	43	0	1716518912	42	3839
2026-01-20 15:40:34.04	251.70	24.81	-35.7	-36.5	22.8	0.00e+00	0	43	0	1723858944	42	3804
2026-01-20 15:40:35.04	251.99	24.86	-35.8	-36.6	22.6	0.00e+00	0	43	0	1730150400	42	3868
2026-01-20 15:40:36.03	252.26	24.90	-35.8	-36.7	22.7	0.00e+00	0	43	0	1737490432	42	3876
2026-01-20 15:40:37.03	252.55	24.94	-36.0	-36.9	22.5	0.00e+00	0	43	0	1744830464	42	3969
2026-01-20 15:40:38.02	252.83	24.99	-36.1	-36.9	22.5	0.00e+00	0	43	0	1752170496	42	3986
2026-01-20 15:40:39.02	253.11	25.03	-36.1	-37.0	22.4	0.00e+00	0	43	0	1759510528	42	4019
2026-01-20 15:40:40.01	253.39	25.07	-36.2	-37.0	22.4	0.00e+00	0	43	0	1765801984	42	4027
2026-01-20 15:40:41.00	253.68	25.11	-36.2	-37.0	22.4	0.00e+00	0	43	0	1773142016	42	4036
2026-01-20 15:40:42.00	253.96	25.15	-36.0	-36.9	22.5	0.00e+00	0	43	0	1780482048	42	3973
2026-01-20 15:40:42.99	254.25	25.19	-36.0	-36.8	22.6	0.00e+00	0	43	0	1787822080	42	3943
2026-01-20 15:40:43.99	254.54	25.23	-36.1	-37.0	22.4	0.00e+00	0	43	0	1795162112	42	4024
2026-01-20 15:40:44.98	254.82	25.26	-36.1	-36.9	22.5	0.00e+00	0	43	0	1802502144	42	3983
2026-01-20 15:40:45.97	255.11	25.30	-36.0	-36.9	22.5	0.00e+00	0	43	0	1808793600	42	3977
2026-01-20 15:40:46.97	255.40	25.34	-36.0	-36.9	22.5	0.00e+00	0	43	0	1816133632	42	3970
2026-01-20 15:40:47.96	255.68	25.37	-36.1	-36.9	22.4	0.00e+00	0	43	0	1823473664	42	4004
2026-01-20 15:40:48.96	255.98	25.41	-36.1	-36.9	22.5	0.00e+00	0	43	0	1830813696	42	4004
2026-01-20 15:40:49.95	256.26	25.44	-36.0	-36.8	22.5	0.00e+00	0	43	0	1838153728	42	3952
2026-01-20 15:40:50.95	256.56	25.47	-35.9	-36.7	22.6	0.00e+00	0	43	0	1845493760	42	3904
2026-01-20 15:40:51.94	256.85	25.51	-35.9	-36.8	22.6	0.00e+00	0	43	0	1852833792	42	3927
2026-01-20 15:40:52.94	257.14	25.54	-35.8	-36.6	22.7	0.00e+00	0	43	0	1860173824	42	3867
2026-01-20 15:40:53.93	257.43	25.57	-35.9	-36.7	22.6	0.00e+00	0	43	0	1867513856	42	3889
2026-01-20 15:40:54.92	257.72	25.60	-35.9	-36.7	22.7	0.00e+00	0	43	0	1873805312	42	3895
2026-01-20 15:40:55.92	258.02	25.63	-36.0	-36.8	22.6	0.00e+00	0	43	0	1881145344	42	3933
2026-01-20 15:40:56.91	258.31	25.66	-35.8	-36.7	22.7	0.00e+00	0	43	0	1888485376	42	3873
2026-01-20 15:40:57.91	258.61	25.69	-36.0	-36.8	22.6	0.00e+00	0	43	0	1895825408	42	3930
2026-01-20 15:40:58.90	258.90	25.71	-36.0	-36.9	22.5	0.00e+00	0	43	0	1903165440	42	3968
2026-01-20 15:40:59.89	259.19	25.74	-36.1	-36.9	22.5	0.00e+00	0	43	0	1909456896	42	3992
2026-01-20 15:41:00.89	259.49	25.77	-36.2	-37.0	22.4	0.00e+00	0	43	0	1916796928	42	4050
2026-01-20 15:41:01.88	259.79	25.79	-36.1	-37.0	22.4	0.00e+00	0	43	0	1924136960	42	4010
2026-01-20 15:41:02.88	260.09	25.82	-36.1	-37.0	22.4	0.00e+00	0	43	0	1931476992	42	4006
2026-01-20 15:41:03.87	260.38	25.84	-36.1	-36.9	22.4	0.00e+00	0	43	0	1938817024	42	3994
2026-01-20 15:41:04.87	260.68	25.86	-35.9	-36.8	22.6	0.00e+00	0	43	0	1946157056	42	3930
2026-01-20 15:41:05.86	260.98	25.88	-35.9	-36.7	22.6	0.00e+00	0	43	0	1952448512	42	3902
2026-01-20 15:41:06.86	261.28	25.90	-35.9	-36.7	22.6	0.00e+00	0	43	0	1959788544	42	3901
2026-01-20 15:41:07.85	261.58	25.93	-35.9	-36.7	22.6	0.00e+00	0	43	0	1967128576	42	3890
2026-01-20 15:41:08.85	261.88	25.94	-36.0	-36.8	22.5	0.00e+00	0	43	0	1974468608	42	3945
2026-01-20 15:41:09.84	262.18	25.96	-36.0	-36.8	22.6	0.00e+00	0	43	0	1981808640	42	3933
2026-01-20 15:41:10.83	262.47	25.98	-35.9	-36.8	22.6	0.00e+00	0	43	0	1989148672	42	3926
2026-01-20 15:41:11.83	262.78	26.00	-35.8	-36.7	22.7	0.00e+00	0	43	0	1995440128	42	3883
2026-01-20 15:41:12.82	263.07	26.01	-35.7	-36.5	22.8	0.00e+00	0	43	0	2002780160	42	3810
2026-01-20 15:41:13.82	263.38	26.03	-35.6	-36.5	22.8	0.00e+00	0	43	0	2010120192	42	3785
2026-01-20 15:41:14.81	263.68	26.04	-35.7	-36.5	22.8	0.00e+00	0	43	0	2017460224	42	3820
2026-01-20 15:41:15.81	263.98	26.06	-35.7	-36.5	22.8	0.00e+00	0	43	0	2024800256	42	3804
2026-01-20 15:41:16.80	264.28	26.07	-35.7	-36.5	22.8	0.00e+00	0	43	0	2032140288	42	3805
2026-01-20 15:41:17.80	264.58	26.08	-35.8	-36.6	22.7	0.00e+00	0	43	0	2039480320	42	3866
2026-01-20 15:41:18.79	264.88	26.10	-35.7	-36.6	22.8	0.00e+00	0	43	0	2046820352	42	3828
2026-01-20 15:41:19.79	265.19	26.11	-35.9	-36.7	22.7	0.00e+00	0	43	0	2053111808	42	3886
2026-01-20 15:41:20.78	265.49	26.12	-35.8	-36.6	22.7	0.00e+00	0	43	0	2060451840	42	3866
2026-01-20 15:41:21.78	265.79	26.12	-35.8	-36.6	22.8	0.00e+00	0	43	0	2067791872	42	3839
2026-01-20 15:41:22.77	266.10	26.13	-35.8	-36.6	22.7	0.00e+00	0	43	0	2075131904	42	3844
2026-01-20 15:41:23.77	266.40	26.14	-35.9	-36.7	22.6	0.00e+00	0	43	0	2082471936	42	3907
2026-01-20 15:41:24.76	266.70	26.15	-35.9	-36.7	22.6	0.00e+00	0	43	0	2089811968	42	3897
2026-01-20 15:41:25.76	267.01	26.15	-35.8	-36.6	22.7	0.00e+00	0	43	0	2096103424	42	3864
2026-01-20 15:41:26.75	267.31	26.16	-35.7	-36.6	22.7	0.00e+00	0	43	0	2103443456	42	3836
2026-01-20 15:41:27.75	267.61	26.16	-35.8	-36.6	22.7	0.00e+00	0	43	0	2110783488	42	3849
2026-01-20 15:41:28.74	267.92	26.16	-35.7	-36.5	22.8	0.00e+00	0	43	0	2118123520	42	3802
2026-01-20 15:41:29.74	268.22	26.17	-35.7	-36.5	22.8	0.00e+00	0	43	0	2125463552	42	3802
2026-01-20 15:41:30.73	268.52	26.17	-35.8	-36.6	22.7	0.00e+00	0	43	0	2132803584	42	3855
2026-01-20 15:41:31.73	268.83	26.17	-35.8	-36.6	22.7	0.00e+00	0	43	0	2139095040	42	3862
2026-01-20 15:41:32.72	269.13	26.17	-35.9	-36.7	22.6	0.00e+00	0	43	0	2146435072	42	3904
2026-01-20 15:41:33.72	269.44	26.17	-36.0	-36.8	22.6	0.00e+00	0	43	0	2153775104	42	3946
2026-01-20 15:41:34.71	269.74	26.16	-35.9	-36.8	22.6	0.00e+00	0	43	0	2161115136	42	3926
2026-01-20 15:41:35.71	270.04	26.16	-35.9	-36.8	22.6	0.00e+00	0	43	0	2168455168	42	3923
2026-01-20 15:41:36.70	270.34	26.16	-35.9	-36.8	22.6	0.00e+00	0	43	0	2175795200	42	3914
2026-01-20 15:41:37.70	270.65	26.15	-35.9	-36.7	22.6	0.00e+00	0	43	0	2183135232	42	3905
2026-01-20 15:41:38.69	270.95	26.15	-35.9	-36.7	22.7	0.00e+00	0	43	0	2190475264	42	3881
2026-01-20 15:41:39.68	271.25	26.14	-35.9	-36.7	22.6	0.00e+00	0	43	0	2196766720	42	3886
2026-01-20 15:41:40.68	271.56	26.13	-35.8	-36.6	22.7	0.00e+00	0	43	0	2204106752	42	3868
2026-01-20 15:41:41.67	271.86	26.13	-36.0	-36.9	22.6	0.00e+00	0	43	0	2211446784	42	3968
2026-01-20 15:41:42.67	272.16	26.12	-35.9	-36.7	22.6	0.00e+00	0	43	0	2218786816	42	3890
2026-01-20 15:41:43.66	272.46	26.11	-35.8	-36.6	22.7	0.00e+00	0	43	0	2226126848	42	3857
2026-01-20 15:41:44.65	272.76	26.10	-35.7	-36.6	22.8	0.00e+00	0	43	0	2233466880	42	3833
2026-01-20 15:41:45.65	273.07	26.09	-35.7	-36.5	22.8	0.00e+00	0	43	0	2239758336	42	3795
2026-01-20 15:41:46.64	273.37	26.07	-35.7	-36.5	22.8	0.00e+00	0	43	0	2247098368	41	4017
2026-01-20 15:41:47.64	273.67	26.06	-35.6	-36.4	22.9	0.00e+00	0	43	0	2254438400	41	3969
2026-01-20 15:41:48.63	273.97	26.05	-35.6	-36.5	22.9	0.00e+00	0	43	0	2261778432	41	4005
2026-01-20 15:41:49.63	274.27	26.03	-35.7	-36.6	22.7	0.00e+00	0	43	0	2269118464	41	4060
2026-01-20 15:41:50.62	274.57	26.02	-35.9	-36.7	22.6	0.00e+00	0	43	0	2276458496	41	4127
2026-01-20 15:41:51.61	274.87	26.00	-35.8	-36.7	22.6	0.00e+00	0	43	0	2282749952	41	4101
2026-01-20 15:41:52.61	275.17	25.98	-35.8	-36.7	22.6	0.00e+00	0	42	0	2290089984	41	4110
2026-01-20 15:41:53.60	275.47	25.97	-35.7	-36.6	22.7	0.00e+00	0	43	0	2297430016	41	4056
2026-01-20 15:41:54.60	275.77	25.95	-35.7	-36.5	22.8	0.00e+00	0	43	0	2304770048	41	4021
2026-01-20 15:41:55.59	276.07	25.93	-35.8	-36.6	22.7	0.00e+00	0	43	0	2312110080	41	4065
2026-01-20 15:41:56.59	276.37	25.91	-35.8	-36.7	22.7	0.00e+00	0	43	0	2319450112	41	4100
2026-01-20 15:41:57.58	276.67	25.89	-36.0	-36.9	22.5	0.00e+00	0	43	0	2326790144	41	4205
2026-01-20 15:41:58.58	276.97	25.87	-36.0	-36.8	22.5	0.00e+00	0	43	0	2333081600	41	4169
2026-01-20 15:41:59.57	277.26	25.84	-36.0	-36.9	22.5	0.00e+00	0	43	0	2340421632	41	4200
2026-01-20 15:42:00.57	277.56	25.82	-36.1	-37.0	22.4	0.00e+00	0	43	0	2347761664	41	4246
2026-01-20 15:42:01.56	277.86	25.80	-36.1	-37.0	22.4	0.00e+00	0	43	0	2355101696	41	4243
2026-01-20 15:42:02.56	278.15	25.77	-36.2	-37.0	22.2	0.00e+00	0	43	0	2362441728	41	4267
2026-01-20 15:42:03.55	278.45	25.74	-36.1	-36.9	22.5	0.00e+00	0	43	0	2369781760	41	4218
2026-01-20 15:42:04.54	278.74	25.72	-36.1	-36.9	22.5	0.00e+00	0	43	0	2377121792	41	4220
2026-01-20 15:42:05.54	279.04	25.69	-36.0	-36.8	22.5	0.00e+00	0	43	0	2383413248	41	4185
2026-01-20 15:42:06.53	279.33	25.66	-36.0	-36.8	22.5	0.00e+00	0	43	0	2390753280	41	4188
2026-01-20 15:42:07.53	279.63	25.63	-35.8	-36.6	22.7	0.00e+00	0	43	0	2398093312	41	4097
2026-01-20 15:42:08.52	279.92	25.60	-35.9	-36.7	22.6	0.00e+00	0	43	0	2405433344	41	4127
2026-01-20 15:42:09.52	280.21	25.57	-35.9	-36.7	22.7	0.00e+00	0	43	0	2412773376	41	4118
2026-01-20 15:42:10.51	280.50	25.54	-35.9	-36.7	22.6	0.00e+00	0	43	0	2420113408	41	4124
2026-01-20 15:42:11.51	280.80	25.51	-35.9	-36.8	22.6	0.00e+00	0	43	0	2426404864	41	4147
2026-01-20 15:42:12.50	281.09	25.48	-35.8	-36.6	22.7	0.00e+00	0	43	0	2433744896	41	4098
2026-01-20 15:42:13.50	281.38	25.45	-35.8	-36.6	22.6	0.00e+00	0	43	0	2441084928	41	4083
2026-01-20 15:42:14.49	281.67	25.41	-35.8	-36.6	22.8	0.00e+00	0	43	0	2448424960	41	4057
2026-01-20 15:42:15.49	281.96	25.38	-35.8	-36.7	22.7	0.00e+00	0	43	0	2455764992	41	4102
2026-01-20 15:42:16.48	282.24	25.34	-35.8	-36.6	22.7	0.00e+00	0	43	0	2462056448	41	4066
2026-01-20 15:42:17.48	282.53	25.31	-35.9	-36.7	22.6	0.00e+00	0	43	0	2469396480	41	4143
2026-01-20 15:42:18.47	282.82	25.27	-36.0	-36.9	22.5	0.00e+00	0	43	0	2476736512	41	4205
2026-01-20 15:42:19.47	283.11	25.23	-36.0	-36.9	22.5	0.00e+00	0	43	0	2484076544	41	4197
2026-01-20 15:42:20.46	283.39	25.19	-36.1	-37.0	22.4	0.00e+00	0	43	0	2491416576	41	4252
2026-01-20 15:42:21.45	283.67	25.16	-36.1	-36.9	22.4	0.00e+00	0	43	0	2498756608	41	4229
2026-01-20 15:42:22.45	283.96	25.12	-36.1	-36.9	22.4	0.00e+00	0	43	0	2506096640	41	4229
2026-01-20 15:42:23.45	284.24	25.08	-36.0	-36.9	22.4	0.00e+00	0	43	0	2513436672	41	4203
2026-01-20 15:42:24.44	284.53	25.04	-36.1	-36.9	22.5	0.00e+00	0	43	0	2520776704	41	4225
2026-01-20 15:42:25.43	284.81	24.99	-36.2	-37.0	22.4	0.00e+00	0	43	0	2527068160	41	4265
2026-01-20 15:42:26.43	285.09	24.95	-36.1	-36.9	22.4	0.00e+00	0	43	0	2534408192	41	4229
2026-01-20 15:42:27.42	285.37	24.91	-36.2	-37.1	22.3	0.00e+00	0	43	0	2541748224	41	4299
2026-01-20 15:42:28.42	285.65	24.87	-36.2	-37.1	22.3	0.00e+00	0	43	0	2549088256	41	4319
2026-01-20 15:42:29.41	285.93	24.82	-36.4	-37.2	22.2	0.00e+00	0	43	0	2556428288	42	4138
2026-01-20 15:42:30.41	286.21	24.78	-36.4	-37.3	22.1	0.00e+00	0	43	0	2562719744	42	4172
2026-01-20 15:42:31.40	286.48	24.73	-36.4	-37.3	22.2	0.00e+00	0	43	0	2570059776	42	4148
2026-01-20 15:42:32.40	286.76	24.69	-36.3	-37.2	22.2	0.00e+00	0	43	0	2577399808	42	4109
2026-01-20 15:42:33.39	287.04	24.64	-36.2	-37.0	22.3	0.00e+00	0	43	0	2584739840	42	4043
2026-01-20 15:42:34.39	287.31	24.59	-36.2	-37.1	22.3	0.00e+00	0	43	0	2592079872	42	4066
2026-01-20 15:42:35.38	287.59	24.55	-36.1	-36.9	22.5	0.00e+00	0	43	0	2599419904	42	3993
2026-01-20 15:42:36.37	287.86	24.50	-36.1	-36.9	22.4	0.00e+00	0	43	0	2605711360	42	3980
2026-01-20 15:42:37.37	288.13	24.45	-36.1	-36.9	22.4	0.00e+00	0	43	0	2613051392	42	3992
2026-01-20 15:42:38.36	288.40	24.40	-36.2	-37.0	22.4	0.00e+00	0	43	0	2620391424	42	4024
2026-01-20 15:42:39.36	288.68	24.35	-36.2	-37.1	22.3	0.00e+00	0	43	0	2627731456	42	4071
2026-01-20 15:42:40.35	288.95	24.30	-36.2	-37.1	22.3	0.00e+00	0	43	0	2635071488	42	4072
2026-01-20 15:42:41.35	289.22	24.25	-36.3	-37.2	22.2	0.00e+00	0	43	0	2642411520	42	4100
2026-01-20 15:42:42.34	289.48	24.20	-36.3	-37.2	22.3	0.00e+00	0	43	0	2649751552	42	4113
2026-01-20 15:42:43.34	289.75	24.14	-36.3	-37.1	22.3	0.00e+00	0	43	0	2657091584	42	4081
2026-01-20 15:42:44.33	290.02	24.09	-36.3	-37.2	22.2	0.00e+00	0	43	0	2664431616	42	4105
2026-01-20 15:42:45.33	290.29	24.04	-36.3	-37.2	22.2	0.00e+00	0	43	0	2670723072	42	4108
2026-01-20 15:42:46.33	290.55	23.98	-36.5	-37.4	22.0	0.00e+00	0	43	0	2678063104	42	4217
2026-01-20 15:42:47.32	290.81	23.93	-36.6	-37.4	22.0	0.00e+00	0	43	0	2685403136	42	4240
2026-01-20 15:42:48.31	291.08	23.88	-36.6	-37.5	22.0	0.00e+00	0	43	0	2692743168	42	4253
2026-01-20 15:42:49.31	291.34	23.82	-36.7	-37.5	21.9	0.00e+00	0	43	0	2700083200	42	4283
2026-01-20 15:42:50.30	291.60	23.76	-36.6	-37.5	22.0	0.00e+00	0	43	0	2706374656	43	4023
2026-01-20 15:42:51.30	291.86	23.71	-36.4	-37.3	22.1	0.00e+00	0	43	0	2713714688	43	3918
2026-01-20 15:42:52.29	292.12	23.65	-36.4	-37.3	22.1	0.00e+00	0	42	0	2721054720	43	3928
2026-01-20 15:42:53.29	292.38	23.59	-36.2	-37.0	22.4	0.00e+00	0	43	0	2728394752	43	3814
2026-01-20 15:42:54.28	292.64	23.54	-36.2	-37.1	22.3	0.00e+00	0	43	0	2735734784	43	3832
2026-01-20 15:42:55.28	292.89	23.48	-36.2	-37.0	22.3	0.00e+00	0	43	0	2743074816	43	3820
2026-01-20 15:42:56.27	293.15	23.42	-36.2	-37.0	22.4	0.00e+00	0	43	0	2749366272	42	4028
2026-01-20 15:42:57.27	293.40	23.36	-36.2	-37.0	22.3	0.00e+00	0	43	0	2756706304	42	4048
2026-01-20 15:42:58.26	293.66	23.30	-36.2	-37.1	22.3	0.00e+00	0	43	0	2764046336	42	4061
2026-01-20 15:42:59.25	293.91	23.24	-36.4	-37.2	22.2	0.00e+00	0	43	0	2771386368	42	4135
2026-01-20 15:43:00.25	294.16	23.18	-36.3	-37.1	22.2	0.00e+00	0	43	0	2778726400	42	4094
2026-01-20 15:43:01.24	294.41	23.12	-36.4	-37.2	22.1	0.00e+00	0	43	0	2786066432	42	4124
2026-01-20 15:43:02.24	294.66	23.06	-36.4	-37.2	22.2	0.00e+00	0	43	0	2793406464	42	4140
2026-01-20 15:43:03.24	294.91	23.00	-36.6	-37.4	22.0	0.00e+00	0	43	0	2800746496	42	4231
2026-01-20 15:43:04.23	295.16	22.94	-36.6	-37.4	22.0	0.00e+00	0	43	0	2807037952	42	4230
2026-01-20 15:43:05.22	295.41	22.87	-36.7	-37.5	21.9	0.00e+00	0	43	0	2814377984	42	4283
2026-01-20 15:43:06.22	295.65	22.81	-36.8	-37.7	21.7	0.00e+00	0	43	0	2821718016	43	4115
2026-01-20 15:43:07.21	295.90	22.75	-36.8	-37.7	21.8	0.00e+00	0	43	0	2829058048	43	4117
2026-01-20 15:43:08.21	296.14	22.68	-36.8	-37.6	21.8	0.00e+00	0	43	0	2836398080	43	4093
2026-01-20 15:43:09.20	296.39	22.62	-36.8	-37.7	21.8	0.00e+00	0	43	0	2843738112	43	4116
2026-01-20 15:43:10.20	296.63	22.56	-36.8	-37.7	21.8	0.00e+00	0	43	0	2850029568	43	4116
2026-01-20 15:43:11.19	296.87	22.49	-36.8	-37.7	21.8	0.00e+00	0	43	0	2857369600	43	4130
2026-01-20 15:43:12.19	297.11	22.43	-36.8	-37.7	21.8	0.00e+00	0	43	0	2864709632	43	4122
2026-01-20 15:43:13.18	297.35	22.36	-36.8	-37.7	21.8	0.00e+00	0	43	0	2872049664	43	4102
2026-01-20 15:43:14.18	297.59	22.30	-36.9	-37.8	21.7	0.00e+00	0	43	0	2879389696	43	4163
2026-01-20 15:43:15.17	297.82	22.23	-36.7	-37.6	21.8	0.00e+00	0	43	0	2886729728	43	4068
2026-01-20 15:43:16.17	298.06	22.16	-36.8	-37.6	21.8	0.00e+00	0	43	0	2893021184	43	4094
2026-01-20 15:43:17.16	298.30	22.10	-36.6	-37.5	21.9	0.00e+00	0	43	0	2900361216	43	4024
2026-01-20 15:43:18.16	298.53	22.03	-36.7	-37.5	21.9	0.00e+00	0	43	0	2907701248	43	4049
2026-01-20 15:43:19.15	298.76	21.96	-36.6	-37.5	21.9	0.00e+00	0	43	0	2915041280	43	4015
2026-01-20 15:43:20.15	299.00	21.90	-36.7	-37.6	21.8	0.00e+00	0	43	0	2922381312	43	4079
2026-01-20 15:43:21.14	299.23	21.83	-36.8	-37.7	21.8	0.00e+00	0	43	0	2929721344	43	4103
2026-01-20 15:43:22.13	299.46	21.76	-36.8	-37.7	21.8	0.00e+00	0	43	0	2937061376	43	4121
2026-01-20 15:43:23.13	299.69	21.69	-36.8	-37.7	21.8	0.00e+00	0	43	0	2943352832	43	4109
2026-01-20 15:43:24.12	299.91	21.63	-36.8	-37.7	21.8	0.00e+00	0	43	0	2950692864	43	4120
2026-01-20 15:43:25.11	300.14	21.56	-36.7	-37.6	21.8	0.00e+00	0	43	0	2958032896	43	4070
2026-01-20 15:43:26.11	300.37	21.49	-36.8	-37.7	21.7	0.00e+00	0	43	0	2965372928	43	4121
2026-01-20 15:43:27.11	300.59	21.42	-37.0	-37.8	21.6	0.00e+00	0	43	0	2972712960	43	4182
2026-01-20 15:43:28.10	300.82	21.35	-36.8	-37.7	21.7	0.00e+00	0	43	0	2980052992	43	4125
2026-01-20 15:43:29.09	301.04	21.28	-36.9	-37.7	21.7	0.00e+00	0	42	0	2987393024	43	4140
2026-01-20 15:43:30.09	301.26	21.21	-36.9	-37.8	21.7	0.00e+00	0	43	0	2993684480	43	4160
2026-01-20 15:43:31.08	301.48	21.14	-37.0	-37.9	21.6	0.00e+00	0	42	0	3001024512	43	4195
2026-01-20 15:43:32.08	301.71	21.07	-37.1	-37.9	21.5	0.00e+00	0	42	0	3008364544	43	4240
2026-01-20 15:43:33.07	301.92	21.00	-37.1	-38.0	21.5	0.00e+00	0	42	0	3015704576	43	4246
2026-01-20 15:43:34.06	302.14	20.93	-37.0	-37.9	21.5	0.00e+00	0	43	0	3023044608	43	4202
2026-01-20 15:43:35.06	302.36	20.86	-37.1	-38.0	21.5	0.00e+00	0	43	0	3030384640	43	4276
2026-01-20 15:43:36.05	302.58	20.78	-37.0	-37.8	21.6	0.00e+00	0	43	0	3036676096	43	4193
2026-01-20 15:43:37.05	302.79	20.71	-37.0	-37.9	21.6	0.00e+00	0	43	0	3044016128	43	4209
2026-01-20 15:43:38.04	303.01	20.64	-37.0	-37.9	21.5	0.00e+00	0	43	0	3051356160	43	4205
2026-01-20 15:43:39.04	303.22	20.57	-37.0	-37.8	21.6	0.00e+00	0	43	0	3058696192	43	4185
2026-01-20 15:43:40.03	303.43	20.50	-36.9	-37.8	21.7	0.00e+00	0	43	0	3066036224	43	4151
2026-01-20 15:43:41.03	303.64	20.43	-36.9	-37.8	21.6	0.00e+00	0	43	0	3073376256	43	4167
2026-01-20 15:43:42.02	303.85	20.35	-36.9	-37.7	21.7	0.00e+00	0	42	0	3079667712	43	4137
2026-01-20 15:43:43.02	304.06	20.28	-36.9	-37.7	21.7	0.00e+00	0	43	0	3087007744	43	4133
2026-01-20 15:43:44.01	304.27	20.21	-37.0	-37.9	21.5	0.00e+00	0	43	0	3094347776	43	4212
2026-01-20 15:43:45.01	304.48	20.13	-37.2	-38.0	21.4	0.00e+00	0	43	0	3101687808	43	4283
2026-01-20 15:43:46.00	304.69	20.06	-37.2	-38.1	21.3	0.00e+00	0	43	0	3109027840	43	4315
2026-01-20 15:43:46.99	304.89	19.99	-37.3	-38.1	21.3	0.00e+00	0	42	0	3116367872	43	4339
2026-01-20 15:43:47.99	305.10	19.92	-37.5	-38.5	21.2	0.00e+00	0	43	0	3123707904	44	4243
2026-01-20 15:43:48.98	305.30	19.84	-37.6	-38.5	21.1	0.00e+00	0	43	0	3131047936	44	4278
2026-01-20 15:43:49.98	305.50	19.77	-37.6	-38.6	21.1	0.00e+00	0	43	0	3137339392	44	4300
2026-01-20 15:43:50.97	305.71	19.69	-37.7	-38.6	21.1	0.00e+00	0	43	0	3144679424	44	4317
2026-01-20 15:43:51.97	305.91	19.62	-37.8	-38.7	21.0	0.00e+00	0	42	0	3152019456	44	4360
2026-01-20 15:43:52.96	306.11	19.55	-37.7	-38.6	21.0	0.00e+00	0	43	0	3159359488	45	4080
2026-01-20 15:43:53.95	306.30	19.47	-37.8	-38.7	21.0	0.00e+00	0	43	0	3166699520	45	4123
2026-01-20 15:43:54.95	306.50	19.40	-37.8	-38.7	21.0	0.00e+00	0	43	0	3174039552	45	4131
2026-01-20 15:43:55.94	306.70	19.32	-37.7	-38.6	21.1	0.00e+00	0	43	0	3180331008	45	4063
2026-01-20 15:43:56.94	306.90	19.25	-37.6	-38.5	21.1	0.00e+00	0	43	0	3187671040	45	4050
2026-01-20 15:43:57.93	307.09	19.18	-37.6	-38.5	21.1	0.00e+00	0	43	0	3195011072	45	4051
2026-01-20 15:43:58.93	307.29	19.10	-37.6	-38.5	21.1	0.00e+00	0	43	0	3202351104	45	4027
2026-01-20 15:43:59.92	307.48	19.03	-37.7	-38.6	21.1	0.00e+00	0	43	0	3209691136	45	4066
2026-01-20 15:44:00.92	307.67	18.95	-37.6	-38.5	21.2	0.00e+00	0	43	0	3217031168	45	4015
2026-01-20 15:44:01.91	307.86	18.88	-37.6	-38.5	21.1	0.00e+00	0	42	0	3223322624	45	4013
2026-01-20 15:44:02.91	308.06	18.80	-37.6	-38.4	21.2	0.00e+00	0	42	0	3230662656	45	4004
2026-01-20 15:44:03.90	308.24	18.73	-37.5	-38.4	21.3	0.00e+00	0	42	0	3238002688	45	3966
2026-01-20 15:44:04.89	308.43	18.65	-37.6	-38.5	21.1	0.00e+00	0	43	0	3245342720	45	4010
2026-01-20 15:44:05.89	308.62	18.58	-37.6	-38.5	21.1	0.00e+00	0	43	0	3252682752	45	4030
2026-01-20 15:44:06.88	308.81	18.50	-37.5	-38.4	21.2	0.00e+00	0	43	0	3260022784	45	3968
2026-01-20 15:44:07.88	308.99	18.43	-37.7	-38.6	21.1	0.00e+00	0	42	0	3266314240	45	4070
2026-01-20 15:44:08.87	309.18	18.35	-37.7	-38.6	21.0	0.00e+00	0	43	0	3273654272	45	4068
2026-01-20 15:44:09.87	309.36	18.28	-37.7	-38.7	20.9	0.00e+00	0	43	0	3280994304	45	4106
2026-01-20 15:44:10.86	309.55	18.20	-37.8	-38.8	20.9	0.00e+00	0	43	0	3288334336	45	4149
2026-01-20 15:44:11.86	309.73	18.12	-37.9	-38.9	20.8	0.00e+00	0	43	0	3295674368	45	4217
2026-01-20 15:44:12.85	309.91	18.05	-38.1	-39.0	20.6	0.00e+00	0	43	0	3303014400	45	4275
2026-01-20 15:44:13.84	310.09	17.97	-38.1	-39.0	20.7	0.00e+00	0	43	0	3310354432	45	4277
2026-01-20 15:44:14.84	310.27	17.90	-38.2	-39.2	20.5	0.00e+00	0	43	0	3317694464	45	4355
2026-01-20 15:44:15.83	310.45	17.82	-38.2	-39.2	20.5	0.00e+00	0	42	0	3323985920	45	4347
2026-01-20 15:44:16.83	310.63	17.75	-38.2	-39.1	20.5	0.00e+00	0	43	0	3331325952	45	4333
2026-01-20 15:44:17.83	310.81	17.67	-38.0	-39.0	20.7	0.00e+00	0	43	0	3338665984	45	4255
2026-01-20 15:44:18.82	310.98	17.59	-37.9	-38.8	20.8	0.00e+00	0	43	0	3346006016	45	4184
2026-01-20 15:44:19.82	311.16	17.52	-37.7	-38.7	21.0	0.00e+00	0	42	0	3353346048	45	4099
2026-01-20 15:44:20.81	311.33	17.44	-37.7	-38.6	21.0	0.00e+00	0	43	0	3360686080	45	4078
2026-01-20 15:44:21.81	311.51	17.37	-37.6	-38.5	21.1	0.00e+00	0	43	0	3366977536	45	4037
2026-01-20 15:44:22.80	311.68	17.29	-37.6	-38.5	21.1	0.00e+00	0	43	0	3374317568	45	4021
2026-01-20 15:44:23.80	311.85	17.22	-37.6	-38.5	21.1	0.00e+00	0	42	0	3381657600	45	4023
2026-01-20 15:44:24.79	312.02	17.14	-37.7	-38.6	21.0	0.00e+00	0	43	0	3388997632	45	4055
2026-01-20 15:44:25.79	312.20	17.06	-37.6	-38.5	21.1	0.00e+00	0	43	0	3396337664	45	4050
2026-01-20 15:44:26.78	312.36	16.99	-37.8	-38.7	20.9	0.00e+00	0	43	0	3403677696	45	4103
2026-01-20 15:44:27.78	312.53	16.91	-37.7	-38.6	21.0	0.00e+00	0	42	0	3409969152	45	4078
2026-01-20 15:44:28.77	312.70	16.84	-37.9	-38.8	20.8	0.00e+00	0	42	0	3417309184	45	4156
2026-01-20 15:44:29.76	312.87	16.76	-38.0	-38.9	20.7	0.00e+00	0	43	0	3424649216	45	4235
2026-01-20 15:44:30.76	313.03	16.69	-38.2	-39.2	20.5	0.00e+00	0	42	0	3431989248	45	4341
2026-01-20 15:44:31.75	313.20	16.61	-38.4	-39.3	20.3	0.00e+00	0	43	0	3439329280	46	4191
2026-01-20 15:44:32.75	313.37	16.53	-38.5	-39.5	20.2	0.00e+00	0	42	0	3446669312	46	4247
2026-01-20 15:44:33.74	313.53	16.46	-38.6	-39.6	20.1	0.00e+00	0	42	0	3454009344	46	4336
2026-01-20 15:44:34.74	313.69	16.38	-38.8	-39.8	19.9	0.00e+00	0	42	0	3461349376	47	4178
2026-01-20 15:44:35.73	313.85	16.31	-38.8	-39.8	19.9	0.00e+00	0	42	0	3467640832	47	4160
2026-01-20 15:44:36.73	314.02	16.23	-38.7	-39.7	20.0	0.00e+00	0	42	0	3474980864	47	4126
2026-01-20 15:44:37.72	314.18	16.16	-38.6	-39.6	20.1	0.00e+00	0	42	0	3482320896	47	4053
2026-01-20 15:44:38.72	314.34	16.08	-38.5	-39.5	20.1	0.00e+00	0	43	0	3489660928	47	4047
2026-01-20 15:44:39.71	314.50	16.00	-38.4	-39.3	20.3	0.00e+00	0	42	0	3497000960	47	3955
2026-01-20 15:44:40.70	314.65	15.93	-38.3	-39.3	20.4	0.00e+00	0	42	0	3503292416	47	3929
2026-01-20 15:44:41.70	314.81	15.85	-38.3	-39.3	20.4	0.00e+00	0	42	0	3510632448	47	3931
2026-01-20 15:44:42.69	314.97	15.78	-38.2	-39.1	20.5	0.00e+00	0	43	0	3517972480	47	3855
2026-01-20 15:44:43.69	315.12	15.70	-38.1	-39.1	20.6	0.00e+00	0	42	0	3525312512	47	3828
2026-01-20 15:44:44.68	315.28	15.63	-38.1	-39.0	20.6	0.00e+00	0	43	0	3532652544	46	4036
2026-01-20 15:44:45.67	315.43	15.55	-38.0	-38.9	20.7	0.00e+00	0	43	0	3539992576	46	3987
2026-01-20 15:44:46.67	315.59	15.48	-38.0	-38.9	20.7	0.00e+00	0	43	0	3546284032	46	3997
2026-01-20 15:44:47.66	315.74	15.40	-37.9	-38.8	20.7	0.00e+00	0	43	0	3553624064	46	3951
2026-01-20 15:44:48.66	315.89	15.33	-37.9	-38.9	20.7	0.00e+00	0	42	0	3560964096	46	3961
2026-01-20 15:44:49.65	316.04	15.25	-38.0	-38.9	20.7	0.00e+00	0	43	0	3568304128	46	3989
2026-01-20 15:44:50.65	316.20	15.18	-38.0	-38.9	20.6	0.00e+00	0	43	0	3575644160	46	4001
2026-01-20 15:44:51.64	316.35	15.10	-38.1	-39.1	20.6	0.00e+00	0	42	0	3582984192	46	4064
2026-01-20 15:44:52.64	316.50	15.02	-38.2	-39.2	20.4	0.00e+00	0	42	0	3590324224	46	4119
2026-01-20 15:44:53.63	316.64	14.95	-38.3	-39.3	20.3	0.00e+00	0	42	0	3597664256	46	4188
2026-01-20 15:44:54.62	316.79	14.88	-38.5	-39.5	20.1	0.00e+00	0	42	0	3603955712	46	4285
2026-01-20 15:44:55.62	316.94	14.80	-38.7	-39.8	19.9	0.00e+00	0	42	0	3611295744	47	4148
2026-01-20 15:44:56.61	317.08	14.73	-39.0	-40.0	19.7	0.00e+00	0	42	0	3618635776	47	4274
2026-01-20 15:44:57.61	317.23	14.65	-39.0	-40.0	19.6	0.00e+00	0	42	0	3625975808	47	4291
2026-01-20 15:44:58.60	317.37	14.58	-39.1	-40.1	19.5	0.00e+00	0	42	0	3633315840	47	4340
2026-01-20 15:44:59.60	317.52	14.50	-39.2	-40.3	19.5	0.00e+00	0	42	0	3640655872	47	4395
2026-01-20 15:45:00.56	317.66	14.43	-39.1	-40.2	19.5	0.00e+00	0	43	0	3646947328	47	4355
2026-01-20 15:45:01.56	317.80	14.35	-39.2	-40.2	19.5	0.00e+00	0	43	0	3654287360	47	4359
2026-01-20 15:45:02.55	317.94	14.28	-39.4	-40.4	19.6	0.00e+00	0	43	0	3661627392	48	4212
2026-01-20 15:45:03.54	318.08	14.21	-39.3	-40.3	19.6	0.00e+00	0	42	0	3668967424	48	4180
2026-01-20 15:45:04.54	318.23	14.13	-39.2	-40.2	19.7	0.00e+00	0	42	0	3676307456	48	4125
2026-01-20 15:45:05.53	318.37	14.06	-39.2	-40.2	19.8	0.00e+00	0	42	0	3683647488	48	4108
2026-01-20 15:45:06.53	318.51	13.98	-38.9	-39.9	20.0	0.00e+00	0	42	0	3689938944	48	3974
2026-01-20 15:45:07.52	318.64	13.91	-38.9	-39.9	20.0	0.00e+00	0	42	0	3697278976	48	3990
2026-01-20 15:45:08.52	318.78	13.84	-39.0	-39.9	20.0	0.00e+00	0	42	0	3704619008	48	4000
2026-01-20 15:45:09.51	318.92	13.76	-38.8	-39.8	20.1	0.00e+00	0	43	0	3711959040	48	3919
2026-01-20 15:45:10.51	319.06	13.69	-38.8	-39.8	20.1	0.00e+00	0	42	0	3719299072	48	3922
2026-01-20 15:45:11.50	319.19	13.61	-38.7	-39.7	20.2	0.00e+00	0	42	0	3726639104	48	3882
2026-01-20 15:45:12.50	319.33	13.54	-38.5	-39.5	20.1	0.00e+00	0	42	0	3732930560	47	4027
2026-01-20 15:45:13.49	319.46	13.47	-38.5	-39.5	20.1	0.00e+00	0	42	0	3740270592	47	4018
2026-01-20 15:45:14.49	319.60	13.39	-38.6	-39.6	20.0	0.00e+00	0	43	0	3747610624	47	4058
2026-01-20 15:45:15.48	319.73	13.32	-38.5	-39.5	20.1	0.00e+00	0	42	0	3754950656	47	4034
2026-01-20 15:45:16.48	319.87	13.25	-38.5	-39.5	20.1	0.00e+00	0	42	0	3762290688	47	4029
2026-01-20 15:45:17.47	320.00	13.17	-38.6	-39.7	20.0	0.00e+00	0	43	0	3768582144	47	4099
2026-01-20 15:45:18.47	320.13	13.10	-38.8	-39.8	19.8	0.00e+00	0	43	0	3775922176	47	4180
2026-01-20 15:45:19.46	320.26	13.03	-38.8	-39.8	19.8	0.00e+00	0	42	0	3783262208	47	4170
2026-01-20 15:45:20.46	320.39	12.95	-38.8	-39.8	19.8	0.00e+00	0	42	0	3790602240	47	4179
2026-01-20 15:45:21.45	320.52	12.88	-39.0	-40.0	19.6	0.00e+00	0	43	0	3797942272	47	4275
2026-01-20 15:45:22.45	320.65	12.81	-38.9	-40.0	19.6	0.00e+00	0	42	0	3805282304	47	4265
2026-01-20 15:45:23.44	320.78	12.74	-39.2	-40.3	19.4	0.00e+00	0	42	0	3812622336	47	4392
2026-01-20 15:45:24.44	320.91	12.66	-39.2	-40.2	19.4	0.00e+00	0	42	0	3819962368	47	4375
2026-01-20 15:45:25.43	321.03	12.59	-39.2	-40.2	19.4	0.00e+00	0	43	0	3827302400	47	4364
2026-01-20 15:45:26.43	321.16	12.52	-39.1	-40.2	19.4	0.00e+00	0	43	0	3833593856	47	4369
2026-01-20 15:45:27.42	321.29	12.45	-39.3	-40.4	19.5	0.00e+00	0	42	0	3840933888	48	4196
2026-01-20 15:45:28.42	321.41	12.37	-39.3	-40.4	19.5	0.00e+00	0	42	0	3848273920	48	4196
2026-01-20 15:45:29.41	321.54	12.30	-39.4	-40.4	19.5	0.00e+00	0	43	0	3855613952	48	4216
2026-01-20 15:45:30.41	321.66	12.23	-39.3	-40.4	19.5	0.00e+00	0	42	0	3862953984	48	4195
2026-01-20 15:45:31.41	321.79	12.16	-39.4	-40.4	19.5	0.00e+00	0	42	0	3870294016	48	4233
2026-01-20 15:45:32.40	321.91	12.08	-39.3	-40.4	19.5	0.00e+00	0	42	0	3876585472	48	4207
2026-01-20 15:45:33.40	322.03	12.01	-39.3	-40.4	19.5	0.00e+00	0	42	0	3883925504	48	4196
2026-01-20 15:45:34.39	322.15	11.94	-39.4	-40.4	19.4	0.00e+00	0	42	0	3891265536	48	4228
2026-01-20 15:45:35.38	322.28	11.87	-39.4	-40.4	19.4	0.00e+00	0	43	0	3898605568	48	4218
2026-01-20 15:45:36.38	322.40	11.80	-39.3	-40.4	19.5	0.00e+00	0	42	0	3905945600	48	4195
2026-01-20 15:45:37.37	322.52	11.73	-39.3	-40.3	19.6	0.00e+00	0	43	0	3912237056	48	4163
2026-01-20 15:45:38.37	322.64	11.66	-39.4	-40.4	19.4	0.00e+00	0	42	0	3919577088	48	4220
2026-01-20 15:45:39.36	322.76	11.58	-39.2	-40.2	19.7	0.00e+00	0	42	0	3926917120	48	4104
2026-01-20 15:45:40.36	322.88	11.51	-39.2	-40.2	19.7	0.00e+00	0	42	0	3934257152	48	4108
2026-01-20 15:45:41.35	322.99	11.44	-39.1	-40.2	19.6	0.00e+00	0	42	0	3941597184	48	4111
2026-01-20 15:45:42.35	323.11	11.37	-39.2	-40.2	19.6	0.00e+00	0	42	0	3948937216	48	4133
2026-01-20 15:45:43.34	323.23	11.30	-39.2	-40.3	19.5	0.00e+00	0	42	0	3956277248	48	4173
2026-01-20 15:45:44.34	323.35	11.23	-39.1	-40.2	19.6	0.00e+00	0	43	0	3963617280	48	4115
2026-01-20 15:45:45.33	323.46	11.16	-39.2	-40.3	19.5	0.00e+00	0	42	0	3970957312	48	4170
2026-01-20 15:45:46.33	323.58	11.09	-39.2	-40.3	19.5	0.00e+00	0	43	0	3977248768	48	4176
2026-01-20 15:45:47.32	323.69	11.02	-39.2	-40.4	19.5	0.00e+00	0	42	0	3984588800	48	4196
2026-01-20 15:45:48.32	323.81	10.95	-39.2	-40.3	19.5	0.00e+00	0	42	0	3991928832	48	4167
2026-01-20 15:45:49.31	323.92	10.88	-39.3	-40.4	19.4	0.00e+00	0	42	0	3999268864	48	4228
2026-01-20 15:45:50.31	324.03	10.81	-39.3	-40.5	19.4	0.00e+00	0	42	0	4006608896	48	4245
2026-01-20 15:45:51.30	324.15	10.74	-39.3	-40.4	19.3	0.00e+00	0	42	0	4013948928	48	4231
2026-01-20 15:45:52.29	324.26	10.67	-39.3	-40.4	19.4	0.00e+00	0	42	0	4020240384	48	4211
2026-01-20 15:45:53.29	324.37	10.60	-39.4	-40.5	19.4	0.00e+00	0	42	0	4027580416	48	4249
2026-01-20 15:45:54.28	324.48	10.53	-39.4	-40.5	19.3	0.00e+00	0	42	0	4034920448	48	4267
2026-01-20 15:45:55.28	324.59	10.46	-39.4	-40.5	19.3	0.00e+00	0	42	0	4042260480	48	4248
2026-01-20 15:45:56.27	324.70	10.39	-39.5	-40.6	19.3	0.00e+00	0	42	0	4049600512	48	4301
2026-01-20 15:45:57.26	324.81	10.32	-39.6	-40.7	19.1	0.00e+00	0	42	0	4055891968	48	4379
2026-01-20 15:45:58.26	324.92	10.25	-39.6	-40.8	19.0	0.00e+00	0	42	0	4063232000	48	4402
2026-01-20 15:45:59.25	325.03	10.18	-39.6	-40.7	19.1	0.00e+00	0	42	0	4070572032	48	4358
2026-01-20 15:46:00.25	325.14	10.11	-39.7	-40.9	19.0	0.00e+00	0	42	0	4077912064	48	4452
2026-01-20 15:46:01.24	325.24	10.05	-39.6	-40.8	19.0	0.00e+00	0	42	0	4085252096	49	4161
2026-01-20 15:46:02.23	325.35	9.98	-39.7	-40.9	18.9	0.00e+00	0	42	0	4092592128	49	4221
2026-01-20 15:46:03.23	325.46	9.91	-39.7	-40.8	19.0	0.00e+00	0	42	0	4098883584	49	4193
2026-01-20 15:46:04.22	325.56	9.84	-39.8	-41.0	18.8	0.00e+00	0	42	0	4106223616	49	4265
2026-01-20 15:46:05.22	325.67	9.77	-39.7	-41.0	18.8	0.00e+00	0	43	0	4113563648	49	4250
2026-01-20 15:46:06.21	325.78	9.70	-39.9	-41.2	18.6	0.00e+00	0	42	0	4120903680	49	4351
2026-01-20 15:46:07.21	325.88	9.63	-39.9	-41.1	18.7	0.00e+00	0	43	0	4128243712	49	4328
2026-01-20 15:46:08.21	325.99	9.57	-40.0	-41.2	18.6	0.00e+00	0	42	0	4135583744	49	4367
2026-01-20 15:46:09.20	326.09	9.50	-39.9	-41.1	18.7	0.00e+00	0	42	0	4142923776	49	4300
2026-01-20 15:46:10.20	326.19	9.43	-40.1	-41.3	18.5	0.00e+00	0	42	0	4150263808	49	4408
2026-01-20 15:46:11.19	326.30	9.36	-40.0	-41.2	18.6	0.00e+00	0	42	0	4157603840	49	4376
2026-01-20 15:46:12.19	326.40	9.29	-40.1	-41.3	18.5	0.00e+00	0	43	0	4163895296	49	4412
2026-01-20 15:46:13.18	326.50	9.23	-40.3	-41.5	18.3	0.00e+00	0	42	0	4171235328	50	4264
2026-01-20 15:46:14.18	326.60	9.16	-40.2	-41.3	18.5	0.00e+00	0	42	0	4178575360	50	4167
2026-01-20 15:46:15.17	326.70	9.09	-40.2	-41.3	18.4	0.00e+00	0	42	0	4185915392	50	4183
2026-01-20 15:46:16.17	326.81	9.02	-40.2	-41.3	18.4	0.00e+00	0	42	0	4193255424	50	4191
2026-01-20 15:46:17.16	326.91	8.96	-48.8	-60.4	3.8	7.70e-01	0	42	104	4198498304	66	14995
2026-01-20 15:46:18.16	327.01	8.89	-49.9	-61.2	3.8	8.48e-01	0	42	104	4198498304	69	13863
2026-01-20 15:46:19.15	327.11	8.82	-50.1	-61.5	3.8	8.47e-01	0	42	104	4198498304	70	13564
2026-01-20 15:46:20.14	327.20	8.76	-50.4	-61.7	3.8	8.46e-01	0	42	104	4198498304	70	13822
2026-01-20 15:46:21.14	327.30	8.69	-50.6	-61.7	3.8	8.46e-01	0	42	104	4198498304	70	13878
2026-01-20 15:46:22.13	327.40	8.62	-50.9	-61.7	3.8	8.45e-01	0	42	104	4198498304	71	13103
2026-01-20 15:46:23.12	327.50	8.56	-50.0	-61.9	3.8	8.46e-01	0	42	104	4198498304	70	14141
2026-01-20 15:46:24.12	327.60	8.49	-50.8	-61.8	3.8	8.46e-01	0	42	104	4198498304	71	13259
2026-01-20 15:46:25.11	327.69	8.42	-51.2	-61.9	3.8	8.47e-01	0	42	104	4198498304	71	13327
2026-01-20 15:46:26.10	327.79	8.36	-50.8	-61.9	3.8	8.46e-01	0	42	104	4198498304	71	13322
2026-01-20 15:46:27.10	327.89	8.29	-51.2	-61.9	3.8	8.47e-01	0	42	104	4198498304	71	13324
2026-01-20 15:46:28.09	327.98	8.23	-51.1	-61.9	3.8	8.48e-01	0	42	104	4198498304	71	13330
2026-01-20 15:46:29.08	328.08	8.16	-51.0	-61.9	3.8	8.47e-01	0	42	104	4198498304	71	13344
2026-01-20 15:46:30.08	328.17	8.09	-50.9	-62.0	3.8	8.46e-01	0	42	104	4198498304	71	13451
2026-01-20 15:46:31.07	328.26	8.03	-51.1	-61.9	3.8	8.46e-01	0	42	104	4198498304	72	12580
2026-01-20 15:46:32.06	328.36	7.96	-51.1	-61.9	3.8	8.47e-01	0	42	104	4198498304	72	12602
2026-01-20 15:46:33.06	328.45	7.90	-51.2	-61.9	3.8	8.46e-01	0	42	104	4198498304	72	12592
2026-01-20 15:46:34.05	328.55	7.83	-51.1	-61.9	3.8	8.47e-01	0	42	104	4198498304	72	12588
2026-01-20 15:46:35.04	328.64	7.77	-51.1	-61.8	3.8	8.47e-01	0	42	104	4198498304	72	12512
2026-01-20 15:46:36.04	328.73	7.70	-51.1	-61.9	3.8	8.46e-01	0	42	104	4198498304	72	12573
2026-01-20 15:46:37.03	328.82	7.64	-50.9	-61.9	3.8	8.48e-01	0	42	104	4198498304	72	12530
2026-01-20 15:46:38.02	328.91	7.57	-51.0	-61.8	3.8	8.47e-01	0	42	104	4198498304	72	12503
2026-01-20 15:46:39.01	329.00	7.51	-50.9	-61.8	3.8	8.46e-01	0	42	104	4198498304	72	12447
2026-01-20 15:46:40.01	329.10	7.44	-50.9	-61.8	3.8	8.48e-01	0	42	104	4198498304	72	12411
2026-01-20 15:46:41.00	329.19	7.38	-50.9	-61.8	3.8	8.48e-01	0	42	104	4198498304	72	12432
2026-01-20 15:46:41.99	329.28	7.32	-50.9	-61.9	3.8	8.46e-01	0	42	104	4198498304	72	12570
2026-01-20 15:46:42.99	329.37	7.25	-50.8	-61.8	3.8	8.46e-01	0	42	104	4198498304	72	12463
2026-01-20 15:46:43.98	329.46	7.19	-50.9	-61.8	3.8	8.48e-01	0	42	104	4198498304	72	12431
2026-01-20 15:46:44.97	329.54	7.12	-50.9	-61.8	3.8	8.47e-01	0	42	104	4198498304	72	12478
2026-01-20 15:46:45.97	329.63	7.06	-50.9	-61.8	3.8	8.47e-01	0	42	104	4198498304	72	12514
2026-01-20 15:46:46.96	329.72	7.00	-50.9	-61.9	3.8	8.48e-01	0	42	104	4198498304	72	12540
2026-01-20 15:46:47.95	329.81	6.93	-50.8	-61.7	3.8	8.48e-01	0	42	104	4198498304	72	12368
2026-01-20 15:46:48.94	329.90	6.87	-50.9	-61.8	3.8	8.47e-01	0	42	104	4198498304	72	12448
2026-01-20 15:46:49.94	329.98	6.80	-50.9	-61.8	3.8	8.48e-01	0	42	104	4198498304	72	12456
2026-01-20 15:46:50.93	330.07	6.74	-50.9	-61.8	3.8	8.47e-01	0	42	104	4198498304	72	12466
2026-01-20 15:46:51.92	330.16	6.68	-50.8	-61.8	3.8	8.48e-01	0	42	104	4198498304	72	12461
2026-01-20 15:46:52.91	330.24	6.61	-50.9	-61.8	3.8	8.47e-01	0	43	104	4198498304	72	12450
2026-01-20 15:46:53.91	330.33	6.55	-50.9	-61.9	3.8	8.47e-01	0	42	104	4198498304	72	12561
2026-01-20 15:46:54.90	330.41	6.49	-50.9	-61.8	3.8	8.47e-01	0	42	104	4198498304	72	12439
2026-01-20 15:46:55.89	330.50	6.43	-50.8	-61.8	3.8	8.46e-01	0	42	104	4198498304	72	12377
2026-01-20 15:46:56.89	330.58	6.36	-50.8	-61.7	3.8	8.47e-01	0	42	104	4198498304	72	12365
2026-01-20 15:46:57.88	330.67	6.30	-50.8	-61.8	3.8	8.47e-01	0	42	104	4198498304	72	12446
2026-01-20 15:46:58.87	330.75	6.24	-50.8	-61.8	3.8	8.47e-01	0	42	104	4198498304	72	12412
2026-01-20 15:46:59.87	330.83	6.17	-50.8	-61.8	3.8	8.48e-01	0	42	104	4198498304	72	12447
2026-01-20 15:47:00.85	330.92	6.11	-50.8	-61.8	3.8	8.47e-01	0	42	104	4198498304	72	12465
2026-01-20 15:47:01.85	331.00	6.05	-50.8	-61.8	3.8	8.46e-01	0	42	104	4198498304	72	12471
2026-01-20 15:47:02.84	331.08	5.99	-50.8	-61.8	3.8	8.47e-01	0	42	104	4198498304	72	12385
2026-01-20 15:47:03.83	331.16	5.93	-50.8	-61.8	3.8	8.46e-01	0	43	104	4198498304	72	12458
2026-01-20 15:47:04.82	331.25	5.86	-50.8	-61.8	3.8	8.47e-01	0	42	104	4198498304	72	12451
2026-01-20 15:47:05.82	331.33	5.80	-50.8	-61.8	3.8	8.47e-01	0	43	104	4198498304	72	12454
2026-01-20 15:47:06.81	331.41	5.74	-50.8	-61.8	3.8	8.46e-01	0	42	104	4198498304	72	12448
