passes_logs/2026/01/20/T1/T1__20260120_014255_NOAA_20_JPSS-1_rec.log

#Pass ID: 20260120_014255_NOAA 20 (JPSS-1)
#Satellite: NOAA 20 (JPSS-1)
#Configuration: NOAA 20
#almurnet v.1.7.20251203
#Start time: 2026-01-20 01:42:55

#Version: 2.0.20230620
#Station: T1
#Location: 37.570604 lon 55.790049 lat
#TLE: 1 43013U 17073A   26019.27717929  .00000087  00000+0  62288-4 0  9995
#TLE: 2 43013  98.7641 320.1715 0001339  33.1986 326.9274 14.19537047423343

#Time	Az	El	Level	Level2	SNR	BER	BlckErr	Temp	State	Recorded	gain1	gain2
2026-01-20 01:42:55.21	4.60	4.99	-50.0	-65.7	3.8	1.49e+00	0	41	0	0	71	22195
2026-01-20 01:42:56.20	4.51	5.05	-47.5	-65.3	3.8	1.49e+00	0	41	104	0	67	26493
2026-01-20 01:42:57.19	4.42	5.10	-46.8	-65.2	3.8	1.49e+00	0	41	104	0	65	29497
2026-01-20 01:42:58.22	4.32	5.16	-46.7	-65.2	3.8	1.49e+00	0	41	104	0	65	29461
2026-01-20 01:42:59.24	4.22	5.22	-46.7	-65.2	3.8	1.49e+00	0	41	104	0	65	29561
2026-01-20 01:43:00.27	4.12	5.27	-46.7	-65.2	3.8	1.49e+00	0	41	104	0	65	29499
2026-01-20 01:43:01.29	4.02	5.33	-46.7	-65.2	3.8	1.49e+00	0	41	104	0	65	29538
2026-01-20 01:43:02.32	3.92	5.39	-46.7	-65.2	3.8	1.49e+00	0	41	104	0	65	29546
2026-01-20 01:43:03.34	3.82	5.44	-46.7	-65.2	3.8	1.49e+00	0	41	104	0	65	29482
2026-01-20 01:43:04.36	3.72	5.50	-46.7	-65.2	3.8	1.49e+00	0	41	104	0	65	29448
2026-01-20 01:43:05.37	3.63	5.56	-46.7	-65.2	3.8	1.49e+00	0	41	104	0	65	29452
2026-01-20 01:43:06.41	3.52	5.62	-46.7	-65.2	3.8	1.49e+00	0	41	104	0	65	29500
2026-01-20 01:43:07.44	3.42	5.67	-46.7	-65.2	3.8	1.49e+00	0	41	104	0	65	29430
2026-01-20 01:43:08.46	3.32	5.73	-46.7	-65.2	3.8	1.49e+00	0	41	104	0	65	29364
2026-01-20 01:43:09.49	3.22	5.79	-46.7	-65.1	3.8	1.49e+00	0	41	104	0	65	29324
2026-01-20 01:43:10.51	3.12	5.85	-46.7	-65.2	3.8	1.49e+00	0	41	104	0	65	29410
2026-01-20 01:43:11.54	3.01	5.90	-46.7	-65.2	3.8	1.49e+00	0	41	104	0	65	29363
2026-01-20 01:43:12.56	2.91	5.96	-46.7	-65.2	3.8	1.49e+00	0	41	104	0	65	29381
2026-01-20 01:43:13.55	2.81	6.02	-46.7	-65.2	3.8	1.49e+00	0	41	104	0	65	29465
2026-01-20 01:43:14.55	2.71	6.07	-46.7	-65.2	3.8	1.49e+00	0	42	104	0	65	29457
2026-01-20 01:43:15.54	2.61	6.13	-46.7	-65.2	3.8	1.49e+00	0	41	104	0	65	29442
2026-01-20 01:43:16.53	2.51	6.18	-46.7	-65.2	3.8	1.49e+00	0	41	104	0	65	29414
2026-01-20 01:43:17.53	2.40	6.24	-46.7	-65.2	3.8	1.49e+00	0	41	104	0	65	29415
2026-01-20 01:43:18.52	2.30	6.30	-46.7	-65.2	3.8	1.49e+00	0	41	104	0	65	29448
2026-01-20 01:43:19.51	2.20	6.35	-46.7	-65.2	3.8	1.49e+00	0	42	104	0	65	29555
2026-01-20 01:43:20.51	2.09	6.41	-46.7	-65.2	3.8	1.49e+00	0	42	104	0	65	29511
2026-01-20 01:43:21.50	1.99	6.46	-46.7	-65.2	3.8	1.49e+00	0	42	104	0	65	29487
2026-01-20 01:43:22.49	1.89	6.52	-46.7	-65.2	3.8	1.49e+00	0	42	104	0	65	29473
2026-01-20 01:43:23.48	1.78	6.58	-46.7	-65.2	3.8	1.49e+00	0	42	104	0	65	29632
2026-01-20 01:43:24.48	1.68	6.63	-46.7	-65.2	3.8	1.49e+00	0	42	104	0	65	29532
2026-01-20 01:43:25.47	1.57	6.69	-46.7	-65.2	3.8	1.49e+00	0	42	104	0	65	29516
2026-01-20 01:43:26.46	1.47	6.74	-46.7	-65.2	3.8	1.49e+00	0	42	104	0	65	29557
2026-01-20 01:43:27.46	1.36	6.80	-46.7	-65.2	3.8	1.49e+00	0	42	104	0	65	29641
2026-01-20 01:43:28.45	1.25	6.86	-46.7	-65.2	3.8	1.49e+00	0	42	104	0	65	29510
2026-01-20 01:43:29.47	1.14	6.91	-46.7	-65.2	3.8	1.49e+00	0	42	104	0	65	29430
2026-01-20 01:43:30.50	1.03	6.97	-46.7	-65.2	3.8	1.49e+00	0	42	104	0	65	29411
2026-01-20 01:43:31.52	0.92	7.03	-46.7	-65.2	3.8	1.49e+00	0	42	104	0	65	29380
2026-01-20 01:43:32.55	0.81	7.09	-46.7	-65.2	3.8	1.49e+00	0	42	104	0	65	29392
2026-01-20 01:43:33.57	0.69	7.15	-46.7	-65.2	3.8	1.49e+00	0	42	104	0	65	29363
2026-01-20 01:43:34.57	0.58	7.20	-46.7	-65.1	3.8	1.49e+00	0	42	104	0	65	29335
2026-01-20 01:43:35.56	0.48	7.26	-46.7	-65.2	3.8	1.49e+00	0	42	104	0	65	29394
2026-01-20 01:43:36.55	0.37	7.32	-46.7	-65.2	3.8	1.49e+00	0	42	104	0	65	29460
2026-01-20 01:43:37.55	0.25	7.37	-46.7	-65.2	3.8	1.49e+00	0	42	104	0	65	29422
2026-01-20 01:43:38.54	0.14	7.43	-46.7	-65.1	3.8	1.49e+00	0	42	104	0	65	29345
2026-01-20 01:43:39.53	0.03	7.48	-46.7	-65.2	3.8	1.49e+00	0	42	104	0	65	29473
2026-01-20 01:43:40.52	359.92	7.54	-46.7	-65.1	3.8	1.49e+00	0	42	104	0	65	29331
2026-01-20 01:43:41.52	359.81	7.60	-46.7	-65.2	3.8	1.49e+00	0	42	104	0	65	29564
2026-01-20 01:43:42.51	359.69	7.65	-46.7	-65.2	3.8	1.49e+00	0	42	104	0	65	29531
2026-01-20 01:43:43.50	359.58	7.71	-46.7	-65.2	3.8	1.49e+00	0	42	104	0	65	29449
2026-01-20 01:43:44.50	359.47	7.77	-46.6	-65.2	3.8	1.49e+00	0	42	104	0	65	29460
2026-01-20 01:43:45.49	359.35	7.82	-46.7	-65.2	3.8	1.49e+00	0	42	104	0	65	29452
2026-01-20 01:43:46.49	359.24	7.88	-46.7	-65.2	3.8	1.49e+00	0	42	104	0	65	29444
2026-01-20 01:43:47.48	359.12	7.94	-46.7	-65.2	3.8	1.49e+00	0	42	104	0	65	29563
2026-01-20 01:43:48.47	359.01	7.99	-46.7	-65.1	3.8	1.49e+00	0	42	104	0	65	29312
2026-01-20 01:43:49.48	358.89	8.05	-46.7	-65.1	3.8	1.49e+00	0	42	104	0	65	29182
2026-01-20 01:43:50.51	358.77	8.11	-46.7	-65.0	3.8	1.49e+00	0	42	104	0	65	28879
2026-01-20 01:43:51.53	358.65	8.17	-46.7	-64.9	3.8	1.49e+00	0	42	104	0	65	28406
2026-01-20 01:43:52.56	358.53	8.23	-46.7	-64.8	3.8	1.49e+00	0	42	104	0	65	28063
2026-01-20 01:43:53.55	358.41	8.28	-46.7	-64.7	3.8	1.49e+00	0	42	104	0	65	27812
2026-01-20 01:43:54.54	358.29	8.34	-46.7	-64.6	3.8	1.49e+00	0	43	104	0	65	27464
2026-01-20 01:43:55.54	358.17	8.40	-46.7	-64.6	3.8	1.49e+00	0	42	104	0	65	27445
2026-01-20 01:43:56.53	358.05	8.45	-46.7	-64.5	3.8	1.49e+00	0	42	104	0	65	27095
2026-01-20 01:43:57.53	357.93	8.51	-46.6	-64.2	3.8	1.49e+00	0	42	104	0	65	26292
2026-01-20 01:43:58.52	357.81	8.57	-46.7	-63.7	3.8	1.49e+00	0	42	104	0	65	24857
2026-01-20 01:43:59.51	357.69	8.62	-46.7	-62.8	3.8	1.49e+00	0	43	104	0	65	22264
2026-01-20 01:44:00.48	357.57	8.68	-46.6	-61.2	4.3	1.41e+00	0	42	0	0	65	18694
2026-01-20 01:44:01.47	357.45	8.74	-46.5	-59.4	5.1	9.12e-01	0	43	0	1048576	65	15097
2026-01-20 01:44:02.46	357.33	8.79	-46.3	-57.6	6.4	4.70e-01	0	43	0	3145728	64	12991
2026-01-20 01:44:03.46	357.20	8.85	-46.1	-55.9	7.9	1.07e-01	0	43	0	5242880	64	10761
2026-01-20 01:44:04.45	357.08	8.91	-46.0	-54.7	9.3	2.93e-02	0	43	0	6291456	63	9832
2026-01-20 01:44:05.44	356.96	8.96	-45.7	-53.4	10.5	8.88e-03	0	43	0	8388608	63	8559
2026-01-20 01:44:06.44	356.83	9.02	-45.5	-52.7	11.2	2.47e-03	0	43	0	10485760	63	7898
2026-01-20 01:44:07.51	356.70	9.08	-45.3	-52.3	11.7	7.48e-04	0	43	0	12582912	62	7949
2026-01-20 01:44:08.38	356.59	9.13	-45.6	-53.1	11.0	1.47e-03	0	43	0	14680064	62	8696
2026-01-20 01:44:09.51	356.44	9.20	-45.5	-52.3	11.7	5.16e-03	0	43	0	16777216	62	7949
2026-01-20 01:44:10.37	356.33	9.25	-46.2	-54.6	9.4	8.62e-04	0	42	0	17825792	63	9829
2026-01-20 01:44:11.50	356.19	9.31	-45.8	-53.2	10.4	1.16e+00	0	43	0	19922944	63	8350
2026-01-20 01:44:12.35	356.08	9.36	-43.3	-49.1	14.9	0.00e+00	0	43	0	20971520	58	6930
2026-01-20 01:44:13.49	355.93	9.42	-43.2	-48.9	15.0	0.00e+00	0	43	0	23068672	58	6776
2026-01-20 01:44:14.34	355.82	9.47	-43.2	-48.7	15.2	0.00e+00	0	43	0	25165824	58	6641
2026-01-20 01:44:15.48	355.68	9.54	-43.4	-48.7	15.3	0.00e+00	0	43	0	27262976	58	6579
2026-01-20 01:44:16.33	355.56	9.59	-43.6	-48.7	15.3	0.00e+00	0	43	0	28311552	58	6588
2026-01-20 01:44:17.47	355.42	9.65	-43.4	-48.5	15.5	0.00e+00	0	43	0	31457280	58	6469
2026-01-20 01:44:18.32	355.30	9.70	-43.3	-48.4	15.5	0.00e+00	0	43	0	32505856	58	6420
2026-01-20 01:44:19.49	355.15	9.77	-43.5	-48.4	15.6	0.00e+00	0	43	0	34603008	58	6370
2026-01-20 01:44:20.34	355.04	9.81	-43.7	-48.5	15.5	0.00e+00	0	43	0	36700160	58	6465
2026-01-20 01:44:21.47	354.89	9.88	-43.6	-48.4	15.6	0.00e+00	0	43	0	38797312	58	6386
2026-01-20 01:44:22.33	354.77	9.93	-43.6	-48.3	15.7	0.00e+00	0	43	0	39845888	58	6307
2026-01-20 01:44:23.46	354.62	9.99	-43.7	-48.5	15.6	0.00e+00	0	43	0	41943040	58	6438
2026-01-20 01:44:24.32	354.50	10.04	-43.8	-48.6	15.5	0.00e+00	0	43	0	44040192	58	6540
2026-01-20 01:44:25.65	354.32	10.12	-43.8	-48.6	15.4	0.00e+00	0	43	0	46137344	58	6560
2026-01-20 01:44:26.36	354.23	10.16	-43.8	-48.5	15.5	0.00e+00	0	43	0	47185920	58	6474
2026-01-20 01:44:27.64	354.05	10.23	-43.8	-48.6	15.5	0.00e+00	0	43	0	50331648	58	6534
2026-01-20 01:44:28.35	353.96	10.27	-43.8	-48.7	15.4	0.00e+00	0	43	0	51380224	58	6583
2026-01-20 01:44:29.63	353.78	10.34	-43.7	-48.7	15.4	0.00e+00	0	43	0	53477376	58	6584
2026-01-20 01:44:30.35	353.68	10.38	-43.8	-48.6	15.4	0.00e+00	0	43	0	54525952	58	6550
2026-01-20 01:44:31.63	353.50	10.46	-43.3	-48.7	15.4	0.00e+00	0	43	0	57671680	58	6588
2026-01-20 01:44:32.36	353.40	10.50	-43.3	-48.7	15.4	0.00e+00	0	43	0	58720256	58	6598
2026-01-20 01:44:33.63	353.22	10.57	-43.4	-48.7	15.4	0.00e+00	0	43	0	60817408	58	6613
2026-01-20 01:44:34.37	353.12	10.61	-43.3	-48.7	15.4	0.00e+00	0	43	0	62914560	58	6593
2026-01-20 01:44:35.65	352.94	10.69	-43.1	-48.7	15.4	0.00e+00	0	43	0	65011712	58	6573
2026-01-20 01:44:36.61	352.81	10.74	-43.0	-48.6	15.4	0.00e+00	0	43	0	67108864	58	6525
2026-01-20 01:44:37.87	352.63	10.81	-43.1	-48.6	15.5	0.00e+00	0	43	0	69206016	58	6519
2026-01-20 01:44:38.65	352.52	10.85	-43.1	-48.6	15.5	0.00e+00	0	43	0	70254592	58	6520
2026-01-20 01:44:39.93	352.33	10.93	-43.1	-48.6	15.5	0.00e+00	0	43	0	73400320	58	6521
2026-01-20 01:44:40.65	352.23	10.97	-43.1	-48.7	15.4	0.00e+00	0	43	0	74448896	58	6603
2026-01-20 01:44:42.26	352.00	11.06	-43.3	-48.7	15.4	0.00e+00	0	43	0	77594624	58	6635
2026-01-20 01:44:42.84	351.91	11.09	-43.4	-48.7	15.4	0.00e+00	0	43	0	78643200	58	6603
2026-01-20 01:44:44.40	351.69	11.18	-43.8	-48.7	15.4	0.00e+00	0	43	0	81788928	58	6603
2026-01-20 01:44:45.11	351.58	11.22	-43.8	-48.8	15.4	0.00e+00	0	43	0	82837504	58	6686
2026-01-20 01:44:46.39	351.39	11.29	-44.1	-48.6	15.5	0.00e+00	0	43	0	84934656	58	6542
2026-01-20 01:44:47.10	351.29	11.33	-44.2	-48.5	15.6	0.00e+00	0	43	0	85983232	59	6067
2026-01-20 01:44:48.38	351.10	11.40	-44.5	-48.6	15.5	0.00e+00	0	43	0	89128960	59	6174
2026-01-20 01:44:49.11	350.99	11.44	-44.5	-48.6	15.6	0.00e+00	0	43	0	90177536	59	6153
2026-01-20 01:44:50.51	350.78	11.52	-44.5	-48.6	15.6	0.00e+00	0	43	0	93323264	59	6144
2026-01-20 01:44:51.22	350.68	11.56	-44.6	-48.6	15.5	0.00e+00	0	43	0	94371840	59	6194
2026-01-20 01:44:52.57	350.47	11.64	-44.7	-48.7	15.5	0.00e+00	0	43	0	96468992	59	6239
2026-01-20 01:44:53.28	350.37	11.68	-44.6	-48.8	15.4	0.00e+00	0	43	0	98566144	60	5972
2026-01-20 01:44:54.55	350.17	11.75	-44.8	-48.9	15.3	0.00e+00	0	43	0	100663296	60	6026
2026-01-20 01:44:55.28	350.06	11.79	-44.8	-49.0	15.3	0.00e+00	0	43	0	101711872	60	6075
2026-01-20 01:44:56.56	349.87	11.86	-44.9	-49.0	15.3	0.00e+00	0	43	0	103809024	60	6077
2026-01-20 01:44:57.27	349.76	11.90	-44.9	-49.0	15.2	7.00e-07	0	43	0	105906176	60	6105
2026-01-20 01:44:58.74	349.53	11.98	-44.9	-49.0	15.2	0.00e+00	0	43	0	108003328	60	6117
2026-01-20 01:44:59.70	349.38	12.03	-44.8	-49.0	15.3	0.00e+00	0	43	0	110100480	60	6075
2026-01-20 01:45:00.70	349.23	12.09	-44.7	-48.9	15.3	0.00e+00	0	43	0	112197632	60	6038
2026-01-20 01:45:01.69	349.07	12.14	-44.6	-49.0	15.2	0.00e+00	0	43	0	114294784	60	6087
2026-01-20 01:45:02.68	348.92	12.20	-44.5	-48.9	15.3	0.00e+00	0	43	0	115343360	60	6054
2026-01-20 01:45:03.68	348.76	12.25	-44.5	-49.0	15.3	0.00e+00	0	43	0	117440512	60	6072
2026-01-20 01:45:04.68	348.60	12.30	-44.5	-48.9	15.3	0.00e+00	0	43	0	119537664	60	6020
2026-01-20 01:45:05.67	348.45	12.36	-44.5	-48.9	15.3	0.00e+00	0	43	0	121634816	60	6017
2026-01-20 01:45:06.74	348.28	12.42	-44.7	-48.9	15.4	0.00e+00	0	43	0	123731968	60	5995
2026-01-20 01:45:07.63	348.14	12.47	-44.6	-48.7	15.5	0.00e+00	0	43	0	124780544	60	5897
2026-01-20 01:45:08.77	347.95	12.53	-45.0	-48.8	15.4	0.00e+00	0	43	0	126877696	60	5972
2026-01-20 01:45:09.62	347.82	12.57	-45.1	-48.8	15.4	0.00e+00	0	43	0	128974848	60	5987
2026-01-20 01:45:10.99	347.60	12.65	-45.4	-49.0	15.2	0.00e+00	0	43	0	131072000	61	5766
2026-01-20 01:45:11.70	347.48	12.69	-45.4	-49.0	15.2	0.00e+00	0	43	0	132120576	61	5746
2026-01-20 01:45:12.98	347.27	12.76	-45.5	-49.0	15.2	0.00e+00	0	43	0	135266304	61	5776
2026-01-20 01:45:13.71	347.15	12.80	-45.6	-49.1	15.1	7.00e-07	0	43	0	136314880	61	5824
2026-01-20 01:45:14.98	346.95	12.86	-45.4	-48.9	15.3	0.00e+00	0	43	0	138412032	61	5712
2026-01-20 01:45:15.70	346.83	12.90	-45.3	-48.9	15.3	0.00e+00	0	43	0	140509184	61	5687
2026-01-20 01:45:16.98	346.62	12.97	-45.3	-48.9	15.3	0.00e+00	0	43	0	142606336	61	5698
2026-01-20 01:45:17.70	346.50	13.01	-45.2	-48.9	15.4	0.00e+00	0	43	0	143654912	61	5668
2026-01-20 01:45:18.98	346.28	13.08	-45.0	-48.6	15.6	0.00e+00	0	43	0	145752064	61	5524
2026-01-20 01:45:19.69	346.17	13.11	-44.9	-48.5	15.8	0.00e+00	0	43	0	147849216	61	5424
2026-01-20 01:45:20.97	345.95	13.18	-44.6	-48.2	16.0	0.00e+00	0	43	0	149946368	61	5260
2026-01-20 01:45:21.68	345.83	13.22	-44.6	-48.1	16.0	0.00e+00	0	43	0	150994944	61	5208
2026-01-20 01:45:22.96	345.62	13.29	-44.6	-48.1	16.1	0.00e+00	0	43	0	154140672	61	5174
2026-01-20 01:45:23.69	345.49	13.33	-44.7	-48.2	16.0	0.00e+00	0	43	0	155189248	61	5247
2026-01-20 01:45:25.03	345.26	13.40	-44.7	-48.1	16.1	0.00e+00	0	43	0	157286400	61	5200
2026-01-20 01:45:25.74	345.14	13.43	-44.6	-47.9	16.4	0.00e+00	0	43	0	159383552	61	5073
2026-01-20 01:45:27.02	344.92	13.50	-44.6	-47.9	16.4	0.00e+00	0	43	0	161480704	61	5058
2026-01-20 01:45:27.74	344.80	13.54	-44.5	-47.8	16.4	0.00e+00	0	43	0	162529280	61	5015
2026-01-20 01:45:29.14	344.56	13.61	-44.4	-47.6	16.6	0.00e+00	0	43	0	165675008	60	5216
2026-01-20 01:45:29.85	344.44	13.65	-44.3	-47.6	16.6	0.00e+00	0	43	0	166723584	60	5194
2026-01-20 01:45:31.13	344.21	13.71	-44.1	-47.5	16.8	0.00e+00	0	43	0	168820736	60	5127
2026-01-20 01:45:32.18	344.03	13.77	-44.0	-47.5	16.8	0.00e+00	0	43	0	170917888	60	5107
2026-01-20 01:45:33.05	343.88	13.81	-44.0	-47.3	16.9	0.00e+00	0	43	0	173015040	59	5319
2026-01-20 01:45:34.19	343.68	13.87	-44.0	-47.4	16.8	0.00e+00	0	43	0	175112192	59	5383
2026-01-20 01:45:35.39	343.47	13.93	-44.1	-47.4	16.8	0.00e+00	0	43	0	177209344	59	5370
2026-01-20 01:45:36.42	343.28	13.98	-44.1	-47.3	16.9	0.00e+00	0	43	0	179306496	59	5297
2026-01-20 01:45:37.41	343.11	14.03	-44.2	-47.3	16.9	0.00e+00	0	43	0	180355072	59	5294
2026-01-20 01:45:38.40	342.93	14.08	-44.1	-47.1	17.1	0.00e+00	0	43	0	182452224	59	5202
2026-01-20 01:45:39.40	342.75	14.13	-44.0	-47.0	17.2	0.00e+00	0	43	0	184549376	59	5108
2026-01-20 01:45:40.40	342.57	14.18	-43.8	-46.8	17.3	0.00e+00	0	43	0	186646528	59	5032
2026-01-20 01:45:41.39	342.40	14.23	-43.8	-46.8	17.4	0.00e+00	0	43	0	188743680	59	5016
2026-01-20 01:45:42.38	342.22	14.28	-43.7	-46.8	17.4	0.00e+00	0	43	0	189792256	59	5015
2026-01-20 01:45:43.38	342.04	14.33	-43.7	-46.8	17.3	0.00e+00	0	43	0	191889408	59	5025
2026-01-20 01:45:44.38	341.85	14.38	-43.8	-47.0	17.2	0.00e+00	0	43	0	193986560	59	5103
2026-01-20 01:45:45.37	341.67	14.43	-43.8	-46.9	17.3	0.00e+00	0	43	0	196083712	59	5072
2026-01-20 01:45:46.36	341.49	14.48	-43.9	-46.9	17.3	0.00e+00	0	43	0	197132288	59	5083
2026-01-20 01:45:47.35	341.31	14.53	-43.9	-46.9	17.3	0.00e+00	0	43	0	199229440	59	5049
2026-01-20 01:45:48.35	341.13	14.58	-43.7	-46.6	17.6	0.00e+00	0	43	0	201326592	59	4900
2026-01-20 01:45:49.35	340.94	14.62	-43.7	-46.5	17.6	0.00e+00	0	43	0	203423744	59	4859
2026-01-20 01:45:50.34	340.76	14.67	-43.6	-46.5	17.7	0.00e+00	0	43	0	205520896	59	4821
2026-01-20 01:45:51.33	340.57	14.72	-43.5	-46.5	17.7	0.00e+00	0	43	0	206569472	59	4819
2026-01-20 01:45:52.33	340.39	14.77	-43.4	-46.4	17.8	0.00e+00	0	43	0	208666624	58	5053
2026-01-20 01:45:53.32	340.20	14.81	-43.4	-46.3	17.8	0.00e+00	0	43	0	210763776	58	5030
2026-01-20 01:45:54.32	340.01	14.86	-43.3	-46.2	18.0	0.00e+00	0	43	0	212860928	58	4968
2026-01-20 01:45:55.31	339.82	14.91	-43.2	-46.1	18.1	0.00e+00	0	43	0	213909504	58	4894
2026-01-20 01:45:56.30	339.64	14.95	-43.3	-46.2	18.0	0.00e+00	0	43	0	216006656	58	4946
2026-01-20 01:45:57.30	339.45	15.00	-43.4	-46.2	18.0	0.00e+00	0	43	0	218103808	58	4977
2026-01-20 01:45:58.29	339.26	15.05	-43.4	-46.2	18.0	0.00e+00	0	43	0	220200960	58	4956
2026-01-20 01:45:59.29	339.07	15.09	-43.3	-46.0	18.2	0.00e+00	0	43	0	222298112	58	4844
2026-01-20 01:46:00.28	338.88	15.14	-43.3	-46.0	18.2	0.00e+00	0	43	0	223346688	58	4842
2026-01-20 01:46:01.28	338.69	15.18	-43.2	-45.9	18.2	0.00e+00	0	43	0	225443840	58	4786
2026-01-20 01:46:02.27	338.50	15.23	-43.2	-45.9	18.3	0.00e+00	0	43	0	227540992	58	4784
2026-01-20 01:46:03.35	338.29	15.28	-43.2	-45.9	18.3	0.00e+00	0	43	0	229638144	58	4787
2026-01-20 01:46:04.23	338.12	15.32	-43.3	-46.1	18.1	0.00e+00	0	43	0	230686720	58	4888
2026-01-20 01:46:05.37	337.89	15.37	-43.4	-46.1	18.1	0.00e+00	0	43	0	232783872	58	4915
2026-01-20 01:46:06.23	337.73	15.41	-43.5	-46.2	18.0	0.00e+00	0	43	0	234881024	58	4957
2026-01-20 01:46:07.60	337.46	15.47	-43.6	-46.2	18.0	0.00e+00	0	43	0	236978176	58	4953
2026-01-20 01:46:08.31	337.32	15.50	-43.6	-46.2	18.0	0.00e+00	0	43	0	239075328	58	4953
2026-01-20 01:46:09.81	337.02	15.56	-43.7	-46.3	17.9	0.00e+00	0	43	0	241172480	58	5019
2026-01-20 01:46:10.53	336.88	15.59	-43.7	-46.3	17.9	0.00e+00	0	43	0	243269632	58	5024
2026-01-20 01:46:11.81	336.63	15.65	-43.7	-46.4	17.8	0.00e+00	0	43	0	245366784	58	5060
2026-01-20 01:46:12.55	336.48	15.68	-43.7	-46.3	17.9	0.00e+00	0	43	0	246415360	58	5017
2026-01-20 01:46:13.83	336.22	15.74	-43.8	-46.5	17.7	0.00e+00	0	43	0	249561088	58	5138
2026-01-20 01:46:14.58	336.07	15.77	-43.8	-46.5	17.7	0.00e+00	0	43	0	250609664	58	5116
2026-01-20 01:46:16.02	335.78	15.83	-43.8	-46.5	17.7	0.00e+00	0	43	0	253755392	58	5156
2026-01-20 01:46:16.73	335.64	15.86	-43.7	-46.4	17.8	0.00e+00	0	43	0	254803968	58	5099
2026-01-20 01:46:18.02	335.38	15.91	-43.6	-46.3	17.9	0.00e+00	0	43	0	256901120	58	5004
2026-01-20 01:46:18.73	335.24	15.94	-43.6	-46.3	17.9	0.00e+00	0	43	0	257949696	58	4999
2026-01-20 01:46:20.02	334.97	15.99	-43.5	-46.1	18.1	0.00e+00	0	43	0	261095424	58	4892
2026-01-20 01:46:20.74	334.83	16.02	-43.5	-46.1	18.1	0.00e+00	0	43	0	262144000	58	4875
2026-01-20 01:46:22.02	334.57	16.07	-43.5	-46.2	18.0	0.00e+00	0	43	0	264241152	58	4946
2026-01-20 01:46:22.74	334.42	16.10	-43.6	-46.2	18.0	0.00e+00	0	43	0	265289728	58	4965
2026-01-20 01:46:24.02	334.16	16.15	-43.6	-46.2	17.9	0.00e+00	0	43	0	268435456	58	4981
2026-01-20 01:46:24.73	334.01	16.18	-43.5	-46.2	18.0	0.00e+00	0	43	0	269484032	58	4983
2026-01-20 01:46:26.01	333.75	16.23	-43.5	-46.2	18.0	0.00e+00	0	43	0	271581184	58	4956
2026-01-20 01:46:26.72	333.60	16.26	-43.5	-46.2	18.0	0.00e+00	0	43	0	273678336	58	4964
2026-01-20 01:46:28.00	333.33	16.31	-43.2	-45.8	18.4	0.00e+00	0	43	0	275775488	58	4741
2026-01-20 01:46:28.73	333.18	16.33	-43.2	-45.8	18.4	0.00e+00	0	43	0	276824064	58	4721
2026-01-20 01:46:30.01	332.91	16.38	-43.1	-45.6	18.6	0.00e+00	0	43	0	278921216	58	4623
2026-01-20 01:46:30.73	332.76	16.41	-43.1	-45.7	18.5	0.00e+00	0	43	0	281018368	58	4657
2026-01-20 01:46:32.01	332.50	16.46	-43.0	-45.5	18.7	0.00e+00	0	43	0	283115520	58	4577
2026-01-20 01:46:32.74	332.34	16.48	-43.0	-45.6	18.6	0.00e+00	0	43	0	284164096	58	4608
2026-01-20 01:46:34.02	332.07	16.53	-43.0	-45.6	18.6	0.00e+00	0	43	0	287309824	58	4625
2026-01-20 01:46:34.73	331.92	16.56	-43.0	-45.5	18.6	0.00e+00	0	43	0	288358400	58	4581
2026-01-20 01:46:36.01	331.65	16.60	-43.0	-45.5	18.6	0.00e+00	0	43	0	290455552	57	4861
2026-01-20 01:46:36.72	331.50	16.63	-42.9	-45.5	18.6	0.00e+00	0	43	0	292552704	57	4846
2026-01-20 01:46:38.16	331.20	16.68	-43.0	-45.6	18.6	0.00e+00	0	43	0	294649856	57	4892
2026-01-20 01:46:38.87	331.04	16.70	-43.1	-45.6	18.6	0.00e+00	0	43	0	295698432	57	4887
2026-01-20 01:46:40.21	330.76	16.75	-43.0	-45.4	18.7	0.00e+00	0	43	0	298844160	57	4806
2026-01-20 01:46:40.92	330.61	16.77	-43.1	-45.5	18.7	0.00e+00	0	43	0	299892736	57	4826
2026-01-20 01:46:42.21	330.33	16.81	-43.1	-45.5	18.7	0.00e+00	0	43	0	301989888	57	4845
2026-01-20 01:46:43.26	330.10	16.85	-43.1	-45.6	18.6	0.00e+00	0	43	0	304087040	57	4875
2026-01-20 01:46:44.11	329.92	16.88	-43.0	-45.4	18.8	0.00e+00	0	43	0	306184192	57	4777
2026-01-20 01:46:45.25	329.67	16.91	-43.0	-45.4	18.8	0.00e+00	0	43	0	308281344	57	4783
2026-01-20 01:46:46.10	329.49	16.94	-43.0	-45.4	18.8	0.00e+00	0	43	0	309329920	57	4787
2026-01-20 01:46:47.32	329.22	16.98	-42.9	-45.3	18.8	0.00e+00	0	43	0	311427072	57	4747
2026-01-20 01:46:48.17	329.04	17.00	-42.9	-45.3	18.8	0.00e+00	0	43	0	313524224	57	4724
2026-01-20 01:46:49.39	328.77	17.04	-42.8	-45.3	18.9	0.00e+00	0	43	0	315621376	57	4717
2026-01-20 01:46:50.24	328.59	17.07	-42.8	-45.3	18.8	0.00e+00	0	43	0	317718528	57	4753
2026-01-20 01:46:51.38	328.34	17.10	-42.8	-45.4	18.7	0.00e+00	0	43	0	319815680	57	4803
2026-01-20 01:46:52.23	328.15	17.13	-42.8	-45.5	18.7	0.00e+00	0	43	0	320864256	57	4821
2026-01-20 01:46:53.37	327.90	17.16	-42.9	-45.5	18.6	0.00e+00	0	43	0	322961408	57	4857
2026-01-20 01:46:54.22	327.71	17.18	-42.9	-45.5	18.6	0.00e+00	0	43	0	325058560	57	4852
2026-01-20 01:46:55.36	327.46	17.22	-43.0	-45.6	18.6	0.00e+00	0	43	0	327155712	57	4877
2026-01-20 01:46:56.21	327.27	17.24	-43.1	-45.6	18.5	0.00e+00	0	43	0	328204288	57	4910
2026-01-20 01:46:57.35	327.02	17.27	-43.1	-45.7	18.5	0.00e+00	0	43	0	330301440	57	4963
2026-01-20 01:46:58.20	326.83	17.29	-43.1	-45.7	18.5	0.00e+00	0	43	0	332398592	57	4957
2026-01-20 01:46:59.34	326.58	17.32	-43.0	-45.7	18.5	0.00e+00	0	43	0	334495744	57	4930
2026-01-20 01:47:00.39	326.34	17.35	-43.1	-45.7	18.4	0.00e+00	0	43	0	336592896	57	4978
2026-01-20 01:47:01.26	326.15	17.37	-43.1	-45.8	18.4	0.00e+00	0	43	0	337641472	57	5015
2026-01-20 01:47:02.40	325.89	17.40	-43.0	-45.6	18.5	0.00e+00	0	43	0	339738624	57	4925
2026-01-20 01:47:03.25	325.70	17.42	-43.0	-45.6	18.5	0.00e+00	0	43	0	341835776	57	4919
2026-01-20 01:47:04.39	325.45	17.45	-43.1	-45.6	18.6	0.00e+00	0	43	0	343932928	57	4889
2026-01-20 01:47:05.24	325.26	17.47	-43.1	-45.6	18.5	0.00e+00	0	43	0	344981504	57	4918
2026-01-20 01:47:06.38	325.00	17.50	-43.2	-45.6	18.6	0.00e+00	0	43	0	348127232	57	4911
2026-01-20 01:47:07.23	324.81	17.52	-43.2	-45.6	18.6	0.00e+00	0	43	0	349175808	57	4885
2026-01-20 01:47:08.37	324.55	17.55	-43.2	-45.7	18.5	0.00e+00	0	43	0	351272960	57	4938
2026-01-20 01:47:09.22	324.36	17.57	-43.3	-45.7	18.5	0.00e+00	0	43	0	353370112	57	4961
2026-01-20 01:47:10.43	324.09	17.59	-43.3	-45.7	18.4	0.00e+00	0	43	0	355467264	57	4969
2026-01-20 01:47:11.29	323.89	17.61	-43.4	-45.9	18.3	0.00e+00	0	43	0	356515840	57	5071
2026-01-20 01:47:12.47	323.62	17.64	-43.4	-46.0	18.2	0.00e+00	0	43	0	358612992	57	5116
2026-01-20 01:47:13.32	323.43	17.65	-43.4	-46.1	18.1	0.00e+00	0	43	0	360710144	57	5165
2026-01-20 01:47:14.46	323.17	17.68	-43.5	-46.2	18.0	0.00e+00	0	43	0	362807296	57	5234
2026-01-20 01:47:15.31	322.98	17.69	-43.6	-46.3	17.9	0.00e+00	0	43	0	364904448	57	5324
2026-01-20 01:47:16.45	322.71	17.71	-43.7	-46.4	17.8	0.00e+00	0	43	0	367001600	58	5099
2026-01-20 01:47:17.31	322.52	17.73	-43.7	-46.4	17.8	0.00e+00	0	43	0	368050176	58	5092
2026-01-20 01:47:18.44	322.26	17.75	-43.8	-46.5	17.8	0.00e+00	0	43	0	370147328	58	5106
2026-01-20 01:47:19.30	322.06	17.77	-43.8	-46.5	17.7	0.00e+00	0	43	0	372244480	58	5133
2026-01-20 01:47:20.43	321.80	17.79	-43.8	-46.4	17.9	0.00e+00	0	43	0	374341632	58	5074
2026-01-20 01:47:21.28	321.61	17.80	-43.8	-46.5	17.8	0.00e+00	0	43	0	375390208	58	5116
2026-01-20 01:47:22.42	321.35	17.82	-43.8	-46.5	17.7	0.00e+00	0	43	0	377487360	58	5123
2026-01-20 01:47:23.28	321.15	17.83	-43.8	-46.4	17.8	0.00e+00	0	43	0	379584512	58	5093
2026-01-20 01:47:24.41	320.89	17.85	-43.9	-46.6	17.7	0.00e+00	0	43	0	381681664	58	5166
2026-01-20 01:47:25.27	320.69	17.86	-43.7	-46.4	17.9	0.00e+00	0	43	0	382730240	58	5055
2026-01-20 01:47:26.40	320.43	17.88	-43.7	-46.3	17.9	0.00e+00	0	43	0	384827392	58	5009
2026-01-20 01:47:27.25	320.23	17.89	-43.7	-46.4	17.9	0.00e+00	0	43	0	386924544	58	5051
2026-01-20 01:47:28.50	319.94	17.91	-43.7	-46.4	17.9	0.00e+00	0	43	0	389021696	58	5062
2026-01-20 01:47:29.36	319.74	17.92	-43.8	-46.4	17.8	0.00e+00	0	43	0	391118848	58	5098
2026-01-20 01:47:30.49	319.48	17.94	-43.9	-46.6	17.7	0.00e+00	0	43	0	393216000	58	5160
2026-01-20 01:47:31.35	319.28	17.95	-44.1	-46.8	17.4	0.00e+00	0	43	0	394264576	58	5312
2026-01-20 01:47:32.48	319.02	17.96	-44.1	-46.9	17.4	0.00e+00	0	43	0	396361728	58	5372
2026-01-20 01:47:33.33	318.82	17.97	-44.2	-47.0	17.3	0.00e+00	0	43	0	398458880	59	5125
2026-01-20 01:47:34.47	318.55	17.98	-44.2	-47.2	17.1	0.00e+00	0	43	0	400556032	59	5219
2026-01-20 01:47:35.40	318.34	17.99	-44.2	-47.2	17.1	0.00e+00	0	43	0	401604608	59	5237
2026-01-20 01:47:36.40	318.11	18.00	-44.2	-47.2	17.1	0.00e+00	0	43	0	403701760	59	5251
2026-01-20 01:47:37.39	317.87	18.01	-44.2	-47.2	17.0	0.00e+00	0	43	0	405798912	59	5268
2026-01-20 01:47:38.39	317.64	18.02	-44.2	-47.1	17.1	0.00e+00	0	43	0	407896064	59	5204
2026-01-20 01:47:39.38	317.41	18.03	-44.0	-46.9	17.4	0.00e+00	0	43	0	409993216	59	5044
2026-01-20 01:47:40.38	317.18	18.04	-44.1	-46.9	17.4	0.00e+00	0	43	0	411041792	59	5069
2026-01-20 01:47:41.37	316.95	18.04	-44.2	-47.0	17.3	0.00e+00	0	43	0	413138944	59	5123
2026-01-20 01:47:42.37	316.71	18.05	-44.1	-46.9	17.4	0.00e+00	0	43	0	415236096	59	5065
2026-01-20 01:47:43.36	316.48	18.06	-44.1	-46.8	17.4	0.00e+00	0	43	0	417333248	59	5024
2026-01-20 01:47:44.36	316.25	18.06	-44.2	-46.9	17.3	0.00e+00	0	43	0	418381824	59	5078
2026-01-20 01:47:45.35	316.01	18.07	-44.1	-46.8	17.4	0.00e+00	0	43	0	420478976	59	5041
2026-01-20 01:47:46.34	315.78	18.07	-44.1	-46.8	17.4	0.00e+00	0	43	0	422576128	59	5027
2026-01-20 01:47:47.37	315.54	18.08	-44.1	-46.8	17.4	0.00e+00	0	43	0	424673280	59	5033
2026-01-20 01:47:48.40	315.30	18.08	-44.1	-46.8	17.4	0.00e+00	0	43	0	426770432	59	5039
2026-01-20 01:47:49.40	315.07	18.08	-44.2	-46.9	17.3	0.00e+00	0	43	0	427819008	59	5084
2026-01-20 01:47:50.39	314.83	18.09	-44.2	-47.0	17.3	0.00e+00	0	43	0	429916160	59	5103
2026-01-20 01:47:51.46	314.58	18.09	-44.1	-46.9	17.3	0.00e+00	0	43	0	432013312	59	5079
2026-01-20 01:47:52.35	314.37	18.09	-44.1	-46.9	17.4	0.00e+00	0	43	0	434110464	59	5052
2026-01-20 01:47:53.69	314.06	18.09	-44.0	-46.8	17.5	0.00e+00	0	43	0	436207616	59	4993
2026-01-20 01:47:54.40	313.89	18.09	-44.1	-46.8	17.4	0.00e+00	0	43	0	437256192	59	5024
2026-01-20 01:47:55.67	313.59	18.10	-44.1	-46.9	17.4	0.00e+00	0	43	0	440401920	59	5047
2026-01-20 01:47:56.38	313.43	18.10	-44.1	-46.8	17.5	0.00e+00	0	43	0	441450496	59	5009
2026-01-20 01:47:57.66	313.13	18.09	-44.1	-46.9	17.4	0.00e+00	0	43	0	443547648	59	5042
2026-01-20 01:47:58.47	312.94	18.09	-44.1	-46.8	17.4	0.00e+00	0	43	0	445644800	59	5041
2026-01-20 01:47:59.60	312.67	18.09	-44.2	-47.0	17.3	0.00e+00	0	43	0	447741952	59	5101
2026-01-20 01:48:00.46	312.47	18.09	-44.3	-47.0	17.2	0.00e+00	0	43	0	448790528	59	5143
2026-01-20 01:48:01.59	312.21	18.09	-44.4	-47.1	17.1	0.00e+00	0	43	0	450887680	59	5217
2026-01-20 01:48:02.45	312.00	18.08	-44.4	-47.2	17.0	0.00e+00	0	43	0	452984832	59	5266
2026-01-20 01:48:03.58	311.74	18.08	-44.5	-47.3	16.9	0.00e+00	0	43	0	455081984	59	5335
2026-01-20 01:48:04.44	311.54	18.08	-44.5	-47.3	17.0	0.00e+00	0	43	0	456130560	59	5297
2026-01-20 01:48:05.58	311.27	18.07	-44.3	-47.1	17.1	0.00e+00	0	43	0	458227712	59	5210
2026-01-20 01:48:06.80	310.98	18.07	-44.3	-47.1	17.2	0.00e+00	0	43	0	461373440	59	5165
2026-01-20 01:48:07.83	310.74	18.06	-44.1	-46.8	17.4	0.00e+00	0	43	0	462422016	59	5021
2026-01-20 01:48:08.83	310.51	18.05	-43.8	-46.4	17.8	0.00e+00	0	43	0	464519168	59	4810
2026-01-20 01:48:09.82	310.28	18.05	-43.9	-46.5	17.7	0.00e+00	0	43	0	466616320	59	4846
2026-01-20 01:48:10.82	310.04	18.04	-43.9	-46.5	17.7	0.00e+00	0	43	0	468713472	59	4860
2026-01-20 01:48:11.81	309.81	18.03	-43.8	-46.5	17.8	0.00e+00	0	43	0	470810624	59	4815
2026-01-20 01:48:12.80	309.58	18.03	-43.8	-46.4	17.8	0.00e+00	0	43	0	471859200	59	4813
2026-01-20 01:48:13.80	309.35	18.02	-43.8	-46.4	17.8	0.00e+00	0	43	0	473956352	59	4795
2026-01-20 01:48:14.79	309.12	18.01	-43.8	-46.4	17.8	0.00e+00	0	43	0	476053504	59	4802
2026-01-20 01:48:15.79	308.88	18.00	-43.9	-46.5	17.7	0.00e+00	0	43	0	478150656	59	4840
2026-01-20 01:48:16.78	308.65	17.99	-44.0	-46.6	17.7	0.00e+00	0	43	0	479199232	59	4876
2026-01-20 01:48:17.82	308.41	17.98	-44.0	-46.6	17.6	0.00e+00	0	43	0	481296384	59	4911
2026-01-20 01:48:18.79	308.18	17.97	-44.1	-46.8	17.5	0.00e+00	0	43	0	483393536	59	4985
2026-01-20 01:48:19.86	307.94	17.95	-44.0	-46.6	17.6	0.00e+00	0	44	0	485490688	59	4904
2026-01-20 01:48:20.71	307.74	17.94	-44.0	-46.6	17.6	0.00e+00	0	43	0	486539264	59	4891
2026-01-20 01:48:21.85	307.47	17.93	-43.9	-46.5	17.7	0.00e+00	0	43	0	489684992	59	4816
2026-01-20 01:48:22.80	307.25	17.92	-43.8	-46.3	17.9	0.00e+00	0	43	0	490733568	59	4755
2026-01-20 01:48:23.97	306.98	17.90	-43.7	-46.3	17.9	0.00e+00	0	43	0	492830720	59	4714
2026-01-20 01:48:24.82	306.78	17.89	-43.7	-46.3	18.0	0.00e+00	0	43	0	494927872	59	4723
2026-01-20 01:48:25.95	306.52	17.87	-43.6	-46.1	18.1	0.00e+00	0	43	0	497025024	59	4639
2026-01-20 01:48:26.81	306.32	17.86	-43.4	-45.9	18.3	0.00e+00	0	43	0	498073600	58	4805
2026-01-20 01:48:27.95	306.06	17.84	-43.5	-45.9	18.3	0.00e+00	0	43	0	500170752	58	4808
2026-01-20 01:48:28.80	305.86	17.83	-43.4	-45.9	18.4	0.00e+00	0	43	0	502267904	58	4779
2026-01-20 01:48:29.94	305.60	17.81	-43.4	-45.9	18.3	0.00e+00	0	43	0	504365056	58	4807
2026-01-20 01:48:30.79	305.41	17.80	-43.4	-45.8	18.4	0.00e+00	0	43	0	505413632	58	4754
2026-01-20 01:48:31.92	305.15	17.78	-43.4	-45.9	18.3	0.00e+00	0	43	0	508559360	58	4780
2026-01-20 01:48:32.78	304.95	17.76	-43.4	-45.9	18.3	0.00e+00	0	43	0	509607936	58	4785
2026-01-20 01:48:33.91	304.69	17.74	-43.4	-45.8	18.4	0.00e+00	0	43	0	511705088	58	4757
2026-01-20 01:48:34.77	304.49	17.73	-43.4	-45.8	18.4	0.00e+00	0	43	0	513802240	58	4730
2026-01-20 01:48:35.90	304.23	17.71	-43.3	-45.8	18.5	0.00e+00	0	43	0	515899392	58	4716
2026-01-20 01:48:36.76	304.04	17.69	-43.3	-45.8	18.5	0.00e+00	0	43	0	516947968	58	4711
2026-01-20 01:48:37.89	303.78	17.67	-43.4	-45.8	18.4	0.00e+00	0	43	0	519045120	58	4753
2026-01-20 01:48:38.75	303.58	17.65	-43.4	-45.8	18.4	0.00e+00	0	43	0	521142272	58	4735
2026-01-20 01:48:40.07	303.28	17.62	-43.4	-45.8	18.4	0.00e+00	0	43	0	523239424	58	4715
2026-01-20 01:48:40.78	303.12	17.61	-43.3	-45.7	18.5	0.00e+00	0	43	0	524288000	58	4688
2026-01-20 01:48:42.06	302.83	17.58	-43.3	-45.6	18.6	0.00e+00	0	43	0	527433728	58	4647
2026-01-20 01:48:42.79	302.66	17.56	-43.2	-45.5	18.6	0.00e+00	0	43	0	528482304	58	4596
2026-01-20 01:48:44.07	302.38	17.53	-43.1	-45.5	18.7	0.00e+00	0	43	0	530579456	58	4560
2026-01-20 01:48:44.78	302.21	17.52	-43.1	-45.5	18.7	0.00e+00	0	43	0	531628032	58	4584
2026-01-20 01:48:46.05	301.93	17.49	-43.1	-45.5	18.6	0.00e+00	0	43	0	534773760	58	4580
2026-01-20 01:48:46.86	301.75	17.47	-43.1	-45.5	18.7	0.00e+00	0	43	0	535822336	58	4598
2026-01-20 01:48:47.99	301.49	17.44	-43.2	-45.6	18.6	0.00e+00	0	43	0	537919488	58	4609
2026-01-20 01:48:48.85	301.30	17.42	-43.2	-45.7	18.5	0.00e+00	0	43	0	540016640	58	4661
2026-01-20 01:48:49.98	301.04	17.39	-43.3	-45.7	18.5	0.00e+00	0	43	0	542113792	58	4681
2026-01-20 01:48:50.83	300.85	17.37	-43.3	-45.7	18.5	0.00e+00	0	43	0	543162368	58	4686
2026-01-20 01:48:51.97	300.60	17.34	-43.3	-45.8	18.4	0.00e+00	0	43	0	545259520	58	4731
2026-01-20 01:48:52.82	300.41	17.32	-43.4	-45.9	18.3	0.00e+00	0	43	0	547356672	58	4792
2026-01-20 01:48:53.96	300.16	17.29	-43.5	-46.0	18.2	0.00e+00	0	43	0	549453824	58	4834
2026-01-20 01:48:54.81	299.97	17.26	-43.6	-46.0	18.2	0.00e+00	0	43	0	550502400	58	4865
2026-01-20 01:48:55.95	299.71	17.23	-43.6	-46.1	18.1	0.00e+00	0	43	0	553648128	58	4898
2026-01-20 01:48:56.81	299.52	17.21	-43.7	-46.1	18.0	0.00e+00	0	43	0	554696704	58	4922
2026-01-20 01:48:58.08	299.24	17.17	-43.7	-46.3	18.0	0.00e+00	0	43	0	556793856	58	4990
2026-01-20 01:48:58.81	299.08	17.15	-43.8	-46.3	17.9	0.00e+00	0	43	0	558891008	58	5018
2026-01-20 01:49:00.09	298.80	17.11	-43.7	-46.3	18.0	0.00e+00	0	43	0	560988160	58	5002
2026-01-20 01:49:00.82	298.64	17.09	-43.7	-46.2	18.0	0.00e+00	0	43	0	562036736	58	4954
2026-01-20 01:49:02.09	298.36	17.05	-43.7	-46.3	17.9	0.00e+00	0	43	0	564133888	58	4994
2026-01-20 01:49:02.81	298.20	17.03	-43.6	-46.1	18.1	0.00e+00	0	43	0	566231040	58	4905
2026-01-20 01:49:04.09	297.92	16.99	-43.6	-46.1	18.0	0.00e+00	0	43	0	568328192	58	4918
2026-01-20 01:49:04.80	297.77	16.97	-43.7	-46.2	18.0	0.00e+00	0	43	0	569376768	58	4956
2026-01-20 01:49:06.08	297.49	16.93	-43.7	-46.2	18.0	0.00e+00	0	43	0	572522496	58	4933
2026-01-20 01:49:06.79	297.34	16.91	-43.7	-46.2	18.0	0.00e+00	0	43	0	573571072	58	4955
2026-01-20 01:49:08.07	297.06	16.87	-43.9	-46.5	17.7	0.00e+00	0	43	0	575668224	58	5138
2026-01-20 01:49:08.78	296.90	16.84	-43.9	-46.5	17.7	0.00e+00	0	43	0	576716800	58	5138
2026-01-20 01:49:10.06	296.63	16.80	-44.1	-46.8	17.5	0.00e+00	0	43	0	579862528	58	5294
2026-01-20 01:49:11.05	296.42	16.77	-44.1	-46.7	17.5	0.00e+00	0	43	0	581959680	58	5263
2026-01-20 01:49:12.35	296.14	16.72	-44.1	-46.7	17.5	0.00e+00	0	43	0	584056832	58	5260
2026-01-20 01:49:13.06	295.98	16.70	-44.0	-46.7	17.5	0.00e+00	0	43	0	585105408	58	5250
2026-01-20 01:49:14.34	295.71	16.65	-44.1	-46.7	17.5	0.00e+00	0	43	0	587202560	58	5276
2026-01-20 01:49:15.14	295.54	16.63	-44.1	-46.8	17.4	0.00e+00	0	43	0	589299712	58	5301
2026-01-20 01:49:16.60	295.23	16.57	-44.1	-46.8	17.4	0.00e+00	0	43	0	591396864	58	5303
2026-01-20 01:49:17.31	295.08	16.55	-44.2	-46.8	17.4	0.00e+00	0	43	0	593494016	59	5026
2026-01-20 01:49:18.59	294.81	16.50	-44.2	-46.8	17.4	0.00e+00	0	43	0	595591168	59	5008
2026-01-20 01:49:19.31	294.66	16.48	-44.2	-46.8	17.4	0.00e+00	0	43	0	596639744	59	5012
2026-01-20 01:49:20.59	294.39	16.43	-44.2	-46.9	17.4	0.00e+00	0	43	0	599785472	59	5069
2026-01-20 01:49:21.32	294.23	16.40	-44.1	-46.7	17.5	0.00e+00	0	43	0	600834048	59	4953
2026-01-20 01:49:22.60	293.97	16.35	-44.0	-46.6	17.6	0.00e+00	0	43	0	602931200	59	4879
2026-01-20 01:49:23.33	293.81	16.33	-43.9	-46.4	17.7	0.00e+00	0	43	0	603979776	59	4805
2026-01-20 01:49:24.60	293.55	16.28	-43.9	-46.4	17.8	0.00e+00	0	43	0	607125504	59	4791
2026-01-20 01:49:25.41	293.38	16.25	-43.9	-46.5	17.7	0.00e+00	0	43	0	608174080	59	4827
2026-01-20 01:49:26.55	293.14	16.20	-43.9	-46.5	17.7	0.00e+00	0	43	0	610271232	59	4817
2026-01-20 01:49:27.40	292.97	16.17	-43.9	-46.5	17.7	0.00e+00	0	43	0	612368384	59	4821
2026-01-20 01:49:28.53	292.74	16.13	-44.0	-46.6	17.6	0.00e+00	0	44	0	614465536	59	4897
2026-01-20 01:49:29.39	292.56	16.09	-44.0	-46.6	17.6	0.00e+00	0	44	0	615514112	59	4887
2026-01-20 01:49:30.52	292.33	16.05	-44.1	-46.6	17.5	0.00e+00	0	43	0	617611264	59	4926
2026-01-20 01:49:31.37	292.15	16.01	-44.0	-46.6	17.6	0.00e+00	0	43	0	619708416	59	4883
2026-01-20 01:49:32.51	291.92	15.97	-44.0	-46.6	17.6	0.00e+00	0	43	0	621805568	59	4891
2026-01-20 01:49:33.37	291.74	15.93	-44.0	-46.6	17.6	0.00e+00	0	43	0	622854144	59	4903
2026-01-20 01:49:34.51	291.51	15.88	-43.8	-46.3	17.9	0.00e+00	0	43	0	624951296	59	4726
2026-01-20 01:49:35.36	291.34	15.85	-43.7	-46.2	17.9	0.00e+00	0	43	0	627048448	59	4702
2026-01-20 01:49:36.59	291.09	15.80	-43.8	-46.3	17.9	0.00e+00	0	44	0	629145600	59	4748
2026-01-20 01:49:37.44	290.92	15.76	-43.8	-46.4	17.8	0.00e+00	0	43	0	631242752	59	4761
2026-01-20 01:49:38.58	290.69	15.71	-43.9	-46.5	17.7	0.00e+00	0	44	0	633339904	59	4819
2026-01-20 01:49:39.43	290.52	15.68	-43.9	-46.5	17.6	0.00e+00	0	43	0	634388480	59	4851
2026-01-20 01:49:40.57	290.30	15.63	-44.0	-46.5	17.7	0.00e+00	0	43	0	636485632	59	4865
2026-01-20 01:49:41.42	290.13	15.59	-43.9	-46.5	17.7	0.00e+00	0	43	0	638582784	59	4845
2026-01-20 01:49:42.56	289.90	15.54	-43.9	-46.5	17.7	0.00e+00	0	44	0	640679936	59	4854
2026-01-20 01:49:43.41	289.73	15.50	-44.0	-46.6	17.5	0.00e+00	0	43	0	641728512	59	4914
2026-01-20 01:49:44.55	289.51	15.45	-44.0	-46.6	17.6	0.00e+00	0	43	0	643825664	59	4897
2026-01-20 01:49:45.40	289.34	15.42	-44.0	-46.7	17.5	0.00e+00	0	43	0	645922816	59	4940
2026-01-20 01:49:46.54	289.12	15.36	-44.0	-46.6	17.6	0.00e+00	0	43	0	648019968	59	4871
2026-01-20 01:49:47.39	288.95	15.33	-44.0	-46.6	17.6	0.00e+00	0	43	0	649068544	59	4884
2026-01-20 01:49:48.53	288.73	15.28	-43.9	-46.5	17.6	0.00e+00	0	43	0	651165696	59	4867
2026-01-20 01:49:49.38	288.56	15.24	-44.0	-46.6	17.6	0.00e+00	0	43	0	653262848	59	4886
2026-01-20 01:49:50.52	288.34	15.18	-44.0	-46.6	17.6	0.00e+00	0	43	0	655360000	59	4921
2026-01-20 01:49:51.37	288.18	15.15	-44.2	-46.8	17.4	0.00e+00	0	43	0	657457152	59	5015
2026-01-20 01:49:52.57	287.95	15.09	-44.1	-46.8	17.4	0.00e+00	0	43	0	659554304	59	5003
2026-01-20 01:49:53.42	287.78	15.05	-44.1	-46.8	17.4	0.00e+00	0	44	0	660602880	59	4992
2026-01-20 01:49:54.62	287.56	15.00	-44.2	-46.8	17.4	0.00e+00	0	43	0	662700032	59	5022
2026-01-20 01:49:55.47	287.39	14.96	-44.2	-46.8	17.4	0.00e+00	0	43	0	664797184	59	5032
2026-01-20 01:49:56.67	287.17	14.90	-44.2	-46.8	17.4	0.00e+00	0	43	0	666894336	59	5025
2026-01-20 01:49:57.53	287.00	14.86	-44.3	-46.9	17.2	0.00e+00	0	43	0	668991488	59	5094
2026-01-20 01:49:58.66	286.79	14.81	-44.2	-46.9	17.3	0.00e+00	0	43	0	671088640	59	5055
2026-01-20 01:49:59.51	286.63	14.76	-44.3	-47.0	17.2	0.00e+00	0	43	0	672137216	59	5115
2026-01-20 01:50:00.65	286.42	14.71	-44.4	-47.2	17.0	0.00e+00	0	43	0	674234368	59	5236
2026-01-20 01:50:01.50	286.26	14.67	-44.3	-47.1	17.1	0.00e+00	0	44	0	676331520	59	5177
2026-01-20 01:50:02.64	286.04	14.61	-44.3	-47.0	17.1	0.00e+00	0	43	0	678428672	59	5151
2026-01-20 01:50:03.49	285.89	14.57	-44.3	-47.0	17.1	0.00e+00	0	43	0	679477248	59	5157
2026-01-20 01:50:04.63	285.67	14.52	-44.3	-47.0	17.1	0.00e+00	0	43	0	681574400	59	5138
2026-01-20 01:50:05.61	285.49	14.47	-44.3	-47.0	17.2	0.00e+00	0	43	0	683671552	59	5106
2026-01-20 01:50:06.61	285.31	14.42	-44.3	-47.0	17.2	0.00e+00	0	43	0	685768704	59	5130
2026-01-20 01:50:07.82	285.09	14.36	-44.5	-47.2	17.0	0.00e+00	0	43	0	687865856	59	5254
2026-01-20 01:50:08.71	284.93	14.32	-44.5	-47.3	16.9	0.00e+00	0	43	0	689963008	59	5316
2026-01-20 01:50:09.84	284.72	14.26	-44.5	-47.3	16.9	0.00e+00	0	43	0	692060160	59	5311
2026-01-20 01:50:10.69	284.57	14.22	-44.6	-47.5	16.7	0.00e+00	0	43	0	693108736	59	5418
2026-01-20 01:50:12.07	284.32	14.15	-44.7	-47.6	16.7	0.00e+00	0	43	0	696254464	60	5165
2026-01-20 01:50:12.78	284.19	14.11	-44.7	-47.5	16.7	0.00e+00	0	43	0	697303040	60	5135
2026-01-20 01:50:14.06	283.96	14.05	-44.8	-47.7	16.6	0.00e+00	0	43	0	699400192	60	5224
2026-01-20 01:50:14.79	283.83	14.01	-44.7	-47.5	16.6	0.00e+00	0	43	0	700448768	60	5152
2026-01-20 01:50:16.07	283.60	13.95	-44.7	-47.6	16.7	0.00e+00	0	43	0	703594496	60	5160
2026-01-20 01:50:16.81	283.47	13.91	-44.8	-47.7	16.6	0.00e+00	0	43	0	704643072	60	5224
2026-01-20 01:50:18.09	283.24	13.84	-44.9	-47.8	16.5	0.00e+00	0	43	0	706740224	60	5316
2026-01-20 01:50:18.80	283.12	13.81	-44.9	-47.9	16.4	0.00e+00	0	43	0	708837376	60	5365
2026-01-20 01:50:20.07	282.89	13.74	-45.0	-47.9	16.3	0.00e+00	0	43	0	710934528	60	5393
2026-01-20 01:50:20.97	282.74	13.70	-45.1	-48.2	16.1	0.00e+00	0	43	0	713031680	60	5535
2026-01-20 01:50:22.06	282.55	13.64	-45.2	-48.3	16.0	0.00e+00	0	43	0	714080256	61	5307
2026-01-20 01:50:22.92	282.40	13.59	-45.3	-48.5	15.8	0.00e+00	0	43	0	716177408	61	5403
2026-01-20 01:50:24.05	282.20	13.54	-45.4	-48.5	15.7	0.00e+00	0	43	0	718274560	61	5457
2026-01-20 01:50:24.90	282.05	13.49	-45.4	-48.6	15.7	0.00e+00	0	43	0	720371712	61	5489
2026-01-20 01:50:26.04	281.86	13.43	-45.3	-48.4	15.8	0.00e+00	0	43	0	722468864	61	5377
2026-01-20 01:50:26.89	281.71	13.39	-45.2	-48.3	15.9	0.00e+00	0	43	0	723517440	61	5338
2026-01-20 01:50:28.03	281.52	13.33	-45.1	-48.1	16.1	0.00e+00	0	43	0	725614592	61	5208
2026-01-20 01:50:28.88	281.37	13.28	-45.1	-48.2	16.1	0.00e+00	0	43	0	727711744	61	5230
2026-01-20 01:50:30.10	281.17	13.22	-45.0	-47.9	16.3	0.00e+00	0	43	0	729808896	61	5090
2026-01-20 01:50:30.95	281.02	13.17	-45.0	-48.0	16.3	0.00e+00	0	43	0	730857472	61	5105
2026-01-20 01:50:32.09	280.83	13.11	-45.1	-48.1	16.1	0.00e+00	0	43	0	732954624	61	5193
2026-01-20 01:50:33.39	280.61	13.04	-45.3	-48.5	15.8	0.00e+00	0	43	0	736100352	61	5435
2026-01-20 01:50:34.27	280.47	13.00	-45.4	-48.8	15.5	0.00e+00	0	43	0	737148928	61	5595
2026-01-20 01:50:35.41	280.28	12.93	-45.6	-49.0	15.2	0.00e+00	0	43	0	739246080	61	5772
2026-01-20 01:50:36.26	280.14	12.89	-45.7	-49.1	15.1	0.00e+00	0	43	0	741343232	62	5523
2026-01-20 01:50:37.40	279.95	12.83	-45.7	-49.2	15.0	7.00e-07	0	43	0	743440384	62	5587
2026-01-20 01:50:38.25	279.81	12.78	-45.7	-49.2	15.0	0.00e+00	0	43	0	744488960	62	5584
2026-01-20 01:50:39.39	279.62	12.72	-45.8	-49.3	15.0	0.00e+00	0	43	0	746586112	62	5594
2026-01-20 01:50:40.24	279.48	12.67	-45.7	-49.2	15.1	0.00e+00	0	43	0	748683264	62	5534
2026-01-20 01:50:41.38	279.30	12.61	-45.7	-49.0	15.2	7.00e-07	0	43	0	750780416	62	5459
2026-01-20 01:50:42.23	279.16	12.57	-45.6	-49.0	15.2	0.00e+00	0	43	0	752877568	62	5428
2026-01-20 01:50:43.37	278.98	12.50	-45.5	-48.8	15.4	0.00e+00	0	43	0	754974720	62	5308
2026-01-20 01:50:44.22	278.84	12.46	-45.5	-48.8	15.4	0.00e+00	0	43	0	756023296	62	5328
2026-01-20 01:50:45.36	278.66	12.40	-45.5	-48.8	15.4	0.00e+00	0	43	0	758120448	62	5291
2026-01-20 01:50:46.28	278.51	12.35	-45.6	-48.9	15.4	0.00e+00	0	43	0	760217600	62	5359
2026-01-20 01:50:47.47	278.32	12.28	-45.5	-48.8	15.4	0.00e+00	0	44	0	762314752	62	5324
2026-01-20 01:50:48.34	278.18	12.23	-45.6	-48.9	15.4	0.00e+00	0	43	0	763363328	62	5350
2026-01-20 01:50:49.48	278.00	12.17	-45.5	-48.9	15.4	0.00e+00	0	44	0	765460480	62	5348
2026-01-20 01:50:50.33	277.87	12.12	-45.6	-49.0	15.3	0.00e+00	0	43	0	767557632	62	5420
2026-01-20 01:50:51.47	277.69	12.06	-45.6	-49.0	15.3	0.00e+00	0	43	0	769654784	62	5427
2026-01-20 01:50:52.32	277.56	12.01	-45.6	-48.9	15.3	0.00e+00	0	44	0	771751936	62	5396
2026-01-20 01:50:53.45	277.38	11.95	-45.5	-48.9	15.3	0.00e+00	0	44	0	773849088	62	5394
2026-01-20 01:50:54.31	277.25	11.90	-45.5	-48.9	15.4	0.00e+00	0	43	0	774897664	62	5343
2026-01-20 01:50:55.44	277.07	11.84	-45.4	-48.7	15.5	0.00e+00	0	43	0	776994816	62	5247
2026-01-20 01:50:56.29	276.94	11.79	-45.4	-48.6	15.5	7.00e-07	0	44	0	779091968	62	5217
2026-01-20 01:50:57.43	276.77	11.73	-45.4	-48.7	15.5	0.00e+00	0	44	0	781189120	62	5255
2026-01-20 01:50:58.28	276.64	11.68	-45.5	-48.8	15.4	0.00e+00	0	43	0	782237696	62	5297
2026-01-20 01:50:59.42	276.47	11.62	-45.5	-48.8	15.4	0.00e+00	0	43	0	784334848	62	5313
2026-01-20 01:51:00.27	276.34	11.57	-45.6	-48.9	15.3	0.00e+00	0	43	0	786432000	62	5390
2026-01-20 01:51:01.41	276.17	11.51	-45.6	-48.9	15.3	0.00e+00	0	43	0	788529152	62	5372
2026-01-20 01:51:02.26	276.04	11.46	-45.6	-48.9	15.2	0.00e+00	0	43	0	789577728	62	5394
2026-01-20 01:51:03.51	275.85	11.39	-45.5	-48.9	15.3	0.00e+00	0	44	0	792723456	62	5351
2026-01-20 01:51:04.36	275.72	11.34	-45.6	-49.0	15.2	0.00e+00	0	43	0	793772032	62	5408
2026-01-20 01:51:05.58	275.54	11.27	-45.4	-48.7	15.5	0.00e+00	0	43	0	795869184	62	5250
2026-01-20 01:51:06.43	275.42	11.22	-45.3	-48.6	15.6	0.00e+00	0	43	0	797966336	62	5161
2026-01-20 01:51:07.63	275.24	11.16	-45.2	-48.4	15.7	0.00e+00	0	43	0	800063488	62	5090
2026-01-20 01:51:08.48	275.12	11.11	-45.3	-48.5	15.7	0.00e+00	0	43	0	801112064	62	5112
2026-01-20 01:51:09.61	274.95	11.05	-45.1	-48.3	15.9	0.00e+00	0	43	0	804257792	62	5009
2026-01-20 01:51:10.47	274.83	11.00	-45.1	-48.2	16.0	0.00e+00	0	43	0	805306368	62	4955
2026-01-20 01:51:11.61	274.66	10.93	-45.0	-48.1	16.1	0.00e+00	0	43	0	807403520	62	4884
2026-01-20 01:51:12.46	274.54	10.88	-45.0	-48.1	16.1	0.00e+00	0	43	0	809500672	62	4883
2026-01-20 01:51:13.60	274.37	10.82	-45.0	-48.0	16.1	0.00e+00	0	43	0	811597824	62	4863
2026-01-20 01:51:14.45	274.25	10.77	-45.0	-48.0	16.1	0.00e+00	0	43	0	812646400	61	5143
2026-01-20 01:51:15.59	274.09	10.71	-45.0	-48.1	16.1	0.00e+00	0	43	0	814743552	61	5172
2026-01-20 01:51:16.58	273.95	10.65	-45.0	-48.0	16.1	0.00e+00	0	43	0	816840704	61	5145
2026-01-20 01:51:17.75	273.78	10.58	-45.0	-48.0	16.1	0.00e+00	0	44	0	818937856	61	5147
2026-01-20 01:51:18.61	273.66	10.54	-45.0	-48.0	16.1	0.00e+00	0	43	0	821035008	61	5145
2026-01-20 01:51:19.97	273.47	10.46	-45.0	-48.0	16.1	0.00e+00	0	43	0	823132160	61	5146
2026-01-20 01:51:20.68	273.37	10.42	-44.9	-48.0	16.1	0.00e+00	0	43	0	824180736	61	5128
2026-01-20 01:51:21.96	273.19	10.34	-44.9	-47.9	16.1	0.00e+00	0	43	0	827326464	61	5091
2026-01-20 01:51:22.68	273.09	10.30	-44.8	-47.9	16.2	0.00e+00	0	43	0	828375040	61	5066
2026-01-20 01:51:24.23	272.88	10.22	-44.6	-47.6	16.5	0.00e+00	0	44	0	831520768	61	4876
2026-01-20 01:51:24.94	272.78	10.17	-44.5	-47.5	16.6	0.00e+00	0	43	0	832569344	61	4859
2026-01-20 01:51:26.22	272.61	10.10	-44.5	-47.5	16.6	0.00e+00	0	43	0	834666496	61	4837
2026-01-20 01:51:26.96	272.51	10.06	-44.5	-47.5	16.6	0.00e+00	0	43	0	836763648	61	4850
2026-01-20 01:51:28.24	272.33	9.99	-44.4	-47.4	16.7	0.00e+00	0	43	0	838860800	60	5074
2026-01-20 01:51:28.95	272.24	9.95	-44.3	-47.3	16.8	0.00e+00	0	43	0	839909376	60	4989
2026-01-20 01:51:30.23	272.07	9.87	-44.4	-47.4	16.7	0.00e+00	0	43	0	842006528	60	5065
2026-01-20 01:51:30.93	271.97	9.83	-44.4	-47.4	16.6	0.00e+00	0	44	0	844103680	60	5079
2026-01-20 01:51:32.23	271.80	9.76	-44.2	-47.2	16.8	0.00e+00	0	43	0	846200832	60	4950
2026-01-20 01:51:32.94	271.70	9.72	-44.2	-47.2	16.9	0.00e+00	0	44	0	847249408	60	4927
2026-01-20 01:51:34.21	271.53	9.64	-44.2	-47.2	16.8	0.00e+00	0	43	0	849346560	60	4974
2026-01-20 01:51:34.99	271.43	9.60	-44.2	-47.2	16.9	0.00e+00	0	43	0	851443712	60	4947
2026-01-20 01:51:36.27	271.26	9.53	-44.2	-47.1	16.9	0.00e+00	0	44	0	853540864	60	4924
2026-01-20 01:51:37.00	271.17	9.49	-44.2	-47.0	17.0	0.00e+00	0	43	0	855638016	60	4859
2026-01-20 01:51:38.27	271.00	9.41	-44.0	-46.9	17.1	0.00e+00	0	43	0	857735168	60	4766
2026-01-20 01:51:39.10	270.89	9.36	-44.0	-46.8	17.2	0.00e+00	0	43	0	858783744	60	4749
2026-01-20 01:51:40.23	270.75	9.30	-44.1	-46.8	17.2	0.00e+00	0	43	0	860880896	60	4749
2026-01-20 01:51:41.09	270.64	9.25	-44.0	-46.8	17.2	0.00e+00	0	43	0	862978048	60	4706
2026-01-20 01:51:42.23	270.49	9.19	-44.0	-46.7	17.3	0.00e+00	0	43	0	865075200	59	4944
2026-01-20 01:51:43.08	270.38	9.14	-44.0	-46.7	17.3	0.00e+00	0	43	0	866123776	59	4946
2026-01-20 01:51:44.21	270.24	9.07	-44.0	-46.7	17.2	0.00e+00	0	43	0	868220928	59	4971
2026-01-20 01:51:45.07	270.13	9.02	-44.0	-46.7	17.3	0.00e+00	0	43	0	870318080	59	4942
2026-01-20 01:51:46.20	269.99	8.96	-50.0	-63.2	3.8	2.03e-02	0	43	104	871366656	70	17626
2026-01-20 01:51:47.05	269.88	8.91	-50.1	-65.4	3.8	1.49e+00	0	43	104	871366656	71	21439
2026-01-20 01:51:48.19	269.74	8.84	-50.3	-65.7	3.8	1.49e+00	0	43	104	871366656	71	22111
2026-01-20 01:51:49.04	269.63	8.80	-50.5	-65.8	3.8	1.49e+00	0	43	104	871366656	71	22383
2026-01-20 01:51:50.17	269.49	8.73	-50.5	-65.9	3.8	1.49e+00	0	43	104	871366656	71	22606
2026-01-20 01:51:51.09	269.38	8.68	-50.6	-65.9	3.8	1.49e+00	0	43	104	871366656	71	22650
2026-01-20 01:51:52.08	269.25	8.62	-50.5	-65.9	3.8	1.49e+00	0	43	104	871366656	71	22728
2026-01-20 01:51:53.08	269.13	8.56	-50.6	-66.0	3.8	1.49e+00	0	43	104	871366656	71	22868
2026-01-20 01:51:54.07	269.01	8.51	-50.7	-66.0	3.8	1.49e+00	0	43	104	871366656	71	22815
2026-01-20 01:51:55.06	268.89	8.45	-50.7	-66.0	3.8	1.49e+00	0	44	104	871366656	72	21534
2026-01-20 01:51:56.05	268.77	8.39	-50.6	-66.0	3.8	1.49e+00	0	44	104	871366656	72	21595
2026-01-20 01:51:57.05	268.65	8.34	-50.7	-66.0	3.8	1.49e+00	0	43	104	871366656	72	21609
2026-01-20 01:51:58.04	268.53	8.28	-50.6	-66.0	3.8	1.49e+00	0	44	104	871366656	72	21553
2026-01-20 01:51:59.03	268.41	8.22	-50.7	-66.0	3.8	1.49e+00	0	43	104	871366656	72	21621
2026-01-20 01:52:00.03	268.29	8.17	-50.6	-65.9	3.8	1.49e+00	0	43	104	871366656	72	21465
2026-01-20 01:52:01.02	268.17	8.11	-50.6	-65.9	3.8	1.49e+00	0	44	104	871366656	72	21453
2026-01-20 01:52:02.01	268.05	8.05	-50.5	-66.0	3.8	1.49e+00	0	43	104	871366656	72	21514
2026-01-20 01:52:03.01	267.94	8.00	-50.7	-66.0	3.8	1.49e+00	0	43	104	871366656	72	21608
2026-01-20 01:52:04.00	267.82	7.94	-50.7	-66.0	3.8	1.49e+00	0	43	104	871366656	72	21564
2026-01-20 01:52:04.99	267.70	7.88	-50.6	-66.0	3.8	1.49e+00	0	44	104	871366656	72	21563
2026-01-20 01:52:05.98	267.59	7.83	-50.6	-66.0	3.8	1.49e+00	0	44	104	871366656	72	21588
2026-01-20 01:52:06.98	267.47	7.77	-50.7	-66.0	3.8	1.49e+00	0	44	104	871366656	72	21612
2026-01-20 01:52:07.97	267.36	7.71	-50.6	-66.0	3.8	1.49e+00	0	44	104	871366656	72	21587
2026-01-20 01:52:08.96	267.24	7.65	-50.7	-66.0	3.8	1.49e+00	0	44	104	871366656	72	21619
2026-01-20 01:52:09.96	267.13	7.60	-50.7	-66.0	3.8	1.49e+00	0	44	104	871366656	72	21627
2026-01-20 01:52:10.95	267.02	7.54	-50.6	-65.9	3.8	1.49e+00	0	44	104	871366656	72	21438
2026-01-20 01:52:11.94	266.90	7.48	-50.6	-65.9	3.8	1.49e+00	0	44	104	871366656	72	21474
2026-01-20 01:52:12.93	266.79	7.43	-50.6	-65.9	3.8	1.49e+00	0	44	104	871366656	72	21389
2026-01-20 01:52:13.93	266.68	7.37	-50.6	-65.9	3.8	1.49e+00	0	43	104	871366656	72	21323
2026-01-20 01:52:14.92	266.57	7.31	-50.6	-65.9	3.8	1.49e+00	0	44	104	871366656	72	21307
2026-01-20 01:52:15.91	266.45	7.26	-50.6	-65.9	3.8	1.49e+00	0	44	104	871366656	72	21303
2026-01-20 01:52:16.91	266.34	7.20	-50.6	-65.9	3.8	1.49e+00	0	43	104	871366656	72	21321
2026-01-20 01:52:17.90	266.23	7.15	-50.5	-65.9	3.8	1.49e+00	0	43	104	871366656	72	21340
2026-01-20 01:52:18.89	266.12	7.09	-50.5	-65.9	3.8	1.49e+00	0	43	104	871366656	72	21288
2026-01-20 01:52:19.89	266.01	7.03	-50.5	-65.8	3.8	1.49e+00	0	43	104	871366656	72	21256
2026-01-20 01:52:20.88	265.90	6.98	-50.5	-65.9	3.8	1.49e+00	0	44	104	871366656	72	21310
2026-01-20 01:52:21.88	265.79	6.92	-50.5	-65.8	3.8	1.49e+00	0	44	104	871366656	72	21237
2026-01-20 01:52:22.87	265.69	6.86	-50.3	-65.8	3.8	1.49e+00	0	43	104	871366656	72	21241
2026-01-20 01:52:23.86	265.58	6.81	-50.3	-65.8	3.8	1.49e+00	0	44	104	871366656	72	21228
2026-01-20 01:52:24.86	265.47	6.75	-50.3	-65.8	3.8	1.49e+00	0	43	104	871366656	72	21243
2026-01-20 01:52:25.85	265.36	6.69	-50.3	-65.9	3.8	1.49e+00	0	43	104	871366656	72	21274
2026-01-20 01:52:26.84	265.26	6.64	-50.3	-65.8	3.8	1.49e+00	0	44	104	871366656	72	21255
2026-01-20 01:52:27.83	265.15	6.58	-50.3	-65.8	3.8	1.49e+00	0	43	104	871366656	72	21238
2026-01-20 01:52:28.83	265.04	6.52	-50.3	-65.8	3.8	1.49e+00	0	44	104	871366656	72	21131
2026-01-20 01:52:29.82	264.94	6.47	-50.3	-65.8	3.8	1.49e+00	0	43	104	871366656	72	21211
2026-01-20 01:52:30.82	264.83	6.41	-50.3	-65.8	3.8	1.49e+00	0	43	104	871366656	72	21201
2026-01-20 01:52:31.81	264.73	6.36	-50.2	-65.8	3.8	1.49e+00	0	44	104	871366656	72	21201
2026-01-20 01:52:32.80	264.62	6.30	-50.2	-65.8	3.8	1.49e+00	0	44	104	871366656	72	21139
2026-01-20 01:52:33.80	264.52	6.24	-50.2	-65.8	3.8	1.49e+00	0	43	104	871366656	72	21098
2026-01-20 01:52:34.79	264.42	6.19	-50.2	-65.8	3.8	1.49e+00	0	44	104	871366656	72	21155
2026-01-20 01:52:35.78	264.31	6.13	-50.2	-65.8	3.8	1.49e+00	0	43	104	871366656	72	21150
2026-01-20 01:52:36.77	264.21	6.08	-50.2	-65.8	3.8	1.49e+00	0	43	104	871366656	72	21147
2026-01-20 01:52:37.76	264.11	6.02	-50.2	-65.8	3.8	1.49e+00	0	44	104	871366656	72	21141
2026-01-20 01:52:38.76	264.01	5.96	-50.2	-65.8	3.8	1.49e+00	0	44	104	871366656	72	21126
2026-01-20 01:52:39.75	263.91	5.91	-50.2	-65.8	3.8	1.49e+00	0	44	104	871366656	72	21063
2026-01-20 01:52:40.75	263.81	5.85	-50.2	-65.8	3.8	1.49e+00	0	44	104	871366656	72	21078
2026-01-20 01:52:41.74	263.71	5.80	-50.2	-65.8	3.8	1.49e+00	0	44	104	871366656	72	21108
2026-01-20 01:52:42.73	263.61	5.74	-50.2	-65.8	3.8	1.49e+00	0	44	104	871366656	72	21132
2026-01-20 01:52:43.72	263.51	5.69	-50.2	-65.8	3.8	1.49e+00	0	44	104	871366656	72	21151
2026-01-20 01:52:44.72	263.41	5.63	-50.2	-65.8	3.8	1.49e+00	0	43	104	871366656	72	21190
2026-01-20 01:52:45.71	263.31	5.57	-50.2	-65.8	3.8	1.49e+00	0	43	104	871366656	72	21158
2026-01-20 01:52:46.70	263.21	5.52	-50.2	-65.8	3.8	1.49e+00	0	43	104	871366656	72	21180
2026-01-20 01:52:47.70	263.11	5.46	-50.2	-65.8	3.8	1.49e+00	0	43	104	871366656	72	21163
2026-01-20 01:52:48.69	263.01	5.41	-50.2	-65.8	3.8	1.49e+00	0	44	104	871366656	72	21057
2026-01-20 01:52:49.68	262.91	5.35	-50.2	-65.8	3.8	1.49e+00	0	43	104	871366656	72	21134
2026-01-20 01:52:50.68	262.82	5.30	-50.2	-65.8	3.8	1.49e+00	0	44	104	871366656	72	21124
2026-01-20 01:52:51.67	262.72	5.24	-50.2	-65.8	3.8	1.49e+00	0	44	104	871366656	72	21177
2026-01-20 01:52:52.66	262.62	5.19	-50.2	-65.8	3.8	1.49e+00	0	44	104	871366656	72	21188
2026-01-20 01:52:53.66	262.53	5.13	-50.2	-65.8	3.8	1.49e+00	0	44	104	871366656	72	21093
2026-01-20 01:52:54.65	262.43	5.08	-50.2	-65.8	3.8	1.49e+00	0	44	104	871366656	72	21134
2026-01-20 01:52:55.64	262.34	5.02	-50.2	-65.8	3.8	1.49e+00	0	43	104	871366656	72	21020
2026-01-20 01:52:56.64	262.24	4.96	-50.2	-65.8	3.8	1.49e+00	0	44	104	871366656	72	21055

#Closed at: 2026-01-20 01:52:57
#Recorded file [871 MB]: D:/Data/31040_260120_044255.dat