passes_logs/2026/01/20/T1/T1__20260120_225303_NOAA_21_JPSS-2_rec.log

#Pass ID: 20260120_225303_NOAA 21 (JPSS-2)
#Satellite: NOAA 21 (JPSS-2)
#Configuration: NOAA 21
#almurnet v.1.7.20251203
#Start time: 2026-01-20 22:53:03

#Version: 2.0.20230620
#Station: T1
#Location: 37.570604 lon 55.790049 lat
#TLE: 1 54234U 22150A   26020.29910383  .00000141  00000+0  87571-4 0  9990
#TLE: 2 54234  98.7506 321.1348 0000615 250.8428 109.2682 14.19536295165564

#Time	Az	El	Level	Level2	SNR	BER	BlckErr	Temp	State	Recorded	gain1	gain2
2026-01-20 22:53:03.06	22.30	4.96	-49.7	-63.5	3.8	1.49e+00	0	41	0	0	71	17246
2026-01-20 22:53:04.05	22.35	5.02	-49.7	-63.5	3.8	1.49e+00	0	41	104	0	70	18123
2026-01-20 22:53:05.04	22.39	5.09	-49.7	-63.4	3.8	1.49e+00	0	41	104	0	70	18061
2026-01-20 22:53:06.03	22.44	5.16	-49.7	-63.4	3.8	1.49e+00	0	41	104	0	70	18005
2026-01-20 22:53:07.03	22.49	5.23	-49.7	-63.3	3.8	1.49e+00	0	41	104	0	70	17845
2026-01-20 22:53:08.02	22.54	5.29	-49.7	-63.3	3.8	1.49e+00	0	41	104	0	70	17812
2026-01-20 22:53:09.01	22.59	5.36	-49.7	-63.3	3.8	1.49e+00	0	41	104	0	70	17745
2026-01-20 22:53:10.00	22.63	5.43	-49.7	-63.2	3.8	1.49e+00	0	41	104	0	70	17678
2026-01-20 22:53:11.00	22.68	5.50	-49.7	-63.2	3.8	1.49e+00	0	41	104	0	70	17659
2026-01-20 22:53:11.99	22.73	5.56	-49.7	-63.3	3.8	1.49e+00	0	41	104	0	70	17739
2026-01-20 22:53:12.98	22.78	5.63	-49.7	-63.3	3.8	1.49e+00	0	41	104	0	70	17736
2026-01-20 22:53:13.98	22.83	5.70	-49.7	-63.3	3.8	1.49e+00	0	41	104	0	70	17762
2026-01-20 22:53:14.97	22.88	5.77	-49.7	-63.3	3.8	1.49e+00	0	41	104	0	70	17872
2026-01-20 22:53:15.96	22.93	5.84	-49.7	-63.4	3.8	1.49e+00	0	41	104	0	70	17959
2026-01-20 22:53:16.96	22.98	5.91	-49.7	-63.4	3.8	1.49e+00	0	41	104	0	70	18005
2026-01-20 22:53:17.95	23.03	5.98	-49.7	-63.4	3.8	1.49e+00	0	41	104	0	70	18072
2026-01-20 22:53:18.94	23.08	6.05	-49.7	-63.4	3.8	1.49e+00	0	41	104	0	70	18029
2026-01-20 22:53:19.94	23.13	6.12	-49.7	-63.5	3.8	1.49e+00	0	41	104	0	70	18117
2026-01-20 22:53:20.93	23.18	6.19	-49.7	-63.4	3.8	1.49e+00	0	41	104	0	70	18054
2026-01-20 22:53:21.92	23.24	6.25	-49.7	-63.4	3.8	1.49e+00	0	41	104	0	70	18061
2026-01-20 22:53:22.92	23.29	6.33	-49.7	-63.4	3.8	1.49e+00	0	41	104	0	70	18021
2026-01-20 22:53:23.91	23.34	6.40	-49.7	-63.4	3.8	1.49e+00	0	42	104	0	70	18061
2026-01-20 22:53:24.90	23.39	6.47	-49.7	-63.3	3.8	1.49e+00	0	42	104	0	70	17885
2026-01-20 22:53:25.89	23.44	6.54	-49.7	-63.4	3.8	1.49e+00	0	42	104	0	70	17893
2026-01-20 22:53:26.89	23.50	6.61	-49.7	-63.4	3.8	1.49e+00	0	42	104	0	70	17896
2026-01-20 22:53:27.88	23.55	6.68	-49.7	-63.3	3.8	1.49e+00	0	42	104	0	70	17877
2026-01-20 22:53:28.87	23.60	6.75	-49.7	-63.4	3.8	1.49e+00	0	42	104	0	70	17969
2026-01-20 22:53:29.87	23.65	6.82	-49.7	-63.4	3.8	1.49e+00	0	42	104	0	70	18003
2026-01-20 22:53:30.86	23.71	6.89	-49.7	-63.4	3.8	1.49e+00	0	42	104	0	70	18017
2026-01-20 22:53:31.85	23.76	6.96	-49.7	-63.4	3.8	1.49e+00	0	42	104	0	70	18022
2026-01-20 22:53:32.84	23.81	7.03	-49.7	-63.4	3.8	1.49e+00	0	42	104	0	70	17970
2026-01-20 22:53:33.84	23.87	7.11	-49.7	-63.3	3.8	1.49e+00	0	42	104	0	70	17848
2026-01-20 22:53:34.83	23.92	7.18	-49.7	-63.2	3.8	1.49e+00	0	42	104	0	70	17646
2026-01-20 22:53:35.82	23.98	7.25	-49.7	-63.1	3.8	1.49e+00	0	42	104	0	70	17331
2026-01-20 22:53:36.82	24.03	7.32	-49.7	-62.9	3.8	1.49e+00	0	42	104	0	70	16935
2026-01-20 22:53:37.81	24.09	7.40	-49.7	-62.7	3.8	1.49e+00	0	42	104	0	70	16674
2026-01-20 22:53:38.80	24.14	7.47	-49.7	-62.6	3.8	1.49e+00	0	42	104	0	70	16386
2026-01-20 22:53:39.80	24.20	7.54	-49.7	-62.4	3.8	1.49e+00	0	42	104	0	70	16092
2026-01-20 22:53:40.79	24.25	7.61	-49.7	-62.3	3.8	1.49e+00	0	42	104	0	70	15942
2026-01-20 22:53:41.78	24.31	7.69	-49.7	-62.3	3.8	1.49e+00	0	42	104	0	70	15906
2026-01-20 22:53:42.77	24.37	7.76	-49.7	-62.3	3.8	1.49e+00	0	42	104	0	70	15857
2026-01-20 22:53:43.77	24.42	7.84	-49.7	-62.3	3.8	1.49e+00	0	42	104	0	70	15801
2026-01-20 22:53:44.76	24.48	7.91	-49.7	-62.3	3.8	1.49e+00	0	42	104	0	70	15886
2026-01-20 22:53:45.75	24.54	7.98	-49.6	-62.3	3.8	1.49e+00	0	42	104	0	70	15878
2026-01-20 22:53:46.75	24.60	8.06	-49.7	-62.3	3.8	1.49e+00	0	42	104	0	70	15795
2026-01-20 22:53:47.74	24.65	8.13	-49.7	-62.3	3.8	1.49e+00	0	42	104	0	70	15784
2026-01-20 22:53:48.73	24.71	8.21	-49.6	-62.1	3.8	1.49e+00	0	42	104	0	70	15556
2026-01-20 22:53:49.73	24.77	8.28	-49.6	-62.0	3.8	1.49e+00	0	42	104	0	70	15372
2026-01-20 22:53:50.72	24.83	8.36	-49.6	-61.8	3.9	1.49e+00	0	42	104	0	70	14885
2026-01-20 22:53:51.71	24.89	8.43	-49.5	-60.8	4.0	1.48e+00	0	42	104	0	70	13267
2026-01-20 22:53:52.71	24.95	8.51	-49.5	-60.1	4.2	1.47e+00	0	43	104	0	70	12308
2026-01-20 22:53:53.70	25.00	8.58	-49.3	-58.9	4.6	1.36e+00	0	42	104	0	70	10726
2026-01-20 22:53:54.69	25.06	8.66	-49.1	-57.6	5.2	6.54e-01	0	43	0	0	70	9224
2026-01-20 22:53:55.69	25.12	8.74	-48.8	-56.1	6.3	3.94e-01	0	42	0	0	69	8241
2026-01-20 22:53:56.68	25.18	8.81	-48.4	-54.7	7.5	1.46e-01	0	43	0	0	68	7405
2026-01-20 22:53:57.67	25.25	8.89	-47.7	-53.1	9.0	3.84e-02	0	42	0	0	67	6529
2026-01-20 22:53:58.66	25.31	8.97	-47.3	-52.1	10.0	9.11e-03	0	43	0	0	66	6153
2026-01-20 22:53:59.66	25.37	9.04	-46.9	-51.2	10.9	3.67e-03	0	42	0	0	65	5890
2026-01-20 22:54:00.65	25.43	9.12	-46.3	-50.1	12.2	6.17e-04	0	42	0	0	64	5465
2026-01-20 22:54:01.64	25.49	9.20	-47.8	-53.4	8.8	1.60e-03	0	42	0	0	66	7154
2026-01-20 22:54:02.64	25.55	9.28	-46.4	-50.2	11.9	1.24e-02	0	42	0	0	64	5577
2026-01-20 22:54:03.63	25.61	9.35	-48.3	-55.5	6.7	2.77e-02	0	42	0	0	67	8636
2026-01-20 22:54:04.63	25.68	9.43	-44.5	-47.3	14.7	7.32e-03	0	43	0	0	61	4715
2026-01-20 22:54:05.62	25.74	9.51	-42.8	-45.1	17.0	0.00e+00	0	42	0	0	57	4619
2026-01-20 22:54:06.62	25.80	9.59	-42.6	-44.7	17.4	0.00e+00	0	43	0	0	57	4437
2026-01-20 22:54:07.61	25.87	9.67	-42.6	-44.7	17.4	0.00e+00	0	43	0	0	57	4422
2026-01-20 22:54:08.60	25.93	9.75	-42.4	-44.5	17.6	0.00e+00	0	43	0	0	56	4576
2026-01-20 22:54:09.60	26.00	9.83	-42.3	-44.4	17.7	0.00e+00	0	43	0	0	56	4500
2026-01-20 22:54:10.59	26.06	9.91	-42.4	-44.5	17.6	0.00e+00	0	42	0	0	56	4558
2026-01-20 22:54:11.59	26.13	9.99	-42.3	-44.3	17.8	0.00e+00	0	43	0	0	56	4480
2026-01-20 22:54:12.58	26.19	10.07	-42.4	-44.4	17.6	0.00e+00	0	42	0	0	56	4544
2026-01-20 22:54:13.58	26.26	10.15	-42.3	-44.4	17.7	0.00e+00	0	42	0	0	56	4512
2026-01-20 22:54:14.58	26.32	10.23	-42.2	-44.2	17.9	0.00e+00	0	42	0	0	56	4415
2026-01-20 22:54:15.57	26.39	10.31	-42.2	-44.2	17.9	0.00e+00	0	42	0	0	56	4408
2026-01-20 22:54:16.56	26.46	10.39	-42.2	-44.2	17.9	0.00e+00	0	43	0	0	56	4439
2026-01-20 22:54:17.56	26.52	10.47	-42.1	-44.1	18.0	0.00e+00	0	43	0	0	56	4354
2026-01-20 22:54:18.56	26.59	10.55	-41.8	-43.8	18.1	0.00e+00	0	43	0	0	55	4452
2026-01-20 22:54:19.55	26.66	10.63	-41.8	-43.7	18.1	0.00e+00	0	43	0	0	55	4441
2026-01-20 22:54:20.55	26.73	10.72	-41.9	-43.9	18.1	0.00e+00	0	43	0	0	55	4502
2026-01-20 22:54:21.54	26.79	10.80	-41.9	-43.9	18.1	0.00e+00	0	43	0	0	55	4511
2026-01-20 22:54:22.54	26.86	10.88	-41.8	-43.8	18.2	0.00e+00	0	43	0	0	55	4448
2026-01-20 22:54:23.53	26.93	10.96	-41.8	-43.8	18.2	0.00e+00	0	43	0	0	55	4453
2026-01-20 22:54:24.53	27.00	11.05	-41.8	-43.7	18.2	0.00e+00	0	43	0	0	55	4428
2026-01-20 22:54:25.52	27.07	11.13	-41.8	-43.7	18.2	0.00e+00	0	43	0	0	55	4440
2026-01-20 22:54:26.52	27.14	11.21	-41.7	-43.6	18.3	0.00e+00	0	43	0	0	55	4375
2026-01-20 22:54:27.51	27.21	11.30	-41.5	-43.4	18.5	0.00e+00	0	43	0	0	55	4276
2026-01-20 22:54:28.50	27.28	11.38	-41.6	-43.5	18.4	0.00e+00	0	43	0	0	55	4325
2026-01-20 22:54:29.50	27.36	11.46	-41.7	-43.6	18.4	0.00e+00	0	43	0	0	55	4364
2026-01-20 22:54:30.50	27.43	11.55	-41.6	-43.5	18.4	0.00e+00	0	43	0	0	55	4313
2026-01-20 22:54:31.49	27.50	11.63	-41.6	-43.5	18.5	0.00e+00	0	43	0	0	55	4303
2026-01-20 22:54:32.49	27.57	11.72	-41.6	-43.5	18.4	0.00e+00	0	43	0	0	55	4329
2026-01-20 22:54:33.48	27.65	11.80	-41.6	-43.5	18.5	0.00e+00	0	43	0	0	55	4311
2026-01-20 22:54:34.48	27.72	11.89	-41.6	-43.5	18.4	0.00e+00	0	43	0	0	55	4335
2026-01-20 22:54:35.47	27.79	11.98	-41.4	-43.4	18.6	0.00e+00	0	43	0	0	54	4494
2026-01-20 22:54:36.46	27.87	12.06	-41.4	-43.3	18.6	0.00e+00	0	43	0	0	54	4487
2026-01-20 22:54:37.46	27.94	12.15	-41.4	-43.3	18.6	0.00e+00	0	43	0	0	54	4478
2026-01-20 22:54:38.46	28.02	12.23	-41.3	-43.2	18.7	0.00e+00	0	43	0	0	54	4433
2026-01-20 22:54:39.45	28.09	12.32	-41.4	-43.3	18.7	0.00e+00	0	43	0	0	54	4446
2026-01-20 22:54:40.45	28.17	12.41	-41.2	-43.1	18.9	0.00e+00	0	43	0	0	54	4371
2026-01-20 22:54:41.44	28.24	12.50	-41.3	-43.1	18.8	0.00e+00	0	43	0	0	54	4381
2026-01-20 22:54:42.43	28.32	12.58	-41.4	-43.3	18.7	0.00e+00	0	43	0	0	54	4454
2026-01-20 22:54:43.43	28.40	12.67	-41.3	-43.1	18.8	0.00e+00	0	43	0	0	54	4384
2026-01-20 22:54:44.42	28.47	12.76	-41.3	-43.2	18.8	0.00e+00	0	43	0	0	54	4392
2026-01-20 22:54:45.42	28.55	12.85	-41.2	-43.1	18.9	0.00e+00	0	43	0	0	54	4367
2026-01-20 22:54:46.41	28.63	12.94	-41.2	-43.0	19.0	0.00e+00	0	43	0	0	54	4326
2026-01-20 22:54:47.41	28.71	13.03	-41.2	-43.1	18.9	0.00e+00	0	43	0	0	54	4365
2026-01-20 22:54:48.40	28.79	13.11	-41.3	-43.2	18.8	0.00e+00	0	43	0	0	54	4428
2026-01-20 22:54:49.40	28.87	13.20	-41.2	-43.0	19.0	0.00e+00	0	43	0	0	54	4331
2026-01-20 22:54:50.39	28.95	13.29	-41.3	-43.1	18.9	0.00e+00	0	43	0	0	54	4379
2026-01-20 22:54:51.39	29.03	13.38	-41.1	-43.0	19.0	0.00e+00	0	43	0	0	54	4308
2026-01-20 22:54:52.38	29.11	13.47	-41.2	-43.0	19.0	0.00e+00	0	43	0	0	54	4322
2026-01-20 22:54:53.38	29.19	13.57	-41.1	-43.0	19.0	0.00e+00	0	43	0	0	54	4305
2026-01-20 22:54:54.37	29.28	13.66	-41.1	-43.0	19.1	0.00e+00	0	43	0	0	54	4297
2026-01-20 22:54:55.37	29.36	13.75	-41.2	-43.1	19.0	0.00e+00	0	43	0	0	54	4341
2026-01-20 22:54:56.36	29.44	13.84	-41.3	-43.1	19.0	0.00e+00	0	43	0	0	54	4353
2026-01-20 22:54:57.36	29.53	13.93	-41.2	-43.0	19.0	0.00e+00	0	43	0	0	54	4340
2026-01-20 22:54:58.35	29.61	14.02	-41.2	-43.0	19.0	0.00e+00	0	43	0	0	54	4324
2026-01-20 22:54:59.35	29.69	14.12	-41.3	-43.1	18.9	0.00e+00	0	43	0	0	54	4388
2026-01-20 22:55:00.34	29.78	14.21	-41.3	-43.1	18.9	0.00e+00	0	43	0	0	54	4379
2026-01-20 22:55:01.33	29.86	14.30	-41.3	-43.1	19.0	0.00e+00	0	43	0	0	54	4352
2026-01-20 22:55:02.33	29.95	14.39	-41.3	-43.1	19.0	0.00e+00	0	43	0	0	54	4366
2026-01-20 22:55:03.32	30.04	14.49	-41.3	-43.1	19.0	0.00e+00	0	43	0	0	54	4359
2026-01-20 22:55:04.32	30.12	14.58	-41.3	-43.1	19.0	0.00e+00	0	43	0	0	54	4359
2026-01-20 22:55:05.31	30.21	14.68	-41.3	-43.1	18.9	0.00e+00	0	43	0	0	54	4383
2026-01-20 22:55:06.31	30.30	14.77	-41.3	-43.1	19.0	0.00e+00	0	43	0	0	54	4350
2026-01-20 22:55:07.30	30.39	14.87	-41.3	-43.1	18.9	0.00e+00	0	43	0	0	54	4390
2026-01-20 22:55:08.30	30.48	14.96	-41.2	-43.0	19.1	0.00e+00	0	43	0	0	54	4307
2026-01-20 22:55:09.29	30.57	15.06	-41.2	-43.0	19.1	0.00e+00	0	43	0	0	54	4330
2026-01-20 22:55:10.29	30.66	15.15	-41.2	-43.0	19.1	0.00e+00	0	43	0	0	54	4324
2026-01-20 22:55:11.28	30.75	15.25	-41.3	-43.1	19.0	0.00e+00	0	43	0	0	54	4367
2026-01-20 22:55:12.28	30.84	15.35	-41.1	-42.9	19.2	0.00e+00	0	43	0	0	54	4287
2026-01-20 22:55:13.27	30.93	15.44	-41.2	-43.0	19.1	0.00e+00	0	43	0	0	54	4311
2026-01-20 22:55:14.27	31.03	15.54	-41.2	-43.1	19.1	0.00e+00	0	43	0	0	54	4341
2026-01-20 22:55:15.26	31.12	15.64	-41.3	-43.1	19.1	0.00e+00	0	43	0	0	54	4358
2026-01-20 22:55:16.25	31.21	15.73	-41.3	-43.1	19.1	0.00e+00	0	43	0	0	54	4360
2026-01-20 22:55:17.25	31.31	15.83	-41.3	-43.1	19.0	0.00e+00	0	43	0	0	54	4384
2026-01-20 22:55:18.24	31.40	15.93	-41.4	-43.3	18.9	0.00e+00	0	43	0	0	54	4460
2026-01-20 22:55:19.24	31.50	16.03	-41.5	-43.4	18.8	0.00e+00	0	43	0	0	54	4524
2026-01-20 22:55:20.23	31.59	16.13	-41.6	-43.5	18.7	0.00e+00	0	43	0	0	54	4581
2026-01-20 22:55:21.23	31.69	16.23	-41.6	-43.5	18.7	0.00e+00	0	43	0	0	54	4569
2026-01-20 22:55:22.22	31.79	16.33	-41.7	-43.6	18.6	0.00e+00	0	43	0	0	54	4622
2026-01-20 22:55:23.21	31.88	16.43	-41.7	-43.5	18.6	0.00e+00	0	43	0	0	54	4591
2026-01-20 22:55:24.21	31.98	16.53	-41.6	-43.5	18.7	0.00e+00	0	43	0	0	54	4567
2026-01-20 22:55:25.20	32.08	16.63	-41.7	-43.6	18.6	0.00e+00	0	43	0	0	54	4617
2026-01-20 22:55:26.20	32.18	16.73	-41.7	-43.6	18.6	0.00e+00	0	43	0	0	54	4603
2026-01-20 22:55:27.19	32.28	16.83	-41.7	-43.5	18.7	0.00e+00	0	43	0	0	54	4589
2026-01-20 22:55:28.19	32.38	16.93	-41.7	-43.5	18.6	0.00e+00	0	43	0	0	54	4598
2026-01-20 22:55:29.18	32.49	17.03	-41.6	-43.5	18.7	0.00e+00	0	43	0	0	54	4550
2026-01-20 22:55:30.18	32.59	17.14	-41.6	-43.5	18.7	0.00e+00	0	43	0	0	54	4566
2026-01-20 22:55:31.17	32.69	17.24	-41.7	-43.6	18.6	0.00e+00	0	43	0	0	54	4615
2026-01-20 22:55:32.17	32.80	17.34	-41.7	-43.6	18.6	0.00e+00	0	43	0	0	54	4621
2026-01-20 22:55:33.16	32.90	17.45	-41.8	-43.6	18.6	0.00e+00	0	43	0	0	54	4644
2026-01-20 22:55:34.15	33.00	17.55	-41.7	-43.5	18.6	0.00e+00	0	43	0	0	54	4598
2026-01-20 22:55:35.15	33.11	17.65	-41.7	-43.6	18.6	0.00e+00	0	43	0	0	54	4613
2026-01-20 22:55:36.14	33.22	17.76	-41.8	-43.7	18.6	0.00e+00	0	43	0	0	54	4661
2026-01-20 22:55:37.14	33.32	17.86	-41.7	-43.6	18.6	0.00e+00	0	43	0	0	54	4616
2026-01-20 22:55:38.13	33.43	17.97	-41.8	-43.6	18.6	0.00e+00	0	43	0	0	54	4641
2026-01-20 22:55:39.13	33.54	18.08	-41.8	-43.7	18.5	0.00e+00	0	43	0	0	54	4670
2026-01-20 22:55:40.12	33.65	18.18	-41.8	-43.7	18.5	0.00e+00	0	43	0	0	54	4672
2026-01-20 22:55:41.12	33.76	18.29	-41.7	-43.6	18.6	0.00e+00	0	43	0	0	54	4645
2026-01-20 22:55:42.11	33.87	18.39	-41.8	-43.7	18.5	0.00e+00	0	43	0	0	54	4654
2026-01-20 22:55:43.11	33.98	18.50	-41.7	-43.6	18.6	0.00e+00	0	43	0	0	54	4637
2026-01-20 22:55:44.10	34.10	18.61	-41.7	-43.6	18.6	0.00e+00	0	43	0	0	54	4645
2026-01-20 22:55:45.10	34.21	18.72	-41.7	-43.6	18.6	0.00e+00	0	43	0	0	54	4631
2026-01-20 22:55:46.10	34.32	18.83	-41.6	-43.5	18.7	0.00e+00	0	43	0	0	54	4547
2026-01-20 22:55:47.09	34.44	18.93	-41.6	-43.4	18.8	0.00e+00	0	43	0	0	54	4522
2026-01-20 22:55:48.08	34.55	19.04	-41.6	-43.4	18.8	0.00e+00	0	43	0	0	54	4519
2026-01-20 22:55:49.08	34.67	19.15	-41.7	-43.5	18.7	0.00e+00	0	43	0	0	54	4570
2026-01-20 22:55:50.07	34.79	19.26	-41.5	-43.4	18.8	0.00e+00	0	43	0	0	54	4503
2026-01-20 22:55:51.07	34.91	19.37	-41.5	-43.3	18.9	0.00e+00	0	43	0	0	54	4471
2026-01-20 22:55:52.07	35.03	19.48	-41.4	-43.2	18.9	0.00e+00	0	43	0	0	54	4423
2026-01-20 22:55:53.06	35.14	19.59	-41.5	-43.3	18.8	0.00e+00	0	43	0	0	54	4487
2026-01-20 22:55:54.05	35.26	19.70	-41.4	-43.2	18.9	0.00e+00	0	43	0	0	54	4435
2026-01-20 22:55:55.04	35.39	19.81	-41.4	-43.1	18.9	0.00e+00	0	43	0	0	54	4390
2026-01-20 22:55:56.04	35.51	19.93	-41.4	-43.2	18.9	0.00e+00	0	43	0	0	54	4423
2026-01-20 22:55:57.04	35.63	20.04	-41.2	-43.0	19.0	0.00e+00	0	43	0	0	54	4305
2026-01-20 22:55:58.03	35.76	20.15	-41.2	-43.0	19.0	0.00e+00	0	43	0	0	54	4332
2026-01-20 22:55:59.02	35.88	20.27	-41.1	-42.9	19.1	0.00e+00	0	43	0	0	54	4271
2026-01-20 22:56:00.02	36.01	20.38	-41.0	-42.8	19.2	0.00e+00	0	43	0	0	54	4218
2026-01-20 22:56:01.01	36.13	20.49	-41.0	-42.7	19.3	0.00e+00	0	43	0	0	54	4180
2026-01-20 22:56:02.00	36.26	20.61	-40.9	-42.7	19.4	0.00e+00	0	43	0	0	53	4395
2026-01-20 22:56:03.00	36.39	20.72	-40.9	-42.6	19.4	0.00e+00	0	43	0	0	53	4376
2026-01-20 22:56:03.99	36.52	20.84	-40.9	-42.6	19.4	0.00e+00	0	43	0	0	53	4363
2026-01-20 22:56:04.99	36.65	20.95	-40.8	-42.6	19.5	0.00e+00	0	43	0	0	53	4342
2026-01-20 22:56:05.98	36.78	21.07	-40.8	-42.6	19.4	0.00e+00	0	43	0	0	53	4361
2026-01-20 22:56:06.98	36.91	21.18	-40.8	-42.5	19.5	0.00e+00	0	43	0	0	53	4324
2026-01-20 22:56:07.97	37.04	21.30	-40.7	-42.4	19.6	0.00e+00	0	43	0	0	53	4263
2026-01-20 22:56:08.97	37.18	21.42	-40.6	-42.3	19.6	0.00e+00	0	43	0	0	53	4226
2026-01-20 22:56:09.96	37.31	21.53	-40.6	-42.4	19.6	0.00e+00	0	43	0	0	53	4251
2026-01-20 22:56:10.96	37.45	21.65	-40.6	-42.3	19.6	0.00e+00	0	43	0	0	53	4219
2026-01-20 22:56:11.95	37.59	21.77	-40.7	-42.4	19.5	0.00e+00	0	43	0	0	53	4276
2026-01-20 22:56:12.95	37.73	21.89	-40.5	-42.2	19.7	0.00e+00	0	43	0	0	53	4192
2026-01-20 22:56:13.94	37.86	22.01	-40.5	-42.2	19.7	0.00e+00	0	43	0	0	53	4156
2026-01-20 22:56:14.94	38.01	22.13	-40.5	-42.2	19.7	0.00e+00	0	43	0	0	52	4426
2026-01-20 22:56:15.93	38.15	22.25	-40.5	-42.2	19.7	0.00e+00	0	43	0	0	52	4414
2026-01-20 22:56:16.93	38.29	22.37	-40.4	-42.1	19.9	0.00e+00	0	43	0	0	52	4345
2026-01-20 22:56:17.92	38.43	22.49	-40.4	-42.1	19.9	0.00e+00	0	43	0	0	52	4349
2026-01-20 22:56:18.92	38.58	22.61	-40.3	-42.0	19.9	0.00e+00	0	43	0	0	52	4332
2026-01-20 22:56:19.91	38.72	22.73	-40.4	-42.1	19.9	0.00e+00	0	43	0	0	52	4370
2026-01-20 22:56:20.91	38.87	22.85	-40.3	-42.0	20.0	0.00e+00	0	43	0	0	52	4336
2026-01-20 22:56:21.90	39.02	22.97	-40.2	-41.9	20.1	0.00e+00	0	43	0	0	52	4251
2026-01-20 22:56:22.90	39.17	23.10	-40.3	-42.0	20.0	0.00e+00	0	43	0	0	52	4311
2026-01-20 22:56:23.89	39.32	23.22	-40.3	-42.0	19.9	0.00e+00	0	43	0	0	52	4334
2026-01-20 22:56:24.88	39.47	23.34	-40.3	-42.0	20.0	0.00e+00	0	43	0	0	52	4319
2026-01-20 22:56:25.88	39.62	23.47	-40.5	-42.2	19.8	0.00e+00	0	43	0	0	52	4409
2026-01-20 22:56:26.87	39.77	23.59	-40.3	-42.0	20.0	0.00e+00	0	43	0	0	52	4293
2026-01-20 22:56:27.87	39.93	23.72	-40.3	-42.0	20.1	0.00e+00	0	43	0	0	52	4297
2026-01-20 22:56:28.86	40.08	23.84	-40.1	-41.8	20.2	0.00e+00	0	43	0	0	52	4210
2026-01-20 22:56:29.86	40.24	23.97	-40.2	-41.9	20.2	0.00e+00	0	43	0	0	52	4243
2026-01-20 22:56:30.85	40.40	24.09	-40.2	-41.9	20.1	0.00e+00	0	43	0	0	52	4259
2026-01-20 22:56:31.85	40.56	24.22	-40.2	-41.9	20.2	0.00e+00	0	43	0	0	52	4276
2026-01-20 22:56:32.84	40.72	24.34	-40.3	-41.9	20.1	0.00e+00	0	43	0	0	52	4289
2026-01-20 22:56:33.84	40.88	24.47	-40.3	-42.0	20.1	0.00e+00	0	43	0	0	52	4332
2026-01-20 22:56:34.83	41.05	24.60	-40.3	-42.0	20.1	0.00e+00	0	43	0	0	52	4318
2026-01-20 22:56:35.83	41.21	24.73	-40.3	-42.0	20.2	0.00e+00	0	43	0	0	52	4293
2026-01-20 22:56:36.82	41.38	24.85	-40.3	-42.0	20.2	0.00e+00	0	43	0	0	52	4306
2026-01-20 22:56:37.82	41.55	24.98	-40.4	-42.1	20.1	0.00e+00	0	43	0	0	52	4369
2026-01-20 22:56:38.81	41.71	25.11	-40.4	-42.1	20.1	0.00e+00	0	43	0	0	52	4347
2026-01-20 22:56:39.81	41.89	25.24	-40.5	-42.2	20.0	0.00e+00	0	43	0	0	52	4412
2026-01-20 22:56:40.80	42.06	25.37	-40.5	-42.2	20.0	0.00e+00	0	43	0	0	52	4436
2026-01-20 22:56:41.80	42.23	25.50	-40.5	-42.2	20.0	0.00e+00	0	43	0	0	52	4406
2026-01-20 22:56:42.79	42.40	25.63	-40.5	-42.2	20.0	0.00e+00	0	43	0	0	52	4433
2026-01-20 22:56:43.78	42.58	25.76	-40.6	-42.3	19.9	0.00e+00	0	43	0	0	52	4443
2026-01-20 22:56:44.78	42.76	25.89	-40.7	-42.4	19.7	0.00e+00	0	43	0	0	52	4539
2026-01-20 22:56:45.78	42.94	26.02	-40.7	-42.4	19.8	0.00e+00	0	43	0	0	52	4510
2026-01-20 22:56:46.77	43.11	26.15	-40.9	-42.6	19.6	0.00e+00	0	43	0	0	52	4613
2026-01-20 22:56:47.76	43.30	26.29	-40.9	-42.6	19.5	0.00e+00	0	43	0	0	52	4643
2026-01-20 22:56:48.76	43.48	26.42	-41.2	-42.9	19.3	0.00e+00	0	43	0	0	52	4801
2026-01-20 22:56:49.75	43.66	26.55	-41.2	-43.0	19.3	0.00e+00	0	43	0	0	53	4551
2026-01-20 22:56:50.75	43.85	26.68	-41.3	-43.1	19.2	0.00e+00	0	43	0	0	53	4609
2026-01-20 22:56:51.74	44.04	26.82	-41.4	-43.1	19.1	0.00e+00	0	43	0	0	53	4645
2026-01-20 22:56:52.74	44.23	26.95	-41.5	-43.3	19.0	0.00e+00	0	43	0	0	53	4757
2026-01-20 22:56:53.73	44.42	27.08	-41.7	-43.5	18.9	0.00e+00	0	43	0	0	53	4844
2026-01-20 22:56:54.73	44.61	27.22	-42.2	-43.7	18.8	0.00e+00	0	43	0	0	54	4697
2026-01-20 22:56:55.72	44.80	27.35	-41.7	-43.6	18.8	0.00e+00	0	43	0	0	54	4606
2026-01-20 22:56:56.72	45.00	27.49	-41.8	-43.6	18.8	0.00e+00	0	43	0	0	54	4639
2026-01-20 22:56:57.71	45.19	27.62	-41.8	-43.6	18.8	0.00e+00	0	43	0	0	54	4620
2026-01-20 22:56:58.71	45.39	27.76	-41.8	-43.6	18.8	0.00e+00	0	43	0	0	54	4628
2026-01-20 22:56:59.70	45.59	27.90	-41.9	-43.7	18.7	0.00e+00	0	43	0	0	54	4705
2026-01-20 22:57:00.70	45.80	28.03	-41.9	-43.7	18.7	0.00e+00	0	43	0	0	54	4704
2026-01-20 22:57:01.69	46.00	28.17	-42.0	-43.9	18.6	0.00e+00	0	43	0	0	54	4780
2026-01-20 22:57:02.69	46.21	28.31	-41.9	-43.7	18.7	0.00e+00	0	43	0	0	54	4684
2026-01-20 22:57:03.68	46.41	28.44	-41.9	-43.7	18.7	0.00e+00	0	43	0	0	54	4688
2026-01-20 22:57:04.67	46.62	28.58	-41.9	-43.7	18.6	0.00e+00	0	43	0	0	54	4699
2026-01-20 22:57:05.67	46.83	28.72	-41.8	-43.6	18.8	0.00e+00	0	44	0	0	54	4615
2026-01-20 22:57:06.66	47.04	28.86	-41.8	-43.6	18.7	0.00e+00	0	43	0	0	54	4628
2026-01-20 22:57:07.66	47.26	29.00	-41.7	-43.6	18.8	0.00e+00	0	44	0	0	54	4603
2026-01-20 22:57:08.65	47.47	29.13	-41.7	-43.5	18.9	0.00e+00	0	44	0	0	54	4555
2026-01-20 22:57:09.65	47.69	29.27	-41.6	-43.4	19.0	0.00e+00	0	43	0	0	54	4512
2026-01-20 22:57:10.64	47.91	29.41	-41.4	-43.2	19.1	0.00e+00	0	43	0	0	54	4414
2026-01-20 22:57:11.63	48.13	29.55	-41.5	-43.3	19.1	0.00e+00	0	43	0	0	54	4454
2026-01-20 22:57:12.63	48.36	29.69	-41.5	-43.3	19.1	0.00e+00	0	43	0	0	54	4462
2026-01-20 22:57:13.62	48.58	29.83	-41.4	-43.1	19.2	0.00e+00	0	43	0	0	54	4389
2026-01-20 22:57:14.61	48.81	29.97	-41.4	-43.1	19.3	0.00e+00	0	43	0	0	54	4383
2026-01-20 22:57:15.61	49.04	30.11	-41.4	-43.2	19.2	0.00e+00	0	43	0	0	54	4422
2026-01-20 22:57:16.61	49.27	30.25	-41.4	-43.2	19.2	0.00e+00	0	43	0	0	54	4406
2026-01-20 22:57:17.60	49.50	30.39	-41.4	-43.2	19.2	0.00e+00	0	43	0	0	54	4399
2026-01-20 22:57:18.60	49.74	30.53	-41.3	-43.0	19.3	0.00e+00	0	43	0	0	54	4320
2026-01-20 22:57:19.59	49.97	30.67	-41.1	-42.8	19.5	0.00e+00	0	43	0	0	54	4229
2026-01-20 22:57:20.58	50.21	30.81	-41.1	-42.8	19.5	0.00e+00	0	43	0	0	54	4234
2026-01-20 22:57:21.58	50.45	30.96	-41.0	-42.8	19.6	0.00e+00	0	43	0	0	54	4198
2026-01-20 22:57:22.58	50.70	31.10	-41.0	-42.7	19.6	0.00e+00	0	43	0	0	53	4423
2026-01-20 22:57:23.57	50.94	31.24	-41.1	-42.8	19.6	0.00e+00	0	43	0	0	53	4463
2026-01-20 22:57:24.57	51.19	31.38	-41.2	-42.9	19.4	0.00e+00	0	43	0	0	53	4531
2026-01-20 22:57:25.56	51.44	31.52	-41.2	-42.9	19.4	0.00e+00	0	43	0	0	53	4527
2026-01-20 22:57:26.56	51.69	31.67	-41.2	-42.9	19.4	0.00e+00	0	44	0	0	53	4527
2026-01-20 22:57:27.55	51.95	31.81	-41.1	-42.9	19.4	0.00e+00	0	44	0	0	53	4521
2026-01-20 22:57:28.55	52.20	31.95	-41.2	-43.0	19.3	0.00e+00	0	43	0	0	53	4564
2026-01-20 22:57:29.54	52.46	32.09	-41.4	-43.2	19.2	0.00e+00	0	43	0	0	53	4666
2026-01-20 22:57:30.54	52.72	32.23	-41.3	-43.1	19.2	0.00e+00	0	43	0	0	53	4605
2026-01-20 22:57:31.53	52.99	32.38	-41.5	-43.3	19.0	0.00e+00	0	43	0	0	53	4729
2026-01-20 22:57:32.53	53.25	32.52	-41.7	-43.5	18.9	0.00e+00	0	43	0	0	53	4819
2026-01-20 22:57:33.52	53.52	32.66	-41.7	-43.6	18.8	0.00e+00	0	43	0	0	54	4601
2026-01-20 22:57:34.52	53.79	32.80	-41.6	-43.5	18.9	0.00e+00	0	43	0	0	54	4550
2026-01-20 22:57:35.51	54.06	32.95	-41.6	-43.5	18.9	0.00e+00	0	43	0	0	54	4547
2026-01-20 22:57:36.51	54.34	33.09	-41.8	-43.6	18.8	0.00e+00	0	43	0	0	54	4608
2026-01-20 22:57:37.50	54.61	33.23	-41.7	-43.5	18.9	0.00e+00	0	43	0	0	54	4584
2026-01-20 22:57:38.49	54.89	33.37	-41.9	-43.8	18.7	0.00e+00	0	43	0	0	54	4718
2026-01-20 22:57:39.49	55.17	33.51	-41.9	-43.7	18.7	0.00e+00	0	43	0	0	54	4701
2026-01-20 22:57:40.48	55.46	33.66	-41.9	-43.7	18.7	0.00e+00	0	43	0	0	54	4678
2026-01-20 22:57:41.48	55.74	33.80	-41.9	-43.7	18.6	0.00e+00	0	44	0	0	54	4698
2026-01-20 22:57:42.47	56.03	33.94	-42.0	-43.8	18.5	0.00e+00	0	44	0	0	54	4744
2026-01-20 22:57:43.46	56.32	34.08	-42.1	-44.0	18.3	0.00e+00	0	43	0	0	54	4844
2026-01-20 22:57:44.46	56.62	34.22	-42.2	-44.1	18.2	0.00e+00	0	43	0	0	55	4605
2026-01-20 22:57:45.45	56.91	34.36	-42.1	-44.0	18.3	0.00e+00	0	43	0	0	55	4564
2026-01-20 22:57:46.45	57.21	34.50	-42.1	-44.0	18.3	0.00e+00	0	43	0	0	55	4551
2026-01-20 22:57:47.44	57.51	34.64	-42.1	-44.0	18.3	0.00e+00	0	43	0	0	55	4570
2026-01-20 22:57:48.44	57.82	34.79	-42.2	-44.1	18.3	0.00e+00	0	44	0	0	55	4600
2026-01-20 22:57:49.43	58.13	34.93	-42.3	-44.2	18.2	0.00e+00	0	43	0	0	55	4691
2026-01-20 22:57:50.42	58.43	35.06	-42.6	-44.5	18.0	0.00e+00	0	43	0	0	55	4853
2026-01-20 22:57:51.42	58.75	35.21	-42.6	-44.5	18.0	0.00e+00	0	43	0	0	55	4859
2026-01-20 22:57:52.42	59.06	35.35	-42.8	-44.8	17.9	0.00e+00	0	44	0	0	56	4719
2026-01-20 22:57:53.41	59.38	35.48	-42.8	-44.8	17.9	0.00e+00	0	43	0	0	56	4723
2026-01-20 22:57:54.41	59.70	35.62	-42.6	-44.5	18.1	0.00e+00	0	43	0	0	56	4581
2026-01-20 22:57:55.40	60.02	35.76	-42.6	-44.5	18.1	0.00e+00	0	43	0	0	56	4597
2026-01-20 22:57:56.40	60.35	35.90	-42.7	-44.6	18.0	0.00e+00	0	43	0	0	56	4633
2026-01-20 22:57:57.39	60.68	36.04	-42.8	-44.8	17.9	0.00e+00	0	43	0	0	56	4707
2026-01-20 22:57:58.39	61.01	36.17	-42.9	-44.8	17.8	0.00e+00	0	43	0	0	56	4754
2026-01-20 22:57:59.38	61.34	36.31	-42.9	-44.8	17.8	0.00e+00	0	43	0	0	56	4740
2026-01-20 22:58:00.38	61.68	36.45	-42.9	-44.8	17.9	0.00e+00	0	43	0	0	56	4732
2026-01-20 22:58:01.37	62.02	36.58	-42.8	-44.7	18.0	0.00e+00	0	43	0	0	56	4674
2026-01-20 22:58:02.37	62.36	36.72	-42.6	-44.5	18.2	0.00e+00	0	44	0	0	56	4580
2026-01-20 22:58:03.37	62.71	36.85	-42.5	-44.3	18.3	0.00e+00	0	43	0	0	56	4493
2026-01-20 22:58:04.36	63.06	36.99	-42.5	-44.3	18.3	0.00e+00	0	43	0	0	56	4486
2026-01-20 22:58:05.36	63.41	37.12	-42.5	-44.4	18.2	0.00e+00	0	43	0	0	56	4513
2026-01-20 22:58:06.35	63.76	37.25	-42.7	-44.6	18.0	0.00e+00	0	43	0	0	56	4623
2026-01-20 22:58:07.34	64.12	37.38	-42.7	-44.6	18.1	0.00e+00	0	43	0	0	56	4608
2026-01-20 22:58:08.34	64.48	37.52	-42.7	-44.7	18.1	0.00e+00	0	43	0	0	56	4663
2026-01-20 22:58:09.34	64.84	37.65	-42.9	-44.8	17.9	0.00e+00	0	44	0	0	56	4744
2026-01-20 22:58:10.33	65.20	37.78	-43.1	-45.0	17.7	0.00e+00	0	43	0	0	56	4866
2026-01-20 22:58:11.32	65.57	37.90	-43.1	-45.1	17.7	0.00e+00	0	43	0	0	56	4891
2026-01-20 22:58:12.32	65.94	38.03	-43.1	-45.1	17.7	0.00e+00	0	43	0	0	56	4876
2026-01-20 22:58:13.31	66.32	38.16	-43.3	-45.2	17.6	0.00e+00	0	43	0	0	57	4704
2026-01-20 22:58:14.31	66.69	38.29	-43.0	-44.9	17.9	0.00e+00	0	44	0	0	57	4511
2026-01-20 22:58:15.30	67.07	38.41	-43.1	-45.0	17.8	0.00e+00	0	43	0	0	57	4584
2026-01-20 22:58:16.30	67.46	38.54	-43.0	-45.0	17.7	0.00e+00	0	43	0	0	57	4561
2026-01-20 22:58:17.29	67.84	38.66	-43.3	-45.3	17.5	0.00e+00	0	44	0	0	57	4712
2026-01-20 22:58:18.29	68.23	38.78	-43.5	-45.6	17.3	0.00e+00	0	43	0	0	57	4876
2026-01-20 22:58:19.28	68.62	38.90	-43.7	-45.8	17.0	0.00e+00	0	44	0	0	58	4732
2026-01-20 22:58:20.28	69.01	39.03	-43.7	-45.7	17.1	0.00e+00	0	43	0	0	58	4690
2026-01-20 22:58:21.27	69.41	39.14	-43.6	-45.7	17.1	0.00e+00	0	43	0	0	58	4659
2026-01-20 22:58:22.26	69.81	39.26	-43.7	-45.8	17.0	0.00e+00	0	43	0	0	58	4725
2026-01-20 22:58:23.26	70.21	39.38	-43.6	-45.7	17.1	0.00e+00	0	43	0	0	58	4693
2026-01-20 22:58:24.25	70.62	39.50	-43.7	-45.8	16.9	0.00e+00	0	43	0	0	58	4718
2026-01-20 22:58:25.25	71.03	39.61	-43.8	-45.9	16.8	0.00e+00	0	43	0	0	58	4779
2026-01-20 22:58:26.24	71.44	39.72	-43.8	-45.9	16.7	0.00e+00	0	43	0	0	58	4794
2026-01-20 22:58:27.24	71.85	39.84	-43.8	-45.9	16.8	0.00e+00	0	44	0	0	58	4784
2026-01-20 22:58:28.23	72.27	39.95	-43.9	-46.0	16.7	0.00e+00	0	44	0	0	58	4851
2026-01-20 22:58:29.23	72.69	40.06	-43.8	-45.9	16.9	0.00e+00	0	44	0	0	58	4800
2026-01-20 22:58:30.22	73.11	40.17	-43.8	-45.9	16.9	0.00e+00	0	44	0	0	58	4792
2026-01-20 22:58:31.22	73.54	40.27	-43.8	-45.9	16.9	0.00e+00	0	43	0	0	58	4777
2026-01-20 22:58:32.21	73.96	40.38	-43.7	-45.9	16.9	0.00e+00	0	43	0	0	58	4767
2026-01-20 22:58:33.20	74.39	40.48	-43.8	-45.9	16.9	0.00e+00	0	44	0	0	58	4776
2026-01-20 22:58:34.20	74.83	40.59	-43.9	-46.0	16.8	0.00e+00	0	44	0	0	58	4860
2026-01-20 22:58:35.19	75.26	40.69	-44.0	-46.1	16.7	0.00e+00	0	43	0	0	58	4919
2026-01-20 22:58:36.19	75.70	40.79	-43.9	-46.1	16.7	0.00e+00	0	44	0	0	58	4874
2026-01-20 22:58:37.18	76.14	40.88	-43.8	-46.0	16.7	0.00e+00	0	44	0	0	58	4824
2026-01-20 22:58:38.18	76.59	40.98	-43.7	-45.8	16.8	0.00e+00	0	44	0	0	58	4753
2026-01-20 22:58:39.17	77.03	41.08	-43.5	-45.6	17.1	0.00e+00	0	43	0	0	58	4614
2026-01-20 22:58:40.16	77.48	41.17	-43.4	-45.4	17.3	0.00e+00	0	43	0	0	58	4513
2026-01-20 22:58:41.16	77.94	41.26	-43.4	-45.5	17.2	0.00e+00	0	43	0	0	58	4546
2026-01-20 22:58:42.15	78.39	41.35	-43.6	-45.7	17.0	0.00e+00	0	43	0	0	58	4681
2026-01-20 22:58:43.15	78.85	41.44	-43.9	-46.0	16.7	0.00e+00	0	43	0	0	58	4855
2026-01-20 22:58:44.14	79.31	41.52	-44.0	-46.2	16.5	0.00e+00	0	44	0	0	58	4935
2026-01-20 22:58:45.13	79.77	41.61	-43.7	-45.8	16.9	0.00e+00	0	44	0	0	58	4735
2026-01-20 22:58:46.13	80.23	41.69	-43.5	-45.5	17.1	0.00e+00	0	44	0	0	58	4598
2026-01-20 22:58:47.13	80.70	41.77	-43.4	-45.6	16.9	0.00e+00	0	43	0	0	58	4602
2026-01-20 22:58:48.12	81.17	41.85	-43.5	-45.7	16.7	0.00e+00	0	43	0	0	58	4678
2026-01-20 22:58:49.12	81.64	41.93	-43.7	-45.9	16.7	0.00e+00	0	44	0	0	58	4786
2026-01-20 22:58:50.11	82.11	42.00	-43.5	-45.6	17.1	0.00e+00	0	44	0	0	58	4632
2026-01-20 22:58:51.11	82.59	42.07	-43.3	-45.3	17.4	0.00e+00	0	43	0	0	58	4476
2026-01-20 22:58:52.10	83.07	42.14	-43.2	-45.2	17.5	0.00e+00	0	43	0	0	58	4409
2026-01-20 22:58:53.10	83.55	42.21	-43.2	-45.3	17.4	0.00e+00	0	44	0	0	58	4459
2026-01-20 22:58:54.09	84.03	42.28	-43.5	-45.6	17.1	0.00e+00	0	44	0	0	58	4618
2026-01-20 22:58:55.09	84.52	42.34	-43.4	-45.5	17.2	0.00e+00	0	44	0	0	58	4588
2026-01-20 22:58:56.08	85.00	42.41	-43.3	-45.4	17.4	0.00e+00	0	44	0	0	58	4504
2026-01-20 22:58:57.08	85.49	42.47	-43.3	-45.4	17.4	0.00e+00	0	43	0	0	58	4520
2026-01-20 22:58:58.07	85.98	42.52	-43.7	-45.8	16.9	0.00e+00	0	43	0	0	58	4749
2026-01-20 22:58:59.07	86.47	42.58	-43.8	-46.0	16.7	0.00e+00	0	43	0	0	58	4860
2026-01-20 22:59:00.06	86.96	42.63	-43.9	-46.2	16.6	0.00e+00	0	44	0	0	58	4956
2026-01-20 22:59:01.06	87.46	42.68	-43.8	-46.0	16.8	0.00e+00	0	43	0	0	58	4829
2026-01-20 22:59:02.05	87.95	42.73	-43.6	-45.7	17.0	0.00e+00	0	43	0	0	58	4698
2026-01-20 22:59:03.05	88.45	42.78	-43.4	-45.4	17.3	0.00e+00	0	43	0	0	58	4534
2026-01-20 22:59:04.04	88.95	42.82	-43.4	-45.5	17.3	0.00e+00	0	44	0	0	58	4553
2026-01-20 22:59:05.04	89.45	42.87	-43.5	-45.6	17.2	0.00e+00	0	43	0	0	58	4641
2026-01-20 22:59:06.03	89.95	42.90	-43.7	-45.8	17.0	0.00e+00	0	44	0	0	58	4740
2026-01-20 22:59:07.03	90.45	42.94	-43.6	-45.7	17.1	0.00e+00	0	43	0	0	58	4654
2026-01-20 22:59:08.03	90.96	42.98	-43.6	-45.6	17.2	0.00e+00	0	43	0	0	58	4641
2026-01-20 22:59:09.02	91.46	43.01	-43.4	-45.4	17.4	0.00e+00	0	43	0	0	58	4517
2026-01-20 22:59:10.02	91.97	43.04	-43.3	-45.3	17.4	0.00e+00	0	43	0	0	58	4461
2026-01-20 22:59:11.01	92.48	43.07	-43.6	-45.6	17.2	0.00e+00	0	44	0	0	58	4651
2026-01-20 22:59:12.01	92.99	43.09	-43.8	-46.0	16.9	0.00e+00	0	43	0	0	58	4816
2026-01-20 22:59:13.01	93.50	43.12	-43.8	-46.0	16.9	0.00e+00	0	44	0	0	58	4816
2026-01-20 22:59:14.00	94.00	43.14	-43.8	-45.9	16.8	0.00e+00	0	44	0	0	58	4783
2026-01-20 22:59:15.00	94.52	43.15	-43.6	-45.7	16.9	0.00e+00	0	43	0	0	58	4671
2026-01-20 22:59:15.99	95.02	43.17	-43.7	-45.8	16.9	0.00e+00	0	43	0	0	58	4739
2026-01-20 22:59:16.98	95.53	43.18	-43.6	-45.7	17.1	0.00e+00	0	43	0	0	58	4653
2026-01-20 22:59:17.98	96.04	43.19	-43.5	-45.5	17.2	0.00e+00	0	44	0	0	58	4590
2026-01-20 22:59:18.97	96.55	43.20	-43.3	-45.3	17.5	0.00e+00	0	44	0	0	58	4487
2026-01-20 22:59:19.97	97.07	43.20	-43.1	-45.1	17.6	0.00e+00	0	43	0	0	58	4372
2026-01-20 22:59:20.96	97.58	43.21	-43.1	-45.0	17.6	0.00e+00	0	43	0	0	58	4337
2026-01-20 22:59:21.96	98.09	43.21	-43.1	-45.1	17.6	0.00e+00	0	44	0	0	58	4366
2026-01-20 22:59:22.95	98.60	43.21	-43.2	-45.1	17.6	0.00e+00	0	43	0	0	58	4381
2026-01-20 22:59:23.95	99.12	43.20	-43.2	-45.2	17.5	0.00e+00	0	43	0	0	58	4428
2026-01-20 22:59:24.94	99.62	43.19	-43.6	-45.7	17.0	0.00e+00	0	43	0	0	58	4680
2026-01-20 22:59:25.93	100.13	43.18	-43.7	-45.8	16.9	0.00e+00	0	44	0	0	58	4736
2026-01-20 22:59:26.93	100.65	43.17	-43.9	-46.1	16.7	0.00e+00	0	43	0	0	58	4872
2026-01-20 22:59:27.93	101.16	43.16	-43.9	-46.0	16.7	0.00e+00	0	43	0	0	58	4851
2026-01-20 22:59:28.92	101.67	43.14	-43.7	-45.8	17.0	0.00e+00	0	43	0	0	58	4736
2026-01-20 22:59:29.91	102.17	43.12	-43.7	-45.8	16.9	0.00e+00	0	44	0	0	58	4753
2026-01-20 22:59:30.91	102.69	43.10	-43.9	-46.0	16.7	0.00e+00	0	43	0	0	58	4853
2026-01-20 22:59:31.90	103.19	43.08	-43.9	-46.1	16.7	0.00e+00	0	44	0	0	58	4891
2026-01-20 22:59:32.90	103.70	43.05	-43.7	-45.8	17.0	0.00e+00	0	43	0	0	58	4743
2026-01-20 22:59:33.89	104.21	43.02	-43.7	-45.8	16.9	0.00e+00	0	44	0	0	58	4741
2026-01-20 22:59:34.89	104.71	42.99	-43.8	-46.0	16.6	0.00e+00	0	43	0	0	58	4862
2026-01-20 22:59:35.88	105.22	42.95	-44.3	-46.6	16.3	0.00e+00	0	44	0	0	59	4884
2026-01-20 22:59:36.88	105.72	42.92	-44.3	-46.6	16.3	0.00e+00	0	43	0	0	59	4888
2026-01-20 22:59:37.87	106.22	42.88	-44.1	-46.3	16.6	0.00e+00	0	43	0	0	59	4723
2026-01-20 22:59:38.87	106.73	42.84	-44.0	-46.2	16.7	0.00e+00	0	44	0	0	59	4673
2026-01-20 22:59:39.86	107.22	42.79	-44.0	-46.0	16.7	0.00e+00	0	43	0	0	59	4596
2026-01-20 22:59:40.86	107.72	42.75	-44.1	-46.2	16.6	0.00e+00	0	44	0	0	59	4688
2026-01-20 22:59:41.86	108.22	42.70	-43.9	-46.0	16.9	0.00e+00	0	43	0	0	59	4572
2026-01-20 22:59:42.85	108.72	42.65	-43.5	-45.5	17.3	0.00e+00	0	43	0	0	59	4324
2026-01-20 22:59:43.84	109.21	42.60	-43.4	-45.3	17.5	0.00e+00	0	44	0	0	58	4490
2026-01-20 22:59:44.84	109.70	42.54	-43.5	-45.5	17.4	0.00e+00	0	44	0	0	58	4566
2026-01-20 22:59:45.84	110.20	42.48	-43.9	-46.1	16.8	0.00e+00	0	43	0	0	58	4874
2026-01-20 22:59:46.83	110.68	42.42	-43.9	-46.0	16.9	0.00e+00	0	44	0	0	58	4854
2026-01-20 22:59:47.82	111.17	42.36	-43.7	-45.8	17.1	0.00e+00	0	44	0	0	58	4725
2026-01-20 22:59:48.82	111.66	42.30	-43.7	-45.8	17.1	0.00e+00	0	44	0	0	58	4737
2026-01-20 22:59:49.81	112.14	42.23	-43.5	-45.6	17.3	0.00e+00	0	44	0	0	58	4613
2026-01-20 22:59:50.81	112.62	42.16	-43.2	-45.2	17.7	0.00e+00	0	44	0	0	58	4394
2026-01-20 22:59:51.80	113.10	42.09	-43.2	-45.1	17.7	0.00e+00	0	44	0	0	58	4385
2026-01-20 22:59:52.80	113.58	42.02	-43.6	-45.7	17.2	0.00e+00	0	43	0	0	58	4664
2026-01-20 22:59:53.79	114.05	41.95	-44.2	-46.4	16.5	0.00e+00	0	44	0	0	59	4767
2026-01-20 22:59:54.78	114.52	41.87	-44.6	-46.9	16.0	0.00e+00	0	43	0	0	59	5056
2026-01-20 22:59:55.78	114.99	41.79	-44.6	-46.9	16.0	0.00e+00	0	44	0	0	59	5043
2026-01-20 22:59:56.77	115.46	41.71	-44.3	-46.5	16.3	0.00e+00	0	43	0	0	59	4843
2026-01-20 22:59:57.76	115.92	41.63	-44.1	-46.2	16.5	0.00e+00	0	44	0	0	59	4687
2026-01-20 22:59:58.76	116.39	41.55	-43.7	-45.8	16.9	0.00e+00	0	43	0	0	59	4474
2026-01-20 22:59:59.75	116.85	41.46	-43.5	-45.6	17.1	0.00e+00	0	44	0	0	59	4354
2026-01-20 23:00:00.75	117.31	41.37	-43.6	-45.7	17.1	0.00e+00	0	43	0	0	59	4393
2026-01-20 23:00:01.74	117.76	41.29	-43.8	-45.9	16.9	0.00e+00	0	44	0	0	59	4521
2026-01-20 23:00:02.74	118.22	41.19	-44.3	-46.5	16.2	0.00e+00	0	44	0	0	59	4850
2026-01-20 23:00:03.73	118.67	41.10	-44.8	-47.2	15.5	0.00e+00	0	44	0	0	60	4979
2026-01-20 23:00:04.72	119.12	41.01	-44.3	-46.6	16.4	0.00e+00	0	44	0	0	60	4606
2026-01-20 23:00:05.72	119.57	40.91	-43.5	-45.6	17.1	0.00e+00	0	44	0	0	59	4353
2026-01-20 23:00:06.71	120.01	40.81	-43.5	-45.5	17.1	0.00e+00	0	44	0	0	58	4587
2026-01-20 23:00:07.71	120.45	40.71	-43.4	-45.4	17.2	0.00e+00	0	43	0	0	58	4543
2026-01-20 23:00:08.70	120.89	40.61	-43.5	-45.6	17.1	0.00e+00	0	43	0	0	58	4603
2026-01-20 23:00:09.70	121.32	40.51	-43.9	-46.0	16.7	0.00e+00	0	44	0	0	58	4857
2026-01-20 23:00:10.69	121.76	40.41	-44.1	-46.3	16.5	0.00e+00	0	43	0	0	58	5035
2026-01-20 23:00:11.69	122.19	40.30	-44.3	-46.5	16.3	0.00e+00	0	44	0	0	59	4849
2026-01-20 23:00:12.68	122.61	40.19	-44.2	-46.5	16.3	0.00e+00	0	43	0	0	59	4829
2026-01-20 23:00:13.68	123.04	40.08	-43.9	-46.0	16.7	0.00e+00	0	44	0	0	59	4581
2026-01-20 23:00:14.67	123.46	39.97	-43.6	-45.7	17.1	0.00e+00	0	44	0	0	59	4413
2026-01-20 23:00:15.67	123.88	39.86	-43.1	-45.1	17.6	0.00e+00	0	44	0	0	58	4380
2026-01-20 23:00:16.66	124.29	39.75	-42.9	-44.9	17.8	0.00e+00	0	44	0	0	57	4513
2026-01-20 23:00:17.66	124.71	39.64	-43.2	-45.2	17.5	0.00e+00	0	44	0	0	57	4660
2026-01-20 23:00:18.65	125.12	39.52	-43.4	-45.4	17.2	0.00e+00	0	44	0	0	57	4793
2026-01-20 23:00:19.65	125.53	39.41	-43.7	-45.8	16.9	0.00e+00	0	44	0	0	57	5016
2026-01-20 23:00:20.64	125.93	39.29	-43.4	-45.4	17.4	0.00e+00	0	44	0	0	58	4537
2026-01-20 23:00:21.64	126.34	39.17	-43.2	-45.1	17.6	0.00e+00	0	44	0	0	58	4391
2026-01-20 23:00:22.63	126.73	39.05	-43.2	-45.2	17.4	0.00e+00	0	44	0	0	58	4407
2026-01-20 23:00:23.63	127.13	38.93	-43.4	-45.4	17.2	0.00e+00	0	44	0	0	58	4534
2026-01-20 23:00:24.62	127.52	38.81	-43.6	-45.7	16.9	0.00e+00	0	44	0	0	58	4702
2026-01-20 23:00:25.61	127.91	38.68	-43.4	-45.4	17.3	0.00e+00	0	44	0	0	58	4518
2026-01-20 23:00:26.61	128.30	38.56	-43.3	-45.3	17.4	0.00e+00	0	44	0	0	58	4491
2026-01-20 23:00:27.60	128.68	38.44	-43.4	-45.4	17.3	0.00e+00	0	44	0	0	58	4544
2026-01-20 23:00:28.60	129.07	38.31	-43.8	-45.9	16.8	0.00e+00	0	44	0	0	58	4787
2026-01-20 23:00:29.59	129.44	38.18	-43.8	-46.0	16.8	0.00e+00	0	44	0	0	58	4828
2026-01-20 23:00:30.59	129.82	38.05	-43.7	-45.8	17.0	0.00e+00	0	43	0	0	58	4708
2026-01-20 23:00:31.58	130.19	37.93	-43.5	-45.6	17.1	0.00e+00	0	44	0	0	58	4630
2026-01-20 23:00:32.57	130.56	37.80	-43.4	-45.4	17.2	0.00e+00	0	44	0	0	58	4538
2026-01-20 23:00:33.57	130.93	37.67	-43.1	-45.1	17.5	0.00e+00	0	44	0	0	58	4372
2026-01-20 23:00:34.56	131.29	37.54	-42.7	-44.7	17.9	0.00e+00	0	44	0	0	57	4400
2026-01-20 23:00:35.56	131.65	37.40	-42.6	-44.5	18.1	0.00e+00	0	44	0	0	57	4330
2026-01-20 23:00:36.55	132.01	37.27	-42.5	-44.4	18.2	0.00e+00	0	44	0	0	56	4510
2026-01-20 23:00:37.55	132.37	37.14	-42.5	-44.4	18.2	0.00e+00	0	44	0	0	56	4543
2026-01-20 23:00:38.54	132.72	37.00	-42.5	-44.4	18.2	0.00e+00	0	43	0	0	56	4534
2026-01-20 23:00:39.54	133.07	36.87	-42.6	-44.5	18.1	0.00e+00	0	44	0	0	56	4581
2026-01-20 23:00:40.53	133.42	36.74	-42.6	-44.5	18.0	0.00e+00	0	44	0	0	56	4598
2026-01-20 23:00:41.53	133.76	36.60	-42.6	-44.5	18.1	0.00e+00	0	44	0	0	56	4553
2026-01-20 23:00:42.52	134.10	36.46	-42.6	-44.5	17.9	0.00e+00	0	44	0	0	56	4563
2026-01-20 23:00:43.52	134.44	36.33	-42.6	-44.5	17.9	0.00e+00	0	44	0	0	56	4590
2026-01-20 23:00:44.52	134.78	36.19	-42.5	-44.4	18.1	0.00e+00	0	44	0	0	56	4541
2026-01-20 23:00:45.51	135.11	36.05	-42.5	-44.4	18.2	0.00e+00	0	44	0	0	56	4500
2026-01-20 23:00:46.51	135.44	35.91	-42.6	-44.5	18.1	0.00e+00	0	44	0	0	56	4579
2026-01-20 23:00:47.50	135.77	35.77	-42.5	-44.5	18.2	0.00e+00	0	44	0	0	56	4549
2026-01-20 23:00:48.50	136.10	35.63	-42.7	-44.7	17.9	0.00e+00	0	44	0	0	56	4661
2026-01-20 23:00:49.49	136.42	35.50	-42.6	-44.6	18.0	0.00e+00	0	44	0	0	56	4638
2026-01-20 23:00:50.49	136.74	35.35	-42.5	-44.5	18.1	0.00e+00	0	44	0	0	56	4560
2026-01-20 23:00:51.49	137.06	35.21	-42.6	-44.6	17.9	0.00e+00	0	44	0	0	56	4603
2026-01-20 23:00:52.48	137.37	35.07	-42.6	-44.6	17.9	0.00e+00	0	44	0	0	56	4614
2026-01-20 23:00:53.48	137.68	34.93	-42.6	-44.5	18.0	0.00e+00	0	44	0	0	56	4576
2026-01-20 23:00:54.47	137.99	34.79	-42.5	-44.4	18.1	0.00e+00	0	44	0	0	56	4498
2026-01-20 23:00:55.47	138.30	34.65	-42.5	-44.4	18.1	0.00e+00	0	44	0	0	56	4541
2026-01-20 23:00:56.46	138.60	34.51	-42.5	-44.4	18.1	0.00e+00	0	44	0	0	56	4540
2026-01-20 23:00:57.45	138.90	34.37	-42.5	-44.4	18.1	0.00e+00	0	44	0	0	56	4538
2026-01-20 23:00:58.45	139.20	34.22	-42.5	-44.4	18.2	0.00e+00	0	44	0	0	56	4502
2026-01-20 23:00:59.45	139.49	34.08	-42.4	-44.3	18.2	0.00e+00	0	44	0	0	56	4467
2026-01-20 23:01:00.44	139.79	33.94	-42.3	-44.1	18.4	0.00e+00	0	44	0	0	56	4390
2026-01-20 23:01:01.43	140.08	33.80	-42.2	-44.1	18.4	0.00e+00	0	44	0	0	56	4346
2026-01-20 23:01:02.43	140.37	33.65	-42.1	-43.9	18.5	0.00e+00	0	44	0	0	56	4278
2026-01-20 23:01:03.43	140.65	33.51	-41.7	-43.5	18.8	0.00e+00	0	44	0	0	55	4315
2026-01-20 23:01:04.42	140.94	33.37	-41.7	-43.5	18.8	0.00e+00	0	44	0	0	55	4328
2026-01-20 23:01:05.41	141.21	33.23	-41.5	-43.3	19.0	0.00e+00	0	44	0	0	55	4222
2026-01-20 23:01:06.41	141.49	33.08	-41.3	-43.0	19.3	0.00e+00	0	44	0	0	54	4329
2026-01-20 23:01:07.40	141.77	32.94	-41.2	-42.9	19.4	0.00e+00	0	44	0	0	54	4291
2026-01-20 23:01:08.39	142.04	32.80	-41.1	-42.9	19.5	0.00e+00	0	44	0	0	54	4252
2026-01-20 23:01:09.39	142.31	32.65	-41.0	-42.7	19.6	0.00e+00	0	44	0	0	54	4171
2026-01-20 23:01:10.38	142.58	32.51	-40.8	-42.5	19.7	0.00e+00	0	44	0	0	53	4322
2026-01-20 23:01:11.38	142.85	32.37	-40.8	-42.5	19.7	0.00e+00	0	44	0	0	53	4335
2026-01-20 23:01:12.37	143.11	32.22	-40.7	-42.4	19.8	0.00e+00	0	44	0	0	53	4266
2026-01-20 23:01:13.37	143.38	32.08	-40.6	-42.3	20.0	0.00e+00	0	44	0	0	53	4197
2026-01-20 23:01:14.36	143.64	31.94	-40.6	-42.3	19.9	0.00e+00	0	44	0	0	53	4216
2026-01-20 23:01:15.36	143.90	31.79	-40.6	-42.3	19.9	0.00e+00	0	43	0	0	53	4215
2026-01-20 23:01:16.35	144.15	31.65	-40.7	-42.4	19.9	0.00e+00	0	44	0	0	53	4245
2026-01-20 23:01:17.35	144.40	31.51	-40.6	-42.3	19.9	0.00e+00	0	44	0	0	53	4194
2026-01-20 23:01:18.34	144.65	31.37	-40.6	-42.3	19.7	0.00e+00	0	44	0	0	53	4228
2026-01-20 23:01:19.34	144.90	31.22	-40.7	-42.4	19.6	0.00e+00	0	44	0	0	53	4273
2026-01-20 23:01:20.33	145.15	31.08	-40.7	-42.4	19.6	0.00e+00	0	44	0	0	53	4280
2026-01-20 23:01:21.33	145.40	30.94	-40.7	-42.4	19.6	0.00e+00	0	44	0	0	53	4276
2026-01-20 23:01:22.32	145.64	30.80	-40.8	-42.5	19.5	0.00e+00	0	44	0	0	53	4311
2026-01-20 23:01:23.32	145.88	30.65	-40.9	-42.6	19.5	0.00e+00	0	43	0	0	53	4376
2026-01-20 23:01:24.31	146.12	30.51	-40.7	-42.5	19.7	0.00e+00	0	44	0	0	53	4293
2026-01-20 23:01:25.31	146.35	30.37	-40.5	-42.2	19.9	0.00e+00	0	44	0	0	53	4151
2026-01-20 23:01:26.30	146.59	30.23	-40.5	-42.2	19.8	0.00e+00	0	43	0	0	53	4178
2026-01-20 23:01:27.30	146.82	30.08	-40.7	-42.4	19.7	0.00e+00	0	43	0	0	53	4273
2026-01-20 23:01:28.29	147.05	29.94	-40.7	-42.4	19.6	0.00e+00	0	43	0	0	53	4283
2026-01-20 23:01:29.29	147.28	29.80	-40.8	-42.5	19.6	0.00e+00	0	43	0	0	53	4336
2026-01-20 23:01:30.28	147.50	29.66	-40.9	-42.6	19.6	0.00e+00	0	43	0	0	53	4372
2026-01-20 23:01:31.28	147.73	29.52	-40.9	-42.7	19.6	0.00e+00	0	44	0	0	53	4395
2026-01-20 23:01:32.27	147.95	29.38	-41.1	-42.8	19.4	0.00e+00	0	44	0	0	53	4468
2026-01-20 23:01:33.27	148.17	29.24	-41.1	-42.9	19.3	0.00e+00	0	43	0	0	53	4511
2026-01-20 23:01:34.26	148.39	29.10	-41.1	-42.9	19.3	0.00e+00	0	44	0	0	53	4519
2026-01-20 23:01:35.26	148.61	28.96	-41.1	-42.9	19.3	0.00e+00	0	44	0	0	53	4524
2026-01-20 23:01:36.26	148.83	28.82	-41.2	-43.0	19.2	0.00e+00	0	43	0	0	53	4595
2026-01-20 23:01:37.25	149.04	28.68	-41.2	-42.9	19.3	0.00e+00	0	44	0	0	53	4541
2026-01-20 23:01:38.24	149.25	28.54	-41.1	-42.9	19.3	0.00e+00	0	44	0	0	53	4528
2026-01-20 23:01:39.24	149.46	28.40	-41.2	-42.9	19.2	0.00e+00	0	44	0	0	53	4544
2026-01-20 23:01:40.23	149.67	28.27	-41.2	-43.0	19.2	0.00e+00	0	44	0	0	53	4572
2026-01-20 23:01:41.23	149.87	28.13	-41.2	-43.0	19.1	0.00e+00	0	43	0	0	53	4598
2026-01-20 23:01:42.22	150.08	27.99	-41.2	-43.0	19.2	0.00e+00	0	43	0	0	53	4592
2026-01-20 23:01:43.22	150.28	27.85	-41.2	-43.0	19.2	0.00e+00	0	43	0	0	53	4590
2026-01-20 23:01:44.21	150.48	27.72	-41.1	-42.9	19.3	0.00e+00	0	43	0	0	53	4527
2026-01-20 23:01:45.21	150.68	27.58	-41.1	-43.0	19.3	0.00e+00	0	44	0	0	53	4554
2026-01-20 23:01:46.20	150.88	27.44	-41.1	-42.9	19.3	0.00e+00	0	44	0	0	53	4536
2026-01-20 23:01:47.19	151.07	27.31	-41.2	-43.0	19.2	0.00e+00	0	43	0	0	53	4579
2026-01-20 23:01:48.19	151.27	27.17	-41.2	-43.0	19.2	0.00e+00	0	43	0	0	53	4573
2026-01-20 23:01:49.18	151.46	27.04	-41.1	-42.9	19.3	0.00e+00	0	44	0	0	53	4532
2026-01-20 23:01:50.18	151.65	26.90	-41.2	-43.1	19.1	0.00e+00	0	44	0	0	53	4605
2026-01-20 23:01:51.17	151.84	26.77	-41.1	-43.0	19.2	0.00e+00	0	43	0	0	53	4546
2026-01-20 23:01:52.17	152.03	26.63	-41.1	-43.0	19.1	0.00e+00	0	43	0	0	53	4550
2026-01-20 23:01:53.16	152.22	26.50	-41.2	-43.0	19.1	0.00e+00	0	44	0	0	53	4574
2026-01-20 23:01:54.16	152.40	26.36	-41.1	-42.9	19.2	0.00e+00	0	44	0	0	53	4536
2026-01-20 23:01:55.15	152.59	26.23	-41.0	-42.8	19.3	0.00e+00	0	43	0	0	53	4466
2026-01-20 23:01:56.14	152.77	26.10	-40.7	-42.5	19.7	0.00e+00	0	44	0	0	53	4294
2026-01-20 23:01:57.14	152.95	25.96	-40.5	-42.2	19.9	0.00e+00	0	44	0	0	52	4409
2026-01-20 23:01:58.14	153.13	25.83	-40.5	-42.2	19.9	0.00e+00	0	43	0	0	52	4410
2026-01-20 23:01:59.13	153.31	25.70	-40.5	-42.2	19.8	0.00e+00	0	44	0	0	52	4406
2026-01-20 23:02:00.12	153.48	25.57	-40.4	-42.1	19.9	0.00e+00	0	44	0	0	52	4360
2026-01-20 23:02:01.12	153.66	25.44	-40.4	-42.1	19.9	0.00e+00	0	44	0	0	52	4371
2026-01-20 23:02:02.11	153.83	25.31	-40.5	-42.2	19.8	0.00e+00	0	44	0	0	52	4403
2026-01-20 23:02:03.11	154.00	25.18	-40.5	-42.3	19.8	0.00e+00	0	44	0	0	52	4442
2026-01-20 23:02:04.10	154.17	25.05	-40.6	-42.4	19.7	0.00e+00	0	43	0	0	52	4503
2026-01-20 23:02:05.10	154.34	24.92	-40.7	-42.4	19.7	0.00e+00	0	43	0	0	52	4527
2026-01-20 23:02:06.09	154.51	24.79	-40.8	-42.6	19.6	0.00e+00	0	43	0	0	52	4611
2026-01-20 23:02:07.09	154.68	24.66	-40.8	-42.5	19.6	0.00e+00	0	44	0	0	52	4575
2026-01-20 23:02:08.08	154.84	24.53	-40.8	-42.5	19.7	0.00e+00	0	44	0	0	52	4588
2026-01-20 23:02:09.07	155.00	24.40	-40.8	-42.5	19.7	0.00e+00	0	44	0	0	52	4570
2026-01-20 23:02:10.07	155.17	24.27	-40.8	-42.6	19.6	0.00e+00	0	43	0	0	52	4608
2026-01-20 23:02:11.06	155.33	24.15	-40.9	-42.6	19.5	0.00e+00	0	44	0	0	52	4638
2026-01-20 23:02:12.06	155.49	24.02	-40.8	-42.5	19.5	0.00e+00	0	44	0	0	52	4577
2026-01-20 23:02:13.05	155.65	23.89	-40.7	-42.5	19.6	0.00e+00	0	43	0	0	52	4553
2026-01-20 23:02:14.05	155.81	23.77	-40.6	-42.3	19.6	0.00e+00	0	44	0	0	52	4492
2026-01-20 23:02:15.04	155.96	23.64	-40.6	-42.4	19.6	0.00e+00	0	44	0	0	52	4501
2026-01-20 23:02:16.03	156.12	23.51	-40.6	-42.4	19.5	0.00e+00	0	44	0	0	52	4498
2026-01-20 23:02:17.03	156.27	23.39	-40.7	-42.4	19.5	0.00e+00	0	43	0	0	52	4540
2026-01-20 23:02:18.02	156.42	23.27	-40.7	-42.4	19.5	0.00e+00	0	44	0	0	52	4519
2026-01-20 23:02:19.02	156.58	23.14	-40.8	-42.6	19.4	0.00e+00	0	44	0	0	52	4619
2026-01-20 23:02:20.01	156.73	23.02	-40.7	-42.4	19.6	0.00e+00	0	44	0	0	52	4507
2026-01-20 23:02:21.01	156.88	22.89	-40.7	-42.4	19.6	0.00e+00	0	43	0	0	52	4534
2026-01-20 23:02:22.00	157.02	22.77	-40.7	-42.4	19.6	0.00e+00	0	44	0	0	52	4515
2026-01-20 23:02:22.99	157.17	22.65	-40.7	-42.4	19.6	0.00e+00	0	43	0	0	52	4521
2026-01-20 23:02:23.99	157.32	22.53	-40.7	-42.5	19.6	0.00e+00	0	43	0	0	52	4550
2026-01-20 23:02:24.99	157.46	22.40	-40.6	-42.3	19.7	0.00e+00	0	43	0	0	52	4464
2026-01-20 23:02:25.98	157.61	22.28	-40.7	-42.4	19.6	0.00e+00	0	44	0	0	52	4531
2026-01-20 23:02:26.98	157.75	22.16	-40.8	-42.5	19.5	0.00e+00	0	44	0	0	52	4575
2026-01-20 23:02:27.97	157.89	22.04	-40.8	-42.5	19.4	0.00e+00	0	44	0	0	52	4593
2026-01-20 23:02:28.97	158.03	21.92	-40.8	-42.6	19.4	0.00e+00	0	43	0	0	52	4603
2026-01-20 23:02:29.96	158.17	21.80	-40.8	-42.6	19.4	0.00e+00	0	44	0	0	52	4629
2026-01-20 23:02:30.96	158.31	21.68	-41.0	-42.8	19.2	0.00e+00	0	44	0	0	52	4706
2026-01-20 23:02:31.95	158.45	21.56	-40.9	-42.6	19.3	0.00e+00	0	44	0	0	52	4637
2026-01-20 23:02:32.95	158.58	21.44	-40.7	-42.4	19.5	0.00e+00	0	44	0	0	52	4539
2026-01-20 23:02:33.94	158.72	21.32	-40.7	-42.4	19.5	0.00e+00	0	44	0	0	52	4536
2026-01-20 23:02:34.94	158.85	21.21	-40.7	-42.4	19.5	0.00e+00	0	44	0	0	52	4518
2026-01-20 23:02:35.93	158.98	21.09	-40.6	-42.3	19.6	0.00e+00	0	44	0	0	52	4479
2026-01-20 23:02:36.93	159.12	20.97	-40.6	-42.3	19.6	0.00e+00	0	43	0	0	52	4492
2026-01-20 23:02:37.92	159.25	20.85	-40.6	-42.3	19.6	0.00e+00	0	44	0	0	52	4491
2026-01-20 23:02:38.91	159.38	20.74	-40.6	-42.3	19.6	0.00e+00	0	44	0	0	52	4486
2026-01-20 23:02:39.91	159.51	20.62	-40.5	-42.3	19.7	0.00e+00	0	44	0	0	52	4442
2026-01-20 23:02:40.90	159.64	20.51	-40.6	-42.4	19.6	0.00e+00	0	44	0	0	52	4511
2026-01-20 23:02:41.90	159.77	20.39	-40.7	-42.4	19.6	0.00e+00	0	44	0	0	52	4531
2026-01-20 23:02:42.90	159.89	20.28	-40.7	-42.4	19.6	0.00e+00	0	44	0	0	52	4541
2026-01-20 23:02:43.89	160.02	20.16	-40.8	-42.5	19.5	0.00e+00	0	43	0	0	52	4579
2026-01-20 23:02:44.88	160.14	20.05	-40.9	-42.6	19.4	0.00e+00	0	44	0	0	52	4636
2026-01-20 23:02:45.88	160.27	19.93	-40.9	-42.7	19.4	0.00e+00	0	44	0	0	52	4656
2026-01-20 23:02:46.87	160.39	19.82	-40.8	-42.6	19.4	0.00e+00	0	43	0	0	52	4623
2026-01-20 23:02:47.87	160.51	19.71	-40.9	-42.7	19.3	0.00e+00	0	44	0	0	52	4672
2026-01-20 23:02:48.86	160.63	19.60	-40.9	-42.7	19.3	0.00e+00	0	44	0	0	52	4686
2026-01-20 23:02:49.86	160.75	19.48	-41.0	-42.8	19.2	0.00e+00	0	44	0	0	52	4732
2026-01-20 23:02:50.85	160.87	19.37	-41.0	-42.8	19.2	0.00e+00	0	44	0	0	52	4731
2026-01-20 23:02:51.85	160.99	19.26	-40.9	-42.7	19.3	0.00e+00	0	44	0	0	52	4665
2026-01-20 23:02:52.84	161.11	19.15	-40.8	-42.6	19.3	0.00e+00	0	44	0	0	52	4637
2026-01-20 23:02:53.83	161.23	19.04	-40.8	-42.6	19.3	0.00e+00	0	44	0	0	52	4603
2026-01-20 23:02:54.83	161.34	18.93	-40.8	-42.6	19.3	0.00e+00	0	44	0	0	52	4606
2026-01-20 23:02:55.82	161.46	18.82	-40.8	-42.5	19.3	0.00e+00	0	44	0	0	52	4598
2026-01-20 23:02:56.82	161.57	18.71	-40.9	-42.7	16.1	0.00e+00	0	44	0	0	52	4681
2026-01-20 23:02:57.81	161.69	18.60	-40.8	-42.5	19.2	0.00e+00	0	44	0	0	52	4597
2026-01-20 23:02:58.81	161.80	18.49	-40.8	-42.6	19.2	0.00e+00	0	44	0	0	52	4634
2026-01-20 23:02:59.80	161.91	18.38	-40.8	-42.6	19.1	0.00e+00	0	44	0	0	52	4637
2026-01-20 23:03:00.79	162.02	18.28	-40.8	-42.6	19.2	0.00e+00	0	44	0	0	52	4610
2026-01-20 23:03:01.79	162.14	18.17	-40.7	-42.5	19.3	0.00e+00	0	43	0	0	52	4571
2026-01-20 23:03:02.78	162.25	18.06	-40.7	-42.5	19.3	0.00e+00	0	44	0	0	52	4563
2026-01-20 23:03:03.78	162.36	17.96	-40.7	-42.5	19.4	0.00e+00	0	44	0	0	52	4546
2026-01-20 23:03:04.77	162.46	17.85	-40.7	-42.5	19.4	0.00e+00	0	44	0	0	52	4550
2026-01-20 23:03:05.77	162.57	17.74	-40.7	-42.4	19.4	0.00e+00	0	44	0	0	52	4528
2026-01-20 23:03:06.76	162.68	17.64	-40.8	-42.6	19.3	0.00e+00	0	44	0	0	52	4618
2026-01-20 23:03:07.76	162.79	17.53	-40.6	-42.3	19.5	0.00e+00	0	44	0	0	52	4468
2026-01-20 23:03:08.75	162.89	17.43	-40.5	-42.3	19.6	0.00e+00	0	44	0	0	52	4442
2026-01-20 23:03:09.75	163.00	17.32	-40.6	-42.4	19.5	0.00e+00	0	44	0	0	52	4497
2026-01-20 23:03:10.74	163.10	17.22	-40.7	-42.4	19.4	0.00e+00	0	44	0	0	52	4531
2026-01-20 23:03:11.74	163.20	17.11	-40.8	-42.6	19.3	0.00e+00	0	44	0	0	52	4614
2026-01-20 23:03:12.74	163.31	17.01	-40.9	-42.7	19.2	0.00e+00	0	44	0	0	52	4678
2026-01-20 23:03:13.73	163.41	16.91	-41.0	-42.8	19.1	0.00e+00	0	44	0	0	52	4733
2026-01-20 23:03:14.72	163.51	16.80	-41.1	-43.0	19.0	0.00e+00	0	44	0	0	52	4830
2026-01-20 23:03:15.72	163.61	16.70	-41.3	-43.1	18.8	0.00e+00	0	44	0	0	53	4630
2026-01-20 23:03:16.71	163.71	16.60	-41.4	-43.2	18.8	0.00e+00	0	44	0	0	53	4686
2026-01-20 23:03:17.71	163.81	16.50	-41.4	-43.3	18.7	0.00e+00	0	44	0	0	53	4746
2026-01-20 23:03:18.70	163.91	16.40	-41.5	-43.4	18.6	0.00e+00	0	43	0	0	53	4768
2026-01-20 23:03:19.70	164.01	16.29	-41.6	-43.6	18.4	0.00e+00	0	44	0	0	53	4874
2026-01-20 23:03:20.69	164.11	16.19	-41.7	-43.6	18.4	0.00e+00	0	44	0	0	53	4912
2026-01-20 23:03:21.69	164.20	16.09	-41.8	-43.8	18.2	0.00e+00	0	44	0	0	54	4707
2026-01-20 23:03:22.68	164.30	15.99	-41.8	-43.7	18.3	0.00e+00	0	44	0	0	54	4698
2026-01-20 23:03:23.67	164.40	15.89	-41.8	-43.8	18.2	0.00e+00	0	44	0	0	54	4735
2026-01-20 23:03:24.67	164.49	15.79	-41.8	-43.7	18.3	0.00e+00	0	44	0	0	54	4689
2026-01-20 23:03:25.67	164.59	15.69	-41.7	-43.7	18.3	0.00e+00	0	44	0	0	54	4655
2026-01-20 23:03:26.66	164.68	15.60	-41.8	-43.7	18.2	0.00e+00	0	44	0	0	54	4701
2026-01-20 23:03:27.65	164.77	15.50	-41.7	-43.6	18.3	0.00e+00	0	44	0	0	54	4616
2026-01-20 23:03:28.65	164.87	15.40	-41.5	-43.4	18.5	0.00e+00	0	44	0	0	54	4520
2026-01-20 23:03:29.64	164.96	15.30	-41.6	-43.5	18.4	0.00e+00	0	44	0	0	54	4564
2026-01-20 23:03:30.64	165.05	15.20	-41.6	-43.5	18.3	0.00e+00	0	44	0	0	54	4579
2026-01-20 23:03:31.63	165.14	15.11	-41.7	-43.6	18.3	0.00e+00	0	44	0	0	54	4600
2026-01-20 23:03:32.63	165.23	15.01	-41.5	-43.4	18.4	0.00e+00	0	44	0	0	54	4519
2026-01-20 23:03:33.62	165.32	14.91	-41.6	-43.5	18.3	0.00e+00	0	43	0	0	54	4556
2026-01-20 23:03:34.62	165.41	14.82	-41.7	-43.6	18.2	0.00e+00	0	43	0	0	54	4620
2026-01-20 23:03:35.61	165.50	14.72	-41.6	-43.5	18.4	0.00e+00	0	44	0	0	54	4560
2026-01-20 23:03:36.61	165.59	14.63	-41.6	-43.5	18.4	0.00e+00	0	44	0	0	54	4554
2026-01-20 23:03:37.60	165.68	14.53	-41.6	-43.5	18.3	0.00e+00	0	44	0	0	54	4590
2026-01-20 23:03:38.60	165.76	14.44	-41.6	-43.5	18.4	0.00e+00	0	44	0	0	54	4564
2026-01-20 23:03:39.59	165.85	14.34	-41.7	-43.6	18.4	0.00e+00	0	44	0	0	54	4607
2026-01-20 23:03:40.59	165.94	14.25	-41.5	-43.4	18.6	0.00e+00	0	44	0	0	54	4501
2026-01-20 23:03:41.58	166.02	14.15	-41.6	-43.5	18.5	0.00e+00	0	44	0	0	54	4570
2026-01-20 23:03:42.58	166.11	14.06	-41.6	-43.5	18.5	0.00e+00	0	44	0	0	54	4569
2026-01-20 23:03:43.57	166.19	13.97	-41.5	-43.4	18.5	0.00e+00	0	44	0	0	54	4514
2026-01-20 23:03:44.57	166.28	13.87	-41.4	-43.3	18.6	0.00e+00	0	44	0	0	54	4483
2026-01-20 23:03:45.56	166.36	13.78	-41.5	-43.4	18.6	0.00e+00	0	44	0	0	54	4497
2026-01-20 23:03:46.56	166.44	13.69	-41.5	-43.4	18.6	0.00e+00	0	44	0	0	54	4507
2026-01-20 23:03:47.55	166.52	13.60	-41.5	-43.4	18.5	0.00e+00	0	44	0	0	54	4527
2026-01-20 23:03:48.54	166.61	13.50	-41.6	-43.5	18.5	0.00e+00	0	44	0	0	54	4560
2026-01-20 23:03:49.53	166.69	13.41	-41.6	-43.5	18.5	0.00e+00	0	44	0	0	54	4570
2026-01-20 23:03:50.53	166.77	13.32	-41.6	-43.5	18.4	0.00e+00	0	44	0	0	54	4597
2026-01-20 23:03:51.52	166.85	13.23	-41.7	-43.7	18.2	0.00e+00	0	44	0	0	54	4655
2026-01-20 23:03:52.52	166.93	13.14	-41.7	-43.7	18.3	0.00e+00	0	44	0	0	54	4673
2026-01-20 23:03:53.51	167.01	13.05	-41.8	-43.8	18.2	0.00e+00	0	44	0	0	54	4712
2026-01-20 23:03:54.51	167.09	12.96	-41.8	-43.7	18.2	0.00e+00	0	44	0	0	54	4687
2026-01-20 23:03:55.50	167.17	12.87	-41.9	-43.9	18.1	0.00e+00	0	43	0	0	54	4763
2026-01-20 23:03:56.50	167.25	12.78	-41.9	-43.9	18.1	0.00e+00	0	44	0	0	54	4781
2026-01-20 23:03:57.49	167.32	12.69	-42.0	-44.0	18.0	0.00e+00	0	44	0	0	54	4846
2026-01-20 23:03:58.49	167.40	12.60	-42.0	-44.0	17.9	0.00e+00	0	44	0	0	54	4848
2026-01-20 23:03:59.48	167.48	12.51	-42.0	-44.0	18.0	0.00e+00	0	44	0	0	54	4825
2026-01-20 23:04:00.47	167.55	12.42	-42.1	-44.0	17.9	0.00e+00	0	44	0	0	54	4870
2026-01-20 23:04:01.47	167.63	12.34	-42.2	-44.1	17.8	0.00e+00	0	44	0	0	54	4925
2026-01-20 23:04:02.46	167.71	12.25	-42.1	-44.1	17.8	0.00e+00	0	44	0	0	55	4631
2026-01-20 23:04:03.46	167.78	12.16	-42.2	-44.2	17.8	0.00e+00	0	43	0	0	55	4656
2026-01-20 23:04:04.45	167.86	12.07	-42.2	-44.2	17.7	0.00e+00	0	44	0	0	55	4686
2026-01-20 23:04:05.45	167.93	11.99	-42.2	-44.2	17.7	0.00e+00	0	44	0	0	55	4677
2026-01-20 23:04:06.44	168.01	11.90	-42.0	-44.0	17.9	0.00e+00	0	44	0	0	55	4573
2026-01-20 23:04:07.44	168.08	11.81	-42.0	-43.9	18.0	0.00e+00	0	44	0	0	55	4543
2026-01-20 23:04:08.43	168.15	11.73	-42.0	-44.0	17.9	0.00e+00	0	44	0	0	55	4556
2026-01-20 23:04:09.43	168.23	11.64	-42.1	-44.1	17.8	0.00e+00	0	44	0	0	55	4636
2026-01-20 23:04:10.42	168.30	11.55	-41.9	-43.9	18.0	0.00e+00	0	44	0	0	55	4526
2026-01-20 23:04:11.42	168.37	11.47	-41.9	-43.9	17.9	0.00e+00	0	44	0	0	55	4542
2026-01-20 23:04:12.41	168.44	11.38	-42.0	-44.1	17.8	0.00e+00	0	43	0	0	55	4606
2026-01-20 23:04:13.41	168.51	11.30	-41.9	-44.0	17.9	0.00e+00	0	44	0	0	55	4580
2026-01-20 23:04:14.40	168.58	11.21	-41.9	-44.0	17.8	0.00e+00	0	44	0	0	55	4586
2026-01-20 23:04:15.40	168.65	11.13	-42.1	-44.2	17.7	0.00e+00	0	44	0	0	55	4655
2026-01-20 23:04:16.39	168.72	11.04	-42.0	-44.1	17.7	0.00e+00	0	44	0	0	55	4647
2026-01-20 23:04:17.39	168.79	10.96	-42.0	-44.2	17.7	0.00e+00	0	44	0	0	55	4676
2026-01-20 23:04:18.39	168.86	10.88	-42.1	-44.4	17.5	0.00e+00	0	44	0	0	55	4772
2026-01-20 23:04:19.38	168.93	10.79	-42.0	-44.3	17.6	0.00e+00	0	44	0	0	55	4711
2026-01-20 23:04:20.38	169.00	10.71	-42.0	-44.3	17.6	0.00e+00	0	43	0	0	55	4725
2026-01-20 23:04:21.37	169.07	10.63	-42.0	-44.4	17.5	0.00e+00	0	43	0	0	55	4797
2026-01-20 23:04:22.37	169.14	10.54	-42.0	-44.5	17.4	0.00e+00	0	44	0	0	55	4822
2026-01-20 23:04:23.36	169.20	10.46	-42.0	-44.4	17.4	0.00e+00	0	44	0	0	55	4795
2026-01-20 23:04:24.35	169.27	10.38	-42.0	-44.5	17.3	0.00e+00	0	44	0	0	55	4837
2026-01-20 23:04:25.35	169.34	10.30	-42.1	-44.5	17.3	0.00e+00	0	44	0	0	55	4855
2026-01-20 23:04:26.34	169.40	10.22	-42.0	-44.5	17.3	0.00e+00	0	44	0	0	55	4846
2026-01-20 23:04:27.34	169.47	10.13	-42.0	-44.4	17.4	0.00e+00	0	44	0	0	55	4787
2026-01-20 23:04:28.33	169.53	10.05	-42.0	-44.5	17.3	0.00e+00	0	44	0	0	55	4827
2026-01-20 23:04:29.33	169.60	9.97	-42.0	-44.5	17.3	0.00e+00	0	44	0	0	55	4841
2026-01-20 23:04:30.32	169.66	9.89	-42.0	-44.6	17.3	0.00e+00	0	44	0	0	55	4874
2026-01-20 23:04:31.32	169.73	9.81	-42.0	-44.5	17.2	0.00e+00	0	44	0	0	55	4867
2026-01-20 23:04:32.32	169.79	9.73	-42.0	-44.5	17.3	0.00e+00	0	44	0	0	55	4847
2026-01-20 23:04:33.31	169.86	9.65	-42.1	-44.6	17.2	0.00e+00	0	44	0	0	55	4899
2026-01-20 23:04:34.30	169.92	9.57	-42.2	-44.8	17.0	0.00e+00	0	44	0	0	55	4993
2026-01-20 23:04:35.30	169.98	9.49	-42.2	-44.8	17.0	0.00e+00	0	44	0	0	55	4988
2026-01-20 23:04:36.29	170.05	9.41	-42.2	-44.8	17.0	0.00e+00	0	44	0	0	55	5011
2026-01-20 23:04:37.29	170.11	9.33	-42.2	-44.8	17.0	0.00e+00	0	44	0	0	55	4991
2026-01-20 23:04:38.28	170.17	9.25	-42.2	-44.7	17.0	0.00e+00	0	44	0	0	55	4969
2026-01-20 23:04:39.28	170.23	9.17	-42.3	-44.8	16.9	0.00e+00	0	44	0	0	55	5015
2026-01-20 23:04:40.27	170.30	9.09	-42.2	-44.8	16.9	0.00e+00	0	44	0	0	55	4995
2026-01-20 23:04:41.27	170.36	9.02	-42.2	-44.8	17.0	0.00e+00	0	44	0	0	55	4998
2026-01-20 23:04:42.26	170.42	8.94	-48.3	-62.4	3.8	1.47e+00	0	44	104	0	67	19123
2026-01-20 23:04:43.25	170.48	8.86	-50.3	-63.4	3.8	1.49e+00	0	43	104	0	71	17009
2026-01-20 23:04:44.25	170.54	8.78	-50.6	-63.8	3.8	1.49e+00	0	44	104	0	71	17755
2026-01-20 23:04:45.24	170.60	8.71	-50.5	-63.9	3.8	1.49e+00	0	44	104	0	71	17932
2026-01-20 23:04:46.23	170.66	8.63	-50.7	-64.0	3.8	1.49e+00	0	44	104	0	71	18139
2026-01-20 23:04:47.23	170.72	8.55	-50.8	-64.0	3.8	1.49e+00	0	44	104	0	72	17110
2026-01-20 23:04:48.22	170.78	8.47	-51.0	-64.0	3.8	1.49e+00	0	44	104	0	72	17194
2026-01-20 23:04:49.21	170.84	8.40	-50.9	-64.0	3.8	1.49e+00	0	44	104	0	72	17259
2026-01-20 23:04:50.20	170.89	8.32	-50.9	-64.0	3.8	1.49e+00	0	44	104	0	72	17260
2026-01-20 23:04:51.20	170.95	8.25	-50.8	-64.1	3.8	1.49e+00	0	44	104	0	72	17382
2026-01-20 23:04:52.19	171.01	8.17	-51.0	-64.1	3.8	1.49e+00	0	44	104	0	72	17349
2026-01-20 23:04:53.18	171.07	8.09	-51.1	-64.1	3.8	1.49e+00	0	44	104	0	72	17322
2026-01-20 23:04:54.18	171.13	8.02	-51.1	-64.1	3.8	1.49e+00	0	44	104	0	72	17402
2026-01-20 23:04:55.17	171.18	7.94	-51.1	-64.1	3.8	1.49e+00	0	44	104	0	72	17440
2026-01-20 23:04:56.16	171.24	7.87	-51.1	-64.1	3.8	1.49e+00	0	44	104	0	72	17361
2026-01-20 23:04:57.16	171.30	7.79	-51.0	-64.1	3.8	1.49e+00	0	44	104	0	72	17451
2026-01-20 23:04:58.15	171.35	7.72	-51.1	-64.1	3.8	1.49e+00	0	44	104	0	72	17405
2026-01-20 23:04:59.14	171.41	7.64	-51.1	-64.1	3.8	1.49e+00	0	44	104	0	72	17439
2026-01-20 23:05:00.14	171.46	7.57	-51.1	-64.1	3.8	1.49e+00	0	44	104	0	72	17435
2026-01-20 23:05:01.13	171.52	7.50	-50.9	-64.2	3.8	1.49e+00	0	44	104	0	72	17488
2026-01-20 23:05:02.12	171.57	7.42	-50.9	-64.2	3.8	1.49e+00	0	44	104	0	72	17515
2026-01-20 23:05:03.12	171.63	7.35	-51.2	-64.1	3.8	1.49e+00	0	44	104	0	72	17457
2026-01-20 23:05:04.11	171.68	7.28	-51.1	-64.1	3.8	1.49e+00	0	44	104	0	72	17421
2026-01-20 23:05:05.10	171.74	7.20	-51.0	-64.1	3.8	1.49e+00	0	44	104	0	72	17477
2026-01-20 23:05:06.10	171.79	7.13	-51.0	-64.1	3.8	1.49e+00	0	44	104	0	72	17462
2026-01-20 23:05:07.09	171.85	7.06	-51.0	-64.2	3.8	1.49e+00	0	44	104	0	72	17512
2026-01-20 23:05:08.08	171.90	6.98	-50.7	-64.1	3.8	1.49e+00	0	44	104	0	72	17435
2026-01-20 23:05:09.07	171.95	6.91	-50.9	-64.1	3.8	1.49e+00	0	44	104	0	72	17464
2026-01-20 23:05:10.07	172.01	6.84	-50.8	-64.1	3.8	1.49e+00	0	44	104	0	72	17346
2026-01-20 23:05:11.06	172.06	6.77	-50.8	-64.0	3.8	1.49e+00	0	44	104	0	72	17280
2026-01-20 23:05:12.05	172.11	6.69	-50.8	-64.1	3.8	1.49e+00	0	44	104	0	72	17322
2026-01-20 23:05:13.05	172.17	6.62	-50.8	-64.1	3.8	1.49e+00	0	44	104	0	72	17366
2026-01-20 23:05:14.04	172.22	6.55	-50.8	-64.1	3.8	1.49e+00	0	44	104	0	72	17311
2026-01-20 23:05:15.03	172.27	6.48	-50.8	-64.1	3.8	1.49e+00	0	44	104	0	72	17328
2026-01-20 23:05:16.03	172.32	6.41	-50.8	-64.1	3.8	1.49e+00	0	44	104	0	72	17304
2026-01-20 23:05:17.02	172.37	6.34	-50.8	-64.1	3.8	1.49e+00	0	44	104	0	72	17308
2026-01-20 23:05:18.01	172.42	6.27	-50.8	-64.1	3.8	1.49e+00	0	44	104	0	72	17296
2026-01-20 23:05:19.01	172.47	6.19	-50.8	-64.1	3.8	1.49e+00	0	44	104	0	72	17291
2026-01-20 23:05:20.00	172.53	6.12	-50.8	-64.1	3.8	1.49e+00	0	44	104	0	72	17397
2026-01-20 23:05:20.99	172.58	6.05	-50.8	-64.0	3.8	1.49e+00	0	44	104	0	72	17235
2026-01-20 23:05:21.98	172.63	5.98	-50.8	-64.1	3.8	1.49e+00	0	44	104	0	72	17334
2026-01-20 23:05:22.98	172.68	5.91	-50.8	-64.0	3.8	1.49e+00	0	44	104	0	72	17280
2026-01-20 23:05:23.97	172.73	5.84	-50.8	-64.1	3.8	1.49e+00	0	44	104	0	72	17304
2026-01-20 23:05:24.96	172.78	5.77	-50.8	-64.1	3.8	1.49e+00	0	44	104	0	72	17295
2026-01-20 23:05:25.96	172.83	5.70	-50.8	-64.1	3.8	1.49e+00	0	44	104	0	72	17285
2026-01-20 23:05:26.95	172.87	5.64	-50.8	-64.1	3.8	1.49e+00	0	44	104	0	72	17326
2026-01-20 23:05:27.94	172.92	5.57	-50.8	-64.0	3.8	1.49e+00	0	44	104	0	72	17262
2026-01-20 23:05:28.93	172.97	5.50	-50.8	-64.0	3.8	1.49e+00	0	44	104	0	72	17279
2026-01-20 23:05:29.93	173.02	5.43	-50.8	-64.0	3.8	1.49e+00	0	44	104	0	72	17265
2026-01-20 23:05:30.92	173.07	5.36	-50.8	-64.1	3.8	1.49e+00	0	44	104	0	72	17288
2026-01-20 23:05:31.91	173.12	5.29	-50.8	-64.0	3.8	1.49e+00	0	44	104	0	72	17252
2026-01-20 23:05:32.91	173.16	5.22	-50.8	-64.0	3.8	1.49e+00	0	44	104	0	72	17235
2026-01-20 23:05:33.90	173.21	5.15	-50.8	-64.1	3.8	1.49e+00	0	44	104	0	72	17326
2026-01-20 23:05:34.89	173.26	5.09	-50.8	-64.0	3.8	1.49e+00	0	44	104	0	72	17274
