passes_logs/2026/01/20/T1/T1__20260120_121029_FENGYUN_3D_rec.log

#Pass ID: 20260120_121029_FENGYUN 3D
#Satellite: FENGYUN 3D
#Configuration: FENGYUN 3D
#almurnet v.1.7.20251203
#Start time: 2026-01-20 12:10:29

#Version: 2.0.20230620
#Station: T1
#Location: 37.570604 lon 55.790049 lat
#TLE: 1 43010U 17072A   26019.65504262 -.00000232  00000+0 -88147-4 0  9993
#TLE: 2 43010  98.9941 351.5427 0002443 100.5024 259.6427 14.19695886423913

#Time	Az	El	Level	Level2	SNR	BER	BlckErr	Temp	State	Recorded	gain1	gain2
2026-01-20 12:10:29.24	166.13	4.98	-49.8	-62.3	3.8	8.47e-01	0	38	0	0	71	14895
2026-01-20 12:10:30.23	166.14	5.05	-48.0	-61.2	3.8	8.47e-01	0	38	104	0	66	17534
2026-01-20 12:10:31.22	166.15	5.12	-47.9	-61.1	3.8	8.47e-01	0	38	104	0	67	16462
2026-01-20 12:10:32.21	166.17	5.19	-47.9	-61.1	3.8	8.47e-01	0	38	104	0	67	16373
2026-01-20 12:10:33.21	166.18	5.26	-47.9	-61.0	3.8	8.47e-01	0	38	104	0	67	16221
2026-01-20 12:10:34.20	166.19	5.33	-47.9	-61.1	3.8	8.46e-01	0	38	104	0	67	16396
2026-01-20 12:10:35.19	166.20	5.40	-47.9	-61.2	3.8	8.46e-01	0	38	104	0	67	16563
2026-01-20 12:10:36.19	166.22	5.48	-47.9	-61.4	3.8	8.47e-01	0	38	104	0	67	16926
2026-01-20 12:10:37.18	166.23	5.55	-48.0	-61.5	3.8	8.46e-01	0	38	104	0	67	17245
2026-01-20 12:10:38.17	166.24	5.62	-48.0	-61.7	3.8	8.47e-01	0	38	104	0	67	17525
2026-01-20 12:10:39.16	166.26	5.69	-48.0	-61.8	3.8	8.48e-01	0	39	104	0	67	17711
2026-01-20 12:10:40.16	166.27	5.77	-48.0	-61.8	3.8	8.47e-01	0	38	104	0	67	17710
2026-01-20 12:10:41.15	166.28	5.84	-48.0	-61.7	3.8	8.46e-01	0	38	104	0	67	17544
2026-01-20 12:10:42.14	166.29	5.91	-47.9	-61.5	3.8	8.47e-01	0	39	104	0	67	17125
2026-01-20 12:10:43.13	166.31	5.99	-47.9	-61.1	3.8	8.47e-01	0	39	104	0	67	16462
2026-01-20 12:10:44.13	166.32	6.06	-47.9	-60.8	3.8	8.45e-01	0	39	104	0	67	15840
2026-01-20 12:10:45.12	166.33	6.14	-47.8	-60.3	3.8	8.46e-01	0	39	104	0	67	14955
2026-01-20 12:10:46.12	166.35	6.21	-47.8	-60.0	3.8	8.46e-01	0	39	104	0	67	14498
2026-01-20 12:10:47.11	166.36	6.29	-47.8	-59.8	3.8	8.45e-01	0	39	104	0	67	14048
2026-01-20 12:10:48.10	166.37	6.36	-48.0	-59.9	3.8	8.46e-01	0	39	104	0	67	14326
2026-01-20 12:10:49.10	166.39	6.44	-47.8	-59.6	3.9	8.46e-01	0	39	104	0	67	13802
2026-01-20 12:10:50.09	166.40	6.51	-47.8	-59.8	3.8	8.45e-01	0	39	104	0	67	14158
2026-01-20 12:10:51.08	166.42	6.59	-47.9	-60.0	3.8	8.46e-01	0	39	104	0	67	14537
2026-01-20 12:10:52.08	166.43	6.66	-47.8	-60.4	3.8	8.46e-01	0	39	104	0	67	15199
2026-01-20 12:10:53.07	166.44	6.74	-47.9	-60.9	3.8	8.47e-01	0	39	104	0	67	15960
2026-01-20 12:10:54.06	166.46	6.81	-47.9	-61.2	3.8	8.47e-01	0	39	104	0	67	16595
2026-01-20 12:10:55.06	166.47	6.89	-47.9	-61.6	3.8	8.47e-01	0	39	104	0	67	17327
2026-01-20 12:10:56.05	166.49	6.97	-47.9	-61.7	3.8	8.46e-01	0	39	104	0	67	17645
2026-01-20 12:10:57.04	166.50	7.04	-47.9	-61.8	3.8	8.48e-01	0	39	104	0	67	17786
2026-01-20 12:10:58.04	166.51	7.12	-47.9	-61.8	3.8	8.47e-01	0	39	104	0	67	17794
2026-01-20 12:10:59.03	166.53	7.20	-47.9	-61.7	3.8	8.46e-01	0	39	104	0	67	17570
2026-01-20 12:11:00.03	166.54	7.28	-47.9	-61.4	3.8	8.47e-01	0	39	104	0	67	17047
2026-01-20 12:11:01.02	166.56	7.35	-47.8	-60.9	3.8	8.47e-01	0	39	104	0	67	16024
2026-01-20 12:11:02.01	166.57	7.43	-47.7	-59.9	3.8	8.46e-01	0	39	104	0	67	14240
2026-01-20 12:11:03.01	166.58	7.51	-47.6	-58.4	4.2	8.44e-01	0	39	104	0	67	11987
2026-01-20 12:11:04.00	166.60	7.59	-47.4	-56.5	4.8	8.19e-01	0	39	0	0	66	10272
2026-01-20 12:11:04.99	166.61	7.67	-47.1	-54.8	5.9	5.29e-01	0	39	0	1048576	66	8449
2026-01-20 12:11:05.99	166.63	7.75	-46.7	-53.4	7.0	2.21e-01	0	39	0	6291456	65	7605
2026-01-20 12:11:06.98	166.64	7.83	-46.1	-51.8	8.6	7.63e-02	0	39	0	11534336	64	6705
2026-01-20 12:11:07.97	166.66	7.90	-45.7	-50.6	9.9	1.52e-02	0	39	0	16777216	63	6193
2026-01-20 12:11:08.97	166.67	7.98	-45.1	-49.4	11.1	3.44e-03	0	39	0	23068672	62	5722
2026-01-20 12:11:09.96	166.69	8.06	-44.5	-48.5	12.1	4.93e-04	0	39	0	28311552	61	5428
2026-01-20 12:11:10.95	166.70	8.14	-44.2	-47.9	12.7	1.57e-04	0	40	0	33554432	60	5385
2026-01-20 12:11:11.95	166.72	8.23	-43.9	-47.4	13.2	6.17e-05	0	39	0	39845888	59	5355
2026-01-20 12:11:12.94	166.73	8.31	-43.8	-47.2	13.4	3.20e-05	0	40	0	45088768	59	5268
2026-01-20 12:11:13.93	166.75	8.39	-43.7	-47.0	13.6	2.74e-05	0	39	0	50331648	59	5131
2026-01-20 12:11:14.93	166.76	8.47	-43.8	-47.2	13.4	2.28e-05	0	39	0	56623104	59	5253
2026-01-20 12:11:15.92	166.78	8.55	-44.0	-47.5	13.1	4.69e-05	0	39	0	61865984	59	5412
2026-01-20 12:11:16.92	166.79	8.63	-45.0	-48.8	9.1	1.06e-04	0	40	0	67108864	60	5983
2026-01-20 12:11:17.91	166.81	8.71	-44.8	-48.9	11.7	5.97e-04	0	39	0	73400320	60	6007
2026-01-20 12:11:18.90	166.82	8.80	-45.4	-50.0	10.6	2.49e-03	0	40	0	78643200	61	6437
2026-01-20 12:11:19.90	166.84	8.88	-46.0	-51.4	9.1	4.56e-02	0	40	0	83886080	63	6752
2026-01-20 12:11:20.89	166.86	8.96	-46.5	-53.0	7.6	6.52e-02	0	40	0	90177536	63	8098
2026-01-20 12:11:21.88	166.87	9.04	-47.0	-54.6	6.1	2.27e-01	0	40	0	95420416	64	9253
2026-01-20 12:11:22.88	166.89	9.13	-43.2	-46.3	14.5	3.40e-04	0	39	0	100663296	58	5004
2026-01-20 12:11:23.87	166.90	9.21	-47.5	-59.5	3.9	5.24e-02	0	40	0	105906176	65	15318
2026-01-20 12:11:24.87	166.92	9.30	-45.1	-49.4	11.1	1.62e-01	0	39	0	105906176	62	5717
2026-01-20 12:11:25.86	166.93	9.38	-40.8	-43.4	17.0	0.00e+00	0	40	0	111149056	53	4768
2026-01-20 12:11:26.86	166.95	9.46	-47.6	-56.4	4.9	2.86e-01	0	40	0	116391936	65	10697
2026-01-20 12:11:27.85	166.97	9.55	-45.0	-49.4	11.1	1.76e-01	0	40	0	119537664	62	5689
2026-01-20 12:11:28.85	166.98	9.63	-43.9	-47.5	13.2	2.08e-04	0	40	0	124780544	59	5407
2026-01-20 12:11:29.85	167.00	9.72	-43.8	-47.3	13.4	5.03e-05	0	40	0	131072000	59	5311
2026-01-20 12:11:30.84	167.02	9.81	-43.4	-46.7	13.9	3.54e-05	0	40	0	136314880	58	5252
2026-01-20 12:11:31.84	167.03	9.89	-43.2	-46.4	14.2	3.40e-06	0	40	0	141557760	58	5091
2026-01-20 12:11:32.83	167.05	9.98	-43.0	-46.1	14.5	1.10e-06	0	40	0	146800640	57	5204
2026-01-20 12:11:33.83	167.07	10.07	-42.8	-45.8	14.9	1.10e-06	0	40	0	153092096	56	5309
2026-01-20 12:11:34.82	167.08	10.15	-41.7	-44.4	16.1	0.00e+00	0	40	0	158334976	55	4784
2026-01-20 12:11:35.82	167.10	10.24	-41.7	-44.4	16.0	0.00e+00	0	40	0	163577856	54	5086
2026-01-20 12:11:36.81	167.12	10.33	-41.8	-44.6	16.0	0.00e+00	0	40	0	169869312	54	5168
2026-01-20 12:11:37.81	167.13	10.42	-42.1	-44.8	15.6	0.00e+00	0	40	0	175112192	55	5041
2026-01-20 12:11:38.80	167.15	10.50	-41.4	-44.0	16.4	0.00e+00	0	40	0	181403648	54	4842
2026-01-20 12:11:39.79	167.17	10.59	-41.1	-43.6	16.9	0.00e+00	0	40	0	186646528	54	4622
2026-01-20 12:11:40.79	167.18	10.68	-41.0	-43.4	17.1	0.00e+00	0	40	0	191889408	54	4501
2026-01-20 12:11:41.78	167.20	10.77	-41.3	-43.8	16.7	0.00e+00	0	40	0	197132288	54	4727
2026-01-20 12:11:42.78	167.22	10.86	-40.8	-43.1	17.4	0.00e+00	0	40	0	203423744	53	4621
2026-01-20 12:11:43.78	167.24	10.95	-40.8	-43.2	17.3	0.00e+00	0	40	0	208666624	53	4659
2026-01-20 12:11:44.77	167.25	11.04	-40.5	-42.8	17.7	0.00e+00	0	40	0	213909504	53	4451
2026-01-20 12:11:45.77	167.27	11.13	-40.4	-42.6	17.8	0.00e+00	0	40	0	220200960	52	4638
2026-01-20 12:11:46.76	167.29	11.22	-40.5	-42.7	17.8	0.00e+00	0	40	0	225443840	52	4669
2026-01-20 12:11:47.76	167.31	11.31	-40.4	-42.6	17.8	0.00e+00	0	40	0	231735296	52	4601
2026-01-20 12:11:48.75	167.33	11.40	-40.3	-42.4	18.0	0.00e+00	0	40	0	236978176	52	4524
2026-01-20 12:11:49.75	167.34	11.50	-40.3	-42.5	17.9	0.00e+00	0	40	0	242221056	52	4561
2026-01-20 12:11:50.74	167.36	11.59	-40.4	-42.6	17.8	0.00e+00	0	40	0	247463936	52	4599
2026-01-20 12:11:51.73	167.38	11.68	-40.4	-42.5	17.9	0.00e+00	0	40	0	253755392	52	4577
2026-01-20 12:11:52.73	167.40	11.77	-40.4	-42.5	17.9	0.00e+00	0	40	0	258998272	52	4583
2026-01-20 12:11:53.72	167.42	11.87	-40.3	-42.4	17.9	0.00e+00	0	40	0	264241152	52	4540
2026-01-20 12:11:54.72	167.44	11.96	-40.3	-42.4	18.0	0.00e+00	0	40	0	270532608	52	4516
2026-01-20 12:11:55.71	167.45	12.05	-40.2	-42.3	18.1	0.00e+00	0	40	0	275775488	52	4475
2026-01-20 12:11:56.71	167.47	12.15	-39.7	-41.7	18.7	0.00e+00	0	40	0	282066944	51	4420
2026-01-20 12:11:57.70	167.49	12.24	-39.8	-41.8	18.7	0.00e+00	0	40	0	287309824	51	4479
2026-01-20 12:11:58.70	167.51	12.34	-39.6	-41.6	18.8	0.00e+00	0	40	0	292552704	51	4382
2026-01-20 12:11:59.69	167.53	12.43	-39.5	-41.5	18.9	0.00e+00	0	40	0	298844160	51	4312
2026-01-20 12:12:00.69	167.55	12.53	-39.6	-41.6	18.8	0.00e+00	0	40	0	304087040	51	4360
2026-01-20 12:12:01.68	167.57	12.63	-39.5	-41.4	19.0	0.00e+00	0	40	0	309329920	51	4290
2026-01-20 12:12:02.68	167.59	12.72	-39.6	-41.7	18.8	0.00e+00	0	40	0	315621376	50	4657
2026-01-20 12:12:03.67	167.61	12.82	-39.7	-41.6	18.8	0.00e+00	0	40	0	320864256	50	4650
2026-01-20 12:12:04.67	167.63	12.92	-39.7	-41.7	18.8	0.00e+00	0	40	0	326107136	50	4663
2026-01-20 12:12:05.66	167.65	13.02	-39.5	-41.5	18.9	0.00e+00	0	40	0	332398592	50	4559
2026-01-20 12:12:06.66	167.67	13.11	-39.6	-41.6	18.8	0.00e+00	0	40	0	337641472	50	4621
2026-01-20 12:12:07.65	167.69	13.21	-39.4	-41.4	19.0	0.00e+00	0	40	0	342884352	50	4534
2026-01-20 12:12:08.65	167.71	13.31	-39.2	-41.2	19.3	0.00e+00	0	40	0	349175808	50	4402
2026-01-20 12:12:09.64	167.73	13.41	-39.2	-41.2	19.2	0.00e+00	0	40	0	354418688	50	4405
2026-01-20 12:12:10.64	167.75	13.51	-39.0	-41.0	19.4	0.00e+00	0	40	0	359661568	50	4325
2026-01-20 12:12:11.63	167.77	13.61	-39.0	-41.0	19.1	0.00e+00	0	40	0	365953024	50	4315
2026-01-20 12:12:12.62	167.79	13.71	-38.9	-40.9	19.4	0.00e+00	0	40	0	371195904	49	4530
2026-01-20 12:12:13.62	167.81	13.81	-39.0	-41.0	19.4	0.00e+00	0	40	0	376438784	49	4574
2026-01-20 12:12:14.62	167.83	13.91	-38.9	-40.9	19.5	0.00e+00	0	40	0	382730240	49	4526
2026-01-20 12:12:15.61	167.85	14.02	-38.8	-40.7	19.6	0.00e+00	0	40	0	387973120	49	4438
2026-01-20 12:12:16.61	167.87	14.12	-38.9	-40.8	19.5	0.00e+00	0	40	0	393216000	49	4483
2026-01-20 12:12:17.60	167.89	14.22	-38.9	-40.8	19.5	3.66e-04	0	40	0	399507456	49	4488
2026-01-20 12:12:18.60	167.92	14.32	-38.9	-40.8	19.5	0.00e+00	0	40	0	404750336	49	4491
2026-01-20 12:12:19.59	167.94	14.43	-38.9	-40.8	19.6	0.00e+00	0	40	0	409993216	49	4478
2026-01-20 12:12:20.59	167.96	14.53	-38.8	-40.8	19.6	9.83e-04	0	40	0	416284672	49	4446
2026-01-20 12:12:21.58	167.98	14.64	-38.6	-40.6	19.8	0.00e+00	0	40	0	421527552	49	4343
2026-01-20 12:12:22.58	168.00	14.74	-38.6	-40.5	19.9	0.00e+00	0	40	0	426770432	49	4322
2026-01-20 12:12:23.57	168.02	14.85	-38.6	-40.5	19.8	8.46e-05	0	40	0	433061888	49	4336
2026-01-20 12:12:24.57	168.05	14.95	-38.5	-40.4	19.9	0.00e+00	0	40	0	438304768	49	4272
2026-01-20 12:12:25.56	168.07	15.06	-38.3	-40.3	20.1	0.00e+00	0	40	0	443547648	48	4448
2026-01-20 12:12:26.56	168.09	15.17	-38.3	-40.2	20.2	0.00e+00	0	40	0	449839104	48	4404
2026-01-20 12:12:27.55	168.11	15.27	-38.3	-40.2	20.1	0.00e+00	0	40	0	455081984	48	4421
2026-01-20 12:12:28.55	168.14	15.38	-38.2	-40.1	20.2	0.00e+00	0	40	0	460324864	48	4359
2026-01-20 12:12:29.54	168.16	15.49	-38.3	-40.2	20.2	0.00e+00	0	40	0	466616320	48	4408
2026-01-20 12:12:30.54	168.18	15.60	-38.4	-40.3	20.1	0.00e+00	0	40	0	471859200	48	4442
2026-01-20 12:12:31.53	168.20	15.71	-38.1	-40.0	20.3	0.00e+00	0	40	0	477102080	48	4312
2026-01-20 12:12:32.52	168.23	15.82	-38.0	-39.9	20.4	0.00e+00	0	40	0	483393536	48	4261
2026-01-20 12:12:33.52	168.25	15.93	-38.1	-39.9	20.4	0.00e+00	0	40	0	488636416	48	4276
2026-01-20 12:12:34.51	168.27	16.04	-37.8	-39.7	20.3	0.00e+00	0	40	0	493879296	47	4419
2026-01-20 12:12:35.51	168.30	16.15	-37.9	-39.7	20.3	0.00e+00	0	40	0	500170752	47	4429
2026-01-20 12:12:36.50	168.32	16.26	-37.7	-39.6	20.5	0.00e+00	0	40	0	505413632	47	4348
2026-01-20 12:12:37.50	168.35	16.37	-37.7	-39.6	20.4	0.00e+00	0	40	0	510656512	47	4352
2026-01-20 12:12:38.50	168.37	16.49	-37.7	-39.5	20.5	0.00e+00	0	40	0	516947968	47	4317
2026-01-20 12:12:39.49	168.39	16.60	-37.7	-39.5	20.5	0.00e+00	0	40	0	522190848	47	4324
2026-01-20 12:12:40.49	168.42	16.71	-37.7	-39.5	20.5	0.00e+00	0	40	0	527433728	47	4332
2026-01-20 12:12:41.48	168.44	16.83	-37.7	-39.6	20.5	0.00e+00	0	40	0	533725184	47	4347
2026-01-20 12:12:42.48	168.47	16.94	-37.6	-39.4	20.6	0.00e+00	0	40	0	538968064	47	4268
2026-01-20 12:12:43.47	168.49	17.06	-37.5	-39.4	20.6	0.00e+00	0	40	0	544210944	47	4250
2026-01-20 12:12:44.47	168.52	17.17	-37.5	-39.4	20.6	0.00e+00	0	40	0	550502400	47	4250
2026-01-20 12:12:45.46	168.54	17.29	-37.6	-39.5	20.6	0.00e+00	0	40	0	555745280	47	4308
2026-01-20 12:12:46.46	168.57	17.41	-37.5	-39.4	20.7	0.00e+00	0	40	0	560988160	47	4244
2026-01-20 12:12:47.45	168.60	17.52	-37.5	-39.3	20.7	0.00e+00	0	40	0	567279616	47	4229
2026-01-20 12:12:48.45	168.62	17.64	-37.4	-39.2	20.8	0.00e+00	0	40	0	572522496	46	4433
2026-01-20 12:12:49.44	168.65	17.76	-37.4	-39.3	20.7	0.00e+00	0	40	0	578813952	46	4454
2026-01-20 12:12:50.44	168.67	17.88	-37.4	-39.2	20.8	0.00e+00	0	40	0	584056832	46	4440
2026-01-20 12:12:51.43	168.70	18.00	-37.4	-39.3	20.8	0.00e+00	0	40	0	589299712	46	4444
2026-01-20 12:12:52.43	168.73	18.12	-37.3	-39.2	20.8	0.00e+00	0	40	0	594542592	46	4407
2026-01-20 12:12:53.42	168.75	18.24	-37.5	-39.3	20.7	0.00e+00	0	40	0	600834048	46	4485
2026-01-20 12:12:54.42	168.78	18.36	-37.4	-39.2	20.8	0.00e+00	0	40	0	606076928	46	4427
2026-01-20 12:12:55.41	168.81	18.48	-37.4	-39.2	20.8	0.00e+00	0	40	0	611319808	46	4428
2026-01-20 12:12:56.41	168.83	18.61	-37.4	-39.2	20.8	0.00e+00	0	40	0	617611264	46	4428
2026-01-20 12:12:57.40	168.86	18.73	-37.4	-39.2	20.8	0.00e+00	0	40	0	622854144	46	4434
2026-01-20 12:12:58.40	168.89	18.85	-37.3	-39.2	20.8	0.00e+00	0	40	0	629145600	46	4407
2026-01-20 12:12:59.39	168.92	18.98	-37.3	-39.1	20.9	0.00e+00	0	40	0	634388480	46	4367
2026-01-20 12:13:00.38	168.95	19.10	-37.3	-39.1	20.9	0.00e+00	0	40	0	639631360	46	4388
2026-01-20 12:13:01.38	168.97	19.23	-37.3	-39.2	20.8	0.00e+00	0	40	0	644874240	46	4395
2026-01-20 12:13:02.38	169.00	19.36	-37.2	-39.1	20.9	0.00e+00	0	40	0	651165696	46	4356
2026-01-20 12:13:03.37	169.03	19.48	-37.3	-39.1	20.9	0.00e+00	0	40	0	656408576	46	4387
2026-01-20 12:13:04.37	169.06	19.61	-37.2	-39.1	20.9	0.00e+00	0	40	0	661651456	46	4343
2026-01-20 12:13:05.37	169.09	19.74	-37.2	-39.0	21.0	0.00e+00	0	40	0	667942912	46	4307
2026-01-20 12:13:06.36	169.12	19.87	-37.2	-39.0	21.0	0.00e+00	0	40	0	673185792	46	4316
2026-01-20 12:13:07.35	169.15	20.00	-37.1	-38.9	21.0	0.00e+00	0	40	0	679477248	46	4284
2026-01-20 12:13:08.35	169.18	20.13	-37.0	-38.8	21.2	0.00e+00	0	40	0	684720128	45	4452
2026-01-20 12:13:09.34	169.21	20.26	-36.9	-38.8	21.2	0.00e+00	0	40	0	689963008	45	4443
2026-01-20 12:13:10.34	169.24	20.39	-36.9	-38.7	21.2	0.00e+00	0	40	0	695205888	45	4432
2026-01-20 12:13:11.33	169.27	20.52	-36.9	-38.7	21.3	0.00e+00	0	40	0	701497344	45	4407
2026-01-20 12:13:12.33	169.30	20.66	-36.9	-38.7	21.2	0.00e+00	0	40	0	706740224	45	4395
2026-01-20 12:13:13.32	169.33	20.79	-36.9	-38.8	21.2	0.00e+00	0	40	0	713031680	45	4447
2026-01-20 12:13:14.32	169.36	20.93	-36.9	-38.7	21.2	0.00e+00	0	40	0	718274560	45	4438
2026-01-20 12:13:15.31	169.39	21.06	-36.8	-38.7	21.3	0.00e+00	0	40	0	723517440	45	4399
2026-01-20 12:13:16.31	169.43	21.20	-36.8	-38.6	21.3	0.00e+00	0	40	0	729808896	45	4356
2026-01-20 12:13:17.30	169.46	21.33	-36.8	-38.7	21.2	0.00e+00	0	40	0	735051776	45	4411
2026-01-20 12:13:18.30	169.49	21.47	-36.9	-38.7	21.2	0.00e+00	0	40	0	740294656	45	4436
2026-01-20 12:13:19.29	169.52	21.61	-36.9	-38.7	21.2	0.00e+00	0	40	0	746586112	45	4440
2026-01-20 12:13:20.29	169.56	21.75	-36.8	-38.7	21.2	0.00e+00	0	40	0	751828992	45	4398
2026-01-20 12:13:21.29	169.59	21.89	-36.7	-38.6	21.3	0.00e+00	0	40	0	757071872	45	4345
2026-01-20 12:13:22.28	169.62	22.03	-36.7	-38.5	21.4	0.00e+00	0	40	0	763363328	45	4306
2026-01-20 12:13:23.28	169.66	22.17	-36.7	-38.5	21.4	0.00e+00	0	40	0	768606208	45	4317
2026-01-20 12:13:24.27	169.69	22.31	-36.5	-38.3	21.5	0.00e+00	0	40	0	773849088	45	4236
2026-01-20 12:13:25.27	169.72	22.46	-36.5	-38.3	21.6	0.00e+00	0	40	0	780140544	44	4450
2026-01-20 12:13:26.26	169.76	22.60	-36.5	-38.2	21.6	0.00e+00	0	40	0	785383424	44	4441
2026-01-20 12:13:27.26	169.79	22.75	-36.3	-38.1	21.7	0.00e+00	0	40	0	790626304	44	4383
2026-01-20 12:13:28.25	169.83	22.89	-36.3	-38.1	21.7	0.00e+00	0	40	0	796917760	44	4364
2026-01-20 12:13:29.25	169.86	23.04	-36.3	-38.0	21.8	0.00e+00	0	40	0	802160640	44	4338
2026-01-20 12:13:30.24	169.90	23.18	-36.3	-38.1	21.8	0.00e+00	0	40	0	807403520	44	4359
2026-01-20 12:13:31.24	169.94	23.33	-36.4	-38.2	21.7	0.00e+00	0	40	0	813694976	44	4396
2026-01-20 12:13:32.23	169.97	23.48	-36.3	-38.1	21.4	0.00e+00	0	40	0	818937856	44	4360
2026-01-20 12:13:33.23	170.01	23.63	-36.4	-38.1	21.7	0.00e+00	0	40	0	824180736	44	4384
2026-01-20 12:13:34.22	170.05	23.78	-36.4	-38.2	21.7	0.00e+00	0	40	0	830472192	44	4424
2026-01-20 12:13:35.22	170.08	23.93	-36.4	-38.2	21.7	0.00e+00	0	40	0	835715072	44	4434
2026-01-20 12:13:36.21	170.12	24.08	-36.5	-38.3	21.6	0.00e+00	0	40	0	840957952	44	4442
2026-01-20 12:13:37.21	170.16	24.24	-36.5	-38.3	21.6	0.00e+00	0	40	0	847249408	44	4450
2026-01-20 12:13:38.21	170.20	24.39	-36.6	-38.4	21.6	0.00e+00	0	40	0	852492288	44	4498
2026-01-20 12:13:39.20	170.24	24.55	-36.6	-38.4	21.6	0.00e+00	0	40	0	857735168	44	4500
2026-01-20 12:13:40.19	170.28	24.70	-36.5	-38.3	21.6	0.00e+00	0	40	0	864026624	44	4464
2026-01-20 12:13:41.19	170.31	24.86	-36.6	-38.4	21.6	0.00e+00	0	40	0	869269504	44	4494
2026-01-20 12:13:42.19	170.35	25.02	-36.4	-38.2	21.7	0.00e+00	0	40	0	874512384	44	4433
2026-01-20 12:13:43.18	170.39	25.18	-36.4	-38.2	21.7	0.00e+00	0	40	0	880803840	44	4415
2026-01-20 12:13:44.18	170.44	25.34	-36.4	-38.1	21.8	0.00e+00	0	40	0	886046720	44	4383
2026-01-20 12:13:45.17	170.48	25.50	-36.3	-38.1	21.8	0.00e+00	0	40	0	891289600	44	4364
2026-01-20 12:13:46.17	170.52	25.66	-36.2	-38.0	21.9	0.00e+00	0	40	0	897581056	44	4317
2026-01-20 12:13:47.17	170.56	25.82	-36.1	-37.9	22.0	0.00e+00	0	40	0	902823936	44	4263
2026-01-20 12:13:48.16	170.60	25.98	-36.0	-37.7	22.1	0.00e+00	0	40	0	908066816	44	4182
2026-01-20 12:13:49.16	170.64	26.15	-35.8	-37.5	22.2	0.00e+00	0	41	0	914358272	43	4314
2026-01-20 12:13:50.15	170.69	26.31	-35.8	-37.6	22.1	0.00e+00	0	40	0	919601152	43	4355
2026-01-20 12:13:51.14	170.73	26.48	-35.8	-37.6	22.2	0.00e+00	0	40	0	925892608	43	4348
2026-01-20 12:13:52.14	170.77	26.65	-35.8	-37.5	22.1	0.00e+00	0	40	0	931135488	43	4335
2026-01-20 12:13:53.13	170.82	26.81	-35.8	-37.5	22.1	0.00e+00	0	40	0	936378368	43	4337
2026-01-20 12:13:54.13	170.86	26.98	-35.9	-37.7	22.0	0.00e+00	0	40	0	941621248	43	4397
2026-01-20 12:13:55.12	170.91	27.15	-36.0	-37.7	22.0	0.00e+00	0	40	0	947912704	43	4427
2026-01-20 12:13:56.12	170.95	27.33	-36.0	-37.8	22.0	0.00e+00	0	40	0	953155584	43	4445
2026-01-20 12:13:57.11	171.00	27.50	-36.0	-37.8	21.9	0.00e+00	0	40	0	958398464	43	4448
2026-01-20 12:13:58.11	171.04	27.67	-36.1	-37.9	21.9	0.00e+00	0	40	0	964689920	43	4496
2026-01-20 12:13:59.10	171.09	27.85	-35.9	-37.7	22.0	0.00e+00	0	40	0	969932800	43	4409
2026-01-20 12:14:00.09	171.14	28.02	-35.9	-37.7	22.0	0.00e+00	0	40	0	976224256	43	4416
2026-01-20 12:14:01.09	171.19	28.20	-36.0	-37.8	21.9	0.00e+00	0	40	0	981467136	43	4468
2026-01-20 12:14:02.08	171.23	28.38	-36.1	-37.8	21.9	0.00e+00	0	41	0	986710016	43	4485
2026-01-20 12:14:03.08	171.28	28.56	-36.0	-37.8	21.9	0.00e+00	0	40	0	991952896	43	4454
2026-01-20 12:14:04.07	171.33	28.74	-35.9	-37.7	22.0	0.00e+00	0	40	0	998244352	43	4413
2026-01-20 12:14:05.07	171.38	28.92	-35.9	-37.6	22.0	0.00e+00	0	41	0	1003487232	43	4390
2026-01-20 12:14:06.06	171.43	29.10	-35.9	-37.6	22.0	0.00e+00	0	40	0	1008730112	43	4390
2026-01-20 12:14:07.06	171.48	29.28	-35.9	-37.7	21.9	0.00e+00	0	40	0	1015021568	43	4397
2026-01-20 12:14:08.05	171.53	29.47	-36.0	-37.7	21.9	0.00e+00	0	41	0	1020264448	43	4431
2026-01-20 12:14:09.04	171.59	29.65	-35.9	-37.7	21.9	0.00e+00	0	40	0	1026555904	43	4425
2026-01-20 12:14:10.04	171.64	29.84	-36.0	-37.8	21.8	0.00e+00	0	40	0	1031798784	43	4465
2026-01-20 12:14:11.03	171.69	30.03	-36.1	-37.9	21.8	0.00e+00	0	40	0	1037041664	43	4503
2026-01-20 12:14:12.03	171.75	30.22	-36.0	-37.8	21.8	0.00e+00	0	40	0	1042284544	43	4472
2026-01-20 12:14:13.02	171.80	30.41	-36.0	-37.8	21.8	0.00e+00	0	40	0	1048576000	43	4465
2026-01-20 12:14:14.02	171.86	30.60	-36.0	-37.8	21.9	0.00e+00	0	40	0	1053818880	43	4464
2026-01-20 12:14:15.01	171.91	30.80	-35.9	-37.7	21.9	0.00e+00	0	41	0	1059061760	43	4399
2026-01-20 12:14:16.01	171.97	30.99	-35.8	-37.5	22.1	0.00e+00	0	40	0	1065353216	43	4327
2026-01-20 12:14:17.00	172.02	31.19	-35.8	-37.5	22.1	0.00e+00	0	41	0	1070596096	43	4319
2026-01-20 12:14:18.00	172.08	31.39	-35.7	-37.5	22.1	0.00e+00	0	40	0	1076887552	43	4301
2026-01-20 12:14:18.99	172.14	31.58	-35.8	-37.5	22.1	0.00e+00	0	40	0	1082130432	43	4331
2026-01-20 12:14:19.99	172.20	31.78	-35.7	-37.4	22.2	0.00e+00	0	40	0	1087373312	43	4276
2026-01-20 12:14:20.98	172.26	31.98	-35.6	-37.4	22.2	0.00e+00	0	40	0	1092616192	43	4270
2026-01-20 12:14:21.97	172.32	32.19	-35.7	-37.4	22.2	0.00e+00	0	40	0	1098907648	43	4280
2026-01-20 12:14:22.97	172.38	32.39	-35.7	-37.4	22.2	0.00e+00	0	41	0	1104150528	43	4281
2026-01-20 12:14:23.97	172.44	32.60	-35.7	-37.5	22.2	0.00e+00	0	40	0	1110441984	43	4295
2026-01-20 12:14:24.96	172.50	32.80	-35.6	-37.4	22.3	0.00e+00	0	40	0	1115684864	43	4259
2026-01-20 12:14:25.96	172.57	33.01	-35.7	-37.4	22.2	0.00e+00	0	40	0	1120927744	43	4291
2026-01-20 12:14:26.95	172.63	33.22	-35.6	-37.3	22.3	0.00e+00	0	41	0	1127219200	43	4221
2026-01-20 12:14:27.95	172.69	33.43	-35.4	-37.1	22.5	0.00e+00	0	41	0	1132462080	42	4370
2026-01-20 12:14:28.94	172.76	33.65	-35.4	-37.1	22.5	0.00e+00	0	40	0	1137704960	42	4368
2026-01-20 12:14:29.94	172.83	33.86	-35.5	-37.3	22.3	0.00e+00	0	40	0	1142947840	42	4463
2026-01-20 12:14:30.93	172.89	34.07	-35.5	-37.2	22.4	0.00e+00	0	40	0	1149239296	42	4431
2026-01-20 12:14:31.93	172.96	34.29	-35.4	-37.1	22.5	0.00e+00	0	40	0	1154482176	42	4367
2026-01-20 12:14:32.92	173.03	34.51	-35.4	-37.1	22.4	0.00e+00	0	40	0	1160773632	42	4387
2026-01-20 12:14:33.92	173.10	34.73	-35.5	-37.2	22.4	0.00e+00	0	40	0	1166016512	42	4416
2026-01-20 12:14:34.91	173.17	34.95	-35.6	-37.3	22.3	0.00e+00	0	40	0	1171259392	42	4480
2026-01-20 12:14:35.91	173.24	35.17	-35.5	-37.3	22.3	0.00e+00	0	40	0	1177550848	42	4459
2026-01-20 12:14:36.90	173.32	35.40	-35.6	-37.3	22.3	0.00e+00	0	40	0	1182793728	42	4481
2026-01-20 12:14:37.90	173.39	35.63	-35.6	-37.3	22.3	0.00e+00	0	40	0	1188036608	42	4466
2026-01-20 12:14:38.89	173.46	35.85	-35.4	-37.2	22.5	0.00e+00	0	40	0	1194328064	42	4392
2026-01-20 12:14:39.89	173.54	36.08	-35.3	-37.1	22.6	0.00e+00	0	40	0	1199570944	42	4342
2026-01-20 12:14:40.88	173.62	36.31	-35.1	-36.8	22.7	0.00e+00	0	40	0	1204813824	42	4219
2026-01-20 12:14:41.88	173.69	36.54	-35.1	-36.9	22.7	0.00e+00	0	40	0	1211105280	42	4245
2026-01-20 12:14:42.87	173.77	36.78	-35.1	-36.8	22.8	0.00e+00	0	40	0	1216348160	42	4215
2026-01-20 12:14:43.87	173.85	37.01	-35.2	-36.9	22.7	0.00e+00	0	40	0	1221591040	42	4258
2026-01-20 12:14:44.86	173.93	37.25	-35.0	-36.7	22.8	0.00e+00	0	40	0	1227882496	42	4186
2026-01-20 12:14:45.86	174.01	37.49	-35.0	-36.7	22.9	0.00e+00	0	40	0	1233125376	42	4156
2026-01-20 12:14:46.85	174.10	37.73	-35.1	-36.8	22.7	0.00e+00	0	40	0	1238368256	42	4241
2026-01-20 12:14:47.85	174.18	37.97	-35.2	-36.9	22.7	0.00e+00	0	40	0	1244659712	42	4266
2026-01-20 12:14:48.84	174.27	38.22	-35.2	-36.9	22.7	0.00e+00	0	40	0	1249902592	42	4290
2026-01-20 12:14:49.84	174.35	38.46	-35.2	-37.0	22.7	0.00e+00	0	40	0	1255145472	42	4293
2026-01-20 12:14:50.83	174.44	38.71	-35.3	-37.1	22.6	0.00e+00	0	40	0	1261436928	42	4341
2026-01-20 12:14:51.82	174.53	38.96	-35.4	-37.2	22.5	0.00e+00	0	40	0	1266679808	42	4399
2026-01-20 12:14:52.82	174.62	39.21	-35.5	-37.2	22.5	0.00e+00	0	40	0	1271922688	42	4408
2026-01-20 12:14:53.82	174.71	39.46	-35.6	-37.3	22.4	0.00e+00	0	40	0	1278214144	42	4461
2026-01-20 12:14:54.81	174.81	39.72	-35.4	-37.1	22.5	0.00e+00	0	40	0	1283457024	42	4367
2026-01-20 12:14:55.80	174.90	39.97	-35.4	-37.1	22.5	0.00e+00	0	40	0	1288699904	42	4380
2026-01-20 12:14:56.80	175.00	40.23	-35.4	-37.1	22.6	0.00e+00	0	40	0	1294991360	42	4344
2026-01-20 12:14:57.79	175.10	40.49	-35.4	-37.1	22.6	0.00e+00	0	40	0	1300234240	42	4364
2026-01-20 12:14:58.79	175.20	40.75	-35.6	-37.4	22.4	0.00e+00	0	40	0	1305477120	42	4495
2026-01-20 12:14:59.78	175.30	41.01	-35.6	-37.4	22.4	0.00e+00	0	40	0	1311768576	42	4503
2026-01-20 12:15:00.78	175.40	41.28	-35.6	-37.3	22.4	0.00e+00	0	40	0	1317011456	42	4469
2026-01-20 12:15:01.77	175.50	41.54	-35.7	-37.4	22.3	0.00e+00	0	40	0	1322254336	42	4534
2026-01-20 12:15:02.77	175.61	41.81	-35.9	-37.6	22.1	0.00e+00	0	40	0	1328545792	42	4637
2026-01-20 12:15:03.76	175.72	42.08	-36.1	-37.8	22.0	0.00e+00	0	40	0	1333788672	42	4744
2026-01-20 12:15:04.76	175.83	42.36	-36.2	-38.0	21.8	0.00e+00	0	40	0	1339031552	42	4819
2026-01-20 12:15:05.75	175.94	42.63	-36.0	-37.7	22.0	0.00e+00	0	40	0	1345323008	43	4426
2026-01-20 12:15:06.75	176.05	42.91	-35.8	-37.6	22.2	0.00e+00	0	40	0	1350565888	43	4342
2026-01-20 12:15:07.75	176.17	43.19	-35.6	-37.3	22.4	0.00e+00	0	40	0	1355808768	43	4205
2026-01-20 12:15:08.74	176.28	43.47	-35.5	-37.2	22.5	0.00e+00	0	40	0	1362100224	42	4419
2026-01-20 12:15:09.74	176.40	43.75	-35.6	-37.3	22.4	0.00e+00	0	40	0	1367343104	42	4474
2026-01-20 12:15:10.73	176.52	44.03	-35.7	-37.4	22.3	0.00e+00	0	40	0	1372585984	42	4544
2026-01-20 12:15:11.73	176.64	44.32	-35.8	-37.6	22.3	0.00e+00	0	40	0	1378877440	42	4599
2026-01-20 12:15:12.72	176.77	44.61	-35.9	-37.7	22.2	0.00e+00	0	40	0	1384120320	42	4661
2026-01-20 12:15:13.72	176.90	44.90	-35.9	-37.6	22.2	0.00e+00	0	40	0	1389363200	42	4642
2026-01-20 12:15:14.71	177.03	45.19	-36.0	-37.8	22.1	0.00e+00	0	40	0	1395654656	42	4734
2026-01-20 12:15:15.71	177.16	45.49	-36.2	-38.0	21.9	0.00e+00	0	40	0	1400897536	43	4552
2026-01-20 12:15:16.71	177.29	45.78	-36.3	-38.1	21.8	0.00e+00	0	40	0	1406140416	43	4606
2026-01-20 12:15:17.70	177.43	46.08	-36.3	-38.0	21.8	0.00e+00	0	40	0	1412431872	43	4587
2026-01-20 12:15:18.69	177.57	46.38	-36.1	-37.8	22.0	0.00e+00	0	40	0	1417674752	43	4480
2026-01-20 12:15:19.69	177.71	46.68	-35.8	-37.5	22.3	0.00e+00	0	40	0	1422917632	43	4337
2026-01-20 12:15:20.68	177.86	46.99	-35.6	-37.3	22.5	0.00e+00	0	40	0	1429209088	43	4234
2026-01-20 12:15:21.68	178.00	47.29	-35.4	-37.1	22.7	0.00e+00	0	40	0	1434451968	42	4362
2026-01-20 12:15:22.67	178.15	47.60	-35.6	-37.3	22.5	0.00e+00	0	40	0	1439694848	42	4460
2026-01-20 12:15:23.67	178.31	47.91	-35.8	-37.5	22.3	0.00e+00	0	40	0	1445986304	42	4596
2026-01-20 12:15:24.66	178.46	48.22	-36.0	-37.7	22.1	0.00e+00	0	40	0	1451229184	42	4675
2026-01-20 12:15:25.65	178.62	48.53	-36.0	-37.7	22.2	0.00e+00	0	40	0	1456472064	42	4694
2026-01-20 12:15:26.65	178.79	48.85	-35.9	-37.6	22.3	0.00e+00	0	41	0	1462763520	42	4621
2026-01-20 12:15:27.64	178.95	49.17	-35.9	-37.6	22.3	0.00e+00	0	40	0	1468006400	42	4632
2026-01-20 12:15:28.64	179.12	49.49	-36.1	-37.8	22.2	0.00e+00	0	40	0	1473249280	42	4720
2026-01-20 12:15:29.63	179.30	49.81	-36.2	-38.0	22.0	0.00e+00	0	40	0	1479540736	43	4557
2026-01-20 12:15:30.63	179.47	50.14	-36.4	-38.2	21.9	0.00e+00	0	40	0	1484783616	43	4656
2026-01-20 12:15:31.62	179.65	50.46	-36.4	-38.1	21.9	0.00e+00	0	40	0	1490026496	43	4639
2026-01-20 12:15:32.62	179.84	50.79	-36.3	-38.1	21.9	0.00e+00	0	40	0	1496317952	43	4612
2026-01-20 12:15:33.61	180.02	51.12	-36.5	-38.2	21.8	0.00e+00	0	40	0	1501560832	43	4698
2026-01-20 12:15:34.61	180.22	51.46	-36.6	-38.4	21.6	0.00e+00	0	40	0	1507852288	43	4769
2026-01-20 12:15:35.60	180.41	51.79	-36.7	-38.4	21.6	0.00e+00	0	40	0	1513095168	43	4804
2026-01-20 12:15:36.60	180.62	52.13	-36.8	-38.6	21.5	0.00e+00	0	40	0	1518338048	44	4631
2026-01-20 12:15:37.59	180.82	52.46	-36.9	-38.6	21.5	0.00e+00	0	40	0	1524629504	44	4647
2026-01-20 12:15:38.59	181.03	52.81	-36.7	-38.5	21.7	0.00e+00	0	40	0	1529872384	44	4559
2026-01-20 12:15:39.58	181.25	53.15	-36.7	-38.5	21.6	0.00e+00	0	40	0	1535115264	44	4566
2026-01-20 12:15:40.58	181.47	53.49	-36.7	-38.4	21.8	0.00e+00	0	40	0	1540358144	44	4520
2026-01-20 12:15:41.57	181.69	53.84	-36.8	-38.6	21.6	0.00e+00	0	40	0	1546649600	44	4617
2026-01-20 12:15:42.57	181.92	54.19	-37.0	-38.7	21.5	0.00e+00	0	40	0	1551892480	44	4705
2026-01-20 12:15:43.56	182.16	54.54	-37.2	-39.0	21.3	0.00e+00	0	40	0	1558183936	45	4552
2026-01-20 12:15:44.56	182.40	54.89	-37.5	-39.4	20.9	0.00e+00	0	40	0	1563426816	45	4772
2026-01-20 12:15:45.55	182.65	55.24	-37.6	-39.5	20.8	0.00e+00	0	40	0	1568669696	45	4823
2026-01-20 12:15:46.55	182.91	55.60	-37.5	-39.3	21.0	0.00e+00	0	40	0	1574961152	45	4725
2026-01-20 12:15:47.54	183.17	55.96	-37.5	-39.3	21.0	0.00e+00	0	40	0	1580204032	45	4714
2026-01-20 12:15:48.54	183.43	56.32	-37.5	-39.3	21.0	0.00e+00	0	40	0	1585446912	45	4734
2026-01-20 12:15:49.53	183.71	56.68	-37.2	-39.0	21.3	0.00e+00	0	40	0	1590689792	45	4550
2026-01-20 12:15:50.53	183.99	57.04	-37.1	-38.9	21.3	0.00e+00	0	40	0	1596981248	45	4507
2026-01-20 12:15:51.53	184.28	57.41	-36.9	-38.7	21.4	0.00e+00	0	40	0	1602224128	45	4415
2026-01-20 12:15:52.52	184.58	57.77	-36.7	-38.5	21.6	0.00e+00	0	40	0	1608515584	45	4316
2026-01-20 12:15:53.52	184.88	58.14	-36.5	-38.2	21.9	0.00e+00	0	40	0	1613758464	45	4168
2026-01-20 12:15:54.51	185.20	58.51	-36.1	-37.8	22.2	0.00e+00	0	40	0	1619001344	44	4237
2026-01-20 12:15:55.51	185.52	58.88	-36.2	-38.0	22.2	0.00e+00	0	40	0	1625292800	44	4293
2026-01-20 12:15:56.50	185.85	59.25	-36.4	-38.1	22.0	0.00e+00	0	40	0	1630535680	44	4371
2026-01-20 12:15:57.50	186.19	59.63	-36.1	-37.8	22.3	0.00e+00	0	40	0	1635778560	44	4205
2026-01-20 12:15:58.49	186.54	60.00	-35.5	-37.2	22.6	0.00e+00	0	41	0	1642070016	43	4180
2026-01-20 12:15:59.49	186.90	60.38	-35.2	-36.9	22.9	0.00e+00	0	40	0	1647312896	42	4274
2026-01-20 12:16:00.48	187.27	60.75	-35.4	-37.1	22.7	0.00e+00	0	40	0	1652555776	42	4345
2026-01-20 12:16:01.48	187.66	61.13	-35.5	-37.2	22.5	0.00e+00	0	40	0	1658847232	42	4441
2026-01-20 12:16:02.47	188.05	61.51	-35.5	-37.2	22.6	0.00e+00	0	40	0	1664090112	42	4405
2026-01-20 12:16:03.47	188.46	61.89	-35.4	-37.1	22.7	0.00e+00	0	40	0	1669332992	42	4344
2026-01-20 12:16:04.46	188.88	62.27	-35.3	-36.9	22.9	0.00e+00	0	40	0	1675624448	42	4280
2026-01-20 12:16:05.46	189.31	62.65	-35.3	-37.0	22.8	0.00e+00	0	40	0	1680867328	42	4338
2026-01-20 12:16:06.45	189.76	63.04	-35.2	-36.9	22.9	0.00e+00	0	40	0	1686110208	42	4264
2026-01-20 12:16:07.45	190.22	63.42	-35.0	-36.7	22.9	0.00e+00	0	40	0	1692401664	42	4193
2026-01-20 12:16:08.44	190.69	63.80	-35.0	-36.6	23.0	0.00e+00	0	40	0	1697644544	41	4389
2026-01-20 12:16:09.44	191.19	64.19	-35.2	-36.9	22.8	0.00e+00	0	40	0	1702887424	41	4525
2026-01-20 12:16:10.43	191.69	64.57	-35.2	-36.9	22.7	0.00e+00	0	40	0	1709178880	41	4515
2026-01-20 12:16:11.43	192.22	64.96	-35.0	-36.7	22.9	0.00e+00	0	40	0	1714421760	41	4416
2026-01-20 12:16:12.43	192.77	65.35	-35.3	-37.0	22.7	0.00e+00	0	41	0	1719664640	41	4572
2026-01-20 12:16:13.42	193.33	65.73	-35.2	-36.9	22.7	0.00e+00	0	40	0	1725956096	41	4527
2026-01-20 12:16:14.42	193.91	66.11	-35.1	-36.7	22.9	0.00e+00	0	40	0	1731198976	41	4438
2026-01-20 12:16:15.41	194.51	66.50	-35.2	-36.9	22.7	0.00e+00	0	40	0	1736441856	41	4544
2026-01-20 12:16:16.41	195.14	66.88	-35.1	-36.8	22.8	0.00e+00	0	40	0	1742733312	41	4488
2026-01-20 12:16:17.40	195.79	67.26	-35.3	-37.0	22.7	0.00e+00	0	40	0	1747976192	41	4573
2026-01-20 12:16:18.39	196.46	67.64	-35.4	-37.1	22.5	0.00e+00	0	40	0	1753219072	41	4631
2026-01-20 12:16:19.39	197.16	68.02	-35.2	-36.9	22.7	0.00e+00	0	40	0	1759510528	41	4544
2026-01-20 12:16:20.39	197.89	68.40	-35.1	-36.8	22.8	0.00e+00	0	40	0	1764753408	41	4456
2026-01-20 12:16:21.38	198.63	68.78	-35.2	-36.9	22.8	0.00e+00	0	40	0	1769996288	41	4514
2026-01-20 12:16:22.37	199.41	69.15	-34.8	-36.5	23.0	0.00e+00	0	40	0	1776287744	41	4334
2026-01-20 12:16:23.37	200.23	69.53	-34.8	-36.5	23.0	0.00e+00	0	41	0	1781530624	41	4338
2026-01-20 12:16:24.37	201.08	69.90	-34.8	-36.5	23.1	0.00e+00	0	40	0	1786773504	41	4309
2026-01-20 12:16:25.36	201.95	70.26	-34.8	-36.5	23.0	0.00e+00	0	40	0	1793064960	41	4312
2026-01-20 12:16:26.36	202.87	70.63	-34.3	-36.0	23.4	0.00e+00	0	40	0	1798307840	40	4321
2026-01-20 12:16:27.35	203.81	70.99	-34.6	-36.3	23.2	0.00e+00	0	40	0	1803550720	40	4449
2026-01-20 12:16:28.34	204.79	71.35	-34.4	-36.1	23.3	0.00e+00	0	40	0	1809842176	40	4363
2026-01-20 12:16:29.34	205.83	71.70	-34.0	-35.7	23.7	0.00e+00	0	40	0	1815085056	40	4164
2026-01-20 12:16:30.33	206.90	72.05	-34.2	-35.9	23.6	0.00e+00	0	40	0	1820327936	39	4494
2026-01-20 12:16:31.33	208.02	72.39	-34.3	-36.0	23.5	0.00e+00	0	40	0	1826619392	39	4553
2026-01-20 12:16:32.32	209.17	72.73	-34.1	-35.7	23.7	0.00e+00	0	40	0	1831862272	39	4437
2026-01-20 12:16:33.32	210.39	73.06	-33.9	-35.6	23.8	0.00e+00	0	40	0	1837105152	39	4360
2026-01-20 12:16:34.32	211.66	73.39	-34.2	-35.9	23.6	0.00e+00	0	40	0	1843396608	39	4500
2026-01-20 12:16:35.31	212.96	73.71	-34.2	-35.9	23.5	0.00e+00	0	40	0	1848639488	39	4507
2026-01-20 12:16:36.31	214.34	74.02	-33.9	-35.5	23.8	0.00e+00	0	40	0	1853882368	39	4340
2026-01-20 12:16:37.30	215.75	74.32	-33.9	-35.5	23.8	0.00e+00	0	40	0	1860173824	39	4336
2026-01-20 12:16:38.30	217.24	74.61	-34.1	-35.8	23.6	0.00e+00	0	40	0	1865416704	39	4462
2026-01-20 12:16:39.29	218.77	74.90	-33.6	-35.3	24.0	0.00e+00	0	40	0	1871708160	39	4198
2026-01-20 12:16:40.29	220.38	75.17	-33.3	-34.9	24.2	0.00e+00	0	40	0	1876951040	38	4265
2026-01-20 12:16:41.28	222.03	75.43	-33.6	-35.2	23.9	0.00e+00	0	40	0	1882193920	38	4436
2026-01-20 12:16:42.27	223.74	75.68	-33.8	-35.5	23.7	0.00e+00	0	40	0	1887436800	38	4574
2026-01-20 12:16:43.27	225.53	75.92	-33.8	-35.5	23.7	0.00e+00	0	40	0	1893728256	38	4575
2026-01-20 12:16:44.27	227.38	76.15	-34.0	-35.6	23.7	0.00e+00	0	40	0	1898971136	38	4649
2026-01-20 12:16:45.26	229.28	76.36	-33.7	-35.4	23.9	0.00e+00	0	40	0	1905262592	38	4499
2026-01-20 12:16:46.26	231.25	76.56	-33.8	-35.5	23.8	0.00e+00	0	40	0	1910505472	38	4552
2026-01-20 12:16:47.25	233.27	76.74	-33.6	-35.2	24.0	0.00e+00	0	40	0	1915748352	38	4435
2026-01-20 12:16:48.25	235.35	76.90	-33.6	-35.2	24.0	0.00e+00	0	40	0	1922039808	38	4433
2026-01-20 12:16:49.24	237.47	77.05	-34.2	-35.9	23.4	0.00e+00	0	40	0	1927282688	38	4786
2026-01-20 12:16:50.24	239.66	77.18	-33.6	-35.3	23.9	0.00e+00	0	40	0	1932525568	38	4445
2026-01-20 12:16:51.23	241.87	77.29	-33.6	-35.3	23.9	0.00e+00	0	40	0	1937768448	38	4452
2026-01-20 12:16:52.23	244.13	77.39	-33.9	-35.6	23.7	0.00e+00	0	40	0	1944059904	38	4622
2026-01-20 12:16:53.22	246.41	77.46	-33.8	-35.5	23.8	0.00e+00	0	40	0	1949302784	38	4566
2026-01-20 12:16:54.22	248.73	77.52	-33.9	-35.5	23.8	0.00e+00	0	40	0	1955594240	38	4587
2026-01-20 12:16:55.21	251.05	77.55	-33.8	-35.4	23.8	0.00e+00	0	40	0	1960837120	38	4545
2026-01-20 12:16:56.21	253.40	77.57	-33.8	-35.4	23.8	0.00e+00	0	40	0	1966080000	38	4538
2026-01-20 12:16:57.20	255.73	77.56	-33.9	-35.6	23.7	0.00e+00	0	40	0	1972371456	38	4603
2026-01-20 12:16:58.20	258.07	77.53	-33.6	-35.3	23.9	0.00e+00	0	41	0	1977614336	38	4445
2026-01-20 12:16:59.19	260.38	77.49	-33.6	-35.3	23.9	0.00e+00	0	40	0	1982857216	38	4463
2026-01-20 12:17:00.18	262.67	77.42	-33.6	-35.2	23.9	0.00e+00	0	40	0	1988100096	38	4435
2026-01-20 12:17:01.18	264.95	77.34	-33.6	-35.3	23.9	0.00e+00	0	40	0	1994391552	38	4472
2026-01-20 12:17:02.17	267.18	77.24	-33.5	-35.2	24.0	0.00e+00	0	40	0	1999634432	38	4402
2026-01-20 12:17:03.17	269.39	77.12	-33.7	-35.4	23.9	0.00e+00	0	40	0	2005925888	38	4495
2026-01-20 12:17:04.16	271.53	76.98	-33.9	-35.6	23.8	0.00e+00	0	40	0	2011168768	38	4621
2026-01-20 12:17:05.16	273.64	76.82	-33.4	-35.1	24.1	0.00e+00	0	40	0	2016411648	38	4363
2026-01-20 12:17:06.16	275.70	76.64	-33.6	-35.3	24.0	0.00e+00	0	40	0	2022703104	38	4453
2026-01-20 12:17:07.15	277.68	76.46	-34.0	-35.7	23.7	0.00e+00	0	40	0	2027945984	38	4658
2026-01-20 12:17:08.14	279.60	76.25	-33.7	-35.3	23.9	0.00e+00	0	40	0	2033188864	38	4486
2026-01-20 12:17:09.14	281.48	76.03	-33.7	-35.3	24.0	0.00e+00	0	40	0	2038431744	38	4488
2026-01-20 12:17:10.13	283.29	75.80	-33.6	-35.3	24.0	0.00e+00	0	40	0	2044723200	38	4448
2026-01-20 12:17:11.13	285.04	75.56	-33.6	-35.2	24.0	0.00e+00	0	40	0	2049966080	38	4426
2026-01-20 12:17:12.12	286.72	75.30	-33.7	-35.4	23.9	0.00e+00	0	40	0	2056257536	38	4509
2026-01-20 12:17:13.12	288.36	75.03	-33.7	-35.3	23.9	0.00e+00	0	40	0	2061500416	38	4493
2026-01-20 12:17:14.11	289.92	74.75	-33.6	-35.2	24.1	0.00e+00	0	40	0	2066743296	38	4415
2026-01-20 12:17:15.11	291.43	74.46	-33.7	-35.3	24.0	0.00e+00	0	40	0	2073034752	38	4482
2026-01-20 12:17:16.10	292.87	74.17	-34.0	-35.7	23.7	0.00e+00	0	40	0	2078277632	38	4660
2026-01-20 12:17:17.10	294.27	73.86	-34.4	-36.0	23.4	0.00e+00	0	40	0	2083520512	39	4587
2026-01-20 12:17:18.09	295.60	73.55	-34.4	-36.1	23.4	0.00e+00	0	40	0	2089811968	39	4625
2026-01-20 12:17:19.09	296.89	73.22	-34.3	-36.0	23.4	0.00e+00	0	40	0	2095054848	39	4565
2026-01-20 12:17:20.08	298.12	72.90	-34.2	-35.9	23.5	0.00e+00	0	40	0	2100297728	39	4534
2026-01-20 12:17:21.08	299.31	72.56	-34.2	-35.8	23.6	0.00e+00	0	41	0	2106589184	39	4482
2026-01-20 12:17:22.07	300.44	72.22	-34.1	-35.8	23.6	0.00e+00	0	40	0	2111832064	39	4482
2026-01-20 12:17:23.07	301.54	71.88	-34.3	-36.0	23.5	0.00e+00	0	40	0	2117074944	39	4578
2026-01-20 12:17:24.06	302.58	71.53	-34.3	-36.0	23.5	0.00e+00	0	40	0	2123366400	39	4583
2026-01-20 12:17:25.06	303.60	71.17	-34.3	-35.9	23.5	0.00e+00	0	40	0	2128609280	39	4531
2026-01-20 12:17:26.05	304.56	70.81	-34.5	-36.2	23.3	0.00e+00	0	40	0	2133852160	39	4700
2026-01-20 12:17:27.05	305.49	70.45	-34.6	-36.4	23.2	0.00e+00	0	40	0	2140143616	40	4497
2026-01-20 12:17:28.04	306.38	70.09	-34.5	-36.2	23.3	0.00e+00	0	40	0	2145386496	40	4433
2026-01-20 12:17:29.04	307.25	69.72	-34.6	-36.3	23.2	0.00e+00	0	40	0	2150629376	40	4490
2026-01-20 12:17:30.03	308.07	69.35	-34.7	-36.4	23.2	0.00e+00	0	40	0	2156920832	40	4505
2026-01-20 12:17:31.02	308.86	68.98	-34.6	-36.3	23.3	0.00e+00	0	40	0	2162163712	40	4465
2026-01-20 12:17:32.02	309.63	68.60	-34.7	-36.4	23.2	0.00e+00	0	40	0	2167406592	40	4519
2026-01-20 12:17:33.01	310.36	68.22	-34.8	-36.5	23.1	0.00e+00	0	40	0	2173698048	40	4574
2026-01-20 12:17:34.01	311.08	67.84	-34.8	-36.5	23.0	0.00e+00	0	40	0	2178940928	40	4580
2026-01-20 12:17:35.00	311.76	67.47	-34.7	-36.4	23.1	0.00e+00	0	40	0	2184183808	40	4537
2026-01-20 12:17:36.00	312.42	67.08	-34.6	-36.3	23.2	0.00e+00	0	40	0	2190475264	40	4461
2026-01-20 12:17:36.99	313.06	66.70	-34.7	-36.4	23.2	0.00e+00	0	40	0	2195718144	40	4512
2026-01-20 12:17:37.99	313.67	66.32	-35.0	-36.7	23.0	0.00e+00	0	40	0	2200961024	40	4684
2026-01-20 12:17:38.98	314.26	65.94	-35.1	-36.8	22.9	0.00e+00	0	40	0	2207252480	40	4748
2026-01-20 12:17:39.98	314.84	65.55	-34.9	-36.7	23.0	0.00e+00	0	40	0	2212495360	40	4660
2026-01-20 12:17:40.98	315.39	65.17	-35.0	-36.7	23.0	0.00e+00	0	40	0	2217738240	40	4657
2026-01-20 12:17:41.97	315.92	64.78	-34.9	-36.6	23.0	0.00e+00	0	40	0	2224029696	40	4647
2026-01-20 12:17:42.96	316.44	64.40	-34.8	-36.5	23.2	0.00e+00	0	40	0	2229272576	40	4561
2026-01-20 12:17:43.96	316.94	64.02	-35.0	-36.7	23.0	0.00e+00	0	40	0	2234515456	40	4652
2026-01-20 12:17:44.95	317.42	63.64	-35.2	-36.9	22.8	0.00e+00	0	40	0	2240806912	40	4772
2026-01-20 12:17:45.95	317.89	63.25	-35.3	-37.1	22.6	0.00e+00	0	40	0	2246049792	41	4626
2026-01-20 12:17:46.95	318.35	62.87	-35.1	-36.8	22.8	0.00e+00	0	40	0	2251292672	41	4490
2026-01-20 12:17:47.94	318.78	62.49	-34.9	-36.6	23.0	0.00e+00	0	40	0	2257584128	41	4349
2026-01-20 12:17:48.94	319.21	62.11	-34.8	-36.5	23.2	0.00e+00	0	40	0	2262827008	41	4311
2026-01-20 12:17:49.93	319.62	61.73	-35.1	-36.8	22.9	0.00e+00	0	41	0	2268069888	41	4450
2026-01-20 12:17:50.93	320.02	61.35	-35.2	-36.9	22.8	0.00e+00	0	40	0	2274361344	41	4503
2026-01-20 12:17:51.92	320.41	60.97	-35.2	-36.9	22.8	0.00e+00	0	40	0	2279604224	41	4545
2026-01-20 12:17:52.92	320.79	60.59	-35.4	-37.1	22.7	0.00e+00	0	40	0	2284847104	41	4601
2026-01-20 12:17:53.91	321.15	60.22	-35.6	-37.3	22.6	0.00e+00	0	40	0	2291138560	41	4715
2026-01-20 12:17:54.91	321.51	59.84	-35.7	-37.4	22.4	0.00e+00	0	40	0	2296381440	41	4790
2026-01-20 12:17:55.90	321.86	59.47	-35.7	-37.4	22.5	0.00e+00	0	40	0	2301624320	42	4510
2026-01-20 12:17:56.90	322.19	59.10	-35.7	-37.5	22.4	0.00e+00	0	40	0	2307915776	42	4548
2026-01-20 12:17:57.89	322.52	58.73	-36.0	-37.8	22.1	0.00e+00	0	40	0	2313158656	42	4731
2026-01-20 12:17:58.89	322.84	58.36	-36.1	-37.9	22.0	0.00e+00	0	40	0	2318401536	43	4515
2026-01-20 12:17:59.88	323.15	57.99	-36.1	-37.8	22.1	0.00e+00	0	40	0	2324692992	43	4474
2026-01-20 12:18:00.87	323.44	57.63	-36.1	-37.8	22.0	0.00e+00	0	40	0	2329935872	43	4483
2026-01-20 12:18:01.86	323.74	57.27	-36.4	-38.1	21.8	0.00e+00	0	40	0	2335178752	43	4630
2026-01-20 12:18:02.86	324.02	56.90	-36.4	-38.1	21.8	0.00e+00	0	40	0	2341470208	43	4640
2026-01-20 12:18:03.85	324.30	56.54	-36.4	-38.1	21.9	0.00e+00	0	40	0	2346713088	43	4636
2026-01-20 12:18:04.85	324.57	56.18	-36.4	-38.1	21.9	0.00e+00	0	40	0	2353004544	43	4636
2026-01-20 12:18:05.84	324.84	55.83	-36.3	-38.0	22.0	0.00e+00	0	40	0	2358247424	43	4595
2026-01-20 12:18:06.84	325.10	55.47	-36.3	-38.0	22.0	0.00e+00	0	40	0	2363490304	43	4569
2026-01-20 12:18:07.83	325.35	55.12	-36.3	-38.0	22.1	0.00e+00	0	40	0	2368733184	43	4559
2026-01-20 12:18:08.82	325.59	54.77	-36.3	-38.0	22.0	0.00e+00	0	40	0	2375024640	43	4563
2026-01-20 12:18:09.82	325.83	54.42	-36.4	-38.1	21.9	0.00e+00	0	40	0	2380267520	43	4637
2026-01-20 12:18:10.82	326.07	54.07	-36.5	-38.2	22.2	0.00e+00	0	41	0	2385510400	43	4684
2026-01-20 12:18:11.81	326.29	53.72	-36.8	-38.5	22.1	0.00e+00	0	40	0	2391801856	44	4575
2026-01-20 12:18:12.81	326.52	53.38	-36.7	-38.4	22.2	0.00e+00	0	40	0	2397044736	44	4517
2026-01-20 12:18:13.80	326.73	53.04	-36.7	-38.4	22.2	0.00e+00	0	41	0	2403336192	44	4515
2026-01-20 12:18:14.80	326.95	52.69	-36.8	-38.5	22.1	0.00e+00	0	40	0	2408579072	44	4554
2026-01-20 12:18:15.79	327.15	52.36	-36.7	-38.4	22.2	0.00e+00	0	40	0	2413821952	44	4517
2026-01-20 12:18:16.78	327.36	52.02	-36.7	-38.4	22.2	0.00e+00	0	40	0	2420113408	44	4512
2026-01-20 12:18:17.78	327.56	51.69	-37.1	-38.8	21.8	0.00e+00	0	40	0	2425356288	44	4754
2026-01-20 12:18:18.78	327.75	51.35	-37.2	-38.9	21.7	0.00e+00	0	40	0	2430599168	45	4542
2026-01-20 12:18:19.77	327.94	51.02	-36.9	-38.7	21.9	0.00e+00	0	40	0	2435842048	45	4404
2026-01-20 12:18:20.77	328.13	50.69	-36.6	-38.3	22.3	0.00e+00	0	40	0	2442133504	45	4202
2026-01-20 12:18:21.76	328.31	50.37	-36.5	-38.1	22.4	0.00e+00	0	40	0	2447376384	44	4384
2026-01-20 12:18:22.76	328.49	50.04	-36.3	-38.0	22.5	0.00e+00	0	40	0	2453667840	44	4315
2026-01-20 12:18:23.75	328.67	49.72	-36.1	-37.8	22.7	0.00e+00	0	40	0	2458910720	44	4223
2026-01-20 12:18:24.75	328.84	49.40	-36.0	-37.7	22.8	0.00e+00	0	40	0	2464153600	44	4175
2026-01-20 12:18:25.74	329.01	49.08	-35.8	-37.4	22.8	0.00e+00	0	40	0	2470445056	43	4277
2026-01-20 12:18:26.74	329.17	48.77	-35.7	-37.3	22.9	0.00e+00	0	40	0	2475687936	43	4236
2026-01-20 12:18:27.73	329.33	48.45	-35.6	-37.2	23.0	0.00e+00	0	40	0	2480930816	43	4189
2026-01-20 12:18:28.73	329.49	48.14	-35.7	-37.3	23.0	0.00e+00	0	40	0	2486173696	43	4216
2026-01-20 12:18:29.72	329.64	47.83	-35.8	-37.4	22.8	0.00e+00	0	40	0	2492465152	43	4274
2026-01-20 12:18:30.71	329.80	47.52	-35.8	-37.5	22.8	0.00e+00	0	40	0	2497708032	43	4308
2026-01-20 12:18:31.71	329.95	47.22	-35.8	-37.5	22.8	0.00e+00	0	40	0	2503999488	43	4303
2026-01-20 12:18:32.70	330.09	46.91	-35.7	-37.4	22.9	0.00e+00	0	40	0	2509242368	43	4268
2026-01-20 12:18:33.70	330.24	46.61	-35.8	-37.4	22.9	0.00e+00	0	40	0	2514485248	43	4287
2026-01-20 12:18:34.69	330.38	46.31	-35.7	-37.4	22.9	0.00e+00	0	40	0	2520776704	43	4256
2026-01-20 12:18:35.69	330.52	46.01	-35.6	-37.3	22.9	0.00e+00	0	40	0	2526019584	43	4208
2026-01-20 12:18:36.68	330.65	45.72	-35.7	-37.3	22.9	0.00e+00	0	40	0	2531262464	43	4234
2026-01-20 12:18:37.68	330.79	45.42	-35.6	-37.3	22.9	0.00e+00	0	40	0	2536505344	43	4222
2026-01-20 12:18:38.67	330.92	45.13	-35.6	-37.3	23.0	0.00e+00	0	40	0	2542796800	43	4210
2026-01-20 12:18:39.66	331.04	44.84	-35.5	-37.2	23.0	0.00e+00	0	40	0	2548039680	43	4169
2026-01-20 12:18:40.66	331.17	44.55	-35.4	-37.1	23.0	0.00e+00	0	40	0	2554331136	42	4373
2026-01-20 12:18:41.65	331.30	44.27	-35.4	-37.1	23.0	0.00e+00	0	40	0	2559574016	42	4354
2026-01-20 12:18:42.65	331.42	43.98	-35.4	-37.0	23.1	0.00e+00	0	40	0	2564816896	42	4331
2026-01-20 12:18:43.64	331.54	43.70	-35.3	-36.9	23.3	0.00e+00	0	40	0	2571108352	42	4274
2026-01-20 12:18:44.64	331.66	43.42	-35.3	-36.9	23.2	0.00e+00	0	40	0	2576351232	42	4284
2026-01-20 12:18:45.63	331.77	43.14	-35.3	-36.9	23.3	0.00e+00	0	40	0	2581594112	42	4266
2026-01-20 12:18:46.63	331.89	42.87	-35.4	-37.0	23.1	0.00e+00	0	40	0	2586836992	42	4332
2026-01-20 12:18:47.63	332.00	42.59	-35.5	-37.1	23.1	0.00e+00	0	40	0	2593128448	42	4373
2026-01-20 12:18:48.62	332.11	42.32	-35.5	-37.2	23.0	0.00e+00	0	40	0	2598371328	42	4415
2026-01-20 12:18:49.61	332.22	42.05	-35.5	-37.1	23.1	0.00e+00	0	40	0	2604662784	42	4384
2026-01-20 12:18:50.61	332.33	41.78	-35.4	-37.1	23.1	0.00e+00	0	40	0	2609905664	42	4345
2026-01-20 12:18:51.60	332.43	41.51	-35.4	-37.0	23.1	0.00e+00	0	40	0	2615148544	42	4336
2026-01-20 12:18:52.60	332.53	41.25	-35.4	-37.1	23.1	0.00e+00	0	40	0	2621440000	42	4347
2026-01-20 12:18:53.59	332.64	40.99	-35.3	-37.0	23.2	0.00e+00	0	40	0	2626682880	42	4296
2026-01-20 12:18:54.59	332.74	40.72	-35.1	-36.7	23.4	0.00e+00	0	40	0	2631925760	42	4176
2026-01-20 12:18:55.59	332.84	40.46	-34.9	-36.6	23.5	0.00e+00	0	40	0	2638217216	41	4345
2026-01-20 12:18:56.58	332.93	40.21	-34.8	-36.4	23.6	0.00e+00	0	40	0	2643460096	41	4269
2026-01-20 12:18:57.57	333.03	39.95	-34.8	-36.4	23.6	0.00e+00	0	40	0	2648702976	41	4291
2026-01-20 12:18:58.57	333.12	39.69	-34.8	-36.4	23.6	0.00e+00	0	40	0	2654994432	41	4287
2026-01-20 12:18:59.57	333.22	39.44	-35.0	-36.6	23.5	0.00e+00	0	40	0	2660237312	41	4359
2026-01-20 12:19:00.56	333.31	39.19	-35.0	-36.6	23.4	0.00e+00	0	40	0	2665480192	41	4390
2026-01-20 12:19:01.56	333.40	38.94	-35.1	-36.7	23.4	0.00e+00	0	40	0	2671771648	41	4424
2026-01-20 12:19:02.55	333.49	38.70	-35.2	-36.9	23.3	0.00e+00	0	40	0	2677014528	41	4496
2026-01-20 12:19:03.55	333.58	38.45	-35.2	-36.9	23.3	0.00e+00	0	40	0	2682257408	41	4503
2026-01-20 12:19:04.54	333.66	38.21	-35.1	-36.7	23.4	0.00e+00	0	40	0	2688548864	41	4431
2026-01-20 12:19:05.54	333.75	37.96	-35.1	-36.7	23.4	0.00e+00	0	40	0	2693791744	41	4430
2026-01-20 12:19:06.53	333.83	37.72	-35.1	-36.8	23.3	0.00e+00	0	40	0	2699034624	41	4459
2026-01-20 12:19:07.53	333.92	37.48	-35.2	-36.8	23.3	0.00e+00	0	40	0	2705326080	41	4475
2026-01-20 12:19:08.52	334.00	37.25	-35.1	-36.7	23.3	0.00e+00	0	40	0	2710568960	41	4440
2026-01-20 12:19:09.52	334.08	37.01	-35.2	-36.8	23.3	0.00e+00	0	40	0	2715811840	41	4452
2026-01-20 12:19:10.51	334.16	36.78	-35.3	-37.0	23.2	0.00e+00	0	40	0	2722103296	41	4561
2026-01-20 12:19:11.51	334.24	36.54	-35.3	-36.9	23.2	0.00e+00	0	40	0	2727346176	41	4524
2026-01-20 12:19:12.50	334.31	36.31	-35.4	-37.0	23.1	0.00e+00	0	40	0	2732589056	41	4576
2026-01-20 12:19:13.50	334.39	36.08	-35.4	-37.0	23.1	0.00e+00	0	40	0	2738880512	41	4594
2026-01-20 12:19:14.49	334.46	35.86	-35.4	-37.0	23.1	0.00e+00	0	40	0	2744123392	41	4583
2026-01-20 12:19:15.48	334.54	35.63	-35.3	-36.9	23.2	0.00e+00	0	40	0	2750414848	41	4544
2026-01-20 12:19:16.48	334.61	35.41	-35.3	-36.9	23.2	0.00e+00	0	40	0	2755657728	41	4538
2026-01-20 12:19:17.48	334.69	35.18	-35.2	-36.9	23.2	0.00e+00	0	40	0	2760900608	41	4520
2026-01-20 12:19:18.47	334.76	34.96	-35.1	-36.8	23.3	0.00e+00	0	40	0	2766143488	41	4461
2026-01-20 12:19:19.47	334.83	34.74	-35.2	-36.8	23.2	0.00e+00	0	40	0	2772434944	41	4493
2026-01-20 12:19:20.46	334.90	34.53	-35.1	-36.8	23.3	0.00e+00	0	40	0	2777677824	41	4442
2026-01-20 12:19:21.46	334.97	34.31	-35.2	-36.9	23.2	0.00e+00	0	40	0	2782920704	41	4504
2026-01-20 12:19:22.45	335.03	34.09	-35.3	-37.0	23.2	0.00e+00	0	40	0	2789212160	41	4555
2026-01-20 12:19:23.45	335.10	33.88	-35.4	-37.1	23.1	0.00e+00	0	40	0	2794455040	41	4602
2026-01-20 12:19:24.44	335.17	33.67	-35.5	-37.2	23.0	0.00e+00	0	40	0	2800746496	41	4665
2026-01-20 12:19:25.44	335.23	33.45	-35.5	-37.2	23.0	0.00e+00	0	40	0	2805989376	41	4681
2026-01-20 12:19:26.43	335.30	33.25	-35.5	-37.2	23.0	0.00e+00	0	40	0	2811232256	41	4674
2026-01-20 12:19:27.43	335.36	33.04	-35.5	-37.2	23.0	0.00e+00	0	40	0	2817523712	41	4687
2026-01-20 12:19:28.43	335.43	32.83	-35.6	-37.3	22.9	0.00e+00	0	40	0	2822766592	41	4708
2026-01-20 12:19:29.42	335.49	32.62	-35.6	-37.3	22.9	0.00e+00	0	40	0	2828009472	41	4722
2026-01-20 12:19:30.42	335.55	32.42	-35.7	-37.4	22.9	0.00e+00	0	40	0	2833252352	42	4500
2026-01-20 12:19:31.41	335.61	32.22	-35.6	-37.3	23.0	0.00e+00	0	40	0	2839543808	42	4449
2026-01-20 12:19:32.41	335.67	32.01	-35.6	-37.2	23.0	0.00e+00	0	40	0	2844786688	42	4432
2026-01-20 12:19:33.41	335.73	31.81	-35.6	-37.3	22.9	0.00e+00	0	40	0	2851078144	42	4445
2026-01-20 12:19:34.40	335.79	31.62	-35.7	-37.4	22.8	0.00e+00	0	40	0	2856321024	42	4497
2026-01-20 12:19:35.39	335.85	31.42	-35.8	-37.4	22.8	0.00e+00	0	40	0	2861563904	42	4525
2026-01-20 12:19:36.39	335.91	31.22	-35.7	-37.4	22.8	0.00e+00	0	40	0	2867855360	42	4520
2026-01-20 12:19:37.38	335.96	31.03	-35.8	-37.5	22.8	0.00e+00	0	40	0	2873098240	42	4550
2026-01-20 12:19:38.38	336.02	30.83	-35.6	-37.3	22.9	0.00e+00	0	40	0	2878341120	42	4485
2026-01-20 12:19:39.37	336.07	30.64	-35.7	-37.4	22.8	0.00e+00	0	40	0	2883584000	42	4510
2026-01-20 12:19:40.37	336.13	30.45	-35.7	-37.5	22.8	0.00e+00	0	40	0	2889875456	42	4549
2026-01-20 12:19:41.36	336.18	30.26	-35.7	-37.4	22.8	0.00e+00	0	40	0	2895118336	42	4518
2026-01-20 12:19:42.36	336.24	30.07	-35.6	-37.3	22.9	0.00e+00	0	40	0	2901409792	42	4483
2026-01-20 12:19:43.35	336.29	29.89	-35.7	-37.4	22.8	0.00e+00	0	40	0	2906652672	42	4516
2026-01-20 12:19:44.35	336.34	29.70	-35.8	-37.5	22.7	0.00e+00	0	40	0	2911895552	42	4575
2026-01-20 12:19:45.34	336.40	29.52	-35.6	-37.3	22.9	0.00e+00	0	40	0	2918187008	42	4479
2026-01-20 12:19:46.34	336.45	29.33	-35.6	-37.3	22.9	0.00e+00	0	40	0	2923429888	42	4462
2026-01-20 12:19:47.33	336.50	29.15	-35.5	-37.2	23.0	0.00e+00	0	40	0	2928672768	42	4404
2026-01-20 12:19:48.33	336.55	28.97	-35.4	-37.0	23.1	0.00e+00	0	40	0	2933915648	42	4334
2026-01-20 12:19:49.32	336.60	28.79	-35.4	-37.0	23.1	0.00e+00	0	41	0	2940207104	42	4322
2026-01-20 12:19:50.32	336.65	28.61	-35.4	-37.1	23.0	0.00e+00	0	40	0	2945449984	42	4356
2026-01-20 12:19:51.31	336.70	28.43	-35.4	-37.1	23.1	0.00e+00	0	40	0	2951741440	42	4355
2026-01-20 12:19:52.31	336.75	28.25	-35.5	-37.2	23.0	0.00e+00	0	40	0	2956984320	42	4392
2026-01-20 12:19:53.30	336.80	28.08	-35.4	-37.1	23.1	0.00e+00	0	40	0	2962227200	42	4348
2026-01-20 12:19:54.30	336.84	27.90	-35.5	-37.1	23.0	0.00e+00	0	40	0	2968518656	42	4388
2026-01-20 12:19:55.29	336.89	27.73	-35.5	-37.2	23.0	0.00e+00	0	40	0	2973761536	42	4396
2026-01-20 12:19:56.29	336.94	27.56	-35.6	-37.2	22.9	0.00e+00	0	40	0	2979004416	42	4438
2026-01-20 12:19:57.28	336.98	27.38	-35.7	-37.3	22.8	0.00e+00	0	41	0	2985295872	42	4491
2026-01-20 12:19:58.28	337.03	27.21	-35.7	-37.3	22.9	0.00e+00	0	40	0	2990538752	42	4474
2026-01-20 12:19:59.28	337.07	27.04	-35.7	-37.4	22.8	0.00e+00	0	40	0	2995781632	42	4510
2026-01-20 12:20:00.27	337.12	26.88	-35.8	-37.5	22.7	0.00e+00	0	40	0	3002073088	42	4570
2026-01-20 12:20:01.27	337.16	26.71	-35.9	-37.6	22.6	0.00e+00	0	40	0	3007315968	42	4618
2026-01-20 12:20:02.26	337.21	26.54	-35.9	-37.6	22.6	0.00e+00	0	40	0	3012558848	42	4619
2026-01-20 12:20:03.26	337.25	26.38	-36.1	-37.8	22.5	0.00e+00	0	40	0	3018850304	42	4714
2026-01-20 12:20:04.25	337.29	26.21	-36.0	-37.8	22.5	0.00e+00	0	40	0	3024093184	42	4708
2026-01-20 12:20:05.25	337.34	26.05	-35.9	-37.6	22.6	0.00e+00	0	40	0	3029336064	42	4638
2026-01-20 12:20:06.25	337.38	25.89	-36.0	-37.7	22.6	0.00e+00	0	40	0	3035627520	42	4660
2026-01-20 12:20:07.24	337.42	25.72	-36.0	-37.7	22.5	0.00e+00	0	40	0	3040870400	42	4692
2026-01-20 12:20:08.24	337.46	25.56	-36.0	-37.7	22.5	0.00e+00	0	40	0	3046113280	42	4698
2026-01-20 12:20:09.23	337.50	25.41	-36.0	-37.7	22.5	0.00e+00	0	41	0	3052404736	42	4679
2026-01-20 12:20:10.23	337.55	25.25	-36.1	-37.8	22.5	0.00e+00	0	40	0	3057647616	42	4716
2026-01-20 12:20:11.22	337.59	25.09	-36.1	-37.7	22.5	0.00e+00	0	40	0	3062890496	42	4703
2026-01-20 12:20:12.22	337.63	24.93	-36.1	-37.8	22.4	0.00e+00	0	40	0	3069181952	42	4731
2026-01-20 12:20:13.21	337.67	24.78	-36.2	-37.8	22.4	0.00e+00	0	40	0	3074424832	43	4493
2026-01-20 12:20:14.21	337.71	24.62	-36.3	-37.9	22.3	0.00e+00	0	40	0	3079667712	43	4544
2026-01-20 12:20:15.20	337.74	24.47	-36.2	-37.9	22.3	0.00e+00	0	40	0	3085959168	43	4518
2026-01-20 12:20:16.20	337.78	24.31	-36.2	-37.9	22.3	0.00e+00	0	40	0	3091202048	43	4540
2026-01-20 12:20:17.19	337.82	24.16	-36.2	-37.9	22.3	0.00e+00	0	40	0	3096444928	43	4521
2026-01-20 12:20:18.19	337.86	24.01	-36.2	-37.9	22.3	0.00e+00	0	40	0	3102736384	43	4524
2026-01-20 12:20:19.18	337.90	23.86	-36.2	-37.9	22.3	0.00e+00	0	40	0	3107979264	43	4534
2026-01-20 12:20:20.18	337.94	23.71	-36.2	-37.9	22.3	0.00e+00	0	41	0	3113222144	43	4543
2026-01-20 12:20:21.17	337.97	23.56	-36.3	-38.0	22.2	0.00e+00	0	41	0	3119513600	43	4577
2026-01-20 12:20:22.17	338.01	23.41	-36.3	-38.1	22.2	0.00e+00	0	40	0	3124756480	43	4613
2026-01-20 12:20:23.16	338.05	23.27	-36.3	-38.0	22.2	0.00e+00	0	40	0	3129999360	43	4583
2026-01-20 12:20:24.15	338.08	23.12	-36.4	-38.1	22.2	0.00e+00	0	41	0	3136290816	43	4616
2026-01-20 12:20:25.15	338.12	22.98	-36.3	-38.0	22.2	0.00e+00	0	40	0	3141533696	43	4581
2026-01-20 12:20:26.15	338.15	22.83	-36.3	-38.0	22.2	0.00e+00	0	41	0	3146776576	43	4592
2026-01-20 12:20:27.14	338.19	22.69	-36.3	-38.1	22.2	0.00e+00	0	41	0	3153068032	43	4610
2026-01-20 12:20:28.14	338.22	22.55	-36.3	-38.1	22.2	0.00e+00	0	40	0	3158310912	43	4599
2026-01-20 12:20:29.13	338.26	22.40	-36.4	-38.2	22.1	0.00e+00	0	40	0	3163553792	43	4668
2026-01-20 12:20:30.13	338.29	22.26	-36.4	-38.1	22.1	0.00e+00	0	40	0	3169845248	43	4631
2026-01-20 12:20:31.12	338.33	22.12	-36.4	-38.1	22.1	0.00e+00	0	40	0	3175088128	43	4651
2026-01-20 12:20:32.11	338.36	21.98	-36.5	-38.2	22.0	0.00e+00	0	40	0	3180331008	43	4668
2026-01-20 12:20:33.11	338.39	21.84	-36.5	-38.3	22.0	0.00e+00	0	40	0	3186622464	43	4717
2026-01-20 12:20:34.10	338.43	21.71	-36.5	-38.2	22.1	0.00e+00	0	40	0	3191865344	43	4681
2026-01-20 12:20:35.10	338.46	21.57	-36.5	-38.3	22.0	0.00e+00	0	40	0	3197108224	43	4720
2026-01-20 12:20:36.09	338.49	21.43	-36.5	-38.3	22.0	0.00e+00	0	40	0	3203399680	43	4715
2026-01-20 12:20:37.09	338.53	21.29	-36.6	-38.3	21.9	0.00e+00	0	40	0	3208642560	43	4752
2026-01-20 12:20:38.08	338.56	21.16	-36.6	-38.3	22.0	0.00e+00	0	40	0	3214934016	43	4759
2026-01-20 12:20:39.08	338.59	21.02	-36.6	-38.3	22.0	0.00e+00	0	40	0	3220176896	43	4752
2026-01-20 12:20:40.07	338.62	20.89	-36.7	-38.4	21.8	0.00e+00	0	40	0	3225419776	43	4809
2026-01-20 12:20:41.07	338.65	20.76	-37.0	-38.8	21.7	0.00e+00	0	40	0	3230662656	44	4710
2026-01-20 12:20:42.06	338.69	20.63	-37.0	-38.8	21.7	0.00e+00	0	40	0	3236954112	44	4719
2026-01-20 12:20:43.06	338.72	20.49	-37.1	-38.9	21.6	0.00e+00	0	40	0	3242196992	44	4768
2026-01-20 12:20:44.05	338.75	20.36	-36.9	-38.7	21.8	0.00e+00	0	41	0	3248488448	44	4675
2026-01-20 12:20:45.05	338.78	20.23	-37.0	-38.7	21.7	0.00e+00	0	40	0	3253731328	44	4695
2026-01-20 12:20:46.05	338.81	20.10	-37.0	-38.7	21.8	0.00e+00	0	40	0	3258974208	44	4685
2026-01-20 12:20:47.04	338.84	19.97	-37.1	-38.9	21.6	0.00e+00	0	40	0	3265265664	44	4761
2026-01-20 12:20:48.03	338.87	19.84	-37.1	-38.9	21.6	0.00e+00	0	40	0	3270508544	44	4768
2026-01-20 12:20:49.03	338.90	19.72	-37.2	-38.9	21.6	0.00e+00	0	40	0	3275751424	45	4521
2026-01-20 12:20:50.02	338.93	19.59	-37.2	-38.9	21.6	0.00e+00	0	40	0	3280994304	45	4514
2026-01-20 12:20:51.02	338.96	19.46	-37.1	-38.9	21.6	0.00e+00	0	40	0	3287285760	45	4518
2026-01-20 12:20:52.01	338.99	19.34	-37.2	-39.0	21.5	0.00e+00	0	41	0	3292528640	45	4549
2026-01-20 12:20:53.01	339.02	19.21	-37.1	-38.9	21.6	0.00e+00	0	40	0	3298820096	45	4516
2026-01-20 12:20:54.00	339.05	19.09	-37.2	-38.9	21.5	0.00e+00	0	41	0	3304062976	45	4545
2026-01-20 12:20:55.00	339.07	18.96	-37.2	-39.0	21.5	0.00e+00	0	40	0	3309305856	45	4557
2026-01-20 12:20:55.99	339.10	18.84	-37.3	-39.0	21.4	0.00e+00	0	40	0	3315597312	45	4591
2026-01-20 12:20:56.99	339.13	18.72	-37.2	-39.0	21.5	0.00e+00	0	40	0	3320840192	45	4575
2026-01-20 12:20:57.98	339.16	18.60	-37.4	-39.1	21.3	0.00e+00	0	40	0	3326083072	45	4637
2026-01-20 12:20:58.98	339.19	18.47	-37.3	-39.1	21.4	0.00e+00	0	40	0	3331325952	45	4622
2026-01-20 12:20:59.97	339.21	18.35	-37.4	-39.1	21.3	0.00e+00	0	40	0	3337617408	45	4632
2026-01-20 12:21:00.96	339.24	18.23	-37.4	-39.1	21.3	0.00e+00	0	40	0	3342860288	45	4638
2026-01-20 12:21:01.96	339.27	18.11	-37.4	-39.1	21.3	0.00e+00	0	40	0	3349151744	45	4633
2026-01-20 12:21:02.96	339.30	17.99	-37.5	-39.2	21.3	0.00e+00	0	40	0	3354394624	45	4696
2026-01-20 12:21:03.95	339.32	17.87	-37.5	-39.2	21.3	0.00e+00	0	40	0	3359637504	45	4668
2026-01-20 12:21:04.94	339.35	17.76	-37.5	-39.2	21.2	0.00e+00	0	40	0	3365928960	45	4688
2026-01-20 12:21:05.94	339.38	17.64	-37.5	-39.3	21.2	0.00e+00	0	40	0	3371171840	45	4711
2026-01-20 12:21:06.93	339.40	17.52	-37.5	-39.2	21.2	0.00e+00	0	40	0	3376414720	45	4701
2026-01-20 12:21:07.93	339.43	17.41	-37.6	-39.4	21.1	0.00e+00	0	40	0	3381657600	45	4767
2026-01-20 12:21:08.92	339.45	17.29	-37.6	-39.4	21.1	0.00e+00	0	40	0	3387949056	45	4763
2026-01-20 12:21:09.92	339.48	17.17	-37.5	-39.3	21.2	0.00e+00	0	40	0	3393191936	45	4728
2026-01-20 12:21:10.91	339.51	17.06	-37.6	-39.3	21.1	0.00e+00	0	40	0	3399483392	45	4743
2026-01-20 12:21:11.91	339.53	16.95	-37.6	-39.3	21.1	0.00e+00	0	40	0	3404726272	45	4748
2026-01-20 12:21:12.90	339.56	16.83	-37.7	-39.5	21.0	0.00e+00	0	40	0	3409969152	45	4825
2026-01-20 12:21:13.89	339.58	16.72	-37.7	-39.4	21.0	0.00e+00	0	40	0	3416260608	46	4543
2026-01-20 12:21:14.89	339.61	16.61	-37.7	-39.4	21.0	0.00e+00	0	40	0	3421503488	46	4543
2026-01-20 12:21:15.88	339.63	16.50	-37.7	-39.5	21.0	0.00e+00	0	40	0	3426746368	46	4571
2026-01-20 12:21:16.88	339.66	16.38	-37.7	-39.5	21.0	0.00e+00	0	40	0	3431989248	46	4565
2026-01-20 12:21:17.87	339.68	16.27	-37.8	-39.6	20.9	0.00e+00	0	40	0	3438280704	46	4614
2026-01-20 12:21:18.87	339.71	16.16	-37.8	-39.6	20.9	0.00e+00	0	40	0	3443523584	46	4600
2026-01-20 12:21:19.87	339.73	16.05	-37.9	-39.7	20.9	0.00e+00	0	40	0	3449815040	46	4655
2026-01-20 12:21:20.86	339.75	15.94	-37.9	-39.6	20.9	0.00e+00	0	41	0	3455057920	46	4645
2026-01-20 12:21:21.86	339.78	15.83	-37.9	-39.7	20.8	0.00e+00	0	40	0	3460300800	46	4682
2026-01-20 12:21:22.85	339.80	15.72	-38.0	-39.8	20.7	0.00e+00	0	40	0	3466592256	46	4724
2026-01-20 12:21:23.84	339.83	15.62	-38.0	-39.8	20.7	0.00e+00	0	40	0	3471835136	46	4726
2026-01-20 12:21:24.84	339.85	15.51	-38.1	-39.9	20.6	0.00e+00	0	40	0	3477078016	46	4774
2026-01-20 12:21:25.83	339.87	15.40	-38.1	-39.9	20.6	0.00e+00	0	40	0	3482320896	46	4806
2026-01-20 12:21:26.82	339.90	15.30	-38.1	-40.0	20.5	0.00e+00	0	40	0	3488612352	47	4558
2026-01-20 12:21:27.82	339.92	15.19	-38.2	-40.0	20.5	0.00e+00	0	40	0	3493855232	47	4591
2026-01-20 12:21:28.81	339.94	15.08	-38.2	-40.1	20.4	0.00e+00	0	41	0	3500146688	47	4603
2026-01-20 12:21:29.81	339.96	14.98	-38.3	-40.2	20.4	0.00e+00	0	40	0	3505389568	47	4658
2026-01-20 12:21:30.80	339.99	14.87	-38.3	-40.1	20.4	0.00e+00	0	40	0	3510632448	47	4651
2026-01-20 12:21:31.80	340.01	14.77	-38.3	-40.1	20.4	0.00e+00	0	40	0	3516923904	47	4650
2026-01-20 12:21:32.79	340.03	14.66	-38.4	-40.3	20.2	0.00e+00	0	40	0	3522166784	47	4739
2026-01-20 12:21:33.79	340.05	14.56	-38.3	-40.2	20.3	0.00e+00	0	40	0	3527409664	47	4704
2026-01-20 12:21:34.78	340.08	14.46	-38.5	-40.4	20.2	0.00e+00	0	40	0	3533701120	47	4782
2026-01-20 12:21:35.78	340.10	14.35	-38.4	-40.3	20.2	0.00e+00	0	40	0	3538944000	47	4751
2026-01-20 12:21:36.77	340.12	14.25	-38.5	-40.4	20.2	0.00e+00	0	40	0	3544186880	47	4776
2026-01-20 12:21:37.77	340.14	14.15	-38.5	-40.4	20.1	0.00e+00	0	40	0	3550478336	47	4801
2026-01-20 12:21:38.76	340.16	14.05	-38.6	-40.5	20.0	0.00e+00	0	40	0	3555721216	47	4838
2026-01-20 12:21:39.76	340.19	13.95	-38.6	-40.5	20.0	0.00e+00	0	40	0	3560964096	47	4847
2026-01-20 12:21:40.75	340.21	13.85	-38.7	-40.6	20.1	0.00e+00	0	40	0	3567255552	48	4636
2026-01-20 12:21:41.75	340.23	13.75	-38.8	-40.7	20.0	0.00e+00	0	41	0	3572498432	48	4686
2026-01-20 12:21:42.75	340.25	13.65	-38.8	-40.7	20.1	0.00e+00	0	40	0	3577741312	48	4663
2026-01-20 12:21:43.74	340.27	13.55	-38.9	-40.8	20.0	0.00e+00	0	40	0	3584032768	48	4720
2026-01-20 12:21:44.74	340.29	13.45	-38.9	-40.7	20.0	0.00e+00	0	40	0	3589275648	48	4705
2026-01-20 12:21:45.73	340.31	13.35	-38.9	-40.8	19.9	0.00e+00	0	40	0	3594518528	48	4756
2026-01-20 12:21:46.73	340.33	13.25	-38.9	-40.9	19.9	0.00e+00	0	40	0	3600809984	48	4774
