passes_logs/2026/01/20/T1/T1__20260120_233633_FENGYUN_3G_rec.log

#Pass ID: 20260120_233633_FENGYUN 3G
#Satellite: FENGYUN 3G
#Configuration: FENGYUN 3G
#almurnet v.1.7.20251203
#Start time: 2026-01-20 23:36:32

#Version: 2.0.20230620
#Station: T1
#Location: 37.570604 lon 55.790049 lat
#TLE: 1 56232U 23055A   26020.19436899  .00056262  00000+0  85928-3 0  9997
#TLE: 2 56232  49.9940  29.1271 0004169  54.2682 305.8673 15.53816929157008

#Time	Az	El	Level	Level2	SNR	BER	BlckErr	Temp	State	Recorded	gain1	gain2
2026-01-20 23:36:32.71	254.80	5.25	-50.7	-69.6	3.8	8.48e-01	0	43	0	0	73	31070
2026-01-20 23:36:33.70	254.64	5.31	-50.7	-69.5	3.8	8.38e-01	0	43	104	0	73	30577
2026-01-20 23:36:34.69	254.47	5.37	-50.7	-69.5	3.8	8.48e-01	0	43	104	0	73	30705
2026-01-20 23:36:35.69	254.30	5.43	-50.7	-69.5	3.8	8.46e-01	0	43	104	0	73	30654
2026-01-20 23:36:36.68	254.14	5.48	-50.7	-69.5	3.8	8.46e-01	0	43	104	0	73	30674
2026-01-20 23:36:37.67	253.97	5.54	-50.7	-69.6	3.8	8.48e-01	0	43	104	0	73	30776
2026-01-20 23:36:38.66	253.80	5.60	-50.7	-69.6	3.8	8.46e-01	0	43	104	0	73	30934
2026-01-20 23:36:39.66	253.63	5.66	-50.7	-69.6	3.8	8.46e-01	0	43	104	0	73	30977
2026-01-20 23:36:40.65	253.46	5.72	-50.7	-69.6	3.8	8.47e-01	0	43	104	0	73	30923
2026-01-20 23:36:41.64	253.29	5.77	-50.7	-69.6	3.8	8.47e-01	0	43	104	0	73	30964
2026-01-20 23:36:42.63	253.12	5.83	-50.7	-69.6	3.8	8.47e-01	0	43	104	0	73	30852
2026-01-20 23:36:43.63	252.94	5.89	-50.7	-69.6	3.8	8.47e-01	0	43	104	0	73	30804
2026-01-20 23:36:44.62	252.77	5.95	-50.7	-69.5	3.8	8.48e-01	0	43	104	0	73	30715
2026-01-20 23:36:45.61	252.59	6.01	-50.7	-69.6	3.8	8.48e-01	0	43	104	0	73	30795
2026-01-20 23:36:46.61	252.42	6.06	-50.7	-69.5	3.8	8.48e-01	0	43	104	0	73	30690
2026-01-20 23:36:47.60	252.24	6.12	-50.7	-69.6	3.8	8.47e-01	0	43	104	0	73	30945
2026-01-20 23:36:48.59	252.06	6.18	-50.7	-69.6	3.8	8.47e-01	0	43	104	0	73	30984
2026-01-20 23:36:49.59	251.88	6.24	-50.7	-69.7	3.8	8.46e-01	0	43	104	0	73	31128
2026-01-20 23:36:50.58	251.70	6.30	-50.7	-69.6	3.8	8.46e-01	0	43	104	0	73	30913
2026-01-20 23:36:51.57	251.52	6.35	-50.7	-69.6	3.8	8.47e-01	0	43	104	0	73	30745
2026-01-20 23:36:52.57	251.34	6.41	-50.7	-69.4	3.8	8.47e-01	0	43	104	0	73	30275
2026-01-20 23:36:53.56	251.15	6.47	-50.7	-69.3	3.8	8.47e-01	0	43	104	0	73	29770
2026-01-20 23:36:54.55	250.97	6.53	-50.7	-69.2	3.8	8.46e-01	0	43	104	0	73	29534
2026-01-20 23:36:55.55	250.78	6.59	-50.7	-69.3	3.8	8.46e-01	0	43	104	0	73	29736
2026-01-20 23:36:56.54	250.60	6.64	-50.7	-69.4	3.8	8.47e-01	0	43	104	0	73	30130
2026-01-20 23:36:57.53	250.41	6.70	-50.7	-69.6	3.8	8.47e-01	0	43	104	0	73	30804
2026-01-20 23:36:58.52	250.22	6.76	-50.7	-69.6	3.8	8.47e-01	0	43	104	0	73	30892
2026-01-20 23:36:59.52	250.03	6.82	-50.8	-69.6	3.8	8.47e-01	0	43	104	0	73	30991
2026-01-20 23:37:00.51	249.84	6.88	-50.7	-69.6	3.8	8.47e-01	0	43	104	0	73	30973
2026-01-20 23:37:01.50	249.65	6.93	-50.8	-69.6	3.8	8.47e-01	0	43	104	0	73	30859
2026-01-20 23:37:02.49	249.45	6.99	-50.8	-69.5	3.8	8.47e-01	0	43	104	0	73	30666
2026-01-20 23:37:03.49	249.26	7.05	-50.8	-69.4	3.8	8.46e-01	0	44	104	0	73	30336
2026-01-20 23:37:04.48	249.06	7.11	-50.8	-69.4	3.8	8.46e-01	0	43	104	0	73	30324
2026-01-20 23:37:05.47	248.87	7.16	-50.8	-69.5	3.8	8.47e-01	0	43	104	0	73	30473
2026-01-20 23:37:06.47	248.67	7.22	-50.8	-69.5	3.8	8.48e-01	0	43	104	0	73	30638
2026-01-20 23:37:07.46	248.47	7.28	-50.8	-69.5	3.8	8.48e-01	0	43	104	0	73	30644
2026-01-20 23:37:08.45	248.27	7.34	-50.8	-69.5	3.8	8.47e-01	0	43	104	0	73	30445
2026-01-20 23:37:09.45	248.07	7.40	-50.8	-69.5	3.8	8.48e-01	0	43	104	0	73	30710
2026-01-20 23:37:10.44	247.87	7.45	-50.8	-69.6	3.8	8.48e-01	0	43	104	0	73	30867
2026-01-20 23:37:11.43	247.67	7.51	-50.8	-69.7	3.8	8.46e-01	0	43	104	0	73	31170
2026-01-20 23:37:12.43	247.46	7.57	-50.8	-69.7	3.8	8.46e-01	0	43	104	0	73	31430
2026-01-20 23:37:13.42	247.26	7.62	-50.8	-69.7	3.8	8.47e-01	0	43	104	0	73	31407
2026-01-20 23:37:14.41	247.05	7.68	-50.8	-69.8	3.8	8.47e-01	0	43	104	0	73	31470
2026-01-20 23:37:15.40	246.84	7.74	-50.8	-69.7	3.8	8.47e-01	0	43	104	0	73	31324
2026-01-20 23:37:16.40	246.63	7.80	-50.8	-69.7	3.8	8.47e-01	0	43	104	0	73	31175
2026-01-20 23:37:17.39	246.42	7.85	-50.8	-69.6	3.8	8.47e-01	0	43	104	0	73	31080
2026-01-20 23:37:18.38	246.21	7.91	-50.9	-69.7	3.8	8.46e-01	0	44	104	0	73	31303
2026-01-20 23:37:19.38	246.00	7.97	-50.9	-69.7	3.8	8.48e-01	0	43	104	0	73	31393
2026-01-20 23:37:20.37	245.79	8.02	-50.8	-69.6	3.8	8.48e-01	0	43	104	0	73	30950
2026-01-20 23:37:21.36	245.57	8.08	-50.9	-69.3	3.8	8.47e-01	0	44	104	0	73	29852
2026-01-20 23:37:22.36	245.36	8.14	-50.9	-69.0	3.8	8.47e-01	0	44	104	0	73	28958
2026-01-20 23:37:23.35	245.14	8.19	-50.9	-69.2	3.8	8.47e-01	0	43	104	0	73	29470
2026-01-20 23:37:24.34	244.92	8.25	-50.9	-69.5	3.8	8.47e-01	0	44	104	0	73	30703
2026-01-20 23:37:25.34	244.70	8.31	-50.9	-69.6	3.8	8.47e-01	0	44	104	0	73	30815
2026-01-20 23:37:26.33	244.48	8.36	-50.9	-69.5	3.8	8.47e-01	0	43	104	0	73	30411
2026-01-20 23:37:27.32	244.26	8.42	-50.9	-69.5	3.8	8.45e-01	0	43	104	0	73	30608
2026-01-20 23:37:28.32	244.04	8.47	-50.9	-69.7	3.8	8.47e-01	0	43	104	0	73	31393
2026-01-20 23:37:29.31	243.82	8.53	-50.9	-69.8	3.8	8.47e-01	0	44	104	0	73	31666
2026-01-20 23:37:30.30	243.59	8.58	-50.9	-69.8	3.8	8.47e-01	0	43	104	0	73	31485
2026-01-20 23:37:31.29	243.37	8.64	-51.0	-69.4	3.8	8.47e-01	0	43	104	0	73	30131
2026-01-20 23:37:32.29	243.14	8.70	-50.9	-67.9	3.8	8.47e-01	0	43	104	0	73	25420
2026-01-20 23:37:33.28	242.91	8.75	-50.8	-65.1	4.5	8.48e-01	0	43	0	0	73	18442
2026-01-20 23:37:34.27	242.68	8.80	-50.6	-61.8	6.6	8.09e-01	0	43	0	0	73	12662
2026-01-20 23:37:35.27	242.45	8.86	-50.0	-58.5	10.0	1.56e-01	0	44	0	0	72	9074
2026-01-20 23:37:36.26	242.22	8.91	-49.4	-56.0	12.7	1.56e-01	0	43	0	0	70	7646
2026-01-20 23:37:37.25	241.98	8.97	-48.7	-54.0	14.8	1.36e-03	0	44	0	0	69	6444
2026-01-20 23:37:38.25	241.75	9.02	-48.1	-52.8	15.9	1.10e-06	0	43	0	0	68	5955
2026-01-20 23:37:39.24	241.51	9.08	-46.7	-50.3	18.1	1.10e-06	0	44	0	0	65	5309
2026-01-20 23:37:40.23	241.28	9.13	-45.0	-47.8	20.9	0.00e+00	0	43	0	0	61	5040
2026-01-20 23:37:41.23	241.04	9.19	-50.8	-63.9	4.7	1.86e-01	0	43	0	0	72	17028
2026-01-20 23:37:42.23	240.80	9.24	-46.4	-50.3	17.8	1.86e-01	0	44	0	0	65	5301
2026-01-20 23:37:43.22	240.56	9.29	-44.3	-47.0	21.5	8.91e-02	0	44	0	0	60	4829
2026-01-20 23:37:44.22	240.31	9.35	-44.1	-46.7	21.8	0.00e+00	0	43	0	0	60	4674
2026-01-20 23:37:45.21	240.07	9.40	-43.8	-46.4	22.1	0.00e+00	0	44	0	0	59	4763
2026-01-20 23:37:46.21	239.82	9.45	-43.6	-46.1	22.3	0.00e+00	0	43	0	0	59	4639
2026-01-20 23:37:47.20	239.58	9.50	-43.1	-45.5	22.8	0.00e+00	0	43	0	0	58	4572
2026-01-20 23:37:48.20	239.33	9.56	-43.1	-45.5	22.9	0.00e+00	0	44	0	0	58	4559
2026-01-20 23:37:49.19	239.08	9.61	-42.9	-45.2	23.2	0.00e+00	0	44	0	0	57	4675
2026-01-20 23:37:50.19	238.83	9.66	-42.9	-45.2	23.2	0.00e+00	0	44	0	0	57	4674
2026-01-20 23:37:51.18	238.58	9.71	-42.9	-45.2	23.2	0.00e+00	0	44	0	0	57	4684
2026-01-20 23:37:52.18	238.33	9.76	-42.9	-45.3	23.1	0.00e+00	0	43	0	0	57	4710
2026-01-20 23:37:53.17	238.08	9.82	-43.3	-45.7	22.8	0.00e+00	0	44	0	0	57	4947
2026-01-20 23:37:54.16	237.83	9.87	-43.2	-45.6	22.9	0.00e+00	0	44	0	0	57	4887
2026-01-20 23:37:55.16	237.57	9.92	-43.5	-45.9	22.6	0.00e+00	0	44	0	0	57	5090
2026-01-20 23:37:56.15	237.31	9.97	-43.5	-45.9	22.6	0.00e+00	0	43	0	0	57	5084
2026-01-20 23:37:57.15	237.06	10.02	-43.6	-46.1	22.4	0.00e+00	0	43	0	0	57	5207
2026-01-20 23:37:58.14	236.80	10.07	-43.7	-46.2	22.4	0.00e+00	0	44	0	0	58	4944
2026-01-20 23:37:59.14	236.54	10.12	-43.7	-46.2	22.4	0.00e+00	0	44	0	0	58	4934
2026-01-20 23:38:00.13	236.28	10.17	-43.5	-45.9	22.6	0.00e+00	0	44	0	0	58	4788
2026-01-20 23:38:01.13	236.01	10.22	-43.4	-45.9	22.7	0.00e+00	0	43	0	0	58	4768
2026-01-20 23:38:02.12	235.75	10.26	-43.4	-45.9	22.7	0.00e+00	0	44	0	0	58	4769
2026-01-20 23:38:03.12	235.48	10.31	-43.4	-45.9	22.8	0.00e+00	0	44	0	0	58	4767
2026-01-20 23:38:04.11	235.22	10.36	-43.2	-45.5	23.0	0.00e+00	0	44	0	0	58	4595
2026-01-20 23:38:05.11	234.95	10.41	-43.3	-45.7	22.8	0.00e+00	0	43	0	0	58	4701
2026-01-20 23:38:06.10	234.68	10.46	-43.3	-45.6	22.9	0.00e+00	0	44	0	0	58	4641
2026-01-20 23:38:07.10	234.41	10.50	-43.1	-45.4	23.1	0.00e+00	0	44	0	0	58	4537
2026-01-20 23:38:08.09	234.14	10.55	-43.2	-45.5	23.0	0.00e+00	0	43	0	0	58	4589
2026-01-20 23:38:09.09	233.87	10.60	-43.3	-45.6	23.0	0.00e+00	0	43	0	0	58	4651
2026-01-20 23:38:10.08	233.60	10.64	-43.3	-45.7	22.9	0.00e+00	0	44	0	0	58	4666
2026-01-20 23:38:11.08	233.32	10.69	-43.3	-45.7	22.9	0.00e+00	0	43	0	0	58	4671
2026-01-20 23:38:12.07	233.05	10.73	-43.1	-45.5	23.1	0.00e+00	0	43	0	0	58	4551
2026-01-20 23:38:13.07	232.77	10.78	-43.2	-45.5	23.1	0.00e+00	0	44	0	0	58	4594
2026-01-20 23:38:14.06	232.49	10.82	-43.1	-45.4	23.1	0.00e+00	0	43	0	0	58	4536
2026-01-20 23:38:15.06	232.21	10.87	-43.0	-45.3	23.3	0.00e+00	0	43	0	0	58	4481
2026-01-20 23:38:16.05	231.93	10.91	-42.7	-45.0	23.5	0.00e+00	0	44	0	0	57	4584
2026-01-20 23:38:17.05	231.65	10.95	-42.9	-45.3	23.3	0.00e+00	0	44	0	0	57	4709
2026-01-20 23:38:18.05	231.37	11.00	-42.9	-45.2	23.4	0.00e+00	0	44	0	0	57	4677
2026-01-20 23:38:19.04	231.08	11.04	-42.9	-45.2	23.4	0.00e+00	0	44	0	0	57	4678
2026-01-20 23:38:20.03	230.80	11.08	-42.9	-45.1	23.5	0.00e+00	0	44	0	0	57	4648
2026-01-20 23:38:21.03	230.51	11.12	-42.7	-45.0	23.6	0.00e+00	0	44	0	0	57	4562
2026-01-20 23:38:22.02	230.23	11.16	-42.5	-44.7	23.8	0.00e+00	0	44	0	0	57	4435
2026-01-20 23:38:23.02	229.94	11.20	-42.5	-44.8	23.8	0.00e+00	0	43	0	0	57	4449
2026-01-20 23:38:24.01	229.65	11.24	-42.5	-44.7	23.8	0.00e+00	0	44	0	0	57	4435
2026-01-20 23:38:25.01	229.36	11.28	-42.4	-44.6	23.9	0.00e+00	0	44	0	0	56	4642
2026-01-20 23:38:26.00	229.07	11.32	-42.4	-44.7	23.9	0.00e+00	0	43	0	0	56	4652
2026-01-20 23:38:27.00	228.78	11.36	-42.2	-44.4	24.1	0.00e+00	0	44	0	0	56	4536
2026-01-20 23:38:27.99	228.49	11.40	-42.2	-44.4	24.1	0.00e+00	0	43	0	0	56	4536
2026-01-20 23:38:28.99	228.19	11.44	-42.1	-44.3	24.2	0.00e+00	0	44	0	0	56	4456
2026-01-20 23:38:29.98	227.90	11.48	-42.2	-44.4	24.2	0.00e+00	0	44	0	0	56	4502
2026-01-20 23:38:30.98	227.60	11.51	-42.2	-44.4	24.1	0.00e+00	0	44	0	0	56	4540
2026-01-20 23:38:31.97	227.30	11.55	-42.3	-44.5	24.1	0.00e+00	0	43	0	0	56	4565
2026-01-20 23:38:32.97	227.00	11.58	-42.4	-44.6	24.0	0.00e+00	0	44	0	0	56	4631
2026-01-20 23:38:33.96	226.71	11.62	-42.4	-44.6	23.9	0.00e+00	0	43	0	0	56	4651
2026-01-20 23:38:34.96	226.40	11.66	-42.4	-44.6	24.0	0.00e+00	0	44	0	0	56	4621
2026-01-20 23:38:35.95	226.11	11.69	-42.5	-44.7	23.9	0.00e+00	0	43	0	0	56	4687
2026-01-20 23:38:36.95	225.80	11.72	-42.6	-44.8	23.8	0.00e+00	0	43	0	0	56	4731
2026-01-20 23:38:37.94	225.50	11.76	-42.6	-44.9	23.8	0.00e+00	0	44	0	0	56	4775
2026-01-20 23:38:38.94	225.20	11.79	-42.7	-44.9	23.8	0.00e+00	0	43	0	0	56	4775
2026-01-20 23:38:39.93	224.89	11.82	-42.7	-44.9	23.7	0.00e+00	0	44	0	0	56	4811
2026-01-20 23:38:40.92	224.59	11.85	-42.9	-45.2	23.5	0.00e+00	0	43	0	0	56	4961
2026-01-20 23:38:41.92	224.28	11.88	-43.0	-45.3	23.5	0.00e+00	0	44	0	0	56	5005
2026-01-20 23:38:42.91	223.98	11.91	-42.8	-45.0	23.7	0.00e+00	0	44	0	0	56	4855
2026-01-20 23:38:43.91	223.67	11.94	-42.9	-45.2	23.5	0.00e+00	0	44	0	0	56	4961
2026-01-20 23:38:44.90	223.36	11.97	-42.9	-45.1	23.6	0.00e+00	0	44	0	0	56	4916
2026-01-20 23:38:45.90	223.05	12.00	-42.7	-45.0	23.6	0.00e+00	0	43	0	0	56	4826
2026-01-20 23:38:46.90	222.74	12.03	-42.8	-45.0	23.7	0.00e+00	0	43	0	0	56	4861
2026-01-20 23:38:47.89	222.43	12.06	-42.7	-45.0	23.7	0.00e+00	0	44	0	0	56	4821
2026-01-20 23:38:48.89	222.11	12.08	-42.6	-44.9	23.9	0.00e+00	0	44	0	0	56	4773
2026-01-20 23:38:49.88	221.80	12.11	-42.6	-44.8	23.9	0.00e+00	0	44	0	0	56	4734
2026-01-20 23:38:50.88	221.49	12.14	-42.6	-44.8	23.9	0.00e+00	0	44	0	0	56	4750
2026-01-20 23:38:51.87	221.17	12.16	-42.6	-44.8	23.9	0.00e+00	0	43	0	0	56	4758
2026-01-20 23:38:52.87	220.86	12.19	-42.7	-44.9	23.9	0.00e+00	0	44	0	0	56	4783
2026-01-20 23:38:53.86	220.54	12.21	-42.7	-44.9	23.9	0.00e+00	0	43	0	0	56	4793
2026-01-20 23:38:54.86	220.23	12.23	-42.5	-44.7	24.0	0.00e+00	0	44	0	0	56	4673
2026-01-20 23:38:55.86	219.91	12.26	-42.6	-44.8	23.9	0.00e+00	0	44	0	0	56	4742
2026-01-20 23:38:56.85	219.59	12.28	-42.8	-45.0	23.8	0.00e+00	0	44	0	0	56	4843
2026-01-20 23:38:57.85	219.27	12.30	-42.8	-45.1	23.7	0.00e+00	0	44	0	0	56	4889
2026-01-20 23:38:58.84	218.95	12.32	-42.9	-45.2	23.7	0.00e+00	0	44	0	0	56	4958
2026-01-20 23:38:59.84	218.63	12.34	-43.0	-45.3	23.6	0.00e+00	0	44	0	0	56	5008
2026-01-20 23:39:00.83	218.31	12.36	-43.0	-45.3	23.6	0.00e+00	0	44	0	0	56	4991
2026-01-20 23:39:01.82	218.00	12.38	-43.1	-45.4	23.5	0.00e+00	0	44	0	0	56	5047
2026-01-20 23:39:02.82	217.67	12.39	-42.9	-45.2	23.6	0.00e+00	0	44	0	0	56	4969
2026-01-20 23:39:03.81	217.35	12.41	-43.0	-45.3	23.6	0.00e+00	0	43	0	0	56	5010
2026-01-20 23:39:04.81	217.03	12.43	-43.0	-45.3	23.6	0.00e+00	0	44	0	0	56	5000
2026-01-20 23:39:05.80	216.71	12.44	-42.8	-45.1	23.8	0.00e+00	0	44	0	0	56	4894
2026-01-20 23:39:06.80	216.38	12.46	-42.8	-45.0	23.8	0.00e+00	0	44	0	0	56	4839
2026-01-20 23:39:07.79	216.06	12.47	-42.6	-44.9	23.9	0.00e+00	0	44	0	0	56	4760
2026-01-20 23:39:08.79	215.74	12.49	-42.6	-44.9	24.0	0.00e+00	0	44	0	0	56	4760
2026-01-20 23:39:09.78	215.42	12.50	-42.5	-44.7	24.1	0.00e+00	0	44	0	0	56	4685
2026-01-20 23:39:10.77	215.09	12.51	-42.7	-44.9	24.0	0.00e+00	0	44	0	0	56	4780
2026-01-20 23:39:11.77	214.77	12.52	-42.6	-44.8	24.0	0.00e+00	0	43	0	0	56	4707
2026-01-20 23:39:12.76	214.44	12.53	-42.3	-44.5	24.2	0.00e+00	0	44	0	0	56	4587
2026-01-20 23:39:13.76	214.12	12.54	-42.2	-44.3	24.4	0.00e+00	0	44	0	0	56	4470
2026-01-20 23:39:14.75	213.79	12.55	-41.7	-43.8	24.6	0.00e+00	0	44	0	0	55	4483
2026-01-20 23:39:15.75	213.46	12.56	-41.8	-44.0	24.6	0.00e+00	0	44	0	0	55	4546
2026-01-20 23:39:16.74	213.14	12.57	-41.9	-44.0	24.5	0.00e+00	0	43	0	0	55	4577
2026-01-20 23:39:17.74	212.81	12.58	-41.7	-43.9	24.6	0.00e+00	0	44	0	0	55	4504
2026-01-20 23:39:18.73	212.49	12.58	-41.9	-44.0	24.6	0.00e+00	0	43	0	0	55	4580
2026-01-20 23:39:19.72	212.16	12.59	-42.1	-44.3	24.3	0.00e+00	0	44	0	0	55	4733
2026-01-20 23:39:20.72	211.83	12.60	-42.4	-44.6	24.1	0.00e+00	0	43	0	0	55	4900
2026-01-20 23:39:21.71	211.51	12.60	-42.4	-44.6	24.0	0.00e+00	0	44	0	0	55	4903
2026-01-20 23:39:22.71	211.18	12.60	-42.5	-44.7	24.0	0.00e+00	0	44	0	0	55	4940
2026-01-20 23:39:23.70	210.85	12.61	-42.5	-44.7	24.0	0.00e+00	0	44	0	0	55	4980
2026-01-20 23:39:24.70	210.52	12.61	-42.6	-44.7	24.0	0.00e+00	0	44	0	0	55	4982
2026-01-20 23:39:25.70	210.19	12.61	-42.6	-44.8	23.9	0.00e+00	0	44	0	0	55	5019
2026-01-20 23:39:26.69	209.87	12.61	-42.5	-44.7	24.0	0.00e+00	0	44	0	0	55	4972
2026-01-20 23:39:27.68	209.54	12.61	-42.2	-44.3	24.3	0.00e+00	0	43	0	0	55	4737
2026-01-20 23:39:28.68	209.21	12.61	-42.3	-44.5	24.2	0.00e+00	0	43	0	0	55	4823
2026-01-20 23:39:29.67	208.89	12.61	-42.4	-44.6	24.1	0.00e+00	0	44	0	0	55	4910
2026-01-20 23:39:30.67	208.56	12.61	-42.4	-44.6	24.1	0.00e+00	0	44	0	0	55	4889
2026-01-20 23:39:31.66	208.23	12.60	-42.3	-44.5	24.2	0.00e+00	0	44	0	0	55	4857
2026-01-20 23:39:32.66	207.90	12.60	-42.3	-44.5	24.2	0.00e+00	0	44	0	0	55	4815
2026-01-20 23:39:33.65	207.58	12.60	-42.1	-44.3	24.4	0.00e+00	0	43	0	0	55	4729
2026-01-20 23:39:34.65	207.25	12.59	-42.3	-44.5	24.2	0.00e+00	0	44	0	0	55	4845
2026-01-20 23:39:35.65	206.92	12.59	-42.4	-44.6	24.2	0.00e+00	0	44	0	0	55	4879
2026-01-20 23:39:36.64	206.59	12.58	-42.4	-44.6	24.1	0.00e+00	0	44	0	0	55	4878
2026-01-20 23:39:37.64	206.27	12.57	-42.7	-44.9	23.9	0.00e+00	0	44	0	0	55	5074
2026-01-20 23:39:38.63	205.94	12.56	-42.9	-45.1	23.8	0.00e+00	0	44	0	0	56	4911
2026-01-20 23:39:39.62	205.62	12.56	-43.0	-45.3	23.7	0.00e+00	0	44	0	0	56	4987
2026-01-20 23:39:40.62	205.29	12.55	-43.0	-45.3	23.7	0.00e+00	0	44	0	0	56	4998
2026-01-20 23:39:41.61	204.96	12.54	-42.8	-45.1	23.9	0.00e+00	0	44	0	0	56	4874
2026-01-20 23:39:42.61	204.64	12.53	-42.5	-44.7	24.1	0.00e+00	0	44	0	0	56	4679
2026-01-20 23:39:43.60	204.31	12.51	-42.4	-44.6	24.2	0.00e+00	0	44	0	0	56	4640
2026-01-20 23:39:44.60	203.99	12.50	-42.4	-44.6	24.3	0.00e+00	0	44	0	0	56	4623
2026-01-20 23:39:45.59	203.66	12.49	-42.2	-44.3	24.5	0.00e+00	0	44	0	0	56	4482
2026-01-20 23:39:46.59	203.34	12.48	-42.1	-44.3	24.5	0.00e+00	0	43	0	0	56	4481
2026-01-20 23:39:47.59	203.01	12.46	-42.2	-44.4	24.5	0.00e+00	0	44	0	0	56	4527
2026-01-20 23:39:48.58	202.69	12.45	-42.3	-44.5	24.3	0.00e+00	0	44	0	0	56	4588
2026-01-20 23:39:49.57	202.37	12.43	-42.4	-44.5	24.3	0.00e+00	0	44	0	0	56	4595
2026-01-20 23:39:50.57	202.05	12.41	-42.5	-44.7	24.2	0.00e+00	0	43	0	0	56	4702
2026-01-20 23:39:51.56	201.73	12.40	-42.6	-44.8	24.1	0.00e+00	0	43	0	0	56	4735
2026-01-20 23:39:52.56	201.40	12.38	-42.6	-44.8	24.1	0.00e+00	0	44	0	0	56	4741
2026-01-20 23:39:53.55	201.09	12.36	-42.6	-44.8	24.1	0.00e+00	0	44	0	0	56	4756
2026-01-20 23:39:54.55	200.76	12.34	-42.4	-44.6	24.3	0.00e+00	0	44	0	0	56	4618
2026-01-20 23:39:55.54	200.45	12.32	-42.3	-44.5	24.3	0.00e+00	0	44	0	0	56	4581
2026-01-20 23:39:56.54	200.12	12.30	-42.3	-44.5	24.4	0.00e+00	0	44	0	0	56	4546
2026-01-20 23:39:57.53	199.81	12.28	-42.3	-44.5	24.3	0.00e+00	0	44	0	0	56	4564
2026-01-20 23:39:58.53	199.49	12.26	-42.5	-44.7	24.2	0.00e+00	0	44	0	0	56	4681
2026-01-20 23:39:59.52	199.17	12.24	-42.8	-45.1	23.9	0.00e+00	0	44	0	0	56	4871
2026-01-20 23:40:00.52	198.85	12.21	-42.9	-45.1	23.9	0.00e+00	0	44	0	0	56	4913
2026-01-20 23:40:01.51	198.54	12.19	-43.1	-45.4	23.7	0.00e+00	0	44	0	0	56	5053
2026-01-20 23:40:02.51	198.22	12.16	-43.1	-45.5	23.6	0.00e+00	0	44	0	0	56	5103
2026-01-20 23:40:03.50	197.91	12.14	-43.2	-45.5	23.6	0.00e+00	0	44	0	0	56	5143
2026-01-20 23:40:04.50	197.59	12.11	-43.3	-45.7	23.5	0.00e+00	0	44	0	0	57	4927
2026-01-20 23:40:05.49	197.28	12.09	-43.0	-45.3	23.8	0.00e+00	0	44	0	0	57	4718
2026-01-20 23:40:06.49	196.97	12.06	-42.7	-44.9	24.1	0.00e+00	0	44	0	0	57	4542
2026-01-20 23:40:07.48	196.66	12.03	-42.6	-44.9	24.1	0.00e+00	0	43	0	0	57	4508
2026-01-20 23:40:08.48	196.35	12.01	-42.7	-45.0	24.1	0.00e+00	0	44	0	0	57	4549
2026-01-20 23:40:09.47	196.04	11.98	-42.7	-44.9	24.1	0.00e+00	0	43	0	0	57	4530
2026-01-20 23:40:10.47	195.73	11.95	-42.9	-45.1	23.9	0.00e+00	0	44	0	0	57	4641
2026-01-20 23:40:11.46	195.42	11.92	-43.2	-45.5	23.6	0.00e+00	0	44	0	0	57	4867
2026-01-20 23:40:12.46	195.11	11.89	-43.4	-45.8	23.5	0.00e+00	0	44	0	0	57	4993
2026-01-20 23:40:13.45	194.80	11.86	-43.6	-46.0	23.2	0.00e+00	0	44	0	0	57	5113
2026-01-20 23:40:14.44	194.50	11.83	-43.5	-45.9	23.3	0.00e+00	0	44	0	0	57	5055
2026-01-20 23:40:15.44	194.19	11.79	-43.4	-45.8	23.4	0.00e+00	0	44	0	0	57	4986
2026-01-20 23:40:16.43	193.89	11.76	-43.0	-45.3	23.8	0.00e+00	0	44	0	0	57	4718
2026-01-20 23:40:17.43	193.59	11.73	-42.8	-45.0	24.0	0.00e+00	0	44	0	0	57	4587
2026-01-20 23:40:18.42	193.28	11.69	-42.7	-45.0	24.1	0.00e+00	0	44	0	0	57	4563
2026-01-20 23:40:19.41	192.98	11.66	-42.8	-45.1	24.0	0.00e+00	0	44	0	0	57	4613
2026-01-20 23:40:20.41	192.68	11.62	-43.1	-45.4	23.8	0.00e+00	0	44	0	0	57	4775
2026-01-20 23:40:21.40	192.38	11.59	-43.4	-45.7	23.5	0.00e+00	0	44	0	0	57	4961
2026-01-20 23:40:22.40	192.08	11.55	-43.8	-46.2	23.1	0.00e+00	0	44	0	0	58	4937
2026-01-20 23:40:23.40	191.78	11.52	-43.8	-46.3	23.0	0.00e+00	0	44	0	0	58	4990
2026-01-20 23:40:24.39	191.49	11.48	-43.7	-46.1	23.1	0.00e+00	0	43	0	0	58	4905
2026-01-20 23:40:25.38	191.20	11.44	-43.4	-45.8	23.4	0.00e+00	0	44	0	0	58	4723
2026-01-20 23:40:26.38	190.90	11.40	-43.2	-45.6	23.6	0.00e+00	0	44	0	0	58	4608
2026-01-20 23:40:27.37	190.61	11.37	-43.2	-45.5	23.7	0.00e+00	0	44	0	0	58	4576
2026-01-20 23:40:28.37	190.31	11.33	-42.6	-44.9	24.1	0.00e+00	0	44	0	0	57	4507
2026-01-20 23:40:29.36	190.02	11.29	-42.4	-44.7	24.3	0.00e+00	0	44	0	0	56	4665
2026-01-20 23:40:30.36	189.73	11.25	-42.8	-45.1	24.0	0.00e+00	0	44	0	0	56	4872
2026-01-20 23:40:31.35	189.44	11.21	-43.0	-45.3	23.8	0.00e+00	0	44	0	0	56	5036
2026-01-20 23:40:32.35	189.15	11.17	-43.3	-45.6	23.6	0.00e+00	0	44	0	0	57	4920
2026-01-20 23:40:33.34	188.87	11.13	-43.5	-45.9	23.4	0.00e+00	0	44	0	0	57	5051
2026-01-20 23:40:34.34	188.58	11.08	-43.8	-46.2	23.1	0.00e+00	0	44	0	0	58	4937
2026-01-20 23:40:35.33	188.29	11.04	-44.0	-46.5	22.9	0.00e+00	0	44	0	0	58	5103
2026-01-20 23:40:36.33	188.01	11.00	-43.8	-46.2	23.1	0.00e+00	0	44	0	0	58	4961
2026-01-20 23:40:37.32	187.73	10.96	-43.7	-46.1	23.2	0.00e+00	0	44	0	0	58	4874
2026-01-20 23:40:38.32	187.44	10.91	-43.3	-45.7	23.5	0.00e+00	0	44	0	0	58	4665
2026-01-20 23:40:39.31	187.16	10.87	-43.2	-45.6	23.6	0.00e+00	0	43	0	0	58	4601
2026-01-20 23:40:40.31	186.88	10.83	-43.1	-45.5	23.7	0.00e+00	0	44	0	0	58	4552
2026-01-20 23:40:41.30	186.61	10.78	-42.9	-45.2	23.9	0.00e+00	0	44	0	0	57	4670
2026-01-20 23:40:42.29	186.33	10.74	-43.0	-45.3	23.8	0.00e+00	0	44	0	0	57	4716
2026-01-20 23:40:43.29	186.05	10.69	-43.1	-45.4	23.7	0.00e+00	0	43	0	0	57	4762
2026-01-20 23:40:44.29	185.77	10.65	-43.2	-45.5	23.6	0.00e+00	0	44	0	0	57	4860
2026-01-20 23:40:45.28	185.50	10.60	-43.6	-46.0	23.3	0.00e+00	0	44	0	0	57	5151
2026-01-20 23:40:46.27	185.23	10.55	-43.9	-46.4	22.9	0.00e+00	0	44	0	0	58	5048
2026-01-20 23:40:47.27	184.96	10.51	-44.2	-46.7	22.6	0.00e+00	0	44	0	0	59	4977
2026-01-20 23:40:48.26	184.69	10.46	-44.3	-46.9	21.5	0.00e+00	0	43	0	0	59	5053
2026-01-20 23:40:49.26	184.42	10.41	-44.2	-46.8	22.6	0.00e+00	0	44	0	0	59	5004
2026-01-20 23:40:50.25	184.15	10.37	-44.2	-46.7	22.7	0.00e+00	0	43	0	0	59	4934
2026-01-20 23:40:51.25	183.88	10.32	-44.2	-46.7	22.6	0.00e+00	0	44	0	0	59	4982
2026-01-20 23:40:52.24	183.62	10.27	-44.2	-46.7	22.6	0.00e+00	0	44	0	0	59	4960
2026-01-20 23:40:53.24	183.35	10.22	-44.2	-46.7	22.7	0.00e+00	0	44	0	0	59	4948
2026-01-20 23:40:54.23	183.09	10.17	-43.9	-46.4	22.9	0.00e+00	0	43	0	0	59	4772
2026-01-20 23:40:55.22	182.83	10.12	-43.8	-46.2	23.0	4.50e-06	0	44	0	0	59	4698
2026-01-20 23:40:56.22	182.57	10.07	-43.8	-46.2	23.0	4.50e-06	0	44	0	0	59	4682
2026-01-20 23:40:57.22	182.30	10.02	-43.7	-46.1	23.2	0.00e+00	0	43	0	0	59	4604
2026-01-20 23:40:58.21	182.05	9.97	-43.8	-46.3	23.1	0.00e+00	0	44	0	0	59	4714
2026-01-20 23:40:59.21	181.79	9.92	-44.0	-46.5	22.9	0.00e+00	0	43	0	0	59	4835
2026-01-20 23:41:00.20	181.53	9.87	-44.3	-46.7	22.6	0.00e+00	0	44	0	0	59	4982
2026-01-20 23:41:01.20	181.28	9.82	-44.4	-46.9	22.4	0.00e+00	0	44	0	0	59	5090
2026-01-20 23:41:02.19	181.02	9.77	-44.4	-47.0	22.3	0.00e+00	0	43	0	0	59	5134
2026-01-20 23:41:03.19	180.77	9.72	-44.3	-46.9	22.5	0.00e+00	0	44	0	0	59	5057
2026-01-20 23:41:04.19	180.52	9.66	-44.3	-46.9	22.4	0.00e+00	0	43	0	0	59	5067
2026-01-20 23:41:05.18	180.27	9.61	-44.1	-46.6	22.7	0.00e+00	0	44	0	0	59	4904
2026-01-20 23:41:06.18	180.02	9.56	-43.7	-46.3	23.0	0.00e+00	0	44	0	0	59	4712
2026-01-20 23:41:07.17	179.77	9.51	-43.7	-46.3	23.0	0.00e+00	0	44	0	0	59	4727
2026-01-20 23:41:08.17	179.52	9.45	-43.6	-46.2	23.1	0.00e+00	0	44	0	0	59	4670
2026-01-20 23:41:09.16	179.28	9.40	-43.8	-46.4	22.9	0.00e+00	0	44	0	0	59	4795
2026-01-20 23:41:10.16	179.03	9.35	-43.7	-46.2	23.0	0.00e+00	0	44	0	0	59	4705
2026-01-20 23:41:11.15	178.79	9.30	-43.9	-46.6	22.7	0.00e+00	0	43	0	0	59	4907
2026-01-20 23:41:12.15	178.55	9.24	-44.2	-47.0	22.4	0.00e+00	0	44	0	0	59	5105
2026-01-20 23:41:13.14	178.31	9.19	-44.6	-47.4	22.0	3.40e-06	0	44	0	0	59	5347
2026-01-20 23:41:14.13	178.07	9.13	-44.7	-47.5	21.8	0.00e+00	0	44	0	0	60	5158
2026-01-20 23:41:15.13	177.83	9.08	-44.6	-47.4	22.0	0.00e+00	0	44	0	0	60	5083
2026-01-20 23:41:16.12	177.59	9.03	-44.5	-47.1	22.2	0.00e+00	0	43	0	0	60	4915
2026-01-20 23:41:17.12	177.36	8.97	-50.3	-64.7	4.8	0.00e+00	0	44	104	0	71	19638
2026-01-20 23:41:18.11	177.12	8.92	-52.0	-71.1	3.8	0.00e+00	0	44	104	0	74	34718
2026-01-20 23:41:19.10	176.89	8.86	-52.0	-71.2	3.8	7.60e-01	0	44	104	0	74	35005
2026-01-20 23:41:20.10	176.66	8.81	-52.2	-71.3	3.8	8.47e-01	0	44	104	0	74	35534
2026-01-20 23:41:21.09	176.43	8.75	-52.3	-71.3	3.8	8.47e-01	0	44	104	0	75	33651
2026-01-20 23:41:22.08	176.20	8.70	-52.5	-71.3	3.8	8.47e-01	0	44	104	0	75	33500
2026-01-20 23:41:23.07	175.97	8.64	-52.5	-71.4	3.8	8.47e-01	0	44	104	0	75	33839
2026-01-20 23:41:24.07	175.74	8.59	-52.4	-71.4	3.8	8.47e-01	0	44	104	0	75	33965
2026-01-20 23:41:25.06	175.52	8.53	-52.6	-71.4	3.8	8.47e-01	0	43	104	0	75	34016
2026-01-20 23:41:26.05	175.29	8.47	-52.5	-71.4	3.8	8.47e-01	0	44	104	0	75	34049
2026-01-20 23:41:27.05	175.07	8.42	-52.6	-71.5	3.8	8.46e-01	0	44	104	0	75	34171
2026-01-20 23:41:28.04	174.85	8.36	-52.7	-71.5	3.8	8.46e-01	0	44	104	0	76	32298
2026-01-20 23:41:29.03	174.63	8.31	-52.7	-71.5	3.8	8.47e-01	0	44	104	0	76	32344
2026-01-20 23:41:30.03	174.41	8.25	-52.7	-71.5	3.8	8.47e-01	0	44	104	0	76	32451
2026-01-20 23:41:31.02	174.19	8.19	-52.7	-71.6	3.8	8.47e-01	0	44	104	0	76	32561
2026-01-20 23:41:32.01	173.97	8.14	-52.7	-71.6	3.8	8.47e-01	0	44	104	0	76	32565
2026-01-20 23:41:33.01	173.75	8.08	-52.5	-71.5	3.8	8.46e-01	0	44	104	0	76	32465
2026-01-20 23:41:34.00	173.54	8.02	-52.8	-71.5	3.8	8.46e-01	0	44	104	0	76	32479
2026-01-20 23:41:34.99	173.32	7.97	-52.6	-71.5	3.8	8.48e-01	0	44	104	0	76	32430
2026-01-20 23:41:35.98	173.11	7.91	-52.7	-71.5	3.8	8.47e-01	0	44	104	0	76	32459
2026-01-20 23:41:36.98	172.90	7.85	-52.6	-71.5	3.8	8.47e-01	0	44	104	0	76	32500
2026-01-20 23:41:37.97	172.69	7.80	-52.7	-71.5	3.8	8.47e-01	0	44	104	0	76	32535
2026-01-20 23:41:38.96	172.48	7.74	-52.8	-71.5	3.8	8.47e-01	0	44	104	0	76	32421
2026-01-20 23:41:39.96	172.27	7.68	-52.7	-71.5	3.8	8.47e-01	0	44	104	0	76	32464
2026-01-20 23:41:40.95	172.06	7.62	-52.8	-71.5	3.8	8.45e-01	0	44	104	0	76	32498
2026-01-20 23:41:41.94	171.86	7.57	-52.7	-71.5	3.8	8.46e-01	0	44	104	0	76	32542
2026-01-20 23:41:42.94	171.65	7.51	-52.6	-71.5	3.8	8.46e-01	0	44	104	0	76	32448
2026-01-20 23:41:43.93	171.45	7.45	-52.6	-71.5	3.8	8.47e-01	0	44	104	0	76	32529
2026-01-20 23:41:44.92	171.24	7.39	-52.5	-71.5	3.8	8.48e-01	0	44	104	0	76	32433
2026-01-20 23:41:45.91	171.04	7.34	-52.5	-71.4	3.8	8.47e-01	0	44	104	0	76	32172
2026-01-20 23:41:46.91	170.84	7.28	-52.5	-71.5	3.8	8.47e-01	0	44	104	0	76	32210
2026-01-20 23:41:47.90	170.64	7.22	-52.5	-71.5	3.8	8.48e-01	0	44	104	0	76	32267
2026-01-20 23:41:48.89	170.44	7.16	-52.5	-71.5	3.8	8.47e-01	0	44	104	0	76	32300
2026-01-20 23:41:49.89	170.25	7.11	-52.5	-71.5	3.8	8.47e-01	0	44	104	0	76	32215
2026-01-20 23:41:50.88	170.05	7.05	-52.5	-71.5	3.8	8.47e-01	0	44	104	0	76	32198
2026-01-20 23:41:51.87	169.86	6.99	-52.5	-71.5	3.8	8.47e-01	0	44	104	0	76	32252
2026-01-20 23:41:52.87	169.66	6.93	-52.5	-71.5	3.8	8.47e-01	0	43	104	0	76	32240
2026-01-20 23:41:53.86	169.47	6.87	-52.5	-71.5	3.8	8.47e-01	0	43	104	0	76	32299
2026-01-20 23:41:54.86	169.27	6.82	-52.5	-71.5	3.8	8.47e-01	0	44	104	0	76	32218
2026-01-20 23:41:55.85	169.08	6.76	-52.5	-71.4	3.8	8.47e-01	0	44	104	0	76	32172
2026-01-20 23:41:56.84	168.90	6.70	-52.5	-71.5	3.8	8.46e-01	0	44	104	0	76	32227
2026-01-20 23:41:57.83	168.71	6.64	-52.5	-71.5	3.8	8.48e-01	0	44	104	0	76	32211
2026-01-20 23:41:58.83	168.52	6.58	-52.5	-71.5	3.8	8.48e-01	0	44	104	0	76	32206
2026-01-20 23:41:59.82	168.33	6.52	-52.5	-71.5	3.8	8.47e-01	0	44	104	0	76	32229
2026-01-20 23:42:00.81	168.15	6.47	-52.5	-71.5	3.8	8.47e-01	0	44	104	0	76	32246
2026-01-20 23:42:01.81	167.96	6.41	-52.5	-71.4	3.8	8.47e-01	0	44	104	0	76	32146
2026-01-20 23:42:02.80	167.78	6.35	-52.5	-71.5	3.8	8.47e-01	0	44	104	0	76	32220
2026-01-20 23:42:03.79	167.60	6.29	-52.5	-71.5	3.8	8.47e-01	0	44	104	0	76	32269
2026-01-20 23:42:04.79	167.41	6.23	-52.5	-71.5	3.8	8.47e-01	0	44	104	0	76	32226
2026-01-20 23:42:05.78	167.23	6.18	-52.5	-71.5	3.8	8.46e-01	0	44	104	0	76	32239
2026-01-20 23:42:06.77	167.05	6.12	-52.5	-71.5	3.8	8.47e-01	0	44	104	0	76	32187
2026-01-20 23:42:07.77	166.88	6.06	-52.5	-71.5	3.8	8.48e-01	0	44	104	0	76	32205
2026-01-20 23:42:08.76	166.70	6.00	-52.5	-71.5	3.8	8.48e-01	0	44	104	0	76	32279
2026-01-20 23:42:09.75	166.52	5.94	-52.5	-71.5	3.8	8.46e-01	0	44	104	0	76	32237
2026-01-20 23:42:10.75	166.35	5.88	-52.5	-71.5	3.8	8.46e-01	0	44	104	0	76	32293
2026-01-20 23:42:11.74	166.17	5.83	-52.5	-71.5	3.8	8.46e-01	0	44	104	0	76	32255
2026-01-20 23:42:12.73	166.00	5.77	-52.5	-71.5	3.8	8.47e-01	0	44	104	0	76	32328
2026-01-20 23:42:13.73	165.83	5.71	-52.5	-71.5	3.8	8.46e-01	0	44	104	0	76	32334
2026-01-20 23:42:14.72	165.65	5.65	-52.5	-71.4	3.8	8.46e-01	0	44	104	0	76	32176
2026-01-20 23:42:15.71	165.48	5.59	-52.5	-71.5	3.8	8.47e-01	0	44	104	0	76	32315
2026-01-20 23:42:16.71	165.31	5.54	-52.5	-71.5	3.8	8.48e-01	0	44	104	0	76	32278
2026-01-20 23:42:17.70	165.15	5.48	-52.5	-71.4	3.8	8.48e-01	0	44	104	0	76	32169
2026-01-20 23:42:18.69	164.98	5.42	-52.5	-71.5	3.8	8.46e-01	0	44	104	0	76	32298
2026-01-20 23:42:19.68	164.81	5.36	-52.5	-71.5	3.8	8.47e-01	0	44	104	0	76	32203
2026-01-20 23:42:20.68	164.64	5.30	-52.5	-71.5	3.8	8.47e-01	0	44	104	0	76	32340
2026-01-20 23:42:21.67	164.48	5.25	-52.5	-71.5	3.8	8.47e-01	0	44	104	0	76	32208
2026-01-20 23:42:22.66	164.32	5.19	-52.5	-71.5	3.8	8.47e-01	0	44	104	0	76	32258
2026-01-20 23:42:23.65	164.15	5.13	-52.5	-71.5	3.8	8.47e-01	0	44	104	0	76	32231
2026-01-20 23:42:24.65	163.99	5.07	-52.5	-71.5	3.8	8.48e-01	0	44	104	0	76	32210
2026-01-20 23:42:25.64	163.83	5.01	-52.5	-71.5	3.8	8.46e-01	0	44	104	0	76	32329
2026-01-20 23:42:26.63	163.67	4.96	-52.5	-71.5	3.8	8.46e-01	0	44	104	0	76	32189
2026-01-20 23:42:27.63	163.51	4.90	-52.5	-71.5	3.8	8.48e-01	0	44	104	0	76	32214
2026-01-20 23:42:28.62	163.35	4.84	-52.5	-71.5	3.8	8.46e-01	0	44	104	0	76	32282
2026-01-20 23:42:29.61	163.19	4.78	-52.5	-71.4	3.8	8.47e-01	0	44	104	0	76	32090
2026-01-20 23:42:30.61	163.04	4.73	-52.5	-71.5	3.8	8.47e-01	0	44	104	0	76	32310
2026-01-20 23:42:31.60	162.88	4.67	-52.5	-71.5	3.8	8.46e-01	0	44	104	0	76	32267

#Closed at: 2026-01-20 23:42:32
#Recorded file [0 MB]: D:/Data/31040_260121_023632.dat