passes_logs/2026/01/20/T1/T1__20260120_081747_KHAYYAM_rec.log

#Pass ID: 20260120_081747_KHAYYAM
#Satellite: KHAYYAM
#Configuration: KHAYYAM_480M
#almurnet v.1.7.20251203
#Start time: 2026-01-20 08:17:48

#Version: 2.0.20230620
#Station: T1
#Location: 37.570604 lon 55.790049 lat
#TLE: 1 53370U 22096A   26019.68235035  .00007249  00000+0  29653-3 0  9996
#TLE: 2 53370  97.3562 286.6082 0001738 107.8095 252.3333 15.24629188191955

#Time	Az	El	Level	Level2	SNR	BER	BlckErr	Temp	State	Recorded	gain1	gain2
2026-01-20 08:17:48.91	180.90	5.14	-51.9	-57.0	3.5	0.00e+00	0	42	0	0	75	25682
2026-01-20 08:17:49.90	180.95	5.22	-51.5	-56.3	3.7	0.00e+00	0	42	104	0	73	26630
2026-01-20 08:17:50.90	181.00	5.30	-51.5	-56.2	3.7	0.00e+00	0	42	104	0	73	26579
2026-01-20 08:17:51.90	181.04	5.39	-51.5	-56.2	3.7	0.00e+00	0	42	104	0	73	26447
2026-01-20 08:17:52.90	181.09	5.47	-51.5	-56.3	3.7	0.00e+00	0	42	104	0	73	26675
2026-01-20 08:17:53.90	181.14	5.55	-51.5	-56.3	3.7	0.00e+00	0	42	104	0	73	26648
2026-01-20 08:17:54.89	181.19	5.63	-51.5	-56.3	3.7	0.00e+00	0	42	104	0	73	26624
2026-01-20 08:17:55.89	181.24	5.71	-51.5	-56.2	3.7	0.00e+00	0	43	104	0	73	26569
2026-01-20 08:17:56.89	181.29	5.79	-51.4	-56.2	3.7	0.00e+00	0	43	104	0	73	26414
2026-01-20 08:17:57.89	181.34	5.88	-51.5	-56.3	3.7	0.00e+00	0	43	104	0	73	26590
2026-01-20 08:17:58.89	181.40	5.96	-51.0	-55.9	3.7	0.00e+00	0	43	104	0	73	25455
2026-01-20 08:17:59.89	181.45	6.04	-51.5	-56.3	3.7	0.00e+00	0	43	104	0	73	26773
2026-01-20 08:18:00.86	181.50	6.13	-51.5	-56.3	3.7	0.00e+00	0	43	104	0	73	26727
2026-01-20 08:18:01.86	181.55	6.21	-51.5	-56.3	3.7	0.00e+00	0	43	104	0	73	26801
2026-01-20 08:18:02.85	181.60	6.29	-51.5	-56.3	3.7	0.00e+00	0	43	104	0	73	26607
2026-01-20 08:18:03.85	181.66	6.38	-51.5	-56.3	3.7	0.00e+00	0	43	104	0	73	26805
2026-01-20 08:18:04.85	181.71	6.47	-51.5	-56.3	3.7	0.00e+00	0	43	104	0	73	26596
2026-01-20 08:18:05.85	181.76	6.55	-51.4	-56.2	3.7	0.00e+00	0	43	104	0	73	26300
2026-01-20 08:18:06.84	181.82	6.64	-51.4	-56.2	3.7	0.00e+00	0	44	104	0	73	26376
2026-01-20 08:18:07.84	181.87	6.72	-51.4	-56.2	3.7	0.00e+00	0	43	104	0	73	26387
2026-01-20 08:18:08.84	181.93	6.81	-51.4	-56.1	3.7	0.00e+00	0	44	104	0	73	26236
2026-01-20 08:18:09.83	181.98	6.90	-51.4	-56.1	3.7	0.00e+00	0	44	104	0	73	26217
2026-01-20 08:18:10.83	182.04	6.98	-51.5	-56.2	3.7	0.00e+00	0	44	104	0	73	26548
2026-01-20 08:18:11.83	182.09	7.07	-51.5	-56.2	3.7	0.00e+00	0	44	104	0	73	26556
2026-01-20 08:18:12.82	182.15	7.16	-51.4	-56.2	3.7	0.00e+00	0	44	104	0	73	26430
2026-01-20 08:18:13.82	182.21	7.25	-51.4	-56.2	3.7	0.00e+00	0	44	104	0	73	26482
2026-01-20 08:18:14.82	182.26	7.34	-51.5	-56.2	3.7	0.00e+00	0	44	104	0	73	26569
2026-01-20 08:18:15.82	182.32	7.43	-51.5	-56.2	3.7	0.00e+00	0	44	104	0	73	26546
2026-01-20 08:18:16.82	182.38	7.52	-51.5	-56.3	3.7	0.00e+00	0	44	104	0	73	26592
2026-01-20 08:18:17.81	182.44	7.61	-51.5	-56.3	3.7	0.00e+00	0	44	104	0	73	26585
2026-01-20 08:18:18.82	182.50	7.70	-51.5	-56.3	3.7	0.00e+00	0	44	104	0	73	26674
2026-01-20 08:18:19.81	182.56	7.79	-51.5	-56.2	3.7	0.00e+00	0	44	104	0	73	26504
2026-01-20 08:18:20.81	182.62	7.88	-51.4	-56.2	3.7	0.00e+00	0	44	104	0	73	26434
2026-01-20 08:18:21.81	182.68	7.97	-51.4	-56.2	3.7	0.00e+00	0	44	104	0	73	26375
2026-01-20 08:18:22.81	182.74	8.07	-51.4	-56.2	3.7	0.00e+00	0	44	104	0	73	26493
2026-01-20 08:18:23.81	182.80	8.16	-51.5	-56.2	3.7	0.00e+00	0	44	104	0	73	26491
2026-01-20 08:18:24.80	182.86	8.25	-51.4	-56.2	3.7	0.00e+00	0	44	104	0	73	26350
2026-01-20 08:18:25.80	182.92	8.35	-51.4	-56.2	3.7	0.00e+00	0	44	104	0	73	26438
2026-01-20 08:18:26.80	182.99	8.44	-51.4	-56.2	3.7	0.00e+00	0	44	104	0	73	26511
2026-01-20 08:18:27.80	183.05	8.54	-51.5	-56.3	3.7	0.00e+00	0	45	104	0	73	26633
2026-01-20 08:18:28.79	183.11	8.63	-51.4	-56.2	3.7	0.00e+00	0	45	104	0	73	26455
2026-01-20 08:18:29.79	183.18	8.73	-51.4	-56.2	3.7	0.00e+00	0	45	104	0	73	26473
2026-01-20 08:18:30.79	183.24	8.82	-51.5	-56.2	3.7	0.00e+00	0	45	104	0	73	26522
2026-01-20 08:18:31.78	183.31	8.92	-51.4	-56.2	3.7	0.00e+00	0	45	104	0	73	26480
2026-01-20 08:18:32.78	183.37	9.02	-51.4	-56.2	3.7	0.00e+00	0	45	104	0	73	26551
2026-01-20 08:18:33.78	183.44	9.11	-51.5	-56.2	3.7	0.00e+00	0	45	104	0	73	26520
2026-01-20 08:18:34.77	183.50	9.21	-52.1	-56.8	3.7	0.00e+00	0	45	104	0	74	26855
2026-01-20 08:18:35.77	183.57	9.31	-51.5	-56.3	3.7	0.00e+00	0	45	104	0	74	25136
2026-01-20 08:18:36.77	183.64	9.41	-51.6	-56.4	3.7	0.00e+00	0	45	104	0	74	25485
2026-01-20 08:18:37.77	183.71	9.51	-52.1	-56.8	3.7	0.00e+00	0	45	104	0	74	26708
2026-01-20 08:18:38.76	183.78	9.61	-52.0	-56.7	3.7	0.00e+00	0	45	104	0	75	24973
2026-01-20 08:18:39.76	183.85	9.71	-51.9	-56.7	3.7	0.00e+00	0	45	104	0	75	25029
2026-01-20 08:18:40.76	183.92	9.81	-52.0	-56.8	3.7	0.00e+00	0	45	104	0	75	25310
2026-01-20 08:18:41.76	183.99	9.91	-52.0	-56.8	3.7	0.00e+00	0	45	104	0	75	25225
2026-01-20 08:18:42.75	184.06	10.02	-52.1	-57.0	3.7	0.00e+00	0	45	104	0	75	25728
2026-01-20 08:18:43.75	184.13	10.12	-52.0	-56.8	3.7	0.00e+00	0	45	104	0	75	25326
2026-01-20 08:18:44.74	184.20	10.22	-51.7	-56.7	3.7	0.00e+00	0	45	104	0	75	25091
2026-01-20 08:18:45.74	184.27	10.32	-51.7	-56.7	3.7	0.00e+00	0	45	104	0	75	24941
2026-01-20 08:18:46.74	184.35	10.43	-52.1	-57.0	3.7	0.00e+00	0	45	104	0	75	25717
2026-01-20 08:18:47.74	184.42	10.53	-51.8	-56.9	3.7	0.00e+00	0	45	104	0	75	25474
2026-01-20 08:18:48.74	184.50	10.64	-51.8	-56.8	3.7	0.00e+00	0	46	104	0	75	25207
2026-01-20 08:18:49.73	184.57	10.75	-51.6	-56.7	3.7	0.00e+00	0	45	104	0	75	25065
2026-01-20 08:18:50.73	184.65	10.85	-51.9	-56.9	3.7	0.00e+00	0	45	104	0	75	25639
2026-01-20 08:18:51.73	184.73	10.96	-51.9	-57.0	3.7	0.00e+00	0	45	104	0	75	25720
2026-01-20 08:18:52.73	184.80	11.07	-51.8	-56.8	3.7	0.00e+00	0	45	104	0	75	25343
2026-01-20 08:18:53.72	184.88	11.18	-51.8	-56.9	3.7	0.00e+00	0	45	104	0	75	25480
2026-01-20 08:18:54.72	184.96	11.29	-52.0	-57.0	3.7	0.00e+00	0	45	104	0	75	25842
2026-01-20 08:18:55.72	185.04	11.40	-52.3	-57.2	3.7	0.00e+00	0	46	104	0	75	26431
2026-01-20 08:18:56.72	185.12	11.51	-51.9	-56.9	3.7	0.00e+00	0	46	104	0	75	25506
2026-01-20 08:18:57.72	185.20	11.62	-52.2	-57.1	3.7	0.00e+00	0	45	104	0	75	26086
2026-01-20 08:18:58.71	185.28	11.73	-52.3	-57.2	3.7	0.00e+00	0	46	104	0	75	26405
2026-01-20 08:18:59.71	185.36	11.84	-52.4	-57.2	3.7	0.00e+00	0	46	104	0	75	26453
2026-01-20 08:19:00.70	185.45	11.95	-52.2	-57.1	3.7	0.00e+00	0	46	104	0	75	26226
2026-01-20 08:19:01.71	185.53	12.07	-52.3	-57.1	3.7	0.00e+00	0	46	104	0	75	26266
2026-01-20 08:19:02.71	185.62	12.18	-52.2	-57.1	3.7	0.00e+00	0	46	104	0	75	26097
2026-01-20 08:19:03.71	185.70	12.30	-52.0	-56.9	3.7	0.00e+00	0	46	104	0	75	25387
2026-01-20 08:19:04.71	185.79	12.41	-52.3	-57.2	3.7	0.00e+00	0	46	104	0	75	26283
2026-01-20 08:19:05.71	185.88	12.53	-51.9	-56.8	3.7	0.00e+00	0	46	104	0	75	25382
2026-01-20 08:19:06.71	185.96	12.65	-52.1	-56.8	3.7	0.00e+00	0	46	104	0	75	25347
2026-01-20 08:19:07.71	186.05	12.77	-52.0	-56.8	3.7	0.00e+00	0	46	104	0	75	25110
2026-01-20 08:19:08.71	186.14	12.88	-52.0	-56.8	3.7	0.00e+00	0	46	104	0	75	25188
2026-01-20 08:19:09.71	186.23	13.00	-51.9	-56.8	3.7	0.00e+00	0	46	104	0	75	25124
2026-01-20 08:19:10.71	186.32	13.12	-44.2	-45.5	9.6	7.92e-02	0	46	0	16777216	60	16330
2026-01-20 08:19:11.71	186.42	13.24	-44.3	-45.6	9.6	2.16e-02	0	46	0	75497472	60	16472
2026-01-20 08:19:12.71	186.51	13.37	-44.9	-46.2	9.1	2.48e-02	0	46	0	134217728	60	17704
2026-01-20 08:19:13.71	186.60	13.49	-45.1	-46.4	8.9	3.07e-02	0	46	0	192937984	60	18131
2026-01-20 08:19:14.71	186.70	13.61	-44.1	-45.4	10.1	2.19e-02	0	47	0	260046848	59	16988
2026-01-20 08:19:15.71	186.79	13.73	-43.0	-44.1	11.4	4.87e-03	0	46	0	318767104	58	15624
2026-01-20 08:19:16.70	186.89	13.86	-42.9	-44.0	11.5	2.83e-03	0	47	0	377487360	58	15444
2026-01-20 08:19:17.70	186.99	13.98	-43.3	-44.4	11.2	2.36e-03	0	47	0	436207616	57	17023
2026-01-20 08:19:18.70	187.09	14.11	-42.7	-43.9	11.7	2.59e-03	0	47	0	494927872	57	16033
2026-01-20 08:19:19.71	187.19	14.24	-41.6	-42.6	12.7	1.26e-03	0	47	0	553648128	55	15633
2026-01-20 08:19:20.71	187.29	14.37	-41.6	-42.6	12.6	1.52e-04	0	47	0	612368384	53	17546
2026-01-20 08:19:21.70	187.39	14.49	-41.0	-42.0	13.0	1.70e-04	0	47	0	679477248	53	16351
2026-01-20 08:19:22.70	187.49	14.62	-40.6	-41.6	13.3	6.78e-05	0	47	0	738197504	53	15640
2026-01-20 08:19:23.70	187.60	14.75	-40.3	-41.3	13.5	1.10e-04	0	47	0	796917760	52	15905
2026-01-20 08:19:24.70	187.70	14.88	-40.2	-41.2	13.6	7.62e-05	0	47	0	855638016	51	16696
2026-01-20 08:19:25.70	187.81	15.02	-39.1	-40.1	14.3	8.40e-06	0	47	0	914358272	49	16515
2026-01-20 08:19:26.69	187.91	15.15	-38.4	-39.4	14.8	1.69e-05	0	47	0	973078528	48	16135
2026-01-20 08:19:27.69	188.02	15.28	-39.0	-40.0	14.2	1.69e-05	0	47	0	1040187392	49	16255
2026-01-20 08:19:28.69	188.13	15.42	-39.4	-40.4	13.8	0.00e+00	0	47	0	1098907648	49	17057
2026-01-20 08:19:29.68	188.24	15.55	-38.4	-39.4	14.6	0.00e+00	0	47	0	1157627904	48	16126
2026-01-20 08:19:30.68	188.35	15.69	-36.0	-36.9	15.9	0.00e+00	0	47	0	1216348160	44	15229
2026-01-20 08:19:31.68	188.46	15.82	-34.9	-35.8	16.5	0.00e+00	0	47	0	1275068416	41	15944
2026-01-20 08:19:32.69	188.58	15.96	-33.9	-34.8	17.4	0.00e+00	0	47	0	1333788672	39	15921
2026-01-20 08:19:33.69	188.69	16.10	-32.9	-33.8	18.0	0.00e+00	0	47	0	1392508928	37	15870
2026-01-20 08:19:34.68	188.81	16.24	-32.4	-33.3	18.1	0.00e+00	0	47	0	1459617792	36	15902
2026-01-20 08:19:35.69	188.93	16.39	-32.1	-33.0	18.4	0.00e+00	0	47	0	1518338048	36	15392
2026-01-20 08:19:36.69	189.05	16.53	-32.0	-32.9	18.5	0.00e+00	0	47	0	1577058304	36	15262
2026-01-20 08:19:37.69	189.17	16.67	-30.4	-31.2	18.5	0.00e+00	0	47	0	1635778560	32	15804
2026-01-20 08:19:38.69	189.29	16.81	-30.4	-31.3	18.4	0.00e+00	0	47	0	1694498816	32	15945
2026-01-20 08:19:39.69	189.41	16.96	-30.3	-31.2	18.4	0.00e+00	0	47	0	1753219072	32	15674
2026-01-20 08:19:40.69	189.53	17.11	-30.0	-30.9	18.6	0.00e+00	0	47	0	1811939328	32	15128
2026-01-20 08:19:41.69	189.66	17.25	-29.8	-30.7	18.6	0.00e+00	0	47	0	1879048192	31	15689
2026-01-20 08:19:42.69	189.79	17.40	-29.9	-30.7	18.6	0.00e+00	0	48	0	1937768448	31	15819
2026-01-20 08:19:43.68	189.91	17.55	-29.8	-30.7	18.6	0.00e+00	0	47	0	1996488704	31	15781
2026-01-20 08:19:44.68	190.04	17.70	-29.8	-30.7	18.7	0.00e+00	0	48	0	2055208960	31	15662
2026-01-20 08:19:45.68	190.17	17.85	-29.7	-30.5	18.9	0.00e+00	0	48	0	2113929216	31	15402
2026-01-20 08:19:46.68	190.31	18.00	-29.7	-30.6	18.8	0.00e+00	0	48	0	2172649472	31	15507
2026-01-20 08:19:47.68	190.44	18.16	-29.5	-30.4	18.9	0.00e+00	0	48	0	2231369728	31	15213
2026-01-20 08:19:48.68	190.58	18.31	-29.6	-30.5	18.8	0.00e+00	0	47	0	2290089984	31	15390
2026-01-20 08:19:49.68	190.71	18.47	-29.5	-30.4	18.8	0.00e+00	0	48	0	2357198848	31	15199
2026-01-20 08:19:50.68	190.85	18.62	-29.2	-30.1	18.9	0.00e+00	0	48	0	2415919104	30	15552
2026-01-20 08:19:51.67	190.99	18.78	-29.2	-30.1	19.0	0.00e+00	0	48	0	2474639360	30	15476
2026-01-20 08:19:52.68	191.14	18.94	-29.2	-30.0	19.0	0.00e+00	0	48	0	2533359616	30	15408
2026-01-20 08:19:53.67	191.28	19.10	-29.1	-30.0	19.0	0.00e+00	0	48	0	2592079872	30	15322
2026-01-20 08:19:54.67	191.42	19.26	-29.0	-29.8	19.1	0.00e+00	0	48	0	2650800128	29	16014
2026-01-20 08:19:55.67	191.57	19.42	-28.9	-29.7	19.2	0.00e+00	0	47	0	2709520384	29	15832
2026-01-20 08:19:56.67	191.72	19.59	-28.9	-29.8	19.2	0.00e+00	0	47	0	2776629248	29	15842
2026-01-20 08:19:57.67	191.87	19.75	-28.9	-29.8	19.2	0.00e+00	0	48	0	2835349504	29	15916
2026-01-20 08:19:58.67	192.03	19.92	-28.8	-29.6	19.2	0.00e+00	0	48	0	2894069760	29	15650
2026-01-20 08:19:59.68	192.18	20.09	-28.7	-29.5	19.2	0.00e+00	0	48	0	2952790016	29	15424
2026-01-20 08:20:00.68	192.34	20.26	-28.7	-29.5	19.2	0.00e+00	0	48	0	3011510272	29	15437
2026-01-20 08:20:01.67	192.50	20.43	-52.6	-57.2	3.7	2.03e-04	0	47	104	3061841920	75	26301
2026-01-20 08:20:02.67	192.66	20.60	-52.8	-57.4	3.7	2.03e-04	0	47	104	3061841920	76	25456
2026-01-20 08:20:03.67	192.82	20.77	-52.9	-57.5	3.7	2.03e-04	0	47	104	3061841920	76	25802
2026-01-20 08:20:04.67	192.98	20.94	-53.0	-57.6	3.7	2.03e-04	0	47	104	3061841920	76	26109
2026-01-20 08:20:05.67	193.15	21.12	-53.0	-57.6	3.7	2.03e-04	0	47	104	3061841920	76	26073
2026-01-20 08:20:06.66	193.32	21.29	-52.7	-57.3	3.7	2.03e-04	0	48	104	3061841920	76	25334
2026-01-20 08:20:07.66	193.49	21.47	-52.8	-57.4	3.7	2.03e-04	0	47	104	3061841920	76	25574
2026-01-20 08:20:08.66	193.66	21.65	-53.1	-57.7	3.7	2.03e-04	0	47	104	3061841920	76	26402
2026-01-20 08:20:09.66	193.84	21.83	-53.3	-57.8	3.7	2.03e-04	0	48	104	3061841920	77	25340
2026-01-20 08:20:10.66	194.01	22.01	-53.1	-57.7	3.7	2.03e-04	0	47	104	3061841920	77	25042
2026-01-20 08:20:11.66	194.19	22.20	-53.2	-57.8	3.7	2.03e-04	0	47	104	3061841920	77	25139
2026-01-20 08:20:12.66	194.38	22.38	-53.5	-58.0	3.7	2.03e-04	0	47	104	3061841920	77	25706
2026-01-20 08:20:13.66	194.56	22.57	-53.4	-57.8	3.7	2.03e-04	0	47	104	3061841920	77	25317
2026-01-20 08:20:14.65	194.75	22.76	-53.5	-57.9	3.7	2.03e-04	0	47	104	3061841920	77	25515
2026-01-20 08:20:15.66	194.94	22.95	-53.4	-58.0	3.7	2.03e-04	0	47	104	3061841920	77	25721
2026-01-20 08:20:16.66	195.13	23.14	-53.4	-57.8	3.7	2.03e-04	0	47	104	3061841920	77	25199
2026-01-20 08:20:17.66	195.33	23.33	-53.5	-57.9	3.7	2.03e-04	0	47	104	3061841920	77	25602
2026-01-20 08:20:18.66	195.52	23.52	-53.4	-57.9	3.7	2.03e-04	0	48	104	3061841920	77	25543
2026-01-20 08:20:19.66	195.72	23.72	-53.4	-57.9	3.7	2.03e-04	0	47	104	3061841920	77	25636
2026-01-20 08:20:20.66	195.93	23.91	-53.6	-58.1	3.7	2.03e-04	0	48	104	3061841920	77	26128
2026-01-20 08:20:21.65	196.13	24.11	-53.7	-58.2	3.7	2.03e-04	0	47	104	3061841920	77	26325
2026-01-20 08:20:22.65	196.34	24.31	-53.5	-58.1	3.7	2.03e-04	0	47	104	3061841920	78	24630
2026-01-20 08:20:23.65	196.55	24.51	-53.6	-58.1	3.7	2.03e-04	0	47	104	3061841920	78	24599
2026-01-20 08:20:24.65	196.77	24.71	-53.7	-58.3	3.7	2.03e-04	0	47	104	3061841920	78	25095
2026-01-20 08:20:25.65	196.99	24.92	-53.9	-58.4	3.7	2.03e-04	0	47	104	3061841920	78	25409
2026-01-20 08:20:26.66	197.21	25.13	-53.8	-58.3	3.7	2.03e-04	0	47	104	3061841920	78	25303
2026-01-20 08:20:27.66	197.43	25.33	-53.9	-58.4	3.7	2.03e-04	0	47	104	3061841920	78	25450
2026-01-20 08:20:28.66	197.66	25.54	-53.9	-58.3	3.7	2.03e-04	0	47	104	3061841920	78	25338
2026-01-20 08:20:29.66	197.89	25.75	-53.8	-58.4	3.7	2.03e-04	0	47	104	3061841920	78	25454
2026-01-20 08:20:30.66	198.13	25.96	-53.8	-58.3	3.7	2.03e-04	0	47	104	3061841920	78	25288
2026-01-20 08:20:31.65	198.36	26.18	-53.7	-58.1	3.7	2.03e-04	0	47	104	3061841920	78	24754
2026-01-20 08:20:32.65	198.60	26.39	-53.9	-58.4	3.7	2.03e-04	0	47	104	3061841920	78	25533
2026-01-20 08:20:33.65	198.85	26.61	-53.9	-58.4	3.7	2.03e-04	0	47	104	3061841920	78	25488
2026-01-20 08:20:34.64	199.09	26.82	-53.9	-58.4	3.7	2.03e-04	0	47	104	3061841920	78	25481
2026-01-20 08:20:35.64	199.34	27.04	-53.9	-58.4	3.7	2.03e-04	0	47	104	3061841920	78	25410
2026-01-20 08:20:36.64	199.60	27.27	-53.8	-58.3	3.7	2.03e-04	0	47	104	3061841920	78	25218
2026-01-20 08:20:37.63	199.86	27.49	-53.8	-58.2	3.7	2.03e-04	0	47	104	3061841920	78	24930
2026-01-20 08:20:38.63	200.12	27.71	-53.8	-58.3	3.7	2.03e-04	0	47	104	3061841920	78	25236
2026-01-20 08:20:39.64	200.39	27.94	-53.6	-58.1	3.7	2.03e-04	0	47	104	3061841920	78	24612
2026-01-20 08:20:40.63	200.66	28.17	-53.5	-57.9	3.7	2.03e-04	0	47	104	3061841920	78	24134
2026-01-20 08:20:41.63	200.94	28.40	-53.5	-57.9	3.7	2.03e-04	0	47	104	3061841920	78	24115
2026-01-20 08:20:42.63	201.22	28.63	-53.5	-57.9	3.7	2.03e-04	0	47	104	3061841920	78	24088
2026-01-20 08:20:43.63	201.50	28.86	-53.3	-57.8	3.7	2.03e-04	0	47	104	3061841920	78	23702
2026-01-20 08:20:44.63	201.79	29.10	-53.6	-58.1	3.7	2.03e-04	0	47	104	3061841920	78	24636
2026-01-20 08:20:45.63	202.08	29.33	-54.0	-58.4	3.7	2.03e-04	0	47	104	3061841920	78	25387
2026-01-20 08:20:46.63	202.38	29.57	-53.9	-58.3	3.7	2.03e-04	0	47	104	3061841920	78	25144
2026-01-20 08:20:47.63	202.69	29.81	-54.0	-58.4	3.7	2.03e-04	0	47	104	3061841920	78	25411
2026-01-20 08:20:48.63	202.99	30.05	-53.9	-58.4	3.7	2.03e-04	0	47	104	3061841920	78	25644
2026-01-20 08:20:49.63	203.31	30.29	-53.9	-58.3	3.7	2.03e-04	0	47	104	3061841920	78	25370
2026-01-20 08:20:50.63	203.62	30.54	-53.9	-58.3	3.7	2.03e-04	0	47	104	3061841920	78	25362
2026-01-20 08:20:51.63	203.95	30.78	-53.9	-58.3	3.7	2.03e-04	0	47	104	3061841920	78	25351
2026-01-20 08:20:52.62	204.27	31.03	-54.0	-58.3	3.7	2.03e-04	0	47	104	3061841920	78	25326
2026-01-20 08:20:53.63	204.61	31.28	-54.0	-58.5	3.7	2.03e-04	0	47	104	3061841920	78	25687
2026-01-20 08:20:54.63	204.95	31.53	-54.0	-58.5	3.7	2.03e-04	0	47	104	3061841920	78	25755
2026-01-20 08:20:55.63	205.30	31.78	-54.1	-58.5	3.7	2.03e-04	0	47	104	3061841920	78	25755
2026-01-20 08:20:56.63	205.65	32.04	-53.9	-58.3	3.7	2.03e-04	0	47	104	3061841920	78	25234
2026-01-20 08:20:57.63	206.00	32.29	-53.8	-58.3	3.7	2.03e-04	0	47	104	3061841920	78	25270
2026-01-20 08:20:58.63	206.37	32.55	-53.8	-58.2	3.7	2.03e-04	0	47	104	3061841920	78	25023
2026-01-20 08:20:59.63	206.74	32.81	-53.8	-58.1	3.7	2.03e-04	0	47	104	3061841920	78	24786
2026-01-20 08:21:00.63	207.11	33.06	-53.9	-58.4	3.7	2.03e-04	0	47	104	3061841920	78	25578
2026-01-20 08:21:01.62	207.49	33.32	-54.0	-58.4	3.7	2.03e-04	0	47	104	3061841920	78	25617
2026-01-20 08:21:02.62	207.88	33.58	-54.1	-58.5	3.7	2.03e-04	0	47	104	3061841920	78	25721
2026-01-20 08:21:03.61	208.27	33.84	-54.0	-58.4	3.7	2.03e-04	0	47	104	3061841920	78	25643
2026-01-20 08:21:04.61	208.67	34.11	-53.9	-58.3	3.7	2.03e-04	0	47	104	3061841920	78	25172
2026-01-20 08:21:05.61	209.08	34.37	-53.9	-58.2	3.7	2.03e-04	0	47	104	3061841920	78	24879
2026-01-20 08:21:06.61	209.49	34.64	-53.9	-58.2	3.7	2.03e-04	0	47	104	3061841920	78	24858
2026-01-20 08:21:07.61	209.92	34.91	-53.9	-58.2	3.7	2.03e-04	0	47	104	3061841920	78	24885
2026-01-20 08:21:08.61	210.35	35.18	-53.8	-58.3	3.7	2.03e-04	0	47	104	3061841920	78	25249
2026-01-20 08:21:09.60	210.78	35.44	-53.9	-58.4	3.7	2.03e-04	0	47	104	3061841920	78	25650
2026-01-20 08:21:10.60	211.23	35.71	-53.8	-58.4	3.7	2.03e-04	0	47	104	3061841920	78	25551
2026-01-20 08:21:11.60	211.68	35.98	-53.9	-58.4	3.7	2.03e-04	0	47	104	3061841920	78	25532
2026-01-20 08:21:12.60	212.14	36.26	-54.0	-58.4	3.7	2.03e-04	0	47	104	3061841920	78	25645
2026-01-20 08:21:13.59	212.61	36.53	-53.8	-58.2	3.7	2.03e-04	0	47	104	3061841920	78	25009
2026-01-20 08:21:14.59	213.08	36.80	-53.8	-58.3	3.7	2.03e-04	0	47	104	3061841920	78	25133
2026-01-20 08:21:15.59	213.57	37.07	-53.6	-58.1	3.7	2.03e-04	0	47	104	3061841920	78	24783
2026-01-20 08:21:16.58	214.06	37.34	-53.6	-58.1	3.7	2.03e-04	0	47	104	3061841920	78	24801
2026-01-20 08:21:17.58	214.56	37.62	-53.9	-58.4	3.7	2.03e-04	0	47	104	3061841920	78	25413
2026-01-20 08:21:18.58	215.07	37.89	-53.9	-58.3	3.7	2.03e-04	0	47	104	3061841920	78	25334
2026-01-20 08:21:19.59	215.60	38.17	-53.8	-58.4	3.7	2.03e-04	0	47	104	3061841920	78	25394
2026-01-20 08:21:20.59	216.13	38.44	-53.9	-58.4	3.7	2.03e-04	0	47	104	3061841920	78	25645
2026-01-20 08:21:21.59	216.67	38.72	-54.0	-58.4	3.7	2.03e-04	0	47	104	3061841920	78	25553
2026-01-20 08:21:22.59	217.22	38.99	-54.1	-58.4	3.7	2.03e-04	0	47	104	3061841920	78	25606
2026-01-20 08:21:23.58	217.78	39.26	-54.1	-58.4	3.7	2.03e-04	0	47	104	3061841920	78	25613
2026-01-20 08:21:24.59	218.35	39.54	-54.2	-58.5	3.7	2.03e-04	0	47	104	3061841920	79	24445
2026-01-20 08:21:25.59	218.93	39.81	-54.2	-58.6	3.7	2.03e-04	0	47	104	3061841920	79	24789
2026-01-20 08:21:26.59	219.52	40.09	-54.2	-58.7	3.7	2.03e-04	0	47	104	3061841920	79	24834
2026-01-20 08:21:27.59	220.12	40.36	-54.2	-58.7	3.7	2.03e-04	0	47	104	3061841920	79	24813
2026-01-20 08:21:28.59	220.73	40.63	-54.3	-58.7	3.7	2.03e-04	0	47	104	3061841920	79	25036
2026-01-20 08:21:29.58	221.34	40.89	-54.2	-58.6	3.7	2.03e-04	0	47	104	3061841920	79	24648
2026-01-20 08:21:30.57	221.97	41.16	-54.1	-58.6	3.7	2.03e-04	0	47	104	3061841920	79	24529
2026-01-20 08:21:31.57	222.61	41.42	-54.0	-58.5	3.7	2.03e-04	0	47	104	3061841920	79	24332
2026-01-20 08:21:32.57	223.27	41.69	-54.0	-58.5	3.7	2.03e-04	0	47	104	3061841920	79	24284
2026-01-20 08:21:33.58	223.94	41.95	-54.2	-58.5	3.7	2.03e-04	0	47	104	3061841920	79	24331
2026-01-20 08:21:34.58	224.61	42.21	-54.2	-58.5	3.7	2.03e-04	0	47	104	3061841920	79	24376
2026-01-20 08:21:35.58	225.30	42.47	-54.0	-58.3	3.7	2.03e-04	0	47	104	3061841920	79	23943
2026-01-20 08:21:36.57	225.99	42.73	-54.0	-58.4	3.7	2.03e-04	0	47	104	3061841920	79	24212
2026-01-20 08:21:37.57	226.70	42.98	-54.2	-58.5	3.7	2.03e-04	0	47	104	3061841920	79	24518
2026-01-20 08:21:38.56	227.42	43.23	-54.2	-58.6	3.7	2.03e-04	0	47	104	3061841920	79	24566
2026-01-20 08:21:39.57	228.16	43.48	-54.2	-58.6	3.6	2.03e-04	0	47	104	3061841920	79	24666
2026-01-20 08:21:40.57	228.90	43.72	-54.0	-58.4	3.7	2.03e-04	0	47	104	3061841920	79	24114
2026-01-20 08:21:41.57	229.66	43.96	-54.0	-58.4	3.7	2.03e-04	0	47	104	3061841920	79	23998
2026-01-20 08:21:42.56	230.42	44.19	-53.9	-58.3	3.7	2.03e-04	0	47	104	3061841920	79	23816
2026-01-20 08:21:43.56	231.20	44.43	-53.7	-58.2	3.7	2.03e-04	0	47	104	3061841920	79	23545
2026-01-20 08:21:44.56	231.99	44.66	-53.7	-58.4	3.7	2.03e-04	0	47	104	3061841920	78	25603
2026-01-20 08:21:45.56	232.79	44.88	-54.3	-58.8	3.7	2.03e-04	0	47	104	3061841920	79	25291
2026-01-20 08:21:46.56	233.61	45.10	-54.4	-58.8	3.7	2.03e-04	0	47	104	3061841920	79	25334
2026-01-20 08:21:47.55	234.43	45.31	-54.4	-58.8	3.7	2.03e-04	0	47	104	3061841920	79	25331
2026-01-20 08:21:48.55	235.26	45.52	-54.5	-58.8	3.7	2.03e-04	0	47	104	3061841920	79	25351
2026-01-20 08:21:49.54	236.10	45.72	-54.4	-58.8	3.7	2.03e-04	0	47	104	3061841920	79	25368
2026-01-20 08:21:50.55	236.97	45.92	-54.4	-58.8	3.7	2.03e-04	0	47	104	3061841920	79	25335
2026-01-20 08:21:51.55	237.84	46.12	-54.3	-58.8	3.7	2.03e-04	0	47	104	3061841920	79	25309
2026-01-20 08:21:52.55	238.73	46.30	-53.9	-58.6	3.7	2.03e-04	0	47	104	3061841920	79	24755
2026-01-20 08:21:53.55	239.62	46.48	-54.0	-58.6	3.7	2.03e-04	0	47	104	3061841920	79	24805
2026-01-20 08:21:54.55	240.52	46.66	-54.1	-58.7	3.7	2.03e-04	0	47	104	3061841920	79	24860
2026-01-20 08:21:55.55	241.43	46.82	-54.0	-58.7	3.7	2.03e-04	0	47	104	3061841920	79	24829
2026-01-20 08:21:56.55	242.36	46.98	-54.0	-58.6	3.7	2.03e-04	0	47	104	3061841920	79	24701
2026-01-20 08:21:57.55	243.29	47.14	-54.3	-58.8	3.7	2.03e-04	0	47	104	3061841920	79	25164
2026-01-20 08:21:58.55	244.23	47.28	-54.3	-58.8	3.7	2.03e-04	0	47	104	3061841920	79	25210
2026-01-20 08:21:59.54	245.17	47.42	-54.3	-58.8	3.7	2.03e-04	0	47	104	3061841920	79	25252
2026-01-20 08:22:00.54	246.13	47.55	-54.3	-58.7	3.6	2.03e-04	0	47	104	3061841920	79	25032
2026-01-20 08:22:01.54	247.10	47.67	-54.0	-58.6	3.7	2.03e-04	0	47	104	3061841920	79	24591
2026-01-20 08:22:02.54	248.07	47.78	-53.9	-58.5	3.7	2.03e-04	0	47	104	3061841920	79	24477
2026-01-20 08:22:03.54	249.05	47.89	-53.9	-58.6	3.7	2.03e-04	0	47	104	3061841920	79	24525
2026-01-20 08:22:04.53	250.03	47.98	-54.3	-58.7	3.7	2.03e-04	0	47	104	3061841920	79	25009
2026-01-20 08:22:05.53	251.02	48.07	-54.3	-58.8	3.7	2.03e-04	0	47	104	3061841920	79	25129
2026-01-20 08:22:06.53	252.02	48.15	-54.1	-58.7	3.7	2.03e-04	0	47	104	3061841920	79	24873
2026-01-20 08:22:07.54	253.04	48.22	-54.3	-58.8	3.7	2.03e-04	0	47	104	3061841920	79	25201
2026-01-20 08:22:08.54	254.04	48.28	-54.3	-58.7	3.7	2.03e-04	0	48	104	3061841920	79	24974
2026-01-20 08:22:09.54	255.06	48.34	-54.1	-58.6	3.7	2.03e-04	0	47	104	3061841920	79	24604
2026-01-20 08:22:10.53	256.06	48.38	-54.2	-58.7	3.7	2.03e-04	0	47	104	3061841920	79	24821
2026-01-20 08:22:11.53	257.08	48.41	-54.3	-58.7	3.7	2.03e-04	0	47	104	3061841920	79	25051
2026-01-20 08:22:12.53	258.10	48.44	-54.0	-58.6	3.7	2.03e-04	0	47	104	3061841920	79	24763
2026-01-20 08:22:13.52	259.11	48.45	-54.2	-58.8	3.7	2.03e-04	0	47	104	3061841920	79	25187
2026-01-20 08:22:14.52	260.13	48.46	-54.1	-58.7	3.7	2.03e-04	0	47	104	3061841920	79	25068
2026-01-20 08:22:15.53	261.16	48.45	-53.7	-58.5	3.7	2.03e-04	0	47	104	3061841920	79	24408
2026-01-20 08:22:16.53	262.18	48.44	-53.9	-58.7	3.7	2.03e-04	0	47	104	3061841920	79	24833
2026-01-20 08:22:17.53	263.20	48.42	-54.0	-58.6	3.7	2.03e-04	0	47	104	3061841920	79	24731
2026-01-20 08:22:18.53	264.22	48.38	-53.6	-58.4	3.7	2.03e-04	0	47	104	3061841920	79	24105
2026-01-20 08:22:19.52	265.22	48.34	-53.7	-58.5	3.7	2.03e-04	0	47	104	3061841920	79	24393
2026-01-20 08:22:20.52	266.24	48.29	-54.3	-58.7	3.6	2.03e-04	0	47	104	3061841920	79	25022
2026-01-20 08:22:21.52	267.24	48.23	-53.9	-58.5	3.7	2.03e-04	0	47	104	3061841920	79	24492
2026-01-20 08:22:22.52	268.25	48.16	-53.7	-58.4	3.7	2.03e-04	0	47	104	3061841920	79	24015
2026-01-20 08:22:23.52	269.25	48.09	-53.9	-58.6	3.7	2.03e-04	0	47	104	3061841920	79	24591
2026-01-20 08:22:24.52	270.24	48.00	-54.2	-58.7	3.7	2.03e-04	0	47	104	3061841920	79	24976
2026-01-20 08:22:25.52	271.23	47.90	-54.0	-58.6	3.7	2.03e-04	0	47	104	3061841920	79	24636
2026-01-20 08:22:26.52	272.21	47.80	-54.0	-58.6	3.7	2.03e-04	0	47	104	3061841920	79	24758
2026-01-20 08:22:27.51	273.17	47.69	-54.1	-58.7	3.7	2.03e-04	0	47	104	3061841920	79	24887
2026-01-20 08:22:28.52	274.15	47.57	-54.3	-58.9	3.7	2.03e-04	0	47	104	3061841920	79	25404
2026-01-20 08:22:29.52	275.11	47.44	-54.2	-58.7	3.7	2.03e-04	0	47	104	3061841920	79	25014
2026-01-20 08:22:30.51	276.05	47.30	-54.2	-58.7	3.7	2.03e-04	0	47	104	3061841920	79	24957
2026-01-20 08:22:31.51	276.99	47.16	-54.2	-58.7	3.7	2.03e-04	0	47	104	3061841920	79	24986
2026-01-20 08:22:32.51	277.92	47.01	-54.3	-58.8	3.7	2.03e-04	0	47	104	3061841920	79	25167
2026-01-20 08:22:33.51	278.84	46.85	-54.2	-58.6	3.7	2.03e-04	0	47	104	3061841920	79	24784
2026-01-20 08:22:34.51	279.76	46.68	-54.0	-58.5	3.7	2.03e-04	0	47	104	3061841920	79	24516
2026-01-20 08:22:35.51	280.66	46.51	-53.8	-58.5	3.6	2.03e-04	0	47	104	3061841920	79	24401
2026-01-20 08:22:36.50	281.54	46.34	-54.3	-58.8	3.7	2.03e-04	0	47	104	3061841920	79	25264
2026-01-20 08:22:37.50	282.42	46.15	-54.3	-58.9	3.7	2.03e-04	0	47	104	3061841920	79	25450
2026-01-20 08:22:38.50	283.30	45.96	-54.2	-58.7	3.7	2.03e-04	0	47	104	3061841920	79	25037
2026-01-20 08:22:39.50	284.16	45.76	-54.3	-58.8	3.7	2.03e-04	0	48	104	3061841920	79	25146
2026-01-20 08:22:40.50	285.00	45.56	-54.4	-58.7	3.7	2.03e-04	0	47	104	3061841920	79	24916
2026-01-20 08:22:41.50	285.84	45.35	-54.1	-58.6	3.7	2.03e-04	0	47	104	3061841920	79	24610
2026-01-20 08:22:42.49	286.66	45.14	-54.0	-58.6	3.7	2.03e-04	0	47	104	3061841920	79	24530
2026-01-20 08:22:43.49	287.47	44.92	-54.0	-58.7	3.7	2.03e-04	0	47	104	3061841920	79	24910
2026-01-20 08:22:44.49	288.28	44.70	-54.3	-58.8	3.7	2.03e-04	0	47	104	3061841920	79	25182
2026-01-20 08:22:45.49	289.07	44.47	-54.3	-58.6	3.7	2.03e-04	0	47	104	3061841920	79	24807
2026-01-20 08:22:46.49	289.85	44.24	-54.0	-58.6	3.7	2.03e-04	0	47	104	3061841920	79	24604
2026-01-20 08:22:47.49	290.62	44.01	-54.0	-58.5	3.7	2.03e-04	0	47	104	3061841920	79	24501
2026-01-20 08:22:48.48	291.37	43.77	-54.1	-58.6	3.7	2.03e-04	0	47	104	3061841920	79	24607
2026-01-20 08:22:49.49	292.12	43.53	-54.3	-58.7	3.7	2.03e-04	0	47	104	3061841920	79	25002
2026-01-20 08:22:50.48	292.84	43.28	-54.3	-58.7	3.7	2.03e-04	0	47	104	3061841920	79	25094
2026-01-20 08:22:51.48	293.57	43.03	-54.3	-58.7	3.7	2.03e-04	0	47	104	3061841920	79	25023
2026-01-20 08:22:52.48	294.28	42.78	-54.2	-58.6	3.7	2.03e-04	0	47	104	3061841920	79	24589
2026-01-20 08:22:53.48	294.97	42.53	-54.2	-58.7	3.7	2.03e-04	0	47	104	3061841920	79	24854
2026-01-20 08:22:54.48	295.66	42.27	-54.0	-58.6	3.7	2.03e-04	0	47	104	3061841920	79	24703
2026-01-20 08:22:55.48	296.34	42.01	-54.0	-58.6	3.7	2.03e-04	0	48	104	3061841920	79	24660
2026-01-20 08:22:56.47	296.99	41.76	-54.1	-58.4	3.7	2.03e-04	0	47	104	3061841920	79	24115
2026-01-20 08:22:57.46	297.64	41.50	-53.5	-58.1	3.7	2.03e-04	0	47	104	3061841920	79	23350
2026-01-20 08:22:58.46	298.28	41.23	-53.4	-57.9	3.7	2.03e-04	0	47	104	3061841920	78	24241
2026-01-20 08:22:59.46	298.92	40.96	-53.5	-58.0	3.7	2.03e-04	0	47	104	3061841920	78	24379
2026-01-20 08:23:00.46	299.54	40.70	-54.0	-58.1	3.7	2.03e-04	0	47	104	3061841920	78	24644
2026-01-20 08:23:01.46	300.15	40.43	-53.7	-57.8	3.7	2.03e-04	0	47	104	3061841920	78	23909
2026-01-20 08:23:02.46	300.75	40.16	-53.5	-57.8	3.7	0.00e+00	0	47	104	3061841920	78	23750
2026-01-20 08:23:03.46	301.34	39.89	-53.5	-57.7	3.7	0.00e+00	0	47	104	3061841920	78	23564
2026-01-20 08:23:04.47	301.92	39.61	-53.9	-58.0	3.7	0.00e+00	0	47	104	3061841920	78	24335
2026-01-20 08:23:05.46	302.49	39.35	-53.8	-58.2	3.7	0.00e+00	0	47	104	3061841920	78	25034
2026-01-20 08:23:06.46	303.04	39.07	-53.6	-58.1	3.7	0.00e+00	0	47	104	3061841920	78	24729
2026-01-20 08:23:07.46	303.59	38.80	-53.5	-58.1	3.7	0.00e+00	0	47	104	3061841920	78	24554
2026-01-20 08:23:08.46	304.13	38.53	-53.7	-58.2	3.7	0.00e+00	0	47	104	3061841920	78	24831
2026-01-20 08:23:09.46	304.67	38.25	-53.9	-58.4	3.7	0.00e+00	0	47	104	3061841920	78	25426
2026-01-20 08:23:10.46	305.19	37.98	-53.7	-58.2	3.7	0.00e+00	0	47	104	3061841920	78	24949
2026-01-20 08:23:11.45	305.69	37.71	-53.7	-58.1	3.7	0.00e+00	0	47	104	3061841920	78	24787
2026-01-20 08:23:12.45	306.20	37.44	-53.4	-58.0	3.7	0.00e+00	0	47	104	3061841920	78	24514
2026-01-20 08:23:13.45	306.69	37.17	-53.3	-58.0	3.7	0.00e+00	0	47	104	3061841920	78	24433
2026-01-20 08:23:14.45	307.18	36.89	-53.5	-58.1	3.7	0.00e+00	0	47	104	3061841920	78	24624
2026-01-20 08:23:15.45	307.66	36.62	-53.5	-58.1	3.7	0.00e+00	0	47	104	3061841920	78	24592
2026-01-20 08:23:16.45	308.13	36.35	-53.7	-58.2	3.7	0.00e+00	0	47	104	3061841920	78	24903
2026-01-20 08:23:17.44	308.58	36.08	-53.8	-58.3	3.7	0.00e+00	0	47	104	3061841920	78	25240
2026-01-20 08:23:18.44	309.04	35.81	-53.7	-58.2	3.7	0.00e+00	0	47	104	3061841920	78	25093
2026-01-20 08:23:19.44	309.48	35.54	-53.7	-58.3	3.7	0.00e+00	0	47	104	3061841920	78	25120
2026-01-20 08:23:20.44	309.92	35.28	-53.9	-58.4	3.7	0.00e+00	0	47	104	3061841920	78	25626
2026-01-20 08:23:21.44	310.35	35.01	-54.1	-58.5	3.7	0.00e+00	0	47	104	3061841920	78	25766
2026-01-20 08:23:22.44	310.77	34.74	-54.1	-58.4	3.7	0.00e+00	0	47	104	3061841920	78	25597
2026-01-20 08:23:23.44	311.19	34.48	-54.1	-58.5	3.7	0.00e+00	0	48	104	3061841920	78	25767
2026-01-20 08:23:24.44	311.60	34.21	-54.1	-58.4	3.7	0.00e+00	0	47	104	3061841920	78	25677
2026-01-20 08:23:25.44	312.00	33.95	-54.0	-58.5	3.7	0.00e+00	0	47	104	3061841920	78	25724
2026-01-20 08:23:26.44	312.39	33.69	-53.9	-58.5	3.7	0.00e+00	0	47	104	3061841920	78	25809
2026-01-20 08:23:27.44	312.78	33.43	-54.0	-58.5	3.7	0.00e+00	0	47	104	3061841920	78	25833
2026-01-20 08:23:28.44	313.16	33.17	-53.8	-58.4	3.7	0.00e+00	0	48	104	3061841920	78	25493
2026-01-20 08:23:29.44	313.54	32.91	-53.5	-58.2	3.7	0.00e+00	0	48	104	3061841920	78	24988
2026-01-20 08:23:30.44	313.91	32.66	-53.4	-58.1	3.7	0.00e+00	0	47	104	3061841920	78	24679
2026-01-20 08:23:31.44	314.27	32.40	-53.4	-58.1	3.7	0.00e+00	0	47	104	3061841920	78	24649
2026-01-20 08:23:32.44	314.63	32.15	-53.7	-58.3	3.7	0.00e+00	0	47	104	3061841920	78	25291
2026-01-20 08:23:33.44	314.98	31.89	-54.1	-58.6	3.7	0.00e+00	0	47	104	3061841920	78	26003
2026-01-20 08:23:34.44	315.33	31.64	-54.0	-58.5	3.7	0.00e+00	0	47	104	3061841920	78	25881
2026-01-20 08:23:35.44	315.67	31.39	-54.0	-58.5	3.7	0.00e+00	0	48	104	3061841920	78	25827
2026-01-20 08:23:36.44	316.00	31.15	-53.7	-58.4	3.7	0.00e+00	0	48	104	3061841920	78	25664
2026-01-20 08:23:37.44	316.33	30.90	-52.9	-57.8	3.7	0.00e+00	0	48	104	3061841920	77	25348
2026-01-20 08:23:38.44	316.65	30.66	-52.0	-57.3	3.7	0.00e+00	0	47	104	3061841920	75	26853
2026-01-20 08:23:39.43	316.97	30.41	-51.7	-57.1	3.7	0.00e+00	0	47	104	3061841920	75	26217
2026-01-20 08:23:40.43	317.28	30.17	-51.6	-57.0	3.7	0.00e+00	0	47	104	3061841920	74	27467
2026-01-20 08:23:41.43	317.59	29.93	-52.1	-57.3	3.7	0.00e+00	0	48	104	3061841920	74	28370
2026-01-20 08:23:42.42	317.89	29.70	-52.9	-57.7	3.7	0.00e+00	0	48	104	3061841920	76	26438
2026-01-20 08:23:43.42	318.19	29.46	-53.4	-57.9	3.7	0.00e+00	0	47	104	3061841920	77	25573
2026-01-20 08:23:44.42	318.48	29.22	-53.6	-57.9	3.7	0.00e+00	0	47	104	3061841920	77	25541
2026-01-20 08:23:45.42	318.77	28.99	-53.6	-57.7	3.7	0.00e+00	0	47	104	3061841920	77	24942
2026-01-20 08:23:46.42	319.06	28.76	-53.3	-57.3	3.7	0.00e+00	0	47	104	3061841920	77	23831
2026-01-20 08:23:47.42	319.34	28.53	-53.4	-57.5	3.7	0.00e+00	0	47	104	3061841920	77	24514
2026-01-20 08:23:48.42	319.61	28.30	-53.4	-57.5	3.7	0.00e+00	0	47	104	3061841920	77	24497
2026-01-20 08:23:49.41	319.88	28.07	-52.6	-57.0	3.7	0.00e+00	0	47	104	3061841920	77	23119
2026-01-20 08:23:50.41	320.15	27.85	-52.3	-57.2	3.7	0.00e+00	0	48	104	3061841920	76	24847
2026-01-20 08:23:51.40	320.41	27.63	-52.0	-56.7	3.7	0.00e+00	0	47	104	3061841920	76	23672
2026-01-20 08:23:52.39	320.67	27.41	-52.0	-56.7	3.7	0.00e+00	0	47	104	3061841920	76	23474
2026-01-20 08:23:53.39	320.92	27.19	-52.2	-56.9	3.7	0.00e+00	0	48	104	3061841920	76	23993
2026-01-20 08:23:54.39	321.18	26.97	-52.3	-57.1	3.7	0.00e+00	0	48	104	3061841920	76	24766
2026-01-20 08:23:55.39	321.43	26.75	-52.6	-57.1	3.7	0.00e+00	0	48	104	3061841920	76	24806
2026-01-20 08:23:56.38	321.67	26.54	-52.4	-57.0	3.7	0.00e+00	0	47	104	3061841920	76	24426
2026-01-20 08:23:57.38	321.91	26.32	-52.6	-57.2	3.7	0.00e+00	0	47	104	3061841920	76	24857
2026-01-20 08:23:58.38	322.15	26.11	-52.5	-57.5	3.7	0.00e+00	0	47	104	3061841920	76	25780
2026-01-20 08:23:59.38	322.38	25.90	-51.9	-56.9	3.7	0.00e+00	0	47	104	3061841920	75	25601
2026-01-20 08:24:00.39	322.62	25.69	-51.5	-56.8	3.7	0.00e+00	0	48	104	3061841920	75	25297
2026-01-20 08:24:01.39	322.84	25.48	-51.6	-57.0	3.7	0.00e+00	0	47	104	3061841920	75	25883
2026-01-20 08:24:02.38	323.07	25.27	-52.0	-57.4	3.7	0.00e+00	0	48	104	3061841920	75	27060
2026-01-20 08:24:03.38	323.29	25.07	-52.8	-57.8	3.7	0.00e+00	0	47	104	3061841920	76	26626
2026-01-20 08:24:04.38	323.51	24.87	-52.8	-57.8	3.7	0.00e+00	0	47	104	3061841920	76	26765
2026-01-20 08:24:05.38	323.72	24.66	-53.0	-57.8	3.7	0.00e+00	0	47	104	3061841920	76	26722
2026-01-20 08:24:06.38	323.93	24.46	-52.7	-57.6	3.7	0.00e+00	0	47	104	3061841920	76	26249
2026-01-20 08:24:07.38	324.14	24.26	-52.9	-57.7	3.7	0.00e+00	0	47	104	3061841920	76	26560
2026-01-20 08:24:08.38	324.35	24.07	-52.5	-57.6	3.7	0.00e+00	0	48	104	3061841920	76	26169
2026-01-20 08:24:09.38	324.55	23.87	-52.6	-57.8	3.7	0.00e+00	0	47	104	3061841920	76	26625
2026-01-20 08:24:10.38	324.75	23.68	-53.0	-57.9	3.7	0.00e+00	0	47	104	3061841920	76	27200
2026-01-20 08:24:11.38	324.95	23.48	-52.8	-57.8	3.7	0.00e+00	0	47	104	3061841920	76	26599
2026-01-20 08:24:12.38	325.15	23.29	-53.0	-57.9	3.7	0.00e+00	0	47	104	3061841920	76	27185
2026-01-20 08:24:13.38	325.34	23.10	-52.9	-57.9	3.7	0.00e+00	0	47	104	3061841920	76	27119
2026-01-20 08:24:14.38	325.53	22.91	-52.9	-57.9	3.7	0.00e+00	0	48	104	3061841920	76	27078
2026-01-20 08:24:15.38	325.72	22.73	-53.0	-58.1	3.7	0.00e+00	0	47	104	3061841920	76	27521
2026-01-20 08:24:16.37	325.90	22.54	-52.7	-57.7	3.7	0.00e+00	0	47	104	3061841920	76	26575
2026-01-20 08:24:17.37	326.08	22.36	-52.2	-57.4	3.7	0.00e+00	0	47	104	3061841920	76	25421
2026-01-20 08:24:18.36	326.26	22.18	-51.7	-57.0	3.7	0.00e+00	0	47	104	3061841920	75	25822
2026-01-20 08:24:19.36	326.44	22.00	-52.1	-57.2	3.7	0.00e+00	0	48	104	3061841920	75	26560
2026-01-20 08:24:20.35	326.61	21.82	-51.5	-56.9	3.7	0.00e+00	0	47	104	3061841920	75	25405
2026-01-20 08:24:21.35	326.79	21.64	-51.5	-57.0	3.7	0.00e+00	0	47	104	3061841920	74	27428
2026-01-20 08:24:22.35	326.96	21.46	-52.2	-57.4	3.7	0.00e+00	0	47	104	3061841920	75	27157
2026-01-20 08:24:23.35	327.13	21.29	-51.4	-56.9	3.7	0.00e+00	0	47	104	3061841920	74	26942
2026-01-20 08:24:24.35	327.30	21.11	-51.8	-57.1	3.7	0.00e+00	0	47	104	3061841920	74	27621
2026-01-20 08:24:25.35	327.46	20.94	-52.1	-57.3	3.7	0.00e+00	0	47	104	3061841920	74	28478
2026-01-20 08:24:26.34	327.62	20.77	-52.5	-57.5	3.7	0.00e+00	0	47	104	3061841920	75	27432
2026-01-20 08:24:27.34	327.78	20.60	-53.0	-57.8	3.7	0.00e+00	0	47	104	3061841920	76	26784
2026-01-20 08:24:28.34	327.94	20.43	-53.2	-57.9	3.7	0.00e+00	0	47	104	3061841920	77	25412
2026-01-20 08:24:29.34	328.10	20.26	-53.1	-57.8	3.7	0.00e+00	0	47	104	3061841920	77	25289
2026-01-20 08:24:30.33	328.25	20.09	-52.2	-57.5	3.7	0.00e+00	0	48	104	3061841920	76	25691
2026-01-20 08:24:31.32	328.41	19.93	-52.2	-57.5	3.7	0.00e+00	0	47	104	3061841920	76	25916
2026-01-20 08:24:32.32	328.56	19.77	-52.3	-57.4	3.7	0.00e+00	0	47	104	3061841920	76	25526
2026-01-20 08:24:33.31	328.71	19.60	-52.1	-57.4	3.7	0.00e+00	0	48	104	3061841920	76	25476
2026-01-20 08:24:34.31	328.85	19.44	-52.1	-57.4	3.7	0.00e+00	0	47	104	3061841920	76	25651
2026-01-20 08:24:35.31	329.00	19.28	-52.1	-57.4	3.7	0.00e+00	0	47	104	3061841920	76	25519
2026-01-20 08:24:36.31	329.14	19.12	-52.0	-57.3	3.7	0.00e+00	0	47	104	3061841920	76	25269
2026-01-20 08:24:37.31	329.29	18.96	-51.4	-56.9	3.7	0.00e+00	0	48	104	3061841920	74	27084
2026-01-20 08:24:38.30	329.43	18.81	-51.9	-57.3	3.7	0.00e+00	0	47	104	3061841920	74	28166
2026-01-20 08:24:39.30	329.57	18.65	-51.3	-56.8	3.7	0.00e+00	0	47	104	3061841920	74	26869
2026-01-20 08:24:40.30	329.71	18.49	-51.1	-56.6	3.7	0.00e+00	0	48	104	3061841920	74	26245
2026-01-20 08:24:41.30	329.84	18.34	-51.6	-57.0	3.7	0.00e+00	0	48	104	3061841920	74	27284
2026-01-20 08:24:42.30	329.98	18.19	-51.1	-56.8	3.7	0.00e+00	0	47	104	3061841920	74	26585
2026-01-20 08:24:43.29	330.11	18.04	-51.9	-57.1	3.7	0.00e+00	0	48	104	3061841920	74	27817
2026-01-20 08:24:44.29	330.24	17.89	-52.6	-57.6	3.7	0.00e+00	0	47	104	3061841920	75	27589
2026-01-20 08:24:45.29	330.37	17.74	-53.4	-58.1	3.7	0.00e+00	0	47	104	3061841920	77	26076
2026-01-20 08:24:46.29	330.50	17.59	-52.3	-57.3	3.7	0.00e+00	0	48	104	3061841920	76	25370
2026-01-20 08:24:47.29	330.63	17.44	-52.8	-57.7	3.7	0.00e+00	0	48	104	3061841920	76	26557
2026-01-20 08:24:48.29	330.75	17.29	-53.3	-58.0	3.7	0.00e+00	0	47	104	3061841920	77	25788
2026-01-20 08:24:49.28	330.88	17.15	-53.4	-58.1	3.7	0.00e+00	0	47	104	3061841920	77	26167
2026-01-20 08:24:50.28	331.00	17.00	-53.5	-58.2	3.7	0.00e+00	0	47	104	3061841920	77	26439
2026-01-20 08:24:51.28	331.12	16.86	-53.6	-58.2	3.7	0.00e+00	0	47	104	3061841920	77	26559
2026-01-20 08:24:52.27	331.24	16.72	-53.6	-58.2	3.7	0.00e+00	0	47	104	3061841920	77	26575
2026-01-20 08:24:53.27	331.36	16.58	-53.6	-58.3	3.7	0.00e+00	0	47	104	3061841920	77	26638
2026-01-20 08:24:54.27	331.48	16.44	-53.4	-58.2	3.7	0.00e+00	0	47	104	3061841920	77	26521
2026-01-20 08:24:55.27	331.60	16.30	-52.3	-57.5	3.7	0.00e+00	0	47	104	3061841920	76	25836
2026-01-20 08:24:56.26	331.71	16.16	-52.5	-57.7	3.7	0.00e+00	0	48	104	3061841920	76	26300
2026-01-20 08:24:57.26	331.83	16.02	-52.1	-57.4	3.6	0.00e+00	0	48	104	3061841920	76	25654
2026-01-20 08:24:58.26	331.94	15.88	-52.5	-57.7	3.7	0.00e+00	0	47	104	3061841920	76	26306
2026-01-20 08:24:59.26	332.05	15.75	-52.5	-57.7	3.7	0.00e+00	0	48	104	3061841920	76	26296
2026-01-20 08:25:00.26	332.16	15.61	-52.5	-57.6	3.7	0.00e+00	0	48	104	3061841920	76	26072
2026-01-20 08:25:01.25	332.27	15.48	-52.6	-57.7	3.7	0.00e+00	0	47	104	3061841920	76	26376
2026-01-20 08:25:02.25	332.38	15.35	-52.6	-57.7	3.7	0.00e+00	0	48	104	3061841920	76	26427
2026-01-20 08:25:03.24	332.49	15.21	-52.4	-57.6	3.7	0.00e+00	0	47	104	3061841920	76	26027
2026-01-20 08:25:04.24	332.59	15.08	-52.5	-57.7	3.7	0.00e+00	0	48	104	3061841920	76	26292
2026-01-20 08:25:05.24	332.70	14.95	-52.6	-57.7	3.7	0.00e+00	0	47	104	3061841920	76	26499
2026-01-20 08:25:06.23	332.80	14.82	-52.3	-57.5	3.7	0.00e+00	0	47	104	3061841920	76	25936
2026-01-20 08:25:07.23	332.90	14.69	-52.5	-57.6	3.7	0.00e+00	0	48	104	3061841920	76	26138
2026-01-20 08:25:08.23	333.01	14.57	-52.5	-57.6	3.7	0.00e+00	0	48	104	3061841920	76	26266
2026-01-20 08:25:09.23	333.11	14.44	-52.9	-57.9	3.7	0.00e+00	0	48	104	3061841920	76	26898
2026-01-20 08:25:10.23	333.21	14.31	-52.7	-57.7	3.7	0.00e+00	0	48	104	3061841920	76	26444
2026-01-20 08:25:11.23	333.31	14.19	-52.6	-57.7	3.7	0.00e+00	0	47	104	3061841920	76	26511
2026-01-20 08:25:12.23	333.41	14.06	-52.5	-57.6	3.7	0.00e+00	0	47	104	3061841920	76	26135
2026-01-20 08:25:13.23	333.50	13.94	-52.6	-57.7	3.7	0.00e+00	0	48	104	3061841920	76	26362
2026-01-20 08:25:14.23	333.60	13.81	-52.7	-57.8	3.7	0.00e+00	0	47	104	3061841920	76	26585
2026-01-20 08:25:15.22	333.70	13.69	-53.2	-58.2	3.7	0.00e+00	0	47	104	3061841920	77	26378
2026-01-20 08:25:16.22	333.79	13.57	-52.6	-57.7	3.7	0.00e+00	0	47	104	3061841920	77	25056
2026-01-20 08:25:17.22	333.88	13.45	-52.5	-57.7	3.7	0.00e+00	0	48	104	3061841920	76	26422
2026-01-20 08:25:18.22	333.98	13.33	-52.8	-57.9	3.7	0.00e+00	0	47	104	3061841920	76	27024
2026-01-20 08:25:19.21	334.07	13.21	-53.0	-58.1	3.7	0.00e+00	0	47	104	3061841920	76	27622
2026-01-20 08:25:20.21	334.16	13.09	-53.2	-58.2	3.7	0.00e+00	0	47	104	3061841920	77	26491
2026-01-20 08:25:21.21	334.25	12.97	-53.4	-58.3	3.7	0.00e+00	0	47	104	3061841920	77	26810
2026-01-20 08:25:22.20	334.34	12.85	-53.5	-58.4	3.7	0.00e+00	0	47	104	3061841920	77	26971
2026-01-20 08:25:23.20	334.43	12.74	-53.5	-58.3	3.7	0.00e+00	0	47	104	3061841920	77	26755
2026-01-20 08:25:24.20	334.52	12.62	-53.3	-58.2	3.7	0.00e+00	0	47	104	3061841920	77	26284
2026-01-20 08:25:25.19	334.60	12.51	-52.5	-57.7	3.7	0.00e+00	0	47	104	3061841920	76	26461
2026-01-20 08:25:26.19	334.69	12.39	-52.6	-57.7	3.7	0.00e+00	0	47	104	3061841920	76	26549
2026-01-20 08:25:27.18	334.77	12.28	-52.7	-57.8	3.7	0.00e+00	0	47	104	3061841920	76	26843
2026-01-20 08:25:28.18	334.86	12.16	-52.8	-57.9	3.7	0.00e+00	0	48	104	3061841920	76	27003
2026-01-20 08:25:29.18	334.94	12.05	-53.1	-58.0	3.7	0.00e+00	0	47	104	3061841920	76	27500
2026-01-20 08:25:30.17	335.02	11.94	-53.2	-58.1	3.7	0.00e+00	0	48	104	3061841920	76	27628
2026-01-20 08:25:31.17	335.11	11.83	-53.2	-58.1	3.7	0.00e+00	0	48	104	3061841920	77	26206
2026-01-20 08:25:32.18	335.19	11.72	-53.2	-58.2	3.7	0.00e+00	0	47	104	3061841920	77	26321
2026-01-20 08:25:33.18	335.27	11.61	-53.3	-58.2	3.7	0.00e+00	0	47	104	3061841920	77	26546
2026-01-20 08:25:34.17	335.35	11.50	-52.9	-57.9	3.7	0.00e+00	0	47	104	3061841920	77	25656
2026-01-20 08:25:35.17	335.43	11.39	-53.2	-58.2	3.7	0.00e+00	0	47	104	3061841920	77	26318
2026-01-20 08:25:36.17	335.51	11.28	-53.1	-58.0	3.7	0.00e+00	0	48	104	3061841920	77	25919
2026-01-20 08:25:37.17	335.59	11.17	-52.3	-57.7	3.7	0.00e+00	0	47	104	3061841920	76	26306
2026-01-20 08:25:38.17	335.67	11.06	-53.4	-58.3	3.7	0.00e+00	0	48	104	3061841920	77	26780
2026-01-20 08:25:39.17	335.74	10.96	-52.2	-57.5	3.7	0.00e+00	0	47	104	3061841920	76	25856
2026-01-20 08:25:40.17	335.82	10.85	-51.3	-56.9	3.7	0.00e+00	0	48	104	3061841920	74	27190
2026-01-20 08:25:41.17	335.89	10.75	-51.7	-57.2	3.7	0.00e+00	0	47	104	3061841920	74	28142
2026-01-20 08:25:42.17	335.97	10.64	-51.6	-57.2	3.7	0.00e+00	0	47	104	3061841920	74	28071
2026-01-20 08:25:43.16	336.04	10.54	-51.7	-57.2	3.7	0.00e+00	0	48	104	3061841920	74	28031
2026-01-20 08:25:44.16	336.12	10.43	-51.6	-57.3	3.7	0.00e+00	0	48	104	3061841920	74	28208
2026-01-20 08:25:45.16	336.19	10.33	-51.6	-57.3	3.7	0.00e+00	0	48	104	3061841920	74	28163
2026-01-20 08:25:46.16	336.26	10.23	-51.2	-57.0	3.7	0.00e+00	0	47	104	3061841920	74	27304
2026-01-20 08:25:47.16	336.34	10.13	-51.8	-57.3	3.7	0.00e+00	0	48	104	3061841920	74	28462
2026-01-20 08:25:48.15	336.41	10.02	-51.7	-57.3	3.7	0.00e+00	0	47	104	3061841920	74	28236
2026-01-20 08:25:49.15	336.48	9.92	-50.9	-56.7	3.7	0.00e+00	0	47	104	3061841920	73	28062
2026-01-20 08:25:50.15	336.55	9.82	-50.5	-56.4	3.7	0.00e+00	0	47	104	3061841920	72	28692
2026-01-20 08:25:51.15	336.62	9.72	-51.5	-57.1	3.7	0.00e+00	0	47	104	3061841920	73	29321
2026-01-20 08:25:52.14	336.69	9.62	-50.6	-56.5	3.7	0.00e+00	0	47	104	3061841920	73	27295
2026-01-20 08:25:53.14	336.76	9.52	-50.8	-56.7	3.7	0.00e+00	0	48	104	3061841920	73	27969
2026-01-20 08:25:54.14	336.82	9.43	-50.9	-56.7	3.7	0.00e+00	0	48	104	3061841920	73	28040
2026-01-20 08:25:55.13	336.89	9.33	-51.1	-56.9	3.7	0.00e+00	0	48	104	3061841920	73	28596
2026-01-20 08:25:56.13	336.96	9.23	-51.2	-57.0	3.7	0.00e+00	0	48	104	3061841920	73	28871
2026-01-20 08:25:57.13	337.02	9.13	-51.2	-57.0	3.7	0.00e+00	0	47	104	3061841920	73	29024
2026-01-20 08:25:58.12	337.09	9.04	-51.6	-57.2	3.7	0.00e+00	0	48	104	3061841920	73	29814
2026-01-20 08:25:59.12	337.16	8.94	-51.4	-57.2	3.7	0.00e+00	0	48	104	3061841920	73	29620
2026-01-20 08:26:00.11	337.22	8.85	-53.0	-58.2	3.7	0.00e+00	0	48	104	3061841920	77	26292
2026-01-20 08:26:01.11	337.28	8.75	-53.1	-58.3	3.7	0.00e+00	0	47	104	3061841920	78	25147
2026-01-20 08:26:02.11	337.35	8.66	-54.1	-58.7	3.7	0.00e+00	0	47	104	3061841920	78	26442
2026-01-20 08:26:03.10	337.41	8.56	-53.5	-58.6	3.7	0.00e+00	0	47	104	3061841920	77	27660
2026-01-20 08:26:04.10	337.48	8.47	-51.6	-57.4	3.7	0.00e+00	0	48	104	3061841920	75	27180
2026-01-20 08:26:05.10	337.54	8.38	-52.4	-57.9	3.7	0.00e+00	0	48	104	3061841920	76	26970
2026-01-20 08:26:06.10	337.60	8.28	-54.3	-59.2	3.7	0.00e+00	0	47	104	3061841920	79	26283
2026-01-20 08:26:07.09	337.66	8.19	-54.1	-59.0	3.6	0.00e+00	0	47	104	3061841920	78	27268
2026-01-20 08:26:08.10	337.72	8.10	-52.9	-58.4	3.7	0.00e+00	0	48	104	3061841920	77	27121
2026-01-20 08:26:09.09	337.78	8.01	-54.0	-59.0	3.7	0.00e+00	0	48	104	3061841920	79	25869
2026-01-20 08:26:10.09	337.84	7.92	-54.8	-59.3	3.7	0.00e+00	0	48	104	3061841920	80	25324
2026-01-20 08:26:11.09	337.90	7.83	-54.8	-59.5	3.7	0.00e+00	0	47	104	3061841920	80	25700
2026-01-20 08:26:12.09	337.96	7.74	-54.8	-59.5	3.7	0.00e+00	0	47	104	3061841920	80	25789
2026-01-20 08:26:13.09	338.02	7.65	-55.1	-59.7	3.7	0.00e+00	0	47	104	3061841920	80	26338
2026-01-20 08:26:14.08	338.08	7.56	-55.0	-59.6	3.7	0.00e+00	0	48	104	3061841920	81	24745
2026-01-20 08:26:15.08	338.14	7.47	-54.8	-59.5	3.7	0.00e+00	0	47	104	3061841920	80	25726
2026-01-20 08:26:16.08	338.20	7.38	-54.8	-59.5	3.7	0.00e+00	0	47	104	3061841920	81	24415
2026-01-20 08:26:17.07	338.25	7.29	-54.8	-59.5	3.7	0.00e+00	0	47	104	3061841920	81	24374
2026-01-20 08:26:18.07	338.31	7.20	-55.1	-59.6	3.7	0.00e+00	0	48	104	3061841920	81	24742
2026-01-20 08:26:19.06	338.37	7.12	-54.9	-59.4	3.7	0.00e+00	0	48	104	3061841920	81	24204
2026-01-20 08:26:20.06	338.42	7.03	-54.8	-59.4	3.7	0.00e+00	0	48	104	3061841920	81	24000
2026-01-20 08:26:21.06	338.48	6.94	-54.9	-59.4	3.7	0.00e+00	0	48	104	3061841920	81	24162
2026-01-20 08:26:22.06	338.53	6.86	-54.6	-59.1	3.7	0.00e+00	0	48	104	3061841920	81	23176
2026-01-20 08:26:23.06	338.59	6.77	-54.7	-59.1	3.7	0.00e+00	0	47	104	3061841920	80	24635
2026-01-20 08:26:24.06	338.64	6.68	-54.4	-59.0	3.7	0.00e+00	0	48	104	3061841920	80	24303
2026-01-20 08:26:25.05	338.70	6.60	-54.4	-58.9	3.7	0.00e+00	0	48	104	3061841920	80	24216
2026-01-20 08:26:26.05	338.75	6.51	-54.4	-59.0	3.7	0.00e+00	0	48	104	3061841920	80	24269
2026-01-20 08:26:27.05	338.81	6.43	-54.4	-58.9	3.7	0.00e+00	0	47	104	3061841920	80	24220
2026-01-20 08:26:28.05	338.86	6.35	-54.4	-59.0	3.7	0.00e+00	0	48	104	3061841920	80	24262
2026-01-20 08:26:29.05	338.91	6.26	-54.4	-59.0	3.7	0.00e+00	0	48	104	3061841920	80	24273
2026-01-20 08:26:30.04	338.96	6.18	-54.4	-59.0	3.7	0.00e+00	0	47	104	3061841920	80	24275
2026-01-20 08:26:31.04	339.02	6.10	-54.4	-59.0	3.7	0.00e+00	0	48	104	3061841920	80	24381
2026-01-20 08:26:32.04	339.07	6.01	-54.5	-59.0	3.7	0.00e+00	0	48	104	3061841920	80	24405
2026-01-20 08:26:33.03	339.12	5.93	-54.5	-59.0	3.7	0.00e+00	0	47	104	3061841920	80	24398
2026-01-20 08:26:34.03	339.17	5.85	-54.5	-59.0	3.7	0.00e+00	0	47	104	3061841920	80	24408
2026-01-20 08:26:35.03	339.22	5.77	-54.5	-59.0	3.7	0.00e+00	0	47	104	3061841920	80	24274
2026-01-20 08:26:36.02	339.27	5.69	-54.5	-59.0	3.7	0.00e+00	0	48	104	3061841920	80	24452
2026-01-20 08:26:37.02	339.32	5.61	-54.5	-59.1	3.7	0.00e+00	0	48	104	3061841920	80	24541
2026-01-20 08:26:38.02	339.37	5.52	-54.5	-59.0	3.7	0.00e+00	0	47	104	3061841920	80	24491
2026-01-20 08:26:39.01	339.42	5.45	-54.5	-59.1	3.7	0.00e+00	0	47	104	3061841920	80	24580
2026-01-20 08:26:40.01	339.47	5.36	-54.5	-59.0	3.7	0.00e+00	0	47	104	3061841920	80	24496
2026-01-20 08:26:41.01	339.52	5.28	-54.5	-59.1	3.7	0.00e+00	0	47	104	3061841920	80	24543
2026-01-20 08:26:42.00	339.57	5.21	-54.5	-59.1	3.7	0.00e+00	0	48	104	3061841920	80	24583
2026-01-20 08:26:43.00	339.61	5.13	-54.5	-59.1	3.7	0.00e+00	0	47	104	3061841920	80	24566
2026-01-20 08:26:44.00	339.66	5.05	-54.5	-59.1	3.7	0.00e+00	0	48	104	3061841920	80	24578
2026-01-20 08:26:44.99	339.71	4.97	-54.6	-59.1	3.7	0.00e+00	0	47	104	3061841920	80	24631

#Closed at: 2026-01-20 08:26:45
#Recorded file [3061 MB]: D:/Data/31040_260120_111748.dat