passes_logs/2026/01/20/T1/T1__20260120_111312_SUOMI_NPP_rec.log

#Pass ID: 20260120_111312_SUOMI NPP
#Satellite: SUOMI NPP
#Configuration: NPP
#almurnet v.1.7.20251203
#Start time: 2026-01-20 11:13:13

#Version: 2.0.20230620
#Station: T1
#Location: 37.570604 lon 55.790049 lat
#TLE: 1 37849U 11061A   26019.61507914  .00000076  00000+0  57195-4 0  9994
#TLE: 2 37849  98.7817 321.6240 0002347  55.5899 304.5499 14.19526391737369

#Time	Az	El	Level	Level2	SNR	BER	BlckErr	Temp	State	Recorded	gain1	gain2
2026-01-20 11:13:13.56	199.64	5.05	-49.3	-65.1	3.8	1.49e+00	0	41	0	0	70	22003
2026-01-20 11:13:14.55	199.70	5.12	-49.2	-65.1	3.8	1.49e+00	0	41	104	0	69	23123
2026-01-20 11:13:15.54	199.77	5.18	-49.2	-65.1	3.8	1.49e+00	0	42	104	0	69	23212
2026-01-20 11:13:16.53	199.84	5.25	-49.2	-65.1	3.8	1.49e+00	0	42	104	0	69	23248
2026-01-20 11:13:17.53	199.91	5.31	-49.2	-65.1	3.8	1.49e+00	0	42	104	0	69	23161
2026-01-20 11:13:18.52	199.98	5.37	-49.2	-65.2	3.8	1.49e+00	0	42	104	0	69	23317
2026-01-20 11:13:19.52	200.05	5.44	-49.2	-65.1	3.8	1.49e+00	0	41	104	0	69	23218
2026-01-20 11:13:20.51	200.12	5.50	-49.2	-65.1	3.8	1.49e+00	0	42	104	0	69	23301
2026-01-20 11:13:21.50	200.19	5.57	-49.2	-65.1	3.8	1.49e+00	0	42	104	0	69	23206
2026-01-20 11:13:22.50	200.26	5.63	-49.2	-65.1	3.8	1.49e+00	0	42	104	0	69	23148
2026-01-20 11:13:23.49	200.34	5.70	-49.2	-65.1	3.8	1.49e+00	0	42	104	0	69	23122
2026-01-20 11:13:24.48	200.41	5.76	-49.2	-65.1	3.8	1.49e+00	0	42	104	0	69	23068
2026-01-20 11:13:25.48	200.48	5.83	-49.2	-65.0	3.8	1.49e+00	0	42	104	0	69	23035
2026-01-20 11:13:26.47	200.55	5.89	-49.2	-65.0	3.8	1.49e+00	0	42	104	0	69	22792
2026-01-20 11:13:27.47	200.62	5.96	-49.2	-64.9	3.8	1.49e+00	0	42	104	0	69	22551
2026-01-20 11:13:28.46	200.70	6.02	-49.2	-64.8	3.8	1.49e+00	0	42	104	0	69	22383
2026-01-20 11:13:29.45	200.77	6.09	-49.2	-64.7	3.8	1.49e+00	0	42	104	0	69	22251
2026-01-20 11:13:30.45	200.84	6.16	-49.2	-64.7	3.8	1.49e+00	0	42	104	0	69	22163
2026-01-20 11:13:31.44	200.92	6.22	-49.3	-64.8	3.8	1.49e+00	0	42	104	0	69	22329
2026-01-20 11:13:32.43	200.99	6.29	-49.3	-64.8	3.8	1.49e+00	0	42	104	0	69	22489
2026-01-20 11:13:33.43	201.07	6.36	-49.3	-64.9	3.8	1.49e+00	0	42	104	0	69	22584
2026-01-20 11:13:34.42	201.14	6.42	-49.3	-64.9	3.8	1.49e+00	0	42	104	0	69	22680
2026-01-20 11:13:35.41	201.22	6.49	-49.2	-64.9	3.8	1.49e+00	0	42	104	0	69	22621
2026-01-20 11:13:36.41	201.29	6.55	-49.2	-64.9	3.8	1.49e+00	0	42	104	0	69	22563
2026-01-20 11:13:37.40	201.37	6.62	-49.2	-64.8	3.8	1.49e+00	0	42	104	0	69	22499
2026-01-20 11:13:38.39	201.44	6.69	-49.2	-64.8	3.8	1.49e+00	0	42	104	0	69	22511
2026-01-20 11:13:39.39	201.52	6.76	-49.2	-64.8	3.8	1.49e+00	0	42	104	0	69	22338
2026-01-20 11:13:40.38	201.60	6.82	-49.3	-64.8	3.8	1.49e+00	0	42	104	0	69	22390
2026-01-20 11:13:41.37	201.67	6.89	-49.3	-64.8	3.8	1.49e+00	0	43	104	0	69	22309
2026-01-20 11:13:42.37	201.75	6.96	-49.3	-64.8	3.8	1.49e+00	0	42	104	0	69	22373
2026-01-20 11:13:43.36	201.83	7.02	-49.3	-64.9	3.8	1.49e+00	0	42	104	0	69	22532
2026-01-20 11:13:44.35	201.91	7.09	-49.3	-64.9	3.8	1.49e+00	0	43	104	0	69	22694
2026-01-20 11:13:45.35	201.99	7.16	-49.3	-65.0	3.8	1.49e+00	0	43	104	0	69	22882
2026-01-20 11:13:46.34	202.07	7.23	-49.3	-64.9	3.8	1.49e+00	0	42	104	0	69	22769
2026-01-20 11:13:47.33	202.15	7.30	-49.2	-64.7	3.8	1.49e+00	0	42	104	0	69	22065
2026-01-20 11:13:48.33	202.23	7.36	-49.2	-64.2	3.8	1.49e+00	0	43	104	0	69	21008
2026-01-20 11:13:49.32	202.31	7.43	-49.2	-63.8	3.8	1.49e+00	0	43	104	0	69	19887
2026-01-20 11:13:50.32	202.39	7.50	-48.9	-63.4	3.8	1.49e+00	0	43	104	0	69	19103
2026-01-20 11:13:51.31	202.47	7.57	-49.2	-63.4	3.8	1.49e+00	0	43	104	0	69	18981
2026-01-20 11:13:52.31	202.55	7.64	-49.2	-63.8	3.8	1.49e+00	0	43	104	0	69	20009
2026-01-20 11:13:53.30	202.63	7.71	-49.2	-64.7	3.8	1.49e+00	0	43	104	0	69	22119
2026-01-20 11:13:54.29	202.71	7.78	-49.3	-65.1	3.8	1.49e+00	0	43	104	0	69	23295
2026-01-20 11:13:55.29	202.79	7.85	-49.2	-63.6	3.8	1.49e+00	0	43	104	0	69	19436
2026-01-20 11:13:56.28	202.88	7.92	-48.9	-60.2	4.7	1.45e+00	0	43	0	0	69	13168
2026-01-20 11:13:57.27	202.96	7.99	-48.5	-57.1	6.7	2.85e-01	0	43	0	2097152	69	9222
2026-01-20 11:13:58.27	203.04	8.06	-47.7	-54.4	9.1	4.74e-02	0	43	0	4194304	67	7600
2026-01-20 11:13:59.26	203.13	8.13	-47.1	-52.6	11.0	6.21e-03	0	43	0	5242880	66	6506
2026-01-20 11:14:00.25	203.21	8.19	-46.4	-51.1	12.6	9.26e-04	0	43	0	7340032	64	6188
2026-01-20 11:14:01.25	203.30	8.27	-45.9	-50.1	13.8	1.22e-05	0	43	0	9437184	63	5794
2026-01-20 11:14:02.24	203.38	8.34	-45.6	-49.5	14.3	1.50e-06	0	43	0	11534336	63	5433
2026-01-20 11:14:03.24	203.47	8.41	-45.2	-48.8	15.0	7.00e-07	0	43	0	13631488	62	5287
2026-01-20 11:14:04.23	203.55	8.48	-45.1	-48.6	15.2	0.00e+00	0	43	0	14680064	62	5177
2026-01-20 11:14:05.22	203.64	8.55	-45.4	-49.2	14.7	0.00e+00	0	43	0	16777216	62	5534
2026-01-20 11:14:06.22	203.72	8.62	-45.6	-49.5	14.2	7.00e-07	0	43	0	18874368	62	5766
2026-01-20 11:14:07.21	203.81	8.69	-46.1	-50.4	13.4	2.20e-06	0	43	0	20971520	62	6383
2026-01-20 11:14:08.21	203.90	8.76	-46.5	-51.2	12.6	3.20e-05	0	43	0	22020096	63	6609
2026-01-20 11:14:09.20	203.99	8.83	-47.1	-52.5	11.2	7.94e-04	0	43	0	24117248	64	7257
2026-01-20 11:14:10.19	204.07	8.90	-47.6	-53.9	9.7	4.33e-03	0	43	0	26214400	65	8082
2026-01-20 11:14:11.18	204.16	8.97	-48.1	-55.6	8.0	2.12e-02	0	43	0	28311552	66	9223
2026-01-20 11:14:12.18	204.25	9.05	-48.3	-56.9	6.8	1.68e-01	0	43	0	30408704	67	10103
2026-01-20 11:14:13.17	204.34	9.12	-46.2	-50.5	13.4	1.62e-04	0	43	0	31457280	63	6122
2026-01-20 11:14:14.17	204.43	9.19	-49.0	-62.2	3.9	6.17e-01	0	43	104	32505856	68	17507
2026-01-20 11:14:15.16	204.52	9.26	-48.5	-56.6	7.3	1.08e-01	0	43	0	33554432	68	9224
2026-01-20 11:14:16.16	204.61	9.33	-46.3	-50.6	13.4	4.27e-05	0	43	0	34603008	63	6151
2026-01-20 11:14:17.15	204.70	9.41	-49.0	-61.0	4.4	5.30e-01	0	43	0	36700160	68	15245
2026-01-20 11:14:18.15	204.80	9.48	-46.1	-50.3	13.4	1.02e-01	0	43	0	38797312	63	5968
2026-01-20 11:14:19.14	204.89	9.55	-45.4	-49.2	14.5	3.90e-04	0	43	0	40894464	62	5535
2026-01-20 11:14:20.14	204.98	9.63	-45.3	-48.9	14.7	1.50e-06	0	43	0	42991616	62	5364
2026-01-20 11:14:21.13	205.07	9.70	-45.1	-48.7	15.0	0.00e+00	0	43	0	44040192	62	5255
2026-01-20 11:14:22.13	205.17	9.77	-45.2	-48.8	14.9	7.00e-07	0	43	0	46137344	62	5280
2026-01-20 11:14:23.12	205.26	9.85	-45.0	-48.5	15.3	0.00e+00	0	43	0	48234496	62	5122
2026-01-20 11:14:24.12	205.36	9.92	-44.9	-48.3	15.6	0.00e+00	0	43	0	50331648	61	5280
2026-01-20 11:14:25.11	205.45	9.99	-44.9	-48.2	15.7	0.00e+00	0	43	0	52428800	61	5245
2026-01-20 11:14:26.11	205.55	10.07	-44.8	-48.0	15.9	0.00e+00	0	43	0	53477376	61	5150
2026-01-20 11:14:27.10	205.64	10.14	-44.4	-47.4	16.6	0.00e+00	0	43	0	55574528	60	5050
2026-01-20 11:14:28.10	205.74	10.22	-44.1	-47.0	16.9	0.00e+00	0	43	0	57671680	60	4822
2026-01-20 11:14:29.09	205.83	10.29	-44.0	-46.9	17.0	2.22e-04	0	43	0	59768832	60	4779
2026-01-20 11:14:30.09	205.93	10.36	-44.0	-46.7	17.1	0.00e+00	0	43	0	60817408	59	4943
2026-01-20 11:14:31.08	206.03	10.44	-43.8	-46.5	17.3	0.00e+00	0	43	0	62914560	59	4845
2026-01-20 11:14:32.08	206.13	10.51	-43.8	-46.4	17.4	0.00e+00	0	43	0	65011712	59	4795
2026-01-20 11:14:33.07	206.23	10.59	-43.8	-46.5	17.3	0.00e+00	0	43	0	67108864	59	4845
2026-01-20 11:14:34.07	206.33	10.66	-43.8	-46.6	17.2	0.00e+00	0	43	0	69206016	59	4875
2026-01-20 11:14:35.06	206.42	10.74	-43.6	-46.2	17.5	0.00e+00	0	43	0	70254592	59	4692
2026-01-20 11:14:36.06	206.52	10.82	-43.7	-46.4	17.3	0.00e+00	0	43	0	72351744	59	4804
2026-01-20 11:14:37.05	206.62	10.89	-44.0	-46.8	17.0	0.00e+00	0	43	0	74448896	59	4989
2026-01-20 11:14:38.05	206.73	10.97	-43.7	-46.5	17.2	0.00e+00	0	43	0	76546048	59	4829
2026-01-20 11:14:39.04	206.83	11.04	-44.0	-46.8	16.9	0.00e+00	0	43	0	77594624	59	5012
2026-01-20 11:14:40.04	206.93	11.12	-44.0	-46.7	17.0	0.00e+00	0	43	0	79691776	59	4968
2026-01-20 11:14:41.03	207.03	11.19	-44.1	-46.9	16.9	0.00e+00	0	43	0	81788928	59	5091
2026-01-20 11:14:42.03	207.14	11.27	-44.1	-46.9	17.0	0.00e+00	0	43	0	83886080	59	5049
2026-01-20 11:14:43.02	207.24	11.35	-44.3	-47.2	16.7	0.00e+00	0	43	0	85983232	59	5230
2026-01-20 11:14:44.02	207.34	11.42	-44.2	-47.0	16.8	0.00e+00	0	43	0	87031808	59	5146
2026-01-20 11:14:45.01	207.45	11.50	-44.1	-46.8	17.0	0.00e+00	0	43	0	89128960	59	5040
2026-01-20 11:14:46.01	207.55	11.58	-44.2	-47.0	16.9	0.00e+00	0	43	0	91226112	59	5128
2026-01-20 11:14:47.00	207.66	11.66	-44.3	-47.1	16.8	0.00e+00	0	43	0	93323264	59	5177
2026-01-20 11:14:48.00	207.77	11.73	-44.0	-46.7	17.2	1.50e-04	0	43	0	94371840	59	4969
2026-01-20 11:14:48.99	207.87	11.81	-44.1	-46.8	17.1	0.00e+00	0	43	0	96468992	59	5009
2026-01-20 11:14:49.99	207.98	11.89	-43.8	-46.5	17.4	0.00e+00	0	43	0	98566144	59	4817
2026-01-20 11:14:50.99	208.09	11.97	-43.8	-46.4	17.4	0.00e+00	0	43	0	100663296	59	4802
2026-01-20 11:14:51.98	208.20	12.04	-43.6	-46.2	17.6	0.00e+00	0	43	0	102760448	59	4664
2026-01-20 11:14:52.97	208.31	12.12	-43.5	-46.1	17.7	0.00e+00	0	43	0	103809024	59	4607
2026-01-20 11:14:53.97	208.42	12.20	-43.6	-46.2	17.6	0.00e+00	0	43	0	105906176	58	4943
2026-01-20 11:14:54.96	208.53	12.28	-43.5	-46.1	17.7	0.00e+00	0	44	0	108003328	58	4883
2026-01-20 11:14:55.96	208.64	12.36	-43.3	-45.8	17.9	0.00e+00	0	43	0	110100480	58	4737
2026-01-20 11:14:56.95	208.75	12.44	-43.4	-45.8	17.9	0.00e+00	0	43	0	111149056	58	4752
2026-01-20 11:14:57.95	208.86	12.52	-43.6	-46.2	17.7	0.00e+00	0	43	0	113246208	58	4928
2026-01-20 11:14:58.94	208.97	12.59	-43.4	-45.9	17.9	0.00e+00	0	43	0	115343360	58	4810
2026-01-20 11:14:59.94	209.09	12.67	-43.5	-46.0	17.8	0.00e+00	0	44	0	117440512	58	4860
2026-01-20 11:15:00.93	209.20	12.75	-43.6	-46.1	17.8	0.00e+00	0	44	0	119537664	58	4903
2026-01-20 11:15:01.93	209.31	12.83	-43.4	-45.8	18.0	0.00e+00	0	44	0	120586240	58	4759
2026-01-20 11:15:02.92	209.43	12.91	-43.5	-46.0	17.9	0.00e+00	0	44	0	122683392	58	4861
2026-01-20 11:15:03.92	209.54	12.99	-43.6	-46.1	17.8	0.00e+00	0	43	0	124780544	58	4891
2026-01-20 11:15:04.91	209.66	13.07	-43.5	-46.0	17.9	0.00e+00	0	44	0	126877696	58	4857
2026-01-20 11:15:05.90	209.78	13.15	-43.6	-46.2	17.7	0.00e+00	0	44	0	127926272	58	4946
2026-01-20 11:15:06.90	209.89	13.23	-43.8	-46.4	17.5	0.00e+00	0	43	0	130023424	58	5065
2026-01-20 11:15:07.89	210.01	13.31	-43.7	-46.3	17.6	0.00e+00	0	43	0	132120576	58	4991
2026-01-20 11:15:08.89	210.13	13.39	-43.8	-46.4	17.6	0.00e+00	0	43	0	134217728	58	5071
2026-01-20 11:15:09.88	210.25	13.47	-43.9	-46.6	17.4	0.00e+00	0	43	0	136314880	58	5165
2026-01-20 11:15:10.88	210.37	13.56	-44.0	-46.6	17.4	0.00e+00	0	43	0	137363456	58	5180
2026-01-20 11:15:11.87	210.49	13.64	-44.0	-46.7	17.3	0.00e+00	0	43	0	139460608	58	5231
2026-01-20 11:15:12.87	210.61	13.72	-44.1	-46.8	17.2	0.00e+00	0	43	0	141557760	58	5318
2026-01-20 11:15:13.86	210.73	13.80	-44.0	-46.6	17.3	0.00e+00	0	43	0	143654912	58	5160
2026-01-20 11:15:14.86	210.86	13.88	-43.9	-46.4	17.5	0.00e+00	0	43	0	144703488	58	5098
2026-01-20 11:15:15.85	210.98	13.96	-44.1	-46.7	17.3	0.00e+00	0	44	0	146800640	58	5252
2026-01-20 11:15:16.85	211.10	14.04	-44.0	-46.6	17.3	0.00e+00	0	44	0	148897792	58	5198
2026-01-20 11:15:17.84	211.23	14.13	-43.6	-46.1	17.8	0.00e+00	0	44	0	150994944	58	4911
2026-01-20 11:15:18.84	211.35	14.21	-43.8	-46.3	17.7	0.00e+00	0	44	0	153092096	58	4998
2026-01-20 11:15:19.83	211.48	14.29	-43.7	-46.2	17.8	0.00e+00	0	43	0	154140672	58	4963
2026-01-20 11:15:20.83	211.60	14.37	-43.7	-46.2	17.8	0.00e+00	0	43	0	156237824	58	4933
2026-01-20 11:15:21.82	211.73	14.46	-43.8	-46.3	17.6	0.00e+00	0	43	0	158334976	58	5025
2026-01-20 11:15:22.82	211.86	14.54	-43.8	-46.4	17.6	0.00e+00	0	44	0	160432128	58	5058
2026-01-20 11:15:23.81	211.99	14.62	-43.9	-46.4	17.6	0.00e+00	0	44	0	161480704	58	5099
2026-01-20 11:15:24.81	212.12	14.71	-44.1	-46.8	17.3	0.00e+00	0	43	0	163577856	58	5282
2026-01-20 11:15:25.81	212.25	14.79	-44.4	-47.2	16.9	0.00e+00	0	44	0	165675008	59	5240
2026-01-20 11:15:26.80	212.38	14.87	-44.3	-47.1	16.9	0.00e+00	0	44	0	167772160	59	5202
2026-01-20 11:15:27.80	212.51	14.96	-44.4	-47.2	16.9	0.00e+00	0	43	0	169869312	59	5220
2026-01-20 11:15:28.79	212.64	15.04	-44.3	-47.1	17.0	0.00e+00	0	43	0	170917888	59	5163
2026-01-20 11:15:29.78	212.77	15.12	-44.1	-46.9	17.2	0.00e+00	0	44	0	173015040	59	5055
2026-01-20 11:15:30.78	212.91	15.21	-44.1	-46.8	17.2	0.00e+00	0	43	0	175112192	59	5038
2026-01-20 11:15:31.77	213.04	15.29	-44.1	-46.8	17.3	0.00e+00	0	43	0	177209344	59	4989
2026-01-20 11:15:32.76	213.17	15.38	-44.0	-46.6	17.3	0.00e+00	0	43	0	178257920	59	4919
2026-01-20 11:15:33.76	213.31	15.46	-43.9	-46.5	17.5	0.00e+00	0	44	0	180355072	59	4849
2026-01-20 11:15:34.76	213.45	15.55	-44.0	-46.6	17.3	0.00e+00	0	44	0	182452224	59	4923
2026-01-20 11:15:35.75	213.58	15.63	-43.9	-46.5	17.5	2.20e-06	0	43	0	184549376	59	4819
2026-01-20 11:15:36.75	213.72	15.72	-43.9	-46.5	17.4	1.13e-04	0	44	0	186646528	59	4845
2026-01-20 11:15:37.74	213.86	15.80	-44.1	-46.8	17.1	3.00e-06	0	44	0	187695104	59	5006
2026-01-20 11:15:38.73	214.00	15.88	-44.1	-46.7	17.2	5.26e-05	0	43	0	189792256	59	4956
2026-01-20 11:15:39.73	214.14	15.97	-44.2	-46.9	17.1	7.60e-06	0	44	0	191889408	59	5074
2026-01-20 11:15:40.72	214.28	16.06	-44.3	-47.1	17.0	7.00e-07	0	44	0	193986560	59	5170
2026-01-20 11:15:41.72	214.42	16.14	-44.4	-47.1	16.8	8.30e-06	0	44	0	195035136	59	5207
2026-01-20 11:15:42.71	214.57	16.23	-44.4	-47.2	16.9	0.00e+00	0	44	0	197132288	59	5233
2026-01-20 11:15:43.71	214.71	16.31	-44.4	-47.2	16.8	7.00e-07	0	44	0	199229440	59	5255
2026-01-20 11:15:44.70	214.85	16.40	-44.4	-47.3	16.8	0.00e+00	0	44	0	201326592	59	5304
2026-01-20 11:15:45.70	215.00	16.49	-44.4	-47.3	16.8	2.20e-06	0	44	0	203423744	59	5306
2026-01-20 11:15:46.69	215.14	16.57	-44.4	-47.3	16.7	4.50e-06	0	44	0	204472320	59	5281
2026-01-20 11:15:47.68	215.29	16.66	-44.5	-47.4	16.7	2.69e-04	0	44	0	206569472	59	5351
2026-01-20 11:15:48.68	215.44	16.74	-44.5	-47.4	16.6	7.00e-07	0	44	0	208666624	59	5391
2026-01-20 11:15:49.67	215.59	16.83	-44.5	-47.4	16.5	5.48e-04	0	44	0	210763776	59	5343
2026-01-20 11:15:50.67	215.74	16.92	-44.5	-47.3	16.6	1.05e-03	0	44	0	211812352	59	5299
2026-01-20 11:15:51.66	215.88	17.00	-44.3	-47.0	17.0	0.00e+00	0	44	0	213909504	59	5156
2026-01-20 11:15:52.66	216.04	17.09	-44.3	-47.1	17.1	0.00e+00	0	44	0	216006656	59	5172
2026-01-20 11:15:53.66	216.19	17.18	-44.1	-46.8	17.3	0.00e+00	0	44	0	218103808	59	5024
2026-01-20 11:15:54.65	216.34	17.27	-43.9	-46.6	17.5	0.00e+00	0	44	0	220200960	59	4880
2026-01-20 11:15:55.65	216.49	17.35	-43.9	-46.5	17.6	0.00e+00	0	44	0	221249536	59	4842
2026-01-20 11:15:56.64	216.65	17.44	-43.8	-46.4	17.7	0.00e+00	0	44	0	223346688	59	4788
2026-01-20 11:15:57.64	216.80	17.53	-43.8	-46.4	17.7	0.00e+00	0	44	0	225443840	59	4765
2026-01-20 11:15:58.63	216.96	17.62	-43.8	-46.4	17.7	0.00e+00	0	44	0	227540992	59	4774
2026-01-20 11:15:59.62	217.11	17.70	-43.8	-46.4	17.7	0.00e+00	0	44	0	228589568	59	4796
2026-01-20 11:16:00.62	217.27	17.79	-43.8	-46.4	17.7	0.00e+00	0	44	0	230686720	59	4764
2026-01-20 11:16:01.61	217.43	17.88	-43.8	-46.4	17.7	0.00e+00	0	44	0	232783872	59	4783
2026-01-20 11:16:02.61	217.59	17.97	-43.7	-46.3	17.9	0.00e+00	0	44	0	234881024	59	4724
2026-01-20 11:16:03.60	217.75	18.06	-43.7	-46.3	17.8	0.00e+00	0	44	0	236978176	59	4713
2026-01-20 11:16:04.60	217.91	18.15	-43.6	-46.0	18.1	0.00e+00	0	44	0	238026752	58	4864
2026-01-20 11:16:05.59	218.07	18.23	-43.4	-45.9	18.2	0.00e+00	0	43	0	240123904	58	4783
2026-01-20 11:16:06.59	218.24	18.32	-43.4	-45.9	18.2	0.00e+00	0	44	0	242221056	58	4781
2026-01-20 11:16:07.58	218.40	18.41	-43.6	-46.1	18.1	0.00e+00	0	44	0	244318208	58	4912
2026-01-20 11:16:08.57	218.57	18.50	-43.6	-46.1	18.0	0.00e+00	0	44	0	246415360	58	4873
2026-01-20 11:16:09.57	218.73	18.59	-43.5	-46.0	18.1	0.00e+00	0	44	0	247463936	58	4851
2026-01-20 11:16:10.56	218.90	18.68	-43.6	-46.1	18.0	0.00e+00	0	44	0	249561088	58	4892
2026-01-20 11:16:11.56	219.07	18.77	-43.6	-46.1	18.0	0.00e+00	0	44	0	251658240	58	4882
2026-01-20 11:16:12.55	219.24	18.85	-43.5	-45.9	18.2	0.00e+00	0	44	0	253755392	58	4804
2026-01-20 11:16:13.55	219.41	18.94	-43.5	-46.0	18.1	0.00e+00	0	44	0	254803968	58	4858
2026-01-20 11:16:14.54	219.58	19.03	-43.5	-45.9	18.2	0.00e+00	0	44	0	256901120	58	4810
2026-01-20 11:16:15.54	219.75	19.12	-43.5	-45.9	18.2	0.00e+00	0	44	0	258998272	58	4795
2026-01-20 11:16:16.53	219.92	19.21	-43.5	-46.0	18.1	0.00e+00	0	44	0	261095424	58	4847
2026-01-20 11:16:17.53	220.10	19.30	-43.5	-45.9	18.2	0.00e+00	0	44	0	263192576	58	4796
2026-01-20 11:16:18.52	220.27	19.39	-43.5	-45.9	18.2	0.00e+00	0	44	0	264241152	58	4788
2026-01-20 11:16:19.52	220.45	19.48	-43.6	-46.0	18.1	0.00e+00	0	44	0	266338304	58	4862
2026-01-20 11:16:20.52	220.62	19.57	-43.5	-45.9	18.2	0.00e+00	0	44	0	268435456	58	4812
2026-01-20 11:16:21.51	220.80	19.66	-43.5	-45.9	18.2	0.00e+00	0	44	0	270532608	58	4796
2026-01-20 11:16:22.51	220.98	19.75	-43.4	-45.9	18.2	0.00e+00	0	44	0	271581184	58	4773
2026-01-20 11:16:23.50	221.16	19.84	-43.3	-45.7	18.4	0.00e+00	0	44	0	273678336	58	4688
2026-01-20 11:16:24.50	221.34	19.93	-43.0	-45.4	18.7	0.00e+00	0	44	0	275775488	58	4496
2026-01-20 11:16:25.49	221.52	20.02	-43.3	-45.7	18.4	0.00e+00	0	44	0	277872640	58	4652
2026-01-20 11:16:26.49	221.71	20.11	-43.2	-45.6	18.5	0.00e+00	0	44	0	279969792	58	4599
2026-01-20 11:16:27.48	221.89	20.20	-42.9	-45.2	18.8	0.00e+00	0	43	0	281018368	57	4694
2026-01-20 11:16:28.48	222.07	20.29	-43.0	-45.4	18.7	0.00e+00	0	44	0	283115520	57	4764
2026-01-20 11:16:29.47	222.26	20.38	-43.0	-45.3	18.7	0.00e+00	0	44	0	285212672	57	4749
2026-01-20 11:16:30.47	222.45	20.47	-43.0	-45.4	18.7	0.00e+00	0	44	0	287309824	57	4764
2026-01-20 11:16:31.47	222.64	20.56	-42.7	-45.0	19.0	0.00e+00	0	44	0	288358400	57	4571
2026-01-20 11:16:32.46	222.82	20.65	-42.8	-45.1	18.9	0.00e+00	0	44	0	290455552	57	4607
2026-01-20 11:16:33.45	223.01	20.74	-42.9	-45.2	18.8	0.00e+00	0	44	0	292552704	57	4680
2026-01-20 11:16:34.45	223.21	20.83	-42.9	-45.2	18.9	0.00e+00	0	44	0	294649856	57	4668
2026-01-20 11:16:35.44	223.40	20.92	-42.8	-45.1	19.0	0.00e+00	0	44	0	296747008	57	4609
2026-01-20 11:16:36.43	223.59	21.01	-42.9	-45.2	18.9	0.00e+00	0	44	0	297795584	57	4662
2026-01-20 11:16:37.43	223.79	21.10	-42.7	-45.0	19.0	0.00e+00	0	44	0	299892736	57	4589
2026-01-20 11:16:38.42	223.98	21.19	-42.5	-44.8	19.2	0.00e+00	0	44	0	301989888	57	4454
2026-01-20 11:16:39.42	224.18	21.28	-42.5	-44.8	19.2	0.00e+00	0	44	0	304087040	57	4458
2026-01-20 11:16:40.41	224.38	21.37	-42.4	-44.7	19.4	0.00e+00	0	44	0	305135616	56	4652
2026-01-20 11:16:41.41	224.58	21.46	-42.5	-44.7	19.3	0.00e+00	0	44	0	307232768	56	4673
2026-01-20 11:16:42.40	224.78	21.55	-42.3	-44.5	19.5	0.00e+00	0	44	0	309329920	56	4580
2026-01-20 11:16:43.40	224.98	21.64	-42.5	-44.7	19.3	0.00e+00	0	44	0	311427072	56	4681
2026-01-20 11:16:44.39	225.18	21.73	-42.6	-44.8	19.2	0.00e+00	0	44	0	313524224	56	4719
2026-01-20 11:16:45.39	225.38	21.82	-42.7	-45.0	19.1	0.00e+00	0	44	0	314572800	56	4840
2026-01-20 11:16:46.38	225.59	21.91	-42.8	-45.1	19.0	0.00e+00	0	44	0	316669952	56	4876
2026-01-20 11:16:47.38	225.80	22.00	-42.9	-45.2	18.9	0.00e+00	0	44	0	318767104	56	4957
2026-01-20 11:16:48.37	226.00	22.09	-43.0	-45.3	18.8	0.00e+00	0	44	0	320864256	56	5022
2026-01-20 11:16:49.37	226.21	22.18	-43.3	-45.7	18.4	0.00e+00	0	44	0	321912832	57	4956
2026-01-20 11:16:50.36	226.42	22.27	-43.3	-45.7	18.4	0.00e+00	0	44	0	324009984	57	4950
2026-01-20 11:16:51.36	226.63	22.36	-43.5	-45.9	18.3	0.00e+00	0	44	0	326107136	57	5075
2026-01-20 11:16:52.35	226.84	22.45	-43.5	-46.0	18.2	0.00e+00	0	44	0	328204288	57	5135
2026-01-20 11:16:53.35	227.06	22.54	-43.5	-45.9	18.2	0.00e+00	0	44	0	330301440	57	5100
2026-01-20 11:16:54.34	227.27	22.63	-43.7	-46.2	18.0	0.00e+00	0	44	0	331350016	57	5233
2026-01-20 11:16:55.34	227.49	22.72	-43.3	-45.7	18.4	0.00e+00	0	44	0	333447168	58	4697
2026-01-20 11:16:56.34	227.70	22.81	-43.4	-45.8	18.4	0.00e+00	0	44	0	335544320	58	4721
2026-01-20 11:16:57.33	227.92	22.90	-43.3	-45.7	18.5	0.00e+00	0	44	0	337641472	58	4653
2026-01-20 11:16:58.33	228.14	22.98	-43.2	-45.5	18.6	0.00e+00	0	44	0	338690048	58	4570
2026-01-20 11:16:59.32	228.36	23.07	-42.8	-45.1	19.0	0.00e+00	0	44	0	340787200	57	4620
2026-01-20 11:17:00.32	228.58	23.16	-42.9	-45.2	18.9	0.00e+00	0	44	0	342884352	57	4666
2026-01-20 11:17:01.31	228.81	23.25	-42.8	-45.1	19.0	0.00e+00	0	44	0	344981504	57	4633
2026-01-20 11:17:02.31	229.03	23.34	-42.8	-45.1	19.0	0.00e+00	0	44	0	347078656	57	4617
2026-01-20 11:17:03.30	229.26	23.43	-43.0	-45.3	18.8	0.00e+00	0	44	0	348127232	57	4717
2026-01-20 11:17:04.30	229.48	23.52	-42.8	-45.1	19.0	0.00e+00	0	44	0	350224384	57	4628
2026-01-20 11:17:05.29	229.71	23.60	-42.9	-45.3	18.8	0.00e+00	0	44	0	352321536	57	4710
2026-01-20 11:17:06.29	229.94	23.69	-42.9	-45.2	18.9	0.00e+00	0	44	0	354418688	57	4696
2026-01-20 11:17:07.29	230.17	23.78	-42.9	-45.2	18.9	0.00e+00	0	44	0	355467264	57	4670
2026-01-20 11:17:08.28	230.40	23.87	-43.1	-45.4	18.7	0.00e+00	0	44	0	357564416	57	4778
2026-01-20 11:17:09.28	230.64	23.95	-43.0	-45.3	18.8	0.00e+00	0	44	0	359661568	57	4726
2026-01-20 11:17:10.27	230.87	24.04	-42.8	-45.1	19.0	0.00e+00	0	44	0	361758720	57	4632
2026-01-20 11:17:11.27	231.11	24.13	-42.7	-45.0	19.1	0.00e+00	0	44	0	363855872	57	4577
2026-01-20 11:17:12.26	231.34	24.21	-42.8	-45.1	19.0	0.00e+00	0	44	0	364904448	57	4623
2026-01-20 11:17:13.26	231.58	24.30	-42.5	-44.8	19.3	0.00e+00	0	44	0	367001600	57	4456
2026-01-20 11:17:14.25	231.82	24.39	-42.5	-44.7	19.4	0.00e+00	0	44	0	369098752	56	4684
2026-01-20 11:17:15.25	232.06	24.47	-42.2	-44.4	19.6	0.00e+00	0	44	0	371195904	56	4505
2026-01-20 11:17:16.24	232.30	24.56	-42.4	-44.6	19.4	0.00e+00	0	44	0	372244480	56	4640
2026-01-20 11:17:17.24	232.54	24.64	-42.6	-44.9	19.2	0.00e+00	0	44	0	374341632	56	4792
2026-01-20 11:17:18.24	232.79	24.73	-42.7	-44.9	19.2	0.00e+00	0	44	0	376438784	56	4802
2026-01-20 11:17:19.23	233.03	24.81	-42.9	-45.3	18.9	0.00e+00	0	44	0	378535936	56	4990
2026-01-20 11:17:20.22	233.28	24.90	-43.2	-45.6	18.6	0.00e+00	0	44	0	380633088	56	5172
2026-01-20 11:17:21.22	233.53	24.98	-43.2	-45.6	18.5	0.00e+00	0	44	0	381681664	57	4897
2026-01-20 11:17:22.22	233.78	25.07	-43.2	-45.6	18.5	0.00e+00	0	44	0	383778816	57	4923
2026-01-20 11:17:23.21	234.03	25.15	-43.3	-45.7	18.5	0.00e+00	0	44	0	385875968	57	4940
2026-01-20 11:17:24.21	234.28	25.23	-43.2	-45.6	18.5	0.00e+00	0	44	0	387973120	57	4901
2026-01-20 11:17:25.20	234.54	25.32	-43.3	-45.7	18.5	0.00e+00	0	44	0	389021696	57	4956
2026-01-20 11:17:26.20	234.79	25.40	-43.1	-45.5	18.7	0.00e+00	0	44	0	391118848	57	4821
2026-01-20 11:17:27.19	235.05	25.48	-43.4	-45.9	18.3	0.00e+00	0	44	0	393216000	57	5059
2026-01-20 11:17:28.19	235.31	25.56	-43.3	-45.7	18.5	0.00e+00	0	44	0	395313152	57	4954
2026-01-20 11:17:29.18	235.56	25.65	-43.5	-45.9	18.3	0.00e+00	0	44	0	397410304	57	5085
2026-01-20 11:17:30.18	235.82	25.73	-43.4	-45.8	18.4	0.00e+00	0	44	0	398458880	57	4988
2026-01-20 11:17:31.18	236.09	25.81	-43.6	-46.0	18.2	0.00e+00	0	44	0	400556032	57	5133
2026-01-20 11:17:32.17	236.35	25.89	-43.4	-45.8	18.4	0.00e+00	0	44	0	402653184	57	5029
2026-01-20 11:17:33.17	236.61	25.97	-43.3	-45.8	18.4	0.00e+00	0	44	0	404750336	57	4986
2026-01-20 11:17:34.16	236.88	26.05	-43.3	-45.7	18.5	0.00e+00	0	44	0	406847488	57	4964
2026-01-20 11:17:35.16	237.15	26.13	-43.2	-45.6	18.6	0.00e+00	0	44	0	407896064	57	4897
2026-01-20 11:17:36.15	237.41	26.21	-43.1	-45.4	18.7	0.00e+00	0	44	0	409993216	57	4804
2026-01-20 11:17:37.15	237.68	26.29	-42.9	-45.2	18.9	0.00e+00	0	44	0	412090368	57	4661
2026-01-20 11:17:38.15	237.95	26.37	-42.9	-45.1	18.9	0.00e+00	0	44	0	414187520	57	4642
2026-01-20 11:17:39.14	238.23	26.44	-42.8	-45.0	19.0	0.00e+00	0	44	0	415236096	57	4593
2026-01-20 11:17:40.13	238.50	26.52	-42.8	-45.1	19.0	0.00e+00	0	44	0	417333248	57	4614
2026-01-20 11:17:41.13	238.77	26.60	-43.2	-45.5	18.6	0.00e+00	0	44	0	419430400	57	4859
2026-01-20 11:17:42.12	239.05	26.67	-43.4	-45.8	18.4	0.00e+00	0	44	0	421527552	57	5036
2026-01-20 11:17:43.12	239.33	26.75	-43.4	-45.8	18.4	0.00e+00	0	44	0	423624704	57	5022
2026-01-20 11:17:44.11	239.60	26.82	-43.6	-46.0	18.2	0.00e+00	0	44	0	424673280	57	5128
2026-01-20 11:17:45.11	239.88	26.90	-43.7	-46.2	18.1	0.00e+00	0	44	0	426770432	58	4942
2026-01-20 11:17:46.10	240.16	26.97	-43.9	-46.4	17.9	0.00e+00	0	44	0	428867584	58	5052
2026-01-20 11:17:47.10	240.45	27.05	-43.8	-46.3	18.0	0.00e+00	0	44	0	430964736	58	5003
2026-01-20 11:17:48.09	240.73	27.12	-43.6	-46.0	18.2	0.00e+00	0	44	0	432013312	58	4851
2026-01-20 11:17:49.09	241.01	27.19	-43.4	-45.8	18.4	0.00e+00	0	44	0	434110464	58	4741
2026-01-20 11:17:50.08	241.30	27.26	-43.3	-45.6	18.6	0.00e+00	0	44	0	436207616	58	4642
2026-01-20 11:17:51.08	241.59	27.34	-43.0	-45.4	18.8	0.00e+00	0	44	0	438304768	58	4498
2026-01-20 11:17:52.07	241.87	27.41	-43.1	-45.4	18.8	0.00e+00	0	44	0	440401920	57	4781
2026-01-20 11:17:53.07	242.16	27.48	-43.3	-45.6	18.5	0.00e+00	0	44	0	441450496	57	4917
2026-01-20 11:17:54.06	242.45	27.55	-43.2	-45.5	18.7	0.00e+00	0	44	0	443547648	57	4848
2026-01-20 11:17:55.06	242.75	27.62	-43.1	-45.5	18.7	0.00e+00	0	44	0	445644800	57	4816
2026-01-20 11:17:56.05	243.04	27.68	-43.3	-45.7	18.5	0.00e+00	0	44	0	447741952	57	4929
2026-01-20 11:17:57.05	243.34	27.75	-43.5	-45.8	18.3	0.00e+00	0	44	0	448790528	57	5038
2026-01-20 11:17:58.04	243.63	27.82	-43.9	-46.4	17.8	0.00e+00	0	44	0	450887680	58	5098
2026-01-20 11:17:59.04	243.93	27.89	-44.3	-46.9	17.4	0.00e+00	0	44	0	452984832	59	5074
2026-01-20 11:18:00.03	244.23	27.95	-44.3	-46.9	17.4	0.00e+00	0	44	0	455081984	59	5059
2026-01-20 11:18:01.01	244.52	28.02	-43.9	-46.4	17.9	0.00e+00	0	44	0	457179136	59	4794
2026-01-20 11:18:02.01	244.82	28.08	-43.5	-45.9	18.3	0.00e+00	0	44	0	458227712	58	4784
2026-01-20 11:18:03.00	245.12	28.15	-43.2	-45.5	18.7	0.00e+00	0	44	0	460324864	58	4570
2026-01-20 11:18:04.00	245.43	28.21	-42.9	-45.2	19.0	0.00e+00	0	44	0	462422016	57	4661
2026-01-20 11:18:04.99	245.73	28.27	-43.1	-45.5	18.7	0.00e+00	0	44	0	464519168	57	4827
2026-01-20 11:18:05.99	246.04	28.33	-43.3	-45.6	18.6	0.00e+00	0	44	0	465567744	57	4922
2026-01-20 11:18:06.99	246.34	28.39	-43.5	-45.9	18.3	0.00e+00	0	44	0	467664896	57	5091
2026-01-20 11:18:07.98	246.65	28.45	-44.1	-46.7	17.7	0.00e+00	0	44	0	469762048	58	5227
2026-01-20 11:18:08.97	246.96	28.51	-43.9	-46.4	17.9	0.00e+00	0	44	0	471859200	58	5046
2026-01-20 11:18:09.97	247.27	28.57	-44.0	-46.5	17.8	0.00e+00	0	44	0	473956352	58	5113
2026-01-20 11:18:10.96	247.58	28.63	-44.1	-46.6	17.7	0.00e+00	0	44	0	475004928	58	5208
2026-01-20 11:18:11.96	247.89	28.69	-43.7	-46.2	18.1	0.00e+00	0	44	0	477102080	58	4941
2026-01-20 11:18:12.95	248.20	28.74	-43.9	-46.5	17.8	0.00e+00	0	44	0	479199232	58	5123
2026-01-20 11:18:13.95	248.52	28.80	-43.7	-46.2	18.1	0.00e+00	0	44	0	481296384	58	4965
2026-01-20 11:18:14.94	248.83	28.86	-43.8	-46.2	18.0	0.00e+00	0	44	0	483393536	58	4973
2026-01-20 11:18:15.94	249.15	28.91	-43.8	-46.2	18.1	0.00e+00	0	44	0	484442112	58	4977
2026-01-20 11:18:16.94	249.47	28.96	-44.0	-46.5	17.9	0.00e+00	0	44	0	486539264	58	5114
2026-01-20 11:18:17.93	249.79	29.02	-44.3	-46.9	17.4	0.00e+00	0	44	0	488636416	59	5093
2026-01-20 11:18:18.92	250.10	29.07	-44.7	-47.4	17.0	0.00e+00	0	44	0	490733568	59	5366
2026-01-20 11:18:19.92	250.43	29.12	-44.9	-47.7	16.7	0.00e+00	0	44	0	491782144	60	5267
2026-01-20 11:18:20.91	250.75	29.17	-45.0	-47.9	16.6	0.00e+00	0	44	0	493879296	60	5369
2026-01-20 11:18:21.91	251.07	29.22	-44.7	-47.5	16.9	0.00e+00	0	44	0	495976448	60	5110
2026-01-20 11:18:22.90	251.39	29.26	-44.6	-47.3	17.1	0.00e+00	0	44	0	498073600	60	5029
2026-01-20 11:18:23.90	251.72	29.31	-44.8	-47.6	16.9	0.00e+00	0	44	0	500170752	60	5170
2026-01-20 11:18:24.89	252.04	29.36	-45.1	-47.9	16.5	0.00e+00	0	44	0	501219328	60	5376
2026-01-20 11:18:25.89	252.37	29.40	-45.6	-48.7	15.8	0.00e+00	0	44	0	503316480	62	5262
2026-01-20 11:18:26.88	252.69	29.45	-46.0	-49.2	15.3	0.00e+00	0	44	0	505413632	62	5591
2026-01-20 11:18:27.88	253.02	29.49	-46.2	-49.6	14.9	0.00e+00	0	44	0	507510784	62	5827
2026-01-20 11:18:28.87	253.35	29.53	-46.0	-49.4	15.0	0.00e+00	0	44	0	508559360	63	5362
2026-01-20 11:18:29.87	253.68	29.57	-45.4	-48.4	16.0	0.00e+00	0	44	0	510656512	62	5097
2026-01-20 11:18:30.86	254.01	29.61	-44.9	-47.7	16.8	0.00e+00	0	44	0	512753664	61	4928
2026-01-20 11:18:31.86	254.34	29.65	-44.5	-47.2	17.2	0.00e+00	0	44	0	514850816	60	4941
2026-01-20 11:18:32.85	254.67	29.69	-44.3	-46.9	17.5	0.00e+00	0	44	0	516947968	60	4790
2026-01-20 11:18:33.85	255.01	29.73	-44.7	-47.4	17.0	0.00e+00	0	44	0	517996544	60	5074
2026-01-20 11:18:34.84	255.34	29.77	-45.1	-47.9	16.5	0.00e+00	0	44	0	520093696	60	5401
2026-01-20 11:18:35.84	255.67	29.80	-45.4	-48.4	16.1	0.00e+00	0	44	0	522190848	61	5357
2026-01-20 11:18:36.83	256.01	29.84	-45.1	-48.0	16.4	0.00e+00	0	44	0	524288000	61	5136
2026-01-20 11:18:37.83	256.34	29.87	-45.0	-47.8	16.6	0.00e+00	0	44	0	525336576	61	5012
2026-01-20 11:18:38.82	256.68	29.90	-45.2	-48.1	16.3	0.00e+00	0	44	0	527433728	61	5164
2026-01-20 11:18:39.82	257.02	29.94	-45.4	-48.4	16.0	0.00e+00	0	44	0	529530880	61	5375
2026-01-20 11:18:40.82	257.36	29.97	-45.5	-48.5	15.9	0.00e+00	0	44	0	531628032	61	5445
2026-01-20 11:18:41.81	257.69	30.00	-45.1	-48.1	16.3	0.00e+00	0	44	0	533725184	61	5169
2026-01-20 11:18:42.81	258.03	30.02	-44.6	-47.3	17.1	0.00e+00	0	44	0	534773760	61	4725
2026-01-20 11:18:43.80	258.37	30.05	-43.9	-46.4	17.8	0.00e+00	0	44	0	536870912	59	4814
2026-01-20 11:18:44.80	258.71	30.08	-44.0	-46.5	17.8	0.00e+00	0	44	0	538968064	59	4833
2026-01-20 11:18:45.79	259.05	30.10	-44.2	-46.8	17.6	0.00e+00	0	44	0	541065216	59	5007
2026-01-20 11:18:46.79	259.39	30.13	-44.7	-47.4	16.9	0.00e+00	0	44	0	542113792	59	5385
2026-01-20 11:18:47.78	259.73	30.15	-44.4	-47.0	17.3	0.00e+00	0	44	0	544210944	60	4870
2026-01-20 11:18:48.78	260.08	30.17	-43.9	-46.4	17.8	0.00e+00	0	44	0	546308096	59	4798
2026-01-20 11:18:49.77	260.42	30.19	-43.7	-46.2	18.0	0.00e+00	0	44	0	548405248	59	4668
2026-01-20 11:18:50.77	260.76	30.21	-43.7	-46.2	18.1	0.00e+00	0	44	0	550502400	59	4654
2026-01-20 11:18:51.76	261.10	30.23	-43.9	-46.4	17.9	0.00e+00	0	44	0	551550976	59	4787
2026-01-20 11:18:52.76	261.45	30.25	-44.0	-46.6	17.8	0.00e+00	0	44	0	553648128	59	4892
2026-01-20 11:18:53.75	261.79	30.27	-43.9	-46.4	17.8	0.00e+00	0	44	0	555745280	59	4814
2026-01-20 11:18:54.74	262.13	30.28	-43.7	-46.2	18.1	0.00e+00	0	44	0	557842432	59	4655
2026-01-20 11:18:55.74	262.48	30.30	-43.1	-45.4	18.8	0.00e+00	0	44	0	558891008	58	4520
2026-01-20 11:18:56.73	262.82	30.31	-43.1	-45.4	18.8	0.00e+00	0	44	0	560988160	57	4785
2026-01-20 11:18:57.73	263.17	30.32	-42.9	-45.2	19.0	0.00e+00	0	44	0	563085312	57	4695
2026-01-20 11:18:58.73	263.51	30.33	-43.0	-45.3	18.8	0.00e+00	0	44	0	565182464	57	4741
2026-01-20 11:18:59.72	263.86	30.34	-43.2	-45.6	18.6	0.00e+00	0	44	0	567279616	57	4881
2026-01-20 11:19:00.71	264.20	30.35	-43.3	-45.6	18.6	0.00e+00	0	44	0	568328192	57	4923
2026-01-20 11:19:01.71	264.55	30.36	-43.3	-45.6	18.6	0.00e+00	0	44	0	570425344	57	4914
2026-01-20 11:19:02.71	264.89	30.37	-43.5	-45.9	18.4	0.00e+00	0	44	0	572522496	57	5055
2026-01-20 11:19:03.70	265.24	30.37	-43.8	-46.2	18.1	0.00e+00	0	44	0	574619648	58	4954
2026-01-20 11:19:04.70	265.59	30.38	-44.0	-46.6	17.7	0.00e+00	0	44	0	575668224	58	5160
2026-01-20 11:19:05.69	265.93	30.38	-44.5	-47.1	17.2	0.00e+00	0	44	0	577765376	59	5218
2026-01-20 11:19:06.69	266.28	30.38	-44.9	-47.7	16.7	0.00e+00	0	44	0	579862528	60	5279
2026-01-20 11:19:07.68	266.62	30.38	-44.9	-47.8	16.7	0.00e+00	0	44	0	581959680	60	5310
2026-01-20 11:19:08.68	266.97	30.38	-44.7	-47.5	16.9	0.00e+00	0	44	0	584056832	60	5116
2026-01-20 11:19:09.67	267.32	30.38	-44.5	-47.2	17.2	0.00e+00	0	44	0	585105408	60	4948
2026-01-20 11:19:10.67	267.66	30.38	-44.3	-46.9	17.5	0.00e+00	0	44	0	587202560	60	4769
2026-01-20 11:19:11.66	268.01	30.37	-44.4	-47.2	17.3	0.00e+00	0	44	0	589299712	60	4928
2026-01-20 11:19:12.66	268.35	30.37	-44.6	-47.4	17.0	0.00e+00	0	44	0	591396864	60	5055
2026-01-20 11:19:13.66	268.70	30.36	-44.4	-47.2	17.2	0.00e+00	0	44	0	592445440	60	4948
2026-01-20 11:19:14.65	269.05	30.36	-43.8	-46.3	18.0	0.00e+00	0	44	0	594542592	59	4730
2026-01-20 11:19:15.65	269.39	30.35	-43.4	-45.8	18.5	0.00e+00	0	44	0	596639744	58	4716
2026-01-20 11:19:16.64	269.74	30.34	-43.4	-45.8	18.5	0.00e+00	0	44	0	598736896	58	4721
2026-01-20 11:19:17.64	270.08	30.33	-43.8	-46.4	17.9	0.00e+00	0	44	0	600834048	58	5042
2026-01-20 11:19:18.63	270.43	30.32	-44.5	-47.2	17.2	0.00e+00	0	44	0	601882624	59	5221
2026-01-20 11:19:19.63	270.77	30.31	-44.7	-47.4	17.0	0.00e+00	0	44	0	603979776	60	5073
2026-01-20 11:19:20.63	271.12	30.29	-44.4	-47.0	17.4	0.00e+00	0	44	0	606076928	60	4830
2026-01-20 11:19:21.62	271.46	30.28	-44.3	-46.9	17.4	0.00e+00	0	44	0	608174080	60	4814
2026-01-20 11:19:22.62	271.81	30.26	-44.2	-46.8	17.6	0.00e+00	0	44	0	609222656	60	4737
2026-01-20 11:19:23.61	272.15	30.24	-44.5	-47.2	17.2	0.00e+00	0	44	0	611319808	60	4957
2026-01-20 11:19:24.60	272.49	30.23	-44.8	-47.7	16.8	0.00e+00	0	44	0	613416960	60	5224
2026-01-20 11:19:25.60	272.83	30.21	-45.0	-47.9	16.5	0.00e+00	0	44	0	615514112	60	5384
2026-01-20 11:19:26.59	273.17	30.19	-45.1	-48.1	16.4	0.00e+00	0	44	0	617611264	61	5163
2026-01-20 11:19:27.59	273.52	30.17	-44.9	-47.7	16.7	0.00e+00	0	44	0	618659840	61	4953
2026-01-20 11:19:28.58	273.86	30.14	-44.7	-47.5	17.0	0.00e+00	0	44	0	620756992	61	4848
2026-01-20 11:19:29.58	274.20	30.12	-44.6	-47.4	17.1	0.00e+00	0	44	0	622854144	61	4770
2026-01-20 11:19:30.57	274.54	30.10	-45.0	-48.0	16.5	0.00e+00	0	44	0	624951296	61	5103
2026-01-20 11:19:31.57	274.88	30.07	-45.4	-48.5	16.0	0.00e+00	0	44	0	625999872	61	5417
2026-01-20 11:19:32.56	275.22	30.04	-45.7	-48.8	15.7	0.00e+00	0	44	0	628097024	62	5339
2026-01-20 11:19:33.56	275.56	30.02	-45.3	-48.3	16.2	0.00e+00	0	44	0	630194176	62	5023
2026-01-20 11:19:34.55	275.89	29.99	-44.9	-47.7	16.7	0.00e+00	0	44	0	632291328	61	4968
2026-01-20 11:19:35.55	276.23	29.96	-44.7	-47.4	16.9	0.00e+00	0	44	0	634388480	61	4790
2026-01-20 11:19:36.54	276.57	29.93	-44.9	-47.7	16.7	0.00e+00	0	44	0	635437056	61	4970
2026-01-20 11:19:37.54	276.90	29.89	-45.1	-48.1	16.4	0.00e+00	0	44	0	637534208	61	5170
2026-01-20 11:19:38.53	277.24	29.86	-45.2	-48.2	16.2	0.00e+00	0	44	0	639631360	61	5236
2026-01-20 11:19:39.53	277.57	29.83	-45.3	-48.2	16.3	0.00e+00	0	44	0	641728512	61	5254
2026-01-20 11:19:40.53	277.91	29.79	-45.2	-48.1	16.5	0.00e+00	0	44	0	642777088	61	5206
2026-01-20 11:19:41.52	278.24	29.76	-45.4	-48.5	16.1	0.00e+00	0	44	0	644874240	61	5418
2026-01-20 11:19:42.51	278.57	29.72	-45.9	-49.2	15.3	0.00e+00	0	44	0	646971392	62	5575
2026-01-20 11:19:43.51	278.91	29.68	-46.0	-49.3	15.2	0.00e+00	0	44	0	649068544	62	5616
2026-01-20 11:19:44.50	279.23	29.64	-45.9	-49.2	15.3	0.00e+00	0	44	0	651165696	62	5565
2026-01-20 11:19:45.50	279.57	29.60	-45.9	-49.2	15.4	0.00e+00	0	44	0	652214272	62	5575
2026-01-20 11:19:46.50	279.90	29.56	-45.7	-48.9	15.6	0.00e+00	0	44	0	654311424	62	5398
2026-01-20 11:19:47.49	280.22	29.52	-45.9	-49.2	15.4	0.00e+00	0	44	0	656408576	62	5585
2026-01-20 11:19:48.49	280.55	29.48	-46.0	-49.4	15.2	0.00e+00	0	44	0	658505728	62	5669
2026-01-20 11:19:49.48	280.88	29.44	-46.2	-49.7	14.9	0.00e+00	0	44	0	660602880	63	5543
2026-01-20 11:19:50.48	281.21	29.39	-46.2	-49.7	14.9	0.00e+00	0	44	0	661651456	63	5544
2026-01-20 11:19:51.47	281.53	29.35	-45.9	-49.2	15.4	0.00e+00	0	44	0	663748608	63	5235
2026-01-20 11:19:52.47	281.86	29.30	-45.9	-49.1	15.4	0.00e+00	0	44	0	665845760	63	5190
2026-01-20 11:19:53.47	282.18	29.25	-46.2	-49.6	15.0	0.00e+00	0	44	0	667942912	63	5516
2026-01-20 11:19:54.46	282.50	29.20	-46.8	-50.6	13.8	1.50e-06	0	44	0	668991488	64	5821
2026-01-20 11:19:55.46	282.82	29.16	-47.8	-52.4	12.1	1.25e-04	0	44	0	671088640	66	6415
2026-01-20 11:19:56.45	283.14	29.11	-48.0	-52.8	11.6	1.03e-03	0	44	0	673185792	66	6723
2026-01-20 11:19:57.44	283.46	29.06	-47.6	-52.0	12.4	5.72e-04	0	44	0	675282944	66	6119
2026-01-20 11:19:58.44	283.78	29.00	-46.8	-50.6	13.8	6.10e-06	0	44	0	677380096	65	5508
2026-01-20 11:19:59.43	284.09	28.95	-46.2	-49.7	14.8	7.00e-07	0	44	0	678428672	64	5272
2026-01-20 11:20:00.43	284.41	28.90	-45.8	-49.1	15.4	0.00e+00	0	44	0	680525824	63	5173
2026-01-20 11:20:01.42	284.73	28.84	-45.9	-49.3	15.3	0.00e+00	0	44	0	682622976	63	5284
2026-01-20 11:20:02.42	285.04	28.79	-46.0	-49.3	15.3	0.00e+00	0	44	0	684720128	63	5284
2026-01-20 11:20:03.41	285.35	28.73	-45.8	-48.9	15.6	0.00e+00	0	44	0	685768704	63	5075
2026-01-20 11:20:04.41	285.67	28.68	-45.2	-48.2	16.3	0.00e+00	0	44	0	687865856	62	4937
2026-01-20 11:20:05.40	285.98	28.62	-45.2	-48.1	16.4	0.00e+00	0	44	0	689963008	62	4878
2026-01-20 11:20:06.40	286.29	28.56	-44.9	-47.7	16.8	0.00e+00	0	44	0	692060160	61	4944
2026-01-20 11:20:07.39	286.59	28.50	-44.7	-47.5	16.9	0.00e+00	0	44	0	694157312	61	4859
2026-01-20 11:20:08.39	286.90	28.44	-45.0	-47.9	16.6	0.00e+00	0	44	0	695205888	61	5043
2026-01-20 11:20:09.39	287.21	28.38	-45.0	-47.9	16.5	0.00e+00	0	44	0	697303040	61	5063
2026-01-20 11:20:10.38	287.51	28.32	-45.1	-47.9	16.6	0.00e+00	0	44	0	699400192	61	5090
2026-01-20 11:20:11.38	287.82	28.26	-45.1	-48.0	16.5	0.00e+00	0	44	0	701497344	61	5143
2026-01-20 11:20:12.37	288.12	28.20	-45.1	-48.1	16.4	0.00e+00	0	44	0	702545920	61	5162
2026-01-20 11:20:13.37	288.42	28.13	-45.0	-47.9	16.5	0.00e+00	0	44	0	704643072	61	5079
2026-01-20 11:20:14.36	288.72	28.07	-44.8	-47.6	16.9	0.00e+00	0	44	0	706740224	61	4894
2026-01-20 11:20:15.35	289.02	28.01	-45.1	-47.9	16.5	7.00e-07	0	44	0	708837376	61	5092
2026-01-20 11:20:16.35	289.32	27.94	-45.3	-48.3	16.2	0.00e+00	0	44	0	710934528	61	5284
2026-01-20 11:20:17.34	289.62	27.88	-45.0	-47.8	16.6	0.00e+00	0	44	0	711983104	61	5029
2026-01-20 11:20:18.34	289.91	27.81	-44.9	-47.7	16.7	0.00e+00	0	44	0	714080256	61	4978
2026-01-20 11:20:19.33	290.21	27.74	-44.9	-47.7	16.7	0.00e+00	0	44	0	716177408	61	4968
2026-01-20 11:20:20.33	290.50	27.67	-44.8	-47.5	16.9	0.00e+00	0	44	0	718274560	61	4860
2026-01-20 11:20:21.32	290.79	27.61	-45.0	-47.9	16.6	0.00e+00	0	44	0	719323136	61	5061
2026-01-20 11:20:22.32	291.08	27.54	-45.5	-48.6	15.9	0.00e+00	0	44	0	721420288	61	5474
2026-01-20 11:20:23.31	291.37	27.47	-45.3	-48.4	16.1	0.00e+00	0	44	0	723517440	61	5355
2026-01-20 11:20:24.31	291.66	27.40	-45.4	-48.5	16.0	0.00e+00	0	44	0	725614592	61	5429
2026-01-20 11:20:25.30	291.95	27.33	-45.0	-47.9	16.6	0.00e+00	0	44	0	727711744	61	5061
2026-01-20 11:20:26.30	292.23	27.26	-45.1	-48.0	16.4	0.00e+00	0	44	0	728760320	61	5130
2026-01-20 11:20:27.29	292.52	27.18	-45.2	-48.1	16.4	0.00e+00	0	44	0	730857472	61	5185
2026-01-20 11:20:28.28	292.80	27.11	-45.8	-49.0	15.5	0.00e+00	0	44	0	732954624	62	5422
2026-01-20 11:20:29.28	293.08	27.04	-46.2	-49.6	14.9	0.00e+00	0	44	0	735051776	63	5479
2026-01-20 11:20:30.27	293.36	26.97	-46.5	-50.2	14.4	0.00e+00	0	44	0	736100352	63	5857
2026-01-20 11:20:31.27	293.64	26.89	-46.5	-50.2	14.4	7.00e-07	0	44	0	738197504	63	5857
2026-01-20 11:20:32.26	293.92	26.82	-46.1	-49.4	15.1	7.00e-07	0	44	0	740294656	63	5400
2026-01-20 11:20:33.26	294.20	26.74	-45.6	-48.8	15.7	0.00e+00	0	44	0	742391808	63	5021
2026-01-20 11:20:34.25	294.47	26.67	-45.2	-48.1	16.3	0.00e+00	0	44	0	744488960	62	4892
2026-01-20 11:20:35.25	294.75	26.59	-45.3	-48.3	16.2	0.00e+00	0	44	0	745537536	61	5312
2026-01-20 11:20:36.24	295.02	26.51	-45.4	-48.4	16.1	0.00e+00	0	44	0	747634688	61	5353
2026-01-20 11:20:37.24	295.29	26.44	-45.6	-48.8	15.7	0.00e+00	0	44	0	749731840	62	5284
2026-01-20 11:20:38.23	295.56	26.36	-45.3	-48.2	16.3	0.00e+00	0	44	0	751828992	62	4971
2026-01-20 11:20:39.23	295.83	26.28	-45.2	-48.1	16.4	0.00e+00	0	44	0	752877568	62	4900
2026-01-20 11:20:40.23	296.10	26.20	-44.8	-47.6	16.8	0.00e+00	0	44	0	754974720	61	4909
2026-01-20 11:20:41.22	296.37	26.13	-44.6	-47.3	17.1	0.00e+00	0	44	0	757071872	61	4737
2026-01-20 11:20:42.22	296.63	26.05	-44.7	-47.5	16.9	0.00e+00	0	44	0	759169024	60	5130
2026-01-20 11:20:43.21	296.89	25.97	-45.1	-48.0	16.5	0.00e+00	0	44	0	761266176	60	5421
2026-01-20 11:20:44.21	297.16	25.89	-45.2	-48.2	16.3	0.00e+00	0	44	0	762314752	61	5250
2026-01-20 11:20:45.20	297.42	25.81	-45.3	-48.3	16.2	0.00e+00	0	44	0	764411904	61	5311
2026-01-20 11:20:46.20	297.68	25.73	-45.0	-47.9	16.5	0.00e+00	0	44	0	766509056	61	5083
2026-01-20 11:20:47.20	297.94	25.64	-44.5	-47.2	17.2	0.00e+00	0	44	0	768606208	61	4676
2026-01-20 11:20:48.19	298.20	25.56	-44.3	-46.9	17.4	0.00e+00	0	44	0	769654784	60	4813
2026-01-20 11:20:49.19	298.45	25.48	-44.1	-46.8	17.6	0.00e+00	0	44	0	771751936	60	4716
2026-01-20 11:20:50.18	298.71	25.40	-44.1	-46.7	17.6	0.00e+00	0	44	0	773849088	60	4687
2026-01-20 11:20:51.18	298.96	25.32	-44.0	-46.7	17.7	0.00e+00	0	44	0	775946240	60	4657
2026-01-20 11:20:52.17	299.21	25.24	-44.1	-46.7	17.6	0.00e+00	0	44	0	778043392	60	4701
2026-01-20 11:20:53.17	299.46	25.15	-44.2	-46.9	17.5	0.00e+00	0	44	0	779091968	60	4765
2026-01-20 11:20:54.17	299.71	25.07	-43.9	-46.5	17.8	0.00e+00	0	44	0	781189120	59	4827
2026-01-20 11:20:55.16	299.96	24.99	-43.9	-46.4	17.9	0.00e+00	0	44	0	783286272	59	4771
2026-01-20 11:20:56.16	300.21	24.90	-43.9	-46.4	17.9	0.00e+00	0	44	0	785383424	59	4782
2026-01-20 11:20:57.15	300.45	24.82	-43.9	-46.5	17.8	0.00e+00	0	44	0	787480576	59	4837
2026-01-20 11:20:58.15	300.70	24.73	-43.9	-46.5	17.8	0.00e+00	0	44	0	788529152	59	4838
2026-01-20 11:20:59.14	300.94	24.65	-44.3	-47.0	17.4	0.00e+00	0	44	0	790626304	59	5120
2026-01-20 11:21:00.14	301.18	24.56	-44.4	-47.1	17.2	0.00e+00	0	44	0	792723456	59	5202
2026-01-20 11:21:01.13	301.42	24.48	-44.2	-46.8	17.5	0.00e+00	0	44	0	794820608	59	5028
2026-01-20 11:21:02.13	301.66	24.39	-43.4	-45.8	18.4	0.00e+00	0	44	0	795869184	58	4744
2026-01-20 11:21:03.12	301.90	24.31	-43.1	-45.4	18.8	0.00e+00	0	44	0	797966336	58	4497
2026-01-20 11:21:04.12	302.14	24.22	-42.9	-45.2	18.9	0.00e+00	0	44	0	800063488	57	4667
2026-01-20 11:21:05.11	302.37	24.14	-43.0	-45.3	18.8	0.00e+00	0	44	0	802160640	57	4742
2026-01-20 11:21:06.11	302.61	24.05	-43.5	-45.9	18.3	0.00e+00	0	44	0	804257792	57	5088
2026-01-20 11:21:07.10	302.84	23.96	-43.8	-46.3	18.0	0.00e+00	0	44	0	805306368	58	4997
2026-01-20 11:21:08.10	303.07	23.88	-44.4	-47.0	17.3	0.00e+00	0	44	0	807403520	59	5127
2026-01-20 11:21:09.09	303.30	23.79	-44.4	-47.0	17.2	0.00e+00	0	44	0	809500672	59	5143
2026-01-20 11:21:10.08	303.53	23.70	-44.2	-46.8	17.4	0.00e+00	0	44	0	811597824	59	5030
2026-01-20 11:21:11.08	303.76	23.62	-43.7	-46.2	18.1	0.00e+00	0	44	0	812646400	59	4653
2026-01-20 11:21:12.07	303.99	23.53	-43.6	-46.0	18.2	0.00e+00	0	44	0	814743552	59	4576
2026-01-20 11:21:13.07	304.21	23.44	-43.6	-46.0	18.2	0.00e+00	0	44	0	816840704	59	4579
2026-01-20 11:21:14.06	304.43	23.36	-43.8	-46.3	18.0	0.00e+00	0	44	0	818937856	59	4734
2026-01-20 11:21:15.06	304.66	23.27	-44.2	-46.9	17.4	0.00e+00	0	44	0	821035008	59	5050
2026-01-20 11:21:16.05	304.88	23.18	-43.9	-46.5	17.8	0.00e+00	0	44	0	822083584	59	4830
2026-01-20 11:21:17.05	305.10	23.09	-43.7	-46.2	18.0	0.00e+00	0	44	0	824180736	59	4674
2026-01-20 11:21:18.04	305.32	23.00	-43.4	-45.8	18.4	0.00e+00	0	44	0	826277888	58	4733
2026-01-20 11:21:19.04	305.54	22.91	-43.0	-45.3	18.9	0.00e+00	0	44	0	828375040	58	4480
2026-01-20 11:21:20.04	305.76	22.83	-43.1	-45.5	18.7	0.00e+00	0	44	0	829423616	57	4821
2026-01-20 11:21:21.03	305.97	22.74	-42.8	-45.1	19.0	0.00e+00	0	44	0	831520768	57	4615
2026-01-20 11:21:22.02	306.18	22.65	-43.0	-45.3	18.8	0.00e+00	0	44	0	833617920	57	4746
2026-01-20 11:21:23.02	306.40	22.56	-43.7	-46.1	18.1	0.00e+00	0	44	0	835715072	57	5212
2026-01-20 11:21:24.01	306.61	22.47	-44.4	-47.1	17.1	0.00e+00	0	44	0	837812224	59	5215
2026-01-20 11:21:25.01	306.82	22.38	-44.7	-47.5	16.8	0.00e+00	0	44	0	838860800	60	5150
2026-01-20 11:21:26.00	307.03	22.30	-44.7	-47.5	16.9	0.00e+00	0	44	0	840957952	60	5132
2026-01-20 11:21:27.00	307.24	22.21	-44.2	-46.8	17.5	0.00e+00	0	44	0	843055104	60	4747
2026-01-20 11:21:28.00	307.45	22.12	-43.5	-46.0	18.2	0.00e+00	0	44	0	845152256	59	4567
2026-01-20 11:21:28.99	307.65	22.03	-43.1	-45.5	18.7	0.00e+00	0	44	0	846200832	58	4568
2026-01-20 11:21:29.98	307.86	21.94	-43.0	-45.3	18.8	0.00e+00	0	44	0	848297984	58	4482
2026-01-20 11:21:30.98	308.06	21.85	-43.1	-45.5	18.7	0.00e+00	0	44	0	850395136	58	4551
2026-01-20 11:21:31.97	308.26	21.76	-43.3	-45.7	18.5	0.00e+00	0	44	0	852492288	58	4692
2026-01-20 11:21:32.97	308.47	21.67	-43.6	-46.0	18.2	0.00e+00	0	44	0	854589440	58	4848
2026-01-20 11:21:33.96	308.67	21.58	-43.3	-45.7	18.5	0.00e+00	0	44	0	855638016	58	4670
2026-01-20 11:21:34.96	308.87	21.49	-43.3	-45.7	18.4	0.00e+00	0	44	0	857735168	58	4696
2026-01-20 11:21:35.95	309.06	21.40	-42.9	-45.1	18.9	0.00e+00	0	44	0	859832320	57	4648
2026-01-20 11:21:36.95	309.26	21.31	-42.9	-45.1	19.0	0.00e+00	0	44	0	861929472	57	4640
2026-01-20 11:21:37.94	309.46	21.23	-43.1	-45.4	18.7	0.00e+00	0	44	0	864026624	57	4764
2026-01-20 11:21:38.94	309.65	21.14	-43.3	-45.7	18.4	0.00e+00	0	44	0	865075200	57	4945
2026-01-20 11:21:39.94	309.85	21.05	-44.0	-46.5	17.7	0.00e+00	0	44	0	867172352	58	5145
2026-01-20 11:21:40.93	310.04	20.96	-44.5	-47.2	17.1	0.00e+00	0	44	0	869269504	59	5260
2026-01-20 11:21:41.92	310.23	20.87	-44.8	-47.8	16.5	0.00e+00	0	44	0	871366656	60	5291
2026-01-20 11:21:42.92	310.42	20.78	-45.1	-48.2	16.2	0.00e+00	0	44	0	872415232	60	5567
2026-01-20 11:21:43.91	310.61	20.69	-45.1	-48.2	16.2	0.00e+00	0	44	0	874512384	61	5272
2026-01-20 11:21:44.90	310.80	20.60	-44.7	-47.7	16.6	0.00e+00	0	44	0	876609536	61	4961
2026-01-20 11:21:45.90	310.99	20.51	-44.2	-47.0	17.3	0.00e+00	0	44	0	878706688	60	4832
2026-01-20 11:21:46.89	311.17	20.42	-44.0	-46.7	17.6	0.00e+00	0	44	0	880803840	60	4664
2026-01-20 11:21:47.89	311.36	20.33	-43.8	-46.3	17.8	0.00e+00	0	44	0	881852416	59	4758
2026-01-20 11:21:48.89	311.54	20.24	-43.7	-46.3	17.9	0.00e+00	0	44	0	883949568	59	4706
2026-01-20 11:21:49.88	311.72	20.15	-43.7	-46.3	17.9	0.00e+00	0	44	0	886046720	59	4724
2026-01-20 11:21:50.88	311.91	20.06	-43.7	-46.3	17.9	0.00e+00	0	44	0	888143872	59	4716
2026-01-20 11:21:51.87	312.09	19.98	-43.7	-46.3	17.9	0.00e+00	0	44	0	889192448	59	4709
2026-01-20 11:21:52.87	312.27	19.89	-43.6	-46.1	18.0	0.00e+00	0	44	0	891289600	59	4624
2026-01-20 11:21:53.86	312.45	19.80	-43.2	-45.7	18.5	0.00e+00	0	44	0	893386752	58	4653
2026-01-20 11:21:54.86	312.62	19.71	-42.9	-45.3	18.8	0.00e+00	0	44	0	895483904	57	4711
2026-01-20 11:21:55.85	312.80	19.62	-42.9	-45.2	18.8	0.00e+00	0	44	0	897581056	57	4690
2026-01-20 11:21:56.85	312.98	19.53	-42.8	-45.1	18.9	0.00e+00	0	44	0	898629632	57	4634
2026-01-20 11:21:57.84	313.15	19.44	-42.7	-45.0	19.0	0.00e+00	0	44	0	900726784	57	4579
2026-01-20 11:21:58.84	313.33	19.35	-43.0	-45.3	18.8	0.00e+00	0	44	0	902823936	57	4741
2026-01-20 11:21:59.83	313.50	19.26	-43.1	-45.5	18.6	0.00e+00	0	44	0	904921088	57	4850
2026-01-20 11:22:00.83	313.67	19.17	-43.4	-45.9	18.3	0.00e+00	0	44	0	905969664	57	5044
2026-01-20 11:22:01.82	313.84	19.09	-43.3	-45.8	18.3	0.00e+00	0	44	0	908066816	57	5009
2026-01-20 11:22:02.82	314.01	19.00	-43.4	-45.9	18.2	0.00e+00	0	44	0	910163968	57	5056
2026-01-20 11:22:03.81	314.18	18.91	-43.4	-45.9	18.2	0.00e+00	0	44	0	912261120	57	5086
2026-01-20 11:22:04.81	314.35	18.82	-43.3	-45.8	18.3	0.00e+00	0	44	0	914358272	57	5005
2026-01-20 11:22:05.80	314.52	18.73	-43.4	-45.9	18.2	0.00e+00	0	44	0	915406848	57	5054
2026-01-20 11:22:06.80	314.68	18.64	-43.4	-45.8	18.3	0.00e+00	0	44	0	917504000	57	5037
2026-01-20 11:22:07.79	314.85	18.56	-43.7	-46.2	17.9	0.00e+00	0	44	0	919601152	57	5252
2026-01-20 11:22:08.79	315.01	18.47	-43.9	-46.5	17.7	0.00e+00	0	44	0	921698304	58	5137
2026-01-20 11:22:09.79	315.18	18.38	-44.3	-47.0	17.3	0.00e+00	0	44	0	922746880	59	5121
2026-01-20 11:22:10.78	315.34	18.29	-44.6	-47.4	16.8	0.00e+00	0	44	0	924844032	59	5384
2026-01-20 11:22:11.78	315.50	18.21	-44.5	-47.4	16.8	0.00e+00	0	44	0	926941184	59	5363
2026-01-20 11:22:12.77	315.66	18.12	-44.4	-47.2	17.0	0.00e+00	0	44	0	929038336	59	5243
2026-01-20 11:22:13.77	315.82	18.03	-44.2	-47.0	17.2	0.00e+00	0	44	0	931135488	59	5109
2026-01-20 11:22:14.76	315.98	17.94	-43.9	-46.6	17.6	0.00e+00	0	44	0	932184064	59	4890
2026-01-20 11:22:15.76	316.14	17.86	-43.6	-46.1	18.0	0.00e+00	0	44	0	934281216	59	4624
2026-01-20 11:22:16.75	316.30	17.77	-43.3	-45.7	18.3	0.00e+00	0	44	0	936378368	58	4691
2026-01-20 11:22:17.75	316.45	17.68	-43.1	-45.5	18.6	0.00e+00	0	44	0	938475520	58	4546
2026-01-20 11:22:18.74	316.61	17.59	-43.1	-45.6	18.5	0.00e+00	0	44	0	939524096	58	4603
2026-01-20 11:22:19.74	316.76	17.51	-42.8	-45.2	18.8	0.00e+00	0	44	0	941621248	57	4701
2026-01-20 11:22:20.73	316.92	17.42	-42.9	-45.4	18.7	0.00e+00	0	44	0	943718400	57	4765
2026-01-20 11:22:21.73	317.07	17.33	-42.9	-45.4	18.7	0.00e+00	0	44	0	945815552	57	4777
2026-01-20 11:22:22.72	317.22	17.25	-42.8	-45.2	18.8	0.00e+00	0	44	0	947912704	57	4691
2026-01-20 11:22:23.72	317.37	17.16	-42.7	-45.2	18.8	0.00e+00	0	44	0	948961280	57	4692
2026-01-20 11:22:24.71	317.52	17.08	-42.7	-45.1	18.8	0.00e+00	0	44	0	951058432	57	4647
2026-01-20 11:22:25.71	317.67	16.99	-42.6	-45.0	18.9	0.00e+00	0	44	0	953155584	57	4589
2026-01-20 11:22:26.70	317.82	16.90	-42.5	-44.8	19.1	0.00e+00	0	44	0	955252736	57	4486
2026-01-20 11:22:27.70	317.97	16.82	-42.6	-44.9	19.1	0.00e+00	0	44	0	956301312	56	4789
2026-01-20 11:22:28.69	318.12	16.73	-42.7	-45.0	19.0	0.00e+00	0	44	0	958398464	56	4841
2026-01-20 11:22:29.69	318.26	16.65	-42.7	-45.0	18.9	0.00e+00	0	44	0	960495616	56	4858
2026-01-20 11:22:30.68	318.41	16.56	-42.9	-45.2	18.8	0.00e+00	0	44	0	962592768	56	4967
2026-01-20 11:22:31.67	318.55	16.48	-42.9	-45.3	18.7	0.00e+00	0	44	0	964689920	56	4991
2026-01-20 11:22:32.67	318.70	16.39	-43.0	-45.4	18.6	0.00e+00	0	44	0	965738496	56	5078
2026-01-20 11:22:33.67	318.84	16.30	-43.1	-45.6	18.5	0.00e+00	0	44	0	967835648	57	4875
2026-01-20 11:22:34.66	318.98	16.22	-43.3	-45.8	18.3	0.00e+00	0	44	0	969932800	57	4989
2026-01-20 11:22:35.65	319.12	16.14	-43.3	-45.8	18.2	0.00e+00	0	44	0	972029952	57	5036
2026-01-20 11:22:36.65	319.26	16.05	-43.4	-45.9	18.2	0.00e+00	0	44	0	973078528	57	5057
2026-01-20 11:22:37.64	319.40	15.97	-43.6	-46.2	17.9	0.00e+00	0	44	0	975175680	57	5274
2026-01-20 11:22:38.64	319.54	15.88	-43.5	-46.1	18.0	0.00e+00	0	44	0	977272832	57	5177
2026-01-20 11:22:39.64	319.68	15.80	-43.5	-46.1	17.9	0.00e+00	0	44	0	979369984	57	5182
2026-01-20 11:22:40.63	319.82	15.71	-43.7	-46.3	17.7	0.00e+00	0	44	0	981467136	58	5020
2026-01-20 11:22:41.63	319.96	15.63	-43.5	-46.1	17.9	0.00e+00	0	44	0	982515712	58	4909
2026-01-20 11:22:42.62	320.09	15.55	-43.6	-46.3	17.8	0.00e+00	0	44	0	984612864	58	4988
2026-01-20 11:22:43.62	320.23	15.46	-43.5	-46.1	18.0	0.00e+00	0	44	0	986710016	58	4878
2026-01-20 11:22:44.61	320.36	15.38	-43.4	-46.0	18.1	0.00e+00	0	44	0	988807168	58	4826
2026-01-20 11:22:45.61	320.50	15.29	-43.4	-46.0	18.0	0.00e+00	0	44	0	989855744	58	4851
2026-01-20 11:22:46.60	320.63	15.21	-43.3	-45.8	18.2	0.00e+00	0	44	0	991952896	58	4759
2026-01-20 11:22:47.60	320.76	15.13	-43.3	-45.9	18.1	0.00e+00	0	44	0	994050048	58	4783
2026-01-20 11:22:48.59	320.89	15.04	-43.4	-46.0	18.0	0.00e+00	0	44	0	996147200	58	4865
2026-01-20 11:22:49.58	321.02	14.96	-43.5	-46.1	18.0	0.00e+00	0	44	0	998244352	58	4878
2026-01-20 11:22:50.58	321.15	14.88	-43.4	-46.0	18.1	0.00e+00	0	44	0	999292928	58	4820
2026-01-20 11:22:51.57	321.28	14.80	-43.6	-46.2	17.8	0.00e+00	0	44	0	1001390080	58	4973
2026-01-20 11:22:52.57	321.41	14.71	-43.2	-45.8	18.2	0.00e+00	0	44	0	1003487232	58	4729
2026-01-20 11:22:53.57	321.54	14.63	-43.3	-45.9	18.1	0.00e+00	0	44	0	1005584384	58	4813
2026-01-20 11:22:54.56	321.67	14.55	-43.1	-45.6	18.4	0.00e+00	0	44	0	1006632960	58	4639
2026-01-20 11:22:55.55	321.79	14.47	-43.0	-45.5	18.4	0.00e+00	0	44	0	1008730112	58	4586
2026-01-20 11:22:56.55	321.92	14.39	-43.0	-45.5	18.4	0.00e+00	0	44	0	1010827264	57	4826
2026-01-20 11:22:57.54	322.05	14.31	-42.7	-45.2	18.7	0.00e+00	0	44	0	1012924416	57	4655
2026-01-20 11:22:58.54	322.17	14.22	-42.7	-45.1	18.8	0.00e+00	0	44	0	1015021568	57	4617
2026-01-20 11:22:59.53	322.30	14.14	-42.8	-45.1	18.8	0.00e+00	0	44	0	1016070144	57	4648
2026-01-20 11:23:00.53	322.42	14.06	-42.8	-45.2	18.7	0.00e+00	0	44	0	1018167296	57	4684
2026-01-20 11:23:01.52	322.54	13.98	-43.0	-45.4	18.6	0.00e+00	0	44	0	1020264448	57	4763
2026-01-20 11:23:02.52	322.67	13.90	-43.1	-45.5	18.5	0.00e+00	0	44	0	1022361600	57	4833
2026-01-20 11:23:03.51	322.79	13.82	-43.1	-45.5	18.4	0.00e+00	0	44	0	1023410176	57	4856
2026-01-20 11:23:04.51	322.91	13.74	-43.3	-45.7	18.2	0.00e+00	0	44	0	1025507328	57	4978
2026-01-20 11:23:05.50	323.03	13.66	-43.6	-46.1	17.9	0.00e+00	0	44	0	1027604480	57	5167
2026-01-20 11:23:06.50	323.15	13.58	-43.8	-46.4	17.6	0.00e+00	0	44	0	1029701632	58	5084
2026-01-20 11:23:07.49	323.27	13.50	-43.9	-46.5	17.5	0.00e+00	0	44	0	1031798784	58	5140
2026-01-20 11:23:08.49	323.39	13.42	-44.0	-46.7	17.3	0.00e+00	0	44	0	1032847360	58	5254
2026-01-20 11:23:09.48	323.50	13.34	-44.1	-46.9	17.2	0.00e+00	0	44	0	1034944512	58	5345
2026-01-20 11:23:10.47	323.62	13.26	-44.1	-46.8	17.2	0.00e+00	0	44	0	1037041664	58	5319
2026-01-20 11:23:11.47	323.74	13.18	-44.0	-46.8	17.2	0.00e+00	0	44	0	1039138816	58	5327
2026-01-20 11:23:12.46	323.85	13.10	-44.0	-46.8	17.2	0.00e+00	0	44	0	1040187392	58	5323
2026-01-20 11:23:13.46	323.97	13.02	-43.9	-46.8	17.2	0.00e+00	0	44	0	1042284544	58	5313
2026-01-20 11:23:14.45	324.08	12.94	-43.7	-46.5	17.5	0.00e+00	0	44	0	1044381696	58	5140
2026-01-20 11:23:15.45	324.20	12.86	-43.6	-46.4	17.6	0.00e+00	0	44	0	1046478848	58	5089
2026-01-20 11:23:16.44	324.31	12.78	-43.8	-46.7	17.3	0.00e+00	0	44	0	1048576000	58	5274
2026-01-20 11:23:17.44	324.43	12.70	-43.7	-46.7	17.4	0.00e+00	0	44	0	1049624576	58	5230
2026-01-20 11:23:18.43	324.54	12.63	-43.7	-46.7	17.4	0.00e+00	0	44	0	1051721728	58	5241
2026-01-20 11:23:19.43	324.65	12.55	-43.7	-46.7	17.3	0.00e+00	0	44	0	1053818880	58	5249
2026-01-20 11:23:20.42	324.76	12.47	-43.9	-46.9	17.1	0.00e+00	0	44	0	1055916032	58	5390
2026-01-20 11:23:21.42	324.87	12.39	-44.0	-47.1	16.9	0.00e+00	0	44	0	1056964608	58	5502
2026-01-20 11:23:22.41	324.98	12.31	-44.1	-47.2	16.9	0.00e+00	0	44	0	1059061760	59	5266
2026-01-20 11:23:23.41	325.09	12.24	-44.2	-47.3	16.7	0.00e+00	0	44	0	1061158912	59	5313
2026-01-20 11:23:24.40	325.20	12.16	-44.4	-47.7	16.4	0.00e+00	0	44	0	1063256064	59	5543
2026-01-20 11:23:25.40	325.31	12.08	-44.4	-47.7	16.4	0.00e+00	0	44	0	1065353216	59	5534
2026-01-20 11:23:26.39	325.42	12.01	-44.4	-47.7	16.4	0.00e+00	0	44	0	1066401792	59	5532
2026-01-20 11:23:27.39	325.53	11.93	-44.5	-47.9	16.2	0.00e+00	0	44	0	1068498944	59	5681
2026-01-20 11:23:28.38	325.63	11.85	-44.3	-47.6	16.5	0.00e+00	0	44	0	1070596096	59	5504
2026-01-20 11:23:29.37	325.74	11.78	-44.2	-47.5	16.5	0.00e+00	0	44	0	1072693248	59	5420
2026-01-20 11:23:30.37	325.85	11.70	-44.1	-47.3	16.7	0.00e+00	0	44	0	1073741824	59	5292
2026-01-20 11:23:31.37	325.95	11.62	-44.0	-47.2	16.8	0.00e+00	0	44	0	1075838976	59	5237
2026-01-20 11:23:32.36	326.06	11.55	-44.1	-47.3	16.6	0.00e+00	0	44	0	1077936128	59	5310
2026-01-20 11:23:33.36	326.16	11.47	-44.0	-47.0	17.0	0.00e+00	0	44	0	1080033280	59	5142
2026-01-20 11:23:34.35	326.26	11.39	-44.0	-47.1	16.9	0.00e+00	0	44	0	1082130432	59	5205
2026-01-20 11:23:35.35	326.37	11.32	-44.2	-47.3	16.7	0.00e+00	0	44	0	1083179008	59	5309
2026-01-20 11:23:36.34	326.47	11.24	-44.2	-47.4	16.6	0.00e+00	0	44	0	1085276160	59	5354
2026-01-20 11:23:37.34	326.57	11.17	-44.4	-47.6	16.3	0.00e+00	0	44	0	1087373312	59	5470
2026-01-20 11:23:38.33	326.67	11.09	-44.6	-47.9	16.3	0.00e+00	0	44	0	1089470464	60	5346
2026-01-20 11:23:39.33	326.78	11.02	-44.5	-47.7	16.4	0.00e+00	0	44	0	1090519040	60	5223
2026-01-20 11:23:40.32	326.88	10.94	-44.7	-48.0	16.1	0.00e+00	0	44	0	1092616192	60	5426
2026-01-20 11:23:41.31	326.98	10.87	-44.8	-48.0	16.1	0.00e+00	0	44	0	1094713344	60	5413
2026-01-20 11:23:42.31	327.08	10.79	-44.9	-48.2	15.9	0.00e+00	0	44	0	1096810496	60	5565
2026-01-20 11:23:43.30	327.18	10.72	-45.0	-48.3	15.8	0.00e+00	0	44	0	1098907648	60	5610
2026-01-20 11:23:44.30	327.28	10.64	-45.0	-48.3	15.8	0.00e+00	0	44	0	1099956224	60	5625
2026-01-20 11:23:45.29	327.37	10.57	-44.9	-48.1	16.0	0.00e+00	0	44	0	1102053376	60	5467
2026-01-20 11:23:46.29	327.47	10.50	-44.7	-47.9	16.1	0.00e+00	0	44	0	1104150528	60	5366
2026-01-20 11:23:47.29	327.57	10.42	-44.5	-47.5	16.4	0.00e+00	0	44	0	1106247680	60	5140
2026-01-20 11:23:48.28	327.67	10.35	-44.6	-47.7	16.3	0.00e+00	0	44	0	1107296256	60	5253
2026-01-20 11:23:49.28	327.76	10.27	-44.3	-47.4	16.6	0.00e+00	0	44	0	1109393408	60	5042
2026-01-20 11:23:50.27	327.86	10.20	-44.2	-47.2	16.8	0.00e+00	0	44	0	1111490560	60	4967
2026-01-20 11:23:51.26	327.95	10.13	-44.3	-47.4	16.6	0.00e+00	0	44	0	1113587712	60	5046
2026-01-20 11:23:52.26	328.05	10.05	-44.2	-47.2	16.7	0.00e+00	0	44	0	1115684864	60	4962
2026-01-20 11:23:53.26	328.15	9.98	-44.2	-47.3	16.7	0.00e+00	0	44	0	1116733440	60	4992
2026-01-20 11:23:54.25	328.24	9.91	-44.3	-47.3	16.6	0.00e+00	0	44	0	1118830592	60	5002
2026-01-20 11:23:55.25	328.33	9.84	-44.3	-47.3	16.7	0.00e+00	0	44	0	1120927744	60	4986
2026-01-20 11:23:56.24	328.43	9.76	-44.5	-47.6	16.4	0.00e+00	0	44	0	1123024896	60	5172
2026-01-20 11:23:57.23	328.52	9.69	-44.6	-47.7	16.2	0.00e+00	0	44	0	1125122048	60	5258
2026-01-20 11:23:58.23	328.61	9.62	-44.6	-47.7	16.2	0.00e+00	0	44	0	1126170624	60	5238
2026-01-20 11:23:59.23	328.70	9.55	-44.8	-48.0	16.0	0.00e+00	0	44	0	1128267776	60	5437
2026-01-20 11:24:00.22	328.80	9.47	-45.0	-48.3	15.7	0.00e+00	0	44	0	1130364928	60	5617
2026-01-20 11:24:01.22	328.89	9.40	-45.2	-48.6	15.4	0.00e+00	0	44	0	1132462080	61	5528
2026-01-20 11:24:02.21	328.98	9.33	-45.2	-48.6	15.3	0.00e+00	0	44	0	1133510656	61	5524
2026-01-20 11:24:03.20	329.07	9.26	-45.4	-49.0	15.0	0.00e+00	0	44	0	1135607808	61	5761
2026-01-20 11:24:04.20	329.16	9.19	-45.5	-49.2	14.8	7.00e-07	0	44	0	1137704960	61	5897
2026-01-20 11:24:05.19	329.25	9.12	-45.6	-49.3	14.7	0.00e+00	0	44	0	1139802112	61	5969
2026-01-20 11:24:06.18	329.34	9.05	-45.5	-49.3	14.7	0.00e+00	0	44	0	1141899264	61	5941
2026-01-20 11:24:07.18	329.43	8.98	-49.5	-65.2	3.8	5.83e-01	0	44	104	1142947840	69	23366
2026-01-20 11:24:08.17	329.51	8.91	-49.3	-65.5	3.8	1.49e+00	0	44	104	1142947840	70	22929
2026-01-20 11:24:09.16	329.60	8.84	-50.1	-65.7	3.8	1.49e+00	0	44	104	1142947840	70	23499
2026-01-20 11:24:10.16	329.69	8.76	-49.9	-65.8	3.8	1.49e+00	0	44	104	1142947840	71	22463
2026-01-20 11:24:11.15	329.78	8.69	-49.9	-65.9	3.8	1.49e+00	0	44	104	1142947840	71	22623
2026-01-20 11:24:12.14	329.86	8.62	-50.2	-66.0	3.8	1.49e+00	0	44	104	1142947840	71	22808
2026-01-20 11:24:13.14	329.95	8.55	-50.6	-66.0	3.8	1.49e+00	0	44	104	1142947840	72	21590
2026-01-20 11:24:14.13	330.03	8.48	-50.3	-66.0	3.8	1.49e+00	0	44	104	1142947840	71	23042
2026-01-20 11:24:15.12	330.12	8.42	-50.5	-66.1	3.8	1.49e+00	0	44	104	1142947840	71	23083
2026-01-20 11:24:16.12	330.20	8.35	-50.7	-66.0	3.8	1.49e+00	0	44	104	1142947840	72	21704
2026-01-20 11:24:17.11	330.29	8.28	-50.7	-66.0	3.8	1.49e+00	0	44	104	1142947840	72	21702
2026-01-20 11:24:18.11	330.37	8.21	-50.7	-66.0	3.8	1.49e+00	0	44	104	1142947840	72	21737
2026-01-20 11:24:19.10	330.46	8.14	-50.7	-66.0	3.8	1.49e+00	0	44	104	1142947840	72	21739
2026-01-20 11:24:20.09	330.54	8.07	-50.7	-66.1	3.8	1.49e+00	0	44	104	1142947840	72	21797
2026-01-20 11:24:21.09	330.62	8.00	-50.8	-66.0	3.8	1.49e+00	0	44	104	1142947840	72	21737
2026-01-20 11:24:22.08	330.71	7.93	-50.8	-66.1	3.8	1.49e+00	0	44	104	1142947840	72	21802
2026-01-20 11:24:23.07	330.79	7.86	-50.8	-66.1	3.8	1.49e+00	0	44	104	1142947840	72	21778
2026-01-20 11:24:24.07	330.87	7.79	-50.8	-66.1	3.8	1.49e+00	0	44	104	1142947840	72	21759
2026-01-20 11:24:25.06	330.95	7.73	-50.8	-66.0	3.8	1.49e+00	0	44	104	1142947840	72	21735
2026-01-20 11:24:26.05	331.03	7.66	-50.7	-66.0	3.8	1.49e+00	0	44	104	1142947840	72	21638
2026-01-20 11:24:27.05	331.12	7.59	-50.7	-66.0	3.8	1.49e+00	0	44	104	1142947840	72	21585
2026-01-20 11:24:28.04	331.20	7.52	-50.6	-66.0	3.8	1.49e+00	0	44	104	1142947840	72	21647
2026-01-20 11:24:29.03	331.28	7.46	-50.6	-66.0	3.8	1.49e+00	0	44	104	1142947840	72	21594
2026-01-20 11:24:30.03	331.36	7.39	-50.5	-65.9	3.8	1.49e+00	0	44	104	1142947840	72	21491
2026-01-20 11:24:31.02	331.44	7.32	-50.4	-66.0	3.8	1.49e+00	0	44	104	1142947840	72	21560
2026-01-20 11:24:32.02	331.52	7.25	-50.5	-66.0	3.8	1.49e+00	0	44	104	1142947840	72	21571
2026-01-20 11:24:33.01	331.59	7.19	-50.5	-66.0	3.8	1.49e+00	0	44	104	1142947840	72	21562
2026-01-20 11:24:34.00	331.67	7.12	-50.5	-65.9	3.8	1.49e+00	0	44	104	1142947840	72	21470
2026-01-20 11:24:35.00	331.75	7.05	-50.5	-65.9	3.8	1.49e+00	0	44	104	1142947840	72	21490
2026-01-20 11:24:35.99	331.83	6.98	-50.5	-65.9	3.8	1.49e+00	0	44	104	1142947840	72	21481
