passes_logs/2026/01/20/T1/T1__20260120_214322_SUOMI_NPP_rec.log

#Pass ID: 20260120_214322_SUOMI NPP
#Satellite: SUOMI NPP
#Configuration: NPP
#almurnet v.1.7.20251203
#Start time: 2026-01-20 21:43:24

#Version: 2.0.20230620
#Station: T1
#Location: 37.570604 lon 55.790049 lat
#TLE: 1 37849U 11061A   26020.31993517  .00000142  00000+0  88240-4 0  9990
#TLE: 2 37849  98.7818 322.3228 0002330  54.3778 305.7615 14.19527005737466

#Time	Az	El	Level	Level2	SNR	BER	BlckErr	Temp	State	Recorded	gain1	gain2
2026-01-20 21:43:24.18	38.05	5.08	-51.7	-66.9	3.8	1.49e+00	0	37	0	0	75	20186
2026-01-20 21:43:25.16	38.16	5.12	-51.7	-66.9	3.8	1.49e+00	0	37	104	0	75	20195
2026-01-20 21:43:26.16	38.28	5.17	-51.7	-66.9	3.8	1.49e+00	0	38	104	0	75	20252
2026-01-20 21:43:27.15	38.39	5.21	-51.7	-66.9	3.8	1.49e+00	0	37	104	0	75	20120
2026-01-20 21:43:28.14	38.51	5.26	-51.7	-66.9	3.8	1.49e+00	0	38	104	0	75	20168
2026-01-20 21:43:29.14	38.63	5.30	-51.7	-66.9	3.8	1.49e+00	0	38	104	0	75	20189
2026-01-20 21:43:30.13	38.75	5.35	-51.7	-66.9	3.8	1.49e+00	0	38	104	0	75	20126
2026-01-20 21:43:31.12	38.86	5.39	-51.7	-66.9	3.8	1.49e+00	0	38	104	0	75	20229
2026-01-20 21:43:32.12	38.98	5.44	-51.7	-66.9	3.8	1.49e+00	0	38	104	0	75	20177
2026-01-20 21:43:33.11	39.10	5.48	-51.7	-66.9	3.8	1.49e+00	0	38	104	0	75	20201
2026-01-20 21:43:34.10	39.22	5.53	-51.7	-66.9	3.8	1.49e+00	0	38	104	0	75	20153
2026-01-20 21:43:35.09	39.34	5.57	-51.7	-66.9	3.8	1.49e+00	0	38	104	0	75	20140
2026-01-20 21:43:36.09	39.46	5.62	-51.7	-66.8	3.8	1.49e+00	0	38	104	0	75	20046
2026-01-20 21:43:37.08	39.58	5.66	-51.7	-66.9	3.8	1.49e+00	0	38	104	0	75	20170
2026-01-20 21:43:38.07	39.70	5.71	-51.7	-66.9	3.8	1.49e+00	0	38	104	0	75	20177
2026-01-20 21:43:39.06	39.82	5.75	-51.7	-66.9	3.8	1.49e+00	0	38	104	0	75	20087
2026-01-20 21:43:40.06	39.94	5.80	-51.7	-66.9	3.8	1.49e+00	0	38	104	0	75	20158
2026-01-20 21:43:41.05	40.06	5.84	-51.7	-66.9	3.8	1.49e+00	0	38	104	0	75	20137
2026-01-20 21:43:42.04	40.18	5.89	-51.7	-66.9	3.8	1.49e+00	0	38	104	0	75	20109
2026-01-20 21:43:43.04	40.30	5.93	-51.7	-66.9	3.8	1.49e+00	0	38	104	0	75	20077
2026-01-20 21:43:44.03	40.43	5.98	-51.7	-66.9	3.8	1.49e+00	0	38	104	0	75	20134
2026-01-20 21:43:45.02	40.55	6.02	-51.7	-66.9	3.8	1.49e+00	0	38	104	0	75	20230
2026-01-20 21:43:46.02	40.67	6.07	-51.7	-66.9	3.8	1.49e+00	0	38	104	0	75	20093
2026-01-20 21:43:47.01	40.79	6.11	-51.7	-66.9	3.8	1.49e+00	0	38	104	0	75	20181
2026-01-20 21:43:48.00	40.92	6.16	-51.7	-66.9	3.8	1.49e+00	0	38	104	0	75	20198
2026-01-20 21:43:49.00	41.04	6.20	-51.7	-66.9	3.8	1.49e+00	0	38	104	0	75	20161
2026-01-20 21:43:49.99	41.17	6.24	-51.7	-66.9	3.8	1.49e+00	0	38	104	0	75	20082
2026-01-20 21:43:50.98	41.29	6.29	-51.7	-66.9	3.8	1.49e+00	0	38	104	0	75	20160
2026-01-20 21:43:51.98	41.42	6.33	-51.7	-66.9	3.8	1.49e+00	0	39	104	0	75	20096
2026-01-20 21:43:52.97	41.54	6.38	-51.7	-66.9	3.8	1.49e+00	0	39	104	0	75	20200
2026-01-20 21:43:53.96	41.67	6.42	-51.7	-66.9	3.8	1.49e+00	0	39	104	0	75	20163
2026-01-20 21:43:54.95	41.80	6.47	-51.7	-66.9	3.8	1.49e+00	0	39	104	0	75	20113
2026-01-20 21:43:55.95	41.92	6.51	-51.7	-66.9	3.8	1.49e+00	0	39	104	0	75	20138
2026-01-20 21:43:56.94	42.05	6.56	-51.7	-66.9	3.8	1.49e+00	0	39	104	0	75	20127
2026-01-20 21:43:57.93	42.18	6.60	-51.7	-66.9	3.8	1.49e+00	0	39	104	0	75	20184
2026-01-20 21:43:58.93	42.31	6.64	-51.7	-66.9	3.8	1.49e+00	0	39	104	0	75	20160
2026-01-20 21:43:59.92	42.43	6.69	-51.7	-66.9	3.8	1.49e+00	0	39	104	0	75	20206
2026-01-20 21:44:00.91	42.56	6.73	-51.7	-66.9	3.8	1.49e+00	0	39	104	0	75	20148
2026-01-20 21:44:01.91	42.69	6.78	-51.7	-66.9	3.8	1.49e+00	0	39	104	0	75	20077
2026-01-20 21:44:02.90	42.82	6.82	-51.7	-66.9	3.8	1.49e+00	0	39	104	0	75	20172
2026-01-20 21:44:03.89	42.95	6.87	-51.7	-66.9	3.8	1.49e+00	0	39	104	0	75	20214
2026-01-20 21:44:04.88	43.08	6.91	-51.7	-66.9	3.8	1.49e+00	0	39	104	0	75	20132
2026-01-20 21:44:05.88	43.21	6.95	-51.7	-66.9	3.8	1.49e+00	0	39	104	0	75	20173
2026-01-20 21:44:06.87	43.34	7.00	-51.7	-66.9	3.8	1.49e+00	0	39	104	0	75	20174
2026-01-20 21:44:07.86	43.47	7.04	-51.7	-66.9	3.8	1.49e+00	0	39	104	0	75	20196
2026-01-20 21:44:08.86	43.61	7.08	-51.7	-66.9	3.8	1.49e+00	0	39	104	0	75	20136
2026-01-20 21:44:09.85	43.74	7.13	-51.7	-66.9	3.8	1.49e+00	0	39	104	0	75	20174
2026-01-20 21:44:10.84	43.87	7.17	-51.7	-66.9	3.8	1.49e+00	0	39	104	0	75	20160
2026-01-20 21:44:11.84	44.00	7.22	-51.7	-66.9	3.8	1.49e+00	0	39	104	0	75	20126
2026-01-20 21:44:12.83	44.14	7.26	-51.7	-66.9	3.8	1.49e+00	0	39	104	0	75	20157
2026-01-20 21:44:13.82	44.27	7.30	-51.7	-66.9	3.8	1.49e+00	0	39	104	0	75	20181
2026-01-20 21:44:14.81	44.40	7.35	-51.7	-66.9	3.8	1.49e+00	0	39	104	0	75	20223
2026-01-20 21:44:15.81	44.54	7.39	-51.7	-66.9	3.8	1.49e+00	0	39	104	0	75	20122
2026-01-20 21:44:16.80	44.67	7.43	-51.7	-66.9	3.8	1.49e+00	0	39	104	0	75	20153
2026-01-20 21:44:17.79	44.81	7.48	-51.7	-66.9	3.8	1.49e+00	0	39	104	0	75	20175
2026-01-20 21:44:18.79	44.94	7.52	-51.7	-66.9	3.8	1.49e+00	0	39	104	0	75	20104
2026-01-20 21:44:19.78	45.08	7.56	-51.7	-66.8	3.8	1.49e+00	0	39	104	0	75	20029
2026-01-20 21:44:20.77	45.22	7.61	-51.7	-66.8	3.8	1.49e+00	0	39	104	0	75	19970
2026-01-20 21:44:21.77	45.35	7.65	-51.7	-66.8	3.8	1.49e+00	0	39	104	0	75	19933
2026-01-20 21:44:22.76	45.49	7.69	-51.7	-66.8	3.8	1.49e+00	0	39	104	0	75	19903
2026-01-20 21:44:23.75	45.63	7.74	-51.7	-66.8	3.8	1.49e+00	0	39	104	0	75	19844
2026-01-20 21:44:24.75	45.77	7.78	-51.7	-66.7	3.8	1.49e+00	0	39	104	0	75	19751
2026-01-20 21:44:25.74	45.90	7.82	-51.7	-66.7	3.8	1.49e+00	0	39	104	0	75	19776
2026-01-20 21:44:26.73	46.04	7.86	-51.7	-66.7	3.8	1.49e+00	0	39	104	0	75	19790
2026-01-20 21:44:27.72	46.18	7.91	-51.7	-66.8	3.8	1.49e+00	0	39	104	0	75	19908
2026-01-20 21:44:28.72	46.32	7.95	-51.7	-66.8	3.8	1.49e+00	0	39	104	0	75	19938
2026-01-20 21:44:29.71	46.46	7.99	-51.7	-66.8	3.8	1.49e+00	0	39	104	0	75	20019
2026-01-20 21:44:30.70	46.60	8.03	-51.7	-66.8	3.8	1.49e+00	0	39	104	0	75	19965
2026-01-20 21:44:31.70	46.74	8.08	-51.7	-66.8	3.8	1.49e+00	0	39	104	0	75	20048
2026-01-20 21:44:32.69	46.88	8.12	-51.7	-66.9	3.8	1.49e+00	0	39	104	0	75	20170
2026-01-20 21:44:33.68	47.02	8.16	-51.7	-66.9	3.8	1.49e+00	0	39	104	0	75	20159
2026-01-20 21:44:34.68	47.17	8.20	-51.7	-66.8	3.8	1.49e+00	0	40	104	0	75	20042
2026-01-20 21:44:35.67	47.31	8.25	-51.7	-66.8	3.8	1.49e+00	0	40	104	0	75	19995
2026-01-20 21:44:36.66	47.45	8.29	-51.7	-66.8	3.8	1.49e+00	0	39	104	0	75	19994
2026-01-20 21:44:37.65	47.59	8.33	-51.7	-66.8	3.8	1.49e+00	0	40	104	0	75	19965
2026-01-20 21:44:38.65	47.74	8.37	-51.7	-66.8	3.8	1.49e+00	0	39	104	0	75	19993
2026-01-20 21:44:39.64	47.88	8.41	-51.7	-66.9	3.8	1.49e+00	0	39	104	0	75	20212
2026-01-20 21:44:40.63	48.02	8.45	-51.7	-66.9	3.8	1.49e+00	0	39	104	0	75	20141
2026-01-20 21:44:41.63	48.17	8.50	-51.7	-66.9	3.8	1.49e+00	0	40	104	0	75	20154
2026-01-20 21:44:42.62	48.31	8.54	-51.7	-66.9	3.8	1.49e+00	0	40	104	0	75	20103
2026-01-20 21:44:43.61	48.46	8.58	-51.7	-66.9	3.8	1.49e+00	0	40	104	0	75	20072
2026-01-20 21:44:44.61	48.61	8.62	-51.7	-66.8	3.8	1.49e+00	0	39	104	0	75	19979
2026-01-20 21:44:45.60	48.75	8.66	-51.7	-66.7	3.8	1.49e+00	0	40	104	0	75	19797
2026-01-20 21:44:46.59	48.90	8.70	-51.7	-66.6	3.8	1.49e+00	0	40	104	0	75	19515
2026-01-20 21:44:47.59	49.05	8.74	-51.7	-66.3	3.8	1.49e+00	0	39	104	0	75	18899
2026-01-20 21:44:48.58	49.19	8.78	-51.6	-66.2	3.8	1.49e+00	0	40	104	0	75	18573
2026-01-20 21:44:49.57	49.34	8.83	-51.7	-65.9	3.8	1.49e+00	0	40	104	0	75	18040
2026-01-20 21:44:50.57	49.49	8.87	-51.6	-65.3	3.8	1.49e+00	0	40	104	0	75	16807
2026-01-20 21:44:51.56	49.64	8.91	-51.5	-63.9	4.1	1.49e+00	0	40	104	0	75	14218
2026-01-20 21:44:52.55	49.79	8.95	-51.2	-61.3	5.0	9.94e-01	0	40	0	1048576	74	11215
2026-01-20 21:44:53.54	49.94	8.99	-50.8	-58.8	6.8	3.67e-01	0	40	0	2097152	73	8879
2026-01-20 21:44:54.54	50.09	9.03	-50.7	-57.9	8.5	7.75e-02	0	40	0	4194304	71	9031
2026-01-20 21:44:55.53	50.24	9.07	-51.1	-59.8	6.0	1.26e+00	0	40	104	4194304	74	9480
2026-01-20 21:44:56.52	50.39	9.11	-50.8	-58.9	6.4	1.13e+00	0	40	0	4194304	73	9044
2026-01-20 21:44:57.52	50.54	9.15	-50.7	-58.1	7.8	2.38e-03	0	40	0	6291456	71	9198
2026-01-20 21:44:58.51	50.69	9.19	-49.8	-55.4	9.7	1.37e+00	0	40	104	7340032	71	6768
2026-01-20 21:44:59.51	50.84	9.23	-47.4	-50.9	14.7	0.00e+00	0	40	0	8388608	66	5373
2026-01-20 21:45:00.50	51.00	9.27	-47.5	-51.0	14.6	1.50e-06	0	40	0	10485760	66	5440
2026-01-20 21:45:01.50	51.15	9.31	-47.3	-50.7	14.8	7.00e-07	0	40	0	12582912	66	5257
2026-01-20 21:45:02.50	51.30	9.35	-47.5	-51.0	14.6	0.00e+00	0	40	0	13631488	66	5407
2026-01-20 21:45:03.49	51.46	9.39	-47.3	-50.7	14.9	0.00e+00	0	40	0	15728640	66	5248
2026-01-20 21:45:04.49	51.61	9.43	-47.4	-50.9	14.6	0.00e+00	0	40	0	17825792	66	5353
2026-01-20 21:45:05.48	51.77	9.47	-47.3	-50.7	14.9	0.00e+00	0	40	0	19922944	66	5227
2026-01-20 21:45:06.48	51.92	9.51	-47.4	-50.8	14.8	0.00e+00	0	40	0	22020096	66	5308
2026-01-20 21:45:07.47	52.08	9.54	-47.5	-51.0	14.6	7.00e-07	0	40	0	23068672	66	5431
2026-01-20 21:45:08.47	52.23	9.58	-47.5	-51.0	14.5	0.00e+00	0	40	0	25165824	66	5455
2026-01-20 21:45:09.46	52.39	9.62	-47.7	-51.3	14.3	7.00e-07	0	40	0	27262976	66	5601
2026-01-20 21:45:10.46	52.55	9.66	-47.7	-51.3	14.3	7.00e-07	0	40	0	29360128	66	5618
2026-01-20 21:45:11.45	52.70	9.70	-47.7	-51.3	14.3	7.00e-07	0	40	0	30408704	66	5634
2026-01-20 21:45:12.45	52.86	9.74	-47.7	-51.2	14.3	0.00e+00	0	40	0	32505856	66	5592
2026-01-20 21:45:13.44	53.02	9.78	-47.5	-51.1	14.6	0.00e+00	0	40	0	34603008	66	5473
2026-01-20 21:45:14.44	53.18	9.81	-47.6	-51.1	14.5	7.00e-07	0	40	0	36700160	66	5498
2026-01-20 21:45:15.43	53.33	9.85	-47.6	-51.1	14.5	7.00e-07	0	40	0	38797312	66	5513
2026-01-20 21:45:16.43	53.49	9.89	-47.5	-51.0	14.6	3.00e-06	0	40	0	39845888	66	5412
2026-01-20 21:45:17.42	53.65	9.93	-47.5	-51.0	14.6	7.00e-07	0	40	0	41943040	66	5455
2026-01-20 21:45:18.42	53.81	9.96	-47.4	-50.9	14.8	0.00e+00	0	40	0	44040192	66	5347
2026-01-20 21:45:19.41	53.97	10.00	-47.5	-51.0	14.6	0.00e+00	0	40	0	46137344	66	5417
2026-01-20 21:45:20.41	54.13	10.04	-47.3	-50.6	15.0	0.00e+00	0	40	0	47185920	66	5200
2026-01-20 21:45:21.40	54.29	10.08	-47.2	-50.5	15.1	0.00e+00	0	40	0	49283072	66	5156
2026-01-20 21:45:22.39	54.45	10.11	-47.2	-50.4	15.1	0.00e+00	0	40	0	51380224	66	5097
2026-01-20 21:45:23.39	54.62	10.15	-47.2	-50.5	15.0	0.00e+00	0	40	0	53477376	66	5148
2026-01-20 21:45:24.38	54.78	10.19	-47.1	-50.3	15.3	0.00e+00	0	40	0	55574528	66	5017
2026-01-20 21:45:25.38	54.94	10.22	-47.0	-50.2	15.4	0.00e+00	0	40	0	56623104	66	4956
2026-01-20 21:45:26.37	55.10	10.26	-47.1	-50.3	15.3	0.00e+00	0	40	0	58720256	66	5016
2026-01-20 21:45:27.37	55.27	10.30	-47.1	-50.4	15.2	0.00e+00	0	40	0	60817408	66	5070
2026-01-20 21:45:28.36	55.43	10.33	-47.1	-50.4	15.2	0.00e+00	0	40	0	62914560	66	5057
2026-01-20 21:45:29.36	55.60	10.37	-47.1	-50.4	15.3	0.00e+00	0	40	0	63963136	66	5049
2026-01-20 21:45:30.35	55.76	10.40	-47.2	-50.5	15.1	0.00e+00	0	40	0	66060288	66	5145
2026-01-20 21:45:31.35	55.93	10.44	-47.2	-50.5	15.1	0.00e+00	0	40	0	68157440	66	5125
2026-01-20 21:45:32.34	56.09	10.48	-47.2	-50.5	15.1	0.00e+00	0	40	0	70254592	66	5122
2026-01-20 21:45:33.34	56.26	10.51	-47.2	-50.5	15.2	0.00e+00	0	40	0	72351744	66	5113
2026-01-20 21:45:34.33	56.42	10.55	-47.2	-50.4	15.2	0.00e+00	0	40	0	73400320	66	5088
2026-01-20 21:45:35.33	56.59	10.58	-47.0	-50.2	15.4	0.00e+00	0	40	0	75497472	65	5242
2026-01-20 21:45:36.32	56.76	10.62	-46.8	-50.0	15.6	0.00e+00	0	40	0	77594624	65	5112
2026-01-20 21:45:37.32	56.93	10.65	-46.8	-49.9	15.6	0.00e+00	0	40	0	79691776	65	5082
2026-01-20 21:45:38.31	57.09	10.69	-46.8	-49.9	15.8	0.00e+00	0	40	0	80740352	65	5072
2026-01-20 21:45:39.31	57.26	10.72	-46.8	-49.8	15.7	0.00e+00	0	40	0	82837504	65	5026
2026-01-20 21:45:40.30	57.43	10.75	-46.6	-49.6	16.0	0.00e+00	0	40	0	84934656	65	4891
2026-01-20 21:45:41.30	57.60	10.79	-46.5	-49.5	16.1	0.00e+00	0	40	0	87031808	65	4856
2026-01-20 21:45:42.30	57.77	10.82	-46.7	-49.7	15.9	0.00e+00	0	40	0	89128960	65	4955
2026-01-20 21:45:43.30	57.94	10.86	-46.7	-49.8	15.8	0.00e+00	0	40	0	90177536	65	5000
2026-01-20 21:45:44.29	58.11	10.89	-46.8	-49.9	15.8	0.00e+00	0	40	0	92274688	65	5045
2026-01-20 21:45:45.29	58.28	10.92	-46.9	-50.1	15.5	0.00e+00	0	40	0	94371840	65	5160
2026-01-20 21:45:46.28	58.45	10.96	-47.0	-50.2	15.4	0.00e+00	0	40	0	96468992	65	5236
2026-01-20 21:45:47.28	58.62	10.99	-46.9	-50.1	15.5	0.00e+00	0	40	0	98566144	65	5190
2026-01-20 21:45:48.27	58.79	11.02	-47.0	-50.2	15.3	0.00e+00	0	40	0	99614720	65	5260
2026-01-20 21:45:49.27	58.97	11.05	-47.0	-50.2	15.4	0.00e+00	0	40	0	101711872	65	5242
2026-01-20 21:45:50.27	59.14	11.09	-47.0	-50.2	15.4	0.00e+00	0	40	0	103809024	65	5225
2026-01-20 21:45:51.26	59.31	11.12	-47.0	-50.2	15.4	0.00e+00	0	40	0	105906176	65	5219
2026-01-20 21:45:52.26	59.48	11.15	-47.0	-50.1	15.6	0.00e+00	0	40	0	106954752	65	5181
2026-01-20 21:45:53.25	59.66	11.18	-47.0	-50.1	15.5	0.00e+00	0	40	0	109051904	65	5197
2026-01-20 21:45:54.25	59.83	11.21	-46.9	-50.1	15.5	0.00e+00	0	40	0	111149056	65	5163
2026-01-20 21:45:55.24	60.00	11.25	-47.0	-50.1	15.5	0.00e+00	0	40	0	113246208	65	5211
2026-01-20 21:45:56.23	60.18	11.28	-46.9	-50.0	15.6	0.00e+00	0	40	0	115343360	65	5122
2026-01-20 21:45:57.23	60.35	11.31	-46.9	-50.1	15.5	0.00e+00	0	40	0	116391936	65	5189
2026-01-20 21:45:58.22	60.53	11.34	-47.0	-50.2	15.5	0.00e+00	0	40	0	118489088	65	5224
2026-01-20 21:45:59.22	60.71	11.37	-46.8	-49.9	15.7	0.00e+00	0	40	0	120586240	65	5069
2026-01-20 21:46:00.21	60.88	11.40	-46.6	-49.6	16.0	0.00e+00	0	40	0	122683392	65	4895
2026-01-20 21:46:01.18	61.05	11.43	-46.5	-49.4	16.2	0.00e+00	0	40	0	123731968	64	5088
2026-01-20 21:46:02.18	61.23	11.46	-46.4	-49.4	16.2	0.00e+00	0	40	0	125829120	64	5042
2026-01-20 21:46:03.17	61.41	11.49	-46.2	-49.1	16.5	0.00e+00	0	40	0	127926272	64	4898
2026-01-20 21:46:04.17	61.58	11.52	-46.3	-49.2	16.4	0.00e+00	0	40	0	130023424	64	4928
2026-01-20 21:46:05.17	61.76	11.55	-46.4	-49.3	16.3	0.00e+00	0	40	0	131072000	64	5023
2026-01-20 21:46:06.16	61.94	11.58	-46.5	-49.5	16.1	0.00e+00	0	40	0	133169152	64	5106
2026-01-20 21:46:07.15	62.12	11.61	-46.7	-49.7	15.9	0.00e+00	0	40	0	135266304	64	5275
2026-01-20 21:46:08.15	62.30	11.64	-46.8	-50.0	15.7	0.00e+00	0	40	0	137363456	64	5409
2026-01-20 21:46:09.14	62.48	11.66	-46.9	-50.0	15.6	0.00e+00	0	40	0	139460608	64	5459
2026-01-20 21:46:10.14	62.66	11.69	-47.0	-50.2	15.5	0.00e+00	0	40	0	140509184	64	5532
2026-01-20 21:46:11.13	62.84	11.72	-47.1	-50.3	15.3	0.00e+00	0	40	0	142606336	64	5620
2026-01-20 21:46:12.13	63.02	11.75	-46.9	-50.0	15.6	0.00e+00	0	40	0	144703488	64	5435
2026-01-20 21:46:13.12	63.20	11.78	-46.7	-49.8	15.9	0.00e+00	0	40	0	146800640	64	5282
2026-01-20 21:46:14.12	63.38	11.80	-46.4	-49.3	16.3	0.00e+00	0	40	0	147849216	64	5004
2026-01-20 21:46:15.11	63.56	11.83	-46.2	-49.1	16.5	0.00e+00	0	40	0	149946368	64	4893
2026-01-20 21:46:16.11	63.74	11.86	-46.1	-48.9	16.7	0.00e+00	0	40	0	152043520	64	4796
2026-01-20 21:46:17.10	63.92	11.89	-46.3	-49.2	16.4	0.00e+00	0	40	0	154140672	64	4929
2026-01-20 21:46:18.10	64.10	11.91	-46.5	-49.4	16.3	0.00e+00	0	40	0	156237824	64	5065
2026-01-20 21:46:19.09	64.29	11.94	-46.6	-49.6	16.0	0.00e+00	0	40	0	157286400	64	5185
2026-01-20 21:46:20.09	64.47	11.96	-46.7	-49.7	15.9	0.00e+00	0	40	0	159383552	64	5244
2026-01-20 21:46:21.08	64.65	11.99	-46.6	-49.7	15.9	0.00e+00	0	40	0	161480704	64	5242
2026-01-20 21:46:22.08	64.84	12.02	-46.4	-49.3	16.3	0.00e+00	0	40	0	163577856	64	5040
2026-01-20 21:46:23.08	65.02	12.04	-46.2	-49.1	16.5	0.00e+00	0	40	0	165675008	64	4905
2026-01-20 21:46:24.07	65.20	12.07	-46.0	-48.8	16.8	0.00e+00	0	40	0	166723584	63	5003
2026-01-20 21:46:25.07	65.39	12.09	-46.0	-48.7	16.9	0.00e+00	0	40	0	168820736	63	4977
2026-01-20 21:46:26.06	65.57	12.12	-45.9	-48.6	17.0	0.00e+00	0	40	0	170917888	63	4909
2026-01-20 21:46:27.06	65.76	12.14	-46.0	-48.7	16.9	0.00e+00	0	40	0	173015040	63	4940
2026-01-20 21:46:28.05	65.94	12.17	-46.2	-48.9	16.7	0.00e+00	0	40	0	174063616	63	5089
2026-01-20 21:46:29.05	66.13	12.19	-46.4	-49.3	16.4	0.00e+00	0	40	0	176160768	63	5303
2026-01-20 21:46:30.04	66.31	12.21	-46.6	-49.6	16.0	0.00e+00	0	40	0	178257920	64	5189
2026-01-20 21:46:31.04	66.50	12.24	-46.8	-49.8	15.9	0.00e+00	0	40	0	180355072	64	5294
2026-01-20 21:46:32.03	66.69	12.26	-46.8	-49.9	15.8	0.00e+00	0	40	0	182452224	64	5341
2026-01-20 21:46:33.03	66.87	12.28	-46.5	-49.4	16.2	0.00e+00	0	40	0	183500800	64	5064
2026-01-20 21:46:34.02	67.06	12.31	-46.5	-49.4	16.2	0.00e+00	0	40	0	185597952	64	5079
2026-01-20 21:46:35.02	67.25	12.33	-46.4	-49.3	16.3	0.00e+00	0	40	0	187695104	64	5037
2026-01-20 21:46:36.01	67.44	12.35	-46.5	-49.5	16.1	0.00e+00	0	40	0	189792256	64	5127
2026-01-20 21:46:37.01	67.62	12.37	-46.9	-50.1	15.6	0.00e+00	0	40	0	190840832	64	5482
2026-01-20 21:46:38.00	67.81	12.39	-47.3	-50.6	15.0	0.00e+00	0	40	0	192937984	65	5519
2026-01-20 21:46:39.00	68.00	12.42	-47.6	-51.2	14.5	0.00e+00	0	40	0	195035136	65	5877
2026-01-20 21:46:39.99	68.19	12.44	-47.7	-51.3	14.3	1.50e-06	0	40	0	197132288	66	5646
2026-01-20 21:46:40.98	68.38	12.46	-47.9	-51.5	14.2	2.20e-06	0	40	0	199229440	66	5773
2026-01-20 21:46:41.98	68.57	12.48	-47.6	-51.0	14.7	0.00e+00	0	40	0	200278016	66	5447
2026-01-20 21:46:42.97	68.76	12.50	-47.3	-50.5	15.2	7.00e-07	0	40	0	202375168	66	5147
2026-01-20 21:46:43.97	68.95	12.52	-47.0	-50.1	15.6	0.00e+00	0	40	0	204472320	66	4887
2026-01-20 21:46:44.96	69.14	12.54	-46.7	-49.7	15.9	0.00e+00	0	40	0	206569472	65	4957
2026-01-20 21:46:45.96	69.33	12.56	-46.7	-49.7	15.9	0.00e+00	0	40	0	207618048	65	4962
2026-01-20 21:46:46.95	69.52	12.58	-46.8	-49.9	15.8	0.00e+00	0	40	0	209715200	65	5088
2026-01-20 21:46:47.95	69.71	12.60	-47.0	-50.2	15.4	0.00e+00	0	40	0	211812352	65	5278
2026-01-20 21:46:48.94	69.90	12.62	-47.2	-50.4	15.2	0.00e+00	0	40	0	213909504	65	5401
2026-01-20 21:46:49.94	70.09	12.63	-47.4	-50.7	15.0	0.00e+00	0	40	0	216006656	65	5570
2026-01-20 21:46:50.93	70.28	12.65	-47.3	-50.6	15.0	7.00e-07	0	40	0	217055232	65	5514
2026-01-20 21:46:51.93	70.47	12.67	-47.2	-50.5	15.1	0.00e+00	0	40	0	219152384	65	5458
2026-01-20 21:46:52.92	70.66	12.69	-47.0	-50.2	15.5	0.00e+00	0	40	0	221249536	65	5230
2026-01-20 21:46:53.92	70.86	12.71	-47.0	-50.1	15.5	0.00e+00	0	40	0	223346688	65	5201
2026-01-20 21:46:54.91	71.05	12.72	-46.9	-50.1	15.6	0.00e+00	0	40	0	224395264	65	5200
2026-01-20 21:46:55.91	71.24	12.74	-46.9	-50.1	15.6	0.00e+00	0	40	0	226492416	65	5176
2026-01-20 21:46:56.90	71.43	12.76	-47.2	-50.6	15.1	0.00e+00	0	40	0	228589568	65	5467
2026-01-20 21:46:57.90	71.63	12.77	-47.3	-50.7	15.0	0.00e+00	0	40	0	230686720	65	5539
2026-01-20 21:46:58.89	71.82	12.79	-47.5	-51.0	14.7	0.00e+00	0	40	0	232783872	65	5750
2026-01-20 21:46:59.89	72.01	12.80	-47.5	-50.9	14.6	1.50e-06	0	40	0	233832448	65	5720
2026-01-20 21:47:00.88	72.21	12.82	-47.4	-50.8	14.9	0.00e+00	0	40	0	235929600	65	5594
2026-01-20 21:47:01.88	72.40	12.83	-47.1	-50.3	15.3	0.00e+00	0	40	0	238026752	65	5317
2026-01-20 21:47:02.88	72.60	12.85	-46.8	-49.9	15.8	0.00e+00	0	40	0	240123904	65	5042
2026-01-20 21:47:03.87	72.79	12.86	-46.8	-49.9	15.8	0.00e+00	0	40	0	241172480	65	5076
2026-01-20 21:47:04.87	72.99	12.88	-46.5	-49.4	16.2	0.00e+00	0	40	0	243269632	65	4805
2026-01-20 21:47:05.86	73.18	12.89	-46.5	-49.3	16.3	0.00e+00	0	40	0	245366784	64	5041
2026-01-20 21:47:06.86	73.37	12.91	-46.6	-49.5	16.1	0.00e+00	0	40	0	247463936	64	5155
2026-01-20 21:47:07.85	73.57	12.92	-46.6	-49.6	16.1	0.00e+00	0	40	0	249561088	64	5172
2026-01-20 21:47:08.85	73.76	12.93	-46.7	-49.8	15.8	0.00e+00	0	40	0	250609664	64	5296
2026-01-20 21:47:09.84	73.96	12.95	-46.7	-49.7	16.0	0.00e+00	0	40	0	252706816	64	5253
2026-01-20 21:47:10.84	74.16	12.96	-46.4	-49.4	16.3	0.00e+00	0	40	0	254803968	64	5050
2026-01-20 21:47:11.83	74.35	12.97	-46.3	-49.3	16.4	0.00e+00	0	40	0	256901120	64	4992
2026-01-20 21:47:12.83	74.55	12.98	-46.1	-48.9	16.7	0.00e+00	0	40	0	258998272	64	4793
2026-01-20 21:47:13.82	74.74	12.99	-46.0	-48.8	16.9	0.00e+00	0	40	0	260046848	63	4992
2026-01-20 21:47:14.82	74.94	13.01	-45.7	-48.4	17.3	0.00e+00	0	40	0	262144000	63	4779
2026-01-20 21:47:15.81	75.13	13.02	-45.7	-48.4	17.2	0.00e+00	0	40	0	264241152	63	4793
2026-01-20 21:47:16.80	75.33	13.03	-45.7	-48.3	17.3	0.00e+00	0	40	0	266338304	63	4755
2026-01-20 21:47:17.80	75.53	13.04	-45.7	-48.4	17.3	0.00e+00	0	40	0	267386880	63	4776
2026-01-20 21:47:18.80	75.72	13.05	-45.8	-48.5	17.2	0.00e+00	0	40	0	269484032	63	4823
2026-01-20 21:47:19.79	75.92	13.06	-45.8	-48.5	17.2	0.00e+00	0	40	0	271581184	63	4853
2026-01-20 21:47:20.79	76.12	13.07	-45.8	-48.5	17.2	0.00e+00	0	41	0	273678336	63	4815
2026-01-20 21:47:21.78	76.31	13.08	-45.8	-48.5	17.1	0.00e+00	0	40	0	275775488	63	4862
2026-01-20 21:47:22.78	76.51	13.08	-45.8	-48.6	17.1	0.00e+00	0	40	0	276824064	63	4878
2026-01-20 21:47:23.77	76.71	13.09	-45.8	-48.5	17.2	0.00e+00	0	41	0	278921216	63	4834
2026-01-20 21:47:24.77	76.91	13.10	-46.0	-48.8	16.9	0.00e+00	0	41	0	281018368	63	4999
2026-01-20 21:47:25.76	77.10	13.11	-46.1	-48.9	16.8	0.00e+00	0	40	0	283115520	63	5093
2026-01-20 21:47:26.76	77.30	13.12	-46.1	-48.9	16.8	0.00e+00	0	40	0	284164096	63	5065
2026-01-20 21:47:27.75	77.50	13.12	-46.1	-49.0	16.7	0.00e+00	0	40	0	286261248	63	5109
2026-01-20 21:47:28.75	77.70	13.13	-46.0	-48.8	16.9	0.00e+00	0	41	0	288358400	63	5017
2026-01-20 21:47:29.74	77.90	13.14	-45.9	-48.6	17.1	0.00e+00	0	40	0	290455552	63	4923
2026-01-20 21:47:30.74	78.09	13.14	-45.7	-48.4	17.2	0.00e+00	0	41	0	292552704	63	4810
2026-01-20 21:47:31.73	78.29	13.15	-45.8	-48.5	17.2	0.00e+00	0	41	0	293601280	63	4824
2026-01-20 21:47:32.73	78.49	13.16	-45.8	-48.4	17.2	0.00e+00	0	40	0	295698432	63	4809
2026-01-20 21:47:33.72	78.69	13.16	-45.8	-48.5	17.2	0.00e+00	0	41	0	297795584	63	4845
2026-01-20 21:47:34.72	78.89	13.17	-46.1	-48.9	16.8	0.00e+00	0	40	0	299892736	63	5078
2026-01-20 21:47:35.71	79.08	13.17	-46.1	-48.9	16.8	0.00e+00	0	40	0	300941312	63	5049
2026-01-20 21:47:36.71	79.28	13.18	-46.1	-49.0	16.7	0.00e+00	0	40	0	303038464	63	5119
2026-01-20 21:47:37.70	79.48	13.18	-46.1	-48.9	16.7	0.00e+00	0	40	0	305135616	63	5092
2026-01-20 21:47:38.70	79.68	13.19	-46.0	-48.7	16.9	0.00e+00	0	40	0	307232768	63	4978
2026-01-20 21:47:39.69	79.88	13.19	-45.8	-48.6	17.1	0.00e+00	0	40	0	309329920	63	4873
2026-01-20 21:47:40.69	80.08	13.19	-45.9	-48.6	17.0	0.00e+00	0	40	0	310378496	63	4920
2026-01-20 21:47:41.69	80.28	13.20	-46.0	-48.8	16.8	0.00e+00	0	41	0	312475648	63	5022
2026-01-20 21:47:42.68	80.48	13.20	-46.0	-48.8	16.8	0.00e+00	0	40	0	314572800	63	5028
2026-01-20 21:47:43.68	80.68	13.20	-46.1	-48.9	16.8	0.00e+00	0	40	0	316669952	63	5048
2026-01-20 21:47:44.67	80.87	13.20	-46.1	-48.9	16.8	0.00e+00	0	41	0	317718528	63	5058
2026-01-20 21:47:45.67	81.07	13.20	-46.0	-48.9	16.8	0.00e+00	0	41	0	319815680	63	5059
2026-01-20 21:47:46.66	81.27	13.21	-45.9	-48.8	16.9	0.00e+00	0	40	0	321912832	63	4999
2026-01-20 21:47:47.66	81.47	13.21	-45.9	-48.7	16.9	0.00e+00	0	40	0	324009984	63	4969
2026-01-20 21:47:48.65	81.67	13.21	-45.7	-48.5	17.1	0.00e+00	0	41	0	326107136	63	4838
2026-01-20 21:47:49.65	81.87	13.21	-45.6	-48.4	17.3	0.00e+00	0	41	0	327155712	63	4770
2026-01-20 21:47:50.64	82.07	13.21	-45.7	-48.5	17.2	0.00e+00	0	40	0	329252864	63	4833
2026-01-20 21:47:51.63	82.27	13.21	-45.7	-48.5	17.2	0.00e+00	0	41	0	331350016	63	4830
2026-01-20 21:47:52.63	82.47	13.21	-45.8	-48.6	17.1	0.00e+00	0	40	0	333447168	63	4894
2026-01-20 21:47:53.62	82.66	13.21	-45.9	-48.7	17.0	0.00e+00	0	40	0	334495744	63	4955
2026-01-20 21:47:54.62	82.86	13.21	-45.9	-48.7	17.0	0.00e+00	0	40	0	336592896	63	4931
2026-01-20 21:47:55.61	83.06	13.20	-45.7	-48.5	17.2	0.00e+00	0	41	0	338690048	63	4815
2026-01-20 21:47:56.61	83.26	13.20	-45.6	-48.3	17.3	0.00e+00	0	40	0	340787200	63	4735
2026-01-20 21:47:57.60	83.46	13.20	-45.3	-47.9	17.6	0.00e+00	0	40	0	342884352	62	4805
2026-01-20 21:47:58.60	83.66	13.20	-45.1	-47.7	17.9	0.00e+00	0	41	0	343932928	62	4666
2026-01-20 21:47:59.59	83.86	13.20	-44.8	-47.3	18.2	0.00e+00	0	41	0	346030080	61	4744
2026-01-20 21:48:00.58	84.05	13.19	-44.7	-47.3	18.2	0.00e+00	0	41	0	348127232	61	4725
2026-01-20 21:48:01.58	84.25	13.19	-44.7	-47.3	18.2	0.00e+00	0	41	0	350224384	61	4719
2026-01-20 21:48:02.57	84.45	13.19	-44.8	-47.4	18.1	0.00e+00	0	41	0	351272960	61	4799
2026-01-20 21:48:03.57	84.65	13.18	-44.9	-47.5	18.0	0.00e+00	0	41	0	353370112	61	4833
2026-01-20 21:48:04.57	84.85	13.18	-45.0	-47.5	18.0	0.00e+00	0	40	0	355467264	61	4869
2026-01-20 21:48:05.56	85.05	13.17	-44.9	-47.5	18.0	0.00e+00	0	41	0	357564416	61	4840
2026-01-20 21:48:06.54	85.24	13.17	-44.8	-47.4	18.1	0.00e+00	0	41	0	359661568	61	4773
2026-01-20 21:48:07.53	85.44	13.16	-44.9	-47.5	18.1	0.00e+00	0	41	0	360710144	61	4826
2026-01-20 21:48:08.52	85.64	13.16	-44.8	-47.3	18.2	0.00e+00	0	41	0	362807296	61	4732
2026-01-20 21:48:09.52	85.84	13.15	-44.9	-47.4	18.1	0.00e+00	0	41	0	364904448	61	4770
2026-01-20 21:48:10.51	86.04	13.15	-45.1	-47.6	17.9	0.00e+00	0	41	0	367001600	61	4926
2026-01-20 21:48:11.51	86.24	13.14	-45.1	-47.7	17.8	0.00e+00	0	41	0	368050176	61	4967
2026-01-20 21:48:12.50	86.43	13.13	-45.2	-47.9	17.6	0.00e+00	0	41	0	370147328	61	5053
2026-01-20 21:48:13.50	86.63	13.12	-45.3	-48.0	17.6	0.00e+00	0	41	0	372244480	61	5110
2026-01-20 21:48:14.49	86.83	13.12	-45.3	-47.9	17.6	0.00e+00	0	41	0	374341632	61	5088
2026-01-20 21:48:15.49	87.03	13.11	-45.3	-48.0	17.5	0.00e+00	0	41	0	376438784	61	5120
2026-01-20 21:48:16.48	87.22	13.10	-45.3	-47.9	17.6	0.00e+00	0	41	0	377487360	61	5068
2026-01-20 21:48:17.48	87.42	13.09	-45.1	-47.7	17.8	0.00e+00	0	40	0	379584512	61	4963
2026-01-20 21:48:18.47	87.62	13.09	-45.1	-47.7	17.8	0.00e+00	0	40	0	381681664	61	4946
2026-01-20 21:48:19.46	87.82	13.08	-45.1	-47.7	17.8	0.00e+00	0	40	0	383778816	61	4937
2026-01-20 21:48:20.45	88.01	13.07	-45.1	-47.6	17.9	0.00e+00	0	41	0	384827392	61	4920
2026-01-20 21:48:21.45	88.21	13.06	-45.2	-47.8	17.7	0.00e+00	0	41	0	386924544	61	5018
2026-01-20 21:48:22.45	88.41	13.05	-45.3	-48.0	17.5	0.00e+00	0	41	0	389021696	61	5114
2026-01-20 21:48:23.44	88.60	13.04	-45.3	-48.0	17.5	0.00e+00	0	41	0	391118848	61	5108
2026-01-20 21:48:24.43	88.80	13.03	-45.4	-48.1	17.4	0.00e+00	0	41	0	393216000	61	5203
2026-01-20 21:48:25.43	89.00	13.02	-45.4	-48.1	17.4	0.00e+00	0	41	0	394264576	61	5197
2026-01-20 21:48:26.42	89.19	13.01	-45.3	-48.0	17.5	0.00e+00	0	41	0	396361728	61	5131
2026-01-20 21:48:27.42	89.39	12.99	-45.2	-47.8	17.6	0.00e+00	0	41	0	398458880	61	5010
2026-01-20 21:48:28.41	89.59	12.98	-45.2	-47.8	17.6	0.00e+00	0	41	0	400556032	61	5002
2026-01-20 21:48:29.41	89.78	12.97	-45.1	-47.8	17.7	0.00e+00	0	41	0	401604608	61	4993
2026-01-20 21:48:30.40	89.98	12.96	-45.1	-47.7	17.7	0.00e+00	0	41	0	403701760	61	4966
2026-01-20 21:48:31.40	90.17	12.95	-44.9	-47.5	17.9	0.00e+00	0	41	0	405798912	61	4846
2026-01-20 21:48:32.39	90.37	12.93	-44.9	-47.5	17.9	0.00e+00	0	41	0	407896064	61	4817
2026-01-20 21:48:33.39	90.57	12.92	-45.0	-47.5	17.9	0.00e+00	0	41	0	409993216	61	4844
2026-01-20 21:48:34.38	90.76	12.91	-44.8	-47.3	18.0	0.00e+00	0	40	0	411041792	61	4757
2026-01-20 21:48:35.38	90.96	12.89	-44.9	-47.4	18.0	0.00e+00	0	41	0	413138944	61	4774
2026-01-20 21:48:36.37	91.15	12.88	-44.8	-47.3	18.0	0.00e+00	0	41	0	415236096	61	4726
2026-01-20 21:48:37.37	91.35	12.86	-44.6	-47.1	18.2	0.00e+00	0	41	0	417333248	61	4601
2026-01-20 21:48:38.36	91.54	12.85	-44.6	-47.0	18.3	0.00e+00	0	41	0	419430400	61	4589
2026-01-20 21:48:39.36	91.73	12.83	-44.7	-47.1	18.2	0.00e+00	0	41	0	420478976	61	4639
2026-01-20 21:48:40.35	91.93	12.82	-44.7	-47.1	18.2	0.00e+00	0	41	0	422576128	61	4628
2026-01-20 21:48:41.35	92.12	12.80	-44.7	-47.2	18.1	0.00e+00	0	41	0	424673280	61	4666
2026-01-20 21:48:42.34	92.32	12.79	-44.7	-47.2	18.1	0.00e+00	0	41	0	426770432	61	4655
2026-01-20 21:48:43.33	92.51	12.77	-44.7	-47.2	18.1	0.00e+00	0	41	0	427819008	61	4656
2026-01-20 21:48:44.33	92.70	12.76	-44.6	-47.1	18.2	0.00e+00	0	41	0	429916160	61	4606
2026-01-20 21:48:45.33	92.90	12.74	-44.6	-47.1	18.2	0.00e+00	0	41	0	432013312	61	4625
2026-01-20 21:48:46.32	93.09	12.72	-44.6	-47.1	18.1	0.00e+00	0	41	0	434110464	61	4613
2026-01-20 21:48:47.32	93.28	12.71	-44.5	-47.0	18.2	0.00e+00	0	41	0	436207616	61	4557
2026-01-20 21:48:48.31	93.47	12.69	-44.5	-46.9	18.3	0.00e+00	0	41	0	437256192	60	4791
2026-01-20 21:48:49.31	93.67	12.67	-44.5	-46.9	18.3	0.00e+00	0	41	0	439353344	60	4803
2026-01-20 21:48:50.30	93.86	12.65	-44.5	-47.0	18.2	0.00e+00	0	41	0	441450496	60	4820
2026-01-20 21:48:51.30	94.05	12.63	-44.5	-46.9	18.3	0.00e+00	0	41	0	443547648	60	4809
2026-01-20 21:48:52.29	94.24	12.62	-44.6	-47.0	18.2	0.00e+00	0	41	0	444596224	60	4864
2026-01-20 21:48:53.29	94.44	12.60	-44.8	-47.2	17.9	0.00e+00	0	41	0	446693376	60	4980
2026-01-20 21:48:54.28	94.63	12.58	-44.7	-47.2	18.0	0.00e+00	0	41	0	448790528	60	4941
2026-01-20 21:48:55.27	94.82	12.56	-44.8	-47.3	17.8	0.00e+00	0	41	0	450887680	60	5039
2026-01-20 21:48:56.27	95.01	12.54	-44.7	-47.2	18.0	0.00e+00	0	41	0	452984832	60	4932
2026-01-20 21:48:57.26	95.20	12.52	-44.6	-47.1	18.1	0.00e+00	0	41	0	454033408	60	4911
2026-01-20 21:48:58.26	95.39	12.50	-44.5	-47.0	18.2	0.00e+00	0	41	0	456130560	60	4827
2026-01-20 21:48:59.25	95.58	12.48	-44.4	-46.8	18.3	0.00e+00	0	41	0	458227712	60	4735
2026-01-20 21:49:00.25	95.77	12.46	-44.4	-46.8	18.3	0.00e+00	0	41	0	460324864	60	4740
2026-01-20 21:49:01.24	95.96	12.44	-44.3	-46.7	18.3	0.00e+00	0	41	0	461373440	60	4694
2026-01-20 21:49:02.24	96.15	12.41	-44.4	-46.8	18.3	0.00e+00	0	41	0	463470592	60	4718
2026-01-20 21:49:03.23	96.33	12.39	-44.4	-46.8	18.2	0.00e+00	0	40	0	465567744	60	4715
2026-01-20 21:49:04.23	96.52	12.37	-44.4	-46.8	18.3	0.00e+00	0	41	0	467664896	60	4718
2026-01-20 21:49:05.22	96.71	12.35	-44.3	-46.7	18.3	0.00e+00	0	41	0	469762048	60	4689
2026-01-20 21:49:06.21	96.90	12.33	-44.3	-46.7	18.3	0.00e+00	0	41	0	470810624	60	4679
2026-01-20 21:49:07.21	97.09	12.30	-44.2	-46.6	18.3	0.00e+00	0	41	0	472907776	60	4645
2026-01-20 21:49:08.20	97.27	12.28	-44.1	-46.5	18.4	0.00e+00	0	41	0	475004928	60	4582
2026-01-20 21:49:09.20	97.46	12.26	-44.0	-46.4	18.5	0.00e+00	0	41	0	477102080	60	4515
2026-01-20 21:49:10.20	97.65	12.23	-44.0	-46.3	18.5	0.00e+00	0	41	0	478150656	59	4740
2026-01-20 21:49:11.19	97.84	12.21	-44.0	-46.3	18.5	0.00e+00	0	41	0	480247808	59	4733
2026-01-20 21:49:12.19	98.02	12.19	-43.9	-46.3	18.6	0.00e+00	0	41	0	482344960	59	4709
2026-01-20 21:49:13.18	98.21	12.16	-43.9	-46.2	18.5	0.00e+00	0	41	0	484442112	59	4700
2026-01-20 21:49:14.18	98.40	12.14	-43.9	-46.2	18.5	0.00e+00	0	41	0	486539264	59	4703
2026-01-20 21:49:15.17	98.58	12.11	-43.9	-46.3	18.5	0.00e+00	0	41	0	487587840	59	4721
2026-01-20 21:49:16.17	98.77	12.09	-43.9	-46.3	18.5	0.00e+00	0	41	0	489684992	59	4721
2026-01-20 21:49:17.17	98.95	12.06	-44.0	-46.4	18.3	0.00e+00	0	41	0	491782144	59	4801
2026-01-20 21:49:18.16	99.14	12.04	-44.2	-46.6	18.2	0.00e+00	0	41	0	493879296	59	4883
2026-01-20 21:49:19.16	99.32	12.01	-44.2	-46.7	18.2	0.00e+00	0	41	0	494927872	59	4937
2026-01-20 21:49:20.15	99.50	11.99	-44.2	-46.6	18.2	0.00e+00	0	41	0	497025024	59	4912
2026-01-20 21:49:21.15	99.69	11.96	-44.1	-46.5	18.2	0.00e+00	0	41	0	499122176	59	4868
2026-01-20 21:49:22.14	99.87	11.94	-44.2	-46.6	18.1	0.00e+00	0	41	0	501219328	59	4919
2026-01-20 21:49:23.13	100.05	11.91	-44.2	-46.6	18.1	0.00e+00	0	41	0	503316480	59	4895
2026-01-20 21:49:24.13	100.24	11.88	-44.0	-46.4	18.3	0.00e+00	0	41	0	504365056	59	4783
2026-01-20 21:49:25.13	100.42	11.85	-44.0	-46.4	18.3	0.00e+00	0	41	0	506462208	59	4771
2026-01-20 21:49:26.12	100.60	11.83	-44.0	-46.4	18.3	0.00e+00	0	41	0	508559360	59	4764
2026-01-20 21:49:27.11	100.78	11.80	-44.0	-46.4	18.4	0.00e+00	0	41	0	510656512	59	4761
2026-01-20 21:49:28.11	100.96	11.77	-44.0	-46.4	18.3	0.00e+00	0	41	0	511705088	59	4773
2026-01-20 21:49:29.10	101.15	11.74	-44.1	-46.6	18.1	0.00e+00	0	41	0	513802240	59	4881
2026-01-20 21:49:30.10	101.33	11.72	-44.2	-46.6	18.1	0.00e+00	0	41	0	515899392	59	4888
2026-01-20 21:49:31.09	101.51	11.69	-44.4	-46.9	17.8	0.00e+00	0	41	0	517996544	59	5056
2026-01-20 21:49:32.09	101.69	11.66	-44.3	-46.8	17.8	0.00e+00	0	41	0	520093696	59	5035
2026-01-20 21:49:33.08	101.87	11.63	-44.5	-47.0	17.7	0.00e+00	0	41	0	521142272	59	5111
2026-01-20 21:49:34.08	102.05	11.60	-44.4	-46.9	17.7	0.00e+00	0	41	0	523239424	59	5090
2026-01-20 21:49:35.07	102.22	11.57	-44.5	-47.1	17.6	0.00e+00	0	41	0	525336576	59	5183
2026-01-20 21:49:36.07	102.40	11.54	-44.5	-47.0	17.6	0.00e+00	0	41	0	527433728	59	5150
2026-01-20 21:49:37.06	102.58	11.51	-44.7	-47.2	17.4	0.00e+00	0	41	0	528482304	59	5269
2026-01-20 21:49:38.05	102.76	11.48	-44.6	-47.3	17.5	0.00e+00	0	41	0	530579456	60	4987
2026-01-20 21:49:39.05	102.94	11.45	-44.8	-47.5	17.2	0.00e+00	0	41	0	532676608	60	5140
2026-01-20 21:49:40.05	103.12	11.42	-45.0	-47.8	16.9	0.00e+00	0	41	0	534773760	60	5290
2026-01-20 21:49:41.04	103.29	11.39	-45.1	-47.8	16.9	0.00e+00	0	41	0	536870912	60	5340
2026-01-20 21:49:42.04	103.47	11.36	-45.1	-47.9	16.8	0.00e+00	0	41	0	537919488	61	5054
2026-01-20 21:49:43.03	103.65	11.33	-45.1	-47.9	16.7	0.00e+00	0	41	0	540016640	61	5071
2026-01-20 21:49:44.03	103.82	11.30	-45.1	-47.9	16.8	0.00e+00	0	41	0	542113792	61	5073
2026-01-20 21:49:45.02	104.00	11.27	-45.0	-47.7	16.9	0.00e+00	0	41	0	544210944	61	4961
2026-01-20 21:49:46.02	104.17	11.24	-45.0	-47.7	16.9	0.00e+00	0	41	0	545259520	61	4958
2026-01-20 21:49:47.02	104.35	11.20	-44.8	-47.5	17.1	0.00e+00	0	41	0	547356672	61	4843
2026-01-20 21:49:48.01	104.52	11.17	-44.9	-47.6	17.0	0.00e+00	0	41	0	549453824	61	4889
2026-01-20 21:49:49.01	104.70	11.14	-44.9	-47.6	16.9	0.00e+00	0	41	0	551550976	61	4920
2026-01-20 21:49:50.00	104.87	11.11	-45.0	-47.7	16.9	0.00e+00	0	41	0	553648128	61	4949
2026-01-20 21:49:51.00	105.04	11.08	-45.1	-47.9	16.8	0.00e+00	0	41	0	554696704	61	5049
2026-01-20 21:49:51.99	105.22	11.04	-45.3	-48.2	16.5	0.00e+00	0	41	0	556793856	61	5224
2026-01-20 21:49:52.98	105.39	11.01	-45.4	-48.3	16.3	0.00e+00	0	41	0	558891008	61	5294
2026-01-20 21:49:53.98	105.56	10.98	-45.8	-48.9	15.8	0.00e+00	0	41	0	560988160	62	5357
2026-01-20 21:49:54.98	105.73	10.94	-46.0	-49.2	15.5	0.00e+00	0	41	0	562036736	62	5554
2026-01-20 21:49:55.97	105.90	10.91	-45.9	-49.1	15.6	0.00e+00	0	41	0	564133888	62	5474
2026-01-20 21:49:56.97	106.08	10.88	-45.8	-49.0	15.6	0.00e+00	0	41	0	566231040	62	5432
2026-01-20 21:49:57.96	106.25	10.84	-45.7	-48.9	15.7	0.00e+00	0	41	0	568328192	62	5388
2026-01-20 21:49:58.95	106.42	10.81	-45.8	-48.9	15.7	0.00e+00	0	41	0	570425344	62	5359
2026-01-20 21:49:59.95	106.59	10.78	-45.6	-48.6	15.9	0.00e+00	0	41	0	571473920	62	5182
2026-01-20 21:50:00.95	106.76	10.74	-45.5	-48.6	15.9	0.00e+00	0	41	0	573571072	62	5218
2026-01-20 21:50:01.94	106.93	10.71	-45.8	-48.9	15.7	0.00e+00	0	41	0	575668224	62	5361
2026-01-20 21:50:02.93	107.09	10.67	-45.9	-49.1	15.4	0.00e+00	0	41	0	577765376	62	5519
2026-01-20 21:50:03.93	107.26	10.64	-45.9	-49.3	15.3	0.00e+00	0	41	0	578813952	62	5617
2026-01-20 21:50:04.92	107.43	10.60	-46.1	-49.5	15.1	0.00e+00	0	41	0	580911104	62	5741
2026-01-20 21:50:05.92	107.60	10.57	-46.1	-49.3	15.2	7.00e-07	0	41	0	583008256	63	5328
2026-01-20 21:50:06.91	107.76	10.53	-45.8	-49.1	15.4	0.00e+00	0	41	0	585105408	63	5208
2026-01-20 21:50:07.91	107.93	10.50	-45.9	-49.1	15.5	0.00e+00	0	41	0	587202560	63	5181
2026-01-20 21:50:08.90	108.10	10.46	-45.5	-48.5	15.9	0.00e+00	0	41	0	588251136	63	4869
2026-01-20 21:50:09.89	108.26	10.42	-45.5	-48.4	16.1	0.00e+00	0	41	0	590348288	62	5083
2026-01-20 21:50:10.89	108.43	10.39	-45.4	-48.4	16.1	0.00e+00	0	41	0	592445440	62	5060
2026-01-20 21:50:11.89	108.60	10.35	-45.3	-48.4	16.1	0.00e+00	0	41	0	594542592	62	5060
2026-01-20 21:50:12.88	108.76	10.32	-45.7	-48.8	15.7	0.00e+00	0	41	0	595591168	62	5280
2026-01-20 21:50:13.88	108.93	10.28	-45.8	-49.0	15.6	0.00e+00	0	41	0	597688320	62	5409
2026-01-20 21:50:14.87	109.09	10.24	-45.9	-49.2	15.3	0.00e+00	0	41	0	599785472	62	5537
2026-01-20 21:50:15.87	109.25	10.21	-46.1	-49.4	15.1	0.00e+00	0	41	0	601882624	62	5686
2026-01-20 21:50:16.86	109.42	10.17	-45.9	-49.2	15.3	0.00e+00	0	41	0	603979776	62	5535
2026-01-20 21:50:17.86	109.58	10.13	-46.1	-49.4	15.1	0.00e+00	0	41	0	605028352	62	5687
2026-01-20 21:50:18.85	109.74	10.10	-46.1	-49.4	15.1	0.00e+00	0	41	0	607125504	63	5359
2026-01-20 21:50:19.85	109.90	10.06	-46.1	-49.4	15.1	0.00e+00	0	41	0	609222656	63	5371
2026-01-20 21:50:20.85	110.07	10.02	-46.1	-49.5	15.0	0.00e+00	0	41	0	611319808	63	5439
2026-01-20 21:50:21.84	110.23	9.98	-46.1	-49.4	15.0	0.00e+00	0	41	0	612368384	63	5375
2026-01-20 21:50:22.83	110.39	9.95	-46.1	-49.4	15.0	0.00e+00	0	41	0	614465536	63	5402
2026-01-20 21:50:23.83	110.55	9.91	-46.2	-49.5	14.9	0.00e+00	0	41	0	616562688	63	5453
2026-01-20 21:50:24.82	110.71	9.87	-46.1	-49.4	15.0	7.00e-07	0	41	0	618659840	63	5396
2026-01-20 21:50:25.82	110.87	9.83	-46.0	-49.5	14.9	0.00e+00	0	41	0	620756992	63	5429
2026-01-20 21:50:26.81	111.03	9.79	-46.1	-49.4	15.0	0.00e+00	0	41	0	621805568	63	5380
2026-01-20 21:50:27.81	111.19	9.75	-45.9	-49.3	15.1	0.00e+00	0	41	0	623902720	63	5320
2026-01-20 21:50:28.80	111.34	9.72	-46.0	-49.4	15.0	0.00e+00	0	41	0	625999872	63	5383
2026-01-20 21:50:29.80	111.50	9.68	-45.9	-49.3	15.1	0.00e+00	0	41	0	628097024	63	5295
2026-01-20 21:50:30.79	111.66	9.64	-45.9	-49.4	15.0	0.00e+00	0	41	0	629145600	63	5351
2026-01-20 21:50:31.79	111.82	9.60	-46.0	-49.4	14.9	0.00e+00	0	41	0	631242752	63	5401
2026-01-20 21:50:32.78	111.97	9.56	-46.2	-49.7	14.8	0.00e+00	0	41	0	633339904	63	5542
2026-01-20 21:50:33.78	112.13	9.52	-46.0	-49.5	14.9	0.00e+00	0	41	0	635437056	63	5448
2026-01-20 21:50:34.77	112.29	9.48	-46.1	-49.5	14.8	0.00e+00	0	41	0	637534208	63	5444
2026-01-20 21:50:35.76	112.44	9.44	-45.9	-49.2	15.1	0.00e+00	0	41	0	638582784	63	5279
2026-01-20 21:50:36.76	112.60	9.40	-45.7	-49.0	15.4	0.00e+00	0	41	0	640679936	63	5113
2026-01-20 21:50:37.75	112.75	9.36	-45.6	-48.8	15.6	0.00e+00	0	41	0	642777088	63	4994
2026-01-20 21:50:38.75	112.91	9.32	-45.5	-48.6	15.7	0.00e+00	0	41	0	644874240	63	4895
2026-01-20 21:50:39.74	113.06	9.28	-45.2	-48.1	16.2	0.00e+00	0	41	0	645922816	62	4902
2026-01-20 21:50:40.74	113.21	9.24	-45.2	-48.1	16.2	0.00e+00	0	41	0	648019968	62	4909
2026-01-20 21:50:41.73	113.37	9.20	-45.1	-48.1	16.2	0.00e+00	0	41	0	650117120	62	4897
2026-01-20 21:50:42.73	113.52	9.16	-45.4	-48.4	15.9	0.00e+00	0	41	0	652214272	62	5070
2026-01-20 21:50:43.72	113.67	9.12	-45.5	-48.6	15.7	0.00e+00	0	41	0	654311424	62	5176
2026-01-20 21:50:44.72	113.83	9.08	-45.6	-48.8	15.5	0.00e+00	0	41	0	655360000	62	5317
2026-01-20 21:50:45.71	113.98	9.04	-45.8	-49.2	15.1	0.00e+00	0	41	0	657457152	62	5561
2026-01-20 21:50:46.71	114.13	9.00	-48.7	-54.8	10.0	0.00e+00	0	41	0	659554304	67	7985
2026-01-20 21:50:47.70	114.28	8.96	-50.7	-65.8	3.8	1.49e+00	0	41	104	659554304	72	21246
2026-01-20 21:50:48.69	114.43	8.92	-50.9	-66.1	3.8	1.49e+00	0	41	104	659554304	72	21979
2026-01-20 21:50:49.69	114.58	8.88	-51.0	-66.2	3.8	1.49e+00	0	41	104	659554304	72	22080
2026-01-20 21:50:50.68	114.73	8.84	-51.1	-66.2	3.8	1.49e+00	0	41	104	659554304	72	22215
2026-01-20 21:50:51.67	114.88	8.79	-51.1	-66.3	3.8	1.49e+00	0	41	104	659554304	72	22356
2026-01-20 21:50:52.67	115.03	8.75	-51.1	-66.3	3.8	1.49e+00	0	41	104	659554304	72	22438
2026-01-20 21:50:53.66	115.17	8.71	-51.1	-66.3	3.8	1.49e+00	0	41	104	659554304	72	22519
2026-01-20 21:50:54.65	115.32	8.67	-51.0	-66.4	3.8	1.49e+00	0	41	104	659554304	72	22614
2026-01-20 21:50:55.64	115.47	8.63	-50.8	-66.4	3.8	1.49e+00	0	41	104	659554304	72	22657
2026-01-20 21:50:56.64	115.61	8.59	-50.7	-66.4	3.8	1.49e+00	0	41	104	659554304	72	22609
2026-01-20 21:50:57.63	115.76	8.55	-50.8	-66.4	3.8	1.49e+00	0	41	104	659554304	72	22672
2026-01-20 21:50:58.62	115.91	8.50	-50.8	-66.4	3.8	1.49e+00	0	41	104	659554304	72	22712
2026-01-20 21:50:59.62	116.05	8.46	-50.8	-66.4	3.8	1.49e+00	0	41	104	659554304	72	22763
2026-01-20 21:51:00.61	116.20	8.42	-51.0	-66.5	3.8	1.49e+00	0	41	104	659554304	72	22785
2026-01-20 21:51:01.60	116.34	8.38	-51.0	-66.5	3.8	1.49e+00	0	41	104	659554304	72	22782
2026-01-20 21:51:02.60	116.49	8.34	-51.0	-66.5	3.8	1.49e+00	0	41	104	659554304	72	22800
2026-01-20 21:51:03.59	116.63	8.29	-50.9	-66.4	3.8	1.49e+00	0	41	104	659554304	72	22777
2026-01-20 21:51:04.58	116.77	8.25	-50.8	-66.5	3.8	1.49e+00	0	41	104	659554304	72	22868
2026-01-20 21:51:05.58	116.92	8.21	-50.9	-66.4	3.8	1.49e+00	0	41	104	659554304	72	22761
2026-01-20 21:51:06.57	117.06	8.17	-51.0	-66.5	3.8	1.49e+00	0	41	104	659554304	72	22819
2026-01-20 21:51:07.56	117.20	8.12	-51.1	-66.5	3.8	1.49e+00	0	41	104	659554304	72	22851
2026-01-20 21:51:08.55	117.34	8.08	-51.0	-66.4	3.8	1.49e+00	0	41	104	659554304	72	22656
2026-01-20 21:51:09.55	117.49	8.04	-51.0	-66.4	3.8	1.49e+00	0	41	104	659554304	72	22744
2026-01-20 21:51:10.54	117.63	7.99	-51.0	-66.4	3.8	1.49e+00	0	41	104	659554304	72	22684
2026-01-20 21:51:11.53	117.77	7.95	-51.0	-66.4	3.8	1.49e+00	0	41	104	659554304	72	22609
2026-01-20 21:51:12.53	117.91	7.91	-51.0	-66.4	3.8	1.49e+00	0	41	104	659554304	72	22639
2026-01-20 21:51:13.52	118.05	7.87	-51.0	-66.4	3.8	1.49e+00	0	41	104	659554304	72	22683
2026-01-20 21:51:14.51	118.19	7.82	-51.0	-66.4	3.8	1.49e+00	0	41	104	659554304	72	22661
2026-01-20 21:51:15.51	118.33	7.78	-51.0	-66.4	3.8	1.49e+00	0	41	104	659554304	72	22674
2026-01-20 21:51:16.50	118.47	7.74	-51.0	-66.4	3.8	1.49e+00	0	41	104	659554304	72	22621
2026-01-20 21:51:17.49	118.60	7.69	-51.0	-66.4	3.8	1.49e+00	0	41	104	659554304	72	22559
2026-01-20 21:51:18.48	118.74	7.65	-51.0	-66.4	3.8	1.49e+00	0	41	104	659554304	72	22625
2026-01-20 21:51:19.48	118.88	7.61	-51.0	-66.4	3.8	1.49e+00	0	41	104	659554304	72	22605
2026-01-20 21:51:20.47	119.02	7.56	-51.0	-66.4	3.8	1.49e+00	0	41	104	659554304	72	22617
2026-01-20 21:51:21.46	119.15	7.52	-51.0	-66.4	3.8	1.49e+00	0	41	104	659554304	72	22610
2026-01-20 21:51:22.46	119.29	7.47	-51.0	-66.4	3.8	1.49e+00	0	41	104	659554304	72	22593
2026-01-20 21:51:23.45	119.43	7.43	-51.0	-66.4	3.8	1.49e+00	0	41	104	659554304	72	22617
2026-01-20 21:51:24.44	119.56	7.39	-51.0	-66.3	3.8	1.49e+00	0	41	104	659554304	72	22519
2026-01-20 21:51:25.44	119.70	7.34	-51.0	-66.4	3.8	1.49e+00	0	41	104	659554304	72	22611
2026-01-20 21:51:26.43	119.83	7.30	-50.9	-66.4	3.8	1.49e+00	0	41	104	659554304	72	22615
2026-01-20 21:51:27.42	119.97	7.26	-50.9	-66.4	3.8	1.49e+00	0	41	104	659554304	72	22535
2026-01-20 21:51:28.42	120.10	7.21	-50.9	-66.3	3.8	1.49e+00	0	41	104	659554304	72	22502
2026-01-20 21:51:29.41	120.23	7.17	-50.9	-66.4	3.8	1.49e+00	0	41	104	659554304	72	22587
2026-01-20 21:51:30.40	120.37	7.12	-50.9	-66.4	3.8	1.49e+00	0	41	104	659554304	72	22547
2026-01-20 21:51:31.40	120.50	7.08	-50.9	-66.3	3.8	1.49e+00	0	41	104	659554304	72	22485
2026-01-20 21:51:32.39	120.63	7.03	-51.0	-66.4	3.8	1.49e+00	0	41	104	659554304	72	22560
2026-01-20 21:51:33.38	120.76	6.99	-50.9	-66.3	3.8	1.49e+00	0	41	104	659554304	72	22498
2026-01-20 21:51:34.38	120.90	6.95	-50.9	-66.4	3.8	1.49e+00	0	41	104	659554304	72	22534
2026-01-20 21:51:35.37	121.03	6.90	-50.9	-66.4	3.8	1.49e+00	0	41	104	659554304	72	22521
2026-01-20 21:51:36.36	121.16	6.86	-50.9	-66.4	3.8	1.49e+00	0	41	104	659554304	72	22548
2026-01-20 21:51:37.36	121.29	6.81	-50.9	-66.4	3.8	1.49e+00	0	41	104	659554304	72	22534
2026-01-20 21:51:38.35	121.42	6.77	-50.9	-66.4	3.8	1.49e+00	0	41	104	659554304	72	22528
2026-01-20 21:51:39.34	121.55	6.72	-50.9	-66.3	3.8	1.49e+00	0	41	104	659554304	72	22466
2026-01-20 21:51:40.34	121.68	6.68	-50.9	-66.4	3.8	1.49e+00	0	41	104	659554304	72	22521
2026-01-20 21:51:41.33	121.81	6.63	-50.9	-66.3	3.8	1.49e+00	0	41	104	659554304	72	22484
2026-01-20 21:51:42.32	121.94	6.59	-50.9	-66.3	3.8	1.49e+00	0	41	104	659554304	72	22503
2026-01-20 21:51:43.31	122.06	6.54	-50.9	-66.4	3.8	1.49e+00	0	41	104	659554304	72	22524
2026-01-20 21:51:44.31	122.19	6.50	-50.9	-66.4	3.8	1.49e+00	0	41	104	659554304	72	22542
2026-01-20 21:51:45.30	122.32	6.45	-50.9	-66.4	3.8	1.49e+00	0	41	104	659554304	72	22583
2026-01-20 21:51:46.30	122.45	6.41	-50.9	-66.3	3.8	1.49e+00	0	41	104	659554304	72	22463
2026-01-20 21:51:47.29	122.57	6.36	-50.9	-66.3	3.8	1.49e+00	0	41	104	659554304	72	22487
2026-01-20 21:51:48.28	122.70	6.32	-50.9	-66.3	3.8	1.49e+00	0	41	104	659554304	72	22393
2026-01-20 21:51:49.27	122.83	6.28	-50.9	-66.3	3.8	1.49e+00	0	41	104	659554304	72	22442
2026-01-20 21:51:50.27	122.95	6.23	-50.9	-66.3	3.8	1.49e+00	0	41	104	659554304	72	22447
2026-01-20 21:51:51.26	123.08	6.18	-50.9	-66.3	3.8	1.49e+00	0	41	104	659554304	72	22476
2026-01-20 21:51:52.25	123.20	6.14	-50.9	-66.3	3.8	1.49e+00	0	41	104	659554304	72	22430
2026-01-20 21:51:53.25	123.33	6.09	-50.9	-66.3	3.8	1.49e+00	0	41	104	659554304	72	22434
2026-01-20 21:51:54.24	123.45	6.05	-50.9	-66.3	3.8	1.49e+00	0	41	104	659554304	72	22496
2026-01-20 21:51:55.23	123.57	6.00	-50.9	-66.3	3.8	1.49e+00	0	41	104	659554304	72	22475
2026-01-20 21:51:56.23	123.70	5.96	-50.9	-66.3	3.8	1.49e+00	0	41	104	659554304	72	22395
2026-01-20 21:51:57.22	123.82	5.91	-50.9	-66.3	3.8	1.49e+00	0	41	104	659554304	72	22477
2026-01-20 21:51:58.21	123.94	5.87	-50.9	-66.3	3.8	1.49e+00	0	41	104	659554304	72	22457
2026-01-20 21:51:59.21	124.07	5.82	-50.9	-66.3	3.8	1.49e+00	0	41	104	659554304	72	22387
2026-01-20 21:52:00.20	124.19	5.78	-50.9	-66.3	3.8	1.49e+00	0	41	104	659554304	72	22440
2026-01-20 21:52:01.19	124.31	5.73	-50.9	-66.3	3.8	1.49e+00	0	41	104	659554304	72	22430
2026-01-20 21:52:02.19	124.43	5.69	-50.9	-66.3	3.8	1.49e+00	0	41	104	659554304	72	22406
2026-01-20 21:52:03.18	124.55	5.64	-50.9	-66.3	3.8	1.49e+00	0	41	104	659554304	72	22457
2026-01-20 21:52:04.17	124.67	5.60	-50.9	-66.3	3.8	1.49e+00	0	41	104	659554304	72	22452
2026-01-20 21:52:05.16	124.79	5.55	-50.9	-66.3	3.8	1.49e+00	0	41	104	659554304	72	22384
2026-01-20 21:52:06.16	124.91	5.50	-50.9	-66.3	3.8	1.49e+00	0	41	104	659554304	72	22439
2026-01-20 21:52:07.15	125.03	5.46	-50.9	-66.3	3.8	1.49e+00	0	41	104	659554304	72	22311
2026-01-20 21:52:08.14	125.15	5.41	-50.9	-66.3	3.8	1.49e+00	0	41	104	659554304	72	22456
2026-01-20 21:52:09.14	125.27	5.37	-50.9	-66.3	3.8	1.49e+00	0	41	104	659554304	72	22394
2026-01-20 21:52:10.13	125.39	5.32	-50.9	-66.3	3.8	1.49e+00	0	41	104	659554304	72	22399
2026-01-20 21:52:11.12	125.50	5.28	-50.9	-66.3	3.8	1.49e+00	0	41	104	659554304	72	22448
2026-01-20 21:52:12.12	125.62	5.23	-50.9	-66.3	3.8	1.49e+00	0	41	104	659554304	72	22430
2026-01-20 21:52:13.11	125.74	5.18	-50.9	-66.3	3.8	1.49e+00	0	41	104	659554304	72	22436
2026-01-20 21:52:14.10	125.86	5.14	-50.9	-66.3	3.8	1.49e+00	0	41	104	659554304	72	22366
2026-01-20 21:52:15.09	125.97	5.09	-50.9	-66.3	3.8	1.49e+00	0	41	104	659554304	72	22354
2026-01-20 21:52:16.09	126.09	5.05	-50.9	-66.3	3.8	1.49e+00	0	41	104	659554304	72	22447
2026-01-20 21:52:17.08	126.20	5.00	-50.9	-66.3	3.8	1.49e+00	0	41	104	659554304	72	22307
2026-01-20 21:52:18.07	126.32	4.96	-50.9	-66.3	3.8	1.49e+00	0	41	104	659554304	72	22335

#Closed at: 2026-01-20 21:52:19
#Recorded file [659 MB]: D:/Data/31040_260121_004324.dat