passes_logs/2026/01/20/T1/T1__20260120_022002_FENGYUN_3D_rec.log

#Pass ID: 20260120_022002_FENGYUN 3D
#Satellite: FENGYUN 3D
#Configuration: FENGYUN 3D
#almurnet v.1.7.20251203
#Start time: 2026-01-20 02:20:02

#Version: 2.0.20230620
#Station: T1
#Location: 37.570604 lon 55.790049 lat
#TLE: 1 43010U 17072A   26019.30265705  .00000224  00000+0  12791-3 0  9991
#TLE: 2 43010  98.9940 351.1850 0002428 100.8496 259.2953 14.19697535423864

#Time	Az	El	Level	Level2	SNR	BER	BlckErr	Temp	State	Recorded	gain1	gain2
2026-01-20 02:20:02.94	13.32	5.04	-49.4	-62.2	3.8	8.48e-01	0	41	0	0	69	16571
2026-01-20 02:20:03.94	13.30	5.11	-49.2	-62.0	3.8	8.47e-01	0	41	104	0	69	16194
2026-01-20 02:20:04.93	13.27	5.18	-49.2	-62.0	3.8	8.47e-01	0	41	104	0	69	16176
2026-01-20 02:20:05.92	13.24	5.25	-49.2	-61.9	3.8	8.49e-01	0	41	104	0	69	16123
2026-01-20 02:20:06.91	13.22	5.32	-49.1	-61.9	3.8	8.47e-01	0	41	104	0	69	16057
2026-01-20 02:20:07.91	13.19	5.39	-49.2	-61.9	3.8	8.46e-01	0	41	104	0	69	16077
2026-01-20 02:20:08.90	13.17	5.46	-49.1	-61.9	3.8	8.47e-01	0	41	104	0	69	16107
2026-01-20 02:20:09.90	13.14	5.53	-49.2	-61.9	3.8	8.47e-01	0	41	104	0	69	16098
2026-01-20 02:20:10.89	13.11	5.60	-49.2	-62.0	3.8	8.47e-01	0	41	104	0	69	16144
2026-01-20 02:20:11.88	13.09	5.67	-49.1	-62.0	3.8	8.47e-01	0	42	104	0	69	16262
2026-01-20 02:20:12.88	13.06	5.74	-49.2	-62.0	3.8	8.47e-01	0	42	104	0	69	16192
2026-01-20 02:20:13.87	13.03	5.82	-49.2	-62.1	3.8	8.46e-01	0	42	104	0	69	16350
2026-01-20 02:20:14.86	13.01	5.89	-49.1	-62.0	3.8	8.47e-01	0	42	104	0	69	16294
2026-01-20 02:20:15.86	12.98	5.96	-49.2	-62.0	3.8	8.46e-01	0	42	104	0	69	16298
2026-01-20 02:20:16.85	12.95	6.03	-49.1	-62.1	3.8	8.46e-01	0	42	104	0	69	16378
2026-01-20 02:20:17.84	12.93	6.10	-49.2	-62.0	3.8	8.47e-01	0	42	104	0	69	16255
2026-01-20 02:20:18.84	12.90	6.18	-49.1	-62.0	3.8	8.47e-01	0	42	104	0	69	16143
2026-01-20 02:20:19.83	12.87	6.25	-49.1	-61.9	3.8	8.46e-01	0	42	104	0	69	15951
2026-01-20 02:20:20.82	12.84	6.32	-49.1	-61.8	3.8	8.47e-01	0	42	104	0	69	15764
2026-01-20 02:20:21.81	12.82	6.40	-49.1	-61.6	3.8	8.47e-01	0	42	104	0	69	15510
2026-01-20 02:20:22.81	12.79	6.47	-49.1	-61.4	3.8	8.46e-01	0	42	104	0	69	15112
2026-01-20 02:20:23.80	12.76	6.54	-49.1	-61.2	3.8	8.47e-01	0	42	104	0	69	14733
2026-01-20 02:20:24.80	12.73	6.62	-49.1	-61.0	3.8	8.47e-01	0	42	104	0	69	14387
2026-01-20 02:20:25.79	12.70	6.69	-49.1	-60.8	3.8	8.46e-01	0	42	104	0	69	14079
2026-01-20 02:20:26.78	12.67	6.77	-49.0	-60.6	3.8	8.46e-01	0	42	104	0	69	13848
2026-01-20 02:20:27.78	12.64	6.84	-49.0	-60.5	3.8	8.47e-01	0	42	104	0	69	13658
2026-01-20 02:20:28.77	12.61	6.92	-49.0	-60.5	3.8	8.47e-01	0	42	104	0	69	13593
2026-01-20 02:20:29.76	12.59	6.99	-49.0	-60.5	3.8	8.47e-01	0	42	104	0	69	13670
2026-01-20 02:20:30.76	12.56	7.07	-49.0	-60.7	3.8	8.47e-01	0	42	104	0	69	13937
2026-01-20 02:20:31.75	12.53	7.14	-49.0	-60.9	3.8	8.46e-01	0	42	104	0	69	14264
2026-01-20 02:20:32.74	12.50	7.22	-49.1	-61.1	3.8	8.47e-01	0	42	104	0	69	14660
2026-01-20 02:20:33.74	12.47	7.29	-49.1	-61.4	3.8	8.47e-01	0	42	104	0	69	15165
2026-01-20 02:20:34.73	12.44	7.37	-49.1	-61.6	3.8	8.47e-01	0	42	104	0	69	15500
2026-01-20 02:20:35.72	12.41	7.44	-49.1	-61.7	3.8	8.47e-01	0	42	104	0	69	15730
2026-01-20 02:20:36.72	12.38	7.52	-49.1	-61.8	3.8	8.47e-01	0	42	104	0	69	15803
2026-01-20 02:20:37.71	12.34	7.60	-49.1	-61.6	3.8	8.47e-01	0	42	104	0	69	15451
2026-01-20 02:20:38.70	12.31	7.67	-49.1	-61.1	3.8	8.47e-01	0	43	104	0	69	14682
2026-01-20 02:20:39.69	12.28	7.75	-49.0	-60.5	3.8	8.47e-01	0	42	104	0	69	13600
2026-01-20 02:20:40.69	12.25	7.83	-48.9	-59.3	4.0	8.47e-01	0	43	104	0	69	11866
2026-01-20 02:20:41.68	12.22	7.91	-48.7	-58.0	4.3	8.34e-01	0	42	0	0	69	10209
2026-01-20 02:20:42.67	12.19	7.98	-48.5	-56.6	5.0	8.02e-01	0	43	0	0	68	9222
2026-01-20 02:20:43.67	12.16	8.06	-48.1	-55.2	5.9	5.20e-01	0	43	0	1048576	68	7828
2026-01-20 02:20:44.66	12.12	8.14	-47.5	-53.7	7.0	2.27e-01	0	43	0	6291456	67	6963
2026-01-20 02:20:45.66	12.09	8.22	-47.1	-52.5	8.1	1.04e-01	0	43	0	12582912	66	6422
2026-01-20 02:20:46.65	12.06	8.30	-46.6	-51.3	9.3	3.26e-02	0	43	0	17825792	65	5990
2026-01-20 02:20:47.64	12.03	8.38	-46.2	-50.6	10.1	1.23e-02	0	43	0	23068672	64	5809
2026-01-20 02:20:48.64	11.99	8.46	-45.8	-49.8	11.0	3.07e-03	0	43	0	28311552	63	5600
2026-01-20 02:20:49.63	11.96	8.53	-45.5	-49.2	11.7	1.23e-03	0	43	0	34603008	63	5222
2026-01-20 02:20:50.62	11.93	8.61	-45.2	-48.7	12.1	5.24e-04	0	43	0	39845888	62	5255
2026-01-20 02:20:51.62	11.89	8.69	-45.0	-48.5	12.4	2.21e-04	0	43	0	45088768	62	5107
2026-01-20 02:20:52.61	11.86	8.77	-44.9	-48.3	12.5	1.75e-04	0	43	0	51380224	61	5326
2026-01-20 02:20:53.60	11.83	8.85	-45.0	-48.4	12.4	2.31e-04	0	43	0	56623104	61	5369
2026-01-20 02:20:54.60	11.79	8.94	-45.1	-48.6	12.2	2.77e-04	0	43	0	62914560	61	5507
2026-01-20 02:20:55.59	11.76	9.02	-45.3	-49.0	11.8	4.80e-04	0	43	0	68157440	61	5742
2026-01-20 02:20:56.59	11.72	9.10	-45.5	-49.2	11.6	1.26e-03	0	43	0	73400320	61	5913
2026-01-20 02:20:57.58	11.69	9.18	-45.0	-48.5	12.4	9.80e-04	0	43	0	78643200	61	5412
2026-01-20 02:20:58.78	11.65	9.28	-46.9	-52.0	8.6	1.64e-04	0	43	0	85983232	64	6870
2026-01-20 02:20:59.64	11.62	9.35	-47.6	-53.9	6.9	1.64e-01	0	43	0	90177536	65	8000
2026-01-20 02:21:00.77	11.58	9.44	-41.4	-44.1	16.5	2.82e-02	0	43	0	95420416	55	4643
2026-01-20 02:21:01.62	11.55	9.51	-40.8	-43.1	17.6	0.00e+00	0	43	0	100663296	53	4609
2026-01-20 02:21:02.76	11.50	9.61	-40.6	-42.8	17.8	0.00e+00	0	43	0	106954752	53	4467
2026-01-20 02:21:03.61	11.47	9.68	-40.1	-42.2	18.4	0.00e+00	0	43	0	112197632	52	4421
2026-01-20 02:21:05.08	11.42	9.80	-39.9	-42.1	18.7	0.00e+00	0	43	0	120586240	51	4602
2026-01-20 02:21:05.79	11.39	9.86	-39.9	-42.1	18.7	0.00e+00	0	43	0	123731968	51	4600
2026-01-20 02:21:07.07	11.35	9.97	-39.9	-42.0	18.7	0.00e+00	0	43	0	131072000	51	4584
2026-01-20 02:21:07.79	11.32	10.03	-39.8	-41.9	18.8	0.00e+00	0	43	0	135266304	51	4532
2026-01-20 02:21:09.06	11.27	10.14	-39.8	-41.9	18.8	0.00e+00	0	43	0	142606336	51	4503
2026-01-20 02:21:09.77	11.24	10.20	-39.7	-41.8	18.9	0.00e+00	0	43	0	146800640	51	4448
2026-01-20 02:21:11.06	11.20	10.31	-39.8	-41.9	18.8	0.00e+00	0	43	0	154140672	51	4510
2026-01-20 02:21:11.78	11.17	10.37	-39.6	-41.7	19.0	0.00e+00	0	43	0	157286400	51	4439
2026-01-20 02:21:13.06	11.12	10.48	-39.6	-41.7	19.0	0.00e+00	0	43	0	164626432	51	4432
2026-01-20 02:21:13.77	11.09	10.54	-39.7	-41.8	19.0	0.00e+00	0	43	0	168820736	51	4452
2026-01-20 02:21:15.05	11.04	10.65	-39.6	-41.7	19.0	0.00e+00	0	43	0	176160768	51	4419
2026-01-20 02:21:15.76	11.01	10.72	-39.6	-41.7	19.1	0.00e+00	0	43	0	180355072	51	4404
2026-01-20 02:21:17.06	10.96	10.83	-39.7	-41.8	19.0	0.00e+00	0	43	0	187695104	51	4444
2026-01-20 02:21:17.77	10.93	10.89	-39.7	-41.8	19.0	0.00e+00	0	43	0	191889408	51	4442
2026-01-20 02:21:19.14	10.88	11.01	-39.7	-41.8	19.0	0.00e+00	0	43	0	199229440	51	4455
2026-01-20 02:21:19.85	10.85	11.07	-39.7	-41.8	19.0	0.00e+00	0	43	0	203423744	51	4465
2026-01-20 02:21:21.21	10.79	11.20	-39.7	-41.8	19.0	0.00e+00	0	43	0	210763776	51	4470
2026-01-20 02:21:21.92	10.77	11.26	-39.7	-41.8	19.0	0.00e+00	0	43	0	214958080	51	4470
2026-01-20 02:21:23.20	10.71	11.37	-39.5	-41.6	19.2	0.00e+00	0	43	0	222298112	51	4367
2026-01-20 02:21:23.91	10.68	11.44	-39.5	-41.6	19.2	0.00e+00	0	43	0	226492416	51	4369
2026-01-20 02:21:25.19	10.63	11.55	-39.6	-41.7	19.1	0.00e+00	0	43	0	232783872	51	4397
2026-01-20 02:21:25.92	10.60	11.62	-39.5	-41.5	19.2	0.00e+00	0	43	0	236978176	50	4585
2026-01-20 02:21:27.20	10.54	11.73	-39.6	-41.6	19.2	0.00e+00	0	43	0	244318208	50	4632
2026-01-20 02:21:27.92	10.51	11.80	-39.6	-41.6	19.1	0.00e+00	0	43	0	248512512	50	4640
2026-01-20 02:21:29.20	10.46	11.91	-39.4	-41.5	19.3	0.00e+00	0	43	0	255852544	50	4559
2026-01-20 02:21:29.91	10.43	11.98	-39.4	-41.4	19.4	0.00e+00	0	43	0	260046848	50	4536
2026-01-20 02:21:31.19	10.37	12.10	-39.3	-41.4	19.4	0.00e+00	0	43	0	267386880	50	4494
2026-01-20 02:21:32.00	10.34	12.17	-39.3	-41.3	19.5	0.00e+00	0	43	0	271581184	50	4464
2026-01-20 02:21:33.13	10.29	12.28	-39.3	-41.3	19.4	0.00e+00	0	43	0	277872640	50	4490
2026-01-20 02:21:33.99	10.25	12.35	-39.3	-41.3	19.5	0.00e+00	0	43	0	283115520	50	4467
2026-01-20 02:21:35.12	10.20	12.46	-39.2	-41.2	19.6	0.00e+00	0	43	0	289406976	50	4407
2026-01-20 02:21:35.98	10.16	12.54	-39.2	-41.2	19.6	0.00e+00	0	43	0	293601280	50	4432
2026-01-20 02:21:37.12	10.11	12.65	-39.1	-41.0	19.7	0.00e+00	0	43	0	299892736	50	4340
2026-01-20 02:21:37.97	10.07	12.73	-39.1	-41.1	19.7	0.00e+00	0	44	0	305135616	50	4356
2026-01-20 02:21:39.11	10.02	12.83	-39.1	-41.1	19.7	0.00e+00	0	43	0	311427072	50	4342
2026-01-20 02:21:39.96	9.98	12.92	-39.0	-41.0	19.8	0.00e+00	0	43	0	316669952	50	4318
2026-01-20 02:21:41.13	9.92	13.03	-39.1	-41.0	19.8	0.00e+00	0	43	0	322961408	50	4338
2026-01-20 02:21:42.41	9.86	13.15	-39.0	-41.0	19.8	0.00e+00	0	43	0	330301440	50	4323
2026-01-20 02:21:43.14	9.83	13.22	-39.0	-40.9	19.9	0.00e+00	0	43	0	334495744	50	4286
2026-01-20 02:21:44.42	9.77	13.34	-38.9	-40.9	19.9	0.00e+00	0	43	0	341835776	49	4510
2026-01-20 02:21:45.13	9.73	13.41	-38.9	-40.8	20.0	0.00e+00	0	43	0	344981504	49	4485
2026-01-20 02:21:46.44	9.67	13.54	-38.9	-40.8	20.0	0.00e+00	0	43	0	352321536	49	4478
2026-01-20 02:21:47.15	9.64	13.61	-38.8	-40.8	20.0	0.00e+00	0	43	0	356515840	49	4460
2026-01-20 02:21:48.43	9.57	13.73	-38.9	-40.9	19.9	0.00e+00	0	43	0	363855872	49	4512
2026-01-20 02:21:49.15	9.54	13.80	-39.0	-41.0	19.8	0.00e+00	0	43	0	368050176	49	4546
2026-01-20 02:21:50.43	9.47	13.93	-38.8	-40.7	20.0	0.00e+00	0	43	0	375390208	49	4438
2026-01-20 02:21:51.14	9.44	14.00	-38.7	-40.6	20.2	0.00e+00	0	43	0	379584512	49	4370
2026-01-20 02:21:52.42	9.37	14.13	-38.7	-40.6	20.2	0.00e+00	0	44	0	386924544	49	4369
2026-01-20 02:21:53.13	9.34	14.20	-38.8	-40.7	20.1	0.00e+00	0	43	0	390070272	49	4407
2026-01-20 02:21:54.42	9.27	14.33	-38.7	-40.6	20.2	0.00e+00	0	44	0	397410304	49	4373
2026-01-20 02:21:55.14	9.23	14.40	-38.7	-40.6	20.2	0.00e+00	0	44	0	401604608	49	4391
2026-01-20 02:21:56.42	9.17	14.53	-38.6	-40.5	20.3	0.00e+00	0	43	0	408944640	49	4314
2026-01-20 02:21:57.16	9.13	14.60	-38.6	-40.5	20.3	0.00e+00	0	44	0	413138944	49	4316
2026-01-20 02:21:58.44	9.06	14.73	-38.7	-40.6	20.2	0.00e+00	0	43	0	420478976	49	4341
2026-01-20 02:21:59.15	9.02	14.80	-38.5	-40.4	20.3	0.00e+00	0	43	0	424673280	49	4268
2026-01-20 02:22:00.43	8.96	14.93	-38.5	-40.4	20.4	0.00e+00	0	44	0	430964736	48	4504
2026-01-20 02:22:01.14	8.92	15.01	-38.6	-40.4	20.4	0.00e+00	0	44	0	435159040	48	4537
2026-01-20 02:22:02.42	8.85	15.14	-38.5	-40.4	20.4	0.00e+00	0	43	0	442499072	48	4511
2026-01-20 02:22:03.13	8.81	15.21	-38.6	-40.4	20.4	0.00e+00	0	43	0	446693376	48	4542
2026-01-20 02:22:04.46	8.74	15.35	-38.4	-40.3	20.5	0.00e+00	0	44	0	454033408	48	4445
2026-01-20 02:22:05.17	8.70	15.43	-38.3	-40.1	20.7	0.00e+00	0	43	0	458227712	48	4379
2026-01-20 02:22:06.45	8.62	15.56	-38.3	-40.1	20.7	0.00e+00	0	43	0	465567744	48	4369
2026-01-20 02:22:07.17	8.58	15.64	-38.2	-40.0	20.8	0.00e+00	0	44	0	469762048	48	4317
2026-01-20 02:22:08.45	8.51	15.77	-38.2	-40.0	20.7	0.00e+00	0	43	0	477102080	48	4330
2026-01-20 02:22:09.17	8.47	15.85	-38.1	-39.9	20.8	0.00e+00	0	44	0	480247808	48	4282
2026-01-20 02:22:10.44	8.40	15.98	-38.2	-40.0	20.8	0.00e+00	0	44	0	487587840	48	4328
2026-01-20 02:22:11.17	8.35	16.06	-38.0	-39.8	20.9	0.00e+00	0	44	0	491782144	48	4232
2026-01-20 02:22:12.65	8.27	16.22	-38.0	-39.8	21.0	0.00e+00	0	44	0	500170752	48	4212
2026-01-20 02:22:13.36	8.23	16.30	-38.0	-39.8	20.9	0.00e+00	0	43	0	504365056	48	4237
2026-01-20 02:22:14.64	8.15	16.44	-37.9	-39.7	20.9	0.00e+00	0	44	0	511705088	47	4400
2026-01-20 02:22:15.35	8.11	16.51	-37.9	-39.7	20.9	0.00e+00	0	44	0	515899392	47	4397
2026-01-20 02:22:16.76	8.02	16.67	-37.9	-39.7	20.8	0.00e+00	0	44	0	523239424	47	4431
2026-01-20 02:22:17.47	7.98	16.74	-37.9	-39.7	20.8	0.00e+00	0	44	0	527433728	47	4429
2026-01-20 02:22:18.81	7.90	16.89	-37.9	-39.7	20.8	0.00e+00	0	44	0	534773760	47	4412
2026-01-20 02:22:19.52	7.85	16.97	-37.9	-39.7	20.8	0.00e+00	0	43	0	538968064	47	4423
2026-01-20 02:22:20.80	7.77	17.11	-37.9	-39.7	20.8	0.00e+00	0	43	0	546308096	47	4430
2026-01-20 02:22:21.52	7.73	17.19	-37.9	-39.6	20.9	0.00e+00	0	44	0	550502400	47	4385
2026-01-20 02:22:22.79	7.65	17.34	-37.8	-39.5	21.0	0.00e+00	0	44	0	556793856	47	4334
2026-01-20 02:22:23.52	7.60	17.42	-37.7	-39.5	21.0	0.00e+00	0	44	0	560988160	47	4317
2026-01-20 02:22:24.80	7.52	17.56	-37.6	-39.4	21.1	0.00e+00	0	43	0	568328192	47	4256
2026-01-20 02:22:25.51	7.47	17.64	-37.6	-39.4	21.1	0.00e+00	0	43	0	572522496	47	4271
2026-01-20 02:22:26.79	7.39	17.79	-37.5	-39.3	21.2	0.00e+00	0	44	0	579862528	47	4217
2026-01-20 02:22:27.50	7.34	17.87	-37.5	-39.3	21.2	0.00e+00	0	43	0	584056832	47	4196
2026-01-20 02:22:28.78	7.26	18.02	-37.6	-39.4	21.1	0.00e+00	0	44	0	591396864	47	4264
2026-01-20 02:22:29.65	7.20	18.12	-37.6	-39.4	21.1	0.00e+00	0	44	0	595591168	47	4253
2026-01-20 02:22:31.10	7.10	18.29	-37.6	-39.4	21.2	0.00e+00	0	44	0	603979776	47	4249
2026-01-20 02:22:31.81	7.05	18.37	-37.5	-39.2	21.3	0.00e+00	0	43	0	608174080	46	4423
2026-01-20 02:22:33.09	6.96	18.52	-37.4	-39.2	21.3	0.00e+00	0	44	0	615514112	46	4414
2026-01-20 02:22:33.81	6.91	18.61	-37.5	-39.2	21.3	0.00e+00	0	44	0	619708416	46	4438
2026-01-20 02:22:35.09	6.82	18.76	-37.4	-39.2	21.3	0.00e+00	0	44	0	625999872	46	4413
2026-01-20 02:22:35.87	6.77	18.85	-37.5	-39.3	21.3	0.00e+00	0	44	0	631242752	46	4445
2026-01-20 02:22:37.15	6.68	19.00	-37.4	-39.1	21.4	0.00e+00	0	44	0	637534208	46	4381
2026-01-20 02:22:37.87	6.62	19.09	-37.4	-39.2	21.4	0.00e+00	0	44	0	641728512	46	4410
2026-01-20 02:22:39.15	6.53	19.24	-37.3	-39.1	21.4	0.00e+00	0	44	0	649068544	46	4381
2026-01-20 02:22:39.88	6.48	19.33	-37.3	-39.1	21.4	0.00e+00	0	44	0	653262848	46	4376
2026-01-20 02:22:41.15	6.39	19.49	-37.3	-39.1	21.4	0.00e+00	0	44	0	660602880	46	4377
2026-01-20 02:22:41.86	6.33	19.57	-37.3	-39.1	21.4	0.00e+00	0	44	0	664797184	46	4360
2026-01-20 02:22:43.15	6.24	19.73	-37.3	-39.1	21.5	0.00e+00	0	44	0	672137216	46	4356
2026-01-20 02:22:43.86	6.18	19.82	-37.3	-39.1	21.5	0.00e+00	0	44	0	676331520	46	4380
2026-01-20 02:22:45.17	6.08	19.98	-37.3	-39.1	21.5	0.00e+00	0	44	0	683671552	46	4349
2026-01-20 02:22:46.16	6.01	20.10	-37.3	-39.1	21.5	0.00e+00	0	43	0	688914432	46	4373
2026-01-20 02:22:47.48	5.90	20.27	-37.3	-39.1	21.4	0.00e+00	0	44	0	696254464	46	4366
2026-01-20 02:22:48.19	5.85	20.36	-37.2	-39.0	21.6	0.00e+00	0	44	0	700448768	46	4317
2026-01-20 02:22:49.81	5.72	20.56	-37.2	-38.9	21.6	0.00e+00	0	43	0	708837376	46	4286
2026-01-20 02:22:50.38	5.67	20.64	-37.2	-39.0	21.6	0.00e+00	0	44	0	711983104	46	4307
2026-01-20 02:22:52.09	5.54	20.85	-37.2	-39.0	21.6	0.00e+00	0	44	0	722468864	46	4311
2026-01-20 02:22:52.66	5.49	20.93	-37.2	-38.9	21.6	0.00e+00	0	44	0	725614592	46	4275
2026-01-20 02:22:54.36	5.35	21.15	-37.2	-38.9	21.7	0.00e+00	0	44	0	735051776	46	4270
2026-01-20 02:22:54.93	5.30	21.22	-37.1	-38.8	21.7	0.00e+00	0	44	0	738197504	46	4238
2026-01-20 02:22:56.64	5.16	21.44	-37.0	-38.8	21.7	0.00e+00	0	44	0	747634688	46	4200
2026-01-20 02:22:57.33	5.10	21.53	-37.1	-38.9	21.7	0.00e+00	0	44	0	751828992	46	4246
2026-01-20 02:22:58.75	4.98	21.72	-36.9	-38.6	21.9	0.00e+00	0	44	0	759169024	45	4362
2026-01-20 02:22:59.53	4.91	21.82	-36.9	-38.6	21.9	0.00e+00	0	44	0	764411904	45	4350
2026-01-20 02:23:00.80	4.80	21.99	-37.0	-38.7	21.8	0.00e+00	0	44	0	770703360	45	4402
2026-01-20 02:23:01.59	4.73	22.10	-36.9	-38.6	21.9	0.00e+00	0	44	0	775946240	45	4365
2026-01-20 02:23:02.76	4.63	22.26	-36.9	-38.6	21.9	0.00e+00	0	44	0	782237696	45	4365
2026-01-20 02:23:03.78	4.54	22.39	-36.9	-38.6	21.9	0.00e+00	0	44	0	787480576	45	4384
2026-01-20 02:23:04.95	4.43	22.55	-36.9	-38.6	21.9	0.00e+00	0	44	0	794820608	45	4369
2026-01-20 02:23:05.84	4.35	22.67	-36.9	-38.6	21.9	0.00e+00	0	44	0	799014912	45	4362
2026-01-20 02:23:06.98	4.24	22.83	-36.9	-38.6	21.9	0.00e+00	0	44	0	805306368	45	4373
2026-01-20 02:23:07.83	4.16	22.95	-36.7	-38.5	22.0	0.00e+00	0	44	0	810549248	45	4296
2026-01-20 02:23:08.97	4.06	23.10	-36.7	-38.4	22.1	0.00e+00	0	44	0	816840704	45	4272
2026-01-20 02:23:09.82	3.98	23.22	-36.7	-38.4	22.1	0.00e+00	0	44	0	822083584	45	4291
2026-01-20 02:23:10.96	3.87	23.38	-36.6	-38.3	22.2	0.00e+00	0	44	0	828375040	45	4227
2026-01-20 02:23:11.81	3.79	23.50	-36.6	-38.3	22.2	0.00e+00	0	44	0	832569344	45	4206
2026-01-20 02:23:12.95	3.67	23.66	-36.6	-38.3	22.2	0.00e+00	0	44	0	839909376	45	4231
2026-01-20 02:23:13.80	3.59	23.78	-36.5	-38.2	22.2	0.00e+00	0	44	0	844103680	45	4174
2026-01-20 02:23:14.94	3.48	23.94	-36.5	-38.2	22.3	0.00e+00	0	44	0	850395136	45	4159
2026-01-20 02:23:15.79	3.39	24.07	-36.5	-38.2	22.3	0.00e+00	0	44	0	855638016	45	4179
2026-01-20 02:23:16.93	3.28	24.23	-36.4	-38.1	22.4	0.00e+00	0	44	0	861929472	44	4366
2026-01-20 02:23:17.78	3.19	24.35	-36.4	-38.1	22.4	0.00e+00	0	44	0	866123776	44	4348
2026-01-20 02:23:18.92	3.07	24.52	-36.3	-38.0	22.4	0.00e+00	0	44	0	873463808	44	4332
2026-01-20 02:23:19.77	2.98	24.64	-36.3	-37.9	22.5	0.00e+00	0	44	0	877658112	44	4288
2026-01-20 02:23:21.00	2.85	24.82	-36.1	-37.8	22.6	0.00e+00	0	44	0	884998144	44	4227
2026-01-20 02:23:21.86	2.76	24.95	-36.2	-37.8	22.6	0.00e+00	0	44	0	889192448	44	4230
2026-01-20 02:23:23.07	2.63	25.13	-36.2	-37.8	22.6	0.00e+00	0	44	0	896532480	44	4234
2026-01-20 02:23:23.93	2.54	25.26	-36.1	-37.8	22.6	0.00e+00	0	44	0	900726784	44	4222
2026-01-20 02:23:25.11	2.41	25.43	-36.2	-37.8	22.6	0.00e+00	0	44	0	908066816	44	4229
2026-01-20 02:23:25.96	2.32	25.56	-36.1	-37.7	22.7	0.00e+00	0	44	0	912261120	44	4182
2026-01-20 02:23:27.10	2.19	25.73	-36.0	-37.6	22.8	0.00e+00	0	44	0	919601152	44	4143
2026-01-20 02:23:27.95	2.09	25.86	-35.8	-37.4	22.8	0.00e+00	0	44	0	923795456	43	4288
2026-01-20 02:23:29.09	1.96	26.04	-35.8	-37.4	22.8	0.00e+00	0	44	0	930086912	43	4276
2026-01-20 02:23:30.02	1.86	26.18	-35.8	-37.5	22.8	0.00e+00	0	44	0	935329792	43	4292
2026-01-20 02:23:31.02	1.74	26.33	-35.7	-37.4	22.8	0.00e+00	0	44	0	940572672	43	4246
2026-01-20 02:23:32.01	1.62	26.49	-35.8	-37.5	22.8	0.00e+00	0	44	0	946864128	43	4305
2026-01-20 02:23:33.01	1.51	26.64	-35.9	-37.5	22.7	0.00e+00	0	44	0	952107008	43	4332
2026-01-20 02:23:34.00	1.39	26.80	-35.9	-37.6	22.7	0.00e+00	0	44	0	958398464	43	4345
2026-01-20 02:23:35.00	1.27	26.95	-35.9	-37.6	22.7	0.00e+00	0	44	0	963641344	43	4360
2026-01-20 02:23:35.99	1.14	27.11	-36.0	-37.7	22.6	0.00e+00	0	44	0	968884224	43	4420
2026-01-20 02:23:36.98	1.02	27.27	-36.1	-37.7	22.6	0.00e+00	0	44	0	974127104	43	4434
2026-01-20 02:23:37.98	0.90	27.42	-36.0	-37.7	22.6	0.00e+00	0	44	0	980418560	43	4416
2026-01-20 02:23:38.98	0.77	27.59	-36.1	-37.7	22.6	0.00e+00	0	44	0	985661440	43	4441
2026-01-20 02:23:39.97	0.65	27.74	-36.0	-37.7	22.6	0.00e+00	0	44	0	991952896	43	4421
2026-01-20 02:23:40.97	0.52	27.91	-36.0	-37.7	22.6	0.00e+00	0	44	0	997195776	43	4395
2026-01-20 02:23:41.96	0.39	28.07	-36.0	-37.6	22.7	0.00e+00	0	44	0	1002438656	43	4380
2026-01-20 02:23:42.96	0.26	28.23	-35.9	-37.6	22.7	0.00e+00	0	44	0	1008730112	43	4356
2026-01-20 02:23:43.95	0.13	28.39	-36.0	-37.7	22.6	0.00e+00	0	44	0	1013972992	43	4402
2026-01-20 02:23:44.95	359.99	28.56	-36.0	-37.7	22.6	0.00e+00	0	44	0	1019215872	43	4399
2026-01-20 02:23:45.94	359.86	28.72	-36.0	-37.6	22.7	0.00e+00	0	44	0	1024458752	43	4384
2026-01-20 02:23:46.94	359.72	28.89	-36.0	-37.6	22.7	0.00e+00	0	44	0	1030750208	43	4388
2026-01-20 02:23:47.93	359.58	29.05	-35.9	-37.6	22.7	0.00e+00	0	44	0	1035993088	43	4364
2026-01-20 02:23:48.93	359.44	29.22	-36.0	-37.7	22.6	0.00e+00	0	44	0	1042284544	43	4393
2026-01-20 02:23:49.92	359.30	29.39	-35.9	-37.6	22.7	0.00e+00	0	44	0	1047527424	43	4375
2026-01-20 02:23:50.92	359.16	29.56	-35.9	-37.5	22.8	0.00e+00	0	44	0	1052770304	43	4338
2026-01-20 02:23:51.91	359.02	29.73	-36.0	-37.6	22.7	0.00e+00	0	44	0	1059061760	43	4378
2026-01-20 02:23:52.91	358.87	29.90	-35.9	-37.6	22.7	0.00e+00	0	44	0	1064304640	43	4343
2026-01-20 02:23:53.90	358.73	30.07	-35.9	-37.5	22.7	0.00e+00	0	44	0	1069547520	43	4334
2026-01-20 02:23:54.95	358.57	30.25	-35.8	-37.5	22.8	0.00e+00	0	44	0	1075838976	43	4302
2026-01-20 02:23:55.92	358.42	30.42	-35.9	-37.5	22.8	0.00e+00	0	44	0	1081081856	43	4323
2026-01-20 02:23:56.92	358.27	30.59	-35.7	-37.4	22.9	0.00e+00	0	44	0	1086324736	43	4261
2026-01-20 02:23:57.92	358.12	30.77	-35.8	-37.4	22.8	0.00e+00	0	44	0	1092616192	43	4283
2026-01-20 02:23:58.91	357.96	30.94	-35.7	-37.3	22.9	0.00e+00	0	44	0	1097859072	43	4238
2026-01-20 02:23:59.91	357.80	31.12	-35.7	-37.4	22.9	0.00e+00	0	44	0	1104150528	43	4257
2026-01-20 02:24:00.91	357.64	31.30	-35.8	-37.4	22.9	0.00e+00	0	44	0	1109393408	43	4283
2026-01-20 02:24:01.90	357.48	31.47	-35.7	-37.3	22.9	0.00e+00	0	44	0	1114636288	43	4238
2026-01-20 02:24:02.90	357.32	31.65	-35.6	-37.3	23.0	0.00e+00	0	44	0	1120927744	43	4214
2026-01-20 02:24:03.89	357.16	31.83	-35.7	-37.3	22.9	0.00e+00	0	44	0	1126170624	43	4239
2026-01-20 02:24:04.89	356.99	32.01	-35.6	-37.2	23.0	0.00e+00	0	44	0	1131413504	43	4182
2026-01-20 02:24:05.89	356.82	32.20	-35.4	-37.1	23.2	0.00e+00	0	44	0	1136656384	42	4353
2026-01-20 02:24:06.88	356.65	32.38	-35.5	-37.2	23.1	0.00e+00	0	44	0	1142947840	42	4409
2026-01-20 02:24:07.88	356.48	32.56	-35.5	-37.1	23.1	0.00e+00	0	44	0	1148190720	42	4381
2026-01-20 02:24:08.87	356.31	32.74	-35.5	-37.1	23.1	0.00e+00	0	44	0	1154482176	42	4379
2026-01-20 02:24:09.86	356.13	32.93	-35.5	-37.2	23.1	0.00e+00	0	44	0	1159725056	42	4406
2026-01-20 02:24:10.86	355.95	33.11	-35.4	-37.1	23.1	0.00e+00	0	44	0	1164967936	42	4365
2026-01-20 02:24:11.95	355.76	33.32	-35.5	-37.2	23.0	0.00e+00	0	44	0	1171259392	42	4428
2026-01-20 02:24:12.83	355.60	33.48	-35.6	-37.3	23.0	0.00e+00	0	44	0	1176502272	42	4442
2026-01-20 02:24:13.97	355.38	33.70	-35.6	-37.3	23.0	0.00e+00	0	44	0	1182793728	42	4445
2026-01-20 02:24:14.82	355.22	33.86	-35.7	-37.4	22.9	0.00e+00	0	44	0	1186988032	42	4509
2026-01-20 02:24:15.96	355.01	34.07	-35.5	-37.2	23.0	0.00e+00	0	44	0	1194328064	42	4431
2026-01-20 02:24:16.81	354.85	34.24	-35.6	-37.3	23.1	0.00e+00	0	44	0	1198522368	42	4452
2026-01-20 02:24:17.95	354.62	34.46	-35.5	-37.2	23.1	0.00e+00	0	44	0	1204813824	42	4396
2026-01-20 02:24:18.80	354.46	34.62	-35.6	-37.3	23.0	0.00e+00	0	44	0	1210056704	42	4457
2026-01-20 02:24:19.94	354.23	34.84	-35.5	-37.2	23.1	0.00e+00	0	44	0	1216348160	42	4397
2026-01-20 02:24:20.79	354.06	35.01	-35.4	-37.1	23.2	0.00e+00	0	44	0	1220542464	42	4373
2026-01-20 02:24:21.93	353.83	35.23	-35.5	-37.1	23.2	0.00e+00	0	44	0	1227882496	42	4373
2026-01-20 02:24:22.78	353.65	35.39	-35.4	-37.1	23.2	0.00e+00	0	44	0	1232076800	42	4346
2026-01-20 02:24:23.92	353.41	35.62	-35.4	-37.0	23.2	0.00e+00	0	44	0	1238368256	42	4335
2026-01-20 02:24:24.77	353.23	35.79	-35.5	-37.2	23.1	0.00e+00	0	44	0	1243611136	42	4428
2026-01-20 02:24:25.91	352.99	36.01	-35.6	-37.2	23.0	0.00e+00	0	44	0	1249902592	42	4439
2026-01-20 02:24:26.76	352.81	36.18	-35.7	-37.3	23.0	0.00e+00	0	44	0	1255145472	42	4486
2026-01-20 02:24:27.93	352.55	36.42	-35.7	-37.4	22.9	0.00e+00	0	44	0	1261436928	42	4529
2026-01-20 02:24:28.78	352.36	36.59	-35.7	-37.4	23.0	0.00e+00	0	44	0	1265631232	42	4507
2026-01-20 02:24:29.92	352.10	36.81	-35.4	-37.1	23.1	0.00e+00	0	44	0	1271922688	42	4367
2026-01-20 02:24:30.77	351.91	36.99	-35.5	-37.2	23.1	0.00e+00	0	44	0	1277165568	42	4413
2026-01-20 02:24:31.91	351.65	37.22	-35.4	-37.1	23.2	0.00e+00	0	44	0	1283457024	42	4361
2026-01-20 02:24:32.81	351.44	37.40	-35.4	-37.0	23.2	0.00e+00	0	44	0	1288699904	42	4335
2026-01-20 02:24:34.08	351.14	37.66	-35.5	-37.1	23.1	0.00e+00	0	44	0	1296039936	42	4391
2026-01-20 02:24:34.79	350.97	37.81	-35.4	-37.0	23.2	0.00e+00	0	44	0	1299185664	42	4336
2026-01-20 02:24:36.28	350.60	38.11	-35.3	-36.9	23.3	0.00e+00	0	44	0	1308622848	42	4287
2026-01-20 02:24:36.99	350.43	38.26	-35.4	-37.0	23.2	0.00e+00	0	44	0	1311768576	42	4331
2026-01-20 02:24:38.27	350.11	38.52	-35.4	-37.1	23.2	0.00e+00	0	44	0	1319108608	42	4355
2026-01-20 02:24:38.98	349.93	38.67	-35.5	-37.2	23.1	0.00e+00	0	44	0	1323302912	42	4396
2026-01-20 02:24:40.26	349.60	38.94	-35.6	-37.2	23.1	0.00e+00	0	44	0	1330642944	42	4435
2026-01-20 02:24:40.97	349.42	39.09	-35.6	-37.3	23.1	0.00e+00	0	44	0	1334837248	42	4453
2026-01-20 02:24:42.25	349.08	39.35	-35.7	-37.4	23.0	0.00e+00	0	44	0	1342177280	42	4519
2026-01-20 02:24:42.98	348.88	39.51	-35.8	-37.5	22.9	0.00e+00	0	44	0	1345323008	42	4562
2026-01-20 02:24:44.26	348.54	39.78	-35.8	-37.5	22.8	0.00e+00	0	44	0	1352663040	42	4575
2026-01-20 02:24:44.97	348.34	39.93	-35.8	-37.5	22.9	0.00e+00	0	44	0	1356857344	42	4580
2026-01-20 02:24:46.25	347.99	40.20	-35.9	-37.5	22.8	0.00e+00	0	44	0	1364197376	42	4597
2026-01-20 02:24:46.96	347.79	40.35	-35.9	-37.6	22.8	0.00e+00	0	44	0	1368391680	42	4611
2026-01-20 02:24:48.25	347.42	40.62	-35.6	-37.3	23.0	0.00e+00	0	44	0	1375731712	42	4458
2026-01-20 02:24:49.09	347.18	40.80	-35.5	-37.1	23.2	0.00e+00	0	44	0	1379926016	42	4389
2026-01-20 02:24:50.22	346.85	41.04	-35.4	-37.1	23.2	0.00e+00	0	44	0	1386217472	42	4348
2026-01-20 02:24:51.08	346.59	41.23	-35.4	-37.0	23.2	0.00e+00	0	43	0	1391460352	42	4332
2026-01-20 02:24:52.21	346.26	41.47	-35.4	-37.1	23.2	0.00e+00	0	44	0	1397751808	42	4346
2026-01-20 02:24:53.07	345.99	41.65	-35.5	-37.1	23.1	0.00e+00	0	44	0	1402994688	42	4386
2026-01-20 02:24:54.20	345.64	41.89	-35.7	-37.3	23.0	0.00e+00	0	44	0	1409286144	42	4484
2026-01-20 02:24:55.05	345.38	42.08	-35.7	-37.4	23.0	0.00e+00	0	44	0	1413480448	42	4497
2026-01-20 02:24:56.19	345.02	42.32	-35.8	-37.5	22.9	0.00e+00	0	44	0	1419771904	42	4581
2026-01-20 02:24:57.04	344.74	42.51	-35.9	-37.5	22.8	0.00e+00	0	44	0	1425014784	42	4598
2026-01-20 02:24:58.18	344.37	42.75	-35.9	-37.6	22.8	0.00e+00	0	44	0	1431306240	42	4622
2026-01-20 02:24:59.03	344.09	42.94	-36.0	-37.7	22.7	0.00e+00	0	44	0	1436549120	42	4686
2026-01-20 02:25:00.17	343.71	43.18	-35.9	-37.6	22.8	0.00e+00	0	44	0	1442840576	42	4601
2026-01-20 02:25:01.02	343.42	43.37	-35.8	-37.5	22.9	0.00e+00	0	44	0	1447034880	42	4557
2026-01-20 02:25:02.16	343.03	43.61	-35.7	-37.3	23.0	0.00e+00	0	44	0	1453326336	42	4466
2026-01-20 02:25:03.10	342.70	43.82	-35.7	-37.3	23.0	0.00e+00	0	44	0	1459617792	42	4485
2026-01-20 02:25:04.27	342.29	44.07	-36.0	-37.7	22.8	0.00e+00	0	44	0	1465909248	42	4664
2026-01-20 02:25:05.16	341.97	44.26	-36.2	-37.9	22.5	0.00e+00	0	44	0	1471152128	42	4786
2026-01-20 02:25:06.30	341.55	44.51	-36.1	-37.8	22.6	0.00e+00	0	44	0	1477443584	43	4461
2026-01-20 02:25:07.21	341.22	44.71	-35.9	-37.6	22.8	0.00e+00	0	44	0	1482686464	43	4359
2026-01-20 02:25:08.38	340.78	44.96	-35.9	-37.5	22.8	0.00e+00	0	44	0	1488977920	43	4329
2026-01-20 02:25:09.24	340.45	45.15	-35.8	-37.4	23.0	0.00e+00	0	44	0	1493172224	43	4264
2026-01-20 02:25:10.37	340.02	45.39	-36.0	-37.6	22.8	0.00e+00	0	44	0	1499463680	43	4385
2026-01-20 02:25:11.23	339.68	45.57	-36.1	-37.8	22.6	0.00e+00	0	44	0	1504706560	43	4469
2026-01-20 02:25:12.37	339.23	45.82	-36.0	-37.7	22.7	0.00e+00	0	44	0	1510998016	43	4423
2026-01-20 02:25:13.22	338.89	46.00	-36.0	-37.6	22.8	0.00e+00	0	44	0	1516240896	43	4391
2026-01-20 02:25:14.36	338.43	46.25	-35.8	-37.5	22.9	0.00e+00	0	44	0	1522532352	43	4302
2026-01-20 02:25:15.21	338.08	46.43	-35.7	-37.4	23.0	0.00e+00	0	44	0	1526726656	43	4256
2026-01-20 02:25:16.35	337.60	46.67	-35.8	-37.5	22.9	0.00e+00	0	44	0	1534066688	43	4298
2026-01-20 02:25:17.20	337.24	46.85	-36.0	-37.6	22.8	0.00e+00	0	44	0	1538260992	43	4382
2026-01-20 02:25:18.34	336.75	47.09	-36.2	-37.9	22.6	0.00e+00	0	44	0	1544552448	43	4514
2026-01-20 02:25:19.19	336.38	47.27	-36.3	-38.0	22.5	0.00e+00	0	44	0	1549795328	43	4557
2026-01-20 02:25:20.33	335.88	47.51	-36.3	-38.0	22.4	0.00e+00	0	44	0	1556086784	43	4596
2026-01-20 02:25:21.19	335.50	47.69	-36.3	-38.0	22.5	0.00e+00	0	44	0	1560281088	43	4548
2026-01-20 02:25:22.32	334.98	47.93	-36.4	-38.0	22.4	0.00e+00	0	44	0	1567621120	43	4581
2026-01-20 02:25:23.18	334.59	48.11	-36.5	-38.2	22.3	0.00e+00	0	44	0	1571815424	43	4654
2026-01-20 02:25:24.32	334.06	48.34	-36.8	-38.6	22.1	0.00e+00	0	44	0	1578106880	44	4599
2026-01-20 02:25:25.29	333.60	48.54	-36.7	-38.4	22.2	0.00e+00	0	44	0	1583349760	44	4505
2026-01-20 02:25:26.46	333.04	48.78	-36.8	-38.5	22.2	0.00e+00	0	44	0	1590689792	44	4585
2026-01-20 02:25:27.35	332.61	48.96	-36.8	-38.5	22.2	0.00e+00	0	44	0	1595932672	44	4548
2026-01-20 02:25:28.48	332.05	49.19	-36.6	-38.3	22.3	0.00e+00	0	44	0	1602224128	44	4465
2026-01-20 02:25:29.40	331.59	49.37	-36.6	-38.3	22.4	0.00e+00	0	44	0	1607467008	44	4468
2026-01-20 02:25:30.40	331.09	49.57	-36.8	-38.4	22.2	0.00e+00	0	44	0	1612709888	44	4540
2026-01-20 02:25:31.39	330.58	49.77	-36.8	-38.5	22.2	0.00e+00	0	44	0	1617952768	44	4556
2026-01-20 02:25:32.39	330.06	49.96	-36.8	-38.5	22.1	0.00e+00	0	44	0	1623195648	44	4596
2026-01-20 02:25:33.39	329.54	50.16	-36.9	-38.6	22.1	0.00e+00	0	44	0	1629487104	44	4617
2026-01-20 02:25:34.38	329.01	50.35	-37.1	-38.8	21.9	0.00e+00	0	44	0	1634729984	44	4738
2026-01-20 02:25:35.37	328.48	50.54	-37.2	-38.9	21.8	0.00e+00	0	44	0	1641021440	45	4529
2026-01-20 02:25:36.37	327.93	50.72	-37.4	-39.1	21.6	0.00e+00	0	44	0	1646264320	45	4631
2026-01-20 02:25:37.36	327.38	50.91	-37.2	-38.9	21.8	0.00e+00	0	44	0	1651507200	45	4545
2026-01-20 02:25:38.36	326.83	51.09	-37.2	-38.9	21.8	0.00e+00	0	44	0	1657798656	45	4523
2026-01-20 02:25:39.35	326.27	51.27	-37.0	-38.7	22.0	0.00e+00	0	44	0	1663041536	45	4408
2026-01-20 02:25:40.39	325.67	51.46	-37.1	-38.8	21.9	0.00e+00	0	44	0	1668284416	45	4454
2026-01-20 02:25:41.45	325.05	51.65	-37.2	-38.9	21.8	0.00e+00	0	44	0	1674575872	45	4528
2026-01-20 02:25:42.37	324.51	51.81	-37.1	-38.8	21.9	0.00e+00	0	44	0	1679818752	45	4467
2026-01-20 02:25:43.36	323.93	51.98	-36.7	-38.4	22.3	0.00e+00	0	44	0	1685061632	45	4246
2026-01-20 02:25:44.35	323.33	52.15	-36.9	-38.6	22.1	0.00e+00	0	44	0	1691353088	45	4347
2026-01-20 02:25:45.35	322.72	52.32	-36.9	-38.6	22.1	0.00e+00	0	44	0	1696595968	45	4371
2026-01-20 02:25:46.34	322.11	52.48	-37.0	-38.7	22.0	0.00e+00	0	44	0	1701838848	45	4419
2026-01-20 02:25:47.34	321.49	52.64	-37.0	-38.7	22.0	0.00e+00	0	44	0	1708130304	45	4411
2026-01-20 02:25:48.33	320.87	52.80	-36.7	-38.4	22.2	0.00e+00	0	44	0	1713373184	45	4258
2026-01-20 02:25:49.33	320.24	52.95	-36.7	-38.4	22.3	0.00e+00	0	44	0	1718616064	45	4248
2026-01-20 02:25:50.32	319.60	53.10	-37.1	-38.8	22.0	0.00e+00	0	44	0	1724907520	45	4443
2026-01-20 02:25:51.32	318.95	53.25	-37.1	-38.8	21.9	0.00e+00	0	44	0	1730150400	45	4488
2026-01-20 02:25:52.31	318.30	53.40	-36.7	-38.4	22.2	0.00e+00	0	44	0	1735393280	45	4255
2026-01-20 02:25:53.31	317.64	53.54	-36.5	-38.1	22.5	0.00e+00	0	44	0	1741684736	44	4391
2026-01-20 02:25:54.38	316.93	53.69	-36.4	-38.0	22.5	0.00e+00	0	44	0	1746927616	44	4337
2026-01-20 02:25:55.25	316.34	53.80	-36.4	-38.1	22.5	0.00e+00	0	44	0	1752170496	44	4357
2026-01-20 02:25:56.57	315.44	53.98	-36.6	-38.3	22.3	0.00e+00	0	44	0	1759510528	44	4480
2026-01-20 02:25:57.28	314.95	54.07	-36.9	-38.6	22.1	0.00e+00	0	44	0	1763704832	44	4615
2026-01-20 02:25:58.77	313.92	54.25	-36.5	-38.2	22.4	0.00e+00	0	44	0	1772093440	44	4407
2026-01-20 02:25:59.48	313.42	54.33	-36.4	-38.1	22.5	0.00e+00	0	44	0	1776287744	44	4353
2026-01-20 02:26:00.77	312.51	54.48	-36.4	-38.1	22.6	0.00e+00	0	44	0	1783627776	44	4356
2026-01-20 02:26:01.48	312.00	54.56	-36.4	-38.1	22.5	0.00e+00	0	44	0	1787822080	44	4369
2026-01-20 02:26:02.76	311.09	54.70	-36.3	-37.9	22.7	0.00e+00	0	44	0	1795162112	44	4273
2026-01-20 02:26:03.48	310.57	54.77	-36.2	-37.9	22.7	0.00e+00	0	44	0	1798307840	44	4267
2026-01-20 02:26:04.76	309.63	54.89	-36.2	-37.9	22.7	0.00e+00	0	44	0	1805647872	44	4250
2026-01-20 02:26:05.49	309.10	54.96	-36.2	-37.8	22.8	0.00e+00	0	44	0	1809842176	44	4229
2026-01-20 02:26:06.77	308.15	55.07	-36.6	-38.3	21.9	0.00e+00	0	44	0	1817182208	44	4476
2026-01-20 02:26:07.49	307.62	55.13	-36.8	-38.6	21.7	0.00e+00	0	44	0	1821376512	44	4628
2026-01-20 02:26:08.77	306.66	55.24	-36.8	-38.6	21.7	0.00e+00	0	44	0	1828716544	44	4599
2026-01-20 02:26:09.53	306.09	55.29	-36.6	-38.4	21.8	0.00e+00	0	44	0	1832910848	44	4514
2026-01-20 02:26:10.80	305.14	55.38	-36.8	-38.6	21.6	0.00e+00	0	44	0	1840250880	44	4643
2026-01-20 02:26:11.61	304.52	55.43	-36.8	-38.6	21.7	0.00e+00	0	44	0	1844445184	44	4602
2026-01-20 02:26:13.03	303.44	55.52	-36.5	-38.2	22.0	0.00e+00	0	44	0	1852833792	44	4421
2026-01-20 02:26:13.74	302.90	55.55	-36.5	-38.2	22.0	0.00e+00	0	44	0	1855979520	44	4439
2026-01-20 02:26:15.24	301.74	55.62	-36.7	-38.5	21.8	0.00e+00	0	44	0	1864368128	44	4553
2026-01-20 02:26:15.95	301.20	55.65	-35.5	-37.9	22.2	0.00e+00	0	44	0	1868562432	43	4523
2026-01-20 02:26:17.28	300.17	55.70	-35.0	-37.8	22.3	0.00e+00	0	44	0	1875902464	42	4732
2026-01-20 02:26:17.99	299.62	55.73	-35.8	-38.1	22.0	0.00e+00	0	44	0	1880096768	42	4880
2026-01-20 02:26:19.27	298.62	55.76	-36.4	-38.3	21.8	0.00e+00	0	44	0	1887436800	43	4723
2026-01-20 02:26:19.99	298.06	55.78	-36.6	-38.5	21.7	0.00e+00	0	44	0	1891631104	43	4825
2026-01-20 02:26:21.28	297.06	55.80	-36.4	-38.2	21.8	0.00e+00	0	44	0	1898971136	43	4668
2026-01-20 02:26:21.99	296.50	55.81	-36.4	-38.1	21.9	0.00e+00	0	44	0	1903165440	43	4641
2026-01-20 02:26:23.27	295.50	55.81	-36.4	-38.2	21.9	0.00e+00	0	44	0	1910505472	43	4672
2026-01-20 02:26:23.99	294.94	55.81	-36.3	-38.1	22.0	0.00e+00	0	44	0	1913651200	43	4610
2026-01-20 02:26:25.27	293.94	55.81	-36.0	-37.7	22.3	0.00e+00	0	44	0	1920991232	43	4438
2026-01-20 02:26:26.00	293.37	55.80	-36.0	-37.7	22.3	0.00e+00	0	44	0	1925185536	43	4429
2026-01-20 02:26:27.28	292.37	55.78	-36.2	-38.0	22.1	0.00e+00	0	44	0	1932525568	43	4563
2026-01-20 02:26:27.99	291.82	55.77	-36.5	-38.2	21.9	0.00e+00	0	44	0	1936719872	43	4694
2026-01-20 02:26:29.27	290.83	55.74	-36.2	-37.9	22.2	0.00e+00	0	44	0	1944059904	43	4516
2026-01-20 02:26:30.17	290.13	55.71	-36.0	-37.7	22.3	0.00e+00	0	44	0	1949302784	43	4414
2026-01-20 02:26:31.57	289.04	55.66	-36.0	-37.7	22.3	0.00e+00	0	44	0	1956642816	43	4435
2026-01-20 02:26:32.28	288.50	55.63	-36.1	-37.8	22.2	0.00e+00	0	44	0	1960837120	43	4483
2026-01-20 02:26:33.56	287.51	55.57	-36.2	-37.9	22.1	0.00e+00	0	44	0	1968177152	43	4526
2026-01-20 02:26:34.29	286.95	55.53	-36.2	-37.9	22.1	0.00e+00	0	44	0	1972371456	43	4506
2026-01-20 02:26:35.57	285.98	55.45	-36.3	-38.0	22.1	0.00e+00	0	44	0	1979711488	43	4574
2026-01-20 02:26:36.28	285.44	55.41	-36.3	-38.0	22.0	0.00e+00	0	44	0	1982857216	43	4591
2026-01-20 02:26:37.56	284.47	55.32	-36.0	-37.7	22.4	0.00e+00	0	44	0	1990197248	43	4418
2026-01-20 02:26:38.27	283.93	55.27	-36.1	-37.8	22.3	0.00e+00	0	44	0	1994391552	43	4458
2026-01-20 02:26:39.55	282.97	55.18	-36.3	-38.1	22.0	0.00e+00	0	44	0	2001731584	43	4634
2026-01-20 02:26:40.26	282.44	55.12	-36.1	-37.9	22.2	0.00e+00	0	44	0	2005925888	43	4494
2026-01-20 02:26:41.54	281.50	55.01	-36.1	-37.8	22.3	0.00e+00	0	44	0	2012217344	43	4452
2026-01-20 02:26:42.25	280.97	54.94	-36.1	-37.9	22.2	0.00e+00	0	44	0	2016411648	43	4497
2026-01-20 02:26:43.52	280.04	54.82	-36.1	-37.9	22.1	0.00e+00	0	44	0	2023751680	43	4494
2026-01-20 02:26:44.23	279.53	54.75	-36.0	-37.7	22.2	0.00e+00	0	44	0	2027945984	43	4436
2026-01-20 02:26:45.64	278.51	54.61	-36.1	-37.8	22.2	0.00e+00	0	44	0	2035286016	43	4472
2026-01-20 02:26:46.35	278.00	54.53	-36.1	-37.9	22.2	0.00e+00	0	44	0	2039480320	43	4497
2026-01-20 02:26:47.63	277.10	54.38	-36.1	-37.8	22.2	0.00e+00	0	44	0	2046820352	43	4473
2026-01-20 02:26:48.34	276.60	54.30	-36.1	-37.8	22.2	0.00e+00	0	44	0	2051014656	43	4479
2026-01-20 02:26:49.76	275.61	54.13	-36.0	-37.7	22.4	0.00e+00	0	44	0	2059403264	43	4430
2026-01-20 02:26:50.48	275.11	54.04	-35.9	-37.6	22.4	0.00e+00	0	44	0	2062548992	43	4377
2026-01-20 02:26:51.76	274.23	53.87	-35.9	-37.6	22.4	0.00e+00	0	44	0	2069889024	43	4378
2026-01-20 02:26:52.48	273.74	53.78	-36.0	-37.7	22.4	0.00e+00	0	44	0	2074083328	43	4394
2026-01-20 02:26:53.76	272.88	53.60	-36.0	-37.7	22.4	0.00e+00	0	44	0	2081423360	43	4426
2026-01-20 02:26:54.49	272.39	53.50	-35.9	-37.6	22.4	0.00e+00	0	44	0	2085617664	43	4385
2026-01-20 02:26:55.77	271.55	53.32	-35.8	-37.5	22.5	0.00e+00	0	44	0	2092957696	43	4326
2026-01-20 02:26:56.49	271.08	53.21	-35.9	-37.6	22.4	0.00e+00	0	44	0	2097152000	43	4371
2026-01-20 02:26:57.77	270.25	53.02	-36.1	-37.8	22.2	0.00e+00	0	44	0	2104492032	43	4489
2026-01-20 02:26:58.50	269.78	52.91	-36.0	-37.8	22.2	0.00e+00	0	44	0	2108686336	43	4457
2026-01-20 02:26:59.77	268.98	52.71	-35.9	-37.6	22.4	0.00e+00	0	44	0	2114977792	43	4367
2026-01-20 02:27:00.55	268.49	52.58	-35.9	-37.6	22.4	0.00e+00	0	44	0	2120220672	43	4354
2026-01-20 02:27:01.83	267.70	52.37	-36.0	-37.8	22.3	0.00e+00	0	44	0	2126512128	43	4443
2026-01-20 02:27:02.60	267.23	52.24	-35.9	-37.6	22.4	0.00e+00	0	44	0	2131755008	43	4362
2026-01-20 02:27:03.88	266.45	52.03	-35.9	-37.6	22.4	0.00e+00	0	44	0	2138046464	43	4364
2026-01-20 02:27:04.62	266.01	51.90	-36.0	-37.7	22.4	0.00e+00	0	44	0	2142240768	43	4420
2026-01-20 02:27:05.90	265.25	51.68	-36.2	-37.9	22.2	0.00e+00	0	44	0	2149580800	43	4538
2026-01-20 02:27:06.63	264.83	51.55	-36.4	-38.2	22.0	0.00e+00	0	44	0	2153775104	43	4654
2026-01-20 02:27:07.91	264.09	51.32	-36.5	-38.2	21.9	0.00e+00	0	44	0	2161115136	43	4705
2026-01-20 02:27:08.62	263.68	51.19	-36.5	-38.3	21.8	0.00e+00	0	44	0	2165309440	43	4712
2026-01-20 02:27:09.90	262.96	50.95	-36.1	-37.8	22.2	0.00e+00	0	44	0	2172649472	43	4457
2026-01-20 02:27:10.62	262.56	50.82	-36.2	-37.9	22.2	0.00e+00	0	44	0	2176843776	43	4498
2026-01-20 02:27:11.90	261.86	50.58	-36.2	-38.0	22.1	0.00e+00	0	44	0	2184183808	43	4560
2026-01-20 02:27:12.61	261.47	50.44	-36.3	-38.1	22.0	0.00e+00	0	44	0	2187329536	43	4616
2026-01-20 02:27:14.00	260.73	50.18	-36.1	-37.8	22.2	0.00e+00	0	44	0	2195718144	43	4485
2026-01-20 02:27:14.71	260.35	50.04	-35.8	-37.5	22.4	0.00e+00	0	44	0	2199912448	43	4300
2026-01-20 02:27:16.04	259.66	49.78	-35.7	-37.4	22.5	0.00e+00	0	44	0	2206203904	43	4268
2026-01-20 02:27:16.75	259.29	49.64	-35.9	-37.6	22.4	0.00e+00	0	44	0	2211446784	43	4363
2026-01-20 02:27:18.08	258.62	49.37	-35.9	-37.7	22.3	0.00e+00	0	44	0	2217738240	43	4395
2026-01-20 02:27:18.79	258.26	49.23	-35.9	-37.6	22.4	0.00e+00	0	44	0	2221932544	43	4356
2026-01-20 02:27:20.07	257.63	48.97	-36.1	-37.8	22.2	0.00e+00	0	44	0	2229272576	43	4468
2026-01-20 02:27:20.79	257.28	48.83	-36.1	-37.8	22.2	0.00e+00	0	44	0	2233466880	43	4489
2026-01-20 02:27:22.17	256.61	48.55	-36.1	-37.8	22.2	0.00e+00	0	44	0	2240806912	43	4482
2026-01-20 02:27:22.88	256.28	48.40	-36.1	-37.8	22.2	0.00e+00	0	44	0	2245001216	43	4489
2026-01-20 02:27:24.22	255.65	48.12	-35.7	-37.4	22.5	0.00e+00	0	44	0	2252341248	43	4285
2026-01-20 02:27:24.93	255.32	47.97	-35.5	-37.2	22.7	0.00e+00	0	44	0	2256535552	43	4191
2026-01-20 02:27:26.21	254.74	47.71	-35.5	-37.2	22.7	0.00e+00	0	44	0	2263875584	42	4433
2026-01-20 02:27:26.93	254.41	47.55	-35.6	-37.3	22.6	0.00e+00	0	44	0	2268069888	42	4474
2026-01-20 02:27:28.21	253.85	47.28	-35.4	-37.1	22.8	0.00e+00	0	44	0	2275409920	42	4366
2026-01-20 02:27:28.95	253.52	47.13	-35.3	-37.0	22.8	0.00e+00	0	44	0	2279604224	42	4306
2026-01-20 02:27:30.23	252.97	46.86	-35.2	-36.9	22.9	0.00e+00	0	44	0	2286944256	42	4266
2026-01-20 02:27:30.94	252.67	46.70	-35.3	-37.0	22.9	0.00e+00	0	44	0	2290089984	42	4293
2026-01-20 02:27:32.22	252.13	46.43	-35.5	-37.2	22.6	0.00e+00	0	44	0	2297430016	42	4417
2026-01-20 02:27:33.01	251.80	46.26	-35.6	-37.4	22.5	0.00e+00	0	44	0	2302672896	42	4498
2026-01-20 02:27:34.24	251.30	46.00	-35.7	-37.4	22.5	0.00e+00	0	44	0	2308964352	42	4523
2026-01-20 02:27:35.20	250.92	45.79	-35.6	-37.3	22.6	0.00e+00	0	44	0	2314207232	42	4457
2026-01-20 02:27:36.37	250.45	45.54	-35.5	-37.2	22.6	0.00e+00	0	44	0	2321547264	42	4431
2026-01-20 02:27:37.22	250.12	45.35	-35.4	-37.2	22.7	0.00e+00	0	44	0	2325741568	42	4396
2026-01-20 02:27:38.58	249.60	45.06	-35.1	-36.8	23.0	0.00e+00	0	44	0	2333081600	42	4212
2026-01-20 02:27:39.29	249.33	44.91	-35.1	-36.8	23.0	0.00e+00	0	44	0	2337275904	42	4207
2026-01-20 02:27:40.79	248.77	44.58	-35.1	-36.8	23.0	0.00e+00	0	44	0	2345664512	42	4223
2026-01-20 02:27:41.50	248.50	44.43	-35.1	-36.8	23.0	0.00e+00	0	44	0	2349858816	42	4223
2026-01-20 02:27:42.77	248.04	44.15	-35.3	-37.0	22.8	0.00e+00	0	44	0	2357198848	42	4302
2026-01-20 02:27:43.50	247.78	43.99	-35.3	-37.1	22.8	0.00e+00	0	44	0	2361393152	42	4342
2026-01-20 02:27:44.78	247.33	43.71	-35.4	-37.2	22.7	0.00e+00	0	44	0	2368733184	42	4400
2026-01-20 02:27:45.49	247.08	43.56	-35.5	-37.2	22.6	0.00e+00	0	44	0	2371878912	42	4416
2026-01-20 02:27:46.77	246.64	43.28	-35.4	-37.1	22.6	0.00e+00	0	44	0	2379218944	42	4384
2026-01-20 02:27:47.49	246.40	43.12	-35.2	-36.9	22.9	0.00e+00	0	44	0	2383413248	42	4266
2026-01-20 02:27:48.77	245.97	42.85	-35.0	-36.7	23.0	0.00e+00	0	44	0	2390753280	42	4179
2026-01-20 02:27:49.48	245.73	42.69	-35.0	-36.7	23.0	0.00e+00	0	44	0	2394947584	42	4173
2026-01-20 02:27:50.76	245.32	42.41	-35.0	-36.6	23.1	0.00e+00	0	44	0	2402287616	42	4145
2026-01-20 02:27:51.47	245.09	42.26	-35.0	-36.7	23.0	0.00e+00	0	44	0	2406481920	41	4408
2026-01-20 02:27:52.75	244.68	41.98	-35.1	-36.8	22.9	0.00e+00	0	44	0	2413821952	41	4473
2026-01-20 02:27:53.50	244.45	41.82	-35.2	-36.9	22.8	0.00e+00	0	44	0	2416967680	41	4518
2026-01-20 02:27:54.78	244.05	41.55	-35.0	-36.7	22.9	0.00e+00	0	44	0	2424307712	41	4431
2026-01-20 02:27:55.50	243.83	41.39	-35.1	-36.8	22.9	0.00e+00	0	44	0	2428502016	41	4448
2026-01-20 02:27:56.78	243.45	41.12	-35.2	-36.9	22.8	0.00e+00	0	44	0	2435842048	41	4518
2026-01-20 02:27:57.49	243.24	40.96	-35.3	-37.1	22.7	0.00e+00	0	44	0	2440036352	41	4615
2026-01-20 02:27:58.77	242.86	40.69	-35.4	-37.1	22.6	0.00e+00	0	44	0	2447376384	41	4650
2026-01-20 02:27:59.67	242.61	40.50	-35.3	-37.0	22.6	0.00e+00	0	44	0	2452619264	41	4595
2026-01-20 02:28:00.98	242.23	40.22	-35.1	-36.8	22.8	0.00e+00	0	44	0	2459959296	41	4473
2026-01-20 02:28:01.69	242.03	40.07	-35.0	-36.7	22.9	0.00e+00	0	44	0	2463105024	41	4434
2026-01-20 02:28:02.97	241.68	39.79	-34.8	-36.5	23.1	0.00e+00	0	44	0	2470445056	41	4324
2026-01-20 02:28:03.70	241.48	39.64	-34.8	-36.5	23.1	0.00e+00	0	44	0	2474639360	41	4320
2026-01-20 02:28:04.98	241.14	39.37	-34.9	-36.6	22.9	0.00e+00	0	44	0	2481979392	41	4372
2026-01-20 02:28:05.69	240.95	39.22	-35.1	-36.8	22.8	0.00e+00	0	44	0	2486173696	41	4465
2026-01-20 02:28:06.97	240.61	38.95	-35.0	-36.7	22.9	0.00e+00	0	44	0	2493513728	41	4441
2026-01-20 02:28:07.71	240.42	38.80	-35.0	-36.8	22.8	0.00e+00	0	44	0	2497708032	41	4448
2026-01-20 02:28:08.99	240.09	38.53	-35.2	-37.0	22.7	0.00e+00	0	44	0	2505048064	41	4548
2026-01-20 02:28:09.72	239.91	38.38	-35.2	-36.9	22.7	0.00e+00	0	44	0	2509242368	41	4544
2026-01-20 02:28:11.00	239.59	38.11	-35.3	-37.0	22.6	0.00e+00	0	44	0	2516582400	41	4587
2026-01-20 02:28:11.71	239.41	37.97	-35.4	-37.1	22.6	0.00e+00	0	44	0	2519728128	41	4616
2026-01-20 02:28:12.99	239.10	37.70	-35.5	-37.2	22.4	0.00e+00	0	44	0	2527068160	41	4697
2026-01-20 02:28:13.70	238.93	37.56	-35.5	-37.2	22.4	0.00e+00	0	44	0	2531262464	41	4704
2026-01-20 02:28:14.98	238.63	37.29	-35.5	-37.3	22.4	0.00e+00	0	44	0	2538602496	41	4725
2026-01-20 02:28:15.69	238.46	37.15	-35.6	-37.3	22.4	0.00e+00	0	44	0	2541748224	41	4748
2026-01-20 02:28:17.25	238.10	36.83	-35.4	-37.1	22.5	0.00e+00	0	44	0	2551185408	41	4646
2026-01-20 02:28:17.96	237.94	36.69	-35.3	-37.0	22.6	0.00e+00	0	44	0	2555379712	41	4571
2026-01-20 02:28:19.26	237.65	36.43	-35.2	-37.0	22.7	0.00e+00	0	44	0	2562719744	41	4547
2026-01-20 02:28:19.97	237.49	36.28	-35.0	-36.7	22.8	0.00e+00	0	44	0	2566914048	41	4424
2026-01-20 02:28:21.25	237.21	36.03	-35.1	-36.8	22.8	0.00e+00	0	44	0	2574254080	41	4450
2026-01-20 02:28:21.96	237.06	35.88	-35.2	-36.9	22.8	0.00e+00	0	44	0	2577399808	41	4515
2026-01-20 02:28:23.24	236.78	35.63	-35.2	-36.9	22.8	0.00e+00	0	44	0	2584739840	41	4518
2026-01-20 02:28:23.98	236.63	35.48	-35.2	-36.9	22.8	0.00e+00	0	44	0	2588934144	41	4512
2026-01-20 02:28:25.25	236.36	35.23	-35.1	-36.8	22.8	0.00e+00	0	44	0	2596274176	41	4471
2026-01-20 02:28:25.99	236.21	35.09	-35.1	-36.8	22.9	0.00e+00	0	44	0	2600468480	41	4469
2026-01-20 02:28:27.27	235.95	34.84	-35.0	-36.7	23.0	0.00e+00	0	44	0	2607808512	41	4417
2026-01-20 02:28:28.01	235.80	34.69	-35.1	-36.8	22.9	0.00e+00	0	44	0	2612002816	41	4445
2026-01-20 02:28:29.29	235.55	34.45	-34.8	-36.5	23.0	0.00e+00	0	44	0	2618294272	41	4334
2026-01-20 02:28:30.07	235.40	34.29	-34.9	-36.6	23.0	0.00e+00	0	44	0	2623537152	41	4359
2026-01-20 02:28:31.34	235.15	34.05	-34.7	-36.4	23.2	0.00e+00	0	44	0	2629828608	41	4265
2026-01-20 02:28:32.10	235.00	33.91	-34.7	-36.4	23.2	0.00e+00	0	44	0	2635071488	41	4267
2026-01-20 02:28:33.67	234.71	33.61	-34.7	-36.4	23.2	0.00e+00	0	44	0	2643460096	41	4256
2026-01-20 02:28:34.33	234.58	33.48	-34.6	-36.3	23.2	0.00e+00	0	44	0	2647654400	41	4223
2026-01-20 02:28:35.74	234.33	33.22	-34.7	-36.4	23.2	0.00e+00	0	44	0	2654994432	41	4276
2026-01-20 02:28:36.69	234.15	33.04	-34.8	-36.5	23.1	0.00e+00	0	44	0	2660237312	41	4292
2026-01-20 02:28:37.69	233.97	32.85	-34.9	-36.6	23.1	0.00e+00	0	44	0	2665480192	41	4343
2026-01-20 02:28:39.01	233.74	32.60	-34.9	-36.6	23.0	0.00e+00	0	44	0	2673868800	41	4382
2026-01-20 02:28:39.72	233.62	32.47	-34.9	-36.6	23.1	0.00e+00	0	44	0	2677014528	41	4342
2026-01-20 02:28:41.00	233.39	32.24	-34.9	-36.6	23.1	0.00e+00	0	44	0	2684354560	41	4349
2026-01-20 02:28:41.73	233.27	32.10	-34.8	-36.5	23.1	0.00e+00	0	44	0	2688548864	41	4330
2026-01-20 02:28:43.01	233.05	31.87	-35.0	-36.7	22.9	0.00e+00	0	44	0	2695888896	41	4393
2026-01-20 02:28:43.75	232.93	31.74	-35.0	-36.7	22.9	0.00e+00	0	44	0	2700083200	41	4426
2026-01-20 02:28:45.02	232.72	31.51	-35.2	-36.9	22.7	0.00e+00	0	44	0	2707423232	41	4536
2026-01-20 02:28:45.75	232.60	31.37	-35.3	-37.0	22.7	0.00e+00	0	44	0	2711617536	41	4577
2026-01-20 02:28:47.03	232.39	31.14	-35.4	-37.2	22.5	0.00e+00	0	44	0	2718957568	41	4660
2026-01-20 02:28:47.74	232.28	31.02	-35.4	-37.1	22.5	0.00e+00	0	44	0	2722103296	41	4645
2026-01-20 02:28:49.02	232.08	30.79	-35.4	-37.1	22.5	0.00e+00	0	44	0	2729443328	41	4644
2026-01-20 02:28:49.73	231.97	30.67	-35.5	-37.2	22.5	0.00e+00	0	44	0	2733637632	41	4674
2026-01-20 02:28:51.15	231.75	30.42	-35.6	-37.3	22.4	0.00e+00	0	44	0	2742026240	41	4727
2026-01-20 02:28:51.86	231.64	30.29	-35.6	-37.3	22.4	0.00e+00	0	44	0	2746220544	41	4757
2026-01-20 02:28:53.14	231.45	30.07	-35.4	-37.2	22.5	0.00e+00	0	44	0	2752512000	41	4677
2026-01-20 02:28:54.18	231.29	29.89	-35.3	-37.1	22.6	0.00e+00	0	44	0	2758803456	41	4603
2026-01-20 02:28:55.42	231.11	29.67	-35.3	-37.1	22.7	0.00e+00	0	44	0	2766143488	41	4605
2026-01-20 02:28:56.28	230.98	29.53	-35.3	-37.0	22.7	0.00e+00	0	44	0	2770337792	41	4575
2026-01-20 02:28:57.41	230.82	29.33	-35.2	-36.9	22.8	0.00e+00	0	44	0	2776629248	41	4538
2026-01-20 02:28:58.42	230.68	29.16	-35.2	-36.9	22.8	0.00e+00	0	44	0	2782920704	41	4534
2026-01-20 02:28:59.41	230.54	29.00	-35.3	-37.0	22.7	0.00e+00	0	44	0	2788163584	41	4554
2026-01-20 02:29:00.41	230.40	28.83	-35.5	-37.2	22.6	0.00e+00	0	44	0	2794455040	41	4662
2026-01-20 02:29:01.40	230.26	28.66	-35.5	-37.2	22.5	0.00e+00	0	44	0	2799697920	41	4691
2026-01-20 02:29:02.40	230.12	28.50	-35.6	-37.3	22.4	0.00e+00	0	44	0	2804940800	41	4744
2026-01-20 02:29:03.39	229.99	28.33	-35.7	-37.5	22.3	0.00e+00	0	44	0	2810183680	42	4561
2026-01-20 02:29:04.39	229.86	28.17	-35.8	-37.5	22.2	0.00e+00	0	44	0	2816475136	42	4598
2026-01-20 02:29:05.38	229.73	28.01	-35.9	-37.6	22.1	0.00e+00	0	44	0	2821718016	42	4631
2026-01-20 02:29:06.38	229.59	27.84	-35.8	-37.5	22.2	0.00e+00	0	44	0	2826960896	42	4586
2026-01-20 02:29:07.37	229.47	27.68	-35.8	-37.5	22.2	0.00e+00	0	44	0	2833252352	42	4578
2026-01-20 02:29:08.37	229.34	27.52	-35.8	-37.5	22.2	0.00e+00	0	44	0	2838495232	42	4589
2026-01-20 02:29:09.36	229.21	27.36	-35.7	-37.5	22.3	0.00e+00	0	44	0	2844786688	42	4551
2026-01-20 02:29:10.36	229.09	27.20	-35.6	-37.4	22.4	0.00e+00	0	44	0	2850029568	42	4506
2026-01-20 02:29:11.35	228.96	27.04	-35.7	-37.5	22.3	0.00e+00	0	44	0	2855272448	42	4549
2026-01-20 02:29:12.35	228.84	26.88	-35.6	-37.3	22.4	0.00e+00	0	44	0	2861563904	42	4484
2026-01-20 02:29:13.34	228.72	26.73	-35.5	-37.2	22.4	0.00e+00	0	44	0	2866806784	42	4434
2026-01-20 02:29:14.33	228.60	26.57	-35.5	-37.3	22.5	0.00e+00	0	44	0	2872049664	42	4448
2026-01-20 02:29:15.33	228.48	26.42	-35.5	-37.2	22.5	0.00e+00	0	44	0	2877292544	42	4416
2026-01-20 02:29:16.33	228.36	26.26	-35.6	-37.3	22.4	0.00e+00	0	44	0	2883584000	42	4454
2026-01-20 02:29:17.32	228.25	26.11	-35.5	-37.2	22.5	0.00e+00	0	44	0	2888826880	42	4417
2026-01-20 02:29:18.32	228.13	25.95	-35.6	-37.3	22.4	0.00e+00	0	44	0	2895118336	42	4456
2026-01-20 02:29:19.31	228.02	25.80	-35.7	-37.4	22.4	0.00e+00	0	44	0	2900361216	42	4515
2026-01-20 02:29:20.30	227.90	25.65	-35.7	-37.5	22.3	0.00e+00	0	44	0	2905604096	42	4546
2026-01-20 02:29:21.30	227.79	25.50	-35.7	-37.5	22.3	0.00e+00	0	44	0	2911895552	42	4561
2026-01-20 02:29:22.29	227.68	25.35	-35.8	-37.6	22.2	0.00e+00	0	44	0	2917138432	42	4617
2026-01-20 02:29:23.29	227.57	25.20	-35.9	-37.7	22.1	0.00e+00	0	44	0	2922381312	42	4653
2026-01-20 02:29:24.28	227.46	25.05	-35.9	-37.6	22.1	0.00e+00	0	44	0	2927624192	42	4634
2026-01-20 02:29:25.28	227.35	24.90	-35.9	-37.6	22.1	0.00e+00	0	44	0	2933915648	42	4649
2026-01-20 02:29:26.35	227.24	24.74	-35.8	-37.6	22.1	0.00e+00	0	44	0	2940207104	42	4626
2026-01-20 02:29:27.23	227.15	24.61	-35.9	-37.6	22.1	0.00e+00	0	44	0	2944401408	42	4641
2026-01-20 02:29:28.55	227.01	24.42	-35.8	-37.6	22.2	0.00e+00	0	44	0	2952790016	42	4610
2026-01-20 02:29:29.26	226.93	24.32	-35.7	-37.4	22.3	0.00e+00	0	44	0	2955935744	42	4544
2026-01-20 02:29:30.76	226.78	24.10	-35.7	-37.4	22.3	0.00e+00	0	44	0	2964324352	42	4527
2026-01-20 02:29:31.47	226.71	24.00	-35.8	-37.5	22.2	0.00e+00	0	44	0	2968518656	42	4561
2026-01-20 02:29:32.75	226.58	23.81	-35.8	-37.5	22.2	0.00e+00	0	44	0	2975858688	42	4577
2026-01-20 02:29:33.46	226.51	23.71	-35.8	-37.5	22.2	0.00e+00	0	44	0	2980052992	42	4591
2026-01-20 02:29:34.74	226.38	23.53	-35.8	-37.6	22.2	0.00e+00	0	44	0	2987393024	42	4612
2026-01-20 02:29:35.45	226.31	23.43	-36.0	-37.7	22.0	0.00e+00	0	44	0	2991587328	42	4704
2026-01-20 02:29:36.73	226.18	23.25	-36.0	-37.7	22.0	0.00e+00	0	44	0	2997878784	42	4696
2026-01-20 02:29:37.47	226.11	23.15	-36.0	-37.8	22.0	0.00e+00	0	44	0	3002073088	42	4734
2026-01-20 02:29:38.75	225.99	22.97	-36.1	-37.9	21.9	0.00e+00	0	44	0	3009413120	42	4785
2026-01-20 02:29:39.50	225.92	22.86	-36.1	-37.9	21.9	0.00e+00	0	44	0	3013607424	43	4517
2026-01-20 02:29:40.78	225.80	22.69	-36.2	-37.9	21.9	0.00e+00	0	44	0	3020947456	43	4543
2026-01-20 02:29:41.54	225.73	22.58	-36.2	-37.9	21.9	0.00e+00	0	44	0	3025141760	43	4533
2026-01-20 02:29:42.82	225.61	22.41	-36.2	-37.9	21.9	0.00e+00	0	44	0	3032481792	43	4540
2026-01-20 02:29:43.60	225.54	22.30	-36.1	-37.9	21.9	0.00e+00	0	44	0	3036676096	43	4522
2026-01-20 02:29:44.88	225.42	22.13	-36.2	-38.0	21.9	0.00e+00	0	44	0	3044016128	43	4549
2026-01-20 02:29:45.59	225.36	22.03	-36.2	-38.0	21.9	0.00e+00	0	44	0	3048210432	43	4546
2026-01-20 02:29:46.87	225.25	21.86	-36.2	-38.0	21.9	0.00e+00	0	44	0	3055550464	43	4555
2026-01-20 02:29:47.59	225.18	21.76	-36.2	-38.0	21.8	0.00e+00	0	44	0	3058696192	43	4578
2026-01-20 02:29:48.87	225.07	21.59	-36.2	-38.0	21.8	0.00e+00	0	44	0	3066036224	43	4575
2026-01-20 02:29:49.76	224.99	21.47	-36.2	-38.0	21.8	0.00e+00	0	44	0	3071279104	43	4572
2026-01-20 02:29:50.90	224.90	21.32	-36.3	-38.1	21.7	0.00e+00	0	44	0	3077570560	43	4630
2026-01-20 02:29:51.75	224.82	21.21	-36.4	-38.2	21.7	0.00e+00	0	44	0	3082813440	43	4658
2026-01-20 02:29:52.89	224.73	21.06	-36.5	-38.2	21.6	0.00e+00	0	44	0	3089104896	43	4703
2026-01-20 02:29:53.74	224.66	20.95	-36.4	-38.1	21.7	0.00e+00	0	44	0	3093299200	43	4649
2026-01-20 02:29:54.87	224.56	20.81	-36.3	-38.1	21.7	0.00e+00	0	44	0	3100639232	43	4631
2026-01-20 02:29:55.73	224.49	20.70	-36.3	-38.1	21.7	0.00e+00	0	44	0	3104833536	43	4628
2026-01-20 02:29:56.93	224.40	20.54	-36.4	-38.1	21.7	0.00e+00	0	44	0	3112173568	43	4642
2026-01-20 02:29:57.78	224.33	20.44	-36.4	-38.1	21.7	0.00e+00	0	44	0	3116367872	43	4650
2026-01-20 02:29:58.92	224.24	20.29	-36.4	-38.2	21.7	0.00e+00	0	44	0	3122659328	43	4677
2026-01-20 02:29:59.77	224.17	20.18	-36.5	-38.3	21.6	0.00e+00	0	44	0	3127902208	43	4716
2026-01-20 02:30:01.02	224.07	20.03	-36.5	-38.3	21.6	0.00e+00	0	44	0	3135242240	43	4731
2026-01-20 02:30:01.87	224.00	19.92	-36.6	-38.4	21.5	0.00e+00	0	44	0	3139436544	43	4767
2026-01-20 02:30:03.09	223.91	19.77	-36.7	-38.4	21.5	0.00e+00	0	44	0	3146776576	43	4804
2026-01-20 02:30:03.94	223.84	19.66	-36.8	-38.6	21.5	0.00e+00	0	44	0	3150970880	44	4631
2026-01-20 02:30:05.14	223.75	19.52	-36.9	-38.7	21.4	0.00e+00	0	44	0	3158310912	44	4676
2026-01-20 02:30:05.99	223.69	19.41	-37.0	-38.8	21.3	0.00e+00	0	44	0	3162505216	44	4721
2026-01-20 02:30:07.13	223.60	19.27	-37.0	-38.8	21.3	0.00e+00	0	44	0	3168796672	44	4710
2026-01-20 02:30:07.98	223.54	19.17	-37.0	-38.8	21.3	0.00e+00	0	44	0	3174039552	44	4753
2026-01-20 02:30:09.12	223.46	19.03	-37.1	-38.9	21.3	0.00e+00	0	44	0	3180331008	44	4772
2026-01-20 02:30:10.01	223.39	18.92	-37.2	-38.9	21.2	0.00e+00	0	44	0	3185573888	45	4545
2026-01-20 02:30:11.14	223.31	18.79	-37.1	-38.9	21.2	0.00e+00	0	44	0	3191865344	45	4527
2026-01-20 02:30:12.06	223.25	18.68	-37.2	-39.0	21.2	0.00e+00	0	44	0	3197108224	45	4548
2026-01-20 02:30:13.05	223.17	18.56	-37.3	-39.1	21.1	0.00e+00	0	44	0	3202351104	45	4615
2026-01-20 02:30:14.05	223.10	18.44	-37.2	-39.0	21.1	0.00e+00	0	44	0	3208642560	45	4574
2026-01-20 02:30:15.04	223.04	18.32	-37.3	-39.1	21.1	0.00e+00	0	44	0	3213885440	45	4612
2026-01-20 02:30:16.04	222.97	18.21	-37.3	-39.1	21.1	0.00e+00	0	44	0	3219128320	45	4617
2026-01-20 02:30:17.04	222.90	18.09	-37.3	-39.1	21.1	0.00e+00	0	44	0	3224371200	45	4638
2026-01-20 02:30:18.03	222.83	17.97	-37.3	-39.1	21.1	0.00e+00	0	44	0	3230662656	45	4630
2026-01-20 02:30:19.03	222.76	17.86	-37.2	-39.0	21.1	0.00e+00	0	44	0	3235905536	45	4591
2026-01-20 02:30:20.02	222.69	17.74	-37.3	-39.1	21.1	0.00e+00	0	44	0	3242196992	45	4609
2026-01-20 02:30:21.01	222.63	17.63	-37.3	-39.2	21.0	0.00e+00	0	44	0	3247439872	45	4662
2026-01-20 02:30:22.01	222.56	17.52	-37.3	-39.2	21.0	0.00e+00	0	44	0	3252682752	45	4654
2026-01-20 02:30:23.01	222.50	17.40	-37.4	-39.2	20.9	0.00e+00	0	44	0	3258974208	45	4701
2026-01-20 02:30:24.00	222.43	17.29	-37.3	-39.1	21.0	0.00e+00	0	44	0	3264217088	45	4646
2026-01-20 02:30:25.00	222.37	17.18	-37.3	-39.1	21.0	0.00e+00	0	44	0	3269459968	45	4638
2026-01-20 02:30:25.99	222.30	17.07	-37.3	-39.1	21.0	0.00e+00	0	44	0	3274702848	45	4646
2026-01-20 02:30:26.98	222.24	16.95	-37.4	-39.2	21.0	0.00e+00	0	44	0	3280994304	45	4660
2026-01-20 02:30:27.98	222.18	16.84	-37.4	-39.3	20.9	0.00e+00	0	44	0	3286237184	45	4718
2026-01-20 02:30:28.97	222.12	16.73	-37.5	-39.3	20.8	0.00e+00	0	44	0	3292528640	45	4742
2026-01-20 02:30:29.97	222.05	16.62	-37.5	-39.4	20.8	0.00e+00	0	44	0	3297771520	45	4772
2026-01-20 02:30:30.96	221.99	16.51	-37.5	-39.3	20.8	0.00e+00	0	44	0	3303014400	45	4757
2026-01-20 02:30:31.96	221.93	16.40	-37.6	-39.4	20.8	0.00e+00	0	44	0	3309305856	45	4781
2026-01-20 02:30:32.95	221.87	16.30	-37.7	-39.5	20.6	0.00e+00	0	44	0	3314548736	45	4840
2026-01-20 02:30:33.95	221.81	16.19	-37.7	-39.5	20.6	0.00e+00	0	44	0	3319791616	46	4588
2026-01-20 02:30:34.94	221.75	16.08	-37.7	-39.6	20.6	0.00e+00	0	44	0	3325034496	46	4608
2026-01-20 02:30:35.94	221.69	15.97	-37.8	-39.7	20.5	0.00e+00	0	44	0	3331325952	46	4657
2026-01-20 02:30:36.95	221.63	15.86	-37.8	-39.7	20.5	0.00e+00	0	44	0	3336568832	46	4677
2026-01-20 02:30:37.98	221.57	15.75	-37.9	-39.7	20.4	0.00e+00	0	44	0	3342860288	46	4694
2026-01-20 02:30:38.97	221.51	15.65	-37.9	-39.8	20.4	0.00e+00	0	44	0	3348103168	46	4718
2026-01-20 02:30:39.97	221.46	15.54	-38.0	-39.9	20.3	0.00e+00	0	44	0	3354394624	46	4768
2026-01-20 02:30:40.96	221.40	15.44	-38.0	-39.9	20.3	0.00e+00	0	44	0	3359637504	46	4776
2026-01-20 02:30:41.96	221.34	15.33	-38.0	-39.9	20.3	0.00e+00	0	44	0	3364880384	46	4770
2026-01-20 02:30:42.95	221.29	15.23	-38.1	-39.9	20.3	0.00e+00	0	44	0	3371171840	46	4808
2026-01-20 02:30:43.95	221.23	15.12	-38.1	-39.9	20.3	0.00e+00	0	44	0	3376414720	46	4804
2026-01-20 02:30:44.94	221.18	15.02	-38.1	-40.0	20.2	0.00e+00	0	44	0	3381657600	46	4822
2026-01-20 02:30:45.94	221.12	14.92	-38.2	-40.1	20.1	0.00e+00	0	44	0	3386900480	47	4619
2026-01-20 02:30:46.93	221.07	14.81	-38.2	-40.1	20.1	0.00e+00	0	44	0	3393191936	47	4633
2026-01-20 02:30:47.93	221.01	14.71	-38.2	-40.0	20.2	0.00e+00	0	44	0	3398434816	47	4593
2026-01-20 02:30:48.93	220.96	14.61	-38.2	-40.1	20.2	0.00e+00	0	44	0	3404726272	47	4604
2026-01-20 02:30:49.92	220.90	14.51	-38.3	-40.1	20.1	0.00e+00	0	44	0	3409969152	47	4640
2026-01-20 02:30:50.92	220.85	14.41	-38.2	-40.1	20.1	0.00e+00	0	44	0	3415212032	47	4634
2026-01-20 02:30:51.92	220.80	14.31	-38.4	-40.2	20.0	0.00e+00	0	44	0	3421503488	47	4703
2026-01-20 02:30:52.91	220.75	14.21	-38.3	-40.2	20.0	0.00e+00	0	44	0	3426746368	47	4688
2026-01-20 02:30:53.91	220.69	14.11	-38.3	-40.3	20.0	0.00e+00	0	44	0	3431989248	47	4706
2026-01-20 02:30:54.90	220.64	14.01	-38.4	-40.3	19.9	0.00e+00	0	44	0	3438280704	47	4732
2026-01-20 02:30:55.90	220.59	13.91	-38.4	-40.3	19.9	0.00e+00	0	44	0	3443523584	47	4748
2026-01-20 02:30:56.89	220.54	13.81	-38.4	-40.3	19.9	0.00e+00	0	44	0	3448766464	47	4727
2026-01-20 02:30:57.89	220.49	13.71	-38.4	-40.4	19.9	0.00e+00	0	44	0	3455057920	47	4767
2026-01-20 02:30:58.88	220.44	13.61	-38.5	-40.4	19.9	0.00e+00	0	44	0	3460300800	47	4791
2026-01-20 02:30:59.88	220.39	13.51	-38.5	-40.5	19.8	0.00e+00	0	44	0	3465543680	47	4828
2026-01-20 02:31:00.87	220.34	13.42	-38.4	-40.4	19.8	0.00e+00	0	44	0	3471835136	47	4771
2026-01-20 02:31:01.87	220.29	13.32	-38.6	-40.5	19.7	0.00e+00	0	44	0	3477078016	47	4832
2026-01-20 02:31:02.86	220.24	13.22	-38.6	-40.5	19.7	0.00e+00	0	44	0	3482320896	47	4851
2026-01-20 02:31:03.86	220.19	13.13	-38.5	-40.4	19.8	0.00e+00	0	44	0	3488612352	47	4795
2026-01-20 02:31:04.85	220.15	13.03	-38.6	-40.5	19.9	0.00e+00	0	44	0	3493855232	48	4582
2026-01-20 02:31:05.85	220.10	12.94	-38.6	-40.5	19.9	0.00e+00	0	44	0	3499098112	48	4595
2026-01-20 02:31:06.84	220.05	12.84	-38.6	-40.5	20.0	0.00e+00	0	44	0	3505389568	48	4550
2026-01-20 02:31:07.84	220.00	12.75	-38.7	-40.6	19.9	0.00e+00	0	44	0	3510632448	48	4602
2026-01-20 02:31:08.85	219.96	12.65	-38.8	-40.6	19.8	0.00e+00	0	44	0	3516923904	48	4646
2026-01-20 02:31:09.88	219.91	12.55	-38.6	-40.5	19.9	0.00e+00	0	44	0	3522166784	48	4560
2026-01-20 02:31:10.87	219.86	12.46	-38.7	-40.5	19.9	0.00e+00	0	44	0	3527409664	48	4584
2026-01-20 02:31:11.86	219.82	12.37	-38.7	-40.6	19.9	0.00e+00	0	44	0	3533701120	48	4609
2026-01-20 02:31:12.86	219.77	12.27	-38.8	-40.6	19.8	0.00e+00	0	44	0	3538944000	48	4648
2026-01-20 02:31:13.85	219.73	12.18	-38.8	-40.6	19.8	0.00e+00	0	44	0	3544186880	48	4641
2026-01-20 02:31:14.85	219.68	12.09	-38.7	-40.6	19.8	0.00e+00	0	44	0	3550478336	48	4606
2026-01-20 02:31:15.84	219.64	12.00	-38.8	-40.7	19.7	0.00e+00	0	44	0	3555721216	48	4665
2026-01-20 02:31:16.84	219.59	11.91	-38.8	-40.6	19.8	0.00e+00	0	44	0	3560964096	48	4641
2026-01-20 02:31:17.83	219.55	11.81	-38.8	-40.7	19.7	0.00e+00	0	44	0	3567255552	48	4675
2026-01-20 02:31:18.83	219.50	11.72	-38.9	-40.8	19.7	0.00e+00	0	44	0	3572498432	48	4706
2026-01-20 02:31:19.82	219.46	11.63	-38.9	-40.8	19.7	0.00e+00	0	44	0	3577741312	48	4713
2026-01-20 02:31:20.82	219.42	11.54	-38.9	-40.8	19.6	0.00e+00	0	44	0	3584032768	48	4714
2026-01-20 02:31:21.81	219.37	11.45	-39.0	-40.9	19.5	0.00e+00	0	44	0	3589275648	48	4793
2026-01-20 02:31:22.81	219.33	11.36	-39.0	-40.9	19.5	0.00e+00	0	44	0	3594518528	48	4782
2026-01-20 02:31:23.80	219.29	11.27	-39.0	-41.0	19.5	0.00e+00	0	44	0	3600809984	48	4815
2026-01-20 02:31:24.85	219.24	11.18	-39.1	-41.0	19.4	0.00e+00	0	44	0	3606052864	48	4841
2026-01-20 02:31:25.81	219.20	11.09	-39.1	-41.0	19.4	0.00e+00	0	44	0	3611295744	48	4844
2026-01-20 02:31:26.88	219.16	11.00	-39.1	-41.0	19.4	0.00e+00	0	44	0	3617587200	48	4840
2026-01-20 02:31:27.73	219.12	10.92	-39.1	-41.0	19.4	0.00e+00	0	44	0	3622830080	48	4858
2026-01-20 02:31:29.04	219.07	10.81	-39.2	-41.1	19.3	0.00e+00	0	44	0	3630170112	49	4639
2026-01-20 02:31:29.75	219.04	10.74	-39.1	-41.1	19.3	0.00e+00	0	44	0	3634364416	49	4627
2026-01-20 02:31:31.26	218.98	10.61	-39.3	-41.3	19.2	0.00e+00	0	44	0	3642753024	49	4710
2026-01-20 02:31:31.97	218.95	10.55	-39.3	-41.3	19.2	0.00e+00	0	44	0	3645898752	49	4717
2026-01-20 02:31:33.26	218.90	10.44	-39.3	-41.3	19.2	0.00e+00	0	44	0	3653238784	49	4712
2026-01-20 02:31:33.97	218.87	10.38	-39.4	-41.4	19.1	0.00e+00	0	44	0	3657433088	49	4766
2026-01-20 02:31:35.25	218.82	10.27	-39.3	-41.3	19.1	0.00e+00	0	44	0	3664773120	49	4727
2026-01-20 02:31:35.99	218.79	10.20	-39.3	-41.3	19.1	0.00e+00	0	44	0	3668967424	49	4755
