passes_logs/2026/01/20/T1/T1__20260120_012207_SUOMI_NPP_rec.log

#Pass ID: 20260120_012207_SUOMI NPP
#Satellite: SUOMI NPP
#Configuration: NPP
#almurnet v.1.7.20251203
#Start time: 2026-01-20 01:22:09

#Version: 2.0.20230620
#Station: T1
#Location: 37.570604 lon 55.790049 lat
#TLE: 1 37849U 11061A   26019.26265094  .00000081  00000+0  59609-4 0  9993
#TLE: 2 37849  98.7817 321.2746 0002356  56.2510 303.8890 14.19526363737315

#Time	Az	El	Level	Level2	SNR	BER	BlckErr	Temp	State	Recorded	gain1	gain2
2026-01-20 01:22:09.99	6.82	5.14	-49.4	-65.4	3.8	1.49e+00	0	40	0	0	69	23875
2026-01-20 01:22:10.98	6.75	5.20	-48.9	-65.3	3.8	1.49e+00	0	40	104	0	69	23757
2026-01-20 01:22:11.98	6.67	5.27	-48.9	-65.3	3.8	1.49e+00	0	40	104	0	69	23714
2026-01-20 01:22:12.97	6.59	5.33	-48.9	-65.3	3.8	1.49e+00	0	40	104	0	69	23757
2026-01-20 01:22:13.96	6.52	5.39	-48.9	-65.3	3.8	1.49e+00	0	40	104	0	69	23845
2026-01-20 01:22:14.96	6.44	5.45	-48.9	-65.3	3.8	1.49e+00	0	41	104	0	69	23826
2026-01-20 01:22:15.95	6.36	5.51	-48.9	-65.3	3.8	1.49e+00	0	40	104	0	69	23754
2026-01-20 01:22:16.94	6.28	5.57	-48.9	-65.3	3.8	1.49e+00	0	41	104	0	69	23778
2026-01-20 01:22:17.94	6.20	5.63	-48.9	-65.3	3.8	1.49e+00	0	41	104	0	69	23809
2026-01-20 01:22:18.93	6.12	5.70	-48.9	-65.3	3.8	1.49e+00	0	41	104	0	69	23824
2026-01-20 01:22:19.92	6.04	5.76	-48.9	-65.3	3.8	1.49e+00	0	41	104	0	69	23820
2026-01-20 01:22:20.92	5.96	5.82	-48.9	-65.3	3.8	1.49e+00	0	41	104	0	69	23744
2026-01-20 01:22:21.91	5.88	5.88	-48.9	-65.3	3.8	1.49e+00	0	41	104	0	69	23754
2026-01-20 01:22:22.90	5.80	5.95	-48.9	-65.3	3.8	1.49e+00	0	41	104	0	69	23839
2026-01-20 01:22:23.90	5.72	6.01	-48.9	-65.3	3.8	1.49e+00	0	41	104	0	69	23780
2026-01-20 01:22:24.89	5.64	6.07	-48.9	-65.3	3.8	1.49e+00	0	41	104	0	69	23701
2026-01-20 01:22:25.88	5.55	6.13	-48.9	-65.3	3.8	1.49e+00	0	41	104	0	69	23741
2026-01-20 01:22:26.88	5.47	6.20	-48.9	-65.3	3.8	1.49e+00	0	41	104	0	69	23749
2026-01-20 01:22:27.87	5.39	6.26	-48.9	-65.3	3.8	1.49e+00	0	41	104	0	69	23729
2026-01-20 01:22:28.86	5.31	6.32	-48.9	-65.3	3.8	1.49e+00	0	41	104	0	69	23643
2026-01-20 01:22:29.85	5.22	6.38	-48.9	-65.3	3.8	1.49e+00	0	41	104	0	69	23636
2026-01-20 01:22:30.85	5.14	6.45	-48.9	-65.2	3.8	1.49e+00	0	41	104	0	69	23538
2026-01-20 01:22:31.84	5.05	6.51	-48.9	-65.3	3.8	1.49e+00	0	41	104	0	69	23632
2026-01-20 01:22:32.83	4.97	6.57	-48.9	-65.3	3.8	1.49e+00	0	41	104	0	69	23630
2026-01-20 01:22:33.83	4.88	6.64	-48.9	-65.3	3.8	1.49e+00	0	41	104	0	69	23787
2026-01-20 01:22:34.82	4.80	6.70	-48.9	-65.3	3.8	1.49e+00	0	41	104	0	69	23824
2026-01-20 01:22:35.81	4.71	6.76	-48.9	-65.3	3.8	1.49e+00	0	41	104	0	69	23701
2026-01-20 01:22:36.81	4.63	6.83	-48.9	-65.4	3.8	1.49e+00	0	41	104	0	69	23895
2026-01-20 01:22:37.80	4.54	6.89	-48.9	-65.3	3.8	1.49e+00	0	41	104	0	69	23815
2026-01-20 01:22:38.79	4.45	6.95	-48.9	-65.3	3.8	1.49e+00	0	41	104	0	69	23763
2026-01-20 01:22:39.79	4.37	7.02	-48.9	-65.3	3.8	1.49e+00	0	41	104	0	69	23643
2026-01-20 01:22:40.78	4.28	7.08	-48.9	-65.2	3.8	1.49e+00	0	41	104	0	69	23451
2026-01-20 01:22:41.77	4.19	7.15	-48.9	-65.2	3.8	1.49e+00	0	41	104	0	69	23419
2026-01-20 01:22:42.77	4.10	7.21	-48.9	-65.2	3.8	1.49e+00	0	41	104	0	69	23437
2026-01-20 01:22:43.76	4.01	7.28	-48.9	-65.1	3.8	1.49e+00	0	42	104	0	69	23194
2026-01-20 01:22:44.76	3.92	7.34	-48.9	-65.0	3.8	1.49e+00	0	42	104	0	69	22952
2026-01-20 01:22:45.75	3.83	7.40	-48.9	-65.0	3.8	1.49e+00	0	41	104	0	69	22828
2026-01-20 01:22:46.74	3.74	7.47	-48.9	-64.9	3.8	1.49e+00	0	42	104	0	69	22548
2026-01-20 01:22:47.74	3.65	7.53	-48.8	-64.7	3.8	1.49e+00	0	42	104	0	69	22049
2026-01-20 01:22:48.73	3.56	7.60	-48.8	-64.5	3.8	1.49e+00	0	41	104	0	69	21546
2026-01-20 01:22:49.72	3.47	7.66	-48.9	-64.2	3.8	1.49e+00	0	42	104	0	69	20934
2026-01-20 01:22:50.72	3.38	7.73	-48.8	-64.2	3.8	1.49e+00	0	42	104	0	69	20872
2026-01-20 01:22:51.71	3.28	7.79	-48.8	-64.1	3.8	1.49e+00	0	41	104	0	69	20599
2026-01-20 01:22:52.71	3.19	7.86	-48.8	-64.1	3.8	1.49e+00	0	42	104	0	69	20770
2026-01-20 01:22:53.70	3.10	7.92	-48.8	-64.3	3.8	1.49e+00	0	42	104	0	69	21216
2026-01-20 01:22:54.69	3.00	7.99	-48.9	-64.6	3.8	1.49e+00	0	42	104	0	69	21769
2026-01-20 01:22:55.69	2.91	8.06	-48.9	-64.8	3.8	1.49e+00	0	42	104	0	69	22368
2026-01-20 01:22:56.68	2.82	8.12	-48.9	-65.0	3.8	1.49e+00	0	42	104	0	69	23036
2026-01-20 01:22:57.67	2.72	8.19	-48.9	-65.2	3.8	1.49e+00	0	42	104	0	69	23472
2026-01-20 01:22:58.67	2.62	8.25	-48.9	-65.1	3.8	1.49e+00	0	42	104	0	69	23292
2026-01-20 01:22:59.66	2.53	8.32	-48.9	-64.5	3.8	1.49e+00	0	42	104	0	69	21635
2026-01-20 01:23:00.65	2.43	8.38	-48.7	-63.0	3.8	1.49e+00	0	42	104	0	69	18142
2026-01-20 01:23:01.65	2.34	8.45	-48.6	-61.0	4.4	1.37e+00	0	42	0	0	69	14451
2026-01-20 01:23:02.64	2.24	8.52	-48.4	-58.9	5.5	7.18e-01	0	42	0	2097152	68	12032
2026-01-20 01:23:03.63	2.14	8.58	-48.1	-57.0	7.0	2.84e-01	0	42	0	3145728	68	9608
2026-01-20 01:23:04.63	2.04	8.65	-47.7	-55.5	8.2	1.21e-01	0	42	0	5242880	67	8637
2026-01-20 01:23:05.62	1.94	8.71	-47.4	-54.4	9.4	2.26e-02	0	42	0	7340032	66	7998
2026-01-20 01:23:06.61	1.85	8.78	-47.2	-53.7	10.1	1.01e-02	0	42	0	9437184	66	7449
2026-01-20 01:23:07.61	1.75	8.85	-46.9	-53.2	10.6	6.21e-03	0	42	0	10485760	65	7378
2026-01-20 01:23:08.60	1.65	8.91	-46.9	-53.0	10.8	2.97e-03	0	42	0	12582912	65	7275
2026-01-20 01:23:09.59	1.55	8.98	-47.0	-53.3	10.4	3.34e-03	0	42	0	14680064	65	7512
2026-01-20 01:23:10.59	1.44	9.05	-47.5	-54.4	9.4	5.66e-03	0	42	0	16777216	65	8514
2026-01-20 01:23:11.59	1.34	9.12	-48.6	-58.8	5.6	4.62e-02	0	42	0	18874368	67	12562
2026-01-20 01:23:12.58	1.24	9.18	-46.3	-52.2	11.4	6.00e-01	0	42	0	19922944	64	6997
2026-01-20 01:23:13.58	1.14	9.25	-44.6	-49.1	14.8	0.00e+00	0	42	0	22020096	61	5811
2026-01-20 01:23:14.57	1.03	9.32	-45.0	-50.1	14.0	0.00e+00	0	42	0	24117248	61	6499
2026-01-20 01:23:15.57	0.93	9.38	-45.1	-50.1	13.7	2.47e-03	0	42	0	26214400	62	6134
2026-01-20 01:23:16.57	0.82	9.45	-44.5	-48.8	15.1	0.00e+00	0	42	0	27262976	61	5627
2026-01-20 01:23:17.56	0.72	9.52	-44.6	-48.8	15.0	0.00e+00	0	42	0	29360128	61	5656
2026-01-20 01:23:18.56	0.62	9.59	-44.5	-48.5	15.4	0.00e+00	0	42	0	31457280	60	5760
2026-01-20 01:23:19.55	0.51	9.65	-44.7	-48.8	15.1	0.00e+00	0	42	0	33554432	60	5967
2026-01-20 01:23:20.55	0.40	9.72	-44.7	-48.7	15.2	0.00e+00	0	42	0	35651584	60	5897
2026-01-20 01:23:21.54	0.30	9.79	-44.8	-48.8	15.1	0.00e+00	0	42	0	36700160	60	5938
2026-01-20 01:23:22.53	0.19	9.86	-44.7	-48.6	15.3	0.00e+00	0	42	0	38797312	60	5853
2026-01-20 01:23:23.53	0.08	9.93	-44.7	-48.5	15.4	0.00e+00	0	42	0	40894464	60	5768
2026-01-20 01:23:24.52	359.97	9.99	-44.7	-48.4	15.6	0.00e+00	0	42	0	42991616	60	5694
2026-01-20 01:23:25.52	359.87	10.06	-44.7	-48.3	15.6	0.00e+00	0	42	0	44040192	60	5635
2026-01-20 01:23:26.51	359.76	10.13	-44.6	-48.2	15.7	0.00e+00	0	42	0	46137344	60	5586
2026-01-20 01:23:27.50	359.65	10.20	-44.7	-48.3	15.5	0.00e+00	0	42	0	48234496	60	5642
2026-01-20 01:23:28.50	359.54	10.27	-44.8	-48.4	15.5	0.00e+00	0	42	0	50331648	60	5688
2026-01-20 01:23:29.49	359.43	10.34	-44.9	-48.6	15.4	0.00e+00	0	42	0	51380224	60	5792
2026-01-20 01:23:30.49	359.31	10.41	-44.8	-48.3	15.6	0.00e+00	0	42	0	53477376	60	5650
2026-01-20 01:23:31.49	359.20	10.47	-44.8	-48.4	15.6	0.00e+00	0	42	0	55574528	60	5679
2026-01-20 01:23:32.48	359.09	10.54	-44.8	-48.4	15.6	0.00e+00	0	42	0	57671680	60	5695
2026-01-20 01:23:33.48	358.98	10.61	-44.7	-48.3	15.6	0.00e+00	0	42	0	59768832	60	5638
2026-01-20 01:23:34.47	358.86	10.68	-44.7	-48.2	15.7	0.00e+00	0	42	0	60817408	60	5581
2026-01-20 01:23:35.47	358.75	10.75	-44.7	-48.3	15.7	0.00e+00	0	42	0	62914560	60	5654
2026-01-20 01:23:36.46	358.63	10.82	-44.7	-48.4	15.6	0.00e+00	0	42	0	65011712	60	5658
2026-01-20 01:23:37.46	358.52	10.89	-44.5	-48.1	15.9	0.00e+00	0	42	0	67108864	60	5496
2026-01-20 01:23:38.46	358.40	10.96	-44.6	-48.3	15.7	0.00e+00	0	42	0	69206016	60	5617
2026-01-20 01:23:39.45	358.29	11.03	-44.6	-48.2	15.8	0.00e+00	0	42	0	70254592	60	5542
2026-01-20 01:23:40.45	358.17	11.10	-44.4	-48.0	16.0	0.00e+00	0	42	0	72351744	60	5445
2026-01-20 01:23:41.44	358.05	11.17	-44.3	-47.9	16.1	0.00e+00	0	42	0	74448896	60	5351
2026-01-20 01:23:42.47	357.93	11.24	-44.2	-47.7	16.3	0.00e+00	0	42	0	76546048	60	5242
2026-01-20 01:23:43.46	357.81	11.31	-44.3	-47.9	16.2	0.00e+00	0	42	0	78643200	60	5378
2026-01-20 01:23:44.46	357.69	11.38	-44.3	-48.1	15.9	0.00e+00	0	42	0	79691776	60	5477
2026-01-20 01:23:45.55	357.56	11.46	-44.3	-48.1	15.9	0.00e+00	0	42	0	81788928	60	5514
2026-01-20 01:23:46.40	357.46	11.52	-44.4	-48.3	15.8	0.00e+00	0	42	0	83886080	60	5600
2026-01-20 01:23:47.54	357.32	11.60	-44.4	-48.3	15.7	0.00e+00	0	42	0	85983232	60	5635
2026-01-20 01:23:48.39	357.21	11.66	-44.5	-48.5	15.5	0.00e+00	0	42	0	87031808	60	5786
2026-01-20 01:23:49.53	357.07	11.74	-44.6	-48.6	15.4	0.00e+00	0	42	0	89128960	60	5843
2026-01-20 01:23:50.38	356.97	11.80	-44.7	-48.8	15.2	0.00e+00	0	43	0	91226112	60	5990
2026-01-20 01:23:51.52	356.83	11.88	-44.7	-48.9	15.2	0.00e+00	0	42	0	93323264	60	6012
2026-01-20 01:23:52.37	356.72	11.94	-44.7	-48.9	15.1	0.00e+00	0	42	0	94371840	60	6016
2026-01-20 01:23:53.51	356.58	12.02	-44.6	-48.7	15.4	0.00e+00	0	42	0	96468992	60	5858
2026-01-20 01:23:54.36	356.47	12.08	-44.4	-48.6	15.4	0.00e+00	0	42	0	98566144	60	5822
2026-01-20 01:23:55.50	356.33	12.16	-44.4	-48.6	15.4	0.00e+00	0	43	0	100663296	60	5815
2026-01-20 01:23:56.35	356.22	12.22	-44.4	-48.6	15.4	0.00e+00	0	43	0	102760448	60	5826
2026-01-20 01:23:57.49	356.07	12.30	-44.3	-48.4	15.6	0.00e+00	0	43	0	104857600	60	5721
2026-01-20 01:23:58.34	355.96	12.36	-44.3	-48.4	15.6	0.00e+00	0	43	0	105906176	60	5677
2026-01-20 01:23:59.48	355.82	12.44	-44.4	-48.6	15.5	0.00e+00	0	42	0	108003328	60	5817
2026-01-20 01:24:00.33	355.71	12.50	-44.3	-48.5	15.5	0.00e+00	0	42	0	110100480	60	5763
2026-01-20 01:24:01.47	355.56	12.58	-44.2	-48.2	15.8	0.00e+00	0	42	0	112197632	60	5552
2026-01-20 01:24:02.32	355.45	12.65	-44.2	-48.3	15.7	0.00e+00	0	42	0	113246208	60	5614
2026-01-20 01:24:03.46	355.30	12.73	-44.1	-48.0	15.9	0.00e+00	0	43	0	115343360	60	5459
2026-01-20 01:24:04.31	355.18	12.79	-44.2	-47.9	16.1	0.00e+00	0	43	0	117440512	60	5389
2026-01-20 01:24:05.45	355.03	12.87	-44.0	-47.5	16.5	0.00e+00	0	43	0	119537664	59	5437
2026-01-20 01:24:06.30	354.92	12.93	-44.0	-47.4	16.5	0.00e+00	0	42	0	120586240	59	5394
2026-01-20 01:24:07.44	354.77	13.01	-44.2	-47.5	16.5	0.00e+00	0	43	0	122683392	59	5434
2026-01-20 01:24:08.29	354.65	13.07	-43.8	-47.1	16.9	0.00e+00	0	43	0	124780544	59	5195
2026-01-20 01:24:09.43	354.50	13.15	-43.8	-47.0	16.9	0.00e+00	0	43	0	126877696	59	5127
2026-01-20 01:24:10.28	354.38	13.22	-43.9	-46.9	17.1	0.00e+00	0	43	0	127926272	59	5070
2026-01-20 01:24:11.42	354.22	13.30	-43.8	-46.8	17.2	0.00e+00	0	43	0	130023424	59	5000
2026-01-20 01:24:12.27	354.11	13.36	-43.9	-46.9	17.1	0.00e+00	0	42	0	132120576	59	5056
2026-01-20 01:24:13.41	353.95	13.44	-44.1	-47.0	17.0	0.00e+00	0	42	0	134217728	59	5150
2026-01-20 01:24:14.26	353.83	13.50	-44.2	-47.2	16.8	0.00e+00	0	43	0	136314880	59	5252
2026-01-20 01:24:15.39	353.67	13.58	-44.3	-47.4	16.6	0.00e+00	0	43	0	138412032	59	5359
2026-01-20 01:24:16.25	353.55	13.65	-44.3	-47.3	16.6	0.00e+00	0	42	0	139460608	59	5335
2026-01-20 01:24:17.60	353.36	13.74	-44.4	-47.5	16.5	0.00e+00	0	42	0	142606336	59	5449
2026-01-20 01:24:18.31	353.26	13.79	-44.4	-47.6	16.4	0.00e+00	0	43	0	143654912	59	5506
2026-01-20 01:24:19.59	353.08	13.89	-44.2	-47.2	16.7	0.00e+00	0	42	0	145752064	59	5274
2026-01-20 01:24:20.30	352.98	13.94	-44.2	-47.2	16.8	0.00e+00	0	43	0	146800640	59	5263
2026-01-20 01:24:21.58	352.79	14.03	-44.0	-46.9	17.1	0.00e+00	0	42	0	149946368	59	5097
2026-01-20 01:24:22.29	352.69	14.08	-43.9	-46.8	17.2	0.00e+00	0	43	0	150994944	59	5040
2026-01-20 01:24:23.57	352.50	14.18	-43.9	-46.8	17.2	0.00e+00	0	43	0	153092096	59	4986
2026-01-20 01:24:24.28	352.40	14.23	-44.0	-46.9	17.1	0.00e+00	0	43	0	154140672	59	5095
2026-01-20 01:24:25.56	352.21	14.32	-44.1	-47.0	17.0	0.00e+00	0	42	0	157286400	59	5120
2026-01-20 01:24:26.29	352.10	14.37	-44.1	-47.1	17.0	0.00e+00	0	42	0	158334976	59	5161
2026-01-20 01:24:27.57	351.91	14.47	-44.1	-47.1	16.9	0.00e+00	0	43	0	160432128	59	5214
2026-01-20 01:24:28.29	351.81	14.52	-44.2	-47.3	16.7	0.00e+00	0	43	0	162529280	59	5299
2026-01-20 01:24:29.57	351.61	14.61	-44.2	-47.3	16.7	0.00e+00	0	43	0	164626432	59	5333
2026-01-20 01:24:30.30	351.50	14.66	-44.2	-47.4	16.6	0.00e+00	0	43	0	165675008	59	5392
2026-01-20 01:24:31.58	351.31	14.76	-44.1	-47.3	16.7	0.00e+00	0	43	0	168820736	59	5316
2026-01-20 01:24:32.29	351.20	14.81	-43.9	-47.0	17.0	0.00e+00	0	43	0	169869312	59	5110
2026-01-20 01:24:33.75	350.98	14.91	-43.7	-46.8	17.2	0.00e+00	0	43	0	171966464	59	5009
2026-01-20 01:24:34.46	350.87	14.97	-43.6	-46.5	17.5	0.00e+00	0	43	0	174063616	59	4843
2026-01-20 01:24:35.74	350.67	15.06	-43.7	-46.6	17.4	0.00e+00	0	43	0	176160768	59	4884
2026-01-20 01:24:36.45	350.56	15.11	-43.9	-46.9	17.2	0.00e+00	0	43	0	177209344	59	5044
2026-01-20 01:24:37.73	350.36	15.20	-44.0	-47.0	17.0	0.00e+00	0	43	0	180355072	59	5157
2026-01-20 01:24:38.45	350.25	15.26	-44.2	-47.3	16.7	0.00e+00	0	43	0	181403648	59	5315
2026-01-20 01:24:39.73	350.05	15.35	-44.5	-47.7	16.3	0.00e+00	0	43	0	183500800	59	5576
2026-01-20 01:24:40.44	349.93	15.40	-44.5	-47.8	16.3	0.00e+00	0	43	0	184549376	59	5627
2026-01-20 01:24:41.72	349.73	15.49	-44.7	-48.1	16.0	0.00e+00	0	43	0	187695104	60	5498
2026-01-20 01:24:42.48	349.61	15.55	-44.7	-48.1	16.1	0.00e+00	0	43	0	188743680	60	5480
2026-01-20 01:24:43.76	349.40	15.64	-44.6	-48.0	16.1	0.00e+00	0	43	0	190840832	60	5408
2026-01-20 01:24:44.49	349.28	15.69	-44.6	-48.0	16.2	0.00e+00	0	43	0	192937984	60	5423
2026-01-20 01:24:45.76	349.08	15.79	-44.4	-47.9	16.2	0.00e+00	0	43	0	195035136	60	5351
2026-01-20 01:24:46.49	348.96	15.84	-44.4	-47.8	16.3	0.00e+00	0	43	0	196083712	60	5309
2026-01-20 01:24:47.77	348.75	15.93	-44.3	-47.7	16.4	0.00e+00	0	43	0	198180864	60	5275
2026-01-20 01:24:48.48	348.63	15.98	-44.4	-47.7	16.4	0.00e+00	0	43	0	200278016	60	5275
2026-01-20 01:24:49.76	348.42	16.08	-44.5	-47.9	16.2	0.00e+00	0	43	0	202375168	60	5383
2026-01-20 01:24:50.69	348.26	16.14	-44.7	-48.3	15.9	0.00e+00	0	43	0	204472320	60	5597
2026-01-20 01:24:51.98	348.05	16.24	-44.9	-48.5	15.6	0.00e+00	0	43	0	206569472	60	5775
2026-01-20 01:24:52.69	347.93	16.29	-45.0	-48.6	15.5	0.00e+00	0	43	0	207618048	60	5855
2026-01-20 01:24:53.97	347.71	16.38	-44.9	-48.5	15.7	0.00e+00	0	43	0	210763776	60	5753
2026-01-20 01:24:54.70	347.59	16.43	-44.9	-48.4	15.7	0.00e+00	0	43	0	211812352	60	5709
2026-01-20 01:24:55.97	347.37	16.53	-44.8	-48.2	15.9	0.00e+00	0	43	0	213909504	60	5545
2026-01-20 01:24:56.70	347.25	16.58	-44.5	-47.9	16.3	0.00e+00	0	43	0	214958080	60	5349
2026-01-20 01:24:57.98	347.02	16.67	-44.5	-47.9	16.2	0.00e+00	0	43	0	218103808	60	5397
2026-01-20 01:24:58.70	346.90	16.72	-44.4	-47.9	16.2	0.00e+00	0	43	0	219152384	60	5392
2026-01-20 01:25:00.01	346.67	16.82	-44.5	-48.2	16.0	0.00e+00	0	43	0	221249536	60	5551
2026-01-20 01:25:00.72	346.55	16.87	-44.5	-48.5	15.7	0.00e+00	0	43	0	223346688	60	5747
2026-01-20 01:25:02.07	346.31	16.96	-44.3	-48.2	15.9	0.00e+00	0	43	0	225443840	60	5580
2026-01-20 01:25:02.78	346.18	17.02	-44.4	-48.4	15.8	0.00e+00	0	43	0	226492416	60	5678
2026-01-20 01:25:04.12	345.95	17.11	-44.2	-48.1	16.1	0.00e+00	0	43	0	229638144	60	5466
2026-01-20 01:25:04.83	345.82	17.16	-44.1	-47.8	16.3	0.00e+00	0	43	0	230686720	60	5324
2026-01-20 01:25:06.11	345.59	17.25	-44.3	-47.8	16.3	0.00e+00	0	43	0	232783872	60	5315
2026-01-20 01:25:07.22	345.39	17.33	-44.3	-47.5	16.6	0.00e+00	0	43	0	234881024	60	5124
2026-01-20 01:25:08.07	345.23	17.39	-44.3	-47.5	16.6	0.00e+00	0	43	0	236978176	60	5111
2026-01-20 01:25:09.21	345.03	17.48	-44.4	-47.5	16.6	0.00e+00	0	43	0	239075328	60	5125
2026-01-20 01:25:10.06	344.87	17.54	-44.4	-47.5	16.7	0.00e+00	0	43	0	240123904	60	5131
2026-01-20 01:25:11.28	344.65	17.62	-44.4	-47.6	16.6	0.00e+00	0	43	0	243269632	60	5171
2026-01-20 01:25:12.13	344.49	17.68	-44.6	-47.9	16.1	0.00e+00	0	43	0	244318208	60	5391
2026-01-20 01:25:13.27	344.28	17.76	-44.7	-48.3	15.9	0.00e+00	0	43	0	246415360	60	5597
2026-01-20 01:25:14.12	344.12	17.82	-44.7	-48.3	15.8	0.00e+00	0	43	0	248512512	60	5624
2026-01-20 01:25:15.26	343.90	17.91	-44.6	-48.2	16.0	0.00e+00	0	43	0	250609664	60	5556
2026-01-20 01:25:16.11	343.74	17.97	-44.3	-47.8	16.3	0.00e+00	0	43	0	251658240	60	5311
2026-01-20 01:25:17.25	343.53	18.05	-44.6	-47.9	16.2	0.00e+00	0	43	0	253755392	60	5400
2026-01-20 01:25:18.10	343.37	18.11	-44.4	-47.6	16.5	0.00e+00	0	43	0	255852544	60	5189
2026-01-20 01:25:19.24	343.15	18.19	-44.3	-47.4	16.8	0.00e+00	0	43	0	257949696	60	5055
2026-01-20 01:25:20.30	342.94	18.26	-44.4	-47.4	16.7	0.00e+00	0	43	0	260046848	60	5083
2026-01-20 01:25:21.36	342.74	18.33	-44.4	-47.5	16.7	0.00e+00	0	43	0	262144000	60	5120
2026-01-20 01:25:22.37	342.54	18.40	-44.6	-47.7	16.5	0.00e+00	0	43	0	263192576	60	5244
2026-01-20 01:25:23.36	342.35	18.47	-44.6	-47.9	16.3	0.00e+00	0	43	0	265289728	60	5388
2026-01-20 01:25:24.36	342.15	18.54	-44.9	-48.5	15.7	0.00e+00	0	43	0	267386880	60	5756
2026-01-20 01:25:25.35	341.96	18.61	-45.0	-48.6	15.6	0.00e+00	0	43	0	269484032	60	5845
2026-01-20 01:25:26.35	341.76	18.68	-44.7	-48.1	16.1	0.00e+00	0	43	0	271581184	60	5494
2026-01-20 01:25:27.34	341.56	18.75	-44.6	-47.9	16.3	0.00e+00	0	43	0	272629760	60	5371
2026-01-20 01:25:28.34	341.36	18.82	-44.5	-47.6	16.5	0.00e+00	0	43	0	274726912	60	5197
2026-01-20 01:25:29.33	341.17	18.89	-44.3	-47.3	16.9	0.00e+00	0	43	0	276824064	60	4998
2026-01-20 01:25:30.33	340.96	18.95	-44.3	-47.3	16.8	0.00e+00	0	43	0	278921216	60	5010
2026-01-20 01:25:31.32	340.76	19.02	-43.8	-46.6	17.5	0.00e+00	0	43	0	279969792	59	4891
2026-01-20 01:25:32.32	340.56	19.09	-43.9	-46.7	17.3	0.00e+00	0	43	0	282066944	59	4949
2026-01-20 01:25:33.33	340.36	19.16	-44.0	-46.9	17.1	0.00e+00	0	43	0	284164096	59	5099
2026-01-20 01:25:34.36	340.14	19.23	-44.1	-47.2	16.8	0.00e+00	0	43	0	286261248	59	5274
2026-01-20 01:25:35.38	339.93	19.30	-44.1	-47.3	16.8	0.00e+00	0	43	0	288358400	59	5314
2026-01-20 01:25:36.38	339.73	19.36	-44.1	-47.4	16.7	0.00e+00	0	43	0	289406976	59	5361
2026-01-20 01:25:37.44	339.51	19.44	-44.0	-47.2	16.8	0.00e+00	0	43	0	291504128	59	5271
2026-01-20 01:25:38.35	339.32	19.50	-43.9	-47.1	16.8	0.00e+00	0	43	0	293601280	59	5196
2026-01-20 01:25:39.35	339.11	19.56	-43.8	-46.8	17.2	0.00e+00	0	43	0	295698432	59	5020
2026-01-20 01:25:40.34	338.90	19.63	-43.5	-46.3	17.7	0.00e+00	0	43	0	296747008	58	5013
2026-01-20 01:25:41.33	338.69	19.69	-42.9	-45.6	18.3	0.00e+00	0	43	0	298844160	57	4880
2026-01-20 01:25:42.33	338.48	19.76	-43.1	-45.7	18.2	0.00e+00	0	43	0	300941312	57	4974
2026-01-20 01:25:43.33	338.26	19.83	-43.0	-45.7	18.3	0.00e+00	0	43	0	303038464	57	4946
2026-01-20 01:25:44.32	338.05	19.89	-43.1	-45.9	18.1	0.00e+00	0	43	0	305135616	57	5062
2026-01-20 01:25:45.31	337.84	19.96	-43.1	-46.0	18.0	0.00e+00	0	43	0	306184192	57	5132
2026-01-20 01:25:46.31	337.62	20.02	-43.0	-45.9	18.0	0.00e+00	0	43	0	308281344	57	5097
2026-01-20 01:25:47.31	337.40	20.08	-42.9	-45.8	18.1	0.00e+00	0	43	0	310378496	57	5033
2026-01-20 01:25:48.30	337.19	20.15	-42.6	-45.5	18.4	0.00e+00	0	43	0	312475648	57	4830
2026-01-20 01:25:49.30	336.97	20.21	-42.5	-45.4	18.5	0.00e+00	0	43	0	314572800	57	4771
2026-01-20 01:25:50.29	336.75	20.28	-42.7	-45.5	18.5	0.00e+00	0	43	0	315621376	57	4821
2026-01-20 01:25:51.29	336.53	20.34	-42.6	-45.4	18.6	0.00e+00	0	43	0	317718528	57	4760
2026-01-20 01:25:52.28	336.31	20.40	-42.9	-45.6	18.3	0.00e+00	0	43	0	319815680	57	4921
2026-01-20 01:25:53.27	336.09	20.46	-42.8	-45.5	18.4	0.00e+00	0	43	0	321912832	57	4869
2026-01-20 01:25:54.27	335.87	20.53	-43.0	-45.8	18.1	0.00e+00	0	43	0	322961408	57	5009
2026-01-20 01:25:55.26	335.64	20.59	-42.9	-45.7	18.2	0.00e+00	0	43	0	325058560	57	4964
2026-01-20 01:25:56.26	335.42	20.65	-43.0	-45.9	18.1	0.00e+00	0	43	0	327155712	57	5062
2026-01-20 01:25:57.25	335.19	20.71	-42.8	-45.7	18.3	0.00e+00	0	43	0	329252864	57	4927
2026-01-20 01:25:58.24	334.97	20.77	-42.6	-45.4	18.5	0.00e+00	0	43	0	331350016	57	4787
2026-01-20 01:25:59.24	334.74	20.83	-42.7	-45.3	18.6	0.00e+00	0	43	0	332398592	57	4759
2026-01-20 01:26:00.57	334.44	20.92	-42.4	-45.0	18.9	0.00e+00	0	43	0	335544320	56	4845
2026-01-20 01:26:01.28	334.27	20.96	-42.5	-45.0	18.9	0.00e+00	0	43	0	336592896	56	4864
2026-01-20 01:26:02.55	333.98	21.03	-42.6	-45.1	18.8	0.00e+00	0	43	0	338690048	56	4920
2026-01-20 01:26:03.26	333.81	21.08	-42.7	-45.2	18.7	0.00e+00	0	43	0	339738624	56	4978
2026-01-20 01:26:04.54	333.52	21.15	-42.7	-45.3	18.6	0.00e+00	0	43	0	342884352	56	5032
2026-01-20 01:26:05.27	333.35	21.20	-42.8	-45.5	18.5	0.00e+00	0	43	0	343932928	56	5102
2026-01-20 01:26:06.55	333.04	21.27	-42.8	-45.4	18.6	0.00e+00	0	43	0	346030080	56	5058
2026-01-20 01:26:07.26	332.88	21.31	-42.6	-45.1	18.8	0.00e+00	0	43	0	348127232	56	4919
2026-01-20 01:26:08.54	332.57	21.39	-42.4	-44.9	18.9	0.00e+00	0	43	0	350224384	56	4812
2026-01-20 01:26:09.26	332.40	21.43	-42.3	-44.8	19.1	0.00e+00	0	43	0	351272960	56	4708
2026-01-20 01:26:10.62	332.08	21.51	-42.2	-44.7	19.2	0.00e+00	0	43	0	354418688	56	4673
2026-01-20 01:26:11.33	331.91	21.55	-42.1	-44.6	19.2	0.00e+00	0	43	0	355467264	56	4635
2026-01-20 01:26:12.67	331.59	21.62	-42.3	-44.9	19.0	0.00e+00	0	43	0	357564416	56	4790
2026-01-20 01:26:13.65	331.35	21.68	-42.4	-45.0	18.9	0.00e+00	0	43	0	359661568	56	4866
2026-01-20 01:26:14.96	331.03	21.75	-42.5	-45.0	18.8	0.00e+00	0	43	0	361758720	56	4869
2026-01-20 01:26:15.70	330.85	21.79	-42.4	-44.9	19.0	0.00e+00	0	43	0	363855872	56	4810
2026-01-20 01:26:16.98	330.54	21.86	-42.2	-44.7	19.2	0.00e+00	0	43	0	365953024	56	4667
2026-01-20 01:26:17.69	330.37	21.90	-42.1	-44.5	19.3	0.00e+00	0	43	0	367001600	56	4596
2026-01-20 01:26:18.97	330.05	21.97	-41.8	-44.1	19.6	0.00e+00	0	43	0	370147328	55	4633
2026-01-20 01:26:19.68	329.88	22.00	-41.8	-44.2	19.5	0.00e+00	0	43	0	371195904	55	4679
2026-01-20 01:26:20.96	329.56	22.07	-42.0	-44.4	19.4	0.00e+00	0	43	0	373293056	55	4765
2026-01-20 01:26:21.68	329.38	22.11	-42.1	-44.5	19.2	0.00e+00	0	43	0	374341632	55	4837
2026-01-20 01:26:22.96	329.06	22.17	-42.4	-44.8	19.0	0.00e+00	0	43	0	377487360	55	5012
2026-01-20 01:26:23.69	328.88	22.21	-42.4	-44.8	19.0	0.00e+00	0	43	0	378535936	55	5000
2026-01-20 01:26:25.05	328.54	22.28	-42.2	-44.5	19.2	0.00e+00	0	43	0	380633088	55	4862
2026-01-20 01:26:25.76	328.36	22.32	-42.1	-44.4	19.3	0.00e+00	0	43	0	382730240	55	4795
2026-01-20 01:26:27.04	328.04	22.38	-42.1	-44.4	19.3	0.00e+00	0	43	0	384827392	55	4797
2026-01-20 01:26:27.75	327.86	22.42	-42.1	-44.5	19.3	0.00e+00	0	43	0	385875968	55	4830
2026-01-20 01:26:29.15	327.50	22.48	-42.0	-44.4	19.3	0.00e+00	0	43	0	389021696	55	4804
2026-01-20 01:26:29.86	327.32	22.52	-42.3	-44.8	19.1	0.00e+00	0	43	0	390070272	55	4993
2026-01-20 01:26:31.19	326.98	22.58	-42.9	-45.6	18.5	0.00e+00	0	43	0	392167424	56	5161
2026-01-20 01:26:31.90	326.80	22.61	-42.8	-45.5	18.5	0.00e+00	0	43	0	394264576	56	5122
2026-01-20 01:26:33.24	326.45	22.68	-42.9	-45.6	18.4	0.00e+00	0	43	0	396361728	56	5210
2026-01-20 01:26:33.95	326.27	22.71	-42.8	-45.5	18.6	0.00e+00	0	43	0	397410304	56	5105
2026-01-20 01:26:35.23	325.94	22.77	-42.5	-45.1	18.9	0.00e+00	0	43	0	400556032	56	4889
2026-01-20 01:26:36.27	325.67	22.81	-42.3	-44.8	19.1	0.00e+00	0	43	0	402653184	56	4728
2026-01-20 01:26:37.27	325.41	22.86	-42.3	-44.8	19.2	0.00e+00	0	43	0	403701760	56	4711
2026-01-20 01:26:38.56	325.07	22.91	-42.2	-44.6	19.4	0.00e+00	0	43	0	406847488	56	4606
2026-01-20 01:26:39.27	324.88	22.94	-42.5	-44.9	19.0	0.00e+00	0	43	0	407896064	56	4806
2026-01-20 01:26:40.56	324.55	23.00	-42.4	-44.9	19.1	0.00e+00	0	43	0	409993216	56	4781
2026-01-20 01:26:41.28	324.36	23.03	-42.4	-44.9	19.1	0.00e+00	0	43	0	411041792	56	4767
2026-01-20 01:26:42.56	324.02	23.08	-42.5	-45.0	19.0	0.00e+00	0	43	0	414187520	56	4846
2026-01-20 01:26:43.27	323.83	23.11	-42.5	-44.9	19.1	0.00e+00	0	43	0	415236096	56	4803
2026-01-20 01:26:44.55	323.49	23.16	-42.1	-44.5	19.4	0.00e+00	0	43	0	417333248	56	4563
2026-01-20 01:26:45.26	323.30	23.19	-41.8	-44.2	19.6	0.00e+00	0	43	0	419430400	55	4675
2026-01-20 01:26:46.54	322.96	23.24	-41.6	-44.0	19.7	0.00e+00	0	43	0	421527552	55	4560
2026-01-20 01:26:47.28	322.76	23.27	-41.5	-43.7	19.9	0.00e+00	0	43	0	422576128	55	4441
2026-01-20 01:26:48.56	322.42	23.32	-41.6	-43.8	19.9	0.00e+00	0	43	0	424673280	54	4745
2026-01-20 01:26:49.27	322.22	23.34	-41.7	-43.9	19.8	0.00e+00	0	43	0	426770432	54	4813
2026-01-20 01:26:50.55	321.88	23.39	-41.9	-44.2	19.5	0.00e+00	0	43	0	428867584	54	4981
2026-01-20 01:26:51.26	321.69	23.41	-41.9	-44.2	19.6	0.00e+00	0	43	0	429916160	54	4941
2026-01-20 01:26:52.53	321.34	23.46	-42.2	-44.6	19.2	0.00e+00	0	43	0	433061888	54	5194
2026-01-20 01:26:53.26	321.14	23.48	-42.2	-44.6	19.2	0.00e+00	0	43	0	434110464	55	4925
2026-01-20 01:26:54.74	320.74	23.53	-42.1	-44.7	19.2	0.00e+00	0	43	0	436207616	55	4931
2026-01-20 01:26:55.46	320.54	23.56	-42.2	-44.8	19.1	0.00e+00	0	43	0	438304768	55	4999
2026-01-20 01:26:56.73	320.20	23.60	-42.4	-45.0	18.8	0.00e+00	0	43	0	440401920	55	5143
2026-01-20 01:26:57.46	320.00	23.62	-42.6	-45.2	18.7	0.00e+00	0	43	0	441450496	55	5230
2026-01-20 01:26:58.74	319.65	23.66	-43.3	-46.0	18.1	0.00e+00	0	43	0	444596224	57	5119
2026-01-20 01:26:59.47	319.44	23.68	-43.5	-46.3	17.8	0.00e+00	0	43	0	445644800	57	5318
2026-01-20 01:27:00.74	319.09	23.72	-44.3	-47.3	16.9	0.00e+00	0	43	0	447741952	59	5330
2026-01-20 01:27:01.45	318.90	23.74	-44.5	-47.7	16.5	0.00e+00	0	43	0	449839104	59	5552
2026-01-20 01:27:02.73	318.54	23.78	-44.4	-47.6	16.6	0.00e+00	0	43	0	451936256	59	5465
2026-01-20 01:27:03.44	318.35	23.80	-44.3	-47.4	16.8	0.00e+00	0	43	0	452984832	59	5375
2026-01-20 01:27:04.72	317.99	23.83	-43.9	-46.9	17.3	0.00e+00	0	43	0	455081984	59	5068
2026-01-20 01:27:05.45	317.79	23.85	-43.7	-46.6	17.6	0.00e+00	0	43	0	457179136	59	4890
2026-01-20 01:27:06.73	317.43	23.88	-43.6	-46.4	17.8	0.00e+00	0	43	0	459276288	59	4783
2026-01-20 01:27:07.44	317.23	23.90	-43.6	-46.3	17.8	0.00e+00	0	43	0	460324864	59	4743
2026-01-20 01:27:08.72	316.87	23.93	-43.8	-46.5	17.6	0.00e+00	0	43	0	463470592	59	4862
2026-01-20 01:27:09.43	316.68	23.95	-43.7	-46.5	17.7	0.00e+00	0	43	0	464519168	59	4815
2026-01-20 01:27:10.71	316.32	23.98	-43.8	-46.5	17.6	0.00e+00	0	43	0	466616320	59	4847
2026-01-20 01:27:11.44	316.11	23.99	-43.8	-46.6	17.5	0.00e+00	0	43	0	467664896	59	4873
2026-01-20 01:27:12.71	315.75	24.02	-44.0	-46.8	17.4	0.00e+00	0	43	0	470810624	59	4997
2026-01-20 01:27:13.42	315.55	24.04	-43.9	-46.7	17.4	0.00e+00	0	43	0	471859200	59	4949
2026-01-20 01:27:14.77	315.17	24.06	-43.7	-46.4	17.7	0.00e+00	0	43	0	473956352	59	4782
2026-01-20 01:27:15.48	314.97	24.08	-43.6	-46.2	17.9	0.00e+00	0	43	0	476053504	59	4705
2026-01-20 01:27:16.84	314.59	24.10	-43.5	-46.1	17.9	0.00e+00	0	43	0	478150656	58	4903
2026-01-20 01:27:17.55	314.39	24.11	-43.7	-46.4	17.6	0.00e+00	0	43	0	479199232	58	5096
2026-01-20 01:27:18.83	314.03	24.13	-44.0	-46.8	17.3	0.00e+00	0	43	0	482344960	58	5335
2026-01-20 01:27:19.54	313.82	24.15	-44.1	-47.1	17.0	0.00e+00	0	43	0	483393536	59	5180
2026-01-20 01:27:20.82	313.46	24.16	-44.0	-47.0	17.1	0.00e+00	0	43	0	485490688	59	5130
2026-01-20 01:27:21.53	313.26	24.17	-44.2	-47.2	16.9	0.00e+00	0	43	0	486539264	59	5266
2026-01-20 01:27:22.81	312.89	24.19	-44.5	-47.7	16.4	0.00e+00	0	43	0	489684992	59	5587
2026-01-20 01:27:23.54	312.69	24.20	-44.5	-47.8	16.4	0.00e+00	0	43	0	490733568	59	5598
2026-01-20 01:27:24.81	312.32	24.22	-44.5	-47.8	16.3	0.00e+00	0	43	0	492830720	59	5607
2026-01-20 01:27:25.54	312.12	24.23	-44.4	-47.7	16.6	0.00e+00	0	43	0	494927872	60	5240
2026-01-20 01:27:26.82	311.75	24.24	-44.3	-47.4	16.8	0.00e+00	0	43	0	497025024	60	5088
2026-01-20 01:27:27.55	311.54	24.25	-44.2	-47.2	17.0	0.00e+00	0	43	0	498073600	60	4966
2026-01-20 01:27:28.82	311.18	24.26	-44.1	-47.0	17.2	0.00e+00	0	43	0	500170752	60	4828
2026-01-20 01:27:29.71	310.92	24.27	-43.9	-46.7	17.4	0.00e+00	0	43	0	502267904	59	4983
2026-01-20 01:27:31.13	310.52	24.28	-44.2	-47.2	17.0	0.00e+00	0	43	0	505413632	59	5219
2026-01-20 01:27:31.84	310.31	24.28	-44.5	-47.6	16.6	0.00e+00	0	43	0	506462208	59	5465
2026-01-20 01:27:33.12	309.95	24.29	-44.7	-47.8	16.5	0.00e+00	0	43	0	508559360	60	5326
2026-01-20 01:27:33.84	309.74	24.29	-44.9	-48.2	16.0	0.00e+00	0	43	0	509607936	60	5580
2026-01-20 01:27:35.12	309.37	24.30	-45.0	-48.3	16.0	0.00e+00	0	43	0	512753664	60	5598
2026-01-20 01:27:35.85	309.17	24.30	-44.8	-48.0	16.3	0.00e+00	0	43	0	513802240	60	5403
2026-01-20 01:27:37.13	308.80	24.30	-44.6	-47.7	16.5	0.00e+00	0	43	0	515899392	60	5269
2026-01-20 01:27:37.84	308.59	24.30	-44.5	-47.6	16.6	0.00e+00	0	43	0	517996544	60	5197
2026-01-20 01:27:39.12	308.23	24.30	-44.4	-47.4	16.9	0.00e+00	0	43	0	520093696	60	5060
2026-01-20 01:27:39.89	308.01	24.31	-44.0	-46.8	17.4	0.00e+00	0	43	0	521142272	60	4732
2026-01-20 01:27:41.17	307.64	24.30	-43.7	-46.4	17.6	0.00e+00	0	43	0	524288000	59	4778
2026-01-20 01:27:41.89	307.43	24.30	-43.4	-46.0	18.1	0.00e+00	0	43	0	525336576	58	4830
2026-01-20 01:27:43.17	307.07	24.30	-43.3	-45.9	18.2	0.00e+00	0	43	0	527433728	58	4775
2026-01-20 01:27:44.01	306.82	24.30	-43.3	-45.9	18.1	0.00e+00	0	43	0	529530880	58	4784
2026-01-20 01:27:45.15	306.50	24.29	-43.8	-46.6	17.6	0.00e+00	0	43	0	531628032	58	5169
2026-01-20 01:27:46.19	306.20	24.29	-43.9	-46.8	17.3	0.00e+00	0	43	0	532676608	58	5304
2026-01-20 01:27:47.32	305.88	24.28	-44.2	-47.2	17.0	0.00e+00	0	43	0	535822336	59	5277
2026-01-20 01:27:48.24	305.61	24.28	-44.2	-47.2	16.9	0.00e+00	0	43	0	536870912	59	5219
2026-01-20 01:27:49.24	305.33	24.27	-44.0	-47.0	17.1	0.00e+00	0	43	0	538968064	59	5115
2026-01-20 01:27:50.44	304.98	24.26	-43.9	-46.8	17.3	0.00e+00	0	43	0	541065216	59	5039
2026-01-20 01:27:51.32	304.73	24.25	-43.9	-46.8	17.3	0.00e+00	0	43	0	543162368	59	5012
2026-01-20 01:27:52.46	304.41	24.24	-43.9	-46.8	17.3	0.00e+00	0	43	0	545259520	59	4984
2026-01-20 01:27:53.41	304.13	24.23	-43.8	-46.6	17.5	0.00e+00	0	43	0	546308096	59	4920
2026-01-20 01:27:54.40	303.85	24.22	-43.6	-46.4	17.6	0.00e+00	0	43	0	548405248	59	4789
2026-01-20 01:27:55.39	303.57	24.21	-43.6	-46.4	17.7	0.00e+00	0	43	0	550502400	59	4799
2026-01-20 01:27:56.39	303.28	24.20	-43.7	-46.5	17.6	0.00e+00	0	43	0	552599552	59	4851
2026-01-20 01:27:57.39	303.00	24.19	-43.5	-46.2	17.9	0.00e+00	0	43	0	554696704	58	4948
2026-01-20 01:27:58.38	302.72	24.17	-43.7	-46.4	17.7	0.00e+00	0	43	0	555745280	58	5055
2026-01-20 01:27:59.38	302.43	24.16	-43.6	-46.3	17.8	0.00e+00	0	43	0	557842432	58	4988
2026-01-20 01:28:00.37	302.15	24.14	-43.5	-46.1	18.0	0.00e+00	0	43	0	559939584	58	4905
2026-01-20 01:28:01.37	301.87	24.13	-43.2	-45.8	18.3	0.00e+00	0	43	0	562036736	58	4720
2026-01-20 01:28:02.36	301.59	24.11	-43.1	-45.7	18.3	0.00e+00	0	43	0	563085312	58	4668
2026-01-20 01:28:03.36	301.30	24.09	-43.1	-45.6	18.4	0.00e+00	0	43	0	565182464	57	4886
2026-01-20 01:28:04.35	301.02	24.07	-43.2	-45.8	18.3	0.00e+00	0	43	0	567279616	57	5017
2026-01-20 01:28:05.35	300.74	24.05	-43.3	-45.9	18.1	0.00e+00	0	43	0	569376768	57	5084
2026-01-20 01:28:06.35	300.46	24.03	-43.2	-45.8	18.2	0.00e+00	0	43	0	571473920	57	5014
2026-01-20 01:28:07.34	300.18	24.01	-42.8	-45.3	18.8	0.00e+00	0	43	0	572522496	57	4709
2026-01-20 01:28:08.34	299.90	23.99	-42.5	-44.9	19.1	0.00e+00	0	43	0	574619648	57	4514
2026-01-20 01:28:09.33	299.62	23.97	-42.4	-44.7	19.2	0.00e+00	0	43	0	576716800	56	4699
2026-01-20 01:28:10.33	299.34	23.95	-42.4	-44.8	19.2	0.00e+00	0	43	0	578813952	56	4709
2026-01-20 01:28:11.32	299.06	23.92	-42.1	-44.3	19.6	0.00e+00	0	43	0	579862528	56	4493
2026-01-20 01:28:12.32	298.78	23.90	-42.1	-44.5	19.5	0.00e+00	0	43	0	581959680	56	4546
2026-01-20 01:28:13.32	298.50	23.88	-42.0	-44.3	19.6	0.00e+00	0	43	0	584056832	56	4473
2026-01-20 01:28:14.31	298.23	23.85	-41.7	-44.0	19.8	0.00e+00	0	43	0	586153984	55	4565
2026-01-20 01:28:15.30	297.95	23.82	-41.7	-44.0	19.8	0.00e+00	0	43	0	588251136	55	4555
2026-01-20 01:28:16.30	297.67	23.80	-41.6	-43.8	19.9	0.00e+00	0	43	0	589299712	55	4444
2026-01-20 01:28:17.30	297.39	23.77	-41.6	-43.8	19.9	0.00e+00	0	43	0	591396864	55	4482
2026-01-20 01:28:18.35	297.10	23.74	-41.6	-43.7	20.0	0.00e+00	0	43	0	593494016	55	4438
2026-01-20 01:28:19.24	296.86	23.71	-41.6	-43.8	19.9	0.00e+00	0	43	0	595591168	55	4470
2026-01-20 01:28:20.38	296.54	23.68	-41.6	-43.7	20.0	0.00e+00	0	43	0	597688320	55	4416
2026-01-20 01:28:21.23	296.31	23.65	-41.8	-43.9	19.8	0.00e+00	0	43	0	598736896	55	4544
2026-01-20 01:28:22.37	295.99	23.62	-41.9	-44.1	19.6	0.00e+00	0	43	0	600834048	55	4638
2026-01-20 01:28:23.22	295.76	23.59	-42.1	-44.3	19.4	0.00e+00	0	43	0	602931200	55	4754
2026-01-20 01:28:24.70	295.36	23.54	-42.3	-44.6	19.2	0.00e+00	0	43	0	605028352	55	4908
2026-01-20 01:28:25.42	295.16	23.52	-42.2	-44.5	19.4	0.00e+00	0	43	0	607125504	55	4834
2026-01-20 01:28:26.70	294.81	23.48	-42.2	-44.5	19.3	0.00e+00	0	43	0	609222656	55	4832
2026-01-20 01:28:27.42	294.61	23.45	-42.3	-44.6	19.2	0.00e+00	0	43	0	610271232	55	4892
2026-01-20 01:28:28.70	294.27	23.41	-42.3	-44.6	19.2	0.00e+00	0	43	0	613416960	55	4880
2026-01-20 01:28:29.42	294.07	23.38	-42.1	-44.4	19.4	0.00e+00	0	43	0	614465536	55	4768
2026-01-20 01:28:30.69	293.73	23.33	-42.0	-44.3	19.5	0.00e+00	0	43	0	616562688	55	4720
2026-01-20 01:28:31.50	293.51	23.30	-41.9	-44.1	19.6	0.00e+00	0	43	0	618659840	55	4641
2026-01-20 01:28:32.64	293.20	23.26	-42.1	-44.4	19.4	0.00e+00	0	43	0	620756992	55	4760
2026-01-20 01:28:33.69	292.92	23.22	-42.5	-44.8	19.1	0.00e+00	0	43	0	621805568	55	5007
2026-01-20 01:28:34.74	292.64	23.18	-43.0	-45.5	18.6	0.00e+00	0	43	0	623902720	56	5115
2026-01-20 01:28:35.68	292.39	23.14	-43.1	-45.6	18.5	0.00e+00	0	43	0	625999872	57	4882
2026-01-20 01:28:36.68	292.12	23.10	-43.2	-45.7	18.4	0.00e+00	0	43	0	628097024	57	4949
2026-01-20 01:28:37.67	291.86	23.06	-43.1	-45.6	18.5	0.00e+00	0	43	0	630194176	57	4880
2026-01-20 01:28:38.67	291.60	23.02	-43.3	-45.8	18.3	0.00e+00	0	43	0	631242752	57	5018
2026-01-20 01:28:39.66	291.34	22.98	-43.1	-45.6	18.5	0.00e+00	0	43	0	633339904	57	4890
2026-01-20 01:28:40.66	291.07	22.93	-43.2	-45.7	18.4	0.00e+00	0	43	0	635437056	57	4954
2026-01-20 01:28:41.65	290.81	22.89	-43.4	-46.0	18.1	0.00e+00	0	43	0	637534208	57	5142
2026-01-20 01:28:42.65	290.55	22.85	-43.6	-46.3	17.8	0.00e+00	0	43	0	639631360	57	5307
2026-01-20 01:28:43.64	290.29	22.80	-43.7	-46.3	17.8	0.00e+00	0	43	0	640679936	58	5033
2026-01-20 01:28:44.64	290.03	22.76	-43.8	-46.5	17.6	0.00e+00	0	43	0	642777088	58	5133
2026-01-20 01:28:45.63	289.77	22.71	-44.0	-46.8	17.3	0.00e+00	0	43	0	644874240	59	5009
2026-01-20 01:28:46.69	289.50	22.66	-43.8	-46.5	17.6	0.00e+00	0	43	0	646971392	59	4857
2026-01-20 01:28:47.61	289.26	22.62	-44.0	-46.7	17.4	0.00e+00	0	43	0	648019968	59	4954
2026-01-20 01:28:48.74	288.97	22.57	-44.1	-46.9	17.2	0.00e+00	0	43	0	650117120	59	5067
2026-01-20 01:28:49.59	288.75	22.53	-44.2	-47.1	17.1	0.00e+00	0	43	0	652214272	59	5168
2026-01-20 01:28:50.94	288.41	22.46	-44.4	-47.3	16.9	0.00e+00	0	43	0	654311424	59	5283
2026-01-20 01:28:51.65	288.23	22.43	-44.4	-47.4	16.8	0.00e+00	0	43	0	656408576	59	5360
2026-01-20 01:28:52.96	287.89	22.36	-44.4	-47.4	16.7	0.00e+00	0	43	0	658505728	59	5357
2026-01-20 01:28:53.67	287.71	22.33	-44.2	-47.1	17.0	0.00e+00	0	43	0	659554304	59	5187
2026-01-20 01:28:55.14	287.34	22.25	-44.1	-47.0	17.1	0.00e+00	0	43	0	662700032	59	5115
2026-01-20 01:28:55.85	287.17	22.22	-44.1	-47.0	17.2	0.00e+00	0	43	0	663748608	59	5133
2026-01-20 01:28:57.13	286.84	22.15	-43.9	-46.7	17.4	0.00e+00	0	43	0	665845760	59	4964
2026-01-20 01:28:58.17	286.59	22.10	-43.8	-46.6	17.5	0.00e+00	0	43	0	667942912	59	4910
2026-01-20 01:28:59.47	286.26	22.03	-44.1	-47.0	17.1	0.00e+00	0	43	0	671088640	59	5103
2026-01-20 01:29:00.18	286.09	21.99	-44.2	-47.1	17.1	0.00e+00	0	43	0	672137216	59	5168
2026-01-20 01:29:01.84	285.68	21.90	-44.5	-47.5	16.6	0.00e+00	0	43	0	675282944	59	5452
2026-01-20 01:29:02.41	285.54	21.87	-44.5	-47.6	16.6	0.00e+00	0	43	0	676331520	59	5498
2026-01-20 01:29:04.10	285.12	21.78	-44.0	-46.8	17.3	0.00e+00	0	43	0	679477248	59	5032
2026-01-20 01:29:04.67	284.98	21.75	-44.0	-46.8	17.3	0.00e+00	0	43	0	680525824	59	5013
2026-01-20 01:29:06.37	284.57	21.65	-43.6	-46.3	17.7	0.00e+00	0	43	0	683671552	59	4747
2026-01-20 01:29:06.94	284.43	21.62	-43.9	-46.7	17.5	0.00e+00	0	43	0	684720128	59	4932
2026-01-20 01:29:08.65	284.02	21.53	-43.8	-46.6	17.6	0.00e+00	0	43	0	687865856	59	4872
2026-01-20 01:29:09.22	283.88	21.49	-43.8	-46.5	17.6	0.00e+00	0	43	0	688914432	59	4817
2026-01-20 01:29:11.05	283.45	21.39	-43.7	-46.4	17.7	0.00e+00	0	43	0	692060160	59	4808
2026-01-20 01:29:11.62	283.31	21.36	-44.0	-46.8	17.3	0.00e+00	0	43	0	693108736	59	5000
2026-01-20 01:29:13.32	282.91	21.26	-44.2	-47.1	17.0	0.00e+00	0	43	0	696254464	59	5185
2026-01-20 01:29:14.02	282.74	21.22	-44.3	-47.3	16.9	0.00e+00	0	43	0	698351616	59	5313
2026-01-20 01:29:15.44	282.41	21.13	-44.8	-48.0	16.2	0.00e+00	0	43	0	700448768	60	5446
2026-01-20 01:29:16.21	282.23	21.09	-44.8	-48.0	16.2	0.00e+00	0	43	0	702545920	60	5436
2026-01-20 01:29:17.49	281.93	21.01	-44.6	-47.7	16.5	0.00e+00	0	43	0	704643072	60	5273
2026-01-20 01:29:18.31	281.74	20.96	-44.5	-47.6	16.7	0.00e+00	0	43	0	705691648	60	5163
2026-01-20 01:29:19.45	281.48	20.89	-44.1	-47.0	17.1	0.00e+00	0	43	0	707788800	60	4842
2026-01-20 01:29:20.30	281.28	20.84	-44.1	-47.1	17.1	0.00e+00	0	43	0	709885952	60	4881
2026-01-20 01:29:21.44	281.02	20.77	-44.1	-47.0	17.1	0.00e+00	0	43	0	711983104	60	4866
2026-01-20 01:29:22.29	280.83	20.72	-44.3	-47.4	16.8	0.00e+00	0	43	0	713031680	60	5077
2026-01-20 01:29:23.43	280.57	20.65	-44.6	-47.8	16.4	0.00e+00	0	43	0	715128832	60	5286
2026-01-20 01:29:24.28	280.38	20.59	-44.8	-48.1	16.1	0.00e+00	0	43	0	717225984	60	5512
2026-01-20 01:29:25.42	280.12	20.52	-45.1	-48.5	15.7	0.00e+00	0	43	0	719323136	61	5458
2026-01-20 01:29:26.27	279.93	20.47	-45.6	-49.3	14.9	0.00e+00	0	43	0	720371712	61	5958
2026-01-20 01:29:27.41	279.67	20.40	-45.3	-48.8	15.4	7.00e-07	0	43	0	723517440	61	5647
2026-01-20 01:29:28.26	279.48	20.34	-45.1	-48.5	15.7	0.00e+00	0	43	0	724566016	61	5447
2026-01-20 01:29:29.40	279.23	20.27	-44.8	-48.0	16.1	0.00e+00	0	43	0	726663168	61	5155
2026-01-20 01:29:30.25	279.04	20.22	-44.7	-48.0	16.3	0.00e+00	0	43	0	728760320	61	5103
2026-01-20 01:29:31.38	278.80	20.14	-44.1	-47.1	17.1	0.00e+00	0	43	0	730857472	60	4873
2026-01-20 01:29:32.24	278.61	20.09	-43.8	-46.7	17.4	0.00e+00	0	43	0	731906048	59	4964
2026-01-20 01:29:33.38	278.36	20.01	-43.7	-46.5	17.6	0.00e+00	0	43	0	734003200	59	4831
2026-01-20 01:29:34.37	278.14	19.95	-43.5	-46.3	17.8	0.00e+00	0	43	0	736100352	59	4721
2026-01-20 01:29:35.36	277.93	19.88	-43.4	-46.1	17.9	0.00e+00	0	43	0	738197504	58	4894
2026-01-20 01:29:36.36	277.71	19.82	-43.3	-46.0	18.0	0.00e+00	0	43	0	740294656	58	4815
2026-01-20 01:29:37.35	277.50	19.75	-43.3	-46.0	18.0	0.00e+00	0	43	0	741343232	58	4853
2026-01-20 01:29:38.35	277.29	19.69	-43.1	-45.7	18.3	0.00e+00	0	43	0	743440384	58	4680
2026-01-20 01:29:39.34	277.08	19.62	-43.1	-45.7	18.2	0.00e+00	0	43	0	745537536	58	4685
2026-01-20 01:29:40.34	276.87	19.55	-43.2	-45.8	18.1	0.00e+00	0	43	0	747634688	58	4744
2026-01-20 01:29:41.33	276.66	19.49	-43.1	-45.6	18.4	0.00e+00	0	43	0	748683264	57	4896
2026-01-20 01:29:42.33	276.45	19.42	-42.8	-45.3	18.6	0.00e+00	0	43	0	750780416	57	4724
2026-01-20 01:29:43.32	276.24	19.35	-42.7	-45.1	18.8	0.00e+00	0	43	0	752877568	57	4628
2026-01-20 01:29:44.31	276.04	19.29	-42.5	-44.9	19.0	0.00e+00	0	43	0	754974720	57	4530
2026-01-20 01:29:45.31	275.83	19.22	-42.2	-44.6	19.2	0.00e+00	0	43	0	757071872	56	4610
2026-01-20 01:29:46.30	275.63	19.15	-42.1	-44.5	19.3	0.00e+00	0	43	0	758120448	56	4549
2026-01-20 01:29:47.36	275.41	19.08	-42.2	-44.6	19.2	0.00e+00	0	43	0	760217600	56	4627
2026-01-20 01:29:48.27	275.22	19.02	-42.3	-44.7	19.1	0.00e+00	0	43	0	762314752	56	4681
2026-01-20 01:29:49.27	275.02	18.95	-42.5	-44.9	19.0	0.00e+00	0	43	0	764411904	56	4789
2026-01-20 01:29:50.26	274.82	18.88	-43.0	-45.5	18.4	0.00e+00	0	43	0	765460480	56	5143
2026-01-20 01:29:51.45	274.58	18.80	-43.5	-46.1	17.8	0.00e+00	0	43	0	768606208	57	5201
2026-01-20 01:29:52.33	274.40	18.74	-43.6	-46.4	17.7	0.00e+00	0	43	0	769654784	57	5354
2026-01-20 01:29:53.64	274.14	18.65	-43.9	-46.8	17.2	0.00e+00	0	43	0	771751936	58	5329
2026-01-20 01:29:54.35	274.00	18.60	-44.0	-47.0	17.0	0.00e+00	0	43	0	773849088	58	5417
2026-01-20 01:29:55.63	273.75	18.51	-44.2	-47.3	16.8	0.00e+00	0	43	0	775946240	59	5305
2026-01-20 01:29:56.34	273.61	18.46	-44.2	-47.3	16.8	0.00e+00	0	43	0	776994816	59	5302
2026-01-20 01:29:57.62	273.36	18.37	-44.2	-47.3	16.7	0.00e+00	0	43	0	780140544	59	5333
2026-01-20 01:29:58.34	273.22	18.32	-44.0	-47.1	16.9	0.00e+00	0	43	0	781189120	59	5184
2026-01-20 01:29:59.62	272.97	18.23	-43.9	-46.9	17.1	0.00e+00	0	43	0	783286272	59	5094
2026-01-20 01:30:00.33	272.83	18.18	-43.7	-46.6	17.4	0.00e+00	0	43	0	784334848	59	4888
2026-01-20 01:30:01.61	272.58	18.09	-43.8	-46.3	17.8	0.00e+00	0	43	0	787480576	59	4741
2026-01-20 01:30:02.32	272.45	18.04	-43.7	-46.3	17.8	0.00e+00	0	43	0	788529152	59	4717
2026-01-20 01:30:03.61	272.20	17.95	-43.7	-46.2	17.9	0.00e+00	0	43	0	790626304	59	4679
2026-01-20 01:30:04.32	272.07	17.90	-43.5	-46.0	18.1	0.00e+00	0	43	0	792723456	59	4577
2026-01-20 01:30:05.60	271.83	17.81	-43.5	-46.0	18.1	0.00e+00	0	43	0	794820608	58	4840
2026-01-20 01:30:06.31	271.69	17.76	-43.2	-45.6	18.5	0.00e+00	0	43	0	795869184	58	4603
2026-01-20 01:30:07.67	271.44	17.66	-43.0	-45.3	18.7	0.00e+00	0	43	0	799014912	57	4735
2026-01-20 01:30:08.63	271.26	17.59	-43.3	-45.7	18.3	0.00e+00	0	43	0	800063488	57	4977
2026-01-20 01:30:09.63	271.08	17.52	-43.3	-45.7	18.3	0.00e+00	0	43	0	802160640	57	4954
2026-01-20 01:30:11.02	270.82	17.42	-43.7	-46.2	17.8	0.00e+00	0	43	0	804257792	58	4983
2026-01-20 01:30:11.76	270.69	17.37	-43.9	-46.5	17.6	0.00e+00	0	43	0	806354944	58	5137
2026-01-20 01:30:13.04	270.45	17.28	-44.1	-46.8	17.4	0.00e+00	0	43	0	808452096	58	5297
2026-01-20 01:30:13.75	270.32	17.23	-44.1	-46.8	17.3	0.00e+00	0	43	0	809500672	58	5287
2026-01-20 01:30:15.03	270.09	17.13	-43.9	-46.5	17.6	0.00e+00	0	43	0	812646400	58	5157
2026-01-20 01:30:15.75	269.96	17.08	-43.8	-46.3	17.8	0.00e+00	0	43	0	813694976	58	5014
2026-01-20 01:30:17.03	269.73	16.99	-43.7	-46.2	17.8	0.00e+00	0	43	0	815792128	58	4983
2026-01-20 01:30:17.76	269.61	16.94	-43.6	-46.1	17.9	0.00e+00	0	43	0	817889280	58	4910
2026-01-20 01:30:19.03	269.38	16.85	-43.8	-46.4	17.7	0.00e+00	0	43	0	819986432	58	5059
2026-01-20 01:30:19.74	269.26	16.79	-43.9	-46.5	17.6	0.00e+00	0	43	0	821035008	58	5153
2026-01-20 01:30:21.02	269.03	16.70	-44.0	-46.7	17.4	0.00e+00	0	43	0	823132160	58	5252
2026-01-20 01:30:21.76	268.90	16.65	-43.9	-46.6	17.5	0.00e+00	0	43	0	825229312	58	5189
2026-01-20 01:30:23.04	268.68	16.56	-44.0	-46.7	17.4	0.00e+00	0	43	0	827326464	58	5275
2026-01-20 01:30:23.75	268.56	16.50	-44.0	-46.7	17.5	0.00e+00	0	43	0	828375040	58	5224
2026-01-20 01:30:25.03	268.34	16.41	-43.9	-46.5	17.6	0.00e+00	0	43	0	831520768	58	5124
2026-01-20 01:30:25.75	268.21	16.36	-43.9	-46.5	17.6	0.00e+00	0	43	0	832569344	58	5139
2026-01-20 01:30:27.03	268.00	16.27	-43.6	-46.2	17.8	0.00e+00	0	43	0	834666496	58	4951
2026-01-20 01:30:27.74	267.88	16.21	-43.5	-46.1	18.0	0.00e+00	0	43	0	835715072	58	4878
2026-01-20 01:30:29.02	267.66	16.12	-43.4	-45.9	18.2	0.00e+00	0	43	0	838860800	58	4779
2026-01-20 01:30:29.73	267.54	16.07	-43.2	-45.6	18.4	0.00e+00	0	43	0	839909376	58	4622
2026-01-20 01:30:31.01	267.33	15.98	-43.1	-45.5	18.5	0.00e+00	0	43	0	842006528	58	4568
2026-01-20 01:30:31.74	267.21	15.92	-42.8	-45.1	18.8	0.00e+00	0	43	0	844103680	57	4630
2026-01-20 01:30:33.02	267.00	15.83	-43.0	-45.3	18.6	0.00e+00	0	43	0	846200832	57	4751
2026-01-20 01:30:33.74	266.88	15.78	-43.1	-45.5	18.4	0.00e+00	0	43	0	847249408	57	4863
2026-01-20 01:30:35.02	266.67	15.69	-43.3	-45.7	18.3	0.00e+00	0	43	0	849346560	57	4954
2026-01-20 01:30:35.73	266.55	15.63	-43.3	-45.7	18.2	0.00e+00	0	43	0	851443712	57	4983
2026-01-20 01:30:37.01	266.34	15.54	-43.2	-45.6	18.3	0.00e+00	0	43	0	853540864	57	4916
2026-01-20 01:30:37.74	266.23	15.49	-43.2	-45.6	18.4	0.00e+00	0	43	0	854589440	57	4881
2026-01-20 01:30:39.02	266.02	15.39	-42.9	-45.2	18.6	0.00e+00	0	43	0	857735168	57	4705
2026-01-20 01:30:39.74	265.91	15.34	-42.8	-45.1	18.8	0.00e+00	0	43	0	858783744	57	4640
2026-01-20 01:30:41.02	265.70	15.25	-42.3	-44.6	19.3	0.00e+00	0	43	0	860880896	56	4621
2026-01-20 01:30:41.73	265.59	15.20	-42.2	-44.4	19.4	0.00e+00	0	43	0	861929472	56	4531
2026-01-20 01:30:43.25	265.35	15.09	-43.1	-45.5	19.1	0.00e+00	0	43	0	865075200	56	5126
2026-01-20 01:30:44.23	265.20	15.01	-42.6	-44.8	19.1	0.00e+00	0	43	0	867172352	56	4744
2026-01-20 01:30:45.23	265.04	14.94	-42.5	-44.8	19.1	0.00e+00	0	43	0	869269504	56	4719
2026-01-20 01:30:46.57	264.84	14.84	-42.7	-45.0	18.9	0.00e+00	0	43	0	871366656	56	4856
2026-01-20 01:30:47.28	264.73	14.79	-42.7	-45.1	18.8	0.00e+00	0	43	0	872415232	56	4877
2026-01-20 01:30:48.56	264.53	14.70	-42.9	-45.3	18.6	0.00e+00	0	43	0	875560960	56	4995
2026-01-20 01:30:49.27	264.42	14.65	-43.1	-45.5	18.4	0.00e+00	0	43	0	876609536	56	5130
2026-01-20 01:30:50.55	264.23	14.55	-43.0	-45.4	18.5	0.00e+00	0	43	0	878706688	57	4781
2026-01-20 01:30:51.26	264.12	14.50	-43.1	-45.5	18.4	0.00e+00	0	43	0	879755264	57	4857
2026-01-20 01:30:52.54	263.93	14.41	-43.3	-45.7	18.2	0.00e+00	0	43	0	882900992	57	4981
2026-01-20 01:30:53.25	263.82	14.36	-43.3	-45.8	18.2	0.00e+00	0	43	0	883949568	57	4996
2026-01-20 01:30:54.53	263.63	14.26	-43.1	-45.6	18.3	0.00e+00	0	43	0	886046720	57	4881
2026-01-20 01:30:55.28	263.52	14.21	-43.0	-45.4	18.5	0.00e+00	0	43	0	888143872	57	4774
2026-01-20 01:30:56.56	263.33	14.12	-42.8	-45.2	18.7	0.00e+00	0	43	0	890241024	57	4654
2026-01-20 01:30:57.27	263.23	14.07	-42.6	-44.9	19.0	0.00e+00	0	43	0	891289600	57	4494
2026-01-20 01:30:58.63	263.03	13.97	-42.6	-44.9	18.9	0.00e+00	0	43	0	894435328	57	4529
2026-01-20 01:30:59.34	262.93	13.91	-42.5	-44.8	19.0	0.00e+00	0	43	0	895483904	57	4474
2026-01-20 01:31:00.70	262.73	13.82	-42.7	-45.0	18.8	0.00e+00	0	43	0	897581056	57	4583
2026-01-20 01:31:01.41	262.63	13.76	-42.7	-45.1	18.8	0.00e+00	0	43	0	899678208	57	4609
2026-01-20 01:31:02.73	262.44	13.67	-43.2	-45.6	18.3	0.00e+00	0	43	0	901775360	57	4891
2026-01-20 01:31:03.44	262.34	13.62	-43.4	-45.9	18.0	0.00e+00	0	43	0	902823936	57	5061
2026-01-20 01:31:04.79	262.15	13.52	-43.7	-46.3	17.7	0.00e+00	0	43	0	905969664	58	5035
2026-01-20 01:31:05.50	262.05	13.47	-43.8	-46.4	17.6	0.00e+00	0	43	0	907018240	58	5072
2026-01-20 01:31:06.78	261.87	13.38	-43.8	-46.4	17.5	0.00e+00	0	43	0	909115392	58	5094
2026-01-20 01:31:07.49	261.77	13.32	-43.9	-46.5	17.4	0.00e+00	0	43	0	910163968	58	5159
2026-01-20 01:31:08.77	261.60	13.23	-43.9	-46.5	17.5	0.00e+00	0	43	0	913309696	58	5143
2026-01-20 01:31:09.51	261.49	13.18	-43.9	-46.5	17.5	0.00e+00	0	43	0	914358272	58	5113
2026-01-20 01:31:10.79	261.32	13.09	-43.9	-46.5	17.5	0.00e+00	0	43	0	916455424	58	5137
2026-01-20 01:31:11.50	261.22	13.04	-43.9	-46.5	17.5	0.00e+00	0	43	0	918552576	58	5136
2026-01-20 01:31:12.78	261.05	12.94	-43.7	-46.3	17.7	0.00e+00	0	43	0	920649728	58	4997
2026-01-20 01:31:13.49	260.95	12.89	-43.5	-46.1	17.8	0.00e+00	0	43	0	921698304	58	4916
2026-01-20 01:31:14.77	260.78	12.80	-43.6	-46.2	17.8	0.00e+00	0	43	0	923795456	58	4932
2026-01-20 01:31:15.49	260.68	12.75	-43.5	-46.1	17.8	0.00e+00	0	43	0	925892608	58	4893
2026-01-20 01:31:16.77	260.51	12.66	-43.3	-45.9	18.0	0.00e+00	0	43	0	927989760	58	4772
2026-01-20 01:31:17.48	260.42	12.61	-43.2	-45.7	18.2	0.00e+00	0	43	0	929038336	58	4656
2026-01-20 01:31:18.77	260.25	12.51	-43.0	-45.4	18.4	0.00e+00	0	43	0	932184064	58	4535
2026-01-20 01:31:19.48	260.16	12.46	-43.0	-45.5	18.4	0.00e+00	0	43	0	933232640	57	4822
2026-01-20 01:31:20.76	259.99	12.37	-43.0	-45.4	18.5	0.00e+00	0	43	0	935329792	57	4779
2026-01-20 01:31:21.50	259.89	12.32	-43.1	-45.6	18.3	0.00e+00	0	43	0	937426944	57	4877
2026-01-20 01:31:22.78	259.73	12.23	-43.0	-45.5	18.4	0.00e+00	0	43	0	939524096	57	4816
2026-01-20 01:31:23.49	259.64	12.18	-43.3	-45.8	18.0	0.00e+00	0	43	0	940572672	57	5017
2026-01-20 01:31:24.76	259.47	12.09	-43.8	-46.4	17.5	0.00e+00	0	43	0	942669824	58	5093
2026-01-20 01:31:25.49	259.38	12.03	-44.0	-46.7	17.2	0.00e+00	0	43	0	944766976	58	5258
2026-01-20 01:31:26.77	259.22	11.94	-44.2	-46.9	17.0	0.00e+00	0	43	0	946864128	58	5396
2026-01-20 01:31:27.48	259.13	11.89	-44.2	-46.9	16.9	0.00e+00	0	43	0	947912704	59	5090
2026-01-20 01:31:28.76	258.97	11.80	-44.2	-47.0	17.0	0.00e+00	0	43	0	951058432	59	5112
2026-01-20 01:31:29.50	258.88	11.75	-44.1	-46.9	17.0	0.00e+00	0	43	0	952107008	59	5079
2026-01-20 01:31:30.79	258.72	11.66	-44.2	-47.0	16.9	0.00e+00	0	43	0	954204160	59	5147
2026-01-20 01:31:31.50	258.63	11.61	-44.1	-46.8	17.2	0.00e+00	0	43	0	955252736	59	4984
2026-01-20 01:31:32.78	258.47	11.52	-43.7	-46.3	17.5	0.00e+00	0	43	0	958398464	59	4734
2026-01-20 01:31:33.61	258.37	11.46	-43.7	-46.2	17.6	0.00e+00	0	43	0	959447040	59	4680
2026-01-20 01:31:34.75	258.23	11.38	-43.5	-46.0	17.8	0.00e+00	0	43	0	961544192	59	4585
2026-01-20 01:31:35.81	258.10	11.30	-43.6	-46.1	17.8	0.00e+00	0	43	0	963641344	58	4904
2026-01-20 01:31:36.87	257.98	11.23	-43.7	-46.2	17.7	0.00e+00	0	43	0	965738496	58	4966
2026-01-20 01:31:37.86	257.86	11.16	-43.7	-46.3	17.6	0.00e+00	0	43	0	967835648	58	5004
2026-01-20 01:31:38.86	257.74	11.09	-43.7	-46.3	17.5	0.00e+00	0	43	0	969932800	58	5040
2026-01-20 01:31:39.85	257.62	11.02	-44.0	-46.7	17.2	0.00e+00	0	43	0	970981376	58	5229
2026-01-20 01:31:40.85	257.50	10.95	-43.8	-46.4	17.4	0.00e+00	0	43	0	973078528	58	5100
2026-01-20 01:31:41.84	257.39	10.88	-43.8	-46.4	17.4	0.00e+00	0	43	0	975175680	58	5098
2026-01-20 01:31:42.84	257.27	10.81	-43.9	-46.5	17.4	0.00e+00	0	43	0	977272832	58	5112
2026-01-20 01:31:43.83	257.15	10.74	-43.8	-46.4	17.4	0.00e+00	0	43	0	978321408	58	5047
2026-01-20 01:31:44.83	257.04	10.67	-43.8	-46.4	17.4	0.00e+00	0	43	0	980418560	58	5096
2026-01-20 01:31:45.82	256.92	10.60	-43.9	-46.6	17.3	0.00e+00	0	43	0	982515712	58	5164
2026-01-20 01:31:46.82	256.81	10.53	-44.1	-46.8	17.0	0.00e+00	0	43	0	984612864	58	5303
2026-01-20 01:31:47.81	256.69	10.46	-44.1	-46.7	17.1	0.00e+00	0	43	0	986710016	58	5275
2026-01-20 01:31:48.80	256.58	10.39	-44.2	-46.9	16.9	0.00e+00	0	43	0	987758592	59	5092
2026-01-20 01:31:49.80	256.47	10.33	-44.4	-47.2	16.6	0.00e+00	0	43	0	989855744	59	5263
2026-01-20 01:31:50.87	256.35	10.25	-44.5	-47.4	16.5	0.00e+00	0	43	0	991952896	59	5382
2026-01-20 01:31:51.76	256.25	10.19	-44.6	-47.6	16.3	0.00e+00	0	43	0	994050048	59	5475
2026-01-20 01:31:53.08	256.10	10.10	-44.7	-47.6	16.3	0.00e+00	0	43	0	996147200	60	5207
2026-01-20 01:31:53.80	256.02	10.05	-44.6	-47.6	16.4	0.00e+00	0	43	0	997195776	60	5192
2026-01-20 01:31:55.08	255.88	9.96	-44.6	-47.6	16.3	0.00e+00	0	43	0	1000341504	60	5197
2026-01-20 01:31:55.79	255.80	9.91	-44.7	-47.8	16.2	0.00e+00	0	43	0	1001390080	60	5289
2026-01-20 01:31:57.07	255.66	9.82	-44.5	-47.4	16.5	0.00e+00	0	43	0	1003487232	60	5096
2026-01-20 01:31:57.89	255.57	9.77	-44.6	-47.5	16.4	0.00e+00	0	43	0	1005584384	60	5151
2026-01-20 01:31:59.02	255.45	9.69	-44.6	-47.5	16.4	0.00e+00	0	43	0	1007681536	60	5155
2026-01-20 01:31:59.87	255.36	9.63	-44.5	-47.4	16.5	0.00e+00	0	43	0	1008730112	60	5099
2026-01-20 01:32:01.01	255.24	9.55	-44.8	-47.9	16.0	0.00e+00	0	43	0	1010827264	60	5401
2026-01-20 01:32:01.87	255.15	9.50	-44.9	-48.0	15.9	0.00e+00	0	43	0	1012924416	60	5434
2026-01-20 01:32:03.00	255.02	9.42	-45.1	-48.3	15.6	0.00e+00	0	43	0	1015021568	60	5638
2026-01-20 01:32:03.86	254.93	9.36	-45.2	-48.5	15.5	0.00e+00	0	43	0	1016070144	61	5414
2026-01-20 01:32:04.99	254.82	9.28	-45.3	-48.7	15.2	0.00e+00	0	43	0	1018167296	61	5588
2026-01-20 01:32:05.85	254.73	9.22	-45.4	-48.8	15.1	0.00e+00	0	43	0	1020264448	61	5652
2026-01-20 01:32:06.98	254.61	9.15	-45.4	-48.9	15.1	0.00e+00	0	43	0	1022361600	61	5671
2026-01-20 01:32:07.84	254.52	9.09	-45.6	-49.0	14.9	0.00e+00	0	43	0	1023410176	61	5782
2026-01-20 01:32:09.12	254.39	9.00	-45.4	-48.7	15.3	0.00e+00	0	43	0	1026555904	62	5250
2026-01-20 01:32:09.83	254.31	8.96	-49.9	-64.2	3.9	6.11e-03	0	43	0	1027604480	70	19720
2026-01-20 01:32:11.10	254.18	8.87	-50.3	-65.6	3.8	1.49e+00	0	43	104	1027604480	71	21824
2026-01-20 01:32:11.81	254.11	8.82	-50.2	-65.7	3.8	1.49e+00	0	43	104	1027604480	71	22112
2026-01-20 01:32:13.09	253.98	8.74	-50.4	-65.8	3.8	1.49e+00	0	43	104	1027604480	71	22451
2026-01-20 01:32:13.82	253.91	8.69	-50.6	-65.8	3.8	1.49e+00	0	43	104	1027604480	71	22440
2026-01-20 01:32:15.09	253.78	8.60	-50.6	-65.9	3.8	1.49e+00	0	43	104	1027604480	71	22675
2026-01-20 01:32:15.83	253.71	8.55	-50.6	-65.9	3.8	1.49e+00	0	44	104	1027604480	72	21341
2026-01-20 01:32:17.11	253.58	8.47	-50.7	-65.9	3.8	1.49e+00	0	43	104	1027604480	72	21474
2026-01-20 01:32:17.82	253.51	8.42	-50.7	-66.0	3.8	1.49e+00	0	43	104	1027604480	72	21523
2026-01-20 01:32:19.09	253.38	8.34	-50.7	-66.0	3.8	1.49e+00	0	43	104	1027604480	72	21580
2026-01-20 01:32:19.80	253.31	8.29	-50.7	-66.0	3.8	1.49e+00	0	43	104	1027604480	72	21569
2026-01-20 01:32:21.08	253.19	8.20	-50.7	-66.0	3.8	1.49e+00	0	43	104	1027604480	72	21606
2026-01-20 01:32:21.79	253.12	8.16	-50.7	-66.0	3.8	1.49e+00	0	44	104	1027604480	72	21556
2026-01-20 01:32:23.07	253.00	8.07	-50.7	-66.0	3.8	1.49e+00	0	43	104	1027604480	72	21635
2026-01-20 01:32:23.78	252.93	8.02	-50.6	-66.0	3.8	1.49e+00	0	43	104	1027604480	72	21652
2026-01-20 01:32:25.06	252.80	7.94	-50.7	-66.0	3.8	1.49e+00	0	43	104	1027604480	72	21543
2026-01-20 01:32:25.78	252.74	7.89	-50.7	-66.0	3.8	1.49e+00	0	43	104	1027604480	72	21696
2026-01-20 01:32:27.06	252.61	7.81	-50.7	-66.0	3.8	1.49e+00	0	43	104	1027604480	72	21604
2026-01-20 01:32:27.78	252.55	7.76	-50.6	-66.0	3.8	1.49e+00	0	43	104	1027604480	72	21542
2026-01-20 01:32:29.06	252.43	7.68	-50.5	-65.9	3.8	1.49e+00	0	43	104	1027604480	72	21453
2026-01-20 01:32:29.77	252.36	7.63	-50.4	-66.0	3.8	1.49e+00	0	43	104	1027604480	72	21521
2026-01-20 01:32:31.05	252.24	7.55	-50.4	-65.9	3.8	1.49e+00	0	43	104	1027604480	72	21481
2026-01-20 01:32:31.76	252.17	7.50	-50.3	-65.9	3.8	1.49e+00	0	43	104	1027604480	72	21417
2026-01-20 01:32:33.03	252.06	7.42	-50.3	-65.9	3.8	1.49e+00	0	43	104	1027604480	72	21420
2026-01-20 01:32:33.74	251.99	7.37	-50.3	-65.9	3.8	1.49e+00	0	43	104	1027604480	72	21362
2026-01-20 01:32:35.02	251.87	7.29	-50.3	-65.9	3.8	1.49e+00	0	43	104	1027604480	72	21336
2026-01-20 01:32:35.73	251.81	7.24	-50.3	-65.9	3.8	1.49e+00	0	43	104	1027604480	72	21310
2026-01-20 01:32:37.01	251.69	7.16	-50.3	-65.9	3.8	1.49e+00	0	43	104	1027604480	72	21320
2026-01-20 01:32:37.71	251.63	7.11	-50.3	-65.9	3.8	1.49e+00	0	43	104	1027604480	72	21348
2026-01-20 01:32:38.99	251.52	7.03	-50.3	-65.9	3.8	1.49e+00	0	43	104	1027604480	72	21370
2026-01-20 01:32:39.70	251.45	6.98	-50.3	-65.9	3.8	1.49e+00	0	43	104	1027604480	72	21311
2026-01-20 01:32:40.98	251.34	6.90	-50.3	-65.8	3.8	1.49e+00	0	43	104	1027604480	72	21227
2026-01-20 01:32:41.69	251.28	6.86	-50.3	-65.9	3.8	1.49e+00	0	43	104	1027604480	72	21438
2026-01-20 01:32:42.96	251.16	6.77	-50.3	-65.9	3.8	1.49e+00	0	43	104	1027604480	72	21405
2026-01-20 01:32:43.67	251.10	6.73	-50.3	-65.8	3.8	1.49e+00	0	43	104	1027604480	72	21254
2026-01-20 01:32:44.95	250.99	6.65	-50.3	-65.8	3.8	1.49e+00	0	43	104	1027604480	72	21244
2026-01-20 01:32:45.67	250.93	6.60	-50.3	-65.9	3.8	1.49e+00	0	43	104	1027604480	72	21383
2026-01-20 01:32:46.95	250.82	6.52	-50.3	-65.9	3.8	1.49e+00	0	43	104	1027604480	72	21385
2026-01-20 01:32:47.66	250.75	6.47	-50.3	-65.9	3.8	1.49e+00	0	43	104	1027604480	72	21285
2026-01-20 01:32:48.94	250.64	6.39	-50.3	-65.9	3.8	1.49e+00	0	43	104	1027604480	72	21300
2026-01-20 01:32:49.65	250.58	6.35	-50.3	-65.9	3.8	1.49e+00	0	43	104	1027604480	72	21364
2026-01-20 01:32:50.92	250.48	6.27	-50.3	-65.9	3.8	1.49e+00	0	43	104	1027604480	72	21270
2026-01-20 01:32:51.65	250.41	6.22	-50.3	-65.9	3.8	1.49e+00	0	43	104	1027604480	72	21354
2026-01-20 01:32:52.93	250.31	6.14	-50.3	-65.9	3.8	1.49e+00	0	43	104	1027604480	72	21291
2026-01-20 01:32:53.65	250.24	6.09	-50.3	-65.9	3.8	1.49e+00	0	43	104	1027604480	72	21338
2026-01-20 01:32:54.93	250.14	6.01	-50.3	-65.9	3.8	1.49e+00	0	43	104	1027604480	72	21303
2026-01-20 01:32:55.65	250.08	5.97	-50.3	-65.9	3.8	1.49e+00	0	43	104	1027604480	72	21427
2026-01-20 01:32:56.93	249.97	5.89	-50.3	-65.8	3.8	1.49e+00	0	43	104	1027604480	72	21253
2026-01-20 01:32:57.64	249.91	5.84	-50.3	-65.9	3.8	1.49e+00	0	43	104	1027604480	72	21366
2026-01-20 01:32:58.91	249.81	5.76	-50.3	-65.9	3.8	1.49e+00	0	43	104	1027604480	72	21327
2026-01-20 01:32:59.62	249.75	5.72	-50.3	-65.9	3.8	1.49e+00	0	43	104	1027604480	72	21298
2026-01-20 01:33:00.90	249.65	5.64	-50.3	-65.8	3.8	1.49e+00	0	43	104	1027604480	72	21244
2026-01-20 01:33:01.61	249.59	5.59	-50.3	-65.8	3.8	1.49e+00	0	43	104	1027604480	72	21237
2026-01-20 01:33:02.89	249.49	5.51	-50.3	-65.9	3.8	1.49e+00	0	43	104	1027604480	72	21267
2026-01-20 01:33:03.60	249.43	5.47	-50.3	-65.9	3.8	1.49e+00	0	43	104	1027604480	72	21276
2026-01-20 01:33:04.88	249.33	5.39	-50.3	-65.9	3.8	1.49e+00	0	43	104	1027604480	72	21288
2026-01-20 01:33:05.59	249.27	5.34	-50.3	-65.9	3.8	1.49e+00	0	43	104	1027604480	72	21279
2026-01-20 01:33:06.86	249.17	5.27	-50.3	-65.8	3.8	1.49e+00	0	43	104	1027604480	72	21250
2026-01-20 01:33:07.57	249.11	5.22	-50.3	-65.9	3.8	1.49e+00	0	43	104	1027604480	72	21315
2026-01-20 01:33:08.85	249.01	5.14	-50.3	-65.9	3.8	1.49e+00	0	43	104	1027604480	72	21282
2026-01-20 01:33:09.57	248.95	5.10	-50.3	-65.9	3.8	1.49e+00	0	43	104	1027604480	72	21321
2026-01-20 01:33:10.85	248.86	5.02	-50.3	-65.8	3.8	1.49e+00	0	43	104	1027604480	72	21183
2026-01-20 01:33:11.56	248.80	4.97	-50.3	-65.8	3.8	1.49e+00	0	43	104	1027604480	72	21255

#Closed at: 2026-01-20 01:33:12
#Recorded file [1027 MB]: D:/Data/31040_260120_042209.dat