passes_logs/2026/01/20/T1/T1__20260120_090253_NOAA_21_JPSS-2_rec.log

#Pass ID: 20260120_090253_NOAA 21 (JPSS-2)
#Satellite: NOAA 21 (JPSS-2)
#Configuration: NOAA 21
#almurnet v.1.7.20251203
#Start time: 2026-01-20 09:02:54

#Version: 2.0.20230620
#Station: T1
#Location: 37.570604 lon 55.790049 lat
#TLE: 1 54234U 22150A   26019.59425193  .00000067  00000+0  52811-4 0  9997
#TLE: 2 54234  98.7505 320.4385 0000607 256.3203 103.7906 14.19535690165464

#Time	Az	El	Level	Level2	SNR	BER	BlckErr	Temp	State	Recorded	gain1	gain2
2026-01-20 09:02:54.18	132.67	5.07	-49.8	-62.8	3.8	1.49e+00	0	38	0	0	71	15793
2026-01-20 09:02:55.17	132.63	5.14	-49.8	-62.8	3.8	1.49e+00	0	38	104	0	71	15818
2026-01-20 09:02:56.17	132.58	5.21	-49.8	-62.8	3.8	1.49e+00	0	38	104	0	71	15858
2026-01-20 09:02:57.16	132.53	5.27	-49.8	-62.8	3.8	1.49e+00	0	38	104	0	71	15939
2026-01-20 09:02:58.16	132.49	5.34	-49.8	-62.9	3.8	1.49e+00	0	38	104	0	71	16018
2026-01-20 09:02:59.15	132.44	5.41	-49.8	-62.9	3.8	1.49e+00	0	38	104	0	71	16016
2026-01-20 09:03:00.15	132.40	5.48	-49.8	-62.9	3.8	1.49e+00	0	38	104	0	71	16009
2026-01-20 09:03:01.14	132.35	5.55	-49.8	-62.9	3.8	1.49e+00	0	38	104	0	71	16033
2026-01-20 09:03:02.14	132.30	5.62	-49.8	-62.9	3.8	1.49e+00	0	38	104	0	71	16035
2026-01-20 09:03:03.13	132.26	5.69	-49.8	-62.9	3.8	1.49e+00	0	38	104	0	71	16070
2026-01-20 09:03:04.12	132.21	5.76	-49.8	-62.9	3.8	1.49e+00	0	38	104	0	71	16073
2026-01-20 09:03:05.12	132.16	5.83	-49.8	-62.9	3.8	1.49e+00	0	38	104	0	71	16037
2026-01-20 09:03:06.11	132.11	5.90	-49.8	-62.9	3.8	1.49e+00	0	38	104	0	71	15965
2026-01-20 09:03:07.11	132.07	5.97	-49.8	-62.8	3.8	1.49e+00	0	38	104	0	71	15880
2026-01-20 09:03:08.10	132.02	6.04	-49.8	-62.7	3.8	1.49e+00	0	38	104	0	71	15731
2026-01-20 09:03:09.09	131.97	6.11	-49.8	-62.7	3.8	1.49e+00	0	39	104	0	71	15605
2026-01-20 09:03:10.09	131.92	6.18	-49.8	-62.6	3.8	1.49e+00	0	38	104	0	71	15490
2026-01-20 09:03:11.08	131.87	6.25	-49.8	-62.5	3.8	1.49e+00	0	38	104	0	71	15313
2026-01-20 09:03:12.08	131.82	6.33	-49.7	-62.4	3.8	1.49e+00	0	39	104	0	71	15212
2026-01-20 09:03:13.07	131.77	6.40	-49.8	-62.4	3.8	1.49e+00	0	39	104	0	71	15123
2026-01-20 09:03:14.07	131.72	6.47	-49.7	-62.4	3.8	1.49e+00	0	38	104	0	71	15197
2026-01-20 09:03:15.06	131.67	6.54	-49.7	-62.4	3.8	1.49e+00	0	39	104	0	71	15215
2026-01-20 09:03:16.06	131.62	6.61	-49.7	-62.6	3.8	1.49e+00	0	39	104	0	71	15417
2026-01-20 09:03:17.05	131.57	6.68	-49.8	-62.7	3.8	1.49e+00	0	39	104	0	71	15666
2026-01-20 09:03:18.05	131.52	6.76	-49.8	-62.8	3.8	1.49e+00	0	39	104	0	71	15937
2026-01-20 09:03:19.05	131.47	6.83	-49.8	-62.9	3.8	1.49e+00	0	39	104	0	71	15986
2026-01-20 09:03:20.04	131.42	6.90	-49.8	-62.8	3.8	1.49e+00	0	39	104	0	71	15781
2026-01-20 09:03:21.03	131.37	6.97	-49.7	-62.5	3.8	1.49e+00	0	39	104	0	71	15315
2026-01-20 09:03:22.03	131.32	7.05	-49.7	-62.1	3.8	1.49e+00	0	39	104	0	71	14611
2026-01-20 09:03:23.02	131.26	7.12	-49.7	-61.7	3.8	1.49e+00	0	39	104	0	71	13934
2026-01-20 09:03:24.02	131.21	7.19	-49.6	-61.2	3.8	1.49e+00	0	39	104	0	71	13222
2026-01-20 09:03:25.01	131.16	7.27	-49.6	-60.5	3.9	1.49e+00	0	39	104	0	71	12216
2026-01-20 09:03:26.01	131.11	7.34	-49.5	-59.8	4.1	1.48e+00	0	39	104	0	71	11167
2026-01-20 09:03:27.00	131.05	7.42	-49.4	-59.0	4.3	1.45e+00	0	39	104	0	70	10829
2026-01-20 09:03:27.99	131.00	7.49	-49.2	-57.7	4.7	1.08e+00	0	39	104	0	70	9329
2026-01-20 09:03:28.99	130.95	7.56	-48.9	-56.2	5.6	4.77e-01	0	39	0	0	69	8350
2026-01-20 09:03:29.98	130.89	7.64	-48.3	-54.4	7.2	2.23e-01	0	39	0	0	68	7167
2026-01-20 09:03:30.98	130.84	7.71	-47.5	-52.5	8.8	4.77e-02	0	39	0	0	67	6112
2026-01-20 09:03:31.97	130.78	7.79	-46.7	-50.8	10.6	5.68e-03	0	39	0	0	65	5616
2026-01-20 09:03:32.97	130.73	7.86	-46.0	-49.5	12.0	4.59e-04	0	39	0	0	63	5429
2026-01-20 09:03:33.96	130.67	7.94	-45.1	-48.1	13.5	3.66e-05	0	39	0	0	62	4876
2026-01-20 09:03:34.95	130.62	8.01	-44.5	-47.2	14.4	2.20e-06	0	39	0	0	61	4664
2026-01-20 09:03:35.95	130.56	8.09	-43.8	-46.2	15.3	0.00e+00	0	39	0	0	59	4688
2026-01-20 09:03:36.94	130.51	8.17	-43.3	-45.6	15.7	0.00e+00	0	39	0	0	58	4651
2026-01-20 09:03:37.94	130.45	8.24	-43.0	-45.2	16.3	0.00e+00	0	39	0	0	58	4428
2026-01-20 09:03:38.93	130.39	8.32	-42.9	-45.1	16.4	0.00e+00	0	39	0	0	57	4613
2026-01-20 09:03:39.93	130.33	8.40	-42.9	-45.1	16.4	0.00e+00	0	39	0	0	57	4624
2026-01-20 09:03:40.92	130.28	8.47	-43.1	-45.3	16.1	0.00e+00	0	39	0	0	57	4752
2026-01-20 09:03:41.92	130.22	8.55	-43.5	-45.9	15.6	0.00e+00	0	39	0	0	57	5077
2026-01-20 09:03:42.91	130.16	8.63	-44.1	-46.6	14.9	0.00e+00	0	39	0	0	58	5185
2026-01-20 09:03:43.91	130.10	8.70	-44.6	-47.4	14.1	7.00e-07	0	39	0	0	59	5381
2026-01-20 09:03:44.90	130.05	8.78	-45.4	-48.6	13.0	1.29e-05	0	39	0	0	61	5496
2026-01-20 09:03:45.90	129.99	8.86	-46.3	-50.0	11.5	4.30e-04	0	39	0	0	63	5774
2026-01-20 09:03:46.89	129.93	8.94	-47.1	-51.5	9.9	5.41e-03	0	40	0	0	64	6453
2026-01-20 09:03:47.89	129.87	9.02	-47.8	-53.3	8.1	4.68e-02	0	39	0	0	66	7096
2026-01-20 09:03:48.88	129.81	9.09	-47.0	-51.3	10.2	1.32e-02	0	39	0	0	65	5941
2026-01-20 09:03:49.89	129.75	9.17	-44.1	-46.6	15.0	1.52e-05	0	39	0	0	60	4631
2026-01-20 09:03:50.89	129.69	9.25	-49.5	-60.5	3.9	3.53e-01	0	39	104	0	69	13697
2026-01-20 09:03:51.89	129.62	9.33	-45.6	-48.8	12.9	6.96e-03	0	40	0	0	63	5014
2026-01-20 09:03:52.89	129.56	9.41	-45.6	-48.9	12.9	6.80e-06	0	39	0	0	61	5676
2026-01-20 09:03:53.89	129.50	9.49	-44.4	-47.1	14.6	2.20e-06	0	39	0	0	60	4911
2026-01-20 09:03:54.89	129.44	9.57	-44.2	-46.9	14.8	7.00e-07	0	40	0	0	60	4782
2026-01-20 09:03:55.89	129.38	9.65	-44.2	-46.9	14.8	0.00e+00	0	40	0	0	60	4771
2026-01-20 09:03:56.90	129.31	9.73	-43.8	-46.3	15.3	0.00e+00	0	39	0	0	59	4720
2026-01-20 09:03:57.90	129.25	9.81	-43.5	-46.0	15.7	0.00e+00	0	40	0	0	58	4837
2026-01-20 09:03:58.89	129.18	9.90	-43.1	-45.3	16.3	0.00e+00	0	40	0	0	58	4466
2026-01-20 09:03:59.90	129.12	9.98	-42.5	-44.7	16.9	0.00e+00	0	40	0	0	57	4431
2026-01-20 09:04:00.90	129.06	10.06	-42.2	-44.3	17.3	0.00e+00	0	40	0	0	56	4473
2026-01-20 09:04:01.90	128.99	10.14	-42.0	-44.2	17.4	0.00e+00	0	40	0	0	56	4408
2026-01-20 09:04:02.90	128.93	10.22	-41.7	-43.8	17.6	0.00e+00	0	40	0	0	55	4445
2026-01-20 09:04:03.89	128.86	10.30	-41.6	-43.6	17.8	0.00e+00	0	40	0	0	55	4353
2026-01-20 09:04:04.90	128.79	10.39	-41.7	-43.7	17.7	0.00e+00	0	40	0	0	54	4693
2026-01-20 09:04:05.90	128.73	10.47	-41.7	-43.7	17.7	0.00e+00	0	40	0	0	54	4686
2026-01-20 09:04:06.90	128.66	10.55	-41.7	-43.8	17.6	0.00e+00	0	39	0	0	54	4716
2026-01-20 09:04:07.90	128.59	10.64	-41.6	-43.6	17.7	0.00e+00	0	40	0	0	54	4646
2026-01-20 09:04:08.90	128.53	10.72	-41.4	-43.4	18.0	0.00e+00	0	40	0	0	54	4524
2026-01-20 09:04:09.90	128.46	10.80	-41.4	-43.4	17.9	0.00e+00	0	39	0	0	54	4545
2026-01-20 09:04:10.90	128.39	10.89	-41.4	-43.3	18.0	0.00e+00	0	40	0	0	54	4493
2026-01-20 09:04:11.91	128.32	10.97	-41.5	-43.5	18.0	0.00e+00	0	40	0	0	54	4563
2026-01-20 09:04:12.91	128.25	11.06	-41.4	-43.4	18.0	0.00e+00	0	40	0	0	54	4528
2026-01-20 09:04:13.91	128.18	11.14	-41.5	-43.5	18.0	0.00e+00	0	40	0	0	54	4571
2026-01-20 09:04:14.91	128.11	11.23	-41.3	-43.3	18.1	0.00e+00	0	40	0	0	54	4482
2026-01-20 09:04:15.91	128.04	11.31	-41.3	-43.3	18.2	0.00e+00	0	40	0	0	54	4456
2026-01-20 09:04:16.91	127.97	11.40	-41.3	-43.2	18.3	0.00e+00	0	40	0	0	54	4420
2026-01-20 09:04:17.91	127.90	11.48	-41.3	-43.2	18.3	0.00e+00	0	40	0	0	54	4435
2026-01-20 09:04:18.91	127.83	11.57	-41.2	-43.2	18.3	0.00e+00	0	40	0	0	54	4392
2026-01-20 09:04:19.92	127.75	11.66	-41.1	-43.0	18.5	0.00e+00	0	40	0	0	54	4312
2026-01-20 09:04:20.92	127.68	11.74	-41.0	-42.9	18.6	0.00e+00	0	40	0	0	54	4249
2026-01-20 09:04:21.92	127.61	11.83	-41.0	-42.8	18.6	0.00e+00	0	40	0	0	53	4483
2026-01-20 09:04:22.92	127.53	11.92	-41.0	-42.8	18.6	0.00e+00	0	40	0	0	53	4476
2026-01-20 09:04:23.92	127.46	12.00	-41.0	-42.9	18.6	0.00e+00	0	40	0	0	53	4515
2026-01-20 09:04:24.92	127.39	12.09	-40.9	-42.8	18.6	0.00e+00	0	40	0	0	53	4454
2026-01-20 09:04:25.92	127.31	12.18	-41.0	-42.9	18.5	0.00e+00	0	40	0	0	53	4501
2026-01-20 09:04:26.92	127.24	12.27	-40.8	-42.6	18.8	0.00e+00	0	40	0	0	53	4378
2026-01-20 09:04:27.93	127.16	12.36	-40.9	-42.7	18.7	0.00e+00	0	40	0	0	53	4428
2026-01-20 09:04:28.93	127.08	12.45	-40.9	-42.7	18.6	0.00e+00	0	40	0	0	53	4436
2026-01-20 09:04:29.93	127.01	12.53	-41.0	-42.8	18.6	0.00e+00	0	40	0	0	53	4470
2026-01-20 09:04:30.93	126.93	12.62	-41.0	-42.9	18.5	0.00e+00	0	40	0	0	53	4494
2026-01-20 09:04:31.93	126.85	12.71	-40.9	-42.7	18.6	0.00e+00	0	40	0	0	53	4441
2026-01-20 09:04:32.93	126.77	12.80	-40.8	-42.6	18.7	0.00e+00	0	40	0	0	53	4369
2026-01-20 09:04:33.93	126.69	12.89	-40.9	-42.7	18.7	0.00e+00	0	40	0	0	53	4410
2026-01-20 09:04:34.93	126.61	12.98	-41.0	-42.8	18.6	0.00e+00	0	40	0	0	53	4458
2026-01-20 09:04:35.93	126.53	13.07	-40.9	-42.8	18.6	0.00e+00	0	40	0	0	53	4473
2026-01-20 09:04:36.93	126.45	13.16	-40.7	-42.6	18.8	0.00e+00	0	40	0	0	53	4347
2026-01-20 09:04:37.93	126.37	13.26	-40.8	-42.7	18.7	0.00e+00	0	40	0	0	53	4397
2026-01-20 09:04:38.94	126.29	13.35	-40.8	-42.6	18.8	0.00e+00	0	40	0	0	53	4386
2026-01-20 09:04:39.94	126.21	13.44	-40.7	-42.6	18.8	0.00e+00	0	40	0	0	53	4372
2026-01-20 09:04:40.94	126.13	13.53	-40.8	-42.6	18.8	0.00e+00	0	40	0	0	53	4382
2026-01-20 09:04:41.94	126.04	13.62	-40.8	-42.7	18.7	0.00e+00	0	40	0	0	53	4440
2026-01-20 09:04:42.94	125.96	13.72	-40.8	-42.7	18.7	0.00e+00	0	40	0	0	53	4441
2026-01-20 09:04:43.94	125.88	13.81	-40.8	-42.6	18.8	0.00e+00	0	40	0	0	53	4385
2026-01-20 09:04:44.94	125.79	13.90	-40.8	-42.6	18.8	0.00e+00	0	40	0	0	53	4380
2026-01-20 09:04:45.94	125.71	14.00	-40.8	-42.6	18.8	0.00e+00	0	40	0	0	53	4391
2026-01-20 09:04:46.94	125.62	14.09	-40.7	-42.5	19.0	0.00e+00	0	40	0	0	53	4304
2026-01-20 09:04:47.95	125.54	14.18	-40.7	-42.5	19.0	0.00e+00	0	40	0	0	53	4312
2026-01-20 09:04:48.95	125.45	14.28	-40.8	-42.6	18.9	0.00e+00	0	40	0	0	53	4348
2026-01-20 09:04:49.95	125.36	14.37	-40.7	-42.5	19.0	0.00e+00	0	40	0	0	53	4304
2026-01-20 09:04:50.95	125.27	14.47	-40.6	-42.4	19.1	0.00e+00	0	40	0	0	53	4263
2026-01-20 09:04:51.95	125.19	14.56	-40.7	-42.5	19.0	0.00e+00	0	40	0	0	53	4317
2026-01-20 09:04:52.95	125.10	14.66	-40.8	-42.6	18.9	0.00e+00	0	40	0	0	53	4348
2026-01-20 09:04:53.95	125.01	14.76	-40.6	-42.4	19.1	0.00e+00	0	40	0	0	53	4265
2026-01-20 09:04:54.95	124.92	14.85	-40.5	-42.3	19.1	0.00e+00	0	40	0	0	53	4224
2026-01-20 09:04:55.95	124.83	14.95	-40.6	-42.4	19.1	0.00e+00	0	40	0	0	53	4256
2026-01-20 09:04:56.95	124.73	15.04	-40.7	-42.4	19.0	0.00e+00	0	41	0	0	53	4291
2026-01-20 09:04:57.95	124.64	15.14	-40.7	-42.5	19.0	0.00e+00	0	40	0	0	53	4324
2026-01-20 09:04:58.96	124.55	15.24	-40.8	-42.6	18.9	0.00e+00	0	40	0	0	53	4368
2026-01-20 09:04:59.96	124.46	15.34	-40.8	-42.6	18.9	0.00e+00	0	40	0	0	53	4372
2026-01-20 09:05:00.96	124.36	15.44	-40.8	-42.6	18.9	0.00e+00	0	40	0	0	53	4374
2026-01-20 09:05:01.97	124.27	15.54	-40.9	-42.7	18.8	0.00e+00	0	40	0	0	53	4411
2026-01-20 09:05:02.97	124.17	15.63	-40.9	-42.7	18.8	0.00e+00	0	40	0	0	53	4429
2026-01-20 09:05:03.96	124.08	15.73	-40.8	-42.6	18.8	0.00e+00	0	40	0	0	53	4389
2026-01-20 09:05:04.96	123.98	15.83	-40.9	-42.7	18.8	0.00e+00	0	40	0	0	53	4424
2026-01-20 09:05:05.96	123.88	15.93	-40.9	-42.7	18.9	0.00e+00	0	40	0	0	53	4400
2026-01-20 09:05:06.97	123.78	16.03	-40.8	-42.7	18.9	0.00e+00	0	40	0	0	53	4397
2026-01-20 09:05:07.97	123.69	16.13	-40.8	-42.6	18.9	0.00e+00	0	40	0	0	53	4370
2026-01-20 09:05:08.96	123.59	16.23	-40.7	-42.6	18.9	0.00e+00	0	40	0	0	53	4345
2026-01-20 09:05:09.96	123.49	16.33	-40.9	-42.7	18.9	0.00e+00	0	41	0	0	53	4404
2026-01-20 09:05:10.97	123.39	16.43	-40.9	-42.7	18.8	0.00e+00	0	40	0	0	53	4415
2026-01-20 09:05:11.97	123.29	16.54	-40.9	-42.7	18.9	0.00e+00	0	40	0	0	53	4432
2026-01-20 09:05:12.97	123.18	16.64	-40.9	-42.7	18.9	0.00e+00	0	40	0	0	53	4420
2026-01-20 09:05:13.97	123.08	16.74	-40.8	-42.6	19.0	0.00e+00	0	40	0	0	53	4368
2026-01-20 09:05:14.97	122.98	16.84	-40.9	-42.7	18.9	0.00e+00	0	40	0	0	53	4410
2026-01-20 09:05:15.97	122.87	16.95	-40.8	-42.7	18.9	0.00e+00	0	40	0	0	53	4397
2026-01-20 09:05:16.97	122.77	17.05	-40.9	-42.7	18.8	0.00e+00	0	40	0	0	53	4421
2026-01-20 09:05:17.97	122.66	17.15	-40.9	-42.7	18.8	0.00e+00	0	40	0	0	53	4422
2026-01-20 09:05:18.97	122.56	17.26	-40.9	-42.7	18.8	0.00e+00	0	40	0	0	53	4428
2026-01-20 09:05:19.97	122.45	17.36	-40.9	-42.8	18.7	0.00e+00	0	40	0	0	53	4473
2026-01-20 09:05:20.97	122.34	17.47	-41.0	-42.9	18.7	0.00e+00	0	40	0	0	53	4494
2026-01-20 09:05:21.97	122.23	17.57	-40.8	-42.7	18.9	0.00e+00	0	40	0	0	53	4416
2026-01-20 09:05:22.97	122.13	17.68	-40.9	-42.8	18.8	0.00e+00	0	41	0	0	53	4466
2026-01-20 09:05:23.97	122.02	17.78	-41.0	-42.8	18.7	0.00e+00	0	41	0	0	53	4478
2026-01-20 09:05:24.97	121.90	17.89	-41.0	-42.9	18.6	0.00e+00	0	40	0	0	53	4523
2026-01-20 09:05:25.97	121.79	17.99	-41.1	-42.9	18.7	0.00e+00	0	41	0	0	53	4517
2026-01-20 09:05:26.98	121.68	18.10	-41.0	-42.9	18.7	0.00e+00	0	40	0	0	53	4505
2026-01-20 09:05:27.98	121.57	18.21	-41.0	-42.9	18.7	0.00e+00	0	40	0	0	53	4516
2026-01-20 09:05:28.98	121.45	18.32	-40.9	-42.8	18.9	0.00e+00	0	40	0	0	53	4448
2026-01-20 09:05:29.98	121.34	18.42	-40.9	-42.7	18.9	0.00e+00	0	40	0	0	53	4441
2026-01-20 09:05:30.98	121.22	18.53	-40.9	-42.7	18.9	0.00e+00	0	40	0	0	53	4422
2026-01-20 09:05:31.99	121.10	18.64	-40.7	-42.5	19.1	0.00e+00	0	40	0	0	53	4321
2026-01-20 09:05:32.99	120.99	18.75	-40.7	-42.5	19.1	0.00e+00	0	41	0	0	53	4301
2026-01-20 09:05:33.99	120.87	18.86	-40.7	-42.5	19.1	0.00e+00	0	40	0	0	53	4301
2026-01-20 09:05:34.99	120.75	18.97	-40.5	-42.3	19.3	0.00e+00	0	40	0	0	53	4200
2026-01-20 09:05:35.99	120.63	19.08	-40.3	-42.1	19.4	0.00e+00	0	40	0	0	52	4361
2026-01-20 09:05:36.99	120.51	19.19	-40.3	-42.0	19.4	0.00e+00	0	41	0	0	52	4333
2026-01-20 09:05:37.99	120.39	19.30	-40.3	-42.0	19.4	0.00e+00	0	40	0	0	52	4340
2026-01-20 09:05:38.99	120.26	19.41	-40.4	-42.1	19.3	0.00e+00	0	40	0	0	52	4389
2026-01-20 09:05:39.99	120.14	19.52	-40.3	-42.1	19.4	0.00e+00	0	41	0	0	52	4341
2026-01-20 09:05:40.99	120.02	19.63	-40.4	-42.2	19.3	0.00e+00	0	40	0	0	52	4411
2026-01-20 09:05:41.99	119.89	19.75	-40.4	-42.2	19.3	0.00e+00	0	40	0	0	52	4401
2026-01-20 09:05:42.99	119.76	19.86	-40.5	-42.3	19.2	0.00e+00	0	40	0	0	52	4452
2026-01-20 09:05:43.99	119.64	19.97	-40.5	-42.3	19.2	0.00e+00	0	41	0	0	52	4479
2026-01-20 09:05:44.99	119.51	20.08	-40.5	-42.3	19.2	0.00e+00	0	40	0	0	52	4449
2026-01-20 09:05:45.99	119.38	20.20	-40.4	-42.2	19.4	0.00e+00	0	40	0	0	52	4401
2026-01-20 09:05:46.99	119.25	20.31	-40.4	-42.1	19.4	0.00e+00	0	40	0	0	52	4390
2026-01-20 09:05:47.99	119.12	20.42	-40.3	-42.0	19.5	0.00e+00	0	41	0	0	52	4335
2026-01-20 09:05:48.99	118.99	20.54	-40.2	-41.9	19.7	0.00e+00	0	40	0	0	52	4268
2026-01-20 09:05:49.99	118.85	20.65	-40.1	-41.8	19.7	0.00e+00	0	40	0	0	52	4219
2026-01-20 09:05:50.99	118.72	20.77	-40.1	-41.9	19.7	0.00e+00	0	40	0	0	52	4250
2026-01-20 09:05:51.99	118.58	20.88	-40.1	-41.8	19.7	0.00e+00	0	40	0	0	52	4229
2026-01-20 09:05:52.99	118.45	21.00	-40.0	-41.8	19.7	0.00e+00	0	40	0	0	52	4195
2026-01-20 09:05:53.99	118.31	21.12	-40.1	-41.8	19.7	0.00e+00	0	41	0	0	52	4205
2026-01-20 09:05:54.99	118.17	21.23	-40.0	-41.7	19.8	0.00e+00	0	40	0	0	51	4436
2026-01-20 09:05:56.00	118.03	21.35	-40.0	-41.7	19.8	0.00e+00	0	40	0	0	51	4409
2026-01-20 09:05:57.00	117.89	21.47	-39.8	-41.5	19.9	0.00e+00	0	41	0	0	51	4332
2026-01-20 09:05:58.00	117.75	21.59	-39.8	-41.5	19.9	0.00e+00	0	40	0	0	51	4335
2026-01-20 09:05:59.00	117.61	21.70	-39.8	-41.5	20.0	0.00e+00	0	40	0	0	51	4318
2026-01-20 09:06:00.00	117.46	21.82	-39.9	-41.6	19.9	0.00e+00	0	40	0	0	51	4370
2026-01-20 09:06:01.00	117.32	21.94	-39.8	-41.5	20.0	0.00e+00	0	40	0	0	51	4336
2026-01-20 09:06:02.01	117.17	22.06	-39.9	-41.6	19.9	0.00e+00	0	41	0	0	51	4386
2026-01-20 09:06:03.01	117.02	22.18	-39.8	-41.5	20.0	0.00e+00	0	41	0	0	51	4317
2026-01-20 09:06:04.00	116.88	22.30	-39.9	-41.6	20.0	0.00e+00	0	41	0	0	51	4344
2026-01-20 09:06:05.01	116.73	22.42	-39.7	-41.4	20.1	0.00e+00	0	40	0	0	51	4252
2026-01-20 09:06:06.01	116.57	22.54	-39.5	-41.2	20.3	0.00e+00	0	40	0	0	51	4165
2026-01-20 09:06:07.01	116.42	22.66	-39.5	-41.2	20.3	0.00e+00	0	40	0	0	51	4157
2026-01-20 09:06:08.01	116.27	22.78	-39.6	-41.3	20.2	0.00e+00	0	41	0	0	51	4208
2026-01-20 09:06:09.01	116.12	22.91	-39.7	-41.3	20.2	0.00e+00	0	41	0	0	51	4231
2026-01-20 09:06:10.01	115.96	23.03	-39.7	-41.3	20.1	0.00e+00	0	40	0	0	51	4241
2026-01-20 09:06:11.01	115.80	23.15	-39.6	-41.3	20.2	0.00e+00	0	41	0	0	51	4194
2026-01-20 09:06:12.02	115.64	23.27	-39.7	-41.4	20.1	0.00e+00	0	41	0	0	51	4269
2026-01-20 09:06:13.02	115.48	23.40	-39.7	-41.4	20.1	0.00e+00	0	41	0	0	51	4251
2026-01-20 09:06:14.02	115.32	23.52	-39.7	-41.3	20.2	0.00e+00	0	41	0	0	51	4228
2026-01-20 09:06:15.02	115.16	23.64	-39.8	-41.4	20.1	0.00e+00	0	40	0	0	51	4291
2026-01-20 09:06:16.02	115.00	23.77	-39.7	-41.4	20.1	0.00e+00	0	40	0	0	51	4259
2026-01-20 09:06:17.02	114.83	23.89	-39.7	-41.3	20.2	0.00e+00	0	40	0	0	51	4228
2026-01-20 09:06:18.02	114.67	24.02	-39.7	-41.4	20.1	0.00e+00	0	41	0	0	51	4253
2026-01-20 09:06:19.02	114.50	24.14	-39.7	-41.4	20.1	0.00e+00	0	40	0	0	51	4252
2026-01-20 09:06:20.02	114.33	24.27	-39.9	-41.6	20.0	0.00e+00	0	40	0	0	51	4344
2026-01-20 09:06:21.02	114.16	24.39	-39.9	-41.5	20.1	0.00e+00	0	40	0	0	51	4339
2026-01-20 09:06:22.02	113.99	24.52	-39.9	-41.6	20.0	0.00e+00	0	40	0	0	51	4381
2026-01-20 09:06:23.02	113.82	24.65	-39.9	-41.6	20.1	0.00e+00	0	41	0	0	51	4347
2026-01-20 09:06:24.02	113.65	24.77	-39.9	-41.5	20.1	0.00e+00	0	40	0	0	51	4334
2026-01-20 09:06:25.02	113.47	24.90	-39.8	-41.5	20.1	0.00e+00	0	41	0	0	51	4320
2026-01-20 09:06:26.02	113.29	25.03	-40.0	-41.7	20.0	0.00e+00	0	41	0	0	51	4394
2026-01-20 09:06:27.02	113.12	25.15	-40.0	-41.7	19.9	0.00e+00	0	41	0	0	51	4419
2026-01-20 09:06:28.02	112.94	25.28	-40.2	-41.9	19.8	0.00e+00	0	41	0	0	51	4509
2026-01-20 09:06:29.02	112.75	25.41	-40.1	-41.8	19.8	0.00e+00	0	41	0	0	51	4486
2026-01-20 09:06:30.02	112.57	25.54	-40.2	-41.9	19.7	0.00e+00	0	41	0	0	51	4538
2026-01-20 09:06:31.02	112.39	25.67	-40.3	-42.1	19.6	0.00e+00	0	41	0	0	51	4607
2026-01-20 09:06:32.02	112.20	25.80	-40.4	-42.2	19.5	0.00e+00	0	41	0	0	51	4660
2026-01-20 09:06:33.03	112.01	25.93	-40.5	-42.3	19.4	0.00e+00	0	40	0	0	51	4737
2026-01-20 09:06:34.03	111.82	26.06	-40.6	-42.3	19.4	0.00e+00	0	40	0	0	51	4758
2026-01-20 09:06:35.03	111.63	26.19	-40.6	-42.4	19.3	0.00e+00	0	41	0	0	52	4523
2026-01-20 09:06:36.03	111.44	26.32	-40.6	-42.4	19.3	0.00e+00	0	41	0	0	52	4519
2026-01-20 09:06:37.03	111.25	26.45	-40.7	-42.4	19.3	0.00e+00	0	40	0	0	52	4542
2026-01-20 09:06:38.04	111.05	26.58	-40.6	-42.4	19.3	0.00e+00	0	41	0	0	52	4519
2026-01-20 09:06:39.04	110.85	26.71	-40.3	-42.0	19.7	0.00e+00	0	41	0	0	52	4310
2026-01-20 09:06:40.03	110.66	26.84	-40.2	-41.9	19.7	0.00e+00	0	40	0	0	52	4263
2026-01-20 09:06:41.03	110.46	26.97	-40.3	-42.0	19.5	0.00e+00	0	40	0	0	52	4316
2026-01-20 09:06:42.04	110.25	27.11	-40.2	-41.9	19.6	0.00e+00	0	41	0	0	52	4262
2026-01-20 09:06:43.04	110.05	27.24	-40.4	-42.1	19.5	0.00e+00	0	41	0	0	52	4364
2026-01-20 09:06:44.04	109.85	27.37	-40.4	-42.2	19.4	0.00e+00	0	41	0	0	52	4397
2026-01-20 09:06:45.04	109.64	27.50	-40.5	-42.2	19.4	0.00e+00	0	41	0	0	52	4428
2026-01-20 09:06:46.04	109.43	27.64	-40.6	-42.4	19.3	0.00e+00	0	41	0	0	52	4496
2026-01-20 09:06:47.05	109.22	27.77	-40.6	-42.4	19.3	0.00e+00	0	40	0	0	52	4507
2026-01-20 09:06:48.05	109.01	27.90	-40.6	-42.3	19.3	0.00e+00	0	40	0	0	52	4482
2026-01-20 09:06:49.05	108.79	28.04	-40.5	-42.3	19.4	0.00e+00	0	41	0	0	52	4458
2026-01-20 09:06:50.05	108.58	28.17	-40.2	-41.9	19.7	0.00e+00	0	41	0	0	52	4288
2026-01-20 09:06:51.05	108.36	28.30	-40.3	-42.0	19.6	0.00e+00	0	41	0	0	52	4340
2026-01-20 09:06:52.05	108.14	28.44	-40.4	-42.2	19.4	0.00e+00	0	40	0	0	52	4399
2026-01-20 09:06:53.06	107.92	28.57	-40.6	-42.3	19.2	0.00e+00	0	41	0	0	52	4487
2026-01-20 09:06:54.06	107.69	28.71	-40.6	-42.4	19.2	0.00e+00	0	41	0	0	52	4505
2026-01-20 09:06:55.06	107.47	28.84	-40.8	-42.6	19.1	0.00e+00	0	41	0	0	52	4628
2026-01-20 09:06:56.06	107.24	28.98	-40.8	-42.6	19.1	0.00e+00	0	40	0	0	52	4641
2026-01-20 09:06:57.06	107.01	29.11	-40.7	-42.4	19.3	0.00e+00	0	41	0	0	52	4535
2026-01-20 09:06:58.06	106.78	29.25	-40.5	-42.2	19.4	0.00e+00	0	41	0	0	52	4417
2026-01-20 09:06:59.06	106.55	29.38	-40.5	-42.2	19.4	0.00e+00	0	41	0	0	52	4424
2026-01-20 09:07:00.06	106.31	29.52	-40.4	-42.1	19.4	0.00e+00	0	41	0	0	52	4374
2026-01-20 09:07:01.06	106.08	29.65	-40.4	-42.2	19.4	0.00e+00	0	41	0	0	52	4398
2026-01-20 09:07:02.07	105.83	29.79	-40.4	-42.1	19.5	0.00e+00	0	41	0	0	52	4377
2026-01-20 09:07:03.07	105.59	29.92	-40.3	-42.1	19.5	0.00e+00	0	41	0	0	52	4354
2026-01-20 09:07:04.07	105.35	30.06	-40.4	-42.2	19.4	0.00e+00	0	41	0	0	52	4412
2026-01-20 09:07:05.07	105.11	30.19	-40.4	-42.1	19.5	0.00e+00	0	41	0	0	52	4384
2026-01-20 09:07:06.07	104.86	30.33	-40.4	-42.2	19.5	0.00e+00	0	41	0	0	52	4399
2026-01-20 09:07:07.07	104.61	30.46	-40.3	-42.0	19.6	0.00e+00	0	41	0	0	52	4310
2026-01-20 09:07:08.08	104.36	30.60	-40.4	-42.1	19.5	0.00e+00	0	41	0	0	52	4391
2026-01-20 09:07:09.08	104.10	30.74	-40.4	-42.2	19.5	0.00e+00	0	41	0	0	52	4396
2026-01-20 09:07:10.07	103.85	30.87	-40.5	-42.3	19.3	0.00e+00	0	41	0	0	52	4457
2026-01-20 09:07:11.08	103.59	31.01	-40.6	-42.3	19.3	0.00e+00	0	41	0	0	52	4481
2026-01-20 09:07:12.08	103.33	31.14	-40.5	-42.3	19.4	0.00e+00	0	41	0	0	52	4460
2026-01-20 09:07:13.08	103.07	31.28	-40.4	-42.2	19.5	0.00e+00	0	41	0	0	52	4395
2026-01-20 09:07:14.08	102.80	31.41	-40.5	-42.3	19.4	0.00e+00	0	41	0	0	52	4455
2026-01-20 09:07:15.09	102.54	31.55	-40.6	-42.4	19.3	0.00e+00	0	41	0	0	52	4518
2026-01-20 09:07:16.09	102.27	31.69	-40.8	-42.6	19.2	0.00e+00	0	41	0	0	52	4615
2026-01-20 09:07:17.09	102.00	31.82	-40.6	-42.4	19.3	0.00e+00	0	41	0	0	52	4507
2026-01-20 09:07:18.09	101.72	31.96	-40.6	-42.4	19.3	0.00e+00	0	41	0	0	52	4518
2026-01-20 09:07:19.09	101.45	32.09	-40.7	-42.5	19.3	0.00e+00	0	41	0	0	52	4553
2026-01-20 09:07:20.09	101.17	32.23	-40.8	-42.6	19.1	0.00e+00	0	41	0	0	52	4607
2026-01-20 09:07:21.09	100.89	32.36	-40.7	-42.5	19.1	0.00e+00	0	41	0	0	52	4587
2026-01-20 09:07:22.10	100.60	32.50	-40.7	-42.5	19.2	0.00e+00	0	41	0	0	52	4582
2026-01-20 09:07:23.10	100.32	32.63	-40.9	-42.7	19.0	0.00e+00	0	41	0	0	52	4692
2026-01-20 09:07:24.10	100.03	32.76	-41.0	-42.9	18.9	0.00e+00	0	41	0	0	52	4767
2026-01-20 09:07:25.10	99.74	32.90	-41.2	-43.1	18.7	0.00e+00	0	41	0	0	53	4601
2026-01-20 09:07:26.10	99.45	33.03	-41.4	-43.2	18.6	0.00e+00	0	41	0	0	53	4697
2026-01-20 09:07:27.10	99.16	33.16	-41.4	-43.3	18.5	0.00e+00	0	41	0	0	53	4732
2026-01-20 09:07:28.10	98.86	33.30	-41.5	-43.4	18.5	0.00e+00	0	41	0	0	53	4770
2026-01-20 09:07:29.10	98.56	33.43	-41.5	-43.4	18.4	0.00e+00	0	41	0	0	53	4796
2026-01-20 09:07:30.10	98.26	33.56	-41.4	-43.3	18.5	0.00e+00	0	41	0	0	53	4736
2026-01-20 09:07:31.10	97.95	33.69	-41.4	-43.2	18.6	0.00e+00	0	41	0	0	53	4703
2026-01-20 09:07:32.10	97.65	33.82	-41.4	-43.2	18.6	0.00e+00	0	41	0	0	53	4689
2026-01-20 09:07:33.10	97.34	33.96	-41.3	-43.2	18.6	0.00e+00	0	41	0	0	53	4668
2026-01-20 09:07:34.10	97.03	34.09	-41.1	-43.0	18.8	0.00e+00	0	41	0	0	53	4548
2026-01-20 09:07:35.10	96.71	34.22	-41.2	-43.1	18.7	0.00e+00	0	41	0	0	53	4603
2026-01-20 09:07:36.11	96.39	34.35	-41.4	-43.3	18.5	0.00e+00	0	41	0	0	53	4709
2026-01-20 09:07:37.10	96.08	34.48	-41.6	-43.5	18.3	0.00e+00	0	41	0	0	53	4836
2026-01-20 09:07:38.10	95.75	34.60	-41.8	-43.7	18.2	0.00e+00	0	41	0	0	54	4655
2026-01-20 09:07:39.11	95.43	34.73	-41.5	-43.3	18.5	0.00e+00	0	41	0	0	54	4492
2026-01-20 09:07:40.11	95.10	34.86	-41.6	-43.4	18.4	0.00e+00	0	41	0	0	54	4544
2026-01-20 09:07:41.11	94.77	34.99	-41.7	-43.6	18.1	0.00e+00	0	40	0	0	54	4649
2026-01-20 09:07:42.11	94.44	35.12	-41.8	-43.7	18.0	0.00e+00	0	41	0	0	54	4679
2026-01-20 09:07:43.11	94.10	35.24	-41.8	-43.7	18.0	0.00e+00	0	41	0	0	54	4690
2026-01-20 09:07:44.11	93.77	35.37	-41.8	-43.7	18.0	0.00e+00	0	41	0	0	54	4690
2026-01-20 09:07:45.11	93.43	35.49	-41.8	-43.7	18.1	0.00e+00	0	41	0	0	54	4676
2026-01-20 09:07:46.11	93.08	35.62	-41.7	-43.6	18.2	0.00e+00	0	41	0	0	54	4645
2026-01-20 09:07:47.11	92.74	35.74	-41.8	-43.7	18.2	0.00e+00	0	41	0	0	54	4665
2026-01-20 09:07:48.12	92.39	35.86	-41.8	-43.8	18.1	0.00e+00	0	41	0	0	54	4712
2026-01-20 09:07:49.11	92.04	35.99	-41.9	-43.9	17.9	0.00e+00	0	41	0	0	54	4788
2026-01-20 09:07:50.12	91.68	36.11	-42.0	-44.0	17.9	0.00e+00	0	41	0	0	54	4842
2026-01-20 09:07:51.12	91.33	36.23	-41.9	-43.8	18.1	0.00e+00	0	41	0	0	54	4729
2026-01-20 09:07:52.12	90.97	36.35	-41.8	-43.7	18.2	0.00e+00	0	41	0	0	54	4665
2026-01-20 09:07:53.12	90.61	36.47	-41.6	-43.5	18.5	0.00e+00	0	41	0	0	54	4548
2026-01-20 09:07:54.12	90.25	36.58	-41.5	-43.4	18.4	0.00e+00	0	41	0	0	54	4534
2026-01-20 09:07:55.13	89.88	36.70	-41.5	-43.3	18.5	0.00e+00	0	41	0	0	54	4481
2026-01-20 09:07:56.13	89.51	36.82	-41.5	-43.4	18.5	0.00e+00	0	41	0	0	54	4515
2026-01-20 09:07:57.13	89.14	36.93	-41.6	-43.5	18.4	0.00e+00	0	41	0	0	54	4590
2026-01-20 09:07:58.13	88.76	37.05	-41.6	-43.6	18.3	0.00e+00	0	41	0	0	54	4608
2026-01-20 09:07:59.13	88.38	37.16	-41.6	-43.5	18.4	0.00e+00	0	41	0	0	54	4592
2026-01-20 09:08:00.13	88.01	37.27	-41.5	-43.4	18.5	0.00e+00	0	41	0	0	54	4501
2026-01-20 09:08:01.13	87.62	37.38	-41.6	-43.5	18.4	0.00e+00	0	41	0	0	54	4578
2026-01-20 09:08:02.13	87.24	37.49	-41.7	-43.7	18.1	0.00e+00	0	41	0	0	54	4669
2026-01-20 09:08:03.13	86.85	37.60	-42.0	-44.0	17.9	0.00e+00	0	41	0	0	54	4822
2026-01-20 09:08:04.13	86.46	37.71	-42.2	-44.2	17.7	0.00e+00	0	41	0	0	55	4690
2026-01-20 09:08:05.13	86.07	37.82	-42.3	-44.3	17.7	0.00e+00	0	41	0	0	55	4731
2026-01-20 09:08:06.13	85.67	37.92	-42.1	-44.1	17.8	0.00e+00	0	41	0	0	55	4641
2026-01-20 09:08:07.13	85.28	38.03	-42.0	-44.0	18.0	0.00e+00	0	41	0	0	55	4576
2026-01-20 09:08:08.13	84.88	38.13	-42.1	-44.1	17.9	0.00e+00	0	41	0	0	55	4613
2026-01-20 09:08:09.14	84.47	38.23	-42.1	-44.2	17.8	0.00e+00	0	41	0	0	55	4659
2026-01-20 09:08:10.14	84.07	38.33	-42.1	-44.2	17.8	0.00e+00	0	41	0	0	55	4653
2026-01-20 09:08:11.14	83.66	38.43	-41.9	-43.9	18.1	0.00e+00	0	41	0	0	55	4509
2026-01-20 09:08:12.14	83.25	38.53	-42.0	-44.0	17.9	0.00e+00	0	41	0	0	55	4583
2026-01-20 09:08:13.14	82.84	38.62	-41.8	-43.7	18.2	0.00e+00	0	41	0	0	55	4425
2026-01-20 09:08:14.14	82.42	38.72	-42.0	-43.9	18.0	0.00e+00	0	41	0	0	55	4514
2026-01-20 09:08:15.14	82.00	38.81	-41.9	-43.9	18.0	0.00e+00	0	41	0	0	55	4506
2026-01-20 09:08:16.14	81.58	38.90	-42.1	-44.0	17.8	0.00e+00	0	41	0	0	55	4588
2026-01-20 09:08:17.14	81.16	38.99	-42.1	-44.1	17.8	0.00e+00	0	41	0	0	55	4617
2026-01-20 09:08:18.14	80.74	39.08	-42.0	-44.0	17.9	0.00e+00	0	41	0	0	55	4564
2026-01-20 09:08:19.14	80.31	39.17	-42.0	-44.0	17.8	0.00e+00	0	41	0	0	55	4563
2026-01-20 09:08:20.15	79.88	39.25	-42.2	-44.2	17.6	0.00e+00	0	41	0	0	55	4668
2026-01-20 09:08:21.15	79.45	39.34	-42.6	-44.6	17.3	0.00e+00	0	41	0	0	55	4923
2026-01-20 09:08:22.15	79.02	39.42	-42.7	-44.7	17.3	0.00e+00	0	41	0	0	55	4971
2026-01-20 09:08:23.15	78.58	39.50	-42.8	-44.8	17.4	0.00e+00	0	41	0	0	56	4720
2026-01-20 09:08:24.15	78.14	39.58	-42.7	-44.7	17.4	0.00e+00	0	41	0	0	56	4699
2026-01-20 09:08:25.15	77.70	39.65	-42.9	-45.0	17.1	0.00e+00	0	41	0	0	56	4823
2026-01-20 09:08:26.15	77.26	39.73	-42.6	-44.6	17.6	0.00e+00	0	41	0	0	56	4601
2026-01-20 09:08:27.16	76.81	39.80	-42.3	-44.2	17.9	0.00e+00	0	41	0	0	56	4436
2026-01-20 09:08:28.16	76.37	39.87	-42.2	-44.1	18.0	0.00e+00	0	41	0	0	56	4360
2026-01-20 09:08:29.16	75.92	39.94	-42.1	-44.0	18.1	0.00e+00	0	41	0	0	56	4311
2026-01-20 09:08:30.16	75.47	40.01	-42.0	-43.9	18.2	0.00e+00	0	41	0	0	56	4279
2026-01-20 09:08:31.16	75.02	40.08	-42.3	-44.2	17.9	0.00e+00	0	41	0	0	56	4405
2026-01-20 09:08:32.16	74.57	40.14	-42.4	-44.3	17.7	0.00e+00	0	41	0	0	56	4475
2026-01-20 09:08:33.16	74.11	40.20	-42.4	-44.3	17.8	0.00e+00	0	41	0	0	56	4482
2026-01-20 09:08:34.16	73.65	40.26	-42.3	-44.2	17.8	0.00e+00	0	41	0	0	56	4432
2026-01-20 09:08:35.16	73.20	40.32	-42.2	-44.2	17.9	0.00e+00	0	41	0	0	56	4404
2026-01-20 09:08:36.16	72.74	40.38	-42.2	-44.1	17.9	0.00e+00	0	41	0	0	56	4380
2026-01-20 09:08:37.16	72.27	40.43	-42.3	-44.2	17.8	0.00e+00	0	41	0	0	56	4432
2026-01-20 09:08:38.16	71.81	40.48	-42.5	-44.5	17.5	0.00e+00	0	41	0	0	56	4566
2026-01-20 09:08:39.17	71.34	40.54	-42.7	-44.7	17.4	0.00e+00	0	41	0	0	56	4668
2026-01-20 09:08:40.17	70.88	40.58	-42.8	-44.9	17.3	0.00e+00	0	41	0	0	56	4789
2026-01-20 09:08:41.17	70.41	40.63	-42.9	-45.0	17.2	0.00e+00	0	41	0	0	56	4829
2026-01-20 09:08:42.17	69.94	40.67	-43.3	-45.5	16.7	0.00e+00	0	41	0	0	57	4819
2026-01-20 09:08:43.17	69.47	40.71	-43.3	-45.4	16.8	0.00e+00	0	41	0	0	57	4797
2026-01-20 09:08:44.17	69.00	40.75	-43.3	-45.4	16.7	0.00e+00	0	41	0	0	57	4803
2026-01-20 09:08:45.17	68.53	40.79	-42.9	-45.0	17.3	0.00e+00	0	41	0	0	57	4580
2026-01-20 09:08:46.17	68.06	40.83	-42.7	-44.7	17.5	0.00e+00	0	41	0	0	57	4400
2026-01-20 09:08:47.17	67.58	40.86	-42.8	-44.8	17.4	0.00e+00	0	41	0	0	57	4471
2026-01-20 09:08:48.17	67.11	40.89	-43.0	-45.1	17.2	0.00e+00	0	41	0	0	57	4600
2026-01-20 09:08:49.16	66.64	40.92	-43.2	-45.3	17.0	0.00e+00	0	41	0	0	57	4708
2026-01-20 09:08:50.16	66.16	40.94	-43.3	-45.4	16.8	0.00e+00	0	41	0	0	57	4802
2026-01-20 09:08:51.17	65.68	40.97	-43.4	-45.6	16.6	0.00e+00	0	41	0	0	57	4883
2026-01-20 09:08:52.17	65.20	40.99	-43.2	-45.3	16.8	0.00e+00	0	41	0	0	57	4757
2026-01-20 09:08:53.17	64.72	41.01	-43.2	-45.4	16.7	0.00e+00	0	41	0	0	57	4766
2026-01-20 09:08:54.17	64.24	41.03	-43.2	-45.3	16.8	0.00e+00	0	41	0	0	57	4757
2026-01-20 09:08:55.17	63.76	41.04	-43.4	-45.6	16.6	0.00e+00	0	41	0	0	57	4890
2026-01-20 09:08:56.17	63.28	41.06	-43.5	-45.7	16.5	0.00e+00	0	41	0	0	57	4951
2026-01-20 09:08:57.18	62.80	41.07	-43.5	-45.8	16.4	0.00e+00	0	41	0	0	57	4996
2026-01-20 09:08:58.18	62.32	41.07	-43.6	-45.8	16.2	0.00e+00	0	41	0	0	57	5001
2026-01-20 09:08:59.18	61.83	41.08	-43.4	-45.6	16.4	0.00e+00	0	41	0	0	57	4906
2026-01-20 09:09:00.18	61.35	41.08	-43.4	-45.5	16.6	0.00e+00	0	41	0	0	57	4864
2026-01-20 09:09:01.18	60.87	41.08	-43.2	-45.4	16.8	0.00e+00	0	41	0	0	57	4765
2026-01-20 09:09:02.18	60.39	41.08	-43.0	-45.0	17.1	0.00e+00	0	41	0	0	57	4580
2026-01-20 09:09:03.19	59.91	41.08	-43.0	-45.1	17.1	0.00e+00	0	41	0	0	57	4624
2026-01-20 09:09:04.19	59.43	41.08	-43.2	-45.3	16.8	0.00e+00	0	41	0	0	57	4759
2026-01-20 09:09:05.19	58.95	41.07	-43.5	-45.8	16.2	0.00e+00	0	41	0	0	57	4988
2026-01-20 09:09:06.19	58.46	41.06	-43.7	-46.0	15.9	0.00e+00	0	41	0	0	58	4838
2026-01-20 09:09:07.19	57.98	41.05	-43.6	-45.8	16.1	0.00e+00	0	41	0	0	58	4757
2026-01-20 09:09:08.19	57.51	41.03	-43.3	-45.5	16.6	0.00e+00	0	41	0	0	58	4567
2026-01-20 09:09:09.19	57.03	41.01	-42.9	-45.0	17.1	0.00e+00	0	41	0	0	58	4313
2026-01-20 09:09:10.19	56.55	40.99	-42.9	-45.0	17.2	0.00e+00	0	41	0	0	57	4551
2026-01-20 09:09:11.19	56.07	40.97	-42.8	-44.8	17.3	0.00e+00	0	41	0	0	57	4483
2026-01-20 09:09:12.19	55.59	40.95	-43.0	-45.1	17.0	0.00e+00	0	41	0	0	57	4606
2026-01-20 09:09:13.19	55.12	40.92	-43.1	-45.3	16.8	0.00e+00	0	41	0	0	57	4713
2026-01-20 09:09:14.19	54.64	40.90	-43.1	-45.2	17.0	0.00e+00	0	41	0	0	57	4668
2026-01-20 09:09:15.19	54.17	40.87	-42.9	-45.0	17.1	0.00e+00	0	41	0	0	57	4567
2026-01-20 09:09:16.19	53.69	40.83	-42.8	-44.8	17.3	0.00e+00	0	41	0	0	57	4458
2026-01-20 09:09:17.19	53.22	40.80	-42.6	-44.6	17.5	0.00e+00	0	41	0	0	57	4360
2026-01-20 09:09:18.19	52.75	40.76	-42.7	-44.7	17.4	0.00e+00	0	41	0	0	57	4400
2026-01-20 09:09:19.19	52.28	40.72	-42.9	-44.9	17.2	0.00e+00	0	41	0	0	57	4527
2026-01-20 09:09:20.19	51.81	40.68	-43.4	-45.5	16.7	0.00e+00	0	41	0	0	57	4842
2026-01-20 09:09:21.19	51.34	40.64	-43.8	-46.1	16.1	0.00e+00	0	41	0	0	58	4918
2026-01-20 09:09:22.19	50.87	40.59	-44.0	-46.3	16.0	0.00e+00	0	41	0	0	58	5006
2026-01-20 09:09:23.19	50.41	40.55	-43.6	-45.8	16.4	0.00e+00	0	41	0	0	58	4753
2026-01-20 09:09:24.20	49.94	40.49	-43.0	-45.1	17.1	0.00e+00	0	41	0	0	58	4365
2026-01-20 09:09:25.20	49.48	40.44	-42.8	-44.8	17.4	0.00e+00	0	41	0	0	57	4470
2026-01-20 09:09:26.20	49.01	40.39	-42.7	-44.7	17.5	0.00e+00	0	41	0	0	57	4411
2026-01-20 09:09:27.20	48.55	40.33	-42.5	-44.5	17.6	0.00e+00	0	41	0	0	57	4323
2026-01-20 09:09:28.20	48.10	40.28	-42.8	-44.8	17.3	0.00e+00	0	41	0	0	56	4746
2026-01-20 09:09:29.20	47.64	40.22	-43.3	-45.4	16.7	0.00e+00	0	41	0	0	57	4807
2026-01-20 09:09:30.21	47.18	40.15	-43.5	-45.7	16.4	0.00e+00	0	41	0	0	57	4974
2026-01-20 09:09:31.21	46.73	40.09	-43.4	-45.6	16.5	0.00e+00	0	41	0	0	57	4898
2026-01-20 09:09:32.21	46.28	40.03	-43.3	-45.5	16.6	0.00e+00	0	41	0	0	57	4824
2026-01-20 09:09:33.21	45.83	39.96	-43.4	-45.5	16.5	0.00e+00	0	41	0	0	57	4864
2026-01-20 09:09:34.21	45.38	39.89	-43.2	-45.4	16.7	0.00e+00	0	41	0	0	57	4760
2026-01-20 09:09:35.21	44.94	39.82	-43.1	-45.2	16.9	0.00e+00	0	41	0	0	57	4682
2026-01-20 09:09:36.21	44.49	39.75	-42.9	-44.9	17.1	0.00e+00	0	41	0	0	57	4541
2026-01-20 09:09:37.21	44.05	39.67	-43.0	-45.0	16.9	0.00e+00	0	41	0	0	57	4591
2026-01-20 09:09:38.21	43.61	39.59	-43.0	-45.1	16.8	0.00e+00	0	41	0	0	57	4646
2026-01-20 09:09:39.21	43.18	39.52	-43.0	-45.1	16.9	0.00e+00	0	41	0	0	57	4638
2026-01-20 09:09:40.21	42.74	39.44	-43.0	-45.1	16.9	0.00e+00	0	41	0	0	57	4634
2026-01-20 09:09:41.21	42.31	39.36	-43.3	-45.4	16.7	0.00e+00	0	41	0	0	57	4794
2026-01-20 09:09:42.21	41.88	39.27	-43.7	-45.9	16.3	0.00e+00	0	41	0	0	57	5074
2026-01-20 09:09:43.21	41.45	39.19	-44.1	-46.4	15.8	0.00e+00	0	41	0	0	58	5069
2026-01-20 09:09:44.21	41.02	39.10	-44.1	-46.4	15.8	0.00e+00	0	41	0	0	58	5077
2026-01-20 09:09:45.21	40.60	39.01	-43.8	-46.0	16.1	0.00e+00	0	41	0	0	58	4864
2026-01-20 09:09:46.21	40.18	38.92	-43.3	-45.4	16.6	0.00e+00	0	41	0	0	58	4522
2026-01-20 09:09:47.20	39.76	38.83	-42.7	-44.7	17.4	0.00e+00	0	41	0	0	57	4416
2026-01-20 09:09:48.21	39.34	38.74	-42.4	-44.3	17.8	0.00e+00	0	41	0	0	56	4480
2026-01-20 09:09:49.21	38.93	38.65	-42.4	-44.3	17.8	0.00e+00	0	41	0	0	56	4487
2026-01-20 09:09:50.21	38.52	38.55	-42.8	-44.9	17.3	0.00e+00	0	41	0	0	56	4779
2026-01-20 09:09:51.21	38.11	38.45	-43.2	-45.3	16.9	0.00e+00	0	41	0	0	57	4737
2026-01-20 09:09:52.21	37.70	38.36	-43.2	-45.4	16.8	0.00e+00	0	41	0	0	57	4760
2026-01-20 09:09:53.21	37.30	38.26	-43.0	-45.0	17.0	0.00e+00	0	41	0	0	57	4593
2026-01-20 09:09:54.21	36.89	38.16	-42.7	-44.8	17.3	0.00e+00	0	41	0	0	57	4444
2026-01-20 09:09:55.21	36.49	38.05	-42.4	-44.4	17.7	0.00e+00	0	41	0	0	56	4514
2026-01-20 09:09:56.21	36.10	37.95	-42.2	-44.2	18.0	0.00e+00	0	41	0	0	56	4408
2026-01-20 09:09:57.21	35.70	37.85	-42.6	-44.5	17.7	0.00e+00	0	41	0	0	56	4591
2026-01-20 09:09:58.21	35.31	37.74	-42.9	-44.9	17.2	0.00e+00	0	41	0	0	56	4812
2026-01-20 09:09:59.22	34.92	37.63	-43.2	-45.3	17.0	0.00e+00	0	41	0	0	57	4721
2026-01-20 09:10:00.21	34.53	37.53	-43.3	-45.4	16.9	0.00e+00	0	41	0	0	57	4791
2026-01-20 09:10:01.21	34.15	37.42	-42.7	-44.7	17.4	0.00e+00	0	41	0	0	57	4438
2026-01-20 09:10:02.22	33.77	37.30	-42.3	-44.2	17.9	0.00e+00	0	41	0	0	56	4424
2026-01-20 09:10:03.22	33.39	37.19	-42.1	-44.1	18.0	0.00e+00	0	41	0	0	56	4353
2026-01-20 09:10:04.22	33.01	37.08	-42.5	-44.5	17.6	0.00e+00	0	41	0	0	56	4584
2026-01-20 09:10:05.22	32.64	36.97	-43.0	-45.1	17.0	0.00e+00	0	41	0	0	56	4918
2026-01-20 09:10:06.22	32.27	36.85	-43.5	-45.7	16.5	0.00e+00	0	41	0	0	57	4966
2026-01-20 09:10:07.22	31.90	36.74	-43.5	-45.7	16.4	0.00e+00	0	41	0	0	57	4957
2026-01-20 09:10:08.22	31.53	36.62	-43.0	-45.0	17.1	0.00e+00	0	41	0	0	57	4593
2026-01-20 09:10:09.23	31.17	36.50	-42.4	-44.4	17.6	0.00e+00	0	41	0	0	56	4523
2026-01-20 09:10:10.22	30.81	36.39	-42.0	-43.9	18.2	0.00e+00	0	41	0	0	56	4270
2026-01-20 09:10:11.23	30.45	36.27	-41.5	-43.4	18.6	0.00e+00	0	41	0	0	54	4501
2026-01-20 09:10:12.23	30.09	36.15	-41.2	-42.9	19.0	0.00e+00	0	41	0	0	54	4290
2026-01-20 09:10:13.22	29.74	36.03	-41.7	-43.5	18.4	0.00e+00	0	41	0	0	54	4593
2026-01-20 09:10:14.23	29.39	35.90	-42.4	-44.3	17.7	0.00e+00	0	41	0	0	55	4755
2026-01-20 09:10:15.23	29.04	35.78	-42.8	-44.8	17.3	0.00e+00	0	41	0	0	56	4733
2026-01-20 09:10:16.23	28.70	35.66	-42.2	-44.1	17.9	0.00e+00	0	41	0	0	56	4359
2026-01-20 09:10:17.23	28.36	35.54	-41.3	-43.1	18.5	0.00e+00	0	41	0	0	54	4388
2026-01-20 09:10:18.23	28.02	35.41	-40.9	-42.7	19.0	0.00e+00	0	41	0	0	53	4413
2026-01-20 09:10:19.22	27.68	35.29	-40.8	-42.6	19.2	0.00e+00	0	41	0	0	53	4350
2026-01-20 09:10:20.23	27.35	35.16	-40.7	-42.4	19.4	0.00e+00	0	41	0	0	53	4288
2026-01-20 09:10:21.22	27.02	35.04	-41.3	-43.2	18.8	0.00e+00	0	41	0	0	53	4673
2026-01-20 09:10:22.22	26.69	34.91	-42.1	-44.1	18.0	0.00e+00	0	41	0	0	54	4871
2026-01-20 09:10:23.23	26.36	34.78	-42.4	-44.4	17.6	0.00e+00	0	41	0	0	55	4795
2026-01-20 09:10:24.23	26.04	34.65	-42.2	-44.2	17.7	0.00e+00	0	41	0	0	55	4686
2026-01-20 09:10:25.22	25.72	34.53	-41.8	-43.8	18.1	0.00e+00	0	41	0	0	55	4449
2026-01-20 09:10:26.23	25.40	34.40	-41.3	-43.2	18.7	0.00e+00	0	41	0	0	54	4393
2026-01-20 09:10:27.23	25.08	34.27	-41.1	-42.9	18.9	0.00e+00	0	41	0	0	54	4287
2026-01-20 09:10:28.23	24.77	34.14	-40.8	-42.7	19.2	0.00e+00	0	41	0	0	53	4397
2026-01-20 09:10:29.23	24.45	34.01	-41.0	-42.8	19.1	0.00e+00	0	41	0	0	53	4463
2026-01-20 09:10:30.23	24.15	33.88	-41.3	-43.2	18.8	0.00e+00	0	41	0	0	53	4653
2026-01-20 09:10:31.23	23.84	33.75	-41.4	-43.3	18.6	0.00e+00	0	41	0	0	53	4756
2026-01-20 09:10:32.24	23.53	33.61	-41.7	-43.7	18.3	0.00e+00	0	41	0	0	54	4653
2026-01-20 09:10:33.23	23.24	33.48	-41.6	-43.6	18.2	0.00e+00	0	41	0	0	54	4637
2026-01-20 09:10:34.23	22.94	33.35	-41.5	-43.4	18.3	0.00e+00	0	41	0	0	54	4503
2026-01-20 09:10:35.23	22.64	33.22	-41.4	-43.3	18.3	0.00e+00	0	41	0	0	54	4492
2026-01-20 09:10:36.23	22.35	33.09	-40.9	-42.8	18.9	0.00e+00	0	41	0	0	53	4444
2026-01-20 09:10:37.23	22.05	32.95	-40.7	-42.5	19.2	0.00e+00	0	41	0	0	53	4309
2026-01-20 09:10:38.24	21.76	32.82	-40.8	-42.5	19.3	0.00e+00	0	41	0	0	53	4333
2026-01-20 09:10:39.24	21.48	32.69	-40.9	-42.7	19.1	0.00e+00	0	41	0	0	53	4436
2026-01-20 09:10:40.24	21.19	32.55	-41.2	-43.1	18.8	0.00e+00	0	41	0	0	53	4603
2026-01-20 09:10:41.24	20.91	32.42	-41.4	-43.2	18.6	0.00e+00	0	41	0	0	53	4705
2026-01-20 09:10:42.24	20.63	32.29	-41.2	-43.1	18.7	0.00e+00	0	41	0	0	53	4616
2026-01-20 09:10:43.24	20.35	32.15	-40.8	-42.6	19.1	0.00e+00	0	41	0	0	53	4372
2026-01-20 09:10:44.24	20.08	32.02	-40.6	-42.4	19.3	0.00e+00	0	41	0	0	53	4270
2026-01-20 09:10:45.25	19.80	31.88	-40.5	-42.2	19.6	0.00e+00	0	41	0	0	52	4435
2026-01-20 09:10:46.25	19.53	31.75	-40.6	-42.4	19.4	0.00e+00	0	41	0	0	52	4523
2026-01-20 09:10:47.25	19.26	31.61	-40.9	-42.7	19.2	0.00e+00	0	41	0	0	52	4659
2026-01-20 09:10:48.25	19.00	31.48	-41.2	-43.0	18.9	0.00e+00	0	41	0	0	52	4854
2026-01-20 09:10:49.25	18.74	31.34	-41.3	-43.2	18.7	0.00e+00	0	41	0	0	53	4681
2026-01-20 09:10:50.25	18.47	31.21	-41.5	-43.4	18.4	0.00e+00	0	41	0	0	53	4798
2026-01-20 09:10:51.25	18.21	31.07	-41.5	-43.4	18.5	0.00e+00	0	41	0	0	53	4795
2026-01-20 09:10:52.25	17.96	30.94	-41.3	-43.2	18.7	0.00e+00	0	41	0	0	53	4670
2026-01-20 09:10:53.26	17.70	30.80	-41.3	-43.1	18.7	0.00e+00	0	41	0	0	53	4647
2026-01-20 09:10:54.25	17.45	30.67	-41.2	-43.1	18.8	0.00e+00	0	41	0	0	53	4622
2026-01-20 09:10:55.26	17.20	30.53	-41.2	-43.0	18.9	0.00e+00	0	42	0	0	53	4581
2026-01-20 09:10:56.25	16.95	30.40	-40.8	-42.7	19.2	0.00e+00	0	41	0	0	53	4393
2026-01-20 09:10:57.25	16.70	30.26	-40.5	-42.3	19.5	0.00e+00	0	41	0	0	53	4224
2026-01-20 09:10:58.25	16.46	30.13	-40.6	-42.3	19.5	0.00e+00	0	41	0	0	53	4233
2026-01-20 09:10:59.25	16.22	30.00	-40.6	-42.4	19.5	0.00e+00	0	41	0	0	53	4254
2026-01-20 09:11:00.25	15.98	29.86	-40.7	-42.5	19.3	0.00e+00	0	41	0	0	53	4310
2026-01-20 09:11:01.25	15.74	29.73	-40.7	-42.5	19.3	0.00e+00	0	41	0	0	53	4293
2026-01-20 09:11:02.25	15.50	29.59	-40.3	-42.0	19.5	0.00e+00	0	41	0	0	52	4331
2026-01-20 09:11:03.25	15.27	29.46	-40.1	-41.8	19.7	0.00e+00	0	41	0	0	52	4214
2026-01-20 09:11:04.25	15.04	29.32	-40.0	-41.7	19.7	0.00e+00	0	41	0	0	52	4154
2026-01-20 09:11:05.25	14.81	29.19	-39.7	-41.4	20.1	0.00e+00	0	41	0	0	51	4260
2026-01-20 09:11:06.25	14.58	29.05	-39.7	-41.3	20.2	0.00e+00	0	41	0	0	51	4226
2026-01-20 09:11:07.25	14.35	28.92	-39.9	-41.6	20.0	0.00e+00	0	41	0	0	51	4355
2026-01-20 09:11:08.25	14.13	28.79	-40.2	-41.9	19.9	0.00e+00	0	41	0	0	51	4509
2026-01-20 09:11:09.26	13.90	28.65	-40.5	-42.2	19.6	0.00e+00	0	41	0	0	51	4693
2026-01-20 09:11:10.26	13.68	28.52	-40.7	-42.5	19.3	0.00e+00	0	41	0	0	52	4576
2026-01-20 09:11:11.26	13.46	28.39	-40.8	-42.6	19.2	0.00e+00	0	41	0	0	52	4635
2026-01-20 09:11:12.26	13.25	28.25	-40.8	-42.6	19.2	0.00e+00	0	41	0	0	52	4631
2026-01-20 09:11:13.26	13.03	28.12	-40.7	-42.5	19.2	0.00e+00	0	41	0	0	52	4579
2026-01-20 09:11:14.26	12.82	27.99	-40.7	-42.5	19.3	0.00e+00	0	41	0	0	52	4558
2026-01-20 09:11:15.26	12.61	27.85	-40.7	-42.5	19.2	0.00e+00	0	41	0	0	52	4580
2026-01-20 09:11:16.26	12.40	27.72	-40.4	-42.2	19.5	0.00e+00	0	41	0	0	52	4438
2026-01-20 09:11:17.26	12.19	27.59	-40.6	-42.4	19.3	0.00e+00	0	41	0	0	52	4534
2026-01-20 09:11:18.26	11.98	27.46	-40.5	-42.3	19.4	0.00e+00	0	41	0	0	52	4471
2026-01-20 09:11:19.26	11.78	27.33	-40.5	-42.3	19.4	0.00e+00	0	41	0	0	52	4475
2026-01-20 09:11:20.26	11.57	27.19	-40.6	-42.4	19.3	0.00e+00	0	42	0	0	52	4530
2026-01-20 09:11:21.26	11.37	27.06	-40.7	-42.5	19.3	0.00e+00	0	41	0	0	52	4556
2026-01-20 09:11:22.26	11.17	26.93	-40.7	-42.5	19.2	0.00e+00	0	41	0	0	52	4590
2026-01-20 09:11:23.27	10.97	26.80	-40.7	-42.6	19.2	0.00e+00	0	41	0	0	52	4601
2026-01-20 09:11:24.27	10.78	26.67	-40.7	-42.5	19.3	0.00e+00	0	41	0	0	52	4582
2026-01-20 09:11:25.27	10.58	26.54	-40.7	-42.5	19.3	0.00e+00	0	41	0	0	52	4562
2026-01-20 09:11:26.27	10.39	26.41	-40.5	-42.3	19.4	0.00e+00	0	41	0	0	52	4453
2026-01-20 09:11:27.27	10.20	26.28	-40.3	-42.1	19.6	0.00e+00	0	41	0	0	52	4344
2026-01-20 09:11:28.27	10.01	26.15	-40.1	-41.8	19.8	0.00e+00	0	41	0	0	52	4223
2026-01-20 09:11:29.27	9.82	26.02	-40.0	-41.7	20.0	0.00e+00	0	41	0	0	51	4414
2026-01-20 09:11:30.27	9.63	25.89	-40.1	-41.8	20.0	0.00e+00	0	41	0	0	51	4447
2026-01-20 09:11:31.27	9.45	25.76	-40.0	-41.6	20.1	0.00e+00	0	41	0	0	51	4381
2026-01-20 09:11:32.27	9.26	25.63	-39.9	-41.6	20.1	0.00e+00	0	41	0	0	51	4364
2026-01-20 09:11:33.27	9.08	25.51	-39.9	-41.5	20.1	0.00e+00	0	41	0	0	51	4338
2026-01-20 09:11:34.27	8.90	25.38	-40.0	-41.7	20.0	0.00e+00	0	41	0	0	51	4417
2026-01-20 09:11:35.27	8.72	25.25	-40.1	-41.7	19.9	0.00e+00	0	42	0	0	51	4441
2026-01-20 09:11:36.27	8.55	25.12	-40.2	-41.9	19.8	0.00e+00	0	41	0	0	51	4506
2026-01-20 09:11:37.28	8.37	25.00	-40.2	-41.9	19.8	0.00e+00	0	41	0	0	51	4545
2026-01-20 09:11:38.28	8.19	24.87	-40.3	-42.0	19.7	0.00e+00	0	41	0	0	51	4597
2026-01-20 09:11:39.28	8.02	24.74	-40.3	-42.0	19.7	0.00e+00	0	42	0	0	51	4566
2026-01-20 09:11:40.28	7.85	24.62	-40.4	-42.1	19.6	0.00e+00	0	41	0	0	51	4635
2026-01-20 09:11:41.28	7.68	24.49	-40.4	-42.2	19.6	0.00e+00	0	42	0	0	51	4661
2026-01-20 09:11:42.28	7.51	24.37	-40.5	-42.3	19.5	0.00e+00	0	41	0	0	51	4716
2026-01-20 09:11:43.28	7.34	24.24	-40.6	-42.4	19.4	0.00e+00	0	41	0	0	51	4780
2026-01-20 09:11:44.28	7.17	24.12	-40.6	-42.5	19.4	0.00e+00	0	42	0	0	51	4826
2026-01-20 09:11:45.28	7.01	23.99	-40.7	-42.5	19.3	0.00e+00	0	41	0	0	52	4591
2026-01-20 09:11:46.29	6.84	23.87	-40.6	-42.5	19.3	0.00e+00	0	41	0	0	52	4559
2026-01-20 09:11:47.29	6.68	23.75	-40.7	-42.6	19.3	0.00e+00	0	41	0	0	52	4610
2026-01-20 09:11:48.29	6.52	23.62	-40.8	-42.6	19.2	0.00e+00	0	41	0	0	52	4641
2026-01-20 09:11:49.29	6.36	23.50	-40.8	-42.6	19.2	0.00e+00	0	42	0	0	52	4623
2026-01-20 09:11:50.29	6.20	23.38	-40.7	-42.6	19.2	0.00e+00	0	42	0	0	52	4609
2026-01-20 09:11:51.29	6.04	23.25	-40.7	-42.5	19.3	0.00e+00	0	41	0	0	52	4572
2026-01-20 09:11:52.29	5.89	23.13	-40.6	-42.4	19.3	0.00e+00	0	41	0	0	52	4545
2026-01-20 09:11:53.30	5.73	23.01	-40.5	-42.3	19.3	0.00e+00	0	41	0	0	52	4485
2026-01-20 09:11:54.30	5.58	22.89	-40.3	-42.1	19.5	0.00e+00	0	41	0	0	52	4385
2026-01-20 09:11:55.30	5.42	22.77	-40.4	-42.2	19.4	0.00e+00	0	41	0	0	52	4415
2026-01-20 09:11:56.30	5.27	22.65	-40.4	-42.2	19.4	0.00e+00	0	41	0	0	52	4433
2026-01-20 09:11:57.31	5.12	22.53	-40.3	-42.1	19.5	0.00e+00	0	41	0	0	52	4370
2026-01-20 09:11:58.31	4.97	22.41	-40.3	-42.0	19.7	0.00e+00	0	42	0	0	52	4330
2026-01-20 09:11:59.31	4.83	22.29	-40.3	-42.1	19.5	0.00e+00	0	41	0	0	52	4376
2026-01-20 09:12:00.31	4.68	22.17	-40.4	-42.2	19.5	0.00e+00	0	42	0	0	52	4412
2026-01-20 09:12:01.31	4.53	22.05	-40.4	-42.2	19.4	0.00e+00	0	41	0	0	52	4418
2026-01-20 09:12:02.31	4.39	21.93	-40.4	-42.2	19.4	0.00e+00	0	41	0	0	52	4436
2026-01-20 09:12:03.31	4.25	21.81	-40.5	-42.4	19.3	0.00e+00	0	41	0	0	52	4511
2026-01-20 09:12:04.31	4.10	21.69	-40.6	-42.5	19.2	0.00e+00	0	41	0	0	52	4553
2026-01-20 09:12:05.31	3.96	21.58	-40.4	-42.3	19.3	0.00e+00	0	41	0	0	52	4463
2026-01-20 09:12:06.31	3.82	21.46	-40.3	-42.1	19.5	0.00e+00	0	41	0	0	52	4385
2026-01-20 09:12:07.31	3.68	21.34	-40.2	-42.0	19.6	0.00e+00	0	42	0	0	52	4305
2026-01-20 09:12:08.32	3.55	21.23	-40.2	-42.0	19.6	0.00e+00	0	41	0	0	52	4311
2026-01-20 09:12:09.31	3.41	21.11	-40.3	-42.1	19.6	0.00e+00	0	41	0	0	52	4346
2026-01-20 09:12:10.31	3.27	21.00	-40.2	-42.0	19.6	0.00e+00	0	41	0	0	52	4314
2026-01-20 09:12:11.32	3.14	20.88	-40.4	-42.1	19.5	0.00e+00	0	41	0	0	52	4378
2026-01-20 09:12:12.32	3.00	20.77	-40.3	-42.1	19.6	0.00e+00	0	41	0	0	52	4347
2026-01-20 09:12:13.32	2.87	20.65	-40.4	-42.2	19.5	0.00e+00	0	42	0	0	52	4410
2026-01-20 09:12:14.32	2.74	20.54	-40.2	-42.0	19.7	0.00e+00	0	41	0	0	52	4300
2026-01-20 09:12:15.32	2.61	20.42	-40.2	-42.0	19.7	0.00e+00	0	41	0	0	52	4320
2026-01-20 09:12:16.32	2.48	20.31	-40.2	-42.0	19.7	0.00e+00	0	41	0	0	52	4327
2026-01-20 09:12:17.32	2.35	20.20	-40.0	-41.8	19.8	0.00e+00	0	42	0	0	52	4227
2026-01-20 09:12:18.33	2.22	20.08	-40.1	-41.9	19.8	0.00e+00	0	41	0	0	52	4259
2026-01-20 09:12:19.33	2.10	19.97	-40.2	-41.9	19.7	0.00e+00	0	42	0	0	52	4279
2026-01-20 09:12:20.33	1.97	19.86	-40.2	-41.9	19.7	0.00e+00	0	41	0	0	52	4287
2026-01-20 09:12:21.33	1.85	19.75	-40.3	-42.0	19.6	0.00e+00	0	41	0	0	52	4335
2026-01-20 09:12:22.33	1.72	19.64	-40.3	-42.1	19.5	0.00e+00	0	41	0	0	52	4374
2026-01-20 09:12:23.34	1.60	19.52	-40.3	-42.1	19.5	0.00e+00	0	42	0	0	52	4356
2026-01-20 09:12:24.34	1.48	19.41	-40.3	-42.1	19.5	0.00e+00	0	41	0	0	52	4367
2026-01-20 09:12:25.34	1.36	19.30	-40.4	-42.2	19.4	0.00e+00	0	41	0	0	52	4408
2026-01-20 09:12:26.34	1.24	19.19	-40.2	-42.0	19.5	0.00e+00	0	41	0	0	52	4334
2026-01-20 09:12:27.34	1.12	19.08	-40.1	-41.8	19.6	0.00e+00	0	41	0	0	52	4235
2026-01-20 09:12:28.34	1.00	18.98	-40.0	-41.8	19.7	0.00e+00	0	41	0	0	52	4199
2026-01-20 09:12:29.34	0.88	18.87	-40.0	-41.7	19.7	0.00e+00	0	42	0	0	51	4435
2026-01-20 09:12:30.34	0.76	18.76	-40.0	-41.7	19.7	0.00e+00	0	41	0	0	51	4418
2026-01-20 09:12:31.34	0.65	18.65	-39.9	-41.6	19.8	0.00e+00	0	41	0	0	51	4380
2026-01-20 09:12:32.34	0.53	18.54	-39.9	-41.6	19.9	0.00e+00	0	41	0	0	51	4356
2026-01-20 09:12:33.34	0.42	18.44	-39.9	-41.6	19.9	0.00e+00	0	41	0	0	51	4354
2026-01-20 09:12:34.34	0.31	18.33	-39.8	-41.4	20.1	0.00e+00	0	41	0	0	51	4281
2026-01-20 09:12:35.34	0.19	18.22	-39.8	-41.5	20.1	0.00e+00	0	41	0	0	51	4299
2026-01-20 09:12:36.34	0.08	18.12	-39.8	-41.5	20.0	0.00e+00	0	41	0	0	51	4333
2026-01-20 09:12:37.34	359.97	18.01	-39.9	-41.6	20.0	0.00e+00	0	41	0	0	51	4380
2026-01-20 09:12:38.34	359.86	17.90	-40.0	-41.8	19.9	0.00e+00	0	41	0	0	51	4448
2026-01-20 09:12:39.35	359.75	17.80	-40.1	-41.9	19.8	0.00e+00	0	41	0	0	51	4505
2026-01-20 09:12:40.35	359.64	17.69	-40.3	-42.1	19.6	0.00e+00	0	42	0	0	51	4631
2026-01-20 09:12:41.35	359.53	17.59	-40.5	-42.3	19.4	0.00e+00	0	41	0	0	51	4722
2026-01-20 09:12:42.35	359.43	17.48	-40.6	-42.4	19.3	0.00e+00	0	41	0	0	51	4801
2026-01-20 09:12:43.35	359.32	17.38	-40.7	-42.5	19.1	0.00e+00	0	41	0	0	52	4580
2026-01-20 09:12:44.35	359.21	17.28	-40.8	-42.7	19.0	0.00e+00	0	42	0	0	52	4687
2026-01-20 09:12:45.35	359.11	17.17	-40.9	-42.8	18.9	0.00e+00	0	42	0	0	52	4708
2026-01-20 09:12:46.35	359.01	17.07	-41.0	-42.9	18.7	0.00e+00	0	42	0	0	52	4809
2026-01-20 09:12:47.35	358.90	16.97	-41.0	-42.9	18.8	0.00e+00	0	42	0	0	52	4795
2026-01-20 09:12:48.35	358.80	16.86	-41.0	-43.0	18.7	0.00e+00	0	42	0	0	52	4827
2026-01-20 09:12:49.35	358.70	16.76	-41.0	-43.0	18.6	0.00e+00	0	41	0	0	52	4838
2026-01-20 09:12:50.35	358.60	16.66	-41.0	-43.0	18.6	0.00e+00	0	41	0	0	52	4867
2026-01-20 09:12:51.35	358.50	16.56	-41.0	-42.9	18.7	0.00e+00	0	41	0	0	52	4811
2026-01-20 09:12:52.35	358.40	16.46	-41.1	-43.0	18.6	0.00e+00	0	41	0	0	52	4857
2026-01-20 09:12:53.35	358.30	16.36	-41.1	-43.0	18.6	0.00e+00	0	41	0	0	52	4841
2026-01-20 09:12:54.35	358.20	16.26	-40.9	-42.8	18.8	0.00e+00	0	41	0	0	52	4743
2026-01-20 09:12:55.36	358.10	16.16	-40.9	-42.8	18.8	0.00e+00	0	42	0	0	52	4719
2026-01-20 09:12:56.36	358.00	16.06	-40.9	-42.8	18.8	0.00e+00	0	41	0	0	52	4727
2026-01-20 09:12:57.36	357.91	15.96	-41.0	-43.0	18.7	0.00e+00	0	42	0	0	52	4819
2026-01-20 09:12:58.36	357.81	15.86	-40.9	-42.8	18.8	0.00e+00	0	41	0	0	52	4753
2026-01-20 09:12:59.36	357.72	15.76	-40.9	-42.8	18.9	0.00e+00	0	42	0	0	52	4707
2026-01-20 09:13:00.37	357.62	15.66	-40.9	-42.8	18.9	0.00e+00	0	41	0	0	52	4714
2026-01-20 09:13:01.37	357.53	15.56	-40.9	-42.8	18.8	0.00e+00	0	42	0	0	52	4741
2026-01-20 09:13:02.37	357.44	15.47	-41.0	-42.9	18.8	0.00e+00	0	41	0	0	52	4776
2026-01-20 09:13:03.37	357.34	15.37	-41.0	-43.0	18.7	0.00e+00	0	41	0	0	52	4822
2026-01-20 09:13:04.37	357.25	15.27	-41.2	-43.2	18.5	0.00e+00	0	41	0	0	53	4662
2026-01-20 09:13:05.38	357.16	15.17	-41.2	-43.1	18.6	0.00e+00	0	41	0	0	53	4633
2026-01-20 09:13:06.37	357.07	15.08	-41.2	-43.2	18.5	0.00e+00	0	41	0	0	53	4659
2026-01-20 09:13:07.37	356.98	14.98	-41.3	-43.2	18.5	0.00e+00	0	42	0	0	53	4668
2026-01-20 09:13:08.37	356.89	14.89	-41.3	-43.2	18.5	0.00e+00	0	41	0	0	53	4673
2026-01-20 09:13:09.37	356.80	14.79	-41.3	-43.2	18.5	0.00e+00	0	42	0	0	53	4691
2026-01-20 09:13:10.37	356.71	14.69	-41.4	-43.4	18.4	0.00e+00	0	41	0	0	53	4764
2026-01-20 09:13:11.37	356.63	14.60	-41.3	-43.2	18.5	0.00e+00	0	41	0	0	53	4694
2026-01-20 09:13:12.37	356.54	14.51	-41.4	-43.4	18.4	0.00e+00	0	41	0	0	53	4774
2026-01-20 09:13:13.37	356.45	14.41	-41.4	-43.4	18.3	0.00e+00	0	41	0	0	53	4774
2026-01-20 09:13:14.37	356.37	14.32	-41.3	-43.4	18.4	0.00e+00	0	42	0	0	53	4769
2026-01-20 09:13:15.38	356.28	14.22	-41.4	-43.5	18.3	0.00e+00	0	41	0	0	53	4817
2026-01-20 09:13:16.38	356.20	14.13	-41.4	-43.4	18.3	0.00e+00	0	41	0	0	53	4809
2026-01-20 09:13:17.38	356.11	14.04	-41.5	-43.5	18.2	0.00e+00	0	42	0	0	53	4832
2026-01-20 09:13:18.38	356.03	13.94	-41.5	-43.5	18.2	0.00e+00	0	42	0	0	53	4850
2026-01-20 09:13:19.38	355.94	13.85	-41.6	-43.6	18.1	0.00e+00	0	41	0	0	53	4876
2026-01-20 09:13:20.38	355.86	13.76	-41.6	-43.6	18.1	0.00e+00	0	42	0	0	53	4908
2026-01-20 09:13:21.38	355.78	13.67	-41.7	-43.7	18.0	0.00e+00	0	41	0	0	54	4678
2026-01-20 09:13:22.38	355.70	13.57	-41.6	-43.7	18.0	0.00e+00	0	41	0	0	54	4668
2026-01-20 09:13:23.38	355.62	13.48	-41.7	-43.8	17.9	0.00e+00	0	41	0	0	54	4707
2026-01-20 09:13:24.38	355.54	13.39	-41.6	-43.7	18.0	0.00e+00	0	42	0	0	54	4661
2026-01-20 09:13:25.38	355.46	13.30	-41.6	-43.7	18.0	0.00e+00	0	41	0	0	54	4673
2026-01-20 09:13:26.38	355.38	13.21	-41.8	-43.8	17.8	0.00e+00	0	41	0	0	54	4750
2026-01-20 09:13:27.39	355.30	13.12	-41.8	-43.8	17.8	0.00e+00	0	41	0	0	54	4759
2026-01-20 09:13:28.39	355.22	13.03	-41.6	-43.7	17.9	0.00e+00	0	41	0	0	54	4692
2026-01-20 09:13:29.39	355.14	12.94	-41.5	-43.7	18.0	0.00e+00	0	41	0	0	54	4664
2026-01-20 09:13:30.39	355.06	12.85	-41.5	-43.8	17.9	0.00e+00	0	41	0	0	54	4713
2026-01-20 09:13:31.39	354.99	12.76	-41.4	-43.7	17.9	0.00e+00	0	42	0	0	54	4686
2026-01-20 09:13:32.40	354.91	12.67	-41.4	-43.8	17.9	0.00e+00	0	42	0	0	54	4717
2026-01-20 09:13:33.40	354.83	12.58	-41.4	-43.8	17.9	0.00e+00	0	42	0	0	54	4708
2026-01-20 09:13:34.40	354.76	12.49	-41.3	-43.7	17.9	0.00e+00	0	41	0	0	54	4696
2026-01-20 09:13:35.40	354.68	12.41	-41.4	-43.7	17.9	0.00e+00	0	41	0	0	54	4685
2026-01-20 09:13:36.40	354.61	12.32	-41.4	-43.7	17.9	0.00e+00	0	41	0	0	54	4675
2026-01-20 09:13:37.40	354.53	12.23	-41.4	-43.7	17.9	0.00e+00	0	41	0	0	54	4691
2026-01-20 09:13:38.40	354.46	12.14	-41.5	-43.7	17.9	0.00e+00	0	42	0	0	54	4688
2026-01-20 09:13:39.40	354.39	12.06	-41.5	-43.7	17.9	0.00e+00	0	41	0	0	54	4689
2026-01-20 09:13:40.40	354.32	11.97	-41.5	-43.7	17.9	0.00e+00	0	41	0	0	54	4671
2026-01-20 09:13:41.40	354.24	11.88	-41.5	-43.7	17.9	0.00e+00	0	41	0	0	54	4688
2026-01-20 09:13:42.40	354.17	11.80	-41.4	-43.7	17.9	0.00e+00	0	42	0	0	54	4670
2026-01-20 09:13:43.40	354.10	11.71	-41.4	-43.6	18.0	0.00e+00	0	41	0	0	54	4639
2026-01-20 09:13:44.40	354.03	11.62	-41.4	-43.6	18.0	0.00e+00	0	42	0	0	54	4637
2026-01-20 09:13:45.40	353.96	11.54	-41.4	-43.7	17.9	0.00e+00	0	41	0	0	54	4686
2026-01-20 09:13:46.40	353.89	11.45	-41.4	-43.7	17.9	0.00e+00	0	41	0	0	54	4684
2026-01-20 09:13:47.40	353.82	11.37	-41.4	-43.9	17.8	0.00e+00	0	42	0	0	54	4762
2026-01-20 09:13:48.40	353.75	11.28	-41.4	-44.0	17.7	0.00e+00	0	41	0	0	54	4859
2026-01-20 09:13:49.40	353.68	11.20	-41.3	-44.0	17.6	0.00e+00	0	41	0	0	54	4848
2026-01-20 09:13:50.40	353.61	11.11	-41.3	-44.1	17.6	0.00e+00	0	41	0	0	54	4902
2026-01-20 09:13:51.40	353.54	11.03	-41.2	-44.2	17.5	0.00e+00	0	41	0	0	54	4936
2026-01-20 09:13:52.40	353.48	10.95	-41.1	-44.1	17.5	0.00e+00	0	42	0	0	54	4896
2026-01-20 09:13:53.40	353.41	10.86	-41.2	-44.3	17.4	0.00e+00	0	42	0	0	54	4986
2026-01-20 09:13:54.40	353.34	10.78	-41.1	-44.3	17.3	0.00e+00	0	42	0	0	54	5030
2026-01-20 09:13:55.40	353.28	10.70	-41.2	-44.3	17.3	0.00e+00	0	42	0	0	54	5036
2026-01-20 09:13:56.40	353.21	10.61	-41.3	-44.5	17.2	0.00e+00	0	42	0	0	54	5116
2026-01-20 09:13:57.41	353.14	10.53	-41.5	-44.6	17.1	0.00e+00	0	42	0	0	54	5168
2026-01-20 09:13:58.41	353.08	10.45	-41.6	-44.6	17.0	0.00e+00	0	42	0	0	54	5211
2026-01-20 09:13:59.41	353.01	10.37	-41.7	-44.7	17.0	0.00e+00	0	42	0	0	54	5231
2026-01-20 09:14:00.41	352.95	10.28	-41.8	-44.7	17.0	0.00e+00	0	41	0	0	54	5240
2026-01-20 09:14:01.41	352.89	10.20	-42.0	-44.8	16.9	0.00e+00	0	42	0	0	54	5297
2026-01-20 09:14:02.41	352.82	10.12	-42.0	-44.8	16.8	0.00e+00	0	41	0	0	54	5338
2026-01-20 09:14:03.41	352.76	10.04	-42.1	-44.9	16.7	0.00e+00	0	42	0	0	54	5400
2026-01-20 09:14:04.41	352.70	9.96	-42.0	-44.9	16.7	0.00e+00	0	42	0	0	54	5380
2026-01-20 09:14:05.41	352.63	9.88	-42.0	-44.9	16.7	0.00e+00	0	42	0	0	54	5395
2026-01-20 09:14:06.42	352.57	9.80	-41.9	-44.9	16.7	0.00e+00	0	42	0	0	54	5361
2026-01-20 09:14:07.42	352.51	9.72	-41.8	-44.9	16.7	0.00e+00	0	42	0	0	54	5343
2026-01-20 09:14:08.42	352.45	9.64	-41.9	-45.0	16.7	0.00e+00	0	42	0	0	54	5403
2026-01-20 09:14:09.43	352.39	9.56	-41.9	-45.0	16.6	0.00e+00	0	42	0	0	54	5455
2026-01-20 09:14:10.43	352.33	9.48	-41.9	-45.0	16.5	0.00e+00	0	41	0	0	54	5428
2026-01-20 09:14:11.43	352.27	9.40	-41.9	-44.9	16.6	0.00e+00	0	42	0	0	54	5367
2026-01-20 09:14:12.43	352.21	9.32	-41.9	-45.0	16.6	0.00e+00	0	42	0	0	54	5418
2026-01-20 09:14:13.43	352.15	9.24	-42.0	-44.9	16.6	0.00e+00	0	42	0	0	54	5393
2026-01-20 09:14:14.43	352.09	9.16	-42.0	-45.1	16.4	0.00e+00	0	42	0	0	54	5480
2026-01-20 09:14:15.43	352.03	9.08	-41.9	-44.9	16.6	0.00e+00	0	42	0	0	54	5382
2026-01-20 09:14:16.43	351.97	9.00	-42.0	-45.0	16.4	0.00e+00	0	42	0	0	54	5462
2026-01-20 09:14:17.42	351.91	8.93	-46.3	-63.3	3.8	1.49e+00	0	41	104	0	63	26748
2026-01-20 09:14:18.42	351.85	8.85	-49.7	-63.4	3.8	1.49e+00	0	42	104	0	70	18089
2026-01-20 09:14:19.41	351.80	8.77	-50.1	-63.5	3.8	1.49e+00	0	42	104	0	70	18203
2026-01-20 09:14:20.41	351.74	8.69	-50.3	-63.6	3.8	1.49e+00	0	42	104	0	71	17342
2026-01-20 09:14:21.41	351.68	8.62	-50.2	-63.6	3.8	1.49e+00	0	42	104	0	71	17455
2026-01-20 09:14:22.40	351.63	8.54	-50.3	-63.7	3.8	1.49e+00	0	42	104	0	71	17484
2026-01-20 09:14:23.39	351.57	8.47	-50.6	-63.7	3.8	1.49e+00	0	42	104	0	71	17587
2026-01-20 09:14:24.39	351.51	8.39	-50.4	-63.7	3.8	1.49e+00	0	42	104	0	71	17644
2026-01-20 09:14:25.38	351.46	8.31	-50.4	-63.8	3.8	1.49e+00	0	42	104	0	71	17714
2026-01-20 09:14:26.37	351.40	8.24	-50.0	-63.8	3.8	1.49e+00	0	42	104	0	71	17736
2026-01-20 09:14:27.37	351.35	8.16	-50.6	-63.7	3.8	1.49e+00	0	42	104	0	72	16685
2026-01-20 09:14:28.36	351.29	8.09	-50.5	-63.8	3.8	1.49e+00	0	42	104	0	72	16731
2026-01-20 09:14:29.36	351.24	8.01	-50.4	-63.8	3.8	1.49e+00	0	42	104	0	72	16703
2026-01-20 09:14:30.35	351.19	7.94	-50.6	-63.8	3.8	1.49e+00	0	42	104	0	72	16782
2026-01-20 09:14:31.35	351.13	7.86	-50.7	-63.8	3.8	1.49e+00	0	42	104	0	72	16731
2026-01-20 09:14:32.34	351.08	7.79	-50.6	-63.8	3.8	1.49e+00	0	42	104	0	72	16782
2026-01-20 09:14:33.33	351.03	7.71	-50.5	-63.8	3.8	1.49e+00	0	42	104	0	72	16753
2026-01-20 09:14:34.33	350.97	7.64	-50.7	-63.8	3.8	1.49e+00	0	42	104	0	72	16752
2026-01-20 09:14:35.32	350.92	7.56	-50.7	-63.8	3.8	1.49e+00	0	42	104	0	72	16771
2026-01-20 09:14:36.32	350.87	7.49	-50.6	-63.8	3.8	1.49e+00	0	42	104	0	72	16804
2026-01-20 09:14:37.31	350.82	7.42	-50.8	-63.8	3.8	1.49e+00	0	42	104	0	72	16769
2026-01-20 09:14:38.30	350.76	7.34	-50.7	-63.8	3.8	1.49e+00	0	42	104	0	72	16785
2026-01-20 09:14:39.30	350.71	7.27	-50.7	-63.8	3.8	1.49e+00	0	42	104	0	72	16787
2026-01-20 09:14:40.30	350.66	7.20	-50.7	-63.8	3.8	1.49e+00	0	42	104	0	72	16755
2026-01-20 09:14:41.29	350.61	7.12	-50.8	-63.8	3.8	1.49e+00	0	42	104	0	72	16707
2026-01-20 09:14:42.28	350.56	7.05	-50.6	-63.8	3.8	1.49e+00	0	42	104	0	72	16695
2026-01-20 09:14:43.28	350.51	6.98	-50.7	-63.8	3.8	1.49e+00	0	42	104	0	72	16699
2026-01-20 09:14:44.27	350.46	6.91	-50.4	-63.8	3.8	1.49e+00	0	42	104	0	72	16712
2026-01-20 09:14:45.27	350.41	6.83	-50.6	-63.8	3.8	1.49e+00	0	41	104	0	72	16707
2026-01-20 09:14:46.26	350.36	6.76	-50.5	-63.7	3.8	1.49e+00	0	42	104	0	72	16681
2026-01-20 09:14:47.26	350.31	6.69	-50.5	-63.7	3.8	1.49e+00	0	42	104	0	72	16650
2026-01-20 09:14:48.25	350.26	6.62	-50.4	-63.7	3.8	1.49e+00	0	42	104	0	72	16648
2026-01-20 09:14:49.25	350.21	6.55	-50.4	-63.7	3.8	1.49e+00	0	42	104	0	72	16596
2026-01-20 09:14:50.24	350.17	6.48	-50.4	-63.7	3.8	1.49e+00	0	42	104	0	72	16665
2026-01-20 09:14:51.24	350.12	6.41	-50.5	-63.7	3.8	1.49e+00	0	42	104	0	72	16647
2026-01-20 09:14:52.24	350.07	6.33	-50.5	-63.7	3.8	1.49e+00	0	42	104	0	72	16549
2026-01-20 09:14:53.23	350.02	6.26	-50.4	-63.7	3.8	1.49e+00	0	42	104	0	72	16612
2026-01-20 09:14:54.24	349.97	6.19	-50.5	-63.7	3.8	1.49e+00	0	42	104	0	72	16639
2026-01-20 09:14:55.23	349.93	6.12	-50.4	-63.7	3.8	1.49e+00	0	42	104	0	72	16594
2026-01-20 09:14:56.23	349.88	6.05	-50.5	-63.7	3.8	1.49e+00	0	42	104	0	72	16655
2026-01-20 09:14:57.23	349.83	5.98	-50.4	-63.7	3.8	1.49e+00	0	42	104	0	72	16600
2026-01-20 09:14:58.22	349.79	5.91	-50.4	-63.7	3.8	1.49e+00	0	42	104	0	72	16619
2026-01-20 09:14:59.22	349.74	5.84	-50.4	-63.7	3.8	1.49e+00	0	42	104	0	72	16580
2026-01-20 09:15:00.22	349.69	5.77	-50.4	-63.7	3.8	1.49e+00	0	42	104	0	72	16590
2026-01-20 09:15:01.21	349.65	5.70	-50.4	-63.7	3.8	1.49e+00	0	42	104	0	72	16555
2026-01-20 09:15:02.21	349.60	5.63	-50.4	-63.7	3.8	1.49e+00	0	42	104	0	72	16572
2026-01-20 09:15:03.21	349.56	5.56	-50.4	-63.7	3.8	1.49e+00	0	42	104	0	72	16597
2026-01-20 09:15:04.20	349.51	5.49	-50.4	-63.7	3.8	1.49e+00	0	42	104	0	72	16574
2026-01-20 09:15:05.20	349.47	5.43	-50.4	-63.7	3.8	1.49e+00	0	42	104	0	72	16573
2026-01-20 09:15:06.20	349.42	5.36	-50.4	-63.7	3.8	1.49e+00	0	42	104	0	72	16580
2026-01-20 09:15:07.19	349.38	5.29	-50.4	-63.7	3.8	1.49e+00	0	42	104	0	72	16564
2026-01-20 09:15:08.19	349.33	5.22	-50.4	-63.7	3.8	1.49e+00	0	42	104	0	72	16552
2026-01-20 09:15:09.18	349.29	5.15	-50.4	-63.7	3.8	1.49e+00	0	42	104	0	72	16608
2026-01-20 09:15:10.18	349.25	5.08	-50.4	-63.7	3.8	1.49e+00	0	42	104	0	72	16537
2026-01-20 09:15:11.17	349.20	5.02	-50.4	-63.7	3.8	1.49e+00	0	42	104	0	72	16555
2026-01-20 09:15:12.17	349.16	4.95	-50.4	-63.7	3.8	1.49e+00	0	42	104	0	72	16574

#Closed at: 2026-01-20 09:15:13
#Recorded file [0 MB]: D:/Data/31040_260120_120254.dat