passes_logs/2026/01/20/T1/T1__20260120_093213_SUOMI_NPP_rec.log

#Pass ID: 20260120_093213_SUOMI NPP
#Satellite: SUOMI NPP
#Configuration: NPP
#almurnet v.1.7.20251203
#Start time: 2026-01-20 09:32:14

#Version: 2.0.20230620
#Station: T1
#Location: 37.570604 lon 55.790049 lat
#TLE: 1 37849U 11061A   26019.61507914  .00000076  00000+0  57195-4 0  9994
#TLE: 2 37849  98.7817 321.6240 0002347  55.5899 304.5499 14.19526391737369

#Time	Az	El	Level	Level2	SNR	BER	BlckErr	Temp	State	Recorded	gain1	gain2
2026-01-20 09:32:14.10	145.64	5.05	-49.5	-64.7	3.8	1.49e+00	0	39	0	0	71	19675
2026-01-20 09:32:15.08	145.62	5.12	-49.5	-64.5	3.8	1.49e+00	0	40	104	0	71	19365
2026-01-20 09:32:16.08	145.60	5.19	-49.5	-64.6	3.8	1.49e+00	0	40	104	0	71	19440
2026-01-20 09:32:17.08	145.57	5.26	-49.5	-64.6	3.8	1.49e+00	0	40	104	0	71	19475
2026-01-20 09:32:18.07	145.55	5.33	-49.5	-64.6	3.8	1.49e+00	0	40	104	0	71	19453
2026-01-20 09:32:19.07	145.52	5.41	-49.5	-64.6	3.8	1.49e+00	0	40	104	0	71	19476
2026-01-20 09:32:20.06	145.50	5.48	-49.5	-64.6	3.8	1.49e+00	0	40	104	0	71	19496
2026-01-20 09:32:21.05	145.48	5.55	-49.5	-64.5	3.8	1.49e+00	0	40	104	0	71	19261
2026-01-20 09:32:22.05	145.45	5.62	-49.5	-64.3	3.8	1.49e+00	0	40	104	0	71	18920
2026-01-20 09:32:23.05	145.43	5.69	-49.5	-64.3	3.8	1.49e+00	0	40	104	0	71	18754
2026-01-20 09:32:24.04	145.40	5.77	-49.5	-64.1	3.8	1.49e+00	0	40	104	0	71	18377
2026-01-20 09:32:25.04	145.38	5.84	-49.5	-63.9	3.8	1.49e+00	0	40	104	0	70	19039
2026-01-20 09:32:26.04	145.35	5.91	-49.5	-63.7	3.8	1.49e+00	0	40	104	0	70	18639
2026-01-20 09:32:27.03	145.33	5.98	-49.4	-63.6	3.8	1.49e+00	0	40	104	0	70	18334
2026-01-20 09:32:28.03	145.30	6.06	-49.5	-63.5	3.8	1.49e+00	0	40	104	0	70	18229
2026-01-20 09:32:29.02	145.28	6.13	-49.4	-63.5	3.8	1.49e+00	0	40	104	0	70	18196
2026-01-20 09:32:30.02	145.25	6.21	-49.4	-63.6	3.8	1.49e+00	0	40	104	0	70	18340
2026-01-20 09:32:31.01	145.22	6.28	-49.5	-63.8	3.8	1.49e+00	0	41	104	0	70	18830
2026-01-20 09:32:32.01	145.20	6.35	-49.5	-64.1	3.8	1.49e+00	0	40	104	0	70	19567
2026-01-20 09:32:33.00	145.17	6.43	-49.5	-64.4	3.8	1.49e+00	0	40	104	0	70	20158
2026-01-20 09:32:34.00	145.15	6.50	-49.5	-64.7	3.8	1.49e+00	0	40	104	0	70	20978
2026-01-20 09:32:35.00	145.12	6.58	-49.5	-65.0	3.8	1.49e+00	0	40	104	0	70	21540
2026-01-20 09:32:35.99	145.09	6.65	-49.5	-65.0	3.8	1.49e+00	0	40	104	0	70	21708
2026-01-20 09:32:36.99	145.07	6.73	-49.5	-65.0	3.8	1.49e+00	0	40	104	0	70	21701
2026-01-20 09:32:37.98	145.04	6.80	-49.5	-64.7	3.8	1.49e+00	0	40	104	0	70	20953
2026-01-20 09:32:38.98	145.01	6.88	-49.5	-64.3	3.8	1.49e+00	0	41	104	0	70	20017
2026-01-20 09:32:39.97	144.99	6.95	-49.5	-63.8	3.8	1.49e+00	0	41	104	0	70	18899
2026-01-20 09:32:40.97	144.96	7.03	-49.4	-63.3	3.8	1.49e+00	0	41	104	0	70	17833
2026-01-20 09:32:41.96	144.93	7.11	-49.4	-62.8	3.9	1.49e+00	0	41	104	0	70	16732
2026-01-20 09:32:42.96	144.90	7.18	-49.4	-62.1	4.1	1.47e+00	0	41	0	0	70	15462
2026-01-20 09:32:43.96	144.88	7.26	-49.3	-61.3	4.2	1.41e+00	0	41	0	0	70	14183
2026-01-20 09:32:44.95	144.85	7.34	-49.2	-60.4	4.6	1.22e+00	0	41	0	1048576	70	12674
2026-01-20 09:32:45.95	144.82	7.41	-49.0	-58.9	5.3	8.19e-01	0	41	0	3145728	70	10707
2026-01-20 09:32:46.94	144.79	7.49	-48.8	-57.5	6.3	3.37e-01	0	41	0	4194304	69	9671
2026-01-20 09:32:47.94	144.76	7.57	-48.5	-56.1	7.5	1.44e-01	0	41	0	6291456	69	8212
2026-01-20 09:32:48.93	144.73	7.65	-48.1	-54.5	9.1	4.62e-02	0	41	0	8388608	68	7279
2026-01-20 09:32:49.93	144.71	7.73	-47.4	-52.9	10.6	1.23e-02	0	41	0	10485760	66	6797
2026-01-20 09:32:50.92	144.68	7.80	-46.9	-51.7	11.8	1.27e-03	0	41	0	11534336	65	6264
2026-01-20 09:32:51.92	144.65	7.88	-46.3	-50.6	13.0	1.22e-04	0	41	0	13631488	64	5813
2026-01-20 09:32:52.92	144.62	7.96	-45.9	-49.7	14.1	1.29e-05	0	41	0	15728640	63	5557
2026-01-20 09:32:53.91	144.59	8.04	-45.4	-49.0	14.7	7.00e-07	0	41	0	17825792	62	5432
2026-01-20 09:32:54.91	144.56	8.12	-45.1	-48.4	15.3	0.00e+00	0	41	0	19922944	62	5092
2026-01-20 09:32:55.90	144.53	8.20	-44.8	-48.0	15.7	0.00e+00	0	41	0	20971520	61	5136
2026-01-20 09:32:56.90	144.50	8.28	-44.6	-47.8	15.9	0.00e+00	0	41	0	23068672	61	4995
2026-01-20 09:32:57.89	144.47	8.36	-44.7	-47.8	15.8	0.00e+00	0	41	0	25165824	61	5011
2026-01-20 09:32:58.89	144.44	8.44	-44.8	-47.9	15.7	0.00e+00	0	41	0	27262976	61	5100
2026-01-20 09:32:59.88	144.41	8.52	-45.0	-48.3	15.3	0.00e+00	0	41	0	28311552	61	5327
2026-01-20 09:33:00.88	144.38	8.60	-45.4	-48.9	14.7	0.00e+00	0	41	0	30408704	61	5699
2026-01-20 09:33:01.87	144.35	8.68	-45.9	-49.8	13.9	1.50e-06	0	41	0	32505856	62	5949
2026-01-20 09:33:02.87	144.32	8.76	-46.5	-50.8	12.9	1.29e-05	0	41	0	34603008	63	6305
2026-01-20 09:33:03.86	144.29	8.84	-47.0	-52.1	11.5	1.50e-04	0	41	0	36700160	64	6883
2026-01-20 09:33:04.86	144.25	8.93	-47.6	-53.4	10.1	3.33e-03	0	41	0	37748736	65	7609
2026-01-20 09:33:05.85	144.22	9.01	-48.1	-54.9	8.6	2.19e-02	0	41	0	39845888	66	8536
2026-01-20 09:33:06.86	144.19	9.09	-47.7	-54.0	9.5	4.83e-02	0	41	0	41943040	67	7238
2026-01-20 09:33:07.85	144.16	9.17	-48.6	-57.8	6.1	1.63e-01	0	41	0	44040192	67	11182
2026-01-20 09:33:08.86	144.13	9.26	-48.3	-55.7	7.9	1.10e-01	0	41	0	46137344	67	8777
2026-01-20 09:33:09.86	144.09	9.34	-45.3	-48.8	14.9	2.11e-02	0	42	0	47185920	62	5313
2026-01-20 09:33:10.86	144.06	9.43	-49.5	-63.2	3.8	6.32e-04	0	41	104	49283072	69	18639
2026-01-20 09:33:11.86	144.03	9.51	-45.8	-49.5	14.0	6.97e-01	0	41	0	49283072	63	5429
2026-01-20 09:33:12.86	144.00	9.59	-44.7	-47.8	16.0	0.00e+00	0	41	0	50331648	61	5006
2026-01-20 09:33:13.87	143.96	9.68	-44.2	-47.1	16.7	0.00e+00	0	42	0	52428800	60	4883
2026-01-20 09:33:14.87	143.93	9.76	-44.1	-47.1	16.7	0.00e+00	0	42	0	54525952	60	4880
2026-01-20 09:33:15.87	143.89	9.85	-44.2	-47.2	16.7	0.00e+00	0	41	0	56623104	60	4935
2026-01-20 09:33:16.87	143.86	9.94	-44.2	-47.1	16.7	0.00e+00	0	42	0	58720256	60	4922
2026-01-20 09:33:17.87	143.83	10.02	-44.3	-47.4	16.4	0.00e+00	0	41	0	59768832	60	5064
2026-01-20 09:33:18.87	143.79	10.11	-44.3	-47.3	16.5	0.00e+00	0	42	0	61865984	60	5024
2026-01-20 09:33:19.88	143.76	10.19	-44.2	-47.1	16.7	0.00e+00	0	41	0	63963136	60	4915
2026-01-20 09:33:20.87	143.72	10.28	-44.3	-47.3	16.5	0.00e+00	0	42	0	66060288	60	5013
2026-01-20 09:33:21.88	143.69	10.37	-44.1	-47.0	16.8	0.00e+00	0	42	0	67108864	60	4866
2026-01-20 09:33:22.88	143.65	10.46	-44.0	-46.8	17.0	0.00e+00	0	42	0	69206016	59	5002
2026-01-20 09:33:23.88	143.62	10.54	-43.9	-46.7	17.0	0.00e+00	0	42	0	71303168	59	4970
2026-01-20 09:33:24.88	143.58	10.63	-44.0	-46.8	17.0	0.00e+00	0	42	0	73400320	59	5002
2026-01-20 09:33:25.88	143.54	10.72	-43.6	-46.3	17.5	0.00e+00	0	42	0	75497472	59	4716
2026-01-20 09:33:26.88	143.51	10.81	-43.5	-46.1	17.7	0.00e+00	0	41	0	76546048	58	4874
2026-01-20 09:33:27.88	143.47	10.90	-43.5	-46.0	17.7	0.00e+00	0	42	0	78643200	58	4864
2026-01-20 09:33:28.88	143.44	10.99	-43.3	-45.8	17.9	0.00e+00	0	42	0	80740352	58	4743
2026-01-20 09:33:29.88	143.40	11.07	-43.2	-45.7	18.0	0.00e+00	0	42	0	82837504	58	4686
2026-01-20 09:33:30.89	143.36	11.17	-43.2	-45.6	18.1	0.00e+00	0	42	0	84934656	58	4647
2026-01-20 09:33:31.89	143.32	11.26	-43.2	-45.7	18.0	0.00e+00	0	42	0	85983232	58	4697
2026-01-20 09:33:32.89	143.29	11.35	-43.2	-45.7	18.0	0.00e+00	0	42	0	88080384	58	4679
2026-01-20 09:33:33.89	143.25	11.44	-43.2	-45.7	18.0	0.00e+00	0	42	0	90177536	58	4692
2026-01-20 09:33:34.89	143.21	11.53	-43.5	-46.1	17.7	0.00e+00	0	42	0	92274688	58	4883
2026-01-20 09:33:35.90	143.17	11.62	-43.2	-45.7	18.0	0.00e+00	0	42	0	93323264	58	4689
2026-01-20 09:33:36.90	143.13	11.71	-43.4	-46.0	17.8	0.00e+00	0	42	0	95420416	58	4835
2026-01-20 09:33:37.90	143.09	11.80	-43.6	-46.2	17.6	0.00e+00	0	42	0	97517568	58	4950
2026-01-20 09:33:38.90	143.05	11.90	-43.5	-46.1	17.6	0.00e+00	0	42	0	99614720	58	4910
2026-01-20 09:33:39.90	143.02	11.99	-43.6	-46.2	17.6	0.00e+00	0	42	0	101711872	58	4969
2026-01-20 09:33:40.90	142.98	12.08	-43.6	-46.2	17.6	0.00e+00	0	42	0	103809024	58	4964
2026-01-20 09:33:41.90	142.94	12.17	-43.6	-46.3	17.6	0.00e+00	0	42	0	104857600	58	4988
2026-01-20 09:33:42.90	142.90	12.27	-43.5	-46.1	17.7	0.00e+00	0	42	0	106954752	58	4892
2026-01-20 09:33:43.90	142.85	12.36	-43.5	-46.1	17.7	0.00e+00	0	42	0	109051904	58	4873
2026-01-20 09:33:44.90	142.81	12.46	-43.5	-46.1	17.7	0.00e+00	0	42	0	111149056	58	4889
2026-01-20 09:33:45.91	142.77	12.55	-43.4	-45.9	17.9	0.00e+00	0	42	0	112197632	58	4811
2026-01-20 09:33:46.91	142.73	12.65	-43.2	-45.6	18.1	0.00e+00	0	42	0	114294784	58	4642
2026-01-20 09:33:47.91	142.69	12.74	-43.2	-45.8	18.0	0.00e+00	0	42	0	116391936	58	4713
2026-01-20 09:33:48.91	142.65	12.84	-43.0	-45.5	18.3	0.00e+00	0	42	0	118489088	58	4560
2026-01-20 09:33:49.92	142.60	12.94	-42.9	-45.3	18.4	0.00e+00	0	42	0	120586240	57	4740
2026-01-20 09:33:50.92	142.56	13.03	-42.8	-45.2	18.6	0.00e+00	0	42	0	121634816	57	4658
2026-01-20 09:33:51.92	142.52	13.13	-42.6	-44.9	18.8	0.00e+00	0	42	0	123731968	57	4533
2026-01-20 09:33:52.92	142.48	13.23	-42.6	-44.9	18.8	0.00e+00	0	42	0	125829120	57	4497
2026-01-20 09:33:53.92	142.43	13.32	-42.4	-44.7	19.1	0.00e+00	0	42	0	127926272	56	4659
2026-01-20 09:33:54.92	142.39	13.42	-42.5	-44.7	19.0	0.00e+00	0	42	0	130023424	56	4690
2026-01-20 09:33:55.92	142.35	13.52	-42.4	-44.6	19.1	0.00e+00	0	42	0	131072000	56	4629
2026-01-20 09:33:56.92	142.30	13.62	-42.3	-44.6	19.1	0.00e+00	0	42	0	133169152	56	4622
2026-01-20 09:33:57.92	142.26	13.72	-42.6	-44.9	18.8	0.00e+00	0	42	0	135266304	56	4786
2026-01-20 09:33:58.92	142.21	13.82	-42.7	-45.0	18.7	0.00e+00	0	42	0	137363456	56	4863
2026-01-20 09:33:59.92	142.17	13.92	-42.8	-45.2	18.5	0.00e+00	0	42	0	138412032	56	4959
2026-01-20 09:34:00.92	142.12	14.02	-43.2	-45.8	18.0	0.00e+00	0	42	0	140509184	57	4985
2026-01-20 09:34:01.93	142.07	14.12	-43.3	-45.9	17.9	0.00e+00	0	42	0	142606336	57	5078
2026-01-20 09:34:02.93	142.03	14.22	-43.5	-46.2	17.7	0.00e+00	0	42	0	144703488	57	5256
2026-01-20 09:34:03.93	141.98	14.32	-43.7	-46.5	17.4	0.00e+00	0	42	0	146800640	58	5124
2026-01-20 09:34:04.93	141.93	14.42	-43.7	-46.5	17.4	0.00e+00	0	42	0	147849216	58	5125
2026-01-20 09:34:05.93	141.89	14.53	-43.5	-46.2	17.7	0.00e+00	0	42	0	149946368	58	4942
2026-01-20 09:34:06.93	141.84	14.63	-43.3	-45.8	18.0	0.00e+00	0	42	0	152043520	58	4737
2026-01-20 09:34:07.94	141.79	14.73	-42.8	-45.2	18.6	0.00e+00	0	42	0	154140672	57	4693
2026-01-20 09:34:08.93	141.74	14.84	-42.5	-44.9	18.9	0.00e+00	0	42	0	156237824	57	4505
2026-01-20 09:34:09.94	141.69	14.94	-42.2	-44.5	19.3	0.00e+00	0	42	0	157286400	56	4555
2026-01-20 09:34:10.94	141.65	15.05	-41.8	-44.0	19.5	0.00e+00	0	42	0	159383552	55	4547
2026-01-20 09:34:11.94	141.60	15.15	-41.5	-43.6	19.9	0.00e+00	0	42	0	161480704	55	4371
2026-01-20 09:34:12.94	141.55	15.26	-41.5	-43.6	19.8	0.00e+00	0	42	0	163577856	54	4645
2026-01-20 09:34:13.94	141.50	15.36	-41.7	-43.8	19.7	0.00e+00	0	42	0	165675008	54	4717
2026-01-20 09:34:14.94	141.45	15.47	-41.8	-44.0	19.5	0.00e+00	0	42	0	166723584	54	4840
2026-01-20 09:34:15.95	141.39	15.58	-42.1	-44.3	19.2	0.00e+00	0	42	0	168820736	54	5002
2026-01-20 09:34:16.95	141.34	15.68	-42.6	-44.9	18.7	0.00e+00	0	42	0	170917888	55	5086
2026-01-20 09:34:17.95	141.29	15.79	-43.1	-45.6	18.2	0.00e+00	0	42	0	173015040	56	5207
2026-01-20 09:34:18.95	141.24	15.90	-43.5	-46.1	17.8	0.00e+00	0	42	0	175112192	57	5182
2026-01-20 09:34:19.96	141.19	16.01	-43.6	-46.2	17.7	0.00e+00	0	42	0	176160768	57	5246
2026-01-20 09:34:20.96	141.13	16.12	-43.3	-45.9	18.0	0.00e+00	0	42	0	178257920	57	5052
2026-01-20 09:34:21.96	141.08	16.23	-43.1	-45.6	18.3	0.00e+00	0	42	0	180355072	57	4888
2026-01-20 09:34:22.96	141.03	16.34	-42.6	-44.9	18.9	0.00e+00	0	42	0	182452224	57	4508
2026-01-20 09:34:23.96	140.97	16.45	-42.1	-44.2	19.5	0.00e+00	0	42	0	183500800	56	4415
2026-01-20 09:34:24.96	140.92	16.56	-41.7	-43.8	19.7	0.00e+00	0	42	0	185597952	55	4477
2026-01-20 09:34:25.97	140.86	16.67	-41.5	-43.5	19.9	0.00e+00	0	42	0	187695104	55	4335
2026-01-20 09:34:26.97	140.81	16.78	-41.4	-43.5	20.0	0.00e+00	0	42	0	189792256	54	4561
2026-01-20 09:34:27.97	140.75	16.89	-41.5	-43.6	19.9	0.00e+00	0	42	0	191889408	54	4599
2026-01-20 09:34:28.97	140.70	17.01	-41.7	-43.8	19.7	0.00e+00	0	42	0	192937984	54	4737
2026-01-20 09:34:29.97	140.64	17.12	-42.2	-44.5	19.1	0.00e+00	0	42	0	195035136	55	4844
2026-01-20 09:34:30.98	140.58	17.23	-42.6	-45.0	18.7	0.00e+00	0	42	0	197132288	55	5101
2026-01-20 09:34:31.98	140.52	17.35	-43.2	-45.7	18.2	0.00e+00	0	42	0	199229440	57	4947
2026-01-20 09:34:32.97	140.47	17.46	-43.8	-46.5	17.5	0.00e+00	0	42	0	201326592	58	5154
2026-01-20 09:34:33.97	140.41	17.58	-43.8	-46.6	17.5	0.00e+00	0	42	0	202375168	58	5182
2026-01-20 09:34:34.98	140.35	17.69	-43.8	-46.6	17.5	0.00e+00	0	42	0	204472320	58	5182
2026-01-20 09:34:35.98	140.29	17.81	-43.3	-45.9	18.0	0.00e+00	0	42	0	206569472	58	4779
2026-01-20 09:34:36.98	140.23	17.93	-42.8	-45.1	18.7	0.00e+00	0	42	0	208666624	57	4638
2026-01-20 09:34:37.98	140.17	18.05	-42.5	-44.7	19.1	0.00e+00	0	42	0	210763776	56	4695
2026-01-20 09:34:38.98	140.11	18.16	-42.2	-44.4	19.3	0.00e+00	0	42	0	211812352	56	4539
2026-01-20 09:34:39.98	140.05	18.28	-41.7	-43.7	19.8	0.00e+00	0	42	0	213909504	55	4436
2026-01-20 09:34:40.98	139.98	18.40	-41.6	-43.7	19.8	0.00e+00	0	42	0	216006656	55	4406
2026-01-20 09:34:41.98	139.92	18.52	-41.9	-44.1	19.4	0.00e+00	0	42	0	218103808	55	4636
2026-01-20 09:34:42.98	139.86	18.64	-42.4	-44.7	18.9	0.00e+00	0	42	0	219152384	55	4961
2026-01-20 09:34:43.98	139.80	18.76	-42.5	-45.0	18.7	0.00e+00	0	42	0	221249536	55	5104
2026-01-20 09:34:44.98	139.73	18.88	-43.2	-45.8	18.1	0.00e+00	0	42	0	223346688	57	5031
2026-01-20 09:34:45.98	139.67	19.00	-43.7	-46.3	17.7	0.00e+00	0	42	0	225443840	57	5316
2026-01-20 09:34:46.99	139.60	19.13	-43.5	-46.2	17.8	0.00e+00	0	42	0	227540992	58	4942
2026-01-20 09:34:47.99	139.54	19.25	-43.4	-45.9	18.1	0.00e+00	0	42	0	228589568	58	4783
2026-01-20 09:34:48.99	139.47	19.37	-43.2	-45.6	18.3	0.00e+00	0	42	0	230686720	58	4635
2026-01-20 09:34:49.99	139.40	19.50	-42.8	-45.1	18.8	0.00e+00	0	42	0	232783872	57	4649
2026-01-20 09:34:50.99	139.34	19.62	-42.6	-44.9	19.0	0.00e+00	0	42	0	234881024	56	4765
2026-01-20 09:34:51.99	139.27	19.75	-42.5	-44.7	19.2	0.00e+00	0	42	0	236978176	56	4673
2026-01-20 09:34:52.99	139.20	19.87	-42.4	-44.7	19.2	0.00e+00	0	42	0	238026752	56	4654
2026-01-20 09:34:53.99	139.13	20.00	-42.5	-44.8	19.1	0.00e+00	0	42	0	240123904	56	4740
2026-01-20 09:34:54.99	139.06	20.12	-42.8	-45.1	18.8	0.00e+00	0	42	0	242221056	56	4908
2026-01-20 09:34:55.99	138.99	20.25	-42.9	-45.3	18.7	0.00e+00	0	42	0	244318208	56	4989
2026-01-20 09:34:56.99	138.92	20.38	-43.2	-45.7	18.3	0.00e+00	0	42	0	246415360	57	4949
2026-01-20 09:34:57.99	138.85	20.51	-43.1	-45.4	18.5	0.00e+00	0	42	0	247463936	57	4812
2026-01-20 09:34:58.99	138.78	20.64	-42.9	-45.2	18.7	0.00e+00	0	42	0	249561088	57	4691
2026-01-20 09:34:59.99	138.71	20.77	-42.8	-45.0	18.9	0.00e+00	0	42	0	251658240	57	4574
2026-01-20 09:35:00.99	138.63	20.90	-42.5	-44.6	19.2	0.00e+00	0	42	0	253755392	56	4630
2026-01-20 09:35:01.99	138.56	21.03	-42.3	-44.4	19.4	0.00e+00	0	42	0	254803968	56	4545
2026-01-20 09:35:02.99	138.48	21.16	-42.3	-44.4	19.4	0.00e+00	0	42	0	256901120	56	4506
2026-01-20 09:35:03.99	138.41	21.29	-42.4	-44.6	19.3	0.00e+00	0	42	0	258998272	56	4626
2026-01-20 09:35:05.00	138.33	21.43	-42.9	-45.2	18.6	0.00e+00	0	42	0	261095424	56	4979
2026-01-20 09:35:06.00	138.26	21.56	-43.2	-45.6	18.4	0.00e+00	0	42	0	263192576	57	4878
2026-01-20 09:35:07.00	138.18	21.70	-43.7	-46.3	17.7	0.00e+00	0	42	0	264241152	58	5001
2026-01-20 09:35:08.01	138.10	21.83	-43.9	-46.5	17.5	0.00e+00	0	42	0	266338304	58	5158
2026-01-20 09:35:09.01	138.02	21.97	-44.0	-46.6	17.5	0.00e+00	0	42	0	268435456	58	5211
2026-01-20 09:35:10.01	137.94	22.11	-44.1	-46.8	17.3	0.00e+00	0	43	0	270532608	58	5322
2026-01-20 09:35:11.01	137.86	22.24	-43.8	-46.4	17.7	0.00e+00	0	42	0	272629760	58	5064
2026-01-20 09:35:12.01	137.78	22.38	-43.2	-45.5	18.5	0.00e+00	0	42	0	273678336	58	4588
2026-01-20 09:35:13.01	137.70	22.52	-43.4	-45.9	18.2	0.00e+00	0	42	0	275775488	58	4762
2026-01-20 09:35:14.02	137.62	22.66	-43.4	-45.8	18.3	0.00e+00	0	42	0	277872640	58	4706
2026-01-20 09:35:15.02	137.53	22.80	-43.2	-45.5	18.4	0.00e+00	0	42	0	279969792	57	4868
2026-01-20 09:35:16.01	137.45	22.94	-43.4	-45.9	18.2	0.00e+00	0	42	0	282066944	57	5046
2026-01-20 09:35:17.01	137.36	23.08	-44.0	-46.6	17.4	0.00e+00	0	42	0	283115520	58	5217
2026-01-20 09:35:18.01	137.28	23.22	-44.1	-46.7	17.4	0.00e+00	0	42	0	285212672	58	5253
2026-01-20 09:35:19.01	137.19	23.36	-44.1	-46.8	17.2	0.00e+00	0	42	0	287309824	59	5034
2026-01-20 09:35:20.02	137.11	23.51	-44.0	-46.6	17.5	0.00e+00	0	42	0	289406976	59	4912
2026-01-20 09:35:21.01	137.02	23.65	-43.8	-46.4	17.6	0.00e+00	0	42	0	291504128	59	4770
2026-01-20 09:35:22.02	136.93	23.80	-43.5	-46.0	18.0	0.00e+00	0	42	0	292552704	59	4570
2026-01-20 09:35:23.02	136.84	23.94	-43.3	-45.7	18.3	0.00e+00	0	42	0	294649856	58	4684
2026-01-20 09:35:24.02	136.75	24.09	-43.4	-45.7	18.3	0.00e+00	0	42	0	296747008	58	4683
2026-01-20 09:35:25.02	136.66	24.24	-43.8	-46.3	17.7	0.00e+00	0	42	0	298844160	58	5041
2026-01-20 09:35:26.02	136.57	24.38	-43.9	-46.5	17.6	0.00e+00	0	42	0	299892736	58	5113
2026-01-20 09:35:27.02	136.47	24.53	-44.3	-47.0	17.2	0.00e+00	0	42	0	301989888	59	5118
2026-01-20 09:35:28.03	136.38	24.68	-44.4	-47.2	17.0	0.00e+00	0	42	0	304087040	59	5227
2026-01-20 09:35:29.03	136.28	24.83	-44.5	-47.3	16.9	0.00e+00	0	42	0	306184192	59	5284
2026-01-20 09:35:30.03	136.19	24.98	-44.3	-47.1	17.1	0.00e+00	0	42	0	308281344	60	4885
2026-01-20 09:35:31.03	136.09	25.14	-44.2	-47.0	17.2	0.00e+00	0	42	0	309329920	60	4823
2026-01-20 09:35:32.03	135.99	25.29	-44.0	-46.6	17.5	0.00e+00	0	42	0	311427072	59	4902
2026-01-20 09:35:33.03	135.89	25.44	-43.7	-46.2	17.8	0.00e+00	0	42	0	313524224	59	4684
2026-01-20 09:35:34.03	135.79	25.60	-43.6	-46.1	17.9	0.00e+00	0	42	0	315621376	59	4643
2026-01-20 09:35:35.04	135.69	25.75	-43.9	-46.5	17.6	0.00e+00	0	42	0	317718528	59	4825
2026-01-20 09:35:36.04	135.59	25.91	-44.0	-46.6	17.5	0.00e+00	0	42	0	318767104	59	4911
2026-01-20 09:35:37.03	135.49	26.06	-44.2	-46.9	17.3	0.00e+00	0	42	0	320864256	59	5053
2026-01-20 09:35:38.04	135.38	26.22	-44.3	-46.9	17.2	0.00e+00	0	42	0	322961408	59	5086
2026-01-20 09:35:39.04	135.28	26.38	-44.3	-47.0	17.2	0.00e+00	0	42	0	325058560	59	5124
2026-01-20 09:35:40.04	135.17	26.54	-43.9	-46.5	17.6	0.00e+00	0	42	0	326107136	59	4835
2026-01-20 09:35:41.04	135.07	26.70	-44.1	-46.7	17.4	0.00e+00	0	42	0	328204288	59	4954
2026-01-20 09:35:42.04	134.96	26.86	-44.1	-46.6	17.5	0.00e+00	0	42	0	330301440	59	4925
2026-01-20 09:35:43.04	134.85	27.02	-44.2	-46.8	17.3	0.00e+00	0	42	0	332398592	59	5015
2026-01-20 09:35:44.04	134.74	27.18	-44.4	-47.1	17.1	0.00e+00	0	42	0	334495744	59	5194
2026-01-20 09:35:45.04	134.63	27.35	-44.6	-47.3	16.8	0.00e+00	0	42	0	335544320	59	5328
2026-01-20 09:35:46.04	134.51	27.51	-44.5	-47.2	17.0	0.00e+00	0	42	0	337641472	59	5224
2026-01-20 09:35:47.04	134.40	27.67	-44.3	-46.9	17.2	0.00e+00	0	42	0	339738624	59	5073
2026-01-20 09:35:48.04	134.29	27.84	-44.3	-46.9	17.2	0.00e+00	0	42	0	341835776	59	5075
2026-01-20 09:35:49.05	134.17	28.01	-44.0	-46.5	17.4	0.00e+00	0	42	0	343932928	59	4840
2026-01-20 09:35:50.05	134.05	28.17	-44.1	-46.8	17.4	0.00e+00	0	43	0	344981504	59	4987
2026-01-20 09:35:51.05	133.93	28.34	-44.2	-46.8	17.4	0.00e+00	0	43	0	347078656	59	4999
2026-01-20 09:35:52.05	133.81	28.51	-44.6	-47.4	16.8	0.00e+00	0	43	0	349175808	59	5357
2026-01-20 09:35:53.05	133.69	28.68	-45.0	-47.9	16.4	0.00e+00	0	42	0	351272960	60	5378
2026-01-20 09:35:54.05	133.57	28.85	-45.3	-48.3	15.9	0.00e+00	0	42	0	353370112	61	5340
2026-01-20 09:35:55.05	133.44	29.02	-45.2	-48.2	16.1	0.00e+00	0	42	0	354418688	61	5248
2026-01-20 09:35:56.05	133.32	29.20	-45.2	-48.2	16.1	0.00e+00	0	42	0	356515840	61	5250
2026-01-20 09:35:57.05	133.19	29.37	-44.6	-47.3	16.9	0.00e+00	0	43	0	358612992	61	4747
2026-01-20 09:35:58.05	133.06	29.55	-44.5	-47.2	17.1	0.00e+00	0	42	0	360710144	60	4974
2026-01-20 09:35:59.06	132.93	29.72	-44.5	-47.2	17.1	0.00e+00	0	42	0	362807296	60	4939
2026-01-20 09:36:00.05	132.80	29.90	-44.5	-47.3	17.0	0.00e+00	0	42	0	363855872	60	4985
2026-01-20 09:36:01.06	132.67	30.08	-44.5	-47.3	17.0	0.00e+00	0	43	0	365953024	60	4985
2026-01-20 09:36:02.06	132.53	30.25	-44.3	-47.1	17.1	0.00e+00	0	42	0	368050176	60	4887
2026-01-20 09:36:03.06	132.40	30.43	-44.4	-47.3	17.0	0.00e+00	0	42	0	370147328	60	5018
2026-01-20 09:36:04.06	132.26	30.61	-44.3	-47.2	17.0	0.00e+00	0	42	0	371195904	60	4943
2026-01-20 09:36:05.06	132.12	30.79	-43.6	-46.2	17.9	0.00e+00	0	42	0	373293056	59	4659
2026-01-20 09:36:06.06	131.98	30.98	-44.0	-46.7	17.5	0.00e+00	0	42	0	375390208	59	4949
2026-01-20 09:36:07.06	131.84	31.16	-44.0	-46.6	17.5	0.00e+00	0	42	0	377487360	59	4913
2026-01-20 09:36:08.06	131.70	31.34	-44.1	-46.7	17.5	0.00e+00	0	42	0	379584512	59	4971
2026-01-20 09:36:09.05	131.55	31.53	-44.3	-47.0	17.1	0.00e+00	0	42	0	380633088	59	5157
2026-01-20 09:36:10.06	131.40	31.71	-44.3	-47.0	17.3	0.00e+00	0	42	0	382730240	59	5138
2026-01-20 09:36:11.06	131.26	31.90	-44.1	-46.7	17.5	0.00e+00	0	43	0	384827392	59	4958
2026-01-20 09:36:12.06	131.11	32.09	-44.3	-46.9	17.2	0.00e+00	0	42	0	386924544	59	5069
2026-01-20 09:36:13.06	130.95	32.28	-44.0	-46.5	17.6	0.00e+00	0	42	0	389021696	59	4844
2026-01-20 09:36:14.06	130.80	32.47	-44.8	-47.7	16.6	0.00e+00	0	42	0	390070272	60	5238
2026-01-20 09:36:15.06	130.64	32.66	-45.3	-48.3	16.1	0.00e+00	0	42	0	392167424	61	5291
2026-01-20 09:36:16.06	130.49	32.85	-45.7	-48.9	15.5	0.00e+00	0	42	0	394264576	62	5382
2026-01-20 09:36:17.06	130.33	33.04	-45.9	-49.3	15.1	0.00e+00	0	42	0	396361728	62	5611
2026-01-20 09:36:18.06	130.16	33.23	-45.9	-49.3	15.2	0.00e+00	0	42	0	398458880	62	5603
2026-01-20 09:36:19.07	130.00	33.43	-45.4	-48.4	16.0	0.00e+00	0	42	0	399507456	62	5060
2026-01-20 09:36:20.07	129.83	33.63	-45.2	-48.1	16.2	0.00e+00	0	43	0	401604608	62	4889
2026-01-20 09:36:21.07	129.67	33.82	-45.0	-47.9	16.4	0.00e+00	0	43	0	403701760	62	4775
2026-01-20 09:36:22.07	129.50	34.02	-45.4	-48.4	15.9	0.00e+00	0	43	0	405798912	61	5385
2026-01-20 09:36:23.07	129.32	34.22	-45.3	-48.3	16.1	0.00e+00	0	42	0	406847488	61	5297
2026-01-20 09:36:24.07	129.15	34.42	-45.6	-48.7	15.7	0.00e+00	0	43	0	408944640	62	5265
2026-01-20 09:36:25.07	128.98	34.62	-45.7	-48.8	15.6	0.00e+00	0	42	0	411041792	62	5313
2026-01-20 09:36:26.07	128.80	34.82	-45.5	-48.5	16.0	0.00e+00	0	43	0	413138944	62	5144
2026-01-20 09:36:27.07	128.62	35.02	-45.4	-48.4	16.0	0.00e+00	0	42	0	415236096	62	5045
2026-01-20 09:36:28.07	128.43	35.22	-45.4	-48.4	15.9	0.00e+00	0	42	0	416284672	62	5090
2026-01-20 09:36:29.08	128.25	35.43	-45.5	-48.6	15.7	0.00e+00	0	43	0	418381824	62	5174
2026-01-20 09:36:30.08	128.06	35.63	-46.0	-49.3	15.0	0.00e+00	0	43	0	420478976	62	5643
2026-01-20 09:36:31.08	127.87	35.84	-46.0	-49.5	14.9	0.00e+00	0	43	0	422576128	63	5409
2026-01-20 09:36:32.08	127.68	36.05	-46.6	-50.4	14.2	1.50e-06	0	43	0	424673280	63	5996
2026-01-20 09:36:33.08	127.48	36.26	-46.9	-51.0	13.3	5.30e-06	0	43	0	425721856	64	6123
2026-01-20 09:36:34.08	127.29	36.46	-47.2	-51.6	12.8	2.13e-05	0	42	0	427819008	65	6149
2026-01-20 09:36:35.08	127.09	36.67	-47.4	-52.0	12.3	1.65e-04	0	42	0	429916160	65	6466
2026-01-20 09:36:36.08	126.88	36.89	-47.8	-52.8	11.6	2.81e-04	0	43	0	432013312	66	6712
2026-01-20 09:36:37.08	126.68	37.10	-47.2	-51.5	12.8	2.06e-04	0	42	0	433061888	66	5761
2026-01-20 09:36:38.08	126.47	37.31	-46.6	-50.4	13.9	2.21e-05	0	43	0	435159040	65	5352
2026-01-20 09:36:39.08	126.26	37.52	-46.0	-49.3	15.0	0.00e+00	0	42	0	437256192	63	5280
2026-01-20 09:36:40.09	126.04	37.74	-45.7	-48.9	15.4	0.00e+00	0	42	0	439353344	63	5048
2026-01-20 09:36:41.09	125.83	37.96	-45.6	-48.7	15.7	0.00e+00	0	42	0	441450496	63	4950
2026-01-20 09:36:42.09	125.61	38.17	-45.4	-48.3	16.1	0.00e+00	0	43	0	442499072	62	5034
2026-01-20 09:36:43.08	125.39	38.39	-45.4	-48.4	15.9	0.00e+00	0	43	0	444596224	62	5064
2026-01-20 09:36:44.08	125.16	38.61	-45.3	-48.3	16.1	0.00e+00	0	43	0	446693376	62	5000
2026-01-20 09:36:45.08	124.93	38.82	-45.6	-48.8	15.6	0.00e+00	0	43	0	448790528	62	5324
2026-01-20 09:36:46.09	124.70	39.05	-45.8	-49.1	15.3	0.00e+00	0	42	0	450887680	62	5492
2026-01-20 09:36:47.09	124.47	39.27	-46.1	-49.6	14.8	0.00e+00	0	42	0	451936256	62	5808
2026-01-20 09:36:48.09	124.23	39.49	-46.0	-49.4	14.9	0.00e+00	0	43	0	454033408	63	5374
2026-01-20 09:36:49.09	123.99	39.71	-45.7	-48.9	15.5	0.00e+00	0	42	0	456130560	63	5074
2026-01-20 09:36:50.09	123.74	39.93	-45.9	-49.2	15.2	0.00e+00	0	43	0	458227712	63	5223
2026-01-20 09:36:51.09	123.49	40.16	-46.3	-49.8	14.5	1.50e-06	0	43	0	460324864	64	5298
2026-01-20 09:36:52.09	123.24	40.38	-47.0	-51.1	13.2	3.80e-06	0	42	0	461373440	64	6138
2026-01-20 09:36:53.09	122.99	40.61	-47.2	-51.5	12.8	2.59e-05	0	42	0	463470592	65	6095
2026-01-20 09:36:54.09	122.73	40.84	-46.9	-50.9	13.5	1.14e-05	0	42	0	465567744	65	5683
2026-01-20 09:36:55.09	122.47	41.06	-47.3	-51.6	12.8	1.98e-05	0	43	0	467664896	65	6200
2026-01-20 09:36:56.09	122.20	41.29	-47.4	-51.7	12.6	4.27e-05	0	42	0	468713472	65	6272
2026-01-20 09:36:57.10	121.93	41.52	-47.7	-52.5	11.8	2.58e-04	0	43	0	470810624	66	6431
2026-01-20 09:36:58.10	121.65	41.75	-47.6	-52.2	12.1	7.63e-04	0	42	0	472907776	66	6215
2026-01-20 09:36:59.10	121.38	41.98	-47.4	-51.9	12.5	8.01e-05	0	43	0	475004928	66	5998
2026-01-20 09:37:00.10	121.09	42.21	-47.1	-51.2	13.0	4.04e-05	0	42	0	477102080	66	5587
2026-01-20 09:37:01.10	120.81	42.44	-46.8	-50.7	13.6	3.28e-05	0	42	0	479199232	65	5582
2026-01-20 09:37:02.10	120.52	42.68	-46.6	-50.4	13.9	4.50e-06	0	42	0	480247808	65	5400
2026-01-20 09:37:03.10	120.22	42.91	-46.3	-49.9	14.4	0.00e+00	0	43	0	482344960	64	5376
2026-01-20 09:37:04.11	119.92	43.14	-46.4	-50.0	14.3	7.00e-07	0	43	0	484442112	64	5462
2026-01-20 09:37:05.11	119.62	43.38	-46.1	-49.6	14.6	0.00e+00	0	43	0	486539264	64	5198
2026-01-20 09:37:06.11	119.31	43.61	-46.3	-49.8	14.7	0.00e+00	0	43	0	487587840	63	5642
2026-01-20 09:37:07.11	119.00	43.85	-45.6	-48.8	15.6	0.00e+00	0	42	0	489684992	63	4997
2026-01-20 09:37:08.12	118.68	44.08	-45.1	-48.1	16.3	0.00e+00	0	43	0	491782144	62	4897
2026-01-20 09:37:09.12	118.36	44.32	-45.2	-48.2	16.2	0.00e+00	0	42	0	493879296	61	5273
2026-01-20 09:37:10.12	118.03	44.55	-45.0	-47.8	16.6	0.00e+00	0	43	0	495976448	61	5003
2026-01-20 09:37:11.12	117.70	44.79	-45.2	-48.1	16.3	0.00e+00	0	43	0	497025024	61	5175
2026-01-20 09:37:12.12	117.36	45.03	-45.4	-48.4	16.1	0.00e+00	0	43	0	499122176	61	5361
2026-01-20 09:37:13.12	117.02	45.26	-45.3	-48.2	16.2	0.00e+00	0	43	0	501219328	61	5249
2026-01-20 09:37:14.12	116.68	45.50	-45.1	-48.0	16.3	0.00e+00	0	43	0	503316480	61	5123
2026-01-20 09:37:15.12	116.32	45.74	-45.5	-48.5	15.9	0.00e+00	0	43	0	505413632	61	5447
2026-01-20 09:37:16.12	115.97	45.98	-45.8	-49.0	15.4	0.00e+00	0	43	0	506462208	62	5411
2026-01-20 09:37:17.13	115.60	46.22	-45.8	-49.1	15.4	0.00e+00	0	43	0	508559360	62	5491
2026-01-20 09:37:18.13	115.23	46.45	-45.3	-48.2	16.2	0.00e+00	0	43	0	510656512	62	4962
2026-01-20 09:37:19.13	114.86	46.69	-44.4	-47.0	17.3	0.00e+00	0	43	0	512753664	60	4857
2026-01-20 09:37:20.13	114.48	46.93	-44.3	-46.9	17.4	0.00e+00	0	43	0	513802240	60	4778
2026-01-20 09:37:21.14	114.09	47.17	-44.2	-46.8	17.6	0.00e+00	0	43	0	515899392	60	4743
2026-01-20 09:37:22.14	113.70	47.41	-44.4	-47.0	17.4	0.00e+00	0	43	0	517996544	60	4868
2026-01-20 09:37:23.14	113.30	47.65	-44.7	-47.5	16.9	0.00e+00	0	43	0	520093696	60	5114
2026-01-20 09:37:24.14	112.90	47.88	-44.9	-47.7	16.6	0.00e+00	0	43	0	522190848	60	5265
2026-01-20 09:37:25.14	112.49	48.12	-45.5	-48.5	16.0	0.00e+00	0	43	0	523239424	62	5127
2026-01-20 09:37:26.15	112.07	48.36	-45.7	-48.9	15.6	0.00e+00	0	43	0	525336576	62	5341
2026-01-20 09:37:27.15	111.64	48.59	-45.4	-48.5	15.9	0.00e+00	0	42	0	527433728	62	5107
2026-01-20 09:37:28.15	111.22	48.83	-45.5	-48.6	15.8	0.00e+00	0	43	0	529530880	62	5202
2026-01-20 09:37:29.15	110.78	49.07	-45.5	-48.6	16.0	0.00e+00	0	43	0	531628032	62	5192
2026-01-20 09:37:30.15	110.34	49.30	-45.2	-48.2	16.0	0.00e+00	0	43	0	532676608	62	4928
2026-01-20 09:37:31.16	109.88	49.54	-45.3	-48.4	16.1	0.00e+00	0	42	0	534773760	62	5051
2026-01-20 09:37:32.16	109.43	49.77	-45.0	-47.9	16.5	0.00e+00	0	43	0	536870912	62	4778
2026-01-20 09:37:33.16	108.96	50.00	-44.9	-47.8	16.6	0.00e+00	0	43	0	538968064	61	4995
2026-01-20 09:37:34.16	108.49	50.23	-43.8	-46.3	17.9	0.00e+00	0	43	0	541065216	59	4751
2026-01-20 09:37:35.17	108.01	50.47	-43.5	-46.3	17.7	0.00e+00	0	43	0	542113792	59	4729
2026-01-20 09:37:36.17	107.52	50.70	-44.0	-47.0	17.1	0.00e+00	0	43	0	544210944	59	5122
2026-01-20 09:37:37.17	107.03	50.93	-43.9	-46.9	17.1	0.00e+00	0	43	0	546308096	59	5073
2026-01-20 09:37:38.17	106.53	51.15	-43.3	-46.0	17.9	0.00e+00	0	43	0	548405248	58	4836
2026-01-20 09:37:39.17	106.02	51.38	-42.7	-45.2	18.6	0.00e+00	0	43	0	550502400	57	4662
2026-01-20 09:37:40.18	105.50	51.61	-43.0	-45.6	18.3	0.00e+00	0	43	0	551550976	57	4916
2026-01-20 09:37:41.18	104.98	51.83	-43.2	-45.9	18.0	0.00e+00	0	43	0	553648128	57	5092
2026-01-20 09:37:42.18	104.44	52.05	-42.6	-45.2	18.6	0.00e+00	0	43	0	555745280	57	4652
2026-01-20 09:37:43.18	103.90	52.27	-42.6	-45.1	18.8	0.00e+00	0	43	0	557842432	56	4874
2026-01-20 09:37:44.18	103.36	52.49	-42.9	-45.4	18.5	0.00e+00	0	42	0	558891008	56	5098
2026-01-20 09:37:45.18	102.80	52.71	-42.9	-45.4	18.5	0.00e+00	0	42	0	560988160	56	5086
2026-01-20 09:37:46.18	102.24	52.92	-42.8	-45.3	18.5	0.00e+00	0	43	0	563085312	56	5000
2026-01-20 09:37:47.18	101.66	53.14	-43.2	-45.8	18.2	0.00e+00	0	43	0	565182464	56	5335
2026-01-20 09:37:48.18	101.08	53.35	-44.2	-47.2	16.8	0.00e+00	0	43	0	567279616	59	5277
2026-01-20 09:37:49.18	100.49	53.55	-44.2	-47.2	16.9	0.00e+00	0	43	0	568328192	59	5255
2026-01-20 09:37:50.18	99.90	53.76	-43.9	-46.8	17.4	0.00e+00	0	42	0	570425344	59	5005
2026-01-20 09:37:51.18	99.29	53.97	-43.8	-46.7	17.3	0.00e+00	0	43	0	572522496	59	4935
2026-01-20 09:37:52.18	98.67	54.17	-43.9	-46.9	17.1	0.00e+00	0	43	0	574619648	59	5081
2026-01-20 09:37:53.18	98.05	54.37	-44.5	-47.7	16.4	0.00e+00	0	42	0	576716800	59	5578
2026-01-20 09:37:54.18	97.42	54.56	-43.5	-46.2	17.5	0.00e+00	0	43	0	577765376	59	4686
2026-01-20 09:37:55.18	96.78	54.76	-42.6	-45.1	19.0	0.00e+00	0	42	0	579862528	56	4888
2026-01-20 09:37:56.18	96.13	54.95	-41.8	-44.2	19.3	0.00e+00	0	43	0	581959680	55	4678
2026-01-20 09:37:57.18	95.47	55.13	-42.8	-45.4	18.5	0.00e+00	0	42	0	584056832	56	5079
2026-01-20 09:37:58.18	94.80	55.32	-43.7	-46.7	17.4	0.00e+00	0	43	0	586153984	58	5231
2026-01-20 09:37:59.19	94.12	55.50	-43.5	-46.2	17.8	0.00e+00	0	43	0	587202560	58	4983
2026-01-20 09:38:00.19	93.43	55.68	-43.4	-46.0	18.0	0.00e+00	0	42	0	589299712	58	4857
2026-01-20 09:38:01.19	92.74	55.85	-43.7	-46.4	17.6	0.00e+00	0	43	0	591396864	58	5079
2026-01-20 09:38:02.19	92.04	56.02	-43.8	-46.7	17.1	0.00e+00	0	43	0	593494016	59	4942
2026-01-20 09:38:03.19	91.33	56.19	-44.2	-47.4	16.8	0.00e+00	0	43	0	594542592	59	5358
2026-01-20 09:38:04.19	90.61	56.35	-44.7	-48.3	15.8	0.00e+00	0	42	0	596639744	60	5620
2026-01-20 09:38:05.20	89.87	56.51	-45.0	-48.7	15.5	0.00e+00	0	43	0	598736896	60	5886
2026-01-20 09:38:06.19	89.14	56.66	-44.5	-47.9	16.1	0.00e+00	0	43	0	600834048	60	5390
2026-01-20 09:38:07.20	88.39	56.82	-43.3	-46.1	17.8	0.00e+00	0	43	0	602931200	58	4908
2026-01-20 09:38:08.20	87.64	56.96	-42.6	-45.2	18.6	0.00e+00	0	43	0	603979776	56	4982
2026-01-20 09:38:09.20	86.88	57.10	-42.7	-45.5	18.3	0.00e+00	0	43	0	606076928	56	5116
2026-01-20 09:38:10.20	86.11	57.24	-43.2	-46.1	17.8	0.00e+00	0	43	0	608174080	57	5192
2026-01-20 09:38:11.21	85.33	57.37	-43.2	-46.1	17.8	0.00e+00	0	43	0	610271232	57	5199
2026-01-20 09:38:12.21	84.55	57.50	-43.4	-46.3	17.6	0.00e+00	0	43	0	612368384	57	5332
2026-01-20 09:38:13.21	83.76	57.63	-42.8	-45.6	18.3	0.00e+00	0	43	0	613416960	57	4876
2026-01-20 09:38:14.21	82.96	57.74	-42.2	-44.7	19.1	0.00e+00	0	43	0	615514112	56	4698
2026-01-20 09:38:15.21	82.15	57.86	-41.7	-44.0	19.5	0.00e+00	0	43	0	617611264	55	4586
2026-01-20 09:38:16.21	81.34	57.96	-41.9	-44.4	19.2	0.00e+00	0	43	0	619708416	55	4768
2026-01-20 09:38:17.22	80.52	58.07	-41.9	-44.4	19.1	0.00e+00	0	43	0	621805568	55	4791
2026-01-20 09:38:18.22	79.69	58.16	-42.4	-45.0	18.6	0.00e+00	0	43	0	622854144	55	5131
2026-01-20 09:38:19.22	78.86	58.25	-43.5	-46.6	17.3	0.00e+00	0	43	0	624951296	57	5475
2026-01-20 09:38:20.22	78.03	58.34	-43.6	-46.7	17.3	0.00e+00	0	43	0	627048448	58	5220
2026-01-20 09:38:21.22	77.19	58.42	-43.1	-46.0	17.9	0.00e+00	0	43	0	629145600	57	5123
2026-01-20 09:38:22.23	76.34	58.50	-42.6	-45.2	18.7	0.00e+00	0	43	0	631242752	57	4657
2026-01-20 09:38:23.23	75.49	58.57	-41.7	-44.0	19.6	0.00e+00	0	43	0	632291328	55	4552
2026-01-20 09:38:24.22	74.64	58.63	-41.3	-43.6	20.0	0.00e+00	0	43	0	634388480	54	4603
2026-01-20 09:38:25.23	73.78	58.69	-42.1	-44.5	19.3	0.00e+00	0	43	0	636485632	54	5118
2026-01-20 09:38:26.23	72.92	58.74	-42.3	-44.7	18.9	0.00e+00	0	43	0	638582784	55	4966
2026-01-20 09:38:27.23	72.05	58.78	-42.3	-44.8	19.0	0.00e+00	0	42	0	639631360	55	4992
2026-01-20 09:38:28.22	71.19	58.82	-41.6	-44.0	19.6	0.00e+00	0	43	0	641728512	55	4551
2026-01-20 09:38:29.23	70.32	58.85	-40.9	-43.1	20.4	0.00e+00	0	43	0	643825664	53	4601
2026-01-20 09:38:30.22	69.45	58.88	-40.8	-43.0	20.4	0.00e+00	0	42	0	645922816	53	4597
2026-01-20 09:38:31.23	68.57	58.90	-41.2	-43.4	20.1	0.00e+00	0	43	0	648019968	53	4788
2026-01-20 09:38:32.23	67.70	58.92	-40.7	-42.7	20.7	0.00e+00	0	43	0	649068544	53	4439
2026-01-20 09:38:33.23	66.82	58.93	-40.7	-42.8	20.7	0.00e+00	0	43	0	651165696	53	4452
2026-01-20 09:38:34.23	65.95	58.93	-41.0	-43.3	20.3	0.00e+00	0	43	0	653262848	53	4713
2026-01-20 09:38:35.23	65.07	58.92	-41.3	-43.6	20.0	0.00e+00	0	43	0	655360000	53	4922
2026-01-20 09:38:36.23	64.20	58.91	-41.9	-44.4	19.3	0.00e+00	0	43	0	657457152	54	5052
2026-01-20 09:38:37.24	63.32	58.90	-41.5	-43.9	19.7	0.00e+00	0	43	0	658505728	54	4805
2026-01-20 09:38:38.24	62.45	58.88	-41.2	-43.5	20.0	0.00e+00	0	43	0	660602880	54	4587
2026-01-20 09:38:39.24	61.58	58.85	-41.0	-43.1	20.4	0.00e+00	0	43	0	662700032	54	4390
2026-01-20 09:38:40.23	60.72	58.81	-41.3	-43.5	20.1	0.00e+00	0	43	0	664797184	53	4866
2026-01-20 09:38:41.24	59.84	58.77	-41.2	-43.4	20.2	0.00e+00	0	43	0	665845760	53	4763
2026-01-20 09:38:42.24	58.98	58.73	-41.3	-43.5	20.1	0.00e+00	0	43	0	667942912	53	4849
2026-01-20 09:38:43.24	58.12	58.67	-41.6	-43.9	19.8	0.00e+00	0	43	0	670040064	54	4763
2026-01-20 09:38:44.24	57.26	58.61	-40.8	-43.0	20.5	0.00e+00	0	43	0	672137216	53	4570
2026-01-20 09:38:45.25	56.40	58.55	-40.9	-43.0	20.5	0.00e+00	0	43	0	674234368	53	4579
2026-01-20 09:38:46.25	55.55	58.48	-40.4	-42.5	20.8	0.00e+00	0	43	0	676331520	52	4590
2026-01-20 09:38:47.25	54.71	58.40	-41.3	-43.5	20.0	0.00e+00	0	43	0	677380096	53	4850
2026-01-20 09:38:48.25	53.87	58.32	-41.7	-44.1	19.6	0.00e+00	0	43	0	679477248	54	4885
2026-01-20 09:38:49.25	53.04	58.23	-42.9	-45.5	18.4	0.00e+00	0	43	0	681574400	56	5135
2026-01-20 09:38:50.25	52.21	58.14	-43.0	-45.6	18.3	0.00e+00	0	42	0	683671552	57	4895
2026-01-20 09:38:51.25	51.39	58.04	-42.8	-45.4	18.6	0.00e+00	0	43	0	684720128	57	4788
2026-01-20 09:38:52.25	50.58	57.94	-43.0	-45.6	18.3	0.00e+00	0	43	0	686817280	57	4878
2026-01-20 09:38:53.25	49.77	57.83	-43.2	-45.9	17.9	0.00e+00	0	43	0	688914432	57	5096
2026-01-20 09:38:54.25	48.97	57.72	-43.2	-45.8	18.2	0.00e+00	0	43	0	691011584	57	4991
2026-01-20 09:38:55.25	48.17	57.60	-42.6	-45.0	19.0	0.00e+00	0	43	0	693108736	56	4837
2026-01-20 09:38:56.26	47.38	57.48	-42.9	-45.4	18.7	0.00e+00	0	43	0	694157312	56	5066
2026-01-20 09:38:57.26	46.60	57.35	-42.9	-45.3	18.8	0.00e+00	0	43	0	696254464	56	5041
2026-01-20 09:38:58.26	45.82	57.21	-43.2	-45.7	18.4	0.00e+00	0	43	0	698351616	57	4970
2026-01-20 09:38:59.26	45.06	57.08	-43.3	-45.8	18.3	0.00e+00	0	43	0	700448768	57	5022
2026-01-20 09:39:00.26	44.30	56.93	-42.7	-45.1	19.0	0.00e+00	0	43	0	702545920	57	4609
2026-01-20 09:39:01.26	43.55	56.79	-42.7	-45.1	19.0	0.00e+00	0	43	0	703594496	56	4887
2026-01-20 09:39:02.26	42.81	56.64	-43.9	-46.6	17.5	0.00e+00	0	43	0	705691648	58	5190
2026-01-20 09:39:03.26	42.08	56.48	-43.4	-46.0	18.1	0.00e+00	0	43	0	707788800	58	4815
2026-01-20 09:39:04.27	41.35	56.32	-42.5	-44.8	19.2	0.00e+00	0	43	0	709885952	57	4482
2026-01-20 09:39:05.27	40.63	56.16	-41.5	-43.7	20.0	0.00e+00	0	43	0	710934528	55	4397
2026-01-20 09:39:06.27	39.92	55.99	-41.5	-43.7	19.9	0.00e+00	0	43	0	713031680	54	4684
2026-01-20 09:39:07.27	39.22	55.82	-41.4	-43.5	20.2	0.00e+00	0	43	0	715128832	54	4567
2026-01-20 09:39:08.27	38.53	55.64	-41.5	-43.7	20.1	0.00e+00	0	43	0	717225984	54	4690
2026-01-20 09:39:09.27	37.85	55.47	-41.3	-43.4	20.3	0.00e+00	0	43	0	719323136	54	4542
2026-01-20 09:39:10.27	37.18	55.29	-40.9	-43.0	20.6	0.00e+00	0	43	0	720371712	53	4560
2026-01-20 09:39:11.27	36.51	55.10	-41.6	-43.8	19.9	0.00e+00	0	43	0	722468864	53	5028
2026-01-20 09:39:12.27	35.86	54.91	-42.2	-44.6	19.3	0.00e+00	0	43	0	724566016	55	4874
2026-01-20 09:39:13.27	35.21	54.72	-42.5	-44.9	18.9	0.00e+00	0	43	0	726663168	55	5075
2026-01-20 09:39:14.27	34.57	54.53	-42.9	-45.4	18.8	0.00e+00	0	43	0	728760320	57	4796
2026-01-20 09:39:15.27	33.94	54.33	-43.7	-46.4	17.7	0.00e+00	0	43	0	729808896	57	5376
2026-01-20 09:39:16.27	33.32	54.13	-43.5	-46.1	18.1	0.00e+00	0	43	0	731906048	58	4911
2026-01-20 09:39:17.27	32.71	53.93	-43.3	-45.8	18.1	0.00e+00	0	42	0	734003200	58	4748
2026-01-20 09:39:18.28	32.10	53.73	-43.3	-45.9	18.1	0.00e+00	0	43	0	736100352	58	4796
2026-01-20 09:39:19.28	31.50	53.52	-43.1	-45.6	18.4	0.00e+00	0	43	0	738197504	58	4625
2026-01-20 09:39:20.28	30.92	53.31	-43.8	-46.6	17.6	0.00e+00	0	43	0	739246080	58	5189
2026-01-20 09:39:21.28	30.34	53.10	-44.4	-47.5	16.7	0.00e+00	0	43	0	741343232	59	5403
2026-01-20 09:39:22.28	29.77	52.89	-44.3	-47.3	16.8	0.00e+00	0	43	0	743440384	59	5280
2026-01-20 09:39:23.28	29.21	52.67	-44.4	-47.4	16.8	0.00e+00	0	43	0	745537536	59	5375
2026-01-20 09:39:24.29	28.65	52.46	-44.1	-47.0	17.1	0.00e+00	0	43	0	746586112	59	5140
2026-01-20 09:39:25.29	28.11	52.24	-43.9	-46.7	17.5	0.00e+00	0	43	0	748683264	59	4948
2026-01-20 09:39:26.29	27.57	52.02	-43.2	-45.7	18.4	0.00e+00	0	43	0	750780416	58	4703
2026-01-20 09:39:27.29	27.04	51.80	-43.1	-45.6	18.4	0.00e+00	0	43	0	752877568	57	4918
2026-01-20 09:39:28.29	26.52	51.57	-43.5	-46.2	17.8	0.00e+00	0	43	0	754974720	57	5270
2026-01-20 09:39:29.29	26.01	51.35	-44.5	-47.7	16.4	0.00e+00	0	42	0	756023296	59	5576
2026-01-20 09:39:30.29	25.50	51.12	-44.0	-47.0	17.3	0.00e+00	0	43	0	758120448	59	5110
2026-01-20 09:39:31.30	25.00	50.89	-43.1	-45.6	18.3	0.00e+00	0	43	0	760217600	58	4651
2026-01-20 09:39:32.30	24.51	50.67	-42.7	-45.1	18.8	0.00e+00	0	43	0	762314752	57	4648
2026-01-20 09:39:33.30	24.02	50.44	-43.9	-46.7	17.4	0.00e+00	0	43	0	764411904	58	5239
2026-01-20 09:39:34.30	23.55	50.21	-44.1	-47.0	17.2	0.00e+00	0	43	0	765460480	59	5125
2026-01-20 09:39:35.31	23.08	49.97	-44.9	-48.1	16.2	0.00e+00	0	43	0	767557632	60	5517
2026-01-20 09:39:36.31	22.62	49.74	-45.2	-48.7	15.5	0.00e+00	0	43	0	769654784	61	5549
2026-01-20 09:39:37.31	22.16	49.51	-45.6	-49.4	14.9	7.00e-07	0	43	0	771751936	62	5698
2026-01-20 09:39:38.31	21.71	49.27	-44.9	-48.4	15.9	0.00e+00	0	43	0	773849088	61	5344
2026-01-20 09:39:39.31	21.27	49.04	-44.5	-47.7	16.5	0.00e+00	0	43	0	774897664	60	5231
2026-01-20 09:39:40.31	20.84	48.81	-44.6	-47.7	16.5	0.00e+00	0	43	0	776994816	60	5241
2026-01-20 09:39:41.31	20.41	48.57	-44.7	-47.8	16.4	0.00e+00	0	43	0	779091968	60	5331
2026-01-20 09:39:42.31	19.99	48.34	-46.0	-50.0	14.3	7.00e-07	0	43	0	781189120	62	6110
2026-01-20 09:39:43.32	19.58	48.10	-47.1	-52.3	11.8	9.07e-05	0	43	0	783286272	64	7086
2026-01-20 09:39:44.32	19.17	47.86	-46.5	-51.1	13.3	7.01e-05	0	43	0	784334848	64	6145
2026-01-20 09:39:45.32	18.77	47.63	-45.7	-49.5	14.8	7.00e-07	0	43	0	786432000	63	5440
2026-01-20 09:39:46.32	18.37	47.39	-45.5	-49.0	15.3	0.00e+00	0	43	0	788529152	62	5459
2026-01-20 09:39:47.32	17.98	47.15	-45.2	-48.6	15.7	0.00e+00	0	43	0	790626304	61	5478
2026-01-20 09:39:48.32	17.60	46.92	-44.8	-48.0	16.2	0.00e+00	0	43	0	791674880	61	5131
2026-01-20 09:39:49.32	17.22	46.68	-45.2	-48.7	15.6	0.00e+00	0	43	0	793772032	61	5550
2026-01-20 09:39:50.32	16.85	46.44	-45.9	-49.8	14.7	0.00e+00	0	43	0	795869184	62	5928
2026-01-20 09:39:51.32	16.48	46.21	-45.6	-49.2	15.2	0.00e+00	0	43	0	797966336	62	5550
2026-01-20 09:39:52.33	16.12	45.97	-44.8	-48.0	16.3	0.00e+00	0	43	0	800063488	61	5109
2026-01-20 09:39:53.33	15.76	45.73	-44.3	-47.2	17.0	0.00e+00	0	43	0	801112064	60	4960
2026-01-20 09:39:54.33	15.41	45.49	-44.1	-46.9	17.3	0.00e+00	0	43	0	803209216	60	4803
2026-01-20 09:39:55.33	15.07	45.26	-44.5	-47.5	16.8	0.00e+00	0	43	0	805306368	60	5105
2026-01-20 09:39:56.33	14.73	45.02	-44.9	-48.1	16.3	0.00e+00	0	43	0	807403520	60	5467
2026-01-20 09:39:57.33	14.40	44.79	-45.4	-48.8	15.5	0.00e+00	0	43	0	809500672	61	5638
2026-01-20 09:39:58.34	14.06	44.55	-46.0	-49.7	14.6	0.00e+00	0	43	0	810549248	62	5916
2026-01-20 09:39:59.34	13.74	44.31	-45.7	-49.3	15.1	0.00e+00	0	43	0	812646400	62	5623
2026-01-20 09:40:00.34	13.42	44.08	-45.6	-49.0	15.3	0.00e+00	0	43	0	814743552	63	5120
2026-01-20 09:40:01.34	13.10	43.84	-44.9	-48.0	16.3	0.00e+00	0	43	0	816840704	61	5119
2026-01-20 09:40:02.34	12.79	43.61	-44.4	-47.2	17.0	0.00e+00	0	43	0	818937856	60	4966
2026-01-20 09:40:03.34	12.49	43.38	-44.1	-46.9	17.3	0.00e+00	0	43	0	819986432	60	4796
2026-01-20 09:40:04.34	12.19	43.15	-44.3	-47.2	17.0	0.00e+00	0	43	0	822083584	59	5241
2026-01-20 09:40:05.34	11.89	42.91	-45.1	-48.4	16.0	0.00e+00	0	43	0	824180736	60	5686
2026-01-20 09:40:06.34	11.60	42.68	-45.1	-48.4	15.9	0.00e+00	0	43	0	826277888	61	5354
2026-01-20 09:40:07.34	11.31	42.45	-44.3	-47.2	17.1	0.00e+00	0	43	0	827326464	60	4983
2026-01-20 09:40:08.34	11.02	42.22	-43.7	-46.3	17.8	0.00e+00	0	43	0	829423616	59	4728
2026-01-20 09:40:09.35	10.74	41.99	-43.6	-46.2	17.9	0.00e+00	0	43	0	831520768	59	4662
2026-01-20 09:40:10.35	10.47	41.76	-44.1	-46.9	17.2	0.00e+00	0	43	0	833617920	59	5099
2026-01-20 09:40:11.35	10.19	41.53	-44.7	-47.7	16.6	0.00e+00	0	43	0	835715072	60	5264
2026-01-20 09:40:12.35	9.92	41.30	-45.3	-48.8	15.6	0.00e+00	0	43	0	836763648	61	5624
2026-01-20 09:40:13.35	9.66	41.08	-46.1	-50.0	14.5	7.00e-07	0	43	0	838860800	62	6076
2026-01-20 09:40:14.36	9.40	40.85	-46.0	-49.8	14.5	1.50e-06	0	43	0	840957952	63	5633
2026-01-20 09:40:15.36	9.14	40.62	-46.3	-50.3	14.2	1.50e-06	0	43	0	843055104	63	5940
2026-01-20 09:40:16.36	8.89	40.40	-46.0	-49.7	14.7	0.00e+00	0	43	0	845152256	63	5551
2026-01-20 09:40:17.36	8.64	40.17	-46.2	-49.9	14.5	0.00e+00	0	43	0	846200832	63	5680
2026-01-20 09:40:18.36	8.39	39.95	-46.2	-49.9	14.4	0.00e+00	0	43	0	848297984	63	5704
2026-01-20 09:40:19.37	8.14	39.73	-46.3	-50.0	14.4	1.50e-06	0	43	0	850395136	63	5776
2026-01-20 09:40:20.37	7.90	39.51	-46.0	-49.7	14.6	7.00e-07	0	43	0	852492288	63	5572
2026-01-20 09:40:21.37	7.67	39.29	-46.3	-50.3	14.2	3.80e-06	0	43	0	854589440	63	5950
2026-01-20 09:40:22.37	7.43	39.07	-45.6	-49.0	15.3	0.00e+00	0	43	0	855638016	63	5115
2026-01-20 09:40:23.37	7.20	38.85	-46.0	-49.6	14.7	0.00e+00	0	43	0	857735168	63	5519
2026-01-20 09:40:24.37	6.98	38.63	-46.3	-50.0	14.4	0.00e+00	0	43	0	859832320	63	5767
2026-01-20 09:40:25.37	6.75	38.41	-46.6	-50.6	13.9	6.10e-06	0	43	0	861929472	63	6141
2026-01-20 09:40:26.37	6.53	38.20	-45.8	-49.3	15.1	1.50e-06	0	43	0	864026624	63	5295
2026-01-20 09:40:27.38	6.31	37.98	-45.5	-48.8	15.3	0.00e+00	0	43	0	865075200	63	5030
2026-01-20 09:40:28.38	6.10	37.76	-45.1	-48.2	16.1	0.00e+00	0	43	0	867172352	62	4978
2026-01-20 09:40:29.38	5.89	37.55	-45.3	-48.4	16.0	0.00e+00	0	43	0	869269504	62	5084
2026-01-20 09:40:30.38	5.68	37.34	-45.2	-48.4	15.9	0.00e+00	0	43	0	871366656	62	5061
2026-01-20 09:40:31.38	5.47	37.13	-46.0	-49.6	14.7	0.00e+00	0	43	0	872415232	62	5850
2026-01-20 09:40:32.39	5.26	36.91	-46.7	-51.0	13.2	1.44e-05	0	43	0	874512384	64	6087
2026-01-20 09:40:33.39	5.06	36.70	-46.8	-51.5	12.8	8.16e-05	0	43	0	876609536	64	6485
2026-01-20 09:40:34.39	4.86	36.50	-46.5	-51.0	13.2	1.11e-04	0	43	0	878706688	64	6111
2026-01-20 09:40:35.40	4.67	36.29	-46.7	-51.6	12.6	1.98e-05	0	43	0	880803840	64	6525
2026-01-20 09:40:36.40	4.47	36.08	-46.9	-52.2	12.0	1.50e-04	0	43	0	881852416	64	7011
2026-01-20 09:40:37.40	4.28	35.87	-46.8	-52.0	12.2	2.22e-04	0	43	0	883949568	64	6870
2026-01-20 09:40:38.40	4.09	35.67	-46.9	-52.3	12.0	8.57e-04	0	43	0	886046720	64	7047
2026-01-20 09:40:39.40	3.91	35.46	-46.6	-51.5	12.7	2.11e-04	0	43	0	888143872	64	6428
2026-01-20 09:40:40.41	3.72	35.26	-46.2	-50.6	13.6	7.93e-05	0	43	0	890241024	64	5794
2026-01-20 09:40:41.41	3.54	35.06	-45.9	-49.8	14.5	0.00e+00	0	43	0	891289600	63	5640
2026-01-20 09:40:42.41	3.36	34.86	-46.1	-50.1	14.1	0.00e+00	0	43	0	893386752	63	5843
2026-01-20 09:40:43.41	3.18	34.66	-46.5	-50.8	13.5	3.00e-06	0	43	0	895483904	63	6300
2026-01-20 09:40:44.41	3.01	34.46	-46.6	-51.2	13.0	2.67e-05	0	43	0	897581056	64	6260
2026-01-20 09:40:45.41	2.84	34.26	-46.4	-50.7	13.5	4.95e-05	0	43	0	899678208	64	5918
2026-01-20 09:40:46.41	2.66	34.06	-46.1	-50.2	14.1	3.80e-06	0	43	0	900726784	64	5529
2026-01-20 09:40:47.41	2.50	33.86	-45.9	-49.7	14.6	3.80e-06	0	42	0	902823936	63	5587
2026-01-20 09:40:48.41	2.33	33.67	-46.1	-50.2	14.2	0.00e+00	0	43	0	904921088	63	5876
2026-01-20 09:40:49.41	2.17	33.48	-46.5	-50.9	13.5	2.20e-06	0	43	0	907018240	63	6371
2026-01-20 09:40:50.41	2.00	33.28	-46.9	-52.0	12.2	9.84e-05	0	43	0	909115392	64	6833
2026-01-20 09:40:51.41	1.84	33.09	-46.5	-51.2	13.1	3.23e-04	0	43	0	910163968	65	5896
2026-01-20 09:40:52.42	1.68	32.90	-45.9	-49.9	14.3	1.14e-05	0	43	0	912261120	63	5680
2026-01-20 09:40:53.42	1.53	32.71	-45.1	-48.7	15.6	0.00e+00	0	43	0	914358272	62	5243
2026-01-20 09:40:54.42	1.37	32.52	-44.6	-47.9	16.3	0.00e+00	0	43	0	916455424	61	5087
2026-01-20 09:40:55.42	1.22	32.33	-44.6	-48.0	16.3	0.00e+00	0	43	0	917504000	60	5406
2026-01-20 09:40:56.42	1.07	32.14	-45.0	-48.5	15.8	0.00e+00	0	43	0	919601152	60	5784
2026-01-20 09:40:57.42	0.92	31.95	-45.5	-49.3	15.0	0.00e+00	0	43	0	921698304	61	5939
2026-01-20 09:40:58.42	0.77	31.77	-45.4	-49.0	15.3	0.00e+00	0	43	0	923795456	61	5756
2026-01-20 09:40:59.42	0.62	31.58	-45.1	-48.4	15.9	0.00e+00	0	43	0	925892608	61	5358
2026-01-20 09:41:00.42	0.48	31.40	-44.9	-48.1	16.2	0.00e+00	0	43	0	926941184	61	5181
2026-01-20 09:41:01.42	0.34	31.22	-44.8	-47.9	16.4	0.00e+00	0	43	0	929038336	61	5089
2026-01-20 09:41:02.43	0.20	31.03	-45.0	-48.2	16.1	0.00e+00	0	43	0	931135488	61	5272
2026-01-20 09:41:03.43	0.06	30.85	-45.5	-49.0	15.3	0.00e+00	0	43	0	933232640	61	5779
2026-01-20 09:41:04.43	359.92	30.67	-46.1	-50.0	14.4	0.00e+00	0	43	0	935329792	62	6072
2026-01-20 09:41:05.43	359.78	30.49	-46.0	-49.8	14.5	3.00e-06	0	43	0	936378368	63	5619
2026-01-20 09:41:06.43	359.65	30.31	-45.4	-48.8	15.5	7.00e-07	0	43	0	938475520	62	5331
2026-01-20 09:41:07.43	359.51	30.14	-44.6	-47.6	16.6	0.00e+00	0	43	0	940572672	61	4924
2026-01-20 09:41:08.43	359.38	29.96	-44.1	-46.8	17.5	0.00e+00	0	43	0	942669824	60	4737
2026-01-20 09:41:09.43	359.25	29.79	-43.8	-46.4	17.7	0.00e+00	0	43	0	943718400	59	4810
2026-01-20 09:41:10.43	359.12	29.61	-44.0	-46.7	17.5	0.00e+00	0	43	0	945815552	59	4934
2026-01-20 09:41:11.44	359.00	29.44	-44.1	-46.9	17.3	0.00e+00	0	43	0	947912704	59	5083
2026-01-20 09:41:12.44	358.87	29.26	-44.4	-47.3	16.9	0.00e+00	0	43	0	950009856	59	5313
2026-01-20 09:41:13.44	358.75	29.09	-44.4	-47.3	16.9	0.00e+00	0	43	0	952107008	59	5315
2026-01-20 09:41:14.44	358.62	28.92	-44.4	-47.3	16.9	0.00e+00	0	43	0	953155584	59	5317
2026-01-20 09:41:15.44	358.50	28.75	-44.3	-47.1	17.1	0.00e+00	0	43	0	955252736	59	5213
2026-01-20 09:41:16.44	358.38	28.58	-44.3	-47.2	17.0	0.00e+00	0	43	0	957349888	59	5222
2026-01-20 09:41:17.44	358.26	28.41	-44.5	-47.4	16.8	0.00e+00	0	43	0	959447040	59	5367
2026-01-20 09:41:18.44	358.14	28.25	-44.5	-47.4	16.7	0.00e+00	0	43	0	961544192	59	5400
2026-01-20 09:41:19.44	358.03	28.08	-45.3	-48.6	15.8	0.00e+00	0	43	0	962592768	61	5471
2026-01-20 09:41:20.44	357.91	27.91	-45.8	-49.4	15.0	0.00e+00	0	43	0	964689920	62	5708
2026-01-20 09:41:21.44	357.80	27.75	-46.3	-50.3	14.0	7.00e-07	0	43	0	966787072	63	5983
2026-01-20 09:41:22.44	357.68	27.59	-46.4	-50.4	13.9	1.50e-06	0	43	0	968884224	63	6007
2026-01-20 09:41:23.44	357.57	27.42	-46.4	-50.4	14.0	7.00e-07	0	43	0	970981376	63	6006
2026-01-20 09:41:24.44	357.46	27.26	-46.3	-50.2	14.1	2.20e-06	0	43	0	972029952	63	5906
2026-01-20 09:41:25.43	357.35	27.10	-45.8	-49.4	15.0	7.00e-07	0	43	0	974127104	63	5375
2026-01-20 09:41:26.44	357.24	26.94	-45.8	-49.3	15.0	0.00e+00	0	43	0	976224256	63	5300
2026-01-20 09:41:27.44	357.14	26.78	-45.4	-48.7	15.6	0.00e+00	0	43	0	978321408	62	5249
2026-01-20 09:41:28.43	357.03	26.62	-45.5	-48.9	15.5	0.00e+00	0	43	0	979369984	62	5349
2026-01-20 09:41:29.44	356.93	26.46	-45.2	-48.4	15.9	0.00e+00	0	43	0	981467136	62	5059
2026-01-20 09:41:30.44	356.82	26.30	-45.0	-48.1	16.2	0.00e+00	0	43	0	983564288	61	5215
2026-01-20 09:41:31.43	356.72	26.15	-44.8	-47.9	16.4	0.00e+00	0	43	0	985661440	61	5051
2026-01-20 09:41:32.44	356.62	25.99	-44.4	-47.4	16.8	0.00e+00	0	43	0	987758592	60	5066
2026-01-20 09:41:33.43	356.52	25.84	-44.4	-47.3	16.9	0.00e+00	0	43	0	988807168	60	5034
2026-01-20 09:41:34.43	356.42	25.68	-44.1	-47.0	17.3	0.00e+00	0	43	0	990904320	60	4818
2026-01-20 09:41:35.44	356.32	25.53	-44.0	-46.7	17.5	0.00e+00	0	43	0	993001472	59	4975
2026-01-20 09:41:36.44	356.22	25.38	-44.2	-46.9	17.3	0.00e+00	0	43	0	995098624	59	5099
2026-01-20 09:41:37.44	356.12	25.23	-44.2	-47.1	17.1	0.00e+00	0	43	0	997195776	59	5161
2026-01-20 09:41:38.44	356.03	25.08	-44.4	-47.2	17.0	0.00e+00	0	43	0	998244352	59	5276
2026-01-20 09:41:39.44	355.93	24.92	-44.8	-47.9	16.4	0.00e+00	0	43	0	1000341504	60	5346
2026-01-20 09:41:40.45	355.84	24.77	-45.1	-48.4	16.0	0.00e+00	0	43	0	1002438656	60	5667
2026-01-20 09:41:41.45	355.74	24.63	-45.1	-48.3	16.0	0.00e+00	0	43	0	1004535808	61	5330
2026-01-20 09:41:42.45	355.65	24.48	-45.3	-48.6	15.7	0.00e+00	0	43	0	1006632960	61	5522
2026-01-20 09:41:43.45	355.56	24.33	-45.1	-48.5	15.8	0.00e+00	0	43	0	1007681536	61	5410
2026-01-20 09:41:44.45	355.47	24.18	-44.6	-47.7	16.5	0.00e+00	0	42	0	1009778688	61	4973
2026-01-20 09:41:45.46	355.38	24.04	-44.6	-47.8	16.5	0.00e+00	0	43	0	1011875840	60	5291
2026-01-20 09:41:46.46	355.29	23.89	-44.1	-47.1	17.1	0.00e+00	0	43	0	1013972992	60	4896
2026-01-20 09:41:47.46	355.20	23.75	-44.0	-46.9	17.2	0.00e+00	0	43	0	1016070144	59	5076
2026-01-20 09:41:48.46	355.12	23.60	-44.1	-47.1	17.1	0.00e+00	0	43	0	1017118720	59	5188
2026-01-20 09:41:49.46	355.03	23.46	-44.4	-47.4	16.8	0.00e+00	0	43	0	1019215872	59	5396
2026-01-20 09:41:50.46	354.94	23.32	-44.6	-47.8	16.4	0.00e+00	0	43	0	1021313024	59	5599
2026-01-20 09:41:51.46	354.86	23.18	-45.0	-48.4	16.0	0.00e+00	0	43	0	1023410176	60	5681
2026-01-20 09:41:52.47	354.78	23.04	-45.8	-49.5	14.9	0.00e+00	0	43	0	1024458752	62	5742
2026-01-20 09:41:53.46	354.69	22.90	-46.2	-50.2	14.1	0.00e+00	0	43	0	1026555904	63	5899
2026-01-20 09:41:54.47	354.61	22.76	-46.5	-50.8	13.5	2.20e-06	0	43	0	1028653056	63	6289
2026-01-20 09:41:55.47	354.53	22.62	-46.4	-50.6	13.7	6.80e-06	0	43	0	1030750208	63	6161
2026-01-20 09:41:56.47	354.45	22.48	-46.1	-50.1	14.2	1.50e-06	0	43	0	1032847360	63	5830
2026-01-20 09:41:57.48	354.37	22.34	-45.9	-49.9	14.4	7.00e-07	0	43	0	1033895936	63	5657
2026-01-20 09:41:58.48	354.29	22.21	-45.5	-49.2	15.1	0.00e+00	0	43	0	1035993088	62	5540
2026-01-20 09:41:59.48	354.21	22.07	-45.1	-48.5	15.7	0.00e+00	0	42	0	1038090240	62	5133
2026-01-20 09:42:00.48	354.13	21.94	-44.8	-48.0	16.2	0.00e+00	0	43	0	1040187392	61	5121
2026-01-20 09:42:01.49	354.05	21.80	-44.6	-47.7	16.5	0.00e+00	0	43	0	1042284544	61	4949
2026-01-20 09:42:02.49	353.98	21.67	-43.9	-46.7	17.4	0.00e+00	0	43	0	1043333120	59	4965
2026-01-20 09:42:03.49	353.90	21.53	-43.8	-46.6	17.5	0.00e+00	0	43	0	1045430272	59	4876
2026-01-20 09:42:04.49	353.83	21.40	-44.0	-46.8	17.3	0.00e+00	0	43	0	1047527424	59	4990
2026-01-20 09:42:05.49	353.75	21.27	-43.8	-46.5	17.6	0.00e+00	0	43	0	1049624576	59	4841
2026-01-20 09:42:06.50	353.68	21.14	-43.9	-46.6	17.5	0.00e+00	0	43	0	1050673152	59	4885
2026-01-20 09:42:07.50	353.61	21.01	-43.7	-46.3	17.6	0.00e+00	0	43	0	1052770304	59	4750
2026-01-20 09:42:08.50	353.53	20.88	-43.9	-46.6	17.5	0.00e+00	0	43	0	1054867456	59	4906
2026-01-20 09:42:09.50	353.46	20.75	-44.0	-46.8	17.4	0.00e+00	0	43	0	1056964608	59	4984
2026-01-20 09:42:10.50	353.39	20.62	-43.8	-46.5	17.6	0.00e+00	0	43	0	1059061760	59	4865
2026-01-20 09:42:11.51	353.32	20.49	-43.9	-46.6	17.5	0.00e+00	0	43	0	1061158912	59	4922
2026-01-20 09:42:12.51	353.25	20.36	-43.8	-46.5	17.7	0.00e+00	0	43	0	1062207488	59	4825
2026-01-20 09:42:13.51	353.18	20.23	-43.8	-46.5	17.6	0.00e+00	0	43	0	1064304640	59	4848
2026-01-20 09:42:14.51	353.11	20.11	-43.8	-46.6	17.5	0.00e+00	0	43	0	1066401792	59	4899
2026-01-20 09:42:15.51	353.04	19.98	-44.2	-47.1	17.2	0.00e+00	0	43	0	1068498944	59	5192
2026-01-20 09:42:16.51	352.98	19.86	-44.1	-47.0	17.1	0.00e+00	0	43	0	1069547520	59	5157
2026-01-20 09:42:17.52	352.91	19.73	-44.1	-47.0	17.1	0.00e+00	0	43	0	1071644672	59	5129
2026-01-20 09:42:18.52	352.84	19.61	-44.2	-47.2	16.9	0.00e+00	0	43	0	1073741824	59	5261
2026-01-20 09:42:19.52	352.78	19.48	-44.4	-47.5	16.6	0.00e+00	0	43	0	1075838976	59	5424
2026-01-20 09:42:20.53	352.71	19.36	-44.3	-47.4	16.8	0.00e+00	0	43	0	1077936128	59	5373
2026-01-20 09:42:21.53	352.65	19.24	-44.6	-47.8	16.3	0.00e+00	0	43	0	1078984704	59	5645
2026-01-20 09:42:22.53	352.58	19.12	-44.6	-47.9	16.2	0.00e+00	0	43	0	1081081856	59	5712
2026-01-20 09:42:23.53	352.52	18.99	-44.5	-47.9	16.2	0.00e+00	0	43	0	1083179008	60	5348
2026-01-20 09:42:24.52	352.46	18.88	-44.5	-47.8	16.4	0.00e+00	0	43	0	1085276160	60	5299
2026-01-20 09:42:25.53	352.39	18.75	-44.6	-48.0	16.2	0.00e+00	0	43	0	1087373312	60	5435
2026-01-20 09:42:26.53	352.33	18.63	-44.7	-48.1	16.1	0.00e+00	0	43	0	1088421888	60	5494
2026-01-20 09:42:27.53	352.27	18.52	-44.5	-47.8	16.4	0.00e+00	0	43	0	1090519040	60	5317
2026-01-20 09:42:28.53	352.21	18.40	-44.6	-48.0	16.2	0.00e+00	0	43	0	1092616192	60	5459
2026-01-20 09:42:29.53	352.15	18.28	-44.7	-48.1	16.1	0.00e+00	0	43	0	1094713344	60	5485
2026-01-20 09:42:30.53	352.09	18.16	-44.8	-48.3	15.9	0.00e+00	0	43	0	1096810496	60	5614
2026-01-20 09:42:31.54	352.03	18.04	-44.6	-48.0	16.0	0.00e+00	0	43	0	1097859072	60	5430
2026-01-20 09:42:32.54	351.97	17.93	-45.0	-48.6	15.7	0.00e+00	0	43	0	1099956224	60	5824
2026-01-20 09:42:33.54	351.91	17.81	-45.1	-48.8	15.4	0.00e+00	0	43	0	1102053376	61	5640
2026-01-20 09:42:34.55	351.85	17.70	-45.2	-48.9	15.3	0.00e+00	0	43	0	1104150528	61	5705
2026-01-20 09:42:35.54	351.79	17.58	-45.5	-49.3	14.9	0.00e+00	0	43	0	1105199104	61	5972
2026-01-20 09:42:36.55	351.74	17.47	-45.7	-49.5	14.8	7.00e-07	0	43	0	1107296256	62	5769
2026-01-20 09:42:37.55	351.68	17.35	-45.5	-49.3	14.9	0.00e+00	0	43	0	1109393408	62	5597
2026-01-20 09:42:38.55	351.62	17.24	-45.9	-49.7	14.6	0.00e+00	0	43	0	1111490560	62	5906
2026-01-20 09:42:39.55	351.57	17.13	-45.9	-49.7	14.5	7.00e-07	0	43	0	1113587712	62	5885
2026-01-20 09:42:40.55	351.51	17.01	-45.7	-49.4	14.9	0.00e+00	0	43	0	1114636288	62	5667
2026-01-20 09:42:41.55	351.46	16.90	-45.5	-49.0	15.2	0.00e+00	0	43	0	1116733440	62	5462
2026-01-20 09:42:42.55	351.40	16.79	-45.1	-48.5	15.7	0.00e+00	0	43	0	1118830592	62	5105
2026-01-20 09:42:43.55	351.35	16.68	-45.0	-48.3	15.9	0.00e+00	0	43	0	1120927744	62	5005
2026-01-20 09:42:44.55	351.30	16.57	-44.7	-47.9	16.3	0.00e+00	0	43	0	1123024896	61	5064
2026-01-20 09:42:45.55	351.24	16.46	-44.6	-47.8	16.3	0.00e+00	0	43	0	1124073472	61	5012
2026-01-20 09:42:46.56	351.19	16.35	-44.1	-47.2	16.9	0.00e+00	0	43	0	1126170624	60	4962
2026-01-20 09:42:47.56	351.14	16.24	-44.0	-47.1	17.0	0.00e+00	0	43	0	1128267776	60	4926
2026-01-20 09:42:48.56	351.09	16.13	-43.6	-46.6	17.4	0.00e+00	0	43	0	1130364928	59	4890
2026-01-20 09:42:49.56	351.03	16.02	-43.6	-46.5	17.5	0.00e+00	0	43	0	1132462080	59	4870
2026-01-20 09:42:50.56	350.98	15.92	-43.8	-46.8	17.3	0.00e+00	0	43	0	1133510656	59	5012
2026-01-20 09:42:51.57	350.93	15.81	-43.9	-46.8	17.2	0.00e+00	0	43	0	1135607808	59	5037
2026-01-20 09:42:52.57	350.88	15.70	-43.6	-46.5	17.6	0.00e+00	0	43	0	1137704960	59	4840
2026-01-20 09:42:53.57	350.83	15.60	-44.0	-47.0	17.1	0.00e+00	0	43	0	1139802112	59	5116
2026-01-20 09:42:54.57	350.78	15.49	-43.9	-46.9	17.2	0.00e+00	0	43	0	1141899264	59	5066
2026-01-20 09:42:55.57	350.73	15.38	-43.9	-47.0	17.2	0.00e+00	0	43	0	1142947840	59	5104
2026-01-20 09:42:56.58	350.68	15.28	-44.2	-47.3	16.8	0.00e+00	0	43	0	1145044992	59	5312
2026-01-20 09:42:57.58	350.63	15.17	-44.3	-47.5	16.6	0.00e+00	0	43	0	1147142144	59	5404
2026-01-20 09:42:58.58	350.59	15.07	-44.4	-47.7	16.4	0.00e+00	0	43	0	1149239296	59	5559
2026-01-20 09:42:59.58	350.54	14.97	-44.6	-48.0	16.2	0.00e+00	0	43	0	1150287872	59	5734
2026-01-20 09:43:00.58	350.49	14.86	-44.9	-48.6	15.6	0.00e+00	0	43	0	1152385024	60	5838
2026-01-20 09:43:01.59	350.44	14.76	-44.6	-48.2	16.0	0.00e+00	0	43	0	1154482176	60	5540
2026-01-20 09:43:02.59	350.40	14.66	-44.9	-48.7	15.5	0.00e+00	0	43	0	1156579328	60	5856
2026-01-20 09:43:03.59	350.35	14.56	-45.0	-48.8	15.4	0.00e+00	0	43	0	1158676480	60	5932
2026-01-20 09:43:04.59	350.31	14.45	-45.2	-49.0	15.2	0.00e+00	0	43	0	1159725056	60	6098
2026-01-20 09:43:05.59	350.26	14.35	-45.2	-48.9	15.3	0.00e+00	0	43	0	1161822208	61	5688
2026-01-20 09:43:06.59	350.21	14.25	-45.2	-48.9	15.3	0.00e+00	0	43	0	1163919360	61	5669
2026-01-20 09:43:07.59	350.17	14.15	-45.2	-48.8	15.3	0.00e+00	0	43	0	1166016512	61	5648
2026-01-20 09:43:08.59	350.12	14.05	-45.1	-48.7	15.5	0.00e+00	0	43	0	1168113664	61	5555
2026-01-20 09:43:09.59	350.08	13.95	-44.9	-48.4	15.8	0.00e+00	0	43	0	1169162240	61	5368
2026-01-20 09:43:10.59	350.04	13.85	-45.0	-48.6	15.5	0.00e+00	0	43	0	1171259392	61	5512
2026-01-20 09:43:11.59	349.99	13.75	-44.9	-48.5	15.7	0.00e+00	0	43	0	1173356544	61	5412
2026-01-20 09:43:12.59	349.95	13.66	-44.8	-48.3	15.8	0.00e+00	0	43	0	1175453696	61	5311
2026-01-20 09:43:13.60	349.91	13.56	-44.8	-48.2	16.0	0.00e+00	0	43	0	1176502272	61	5225
2026-01-20 09:43:14.60	349.86	13.46	-44.8	-48.2	16.0	0.00e+00	0	43	0	1178599424	61	5225
2026-01-20 09:43:15.60	349.82	13.36	-44.8	-48.1	16.0	0.00e+00	0	43	0	1180696576	61	5210
2026-01-20 09:43:16.60	349.78	13.26	-44.7	-48.2	15.9	0.00e+00	0	43	0	1182793728	61	5254
2026-01-20 09:43:17.60	349.74	13.17	-44.6	-48.3	15.8	0.00e+00	0	43	0	1184890880	61	5325
2026-01-20 09:43:18.60	349.70	13.07	-44.5	-48.3	15.9	0.00e+00	0	43	0	1186988032	60	5620
2026-01-20 09:43:19.60	349.65	12.98	-44.4	-48.4	15.7	0.00e+00	0	43	0	1188036608	60	5666
2026-01-20 09:43:20.60	349.61	12.88	-44.2	-48.3	15.8	0.00e+00	0	43	0	1190133760	60	5656
2026-01-20 09:43:21.61	349.57	12.78	-44.2	-48.4	15.7	0.00e+00	0	43	0	1192230912	60	5690
2026-01-20 09:43:22.61	349.53	12.69	-44.2	-48.5	15.6	7.00e-07	0	43	0	1194328064	60	5778
2026-01-20 09:43:23.61	349.49	12.60	-44.3	-48.7	15.4	0.00e+00	0	43	0	1195376640	60	5872
2026-01-20 09:43:24.61	349.45	12.50	-44.3	-48.6	15.5	0.00e+00	0	43	0	1197473792	60	5829
2026-01-20 09:43:25.62	349.41	12.41	-44.5	-49.0	15.1	0.00e+00	0	43	0	1199570944	60	6080
2026-01-20 09:43:26.62	349.37	12.31	-44.4	-48.7	15.5	0.00e+00	0	43	0	1201668096	60	5891
2026-01-20 09:43:27.62	349.33	12.22	-44.6	-49.0	15.2	0.00e+00	0	43	0	1203765248	60	6063
2026-01-20 09:43:28.62	349.30	12.13	-44.7	-49.0	15.1	0.00e+00	0	43	0	1204813824	60	6105
2026-01-20 09:43:29.63	349.26	12.03	-44.9	-49.2	14.9	7.00e-07	0	43	0	1206910976	60	6235
2026-01-20 09:43:30.62	349.22	11.94	-45.0	-49.4	14.7	0.00e+00	0	43	0	1209008128	60	6387
2026-01-20 09:43:31.62	349.18	11.85	-45.0	-49.3	14.9	0.00e+00	0	43	0	1211105280	60	6316
2026-01-20 09:43:32.62	349.14	11.76	-44.9	-49.2	14.9	0.00e+00	0	43	0	1213202432	60	6219
2026-01-20 09:43:33.62	349.11	11.67	-44.8	-49.1	15.0	0.00e+00	0	43	0	1214251008	60	6154
2026-01-20 09:43:34.62	349.07	11.58	-44.9	-49.5	14.6	0.00e+00	0	43	0	1216348160	60	6483
2026-01-20 09:43:35.62	349.03	11.49	-44.6	-49.0	15.1	0.00e+00	0	43	0	1218445312	60	6123
2026-01-20 09:43:36.62	348.99	11.40	-44.6	-49.2	14.9	0.00e+00	0	43	0	1220542464	60	6203
2026-01-20 09:43:37.62	348.96	11.31	-44.5	-49.0	15.1	0.00e+00	0	43	0	1221591040	60	6091
2026-01-20 09:43:38.63	348.92	11.22	-44.4	-49.0	15.1	0.00e+00	0	43	0	1223688192	60	6062
2026-01-20 09:43:39.63	348.89	11.13	-44.3	-48.9	15.2	0.00e+00	0	43	0	1225785344	60	6024
2026-01-20 09:43:40.63	348.85	11.04	-44.4	-49.2	14.9	0.00e+00	0	43	0	1227882496	60	6216
2026-01-20 09:43:41.63	348.82	10.95	-44.3	-49.0	15.1	0.00e+00	0	43	0	1229979648	60	6108
2026-01-20 09:43:42.63	348.78	10.86	-44.3	-49.1	14.9	7.00e-07	0	43	0	1231028224	60	6187
