passes_logs/2026/01/20/T1/T1__20260120_115300_AQUA_rec.log

#Pass ID: 20260120_115300_AQUA
#Satellite: AQUA
#Configuration: AQUA
#almurnet v.1.7.20251203
#Start time: 2026-01-20 11:53:00

#Version: 2.0.20230620
#Station: T1
#Location: 37.570604 lon 55.790049 lat
#TLE: 1 27424U 02022A   26019.60905539  .00000968  00000+0  20374-3 0  9991
#TLE: 2 27424  98.4090 346.1140 0001992  72.7126 342.3847 14.61830366261565

#Time	Az	El	Level	Level2	SNR	BER	BlckErr	Temp	State	Recorded	gain1	gain2
2026-01-20 11:53:00.39	167.61	4.98	-50.9	-71.8	3.8	7.46e-01	0	39	0	0	73	39689
2026-01-20 11:53:01.38	167.62	5.05	-46.4	-69.7	3.8	7.43e-01	0	39	104	0	64	52484
2026-01-20 11:53:02.37	167.64	5.13	-46.4	-69.4	3.8	7.46e-01	0	39	104	0	64	50624
2026-01-20 11:53:03.37	167.65	5.20	-46.4	-69.1	3.8	7.45e-01	0	39	104	0	64	48715
2026-01-20 11:53:04.36	167.67	5.28	-46.4	-68.8	3.9	7.46e-01	0	39	104	0	64	47375
2026-01-20 11:53:05.35	167.68	5.35	-46.4	-68.7	3.9	7.43e-01	0	39	104	0	64	46760
2026-01-20 11:53:06.35	167.70	5.43	-46.4	-68.8	4.0	7.45e-01	0	39	104	0	64	47444
2026-01-20 11:53:07.34	167.71	5.51	-46.4	-69.1	3.9	7.42e-01	0	39	104	0	64	49066
2026-01-20 11:53:08.33	167.73	5.58	-46.4	-69.6	3.8	7.45e-01	0	39	104	0	64	51686
2026-01-20 11:53:09.33	167.74	5.66	-46.4	-70.1	3.8	7.45e-01	0	39	104	0	64	54701
2026-01-20 11:53:10.32	167.76	5.74	-46.4	-70.5	3.8	7.45e-01	0	39	104	0	64	57575
2026-01-20 11:53:11.31	167.77	5.81	-46.4	-70.8	3.8	7.47e-01	0	39	104	0	64	59480
2026-01-20 11:53:12.31	167.79	5.89	-46.5	-70.7	3.8	7.42e-01	0	39	104	0	64	59058
2026-01-20 11:53:13.30	167.80	5.97	-46.5	-70.2	3.8	7.46e-01	0	39	104	0	64	55654
2026-01-20 11:53:14.29	167.82	6.05	-46.5	-69.5	3.9	7.46e-01	0	39	104	0	64	51083
2026-01-20 11:53:15.29	167.83	6.12	-46.4	-68.5	3.8	7.40e-01	0	39	104	0	64	45605
2026-01-20 11:53:16.28	167.85	6.20	-46.5	-67.6	4.2	7.48e-01	0	40	104	0	64	41121
2026-01-20 11:53:17.27	167.87	6.28	-46.5	-66.4	4.7	7.21e-01	0	39	104	0	64	36090
2026-01-20 11:53:18.27	167.88	6.36	-46.4	-66.1	4.8	7.14e-01	0	40	104	0	64	34552
2026-01-20 11:53:19.26	167.90	6.44	-46.5	-65.8	5.0	7.11e-01	0	40	0	0	64	33396
2026-01-20 11:53:20.25	167.91	6.52	-46.6	-66.2	4.8	7.24e-01	0	40	0	0	64	35039
2026-01-20 11:53:21.25	167.93	6.60	-46.6	-66.8	4.0	7.40e-01	0	40	104	0	64	37793
2026-01-20 11:53:22.24	167.95	6.68	-46.5	-67.1	4.4	7.30e-01	0	40	104	0	64	38930
2026-01-20 11:53:23.23	167.96	6.76	-46.5	-68.5	3.9	7.42e-01	0	40	104	0	64	45461
2026-01-20 11:53:24.22	167.98	6.84	-46.5	-69.6	3.8	7.43e-01	0	40	104	0	64	52071
2026-01-20 11:53:25.22	167.99	6.92	-46.6	-70.7	3.8	7.45e-01	0	40	104	0	64	58645
2026-01-20 11:53:26.21	168.01	7.00	-46.5	-71.2	3.8	7.45e-01	0	40	104	0	64	62517
2026-01-20 11:53:27.20	168.03	7.08	-46.5	-71.3	3.8	7.44e-01	0	40	104	0	64	63007
2026-01-20 11:53:28.20	168.04	7.16	-46.5	-71.0	3.8	7.45e-01	0	40	104	0	64	60934
2026-01-20 11:53:29.19	168.06	7.25	-46.5	-70.5	3.8	7.45e-01	0	40	104	0	64	57246
2026-01-20 11:53:30.18	168.08	7.33	-46.5	-69.7	3.8	7.47e-01	0	40	104	0	64	52681
2026-01-20 11:53:31.18	168.10	7.41	-46.4	-68.0	4.1	7.36e-01	0	40	104	0	64	43225
2026-01-20 11:53:32.17	168.11	7.49	-46.4	-66.1	4.9	7.14e-01	0	40	104	0	64	34573
2026-01-20 11:53:33.16	168.13	7.58	-46.3	-63.8	6.3	6.78e-01	0	40	0	524288	64	26577
2026-01-20 11:53:34.16	168.15	7.66	-46.3	-61.6	8.3	6.43e-01	0	40	0	2621440	64	20725
2026-01-20 11:53:35.15	168.16	7.74	-46.2	-59.7	10.3	6.22e-01	0	40	0	4194304	64	16516
2026-01-20 11:53:36.15	168.18	7.83	-46.1	-57.9	12.2	6.13e-01	0	40	0	6291456	64	13556
2026-01-20 11:53:37.14	168.20	7.91	-46.0	-56.5	13.7	6.10e-01	0	40	0	7864320	63	12209
2026-01-20 11:53:38.13	168.22	8.00	-45.7	-55.4	14.8	6.10e-01	0	40	0	9961472	63	10753
2026-01-20 11:53:39.13	168.23	8.08	-45.5	-54.4	15.8	6.08e-01	0	40	0	11534336	63	9589
2026-01-20 11:53:40.12	168.25	8.17	-45.4	-53.9	16.3	6.04e-01	0	40	0	13631488	62	9596
2026-01-20 11:53:41.11	168.27	8.25	-45.3	-53.5	16.8	6.08e-01	0	40	0	15204352	62	9123
2026-01-20 11:53:42.11	168.29	8.34	-45.4	-53.4	16.8	6.09e-01	0	40	0	17301504	62	9050
2026-01-20 11:53:43.10	168.31	8.43	-45.4	-53.5	16.7	6.09e-01	0	40	0	19398656	62	9174
2026-01-20 11:53:44.09	168.32	8.51	-45.5	-54.1	16.3	6.07e-01	0	40	0	20971520	62	9718
2026-01-20 11:53:45.09	168.34	8.60	-45.7	-54.8	15.5	6.06e-01	0	41	0	23068672	62	10623
2026-01-20 11:53:46.08	168.36	8.69	-45.8	-55.8	14.5	6.08e-01	0	41	0	24641536	62	11906
2026-01-20 11:53:47.08	168.38	8.78	-46.0	-57.4	12.9	6.10e-01	0	40	0	26738688	63	13478
2026-01-20 11:53:48.07	168.40	8.86	-46.2	-59.1	11.2	6.19e-01	0	40	0	28311552	63	16374
2026-01-20 11:53:49.06	168.42	8.95	-46.3	-61.4	7.6	6.65e-01	0	41	0	30408704	63	21284
2026-01-20 11:53:50.06	168.44	9.04	-46.4	-63.8	6.4	6.75e-01	0	41	0	31981568	63	28327
2026-01-20 11:53:51.05	168.45	9.13	-46.4	-61.7	8.4	6.45e-01	0	40	0	34078720	63	22203
2026-01-20 11:53:52.05	168.47	9.22	-46.3	-68.5	4.0	7.36e-01	0	41	104	34603008	63	48545
2026-01-20 11:53:53.04	168.49	9.31	-46.0	-55.7	14.7	6.07e-01	0	41	0	35127296	63	11090
2026-01-20 11:53:54.04	168.51	9.40	-44.3	-49.3	20.9	6.05e-01	0	41	0	37224448	60	6294
2026-01-20 11:53:55.03	168.53	9.49	-46.6	-64.7	5.7	6.93e-01	0	40	0	38797312	64	29488
2026-01-20 11:53:56.03	168.55	9.58	-44.2	-49.4	20.8	6.04e-01	0	41	0	40894464	60	6416
2026-01-20 11:53:57.02	168.57	9.67	-44.1	-49.2	21.1	6.07e-01	0	40	0	42467328	59	6575
2026-01-20 11:53:58.02	168.59	9.76	-43.8	-48.4	21.9	6.08e-01	0	40	0	44564480	59	6026
2026-01-20 11:53:59.01	168.61	9.86	-43.8	-48.3	21.8	6.04e-01	0	41	0	46137344	59	5951
2026-01-20 11:54:00.00	168.63	9.95	-43.8	-48.0	22.1	6.07e-01	0	41	0	48234496	59	5788
2026-01-20 11:54:01.00	168.65	10.04	-43.8	-48.1	22.1	6.07e-01	0	41	0	50331648	59	5835
2026-01-20 11:54:01.99	168.67	10.13	-43.6	-47.8	22.5	6.05e-01	0	41	0	51904512	59	5656
2026-01-20 11:54:02.99	168.69	10.23	-43.7	-47.9	22.4	6.05e-01	0	41	0	54001664	59	5710
2026-01-20 11:54:03.98	168.71	10.32	-43.5	-47.6	22.6	6.07e-01	0	41	0	55574528	58	5852
2026-01-20 11:54:04.98	168.73	10.42	-43.2	-47.2	23.0	6.07e-01	0	41	0	57671680	58	5545
2026-01-20 11:54:05.97	168.75	10.51	-43.1	-46.9	23.2	6.07e-01	0	41	0	59244544	58	5386
2026-01-20 11:54:06.97	168.77	10.61	-43.2	-46.9	23.3	6.07e-01	0	41	0	61341696	58	5369
2026-01-20 11:54:07.96	168.79	10.70	-43.2	-46.8	23.4	6.06e-01	0	41	0	63438848	58	5293
2026-01-20 11:54:08.96	168.82	10.80	-43.3	-46.9	23.3	6.07e-01	0	41	0	65011712	58	5366
2026-01-20 11:54:09.95	168.84	10.90	-43.5	-46.8	23.5	6.10e-01	0	41	0	67108864	58	5298
2026-01-20 11:54:10.95	168.86	10.99	-43.5	-46.7	23.5	6.07e-01	0	41	0	68681728	58	5273
2026-01-20 11:54:11.94	168.88	11.09	-43.5	-46.7	23.4	6.06e-01	0	41	0	70778880	58	5264
2026-01-20 11:54:12.93	168.90	11.19	-43.6	-46.8	23.5	6.09e-01	0	41	0	72351744	58	5288
2026-01-20 11:54:13.93	168.92	11.29	-43.6	-46.7	23.5	6.05e-01	0	41	0	74448896	58	5237
2026-01-20 11:54:14.93	168.94	11.39	-43.7	-46.7	23.5	6.07e-01	0	41	0	76021760	58	5276
2026-01-20 11:54:15.92	168.97	11.48	-43.9	-46.9	23.3	6.05e-01	0	41	0	78118912	58	5386
2026-01-20 11:54:16.92	168.99	11.58	-43.9	-46.7	23.5	6.05e-01	0	41	0	80216064	58	5269
2026-01-20 11:54:17.91	169.01	11.68	-44.0	-46.9	23.4	6.05e-01	0	41	0	81788928	58	5356
2026-01-20 11:54:18.90	169.03	11.78	-44.1	-46.9	23.3	6.07e-01	0	41	0	83886080	58	5398
2026-01-20 11:54:19.90	169.06	11.89	-44.0	-46.8	23.5	6.08e-01	0	41	0	85458944	58	5320
2026-01-20 11:54:20.90	169.08	11.99	-44.1	-46.9	23.4	6.06e-01	0	41	0	87556096	58	5362
2026-01-20 11:54:21.89	169.10	12.09	-44.1	-46.8	23.5	6.10e-01	0	41	0	89128960	58	5326
2026-01-20 11:54:22.89	169.12	12.19	-44.1	-46.8	23.5	6.06e-01	0	41	0	91226112	58	5306
2026-01-20 11:54:23.89	169.15	12.30	-44.1	-46.8	23.4	6.07e-01	0	41	0	92798976	58	5334
2026-01-20 11:54:24.88	169.17	12.40	-44.1	-46.8	23.5	6.07e-01	0	41	0	94896128	58	5298
2026-01-20 11:54:25.87	169.19	12.50	-44.2	-46.9	23.4	6.05e-01	0	41	0	96993280	59	5081
2026-01-20 11:54:26.87	169.22	12.61	-44.2	-46.9	23.4	6.08e-01	0	41	0	98566144	59	5059
2026-01-20 11:54:27.86	169.24	12.71	-44.1	-46.8	23.5	6.08e-01	0	41	0	100663296	59	5018
2026-01-20 11:54:28.86	169.27	12.82	-44.2	-46.8	23.5	6.07e-01	0	41	0	102236160	59	5039
2026-01-20 11:54:29.85	169.29	12.92	-44.2	-46.8	23.5	6.09e-01	0	41	0	104333312	59	5006
2026-01-20 11:54:30.85	169.31	13.03	-44.2	-46.9	23.5	6.05e-01	0	41	0	105906176	59	5051
2026-01-20 11:54:31.84	169.34	13.14	-44.1	-46.7	23.6	6.07e-01	0	41	0	108003328	59	4979
2026-01-20 11:54:32.84	169.36	13.24	-44.1	-46.7	23.6	6.08e-01	0	41	0	109576192	59	4956
2026-01-20 11:54:33.83	169.39	13.35	-44.0	-46.7	23.6	6.08e-01	0	41	0	111673344	59	4964
2026-01-20 11:54:34.83	169.41	13.46	-44.0	-46.8	23.6	6.09e-01	0	41	0	113770496	59	4984
2026-01-20 11:54:35.82	169.44	13.57	-44.0	-46.7	23.6	6.07e-01	0	41	0	115343360	59	4943
2026-01-20 11:54:36.81	169.46	13.68	-43.8	-46.5	23.7	6.09e-01	0	41	0	117440512	59	4860
2026-01-20 11:54:37.81	169.49	13.79	-43.8	-46.5	23.8	6.07e-01	0	41	0	119013376	59	4852
2026-01-20 11:54:38.81	169.51	13.90	-43.7	-46.4	23.9	6.08e-01	0	41	0	121110528	59	4777
2026-01-20 11:54:39.80	169.54	14.01	-43.8	-46.5	23.8	6.09e-01	0	41	0	122683392	59	4828
2026-01-20 11:54:40.80	169.57	14.12	-43.8	-46.5	23.8	6.07e-01	0	41	0	124780544	59	4861
2026-01-20 11:54:41.79	169.59	14.23	-43.7	-46.3	24.0	6.10e-01	0	41	0	126877696	59	4756
2026-01-20 11:54:42.79	169.62	14.35	-43.8	-46.5	23.8	6.08e-01	0	41	0	128450560	59	4818
2026-01-20 11:54:43.78	169.64	14.46	-43.7	-46.3	20.1	6.07e-01	0	41	0	130547712	59	4733
2026-01-20 11:54:44.78	169.67	14.57	-43.7	-46.4	23.9	6.08e-01	0	41	0	132120576	59	4778
2026-01-20 11:54:45.77	169.70	14.69	-43.8	-46.5	23.9	6.07e-01	0	41	0	134217728	59	4825
2026-01-20 11:54:46.76	169.73	14.80	-43.8	-46.5	23.9	6.05e-01	0	41	0	135790592	59	4815
2026-01-20 11:54:47.76	169.75	14.92	-43.7	-46.4	23.9	6.08e-01	0	41	0	137887744	59	4784
2026-01-20 11:54:48.76	169.78	15.04	-43.7	-46.5	23.9	6.08e-01	0	41	0	139460608	59	4831
2026-01-20 11:54:49.75	169.81	15.15	-43.7	-46.4	23.9	6.07e-01	0	41	0	141557760	59	4814
2026-01-20 11:54:50.74	169.84	15.27	-43.8	-46.6	23.8	6.09e-01	0	41	0	143654912	59	4893
2026-01-20 11:54:51.74	169.86	15.39	-43.8	-46.6	23.8	6.07e-01	0	41	0	145227776	59	4880
2026-01-20 11:54:52.73	169.89	15.51	-43.7	-46.5	23.9	6.06e-01	0	41	0	147324928	59	4824
2026-01-20 11:54:53.72	169.92	15.63	-43.8	-46.6	23.9	6.07e-01	0	41	0	148897792	59	4879
2026-01-20 11:54:54.72	169.95	15.75	-43.9	-46.6	23.8	6.06e-01	0	41	0	150994944	59	4875
2026-01-20 11:54:55.71	169.98	15.87	-43.8	-46.5	23.9	6.05e-01	0	41	0	152567808	59	4846
2026-01-20 11:54:56.71	170.01	15.99	-43.8	-46.5	23.9	6.06e-01	0	41	0	154664960	59	4843
2026-01-20 11:54:57.70	170.04	16.11	-43.9	-46.6	23.8	6.06e-01	0	41	0	156237824	59	4875
2026-01-20 11:54:58.70	170.07	16.23	-43.8	-46.5	23.9	6.06e-01	0	41	0	158334976	59	4822
2026-01-20 11:54:59.69	170.10	16.36	-43.7	-46.2	24.1	6.06e-01	0	41	0	160432128	59	4695
2026-01-20 11:55:00.69	170.13	16.48	-43.7	-46.2	24.2	6.06e-01	0	41	0	162004992	59	4681
2026-01-20 11:55:01.68	170.16	16.61	-43.8	-46.3	24.1	6.06e-01	0	41	0	164102144	59	4756
2026-01-20 11:55:02.68	170.19	16.73	-43.8	-46.3	24.1	6.04e-01	0	41	0	165675008	59	4727
2026-01-20 11:55:03.67	170.22	16.86	-43.8	-46.3	24.1	6.06e-01	0	41	0	167772160	59	4753
2026-01-20 11:55:04.67	170.25	16.99	-43.7	-46.2	24.2	6.08e-01	0	41	0	169345024	59	4681
2026-01-20 11:55:05.66	170.28	17.11	-43.6	-46.1	24.3	6.08e-01	0	41	0	171442176	59	4646
2026-01-20 11:55:06.66	170.31	17.24	-43.6	-46.2	24.2	6.06e-01	0	41	0	173015040	59	4655
2026-01-20 11:55:07.65	170.35	17.37	-43.6	-46.2	24.2	6.07e-01	0	41	0	175112192	59	4660
2026-01-20 11:55:08.65	170.38	17.50	-43.6	-46.1	24.3	6.05e-01	0	41	0	177209344	59	4649
2026-01-20 11:55:09.64	170.41	17.63	-43.6	-46.2	24.2	6.08e-01	0	41	0	178782208	59	4683
2026-01-20 11:55:10.64	170.44	17.77	-43.6	-46.2	24.2	6.06e-01	0	41	0	180879360	59	4676
2026-01-20 11:55:11.63	170.48	17.90	-43.7	-46.3	24.2	6.09e-01	0	41	0	182452224	59	4707
2026-01-20 11:55:12.63	170.51	18.03	-43.7	-46.2	24.2	6.08e-01	0	41	0	184549376	59	4691
2026-01-20 11:55:13.62	170.54	18.16	-43.7	-46.3	24.1	6.06e-01	0	41	0	186122240	59	4713
2026-01-20 11:55:14.62	170.58	18.30	-43.6	-46.2	24.2	6.08e-01	0	41	0	188219392	59	4689
2026-01-20 11:55:15.61	170.61	18.43	-43.6	-46.1	24.3	6.08e-01	0	41	0	189792256	59	4630
2026-01-20 11:55:16.61	170.65	18.57	-43.7	-46.3	24.1	6.07e-01	0	41	0	191889408	59	4725
2026-01-20 11:55:17.60	170.68	18.71	-43.6	-46.2	24.3	6.05e-01	0	41	0	193986560	59	4654
2026-01-20 11:55:18.60	170.72	18.85	-43.6	-46.1	24.3	6.04e-01	0	41	0	195559424	59	4643
2026-01-20 11:55:19.59	170.75	18.98	-43.7	-46.2	24.2	6.05e-01	0	41	0	197656576	59	4695
2026-01-20 11:55:20.59	170.79	19.13	-43.8	-46.3	24.1	6.09e-01	0	41	0	199229440	59	4751
2026-01-20 11:55:21.58	170.82	19.26	-43.8	-46.3	24.1	6.07e-01	0	41	0	201326592	59	4739
2026-01-20 11:55:22.57	170.86	19.41	-43.7	-46.2	24.2	6.06e-01	0	41	0	202899456	59	4692
2026-01-20 11:55:23.57	170.90	19.55	-43.7	-46.2	24.2	6.04e-01	0	41	0	204996608	59	4691
2026-01-20 11:55:24.56	170.93	19.69	-43.7	-46.3	24.1	6.08e-01	0	41	0	206569472	59	4742
2026-01-20 11:55:25.56	170.97	19.84	-43.7	-46.2	24.2	6.09e-01	0	41	0	208666624	59	4693
2026-01-20 11:55:26.55	171.01	19.98	-43.7	-46.2	24.2	6.05e-01	0	41	0	210763776	59	4691
2026-01-20 11:55:27.55	171.05	20.13	-43.6	-46.2	24.3	6.06e-01	0	41	0	212336640	59	4656
2026-01-20 11:55:28.54	171.09	20.27	-43.7	-46.2	24.2	6.06e-01	0	41	0	214433792	59	4686
2026-01-20 11:55:29.54	171.12	20.42	-43.8	-46.3	24.1	6.09e-01	0	41	0	216006656	59	4754
2026-01-20 11:55:30.53	171.16	20.57	-43.7	-46.3	24.1	6.05e-01	0	41	0	218103808	59	4749
2026-01-20 11:55:31.53	171.20	20.72	-43.8	-46.4	24.0	6.04e-01	0	41	0	219676672	59	4801
2026-01-20 11:55:32.52	171.24	20.87	-43.8	-46.4	24.1	6.08e-01	0	41	0	221773824	59	4766
2026-01-20 11:55:33.52	171.28	21.02	-43.8	-46.5	24.0	6.07e-01	0	41	0	223346688	59	4817
2026-01-20 11:55:34.51	171.32	21.17	-43.9	-46.6	23.9	6.05e-01	0	41	0	225443840	59	4922
2026-01-20 11:55:35.50	171.36	21.33	-44.0	-46.8	23.7	6.08e-01	0	41	0	227540992	59	5009
2026-01-20 11:55:36.50	171.41	21.48	-44.1	-46.9	23.7	6.09e-01	0	41	0	229113856	59	5049
2026-01-20 11:55:37.49	171.45	21.64	-44.1	-46.8	23.7	6.07e-01	0	41	0	231211008	59	5018
2026-01-20 11:55:38.49	171.49	21.80	-44.1	-46.8	22.1	6.06e-01	0	41	0	232783872	59	5020
2026-01-20 11:55:39.48	171.53	21.95	-44.2	-46.8	23.7	6.04e-01	0	41	0	234881024	59	5030
2026-01-20 11:55:40.48	171.58	22.11	-44.3	-47.0	23.6	6.07e-01	0	41	0	236453888	59	5105
2026-01-20 11:55:41.47	171.62	22.27	-44.1	-46.7	23.8	6.04e-01	0	41	0	238551040	59	4973
2026-01-20 11:55:42.47	171.66	22.43	-43.9	-46.5	24.0	6.04e-01	0	41	0	240123904	59	4847
2026-01-20 11:55:43.46	171.71	22.59	-43.9	-46.6	23.9	6.05e-01	0	41	0	242221056	59	4879
2026-01-20 11:55:44.46	171.75	22.76	-43.9	-46.4	24.1	6.07e-01	0	41	0	244318208	59	4812
2026-01-20 11:55:45.45	171.80	22.92	-43.9	-46.5	24.1	6.05e-01	0	41	0	245891072	59	4816
2026-01-20 11:55:46.44	171.84	23.09	-44.0	-46.5	24.0	6.06e-01	0	41	0	247988224	59	4840
2026-01-20 11:55:47.44	171.89	23.25	-44.0	-46.6	23.9	6.05e-01	0	41	0	249561088	59	4877
2026-01-20 11:55:48.43	171.94	23.42	-44.1	-46.6	23.9	6.08e-01	0	41	0	251658240	59	4898
2026-01-20 11:55:49.43	171.98	23.59	-44.1	-46.7	23.9	6.08e-01	0	41	0	253231104	59	4946
2026-01-20 11:55:50.42	172.03	23.76	-44.1	-46.7	23.9	6.07e-01	0	41	0	255328256	59	4928
2026-01-20 11:55:51.42	172.08	23.93	-44.0	-46.5	24.0	6.07e-01	0	41	0	256901120	59	4851
2026-01-20 11:55:52.41	172.13	24.10	-44.0	-46.5	24.0	6.07e-01	0	41	0	258998272	59	4865
2026-01-20 11:55:53.41	172.18	24.28	-44.0	-46.5	24.0	6.09e-01	0	41	0	261095424	59	4852
2026-01-20 11:55:54.40	172.23	24.45	-44.0	-46.5	24.0	6.08e-01	0	41	0	262668288	59	4858
2026-01-20 11:55:55.40	172.28	24.63	-44.1	-46.7	23.9	6.08e-01	0	41	0	264765440	59	4928
2026-01-20 11:55:56.39	172.33	24.81	-44.2	-46.8	23.8	6.04e-01	0	41	0	266338304	59	4986
2026-01-20 11:55:57.38	172.38	24.98	-44.3	-46.9	23.7	6.06e-01	0	41	0	268435456	59	5056
2026-01-20 11:55:58.38	172.43	25.17	-44.3	-46.9	23.7	6.06e-01	0	41	0	270008320	59	5074
2026-01-20 11:55:59.38	172.48	25.35	-44.3	-46.8	23.8	6.06e-01	0	41	0	272105472	59	5020
2026-01-20 11:56:00.37	172.54	25.53	-44.2	-46.8	23.8	6.07e-01	0	41	0	273678336	59	4988
2026-01-20 11:56:01.36	172.59	25.71	-44.3	-46.9	23.7	6.03e-01	0	41	0	275775488	59	5057
2026-01-20 11:56:02.36	172.65	25.90	-44.2	-46.7	23.8	6.08e-01	0	41	0	277872640	59	4968
2026-01-20 11:56:03.35	172.70	26.09	-44.1	-46.7	23.9	6.06e-01	0	41	0	279445504	59	4941
2026-01-20 11:56:04.35	172.76	26.28	-44.2	-46.7	23.9	6.07e-01	0	41	0	281542656	59	4943
2026-01-20 11:56:05.35	172.81	26.47	-44.2	-46.7	23.8	6.05e-01	0	41	0	283115520	59	4954
2026-01-20 11:56:06.34	172.87	26.66	-44.1	-46.6	24.0	6.06e-01	0	41	0	285212672	59	4874
2026-01-20 11:56:07.33	172.93	26.85	-43.9	-46.4	24.1	6.09e-01	0	41	0	286785536	59	4783
2026-01-20 11:56:08.33	172.99	27.04	-44.0	-46.4	24.1	6.04e-01	0	41	0	288882688	59	4814
2026-01-20 11:56:09.32	173.04	27.24	-43.8	-46.2	24.3	6.04e-01	0	41	0	290455552	59	4683
2026-01-20 11:56:10.32	173.10	27.44	-43.7	-46.1	24.4	6.09e-01	0	41	0	292552704	59	4607
2026-01-20 11:56:11.31	173.16	27.63	-43.8	-46.2	24.4	6.05e-01	0	41	0	294649856	59	4659
2026-01-20 11:56:12.30	173.23	27.83	-43.7	-46.2	24.4	6.07e-01	0	41	0	296222720	59	4652
2026-01-20 11:56:13.29	173.29	28.03	-43.9	-46.3	24.3	6.10e-01	0	41	0	298319872	59	4726
2026-01-20 11:56:14.29	173.35	28.24	-43.8	-46.3	24.3	6.06e-01	0	41	0	299892736	59	4720
2026-01-20 11:56:15.28	173.41	28.44	-43.7	-46.1	24.4	6.07e-01	0	41	0	301989888	59	4644
2026-01-20 11:56:16.28	173.48	28.65	-43.6	-45.9	24.5	6.07e-01	0	41	0	303562752	59	4543
2026-01-20 11:56:17.27	173.54	28.85	-43.6	-45.9	24.6	6.07e-01	0	41	0	305659904	59	4534
2026-01-20 11:56:18.26	173.61	29.06	-43.6	-45.9	24.6	6.07e-01	0	41	0	307232768	59	4519
2026-01-20 11:56:19.26	173.68	29.27	-43.6	-46.0	24.5	6.05e-01	0	41	0	309329920	59	4558
2026-01-20 11:56:20.25	173.74	29.49	-43.6	-46.0	24.5	6.06e-01	0	41	0	311427072	59	4559
2026-01-20 11:56:21.25	173.81	29.70	-43.6	-46.0	24.5	6.06e-01	0	41	0	312999936	59	4548
2026-01-20 11:56:22.24	173.88	29.92	-43.5	-45.9	24.6	6.06e-01	0	41	0	315097088	59	4502
2026-01-20 11:56:23.24	173.95	30.14	-43.5	-45.9	24.6	6.06e-01	0	41	0	316669952	58	4784
2026-01-20 11:56:24.23	174.02	30.36	-43.4	-45.8	24.7	6.09e-01	0	41	0	318767104	58	4718
2026-01-20 11:56:25.23	174.10	30.58	-43.5	-45.9	24.7	6.05e-01	0	41	0	320339968	58	4778
2026-01-20 11:56:26.22	174.17	30.80	-43.5	-46.0	24.5	6.07e-01	0	41	0	322437120	58	4816
2026-01-20 11:56:27.22	174.24	31.03	-43.6	-46.0	24.5	6.08e-01	0	41	0	324534272	58	4853
2026-01-20 11:56:28.21	174.32	31.25	-43.6	-46.0	24.5	6.07e-01	0	41	0	326107136	58	4821
2026-01-20 11:56:29.21	174.40	31.48	-43.7	-46.1	24.4	6.08e-01	0	41	0	328204288	58	4901
2026-01-20 11:56:30.20	174.47	31.71	-44.0	-46.5	24.2	6.06e-01	0	41	0	329777152	58	5102
2026-01-20 11:56:31.19	174.55	31.94	-44.0	-46.5	24.1	6.08e-01	0	41	0	331874304	58	5102
2026-01-20 11:56:32.19	174.63	32.18	-43.9	-46.4	24.2	6.07e-01	0	41	0	333447168	58	5072
2026-01-20 11:56:33.19	174.71	32.42	-43.8	-46.3	24.3	6.05e-01	0	41	0	335544320	58	4992
2026-01-20 11:56:34.18	174.80	32.65	-43.6	-46.1	24.3	6.06e-01	0	41	0	337117184	58	4910
2026-01-20 11:56:35.18	174.88	32.89	-43.7	-46.1	24.4	6.08e-01	0	41	0	339214336	58	4922
2026-01-20 11:56:36.18	174.96	33.14	-43.9	-46.3	24.3	6.05e-01	0	41	0	341311488	58	5034
2026-01-20 11:56:37.17	175.05	33.38	-44.1	-46.6	24.0	6.04e-01	0	41	0	342884352	58	5185
2026-01-20 11:56:38.16	175.14	33.63	-44.3	-46.8	23.9	6.07e-01	0	41	0	344981504	59	5013
2026-01-20 11:56:39.16	175.22	33.88	-44.4	-46.9	23.8	6.07e-01	0	41	0	346554368	59	5057
2026-01-20 11:56:40.15	175.31	34.12	-44.4	-47.0	23.7	6.06e-01	0	41	0	348651520	59	5106
2026-01-20 11:56:41.15	175.41	34.38	-44.4	-46.9	23.7	6.06e-01	0	41	0	350224384	59	5095
2026-01-20 11:56:42.14	175.50	34.63	-44.5	-47.0	23.6	6.06e-01	0	41	0	352321536	59	5136
2026-01-20 11:56:43.14	175.59	34.89	-44.5	-47.1	23.6	6.08e-01	0	41	0	353894400	59	5192
2026-01-20 11:56:44.13	175.69	35.15	-44.6	-47.2	23.5	6.09e-01	0	41	0	355991552	59	5222
2026-01-20 11:56:45.12	175.78	35.41	-44.6	-47.2	23.5	6.05e-01	0	41	0	358088704	60	4939
2026-01-20 11:56:46.12	175.88	35.67	-44.8	-47.5	23.2	6.08e-01	0	41	0	359661568	60	5102
2026-01-20 11:56:47.11	175.98	35.94	-45.0	-47.7	23.0	6.03e-01	0	41	0	361758720	60	5245
2026-01-20 11:56:48.11	176.08	36.21	-45.1	-47.8	22.9	6.07e-01	0	41	0	363331584	60	5307
2026-01-20 11:56:49.10	176.19	36.47	-45.0	-47.7	23.0	6.06e-01	0	41	0	365428736	60	5269
2026-01-20 11:56:50.10	176.29	36.75	-45.0	-47.8	22.9	6.05e-01	0	41	0	367001600	60	5323
2026-01-20 11:56:51.09	176.40	37.02	-45.5	-48.5	22.3	6.08e-01	0	41	0	369098752	61	5410
2026-01-20 11:56:52.09	176.51	37.30	-45.5	-48.4	22.3	6.09e-01	0	41	0	370671616	62	5088
2026-01-20 11:56:53.08	176.62	37.58	-45.3	-48.2	22.5	6.08e-01	0	41	0	372768768	62	4964
2026-01-20 11:56:54.08	176.73	37.86	-45.3	-48.2	21.9	6.08e-01	0	41	0	374865920	62	4940
2026-01-20 11:56:55.07	176.84	38.14	-45.2	-47.9	22.8	6.08e-01	0	41	0	376438784	62	4792
2026-01-20 11:56:56.07	176.96	38.43	-45.3	-48.0	22.7	6.09e-01	0	41	0	378535936	62	4857
2026-01-20 11:56:57.06	177.08	38.72	-45.6	-48.4	22.3	6.07e-01	0	41	0	380108800	62	5082
2026-01-20 11:56:58.06	177.20	39.01	-45.7	-48.7	22.1	6.07e-01	0	41	0	382205952	62	5232
2026-01-20 11:56:59.05	177.32	39.31	-45.6	-48.5	22.2	6.07e-01	0	41	0	383778816	62	5123
2026-01-20 11:57:00.05	177.45	39.60	-45.6	-48.5	22.3	6.06e-01	0	41	0	385875968	62	5112
2026-01-20 11:57:01.04	177.57	39.90	-45.6	-48.4	22.3	6.06e-01	0	41	0	387448832	62	5080
2026-01-20 11:57:02.03	177.70	40.20	-45.3	-48.1	22.7	6.07e-01	0	41	0	389545984	62	4886
2026-01-20 11:57:03.03	177.84	40.51	-45.2	-48.0	22.7	6.05e-01	0	41	0	391643136	62	4835
2026-01-20 11:57:04.02	177.97	40.81	-45.0	-47.7	23.0	6.07e-01	0	41	0	393216000	62	4660
2026-01-20 11:57:05.02	178.11	41.12	-45.0	-47.6	23.0	6.06e-01	0	41	0	395313152	61	4916
2026-01-20 11:57:06.02	178.25	41.44	-44.7	-47.2	23.4	6.07e-01	0	41	0	396886016	61	4700
2026-01-20 11:57:07.01	178.39	41.75	-44.4	-47.0	23.6	6.06e-01	0	41	0	398983168	60	4823
2026-01-20 11:57:08.00	178.53	42.07	-44.5	-47.1	23.5	6.06e-01	0	41	0	400556032	60	4907
2026-01-20 11:57:09.00	178.68	42.39	-44.5	-47.1	23.5	6.06e-01	0	41	0	402653184	60	4886
2026-01-20 11:57:09.99	178.83	42.71	-44.1	-46.5	23.3	6.09e-01	0	41	0	404750336	60	4577
2026-01-20 11:57:10.99	178.99	43.04	-43.8	-46.2	24.3	6.05e-01	0	41	0	406323200	59	4703
2026-01-20 11:57:11.99	179.14	43.37	-43.9	-46.3	24.3	6.07e-01	0	41	0	408420352	59	4719
2026-01-20 11:57:12.98	179.30	43.70	-43.9	-46.3	24.3	6.04e-01	0	41	0	409993216	59	4729
2026-01-20 11:57:13.98	179.47	44.03	-43.8	-46.2	24.4	6.05e-01	0	41	0	412090368	59	4664
2026-01-20 11:57:14.97	179.63	44.37	-43.8	-46.2	24.4	6.06e-01	0	41	0	413663232	59	4687
2026-01-20 11:57:15.97	179.81	44.71	-43.6	-46.0	24.6	6.07e-01	0	41	0	415760384	59	4550
2026-01-20 11:57:16.96	179.98	45.05	-43.8	-46.2	24.4	6.04e-01	0	41	0	417333248	59	4654
2026-01-20 11:57:17.95	180.16	45.39	-44.0	-46.4	24.2	6.08e-01	0	41	0	419430400	59	4812
2026-01-20 11:57:18.95	180.34	45.74	-43.6	-46.0	24.6	6.05e-01	0	41	0	421527552	59	4550
2026-01-20 11:57:19.94	180.52	46.09	-43.8	-46.1	24.5	6.06e-01	0	41	0	423100416	59	4638
2026-01-20 11:57:20.93	180.71	46.44	-44.1	-46.6	24.1	6.08e-01	0	41	0	425197568	59	4886
2026-01-20 11:57:21.92	180.91	46.80	-43.9	-46.3	24.2	6.02e-01	0	41	0	426770432	59	4753
2026-01-20 11:57:22.92	181.11	47.16	-43.7	-46.1	24.5	6.09e-01	0	41	0	428867584	59	4619
2026-01-20 11:57:23.91	181.31	47.52	-43.7	-46.1	24.5	6.06e-01	0	41	0	430440448	59	4631
2026-01-20 11:57:24.91	181.52	47.89	-43.8	-46.2	24.4	6.08e-01	0	41	0	432537600	59	4670
2026-01-20 11:57:25.90	181.73	48.25	-43.9	-46.4	24.3	6.05e-01	0	41	0	434110464	59	4760
2026-01-20 11:57:26.90	181.95	48.62	-43.6	-46.0	24.6	6.09e-01	0	41	0	436207616	59	4587
2026-01-20 11:57:27.89	182.17	49.00	-43.7	-46.1	24.5	6.05e-01	0	41	0	438304768	59	4605
2026-01-20 11:57:28.89	182.40	49.37	-43.8	-46.2	24.4	6.03e-01	0	41	0	439877632	59	4701
2026-01-20 11:57:29.88	182.64	49.75	-43.7	-46.1	24.5	6.06e-01	0	41	0	441974784	59	4603
2026-01-20 11:57:30.88	182.88	50.14	-43.7	-46.1	24.5	6.06e-01	0	41	0	443547648	59	4609
2026-01-20 11:57:31.87	183.13	50.52	-43.4	-45.7	24.8	6.04e-01	0	41	0	445644800	58	4705
2026-01-20 11:57:32.86	183.38	50.90	-43.3	-45.6	24.9	6.06e-01	0	41	0	447217664	58	4646
2026-01-20 11:57:33.86	183.64	51.30	-43.3	-45.7	24.9	6.06e-01	0	41	0	449314816	58	4667
2026-01-20 11:57:34.85	183.90	51.69	-43.2	-45.4	25.0	6.06e-01	0	41	0	450887680	58	4544
2026-01-20 11:57:35.85	184.18	52.09	-43.3	-45.5	25.0	6.07e-01	0	41	0	452984832	58	4598
2026-01-20 11:57:36.84	184.46	52.48	-43.1	-45.4	25.1	6.06e-01	0	41	0	455081984	58	4521
2026-01-20 11:57:37.84	184.75	52.89	-43.1	-45.4	25.0	6.08e-01	0	41	0	456654848	58	4528
2026-01-20 11:57:38.83	185.05	53.29	-43.1	-45.5	25.0	6.05e-01	0	42	0	458752000	58	4577
2026-01-20 11:57:39.83	185.35	53.70	-43.0	-45.3	25.1	6.09e-01	0	41	0	460324864	58	4481
2026-01-20 11:57:40.82	185.67	54.10	-43.0	-45.3	25.3	6.03e-01	0	41	0	462422016	57	4722
2026-01-20 11:57:41.81	185.99	54.51	-43.3	-45.7	24.8	6.07e-01	0	41	0	463994880	57	4930
2026-01-20 11:57:42.81	186.32	54.93	-43.3	-45.7	24.8	6.05e-01	0	41	0	466092032	57	4947
2026-01-20 11:57:43.80	186.66	55.34	-43.6	-45.9	24.7	6.07e-01	0	41	0	467664896	57	5098
2026-01-20 11:57:44.80	187.02	55.77	-44.0	-46.4	24.2	6.06e-01	0	41	0	469762048	58	5082
2026-01-20 11:57:45.80	187.38	56.19	-44.0	-46.4	24.3	6.08e-01	0	41	0	471859200	58	5049
2026-01-20 11:57:46.79	187.75	56.61	-44.3	-46.7	24.0	6.07e-01	0	41	0	473432064	59	4955
2026-01-20 11:57:47.79	188.14	57.04	-44.1	-46.5	24.1	6.06e-01	0	41	0	475529216	59	4870
2026-01-20 11:57:48.78	188.54	57.46	-44.6	-47.1	23.7	6.07e-01	0	41	0	477102080	59	5178
2026-01-20 11:57:49.78	188.95	57.90	-44.4	-46.9	23.7	6.06e-01	0	41	0	479199232	60	4796
2026-01-20 11:57:50.77	189.37	58.33	-44.5	-47.1	23.6	6.06e-01	0	41	0	480772096	60	4871
2026-01-20 11:57:51.76	189.81	58.76	-44.6	-47.2	23.5	6.08e-01	0	41	0	482869248	60	4928
2026-01-20 11:57:52.76	190.27	59.20	-44.9	-47.6	23.1	6.06e-01	0	41	0	484442112	60	5170
2026-01-20 11:57:53.75	190.73	59.63	-45.0	-47.7	23.0	6.06e-01	0	41	0	486539264	60	5220
2026-01-20 11:57:54.75	191.22	60.07	-45.1	-47.8	22.9	6.06e-01	0	41	0	488636416	61	4989
2026-01-20 11:57:55.74	191.72	60.51	-45.2	-47.8	23.0	6.08e-01	0	41	0	490209280	61	5008
2026-01-20 11:57:56.74	192.24	60.95	-45.5	-48.2	22.5	6.07e-01	0	41	0	492306432	61	5248
2026-01-20 11:57:57.73	192.77	61.39	-45.8	-48.5	22.3	6.04e-01	0	41	0	493879296	62	5150
2026-01-20 11:57:58.72	193.32	61.83	-45.8	-48.7	22.2	6.07e-01	0	41	0	495976448	62	5232
2026-01-20 11:57:59.72	193.90	62.28	-46.1	-49.1	21.7	6.05e-01	0	41	0	497549312	62	5484
2026-01-20 11:58:00.72	194.51	62.72	-46.2	-49.3	21.5	6.06e-01	0	41	0	499646464	62	5639
2026-01-20 11:58:01.71	195.12	63.16	-46.4	-49.5	21.3	6.07e-01	0	41	0	501219328	63	5461
2026-01-20 11:58:02.70	195.76	63.60	-46.9	-50.2	20.6	6.07e-01	0	41	0	503316480	64	5536
2026-01-20 11:58:03.70	196.44	64.05	-46.6	-49.8	21.1	6.07e-01	0	41	0	505413632	64	5314
2026-01-20 11:58:04.69	197.13	64.49	-47.0	-50.4	20.4	6.05e-01	0	41	0	506986496	64	5696
2026-01-20 11:58:05.69	197.85	64.94	-47.3	-50.9	20.0	6.09e-01	0	41	0	509083648	65	5699
2026-01-20 11:58:06.68	198.60	65.38	-47.3	-51.1	19.8	6.06e-01	0	41	0	510656512	65	5819
2026-01-20 11:58:07.68	199.39	65.82	-47.6	-51.4	19.5	6.06e-01	0	41	0	512753664	65	6027
2026-01-20 11:58:08.67	200.19	66.25	-47.9	-51.8	19.3	6.07e-01	0	41	0	514326528	66	5926
2026-01-20 11:58:09.67	201.05	66.69	-48.2	-52.1	18.9	6.06e-01	0	41	0	516423680	67	5794
2026-01-20 11:58:10.66	201.92	67.12	-47.9	-51.6	19.2	6.09e-01	0	41	0	517996544	67	5465
2026-01-20 11:58:11.66	202.85	67.56	-48.1	-51.9	19.1	6.05e-01	0	41	0	520093696	67	5694
2026-01-20 11:58:12.65	203.80	67.98	-48.4	-52.4	18.6	6.05e-01	0	41	0	522190848	67	6015
2026-01-20 11:58:13.64	204.80	68.41	-48.1	-51.9	18.9	6.06e-01	0	41	0	523763712	67	5704
2026-01-20 11:58:14.64	205.84	68.83	-48.2	-52.1	18.8	6.07e-01	0	41	0	525860864	67	5819
2026-01-20 11:58:15.64	206.94	69.25	-48.2	-52.2	18.9	6.10e-01	0	41	0	527433728	67	5861
2026-01-20 11:58:16.63	208.07	69.65	-48.4	-52.6	18.3	6.06e-01	0	41	0	529530880	67	6161
2026-01-20 11:58:17.63	209.26	70.06	-47.7	-51.4	19.5	6.05e-01	0	41	0	531103744	67	5356
2026-01-20 11:58:18.62	210.49	70.45	-47.5	-51.1	19.8	6.09e-01	0	41	0	533200896	66	5492
2026-01-20 11:58:19.62	211.79	70.85	-47.3	-51.1	19.7	6.05e-01	0	41	0	534773760	66	5474
2026-01-20 11:58:20.61	213.13	71.23	-47.1	-50.6	20.3	6.08e-01	0	41	0	536870912	65	5473
2026-01-20 11:58:21.61	214.54	71.60	-47.0	-50.3	20.6	6.08e-01	0	41	0	538968064	65	5303
2026-01-20 11:58:22.60	216.00	71.96	-47.0	-50.4	20.5	6.05e-01	0	41	0	540540928	65	5359
2026-01-20 11:58:23.60	217.54	72.32	-46.2	-49.2	21.6	6.08e-01	0	41	0	542638080	64	4935
2026-01-20 11:58:24.59	219.13	72.66	-46.4	-49.5	21.4	6.07e-01	0	41	0	544210944	64	5105
2026-01-20 11:58:25.59	220.80	72.99	-46.3	-49.3	21.5	6.05e-01	0	41	0	546308096	64	5015
2026-01-20 11:58:26.58	222.52	73.31	-46.1	-49.0	21.9	6.06e-01	0	41	0	547880960	63	5124
2026-01-20 11:58:27.58	224.32	73.61	-46.3	-49.3	21.6	6.06e-01	0	41	0	549978112	63	5303
2026-01-20 11:58:28.57	226.18	73.90	-46.4	-49.4	21.5	6.07e-01	0	41	0	551550976	63	5389
2026-01-20 11:58:29.56	228.11	74.17	-46.2	-49.1	21.7	6.08e-01	0	41	0	553648128	63	5218
2026-01-20 11:58:30.55	230.10	74.42	-46.6	-49.7	21.1	6.04e-01	0	41	0	555745280	64	5278
2026-01-20 11:58:31.55	232.18	74.66	-46.4	-49.5	21.3	6.07e-01	0	41	0	557318144	64	5157
2026-01-20 11:58:32.54	234.30	74.87	-45.8	-48.7	22.1	6.09e-01	0	41	0	559415296	63	4973
2026-01-20 11:58:33.54	236.51	75.07	-46.2	-49.2	21.6	6.08e-01	0	41	0	560988160	63	5258
2026-01-20 11:58:34.53	238.75	75.25	-45.6	-48.5	22.2	6.08e-01	0	41	0	563085312	63	4830
2026-01-20 11:58:35.53	241.07	75.40	-45.7	-48.8	22.0	6.06e-01	0	41	0	564658176	62	5301
2026-01-20 11:58:36.52	243.41	75.53	-45.6	-48.6	22.2	6.09e-01	0	41	0	566755328	62	5185
2026-01-20 11:58:37.52	245.81	75.64	-45.5	-48.4	22.4	6.08e-01	0	41	0	568328192	62	5076
2026-01-20 11:58:38.51	248.22	75.72	-45.1	-47.8	22.9	6.06e-01	0	41	0	570425344	62	4757
2026-01-20 11:58:39.51	250.69	75.77	-45.9	-48.9	21.8	6.06e-01	0	41	0	572522496	62	5394
2026-01-20 11:58:40.50	253.14	75.81	-45.5	-48.5	22.3	6.05e-01	0	41	0	574095360	62	5127
2026-01-20 11:58:41.49	255.60	75.81	-45.3	-48.3	22.5	6.09e-01	0	41	0	576192512	62	5012
2026-01-20 11:58:42.49	258.08	75.79	-45.9	-49.0	21.8	6.04e-01	0	41	0	577765376	62	5430
2026-01-20 11:58:43.48	260.52	75.75	-45.7	-48.6	22.2	6.06e-01	0	41	0	579862528	62	5165
2026-01-20 11:58:44.48	262.97	75.68	-45.8	-48.7	22.1	6.04e-01	0	41	0	581435392	62	5234
2026-01-20 11:58:45.47	265.37	75.59	-45.8	-48.6	22.1	6.08e-01	0	41	0	583532544	62	5213
2026-01-20 11:58:46.47	267.75	75.47	-45.9	-48.8	22.0	6.06e-01	0	41	0	585629696	62	5288
2026-01-20 11:58:47.46	270.07	75.33	-45.4	-48.1	22.7	6.08e-01	0	41	0	587202560	62	4903
2026-01-20 11:58:48.45	272.34	75.17	-45.8	-48.9	22.0	6.05e-01	0	41	0	589299712	62	5344
2026-01-20 11:58:49.45	274.58	74.98	-45.5	-48.4	22.4	6.07e-01	0	41	0	590872576	62	5060
2026-01-20 11:58:50.44	276.73	74.77	-45.7	-48.7	22.2	6.08e-01	0	41	0	592969728	62	5230
2026-01-20 11:58:51.44	278.84	74.55	-45.7	-48.7	22.2	6.07e-01	0	41	0	594542592	62	5223
2026-01-20 11:58:52.43	280.87	74.30	-45.7	-48.7	22.1	6.06e-01	0	41	0	596639744	62	5236
2026-01-20 11:58:53.43	282.85	74.04	-46.0	-48.9	22.0	6.10e-01	0	41	0	598212608	62	5388
2026-01-20 11:58:54.42	284.74	73.76	-46.1	-49.0	21.9	6.07e-01	0	41	0	600309760	63	5151
2026-01-20 11:58:55.42	286.58	73.47	-46.3	-49.4	21.6	6.07e-01	0	41	0	602406912	63	5345
2026-01-20 11:58:56.41	288.33	73.16	-46.1	-49.1	21.8	6.07e-01	0	41	0	603979776	63	5160
2026-01-20 11:58:57.41	290.04	72.83	-46.3	-49.3	21.6	6.04e-01	0	41	0	606076928	63	5326
2026-01-20 11:58:58.41	291.67	72.50	-46.1	-49.0	21.8	6.07e-01	0	41	0	607649792	63	5148
2026-01-20 11:58:59.40	293.22	72.15	-46.4	-49.4	21.5	6.08e-01	0	41	0	609746944	63	5389
2026-01-20 11:59:00.39	294.71	71.79	-46.0	-49.0	21.9	6.07e-01	0	41	0	611319808	63	5111
2026-01-20 11:59:01.39	296.16	71.42	-46.1	-49.0	21.9	6.07e-01	0	41	0	613416960	63	5123
2026-01-20 11:59:02.38	297.53	71.05	-46.5	-49.6	21.3	6.06e-01	0	41	0	614989824	63	5494
2026-01-20 11:59:03.38	298.85	70.66	-46.1	-49.1	21.8	6.06e-01	0	41	0	617086976	63	5179
2026-01-20 11:59:04.37	300.11	70.27	-46.3	-49.4	21.5	6.07e-01	0	41	0	619184128	63	5366
2026-01-20 11:59:05.37	301.32	69.87	-46.5	-49.5	21.4	6.07e-01	0	41	0	620756992	63	5431
2026-01-20 11:59:06.36	302.48	69.46	-46.7	-49.9	21.0	6.04e-01	0	41	0	622854144	64	5352
2026-01-20 11:59:07.36	303.59	69.05	-46.6	-49.7	21.1	6.06e-01	0	41	0	624427008	64	5273
2026-01-20 11:59:08.35	304.65	68.63	-46.5	-49.5	21.3	6.05e-01	0	41	0	626524160	64	5152
2026-01-20 11:59:09.34	305.67	68.22	-47.0	-50.2	20.7	6.07e-01	0	41	0	628097024	64	5558
2026-01-20 11:59:10.34	306.65	67.79	-46.6	-49.7	21.2	6.08e-01	0	41	0	630194176	64	5221
2026-01-20 11:59:11.33	307.59	67.36	-46.9	-50.2	20.7	6.07e-01	0	41	0	631767040	64	5571
2026-01-20 11:59:12.33	308.49	66.93	-46.4	-49.5	21.4	6.05e-01	0	41	0	633864192	64	5157
2026-01-20 11:59:13.32	309.35	66.50	-46.4	-49.7	21.1	6.07e-01	0	41	0	635961344	64	5259
2026-01-20 11:59:14.32	310.18	66.06	-46.4	-49.6	21.3	6.07e-01	0	41	0	637534208	64	5196
2026-01-20 11:59:15.31	310.98	65.62	-45.8	-48.7	22.0	6.07e-01	0	41	0	639631360	63	4931
2026-01-20 11:59:16.31	311.75	65.18	-45.7	-48.5	22.3	6.07e-01	0	41	0	641204224	63	4834
2026-01-20 11:59:17.30	312.48	64.74	-45.9	-48.9	21.9	6.06e-01	0	41	0	643301376	63	5047
2026-01-20 11:59:18.30	313.19	64.30	-45.2	-48.0	22.7	6.07e-01	0	41	0	644874240	62	4839
2026-01-20 11:59:19.29	313.87	63.86	-45.2	-47.9	22.9	6.09e-01	0	41	0	646971392	62	4794
2026-01-20 11:59:20.29	314.53	63.41	-45.1	-47.8	22.9	6.08e-01	0	41	0	648544256	62	4736
2026-01-20 11:59:21.28	315.16	62.97	-45.2	-47.9	22.9	6.04e-01	0	41	0	650641408	62	4771
2026-01-20 11:59:22.28	315.77	62.53	-44.8	-47.3	23.4	6.05e-01	0	41	0	652738560	61	4756
2026-01-20 11:59:23.27	316.35	62.09	-45.1	-47.8	23.0	6.07e-01	0	41	0	654311424	61	5003
2026-01-20 11:59:24.27	316.92	61.64	-44.7	-47.4	23.3	6.10e-01	0	41	0	656408576	61	4780
2026-01-20 11:59:25.26	317.47	61.21	-44.7	-47.5	23.2	6.05e-01	0	41	0	657981440	61	4850
2026-01-20 11:59:26.26	318.00	60.76	-44.6	-47.4	23.3	6.06e-01	0	41	0	660078592	61	4790
2026-01-20 11:59:27.25	318.50	60.33	-44.5	-47.1	23.6	6.06e-01	0	41	0	661651456	60	4896
2026-01-20 11:59:28.25	319.00	59.89	-44.5	-47.1	23.5	6.06e-01	0	41	0	663748608	60	4912
2026-01-20 11:59:29.24	319.47	59.45	-44.5	-47.0	23.6	6.05e-01	0	41	0	665845760	60	4867
2026-01-20 11:59:30.24	319.93	59.02	-44.6	-47.2	23.5	6.06e-01	0	41	0	667418624	60	4971
2026-01-20 11:59:31.23	320.38	58.59	-44.2	-46.7	23.8	6.05e-01	0	41	0	669515776	60	4687
2026-01-20 11:59:32.23	320.81	58.15	-44.2	-46.7	24.0	6.07e-01	0	41	0	671088640	59	4928
2026-01-20 11:59:33.22	321.23	57.73	-44.2	-46.7	24.0	6.07e-01	0	41	0	673185792	59	4963
2026-01-20 11:59:34.22	321.63	57.30	-44.0	-46.4	24.3	6.06e-01	0	41	0	674758656	59	4781
2026-01-20 11:59:35.21	322.02	56.87	-44.1	-46.5	24.2	6.07e-01	0	41	0	676855808	59	4832
2026-01-20 11:59:36.21	322.41	56.45	-43.8	-46.2	24.4	6.08e-01	0	41	0	678428672	59	4695
2026-01-20 11:59:37.20	322.77	56.03	-43.3	-45.6	24.9	6.07e-01	0	41	0	680525824	58	4617
2026-01-20 11:59:38.19	323.13	55.61	-43.3	-45.6	24.9	6.07e-01	0	41	0	682622976	58	4644
2026-01-20 11:59:39.19	323.48	55.19	-43.4	-45.8	24.8	6.06e-01	0	41	0	684195840	58	4711
2026-01-20 11:59:40.18	323.81	54.78	-43.6	-45.9	24.7	6.09e-01	0	41	0	686292992	58	4804
2026-01-20 11:59:41.18	324.14	54.37	-43.4	-45.8	24.8	6.06e-01	0	41	0	687865856	58	4727
2026-01-20 11:59:42.17	324.46	53.96	-43.1	-45.4	25.1	6.05e-01	0	41	0	689963008	58	4540
2026-01-20 11:59:43.17	324.77	53.55	-43.5	-45.8	24.7	6.07e-01	0	41	0	691535872	58	4753
2026-01-20 11:59:44.16	325.07	53.15	-43.4	-45.7	24.9	6.06e-01	0	41	0	693633024	58	4661
2026-01-20 11:59:45.16	325.37	52.75	-43.4	-45.7	24.8	6.09e-01	0	41	0	695205888	58	4689
2026-01-20 11:59:46.15	325.65	52.35	-43.6	-46.0	24.7	6.06e-01	0	41	0	697303040	58	4848
2026-01-20 11:59:47.15	325.93	51.95	-43.8	-46.3	24.3	6.05e-01	0	41	0	699400192	58	5033
2026-01-20 11:59:48.14	326.20	51.56	-43.7	-46.2	24.5	6.04e-01	0	41	0	700973056	58	4931
2026-01-20 11:59:49.14	326.46	51.17	-43.7	-46.1	24.5	6.07e-01	0	41	0	703070208	58	4926
2026-01-20 11:59:50.13	326.72	50.78	-44.2	-46.7	23.9	6.07e-01	0	41	0	704643072	59	4973
2026-01-20 11:59:51.13	326.97	50.40	-44.3	-46.9	23.8	6.07e-01	0	41	0	706740224	59	5064
2026-01-20 11:59:52.12	327.21	50.02	-44.2	-46.8	23.9	6.05e-01	0	41	0	708313088	59	4989
2026-01-20 11:59:53.11	327.45	49.64	-44.3	-46.9	23.8	6.06e-01	0	41	0	710410240	59	5071
2026-01-20 11:59:54.11	327.68	49.26	-44.5	-47.2	23.6	6.06e-01	0	41	0	711983104	59	5228
2026-01-20 11:59:55.10	327.91	48.89	-44.5	-47.2	23.4	6.07e-01	0	41	0	714080256	60	4952
2026-01-20 11:59:56.10	328.13	48.52	-44.0	-46.5	24.1	6.04e-01	0	41	0	716177408	60	4553
2026-01-20 11:59:57.10	328.35	48.15	-44.0	-46.5	24.2	6.06e-01	0	41	0	717750272	59	4833
2026-01-20 11:59:58.09	328.56	47.78	-44.2	-46.7	24.0	6.06e-01	0	41	0	719847424	59	4954
2026-01-20 11:59:59.09	328.76	47.42	-44.2	-46.7	24.0	6.07e-01	0	41	0	721420288	59	4964
2026-01-20 12:00:00.09	328.97	47.06	-44.1	-46.6	24.1	6.07e-01	0	41	0	723517440	59	4893
2026-01-20 12:00:01.08	329.16	46.70	-44.2	-46.6	24.1	6.04e-01	0	41	0	725090304	59	4921
2026-01-20 12:00:02.07	329.35	46.35	-44.0	-46.4	24.3	6.08e-01	0	41	0	727187456	59	4784
2026-01-20 12:00:03.07	329.54	46.00	-44.1	-46.7	24.1	6.08e-01	0	41	0	728760320	59	4929
2026-01-20 12:00:04.07	329.73	45.65	-44.4	-47.1	23.6	6.06e-01	0	41	0	730857472	59	5170
2026-01-20 12:00:05.06	329.91	45.31	-44.4	-47.1	23.6	6.07e-01	0	41	0	732954624	59	5186
2026-01-20 12:00:06.06	330.09	44.96	-44.0	-46.6	24.1	6.07e-01	0	41	0	734527488	59	4884
2026-01-20 12:00:07.05	330.26	44.62	-43.9	-46.5	24.2	6.08e-01	0	41	0	736624640	59	4828
2026-01-20 12:00:08.05	330.43	44.29	-43.8	-46.4	24.2	6.07e-01	0	41	0	738197504	59	4789
2026-01-20 12:00:09.04	330.59	43.95	-43.9	-46.4	24.3	6.07e-01	0	41	0	740294656	59	4775
2026-01-20 12:00:10.04	330.75	43.62	-44.2	-46.8	23.9	6.07e-01	0	41	0	741867520	59	5004
2026-01-20 12:00:11.03	330.91	43.29	-44.3	-46.9	23.8	6.08e-01	0	41	0	743964672	59	5073
2026-01-20 12:00:12.02	331.07	42.97	-44.3	-46.8	23.8	6.06e-01	0	41	0	745537536	59	5033
2026-01-20 12:00:13.02	331.22	42.65	-44.2	-46.8	23.9	6.07e-01	0	41	0	747634688	59	5006
2026-01-20 12:00:14.01	331.37	42.33	-44.6	-47.4	23.4	6.09e-01	0	41	0	749731840	59	5342
2026-01-20 12:00:15.01	331.52	42.01	-44.6	-47.6	23.1	6.07e-01	0	41	0	751304704	60	5197
2026-01-20 12:00:16.00	331.66	41.69	-44.5	-47.5	23.1	6.05e-01	0	41	0	753401856	60	5146
2026-01-20 12:00:16.99	331.80	41.38	-44.5	-47.4	23.2	6.05e-01	0	41	0	754974720	60	5088
2026-01-20 12:00:17.99	331.94	41.07	-44.6	-47.5	23.2	6.08e-01	0	41	0	757071872	60	5103
2026-01-20 12:00:18.98	332.08	40.77	-44.6	-47.4	23.3	6.05e-01	0	41	0	758644736	60	5055
2026-01-20 12:00:19.98	332.21	40.46	-44.6	-47.3	23.2	6.06e-01	0	41	0	760741888	60	5036
2026-01-20 12:00:20.97	332.34	40.16	-44.6	-47.2	23.4	6.06e-01	0	41	0	762314752	60	4983
2026-01-20 12:00:21.97	332.47	39.86	-44.7	-47.4	23.2	6.08e-01	0	41	0	764411904	60	5077
2026-01-20 12:00:22.96	332.59	39.56	-44.7	-47.4	23.2	6.04e-01	0	41	0	766509056	60	5073
2026-01-20 12:00:23.95	332.72	39.27	-44.7	-47.4	23.2	6.07e-01	0	41	0	768081920	60	5067
2026-01-20 12:00:24.95	332.84	38.98	-44.7	-47.4	23.3	6.08e-01	0	41	0	770179072	60	5054
2026-01-20 12:00:25.95	332.96	38.69	-44.7	-47.6	23.1	6.09e-01	0	41	0	771751936	60	5161
2026-01-20 12:00:26.94	333.08	38.40	-44.6	-47.6	23.1	6.06e-01	0	41	0	773849088	60	5180
2026-01-20 12:00:27.93	333.19	38.12	-44.5	-47.4	23.2	6.04e-01	0	41	0	775421952	60	5087
2026-01-20 12:00:28.93	333.31	37.84	-44.2	-47.0	23.6	6.06e-01	0	41	0	777519104	60	4847
2026-01-20 12:00:29.93	333.42	37.56	-44.2	-46.9	23.7	6.06e-01	0	41	0	779091968	60	4792
2026-01-20 12:00:30.92	333.53	37.28	-44.3	-47.0	23.6	6.08e-01	0	41	0	781189120	60	4844
2026-01-20 12:00:31.92	333.64	37.00	-44.3	-46.9	23.7	6.07e-01	0	41	0	783286272	60	4770
2026-01-20 12:00:32.91	333.74	36.73	-44.3	-46.8	23.7	6.06e-01	0	41	0	784859136	60	4753
2026-01-20 12:00:33.90	333.85	36.46	-44.3	-46.8	23.8	6.07e-01	0	41	0	786956288	60	4725
2026-01-20 12:00:34.90	333.95	36.19	-44.3	-46.8	23.8	6.05e-01	0	41	0	788529152	60	4719
2026-01-20 12:00:35.89	334.05	35.93	-44.0	-46.5	24.0	6.05e-01	0	41	0	790626304	60	4568
2026-01-20 12:00:36.89	334.15	35.66	-44.2	-46.7	24.0	6.09e-01	0	41	0	792199168	59	4928
2026-01-20 12:00:37.89	334.25	35.40	-44.0	-46.5	24.0	6.09e-01	0	41	0	794296320	59	4841
2026-01-20 12:00:38.88	334.35	35.14	-43.8	-46.4	24.3	6.07e-01	0	41	0	795869184	59	4773
2026-01-20 12:00:39.87	334.44	34.89	-43.6	-46.1	24.5	6.06e-01	0	41	0	797966336	59	4621
2026-01-20 12:00:40.87	334.53	34.63	-43.4	-46.0	24.6	6.05e-01	0	41	0	800063488	58	4837
2026-01-20 12:00:41.86	334.63	34.38	-43.4	-46.1	24.5	6.04e-01	0	41	0	801636352	58	4872
2026-01-20 12:00:42.86	334.72	34.13	-43.2	-45.8	24.7	6.07e-01	0	41	0	803733504	58	4710
2026-01-20 12:00:43.86	334.81	33.88	-43.0	-45.7	24.8	6.05e-01	0	41	0	805306368	58	4654
2026-01-20 12:00:44.85	334.89	33.63	-42.7	-45.3	25.1	6.07e-01	0	41	0	807403520	57	4755
2026-01-20 12:00:45.84	334.98	33.39	-42.7	-45.3	25.2	6.06e-01	0	41	0	809500672	57	4715
2026-01-20 12:00:46.84	335.07	33.15	-42.8	-45.3	25.0	6.05e-01	0	41	0	811073536	57	4756
2026-01-20 12:00:47.83	335.15	32.91	-42.9	-45.5	25.0	6.07e-01	0	41	0	812646400	57	4832
2026-01-20 12:00:48.83	335.23	32.67	-43.1	-45.6	24.8	6.05e-01	0	41	0	814743552	57	4922
2026-01-20 12:00:49.82	335.32	32.43	-43.2	-45.6	24.8	6.07e-01	0	41	0	816840704	57	4924
2026-01-20 12:00:50.81	335.40	32.20	-43.0	-45.4	25.0	6.07e-01	0	41	0	818413568	57	4785
2026-01-20 12:00:51.81	335.48	31.97	-43.0	-45.3	25.1	6.05e-01	0	41	0	820510720	57	4740
2026-01-20 12:00:52.80	335.55	31.74	-42.8	-45.2	25.2	6.06e-01	0	41	0	822083584	57	4652
2026-01-20 12:00:53.80	335.63	31.51	-42.7	-45.0	25.3	6.04e-01	0	41	0	824180736	57	4592
2026-01-20 12:00:54.79	335.71	31.28	-42.8	-45.2	25.2	6.06e-01	0	41	0	826277888	57	4679
2026-01-20 12:00:55.79	335.78	31.06	-42.9	-45.3	25.1	6.03e-01	0	41	0	827850752	57	4717
2026-01-20 12:00:56.78	335.86	30.83	-42.7	-45.2	25.2	6.06e-01	0	41	0	829423616	57	4695
2026-01-20 12:00:57.78	335.93	30.61	-42.6	-45.2	25.2	6.06e-01	0	41	0	831520768	57	4685
2026-01-20 12:00:58.77	336.00	30.39	-42.5	-45.3	25.1	6.05e-01	0	41	0	833617920	57	4722
2026-01-20 12:00:59.77	336.07	30.17	-42.6	-45.4	25.0	6.06e-01	0	41	0	835190784	57	4777
2026-01-20 12:01:00.76	336.14	29.96	-42.7	-45.4	25.0	6.07e-01	0	41	0	837287936	57	4805
2026-01-20 12:01:01.76	336.21	29.74	-42.7	-45.4	25.0	6.06e-01	0	41	0	838860800	57	4811
2026-01-20 12:01:02.75	336.28	29.53	-43.0	-45.6	24.9	6.04e-01	0	41	0	840957952	57	4890
2026-01-20 12:01:03.74	336.35	29.32	-43.2	-45.7	24.7	6.07e-01	0	41	0	843055104	57	4973
2026-01-20 12:01:04.74	336.42	29.11	-43.2	-45.7	24.7	6.05e-01	0	41	0	844627968	57	4973
2026-01-20 12:01:05.73	336.48	28.90	-43.3	-45.8	24.7	6.08e-01	0	41	0	846200832	57	5009
2026-01-20 12:01:06.73	336.55	28.69	-43.4	-45.9	24.6	6.07e-01	0	41	0	848297984	57	5058
2026-01-20 12:01:07.72	336.61	28.49	-43.4	-45.9	24.5	6.07e-01	0	41	0	850395136	57	5100
2026-01-20 12:01:08.72	336.68	28.29	-43.4	-46.0	24.5	6.07e-01	0	41	0	851968000	57	5115
2026-01-20 12:01:09.72	336.74	28.08	-43.5	-46.1	24.4	6.06e-01	0	41	0	854065152	57	5174
2026-01-20 12:01:10.71	336.80	27.88	-43.6	-46.1	24.4	6.07e-01	0	41	0	855638016	57	5205
2026-01-20 12:01:11.70	336.86	27.69	-43.6	-46.1	24.4	6.07e-01	0	41	0	857735168	57	5182
2026-01-20 12:01:12.70	336.92	27.49	-43.6	-46.1	24.5	6.07e-01	0	41	0	859832320	58	4886
2026-01-20 12:01:13.70	336.98	27.29	-43.6	-46.1	24.4	6.07e-01	0	41	0	861405184	58	4917
2026-01-20 12:01:14.69	337.04	27.10	-43.6	-46.1	24.3	6.05e-01	0	41	0	862978048	58	4918
2026-01-20 12:01:15.69	337.10	26.91	-43.6	-46.1	24.4	6.08e-01	0	41	0	865075200	58	4886
2026-01-20 12:01:16.68	337.16	26.72	-43.6	-46.1	24.4	6.06e-01	0	41	0	867172352	58	4925
2026-01-20 12:01:17.68	337.22	26.52	-43.6	-46.3	24.3	6.07e-01	0	41	0	868745216	58	5005
2026-01-20 12:01:18.67	337.27	26.34	-43.6	-46.3	24.2	6.05e-01	0	41	0	870842368	58	5033
2026-01-20 12:01:19.67	337.33	26.15	-43.7	-46.5	24.0	6.06e-01	0	41	0	872415232	58	5117
2026-01-20 12:01:20.66	337.38	25.96	-43.6	-46.5	24.0	6.07e-01	0	41	0	874512384	58	5118
2026-01-20 12:01:21.65	337.44	25.78	-43.7	-46.6	23.9	6.06e-01	0	41	0	876609536	58	5191
2026-01-20 12:01:22.65	337.49	25.60	-43.8	-46.6	23.9	6.06e-01	0	41	0	878182400	58	5215
2026-01-20 12:01:23.64	337.55	25.42	-43.9	-46.7	23.9	6.05e-01	0	41	0	880279552	58	5222
2026-01-20 12:01:24.64	337.60	25.24	-43.8	-46.5	24.0	6.06e-01	0	41	0	881852416	58	5145
2026-01-20 12:01:25.63	337.65	25.06	-43.8	-46.4	24.1	6.08e-01	0	41	0	883949568	58	5070
2026-01-20 12:01:26.62	337.70	24.88	-43.9	-46.4	24.1	6.07e-01	0	41	0	885522432	58	5100
2026-01-20 12:01:27.62	337.75	24.70	-43.9	-46.5	24.0	6.07e-01	0	41	0	887619584	58	5113
2026-01-20 12:01:28.62	337.80	24.53	-43.9	-46.5	24.0	6.10e-01	0	41	0	889192448	58	5147
2026-01-20 12:01:29.61	337.85	24.36	-44.0	-46.6	23.9	6.09e-01	0	41	0	891289600	58	5198
2026-01-20 12:01:30.60	337.90	24.18	-43.7	-46.4	24.1	6.06e-01	0	41	0	893386752	58	5069
2026-01-20 12:01:31.60	337.95	24.01	-43.7	-46.5	24.0	6.06e-01	0	41	0	894959616	58	5117
2026-01-20 12:01:32.59	338.00	23.84	-43.7	-46.5	24.0	6.06e-01	0	41	0	897056768	58	5158
2026-01-20 12:01:33.59	338.05	23.67	-43.6	-46.4	24.1	6.07e-01	0	41	0	898629632	58	5094
2026-01-20 12:01:34.58	338.10	23.50	-43.7	-46.6	23.9	6.07e-01	0	41	0	900726784	58	5178
2026-01-20 12:01:35.58	338.14	23.34	-43.6	-46.5	24.0	6.08e-01	0	41	0	902299648	58	5116
2026-01-20 12:01:36.57	338.19	23.17	-43.7	-46.7	23.9	6.06e-01	0	41	0	904396800	58	5219
2026-01-20 12:01:37.56	338.24	23.01	-43.7	-46.6	23.9	6.06e-01	0	41	0	905969664	58	5180
2026-01-20 12:01:38.56	338.28	22.84	-43.7	-46.6	23.9	6.06e-01	0	41	0	908066816	58	5185
2026-01-20 12:01:39.55	338.33	22.68	-43.8	-46.7	23.8	6.05e-01	0	41	0	910163968	58	5241
2026-01-20 12:01:40.55	338.37	22.52	-43.9	-46.7	23.8	6.06e-01	0	41	0	911736832	58	5235
2026-01-20 12:01:41.54	338.42	22.36	-43.8	-46.5	23.9	6.05e-01	0	41	0	913833984	58	5152
2026-01-20 12:01:42.53	338.46	22.20	-43.9	-46.5	24.0	6.06e-01	0	41	0	915406848	58	5158
2026-01-20 12:01:43.53	338.50	22.05	-43.8	-46.5	24.0	6.06e-01	0	41	0	917504000	58	5115
2026-01-20 12:01:44.52	338.55	21.89	-43.8	-46.5	24.0	6.05e-01	0	41	0	919076864	58	5119
2026-01-20 12:01:45.52	338.59	21.73	-43.6	-46.4	24.0	6.06e-01	0	41	0	921174016	58	5099
2026-01-20 12:01:46.51	338.63	21.58	-43.6	-46.5	24.0	6.07e-01	0	41	0	922746880	58	5131
2026-01-20 12:01:47.51	338.67	21.42	-43.5	-46.6	23.9	6.03e-01	0	41	0	924844032	58	5170
2026-01-20 12:01:48.50	338.71	21.27	-43.4	-46.5	24.0	6.07e-01	0	41	0	926941184	58	5126
2026-01-20 12:01:49.50	338.76	21.12	-43.5	-46.6	23.9	6.09e-01	0	41	0	928514048	58	5166
2026-01-20 12:01:50.49	338.80	20.97	-43.4	-46.4	24.1	6.08e-01	0	41	0	930611200	58	5070
2026-01-20 12:01:51.48	338.84	20.82	-43.5	-46.4	24.0	6.09e-01	0	41	0	932184064	58	5077
2026-01-20 12:01:52.48	338.88	20.67	-43.5	-46.3	24.1	6.06e-01	0	41	0	934281216	58	5025
2026-01-20 12:01:53.47	338.91	20.52	-43.6	-46.3	24.2	6.07e-01	0	41	0	935854080	58	5014
2026-01-20 12:01:54.47	338.95	20.38	-43.7	-46.3	24.1	6.10e-01	0	41	0	937951232	58	5003
2026-01-20 12:01:55.46	338.99	20.23	-43.8	-46.3	24.2	6.08e-01	0	41	0	939524096	58	4984
2026-01-20 12:01:56.45	339.03	20.09	-43.7	-46.1	24.3	6.07e-01	0	41	0	941621248	58	4902
2026-01-20 12:01:57.45	339.07	19.94	-43.7	-46.1	24.3	6.08e-01	0	41	0	943718400	58	4923
2026-01-20 12:01:58.44	339.11	19.80	-43.5	-46.0	24.4	6.07e-01	0	41	0	945291264	58	4859
2026-01-20 12:01:59.44	339.14	19.66	-43.6	-46.2	24.3	6.08e-01	0	41	0	947388416	58	4950
2026-01-20 12:02:00.43	339.18	19.52	-43.5	-46.1	24.3	6.07e-01	0	41	0	948961280	58	4888
2026-01-20 12:02:01.43	339.22	19.38	-43.3	-46.0	24.4	6.04e-01	0	41	0	951058432	58	4842
2026-01-20 12:02:02.42	339.26	19.24	-43.4	-46.1	24.3	6.05e-01	0	41	0	952631296	58	4908
2026-01-20 12:02:03.42	339.29	19.10	-43.3	-46.0	24.4	6.05e-01	0	41	0	954728448	58	4823
2026-01-20 12:02:04.41	339.33	18.96	-43.3	-46.0	24.3	6.06e-01	0	41	0	956301312	58	4847
2026-01-20 12:02:05.41	339.36	18.82	-43.4	-46.0	24.4	6.08e-01	0	41	0	958398464	58	4850
2026-01-20 12:02:06.40	339.40	18.69	-43.4	-45.9	24.5	6.04e-01	0	41	0	960495616	58	4804
2026-01-20 12:02:07.39	339.43	18.55	-43.4	-45.9	24.5	6.04e-01	0	41	0	962068480	58	4775
2026-01-20 12:02:08.39	339.47	18.42	-43.5	-46.0	24.4	6.05e-01	0	41	0	964165632	58	4819
2026-01-20 12:02:09.38	339.50	18.28	-43.6	-46.0	24.4	6.08e-01	0	41	0	965738496	58	4857
2026-01-20 12:02:10.38	339.54	18.15	-43.6	-46.0	24.3	6.04e-01	0	41	0	967835648	58	4841
2026-01-20 12:02:11.37	339.57	18.02	-43.6	-46.0	24.4	6.05e-01	0	41	0	969408512	58	4868
2026-01-20 12:02:12.37	339.60	17.88	-43.6	-46.0	24.4	6.06e-01	0	41	0	971505664	58	4845
2026-01-20 12:02:13.36	339.64	17.75	-43.5	-46.0	24.3	6.07e-01	0	41	0	973078528	58	4824
2026-01-20 12:02:14.36	339.67	17.62	-43.5	-46.0	24.4	6.04e-01	0	41	0	975175680	58	4841
2026-01-20 12:02:15.35	339.70	17.49	-43.5	-46.1	24.3	6.07e-01	0	41	0	977272832	58	4913
2026-01-20 12:02:16.35	339.74	17.37	-43.5	-46.1	24.3	6.08e-01	0	41	0	978845696	58	4897
2026-01-20 12:02:17.34	339.77	17.24	-43.3	-46.0	24.3	6.06e-01	0	41	0	980942848	58	4864
2026-01-20 12:02:18.34	339.80	17.11	-43.3	-46.0	24.3	6.06e-01	0	41	0	982515712	58	4859
2026-01-20 12:02:19.33	339.83	16.98	-43.3	-46.1	24.3	6.07e-01	0	41	0	984612864	58	4879
2026-01-20 12:02:20.33	339.86	16.86	-43.3	-46.0	24.3	6.06e-01	0	41	0	986185728	58	4870
2026-01-20 12:02:21.33	339.89	16.73	-43.3	-46.1	24.3	6.07e-01	0	41	0	988282880	58	4902
2026-01-20 12:02:22.32	339.93	16.61	-43.3	-46.0	24.3	6.05e-01	0	41	0	989855744	58	4850
2026-01-20 12:02:23.32	339.96	16.48	-43.3	-46.0	24.4	6.07e-01	0	41	0	991952896	58	4837
2026-01-20 12:02:24.31	339.99	16.36	-43.3	-46.0	24.3	6.03e-01	0	41	0	994050048	58	4850
2026-01-20 12:02:25.31	340.02	16.24	-43.5	-46.2	24.1	6.05e-01	0	41	0	995622912	58	4946
2026-01-20 12:02:26.30	340.05	16.12	-43.4	-46.1	24.3	6.06e-01	0	41	0	997720064	58	4877
2026-01-20 12:02:27.30	340.08	16.00	-43.3	-46.0	24.4	6.05e-01	0	41	0	999292928	58	4829
2026-01-20 12:02:28.30	340.11	15.88	-43.4	-46.0	24.3	6.06e-01	0	41	0	1001390080	58	4853
2026-01-20 12:02:29.29	340.14	15.76	-43.4	-46.2	24.2	6.07e-01	0	41	0	1002962944	58	4935
2026-01-20 12:02:30.28	340.17	15.64	-43.3	-46.1	24.3	6.07e-01	0	41	0	1005060096	58	4879
2026-01-20 12:02:31.28	340.20	15.52	-43.3	-46.1	24.2	6.06e-01	0	41	0	1006632960	58	4918
2026-01-20 12:02:32.27	340.22	15.40	-43.1	-46.0	24.3	6.04e-01	0	41	0	1008730112	58	4856
2026-01-20 12:02:33.27	340.25	15.29	-43.2	-46.1	24.2	6.06e-01	0	41	0	1010827264	58	4917
2026-01-20 12:02:34.26	340.28	15.17	-43.2	-46.2	24.2	6.07e-01	0	41	0	1012400128	58	4975
2026-01-20 12:02:35.26	340.31	15.05	-43.2	-46.3	24.0	6.03e-01	0	41	0	1014497280	58	4994
2026-01-20 12:02:36.25	340.34	14.94	-43.2	-46.3	24.0	6.00e-01	0	41	0	1016070144	58	5021
2026-01-20 12:02:37.25	340.37	14.82	-43.3	-46.4	24.0	6.05e-01	0	41	0	1018167296	58	5066
2026-01-20 12:02:38.24	340.39	14.71	-43.3	-46.3	24.0	6.03e-01	0	41	0	1019740160	58	5012
2026-01-20 12:02:39.24	340.42	14.60	-43.4	-46.3	24.0	6.04e-01	0	41	0	1021837312	58	5036
2026-01-20 12:02:40.23	340.45	14.48	-43.6	-46.5	23.8	6.04e-01	0	41	0	1023410176	58	5110
2026-01-20 12:02:41.23	340.47	14.37	-43.7	-46.5	23.7	6.00e-01	0	41	0	1025507328	58	5133
2026-01-20 12:02:42.22	340.50	14.26	-43.7	-46.4	23.9	6.01e-01	0	41	0	1027604480	58	5086
2026-01-20 12:02:43.22	340.53	14.15	-43.7	-46.5	23.9	6.04e-01	0	41	0	1029177344	58	5126
2026-01-20 12:02:44.21	340.55	14.04	-43.7	-46.4	23.9	6.03e-01	0	41	0	1031274496	58	5082
2026-01-20 12:02:45.21	340.58	13.93	-43.7	-46.5	23.8	6.04e-01	0	41	0	1032847360	58	5121
2026-01-20 12:02:46.20	340.61	13.82	-43.6	-46.4	23.8	6.02e-01	0	41	0	1034944512	58	5089
2026-01-20 12:02:47.20	340.63	13.71	-43.5	-46.4	23.9	6.03e-01	0	41	0	1036517376	58	5068
2026-01-20 12:02:48.19	340.66	13.60	-43.6	-46.5	23.8	6.04e-01	0	41	0	1038614528	58	5142
2026-01-20 12:02:49.19	340.68	13.49	-43.6	-46.6	23.7	6.04e-01	0	41	0	1040187392	58	5191
2026-01-20 12:02:50.18	340.71	13.39	-43.5	-46.5	23.8	6.04e-01	0	41	0	1042284544	58	5152
2026-01-20 12:02:51.17	340.73	13.28	-43.4	-46.5	23.8	6.01e-01	0	41	0	1044381696	58	5123
2026-01-20 12:02:52.17	340.76	13.17	-43.4	-46.6	23.7	6.00e-01	0	41	0	1045954560	58	5160
2026-01-20 12:02:53.17	340.79	13.07	-43.3	-46.5	23.7	6.06e-01	0	41	0	1048051712	58	5129
2026-01-20 12:02:54.16	340.81	12.96	-43.3	-46.6	23.7	6.04e-01	0	41	0	1049624576	58	5199
2026-01-20 12:02:55.16	340.83	12.86	-43.3	-46.6	23.7	6.05e-01	0	41	0	1051721728	58	5173
2026-01-20 12:02:56.15	340.86	12.75	-43.3	-46.6	23.6	6.04e-01	0	41	0	1053294592	58	5162
2026-01-20 12:02:57.15	340.88	12.65	-43.4	-46.5	23.7	6.03e-01	0	41	0	1055391744	58	5154
2026-01-20 12:02:58.14	340.91	12.54	-43.5	-46.6	23.6	6.05e-01	0	41	0	1057488896	58	5178
2026-01-20 12:02:59.14	340.93	12.44	-43.6	-46.6	23.6	6.04e-01	0	41	0	1059061760	58	5199
2026-01-20 12:03:00.13	340.96	12.34	-43.7	-46.6	23.7	6.02e-01	0	41	0	1061158912	58	5212
2026-01-20 12:03:01.13	340.98	12.24	-43.8	-46.6	23.6	6.02e-01	0	41	0	1062731776	58	5218
2026-01-20 12:03:02.12	341.00	12.14	-43.7	-46.6	23.6	6.04e-01	0	41	0	1064828928	58	5204
2026-01-20 12:03:03.12	341.03	12.03	-43.8	-46.7	23.6	6.03e-01	0	41	0	1066401792	58	5254
2026-01-20 12:03:04.11	341.05	11.93	-43.8	-46.7	23.5	6.02e-01	0	41	0	1068498944	58	5254
2026-01-20 12:03:05.11	341.07	11.83	-43.7	-46.7	23.5	6.06e-01	0	41	0	1070071808	58	5233
2026-01-20 12:03:06.10	341.10	11.74	-43.7	-46.7	23.6	6.03e-01	0	41	0	1072168960	58	5254
2026-01-20 12:03:07.10	341.12	11.64	-43.7	-46.8	23.4	6.05e-01	0	41	0	1074266112	58	5280
2026-01-20 12:03:08.09	341.14	11.54	-43.6	-46.8	23.4	6.02e-01	0	41	0	1075838976	58	5291
2026-01-20 12:03:09.09	341.16	11.44	-43.6	-46.8	23.5	6.02e-01	0	41	0	1077936128	58	5305
2026-01-20 12:03:10.08	341.19	11.34	-43.6	-46.8	23.5	6.04e-01	0	41	0	1079508992	58	5295
2026-01-20 12:03:11.08	341.21	11.24	-43.7	-46.9	23.4	6.03e-01	0	41	0	1081606144	58	5349
2026-01-20 12:03:12.07	341.23	11.15	-43.6	-46.7	23.5	6.01e-01	0	41	0	1083179008	58	5237
2026-01-20 12:03:13.07	341.25	11.05	-43.7	-46.8	23.5	6.02e-01	0	41	0	1085276160	58	5313
2026-01-20 12:03:14.06	341.28	10.95	-43.8	-46.9	23.3	6.04e-01	0	41	0	1086849024	58	5375
2026-01-20 12:03:15.06	341.30	10.86	-43.8	-46.8	23.4	6.04e-01	0	41	0	1088946176	58	5335
2026-01-20 12:03:16.05	341.32	10.76	-44.0	-47.0	23.3	6.02e-01	0	41	0	1091043328	58	5423
2026-01-20 12:03:17.05	341.34	10.67	-43.9	-46.9	23.3	6.06e-01	0	41	0	1092616192	58	5362
2026-01-20 12:03:18.04	341.36	10.57	-43.9	-46.9	23.3	6.02e-01	0	41	0	1094713344	58	5378
2026-01-20 12:03:19.04	341.38	10.48	-44.0	-46.9	23.2	5.99e-01	0	41	0	1096286208	58	5396
2026-01-20 12:03:20.03	341.41	10.39	-44.0	-47.1	23.1	6.04e-01	0	41	0	1098383360	58	5483
2026-01-20 12:03:21.03	341.43	10.29	-43.9	-47.1	23.1	6.00e-01	0	41	0	1099956224	58	5480
2026-01-20 12:03:22.02	341.45	10.20	-43.8	-47.0	23.2	6.05e-01	0	41	0	1102053376	58	5437
2026-01-20 12:03:23.01	341.47	10.11	-43.8	-47.0	23.1	6.03e-01	0	41	0	1103626240	58	5444
2026-01-20 12:03:24.01	341.49	10.02	-43.8	-47.1	23.1	6.00e-01	0	41	0	1105723392	58	5471
2026-01-20 12:03:25.00	341.51	9.92	-43.7	-47.1	23.1	6.04e-01	0	41	0	1107820544	58	5487
2026-01-20 12:03:26.00	341.53	9.83	-43.7	-47.1	23.1	6.04e-01	0	41	0	1109393408	58	5473
2026-01-20 12:03:26.99	341.55	9.74	-43.6	-47.1	23.1	6.02e-01	0	41	0	1111490560	58	5482
2026-01-20 12:03:27.99	341.57	9.65	-43.7	-47.2	23.0	6.03e-01	0	41	0	1113063424	58	5531
2026-01-20 12:03:28.98	341.59	9.56	-43.8	-47.3	22.9	6.02e-01	0	41	0	1115160576	58	5643
2026-01-20 12:03:29.98	341.61	9.47	-43.7	-47.3	22.9	6.04e-01	0	41	0	1116733440	58	5626
2026-01-20 12:03:30.97	341.63	9.38	-43.6	-47.3	22.9	6.03e-01	0	41	0	1118830592	58	5649
2026-01-20 12:03:31.97	341.65	9.29	-43.5	-47.4	22.6	6.03e-01	0	41	0	1120927744	58	5693
2026-01-20 12:03:32.96	341.67	9.20	-43.3	-47.2	22.9	6.03e-01	0	41	0	1122500608	58	5566
2026-01-20 12:03:33.96	341.69	9.11	-43.3	-47.3	22.8	6.01e-01	0	41	0	1124597760	58	5612
2026-01-20 12:03:34.95	341.71	9.03	-43.3	-47.4	22.7	6.06e-01	0	41	0	1126170624	58	5666
2026-01-20 12:03:35.95	341.73	8.94	-48.6	-62.9	9.3	6.45e-01	0	41	0	1128267776	67	20300
2026-01-20 12:03:36.94	341.75	8.85	-48.0	-71.1	3.8	7.48e-01	0	41	104	1128267776	67	52151
2026-01-20 12:03:37.93	341.77	8.76	-49.1	-71.6	3.8	7.49e-01	0	41	104	1128267776	69	49144
2026-01-20 12:03:38.93	341.79	8.68	-51.1	-71.7	3.8	7.47e-01	0	41	104	1128267776	72	41884
2026-01-20 12:03:39.92	341.81	8.59	-49.5	-71.9	3.8	7.47e-01	0	41	104	1128267776	71	45122
2026-01-20 12:03:40.91	341.83	8.51	-50.0	-71.5	3.8	7.43e-01	0	41	104	1128267776	71	43356
2026-01-20 12:03:41.91	341.85	8.42	-51.3	-72.1	3.8	7.50e-01	0	41	104	1128267776	73	41224
2026-01-20 12:03:42.90	341.86	8.33	-51.5	-72.1	3.8	7.43e-01	0	41	104	1128267776	73	41389
2026-01-20 12:03:43.90	341.88	8.25	-51.3	-72.3	3.8	7.44e-01	0	41	104	1128267776	73	41996
2026-01-20 12:03:44.89	341.90	8.16	-51.5	-72.2	3.8	7.49e-01	0	41	104	1128267776	75	37183
2026-01-20 12:03:45.88	341.92	8.08	-51.5	-72.2	3.8	7.45e-01	0	41	104	1128267776	73	41906
2026-01-20 12:03:46.88	341.94	8.00	-51.8	-72.3	3.8	7.45e-01	0	41	104	1128267776	74	39596
2026-01-20 12:03:47.87	341.96	7.91	-52.2	-72.3	3.8	7.47e-01	0	41	104	1128267776	74	39712
2026-01-20 12:03:48.86	341.98	7.83	-51.8	-72.3	3.8	7.44e-01	0	41	104	1128267776	75	37503
2026-01-20 12:03:49.86	341.99	7.75	-51.6	-72.3	3.8	7.41e-01	0	41	104	1128267776	74	39700
2026-01-20 12:03:50.85	342.01	7.66	-52.3	-72.3	3.9	7.41e-01	0	41	104	1128267776	75	37504
2026-01-20 12:03:51.85	342.03	7.58	-52.4	-72.3	3.8	7.44e-01	0	41	104	1128267776	75	37614
2026-01-20 12:03:52.84	342.05	7.50	-52.2	-72.3	3.8	7.48e-01	0	41	104	1128267776	75	37461
2026-01-20 12:03:53.83	342.07	7.42	-52.4	-72.3	3.8	7.45e-01	0	41	104	1128267776	75	37480
2026-01-20 12:03:54.82	342.08	7.33	-52.2	-72.3	3.8	7.46e-01	0	41	104	1128267776	75	37479
2026-01-20 12:03:55.82	342.10	7.25	-52.2	-72.3	3.8	7.48e-01	0	41	104	1128267776	75	37555
2026-01-20 12:03:56.81	342.12	7.17	-52.2	-72.3	3.8	7.47e-01	0	41	104	1128267776	75	37382
2026-01-20 12:03:57.81	342.14	7.09	-52.3	-72.3	3.8	7.45e-01	0	41	104	1128267776	75	37420
2026-01-20 12:03:58.80	342.15	7.01	-52.1	-72.2	3.8	7.45e-01	0	41	104	1128267776	75	37340
2026-01-20 1