passes_logs/2026/01/20/T1/T1__20260120_101652_AQUA_rec.log

#Pass ID: 20260120_101652_AQUA
#Satellite: AQUA
#Configuration: AQUA
#almurnet v.1.7.20251203
#Start time: 2026-01-20 10:16:55

#Version: 2.0.20230620
#Station: T1
#Location: 37.570604 lon 55.790049 lat
#TLE: 1 27424U 02022A   26019.60905539  .00000968  00000+0  20374-3 0  9991
#TLE: 2 27424  98.4090 346.1140 0001992  72.7126 342.3847 14.61830366261565

#Time	Az	El	Level	Level2	SNR	BER	BlckErr	Temp	State	Recorded	gain1	gain2
2026-01-20 10:16:55.21	112.82	5.15	-51.2	-71.1	3.8	7.43e-01	0	41	0	0	74	34681
2026-01-20 10:16:56.20	112.73	5.21	-51.2	-71.2	3.8	7.46e-01	0	41	104	0	73	37041
2026-01-20 10:16:57.19	112.64	5.28	-51.2	-71.2	3.8	7.46e-01	0	41	104	0	73	37287
2026-01-20 10:16:58.19	112.55	5.34	-51.2	-71.2	3.8	7.44e-01	0	41	104	0	73	37247
2026-01-20 10:16:59.18	112.46	5.40	-51.2	-71.3	3.8	7.47e-01	0	41	104	0	73	37506
2026-01-20 10:17:00.17	112.37	5.47	-51.2	-71.3	3.8	7.47e-01	0	41	104	0	73	37612
2026-01-20 10:17:01.17	112.27	5.53	-51.2	-71.3	3.8	7.47e-01	0	41	104	0	73	37581
2026-01-20 10:17:02.16	112.18	5.60	-51.2	-71.3	3.8	7.43e-01	0	41	104	0	73	37469
2026-01-20 10:17:03.16	112.09	5.66	-51.2	-71.3	3.8	7.44e-01	0	41	104	0	73	37535
2026-01-20 10:17:04.15	111.99	5.73	-51.2	-71.3	3.8	7.45e-01	0	41	104	0	73	37428
2026-01-20 10:17:05.14	111.90	5.79	-51.2	-71.2	3.8	7.44e-01	0	41	104	0	73	37361
2026-01-20 10:17:06.14	111.81	5.86	-51.2	-71.3	3.8	7.46e-01	0	41	104	0	73	37448
2026-01-20 10:17:07.13	111.71	5.92	-51.2	-71.3	3.8	7.47e-01	0	41	104	0	73	37398
2026-01-20 10:17:08.12	111.61	5.99	-51.2	-71.2	3.8	7.45e-01	0	41	104	0	73	37225
2026-01-20 10:17:09.12	111.52	6.06	-51.2	-71.2	3.8	7.42e-01	0	41	104	0	73	37105
2026-01-20 10:17:10.11	111.42	6.12	-51.2	-71.1	3.8	7.46e-01	0	41	104	0	73	36678
2026-01-20 10:17:11.10	111.32	6.19	-51.2	-71.0	3.8	7.50e-01	0	41	104	0	73	36389
2026-01-20 10:17:12.10	111.23	6.25	-51.2	-70.9	3.8	7.45e-01	0	41	104	0	73	35928
2026-01-20 10:17:13.09	111.13	6.32	-51.2	-70.9	3.8	7.46e-01	0	41	104	0	73	35759
2026-01-20 10:17:14.09	111.03	6.39	-51.1	-70.7	3.8	7.47e-01	0	41	104	0	73	35251
2026-01-20 10:17:15.08	110.93	6.45	-51.2	-70.6	3.8	7.44e-01	0	42	104	0	73	34696
2026-01-20 10:17:16.07	110.83	6.52	-51.2	-70.5	3.8	7.48e-01	0	41	104	0	73	34434
2026-01-20 10:17:17.07	110.73	6.58	-51.1	-70.4	3.8	7.47e-01	0	41	104	0	73	33985
2026-01-20 10:17:18.06	110.63	6.65	-51.1	-70.4	3.8	7.47e-01	0	42	104	0	73	33799
2026-01-20 10:17:19.06	110.53	6.72	-51.1	-70.2	3.8	7.43e-01	0	41	104	0	73	33307
2026-01-20 10:17:20.05	110.43	6.78	-51.1	-70.1	3.8	7.46e-01	0	42	104	0	73	32741
2026-01-20 10:17:21.04	110.32	6.85	-51.1	-69.9	3.8	7.46e-01	0	42	104	0	73	32068
2026-01-20 10:17:22.04	110.22	6.92	-51.1	-69.6	3.8	7.44e-01	0	42	104	0	73	30807
2026-01-20 10:17:23.03	110.12	6.99	-51.1	-69.2	3.9	7.44e-01	0	42	104	0	73	29659
2026-01-20 10:17:24.02	110.01	7.05	-51.1	-68.6	3.9	7.42e-01	0	42	104	0	73	27621
2026-01-20 10:17:25.02	109.91	7.12	-51.1	-68.4	3.9	7.38e-01	0	42	104	0	73	27035
2026-01-20 10:17:26.01	109.80	7.19	-51.1	-68.5	4.0	7.42e-01	0	42	104	0	73	27239
2026-01-20 10:17:27.01	109.70	7.26	-51.1	-68.3	4.1	7.38e-01	0	42	104	0	73	26486
2026-01-20 10:17:28.00	109.59	7.32	-51.1	-68.8	3.9	7.44e-01	0	42	104	0	73	28029
2026-01-20 10:17:28.99	109.49	7.39	-51.1	-69.3	3.8	7.46e-01	0	42	104	0	73	29744
2026-01-20 10:17:29.99	109.38	7.46	-51.1	-69.6	3.9	7.47e-01	0	42	104	0	73	30869
2026-01-20 10:17:30.98	109.27	7.53	-51.2	-69.9	3.8	7.46e-01	0	42	104	0	73	31909
2026-01-20 10:17:31.97	109.16	7.60	-51.2	-69.9	3.8	7.47e-01	0	42	104	0	73	32136
2026-01-20 10:17:32.97	109.05	7.66	-51.1	-69.6	3.8	7.42e-01	0	42	104	0	73	30940
2026-01-20 10:17:33.96	108.95	7.73	-51.1	-68.6	4.0	7.40e-01	0	42	104	0	73	27476
2026-01-20 10:17:34.95	108.84	7.80	-51.1	-67.3	4.2	7.28e-01	0	42	104	0	73	23793
2026-01-20 10:17:35.95	108.72	7.87	-51.0	-66.5	4.0	7.30e-01	0	42	104	0	73	21541
2026-01-20 10:17:36.94	108.61	7.94	-51.0	-65.9	5.0	7.11e-01	0	42	0	0	73	20251
2026-01-20 10:17:37.93	108.50	8.01	-51.1	-66.7	4.6	7.18e-01	0	42	104	0	73	22137
2026-01-20 10:17:38.93	108.39	8.08	-51.1	-68.9	3.9	7.43e-01	0	42	104	0	73	28355
2026-01-20 10:17:39.92	108.28	8.15	-51.1	-67.7	3.9	7.40e-01	0	42	104	0	73	24961
2026-01-20 10:17:40.92	108.16	8.21	-50.7	-61.8	8.1	6.44e-01	0	42	0	524288	73	12626
2026-01-20 10:17:41.91	108.05	8.28	-50.0	-57.5	12.6	6.10e-01	0	42	0	2621440	71	8648
2026-01-20 10:17:42.90	107.93	8.35	-48.8	-54.2	15.9	6.05e-01	0	42	0	4194304	69	6620
2026-01-20 10:17:43.90	107.82	8.42	-47.4	-51.6	18.6	6.06e-01	0	42	0	6291456	66	5804
2026-01-20 10:17:44.89	107.70	8.49	-46.4	-49.9	20.2	6.07e-01	0	42	0	8388608	64	5379
2026-01-20 10:17:45.88	107.59	8.56	-45.8	-49.0	21.2	6.08e-01	0	42	0	9961472	63	5120
2026-01-20 10:17:46.88	107.47	8.63	-45.4	-48.4	21.7	6.08e-01	0	42	0	12058624	62	5087
2026-01-20 10:17:47.87	107.35	8.70	-45.5	-48.6	21.6	6.05e-01	0	42	0	13631488	62	5179
2026-01-20 10:17:48.86	107.23	8.77	-46.1	-49.3	20.9	6.08e-01	0	42	0	15728640	62	5656
2026-01-20 10:17:49.86	107.11	8.84	-46.8	-50.5	19.7	6.05e-01	0	42	0	17301504	64	5760
2026-01-20 10:17:50.85	107.00	8.91	-47.8	-52.2	18.1	6.07e-01	0	42	0	19398656	66	6267
2026-01-20 10:17:51.84	106.88	8.98	-49.0	-54.7	15.8	6.05e-01	0	42	0	20971520	68	7389
2026-01-20 10:17:52.84	106.75	9.05	-50.0	-57.5	12.9	6.11e-01	0	42	0	23068672	70	9163
2026-01-20 10:17:53.83	106.63	9.12	-48.9	-54.3	16.1	6.06e-01	0	43	0	25165824	69	6669
2026-01-20 10:17:54.83	106.51	9.20	-49.6	-56.0	14.5	6.09e-01	0	43	0	26738688	69	8145
2026-01-20 10:17:55.82	106.39	9.27	-51.0	-64.4	6.4	6.85e-01	0	42	0	28835840	72	17907
2026-01-20 10:17:56.82	106.26	9.34	-46.8	-50.4	19.7	6.08e-01	0	42	0	29360128	65	5382
2026-01-20 10:17:57.81	106.14	9.41	-51.0	-62.6	8.0	6.55e-01	0	42	0	30932992	72	14694
2026-01-20 10:17:58.81	106.01	9.48	-47.8	-52.1	17.8	6.05e-01	0	43	0	31457280	67	5796
2026-01-20 10:17:59.80	105.89	9.55	-46.3	-49.6	20.7	6.07e-01	0	42	0	33554432	64	5177
2026-01-20 10:18:00.78	105.76	9.62	-46.3	-49.6	20.7	6.06e-01	0	43	0	35127296	64	5179
2026-01-20 10:18:01.78	105.64	9.69	-46.4	-49.7	20.6	6.06e-01	0	42	0	37224448	64	5229
2026-01-20 10:18:02.77	105.51	9.76	-46.1	-49.2	21.0	6.06e-01	0	42	0	38797312	64	4983
2026-01-20 10:18:03.77	105.38	9.84	-46.0	-49.1	21.2	6.08e-01	0	43	0	40894464	63	5189
2026-01-20 10:18:04.76	105.25	9.91	-46.1	-49.2	21.1	6.08e-01	0	43	0	42467328	63	5245
2026-01-20 10:18:05.76	105.12	9.98	-45.5	-48.4	21.8	6.05e-01	0	42	0	44564480	63	4803
2026-01-20 10:18:06.75	104.99	10.05	-45.4	-48.2	22.1	6.06e-01	0	42	0	46661632	62	4946
2026-01-20 10:18:07.75	104.86	10.12	-45.2	-47.9	22.3	6.07e-01	0	42	0	48234496	62	4809
2026-01-20 10:18:08.74	104.73	10.20	-44.8	-47.5	22.7	6.06e-01	0	42	0	50331648	61	4844
2026-01-20 10:18:09.74	104.59	10.27	-44.6	-47.2	23.0	6.08e-01	0	43	0	51904512	61	4696
2026-01-20 10:18:10.73	104.46	10.34	-44.6	-47.2	23.0	6.06e-01	0	43	0	54001664	61	4684
2026-01-20 10:18:11.73	104.33	10.41	-44.6	-47.3	23.0	6.06e-01	0	42	0	55574528	61	4726
2026-01-20 10:18:12.72	104.19	10.49	-44.7	-47.4	22.9	6.06e-01	0	42	0	57671680	61	4762
2026-01-20 10:18:13.72	104.06	10.56	-44.6	-47.2	23.0	6.05e-01	0	42	0	59244544	61	4695
2026-01-20 10:18:14.71	103.92	10.63	-44.7	-47.3	22.9	6.05e-01	0	42	0	61341696	61	4733
2026-01-20 10:18:15.71	103.78	10.71	-44.6	-47.3	23.0	6.07e-01	0	43	0	63438848	61	4724
2026-01-20 10:18:16.70	103.65	10.78	-44.5	-47.1	23.1	6.07e-01	0	42	0	65011712	61	4646
2026-01-20 10:18:17.70	103.51	10.85	-44.5	-47.1	23.1	6.09e-01	0	43	0	67108864	60	4895
2026-01-20 10:18:18.69	103.37	10.92	-44.5	-47.1	23.2	6.06e-01	0	43	0	68681728	60	4909
2026-01-20 10:18:19.69	103.23	11.00	-44.4	-47.0	23.2	6.08e-01	0	43	0	70778880	60	4866
2026-01-20 10:18:20.68	103.09	11.07	-44.4	-47.0	23.2	6.06e-01	0	42	0	72351744	60	4839
2026-01-20 10:18:21.68	102.95	11.14	-44.4	-47.0	23.3	6.08e-01	0	43	0	74448896	60	4830
2026-01-20 10:18:22.68	102.80	11.22	-44.3	-46.9	23.3	6.09e-01	0	43	0	76021760	60	4777
2026-01-20 10:18:23.67	102.66	11.29	-44.3	-46.9	23.3	6.06e-01	0	43	0	78118912	60	4802
2026-01-20 10:18:24.67	102.51	11.37	-44.3	-46.9	23.4	6.07e-01	0	43	0	80216064	60	4761
2026-01-20 10:18:25.66	102.37	11.44	-44.2	-46.8	23.5	6.07e-01	0	43	0	81788928	60	4719
2026-01-20 10:18:26.66	102.22	11.51	-44.3	-46.8	23.4	6.07e-01	0	43	0	83886080	60	4756
2026-01-20 10:18:27.66	102.08	11.59	-44.2	-46.7	23.5	6.06e-01	0	43	0	85458944	60	4684
2026-01-20 10:18:28.65	101.93	11.66	-44.2	-46.7	23.5	6.05e-01	0	43	0	87556096	60	4703
2026-01-20 10:18:29.65	101.78	11.74	-44.1	-46.7	23.6	6.06e-01	0	43	0	89653248	60	4659
2026-01-20 10:18:30.64	101.63	11.81	-44.1	-46.6	23.7	6.07e-01	0	43	0	91226112	60	4623
2026-01-20 10:18:31.64	101.48	11.88	-44.1	-46.6	23.6	6.06e-01	0	43	0	92798976	60	4649
2026-01-20 10:18:32.63	101.33	11.96	-44.0	-46.5	23.7	6.05e-01	0	42	0	94896128	60	4590
2026-01-20 10:18:33.63	101.18	12.03	-44.1	-46.6	23.6	6.06e-01	0	43	0	96993280	60	4650
2026-01-20 10:18:34.62	101.03	12.11	-44.2	-46.7	23.6	6.06e-01	0	43	0	98566144	60	4685
2026-01-20 10:18:35.62	100.88	12.18	-44.2	-46.7	23.6	6.07e-01	0	43	0	100663296	60	4676
2026-01-20 10:18:36.62	100.72	12.26	-44.2	-46.7	23.6	6.08e-01	0	43	0	102236160	60	4683
2026-01-20 10:18:37.61	100.57	12.33	-44.2	-46.7	23.5	6.06e-01	0	43	0	104333312	60	4679
2026-01-20 10:18:38.61	100.41	12.41	-44.1	-46.7	23.6	6.05e-01	0	43	0	106430464	60	4654
2026-01-20 10:18:39.60	100.26	12.48	-44.1	-46.6	23.7	6.07e-01	0	43	0	108003328	60	4620
2026-01-20 10:18:40.60	100.10	12.56	-44.1	-46.6	23.7	6.05e-01	0	43	0	110100480	60	4604
2026-01-20 10:18:41.59	99.94	12.63	-44.1	-46.5	23.7	6.06e-01	0	43	0	111673344	60	4594
2026-01-20 10:18:42.58	99.78	12.70	-44.0	-46.5	23.8	6.07e-01	0	43	0	113770496	60	4574
2026-01-20 10:18:43.58	99.62	12.78	-44.0	-46.5	23.8	6.04e-01	0	43	0	115343360	60	4556
2026-01-20 10:18:44.57	99.46	12.85	-44.1	-46.6	23.7	6.07e-01	0	43	0	117440512	60	4616
2026-01-20 10:18:45.57	99.30	12.93	-44.1	-46.6	23.7	6.08e-01	0	43	0	119013376	60	4614
2026-01-20 10:18:46.56	99.14	13.00	-44.1	-46.6	23.7	6.05e-01	0	43	0	121110528	60	4613
2026-01-20 10:18:47.56	98.97	13.08	-44.1	-46.6	23.7	6.07e-01	0	43	0	123207680	60	4638
2026-01-20 10:18:48.55	98.81	13.16	-44.1	-46.6	23.7	6.06e-01	0	43	0	124780544	60	4620
2026-01-20 10:18:49.55	98.64	13.23	-44.1	-46.6	23.6	6.06e-01	0	43	0	126877696	60	4634
2026-01-20 10:18:50.54	98.48	13.31	-44.1	-46.6	23.7	6.05e-01	0	43	0	128450560	60	4629
2026-01-20 10:18:51.54	98.31	13.38	-44.1	-46.7	23.7	6.04e-01	0	43	0	130547712	60	4658
2026-01-20 10:18:52.53	98.14	13.46	-44.1	-46.6	23.7	6.08e-01	0	42	0	132120576	60	4644
2026-01-20 10:18:53.53	97.97	13.53	-44.0	-46.5	23.8	6.07e-01	0	43	0	134217728	60	4596
2026-01-20 10:18:54.52	97.81	13.61	-44.0	-46.5	23.8	6.04e-01	0	43	0	135790592	60	4595
2026-01-20 10:18:55.52	97.63	13.68	-44.1	-46.6	23.7	6.07e-01	0	43	0	137887744	60	4621
2026-01-20 10:18:56.51	97.46	13.76	-44.1	-46.6	23.8	6.06e-01	0	43	0	139984896	60	4616
2026-01-20 10:18:57.51	97.29	13.83	-44.1	-46.6	23.7	6.07e-01	0	43	0	141557760	60	4639
2026-01-20 10:18:58.50	97.12	13.91	-44.1	-46.6	23.7	6.07e-01	0	43	0	143654912	60	4630
2026-01-20 10:18:59.50	96.94	13.98	-44.1	-46.6	23.7	6.05e-01	0	43	0	145227776	59	4911
2026-01-20 10:19:00.49	96.77	14.06	-44.0	-46.5	24.0	6.05e-01	0	43	0	147324928	59	4828
2026-01-20 10:19:01.49	96.59	14.14	-44.1	-46.6	23.9	6.05e-01	0	43	0	148897792	59	4884
2026-01-20 10:19:02.49	96.41	14.21	-44.1	-46.6	23.9	6.06e-01	0	43	0	150994944	59	4886
2026-01-20 10:19:03.48	96.23	14.29	-44.1	-46.6	23.8	6.08e-01	0	43	0	152567808	59	4901
2026-01-20 10:19:04.48	96.05	14.36	-44.0	-46.5	23.9	6.05e-01	0	43	0	154664960	59	4864
2026-01-20 10:19:05.47	95.87	14.44	-44.1	-46.6	23.9	6.07e-01	0	43	0	156762112	59	4880
2026-01-20 10:19:06.47	95.69	14.51	-44.1	-46.6	23.9	6.07e-01	0	43	0	158334976	59	4882
2026-01-20 10:19:07.46	95.51	14.59	-44.0	-46.5	24.0	6.07e-01	0	43	0	160432128	59	4836
2026-01-20 10:19:08.46	95.32	14.66	-43.9	-46.4	24.0	6.06e-01	0	43	0	162004992	59	4783
2026-01-20 10:19:09.45	95.14	14.74	-44.0	-46.4	24.0	6.06e-01	0	43	0	164102144	59	4808
2026-01-20 10:19:10.45	94.95	14.81	-43.9	-46.4	24.1	6.06e-01	0	43	0	165675008	59	4771
2026-01-20 10:19:11.44	94.77	14.89	-43.9	-46.4	24.0	6.07e-01	0	43	0	167772160	59	4796
2026-01-20 10:19:12.44	94.58	14.96	-44.0	-46.5	24.0	6.07e-01	0	43	0	169345024	59	4846
2026-01-20 10:19:13.43	94.39	15.04	-44.1	-46.6	23.9	6.07e-01	0	43	0	171442176	59	4883
2026-01-20 10:19:14.43	94.20	15.12	-44.2	-46.8	23.7	6.06e-01	0	43	0	173539328	59	4988
2026-01-20 10:19:15.42	94.01	15.19	-44.1	-46.6	23.8	6.09e-01	0	43	0	175112192	59	4920
2026-01-20 10:19:16.41	93.82	15.26	-44.0	-46.5	24.0	6.07e-01	0	43	0	177209344	59	4848
2026-01-20 10:19:17.41	93.63	15.34	-44.1	-46.6	23.9	6.05e-01	0	43	0	178782208	59	4889
2026-01-20 10:19:18.40	93.44	15.41	-44.2	-46.6	23.8	6.06e-01	0	43	0	180879360	59	4923
2026-01-20 10:19:19.40	93.24	15.49	-44.1	-46.6	23.9	6.07e-01	0	43	0	182452224	59	4898
2026-01-20 10:19:20.39	93.05	15.56	-44.2	-46.7	23.9	6.07e-01	0	43	0	184549376	59	4938
2026-01-20 10:19:21.39	92.85	15.64	-44.1	-46.6	23.9	6.07e-01	0	43	0	186122240	59	4910
2026-01-20 10:19:22.39	92.65	15.71	-44.0	-46.5	23.9	6.07e-01	0	43	0	188219392	59	4854
2026-01-20 10:19:23.38	92.45	15.79	-44.0	-46.5	24.0	6.07e-01	0	43	0	190316544	59	4837
2026-01-20 10:19:24.38	92.25	15.86	-44.0	-46.5	24.0	6.07e-01	0	43	0	191889408	59	4853
2026-01-20 10:19:25.37	92.05	15.94	-44.1	-46.6	23.9	6.07e-01	0	43	0	193986560	59	4871
2026-01-20 10:19:26.37	91.85	16.01	-44.0	-46.5	24.0	6.04e-01	0	43	0	195559424	59	4837
2026-01-20 10:19:27.36	91.64	16.09	-44.1	-46.5	23.9	6.05e-01	0	43	0	197656576	59	4860
2026-01-20 10:19:28.36	91.44	16.16	-44.1	-46.5	24.0	6.05e-01	0	43	0	199229440	59	4866
2026-01-20 10:19:29.36	91.23	16.24	-44.0	-46.5	24.0	6.06e-01	0	43	0	201326592	59	4857
2026-01-20 10:19:30.35	91.03	16.31	-44.0	-46.5	24.0	6.07e-01	0	43	0	203423744	59	4859
2026-01-20 10:19:31.35	90.82	16.38	-44.1	-46.6	23.9	6.05e-01	0	43	0	204996608	59	4882
2026-01-20 10:19:32.34	90.61	16.46	-43.9	-46.4	24.0	6.06e-01	0	43	0	207093760	59	4814
2026-01-20 10:19:33.34	90.40	16.53	-44.0	-46.5	23.8	6.05e-01	0	43	0	208666624	59	4819
2026-01-20 10:19:34.33	90.19	16.60	-43.9	-46.4	24.1	6.07e-01	0	43	0	210763776	59	4781
2026-01-20 10:19:35.33	89.98	16.68	-43.9	-46.5	24.0	6.07e-01	0	43	0	212336640	59	4816
2026-01-20 10:19:36.33	89.76	16.75	-44.0	-46.5	24.0	6.06e-01	0	43	0	214433792	59	4862
2026-01-20 10:19:37.32	89.55	16.82	-44.0	-46.6	23.9	6.09e-01	0	43	0	216006656	59	4886
2026-01-20 10:19:38.32	89.33	16.90	-44.0	-46.6	23.9	6.05e-01	0	43	0	218103808	59	4887
2026-01-20 10:19:39.31	89.12	16.97	-44.0	-46.6	24.0	6.06e-01	0	43	0	220200960	59	4873
2026-01-20 10:19:40.31	88.90	17.04	-44.0	-46.6	23.9	6.04e-01	0	43	0	221773824	59	4889
2026-01-20 10:19:41.30	88.68	17.11	-44.0	-46.6	23.9	6.06e-01	0	43	0	223870976	59	4908
2026-01-20 10:19:42.29	88.46	17.19	-44.0	-46.6	23.9	6.07e-01	0	43	0	225443840	59	4895
2026-01-20 10:19:43.29	88.24	17.26	-44.0	-46.6	23.9	6.04e-01	0	43	0	227540992	59	4921
2026-01-20 10:19:44.28	88.02	17.33	-44.0	-46.6	24.0	6.05e-01	0	43	0	229113856	59	4874
2026-01-20 10:19:45.28	87.80	17.40	-44.0	-46.5	24.0	6.05e-01	0	43	0	231211008	59	4859
2026-01-20 10:19:46.27	87.57	17.47	-44.0	-46.5	24.0	6.08e-01	0	43	0	232783872	59	4860
2026-01-20 10:19:47.27	87.35	17.55	-44.0	-46.6	23.9	6.06e-01	0	43	0	234881024	59	4883
2026-01-20 10:19:48.26	87.12	17.62	-44.1	-46.7	23.9	6.05e-01	0	43	0	236978176	59	4936
2026-01-20 10:19:49.26	86.89	17.69	-44.1	-46.7	23.8	6.06e-01	0	43	0	238551040	59	4969
2026-01-20 10:19:50.25	86.66	17.76	-43.9	-46.5	24.0	6.08e-01	0	43	0	240648192	59	4834
2026-01-20 10:19:51.25	86.43	17.83	-43.9	-46.5	24.0	6.06e-01	0	43	0	242221056	59	4833
2026-01-20 10:19:52.24	86.20	17.90	-44.0	-46.6	23.9	6.09e-01	0	43	0	244318208	59	4919
2026-01-20 10:19:53.24	85.97	17.97	-44.0	-46.6	23.9	6.07e-01	0	43	0	245891072	59	4891
2026-01-20 10:19:54.23	85.74	18.04	-44.1	-46.6	23.8	6.04e-01	0	43	0	247988224	59	4926
2026-01-20 10:19:55.23	85.50	18.11	-44.0	-46.6	24.0	6.07e-01	0	43	0	249561088	59	4881
2026-01-20 10:19:56.22	85.27	18.18	-44.0	-46.6	24.0	6.08e-01	0	43	0	251658240	59	4890
2026-01-20 10:19:57.22	85.03	18.25	-44.1	-46.7	23.9	6.06e-01	0	43	0	253755392	59	4943
2026-01-20 10:19:58.21	84.79	18.31	-44.1	-46.8	23.8	6.03e-01	0	43	0	255328256	59	4984
2026-01-20 10:19:59.21	84.55	18.38	-44.0	-46.7	23.9	6.06e-01	0	43	0	257425408	59	4932
2026-01-20 10:20:00.21	84.31	18.45	-43.9	-46.6	24.0	6.04e-01	0	43	0	258998272	59	4876
2026-01-20 10:20:01.20	84.07	18.52	-44.0	-46.6	24.0	6.06e-01	0	43	0	261095424	59	4912
2026-01-20 10:20:02.20	83.83	18.59	-44.1	-46.7	23.9	6.05e-01	0	43	0	262668288	59	4961
2026-01-20 10:20:03.19	83.59	18.65	-44.1	-46.7	23.9	6.07e-01	0	43	0	264765440	59	4946
2026-01-20 10:20:04.19	83.34	18.72	-44.2	-46.7	23.9	6.08e-01	0	43	0	266338304	59	4983
2026-01-20 10:20:05.18	83.09	18.79	-44.2	-46.7	23.9	6.05e-01	0	43	0	268435456	59	4969
2026-01-20 10:20:06.17	82.85	18.85	-44.2	-46.8	23.8	6.05e-01	0	43	0	270532608	59	5009
2026-01-20 10:20:07.17	82.60	18.92	-44.3	-46.9	23.7	6.05e-01	0	43	0	272105472	59	5048
2026-01-20 10:20:08.16	82.35	18.98	-44.3	-47.0	23.7	6.07e-01	0	43	0	274202624	59	5104
2026-01-20 10:20:09.16	82.10	19.05	-44.2	-46.8	23.8	6.06e-01	0	43	0	275775488	59	5032
2026-01-20 10:20:10.15	81.85	19.11	-44.1	-46.7	23.9	6.05e-01	0	43	0	277872640	59	4936
2026-01-20 10:20:11.15	81.59	19.18	-44.0	-46.6	24.0	6.06e-01	0	43	0	279445504	59	4904
2026-01-20 10:20:12.14	81.34	19.24	-44.1	-46.7	23.9	6.04e-01	0	43	0	281542656	59	4940
2026-01-20 10:20:13.14	81.09	19.31	-44.2	-46.8	23.8	6.07e-01	0	43	0	283115520	59	4993
2026-01-20 10:20:14.14	80.83	19.37	-44.3	-46.8	23.8	6.06e-01	0	43	0	285212672	59	5030
2026-01-20 10:20:15.13	80.57	19.43	-44.3	-46.8	23.8	6.05e-01	0	43	0	287309824	59	5007
2026-01-20 10:20:16.13	80.31	19.50	-44.3	-46.8	23.8	6.07e-01	0	43	0	288882688	59	5028
2026-01-20 10:20:17.12	80.05	19.56	-44.4	-47.0	23.6	6.06e-01	0	43	0	290979840	59	5126
2026-01-20 10:20:18.12	79.79	19.62	-44.4	-46.9	23.6	6.05e-01	0	43	0	292552704	59	5083
2026-01-20 10:20:19.11	79.53	19.68	-44.2	-46.7	23.8	6.06e-01	0	43	0	294649856	59	4980
2026-01-20 10:20:20.11	79.27	19.74	-44.1	-46.6	23.9	6.06e-01	0	43	0	296747008	59	4926
2026-01-20 10:20:21.10	79.01	19.80	-44.1	-46.6	24.0	6.06e-01	0	43	0	298319872	59	4918
2026-01-20 10:20:22.09	78.74	19.86	-44.2	-46.7	23.9	6.08e-01	0	43	0	299892736	59	4954
2026-01-20 10:20:23.09	78.47	19.92	-44.3	-46.9	23.8	6.06e-01	0	43	0	301989888	59	5048
2026-01-20 10:20:24.08	78.21	19.98	-44.4	-46.9	23.7	6.07e-01	0	43	0	304087040	59	5076
2026-01-20 10:20:25.08	77.94	20.04	-44.4	-46.9	23.7	6.06e-01	0	43	0	305659904	59	5083
2026-01-20 10:20:26.08	77.67	20.10	-44.3	-46.8	23.8	6.07e-01	0	43	0	307757056	59	5022
2026-01-20 10:20:27.07	77.40	20.15	-44.2	-46.7	24.0	6.05e-01	0	43	0	309329920	59	4937
2026-01-20 10:20:28.07	77.13	20.21	-44.2	-46.8	23.8	6.03e-01	0	43	0	311427072	59	4995
2026-01-20 10:20:29.06	76.85	20.27	-44.4	-46.9	23.7	6.05e-01	0	43	0	313524224	59	5074
2026-01-20 10:20:30.06	76.58	20.32	-44.5	-47.1	23.6	6.07e-01	0	43	0	315097088	59	5160
2026-01-20 10:20:31.05	76.31	20.38	-44.3	-46.9	23.7	6.07e-01	0	43	0	317194240	59	5071
2026-01-20 10:20:32.05	76.03	20.43	-44.3	-46.9	23.8	6.05e-01	0	43	0	318767104	59	5056
2026-01-20 10:20:33.04	75.75	20.49	-44.5	-47.0	23.7	6.11e-01	0	43	0	320864256	59	5123
2026-01-20 10:20:34.04	75.47	20.54	-44.4	-46.9	23.7	6.05e-01	0	43	0	322437120	59	5095
2026-01-20 10:20:35.03	75.20	20.60	-44.6	-47.1	23.6	6.06e-01	0	43	0	324534272	59	5212
2026-01-20 10:20:36.03	74.92	20.65	-44.5	-47.0	23.6	6.06e-01	0	43	0	326107136	59	5147
2026-01-20 10:20:37.03	74.63	20.70	-44.4	-47.0	23.7	6.06e-01	0	43	0	328204288	59	5103
2026-01-20 10:20:38.02	74.35	20.75	-44.5	-47.1	22.3	6.07e-01	0	43	0	330301440	59	5194
2026-01-20 10:20:39.01	74.07	20.80	-44.5	-47.1	23.6	6.07e-01	0	43	0	331874304	59	5166
2026-01-20 10:20:40.01	73.79	20.85	-44.4	-47.0	23.7	6.07e-01	0	43	0	333971456	59	5133
2026-01-20 10:20:41.01	73.50	20.90	-44.5	-47.1	23.6	6.06e-01	0	43	0	335544320	59	5173
2026-01-20 10:20:42.00	73.22	20.95	-44.6	-47.1	23.6	6.05e-01	0	43	0	337641472	59	5213
2026-01-20 10:20:42.99	72.93	21.00	-44.5	-47.0	23.6	6.07e-01	0	43	0	339214336	59	5150
2026-01-20 10:20:43.99	72.64	21.05	-44.6	-47.1	23.6	6.08e-01	0	43	0	341311488	59	5190
2026-01-20 10:20:44.98	72.35	21.10	-44.5	-47.0	23.7	6.05e-01	0	43	0	342884352	59	5129
2026-01-20 10:20:45.98	72.06	21.14	-44.5	-47.0	23.7	6.07e-01	0	43	0	344981504	59	5136
2026-01-20 10:20:46.98	71.77	21.19	-44.5	-47.1	23.6	6.08e-01	0	43	0	347078656	59	5179
2026-01-20 10:20:47.97	71.48	21.23	-44.5	-47.0	23.7	6.06e-01	0	43	0	348651520	59	5152
2026-01-20 10:20:48.97	71.19	21.28	-44.5	-47.0	23.6	6.07e-01	0	43	0	350748672	59	5159
2026-01-20 10:20:49.96	70.90	21.32	-44.6	-47.1	23.6	6.06e-01	0	43	0	352321536	59	5208
2026-01-20 10:20:50.96	70.60	21.37	-44.5	-47.1	23.6	6.04e-01	0	43	0	354418688	59	5167
2026-01-20 10:20:51.95	70.31	21.41	-44.5	-47.0	23.7	6.05e-01	0	43	0	355991552	59	5144
2026-01-20 10:20:52.95	70.01	21.45	-44.5	-47.1	23.6	6.06e-01	0	43	0	358088704	59	5172
2026-01-20 10:20:53.94	69.72	21.49	-44.6	-47.2	23.5	6.05e-01	0	43	0	359661568	59	5228
2026-01-20 10:20:54.94	69.42	21.53	-44.5	-47.1	23.7	6.05e-01	0	43	0	361758720	59	5165
2026-01-20 10:20:55.93	69.12	21.57	-44.5	-47.0	23.7	6.04e-01	0	43	0	363855872	59	5148
2026-01-20 10:20:56.93	68.82	21.61	-44.6	-47.2	23.6	6.05e-01	0	43	0	365428736	59	5221
2026-01-20 10:20:57.92	68.52	21.65	-44.5	-47.1	23.6	6.08e-01	0	43	0	367525888	59	5170
2026-01-20 10:20:58.92	68.22	21.69	-44.5	-47.0	23.7	6.05e-01	0	43	0	369098752	59	5133
2026-01-20 10:20:59.91	67.92	21.73	-44.6	-47.2	23.6	6.07e-01	0	43	0	371195904	59	5224
2026-01-20 10:21:00.91	67.62	21.76	-44.5	-47.1	23.5	6.06e-01	0	43	0	372768768	60	4885
2026-01-20 10:21:01.91	67.31	21.80	-44.6	-47.1	23.5	6.06e-01	0	43	0	374865920	60	4908
2026-01-20 10:21:02.90	67.01	21.83	-44.6	-47.1	23.5	6.06e-01	0	43	0	376963072	60	4911
2026-01-20 10:21:03.90	66.70	21.87	-44.4	-46.9	23.6	6.05e-01	0	43	0	378535936	60	4796
2026-01-20 10:21:04.90	66.40	21.90	-44.4	-47.0	23.7	6.04e-01	0	43	0	380633088	60	4827
2026-01-20 10:21:05.89	66.09	21.93	-44.5	-47.0	23.6	6.07e-01	0	43	0	382205952	60	4861
2026-01-20 10:21:06.89	65.79	21.96	-44.4	-47.0	23.6	6.07e-01	0	43	0	384303104	60	4822
2026-01-20 10:21:07.88	65.48	21.99	-44.6	-47.1	23.5	6.04e-01	0	43	0	385875968	60	4903
2026-01-20 10:21:08.87	65.18	22.02	-44.4	-46.9	23.7	6.08e-01	0	43	0	387973120	60	4813
2026-01-20 10:21:09.87	64.87	22.05	-44.6	-47.1	23.5	6.07e-01	0	43	0	389545984	60	4902
2026-01-20 10:21:10.86	64.56	22.08	-44.6	-47.1	23.5	6.07e-01	0	43	0	391643136	60	4907
2026-01-20 10:21:11.86	64.25	22.11	-44.4	-47.0	23.6	6.05e-01	0	43	0	393740288	60	4828
2026-01-20 10:21:12.86	63.94	22.13	-44.3	-46.9	23.7	6.06e-01	0	43	0	395313152	60	4771
2026-01-20 10:21:13.85	63.63	22.16	-44.3	-46.9	23.7	6.07e-01	0	43	0	397410304	60	4762
2026-01-20 10:21:14.85	63.32	22.18	-44.4	-47.0	23.6	6.07e-01	0	43	0	398983168	60	4829
2026-01-20 10:21:15.84	63.01	22.21	-44.4	-47.0	23.7	6.07e-01	0	43	0	401080320	60	4815
2026-01-20 10:21:16.84	62.69	22.23	-44.4	-47.0	23.6	6.07e-01	0	43	0	402653184	60	4826
2026-01-20 10:21:17.83	62.38	22.25	-44.4	-47.0	23.6	6.05e-01	0	43	0	404750336	60	4850
2026-01-20 10:21:18.83	62.07	22.28	-44.4	-47.0	23.6	6.06e-01	0	43	0	406323200	60	4856
2026-01-20 10:21:19.82	61.76	22.30	-44.5	-47.1	23.5	6.06e-01	0	43	0	408420352	60	4905
2026-01-20 10:21:20.82	61.44	22.32	-44.5	-47.0	23.6	6.05e-01	0	43	0	410517504	60	4857
2026-01-20 10:21:21.82	61.13	22.34	-44.5	-47.1	23.6	6.07e-01	0	43	0	412090368	60	4886
2026-01-20 10:21:22.81	60.81	22.35	-44.5	-47.1	23.6	6.06e-01	0	43	0	414187520	60	4880
2026-01-20 10:21:23.81	60.50	22.37	-44.4	-47.0	23.7	6.04e-01	0	43	0	415760384	60	4843
2026-01-20 10:21:24.80	60.18	22.39	-44.4	-47.0	23.6	6.06e-01	0	43	0	417857536	60	4850
2026-01-20 10:21:25.80	59.87	22.40	-44.4	-47.1	23.6	6.05e-01	0	43	0	419430400	60	4878
2026-01-20 10:21:26.79	59.55	22.42	-44.4	-47.0	23.6	6.06e-01	0	43	0	421527552	60	4855
2026-01-20 10:21:27.79	59.23	22.43	-44.5	-47.1	23.5	6.07e-01	0	43	0	423100416	60	4902
2026-01-20 10:21:28.78	58.92	22.44	-44.5	-47.1	23.5	6.05e-01	0	43	0	425197568	60	4922
2026-01-20 10:21:29.78	58.60	22.46	-44.4	-47.0	23.6	6.07e-01	0	43	0	427294720	60	4829
2026-01-20 10:21:30.78	58.28	22.47	-44.4	-47.0	23.6	6.08e-01	0	43	0	428867584	60	4856
2026-01-20 10:21:31.77	57.97	22.48	-44.5	-47.1	23.6	6.04e-01	0	43	0	430964736	60	4874
2026-01-20 10:21:32.77	57.65	22.49	-44.6	-47.2	23.5	6.05e-01	0	43	0	432537600	60	4945
2026-01-20 10:21:33.76	57.33	22.49	-44.6	-47.2	23.5	6.08e-01	0	43	0	434634752	60	4933
2026-01-20 10:21:34.76	57.01	22.50	-44.4	-47.0	23.6	6.04e-01	0	43	0	436207616	60	4828
2026-01-20 10:21:35.75	56.70	22.51	-44.4	-47.0	23.6	6.06e-01	0	43	0	438304768	60	4834
2026-01-20 10:21:36.75	56.38	22.51	-44.6	-47.1	23.5	6.07e-01	0	43	0	440401920	60	4912
2026-01-20 10:21:37.74	56.06	22.52	-44.6	-47.1	23.5	6.06e-01	0	43	0	441974784	60	4895
2026-01-20 10:21:38.74	55.74	22.52	-44.6	-47.2	23.4	6.06e-01	0	43	0	444071936	60	4944
2026-01-20 10:21:39.74	55.42	22.53	-44.5	-47.0	23.6	6.07e-01	0	43	0	445644800	60	4861
2026-01-20 10:21:40.73	55.11	22.53	-44.5	-47.0	23.6	6.07e-01	0	43	0	447741952	60	4867
2026-01-20 10:21:41.72	54.79	22.53	-44.5	-47.1	23.6	6.06e-01	0	43	0	449314816	60	4887
2026-01-20 10:21:42.72	54.47	22.53	-44.5	-47.1	23.6	6.05e-01	0	43	0	451411968	60	4909
2026-01-20 10:21:43.72	54.15	22.53	-44.6	-47.2	23.4	6.07e-01	0	43	0	452984832	60	4967
2026-01-20 10:21:44.71	53.83	22.53	-44.6	-47.1	23.5	6.05e-01	0	43	0	455081984	60	4919
2026-01-20 10:21:45.71	53.51	22.52	-44.6	-47.2	23.4	6.08e-01	0	43	0	457179136	60	4938
2026-01-20 10:21:46.70	53.20	22.52	-44.8	-47.4	23.3	6.08e-01	0	43	0	458752000	60	5059
2026-01-20 10:21:47.69	52.88	22.52	-44.7	-47.3	23.4	6.07e-01	0	43	0	460849152	60	5035
2026-01-20 10:21:48.69	52.56	22.51	-44.6	-47.2	23.4	6.08e-01	0	43	0	462422016	60	4970
2026-01-20 10:21:49.69	52.24	22.50	-44.5	-47.1	23.5	6.07e-01	0	43	0	464519168	60	4912
2026-01-20 10:21:50.68	51.93	22.50	-44.5	-47.1	23.5	6.04e-01	0	43	0	466092032	60	4903
2026-01-20 10:21:51.68	51.61	22.49	-44.5	-47.0	23.6	6.09e-01	0	43	0	468189184	60	4864
2026-01-20 10:21:52.67	51.29	22.48	-44.5	-47.1	23.5	6.07e-01	0	43	0	469762048	60	4904
2026-01-20 10:21:53.67	50.97	22.47	-44.7	-47.3	23.4	6.07e-01	0	43	0	471859200	60	4990
2026-01-20 10:21:54.66	50.66	22.46	-44.6	-47.1	23.5	6.08e-01	0	43	0	473956352	60	4918
2026-01-20 10:21:55.66	50.34	22.45	-44.6	-47.1	23.4	6.06e-01	0	43	0	475529216	60	4915
2026-01-20 10:21:56.66	50.02	22.44	-44.6	-47.2	23.5	6.07e-01	0	43	0	477626368	60	4968
2026-01-20 10:21:57.65	49.71	22.42	-44.7	-47.3	23.3	6.06e-01	0	43	0	479199232	60	5009
2026-01-20 10:21:58.65	49.39	22.41	-44.7	-47.3	23.3	6.07e-01	0	43	0	481296384	60	5020
2026-01-20 10:21:59.64	49.08	22.39	-44.7	-47.2	23.4	6.07e-01	0	43	0	482869248	60	4978
2026-01-20 10:22:00.64	48.76	22.38	-44.6	-47.2	23.5	6.02e-01	0	43	0	484966400	60	4943
2026-01-20 10:22:01.63	48.45	22.36	-44.7	-47.3	23.3	6.05e-01	0	43	0	486539264	60	5000
2026-01-20 10:22:02.63	48.13	22.34	-44.6	-47.2	23.4	6.07e-01	0	43	0	488636416	60	4973
2026-01-20 10:22:03.62	47.82	22.32	-44.6	-47.2	23.4	6.06e-01	0	43	0	490733568	60	4929
2026-01-20 10:22:04.62	47.51	22.30	-44.5	-47.1	23.6	6.06e-01	0	43	0	492306432	60	4875
2026-01-20 10:22:05.61	47.19	22.28	-44.7	-47.4	23.3	6.06e-01	0	43	0	494403584	60	5045
2026-01-20 10:22:06.60	46.88	22.26	-44.6	-47.2	23.5	6.05e-01	0	43	0	495976448	60	4933
2026-01-20 10:22:07.60	46.57	22.24	-44.7	-47.2	23.4	6.04e-01	0	43	0	498073600	60	4977
2026-01-20 10:22:08.59	46.26	22.22	-44.6	-47.2	23.5	6.05e-01	0	43	0	499646464	60	4937
2026-01-20 10:22:09.59	45.95	22.19	-44.5	-47.0	23.6	6.06e-01	0	43	0	501743616	60	4867
2026-01-20 10:22:10.58	45.64	22.17	-44.5	-47.0	23.6	6.05e-01	0	43	0	503840768	60	4867
2026-01-20 10:22:11.58	45.33	22.15	-44.6	-47.2	23.4	6.07e-01	0	43	0	505413632	60	4971
2026-01-20 10:22:12.58	45.01	22.12	-44.6	-47.2	23.5	6.10e-01	0	43	0	507510784	60	4936
2026-01-20 10:22:13.57	44.71	22.09	-44.6	-47.2	23.4	6.06e-01	0	43	0	509083648	60	4956
2026-01-20 10:22:14.57	44.40	22.06	-44.6	-47.2	23.5	6.06e-01	0	43	0	511180800	60	4962
2026-01-20 10:22:15.56	44.09	22.04	-44.6	-47.2	23.5	6.08e-01	0	43	0	512753664	60	4928
2026-01-20 10:22:16.56	43.78	22.01	-44.6	-47.2	23.5	6.07e-01	0	43	0	514850816	60	4963
2026-01-20 10:22:17.55	43.48	21.98	-44.4	-47.0	23.6	6.06e-01	0	43	0	516947968	60	4855
2026-01-20 10:22:18.54	43.17	21.94	-44.4	-47.1	23.5	6.06e-01	0	43	0	518520832	60	4889
2026-01-20 10:22:19.54	42.87	21.91	-44.7	-47.4	23.3	6.05e-01	0	43	0	520617984	60	5075
2026-01-20 10:22:20.53	42.56	21.88	-44.6	-47.3	23.4	6.08e-01	0	43	0	522190848	60	5009
2026-01-20 10:22:21.53	42.26	21.85	-44.6	-47.3	23.4	6.08e-01	0	43	0	524288000	60	4991
2026-01-20 10:22:22.52	41.96	21.81	-44.8	-47.4	23.3	6.05e-01	0	43	0	525860864	60	5053
2026-01-20 10:22:23.52	41.65	21.78	-44.7	-47.3	23.4	6.07e-01	0	43	0	527958016	60	5016
2026-01-20 10:22:24.51	41.35	21.74	-44.7	-47.3	23.4	6.06e-01	0	43	0	529530880	60	4992
2026-01-20 10:22:25.51	41.05	21.71	-44.6	-47.2	23.4	6.05e-01	0	43	0	531628032	60	4962
2026-01-20 10:22:26.51	40.75	21.67	-44.6	-47.2	23.4	6.07e-01	0	43	0	533725184	60	4962
2026-01-20 10:22:27.50	40.45	21.63	-44.6	-47.3	23.4	6.06e-01	0	43	0	535298048	60	4998
2026-01-20 10:22:28.49	40.15	21.59	-44.6	-47.3	23.4	6.06e-01	0	43	0	537395200	60	4984
2026-01-20 10:22:29.49	39.86	21.55	-44.3	-47.0	23.6	6.06e-01	0	43	0	538968064	60	4817
2026-01-20 10:22:30.49	39.56	21.51	-44.3	-46.9	23.7	6.05e-01	0	43	0	541065216	60	4784
2026-01-20 10:22:31.48	39.26	21.47	-44.2	-47.0	23.6	6.05e-01	0	43	0	542638080	60	4824
2026-01-20 10:22:32.47	38.97	21.43	-44.4	-47.3	23.4	6.06e-01	0	43	0	544735232	60	4991
2026-01-20 10:22:33.47	38.67	21.39	-44.3	-47.1	23.5	6.07e-01	0	43	0	546308096	60	4913
2026-01-20 10:22:34.46	38.38	21.34	-44.4	-47.1	23.5	6.06e-01	0	43	0	548405248	60	4899
2026-01-20 10:22:35.46	38.09	21.30	-44.3	-47.0	23.7	6.05e-01	0	43	0	550502400	60	4830
2026-01-20 10:22:36.45	37.80	21.26	-44.3	-47.0	23.7	6.07e-01	0	43	0	552075264	60	4839
2026-01-20 10:22:37.45	37.50	21.21	-44.3	-47.1	23.5	6.08e-01	0	43	0	554172416	60	4888
2026-01-20 10:22:38.44	37.22	21.17	-44.3	-47.1	23.5	6.07e-01	0	43	0	555745280	60	4915
2026-01-20 10:22:39.44	36.93	21.12	-44.3	-47.2	23.5	6.07e-01	0	43	0	557842432	60	4930
2026-01-20 10:22:40.43	36.64	21.07	-44.3	-47.1	23.5	6.06e-01	0	43	0	559415296	60	4887
2026-01-20 10:22:41.43	36.35	21.03	-44.4	-47.1	23.5	6.05e-01	0	43	0	561512448	60	4905
2026-01-20 10:22:42.42	36.07	20.98	-44.5	-47.2	23.5	6.08e-01	0	43	0	563085312	60	4939
2026-01-20 10:22:43.42	35.78	20.93	-44.4	-46.9	23.7	6.06e-01	0	43	0	565182464	60	4813
2026-01-20 10:22:44.41	35.50	20.88	-44.6	-47.2	23.5	6.08e-01	0	43	0	567279616	60	4958
2026-01-20 10:22:45.41	35.21	20.83	-44.5	-47.1	23.5	6.06e-01	0	43	0	568852480	60	4905
2026-01-20 10:22:46.40	34.93	20.78	-44.6	-47.3	23.3	6.05e-01	0	43	0	570949632	60	5004
2026-01-20 10:22:47.39	34.65	20.73	-44.6	-47.3	23.4	6.08e-01	0	43	0	572522496	60	4993
2026-01-20 10:22:48.39	34.37	20.68	-44.5	-47.2	23.5	6.08e-01	0	43	0	574619648	60	4929
2026-01-20 10:22:49.38	34.09	20.62	-44.5	-47.2	23.5	6.04e-01	0	43	0	576192512	60	4939
2026-01-20 10:22:50.38	33.81	20.57	-44.3	-47.0	23.6	6.08e-01	0	43	0	578289664	60	4833
2026-01-20 10:22:51.37	33.53	20.52	-44.2	-46.9	23.7	6.06e-01	0	43	0	579862528	60	4764
2026-01-20 10:22:52.37	33.26	20.46	-44.2	-46.9	23.6	6.07e-01	0	43	0	581959680	60	4810
2026-01-20 10:22:53.36	32.98	20.41	-44.2	-47.1	23.3	6.07e-01	0	43	0	584056832	60	4906
2026-01-20 10:22:54.36	32.71	20.35	-44.2	-47.2	23.4	6.06e-01	0	43	0	585629696	60	4971
2026-01-20 10:22:55.36	32.43	20.30	-44.2	-47.2	23.6	6.08e-01	0	43	0	587726848	59	5248
2026-01-20 10:22:56.35	32.16	20.24	-44.1	-47.0	23.7	6.07e-01	0	43	0	589299712	59	5148
2026-01-20 10:22:57.35	31.89	20.18	-44.3	-47.2	23.6	6.05e-01	0	43	0	591396864	59	5259
2026-01-20 10:22:58.34	31.62	20.13	-44.4	-47.2	23.5	6.06e-01	0	43	0	592969728	59	5260
2026-01-20 10:22:59.33	31.35	20.07	-44.5	-47.1	23.6	6.05e-01	0	43	0	595066880	59	5185
2026-01-20 10:23:00.33	31.09	20.01	-44.6	-47.2	23.6	6.04e-01	0	43	0	596639744	59	5226
2026-01-20 10:23:01.32	30.82	19.95	-44.5	-47.2	23.3	6.07e-01	0	43	0	598736896	60	4956
2026-01-20 10:23:02.32	30.55	19.89	-44.5	-47.2	23.4	6.05e-01	0	43	0	600834048	60	4949
2026-01-20 10:23:03.32	30.29	19.84	-44.3	-46.9	23.7	6.07e-01	0	43	0	602406912	60	4777
2026-01-20 10:23:04.31	30.03	19.78	-44.2	-46.8	23.8	6.04e-01	0	43	0	604504064	60	4727
2026-01-20 10:23:05.31	29.76	19.71	-44.2	-46.8	23.8	6.06e-01	0	43	0	606076928	60	4732
2026-01-20 10:23:06.30	29.50	19.65	-44.3	-46.9	23.7	6.04e-01	0	43	0	608174080	60	4799
2026-01-20 10:23:07.30	29.24	19.59	-44.4	-47.1	23.6	6.06e-01	0	43	0	609746944	60	4881
2026-01-20 10:23:08.29	28.98	19.53	-44.3	-47.0	23.6	6.06e-01	0	43	0	611844096	60	4835
2026-01-20 10:23:09.29	28.72	19.47	-44.3	-47.0	23.6	6.05e-01	0	43	0	613416960	60	4848
2026-01-20 10:23:10.28	28.47	19.41	-44.3	-47.1	23.6	6.08e-01	0	43	0	615514112	60	4876
2026-01-20 10:23:11.28	28.21	19.34	-44.2	-46.9	23.7	6.08e-01	0	43	0	617611264	60	4773
2026-01-20 10:23:12.27	27.96	19.28	-44.1	-46.8	23.8	6.05e-01	0	43	0	619184128	60	4728
2026-01-20 10:23:13.27	27.70	19.22	-44.3	-46.9	23.8	6.04e-01	0	43	0	621281280	59	5095
2026-01-20 10:23:14.26	27.45	19.15	-44.3	-47.0	23.6	6.07e-01	0	43	0	622854144	59	5148
2026-01-20 10:23:15.26	27.20	19.09	-44.3	-47.1	23.6	6.09e-01	0	43	0	624951296	59	5192
2026-01-20 10:23:16.25	26.95	19.02	-44.2	-47.1	23.7	6.05e-01	0	43	0	626524160	59	5170
2026-01-20 10:23:17.25	26.70	18.96	-44.1	-47.0	23.6	6.05e-01	0	43	0	628621312	59	5127
2026-01-20 10:23:18.24	26.46	18.89	-44.1	-46.9	23.7	6.06e-01	0	43	0	630194176	59	5098
2026-01-20 10:23:19.24	26.21	18.83	-44.1	-47.0	23.7	6.07e-01	0	43	0	632291328	59	5103
2026-01-20 10:23:20.23	25.96	18.76	-44.2	-47.1	23.6	6.05e-01	0	43	0	634388480	59	5189
2026-01-20 10:23:21.23	25.72	18.69	-44.1	-47.0	23.7	6.06e-01	0	43	0	635961344	59	5141
2026-01-20 10:23:22.23	25.47	18.63	-44.2	-47.1	23.7	6.02e-01	0	43	0	638058496	59	5168
2026-01-20 10:23:23.22	25.23	18.56	-44.1	-47.0	23.7	6.06e-01	0	43	0	639631360	59	5137
2026-01-20 10:23:24.22	24.99	18.49	-44.3	-47.1	23.6	6.05e-01	0	43	0	641728512	59	5202
2026-01-20 10:23:25.21	24.75	18.43	-44.5	-47.2	23.5	6.07e-01	0	43	0	643301376	59	5262
2026-01-20 10:23:26.20	24.52	18.36	-44.5	-47.1	23.6	6.05e-01	0	43	0	645398528	59	5218
2026-01-20 10:23:27.20	24.28	18.29	-44.3	-46.9	23.7	6.07e-01	0	43	0	647495680	59	5071
2026-01-20 10:23:28.20	24.04	18.22	-44.4	-47.0	23.7	6.06e-01	0	43	0	649068544	59	5123
2026-01-20 10:23:29.19	23.81	18.15	-44.4	-47.1	23.6	6.08e-01	0	43	0	651165696	59	5160
2026-01-20 10:23:30.19	23.57	18.08	-44.5	-47.1	23.6	6.08e-01	0	43	0	652738560	59	5203
2026-01-20 10:23:31.18	23.34	18.01	-44.5	-47.1	23.5	6.06e-01	0	43	0	654835712	59	5214
2026-01-20 10:23:32.18	23.11	17.94	-44.4	-47.0	23.6	6.08e-01	0	43	0	656408576	59	5149
2026-01-20 10:23:33.17	22.88	17.87	-44.4	-47.1	23.7	6.07e-01	0	43	0	658505728	59	5176
2026-01-20 10:23:34.17	22.65	17.80	-44.4	-47.1	23.6	6.07e-01	0	43	0	660078592	59	5168
2026-01-20 10:23:35.16	22.42	17.73	-44.4	-47.1	23.5	6.05e-01	0	43	0	662175744	59	5192
2026-01-20 10:23:36.16	22.19	17.66	-44.4	-47.1	23.6	6.07e-01	0	43	0	664272896	59	5199
2026-01-20 10:23:37.15	21.97	17.59	-44.3	-47.1	23.5	6.05e-01	0	43	0	665845760	59	5211
2026-01-20 10:23:38.15	21.74	17.52	-44.2	-47.0	23.6	6.09e-01	0	43	0	667942912	59	5134
2026-01-20 10:23:39.14	21.52	17.45	-44.1	-46.9	23.7	6.06e-01	0	43	0	669515776	59	5099
2026-01-20 10:23:40.14	21.30	17.38	-44.1	-46.9	23.7	6.05e-01	0	43	0	671612928	59	5045
2026-01-20 10:23:41.14	21.07	17.31	-44.1	-46.9	23.8	6.04e-01	0	43	0	673185792	59	5048
2026-01-20 10:23:42.13	20.85	17.24	-44.2	-46.9	23.7	6.06e-01	0	43	0	675282944	59	5072
2026-01-20 10:23:43.13	20.63	17.16	-44.4	-47.1	23.6	6.05e-01	0	43	0	676855808	59	5175
2026-01-20 10:23:44.12	20.42	17.09	-44.4	-47.2	23.5	6.05e-01	0	43	0	678952960	59	5240
2026-01-20 10:23:45.11	20.20	17.02	-44.4	-47.2	23.5	6.05e-01	0	43	0	681050112	59	5225
2026-01-20 10:23:46.11	19.98	16.95	-44.3	-47.0	23.7	6.05e-01	0	43	0	682622976	59	5153
2026-01-20 10:23:47.11	19.77	16.88	-44.2	-47.0	23.7	6.06e-01	0	43	0	684720128	59	5104
2026-01-20 10:23:48.10	19.56	16.80	-44.2	-46.9	23.7	6.03e-01	0	43	0	686292992	59	5074
2026-01-20 10:23:49.09	19.34	16.73	-44.2	-47.0	23.7	6.06e-01	0	43	0	688390144	59	5106
2026-01-20 10:23:50.09	19.13	16.66	-44.3	-47.1	23.5	6.04e-01	0	43	0	689963008	59	5209
2026-01-20 10:23:51.08	18.92	16.58	-44.2	-47.0	23.6	6.04e-01	0	43	0	692060160	59	5145
2026-01-20 10:23:52.08	18.71	16.51	-44.0	-46.8	23.7	6.07e-01	0	43	0	693633024	59	5028
2026-01-20 10:23:53.07	18.51	16.44	-44.0	-46.9	23.7	6.05e-01	0	43	0	695730176	59	5060
2026-01-20 10:23:54.07	18.30	16.36	-44.2	-47.1	23.6	6.08e-01	0	43	0	697827328	59	5173
2026-01-20 10:23:55.07	18.09	16.29	-44.3	-47.1	23.7	6.09e-01	0	43	0	699400192	59	5163
2026-01-20 10:23:56.06	17.89	16.22	-44.3	-46.9	23.7	6.04e-01	0	43	0	701497344	59	5090
2026-01-20 10:23:57.06	17.68	16.14	-44.2	-46.8	23.7	6.07e-01	0	43	0	703070208	59	5031
2026-01-20 10:23:58.05	17.48	16.07	-44.4	-46.9	23.8	6.07e-01	0	43	0	705167360	59	5079
2026-01-20 10:23:59.05	17.28	15.99	-44.5	-47.0	23.6	6.06e-01	0	43	0	707264512	59	5155
2026-01-20 10:24:00.04	17.08	15.92	-44.5	-47.1	23.5	6.04e-01	0	43	0	708837376	59	5166
2026-01-20 10:24:01.04	16.88	15.85	-44.4	-46.9	23.7	6.06e-01	0	43	0	710410240	59	5094
2026-01-20 10:24:02.03	16.68	15.77	-44.4	-46.9	23.8	5.97e-01	0	43	0	712507392	59	5069
2026-01-20 10:24:03.03	16.48	15.70	-44.3	-46.9	23.7	6.01e-01	0	43	0	714604544	59	5047
2026-01-20 10:24:04.02	16.29	15.62	-44.4	-47.0	23.7	6.01e-01	0	43	0	716177408	59	5102
2026-01-20 10:24:05.02	16.09	15.55	-44.5	-47.2	23.5	6.02e-01	0	43	0	718274560	59	5230
2026-01-20 10:24:06.01	15.90	15.47	-44.4	-47.2	23.5	6.03e-01	0	43	0	719847424	59	5223
2026-01-20 10:24:07.01	15.71	15.40	-44.3	-47.1	23.5	6.01e-01	0	43	0	721944576	59	5209
2026-01-20 10:24:08.00	15.52	15.33	-44.1	-47.1	23.5	6.01e-01	0	43	0	724041728	59	5191
2026-01-20 10:24:09.00	15.32	15.25	-43.9	-47.0	23.6	6.00e-01	0	43	0	725614592	59	5136
2026-01-20 10:24:10.00	15.13	15.18	-43.9	-47.1	23.5	6.01e-01	0	43	0	727711744	59	5184
2026-01-20 10:24:10.99	14.95	15.10	-43.8	-47.1	23.6	6.01e-01	0	43	0	729284608	59	5166
2026-01-20 10:24:11.99	14.76	15.03	-43.9	-47.1	23.6	6.02e-01	0	43	0	731381760	59	5216
2026-01-20 10:24:12.98	14.57	14.95	-43.9	-47.2	23.5	6.04e-01	0	43	0	732954624	59	5224
2026-01-20 10:24:13.98	14.38	14.88	-43.7	-47.0	23.5	6.01e-01	0	43	0	735051776	59	5105
2026-01-20 10:24:14.97	14.20	14.80	-43.8	-47.1	23.5	6.03e-01	0	43	0	736624640	59	5218
2026-01-20 10:24:15.97	14.02	14.73	-43.8	-47.1	23.6	6.02e-01	0	43	0	738721792	59	5166
2026-01-20 10:24:16.96	13.83	14.65	-43.7	-47.0	23.6	6.03e-01	0	43	0	740818944	59	5159
2026-01-20 10:24:17.96	13.65	14.58	-43.7	-47.1	23.4	6.02e-01	0	43	0	742391808	59	5160
2026-01-20 10:24:18.95	13.47	14.50	-43.9	-47.2	23.4	6.02e-01	0	43	0	744488960	59	5237
2026-01-20 10:24:19.95	13.29	14.43	-43.9	-47.2	23.4	6.00e-01	0	43	0	746061824	59	5220
2026-01-20 10:24:20.94	13.11	14.35	-44.0	-47.3	23.3	6.01e-01	0	43	0	748158976	59	5293
2026-01-20 10:24:21.94	12.93	14.28	-44.0	-47.2	23.4	6.00e-01	0	43	0	749731840	59	5255
2026-01-20 10:24:22.93	12.76	14.20	-44.1	-47.2	23.4	6.03e-01	0	43	0	751828992	59	5236
2026-01-20 10:24:23.93	12.58	14.13	-44.1	-47.0	23.5	6.00e-01	0	43	0	753401856	59	5147
2026-01-20 10:24:24.93	12.41	14.05	-44.3	-47.2	23.5	6.00e-01	0	43	0	755499008	59	5219
2026-01-20 10:24:25.92	12.23	13.98	-44.4	-47.3	23.4	6.04e-01	0	43	0	757596160	59	5303
2026-01-20 10:24:26.92	12.06	13.90	-44.7	-47.6	23.1	6.01e-01	0	43	0	759169024	59	5527
2026-01-20 10:24:27.91	11.89	13.83	-44.5	-47.5	23.1	6.02e-01	0	43	0	761266176	59	5427
2026-01-20 10:24:28.91	11.72	13.75	-44.5	-47.7	23.0	6.03e-01	0	43	0	762839040	59	5535
2026-01-20 10:24:29.90	11.55	13.68	-44.2	-47.3	23.2	6.02e-01	0	43	0	764936192	59	5337
2026-01-20 10:24:30.89	11.38	13.60	-44.3	-47.5	23.1	6.01e-01	0	43	0	766509056	59	5424
2026-01-20 10:24:31.89	11.21	13.53	-44.4	-47.5	23.2	6.03e-01	0	43	0	768606208	59	5418
2026-01-20 10:24:32.88	11.04	13.45	-44.4	-47.6	23.0	6.00e-01	0	43	0	770179072	59	5466
2026-01-20 10:24:33.88	10.88	13.38	-44.4	-47.6	23.1	6.00e-01	0	43	0	772276224	59	5475
2026-01-20 10:24:34.88	10.71	13.30	-44.3	-47.4	23.2	6.01e-01	0	43	0	774373376	59	5367
2026-01-20 10:24:35.87	10.55	13.23	-44.2	-47.3	23.2	5.99e-01	0	43	0	775946240	59	5312
2026-01-20 10:24:36.87	10.38	13.15	-44.0	-47.2	23.3	6.00e-01	0	43	0	778043392	59	5276
2026-01-20 10:24:37.86	10.22	13.08	-44.0	-47.3	23.2	6.03e-01	0	43	0	779616256	59	5314
2026-01-20 10:24:38.86	10.06	13.00	-43.9	-47.3	23.3	6.02e-01	0	43	0	781713408	59	5310
2026-01-20 10:24:39.85	9.90	12.93	-43.9	-47.3	23.2	6.00e-01	0	43	0	783286272	59	5317
2026-01-20 10:24:40.85	9.74	12.85	-44.1	-47.4	23.1	6.01e-01	0	43	0	785383424	59	5400
2026-01-20 10:24:41.85	9.58	12.78	-44.2	-47.5	23.1	6.02e-01	0	43	0	787480576	59	5408
2026-01-20 10:24:42.84	9.42	12.70	-44.1	-47.4	23.1	6.01e-01	0	43	0	789053440	59	5384
2026-01-20 10:24:43.84	9.26	12.63	-44.1	-47.4	23.2	6.00e-01	0	43	0	791150592	59	5355
2026-01-20 10:24:44.83	9.11	12.55	-44.1	-47.6	23.1	6.03e-01	0	43	0	792723456	59	5477
2026-01-20 10:24:45.83	8.95	12.48	-44.0	-47.5	23.0	6.02e-01	0	43	0	794820608	59	5428
2026-01-20 10:24:46.83	8.79	12.40	-43.7	-47.3	23.2	6.02e-01	0	43	0	796393472	59	5322
2026-01-20 10:24:47.82	8.64	12.33	-43.7	-47.4	23.2	6.01e-01	0	44	0	798490624	59	5388
2026-01-20 10:24:48.81	8.49	12.26	-43.8	-47.5	23.1	5.98e-01	0	43	0	800063488	59	5416
2026-01-20 10:24:49.81	8.34	12.18	-43.8	-47.4	23.1	5.98e-01	0	43	0	802160640	59	5357
2026-01-20 10:24:50.81	8.18	12.11	-44.0	-47.5	23.1	6.02e-01	0	43	0	804257792	59	5441
2026-01-20 10:24:51.80	8.03	12.03	-44.1	-47.6	23.0	6.03e-01	0	43	0	805830656	59	5510
2026-01-20 10:24:52.80	7.88	11.96	-44.1	-47.5	22.9	6.00e-01	0	43	0	807927808	59	5444
2026-01-20 10:24:53.79	7.74	11.89	-44.1	-47.6	22.9	6.00e-01	0	43	0	809500672	59	5474
2026-01-20 10:24:54.79	7.59	11.81	-44.2	-47.6	22.8	5.99e-01	0	43	0	811597824	59	5498
2026-01-20 10:24:55.78	7.44	11.74	-44.3	-47.6	22.9	6.02e-01	0	43	0	813170688	59	5500
2026-01-20 10:24:56.78	7.29	11.66	-44.3	-47.6	22.9	6.03e-01	0	43	0	815267840	59	5512
2026-01-20 10:24:57.77	7.15	11.59	-44.5	-47.8	22.7	6.03e-01	0	43	0	816840704	59	5633
2026-01-20 10:24:58.77	7.00	11.52	-44.6	-47.8	22.7	6.02e-01	0	43	0	818937856	59	5652
2026-01-20 10:24:59.76	6.86	11.44	-44.4	-47.7	22.8	6.01e-01	0	43	0	821035008	60	5250
2026-01-20 10:25:00.76	6.72	11.37	-44.3	-47.5	22.9	6.04e-01	0	43	0	822607872	60	5154
2026-01-20 10:25:01.75	6.57	11.30	-44.4	-47.6	22.8	6.03e-01	0	43	0	824705024	60	5177
2026-01-20 10:25:02.75	6.43	11.22	-44.3	-47.5	23.0	6.01e-01	0	43	0	826277888	60	5107
2026-01-20 10:25:03.74	6.29	11.15	-44.2	-47.3	23.0	6.01e-01	0	43	0	828375040	60	5031
2026-01-20 10:25:04.74	6.15	11.08	-44.2	-47.3	23.1	6.01e-01	0	43	0	829947904	60	5029
2026-01-20 10:25:05.73	6.01	11.00	-44.1	-47.4	23.1	6.03e-01	0	43	0	832045056	60	5049
2026-01-20 10:25:06.73	5.87	10.93	-44.2	-47.6	22.9	6.01e-01	0	43	0	833617920	59	5480
2026-01-20 10:25:07.72	5.74	10.86	-44.3	-47.7	22.9	6.02e-01	0	44	0	835715072	59	5536
2026-01-20 10:25:08.72	5.60	10.79	-44.3	-47.7	22.8	6.01e-01	0	43	0	837812224	59	5577
2026-01-20 10:25:09.71	5.46	10.71	-44.3	-47.9	22.7	6.01e-01	0	43	0	839385088	59	5668
2026-01-20 10:25:10.70	5.33	10.64	-44.4	-48.0	22.1	6.01e-01	0	43	0	841482240	59	5758
2026-01-20 10:25:11.70	5.19	10.57	-44.5	-48.0	22.5	6.03e-01	0	43	0	843055104	59	5759
2026-01-20 10:25:12.70	5.06	10.50	-44.5	-48.0	22.5	6.03e-01	0	43	0	845152256	59	5783
2026-01-20 10:25:13.69	4.93	10.42	-44.4	-47.9	22.6	6.03e-01	0	43	0	846725120	59	5705
2026-01-20 10:25:14.69	4.79	10.35	-44.3	-47.8	22.7	6.02e-01	0	43	0	848822272	59	5605
2026-01-20 10:25:15.68	4.66	10.28	-44.3	-47.7	22.7	6.01e-01	0	43	0	850395136	59	5584
2026-01-20 10:25:16.68	4.53	10.21	-44.3	-47.9	22.6	5.99e-01	0	43	0	852492288	59	5678
2026-01-20 10:25:17.67	4.40	10.14	-44.3	-47.8	22.6	6.03e-01	0	43	0	854589440	59	5641
2026-01-20 10:25:18.67	4.27	10.06	-44.5	-48.0	22.5	6.02e-01	0	43	0	856162304	59	5743
2026-01-20 10:25:19.66	4.14	9.99	-44.6	-48.0	22.5	6.02e-01	0	43	0	858259456	59	5735
2026-01-20 10:25:20.66	4.01	9.92	-44.5	-47.7	22.6	6.01e-01	0	43	0	859832320	60	5264
2026-01-20 10:25:21.66	3.88	9.85	-44.9	-47.9	22.6	5.99e-01	0	43	0	861929472	60	5363
2026-01-20 10:25:22.65	3.76	9.78	-44.8	-47.7	22.7	6.02e-01	0	43	0	863502336	60	5242
2026-01-20 10:25:23.65	3.63	9.71	-44.7	-47.7	22.7	6.02e-01	0	43	0	865599488	60	5229
2026-01-20 10:25:24.64	3.51	9.64	-44.6	-47.8	22.6	6.01e-01	0	43	0	867172352	60	5308
2026-01-20 10:25:25.64	3.38	9.56	-44.4	-48.1	22.3	6.02e-01	0	43	0	869269504	60	5475
2026-01-20 10:25:26.63	3.26	9.49	-44.1	-47.9	22.4	6.03e-01	0	44	0	871366656	60	5397
2026-01-20 10:25:27.63	3.13	9.42	-44.2	-48.0	22.3	6.00e-01	0	44	0	872939520	60	5437
2026-01-20 10:25:28.62	3.01	9.35	-44.3	-48.0	22.4	6.02e-01	0	43	0	875036672	60	5408
2026-01-20 10:25:29.61	2.89	9.28	-44.4	-47.9	22.5	6.01e-01	0	43	0	876609536	60	5373
2026-01-20 10:25:30.61	2.77	9.21	-44.9	-57.8	3.7	7.49e-01	0	43	104	877658112	60	16707
2026-01-20 10:25:31.60	2.65	9.14	-45.2	-57.9	3.7	7.46e-01	0	43	104	877658112	61	15991
2026-01-20 10:25:32.60	2.52	9.07	-45.4	-57.9	3.9	7.41e-01	0	43	104	877658112	61	16058
2026-01-20 10:25:33.59	2.41	9.00	-46.3	-59.4	3.7	7.47e-01	0	43	104	877658112	63	16946
2026-01-20 10:25:34.58	2.29	8.93	-50.2	-71.8	3.8	7.43e-01	0	43	104	877658112	72	42276
2026-01-20 10:25:35.58	2.17	8.86	-50.9	-72.1	3.8	7.44e-01	0	43	104	877658112	72	43700
2026-01-20 10:25:36.57	2.05	8.79	-50.1	-72.1	3.7	7.46e-01	0	43	104	877658112	72	43699
2026-01-20 10:25:37.56	1.94	8.72	-51.3	-72.2	3.8	7.44e-01	0	43	104	877658112	73	41706
2026-01-20 10:25:38.56	1.82	8.65	-51.5	-72.3	3.8	7.47e-01	0	43	104	877658112	74	39652
2026-01-20 10:25:39.55	1.70	8.58	-52.2	-72.6	3.8	7.47e-01	0	43	104	877658112	75	38853
2026-01-20 10:25:40.55	1.59	8.51	-52.1	-72.4	3.8	7.45e-01	0	43	104	877658112	75	37872
2026-01-20 10:25:41.54	1.47	8.44	-51.4	-72.4	3.8	7.45e-01	0	43	104	877658112	74	40284
2026-01-20 10:25:42.53	1.36	8.37	-52.1	-72.4	3.8	7.42e-01	0	43	104	877658112	75	38191
2026-01-20 10:25:43.53	1.25	8.30	-52.3	-72.7	3.8	7.45e-01	0	43	104	877658112	75	39162
2026-01-20 10:25:44.52	1.13	8.23	-51.9	-72.4	3.8	7.48e-01	0	43	104	877658112	75	38214
2026-01-20 10:25:45.51	1.02	8.17	-52.0	-72.5	3.8	7.46e-01	0	43	104	877658112	75	38364
2026-01-20 10:25:46.50	0.91	8.10	-52.2	-72.5	3.8	7.45e-01	0	43	104	877658112	75	38368
2026-01-20 10:25:47.50	0.80	8.03	-52.4	-72.5	3.8	7.44e-01	0	43	104	877658112	75	38424
2026-01-20 10:25:48.49	0.69	7.96	-52.5	-72.5	3.8	7.46e-01	0	43	104	877658112	75	38465
2026-01-20 10:25:49.49	0.58	7.89	-52.1	-72.5	3.8	7.47e-01	0	43	104	877658112	75	38522
2026-01-20 10:25:50.48	0.47	7.82	-52.1	-72.5	3.8	7.47e-01	0	43	104	877658112	75	38565
2026-01-20 10:25:51.47	0.36	7.76	-52.6	-72.5	3.8	7.45e-01	0	43	104	877658112	75	38388
2026-01-20 10:25:52.47	0.25	7.69	-52.4	-72.5	3.8	7.45e-01	0	43	104	877658112	75	38544
2026-01-20 10:25:53.46	0.15	7.62	-52.1	-72.5	3.8	7.45e-01	0	43	104	877658112	75	38533
2026-01-20 10:25:54.45	0.04	7.55	-52.3	-72.5	3.8	7.48e-01	0	44	104	877658112	75	38475
2026-01-20 10:25:55.45	359.93	7.48	-52.3	-72.5	3.8	7.46e-01	0	43	104	877658112	76	36512
2026-01-20 10:25:56.44	359.83	7.42	-52.7	-72.5	3.8	7.45e-01	0	43	104	877658112	76	36521
2026-01-20 10:25:57.44	359.72	7.35	-52.3	-72.5	3.8	7.46e-01	0	43	104	877658112	76	36460
2026-01-20 10:25:58.43	359.62	7.28	-52.3	-72.5	3.8	7.47e-01	0	43	104	877658112	76	36426
2026-01-20 10:25:59.42	359.51	7.21	-52.3	-72.5	3.8	7.46e-01	0	44	104	877658112	76	36404
2026-01-20 10:26:00.41	359.41	7.15	-52.4	-72.5	3.8	7.46e-01	0	43	104	877658112	76	36449
2026-01-20 10:26:01.41	359.31	7.08	-52.1	-72.5	3.8	7.44e-01	0	43	104	877658112	75	38413
2026-01-20 10:26:02.40	359.21	7.01	-51.9	-72.5	3.8	7.46e-01	0	44	104	877658112	75	38390
2026-01-20 10:26:03.39	359.10	6.95	-51.9	-72.5	3.8	7.46e-01	0	43	104	877658112	75	38346
2026-01-20 10:26:04.39	359.00	6.88	-51.9	-72.5	3.8	7.45e-01	0	43	104	877658112	75	38263
2026-01-20 10:26:05.38	358.90	6.81	-51.9	-72.5	3.8	7.49e-01	0	43	104	877658112	75	38266
2026-01-20 10:26:06.37	358.80	6.75	-51.9	-72.5	3.8	7.47e-01	0	44	104	877658112	75	38258
2026-01-20 10:26:07.37	358.70	6.68	-51.9	-72.4	3.8	7.47e-01	0	43	104	877658112	75	38234
2026-01-20 10:26:08.36	358.60	6.61	-51.9	-72.4	3.8	7.45e-01	0	43	104	877658112	75	38233
2026-01-20 10:26:09.36	358.50	6.55	-51.9	-72.4	3.8	7.44e-01	0	44	104	877658112	75	38217
2026-01-20 10:26:10.35	358.40	6.48	-51.9	-72.5	3.8	7.46e-01	0	43	104	877658112	75	38246
2026-01-20 10:26:11.34	358.31	6.42	-51.9	-72.5	3.8	7.48e-01	0	44	104	877658112	75	38289
2026-01-20 10:26:12.34	358.21	6.35	-51.9	-72.4	3.8	7.46e-01	0	44	104	877658112	75	38133
2026-01-20 10:26:13.33	358.11	6.28	-51.9	-72.4	3.8	7.46e-01	0	43	104	877658112	75	38239
2026-01-20 10:26:14.32	358.02	6.22	-51.9	-72.4	3.8	7.48e-01	0	43	104	877658112	75	38206
2026-01-20 10:26:15.32	357.92	6.15	-51.9	-72.4	3.8	7.43e-01	0	43	104	877658112	75	38216
2026-01-20 10:26:16.31	357.83	6.09	-51.9	-72.4	3.8	7.46e-01	0	44	104	877658112	75	38150
2026-01-20 10:26:17.30	357.73	6.02	-51.9	-72.4	3.8	7.51e-01	0	43	104	877658112	75	38169
2026-01-20 10:26:18.30	357.64	5.96	-51.9	-72.4	3.8	7.47e-01	0	43	104	877658112	75	38116
2026-01-20 10:26:19.29	357.54	5.89	-51.9	-72.4	3.8	7.45e-01	0	43	104	877658112	75	38161
2026-01-20 10:26:20.28	357.45	5.83	-51.9	-72.4	3.8	7.47e-01	0	43	104	877658112	75	38170
2026-01-20 10:26:21.28	357.36	5.76	-51.9	-72.4	3.8	7.42e-01	0	43	104	877658112	75	38198
2026-01-20 10:26:22.27	357.26	5.70	-51.9	-72.4	3.8	7.48e-01	0	44	104	877658112	75	38192
2026-01-20 10:26:23.26	357.17	5.63	-51.9	-72.4	3.8	7.44e-01	0	43	104	877658112	75	38127
2026-01-20 10:26:24.26	357.08	5.57	-51.9	-72.4	3.8	7.45e-01	0	43	104	877658112	75	38144
2026-01-20 10:26:25.25	356.99	5.50	-51.9	-72.4	3.8	7.44e-01	0	43	104	877658112	75	38105
2026-01-20 10:26:26.24	356.90	5.44	-51.9	-72.4	3.8	7.46e-01	0	43	104	877658112	75	38216
2026-01-20 10:26:27.24	356.81	5.38	-51.9	-72.4	3.8	7.47e-01	0	43	104	877658112	75	38194
2026-01-20 10:26:28.23	356.72	5.31	-51.9	-72.4	3.8	7.45e-01	0	44	104	877658112	75	38101
2026-01-20 10:26:29.23	356.63	5.25	-51.9	-72.4	3.8	7.46e-01	0	43	104	877658112	75	38096
2026-01-20 10:26:30.22	356.54	5.18	-51.9	-72.4	3.8	7.44e-01	0	43	104	877658112	75	38065
2026-01-20 10:26:31.21	356.45	5.12	-51.8	-72.4	3.8	7.45e-01	0	43	104	877658112	75	38081
2026-01-20 10:26:32.20	356.36	5.06	-51.8	-72.4	3.8	7.46e-01	0	43	104	877658112	75	38028
2026-01-20 10:26:33.20	356.28	4.99	-51.9	-72.4	3.8	7.45e-01	0	43	104	877658112	75	38031

#Closed at: 2026-01-20 10:26:34
#Recorded file [877 MB]: D:/Data/31040_260120_131655.dat