passes_logs/2026/01/20/T1/T1__20260120_004154_AQUA_rec.log

#Pass ID: 20260120_004154_AQUA
#Satellite: AQUA
#Configuration: AQUA
#almurnet v.1.7.20251203
#Start time: 2026-01-20 00:41:55

#Version: 2.0.20230620
#Station: T1
#Location: 37.570604 lon 55.790049 lat
#TLE: 1 27424U 02022A   26019.27629806  .00001032  00000+0  21655-3 0  9990
#TLE: 2 27424  98.4090 345.7756 0001997  73.0764  31.8912 14.61830109261513

#Time	Az	El	Level	Level2	SNR	BER	BlckErr	Temp	State	Recorded	gain1	gain2
2026-01-20 00:41:55.83	22.45	5.09	-49.8	-71.5	3.8	7.46e-01	0	38	0	0	71	43336
2026-01-20 00:41:56.82	22.50	5.16	-49.8	-71.5	3.8	7.46e-01	0	38	104	0	70	45945
2026-01-20 00:41:57.81	22.55	5.23	-49.8	-71.5	3.8	7.47e-01	0	38	104	0	70	45945
2026-01-20 00:41:58.81	22.60	5.30	-49.8	-71.5	3.8	7.46e-01	0	38	104	0	70	45855
2026-01-20 00:41:59.80	22.65	5.37	-49.8	-71.5	3.8	7.43e-01	0	38	104	0	70	45747
2026-01-20 00:42:00.80	22.70	5.44	-49.7	-71.5	3.8	7.45e-01	0	38	104	0	70	45780
2026-01-20 00:42:01.79	22.75	5.52	-49.8	-71.5	3.8	7.49e-01	0	38	104	0	70	45599
2026-01-20 00:42:02.78	22.80	5.59	-49.8	-71.5	3.8	7.48e-01	0	39	104	0	70	45508
2026-01-20 00:42:03.78	22.86	5.66	-49.8	-71.4	3.8	7.45e-01	0	38	104	0	70	45341
2026-01-20 00:42:04.77	22.91	5.73	-49.8	-71.4	3.8	7.46e-01	0	38	104	0	70	45403
2026-01-20 00:42:05.76	22.96	5.81	-49.7	-71.4	3.8	7.46e-01	0	39	104	0	70	45366
2026-01-20 00:42:06.76	23.01	5.88	-49.7	-71.4	3.8	7.42e-01	0	39	104	0	70	45436
2026-01-20 00:42:07.75	23.07	5.95	-49.7	-71.5	3.8	7.47e-01	0	39	104	0	70	45526
2026-01-20 00:42:08.74	23.12	6.03	-49.7	-71.5	3.8	7.45e-01	0	39	104	0	70	45508
2026-01-20 00:42:09.74	23.17	6.10	-49.7	-71.5	3.8	7.47e-01	0	39	104	0	70	45620
2026-01-20 00:42:10.73	23.23	6.17	-49.7	-71.5	3.8	7.48e-01	0	39	104	0	70	45699
2026-01-20 00:42:11.72	23.28	6.25	-49.7	-71.5	3.8	7.46e-01	0	39	104	0	70	45573
2026-01-20 00:42:12.72	23.34	6.32	-49.8	-71.5	3.8	7.48e-01	0	39	104	0	70	45568
2026-01-20 00:42:13.71	23.39	6.40	-49.8	-71.5	3.8	7.45e-01	0	39	104	0	70	45627
2026-01-20 00:42:14.70	23.44	6.47	-49.7	-71.5	3.8	7.46e-01	0	39	104	0	70	45572
2026-01-20 00:42:15.70	23.50	6.55	-49.7	-71.4	3.8	7.42e-01	0	39	104	0	70	45404
2026-01-20 00:42:16.69	23.56	6.62	-49.7	-71.4	3.8	7.44e-01	0	39	104	0	70	45261
2026-01-20 00:42:17.68	23.61	6.70	-49.7	-71.4	3.8	7.45e-01	0	39	104	0	70	45270
2026-01-20 00:42:18.68	23.67	6.77	-49.7	-71.4	3.8	7.44e-01	0	39	104	0	70	45006
2026-01-20 00:42:19.67	23.72	6.85	-49.7	-71.4	3.8	7.44e-01	0	39	104	0	70	45114
2026-01-20 00:42:20.66	23.78	6.93	-49.7	-71.4	3.8	7.46e-01	0	39	104	0	70	45193
2026-01-20 00:42:21.66	23.84	7.00	-49.7	-71.4	3.8	7.50e-01	0	39	104	0	70	45314
2026-01-20 00:42:22.65	23.89	7.08	-49.7	-71.5	3.8	7.45e-01	0	39	104	0	70	45462
2026-01-20 00:42:23.65	23.95	7.16	-49.7	-71.5	3.8	7.45e-01	0	39	104	0	70	45703
2026-01-20 00:42:24.64	24.01	7.23	-49.7	-71.5	3.8	7.49e-01	0	39	104	0	70	45658
2026-01-20 00:42:25.63	24.07	7.31	-49.7	-71.4	3.8	7.46e-01	0	39	104	0	70	45389
2026-01-20 00:42:26.63	24.13	7.39	-49.7	-71.4	3.8	7.47e-01	0	39	104	0	70	45180
2026-01-20 00:42:27.62	24.18	7.47	-49.7	-71.3	3.8	7.43e-01	0	39	104	0	70	44582
2026-01-20 00:42:28.61	24.24	7.55	-49.7	-71.2	3.8	7.38e-01	0	39	104	0	70	44191
2026-01-20 00:42:29.61	24.30	7.62	-49.7	-71.1	3.8	7.47e-01	0	39	104	0	70	43776
2026-01-20 00:42:30.60	24.36	7.70	-49.7	-71.1	3.8	7.47e-01	0	39	104	0	70	43620
2026-01-20 00:42:31.59	24.42	7.78	-49.7	-71.1	3.8	7.47e-01	0	40	104	0	70	43473
2026-01-20 00:42:32.59	24.48	7.86	-49.7	-71.0	3.8	7.50e-01	0	40	104	0	70	43335
2026-01-20 00:42:33.58	24.54	7.94	-49.6	-71.0	3.8	7.47e-01	0	40	104	0	70	43192
2026-01-20 00:42:34.58	24.61	8.02	-49.7	-71.0	3.8	7.46e-01	0	40	104	0	70	43219
2026-01-20 00:42:35.57	24.67	8.10	-49.7	-71.0	3.8	7.46e-01	0	39	104	0	70	43254
2026-01-20 00:42:36.56	24.73	8.18	-49.7	-71.0	3.8	7.48e-01	0	40	104	0	70	43306
2026-01-20 00:42:37.56	24.79	8.26	-49.7	-71.0	3.8	7.48e-01	0	40	104	0	70	43147
2026-01-20 00:42:38.55	24.85	8.34	-49.6	-71.0	3.8	7.47e-01	0	40	104	0	70	42963
2026-01-20 00:42:39.54	24.92	8.42	-49.6	-70.9	3.8	7.46e-01	0	40	104	0	70	42578
2026-01-20 00:42:40.54	24.98	8.51	-49.6	-70.8	3.8	7.46e-01	0	40	104	0	70	42038
2026-01-20 00:42:41.53	25.04	8.59	-49.6	-70.6	3.8	7.49e-01	0	40	104	0	70	41034
2026-01-20 00:42:42.53	25.11	8.67	-49.6	-70.2	3.8	7.46e-01	0	40	104	0	70	39222
2026-01-20 00:42:43.55	25.17	8.75	-49.5	-63.0	7.1	6.60e-01	0	40	0	0	70	17223
2026-01-20 00:42:44.58	25.24	8.84	-49.3	-61.1	9.0	6.31e-01	0	40	0	2097152	70	13825
2026-01-20 00:42:45.57	25.30	8.92	-49.1	-59.3	11.0	6.14e-01	0	40	0	4194304	70	11206
2026-01-20 00:42:46.56	25.37	9.00	-48.8	-57.6	12.7	6.04e-01	0	40	0	5767168	69	9733
2026-01-20 00:42:47.56	25.43	9.09	-48.5	-56.1	14.2	6.05e-01	0	40	0	7864320	69	8187
2026-01-20 00:42:48.55	25.50	9.17	-48.9	-59.2	11.7	6.10e-01	0	40	0	9437184	68	12387
2026-01-20 00:42:49.55	25.57	9.26	-48.5	-56.8	13.0	6.06e-01	0	40	0	11534336	69	8939
2026-01-20 00:42:50.54	25.63	9.34	-48.7	-59.5	11.2	6.14e-01	0	40	0	13107200	67	13651
2026-01-20 00:42:51.54	25.70	9.42	-47.5	-53.4	16.1	6.00e-01	0	40	0	14680064	67	6735
2026-01-20 00:42:52.53	25.77	9.51	-45.0	-48.7	21.5	6.02e-01	0	40	0	16777216	61	5561
2026-01-20 00:42:53.53	25.84	9.59	-44.8	-48.3	21.9	6.00e-01	0	40	0	18350080	61	5321
2026-01-20 00:42:54.52	25.91	9.68	-44.7	-48.0	22.2	6.03e-01	0	40	0	20447232	61	5146
2026-01-20 00:42:55.52	25.98	9.77	-44.5	-47.8	22.4	6.02e-01	0	40	0	22544384	61	4986
2026-01-20 00:42:56.51	26.04	9.85	-44.4	-47.6	22.5	6.02e-01	0	40	0	24117248	60	5204
2026-01-20 00:42:57.51	26.11	9.94	-44.5	-47.7	22.5	6.04e-01	0	40	0	26214400	60	5225
2026-01-20 00:42:58.50	26.18	10.02	-44.5	-47.7	22.5	6.03e-01	0	40	0	27787264	60	5237
2026-01-20 00:42:59.50	26.26	10.11	-44.6	-47.7	22.5	6.01e-01	0	40	0	29884416	60	5279
2026-01-20 00:43:00.49	26.33	10.20	-44.5	-47.7	22.6	6.06e-01	0	40	0	31981568	60	5227
2026-01-20 00:43:01.48	26.40	10.29	-44.5	-47.5	22.7	6.00e-01	0	40	0	33554432	60	5137
2026-01-20 00:43:02.54	26.47	10.38	-44.6	-47.5	22.7	6.06e-01	0	40	0	35651584	60	5159
2026-01-20 00:43:03.40	26.54	10.46	-44.6	-47.6	22.7	6.02e-01	0	40	0	37224448	60	5169
2026-01-20 00:43:04.54	26.62	10.56	-44.6	-47.5	22.7	6.03e-01	0	40	0	39321600	60	5136
2026-01-20 00:43:05.39	26.68	10.63	-44.6	-47.5	22.7	6.03e-01	0	40	0	40894464	60	5145
2026-01-20 00:43:06.53	26.77	10.73	-44.5	-47.4	22.8	6.03e-01	0	40	0	42991616	60	5077
2026-01-20 00:43:07.38	26.83	10.81	-44.5	-47.4	22.9	6.03e-01	0	40	0	44564480	60	5045
2026-01-20 00:43:08.52	26.92	10.91	-44.5	-47.4	22.9	6.02e-01	0	40	0	46661632	60	5050
2026-01-20 00:43:09.37	26.98	10.99	-44.5	-47.4	22.9	6.04e-01	0	40	0	48234496	60	5054
2026-01-20 00:43:10.51	27.07	11.09	-44.4	-47.3	22.9	6.01e-01	0	40	0	50331648	60	5004
2026-01-20 00:43:11.36	27.13	11.17	-44.5	-47.3	22.9	6.04e-01	0	40	0	51904512	60	5028
2026-01-20 00:43:12.50	27.22	11.28	-44.4	-47.3	23.0	6.00e-01	0	40	0	54001664	60	4985
2026-01-20 00:43:13.35	27.28	11.35	-44.3	-47.1	23.1	6.03e-01	0	40	0	55574528	60	4918
2026-01-20 00:43:14.57	27.38	11.47	-44.3	-47.2	23.0	6.01e-01	0	40	0	58195968	60	4964
2026-01-20 00:43:15.42	27.45	11.55	-44.2	-47.2	23.1	6.02e-01	0	40	0	59768832	60	4932
2026-01-20 00:43:16.56	27.54	11.65	-44.3	-47.3	23.0	6.04e-01	0	40	0	61865984	60	5021
2026-01-20 00:43:17.41	27.60	11.73	-44.2	-47.2	23.0	6.03e-01	0	40	0	63438848	60	4943
2026-01-20 00:43:18.55	27.70	11.84	-44.2	-47.1	23.2	6.02e-01	0	40	0	65536000	60	4905
2026-01-20 00:43:19.40	27.76	11.92	-44.2	-47.1	23.1	6.05e-01	0	40	0	67108864	60	4917
2026-01-20 00:43:20.54	27.86	12.03	-44.1	-47.1	23.1	6.02e-01	0	40	0	69206016	60	4892
2026-01-20 00:43:21.39	27.93	12.11	-44.1	-47.1	23.2	6.03e-01	0	40	0	70778880	60	4872
2026-01-20 00:43:22.53	28.02	12.21	-44.0	-47.0	23.2	6.01e-01	0	41	0	72876032	60	4838
2026-01-20 00:43:23.38	28.09	12.30	-44.1	-47.0	23.2	6.06e-01	0	40	0	74448896	60	4848
2026-01-20 00:43:24.52	28.18	12.41	-44.1	-47.0	23.3	6.01e-01	0	40	0	76546048	60	4822
2026-01-20 00:43:25.37	28.25	12.49	-44.2	-47.1	23.2	6.03e-01	0	40	0	78118912	60	4926
2026-01-20 00:43:26.51	28.35	12.60	-44.0	-46.8	23.4	6.03e-01	0	40	0	80216064	60	4742
2026-01-20 00:43:27.36	28.42	12.68	-44.2	-47.0	23.4	6.04e-01	0	40	0	82313216	59	5104
2026-01-20 00:43:28.50	28.52	12.79	-44.1	-46.9	23.5	5.99e-01	0	40	0	84410368	59	5059
2026-01-20 00:43:29.35	28.59	12.87	-44.1	-46.9	23.4	6.02e-01	0	40	0	85983232	59	5075
2026-01-20 00:43:30.53	28.70	12.99	-44.0	-46.8	23.6	6.03e-01	0	40	0	88080384	59	5014
2026-01-20 00:43:31.39	28.77	13.07	-44.0	-46.9	23.5	6.02e-01	0	41	0	89653248	59	5048
2026-01-20 00:43:32.57	28.87	13.19	-44.1	-46.9	23.4	6.02e-01	0	40	0	91750400	59	5072
2026-01-20 00:43:33.42	28.95	13.28	-44.0	-46.8	23.6	5.99e-01	0	40	0	93323264	59	5009
2026-01-20 00:43:34.62	29.06	13.40	-44.1	-46.9	23.5	6.02e-01	0	41	0	95420416	59	5056
2026-01-20 00:43:35.48	29.13	13.48	-44.2	-47.0	23.4	6.02e-01	0	41	0	96993280	59	5129
2026-01-20 00:43:36.69	29.24	13.60	-44.0	-46.8	23.6	6.04e-01	0	40	0	99614720	59	5006
2026-01-20 00:43:37.55	29.32	13.69	-44.0	-46.7	23.6	6.07e-01	0	41	0	101187584	59	4969
2026-01-20 00:43:38.69	29.42	13.81	-44.1	-46.8	23.4	6.04e-01	0	40	0	103284736	59	5013
2026-01-20 00:43:39.54	29.50	13.89	-44.2	-46.9	23.5	6.00e-01	0	40	0	104857600	59	5053
2026-01-20 00:43:40.68	29.61	14.01	-44.2	-46.8	23.5	6.05e-01	0	40	0	106954752	59	5019
2026-01-20 00:43:41.53	29.69	14.10	-44.2	-46.8	23.6	6.05e-01	0	40	0	108527616	59	4997
2026-01-20 00:43:42.67	29.80	14.21	-44.1	-46.7	23.6	6.03e-01	0	40	0	110624768	59	4956
2026-01-20 00:43:43.60	29.88	14.31	-44.1	-46.7	23.7	6.02e-01	0	41	0	112721920	59	4969
2026-01-20 00:43:44.59	29.98	14.41	-44.1	-46.7	23.6	6.03e-01	0	40	0	114294784	59	4949
2026-01-20 00:43:45.59	30.08	14.52	-44.1	-46.8	23.6	6.04e-01	0	40	0	116391936	59	4996
2026-01-20 00:43:46.58	30.17	14.62	-44.2	-46.9	23.5	6.04e-01	0	41	0	117964800	59	5054
2026-01-20 00:43:47.58	30.27	14.73	-44.1	-46.8	23.6	6.03e-01	0	41	0	120061952	59	4994
2026-01-20 00:43:48.58	30.37	14.83	-44.2	-46.8	23.6	6.05e-01	0	40	0	121634816	59	5010
2026-01-20 00:43:49.57	30.46	14.94	-44.2	-46.8	23.6	6.01e-01	0	40	0	123731968	59	5015
2026-01-20 00:43:50.57	30.56	15.04	-44.1	-46.8	23.6	6.03e-01	0	40	0	125304832	59	4998
2026-01-20 00:43:51.56	30.66	15.15	-44.1	-46.8	23.7	6.04e-01	0	40	0	127401984	59	4992
2026-01-20 00:43:52.56	30.77	15.26	-44.1	-46.8	23.7	6.02e-01	0	41	0	129499136	59	4995
2026-01-20 00:43:53.55	30.87	15.36	-43.9	-46.5	23.9	6.04e-01	0	41	0	131072000	59	4859
2026-01-20 00:43:54.54	30.97	15.47	-43.9	-46.6	23.8	6.02e-01	0	40	0	133169152	59	4910
2026-01-20 00:43:55.54	31.07	15.58	-44.0	-46.6	23.8	6.03e-01	0	41	0	134742016	59	4926
2026-01-20 00:43:56.53	31.17	15.69	-43.9	-46.6	23.8	6.01e-01	0	41	0	136839168	59	4894
2026-01-20 00:43:57.52	31.28	15.80	-44.0	-46.7	23.8	6.02e-01	0	41	0	138412032	59	4939
2026-01-20 00:43:58.52	31.38	15.91	-43.7	-46.4	23.9	6.07e-01	0	40	0	140509184	59	4786
2026-01-20 00:43:59.51	31.49	16.02	-43.7	-46.3	24.1	6.03e-01	0	40	0	142606336	59	4749
2026-01-20 00:44:00.49	31.59	16.12	-43.7	-46.3	24.1	6.04e-01	0	41	0	144179200	59	4756
2026-01-20 00:44:01.48	31.70	16.23	-43.6	-46.2	24.1	6.05e-01	0	40	0	146276352	59	4705
2026-01-20 00:44:02.48	31.81	16.35	-43.7	-46.3	24.0	6.02e-01	0	41	0	147849216	59	4757
2026-01-20 00:44:03.48	31.92	16.46	-43.8	-46.4	24.0	6.04e-01	0	41	0	149946368	59	4809
2026-01-20 00:44:04.47	32.03	16.57	-43.8	-46.5	23.9	6.03e-01	0	41	0	151519232	59	4827
2026-01-20 00:44:05.46	32.14	16.68	-43.9	-46.5	23.9	6.03e-01	0	41	0	153616384	59	4837
2026-01-20 00:44:06.46	32.25	16.80	-43.8	-46.4	24.0	6.04e-01	0	41	0	155189248	59	4794
2026-01-20 00:44:07.49	32.37	16.92	-43.8	-46.4	24.0	6.05e-01	0	41	0	157286400	59	4791
2026-01-20 00:44:08.48	32.48	17.03	-43.9	-46.5	23.9	6.02e-01	0	40	0	159383552	59	4832
2026-01-20 00:44:09.56	32.61	17.15	-43.8	-46.4	24.0	6.06e-01	0	41	0	160956416	59	4811
2026-01-20 00:44:10.41	32.71	17.25	-43.8	-46.4	23.9	6.01e-01	0	40	0	162529280	59	4809
2026-01-20 00:44:11.55	32.84	17.39	-43.7	-46.3	24.1	6.02e-01	0	41	0	165150720	59	4727
2026-01-20 00:44:12.40	32.94	17.48	-43.7	-46.4	24.0	6.05e-01	0	41	0	166723584	59	4793
2026-01-20 00:44:13.54	33.07	17.62	-43.8	-46.5	24.0	6.02e-01	0	41	0	168820736	59	4826
2026-01-20 00:44:14.39	33.18	17.72	-43.7	-46.5	23.9	6.01e-01	0	41	0	170393600	59	4816
2026-01-20 00:44:15.53	33.31	17.85	-43.7	-46.5	23.9	6.01e-01	0	40	0	172490752	59	4866
2026-01-20 00:44:16.38	33.42	17.96	-43.6	-46.4	24.0	6.03e-01	0	41	0	174063616	59	4792
2026-01-20 00:44:17.52	33.56	18.09	-43.6	-46.4	24.0	6.04e-01	0	41	0	176160768	59	4810
2026-01-20 00:44:18.37	33.66	18.19	-43.6	-46.4	24.0	6.06e-01	0	41	0	177733632	59	4803
2026-01-20 00:44:19.51	33.80	18.33	-43.6	-46.4	24.0	6.02e-01	0	41	0	179830784	59	4783
2026-01-20 00:44:20.37	33.91	18.44	-43.7	-46.4	24.1	6.01e-01	0	41	0	181403648	59	4760
2026-01-20 00:44:21.50	34.06	18.57	-43.7	-46.4	24.1	6.02e-01	0	41	0	183500800	59	4781
2026-01-20 00:44:22.36	34.16	18.68	-43.8	-46.5	23.7	5.99e-01	0	41	0	185073664	59	4815
2026-01-20 00:44:23.60	34.32	18.83	-43.8	-46.4	24.0	6.04e-01	0	41	0	187695104	59	4801
2026-01-20 00:44:24.45	34.43	18.93	-43.9	-46.5	24.0	6.03e-01	0	41	0	189267968	59	4828
2026-01-20 00:44:25.59	34.58	19.08	-43.9	-46.4	24.0	6.04e-01	0	41	0	191365120	59	4807
2026-01-20 00:44:26.44	34.70	19.18	-43.9	-46.5	24.0	6.02e-01	0	41	0	192937984	59	4821
2026-01-20 00:44:27.58	34.85	19.32	-43.8	-46.3	24.1	5.99e-01	0	41	0	195035136	59	4734
2026-01-20 00:44:28.43	34.96	19.43	-43.9	-46.4	24.1	6.04e-01	0	41	0	196608000	59	4776
2026-01-20 00:44:29.57	35.12	19.57	-43.8	-46.3	24.1	6.04e-01	0	41	0	198705152	59	4743
2026-01-20 00:44:30.42	35.23	19.68	-43.8	-46.3	24.1	6.02e-01	0	41	0	200278016	59	4742
2026-01-20 00:44:31.56	35.39	19.83	-43.9	-46.5	24.0	6.03e-01	0	41	0	202375168	59	4822
2026-01-20 00:44:32.41	35.51	19.94	-44.0	-46.5	23.9	6.02e-01	0	41	0	203948032	59	4869
2026-01-20 00:44:33.55	35.67	20.08	-44.1	-46.7	23.8	6.05e-01	0	41	0	206045184	59	4941
2026-01-20 00:44:34.40	35.79	20.19	-44.0	-46.6	23.8	6.00e-01	0	41	0	207618048	59	4887
2026-01-20 00:44:35.54	35.95	20.34	-44.0	-46.5	23.9	6.04e-01	0	41	0	209715200	59	4864
2026-01-20 00:44:36.39	36.07	20.45	-44.1	-46.7	23.8	6.02e-01	0	41	0	211288064	59	4945
2026-01-20 00:44:37.53	36.24	20.60	-44.1	-46.6	23.9	6.03e-01	0	41	0	213385216	59	4895
2026-01-20 00:44:38.38	36.36	20.71	-44.1	-46.7	23.8	6.00e-01	0	41	0	215482368	59	4928
2026-01-20 00:44:39.52	36.53	20.86	-44.2	-46.7	23.8	6.03e-01	0	41	0	217579520	59	4972
2026-01-20 00:44:40.37	36.66	20.97	-44.1	-46.7	23.8	6.05e-01	0	41	0	219152384	59	4950
2026-01-20 00:44:41.57	36.84	21.13	-43.8	-46.5	24.0	6.00e-01	0	41	0	221249536	59	4825
2026-01-20 00:44:42.43	36.97	21.25	-43.8	-46.4	24.0	6.04e-01	0	41	0	222822400	59	4797
2026-01-20 00:44:43.63	37.15	21.41	-43.9	-46.5	24.0	6.03e-01	0	41	0	224919552	59	4842
2026-01-20 00:44:44.48	37.28	21.52	-43.9	-46.4	24.1	6.03e-01	0	41	0	226492416	59	4812
2026-01-20 00:44:45.62	37.46	21.68	-43.9	-46.5	24.0	6.01e-01	0	41	0	228589568	59	4847
2026-01-20 00:44:46.47	37.59	21.79	-44.0	-46.6	23.9	6.04e-01	0	41	0	230162432	59	4882
2026-01-20 00:44:47.61	37.77	21.95	-44.0	-46.7	23.8	5.99e-01	0	41	0	232783872	59	4951
2026-01-20 00:44:48.46	37.91	22.06	-44.0	-46.7	23.9	6.02e-01	0	41	0	234356736	59	4937
2026-01-20 00:44:49.60	38.09	22.22	-43.9	-46.6	23.9	6.02e-01	0	41	0	236453888	59	4903
2026-01-20 00:44:50.59	38.25	22.36	-44.0	-46.7	23.8	6.03e-01	0	41	0	238026752	59	4929
2026-01-20 00:44:51.76	38.45	22.52	-44.0	-46.6	23.9	6.01e-01	0	41	0	240123904	59	4887
2026-01-20 00:44:52.62	38.59	22.64	-44.1	-46.7	23.9	6.01e-01	0	41	0	241696768	59	4939
2026-01-20 00:44:53.97	38.82	22.83	-44.0	-46.6	22.2	6.04e-01	0	41	0	244318208	59	4911
2026-01-20 00:44:54.69	38.94	22.93	-44.0	-46.6	23.9	6.03e-01	0	41	0	245891072	59	4905
2026-01-20 00:44:55.96	39.15	23.11	-44.1	-46.7	23.8	6.02e-01	0	41	0	247988224	59	4969
2026-01-20 00:44:56.69	39.28	23.22	-44.1	-46.7	23.8	6.04e-01	0	41	0	249561088	59	4948
2026-01-20 00:44:58.22	39.55	23.43	-44.0	-46.5	23.9	6.02e-01	0	41	0	252182528	59	4842
2026-01-20 00:44:58.93	39.67	23.54	-44.0	-46.6	24.0	6.06e-01	0	41	0	253755392	59	4875
2026-01-20 00:45:00.21	39.90	23.72	-44.0	-46.5	24.0	6.01e-01	0	41	0	256376832	59	4839
2026-01-20 00:45:00.93	40.03	23.82	-44.1	-46.6	24.0	6.07e-01	0	41	0	257425408	59	4881
2026-01-20 00:45:02.22	40.26	24.01	-44.1	-46.6	23.9	6.02e-01	0	41	0	260046848	59	4896
2026-01-20 00:45:02.94	40.39	24.12	-44.1	-46.6	23.9	6.04e-01	0	41	0	261095424	59	4883
2026-01-20 00:45:04.22	40.63	24.30	-44.0	-46.4	24.1	6.02e-01	0	41	0	263716864	59	4810
2026-01-20 00:45:04.93	40.76	24.41	-44.0	-46.5	24.0	6.00e-01	0	41	0	264765440	59	4816
2026-01-20 00:45:06.21	41.00	24.60	-44.1	-46.7	23.8	6.01e-01	0	41	0	267386880	59	4936
2026-01-20 00:45:06.93	41.14	24.70	-44.1	-46.6	23.9	6.05e-01	0	41	0	268959744	59	4885
2026-01-20 00:45:08.21	41.39	24.89	-44.1	-46.7	23.9	6.02e-01	0	41	0	271056896	59	4941
2026-01-20 00:45:09.01	41.54	25.01	-44.3	-46.8	23.7	6.01e-01	0	41	0	272629760	59	5007
2026-01-20 00:45:10.15	41.76	25.19	-44.1	-46.6	23.9	6.03e-01	0	41	0	274726912	59	4924
2026-01-20 00:45:11.00	41.93	25.31	-44.1	-46.6	23.9	6.04e-01	0	41	0	276299776	59	4900
2026-01-20 00:45:12.14	42.16	25.49	-44.1	-46.6	23.8	6.03e-01	0	41	0	278396928	59	4904
2026-01-20 00:45:12.99	42.33	25.62	-44.1	-46.6	23.9	6.00e-01	0	41	0	279969792	59	4892
2026-01-20 00:45:14.13	42.56	25.79	-44.1	-46.6	23.9	6.02e-01	0	41	0	282066944	59	4916
2026-01-20 00:45:15.35	42.81	25.98	-44.1	-46.7	23.9	6.02e-01	0	41	0	284688384	59	4940
2026-01-20 00:45:16.20	42.99	26.11	-44.1	-46.6	24.0	6.02e-01	0	41	0	286261248	59	4898
2026-01-20 00:45:17.34	43.23	26.28	-44.2	-46.7	23.8	6.05e-01	0	41	0	288358400	59	4973
2026-01-20 00:45:18.19	43.41	26.41	-44.2	-46.7	23.9	6.06e-01	0	41	0	289931264	59	4966
2026-01-20 00:45:19.33	43.65	26.59	-44.2	-46.7	23.8	6.01e-01	0	41	0	292028416	59	4969
2026-01-20 00:45:20.18	43.84	26.72	-44.1	-46.7	23.9	6.05e-01	0	41	0	293601280	59	4948
2026-01-20 00:45:21.32	44.09	26.90	-44.2	-46.7	23.9	6.04e-01	0	41	0	295698432	59	4972
2026-01-20 00:45:22.17	44.27	27.04	-44.2	-46.7	23.9	6.04e-01	0	41	0	297271296	59	4971
2026-01-20 00:45:23.31	44.53	27.22	-44.1	-46.6	24.0	6.03e-01	0	41	0	299368448	59	4882
2026-01-20 00:45:24.16	44.72	27.35	-44.1	-46.6	23.9	6.03e-01	0	41	0	300941312	59	4913
2026-01-20 00:45:25.30	44.98	27.53	-44.2	-46.7	23.9	6.02e-01	0	41	0	303038464	59	4932
2026-01-20 00:45:26.16	45.18	27.67	-44.2	-46.7	23.9	6.04e-01	0	41	0	304611328	59	4930
2026-01-20 00:45:27.50	45.49	27.88	-44.2	-46.7	23.9	6.04e-01	0	41	0	307232768	59	4968
2026-01-20 00:45:28.21	45.65	28.00	-44.2	-46.6	23.9	6.02e-01	0	41	0	308805632	59	4922
2026-01-20 00:45:29.49	45.96	28.20	-44.0	-46.5	24.0	6.04e-01	0	41	0	310902784	59	4847
2026-01-20 00:45:30.22	46.13	28.32	-44.1	-46.5	24.0	6.06e-01	0	41	0	312475648	59	4868
2026-01-20 00:45:31.50	46.44	28.53	-44.1	-46.6	24.0	6.03e-01	0	41	0	315097088	59	4898
2026-01-20 00:45:32.22	46.62	28.64	-44.2	-46.6	23.9	6.01e-01	0	41	0	316145664	59	4923
2026-01-20 00:45:33.50	46.93	28.85	-43.9	-46.4	24.2	6.03e-01	0	41	0	318767104	59	4760
2026-01-20 00:45:34.21	47.11	28.97	-44.0	-46.4	24.2	6.04e-01	0	41	0	319815680	59	4795
2026-01-20 00:45:35.49	47.43	29.18	-44.1	-46.6	24.0	6.01e-01	0	41	0	322437120	59	4893
2026-01-20 00:45:36.21	47.62	29.30	-44.1	-46.5	24.1	6.02e-01	0	41	0	323485696	59	4853
2026-01-20 00:45:37.49	47.95	29.51	-44.2	-46.6	24.0	6.01e-01	0	41	0	326107136	59	4924
2026-01-20 00:45:38.21	48.13	29.63	-44.1	-46.5	24.0	6.02e-01	0	41	0	327155712	59	4839
2026-01-20 00:45:39.48	48.47	29.84	-44.1	-46.6	23.9	6.06e-01	0	41	0	329777152	59	4890
2026-01-20 00:45:40.19	48.66	29.95	-44.1	-46.5	24.1	6.05e-01	0	41	0	331350016	59	4842
2026-01-20 00:45:41.57	49.03	30.18	-44.2	-46.6	24.0	6.04e-01	0	41	0	333447168	59	4907
2026-01-20 00:45:42.28	49.22	30.30	-44.1	-46.6	24.0	6.03e-01	0	41	0	335020032	59	4883
2026-01-20 00:45:43.56	49.57	30.52	-43.9	-46.4	24.2	6.01e-01	0	41	0	337641472	59	4774
2026-01-20 00:45:44.27	49.77	30.64	-43.9	-46.3	24.2	6.03e-01	0	41	0	338690048	59	4753
2026-01-20 00:45:45.66	50.16	30.87	-44.2	-46.7	23.9	6.03e-01	0	41	0	341311488	59	4950
2026-01-20 00:45:46.37	50.36	30.99	-44.3	-46.7	23.8	6.02e-01	0	41	0	342884352	59	4979
2026-01-20 00:45:47.65	50.72	31.20	-44.2	-46.7	23.9	6.05e-01	0	41	0	344981504	59	4931
2026-01-20 00:45:48.72	51.04	31.38	-44.1	-46.6	23.9	6.04e-01	0	41	0	347078656	59	4896
2026-01-20 00:45:49.58	51.29	31.53	-43.9	-46.4	24.1	6.03e-01	0	41	0	348651520	59	4785
2026-01-20 00:45:50.71	51.62	31.72	-44.1	-46.6	24.0	6.03e-01	0	41	0	350748672	59	4897
2026-01-20 00:45:51.57	51.88	31.87	-44.2	-46.8	23.8	6.04e-01	0	41	0	352321536	59	4988
2026-01-20 00:45:52.71	52.22	32.06	-44.3	-46.9	23.7	6.03e-01	0	41	0	354418688	59	5043
2026-01-20 00:45:53.56	52.48	32.20	-44.1	-46.7	23.9	6.02e-01	0	41	0	355991552	59	4949
2026-01-20 00:45:54.70	52.84	32.40	-44.4	-46.9	23.7	6.02e-01	0	41	0	358088704	59	5090
2026-01-20 00:45:55.55	53.10	32.54	-44.6	-47.1	23.5	6.02e-01	0	41	0	360185856	59	5207
2026-01-20 00:45:56.69	53.46	32.74	-44.5	-47.0	23.7	6.01e-01	0	41	0	362283008	59	5129
2026-01-20 00:45:57.59	53.75	32.89	-44.3	-46.8	23.8	6.03e-01	0	41	0	363855872	59	4985
2026-01-20 00:45:58.85	54.16	33.11	-44.4	-47.0	23.6	6.02e-01	0	41	0	365953024	59	5123
2026-01-20 00:45:59.66	54.42	33.24	-44.3	-46.8	23.8	6.05e-01	0	41	0	367525888	59	5025
2026-01-20 00:46:00.80	54.80	33.44	-44.2	-46.8	23.9	6.03e-01	0	41	0	369623040	59	4991
2026-01-20 00:46:01.66	55.08	33.59	-44.3	-46.8	23.8	6.05e-01	0	41	0	371195904	59	5006
2026-01-20 00:46:03.02	55.54	33.82	-44.4	-46.9	23.7	6.05e-01	0	41	0	373817344	59	5073
2026-01-20 00:46:03.73	55.78	33.94	-44.4	-46.9	23.7	6.02e-01	0	41	0	375390208	59	5099
2026-01-20 00:46:05.00	56.22	34.15	-44.3	-46.9	23.8	6.05e-01	0	41	0	377487360	59	5054
2026-01-20 00:46:05.71	56.47	34.28	-44.3	-46.8	23.8	6.01e-01	0	41	0	379060224	59	5037
2026-01-20 00:46:07.25	57.01	34.54	-44.5	-47.1	23.6	6.03e-01	0	41	0	381681664	59	5163
2026-01-20 00:46:07.96	57.26	34.66	-44.6	-47.1	23.5	6.03e-01	0	41	0	383254528	59	5214
2026-01-20 00:46:09.23	57.72	34.87	-44.4	-46.9	23.7	6.03e-01	0	41	0	385875968	59	5094
2026-01-20 00:46:09.94	57.98	34.99	-44.4	-47.0	23.7	6.00e-01	0	41	0	386924544	59	5101
2026-01-20 00:46:11.23	58.45	35.21	-44.4	-47.0	23.7	6.03e-01	0	41	0	389545984	59	5111
2026-01-20 00:46:11.94	58.72	35.33	-44.4	-46.9	23.7	6.03e-01	0	41	0	390594560	59	5098
2026-01-20 00:46:13.22	59.20	35.55	-44.6	-47.1	23.5	6.02e-01	0	41	0	393216000	59	5214
2026-01-20 00:46:13.96	59.48	35.67	-44.5	-47.1	22.0	6.09e-01	0	41	0	394264576	59	5178
2026-01-20 00:46:15.24	59.97	35.89	-44.5	-47.0	23.6	6.03e-01	0	41	0	396886016	59	5129
2026-01-20 00:46:15.95	60.25	36.01	-44.6	-47.2	23.5	6.03e-01	0	41	0	397934592	59	5237
2026-01-20 00:46:17.23	60.75	36.22	-44.3	-46.7	23.8	6.03e-01	0	41	0	400556032	59	4974
2026-01-20 00:46:17.95	61.03	36.34	-44.4	-46.9	23.7	6.06e-01	0	41	0	402128896	59	5075
2026-01-20 00:46:19.23	61.55	36.55	-44.4	-46.9	23.7	6.03e-01	0	41	0	404226048	59	5085
2026-01-20 00:46:19.96	61.84	36.67	-44.5	-47.0	23.7	6.04e-01	0	41	0	405798912	59	5115
2026-01-20 00:46:21.23	62.36	36.88	-44.6	-47.1	23.5	6.02e-01	0	41	0	407896064	59	5193
2026-01-20 00:46:22.12	62.73	37.03	-44.5	-47.0	23.6	6.02e-01	0	41	0	409468928	59	5152
2026-01-20 00:46:23.25	63.20	37.21	-44.5	-47.1	23.6	6.04e-01	0	41	0	412090368	59	5160
2026-01-20 00:46:24.11	63.56	37.35	-44.3	-46.8	23.8	6.00e-01	0	41	0	413663232	59	5031
2026-01-20 00:46:25.24	64.04	37.53	-44.5	-47.0	23.6	6.03e-01	0	41	0	415760384	59	5140
2026-01-20 00:46:26.10	64.41	37.67	-44.5	-47.1	23.6	6.03e-01	0	41	0	417333248	59	5179
2026-01-20 00:46:27.24	64.91	37.85	-44.6	-47.1	23.5	6.06e-01	0	41	0	419430400	59	5196
2026-01-20 00:46:28.09	65.28	37.99	-44.4	-46.8	23.8	6.02e-01	0	41	0	421003264	59	5033
2026-01-20 00:46:29.23	65.78	38.17	-44.6	-47.2	23.5	6.03e-01	0	41	0	423100416	59	5225
2026-01-20 00:46:30.08	66.16	38.30	-44.4	-46.9	23.5	6.03e-01	0	41	0	424673280	59	5044
2026-01-20 00:46:31.30	66.71	38.49	-44.4	-46.8	23.8	6.04e-01	0	41	0	426770432	59	5032
2026-01-20 00:46:32.15	67.10	38.62	-44.5	-47.0	23.7	6.01e-01	0	41	0	428343296	59	5120
2026-01-20 00:46:33.29	67.63	38.79	-44.2	-46.7	23.9	6.02e-01	0	41	0	430964736	59	4948
2026-01-20 00:46:34.14	68.02	38.92	-44.3	-46.8	23.8	6.03e-01	0	41	0	432537600	59	5028
2026-01-20 00:46:35.28	68.56	39.09	-44.3	-46.7	23.8	6.01e-01	0	41	0	434634752	59	4982
2026-01-20 00:46:36.16	68.97	39.22	-44.2	-46.7	23.9	6.02e-01	0	41	0	436207616	59	4954
2026-01-20 00:46:37.52	69.62	39.42	-44.2	-46.6	24.0	6.05e-01	0	41	0	438829056	59	4913
2026-01-20 00:46:38.23	69.97	39.52	-44.2	-46.6	23.9	6.04e-01	0	41	0	439877632	59	4910
2026-01-20 00:46:39.72	70.69	39.74	-44.3	-46.8	23.9	6.05e-01	0	41	0	442499072	59	4996
2026-01-20 00:46:40.43	71.04	39.84	-44.4	-46.9	23.7	6.02e-01	0	41	0	444071936	59	5074
2026-01-20 00:46:41.71	71.68	40.02	-44.0	-46.4	24.1	6.02e-01	0	41	0	446693376	59	4786
2026-01-20 00:46:42.43	72.04	40.12	-44.0	-46.4	24.2	6.03e-01	0	41	0	447741952	59	4791
2026-01-20 00:46:43.71	72.69	40.29	-44.0	-46.4	24.2	6.03e-01	0	41	0	450363392	59	4791
2026-01-20 00:46:44.42	73.05	40.39	-43.9	-46.3	24.2	6.03e-01	0	41	0	451411968	59	4744
2026-01-20 00:46:45.70	73.71	40.56	-43.8	-46.3	24.3	6.05e-01	0	41	0	454033408	59	4715
2026-01-20 00:46:46.41	74.08	40.65	-43.9	-46.4	24.2	6.04e-01	0	41	0	455081984	59	4769
2026-01-20 00:46:47.70	74.75	40.82	-43.7	-46.1	24.4	6.00e-01	0	41	0	457703424	59	4635
2026-01-20 00:46:48.42	75.13	40.91	-43.6	-46.0	24.5	6.04e-01	0	41	0	459276288	59	4573
2026-01-20 00:46:49.70	75.81	41.07	-44.1	-46.5	24.1	6.03e-01	0	41	0	461373440	59	4853
2026-01-20 00:46:50.46	76.21	41.16	-43.8	-46.2	24.3	6.05e-01	0	41	0	462946304	59	4676
2026-01-20 00:46:51.74	76.90	41.31	-44.1	-46.6	24.1	6.02e-01	0	41	0	465567744	59	4887
2026-01-20 00:46:52.49	77.31	41.40	-44.0	-46.4	24.2	6.03e-01	0	41	0	466616320	59	4814
2026-01-20 00:46:53.77	78.01	41.54	-43.7	-46.1	24.4	6.02e-01	0	41	0	469237760	59	4620
2026-01-20 00:46:54.53	78.43	41.63	-43.8	-46.2	24.4	6.04e-01	0	41	0	470286336	59	4675
2026-01-20 00:46:55.81	79.14	41.77	-43.8	-46.2	24.4	6.05e-01	0	41	0	472907776	59	4663
2026-01-20 00:46:56.58	79.57	41.85	-44.0	-46.5	24.1	6.03e-01	0	41	0	474480640	59	4843
2026-01-20 00:46:57.86	80.29	41.99	-43.9	-46.4	24.2	6.03e-01	0	41	0	476577792	59	4773
2026-01-20 00:46:58.60	80.71	42.06	-43.9	-46.4	24.2	6.04e-01	0	41	0	478150656	59	4765
2026-01-20 00:47:00.16	81.60	42.21	-43.5	-45.9	24.6	6.02e-01	0	41	0	481296384	59	4542
2026-01-20 00:47:00.87	82.01	42.28	-43.5	-45.9	24.7	6.00e-01	0	41	0	482344960	59	4506
2026-01-20 00:47:02.27	82.82	42.41	-43.4	-45.8	24.7	6.02e-01	0	41	0	484966400	58	4755
2026-01-20 00:47:03.24	83.38	42.50	-43.5	-46.0	24.6	6.03e-01	0	41	0	487063552	58	4831
2026-01-20 00:47:04.24	83.97	42.58	-43.5	-46.0	24.5	6.03e-01	0	41	0	488636416	58	4842
2026-01-20 00:47:05.24	84.56	42.66	-43.5	-46.0	24.6	6.01e-01	0	41	0	490733568	58	4837
2026-01-20 00:47:06.23	85.14	42.74	-43.5	-46.0	24.6	6.03e-01	0	41	0	492306432	58	4818
2026-01-20 00:47:07.23	85.74	42.82	-43.6	-46.0	24.5	6.07e-01	0	41	0	494403584	58	4858
2026-01-20 00:47:08.22	86.33	42.89	-43.5	-46.0	24.6	6.04e-01	0	41	0	495976448	58	4834
2026-01-20 00:47:09.28	86.96	42.96	-43.6	-46.1	24.4	6.04e-01	0	41	0	498073600	58	4884
2026-01-20 00:47:10.20	87.52	43.03	-43.6	-46.1	24.5	6.03e-01	0	41	0	500170752	58	4888
2026-01-20 00:47:11.19	88.12	43.09	-43.6	-46.1	24.5	6.01e-01	0	41	0	501743616	58	4893
2026-01-20 00:47:12.18	88.72	43.15	-43.6	-46.1	24.5	6.02e-01	0	41	0	503840768	58	4900
2026-01-20 00:47:13.18	89.33	43.20	-43.4	-45.8	24.7	6.03e-01	0	41	0	505413632	58	4728
2026-01-20 00:47:14.17	89.93	43.26	-43.7	-46.2	24.4	6.02e-01	0	41	0	507510784	58	4955
2026-01-20 00:47:15.17	90.55	43.31	-43.6	-46.0	24.5	6.01e-01	0	41	0	509083648	58	4818
2026-01-20 00:47:16.16	91.16	43.35	-43.6	-46.0	24.5	6.04e-01	0	41	0	511180800	58	4863
2026-01-20 00:47:17.16	91.77	43.39	-43.4	-45.7	24.8	6.02e-01	0	41	0	512753664	58	4702
2026-01-20 00:47:18.15	92.38	43.43	-43.5	-45.9	24.6	6.00e-01	0	41	0	514850816	58	4810
2026-01-20 00:47:19.14	93.00	43.47	-43.6	-46.1	24.5	6.04e-01	0	41	0	516947968	58	4882
2026-01-20 00:47:20.14	93.62	43.50	-43.5	-45.9	24.6	6.02e-01	0	41	0	518520832	58	4779
2026-01-20 00:47:21.14	94.24	43.53	-43.5	-45.9	24.7	6.02e-01	0	41	0	520617984	58	4760
2026-01-20 00:47:22.13	94.86	43.55	-43.6	-46.0	24.6	6.06e-01	0	41	0	522190848	58	4851
2026-01-20 00:47:23.14	95.49	43.58	-43.7	-46.1	24.5	6.05e-01	0	41	0	524288000	58	4883
2026-01-20 00:47:24.17	96.14	43.59	-43.6	-46.0	24.5	6.02e-01	0	41	0	525860864	58	4834
2026-01-20 00:47:25.17	96.76	43.61	-43.6	-46.0	24.5	6.06e-01	0	41	0	527958016	58	4820
2026-01-20 00:47:26.16	97.38	43.62	-43.7	-46.0	24.5	6.01e-01	0	41	0	530055168	58	4867
2026-01-20 00:47:27.16	98.01	43.62	-43.8	-46.2	24.3	6.04e-01	0	41	0	531628032	58	4977
2026-01-20 00:47:28.26	98.70	43.63	-43.7	-46.1	24.5	6.03e-01	0	41	0	533725184	58	4886
2026-01-20 00:47:29.13	99.24	43.62	-43.7	-46.1	24.5	6.04e-01	0	41	0	535298048	58	4912
2026-01-20 00:47:30.44	100.07	43.62	-43.8	-46.3	24.3	6.03e-01	0	41	0	537919488	58	4999
2026-01-20 00:47:31.15	100.51	43.61	-43.9	-46.3	24.2	6.03e-01	0	41	0	538968064	58	5039
2026-01-20 00:47:32.63	101.44	43.59	-43.7	-46.1	24.4	6.04e-01	0	41	0	542113792	58	4914
2026-01-20 00:47:33.35	101.89	43.58	-43.7	-46.1	24.5	6.04e-01	0	41	0	543162368	58	4880
2026-01-20 00:47:34.63	102.69	43.55	-43.7	-46.1	24.4	6.02e-01	0	41	0	545783808	58	4909
2026-01-20 00:47:35.34	103.13	43.54	-43.8	-46.2	24.3	6.00e-01	0	41	0	546832384	58	4961
2026-01-20 00:47:36.74	104.00	43.50	-43.7	-46.1	24.5	6.02e-01	0	41	0	549453824	58	4903
2026-01-20 00:47:37.45	104.44	43.47	-43.8	-46.3	24.3	6.03e-01	0	41	0	551026688	58	5023
2026-01-20 00:47:38.73	105.24	43.43	-43.8	-46.3	24.3	6.03e-01	0	41	0	553123840	58	4991
2026-01-20 00:47:39.44	105.68	43.40	-43.9	-46.4	24.2	6.03e-01	0	41	0	554696704	58	5078
2026-01-20 00:47:40.85	106.55	43.34	-43.8	-46.2	24.3	6.04e-01	0	41	0	557318144	58	4948
2026-01-20 00:47:41.56	106.99	43.31	-43.9	-46.3	24.3	6.05e-01	0	41	0	558891008	58	4992
2026-01-20 00:47:42.84	107.77	43.24	-43.9	-46.3	24.3	6.04e-01	0	41	0	560988160	58	5014
2026-01-20 00:47:43.56	108.21	43.20	-44.0	-46.4	24.2	6.01e-01	0	41	0	562561024	58	5098
2026-01-20 00:47:44.85	109.00	43.13	-43.9	-46.3	24.3	6.04e-01	0	41	0	564658176	58	5036
2026-01-20 00:47:45.57	109.44	43.09	-44.0	-46.4	24.2	6.03e-01	0	41	0	566231040	58	5080
2026-01-20 00:47:46.85	110.21	43.00	-43.8	-46.2	24.4	6.01e-01	0	41	0	568852480	58	4945
2026-01-20 00:47:47.58	110.65	42.96	-44.0	-46.4	24.3	6.03e-01	0	41	0	569901056	58	5061
2026-01-20 00:47:48.86	111.42	42.86	-44.2	-46.6	24.0	6.02e-01	0	41	0	572522496	59	4911
2026-01-20 00:47:49.57	111.84	42.81	-44.1	-46.5	24.1	6.05e-01	0	41	0	573571072	59	4834
2026-01-20 00:47:50.85	112.60	42.71	-44.3	-46.8	23.9	6.04e-01	0	41	0	576192512	59	4984
2026-01-20 00:47:51.58	113.03	42.66	-44.1	-46.5	24.1	6.04e-01	0	41	0	577241088	59	4860
2026-01-20 00:47:52.85	113.78	42.55	-44.0	-46.5	24.2	6.03e-01	0	41	0	579862528	59	4822
2026-01-20 00:47:53.56	114.20	42.49	-44.0	-46.4	24.2	6.03e-01	0	41	0	581435392	59	4812
2026-01-20 00:47:54.82	114.93	42.38	-44.1	-46.5	24.1	6.02e-01	0	41	0	583532544	59	4865
2026-01-20 00:47:55.63	115.40	42.30	-44.1	-46.6	24.0	6.01e-01	0	41	0	585105408	59	4873
2026-01-20 00:47:56.77	116.06	42.19	-44.0	-46.4	24.2	6.00e-01	0	41	0	587202560	59	4779
2026-01-20 00:47:57.62	116.54	42.11	-44.1	-46.6	24.1	6.02e-01	0	41	0	588775424	59	4887
2026-01-20 00:47:58.83	117.23	41.99	-44.0	-46.4	24.2	6.02e-01	0	41	0	590872576	59	4808
2026-01-20 00:47:59.69	117.72	41.90	-44.1	-46.6	24.0	6.02e-01	0	41	0	592969728	59	4908
2026-01-20 00:48:00.87	118.38	41.77	-44.3	-46.8	23.9	6.02e-01	0	41	0	595066880	59	5014
2026-01-20 00:48:01.72	118.85	41.68	-44.2	-46.6	24.0	6.05e-01	0	41	0	596639744	59	4918
2026-01-20 00:48:02.86	119.48	41.55	-44.2	-46.7	24.0	6.04e-01	0	41	0	598736896	59	4930
2026-01-20 00:48:03.71	119.95	41.46	-44.3	-46.8	23.9	6.01e-01	0	41	0	600309760	59	5006
2026-01-20 00:48:04.98	120.64	41.31	-44.2	-46.6	24.0	6.06e-01	0	41	0	602406912	59	4921
2026-01-20 00:48:05.76	121.07	41.21	-44.2	-46.7	23.9	6.03e-01	0	41	0	603979776	59	4951
2026-01-20 00:48:06.96	121.71	41.07	-44.3	-46.8	23.8	6.02e-01	0	42	0	606076928	59	5020
2026-01-20 00:48:07.82	122.17	40.96	-44.4	-47.0	23.7	6.04e-01	0	41	0	608174080	59	5115
2026-01-20 00:48:09.08	122.84	40.80	-44.4	-46.9	23.7	6.01e-01	0	41	0	610271232	59	5091
2026-01-20 00:48:09.86	123.24	40.70	-44.2	-46.7	24.0	6.02e-01	0	41	0	611844096	59	4929
2026-01-20 00:48:11.14	123.91	40.54	-44.4	-46.9	23.8	6.03e-01	0	41	0	613941248	59	5071
2026-01-20 00:48:12.27	124.49	40.38	-44.4	-46.9	23.7	6.01e-01	0	41	0	616562688	59	5065
2026-01-20 00:48:13.13	124.93	40.27	-44.4	-47.0	23.6	6.00e-01	0	41	0	618135552	59	5118
2026-01-20 00:48:14.27	125.51	40.11	-44.3	-46.8	23.9	6.03e-01	0	41	0	620232704	59	4998
2026-01-20 00:48:15.12	125.94	39.99	-44.2	-46.7	24.0	6.04e-01	0	41	0	621805568	59	4950
2026-01-20 00:48:16.29	126.52	39.83	-44.3	-46.9	23.8	6.04e-01	0	41	0	623902720	59	5055
2026-01-20 00:48:17.14	126.94	39.71	-44.4	-46.9	23.7	6.03e-01	0	41	0	625475584	59	5096
2026-01-20 00:48:18.28	127.50	39.55	-44.4	-47.0	23.7	6.03e-01	0	41	0	627572736	59	5109
2026-01-20 00:48:19.13	127.91	39.42	-44.5	-47.1	23.6	6.01e-01	0	41	0	629145600	59	5164
2026-01-20 00:48:20.27	128.46	39.25	-44.5	-47.0	23.7	6.03e-01	0	41	0	631242752	59	5142
2026-01-20 00:48:21.12	128.86	39.13	-44.4	-46.9	23.8	6.04e-01	0	41	0	632815616	59	5095
2026-01-20 00:48:22.48	129.50	38.92	-44.5	-47.1	23.5	6.03e-01	0	41	0	635437056	60	4907
2026-01-20 00:48:23.19	129.83	38.82	-44.5	-47.1	23.5	6.03e-01	0	41	0	637009920	60	4907
2026-01-20 00:48:24.47	130.43	38.62	-44.4	-46.9	23.7	6.04e-01	0	41	0	639107072	60	4781
2026-01-20 00:48:25.18	130.75	38.51	-44.2	-46.7	23.9	5.99e-01	0	41	0	640679936	60	4666
2026-01-20 00:48:26.46	131.33	38.31	-44.4	-46.9	23.7	6.04e-01	0	41	0	642777088	60	4797
2026-01-20 00:48:27.17	131.65	38.20	-44.3	-46.8	23.8	6.04e-01	0	41	0	644349952	60	4753
2026-01-20 00:48:28.45	132.22	38.00	-44.2	-46.7	23.9	5.98e-01	0	41	0	646447104	60	4678
2026-01-20 00:48:29.16	132.53	37.88	-44.2	-46.7	23.9	6.05e-01	0	41	0	648019968	60	4678
2026-01-20 00:48:30.44	133.09	37.68	-44.0	-46.5	24.0	6.06e-01	0	41	0	650641408	60	4590
2026-01-20 00:48:31.16	133.40	37.56	-44.0	-46.5	24.1	6.05e-01	0	41	0	651689984	59	4841
2026-01-20 00:48:32.44	133.95	37.36	-44.2	-46.7	23.9	6.01e-01	0	41	0	654311424	59	4944
2026-01-20 00:48:33.15	134.25	37.24	-44.2	-46.7	24.0	6.01e-01	0	41	0	655360000	59	4968
2026-01-20 00:48:34.43	134.79	37.03	-44.2	-46.7	23.9	6.02e-01	0	41	0	657981440	59	4973
2026-01-20 00:48:35.14	135.08	36.92	-44.1	-46.6	24.1	6.02e-01	0	41	0	659030016	59	4872
2026-01-20 00:48:36.46	135.63	36.70	-44.0	-46.5	24.1	6.04e-01	0	41	0	661651456	59	4815
2026-01-20 00:48:37.17	135.91	36.58	-43.9	-46.3	24.3	6.02e-01	0	41	0	663224320	59	4739
2026-01-20 00:48:38.45	136.43	36.37	-43.9	-46.4	24.2	6.05e-01	0	42	0	665321472	59	4803
2026-01-20 00:48:39.18	136.72	36.25	-43.8	-46.3	24.3	6.00e-01	0	41	0	666894336	59	4710
2026-01-20 00:48:40.55	137.26	36.02	-43.8	-46.4	24.2	6.02e-01	0	41	0	669515776	59	4762
2026-01-20 00:48:41.26	137.54	35.90	-43.9	-46.4	24.2	6.03e-01	0	41	0	670564352	59	4808
2026-01-20 00:48:42.62	138.06	35.67	-43.7	-46.1	24.5	6.06e-01	0	42	0	673185792	59	4615
2026-01-20 00:48:43.33	138.33	35.55	-43.8	-46.1	24.4	6.04e-01	0	41	0	674758656	59	4649
2026-01-20 00:48:44.61	138.82	35.33	-43.6	-45.9	24.6	6.02e-01	0	41	0	676855808	59	4544
2026-01-20 00:48:45.66	139.21	35.15	-43.5	-45.8	24.7	6.03e-01	0	41	0	678952960	59	4462
2026-01-20 00:48:46.83	139.64	34.95	-43.5	-45.8	24.6	6.04e-01	0	41	0	681050112	58	4759
2026-01-20 00:48:47.69	139.95	34.81	-43.3	-45.6	24.8	6.00e-01	0	41	0	682622976	58	4640
2026-01-20 00:48:48.82	140.36	34.61	-43.4	-45.7	24.8	6.05e-01	0	41	0	684720128	58	4700
2026-01-20 00:48:49.67	140.66	34.47	-43.4	-45.8	24.7	6.02e-01	0	41	0	686292992	58	4724
2026-01-20 00:48:50.81	141.07	34.27	-43.3	-45.6	24.9	6.01e-01	0	42	0	688390144	58	4639
2026-01-20 00:48:51.67	141.37	34.13	-43.3	-45.6	24.9	6.01e-01	0	41	0	689963008	58	4605
2026-01-20 00:48:52.80	141.76	33.93	-43.3	-45.6	24.9	6.00e-01	0	41	0	692060160	58	4621
2026-01-20 00:48:53.66	142.05	33.78	-43.2	-45.4	25.0	6.05e-01	0	41	0	693633024	58	4545
2026-01-20 00:48:54.84	142.45	33.58	-43.1	-45.4	25.0	6.02e-01	0	41	0	696254464	58	4536
2026-01-20 00:48:55.69	142.74	33.44	-43.1	-45.4	25.1	6.03e-01	0	41	0	697827328	58	4510
2026-01-20 00:48:56.89	143.13	33.23	-43.1	-45.4	25.0	6.02e-01	0	41	0	699924480	58	4530
2026-01-20 00:48:57.75	143.42	33.08	-43.1	-45.4	25.1	6.04e-01	0	41	0	701497344	58	4496
2026-01-20 00:48:58.97	143.81	32.87	-43.0	-45.3	25.1	6.01e-01	0	41	0	703594496	58	4462
2026-01-20 00:48:59.82	144.08	32.73	-43.0	-45.3	25.1	6.04e-01	0	41	0	705691648	58	4460
2026-01-20 00:49:00.95	144.44	32.53	-42.8	-45.0	25.3	6.03e-01	0	41	0	707788800	57	4598
2026-01-20 00:49:01.81	144.71	32.39	-42.8	-45.0	25.4	6.03e-01	0	41	0	709361664	57	4572
2026-01-20 00:49:02.94	145.06	32.19	-42.9	-45.1	25.3	6.02e-01	0	41	0	711458816	57	4648
2026-01-20 00:49:03.80	145.33	32.05	-43.0	-45.3	25.0	6.03e-01	0	41	0	713031680	57	4732
2026-01-20 00:49:04.93	145.67	31.85	-42.9	-45.2	25.2	6.03e-01	0	41	0	715128832	57	4677
2026-01-20 00:49:05.79	145.93	31.71	-42.9	-45.2	25.2	6.01e-01	0	41	0	716701696	57	4658
2026-01-20 00:49:06.93	146.27	31.51	-42.8	-45.1	25.3	6.01e-01	0	41	0	718798848	57	4629
2026-01-20 00:49:07.78	146.52	31.37	-42.8	-45.1	25.3	6.03e-01	0	41	0	720371712	57	4636
2026-01-20 00:49:08.91	146.85	31.17	-42.8	-45.0	25.4	5.99e-01	0	41	0	722468864	57	4590
2026-01-20 00:49:09.77	147.10	31.03	-42.8	-45.0	23.4	6.04e-01	0	41	0	724041728	57	4596
2026-01-20 00:49:10.90	147.42	30.84	-42.7	-44.9	25.4	6.06e-01	0	41	0	726138880	57	4539
2026-01-20 00:49:11.76	147.66	30.69	-42.7	-44.9	25.4	6.05e-01	0	41	0	727711744	57	4520
2026-01-20 00:49:12.89	147.98	30.50	-42.8	-45.0	25.4	6.02e-01	0	41	0	729808896	57	4585
2026-01-20 00:49:13.75	148.21	30.36	-43.0	-45.3	25.1	6.02e-01	0	41	0	731381760	57	4719
2026-01-20 00:49:14.92	148.53	30.16	-43.0	-45.4	25.0	6.04e-01	0	41	0	734003200	57	4768
2026-01-20 00:49:15.77	148.76	30.02	-43.0	-45.3	25.0	6.03e-01	0	42	0	735576064	57	4756
2026-01-20 00:49:16.99	149.09	29.81	-43.0	-45.3	25.1	6.04e-01	0	41	0	737673216	57	4739
2026-01-20 00:49:17.84	149.32	29.67	-42.9	-45.3	25.1	6.02e-01	0	41	0	739246080	57	4721
2026-01-20 00:49:19.02	149.63	29.48	-42.9	-45.2	25.2	6.02e-01	0	41	0	741343232	57	4675
2026-01-20 00:49:19.88	149.85	29.33	-42.9	-45.2	25.2	6.04e-01	0	41	0	742916096	57	4684
2026-01-20 00:49:21.06	150.15	29.14	-43.0	-45.3	25.1	6.03e-01	0	42	0	745013248	57	4727
2026-01-20 00:49:21.91	150.37	29.00	-43.0	-45.3	25.1	6.02e-01	0	41	0	746586112	57	4757
2026-01-20 00:49:23.05	150.65	28.81	-43.1	-45.5	24.9	6.04e-01	0	41	0	749207552	57	4842
2026-01-20 00:49:23.91	150.87	28.67	-43.1	-45.4	25.0	6.03e-01	0	41	0	750780416	57	4804
2026-01-20 00:49:25.04	151.14	28.48	-43.0	-45.5	24.9	6.04e-01	0	41	0	752877568	57	4816
2026-01-20 00:49:25.90	151.35	28.34	-42.9	-45.3	25.0	6.04e-01	0	41	0	754450432	57	4758
2026-01-20 00:49:27.03	151.63	28.16	-42.9	-45.3	25.1	6.03e-01	0	41	0	756547584	57	4736
2026-01-20 00:49:27.89	151.83	28.02	-42.9	-45.4	25.1	6.05e-01	0	41	0	758120448	57	4766
2026-01-20 00:49:29.02	152.10	27.84	-43.0	-45.5	24.9	6.03e-01	0	41	0	760217600	57	4864
2026-01-20 00:49:29.88	152.30	27.70	-42.9	-45.4	25.0	6.02e-01	0	41	0	761790464	57	4793
2026-01-20 00:49:31.01	152.56	27.52	-43.0	-45.5	24.9	6.03e-01	0	41	0	763887616	57	4853
2026-01-20 00:49:31.87	152.76	27.38	-43.3	-45.7	24.7	6.00e-01	0	41	0	765460480	57	4972
2026-01-20 00:49:33.01	153.02	27.20	-43.3	-45.8	24.7	6.04e-01	0	41	0	767557632	57	5013
2026-01-20 00:49:33.86	153.21	27.06	-43.4	-45.8	24.6	6.03e-01	0	41	0	769130496	57	5037
2026-01-20 00:49:34.99	153.46	26.88	-43.3	-45.8	24.7	6.06e-01	0	41	0	771227648	57	4992
2026-01-20 00:49:35.85	153.65	26.75	-43.4	-45.9	24.6	6.03e-01	0	41	0	772800512	57	5053
2026-01-20 00:49:37.11	153.92	26.55	-43.5	-46.0	24.4	6.05e-01	0	41	0	775421952	57	5115
2026-01-20 00:49:37.91	154.09	26.42	-43.6	-46.0	24.4	6.02e-01	0	41	0	776994816	57	5142
2026-01-20 00:49:39.05	154.34	26.25	-43.5	-45.9	24.5	6.04e-01	0	42	0	779091968	57	5100
2026-01-20 00:49:39.90	154.51	26.11	-43.4	-45.8	24.6	6.01e-01	0	41	0	780664832	57	5002
2026-01-20 00:49:41.04	154.75	25.94	-43.4	-45.7	24.7	6.03e-01	0	41	0	782761984	57	4973
2026-01-20 00:49:41.89	154.93	25.81	-43.4	-45.7	24.7	6.02e-01	0	42	0	784334848	57	4982
2026-01-20 00:49:43.03	155.16	25.63	-43.3	-45.7	24.7	6.03e-01	0	41	0	786432000	57	4959
2026-01-20 00:49:43.89	155.34	25.50	-43.4	-45.8	24.7	6.04e-01	0	41	0	788004864	57	5003
2026-01-20 00:49:45.02	155.56	25.33	-43.5	-45.8	24.6	6.02e-01	0	42	0	790102016	57	5024
2026-01-20 00:49:45.87	155.73	25.20	-43.6	-46.0	24.5	6.01e-01	0	41	0	791674880	57	5104
2026-01-20 00:49:47.01	155.96	25.03	-43.6	-45.9	24.5	6.03e-01	0	41	0	793772032	57	5097
2026-01-20 00:49:47.86	156.12	24.90	-43.5	-45.9	24.6	6.02e-01	0	42	0	795344896	57	5043
2026-01-20 00:49:49.00	156.34	24.73	-43.6	-45.9	24.5	6.00e-01	0	41	0	797442048	57	5087
2026-01-20 00:49:49.85	156.51	24.60	-43.5	-45.9	24.5	6.03e-01	0	41	0	799014912	57	5076
2026-01-20 00:49:51.00	156.73	24.43	-43.6	-46.0	24.5	6.04e-01	0	42	0	801636352	57	5115
2026-01-20 00:49:51.85	156.89	24.30	-43.6	-46.0	24.4	6.04e-01	0	41	0	803209216	57	5158
2026-01-20 00:49:52.99	157.10	24.13	-43.7	-46.1	24.3	6.01e-01	0	42	0	805306368	58	4898
2026-01-20 00:49:53.85	157.26	24.01	-43.7	-46.1	24.3	6.02e-01	0	42	0	806879232	58	4917
2026-01-20 00:49:55.13	157.49	23.82	-43.8	-46.2	24.3	6.00e-01	0	42	0	808976384	58	4960
2026-01-20 00:49:55.84	157.62	23.72	-43.7	-46.2	24.3	6.03e-01	0	41	0	810549248	58	4934
2026-01-20 00:49:57.12	157.85	23.53	-43.7	-46.1	24.4	6.03e-01	0	41	0	813170688	58	4906
2026-01-20 00:49:57.88	157.98	23.42	-43.8	-46.2	24.1	6.01e-01	0	41	0	814219264	58	4962
2026-01-20 00:49:59.16	158.21	23.23	-43.8	-46.3	24.3	6.04e-01	0	42	0	816840704	58	4985
2026-01-20 00:49:59.87	158.33	23.13	-43.8	-46.2	24.3	6.01e-01	0	41	0	817889280	58	4966
2026-01-20 00:50:01.15	158.55	22.95	-43.8	-46.2	24.2	6.03e-01	0	41	0	820510720	58	4977
2026-01-20 00:50:01.86	158.67	22.85	-43.8	-46.2	24.3	6.02e-01	0	42	0	821559296	58	4956
2026-01-20 00:50:03.14	158.89	22.67	-43.7	-46.1	24.3	6.04e-01	0	41	0	824180736	58	4898
2026-01-20 00:50:03.88	159.01	22.56	-43.7	-46.1	24.3	6.01e-01	0	42	0	825753600	58	4913
2026-01-20 00:50:05.16	159.22	22.38	-43.7	-46.2	24.3	6.03e-01	0	42	0	827850752	58	4932
2026-01-20 00:50:06.06	159.37	22.26	-43.7	-46.1	24.3	6.05e-01	0	41	0	829423616	58	4906
2026-01-20 00:50:07.17	159.55	22.10	-43.6	-46.0	24.4	6.03e-01	0	41	0	831520768	58	4839
2026-01-20 00:50:08.02	159.69	21.99	-43.6	-46.0	24.5	6.05e-01	0	42	0	833617920	58	4831
2026-01-20 00:50:09.16	159.87	21.83	-43.7	-46.1	24.3	6.02e-01	0	41	0	835190784	58	4901
2026-01-20 00:50:10.31	160.05	21.67	-43.6	-46.1	24.3	6.03e-01	0	41	0	837812224	58	4908
2026-01-20 00:50:11.33	160.21	21.53	-43.6	-46.1	24.3	6.02e-01	0	41	0	839385088	58	4907
2026-01-20 00:50:12.33	160.37	21.39	-43.6	-46.2	24.2	6.05e-01	0	41	0	841482240	58	4944
2026-01-20 00:50:13.32	160.52	21.26	-43.7	-46.2	24.2	6.03e-01	0	41	0	843055104	58	4982
2026-01-20 00:50:14.32	160.68	21.13	-43.7	-46.2	24.2	6.04e-01	0	41	0	845152256	58	4960
2026-01-20 00:50:15.31	160.82	20.99	-43.7	-46.2	24.2	6.01e-01	0	41	0	846725120	58	4967
2026-01-20 00:50:16.31	160.97	20.86	-43.8	-46.2	24.2	6.06e-01	0	42	0	848822272	58	4969
2026-01-20 00:50:17.30	161.12	20.73	-43.8	-46.2	24.2	6.02e-01	0	42	0	850919424	58	4952
2026-01-20 00:50:18.30	161.27	20.60	-43.7	-46.1	24.3	6.02e-01	0	41	0	852492288	58	4876
2026-01-20 00:50:19.29	161.41	20.46	-43.7	-46.1	24.3	6.03e-01	0	41	0	854589440	58	4878
2026-01-20 00:50:20.29	161.56	20.33	-43.6	-45.9	24.5	6.03e-01	0	41	0	856162304	58	4814
2026-01-20 00:50:21.28	161.70	20.20	-43.5	-45.9	24.4	6.03e-01	0	41	0	858259456	58	4814
2026-01-20 00:50:22.28	161.84	20.07	-43.5	-45.9	23.3	6.02e-01	0	41	0	860356608	58	4783
2026-01-20 00:50:23.27	161.98	19.95	-43.5	-46.0	24.4	6.04e-01	0	41	0	861929472	58	4815
2026-01-20 00:50:24.27	162.12	19.82	-43.4	-45.8	24.5	6.04e-01	0	41	0	864026624	58	4746
2026-01-20 00:50:25.36	162.27	19.68	-43.3	-45.7	24.6	6.02e-01	0	41	0	865599488	58	4676
2026-01-20 00:50:26.24	162.39	19.56	-43.3	-45.7	24.7	6.00e-01	0	41	0	867696640	58	4656
2026-01-20 00:50:27.38	162.55	19.42	-43.2	-45.7	24.7	6.02e-01	0	41	0	869793792	58	4653
2026-01-20 00:50:28.23	162.66	19.31	-43.3	-45.7	24.6	6.04e-01	0	41	0	871366656	58	4682
2026-01-20 00:50:29.59	162.85	19.14	-43.3	-45.7	24.6	6.02e-01	0	42	0	873988096	58	4687
2026-01-20 00:50:30.30	162.94	19.05	-43.3	-45.7	24.6	6.05e-01	0	41	0	875036672	58	4695
2026-01-20 00:50:31.58	163.11	18.89	-43.4	-45.8	24.5	6.03e-01	0	41	0	877658112	58	4731
2026-01-20 00:50:32.31	163.20	18.80	-43.4	-45.8	24.5	6.02e-01	0	42	0	878706688	58	4721
2026-01-20 00:50:33.59	163.37	18.64	-43.4	-45.8	24.5	6.02e-01	0	41	0	881328128	58	4743
2026-01-20 00:50:34.30	163.46	18.55	-43.4	-45.8	24.5	6.03e-01	0	41	0	882376704	58	4717
2026-01-20 00:50:35.58	163.62	18.40	-43.4	-45.8	24.5	6.03e-01	0	41	0	884998144	58	4716
2026-01-20 00:50:36.29	163.71	18.31	-43.4	-45.8	24.5	6.02e-01	0	42	0	886571008	58	4713
2026-01-20 00:50:37.57	163.87	18.15	-43.4	-45.8	24.5	6.03e-01	0	42	0	888668160	58	4756
2026-01-20 00:50:38.45	163.98	18.05	-43.3	-45.7	24.6	6.04e-01	0	41	0	890241024	58	4675
2026-01-20 00:50:39.59	164.12	17.91	-43.2	-45.6	24.7	6.05e-01	0	41	0	892338176	58	4608
2026-01-20 00:50:40.45	164.23	17.81	-43.2	-45.6	24.6	6.02e-01	0	42	0	893911040	58	4650
2026-01-20 00:50:41.58	164.36	17.67	-43.3	-45.8	24.6	6.02e-01	0	42	0	896532480	58	4722
2026-01-20 00:50:42.43	164.47	17.57	-43.2	-45.7	24.6	6.02e-01	0	41	0	898105344	58	4673
2026-01-20 00:50:43.57	164.60	17.43	-43.2	-45.7	24.6	6.02e-01	0	41	0	900202496	58	4660
2026-01-20 00:50:44.43	164.70	17.33	-43.2	-45.7	24.6	6.05e-01	0	42	0	901775360	58	4652
2026-01-20 00:50:45.56	164.84	17.20	-43.2	-45.7	24.6	6.01e-01	0	42	0	903872512	58	4664
2026-01-20 00:50:46.42	164.94	17.10	-43.3	-45.7	24.5	6.03e-01	0	42	0	905445376	58	4689
2026-01-20 00:50:47.55	165.07	16.97	-43.3	-45.8	24.5	6.03e-01	0	42	0	907542528	58	4715
2026-01-20 00:50:48.41	165.17	16.87	-43.3	-45.9	24.5	6.03e-01	0	42	0	909115392	58	4760
2026-01-20 00:50:49.67	165.31	16.72	-43.3	-45.8	24.5	6.04e-01	0	42	0	911212544	58	4717
2026-01-20 00:50:50.46	165.40	16.63	-43.3	-45.8	24.5	6.02e-01	0	41	0	912785408	58	4721
2026-01-20 00:50:51.66	165.53	16.49	-43.4	-45.9	24.4	6.02e-01	0	42	0	914882560	58	4781
2026-01-20 00:50:52.51	165.63	16.40	-43.3	-45.8	24.4	6.00e-01	0	42	0	916455424	58	4750
2026-01-20 00:50:53.64	165.75	16.27	-43.2	-45.7	24.6	6.02e-01	0	41	0	919076864	58	4667
2026-01-20 00:50:54.53	165.85	16.17	-43.2	-45.6	24.6	6.04e-01	0	41	0	920649728	58	4651
2026-01-20 00:50:55.67	165.97	16.04	-43.2	-45.6	24.6	6.02e-01	0	41	0	922746880	58	4640
2026-01-20 00:50:56.52	166.06	15.95	-43.2	-45.6	24.6	6.02e-01	0	42	0	924319744	58	4649
2026-01-20 00:50:57.66	166.18	15.82	-43.3	-45.8	24.5	6.03e-01	0	41	0	926416896	58	4712
2026-01-20 00:50:58.62	166.29	15.71	-43.3	-45.8	24.5	6.02e-01	0	42	0	927989760	58	4712
2026-01-20 00:50:59.79	166.41	15.58	-43.2	-45.7	24.6	6.02e-01	0	41	0	930611200	58	4661
2026-01-20 00:51:00.65	166.50	15.49	-43.3	-45.7	24.5	6.02e-01	0	42	0	932184064	58	4681
2026-01-20 00:51:01.97	166.63	15.34	-43.3	-45.7	24.4	6.01e-01	0	41	0	934281216	58	4683
2026-01-20 00:51:02.68	166.71	15.27	-43.3	-45.8	24.5	6.00e-01	0	42	0	935854080	58	4710
2026-01-20 00:51:04.14	166.86	15.11	-43.3	-45.7	24.5	6.04e-01	0	42	0	938475520	58	4705
2026-01-20 00:51:04.85	166.93	15.03	-43.3	-45.7	24.5	6.03e-01	0	41	0	940048384	58	4701
2026-01-20 00:51:06.21	167.06	14.89	-43.4	-45.9	24.3	6.01e-01	0	42	0	942145536	58	4788
2026-01-20 00:51:06.92	167.13	14.81	-43.4	-45.9	24.3	6.05e-01	0	42	0	943718400	58	4809
2026-01-20 00:51:08.20	167.26	14.67	-43.3	-45.9	24.4	6.04e-01	0	42	0	946339840	58	4775
2026-01-20 00:51:09.30	167.37	14.56	-43.3	-45.9	24.3	6.02e-01	0	42	0	948436992	58	4810
2026-01-20 00:51:10.15	167.45	14.47	-43.4	-46.0	24.2	6.05e-01	0	42	0	950009856	58	4861
2026-01-20 00:51:11.29	167.56	14.35	-43.5	-46.1	24.2	6.02e-01	0	41	0	952107008	58	4911
2026-01-20 00:51:12.14	167.64	14.26	-43.5	-46.1	24.2	6.03e-01	0	41	0	953679872	58	4871
2026-01-20 00:51:13.30	167.75	14.14	-43.5	-46.1	24.1	6.05e-01	0	42	0	955777024	58	4886
2026-01-20 00:51:14.15	167.83	14.05	-43.5	-46.1	24.1	6.02e-01	0	41	0	957349888	58	4906
2026-01-20 00:51:15.35	167.94	13.92	-43.4	-46.0	24.2	6.05e-01	0	41	0	959447040	58	4847
2026-01-20 00:51:16.20	168.02	13.84	-43.4	-46.0	24.2	6.02e-01	0	41	0	961019904	58	4866
2026-01-20 00:51:17.34	168.13	13.72	-43.4	-46.1	24.1	6.04e-01	0	41	0	963117056	58	4873
2026-01-20 00:51:18.19	168.21	13.63	-43.5	-46.1	24.1	6.03e-01	0	42	0	964689920	58	4924
2026-01-20 00:51:19.47	168.32	13.50	-43.4	-46.0	24.1	6.05e-01	0	41	0	967311360	58	4864
2026-01-20 00:51:20.19	168.39	13.43	-43.3	-46.0	24.2	6.00e-01	0	42	0	968884224	58	4846
2026-01-20 00:51:21.66	168.52	13.28	-43.4	-46.0	24.2	6.03e-01	0	41	0	971505664	58	4850
2026-01-20 00:51:22.37	168.58	13.21	-43.5	-46.0	24.2	6.02e-01	0	41	0	972554240	58	4862
2026-01-20 00:51:23.71	168.70	13.07	-43.6	-46.2	24.0	6.00e-01	0	41	0	975175680	58	4932
2026-01-20 00:51:24.42	168.76	13.00	-43.6	-46.1	24.1	6.02e-01	0	42	0	976748544	58	4892
2026-01-20 00:51:25.77	168.88	12.87	-43.5	-46.0	24.2	6.02e-01	0	42	0	979369984	58	4837
2026-01-20 00:51:26.48	168.94	12.80	-43.5	-46.0	24.2	6.04e-01	0	41	0	980418560	58	4849
2026-01-20 00:51:27.82	169.06	12.67	-43.5	-46.0	24.2	6.05e-01	0	41	0	983040000	58	4853
2026-01-20 00:51:28.53	169.12	12.60	-43.5	-46.1	24.1	6.07e-01	0	41	0	984088576	58	4890
2026-01-20 00:51:29.81	169.22	12.47	-43.5	-46.1	24.1	6.02e-01	0	42	0	986710016	58	4896
2026-01-20 00:51:30.52	169.28	12.40	-43.6	-46.2	24.1	6.03e-01	0	42	0	988282880	58	4945
2026-01-20 00:51:31.80	169.39	12.28	-43.5	-46.2	24.0	6.00e-01	0	41	0	990380032	58	4927
2026-01-20 00:51:32.51	169.45	12.21	-43.5	-46.2	24.0	6.03e-01	0	42	0	991952896	58	4938
2026-01-20 00:51:33.79	169.55	12.09	-43.6	-46.3	22.8	6.03e-01	0	42	0	994050048	58	4993
2026-01-20 00:51:34.51	169.61	12.02	-43.5	-46.2	24.0	6.06e-01	0	42	0	995622912	58	4947
2026-01-20 00:51:35.79	169.72	11.90	-43.5	-46.3	23.9	6.07e-01	0	42	0	997720064	58	4988
2026-01-20 00:51:36.52	169.78	11.83	-43.5	-46.3	23.9	6.02e-01	0	41	0	999292928	58	4989
2026-01-20 00:51:37.80	169.88	11.71	-43.5	-46.3	23.9	6.03e-01	0	41	0	1001390080	58	5035
2026-01-20 00:51:38.62	169.94	11.63	-43.4	-46.3	23.8	6.01e-01	0	41	0	1003487232	58	5014
2026-01-20 00:51:39.76	170.03	11.52	-43.3	-46.3	23.8	6.02e-01	0	42	0	1005060096	58	5036
2026-01-20 00:51:40.61	170.10	11.44	-43.3	-46.4	23.8	6.02e-01	0	42	0	1007157248	58	5065
2026-01-20 00:51:42.14	170.22	11.30	-43.2	-46.5	23.7	6.05e-01	0	42	0	1009778688	58	5103
2026-01-20 00:51:42.85	170.28	11.23	-43.1	-46.6	21.5	6.02e-01	0	41	0	1011351552	58	5172
2026-01-20 00:51:44.13	170.37	11.11	-43.0	-46.6	23.6	6.03e-01	0	42	0	1013448704	57	5472
2026-01-20 00:51:44.85	170.43	11.05	-42.9	-46.6	23.5	6.04e-01	0	42	0	1015021568	57	5483
2026-01-20 00:51:46.13	170.53	10.93	-42.8	-46.5	23.6	6.04e-01	0	42	0	1017118720	57	5443
2026-01-20 00:51:46.88	170.58	10.86	-42.8	-46.5	23.7	6.04e-01	0	42	0	1018691584	57	5403
2026-01-20 00:51:48.16	170.68	10.75	-42.9	-46.6	23.6	6.02e-01	0	42	0	1021313024	57	5482
2026-01-20 00:51:48.97	170.74	10.67	-42.8	-46.5	23.6	6.01e-01	0	42	0	1022885888	57	5410
2026-01-20 00:51:50.10	170.82	10.57	-42.9	-46.6	23.5	6.04e-01	0	42	0	1024458752	57	5485
2026-01-20 00:51:50.95	170.88	10.49	-43.0	-46.7	23.4	6.02e-01	0	42	0	1026555904	57	5543
2026-01-20 00:51:52.09	170.97	10.39	-42.9	-46.7	23.4	6.02e-01	0	42	0	1028653056	57	5529
2026-01-20 00:51:52.94	171.03	10.31	-42.9	-46.6	23.4	6.03e-01	0	42	0	1030225920	57	5518
2026-01-20 00:51:54.08	171.11	10.21	-43.0	-46.7	23.3	6.02e-01	0	42	0	1032323072	57	5577
2026-01-20 00:51:54.93	171.17	10.14	-43.0	-46.8	23.3	6.00e-01	0	42	0	1033895936	57	5615
2026-01-20 00:51:56.06	171.25	10.04	-42.9	-46.7	23.4	6.02e-01	0	42	0	1035993088	57	5531
2026-01-20 00:51:57.31	171.34	9.93	-42.9	-46.8	23.3	6.03e-01	0	42	0	1038090240	57	5594
2026-01-20 00:51:58.34	171.41	9.84	-43.0	-46.8	23.3	6.02e-01	0	42	0	1040187392	57	5637
2026-01-20 00:51:59.33	171.48	9.75	-43.0	-46.8	23.3	6.01e-01	0	42	0	1042284544	57	5646
2026-01-20 00:52:00.53	171.57	9.65	-43.0	-46.9	23.3	6.00e-01	0	42	0	1044381696	57	5673
2026-01-20 00:52:01.39	171.62	9.57	-43.0	-47.0	23.1	6.03e-01	0	42	0	1045954560	57	5744
2026-01-20 00:52:02.52	171.70	9.47	-43.0	-46.8	23.3	6.06e-01	0	42	0	1048051712	57	5635
2026-01-20 00:52:03.37	171.76	9.40	-43.0	-46.8	23.2	6.01e-01	0	42	0	1049624576	57	5636
2026-01-20 00:52:04.51	171.84	9.30	-43.0	-47.0	23.1	6.03e-01	0	42	0	1051721728	57	5729
2026-01-20 00:52:05.36	171.89	9.23	-43.0	-46.9	23.1	6.01e-01	0	41	0	1053294592	57	5664
2026-01-20 00:52:06.50	171.97	9.13	-43.0	-47.0	23.1	6.01e-01	0	42	0	1055391744	57	5761
2026-01-20 00:52:07.35	172.03	9.06	-42.9	-46.9	23.2	6.02e-01	0	42	0	1056964608	57	5685
2026-01-20 00:52:08.49	172.10	8.96	-43.0	-47.2	23.0	6.02e-01	0	41	0	1059061760	57	5882
2026-01-20 00:52:09.34	172.16	8.89	-46.7	-70.0	3.7	7.47e-01	0	42	104	1060110336	64	54488
2026-01-20 00:52:10.47	172.23	8.80	-50.4	-70.8	3.7	7.43e-01	0	42	104	1060110336	72	37462
2026-01-20 00:52:11.33	172.29	8.72	-51.1	-71.5	3.8	7.46e-01	0	42	104	1060110336	72	40637
2026-01-20 00:52:12.53	172.36	8.62	-51.1	-71.9	3.8	7.47e-01	0	42	104	1060110336	73	40497
2026-01-20 00:52:13.38	172.42	8.55	-51.5	-72.0	3.8	7.44e-01	0	42	104	1060110336	73	40739
2026-01-20 00:52:14.61	172.50	8.45	-52.0	-72.1	3.8	7.46e-01	0	42	104	1060110336	74	38874
2026-01-20 00:52:15.46	172.55	8.38	-52.1	-72.1	3.8	7.46e-01	0	42	104	1060110336	74	38980
2026-01-20 00:52:16.66	172.63	8.28	-51.9	-72.1	3.8	7.46e-01	0	42	104	1060110336	75	36880
2026-01-20 00:52:17.51	172.68	8.21	-51.9	-72.2	3.8	7.48e-01	0	42	104	1060110336	75	36985
2026-01-20 00:52:18.69	172.75	8.12	-51.9	-72.2	3.8	7.46e-01	0	42	104	1060110336	75	36983
2026-01-20 00:52:19.54	172.81	8.05	-52.2	-72.2	3.8	7.46e-01	0	42	104	1060110336	75	37066
2026-01-20 00:52:20.68	172.88	7.95	-52.1	-72.2	3.8	7.47e-01	0	42	104	1060110336	75	37153
2026-01-20 00:52:21.53	172.93	7.89	-52.1	-72.2	3.8	7.47e-01	0	42	104	1060110336	75	37246
2026-01-20 00:52:22.67	173.00	7.79	-52.2	-72.2	3.8	7.44e-01	0	42	104	1060110336	75	37213
2026-01-20 00:52:23.52	173.05	7.72	-52.3	-72.2	3.8	7.47e-01	0	42	104	1060110336	75	37129
2026-01-20 00:52:24.65	173.12	7.63	-51.8	-72.2	3.8	7.46e-01	0	42	104	1060110336	75	37234
2026-01-20 00:52:25.50	173.17	7.57	-52.4	-72.2	3.8	7.44e-01	0	42	104	1060110336	75	37204
2026-01-20 00:52:26.64	173.23	7.48	-51.8	-72.2	3.8	7.44e-01	0	42	104	1060110336	75	37222
2026-01-20 00:52:27.49	173.28	7.41	-52.4	-72.2	3.8	7.46e-01	0	42	104	1060110336	75	37272
2026-01-20 00:52:28.63	173.35	7.32	-52.0	-72.2	3.8	7.47e-01	0	42	104	1060110336	74	39400
2026-01-20 00:52:29.48	173.40	7.25	-51.9	-72.2	3.8	7.46e-01	0	42	104	1060110336	74	39439
2026-01-20 00:52:30.61	173.47	7.16	-52.3	-72.2	3.8	7.44e-01	0	42	104	1060110336	75	37328
2026-01-20 00:52:31.46	173.52	7.09	-52.1	-72.2	3.8	7.46e-01	0	42	104	1060110336	75	37254
2026-01-20 00:52:32.60	173.58	7.01	-52.3	-72.2	3.8	7.48e-01	0	42	104	1060110336	75	37272
2026-01-20 00:52:33.45	173.63	6.94	-52.1	-72.2	3.8	7.49e-01	0	42	104	1060110336	75	37206
2026-01-20 00:52:34.62	173.70	6.85	-51.7	-72.3	3.8	7.46e-01	0	42	104	1060110336	75	37392
2026-01-20 00:52:35.47	173.74	6.78	-51.1	-72.2	3.8	7.45e-01	0	42	104	1060110336	74	39557
2026-01-20 00:52:36.69	173.81	6.69	-51.1	-72.2	3.8	7.47e-01	0	42	104	1060110336	74	39342
2026-01-20 00:52:37.54	173.86	6.62	-51.3	-72.2	3.8	7.48e-01	0	42	104	1060110336	74	39271
2026-01-20 00:52:38.67	173.92	6.54	-51.3	-72.2	3.8	7.49e-01	0	42	104	1060110336	74	39223
2026-01-20 00:52:39.52	173.97	6.47	-51.3	-72.2	3.8	7.47e-01	0	42	104	1060110336	74	39185
2026-01-20 00:52:40.66	174.03	6.38	-51.3	-72.2	3.8	7.45e-01	0	42	104	1060110336	74	39193
2026-01-20 00:52:41.51	174.08	6.32	-51.3	-72.2	3.8	7.47e-01	0	42	104	1060110336	74	39227
2026-01-20 00:52:42.65	174.14	6.23	-51.3	-72.2	3.8	7.43e-01	0	42	104	1060110336	74	39235
2026-01-20 00:52:43.50	174.19	6.17	-51.3	-72.2	3.8	7.48e-01	0	42	104	1060110336	74	39191
2026-01-20 00:52:44.64	174.25	6.08	-51.3	-72.2	3.8	7.48e-01	0	42	104	1060110336	74	39155
2026-01-20 00:52:45.49	174.29	6.02	-51.3	-72.2	3.8	7.46e-01	0	42	104	1060110336	74	39213
2026-01-20 00:52:46.62	174.35	5.93	-51.3	-72.2	3.8	7.49e-01	0	42	104	1060110336	74	39160
2026-01-20 00:52:47.47	174.40	5.87	-51.3	-72.1	3.8	7.44e-01	0	42	104	1060110336	74	39035
2026-01-20 00:52:48.61	174.46	5.78	-51.3	-72.1	3.8	7.45e-01	0	42	104	1060110336	74	39067
2026-01-20 00:52:49.46	174.50	5.72	-51.3	-72.2	3.8	7.44e-01	0	42	104	1060110336	74	39188
2026-01-20 00:52:50.59	174.56	5.64	-51.3	-72.2	3.8	7.45e-01	0	42	104	1060110336	74	39139
2026-01-20 00:52:51.44	174.61	5.57	-51.3	-72.1	3.8	7.41e-01	0	42	104	1060110336	74	39077
2026-01-20 00:52:52.58	174.67	5.49	-51.3	-72.1	3.8	7.47e-01	0	42	104	1060110336	74	39105
2026-01-20 00:52:53.43	174.71	5.43	-51.3	-72.1	3.8	7.47e-01	0	42	104	1060110336	74	39090
2026-01-20 00:52:54.57	174.77	5.35	-51.3	-72.1	3.8	7.44e-01	0	42	104	1060110336	74	39058
2026-01-20 00:52:55.42	174.81	5.28	-51.3	-72.1	3.8	7.46e-01	0	42	104	1060110336	74	39129
2026-01-20 00:52:56.55	174.87	5.20	-51.3	-72.1	3.8	7.45e-01	0	42	104	1060110336	74	39066
2026-01-20 00:52:57.41	174.91	5.14	-51.3	-72.2	3.8	7.45e-01	0	42	104	1060110336	74	39148
2026-01-20 00:52:58.54	174.97	5.06	-51.3	-72.1	3.8	7.45e-01	0	42	104	1060110336	74	39090
2026-01-20 00:52:59.39	175.01	4.99	-51.3	-72.1	3.8	7.46e-01	0	42	104	1060110336	74	39043

#Closed at: 2026-01-20 00:53:00
#Recorded file [1060 MB]: D:/Data/31040_260120_034155.dat