passes_logs/2026/01/20/T1/T1__20260120_113439_NOAA_20_JPSS-1_rec.log

#Pass ID: 20260120_113439_NOAA 20 (JPSS-1)
#Satellite: NOAA 20 (JPSS-1)
#Configuration: NOAA 20
#almurnet v.1.7.20251203
#Start time: 2026-01-20 11:34:40

#Version: 2.0.20230620
#Station: T1
#Location: 37.570604 lon 55.790049 lat
#TLE: 1 43013U 17073A   26019.55911981  .00000079  00000+0  58510-4 0  9994
#TLE: 2 43013  98.7641 320.4504 0001323  32.6518 327.4739 14.19537050423380

#Time	Az	El	Level	Level2	SNR	BER	BlckErr	Temp	State	Recorded	gain1	gain2
2026-01-20 11:34:40.22	214.92	5.07	-47.9	-64.9	3.8	1.49e+00	0	41	0	0	67	25441
2026-01-20 11:34:41.21	215.01	5.13	-47.9	-64.8	3.8	1.49e+00	0	41	104	0	66	26756
2026-01-20 11:34:42.20	215.10	5.18	-47.8	-64.9	3.8	1.49e+00	0	41	104	0	66	26900
2026-01-20 11:34:43.20	215.20	5.24	-47.9	-64.9	3.8	1.49e+00	0	42	104	0	66	26822
2026-01-20 11:34:44.19	215.29	5.30	-47.9	-64.9	3.8	1.49e+00	0	42	104	0	66	26846
2026-01-20 11:34:45.19	215.38	5.36	-47.8	-64.8	3.8	1.49e+00	0	42	104	0	66	26724
2026-01-20 11:34:46.18	215.48	5.41	-47.9	-64.8	3.8	1.49e+00	0	42	104	0	66	26765
2026-01-20 11:34:47.17	215.57	5.47	-47.9	-64.9	3.8	1.49e+00	0	42	104	0	66	26853
2026-01-20 11:34:48.17	215.66	5.53	-47.9	-64.8	3.8	1.49e+00	0	42	104	0	66	26723
2026-01-20 11:34:49.16	215.76	5.59	-47.9	-64.8	3.8	1.49e+00	0	42	104	0	66	26748
2026-01-20 11:34:50.15	215.85	5.64	-47.9	-64.8	3.8	1.49e+00	0	42	104	0	66	26665
2026-01-20 11:34:51.15	215.95	5.70	-47.8	-64.8	3.8	1.49e+00	0	42	104	0	66	26634
2026-01-20 11:34:52.14	216.04	5.76	-47.8	-64.8	3.8	1.49e+00	0	42	104	0	66	26548
2026-01-20 11:34:53.14	216.14	5.82	-47.9	-64.8	3.8	1.49e+00	0	42	104	0	66	26681
2026-01-20 11:34:54.13	216.24	5.88	-47.9	-64.8	3.8	1.49e+00	0	42	104	0	66	26745
2026-01-20 11:34:55.12	216.33	5.93	-47.9	-64.9	3.8	1.49e+00	0	42	104	0	66	26783
2026-01-20 11:34:56.12	216.43	5.99	-47.8	-64.8	3.8	1.49e+00	0	42	104	0	66	26761
2026-01-20 11:34:57.11	216.53	6.05	-47.9	-64.8	3.8	1.49e+00	0	42	104	0	66	26731
2026-01-20 11:34:58.10	216.63	6.11	-47.9	-64.8	3.8	1.49e+00	0	42	104	0	66	26527
2026-01-20 11:34:59.10	216.72	6.17	-47.8	-64.8	3.8	1.49e+00	0	42	104	0	66	26640
2026-01-20 11:35:00.09	216.82	6.22	-47.9	-64.8	3.8	1.49e+00	0	42	104	0	66	26533
2026-01-20 11:35:01.09	216.92	6.28	-47.8	-64.8	3.8	1.49e+00	0	42	104	0	66	26523
2026-01-20 11:35:02.08	217.02	6.34	-47.8	-64.8	3.8	1.49e+00	0	42	104	0	66	26586
2026-01-20 11:35:03.07	217.12	6.40	-47.8	-64.8	3.8	1.49e+00	0	42	104	0	66	26525
2026-01-20 11:35:04.07	217.22	6.46	-47.9	-64.8	3.8	1.49e+00	0	42	104	0	66	26520
2026-01-20 11:35:05.06	217.32	6.52	-47.9	-64.8	3.8	1.49e+00	0	42	104	0	66	26596
2026-01-20 11:35:06.05	217.42	6.57	-47.8	-64.8	3.8	1.49e+00	0	42	104	0	66	26755
2026-01-20 11:35:07.05	217.52	6.63	-47.8	-64.9	3.8	1.49e+00	0	43	104	0	66	26785
2026-01-20 11:35:08.04	217.63	6.69	-47.9	-64.9	3.8	1.49e+00	0	42	104	0	66	26811
2026-01-20 11:35:09.03	217.73	6.75	-47.8	-64.9	3.8	1.49e+00	0	42	104	0	66	27058
2026-01-20 11:35:10.03	217.83	6.81	-47.9	-64.9	3.8	1.49e+00	0	42	104	0	66	26888
2026-01-20 11:35:11.02	217.93	6.87	-47.9	-64.9	3.8	1.49e+00	0	42	104	0	66	26843
2026-01-20 11:35:12.02	218.04	6.93	-47.9	-64.8	3.8	1.49e+00	0	43	104	0	66	26599
2026-01-20 11:35:13.01	218.14	6.99	-47.9	-64.8	3.8	1.49e+00	0	43	104	0	66	26497
2026-01-20 11:35:14.00	218.25	7.05	-47.9	-64.6	3.8	1.49e+00	0	43	104	0	66	26147
2026-01-20 11:35:15.00	218.35	7.11	-47.8	-64.6	3.8	1.49e+00	0	43	104	0	66	26150
2026-01-20 11:35:15.99	218.46	7.16	-47.8	-64.6	3.8	1.49e+00	0	43	104	0	66	26144
2026-01-20 11:35:16.98	218.56	7.22	-47.8	-64.7	3.8	1.49e+00	0	43	104	0	66	26282
2026-01-20 11:35:17.98	218.67	7.28	-47.8	-64.7	3.8	1.49e+00	0	43	104	0	66	26236
2026-01-20 11:35:18.97	218.77	7.34	-47.8	-64.7	3.8	1.49e+00	0	43	104	0	66	26239
2026-01-20 11:35:19.96	218.88	7.40	-47.8	-64.7	3.8	1.49e+00	0	43	104	0	66	26183
2026-01-20 11:35:20.96	218.99	7.46	-47.8	-64.6	3.8	1.49e+00	0	43	104	0	66	26132
2026-01-20 11:35:21.95	219.09	7.52	-47.9	-64.6	3.8	1.49e+00	0	43	104	0	66	25972
2026-01-20 11:35:22.94	219.20	7.58	-47.8	-64.6	3.8	1.49e+00	0	43	104	0	66	26052
2026-01-20 11:35:23.94	219.31	7.64	-47.8	-64.6	3.8	1.49e+00	0	43	104	0	66	25984
2026-01-20 11:35:24.93	219.42	7.70	-47.8	-64.6	3.8	1.49e+00	0	43	104	0	66	25985
2026-01-20 11:35:25.92	219.53	7.76	-47.8	-64.6	3.8	1.49e+00	0	43	104	0	66	25914
2026-01-20 11:35:26.92	219.64	7.82	-47.8	-64.3	3.8	1.49e+00	0	43	104	0	66	25171
2026-01-20 11:35:27.91	219.75	7.88	-47.8	-63.9	3.8	1.49e+00	0	43	104	0	66	23998
2026-01-20 11:35:28.90	219.86	7.94	-47.8	-63.4	3.8	1.49e+00	0	43	104	0	66	22689
2026-01-20 11:35:29.90	219.97	8.00	-47.8	-63.4	3.8	1.49e+00	0	43	104	0	66	22558
2026-01-20 11:35:30.89	220.08	8.06	-47.7	-63.8	3.8	1.49e+00	0	43	104	0	66	23609
2026-01-20 11:35:31.88	220.19	8.12	-47.8	-64.6	3.8	1.49e+00	0	43	104	0	66	26005
2026-01-20 11:35:32.88	220.31	8.18	-47.8	-64.6	3.8	1.49e+00	0	43	104	0	66	26088
2026-01-20 11:35:33.87	220.42	8.24	-47.7	-62.1	4.0	1.49e+00	0	43	104	0	66	19604
2026-01-20 11:35:34.86	220.53	8.30	-47.5	-58.4	5.5	1.25e+00	0	43	0	1048576	66	12712
2026-01-20 11:35:35.86	220.64	8.36	-46.9	-55.0	8.4	1.03e-01	0	43	0	2097152	65	9146
2026-01-20 11:35:36.85	220.76	8.42	-46.3	-52.8	10.8	1.11e-02	0	43	0	4194304	64	7478
2026-01-20 11:35:37.85	220.87	8.48	-45.7	-51.0	12.7	7.74e-04	0	43	0	6291456	63	6472
2026-01-20 11:35:38.84	220.99	8.54	-45.2	-50.0	13.7	1.06e-05	0	43	0	8388608	62	6105
2026-01-20 11:35:39.83	221.10	8.60	-45.0	-49.5	14.2	2.20e-06	0	43	0	10485760	62	5768
2026-01-20 11:35:40.83	221.22	8.66	-44.9	-49.3	14.4	0.00e+00	0	43	0	11534336	61	5954
2026-01-20 11:35:41.82	221.34	8.72	-45.0	-49.5	14.2	7.00e-07	0	43	0	13631488	61	6077
2026-01-20 11:35:42.81	221.45	8.78	-45.3	-50.2	13.6	2.20e-06	0	43	0	15728640	61	6598
2026-01-20 11:35:43.81	221.57	8.84	-45.8	-51.3	12.4	4.65e-05	0	43	0	17825792	62	7046
2026-01-20 11:35:44.80	221.69	8.90	-46.3	-52.5	11.2	4.90e-04	0	43	0	18874368	63	7669
2026-01-20 11:35:45.79	221.81	8.96	-46.7	-54.2	9.3	1.13e-02	0	43	0	20971520	64	8812
2026-01-20 11:35:46.79	221.93	9.02	-47.0	-56.0	7.6	6.05e-02	0	43	0	23068672	64	10822
2026-01-20 11:35:47.78	222.04	9.09	-45.7	-50.0	13.7	7.72e-02	0	43	0	25165824	63	5763
2026-01-20 11:35:48.78	222.16	9.15	-46.2	-51.1	12.8	7.00e-07	0	43	0	27262976	63	6515
2026-01-20 11:35:49.78	222.29	9.21	-47.7	-58.8	5.3	1.15e-01	0	43	0	28311552	66	13354
2026-01-20 11:35:50.77	222.41	9.27	-48.3	-58.5	5.5	6.64e-01	0	43	0	30408704	67	12172
2026-01-20 11:35:51.76	222.53	9.33	-46.0	-50.0	13.8	3.04e-01	0	43	0	32505856	64	5463
2026-01-20 11:35:52.76	222.65	9.39	-46.1	-50.1	13.7	1.29e-05	0	43	0	34603008	64	5505
2026-01-20 11:35:53.75	222.77	9.45	-46.2	-50.2	13.5	1.67e-05	0	43	0	35651584	64	5580
2026-01-20 11:35:54.75	222.89	9.51	-45.9	-49.5	14.3	4.50e-06	0	43	0	37748736	63	5460
2026-01-20 11:35:55.74	223.02	9.57	-45.8	-49.5	14.5	1.50e-06	0	43	0	39845888	63	5405
2026-01-20 11:35:56.74	223.14	9.64	-45.8	-49.4	14.6	7.00e-07	0	43	0	41943040	63	5352
2026-01-20 11:35:57.73	223.27	9.70	-45.9	-49.5	14.4	7.00e-07	0	43	0	44040192	63	5453
2026-01-20 11:35:58.73	223.39	9.76	-45.8	-49.3	14.7	0.00e+00	0	43	0	45088768	63	5288
2026-01-20 11:35:59.72	223.52	9.82	-45.7	-49.1	14.9	7.00e-07	0	43	0	47185920	63	5208
2026-01-20 11:36:00.72	223.64	9.88	-45.5	-48.9	15.1	0.00e+00	0	43	0	49283072	63	5052
2026-01-20 11:36:01.72	223.77	9.94	-45.2	-48.3	15.7	0.00e+00	0	43	0	51380224	62	5018
2026-01-20 11:36:02.71	223.90	10.00	-45.2	-48.3	15.7	0.00e+00	0	43	0	52428800	62	5029
2026-01-20 11:36:03.71	224.02	10.06	-45.1	-48.3	15.8	0.00e+00	0	43	0	54525952	62	5007
2026-01-20 11:36:04.70	224.15	10.13	-44.9	-48.0	16.1	0.00e+00	0	43	0	56623104	61	5101
2026-01-20 11:36:05.70	224.28	10.19	-44.8	-47.8	16.3	0.00e+00	0	43	0	58720256	61	4991
2026-01-20 11:36:06.69	224.41	10.25	-44.8	-47.8	16.2	0.00e+00	0	43	0	60817408	61	5028
2026-01-20 11:36:07.69	224.54	10.31	-44.7	-47.7	16.3	0.00e+00	0	43	0	61865984	61	4950
2026-01-20 11:36:08.68	224.67	10.37	-44.8	-47.8	16.3	0.00e+00	0	43	0	63963136	61	5018
2026-01-20 11:36:09.68	224.80	10.43	-44.9	-47.9	16.2	0.00e+00	0	43	0	66060288	61	5065
2026-01-20 11:36:10.67	224.93	10.50	-44.9	-47.9	16.1	0.00e+00	0	43	0	68157440	61	5100
2026-01-20 11:36:11.66	225.06	10.56	-45.0	-48.0	16.1	0.00e+00	0	43	0	69206016	61	5129
2026-01-20 11:36:12.66	225.19	10.62	-44.9	-48.0	16.1	0.00e+00	0	43	0	71303168	61	5111
2026-01-20 11:36:13.66	225.33	10.68	-44.8	-47.8	16.2	0.00e+00	0	43	0	73400320	61	5035
2026-01-20 11:36:14.65	225.46	10.74	-44.9	-47.8	16.2	0.00e+00	0	43	0	75497472	61	5038
2026-01-20 11:36:15.65	225.59	10.80	-44.9	-47.9	16.2	0.00e+00	0	43	0	77594624	61	5093
2026-01-20 11:36:16.64	225.73	10.87	-44.8	-47.8	16.3	0.00e+00	0	43	0	78643200	61	5015
2026-01-20 11:36:17.63	225.86	10.93	-44.7	-47.6	16.5	0.00e+00	0	43	0	80740352	61	4924
2026-01-20 11:36:18.63	226.00	10.99	-44.7	-47.6	16.6	0.00e+00	0	43	0	82837504	61	4876
2026-01-20 11:36:19.62	226.13	11.05	-44.6	-47.4	16.7	0.00e+00	0	43	0	84934656	61	4807
2026-01-20 11:36:20.62	226.27	11.11	-44.5	-47.3	16.8	0.00e+00	0	43	0	85983232	61	4758
2026-01-20 11:36:21.61	226.41	11.17	-44.4	-47.3	16.8	0.00e+00	0	43	0	88080384	60	4987
2026-01-20 11:36:22.61	226.55	11.24	-44.4	-47.2	16.9	0.00e+00	0	43	0	90177536	60	4965
2026-01-20 11:36:23.60	226.68	11.30	-44.4	-47.2	16.9	0.00e+00	0	43	0	92274688	60	4955
2026-01-20 11:36:24.60	226.82	11.36	-44.4	-47.2	16.9	0.00e+00	0	43	0	94371840	60	4959
2026-01-20 11:36:25.60	226.96	11.42	-44.4	-47.3	16.9	0.00e+00	0	43	0	95420416	60	4989
2026-01-20 11:36:26.59	227.10	11.48	-44.4	-47.2	16.9	0.00e+00	0	43	0	97517568	60	4959
2026-01-20 11:36:27.59	227.24	11.55	-44.4	-47.3	16.9	0.00e+00	0	43	0	99614720	60	4988
2026-01-20 11:36:28.58	227.38	11.61	-44.4	-47.2	16.9	0.00e+00	0	43	0	101711872	60	4978
2026-01-20 11:36:29.58	227.53	11.67	-44.4	-47.2	16.9	0.00e+00	0	43	0	102760448	60	4955
2026-01-20 11:36:30.57	227.67	11.73	-44.4	-47.2	17.0	0.00e+00	0	43	0	104857600	60	4937
2026-01-20 11:36:31.57	227.81	11.79	-44.5	-47.3	16.9	0.00e+00	0	43	0	106954752	60	5006
2026-01-20 11:36:32.56	227.95	11.85	-44.4	-47.1	17.0	0.00e+00	0	43	0	109051904	60	4910
2026-01-20 11:36:33.56	228.10	11.92	-44.4	-47.1	17.0	0.00e+00	0	43	0	111149056	60	4911
2026-01-20 11:36:34.55	228.24	11.98	-44.4	-47.1	17.0	0.00e+00	0	43	0	112197632	60	4926
2026-01-20 11:36:35.55	228.39	12.04	-44.4	-47.2	17.0	0.00e+00	0	43	0	114294784	60	4956
2026-01-20 11:36:36.54	228.53	12.10	-44.5	-47.2	17.0	0.00e+00	0	43	0	116391936	60	4958
2026-01-20 11:36:37.54	228.68	12.16	-44.5	-47.2	17.0	0.00e+00	0	43	0	118489088	60	4965
2026-01-20 11:36:38.53	228.83	12.22	-44.5	-47.3	16.9	0.00e+00	0	43	0	120586240	60	4988
2026-01-20 11:36:39.53	228.97	12.29	-44.4	-47.1	17.0	0.00e+00	0	43	0	121634816	60	4926
2026-01-20 11:36:40.52	229.12	12.35	-44.4	-47.2	16.9	0.00e+00	0	43	0	123731968	60	4963
2026-01-20 11:36:41.52	229.27	12.41	-44.4	-47.1	17.1	0.00e+00	0	43	0	125829120	60	4925
2026-01-20 11:36:42.52	229.42	12.47	-44.4	-47.1	17.0	0.00e+00	0	43	0	127926272	60	4926
2026-01-20 11:36:43.51	229.57	12.53	-44.4	-47.1	17.1	0.00e+00	0	43	0	128974848	60	4914
2026-01-20 11:36:44.50	229.72	12.60	-44.3	-47.1	17.1	0.00e+00	0	43	0	131072000	60	4883
2026-01-20 11:36:45.50	229.87	12.66	-44.4	-47.2	17.1	0.00e+00	0	43	0	133169152	60	4929
2026-01-20 11:36:46.50	230.03	12.72	-44.4	-47.2	17.1	0.00e+00	0	43	0	135266304	60	4928
2026-01-20 11:36:47.49	230.18	12.78	-44.4	-47.1	17.1	0.00e+00	0	43	0	137363456	60	4907
2026-01-20 11:36:48.49	230.33	12.84	-44.4	-47.1	17.1	0.00e+00	0	44	0	138412032	60	4926
2026-01-20 11:36:49.48	230.48	12.90	-44.4	-47.2	17.0	0.00e+00	0	43	0	140509184	60	4945
2026-01-20 11:36:50.48	230.64	12.97	-44.5	-47.3	16.9	0.00e+00	0	43	0	142606336	60	5035
2026-01-20 11:36:51.47	230.79	13.03	-44.6	-47.4	16.8	0.00e+00	0	43	0	144703488	60	5073
2026-01-20 11:36:52.47	230.95	13.09	-44.6	-47.4	16.8	0.00e+00	0	44	0	145752064	60	5098
2026-01-20 11:36:53.46	231.10	13.15	-44.5	-47.3	17.0	0.00e+00	0	43	0	147849216	60	4990
2026-01-20 11:36:54.46	231.26	13.21	-44.4	-47.2	17.0	0.00e+00	0	43	0	149946368	60	4978
2026-01-20 11:36:55.45	231.42	13.27	-44.4	-47.2	17.1	0.00e+00	0	43	0	152043520	60	4936
2026-01-20 11:36:56.45	231.58	13.33	-44.4	-47.2	17.0	0.00e+00	0	43	0	154140672	60	4948
2026-01-20 11:36:57.45	231.74	13.40	-44.2	-46.9	17.3	0.00e+00	0	43	0	155189248	60	4785
2026-01-20 11:36:58.44	231.90	13.46	-44.3	-47.0	17.3	0.00e+00	0	43	0	157286400	60	4820
2026-01-20 11:36:59.44	232.06	13.52	-44.1	-46.8	17.5	0.00e+00	0	44	0	159383552	60	4708
2026-01-20 11:37:00.43	232.22	13.58	-44.2	-46.8	17.4	0.00e+00	0	43	0	161480704	60	4757
2026-01-20 11:37:01.42	232.38	13.64	-44.2	-46.9	17.4	0.00e+00	0	43	0	162529280	60	4789
2026-01-20 11:37:02.42	232.54	13.70	-44.2	-46.9	17.3	0.00e+00	0	43	0	164626432	60	4793
2026-01-20 11:37:03.41	232.70	13.76	-44.2	-47.0	17.3	0.00e+00	0	44	0	166723584	60	4828
2026-01-20 11:37:04.41	232.87	13.82	-44.2	-46.8	17.4	0.00e+00	0	43	0	168820736	60	4752
2026-01-20 11:37:05.40	233.03	13.88	-44.2	-46.9	17.3	0.00e+00	0	43	0	170917888	60	4814
2026-01-20 11:37:06.40	233.19	13.94	-44.2	-46.8	17.4	0.00e+00	0	43	0	171966464	60	4759
2026-01-20 11:37:07.39	233.36	14.00	-44.2	-46.9	17.4	0.00e+00	0	43	0	174063616	60	4787
2026-01-20 11:37:08.39	233.53	14.06	-44.3	-47.0	17.2	0.00e+00	0	43	0	176160768	60	4864
2026-01-20 11:37:09.38	233.69	14.12	-44.3	-47.0	17.2	0.00e+00	0	43	0	178257920	60	4849
2026-01-20 11:37:10.38	233.86	14.19	-44.3	-47.1	17.2	0.00e+00	0	43	0	179306496	60	4880
2026-01-20 11:37:11.38	234.03	14.25	-44.4	-47.1	17.2	0.00e+00	0	44	0	181403648	60	4896
2026-01-20 11:37:12.37	234.20	14.31	-44.3	-47.1	17.2	0.00e+00	0	43	0	183500800	60	4882
2026-01-20 11:37:13.37	234.37	14.37	-44.4	-47.2	17.1	0.00e+00	0	43	0	185597952	60	4939
2026-01-20 11:37:14.36	234.53	14.43	-44.5	-47.3	17.0	0.00e+00	0	43	0	187695104	60	4995
2026-01-20 11:37:15.36	234.71	14.49	-44.4	-47.2	17.1	0.00e+00	0	43	0	188743680	60	4940
2026-01-20 11:37:16.35	234.88	14.55	-44.5	-47.3	17.0	0.00e+00	0	44	0	190840832	60	4998
2026-01-20 11:37:17.35	235.05	14.61	-44.3	-47.1	17.2	0.00e+00	0	43	0	192937984	60	4903
2026-01-20 11:37:18.34	235.22	14.67	-44.2	-46.9	17.3	0.00e+00	0	43	0	195035136	60	4805
2026-01-20 11:37:19.34	235.39	14.73	-44.2	-46.9	17.3	0.00e+00	0	43	0	196083712	60	4803
2026-01-20 11:37:20.33	235.57	14.79	-44.2	-47.0	17.3	0.00e+00	0	43	0	198180864	60	4815
2026-01-20 11:37:21.33	235.74	14.85	-44.2	-46.9	17.4	0.00e+00	0	43	0	200278016	60	4769
2026-01-20 11:37:22.32	235.92	14.90	-44.2	-46.9	17.4	0.00e+00	0	43	0	202375168	60	4779
2026-01-20 11:37:23.32	236.09	14.96	-44.2	-46.9	17.3	0.00e+00	0	43	0	204472320	60	4809
2026-01-20 11:37:24.31	236.27	15.02	-44.2	-46.9	17.4	0.00e+00	0	43	0	205520896	60	4785
2026-01-20 11:37:25.30	236.45	15.08	-44.1	-46.8	17.4	0.00e+00	0	43	0	207618048	60	4749
2026-01-20 11:37:26.30	236.62	15.14	-44.0	-46.7	17.6	0.00e+00	0	43	0	209715200	60	4680
2026-01-20 11:37:27.29	236.80	15.20	-44.1	-46.7	17.6	0.00e+00	0	44	0	211812352	60	4688
2026-01-20 11:37:28.29	236.98	15.26	-44.1	-46.8	17.5	0.00e+00	0	43	0	212860928	60	4712
2026-01-20 11:37:29.28	237.16	15.32	-43.9	-46.5	17.8	0.00e+00	0	43	0	214958080	59	4817
2026-01-20 11:37:30.28	237.34	15.38	-43.8	-46.4	17.8	0.00e+00	0	43	0	217055232	59	4779
2026-01-20 11:37:31.28	237.52	15.43	-43.8	-46.3	17.9	0.00e+00	0	43	0	219152384	59	4725
2026-01-20 11:37:32.27	237.71	15.49	-43.7	-46.2	18.0	0.00e+00	0	43	0	221249536	59	4665
2026-01-20 11:37:33.27	237.89	15.55	-43.6	-46.1	18.1	0.00e+00	0	43	0	222298112	59	4645
2026-01-20 11:37:34.26	238.07	15.61	-43.5	-46.0	18.1	0.00e+00	0	43	0	224395264	59	4579
2026-01-20 11:37:35.26	238.26	15.67	-43.5	-45.9	18.2	0.00e+00	0	43	0	226492416	58	4807
2026-01-20 11:37:36.25	238.44	15.72	-43.4	-45.9	18.3	0.00e+00	0	43	0	228589568	58	4768
2026-01-20 11:37:37.25	238.63	15.78	-43.5	-46.0	18.2	0.00e+00	0	43	0	229638144	58	4824
2026-01-20 11:37:38.24	238.81	15.84	-43.4	-45.8	18.3	0.00e+00	0	43	0	231735296	58	4758
2026-01-20 11:37:39.24	239.00	15.90	-43.4	-45.8	18.4	0.00e+00	0	43	0	233832448	58	4743
2026-01-20 11:37:40.23	239.19	15.95	-43.3	-45.7	18.5	0.00e+00	0	43	0	235929600	58	4696
2026-01-20 11:37:41.23	239.38	16.01	-43.2	-45.6	18.6	0.00e+00	0	43	0	238026752	58	4639
2026-01-20 11:37:42.22	239.56	16.07	-43.2	-45.6	18.6	0.00e+00	0	43	0	239075328	58	4619
2026-01-20 11:37:43.22	239.75	16.12	-43.2	-45.6	18.6	0.00e+00	0	43	0	241172480	58	4604
2026-01-20 11:37:44.21	239.94	16.18	-43.2	-45.5	18.7	0.00e+00	0	43	0	243269632	58	4573
2026-01-20 11:37:45.21	240.14	16.24	-43.2	-45.5	18.7	0.00e+00	0	43	0	245366784	58	4570
2026-01-20 11:37:46.20	240.33	16.29	-43.2	-45.5	18.7	0.00e+00	0	43	0	246415360	58	4595
2026-01-20 11:37:47.20	240.52	16.35	-43.3	-45.6	18.6	0.00e+00	0	43	0	248512512	58	4651
2026-01-20 11:37:48.19	240.71	16.40	-43.3	-45.7	18.5	0.00e+00	0	43	0	250609664	58	4680
2026-01-20 11:37:49.19	240.91	16.46	-43.3	-45.7	18.5	0.00e+00	0	43	0	252706816	58	4682
2026-01-20 11:37:50.19	241.10	16.51	-43.3	-45.7	18.5	0.00e+00	0	43	0	254803968	58	4670
2026-01-20 11:37:51.18	241.30	16.57	-43.3	-45.6	18.5	0.00e+00	0	43	0	255852544	58	4651
2026-01-20 11:37:52.18	241.49	16.62	-43.2	-45.6	18.6	0.00e+00	0	43	0	257949696	58	4621
2026-01-20 11:37:53.17	241.69	16.68	-43.2	-45.5	18.7	0.00e+00	0	43	0	260046848	58	4586
2026-01-20 11:37:54.17	241.89	16.73	-43.2	-45.6	18.7	0.00e+00	0	43	0	262144000	58	4606
2026-01-20 11:37:55.17	242.09	16.79	-43.2	-45.5	18.7	0.00e+00	0	43	0	263192576	58	4572
2026-01-20 11:37:56.16	242.28	16.84	-43.2	-45.6	18.6	0.00e+00	0	43	0	265289728	58	4609
2026-01-20 11:37:57.16	242.48	16.90	-43.3	-45.7	18.6	0.00e+00	0	43	0	267386880	58	4665
2026-01-20 11:37:58.15	242.68	16.95	-43.4	-45.9	18.4	0.00e+00	0	43	0	269484032	58	4762
2026-01-20 11:37:59.15	242.89	17.00	-43.6	-46.0	18.2	0.00e+00	0	43	0	271581184	58	4840
2026-01-20 11:38:00.14	243.09	17.06	-43.6	-46.0	18.2	0.00e+00	0	43	0	272629760	58	4854
2026-01-20 11:38:01.14	243.29	17.11	-43.7	-46.1	18.1	0.00e+00	0	43	0	274726912	58	4914
2026-01-20 11:38:02.13	243.49	17.16	-43.7	-46.2	18.1	0.00e+00	0	43	0	276824064	58	4935
2026-01-20 11:38:03.13	243.70	17.22	-43.7	-46.2	18.0	0.00e+00	0	43	0	278921216	58	4968
2026-01-20 11:38:04.12	243.90	17.27	-43.9	-46.4	17.9	0.00e+00	0	43	0	279969792	58	5073
2026-01-20 11:38:05.11	244.10	17.32	-43.7	-46.2	18.1	0.00e+00	0	43	0	282066944	58	4954
2026-01-20 11:38:06.11	244.31	17.37	-43.7	-46.1	18.1	0.00e+00	0	43	0	284164096	58	4926
2026-01-20 11:38:07.10	244.51	17.42	-43.7	-46.2	18.0	0.00e+00	0	43	0	286261248	58	4962
2026-01-20 11:38:08.10	244.72	17.47	-43.7	-46.1	18.1	0.00e+00	0	43	0	288358400	58	4926
2026-01-20 11:38:09.10	244.93	17.53	-43.8	-46.2	18.0	0.00e+00	0	43	0	289406976	58	4972
2026-01-20 11:38:10.09	245.14	17.58	-43.8	-46.3	18.0	0.00e+00	0	43	0	291504128	58	5014
2026-01-20 11:38:11.08	245.35	17.63	-43.9	-46.4	17.8	0.00e+00	0	43	0	293601280	58	5089
2026-01-20 11:38:12.08	245.56	17.68	-44.0	-46.5	17.8	0.00e+00	0	43	0	295698432	58	5129
2026-01-20 11:38:13.07	245.77	17.73	-44.1	-46.6	17.6	0.00e+00	0	43	0	297795584	58	5218
2026-01-20 11:38:14.07	245.98	17.78	-44.1	-46.7	17.6	0.00e+00	0	43	0	298844160	58	5220
2026-01-20 11:38:15.06	246.19	17.83	-44.1	-46.7	17.6	0.00e+00	0	43	0	300941312	58	5259
2026-01-20 11:38:16.06	246.40	17.88	-44.1	-46.7	17.6	0.00e+00	0	43	0	303038464	58	5243
2026-01-20 11:38:17.05	246.61	17.93	-44.1	-46.7	17.5	0.00e+00	0	43	0	305135616	58	5277
2026-01-20 11:38:18.04	246.83	17.97	-44.1	-46.7	17.5	0.00e+00	0	43	0	306184192	59	4974
2026-01-20 11:38:19.04	247.04	18.02	-44.2	-46.8	17.5	0.00e+00	0	43	0	308281344	59	5003
2026-01-20 11:38:20.04	247.26	18.07	-44.3	-46.9	17.4	0.00e+00	0	43	0	310378496	59	5057
2026-01-20 11:38:21.03	247.47	18.12	-44.3	-47.0	17.3	0.00e+00	0	43	0	312475648	59	5120
2026-01-20 11:38:22.03	247.69	18.17	-44.5	-47.1	17.2	0.00e+00	0	43	0	314572800	59	5211
2026-01-20 11:38:23.02	247.91	18.21	-44.5	-47.3	17.0	0.00e+00	0	43	0	315621376	59	5288
2026-01-20 11:38:24.02	248.13	18.26	-44.6	-47.4	16.9	0.00e+00	0	43	0	317718528	59	5360
2026-01-20 11:38:25.01	248.34	18.31	-44.8	-47.6	16.8	0.00e+00	0	43	0	319815680	60	5175
2026-01-20 11:38:26.01	248.56	18.35	-44.8	-47.7	16.7	0.00e+00	0	43	0	321912832	60	5219
2026-01-20 11:38:27.01	248.78	18.40	-44.8	-47.7	16.7	0.00e+00	0	43	0	322961408	60	5226
2026-01-20 11:38:28.00	249.00	18.44	-44.9	-47.8	16.6	0.00e+00	0	43	0	325058560	60	5297
2026-01-20 11:38:28.99	249.22	18.49	-44.8	-47.7	16.7	0.00e+00	0	43	0	327155712	60	5235
2026-01-20 11:38:29.99	249.45	18.53	-44.9	-47.8	16.6	0.00e+00	0	43	0	329252864	60	5298
2026-01-20 11:38:30.98	249.67	18.58	-45.0	-47.9	16.5	0.00e+00	0	43	0	331350016	60	5381
2026-01-20 11:38:31.98	249.89	18.62	-45.1	-48.0	16.4	0.00e+00	0	43	0	332398592	60	5436
2026-01-20 11:38:32.97	250.11	18.67	-45.0	-48.0	16.4	0.00e+00	0	43	0	334495744	60	5408
2026-01-20 11:38:33.97	250.34	18.71	-45.1	-48.1	16.3	0.00e+00	0	43	0	336592896	60	5499
2026-01-20 11:38:34.97	250.56	18.75	-45.1	-48.0	16.4	0.00e+00	0	43	0	338690048	60	5464
2026-01-20 11:38:35.96	250.79	18.80	-45.1	-48.0	16.4	0.00e+00	0	43	0	339738624	60	5440
2026-01-20 11:38:36.95	251.01	18.84	-45.0	-47.9	16.5	0.00e+00	0	43	0	341835776	60	5352
2026-01-20 11:38:37.95	251.24	18.88	-44.9	-47.8	16.6	0.00e+00	0	43	0	343932928	60	5313
2026-01-20 11:38:38.94	251.47	18.92	-44.8	-47.7	16.7	0.00e+00	0	43	0	346030080	60	5259
2026-01-20 11:38:39.94	251.70	18.96	-44.8	-47.7	16.8	0.00e+00	0	43	0	348127232	60	5223
2026-01-20 11:38:40.94	251.92	19.01	-44.8	-47.6	16.8	0.00e+00	0	43	0	349175808	60	5205
2026-01-20 11:38:41.93	252.15	19.05	-44.7	-47.5	17.0	0.00e+00	0	43	0	351272960	60	5106
2026-01-20 11:38:42.92	252.38	19.09	-44.7	-47.6	16.8	0.00e+00	0	43	0	353370112	60	5160
2026-01-20 11:38:43.92	252.61	19.13	-44.8	-47.6	16.8	0.00e+00	0	43	0	355467264	60	5192
2026-01-20 11:38:44.91	252.84	19.17	-44.8	-47.6	16.8	0.00e+00	0	43	0	356515840	60	5208
2026-01-20 11:38:45.91	253.07	19.21	-44.9	-47.7	16.7	0.00e+00	0	43	0	358612992	60	5268
2026-01-20 11:38:46.90	253.30	19.24	-44.9	-47.8	16.6	0.00e+00	0	43	0	360710144	60	5297
2026-01-20 11:38:47.89	253.54	19.28	-44.8	-47.7	16.7	0.00e+00	0	43	0	362807296	60	5248
2026-01-20 11:38:48.89	253.77	19.32	-44.7	-47.5	16.9	0.00e+00	0	43	0	364904448	60	5135
2026-01-20 11:38:49.89	254.00	19.36	-44.6	-47.4	16.9	0.00e+00	0	43	0	365953024	60	5093
2026-01-20 11:38:50.88	254.24	19.39	-44.6	-47.5	16.9	0.00e+00	0	43	0	368050176	60	5115
2026-01-20 11:38:51.87	254.47	19.43	-44.6	-47.5	16.9	0.00e+00	0	43	0	370147328	60	5123
2026-01-20 11:38:52.87	254.71	19.47	-44.6	-47.4	16.9	0.00e+00	0	43	0	372244480	60	5099
2026-01-20 11:38:53.86	254.94	19.50	-44.6	-47.4	17.0	0.00e+00	0	43	0	373293056	60	5058
2026-01-20 11:38:54.86	255.18	19.54	-44.6	-47.4	17.0	0.00e+00	0	43	0	375390208	60	5099
2026-01-20 11:38:55.86	255.42	19.57	-44.6	-47.3	17.1	0.00e+00	0	43	0	377487360	60	5034
2026-01-20 11:38:56.85	255.65	19.61	-44.5	-47.2	17.1	0.00e+00	0	43	0	379584512	60	4983
2026-01-20 11:38:57.85	255.89	19.64	-44.6	-47.4	17.0	0.00e+00	0	43	0	381681664	60	5052
2026-01-20 11:38:58.84	256.13	19.68	-44.5	-47.3	17.1	0.00e+00	0	43	0	382730240	60	5013
2026-01-20 11:38:59.84	256.37	19.71	-44.6	-47.3	17.0	0.00e+00	0	43	0	384827392	60	5039
2026-01-20 11:39:00.83	256.61	19.74	-44.6	-47.3	17.0	0.00e+00	0	43	0	386924544	60	5040
2026-01-20 11:39:01.83	256.85	19.77	-44.6	-47.4	17.0	0.00e+00	0	43	0	389021696	60	5088
2026-01-20 11:39:02.82	257.09	19.81	-44.6	-47.4	17.0	0.00e+00	0	43	0	390070272	60	5078
2026-01-20 11:39:03.82	257.33	19.84	-44.6	-47.4	17.0	0.00e+00	0	43	0	392167424	60	5079
2026-01-20 11:39:04.81	257.57	19.87	-44.6	-47.4	17.0	0.00e+00	0	43	0	394264576	60	5060
2026-01-20 11:39:05.81	257.81	19.90	-44.5	-47.2	17.2	0.00e+00	0	43	0	396361728	60	4971
2026-01-20 11:39:06.80	258.05	19.93	-44.5	-47.3	17.1	0.00e+00	0	43	0	398458880	60	5001
2026-01-20 11:39:07.80	258.30	19.96	-44.3	-46.9	17.4	0.00e+00	0	43	0	399507456	60	4809
2026-01-20 11:39:08.79	258.54	19.99	-44.1	-46.8	17.6	0.00e+00	0	43	0	401604608	60	4711
2026-01-20 11:39:09.79	258.78	20.02	-44.2	-46.9	17.5	0.00e+00	0	43	0	403701760	60	4801
2026-01-20 11:39:10.78	259.03	20.04	-44.1	-46.8	17.6	0.00e+00	0	43	0	405798912	60	4750
2026-01-20 11:39:11.78	259.27	20.07	-44.2	-46.9	17.5	0.00e+00	0	43	0	407896064	60	4782
2026-01-20 11:39:12.77	259.52	20.10	-44.2	-46.9	17.5	0.00e+00	0	43	0	408944640	60	4811
2026-01-20 11:39:13.77	259.76	20.13	-44.3	-47.1	17.3	0.00e+00	0	43	0	411041792	60	4878
2026-01-20 11:39:14.76	260.01	20.15	-44.2	-46.9	17.5	0.00e+00	0	43	0	413138944	60	4789
2026-01-20 11:39:15.76	260.25	20.18	-44.2	-46.9	17.5	0.00e+00	0	43	0	415236096	60	4786
2026-01-20 11:39:16.75	260.50	20.20	-44.2	-46.8	17.5	0.00e+00	0	43	0	416284672	60	4752
2026-01-20 11:39:17.75	260.75	20.23	-44.2	-46.8	17.5	0.00e+00	0	43	0	418381824	60	4742
2026-01-20 11:39:18.74	260.99	20.25	-44.1	-46.7	17.7	0.00e+00	0	43	0	420478976	60	4686
2026-01-20 11:39:19.74	261.24	20.27	-44.0	-46.7	17.7	0.00e+00	0	43	0	422576128	60	4667
2026-01-20 11:39:20.74	261.49	20.30	-44.1	-46.7	17.7	0.00e+00	0	43	0	424673280	60	4683
2026-01-20 11:39:21.73	261.74	20.32	-44.1	-46.8	17.6	0.00e+00	0	43	0	425721856	60	4724
2026-01-20 11:39:22.72	261.99	20.34	-43.9	-46.5	17.8	0.00e+00	0	43	0	427819008	59	4827
2026-01-20 11:39:23.72	262.24	20.36	-43.9	-46.4	17.9	0.00e+00	0	43	0	429916160	59	4811
2026-01-20 11:39:24.71	262.48	20.39	-43.8	-46.3	18.0	0.00e+00	0	43	0	432013312	59	4742
2026-01-20 11:39:25.71	262.74	20.41	-43.9	-46.5	17.9	0.00e+00	0	43	0	433061888	59	4820
2026-01-20 11:39:26.70	262.98	20.43	-44.0	-46.6	17.7	0.00e+00	0	43	0	435159040	59	4915
2026-01-20 11:39:27.70	263.24	20.45	-44.0	-46.6	17.7	0.00e+00	0	43	0	437256192	59	4921
2026-01-20 11:39:28.69	263.48	20.46	-44.1	-46.7	17.6	0.00e+00	0	43	0	439353344	59	4952
2026-01-20 11:39:29.69	263.74	20.48	-44.1	-46.8	17.6	0.00e+00	0	43	0	441450496	59	4991
2026-01-20 11:39:30.69	263.99	20.50	-43.9	-46.5	17.8	0.00e+00	0	43	0	442499072	59	4860
2026-01-20 11:39:31.68	264.24	20.52	-43.9	-46.4	17.9	0.00e+00	0	43	0	444596224	59	4792
2026-01-20 11:39:32.68	264.49	20.53	-43.8	-46.3	18.0	0.00e+00	0	43	0	446693376	59	4732
2026-01-20 11:39:33.67	264.74	20.55	-43.9	-46.4	17.9	0.00e+00	0	43	0	448790528	59	4781
2026-01-20 11:39:34.67	265.00	20.57	-44.0	-46.5	17.8	0.00e+00	0	43	0	449839104	59	4850
2026-01-20 11:39:35.66	265.25	20.58	-44.1	-46.7	17.6	0.00e+00	0	43	0	451936256	59	4936
2026-01-20 11:39:36.66	265.50	20.60	-44.3	-46.9	17.4	0.00e+00	0	43	0	454033408	59	5063
2026-01-20 11:39:37.66	265.76	20.61	-44.4	-47.2	17.2	0.00e+00	0	43	0	456130560	59	5220
2026-01-20 11:39:38.65	266.01	20.62	-44.6	-47.3	17.0	0.00e+00	0	43	0	458227712	59	5316
2026-01-20 11:39:39.65	266.26	20.64	-44.7	-47.6	16.8	0.00e+00	0	43	0	459276288	60	5178
2026-01-20 11:39:40.64	266.51	20.65	-44.8	-47.7	16.7	0.00e+00	0	43	0	461373440	60	5255
2026-01-20 11:39:41.64	266.77	20.66	-44.8	-47.7	16.7	0.00e+00	0	43	0	463470592	60	5262
2026-01-20 11:39:42.63	267.02	20.67	-44.6	-47.4	17.0	0.00e+00	0	43	0	465567744	60	5054
2026-01-20 11:39:43.63	267.28	20.68	-44.5	-47.2	17.2	0.00e+00	0	43	0	466616320	60	4978
2026-01-20 11:39:44.62	267.53	20.69	-44.3	-47.0	17.4	0.00e+00	0	43	0	468713472	60	4840
2026-01-20 11:39:45.62	267.79	20.70	-44.1	-46.8	17.6	0.00e+00	0	43	0	470810624	60	4724
2026-01-20 11:39:46.62	268.04	20.71	-44.0	-46.6	17.8	0.00e+00	0	43	0	472907776	60	4638
2026-01-20 11:39:47.61	268.29	20.72	-44.0	-46.6	17.8	0.00e+00	0	43	0	475004928	60	4640
2026-01-20 11:39:48.61	268.55	20.73	-44.1	-46.7	17.7	0.00e+00	0	43	0	476053504	60	4667
2026-01-20 11:39:49.60	268.80	20.74	-44.2	-46.8	17.5	0.00e+00	0	43	0	478150656	60	4757
2026-01-20 11:39:50.60	269.06	20.74	-44.3	-47.0	17.4	0.00e+00	0	43	0	480247808	60	4861
2026-01-20 11:39:51.59	269.31	20.75	-44.5	-47.3	17.2	0.00e+00	0	43	0	482344960	60	4992
2026-01-20 11:39:52.59	269.57	20.76	-44.7	-47.5	16.9	0.00e+00	0	43	0	483393536	60	5134
2026-01-20 11:39:53.58	269.82	20.76	-44.8	-47.6	16.8	0.00e+00	0	43	0	485490688	60	5203
2026-01-20 11:39:54.58	270.08	20.77	-44.7	-47.6	16.8	0.00e+00	0	43	0	487587840	60	5188
2026-01-20 11:39:55.57	270.34	20.77	-44.8	-47.6	16.8	0.00e+00	0	43	0	489684992	60	5202
2026-01-20 11:39:56.56	270.59	20.77	-44.7	-47.6	16.9	0.00e+00	0	43	0	491782144	60	5167
2026-01-20 11:39:57.56	270.85	20.78	-44.7	-47.5	16.9	0.00e+00	0	43	0	492830720	60	5142
2026-01-20 11:39:58.56	271.10	20.78	-44.6	-47.3	17.1	0.00e+00	0	43	0	494927872	60	5027
2026-01-20 11:39:59.55	271.36	20.78	-44.6	-47.4	17.0	0.00e+00	0	43	0	497025024	60	5048
2026-01-20 11:40:00.55	271.61	20.78	-44.7	-47.4	17.0	0.00e+00	0	43	0	499122176	60	5097
2026-01-20 11:40:01.54	271.87	20.78	-44.8	-47.6	16.8	0.00e+00	0	43	0	501219328	60	5178
2026-01-20 11:40:02.54	272.13	20.78	-44.9	-47.8	16.6	0.00e+00	0	43	0	502267904	60	5326
2026-01-20 11:40:03.53	272.38	20.78	-44.9	-47.8	16.7	0.00e+00	0	43	0	504365056	60	5287
2026-01-20 11:40:04.53	272.64	20.78	-44.8	-47.7	16.7	0.00e+00	0	43	0	506462208	60	5240
2026-01-20 11:40:05.52	272.89	20.78	-44.9	-47.8	16.7	0.00e+00	0	43	0	508559360	60	5287
2026-01-20 11:40:06.52	273.15	20.78	-44.7	-47.6	16.8	0.00e+00	0	43	0	509607936	60	5188
2026-01-20 11:40:07.51	273.40	20.77	-44.7	-47.6	16.8	0.00e+00	0	43	0	511705088	60	5197
2026-01-20 11:40:08.51	273.66	20.77	-44.7	-47.6	16.9	0.00e+00	0	43	0	513802240	60	5191
2026-01-20 11:40:09.50	273.91	20.77	-44.6	-47.4	17.0	0.00e+00	0	43	0	515899392	60	5089
2026-01-20 11:40:10.50	274.17	20.76	-44.5	-47.3	17.1	0.00e+00	0	43	0	517996544	60	5013
2026-01-20 11:40:11.50	274.43	20.76	-44.4	-47.1	17.4	0.00e+00	0	43	0	519045120	60	4873
2026-01-20 11:40:12.49	274.68	20.75	-44.3	-47.0	17.4	0.00e+00	0	43	0	521142272	60	4839
2026-01-20 11:40:13.49	274.94	20.75	-44.2	-46.9	17.5	0.00e+00	0	43	0	523239424	60	4785
2026-01-20 11:40:14.48	275.19	20.74	-44.3	-46.9	17.5	0.00e+00	0	43	0	525336576	60	4797
2026-01-20 11:40:15.48	275.44	20.73	-44.1	-46.6	17.7	0.00e+00	0	43	0	526385152	60	4651
2026-01-20 11:40:16.47	275.70	20.72	-44.0	-46.6	17.7	0.00e+00	0	43	0	528482304	59	4888
2026-01-20 11:40:17.47	275.95	20.72	-44.1	-46.7	17.6	0.00e+00	0	43	0	530579456	59	4964
2026-01-20 11:40:18.46	276.21	20.71	-44.2	-46.8	17.6	0.00e+00	0	43	0	532676608	59	4995
2026-01-20 11:40:19.46	276.46	20.70	-44.4	-47.0	17.3	0.00e+00	0	43	0	534773760	59	5135
2026-01-20 11:40:20.45	276.72	20.69	-44.5	-47.2	17.2	0.00e+00	0	43	0	535822336	59	5250
2026-01-20 11:40:21.44	276.97	20.68	-44.5	-47.3	17.1	0.00e+00	0	43	0	537919488	59	5288
2026-01-20 11:40:22.44	277.22	20.66	-44.7	-47.5	16.9	0.00e+00	0	43	0	540016640	60	5125
2026-01-20 11:40:23.44	277.48	20.65	-44.5	-47.3	17.2	0.00e+00	0	43	0	542113792	60	4997
2026-01-20 11:40:24.43	277.73	20.64	-44.5	-47.3	17.1	0.00e+00	0	43	0	543162368	60	5009
2026-01-20 11:40:25.43	277.98	20.63	-44.5	-47.3	17.2	0.00e+00	0	43	0	545259520	60	4992
2026-01-20 11:40:26.42	278.24	20.61	-44.5	-47.3	17.2	0.00e+00	0	43	0	547356672	60	5005
2026-01-20 11:40:27.42	278.49	20.60	-44.5	-47.3	17.1	0.00e+00	0	43	0	549453824	60	5014
2026-01-20 11:40:28.41	278.74	20.59	-44.6	-47.4	17.0	0.00e+00	0	43	0	551550976	60	5077
2026-01-20 11:40:29.41	278.99	20.57	-44.8	-47.6	16.9	0.00e+00	0	43	0	552599552	60	5186
2026-01-20 11:40:30.40	279.24	20.56	-44.7	-47.5	16.9	0.00e+00	0	43	0	554696704	60	5111
2026-01-20 11:40:31.40	279.50	20.54	-44.7	-47.5	17.0	0.00e+00	0	43	0	556793856	60	5123
2026-01-20 11:40:32.39	279.75	20.52	-44.7	-47.5	16.9	0.00e+00	0	43	0	558891008	60	5136
2026-01-20 11:40:33.39	280.00	20.51	-44.6	-47.4	17.0	0.00e+00	0	43	0	559939584	60	5081
2026-01-20 11:40:34.38	280.25	20.49	-44.6	-47.4	17.0	0.00e+00	0	43	0	562036736	60	5083
2026-01-20 11:40:35.38	280.50	20.47	-44.7	-47.5	17.0	0.00e+00	0	43	0	564133888	60	5104
2026-01-20 11:40:36.37	280.75	20.45	-44.8	-47.6	16.8	0.00e+00	0	43	0	566231040	60	5191
2026-01-20 11:40:37.37	281.00	20.43	-44.7	-47.5	16.9	0.00e+00	0	43	0	568328192	60	5147
2026-01-20 11:40:38.36	281.25	20.41	-44.5	-47.2	17.2	0.00e+00	0	43	0	569376768	60	4966
2026-01-20 11:40:39.36	281.50	20.39	-44.3	-47.0	17.4	0.00e+00	0	43	0	571473920	60	4855
2026-01-20 11:40:40.35	281.75	20.37	-44.2	-46.9	17.5	0.00e+00	0	43	0	573571072	60	4766
2026-01-20 11:40:41.35	282.00	20.35	-44.2	-46.8	17.6	0.00e+00	0	43	0	575668224	60	4747
2026-01-20 11:40:42.34	282.24	20.33	-44.1	-46.7	17.7	0.00e+00	0	43	0	576716800	60	4691
2026-01-20 11:40:43.34	282.49	20.31	-44.2	-46.9	17.5	0.00e+00	0	43	0	578813952	60	4771
2026-01-20 11:40:44.33	282.74	20.28	-44.3	-46.9	17.5	0.00e+00	0	43	0	580911104	60	4809
2026-01-20 11:40:45.33	282.99	20.26	-44.5	-47.3	17.2	0.00e+00	0	43	0	583008256	60	4984
2026-01-20 11:40:46.32	283.23	20.24	-44.5	-47.3	17.1	0.00e+00	0	43	0	585105408	60	5002
2026-01-20 11:40:47.32	283.48	20.21	-44.6	-47.4	17.1	0.00e+00	0	43	0	586153984	60	5047
2026-01-20 11:40:48.32	283.73	20.19	-44.5	-47.3	17.1	0.00e+00	0	43	0	588251136	60	4999
2026-01-20 11:40:49.31	283.97	20.16	-44.4	-47.1	17.3	0.00e+00	0	43	0	590348288	60	4880
2026-01-20 11:40:50.31	284.22	20.13	-44.3	-47.0	17.4	0.00e+00	0	43	0	592445440	60	4824
2026-01-20 11:40:51.30	284.46	20.11	-44.1	-46.7	17.7	0.00e+00	0	43	0	593494016	60	4679
2026-01-20 11:40:52.29	284.70	20.08	-43.9	-46.5	17.8	0.00e+00	0	43	0	595591168	59	4839
2026-01-20 11:40:53.29	284.95	20.05	-43.9	-46.5	17.8	0.00e+00	0	43	0	597688320	59	4816
2026-01-20 11:40:54.28	285.19	20.03	-43.8	-46.3	18.0	0.00e+00	0	43	0	599785472	59	4711
2026-01-20 11:40:55.28	285.44	20.00	-43.6	-46.0	18.3	0.00e+00	0	43	0	601882624	59	4597
2026-01-20 11:40:56.27	285.68	19.97	-43.5	-45.9	18.4	0.00e+00	0	43	0	602931200	58	4782
2026-01-20 11:40:57.27	285.92	19.94	-43.4	-45.8	18.5	0.00e+00	0	43	0	605028352	58	4734
2026-01-20 11:40:58.26	286.16	19.91	-43.4	-45.8	18.5	0.00e+00	0	43	0	607125504	58	4713
2026-01-20 11:40:59.26	286.40	19.88	-43.4	-45.8	18.5	0.00e+00	0	43	0	609222656	58	4711
2026-01-20 11:41:00.25	286.64	19.85	-43.5	-45.9	18.4	0.00e+00	0	43	0	610271232	58	4770
2026-01-20 11:41:01.25	286.88	19.82	-43.6	-46.1	18.2	0.00e+00	0	43	0	612368384	58	4877
2026-01-20 11:41:02.24	287.12	19.79	-43.8	-46.3	18.0	0.00e+00	0	43	0	614465536	58	5023
2026-01-20 11:41:03.24	287.36	19.75	-44.0	-46.5	17.8	0.00e+00	0	43	0	616562688	58	5141
2026-01-20 11:41:04.23	287.60	19.72	-44.0	-46.6	17.7	0.00e+00	0	43	0	618659840	58	5190
2026-01-20 11:41:05.23	287.84	19.69	-44.0	-46.6	17.7	0.00e+00	0	43	0	619708416	58	5206
2026-01-20 11:41:06.22	288.08	19.66	-44.0	-46.5	17.8	0.00e+00	0	43	0	621805568	58	5151
2026-01-20 11:41:07.22	288.32	19.62	-43.9	-46.4	17.9	0.00e+00	0	43	0	623902720	58	5082
2026-01-20 11:41:08.21	288.55	19.59	-43.8	-46.3	18.0	0.00e+00	0	43	0	625999872	58	5033
2026-01-20 11:41:09.21	288.79	19.55	-43.8	-46.4	17.9	0.00e+00	0	43	0	627048448	58	5048
2026-01-20 11:41:10.20	289.02	19.52	-43.7	-46.2	18.1	0.00e+00	0	43	0	629145600	58	4944
2026-01-20 11:41:11.20	289.26	19.48	-43.6	-46.1	18.2	0.00e+00	0	43	0	631242752	58	4878
2026-01-20 11:41:12.19	289.49	19.45	-43.5	-45.9	18.4	0.00e+00	0	43	0	633339904	58	4801
2026-01-20 11:41:13.19	289.73	19.41	-43.2	-45.6	18.6	0.00e+00	0	43	0	635437056	58	4648
2026-01-20 11:41:14.18	289.96	19.37	-43.3	-45.7	18.6	0.00e+00	0	43	0	636485632	58	4686
2026-01-20 11:41:15.18	290.19	19.34	-43.1	-45.4	18.8	0.00e+00	0	43	0	638582784	58	4530
2026-01-20 11:41:16.17	290.42	19.30	-43.1	-45.4	18.9	0.00e+00	0	43	0	640679936	58	4529
2026-01-20 11:41:17.17	290.66	19.26	-43.2	-45.5	18.7	0.00e+00	0	43	0	642777088	58	4588
2026-01-20 11:41:18.16	290.89	19.22	-43.2	-45.6	18.7	0.00e+00	0	43	0	643825664	58	4613
2026-01-20 11:41:19.16	291.12	19.18	-43.2	-45.5	18.8	0.00e+00	0	43	0	645922816	58	4582
2026-01-20 11:41:20.15	291.35	19.14	-43.2	-45.6	18.7	0.00e+00	0	43	0	648019968	58	4611
2026-01-20 11:41:21.15	291.58	19.10	-43.2	-45.6	18.7	0.00e+00	0	43	0	650117120	58	4610
2026-01-20 11:41:22.14	291.81	19.07	-43.3	-45.7	18.6	0.00e+00	0	43	0	652214272	58	4654
2026-01-20 11:41:23.14	292.04	19.02	-43.4	-45.8	18.5	0.00e+00	0	43	0	653262848	58	4738
2026-01-20 11:41:24.13	292.26	18.98	-43.3	-45.7	18.6	0.00e+00	0	43	0	655360000	58	4680
2026-01-20 11:41:25.13	292.49	18.94	-43.3	-45.6	18.6	0.00e+00	0	43	0	657457152	58	4651
2026-01-20 11:41:26.12	292.72	18.90	-43.3	-45.7	18.6	0.00e+00	0	43	0	659554304	58	4677
2026-01-20 11:41:27.11	292.94	18.86	-43.3	-45.7	18.5	0.00e+00	0	43	0	660602880	58	4689
2026-01-20 11:41:28.11	293.17	18.82	-43.2	-45.5	18.7	0.00e+00	0	43	0	662700032	58	4572
2026-01-20 11:41:29.11	293.39	18.78	-43.1	-45.4	18.8	0.00e+00	0	43	0	664797184	58	4537
2026-01-20 11:41:30.10	293.62	18.73	-43.0	-45.4	18.9	0.00e+00	0	43	0	666894336	58	4497
2026-01-20 11:41:31.09	293.84	18.69	-42.9	-45.2	19.0	0.00e+00	0	43	0	668991488	57	4667
2026-01-20 11:41:32.09	294.06	18.65	-42.8	-45.1	19.1	0.00e+00	0	43	0	670040064	57	4611
2026-01-20 11:41:33.08	294.28	18.60	-42.7	-44.9	19.3	0.00e+00	0	43	0	672137216	57	4542
2026-01-20 11:41:34.08	294.50	18.56	-42.6	-44.9	19.3	0.00e+00	0	43	0	674234368	57	4500
2026-01-20 11:41:35.07	294.72	18.51	-42.7	-44.9	19.3	0.00e+00	0	43	0	676331520	57	4525
2026-01-20 11:41:36.07	294.95	18.47	-42.7	-45.0	19.2	0.00e+00	0	43	0	677380096	57	4562
2026-01-20 11:41:37.06	295.16	18.42	-42.7	-44.9	19.3	0.00e+00	0	43	0	679477248	57	4508
2026-01-20 11:41:38.06	295.38	18.38	-42.7	-44.9	19.2	0.00e+00	0	43	0	681574400	57	4538
2026-01-20 11:41:39.05	295.60	18.33	-42.7	-44.9	19.3	0.00e+00	0	43	0	683671552	57	4534
2026-01-20 11:41:40.05	295.82	18.29	-42.8	-45.1	19.0	0.00e+00	0	43	0	685768704	57	4620
2026-01-20 11:41:41.04	296.04	18.24	-42.9	-45.2	19.0	0.00e+00	0	43	0	686817280	57	4678
2026-01-20 11:41:42.03	296.25	18.19	-43.0	-45.3	18.9	0.00e+00	0	43	0	688914432	57	4730
2026-01-20 11:41:43.03	296.47	18.15	-43.1	-45.5	18.8	0.00e+00	0	43	0	691011584	57	4819
2026-01-20 11:41:44.02	296.68	18.10	-43.2	-45.6	18.6	0.00e+00	0	43	0	693108736	57	4909
2026-01-20 11:41:45.02	296.90	18.05	-43.3	-45.7	18.5	0.00e+00	0	43	0	694157312	57	4964
2026-01-20 11:41:46.01	297.11	18.00	-43.4	-45.8	18.5	0.00e+00	0	43	0	696254464	57	4991
2026-01-20 11:41:47.01	297.32	17.95	-43.3	-45.7	18.6	0.00e+00	0	43	0	698351616	57	4932
2026-01-20 11:41:48.00	297.54	17.91	-43.2	-45.6	18.6	0.00e+00	0	43	0	700448768	57	4898
2026-01-20 11:41:49.00	297.75	17.86	-43.3	-45.6	18.6	0.00e+00	0	43	0	702545920	57	4920
2026-01-20 11:41:49.99	297.96	17.81	-43.4	-45.8	18.5	0.00e+00	0	43	0	703594496	57	5015
2026-01-20 11:41:50.99	298.17	17.76	-43.6	-46.0	18.2	0.00e+00	0	43	0	705691648	57	5144
2026-01-20 11:41:51.98	298.38	17.71	-43.7	-46.2	18.1	0.00e+00	0	43	0	707788800	58	4952
2026-01-20 11:41:52.98	298.59	17.66	-43.8	-46.3	18.0	0.00e+00	0	43	0	709885952	58	5003
2026-01-20 11:41:53.97	298.79	17.61	-43.9	-46.4	17.8	0.00e+00	0	43	0	710934528	58	5065
2026-01-20 11:41:54.97	299.00	17.56	-44.0	-46.5	17.8	0.00e+00	0	43	0	713031680	58	5132
2026-01-20 11:41:55.96	299.21	17.51	-43.9	-46.4	17.8	0.00e+00	0	43	0	715128832	58	5081
2026-01-20 11:41:56.96	299.42	17.46	-43.9	-46.5	17.8	0.00e+00	0	43	0	717225984	58	5113
2026-01-20 11:41:57.95	299.62	17.41	-43.9	-46.4	17.8	0.00e+00	0	43	0	719323136	58	5085
2026-01-20 11:41:58.95	299.83	17.36	-43.9	-46.5	17.8	0.00e+00	0	43	0	720371712	58	5113
2026-01-20 11:41:59.94	300.03	17.30	-44.1	-46.7	17.6	0.00e+00	0	43	0	722468864	58	5238
2026-01-20 11:42:00.94	300.23	17.25	-44.2	-46.8	17.4	0.00e+00	0	43	0	724566016	59	5031
2026-01-20 11:42:01.93	300.44	17.20	-44.3	-46.9	17.3	0.00e+00	0	43	0	726663168	59	5098
2026-01-20 11:42:02.93	300.64	17.15	-44.2	-46.9	17.4	0.00e+00	0	43	0	728760320	59	5056
2026-01-20 11:42:03.92	300.84	17.10	-44.2	-46.9	17.4	0.00e+00	0	43	0	729808896	59	5043
2026-01-20 11:42:04.92	301.04	17.04	-44.2	-46.9	17.4	0.00e+00	0	43	0	731906048	59	5055
2026-01-20 11:42:05.91	301.24	16.99	-44.2	-46.8	17.4	0.00e+00	0	43	0	734003200	59	5027
2026-01-20 11:42:06.91	301.44	16.94	-44.3	-46.9	17.3	0.00e+00	0	43	0	736100352	59	5092
2026-01-20 11:42:07.90	301.64	16.88	-44.2	-46.8	17.5	0.00e+00	0	43	0	737148928	59	5012
2026-01-20 11:42:08.90	301.84	16.83	-44.2	-46.8	17.4	0.00e+00	0	43	0	739246080	59	5027
2026-01-20 11:42:09.89	302.03	16.78	-44.3	-47.0	17.3	0.00e+00	0	43	0	741343232	59	5126
2026-01-20 11:42:10.89	302.23	16.72	-44.5	-47.2	17.0	0.00e+00	0	43	0	743440384	59	5269
2026-01-20 11:42:11.89	302.43	16.67	-44.6	-47.4	16.8	0.00e+00	0	43	0	745537536	59	5392
2026-01-20 11:42:12.88	302.62	16.61	-44.8	-47.7	16.7	0.00e+00	0	43	0	746586112	60	5232
2026-01-20 11:42:13.88	302.82	16.56	-44.9	-47.8	16.6	0.00e+00	0	43	0	748683264	60	5286
2026-01-20 11:42:14.87	303.01	16.50	-44.9	-47.8	16.5	0.00e+00	0	43	0	750780416	60	5332
2026-01-20 11:42:15.87	303.21	16.45	-44.9	-47.8	16.5	0.00e+00	0	43	0	752877568	60	5299
2026-01-20 11:42:16.86	303.40	16.39	-44.8	-47.7	16.6	0.00e+00	0	43	0	753926144	60	5228
2026-01-20 11:42:17.86	303.59	16.34	-44.9	-47.8	16.6	0.00e+00	0	43	0	756023296	60	5296
2026-01-20 11:42:18.85	303.78	16.28	-44.6	-47.5	16.8	0.00e+00	0	43	0	758120448	60	5107
2026-01-20 11:42:19.84	303.97	16.23	-44.5	-47.3	17.0	0.00e+00	0	43	0	760217600	60	5035
2026-01-20 11:42:20.84	304.16	16.17	-44.6	-47.4	16.9	0.00e+00	0	43	0	762314752	60	5075
2026-01-20 11:42:21.84	304.35	16.11	-44.6	-47.4	16.9	0.00e+00	0	43	0	763363328	60	5074
2026-01-20 11:42:22.83	304.54	16.06	-44.6	-47.5	16.9	0.00e+00	0	43	0	765460480	60	5104
2026-01-20 11:42:23.82	304.72	16.00	-44.7	-47.5	16.8	0.00e+00	0	43	0	767557632	60	5154
2026-01-20 11:42:24.82	304.91	15.95	-44.7	-47.6	16.8	0.00e+00	0	43	0	769654784	60	5163
2026-01-20 11:42:25.81	305.10	15.89	-44.7	-47.6	16.7	0.00e+00	0	43	0	770703360	60	5160
2026-01-20 11:42:26.81	305.28	15.83	-44.8	-47.7	16.7	0.00e+00	0	43	0	772800512	60	5224
2026-01-20 11:42:27.81	305.47	15.78	-44.8	-47.8	16.5	0.00e+00	0	43	0	774897664	60	5301
2026-01-20 11:42:28.80	305.65	15.72	-44.9	-47.8	16.5	0.00e+00	0	43	0	776994816	60	5311
2026-01-20 11:42:29.79	305.83	15.66	-45.0	-48.0	16.4	0.00e+00	0	43	0	779091968	60	5407
2026-01-20 11:42:30.79	306.02	15.60	-44.9	-47.9	16.4	0.00e+00	0	43	0	780140544	60	5360
2026-01-20 11:42:31.78	306.20	15.55	-44.6	-47.4	16.9	0.00e+00	0	43	0	782237696	60	5073
2026-01-20 11:42:32.78	306.38	15.49	-44.3	-47.0	17.2	0.00e+00	0	43	0	784334848	60	4846
2026-01-20 11:42:33.77	306.56	15.43	-44.2	-46.9	17.3	0.00e+00	0	43	0	786432000	60	4807
2026-01-20 11:42:34.77	306.74	15.37	-44.2	-46.9	17.4	0.00e+00	0	43	0	787480576	60	4765
2026-01-20 11:42:35.77	306.92	15.32	-44.1	-46.7	17.5	0.00e+00	0	43	0	789577728	60	4691
2026-01-20 11:42:36.76	307.10	15.26	-44.0	-46.7	17.6	0.00e+00	0	43	0	791674880	60	4657
2026-01-20 11:42:37.75	307.28	15.20	-44.1	-46.8	17.5	0.00e+00	0	43	0	793772032	60	4706
2026-01-20 11:42:38.75	307.46	15.14	-44.1	-46.8	17.5	0.00e+00	0	43	0	795869184	60	4718
2026-01-20 11:42:39.74	307.63	15.08	-44.1	-46.7	17.5	0.00e+00	0	43	0	796917760	60	4702
2026-01-20 11:42:40.73	307.81	15.02	-44.1	-46.8	17.4	0.00e+00	0	42	0	799014912	60	4727
2026-01-20 11:42:41.73	307.98	14.97	-44.1	-46.8	17.5	0.00e+00	0	43	0	801112064	60	4716
2026-01-20 11:42:42.72	308.16	14.91	-44.2	-46.9	17.4	0.00e+00	0	43	0	803209216	60	4769
2026-01-20 11:42:43.72	308.33	14.85	-44.3	-47.1	17.2	0.00e+00	0	43	0	804257792	60	4885
2026-01-20 11:42:44.71	308.50	14.79	-44.5	-47.3	17.0	0.00e+00	0	43	0	806354944	60	5014
2026-01-20 11:42:45.71	308.68	14.73	-44.7	-47.6	16.6	0.00e+00	0	43	0	808452096	60	5194
2026-01-20 11:42:46.70	308.85	14.67	-44.9	-47.9	16.4	0.00e+00	0	43	0	810549248	60	5393
2026-01-20 11:42:47.70	309.02	14.61	-45.2	-48.3	16.0	0.00e+00	0	43	0	812646400	60	5603
2026-01-20 11:42:48.69	309.19	14.55	-45.2	-48.4	15.9	0.00e+00	0	43	0	813694976	61	5360
2026-01-20 11:42:49.69	309.36	14.49	-45.2	-48.3	16.0	0.00e+00	0	43	0	815792128	61	5286
2026-01-20 11:42:50.68	309.53	14.43	-45.1	-48.2	16.1	0.00e+00	0	43	0	817889280	61	5223
2026-01-20 11:42:51.68	309.70	14.37	-44.8	-47.7	16.5	0.00e+00	0	43	0	819986432	61	4981
2026-01-20 11:42:52.67	309.87	14.31	-44.5	-47.4	16.8	0.00e+00	0	43	0	821035008	61	4808
2026-01-20 11:42:53.67	310.03	14.25	-44.4	-47.3	16.9	0.00e+00	0	43	0	823132160	60	4998
2026-01-20 11:42:54.66	310.20	14.20	-44.1	-46.9	17.4	0.00e+00	0	43	0	825229312	60	4764
2026-01-20 11:42:55.66	310.37	14.13	-44.0	-46.7	17.5	0.00e+00	0	43	0	827326464	60	4683
2026-01-20 11:42:56.65	310.53	14.08	-43.9	-46.6	17.6	0.00e+00	0	43	0	829423616	59	4895
2026-01-20 11:42:57.65	310.70	14.01	-44.0	-46.7	17.5	0.00e+00	0	43	0	830472192	59	4938
2026-01-20 11:42:58.64	310.86	13.96	-44.1	-46.9	17.3	0.00e+00	0	43	0	832569344	59	5045
2026-01-20 11:42:59.64	311.03	13.89	-44.2	-46.9	17.2	0.00e+00	0	43	0	834666496	59	5088
2026-01-20 11:43:00.63	311.19	13.83	-44.2	-47.0	17.2	0.00e+00	0	43	0	836763648	59	5112
2026-01-20 11:43:01.63	311.35	13.77	-44.2	-47.0	17.2	0.00e+00	0	43	0	838860800	59	5101
2026-01-20 11:43:02.62	311.51	13.71	-44.1	-46.9	17.3	0.00e+00	0	43	0	839909376	59	5064
2026-01-20 11:43:03.62	311.67	13.65	-44.0	-46.7	17.4	0.00e+00	0	43	0	842006528	59	4977
2026-01-20 11:43:04.61	311.83	13.59	-44.0	-46.7	17.4	0.00e+00	0	43	0	844103680	59	4983
2026-01-20 11:43:05.61	311.99	13.53	-44.0	-46.7	17.4	0.00e+00	0	43	0	846200832	59	4954
2026-01-20 11:43:06.60	312.15	13.47	-44.0	-46.7	17.4	0.00e+00	0	43	0	847249408	59	4983
2026-01-20 11:43:07.60	312.31	13.41	-44.2	-46.9	17.2	0.00e+00	0	43	0	849346560	59	5063
2026-01-20 11:43:08.59	312.47	13.35	-44.2	-46.9	17.2	0.00e+00	0	43	0	851443712	59	5087
2026-01-20 11:43:09.59	312.62	13.29	-44.3	-47.0	17.1	0.00e+00	0	43	0	853540864	59	5155
2026-01-20 11:43:10.58	312.78	13.23	-44.3	-47.1	17.1	0.00e+00	0	43	0	855638016	59	5184
2026-01-20 11:43:11.57	312.93	13.17	-44.3	-47.1	17.1	0.00e+00	0	43	0	856686592	59	5179
2026-01-20 11:43:12.57	313.09	13.11	-44.2	-47.0	17.2	0.00e+00	0	43	0	858783744	59	5103
2026-01-20 11:43:13.57	313.25	13.05	-44.1	-46.8	17.3	0.00e+00	0	43	0	860880896	59	5033
2026-01-20 11:43:14.56	313.40	12.99	-44.0	-46.7	17.4	0.00e+00	0	43	0	862978048	59	4983
2026-01-20 11:43:15.56	313.55	12.93	-44.0	-46.7	17.4	0.00e+00	0	43	0	864026624	59	4969
2026-01-20 11:43:16.55	313.71	12.87	-43.9	-46.6	17.5	0.00e+00	0	43	0	866123776	59	4900
2026-01-20 11:43:17.55	313.86	12.80	-43.8	-46.5	17.6	0.00e+00	0	43	0	868220928	59	4824
2026-01-20 11:43:18.54	314.01	12.74	-43.8	-46.5	17.6	0.00e+00	0	43	0	870318080	59	4828
2026-01-20 11:43:19.54	314.16	12.68	-43.8	-46.6	17.6	0.00e+00	0	43	0	872415232	59	4871
2026-01-20 11:43:20.53	314.31	12.62	-44.0	-46.8	17.4	0.00e+00	0	43	0	873463808	59	5011
2026-01-20 11:43:21.53	314.46	12.56	-44.2	-47.0	17.1	0.00e+00	0	43	0	875560960	59	5101
2026-01-20 11:43:22.52	314.61	12.50	-44.2	-47.0	17.1	0.00e+00	0	43	0	877658112	59	5119
2026-01-20 11:43:23.52	314.76	12.44	-44.4	-47.2	17.0	0.00e+00	0	43	0	879755264	59	5242
2026-01-20 11:43:24.51	314.91	12.38	-44.3	-47.1	17.1	0.00e+00	0	43	0	880803840	59	5165
2026-01-20 11:43:25.51	315.05	12.32	-44.2	-46.9	17.2	0.00e+00	0	43	0	882900992	59	5085
2026-01-20 11:43:26.50	315.20	12.25	-44.0	-46.8	17.3	0.00e+00	0	43	0	884998144	59	4997
2026-01-20 11:43:27.50	315.35	12.19	-44.0	-46.7	17.4	0.00e+00	0	43	0	887095296	59	4976
2026-01-20 11:43:28.49	315.49	12.13	-43.9	-46.6	17.5	0.00e+00	0	43	0	889192448	59	4922
2026-01-20 11:43:29.49	315.64	12.07	-43.9	-46.7	17.5	0.00e+00	0	43	0	890241024	59	4936
2026-01-20 11:43:30.48	315.78	12.01	-43.9	-46.7	17.4	0.00e+00	0	43	0	892338176	59	4944
2026-01-20 11:43:31.48	315.92	11.95	-44.0	-46.8	17.2	0.00e+00	0	42	0	894435328	59	5032
2026-01-20 11:43:32.48	316.07	11.89	-44.2	-47.0	17.1	0.00e+00	0	43	0	896532480	59	5138
2026-01-20 11:43:33.47	316.21	11.83	-44.4	-47.3	16.8	0.00e+00	0	43	0	897581056	59	5297
2026-01-20 11:43:34.47	316.35	11.77	-44.5	-47.4	16.7	0.00e+00	0	43	0	899678208	59	5372
2026-01-20 11:43:35.46	316.49	11.70	-44.6	-47.5	16.6	0.00e+00	0	43	0	901775360	59	5452
2026-01-20 11:43:36.45	316.63	11.64	-44.6	-47.5	16.6	0.00e+00	0	43	0	903872512	59	5448
2026-01-20 11:43:37.45	316.78	11.58	-44.5	-47.5	16.6	0.00e+00	0	42	0	905969664	59	5409
2026-01-20 11:43:38.44	316.91	11.52	-44.6	-47.6	16.6	0.00e+00	0	43	0	907018240	59	5469
2026-01-20 11:43:39.44	317.05	11.46	-44.4	-47.3	16.8	0.00e+00	0	43	0	909115392	59	5306
2026-01-20 11:43:40.43	317.19	11.40	-44.3	-47.1	16.9	0.00e+00	0	43	0	911212544	59	5206
2026-01-20 11:43:41.43	317.33	11.34	-44.3	-47.1	17.0	0.00e+00	0	42	0	913309696	59	5217
2026-01-20 11:43:42.42	317.47	11.28	-44.3	-47.1	17.0	0.00e+00	0	43	0	914358272	59	5179
2026-01-20 11:43:43.42	317.61	11.22	-44.3	-47.1	17.0	0.00e+00	0	42	0	916455424	59	5202
2026-01-20 11:43:44.41	317.74	11.15	-44.4	-47.2	16.9	0.00e+00	0	43	0	918552576	59	5231
2026-01-20 11:43:45.41	317.88	11.09	-44.5	-47.3	16.7	0.00e+00	0	43	0	920649728	59	5340
2026-01-20 11:43:46.40	318.01	11.03	-44.6	-47.5	16.7	0.00e+00	0	43	0	922746880	59	5405
2026-01-20 11:43:47.40	318.15	10.97	-44.6	-47.6	16.6	0.00e+00	0	43	0	923795456	60	5174
2026-01-20 11:43:48.39	318.28	10.91	-44.7	-47.7	16.4	0.00e+00	0	43	0	925892608	60	5267
2026-01-20 11:43:49.39	318.42	10.85	-44.8	-47.8	16.2	0.00e+00	0	43	0	927989760	60	5340
2026-01-20 11:43:50.38	318.55	10.79	-44.6	-47.6	16.5	0.00e+00	0	43	0	930086912	60	5209
2026-01-20 11:43:51.38	318.68	10.73	-44.5	-47.5	16.5	0.00e+00	0	43	0	932184064	60	5134
2026-01-20 11:43:52.37	318.81	10.67	-44.4	-47.4	16.7	0.00e+00	0	42	0	933232640	60	5056
2026-01-20 11:43:53.37	318.94	10.60	-44.2	-47.2	16.9	0.00e+00	0	43	0	935329792	60	4952
2026-01-20 11:43:54.36	319.08	10.54	-44.2	-47.2	16.9	0.00e+00	0	43	0	937426944	60	4942
2026-01-20 11:43:55.36	319.21	10.48	-44.1	-47.0	17.0	0.00e+00	0	43	0	939524096	60	4862
2026-01-20 11:43:56.35	319.34	10.42	-44.1	-47.1	17.0	0.00e+00	0	43	0	940572672	60	4901
2026-01-20 11:43:57.35	319.47	10.36	-44.2	-47.2	16.9	0.00e+00	0	43	0	942669824	60	4972
2026-01-20 11:43:58.34	319.59	10.30	-44.3	-47.4	16.6	0.00e+00	0	42	0	944766976	60	5085
2026-01-20 11:43:59.34	319.72	10.24	-44.5	-47.7	16.5	0.00e+00	0	42	0	946864128	60	5241
2026-01-20 11:44:00.33	319.85	10.18	-44.5	-47.8	16.3	0.00e+00	0	42	0	948961280	60	5280
2026-01-20 11:44:01.33	319.98	10.12	-44.7	-47.9	16.1	0.00e+00	0	43	0	950009856	60	5391
2026-01-20 11:44:02.32	320.10	10.06	-44.9	-48.2	15.9	0.00e+00	0	42	0	952107008	60	5557
2026-01-20 11:44:03.31	320.23	10.00	-44.9	-48.2	15.9	0.00e+00	0	42	0	954204160	60	5574
2026-01-20 11:44:04.31	320.36	9.94	-44.9	-48.2	15.9	0.00e+00	0	43	0	956301312	60	5553
2026-01-20 11:44:05.31	320.48	9.88	-44.9	-48.1	16.0	0.00e+00	0	42	0	957349888	60	5515
2026-01-20 11:44:06.30	320.61	9.81	-44.8	-48.0	16.1	0.00e+00	0	43	0	959447040	60	5457
2026-01-20 11:44:07.30	320.73	9.75	-44.8	-48.0	16.1	0.00e+00	0	43	0	961544192	60	5415
2026-01-20 11:44:08.29	320.86	9.69	-44.7	-47.9	16.2	0.00e+00	0	42	0	963641344	60	5384
2026-01-20 11:44:09.29	320.98	9.63	-44.7	-48.0	16.1	0.00e+00	0	42	0	965738496	60	5403
2026-01-20 11:44:10.28	321.10	9.57	-44.8	-48.1	16.0	0.00e+00	0	43	0	966787072	60	5501
2026-01-20 11:44:11.28	321.22	9.51	-44.9	-48.1	16.0	0.00e+00	0	43	0	968884224	60	5496
2026-01-20 11:44:12.27	321.35	9.45	-44.8	-48.0	16.0	0.00e+00	0	42	0	970981376	60	5463
2026-01-20 11:44:13.27	321.47	9.39	-45.0	-48.2	15.8	0.00e+00	0	42	0	973078528	60	5563
2026-01-20 11:44:14.26	321.59	9.33	-45.1	-48.5	15.6	0.00e+00	0	43	0	974127104	60	5725
2026-01-20 11:44:15.26	321.71	9.27	-45.2	-48.5	15.5	0.00e+00	0	43	0	976224256	61	5413
2026-01-20 11:44:16.25	321.83	9.21	-45.2	-48.6	15.5	0.00e+00	0	43	0	978321408	61	5476
2026-01-20 11:44:17.24	321.95	9.15	-45.2	-48.6	15.4	0.00e+00	0	43	0	980418560	61	5511
2026-01-20 11:44:18.24	322.07	9.09	-45.2	-48.6	15.4	0.00e+00	0	43	0	982515712	61	5481
2026-01-20 11:44:19.23	322.19	9.03	-45.1	-48.5	15.5	0.00e+00	0	43	0	983564288	61	5446
2026-01-20 11:44:20.23	322.30	8.97	-49.6	-65.3	3.8	1.70e-02	0	43	104	985661440	69	23700
2026-01-20 11:44:21.22	322.42	8.91	-50.0	-65.5	3.8	1.49e+00	0	42	104	985661440	70	22794
2026-01-20 11:44:22.21	322.54	8.85	-49.7	-65.7	3.8	1.49e+00	0	42	104	985661440	71	22166
2026-01-20 11:44:23.21	322.66	8.79	-50.2	-65.8	3.8	1.49e+00	0	42	104	985661440	71	22440
2026-01-20 11:44:24.20	322.77	8.73	-50.3	-65.8	3.8	1.49e+00	0	42	104	985661440	71	22512
2026-01-20 11:44:25.19	322.89	8.67	-50.5	-65.9	3.8	1.49e+00	0	43	104	985661440	71	22686
2026-01-20 11:44:26.19	323.00	8.61	-50.6	-65.9	3.8	1.49e+00	0	43	104	985661440	71	22769
2026-01-20 11:44:27.18	323.12	8.55	-50.6	-65.9	3.8	1.49e+00	0	42	104	985661440	72	21477
2026-01-20 11:44:28.18	323.23	8.49	-50.4	-66.0	3.8	1.49e+00	0	43	104	985661440	72	21530
2026-01-20 11:44:29.17	323.34	8.43	-50.6	-66.0	3.8	1.49e+00	0	43	104	985661440	72	21631
2026-01-20 11:44:30.16	323.46	8.37	-50.6	-65.9	3.8	1.49e+00	0	43	104	985661440	72	21506
2026-01-20 11:44:31.16	323.57	8.31	-50.6	-66.0	3.8	1.49e+00	0	43	104	985661440	72	21558
2026-01-20 11:44:32.15	323.68	8.25	-49.3	-65.7	3.8	1.49e+00	0	42	104	985661440	70	23442
2026-01-20 11:44:33.14	323.79	8.19	-50.8	-66.0	3.8	1.49e+00	0	43	104	985661440	72	21628
2026-01-20 11:44:34.13	323.91	8.14	-50.8	-66.0	3.8	1.49e+00	0	43	104	985661440	72	21668
2026-01-20 11:44:35.13	324.02	8.08	-50.8	-66.0	3.8	1.49e+00	0	42	104	985661440	72	21632
2026-01-20 11:44:36.12	324.13	8.02	-50.7	-66.0	3.8	1.49e+00	0	42	104	985661440	72	21654
2026-01-20 11:44:37.11	324.24	7.96	-50.7	-66.0	3.8	1.49e+00	0	42	104	985661440	72	21533
2026-01-20 11:44:38.11	324.35	7.90	-50.6	-65.9	3.8	1.49e+00	0	42	104	985661440	72	21459
2026-01-20 11:44:39.10	324.46	7.84	-50.6	-65.9	3.8	1.49e+00	0	43	104	985661440	72	21479
2026-01-20 11:44:40.10	324.57	7.78	-50.4	-65.9	3.8	1.49e+00	0	43	104	985661440	72	21317
2026-01-20 11:44:41.09	324.68	7.72	-50.4	-65.9	3.8	1.49e+00	0	42	104	985661440	72	21428
2026-01-20 11:44:42.08	324.78	7.66	-50.4	-65.9	3.8	1.49e+00	0	42	104	985661440	72	21419
2026-01-20 11:44:43.08	324.89	7.60	-50.4	-65.9	3.8	1.49e+00	0	43	104	985661440	72	21354
2026-01-20 11:44:44.07	325.00	7.54	-50.4	-65.9	3.8	1.49e+00	0	43	104	985661440	72	21462
2026-01-20 11:44:45.06	325.11	7.49	-50.4	-65.9	3.8	1.49e+00	0	43	104	985661440	72	21390
2026-01-20 11:44:46.06	325.21	7.43	-50.4	-65.9	3.8	1.49e+00	0	43	104	985661440	72	21394
2026-01-20 11:44:47.05	325.32	7.37	-50.4	-65.9	3.8	1.49e+00	0	43	104	985661440	72	21279
2026-01-20 11:44:48.04	325.42	7.31	-50.4	-65.9	3.8	1.49e+00	0	42	104	985661440	72	21461
2026-01-20 11:44:49.04	325.53	7.25	-50.4	-65.9	3.8	1.49e+00	0	42	104	985661440	72	21310
2026-01-20 11:44:50.03	325.63	7.19	-50.4	-65.9	3.8	1.49e+00	0	42	104	985661440	72	21314
2026-01-20 11:44:51.02	325.74	7.13	-50.4	-65.9	3.8	1.49e+00	0	42	104	985661440	72	21338
2026-01-20 11:44:52.02	325.84	7.08	-50.4	-65.9	3.8	1.49e+00	0	43	104	985661440	72	21324
2026-01-20 11:44:53.01	325.95	7.02	-50.4	-65.9	3.8	1.49e+00	0	43	104	985661440	72	21323
2026-01-20 11:44:54.00	326.05	6.96	-50.4	-65.9	3.8	1.49e+00	0	42	104	985661440	72	21279
2026-01-20 11:44:55.00	326.15	6.90	-50.4	-65.9	3.8	1.49e+00	0	42	104	985661440	72	21330
2026-01-20 11:44:55.99	326.26	6.84	-50.4	-65.9	3.8	1.49e+00	0	43	104	985661440	72	21268
2026-01-20 11:44:56.98	326.36	6.79	-50.4	-65.9	3.8	1.49e+00	0	43	104	985661440	72	21364
2026-01-20 11:44:57.98	326.46	6.73	-50.4	-65.9	3.8	1.49e+00	0	42	104	985661440	72	21298
2026-01-20 11:44:58.97	326.56	6.67	-50.4	-65.9	3.8	1.49e+00	0	43	104	985661440	72	21302
2026-01-20 11:44:59.96	326.66	6.61	-50.4	-65.9	3.8	1.49e+00	0	43	104	985661440	72	21281
2026-01-20 11:45:00.94	326.76	6.55	-50.4	-65.9	3.8	1.49e+00	0	43	104	985661440	72	21323
2026-01-20 11:45:01.93	326.86	6.50	-50.4	-65.9	3.8	1.49e+00	0	42	104	985661440	72	21323
2026-01-20 11:45:02.92	326.96	6.44	-50.4	-65.9	3.8	1.49e+00	0	43	104	985661440	72	21389
2026-01-20 11:45:03.92	327.06	6.38	-50.4	-65.9	3.8	1.49e+00	0	43	104	985661440	72	21286
2026-01-20 11:45:04.91	327.16	6.32	-50.4	-65.9	3.8	1.49e+00	0	42	104	985661440	72	21318
2026-01-20 11:45:05.90	327.26	6.27	-50.4	-65.8	3.8	1.49e+00	0	42	104	985661440	72	21254
2026-01-20 11:45:06.90	327.36	6.21	-50.4	-65.9	3.8	1.49e+00	0	43	104	985661440	72	21273
2026-01-20 11:45:07.89	327.45	6.15	-50.4	-65.9	3.8	1.49e+00	0	43	104	985661440	72	21282
2026-01-20 11:45:08.88	327.55	6.09	-50.4	-65.8	3.8	1.49e+00	0	42	104	985661440	72	21172
2026-01-20 11:45:09.88	327.65	6.04	-50.4	-65.9	3.8	1.49e+00	0	42	104	985661440	72	21278
2026-01-20 11:45:10.87	327.75	5.98	-50.4	-65.9	3.8	1.49e+00	0	42	104	985661440	72	21344
2026-01-20 11:45:11.86	327.84	5.92	-50.4	-65.8	3.8	1.49e+00	0	43	104	985661440	72	21240
2026-01-20 11:45:12.86	327.94	5.87	-50.4	-65.8	3.8	1.49e+00	0	43	104	985661440	72	21228
2026-01-20 11:45:13.85	328.03	5.81	-50.4	-65.8	3.8	1.49e+00	0	42	104	985661440	72	21171
2026-01-20 11:45:14.85	328.13	5.75	-50.4	-65.8	3.8	1.49e+00	0	42	104	985661440	72	21204
2026-01-20 11:45:15.84	328.22	5.69	-50.4	-65.9	3.8	1.49e+00	0	42	104	985661440	72	21278
2026-01-20 11:45:16.83	328.32	5.64	-50.4	-65.8	3.8	1.49e+00	0	43	104	985661440	72	21257
2026-01-20 11:45:17.83	328.41	5.58	-50.4	-65.8	3.8	1.49e+00	0	43	104	985661440	72	21195
2026-01-20 11:45:18.82	328.51	5.52	-50.4	-65.8	3.8	1.49e+00	0	42	104	985661440	72	21166
2026-01-20 11:45:19.81	328.60	5.47	-50.4	-65.9	3.8	1.49e+00	0	42	104	985661440	72	21263
2026-01-20 11:45:20.81	328.70	5.41	-50.4	-65.8	3.8	1.49e+00	0	42	104	985661440	72	21205
2026-01-20 11:45:21.80	328.79	5.35	-50.4	-65.9	3.8	1.49e+00	0	42	104	985661440	72	21290
2026-01-20 11:45:22.79	328.88	5.30	-50.4	-65.8	3.8	1.49e+00	0	42	104	985661440	72	21222
2026-01-20 11:45:23.79	328.97	5.24	-50.4	-65.8	3.8	1.49e+00	0	43	104	985661440	72	21208
2026-01-20 11:45:24.78	329.06	5.18	-50.4	-65.8	3.8	1.49e+00	0	43	104	985661440	72	21250
2026-01-20 11:45:25.77	329.16	5.13	-50.4	-65.8	3.8	1.49e+00	0	42	104	985661440	72	21233
2026-01-20 11:45:26.77	329.25	5.07	-50.4	-65.8	3.8	1.49e+00	0	43	104	985661440	72	21257
2026-01-20 11:45:27.76	329.34	5.02	-50.4	-65.8	3.8	1.49e+00	0	42	104	985661440	72	21141
2026-01-20 11:45:28.75	329.43	4.96	-50.4	-65.8	3.8	1.49e+00	0	43	104	985661440	72	21224

#Closed at: 2026-01-20 11:45:29
#Recorded file [985 MB]: D:/Data/31040_260120_143440.dat