passes_logs/2026/01/20/T1/T1__20260120_054439_FENGYUN_3E_rec.log

#Pass ID: 20260120_054439_FENGYUN 3E
#Satellite: FENGYUN 3E
#Configuration: FENGYUN 3E
#almurnet v.1.7.20251203
#Start time: 2026-01-20 05:44:39

#Version: 2.0.20230620
#Station: T1
#Location: 37.570604 lon 55.790049 lat
#TLE: 1 49008U 21062A   26019.58611515 -.00000153  00000+0 -51205-4 0  9999
#TLE: 2 49008  98.7481  24.6604 0002215 127.7537 232.3840 14.19884915235499

#Time	Az	El	Level	Level2	SNR	BER	BlckErr	Temp	State	Recorded	gain1	gain2
2026-01-20 05:44:39.32	5.88	5.02	-50.6	-61.6	3.8	8.47e-01	0	41	0	0	70	13579
2026-01-20 05:44:40.31	5.80	5.08	-49.2	-60.9	3.8	8.47e-01	0	41	104	0	69	13339
2026-01-20 05:44:41.30	5.71	5.14	-49.2	-60.8	3.8	8.47e-01	0	41	104	0	69	13221
2026-01-20 05:44:42.30	5.63	5.20	-49.2	-60.9	3.8	8.47e-01	0	41	104	0	68	14085
2026-01-20 05:44:43.32	5.54	5.26	-49.2	-60.9	3.8	8.46e-01	0	41	104	0	68	14082
2026-01-20 05:44:44.35	5.45	5.32	-49.2	-60.9	3.8	8.44e-01	0	41	104	0	68	14093
2026-01-20 05:44:45.37	5.36	5.38	-49.2	-60.9	3.8	8.47e-01	0	41	104	0	68	14160
2026-01-20 05:44:46.40	5.27	5.44	-49.2	-60.9	3.8	8.47e-01	0	41	104	0	68	14085
2026-01-20 05:44:47.42	5.18	5.50	-49.2	-60.9	3.8	8.47e-01	0	41	104	0	68	14110
2026-01-20 05:44:48.45	5.09	5.57	-49.2	-60.9	3.8	8.46e-01	0	41	104	0	68	14187
2026-01-20 05:44:49.47	5.00	5.63	-48.9	-60.8	3.8	8.46e-01	0	41	104	0	68	13981
2026-01-20 05:44:50.50	4.91	5.69	-49.0	-60.8	3.9	8.46e-01	0	41	104	0	68	13889
2026-01-20 05:44:51.52	4.82	5.75	-49.0	-60.8	3.9	8.45e-01	0	41	104	0	68	13930
2026-01-20 05:44:52.55	4.73	5.81	-48.9	-60.7	3.9	8.45e-01	0	41	104	0	68	13863
2026-01-20 05:44:53.54	4.64	5.87	-49.0	-60.8	3.8	8.45e-01	0	41	104	0	68	13934
2026-01-20 05:44:54.53	4.55	5.93	-49.1	-60.9	3.8	8.46e-01	0	41	104	0	68	14060
2026-01-20 05:44:55.53	4.46	5.99	-48.7	-60.8	3.8	8.45e-01	0	41	104	0	68	13935
2026-01-20 05:44:56.52	4.37	6.05	-49.0	-60.9	3.8	8.45e-01	0	41	104	0	68	14058
2026-01-20 05:44:57.51	4.28	6.11	-49.0	-60.8	3.9	8.45e-01	0	41	104	0	68	13907
2026-01-20 05:44:58.51	4.19	6.17	-49.1	-60.8	3.9	8.46e-01	0	41	104	0	68	13975
2026-01-20 05:44:59.50	4.10	6.23	-49.1	-60.9	3.8	8.46e-01	0	41	104	0	68	14147
2026-01-20 05:45:00.49	4.01	6.29	-49.2	-61.0	3.8	8.46e-01	0	42	104	0	68	14245
2026-01-20 05:45:01.49	3.92	6.35	-49.2	-61.0	3.8	8.47e-01	0	42	104	0	68	14257
2026-01-20 05:45:02.48	3.83	6.41	-49.2	-61.0	3.8	8.47e-01	0	42	104	0	68	14292
2026-01-20 05:45:03.47	3.73	6.47	-49.2	-61.0	3.8	8.46e-01	0	42	104	0	68	14251
2026-01-20 05:45:04.47	3.64	6.53	-49.2	-61.0	3.8	8.47e-01	0	42	104	0	68	14293
2026-01-20 05:45:05.46	3.55	6.59	-49.2	-61.0	3.8	8.46e-01	0	42	104	0	68	14275
2026-01-20 05:45:06.45	3.45	6.65	-49.2	-61.0	3.8	8.47e-01	0	42	104	0	68	14315
2026-01-20 05:45:07.45	3.36	6.71	-49.2	-60.9	3.8	8.47e-01	0	42	104	0	68	14196
2026-01-20 05:45:08.47	3.26	6.78	-49.2	-61.0	3.8	8.47e-01	0	42	104	0	68	14287
2026-01-20 05:45:09.50	3.16	6.84	-49.2	-61.0	3.8	8.46e-01	0	42	104	0	68	14279
2026-01-20 05:45:10.52	3.06	6.90	-49.2	-61.0	3.8	8.45e-01	0	42	104	0	68	14337
2026-01-20 05:45:11.55	2.96	6.96	-49.2	-61.0	3.8	8.46e-01	0	42	104	0	68	14313
2026-01-20 05:45:12.54	2.87	7.02	-49.2	-61.0	3.8	8.47e-01	0	42	104	0	68	14338
2026-01-20 05:45:13.53	2.77	7.09	-49.2	-61.1	3.8	8.48e-01	0	42	104	0	68	14400
2026-01-20 05:45:14.53	2.67	7.15	-49.2	-61.0	3.8	8.49e-01	0	42	104	0	68	14253
2026-01-20 05:45:15.52	2.58	7.21	-49.2	-60.9	3.8	8.46e-01	0	42	104	0	68	14208
2026-01-20 05:45:16.51	2.48	7.27	-49.2	-60.9	3.8	8.47e-01	0	42	104	0	68	14148
2026-01-20 05:45:17.51	2.38	7.33	-49.2	-60.9	3.8	8.47e-01	0	42	104	0	68	14151
2026-01-20 05:45:18.50	2.28	7.39	-49.2	-60.9	3.8	8.47e-01	0	42	104	0	68	14134
2026-01-20 05:45:19.49	2.18	7.45	-49.2	-60.9	3.8	8.46e-01	0	42	104	0	68	14125
2026-01-20 05:45:20.49	2.08	7.51	-49.2	-60.9	3.8	8.47e-01	0	42	104	0	68	14091
2026-01-20 05:45:21.48	1.98	7.58	-49.2	-60.9	3.8	8.46e-01	0	42	104	0	68	14104
2026-01-20 05:45:22.47	1.88	7.64	-49.2	-60.7	3.8	8.48e-01	0	42	104	0	68	13874
2026-01-20 05:45:23.47	1.78	7.70	-49.2	-60.6	3.8	8.46e-01	0	42	104	0	68	13690
2026-01-20 05:45:24.46	1.68	7.76	-49.2	-60.3	3.8	8.46e-01	0	42	104	0	68	13218
2026-01-20 05:45:25.45	1.57	7.82	-49.1	-60.0	3.8	8.46e-01	0	42	104	0	68	12755
2026-01-20 05:45:26.45	1.47	7.89	-49.1	-59.7	3.8	8.47e-01	0	42	104	0	68	12242
2026-01-20 05:45:27.45	1.37	7.95	-49.1	-59.4	3.8	8.46e-01	0	42	104	0	68	11845
2026-01-20 05:45:28.48	1.26	8.01	-49.1	-59.3	3.8	8.47e-01	0	42	104	0	68	11810
2026-01-20 05:45:29.50	1.15	8.08	-49.1	-59.5	3.8	8.46e-01	0	42	104	0	68	12032
2026-01-20 05:45:30.53	1.05	8.14	-49.1	-59.8	3.8	8.46e-01	0	42	104	0	68	12463
2026-01-20 05:45:31.55	0.94	8.20	-49.2	-60.2	3.8	8.47e-01	0	42	104	0	68	13013
2026-01-20 05:45:32.55	0.83	8.27	-49.2	-60.5	3.8	8.47e-01	0	42	104	0	68	13533
2026-01-20 05:45:33.54	0.73	8.33	-49.2	-60.6	3.8	8.46e-01	0	42	104	0	68	13592
2026-01-20 05:45:34.53	0.62	8.39	-49.1	-60.1	3.8	8.46e-01	0	42	104	0	68	12862
2026-01-20 05:45:35.53	0.51	8.45	-49.0	-58.7	4.0	8.45e-01	0	42	104	0	68	10997
2026-01-20 05:45:36.52	0.41	8.52	-48.7	-56.7	4.5	8.34e-01	0	42	0	0	68	8728
2026-01-20 05:45:37.51	0.30	8.58	-47.9	-54.4	5.7	7.48e-01	0	42	0	0	66	7479
2026-01-20 05:45:38.51	0.19	8.64	-47.3	-52.0	7.7	1.15e-01	0	43	0	6291456	65	6055
2026-01-20 05:45:39.50	0.08	8.70	-46.5	-50.2	9.6	2.03e-02	0	43	0	13631488	63	5487
2026-01-20 05:45:40.49	359.97	8.77	-45.6	-48.5	11.4	1.24e-03	0	43	0	20971520	62	4806
2026-01-20 05:45:41.49	359.86	8.83	-44.8	-47.2	12.7	1.11e-04	0	43	0	28311552	60	4636
2026-01-20 05:45:42.48	359.75	8.89	-44.2	-46.3	13.6	1.48e-05	0	43	0	35651584	59	4410
2026-01-20 05:45:43.48	359.64	8.96	-43.8	-45.8	14.1	4.50e-06	0	43	0	42991616	58	4427
2026-01-20 05:45:44.47	359.53	9.02	-43.7	-45.7	14.2	1.10e-06	0	43	0	49283072	58	4354
2026-01-20 05:45:45.46	359.42	9.08	-44.3	-46.5	13.4	1.10e-06	0	43	0	56623104	58	4767
2026-01-20 05:45:46.46	359.31	9.14	-46.7	-50.7	9.3	2.97e-03	0	42	0	63963136	62	6139
2026-01-20 05:45:47.46	359.19	9.21	-45.8	-48.7	11.0	4.74e-01	0	43	0	69206016	62	4872
2026-01-20 05:45:48.54	359.07	9.28	-40.4	-41.5	18.2	0.00e+00	0	42	0	77594624	51	4049
2026-01-20 05:45:49.40	358.97	9.33	-40.3	-41.5	18.2	0.00e+00	0	43	0	82837504	51	4035
2026-01-20 05:45:50.54	358.84	9.40	-41.3	-42.6	17.1	0.00e+00	0	43	0	91226112	53	4066
2026-01-20 05:45:51.39	358.74	9.46	-40.4	-41.6	18.2	0.00e+00	0	43	0	97517568	51	4065
2026-01-20 05:45:52.53	358.61	9.53	-40.4	-41.6	18.2	0.00e+00	0	43	0	105906176	51	4063
2026-01-20 05:45:53.38	358.51	9.58	-40.3	-41.5	18.2	0.00e+00	0	43	0	112197632	51	4047
2026-01-20 05:45:54.52	358.38	9.66	-40.3	-41.5	18.3	0.00e+00	0	43	0	120586240	51	4005
2026-01-20 05:45:55.37	358.28	9.71	-40.1	-41.3	18.4	0.00e+00	0	43	0	125829120	51	3953
2026-01-20 05:45:56.50	358.14	9.78	-40.2	-41.4	18.3	0.00e+00	0	43	0	134217728	51	3977
2026-01-20 05:45:57.36	358.04	9.84	-40.0	-41.2	18.5	0.00e+00	0	43	0	140509184	50	4120
2026-01-20 05:45:58.49	357.91	9.91	-40.1	-41.3	18.4	0.00e+00	0	43	0	148897792	50	4186
2026-01-20 05:45:59.35	357.80	9.97	-40.0	-41.3	18.5	0.00e+00	0	43	0	155189248	50	4148
2026-01-20 05:46:00.48	357.67	10.04	-39.9	-41.1	18.7	0.00e+00	0	43	0	163577856	50	4074
2026-01-20 05:46:01.34	357.56	10.09	-40.1	-41.3	18.5	0.00e+00	0	43	0	169869312	50	4156
2026-01-20 05:46:02.52	357.42	10.17	-40.2	-41.4	18.3	0.00e+00	0	43	0	178257920	50	4227
2026-01-20 05:46:03.38	357.32	10.23	-40.0	-41.3	18.5	0.00e+00	0	43	0	184549376	50	4147
2026-01-20 05:46:04.51	357.18	10.30	-40.0	-41.3	18.5	0.00e+00	0	43	0	191889408	50	4163
2026-01-20 05:46:05.37	357.07	10.35	-40.0	-41.2	18.5	0.00e+00	0	43	0	198180864	50	4139
2026-01-20 05:46:06.60	356.92	10.43	-39.8	-41.1	18.7	0.00e+00	0	43	0	207618048	50	4093
2026-01-20 05:46:07.45	356.81	10.49	-39.9	-41.1	18.7	0.00e+00	0	43	0	213909504	50	4092
2026-01-20 05:46:08.58	356.67	10.56	-39.9	-41.2	18.7	0.00e+00	0	43	0	222298112	50	4100
2026-01-20 05:46:09.43	356.57	10.62	-39.8	-41.1	18.8	0.00e+00	0	43	0	227540992	50	4057
2026-01-20 05:46:10.57	356.42	10.69	-39.9	-41.2	18.7	0.00e+00	0	43	0	235929600	50	4101
2026-01-20 05:46:11.42	356.32	10.74	-39.9	-41.2	18.6	0.00e+00	0	43	0	242221056	50	4132
2026-01-20 05:46:12.56	356.17	10.82	-39.6	-40.9	18.9	0.00e+00	0	43	0	250609664	50	3981
2026-01-20 05:46:13.41	356.06	10.87	-39.7	-41.0	18.8	0.00e+00	0	43	0	256901120	50	4031
2026-01-20 05:46:14.55	355.92	10.95	-39.7	-41.0	18.8	0.00e+00	0	43	0	265289728	50	4016
2026-01-20 05:46:15.40	355.81	11.00	-39.8	-41.1	18.8	0.00e+00	0	43	0	270532608	50	4060
2026-01-20 05:46:16.54	355.66	11.07	-39.6	-40.9	19.0	0.00e+00	0	43	0	278921216	50	3959
2026-01-20 05:46:17.39	355.55	11.13	-39.8	-41.1	18.8	0.00e+00	0	43	0	285212672	50	4073
2026-01-20 05:46:18.53	355.40	11.20	-39.6	-40.9	19.0	0.00e+00	0	43	0	293601280	49	4196
2026-01-20 05:46:19.38	355.29	11.26	-39.6	-40.9	18.9	0.00e+00	0	43	0	299892736	49	4227
2026-01-20 05:46:20.52	355.14	11.33	-39.5	-40.8	19.1	0.00e+00	0	43	0	308281344	49	4158
2026-01-20 05:46:21.37	355.03	11.39	-39.5	-40.8	19.1	0.00e+00	0	43	0	313524224	49	4151
2026-01-20 05:46:22.51	354.87	11.46	-39.5	-40.7	19.2	0.00e+00	0	43	0	321912832	49	4128
2026-01-20 05:46:23.36	354.76	11.52	-39.6	-40.8	19.1	0.00e+00	0	43	0	328204288	49	4183
2026-01-20 05:46:24.60	354.59	11.60	-39.6	-40.9	19.0	0.00e+00	0	43	0	337641472	49	4204
2026-01-20 05:46:25.46	354.48	11.65	-39.8	-41.0	18.9	0.00e+00	0	43	0	343932928	49	4261
2026-01-20 05:46:26.71	354.31	11.73	-40.0	-41.3	18.6	0.00e+00	0	43	0	352321536	49	4403
2026-01-20 05:46:27.56	354.19	11.79	-39.9	-41.1	18.7	0.00e+00	0	43	0	358612992	49	4340
2026-01-20 05:46:28.69	354.04	11.86	-39.9	-41.2	18.7	0.00e+00	0	43	0	367001600	49	4348
2026-01-20 05:46:29.55	353.92	11.92	-39.9	-41.1	18.8	0.00e+00	0	43	0	373293056	49	4321
2026-01-20 05:46:30.68	353.77	11.99	-39.9	-41.2	18.7	0.00e+00	0	43	0	381681664	49	4351
2026-01-20 05:46:31.53	353.65	12.05	-40.0	-41.2	18.7	0.00e+00	0	43	0	387973120	49	4369
2026-01-20 05:46:32.67	353.49	12.12	-39.8	-41.0	18.9	0.00e+00	0	43	0	396361728	49	4276
2026-01-20 05:46:33.70	353.34	12.19	-39.7	-40.9	19.0	0.00e+00	0	43	0	402653184	49	4216
2026-01-20 05:46:34.87	353.18	12.26	-39.7	-40.9	19.0	0.00e+00	0	43	0	411041792	49	4213
2026-01-20 05:46:35.75	353.06	12.32	-39.6	-40.9	19.0	0.00e+00	0	43	0	418381824	49	4197
2026-01-20 05:46:37.08	352.87	12.41	-39.6	-40.8	19.1	0.00e+00	0	43	0	427819008	49	4188
2026-01-20 05:46:37.79	352.77	12.45	-39.5	-40.7	19.2	0.00e+00	0	43	0	433061888	49	4135
2026-01-20 05:46:39.26	352.56	12.55	-39.4	-40.7	19.3	0.00e+00	0	43	0	443547648	49	4103
2026-01-20 05:46:39.97	352.45	12.60	-39.3	-40.5	19.4	0.00e+00	0	43	0	447741952	49	4014
2026-01-20 05:46:41.25	352.27	12.68	-39.2	-40.4	19.5	0.00e+00	0	43	0	457179136	49	3998
2026-01-20 05:46:41.97	352.16	12.73	-39.1	-40.3	19.6	0.00e+00	0	43	0	463470592	49	3951
2026-01-20 05:46:43.25	351.98	12.81	-39.1	-40.3	19.6	0.00e+00	0	43	0	471859200	48	4146
2026-01-20 05:46:43.98	351.87	12.86	-39.2	-40.4	19.5	0.00e+00	0	43	0	477102080	48	4203
2026-01-20 05:46:45.25	351.68	12.94	-39.1	-40.3	19.6	0.00e+00	0	43	0	486539264	48	4173
2026-01-20 05:46:45.96	351.58	12.99	-39.2	-40.4	19.5	0.00e+00	0	43	0	491782144	48	4218
2026-01-20 05:46:47.25	351.39	13.07	-39.3	-40.5	19.4	0.00e+00	0	43	0	501219328	48	4250
2026-01-20 05:46:47.96	351.28	13.12	-39.3	-40.5	19.4	0.00e+00	0	43	0	506462208	48	4278
2026-01-20 05:46:49.24	351.09	13.20	-39.5	-40.7	19.3	0.00e+00	0	43	0	514850816	48	4350
2026-01-20 05:46:49.96	350.98	13.25	-39.7	-40.9	19.1	0.00e+00	0	43	0	520093696	48	4444
2026-01-20 05:46:51.25	350.78	13.33	-39.6	-40.7	19.3	0.00e+00	0	43	0	529530880	49	4112
2026-01-20 05:46:52.16	350.65	13.39	-39.6	-40.7	19.3	0.00e+00	0	43	0	535822336	49	4122
2026-01-20 05:46:53.46	350.45	13.47	-39.5	-40.6	19.4	0.00e+00	0	43	0	545259520	49	4071
2026-01-20 05:46:54.17	350.34	13.52	-39.5	-40.5	19.4	0.00e+00	0	43	0	550502400	49	4034
2026-01-20 05:46:55.85	350.08	13.63	-39.5	-40.6	19.4	0.00e+00	0	43	0	563085312	49	4060
2026-01-20 05:46:56.42	349.99	13.66	-39.5	-40.5	19.4	0.00e+00	0	43	0	567279616	49	4045
2026-01-20 05:46:58.12	349.73	13.77	-39.4	-40.5	19.4	0.00e+00	0	43	0	579862528	49	4020
2026-01-20 05:46:58.74	349.63	13.81	-39.4	-40.5	19.5	0.00e+00	0	43	0	584056832	49	4011
2026-01-20 05:47:00.30	349.38	13.91	-39.3	-40.3	19.6	0.00e+00	0	43	0	595591168	49	3942
2026-01-20 05:47:00.95	349.28	13.96	-39.2	-40.2	19.7	0.00e+00	0	43	0	599785472	49	3906
2026-01-20 05:47:02.37	349.05	14.05	-39.1	-40.2	19.8	0.00e+00	0	43	0	610271232	49	3883
2026-01-20 05:47:03.08	348.94	14.09	-39.1	-40.2	19.7	0.00e+00	0	43	0	615514112	48	4132
2026-01-20 05:47:04.36	348.74	14.18	-39.0	-40.1	19.8	0.00e+00	0	43	0	623902720	48	4076
2026-01-20 05:47:05.10	348.62	14.22	-39.0	-40.1	19.8	0.00e+00	0	43	0	630194176	48	4097
2026-01-20 05:47:06.38	348.41	14.31	-39.0	-40.1	19.9	0.00e+00	0	43	0	639631360	48	4071
2026-01-20 05:47:07.10	348.29	14.35	-39.0	-40.1	19.9	0.00e+00	0	43	0	643825664	48	4072
2026-01-20 05:47:08.38	348.08	14.43	-39.0	-40.0	19.9	0.00e+00	0	43	0	653262848	48	4048
2026-01-20 05:47:09.09	347.97	14.48	-39.0	-40.1	19.9	0.00e+00	0	43	0	658505728	48	4065
2026-01-20 05:47:10.38	347.75	14.56	-39.0	-40.0	19.9	0.00e+00	0	43	0	667942912	48	4036
2026-01-20 05:47:11.10	347.63	14.61	-39.0	-40.0	19.9	0.00e+00	0	43	0	673185792	48	4035
2026-01-20 05:47:12.38	347.42	14.69	-38.9	-39.9	20.0	0.00e+00	0	43	0	682622976	48	3985
2026-01-20 05:47:13.11	347.30	14.74	-38.9	-39.9	20.0	0.00e+00	0	43	0	687865856	48	4002
2026-01-20 05:47:14.39	347.09	14.82	-38.8	-39.8	20.1	0.00e+00	0	43	0	697303040	48	3956
2026-01-20 05:47:15.10	346.97	14.86	-38.8	-39.8	20.1	0.00e+00	0	43	0	701497344	48	3940
2026-01-20 05:47:16.38	346.75	14.94	-38.8	-39.9	20.1	0.00e+00	0	43	0	710934528	48	3973
2026-01-20 05:47:17.10	346.63	14.99	-38.8	-39.8	20.1	0.00e+00	0	43	0	716177408	48	3947
2026-01-20 05:47:18.43	346.40	15.07	-38.7	-39.8	20.1	0.00e+00	0	43	0	725614592	48	3947
2026-01-20 05:47:19.14	346.28	15.12	-38.7	-39.8	20.1	0.00e+00	0	43	0	730857472	48	3940
2026-01-20 05:47:20.42	346.06	15.20	-38.7	-39.8	20.1	0.00e+00	0	43	0	740294656	48	3918
2026-01-20 05:47:21.13	345.94	15.24	-38.7	-39.7	20.2	0.00e+00	0	43	0	745537536	48	3912
2026-01-20 05:47:22.54	345.69	15.33	-38.6	-39.7	20.2	0.00e+00	0	43	0	756023296	48	3898
2026-01-20 05:47:23.25	345.57	15.38	-38.7	-39.7	20.2	0.00e+00	0	43	0	761266176	48	3904
2026-01-20 05:47:24.53	345.34	15.46	-38.7	-39.7	20.3	0.00e+00	0	43	0	769654784	48	3884
2026-01-20 05:47:25.24	345.22	15.50	-38.6	-39.6	20.3	0.00e+00	0	43	0	774897664	48	3854
2026-01-20 05:47:26.54	344.99	15.58	-38.8	-39.8	20.1	0.00e+00	0	43	0	784334848	48	3958
2026-01-20 05:47:27.25	344.86	15.63	-38.8	-39.8	20.2	0.00e+00	0	43	0	789577728	48	3948
2026-01-20 05:47:28.71	344.60	15.72	-38.8	-39.8	20.1	0.00e+00	0	43	0	800063488	48	3944
2026-01-20 05:47:29.42	344.47	15.76	-38.7	-39.8	20.2	0.00e+00	0	43	0	805306368	48	3932
2026-01-20 05:47:30.70	344.24	15.84	-38.7	-39.8	20.2	0.00e+00	0	43	0	814743552	48	3930
2026-01-20 05:47:31.42	344.11	15.89	-38.7	-39.8	20.2	0.00e+00	0	43	0	819986432	48	3934
2026-01-20 05:47:32.70	343.88	15.96	-38.7	-39.8	20.1	0.00e+00	0	43	0	829423616	48	3945
2026-01-20 05:47:33.41	343.75	16.01	-38.6	-39.7	20.2	0.00e+00	0	43	0	833617920	48	3910
2026-01-20 05:47:34.69	343.52	16.09	-38.6	-39.7	20.3	0.00e+00	0	43	0	843055104	48	3874
2026-01-20 05:47:35.40	343.39	16.13	-38.4	-39.5	20.2	0.00e+00	0	43	0	848297984	47	4012
2026-01-20 05:47:36.68	343.15	16.21	-38.4	-39.4	20.3	0.00e+00	0	43	0	857735168	47	3999
2026-01-20 05:47:37.39	343.02	16.25	-38.4	-39.4	20.3	0.00e+00	0	43	0	862978048	47	3970
2026-01-20 05:47:38.68	342.78	16.33	-38.5	-39.5	20.2	0.00e+00	0	43	0	872415232	47	4030
2026-01-20 05:47:39.39	342.65	16.37	-38.4	-39.4	20.3	0.00e+00	0	43	0	877658112	47	3980
2026-01-20 05:47:40.67	342.41	16.45	-38.1	-39.1	20.6	0.00e+00	0	43	0	887095296	47	3837
2026-01-20 05:47:41.38	342.27	16.49	-37.8	-38.8	20.8	0.00e+00	0	43	0	891289600	46	3945
2026-01-20 05:47:42.72	342.02	16.57	-37.8	-38.7	20.9	0.00e+00	0	43	0	901775360	46	3907
2026-01-20 05:47:43.44	341.88	16.62	-37.7	-38.7	20.9	0.00e+00	0	43	0	907018240	46	3894
2026-01-20 05:47:44.71	341.64	16.69	-37.7	-38.7	20.9	0.00e+00	0	43	0	915406848	46	3897
2026-01-20 05:47:45.44	341.50	16.74	-37.7	-38.7	20.9	0.00e+00	0	43	0	920649728	46	3888
2026-01-20 05:47:46.72	341.26	16.81	-37.8	-38.7	20.9	0.00e+00	0	43	0	930086912	46	3903
2026-01-20 05:47:47.43	341.12	16.86	-37.8	-38.7	20.9	0.00e+00	0	43	0	935329792	46	3900
2026-01-20 05:47:48.71	340.87	16.93	-37.9	-38.8	20.8	0.00e+00	0	43	0	944766976	46	3943
2026-01-20 05:47:49.44	340.73	16.97	-37.9	-38.8	20.8	0.00e+00	0	43	0	950009856	46	3950
2026-01-20 05:47:50.71	340.48	17.05	-37.9	-38.9	20.8	0.00e+00	0	43	0	959447040	46	3981
2026-01-20 05:47:51.44	340.34	17.09	-38.0	-38.9	20.7	0.00e+00	0	43	0	964689920	46	4000
2026-01-20 05:47:52.72	340.09	17.17	-38.0	-39.0	20.7	0.00e+00	0	44	0	973078528	46	4015
2026-01-20 05:47:53.46	339.94	17.21	-38.1	-39.1	20.5	0.00e+00	0	43	0	978321408	46	4095
2026-01-20 05:47:54.73	339.69	17.28	-37.9	-38.9	20.8	0.00e+00	0	43	0	987758592	46	3975
2026-01-20 05:47:55.58	339.52	17.33	-37.8	-38.8	20.8	0.00e+00	0	43	0	994050048	46	3930
2026-01-20 05:47:56.94	339.25	17.41	-37.8	-38.7	21.0	0.00e+00	0	43	0	1004535808	46	3884
2026-01-20 05:47:57.65	339.10	17.45	-37.7	-38.6	20.5	0.00e+00	0	44	0	1008730112	46	3858
2026-01-20 05:47:59.15	338.80	17.53	-37.6	-38.5	21.1	0.00e+00	0	43	0	1020264448	46	3816
2026-01-20 05:47:59.86	338.66	17.58	-37.7	-38.6	21.0	0.00e+00	0	43	0	1025507328	46	3846
2026-01-20 05:48:01.20	338.39	17.65	-37.7	-38.7	21.0	0.00e+00	0	43	0	1034944512	46	3882
2026-01-20 05:48:01.91	338.24	17.69	-37.6	-38.5	21.1	0.00e+00	0	43	0	1040187392	45	4025
2026-01-20 05:48:03.19	337.98	17.76	-37.6	-38.5	21.1	0.00e+00	0	44	0	1049624576	45	4028
2026-01-20 05:48:04.26	337.76	17.82	-37.5	-38.4	21.2	0.00e+00	0	43	0	1056964608	45	3987
2026-01-20 05:48:05.12	337.58	17.87	-37.5	-38.5	21.1	0.00e+00	0	43	0	1063256064	45	4013
2026-01-20 05:48:06.25	337.35	17.93	-37.5	-38.5	21.1	0.00e+00	0	43	0	1071644672	45	4013
2026-01-20 05:48:07.10	337.17	17.98	-37.6	-38.5	21.1	0.00e+00	0	43	0	1076887552	45	4029
2026-01-20 05:48:08.29	336.92	18.04	-37.6	-38.6	21.0	0.00e+00	0	43	0	1086324736	45	4059
2026-01-20 05:48:09.14	336.74	18.09	-37.6	-38.6	21.0	0.00e+00	0	43	0	1092616192	45	4059
2026-01-20 05:48:10.36	336.49	18.15	-37.7	-38.6	21.0	0.00e+00	0	43	0	1101004800	45	4095
2026-01-20 05:48:11.21	336.31	18.20	-37.8	-38.7	21.0	0.00e+00	0	43	0	1107296256	45	4124
2026-01-20 05:48:12.35	336.07	18.26	-37.8	-38.8	20.8	0.00e+00	0	43	0	1115684864	45	4189
2026-01-20 05:48:13.20	335.88	18.31	-37.8	-38.8	20.8	0.00e+00	0	43	0	1120927744	45	4180
2026-01-20 05:48:14.46	335.62	18.37	-38.0	-39.0	20.7	0.00e+00	0	43	0	1130364928	45	4257
2026-01-20 05:48:15.29	335.44	18.42	-37.9	-38.9	20.7	0.00e+00	0	43	0	1136656384	45	4231
2026-01-20 05:48:16.43	335.19	18.48	-37.9	-38.9	20.8	0.00e+00	0	43	0	1145044992	45	4205
2026-01-20 05:48:17.28	335.01	18.52	-37.8	-38.8	20.8	0.00e+00	0	43	0	1151336448	45	4176
2026-01-20 05:48:18.42	334.76	18.58	-37.7	-38.7	21.0	0.00e+00	0	43	0	1159725056	45	4126
2026-01-20 05:48:19.27	334.58	18.62	-37.7	-38.6	21.0	0.00e+00	0	44	0	1164967936	45	4090
2026-01-20 05:48:20.41	334.33	18.68	-37.6	-38.5	21.1	0.00e+00	0	43	0	1173356544	45	4033
2026-01-20 05:48:21.26	334.14	18.72	-37.5	-38.5	21.2	0.00e+00	0	44	0	1179648000	45	4006
2026-01-20 05:48:22.65	333.84	18.79	-37.3	-38.2	21.4	0.00e+00	0	43	0	1189085184	45	3909
2026-01-20 05:48:23.36	333.68	18.83	-37.2	-38.2	21.4	0.00e+00	0	43	0	1195376640	45	3885
2026-01-20 05:48:24.81	333.36	18.90	-37.1	-38.1	21.5	0.00e+00	0	43	0	1205862400	45	3845
2026-01-20 05:48:25.52	333.20	18.94	-37.1	-38.1	21.5	0.00e+00	0	43	0	1210056704	44	4063
2026-01-20 05:48:26.80	332.92	19.00	-37.1	-38.0	21.6	0.00e+00	0	43	0	1219493888	44	4029
2026-01-20 05:48:27.52	332.76	19.03	-37.1	-38.0	21.5	0.00e+00	0	43	0	1224736768	44	4035
2026-01-20 05:48:28.80	332.47	19.09	-37.1	-37.9	21.6	0.00e+00	0	43	0	1234173952	44	4002
2026-01-20 05:48:29.51	332.31	19.13	-37.2	-38.1	21.5	0.00e+00	0	43	0	1239416832	44	4057
2026-01-20 05:48:30.78	332.02	19.19	-37.3	-38.2	21.4	0.00e+00	0	43	0	1248854016	44	4102
2026-01-20 05:48:31.51	331.86	19.22	-37.3	-38.2	21.4	0.00e+00	0	43	0	1254096896	44	4130
2026-01-20 05:48:32.79	331.57	19.28	-37.4	-38.3	21.3	0.00e+00	0	43	0	1262485504	44	4183
2026-01-20 05:48:33.50	331.41	19.31	-37.5	-38.4	21.3	0.00e+00	0	44	0	1267728384	44	4209
2026-01-20 05:48:34.78	331.11	19.37	-37.5	-38.4	21.2	0.00e+00	0	43	0	1277165568	44	4235
2026-01-20 05:48:35.49	330.95	19.41	-37.5	-38.5	21.2	0.00e+00	0	44	0	1282408448	44	4251
2026-01-20 05:48:36.77	330.66	19.46	-37.6	-38.5	21.1	0.00e+00	0	43	0	1291845632	44	4270
2026-01-20 05:48:37.66	330.45	19.50	-37.5	-38.4	21.2	0.00e+00	0	43	0	1298137088	44	4222
2026-01-20 05:48:39.05	330.13	19.56	-37.5	-38.4	21.2	0.00e+00	0	43	0	1307574272	44	4233
2026-01-20 05:48:39.76	329.97	19.60	-37.4	-38.4	21.2	0.00e+00	0	44	0	1313865728	44	4225
2026-01-20 05:48:41.04	329.67	19.65	-37.3	-38.3	21.3	0.00e+00	0	44	0	1322254336	44	4157
2026-01-20 05:48:41.77	329.50	19.68	-37.3	-38.2	21.3	0.00e+00	0	44	0	1327497216	44	4142
2026-01-20 05:48:43.05	329.20	19.74	-37.2	-38.1	21.5	0.00e+00	0	43	0	1336934400	44	4083
2026-01-20 05:48:43.76	329.03	19.77	-37.2	-38.1	21.5	0.00e+00	0	44	0	1342177280	44	4077
2026-01-20 05:48:45.04	328.73	19.82	-37.2	-38.1	21.5	0.00e+00	0	43	0	1351614464	44	4085
2026-01-20 05:48:45.76	328.56	19.85	-37.1	-38.0	21.6	0.00e+00	0	44	0	1356857344	44	4033
2026-01-20 05:48:47.04	328.26	19.90	-37.1	-38.0	21.6	0.00e+00	0	43	0	1365245952	44	4022
2026-01-20 05:48:47.78	328.08	19.93	-37.0	-38.0	21.6	0.00e+00	0	43	0	1371537408	44	4007
2026-01-20 05:48:49.06	327.78	19.98	-37.0	-37.9	21.6	0.00e+00	0	43	0	1380974592	44	3999
2026-01-20 05:48:49.77	327.61	20.01	-37.0	-37.9	21.7	0.00e+00	0	43	0	1385168896	44	3975
2026-01-20 05:48:51.05	327.30	20.06	-37.1	-38.0	21.6	0.00e+00	0	44	0	1394606080	44	4027
2026-01-20 05:48:51.78	327.13	20.09	-37.1	-38.0	21.6	0.00e+00	0	43	0	1399848960	44	4021
2026-01-20 05:48:53.13	326.80	20.14	-36.8	-37.7	21.8	0.00e+00	0	44	0	1409286144	44	3896
2026-01-20 05:48:53.84	326.63	20.17	-36.9	-37.8	21.8	0.00e+00	0	43	0	1414529024	44	3920
2026-01-20 05:48:55.16	326.31	20.21	-37.1	-38.0	21.6	0.00e+00	0	44	0	1425014784	44	4015
2026-01-20 05:48:55.87	326.14	20.24	-37.0	-37.9	21.6	0.00e+00	0	44	0	1429209088	44	3993
2026-01-20 05:48:57.14	325.83	20.29	-36.9	-37.8	21.7	0.00e+00	0	44	0	1438646272	44	3948
2026-01-20 05:48:58.17	325.58	20.32	-36.8	-37.7	21.8	0.00e+00	0	43	0	1445986304	44	3884
2026-01-20 05:48:59.46	325.27	20.37	-36.9	-37.8	21.8	0.00e+00	0	43	0	1455423488	44	3920
2026-01-20 05:49:00.17	325.09	20.39	-36.8	-37.7	21.8	0.00e+00	0	43	0	1460666368	44	3909
2026-01-20 05:49:01.80	324.70	20.45	-36.8	-37.7	21.8	0.00e+00	0	44	0	1472200704	44	3880
2026-01-20 05:49:02.37	324.56	20.47	-36.8	-37.7	21.8	0.00e+00	0	43	0	1476395008	44	3894
2026-01-20 05:49:04.08	324.13	20.52	-36.7	-37.6	21.9	0.00e+00	0	43	0	1488977920	44	3866
2026-01-20 05:49:04.64	324.00	20.54	-36.7	-37.6	21.9	0.00e+00	0	43	0	1493172224	44	3826
2026-01-20 05:49:06.35	323.57	20.59	-36.5	-37.4	22.0	0.00e+00	0	44	0	1504706560	43	3971
2026-01-20 05:49:06.92	323.43	20.61	-36.5	-37.3	22.0	0.00e+00	0	44	0	1508900864	43	3957
2026-01-20 05:49:08.62	323.01	20.66	-36.5	-37.4	22.0	0.00e+00	0	43	0	1521483776	43	3971
2026-01-20 05:49:09.31	322.84	20.68	-36.5	-37.4	22.0	0.00e+00	0	44	0	1526726656	43	3973
2026-01-20 05:49:10.73	322.48	20.72	-36.6	-37.4	21.9	0.00e+00	0	43	0	1537212416	43	3992
2026-01-20 05:49:11.44	322.30	20.74	-36.6	-37.4	21.9	0.00e+00	0	44	0	1541406720	43	4000
2026-01-20 05:49:12.72	321.98	20.78	-36.6	-37.5	21.9	0.00e+00	0	43	0	1550843904	43	4008
2026-01-20 05:49:13.59	321.76	20.80	-36.5	-37.4	21.9	0.00e+00	0	43	0	1557135360	43	3998
2026-01-20 05:49:14.73	321.48	20.83	-36.6	-37.5	21.9	0.00e+00	0	43	0	1565523968	43	4041
2026-01-20 05:49:15.58	321.26	20.86	-36.6	-37.5	21.8	0.00e+00	0	43	0	1571815424	43	4045
2026-01-20 05:49:16.72	320.97	20.88	-36.5	-37.4	21.9	0.00e+00	0	44	0	1580204032	43	3984
2026-01-20 05:49:17.57	320.76	20.91	-36.5	-37.4	22.0	0.00e+00	0	44	0	1586495488	43	3971
2026-01-20 05:49:18.70	320.47	20.93	-36.6	-37.4	21.9	0.00e+00	0	44	0	1593835520	43	4001
2026-01-20 05:49:19.55	320.26	20.95	-36.5	-37.4	22.0	0.00e+00	0	44	0	1600126976	43	3964
2026-01-20 05:49:20.69	319.97	20.98	-36.5	-37.4	21.9	0.00e+00	0	43	0	1608515584	43	4004
2026-01-20 05:49:21.54	319.75	21.00	-36.5	-37.4	21.9	0.00e+00	0	43	0	1614807040	43	3989
2026-01-20 05:49:22.67	319.46	21.03	-36.6	-37.5	21.9	0.00e+00	0	43	0	1623195648	43	4033
2026-01-20 05:49:23.53	319.24	21.04	-36.6	-37.6	21.8	0.00e+00	0	43	0	1629487104	43	4059
2026-01-20 05:49:24.67	318.95	21.07	-36.8	-37.7	21.7	0.00e+00	0	43	0	1637875712	43	4110
2026-01-20 05:49:25.52	318.73	21.09	-36.8	-37.7	21.7	0.00e+00	0	43	0	1643118592	43	4134
2026-01-20 05:49:26.65	318.44	21.11	-36.9	-37.8	21.6	0.00e+00	0	44	0	1651507200	43	4187
2026-01-20 05:49:27.59	318.20	21.13	-36.9	-37.8	21.6	0.00e+00	0	44	0	1658847232	43	4146
2026-01-20 05:49:28.75	317.90	21.15	-36.7	-37.6	21.8	0.00e+00	0	44	0	1667235840	43	4080
2026-01-20 05:49:29.64	317.67	21.16	-36.5	-37.4	22.0	0.00e+00	0	43	0	1673527296	43	3974
2026-01-20 05:49:30.78	317.38	21.18	-36.5	-37.3	22.0	0.00e+00	0	43	0	1681915904	43	3950
2026-01-20 05:49:31.63	317.16	21.20	-36.4	-37.3	22.0	0.00e+00	0	44	0	1687158784	43	3931
2026-01-20 05:49:32.76	316.87	21.22	-36.5	-37.4	22.0	0.00e+00	0	44	0	1695547392	43	3970
2026-01-20 05:49:33.78	316.60	21.23	-36.5	-37.4	21.9	0.00e+00	0	43	0	1702887424	43	3992
2026-01-20 05:49:34.94	316.30	21.25	-36.5	-37.4	22.0	0.00e+00	0	43	0	1711276032	43	3991
2026-01-20 05:49:35.83	316.07	21.26	-36.6	-37.5	21.9	0.00e+00	0	44	0	1717567488	43	4023
2026-01-20 05:49:36.96	315.78	21.28	-36.6	-37.5	21.9	0.00e+00	0	43	0	1725956096	43	4027
2026-01-20 05:49:37.82	315.56	21.29	-36.6	-37.4	21.9	0.00e+00	0	44	0	1732247552	43	4004
2026-01-20 05:49:38.96	315.26	21.30	-36.6	-37.5	21.9	0.00e+00	0	43	0	1740636160	43	4009
2026-01-20 05:49:39.81	315.04	21.31	-36.7	-37.6	21.8	0.00e+00	0	44	0	1746927616	43	4083
2026-01-20 05:49:40.95	314.74	21.33	-36.7	-37.6	21.8	0.00e+00	0	44	0	1754267648	43	4083
2026-01-20 05:49:41.80	314.52	21.33	-36.8	-37.7	21.7	0.00e+00	0	44	0	1760559104	43	4111
2026-01-20 05:49:42.94	314.22	21.35	-36.8	-37.6	21.8	0.00e+00	0	43	0	1768947712	43	4094
2026-01-20 05:49:43.79	314.00	21.35	-36.8	-37.7	21.8	0.00e+00	0	44	0	1775239168	43	4109
2026-01-20 05:49:44.93	313.70	21.36	-36.7	-37.5	21.9	0.00e+00	0	43	0	1783627776	43	4043
2026-01-20 05:49:45.78	313.48	21.37	-36.6	-37.5	21.9	0.00e+00	0	43	0	1789919232	43	4032
2026-01-20 05:49:46.92	313.18	21.38	-36.6	-37.4	21.9	0.00e+00	0	44	0	1798307840	43	4002
2026-01-20 05:49:47.77	312.96	21.39	-36.5	-37.4	22.0	0.00e+00	0	43	0	1804599296	43	3981
2026-01-20 05:49:48.99	312.64	21.39	-36.6	-37.4	21.9	0.00e+00	0	44	0	1812987904	43	4003
2026-01-20 05:49:49.85	312.42	21.40	-36.5	-37.4	21.9	0.00e+00	0	44	0	1819279360	43	3992
2026-01-20 05:49:51.06	312.10	21.40	-36.5	-37.4	22.0	0.00e+00	0	44	0	1827667968	43	3978
2026-01-20 05:49:51.91	311.88	21.41	-36.6	-37.4	21.9	0.00e+00	0	43	0	1833959424	43	4003
2026-01-20 05:49:53.11	311.56	21.41	-36.5	-37.4	22.0	0.00e+00	0	43	0	1842348032	43	3980
2026-01-20 05:49:53.96	311.34	21.41	-36.6	-37.4	22.0	0.00e+00	0	43	0	1848639488	43	4001
2026-01-20 05:49:55.10	311.04	21.42	-36.6	-37.5	21.9	0.00e+00	0	43	0	1857028096	43	4038
2026-01-20 05:49:55.95	310.82	21.42	-36.7	-37.5	21.9	0.00e+00	0	43	0	1863319552	43	4047
2026-01-20 05:49:57.09	310.52	21.42	-36.5	-37.4	22.0	0.00e+00	0	44	0	1871708160	43	3987
2026-01-20 05:49:57.94	310.30	21.42	-36.6	-37.5	21.9	0.00e+00	0	44	0	1877999616	43	4012
2026-01-20 05:49:59.08	310.00	21.42	-36.6	-37.4	22.0	0.00e+00	0	44	0	1885339648	43	3990
2026-01-20 05:50:00.03	309.75	21.42	-36.5	-37.3	22.0	0.00e+00	0	43	0	1892679680	43	3949
2026-01-20 05:50:01.02	309.49	21.42	-36.4	-37.3	22.1	0.00e+00	0	44	0	1900019712	43	3932
2026-01-20 05:50:02.02	309.23	21.41	-36.4	-37.2	22.1	0.00e+00	0	44	0	1907359744	43	3913
2026-01-20 05:50:03.01	308.97	21.41	-36.4	-37.2	22.1	0.00e+00	0	44	0	1914699776	43	3904
2026-01-20 05:50:04.00	308.71	21.41	-36.4	-37.2	22.1	0.00e+00	0	43	0	1920991232	43	3894
2026-01-20 05:50:04.99	308.45	21.40	-36.3	-37.2	22.2	0.00e+00	0	44	0	1928331264	43	3886
2026-01-20 05:50:05.99	308.19	21.40	-36.4	-37.2	22.2	0.00e+00	0	43	0	1935671296	43	3897
2026-01-20 05:50:06.98	307.93	21.39	-36.4	-37.2	22.1	0.00e+00	0	43	0	1943011328	43	3908
2026-01-20 05:50:07.98	307.67	21.39	-36.4	-37.2	22.1	0.00e+00	0	43	0	1950351360	43	3893
2026-01-20 05:50:08.97	307.41	21.38	-36.4	-37.3	22.1	0.00e+00	0	44	0	1957691392	43	3937
2026-01-20 05:50:09.97	307.15	21.38	-36.6	-37.5	21.9	0.00e+00	0	43	0	1963982848	43	4024
2026-01-20 05:50:10.96	306.89	21.37	-36.6	-37.5	21.9	0.00e+00	0	44	0	1971322880	43	4016
2026-01-20 05:50:11.96	306.63	21.36	-36.6	-37.5	21.9	0.00e+00	0	44	0	1978662912	43	4020
2026-01-20 05:50:12.95	306.37	21.35	-36.7	-37.5	21.9	0.00e+00	0	44	0	1986002944	43	4039
2026-01-20 05:50:13.95	306.11	21.34	-36.7	-37.5	21.8	0.00e+00	0	43	0	1993342976	43	4051
2026-01-20 05:50:14.94	305.85	21.33	-36.6	-37.5	21.9	0.00e+00	0	44	0	2000683008	43	4006
2026-01-20 05:50:15.94	305.59	21.32	-36.4	-37.3	22.1	0.00e+00	0	43	0	2006974464	43	3933
2026-01-20 05:50:16.93	305.33	21.31	-36.4	-37.2	22.1	0.00e+00	0	44	0	2014314496	43	3908
2026-01-20 05:50:17.93	305.07	21.30	-36.4	-37.2	22.1	0.00e+00	0	44	0	2021654528	43	3898
2026-01-20 05:50:18.92	304.81	21.28	-36.5	-37.3	22.0	0.00e+00	0	44	0	2028994560	43	3950
2026-01-20 05:50:19.91	304.55	21.27	-36.6	-37.4	21.9	0.00e+00	0	43	0	2036334592	43	4003
2026-01-20 05:50:20.91	304.30	21.26	-36.7	-37.5	21.9	0.00e+00	0	44	0	2043674624	43	4038
2026-01-20 05:50:21.90	304.04	21.24	-36.7	-37.6	21.8	0.00e+00	0	43	0	2049966080	43	4068
2026-01-20 05:50:22.90	303.78	21.23	-36.8	-37.7	21.7	0.00e+00	0	44	0	2057306112	43	4101
2026-01-20 05:50:23.89	303.52	21.21	-36.6	-37.5	21.9	0.00e+00	0	44	0	2064646144	43	4027
2026-01-20 05:50:24.89	303.26	21.19	-36.5	-37.4	22.0	0.00e+00	0	44	0	2071986176	43	3959
2026-01-20 05:50:25.96	302.99	21.18	-36.6	-37.4	21.9	0.00e+00	0	44	0	2080374784	43	3997
2026-01-20 05:50:26.82	302.77	21.16	-36.5	-37.3	22.0	0.00e+00	0	44	0	2085617664	43	3958
2026-01-20 05:50:27.95	302.47	21.14	-36.5	-37.3	22.0	0.00e+00	0	43	0	2094006272	43	3938
2026-01-20 05:50:28.80	302.26	21.12	-36.5	-37.3	22.0	0.00e+00	0	43	0	2100297728	43	3958
2026-01-20 05:50:29.94	301.96	21.10	-36.5	-37.3	22.0	0.00e+00	0	44	0	2108686336	43	3957
2026-01-20 05:50:30.79	301.74	21.09	-36.6	-37.4	22.0	0.00e+00	0	43	0	2114977792	43	3989
2026-01-20 05:50:31.93	301.45	21.06	-36.7	-37.6	21.8	0.00e+00	0	43	0	2123366400	43	4060
2026-01-20 05:50:32.78	301.23	21.04	-36.8	-37.7	21.8	0.00e+00	0	44	0	2128609280	43	4103
2026-01-20 05:50:33.92	300.94	21.02	-36.7	-37.6	21.8	0.00e+00	0	44	0	2136997888	43	4081
2026-01-20 05:50:34.77	300.73	21.00	-36.8	-37.7	21.7	0.00e+00	0	43	0	2143289344	43	4105
2026-01-20 05:50:35.91	300.43	20.97	-36.7	-37.6	21.8	0.00e+00	0	44	0	2151677952	43	4058
2026-01-20 05:50:36.76	300.22	20.95	-36.6	-37.5	21.9	0.00e+00	0	44	0	2157969408	43	4022
2026-01-20 05:50:37.90	299.93	20.93	-36.5	-37.4	22.0	0.00e+00	0	44	0	2166358016	43	3969
2026-01-20 05:50:38.75	299.71	20.91	-36.6	-37.5	21.8	0.00e+00	0	43	0	2171600896	43	4032
2026-01-20 05:50:40.08	299.38	20.87	-36.5	-37.4	22.0	0.00e+00	0	44	0	2182086656	43	3960
2026-01-20 05:50:40.79	299.20	20.85	-36.6	-37.4	22.0	0.00e+00	0	44	0	2187329536	43	3982
2026-01-20 05:50:42.08	298.87	20.82	-36.6	-37.5	21.9	0.00e+00	0	44	0	2195718144	43	4016
2026-01-20 05:50:43.25	298.58	20.79	-36.7	-37.5	21.9	0.00e+00	0	44	0	2204106752	43	4036
2026-01-20 05:50:44.10	298.36	20.76	-36.7	-37.6	21.8	0.00e+00	0	44	0	2210398208	43	4063
2026-01-20 05:50:45.24	298.07	20.73	-36.6	-37.5	21.9	0.00e+00	0	44	0	2218786816	43	4032
2026-01-20 05:50:46.09	297.86	20.71	-36.7	-37.6	21.8	0.00e+00	0	44	0	2225078272	43	4073
2026-01-20 05:50:47.30	297.56	20.67	-36.7	-37.5	21.8	0.00e+00	0	44	0	2233466880	43	4047
2026-01-20 05:50:48.16	297.34	20.65	-36.7	-37.6	21.8	0.00e+00	0	44	0	2239758336	43	4052
2026-01-20 05:50:49.29	297.06	20.61	-36.6	-37.5	21.9	0.00e+00	0	44	0	2248146944	43	4023
2026-01-20 05:50:50.15	296.85	20.59	-36.7	-37.5	21.8	0.00e+00	0	44	0	2254438400	43	4039
2026-01-20 05:50:51.41	296.54	20.55	-36.7	-37.5	21.8	0.00e+00	0	44	0	2263875584	43	4050
2026-01-20 05:50:52.20	296.34	20.52	-36.8	-37.6	21.8	0.00e+00	0	44	0	2269118464	43	4086
2026-01-20 05:50:53.54	296.01	20.48	-36.8	-37.6	21.8	0.00e+00	0	44	0	2278555648	43	4084
2026-01-20 05:50:54.25	295.83	20.45	-36.7	-37.6	21.8	0.00e+00	0	44	0	2283798528	43	4069
2026-01-20 05:50:55.53	295.52	20.41	-36.7	-37.5	21.8	0.00e+00	0	44	0	2293235712	43	4038
2026-01-20 05:50:56.26	295.34	20.39	-36.6	-37.5	21.9	0.00e+00	0	44	0	2298478592	43	4014
2026-01-20 05:50:57.53	295.03	20.34	-36.6	-37.5	21.9	0.00e+00	0	44	0	2307915776	43	4017
2026-01-20 05:50:58.25	294.85	20.32	-36.6	-37.4	22.0	0.00e+00	0	44	0	2313158656	43	3983
2026-01-20 05:50:59.53	294.54	20.27	-36.6	-37.5	21.9	0.00e+00	0	44	0	2322595840	43	4018
2026-01-20 05:51:00.25	294.37	20.25	-36.7	-37.5	21.8	0.00e+00	0	43	0	2326790144	43	4050
2026-01-20 05:51:01.53	294.05	20.20	-36.7	-37.6	21.8	0.00e+00	0	43	0	2336227328	43	4075
2026-01-20 05:51:02.24	293.88	20.17	-36.8	-37.6	21.8	0.00e+00	0	43	0	2341470208	43	4082
2026-01-20 05:51:03.52	293.57	20.12	-36.9	-37.8	21.6	0.00e+00	0	44	0	2350907392	43	4158
2026-01-20 05:51:04.25	293.40	20.10	-36.9	-37.8	21.6	0.00e+00	0	43	0	2356150272	43	4163
2026-01-20 05:51:05.53	293.09	20.05	-36.9	-37.8	21.6	0.00e+00	0	43	0	2365587456	43	4165
2026-01-20 05:51:06.25	292.92	20.02	-37.0	-37.9	21.5	0.00e+00	0	44	0	2370830336	43	4236
2026-01-20 05:51:07.54	292.61	19.97	-36.9	-37.8	21.6	0.00e+00	0	44	0	2380267520	43	4153
2026-01-20 05:51:08.25	292.44	19.94	-36.9	-37.7	21.6	0.00e+00	0	44	0	2384461824	43	4134
2026-01-20 05:51:09.53	292.14	19.89	-36.9	-37.7	21.6	0.00e+00	0	44	0	2393899008	43	4140
2026-01-20 05:51:10.24	291.97	19.86	-36.9	-37.7	21.6	0.00e+00	0	44	0	2399141888	43	4134
2026-01-20 05:51:11.51	291.67	19.81	-36.8	-37.7	21.7	0.00e+00	0	44	0	2408579072	43	4107
2026-01-20 05:51:12.23	291.50	19.78	-36.8	-37.7	21.7	0.00e+00	0	44	0	2413821952	43	4099
2026-01-20 05:51:13.51	291.19	19.72	-36.7	-37.6	21.8	0.00e+00	0	44	0	2423259136	43	4080
2026-01-20 05:51:14.23	291.03	19.69	-36.8	-37.6	21.8	0.00e+00	0	44	0	2428502016	43	4093
2026-01-20 05:51:15.51	290.73	19.64	-36.7	-37.5	21.8	0.00e+00	0	44	0	2437939200	43	4045
2026-01-20 05:51:16.22	290.56	19.61	-36.6	-37.4	21.9	0.00e+00	0	43	0	2443182080	43	3999
2026-01-20 05:51:17.50	290.26	19.55	-36.7	-37.5	21.8	0.00e+00	0	43	0	2451570688	43	4048
2026-01-20 05:51:18.21	290.10	19.52	-36.7	-37.5	21.8	0.00e+00	0	44	0	2456813568	43	4047
2026-01-20 05:51:19.82	289.73	19.45	-36.8	-37.7	21.7	0.00e+00	0	44	0	2468347904	43	4102
2026-01-20 05:51:20.41	289.59	19.42	-36.8	-37.6	21.8	0.00e+00	0	44	0	2472542208	43	4087
2026-01-20 05:51:21.97	289.23	19.35	-36.7	-37.6	21.8	0.00e+00	0	44	0	2484076544	43	4075
2026-01-20 05:51:22.62	289.08	19.32	-36.8	-37.7	21.7	0.00e+00	0	43	0	2489319424	43	4103
2026-01-20 05:51:24.04	288.76	19.25	-36.7	-37.6	21.8	0.00e+00	0	44	0	2498756608	43	4074
2026-01-20 05:51:24.75	288.60	19.22	-36.8	-37.6	21.8	0.00e+00	0	43	0	2503999488	43	4084
2026-01-20 05:51:26.03	288.31	19.16	-36.8	-37.6	21.7	0.00e+00	0	44	0	2513436672	43	4091
2026-01-20 05:51:26.74	288.15	19.13	-36.8	-37.7	21.7	0.00e+00	0	44	0	2518679552	43	4100
2026-01-20 05:51:28.02	287.86	19.06	-36.9	-37.8	21.6	0.00e+00	0	44	0	2528116736	43	4158
2026-01-20 05:51:28.75	287.69	19.03	-36.9	-37.7	21.7	0.00e+00	0	43	0	2533359616	43	4134
2026-01-20 05:51:30.02	287.41	18.97	-36.8	-37.7	21.7	0.00e+00	0	43	0	2542796800	43	4112
2026-01-20 05:51:30.74	287.25	18.93	-36.8	-37.7	21.7	0.00e+00	0	44	0	2546991104	43	4127
2026-01-20 05:51:32.11	286.94	18.86	-37.0	-37.8	21.5	0.00e+00	0	44	0	2557476864	43	4186
2026-01-20 05:51:32.82	286.79	18.83	-36.9	-37.8	21.6	0.00e+00	0	43	0	2562719744	43	4166
2026-01-20 05:51:34.10	286.50	18.77	-36.9	-37.8	21.6	0.00e+00	0	44	0	2571108352	43	4168
2026-01-20 05:51:34.81	286.35	18.73	-36.9	-37.8	21.6	0.00e+00	0	44	0	2577399808	43	4158
2026-01-20 05:51:36.24	286.03	18.66	-36.9	-37.8	21.6	0.00e+00	0	44	0	2586836992	43	4178
2026-01-20 05:51:36.95	285.88	18.62	-36.9	-37.8	21.6	0.00e+00	0	44	0	2592079872	43	4153
2026-01-20 05:51:38.25	285.59	18.55	-36.9	-37.8	21.6	0.00e+00	0	44	0	2601517056	43	4155
2026-01-20 05:51:38.96	285.44	18.52	-36.8	-37.7	21.7	0.00e+00	0	44	0	2606759936	43	4119
2026-01-20 05:51:40.24	285.16	18.45	-36.9	-37.8	21.6	0.00e+00	0	44	0	2616197120	43	4179
2026-01-20 05:51:40.98	285.00	18.41	-37.0	-37.8	21.6	0.00e+00	0	44	0	2621440000	43	4190
2026-01-20 05:51:42.26	284.73	18.34	-37.1	-37.9	21.4	0.00e+00	0	44	0	2630877184	43	4236
2026-01-20 05:51:42.97	284.57	18.31	-37.1	-38.0	21.4	0.00e+00	0	44	0	2636120064	43	4254
2026-01-20 05:51:44.25	284.30	18.24	-37.1	-38.0	21.4	0.00e+00	0	43	0	2644508672	43	4280
2026-01-20 05:51:44.96	284.15	18.20	-37.3	-38.1	21.3	0.00e+00	0	44	0	2649751552	43	4333
2026-01-20 05:51:46.24	283.88	18.13	-37.5	-38.4	21.2	0.00e+00	0	44	0	2659188736	44	4212
2026-01-20 05:51:46.96	283.73	18.09	-37.4	-38.3	21.3	0.00e+00	0	44	0	2664431616	44	4153
2026-01-20 05:51:48.24	283.46	18.02	-37.4	-38.2	21.4	0.00e+00	0	44	0	2673868800	44	4144
2026-01-20 05:51:48.95	283.31	17.98	-37.3	-38.2	21.4	0.00e+00	0	44	0	2679111680	44	4105
2026-01-20 05:51:50.23	283.04	17.91	-37.1	-38.0	21.6	0.00e+00	0	44	0	2688548864	44	4021
2026-01-20 05:51:51.07	282.87	17.87	-37.2	-38.0	21.5	0.00e+00	0	44	0	2693791744	44	4041
2026-01-20 05:51:52.51	282.57	17.79	-37.2	-38.1	21.4	0.00e+00	0	43	0	2704277504	44	4084
2026-01-20 05:51:53.22	282.42	17.75	-37.2	-38.1	21.4	0.00e+00	0	44	0	2709520384	44	4089
2026-01-20 05:51:54.50	282.16	17.68	-37.3	-38.2	21.4	0.00e+00	0	44	0	2718957568	44	4118
2026-01-20 05:51:55.21	282.01	17.64	-37.4	-38.3	21.3	0.00e+00	0	43	0	2724200448	44	4147
2026-01-20 05:51:56.48	281.75	17.56	-37.5	-38.4	21.2	0.00e+00	0	44	0	2733637632	44	4240
2026-01-20 05:51:57.19	281.61	17.52	-37.6	-38.5	21.1	0.00e+00	0	44	0	2737831936	44	4290
2026-01-20 05:51:58.47	281.35	17.45	-37.7	-38.7	21.0	0.00e+00	0	44	0	2747269120	45	4099
2026-01-20 05:51:59.26	281.19	17.40	-37.7	-38.6	21.0	0.00e+00	0	44	0	2753560576	45	4089
2026-01-20 05:52:00.52	280.94	17.33	-37.8	-38.8	20.9	0.00e+00	0	44	0	2762997760	45	4151
2026-01-20 05:52:01.30	280.78	17.29	-37.8	-38.7	20.9	0.00e+00	0	43	0	2768240640	45	4134
2026-01-20 05:52:02.58	280.52	17.21	-37.9	-38.8	20.8	0.00e+00	0	44	0	2777677824	45	4161
2026-01-20 05:52:03.43	280.35	17.16	-37.8	-38.8	20.9	0.00e+00	0	44	0	2782920704	45	4146
2026-01-20 05:52:04.57	280.13	17.10	-37.8	-38.7	20.9	0.00e+00	0	44	0	2791309312	45	4127
2026-01-20 05:52:05.42	279.96	17.05	-37.8	-38.8	20.8	0.00e+00	0	44	0	2797600768	45	4151
2026-01-20 05:52:06.56	279.74	16.98	-37.8	-38.7	20.9	0.00e+00	0	44	0	2805989376	45	4129
2026-01-20 05:52:07.41	279.57	16.93	-37.8	-38.7	20.9	0.00e+00	0	44	0	2812280832	45	4130
2026-01-20 05:52:08.55	279.35	16.86	-37.7	-38.6	21.0	0.00e+00	0	43	0	2820669440	45	4076
2026-01-20 05:52:09.40	279.18	16.81	-37.7	-38.6	21.0	0.00e+00	0	44	0	2825912320	45	4094
2026-01-20 05:52:10.54	278.96	16.74	-37.7	-38.6	21.0	0.00e+00	0	44	0	2834300928	45	4068
2026-01-20 05:52:11.39	278.80	16.69	-37.6	-38.5	21.1	0.00e+00	0	44	0	2840592384	45	4039
2026-01-20 05:52:12.59	278.57	16.62	-37.6	-38.6	21.1	0.00e+00	0	44	0	2848980992	45	4054
2026-01-20 05:52:13.44	278.41	16.57	-37.8	-38.7	20.7	0.00e+00	0	44	0	2855272448	45	4144
2026-01-20 05:52:14.58	278.19	16.50	-37.7	-38.6	21.0	0.00e+00	0	44	0	2863661056	45	4071
2026-01-20 05:52:15.43	278.03	16.45	-37.8	-38.7	20.9	0.00e+00	0	44	0	2869952512	45	4135
2026-01-20 05:52:16.57	277.81	16.38	-37.8	-38.7	20.9	0.00e+00	0	44	0	2878341120	45	4128
2026-01-20 05:52:17.42	277.66	16.33	-37.8	-38.7	20.9	0.00e+00	0	44	0	2884632576	45	4131
2026-01-20 05:52:18.56	277.44	16.26	-37.9	-38.8	20.9	0.00e+00	0	43	0	2893021184	45	4163
2026-01-20 05:52:19.41	277.28	16.21	-37.9	-38.8	20.8	0.00e+00	0	44	0	2899312640	45	4189
2026-01-20 05:52:20.55	277.07	16.14	-38.0	-38.9	20.7	0.00e+00	0	44	0	2906652672	45	4212
2026-01-20 05:52:21.40	276.91	16.08	-37.9	-38.8	20.8	0.00e+00	0	44	0	2912944128	45	4171
2026-01-20 05:52:22.54	276.70	16.01	-37.9	-38.9	20.8	0.00e+00	0	44	0	2921332736	45	4199
2026-01-20 05:52:23.39	276.55	15.96	-37.9	-38.8	20.8	0.00e+00	0	44	0	2927624192	45	4161
2026-01-20 05:52:24.53	276.34	15.89	-37.9	-38.8	20.8	0.00e+00	0	43	0	2936012800	45	4164
2026-01-20 05:52:25.38	276.19	15.84	-37.9	-38.8	20.8	0.00e+00	0	44	0	2942304256	45	4191
2026-01-20 05:52:26.52	275.98	15.77	-37.9	-38.8	20.8	0.00e+00	0	44	0	2950692864	45	4182
2026-01-20 05:52:27.37	275.83	15.71	-38.0	-38.9	20.8	0.00e+00	0	44	0	2955935744	45	4214
2026-01-20 05:52:28.50	275.62	15.64	-38.0	-39.0	20.7	0.00e+00	0	44	0	2964324352	45	4252
2026-01-20 05:52:29.36	275.47	15.59	-38.0	-39.0	20.6	0.00e+00	0	44	0	2970615808	45	4263
2026-01-20 05:52:30.50	275.27	15.52	-38.1	-39.0	20.6	0.00e+00	0	44	0	2979004416	45	4276
2026-01-20 05:52:31.35	275.12	15.47	-38.1	-39.0	20.6	0.00e+00	0	44	0	2985295872	45	4290
2026-01-20 05:52:32.49	274.91	15.39	-38.2	-39.2	20.4	0.00e+00	0	44	0	2992635904	45	4354
2026-01-20 05:52:33.35	274.76	15.34	-38.2	-39.1	20.5	0.00e+00	0	44	0	2998927360	45	4332
2026-01-20 05:52:34.48	274.57	15.27	-38.3	-39.3	20.4	0.00e+00	0	44	0	3007315968	46	4154
2026-01-20 05:52:35.34	274.42	15.21	-38.2	-39.1	20.5	0.00e+00	0	44	0	3013607424	46	4090
2026-01-20 05:52:36.48	274.22	15.14	-38.1	-39.0	20.6	0.00e+00	0	44	0	3021996032	46	4029
2026-01-20 05:52:37.33	274.07	15.09	-38.1	-39.0	20.6	0.00e+00	0	44	0	3028287488	46	4037
2026-01-20 05:52:38.47	273.87	15.02	-38.1	-39.1	20.6	0.00e+00	0	44	0	3036676096	46	4054
2026-01-20 05:52:39.32	273.73	14.96	-38.1	-39.0	20.6	0.00e+00	0	44	0	3042967552	46	4031
2026-01-20 05:52:40.46	273.53	14.89	-38.1	-39.0	20.6	0.00e+00	0	44	0	3051356160	46	4042
2026-01-20 05:52:41.31	273.39	14.84	-38.1	-39.0	20.7	0.00e+00	0	44	0	3056599040	46	4028
2026-01-20 05:52:42.45	273.20	14.76	-38.2	-39.1	20.5	0.00e+00	0	44	0	3064987648	46	4070
2026-01-20 05:52:43.30	273.05	14.71	-38.2	-39.2	20.5	0.00e+00	0	44	0	3071279104	46	4099
2026-01-20 05:52:44.44	272.86	14.63	-38.2	-39.2	20.5	0.00e+00	0	44	0	3079667712	46	4114
2026-01-20 05:52:45.29	272.72	14.58	-38.2	-39.2	20.5	0.00e+00	0	44	0	3085959168	46	4102
2026-01-20 05:52:46.43	272.53	14.51	-38.3	-39.2	20.5	0.00e+00	0	44	0	3094347776	46	4119
2026-01-20 05:52:47.28	272.39	14.45	-38.3	-39.2	20.4	0.00e+00	0	44	0	3099590656	46	4129
2026-01-20 05:52:48.59	272.17	14.37	-38.3	-39.3	20.4	0.00e+00	0	44	0	3109027840	46	4155
2026-01-20 05:52:49.30	272.06	14.32	-38.4	-39.3	20.3	0.00e+00	0	44	0	3114270720	46	4187
2026-01-20 05:52:50.58	271.85	14.24	-38.4	-39.3	20.3	0.00e+00	0	44	0	3123707904	46	4184
2026-01-20 05:52:51.29	271.73	14.19	-38.4	-39.3	20.4	0.00e+00	0	44	0	3128950784	46	4170
2026-01-20 05:52:52.57	271.53	14.11	-38.4	-39.3	20.3	0.00e+00	0	44	0	3138387968	46	4186
2026-01-20 05:52:53.30	271.41	14.06	-38.5	-39.4	20.2	0.00e+00	0	44	0	3143630848	46	4232
2026-01-20 05:52:54.58	271.20	13.98	-38.5	-39.4	20.2	0.00e+00	0	44	0	3153068032	46	4241
2026-01-20 05:52:55.29	271.09	13.94	-38.5	-39.5	20.1	0.00e+00	0	43	0	3157262336	46	4264
2026-01-20 05:52:56.57	270.89	13.85	-38.6	-39.6	20.1	0.00e+00	0	44	0	3166699520	46	4307
2026-01-20 05:52:57.28	270.77	13.81	-38.7	-39.6	20.0	0.00e+00	0	44	0	3171942400	46	4333
2026-01-20 05:52:58.56	270.57	13.72	-38.8	-39.8	19.9	0.00e+00	0	44	0	3181379584	47	4149
2026-01-20 05:52:59.27	270.46	13.68	-38.8	-39.8	19.8	0.00e+00	0	44	0	3186622464	47	4191
2026-01-20 05:53:00.54	270.26	13.60	-38.8	-39.9	19.8	0.00e+00	0	44	0	3196059648	47	4194
2026-01-20 05:53:01.25	270.15	13.55	-38.8	-39.7	19.9	0.00e+00	0	44	0	3200253952	47	4140
2026-01-20 05:53:02.53	269.95	13.47	-38.6	-39.6	20.1	0.00e+00	0	44	0	3209691136	47	4054
2026-01-20 05:53:03.24	269.84	13.42	-38.4	-39.4	20.2	0.00e+00	0	44	0	3214934016	47	3974
2026-01-20 05:53:04.65	269.63	13.33	-38.6	-39.5	20.1	0.00e+00	0	44	0	3225419776	47	4034
2026-01-20 05:53:05.61	269.48	13.27	-38.6	-39.5	20.1	0.00e+00	0	44	0	3232759808	47	4039
2026-01-20 05:53:06.92	269.28	13.18	-38.6	-39.6	20.0	0.00e+00	0	43	0	3242196992	47	4059
2026-01-20 05:53:07.67	269.17	13.13	-38.6	-39.6	20.0	0.00e+00	0	44	0	3247439872	47	4079
2026-01-20 05:53:08.95	268.98	13.05	-38.7	-39.7	19.9	0.00e+00	0	44	0	3255828480	47	4119
2026-01-20 05:53:09.66	268.87	13.00	-38.8	-39.8	19.8	0.00e+00	0	44	0	3262119936	47	4169
2026-01-20 05:53:10.94	268.68	12.92	-38.9	-39.9	19.7	0.00e+00	0	44	0	3270508544	47	4229
2026-01-20 05:53:11.68	268.57	12.87	-38.9	-39.9	19.7	0.00e+00	0	44	0	3275751424	47	4231
2026-01-20 05:53:12.95	268.38	12.79	-38.9	-39.9	19.7	0.00e+00	0	44	0	3285188608	47	4229
2026-01-20 05:53:13.68	268.27	12.74	-38.9	-39.9	19.7	0.00e+00	0	44	0	3290431488	47	4216
2026-01-20 05:53:14.96	268.08	12.66	-38.8	-39.8	19.8	0.00e+00	0	44	0	3299868672	47	4173
2026-01-20 05:53:15.68	267.98	12.61	-38.8	-39.8	19.8	0.00e+00	0	44	0	3305111552	47	4162
2026-01-20 05:53:17.01	267.79	12.52	-38.8	-39.8	19.8	0.00e+00	0	44	0	3314548736	47	4163
2026-01-20 05:53:17.72	267.68	12.48	-38.9	-39.9	19.7	0.00e+00	0	44	0	3319791616	47	4208
2026-01-20 05:53:19.00	267.50	12.39	-38.8	-39.7	19.8	0.00e+00	0	44	0	3329228800	47	4144
2026-01-20 05:53:19.71	267.40	12.35	-38.8	-39.8	19.8	0.00e+00	0	44	0	3334471680	47	4156
2026-01-20 05:53:21.13	267.20	12.25	-38.8	-39.8	19.8	0.00e+00	0	44	0	3343908864	47	4151
2026-01-20 05:53:21.84	267.09	12.21	-38.9	-39.8	19.7	0.00e+00	0	44	0	3349151744	47	4188
2026-01-20 05:53:23.12	266.91	12.12	-38.9	-39.9	19.7	0.00e+00	0	44	0	3358588928	47	4214
2026-01-20 05:53:23.85	266.81	12.08	-38.8	-39.8	19.8	0.00e+00	0	44	0	3363831808	47	4163
2026-01-20 05:53:25.24	266.62	11.99	-38.9	-39.9	19.7	0.00e+00	0	44	0	3374317568	47	4195
2026-01-20 05:53:25.95	266.52	11.94	-38.8	-39.8	19.7	0.00e+00	0	44	0	3378511872	47	4170
2026-01-20 05:53:27.23	266.34	11.86	-38.7	-39.7	19.9	0.00e+00	0	44	0	3387949056	47	4129
2026-01-20 05:53:27.95	266.24	11.81	-38.8	-39.8	19.8	0.00e+00	0	44	0	3393191936	47	4150
2026-01-20 05:53:29.24	266.06	11.72	-38.8	-39.8	19.7	0.00e+00	0	43	0	3402629120	47	4169
2026-01-20 05:53:29.95	265.97	11.68	-38.8	-39.8	19.7	0.00e+00	0	44	0	3407872000	47	4183
2026-01-20 05:53:31.22	265.79	11.60	-38.8	-39.8	19.7	0.00e+00	0	44	0	3417309184	47	4176
2026-01-20 05:53:31.94	265.70	11.55	-38.8	-39.8	19.8	0.00e+00	0	44	0	3422552064	47	4172
2026-01-20 05:53:33.21	265.52	11.47	-38.9	-39.9	19.7	0.00e+00	0	44	0	3431989248	47	4202
2026-01-20 05:53:33.94	265.43	11.42	-38.9	-39.9	19.6	0.00e+00	0	44	0	3437232128	47	4221
2026-01-20 05:53:35.22	265.25	11.33	-49.9	-60.7	3.8	8.46e-01	0	44	104	3442475008	70	12372
2026-01-20 05:53:35.96	265.16	11.29	-47.2	-58.9	3.8	8.47e-01	0	44	104	3442475008	63	14961
2026-01-20 05:53:37.24	264.99	11.20	-46.9	-58.7	3.8	8.47e-01	0	44	104	3442475008	63	14706
2026-01-20 05:53:37.96	264.89	11.16	-46.9	-58.8	3.8	8.47e-01	0	44	104	3442475008	63	14716
2026-01-20 05:53:39.24	264.72	11.07	-46.9	-58.9	3.8	8.48e-01	0	44	104	3442475008	63	14938
2026-01-20 05:53:40.02	264.62	11.02	-46.8	-58.9	3.8	8.47e-01	0	44	104	3442475008	63	14887
2026-01-20 05:53:41.27	264.46	10.94	-46.9	-58.9	3.8	8.46e-01	0	44	104	3442475008	63	14917
2026-01-20 05:53:42.12	264.35	10.89	-46.8	-58.9	3.8	8.47e-01	0	44	104	3442475008	63	14961
2026-01-20 05:53:43.26	264.20	10.81	-46.9	-58.9	3.8	8.46e-01	0	44	104	3442475008	63	14909
2026-01-20 05:53:44.11	264.09	10.76	-46.9	-58.8	3.8	8.48e-01	0	44	104	3442475008	63	14877
2026-01-20 05:53:45.24	263.95	10.68	-46.8	-58.8	3.8	8.47e-01	0	44	104	3442475008	63	14855
2026-01-20 05:53:46.09	263.84	10.63	-46.9	-58.8	3.8	8.47e-01	0	44	104	3442475008	63	14736
2026-01-20 05:53:47.23	263.69	10.55	-46.9	-58.8	3.8	8.46e-01	0	44	104	3442475008	63	14738
2026-01-20 05:53:48.08	263.59	10.50	-46.9	-58.8	3.8	8.47e-01	0	44	104	3442475008	63	14804
2026-01-20 05:53:49.21	263.45	10.43	-46.9	-58.8	3.8	8.46e-01	0	44	104	3442475008	63	14815
2026-01-20 05:53:50.24	263.32	10.36	-46.9	-58.9	3.8	8.47e-01	0	44	104	3442475008	63	15029
2026-01-20 05:53:51.42	263.17	10.28	-46.9	-58.9	3.8	8.46e-01	0	44	104	3442475008	63	14967
2026-01-20 05:53:52.29	263.06	10.23	-46.9	-58.9	3.8	8.46e-01	0	44	104	3442475008	63	14997
2026-01-20 05:53:53.42	262.92	10.15	-46.9	-58.9	3.8	8.46e-01	0	44	104	3442475008	63	15013
2026-01-20 05:53:54.30	262.82	10.10	-46.9	-58.9	3.8	8.47e-01	0	44	104	3442475008	63	15045
2026-01-20 05:53:55.44	262.68	10.02	-46.9	-58.9	3.8	8.46e-01	0	44	104	3442475008	63	15000
2026-01-20 05:53:56.32	262.57	9.97	-46.9	-58.9	3.8	8.47e-01	0	44	104	3442475008	63	14910
2026-01-20 05:53:57.45	262.43	9.89	-46.9	-59.0	3.8	8.47e-01	0	44	104	3442475008	63	15080
2026-01-20 05:53:58.35	262.32	9.84	-46.9	-58.9	3.8	8.47e-01	0	44	104	3442475008	63	14940
2026-01-20 05:53:59.46	262.19	9.77	-46.9	-58.9	3.8	8.47e-01	0	44	104	3442475008	63	14935
2026-01-20 05:54:00.37	262.08	9.71	-46.9	-58.9	3.8	8.48e-01	0	44	104	3442475008	63	14943
2026-01-20 05:54:01.52	261.95	9.63	-46.9	-58.9	3.8	8.47e-01	0	44	104	3442475008	63	15017
2026-01-20 05:54:02.37	261.84	9.58	-46.9	-58.9	3.8	8.46e-01	0	44	104	3442475008	63	14973
2026-01-20 05:54:03.68	261.69	9.50	-46.9	-58.9	3.8	8.46e-01	0	44	104	3442475008	63	14952
2026-01-20 05:54:04.39	261.61	9.45	-46.9	-58.9	3.8	8.47e-01	0	44	104	3442475008	63	14921
2026-01-20 05:54:05.84	261.44	9.36	-46.9	-58.9	3.8	8.47e-01	0	44	104	3442475008	63	14907
2026-01-20 05:54:06.55	261.36	9.31	-46.9	-58.9	3.8	8.47e-01	0	44	104	3442475008	63	14983
2026-01-20 05:54:07.83	261.21	9.23	-46.9	-58.9	3.8	8.47e-01	0	44	104	3442475008	63	14898
2026-01-20 05:54:08.54	261.13	9.18	-46.9	-58.9	3.8	8.46e-01	0	44	104	3442475008	63	15020
2026-01-20 05:54:09.88	260.97	9.10	-46.9	-58.9	3.8	8.46e-01	0	44	104	3442475008	63	14911
2026-01-20 05:54:10.59	260.89	9.05	-46.9	-59.0	3.8	8.46e-01	0	44	104	3442475008	63	15070
2026-01-20 05:54:11.90	260.74	8.97	-46.9	-58.9	3.8	8.47e-01	0	44	104	3442475008	63	15009
2026-01-20 05:54:12.61	260.66	8.93	-46.9	-58.9	3.8	8.46e-01	0	44	104	3442475008	63	14992
2026-01-20 05:54:13.89	260.52	8.84	-46.9	-58.9	3.8	8.48e-01	0	44	104	3442475008	63	14959
2026-01-20 05:54:14.59	260.44	8.80	-46.9	-58.9	3.8	8.47e-01	0	44	104	3442475008	63	14927
2026-01-20 05:54:15.87	260.30	8.72	-46.9	-58.9	3.8	8.48e-01	0	44	104	3442475008	63	14972
2026-01-20 05:54:16.58	260.22	8.67	-46.9	-58.9	3.8	8.46e-01	0	44	104	3442475008	63	14939
2026-01-20 05:54:17.86	260.08	8.59	-46.9	-58.9	3.8	8.47e-01	0	44	104	3442475008	63	14949
2026-01-20 05:54:18.57	260.00	8.55	-46.9	-58.9	3.8	8.48e-01	0	44	104	3442475008	63	14944
2026-01-20 05:54:19.86	259.86	8.47	-46.9	-58.9	3.8	8.48e-01	0	44	104	3442475008	63	15031
2026-01-20 05:54:20.57	259.78	8.42	-46.9	-58.9	3.8	8.47e-01	0	44	104	3442475008	63	15012
2026-01-20 05:54:21.85	259.64	8.34	-46.8	-58.9	3.8	8.46e-01	0	44	104	3442475008	63	14983
2026-01-20 05:54:22.56	259.56	8.30	-46.9	-58.9	3.8	8.47e-01	0	44	104	3442475008	63	14973
2026-01-20 05:54:23.85	259.43	8.21	-46.9	-58.9	3.8	8.46e-01	0	44	104	3442475008	63	14911
2026-01-20 05:54:24.56	259.35	8.17	-46.9	-58.9	3.8	8.47e-01	0	44	104	3442475008	63	15040
2026-01-20 05:54:25.84	259.21	8.09	-46.9	-58.9	3.8	8.48e-01	0	44	104	3442475008	63	14978
2026-01-20 05:54:26.56	259.14	8.04	-46.9	-58.9	3.8	8.47e-01	0	44	104	3442475008	63	14952
2026-01-20 05:54:27.84	259.00	7.96	-46.9	-58.9	3.8	8.47e-01	0	44	104	3442475008	63	14947
2026-01-20 05:54:28.55	258.93	7.92	-46.9	-58.9	3.8	8.47e-01	0	44	104	3442475008	63	14947
2026-01-20 05:54:29.83	258.79	7.84	-46.9	-58.9	3.8	8.46e-01	0	44	104	3442475008	63	14924
2026-01-20 05:54:30.54	258.72	7.79	-46.9	-58.9	3.8	8.47e-01	0	44	104	3442475008	63	14965
2026-01-20 05:54:31.81	258.59	7.72	-46.9	-58.9	3.8	8.47e-01	0	44	104	3442475008	63	14990
2026-01-20 05:54:32.53	258.51	7.67	-46.9	-58.9	3.8	8.47e-01	0	44	104	3442475008	63	15008
2026-01-20 05:54:33.80	258.38	7.59	-46.9	-58.9	3.8	8.46e-01	0	44	104	3442475008	63	15027
2026-01-20 05:54:34.51	258.31	7.55	-46.9	-58.9	3.8	8.47e-01	0	44	104	3442475008	63	14950
2026-01-20 05:54:35.79	258.18	7.47	-46.9	-59.0	3.8	8.46e-01	0	44	104	3442475008	63	15061
2026-01-20 05:54:36.51	258.10	7.42	-46.8	-58.9	3.8	8.47e-01	0	44	104	3442475008	63	14923
2026-01-20 05:54:37.79	257.97	7.34	-46.9	-58.9	3.8	8.46e-01	0	44	104	3442475008	63	14995
2026-01-20 05:54:38.50	257.90	7.30	-46.9	-58.9	3.8	8.47e-01	0	44	104	3442475008	63	15019
2026-01-20 05:54:39.78	257.77	7.22	-46.9	-58.9	3.8	8.47e-01	0	44	104	3442475008	63	15004
2026-01-20 05:54:40.50	257.70	7.18	-46.9	-58.9	3.8	8.48e-01	0	44	104	3442475008	63	15006
2026-01-20 05:54:41.78	257.57	7.10	-46.9	-58.9	3.8	8.46e-01	0	44	104	3442475008	63	15039
2026-01-20 05:54:42.50	257.50	7.05	-46.9	-58.9	3.8	8.47e-01	0	44	104	3442475008	63	15032
2026-01-20 05:54:43.78	257.38	6.97	-46.9	-58.9	3.8	8.46e-01	0	44	104	3442475008	63	14974
2026-01-20 05:54:44.49	257.31	6.93	-46.9	-58.9	3.8	8.45e-01	0	44	104	3442475008	63	15024
2026-01-20 05:54:45.79	257.18	6.85	-46.9	-58.9	3.8	8.46e-01	0	44	104	3442475008	63	15029
2026-01-20 05:54:46.49	257.11	6.81	-46.9	-58.9	3.8	8.47e-01	0	44	104	3442475008	63	15035
2026-01-20 05:54:47.82	256.98	6.72	-46.9	-58.9	3.8	8.47e-01	0	44	104	3442475008	63	14951
2026-01-20 05:54:48.53	256.91	6.68	-46.9	-58.9	3.8	8.47e-01	0	44	104	3442475008	63	14968
2026-01-20 05:54:49.84	256.79	6.60	-46.9	-58.9	3.8	8.47e-01	0	44	104	3442475008	63	14994
2026-01-20 05:54:50.55	256.72	6.56	-46.9	-58.9	3.8	8.47e-01	0	44	104	3442475008	63	15012
2026-01-20 05:54:51.89	256.59	6.48	-46.9	-59.0	3.8	8.46e-01	0	44	104	3442475008	63	15084
2026-01-20 05:54:52.60	256.53	6.43	-46.9	-58.9	3.8	8.47e-01	0	44	104	3442475008	63	14911
2026-01-20 05:54:53.87	256.41	6.35	-46.8	-58.9	3.8	8.46e-01	0	44	104	3442475008	63	14987
2026-01-20 05:54:54.60	256.34	6.31	-46.9	-58.9	3.8	8.46e-01	0	44	104	3442475008	63	14976
2026-01-20 05:54:55.89	256.22	6.23	-46.9	-58.9	3.8	8.47e-01	0	44	104	3442475008	63	14966
2026-01-20 05:54:56.60	256.15	6.19	-46.9	-58.9	3.8	8.46e-01	0	44	104	3442475008	63	14900
2026-01-20 05:54:57.93	256.03	6.11	-46.9	-59.0	3.8	8.46e-01	0	44	104	3442475008	63	15080
2026-01-20 05:54:58.64	255.96	6.07	-46.9	-58.9	3.8	8.46e-01	0	44	104	3442475008	63	14938
2026-01-20 05:54:59.91	255.84	5.99	-46.9	-58.9	3.8	8.46e-01	0	44	104	3442475008	63	14898
2026-01-20 05:55:00.64	255.78	5.94	-46.9	-58.8	3.8	8.47e-01	0	44	104	3442475008	63	14841
2026-01-20 05:55:01.91	255.66	5.87	-46.9	-58.9	3.8	8.46e-01	0	44	104	3442475008	63	14940
2026-01-20 05:55:02.62	255.60	5.82	-46.9	-58.9	3.8	8.46e-01	0	44	104	3442475008	63	14954
2026-01-20 05:55:03.90	255.48	5.75	-46.9	-58.9	3.8	8.47e-01	0	44	104	3442475008	63	14918
2026-01-20 05:55:04.61	255.42	5.70	-46.9	-58.9	3.8	8.46e-01	0	44	104	3442475008	63	14948
2026-01-20 05:55:05.89	255.30	5.63	-46.9	-58.9	3.8	8.47e-01	0	44	104	3442475008	63	14915
2026-01-20 05:55:06.60	255.24	5.59	-46.9	-58.9	3.8	8.47e-01	0	44	104	3442475008	63	14940
2026-01-20 05:55:07.87	255.12	5.51	-46.9	-58.9	3.8	8.47e-01	0	44	104	3442475008	63	14915
2026-01-20 05:55:08.58	255.06	5.47	-46.9	-58.9	3.8	8.46e-01	0	44	104	3442475008	63	14911
2026-01-20 05:55:09.88	254.95	5.39	-46.9	-58.9	3.8	8.47e-01	0	44	104	3442475008	63	14924
2026-01-20 05:55:10.59	254.88	5.35	-46.8	-58.9	3.8	8.48e-01	0	44	104	3442475008	63	14905
2026-01-20 05:55:11.86	254.77	5.27	-46.9	-58.9	3.8	8.47e-01	0	44	104	3442475008	63	14899
2026-01-20 05:55:12.59	254.71	5.23	-46.9	-58.9	3.8	8.46e-01	0	44	104	3442475008	63	14975
2026-01-20 05:55:13.87	254.60	5.15	-46.8	-58.9	3.8	8.47e-01	0	44	104	3442475008	63	14968
2026-01-20 05:55:14.58	254.54	5.11	-46.9	-58.9	3.8	8.47e-01	0	44	104	3442475008	63	14954
2026-01-20 05:55:15.85	254.43	5.03	-46.9	-58.9	3.8	8.47e-01	0	44	104	3442475008	63	14894
2026-01-20 05:55:16.56	254.37	4.99	-46.9	-58.9	3.8	8.46e-01	0	44	104	3442475008	63	14957

#Closed at: 2026-01-20 05:55:17
#Recorded file [3442 MB]: D:/Data/31040_260120_084439.dat