passes_logs/2026/01/20/T1/T1__20260120_075431_SUOMI_NPP_rec.log

#Pass ID: 20260120_075431_SUOMI NPP
#Satellite: SUOMI NPP
#Configuration: NPP
#almurnet v.1.7.20251203
#Start time: 2026-01-20 07:54:32

#Version: 2.0.20230620
#Station: T1
#Location: 37.570604 lon 55.790049 lat
#TLE: 1 37849U 11061A   26019.61507914  .00000076  00000+0  57195-4 0  9994
#TLE: 2 37849  98.7817 321.6240 0002347  55.5899 304.5499 14.19526391737369

#Time	Az	El	Level	Level2	SNR	BER	BlckErr	Temp	State	Recorded	gain1	gain2
2026-01-20 07:54:32.06	92.85	5.01	-49.6	-65.2	3.8	1.49e+00	0	37	0	0	71	20805
2026-01-20 07:54:33.05	92.74	5.07	-49.6	-65.1	3.8	1.49e+00	0	37	104	0	71	20745
2026-01-20 07:54:34.05	92.64	5.12	-49.6	-65.1	3.8	1.49e+00	0	37	104	0	71	20720
2026-01-20 07:54:35.04	92.54	5.17	-49.6	-65.1	3.8	1.49e+00	0	37	104	0	71	20699
2026-01-20 07:54:36.03	92.44	5.23	-49.6	-65.1	3.8	1.49e+00	0	37	104	0	71	20767
2026-01-20 07:54:37.03	92.34	5.28	-49.6	-65.2	3.8	1.49e+00	0	37	104	0	71	20778
2026-01-20 07:54:38.02	92.23	5.33	-49.6	-65.1	3.8	1.49e+00	0	38	104	0	71	20736
2026-01-20 07:54:39.02	92.13	5.38	-49.6	-65.1	3.8	1.49e+00	0	38	104	0	71	20741
2026-01-20 07:54:40.01	92.02	5.44	-49.6	-65.1	3.8	1.49e+00	0	38	104	0	71	20762
2026-01-20 07:54:41.01	91.92	5.49	-49.6	-65.1	3.8	1.49e+00	0	38	104	0	71	20736
2026-01-20 07:54:42.00	91.82	5.54	-49.6	-65.2	3.8	1.49e+00	0	38	104	0	71	20777
2026-01-20 07:54:43.00	91.71	5.60	-49.6	-65.1	3.8	1.49e+00	0	38	104	0	71	20615
2026-01-20 07:54:43.99	91.60	5.65	-49.6	-65.1	3.8	1.49e+00	0	38	104	0	71	20688
2026-01-20 07:54:44.99	91.50	5.70	-49.6	-65.1	3.8	1.49e+00	0	38	104	0	71	20718
2026-01-20 07:54:45.99	91.39	5.76	-49.6	-65.1	3.8	1.49e+00	0	38	104	0	71	20670
2026-01-20 07:54:46.98	91.28	5.81	-49.6	-65.0	3.8	1.49e+00	0	38	104	0	71	20538
2026-01-20 07:54:47.97	91.18	5.86	-49.6	-65.1	3.8	1.49e+00	0	38	104	0	71	20656
2026-01-20 07:54:48.97	91.07	5.92	-49.6	-65.1	3.8	1.49e+00	0	38	104	0	71	20679
2026-01-20 07:54:49.97	90.96	5.97	-49.6	-65.1	3.8	1.49e+00	0	38	104	0	71	20707
2026-01-20 07:54:50.96	90.85	6.02	-49.6	-65.1	3.8	1.49e+00	0	38	104	0	71	20685
2026-01-20 07:54:51.96	90.74	6.08	-49.6	-65.1	3.8	1.49e+00	0	38	104	0	71	20575
2026-01-20 07:54:52.96	90.63	6.13	-49.6	-65.1	3.8	1.49e+00	0	38	104	0	71	20703
2026-01-20 07:54:53.95	90.53	6.18	-49.6	-65.1	3.8	1.49e+00	0	38	104	0	71	20618
2026-01-20 07:54:54.95	90.41	6.24	-49.6	-65.1	3.8	1.49e+00	0	38	104	0	71	20585
2026-01-20 07:54:55.95	90.30	6.29	-49.6	-65.1	3.8	1.49e+00	0	38	104	0	71	20574
2026-01-20 07:54:56.94	90.19	6.34	-49.6	-65.1	3.8	1.49e+00	0	38	104	0	71	20580
2026-01-20 07:54:57.94	90.08	6.40	-49.6	-65.1	3.8	1.49e+00	0	38	104	0	71	20604
2026-01-20 07:54:58.93	89.97	6.45	-49.6	-65.1	3.8	1.49e+00	0	38	104	0	71	20652
2026-01-20 07:54:59.93	89.86	6.50	-49.6	-65.1	3.8	1.49e+00	0	38	104	0	71	20552
2026-01-20 07:55:00.93	89.74	6.56	-49.6	-65.1	3.8	1.49e+00	0	38	104	0	71	20604
2026-01-20 07:55:01.92	89.63	6.61	-49.6	-65.1	3.8	1.49e+00	0	38	104	0	71	20549
2026-01-20 07:55:02.92	89.52	6.66	-49.6	-65.0	3.8	1.49e+00	0	39	104	0	71	20493
2026-01-20 07:55:03.91	89.40	6.72	-49.6	-65.0	3.8	1.49e+00	0	38	104	0	71	20492
2026-01-20 07:55:04.91	89.29	6.77	-49.6	-65.0	3.8	1.49e+00	0	39	104	0	71	20394
2026-01-20 07:55:05.91	89.17	6.83	-49.6	-64.9	3.8	1.49e+00	0	38	104	0	71	20251
2026-01-20 07:55:06.91	89.06	6.88	-49.6	-64.9	3.8	1.49e+00	0	39	104	0	71	20164
2026-01-20 07:55:07.90	88.94	6.93	-49.6	-64.8	3.8	1.49e+00	0	39	104	0	71	20018
2026-01-20 07:55:08.90	88.83	6.99	-49.6	-64.9	3.8	1.49e+00	0	39	104	0	71	20091
2026-01-20 07:55:09.90	88.71	7.04	-49.6	-64.8	3.8	1.49e+00	0	38	104	0	71	20038
2026-01-20 07:55:10.89	88.59	7.09	-49.6	-64.9	3.8	1.49e+00	0	39	104	0	71	20137
2026-01-20 07:55:11.89	88.48	7.15	-49.6	-64.9	3.8	1.49e+00	0	39	104	0	71	20161
2026-01-20 07:55:12.88	88.36	7.20	-49.6	-64.9	3.8	1.49e+00	0	39	104	0	71	20291
2026-01-20 07:55:13.88	88.24	7.25	-49.6	-65.0	3.8	1.49e+00	0	39	104	0	71	20307
2026-01-20 07:55:14.87	88.12	7.31	-49.6	-64.9	3.8	1.49e+00	0	39	104	0	71	20255
2026-01-20 07:55:15.87	88.00	7.36	-49.6	-64.9	3.8	1.49e+00	0	39	104	0	71	20236
2026-01-20 07:55:16.87	87.88	7.41	-49.6	-64.8	3.8	1.49e+00	0	39	104	0	71	20041
2026-01-20 07:55:17.87	87.76	7.47	-49.6	-64.7	3.8	1.49e+00	0	39	104	0	71	19809
2026-01-20 07:55:18.86	87.64	7.52	-49.6	-64.6	3.8	1.49e+00	0	39	104	0	71	19442
2026-01-20 07:55:19.86	87.52	7.57	-49.6	-64.4	3.8	1.49e+00	0	39	104	0	71	19001
2026-01-20 07:55:20.86	87.40	7.63	-49.6	-64.3	3.8	1.49e+00	0	39	104	0	71	18775
2026-01-20 07:55:21.86	87.28	7.68	-49.6	-64.2	3.8	1.49e+00	0	39	104	0	71	18680
2026-01-20 07:55:22.85	87.15	7.74	-49.6	-64.3	3.8	1.49e+00	0	39	104	0	71	18945
2026-01-20 07:55:23.85	87.03	7.79	-49.6	-64.6	3.8	1.49e+00	0	39	104	0	71	19569
2026-01-20 07:55:24.84	86.91	7.84	-49.6	-64.8	3.8	1.49e+00	0	39	104	0	71	19968
2026-01-20 07:55:25.84	86.78	7.90	-49.6	-64.9	3.8	1.49e+00	0	39	104	0	71	20161
2026-01-20 07:55:26.84	86.66	7.95	-49.6	-64.9	3.8	1.49e+00	0	39	104	0	71	20147
2026-01-20 07:55:27.84	86.53	8.00	-49.6	-64.7	3.8	1.49e+00	0	39	104	0	71	19665
2026-01-20 07:55:28.83	86.41	8.06	-49.5	-64.3	3.8	1.49e+00	0	39	104	0	71	18734
2026-01-20 07:55:29.83	86.28	8.11	-49.5	-63.7	3.8	1.49e+00	0	39	104	0	71	17545
2026-01-20 07:55:30.82	86.16	8.16	-49.5	-63.3	3.8	1.49e+00	0	39	104	0	71	16840
2026-01-20 07:55:31.82	86.03	8.22	-49.5	-63.5	3.8	1.49e+00	0	39	104	0	71	17270
2026-01-20 07:55:32.81	85.91	8.27	-49.6	-64.2	3.8	1.49e+00	0	39	104	0	71	18680
2026-01-20 07:55:33.81	85.78	8.32	-49.6	-64.8	3.8	1.49e+00	0	39	104	0	71	19954
2026-01-20 07:55:34.81	85.65	8.38	-49.5	-64.1	3.8	1.49e+00	0	39	104	0	71	18500
2026-01-20 07:55:35.80	85.52	8.43	-49.3	-60.7	4.4	1.49e+00	0	39	0	0	70	13225
2026-01-20 07:55:36.80	85.39	8.48	-48.8	-57.0	6.7	3.17e-01	0	39	0	1048576	69	9161
2026-01-20 07:55:37.80	85.26	8.54	-48.0	-54.3	9.3	4.35e-02	0	39	0	3145728	68	7080
2026-01-20 07:55:38.79	85.13	8.59	-47.2	-52.4	11.2	5.31e-03	0	39	0	5242880	66	6396
2026-01-20 07:55:39.79	85.00	8.64	-46.6	-51.2	12.5	5.66e-04	0	39	0	7340032	65	5858
2026-01-20 07:55:40.78	84.87	8.69	-46.3	-50.4	13.3	3.20e-05	0	39	0	9437184	64	5697
2026-01-20 07:55:41.78	84.74	8.75	-46.3	-50.4	13.2	1.52e-05	0	39	0	10485760	64	5720
2026-01-20 07:55:42.78	84.61	8.80	-46.3	-50.4	13.2	1.14e-05	0	39	0	12582912	64	5699
2026-01-20 07:55:43.78	84.48	8.85	-46.8	-51.4	12.2	1.38e-04	0	39	0	14680064	64	6409
2026-01-20 07:55:44.77	84.34	8.91	-47.5	-53.0	10.7	1.16e-03	0	39	0	16777216	65	7240
2026-01-20 07:55:45.77	84.21	8.96	-48.2	-55.3	8.3	1.29e-02	0	39	0	18874368	67	8385
2026-01-20 07:55:46.77	84.08	9.01	-48.9	-58.0	6.0	1.26e-01	0	39	0	19922944	68	10789
2026-01-20 07:55:47.76	83.94	9.07	-47.2	-52.4	11.2	1.42e-01	0	39	0	22020096	66	6402
2026-01-20 07:55:48.77	83.81	9.12	-47.4	-53.0	10.7	1.81e-03	0	39	0	24117248	66	6862
2026-01-20 07:55:49.77	83.67	9.17	-49.4	-62.2	4.0	1.82e-02	0	39	0	26214400	69	16605
2026-01-20 07:55:50.77	83.53	9.22	-47.4	-53.0	10.4	7.88e-01	0	39	104	26214400	66	6822
2026-01-20 07:55:51.77	83.40	9.28	-49.0	-57.8	6.4	2.60e-03	0	39	0	27262976	68	10638
2026-01-20 07:55:52.77	83.26	9.33	-46.8	-51.5	12.2	6.19e-01	0	39	0	29360128	65	6089
2026-01-20 07:55:53.77	83.12	9.38	-46.7	-51.3	12.5	1.83e-04	0	39	0	31457280	65	5930
2026-01-20 07:55:54.78	82.98	9.44	-47.0	-51.9	11.8	2.28e-04	0	40	0	33554432	65	6384
2026-01-20 07:55:55.78	82.84	9.49	-47.1	-52.1	11.6	6.06e-04	0	39	0	34603008	65	6541
2026-01-20 07:55:56.78	82.70	9.54	-47.3	-52.4	11.4	8.89e-04	0	40	0	36700160	65	6729
2026-01-20 07:55:57.78	82.56	9.59	-46.7	-51.2	12.5	2.43e-04	0	39	0	38797312	65	5888
2026-01-20 07:55:58.78	82.42	9.65	-46.2	-50.2	13.5	3.12e-05	0	39	0	40894464	64	5558
2026-01-20 07:55:59.78	82.28	9.70	-46.0	-49.9	13.9	6.10e-06	0	39	0	42991616	64	5359
2026-01-20 07:56:00.79	82.14	9.75	-46.1	-50.2	13.6	1.14e-05	0	39	0	44040192	64	5534
2026-01-20 07:56:01.79	82.00	9.81	-46.2	-50.3	13.5	1.44e-05	0	39	0	46137344	64	5598
2026-01-20 07:56:02.79	81.86	9.86	-46.2	-50.3	13.6	1.83e-05	0	40	0	48234496	64	5604
2026-01-20 07:56:03.79	81.71	9.91	-46.1	-50.2	13.6	5.30e-06	0	39	0	50331648	64	5550
2026-01-20 07:56:04.79	81.57	9.96	-46.0	-49.9	13.9	4.50e-06	0	40	0	52428800	64	5364
2026-01-20 07:56:05.80	81.42	10.01	-45.9	-49.5	14.3	4.50e-06	0	40	0	53477376	63	5464
2026-01-20 07:56:06.80	81.28	10.07	-45.8	-49.4	14.5	0.00e+00	0	40	0	55574528	63	5379
2026-01-20 07:56:07.80	81.13	10.12	-45.6	-49.1	14.8	0.00e+00	0	39	0	57671680	63	5166
2026-01-20 07:56:08.80	80.99	10.17	-45.7	-49.3	14.6	1.50e-06	0	39	0	59768832	63	5314
2026-01-20 07:56:09.80	80.84	10.22	-45.6	-49.1	14.8	0.00e+00	0	40	0	60817408	63	5182
2026-01-20 07:56:10.81	80.69	10.27	-45.4	-48.7	15.2	0.00e+00	0	40	0	62914560	62	5249
2026-01-20 07:56:11.81	80.55	10.33	-45.3	-48.6	15.3	7.00e-07	0	40	0	65011712	62	5178
2026-01-20 07:56:12.81	80.40	10.38	-45.1	-48.3	15.5	0.00e+00	0	40	0	67108864	62	5035
2026-01-20 07:56:13.81	80.25	10.43	-45.1	-48.3	15.6	0.00e+00	0	40	0	69206016	62	5023
2026-01-20 07:56:14.81	80.10	10.48	-45.2	-48.5	15.4	0.00e+00	0	40	0	70254592	62	5112
2026-01-20 07:56:15.81	79.95	10.53	-45.1	-48.3	15.7	0.00e+00	0	40	0	72351744	62	4985
2026-01-20 07:56:16.82	79.80	10.58	-44.9	-48.1	15.8	0.00e+00	0	40	0	74448896	61	5191
2026-01-20 07:56:17.81	79.65	10.64	-44.9	-47.9	15.9	0.00e+00	0	40	0	76546048	61	5100
2026-01-20 07:56:18.81	79.50	10.69	-44.8	-47.9	16.1	0.00e+00	0	39	0	78643200	61	5045
2026-01-20 07:56:19.81	79.35	10.74	-44.8	-47.8	16.1	0.00e+00	0	40	0	79691776	61	5020
2026-01-20 07:56:20.81	79.20	10.79	-44.8	-47.9	16.0	0.00e+00	0	40	0	81788928	61	5078
2026-01-20 07:56:21.81	79.05	10.84	-44.6	-47.5	16.3	0.00e+00	0	40	0	83886080	61	4869
2026-01-20 07:56:22.81	78.89	10.89	-44.5	-47.3	16.5	0.00e+00	0	40	0	85983232	60	5032
2026-01-20 07:56:23.81	78.74	10.94	-44.6	-47.5	16.5	0.00e+00	0	40	0	88080384	60	5108
2026-01-20 07:56:24.81	78.59	10.99	-44.3	-47.1	16.7	0.00e+00	0	40	0	89128960	60	4897
2026-01-20 07:56:25.82	78.43	11.04	-44.2	-47.0	16.9	0.00e+00	0	40	0	91226112	60	4839
2026-01-20 07:56:26.82	78.28	11.09	-44.4	-47.3	16.6	0.00e+00	0	40	0	93323264	60	4994
2026-01-20 07:56:27.82	78.12	11.14	-44.3	-47.1	16.7	0.00e+00	0	40	0	95420416	60	4924
2026-01-20 07:56:28.82	77.96	11.19	-44.4	-47.3	16.7	0.00e+00	0	40	0	97517568	60	5029
2026-01-20 07:56:29.82	77.81	11.24	-44.3	-47.1	16.7	0.00e+00	0	40	0	98566144	60	4900
2026-01-20 07:56:30.83	77.65	11.29	-44.3	-47.2	16.7	0.00e+00	0	39	0	100663296	60	4962
2026-01-20 07:56:31.83	77.49	11.34	-44.5	-47.5	16.4	0.00e+00	0	40	0	102760448	60	5137
2026-01-20 07:56:32.83	77.33	11.39	-44.5	-47.4	16.5	0.00e+00	0	40	0	104857600	60	5084
2026-01-20 07:56:33.83	77.17	11.44	-44.5	-47.5	16.4	0.00e+00	0	40	0	105906176	60	5151
2026-01-20 07:56:34.83	77.01	11.49	-44.5	-47.4	16.5	0.00e+00	0	40	0	108003328	60	5093
2026-01-20 07:56:35.83	76.85	11.54	-44.4	-47.2	16.7	0.00e+00	0	39	0	110100480	60	4970
2026-01-20 07:56:36.83	76.69	11.59	-44.2	-47.0	16.9	0.00e+00	0	40	0	112197632	60	4820
2026-01-20 07:56:37.84	76.53	11.64	-44.0	-46.7	17.1	0.00e+00	0	39	0	114294784	60	4683
2026-01-20 07:56:38.83	76.37	11.69	-44.1	-46.7	17.1	0.00e+00	0	39	0	115343360	59	4979
2026-01-20 07:56:39.84	76.21	11.74	-44.2	-46.9	17.0	0.00e+00	0	40	0	117440512	59	5068
2026-01-20 07:56:40.84	76.04	11.79	-44.3	-47.0	16.8	0.00e+00	0	40	0	119537664	59	5154
2026-01-20 07:56:41.84	75.88	11.84	-44.3	-47.1	16.8	0.00e+00	0	40	0	121634816	59	5175
2026-01-20 07:56:42.84	75.72	11.89	-43.9	-46.5	17.3	0.00e+00	0	40	0	123731968	59	4851
2026-01-20 07:56:43.84	75.55	11.93	-43.7	-46.3	17.5	0.00e+00	0	40	0	124780544	59	4729
2026-01-20 07:56:44.84	75.39	11.98	-43.5	-46.1	17.6	0.00e+00	0	40	0	126877696	59	4604
2026-01-20 07:56:45.84	75.22	12.03	-43.7	-46.3	17.5	0.00e+00	0	40	0	128974848	59	4745
2026-01-20 07:56:46.85	75.05	12.08	-43.9	-46.5	17.1	0.00e+00	0	40	0	131072000	59	4843
2026-01-20 07:56:47.85	74.89	12.13	-44.0	-46.7	17.1	0.00e+00	0	40	0	132120576	59	4942
2026-01-20 07:56:48.85	74.72	12.18	-44.1	-46.8	17.1	0.00e+00	0	40	0	134217728	59	5009
2026-01-20 07:56:49.86	74.55	12.22	-44.1	-46.8	17.0	0.00e+00	0	39	0	136314880	59	5031
2026-01-20 07:56:50.85	74.38	12.27	-44.2	-47.0	16.9	0.00e+00	0	40	0	138412032	59	5124
2026-01-20 07:56:51.86	74.21	12.32	-44.3	-47.1	16.8	0.00e+00	0	40	0	140509184	59	5180
2026-01-20 07:56:52.86	74.04	12.37	-44.4	-47.2	16.7	0.00e+00	0	40	0	141557760	59	5257
2026-01-20 07:56:53.86	73.87	12.41	-44.3	-47.1	16.8	0.00e+00	0	40	0	143654912	59	5215
2026-01-20 07:56:54.86	73.70	12.46	-44.1	-46.8	17.0	0.00e+00	0	40	0	145752064	59	5031
2026-01-20 07:56:55.86	73.53	12.51	-43.8	-46.5	17.4	0.00e+00	0	40	0	147849216	59	4825
2026-01-20 07:56:56.86	73.36	12.55	-43.6	-46.1	17.7	0.00e+00	0	40	0	149946368	59	4617
2026-01-20 07:56:57.86	73.19	12.60	-43.6	-46.1	17.8	0.00e+00	0	40	0	150994944	58	4875
2026-01-20 07:56:58.87	73.01	12.65	-43.4	-45.9	17.9	0.00e+00	0	40	0	153092096	58	4765
2026-01-20 07:56:59.86	72.84	12.69	-43.5	-46.0	17.8	0.00e+00	0	40	0	155189248	58	4860
2026-01-20 07:57:00.87	72.67	12.74	-43.5	-46.0	17.8	0.00e+00	0	40	0	157286400	58	4828
2026-01-20 07:57:01.86	72.50	12.78	-43.5	-46.0	17.9	0.00e+00	0	40	0	159383552	58	4827
2026-01-20 07:57:02.86	72.32	12.83	-43.5	-46.0	17.8	0.00e+00	0	40	0	160432128	58	4860
2026-01-20 07:57:03.86	72.15	12.87	-43.5	-46.0	17.8	0.00e+00	0	40	0	162529280	58	4851
2026-01-20 07:57:04.87	71.97	12.92	-43.8	-46.4	17.4	0.00e+00	0	40	0	164626432	58	5100
2026-01-20 07:57:05.87	71.79	12.96	-43.9	-46.6	17.3	0.00e+00	0	40	0	166723584	58	5197
2026-01-20 07:57:06.87	71.61	13.01	-43.8	-46.5	17.4	0.00e+00	0	40	0	168820736	58	5106
2026-01-20 07:57:07.87	71.44	13.05	-43.9	-46.6	17.2	0.00e+00	0	40	0	169869312	58	5208
2026-01-20 07:57:08.87	71.26	13.10	-43.9	-46.6	17.3	0.00e+00	0	40	0	171966464	58	5179
2026-01-20 07:57:09.87	71.08	13.14	-44.1	-46.8	17.1	0.00e+00	0	40	0	174063616	58	5293
2026-01-20 07:57:10.88	70.90	13.19	-44.2	-46.9	17.0	0.00e+00	0	40	0	176160768	59	5094
2026-01-20 07:57:11.88	70.72	13.23	-44.0	-47.0	16.8	0.00e+00	0	40	0	177209344	59	5103
2026-01-20 07:57:12.88	70.54	13.27	-43.9	-46.7	17.0	0.00e+00	0	40	0	179306496	59	4974
2026-01-20 07:57:13.88	70.36	13.32	-43.9	-46.7	17.0	0.00e+00	0	40	0	181403648	59	4941
2026-01-20 07:57:14.88	70.18	13.36	-43.9	-46.8	17.0	0.00e+00	0	40	0	183500800	59	5002
2026-01-20 07:57:15.88	70.00	13.40	-43.9	-46.7	17.0	0.00e+00	0	40	0	185597952	59	4959
2026-01-20 07:57:16.88	69.81	13.45	-43.8	-46.7	17.0	0.00e+00	0	40	0	186646528	59	4930
2026-01-20 07:57:17.88	69.63	13.49	-44.0	-46.9	16.8	0.00e+00	0	40	0	188743680	59	5051
2026-01-20 07:57:18.89	69.45	13.53	-44.0	-46.9	16.9	0.00e+00	0	40	0	190840832	59	5051
2026-01-20 07:57:19.89	69.26	13.57	-44.3	-47.3	16.5	0.00e+00	0	40	0	192937984	59	5329
2026-01-20 07:57:20.89	69.08	13.62	-44.3	-47.4	16.4	0.00e+00	0	40	0	195035136	59	5366
2026-01-20 07:57:21.89	68.89	13.66	-44.3	-47.3	16.5	0.00e+00	0	40	0	196083712	59	5330
2026-01-20 07:57:22.89	68.71	13.70	-44.2	-47.3	16.5	0.00e+00	0	40	0	198180864	59	5301
2026-01-20 07:57:23.89	68.52	13.74	-44.1	-47.1	16.7	0.00e+00	0	40	0	200278016	59	5164
2026-01-20 07:57:24.89	68.33	13.78	-43.9	-46.8	16.9	0.00e+00	0	40	0	202375168	59	5006
2026-01-20 07:57:25.89	68.15	13.82	-44.0	-46.9	16.9	0.00e+00	0	40	0	204472320	59	5054
2026-01-20 07:57:26.89	67.96	13.86	-43.9	-46.8	17.0	0.00e+00	0	40	0	205520896	59	4988
2026-01-20 07:57:27.89	67.77	13.90	-43.8	-46.6	17.2	0.00e+00	0	40	0	207618048	59	4871
2026-01-20 07:57:28.90	67.58	13.94	-43.6	-46.3	17.4	0.00e+00	0	40	0	209715200	59	4738
2026-01-20 07:57:29.90	67.39	13.98	-43.6	-46.4	17.3	0.00e+00	0	40	0	211812352	59	4788
2026-01-20 07:57:30.90	67.20	14.02	-43.6	-46.3	17.4	0.00e+00	0	40	0	212860928	59	4752
2026-01-20 07:57:31.90	67.01	14.06	-43.8	-46.6	17.2	0.00e+00	0	40	0	214958080	59	4883
2026-01-20 07:57:32.90	66.82	14.10	-43.9	-46.8	17.1	0.00e+00	0	40	0	217055232	59	5023
2026-01-20 07:57:33.90	66.63	14.14	-43.8	-46.6	17.2	0.00e+00	0	40	0	219152384	59	4919
2026-01-20 07:57:34.90	66.44	14.18	-43.7	-46.5	17.2	0.00e+00	0	40	0	221249536	59	4844
2026-01-20 07:57:35.90	66.25	14.22	-43.6	-46.3	17.4	0.00e+00	0	40	0	222298112	59	4727
2026-01-20 07:57:36.91	66.05	14.26	-43.6	-46.3	17.4	0.00e+00	0	40	0	224395264	59	4734
2026-01-20 07:57:37.91	65.86	14.29	-43.5	-46.2	17.5	0.00e+00	0	40	0	226492416	58	4953
2026-01-20 07:57:38.91	65.66	14.33	-43.5	-46.3	17.5	0.00e+00	0	40	0	228589568	58	4987
2026-01-20 07:57:39.91	65.47	14.37	-43.6	-46.4	17.4	0.00e+00	0	40	0	230686720	58	5067
2026-01-20 07:57:40.91	65.28	14.41	-43.6	-46.4	17.4	0.00e+00	0	40	0	231735296	58	5049
2026-01-20 07:57:41.91	65.08	14.44	-43.7	-46.5	17.4	0.00e+00	0	40	0	233832448	58	5113
2026-01-20 07:57:42.91	64.88	14.48	-43.9	-46.8	17.0	0.00e+00	0	40	0	235929600	58	5296
2026-01-20 07:57:43.91	64.69	14.52	-43.9	-46.7	17.1	0.00e+00	0	40	0	238026752	58	5244
2026-01-20 07:57:44.91	64.49	14.55	-44.0	-46.9	17.0	0.00e+00	0	40	0	240123904	58	5362
2026-01-20 07:57:45.91	64.30	14.59	-44.0	-46.9	17.0	0.00e+00	0	40	0	241172480	58	5342
2026-01-20 07:57:46.92	64.10	14.62	-43.8	-46.6	17.2	0.00e+00	0	40	0	243269632	58	5193
2026-01-20 07:57:47.92	63.90	14.66	-43.5	-46.1	17.7	0.00e+00	0	40	0	245366784	58	4914
2026-01-20 07:57:48.92	63.70	14.69	-43.4	-46.1	17.7	0.00e+00	0	40	0	247463936	58	4896
2026-01-20 07:57:49.92	63.50	14.73	-43.2	-45.7	18.0	0.00e+00	0	40	0	249561088	58	4686
2026-01-20 07:57:50.92	63.30	14.76	-43.2	-45.7	18.0	0.00e+00	0	40	0	250609664	58	4699
2026-01-20 07:57:51.92	63.10	14.79	-43.2	-45.8	18.0	0.00e+00	0	40	0	252706816	58	4709
2026-01-20 07:57:52.92	62.90	14.83	-43.0	-45.6	18.2	0.00e+00	0	40	0	254803968	58	4611
2026-01-20 07:57:53.92	62.70	14.86	-42.9	-45.5	18.3	0.00e+00	0	40	0	256901120	57	4819
2026-01-20 07:57:54.92	62.50	14.89	-43.0	-45.6	18.2	0.00e+00	0	40	0	257949696	57	4873
2026-01-20 07:57:55.93	62.30	14.93	-43.1	-45.7	18.1	0.00e+00	0	40	0	260046848	57	4927
2026-01-20 07:57:56.92	62.10	14.96	-43.3	-45.9	17.9	0.00e+00	0	40	0	262144000	57	5079
2026-01-20 07:57:57.92	61.89	14.99	-43.4	-46.1	17.7	0.00e+00	0	40	0	264241152	57	5188
2026-01-20 07:57:58.92	61.69	15.02	-43.4	-46.1	17.7	0.00e+00	0	40	0	266338304	57	5166
2026-01-20 07:57:59.92	61.49	15.05	-43.3	-45.9	17.9	0.00e+00	0	40	0	267386880	57	5078
2026-01-20 07:58:00.93	61.28	15.09	-43.3	-45.9	17.9	0.00e+00	0	40	0	269484032	57	5045
2026-01-20 07:58:01.93	61.08	15.12	-43.2	-45.8	18.0	0.00e+00	0	40	0	271581184	57	4989
2026-01-20 07:58:02.92	60.87	15.15	-43.2	-45.8	18.0	0.00e+00	0	40	0	273678336	57	5007
2026-01-20 07:58:03.92	60.67	15.18	-43.3	-45.9	17.9	0.00e+00	0	40	0	275775488	57	5052
2026-01-20 07:58:04.93	60.46	15.21	-43.2	-45.7	18.0	0.00e+00	0	40	0	276824064	57	4972
2026-01-20 07:58:05.92	60.26	15.23	-43.3	-45.9	17.9	0.00e+00	0	40	0	278921216	57	5088
2026-01-20 07:58:06.92	60.05	15.26	-43.3	-45.9	17.9	0.00e+00	0	40	0	281018368	57	5081
2026-01-20 07:58:07.93	59.84	15.29	-43.6	-46.3	17.5	0.00e+00	0	40	0	283115520	57	5297
2026-01-20 07:58:08.93	59.64	15.32	-43.7	-46.4	17.5	0.00e+00	0	40	0	285212672	57	5358
2026-01-20 07:58:09.92	59.43	15.35	-43.9	-46.6	17.3	0.00e+00	0	40	0	286261248	58	5201
2026-01-20 07:58:10.93	59.22	15.38	-44.0	-46.7	17.1	0.00e+00	0	40	0	288358400	58	5278
2026-01-20 07:58:11.93	59.01	15.40	-43.9	-46.7	17.2	0.00e+00	0	40	0	290455552	58	5237
2026-01-20 07:58:12.93	58.80	15.43	-44.0	-46.8	17.1	0.00e+00	0	40	0	292552704	58	5301
2026-01-20 07:58:13.93	58.59	15.46	-44.0	-46.9	17.0	0.00e+00	0	40	0	293601280	58	5342
2026-01-20 07:58:14.93	58.38	15.48	-43.9	-46.7	17.2	0.00e+00	0	40	0	295698432	58	5220
2026-01-20 07:58:15.93	58.18	15.51	-43.8	-46.6	17.2	0.00e+00	0	40	0	297795584	58	5194
2026-01-20 07:58:16.94	57.96	15.54	-43.8	-46.6	17.2	0.00e+00	0	40	0	299892736	58	5195
2026-01-20 07:58:17.94	57.75	15.56	-44.0	-46.8	17.0	0.00e+00	0	40	0	301989888	58	5294
2026-01-20 07:58:18.93	57.54	15.59	-43.9	-46.7	17.2	0.00e+00	0	40	0	303038464	58	5224
2026-01-20 07:58:19.94	57.33	15.61	-43.8	-46.5	17.3	0.00e+00	0	40	0	305135616	58	5152
2026-01-20 07:58:20.94	57.12	15.63	-43.6	-46.3	17.5	0.00e+00	0	40	0	307232768	58	4999
2026-01-20 07:58:21.94	56.91	15.66	-43.6	-46.2	17.6	0.00e+00	0	40	0	309329920	58	4958
2026-01-20 07:58:22.95	56.69	15.68	-43.6	-46.3	17.6	0.00e+00	0	40	0	311427072	58	4990
2026-01-20 07:58:23.95	56.48	15.70	-43.5	-46.2	17.6	0.00e+00	0	40	0	312475648	58	4927
2026-01-20 07:58:24.95	56.27	15.73	-43.6	-46.3	17.5	0.00e+00	0	40	0	314572800	58	5017
2026-01-20 07:58:25.95	56.05	15.75	-43.6	-46.3	17.5	0.00e+00	0	40	0	316669952	58	5005
2026-01-20 07:58:26.95	55.84	15.77	-43.4	-46.1	17.7	0.00e+00	0	40	0	318767104	58	4892
2026-01-20 07:58:27.95	55.63	15.79	-43.4	-46.0	17.8	0.00e+00	0	40	0	319815680	58	4824
2026-01-20 07:58:28.95	55.41	15.81	-43.4	-46.0	17.8	0.00e+00	0	40	0	321912832	58	4839
2026-01-20 07:58:29.95	55.20	15.83	-43.3	-45.9	17.9	0.00e+00	0	40	0	324009984	58	4777
2026-01-20 07:58:30.95	54.98	15.85	-43.3	-45.9	17.9	0.00e+00	0	40	0	326107136	58	4784
2026-01-20 07:58:31.95	54.77	15.87	-43.3	-45.9	17.9	0.00e+00	0	40	0	328204288	58	4761
2026-01-20 07:58:32.95	54.55	15.89	-43.5	-46.1	17.7	0.00e+00	0	40	0	329252864	58	4912
2026-01-20 07:58:33.95	54.34	15.91	-43.5	-46.2	17.5	0.00e+00	0	40	0	331350016	58	4974
2026-01-20 07:58:34.95	54.12	15.93	-43.6	-46.3	17.4	0.00e+00	0	40	0	333447168	58	5021
2026-01-20 07:58:35.95	53.91	15.95	-43.6	-46.3	17.5	0.00e+00	0	40	0	335544320	58	5020
2026-01-20 07:58:36.95	53.69	15.97	-43.7	-46.5	17.3	0.00e+00	0	40	0	337641472	58	5112
2026-01-20 07:58:37.96	53.47	15.99	-43.7	-46.5	17.3	0.00e+00	0	40	0	338690048	58	5126
2026-01-20 07:58:38.96	53.26	16.00	-43.6	-46.4	17.3	0.00e+00	0	40	0	340787200	58	5073
2026-01-20 07:58:39.96	53.04	16.02	-43.7	-46.5	17.3	0.00e+00	0	40	0	342884352	58	5106
2026-01-20 07:58:40.96	52.82	16.04	-43.8	-46.6	17.2	0.00e+00	0	40	0	344981504	58	5218
2026-01-20 07:58:41.96	52.60	16.05	-44.0	-46.9	17.0	0.00e+00	0	40	0	347078656	58	5358
2026-01-20 07:58:42.96	52.39	16.07	-44.0	-47.0	16.9	0.00e+00	0	40	0	348127232	59	5102
2026-01-20 07:58:43.96	52.17	16.08	-44.2	-47.2	16.7	0.00e+00	0	40	0	350224384	59	5249
2026-01-20 07:58:44.96	51.95	16.10	-44.0	-47.0	16.9	0.00e+00	0	40	0	352321536	59	5107
2026-01-20 07:58:45.97	51.73	16.11	-44.2	-47.2	16.6	0.00e+00	0	40	0	354418688	59	5267
2026-01-20 07:58:46.97	51.51	16.12	-44.3	-47.3	16.6	0.00e+00	0	40	0	356515840	59	5297
2026-01-20 07:58:47.97	51.29	16.14	-44.1	-47.0	16.8	0.00e+00	0	40	0	357564416	59	5142
2026-01-20 07:58:48.97	51.07	16.15	-44.0	-47.0	16.9	0.00e+00	0	40	0	359661568	59	5101
2026-01-20 07:58:49.97	50.85	16.16	-43.9	-46.8	17.0	0.00e+00	0	40	0	361758720	59	5001
2026-01-20 07:58:50.97	50.63	16.18	-43.9	-46.8	17.1	0.00e+00	0	40	0	363855872	59	4987
2026-01-20 07:58:51.98	50.41	16.19	-43.8	-46.7	17.1	0.00e+00	0	40	0	364904448	59	4947
2026-01-20 07:58:52.97	50.19	16.20	-43.8	-46.7	17.1	0.00e+00	0	40	0	367001600	59	4955
2026-01-20 07:58:53.98	49.97	16.21	-43.7	-46.6	17.3	0.00e+00	0	40	0	369098752	59	4871
2026-01-20 07:58:54.97	49.76	16.22	-43.8	-46.7	17.1	0.00e+00	0	40	0	371195904	59	4955
2026-01-20 07:58:55.97	49.53	16.23	-43.9	-46.8	17.0	0.00e+00	0	40	0	373293056	59	5022
2026-01-20 07:58:56.97	49.31	16.24	-43.7	-46.5	17.3	0.00e+00	0	40	0	374341632	59	4837
2026-01-20 07:58:57.98	49.09	16.25	-43.6	-46.4	17.4	0.00e+00	0	40	0	376438784	59	4764
2026-01-20 07:58:58.98	48.87	16.26	-43.5	-46.3	17.5	0.00e+00	0	40	0	378535936	59	4724
2026-01-20 07:58:59.98	48.65	16.27	-43.4	-46.1	17.7	0.00e+00	0	40	0	380633088	58	4915
2026-01-20 07:59:00.98	48.43	16.27	-43.4	-46.0	17.7	0.00e+00	0	40	0	382730240	58	4856
2026-01-20 07:59:01.98	48.21	16.28	-43.4	-46.1	17.7	0.00e+00	0	40	0	383778816	58	4893
2026-01-20 07:59:02.98	47.99	16.29	-43.5	-46.2	17.6	0.00e+00	0	40	0	385875968	58	4974
2026-01-20 07:59:03.98	47.77	16.30	-43.6	-46.3	17.5	0.00e+00	0	40	0	387973120	58	5019
2026-01-20 07:59:04.98	47.55	16.30	-43.6	-46.4	17.4	0.00e+00	0	40	0	390070272	58	5056
2026-01-20 07:59:05.98	47.32	16.31	-43.7	-46.4	17.4	0.00e+00	0	40	0	392167424	58	5091
2026-01-20 07:59:06.98	47.10	16.31	-43.8	-46.6	17.2	0.00e+00	0	40	0	393216000	58	5170
2026-01-20 07:59:07.98	46.88	16.32	-43.9	-46.8	17.1	0.00e+00	0	40	0	395313152	58	5292
2026-01-20 07:59:08.98	46.66	16.32	-43.9	-46.7	17.2	0.00e+00	0	40	0	397410304	58	5234
2026-01-20 07:59:09.98	46.44	16.33	-43.8	-46.7	17.2	0.00e+00	0	40	0	399507456	58	5221
2026-01-20 07:59:10.97	46.22	16.33	-43.8	-46.6	17.2	0.00e+00	0	40	0	400556032	58	5206
2026-01-20 07:59:11.98	46.00	16.33	-43.6	-46.4	17.4	0.00e+00	0	40	0	402653184	58	5050
2026-01-20 07:59:12.98	45.77	16.34	-43.6	-46.3	17.5	0.00e+00	0	40	0	404750336	58	5030
2026-01-20 07:59:13.98	45.55	16.34	-43.5	-46.2	17.6	0.00e+00	0	40	0	406847488	58	4948
2026-01-20 07:59:14.98	45.33	16.34	-43.5	-46.2	17.5	0.00e+00	0	40	0	408944640	58	4974
2026-01-20 07:59:15.98	45.11	16.34	-43.6	-46.3	17.5	0.00e+00	0	40	0	409993216	58	5000
2026-01-20 07:59:16.98	44.89	16.34	-43.4	-46.1	17.7	0.00e+00	0	40	0	412090368	58	4895
2026-01-20 07:59:17.99	44.66	16.34	-43.5	-46.2	17.5	0.00e+00	0	40	0	414187520	58	4958
2026-01-20 07:59:18.99	44.44	16.34	-43.5	-46.3	17.5	0.00e+00	0	40	0	416284672	58	5004
2026-01-20 07:59:19.99	44.22	16.34	-43.8	-46.6	17.2	0.00e+00	0	40	0	418381824	58	5199
2026-01-20 07:59:20.99	44.00	16.34	-43.9	-46.8	17.0	0.00e+00	0	40	0	419430400	58	5333
2026-01-20 07:59:22.00	43.77	16.34	-44.1	-47.0	16.8	0.00e+00	0	40	0	421527552	58	5432
2026-01-20 07:59:23.00	43.55	16.34	-44.1	-47.1	16.8	0.00e+00	0	40	0	423624704	58	5480
2026-01-20 07:59:24.00	43.33	16.34	-44.3	-47.3	16.6	0.00e+00	0	40	0	425721856	59	5298
2026-01-20 07:59:25.00	43.11	16.33	-44.4	-47.5	16.3	0.00e+00	0	40	0	426770432	59	5422
2026-01-20 07:59:26.00	42.89	16.33	-44.5	-47.5	16.3	0.00e+00	0	40	0	428867584	59	5461
2026-01-20 07:59:27.00	42.67	16.33	-44.5	-47.7	16.2	0.00e+00	0	40	0	430964736	59	5547
2026-01-20 07:59:28.01	42.44	16.32	-44.7	-47.9	16.0	0.00e+00	0	40	0	433061888	60	5372
2026-01-20 07:59:29.01	42.22	16.32	-44.6	-47.8	16.1	0.00e+00	0	40	0	435159040	60	5308
2026-01-20 07:59:30.01	42.00	16.32	-44.5	-47.8	16.1	0.00e+00	0	40	0	436207616	60	5289
2026-01-20 07:59:31.01	41.78	16.31	-44.4	-47.6	16.3	0.00e+00	0	40	0	438304768	60	5191
2026-01-20 07:59:32.02	41.55	16.31	-44.2	-47.3	16.5	0.00e+00	0	40	0	440401920	60	5033
2026-01-20 07:59:33.01	41.34	16.30	-44.3	-47.4	16.5	0.00e+00	0	40	0	442499072	60	5086
2026-01-20 07:59:34.01	41.11	16.29	-44.0	-46.9	17.0	0.00e+00	0	40	0	444596224	59	5068
2026-01-20 07:59:35.01	40.89	16.29	-43.9	-46.8	17.0	0.00e+00	0	40	0	445644800	59	5002
2026-01-20 07:59:36.01	40.67	16.28	-43.8	-46.6	17.2	0.00e+00	0	40	0	447741952	59	4905
2026-01-20 07:59:37.02	40.45	16.27	-43.8	-46.6	17.2	0.00e+00	0	40	0	449839104	59	4903
2026-01-20 07:59:38.02	40.23	16.26	-43.9	-46.7	17.1	0.00e+00	0	40	0	451936256	59	4959
2026-01-20 07:59:39.01	40.01	16.25	-43.7	-46.5	17.3	0.00e+00	0	40	0	454033408	59	4858
2026-01-20 07:59:40.02	39.79	16.25	-43.7	-46.5	17.3	0.00e+00	0	40	0	455081984	59	4838
2026-01-20 07:59:41.02	39.57	16.24	-43.7	-46.5	17.3	0.00e+00	0	40	0	457179136	59	4839
2026-01-20 07:59:42.02	39.35	16.23	-43.9	-46.7	17.2	0.00e+00	0	40	0	459276288	59	4965
2026-01-20 07:59:43.02	39.13	16.22	-43.9	-46.8	17.1	0.00e+00	0	40	0	461373440	59	4996
2026-01-20 07:59:44.02	38.91	16.21	-43.8	-46.6	17.2	0.00e+00	0	40	0	463470592	59	4915
2026-01-20 07:59:45.03	38.69	16.19	-43.7	-46.5	17.3	0.00e+00	0	40	0	464519168	59	4845
2026-01-20 07:59:46.03	38.47	16.18	-43.6	-46.4	17.5	0.00e+00	0	40	0	466616320	59	4773
2026-01-20 07:59:47.03	38.25	16.17	-43.5	-46.2	17.7	0.00e+00	0	40	0	468713472	59	4661
2026-01-20 07:59:48.03	38.03	16.16	-43.2	-45.7	18.0	0.00e+00	0	40	0	470810624	58	4696
2026-01-20 07:59:49.03	37.81	16.15	-42.8	-45.3	18.5	0.00e+00	0	40	0	472907776	57	4716
2026-01-20 07:59:50.03	37.59	16.13	-42.8	-45.3	18.4	0.00e+00	0	40	0	473956352	57	4722
2026-01-20 07:59:51.02	37.38	16.12	-42.8	-45.3	18.4	0.00e+00	0	40	0	476053504	57	4738
2026-01-20 07:59:52.02	37.16	16.11	-42.9	-45.4	18.3	0.00e+00	0	40	0	478150656	57	4809
2026-01-20 07:59:53.03	36.94	16.09	-43.1	-45.6	18.2	0.00e+00	0	40	0	480247808	57	4917
2026-01-20 07:59:54.03	36.72	16.08	-43.3	-45.8	18.0	0.00e+00	0	40	0	481296384	57	5039
2026-01-20 07:59:55.03	36.50	16.06	-43.2	-45.8	18.0	0.00e+00	0	40	0	483393536	57	5005
2026-01-20 07:59:56.03	36.28	16.04	-43.3	-45.9	17.9	0.00e+00	0	40	0	485490688	57	5091
2026-01-20 07:59:57.03	36.07	16.03	-43.3	-45.9	18.0	0.00e+00	0	40	0	487587840	57	5051
2026-01-20 07:59:58.03	35.85	16.01	-43.3	-45.9	17.9	0.00e+00	0	40	0	489684992	57	5084
2026-01-20 07:59:59.04	35.63	16.00	-43.3	-46.0	17.8	0.00e+00	0	40	0	490733568	57	5140
2026-01-20 08:00:00.04	35.42	15.98	-43.5	-46.2	17.7	0.00e+00	0	40	0	492830720	57	5256
2026-01-20 08:00:01.04	35.20	15.96	-43.4	-46.1	17.7	0.00e+00	0	40	0	494927872	57	5213
2026-01-20 08:00:02.04	34.98	15.94	-43.5	-46.2	17.6	0.00e+00	0	40	0	497025024	57	5247
2026-01-20 08:00:03.04	34.77	15.92	-43.6	-46.4	17.4	0.00e+00	0	40	0	499122176	58	5067
2026-01-20 08:00:04.04	34.55	15.91	-43.7	-46.4	17.5	0.00e+00	0	40	0	500170752	58	5092
2026-01-20 08:00:05.05	34.34	15.89	-43.7	-46.5	17.4	0.00e+00	0	40	0	502267904	58	5134
2026-01-20 08:00:06.04	34.12	15.87	-43.9	-46.7	17.2	0.00e+00	0	40	0	504365056	58	5239
2026-01-20 08:00:07.05	33.91	15.85	-43.7	-46.5	17.4	0.00e+00	0	40	0	506462208	58	5103
2026-01-20 08:00:08.05	33.69	15.83	-43.5	-46.2	17.6	0.00e+00	0	40	0	507510784	58	4981
2026-01-20 08:00:09.05	33.48	15.80	-43.5	-46.3	17.6	0.00e+00	0	40	0	509607936	58	4984
2026-01-20 08:00:10.05	33.26	15.78	-43.3	-45.9	17.9	0.00e+00	0	40	0	511705088	58	4814
2026-01-20 08:00:11.05	33.05	15.76	-43.2	-45.8	18.0	0.00e+00	0	40	0	513802240	58	4729
2026-01-20 08:00:12.05	32.84	15.74	-43.1	-45.7	18.1	0.00e+00	0	40	0	515899392	58	4658
2026-01-20 08:00:13.05	32.63	15.72	-43.3	-45.8	17.9	0.00e+00	0	40	0	516947968	58	4748
2026-01-20 08:00:14.05	32.41	15.70	-43.2	-45.7	18.1	0.00e+00	0	40	0	519045120	58	4699
2026-01-20 08:00:15.05	32.20	15.67	-43.2	-45.7	18.1	0.00e+00	0	40	0	521142272	58	4689
2026-01-20 08:00:16.05	31.99	15.65	-43.2	-45.8	18.0	0.00e+00	0	40	0	523239424	58	4708
2026-01-20 08:00:17.05	31.78	15.62	-43.1	-45.6	18.1	0.00e+00	0	40	0	525336576	58	4639
2026-01-20 08:00:18.05	31.57	15.60	-43.1	-45.7	18.1	0.00e+00	0	40	0	526385152	58	4689
2026-01-20 08:00:19.05	31.36	15.58	-43.2	-45.8	18.0	0.00e+00	0	40	0	528482304	58	4752
2026-01-20 08:00:20.05	31.15	15.55	-43.3	-45.9	17.9	0.00e+00	0	40	0	530579456	58	4809
2026-01-20 08:00:21.05	30.94	15.53	-43.4	-46.0	17.8	0.00e+00	0	40	0	532676608	58	4866
2026-01-20 08:00:22.05	30.73	15.50	-43.6	-46.4	17.4	0.00e+00	0	40	0	534773760	58	5064
2026-01-20 08:00:23.05	30.52	15.47	-43.8	-46.5	17.3	0.00e+00	0	40	0	535822336	58	5154
2026-01-20 08:00:24.05	30.31	15.45	-43.7	-46.5	17.3	0.00e+00	0	40	0	537919488	58	5115
2026-01-20 08:00:25.06	30.10	15.42	-43.7	-46.4	17.4	0.00e+00	0	40	0	540016640	58	5057
2026-01-20 08:00:26.06	29.89	15.39	-43.6	-46.3	17.5	0.00e+00	0	40	0	542113792	58	5020
2026-01-20 08:00:27.06	29.68	15.37	-43.8	-46.6	17.2	0.00e+00	0	40	0	543162368	58	5204
2026-01-20 08:00:28.07	29.48	15.34	-43.8	-46.6	17.2	0.00e+00	0	40	0	545259520	58	5211
2026-01-20 08:00:29.07	29.27	15.31	-44.1	-47.1	16.8	0.00e+00	0	40	0	547356672	58	5485
2026-01-20 08:00:30.07	29.06	15.28	-44.1	-47.1	16.8	0.00e+00	0	40	0	549453824	58	5483
2026-01-20 08:00:31.07	28.86	15.25	-44.2	-47.1	16.7	0.00e+00	0	40	0	551550976	59	5208
2026-01-20 08:00:32.07	28.65	15.22	-44.1	-47.1	16.8	0.00e+00	0	40	0	552599552	59	5175
2026-01-20 08:00:33.07	28.45	15.19	-44.1	-47.3	16.7	0.00e+00	0	40	0	554696704	59	5282
2026-01-20 08:00:34.07	28.24	15.16	-44.1	-47.2	16.7	0.00e+00	0	40	0	556793856	59	5243
2026-01-20 08:00:35.07	28.04	15.13	-43.9	-47.0	16.9	0.00e+00	0	40	0	558891008	59	5143
2026-01-20 08:00:36.07	27.83	15.10	-43.9	-47.0	16.9	0.00e+00	0	40	0	560988160	59	5122
2026-01-20 08:00:37.07	27.63	15.07	-43.9	-47.0	16.9	0.00e+00	0	40	0	562036736	59	5116
2026-01-20 08:00:38.08	27.42	15.04	-43.8	-46.9	17.0	0.00e+00	0	40	0	564133888	59	5048
2026-01-20 08:00:39.08	27.22	15.01	-43.8	-46.7	17.2	0.00e+00	0	40	0	566231040	59	4973
2026-01-20 08:00:40.08	27.02	14.98	-43.5	-46.4	17.4	0.00e+00	0	40	0	568328192	59	4808
2026-01-20 08:00:41.08	26.82	14.95	-43.6	-46.5	17.4	0.00e+00	0	40	0	570425344	59	4845
2026-01-20 08:00:42.08	26.62	14.91	-43.5	-46.3	17.6	0.00e+00	0	40	0	571473920	58	4997
2026-01-20 08:00:43.08	26.42	14.88	-43.7	-46.5	17.4	0.00e+00	0	40	0	573571072	58	5142
2026-01-20 08:00:44.09	26.21	14.85	-43.7	-46.5	17.4	0.00e+00	0	40	0	575668224	58	5130
2026-01-20 08:00:45.08	26.02	14.82	-43.8	-46.7	17.2	0.00e+00	0	40	0	577765376	58	5238
2026-01-20 08:00:46.08	25.82	14.78	-43.8	-46.6	17.3	0.00e+00	0	40	0	579862528	58	5179
2026-01-20 08:00:47.09	25.62	14.75	-43.7	-46.5	17.4	0.00e+00	0	40	0	580911104	58	5121
2026-01-20 08:00:48.08	25.42	14.71	-43.5	-46.2	17.7	0.00e+00	0	40	0	583008256	58	4936
2026-01-20 08:00:49.09	25.22	14.68	-43.1	-45.7	18.1	0.00e+00	0	40	0	585105408	58	4678
2026-01-20 08:00:50.08	25.02	14.64	-43.1	-45.7	18.2	0.00e+00	0	40	0	587202560	58	4685
2026-01-20 08:00:51.08	24.83	14.61	-43.1	-45.7	18.1	0.00e+00	0	40	0	588251136	58	4705
2026-01-20 08:00:52.08	24.63	14.57	-43.0	-45.6	18.2	0.00e+00	0	40	0	590348288	58	4628
2026-01-20 08:00:53.09	24.43	14.54	-42.9	-45.6	18.2	0.00e+00	0	40	0	592445440	57	4898
2026-01-20 08:00:54.09	24.24	14.50	-43.1	-45.9	18.0	0.00e+00	0	40	0	594542592	57	5053
2026-01-20 08:00:55.09	24.04	14.47	-43.1	-45.8	18.0	0.00e+00	0	40	0	596639744	57	5019
2026-01-20 08:00:56.09	23.85	14.43	-43.3	-46.2	17.7	0.00e+00	0	40	0	597688320	57	5219
2026-01-20 08:00:57.10	23.65	14.39	-43.4	-46.2	17.6	0.00e+00	0	40	0	599785472	57	5261
2026-01-20 08:00:58.10	23.46	14.36	-43.5	-46.4	17.5	0.00e+00	0	40	0	601882624	57	5376
2026-01-20 08:00:59.10	23.26	14.32	-43.8	-46.8	17.1	0.00e+00	0	40	0	603979776	58	5335
2026-01-20 08:01:00.10	23.07	14.28	-44.1	-47.2	16.7	0.00e+00	0	40	0	606076928	58	5550
2026-01-20 08:01:01.10	22.88	14.24	-44.5	-47.7	16.4	0.00e+00	0	40	0	607125504	59	5533
2026-01-20 08:01:02.10	22.69	14.20	-44.6	-47.8	16.2	0.00e+00	0	40	0	609222656	59	5613
2026-01-20 08:01:03.09	22.50	14.17	-44.7	-47.9	16.1	0.00e+00	0	40	0	611319808	60	5399
2026-01-20 08:01:04.10	22.30	14.13	-44.5	-47.6	16.4	0.00e+00	0	40	0	613416960	60	5205
2026-01-20 08:01:05.10	22.11	14.09	-44.5	-47.7	16.3	0.00e+00	0	40	0	614465536	60	5257
2026-01-20 08:01:06.10	21.92	14.05	-44.5	-47.6	16.3	0.00e+00	0	40	0	616562688	60	5214
2026-01-20 08:01:07.10	21.73	14.01	-44.3	-47.4	16.6	0.00e+00	0	40	0	618659840	60	5054
2026-01-20 08:01:08.10	21.55	13.97	-44.4	-47.5	16.4	0.00e+00	0	40	0	620756992	60	5140
2026-01-20 08:01:09.10	21.36	13.93	-44.2	-47.4	16.6	0.00e+00	0	40	0	622854144	60	5063
2026-01-20 08:01:10.11	21.17	13.89	-44.2	-47.4	16.6	0.00e+00	0	40	0	623902720	60	5058
2026-01-20 08:01:11.10	20.98	13.85	-44.3	-47.5	16.4	0.00e+00	0	40	0	625999872	60	5154
2026-01-20 08:01:12.10	20.80	13.81	-44.2	-47.6	16.4	0.00e+00	0	40	0	628097024	60	5160
2026-01-20 08:01:13.10	20.61	13.77	-44.2	-47.6	16.3	0.00e+00	0	40	0	630194176	60	5203
2026-01-20 08:01:14.10	20.42	13.73	-44.2	-47.7	16.3	0.00e+00	0	40	0	632291328	60	5239
2026-01-20 08:01:15.10	20.24	13.69	-44.2	-47.6	16.4	0.00e+00	0	40	0	633339904	60	5218
2026-01-20 08:01:16.10	20.05	13.65	-44.1	-47.5	16.4	0.00e+00	0	40	0	635437056	60	5145
2026-01-20 08:01:17.10	19.87	13.60	-44.0	-47.3	16.6	0.00e+00	0	40	0	637534208	59	5301
2026-01-20 08:01:18.11	19.69	13.56	-44.1	-47.4	16.5	0.00e+00	0	40	0	639631360	59	5397
2026-01-20 08:01:19.11	19.50	13.52	-44.0	-47.2	16.6	0.00e+00	0	40	0	641728512	59	5279
2026-01-20 08:01:20.11	19.32	13.48	-44.0	-47.2	16.7	0.00e+00	0	40	0	642777088	59	5271
2026-01-20 08:01:21.11	19.14	13.43	-44.1	-47.3	16.6	0.00e+00	0	40	0	644874240	59	5317
2026-01-20 08:01:22.11	18.96	13.39	-44.1	-47.2	16.7	0.00e+00	0	40	0	646971392	59	5240
2026-01-20 08:01:23.11	18.78	13.35	-44.1	-47.0	16.8	0.00e+00	0	40	0	649068544	59	5136
2026-01-20 08:01:24.11	18.60	13.31	-43.9	-46.7	17.2	0.00e+00	0	40	0	650117120	59	4953
2026-01-20 08:01:25.11	18.42	13.26	-44.0	-46.9	17.0	0.00e+00	0	40	0	652214272	59	5064
2026-01-20 08:01:26.11	18.24	13.22	-43.6	-46.3	17.6	0.00e+00	0	40	0	654311424	59	4717
2026-01-20 08:01:27.11	18.06	13.18	-43.5	-46.2	17.6	0.00e+00	0	40	0	656408576	59	4665
2026-01-20 08:01:28.11	17.88	13.13	-43.7	-46.4	17.4	0.00e+00	0	40	0	658505728	59	4810
2026-01-20 08:01:29.11	17.70	13.09	-43.7	-46.5	17.4	0.00e+00	0	40	0	659554304	59	4823
2026-01-20 08:01:30.11	17.53	13.04	-44.0	-46.9	17.0	0.00e+00	0	40	0	661651456	59	5048
2026-01-20 08:01:31.12	17.35	13.00	-44.2	-47.1	16.8	0.00e+00	0	40	0	663748608	59	5188
2026-01-20 08:01:32.11	17.17	12.95	-44.3	-47.4	16.5	0.00e+00	0	40	0	665845760	59	5362
2026-01-20 08:01:33.11	17.00	12.91	-44.2	-47.2	16.7	0.00e+00	0	40	0	667942912	59	5263
2026-01-20 08:01:34.12	16.82	12.86	-44.3	-47.5	16.4	0.00e+00	0	40	0	668991488	59	5451
2026-01-20 08:01:35.12	16.65	12.82	-44.2	-47.4	16.4	0.00e+00	0	40	0	671088640	59	5401
2026-01-20 08:01:36.12	16.47	12.77	-44.1	-47.4	16.4	0.00e+00	0	40	0	673185792	59	5377
2026-01-20 08:01:37.12	16.30	12.73	-44.1	-47.5	16.4	0.00e+00	0	40	0	675282944	59	5427
2026-01-20 08:01:38.12	16.13	12.68	-43.9	-47.2	16.7	0.00e+00	0	40	0	677380096	59	5235
2026-01-20 08:01:39.12	15.96	12.63	-43.8	-47.2	16.7	0.00e+00	0	40	0	678428672	59	5227
2026-01-20 08:01:40.12	15.78	12.59	-43.7	-47.0	16.9	0.00e+00	0	40	0	680525824	59	5130
2026-01-20 08:01:41.12	15.61	12.54	-44.0	-47.4	16.5	0.00e+00	0	40	0	682622976	59	5382
2026-01-20 08:01:42.12	15.44	12.50	-44.0	-47.4	16.5	0.00e+00	0	40	0	684720128	59	5399
2026-01-20 08:01:43.12	15.27	12.45	-44.2	-47.9	16.1	0.00e+00	0	40	0	686817280	59	5659
2026-01-20 08:01:44.12	15.10	12.40	-44.5	-48.5	15.5	0.00e+00	0	40	0	687865856	59	6088
2026-01-20 08:01:45.12	14.93	12.36	-44.9	-49.4	14.6	0.00e+00	0	40	0	689963008	60	6377
2026-01-20 08:01:46.12	14.77	12.31	-45.3	-50.3	13.7	4.50e-06	0	40	0	692060160	61	6664
2026-01-20 08:01:47.13	14.60	12.26	-45.6	-50.8	13.2	1.06e-05	0	40	0	694157312	61	7068
2026-01-20 08:01:48.12	14.43	12.21	-45.9	-51.3	12.7	4.88e-05	0	40	0	695205888	62	7105
2026-01-20 08:01:49.13	14.26	12.17	-45.8	-51.0	13.1	7.93e-05	0	40	0	697303040	62	6856
2026-01-20 08:01:50.13	14.10	12.12	-45.8	-50.7	13.3	2.05e-05	0	40	0	699400192	62	6606
2026-01-20 08:01:51.13	13.93	12.07	-45.7	-50.3	13.7	6.80e-06	0	40	0	701497344	62	6339
2026-01-20 08:01:52.13	13.77	12.02	-45.8	-50.4	13.6	5.30e-06	0	40	0	703594496	62	6369
2026-01-20 08:01:53.14	13.60	11.97	-45.6	-49.7	14.3	2.20e-06	0	40	0	704643072	62	5903
2026-01-20 08:01:54.14	13.44	11.93	-45.6	-49.7	14.4	0.00e+00	0	40	0	706740224	62	5895
2026-01-20 08:01:55.14	13.27	11.88	-45.5	-49.5	14.5	1.50e-06	0	40	0	708837376	62	5753
2026-01-20 08:01:56.14	13.11	11.83	-45.4	-49.3	14.7	0.00e+00	0	40	0	710934528	62	5630
2026-01-20 08:01:57.14	12.95	11.78	-45.3	-49.3	14.7	0.00e+00	0	40	0	713031680	62	5593
2026-01-20 08:01:58.14	12.79	11.73	-45.1	-48.9	15.0	0.00e+00	0	40	0	714080256	62	5402
2026-01-20 08:01:59.15	12.62	11.68	-45.0	-48.7	15.3	0.00e+00	0	40	0	716177408	61	5570
2026-01-20 08:02:00.15	12.46	11.63	-44.7	-48.2	15.8	0.00e+00	0	40	0	718274560	61	5256
2026-01-20 08:02:01.15	12.30	11.58	-44.5	-48.0	16.0	0.00e+00	0	40	0	720371712	61	5103
2026-01-20 08:02:02.15	12.14	11.53	-44.5	-47.9	16.1	0.00e+00	0	40	0	721420288	61	5070
2026-01-20 08:02:03.15	11.99	11.49	-44.6	-48.0	15.9	0.00e+00	0	40	0	723517440	60	5458
2026-01-20 08:02:04.15	11.83	11.44	-44.5	-48.0	16.0	0.00e+00	0	40	0	725614592	60	5424
2026-01-20 08:02:05.16	11.67	11.39	-44.5	-48.1	15.8	0.00e+00	0	40	0	727711744	60	5511
2026-01-20 08:02:06.15	11.51	11.34	-44.5	-48.3	15.6	0.00e+00	0	40	0	729808896	60	5645
2026-01-20 08:02:07.15	11.36	11.29	-44.5	-48.4	15.5	0.00e+00	0	40	0	730857472	60	5703
2026-01-20 08:02:08.16	11.20	11.24	-44.4	-48.5	15.4	0.00e+00	0	40	0	732954624	60	5787
2026-01-20 08:02:09.16	11.04	11.19	-44.4	-48.4	15.5	0.00e+00	0	40	0	735051776	60	5722
2026-01-20 08:02:10.16	10.89	11.14	-44.3	-48.3	15.6	0.00e+00	0	40	0	737148928	60	5625
2026-01-20 08:02:11.16	10.73	11.09	-44.2	-48.1	15.8	0.00e+00	0	40	0	739246080	60	5479
2026-01-20 08:02:12.16	10.58	11.04	-44.2	-48.1	15.9	0.00e+00	0	40	0	740294656	60	5499
2026-01-20 08:02:13.16	10.42	10.99	-44.1	-47.8	16.1	0.00e+00	0	40	0	742391808	60	5320
2026-01-20 08:02:14.17	10.27	10.93	-44.1	-47.8	16.1	0.00e+00	0	40	0	744488960	59	5630
2026-01-20 08:02:15.16	10.12	10.88	-43.9	-47.7	16.2	0.00e+00	0	40	0	746586112	59	5557
2026-01-20 08:02:16.17	9.97	10.83	-43.8	-47.7	16.2	0.00e+00	0	40	0	748683264	59	5549
2026-01-20 08:02:17.17	9.81	10.78	-43.6	-47.7	16.2	0.00e+00	0	40	0	749731840	59	5534
2026-01-20 08:02:18.17	9.66	10.73	-43.5	-47.6	16.2	0.00e+00	0	40	0	751828992	59	5522
2026-01-20 08:02:19.17	9.51	10.68	-43.5	-47.8	16.1	0.00e+00	0	40	0	753926144	59	5604
2026-01-20 08:02:20.17	9.36	10.63	-43.5	-47.8	16.1	0.00e+00	0	40	0	756023296	59	5636
2026-01-20 08:02:21.17	9.22	10.58	-43.6	-47.8	16.0	0.00e+00	0	40	0	758120448	59	5641
2026-01-20 08:02:22.16	9.07	10.53	-43.7	-47.9	15.9	0.00e+00	0	40	0	759169024	59	5721
2026-01-20 08:02:23.16	8.92	10.48	-43.9	-48.0	15.8	0.00e+00	0	40	0	761266176	59	5774
2026-01-20 08:02:24.17	8.77	10.42	-44.1	-48.3	15.6	0.00e+00	0	40	0	763363328	59	5960
2026-01-20 08:02:25.17	8.62	10.37	-44.2	-48.4	15.5	0.00e+00	0	40	0	765460480	59	6007
2026-01-20 08:02:26.16	8.48	10.32	-44.3	-48.5	15.5	0.00e+00	0	40	0	767557632	59	6062
2026-01-20 08:02:27.16	8.33	10.27	-44.3	-48.5	15.5	0.00e+00	0	40	0	768606208	59	6062
2026-01-20 08:02:28.16	8.19	10.22	-44.3	-48.3	15.6	0.00e+00	0	40	0	770703360	59	5950
2026-01-20 08:02:29.16	8.04	10.17	-44.4	-48.4	15.5	0.00e+00	0	40	0	772800512	59	6059
2026-01-20 08:02:30.16	7.90	10.11	-44.5	-48.4	15.5	0.00e+00	0	40	0	774897664	59	6043
2026-01-20 08:02:31.16	7.75	10.06	-44.5	-48.3	15.7	0.00e+00	0	40	0	775946240	59	5936
2026-01-20 08:02:32.16	7.61	10.01	-44.4	-48.0	15.9	0.00e+00	0	40	0	778043392	59	5736
2026-01-20 08:02:33.16	7.47	9.96	-44.4	-47.9	16.0	0.00e+00	0	40	0	780140544	59	5708
2026-01-20 08:02:34.16	7.33	9.91	-44.3	-47.7	16.1	0.00e+00	0	40	0	782237696	59	5544
2026-01-20 08:02:35.17	7.18	9.85	-44.4	-47.8	16.0	0.00e+00	0	40	0	784334848	59	5648
2026-01-20 08:02:36.16	7.04	9.80	-44.3	-47.7	16.2	0.00e+00	0	40	0	785383424	59	5544
2026-01-20 08:02:37.16	6.90	9.75	-44.2	-47.4	16.4	0.00e+00	0	40	0	787480576	59	5395
2026-01-20 08:02:38.16	6.76	9.70	-44.1	-47.4	16.5	0.00e+00	0	40	0	789577728	59	5348
2026-01-20 08:02:39.16	6.62	9.65	-43.9	-47.0	16.8	0.00e+00	0	40	0	791674880	59	5146
2026-01-20 08:02:40.16	6.48	9.59	-43.6	-46.7	17.1	0.00e+00	0	40	0	793772032	59	4959
2026-01-20 08:02:41.17	6.34	9.54	-43.4	-46.5	17.3	0.00e+00	0	40	0	794820608	58	5104
2026-01-20 08:02:42.17	6.20	9.49	-43.3	-46.4	17.4	0.00e+00	0	40	0	796917760	58	5087
2026-01-20 08:02:43.17	6.07	9.44	-43.2	-46.3	17.4	0.00e+00	0	40	0	799014912	58	5033
2026-01-20 08:02:44.17	5.93	9.38	-43.1	-46.3	17.5	0.00e+00	0	40	0	801112064	58	5006
2026-01-20 08:02:45.17	5.79	9.33	-43.3	-46.5	17.4	0.00e+00	0	40	0	802160640	58	5122
2026-01-20 08:02:46.17	5.66	9.28	-43.3	-46.5	17.3	0.00e+00	0	40	0	804257792	58	5134
2026-01-20 08:02:47.17	5.52	9.22	-43.5	-46.7	17.1	0.00e+00	0	40	0	806354944	58	5235
2026-01-20 08:02:48.17	5.39	9.17	-43.6	-46.8	17.0	0.00e+00	0	40	0	808452096	58	5316
2026-01-20 08:02:49.17	5.25	9.12	-43.6	-46.8	17.0	0.00e+00	0	40	0	810549248	58	5306
2026-01-20 08:02:50.18	5.12	9.07	-43.6	-46.9	16.9	0.00e+00	0	40	0	811597824	58	5349
2026-01-20 08:02:51.18	4.98	9.01	-43.7	-46.9	16.8	0.00e+00	0	40	0	813694976	58	5390
2026-01-20 08:02:52.18	4.85	8.96	-48.2	-63.5	3.8	3.90e-01	0	40	104	815792128	66	22910
2026-01-20 08:02:53.17	4.72	8.91	-49.1	-65.4	3.8	1.49e+00	0	40	104	815792128	69	24035
2026-01-20 08:02:54.17	4.59	8.85	-49.4	-65.7	3.8	1.49e+00	0	40	104	815792128	69	24704
2026-01-20 08:02:55.16	4.46	8.80	-49.6	-65.7	3.8	1.49e+00	0	40	104	815792128	70	23578
2026-01-20 08:02:56.16	4.32	8.75	-50.2	-65.8	3.8	1.49e+00	0	40	104	815792128	70	23835
2026-01-20 08:02:57.15	4.19	8.70	-50.6	-65.9	3.8	1.49e+00	0	40	104	815792128	71	22634
2026-01-20 08:02:58.15	4.06	8.64	-50.5	-65.9	3.8	1.49e+00	0	40	104	815792128	71	22702
2026-01-20 08:02:59.14	3.94	8.59	-50.6	-65.9	3.8	1.49e+00	0	40	104	815792128	71	22731
2026-01-20 08:03:00.14	3.81	8.54	-50.0	-66.0	3.8	1.49e+00	0	40	104	815792128	71	22812
2026-01-20 08:03:01.13	3.68	8.48	-50.7	-66.0	3.8	1.49e+00	0	40	104	815792128	72	21588
2026-01-20 08:03:02.13	3.55	8.43	-50.6	-66.0	3.8	1.49e+00	0	40	104	815792128	72	21584
2026-01-20 08:03:03.12	3.42	8.38	-50.6	-66.0	3.8	1.49e+00	0	40	104	815792128	72	21701
2026-01-20 08:03:04.12	3.30	8.33	-50.7	-66.0	3.8	1.49e+00	0	40	104	815792128	72	21706
2026-01-20 08:03:05.11	3.17	8.27	-50.7	-66.0	3.8	1.49e+00	0	40	104	815792128	72	21666
2026-01-20 08:03:06.11	3.05	8.22	-50.7	-66.0	3.8	1.49e+00	0	40	104	815792128	72	21662
2026-01-20 08:03:07.10	2.92	8.17	-50.5	-66.0	3.8	1.49e+00	0	40	104	815792128	72	21699
2026-01-20 08:03:08.10	2.80	8.11	-50.6	-66.0	3.8	1.49e+00	0	40	104	815792128	72	21676
2026-01-20 08:03:09.10	2.67	8.06	-50.8	-66.0	3.8	1.49e+00	0	40	104	815792128	72	21716
2026-01-20 08:03:10.09	2.55	8.01	-50.8	-66.0	3.8	1.49e+00	0	40	104	815792128	72	21688
2026-01-20 08:03:11.09	2.42	7.95	-50.8	-66.1	3.8	1.49e+00	0	40	104	815792128	72	21842
2026-01-20 08:03:12.08	2.30	7.90	-50.7	-66.0	3.8	1.49e+00	0	40	104	815792128	72	21684
2026-01-20 08:03:13.08	2.18	7.85	-50.6	-66.1	3.8	1.49e+00	0	40	104	815792128	72	21759
2026-01-20 08:03:14.07	2.06	7.79	-50.8	-66.0	3.8	1.49e+00	0	40	104	815792128	72	21706
2026-01-20 08:03:15.07	1.93	7.74	-50.7	-66.0	3.8	1.49e+00	0	40	104	815792128	72	21658
2026-01-20 08:03:16.06	1.81	7.69	-50.7	-66.0	3.8	1.49e+00	0	40	104	815792128	72	21670
2026-01-20 08:03:17.05	1.69	7.63	-50.7	-66.1	3.8	1.49e+00	0	40	104	815792128	72	21764
2026-01-20 08:03:18.05	1.57	7.58	-50.6	-66.0	3.8	1.49e+00	0	40	104	815792128	72	21614
2026-01-20 08:03:19.04	1.45	7.53	-50.7	-66.0	3.8	1.49e+00	0	40	104	815792128	72	21640
2026-01-20 08:03:20.04	1.33	7.47	-50.5	-65.9	3.8	1.49e+00	0	40	104	815792128	72	21462
2026-01-20 08:03:21.03	1.22	7.42	-50.5	-66.0	3.8	1.49e+00	0	40	104	815792128	72	21579
2026-01-20 08:03:22.03	1.10	7.37	-50.5	-65.9	3.8	1.49e+00	0	40	104	815792128	72	21489
2026-01-20 08:03:23.02	0.98	7.31	-50.5	-66.0	3.8	1.49e+00	0	40	104	815792128	72	21588
2026-01-20 08:03:24.02	0.86	7.26	-50.5	-66.0	3.8	1.49e+00	0	40	104	815792128	72	21533
2026-01-20 08:03:25.01	0.74	7.21	-50.5	-66.0	3.8	1.49e+00	0	40	104	815792128	72	21575
2026-01-20 08:03:26.01	0.63	7.15	-50.5	-65.9	3.8	1.49e+00	0	40	104	815792128	72	21505
2026-01-20 08:03:27.01	0.51	7.10	-50.5	-66.0	3.8	1.49e+00	0	40	104	815792128	72	21583
2026-01-20 08:03:28.00	0.40	7.05	-50.5	-66.0	3.8	1.49e+00	0	40	104	815792128	72	21528
2026-01-20 08:03:29.00	0.28	6.99	-50.5	-66.0	3.8	1.49e+00	0	40	104	815792128	72	21530
2026-01-20 08:03:29.99	0.17	6.94	-50.5	-66.0	3.8	1.49e+00	0	40	104	815792128	72	21555
2026-01-20 08:03:30.99	0.05	6.89	-50.5	-65.9	3.8	1.49e+00	0	40	104	815792128	72	21446
2026-01-20 08:03:31.98	359.94	6.84	-50.5	-65.9	3.8	1.49e+00	0	40	104	815792128	72	21500
2026-01-20 08:03:32.98	359.82	6.78	-50.5	-65.9	3.8	1.49e+00	0	40	104	815792128	72	21499
2026-01-20 08:03:33.97	359.71	6.73	-50.5	-66.0	3.8	1.49e+00	0	40	104	815792128	72	21595
2026-01-20 08:03:34.97	359.60	6.67	-50.5	-66.0	3.8	1.49e+00	0	40	104	815792128	72	21518
2026-01-20 08:03:35.96	359.49	6.62	-50.5	-66.0	3.8	1.49e+00	0	40	104	815792128	72	21562
2026-01-20 08:03:36.96	359.37	6.57	-50.5	-65.9	3.8	1.49e+00	0	40	104	815792128	72	21494
2026-01-20 08:03:37.96	359.26	6.51	-50.5	-65.9	3.8	1.49e+00	0	40	104	815792128	72	21461
2026-01-20 08:03:38.95	359.15	6.46	-50.5	-65.9	3.8	1.49e+00	0	40	104	815792128	72	21500
2026-01-20 08:03:39.95	359.04	6.41	-50.5	-65.9	3.8	1.49e+00	0	40	104	815792128	72	21422
2026-01-20 08:03:40.95	358.93	6.35	-50.5	-65.9	3.8	1.49e+00	0	40	104	815792128	72	21446
2026-01-20 08:03:41.94	358.82	6.30	-50.5	-65.9	3.8	1.49e+00	0	40	104	815792128	72	21424
2026-01-20 08:03:42.94	358.71	6.25	-50.5	-66.0	3.8	1.49e+00	0	40	104	815792128	72	21526
2026-01-20 08:03:43.93	358.60	6.20	-50.5	-65.9	3.8	1.49e+00	0	40	104	815792128	72	21482
2026-01-20 08:03:44.93	358.49	6.14	-50.5	-65.9	3.8	1.49e+00	0	40	104	815792128	72	21473
2026-01-20 08:03:45.92	358.38	6.09	-50.5	-65.9	3.8	1.49e+00	0	40	104	815792128	72	21448
2026-01-20 08:03:46.92	358.28	6.04	-50.5	-65.9	3.8	1.49e+00	0	40	104	815792128	72	21499
2026-01-20 08:03:47.92	358.17	5.98	-50.5	-65.9	3.8	1.49e+00	0	40	104	815792128	72	21428
2026-01-20 08:03:48.91	358.06	5.93	-50.5	-66.0	3.8	1.49e+00	0	40	104	815792128	72	21567
2026-01-20 08:03:49.91	357.95	5.88	-50.5	-66.0	3.8	1.49e+00	0	40	104	815792128	72	21569
2026-01-20 08:03:50.91	357.85	5.82	-50.5	-65.9	3.8	1.49e+00	0	40	104	815792128	72	21469
2026-01-20 08:03:51.90	357.74	5.77	-50.5	-65.9	3.8	1.49e+00	0	40	104	815792128	72	21464
2026-01-20 08:03:52.90	357.64	5.72	-50.5	-65.9	3.8	1.49e+00	0	40	104	815792128	72	21438
2026-01-20 08:03:53.90	357.53	5.66	-50.5	-66.0	3.8	1.49e+00	0	40	104	815792128	72	21512
2026-01-20 08:03:54.89	357.43	5.61	-50.5	-65.9	3.8	1.49e+00	0	40	104	815792128	72	21493
2026-01-20 08:03:55.89	357.32	5.56	-50.5	-65.9	3.8	1.49e+00	0	40	104	815792128	72	21427
2026-01-20 08:03:56.88	357.22	5.50	-50.5	-66.0	3.8	1.49e+00	0	40	104	815792128	72	21511
2026-01-20 08:03:57.88	357.12	5.45	-50.5	-65.9	3.8	1.49e+00	0	40	104	815792128	72	21442
2026-01-20 08:03:58.87	357.01	5.40	-50.5	-65.9	3.8	1.49e+00	0	40	104	815792128	72	21479
2026-01-20 08:03:59.87	356.91	5.35	-50.5	-66.0	3.8	1.49e+00	0	40	104	815792128	72	21513
2026-01-20 08:04:00.87	356.81	5.29	-50.5	-65.9	3.8	1.49e+00	0	40	104	815792128	72	21441
2026-01-20 08:04:01.87	356.71	5.24	-50.5	-65.9	3.8	1.49e+00	0	40	104	815792128	72	21416
2026-01-20 08:04:02.86	356.60	5.19	-50.5	-65.9	3.8	1.49e+00	0	40	104	815792128	72	21489
2026-01-20 08:04:03.86	356.50	5.13	-50.5	-65.9	3.8	1.49e+00	0	40	104	815792128	72	21425
2026-01-20 08:04:04.85	356.40	5.08	-50.5	-65.9	3.8	1.49e+00	0	40	104	815792128	72	21438
2026-01-20 08:04:05.85	356.30	5.03	-50.5	-65.9	3.8	1.49e+00	0	40	104	815792128	72	21469
2026-01-20 08:04:06.84	356.20	4.97	-50.5	-65.9	3.8	1.49e+00	0	40	104	815792128	72	21495

#Closed at: 2026-01-20 08:04:07
#Recorded file [815 MB]: D:/Data/31040_260120_105432.dat