passes_logs/2026/01/20/T1/T1__20260120_072557_NOAA_21_JPSS-2_rec.log

#Pass ID: 20260120_072557_NOAA 21 (JPSS-2)
#Satellite: NOAA 21 (JPSS-2)
#Configuration: NOAA 21
#almurnet v.1.7.20251203
#Start time: 2026-01-20 07:25:59

#Version: 2.0.20230620
#Station: T1
#Location: 37.570604 lon 55.790049 lat
#TLE: 1 54234U 22150A   26019.59425193  .00000067  00000+0  52811-4 0  9997
#TLE: 2 54234  98.7505 320.4385 0000607 256.3203 103.7906 14.19535690165464

#Time	Az	El	Level	Level2	SNR	BER	BlckErr	Temp	State	Recorded	gain1	gain2
2026-01-20 07:25:59.13	78.67	5.06	-50.0	-63.1	3.8	1.49e+00	0	39	0	0	72	15409
2026-01-20 07:26:00.12	78.55	5.10	-50.0	-63.0	3.8	1.49e+00	0	39	104	0	72	15249
2026-01-20 07:26:01.11	78.44	5.15	-50.0	-63.0	3.8	1.49e+00	0	39	104	0	72	15329
2026-01-20 07:26:02.11	78.32	5.19	-50.0	-63.1	3.8	1.49e+00	0	39	104	0	72	15402
2026-01-20 07:26:03.10	78.20	5.24	-50.0	-63.0	3.8	1.49e+00	0	39	104	0	72	15369
2026-01-20 07:26:04.09	78.08	5.28	-50.0	-63.1	3.8	1.49e+00	0	39	104	0	72	15408
2026-01-20 07:26:05.08	77.96	5.33	-50.0	-63.1	3.8	1.49e+00	0	39	104	0	72	15408
2026-01-20 07:26:06.08	77.84	5.37	-50.0	-63.0	3.8	1.49e+00	0	39	104	0	72	15372
2026-01-20 07:26:07.07	77.73	5.42	-50.0	-63.0	3.8	1.49e+00	0	39	104	0	72	15348
2026-01-20 07:26:08.06	77.61	5.46	-50.0	-63.0	3.8	1.49e+00	0	39	104	0	72	15369
2026-01-20 07:26:09.06	77.49	5.51	-50.0	-63.0	3.8	1.49e+00	0	39	104	0	72	15352
2026-01-20 07:26:10.05	77.37	5.55	-50.0	-63.0	3.8	1.49e+00	0	39	104	0	72	15378
2026-01-20 07:26:11.04	77.24	5.60	-50.0	-63.0	3.8	1.49e+00	0	39	104	0	72	15387
2026-01-20 07:26:12.03	77.12	5.64	-50.0	-63.0	3.8	1.49e+00	0	39	104	0	72	15331
2026-01-20 07:26:13.03	77.00	5.69	-50.0	-63.0	3.8	1.49e+00	0	39	104	0	72	15368
2026-01-20 07:26:14.02	76.88	5.73	-50.0	-63.0	3.8	1.49e+00	0	39	104	0	72	15371
2026-01-20 07:26:15.01	76.76	5.77	-50.0	-63.0	3.8	1.49e+00	0	39	104	0	72	15370
2026-01-20 07:26:16.01	76.63	5.82	-50.0	-63.0	3.8	1.49e+00	0	39	104	0	72	15366
2026-01-20 07:26:17.00	76.51	5.86	-50.0	-63.0	3.8	1.49e+00	0	39	104	0	72	15345
2026-01-20 07:26:17.99	76.39	5.91	-50.0	-63.0	3.8	1.49e+00	0	40	104	0	72	15313
2026-01-20 07:26:18.99	76.26	5.95	-50.0	-63.0	3.8	1.49e+00	0	40	104	0	72	15255
2026-01-20 07:26:19.98	76.14	6.00	-50.0	-63.0	3.8	1.49e+00	0	40	104	0	72	15250
2026-01-20 07:26:20.97	76.02	6.04	-50.0	-63.0	3.8	1.49e+00	0	40	104	0	72	15307
2026-01-20 07:26:21.97	75.89	6.08	-50.0	-63.0	3.8	1.49e+00	0	39	104	0	72	15354
2026-01-20 07:26:22.96	75.76	6.13	-50.0	-63.0	3.8	1.49e+00	0	40	104	0	72	15280
2026-01-20 07:26:23.95	75.64	6.17	-50.0	-63.0	3.8	1.49e+00	0	40	104	0	72	15257
2026-01-20 07:26:24.95	75.51	6.22	-50.0	-62.9	3.8	1.49e+00	0	40	104	0	72	15184
2026-01-20 07:26:25.94	75.39	6.26	-50.0	-63.0	3.8	1.49e+00	0	40	104	0	72	15274
2026-01-20 07:26:26.93	75.26	6.30	-50.0	-63.0	3.8	1.49e+00	0	40	104	0	72	15251
2026-01-20 07:26:27.93	75.13	6.35	-50.0	-63.0	3.8	1.49e+00	0	40	104	0	72	15268
2026-01-20 07:26:28.92	75.00	6.39	-50.0	-63.0	3.8	1.49e+00	0	40	104	0	72	15299
2026-01-20 07:26:29.91	74.88	6.43	-50.0	-63.0	3.8	1.49e+00	0	40	104	0	72	15286
2026-01-20 07:26:30.91	74.75	6.48	-50.0	-63.0	3.8	1.49e+00	0	40	104	0	72	15253
2026-01-20 07:26:31.90	74.62	6.52	-50.0	-63.0	3.8	1.49e+00	0	40	104	0	72	15276
2026-01-20 07:26:32.89	74.49	6.57	-50.0	-63.0	3.8	1.49e+00	0	40	104	0	72	15332
2026-01-20 07:26:33.89	74.36	6.61	-50.0	-63.0	3.8	1.49e+00	0	40	104	0	72	15262
2026-01-20 07:26:34.88	74.23	6.65	-50.0	-62.9	3.8	1.49e+00	0	40	104	0	72	15183
2026-01-20 07:26:35.88	74.10	6.70	-50.0	-62.9	3.8	1.49e+00	0	40	104	0	72	15216
2026-01-20 07:26:36.87	73.97	6.74	-50.0	-62.9	3.8	1.49e+00	0	40	104	0	72	15194
2026-01-20 07:26:37.86	73.84	6.78	-50.0	-62.9	3.8	1.49e+00	0	40	104	0	72	15129
2026-01-20 07:26:38.86	73.70	6.83	-50.0	-63.0	3.8	1.49e+00	0	40	104	0	72	15248
2026-01-20 07:26:39.85	73.57	6.87	-50.0	-62.9	3.8	1.49e+00	0	40	104	0	72	15184
2026-01-20 07:26:40.84	73.44	6.91	-50.0	-62.9	3.8	1.49e+00	0	40	104	0	72	15122
2026-01-20 07:26:41.84	73.31	6.95	-50.0	-63.0	3.8	1.49e+00	0	40	104	0	72	15230
2026-01-20 07:26:42.83	73.17	7.00	-50.0	-62.9	3.8	1.49e+00	0	40	104	0	72	15082
2026-01-20 07:26:43.82	73.04	7.04	-50.0	-62.9	3.8	1.49e+00	0	40	104	0	72	15058
2026-01-20 07:26:44.81	72.91	7.08	-50.0	-62.9	3.8	1.49e+00	0	40	104	0	72	15079
2026-01-20 07:26:45.81	72.77	7.12	-50.0	-62.8	3.8	1.49e+00	0	40	104	0	72	15008
2026-01-20 07:26:46.80	72.64	7.17	-50.0	-62.8	3.8	1.49e+00	0	40	104	0	71	15878
2026-01-20 07:26:47.80	72.50	7.21	-50.0	-62.8	3.8	1.49e+00	0	40	104	0	71	15830
2026-01-20 07:26:48.79	72.37	7.25	-50.0	-62.8	3.8	1.49e+00	0	40	104	0	71	15839
2026-01-20 07:26:49.78	72.23	7.29	-50.0	-62.8	3.8	1.49e+00	0	40	104	0	71	15806
2026-01-20 07:26:50.78	72.09	7.34	-50.0	-62.8	3.8	1.49e+00	0	40	104	0	71	15943
2026-01-20 07:26:51.77	71.96	7.38	-50.0	-62.9	3.8	1.49e+00	0	40	104	0	71	15992
2026-01-20 07:26:52.76	71.82	7.42	-50.0	-62.9	3.8	1.49e+00	0	40	104	0	71	16012
2026-01-20 07:26:53.76	71.68	7.46	-50.0	-62.9	3.8	1.49e+00	0	40	104	0	71	16083
2026-01-20 07:26:54.75	71.54	7.50	-50.0	-62.9	3.8	1.49e+00	0	40	104	0	71	16073
2026-01-20 07:26:55.74	71.40	7.55	-50.0	-62.9	3.8	1.49e+00	0	40	104	0	71	15958
2026-01-20 07:26:56.74	71.26	7.59	-50.0	-62.8	3.8	1.49e+00	0	40	104	0	71	15794
2026-01-20 07:26:57.73	71.13	7.63	-50.0	-62.8	3.8	1.49e+00	0	41	104	0	71	15824
2026-01-20 07:26:58.72	70.99	7.67	-50.0	-62.7	3.8	1.49e+00	0	40	104	0	71	15727
2026-01-20 07:26:59.72	70.85	7.71	-50.0	-62.7	3.8	1.49e+00	0	40	104	0	71	15690
2026-01-20 07:27:00.71	70.71	7.75	-50.0	-62.8	3.8	1.49e+00	0	40	104	0	71	15813
2026-01-20 07:27:01.70	70.57	7.79	-50.0	-62.9	3.8	1.49e+00	0	40	104	0	71	15951
2026-01-20 07:27:02.69	70.42	7.84	-50.0	-62.9	3.8	1.49e+00	0	41	104	0	71	16092
2026-01-20 07:27:03.69	70.28	7.88	-50.0	-62.9	3.8	1.49e+00	0	40	104	0	71	16036
2026-01-20 07:27:04.68	70.14	7.92	-50.0	-62.9	3.8	1.49e+00	0	41	104	0	71	16108
2026-01-20 07:27:05.68	70.00	7.96	-50.0	-62.9	3.8	1.49e+00	0	41	104	0	71	16077
2026-01-20 07:27:06.67	69.85	8.00	-50.0	-62.8	3.8	1.49e+00	0	41	104	0	71	15799
2026-01-20 07:27:07.66	69.71	8.04	-50.0	-62.5	3.8	1.49e+00	0	41	104	0	71	15381
2026-01-20 07:27:08.65	69.57	8.08	-49.9	-62.3	3.8	1.49e+00	0	40	104	0	71	14951
2026-01-20 07:27:09.65	69.42	8.12	-49.9	-62.1	3.8	1.49e+00	0	41	104	0	71	14686
2026-01-20 07:27:10.64	69.28	8.16	-49.9	-62.2	3.8	1.49e+00	0	41	104	0	71	14799
2026-01-20 07:27:11.63	69.13	8.20	-50.0	-62.4	3.8	1.49e+00	0	41	104	0	71	15160
2026-01-20 07:27:12.63	68.99	8.24	-50.0	-62.7	3.8	1.49e+00	0	41	104	0	71	15671
2026-01-20 07:27:13.62	68.84	8.28	-50.0	-62.8	3.8	1.49e+00	0	41	104	0	71	15923
2026-01-20 07:27:14.62	68.70	8.32	-50.0	-62.9	3.8	1.49e+00	0	41	104	0	71	16043
2026-01-20 07:27:15.61	68.55	8.36	-50.0	-62.9	3.8	1.49e+00	0	40	104	0	71	15991
2026-01-20 07:27:16.60	68.40	8.40	-50.0	-62.5	3.8	1.49e+00	0	41	104	0	71	15351
2026-01-20 07:27:17.60	68.25	8.44	-49.9	-61.8	3.8	1.49e+00	0	40	104	0	71	14102
2026-01-20 07:27:18.59	68.11	8.48	-49.8	-60.9	3.9	1.49e+00	0	41	104	0	71	12730
2026-01-20 07:27:19.59	67.96	8.52	-49.7	-60.1	4.1	1.48e+00	0	41	104	0	71	11636
2026-01-20 07:27:20.58	67.81	8.56	-49.8	-60.9	3.9	1.48e+00	0	41	104	0	71	12746
2026-01-20 07:27:21.57	67.66	8.60	-50.0	-62.6	3.8	1.49e+00	0	41	104	0	71	15513
2026-01-20 07:27:22.57	67.51	8.64	-49.8	-61.2	3.8	1.49e+00	0	41	104	0	71	13165
2026-01-20 07:27:23.56	67.36	8.67	-48.9	-55.6	6.2	4.54e-01	0	41	0	0	69	7781
2026-01-20 07:27:24.55	67.21	8.71	-47.2	-51.6	10.0	3.86e-02	0	41	0	0	66	5811
2026-01-20 07:27:25.55	67.06	8.75	-45.8	-49.0	12.7	4.11e-04	0	41	0	0	63	5122
2026-01-20 07:27:26.54	66.91	8.79	-44.6	-47.3	14.4	2.20e-06	0	41	0	0	61	4716
2026-01-20 07:27:27.53	66.76	8.83	-43.9	-46.4	15.3	0.00e+00	0	41	0	0	59	4768
2026-01-20 07:27:28.53	66.61	8.87	-43.8	-46.1	15.5	0.00e+00	0	41	0	0	59	4651
2026-01-20 07:27:29.52	66.46	8.90	-44.0	-46.5	15.2	0.00e+00	0	41	0	0	59	4844
2026-01-20 07:27:30.51	66.30	8.94	-44.8	-47.5	14.2	1.50e-06	0	41	0	0	60	5156
2026-01-20 07:27:31.50	66.15	8.98	-46.0	-49.4	12.4	6.48e-05	0	41	0	0	62	5666
2026-01-20 07:27:32.50	66.00	9.02	-47.3	-51.8	9.8	4.76e-03	0	41	0	0	65	6276
2026-01-20 07:27:33.49	65.84	9.05	-46.4	-50.0	11.4	3.76e-02	0	41	0	0	64	5408
2026-01-20 07:27:34.49	65.69	9.09	-44.7	-47.3	14.5	0.00e+00	0	41	0	0	59	5312
2026-01-20 07:27:35.48	65.53	9.13	-48.0	-53.2	8.6	4.47e-03	0	41	0	0	66	6964
2026-01-20 07:27:36.47	65.38	9.17	-49.4	-58.6	4.0	1.49e+00	0	41	104	0	70	10387
2026-01-20 07:27:37.47	65.22	9.20	-48.6	-55.2	6.6	4.31e-02	0	41	0	0	67	8292
2026-01-20 07:27:38.47	65.07	9.24	-49.6	-59.6	3.9	1.49e+00	0	41	104	0	70	11676
2026-01-20 07:27:39.46	64.91	9.28	-47.0	-51.2	10.4	7.81e-03	0	41	0	0	66	5531
2026-01-20 07:27:40.46	64.75	9.31	-46.3	-49.9	11.8	8.19e-04	0	41	0	0	64	5348
2026-01-20 07:27:41.45	64.60	9.35	-45.8	-49.1	12.7	1.02e-04	0	41	0	0	63	5167
2026-01-20 07:27:42.45	64.44	9.39	-45.2	-48.1	13.7	1.52e-05	0	41	0	0	62	4886
2026-01-20 07:27:43.45	64.28	9.42	-44.2	-46.7	15.0	7.00e-07	0	41	0	0	60	4691
2026-01-20 07:27:44.44	64.12	9.46	-43.5	-45.8	15.9	0.00e+00	0	41	0	0	59	4470
2026-01-20 07:27:45.43	63.96	9.49	-42.9	-45.0	16.6	0.00e+00	0	41	0	0	57	4597
2026-01-20 07:27:46.43	63.80	9.53	-42.6	-44.7	17.0	0.00e+00	0	41	0	0	57	4393
2026-01-20 07:27:47.42	63.64	9.56	-42.2	-44.2	17.4	0.00e+00	0	41	0	0	56	4436
2026-01-20 07:27:48.42	63.48	9.60	-42.0	-44.0	17.7	0.00e+00	0	41	0	0	56	4307
2026-01-20 07:27:49.41	63.32	9.63	-42.0	-44.0	17.7	0.00e+00	0	41	0	0	56	4329
2026-01-20 07:27:50.41	63.16	9.67	-42.0	-44.0	17.6	0.00e+00	0	41	0	0	56	4328
2026-01-20 07:27:51.40	63.00	9.70	-42.1	-44.1	17.6	0.00e+00	0	41	0	0	56	4355
2026-01-20 07:27:52.40	62.84	9.74	-42.1	-44.1	17.6	0.00e+00	0	41	0	0	56	4365
2026-01-20 07:27:53.39	62.68	9.77	-42.0	-44.0	17.6	0.00e+00	0	41	0	0	56	4333
2026-01-20 07:27:54.43	62.51	9.81	-42.1	-44.1	17.6	0.00e+00	0	41	0	0	56	4354
2026-01-20 07:27:55.46	62.34	9.84	-42.1	-44.1	17.5	0.00e+00	0	41	0	0	56	4391
2026-01-20 07:27:56.48	62.17	9.88	-42.3	-44.3	17.4	0.00e+00	0	41	0	0	56	4462
2026-01-20 07:27:57.48	62.01	9.91	-42.3	-44.3	17.3	0.00e+00	0	41	0	0	56	4492
2026-01-20 07:27:58.47	61.85	9.95	-42.3	-44.4	17.3	0.00e+00	0	41	0	0	56	4508
2026-01-20 07:27:59.47	61.68	9.98	-42.4	-44.5	17.3	0.00e+00	0	41	0	0	56	4546
2026-01-20 07:28:00.46	61.52	10.01	-42.3	-44.4	17.3	0.00e+00	0	41	0	0	56	4511
2026-01-20 07:28:01.46	61.35	10.04	-42.3	-44.3	17.4	0.00e+00	0	41	0	0	56	4481
2026-01-20 07:28:02.45	61.19	10.08	-42.4	-44.4	17.3	0.00e+00	0	41	0	0	56	4533
2026-01-20 07:28:03.44	61.02	10.11	-42.3	-44.3	17.4	0.00e+00	0	41	0	0	56	4483
2026-01-20 07:28:04.44	60.86	10.14	-42.3	-44.4	17.3	0.00e+00	0	41	0	0	56	4511
2026-01-20 07:28:05.43	60.69	10.17	-42.4	-44.5	17.2	0.00e+00	0	41	0	0	56	4572
2026-01-20 07:28:06.43	60.52	10.21	-42.4	-44.5	17.2	0.00e+00	0	41	0	0	56	4584
2026-01-20 07:28:07.42	60.36	10.24	-42.5	-44.5	17.2	0.00e+00	0	41	0	0	56	4595
2026-01-20 07:28:08.42	60.19	10.27	-42.5	-44.6	17.1	0.00e+00	0	41	0	0	56	4623
2026-01-20 07:28:09.42	60.02	10.30	-42.5	-44.6	17.2	0.00e+00	0	41	0	0	56	4625
2026-01-20 07:28:10.41	59.85	10.33	-42.5	-44.6	17.2	0.00e+00	0	41	0	0	56	4612
2026-01-20 07:28:11.40	59.68	10.36	-42.5	-44.5	17.3	0.00e+00	0	41	0	0	56	4571
2026-01-20 07:28:12.40	59.51	10.39	-42.5	-44.6	17.2	0.00e+00	0	41	0	0	56	4610
2026-01-20 07:28:13.39	59.35	10.42	-42.4	-44.5	17.3	0.00e+00	0	41	0	0	56	4560
2026-01-20 07:28:14.39	59.17	10.46	-42.4	-44.4	17.4	0.00e+00	0	41	0	0	56	4506
2026-01-20 07:28:15.46	58.99	10.49	-42.1	-44.1	17.5	0.00e+00	0	41	0	0	56	4387
2026-01-20 07:28:16.35	58.84	10.51	-42.2	-44.3	17.5	0.00e+00	0	41	0	0	56	4442
2026-01-20 07:28:17.49	58.64	10.55	-42.0	-44.0	17.7	0.00e+00	0	41	0	0	56	4313
2026-01-20 07:28:18.34	58.50	10.57	-42.1	-44.0	17.6	0.00e+00	0	41	0	0	56	4335
2026-01-20 07:28:19.48	58.30	10.61	-42.1	-44.1	17.5	0.00e+00	0	41	0	0	56	4376
2026-01-20 07:28:20.33	58.15	10.63	-42.2	-44.2	17.5	0.00e+00	0	41	0	0	56	4425
2026-01-20 07:28:21.47	57.96	10.67	-42.3	-44.4	17.3	0.00e+00	0	41	0	0	56	4505
2026-01-20 07:28:22.32	57.81	10.69	-42.4	-44.5	17.3	0.00e+00	0	41	0	0	56	4557
2026-01-20 07:28:23.46	57.61	10.72	-42.4	-44.5	17.2	0.00e+00	0	41	0	0	56	4558
2026-01-20 07:28:24.31	57.46	10.75	-42.5	-44.5	17.2	0.00e+00	0	41	0	0	56	4597
2026-01-20 07:28:25.45	57.26	10.78	-42.4	-44.4	17.3	0.00e+00	0	41	0	0	56	4539
2026-01-20 07:28:26.30	57.12	10.80	-42.5	-44.5	17.2	0.00e+00	0	41	0	0	56	4589
2026-01-20 07:28:27.44	56.92	10.83	-42.6	-44.6	17.1	0.00e+00	0	41	0	0	56	4650
2026-01-20 07:28:28.29	56.77	10.86	-42.5	-44.6	17.2	0.00e+00	0	41	0	0	56	4603
2026-01-20 07:28:29.43	56.57	10.89	-42.4	-44.5	17.2	0.00e+00	0	41	0	0	56	4558
2026-01-20 07:28:30.28	56.42	10.91	-42.5	-44.5	17.2	0.00e+00	0	41	0	0	56	4598
2026-01-20 07:28:31.51	56.20	10.95	-42.5	-44.5	17.2	0.00e+00	0	41	0	0	56	4598
2026-01-20 07:28:32.37	56.05	10.97	-42.5	-44.5	17.2	0.00e+00	0	41	0	0	56	4583
2026-01-20 07:28:33.58	55.83	11.00	-42.5	-44.5	17.3	0.00e+00	0	41	0	0	56	4572
2026-01-20 07:28:34.44	55.68	11.02	-42.5	-44.6	17.2	0.00e+00	0	41	0	0	56	4619
2026-01-20 07:28:35.57	55.48	11.05	-42.4	-44.4	17.4	0.00e+00	0	41	0	0	56	4539
2026-01-20 07:28:36.43	55.33	11.07	-42.4	-44.5	17.3	0.00e+00	0	41	0	0	56	4560
2026-01-20 07:28:37.56	55.13	11.10	-42.4	-44.4	17.4	0.00e+00	0	41	0	0	56	4525
2026-01-20 07:28:38.42	54.97	11.12	-42.4	-44.5	17.3	0.00e+00	0	41	0	0	56	4553
2026-01-20 07:28:39.55	54.77	11.15	-42.5	-44.5	17.3	0.00e+00	0	41	0	0	56	4581
2026-01-20 07:28:40.40	54.62	11.17	-42.5	-44.5	17.2	0.00e+00	0	41	0	0	56	4598
2026-01-20 07:28:41.54	54.41	11.20	-42.5	-44.6	17.2	0.00e+00	0	41	0	0	56	4617
2026-01-20 07:28:42.39	54.26	11.22	-42.6	-44.7	17.2	0.00e+00	0	41	0	0	56	4654
2026-01-20 07:28:43.53	54.05	11.25	-42.4	-44.5	17.3	0.00e+00	0	41	0	0	56	4546
2026-01-20 07:28:44.38	53.90	11.27	-42.3	-44.3	17.5	0.00e+00	0	41	0	0	56	4458
2026-01-20 07:28:45.52	53.70	11.30	-42.3	-44.3	17.5	0.00e+00	0	41	0	0	56	4446
2026-01-20 07:28:46.37	53.54	11.31	-42.2	-44.2	17.5	0.00e+00	0	41	0	0	56	4414
2026-01-20 07:28:47.51	53.33	11.34	-42.1	-44.1	17.6	0.00e+00	0	41	0	0	56	4383
2026-01-20 07:28:48.36	53.18	11.36	-42.2	-44.1	17.6	0.00e+00	0	41	0	0	56	4382
2026-01-20 07:28:49.50	52.97	11.39	-42.2	-44.2	17.6	0.00e+00	0	41	0	0	56	4405
2026-01-20 07:28:50.35	52.82	11.40	-42.2	-44.1	17.6	0.00e+00	0	41	0	0	56	4378
2026-01-20 07:28:51.60	52.59	11.43	-42.2	-44.2	17.5	0.00e+00	0	41	0	0	56	4420
2026-01-20 07:28:52.45	52.44	11.45	-42.3	-44.3	17.5	0.00e+00	0	41	0	0	56	4452
2026-01-20 07:28:53.65	52.22	11.48	-42.4	-44.4	17.4	0.00e+00	0	41	0	0	56	4511
2026-01-20 07:28:54.50	52.06	11.49	-42.4	-44.4	17.4	0.00e+00	0	41	0	0	56	4521
2026-01-20 07:28:55.71	51.84	11.52	-42.4	-44.4	17.4	0.00e+00	0	41	0	0	56	4531
2026-01-20 07:28:56.56	51.68	11.54	-42.4	-44.5	17.3	0.00e+00	0	41	0	0	56	4556
2026-01-20 07:28:57.69	51.47	11.56	-42.5	-44.5	17.3	0.00e+00	0	41	0	0	56	4568
2026-01-20 07:28:58.55	51.32	11.58	-42.5	-44.5	17.3	0.00e+00	0	41	0	0	56	4567
2026-01-20 07:28:59.68	51.11	11.60	-42.4	-44.5	17.3	0.00e+00	0	41	0	0	56	4554
2026-01-20 07:29:00.54	50.95	11.62	-42.5	-44.6	17.2	0.00e+00	0	41	0	0	56	4613
2026-01-20 07:29:01.67	50.74	11.64	-42.5	-44.6	17.2	0.00e+00	0	41	0	0	56	4621
2026-01-20 07:29:02.53	50.58	11.65	-42.5	-44.6	17.2	0.00e+00	0	41	0	0	56	4620
2026-01-20 07:29:03.66	50.37	11.67	-42.4	-44.4	17.4	0.00e+00	0	41	0	0	56	4507
2026-01-20 07:29:04.73	50.17	11.69	-42.3	-44.3	17.5	0.00e+00	0	41	0	0	56	4474
2026-01-20 07:29:05.76	49.98	11.71	-42.4	-44.4	17.4	0.00e+00	0	41	0	0	56	4523
2026-01-20 07:29:06.91	49.77	11.73	-42.3	-44.4	17.4	0.00e+00	0	41	0	0	56	4498
2026-01-20 07:29:07.80	49.60	11.75	-42.1	-44.0	17.7	0.00e+00	0	41	0	0	56	4339
2026-01-20 07:29:09.11	49.35	11.77	-42.0	-44.0	17.8	0.00e+00	0	41	0	0	56	4305
2026-01-20 07:29:09.82	49.22	11.78	-42.0	-44.0	17.8	0.00e+00	0	41	0	0	56	4300
2026-01-20 07:29:11.27	48.95	11.81	-41.8	-43.8	17.8	0.00e+00	0	41	0	0	55	4468
2026-01-20 07:29:11.98	48.82	11.82	-41.8	-43.7	17.8	0.00e+00	0	41	0	0	55	4438
2026-01-20 07:29:13.29	48.57	11.84	-41.9	-43.8	17.8	0.00e+00	0	41	0	0	55	4474
2026-01-20 07:29:14.00	48.44	11.85	-41.9	-43.9	17.8	0.00e+00	0	41	0	0	55	4500
2026-01-20 07:29:15.28	48.20	11.87	-41.8	-43.8	17.9	0.00e+00	0	41	0	0	55	4445
2026-01-20 07:29:15.99	48.06	11.88	-41.8	-43.7	17.9	0.00e+00	0	41	0	0	55	4430
2026-01-20 07:29:17.27	47.82	11.90	-41.8	-43.7	17.9	0.00e+00	0	41	0	0	55	4431
2026-01-20 07:29:17.99	47.69	11.91	-41.8	-43.7	17.8	0.00e+00	0	41	0	0	55	4440
2026-01-20 07:29:19.27	47.45	11.93	-41.8	-43.8	17.8	0.00e+00	0	41	0	0	55	4447
2026-01-20 07:29:20.01	47.31	11.94	-41.9	-43.8	17.8	0.00e+00	0	41	0	0	55	4477
2026-01-20 07:29:21.29	47.06	11.95	-41.8	-43.8	17.8	0.00e+00	0	41	0	0	55	4470
2026-01-20 07:29:22.00	46.93	11.96	-41.8	-43.7	17.9	0.00e+00	0	41	0	0	55	4422
2026-01-20 07:29:23.28	46.69	11.98	-41.7	-43.7	17.9	0.00e+00	0	41	0	0	55	4395
2026-01-20 07:29:24.01	46.55	11.99	-41.9	-43.8	17.8	0.00e+00	0	41	0	0	55	4464
2026-01-20 07:29:25.29	46.31	12.01	-41.7	-43.6	18.0	0.00e+00	0	41	0	0	55	4368
2026-01-20 07:29:26.01	46.17	12.01	-41.7	-43.6	18.0	0.00e+00	0	41	0	0	55	4354
2026-01-20 07:29:27.29	45.93	12.03	-41.7	-43.6	18.0	0.00e+00	0	41	0	0	55	4352
2026-01-20 07:29:28.09	45.77	12.04	-41.7	-43.7	17.9	0.00e+00	0	41	0	0	55	4395
2026-01-20 07:29:29.23	45.56	12.05	-41.7	-43.6	18.0	0.00e+00	0	41	0	0	55	4387
2026-01-20 07:29:30.29	45.36	12.06	-41.7	-43.7	17.9	0.00e+00	0	41	0	0	55	4417
2026-01-20 07:29:31.36	45.15	12.07	-41.9	-43.9	17.8	0.00e+00	0	41	0	0	55	4504
2026-01-20 07:29:32.22	44.99	12.08	-42.0	-43.9	17.7	0.00e+00	0	41	0	0	55	4542
2026-01-20 07:29:33.35	44.77	12.09	-41.9	-43.9	17.8	0.00e+00	0	41	0	0	55	4501
2026-01-20 07:29:34.21	44.61	12.10	-41.9	-43.8	17.8	0.00e+00	0	41	0	0	55	4492
2026-01-20 07:29:35.34	44.39	12.11	-41.9	-43.8	17.8	0.00e+00	0	41	0	0	55	4476
2026-01-20 07:29:36.20	44.23	12.12	-41.8	-43.8	17.8	0.00e+00	0	41	0	0	55	4457
2026-01-20 07:29:37.34	44.01	12.13	-41.7	-43.6	18.0	0.00e+00	0	41	0	0	55	4363
2026-01-20 07:29:38.20	43.84	12.14	-41.8	-43.7	17.9	0.00e+00	0	41	0	0	55	4436
2026-01-20 07:29:39.34	43.63	12.15	-41.7	-43.7	17.9	0.00e+00	0	41	0	0	55	4400
2026-01-20 07:29:40.20	43.46	12.15	-41.7	-43.6	18.0	0.00e+00	0	41	0	0	55	4390
2026-01-20 07:29:41.34	43.24	12.16	-41.7	-43.7	17.9	0.00e+00	0	41	0	0	55	4400
2026-01-20 07:29:42.19	43.08	12.17	-41.8	-43.8	17.8	0.00e+00	0	41	0	0	55	4467
2026-01-20 07:29:43.34	42.86	12.17	-41.8	-43.8	17.8	0.00e+00	0	41	0	0	55	4459
2026-01-20 07:29:44.19	42.69	12.18	-41.9	-43.8	17.8	0.00e+00	0	41	0	0	55	4476
2026-01-20 07:29:45.33	42.48	12.19	-41.8	-43.8	17.8	0.00e+00	0	41	0	0	55	4463
2026-01-20 07:29:46.19	42.31	12.19	-41.9	-43.9	17.7	0.00e+00	0	41	0	0	55	4522
2026-01-20 07:29:47.33	42.09	12.20	-41.8	-43.7	17.9	0.00e+00	0	41	0	0	55	4416
2026-01-20 07:29:48.18	41.93	12.20	-41.7	-43.7	18.0	0.00e+00	0	41	0	0	55	4407
2026-01-20 07:29:49.32	41.71	12.21	-41.7	-43.7	18.0	0.00e+00	0	41	0	0	55	4403
2026-01-20 07:29:50.17	41.54	12.21	-41.7	-43.6	18.0	0.00e+00	0	41	0	0	55	4380
2026-01-20 07:29:51.31	41.33	12.22	-41.8	-43.7	17.9	0.00e+00	0	41	0	0	55	4410
2026-01-20 07:29:52.17	41.16	12.22	-41.8	-43.7	17.9	0.00e+00	0	41	0	0	55	4426
2026-01-20 07:29:53.31	40.94	12.23	-41.8	-43.8	17.9	0.00e+00	0	41	0	0	55	4443
2026-01-20 07:29:54.17	40.77	12.23	-41.9	-43.8	17.8	0.00e+00	0	41	0	0	55	4484
2026-01-20 07:29:55.31	40.55	12.23	-41.8	-43.8	17.9	0.00e+00	0	41	0	0	55	4452
2026-01-20 07:29:56.17	40.39	12.23	-42.0	-43.9	17.7	0.00e+00	0	41	0	0	55	4522
2026-01-20 07:29:57.31	40.17	12.24	-41.7	-43.7	18.0	0.00e+00	0	41	0	0	55	4396
2026-01-20 07:29:58.16	40.01	12.24	-41.8	-43.7	17.9	0.00e+00	0	41	0	0	55	4414
2026-01-20 07:29:59.30	39.79	12.24	-41.8	-43.8	17.8	0.00e+00	0	41	0	0	55	4460
2026-01-20 07:30:00.15	39.62	12.24	-41.7	-43.7	17.9	0.00e+00	0	41	0	0	55	4410
2026-01-20 07:30:01.29	39.40	12.24	-41.9	-43.8	17.8	0.00e+00	0	41	0	0	55	4474
2026-01-20 07:30:02.14	39.24	12.24	-41.8	-43.8	17.8	0.00e+00	0	41	0	0	55	4462
2026-01-20 07:30:03.28	39.02	12.24	-41.9	-43.8	17.7	0.00e+00	0	41	0	0	55	4472
2026-01-20 07:30:04.14	38.85	12.24	-41.9	-43.8	17.8	0.00e+00	0	41	0	0	55	4481
2026-01-20 07:30:05.28	38.63	12.24	-41.9	-43.9	17.7	0.00e+00	0	41	0	0	55	4515
2026-01-20 07:30:06.14	38.47	12.24	-42.0	-44.0	17.6	0.00e+00	0	41	0	0	55	4553
2026-01-20 07:30:07.28	38.25	12.24	-42.0	-44.0	17.6	0.00e+00	0	41	0	0	55	4546
2026-01-20 07:30:08.14	38.08	12.24	-42.0	-44.0	17.6	0.00e+00	0	41	0	0	55	4555
2026-01-20 07:30:09.28	37.86	12.24	-42.0	-44.0	17.6	0.00e+00	0	41	0	0	55	4589
2026-01-20 07:30:10.14	37.69	12.24	-41.9	-43.9	17.7	0.00e+00	0	41	0	0	55	4523
2026-01-20 07:30:11.28	37.48	12.24	-41.8	-43.8	17.8	0.00e+00	0	41	0	0	55	4460
2026-01-20 07:30:12.13	37.31	12.23	-41.8	-43.8	17.8	0.00e+00	0	41	0	0	55	4466
2026-01-20 07:30:13.27	37.09	12.23	-41.7	-43.6	17.9	0.00e+00	0	41	0	0	55	4372
2026-01-20 07:30:14.13	36.93	12.23	-41.7	-43.6	17.9	0.00e+00	0	41	0	0	55	4381
2026-01-20 07:30:15.27	36.71	12.23	-41.7	-43.6	17.9	0.00e+00	0	41	0	0	55	4374
2026-01-20 07:30:16.13	36.54	12.22	-41.7	-43.6	17.9	0.00e+00	0	41	0	0	55	4380
2026-01-20 07:30:17.27	36.32	12.22	-41.7	-43.6	17.9	0.00e+00	0	41	0	0	55	4380
2026-01-20 07:30:18.12	36.16	12.21	-41.6	-43.6	17.9	0.00e+00	0	41	0	0	55	4366
2026-01-20 07:30:19.27	35.94	12.21	-41.6	-43.6	18.0	0.00e+00	0	41	0	0	55	4370
2026-01-20 07:30:20.12	35.77	12.20	-41.6	-43.6	18.0	0.00e+00	0	41	0	0	55	4355
2026-01-20 07:30:21.26	35.55	12.20	-41.7	-43.6	18.0	0.00e+00	0	41	0	0	55	4368
2026-01-20 07:30:22.12	35.39	12.19	-41.6	-43.5	18.1	0.00e+00	0	41	0	0	55	4308
2026-01-20 07:30:23.26	35.17	12.19	-41.6	-43.6	18.0	0.00e+00	0	41	0	0	55	4341
2026-01-20 07:30:24.12	35.00	12.18	-41.7	-43.6	17.9	0.00e+00	0	41	0	0	55	4374
2026-01-20 07:30:25.26	34.79	12.17	-41.7	-43.6	17.9	0.00e+00	0	41	0	0	55	4383
2026-01-20 07:30:26.12	34.62	12.17	-41.7	-43.6	17.9	0.00e+00	0	41	0	0	55	4381
2026-01-20 07:30:27.26	34.40	12.16	-41.7	-43.7	17.9	0.00e+00	0	41	0	0	55	4397
2026-01-20 07:30:28.12	34.24	12.15	-41.8	-43.8	17.8	0.00e+00	0	41	0	0	55	4470
2026-01-20 07:30:29.26	34.02	12.15	-41.8	-43.8	17.7	0.00e+00	0	41	0	0	55	4484
2026-01-20 07:30:30.11	33.86	12.14	-41.8	-43.8	17.8	0.00e+00	0	41	0	0	55	4454
2026-01-20 07:30:31.26	33.64	12.13	-41.8	-43.7	17.8	0.00e+00	0	41	0	0	55	4431
2026-01-20 07:30:32.12	33.47	12.12	-41.8	-43.7	17.9	0.00e+00	0	41	0	0	55	4429
2026-01-20 07:30:33.25	33.26	12.11	-41.7	-43.6	18.0	0.00e+00	0	41	0	0	55	4390
2026-01-20 07:30:34.11	33.09	12.10	-41.7	-43.6	18.0	0.00e+00	0	41	0	0	55	4385
2026-01-20 07:30:35.25	32.87	12.09	-41.6	-43.6	17.9	0.00e+00	0	41	0	0	55	4375
2026-01-20 07:30:36.11	32.71	12.08	-41.6	-43.6	17.9	0.00e+00	0	41	0	0	55	4390
2026-01-20 07:30:37.25	32.49	12.07	-41.7	-43.7	17.8	0.00e+00	0	41	0	0	55	4413
2026-01-20 07:30:38.10	32.33	12.06	-41.8	-43.8	17.7	0.00e+00	0	41	0	0	55	4481
2026-01-20 07:30:39.24	32.11	12.05	-41.8	-43.8	17.8	0.00e+00	0	41	0	0	55	4490
2026-01-20 07:30:40.10	31.95	12.04	-41.8	-43.9	17.8	0.00e+00	0	41	0	0	55	4496
2026-01-20 07:30:41.24	31.73	12.03	-41.8	-43.8	17.8	0.00e+00	0	41	0	0	55	4471
2026-01-20 07:30:42.10	31.57	12.02	-41.8	-43.8	17.8	0.00e+00	0	41	0	0	55	4476
2026-01-20 07:30:43.24	31.35	12.01	-41.8	-43.8	17.8	0.00e+00	0	41	0	0	55	4466
2026-01-20 07:30:44.10	31.19	12.00	-41.6	-43.6	17.9	0.00e+00	0	41	0	0	55	4362
2026-01-20 07:30:45.24	30.98	11.98	-41.6	-43.6	18.0	0.00e+00	0	41	0	0	55	4357
2026-01-20 07:30:46.09	30.81	11.97	-41.6	-43.5	18.0	0.00e+00	0	41	0	0	55	4336
2026-01-20 07:30:47.23	30.60	11.95	-41.6	-43.6	18.0	0.00e+00	0	41	0	0	55	4342
2026-01-20 07:30:48.09	30.44	11.94	-41.7	-43.7	17.9	0.00e+00	0	41	0	0	55	4411
2026-01-20 07:30:49.23	30.22	11.93	-41.8	-43.8	17.8	0.00e+00	0	41	0	0	55	4442
2026-01-20 07:30:50.08	30.06	11.92	-41.9	-43.8	17.8	0.00e+00	0	41	0	0	55	4493
2026-01-20 07:30:51.23	29.84	11.90	-41.9	-43.9	17.7	0.00e+00	0	41	0	0	55	4529
2026-01-20 07:30:52.08	29.68	11.89	-41.9	-44.0	17.6	0.00e+00	0	41	0	0	55	4564
2026-01-20 07:30:53.22	29.47	11.87	-41.9	-44.0	17.6	0.00e+00	0	41	0	0	55	4564
2026-01-20 07:30:54.07	29.31	11.86	-41.9	-44.0	17.5	0.00e+00	0	41	0	0	55	4576
2026-01-20 07:30:55.21	29.10	11.84	-41.9	-44.0	17.6	0.00e+00	0	41	0	0	55	4568
2026-01-20 07:30:56.07	28.94	11.83	-42.0	-44.1	17.5	0.00e+00	0	41	0	0	55	4633
2026-01-20 07:30:57.21	28.72	11.81	-42.0	-44.1	17.5	0.00e+00	0	41	0	0	55	4613
2026-01-20 07:30:58.07	28.56	11.79	-41.9	-44.0	17.6	0.00e+00	0	41	0	0	55	4570
2026-01-20 07:30:59.21	28.35	11.77	-42.1	-44.2	17.4	0.00e+00	0	41	0	0	55	4670
2026-01-20 07:31:00.07	28.19	11.76	-42.0	-44.0	17.5	0.00e+00	0	41	0	0	55	4586
2026-01-20 07:31:01.20	27.98	11.74	-42.0	-44.0	17.6	0.00e+00	0	41	0	0	55	4576
2026-01-20 07:31:02.06	27.82	11.73	-42.0	-44.0	17.5	0.00e+00	0	41	0	0	55	4590
2026-01-20 07:31:03.20	27.61	11.70	-42.0	-44.0	17.6	0.00e+00	0	41	0	0	55	4590
2026-01-20 07:31:04.06	27.45	11.69	-41.9	-43.9	17.6	0.00e+00	0	41	0	0	55	4534
2026-01-20 07:31:05.20	27.24	11.67	-42.0	-44.0	17.6	0.00e+00	0	41	0	0	55	4586
2026-01-20 07:31:06.05	27.08	11.65	-41.9	-44.0	17.6	0.00e+00	0	41	0	0	55	4548
2026-01-20 07:31:07.19	26.87	11.63	-41.9	-43.9	17.6	0.00e+00	0	41	0	0	55	4537
2026-01-20 07:31:08.05	26.71	11.61	-41.8	-43.8	17.7	0.00e+00	0	41	0	0	55	4487
2026-01-20 07:31:09.19	26.50	11.59	-41.8	-43.9	17.7	0.00e+00	0	41	0	0	55	4497
2026-01-20 07:31:10.04	26.34	11.58	-41.9	-44.0	17.6	0.00e+00	0	41	0	0	55	4552
2026-01-20 07:31:11.18	26.13	11.55	-42.0	-44.1	17.4	0.00e+00	0	41	0	0	55	4640
2026-01-20 07:31:12.04	25.97	11.54	-41.9	-44.0	17.6	0.00e+00	0	41	0	0	55	4589
2026-01-20 07:31:13.19	25.76	11.51	-41.9	-44.1	17.4	0.00e+00	0	41	0	0	55	4635
2026-01-20 07:31:14.04	25.61	11.49	-41.9	-44.0	17.5	0.00e+00	0	41	0	0	55	4578
2026-01-20 07:31:15.18	25.40	11.47	-41.9	-44.0	17.5	0.00e+00	0	41	0	0	55	4597
2026-01-20 07:31:16.04	25.24	11.45	-41.9	-44.0	17.5	0.00e+00	0	41	0	0	55	4576
2026-01-20 07:31:17.17	25.04	11.43	-41.9	-44.0	17.5	0.00e+00	0	41	0	0	55	4590
2026-01-20 07:31:18.03	24.88	11.41	-42.0	-44.1	17.5	0.00e+00	0	41	0	0	55	4619
2026-01-20 07:31:19.17	24.67	11.38	-41.8	-43.8	17.7	0.00e+00	0	41	0	0	55	4487
2026-01-20 07:31:20.03	24.52	11.36	-41.8	-43.8	17.7	0.00e+00	0	41	0	0	55	4473
2026-01-20 07:31:21.17	24.31	11.34	-41.8	-43.8	17.7	0.00e+00	0	41	0	0	55	4487
2026-01-20 07:31:22.03	24.15	11.32	-41.9	-43.9	17.7	0.00e+00	0	41	0	0	55	4506
2026-01-20 07:31:23.17	23.95	11.29	-41.8	-43.8	17.8	0.00e+00	0	41	0	0	55	4466
2026-01-20 07:31:24.03	23.79	11.27	-41.7	-43.7	17.9	0.00e+00	0	41	0	0	55	4414
2026-01-20 07:31:25.16	23.59	11.25	-41.8	-43.8	17.8	0.00e+00	0	41	0	0	55	4452
2026-01-20 07:31:26.02	23.44	11.23	-41.8	-43.8	17.7	0.00e+00	0	41	0	0	55	4466
2026-01-20 07:31:27.16	23.23	11.20	-41.8	-43.8	17.7	0.00e+00	0	41	0	0	55	4487
2026-01-20 07:31:28.02	23.08	11.18	-41.9	-44.0	17.6	0.00e+00	0	41	0	0	55	4555
2026-01-20 07:31:29.16	22.87	11.15	-42.0	-44.1	17.5	0.00e+00	0	41	0	0	55	4602
2026-01-20 07:31:30.02	22.72	11.13	-41.9	-44.0	17.6	0.00e+00	0	41	0	0	55	4558
2026-01-20 07:31:31.16	22.52	11.10	-41.9	-44.0	17.6	0.00e+00	0	41	0	0	55	4555
2026-01-20 07:31:32.01	22.37	11.08	-41.8	-43.9	17.7	0.00e+00	0	41	0	0	55	4502
2026-01-20 07:31:33.16	22.16	11.05	-41.6	-43.7	17.9	0.00e+00	0	41	0	0	55	4421
2026-01-20 07:31:34.01	22.01	11.03	-41.6	-43.7	17.8	0.00e+00	0	41	0	0	55	4421
2026-01-20 07:31:35.16	21.81	11.00	-41.7	-43.9	17.7	0.00e+00	0	41	0	0	55	4501
2026-01-20 07:31:36.01	21.66	10.97	-41.7	-43.9	17.7	0.00e+00	0	41	0	0	55	4502
2026-01-20 07:31:37.16	21.45	10.94	-41.7	-43.9	17.7	0.00e+00	0	41	0	0	55	4500
2026-01-20 07:31:38.01	21.30	10.92	-41.6	-43.9	17.7	0.00e+00	0	41	0	0	55	4498
2026-01-20 07:31:39.16	21.10	10.89	-41.6	-43.8	17.8	0.00e+00	0	41	0	0	55	4464
2026-01-20 07:31:40.01	20.95	10.87	-41.7	-43.9	17.6	0.00e+00	0	41	0	0	55	4525
2026-01-20 07:31:41.16	20.75	10.83	-41.5	-43.7	17.8	0.00e+00	0	41	0	0	55	4422
2026-01-20 07:31:42.02	20.60	10.81	-41.5	-43.7	17.8	0.00e+00	0	41	0	0	54	4696
2026-01-20 07:31:43.16	20.40	10.78	-41.4	-43.6	17.9	0.00e+00	0	41	0	0	54	4650
2026-01-20 07:31:44.01	20.26	10.76	-41.5	-43.7	17.8	0.00e+00	0	41	0	0	54	4704
2026-01-20 07:31:45.15	20.06	10.72	-41.6	-43.7	17.8	0.00e+00	0	41	0	0	54	4693
2026-01-20 07:31:46.01	19.91	10.70	-41.5	-43.7	17.9	0.00e+00	0	41	0	0	54	4652
2026-01-20 07:31:47.14	19.71	10.67	-41.6	-43.7	17.9	0.00e+00	0	41	0	0	54	4658
2026-01-20 07:31:48.00	19.57	10.64	-41.7	-43.8	17.8	0.00e+00	0	41	0	0	54	4745
2026-01-20 07:31:49.14	19.37	10.61	-41.8	-43.9	17.7	0.00e+00	0	41	0	0	54	4767
2026-01-20 07:31:49.99	19.22	10.58	-41.8	-43.9	17.7	0.00e+00	0	41	0	0	54	4787
2026-01-20 07:31:51.13	19.03	10.55	-41.9	-44.0	17.6	0.00e+00	0	41	0	0	54	4848
2026-01-20 07:31:51.99	18.88	10.52	-42.0	-44.1	17.5	0.00e+00	0	41	0	0	54	4873
2026-01-20 07:31:53.12	18.69	10.49	-42.0	-44.1	17.5	0.00e+00	0	41	0	0	54	4884
2026-01-20 07:31:53.98	18.54	10.46	-42.0	-44.1	17.5	0.00e+00	0	41	0	0	54	4893
2026-01-20 07:31:55.12	18.35	10.43	-42.0	-44.1	17.5	0.00e+00	0	41	0	0	54	4924
2026-01-20 07:31:55.98	18.20	10.40	-42.0	-44.1	17.5	0.00e+00	0	41	0	0	54	4919
2026-01-20 07:31:57.12	18.01	10.37	-42.1	-44.1	17.5	0.00e+00	0	41	0	0	54	4923
2026-01-20 07:31:57.98	17.86	10.34	-42.1	-44.2	17.4	0.00e+00	0	41	0	0	54	4944
2026-01-20 07:31:59.12	17.67	10.30	-42.0	-44.1	17.5	0.00e+00	0	41	0	0	54	4897
2026-01-20 07:31:59.98	17.53	10.28	-42.0	-44.1	17.4	0.00e+00	0	41	0	0	54	4924
2026-01-20 07:32:01.12	17.33	10.24	-42.1	-44.2	17.3	0.00e+00	0	41	0	0	54	4982
2026-01-20 07:32:01.97	17.19	10.21	-42.2	-44.4	17.3	0.00e+00	0	41	0	0	54	5051
2026-01-20 07:32:03.11	17.00	10.18	-42.2	-44.4	17.1	0.00e+00	0	41	0	0	55	4806
2026-01-20 07:32:03.97	16.86	10.15	-42.2	-44.5	17.1	0.00e+00	0	41	0	0	55	4856
2026-01-20 07:32:05.11	16.67	10.11	-42.2	-44.6	17.0	0.00e+00	0	41	0	0	55	4897
2026-01-20 07:32:05.97	16.53	10.08	-42.2	-44.6	17.0	0.00e+00	0	41	0	0	55	4877
2026-01-20 07:32:07.11	16.34	10.05	-42.1	-44.5	17.1	0.00e+00	0	41	0	0	55	4817
2026-01-20 07:32:07.97	16.19	10.02	-42.1	-44.4	17.1	0.00e+00	0	41	0	0	55	4787
2026-01-20 07:32:09.11	16.01	9.98	-42.0	-44.3	17.2	0.00e+00	0	41	0	0	55	4745
2026-01-20 07:32:09.97	15.87	9.95	-42.0	-44.3	17.2	0.00e+00	0	41	0	0	55	4754
2026-01-20 07:32:11.11	15.68	9.91	-41.8	-44.1	17.4	0.00e+00	0	41	0	0	55	4606
2026-01-20 07:32:11.97	15.54	9.88	-41.8	-44.0	17.5	0.00e+00	0	41	0	0	55	4576
2026-01-20 07:32:13.11	15.35	9.85	-41.8	-44.0	17.5	0.00e+00	0	41	0	0	55	4571
2026-01-20 07:32:13.96	15.21	9.82	-41.8	-44.0	17.5	0.00e+00	0	41	0	0	55	4582
2026-01-20 07:32:15.10	15.03	9.78	-41.9	-44.1	17.5	0.00e+00	0	41	0	0	55	4602
2026-01-20 07:32:15.96	14.89	9.75	-41.9	-44.0	17.5	0.00e+00	0	41	0	0	55	4597
2026-01-20 07:32:17.10	14.70	9.71	-42.0	-44.2	17.3	0.00e+00	0	41	0	0	55	4677
2026-01-20 07:32:17.96	14.57	9.68	-42.0	-44.2	17.3	0.00e+00	0	41	0	0	55	4689
2026-01-20 07:32:19.10	14.38	9.64	-42.1	-44.3	17.2	0.00e+00	0	41	0	0	55	4720
2026-01-20 07:32:19.96	14.24	9.61	-42.2	-44.4	17.1	0.00e+00	0	41	0	0	55	4762
2026-01-20 07:32:21.11	14.06	9.57	-42.2	-44.4	17.1	0.00e+00	0	41	0	0	55	4790
2026-01-20 07:32:21.96	13.92	9.54	-42.3	-44.4	17.1	0.00e+00	0	41	0	0	55	4796
2026-01-20 07:32:23.10	13.74	9.50	-42.1	-44.3	17.2	0.00e+00	0	41	0	0	55	4731
2026-01-20 07:32:23.96	13.61	9.47	-42.2	-44.4	17.1	0.00e+00	0	41	0	0	55	4765
2026-01-20 07:32:25.10	13.42	9.43	-42.2	-44.4	17.1	0.00e+00	0	41	0	0	55	4784
2026-01-20 07:32:25.96	13.29	9.39	-42.1	-44.3	17.2	0.00e+00	0	41	0	0	55	4729
2026-01-20 07:32:27.09	13.11	9.35	-42.2	-44.5	17.0	0.00e+00	0	41	0	0	55	4818
2026-01-20 07:32:27.95	12.97	9.32	-42.1	-44.4	17.1	0.00e+00	0	41	0	0	55	4768
2026-01-20 07:32:29.09	12.80	9.28	-42.0	-44.2	17.3	0.00e+00	0	41	0	0	55	4704
2026-01-20 07:32:29.95	12.66	9.25	-42.0	-44.3	17.3	0.00e+00	0	41	0	0	55	4706
2026-01-20 07:32:31.08	12.48	9.21	-42.1	-44.3	17.2	0.00e+00	0	41	0	0	55	4732
2026-01-20 07:32:31.94	12.35	9.18	-42.1	-44.4	17.2	0.00e+00	0	41	0	0	55	4773
2026-01-20 07:32:33.08	12.17	9.13	-42.2	-44.5	17.0	0.00e+00	0	41	0	0	55	4818
2026-01-20 07:32:33.94	12.04	9.10	-42.3	-44.6	16.9	0.00e+00	0	41	0	0	55	4891
2026-01-20 07:32:35.08	11.86	9.06	-42.2	-44.5	16.9	0.00e+00	0	41	0	0	55	4853
2026-01-20 07:32:35.93	11.73	9.03	-42.1	-44.5	17.0	0.00e+00	0	41	0	0	55	4819
2026-01-20 07:32:37.07	11.56	8.98	-49.0	-59.2	4.4	2.04e-02	0	41	0	0	68	12497
2026-01-20 07:32:37.93	11.43	8.95	-49.3	-63.3	3.8	1.49e+00	0	41	104	0	70	17871
2026-01-20 07:32:39.07	11.25	8.91	-49.6	-63.5	3.8	1.49e+00	0	41	104	0	69	19175
2026-01-20 07:32:39.93	11.12	8.87	-50.3	-63.5	3.8	1.49e+00	0	41	104	0	71	17263
2026-01-20 07:32:41.07	10.95	8.83	-50.0	-63.6	3.8	1.49e+00	0	41	104	0	71	17447
2026-01-20 07:32:41.92	10.82	8.80	-50.2	-63.6	3.8	1.49e+00	0	41	104	0	71	17434
2026-01-20 07:32:43.06	10.65	8.75	-50.3	-63.7	3.8	1.49e+00	0	41	104	0	71	17586
2026-01-20 07:32:43.92	10.52	8.72	-50.5	-63.7	3.8	1.49e+00	0	41	104	0	71	17681
2026-01-20 07:32:45.06	10.34	8.68	-50.4	-63.8	3.8	1.49e+00	0	41	104	0	71	17734
2026-01-20 07:32:45.91	10.22	8.64	-50.4	-63.8	3.8	1.49e+00	0	41	104	0	71	17825
2026-01-20 07:32:47.05	10.05	8.60	-50.6	-63.8	3.8	1.49e+00	0	41	104	0	72	16831
2026-01-20 07:32:47.91	9.92	8.57	-50.7	-63.8	3.8	1.49e+00	0	41	104	0	72	16815
2026-01-20 07:32:49.05	9.75	8.52	-50.7	-63.9	3.8	1.49e+00	0	41	104	0	72	16890
2026-01-20 07:32:49.90	9.62	8.49	-50.5	-63.9	3.8	1.49e+00	0	41	104	0	72	16914
2026-01-20 07:32:51.04	9.45	8.44	-50.6	-63.9	3.8	1.49e+00	0	41	104	0	72	16962
2026-01-20 07:32:51.90	9.33	8.41	-50.8	-63.9	3.8	1.49e+00	0	41	104	0	72	16955
2026-01-20 07:32:53.04	9.16	8.36	-50.8	-63.9	3.8	1.49e+00	0	41	104	0	72	16925
2026-01-20 07:32:53.89	9.03	8.33	-50.5	-63.8	3.8	1.49e+00	0	41	104	0	72	16859
2026-01-20 07:32:55.03	8.87	8.28	-50.7	-63.8	3.8	1.49e+00	0	41	104	0	72	16874
2026-01-20 07:32:55.89	8.74	8.25	-50.7	-63.8	3.8	1.49e+00	0	41	104	0	72	16850
2026-01-20 07:32:57.03	8.58	8.20	-50.8	-63.9	3.8	1.49e+00	0	41	104	0	72	16893
2026-01-20 07:32:57.88	8.45	8.17	-50.7	-63.8	3.8	1.49e+00	0	41	104	0	72	16833
2026-01-20 07:32:59.02	8.29	8.12	-50.7	-63.8	3.8	1.49e+00	0	41	104	0	72	16741
2026-01-20 07:32:59.88	8.16	8.09	-50.7	-63.8	3.8	1.49e+00	0	41	104	0	72	16772
2026-01-20 07:33:01.02	8.00	8.04	-50.7	-63.8	3.8	1.49e+00	0	41	104	0	72	16790
2026-01-20 07:33:01.87	7.88	8.01	-50.7	-63.8	3.8	1.49e+00	0	41	104	0	72	16834
2026-01-20 07:33:03.01	7.71	7.96	-50.5	-63.8	3.8	1.49e+00	0	41	104	0	72	16705
2026-01-20 07:33:03.86	7.59	7.93	-50.5	-63.8	3.8	1.49e+00	0	41	104	0	72	16779
2026-01-20 07:33:05.00	7.43	7.88	-50.5	-63.8	3.8	1.49e+00	0	41	104	0	72	16724
2026-01-20 07:33:05.86	7.31	7.84	-50.5	-63.8	3.8	1.49e+00	0	41	104	0	72	16743
2026-01-20 07:33:06.99	7.15	7.80	-50.5	-63.8	3.8	1.49e+00	0	41	104	0	72	16742
2026-01-20 07:33:07.85	7.03	7.76	-50.5	-63.8	3.8	1.49e+00	0	41	104	0	72	16706
2026-01-20 07:33:08.99	6.87	7.71	-50.5	-63.7	3.8	1.49e+00	0	41	104	0	72	16683
2026-01-20 07:33:09.85	6.75	7.68	-50.5	-63.8	3.8	1.49e+00	0	41	104	0	72	16696
2026-01-20 07:33:10.99	6.59	7.63	-50.5	-63.8	3.8	1.49e+00	0	41	104	0	72	16698
2026-01-20 07:33:11.84	6.47	7.59	-50.5	-63.8	3.8	1.49e+00	0	41	104	0	72	16740
2026-01-20 07:33:12.98	6.31	7.55	-50.5	-63.8	3.8	1.49e+00	0	41	104	0	72	16738
2026-01-20 07:33:13.84	6.19	7.51	-50.5	-63.7	3.8	1.49e+00	0	41	104	0	72	16684
2026-01-20 07:33:14.98	6.03	7.46	-50.5	-63.7	3.8	1.49e+00	0	41	104	0	72	16642
2026-01-20 07:33:15.84	5.91	7.43	-50.5	-63.7	3.8	1.49e+00	0	41	104	0	72	16663
2026-01-20 07:33:16.97	5.76	7.38	-50.5	-63.8	3.8	1.49e+00	0	41	104	0	72	16698
2026-01-20 07:33:17.83	5.64	7.34	-50.5	-63.7	3.8	1.49e+00	0	41	104	0	72	16663
2026-01-20 07:33:18.98	5.48	7.29	-50.5	-63.8	3.8	1.49e+00	0	41	104	0	72	16707
2026-01-20 07:33:19.83	5.37	7.26	-50.5	-63.7	3.8	1.49e+00	0	41	104	0	72	16677
2026-01-20 07:33:20.97	5.21	7.21	-50.5	-63.7	3.8	1.49e+00	0	41	104	0	72	16613
2026-01-20 07:33:21.82	5.10	7.17	-50.5	-63.8	3.8	1.49e+00	0	41	104	0	72	16731
2026-01-20 07:33:22.96	4.94	7.12	-50.5	-63.7	3.8	1.49e+00	0	41	104	0	72	16642
2026-01-20 07:33:23.81	4.83	7.09	-50.5	-63.7	3.8	1.49e+00	0	41	104	0	72	16671
2026-01-20 07:33:24.95	4.68	7.04	-50.5	-63.7	3.8	1.49e+00	0	41	104	0	72	16665
2026-01-20 07:33:25.81	4.56	7.00	-50.5	-63.7	3.8	1.49e+00	0	41	104	0	72	16644
2026-01-20 07:33:26.95	4.41	6.95	-50.5	-63.8	3.8	1.49e+00	0	41	104	0	72	16700
2026-01-20 07:33:27.79	4.30	6.92	-50.5	-63.8	3.8	1.49e+00	0	41	104	0	72	16712
2026-01-20 07:33:28.94	4.15	6.87	-50.5	-63.7	3.8	1.49e+00	0	41	104	0	72	16643
2026-01-20 07:33:29.80	4.03	6.83	-50.5	-63.7	3.8	1.49e+00	0	41	104	0	72	16599
2026-01-20 07:33:30.94	3.88	6.78	-50.5	-63.7	3.8	1.49e+00	0	41	104	0	72	16673
2026-01-20 07:33:31.79	3.77	6.74	-50.5	-63.7	3.8	1.49e+00	0	41	104	0	72	16643
2026-01-20 07:33:32.94	3.62	6.69	-50.5	-63.7	3.8	1.49e+00	0	41	104	0	72	16593
2026-01-20 07:33:33.79	3.51	6.66	-50.5	-63.7	3.8	1.49e+00	0	41	104	0	72	16694
2026-01-20 07:33:34.93	3.36	6.61	-50.5	-63.7	3.8	1.49e+00	0	41	104	0	72	16580
2026-01-20 07:33:35.79	3.25	6.57	-50.5	-63.8	3.8	1.49e+00	0	41	104	0	72	16739
2026-01-20 07:33:36.93	3.10	6.52	-50.5	-63.7	3.8	1.49e+00	0	41	104	0	72	16655
2026-01-20 07:33:37.79	2.99	6.48	-50.5	-63.7	3.8	1.49e+00	0	41	104	0	72	16596
2026-01-20 07:33:38.93	2.84	6.43	-50.5	-63.7	3.8	1.49e+00	0	41	104	0	72	16679
2026-01-20 07:33:39.78	2.74	6.40	-50.5	-63.7	3.8	1.49e+00	0	41	104	0	72	16649
2026-01-20 07:33:40.93	2.59	6.34	-50.5	-63.7	3.8	1.49e+00	0	41	104	0	72	16587
2026-01-20 07:33:41.78	2.48	6.31	-50.5	-63.7	3.8	1.49e+00	0	41	104	0	72	16662
2026-01-20 07:33:42.92	2.34	6.26	-50.5	-63.7	3.8	1.49e+00	0	41	104	0	72	16675
2026-01-20 07:33:43.78	2.23	6.22	-50.5	-63.7	3.8	1.49e+00	0	41	104	0	72	16629
2026-01-20 07:33:44.92	2.08	6.17	-50.5	-63.7	3.8	1.49e+00	0	41	104	0	72	16638
2026-01-20 07:33:45.77	1.98	6.13	-50.5	-63.7	3.8	1.49e+00	0	41	104	0	72	16633
2026-01-20 07:33:46.91	1.83	6.08	-50.5	-63.7	3.8	1.49e+00	0	41	104	0	72	16633
2026-01-20 07:33:47.77	1.73	6.04	-50.4	-63.7	3.8	1.49e+00	0	41	104	0	72	16616
2026-01-20 07:33:48.91	1.58	5.99	-50.5	-63.7	3.8	1.49e+00	0	41	104	0	72	16621
2026-01-20 07:33:49.77	1.48	5.95	-50.5	-63.7	3.8	1.49e+00	0	41	104	0	72	16618
2026-01-20 07:33:50.91	1.34	5.90	-50.5	-63.7	3.8	1.49e+00	0	41	104	0	72	16578
2026-01-20 07:33:51.76	1.23	5.87	-50.5	-63.7	3.8	1.49e+00	0	41	104	0	72	16589
2026-01-20 07:33:52.90	1.09	5.81	-50.5	-63.7	3.8	1.49e+00	0	41	104	0	72	16585
2026-01-20 07:33:53.76	0.99	5.78	-50.5	-63.7	3.8	1.49e+00	0	41	104	0	72	16646
2026-01-20 07:33:54.90	0.85	5.73	-50.5	-63.7	3.8	1.49e+00	0	41	104	0	72	16607
2026-01-20 07:33:55.75	0.74	5.69	-50.5	-63.7	3.8	1.49e+00	0	41	104	0	72	16680
2026-01-20 07:33:56.89	0.60	5.64	-50.5	-63.7	3.8	1.49e+00	0	41	104	0	72	16641
2026-01-20 07:33:57.75	0.50	5.60	-50.5	-63.8	3.8	1.49e+00	0	41	104	0	72	16712
2026-01-20 07:33:58.89	0.36	5.55	-50.5	-63.7	3.8	1.49e+00	0	41	104	0	72	16663
2026-01-20 07:33:59.75	0.26	5.51	-50.5	-63.7	3.8	1.49e+00	0	41	104	0	72	16573
2026-01-20 07:34:00.89	0.12	5.46	-50.5	-63.7	3.8	1.49e+00	0	41	104	0	72	16576
2026-01-20 07:34:01.74	0.02	5.42	-50.5	-63.7	3.8	1.49e+00	0	41	104	0	72	16633
2026-01-20 07:34:02.88	359.88	5.37	-50.5	-63.8	3.8	1.49e+00	0	41	104	0	72	16699
2026-01-20 07:34:03.74	359.78	5.33	-50.5	-63.7	3.8	1.49e+00	0	41	104	0	72	16681
2026-01-20 07:34:04.88	359.65	5.28	-50.5	-63.7	3.8	1.49e+00	0	41	104	0	72	16626
2026-01-20 07:34:05.74	359.55	5.24	-50.5	-63.7	3.8	1.49e+00	0	41	104	0	72	16589
2026-01-20 07:34:06.87	359.41	5.19	-50.5	-63.7	3.8	1.49e+00	0	41	104	0	72	16616
2026-01-20 07:34:07.73	359.31	5.15	-50.5	-63.7	3.8	1.49e+00	0	41	104	0	72	16595
2026-01-20 07:34:08.87	359.18	5.10	-50.5	-63.7	3.8	1.49e+00	0	41	104	0	72	16545
2026-01-20 07:34:09.73	359.08	5.06	-50.5	-63.7	3.8	1.49e+00	0	41	104	0	72	16623
2026-01-20 07:34:10.86	358.95	5.01	-50.5	-63.7	3.8	1.49e+00	0	41	104	0	72	16657
2026-01-20 07:34:11.72	358.85	4.97	-50.5	-63.7	3.8	1.49e+00	0	41	104	0	72	16595

#Closed at: 2026-01-20 07:34:12
#Recorded file [0 MB]: D:/Data/31040_260120_102559.dat