passes_logs/2026/01/20/T1/T1__20260120_135426_FENGYUN_3E_rec.log

#Pass ID: 20260120_135426_FENGYUN 3E
#Satellite: FENGYUN 3E
#Configuration: FENGYUN 3E
#almurnet v.1.7.20251203
#Start time: 2026-01-20 13:54:28

#Version: 2.0.20230620
#Station: T1
#Location: 37.570604 lon 55.790049 lat
#TLE: 1 49008U 21062A   26020.00892250 -.00000287  00000+0 -11478-3 0  9990
#TLE: 2 49008  98.7482  25.0782 0002252 128.5071 231.6308 14.19884466235554

#Time	Az	El	Level	Level2	SNR	BER	BlckErr	Temp	State	Recorded	gain1	gain2
2026-01-20 13:54:28.64	150.78	5.13	-50.2	-60.1	3.8	8.46e-01	0	38	0	0	70	11527
2026-01-20 13:54:29.63	150.77	5.20	-50.1	-60.2	3.8	8.47e-01	0	39	104	0	71	10957
2026-01-20 13:54:30.63	150.75	5.27	-50.2	-60.3	3.8	8.47e-01	0	39	104	0	71	11128
2026-01-20 13:54:31.62	150.74	5.34	-50.2	-60.5	3.8	8.47e-01	0	39	104	0	71	11404
2026-01-20 13:54:32.62	150.72	5.42	-50.2	-60.7	3.8	8.48e-01	0	38	104	0	71	11605
2026-01-20 13:54:33.61	150.71	5.49	-50.3	-60.8	3.8	8.46e-01	0	39	104	0	71	11764
2026-01-20 13:54:34.61	150.69	5.56	-50.2	-60.8	3.8	8.47e-01	0	39	104	0	71	11762
2026-01-20 13:54:35.61	150.68	5.63	-50.2	-60.8	3.8	8.47e-01	0	39	104	0	71	11758
2026-01-20 13:54:36.60	150.66	5.71	-50.2	-60.4	3.8	8.47e-01	0	39	104	0	71	11277
2026-01-20 13:54:37.60	150.65	5.78	-50.1	-60.2	3.8	8.47e-01	0	39	104	0	71	10935
2026-01-20 13:54:38.60	150.63	5.85	-50.1	-59.7	3.8	8.47e-01	0	39	104	0	71	10336
2026-01-20 13:54:39.59	150.61	5.93	-50.0	-59.3	3.8	8.46e-01	0	39	104	0	70	10507
2026-01-20 13:54:40.60	150.60	6.00	-49.9	-58.9	3.8	8.45e-01	0	39	104	0	70	10022
2026-01-20 13:54:41.60	150.58	6.08	-49.9	-58.6	3.8	8.47e-01	0	39	104	0	70	9673
2026-01-20 13:54:42.59	150.57	6.15	-49.9	-58.4	4.0	8.44e-01	0	39	104	0	70	9478
2026-01-20 13:54:43.59	150.55	6.23	-49.9	-58.5	3.8	8.44e-01	0	39	104	0	70	9536
2026-01-20 13:54:44.58	150.53	6.30	-49.9	-58.7	3.8	8.45e-01	0	39	104	0	70	9787
2026-01-20 13:54:45.58	150.52	6.37	-49.9	-59.1	3.8	8.46e-01	0	39	104	0	70	10208
2026-01-20 13:54:46.58	150.50	6.45	-50.0	-59.5	3.8	8.45e-01	0	39	104	0	70	10729
2026-01-20 13:54:47.57	150.48	6.52	-50.1	-60.1	3.8	8.46e-01	0	39	104	0	70	11448
2026-01-20 13:54:48.57	150.47	6.60	-50.2	-60.6	3.8	8.47e-01	0	39	104	0	70	12097
2026-01-20 13:54:49.57	150.45	6.68	-50.2	-60.9	3.8	8.47e-01	0	39	104	0	70	12552
2026-01-20 13:54:50.56	150.43	6.75	-50.2	-60.9	3.8	8.46e-01	0	39	104	0	70	12642
2026-01-20 13:54:51.56	150.42	6.83	-50.2	-60.7	3.8	8.46e-01	0	39	104	0	70	12295
2026-01-20 13:54:52.56	150.40	6.91	-50.2	-60.3	3.8	8.48e-01	0	40	104	0	70	11756
2026-01-20 13:54:53.56	150.38	6.98	-50.1	-59.8	3.8	8.45e-01	0	40	104	0	70	11075
2026-01-20 13:54:54.56	150.36	7.06	-50.0	-59.3	3.8	8.46e-01	0	39	104	0	70	10423
2026-01-20 13:54:55.56	150.35	7.14	-49.9	-58.6	3.9	8.45e-01	0	39	104	0	70	9636
2026-01-20 13:54:56.55	150.33	7.21	-49.7	-57.7	4.1	8.43e-01	0	40	0	0	70	8713
2026-01-20 13:54:57.55	150.31	7.29	-49.5	-56.8	4.4	8.33e-01	0	40	0	0	69	8334
2026-01-20 13:54:58.55	150.29	7.37	-49.2	-55.4	5.0	7.94e-01	0	40	0	0	69	7103
2026-01-20 13:54:59.54	150.28	7.45	-48.6	-53.8	6.1	6.20e-01	0	40	0	1048576	68	6267
2026-01-20 13:55:00.54	150.26	7.53	-47.8	-52.1	7.4	1.46e-01	0	40	0	8388608	66	5748
2026-01-20 13:55:01.53	150.24	7.60	-47.2	-50.9	8.6	4.93e-02	0	40	0	15728640	65	5321
2026-01-20 13:55:02.53	150.22	7.68	-46.4	-49.5	10.1	1.27e-02	0	40	0	23068672	63	5071
2026-01-20 13:55:03.53	150.20	7.76	-45.4	-48.2	11.5	1.60e-03	0	40	0	30408704	61	4883
2026-01-20 13:55:04.53	150.18	7.84	-44.7	-47.1	12.6	2.92e-04	0	40	0	36700160	60	4587
2026-01-20 13:55:05.52	150.17	7.92	-43.9	-46.1	13.6	2.05e-05	0	40	0	44040192	58	4546
2026-01-20 13:55:06.52	150.15	8.00	-43.2	-45.2	14.4	1.10e-06	0	40	0	51380224	57	4366
2026-01-20 13:55:07.53	150.13	8.08	-42.7	-44.6	14.9	0.00e+00	0	40	0	58720256	56	4325
2026-01-20 13:55:08.52	150.11	8.16	-42.2	-44.1	15.3	0.00e+00	0	40	0	66060288	55	4299
2026-01-20 13:55:09.52	150.09	8.24	-41.9	-43.8	15.6	1.10e-06	0	40	0	73400320	54	4419
2026-01-20 13:55:10.52	150.07	8.32	-41.9	-43.7	15.7	0.00e+00	0	40	0	80740352	54	4387
2026-01-20 13:55:11.51	150.05	8.40	-42.0	-43.8	15.6	0.00e+00	0	40	0	88080384	54	4425
2026-01-20 13:55:12.51	150.03	8.49	-42.3	-44.2	15.0	0.00e+00	0	40	0	94371840	54	4615
2026-01-20 13:55:13.51	150.01	8.57	-42.5	-44.4	15.0	0.00e+00	0	40	0	101711872	54	4739
2026-01-20 13:55:14.51	149.99	8.65	-43.0	-45.0	14.5	0.00e+00	0	40	0	109051904	55	4777
2026-01-20 13:55:15.51	149.97	8.73	-43.8	-45.9	13.7	6.80e-06	0	40	0	116391936	56	5035
2026-01-20 13:55:16.51	149.95	8.81	-44.6	-46.9	12.7	6.98e-05	0	40	0	123731968	58	5041
2026-01-20 13:55:17.50	149.93	8.90	-45.4	-48.1	11.6	6.13e-04	0	40	0	131072000	60	5149
2026-01-20 13:55:18.50	149.91	8.98	-46.3	-49.4	10.2	4.21e-03	0	40	0	138412032	61	5637
2026-01-20 13:55:19.50	149.89	9.06	-46.5	-49.7	9.9	2.13e-02	0	40	0	145752064	63	5201
2026-01-20 13:55:20.49	149.87	9.15	-44.2	-46.4	13.2	7.70e-04	0	40	0	153092096	59	4490
2026-01-20 13:55:21.49	149.85	9.23	-46.6	-49.9	10.0	1.48e-05	0	40	0	159383552	62	5610
2026-01-20 13:55:22.49	149.83	9.31	-48.1	-52.7	6.7	6.81e-01	0	40	0	161480704	67	5824
2026-01-20 13:55:23.49	149.81	9.40	-43.4	-45.5	14.1	6.19e-04	0	40	0	167772160	57	4530
2026-01-20 13:55:24.48	149.79	9.48	-40.6	-42.3	17.1	0.00e+00	0	40	0	175112192	51	4431
2026-01-20 13:55:25.48	149.77	9.57	-40.6	-42.3	17.1	0.00e+00	0	40	0	182452224	51	4438
2026-01-20 13:55:26.47	149.75	9.65	-39.9	-41.6	17.8	0.00e+00	0	40	0	189792256	50	4302
2026-01-20 13:55:27.47	149.73	9.74	-39.6	-41.2	18.1	0.00e+00	0	40	0	197132288	49	4358
2026-01-20 13:55:28.47	149.70	9.82	-39.3	-40.9	18.4	0.00e+00	0	40	0	204472320	49	4224
2026-01-20 13:55:29.47	149.68	9.91	-39.2	-40.8	18.5	0.00e+00	0	40	0	211812352	49	4155
2026-01-20 13:55:30.47	149.66	10.00	-39.2	-40.7	18.6	0.00e+00	0	40	0	219152384	49	4134
2026-01-20 13:55:31.46	149.64	10.08	-39.1	-40.7	18.6	0.00e+00	0	40	0	226492416	49	4129
2026-01-20 13:55:32.46	149.62	10.17	-39.1	-40.6	18.7	0.00e+00	0	40	0	232783872	48	4340
2026-01-20 13:55:33.46	149.59	10.26	-39.0	-40.6	18.7	0.00e+00	0	40	0	240123904	48	4316
2026-01-20 13:55:34.46	149.57	10.35	-39.0	-40.6	18.8	0.00e+00	0	40	0	247463936	48	4301
2026-01-20 13:55:35.45	149.55	10.43	-39.0	-40.5	18.8	0.00e+00	0	41	0	254803968	48	4280
2026-01-20 13:55:36.45	149.53	10.52	-39.1	-40.7	18.7	0.00e+00	0	40	0	262144000	48	4355
2026-01-20 13:55:37.45	149.50	10.61	-39.0	-40.5	18.8	0.00e+00	0	40	0	269484032	48	4289
2026-01-20 13:55:38.45	149.48	10.70	-38.9	-40.5	18.9	0.00e+00	0	40	0	276824064	48	4246
2026-01-20 13:55:39.45	149.46	10.79	-39.0	-40.6	18.8	0.00e+00	0	40	0	284164096	48	4304
2026-01-20 13:55:40.44	149.43	10.88	-39.1	-40.7	18.7	0.00e+00	0	40	0	290455552	48	4344
2026-01-20 13:55:41.44	149.41	10.97	-38.8	-40.3	19.1	0.00e+00	0	40	0	297795584	48	4150
2026-01-20 13:55:42.44	149.39	11.06	-38.8	-40.3	19.1	0.00e+00	0	41	0	305135616	48	4166
2026-01-20 13:55:43.44	149.36	11.15	-38.8	-40.3	19.0	0.00e+00	0	40	0	312475648	48	4175
2026-01-20 13:55:44.44	149.34	11.24	-38.7	-40.2	19.2	0.00e+00	0	41	0	319815680	48	4105
2026-01-20 13:55:45.44	149.32	11.33	-38.7	-40.2	19.1	0.00e+00	0	40	0	327155712	48	4135
2026-01-20 13:55:46.43	149.29	11.42	-38.3	-39.8	19.2	0.00e+00	0	41	0	333447168	47	4191
2026-01-20 13:55:47.43	149.27	11.51	-38.5	-40.0	19.1	0.00e+00	0	41	0	340787200	47	4265
2026-01-20 13:55:48.43	149.24	11.61	-38.5	-40.0	19.1	0.00e+00	0	40	0	348127232	47	4252
2026-01-20 13:55:49.42	149.22	11.70	-38.5	-40.0	19.1	0.00e+00	0	41	0	355467264	47	4267
2026-01-20 13:55:50.42	149.19	11.79	-38.7	-40.2	18.9	0.00e+00	0	41	0	362807296	47	4355
2026-01-20 13:55:51.42	149.17	11.88	-38.7	-40.2	18.9	0.00e+00	0	41	0	370147328	47	4364
2026-01-20 13:55:52.41	149.14	11.98	-38.5	-40.0	19.1	0.00e+00	0	41	0	377487360	47	4272
2026-01-20 13:55:53.41	149.12	12.07	-38.5	-40.0	19.1	0.00e+00	0	40	0	384827392	47	4270
2026-01-20 13:55:54.41	149.09	12.17	-38.4	-39.9	19.2	0.00e+00	0	41	0	392167424	47	4222
2026-01-20 13:55:55.41	149.06	12.26	-38.3	-39.8	19.2	0.00e+00	0	41	0	398458880	47	4181
2026-01-20 13:55:56.40	149.04	12.35	-38.1	-39.6	19.4	0.00e+00	0	41	0	405798912	47	4066
2026-01-20 13:55:57.40	149.01	12.45	-38.0	-39.4	19.6	0.00e+00	0	41	0	413138944	46	4232
2026-01-20 13:55:58.40	148.99	12.55	-38.0	-39.5	19.6	0.00e+00	0	41	0	420478976	46	4247
2026-01-20 13:55:59.40	148.96	12.64	-38.1	-39.6	19.5	0.00e+00	0	41	0	427819008	46	4300
2026-01-20 13:56:00.39	148.93	12.74	-38.0	-39.4	19.6	0.00e+00	0	41	0	435159040	46	4223
2026-01-20 13:56:01.39	148.91	12.83	-38.0	-39.4	19.7	0.00e+00	0	41	0	442499072	46	4228
2026-01-20 13:56:02.39	148.88	12.93	-38.0	-39.5	19.6	0.00e+00	0	41	0	448790528	46	4258
2026-01-20 13:56:03.38	148.85	13.03	-38.1	-39.5	19.6	0.00e+00	0	41	0	456130560	46	4282
2026-01-20 13:56:04.38	148.82	13.13	-37.9	-39.3	19.8	0.00e+00	0	41	0	463470592	46	4161
2026-01-20 13:56:05.37	148.80	13.22	-37.9	-39.3	19.7	0.00e+00	0	41	0	470810624	46	4192
2026-01-20 13:56:06.37	148.77	13.32	-37.9	-39.3	19.8	0.00e+00	0	41	0	478150656	46	4162
2026-01-20 13:56:07.36	148.74	13.42	-37.9	-39.3	19.8	0.00e+00	0	41	0	485490688	46	4167
2026-01-20 13:56:08.36	148.71	13.52	-37.8	-39.2	19.8	0.00e+00	0	41	0	492830720	46	4133
2026-01-20 13:56:09.36	148.68	13.62	-37.8	-39.2	19.9	0.00e+00	0	41	0	499122176	46	4132
2026-01-20 13:56:10.35	148.65	13.72	-37.7	-39.1	20.0	0.00e+00	0	41	0	506462208	46	4063
2026-01-20 13:56:11.35	148.63	13.82	-37.7	-39.1	19.9	0.00e+00	0	41	0	513802240	45	4306
2026-01-20 13:56:12.35	148.60	13.92	-37.6	-39.0	20.1	0.00e+00	0	41	0	521142272	45	4244
2026-01-20 13:56:13.34	148.57	14.02	-37.6	-38.9	20.1	0.00e+00	0	41	0	528482304	45	4238
2026-01-20 13:56:14.34	148.54	14.13	-37.6	-38.9	20.1	0.00e+00	0	41	0	535822336	45	4224
2026-01-20 13:56:15.34	148.51	14.23	-37.5	-38.9	20.1	0.00e+00	0	41	0	543162368	45	4230
2026-01-20 13:56:16.33	148.48	14.33	-37.5	-38.8	20.2	0.00e+00	0	41	0	549453824	45	4179
2026-01-20 13:56:17.33	148.45	14.44	-37.6	-39.0	20.0	0.00e+00	0	41	0	556793856	45	4269
2026-01-20 13:56:18.33	148.42	14.54	-37.4	-38.8	20.2	0.00e+00	0	41	0	564133888	45	4162
2026-01-20 13:56:19.33	148.39	14.64	-37.4	-38.7	20.3	0.00e+00	0	41	0	571473920	45	4142
2026-01-20 13:56:20.32	148.35	14.75	-37.5	-38.8	20.2	0.00e+00	0	41	0	578813952	45	4186
2026-01-20 13:56:21.32	148.32	14.85	-37.6	-39.0	20.1	0.00e+00	0	41	0	586153984	45	4263
2026-01-20 13:56:22.32	148.29	14.96	-37.6	-39.0	20.0	0.00e+00	0	41	0	593494016	45	4267
2026-01-20 13:56:23.32	148.26	15.06	-37.7	-39.1	20.0	0.00e+00	0	41	0	599785472	45	4309
2026-01-20 13:56:24.32	148.23	15.17	-37.4	-38.8	20.2	0.00e+00	0	41	0	607125504	45	4166
2026-01-20 13:56:25.32	148.19	15.28	-37.5	-38.9	20.1	0.00e+00	0	41	0	614465536	45	4214
2026-01-20 13:56:26.31	148.16	15.38	-37.6	-39.0	20.1	0.00e+00	0	41	0	621805568	45	4273
2026-01-20 13:56:27.32	148.13	15.49	-37.4	-38.8	20.3	0.00e+00	0	41	0	629145600	45	4169
2026-01-20 13:56:28.31	148.10	15.60	-37.4	-38.7	20.3	0.00e+00	0	41	0	636485632	45	4143
2026-01-20 13:56:29.31	148.06	15.71	-37.3	-38.6	20.4	0.00e+00	0	41	0	643825664	45	4081
2026-01-20 13:56:30.31	148.03	15.82	-37.2	-38.6	20.4	0.00e+00	0	41	0	651165696	45	4061
2026-01-20 13:56:31.31	148.00	15.93	-37.2	-38.6	20.4	0.00e+00	0	41	0	658505728	45	4056
2026-01-20 13:56:32.31	147.96	16.04	-37.1	-38.4	20.6	0.00e+00	0	41	0	664797184	44	4224
2026-01-20 13:56:33.31	147.93	16.15	-37.1	-38.4	20.5	0.00e+00	0	41	0	672137216	44	4233
2026-01-20 13:56:34.31	147.89	16.26	-37.1	-38.5	20.5	0.00e+00	0	41	0	679477248	44	4254
2026-01-20 13:56:35.30	147.86	16.37	-37.1	-38.4	20.6	0.00e+00	0	41	0	686817280	44	4242
2026-01-20 13:56:36.30	147.82	16.49	-37.3	-38.6	20.4	0.00e+00	0	41	0	694157312	44	4335
2026-01-20 13:56:37.29	147.79	16.60	-37.1	-38.5	20.5	0.00e+00	0	41	0	701497344	44	4255
2026-01-20 13:56:38.29	147.75	16.71	-37.3	-38.6	20.4	0.00e+00	0	41	0	707788800	44	4329
2026-01-20 13:56:39.28	147.72	16.82	-37.1	-38.4	20.6	0.00e+00	0	41	0	715128832	44	4235
2026-01-20 13:56:40.28	147.68	16.94	-37.0	-38.4	20.6	0.00e+00	0	41	0	722468864	44	4195
2026-01-20 13:56:41.28	147.64	17.05	-37.2	-38.5	20.5	0.00e+00	0	41	0	729808896	44	4270
2026-01-20 13:56:42.27	147.61	17.17	-37.1	-38.5	20.5	0.00e+00	0	41	0	737148928	44	4255
2026-01-20 13:56:43.27	147.57	17.28	-37.0	-38.3	20.6	0.00e+00	0	41	0	744488960	44	4181
2026-01-20 13:56:44.27	147.53	17.40	-36.9	-38.3	20.7	0.00e+00	0	41	0	751828992	44	4160
2026-01-20 13:56:45.26	147.49	17.52	-37.0	-38.3	20.6	0.00e+00	0	41	0	759169024	44	4180
2026-01-20 13:56:46.26	147.46	17.63	-37.0	-38.3	20.7	0.00e+00	0	41	0	765460480	44	4174
2026-01-20 13:56:47.26	147.42	17.75	-37.1	-38.4	20.6	0.00e+00	0	41	0	772800512	44	4242
2026-01-20 13:56:48.25	147.38	17.87	-36.9	-38.3	20.7	0.00e+00	0	41	0	780140544	44	4157
2026-01-20 13:56:49.25	147.34	17.99	-37.0	-38.4	20.6	0.00e+00	0	41	0	787480576	44	4222
2026-01-20 13:56:50.25	147.30	18.11	-37.1	-38.4	20.6	0.00e+00	0	41	0	794820608	44	4235
2026-01-20 13:56:51.24	147.26	18.23	-37.0	-38.3	20.6	0.00e+00	0	41	0	802160640	44	4178
2026-01-20 13:56:52.24	147.22	18.35	-36.9	-38.3	20.7	0.00e+00	0	41	0	808452096	44	4162
2026-01-20 13:56:53.23	147.18	18.47	-36.9	-38.2	20.7	0.00e+00	0	41	0	815792128	44	4140
2026-01-20 13:56:54.23	147.14	18.59	-36.9	-38.3	20.6	0.00e+00	0	41	0	823132160	44	4177
2026-01-20 13:56:55.23	147.10	18.71	-36.9	-38.3	20.7	0.00e+00	0	41	0	830472192	44	4160
2026-01-20 13:56:56.23	147.06	18.84	-36.9	-38.3	20.6	0.00e+00	0	41	0	837812224	44	4169
2026-01-20 13:56:57.22	147.01	18.96	-37.0	-38.4	20.6	0.00e+00	0	41	0	845152256	44	4223
2026-01-20 13:56:58.22	146.97	19.08	-36.9	-38.2	20.7	0.00e+00	0	41	0	852492288	44	4132
2026-01-20 13:56:59.22	146.93	19.21	-37.0	-38.4	20.6	0.00e+00	0	41	0	859832320	44	4205
2026-01-20 13:57:00.22	146.89	19.34	-36.8	-38.2	20.7	0.00e+00	0	41	0	866123776	44	4113
2026-01-20 13:57:01.22	146.84	19.46	-36.9	-38.2	20.7	0.00e+00	0	41	0	873463808	44	4144
2026-01-20 13:57:02.21	146.80	19.59	-36.8	-38.2	20.7	0.00e+00	0	41	0	880803840	44	4114
2026-01-20 13:57:03.21	146.75	19.72	-36.9	-38.3	20.7	0.00e+00	0	41	0	888143872	44	4154
2026-01-20 13:57:04.21	146.71	19.84	-36.7	-38.0	20.8	0.00e+00	0	41	0	895483904	44	4051
2026-01-20 13:57:05.21	146.66	19.97	-36.7	-38.1	20.8	0.00e+00	0	41	0	902823936	44	4058
2026-01-20 13:57:06.21	146.62	20.10	-36.6	-38.0	20.9	0.00e+00	0	41	0	910163968	44	4027
2026-01-20 13:57:07.20	146.57	20.23	-36.6	-38.0	20.9	0.00e+00	0	41	0	917504000	44	4008
2026-01-20 13:57:08.20	146.53	20.36	-36.7	-38.0	20.9	0.00e+00	0	41	0	924844032	44	4036
2026-01-20 13:57:09.19	146.48	20.49	-36.3	-37.6	21.1	0.00e+00	0	41	0	931135488	43	4081
2026-01-20 13:57:10.19	146.43	20.63	-36.3	-37.6	21.1	0.00e+00	0	41	0	938475520	43	4094
2026-01-20 13:57:11.19	146.39	20.76	-36.3	-37.6	21.1	0.00e+00	0	41	0	945815552	43	4065
2026-01-20 13:57:12.19	146.34	20.89	-36.4	-37.7	21.1	0.00e+00	0	41	0	953155584	43	4128
2026-01-20 13:57:13.19	146.29	21.03	-36.3	-37.6	21.2	0.00e+00	0	41	0	960495616	43	4063
2026-01-20 13:57:14.18	146.24	21.16	-36.1	-37.4	21.3	0.00e+00	0	41	0	967835648	43	3990
2026-01-20 13:57:15.18	146.19	21.30	-36.1	-37.4	21.3	0.00e+00	0	41	0	974127104	42	4202
2026-01-20 13:57:16.18	146.14	21.43	-36.0	-37.3	21.3	0.00e+00	0	41	0	981467136	42	4189
2026-01-20 13:57:17.17	146.09	21.57	-36.0	-37.3	21.4	0.00e+00	0	41	0	988807168	42	4175
2026-01-20 13:57:18.17	146.04	21.71	-35.9	-37.2	21.4	0.00e+00	0	41	0	996147200	42	4142
2026-01-20 13:57:19.16	145.99	21.84	-35.9	-37.3	21.4	0.00e+00	0	41	0	1003487232	42	4147
2026-01-20 13:57:20.16	145.94	21.98	-35.9	-37.3	21.4	0.00e+00	0	41	0	1010827264	42	4147
2026-01-20 13:57:21.16	145.89	22.12	-35.9	-37.3	21.4	0.00e+00	0	41	0	1018167296	42	4148
2026-01-20 13:57:22.15	145.84	22.26	-36.0	-37.3	21.3	0.00e+00	0	41	0	1025507328	42	4180
2026-01-20 13:57:23.15	145.78	22.40	-35.9	-37.3	21.4	0.00e+00	0	41	0	1031798784	42	4151
2026-01-20 13:57:24.15	145.73	22.55	-36.1	-37.4	21.3	0.00e+00	0	41	0	1039138816	42	4214
2026-01-20 13:57:25.14	145.68	22.69	-36.0	-37.4	21.3	0.00e+00	0	41	0	1046478848	42	4212
2026-01-20 13:57:26.14	145.62	22.83	-35.9	-37.2	21.4	0.00e+00	0	41	0	1053818880	42	4119
2026-01-20 13:57:27.14	145.57	22.98	-35.8	-37.1	21.5	0.00e+00	0	41	0	1061158912	42	4087
2026-01-20 13:57:28.14	145.51	23.12	-35.9	-37.2	21.4	0.00e+00	0	41	0	1068498944	42	4132
2026-01-20 13:57:29.14	145.45	23.27	-35.9	-37.2	21.4	0.00e+00	0	41	0	1074790400	42	4135
2026-01-20 13:57:30.13	145.40	23.41	-35.9	-37.2	21.4	0.00e+00	0	41	0	1082130432	42	4134
2026-01-20 13:57:31.13	145.34	23.56	-35.8	-37.1	21.4	0.00e+00	0	41	0	1089470464	42	4095
2026-01-20 13:57:32.12	145.28	23.71	-35.8	-37.1	21.5	0.00e+00	0	41	0	1096810496	42	4080
2026-01-20 13:57:33.12	145.22	23.86	-35.8	-37.1	21.4	0.00e+00	0	41	0	1104150528	42	4081
2026-01-20 13:57:34.12	145.16	24.01	-35.8	-37.1	21.4	0.00e+00	0	41	0	1111490560	42	4081
2026-01-20 13:57:35.12	145.10	24.16	-35.7	-37.1	21.5	0.00e+00	0	41	0	1118830592	42	4060
2026-01-20 13:57:36.11	145.05	24.31	-36.0	-37.3	21.2	0.00e+00	0	41	0	1126170624	42	4192
2026-01-20 13:57:37.11	144.98	24.46	-35.9	-37.3	21.3	0.00e+00	0	41	0	1133510656	42	4166
2026-01-20 13:57:38.11	144.92	24.62	-36.0	-37.4	21.2	0.00e+00	0	41	0	1139802112	42	4238
2026-01-20 13:57:39.10	144.86	24.77	-36.1	-37.5	21.1	0.00e+00	0	41	0	1147142144	42	4273
2026-01-20 13:57:40.10	144.80	24.92	-36.2	-37.6	21.0	0.00e+00	0	41	0	1154482176	42	4331
2026-01-20 13:57:41.10	144.73	25.08	-36.1	-37.6	21.0	0.00e+00	0	41	0	1161822208	42	4324
2026-01-20 13:57:42.09	144.67	25.24	-36.2	-37.7	20.9	0.00e+00	0	41	0	1169162240	42	4371
2026-01-20 13:57:43.09	144.61	25.39	-36.3	-37.8	20.9	0.00e+00	0	41	0	1176502272	42	4418
2026-01-20 13:57:44.09	144.54	25.55	-36.2	-37.7	21.0	0.00e+00	0	42	0	1183842304	42	4355
2026-01-20 13:57:45.09	144.47	25.71	-36.2	-37.7	20.9	0.00e+00	0	41	0	1191182336	42	4367
2026-01-20 13:57:46.09	144.41	25.87	-36.4	-37.9	20.8	0.00e+00	0	41	0	1197473792	42	4443
2026-01-20 13:57:47.08	144.34	26.03	-36.3	-37.8	20.9	0.00e+00	0	41	0	1204813824	42	4411
2026-01-20 13:57:48.07	144.27	26.20	-36.2	-37.6	21.0	0.00e+00	0	41	0	1212153856	42	4325
2026-01-20 13:57:49.07	144.20	26.36	-36.3	-37.8	20.9	0.00e+00	0	41	0	1219493888	42	4401
2026-01-20 13:57:50.07	144.13	26.52	-36.2	-37.7	21.0	0.00e+00	0	42	0	1226833920	42	4341
2026-01-20 13:57:51.06	144.06	26.69	-36.1	-37.6	21.0	0.00e+00	0	41	0	1234173952	42	4330
2026-01-20 13:57:52.07	143.99	26.86	-36.1	-37.6	21.1	0.00e+00	0	42	0	1240465408	42	4296
2026-01-20 13:57:53.06	143.92	27.02	-36.1	-37.5	21.1	0.00e+00	0	41	0	1247805440	42	4270
2026-01-20 13:57:54.06	143.85	27.19	-35.9	-37.3	21.3	0.00e+00	0	41	0	1255145472	42	4164
2026-01-20 13:57:55.06	143.77	27.36	-35.9	-37.3	21.3	0.00e+00	0	42	0	1262485504	42	4178
2026-01-20 13:57:56.06	143.70	27.53	-35.8	-37.2	21.4	0.00e+00	0	41	0	1269825536	42	4114
2026-01-20 13:57:57.06	143.62	27.70	-35.8	-37.1	21.5	0.00e+00	0	41	0	1277165568	42	4094
2026-01-20 13:57:58.06	143.55	27.87	-35.7	-37.0	21.6	0.00e+00	0	41	0	1284505600	42	4039
2026-01-20 13:57:59.05	143.47	28.05	-35.6	-36.9	21.7	0.00e+00	0	41	0	1291845632	41	4238
2026-01-20 13:58:00.05	143.39	28.22	-35.3	-36.6	22.0	0.00e+00	0	41	0	1299185664	41	4066
2026-01-20 13:58:01.05	143.32	28.40	-35.1	-36.4	22.1	0.00e+00	0	41	0	1305477120	41	3990
2026-01-20 13:58:02.05	143.24	28.57	-35.1	-36.4	22.1	0.00e+00	0	41	0	1312817152	40	4228
2026-01-20 13:58:03.05	143.16	28.75	-35.1	-36.3	22.2	0.00e+00	0	41	0	1320157184	40	4185
2026-01-20 13:58:04.04	143.07	28.93	-35.2	-36.4	22.1	0.00e+00	0	41	0	1327497216	40	4239
2026-01-20 13:58:05.04	142.99	29.11	-35.1	-36.3	22.3	0.00e+00	0	41	0	1334837248	40	4181
2026-01-20 13:58:06.04	142.91	29.29	-35.1	-36.3	22.2	0.00e+00	0	42	0	1342177280	40	4189
2026-01-20 13:58:07.04	142.82	29.47	-35.0	-36.2	22.3	0.00e+00	0	41	0	1349517312	40	4134
2026-01-20 13:58:08.04	142.74	29.65	-35.3	-36.5	22.1	0.00e+00	0	41	0	1355808768	40	4276
2026-01-20 13:58:09.03	142.65	29.84	-35.3	-36.6	22.1	0.00e+00	0	41	0	1363148800	40	4307
2026-01-20 13:58:10.03	142.57	30.02	-35.2	-36.4	22.1	0.00e+00	0	41	0	1370488832	40	4240
2026-01-20 13:58:11.03	142.48	30.21	-35.3	-36.5	21.7	0.00e+00	0	41	0	1377828864	40	4282
2026-01-20 13:58:12.03	142.39	30.39	-35.2	-36.5	22.1	0.00e+00	0	41	0	1385168896	40	4254
2026-01-20 13:58:13.03	142.30	30.58	-35.3	-36.6	22.0	0.00e+00	0	41	0	1392508928	40	4295
2026-01-20 13:58:14.03	142.21	30.77	-35.4	-36.7	21.8	0.00e+00	0	41	0	1399848960	40	4389
2026-01-20 13:58:15.03	142.11	30.96	-35.3	-36.7	21.9	0.00e+00	0	42	0	1406140416	40	4341
2026-01-20 13:58:16.03	142.02	31.16	-35.4	-36.7	21.9	0.00e+00	0	41	0	1413480448	40	4369
2026-01-20 13:58:17.02	141.93	31.35	-35.4	-36.8	21.8	0.00e+00	0	41	0	1420820480	40	4393
2026-01-20 13:58:18.02	141.83	31.54	-35.5	-36.8	21.7	0.00e+00	0	41	0	1428160512	40	4421
2026-01-20 13:58:19.02	141.73	31.74	-35.5	-36.8	21.7	0.00e+00	0	42	0	1435500544	40	4432
2026-01-20 13:58:20.02	141.63	31.94	-35.5	-36.9	21.7	0.00e+00	0	41	0	1442840576	40	4451
2026-01-20 13:58:21.02	141.53	32.13	-35.6	-37.0	21.6	0.00e+00	0	42	0	1450180608	40	4495
2026-01-20 13:58:22.02	141.43	32.33	-35.6	-36.9	21.6	0.00e+00	0	41	0	1457520640	40	4490
2026-01-20 13:58:23.01	141.33	32.53	-35.7	-37.1	21.5	0.00e+00	0	41	0	1464860672	40	4553
2026-01-20 13:58:24.01	141.23	32.73	-35.6	-37.0	21.6	0.00e+00	0	41	0	1471152128	40	4513
2026-01-20 13:58:25.01	141.12	32.94	-35.6	-37.0	21.5	0.00e+00	0	41	0	1478492160	40	4527
2026-01-20 13:58:26.00	141.02	33.14	-35.6	-37.0	21.6	0.00e+00	0	41	0	1485832192	40	4512
2026-01-20 13:58:27.00	140.91	33.34	-35.6	-37.0	21.6	0.00e+00	0	42	0	1493172224	40	4516
2026-01-20 13:58:28.00	140.80	33.55	-35.7	-37.1	21.5	0.00e+00	0	42	0	1500512256	40	4572
2026-01-20 13:58:28.99	140.69	33.76	-35.7	-37.1	21.5	0.00e+00	0	41	0	1507852288	40	4556
2026-01-20 13:58:29.99	140.58	33.97	-35.4	-36.8	21.7	0.00e+00	0	41	0	1514143744	40	4430
2026-01-20 13:58:30.98	140.47	34.18	-35.4	-36.7	21.8	0.00e+00	0	41	0	1521483776	40	4391
2026-01-20 13:58:31.98	140.35	34.39	-35.4	-36.7	21.8	0.00e+00	0	41	0	1528823808	40	4379
2026-01-20 13:58:32.97	140.24	34.60	-35.4	-36.8	21.9	0.00e+00	0	41	0	1536163840	40	4401
2026-01-20 13:58:33.97	140.12	34.81	-35.4	-36.8	21.8	0.00e+00	0	41	0	1543503872	40	4414
2026-01-20 13:58:34.97	140.00	35.03	-35.3	-36.6	21.9	0.00e+00	0	42	0	1550843904	40	4321
2026-01-20 13:58:35.97	139.88	35.25	-35.2	-36.5	22.1	0.00e+00	0	41	0	1558183936	40	4263
2026-01-20 13:58:36.97	139.75	35.47	-35.3	-36.6	22.0	0.00e+00	0	41	0	1565523968	40	4322
2026-01-20 13:58:37.96	139.63	35.68	-35.2	-36.5	22.1	0.00e+00	0	41	0	1571815424	40	4278
2026-01-20 13:58:38.95	139.50	35.90	-35.1	-36.4	22.2	0.00e+00	0	42	0	1579155456	40	4216
2026-01-20 13:58:39.95	139.38	36.13	-35.2	-36.5	22.0	0.00e+00	0	41	0	1586495488	40	4284
2026-01-20 13:58:40.95	139.25	36.35	-35.4	-36.7	21.9	0.00e+00	0	42	0	1593835520	40	4356
2026-01-20 13:58:41.94	139.11	36.57	-35.5	-36.8	21.8	0.00e+00	0	42	0	1601175552	40	4410
2026-01-20 13:58:42.94	138.98	36.80	-35.5	-36.8	21.8	0.00e+00	0	41	0	1608515584	40	4426
2026-01-20 13:58:43.94	138.85	37.03	-35.5	-36.8	21.8	0.00e+00	0	42	0	1614807040	40	4416
2026-01-20 13:58:44.93	138.71	37.26	-35.4	-36.7	21.8	0.00e+00	0	41	0	1622147072	40	4385
2026-01-20 13:58:45.93	138.57	37.49	-35.5	-36.8	21.8	0.00e+00	0	41	0	1629487104	40	4416
2026-01-20 13:58:46.93	138.43	37.72	-35.4	-36.7	21.8	0.00e+00	0	41	0	1636827136	40	4369
2026-01-20 13:58:47.93	138.28	37.95	-35.4	-36.8	21.9	0.00e+00	0	42	0	1644167168	40	4392
2026-01-20 13:58:48.92	138.14	38.19	-35.5	-36.8	21.8	0.00e+00	0	42	0	1651507200	40	4408
2026-01-20 13:58:49.92	137.99	38.42	-35.6	-36.9	21.7	0.00e+00	0	42	0	1658847232	40	4486
2026-01-20 13:58:50.92	137.84	38.66	-35.4	-36.7	21.8	0.00e+00	0	42	0	1666187264	40	4385
2026-01-20 13:58:51.91	137.69	38.90	-35.4	-36.7	21.9	0.00e+00	0	42	0	1672478720	40	4352
2026-01-20 13:58:52.92	137.53	39.14	-35.9	-36.7	22.6	0.00e+00	0	41	0	1679818752	41	4134
2026-01-20 13:58:53.91	137.38	39.38	-36.0	-36.9	22.5	0.00e+00	0	41	0	1687158784	41	4208
2026-01-20 13:58:54.91	137.22	39.63	-36.0	-36.8	22.6	0.00e+00	0	41	0	1694498816	41	4181
2026-01-20 13:58:55.91	137.06	39.87	-36.2	-37.0	22.4	0.00e+00	0	41	0	1701838848	42	4051
2026-01-20 13:58:56.90	136.89	40.12	-36.3	-37.1	22.3	0.00e+00	0	42	0	1709178880	42	4083
2026-01-20 13:58:57.90	136.73	40.37	-36.2	-37.1	22.4	0.00e+00	0	42	0	1716518912	42	4064
2026-01-20 13:58:58.90	136.56	40.62	-36.1	-36.9	22.5	0.00e+00	0	42	0	1723858944	42	3996
2026-01-20 13:58:59.89	136.39	40.86	-36.1	-36.9	22.5	0.00e+00	0	42	0	1731198976	42	3992
2026-01-20 13:59:00.89	136.21	41.12	-35.9	-36.7	22.7	0.00e+00	0	41	0	1737490432	42	3893
2026-01-20 13:59:01.89	136.03	41.37	-35.9	-36.8	22.6	0.00e+00	0	41	0	1744830464	42	3928
2026-01-20 13:59:02.89	135.85	41.63	-35.9	-36.7	22.6	0.00e+00	0	42	0	1752170496	42	3903
2026-01-20 13:59:03.88	135.67	41.88	-35.8	-36.6	22.8	0.00e+00	0	42	0	1759510528	42	3852
2026-01-20 13:59:04.88	135.49	42.14	-35.6	-36.5	22.9	0.00e+00	0	42	0	1766850560	42	3781
2026-01-20 13:59:05.88	135.30	42.40	-35.7	-36.5	22.8	0.00e+00	0	42	0	1774190592	41	4032
2026-01-20 13:59:06.88	135.10	42.66	-35.8	-36.6	22.7	0.00e+00	0	42	0	1780482048	41	4066
2026-01-20 13:59:07.87	134.91	42.92	-35.9	-36.7	22.6	0.00e+00	0	41	0	1787822080	41	4124
2026-01-20 13:59:08.87	134.71	43.19	-36.0	-36.8	22.5	0.00e+00	0	42	0	1795162112	41	4176
2026-01-20 13:59:09.87	134.51	43.45	-36.2	-37.0	22.3	0.00e+00	0	42	0	1802502144	41	4282
2026-01-20 13:59:10.87	134.30	43.72	-36.2	-37.1	22.3	0.00e+00	0	41	0	1809842176	42	4063
2026-01-20 13:59:11.87	134.09	43.99	-36.1	-36.9	22.5	0.00e+00	0	41	0	1817182208	42	3980
2026-01-20 13:59:12.87	133.88	44.26	-36.1	-37.0	22.4	0.00e+00	0	42	0	1824522240	42	4012
2026-01-20 13:59:13.87	133.66	44.53	-36.2	-37.0	22.4	0.00e+00	0	42	0	1831862272	42	4045
2026-01-20 13:59:14.86	133.44	44.80	-36.3	-37.2	22.3	0.00e+00	0	42	0	1838153728	42	4102
2026-01-20 13:59:15.86	133.22	45.07	-36.2	-37.1	22.4	0.00e+00	0	41	0	1845493760	42	4057
2026-01-20 13:59:16.85	132.99	45.35	-36.0	-36.8	22.5	0.00e+00	0	42	0	1852833792	42	3946
2026-01-20 13:59:17.85	132.76	45.62	-36.1	-36.9	22.5	0.00e+00	0	41	0	1860173824	42	3991
2026-01-20 13:59:18.84	132.53	45.90	-36.2	-37.0	22.4	0.00e+00	0	42	0	1867513856	42	4032
2026-01-20 13:59:19.84	132.28	46.18	-36.3	-37.2	22.2	0.00e+00	0	41	0	1874853888	42	4114
2026-01-20 13:59:20.84	132.04	46.46	-36.3	-37.2	22.3	0.00e+00	0	42	0	1882193920	42	4103
2026-01-20 13:59:21.84	131.79	46.74	-36.5	-37.4	22.1	0.00e+00	0	42	0	1888485376	42	4207
2026-01-20 13:59:22.84	131.53	47.03	-36.7	-37.6	21.9	0.00e+00	0	42	0	1896873984	42	4296
2026-01-20 13:59:23.84	131.28	47.31	-36.9	-37.8	21.7	0.00e+00	0	42	0	1903165440	43	4151
2026-01-20 13:59:24.84	131.01	47.60	-37.0	-37.8	21.7	0.00e+00	0	42	0	1910505472	43	4175
2026-01-20 13:59:25.83	130.75	47.88	-37.2	-38.1	21.5	0.00e+00	0	42	0	1917845504	43	4296
2026-01-20 13:59:26.83	130.47	48.17	-37.1	-38.0	21.7	0.00e+00	0	42	0	1925185536	44	4035
2026-01-20 13:59:27.83	130.19	48.46	-37.4	-38.3	21.5	0.00e+00	0	42	0	1932525568	44	4150
2026-01-20 13:59:28.83	129.91	48.75	-37.2	-38.1	21.6	0.00e+00	0	42	0	1939865600	44	4083
2026-01-20 13:59:29.82	129.62	49.04	-37.0	-37.9	21.8	0.00e+00	0	41	0	1946157056	44	3962
2026-01-20 13:59:30.82	129.33	49.34	-36.9	-37.8	21.8	0.00e+00	0	41	0	1953497088	44	3940
2026-01-20 13:59:31.82	129.02	49.63	-37.1	-37.9	21.7	0.00e+00	0	42	0	1960837120	44	4003
2026-01-20 13:59:32.81	128.72	49.92	-37.3	-38.2	21.6	0.00e+00	0	41	0	1968177152	44	4106
2026-01-20 13:59:33.81	128.41	50.22	-37.4	-38.3	21.5	0.00e+00	0	42	0	1975517184	44	4155
2026-01-20 13:59:34.81	128.09	50.52	-37.6	-38.5	21.3	0.00e+00	0	42	0	1982857216	44	4261
2026-01-20 13:59:35.81	127.76	50.82	-37.7	-38.6	21.1	0.00e+00	0	41	0	1990197248	45	4076
2026-01-20 13:59:36.80	127.43	51.11	-37.6	-38.5	21.2	0.00e+00	0	42	0	1997537280	46	3803
2026-01-20 13:59:37.80	127.09	51.41	-37.7	-38.6	21.2	0.00e+00	0	42	0	2003828736	45	4057
2026-01-20 13:59:38.79	126.75	51.71	-37.5	-38.4	21.3	0.00e+00	0	42	0	2011168768	45	3989
2026-01-20 13:59:39.79	126.40	52.01	-37.4	-38.3	21.4	0.00e+00	0	42	0	2018508800	45	3930
2026-01-20 13:59:40.79	126.04	52.32	-37.2	-38.1	21.6	0.00e+00	0	42	0	2025848832	45	3835
2026-01-20 13:59:41.79	125.67	52.62	-37.0	-37.9	21.7	0.00e+00	0	42	0	2033188864	44	3971
2026-01-20 13:59:42.79	125.29	52.92	-37.1	-37.9	21.8	0.00e+00	0	42	0	2040528896	44	4002
2026-01-20 13:59:43.79	124.91	53.23	-37.0	-37.9	21.8	0.00e+00	0	42	0	2046820352	44	3984
2026-01-20 13:59:44.78	124.52	53.53	-37.0	-37.9	21.8	0.00e+00	0	42	0	2054160384	44	3976
2026-01-20 13:59:45.79	124.12	53.84	-37.1	-38.0	21.7	0.00e+00	0	42	0	2061500416	44	4024
2026-01-20 13:59:46.78	123.71	54.14	-36.9	-37.7	21.9	0.00e+00	0	42	0	2068840448	44	3904
2026-01-20 13:59:47.77	123.30	54.44	-37.9	-38.8	21.0	0.00e+00	0	42	0	2076180480	45	4158
2026-01-20 13:59:48.77	122.87	54.75	-38.0	-38.9	20.9	0.00e+00	0	42	0	2083520512	45	4229
2026-01-20 13:59:49.77	122.44	55.05	-38.1	-39.0	20.9	0.00e+00	0	41	0	2090860544	45	4270
2026-01-20 13:59:50.77	121.99	55.36	-37.8	-38.7	21.1	0.00e+00	0	41	0	2098200576	45	4113
2026-01-20 13:59:51.77	121.54	55.67	-37.7	-38.6	21.2	0.00e+00	0	41	0	2105540608	45	4079
2026-01-20 13:59:52.77	121.07	55.97	-37.5	-38.3	21.4	0.00e+00	0	42	0	2111832064	45	3953
2026-01-20 13:59:53.76	120.60	56.28	-37.5	-38.4	21.3	0.00e+00	0	42	0	2119172096	45	3996
2026-01-20 13:59:54.76	120.11	56.58	-37.4	-38.3	21.5	0.00e+00	0	42	0	2126512128	45	3920
2026-01-20 13:59:55.76	119.62	56.89	-37.3	-38.2	21.5	0.00e+00	0	42	0	2133852160	45	3897
2026-01-20 13:59:56.76	119.11	57.19	-37.8	-38.7	21.1	0.00e+00	0	42	0	2141192192	45	4123
2026-01-20 13:59:57.75	118.59	57.49	-37.2	-38.1	21.6	0.00e+00	0	42	0	2148532224	45	3828
2026-01-20 13:59:58.75	118.06	57.80	-37.6	-38.5	21.3	0.00e+00	0	42	0	2155872256	45	4013
2026-01-20 13:59:59.75	117.52	58.10	-37.4	-38.3	21.5	0.00e+00	0	42	0	2163212288	45	3927
2026-01-20 14:00:00.75	116.96	58.40	-37.3	-38.2	21.5	0.00e+00	0	42	0	2169503744	45	3907
2026-01-20 14:00:01.75	116.39	58.70	-37.2	-38.1	21.6	0.00e+00	0	42	0	2176843776	45	3848
2026-01-20 14:00:02.75	115.81	59.00	-37.3	-38.2	21.5	0.00e+00	0	42	0	2184183808	44	4125
2026-01-20 14:00:03.75	115.21	59.30	-37.5	-38.4	21.4	0.00e+00	0	42	0	2191523840	44	4213
2026-01-20 14:00:04.75	114.60	59.60	-37.4	-38.3	21.4	0.00e+00	0	42	0	2198863872	44	4193
2026-01-20 14:00:05.74	113.99	59.89	-37.2	-38.1	21.6	0.00e+00	0	42	0	2206203904	44	4080
2026-01-20 14:00:06.74	113.35	60.18	-37.2	-38.1	21.7	0.00e+00	0	42	0	2213543936	44	4054
2026-01-20 14:00:07.74	112.70	60.48	-37.4	-38.2	21.5	0.00e+00	0	42	0	2220883968	44	4141
2026-01-20 14:00:08.73	112.03	60.76	-37.6	-38.5	21.2	0.00e+00	0	42	0	2227175424	44	4271
2026-01-20 14:00:09.73	111.35	61.05	-37.2	-38.1	21.7	0.00e+00	0	42	0	2234515456	44	4059
2026-01-20 14:00:10.73	110.65	61.33	-37.1	-38.0	21.7	0.00e+00	0	42	0	2241855488	44	4026
2026-01-20 14:00:11.72	109.94	61.61	-37.0	-37.9	21.8	0.00e+00	0	42	0	2249195520	44	3975
2026-01-20 14:00:12.72	109.21	61.89	-36.6	-37.4	22.2	0.00e+00	0	42	0	2256535552	44	3779
2026-01-20 14:00:13.72	108.47	62.17	-37.0	-37.8	21.7	0.00e+00	0	42	0	2263875584	43	4185
2026-01-20 14:00:14.71	107.71	62.44	-37.0	-37.8	21.7	0.00e+00	0	42	0	2270167040	43	4186
2026-01-20 14:00:15.71	106.93	62.71	-36.8	-37.6	21.9	0.00e+00	0	42	0	2277507072	43	4091
2026-01-20 14:00:16.70	106.13	62.97	-36.5	-37.4	22.1	0.00e+00	0	42	0	2284847104	43	3960
2026-01-20 14:00:17.70	105.32	63.24	-36.0	-36.8	22.6	0.00e+00	0	42	0	2292187136	42	3942
2026-01-20 14:00:18.69	104.49	63.49	-35.9	-36.7	22.7	0.00e+00	0	42	0	2299527168	42	3891
2026-01-20 14:00:19.69	103.63	63.75	-36.0	-36.8	22.6	0.00e+00	0	42	0	2306867200	42	3936
2026-01-20 14:00:20.69	102.76	64.00	-36.3	-37.2	22.3	0.00e+00	0	42	0	2314207232	42	4101
2026-01-20 14:00:21.68	101.88	64.24	-36.4	-37.3	22.2	0.00e+00	0	41	0	2320498688	42	4167
2026-01-20 14:00:22.68	100.97	64.48	-36.5	-37.4	22.1	0.00e+00	0	42	0	2327838720	42	4215
2026-01-20 14:00:23.68	100.04	64.72	-36.2	-37.0	22.4	0.00e+00	0	42	0	2335178752	42	4041
2026-01-20 14:00:24.68	99.09	64.95	-36.2	-37.1	22.4	0.00e+00	0	42	0	2342518784	42	4068
2026-01-20 14:00:25.67	98.13	65.17	-36.0	-36.9	22.5	0.00e+00	0	42	0	2349858816	42	3983
2026-01-20 14:00:26.68	97.13	65.39	-35.5	-36.4	23.0	0.00e+00	0	42	0	2357198848	41	3959
2026-01-20 14:00:27.67	96.13	65.60	-35.7	-36.6	22.8	0.00e+00	0	42	0	2364538880	41	4058
2026-01-20 14:00:28.67	95.11	65.80	-35.8	-36.6	22.7	0.00e+00	0	42	0	2371878912	41	4086
2026-01-20 14:00:29.67	94.06	66.00	-36.0	-36.8	22.5	0.00e+00	0	42	0	2378170368	41	4173
2026-01-20 14:00:30.67	92.99	66.19	-35.9	-36.8	22.6	0.00e+00	0	42	0	2385510400	41	4147
2026-01-20 14:00:31.67	91.91	66.38	-35.8	-36.6	22.7	0.00e+00	0	42	0	2392850432	41	4098
2026-01-20 14:00:32.67	90.81	66.56	-35.6	-36.4	22.9	0.00e+00	0	42	0	2400190464	41	3995
2026-01-20 14:00:33.66	89.70	66.72	-35.7	-36.6	22.8	0.00e+00	0	42	0	2407530496	41	4072
2026-01-20 14:00:34.66	88.56	66.89	-35.7	-36.5	22.8	0.00e+00	0	42	0	2414870528	41	4038
2026-01-20 14:00:35.66	87.41	67.04	-35.9	-36.8	22.6	0.00e+00	0	42	0	2422210560	41	4161
2026-01-20 14:00:36.65	86.25	67.18	-35.9	-36.7	22.7	0.00e+00	0	42	0	2429550592	41	4137
2026-01-20 14:00:37.65	85.06	67.32	-35.6	-36.4	22.9	0.00e+00	0	42	0	2435842048	41	3981
2026-01-20 14:00:38.65	83.86	67.45	-35.6	-36.4	23.0	0.00e+00	0	42	0	2443182080	41	3977
2026-01-20 14:00:39.64	82.65	67.57	-35.6	-36.4	22.9	0.00e+00	0	42	0	2450522112	41	3993
2026-01-20 14:00:40.64	81.42	67.68	-35.7	-36.6	22.8	0.00e+00	0	42	0	2457862144	41	4052
2026-01-20 14:00:41.63	80.19	67.77	-35.7	-36.6	22.8	0.00e+00	0	42	0	2465202176	41	4055
2026-01-20 14:00:42.63	78.94	67.86	-35.9	-36.7	22.7	0.00e+00	0	42	0	2472542208	41	4116
2026-01-20 14:00:43.63	77.68	67.95	-35.8	-36.7	22.7	0.00e+00	0	42	0	2478833664	41	4109
2026-01-20 14:00:44.63	76.40	68.02	-35.5	-36.3	23.0	0.00e+00	0	42	0	2486173696	41	3936
2026-01-20 14:00:45.62	75.13	68.08	-35.4	-36.2	23.1	0.00e+00	0	42	0	2493513728	41	3892
2026-01-20 14:00:46.62	73.84	68.13	-35.5	-36.3	23.0	0.00e+00	0	42	0	2500853760	41	3920
2026-01-20 14:00:47.62	72.55	68.17	-35.6	-36.5	22.9	0.00e+00	0	42	0	2508193792	41	4013
2026-01-20 14:00:48.61	71.26	68.20	-36.1	-36.9	22.5	0.00e+00	0	42	0	2515533824	41	4232
2026-01-20 14:00:49.61	69.96	68.22	-36.2	-37.1	22.4	0.00e+00	0	42	0	2522873856	42	4064
2026-01-20 14:00:50.61	68.65	68.23	-36.3	-37.1	22.3	0.00e+00	0	42	0	2530213888	42	4092
2026-01-20 14:00:51.61	67.35	68.22	-35.9	-36.7	22.7	0.00e+00	0	42	0	2537553920	42	3896
2026-01-20 14:00:52.61	66.04	68.21	-35.7	-36.5	22.9	0.00e+00	0	42	0	2543845376	42	3801
2026-01-20 14:00:53.61	64.74	68.19	-35.7	-36.5	22.9	0.00e+00	0	42	0	2551185408	41	4044
2026-01-20 14:00:54.61	63.44	68.16	-35.9	-36.7	22.7	0.00e+00	0	42	0	2558525440	41	4133
2026-01-20 14:00:55.61	62.15	68.12	-35.8	-36.6	22.8	0.00e+00	0	42	0	2565865472	41	4086
2026-01-20 14:00:56.60	60.87	68.06	-35.7	-36.5	22.8	0.00e+00	0	42	0	2573205504	41	4050
2026-01-20 14:00:57.60	59.59	68.00	-35.6	-36.5	22.9	0.00e+00	0	42	0	2580545536	41	4013
2026-01-20 14:00:58.60	58.32	67.93	-35.7	-36.5	22.8	0.00e+00	0	42	0	2587885568	41	4019
2026-01-20 14:00:59.60	57.06	67.84	-35.7	-36.5	22.8	0.00e+00	0	42	0	2595225600	41	4020
2026-01-20 14:01:00.60	55.81	67.75	-35.7	-36.5	22.9	0.00e+00	0	42	0	2601517056	41	4014
2026-01-20 14:01:01.59	54.58	67.65	-35.9	-36.8	22.6	0.00e+00	0	42	0	2608857088	41	4151
2026-01-20 14:01:02.59	53.36	67.54	-36.1	-36.9	22.5	0.00e+00	0	42	0	2616197120	41	4235
2026-01-20 14:01:03.59	52.14	67.42	-36.0	-36.8	22.6	0.00e+00	0	42	0	2623537152	41	4184
2026-01-20 14:01:04.58	50.96	67.29	-35.6	-36.4	23.0	0.00e+00	0	42	0	2630877184	41	3989
2026-01-20 14:01:05.58	49.78	67.15	-35.5	-36.3	23.0	0.00e+00	0	42	0	2638217216	41	3927
2026-01-20 14:01:06.58	48.61	67.00	-35.8	-36.6	22.8	0.00e+00	0	42	0	2644508672	41	4087
2026-01-20 14:01:07.58	47.46	66.85	-35.8	-36.6	22.8	0.00e+00	0	42	0	2651848704	41	4078
2026-01-20 14:01:08.58	46.33	66.68	-35.8	-36.6	22.8	0.00e+00	0	42	0	2659188736	41	4098
2026-01-20 14:01:09.57	45.23	66.51	-35.7	-36.5	22.9	0.00e+00	0	42	0	2666528768	41	4016
2026-01-20 14:01:10.58	44.12	66.33	-35.8	-36.6	22.6	0.00e+00	0	42	0	2673868800	41	4075
2026-01-20 14:01:11.57	43.05	66.15	-36.0	-36.9	22.6	0.00e+00	0	42	0	2681208832	41	4196
2026-01-20 14:01:12.57	41.99	65.95	-36.2	-37.1	22.4	0.00e+00	0	42	0	2688548864	42	4067
2026-01-20 14:01:13.57	40.95	65.75	-36.1	-37.0	22.5	0.00e+00	0	42	0	2695888896	42	4012
2026-01-20 14:01:14.57	39.93	65.55	-36.0	-36.8	22.6	0.00e+00	0	42	0	2703228928	42	3955
2026-01-20 14:01:15.57	38.93	65.33	-36.2	-37.0	22.4	0.00e+00	0	42	0	2709520384	42	4045
2026-01-20 14:01:16.57	37.95	65.11	-36.2	-37.1	22.4	0.00e+00	0	42	0	2716860416	42	4073
2026-01-20 14:01:17.57	36.99	64.89	-36.5	-37.3	22.2	0.00e+00	0	42	0	2724200448	42	4191
2026-01-20 14:01:18.56	36.05	64.66	-36.4	-37.3	22.2	0.00e+00	0	42	0	2731540480	42	4172
2026-01-20 14:01:19.56	35.13	64.42	-36.2	-37.0	22.4	0.00e+00	0	42	0	2738880512	42	4041
2026-01-20 14:01:20.55	34.23	64.19	-36.0	-36.8	22.6	0.00e+00	0	42	0	2746220544	42	3953
2026-01-20 14:01:21.55	33.35	63.94	-36.0	-36.8	22.7	0.00e+00	0	42	0	2753560576	42	3940
2026-01-20 14:01:22.55	32.48	63.69	-36.1	-36.9	22.5	0.00e+00	0	42	0	2760900608	42	3982
2026-01-20 14:01:23.55	31.63	63.43	-36.3	-37.1	22.3	0.00e+00	0	42	0	2767192064	42	4094
2026-01-20 14:01:24.54	30.81	63.18	-36.6	-37.5	22.0	0.00e+00	0	42	0	2774532096	42	4251
2026-01-20 14:01:25.54	30.00	62.91	-36.6	-37.4	22.1	0.00e+00	0	42	0	2781872128	42	4237
2026-01-20 14:01:26.54	29.20	62.65	-36.3	-37.1	22.4	0.00e+00	0	42	0	2789212160	42	4094
2026-01-20 14:01:27.53	28.43	62.38	-36.2	-37.1	22.4	0.00e+00	0	42	0	2796552192	42	4054
2026-01-20 14:01:28.53	27.67	62.11	-36.3	-37.1	22.4	0.00e+00	0	42	0	2803892224	42	4092
2026-01-20 14:01:29.53	26.93	61.83	-36.9	-37.7	21.8	0.00e+00	0	42	0	2810183680	43	4143
2026-01-20 14:01:30.53	26.20	61.55	-37.5	-38.5	21.4	0.00e+00	0	42	0	2817523712	44	4251
2026-01-20 14:01:31.53	25.49	61.27	-37.7	-38.6	21.2	0.00e+00	0	42	0	2824863744	44	4329
2026-01-20 14:01:32.52	24.81	60.99	-37.4	-38.4	21.5	0.00e+00	0	42	0	2832203776	44	4194
2026-01-20 14:01:33.52	24.13	60.70	-37.1	-38.0	21.8	0.00e+00	0	42	0	2839543808	44	4016
2026-01-20 14:01:34.52	23.47	60.41	-37.0	-37.8	21.9	0.00e+00	0	42	0	2846883840	44	3941
2026-01-20 14:01:35.52	22.82	60.12	-36.9	-37.8	22.0	0.00e+00	0	42	0	2854223872	44	3914
2026-01-20 14:01:36.51	22.19	59.83	-36.8	-37.7	22.0	0.00e+00	0	42	0	2861563904	44	3876
2026-01-20 14:01:37.51	21.57	59.53	-36.9	-37.8	21.9	0.00e+00	0	42	0	2868903936	44	3936
2026-01-20 14:01:38.51	20.97	59.24	-37.1	-38.0	21.7	0.00e+00	0	42	0	2875195392	44	4011
2026-01-20 14:01:39.51	20.38	58.94	-37.2	-38.1	21.6	0.00e+00	0	42	0	2882535424	44	4059
2026-01-20 14:01:40.51	19.80	58.64	-37.1	-38.0	21.8	0.00e+00	0	42	0	2889875456	44	4008
2026-01-20 14:01:41.51	19.23	58.34	-37.0	-37.9	21.9	0.00e+00	0	42	0	2897215488	44	3964
2026-01-20 14:01:42.50	18.69	58.04	-37.0	-37.8	21.9	0.00e+00	0	42	0	2904555520	44	3945
2026-01-20 14:01:43.50	18.15	57.74	-37.1	-38.0	21.7	0.00e+00	0	42	0	2911895552	44	4020
2026-01-20 14:01:44.50	17.62	57.43	-37.3	-38.2	21.6	0.00e+00	0	42	0	2919235584	44	4118
2026-01-20 14:01:45.50	17.10	57.13	-37.5	-38.4	21.3	0.00e+00	0	42	0	2926575616	44	4228
2026-01-20 14:01:46.50	16.60	56.83	-37.5	-38.4	21.4	0.00e+00	0	42	0	2932867072	44	4228
2026-01-20 14:01:47.50	16.11	56.52	-37.4	-38.3	21.5	0.00e+00	0	42	0	2940207104	44	4148
2026-01-20 14:01:48.49	15.63	56.22	-37.2	-38.1	21.7	0.00e+00	0	42	0	2947547136	44	4070
2026-01-20 14:01:49.49	15.16	55.91	-37.3	-38.2	21.6	0.00e+00	0	42	0	2954887168	44	4121
2026-01-20 14:01:50.49	14.69	55.61	-37.4	-38.3	21.5	0.00e+00	0	42	0	2962227200	44	4146
2026-01-20 14:01:51.49	14.24	55.30	-37.6	-38.5	21.3	0.00e+00	0	42	0	2969567232	44	4258
2026-01-20 14:01:52.48	13.80	55.00	-37.5	-38.4	21.4	0.00e+00	0	42	0	2975858688	44	4231
2026-01-20 14:01:53.48	13.37	54.70	-37.3	-38.2	21.6	0.00e+00	0	42	0	2983198720	44	4125
2026-01-20 14:01:54.48	12.95	54.39	-37.2	-38.0	21.7	0.00e+00	0	42	0	2990538752	44	4045
2026-01-20 14:01:55.47	12.54	54.09	-37.3	-38.2	21.6	0.00e+00	0	42	0	2997878784	44	4125
2026-01-20 14:01:56.47	12.13	53.78	-37.5	-38.5	21.4	0.00e+00	0	42	0	3005218816	44	4243
2026-01-20 14:01:57.47	11.73	53.48	-37.7	-38.7	21.1	0.00e+00	0	42	0	3012558848	44	4345
2026-01-20 14:01:58.47	11.35	53.18	-37.7	-38.7	21.2	0.00e+00	0	42	0	3019898880	45	4102
2026-01-20 14:01:59.46	10.97	52.88	-37.8	-38.7	21.1	0.00e+00	0	42	0	3027238912	45	4122
2026-01-20 14:02:00.46	10.60	52.57	-37.6	-38.5	21.3	0.00e+00	0	42	0	3033530368	45	4018
2026-01-20 14:02:01.46	10.23	52.27	-37.3	-38.2	21.5	0.00e+00	0	42	0	3040870400	45	3891
2026-01-20 14:02:02.46	9.87	51.97	-37.3	-38.1	21.6	0.00e+00	0	42	0	3048210432	45	3863
2026-01-20 14:02:03.45	9.52	51.67	-37.2	-38.1	21.6	0.00e+00	0	42	0	3055550464	45	3853
2026-01-20 14:02:04.45	9.18	51.37	-37.5	-38.4	21.4	0.00e+00	0	42	0	3062890496	45	3982
2026-01-20 14:02:05.45	8.84	51.07	-37.7	-38.6	21.3	0.00e+00	0	42	0	3070230528	45	4058
2026-01-20 14:02:06.44	8.52	50.78	-37.7	-38.6	21.2	0.00e+00	0	42	0	3077570560	45	4060
2026-01-20 14:02:07.44	8.19	50.48	-37.5	-38.4	21.3	0.00e+00	0	42	0	3084910592	45	3976
2026-01-20 14:02:08.44	7.88	50.18	-37.3	-38.2	21.6	0.00e+00	0	42	0	3092250624	45	3880
2026-01-20 14:02:09.44	7.56	49.89	-36.9	-37.8	21.9	0.00e+00	0	42	0	3098542080	44	3925
2026-01-20 14:02:10.44	7.26	49.59	-37.0	-37.9	21.8	0.00e+00	0	42	0	3105882112	44	3970
2026-01-20 14:02:11.44	6.96	49.30	-37.3	-38.1	21.7	0.00e+00	0	42	0	3113222144	44	4091
2026-01-20 14:02:12.43	6.67	49.01	-37.5	-38.4	21.4	0.00e+00	0	42	0	3120562176	44	4204
2026-01-20 14:02:13.43	6.38	48.72	-37.3	-38.1	21.4	0.00e+00	0	42	0	3127902208	44	4094
2026-01-20 14:02:14.43	6.10	48.43	-37.0	-37.9	21.8	0.00e+00	0	42	0	3135242240	44	3985
2026-01-20 14:02:15.43	5.82	48.14	-37.1	-37.9	21.8	0.00e+00	0	42	0	3141533696	44	4004
2026-01-20 14:02:16.42	5.55	47.86	-36.9	-37.8	22.0	0.00e+00	0	42	0	3148873728	44	3924
2026-01-20 14:02:17.42	5.29	47.57	-37.0	-37.8	21.9	0.00e+00	0	42	0	3156213760	44	3954
2026-01-20 14:02:18.42	5.02	47.29	-36.9	-37.8	21.3	0.00e+00	0	42	0	3163553792	44	3943
2026-01-20 14:02:19.42	4.77	47.00	-36.8	-37.7	22.0	0.00e+00	0	42	0	3170893824	44	3894
2026-01-20 14:02:20.42	4.51	46.72	-36.8	-37.6	22.0	0.00e+00	0	42	0	3178233856	44	3853
2026-01-20 14:02:21.41	4.27	46.44	-36.6	-37.5	22.2	0.00e+00	0	42	0	3185573888	44	3796
2026-01-20 14:02:22.41	4.03	46.16	-36.8	-37.7	21.9	0.00e+00	0	42	0	3192913920	44	3888
2026-01-20 14:02:23.41	3.79	45.88	-36.9	-37.7	22.0	0.00e+00	0	42	0	3199205376	44	3894
2026-01-20 14:02:24.40	3.55	45.61	-37.0	-37.9	21.9	0.00e+00	0	42	0	3206545408	44	3972
2026-01-20 14:02:25.40	3.32	45.33	-36.9	-37.8	21.9	0.00e+00	0	42	0	3213885440	44	3946
2026-01-20 14:02:26.40	3.10	45.06	-36.8	-37.7	22.0	0.00e+00	0	42	0	3221225472	44	3879
2026-01-20 14:02:27.39	2.87	44.79	-36.3	-37.2	22.3	0.00e+00	0	42	0	3228565504	43	3892
2026-01-20 14:02:28.39	2.66	44.52	-36.3	-37.1	22.3	0.00e+00	0	42	0	3235905536	43	3867
2026-01-20 14:02:29.39	2.44	44.25	-36.0	-36.8	22.6	0.00e+00	0	42	0	3243245568	42	3958
2026-01-20 14:02:30.39	2.23	43.98	-35.8	-36.7	22.8	0.00e+00	0	42	0	3249537024	42	3874
2026-01-20 14:02:31.39	2.02	43.71	-35.9	-36.8	22.6	0.00e+00	0	42	0	3256877056	42	3926
2026-01-20 14:02:32.39	1.82	43.44	-36.1	-36.9	22.6	0.00e+00	0	42	0	3264217088	42	3976
2026-01-20 14:02:33.38	1.62	43.18	-36.1	-36.9	22.5	0.00e+00	0	42	0	3271557120	42	4000
2026-01-20 14:02:34.38	1.42	42.92	-36.2	-37.0	22.3	0.00e+00	0	42	0	3278897152	42	4038
2026-01-20 14:02:35.38	1.22	42.66	-36.1	-37.0	22.4	0.00e+00	0	42	0	3286237184	42	4022
2026-01-20 14:02:36.37	1.03	42.40	-36.0	-36.9	22.6	0.00e+00	0	42	0	3293577216	42	3974
2026-01-20 14:02:37.37	0.85	42.14	-36.0	-36.9	22.5	0.00e+00	0	42	0	3300917248	42	3965
2026-01-20 14:02:38.37	0.66	41.88	-36.0	-36.8	22.6	0.00e+00	0	42	0	3307208704	42	3953
2026-01-20 14:02:39.36	0.48	41.63	-35.9	-36.7	22.6	0.00e+00	0	42	0	3314548736	42	3912
2026-01-20 14:02:40.36	0.30	41.38	-35.9	-36.7	22.7	0.00e+00	0	42	0	3321888768	42	3904
2026-01-20 14:02:41.35	0.13	41.13	-35.9	-36.7	22.6	0.00e+00	0	42	0	3329228800	42	3911
2026-01-20 14:02:42.35	359.95	40.87	-36.1	-36.9	22.5	0.00e+00	0	42	0	3336568832	42	3985
2026-01-20 14:02:43.35	359.78	40.62	-36.0	-36.8	22.6	0.00e+00	0	42	0	3343908864	42	3946
2026-01-20 14:02:44.34	359.61	40.38	-36.1	-36.9	22.5	0.00e+00	0	42	0	3351248896	42	3992
2026-01-20 14:02:45.34	359.45	40.13	-36.1	-36.9	22.5	0.00e+00	0	42	0	3358588928	42	3971
2026-01-20 14:02:46.34	359.28	39.88	-36.1	-36.9	22.5	0.00e+00	0	42	0	3364880384	42	3974
2026-01-20 14:02:47.33	359.13	39.64	-36.1	-36.9	22.5	0.00e+00	0	42	0	3372220416	42	4004
2026-01-20 14:02:48.33	358.97	39.40	-36.1	-36.9	22.5	0.00e+00	0	42	0	3379560448	42	4001
2026-01-20 14:02:49.33	358.81	39.16	-36.2	-37.0	22.4	0.00e+00	0	42	0	3386900480	42	4042
2026-01-20 14:02:50.33	358.66	38.92	-36.2	-37.1	22.4	0.00e+00	0	42	0	3394240512	42	4059
2026-01-20 14:02:51.33	358.51	38.68	-36.3	-37.2	22.3	0.00e+00	0	42	0	3401580544	42	4109
2026-01-20 14:02:52.33	358.36	38.44	-36.4	-37.2	22.3	0.00e+00	0	42	0	3407872000	42	4141
2026-01-20 14:02:53.33	358.21	38.21	-36.4	-37.3	22.2	0.00e+00	0	42	0	3415212032	42	4156
2026-01-20 14:02:54.33	358.07	37.97	-36.5	-37.4	22.0	0.00e+00	0	42	0	3422552064	42	4212
2026-01-20 14:02:55.33	357.92	37.74	-36.3	-37.2	22.2	0.00e+00	0	42	0	3429892096	42	4121
2026-01-20 14:02:56.33	357.78	37.51	-36.2	-37.1	22.4	0.00e+00	0	42	0	3437232128	42	4083
2026-01-20 14:02:57.32	357.64	37.28	-36.2	-37.0	22.4	0.00e+00	0	42	0	3444572160	42	4044
2026-01-20 14:02:58.32	357.51	37.05	-36.2	-37.1	22.3	0.00e+00	0	42	0	3451912192	42	4072
2026-01-20 14:02:59.32	357.37	36.83	-36.1	-37.0	22.5	0.00e+00	0	42	0	3459252224	42	4022
2026-01-20 14:03:00.32	357.24	36.60	-36.1	-36.9	22.5	0.00e+00	0	42	0	3466592256	42	4000
2026-01-20 14:03:01.32	357.11	36.38	-36.2	-37.0	22.4	0.00e+00	0	42	0	3472883712	42	4040
2026-01-20 14:03:02.32	356.98	36.15	-36.1	-37.0	22.5	0.00e+00	0	42	0	3480223744	42	4018
2026-01-20 14:03:03.31	356.85	35.93	-36.1	-36.9	22.5	0.00e+00	0	42	0	3487563776	42	4004
2026-01-20 14:03:04.31	356.73	35.71	-36.0	-36.9	22.6	0.00e+00	0	42	0	3494903808	42	3964
2026-01-20 14:03:05.31	356.61	35.49	-35.9	-36.8	22.7	0.00e+00	0	42	0	3502243840	42	3919
2026-01-20 14:03:06.31	356.48	35.28	-36.0	-36.9	22.6	0.00e+00	0	42	0	3509583872	42	3959
2026-01-20 14:03:07.31	356.36	35.06	-35.8	-36.6	22.7	0.00e+00	0	42	0	3516923904	42	3857
2026-01-20 14:03:08.30	356.25	34.85	-35.9	-36.7	22.7	0.00e+00	0	42	0	3524263936	42	3890
2026-01-20 14:03:09.30	356.13	34.63	-35.7	-36.5	22.8	0.00e+00	0	42	0	3530555392	42	3821
2026-01-20 14:03:10.30	356.01	34.42	-35.7	-36.5	22.9	0.00e+00	0	42	0	3537895424	42	3805
2026-01-20 14:03:11.30	355.90	34.21	-35.7	-36.5	22.8	0.00e+00	0	42	0	3545235456	42	3800
2026-01-20 14:03:12.29	355.79	34.00	-35.7	-36.5	22.9	0.00e+00	0	42	0	3552575488	42	3817
2026-01-20 14:03:13.29	355.68	33.79	-35.7	-36.5	22.7	0.00e+00	0	42	0	3559915520	42	3819
2026-01-20 14:03:14.29	355.57	33.59	-35.5	-36.4	23.0	0.00e+00	0	42	0	3567255552	41	3966
2026-01-20 14:03:15.28	355.46	33.38	-35.5	-36.3	22.9	0.00e+00	0	42	0	3573547008	41	3941
2026-01-20 14:03:16.28	355.35	33.18	-35.5	-36.4	22.9	0.00e+00	0	42	0	3580887040	41	3977
2026-01-20 14:03:17.27	355.25	32.98	-35.6	-36.4	22.9	0.00e+00	0	42	0	3588227072	41	3992
2026-01-20 14:03:18.26	355.14	32.78	-35.6	-36.4	22.9	0.00e+00	0	42	0	3595567104	41	3996
2026-01-20 14:03:19.26	355.04	32.58	-35.7	-36.5	22.8	0.00e+00	0	42	0	3602907136	41	4020
2026-01-20 14:03:20.25	354.94	32.38	-35.8	-36.6	22.7	0.00e+00	0	42	0	3610247168	41	4078
2026-01-20 14:03:21.25	354.84	32.18	-35.8	-36.6	22.7	0.00e+00	0	42	0	3617587200	41	4090
2026-01-20 14:03:22.25	354.74	31.98	-35.8	-36.6	22.7	0.00e+00	0	42	0	3624927232	41	4095
2026-01-20 14:03:23.25	354.64	31.79	-35.9	-36.7	22.6	0.00e+00	0	42	0	3631218688	41	4141
2026-01-20 14:03:24.24	354.55	31.59	-35.9	-36.7	22.6	0.00e+00	0	42	0	3638558720	41	4124
2026-01-20 14:03:25.24	354.45	31.40	-35.8	-36.6	22.8	0.00e+00	0	42	0	3645898752	41	4082
2026-01-20 14:03:26.24	354.36	31.21	-35.8	-36.6	22.7	0.00e+00	0	42	0	3653238784	41	4078
2026-01-20 14:03:27.24	354.27	31.02	-35.8	-36.6	22.8	0.00e+00	0	42	0	3660578816	41	4071
2026-01-20 14:03:28.23	354.17	30.83	-35.7	-36.5	22.9	0.00e+00	0	42	0	3667918848	41	4027
2026-01-20 14:03:29.23	354.08	30.64	-35.7	-36.5	22.8	0.00e+00	0	42	0	3674210304	41	4011
2026-01-20 14:03:30.23	353.99	30.45	-35.7	-36.6	22.8	0.00e+00	0	42	0	3681550336	41	4056
2026-01-20 14:03:31.23	353.91	30.26	-35.8	-36.6	22.8	0.00e+00	0	42	0	3688890368	41	4067
2026-01-20 14:03:32.23	353.82	30.08	-35.8	-36.7	22.7	0.00e+00	0	42	0	3696230400	41	4105
2026-01-20 14:03:33.22	353.73	29.90	-35.9	-36.8	22.6	0.00e+00	0	42	0	3703570432	41	4154
2026-01-20 14:03:34.22	353.65	29.71	-35.9	-36.8	22.6	0.00e+00	0	42	0	3710910464	41	4158
2026-01-20 14:03:35.22	353.56	29.53	-36.0	-36.9	22.5	0.00e+00	0	42	0	3718250496	41	4210
2026-01-20 14:03:36.22	353.48	29.35	-36.2	-37.1	22.3	0.00e+00	0	42	0	3725590528	41	4296
2026-01-20 14:03:37.22	353.40	29.17	-36.3	-37.2	22.3	0.00e+00	0	42	0	3732930560	42	4111
2026-01-20 14:03:38.22	353.31	28.99	-36.4	-37.3	22.2	0.00e+00	0	42	0	3739222016	42	4146
2026-01-20 14:03:39.21	353.23	28.81	-36.5	-37.4	22.1	0.00e+00	0	42	0	3746562048	42	4208
2026-01-20 14:03:40.21	353.15	28.64	-36.5	-37.4	22.1	0.00e+00	0	42	0	3753902080	42	4226
2026-01-20 14:03:41.21	353.08	28.46	-36.6	-37.5	22.1	0.00e+00	0	42	0	3761242112	42	4244
2026-01-20 14:03:42.20	353.00	28.29	-36.6	-37.5	22.0	0.00e+00	0	42	0	3768582144	42	4274
2026-01-20 14:03:43.20	352.92	28.12	-36.6	-37.5	22.1	0.00e+00	0	42	0	3775922176	42	4251
2026-01-20 14:03:44.20	352.85	27.94	-36.5	-37.3	22.2	0.00e+00	0	42	0	3783262208	42	4178
2026-01-20 14:03:45.19	352.77	27.77	-36.4	-37.3	22.2	0.00e+00	0	42	0	3790602240	42	4159
2026-01-20 14:03:46.19	352.70	27.60	-36.5	-37.3	22.1	0.00e+00	0	42	0	3796893696	42	4190
2026-01-20 14:03:47.19	352.62	27.43	-36.5	-37.3	22.1	0.00e+00	0	42	0	3804233728	42	4177
2026-01-20 14:03:48.19	352.55	27.26	-36.5	-37.3	22.2	0.00e+00	0	42	0	3811573760	42	4174
2026-01-20 14:03:49.18	352.48	27.10	-36.3	-37.2	22.3	0.00e+00	0	42	0	3818913792	42	4100
2026-01-20 14:03:50.18	352.41	26.93	-36.2	-37.0	22.4	0.00e+00	0	42	0	3826253824	42	4038
2026-01-20 14:03:51.18	352.34	26.77	-36.1	-37.0	22.4	0.00e+00	0	42	0	3833593856	42	4022
2026-01-20 14:03:52.18	352.27	26.60	-36.2	-37.0	22.3	0.00e+00	0	42	0	3839885312	42	4050
2026-01-20 14:03:53.18	352.20	26.44	-36.2	-37.0	22.4	0.00e+00	0	42	0	3847225344	42	4028
2026-01-20 14:03:54.17	352.13	26.28	-36.3	-37.2	22.3	0.00e+00	0	42	0	3854565376	42	4099
2026-01-20 14:03:55.17	352.06	26.11	-36.3	-37.1	22.3	0.00e+00	0	42	0	3861905408	42	4098
2026-01-20 14:03:56.17	352.00	25.95	-36.3	-37.2	22.2	0.00e+00	0	42	0	3869245440	42	4121
2026-01-20 14:03:57.17	351.93	25.79	-36.5	-37.4	22.0	0.00e+00	0	42	0	3876585472	42	4216
2026-01-20 14:03:58.17	351.86	25.63	-36.4	-37.3	22.1	0.00e+00	0	42	0	3883925504	42	4180
2026-01-20 14:03:59.17	351.80	25.47	-36.6	-37.5	22.0	0.00e+00	0	42	0	3891265536	42	4253
2026-01-20 14:04:00.17	351.74	25.32	-36.7	-37.5	21.9	0.00e+00	0	42	0	3898605568	42	4290
2026-01-20 14:04:01.16	351.67	25.16	-36.7	-37.6	21.9	0.00e+00	0	42	0	3904897024	42	4300
2026-01-20 14:04:02.16	351.61	25.01	-36.8	-37.6	21.8	0.00e+00	0	42	0	3912237056	42	4340
2026-01-20 14:04:03.16	351.55	24.85	-36.8	-37.6	21.8	0.00e+00	0	42	0	3919577088	43	4096
2026-01-20 14:04:04.15	351.49	24.70	-36.8	-37.6	21.9	0.00e+00	0	42	0	3926917120	43	4093
2026-01-20 14:04:05.15	351.43	24.55	-36.8	-37.7	21.8	0.00e+00	0	42	0	3934257152	43	4139
2026-01-20 14:04:06.15	351.37	24.39	-36.7	-37.6	21.9	0.00e+00	0	42	0	3941597184	43	4059
2026-01-20 14:04:07.15	351.31	24.24	-36.6	-37.5	21.8	0.00e+00	0	42	0	3948937216	43	4044
2026-01-20 14:04:08.14	351.25	24.09	-36.6	-37.5	22.0	0.00e+00	0	42	0	3956277248	43	4037
2026-01-20 14:04:09.14	351.19	23.94	-36.6	-37.5	22.0	0.00e+00	0	42	0	3962568704	43	4011
2026-01-20 14:04:10.14	351.13	23.80	-36.5	-37.4	22.1	0.00e+00	0	42	0	3969908736	43	3960
2026-01-20 14:04:11.14	351.07	23.65	-36.5	-37.4	21.9	0.00e+00	0	42	0	3977248768	43	3995
2026-01-20 14:04:12.13	351.02	23.50	-36.5	-37.4	22.0	0.00e+00	0	42	0	3984588800	43	3959
2026-01-20 14:04:13.13	350.96	23.36	-36.5	-37.4	22.0	0.00e+00	0	42	0	3991928832	43	3991
2026-01-20 14:04:14.12	350.91	23.21	-36.4	-37.2	22.2	0.00e+00	0	42	0	3999268864	43	3907
2026-01-20 14:04:15.12	350.85	23.07	-36.5	-37.4	22.0	0.00e+00	0	42	0	4005560320	43	3973
2026-01-20 14:04:16.12	350.80	22.92	-36.5	-37.4	22.1	0.00e+00	0	42	0	4012900352	43	3974
2026-01-20 14:04:17.12	350.74	22.78	-36.3	-37.1	22.3	0.00e+00	0	42	0	4020240384	43	3864
2026-01-20 14:04:18.12	350.69	22.64	-36.3	-37.2	22.2	0.00e+00	0	42	0	4027580416	43	3881
2026-01-20 14:04:19.11	350.64	22.50	-36.3	-37.1	22.3	0.00e+00	0	42	0	4034920448	43	3858
2026-01-20 14:04:20.11	350.59	22.36	-36.3	-37.2	22.2	0.00e+00	0	42	0	4042260480	43	3872
2026-01-20 14:04:21.10	350.54	22.22	-36.4	-37.2	22.2	0.00e+00	0	42	0	4049600512	43	3901
2026-01-20 14:04:22.10	350.48	22.08	-36.4	-37.3	22.2	0.00e+00	0	42	0	4056940544	43	3914
2026-01-20 14:04:23.10	350.43	21.94	-36.4	-37.2	22.2	0.00e+00	0	42	0	4064280576	43	3907
2026-01-20 14:04:24.10	350.38	21.80	-36.4	-37.2	22.1	0.00e+00	0	42	0	4070572032	43	3907
2026-01-20 14:04:25.09	350.33	21.66	-36.4	-37.3	22.1	0.00e+00	0	42	0	4077912064	43	3938
2026-01-20 14:04:26.09	350.28	21.53	-36.4	-37.3	22.1	0.00e+00	0	42	0	4085252096	43	3941
2026-01-20 14:04:27.08	350.24	21.39	-36.4	-37.3	22.1	0.00e+00	0	42	0	4092592128	43	3933
2026-01-20 14:04:28.08	350.19	21.26	-36.6	-37.5	21.7	0.00e+00	0	42	0	4099932160	43	4008
2026-01-20 14:04:29.08	350.14	21.12	-36.6	-37.4	22.0	0.00e+00	0	42	0	4106223616	43	3987
2026-01-20 14:04:30.08	350.09	20.99	-36.6	-37.5	21.9	0.00e+00	0	42	0	4113563648	43	4018
2026-01-20 14:04:31.07	350.04	20.86	-36.6	-37.5	22.0	0.00e+00	0	42	0	4120903680	43	4013
2026-01-20 14:04:32.07	350.00	20.73	-36.7	-37.5	21.8	0.00e+00	0	42	0	4128243712	43	4047
2026-01-20 14:04:33.07	349.95	20.59	-36.7	-37.6	21.8	0.00e+00	0	42	0	4135583744	43	4071
2026-01-20 14:04:34.07	349.91	20.46	-36.7	-37.5	21.9	0.00e+00	0	42	0	4142923776	43	4040
2026-01-20 14:04:35.07	349.86	20.33	-36.7	-37.6	21.8	0.00e+00	0	42	0	4150263808	43	4068
2026-01-20 14:04:36.07	349.82	20.20	-36.8	-37.6	21.8	0.00e+00	0	42	0	4157603840	43	4098
2026-01-20 14:04:37.06	349.77	20.07	-36.7	-37.6	21.8	0.00e+00	0	42	0	4164943872	43	4080
2026-01-20 14:04:38.06	349.73	19.95	-36.8	-37.7	21.8	0.00e+00	0	42	0	4171235328	43	4114
2026-01-20 14:04:39.06	349.68	19.82	-36.8	-37.7	21.7	0.00e+00	0	42	0	4178575360	43	4133
2026-01-20 14:04:40.05	349.64	19.69	-36.8	-37.7	21.7	0.00e+00	0	42	0	4185915392	43	4141
2026-01-20 14:04:41.06	349.60	19.56	-36.9	-37.8	21.7	0.00e+00	0	42	0	4193255424	43	4167
2026-01-20 14:04:42.05	349.55	19.44	-36.9	-37.8	21.6	0.00e+00	0	42	0	4200595456	43	4179
2026-01-20 14:04:43.05	349.51	19.31	-37.0	-37.9	21.6	0.00e+00	0	42	0	4207935488	43	4214
2026-01-20 14:04:44.05	349.47	19.19	-37.0	-37.9	21.6	0.00e+00	0	42	0	4215275520	43	4194
2026-01-20 14:04:45.04	349.43	19.07	-37.0	-37.9	21.6	0.00e+00	0	42	0	4222615552	43	4201
2026-01-20 14:04:46.04	349.39	18.94	-37.0	-37.9	21.5	0.00e+00	0	42	0	4229955584	43	4240
2026-01-20 14:04:47.04	349.35	18.82	-37.1	-38.0	21.4	0.00e+00	0	42	0	4236247040	43	4268
2026-01-20 14:04:48.04	349.31	18.70	-37.1	-38.0	21.4	0.00e+00	0	42	0	4243587072	43	4274
2026-01-20 14:04:49.03	349.27	18.58	-37.2	-38.1	21.2	0.00e+00	0	43	0	4250927104	43	4321
2026-01-20 14:04:50.03	349.23	18.46	-37.2	-38.1	21.4	0.00e+00	0	42	0	4258267136	43	4326
2026-01-20 14:04:51.02	349.19	18.34	-37.3	-38.2	21.2	0.00e+00	0	42	0	4265607168	43	4386
2026-01-20 14:04:52.02	349.15	18.22	-37.4	-38.4	21.3	0.00e+00	0	42	0	4271898624	44	4194
2026-01-20 14:04:53.02	349.11	18.10	-37.5	-38.5	21.1	0.00e+00	0	42	0	4279238656	44	4260
2026-01-20 14:04:54.02	349.07	17.98	-37.5	-38.5	21.2	0.00e+00	0	42	0	4286578688	44	4259
2026-01-20 14:04:55.02	349.03	17.86	-37.6	-38.6	21.1	0.00e+00	0	42	0	4293918720	44	4299
2026-01-20 14:04:56.01	349.00	17.74	-37.7	-38.7	21.0	0.00e+00	0	42	0	4301258752	44	4352
2026-01-20 14:04:57.01	348.96	17.63	-37.8	-38.7	20.9	0.00e+00	0	42	0	4308598784	45	4144
2026-01-20 14:04:58.01	348.92	17.51	-37.7	-38.7	21.0	0.00e+00	0	42	0	4315938816	45	4122
2026-01-20 14:04:59.01	348.89	17.39	-37.8	-38.8	20.9	0.00e+00	0	42	0	4323278848	45	4146
2026-01-20 14:05:00.01	348.85	17.28	-37.8	-38.8	20.9	0.00e+00	0	42	0	4330618880	45	4165
2026-01-20 14:05:01.00	348.81	17.16	-37.9	-38.8	20.8	0.00e+00	0	42	0	4336910336	45	4192
2026-01-20 14:05:02.00	348.78	17.05	-37.9	-38.9	20.8	0.00e+00	0	42	0	4344250368	45	4219
2026-01-20 14:05:03.00	348.74	16.94	-38.0	-38.9	20.7	0.00e+00	0	42	0	4351590400	45	4236
2026-01-20 14:05:04.00	348.71	16.82	-38.0	-38.9	20.7	0.00e+00	0	42	0	4358930432	45	4239
2026-01-20 14:05:04.99	348.67	16.71	-38.1	-39.1	20.6	0.00e+00	0	42	0	4366270464	45	4321
2026-01-20 14:05:05.99	348.64	16.60	-38.2	-39.1	20.5	0.00e+00	0	42	0	4373610496	45	4334
2026-01-20 14:05:06.99	348.60	16.49	-38.1	-39.0	20.6	0.00e+00	0	42	0	4380950528	45	4278
2026-01-20 14:05:07.98	348.57	16.38	-38.1	-39.1	20.6	0.00e+00	0	42	0	4387241984	45	4295
2026-01-20 14:05:08.98	348.53	16.26	-38.1	-39.1	20.6	0.00e+00	0	42	0	4394582016	45	4307
2026-01-20 14:05:09.98	348.50	16.15	-38.1	-39.1	20.4	0.00e+00	0	42	0	4401922048	45	4313
2026-01-20 14:05:10.98	348.47	16.04	-38.1	-39.1	20.6	0.00e+00	0	42	0	4409262080	45	4311
2026-01-20 14:05:11.98	348.44	15.93	-38.1	-39.1	20.6	0.00e+00	0	42	0	4416602112	45	4314
2026-01-20 14:05:12.97	348.40	15.83	-38.2	-39.2	20.5	0.00e+00	0	42	0	4423942144	45	4377
2026-01-20 14:05:13.97	348.37	15.72	-38.1	-39.1	20.5	0.00e+00	0	42	0	4431282176	45	4330
2026-01-20 14:05:14.97	348.34	15.61	-38.2	-39.2	20.5	0.00e+00	0	42	0	4437573632	45	4371
2026-01-20 14:05:15.97	348.31	15.50	-38.3	-39.3	20.4	0.00e+00	0	42	0	4444913664	46	4155
2026-01-20 14:05:16.96	348.27	15.40	-38.2	-39.2	20.5	0.00e+00	0	42	0	4452253696	46	4103
2026-01-20 14:05:17.96	348.24	15.29	-38.2	-39.2	20.5	0.00e+00	0	42	0	4459593728	46	4117
2026-01-20 14:05:18.96	348.21	15.18	-38.2	-39.2	20.5	0.00e+00	0	42	0	4466933760	46	4137
2026-01-20 14:05:19.95	348.18	15.08	-38.3	-39.2	20.4	0.00e+00	0	42	0	4474273792	46	4145
2026-01-20 14:05:20.95	348.15	14.97	-38.3	-39.2	20.4	0.00e+00	0	42	0	4481613824	46	4145
2026-01-20 14:05:21.95	348.12	14.87	-38.3	-39.3	20.4	0.00e+00	0	42	0	4488953856	46	4171
2026-01-20 14:05:22.95	348.09	14.76	-38.3	-39.3	20.4	0.00e+00	0	42	0	4496293888	46	4155
2026-01-20 14:05:23.95	348.06	14.66	-38.3	-39.3	20.3	0.00e+00	0	42	0	4502585344	46	4178
2026-01-20 14:05:24.95	348.03	14.56	-38.3	-39.3	20.4	0.00e+00	0	42	0	4509925376	46	4175
2026-01-20 14:05:25.94	348.00	14.45	-38.4	-39.4	20.3	0.00e+00	0	42	0	4517265408	46	4208
2026-01-20 14:05:26.94	347.97	14.35	-38.3	-39.4	20.3	0.00e+00	0	42	0	4524605440	46	4195
2026-01-20 14:05:27.93	347.94	14.25	-38.4	-39.4	20.3	0.00e+00	0	42	0	4531945472	46	4241
2026-01-20 14:05:28.93	347.91	14.15	-38.3	-39.4	20.3	0.00e+00	0	42	0	4538236928	46	4205
2026-01-20 14:05:29.93	347.89	14.05	-38.4	-39.5	20.2	0.00e+00	0	42	0	4545576960	46	4251
2026-01-20 14:05:30.92	347.86	13.95	-38.4	-39.5	20.1	0.00e+00	0	42	0	4552916992	46	4244
2026-01-20 14:05:31.92	347.83	13.85	-38.5	-39.6	20.1	0.00e+00	0	42	0	4560257024	46	4311
2026-01-20 14:05:32.92	347.80	13.75	-38.4	-39.5	20.2	0.00e+00	0	42	0	4567597056	46	4272
2026-01-20 14:05:33.91	347.77	13.65	-38.5	-39.5	20.1	0.00e+00	0	42	0	4574937088	46	4282
2026-01-20 14:05:34.92	347.75	13.55	-38.6	-39.7	20.0	0.00e+00	0	42	0	4582277120	46	4357
2026-01-20 14:05:35.92	347.72	13.45	-38.5	-39.5	20.1	0.00e+00	0	42	0	4589617152	46	4289
2026-01-20 14:05:36.91	347.69	13.35	-38.6	-39.7	20.0	0.00e+00	0	42	0	4596957184	46	4350
2026-01-20 14:05:37.91	347.66	13.25	-38.6	-39.6	20.0	0.00e+00	0	42	0	4603248640	46	4332
2026-01-20 14:05:38.91	347.64	13.15	-38.6	-39.7	20.0	0.00e+00	0	42	0	4610588672	46	4345
2026-01-20 14:05:39.90	347.61	13.06	-38.7	-39.7	20.0	0.00e+00	0	42	0	4617928704	46	4361
2026-01-20 14:05:40.91	347.59	12.96	-38.6	-39.6	20.0	0.00e+00	0	42	0	4625268736	46	4337
2026-01-20 14:05:41.92	347.56	12.86	-38.8	-39.8	19.9	0.00e+00	0	42	0	4632608768	46	4399
2026-01-20 14:05:42.91	347.53	12.77	-38.7	-39.8	19.9	0.00e+00	0	42	0	4639948800	47	4152
2026-01-20 14:05:43.91	347.51	12.67	-38.8	-39.8	19.8	0.00e+00	0	42	0	4647288832	47	4160
2026-01-20 14:05:44.91	347.48	12.57	-38.8	-39.8	19.8	0.00e+00	0	42	0	4654628864	47	4168
2026-01-20 14:05:45.90	347.46	12.48	-38.8	-39.8	19.8	0.00e+00	0	42	0	4661968896	47	4191
2026-01-20 14:05:46.91	347.43	12.38	-38.9	-40.0	19.6	0.00e+00	0	42	0	4668260352	47	4259
2026-01-20 14:05:47.90	347.41	12.29	-38.8	-39.9	19.8	0.00e+00	0	42	0	4675600384	47	4203
2026-01-20 14:05:48.90	347.38	12.20	-38.9	-40.0	19.6	0.00e+00	0	42	0	4682940416	47	4282
