passes_logs/2026/01/29/XPeterburg/XPeterburg__20260129_043720_FENGYUN_3E_rec.log

#Pass ID: 20260129_043720_FENGYUN 3E
#Satellite: FENGYUN 3E
#Configuration: FENGYUN 3E
#Start time: 2026-01-29 04:37:14

#Version: 1.5.20200625
#Station: XPeterburg
#Location: 30.318091 lon 59.932769 lat
#TLE: 1 49008U 21062A   26027.83084825  .00000170  00000+0  10081-3 0  9997
#TLE: 2 49008  98.7501  32.8098 0002509 114.2687 245.8752 14.19888158236667

#Time	Az	El	Level	Level2	SNR	BER	Gain	Gain2
2026-01-29 04:37:14.18	30.95	67.66	-37.3	-39.0	3.3	8384170	93	5969
2026-01-29 04:37:14.38	31.01	67.75	-37.1	-45.5	3.6	8213069	82	12947
2026-01-29 04:37:14.58	31.07	67.84	-37.4	-40.7	3.5	8454391	92	7227
2026-01-29 04:37:14.78	31.12	67.93	-37.4	-39.9	3.4	8377475	92	6518
2026-01-29 04:37:14.98	31.18	68.02	-37.4	-39.8	3.3	8397319	92	6440
2026-01-29 04:37:15.18	31.24	68.11	-37.4	-41.2	3.6	8348819	92	7619
2026-01-29 04:37:15.38	31.30	68.19	-37.4	-41.0	3.6	8447948	92	7477
2026-01-29 04:37:15.59	31.36	68.29	-37.3	-39.7	3.4	8447948	92	6487
2026-01-29 04:37:15.79	31.42	68.38	-37.2	-39.1	3.3	8413867	92	6130
2026-01-29 04:37:15.99	31.48	68.47	-37.1	-40.1	3.6	8389698	92	6977
2026-01-29 04:37:16.19	31.54	68.56	-36.9	-39.6	3.6	8413627	92	6672
2026-01-29 04:37:16.39	31.60	68.65	-36.7	-38.4	3.4	8444423	91	5963
2026-01-29 04:37:16.59	31.67	68.73	-36.5	-37.4	3.4	8413570	91	5432
2026-01-29 04:37:16.79	31.73	68.82	-35.9	-36.3	3.5	8396484	90	5145
2026-01-29 04:37:16.99	31.79	68.91	-35.5	-36.9	3.8	8395408	89	5785
2026-01-29 04:37:17.19	31.86	69.00	-35.0	-35.6	4.5	8196235	88	5228
2026-01-29 04:37:17.40	31.93	69.10	-34.4	-34.0	5.0	8196235	87	4678
2026-01-29 04:37:17.60	31.99	69.19	-33.9	-33.8	5.4	7813167	85	4882
2026-01-29 04:37:17.80	32.06	69.28	-33.5	-33.0	5.8	6875656	85	4624
2026-01-29 04:37:18.00	32.12	69.37	-32.7	-32.2	6.8	3486614	83	4643
2026-01-29 04:37:18.20	32.19	69.46	-32.3	-31.8	7.5	1943664	82	4671
2026-01-29 04:37:18.40	32.26	69.55	-31.7	-31.1	8.3	961292	81	4595
2026-01-29 04:37:18.60	32.33	69.64	-31.2	-30.6	9.0	464939	80	4614
2026-01-29 04:37:18.80	32.40	69.73	-30.5	-29.6	9.7	205455	79	4478
2026-01-29 04:37:19.00	32.46	69.82	-30.0	-29.2	10.3	205455	78	4485
2026-01-29 04:37:19.20	32.53	69.91	-29.4	-28.5	11.0	79387	77	4450
2026-01-29 04:37:19.40	32.61	70.00	-29.0	-28.2	11.6	29731	76	4486
2026-01-29 04:37:19.61	32.68	70.09	-28.4	-27.4	12.1	9681	75	4398
2026-01-29 04:37:19.81	32.75	70.18	-27.9	-27.1	12.7	3490	74	4449
2026-01-29 04:37:20.01	32.83	70.27	-27.4	-26.5	13.1	1075	73	4405
2026-01-29 04:37:20.21	32.90	70.36	-27.1	-26.4	13.5	228	72	4520
2026-01-29 04:37:20.41	32.97	70.45	-26.8	-25.8	13.9	57	72	4372
2026-01-29 04:37:20.61	33.05	70.54	-26.4	-25.4	14.2	57	71	4374
2026-01-29 04:37:20.81	33.13	70.63	-26.3	-25.6	14.4	0	70	4574
2026-01-29 04:37:21.01	33.20	70.73	-26.0	-25.2	14.6	0	70	4451
2026-01-29 04:37:21.21	33.28	70.82	-26.0	-25.0	14.7	11	70	4395
2026-01-29 04:37:21.42	33.36	70.91	-26.0	-25.0	14.7	0	70	4419
2026-01-29 04:37:21.62	33.44	71.00	-26.1	-25.2	14.7	0	70	4458
2026-01-29 04:37:21.82	33.52	71.09	-26.1	-25.3	14.6	11	70	4494
2026-01-29 04:37:22.02	33.60	71.18	-26.2	-25.4	14.5	11	70	4502
2026-01-29 04:37:22.22	33.68	71.28	-26.0	-25.1	14.6	11	70	4427
2026-01-29 04:37:22.42	33.77	71.37	-25.8	-24.7	15.0	0	70	4312
2026-01-29 04:37:22.62	33.85	71.46	-26.3	-25.2	14.0	11	71	4336
2026-01-29 04:37:22.82	33.93	71.55	-26.5	-26.1	14.3	11	70	4718
2026-01-29 04:37:23.03	34.02	71.64	-26.7	-26.5	14.0	34	70	4818
2026-01-29 04:37:23.23	34.11	71.74	-26.6	-26.4	14.1	22	70	4786
2026-01-29 04:37:23.43	34.20	71.83	-26.7	-26.6	14.1	0	70	4834
2026-01-29 04:37:23.63	34.28	71.92	-26.9	-27.0	13.9	34	70	4964
2026-01-29 04:37:23.83	34.37	72.01	-26.9	-27.0	13.9	34	70	4981
2026-01-29 04:37:24.03	34.46	72.10	-26.8	-26.8	14.0	11	70	4927
2026-01-29 04:37:24.23	34.55	72.19	-26.8	-26.9	14.0	22	70	4947
2026-01-29 04:37:24.43	34.64	72.28	-26.9	-27.0	13.8	22	70	4960
2026-01-29 04:37:24.64	34.74	72.38	-26.8	-26.7	13.9	80	70	4882
2026-01-29 04:37:24.84	34.83	72.47	-26.9	-27.0	13.7	45	70	4961
2026-01-29 04:37:25.04	34.93	72.56	-26.9	-27.0	13.8	57	70	4971
2026-01-29 04:37:25.24	35.03	72.65	-27.0	-27.2	13.7	11	70	5057
2026-01-29 04:37:25.44	35.12	72.75	-26.9	-26.4	13.7	45	71	4665
2026-01-29 04:37:25.64	35.22	72.84	-26.8	-26.3	13.8	45	71	4638
2026-01-29 04:37:25.84	35.32	72.93	-26.8	-26.3	13.7	57	71	4633
2026-01-29 04:37:26.04	35.42	73.02	-26.9	-26.4	13.7	22	71	4640
2026-01-29 04:37:26.24	35.52	73.11	-26.9	-26.5	13.6	22	71	4699
2026-01-29 04:37:26.45	35.63	73.21	-26.7	-26.1	13.8	114	71	4584
2026-01-29 04:37:26.65	35.73	73.30	-26.8	-26.2	13.6	80	71	4589
2026-01-29 04:37:26.85	35.84	73.39	-26.8	-26.3	13.6	68	71	4613
2026-01-29 04:37:27.05	35.94	73.48	-26.6	-25.9	13.8	114	71	4521
2026-01-29 04:37:27.25	36.05	73.58	-26.6	-25.8	13.8	57	71	4522
2026-01-29 04:37:27.45	36.16	73.67	-26.4	-25.6	13.9	57	71	4452
2026-01-29 04:37:27.65	36.27	73.76	-26.4	-25.6	13.9	102	71	4456
2026-01-29 04:37:27.85	36.38	73.85	-26.6	-25.9	13.7	102	71	4537
2026-01-29 04:37:28.06	36.50	73.95	-26.3	-25.8	14.1	68	70	4653
2026-01-29 04:37:28.26	36.61	74.04	-26.5	-26.1	14.1	34	70	4686
2026-01-29 04:37:28.46	36.72	74.13	-26.3	-25.6	14.2	11	70	4550
2026-01-29 04:37:28.66	36.84	74.22	-26.3	-25.7	14.2	34	70	4581
2026-01-29 04:37:28.86	36.96	74.31	-26.4	-25.8	14.2	45	70	4608
2026-01-29 04:37:29.06	37.08	74.41	-26.4	-25.8	14.2	22	70	4607
2026-01-29 04:37:29.26	37.20	74.50	-26.4	-25.8	14.2	0	70	4596
2026-01-29 04:37:29.46	37.32	74.59	-26.3	-25.7	14.2	0	70	4570
2026-01-29 04:37:29.66	37.45	74.68	-26.4	-25.8	14.2	11	70	4588
2026-01-29 04:37:29.86	37.57	74.77	-26.3	-25.7	14.2	22	70	4578
2026-01-29 04:37:30.07	37.70	74.87	-26.4	-25.8	14.2	34	70	4613
2026-01-29 04:37:30.27	37.83	74.96	-26.5	-26.0	14.0	34	70	4651
2026-01-29 04:37:30.47	37.96	75.05	-26.6	-26.3	13.9	22	70	4750
2026-01-29 04:37:30.67	38.10	75.15	-26.7	-26.5	13.8	68	70	4798
2026-01-29 04:37:30.87	38.23	75.24	-26.6	-26.3	13.9	114	70	4728
2026-01-29 04:37:31.07	38.36	75.33	-26.7	-26.4	13.9	102	70	4778
2026-01-29 04:37:31.27	38.50	75.42	-26.7	-26.6	13.8	11	70	4826
2026-01-29 04:37:31.47	38.64	75.51	-26.7	-26.6	13.9	34	70	4860
2026-01-29 04:37:31.68	38.79	75.61	-26.5	-26.2	14.1	34	70	4753
2026-01-29 04:37:31.88	38.93	75.70	-26.6	-26.4	14.1	22	70	4810
2026-01-29 04:37:32.08	39.08	75.79	-26.6	-26.3	14.2	68	70	4775
2026-01-29 04:37:32.28	39.22	75.89	-26.4	-26.1	14.4	0	70	4718
2026-01-29 04:37:32.48	39.37	75.98	-26.6	-26.3	14.2	0	70	4789
2026-01-29 04:37:32.68	39.52	76.07	-26.5	-26.1	14.4	0	70	4702
2026-01-29 04:37:32.88	39.67	76.16	-26.4	-26.0	14.5	0	70	4691
2026-01-29 04:37:33.08	39.83	76.25	-26.7	-26.6	14.2	11	70	4865
2026-01-29 04:37:33.28	39.99	76.34	-26.3	-25.8	14.7	11	70	4639
2026-01-29 04:37:33.49	40.15	76.44	-26.5	-26.2	14.5	0	70	4757
2026-01-29 04:37:33.69	40.31	76.53	-26.3	-25.8	14.7	0	70	4653
2026-01-29 04:37:33.89	40.48	76.62	-26.4	-25.9	14.7	0	70	4670
2026-01-29 04:37:34.09	40.64	76.71	-26.3	-25.8	14.8	0	70	4638
2026-01-29 04:37:34.29	40.81	76.81	-26.4	-25.9	14.7	11	70	4638
2026-01-29 04:37:34.49	40.98	76.90	-26.3	-25.7	14.8	0	70	4603
2026-01-29 04:37:34.69	41.16	76.99	-26.3	-25.7	14.9	0	70	4588
2026-01-29 04:37:34.89	41.33	77.08	-26.2	-25.6	14.9	0	70	4561
2026-01-29 04:37:35.10	41.52	77.17	-26.3	-25.6	14.9	0	70	4571
2026-01-29 04:37:35.30	41.70	77.27	-26.3	-25.6	14.9	0	70	4577
2026-01-29 04:37:35.50	41.88	77.36	-26.3	-25.7	14.9	0	70	4595
2026-01-29 04:37:35.70	42.07	77.45	-26.2	-25.4	15.0	0	70	4524
2026-01-29 04:37:35.90	42.26	77.54	-26.2	-25.5	15.0	0	70	4548
2026-01-29 04:37:36.10	42.45	77.63	-26.3	-25.7	14.9	0	70	4606
2026-01-29 04:37:36.30	42.64	77.72	-26.3	-25.6	15.0	0	70	4588
2026-01-29 04:37:36.50	42.84	77.81	-26.2	-25.6	15.0	0	70	4574
2026-01-29 04:37:36.70	43.04	77.90	-26.1	-25.4	15.0	0	70	4528
2026-01-29 04:37:36.91	43.26	78.00	-26.3	-25.7	14.9	0	70	4586
2026-01-29 04:37:37.11	43.46	78.09	-26.1	-25.3	15.1	0	70	4503
2026-01-29 04:37:37.31	43.68	78.18	-26.1	-25.3	15.0	0	70	4508
2026-01-29 04:37:37.51	43.89	78.27	-26.0	-25.2	15.1	0	70	4489
2026-01-29 04:37:37.71	44.11	78.36	-26.0	-25.2	15.1	0	70	4494
2026-01-29 04:37:37.91	44.33	78.45	-26.0	-25.3	15.0	0	70	4534
2026-01-29 04:37:38.11	44.55	78.54	-25.7	-25.3	15.2	0	69	4649
2026-01-29 04:37:38.31	44.78	78.62	-25.8	-25.3	15.1	0	69	4657
2026-01-29 04:37:38.51	45.01	78.71	-25.6	-24.9	15.4	0	69	4550
2026-01-29 04:37:38.72	45.26	78.81	-25.5	-24.7	15.5	0	69	4480
2026-01-29 04:37:38.92	45.50	78.90	-25.5	-24.7	15.3	0	69	4488
2026-01-29 04:37:39.12	45.74	78.99	-25.4	-24.9	15.5	0	68	4642
2026-01-29 04:37:39.32	45.99	79.08	-25.5	-25.2	15.4	0	68	4716
2026-01-29 04:37:39.52	46.24	79.16	-25.5	-25.0	15.4	0	68	4673
2026-01-29 04:37:39.72	46.49	79.25	-25.4	-24.9	15.5	0	68	4627
2026-01-29 04:37:39.92	46.75	79.34	-25.4	-24.8	15.6	0	68	4594
2026-01-29 04:37:40.12	47.02	79.43	-25.5	-24.9	15.5	0	68	4639
2026-01-29 04:37:40.32	47.29	79.52	-25.5	-25.0	15.4	11	68	4649
2026-01-29 04:37:40.52	47.56	79.60	-25.5	-25.0	15.4	11	68	4660
2026-01-29 04:37:40.73	47.85	79.70	-25.5	-25.0	15.4	0	68	4662
2026-01-29 04:37:40.93	48.13	79.78	-25.4	-24.9	15.5	0	68	4617
2026-01-29 04:37:41.13	48.42	79.87	-25.6	-25.3	15.3	11	68	4735
2026-01-29 04:37:41.33	48.72	79.96	-25.5	-25.1	15.4	0	68	4679
2026-01-29 04:37:41.53	49.01	80.05	-25.4	-24.9	15.5	0	68	4634
2026-01-29 04:37:41.73	49.32	80.13	-25.6	-25.2	15.4	0	68	4706
2026-01-29 04:37:41.93	49.63	80.22	-25.5	-25.0	15.5	0	68	4667
2026-01-29 04:37:42.13	49.94	80.30	-25.4	-24.7	15.7	0	68	4586
2026-01-29 04:37:42.33	50.26	80.39	-25.4	-24.9	15.6	0	68	4640
2026-01-29 04:37:42.54	50.60	80.48	-25.3	-24.7	15.8	0	68	4561
2026-01-29 04:37:42.74	50.94	80.57	-25.3	-24.6	15.8	0	68	4551
2026-01-29 04:37:42.94	51.28	80.65	-25.2	-24.5	15.9	0	68	4524
2026-01-29 04:37:43.14	51.62	80.74	-25.0	-24.1	16.1	0	68	4423
2026-01-29 04:37:43.34	51.97	80.82	-25.3	-24.7	15.8	0	68	4568
2026-01-29 04:37:43.54	52.33	80.90	-25.1	-24.1	16.0	0	68	4423
2026-01-29 04:37:43.74	52.70	80.99	-25.1	-24.2	16.0	0	68	4449
2026-01-29 04:37:43.94	53.07	81.07	-25.0	-24.0	16.1	0	68	4403
2026-01-29 04:37:44.15	53.47	81.16	-25.2	-24.4	15.9	0	68	4496
2026-01-29 04:37:44.35	53.85	81.24	-25.2	-24.4	15.9	0	68	4509
2026-01-29 04:37:44.55	54.25	81.32	-25.1	-24.2	16.0	0	68	4435
2026-01-29 04:37:44.75	54.65	81.40	-25.1	-24.3	15.9	0	68	4472
2026-01-29 04:37:44.95	55.06	81.49	-25.1	-24.2	16.0	0	68	4437
2026-01-29 04:37:45.15	55.47	81.57	-25.0	-24.0	16.1	0	68	4400
2026-01-29 04:37:45.35	55.90	81.65	-25.0	-24.1	16.0	0	68	4423
2026-01-29 04:37:45.55	56.33	81.73	-24.9	-23.8	16.1	0	68	4342
2026-01-29 04:37:45.75	56.77	81.81	-24.9	-23.9	16.1	0	68	4370
2026-01-29 04:37:45.95	57.23	81.89	-24.9	-23.9	16.1	0	68	4368
2026-01-29 04:37:46.16	57.71	81.97	-24.9	-23.7	16.2	0	68	4331
2026-01-29 04:37:46.36	58.18	82.05	-24.9	-23.8	16.2	0	68	4353
2026-01-29 04:37:46.56	58.66	82.13	-24.9	-23.8	16.2	0	68	4333
2026-01-29 04:37:46.76	59.15	82.20	-24.6	-23.7	16.3	0	67	4437
2026-01-29 04:37:46.96	59.65	82.28	-24.5	-23.6	16.3	0	67	4410
2026-01-29 04:37:47.16	60.15	82.36	-24.4	-23.3	16.5	0	67	4347
2026-01-29 04:37:47.36	60.67	82.43	-24.4	-23.4	16.4	0	67	4374
2026-01-29 04:37:47.56	61.20	82.51	-24.5	-24.0	16.4	0	66	4656
2026-01-29 04:37:47.76	61.74	82.58	-24.5	-24.0	16.5	0	66	4652
2026-01-29 04:37:47.97	62.32	82.66	-24.4	-23.8	16.5	0	66	4611
2026-01-29 04:37:48.17	62.89	82.73	-24.4	-23.8	16.5	0	66	4595
2026-01-29 04:37:48.37	63.46	82.81	-24.4	-23.8	16.5	0	66	4595
2026-01-29 04:37:48.57	64.05	82.88	-24.3	-23.7	16.6	0	66	4569
2026-01-29 04:37:48.77	64.64	82.95	-24.3	-23.7	16.6	0	66	4564
2026-01-29 04:37:48.97	65.25	83.02	-24.2	-23.5	16.7	0	66	4507
2026-01-29 04:37:49.17	65.88	83.09	-24.2	-23.3	16.8	0	66	4480
2026-01-29 04:37:49.37	66.51	83.16	-24.1	-23.2	16.8	0	66	4440
2026-01-29 04:37:49.57	67.16	83.22	-24.2	-23.4	16.7	0	66	4483
2026-01-29 04:37:49.77	67.82	83.29	-24.1	-23.1	16.9	0	66	4422
2026-01-29 04:37:49.98	68.53	83.36	-24.1	-23.1	16.9	0	66	4414
2026-01-29 04:37:50.18	69.22	83.43	-24.0	-23.0	16.9	0	66	4396
2026-01-29 04:37:50.38	69.92	83.49	-24.1	-23.1	16.8	0	66	4425
2026-01-29 04:37:50.58	70.64	83.55	-24.0	-23.0	17.0	0	66	4401
2026-01-29 04:37:50.78	71.37	83.61	-24.0	-23.0	17.0	0	66	4393
2026-01-29 04:37:50.98	72.12	83.68	-24.0	-23.0	17.0	0	66	4382
2026-01-29 04:37:51.18	72.88	83.74	-24.0	-22.9	17.0	0	66	4373
2026-01-29 04:37:51.38	73.65	83.79	-24.1	-23.3	16.8	0	66	4460
2026-01-29 04:37:51.58	74.44	83.85	-24.0	-23.1	16.9	0	66	4403
2026-01-29 04:37:51.79	75.29	83.91	-24.1	-23.3	16.8	0	66	4462
2026-01-29 04:37:51.99	76.11	83.97	-24.1	-23.2	16.9	0	66	4445
2026-01-29 04:37:52.19	76.94	84.02	-24.2	-23.5	16.8	0	66	4507
2026-01-29 04:37:52.39	77.79	84.07	-24.2	-23.5	16.8	0	66	4527
2026-01-29 04:37:52.59	78.66	84.13	-24.3	-23.5	16.8	0	66	4536
2026-01-29 04:37:52.79	79.54	84.18	-24.3	-23.5	16.7	0	66	4528
2026-01-29 04:37:52.99	80.43	84.23	-24.4	-23.8	16.6	0	66	4616
2026-01-29 04:37:53.20	81.39	84.27	-24.4	-23.8	16.6	0	66	4619
2026-01-29 04:37:53.40	82.32	84.32	-24.3	-23.7	16.6	0	66	4580
2026-01-29 04:37:53.60	83.26	84.37	-24.5	-24.0	16.6	0	66	4665
2026-01-29 04:37:53.80	84.21	84.41	-24.4	-23.9	16.6	0	66	4632
2026-01-29 04:37:54.00	85.18	84.45	-24.4	-23.9	16.6	0	66	4617
2026-01-29 04:37:54.20	86.17	84.49	-24.4	-23.8	16.7	0	66	4618
2026-01-29 04:37:54.40	87.17	84.53	-24.4	-23.9	16.6	0	66	4622
2026-01-29 04:37:54.60	88.18	84.56	-24.4	-23.9	16.6	0	66	4630
2026-01-29 04:37:54.80	89.21	84.60	-24.4	-23.8	16.7	0	66	4603
2026-01-29 04:37:55.01	90.30	84.63	-24.4	-23.8	16.7	0	66	4601
2026-01-29 04:37:55.21	91.35	84.66	-24.4	-23.8	16.7	0	66	4610
2026-01-29 04:37:55.41	92.42	84.69	-24.3	-23.6	16.7	0	66	4555
2026-01-29 04:37:55.61	93.49	84.72	-24.2	-23.5	16.8	0	66	4529
2026-01-29 04:37:55.81	94.58	84.75	-24.3	-23.7	16.8	0	66	4581
2026-01-29 04:37:56.01	95.68	84.77	-24.3	-23.6	16.8	0	66	4547
2026-01-29 04:37:56.21	96.78	84.79	-24.4	-23.8	16.7	0	66	4602
2026-01-29 04:37:56.41	97.90	84.81	-24.3	-23.7	16.8	0	66	4589
2026-01-29 04:37:56.61	99.02	84.83	-24.3	-23.7	16.8	0	66	4584
2026-01-29 04:37:56.82	100.21	84.85	-24.4	-23.7	16.8	0	66	4584
2026-01-29 04:37:57.02	101.35	84.86	-24.3	-23.7	16.8	0	66	4593
2026-01-29 04:37:57.22	102.49	84.87	-24.4	-23.8	16.8	0	66	4595
2026-01-29 04:37:57.42	103.64	84.88	-24.5	-24.0	16.7	0	66	4659
2026-01-29 04:37:57.62	104.79	84.89	-24.5	-24.0	16.7	0	66	4659
2026-01-29 04:37:57.82	105.95	84.89	-24.6	-24.3	16.5	0	66	4733
2026-01-29 04:37:58.02	107.11	84.90	-24.2	-23.5	16.9	0	66	4523
2026-01-29 04:37:58.23	108.32	84.90	-24.4	-23.9	16.7	0	66	4642
2026-01-29 04:37:58.43	109.48	84.90	-24.4	-23.9	16.7	0	66	4640
2026-01-29 04:37:58.63	110.64	84.89	-24.4	-23.8	16.8	0	66	4596
2026-01-29 04:37:58.83	111.80	84.89	-24.3	-23.7	16.8	0	66	4578
2026-01-29 04:37:59.03	112.95	84.88	-24.4	-23.8	16.8	0	66	4604
2026-01-29 04:37:59.23	114.10	84.87	-24.3	-23.7	16.8	0	66	4581
2026-01-29 04:37:59.43	115.24	84.86	-24.2	-23.5	17.0	0	66	4527
2026-01-29 04:37:59.63	116.38	84.85	-24.2	-23.4	17.0	0	66	4496
2026-01-29 04:37:59.83	117.52	84.83	-24.2	-23.5	17.0	0	66	4524
2026-01-29 04:38:00.03	118.64	84.82	-24.3	-23.6	17.0	0	66	4541
2026-01-29 04:38:00.24	119.82	84.80	-24.0	-23.0	17.2	0	66	4402
2026-01-29 04:38:00.44	120.93	84.78	-23.9	-22.9	17.2	0	66	4377
2026-01-29 04:38:00.64	122.03	84.75	-24.1	-23.2	17.1	0	66	4444
2026-01-29 04:38:00.84	123.12	84.73	-24.0	-23.1	17.2	0	66	4417
2026-01-29 04:38:01.04	124.20	84.70	-24.0	-23.0	17.3	0	66	4385
2026-01-29 04:38:01.24	125.27	84.67	-23.9	-22.9	17.3	0	66	4371
2026-01-29 04:38:01.44	126.32	84.64	-24.0	-22.9	17.2	0	66	4377
2026-01-29 04:38:01.64	127.37	84.61	-24.0	-23.1	17.2	0	66	4422
2026-01-29 04:38:01.85	128.45	84.57	-24.2	-23.3	17.1	0	66	4479
2026-01-29 04:38:02.05	129.46	84.54	-24.2	-23.5	17.0	0	66	4533
2026-01-29 04:38:02.25	130.47	84.50	-24.3	-23.7	16.9	0	66	4573
2026-01-29 04:38:02.45	131.46	84.46	-24.3	-23.7	16.9	0	66	4574
2026-01-29 04:38:02.65	132.43	84.42	-24.5	-24.1	16.7	0	66	4686
2026-01-29 04:38:02.85	133.39	84.38	-24.6	-24.3	16.6	0	66	4729
2026-01-29 04:38:03.05	134.34	84.33	-24.7	-24.4	16.5	0	66	4755
2026-01-29 04:38:03.25	135.27	84.29	-24.8	-24.6	16.4	0	66	4833
2026-01-29 04:38:03.45	136.19	84.24	-25.0	-25.0	16.3	0	66	4928
2026-01-29 04:38:03.66	137.13	84.19	-24.8	-24.7	16.4	0	66	4858
2026-01-29 04:38:03.86	138.02	84.14	-24.9	-24.9	16.3	0	66	4909
2026-01-29 04:38:04.06	138.89	84.09	-24.9	-24.9	16.3	0	66	4918
2026-01-29 04:38:04.26	139.74	84.04	-25.1	-24.7	16.0	0	67	4738
2026-01-29 04:38:04.46	140.58	83.98	-25.1	-24.9	15.9	0	67	4768
2026-01-29 04:38:04.66	141.41	83.93	-25.0	-24.5	16.1	0	67	4679
2026-01-29 04:38:04.86	142.21	83.87	-25.2	-24.9	16.0	0	67	4779
2026-01-29 04:38:05.06	143.01	83.81	-25.2	-25.0	15.9	0	67	4811
2026-01-29 04:38:05.26	143.79	83.76	-25.2	-25.1	15.9	0	67	4834
2026-01-29 04:38:05.47	144.59	83.69	-25.3	-25.2	15.8	0	67	4880
2026-01-29 04:38:05.67	145.34	83.63	-25.3	-25.2	15.8	0	67	4870
2026-01-29 04:38:05.87	146.08	83.57	-25.2	-25.1	15.9	0	67	4830
2026-01-29 04:38:06.07	146.80	83.51	-25.2	-25.1	15.9	0	67	4833
2026-01-29 04:38:06.27	147.50	83.44	-25.1	-24.8	16.0	0	67	4760
2026-01-29 04:38:06.47	148.20	83.38	-25.1	-24.8	16.1	0	67	4736
2026-01-29 04:38:06.67	148.88	83.31	-25.0	-24.6	16.1	0	67	4697
2026-01-29 04:38:06.87	149.54	83.25	-25.0	-24.5	16.2	0	67	4654
2026-01-29 04:38:07.07	150.20	83.18	-24.8	-24.2	16.3	0	67	4587
2026-01-29 04:38:07.28	150.87	83.11	-24.8	-24.3	16.3	0	67	4604
2026-01-29 04:38:07.48	151.49	83.04	-24.8	-24.3	16.3	0	67	4600
2026-01-29 04:38:07.68	152.11	82.97	-24.7	-24.0	16.4	0	67	4528
2026-01-29 04:38:07.88	152.71	82.90	-24.8	-24.1	16.4	0	67	4559
2026-01-29 04:38:08.08	153.30	82.82	-24.8	-24.1	16.4	0	67	4561
2026-01-29 04:38:08.28	153.88	82.75	-24.7	-24.0	16.4	0	67	4519
2026-01-29 04:38:08.48	154.44	82.68	-24.8	-24.2	16.3	0	67	4576
2026-01-29 04:38:08.68	155.00	82.61	-24.9	-24.4	16.2	0	67	4637
2026-01-29 04:38:08.88	155.54	82.53	-24.9	-24.2	16.3	0	67	4587
2026-01-29 04:38:09.08	156.08	82.46	-24.9	-24.4	16.2	0	67	4633
2026-01-29 04:38:09.28	156.60	82.38	-25.0	-24.6	16.1	0	67	4689
2026-01-29 04:38:09.49	157.14	82.30	-25.1	-24.7	16.0	0	67	4707
2026-01-29 04:38:09.69	157.64	82.22	-25.2	-24.9	16.0	0	67	4759
2026-01-29 04:38:09.89	158.13	82.15	-25.1	-24.8	16.0	0	67	4751
2026-01-29 04:38:10.09	158.61	82.07	-25.3	-25.1	15.8	0	67	4838
2026-01-29 04:38:10.29	159.09	81.99	-25.2	-24.9	15.9	0	67	4761
2026-01-29 04:38:10.49	159.55	81.91	-25.2	-25.0	15.8	0	67	4789
2026-01-29 04:38:10.69	160.00	81.83	-25.3	-25.1	15.8	0	67	4827
2026-01-29 04:38:10.89	160.45	81.75	-25.2	-25.0	15.8	0	67	4796
2026-01-29 04:38:11.10	160.91	81.67	-25.2	-24.9	15.8	0	67	4757
2026-01-29 04:38:11.30	161.33	81.59	-25.1	-24.8	15.9	0	67	4725
2026-01-29 04:38:11.50	161.75	81.51	-25.0	-24.5	15.9	0	67	4659
2026-01-29 04:38:11.70	162.17	81.43	-25.1	-24.7	15.8	0	67	4705
2026-01-29 04:38:11.90	162.57	81.34	-25.1	-24.7	15.9	0	67	4716
2026-01-29 04:38:12.10	162.97	81.26	-25.2	-25.0	15.7	0	67	4780
2026-01-29 04:38:12.30	163.35	81.18	-25.1	-24.8	15.7	0	67	4726
2026-01-29 04:38:12.50	163.73	81.10	-25.1	-24.8	15.8	0	67	4731
2026-01-29 04:38:12.70	164.11	81.01	-25.1	-24.7	15.8	0	67	4711
2026-01-29 04:38:12.90	164.48	80.93	-25.1	-24.7	15.8	0	67	4708
2026-01-29 04:38:13.11	164.85	80.84	-25.1	-24.6	15.7	0	67	4695
2026-01-29 04:38:13.31	165.21	80.76	-25.0	-24.5	15.8	0	67	4668
2026-01-29 04:38:13.51	165.55	80.67	-25.1	-24.7	15.7	0	67	4711
2026-01-29 04:38:13.71	165.90	80.59	-25.0	-24.6	15.8	0	67	4690
2026-01-29 04:38:13.91	166.23	80.50	-25.0	-24.5	15.8	0	67	4672
2026-01-29 04:38:14.11	166.56	80.42	-25.0	-24.5	15.8	0	67	4677
2026-01-29 04:38:14.31	166.88	80.33	-24.9	-24.4	15.8	0	67	4648
2026-01-29 04:38:14.52	167.21	80.24	-24.9	-24.4	15.9	0	67	4625
2026-01-29 04:38:14.72	167.52	80.15	-24.9	-24.4	15.8	0	67	4634
2026-01-29 04:38:14.92	167.83	80.07	-25.0	-24.6	15.8	0	67	4689
2026-01-29 04:38:15.12	168.13	79.98	-25.0	-24.7	15.7	0	67	4710
2026-01-29 04:38:15.32	168.42	79.89	-25.0	-24.5	15.7	0	67	4662
2026-01-29 04:38:15.52	168.71	79.81	-25.0	-24.5	15.8	0	67	4666
2026-01-29 04:38:15.72	169.00	79.72	-25.0	-24.6	15.7	0	67	4698
2026-01-29 04:38:15.92	169.28	79.63	-25.1	-24.8	15.6	0	67	4731
2026-01-29 04:38:16.12	169.55	79.54	-25.3	-25.2	15.5	0	67	4855
2026-01-29 04:38:16.33	169.84	79.45	-25.2	-25.0	15.5	0	67	4786
2026-01-29 04:38:16.53	170.10	79.36	-25.4	-25.3	15.4	0	67	4889
2026-01-29 04:38:16.73	170.36	79.27	-25.2	-25.0	15.5	0	67	4814
2026-01-29 04:38:16.93	170.62	79.18	-25.3	-25.2	15.4	0	67	4846
2026-01-29 04:38:17.13	170.87	79.10	-25.8	-25.6	15.2	0	68	4837
2026-01-29 04:38:17.33	171.12	79.01	-25.6	-25.4	15.3	0	68	4768
2026-01-29 04:38:17.53	171.36	78.92	-25.6	-25.3	15.3	0	68	4760
2026-01-29 04:38:17.73	171.61	78.83	-25.7	-25.5	15.2	0	68	4815
2026-01-29 04:38:17.94	171.85	78.73	-25.5	-25.2	15.4	0	68	4719
2026-01-29 04:38:18.14	172.09	78.65	-25.5	-25.1	15.4	11	68	4691
2026-01-29 04:38:18.34	172.31	78.56	-25.7	-25.5	15.2	0	68	4794
2026-01-29 04:38:18.54	172.54	78.47	-25.5	-25.2	15.3	11	68	4726
2026-01-29 04:38:18.74	172.76	78.38	-25.6	-25.3	15.3	0	68	4751
2026-01-29 04:38:18.94	172.98	78.29	-25.6	-25.3	15.3	0	68	4742
2026-01-29 04:38:19.14	173.19	78.20	-25.7	-25.5	15.2	0	68	4822
2026-01-29 04:38:19.34	173.41	78.11	-25.6	-25.4	15.3	0	68	4766
2026-01-29 04:38:19.54	173.61	78.02	-25.8	-25.8	15.1	0	68	4893
2026-01-29 04:38:19.74	173.82	77.92	-25.9	-25.9	15.0	0	68	4923
2026-01-29 04:38:19.94	174.02	77.83	-25.9	-25.3	15.0	0	69	4631
2026-01-29 04:38:20.15	174.23	77.74	-26.1	-25.9	14.8	0	69	4788
2026-01-29 04:38:20.35	174.42	77.65	-26.1	-25.8	14.8	0	69	4750
2026-01-29 04:38:20.55	174.62	77.56	-26.3	-26.2	14.6	0	69	4883
2026-01-29 04:38:20.75	174.81	77.47	-26.3	-26.3	14.5	0	69	4904
2026-01-29 04:38:20.95	174.99	77.38	-26.4	-26.4	14.5	0	69	4917
2026-01-29 04:38:21.15	175.18	77.28	-26.4	-26.5	14.4	0	69	4959
2026-01-29 04:38:21.35	175.36	77.19	-26.6	-26.4	14.3	11	70	4796
2026-01-29 04:38:21.55	175.54	77.10	-26.7	-26.5	14.3	0	70	4841
2026-01-29 04:38:21.75	175.72	77.01	-26.7	-26.6	14.3	22	70	4849
2026-01-29 04:38:21.96	175.90	76.91	-26.8	-26.8	14.2	11	70	4911
2026-01-29 04:38:22.16	176.07	76.82	-26.8	-26.8	14.2	11	70	4900
2026-01-29 04:38:22.36	176.24	76.73	-26.8	-26.7	14.2	0	70	4885
2026-01-29 04:38:22.56	176.41	76.64	-26.8	-26.7	14.2	0	70	4895
2026-01-29 04:38:22.76	176.57	76.55	-26.8	-26.8	14.2	22	70	4909
2026-01-29 04:38:22.96	176.73	76.46	-26.9	-26.9	14.1	11	70	4934
2026-01-29 04:38:23.16	176.89	76.37	-27.0	-27.1	14.1	0	70	5013
2026-01-29 04:38:23.36	177.05	76.27	-27.0	-26.6	14.0	57	71	4713
2026-01-29 04:38:23.56	177.20	76.18	-27.0	-26.6	13.9	22	71	4708
2026-01-29 04:38:23.76	177.36	76.09	-27.1	-27.0	13.8	22	71	4819
2026-01-29 04:38:23.97	177.52	75.99	-27.1	-27.0	13.8	45	71	4819
2026-01-29 04:38:24.17	177.67	75.90	-27.1	-26.8	13.8	45	71	4773
2026-01-29 04:38:24.37	177.81	75.81	-27.3	-27.1	13.7	57	71	4864
2026-01-29 04:38:24.57	177.96	75.72	-27.4	-27.4	13.5	114	71	4950
2026-01-29 04:38:24.77	178.10	75.63	-27.4	-27.5	13.4	137	71	4963
2026-01-29 04:38:24.97	178.24	75.53	-27.6	-27.4	13.4	160	72	4792
2026-01-29 04:38:25.17	178.38	75.44	-27.7	-27.5	13.2	114	72	4824
2026-01-29 04:38:25.37	178.52	75.35	-27.6	-27.3	13.3	263	72	4760
2026-01-29 04:38:25.57	178.66	75.26	-27.9	-27.4	13.0	217	73	4653
2026-01-29 04:38:25.77	178.79	75.17	-27.8	-27.3	12.9	480	73	4627
2026-01-29 04:38:25.97	178.92	75.07	-27.9	-27.4	12.9	389	73	4637
2026-01-29 04:38:26.18	179.06	74.98	-27.8	-27.1	13.0	411	73	4569
2026-01-29 04:38:26.38	179.19	74.89	-27.8	-27.3	12.9	411	73	4606
2026-01-29 04:38:26.58	179.32	74.79	-28.0	-27.6	12.7	606	73	4695
2026-01-29 04:38:26.78	179.44	74.70	-27.9	-27.4	12.8	652	73	4629
2026-01-29 04:38:26.98	179.57	74.61	-28.0	-27.7	12.6	629	73	4730
2026-01-29 04:38:27.18	179.69	74.52	-27.9	-27.4	12.7	881	73	4630
2026-01-29 04:38:27.38	179.81	74.43	-28.0	-27.5	12.6	1018	73	4679
2026-01-29 04:38:27.58	179.93	74.33	-27.9	-27.3	12.7	1087	73	4613
2026-01-29 04:38:27.79	180.06	74.24	-27.9	-27.3	12.7	984	73	4613
2026-01-29 04:38:27.99	180.17	74.15	-27.8	-27.1	12.7	984	73	4555
2026-01-29 04:38:28.19	180.29	74.05	-27.8	-27.2	12.7	720	73	4590
2026-01-29 04:38:28.39	180.40	73.96	-27.7	-26.9	12.8	743	73	4511
2026-01-29 04:38:28.59	180.51	73.87	-27.6	-26.8	12.9	469	73	4475
2026-01-29 04:38:28.79	180.63	73.78	-27.6	-26.7	12.9	446	73	4460
2026-01-29 04:38:28.99	180.74	73.69	-27.6	-26.8	12.9	503	73	4482
2026-01-29 04:38:29.19	180.85	73.59	-27.5	-27.0	13.1	663	72	4652
2026-01-29 04:38:29.39	180.95	73.50	-27.5	-27.2	13.0	434	72	4717
2026-01-29 04:38:29.60	181.06	73.40	-27.4	-26.9	13.1	434	72	4631
2026-01-29 04:38:29.80	181.17	73.31	-27.5	-27.1	13.0	205	72	4687
2026-01-29 04:38:30.00	181.27	73.22	-27.5	-27.1	13.1	240	72	4693
2026-01-29 04:38:30.20	181.38	73.13	-27.5	-27.0	13.1	366	72	4680
2026-01-29 04:38:30.40	181.48	73.04	-27.6	-27.2	13.0	331	72	4734
2026-01-29 04:38:30.60	181.58	72.95	-27.6	-27.2	13.0	434	72	4739
2026-01-29 04:38:30.80	181.68	72.85	-27.6	-27.3	13.0	583	72	4764
2026-01-29 04:38:31.00	181.78	72.76	-27.7	-27.5	12.9	446	72	4809
2026-01-29 04:38:31.21	181.88	72.67	-27.7	-27.5	12.9	606	72	4803
2026-01-29 04:38:31.41	181.97	72.57	-27.7	-27.5	12.9	606	72	4825
2026-01-29 04:38:31.61	182.07	72.48	-27.6	-27.4	12.9	423	72	4784
2026-01-29 04:38:31.81	182.16	72.39	-27.8	-27.7	12.8	537	72	4866
2026-01-29 04:38:32.01	182.26	72.30	-27.8	-27.8	12.7	606	72	4888
2026-01-29 04:38:32.21	182.35	72.21	-27.8	-27.7	12.7	823	72	4864
2026-01-29 04:38:32.41	182.44	72.12	-27.9	-28.0	12.6	823	72	4956
2026-01-29 04:38:32.61	182.53	72.02	-27.9	-28.1	12.6	1087	72	5001
2026-01-29 04:38:32.81	182.62	71.93	-28.0	-28.2	12.6	1075	72	5059
2026-01-29 04:38:33.02	182.71	71.84	-27.9	-28.0	12.7	1075	72	4983
2026-01-29 04:38:33.22	182.80	71.74	-28.0	-27.6	12.5	995	73	4742
2026-01-29 04:38:33.42	182.88	71.65	-28.0	-27.8	12.5	1155	73	4793
2026-01-29 04:38:33.62	182.97	71.56	-28.0	-27.7	12.5	1625	73	4774
2026-01-29 04:38:33.82	183.05	71.47	-28.1	-28.0	12.4	1338	73	4833
2026-01-29 04:38:34.02	183.14	71.38	-28.0	-27.8	12.5	1579	73	4796
2026-01-29 04:38:34.22	183.22	71.29	-28.2	-28.1	12.3	1407	73	4891
2026-01-29 04:38:34.43	183.30	71.19	-28.2	-28.2	12.3	1991	73	4904
2026-01-29 04:38:34.63	183.39	71.10	-28.2	-28.1	12.3	2128	73	4872
2026-01-29 04:38:34.83	183.47	71.01	-28.2	-28.0	12.3	2140	73	4859
2026-01-29 04:38:35.03	183.55	70.92	-28.2	-28.1	12.3	1991	73	4874
2026-01-29 04:38:35.23	183.62	70.83	-28.2	-28.2	12.2	1991	73	4888
2026-01-29 04:38:35.43	183.70	70.74	-28.1	-28.0	12.3	2094	73	4850
2026-01-29 04:38:35.63	183.78	70.65	-28.1	-27.9	12.4	1876	73	4824
2026-01-29 04:38:35.83	183.85	70.56	-28.0	-27.8	12.5	1579	73	4803
2026-01-29 04:38:36.03	183.93	70.47	-28.0	-27.7	12.4	1247	73	4748
2026-01-29 04:38:36.23	184.00	70.37	-28.1	-27.9	12.4	1327	73	4827

#Closed at: 2026-01-29 04:38:36