passes_logs/2026/01/26/R3.2S_Murmansk/R3.2S_Murmansk__20260126_073910_AQUA_rec.log

#Pass ID: 20260126_073910_AQUA
#Satellite: AQUA
#Configuration: AQUA
#almurnet v.1.7.20251203
#Start time: 2026-01-26 07:39:12

#Version: 2.2.20231116
#Station: R3.2S_Murmansk
#Location: 33.079688 lon 68.888172 lat
#TLE: 1 27424U 02022A   26025.91340420  .00001969  00000+0  40368-3 0  9991
#TLE: 2 27424  98.4100 352.5253 0001880  65.2649  27.8322 14.61861165262482

#Time	Az	El	Level	Level2	SNR	BER	BlckErr	Temp	State	Recorded	gain1	gain2
2026-01-26 07:39:12.87	70.45	2.13	-49.8	-67.7	3.8	7.49e-01	0	41	0	0	70	29352
2026-01-26 07:39:13.88	70.37	2.19	-49.8	-67.7	3.8	7.49e-01	0	41	104	0	70	29485
2026-01-26 07:39:14.89	70.29	2.24	-49.8	-67.7	3.8	7.48e-01	0	41	104	0	70	29420
2026-01-26 07:39:15.90	70.21	2.30	-49.8	-67.7	3.8	7.47e-01	0	41	104	0	70	29428
2026-01-26 07:39:16.90	70.13	2.36	-49.8	-67.7	3.8	7.46e-01	0	41	104	0	70	29396
2026-01-26 07:39:17.91	70.05	2.42	-49.8	-67.6	3.8	7.45e-01	0	41	104	0	70	29332
2026-01-26 07:39:18.92	69.96	2.48	-49.8	-67.6	3.8	7.46e-01	0	41	104	0	70	29312
2026-01-26 07:39:19.93	69.88	2.53	-49.8	-67.7	3.8	7.48e-01	0	41	104	0	70	29421
2026-01-26 07:39:20.93	69.80	2.59	-49.8	-67.7	3.8	7.43e-01	0	41	104	0	70	29351
2026-01-26 07:39:21.94	69.72	2.65	-49.8	-67.7	3.8	7.44e-01	0	41	104	0	70	29360
2026-01-26 07:39:22.95	69.64	2.71	-49.8	-67.7	3.8	7.42e-01	0	42	104	0	70	29408
2026-01-26 07:39:23.96	69.55	2.77	-49.8	-67.7	3.8	7.43e-01	0	41	104	0	70	29374
2026-01-26 07:39:24.97	69.47	2.83	-49.8	-67.6	3.8	7.46e-01	0	41	104	0	70	29312
2026-01-26 07:39:25.97	69.38	2.89	-49.8	-67.7	3.8	7.47e-01	0	42	104	0	70	29349
2026-01-26 07:39:26.98	69.30	2.94	-49.8	-67.7	3.8	7.46e-01	0	42	104	0	70	29378
2026-01-26 07:39:27.98	69.22	3.00	-49.8	-67.7	3.8	7.45e-01	0	42	104	0	70	29389
2026-01-26 07:39:28.99	69.13	3.06	-49.8	-67.7	3.8	7.43e-01	0	42	104	0	70	29358
2026-01-26 07:39:30.00	69.05	3.12	-49.8	-67.7	3.8	7.46e-01	0	42	104	0	70	29397
2026-01-26 07:39:31.01	68.96	3.18	-49.8	-67.7	3.8	7.44e-01	0	42	104	0	70	29386
2026-01-26 07:39:32.01	68.87	3.24	-49.8	-67.7	3.8	7.42e-01	0	42	104	0	70	29429
2026-01-26 07:39:33.02	68.79	3.30	-49.8	-67.6	3.8	7.43e-01	0	42	104	0	70	29347
2026-01-26 07:39:34.03	68.70	3.36	-49.8	-67.7	3.8	7.48e-01	0	42	104	0	70	29408
2026-01-26 07:39:35.03	68.61	3.42	-49.8	-67.7	3.8	7.43e-01	0	42	104	0	70	29386
2026-01-26 07:39:36.04	68.52	3.48	-49.8	-67.7	3.8	7.46e-01	0	42	104	0	70	29361
2026-01-26 07:39:37.05	68.44	3.54	-49.8	-67.7	3.8	7.49e-01	0	42	104	0	70	29460
2026-01-26 07:39:38.06	68.35	3.60	-49.8	-67.7	3.8	7.47e-01	0	42	104	0	70	29386
2026-01-26 07:39:39.07	68.26	3.66	-49.8	-67.7	3.8	7.45e-01	0	42	104	0	70	29408
2026-01-26 07:39:40.08	68.17	3.72	-49.8	-67.7	3.8	7.47e-01	0	42	104	0	70	29358
2026-01-26 07:39:41.08	68.08	3.78	-49.8	-67.7	3.8	7.43e-01	0	42	104	0	70	29400
2026-01-26 07:39:42.09	67.99	3.84	-49.8	-67.7	3.8	7.46e-01	0	42	104	0	70	29437
2026-01-26 07:39:43.10	67.90	3.90	-49.8	-67.7	3.8	7.43e-01	0	42	104	0	70	29431
2026-01-26 07:39:44.11	67.81	3.96	-49.8	-67.7	3.8	7.46e-01	0	42	104	0	70	29398
2026-01-26 07:39:45.12	67.71	4.02	-49.8	-67.7	3.8	7.44e-01	0	42	104	0	70	29392
2026-01-26 07:39:46.13	67.62	4.08	-49.8	-67.7	3.8	7.45e-01	0	42	104	0	70	29396
2026-01-26 07:39:47.14	67.53	4.14	-49.8	-67.7	3.8	7.47e-01	0	42	104	0	70	29353
2026-01-26 07:39:48.15	67.44	4.20	-49.8	-67.7	3.8	7.44e-01	0	42	104	0	70	29410
2026-01-26 07:39:49.16	67.34	4.26	-49.8	-67.7	3.8	7.42e-01	0	42	104	0	70	29380
2026-01-26 07:39:50.17	67.25	4.32	-49.8	-67.7	3.8	7.45e-01	0	42	104	0	70	29349
2026-01-26 07:39:51.18	67.15	4.38	-49.8	-67.6	3.8	7.43e-01	0	42	104	0	70	29306
2026-01-26 07:39:52.18	67.06	4.44	-49.8	-67.7	3.8	7.45e-01	0	42	104	0	70	29391
2026-01-26 07:39:53.19	66.97	4.50	-49.8	-67.7	3.8	7.43e-01	0	42	104	0	70	29356
2026-01-26 07:39:54.20	66.87	4.56	-49.8	-67.7	3.8	7.45e-01	0	42	104	0	70	29375
2026-01-26 07:39:55.20	66.77	4.62	-49.8	-67.7	3.8	7.42e-01	0	42	104	0	70	29419
2026-01-26 07:39:56.21	66.68	4.69	-49.8	-67.7	3.8	7.45e-01	0	42	104	0	70	29427
2026-01-26 07:39:57.22	66.58	4.75	-49.8	-67.7	3.8	7.44e-01	0	42	104	0	70	29401
2026-01-26 07:39:58.23	66.48	4.81	-49.8	-67.7	3.8	7.48e-01	0	42	104	0	70	29352
2026-01-26 07:39:59.24	66.38	4.87	-49.8	-67.7	3.8	7.44e-01	0	42	104	0	70	29418
2026-01-26 07:40:00.24	66.29	4.93	-49.8	-67.7	3.8	7.46e-01	0	42	104	0	70	29367
2026-01-26 07:40:01.25	66.19	4.99	-49.8	-67.7	3.8	7.47e-01	0	42	104	0	70	29416
2026-01-26 07:40:02.26	66.09	5.06	-49.8	-67.7	3.8	7.44e-01	0	42	104	0	70	29401
2026-01-26 07:40:03.27	65.99	5.12	-49.8	-67.7	3.8	7.43e-01	0	42	104	0	70	29395
2026-01-26 07:40:04.28	65.89	5.18	-49.8	-67.7	3.8	7.45e-01	0	42	104	0	70	29377
2026-01-26 07:40:05.29	65.79	5.24	-49.8	-67.7	3.8	7.45e-01	0	42	104	0	70	29405
2026-01-26 07:40:06.29	65.69	5.30	-49.8	-67.7	3.8	7.51e-01	0	42	104	0	70	29382
2026-01-26 07:40:07.30	65.59	5.37	-49.8	-67.7	3.8	7.45e-01	0	42	104	0	70	29367
2026-01-26 07:40:08.30	65.48	5.43	-49.8	-67.7	3.8	7.48e-01	0	42	104	0	70	29359
2026-01-26 07:40:09.31	65.38	5.49	-49.8	-67.7	3.8	7.47e-01	0	42	104	0	70	29395
2026-01-26 07:40:10.32	65.28	5.55	-49.8	-67.7	3.8	7.41e-01	0	42	104	0	70	29451
2026-01-26 07:40:11.33	65.17	5.61	-49.8	-67.7	3.8	7.45e-01	0	42	104	0	70	29390
2026-01-26 07:40:12.33	65.07	5.68	-49.8	-67.7	3.8	7.45e-01	0	42	104	0	70	29352
2026-01-26 07:40:13.34	64.97	5.74	-49.8	-67.7	3.8	7.43e-01	0	42	104	0	70	29420
2026-01-26 07:40:14.35	64.86	5.80	-49.8	-67.7	3.8	7.44e-01	0	42	104	0	70	29356
2026-01-26 07:40:15.35	64.76	5.86	-49.8	-67.7	3.8	7.44e-01	0	42	104	0	70	29370
2026-01-26 07:40:16.36	64.65	5.93	-49.8	-67.7	3.8	7.48e-01	0	43	104	0	70	29403
2026-01-26 07:40:17.36	64.54	5.99	-49.8	-67.7	3.8	7.47e-01	0	43	104	0	70	29376
2026-01-26 07:40:18.37	64.44	6.05	-49.8	-67.7	3.8	7.48e-01	0	42	104	0	70	29397
2026-01-26 07:40:19.38	64.33	6.12	-49.8	-67.7	3.8	7.46e-01	0	43	104	0	70	29429
2026-01-26 07:40:20.39	64.22	6.18	-49.8	-67.7	3.8	7.41e-01	0	42	104	0	70	29397
2026-01-26 07:40:21.40	64.11	6.24	-49.8	-67.7	3.8	7.47e-01	0	42	104	0	70	29420
2026-01-26 07:40:22.41	64.00	6.31	-49.8	-67.7	3.8	7.46e-01	0	42	104	0	70	29405
2026-01-26 07:40:23.41	63.89	6.37	-49.8	-67.7	3.8	7.45e-01	0	43	104	0	70	29426
2026-01-26 07:40:24.42	63.78	6.43	-49.8	-67.7	3.8	7.47e-01	0	43	104	0	70	29389
2026-01-26 07:40:25.43	63.67	6.50	-49.8	-67.7	3.8	7.47e-01	0	42	104	0	70	29409
2026-01-26 07:40:26.43	63.56	6.56	-49.8	-67.7	3.8	7.45e-01	0	43	104	0	70	29375
2026-01-26 07:40:27.44	63.45	6.62	-49.8	-67.7	3.8	7.45e-01	0	43	104	0	70	29407
2026-01-26 07:40:28.44	63.34	6.69	-49.8	-67.7	3.8	7.45e-01	0	43	104	0	70	29372
2026-01-26 07:40:29.45	63.22	6.75	-49.8	-67.7	3.8	7.46e-01	0	43	104	0	70	29408
2026-01-26 07:40:30.47	63.11	6.82	-49.8	-67.7	3.8	7.49e-01	0	43	104	0	70	29379
2026-01-26 07:40:31.47	62.99	6.88	-49.8	-67.7	3.8	7.45e-01	0	43	104	0	70	29432
2026-01-26 07:40:32.48	62.88	6.94	-49.8	-67.7	3.8	7.46e-01	0	43	104	0	70	29353
2026-01-26 07:40:33.49	62.76	7.01	-49.8	-67.7	3.8	7.47e-01	0	43	104	0	70	29399
2026-01-26 07:40:34.50	62.65	7.07	-49.8	-67.7	3.8	7.48e-01	0	43	104	0	70	29434
2026-01-26 07:40:35.51	62.53	7.14	-49.8	-67.7	3.8	7.46e-01	0	43	104	0	70	29400
2026-01-26 07:40:36.52	62.41	7.20	-49.8	-67.7	3.8	7.44e-01	0	43	104	0	70	29464
2026-01-26 07:40:37.52	62.30	7.27	-49.8	-67.7	3.8	7.47e-01	0	43	104	0	70	29417
2026-01-26 07:40:38.53	62.18	7.33	-49.8	-67.7	3.8	7.47e-01	0	43	104	0	70	29505
2026-01-26 07:40:39.53	62.06	7.39	-49.8	-67.7	3.8	7.44e-01	0	43	104	0	70	29468
2026-01-26 07:40:40.54	61.94	7.46	-49.8	-67.7	3.8	7.45e-01	0	43	104	0	70	29403
2026-01-26 07:40:41.55	61.82	7.52	-49.8	-67.7	3.8	7.46e-01	0	43	104	0	70	29418
2026-01-26 07:40:42.56	61.70	7.59	-49.8	-67.7	3.8	7.47e-01	0	43	104	0	70	29432
2026-01-26 07:40:43.56	61.58	7.65	-49.8	-67.7	3.8	7.45e-01	0	43	104	0	70	29389
2026-01-26 07:40:44.57	61.46	7.72	-49.8	-67.7	3.8	7.45e-01	0	43	104	0	70	29407
2026-01-26 07:40:45.58	61.33	7.78	-49.8	-67.7	3.8	7.47e-01	0	43	104	0	70	29433
2026-01-26 07:40:46.59	61.21	7.85	-49.8	-67.7	3.8	7.44e-01	0	43	104	0	70	29366
2026-01-26 07:40:47.60	61.09	7.92	-49.8	-67.7	3.8	7.45e-01	0	43	104	0	70	29454
2026-01-26 07:40:48.61	60.96	7.98	-49.8	-67.6	3.8	7.44e-01	0	43	104	0	70	29340
2026-01-26 07:40:49.62	60.84	8.05	-49.8	-67.7	3.8	7.46e-01	0	43	104	0	70	29477
2026-01-26 07:40:50.63	60.71	8.11	-49.8	-67.7	3.8	7.45e-01	0	43	104	0	70	29411
2026-01-26 07:40:51.64	60.58	8.18	-49.8	-67.7	3.8	7.46e-01	0	43	104	0	70	29450
2026-01-26 07:40:52.65	60.46	8.24	-49.8	-67.7	3.8	7.44e-01	0	43	104	0	70	29422
2026-01-26 07:40:53.66	60.33	8.31	-49.8	-67.7	3.8	7.47e-01	0	43	104	0	70	29417
2026-01-26 07:40:54.67	60.20	8.37	-49.8	-67.7	3.8	7.45e-01	0	43	104	0	70	29449
2026-01-26 07:40:55.68	60.07	8.44	-49.8	-67.7	3.8	7.45e-01	0	43	104	0	70	29387
2026-01-26 07:40:56.69	59.94	8.51	-49.8	-67.7	3.8	7.46e-01	0	43	104	0	70	29461
2026-01-26 07:40:57.69	59.81	8.57	-49.8	-67.7	3.8	7.41e-01	0	43	104	0	70	29379
2026-01-26 07:40:58.71	59.68	8.64	-49.8	-67.7	3.8	7.45e-01	0	43	104	0	70	29400
2026-01-26 07:40:59.71	59.55	8.70	-49.8	-67.7	3.8	7.47e-01	0	43	104	0	70	29420
2026-01-26 07:41:00.72	59.42	8.77	-49.8	-67.7	3.8	7.48e-01	0	43	104	0	70	29421
2026-01-26 07:41:01.73	59.29	8.84	-49.8	-67.7	3.8	7.45e-01	0	43	104	0	70	29389
2026-01-26 07:41:02.73	59.15	8.90	-49.8	-67.7	3.8	7.46e-01	0	43	104	0	70	29405
2026-01-26 07:41:03.74	59.02	8.97	-49.8	-67.7	3.8	7.46e-01	0	43	104	0	70	29416
2026-01-26 07:41:04.75	58.89	9.03	-49.8	-67.7	3.8	7.44e-01	0	43	104	0	70	29408
2026-01-26 07:41:05.76	58.75	9.10	-49.8	-67.7	3.8	7.44e-01	0	43	104	0	70	29411
2026-01-26 07:41:06.77	58.61	9.17	-49.8	-67.7	3.8	7.43e-01	0	43	104	0	70	29408
2026-01-26 07:41:07.78	58.48	9.23	-49.8	-67.7	3.8	7.46e-01	0	43	104	0	70	29381
2026-01-26 07:41:08.79	58.34	9.30	-49.8	-67.7	3.8	7.43e-01	0	43	104	0	70	29400
2026-01-26 07:41:09.80	58.20	9.37	-49.8	-67.7	3.8	7.45e-01	0	43	104	0	70	29418
2026-01-26 07:41:10.81	58.06	9.43	-49.8	-67.7	3.8	7.47e-01	0	43	104	0	70	29443
2026-01-26 07:41:11.81	57.92	9.50	-49.8	-67.7	3.8	7.46e-01	0	43	104	0	70	29400
2026-01-26 07:41:12.82	57.78	9.57	-49.8	-67.7	3.8	7.46e-01	0	43	104	0	70	29459
2026-01-26 07:41:13.83	57.64	9.63	-49.8	-67.7	3.8	7.46e-01	0	43	104	0	70	29437
2026-01-26 07:41:14.84	57.50	9.70	-49.8	-67.7	3.8	7.47e-01	0	43	104	0	70	29431
2026-01-26 07:41:15.84	57.36	9.77	-49.8	-67.7	3.8	7.43e-01	0	43	104	0	70	29428
2026-01-26 07:41:16.85	57.22	9.83	-49.8	-67.7	3.8	7.46e-01	0	43	104	0	70	29452
2026-01-26 07:41:17.87	57.07	9.90	-49.8	-67.7	3.8	7.46e-01	0	43	104	0	70	29439
2026-01-26 07:41:18.87	56.93	9.97	-49.8	-67.7	3.8	7.45e-01	0	43	104	0	70	29444
2026-01-26 07:41:19.88	56.78	10.03	-49.8	-67.7	3.8	7.46e-01	0	43	104	0	70	29385
2026-01-26 07:41:20.89	56.63	10.10	-49.8	-67.7	3.8	7.42e-01	0	43	104	0	70	29401
2026-01-26 07:41:21.90	56.49	10.17	-49.8	-67.7	3.8	7.48e-01	0	43	104	0	70	29478
2026-01-26 07:41:22.91	56.34	10.23	-49.8	-67.7	3.8	7.45e-01	0	43	104	0	70	29415
2026-01-26 07:41:23.91	56.19	10.30	-49.8	-67.7	3.8	7.45e-01	0	43	104	0	70	29424
2026-01-26 07:41:24.92	56.04	10.37	-49.8	-67.7	3.8	7.47e-01	0	43	104	0	70	29442
2026-01-26 07:41:25.93	55.89	10.44	-49.8	-67.7	3.8	7.48e-01	0	43	104	0	70	29366
2026-01-26 07:41:26.94	55.74	10.50	-49.8	-67.7	3.8	7.45e-01	0	43	104	0	70	29349
2026-01-26 07:41:27.95	55.59	10.57	-49.8	-67.7	3.8	7.51e-01	0	43	104	0	70	29412
2026-01-26 07:41:28.95	55.44	10.64	-49.8	-67.7	3.8	7.45e-01	0	43	104	0	70	29363
2026-01-26 07:41:29.97	55.29	10.70	-49.8	-67.7	3.8	7.44e-01	0	43	104	0	70	29449
2026-01-26 07:41:30.98	55.13	10.77	-49.8	-67.7	3.8	7.46e-01	0	43	104	0	70	29413
2026-01-26 07:41:31.98	54.98	10.84	-49.8	-67.7	3.8	7.44e-01	0	43	104	0	70	29429
2026-01-26 07:41:32.99	54.82	10.91	-49.8	-67.7	3.8	7.43e-01	0	43	104	0	70	29362
2026-01-26 07:41:34.00	54.67	10.97	-49.8	-67.7	3.8	7.44e-01	0	43	104	0	70	29402
2026-01-26 07:41:35.01	54.51	11.04	-49.8	-67.7	3.8	7.47e-01	0	43	104	0	70	29504
2026-01-26 07:41:36.01	54.35	11.11	-49.8	-67.7	3.8	7.45e-01	0	43	104	0	70	29457
2026-01-26 07:41:37.02	54.20	11.17	-49.8	-67.7	3.8	7.45e-01	0	43	104	0	70	29398
2026-01-26 07:41:38.03	54.04	11.24	-49.8	-67.7	3.8	7.44e-01	0	43	104	0	70	29417
2026-01-26 07:41:39.04	53.88	11.31	-49.8	-67.7	3.8	7.45e-01	0	43	104	0	70	29423
2026-01-26 07:41:40.04	53.72	11.38	-49.8	-67.7	3.8	7.47e-01	0	43	104	0	70	29468
2026-01-26 07:41:41.04	53.56	11.44	-49.8	-67.7	3.8	7.43e-01	0	43	104	0	70	29430
2026-01-26 07:41:42.05	53.39	11.51	-49.8	-67.7	3.8	7.44e-01	0	43	104	0	70	29441
2026-01-26 07:41:43.06	53.23	11.58	-49.8	-67.7	3.8	7.46e-01	0	43	104	0	70	29490
2026-01-26 07:41:44.07	53.07	11.64	-49.8	-67.7	3.8	7.47e-01	0	43	104	0	70	29449
2026-01-26 07:41:45.08	52.90	11.71	-49.8	-67.7	3.8	7.47e-01	0	43	104	0	70	29419
2026-01-26 07:41:46.09	52.74	11.78	-49.8	-67.7	3.8	7.47e-01	0	43	104	0	70	29429
2026-01-26 07:41:47.09	52.57	11.85	-49.8	-67.7	3.8	7.43e-01	0	43	104	0	70	29445
2026-01-26 07:41:48.10	52.40	11.91	-49.8	-67.7	3.8	7.46e-01	0	43	104	0	70	29393
2026-01-26 07:41:49.11	52.24	11.98	-49.8	-67.7	3.8	7.45e-01	0	43	104	0	70	29438
2026-01-26 07:41:50.12	52.07	12.05	-49.8	-67.7	3.8	7.45e-01	0	43	104	0	70	29435
2026-01-26 07:41:51.13	51.90	12.11	-49.8	-67.7	3.8	7.46e-01	0	43	104	0	70	29437
2026-01-26 07:41:52.13	51.73	12.18	-49.8	-67.7	3.8	7.42e-01	0	43	104	0	70	29392
2026-01-26 07:41:53.14	51.56	12.25	-49.8	-67.7	3.8	7.45e-01	0	43	104	0	70	29380
2026-01-26 07:41:54.15	51.38	12.31	-49.8	-67.7	3.8	7.43e-01	0	43	104	0	70	29476
2026-01-26 07:41:55.16	51.21	12.38	-49.8	-67.7	3.8	7.47e-01	0	43	104	0	70	29438
2026-01-26 07:41:56.16	51.04	12.45	-49.8	-67.7	3.8	7.44e-01	0	43	104	0	70	29443
2026-01-26 07:41:57.16	50.86	12.51	-49.8	-67.7	3.8	7.49e-01	0	43	104	0	70	29406
2026-01-26 07:41:58.17	50.69	12.58	-49.8	-67.7	3.8	7.48e-01	0	43	104	0	70	29455
2026-01-26 07:41:59.18	50.51	12.65	-49.8	-67.7	3.8	7.44e-01	0	43	104	0	70	29469
2026-01-26 07:42:00.19	50.33	12.71	-49.8	-67.7	3.8	7.44e-01	0	43	104	0	70	29437
2026-01-26 07:42:01.20	50.15	12.78	-49.8	-67.7	3.8	7.48e-01	0	43	104	0	70	29435
2026-01-26 07:42:02.21	49.98	12.85	-49.8	-67.7	3.8	7.46e-01	0	43	104	0	70	29454
2026-01-26 07:42:03.22	49.79	12.91	-49.8	-67.7	3.8	7.49e-01	0	43	104	0	70	29457
2026-01-26 07:42:04.23	49.61	12.98	-49.8	-67.7	3.8	7.45e-01	0	43	104	0	70	29388
2026-01-26 07:42:05.24	49.43	13.05	-49.8	-67.7	3.8	7.45e-01	0	43	104	0	70	29459
2026-01-26 07:42:06.25	49.25	13.11	-49.8	-67.7	3.8	7.46e-01	0	43	104	0	70	29449
2026-01-26 07:42:07.26	49.06	13.18	-49.8	-67.7	3.8	7.47e-01	0	43	104	0	70	29502
2026-01-26 07:42:08.26	48.88	13.25	-49.8	-67.7	3.8	7.45e-01	0	43	104	0	70	29485
2026-01-26 07:42:09.26	48.70	13.31	-49.8	-67.7	3.8	7.44e-01	0	43	104	0	70	29398
2026-01-26 07:42:10.27	48.51	13.38	-49.8	-67.7	3.8	7.48e-01	0	43	104	0	70	29413
2026-01-26 07:42:11.28	48.32	13.44	-49.8	-67.7	3.8	7.43e-01	0	43	104	0	70	29444
2026-01-26 07:42:12.29	48.13	13.51	-49.8	-67.7	3.8	7.43e-01	0	43	104	0	70	29414
2026-01-26 07:42:13.30	47.95	13.57	-49.8	-67.7	3.8	7.45e-01	0	43	104	0	70	29475
2026-01-26 07:42:14.31	47.76	13.64	-49.8	-67.7	3.8	7.44e-01	0	43	104	0	70	29510
2026-01-26 07:42:15.31	47.57	13.70	-49.8	-67.7	3.8	7.44e-01	0	43	104	0	70	29447
2026-01-26 07:42:16.32	47.37	13.77	-49.8	-67.7	3.8	7.48e-01	0	43	104	0	70	29478
2026-01-26 07:42:17.33	47.18	13.84	-49.8	-67.7	3.8	7.48e-01	0	43	104	0	70	29432
2026-01-26 07:42:18.34	46.99	13.90	-49.8	-67.7	3.8	7.49e-01	0	43	104	0	70	29489
2026-01-26 07:42:19.35	46.79	13.97	-49.8	-67.7	3.8	7.43e-01	0	43	104	0	70	29485
2026-01-26 07:42:20.35	46.60	14.03	-49.8	-67.7	3.8	7.46e-01	0	43	104	0	70	29465
2026-01-26 07:42:21.36	46.40	14.09	-49.8	-67.7	3.8	7.46e-01	0	43	104	0	70	29486
2026-01-26 07:42:22.37	46.20	14.16	-49.8	-67.7	3.8	7.44e-01	0	43	104	0	70	29531
2026-01-26 07:42:23.38	46.01	14.22	-49.8	-67.7	3.8	7.45e-01	0	43	104	0	70	29421
2026-01-26 07:42:24.38	45.81	14.29	-49.8	-67.7	3.8	7.41e-01	0	43	104	0	70	29459
2026-01-26 07:42:25.39	45.61	14.35	-49.8	-67.7	3.8	7.44e-01	0	43	104	0	70	29490
2026-01-26 07:42:26.40	45.41	14.42	-49.8	-67.7	3.8	7.42e-01	0	43	104	0	70	29509
2026-01-26 07:42:27.41	45.20	14.48	-49.8	-67.7	3.8	7.48e-01	0	43	104	0	70	29439
2026-01-26 07:42:28.42	45.00	14.54	-49.8	-67.7	3.8	7.44e-01	0	43	104	0	70	29478
2026-01-26 07:42:29.43	44.80	14.61	-49.8	-67.7	3.8	7.48e-01	0	43	104	0	70	29488
2026-01-26 07:42:30.44	44.59	14.67	-49.8	-67.7	3.8	7.42e-01	0	44	104	0	70	29412
2026-01-26 07:42:31.45	44.38	14.73	-49.8	-67.7	3.8	7.44e-01	0	43	104	0	70	29436
2026-01-26 07:42:32.46	44.18	14.80	-49.8	-67.7	3.8	7.48e-01	0	43	104	0	70	29463
2026-01-26 07:42:33.47	43.97	14.86	-49.8	-67.7	3.8	7.47e-01	0	43	104	0	70	29487
2026-01-26 07:42:34.47	43.76	14.92	-49.8	-67.7	3.8	7.45e-01	0	43	104	0	70	29441
2026-01-26 07:42:35.48	43.55	14.99	-49.8	-67.7	3.8	7.44e-01	0	43	104	0	70	29526
2026-01-26 07:42:36.48	43.34	15.05	-49.8	-67.7	3.8	7.44e-01	0	43	104	0	70	29535
2026-01-26 07:42:37.49	43.13	15.11	-49.8	-67.7	3.8	7.47e-01	0	43	104	0	70	29480
2026-01-26 07:42:38.49	42.92	15.17	-49.8	-67.7	3.8	7.45e-01	0	43	104	0	70	29469
2026-01-26 07:42:39.50	42.71	15.23	-49.8	-67.7	3.8	7.44e-01	0	43	104	0	70	29445
2026-01-26 07:42:40.51	42.49	15.29	-49.8	-67.7	3.8	7.46e-01	0	44	104	0	70	29372
2026-01-26 07:42:41.52	42.28	15.36	-49.8	-67.7	3.8	7.45e-01	0	43	104	0	70	29498
2026-01-26 07:42:42.53	42.06	15.42	-49.8	-67.7	3.8	7.46e-01	0	43	104	0	70	29402
2026-01-26 07:42:43.53	41.85	15.48	-49.8	-67.7	3.8	7.44e-01	0	43	104	0	70	29472
2026-01-26 07:42:44.54	41.63	15.54	-49.8	-67.7	3.8	7.47e-01	0	43	104	0	70	29553
2026-01-26 07:42:45.55	41.41	15.60	-49.8	-67.7	3.8	7.47e-01	0	43	104	0	70	29441
2026-01-26 07:42:46.55	41.19	15.66	-49.8	-67.7	3.8	7.45e-01	0	43	104	0	70	29489
2026-01-26 07:42:47.56	40.97	15.72	-49.8	-67.7	3.8	7.47e-01	0	43	104	0	70	29469
2026-01-26 07:42:48.57	40.75	15.78	-49.8	-67.7	3.8	7.46e-01	0	43	104	0	70	29449
2026-01-26 07:42:49.58	40.52	15.84	-49.8	-67.7	3.8	7.46e-01	0	43	104	0	70	29455
2026-01-26 07:42:50.59	40.30	15.90	-49.8	-67.7	3.8	7.45e-01	0	43	104	0	70	29389
2026-01-26 07:42:51.59	40.08	15.95	-49.8	-67.7	3.8	7.46e-01	0	43	104	0	70	29433
2026-01-26 07:42:52.60	39.85	16.01	-49.8	-67.7	3.8	7.43e-01	0	43	104	0	70	29527
2026-01-26 07:42:53.61	39.62	16.07	-49.8	-67.7	3.8	7.43e-01	0	43	104	0	70	29490
2026-01-26 07:42:54.62	39.40	16.13	-49.8	-67.7	3.8	7.45e-01	0	43	104	0	70	29450
2026-01-26 07:42:55.62	39.17	16.19	-49.8	-67.7	3.8	7.46e-01	0	43	104	0	70	29405
2026-01-26 07:42:56.63	38.94	16.24	-49.8	-67.7	3.8	7.42e-01	0	43	104	0	70	29480
2026-01-26 07:42:57.64	38.71	16.30	-49.8	-67.7	3.8	7.43e-01	0	43	104	0	70	29536
2026-01-26 07:42:58.65	38.48	16.36	-49.8	-67.7	3.8	7.45e-01	0	43	104	0	70	29487
2026-01-26 07:42:59.65	38.25	16.42	-49.8	-67.7	3.8	7.47e-01	0	43	104	0	70	29504
2026-01-26 07:43:00.66	38.01	16.47	-49.8	-67.7	3.8	7.47e-01	0	43	104	0	70	29468
2026-01-26 07:43:01.67	37.78	16.53	-49.8	-67.7	3.8	7.45e-01	0	43	104	0	70	29490
2026-01-26 07:43:02.68	37.54	16.58	-49.8	-67.7	3.8	7.44e-01	0	43	104	0	70	29500
2026-01-26 07:43:03.69	37.31	16.64	-49.8	-67.7	3.8	7.44e-01	0	43	104	0	70	29500
2026-01-26 07:43:04.69	37.07	16.69	-49.8	-67.7	3.8	7.44e-01	0	43	104	0	70	29462
2026-01-26 07:43:05.70	36.83	16.75	-49.8	-67.7	3.8	7.45e-01	0	43	104	0	70	29531
2026-01-26 07:43:06.71	36.59	16.80	-49.8	-67.7	3.8	7.42e-01	0	43	104	0	70	29532
2026-01-26 07:43:07.72	36.35	16.86	-49.8	-67.7	3.8	7.43e-01	0	44	104	0	70	29516
2026-01-26 07:43:08.72	36.11	16.91	-49.8	-67.7	3.8	7.44e-01	0	43	104	0	70	29439
2026-01-26 07:43:09.73	35.87	16.96	-49.8	-67.7	3.8	7.46e-01	0	43	104	0	70	29446
2026-01-26 07:43:10.74	35.63	17.01	-49.8	-67.7	3.8	7.46e-01	0	43	104	0	70	29456
2026-01-26 07:43:11.75	35.39	17.07	-49.8	-67.7	3.8	7.45e-01	0	43	104	0	70	29480
2026-01-26 07:43:12.76	35.14	17.12	-49.8	-67.7	3.8	7.45e-01	0	43	104	0	70	29429
2026-01-26 07:43:13.76	34.90	17.17	-49.8	-67.7	3.8	7.43e-01	0	43	104	0	70	29456
2026-01-26 07:43:14.77	34.65	17.22	-49.8	-67.7	3.8	7.44e-01	0	43	104	0	70	29483
2026-01-26 07:43:15.78	34.40	17.27	-49.8	-67.7	3.8	7.45e-01	0	43	104	0	70	29387
2026-01-26 07:43:16.79	34.16	17.32	-49.8	-67.7	3.8	7.45e-01	0	43	104	0	70	29505
2026-01-26 07:43:17.79	33.91	17.37	-49.8	-67.7	3.8	7.47e-01	0	43	104	0	70	29466
2026-01-26 07:43:18.80	33.66	17.42	-49.8	-67.7	3.8	7.44e-01	0	43	104	0	70	29466
2026-01-26 07:43:19.81	33.41	17.47	-49.8	-67.7	3.8	7.44e-01	0	43	104	0	70	29430
2026-01-26 07:43:20.82	33.16	17.52	-49.8	-67.7	3.8	7.47e-01	0	43	104	0	70	29488
2026-01-26 07:43:21.82	32.91	17.57	-49.8	-67.7	3.8	7.45e-01	0	43	104	0	70	29463
2026-01-26 07:43:22.83	32.65	17.62	-49.8	-67.7	3.8	7.45e-01	0	43	104	0	70	29430
2026-01-26 07:43:23.84	32.40	17.66	-49.8	-67.7	3.8	7.45e-01	0	43	104	0	70	29468
2026-01-26 07:43:24.85	32.14	17.71	-49.8	-67.7	3.8	7.44e-01	0	44	104	0	70	29480
2026-01-26 07:43:25.86	31.89	17.76	-49.8	-67.7	3.8	7.44e-01	0	43	104	0	70	29503
2026-01-26 07:43:26.87	31.63	17.80	-49.8	-67.7	3.8	7.44e-01	0	44	104	0	70	29453
2026-01-26 07:43:27.87	31.38	17.85	-49.8	-67.7	3.8	7.46e-01	0	43	104	0	70	29480
2026-01-26 07:43:28.88	31.12	17.89	-49.8	-67.7	3.8	7.46e-01	0	44	104	0	70	29503
2026-01-26 07:43:29.89	30.86	17.94	-49.8	-67.7	3.8	7.44e-01	0	43	104	0	70	29510
2026-01-26 07:43:30.90	30.60	17.98	-49.8	-67.7	3.8	7.45e-01	0	43	104	0	70	29475
2026-01-26 07:43:31.90	30.34	18.03	-49.8	-67.7	3.8	7.43e-01	0	43	104	0	70	29458
2026-01-26 07:43:32.91	30.08	18.07	-49.8	-67.7	3.8	7.47e-01	0	43	104	0	70	29518
2026-01-26 07:43:33.92	29.81	18.11	-49.8	-67.7	3.8	7.44e-01	0	43	104	0	70	29542
2026-01-26 07:43:34.93	29.55	18.15	-49.8	-67.7	3.8	7.45e-01	0	43	104	0	70	29462
2026-01-26 07:43:35.93	29.29	18.19	-49.8	-67.7	3.8	7.44e-01	0	43	104	0	70	29469
2026-01-26 07:43:36.94	29.03	18.24	-49.8	-67.7	3.8	7.45e-01	0	43	104	0	70	29509
2026-01-26 07:43:37.95	28.76	18.28	-49.8	-67.7	3.8	7.46e-01	0	43	104	0	70	29468
2026-01-26 07:43:38.96	28.49	18.32	-49.8	-67.7	3.8	7.46e-01	0	43	104	0	70	29471
2026-01-26 07:43:39.97	28.23	18.36	-49.8	-67.7	3.8	7.44e-01	0	43	104	0	70	29478
2026-01-26 07:43:40.98	27.96	18.39	-49.8	-67.7	3.8	7.47e-01	0	43	104	0	70	29502
2026-01-26 07:43:41.99	27.69	18.43	-49.8	-67.7	3.8	7.47e-01	0	43	104	0	70	29456
2026-01-26 07:43:42.99	27.42	18.47	-49.8	-67.7	3.8	7.45e-01	0	43	104	0	70	29575
2026-01-26 07:43:44.00	27.15	18.51	-49.8	-67.7	3.8	7.42e-01	0	43	104	0	70	29518
2026-01-26 07:43:45.01	26.88	18.54	-49.8	-67.7	3.8	7.47e-01	0	43	104	0	70	29531
2026-01-26 07:43:46.02	26.61	18.58	-49.8	-67.7	3.8	7.45e-01	0	43	104	0	70	29484
2026-01-26 07:43:47.03	26.34	18.62	-49.8	-67.7	3.8	7.46e-01	0	43	104	0	70	29493
2026-01-26 07:43:48.03	26.07	18.65	-49.8	-67.7	3.8	7.49e-01	0	43	104	0	70	29503
2026-01-26 07:43:49.04	25.80	18.68	-49.8	-67.7	3.8	7.47e-01	0	43	104	0	70	29463
2026-01-26 07:43:50.05	25.52	18.72	-49.8	-67.7	3.8	7.44e-01	0	43	104	0	70	29464
2026-01-26 07:43:51.05	25.25	18.75	-49.8	-67.7	3.8	7.45e-01	0	43	104	0	70	29460
2026-01-26 07:43:52.06	24.97	18.78	-49.8	-67.7	3.8	7.46e-01	0	43	104	0	70	29454
2026-01-26 07:43:53.07	24.70	18.81	-49.8	-67.7	3.8	7.43e-01	0	43	104	0	70	29545
2026-01-26 07:43:54.08	24.42	18.85	-49.8	-67.7	3.8	7.41e-01	0	43	104	0	70	29400
2026-01-26 07:43:55.09	24.14	18.88	-49.8	-67.7	3.8	7.44e-01	0	43	104	0	70	29503
2026-01-26 07:43:56.09	23.87	18.91	-49.8	-67.7	3.8	7.45e-01	0	43	104	0	70	29448
2026-01-26 07:43:57.10	23.59	18.94	-49.8	-67.7	3.8	7.46e-01	0	43	104	0	70	29530
2026-01-26 07:43:58.11	23.31	18.96	-49.8	-67.7	3.8	7.45e-01	0	43	104	0	70	29462
2026-01-26 07:43:59.12	23.03	18.99	-49.8	-67.7	3.8	7.45e-01	0	43	104	0	70	29476
2026-01-26 07:44:00.13	22.75	19.02	-49.8	-67.7	3.8	7.46e-01	0	43	104	0	70	29590
2026-01-26 07:44:01.14	22.47	19.05	-49.8	-67.7	3.8	7.45e-01	0	44	104	0	70	29518
2026-01-26 07:44:02.14	22.19	19.07	-49.8	-67.7	3.8	7.45e-01	0	43	104	0	70	29443
2026-01-26 07:44:03.15	21.91	19.10	-49.8	-67.7	3.8	7.44e-01	0	43	104	0	70	29478
2026-01-26 07:44:04.16	21.63	19.12	-49.8	-67.7	3.8	7.47e-01	0	44	104	0	70	29477
2026-01-26 07:44:05.17	21.35	19.15	-49.8	-67.7	3.8	7.45e-01	0	43	104	0	70	29476
2026-01-26 07:44:06.18	21.07	19.17	-49.8	-67.7	3.8	7.43e-01	0	43	104	0	70	29518
2026-01-26 07:44:07.19	20.78	19.19	-49.8	-67.7	3.8	7.49e-01	0	43	104	0	70	29452
2026-01-26 07:44:08.20	20.50	19.22	-49.8	-67.7	3.8	7.47e-01	0	43	104	0	70	29489
2026-01-26 07:44:09.21	20.21	19.24	-49.8	-67.7	3.8	7.46e-01	0	43	104	0	70	29535
2026-01-26 07:44:10.22	19.93	19.26	-49.8	-67.7	3.8	7.47e-01	0	43	104	0	70	29548
2026-01-26 07:44:11.22	19.65	19.28	-49.8	-67.7	3.8	7.41e-01	0	43	104	0	70	29512
2026-01-26 07:44:12.23	19.36	19.30	-49.8	-67.7	3.8	7.44e-01	0	43	104	0	70	29463
2026-01-26 07:44:13.24	19.08	19.32	-49.8	-67.7	3.8	7.43e-01	0	43	104	0	70	29512
2026-01-26 07:44:14.25	18.79	19.33	-49.8	-67.7	3.8	7.49e-01	0	43	104	0	70	29493
2026-01-26 07:44:15.26	18.50	19.35	-49.8	-67.7	3.8	7.47e-01	0	43	104	0	70	29479
2026-01-26 07:44:16.26	18.22	19.37	-49.8	-67.7	3.8	7.45e-01	0	43	104	0	70	29481
2026-01-26 07:44:17.27	17.93	19.38	-49.8	-67.7	3.8	7.44e-01	0	43	104	0	70	29485
2026-01-26 07:44:18.28	17.64	19.40	-49.8	-67.7	3.8	7.48e-01	0	43	104	0	70	29529
2026-01-26 07:44:19.28	17.36	19.41	-49.8	-67.7	3.8	7.46e-01	0	43	104	0	70	29467
2026-01-26 07:44:20.29	17.07	19.43	-49.8	-67.7	3.8	7.46e-01	0	43	104	0	70	29436
2026-01-26 07:44:21.30	16.78	19.44	-49.8	-67.7	3.8	7.46e-01	0	43	104	0	70	29519
2026-01-26 07:44:22.31	16.49	19.45	-49.8	-67.7	3.8	7.45e-01	0	43	104	0	70	29470
2026-01-26 07:44:23.31	16.21	19.46	-49.8	-67.7	3.8	7.45e-01	0	43	104	0	70	29496
2026-01-26 07:44:24.32	15.92	19.48	-49.8	-67.7	3.8	7.47e-01	0	43	104	0	70	29480
2026-01-26 07:44:25.33	15.63	19.49	-49.8	-67.7	3.8	7.45e-01	0	43	104	0	70	29451
2026-01-26 07:44:26.34	15.34	19.50	-49.8	-67.7	3.8	7.47e-01	0	43	104	0	70	29481
2026-01-26 07:44:27.35	15.05	19.50	-49.8	-67.7	3.8	7.44e-01	0	43	104	0	70	29479
2026-01-26 07:44:28.35	14.76	19.51	-49.8	-67.7	3.8	7.45e-01	0	44	104	0	70	29486
2026-01-26 07:44:29.36	14.47	19.52	-49.8	-67.7	3.8	7.44e-01	0	43	104	0	70	29463
2026-01-26 07:44:30.37	14.18	19.53	-49.8	-67.7	3.8	7.42e-01	0	43	104	0	70	29549
2026-01-26 07:44:31.38	13.89	19.53	-49.8	-67.7	3.8	7.42e-01	0	43	104	0	70	29463
2026-01-26 07:44:32.38	13.61	19.54	-49.8	-67.7	3.8	7.45e-01	0	43	104	0	70	29498
2026-01-26 07:44:33.39	13.32	19.54	-49.8	-67.7	3.8	7.48e-01	0	43	104	0	70	29535
2026-01-26 07:44:34.40	13.03	19.54	-49.8	-67.7	3.8	7.43e-01	0	43	104	0	70	29527
2026-01-26 07:44:35.41	12.74	19.55	-49.8	-67.7	3.8	7.47e-01	0	43	104	0	70	29505
2026-01-26 07:44:36.41	12.45	19.55	-49.8	-67.7	3.8	7.48e-01	0	43	104	0	70	29500
2026-01-26 07:44:37.42	12.16	19.55	-49.8	-67.7	3.8	7.46e-01	0	43	104	0	70	29548
2026-01-26 07:44:38.43	11.87	19.55	-49.8	-67.7	3.8	7.45e-01	0	43	104	0	70	29524
2026-01-26 07:44:39.44	11.58	19.55	-49.8	-67.7	3.8	7.44e-01	0	43	104	0	70	29515
2026-01-26 07:44:40.45	11.28	19.55	-49.8	-67.7	3.8	7.44e-01	0	43	104	0	70	29512
2026-01-26 07:44:41.45	11.00	19.55	-49.8	-67.7	3.8	7.44e-01	0	43	104	0	70	29546
2026-01-26 07:44:42.46	10.71	19.55	-49.8	-67.7	3.8	7.43e-01	0	43	104	0	70	29445
2026-01-26 07:44:43.46	10.42	19.54	-49.8	-67.7	3.8	7.45e-01	0	43	104	0	70	29512
2026-01-26 07:44:44.47	10.13	19.54	-49.8	-67.7	3.8	7.46e-01	0	43	104	0	70	29463
2026-01-26 07:44:45.48	9.84	19.54	-49.8	-67.7	3.8	7.45e-01	0	44	104	0	70	29500
2026-01-26 07:44:46.49	9.55	19.53	-49.8	-67.7	3.8	7.45e-01	0	43	104	0	70	29424
2026-01-26 07:44:47.49	9.26	19.53	-49.8	-67.7	3.8	7.49e-01	0	43	104	0	70	29492
2026-01-26 07:44:48.50	8.97	19.52	-49.8	-67.7	3.8	7.45e-01	0	43	104	0	70	29477
2026-01-26 07:44:49.51	8.68	19.51	-49.8	-67.7	3.8	7.46e-01	0	44	104	0	70	29498
2026-01-26 07:44:50.52	8.39	19.50	-49.8	-67.7	3.8	7.44e-01	0	44	104	0	70	29503
2026-01-26 07:44:51.53	8.10	19.49	-49.8	-67.7	3.8	7.45e-01	0	43	104	0	70	29455
2026-01-26 07:44:52.54	7.81	19.48	-49.8	-67.7	3.8	7.44e-01	0	44	104	0	70	29477
2026-01-26 07:44:53.55	7.52	19.47	-49.8	-67.7	3.8	7.44e-01	0	43	104	0	70	29465
2026-01-26 07:44:54.56	7.23	19.46	-49.8	-67.7	3.8	7.45e-01	0	43	104	0	70	29475
2026-01-26 07:44:55.57	6.94	19.45	-49.8	-67.7	3.8	7.43e-01	0	43	104	0	70	29495
2026-01-26 07:44:56.58	6.66	19.44	-49.8	-67.7	3.8	7.46e-01	0	43	104	0	70	29525
2026-01-26 07:44:57.59	6.37	19.43	-49.8	-67.7	3.8	7.47e-01	0	44	104	0	70	29532
2026-01-26 07:44:58.59	6.08	19.41	-49.8	-67.7	3.8	7.47e-01	0	44	104	0	70	29474
2026-01-26 07:44:59.60	5.79	19.40	-49.8	-67.7	3.8	7.45e-01	0	43	104	0	70	29458
2026-01-26 07:45:00.61	5.51	19.38	-49.8	-67.7	3.8	7.46e-01	0	44	104	0	70	29497
2026-01-26 07:45:01.61	5.22	19.37	-49.8	-67.7	3.8	7.45e-01	0	43	104	0	70	29500
2026-01-26 07:45:02.62	4.94	19.35	-49.8	-67.7	3.8	7.44e-01	0	43	104	0	70	29513
2026-01-26 07:45:03.63	4.65	19.33	-49.8	-67.7	3.8	7.44e-01	0	43	104	0	70	29526
2026-01-26 07:45:04.63	4.37	19.31	-49.8	-67.7	3.8	7.44e-01	0	44	104	0	70	29528
2026-01-26 07:45:05.64	4.08	19.30	-49.8	-67.7	3.8	7.41e-01	0	43	104	0	70	29478
2026-01-26 07:45:06.65	3.80	19.28	-49.8	-67.7	3.8	7.42e-01	0	43	104	0	70	29484
2026-01-26 07:45:07.66	3.51	19.26	-49.8	-67.7	3.8	7.45e-01	0	43	104	0	70	29501
2026-01-26 07:45:08.67	3.23	19.23	-49.8	-67.7	3.8	7.49e-01	0	43	104	0	70	29574
2026-01-26 07:45:09.67	2.94	19.21	-49.8	-67.7	3.8	7.45e-01	0	43	104	0	70	29486
2026-01-26 07:45:10.68	2.66	19.19	-49.8	-67.7	3.8	7.47e-01	0	43	104	0	70	29465
2026-01-26 07:45:11.69	2.38	19.17	-49.8	-67.7	3.8	7.47e-01	0	43	104	0	70	29484
2026-01-26 07:45:12.69	2.10	19.14	-49.8	-67.7	3.8	7.45e-01	0	43	104	0	70	29496
2026-01-26 07:45:13.70	1.82	19.12	-49.8	-67.7	3.8	7.45e-01	0	43	104	0	70	29551
2026-01-26 07:45:14.71	1.53	19.10	-49.8	-67.7	3.8	7.44e-01	0	43	104	0	70	29499
2026-01-26 07:45:15.72	1.25	19.07	-49.8	-67.7	3.8	7.45e-01	0	44	104	0	70	29479
2026-01-26 07:45:16.72	0.97	19.04	-49.8	-67.7	3.8	7.45e-01	0	43	104	0	70	29550
2026-01-26 07:45:17.73	0.69	19.02	-49.8	-67.7	3.8	7.46e-01	0	44	104	0	70	29470
2026-01-26 07:45:18.73	0.42	18.99	-49.8	-67.7	3.8	7.45e-01	0	43	104	0	70	29519
2026-01-26 07:45:19.74	0.14	18.96	-49.8	-67.7	3.8	7.45e-01	0	43	104	0	70	29462
2026-01-26 07:45:20.75	359.86	18.93	-49.8	-67.7	3.8	7.44e-01	0	43	104	0	70	29501
2026-01-26 07:45:21.76	359.58	18.90	-49.8	-67.7	3.8	7.45e-01	0	43	104	0	70	29545
2026-01-26 07:45:22.77	359.30	18.87	-49.8	-67.7	3.8	7.45e-01	0	44	104	0	70	29545
2026-01-26 07:45:23.77	359.03	18.84	-49.8	-67.7	3.8	7.48e-01	0	43	104	0	70	29470
2026-01-26 07:45:24.78	358.75	18.81	-49.8	-67.7	3.8	7.48e-01	0	43	104	0	70	29509
2026-01-26 07:45:25.79	358.48	18.78	-49.8	-67.7	3.8	7.43e-01	0	43	104	0	70	29497
2026-01-26 07:45:26.80	358.20	18.75	-49.8	-67.7	3.8	7.48e-01	0	43	104	0	70	29540
2026-01-26 07:45:27.81	357.93	18.71	-49.8	-67.7	3.8	7.43e-01	0	43	104	0	70	29447
2026-01-26 07:45:28.82	357.65	18.68	-49.8	-67.7	3.8	7.45e-01	0	43	104	0	70	29524
2026-01-26 07:45:29.83	357.38	18.65	-49.8	-67.7	3.8	7.43e-01	0	43	104	0	70	29530
2026-01-26 07:45:30.84	357.11	18.61	-49.8	-67.7	3.8	7.44e-01	0	43	104	0	70	29486
2026-01-26 07:45:31.85	356.84	18.58	-49.8	-67.7	3.8	7.44e-01	0	43	104	0	70	29552
2026-01-26 07:45:32.85	356.57	18.54	-49.8	-67.7	3.8	7.49e-01	0	43	104	0	70	29585
2026-01-26 07:45:33.86	356.30	18.50	-49.8	-67.7	3.8	7.46e-01	0	43	104	0	70	29543
2026-01-26 07:45:34.87	356.03	18.47	-49.8	-67.7	3.8	7.46e-01	0	43	104	0	70	29500
2026-01-26 07:45:35.88	355.76	18.43	-49.8	-67.7	3.8	7.48e-01	0	43	104	0	70	29513
2026-01-26 07:45:36.88	355.49	18.39	-49.8	-67.7	3.8	7.43e-01	0	43	104	0	70	29505
2026-01-26 07:45:37.89	355.23	18.35	-49.8	-67.7	3.8	7.42e-01	0	43	104	0	70	29558
2026-01-26 07:45:38.90	354.96	18.31	-49.8	-67.7	3.8	7.45e-01	0	43	104	0	70	29445
2026-01-26 07:45:39.91	354.69	18.27	-49.8	-67.7	3.8	7.45e-01	0	44	104	0	70	29497
2026-01-26 07:45:40.91	354.43	18.23	-49.8	-67.7	3.8	7.46e-01	0	43	104	0	70	29474
2026-01-26 07:45:41.92	354.17	18.19	-49.8	-67.7	3.8	7.47e-01	0	43	104	0	70	29493
2026-01-26 07:45:42.92	353.91	18.15	-49.8	-67.7	3.8	7.46e-01	0	43	104	0	70	29525
2026-01-26 07:45:43.92	353.65	18.11	-49.8	-67.7	3.8	7.47e-01	0	44	104	0	70	29429
2026-01-26 07:45:44.93	353.38	18.06	-49.8	-67.7	3.8	7.44e-01	0	43	104	0	70	29525
2026-01-26 07:45:45.93	353.12	18.02	-49.8	-67.7	3.8	7.46e-01	0	43	104	0	70	29489
2026-01-26 07:45:46.94	352.86	17.98	-49.8	-67.7	3.8	7.46e-01	0	44	104	0	70	29528
2026-01-26 07:45:47.95	352.60	17.93	-49.8	-67.7	3.8	7.45e-01	0	44	104	0	70	29517
2026-01-26 07:45:48.96	352.34	17.89	-49.8	-67.7	3.8	7.44e-01	0	43	104	0	70	29485
2026-01-26 07:45:49.97	352.09	17.84	-49.8	-67.7	3.8	7.46e-01	0	43	104	0	70	29473
2026-01-26 07:45:50.98	351.83	17.80	-49.8	-67.7	3.8	7.47e-01	0	44	104	0	70	29494
2026-01-26 07:45:51.99	351.57	17.75	-49.8	-67.7	3.8	7.47e-01	0	43	104	0	70	29538
2026-01-26 07:45:52.99	351.32	17.71	-49.8	-67.7	3.8	7.46e-01	0	43	104	0	70	29446
2026-01-26 07:45:54.00	351.06	17.66	-49.8	-67.7	3.8	7.46e-01	0	44	104	0	70	29488
2026-01-26 07:45:55.01	350.81	17.61	-49.8	-67.7	3.8	7.48e-01	0	43	104	0	70	29422
2026-01-26 07:45:56.02	350.56	17.56	-49.8	-67.7	3.8	7.47e-01	0	44	104	0	70	29519
2026-01-26 07:45:57.03	350.30	17.52	-49.8	-67.7	3.8	7.47e-01	0	43	104	0	70	29499
2026-01-26 07:45:58.03	350.06	17.47	-49.8	-67.7	3.8	7.46e-01	0	43	104	0	70	29560
2026-01-26 07:45:59.04	349.81	17.42	-49.8	-67.7	3.8	7.43e-01	0	43	104	0	70	29464
2026-01-26 07:46:00.05	349.56	17.37	-49.8	-67.7	3.8	7.46e-01	0	43	104	0	70	29516
2026-01-26 07:46:01.06	349.31	17.32	-49.8	-67.7	3.8	7.42e-01	0	44	104	0	70	29513
2026-01-26 07:46:02.07	349.06	17.27	-49.8	-67.7	3.8	7.44e-01	0	43	104	0	70	29467
2026-01-26 07:46:03.08	348.81	17.22	-49.8	-67.7	3.8	7.45e-01	0	43	104	0	70	29543
2026-01-26 07:46:04.09	348.57	17.17	-49.8	-67.7	3.8	7.45e-01	0	43	104	0	70	29500
2026-01-26 07:46:05.09	348.32	17.11	-49.8	-67.7	3.8	7.44e-01	0	43	104	0	70	29525
2026-01-26 07:46:06.10	348.08	17.06	-49.8	-67.7	3.8	7.43e-01	0	43	104	0	70	29491
2026-01-26 07:46:07.11	347.84	17.01	-49.8	-67.7	3.8	7.44e-01	0	44	104	0	70	29478
2026-01-26 07:46:08.12	347.59	16.96	-49.8	-67.7	3.8	7.44e-01	0	44	104	0	70	29503
2026-01-26 07:46:09.13	347.35	16.90	-49.8	-67.7	3.8	7.43e-01	0	43	104	0	70	29507
2026-01-26 07:46:10.14	347.11	16.85	-49.8	-67.7	3.8	7.44e-01	0	43	104	0	70	29502
2026-01-26 07:46:11.15	346.87	16.80	-49.8	-67.7	3.8	7.46e-01	0	44	104	0	70	29469
2026-01-26 07:46:12.15	346.63	16.74	-49.8	-67.7	3.8	7.49e-01	0	44	104	0	70	29513
2026-01-26 07:46:13.16	346.40	16.69	-49.8	-67.7	3.8	7.45e-01	0	43	104	0	70	29399
2026-01-26 07:46:14.17	346.16	16.63	-49.8	-67.7	3.8	7.45e-01	0	43	104	0	70	29565
2026-01-26 07:46:15.17	345.93	16.58	-49.8	-67.7	3.8	7.44e-01	0	44	104	0	70	29540
2026-01-26 07:46:16.18	345.69	16.52	-49.8	-67.7	3.8	7.43e-01	0	44	104	0	70	29507
2026-01-26 07:46:17.19	345.46	16.47	-49.8	-67.7	3.8	7.43e-01	0	44	104	0	70	29534
2026-01-26 07:46:18.20	345.22	16.41	-49.8	-67.7	3.8	7.47e-01	0	43	104	0	70	29505
2026-01-26 07:46:19.21	344.99	16.35	-49.8	-67.7	3.8	7.43e-01	0	44	104	0	70	29481
2026-01-26 07:46:20.21	344.76	16.30	-49.8	-67.7	3.8	7.44e-01	0	43	104	0	70	29513
2026-01-26 07:46:21.22	344.53	16.24	-49.8	-67.7	3.8	7.43e-01	0	43	104	0	70	29461
2026-01-26 07:46:22.22	344.30	16.18	-49.8	-67.7	3.8	7.42e-01	0	43	104	0	70	29508
2026-01-26 07:46:23.23	344.08	16.13	-49.8	-67.7	3.8	7.46e-01	0	43	104	0	70	29522
2026-01-26 07:46:24.24	343.85	16.07	-49.8	-67.7	3.8	7.45e-01	0	43	104	0	70	29517
2026-01-26 07:46:25.24	343.62	16.01	-49.8	-67.7	3.8	7.47e-01	0	43	104	0	70	29452
2026-01-26 07:46:26.25	343.40	15.95	-49.8	-67.7	3.8	7.43e-01	0	43	104	0	70	29522
2026-01-26 07:46:27.26	343.17	15.89	-49.8	-67.7	3.8	7.44e-01	0	43	104	0	70	29512
2026-01-26 07:46:28.26	342.95	15.83	-49.8	-67.7	3.8	7.47e-01	0	43	104	0	70	29585
2026-01-26 07:46:29.27	342.73	15.77	-49.8	-67.7	3.8	7.46e-01	0	44	104	0	70	29498
2026-01-26 07:46:30.28	342.51	15.71	-49.8	-67.7	3.8	7.45e-01	0	43	104	0	70	29508
2026-01-26 07:46:31.28	342.29	15.66	-49.8	-67.7	3.8	7.44e-01	0	43	104	0	70	29441
2026-01-26 07:46:32.28	342.07	15.60	-49.8	-67.7	3.8	7.45e-01	0	43	104	0	70	29485
2026-01-26 07:46:33.29	341.85	15.54	-49.8	-67.7	3.8	7.48e-01	0	43	104	0	70	29520
2026-01-26 07:46:34.30	341.63	15.47	-49.8	-67.7	3.8	7.44e-01	0	43	104	0	70	29432
2026-01-26 07:46:35.31	341.42	15.41	-49.8	-67.7	3.8	7.43e-01	0	43	104	0	70	29515
2026-01-26 07:46:36.31	341.20	15.35	-49.8	-67.7	3.8	7.42e-01	0	43	104	0	70	29479
2026-01-26 07:46:37.32	340.99	15.29	-49.8	-67.7	3.8	7.48e-01	0	43	104	0	70	29471
2026-01-26 07:46:38.33	340.77	15.23	-49.8	-67.7	3.8	7.50e-01	0	43	104	0	70	29516
2026-01-26 07:46:39.33	340.56	15.17	-49.8	-67.7	3.8	7.49e-01	0	43	104	0	70	29477
2026-01-26 07:46:40.34	340.35	15.11	-49.8	-67.7	3.8	7.44e-01	0	43	104	0	70	29464
2026-01-26 07:46:41.35	340.14	15.04	-49.8	-67.7	3.8	7.50e-01	0	43	104	0	70	29516
2026-01-26 07:46:42.36	339.93	14.98	-49.8	-67.7	3.8	7.46e-01	0	43	104	0	70	29568
2026-01-26 07:46:43.37	339.72	14.92	-49.8	-67.7	3.8	7.45e-01	0	43	104	0	70	29519
2026-01-26 07:46:44.37	339.51	14.86	-49.8	-67.7	3.8	7.46e-01	0	43	104	0	70	29450
2026-01-26 07:46:45.38	339.30	14.80	-49.8	-67.7	3.8	7.45e-01	0	43	104	0	70	29565
2026-01-26 07:46:46.39	339.10	14.73	-49.8	-67.7	3.8	7.46e-01	0	43	104	0	70	29486
2026-01-26 07:46:47.40	338.89	14.67	-49.8	-67.7	3.8	7.44e-01	0	43	104	0	70	29459
2026-01-26 07:46:48.41	338.69	14.61	-49.8	-67.7	3.8	7.42e-01	0	43	104	0	70	29511
2026-01-26 07:46:49.42	338.48	14.54	-49.8	-67.7	3.8	7.46e-01	0	43	104	0	70	29447
2026-01-26 07:46:50.42	338.28	14.48	-49.8	-67.7	3.8	7.43e-01	0	43	104	0	70	29518
2026-01-26 07:46:51.43	338.08	14.41	-49.8	-67.7	3.8	7.45e-01	0	43	104	0	70	29487
2026-01-26 07:46:52.44	337.88	14.35	-49.8	-67.7	3.8	7.46e-01	0	43	104	0	70	29490
2026-01-26 07:46:53.45	337.68	14.29	-49.8	-67.7	3.8	7.46e-01	0	43	104	0	70	29482
2026-01-26 07:46:54.45	337.48	14.22	-49.8	-67.7	3.8	7.43e-01	0	43	104	0	70	29454
2026-01-26 07:46:55.46	337.28	14.16	-49.8	-67.7	3.8	7.46e-01	0	43	104	0	70	29459
2026-01-26 07:46:56.47	337.09	14.09	-49.8	-67.7	3.8	7.45e-01	0	43	104	0	70	29566
2026-01-26 07:46:57.48	336.89	14.03	-49.8	-67.7	3.8	7.44e-01	0	43	104	0	70	29473
2026-01-26 07:46:58.49	336.69	13.96	-49.8	-67.7	3.8	7.46e-01	0	44	104	0	70	29450
2026-01-26 07:46:59.50	336.50	13.90	-49.8	-67.7	3.8	7.43e-01	0	44	104	0	70	29516
2026-01-26 07:47:00.51	336.31	13.83	-49.8	-67.7	3.8	7.44e-01	0	43	104	0	70	29508
2026-01-26 07:47:01.51	336.11	13.77	-49.8	-67.7	3.8	7.43e-01	0	43	104	0	70	29506
2026-01-26 07:47:02.52	335.92	13.70	-49.8	-67.7	3.8	7.45e-01	0	44	104	0	70	29544
2026-01-26 07:47:03.53	335.73	13.64	-49.8	-67.7	3.8	7.43e-01	0	43	104	0	70	29624
2026-01-26 07:47:04.53	335.54	13.57	-49.8	-67.7	3.8	7.47e-01	0	43	104	0	70	29453
2026-01-26 07:47:05.54	335.36	13.51	-49.8	-67.7	3.8	7.46e-01	0	43	104	0	70	29467
2026-01-26 07:47:06.55	335.17	13.44	-49.8	-67.7	3.8	7.48e-01	0	43	104	0	70	29525
2026-01-26 07:47:07.56	334.98	13.38	-49.8	-67.7	3.8	7.48e-01	0	43	104	0	70	29506
2026-01-26 07:47:08.57	334.79	13.31	-49.8	-67.7	3.8	7.46e-01	0	43	104	0	70	29512
2026-01-26 07:47:09.57	334.61	13.24	-49.8	-67.7	3.8	7.49e-01	0	43	104	0	70	29501
2026-01-26 07:47:10.58	334.43	13.18	-49.8	-67.7	3.8	7.45e-01	0	44	104	0	70	29450
2026-01-26 07:47:11.59	334.24	13.11	-49.8	-67.7	3.8	7.47e-01	0	43	104	0	70	29481
2026-01-26 07:47:12.60	334.06	13.05	-49.8	-67.7	3.8	7.43e-01	0	44	104	0	70	29473
2026-01-26 07:47:13.60	333.88	12.98	-49.8	-67.7	3.8	7.44e-01	0	43	104	0	70	29444
2026-01-26 07:47:14.61	333.70	12.91	-49.8	-67.7	3.8	7.44e-01	0	44	104	0	70	29422
2026-01-26 07:47:15.62	333.52	12.85	-49.8	-67.7	3.8	7.43e-01	0	43	104	0	70	29472
2026-01-26 07:47:16.63	333.34	12.78	-49.8	-67.7	3.8	7.43e-01	0	43	104	0	70	29450
2026-01-26 07:47:17.64	333.16	12.71	-49.8	-67.7	3.8	7.46e-01	0	43	104	0	70	29517
2026-01-26 07:47:18.65	332.98	12.65	-49.8	-67.7	3.8	7.43e-01	0	43	104	0	70	29393
2026-01-26 07:47:19.65	332.81	12.58	-49.8	-67.7	3.8	7.45e-01	0	43	104	0	70	29459
2026-01-26 07:47:20.66	332.63	12.51	-49.8	-67.7	3.8	7.46e-01	0	43	104	0	70	29479
2026-01-26 07:47:21.66	332.46	12.45	-49.8	-67.7	3.8	7.45e-01	0	43	104	0	70	29445
2026-01-26 07:47:22.67	332.29	12.38	-49.8	-67.7	3.8	7.48e-01	0	44	104	0	70	29447
2026-01-26 07:47:23.68	332.11	12.31	-49.8	-67.7	3.8	7.47e-01	0	44	104	0	70	29479
2026-01-26 07:47:24.69	331.94	12.25	-49.8	-67.7	3.8	7.48e-01	0	43	104	0	70	29447
2026-01-26 07:47:25.70	331.77	12.18	-49.8	-67.7	3.8	7.45e-01	0	43	104	0	70	29462
2026-01-26 07:47:26.71	331.60	12.11	-49.8	-67.7	3.8	7.47e-01	0	44	104	0	70	29472
2026-01-26 07:47:27.71	331.43	12.05	-49.8	-67.7	3.8	7.48e-01	0	43	104	0	70	29547
2026-01-26 07:47:28.72	331.26	11.98	-49.8	-67.7	3.8	7.50e-01	0	43	104	0	70	29509
2026-01-26 07:47:29.73	331.09	11.91	-49.8	-67.7	3.8	7.48e-01	0	43	104	0	70	29450
2026-01-26 07:47:30.74	330.93	11.85	-49.8	-67.7	3.8	7.43e-01	0	43	104	0	70	29503
2026-01-26 07:47:31.74	330.76	11.78	-49.8	-67.7	3.8	7.45e-01	0	43	104	0	70	29421
2026-01-26 07:47:32.75	330.60	11.71	-49.8	-67.7	3.8	7.46e-01	0	43	104	0	70	29536
2026-01-26 07:47:33.76	330.43	11.65	-49.8	-67.7	3.8	7.45e-01	0	43	104	0	70	29410
2026-01-26 07:47:34.77	330.27	11.58	-49.8	-67.7	3.8	7.44e-01	0	44	104	0	70	29447
2026-01-26 07:47:35.78	330.11	11.51	-49.8	-67.7	3.8	7.44e-01	0	43	104	0	70	29461
2026-01-26 07:47:36.78	329.95	11.44	-49.8	-67.7	3.8	7.45e-01	0	44	104	0	70	29432
2026-01-26 07:47:37.79	329.78	11.38	-49.8	-67.7	3.8	7.43e-01	0	43	104	0	70	29467
2026-01-26 07:47:38.80	329.62	11.31	-49.8	-67.7	3.8	7.47e-01	0	43	104	0	70	29498
2026-01-26 07:47:39.81	329.46	11.24	-49.8	-67.7	3.8	7.44e-01	0	43	104	0	70	29499
2026-01-26 07:47:40.81	329.31	11.18	-49.8	-67.7	3.8	7.47e-01	0	43	104	0	70	29522
2026-01-26 07:47:41.82	329.15	11.11	-49.8	-67.7	3.8	7.45e-01	0	43	104	0	70	29506
2026-01-26 07:47:42.83	328.99	11.04	-49.8	-67.7	3.8	7.46e-01	0	43	104	0	70	29469
2026-01-26 07:47:43.84	328.83	10.97	-49.8	-67.7	3.8	7.42e-01	0	43	104	0	70	29414
2026-01-26 07:47:44.85	328.68	10.91	-49.8	-67.7	3.8	7.45e-01	0	44	104	0	70	29446
2026-01-26 07:47:45.86	328.52	10.84	-49.8	-67.7	3.8	7.44e-01	0	44	104	0	70	29488
2026-01-26 07:47:46.87	328.37	10.77	-49.8	-67.7	3.8	7.44e-01	0	43	104	0	70	29548
2026-01-26 07:47:47.88	328.22	10.71	-49.8	-67.7	3.8	7.44e-01	0	43	104	0	70	29481
2026-01-26 07:47:48.89	328.06	10.64	-49.8	-67.7	3.8	7.45e-01	0	43	104	0	70	29470
2026-01-26 07:47:49.90	327.91	10.57	-49.8	-67.7	3.8	7.44e-01	0	44	104	0	70	29462
2026-01-26 07:47:50.90	327.76	10.51	-49.8	-67.7	3.8	7.44e-01	0	43	104	0	70	29457
2026-01-26 07:47:51.91	327.61	10.44	-49.8	-67.7	3.8	7.49e-01	0	43	104	0	70	29513
2026-01-26 07:47:52.92	327.46	10.37	-49.8	-67.7	3.8	7.45e-01	0	43	104	0	70	29497
2026-01-26 07:47:53.92	327.31	10.30	-49.8	-67.7	3.8	7.46e-01	0	44	104	0	70	29425
2026-01-26 07:47:54.93	327.17	10.24	-49.8	-67.7	3.8	7.46e-01	0	44	104	0	70	29460
2026-01-26 07:47:55.94	327.02	10.17	-49.8	-67.7	3.8	7.46e-01	0	43	104	0	70	29506
2026-01-26 07:47:56.95	326.87	10.10	-49.8	-67.7	3.8	7.45e-01	0	43	104	0	70	29453
2026-01-26 07:47:57.95	326.73	10.04	-49.8	-67.7	3.8	7.46e-01	0	43	104	0	70	29438
2026-01-26 07:47:58.96	326.58	9.97	-49.8	-67.7	3.8	7.43e-01	0	43	104	0	70	29532
2026-01-26 07:47:59.97	326.44	9.90	-49.8	-67.7	3.8	7.45e-01	0	44	104	0	70	29463
2026-01-26 07:48:00.98	326.29	9.84	-49.8	-67.7	3.8	7.46e-01	0	43	104	0	70	29445
2026-01-26 07:48:01.99	326.15	9.77	-49.8	-67.7	3.8	7.47e-01	0	43	104	0	70	29470
2026-01-26 07:48:03.00	326.01	9.70	-49.8	-67.7	3.8	7.44e-01	0	43	104	0	70	29446
2026-01-26 07:48:04.00	325.87	9.64	-49.8	-67.7	3.8	7.43e-01	0	44	104	0	70	29424
2026-01-26 07:48:05.01	325.73	9.57	-49.8	-67.7	3.8	7.45e-01	0	44	104	0	70	29517
2026-01-26 07:48:06.01	325.59	9.50	-49.8	-67.7	3.8	7.43e-01	0	43	104	0	70	29499
2026-01-26 07:48:07.02	325.45	9.44	-49.8	-67.7	3.8	7.44e-01	0	43	104	0	70	29466
2026-01-26 07:48:08.03	325.31	9.37	-49.8	-67.7	3.8	7.46e-01	0	43	104	0	70	29445
2026-01-26 07:48:09.03	325.17	9.31	-49.8	-67.7	3.8	7.48e-01	0	43	104	0	70	29480
2026-01-26 07:48:10.04	325.04	9.24	-49.8	-67.7	3.8	7.45e-01	0	43	104	0	70	29521
2026-01-26 07:48:11.05	324.90	9.17	-49.8	-67.7	3.8	7.42e-01	0	43	104	0	70	29566
2026-01-26 07:48:12.06	324.76	9.11	-49.8	-67.7	3.8	7.45e-01	0	44	104	0	70	29480
2026-01-26 07:48:13.07	324.63	9.04	-49.8	-67.7	3.8	7.43e-01	0	43	104	0	70	29545
2026-01-26 07:48:14.08	324.49	8.97	-49.8	-67.7	3.8	7.43e-01	0	43	104	0	70	29488
2026-01-26 07:48:15.09	324.36	8.91	-49.8	-67.7	3.8	7.45e-01	0	44	104	0	70	29458
2026-01-26 07:48:16.09	324.23	8.84	-49.8	-67.7	3.8	7.44e-01	0	43	104	0	70	29358
2026-01-26 07:48:17.10	324.10	8.78	-49.8	-67.7	3.8	7.45e-01	0	43	104	0	70	29509
2026-01-26 07:48:18.11	323.96	8.71	-49.8	-67.7	3.8	7.43e-01	0	43	104	0	70	29468
2026-01-26 07:48:19.12	323.83	8.64	-49.8	-67.7	3.8	7.47e-01	0	44	104	0	70	29497
2026-01-26 07:48:20.13	323.70	8.58	-49.8	-67.7	3.8	7.43e-01	0	44	104	0	70	29429
2026-01-26 07:48:21.14	323.57	8.51	-49.8	-67.7	3.8	7.42e-01	0	44	104	0	70	29498
2026-01-26 07:48:22.15	323.44	8.45	-49.8	-67.7	3.8	7.46e-01	0	43	104	0	70	29481
2026-01-26 07:48:23.15	323.31	8.38	-49.8	-67.7	3.8	7.46e-01	0	43	104	0	70	29501
2026-01-26 07:48:24.16	323.19	8.31	-49.8	-67.7	3.8	7.46e-01	0	44	104	0	70	29512
2026-01-26 07:48:25.17	323.06	8.25	-49.8	-67.7	3.8	7.45e-01	0	43	104	0	70	29483
2026-01-26 07:48:26.17	322.93	8.18	-49.8	-67.7	3.8	7.51e-01	0	43	104	0	70	29398
2026-01-26 07:48:27.18	322.81	8.12	-49.8	-67.7	3.8	7.44e-01	0	43	104	0	70	29411
2026-01-26 07:48:28.19	322.68	8.05	-49.8	-67.7	3.8	7.43e-01	0	43	104	0	70	29450
2026-01-26 07:48:29.19	322.56	7.99	-49.8	-67.7	3.8	7.44e-01	0	43	104	0	70	29387
2026-01-26 07:48:30.20	322.43	7.92	-49.8	-67.7	3.8	7.47e-01	0	44	104	0	70	29364
2026-01-26 07:48:31.21	322.31	7.86	-49.8	-67.7	3.8	7.43e-01	0	43	104	0	70	29416
2026-01-26 07:48:32.22	322.19	7.79	-49.8	-67.7	3.8	7.39e-01	0	44	104	0	70	29428
2026-01-26 07:48:33.23	322.07	7.73	-49.8	-67.7	3.8	7.43e-01	0	44	104	0	70	29418
2026-01-26 07:48:34.23	321.95	7.66	-49.8	-67.7	3.8	7.45e-01	0	44	104	0	70	29429
2026-01-26 07:48:35.25	321.82	7.60	-49.8	-67.7	3.8	7.44e-01	0	44	104	0	70	29355
2026-01-26 07:48:36.25	321.70	7.53	-49.8	-67.7	3.8	7.43e-01	0	44	104	0	70	29430
2026-01-26 07:48:37.26	321.58	7.47	-49.8	-67.7	3.8	7.49e-01	0	43	104	0	70	29447
2026-01-26 07:48:38.27	321.46	7.40	-49.8	-67.7	3.8	7.45e-01	0	43	104	0	70	29483
2026-01-26 07:48:39.27	321.35	7.34	-49.8	-67.7	3.8	7.44e-01	0	43	104	0	70	29517
2026-01-26 07:48:40.28	321.23	7.27	-49.8	-67.7	3.8	7.47e-01	0	43	104	0	70	29442
2026-01-26 07:48:41.29	321.11	7.21	-49.8	-67.7	3.8	7.45e-01	0	43	104	0	70	29394
2026-01-26 07:48:42.30	320.99	7.15	-49.8	-67.7	3.8	7.44e-01	0	44	104	0	70	29454
2026-01-26 07:48:43.31	320.88	7.08	-49.8	-67.7	3.8	7.47e-01	0	43	104	0	70	29481
2026-01-26 07:48:44.31	320.76	7.02	-49.8	-67.7	3.8	7.45e-01	0	43	104	0	70	29414
2026-01-26 07:48:45.32	320.65	6.95	-49.8	-67.7	3.8	7.44e-01	0	43	104	0	70	29447
2026-01-26 07:48:46.33	320.53	6.89	-49.8	-67.7	3.8	7.44e-01	0	44	104	0	70	29417
2026-01-26 07:48:47.33	320.42	6.83	-49.8	-67.7	3.8	7.45e-01	0	43	104	0	70	29432
2026-01-26 07:48:48.34	320.31	6.76	-49.8	-67.7	3.8	7.43e-01	0	43	104	0	70	29460
2026-01-26 07:48:49.35	320.19	6.70	-49.8	-67.7	3.8	7.47e-01	0	43	104	0	70	29433
2026-01-26 07:48:50.36	320.08	6.63	-49.8	-67.7	3.8	7.45e-01	0	44	104	0	70	29433
2026-01-26 07:48:51.37	319.97	6.57	-49.8	-67.7	3.8	7.48e-01	0	43	104	0	70	29479
2026-01-26 07:48:52.37	319.86	6.51	-49.8	-67.7	3.8	7.45e-01	0	43	104	0	70	29404
2026-01-26 07:48:53.38	319.75	6.44	-49.8	-67.7	3.8	7.43e-01	0	43	104	0	70	29433
2026-01-26 07:48:54.38	319.64	6.38	-49.8	-67.7	3.8	7.44e-01	0	43	104	0	70	29436
2026-01-26 07:48:55.39	319.53	6.32	-49.8	-67.7	3.8	7.44e-01	0	43	104	0	70	29474
2026-01-26 07:48:56.41	319.42	6.25	-49.8	-67.7	3.8	7.45e-01	0	43	104	0	70	29400
2026-01-26 07:48:57.41	319.31	6.19	-49.8	-67.7	3.8	7.40e-01	0	43	104	0	70	29386
2026-01-26 07:48:58.42	319.20	6.13	-49.8	-67.7	3.8	7.45e-01	0	44	104	0	70	29400
2026-01-26 07:48:59.43	319.09	6.06	-49.8	-67.6	3.8	7.46e-01	0	44	104	0	70	29234
2026-01-26 07:49:00.44	318.99	6.00	-49.8	-67.6	3.8	7.47e-01	0	44	104	0	70	29313
2026-01-26 07:49:01.44	318.88	5.94	-49.8	-67.6	3.8	7.46e-01	0	43	104	0	70	29221
2026-01-26 07:49:02.45	318.77	5.88	-49.8	-67.6	3.8	7.47e-01	0	43	104	0	70	29237
2026-01-26 07:49:03.46	318.67	5.81	-49.8	-67.6	3.8	7.47e-01	0	43	104	0	70	29171
2026-01-26 07:49:04.47	318.56	5.75	-49.8	-67.6	3.8	7.48e-01	0	43	104	0	70	29251
2026-01-26 07:49:05.48	318.46	5.69	-49.8	-67.7	3.8	7.46e-01	0	44	104	0	70	29370
2026-01-26 07:49:06.49	318.36	5.62	-49.8	-67.6	3.8	7.47e-01	0	44	104	0	70	29319
2026-01-26 07:49:07.49	318.25	5.56	-49.8	-67.7	3.8	7.48e-01	0	43	104	0	70	29358
2026-01-26 07:49:08.50	318.15	5.50	-49.8	-67.6	3.8	7.45e-01	0	44	104	0	70	29336
2026-01-26 07:49:09.51	318.05	5.44	-49.8	-67.6	3.8	7.44e-01	0	44	104	0	70	29337
2026-01-26 07:49:10.52	317.95	5.38	-49.8	-67.6	3.8	7.46e-01	0	43	104	0	70	29302
2026-01-26 07:49:11.52	317.84	5.31	-49.8	-67.7	3.8	7.46e-01	0	43	104	0	70	29371
2026-01-26 07:49:12.53	317.74	5.25	-49.8	-67.7	3.8	7.46e-01	0	43	104	0	70	29442
2026-01-26 07:49:13.54	317.64	5.19	-49.8	-67.6	3.8	7.47e-01	0	44	104	0	70	29299
2026-01-26 07:49:14.55	317.54	5.13	-49.8	-67.7	3.8	7.44e-01	0	43	104	0	70	29382
2026-01-26 07:49:15.56	317.44	5.07	-49.8	-67.6	3.8	7.46e-01	0	44	104	0	70	29310
2026-01-26 07:49:16.57	317.34	5.00	-49.8	-67.7	3.8	7.47e-01	0	44	104	0	70	29387
2026-01-26 07:49:17.57	317.25	4.94	-49.8	-67.6	3.8	7.50e-01	0	43	104	0	70	29159
2026-01-26 07:49:18.58	317.15	4.88	-49.8	-67.6	3.8	7.47e-01	0	44	104	0	70	29201
2026-01-26 07:49:19.59	317.05	4.82	-49.8	-67.7	3.8	7.47e-01	0	44	104	0	70	29383
2026-01-26 07:49:20.60	316.95	4.76	-49.8	-67.6	3.8	7.44e-01	0	43	104	0	70	29162
2026-01-26 07:49:21.60	316.86	4.70	-49.8	-67.6	3.8	7.47e-01	0	43	104	0	70	29288
2026-01-26 07:49:22.62	316.76	4.64	-49.8	-67.7	3.8	7.48e-01	0	43	104	0	70	29419
2026-01-26 07:49:23.62	316.66	4.57	-49.8	-67.6	3.8	7.47e-01	0	43	104	0	70	29293
2026-01-26 07:49:24.63	316.57	4.51	-49.8	-67.6	3.8	7.48e-01	0	44	104	0	70	29264
2026-01-26 07:49:25.64	316.47	4.45	-49.8	-67.6	3.8	7.45e-01	0	44	104	0	70	29231
2026-01-26 07:49:26.65	316.38	4.39	-49.8	-67.6	3.8	7.45e-01	0	44	104	0	70	29163
2026-01-26 07:49:27.65	316.29	4.33	-49.8	-67.6	3.8	7.46e-01	0	44	104	0	70	29263
2026-01-26 07:49:28.65	316.19	4.27	-49.8	-67.7	3.8	7.47e-01	0	44	104	0	70	29367
2026-01-26 07:49:29.66	316.10	4.21	-49.8	-67.7	3.8	7.45e-01	0	43	104	0	70	29360
2026-01-26 07:49:30.67	316.01	4.15	-49.8	-67.6	3.8	7.44e-01	0	44	104	0	70	29291
2026-01-26 07:49:31.68	315.91	4.09	-49.8	-67.6	3.8	7.40e-01	0	44	104	0	70	29170
2026-01-26 07:49:32.69	315.82	4.03	-49.8	-67.6	3.8	7.44e-01	0	43	104	0	70	29146
2026-01-26 07:49:33.69	315.73	3.97	-49.8	-67.5	3.8	7.44e-01	0	43	104	0	70	28891
2026-01-26 07:49:34.70	315.64	3.91	-49.8	-67.6	3.8	7.46e-01	0	44	104	0	70	29057
2026-01-26 07:49:35.71	315.55	3.85	-49.8	-67.6	3.8	7.44e-01	0	44	104	0	70	29077
2026-01-26 07:49:36.72	315.46	3.79	-49.8	-67.6	3.8	7.47e-01	0	44	104	0	70	29265
2026-01-26 07:49:37.73	315.37	3.73	-49.8	-67.7	3.8	7.43e-01	0	43	104	0	70	29421
2026-01-26 07:49:38.74	315.28	3.67	-49.8	-67.7	3.8	7.44e-01	0	44	104	0	70	29471
2026-01-26 07:49:39.75	315.19	3.61	-49.8	-67.7	3.8	7.46e-01	0	44	104	0	70	29408
2026-01-26 07:49:40.75	315.10	3.55	-49.8	-67.7	3.8	7.47e-01	0	43	104	0	70	29376
2026-01-26 07:49:41.76	315.02	3.49	-49.8	-67.6	3.8	7.44e-01	0	44	104	0	70	29230
2026-01-26 07:49:42.77	314.93	3.43	-49.8	-67.7	3.8	7.44e-01	0	43	104	0	70	29448
2026-01-26 07:49:43.78	314.84	3.37	-49.8	-67.7	3.8	7.43e-01	0	43	104	0	70	29428
2026-01-26 07:49:44.79	314.75	3.31	-49.8	-67.7	3.8	7.46e-01	0	44	104	0	70	29496
2026-01-26 07:49:45.79	314.67	3.25	-49.8	-67.7	3.8	7.47e-01	0	44	104	0	70	29470
2026-01-26 07:49:46.80	314.58	3.19	-49.8	-67.5	3.8	7.46e-01	0	43	104	0	70	28875
2026-01-26 07:49:47.81	314.50	3.13	-49.8	-67.5	3.8	7.47e-01	0	44	104	0	70	28862
2026-01-26 07:49:48.82	314.41	3.07	-49.8	-67.1	3.8	7.44e-01	0	43	104	0	70	27558
2026-01-26 07:49:49.82	314.33	3.02	-49.8	-67.2	3.8	7.44e-01	0	43	104	0	70	27730
2026-01-26 07:49:50.83	314.24	2.96	-49.8	-66.6	3.8	7.46e-01	0	44	104	0	70	25951
2026-01-26 07:49:51.84	314.16	2.90	-49.8	-67.2	3.8	7.45e-01	0	43	104	0	70	27963
2026-01-26 07:49:52.84	314.07	2.84	-49.8	-67.4	3.8	7.44e-01	0	43	104	0	70	28566
2026-01-26 07:49:53.85	313.99	2.78	-49.8	-67.6	3.8	7.45e-01	0	44	104	0	70	29305
2026-01-26 07:49:54.86	313.91	2.72	-49.8	-67.7	3.8	7.46e-01	0	44	104	0	70	29468
2026-01-26 07:49:55.87	313.82	2.66	-49.8	-67.7	3.8	7.46e-01	0	44	104	0	70	29438
2026-01-26 07:49:56.88	313.74	2.61	-49.8	-67.7	3.8	7.46e-01	0	44	104	0	70	29509
2026-01-26 07:49:57.89	313.66	2.55	-49.8	-67.7	3.8	7.46e-01	0	43	104	0	70	29470
2026-01-26 07:49:58.90	313.58	2.49	-49.8	-67.7	3.8	7.43e-01	0	43	104	0	70	29455
2026-01-26 07:49:59.91	313.50	2.43	-49.8	-67.7	3.8	7.46e-01	0	43	104	0	70	29475
2026-01-26 07:50:00.92	313.42	2.37	-49.8	-67.7	3.8	7.47e-01	0	43	104	0	70	29423
2026-01-26 07:50:01.93	313.34	2.31	-49.8	-67.7	3.8	7.48e-01	0	43	104	0	70	29514
2026-01-26 07:50:02.93	313.26	2.26	-49.8	-67.7	3.8	7.46e-01	0	43	104	0	70	29476
2026-01-26 07:50:03.94	313.18	2.20	-49.8	-67.7	3.8	7.46e-01	0	43	104	0	70	29525
2026-01-26 07:50:04.95	313.10	2.14	-49.8	-67.7	3.8	7.47e-01	0	43	104	0	70	29470
2026-01-26 07:50:05.95	313.02	2.08	-49.8	-67.7	3.8	7.46e-01	0	43	104	0	70	29503
2026-01-26 07:50:06.96	312.94	2.03	-49.8	-67.7	3.8	7.46e-01	0	44	104	0	70	29424
2026-01-26 07:50:07.97	312.86	1.97	-49.8	-67.7	3.8	7.44e-01	0	43	104	0	70	29447

#Closed at: 2026-01-26 07:50:08
#Recorded file [0 MB]: D:/lorett/data/31041_260126_103912.dat