passes_logs/2026/01/26/R3.2S_Murmansk/R3.2S_Murmansk__20260126_112424_NOAA_20_JPSS-1_rec.log

#Pass ID: 20260126_112424_NOAA 20 (JPSS-1)
#Satellite: NOAA 20 (JPSS-1)
#Configuration: NOAA 20
#almurnet v.1.7.20251203
#Start time: 2026-01-26 11:24:25

#Version: 2.2.20231116
#Station: R3.2S_Murmansk
#Location: 33.079688 lon 68.888172 lat
#TLE: 1 43013U 17073A   26025.90277267  .00000170  00000+0  10165-3 0  9997
#TLE: 2 43013  98.7646 326.7276 0001032  23.5492 336.5731 14.19540457424285

#Time	Az	El	Level	Level2	SNR	BER	BlckErr	Temp	State	Recorded	gain1	gain2
2026-01-26 11:24:25.72	198.65	2.07	-52.5	-67.4	3.8	1.49e+00	0	41	0	0	75	21430
2026-01-26 11:24:26.72	198.71	2.13	-52.5	-67.5	3.8	1.49e+00	0	41	104	0	75	21517
2026-01-26 11:24:27.73	198.77	2.19	-52.5	-67.4	3.8	1.49e+00	0	41	104	0	75	21496
2026-01-26 11:24:28.73	198.82	2.25	-52.5	-67.5	3.8	1.49e+00	0	41	104	0	75	21528
2026-01-26 11:24:29.74	198.88	2.31	-52.5	-67.4	3.8	1.49e+00	0	41	104	0	75	21490
2026-01-26 11:24:30.75	198.94	2.37	-52.5	-67.4	3.8	1.49e+00	0	41	104	0	75	21466
2026-01-26 11:24:31.75	199.00	2.43	-52.4	-67.6	3.6	1.49e+00	0	41	104	0	75	21783
2026-01-26 11:24:32.76	199.06	2.49	-52.5	-67.4	3.8	1.49e+00	0	41	104	0	75	21397
2026-01-26 11:24:33.77	199.11	2.55	-52.5	-67.4	3.8	1.49e+00	0	42	104	0	75	21369
2026-01-26 11:24:34.77	199.17	2.61	-52.5	-67.4	3.8	1.49e+00	0	42	104	0	75	21380
2026-01-26 11:24:35.78	199.23	2.67	-52.5	-67.4	3.8	1.49e+00	0	42	104	0	75	21380
2026-01-26 11:24:36.79	199.29	2.73	-52.5	-67.4	3.8	1.49e+00	0	41	104	0	75	21380
2026-01-26 11:24:37.80	199.35	2.79	-52.5	-67.4	3.8	1.49e+00	0	41	104	0	75	21439
2026-01-26 11:24:38.81	199.41	2.85	-52.5	-67.4	3.8	1.49e+00	0	42	104	0	75	21461
2026-01-26 11:24:39.81	199.47	2.91	-52.5	-67.4	3.8	1.49e+00	0	42	104	0	75	21459
2026-01-26 11:24:40.82	199.53	2.97	-52.5	-67.4	3.8	1.49e+00	0	41	104	0	75	21442
2026-01-26 11:24:41.83	199.59	3.03	-52.5	-67.4	3.8	1.49e+00	0	42	104	0	75	21376
2026-01-26 11:24:42.84	199.65	3.09	-52.5	-67.4	3.8	1.49e+00	0	42	104	0	75	21355
2026-01-26 11:24:43.84	199.71	3.15	-52.5	-67.4	3.8	1.49e+00	0	42	104	0	75	21337
2026-01-26 11:24:44.85	199.77	3.22	-52.5	-67.4	3.8	1.49e+00	0	42	104	0	75	21348
2026-01-26 11:24:45.85	199.83	3.28	-52.5	-67.4	3.8	1.49e+00	0	42	104	0	75	21392
2026-01-26 11:24:46.86	199.89	3.34	-52.5	-67.4	3.8	1.49e+00	0	42	104	0	75	21428
2026-01-26 11:24:47.87	199.95	3.40	-52.5	-67.4	3.8	1.49e+00	0	42	104	0	75	21422
2026-01-26 11:24:48.88	200.01	3.46	-52.4	-67.4	3.8	1.49e+00	0	42	104	0	75	21356
2026-01-26 11:24:49.89	200.08	3.52	-52.4	-67.3	3.8	1.49e+00	0	42	104	0	75	21260
2026-01-26 11:24:50.89	200.14	3.58	-52.5	-67.3	3.8	1.49e+00	0	42	104	0	75	21226
2026-01-26 11:24:51.90	200.20	3.65	-52.4	-67.9	3.7	1.49e+00	0	42	104	0	74	23979
2026-01-26 11:24:52.91	200.26	3.71	-52.5	-67.4	3.8	1.49e+00	0	42	104	0	75	21316
2026-01-26 11:24:53.92	200.33	3.77	-52.5	-67.4	3.8	1.49e+00	0	42	104	0	75	21348
2026-01-26 11:24:54.92	200.39	3.83	-52.4	-67.4	3.8	1.49e+00	0	42	104	0	75	21337
2026-01-26 11:24:55.93	200.45	3.90	-52.4	-67.3	3.8	1.49e+00	0	42	104	0	75	21233
2026-01-26 11:24:56.94	200.52	3.96	-52.4	-67.3	3.8	1.49e+00	0	42	104	0	75	21096
2026-01-26 11:24:57.94	200.58	4.02	-52.4	-67.2	3.8	1.49e+00	0	42	104	0	75	20857
2026-01-26 11:24:58.95	200.65	4.08	-52.4	-67.1	3.8	1.49e+00	0	42	104	0	75	20674
2026-01-26 11:24:59.97	200.71	4.15	-52.4	-67.2	3.8	1.49e+00	0	42	104	0	75	20996
2026-01-26 11:25:00.97	200.78	4.21	-52.4	-67.3	3.8	1.49e+00	0	42	104	0	75	21208
2026-01-26 11:25:01.97	200.84	4.27	-52.5	-67.3	3.8	1.49e+00	0	42	104	0	75	21245
2026-01-26 11:25:02.98	200.91	4.34	-52.4	-66.7	3.8	1.49e+00	0	42	104	0	75	19725
2026-01-26 11:25:03.99	200.97	4.40	-52.3	-65.0	3.9	1.49e+00	0	42	104	0	75	16243
2026-01-26 11:25:05.00	201.04	4.46	-52.1	-62.1	4.8	1.13e+00	0	42	0	0	75	11665
2026-01-26 11:25:06.00	201.10	4.53	-51.8	-59.9	6.3	4.68e-01	0	42	0	2097152	75	8994
2026-01-26 11:25:07.01	201.17	4.59	-51.3	-57.5	8.5	1.50e-01	0	42	0	4194304	73	7700
2026-01-26 11:25:08.02	201.24	4.66	-50.6	-55.5	10.7	7.22e-03	0	42	0	6291456	73	6077
2026-01-26 11:25:09.03	201.30	4.72	-44.8	-53.6	12.2	1.31e-03	0	42	0	8388608	70	5854
2026-01-26 11:25:10.03	201.37	4.78	-49.6	-53.1	13.2	2.89e-05	0	42	0	9437184	70	5516
2026-01-26 11:25:11.04	201.44	4.85	-49.1	-52.1	14.3	2.20e-06	0	42	0	11534336	70	4922
2026-01-26 11:25:12.05	201.51	4.91	-48.6	-51.2	15.1	0.00e+00	0	42	0	13631488	67	5278
2026-01-26 11:25:13.05	201.57	4.98	-48.4	-51.1	15.3	0.00e+00	0	42	0	15728640	67	5168
2026-01-26 11:25:14.06	201.64	5.04	-48.6	-51.3	15.0	0.00e+00	0	42	0	17825792	67	5328
2026-01-26 11:25:15.07	201.71	5.11	-52.6	-67.0	3.8	7.50e-01	0	42	104	18874368	75	20431
2026-01-26 11:25:16.07	201.78	5.17	-51.2	-57.6	8.7	9.86e-01	0	42	0	18874368	73	7740
2026-01-26 11:25:17.08	201.85	5.24	-50.3	-54.5	12.0	6.17e-05	0	42	0	20971520	71	6090
2026-01-26 11:25:18.09	201.92	5.30	-50.4	-54.7	11.7	1.90e-04	0	42	0	22020096	71	6251
2026-01-26 11:25:19.10	201.99	5.37	-50.4	-54.7	11.7	7.00e-07	0	42	0	24117248	71	6232
2026-01-26 11:25:20.11	202.06	5.43	-48.5	-51.1	15.4	1.04e-04	0	42	0	26214400	69	4601
2026-01-26 11:25:21.11	202.13	5.50	-48.3	-50.8	15.6	0.00e+00	0	42	0	28311552	67	4985
2026-01-26 11:25:22.12	202.20	5.56	-48.2	-50.6	15.7	0.00e+00	0	42	0	30408704	67	4916
2026-01-26 11:25:23.13	202.27	5.63	-48.2	-50.7	15.7	0.00e+00	0	42	0	31457280	67	4958
2026-01-26 11:25:24.14	202.34	5.69	-48.2	-50.7	15.7	0.00e+00	0	42	0	33554432	66	5223
2026-01-26 11:25:25.14	202.41	5.76	-48.0	-50.4	16.0	0.00e+00	0	43	0	35651584	66	5064
2026-01-26 11:25:26.15	202.48	5.83	-48.0	-50.3	16.1	0.00e+00	0	42	0	37748736	66	5038
2026-01-26 11:25:27.16	202.56	5.89	-47.9	-50.2	16.2	0.00e+00	0	42	0	39845888	66	4957
2026-01-26 11:25:28.17	202.63	5.96	-48.2	-50.6	15.9	0.00e+00	0	42	0	40894464	66	5189
2026-01-26 11:25:29.17	202.70	6.03	-44.3	-50.3	16.0	0.00e+00	0	43	0	42991616	64	5616
2026-01-26 11:25:30.18	202.77	6.09	-48.3	-50.7	15.8	0.00e+00	0	42	0	45088768	67	4972
2026-01-26 11:25:31.19	202.85	6.16	-48.1	-50.5	16.0	0.00e+00	0	42	0	47185920	67	4843
2026-01-26 11:25:32.19	202.92	6.23	-47.9	-50.2	16.3	0.00e+00	0	42	0	49283072	66	4936
2026-01-26 11:25:33.20	203.00	6.29	-48.0	-50.3	16.2	0.00e+00	0	42	0	50331648	66	4994
2026-01-26 11:25:34.21	203.07	6.36	-47.7	-49.8	16.7	0.00e+00	0	42	0	52428800	66	4737
2026-01-26 11:25:35.22	203.14	6.43	-47.7	-49.8	16.7	0.00e+00	0	43	0	54525952	65	5026
2026-01-26 11:25:36.23	203.22	6.50	-47.9	-50.1	16.4	0.00e+00	0	43	0	56623104	66	4902
2026-01-26 11:25:37.23	203.29	6.56	-47.8	-50.0	16.5	0.00e+00	0	43	0	58720256	66	4865
2026-01-26 11:25:38.24	203.37	6.63	-47.4	-49.4	17.1	0.00e+00	0	43	0	59768832	65	4802
2026-01-26 11:25:39.25	203.45	6.70	-47.7	-49.9	16.7	0.00e+00	0	43	0	61865984	65	5060
2026-01-26 11:25:40.25	203.52	6.77	-47.8	-50.0	16.6	0.00e+00	0	43	0	63963136	66	4819
2026-01-26 11:25:41.26	203.60	6.84	-47.6	-49.7	16.8	0.00e+00	0	43	0	66060288	66	4698
2026-01-26 11:25:42.27	203.68	6.90	-47.7	-49.8	16.7	0.00e+00	0	43	0	68157440	66	4756
2026-01-26 11:25:43.28	203.75	6.97	-47.6	-49.7	16.9	0.00e+00	0	43	0	69206016	66	4676
2026-01-26 11:25:44.28	203.83	7.04	-47.6	-49.7	16.9	0.00e+00	0	43	0	71303168	65	4956
2026-01-26 11:25:45.29	203.91	7.11	-47.4	-49.4	17.2	0.00e+00	0	43	0	73400320	65	4761
2026-01-26 11:25:46.30	203.99	7.18	-47.5	-49.5	17.1	0.00e+00	0	43	0	75497472	65	4854
2026-01-26 11:25:47.31	204.07	7.25	-47.5	-49.5	17.1	0.00e+00	0	43	0	77594624	65	4845
2026-01-26 11:25:48.32	204.15	7.32	-47.5	-49.6	17.0	0.00e+00	0	43	0	78643200	65	4893
2026-01-26 11:25:49.32	204.23	7.39	-47.5	-49.6	17.0	0.00e+00	0	43	0	80740352	65	4893
2026-01-26 11:25:50.33	204.31	7.46	-47.4	-49.4	17.3	0.00e+00	0	43	0	82837504	65	4773
2026-01-26 11:25:51.33	204.39	7.53	-47.5	-49.5	17.2	0.00e+00	0	42	0	84934656	65	4843
2026-01-26 11:25:52.33	204.47	7.59	-47.5	-49.5	17.1	0.00e+00	0	43	0	87031808	65	4865
2026-01-26 11:25:53.34	204.55	7.66	-47.7	-49.8	16.9	0.00e+00	0	43	0	88080384	65	4998
2026-01-26 11:25:54.35	204.63	7.73	-47.4	-49.4	17.3	0.00e+00	0	43	0	90177536	65	4769
2026-01-26 11:25:55.35	204.71	7.80	-47.3	-49.3	17.4	0.00e+00	0	43	0	92274688	65	4707
2026-01-26 11:25:56.36	204.79	7.88	-47.2	-49.1	17.5	0.00e+00	0	43	0	94371840	65	4639
2026-01-26 11:25:57.37	204.87	7.95	-47.3	-49.2	17.4	0.00e+00	0	43	0	96468992	65	4705
2026-01-26 11:25:58.37	204.96	8.02	-47.3	-49.2	17.5	0.00e+00	0	43	0	97517568	65	4654
2026-01-26 11:25:59.38	205.04	8.09	-47.1	-48.9	17.8	0.00e+00	0	43	0	99614720	65	4527
2026-01-26 11:26:00.39	205.12	8.16	-47.2	-49.0	17.7	0.00e+00	0	43	0	101711872	65	4589
2026-01-26 11:26:01.40	205.21	8.23	-47.3	-49.2	17.5	0.00e+00	0	43	0	103809024	65	4655
2026-01-26 11:26:02.41	205.29	8.30	-47.3	-49.2	17.5	0.00e+00	0	43	0	105906176	65	4665
2026-01-26 11:26:03.41	205.38	8.37	-47.1	-48.9	17.8	0.00e+00	0	43	0	106954752	65	4540
2026-01-26 11:26:04.41	205.46	8.44	-46.9	-48.7	18.0	0.00e+00	0	43	0	109051904	64	4657
2026-01-26 11:26:05.42	205.55	8.51	-46.9	-48.7	18.0	0.00e+00	0	43	0	111149056	64	4673
2026-01-26 11:26:06.43	205.63	8.59	-46.8	-48.6	18.1	0.00e+00	0	43	0	113246208	64	4633
2026-01-26 11:26:07.44	205.72	8.66	-46.7	-48.4	18.2	0.00e+00	0	43	0	115343360	64	4540
2026-01-26 11:26:08.44	205.81	8.73	-46.6	-48.3	18.4	0.00e+00	0	43	0	116391936	64	4457
2026-01-26 11:26:09.45	205.89	8.80	-46.7	-48.4	18.5	0.00e+00	0	43	0	118489088	63	4763
2026-01-26 11:26:10.46	205.98	8.88	-46.5	-48.2	18.7	0.00e+00	0	43	0	120586240	63	4657
2026-01-26 11:26:11.47	206.07	8.95	-46.5	-48.1	18.7	0.00e+00	0	43	0	122683392	63	4640
2026-01-26 11:26:12.47	206.16	9.02	-46.5	-48.1	18.7	0.00e+00	0	43	0	124780544	63	4642
2026-01-26 11:26:13.48	206.25	9.09	-46.5	-48.2	18.7	0.00e+00	0	43	0	125829120	63	4652
2026-01-26 11:26:14.48	206.34	9.17	-46.6	-48.2	18.6	0.00e+00	0	43	0	127926272	63	4689
2026-01-26 11:26:15.49	206.43	9.24	-46.4	-48.0	18.8	0.00e+00	0	43	0	130023424	63	4553
2026-01-26 11:26:16.50	206.52	9.31	-46.3	-47.8	19.0	0.00e+00	0	43	0	132120576	63	4493
2026-01-26 11:26:17.51	206.61	9.39	-46.1	-47.6	19.2	0.00e+00	0	43	0	134217728	63	4391
2026-01-26 11:26:18.52	206.70	9.46	-46.1	-47.6	19.2	0.00e+00	0	43	0	135266304	63	4366
2026-01-26 11:26:19.53	206.79	9.54	-46.1	-47.6	19.3	0.00e+00	0	43	0	137363456	63	4348
2026-01-26 11:26:20.53	206.88	9.61	-46.1	-47.7	19.2	0.00e+00	0	43	0	139460608	63	4394
2026-01-26 11:26:21.54	206.97	9.68	-46.1	-47.6	19.2	0.00e+00	0	43	0	141557760	62	4630
2026-01-26 11:26:22.54	207.07	9.76	-46.0	-47.5	19.3	0.00e+00	0	43	0	143654912	62	4580
2026-01-26 11:26:23.55	207.16	9.83	-46.0	-47.5	19.4	0.00e+00	0	43	0	144703488	62	4559
2026-01-26 11:26:24.56	207.25	9.91	-46.0	-47.5	19.4	0.00e+00	0	43	0	146800640	62	4553
2026-01-26 11:26:25.56	207.35	9.98	-46.1	-47.6	19.2	0.00e+00	0	43	0	148897792	62	4643
2026-01-26 11:26:26.57	207.44	10.06	-46.1	-47.7	19.2	0.00e+00	0	43	0	150994944	62	4657
2026-01-26 11:26:27.58	207.54	10.13	-46.1	-47.6	19.3	0.00e+00	0	43	0	153092096	62	4599
2026-01-26 11:26:28.59	207.63	10.21	-46.1	-47.6	19.3	0.00e+00	0	43	0	154140672	62	4602
2026-01-26 11:26:29.59	207.73	10.28	-46.1	-47.6	19.3	0.00e+00	0	43	0	156237824	62	4619
2026-01-26 11:26:30.60	207.82	10.36	-46.0	-47.4	19.4	0.00e+00	0	43	0	158334976	62	4530
2026-01-26 11:26:31.60	207.92	10.43	-45.9	-47.4	19.5	0.00e+00	0	43	0	160432128	62	4519
2026-01-26 11:26:32.61	208.02	10.51	-45.9	-47.4	19.4	0.00e+00	0	43	0	162529280	62	4534
2026-01-26 11:26:33.62	208.12	10.59	-45.8	-47.3	19.6	0.00e+00	0	43	0	163577856	62	4446
2026-01-26 11:26:34.63	208.21	10.66	-45.9	-47.4	19.5	0.00e+00	0	43	0	165675008	62	4522
2026-01-26 11:26:35.64	208.31	10.74	-46.0	-47.5	19.4	0.00e+00	0	43	0	167772160	62	4569
2026-01-26 11:26:36.64	208.41	10.82	-46.0	-47.5	19.4	0.00e+00	0	43	0	169869312	62	4566
2026-01-26 11:26:37.65	208.51	10.89	-45.9	-47.4	19.5	0.00e+00	0	43	0	171966464	62	4508
2026-01-26 11:26:38.65	208.61	10.97	-45.8	-47.3	19.6	0.00e+00	0	43	0	173015040	62	4450
2026-01-26 11:26:39.66	208.71	11.05	-45.8	-47.3	19.6	0.00e+00	0	43	0	175112192	62	4448
2026-01-26 11:26:40.67	208.82	11.12	-45.8	-47.3	19.6	0.00e+00	0	43	0	177209344	62	4448
2026-01-26 11:26:41.68	208.92	11.20	-45.7	-47.1	19.8	0.00e+00	0	43	0	179306496	62	4360
2026-01-26 11:26:42.69	209.02	11.28	-45.7	-47.2	19.7	0.00e+00	0	43	0	181403648	62	4394
2026-01-26 11:26:43.69	209.12	11.36	-45.8	-47.3	19.7	0.00e+00	0	43	0	182452224	62	4449
2026-01-26 11:26:44.70	209.23	11.43	-45.7	-47.1	19.8	0.00e+00	0	43	0	184549376	62	4348
2026-01-26 11:26:45.71	209.33	11.51	-45.7	-47.1	19.8	0.00e+00	0	43	0	186646528	62	4371
2026-01-26 11:26:46.72	209.44	11.59	-45.8	-47.2	19.7	0.00e+00	0	43	0	188743680	62	4438
2026-01-26 11:26:47.72	209.54	11.67	-45.8	-47.2	19.7	0.00e+00	0	43	0	190840832	62	4418
2026-01-26 11:26:48.73	209.65	11.75	-45.7	-47.1	19.9	0.00e+00	0	43	0	192937984	62	4351
2026-01-26 11:26:49.73	209.75	11.83	-45.7	-47.1	19.8	0.00e+00	0	43	0	193986560	62	4354
2026-01-26 11:26:50.74	209.86	11.91	-45.7	-47.1	19.9	0.00e+00	0	43	0	196083712	62	4345
2026-01-26 11:26:51.75	209.97	11.98	-45.7	-47.0	19.9	0.00e+00	0	43	0	198180864	62	4340
2026-01-26 11:26:52.76	210.07	12.06	-45.6	-47.0	19.9	0.00e+00	0	43	0	200278016	62	4319
2026-01-26 11:26:53.76	210.18	12.14	-45.6	-47.0	19.9	0.00e+00	0	43	0	201326592	62	4297
2026-01-26 11:26:54.77	210.29	12.22	-45.6	-46.9	20.0	0.00e+00	0	43	0	203423744	62	4285
2026-01-26 11:26:55.77	210.40	12.30	-45.7	-47.1	19.9	0.00e+00	0	43	0	205520896	62	4350
2026-01-26 11:26:56.78	210.51	12.38	-45.5	-46.8	20.1	0.00e+00	0	43	0	207618048	62	4232
2026-01-26 11:26:57.79	210.62	12.46	-45.6	-46.9	20.0	0.00e+00	0	43	0	209715200	62	4280
2026-01-26 11:26:58.80	210.73	12.54	-45.4	-46.7	20.2	0.00e+00	0	43	0	210763776	62	4186
2026-01-26 11:26:59.80	210.84	12.62	-45.3	-46.6	20.3	0.00e+00	0	43	0	212860928	62	4142
2026-01-26 11:27:00.81	210.96	12.70	-45.3	-46.7	20.3	0.00e+00	0	43	0	214958080	62	4152
2026-01-26 11:27:01.82	211.07	12.78	-45.4	-46.8	20.2	0.00e+00	0	43	0	217055232	62	4210
2026-01-26 11:27:02.83	211.18	12.87	-45.5	-46.9	20.1	0.00e+00	0	43	0	219152384	62	4249
2026-01-26 11:27:03.84	211.30	12.95	-45.3	-46.6	20.4	0.00e+00	0	43	0	221249536	62	4141
2026-01-26 11:27:04.85	211.41	13.03	-45.3	-46.7	20.3	0.00e+00	0	43	0	222298112	61	4395
2026-01-26 11:27:05.85	211.53	13.11	-45.2	-46.5	20.5	0.00e+00	0	43	0	224395264	61	4326
2026-01-26 11:27:06.86	211.64	13.19	-45.3	-46.6	20.4	0.00e+00	0	43	0	226492416	61	4362
2026-01-26 11:27:07.87	211.76	13.27	-45.3	-46.7	20.4	0.00e+00	0	43	0	228589568	61	4394
2026-01-26 11:27:08.88	211.88	13.36	-45.4	-46.8	20.3	0.00e+00	0	43	0	229638144	61	4442
2026-01-26 11:27:09.89	212.00	13.44	-45.6	-46.9	20.1	0.00e+00	0	43	0	231735296	61	4527
2026-01-26 11:27:10.89	212.11	13.52	-45.5	-46.8	20.2	0.00e+00	0	43	0	233832448	61	4470
2026-01-26 11:27:11.90	212.23	13.60	-45.3	-46.6	20.4	0.00e+00	0	43	0	235929600	61	4390
2026-01-26 11:27:12.90	212.35	13.69	-45.5	-46.9	20.2	0.00e+00	0	43	0	238026752	61	4503
2026-01-26 11:27:13.91	212.47	13.77	-45.6	-47.0	20.1	0.00e+00	0	43	0	239075328	61	4554
2026-01-26 11:27:14.91	212.59	13.85	-45.6	-46.9	20.1	0.00e+00	0	43	0	241172480	61	4536
2026-01-26 11:27:15.92	212.71	13.93	-45.6	-47.0	20.1	0.00e+00	0	43	0	243269632	61	4546
2026-01-26 11:27:16.93	212.84	14.02	-45.7	-47.1	20.0	0.00e+00	0	43	0	245366784	61	4605
2026-01-26 11:27:17.93	212.96	14.10	-45.8	-47.2	19.9	0.00e+00	0	43	0	247463936	62	4393
2026-01-26 11:27:18.94	213.08	14.18	-45.7	-47.1	20.0	0.00e+00	0	43	0	249561088	62	4350
2026-01-26 11:27:19.95	213.21	14.27	-45.9	-47.3	19.8	0.00e+00	0	43	0	250609664	62	4471
2026-01-26 11:27:20.95	213.33	14.35	-45.9	-47.3	19.8	0.00e+00	0	43	0	252706816	62	4465
2026-01-26 11:27:21.96	213.46	14.44	-45.9	-47.3	19.9	0.00e+00	0	43	0	254803968	62	4445
2026-01-26 11:27:22.97	213.59	14.52	-45.9	-47.4	19.8	0.00e+00	0	43	0	256901120	62	4495
2026-01-26 11:27:23.97	213.71	14.60	-46.0	-47.4	19.7	0.00e+00	0	43	0	257949696	62	4507
2026-01-26 11:27:24.98	213.84	14.69	-45.9	-47.3	19.8	0.00e+00	0	43	0	260046848	62	4455
2026-01-26 11:27:25.99	213.97	14.77	-45.9	-47.3	19.8	0.00e+00	0	43	0	262144000	62	4483
2026-01-26 11:27:26.99	214.10	14.86	-45.9	-47.3	19.8	0.00e+00	0	43	0	264241152	62	4486
2026-01-26 11:27:28.00	214.23	14.94	-46.0	-47.4	19.7	0.00e+00	0	43	0	266338304	62	4511
2026-01-26 11:27:29.01	214.36	15.03	-46.0	-47.5	19.7	0.00e+00	0	43	0	267386880	62	4551
2026-01-26 11:27:30.01	214.49	15.12	-45.9	-47.3	19.8	0.00e+00	0	43	0	269484032	62	4475
2026-01-26 11:27:31.01	214.62	15.20	-45.9	-47.4	19.8	0.00e+00	0	43	0	271581184	62	4496
2026-01-26 11:27:32.02	214.75	15.29	-45.8	-47.2	20.0	0.00e+00	0	43	0	273678336	62	4410
2026-01-26 11:27:33.02	214.89	15.37	-45.9	-47.3	19.8	0.00e+00	0	43	0	275775488	62	4472
2026-01-26 11:27:34.02	215.02	15.46	-45.9	-47.3	19.8	0.00e+00	0	43	0	276824064	62	4472
2026-01-26 11:27:35.03	215.15	15.54	-45.9	-47.3	19.9	0.00e+00	0	43	0	278921216	62	4442
2026-01-26 11:27:36.04	215.29	15.63	-45.9	-47.3	19.8	0.00e+00	0	43	0	281018368	62	4483
2026-01-26 11:27:37.04	215.43	15.72	-46.0	-47.4	19.7	0.00e+00	0	43	0	283115520	62	4538
2026-01-26 11:27:38.04	215.56	15.80	-46.1	-47.5	19.6	0.00e+00	0	43	0	285212672	62	4589
2026-01-26 11:27:39.05	215.70	15.89	-46.0	-47.4	19.7	0.00e+00	0	43	0	286261248	62	4542
2026-01-26 11:27:40.06	215.84	15.98	-46.1	-47.5	19.7	0.00e+00	0	43	0	288358400	62	4572
2026-01-26 11:27:41.07	215.98	16.06	-46.1	-47.5	19.6	0.00e+00	0	43	0	290455552	62	4589
2026-01-26 11:27:42.07	216.12	16.15	-46.2	-47.6	19.5	0.00e+00	0	43	0	292552704	62	4630
2026-01-26 11:27:43.08	216.26	16.24	-46.1	-47.5	19.6	0.00e+00	0	43	0	294649856	62	4592
2026-01-26 11:27:44.08	216.40	16.33	-46.1	-47.6	19.6	0.00e+00	0	43	0	295698432	62	4611
2026-01-26 11:27:45.09	216.55	16.41	-46.2	-47.7	19.4	0.00e+00	0	43	0	297795584	63	4424
2026-01-26 11:27:46.10	216.69	16.50	-46.1	-47.5	19.6	0.00e+00	0	43	0	299892736	63	4340
2026-01-26 11:27:47.10	216.83	16.59	-46.0	-47.5	19.7	0.00e+00	0	43	0	301989888	63	4292
2026-01-26 11:27:48.11	216.98	16.68	-46.0	-47.4	19.8	0.00e+00	0	43	0	304087040	63	4282
2026-01-26 11:27:49.12	217.12	16.77	-46.1	-47.6	19.6	0.00e+00	0	43	0	305135616	63	4349
2026-01-26 11:27:50.13	217.27	16.86	-46.1	-47.5	19.6	0.00e+00	0	43	0	307232768	63	4329
2026-01-26 11:27:51.13	217.42	16.94	-46.1	-47.5	19.7	0.00e+00	0	43	0	309329920	63	4315
2026-01-26 11:27:52.14	217.57	17.03	-46.0	-47.5	19.7	0.00e+00	0	43	0	311427072	63	4296
2026-01-26 11:27:53.15	217.72	17.12	-46.1	-47.5	19.7	0.00e+00	0	43	0	313524224	63	4323
2026-01-26 11:27:54.15	217.87	17.21	-46.0	-47.4	19.8	0.00e+00	0	43	0	314572800	63	4261
2026-01-26 11:27:55.16	218.02	17.30	-45.8	-47.2	20.0	0.00e+00	0	43	0	316669952	63	4170
2026-01-26 11:27:56.17	218.17	17.39	-45.9	-47.3	20.0	0.00e+00	0	43	0	318767104	63	4200
2026-01-26 11:27:57.17	218.32	17.48	-45.7	-47.1	20.1	0.00e+00	0	43	0	320864256	63	4116
2026-01-26 11:27:58.18	218.48	17.57	-45.7	-47.1	20.1	0.00e+00	0	43	0	322961408	63	4102
2026-01-26 11:27:59.19	218.63	17.66	-45.5	-46.8	20.4	0.00e+00	0	43	0	324009984	63	3983
2026-01-26 11:28:00.20	218.79	17.75	-45.6	-46.9	20.3	0.00e+00	0	43	0	326107136	63	4039
2026-01-26 11:28:01.21	218.95	17.84	-45.5	-46.8	20.3	0.00e+00	0	43	0	328204288	63	4002
2026-01-26 11:28:02.22	219.10	17.93	-45.5	-46.8	20.4	0.00e+00	0	43	0	330301440	62	4240
2026-01-26 11:28:03.23	219.26	18.02	-45.6	-46.9	20.3	0.00e+00	0	43	0	332398592	62	4276
2026-01-26 11:28:04.23	219.42	18.11	-45.7	-47.0	20.2	0.00e+00	0	43	0	334495744	62	4318
2026-01-26 11:28:05.24	219.58	18.20	-45.7	-47.1	20.1	0.00e+00	0	43	0	335544320	62	4356
2026-01-26 11:28:06.24	219.74	18.29	-45.7	-47.0	20.2	0.00e+00	0	43	0	337641472	62	4335
2026-01-26 11:28:07.25	219.90	18.38	-45.7	-47.0	20.2	0.00e+00	0	43	0	339738624	62	4332
2026-01-26 11:28:08.26	220.07	18.47	-45.7	-47.0	20.2	0.00e+00	0	43	0	341835776	62	4308
2026-01-26 11:28:09.27	220.23	18.57	-45.7	-47.0	20.2	0.00e+00	0	43	0	342884352	62	4333
2026-01-26 11:28:10.28	220.40	18.66	-45.7	-47.1	20.2	0.00e+00	0	43	0	344981504	62	4351
2026-01-26 11:28:11.29	220.56	18.75	-45.5	-46.8	20.4	0.00e+00	0	43	0	347078656	62	4239
2026-01-26 11:28:12.29	220.73	18.84	-45.6	-46.9	20.3	0.00e+00	0	43	0	349175808	62	4259
2026-01-26 11:28:13.30	220.90	18.93	-45.6	-46.9	20.4	0.00e+00	0	43	0	351272960	62	4246
2026-01-26 11:28:14.30	221.06	19.02	-45.5	-46.7	20.5	0.00e+00	0	43	0	352321536	62	4191
2026-01-26 11:28:15.31	221.23	19.11	-45.5	-46.9	20.4	0.00e+00	0	43	0	354418688	62	4244
2026-01-26 11:28:16.32	221.40	19.21	-45.6	-46.9	20.3	0.00e+00	0	43	0	356515840	62	4279
2026-01-26 11:28:17.33	221.58	19.30	-45.6	-46.9	20.3	0.00e+00	0	43	0	358612992	62	4267
2026-01-26 11:28:18.33	221.75	19.39	-45.6	-46.9	20.4	0.00e+00	0	43	0	360710144	62	4260
2026-01-26 11:28:19.34	221.92	19.48	-45.6	-46.9	20.4	0.00e+00	0	43	0	362807296	62	4264
2026-01-26 11:28:20.35	222.10	19.57	-45.5	-46.8	20.5	0.00e+00	0	43	0	363855872	62	4217
2026-01-26 11:28:21.35	222.27	19.67	-45.4	-46.7	20.6	0.00e+00	0	43	0	365953024	62	4164
2026-01-26 11:28:22.36	222.45	19.76	-45.4	-46.7	20.6	0.00e+00	0	43	0	368050176	62	4151
2026-01-26 11:28:23.36	222.63	19.85	-45.0	-46.2	21.0	0.00e+00	0	43	0	370147328	62	3927
2026-01-26 11:28:24.37	222.81	19.94	-44.9	-46.2	21.1	0.00e+00	0	43	0	371195904	61	4146
2026-01-26 11:28:25.38	222.99	20.04	-44.8	-46.0	21.2	0.00e+00	0	43	0	373293056	61	4072
2026-01-26 11:28:26.38	223.17	20.13	-44.8	-46.0	21.2	0.00e+00	0	43	0	375390208	61	4084
2026-01-26 11:28:27.39	223.35	20.22	-44.8	-46.0	21.2	0.00e+00	0	43	0	377487360	61	4085
2026-01-26 11:28:28.40	223.53	20.31	-44.9	-46.1	21.1	0.00e+00	0	43	0	379584512	61	4113
2026-01-26 11:28:29.41	223.72	20.41	-44.9	-46.2	21.0	0.00e+00	0	43	0	380633088	61	4147
2026-01-26 11:28:30.41	223.90	20.50	-44.8	-46.0	21.2	0.00e+00	0	43	0	382730240	61	4070
2026-01-26 11:28:31.42	224.09	20.59	-44.9	-46.1	21.1	0.00e+00	0	43	0	384827392	61	4110
2026-01-26 11:28:32.42	224.27	20.68	-44.9	-46.1	21.1	0.00e+00	0	43	0	386924544	61	4110
2026-01-26 11:28:33.42	224.46	20.78	-44.9	-46.1	21.1	0.00e+00	0	43	0	389021696	61	4133
2026-01-26 11:28:34.43	224.65	20.87	-44.9	-46.1	21.1	0.00e+00	0	43	0	391118848	61	4119
2026-01-26 11:28:35.44	224.84	20.96	-44.8	-46.0	21.2	0.00e+00	0	43	0	392167424	61	4068
2026-01-26 11:28:36.45	225.03	21.06	-44.7	-45.9	21.3	0.00e+00	0	43	0	394264576	61	4016
2026-01-26 11:28:37.45	225.23	21.15	-44.7	-45.8	21.4	0.00e+00	0	43	0	396361728	61	4000
2026-01-26 11:28:38.46	225.42	21.24	-44.7	-45.9	21.4	0.00e+00	0	43	0	398458880	61	4009
2026-01-26 11:28:39.47	225.62	21.33	-44.6	-45.8	21.4	0.00e+00	0	43	0	399507456	61	3977
2026-01-26 11:28:40.47	225.81	21.43	-44.6	-45.8	21.4	0.00e+00	0	43	0	401604608	61	3974
2026-01-26 11:28:41.48	226.01	21.52	-44.5	-45.7	21.6	0.00e+00	0	43	0	403701760	61	3914
2026-01-26 11:28:42.48	226.21	21.61	-44.6	-45.7	21.5	0.00e+00	0	43	0	405798912	61	3958
2026-01-26 11:28:43.49	226.41	21.71	-44.4	-45.5	21.7	0.00e+00	0	43	0	407896064	60	4070
2026-01-26 11:28:44.50	226.61	21.80	-44.3	-45.5	21.7	0.00e+00	0	43	0	408944640	60	4055
2026-01-26 11:28:45.50	226.81	21.89	-44.2	-45.3	21.9	0.00e+00	0	43	0	411041792	60	3973
2026-01-26 11:28:46.51	227.01	21.99	-44.3	-45.4	21.8	0.00e+00	0	43	0	413138944	60	4030
2026-01-26 11:28:47.52	227.22	22.08	-44.3	-45.5	21.8	0.00e+00	0	43	0	415236096	60	4054
2026-01-26 11:28:48.52	227.42	22.17	-44.3	-45.4	21.8	0.00e+00	0	43	0	417333248	60	4007
2026-01-26 11:28:49.52	227.63	22.26	-44.4	-45.6	21.6	0.00e+00	0	43	0	419430400	60	4109
2026-01-26 11:28:50.53	227.84	22.36	-44.4	-45.6	21.7	0.00e+00	0	43	0	420478976	60	4103
2026-01-26 11:28:51.54	228.05	22.45	-44.4	-45.6	21.7	0.00e+00	0	43	0	422576128	60	4101
2026-01-26 11:28:52.54	228.26	22.54	-44.3	-45.4	21.8	0.00e+00	0	43	0	424673280	60	4038
2026-01-26 11:28:53.55	228.47	22.64	-44.3	-45.5	21.7	0.00e+00	0	43	0	426770432	60	4054
2026-01-26 11:28:54.56	228.68	22.73	-44.2	-45.3	21.9	0.00e+00	0	43	0	427819008	60	3968
2026-01-26 11:28:55.57	228.90	22.82	-44.0	-45.1	22.1	0.00e+00	0	43	0	429916160	60	3896
2026-01-26 11:28:56.57	229.11	22.91	-44.1	-45.2	22.0	0.00e+00	0	43	0	432013312	60	3935
2026-01-26 11:28:57.58	229.33	23.01	-44.2	-45.3	22.0	0.00e+00	0	43	0	434110464	60	3966
2026-01-26 11:28:58.58	229.54	23.10	-44.3	-45.4	21.8	0.00e+00	0	43	0	436207616	60	4015
2026-01-26 11:28:59.59	229.76	23.19	-44.3	-45.4	21.8	0.00e+00	0	43	0	437256192	60	4049
2026-01-26 11:29:00.59	229.98	23.28	-44.3	-45.4	21.9	0.00e+00	0	43	0	439353344	60	4005
2026-01-26 11:29:01.60	230.21	23.37	-44.2	-45.3	21.9	0.00e+00	0	43	0	441450496	60	3998
2026-01-26 11:29:02.61	230.43	23.47	-44.3	-45.4	21.9	0.00e+00	0	43	0	443547648	60	4012
2026-01-26 11:29:03.61	230.65	23.56	-44.3	-45.4	21.8	0.00e+00	0	43	0	445644800	60	4036
2026-01-26 11:29:04.62	230.88	23.65	-44.4	-45.6	21.7	0.00e+00	0	43	0	447741952	60	4101
2026-01-26 11:29:05.63	231.11	23.74	-44.5	-45.6	21.7	0.00e+00	0	43	0	448790528	60	4109
2026-01-26 11:29:06.64	231.33	23.83	-44.5	-45.7	21.6	0.00e+00	0	43	0	450887680	60	4153
2026-01-26 11:29:07.65	231.56	23.93	-44.5	-45.6	21.6	0.00e+00	0	43	0	452984832	60	4145
2026-01-26 11:29:08.65	231.79	24.02	-44.5	-45.7	21.6	0.00e+00	0	43	0	455081984	60	4146
2026-01-26 11:29:09.65	232.02	24.11	-44.5	-45.6	21.7	0.00e+00	0	43	0	456130560	60	4130
2026-01-26 11:29:10.66	232.26	24.20	-44.6	-45.7	21.6	0.00e+00	0	43	0	458227712	60	4189
2026-01-26 11:29:11.67	232.49	24.29	-44.5	-45.7	21.6	0.00e+00	0	43	0	460324864	60	4152
2026-01-26 11:29:12.67	232.73	24.38	-44.6	-45.8	21.5	0.00e+00	0	43	0	462422016	60	4197
2026-01-26 11:29:13.68	232.97	24.47	-44.4	-45.5	21.8	0.00e+00	0	43	0	464519168	60	4064
2026-01-26 11:29:14.68	233.20	24.56	-44.3	-45.4	21.9	0.00e+00	0	43	0	465567744	60	4036
2026-01-26 11:29:15.69	233.44	24.65	-44.4	-45.5	21.8	0.00e+00	0	43	0	467664896	60	4072
2026-01-26 11:29:16.70	233.69	24.74	-44.6	-45.7	21.6	0.00e+00	0	43	0	469762048	60	4163
2026-01-26 11:29:17.70	233.93	24.83	-44.7	-45.8	21.5	0.00e+00	0	43	0	471859200	60	4227
2026-01-26 11:29:18.71	234.17	24.92	-44.7	-45.8	21.5	0.00e+00	0	43	0	473956352	60	4232
2026-01-26 11:29:19.71	234.42	25.01	-44.9	-46.1	21.2	0.00e+00	0	43	0	475004928	60	4343
2026-01-26 11:29:20.72	234.66	25.09	-44.9	-46.1	21.3	0.00e+00	0	43	0	477102080	60	4342
2026-01-26 11:29:21.73	234.91	25.18	-44.9	-46.1	21.2	0.00e+00	0	43	0	479199232	60	4360
2026-01-26 11:29:22.74	235.16	25.27	-45.0	-46.2	21.2	0.00e+00	0	43	0	481296384	60	4411
2026-01-26 11:29:23.74	235.41	25.36	-45.0	-46.2	21.1	0.00e+00	0	43	0	483393536	60	4432
2026-01-26 11:29:24.75	235.66	25.45	-45.2	-46.4	21.0	0.00e+00	0	43	0	484442112	60	4502
2026-01-26 11:29:25.76	235.92	25.53	-45.2	-46.4	21.0	0.00e+00	0	43	0	486539264	60	4514
2026-01-26 11:29:26.76	236.17	25.62	-45.3	-46.5	20.8	0.00e+00	0	43	0	488636416	61	4339
2026-01-26 11:29:27.77	236.43	25.71	-45.2	-46.4	20.9	0.00e+00	0	43	0	490733568	61	4285
2026-01-26 11:29:28.77	236.68	25.79	-45.2	-46.5	20.9	0.00e+00	0	43	0	492830720	61	4311
2026-01-26 11:29:29.78	236.94	25.88	-45.3	-46.5	20.8	0.00e+00	0	43	0	493879296	61	4340
2026-01-26 11:29:30.79	237.21	25.97	-45.4	-46.7	20.7	0.00e+00	0	43	0	495976448	61	4397
2026-01-26 11:29:31.79	237.47	26.05	-45.4	-46.6	20.7	0.00e+00	0	43	0	498073600	61	4376
2026-01-26 11:29:32.80	237.73	26.14	-45.5	-46.8	20.6	0.00e+00	0	43	0	500170752	61	4461
2026-01-26 11:29:33.81	238.00	26.22	-45.6	-46.9	20.5	0.00e+00	0	43	0	502267904	61	4494
2026-01-26 11:29:34.81	238.26	26.31	-45.8	-47.1	20.3	0.00e+00	0	43	0	503316480	62	4353
2026-01-26 11:29:35.82	238.53	26.39	-45.6	-46.9	20.5	0.00e+00	0	43	0	505413632	62	4271
2026-01-26 11:29:36.83	238.80	26.47	-45.5	-46.7	20.7	0.00e+00	0	43	0	507510784	62	4179
2026-01-26 11:29:37.84	239.07	26.56	-45.5	-46.8	20.6	0.00e+00	0	43	0	509607936	62	4218
2026-01-26 11:29:38.85	239.34	26.64	-45.5	-46.8	20.6	0.00e+00	0	43	0	511705088	62	4214
2026-01-26 11:29:39.85	239.61	26.72	-45.7	-47.0	20.4	0.00e+00	0	43	0	512753664	62	4320
2026-01-26 11:29:40.86	239.89	26.80	-45.8	-47.2	20.3	0.00e+00	0	43	0	514850816	62	4406
2026-01-26 11:29:41.87	240.16	26.89	-46.0	-47.4	20.0	0.00e+00	0	43	0	516947968	62	4528
2026-01-26 11:29:42.88	240.44	26.97	-46.3	-47.8	19.7	0.00e+00	0	43	0	519045120	63	4459
2026-01-26 11:29:43.89	240.72	27.05	-46.6	-48.0	19.4	0.00e+00	0	43	0	521142272	63	4587
2026-01-26 11:29:44.90	241.00	27.13	-46.6	-48.1	19.3	0.00e+00	0	43	0	522190848	64	4366
2026-01-26 11:29:45.90	241.28	27.21	-46.7	-48.2	19.2	0.00e+00	0	43	0	524288000	64	4417
2026-01-26 11:29:46.90	241.56	27.29	-46.7	-48.2	19.1	0.00e+00	0	43	0	526385152	64	4438
2026-01-26 11:29:47.91	241.84	27.37	-46.8	-48.4	19.1	0.00e+00	0	43	0	528482304	64	4497
2026-01-26 11:29:48.92	242.13	27.44	-46.8	-48.3	19.0	0.00e+00	0	43	0	530579456	64	4489
2026-01-26 11:29:49.93	242.42	27.52	-46.7	-48.2	19.2	0.00e+00	0	43	0	532676608	64	4438
2026-01-26 11:29:50.94	242.71	27.60	-46.7	-48.2	19.2	0.00e+00	0	43	0	533725184	64	4424
2026-01-26 11:29:51.95	243.00	27.68	-46.7	-48.2	19.2	0.00e+00	0	43	0	535822336	64	4421
2026-01-26 11:29:52.95	243.29	27.75	-46.7	-48.3	19.2	0.00e+00	0	43	0	537919488	64	4448
2026-01-26 11:29:53.96	243.58	27.83	-46.6	-48.2	19.2	0.00e+00	0	43	0	540016640	64	4399
2026-01-26 11:29:54.97	243.87	27.90	-46.7	-48.2	19.2	0.00e+00	0	43	0	541065216	64	4440
2026-01-26 11:29:55.98	244.17	27.98	-46.8	-48.3	19.1	0.00e+00	0	43	0	543162368	64	4477
2026-01-26 11:29:56.98	244.46	28.05	-46.9	-48.5	18.9	0.00e+00	0	43	0	545259520	64	4578
2026-01-26 11:29:57.99	244.76	28.12	-47.0	-48.6	18.8	0.00e+00	0	43	0	547356672	64	4614
2026-01-26 11:29:58.99	245.06	28.19	-47.0	-48.6	18.9	0.00e+00	0	43	0	549453824	64	4606
2026-01-26 11:30:00.00	245.36	28.27	-47.0	-48.6	18.8	0.00e+00	0	43	0	550502400	64	4650
2026-01-26 11:30:01.01	245.66	28.34	-46.9	-48.5	18.9	0.00e+00	0	43	0	552599552	64	4548
2026-01-26 11:30:02.01	245.96	28.41	-46.8	-48.4	19.0	0.00e+00	0	43	0	554696704	64	4496
2026-01-26 11:30:03.02	246.26	28.48	-46.8	-48.4	19.0	0.00e+00	0	43	0	556793856	64	4496
2026-01-26 11:30:04.02	246.57	28.54	-46.7	-48.2	19.2	0.00e+00	0	43	0	558891008	64	4436
2026-01-26 11:30:05.03	246.87	28.61	-46.3	-47.8	19.6	0.00e+00	0	43	0	560988160	64	4208
2026-01-26 11:30:06.03	247.18	28.68	-46.3	-47.7	19.7	0.00e+00	0	43	0	562036736	64	4155
2026-01-26 11:30:07.04	247.49	28.75	-46.3	-47.7	19.7	0.00e+00	0	43	0	564133888	64	4162
2026-01-26 11:30:08.04	247.80	28.81	-46.4	-47.8	19.6	0.00e+00	0	43	0	566231040	64	4237
2026-01-26 11:30:09.05	248.11	28.88	-46.5	-48.0	19.4	0.00e+00	0	43	0	568328192	64	4317
2026-01-26 11:30:10.05	248.42	28.94	-46.6	-48.2	19.3	0.00e+00	0	43	0	569376768	64	4393
2026-01-26 11:30:11.06	248.74	29.01	-46.7	-48.2	19.2	0.00e+00	0	43	0	571473920	64	4426
2026-01-26 11:30:12.07	249.05	29.07	-46.7	-48.3	19.1	0.00e+00	0	43	0	573571072	64	4462
2026-01-26 11:30:13.08	249.37	29.13	-46.7	-48.2	19.2	0.00e+00	0	43	0	575668224	64	4413
2026-01-26 11:30:14.08	249.68	29.19	-46.7	-48.2	19.3	0.00e+00	0	43	0	577765376	64	4400
2026-01-26 11:30:15.08	250.00	29.25	-46.6	-48.1	19.3	0.00e+00	0	43	0	578813952	64	4367
2026-01-26 11:30:16.09	250.32	29.31	-46.7	-48.2	19.2	0.00e+00	0	43	0	580911104	64	4418
2026-01-26 11:30:17.10	250.64	29.37	-46.9	-48.5	18.9	0.00e+00	0	43	0	583008256	64	4557
2026-01-26 11:30:18.11	250.97	29.43	-47.2	-48.9	18.6	0.00e+00	0	43	0	585105408	65	4499
2026-01-26 11:30:19.11	251.29	29.49	-47.4	-49.1	18.3	0.00e+00	0	43	0	587202560	65	4643
2026-01-26 11:30:20.12	251.61	29.54	-47.8	-49.6	17.9	0.00e+00	0	43	0	588251136	66	4624
2026-01-26 11:30:21.13	251.94	29.60	-48.0	-49.8	17.7	0.00e+00	0	43	0	590348288	66	4758
2026-01-26 11:30:22.13	252.26	29.65	-48.3	-50.3	17.2	0.00e+00	0	43	0	592445440	67	4709
2026-01-26 11:30:23.14	252.59	29.71	-48.4	-50.4	17.1	0.00e+00	0	43	0	594542592	67	4808
2026-01-26 11:30:24.14	252.92	29.76	-48.5	-50.6	16.9	0.00e+00	0	43	0	596639744	67	4903
2026-01-26 11:30:25.15	253.25	29.81	-48.7	-50.9	16.6	0.00e+00	0	43	0	597688320	67	5051
2026-01-26 11:30:26.15	253.58	29.86	-48.8	-51.0	16.6	0.00e+00	0	43	0	599785472	68	4845
2026-01-26 11:30:27.16	253.91	29.91	-48.8	-51.0	16.6	0.00e+00	0	43	0	601882624	68	4817
2026-01-26 11:30:28.17	254.24	29.96	-48.8	-50.9	16.7	0.00e+00	0	43	0	603979776	68	4809
2026-01-26 11:30:29.17	254.57	30.01	-48.8	-51.1	16.5	0.00e+00	0	43	0	606076928	68	4871
2026-01-26 11:30:30.18	254.91	30.06	-49.0	-51.2	16.4	0.00e+00	0	43	0	607125504	68	4972
2026-01-26 11:30:31.18	255.24	30.10	-49.1	-51.4	16.2	0.00e+00	0	43	0	609222656	68	5062
2026-01-26 11:30:32.19	255.58	30.15	-49.0	-51.3	16.3	0.00e+00	0	43	0	611319808	68	4987
2026-01-26 11:30:33.20	255.92	30.19	-48.9	-51.2	16.4	0.00e+00	0	43	0	613416960	68	4936
2026-01-26 11:30:34.20	256.26	30.24	-48.9	-51.1	16.5	0.00e+00	0	43	0	615514112	68	4915
2026-01-26 11:30:35.21	256.60	30.28	-48.7	-50.9	16.7	0.00e+00	0	43	0	616562688	68	4781
2026-01-26 11:30:36.21	256.93	30.32	-48.6	-50.7	16.9	0.00e+00	0	43	0	618659840	68	4699
2026-01-26 11:30:37.22	257.28	30.36	-48.5	-50.6	17.0	0.00e+00	0	43	0	620756992	68	4623
2026-01-26 11:30:38.23	257.62	30.40	-48.4	-50.4	17.2	0.00e+00	0	43	0	622854144	68	4514
2026-01-26 11:30:39.24	257.96	30.44	-48.4	-50.4	17.2	0.00e+00	0	43	0	624951296	68	4529
2026-01-26 11:30:40.24	258.30	30.48	-48.4	-50.4	17.3	0.00e+00	0	43	0	625999872	68	4494
2026-01-26 11:30:41.25	258.65	30.51	-48.5	-50.5	17.1	0.00e+00	0	43	0	628097024	68	4570
2026-01-26 11:30:42.26	258.99	30.55	-48.4	-50.5	17.1	0.00e+00	0	43	0	630194176	68	4546
2026-01-26 11:30:43.27	259.34	30.58	-48.4	-50.4	17.2	0.00e+00	0	43	0	632291328	68	4524
2026-01-26 11:30:44.28	259.69	30.61	-48.4	-50.4	17.2	0.00e+00	0	43	0	634388480	68	4539
2026-01-26 11:30:45.29	260.04	30.65	-48.3	-50.3	17.3	0.00e+00	0	43	0	635437056	68	4475
2026-01-26 11:30:46.29	260.38	30.68	-48.0	-49.9	17.7	0.00e+00	0	43	0	637534208	68	4265
2026-01-26 11:30:47.29	260.73	30.71	-47.8	-49.7	17.8	0.00e+00	0	43	0	639631360	67	4394
2026-01-26 11:30:48.30	261.08	30.73	-47.5	-49.2	18.3	0.00e+00	0	43	0	641728512	66	4410
2026-01-26 11:30:49.31	261.43	30.76	-47.4	-49.1	18.4	0.00e+00	0	43	0	643825664	66	4377
2026-01-26 11:30:50.31	261.77	30.79	-47.5	-49.2	18.3	0.00e+00	0	43	0	644874240	66	4428
2026-01-26 11:30:51.32	262.13	30.81	-47.6	-49.3	18.3	0.00e+00	0	43	0	646971392	66	4462
2026-01-26 11:30:52.33	262.48	30.84	-48.0	-49.8	17.7	0.00e+00	0	43	0	649068544	66	4751
2026-01-26 11:30:53.34	262.83	30.86	-47.9	-49.7	17.8	0.00e+00	0	43	0	651165696	66	4685
2026-01-26 11:30:54.34	263.18	30.88	-47.9	-49.7	17.9	0.00e+00	0	43	0	653262848	66	4686
2026-01-26 11:30:55.35	263.53	30.90	-47.8	-49.6	17.9	0.00e+00	0	43	0	654311424	66	4616
2026-01-26 11:30:56.36	263.89	30.92	-47.6	-49.4	18.1	0.00e+00	0	43	0	656408576	66	4528
2026-01-26 11:30:57.37	264.24	30.94	-47.4	-49.1	18.4	0.00e+00	0	43	0	658505728	66	4385
2026-01-26 11:30:58.37	264.59	30.96	-47.1	-48.7	18.8	0.00e+00	0	43	0	660602880	66	4182
2026-01-26 11:30:59.38	264.95	30.97	-47.1	-48.7	18.9	0.00e+00	0	43	0	662700032	65	4393
2026-01-26 11:31:00.38	265.30	30.99	-47.4	-49.1	18.5	0.00e+00	0	43	0	663748608	65	4614
2026-01-26 11:31:01.39	265.65	31.00	-47.6	-49.4	18.2	0.00e+00	0	43	0	665845760	65	4779
2026-01-26 11:31:02.40	266.01	31.01	-48.1	-50.0	17.6	0.00e+00	0	43	0	667942912	66	4829
2026-01-26 11:31:03.40	266.36	31.02	-48.3	-50.3	17.2	0.00e+00	0	43	0	670040064	67	4742
2026-01-26 11:31:04.41	266.72	31.03	-48.2	-50.1	17.4	0.00e+00	0	43	0	672137216	67	4648
2026-01-26 11:31:05.42	267.08	31.04	-48.1	-50.0	17.6	0.00e+00	0	43	0	673185792	67	4551
2026-01-26 11:31:06.42	267.43	31.05	-47.9	-49.8	17.8	0.00e+00	0	43	0	675282944	67	4472
2026-01-26 11:31:07.43	267.79	31.05	-47.7	-49.5	18.1	0.00e+00	0	43	0	677380096	67	4319
2026-01-26 11:31:08.43	268.14	31.06	-47.8	-49.6	18.0	0.00e+00	0	43	0	679477248	67	4356
2026-01-26 11:31:09.43	268.49	31.06	-47.5	-49.3	18.3	0.00e+00	0	43	0	681574400	66	4442
2026-01-26 11:31:10.44	268.85	31.07	-47.4	-49.1	18.5	0.00e+00	0	43	0	682622976	66	4365
2026-01-26 11:31:11.44	269.20	31.07	-47.2	-48.9	18.7	0.00e+00	0	43	0	684720128	66	4255
2026-01-26 11:31:12.45	269.56	31.07	-47.1	-48.7	18.8	0.00e+00	0	43	0	686817280	66	4168
2026-01-26 11:31:13.45	269.91	31.07	-46.9	-48.4	19.1	0.00e+00	0	43	0	688914432	65	4278
2026-01-26 11:31:14.46	270.27	31.07	-46.6	-48.1	19.5	0.00e+00	0	43	0	691011584	65	4103
2026-01-26 11:31:15.47	270.63	31.06	-46.2	-47.5	19.9	0.00e+00	0	43	0	692060160	64	4092
2026-01-26 11:31:16.47	270.98	31.06	-46.1	-47.5	20.0	0.00e+00	0	43	0	694157312	64	4069
2026-01-26 11:31:17.48	271.34	31.05	-46.3	-47.7	19.7	0.00e+00	0	43	0	696254464	64	4176
2026-01-26 11:31:18.49	271.69	31.05	-46.6	-48.0	19.5	0.00e+00	0	43	0	698351616	64	4339
2026-01-26 11:31:19.50	272.05	31.04	-46.6	-48.1	19.4	0.00e+00	0	43	0	700448768	64	4370
2026-01-26 11:31:20.50	272.40	31.03	-46.7	-48.2	19.3	0.00e+00	0	43	0	701497344	64	4434
2026-01-26 11:31:21.51	272.76	31.02	-46.8	-48.3	19.2	0.00e+00	0	43	0	703594496	64	4480
2026-01-26 11:31:22.51	273.11	31.01	-47.0	-48.6	18.9	0.00e+00	0	43	0	705691648	64	4645
2026-01-26 11:31:23.53	273.47	30.99	-47.4	-49.1	18.5	0.00e+00	0	43	0	707788800	65	4622
2026-01-26 11:31:24.53	273.82	30.98	-47.6	-49.3	18.3	0.00e+00	0	43	0	709885952	65	4721
2026-01-26 11:31:25.54	274.18	30.97	-47.8	-49.5	18.1	0.00e+00	0	43	0	710934528	66	4589
2026-01-26 11:31:26.55	274.53	30.95	-47.8	-49.6	18.0	0.00e+00	0	43	0	713031680	66	4619
2026-01-26 11:31:27.55	274.88	30.93	-47.8	-49.6	18.1	0.00e+00	0	43	0	715128832	66	4608
2026-01-26 11:31:28.56	275.24	30.91	-47.7	-49.5	18.1	0.00e+00	0	43	0	717225984	66	4548
2026-01-26 11:31:29.57	275.59	30.89	-47.6	-49.3	18.3	0.00e+00	0	43	0	719323136	66	4485
2026-01-26 11:31:30.57	275.94	30.87	-47.5	-49.1	18.5	0.00e+00	0	43	0	720371712	66	4381
2026-01-26 11:31:31.58	276.29	30.85	-47.5	-49.1	18.4	0.00e+00	0	43	0	722468864	66	4386
2026-01-26 11:31:32.58	276.64	30.83	-47.7	-49.4	18.2	0.00e+00	0	43	0	724566016	66	4530
2026-01-26 11:31:33.59	276.99	30.80	-47.9	-49.8	17.9	0.00e+00	0	43	0	726663168	66	4707
2026-01-26 11:31:34.60	277.34	30.78	-47.9	-49.8	17.9	0.00e+00	0	43	0	728760320	66	4723
2026-01-26 11:31:35.61	277.69	30.75	-47.7	-49.5	18.1	0.00e+00	0	43	0	729808896	66	4562
2026-01-26 11:31:36.62	278.04	30.72	-47.7	-49.5	18.2	0.00e+00	0	43	0	731906048	66	4548
2026-01-26 11:31:37.62	278.39	30.69	-47.6	-49.4	18.3	0.00e+00	0	43	0	734003200	66	4504
2026-01-26 11:31:38.63	278.74	30.66	-47.7	-49.5	18.1	0.00e+00	0	43	0	736100352	66	4553
2026-01-26 11:31:39.64	279.09	30.63	-47.9	-49.8	17.9	0.00e+00	0	43	0	738197504	66	4713
2026-01-26 11:31:40.65	279.43	30.60	-48.0	-49.8	17.9	0.00e+00	0	43	0	739246080	66	4743
2026-01-26 11:31:41.66	279.78	30.57	-48.0	-49.8	17.8	0.00e+00	0	43	0	741343232	66	4744
2026-01-26 11:31:42.67	280.13	30.53	-48.2	-50.1	17.5	0.00e+00	0	43	0	743440384	66	4908
2026-01-26 11:31:43.67	280.47	30.50	-48.3	-50.3	17.4	0.00e+00	0	43	0	745537536	67	4711
2026-01-26 11:31:44.68	280.81	30.46	-48.3	-50.3	17.3	0.00e+00	0	43	0	747634688	67	4742
2026-01-26 11:31:45.69	281.15	30.43	-48.2	-50.2	17.4	0.00e+00	0	43	0	748683264	67	4693
2026-01-26 11:31:46.70	281.50	30.39	-48.2	-50.2	17.4	0.00e+00	0	43	0	750780416	67	4670
2026-01-26 11:31:47.71	281.84	30.35	-48.3	-50.2	17.4	0.00e+00	0	43	0	752877568	67	4704
2026-01-26 11:31:48.71	282.18	30.31	-48.2	-50.1	17.6	0.00e+00	0	43	0	754974720	67	4615
2026-01-26 11:31:49.72	282.52	30.26	-47.8	-49.7	17.9	0.00e+00	0	43	0	757071872	67	4418
2026-01-26 11:31:50.73	282.86	30.22	-47.6	-49.4	18.2	0.00e+00	0	43	0	759169024	67	4261
2026-01-26 11:31:51.74	283.20	30.18	-47.7	-49.4	18.2	0.00e+00	0	43	0	760217600	67	4259
2026-01-26 11:31:52.74	283.53	30.13	-47.7	-49.4	18.2	0.00e+00	0	43	0	762314752	67	4278
2026-01-26 11:31:53.75	283.87	30.09	-48.0	-49.8	17.8	0.00e+00	0	43	0	764411904	67	4489
2026-01-26 11:31:54.76	284.20	30.04	-48.5	-50.5	17.2	0.00e+00	0	43	0	766509056	67	4845
2026-01-26 11:31:55.76	284.53	29.99	-48.6	-50.7	16.9	0.00e+00	0	43	0	767557632	67	4967
2026-01-26 11:31:56.77	284.87	29.95	-48.6	-50.7	17.0	0.00e+00	0	43	0	769654784	68	4675
2026-01-26 11:31:57.78	285.20	29.90	-48.6	-50.7	17.1	0.00e+00	0	43	0	771751936	68	4657
2026-01-26 11:31:58.78	285.53	29.85	-48.3	-50.3	17.5	0.00e+00	0	43	0	773849088	68	4445
2026-01-26 11:31:59.79	285.86	29.80	-47.8	-49.6	18.1	0.00e+00	0	43	0	775946240	67	4348
2026-01-26 11:32:00.79	286.18	29.74	-47.7	-49.4	18.3	0.00e+00	0	43	0	776994816	66	4539
2026-01-26 11:32:01.80	286.51	29.69	-47.5	-49.2	18.5	0.00e+00	0	43	0	779091968	66	4400
2026-01-26 11:32:02.81	286.84	29.64	-47.5	-49.1	18.5	0.00e+00	0	43	0	781189120	66	4389
2026-01-26 11:32:03.82	287.17	29.58	-47.1	-48.7	18.9	0.00e+00	0	43	0	783286272	66	4172
2026-01-26 11:32:04.82	287.49	29.53	-47.0	-48.5	19.1	0.00e+00	0	43	0	785383424	65	4334
2026-01-26 11:32:05.82	287.81	29.47	-46.8	-48.3	19.3	0.00e+00	0	43	0	787480576	65	4219
2026-01-26 11:32:06.83	288.13	29.41	-46.7	-48.2	19.5	0.00e+00	0	43	0	788529152	65	4152
2026-01-26 11:32:07.84	288.45	29.35	-46.6	-48.1	19.6	0.00e+00	0	43	0	790626304	65	4110
2026-01-26 11:32:08.85	288.78	29.29	-46.7	-48.2	19.4	0.00e+00	0	43	0	792723456	65	4182
2026-01-26 11:32:09.85	289.09	29.23	-47.0	-48.5	19.2	0.00e+00	0	43	0	794820608	65	4310
2026-01-26 11:32:10.86	289.41	29.17	-47.1	-48.6	19.0	0.00e+00	0	43	0	795869184	65	4380
2026-01-26 11:32:11.86	289.72	29.11	-47.4	-49.0	18.7	0.00e+00	0	43	0	797966336	65	4576
2026-01-26 11:32:12.86	290.04	29.05	-47.3	-48.9	18.7	0.00e+00	0	43	0	800063488	65	4543
2026-01-26 11:32:13.87	290.35	28.99	-47.1	-48.7	19.0	0.00e+00	0	43	0	802160640	65	4395
2026-01-26 11:32:14.88	290.67	28.92	-46.9	-48.4	19.3	0.00e+00	0	43	0	804257792	65	4276
2026-01-26 11:32:15.89	290.98	28.86	-46.6	-48.1	19.6	0.00e+00	0	43	0	805306368	65	4117
2026-01-26 11:32:16.89	291.29	28.79	-46.3	-47.7	20.0	0.00e+00	0	43	0	807403520	64	4148
2026-01-26 11:32:17.90	291.60	28.73	-46.3	-47.6	20.2	0.00e+00	0	43	0	809500672	63	4372
2026-01-26 11:32:18.90	291.90	28.66	-46.3	-47.7	20.0	0.00e+00	0	43	0	811597824	63	4408
2026-01-26 11:32:19.91	292.21	28.59	-46.3	-47.6	20.1	0.00e+00	0	43	0	813694976	63	4378
2026-01-26 11:32:20.92	292.51	28.52	-46.4	-47.8	20.0	0.00e+00	0	43	0	814743552	63	4472
2026-01-26 11:32:21.93	292.82	28.46	-46.5	-47.9	19.8	0.00e+00	0	43	0	816840704	63	4510
2026-01-26 11:32:22.93	293.12	28.39	-46.7	-48.2	19.5	0.00e+00	0	43	0	818937856	64	4413
2026-01-26 11:32:23.94	293.42	28.32	-47.1	-48.6	19.1	0.00e+00	0	43	0	821035008	64	4630
2026-01-26 11:32:24.94	293.72	28.25	-47.4	-49.0	18.7	0.00e+00	0	43	0	823132160	65	4573
2026-01-26 11:32:25.95	294.02	28.17	-47.5	-49.1	18.6	0.00e+00	0	43	0	824180736	65	4639
2026-01-26 11:32:26.95	294.31	28.10	-47.4	-49.1	18.6	0.00e+00	0	44	0	826277888	65	4620
2026-01-26 11:32:27.96	294.61	28.03	-47.4	-49.0	18.7	0.00e+00	0	43	0	828375040	65	4578
2026-01-26 11:32:28.97	294.91	27.96	-47.4	-49.0	18.7	0.00e+00	0	43	0	830472192	65	4566
2026-01-26 11:32:29.98	295.20	27.88	-47.3	-48.9	18.8	0.00e+00	0	43	0	832569344	65	4524
2026-01-26 11:32:30.98	295.49	27.81	-47.2	-48.8	18.9	0.00e+00	0	43	0	833617920	65	4449
2026-01-26 11:32:31.98	295.78	27.73	-47.1	-48.6	19.0	0.00e+00	0	43	0	835715072	65	4385
2026-01-26 11:32:32.98	296.07	27.66	-47.0	-48.6	19.1	0.00e+00	0	43	0	837812224	65	4355
2026-01-26 11:32:33.99	296.35	27.58	-46.9	-48.5	19.2	0.00e+00	0	43	0	839909376	65	4293
2026-01-26 11:32:35.00	296.64	27.50	-46.9	-48.4	19.3	0.00e+00	0	43	0	842006528	65	4243
2026-01-26 11:32:36.00	296.93	27.43	-47.0	-48.5	19.2	0.00e+00	0	43	0	843055104	65	4310
2026-01-26 11:32:37.01	297.21	27.35	-47.2	-48.8	18.9	0.00e+00	0	43	0	845152256	65	4459
2026-01-26 11:32:38.01	297.49	27.27	-47.5	-49.1	18.6	0.00e+00	0	43	0	847249408	65	4633
2026-01-26 11:32:39.02	297.77	27.19	-47.6	-49.3	18.4	0.00e+00	0	43	0	849346560	65	4726
2026-01-26 11:32:40.03	298.05	27.11	-47.6	-49.4	18.3	0.00e+00	0	43	0	851443712	65	4768
2026-01-26 11:32:41.03	298.33	27.03	-47.6	-49.3	18.4	0.00e+00	0	43	0	852492288	65	4735
2026-01-26 11:32:42.04	298.61	26.95	-47.5	-49.2	18.4	0.00e+00	0	43	0	854589440	65	4695
2026-01-26 11:32:43.05	298.88	26.87	-47.4	-49.1	18.5	0.00e+00	0	43	0	856686592	65	4633
2026-01-26 11:32:44.05	299.16	26.79	-47.3	-49.0	18.6	0.00e+00	0	43	0	858783744	65	4555
2026-01-26 11:32:45.06	299.43	26.71	-47.2	-48.8	18.8	0.00e+00	0	43	0	860880896	65	4487
2026-01-26 11:32:46.06	299.70	26.63	-47.1	-48.7	18.9	0.00e+00	0	43	0	861929472	65	4425
2026-01-26 11:32:47.07	299.97	26.54	-47.0	-48.6	19.0	0.00e+00	0	43	0	864026624	65	4369
2026-01-26 11:32:48.07	300.24	26.46	-47.0	-48.6	19.0	0.00e+00	0	43	0	866123776	65	4362
2026-01-26 11:32:49.08	300.51	26.38	-47.0	-48.5	19.1	0.00e+00	0	43	0	868220928	65	4332
2026-01-26 11:32:50.09	300.77	26.29	-46.7	-48.2	19.4	0.00e+00	0	43	0	870318080	65	4181
2026-01-26 11:32:51.09	301.04	26.21	-46.4	-47.8	19.7	0.00e+00	0	43	0	871366656	64	4230
2026-01-26 11:32:52.10	301.30	26.13	-46.2	-47.6	20.1	0.00e+00	0	43	0	873463808	63	4361
2026-01-26 11:32:53.10	301.56	26.04	-46.1	-47.4	20.2	0.00e+00	0	43	0	875560960	63	4282
2026-01-26 11:32:54.11	301.82	25.96	-46.0	-47.3	20.3	0.00e+00	0	43	0	877658112	63	4220
2026-01-26 11:32:55.12	302.08	25.87	-46.0	-47.3	20.4	0.00e+00	0	43	0	879755264	63	4206
2026-01-26 11:32:56.12	302.34	25.79	-45.7	-47.0	20.6	0.00e+00	0	43	0	880803840	63	4067
2026-01-26 11:32:57.12	302.59	25.70	-45.8	-47.1	20.6	0.00e+00	0	43	0	882900992	63	4103
2026-01-26 11:32:58.13	302.85	25.61	-46.0	-47.4	20.2	0.00e+00	0	43	0	884998144	63	4256
2026-01-26 11:32:59.14	303.10	25.53	-46.3	-47.7	19.9	0.00e+00	0	43	0	887095296	63	4424
2026-01-26 11:33:00.15	303.35	25.44	-46.6	-48.0	19.6	0.00e+00	0	43	0	889192448	63	4578
2026-01-26 11:33:01.15	303.60	25.35	-46.4	-47.8	19.8	0.00e+00	0	43	0	890241024	63	4464
2026-01-26 11:33:02.16	303.85	25.26	-46.2	-47.5	20.0	0.00e+00	0	43	0	892338176	63	4335
2026-01-26 11:33:03.16	304.10	25.18	-46.1	-47.4	20.2	0.00e+00	0	43	0	894435328	63	4259
2026-01-26 11:33:04.17	304.35	25.09	-46.1	-47.5	20.1	0.00e+00	0	43	0	896532480	63	4317
2026-01-26 11:33:05.18	304.59	25.00	-46.1	-47.5	20.1	0.00e+00	0	43	0	898629632	63	4300
2026-01-26 11:33:06.18	304.84	24.91	-46.3	-47.7	19.9	0.00e+00	0	43	0	899678208	63	4396
2026-01-26 11:33:07.19	305.08	24.82	-46.2	-47.6	20.0	0.00e+00	0	43	0	901775360	63	4354
2026-01-26 11:33:08.20	305.32	24.73	-45.9	-47.3	20.3	0.00e+00	0	43	0	903872512	63	4199
2026-01-26 11:33:09.20	305.56	24.65	-45.9	-47.4	20.2	0.00e+00	0	43	0	905969664	63	4280
2026-01-26 11:33:10.21	305.80	24.56	-45.9	-47.2	20.3	0.00e+00	0	43	0	908066816	62	4404
2026-01-26 11:33:11.21	306.04	24.47	-45.8	-47.1	20.5	0.00e+00	0	43	0	909115392	62	4343
2026-01-26 11:33:12.22	306.27	24.38	-46.1	-47.4	20.1	0.00e+00	0	43	0	911212544	62	4537
2026-01-26 11:33:13.22	306.51	24.29	-46.3	-47.7	19.8	0.00e+00	0	43	0	913309696	63	4436
2026-01-26 11:33:14.23	306.74	24.20	-46.5	-47.9	19.7	0.00e+00	0	43	0	915406848	63	4524
2026-01-26 11:33:15.24	306.97	24.11	-46.5	-48.0	19.6	0.00e+00	0	43	0	917504000	63	4566
2026-01-26 11:33:16.25	307.21	24.02	-46.3	-47.7	19.8	0.00e+00	0	43	0	918552576	63	4422
2026-01-26 11:33:17.25	307.43	23.92	-45.9	-47.3	20.3	0.00e+00	0	43	0	920649728	63	4206
2026-01-26 11:33:18.26	307.66	23.83	-45.9	-47.2	20.3	0.00e+00	0	43	0	922746880	63	4191
2026-01-26 11:33:19.26	307.89	23.74	-46.1	-47.5	20.0	0.00e+00	0	43	0	924844032	63	4327
2026-01-26 11:33:20.27	308.11	23.65	-46.5	-48.0	19.5	0.00e+00	0	43	0	926941184	63	4585
2026-01-26 11:33:21.27	308.34	23.56	-47.1	-48.8	18.7	0.00e+00	0	43	0	927989760	64	4713
2026-01-26 11:33:22.28	308.56	23.47	-47.5	-49.3	18.1	0.00e+00	0	43	0	930086912	65	4757
2026-01-26 11:33:23.29	308.78	23.38	-47.4	-49.1	18.3	0.00e+00	0	43	0	932184064	65	4646
2026-01-26 11:33:24.30	309.01	23.29	-47.0	-48.6	18.9	0.00e+00	0	43	0	934281216	65	4353
2026-01-26 11:33:25.30	309.22	23.20	-46.7	-48.2	19.3	0.00e+00	0	43	0	936378368	65	4164
2026-01-26 11:33:26.31	309.44	23.10	-46.6	-48.0	19.4	0.00e+00	0	43	0	937426944	65	4094
2026-01-26 11:33:27.31	309.66	23.01	-46.4	-47.8	19.6	0.00e+00	0	43	0	939524096	64	4211
2026-01-26 11:33:28.32	309.87	22.92	-46.4	-47.9	19.5	0.00e+00	0	43	0	941621248	64	4263
2026-01-26 11:33:29.32	310.09	22.83	-46.8	-48.3	19.1	0.00e+00	0	43	0	943718400	64	4491
2026-01-26 11:33:30.33	310.30	22.74	-47.0	-48.7	18.7	0.00e+00	0	43	0	945815552	64	4682
2026-01-26 11:33:31.34	310.51	22.64	-46.8	-48.3	19.1	0.00e+00	0	43	0	946864128	64	4483
2026-01-26 11:33:32.35	310.72	22.55	-46.4	-47.9	19.5	0.00e+00	0	43	0	948961280	64	4280
2026-01-26 11:33:33.35	310.93	22.46	-46.4	-47.8	19.6	0.00e+00	0	43	0	951058432	64	4224
2026-01-26 11:33:34.36	311.14	22.37	-46.1	-47.5	19.9	0.00e+00	0	43	0	953155584	64	4055
2026-01-26 11:33:35.37	311.35	22.27	-45.9	-47.3	20.2	0.00e+00	0	43	0	955252736	63	4197
2026-01-26 11:33:36.37	311.55	22.18	-45.7	-47.0	20.5	0.00e+00	0	43	0	956301312	63	4076
2026-01-26 11:33:37.37	311.76	22.09	-45.9	-47.2	20.3	0.00e+00	0	43	0	958398464	63	4160
2026-01-26 11:33:38.38	311.96	22.00	-46.4	-47.9	19.6	0.00e+00	0	43	0	960495616	63	4498
2026-01-26 11:33:39.39	312.16	21.91	-46.7	-48.2	19.3	0.00e+00	0	43	0	962592768	63	4666
2026-01-26 11:33:40.40	312.37	21.81	-46.7	-48.2	19.1	0.00e+00	0	43	0	964689920	64	4431
2026-01-26 11:33:41.40	312.56	21.72	-46.5	-48.0	19.3	0.00e+00	0	43	0	965738496	64	4337
2026-01-26 11:33:42.41	312.76	21.63	-46.3	-47.7	19.6	0.00e+00	0	43	0	967835648	64	4175
2026-01-26 11:33:43.41	312.96	21.54	-46.2	-47.7	19.7	0.00e+00	0	43	0	969932800	64	4157
2026-01-26 11:33:44.42	313.16	21.44	-46.2	-47.6	19.8	0.00e+00	0	43	0	972029952	63	4389
2026-01-26 11:33:45.42	313.35	21.35	-46.2	-47.6	19.8	0.00e+00	0	43	0	973078528	63	4391
2026-01-26 11:33:46.43	313.55	21.26	-46.5	-48.0	19.5	0.00e+00	0	43	0	975175680	63	4546
2026-01-26 11:33:47.43	313.74	21.17	-46.8	-48.3	19.1	0.00e+00	0	43	0	977272832	64	4476
2026-01-26 11:33:48.44	313.93	21.07	-46.8	-48.4	18.9	0.00e+00	0	43	0	979369984	64	4532
2026-01-26 11:33:49.45	314.12	20.98	-46.6	-48.2	19.2	0.00e+00	0	43	0	981467136	64	4407
2026-01-26 11:33:50.46	314.31	20.89	-46.4	-47.9	19.5	0.00e+00	0	43	0	983564288	64	4243
2026-01-26 11:33:51.46	314.50	20.80	-46.1	-47.6	19.8	0.00e+00	0	43	0	984612864	64	4099
2026-01-26 11:33:52.47	314.69	20.70	-45.9	-47.3	20.1	0.00e+00	0	43	0	986710016	63	4214
2026-01-26 11:33:53.47	314.87	20.61	-45.5	-46.8	20.6	0.00e+00	0	43	0	988807168	63	3964
2026-01-26 11:33:54.47	315.06	20.52	-45.4	-46.7	20.7	0.00e+00	0	43	0	990904320	62	4164
2026-01-26 11:33:55.48	315.24	20.43	-45.7	-47.0	20.4	0.00e+00	0	43	0	993001472	62	4300
2026-01-26 11:33:56.48	315.43	20.34	-45.8	-47.2	20.2	0.00e+00	0	43	0	994050048	62	4404
2026-01-26 11:33:57.49	315.61	20.25	-46.0	-47.4	20.0	0.00e+00	0	43	0	996147200	62	4510
2026-01-26 11:33:58.49	315.79	20.15	-45.9	-47.3	20.1	0.00e+00	0	43	0	998244352	62	4456
2026-01-26 11:33:59.50	315.97	20.06	-45.8	-47.2	20.2	0.00e+00	0	43	0	1000341504	62	4407
2026-01-26 11:34:00.51	316.15	19.97	-45.6	-46.9	20.5	0.00e+00	0	43	0	1001390080	62	4254
2026-01-26 11:34:01.51	316.32	19.88	-45.5	-46.8	20.5	0.00e+00	0	43	0	1003487232	62	4232
2026-01-26 11:34:02.52	316.50	19.79	-45.5	-46.7	20.6	0.00e+00	0	43	0	1005584384	62	4184
2026-01-26 11:34:03.52	316.68	19.70	-45.3	-46.5	20.8	0.00e+00	0	43	0	1007681536	62	4086
2026-01-26 11:34:04.52	316.85	19.60	-45.3	-46.5	20.8	0.00e+00	0	43	0	1009778688	62	4094
2026-01-26 11:34:05.53	317.03	19.51	-45.4	-46.7	20.7	0.00e+00	0	43	0	1011875840	62	4147
2026-01-26 11:34:06.53	317.20	19.42	-45.6	-46.8	20.5	0.00e+00	0	43	0	1012924416	62	4239
2026-01-26 11:34:07.54	317.37	19.33	-45.6	-46.9	20.4	0.00e+00	0	43	0	1015021568	62	4267
2026-01-26 11:34:08.55	317.54	19.24	-45.6	-46.9	20.4	0.00e+00	0	43	0	1017118720	62	4291
2026-01-26 11:34:09.55	317.71	19.15	-45.5	-46.7	20.6	0.00e+00	0	43	0	1019215872	62	4183
2026-01-26 11:34:10.56	317.88	19.06	-45.4	-46.6	20.6	0.00e+00	0	43	0	1021313024	62	4141
2026-01-26 11:34:11.57	318.05	18.97	-45.3	-46.6	20.6	0.00e+00	0	43	0	1022361600	62	4126
2026-01-26 11:34:12.57	318.21	18.88	-45.1	-46.3	20.9	0.00e+00	0	43	0	1024458752	61	4220
2026-01-26 11:34:13.58	318.38	18.78	-45.1	-46.3	20.9	0.00e+00	0	43	0	1026555904	61	4240
2026-01-26 11:34:14.59	318.55	18.69	-45.2	-46.4	20.8	0.00e+00	0	43	0	1028653056	61	4258
2026-01-26 11:34:15.59	318.71	18.60	-45.0	-46.3	20.9	0.00e+00	0	43	0	1029701632	61	4199
2026-01-26 11:34:16.60	318.87	18.51	-45.0	-46.2	21.0	0.00e+00	0	43	0	1031798784	61	4150
2026-01-26 11:34:17.61	319.04	18.42	-45.0	-46.2	21.0	0.00e+00	0	43	0	1033895936	61	4156
2026-01-26 11:34:18.62	319.20	18.33	-45.0	-46.2	21.0	0.00e+00	0	43	0	1035993088	61	4160
2026-01-26 11:34:19.62	319.36	18.24	-44.9	-46.1	21.1	0.00e+00	0	43	0	1038090240	61	4125
2026-01-26 11:34:20.63	319.52	18.15	-44.9	-46.1	21.1	0.00e+00	0	43	0	1040187392	61	4137
2026-01-26 11:34:21.63	319.67	18.06	-44.9	-46.1	21.1	0.00e+00	0	43	0	1041235968	61	4104
2026-01-26 11:34:22.64	319.83	17.97	-44.8	-46.0	21.1	0.00e+00	0	43	0	1043333120	61	4087
2026-01-26 11:34:23.64	319.99	17.88	-44.7	-45.8	21.2	0.00e+00	0	43	0	1045430272	61	4003
2026-01-26 11:34:24.65	320.14	17.79	-44.8	-46.0	21.1	0.00e+00	0	43	0	1047527424	60	4328
2026-01-26 11:34:25.66	320.30	17.71	-44.8	-46.0	21.2	0.00e+00	0	43	0	1049624576	60	4302
2026-01-26 11:34:26.67	320.45	17.62	-44.7	-45.9	21.2	0.00e+00	0	43	0	1050673152	60	4268
2026-01-26 11:34:27.67	320.61	17.53	-44.9	-46.1	21.1	0.00e+00	0	43	0	1052770304	60	4347
2026-01-26 11:34:28.68	320.76	17.44	-44.9	-46.1	21.1	0.00e+00	0	43	0	1054867456	60	4370
2026-01-26 11:34:29.69	320.91	17.35	-45.0	-46.3	20.9	0.00e+00	0	43	0	1056964608	60	4446
2026-01-26 11:34:30.70	321.06	17.26	-45.1	-46.3	20.8	0.00e+00	0	43	0	1058013184	60	4490
2026-01-26 11:34:31.71	321.21	17.17	-45.1	-46.4	20.8	0.00e+00	0	43	0	1060110336	60	4499
2026-01-26 11:34:32.72	321.36	17.08	-45.2	-46.4	20.7	0.00e+00	0	43	0	1062207488	60	4527
2026-01-26 11:34:33.73	321.51	16.99	-45.3	-46.6	20.6	0.00e+00	0	43	0	1064304640	61	4348
2026-01-26 11:34:34.73	321.66	16.91	-45.3	-46.6	20.5	0.00e+00	0	43	0	1066401792	61	4369
2026-01-26 11:34:35.74	321.80	16.82	-45.3	-46.6	20.5	0.00e+00	0	43	0	1068498944	61	4379
2026-01-26 11:34:36.75	321.95	16.73	-45.3	-46.6	20.5	0.00e+00	0	43	0	1069547520	61	4381
2026-01-26 11:34:37.76	322.10	16.64	-45.4	-46.7	20.4	0.00e+00	0	43	0	1071644672	61	4403
2026-01-26 11:34:38.76	322.24	16.56	-45.3	-46.6	20.5	0.00e+00	0	43	0	1073741824	61	4355
2026-01-26 11:34:39.77	322.38	16.47	-45.2	-46.5	20.4	0.00e+00	0	43	0	1075838976	61	4309
2026-01-26 11:34:40.78	322.52	16.38	-45.3	-46.6	20.3	0.00e+00	0	43	0	1077936128	61	4377
2026-01-26 11:34:41.79	322.67	16.29	-45.2	-46.5	20.6	0.00e+00	0	43	0	1078984704	61	4305
2026-01-26 11:34:42.79	322.81	16.21	-45.2	-46.4	20.6	0.00e+00	0	43	0	1081081856	61	4277
2026-01-26 11:34:43.80	322.95	16.12	-45.2	-46.5	20.6	0.00e+00	0	43	0	1083179008	61	4328
2026-01-26 11:34:44.81	323.09	16.03	-45.2	-46.5	20.6	0.00e+00	0	43	0	1085276160	61	4319
2026-01-26 11:34:45.82	323.23	15.95	-45.3	-46.6	20.5	0.00e+00	0	43	0	1086324736	61	4373
2026-01-26 11:34:46.83	323.36	15.86	-45.4	-46.8	20.3	0.00e+00	0	43	0	1088421888	61	4451
2026-01-26 11:34:47.83	323.50	15.77	-45.5	-46.8	20.3	0.00e+00	0	43	0	1090519040	61	4478
2026-01-26 11:34:48.84	323.64	15.69	-45.6	-47.0	20.2	0.00e+00	0	43	0	1092616192	61	4549
2026-01-26 11:34:49.85	323.77	15.60	-45.6	-47.0	20.1	0.00e+00	0	43	0	1094713344	61	4552
2026-01-26 11:34:50.85	323.91	15.52	-45.5	-46.9	20.2	0.00e+00	0	43	0	1096810496	61	4513
2026-01-26 11:34:51.85	324.04	15.43	-45.5	-46.8	20.3	0.00e+00	0	43	0	1097859072	61	4456
2026-01-26 11:34:52.86	324.17	15.35	-45.4	-46.7	20.4	0.00e+00	0	43	0	1099956224	61	4413
2026-01-26 11:34:53.87	324.31	15.26	-45.6	-46.9	20.2	0.00e+00	0	43	0	1102053376	61	4519
2026-01-26 11:34:54.88	324.44	15.18	-45.7	-47.1	20.0	0.00e+00	0	43	0	1104150528	61	4600
2026-01-26 11:34:55.89	324.57	15.09	-45.7	-47.1	20.0	0.00e+00	0	43	0	1106247680	61	4625
2026-01-26 11:34:56.89	324.70	15.01	-45.9	-47.3	19.8	0.00e+00	0	43	0	1107296256	62	4475
2026-01-26 11:34:57.90	324.83	14.92	-46.0	-47.5	19.6	0.00e+00	0	43	0	1109393408	62	4555
2026-01-26 11:34:58.91	324.96	14.84	-46.0	-47.5	19.6	0.00e+00	0	43	0	1111490560	62	4563
2026-01-26 11:34:59.92	325.09	14.75	-46.2	-47.7	19.4	0.00e+00	0	43	0	1113587712	62	4679
2026-01-26 11:35:00.93	325.21	14.67	-46.2	-47.7	19.4	0.00e+00	0	43	0	1115684864	63	4438
2026-01-26 11:35:01.93	325.34	14.58	-46.2	-47.7	19.4	0.00e+00	0	43	0	1116733440	63	4417
2026-01-26 11:35:02.94	325.47	14.50	-46.3	-47.8	19.3	0.00e+00	0	43	0	1118830592	63	4474
2026-01-26 11:35:03.94	325.59	14.42	-46.3	-47.9	19.2	0.00e+00	0	43	0	1120927744	63	4495
2026-01-26 11:35:04.95	325.72	14.33	-46.2	-47.6	19.5	0.00e+00	0	43	0	1123024896	63	4378
2026-01-26 11:35:05.96	325.84	14.25	-46.2	-47.7	19.4	0.00e+00	0	43	0	1125122048	63	4423
2026-01-26 11:35:06.97	325.96	14.17	-46.2	-47.7	19.4	0.00e+00	0	43	0	1126170624	63	4406
2026-01-26 11:35:07.97	326.09	14.08	-46.2	-47.7	19.3	0.00e+00	0	43	0	1128267776	63	4422
2026-01-26 11:35:08.98	326.21	14.00	-46.3	-47.9	19.1	0.00e+00	0	43	0	1130364928	63	4498
2026-01-26 11:35:09.99	326.33	13.92	-46.2	-47.7	19.3	0.00e+00	0	43	0	1132462080	63	4407
2026-01-26 11:35:11.00	326.45	13.84	-46.3	-47.8	19.3	0.00e+00	0	43	0	1134559232	63	4452
2026-01-26 11:35:12.00	326.57	13.75	-46.3	-47.8	19.2	0.00e+00	0	43	0	1135607808	63	4482
2026-01-26 11:35:13.00	326.69	13.67	-46.4	-47.9	19.1	0.00e+00	0	43	0	1137704960	63	4536
2026-01-26 11:35:14.01	326.81	13.59	-46.5	-48.1	18.9	0.00e+00	0	44	0	1139802112	63	4643
2026-01-26 11:35:15.01	326.93	13.51	-46.6	-48.2	18.8	0.00e+00	0	43	0	1141899264	63	4681
2026-01-26 11:35:16.02	327.04	13.43	-46.6	-48.2	18.8	0.00e+00	0	43	0	1142947840	63	4694
2026-01-26 11:35:17.03	327.16	13.35	-46.6	-48.3	18.7	0.00e+00	0	43	0	1145044992	64	4463
2026-01-26 11:35:18.04	327.28	13.27	-46.6	-48.3	18.7	0.00e+00	0	43	0	1147142144	64	4454
2026-01-26 11:35:19.05	327.40	13.18	-46.7	-48.4	18.5	0.00e+00	0	43	0	1149239296	64	4512
2026-01-26 11:35:20.05	327.51	13.10	-46.7	-48.4	18.5	0.00e+00	0	43	0	1151336448	64	4530
2026-01-26 11:35:21.06	327.62	13.02	-46.8	-48.4	18.5	0.00e+00	0	43	0	1153433600	64	4540
2026-01-26 11:35:22.07	327.74	12.94	-46.8	-48.5	18.5	0.00e+00	0	43	0	1154482176	64	4550
2026-01-26 11:35:23.08	327.85	12.86	-46.7	-48.4	18.5	0.00e+00	0	43	0	1156579328	64	4507
2026-01-26 11:35:24.08	327.96	12.78	-46.7	-48.4	18.5	0.00e+00	0	43	0	1158676480	64	4507
2026-01-26 11:35:25.09	328.08	12.70	-46.6	-48.3	18.6	0.00e+00	0	43	0	1160773632	64	4459
2026-01-26 11:35:26.10	328.19	12.62	-46.4	-48.0	18.9	0.00e+00	0	43	0	1162870784	64	4298
2026-01-26 11:35:27.11	328.30	12.54	-46.4	-48.0	18.7	0.00e+00	0	43	0	1163919360	64	4307
2026-01-26 11:35:28.11	328.41	12.46	-46.4	-48.0	18.7	0.00e+00	0	43	0	1166016512	64	4292
2026-01-26 11:35:29.12	328.52	12.38	-46.4	-48.0	18.6	0.00e+00	0	43	0	1168113664	64	4322
2026-01-26 11:35:30.13	328.63	12.30	-46.3	-47.9	18.8	0.00e+00	0	43	0	1170210816	64	4277
2026-01-26 11:35:31.13	328.74	12.22	-46.4	-48.0	18.9	0.00e+00	0	43	0	1172307968	64	4292
2026-01-26 11:35:32.13	328.85	12.15	-46.3	-47.9	19.0	0.00e+00	0	43	0	1173356544	64	4256
2026-01-26 11:35:33.14	328.95	12.07	-46.5	-48.1	18.8	0.00e+00	0	43	0	1175453696	63	4648
2026-01-26 11:35:34.15	329.06	11.99	-46.5	-48.1	18.8	0.00e+00	0	43	0	1177550848	63	4633
2026-01-26 11:35:35.15	329.17	11.91	-46.6	-48.2	18.7	0.00e+00	0	43	0	1179648000	63	4687
2026-01-26 11:35:36.15	329.27	11.83	-46.6	-48.3	18.5	0.00e+00	0	43	0	1181745152	64	4486
2026-01-26 11:35:37.16	329.38	11.75	-46.6	-48.3	18.5	0.00e+00	0	43	0	1182793728	64	4471
2026-01-26 11:35:38.17	329.48	11.68	-46.8	-48.6	18.2	0.00e+00	0	43	0	1184890880	64	4613
2026-01-26 11:35:39.17	329.59	11.60	-46.8	-48.5	18.3	0.00e+00	0	43	0	1186988032	64	4594
2026-01-26 11:35:40.18	329.69	11.52	-46.7	-48.4	18.4	0.00e+00	0	43	0	1189085184	64	4506
2026-01-26 11:35:41.19	329.80	11.44	-46.7	-48.3	18.5	0.00e+00	0	43	0	1191182336	64	4490
2026-01-26 11:35:42.20	329.90	11.37	-46.6	-48.2	18.6	0.00e+00	0	43	0	1192230912	64	4438
2026-01-26 11:35:43.20	330.00	11.29	-46.4	-48.0	18.7	0.00e+00	0	43	0	1194328064	64	4329
2026-01-26 11:35:44.21	330.10	11.21	-46.4	-48.0	18.8	0.00e+00	0	43	0	1196425216	64	4296
2026-01-26 11:35:45.22	330.20	11.14	-46.3	-47.9	18.9	0.00e+00	0	43	0	1198522368	63	4522
2026-01-26 11:35:46.23	330.31	11.06	-46.2	-47.7	19.2	0.00e+00	0	43	0	1200619520	63	4423
2026-01-26 11:35:47.24	330.41	10.98	-46.1	-47.7	19.2	0.00e+00	0	43	0	1201668096	63	4400
2026-01-26 11:35:48.24	330.51	10.91	-46.0	-47.6	19.2	0.00e+00	0	43	0	1203765248	62	4599
2026-01-26 11:35:49.25	330.61	10.83	-46.1	-47.6	19.2	0.00e+00	0	43	0	1205862400	62	4600
2026-01-26 11:35:50.26	330.71	10.75	-45.8	-47.3	19.5	0.00e+00	0	43	0	1207959552	62	4464
2026-01-26 11:35:51.27	330.80	10.68	-45.8	-47.2	19.6	0.00e+00	0	43	0	1210056704	62	4428
2026-01-26 11:35:52.28	330.90	10.60	-45.9	-47.4	19.5	0.00e+00	0	43	0	1211105280	62	4495
2026-01-26 11:35:53.29	331.00	10.53	-45.9	-47.4	19.4	0.00e+00	0	43	0	1213202432	62	4514
2026-01-26 11:35:54.29	331.10	10.45	-46.0	-47.5	19.3	0.00e+00	0	43	0	1215299584	62	4578
2026-01-26 11:35:55.30	331.19	10.38	-46.1	-47.6	18.8	0.00e+00	0	43	0	1217396736	62	4610
2026-01-26 11:35:56.31	331.29	10.30	-46.1	-47.6	19.2	0.00e+00	0	43	0	1219493888	62	4634
