passes_logs/2026/01/26/R3.2S_Murmansk/R3.2S_Murmansk__20260126_213428_JL1KF02B03_rec.log

#Pass ID: 20260126_213428_JL1KF02B03
#Satellite: JL1KF02B03
#Configuration: 01B_900M
#almurnet v.1.7.20251203
#Start time: 2026-01-26 21:34:28

#Version: 2.2.20231116
#Station: R3.2S_Murmansk
#Location: 33.079688 lon 68.888172 lat
#TLE: 1 61190U 24169B   26026.49211616  .00007179  00000+0  44995-3 0  9992
#TLE: 2 61190  97.5615 117.4604 0015035 143.4613 216.7645 15.09556816 74458

#Time	Az	El	Level	Level2	SNR	BER	BlckErr	Temp	State	Recorded	gain1	gain2
2026-01-26 21:34:28.75	205.91	2.03	-55.4	-57.4	6.2	0.00e+00	0	44	0	0	81	19253
2026-01-26 21:34:29.72	205.99	2.09	-55.4	-57.5	6.2	0.00e+00	0	43	104	0	82	18216
2026-01-26 21:34:30.69	206.07	2.15	-55.3	-57.5	6.2	0.00e+00	0	43	104	0	82	18195
2026-01-26 21:34:31.66	206.15	2.21	-55.4	-57.5	6.2	0.00e+00	0	44	104	0	82	18232
2026-01-26 21:34:32.63	206.23	2.27	-55.4	-57.4	6.2	0.00e+00	0	44	104	0	82	18084
2026-01-26 21:34:33.60	206.31	2.33	-55.3	-57.4	6.2	0.00e+00	0	44	104	0	82	18151
2026-01-26 21:34:34.57	206.40	2.39	-55.4	-57.5	6.2	0.00e+00	0	44	104	0	82	18304
2026-01-26 21:34:35.54	206.48	2.45	-55.5	-57.6	6.2	0.00e+00	0	44	104	0	82	18440
2026-01-26 21:34:36.51	206.56	2.51	-55.5	-57.6	6.2	0.00e+00	0	44	104	0	82	18555
2026-01-26 21:34:37.49	206.65	2.57	-55.6	-57.7	6.2	0.00e+00	0	44	104	0	82	18637
2026-01-26 21:34:38.46	206.73	2.63	-55.6	-57.6	6.2	0.00e+00	0	44	104	0	82	18580
2026-01-26 21:34:39.43	206.82	2.69	-55.6	-57.6	6.2	0.00e+00	0	44	104	0	82	18590
2026-01-26 21:34:40.40	206.90	2.75	-55.5	-57.6	6.2	0.00e+00	0	44	104	0	82	18535
2026-01-26 21:34:41.37	206.99	2.81	-55.5	-57.6	6.2	0.00e+00	0	44	104	0	82	18474
2026-01-26 21:34:42.34	207.07	2.87	-55.5	-57.6	6.2	0.00e+00	0	44	104	0	82	18454
2026-01-26 21:34:43.31	207.16	2.93	-55.5	-57.6	6.2	0.00e+00	0	44	104	0	82	18423
2026-01-26 21:34:44.28	207.24	3.00	-55.4	-57.5	6.2	0.00e+00	0	44	104	0	82	18303
2026-01-26 21:34:45.26	207.33	3.06	-55.4	-57.5	6.2	0.00e+00	0	44	104	0	82	18229
2026-01-26 21:34:46.23	207.42	3.12	-55.3	-57.4	6.2	0.00e+00	0	44	104	0	82	18172
2026-01-26 21:34:47.20	207.51	3.18	-55.3	-57.4	6.2	0.00e+00	0	44	104	0	82	18060
2026-01-26 21:34:48.17	207.60	3.24	-55.2	-57.3	6.2	0.00e+00	0	44	104	0	82	17887
2026-01-26 21:34:49.14	207.69	3.31	-55.2	-57.3	6.2	0.00e+00	0	44	104	0	82	17769
2026-01-26 21:34:50.11	207.77	3.37	-55.1	-57.2	6.2	0.00e+00	0	44	104	0	82	17682
2026-01-26 21:34:51.08	207.86	3.43	-55.1	-57.2	6.2	0.00e+00	0	44	104	0	82	17569
2026-01-26 21:34:52.06	207.96	3.49	-55.0	-57.0	6.2	0.00e+00	0	44	104	0	82	17361
2026-01-26 21:34:53.03	208.05	3.55	-54.9	-57.0	6.2	0.00e+00	0	44	104	0	81	18215
2026-01-26 21:34:54.00	208.14	3.62	-54.8	-56.9	6.2	0.00e+00	0	44	104	0	81	18027
2026-01-26 21:34:54.97	208.23	3.68	-54.7	-56.7	6.2	0.00e+00	0	44	104	0	81	17737
2026-01-26 21:34:55.94	208.32	3.74	-54.5	-56.6	6.2	0.00e+00	0	44	104	0	81	17439
2026-01-26 21:34:56.91	208.41	3.81	-54.1	-56.2	6.2	0.00e+00	0	44	104	0	80	17636
2026-01-26 21:34:57.89	208.51	3.87	-54.0	-56.1	6.2	0.00e+00	0	45	104	0	79	18495
2026-01-26 21:34:58.85	208.60	3.93	-54.0	-56.1	6.2	0.00e+00	0	44	104	0	79	18456
2026-01-26 21:34:59.82	208.69	4.00	-54.0	-56.0	6.2	0.00e+00	0	45	104	0	79	18375
2026-01-26 21:35:00.80	208.79	4.06	-54.0	-56.1	6.2	0.00e+00	0	45	104	0	79	18423
2026-01-26 21:35:01.77	208.88	4.12	-54.0	-56.1	6.2	0.00e+00	0	45	104	0	79	18399
2026-01-26 21:35:02.74	208.98	4.19	-54.0	-56.1	6.2	0.00e+00	0	45	104	0	79	18402
2026-01-26 21:35:03.71	209.08	4.25	-53.9	-56.1	6.2	0.00e+00	0	45	104	0	79	18403
2026-01-26 21:35:04.68	209.17	4.32	-53.9	-56.1	6.2	0.00e+00	0	45	104	0	79	18427
2026-01-26 21:35:05.64	209.27	4.38	-53.9	-56.1	6.2	0.00e+00	0	45	104	0	79	18409
2026-01-26 21:35:06.61	209.36	4.44	-53.9	-56.0	6.2	0.00e+00	0	45	104	0	79	18363
2026-01-26 21:35:07.59	209.46	4.51	-53.9	-56.0	6.2	0.00e+00	0	45	104	0	79	18269
2026-01-26 21:35:08.56	209.56	4.57	-53.9	-56.0	6.2	0.00e+00	0	45	104	0	79	18300
2026-01-26 21:35:09.53	209.66	4.64	-53.9	-56.0	6.2	0.00e+00	0	45	104	0	79	18357
2026-01-26 21:35:10.50	209.76	4.70	-53.9	-56.0	6.2	0.00e+00	0	45	104	0	79	18326
2026-01-26 21:35:11.48	209.86	4.77	-53.9	-56.0	6.2	0.00e+00	0	45	104	0	79	18331
2026-01-26 21:35:12.45	209.96	4.83	-53.9	-56.0	6.2	0.00e+00	0	45	104	0	79	18368
2026-01-26 21:35:13.42	210.06	4.90	-53.9	-56.0	6.2	0.00e+00	0	45	104	0	79	18300
2026-01-26 21:35:14.39	210.16	4.97	-53.9	-56.0	6.2	0.00e+00	0	45	104	0	79	18355
2026-01-26 21:35:15.36	210.27	5.03	-54.0	-56.1	6.2	0.00e+00	0	45	104	0	79	18429
2026-01-26 21:35:16.33	210.37	5.10	-54.1	-56.2	6.2	0.00e+00	0	45	104	0	79	18639
2026-01-26 21:35:17.30	210.47	5.16	-53.9	-56.0	6.2	0.00e+00	0	45	104	0	79	18273
2026-01-26 21:35:18.28	210.58	5.23	-54.0	-56.1	6.2	0.00e+00	0	45	104	0	79	18442
2026-01-26 21:35:19.25	210.68	5.30	-53.9	-56.0	6.2	0.00e+00	0	45	104	0	79	18320
2026-01-26 21:35:20.22	210.79	5.36	-53.8	-56.0	6.2	0.00e+00	0	45	104	0	79	18199
2026-01-26 21:35:21.19	210.89	5.43	-53.8	-55.9	6.2	0.00e+00	0	45	104	0	79	18082
2026-01-26 21:35:22.17	211.00	5.50	-54.0	-56.1	6.2	0.00e+00	0	45	104	0	79	18441
2026-01-26 21:35:23.14	211.11	5.56	-53.9	-56.0	6.2	0.00e+00	0	45	104	0	79	18302
2026-01-26 21:35:24.11	211.21	5.63	-53.8	-55.9	6.2	0.00e+00	0	45	104	0	79	18081
2026-01-26 21:35:25.08	211.32	5.70	-53.8	-55.9	6.2	0.00e+00	0	45	104	0	79	18043
2026-01-26 21:35:26.06	211.43	5.76	-54.0	-56.1	6.2	0.00e+00	0	45	104	0	79	18432
2026-01-26 21:35:27.04	211.54	5.83	-53.9	-56.0	6.2	0.00e+00	0	45	104	0	79	18289
2026-01-26 21:35:28.02	211.65	5.90	-53.8	-55.9	6.2	0.00e+00	0	45	104	0	79	18144
2026-01-26 21:35:28.99	211.76	5.97	-53.8	-55.9	6.2	0.00e+00	0	45	104	0	79	18051
2026-01-26 21:35:29.96	211.87	6.04	-54.0	-56.1	6.2	0.00e+00	0	45	104	0	79	18430
2026-01-26 21:35:30.93	211.98	6.10	-53.9	-56.0	6.2	0.00e+00	0	45	104	0	79	18294
2026-01-26 21:35:31.90	212.10	6.17	-53.8	-56.0	6.2	0.00e+00	0	45	104	0	79	18216
2026-01-26 21:35:32.88	212.21	6.24	-53.8	-55.9	6.2	0.00e+00	0	45	104	0	79	18092
2026-01-26 21:35:33.85	212.32	6.31	-53.9	-56.0	6.2	0.00e+00	0	45	104	0	79	18384
2026-01-26 21:35:34.82	212.44	6.38	-53.9	-56.0	6.2	0.00e+00	0	45	104	0	79	18352
2026-01-26 21:35:35.79	212.55	6.45	-53.9	-55.9	6.2	0.00e+00	0	45	104	0	79	18168
2026-01-26 21:35:36.76	212.67	6.52	-53.8	-55.9	6.2	0.00e+00	0	45	104	0	79	18114
2026-01-26 21:35:37.74	212.78	6.59	-53.9	-56.0	6.2	0.00e+00	0	45	104	0	79	18229
2026-01-26 21:35:38.71	212.90	6.66	-53.9	-56.0	6.2	0.00e+00	0	45	104	0	79	18373
2026-01-26 21:35:39.68	213.02	6.73	-53.9	-56.0	6.2	0.00e+00	0	45	104	0	79	18222
2026-01-26 21:35:40.66	213.14	6.80	-53.8	-55.9	6.2	0.00e+00	0	45	104	0	79	18122
2026-01-26 21:35:41.63	213.25	6.87	-53.9	-56.0	6.2	0.00e+00	0	45	104	0	79	18258
2026-01-26 21:35:42.60	213.37	6.94	-53.9	-56.1	6.2	0.00e+00	0	45	104	0	79	18419
2026-01-26 21:35:43.57	213.49	7.01	-53.9	-56.0	6.2	0.00e+00	0	45	104	0	79	18259
2026-01-26 21:35:44.54	213.61	7.08	-53.8	-55.9	6.2	0.00e+00	0	45	104	0	79	18150
2026-01-26 21:35:45.51	213.73	7.15	-53.9	-56.0	6.2	0.00e+00	0	45	104	0	79	18214
2026-01-26 21:35:46.48	213.86	7.22	-54.0	-56.1	6.2	0.00e+00	0	45	104	0	79	18438
2026-01-26 21:35:47.45	213.98	7.29	-53.9	-56.0	6.2	0.00e+00	0	45	104	0	79	18357
2026-01-26 21:35:48.42	214.10	7.36	-53.9	-55.9	6.2	0.00e+00	0	45	104	0	79	18140
2026-01-26 21:35:49.40	214.23	7.43	-53.9	-56.0	6.2	0.00e+00	0	45	104	0	79	18181
2026-01-26 21:35:50.37	214.35	7.50	-54.0	-56.1	6.2	0.00e+00	0	45	104	0	79	18400
2026-01-26 21:35:51.34	214.48	7.57	-53.9	-56.1	6.2	0.00e+00	0	45	104	0	79	18433
2026-01-26 21:35:52.32	214.60	7.64	-53.9	-56.0	6.2	0.00e+00	0	45	104	0	79	18253
2026-01-26 21:35:53.29	214.73	7.72	-53.9	-56.0	6.2	0.00e+00	0	46	104	0	79	18205
2026-01-26 21:35:54.25	214.86	7.79	-54.0	-56.1	6.2	0.00e+00	0	46	104	0	79	18499
2026-01-26 21:35:55.22	214.99	7.86	-54.0	-56.0	6.2	0.00e+00	0	46	104	0	79	18375
2026-01-26 21:35:56.20	215.12	7.93	-53.9	-56.0	6.2	0.00e+00	0	45	104	0	79	18317
2026-01-26 21:35:57.17	215.25	8.00	-53.9	-56.0	6.2	0.00e+00	0	45	104	0	79	18257
2026-01-26 21:35:58.14	215.38	8.08	-54.0	-56.1	6.2	0.00e+00	0	45	104	0	79	18491
2026-01-26 21:35:59.11	215.51	8.15	-54.0	-56.1	6.2	0.00e+00	0	46	104	0	79	18426
2026-01-26 21:36:00.09	215.64	8.22	-53.9	-56.0	6.2	0.00e+00	0	45	104	0	79	18283
2026-01-26 21:36:01.06	215.77	8.30	-53.9	-56.0	6.2	0.00e+00	0	46	104	0	79	18248
2026-01-26 21:36:02.03	215.91	8.37	-54.0	-56.1	6.2	0.00e+00	0	45	104	0	79	18507
2026-01-26 21:36:03.00	216.04	8.44	-54.0	-56.1	6.2	0.00e+00	0	46	104	0	79	18464
2026-01-26 21:36:03.98	216.18	8.52	-53.9	-56.0	6.2	0.00e+00	0	46	104	0	79	18324
2026-01-26 21:36:04.95	216.31	8.59	-53.9	-56.0	6.2	0.00e+00	0	46	104	0	79	18248
2026-01-26 21:36:05.92	216.45	8.66	-54.0	-56.1	6.2	0.00e+00	0	46	104	0	79	18481
2026-01-26 21:36:06.90	216.59	8.74	-54.0	-56.1	6.2	0.00e+00	0	46	104	0	79	18460
2026-01-26 21:36:07.87	216.73	8.81	-53.9	-56.0	6.2	0.00e+00	0	46	104	0	79	18360
2026-01-26 21:36:08.84	216.87	8.89	-53.9	-56.0	6.2	0.00e+00	0	46	104	0	79	18313
2026-01-26 21:36:09.81	217.01	8.96	-54.0	-56.1	6.2	0.00e+00	0	45	104	0	79	18429
2026-01-26 21:36:10.79	217.15	9.04	-54.0	-56.1	6.2	0.00e+00	0	45	104	0	79	18494
2026-01-26 21:36:11.76	217.29	9.11	-53.9	-56.0	6.2	0.00e+00	0	46	104	0	79	18370
2026-01-26 21:36:12.73	217.44	9.18	-53.9	-56.0	6.2	0.00e+00	0	45	104	0	79	18290
2026-01-26 21:36:13.71	217.58	9.26	-54.0	-56.1	6.2	0.00e+00	0	46	104	0	79	18457
2026-01-26 21:36:14.68	217.72	9.34	-44.6	-48.1	6.1	0.00e+00	0	46	104	0	59	23368
2026-01-26 21:36:15.65	217.87	9.41	-34.0	-33.7	17.2	1.90e-06	0	46	0	8388608	40	13198
2026-01-26 21:36:16.62	218.02	9.49	-34.3	-34.0	15.3	1.35e-04	0	46	0	109051904	40	13667
2026-01-26 21:36:17.59	218.16	9.56	-34.0	-33.8	15.4	9.34e-05	0	46	0	226492416	40	13326
2026-01-26 21:36:18.57	218.31	9.64	-33.9	-33.6	15.5	6.86e-05	0	46	0	335544320	39	13950
2026-01-26 21:36:19.54	218.46	9.71	-33.8	-33.5	15.5	7.05e-05	0	46	0	436207616	39	13782
2026-01-26 21:36:20.51	218.61	9.79	-33.8	-33.6	15.5	7.82e-05	0	46	0	553648128	39	13852
2026-01-26 21:36:21.49	218.76	9.87	-33.7	-33.5	15.5	6.10e-05	0	46	0	662700032	39	13771
2026-01-26 21:36:22.46	218.91	9.94	-33.7	-33.5	15.5	8.01e-05	0	46	0	780140544	39	13760
2026-01-26 21:36:23.43	219.07	10.02	-33.9	-33.7	15.5	7.82e-05	0	46	0	880803840	39	14009
2026-01-26 21:36:24.40	219.22	10.10	-33.7	-33.5	15.5	5.53e-05	0	46	0	989855744	39	13668
2026-01-26 21:36:25.38	219.38	10.17	-33.7	-33.5	15.6	4.38e-05	0	46	0	1098907648	39	13702
2026-01-26 21:36:26.35	219.53	10.25	-33.7	-33.5	15.6	7.05e-05	0	46	0	1216348160	39	13673
2026-01-26 21:36:27.32	219.69	10.33	-33.6	-33.4	15.6	7.43e-05	0	46	0	1317011456	39	13594
2026-01-26 21:36:28.29	219.85	10.40	-33.6	-33.4	15.5	6.86e-05	0	46	0	1426063360	39	13623
2026-01-26 21:36:29.27	220.00	10.48	-33.7	-33.5	15.6	6.29e-05	0	46	0	1543503872	39	13657
2026-01-26 21:36:30.24	220.16	10.56	-33.6	-33.4	15.5	4.38e-05	0	46	0	1644167168	39	13524
2026-01-26 21:36:31.21	220.32	10.64	-33.6	-33.4	15.5	4.19e-05	0	46	0	1753219072	39	13617
2026-01-26 21:36:32.18	220.49	10.71	-33.5	-33.3	15.6	5.91e-05	0	46	0	1870659584	39	13391
2026-01-26 21:36:33.15	220.65	10.79	-33.5	-33.3	15.6	4.00e-05	0	46	0	1979711488	38	14236
2026-01-26 21:36:34.13	220.81	10.87	-33.5	-33.3	15.6	5.14e-05	0	46	0	2080374784	38	14230
2026-01-26 21:36:35.10	220.98	10.95	-33.6	-33.4	15.6	5.53e-05	0	46	0	2197815296	38	14343
2026-01-26 21:36:36.06	221.14	11.03	-33.6	-33.4	15.6	6.48e-05	0	46	0	2306867200	38	14413
2026-01-26 21:36:37.03	221.31	11.11	-33.4	-33.2	15.6	4.95e-05	0	46	0	2407530496	38	14105
2026-01-26 21:36:38.01	221.47	11.18	-33.5	-33.3	15.6	4.57e-05	0	46	0	2516582400	38	14228
2026-01-26 21:36:38.98	221.64	11.26	-33.4	-33.2	15.6	5.53e-05	0	46	0	2634022912	38	14100
2026-01-26 21:36:39.95	221.81	11.34	-33.4	-33.2	15.7	5.53e-05	0	46	0	2743074816	38	14108
2026-01-26 21:36:40.92	221.98	11.42	-33.4	-33.2	15.7	4.38e-05	0	46	0	2843738112	38	14026
2026-01-26 21:36:41.90	222.16	11.50	-33.4	-33.2	15.7	6.67e-05	0	46	0	2961178624	38	14040
2026-01-26 21:36:42.87	222.33	11.58	-33.3	-33.1	15.7	4.19e-05	0	46	0	3070230528	38	13840
2026-01-26 21:36:43.84	222.50	11.66	-33.2	-33.0	15.7	5.53e-05	0	46	0	3170893824	38	13743
2026-01-26 21:36:44.81	222.68	11.74	-33.3	-33.1	15.7	4.76e-05	0	46	0	3288334336	38	13814
2026-01-26 21:36:45.79	222.85	11.82	-33.3	-33.0	15.7	3.81e-05	0	46	0	3397386240	38	13777
2026-01-26 21:36:46.76	223.03	11.90	-33.1	-32.9	15.7	2.67e-05	0	46	0	3506438144	38	13573
2026-01-26 21:36:47.73	223.21	11.98	-33.2	-33.0	15.7	4.19e-05	0	46	0	3615490048	38	13706
2026-01-26 21:36:48.70	223.39	12.06	-33.3	-33.1	15.6	4.00e-05	0	46	0	3724541952	38	13906
2026-01-26 21:36:49.68	223.57	12.14	-33.1	-32.9	15.7	3.62e-05	0	46	0	3833593856	38	13515
2026-01-26 21:36:50.65	223.75	12.22	-33.1	-32.8	15.7	3.43e-05	0	46	0	3951034368	38	13473
2026-01-26 21:36:51.62	223.93	12.30	-33.1	-32.9	15.7	2.86e-05	0	46	0	4051697664	38	13508
2026-01-26 21:36:52.59	224.12	12.38	-32.9	-32.7	15.8	3.24e-05	0	46	0	4160749568	37	14048
2026-01-26 21:36:53.56	224.30	12.46	-32.9	-32.7	15.7	4.00e-05	0	46	0	4278190080	37	14103
2026-01-26 21:36:54.53	224.49	12.54	-33.0	-32.8	15.7	3.81e-05	0	46	0	4378853376	37	14147
2026-01-26 21:36:55.50	224.67	12.62	-33.0	-32.8	15.7	3.81e-05	0	46	0	4487905280	37	14185
2026-01-26 21:36:56.47	224.86	12.70	-32.8	-32.6	15.7	3.24e-05	0	47	0	4605345792	37	13908
2026-01-26 21:36:57.45	225.05	12.78	-32.8	-32.5	15.8	2.28e-05	0	46	0	4714397696	37	13788
2026-01-26 21:36:58.42	225.25	12.86	-32.8	-32.6	15.8	2.86e-05	0	46	0	4815060992	37	13930
2026-01-26 21:36:59.39	225.44	12.95	-32.8	-32.6	15.8	2.86e-05	0	46	0	4924112896	37	13828
2026-01-26 21:37:00.36	225.63	13.03	-32.8	-32.6	15.8	2.67e-05	0	47	0	5041553408	37	13888
2026-01-26 21:37:01.33	225.82	13.11	-32.8	-32.6	15.8	2.67e-05	0	46	0	5142216704	37	13867
2026-01-26 21:37:02.30	226.02	13.19	-32.7	-32.5	15.8	1.52e-05	0	47	0	5251268608	37	13756
2026-01-26 21:37:03.27	226.22	13.27	-32.7	-32.5	15.8	1.71e-05	0	46	0	5368709120	37	13647
2026-01-26 21:37:04.24	226.41	13.35	-32.8	-32.5	15.8	3.24e-05	0	47	0	5469372416	37	13781
2026-01-26 21:37:05.21	226.61	13.43	-32.7	-32.5	15.8	3.43e-05	0	47	0	5578424320	37	13752
2026-01-26 21:37:06.18	226.81	13.51	-32.7	-32.5	15.8	2.09e-05	0	46	0	5695864832	37	13658
2026-01-26 21:37:07.15	227.02	13.60	-32.7	-32.5	15.8	3.24e-05	0	47	0	5804916736	37	13725
2026-01-26 21:37:08.12	227.22	13.68	-32.7	-32.5	15.7	2.09e-05	0	46	0	5905580032	37	13690
2026-01-26 21:37:09.09	227.42	13.76	-32.8	-32.6	15.7	3.43e-05	0	47	0	6023020544	37	13826
2026-01-26 21:37:10.06	227.63	13.84	-32.7	-32.5	15.8	3.05e-05	0	46	0	6132072448	37	13751
2026-01-26 21:37:11.03	227.84	13.92	-32.7	-32.5	15.8	2.86e-05	0	46	0	6232735744	37	13745
2026-01-26 21:37:12.01	228.05	14.00	-32.5	-32.3	15.8	3.43e-05	0	46	0	6341787648	37	13450
2026-01-26 21:37:12.98	228.26	14.09	-32.4	-32.2	15.8	2.67e-05	0	46	0	6459228160	36	14093
2026-01-26 21:37:13.95	228.47	14.17	-32.6	-32.4	15.8	2.28e-05	0	46	0	6568280064	36	14296
2026-01-26 21:37:14.92	228.68	14.25	-32.6	-32.3	15.8	2.09e-05	0	46	0	6668943360	36	14256
2026-01-26 21:37:15.89	228.89	14.33	-32.4	-32.2	15.9	1.14e-05	0	46	0	6786383872	36	14093
2026-01-26 21:37:16.86	229.11	14.41	-32.5	-32.3	15.8	2.47e-05	0	47	0	6895435776	36	14116
2026-01-26 21:37:17.84	229.33	14.50	-32.4	-32.2	15.8	2.47e-05	0	46	0	6996099072	36	14035
2026-01-26 21:37:18.80	229.54	14.58	-32.4	-32.2	15.8	1.52e-05	0	46	0	7113539584	36	14100
2026-01-26 21:37:19.77	229.76	14.66	-32.3	-32.1	15.9	1.14e-05	0	47	0	7222591488	36	13904
2026-01-26 21:37:20.75	229.98	14.74	-32.4	-32.2	15.9	1.52e-05	0	47	0	7331643392	36	14070
2026-01-26 21:37:21.72	230.20	14.82	-32.4	-32.2	15.9	3.05e-05	0	46	0	7440695296	36	13990
2026-01-26 21:37:22.70	230.43	14.91	-32.2	-32.0	15.9	1.71e-05	0	46	0	7549747200	36	13715
2026-01-26 21:37:23.67	230.65	14.99	-32.4	-32.2	15.9	2.28e-05	0	47	0	7658799104	36	13992
2026-01-26 21:37:24.64	230.88	15.07	-32.3	-32.1	15.9	3.81e-05	0	47	0	7759462400	36	13799
2026-01-26 21:37:25.62	231.11	15.15	-32.3	-32.1	15.9	1.90e-05	0	46	0	7876902912	36	13811
2026-01-26 21:37:26.59	231.34	15.23	-32.3	-32.1	15.9	1.71e-05	0	47	0	7985954816	36	13816
2026-01-26 21:37:27.56	231.57	15.32	-32.2	-32.0	15.9	2.47e-05	0	47	0	8103395328	36	13749
2026-01-26 21:37:28.53	231.80	15.40	-32.1	-31.9	16.0	1.52e-05	0	47	0	8204058624	36	13582
2026-01-26 21:37:29.50	232.03	15.48	-32.1	-31.9	15.9	2.09e-05	0	47	0	8313110528	36	13527
2026-01-26 21:37:30.47	232.27	15.56	-32.1	-31.9	15.9	1.71e-05	0	47	0	8430551040	36	13619
2026-01-26 21:37:31.45	232.51	15.64	-32.1	-31.9	15.9	1.14e-05	0	47	0	8539602944	36	13512
2026-01-26 21:37:32.42	232.74	15.73	-32.1	-31.9	16.0	1.71e-05	0	46	0	8640266240	36	13598
2026-01-26 21:37:33.40	232.99	15.81	-32.1	-31.9	15.9	1.33e-05	0	47	0	8749318144	36	13555
2026-01-26 21:37:34.37	233.23	15.89	-32.1	-31.8	15.9	2.47e-05	0	47	0	8866758656	36	13451
2026-01-26 21:37:35.35	233.47	15.97	-29.6	-29.4	15.6	4.76e-05	0	47	0	8975810560	31	13606
2026-01-26 21:37:36.32	233.71	16.05	-29.6	-29.4	15.5	4.95e-05	0	47	0	9076473856	31	13619
2026-01-26 21:37:37.29	233.96	16.13	-29.6	-29.4	15.5	4.76e-05	0	47	0	9193914368	31	13585
2026-01-26 21:37:38.27	234.21	16.21	-29.6	-29.4	15.5	7.43e-05	0	47	0	9302966272	31	13580
2026-01-26 21:37:39.24	234.46	16.30	-29.5	-29.3	15.6	5.72e-05	0	47	0	9403629568	31	13448
2026-01-26 21:37:40.21	234.70	16.38	-29.6	-29.4	15.6	4.00e-05	0	47	0	9521070080	31	13529
2026-01-26 21:37:41.18	234.96	16.46	-29.5	-29.3	15.6	3.24e-05	0	47	0	9630121984	31	13413
2026-01-26 21:37:42.16	235.21	16.54	-29.4	-29.2	15.6	5.53e-05	0	47	0	9739173888	30	14062
2026-01-26 21:37:43.13	235.46	16.62	-29.4	-29.2	15.6	6.48e-05	0	47	0	9848225792	30	14007
2026-01-26 21:37:44.10	235.72	16.70	-29.4	-29.3	15.6	5.34e-05	0	47	0	9957277696	30	14113
2026-01-26 21:37:45.07	235.98	16.78	-29.4	-29.2	15.6	5.14e-05	0	47	0	10066329600	30	13977
2026-01-26 21:37:46.04	236.24	16.86	-29.5	-29.3	15.5	7.43e-05	0	47	0	10166992896	30	14153
2026-01-26 21:37:47.01	236.50	16.94	-29.3	-29.1	15.6	2.67e-05	0	47	0	10284433408	30	13870
2026-01-26 21:37:47.98	236.76	17.02	-29.4	-29.2	15.6	2.67e-05	0	47	0	10393485312	30	13997
2026-01-26 21:37:48.96	237.02	17.10	-29.3	-29.1	15.5	5.14e-05	0	47	0	10510925824	30	13928
2026-01-26 21:37:49.93	237.29	17.18	-29.4	-29.2	15.6	4.38e-05	0	46	0	10611589120	30	13984
2026-01-26 21:37:50.90	237.55	17.25	-29.4	-29.2	15.6	3.81e-05	0	47	0	10720641024	30	13956
2026-01-26 21:37:51.87	237.82	17.33	-29.3	-29.1	15.6	4.57e-05	0	47	0	10838081536	30	13939
2026-01-26 21:37:52.85	238.09	17.41	-29.3	-29.1	15.7	3.43e-05	0	47	0	10947133440	30	13839
2026-01-26 21:37:53.82	238.37	17.49	-29.2	-29.0	15.6	4.76e-05	0	47	0	11047796736	30	13681
2026-01-26 21:37:54.79	238.64	17.57	-29.3	-29.1	15.6	5.91e-05	0	47	0	11156848640	30	13799
2026-01-26 21:37:55.76	238.91	17.64	-29.2	-29.0	15.7	4.95e-05	0	47	0	11274289152	30	13765
2026-01-26 21:37:56.73	239.19	17.72	-29.3	-29.1	15.6	5.72e-05	0	47	0	11374952448	30	13821
2026-01-26 21:37:57.70	239.47	17.80	-29.3	-29.1	15.5	5.14e-05	0	47	0	11484004352	30	13936
2026-01-26 21:37:58.68	239.75	17.88	-29.4	-29.2	15.4	6.67e-05	0	47	0	11601444864	30	13973
2026-01-26 21:37:59.65	240.03	17.95	-29.3	-29.1	15.5	4.76e-05	0	47	0	11710496768	30	13813
2026-01-26 21:38:00.62	240.31	18.03	-29.4	-29.2	15.4	8.58e-05	0	47	0	11811160064	30	14078
2026-01-26 21:38:01.58	240.59	18.10	-29.2	-29.0	15.5	4.95e-05	0	47	0	11928600576	30	13744
2026-01-26 21:38:02.55	240.88	18.18	-29.2	-29.0	15.6	5.72e-05	0	47	0	12037652480	30	13727
2026-01-26 21:38:03.52	241.16	18.25	-29.4	-29.2	15.6	4.76e-05	0	47	0	12138315776	30	13978
2026-01-26 21:38:04.49	241.45	18.33	-29.3	-29.1	15.5	6.86e-05	0	47	0	12255756288	30	13901
2026-01-26 21:38:05.47	241.74	18.40	-29.3	-29.1	15.5	4.76e-05	0	47	0	12364808192	30	13814
2026-01-26 21:38:06.43	242.03	18.48	-29.1	-28.9	15.6	4.19e-05	0	47	0	12465471488	30	13595
2026-01-26 21:38:07.40	242.33	18.55	-28.9	-28.7	15.7	3.81e-05	0	47	0	12574523392	29	14073
2026-01-26 21:38:08.38	242.62	18.62	-29.0	-28.8	15.7	4.00e-05	0	47	0	12691963904	29	14207
2026-01-26 21:38:09.35	242.92	18.70	-29.1	-28.9	15.5	5.91e-05	0	47	0	12801015808	29	14345
2026-01-26 21:38:10.32	243.22	18.77	-28.9	-28.7	15.7	3.62e-05	0	47	0	12901679104	29	14077
2026-01-26 21:38:11.29	243.52	18.84	-28.9	-28.7	15.7	3.81e-05	0	47	0	13019119616	29	14083
2026-01-26 21:38:12.25	243.81	18.91	-28.9	-28.7	15.7	3.24e-05	0	47	0	13128171520	29	14017
2026-01-26 21:38:13.22	244.12	18.98	-29.0	-28.8	15.8	1.71e-05	0	47	0	13228834816	29	14165
2026-01-26 21:38:14.19	244.42	19.05	-28.9	-28.8	15.7	3.05e-05	0	47	0	13346275328	29	14124
2026-01-26 21:38:15.16	244.73	19.12	-28.9	-28.7	15.7	3.24e-05	0	47	0	13455327232	29	14085
2026-01-26 21:38:16.13	245.03	19.19	-28.9	-28.7	15.6	3.62e-05	0	47	0	13555990528	29	14014
2026-01-26 21:38:17.10	245.34	19.26	-28.9	-28.7	15.6	3.81e-05	0	47	0	13665042432	29	13971
2026-01-26 21:38:18.07	245.65	19.33	-28.8	-28.5	15.7	3.81e-05	0	47	0	13782482944	29	13787
2026-01-26 21:38:19.04	245.97	19.40	-28.9	-28.7	15.7	2.86e-05	0	47	0	13883146240	29	13953
2026-01-26 21:38:20.02	246.28	19.47	-28.7	-28.5	15.7	3.43e-05	0	47	0	13992198144	29	13766
2026-01-26 21:38:20.99	246.60	19.53	-28.8	-28.5	15.8	4.19e-05	0	47	0	14109638656	29	13783
2026-01-26 21:38:21.96	246.91	19.60	-28.8	-28.6	15.8	1.90e-05	0	47	0	14218690560	29	13888
2026-01-26 21:38:22.93	247.23	19.66	-28.8	-28.6	15.8	1.90e-05	0	47	0	14319353856	29	13796
2026-01-26 21:38:23.90	247.55	19.73	-28.7	-28.5	15.8	1.52e-05	0	47	0	14436794368	29	13711
2026-01-26 21:38:24.87	247.87	19.79	-28.8	-28.6	15.7	4.57e-05	0	47	0	14545846272	29	13924
2026-01-26 21:38:25.84	248.19	19.86	-28.6	-28.4	15.8	2.28e-05	0	47	0	14646509568	29	13629
2026-01-26 21:38:26.81	248.52	19.92	-28.8	-28.6	15.7	4.76e-05	0	47	0	14763950080	29	13855
2026-01-26 21:38:27.78	248.84	19.98	-28.8	-28.6	15.7	4.00e-05	0	47	0	14873001984	29	13884
2026-01-26 21:38:28.75	249.17	20.05	-28.6	-28.4	15.8	1.90e-05	0	47	0	14982053888	29	13577
2026-01-26 21:38:29.72	249.50	20.11	-28.6	-28.4	15.8	1.33e-05	0	47	0	15082717184	29	13623
2026-01-26 21:38:30.70	249.83	20.17	-28.6	-28.4	15.8	2.67e-05	0	47	0	15200157696	29	13623
2026-01-26 21:38:31.67	250.16	20.23	-28.6	-28.4	15.7	3.81e-05	0	47	0	15309209600	29	13604
2026-01-26 21:38:32.64	250.50	20.29	-28.6	-28.4	15.7	3.05e-05	0	47	0	15409872896	29	13550
2026-01-26 21:38:33.61	250.83	20.35	-28.6	-28.4	15.8	3.62e-05	0	47	0	15527313408	29	13601
2026-01-26 21:38:34.58	251.17	20.40	-28.8	-28.6	15.8	3.62e-05	0	47	0	15636365312	29	13875
2026-01-26 21:38:35.55	251.50	20.46	-28.7	-28.5	15.7	3.24e-05	0	47	0	15753805824	29	13691
2026-01-26 21:38:36.53	251.85	20.52	-28.6	-28.4	15.7	1.90e-05	0	47	0	15854469120	29	13499
2026-01-26 21:38:37.50	252.19	20.57	-28.6	-28.4	15.6	2.86e-05	0	47	0	15963521024	29	13601
2026-01-26 21:38:38.47	252.53	20.63	-28.5	-28.3	15.7	2.47e-05	0	47	0	16072572928	29	13439
2026-01-26 21:38:39.44	252.87	20.68	-28.5	-28.3	15.8	2.67e-05	0	47	0	16181624832	29	13393
2026-01-26 21:38:40.42	253.22	20.74	-28.4	-28.2	15.8	1.90e-05	0	47	0	16290676736	28	14010
2026-01-26 21:38:41.39	253.56	20.79	-28.5	-28.3	15.8	2.28e-05	0	47	0	16399728640	28	14173
2026-01-26 21:38:42.36	253.91	20.84	-28.5	-28.3	15.7	3.43e-05	0	47	0	16517169152	28	14156
2026-01-26 21:38:43.33	254.25	20.89	-28.4	-28.2	15.8	1.71e-05	0	47	0	16617832448	28	13975
2026-01-26 21:38:44.30	254.60	20.94	-28.4	-28.2	15.9	2.09e-05	0	47	0	16726884352	28	13983
2026-01-26 21:38:45.27	254.95	20.99	-28.4	-28.3	15.8	2.86e-05	0	47	0	16844324864	28	14112
2026-01-26 21:38:46.24	255.31	21.04	-28.3	-28.1	15.9	1.33e-05	0	47	0	16944988160	28	13809
2026-01-26 21:38:47.22	255.66	21.09	-28.4	-28.2	15.9	1.33e-05	0	47	0	17054040064	28	13965
2026-01-26 21:38:48.19	256.02	21.13	-28.6	-28.4	15.9	1.71e-05	0	47	0	17171480576	28	14297
2026-01-26 21:38:49.17	256.37	21.18	-28.3	-28.1	15.9	1.33e-05	0	47	0	17280532480	28	13919
2026-01-26 21:38:50.14	256.73	21.22	-28.5	-28.3	15.9	1.33e-05	0	47	0	17381195776	28	14176
2026-01-26 21:38:51.12	257.09	21.27	-28.5	-28.3	15.9	2.09e-05	0	47	0	17490247680	28	14150
2026-01-26 21:38:52.09	257.45	21.31	-28.3	-28.1	16.0	9.50e-06	0	47	0	17607688192	28	13803
2026-01-26 21:38:53.06	257.81	21.35	-28.3	-28.1	16.0	7.60e-06	0	47	0	17716740096	28	13933
2026-01-26 21:38:54.04	258.17	21.39	-28.3	-28.1	16.0	9.50e-06	0	47	0	17817403392	28	13891
2026-01-26 21:38:55.01	258.53	21.43	-28.2	-28.0	15.9	2.28e-05	0	47	0	17934843904	28	13722
2026-01-26 21:38:55.99	258.90	21.47	-28.2	-28.0	16.0	2.28e-05	0	47	0	18043895808	28	13759
2026-01-26 21:38:56.96	259.26	21.51	-28.2	-28.0	16.0	1.14e-05	0	47	0	18161336320	28	13714
2026-01-26 21:38:57.93	259.63	21.55	-28.2	-28.0	16.0	1.14e-05	0	47	0	18261999616	28	13761
2026-01-26 21:38:58.91	260.00	21.58	-28.3	-28.1	16.0	2.09e-05	0	47	0	18371051520	28	13836
2026-01-26 21:38:59.89	260.37	21.62	-28.3	-28.1	16.0	2.09e-05	0	47	0	18480103424	28	13871
2026-01-26 21:39:00.87	260.74	21.65	-28.3	-28.1	16.0	1.90e-05	0	47	0	18597543936	28	13869
2026-01-26 21:39:01.85	261.11	21.68	-28.1	-27.9	15.9	1.52e-05	0	47	0	18706595840	28	13604
2026-01-26 21:39:02.82	261.48	21.72	-28.2	-28.0	16.0	1.52e-05	0	47	0	18807259136	28	13744
2026-01-26 21:39:03.79	261.85	21.75	-28.2	-28.0	16.0	1.14e-05	0	47	0	18924699648	28	13642
2026-01-26 21:39:04.77	262.22	21.78	-28.3	-28.1	15.9	1.14e-05	0	47	0	19033751552	28	13865
2026-01-26 21:39:05.74	262.59	21.80	-28.3	-28.1	16.0	2.28e-05	0	47	0	19134414848	28	13930
2026-01-26 21:39:06.71	262.97	21.83	-28.3	-28.1	16.0	2.28e-05	0	47	0	19251855360	28	13803
2026-01-26 21:39:07.68	263.34	21.86	-28.3	-28.1	16.0	1.71e-05	0	47	0	19360907264	28	13916
2026-01-26 21:39:08.66	263.72	21.88	-28.2	-28.0	16.1	1.71e-05	0	47	0	19478347776	28	13643
2026-01-26 21:39:09.64	264.09	21.91	-28.2	-28.0	16.0	1.52e-05	0	47	0	19579011072	28	13767
2026-01-26 21:39:10.61	264.47	21.93	-28.2	-28.1	16.0	1.33e-05	0	47	0	19688062976	28	13805
2026-01-26 21:39:11.58	264.84	21.95	-28.2	-28.0	16.0	1.14e-05	0	47	0	19797114880	28	13716
2026-01-26 21:39:12.55	265.22	21.97	-28.2	-28.0	16.0	3.80e-06	0	47	0	19914555392	28	13766
2026-01-26 21:39:13.53	265.60	21.99	-28.2	-28.0	16.1	1.33e-05	0	47	0	20015218688	28	13734
2026-01-26 21:39:14.50	265.98	22.01	-28.2	-28.0	16.0	1.90e-05	0	47	0	20124270592	28	13755
2026-01-26 21:39:15.48	266.36	22.03	-28.2	-28.0	16.0	1.71e-05	0	47	0	20241711104	28	13634
2026-01-26 21:39:16.45	266.73	22.04	-28.3	-28.1	16.0	1.33e-05	0	47	0	20350763008	28	13921
2026-01-26 21:39:17.42	267.11	22.06	-28.2	-28.0	16.0	3.05e-05	0	47	0	20451426304	28	13762
2026-01-26 21:39:18.40	267.50	22.07	-28.1	-27.9	16.1	9.50e-06	0	47	0	20568866816	28	13606
2026-01-26 21:39:19.38	267.88	22.09	-28.3	-28.1	16.1	1.71e-05	0	47	0	20677918720	28	13832
2026-01-26 21:39:20.35	268.26	22.10	-28.2	-28.0	16.1	9.50e-06	0	47	0	20786970624	28	13637
2026-01-26 21:39:21.33	268.64	22.11	-28.3	-28.1	16.1	1.90e-05	0	47	0	20887633920	28	13825
2026-01-26 21:39:22.30	269.02	22.12	-28.2	-28.0	16.1	1.14e-05	0	47	0	21005074432	28	13691
2026-01-26 21:39:23.27	269.40	22.12	-28.2	-28.0	16.0	1.14e-05	0	47	0	21114126336	28	13703
2026-01-26 21:39:24.25	269.78	22.13	-28.3	-28.0	16.1	1.52e-05	0	47	0	21231566848	28	13788
2026-01-26 21:39:25.22	270.16	22.14	-28.3	-28.1	16.1	1.14e-05	0	47	0	21332230144	28	13797
2026-01-26 21:39:26.19	270.55	22.14	-28.2	-28.0	16.0	1.14e-05	0	47	0	21441282048	28	13729
2026-01-26 21:39:27.18	270.93	22.14	-28.3	-28.1	15.9	2.09e-05	0	47	0	21558722560	28	13846
2026-01-26 21:39:28.16	271.32	22.14	-28.2	-28.0	16.1	9.50e-06	0	47	0	21667774464	28	13728
2026-01-26 21:39:29.13	271.70	22.15	-28.3	-28.1	16.1	5.70e-06	0	47	0	21768437760	28	13888
2026-01-26 21:39:30.11	272.08	22.14	-28.3	-28.1	16.0	1.33e-05	0	47	0	21877489664	28	13924
2026-01-26 21:39:31.09	272.47	22.14	-28.3	-28.1	16.1	1.33e-05	0	47	0	21994930176	28	13842
2026-01-26 21:39:32.07	272.85	22.14	-28.3	-28.1	16.1	1.71e-05	0	47	0	22103982080	28	13948
2026-01-26 21:39:33.05	273.24	22.14	-28.2	-28.0	16.2	1.33e-05	0	47	0	22221422592	28	13702
2026-01-26 21:39:34.03	273.62	22.13	-28.2	-28.0	16.2	5.70e-06	0	47	0	22322085888	28	13704
2026-01-26 21:39:35.01	274.01	22.12	-28.3	-28.0	16.2	1.52e-05	0	47	0	22431137792	28	13785
2026-01-26 21:39:35.99	274.39	22.12	-28.2	-28.0	16.2	7.60e-06	0	47	0	22548578304	28	13739
2026-01-26 21:39:36.97	274.77	22.11	-28.3	-28.1	16.2	9.50e-06	0	47	0	22657630208	28	13802
2026-01-26 21:39:37.96	275.16	22.10	-28.2	-28.0	16.2	3.80e-06	0	47	0	22766682112	28	13748
2026-01-26 21:39:38.94	275.54	22.09	-28.3	-28.1	16.2	1.33e-05	0	47	0	22875734016	28	13815
2026-01-26 21:39:39.93	275.93	22.07	-28.3	-28.1	16.2	1.14e-05	0	47	0	22984785920	28	13869
2026-01-26 21:39:40.92	276.32	22.06	-28.3	-28.2	16.1	1.33e-05	0	47	0	23093837824	28	13956
2026-01-26 21:39:41.91	276.70	22.04	-28.3	-28.1	16.2	1.14e-05	0	47	0	23211278336	28	13875
2026-01-26 21:39:42.90	277.09	22.03	-28.2	-28.0	16.2	5.70e-06	0	47	0	23320330240	28	13781
2026-01-26 21:39:43.89	277.47	22.01	-28.3	-28.1	16.3	7.60e-06	0	47	0	23437770752	28	13866
2026-01-26 21:39:44.88	277.86	21.99	-28.3	-28.1	16.3	9.50e-06	0	47	0	23546822656	28	13915
2026-01-26 21:39:45.87	278.24	21.97	-28.3	-28.1	16.3	3.80e-06	0	47	0	23655874560	28	13915
2026-01-26 21:39:46.86	278.63	21.95	-28.4	-28.2	16.3	9.50e-06	0	47	0	23773315072	28	13974
2026-01-26 21:39:47.85	279.01	21.93	-28.4	-28.2	16.3	2.09e-05	0	47	0	23882366976	28	14003
2026-01-26 21:39:48.84	279.39	21.91	-28.3	-28.1	16.3	7.60e-06	0	47	0	23983030272	28	13890
2026-01-26 21:39:49.83	279.77	21.88	-28.3	-28.1	16.4	9.50e-06	0	47	0	24100470784	28	13862
2026-01-26 21:39:50.82	280.15	21.86	-28.5	-28.3	16.3	1.90e-05	0	47	0	24209522688	28	14150
2026-01-26 21:39:51.83	280.54	21.83	-28.5	-28.3	16.3	1.52e-05	0	47	0	24326963200	28	14126
2026-01-26 21:39:52.82	280.92	21.80	-28.4	-28.2	16.4	1.90e-05	0	47	0	24436015104	28	14026
2026-01-26 21:39:53.82	281.30	21.77	-28.5	-28.3	16.3	1.90e-05	0	47	0	24545067008	28	14112
2026-01-26 21:39:54.80	281.68	21.74	-28.5	-28.3	16.4	7.60e-06	0	47	0	24662507520	28	14210
2026-01-26 21:39:55.80	282.06	21.71	-28.6	-28.4	16.3	7.60e-06	0	47	0	24771559424	28	14358
2026-01-26 21:39:56.78	282.43	21.68	-28.4	-28.2	16.4	1.14e-05	0	47	0	24888999936	28	14100
2026-01-26 21:39:57.78	282.81	21.64	-28.5	-28.3	16.4	1.52e-05	0	47	0	24998051840	28	14134
2026-01-26 21:39:58.78	283.19	21.61	-28.6	-28.4	16.3	9.50e-06	0	47	0	25107103744	28	14345
2026-01-26 21:39:59.78	283.57	21.57	-28.5	-28.3	16.4	5.70e-06	0	47	0	25224544256	28	14172
2026-01-26 21:40:00.77	283.94	21.53	-28.5	-28.3	16.5	3.80e-06	0	47	0	25333596160	28	14155
2026-01-26 21:40:01.77	284.31	21.50	-28.5	-28.3	16.5	5.70e-06	0	47	0	25451036672	28	14267
2026-01-26 21:40:02.77	284.69	21.46	-28.5	-28.3	16.5	1.71e-05	0	47	0	25560088576	28	14135
2026-01-26 21:40:03.76	285.06	21.42	-28.6	-28.4	16.5	1.52e-05	0	47	0	25669140480	28	14340
2026-01-26 21:40:04.75	285.43	21.38	-28.5	-28.3	16.6	3.80e-06	0	47	0	25786580992	28	14141
2026-01-26 21:40:05.76	285.80	21.33	-28.5	-28.3	16.6	1.33e-05	0	47	0	25895632896	28	14230
2026-01-26 21:40:06.77	286.17	21.29	-28.6	-28.4	16.6	1.90e-06	0	47	0	26013073408	28	14285
2026-01-26 21:40:07.77	286.54	21.25	-28.6	-28.4	16.6	3.80e-06	0	47	0	26122125312	28	14403
2026-01-26 21:40:08.78	286.91	21.20	-28.7	-28.5	16.6	1.14e-05	0	47	0	26239565824	28	14492
2026-01-26 21:40:09.78	287.28	21.15	-28.6	-28.4	16.7	5.70e-06	0	47	0	26348617728	28	14403
2026-01-26 21:40:10.79	287.65	21.11	-28.7	-28.6	16.7	3.80e-06	0	47	0	26457669632	28	14609
2026-01-26 21:40:11.79	288.01	21.06	-28.7	-28.5	16.7	7.60e-06	0	47	0	26575110144	28	14597
2026-01-26 21:40:12.79	288.38	21.01	-28.8	-28.6	16.7	5.70e-06	0	47	0	26684162048	28	14645
2026-01-26 21:40:13.80	288.74	20.96	-28.9	-28.7	16.7	3.80e-06	0	47	0	26801602560	28	14919
2026-01-26 21:40:14.81	289.11	20.91	-28.7	-28.6	16.8	9.50e-06	0	47	0	26910654464	28	14622
2026-01-26 21:40:15.81	289.46	20.85	-28.9	-28.7	16.7	3.80e-06	0	47	0	27019706368	28	14807
2026-01-26 21:40:16.81	289.82	20.80	-29.0	-28.8	16.8	3.80e-06	0	47	0	27137146880	28	15067
2026-01-26 21:40:17.82	290.18	20.75	-29.0	-28.8	16.7	3.80e-06	0	47	0	27246198784	28	15017
2026-01-26 21:40:18.83	290.54	20.69	-28.9	-28.7	16.8	5.70e-06	0	47	0	27363639296	28	14807
2026-01-26 21:40:19.84	290.90	20.63	-28.8	-28.6	16.9	3.80e-06	0	47	0	27472691200	28	14768
2026-01-26 21:40:20.84	291.25	20.58	-28.9	-28.7	16.9	5.70e-06	0	47	0	27598520320	28	14905
2026-01-26 21:40:21.85	291.60	20.52	-29.0	-28.8	16.9	1.14e-05	0	47	0	27707572224	28	14976
2026-01-26 21:40:22.85	291.95	20.46	-29.0	-28.8	17.0	5.70e-06	0	47	0	27816624128	28	15054
2026-01-26 21:40:23.86	292.30	20.40	-29.0	-28.8	17.0	9.50e-06	0	47	0	27934064640	28	14995
2026-01-26 21:40:24.86	292.65	20.34	-29.1	-28.9	17.0	3.80e-06	0	47	0	28043116544	28	15135
2026-01-26 21:40:25.87	293.00	20.28	-29.0	-28.8	17.0	9.50e-06	0	47	0	28160557056	28	15093
2026-01-26 21:40:26.87	293.34	20.22	-29.0	-28.8	17.1	5.70e-06	0	47	0	28269608960	28	15115
2026-01-26 21:40:27.88	293.68	20.16	-29.1	-28.9	17.1	9.50e-06	0	47	0	28387049472	28	15140
2026-01-26 21:40:28.89	294.03	20.09	-29.1	-28.9	17.1	7.60e-06	0	47	0	28496101376	28	15243
2026-01-26 21:40:29.89	294.36	20.03	-29.2	-29.0	17.1	1.90e-06	0	47	0	28605153280	29	14600
2026-01-26 21:40:30.90	294.70	19.97	-29.2	-29.0	17.2	1.90e-06	0	47	0	28722593792	29	14501
2026-01-26 21:40:31.91	295.04	19.90	-29.2	-29.0	17.2	1.90e-06	0	47	0	28831645696	29	14553
2026-01-26 21:40:32.91	295.38	19.84	-29.3	-29.1	17.2	3.80e-06	0	47	0	28949086208	29	14648
2026-01-26 21:40:33.92	295.71	19.77	-29.3	-29.1	17.2	1.90e-06	0	47	0	29058138112	29	14691
2026-01-26 21:40:34.92	296.04	19.70	-29.2	-29.0	17.3	3.80e-06	0	47	0	29175578624	29	14532
2026-01-26 21:40:35.93	296.37	19.63	-29.3	-29.0	17.3	1.90e-06	0	47	0	29284630528	29	14598
2026-01-26 21:40:36.94	296.70	19.57	-29.2	-29.0	17.3	3.80e-06	0	47	0	29393682432	29	14523
2026-01-26 21:40:37.95	297.03	19.50	-29.3	-29.1	17.3	7.60e-06	0	47	0	29519511552	29	14771
2026-01-26 21:40:38.95	297.36	19.43	-29.3	-29.1	17.3	1.90e-06	0	47	0	29636952064	29	14742
2026-01-26 21:40:39.96	297.68	19.36	-29.4	-29.2	17.3	7.60e-06	0	47	0	29746003968	29	14931
2026-01-26 21:40:40.97	298.01	19.29	-29.5	-29.3	17.3	3.80e-06	0	47	0	29855055872	29	14983
2026-01-26 21:40:41.98	298.33	19.21	-29.4	-29.2	17.4	0.00e+00	0	47	0	29972496384	29	14791
2026-01-26 21:40:42.99	298.65	19.14	-29.4	-29.2	17.4	7.60e-06	0	47	0	30081548288	29	14890
2026-01-26 21:40:43.99	298.97	19.07	-29.4	-29.2	17.4	0.00e+00	0	47	0	30198988800	29	14835
2026-01-26 21:40:45.00	299.28	19.00	-29.4	-29.2	17.4	1.90e-06	0	47	0	30308040704	29	14874
2026-01-26 21:40:46.01	299.60	18.92	-29.4	-29.2	17.5	3.80e-06	0	47	0	30417092608	29	14803
2026-01-26 21:40:47.02	299.91	18.85	-29.4	-29.2	17.5	1.90e-06	0	47	0	30534533120	29	14904
2026-01-26 21:40:48.03	300.22	18.77	-29.5	-29.3	17.5	3.80e-06	0	47	0	30643585024	29	15018
2026-01-26 21:40:49.03	300.53	18.70	-29.5	-29.3	17.5	0.00e+00	0	47	0	30761025536	29	14999
2026-01-26 21:40:50.04	300.84	18.62	-29.4	-29.2	17.5	7.60e-06	0	47	0	30870077440	29	14936
2026-01-26 21:40:51.05	301.15	18.55	-29.5	-29.3	17.6	0.00e+00	0	47	0	30995906560	29	15006
2026-01-26 21:40:52.05	301.45	18.47	-29.5	-29.3	17.6	0.00e+00	0	47	0	31104958464	29	15082
2026-01-26 21:40:53.06	301.75	18.39	-29.5	-29.4	17.6	3.80e-06	0	47	0	31222398976	29	15156
2026-01-26 21:40:54.07	302.05	18.32	-29.6	-29.4	17.6	1.90e-06	0	47	0	31331450880	29	15132
2026-01-26 21:40:55.08	302.35	18.24	-29.8	-29.6	17.5	1.90e-06	0	47	0	31440502784	30	14615
2026-01-26 21:40:56.08	302.65	18.16	-29.7	-29.5	17.6	1.90e-06	0	47	0	31557943296	30	14479
2026-01-26 21:40:57.08	302.94	18.08	-29.7	-29.5	17.6	0.00e+00	0	47	0	31666995200	30	14503
2026-01-26 21:40:58.09	303.24	18.01	-29.7	-29.5	17.6	1.90e-06	0	47	0	31784435712	30	14549
2026-01-26 21:40:59.09	303.53	17.93	-29.7	-29.5	17.7	1.90e-06	0	47	0	31893487616	30	14569
2026-01-26 21:41:00.10	303.82	17.85	-29.6	-29.4	17.7	1.90e-06	0	47	0	32002539520	30	14431
2026-01-26 21:41:01.10	304.11	17.77	-29.7	-29.5	17.7	1.90e-06	0	47	0	32119980032	30	14567
2026-01-26 21:41:02.11	304.39	17.69	-29.7	-29.5	17.7	3.80e-06	0	47	0	32229031936	30	14571
2026-01-26 21:41:03.12	304.68	17.61	-29.7	-29.6	17.7	1.90e-06	0	47	0	32346472448	30	14614
2026-01-26 21:41:04.12	304.96	17.53	-29.8	-29.6	17.7	0.00e+00	0	47	0	32455524352	30	14729
2026-01-26 21:41:05.13	305.25	17.45	-29.8	-29.6	17.7	1.90e-06	0	47	0	32572964864	30	14734
2026-01-26 21:41:06.14	305.53	17.37	-30.0	-29.8	17.6	1.90e-06	0	47	0	32682016768	30	15019
2026-01-26 21:41:07.15	305.81	17.28	-30.1	-29.9	17.6	0.00e+00	0	47	0	32807845888	30	15155
2026-01-26 21:41:08.15	306.08	17.20	-30.0	-29.8	17.6	0.00e+00	0	47	0	32916897792	30	15111
2026-01-26 21:41:09.16	306.36	17.12	-30.0	-29.8	17.6	1.90e-06	0	47	0	33034338304	30	14977
2026-01-26 21:41:10.17	306.63	17.04	-30.0	-29.8	17.7	3.80e-06	0	47	0	33143390208	30	14981
2026-01-26 21:41:11.18	306.91	16.96	-30.0	-29.8	17.7	0.00e+00	0	47	0	33252442112	30	15049
2026-01-26 21:41:12.18	307.17	16.87	-30.1	-29.9	17.6	3.80e-06	0	47	0	33369882624	30	15287
2026-01-26 21:41:13.19	307.44	16.79	-30.1	-29.9	17.7	9.50e-06	0	47	0	33478934528	31	14352
2026-01-26 21:41:14.19	307.71	16.71	-30.1	-29.9	17.7	1.90e-06	0	47	0	33596375040	31	14317
2026-01-26 21:41:15.21	307.98	16.62	-30.2	-30.0	17.7	1.90e-06	0	47	0	33705426944	31	14553
2026-01-26 21:41:16.21	308.24	16.54	-30.2	-30.0	17.7	3.80e-06	0	47	0	33814478848	31	14499
2026-01-26 21:41:17.22	308.50	16.46	-30.2	-30.0	17.6	1.90e-06	0	47	0	33931919360	31	14507
2026-01-26 21:41:18.23	308.76	16.37	-30.2	-30.0	17.6	1.90e-06	0	47	0	34040971264	31	14469
2026-01-26 21:41:19.24	309.02	16.29	-30.2	-30.0	17.6	1.90e-06	0	47	0	34158411776	31	14595
2026-01-26 21:41:20.24	309.28	16.21	-30.4	-30.2	17.5	1.90e-06	0	47	0	34275852288	31	14781
2026-01-26 21:41:21.25	309.54	16.12	-30.2	-30.0	17.6	9.50e-06	0	47	0	34393292800	31	14576
2026-01-26 21:41:22.26	309.79	16.04	-30.2	-30.0	17.7	3.80e-06	0	47	0	34502344704	31	14553
2026-01-26 21:41:23.26	310.04	15.96	-30.3	-30.1	17.6	3.80e-06	0	47	0	34619785216	31	14759
2026-01-26 21:41:24.27	310.29	15.87	-30.3	-30.1	17.6	5.70e-06	0	47	0	34728837120	31	14707
2026-01-26 21:41:25.27	310.54	15.79	-30.4	-30.2	17.6	0.00e+00	0	47	0	34837889024	31	14847
2026-01-26 21:41:26.28	310.79	15.70	-30.4	-30.2	17.6	1.90e-06	0	47	0	34955329536	31	14871
2026-01-26 21:41:27.29	311.04	15.62	-30.4	-30.2	17.6	3.80e-06	0	47	0	35064381440	31	14846
2026-01-26 21:41:28.30	311.28	15.53	-30.4	-30.2	17.6	3.80e-06	0	47	0	35181821952	31	14852
2026-01-26 21:41:29.31	311.53	15.45	-30.4	-30.2	17.6	1.33e-05	0	47	0	35290873856	31	14884
2026-01-26 21:41:30.32	311.77	15.36	-30.5	-30.3	17.5	1.90e-06	0	47	0	35399925760	31	15050
2026-01-26 21:41:31.32	312.01	15.28	-30.5	-30.3	17.5	1.90e-06	0	47	0	35517366272	31	15038
2026-01-26 21:41:32.33	312.25	15.19	-30.6	-30.4	17.5	9.50e-06	0	47	0	35626418176	31	15166
2026-01-26 21:41:33.33	312.48	15.11	-30.5	-30.3	17.5	7.60e-06	0	47	0	35743858688	31	15108
2026-01-26 21:41:34.34	312.72	15.02	-30.5	-30.3	17.5	5.70e-06	0	47	0	35852910592	31	15073
2026-01-26 21:41:35.35	312.95	14.94	-30.6	-30.4	17.5	3.80e-06	0	47	0	35978739712	31	15179
2026-01-26 21:41:36.35	313.18	14.85	-30.6	-30.4	17.5	1.90e-06	0	47	0	36087791616	32	14312
2026-01-26 21:41:37.36	313.41	14.77	-30.5	-30.3	17.5	5.70e-06	0	47	0	36205232128	32	14151
2026-01-26 21:41:38.37	313.64	14.68	-30.5	-30.3	17.5	1.90e-06	0	47	0	36314284032	32	14209
2026-01-26 21:41:39.38	313.87	14.60	-30.6	-30.4	17.4	1.90e-06	0	47	0	36431724544	32	14401
2026-01-26 21:41:40.38	314.10	14.51	-30.6	-30.4	17.5	0.00e+00	0	47	0	36540776448	32	14309
2026-01-26 21:41:41.39	314.32	14.43	-30.6	-30.4	17.4	7.60e-06	0	47	0	36649828352	32	14411
2026-01-26 21:41:42.40	314.55	14.34	-30.6	-30.4	17.4	5.70e-06	0	47	0	36767268864	32	14379
2026-01-26 21:41:43.41	314.77	14.26	-30.7	-30.5	17.4	5.70e-06	0	47	0	36876320768	32	14475
2026-01-26 21:41:44.41	314.99	14.17	-30.7	-30.5	17.4	7.60e-06	0	47	0	36993761280	32	14474
2026-01-26 21:41:45.42	315.21	14.09	-30.7	-30.5	17.4	7.60e-06	0	47	0	37102813184	32	14591
2026-01-26 21:41:46.42	315.42	14.01	-30.7	-30.5	17.4	9.50e-06	0	47	0	37211865088	32	14459
2026-01-26 21:41:47.43	315.64	13.92	-30.7	-30.5	17.4	7.60e-06	0	47	0	37329305600	32	14571
2026-01-26 21:41:48.44	315.86	13.84	-30.7	-30.5	17.4	1.90e-06	0	47	0	37438357504	32	14579
2026-01-26 21:41:49.45	316.07	13.75	-30.7	-30.5	17.4	1.90e-06	0	47	0	37564186624	32	14607
2026-01-26 21:41:50.45	316.28	13.67	-30.9	-30.7	17.3	5.70e-06	0	47	0	37673238528	32	14901
2026-01-26 21:41:51.46	316.49	13.58	-30.9	-30.7	17.3	1.33e-05	0	47	0	37790679040	32	14874
2026-01-26 21:41:52.47	316.70	13.50	-30.8	-30.6	17.3	7.60e-06	0	47	0	37899730944	32	14732
2026-01-26 21:41:53.48	316.91	13.41	-30.9	-30.7	17.3	1.33e-05	0	47	0	38017171456	32	14935
2026-01-26 21:41:54.49	317.12	13.33	-30.8	-30.6	17.4	7.60e-06	0	47	0	38126223360	32	14709
2026-01-26 21:41:55.49	317.32	13.24	-31.0	-30.8	17.2	9.50e-06	0	47	0	38235275264	32	15116
2026-01-26 21:41:56.50	317.53	13.16	-31.1	-30.9	17.2	9.50e-06	0	47	0	38352715776	32	15138
2026-01-26 21:41:57.51	317.73	13.07	-31.2	-31.0	17.1	1.33e-05	0	47	0	38461767680	32	15348
2026-01-26 21:41:58.52	317.93	12.99	-54.0	-55.9	6.2	0.00e+00	0	47	104	38470156288	78	19139
2026-01-26 21:41:59.53	318.13	12.91	-54.6	-56.8	6.2	0.00e+00	0	47	104	38470156288	80	18944
2026-01-26 21:42:00.54	318.33	12.82	-54.6	-56.7	6.2	0.00e+00	0	47	104	38470156288	80	18756
2026-01-26 21:42:01.55	318.53	12.74	-54.7	-56.8	6.2	0.00e+00	0	47	104	38470156288	80	18975
2026-01-26 21:42:02.56	318.73	12.65	-54.7	-56.8	6.2	0.00e+00	0	47	104	38470156288	80	18824
2026-01-26 21:42:03.57	318.92	12.57	-54.7	-56.8	6.2	0.00e+00	0	47	104	38470156288	80	18904
2026-01-26 21:42:04.57	319.12	12.49	-54.6	-56.7	6.2	0.00e+00	0	47	104	38470156288	80	18780
2026-01-26 21:42:05.58	319.31	12.40	-54.7	-56.8	6.2	0.00e+00	0	47	104	38470156288	80	18834
2026-01-26 21:42:06.59	319.50	12.32	-54.6	-56.7	6.2	0.00e+00	0	47	104	38470156288	80	18708
2026-01-26 21:42:07.60	319.69	12.24	-54.6	-56.7	6.2	0.00e+00	0	47	104	38470156288	80	18651
2026-01-26 21:42:08.61	319.88	12.15	-54.6	-56.6	6.2	0.00e+00	0	47	104	38470156288	80	18565
2026-01-26 21:42:09.61	320.07	12.07	-54.6	-56.7	6.2	0.00e+00	0	47	104	38470156288	80	18642
2026-01-26 21:42:10.62	320.25	11.99	-54.6	-56.6	6.2	0.00e+00	0	47	104	38470156288	80	18554
2026-01-26 21:42:11.63	320.44	11.90	-54.5	-56.6	6.2	0.00e+00	0	47	104	38470156288	80	18466
2026-01-26 21:42:12.64	320.62	11.82	-54.5	-56.6	6.2	0.00e+00	0	47	104	38470156288	80	18440
2026-01-26 21:42:13.65	320.81	11.74	-54.5	-56.6	6.2	0.00e+00	0	47	104	38470156288	80	18493
2026-01-26 21:42:14.66	320.99	11.66	-54.5	-56.5	6.2	0.00e+00	0	47	104	38470156288	80	18374
2026-01-26 21:42:15.67	321.17	11.57	-54.4	-56.5	6.2	0.00e+00	0	46	104	38470156288	80	18272
2026-01-26 21:42:16.67	321.35	11.49	-54.4	-56.5	6.2	0.00e+00	0	47	104	38470156288	80	18301
2026-01-26 21:42:17.68	321.53	11.41	-54.5	-56.5	6.2	0.00e+00	0	47	104	38470156288	80	18377
2026-01-26 21:42:18.69	321.70	11.33	-54.4	-56.5	6.2	0.00e+00	0	47	104	38470156288	80	18310
2026-01-26 21:42:19.69	321.88	11.25	-54.4	-56.5	6.2	0.00e+00	0	47	104	38470156288	80	18187
2026-01-26 21:42:20.70	322.05	11.17	-54.4	-56.5	6.2	0.00e+00	0	46	104	38470156288	80	18251
2026-01-26 21:42:21.71	322.23	11.08	-54.4	-56.5	6.2	0.00e+00	0	46	104	38470156288	80	18245
2026-01-26 21:42:22.72	322.40	11.00	-54.3	-56.4	6.2	0.00e+00	0	47	104	38470156288	80	18105
2026-01-26 21:42:23.73	322.57	10.92	-54.3	-56.4	6.2	0.00e+00	0	47	104	38470156288	80	18056
2026-01-26 21:42:24.73	322.74	10.84	-54.3	-56.4	6.2	0.00e+00	0	47	104	38470156288	80	18036
2026-01-26 21:42:25.74	322.91	10.76	-54.3	-56.4	6.2	0.00e+00	0	46	104	38470156288	80	18089
2026-01-26 21:42:26.75	323.08	10.68	-54.3	-56.4	6.2	0.00e+00	0	47	104	38470156288	80	18014
2026-01-26 21:42:27.76	323.25	10.60	-54.3	-56.3	6.2	0.00e+00	0	47	104	38470156288	80	17888
2026-01-26 21:42:28.77	323.41	10.52	-54.2	-56.3	6.2	0.00e+00	0	47	104	38470156288	80	17934
2026-01-26 21:42:29.77	323.58	10.44	-54.3	-56.4	6.2	0.00e+00	0	47	104	38470156288	80	18018
2026-01-26 21:42:30.78	323.74	10.36	-54.2	-56.3	6.2	0.00e+00	0	47	104	38470156288	80	17939
2026-01-26 21:42:31.79	323.90	10.28	-54.2	-56.3	6.2	0.00e+00	0	47	104	38470156288	80	17834
2026-01-26 21:42:32.80	324.07	10.20	-54.2	-56.3	6.2	0.00e+00	0	46	104	38470156288	80	17830
2026-01-26 21:42:33.81	324.23	10.12	-54.2	-56.3	6.2	0.00e+00	0	47	104	38470156288	80	17906
2026-01-26 21:42:34.80	324.39	10.04	-54.2	-56.3	6.2	0.00e+00	0	47	104	38470156288	80	17793
2026-01-26 21:42:35.81	324.54	9.96	-54.1	-56.2	6.2	0.00e+00	0	47	104	38470156288	80	17678
2026-01-26 21:42:36.82	324.70	9.88	-54.1	-56.2	6.2	0.00e+00	0	47	104	38470156288	80	17724
2026-01-26 21:42:37.83	324.86	9.80	-54.2	-56.2	6.2	0.00e+00	0	47	104	38470156288	80	17756
2026-01-26 21:42:38.83	325.01	9.72	-54.1	-56.2	6.2	0.00e+00	0	46	104	38470156288	80	17649
2026-01-26 21:42:39.84	325.17	9.64	-54.1	-56.2	6.2	0.00e+00	0	47	104	38470156288	80	17654
2026-01-26 21:42:40.85	325.32	9.57	-54.1	-56.2	6.2	0.00e+00	0	46	104	38470156288	80	17673
2026-01-26 21:42:41.85	325.48	9.49	-54.1	-56.2	6.2	0.00e+00	0	47	104	38470156288	80	17756
2026-01-26 21:42:42.86	325.63	9.41	-54.1	-56.1	6.2	0.00e+00	0	47	104	38470156288	80	17559
2026-01-26 21:42:43.87	325.78	9.33	-54.0	-56.1	6.2	0.00e+00	0	47	104	38470156288	80	17538
2026-01-26 21:42:44.87	325.93	9.25	-54.0	-56.1	6.2	0.00e+00	0	47	104	38470156288	80	17537
2026-01-26 21:42:45.88	326.08	9.18	-54.1	-56.2	6.2	0.00e+00	0	46	104	38470156288	80	17599
2026-01-26 21:42:46.89	326.23	9.10	-54.0	-56.1	6.2	0.00e+00	0	47	104	38470156288	80	17513
2026-01-26 21:42:47.89	326.37	9.02	-54.0	-56.1	6.2	0.00e+00	0	47	104	38470156288	80	17416
2026-01-26 21:42:48.90	326.52	8.94	-54.1	-56.2	6.2	0.00e+00	0	47	104	38470156288	79	18622
2026-01-26 21:42:49.91	326.67	8.87	-54.1	-56.2	6.2	0.00e+00	0	47	104	38470156288	79	18745
2026-01-26 21:42:50.91	326.81	8.79	-54.0	-56.1	6.2	0.00e+00	0	47	104	38470156288	79	18544
2026-01-26 21:42:51.92	326.95	8.71	-54.0	-56.1	6.2	0.00e+00	0	47	104	38470156288	79	18509
2026-01-26 21:42:52.93	327.10	8.64	-54.0	-56.1	6.2	0.00e+00	0	47	104	38470156288	79	18515
2026-01-26 21:42:53.93	327.24	8.56	-54.1	-56.2	6.2	0.00e+00	0	46	104	38470156288	79	18647
2026-01-26 21:42:54.94	327.38	8.48	-54.0	-56.1	6.2	0.00e+00	0	46	104	38470156288	79	18467
2026-01-26 21:42:55.95	327.52	8.41	-54.0	-56.1	6.2	0.00e+00	0	47	104	38470156288	79	18450
2026-01-26 21:42:56.96	327.66	8.33	-54.0	-56.0	6.2	0.00e+00	0	47	104	38470156288	79	18355
2026-01-26 21:42:57.96	327.80	8.26	-54.0	-56.1	6.2	0.00e+00	0	46	104	38470156288	79	18537
2026-01-26 21:42:58.97	327.94	8.18	-54.0	-56.0	6.2	0.00e+00	0	46	104	38470156288	79	18388
2026-01-26 21:42:59.97	328.07	8.11	-53.9	-56.0	6.2	0.00e+00	0	47	104	38470156288	79	18353
2026-01-26 21:43:00.98	328.21	8.03	-53.9	-56.0	6.2	0.00e+00	0	47	104	38470156288	79	18320
2026-01-26 21:43:01.98	328.34	7.96	-54.0	-56.1	6.2	0.00e+00	0	46	104	38470156288	79	18511
2026-01-26 21:43:02.99	328.48	7.88	-53.9	-56.0	6.2	0.00e+00	0	46	104	38470156288	79	18351
2026-01-26 21:43:04.00	328.61	7.81	-53.9	-56.0	6.2	0.00e+00	0	46	104	38470156288	79	18298
2026-01-26 21:43:05.01	328.75	7.73	-53.9	-56.0	6.2	0.00e+00	0	47	104	38470156288	79	18290
2026-01-26 21:43:06.01	328.88	7.66	-54.0	-56.1	6.2	0.00e+00	0	47	104	38470156288	79	18437
2026-01-26 21:43:07.02	329.01	7.58	-53.9	-56.0	6.2	0.00e+00	0	46	104	38470156288	79	18241
2026-01-26 21:43:08.03	329.14	7.51	-53.9	-56.0	6.2	0.00e+00	0	47	104	38470156288	79	18222
2026-01-26 21:43:09.03	329.27	7.44	-53.9	-56.0	6.2	0.00e+00	0	46	104	38470156288	79	18258
2026-01-26 21:43:10.04	329.40	7.36	-53.9	-56.1	6.2	0.00e+00	0	47	104	38470156288	79	18392
2026-01-26 21:43:11.04	329.53	7.29	-53.9	-55.9	6.2	0.00e+00	0	46	104	38470156288	79	18172
2026-01-26 21:43:12.04	329.65	7.22	-53.9	-56.0	6.2	0.00e+00	0	46	104	38470156288	79	18205
2026-01-26 21:43:13.05	329.78	7.14	-53.8	-55.9	6.2	0.00e+00	0	46	104	38470156288	79	18141
2026-01-26 21:43:14.06	329.91	7.07	-53.9	-56.0	6.2	0.00e+00	0	47	104	38470156288	79	18272
2026-01-26 21:43:15.06	330.03	7.00	-53.8	-55.9	6.2	0.00e+00	0	46	104	38470156288	79	18029
2026-01-26 21:43:16.07	330.16	6.93	-53.8	-55.9	6.2	0.00e+00	0	46	104	38470156288	79	18081
2026-01-26 21:43:17.08	330.28	6.85	-53.8	-55.8	6.2	0.00e+00	0	46	104	38470156288	79	17863
2026-01-26 21:43:18.08	330.40	6.78	-53.9	-55.9	6.2	0.00e+00	0	46	104	38470156288	79	18150
2026-01-26 21:43:19.09	330.53	6.71	-53.8	-55.8	6.2	0.00e+00	0	46	104	38470156288	79	17959
2026-01-26 21:43:20.10	330.65	6.64	-53.8	-55.9	6.2	0.00e+00	0	46	104	38470156288	79	18041
2026-01-26 21:43:21.11	330.77	6.56	-53.7	-55.8	6.2	0.00e+00	0	46	104	38470156288	79	17885
2026-01-26 21:43:22.12	330.89	6.49	-53.8	-55.9	6.2	0.00e+00	0	46	104	38470156288	79	18142
2026-01-26 21:43:23.12	331.01	6.42	-53.8	-55.8	6.2	0.00e+00	0	46	104	38470156288	79	17938
2026-01-26 21:43:24.12	331.13	6.35	-53.8	-55.8	6.2	0.00e+00	0	46	104	38470156288	79	17928
2026-01-26 21:43:25.13	331.25	6.28	-53.7	-55.8	6.2	0.00e+00	0	46	104	38470156288	79	17825
2026-01-26 21:43:26.14	331.36	6.21	-53.8	-55.9	6.2	0.00e+00	0	46	104	38470156288	79	18108
2026-01-26 21:43:27.14	331.48	6.14	-53.7	-55.8	6.2	0.00e+00	0	46	104	38470156288	79	17879
2026-01-26 21:43:28.15	331.60	6.07	-53.7	-55.8	6.2	0.00e+00	0	46	104	38470156288	79	17890
2026-01-26 21:43:29.16	331.71	6.00	-53.7	-55.8	6.2	0.00e+00	0	46	104	38470156288	79	17792
2026-01-26 21:43:30.17	331.83	5.93	-53.8	-55.8	6.2	0.00e+00	0	46	104	38470156288	79	17961
2026-01-26 21:43:31.18	331.94	5.86	-53.7	-55.8	6.2	0.00e+00	0	46	104	38470156288	79	17790
2026-01-26 21:43:32.19	332.06	5.79	-53.7	-55.8	6.2	0.00e+00	0	46	104	38470156288	79	17839
2026-01-26 21:43:33.19	332.17	5.72	-53.6	-55.7	6.2	0.00e+00	0	46	104	38470156288	79	17643
2026-01-26 21:43:34.20	332.28	5.65	-53.7	-55.8	6.2	0.00e+00	0	46	104	38470156288	79	17872
2026-01-26 21:43:35.20	332.39	5.58	-53.6	-55.7	6.2	0.00e+00	0	46	104	38470156288	79	17670
2026-01-26 21:43:36.21	332.50	5.51	-53.6	-55.7	6.2	0.00e+00	0	46	104	38470156288	79	17638
2026-01-26 21:43:37.22	332.62	5.44	-53.5	-55.6	6.2	0.00e+00	0	46	104	38470156288	79	17512
2026-01-26 21:43:38.22	332.72	5.37	-53.6	-55.8	6.2	0.00e+00	0	46	104	38470156288	79	17779
2026-01-26 21:43:39.23	332.83	5.30	-53.5	-55.6	6.2	0.00e+00	0	46	104	38470156288	79	17439
2026-01-26 21:43:40.24	332.94	5.23	-53.5	-55.6	6.2	0.00e+00	0	47	104	38470156288	79	17538
2026-01-26 21:43:41.24	333.05	5.16	-53.4	-55.5	6.2	0.00e+00	0	46	104	38470156288	78	18380
2026-01-26 21:43:42.25	333.16	5.10	-53.5	-55.6	6.2	0.00e+00	0	46	104	38470156288	78	18583
2026-01-26 21:43:43.26	333.27	5.03	-53.4	-55.5	6.2	0.00e+00	0	46	104	38470156288	78	18268
2026-01-26 21:43:44.26	333.37	4.96	-53.8	-55.9	6.2	0.00e+00	0	46	104	38470156288	78	19060
2026-01-26 21:43:45.27	333.48	4.89	-54.3	-56.4	6.2	0.00e+00	0	46	104	38470156288	79	19204
2026-01-26 21:43:46.28	333.58	4.82	-53.8	-55.5	6.2	0.00e+00	0	46	104	38470156288	79	17220
2026-01-26 21:43:47.29	333.69	4.76	-54.7	-56.8	6.2	0.00e+00	0	46	104	38470156288	80	18961
2026-01-26 21:43:48.29	333.79	4.69	-54.9	-56.9	6.2	0.00e+00	0	46	104	38470156288	80	19236
2026-01-26 21:43:49.30	333.90	4.62	-54.9	-57.0	6.2	0.00e+00	0	46	104	38470156288	80	19399
2026-01-26 21:43:50.31	334.00	4.55	-55.0	-57.1	6.2	0.00e+00	0	46	104	38470156288	80	19516
2026-01-26 21:43:51.32	334.10	4.49	-55.0	-57.1	6.2	0.00e+00	0	46	104	38470156288	80	19487
2026-01-26 21:43:52.32	334.20	4.42	-55.0	-57.0	6.2	0.00e+00	0	46	104	38470156288	80	19469
2026-01-26 21:43:53.33	334.31	4.35	-54.9	-57.0	6.2	0.00e+00	0	46	104	38470156288	80	19375
2026-01-26 21:43:54.34	334.41	4.29	-54.9	-56.9	6.2	0.00e+00	0	46	104	38470156288	80	19249
2026-01-26 21:43:55.35	334.51	4.22	-54.7	-56.8	6.2	0.00e+00	0	46	104	38470156288	80	18988
2026-01-26 21:43:56.35	334.61	4.15	-54.7	-56.8	6.2	0.00e+00	0	46	104	38470156288	80	18836
2026-01-26 21:43:57.36	334.71	4.09	-54.7	-56.8	6.2	0.00e+00	0	46	104	38470156288	80	18933
2026-01-26 21:43:58.37	334.80	4.02	-54.7	-56.8	6.2	0.00e+00	0	46	104	38470156288	80	18962
2026-01-26 21:43:59.37	334.90	3.96	-54.7	-56.8	6.2	0.00e+00	0	46	104	38470156288	80	19035
2026-01-26 21:44:00.36	335.00	3.89	-54.8	-56.8	6.2	0.00e+00	0	46	104	38470156288	80	18966
2026-01-26 21:44:01.37	335.10	3.83	-54.8	-56.9	6.2	0.00e+00	0	46	104	38470156288	80	19054
2026-01-26 21:44:02.38	335.19	3.76	-54.8	-56.9	6.2	0.00e+00	0	46	104	38470156288	80	19060
2026-01-26 21:44:03.39	335.29	3.70	-54.8	-56.9	6.2	0.00e+00	0	46	104	38470156288	80	19082
2026-01-26 21:44:04.40	335.38	3.63	-54.8	-56.9	6.2	0.00e+00	0	46	104	38470156288	80	19063
2026-01-26 21:44:05.41	335.48	3.57	-54.8	-56.8	6.2	0.00e+00	0	46	104	38470156288	80	19016
2026-01-26 21:44:06.41	335.57	3.50	-54.7	-56.8	6.2	0.00e+00	0	46	104	38470156288	80	18917
2026-01-26 21:44:07.42	335.67	3.44	-54.7	-56.8	6.2	0.00e+00	0	46	104	38470156288	80	18847
2026-01-26 21:44:08.43	335.76	3.37	-54.7	-56.8	6.2	0.00e+00	0	46	104	38470156288	80	18833
2026-01-26 21:44:09.43	335.86	3.31	-54.7	-56.8	6.2	0.00e+00	0	46	104	38470156288	80	18846
2026-01-26 21:44:10.44	335.95	3.24	-54.7	-56.7	6.2	0.00e+00	0	46	104	38470156288	80	18754
2026-01-26 21:44:11.45	336.04	3.18	-54.6	-56.7	6.2	0.00e+00	0	46	104	38470156288	80	18814
2026-01-26 21:44:12.45	336.13	3.12	-54.6	-56.7	6.2	0.00e+00	0	46	104	38470156288	80	18765
2026-01-26 21:44:13.46	336.22	3.05	-54.6	-56.7	6.2	0.00e+00	0	46	104	38470156288	80	18768
2026-01-26 21:44:14.47	336.32	2.99	-54.6	-56.7	6.2	0.00e+00	0	46	104	38470156288	80	18677
2026-01-26 21:44:15.48	336.41	2.92	-54.6	-56.7	6.2	0.00e+00	0	46	104	38470156288	80	18676
2026-01-26 21:44:16.48	336.50	2.86	-54.6	-56.7	6.2	0.00e+00	0	46	104	38470156288	80	18673
2026-01-26 21:44:17.48	336.58	2.80	-54.6	-56.7	6.2	0.00e+00	0	46	104	38470156288	80	18679
2026-01-26 21:44:18.49	336.67	2.74	-54.6	-56.7	6.2	0.00e+00	0	46	104	38470156288	80	18654
2026-01-26 21:44:19.50	336.76	2.67	-54.6	-56.7	6.2	0.00e+00	0	46	104	38470156288	80	18678
2026-01-26 21:44:20.51	336.85	2.61	-54.6	-56.6	6.2	0.00e+00	0	46	104	38470156288	80	18583
2026-01-26 21:44:21.52	336.94	2.55	-54.6	-56.7	6.2	0.00e+00	0	46	104	38470156288	80	18603
2026-01-26 21:44:22.53	337.03	2.48	-54.6	-56.6	6.2	0.00e+00	0	46	104	38470156288	80	18556
2026-01-26 21:44:23.54	337.11	2.42	-54.5	-56.6	6.2	0.00e+00	0	46	104	38470156288	80	18586
2026-01-26 21:44:24.55	337.20	2.36	-54.5	-56.6	6.2	0.00e+00	0	46	104	38470156288	80	18522
2026-01-26 21:44:25.55	337.29	2.30	-54.5	-56.6	6.2	0.00e+00	0	46	104	38470156288	80	18580
2026-01-26 21:44:26.56	337.37	2.23	-54.5	-56.6	6.2	0.00e+00	0	46	104	38470156288	80	18556
2026-01-26 21:44:27.57	337.46	2.17	-54.5	-56.6	6.2	0.00e+00	0	46	104	38470156288	80	18552
2026-01-26 21:44:28.58	337.54	2.11	-54.5	-56.6	6.2	0.00e+00	0	46	104	38470156288	80	18550
2026-01-26 21:44:29.58	337.63	2.05	-54.5	-56.6	6.2	0.00e+00	0	46	104	38470156288	80	18555

#Closed at: 2026-01-26 21:44:30
#Recorded file [38470 MB]: D:/lorett/data/31041_260127_003428.dat