passes_logs/2026/01/26/R3.2S_Murmansk/R3.2S_Murmansk__20260126_115954_FENGYUN_3D_rec.log

#Pass ID: 20260126_115954_FENGYUN 3D
#Satellite: FENGYUN 3D
#Configuration: FENGYUN 3D
#almurnet v.1.7.20251203
#Start time: 2026-01-26 11:59:54

#Version: 2.2.20231116
#Station: R3.2S_Murmansk
#Location: 33.079688 lon 68.888172 lat
#TLE: 1 43010U 17072A   26025.99795741 -.00000136  00000+0 -42313-4 0  9999
#TLE: 2 43010  98.9962 357.9855 0002515  89.6991 270.4472 14.19699257424818

#Time	Az	El	Level	Level2	SNR	BER	BlckErr	Temp	State	Recorded	gain1	gain2
2026-01-26 11:59:54.23	161.53	1.99	-54.1	-66.1	3.8	8.45e-01	0	41	0	0	79	14543
2026-01-26 11:59:55.22	161.54	2.06	-54.1	-66.1	3.8	8.46e-01	0	41	104	0	78	15452
2026-01-26 11:59:56.23	161.56	2.12	-54.1	-66.1	3.8	8.46e-01	0	41	104	0	78	15481
2026-01-26 11:59:57.24	161.57	2.19	-54.1	-66.0	3.8	8.46e-01	0	41	104	0	78	15338
2026-01-26 11:59:58.24	161.59	2.25	-54.1	-66.0	3.8	8.47e-01	0	41	104	0	78	15359
2026-01-26 11:59:59.25	161.60	2.32	-54.1	-66.0	3.8	8.45e-01	0	41	104	0	78	15371
2026-01-26 12:00:00.26	161.62	2.38	-54.1	-66.0	3.8	8.45e-01	0	41	104	0	78	15368
2026-01-26 12:00:01.27	161.63	2.45	-54.1	-66.0	3.8	8.47e-01	0	41	104	0	78	15359
2026-01-26 12:00:02.28	161.65	2.51	-54.1	-66.0	3.8	8.46e-01	0	42	104	0	78	15401
2026-01-26 12:00:03.28	161.66	2.58	-54.2	-66.2	3.8	8.46e-01	0	42	104	0	79	14765
2026-01-26 12:00:04.29	161.68	2.64	-54.3	-66.2	3.8	8.47e-01	0	42	104	0	79	14863
2026-01-26 12:00:05.30	161.70	2.71	-54.3	-66.2	3.8	8.46e-01	0	42	104	0	79	14801
2026-01-26 12:00:06.31	161.71	2.78	-54.2	-66.2	3.8	8.46e-01	0	42	104	0	79	14782
2026-01-26 12:00:07.31	161.73	2.84	-54.2	-66.2	3.8	8.46e-01	0	42	104	0	79	14725
2026-01-26 12:00:08.32	161.74	2.91	-54.2	-66.2	3.8	8.46e-01	0	42	104	0	79	14722
2026-01-26 12:00:09.33	161.76	2.98	-54.2	-66.1	3.8	8.46e-01	0	42	104	0	79	14620
2026-01-26 12:00:10.34	161.77	3.04	-54.1	-66.1	3.8	8.45e-01	0	42	104	0	79	14620
2026-01-26 12:00:11.35	161.79	3.11	-54.1	-66.0	3.8	8.46e-01	0	42	104	0	79	14539
2026-01-26 12:00:12.35	161.80	3.18	-54.1	-66.0	3.8	8.48e-01	0	42	104	0	79	14494
2026-01-26 12:00:13.36	161.82	3.24	-54.0	-65.9	3.8	8.46e-01	0	42	104	0	79	14359
2026-01-26 12:00:14.37	161.84	3.31	-53.9	-65.9	3.8	8.46e-01	0	42	104	0	79	14237
2026-01-26 12:00:15.38	161.85	3.38	-53.9	-65.8	3.8	8.46e-01	0	42	104	0	79	14151
2026-01-26 12:00:16.39	161.87	3.45	-53.8	-65.7	3.8	8.46e-01	0	42	104	0	79	14018
2026-01-26 12:00:17.39	161.88	3.51	-53.8	-65.7	3.8	8.46e-01	0	42	104	0	79	13977
2026-01-26 12:00:18.40	161.90	3.58	-53.7	-65.6	3.8	8.45e-01	0	42	104	0	79	13842
2026-01-26 12:00:19.41	161.92	3.65	-53.6	-65.5	3.8	8.48e-01	0	42	104	0	79	13706
2026-01-26 12:00:20.41	161.93	3.72	-53.5	-65.5	3.8	8.45e-01	0	42	104	0	78	14386
2026-01-26 12:00:21.43	161.95	3.79	-53.4	-65.3	3.8	8.47e-01	0	42	104	0	78	14159
2026-01-26 12:00:22.43	161.97	3.86	-53.3	-65.1	3.8	8.46e-01	0	42	104	0	78	13878
2026-01-26 12:00:23.44	161.98	3.93	-53.0	-65.0	3.8	8.45e-01	0	42	104	0	78	13573
2026-01-26 12:00:24.44	162.00	3.99	-52.7	-64.6	3.8	8.46e-01	0	42	104	0	77	13861
2026-01-26 12:00:25.45	162.02	4.06	-50.3	-54.2	8.8	8.26e-01	0	42	104	0	72	5583
2026-01-26 12:00:26.45	162.03	4.13	-49.3	-52.3	11.0	4.14e-03	0	42	0	5242880	70	5005
2026-01-26 12:00:27.46	162.05	4.20	-48.2	-50.6	12.8	1.59e-04	0	42	0	10485760	68	4608
2026-01-26 12:00:28.46	162.07	4.27	-47.2	-49.2	14.1	1.10e-06	0	42	0	15728640	65	4686
2026-01-26 12:00:29.47	162.08	4.34	-46.3	-48.0	15.3	0.00e+00	0	42	0	22020096	64	4305
2026-01-26 12:00:30.48	162.10	4.41	-45.5	-47.0	16.5	0.00e+00	0	42	0	27262976	63	4056
2026-01-26 12:00:31.49	162.12	4.48	-44.6	-45.9	17.5	0.00e+00	0	42	0	32505856	60	4263
2026-01-26 12:00:32.49	162.13	4.55	-44.3	-45.5	17.9	0.00e+00	0	42	0	38797312	60	4079
2026-01-26 12:00:33.50	162.15	4.62	-44.2	-45.4	18.3	0.00e+00	0	42	0	44040192	59	4248
2026-01-26 12:00:34.51	162.17	4.69	-43.9	-45.1	18.6	0.00e+00	0	42	0	49283072	59	4100
2026-01-26 12:00:35.51	162.19	4.76	-43.7	-44.8	18.9	0.00e+00	0	42	0	55574528	59	3981
2026-01-26 12:00:36.53	162.20	4.84	-43.2	-44.3	19.3	0.00e+00	0	42	0	60817408	58	4000
2026-01-26 12:00:37.53	162.22	4.91	-43.6	-44.8	18.9	0.00e+00	0	42	0	67108864	58	4194
2026-01-26 12:00:38.54	162.24	4.98	-43.9	-45.0	18.6	0.00e+00	0	42	0	72351744	58	4338
2026-01-26 12:00:39.55	162.26	5.05	-43.9	-45.1	18.6	0.00e+00	0	42	0	78643200	58	4359
2026-01-26 12:00:40.56	162.27	5.12	-45.0	-46.4	17.1	0.00e+00	0	43	0	83886080	60	4499
2026-01-26 12:00:41.56	162.29	5.20	-44.1	-45.3	18.4	0.00e+00	0	42	0	90177536	59	4233
2026-01-26 12:00:42.57	162.31	5.27	-44.2	-45.4	18.1	0.00e+00	0	42	0	95420416	60	4031
2026-01-26 12:00:43.58	162.33	5.34	-44.5	-45.8	18.0	0.00e+00	0	43	0	100663296	59	4464
2026-01-26 12:00:44.58	162.34	5.41	-45.7	-47.1	16.1	1.03e-02	0	42	0	106954752	63	4139
2026-01-26 12:00:45.59	162.36	5.49	-43.6	-44.8	18.9	0.00e+00	0	42	0	112197632	59	3960
2026-01-26 12:00:46.60	162.38	5.56	-43.4	-44.5	19.1	0.00e+00	0	43	0	117440512	58	4090
2026-01-26 12:00:47.61	162.40	5.63	-43.3	-44.3	19.4	0.00e+00	0	42	0	123731968	58	3994
2026-01-26 12:00:48.62	162.42	5.71	-43.3	-44.3	19.3	0.00e+00	0	43	0	128974848	57	4242
2026-01-26 12:00:49.62	162.43	5.78	-43.1	-44.2	19.5	0.00e+00	0	42	0	134217728	57	4148
2026-01-26 12:00:50.63	162.45	5.85	-43.1	-44.1	19.6	0.00e+00	0	42	0	140509184	57	4129
2026-01-26 12:00:51.64	162.47	5.93	-43.2	-44.3	19.4	0.00e+00	0	43	0	146800640	57	4226
2026-01-26 12:00:52.65	162.49	6.00	-43.0	-44.1	19.6	0.00e+00	0	43	0	152043520	57	4117
2026-01-26 12:00:53.65	162.51	6.08	-42.9	-43.9	19.8	0.00e+00	0	42	0	157286400	57	4036
2026-01-26 12:00:54.65	162.53	6.15	-42.9	-44.0	19.7	0.00e+00	0	42	0	163577856	57	4073
2026-01-26 12:00:55.66	162.55	6.23	-43.2	-44.2	19.5	0.00e+00	0	43	0	168820736	57	4175
2026-01-26 12:00:56.67	162.56	6.30	-42.9	-43.9	19.8	0.00e+00	0	43	0	175112192	57	4042
2026-01-26 12:00:57.68	162.58	6.38	-42.8	-43.9	19.9	0.00e+00	0	43	0	180355072	57	4008
2026-01-26 12:00:58.68	162.60	6.45	-43.0	-44.0	19.8	0.00e+00	0	43	0	185597952	57	4075
2026-01-26 12:00:59.69	162.62	6.53	-42.9	-43.9	19.8	0.00e+00	0	43	0	191889408	57	4035
2026-01-26 12:01:00.69	162.64	6.60	-42.6	-43.6	20.2	0.00e+00	0	42	0	197132288	57	3887
2026-01-26 12:01:01.70	162.66	6.68	-42.6	-43.6	20.1	0.00e+00	0	43	0	202375168	57	3910
2026-01-26 12:01:02.71	162.68	6.76	-42.7	-43.8	20.0	0.00e+00	0	43	0	208666624	56	4196
2026-01-26 12:01:03.71	162.70	6.83	-42.6	-43.6	20.2	0.00e+00	0	43	0	213909504	56	4123
2026-01-26 12:01:04.72	162.72	6.91	-42.4	-43.3	20.4	0.00e+00	0	43	0	219152384	56	3998
2026-01-26 12:01:05.72	162.74	6.99	-42.8	-43.8	20.0	0.00e+00	0	43	0	225443840	56	4235
2026-01-26 12:01:06.73	162.76	7.07	-42.7	-43.7	20.1	0.00e+00	0	43	0	231735296	56	4186
2026-01-26 12:01:07.74	162.78	7.14	-42.6	-43.6	20.2	0.00e+00	0	43	0	236978176	56	4100
2026-01-26 12:01:08.75	162.80	7.22	-42.6	-43.6	20.2	0.00e+00	0	43	0	242221056	56	4115
2026-01-26 12:01:09.76	162.82	7.30	-42.6	-43.6	20.2	0.00e+00	0	43	0	248512512	56	4138
2026-01-26 12:01:10.76	162.84	7.38	-42.5	-43.5	20.3	0.00e+00	0	43	0	253755392	56	4069
2026-01-26 12:01:11.77	162.86	7.46	-42.6	-43.6	20.3	0.00e+00	0	43	0	260046848	56	4102
2026-01-26 12:01:12.77	162.88	7.54	-42.6	-43.6	20.3	0.00e+00	0	43	0	265289728	56	4099
2026-01-26 12:01:13.78	162.90	7.62	-42.4	-43.4	20.4	0.00e+00	0	43	0	270532608	56	4010
2026-01-26 12:01:14.79	162.92	7.70	-42.3	-43.3	20.4	0.00e+00	0	43	0	276824064	55	4208
2026-01-26 12:01:15.79	162.94	7.77	-42.3	-43.2	20.5	0.00e+00	0	43	0	282066944	55	4180
2026-01-26 12:01:16.80	162.96	7.85	-42.3	-43.2	20.5	0.00e+00	0	43	0	287309824	55	4184
2026-01-26 12:01:17.80	162.98	7.93	-42.2	-43.2	20.6	0.00e+00	0	43	0	293601280	55	4172
2026-01-26 12:01:18.81	163.00	8.01	-42.1	-43.0	20.7	0.00e+00	0	43	0	298844160	55	4095
2026-01-26 12:01:19.81	163.02	8.09	-42.1	-43.1	20.7	0.00e+00	0	43	0	304087040	55	4119
2026-01-26 12:01:20.82	163.04	8.18	-42.2	-43.2	20.6	0.00e+00	0	43	0	310378496	55	4164
2026-01-26 12:01:21.83	163.06	8.26	-42.2	-43.1	20.7	0.00e+00	0	43	0	316669952	55	4135
2026-01-26 12:01:22.84	163.08	8.34	-42.1	-43.1	20.7	0.00e+00	0	43	0	321912832	55	4107
2026-01-26 12:01:23.84	163.10	8.42	-42.2	-43.1	20.6	0.00e+00	0	43	0	327155712	55	4140
2026-01-26 12:01:24.85	163.13	8.50	-42.0	-43.0	20.8	0.00e+00	0	43	0	333447168	55	4054
2026-01-26 12:01:25.86	163.15	8.58	-42.0	-42.9	20.9	0.00e+00	0	43	0	338690048	55	4049
2026-01-26 12:01:26.86	163.17	8.67	-42.0	-43.0	20.8	0.00e+00	0	43	0	344981504	55	4057
2026-01-26 12:01:27.87	163.19	8.75	-42.0	-42.9	20.9	0.00e+00	0	43	0	350224384	55	4038
2026-01-26 12:01:28.88	163.21	8.83	-42.1	-43.1	20.7	0.00e+00	0	43	0	355467264	55	4124
2026-01-26 12:01:29.88	163.23	8.92	-42.0	-42.9	20.9	0.00e+00	0	43	0	361758720	55	4042
2026-01-26 12:01:30.89	163.26	9.00	-42.0	-42.9	20.8	0.00e+00	0	43	0	367001600	55	4051
2026-01-26 12:01:31.90	163.28	9.08	-42.0	-43.0	20.9	0.00e+00	0	43	0	372244480	55	4059
2026-01-26 12:01:32.90	163.30	9.17	-42.0	-42.9	20.9	0.00e+00	0	43	0	378535936	55	4044
2026-01-26 12:01:33.91	163.32	9.25	-42.0	-42.9	21.0	0.00e+00	0	43	0	383778816	55	4028
2026-01-26 12:01:34.92	163.34	9.34	-41.8	-42.8	21.1	0.00e+00	0	43	0	389021696	55	3961
2026-01-26 12:01:35.92	163.37	9.42	-41.7	-42.6	21.2	0.00e+00	0	43	0	395313152	55	3907
2026-01-26 12:01:36.93	163.39	9.51	-41.8	-42.8	21.1	0.00e+00	0	43	0	400556032	55	3965
2026-01-26 12:01:37.93	163.41	9.59	-41.9	-42.8	21.0	0.00e+00	0	43	0	406847488	55	3996
2026-01-26 12:01:38.94	163.43	9.68	-41.9	-42.8	21.0	0.00e+00	0	43	0	412090368	55	4004
2026-01-26 12:01:39.95	163.46	9.76	-41.8	-42.7	21.2	0.00e+00	0	43	0	418381824	55	3938
2026-01-26 12:01:40.96	163.48	9.85	-41.9	-42.8	21.1	0.00e+00	0	43	0	423624704	55	3975
2026-01-26 12:01:41.97	163.50	9.94	-41.8	-42.8	21.1	0.00e+00	0	43	0	429916160	55	3961
2026-01-26 12:01:42.97	163.53	10.02	-41.9	-42.8	21.1	0.00e+00	0	43	0	435159040	55	3975
2026-01-26 12:01:43.98	163.55	10.11	-41.8	-42.7	21.2	0.00e+00	0	43	0	440401920	55	3942
2026-01-26 12:01:44.98	163.57	10.20	-41.8	-42.8	21.2	0.00e+00	0	43	0	446693376	55	3964
2026-01-26 12:01:45.99	163.60	10.29	-41.7	-42.6	21.3	0.00e+00	0	43	0	451936256	55	3901
2026-01-26 12:01:46.99	163.62	10.38	-41.7	-42.6	21.3	0.00e+00	0	43	0	457179136	55	3893
2026-01-26 12:01:48.00	163.64	10.46	-41.8	-42.7	21.2	0.00e+00	0	43	0	463470592	55	3942
2026-01-26 12:01:49.01	163.67	10.55	-41.7	-42.6	21.3	0.00e+00	0	43	0	468713472	55	3898
2026-01-26 12:01:50.02	163.69	10.64	-41.8	-42.7	21.3	0.00e+00	0	43	0	473956352	55	3932
2026-01-26 12:01:51.03	163.72	10.73	-41.7	-42.7	21.3	0.00e+00	0	43	0	480247808	55	3926
2026-01-26 12:01:52.04	163.74	10.82	-41.7	-42.7	21.3	0.00e+00	0	43	0	486539264	55	3915
2026-01-26 12:01:53.04	163.77	10.91	-41.7	-42.6	21.3	0.00e+00	0	43	0	491782144	55	3912
2026-01-26 12:01:54.05	163.79	11.00	-41.8	-42.7	21.2	0.00e+00	0	43	0	497025024	55	3947
2026-01-26 12:01:55.06	163.81	11.09	-41.8	-42.8	21.2	0.00e+00	0	43	0	503316480	55	3972
2026-01-26 12:01:56.07	163.84	11.19	-41.9	-42.8	21.2	0.00e+00	0	43	0	508559360	55	3979
2026-01-26 12:01:57.08	163.86	11.28	-41.7	-42.6	21.4	0.00e+00	0	43	0	514850816	55	3884
2026-01-26 12:01:58.08	163.89	11.37	-41.6	-42.5	21.5	0.00e+00	0	43	0	520093696	55	3858
2026-01-26 12:01:59.09	163.91	11.46	-41.6	-42.5	21.4	0.00e+00	0	43	0	525336576	55	3856
2026-01-26 12:02:00.10	163.94	11.56	-41.6	-42.5	21.4	0.00e+00	0	43	0	531628032	55	3864
2026-01-26 12:02:01.11	163.97	11.65	-41.6	-42.6	21.4	0.00e+00	0	43	0	536870912	55	3872
2026-01-26 12:02:02.11	163.99	11.74	-41.7	-42.6	21.3	0.00e+00	0	43	0	542113792	55	3904
2026-01-26 12:02:03.12	164.02	11.83	-41.6	-42.5	21.4	0.00e+00	0	43	0	548405248	55	3858
2026-01-26 12:02:04.12	164.04	11.93	-41.5	-42.4	21.5	0.00e+00	0	43	0	553648128	55	3814
2026-01-26 12:02:05.13	164.07	12.02	-41.4	-42.3	21.6	0.00e+00	0	43	0	559939584	54	4002
2026-01-26 12:02:06.14	164.10	12.12	-41.4	-42.3	21.6	0.00e+00	0	43	0	565182464	54	3981
2026-01-26 12:02:07.15	164.12	12.21	-41.6	-42.5	21.5	0.00e+00	0	43	0	571473920	54	4064
2026-01-26 12:02:08.16	164.15	12.31	-41.4	-42.3	21.6	0.00e+00	0	43	0	576716800	54	3986
2026-01-26 12:02:09.17	164.18	12.41	-41.4	-42.3	21.6	0.00e+00	0	43	0	581959680	54	3981
2026-01-26 12:02:10.17	164.20	12.50	-41.4	-42.3	21.7	0.00e+00	0	43	0	588251136	54	3965
2026-01-26 12:02:11.18	164.23	12.60	-41.5	-42.4	21.5	0.00e+00	0	43	0	593494016	54	4046
2026-01-26 12:02:12.18	164.26	12.69	-41.4	-42.3	21.7	0.00e+00	0	43	0	599785472	54	3977
2026-01-26 12:02:13.19	164.28	12.79	-41.3	-42.3	21.7	0.00e+00	0	43	0	605028352	54	3962
2026-01-26 12:02:14.20	164.31	12.89	-41.4	-42.3	21.7	0.00e+00	0	43	0	610271232	54	3964
2026-01-26 12:02:15.20	164.34	12.99	-41.3	-42.2	21.8	0.00e+00	0	43	0	616562688	54	3935
2026-01-26 12:02:16.21	164.37	13.09	-41.3	-42.2	21.7	0.00e+00	0	43	0	621805568	54	3953
2026-01-26 12:02:17.21	164.39	13.18	-41.3	-42.2	21.8	0.00e+00	0	43	0	627048448	54	3914
2026-01-26 12:02:18.22	164.42	13.28	-41.3	-42.2	21.8	0.00e+00	0	43	0	633339904	54	3917
2026-01-26 12:02:19.23	164.45	13.38	-41.1	-42.0	21.9	0.00e+00	0	43	0	638582784	54	3847
2026-01-26 12:02:20.23	164.48	13.48	-41.1	-42.0	21.9	0.00e+00	0	43	0	643825664	54	3853
2026-01-26 12:02:21.23	164.51	13.58	-41.0	-41.9	22.0	0.00e+00	0	43	0	650117120	54	3816
2026-01-26 12:02:22.24	164.54	13.68	-41.1	-41.9	22.0	0.00e+00	0	43	0	656408576	54	3824
2026-01-26 12:02:23.25	164.56	13.79	-41.1	-41.9	22.0	0.00e+00	0	43	0	661651456	54	3822
2026-01-26 12:02:24.25	164.59	13.89	-41.1	-41.9	22.0	0.00e+00	0	43	0	666894336	54	3819
2026-01-26 12:02:25.26	164.62	13.99	-40.9	-41.8	22.2	0.00e+00	0	43	0	673185792	53	3959
2026-01-26 12:02:26.27	164.65	14.09	-40.9	-41.7	22.2	0.00e+00	0	43	0	678428672	53	3953
2026-01-26 12:02:27.28	164.68	14.20	-40.9	-41.7	22.2	0.00e+00	0	43	0	684720128	53	3947
2026-01-26 12:02:28.28	164.71	14.30	-40.8	-41.6	22.3	0.00e+00	0	43	0	689963008	53	3910
2026-01-26 12:02:29.29	164.74	14.40	-40.7	-41.5	22.4	0.00e+00	0	43	0	695205888	53	3855
2026-01-26 12:02:30.29	164.77	14.51	-40.7	-41.5	22.4	0.00e+00	0	43	0	701497344	53	3860
2026-01-26 12:02:31.30	164.80	14.61	-40.6	-41.5	22.5	0.00e+00	0	43	0	706740224	53	3838
2026-01-26 12:02:32.31	164.83	14.72	-40.6	-41.4	22.5	0.00e+00	0	43	0	711983104	53	3814
2026-01-26 12:02:33.31	164.86	14.82	-40.5	-41.4	22.6	0.00e+00	0	43	0	718274560	53	3790
2026-01-26 12:02:34.32	164.89	14.93	-40.6	-41.5	22.5	0.00e+00	0	43	0	723517440	53	3825
2026-01-26 12:02:35.32	164.93	15.04	-40.4	-41.2	22.7	0.00e+00	0	43	0	729808896	52	3939
2026-01-26 12:02:36.33	164.96	15.14	-40.4	-41.3	22.7	0.00e+00	0	43	0	735051776	52	3970
2026-01-26 12:02:37.34	164.99	15.25	-40.3	-41.2	22.8	0.00e+00	0	43	0	741343232	52	3923
2026-01-26 12:02:38.35	165.02	15.36	-40.2	-41.1	22.9	0.00e+00	0	43	0	746586112	52	3879
2026-01-26 12:02:39.35	165.05	15.47	-40.1	-40.9	23.0	0.00e+00	0	43	0	751828992	52	3823
2026-01-26 12:02:40.36	165.08	15.58	-40.1	-40.9	23.0	0.00e+00	0	43	0	758120448	52	3812
2026-01-26 12:02:41.36	165.12	15.68	-40.1	-40.9	23.0	0.00e+00	0	43	0	763363328	52	3821
2026-01-26 12:02:42.37	165.15	15.79	-40.1	-40.9	23.0	0.00e+00	0	43	0	769654784	52	3823
2026-01-26 12:02:43.38	165.18	15.91	-40.1	-40.9	23.1	0.00e+00	0	43	0	774897664	51	4040
2026-01-26 12:02:44.38	165.21	16.02	-40.2	-41.0	23.0	0.00e+00	0	43	0	780140544	51	4078
2026-01-26 12:02:45.39	165.25	16.13	-40.1	-40.9	23.1	0.00e+00	0	43	0	786432000	51	4009
2026-01-26 12:02:46.40	165.28	16.24	-40.1	-40.9	23.2	0.00e+00	0	43	0	791674880	51	4014
2026-01-26 12:02:47.41	165.32	16.35	-40.0	-40.8	23.2	0.00e+00	0	43	0	796917760	51	3980
2026-01-26 12:02:48.41	165.35	16.47	-40.0	-40.9	23.2	0.00e+00	0	43	0	803209216	51	4005
2026-01-26 12:02:49.42	165.38	16.58	-39.8	-40.6	23.4	0.00e+00	0	43	0	808452096	51	3888
2026-01-26 12:02:50.43	165.42	16.69	-39.8	-40.6	23.4	0.00e+00	0	43	0	814743552	51	3892
2026-01-26 12:02:51.43	165.45	16.81	-39.8	-40.5	23.5	0.00e+00	0	43	0	819986432	51	3867
2026-01-26 12:02:52.44	165.49	16.92	-39.8	-40.6	23.5	0.00e+00	0	43	0	826277888	51	3882
2026-01-26 12:02:53.44	165.52	17.04	-39.7	-40.5	23.5	0.00e+00	0	43	0	831520768	51	3832
2026-01-26 12:02:54.44	165.56	17.15	-39.7	-40.5	23.5	0.00e+00	0	43	0	837812224	51	3838
2026-01-26 12:02:55.45	165.59	17.27	-39.7	-40.5	23.5	0.00e+00	0	43	0	843055104	51	3835
2026-01-26 12:02:56.46	165.63	17.39	-39.7	-40.5	23.5	0.00e+00	0	43	0	848297984	51	3839
2026-01-26 12:02:57.46	165.66	17.50	-39.8	-40.6	23.5	0.00e+00	0	43	0	854589440	51	3871
2026-01-26 12:02:58.47	165.70	17.62	-39.6	-40.4	23.6	0.00e+00	0	43	0	859832320	51	3788
2026-01-26 12:02:59.47	165.74	17.74	-39.7	-40.4	23.6	0.00e+00	0	43	0	865075200	51	3822
2026-01-26 12:03:00.48	165.77	17.86	-39.5	-40.3	23.7	0.00e+00	0	43	0	871366656	51	3757
2026-01-26 12:03:01.49	165.81	17.98	-39.5	-40.2	23.8	0.00e+00	0	43	0	876609536	50	3949
2026-01-26 12:03:02.49	165.85	18.10	-39.5	-40.2	23.8	0.00e+00	0	43	0	881852416	50	3951
2026-01-26 12:03:03.50	165.89	18.22	-39.4	-40.2	23.8	0.00e+00	0	43	0	888143872	50	3935
2026-01-26 12:03:04.51	165.92	18.35	-39.4	-40.2	23.8	0.00e+00	0	43	0	893386752	50	3922
2026-01-26 12:03:05.52	165.96	18.47	-39.4	-40.2	23.8	0.00e+00	0	43	0	899678208	50	3943
2026-01-26 12:03:06.52	166.00	18.59	-39.4	-40.2	23.8	0.00e+00	0	44	0	904921088	50	3941
2026-01-26 12:03:07.53	166.04	18.71	-39.4	-40.1	23.9	0.00e+00	0	43	0	910163968	50	3911
2026-01-26 12:03:08.53	166.08	18.84	-39.4	-40.1	23.9	0.00e+00	0	43	0	916455424	50	3900
2026-01-26 12:03:09.54	166.12	18.96	-39.4	-40.2	23.8	0.00e+00	0	43	0	922746880	50	3924
2026-01-26 12:03:10.55	166.16	19.09	-39.5	-40.2	23.8	0.00e+00	0	44	0	927989760	50	3957
2026-01-26 12:03:11.55	166.20	19.21	-39.3	-40.1	23.9	0.00e+00	0	43	0	933232640	50	3883
2026-01-26 12:03:12.56	166.24	19.34	-39.3	-40.0	24.0	0.00e+00	0	43	0	939524096	50	3857
2026-01-26 12:03:13.57	166.28	19.47	-39.2	-40.0	23.9	0.00e+00	0	43	0	944766976	50	3846
2026-01-26 12:03:14.57	166.32	19.60	-39.2	-39.9	24.1	0.00e+00	0	43	0	950009856	50	3805
2026-01-26 12:03:15.58	166.36	19.73	-39.1	-39.9	24.1	0.00e+00	0	43	0	956301312	50	3796
2026-01-26 12:03:16.59	166.40	19.86	-39.1	-39.9	24.1	0.00e+00	0	43	0	961544192	50	3784
2026-01-26 12:03:17.59	166.44	19.98	-39.0	-39.8	24.2	0.00e+00	0	43	0	966787072	50	3753
2026-01-26 12:03:18.59	166.48	20.11	-39.1	-39.8	24.2	0.00e+00	0	43	0	973078528	50	3770
2026-01-26 12:03:19.59	166.53	20.24	-39.1	-39.9	24.1	0.00e+00	0	43	0	978321408	50	3784
2026-01-26 12:03:20.60	166.57	20.38	-38.9	-39.7	24.3	0.00e+00	0	43	0	984612864	49	3918
2026-01-26 12:03:21.61	166.61	20.51	-38.9	-39.7	24.2	0.00e+00	0	43	0	989855744	49	3928
2026-01-26 12:03:22.61	166.65	20.64	-38.9	-39.7	24.3	0.00e+00	0	43	0	995098624	49	3925
2026-01-26 12:03:23.62	166.70	20.78	-38.9	-39.6	24.3	0.00e+00	0	43	0	1001390080	49	3907
2026-01-26 12:03:24.63	166.74	20.91	-39.0	-39.7	24.2	0.00e+00	0	44	0	1006632960	49	3953
2026-01-26 12:03:25.63	166.79	21.05	-38.9	-39.6	24.3	0.00e+00	0	43	0	1012924416	49	3907
2026-01-26 12:03:26.64	166.83	21.18	-38.9	-39.6	24.3	0.00e+00	0	43	0	1018167296	49	3894
2026-01-26 12:03:27.64	166.88	21.32	-38.9	-39.6	24.3	0.00e+00	0	44	0	1024458752	49	3902
2026-01-26 12:03:28.65	166.92	21.46	-38.9	-39.6	24.3	0.00e+00	0	43	0	1029701632	49	3894
2026-01-26 12:03:29.65	166.97	21.60	-38.9	-39.6	24.3	0.00e+00	0	43	0	1034944512	49	3896
2026-01-26 12:03:30.66	167.01	21.73	-38.8	-39.5	24.4	0.00e+00	0	43	0	1041235968	49	3867
2026-01-26 12:03:31.66	167.06	21.87	-38.7	-39.5	24.5	0.00e+00	0	43	0	1046478848	49	3828
2026-01-26 12:03:32.66	167.11	22.01	-38.7	-39.5	24.5	0.00e+00	0	43	0	1051721728	49	3826
2026-01-26 12:03:33.67	167.15	22.16	-38.7	-39.4	24.4	0.00e+00	0	43	0	1058013184	49	3817
2026-01-26 12:03:34.67	167.20	22.30	-38.6	-39.4	24.4	0.00e+00	0	43	0	1063256064	49	3805
2026-01-26 12:03:35.68	167.25	22.44	-38.7	-39.4	24.5	0.00e+00	0	43	0	1069547520	49	3806
2026-01-26 12:03:36.68	167.30	22.58	-38.7	-39.4	24.5	0.00e+00	0	43	0	1074790400	49	3821
2026-01-26 12:03:37.69	167.35	22.73	-38.8	-39.6	24.4	0.00e+00	0	43	0	1080033280	49	3869
2026-01-26 12:03:38.70	167.40	22.87	-38.8	-39.6	24.4	0.00e+00	0	43	0	1086324736	49	3876
2026-01-26 12:03:39.71	167.45	23.02	-38.8	-39.5	24.4	0.00e+00	0	43	0	1091567616	49	3861
2026-01-26 12:03:40.72	167.50	23.17	-38.7	-39.5	24.5	0.00e+00	0	43	0	1096810496	49	3835
2026-01-26 12:03:41.73	167.55	23.32	-38.8	-39.5	24.4	0.00e+00	0	43	0	1103101952	49	3865
2026-01-26 12:03:42.73	167.60	23.46	-38.6	-39.4	24.6	0.00e+00	0	43	0	1109393408	49	3799
2026-01-26 12:03:43.74	167.65	23.61	-38.6	-39.4	24.5	0.00e+00	0	43	0	1114636288	49	3799
2026-01-26 12:03:44.74	167.70	23.76	-38.6	-39.4	24.5	0.00e+00	0	43	0	1119879168	49	3798
2026-01-26 12:03:45.75	167.76	23.92	-38.6	-39.3	24.6	0.00e+00	0	43	0	1126170624	49	3774
2026-01-26 12:03:46.76	167.81	24.07	-38.5	-39.3	24.7	0.00e+00	0	43	0	1131413504	49	3743
2026-01-26 12:03:47.77	167.86	24.22	-38.4	-39.2	24.7	0.00e+00	0	43	0	1136656384	48	3927
2026-01-26 12:03:48.77	167.92	24.37	-38.5	-39.3	24.7	0.00e+00	0	43	0	1142947840	48	3961
2026-01-26 12:03:49.78	167.97	24.53	-38.4	-39.2	24.7	0.00e+00	0	43	0	1148190720	48	3930
2026-01-26 12:03:50.79	168.03	24.68	-38.4	-39.2	24.8	0.00e+00	0	43	0	1154482176	48	3916
2026-01-26 12:03:51.80	168.08	24.84	-38.4	-39.1	24.8	0.00e+00	0	44	0	1159725056	48	3905
2026-01-26 12:03:52.80	168.14	25.00	-38.3	-39.0	24.9	0.00e+00	0	43	0	1164967936	48	3860
2026-01-26 12:03:53.81	168.19	25.16	-38.3	-39.0	24.9	0.00e+00	0	43	0	1171259392	48	3850
2026-01-26 12:03:54.81	168.25	25.32	-38.4	-39.1	24.8	0.00e+00	0	43	0	1176502272	48	3893
2026-01-26 12:03:55.82	168.31	25.48	-38.4	-39.1	24.8	0.00e+00	0	43	0	1181745152	48	3900
2026-01-26 12:03:56.83	168.37	25.64	-38.3	-39.1	24.9	0.00e+00	0	44	0	1188036608	48	3875
2026-01-26 12:03:57.83	168.43	25.80	-38.3	-39.1	24.8	0.00e+00	0	43	0	1194328064	48	3886
2026-01-26 12:03:58.84	168.49	25.96	-38.5	-39.2	24.7	0.00e+00	0	43	0	1199570944	48	3945
2026-01-26 12:03:59.84	168.54	26.13	-38.4	-39.1	24.8	0.00e+00	0	43	0	1204813824	48	3899
2026-01-26 12:04:00.85	168.61	26.29	-38.3	-39.1	24.9	0.00e+00	0	43	0	1211105280	48	3883
2026-01-26 12:04:01.86	168.67	26.46	-38.4	-39.1	24.8	0.00e+00	0	43	0	1216348160	48	3913
2026-01-26 12:04:02.87	168.73	26.62	-38.4	-39.1	24.8	0.00e+00	0	43	0	1221591040	48	3901
2026-01-26 12:04:03.88	168.79	26.79	-38.3	-39.1	24.9	0.00e+00	0	43	0	1227882496	48	3873
2026-01-26 12:04:04.89	168.85	26.96	-38.2	-39.0	25.0	0.00e+00	0	43	0	1233125376	48	3826
2026-01-26 12:04:05.89	168.92	27.13	-38.3	-39.0	24.9	0.00e+00	0	43	0	1239416832	48	3856
2026-01-26 12:04:06.90	168.98	27.30	-38.3	-39.0	25.0	0.00e+00	0	43	0	1244659712	48	3843
2026-01-26 12:04:07.91	169.05	27.48	-38.1	-38.8	25.1	0.00e+00	0	43	0	1249902592	48	3761
2026-01-26 12:04:08.92	169.11	27.65	-38.1	-38.8	25.1	0.00e+00	0	43	0	1256194048	48	3751
2026-01-26 12:04:09.93	169.18	27.82	-38.1	-38.8	25.1	0.00e+00	0	43	0	1261436928	48	3779
2026-01-26 12:04:10.93	169.24	28.00	-38.1	-38.8	25.1	0.00e+00	0	43	0	1266679808	48	3776
2026-01-26 12:04:11.94	169.31	28.18	-38.2	-39.0	25.0	0.00e+00	0	43	0	1272971264	48	3833
2026-01-26 12:04:12.95	169.38	28.35	-38.2	-38.9	25.0	0.00e+00	0	43	0	1279262720	48	3805
2026-01-26 12:04:13.95	169.45	28.53	-38.3	-39.1	24.9	0.00e+00	0	43	0	1284505600	48	3869
2026-01-26 12:04:14.96	169.52	28.71	-38.3	-39.0	24.9	0.00e+00	0	43	0	1289748480	48	3849
2026-01-26 12:04:15.97	169.59	28.89	-38.3	-39.0	24.9	0.00e+00	0	44	0	1296039936	48	3864
2026-01-26 12:04:16.98	169.66	29.07	-38.3	-39.0	24.9	0.00e+00	0	43	0	1301282816	48	3863
2026-01-26 12:04:17.99	169.73	29.26	-38.4	-39.2	24.8	0.00e+00	0	43	0	1306525696	48	3920
2026-01-26 12:04:19.00	169.81	29.44	-38.4	-39.1	24.9	0.00e+00	0	44	0	1312817152	48	3894
2026-01-26 12:04:20.00	169.88	29.63	-38.4	-39.2	24.8	0.00e+00	0	43	0	1318060032	48	3931
2026-01-26 12:04:21.01	169.95	29.81	-38.5	-39.2	24.8	0.00e+00	0	43	0	1324351488	48	3945
2026-01-26 12:04:22.01	170.03	30.00	-38.4	-39.2	24.8	0.00e+00	0	43	0	1329594368	48	3924
2026-01-26 12:04:23.02	170.10	30.19	-38.4	-39.2	24.8	0.00e+00	0	44	0	1334837248	48	3931
2026-01-26 12:04:24.03	170.18	30.38	-38.3	-39.1	24.9	0.00e+00	0	43	0	1341128704	48	3886
2026-01-26 12:04:25.03	170.26	30.57	-38.4	-39.1	24.8	0.00e+00	0	43	0	1347420160	48	3906
2026-01-26 12:04:26.04	170.34	30.76	-38.2	-38.9	25.0	0.00e+00	0	43	0	1352663040	48	3824
2026-01-26 12:04:27.05	170.42	30.96	-38.2	-38.9	25.0	0.00e+00	0	43	0	1357905920	48	3821
2026-01-26 12:04:28.05	170.50	31.15	-38.1	-38.8	25.1	0.00e+00	0	44	0	1364197376	48	3759
2026-01-26 12:04:29.06	170.58	31.35	-38.1	-38.9	25.1	0.00e+00	0	43	0	1369440256	48	3786
2026-01-26 12:04:30.06	170.66	31.55	-37.4	-38.2	25.1	0.00e+00	0	43	0	1374683136	46	3922
2026-01-26 12:04:31.07	170.74	31.75	-37.4	-38.1	25.2	0.00e+00	0	43	0	1380974592	46	3893
2026-01-26 12:04:32.08	170.83	31.95	-37.6	-38.4	25.0	0.00e+00	0	44	0	1386217472	46	4005
2026-01-26 12:04:33.09	170.91	32.15	-37.8	-38.5	24.9	0.00e+00	0	43	0	1391460352	46	4083
2026-01-26 12:04:34.10	171.00	32.35	-37.8	-38.5	24.8	0.00e+00	0	43	0	1397751808	46	4098
2026-01-26 12:04:35.10	171.09	32.55	-37.8	-38.6	24.8	0.00e+00	0	43	0	1402994688	46	4124
2026-01-26 12:04:36.11	171.17	32.76	-37.8	-38.6	24.8	0.00e+00	0	43	0	1409286144	46	4119
2026-01-26 12:04:37.12	171.26	32.97	-37.9	-38.7	24.7	0.00e+00	0	43	0	1414529024	46	4181
2026-01-26 12:04:38.13	171.35	33.18	-38.0	-38.7	24.7	0.00e+00	0	43	0	1420820480	46	4184
2026-01-26 12:04:39.13	171.45	33.38	-38.0	-38.8	24.7	0.00e+00	0	43	0	1426063360	46	4199
2026-01-26 12:04:40.14	171.54	33.60	-37.7	-38.5	24.9	0.00e+00	0	44	0	1432354816	46	4076
2026-01-26 12:04:41.15	171.63	33.81	-37.8	-38.5	24.9	0.00e+00	0	43	0	1437597696	46	4094
2026-01-26 12:04:42.16	171.73	34.02	-37.5	-38.3	25.1	0.00e+00	0	43	0	1442840576	46	3962
2026-01-26 12:04:43.17	171.82	34.24	-37.5	-38.2	25.2	0.00e+00	0	43	0	1449132032	46	3939
2026-01-26 12:04:44.18	171.92	34.46	-37.3	-38.0	25.3	0.00e+00	0	44	0	1454374912	46	3841
2026-01-26 12:04:45.18	172.02	34.67	-37.3	-38.1	25.3	0.00e+00	0	44	0	1459617792	46	3869
2026-01-26 12:04:46.18	172.12	34.89	-37.3	-38.0	25.3	0.00e+00	0	44	0	1465909248	46	3863
2026-01-26 12:04:47.19	172.22	35.11	-37.5	-38.2	25.1	0.00e+00	0	43	0	1471152128	46	3952
2026-01-26 12:04:48.20	172.32	35.33	-37.6	-38.3	25.1	0.00e+00	0	44	0	1476395008	46	3999
2026-01-26 12:04:49.20	172.43	35.56	-37.5	-38.2	25.2	0.00e+00	0	43	0	1482686464	46	3943
2026-01-26 12:04:50.21	172.53	35.78	-37.5	-38.2	25.5	0.00e+00	0	43	0	1487929344	46	3951
2026-01-26 12:04:51.22	172.64	36.01	-37.5	-38.1	25.6	0.00e+00	0	43	0	1494220800	46	3913
2026-01-26 12:04:52.22	172.75	36.24	-37.3	-38.0	25.7	0.00e+00	0	43	0	1499463680	46	3853
2026-01-26 12:04:53.23	172.86	36.47	-37.4	-38.2	25.6	0.00e+00	0	43	0	1505755136	46	3917
2026-01-26 12:04:54.24	172.97	36.70	-37.4	-38.1	25.6	0.00e+00	0	43	0	1510998016	46	3900
2026-01-26 12:04:55.25	173.08	36.93	-37.4	-38.1	25.7	0.00e+00	0	43	0	1517289472	46	3877
2026-01-26 12:04:56.26	173.20	37.17	-37.3	-38.0	25.8	0.00e+00	0	43	0	1522532352	46	3835
2026-01-26 12:04:57.27	173.31	37.40	-37.2	-37.9	25.8	0.00e+00	0	44	0	1527775232	46	3800
2026-01-26 12:04:58.28	173.43	37.64	-37.1	-37.8	25.9	0.00e+00	0	43	0	1534066688	46	3773
2026-01-26 12:04:59.29	173.55	37.88	-37.1	-37.8	25.9	0.00e+00	0	43	0	1539309568	46	3742
2026-01-26 12:05:00.30	173.67	38.12	-37.1	-37.8	25.9	0.00e+00	0	43	0	1544552448	46	3768
2026-01-26 12:05:01.31	173.79	38.36	-37.2	-37.9	25.9	0.00e+00	0	43	0	1550843904	46	3782
2026-01-26 12:05:02.31	173.92	38.61	-37.1	-37.7	26.0	0.00e+00	0	43	0	1556086784	46	3729
2026-01-26 12:05:03.31	174.04	38.85	-37.1	-37.8	25.9	0.00e+00	0	43	0	1561329664	46	3768
2026-01-26 12:05:04.32	174.17	39.10	-37.3	-38.0	25.8	0.00e+00	0	43	0	1567621120	46	3848
2026-01-26 12:05:05.33	174.30	39.35	-37.4	-38.1	25.7	0.00e+00	0	43	0	1572864000	46	3896
2026-01-26 12:05:06.33	174.43	39.60	-37.5	-38.2	25.6	0.00e+00	0	44	0	1579155456	46	3950
2026-01-26 12:05:07.34	174.57	39.85	-37.6	-38.3	25.5	0.00e+00	0	43	0	1584398336	46	3994
2026-01-26 12:05:08.35	174.70	40.10	-37.7	-38.4	25.4	0.00e+00	0	43	0	1590689792	46	4008
2026-01-26 12:05:09.35	174.84	40.36	-37.6	-38.3	25.5	0.00e+00	0	43	0	1595932672	46	3986
2026-01-26 12:05:10.36	174.98	40.61	-37.6	-38.3	25.4	0.00e+00	0	44	0	1602224128	46	4000
2026-01-26 12:05:11.37	175.12	40.87	-37.6	-38.3	25.5	0.00e+00	0	43	0	1607467008	46	3984
2026-01-26 12:05:12.37	175.27	41.13	-37.4	-38.1	25.7	0.00e+00	0	43	0	1612709888	46	3881
2026-01-26 12:05:13.38	175.41	41.39	-37.5	-38.2	25.6	0.00e+00	0	43	0	1619001344	46	3926
2026-01-26 12:05:14.39	175.56	41.66	-37.6	-38.3	25.5	0.00e+00	0	43	0	1624244224	46	3990
2026-01-26 12:05:15.40	175.72	41.92	-37.8	-38.6	25.3	0.00e+00	0	43	0	1629487104	46	4099
2026-01-26 12:05:16.41	175.87	42.19	-37.9	-38.7	25.2	0.00e+00	0	44	0	1635778560	46	4150
2026-01-26 12:05:17.42	176.03	42.46	-38.0	-38.7	25.1	0.00e+00	0	43	0	1641021440	46	4187
2026-01-26 12:05:18.42	176.19	42.73	-37.8	-38.6	25.3	0.00e+00	0	44	0	1646264320	46	4100
2026-01-26 12:05:19.43	176.35	43.00	-37.8	-38.5	25.3	0.00e+00	0	43	0	1652555776	46	4074
2026-01-26 12:05:20.44	176.51	43.28	-37.8	-38.5	25.3	0.00e+00	0	44	0	1658847232	46	4098
2026-01-26 12:05:21.44	176.68	43.55	-37.9	-38.6	25.2	0.00e+00	0	43	0	1664090112	46	4140
2026-01-26 12:05:22.45	176.85	43.83	-37.8	-38.5	25.4	0.00e+00	0	43	0	1669332992	46	4054
2026-01-26 12:05:23.46	177.02	44.11	-37.6	-38.3	25.5	0.00e+00	0	43	0	1675624448	46	3982
2026-01-26 12:05:24.47	177.20	44.39	-37.7	-38.4	25.5	0.00e+00	0	43	0	1680867328	46	4007
2026-01-26 12:05:25.47	177.38	44.67	-37.8	-38.5	25.3	0.00e+00	0	43	0	1687158784	46	4097
2026-01-26 12:05:26.47	177.56	44.95	-38.0	-38.7	25.2	0.00e+00	0	43	0	1692401664	46	4162
2026-01-26 12:05:27.48	177.74	45.24	-38.0	-38.7	25.2	0.00e+00	0	43	0	1697644544	46	4177
2026-01-26 12:05:28.49	177.93	45.53	-38.0	-38.7	25.2	0.00e+00	0	43	0	1703936000	46	4171
2026-01-26 12:05:29.50	178.13	45.82	-37.9	-38.6	25.3	0.00e+00	0	43	0	1709178880	46	4130
2026-01-26 12:05:30.51	178.32	46.11	-37.7	-38.4	25.4	0.00e+00	0	43	0	1714421760	46	4041
2026-01-26 12:05:31.52	178.52	46.41	-37.5	-38.2	25.6	0.00e+00	0	43	0	1720713216	46	3943
2026-01-26 12:05:32.53	178.72	46.70	-37.6	-38.3	25.5	0.00e+00	0	43	0	1725956096	46	3984
2026-01-26 12:05:33.53	178.93	47.00	-37.6	-38.3	25.5	0.00e+00	0	43	0	1732247552	46	4003
2026-01-26 12:05:34.54	179.14	47.29	-37.7	-38.4	25.4	0.00e+00	0	44	0	1737490432	46	4038
2026-01-26 12:05:35.55	179.36	47.60	-37.8	-38.5	25.4	0.00e+00	0	44	0	1743781888	46	4058
2026-01-26 12:05:36.55	179.57	47.89	-37.9	-38.6	25.3	0.00e+00	0	44	0	1749024768	46	4138
2026-01-26 12:05:37.56	179.80	48.20	-38.0	-38.7	25.2	0.00e+00	0	43	0	1754267648	46	4188
2026-01-26 12:05:38.57	180.02	48.50	-38.1	-38.8	25.1	0.00e+00	0	43	0	1760559104	46	4235
2026-01-26 12:05:39.57	180.25	48.81	-38.3	-39.0	25.0	0.00e+00	0	43	0	1765801984	47	4069
2026-01-26 12:05:40.58	180.49	49.12	-38.3	-39.1	24.9	0.00e+00	0	43	0	1772093440	47	4108
2026-01-26 12:05:41.59	180.73	49.43	-38.3	-39.0	24.9	0.00e+00	0	43	0	1777336320	47	4087
2026-01-26 12:05:42.60	180.98	49.74	-38.3	-39.0	25.0	0.00e+00	0	44	0	1782579200	47	4070
2026-01-26 12:05:43.60	181.23	50.05	-38.4	-39.1	24.9	0.00e+00	0	44	0	1788870656	47	4128
2026-01-26 12:05:44.61	181.48	50.37	-38.2	-39.0	25.0	0.00e+00	0	44	0	1794113536	47	4059
2026-01-26 12:05:45.62	181.75	50.68	-38.1	-38.8	25.1	0.00e+00	0	44	0	1799356416	47	3997
2026-01-26 12:05:46.63	182.01	51.00	-38.3	-39.1	24.9	0.00e+00	0	43	0	1805647872	47	4104
2026-01-26 12:05:47.63	182.28	51.32	-38.6	-39.3	24.7	0.00e+00	0	43	0	1811939328	47	4219
2026-01-26 12:05:48.64	182.56	51.64	-39.0	-39.8	24.8	0.00e+00	0	44	0	1817182208	48	4195
2026-01-26 12:05:49.65	182.85	51.96	-39.2	-39.9	24.7	0.00e+00	0	43	0	1822425088	48	4252
2026-01-26 12:05:50.66	183.14	52.29	-39.1	-39.8	24.8	0.00e+00	0	43	0	1828716544	48	4194
2026-01-26 12:05:51.66	183.43	52.61	-39.3	-40.1	24.6	0.00e+00	0	43	0	1833959424	49	4106
2026-01-26 12:05:52.66	183.73	52.94	-39.6	-40.3	24.3	0.00e+00	0	44	0	1839202304	49	4241
2026-01-26 12:05:53.67	184.04	53.26	-39.2	-39.9	24.7	0.00e+00	0	44	0	1845493760	49	4012
2026-01-26 12:05:54.68	184.36	53.59	-38.9	-39.5	25.0	0.00e+00	0	43	0	1850736640	49	3864
2026-01-26 12:05:55.69	184.69	53.93	-38.8	-39.5	25.1	0.00e+00	0	43	0	1857028096	49	3835
2026-01-26 12:05:56.69	185.01	54.25	-39.0	-39.7	24.9	0.00e+00	0	43	0	1862270976	49	3926
2026-01-26 12:05:57.70	185.35	54.59	-39.3	-40.0	24.6	0.00e+00	0	43	0	1867513856	49	4093
2026-01-26 12:05:58.71	185.70	54.92	-39.5	-40.3	24.4	0.00e+00	0	43	0	1873805312	49	4213
2026-01-26 12:05:59.71	186.05	55.26	-39.4	-40.2	24.4	0.00e+00	0	44	0	1879048192	49	4149
2026-01-26 12:06:00.72	186.42	55.59	-39.2	-39.9	24.7	0.00e+00	0	43	0	1884291072	49	4049
2026-01-26 12:06:01.73	186.79	55.93	-39.2	-39.9	24.7	0.00e+00	0	43	0	1890582528	49	4038
2026-01-26 12:06:02.74	187.17	56.27	-39.0	-39.7	24.9	0.00e+00	0	43	0	1896873984	49	3937
2026-01-26 12:06:03.75	187.57	56.61	-39.1	-39.9	24.7	0.00e+00	0	43	0	1902116864	49	4008
2026-01-26 12:06:04.76	187.97	56.95	-39.5	-40.3	24.3	0.00e+00	0	43	0	1907359744	49	4220
2026-01-26 12:06:05.77	188.38	57.29	-39.3	-40.1	24.6	0.00e+00	0	44	0	1913651200	49	4106
2026-01-26 12:06:06.77	188.80	57.63	-38.8	-39.5	25.0	0.00e+00	0	43	0	1918894080	49	3855
2026-01-26 12:06:07.78	189.23	57.97	-38.6	-39.3	25.3	0.00e+00	0	43	0	1924136960	49	3746
2026-01-26 12:06:08.79	189.67	58.31	-38.7	-39.4	25.1	0.00e+00	0	43	0	1930428416	49	3809
2026-01-26 12:06:09.79	190.12	58.65	-39.0	-39.7	25.0	0.00e+00	0	43	0	1935671296	49	3919
2026-01-26 12:06:10.80	190.59	59.00	-38.7	-39.4	25.1	0.00e+00	0	43	0	1941962752	49	3796
2026-01-26 12:06:11.81	191.06	59.34	-38.2	-38.9	25.6	0.00e+00	0	43	0	1947205632	48	3792
2026-01-26 12:06:12.82	191.56	59.68	-38.2	-38.9	25.6	0.00e+00	0	44	0	1952448512	48	3792
2026-01-26 12:06:13.83	192.06	60.03	-38.4	-39.1	25.5	0.00e+00	0	43	0	1958739968	48	3871
2026-01-26 12:06:14.83	192.57	60.37	-38.1	-38.8	25.7	0.00e+00	0	43	0	1965031424	48	3763
2026-01-26 12:06:15.83	193.10	60.71	-37.6	-38.3	25.6	0.00e+00	0	43	0	1970274304	47	3763
2026-01-26 12:06:16.84	193.64	61.05	-37.4	-38.1	25.8	0.00e+00	0	43	0	1975517184	46	3901
2026-01-26 12:06:17.85	194.20	61.39	-37.4	-38.1	25.9	0.00e+00	0	43	0	1981808640	46	3877
2026-01-26 12:06:18.85	194.77	61.73	-37.5	-38.2	25.8	0.00e+00	0	43	0	1987051520	46	3928
2026-01-26 12:06:19.86	195.37	62.07	-37.6	-38.3	25.6	0.00e+00	0	43	0	1992294400	46	3984
2026-01-26 12:06:20.87	195.97	62.41	-37.7	-38.5	25.4	0.00e+00	0	43	0	1998585856	46	4067
2026-01-26 12:06:21.87	196.59	62.75	-37.5	-38.3	25.7	0.00e+00	0	44	0	2003828736	46	3961
2026-01-26 12:06:22.88	197.24	63.08	-37.3	-38.0	25.9	0.00e+00	0	44	0	2009071616	46	3848
2026-01-26 12:06:23.88	197.89	63.42	-37.6	-38.3	25.6	0.00e+00	0	43	0	2015363072	46	4003
2026-01-26 12:06:24.89	198.57	63.75	-37.5	-38.3	25.7	0.00e+00	0	43	0	2020605952	46	3962
2026-01-26 12:06:25.90	199.27	64.08	-37.4	-38.1	25.8	0.00e+00	0	43	0	2026897408	46	3905
2026-01-26 12:06:26.91	199.99	64.42	-37.4	-38.1	25.8	0.00e+00	0	43	0	2032140288	46	3878
2026-01-26 12:06:27.91	200.73	64.74	-37.1	-37.8	26.0	0.00e+00	0	43	0	2037383168	46	3773
2026-01-26 12:06:28.91	201.48	65.06	-37.0	-37.7	26.2	0.00e+00	0	44	0	2043674624	46	3704
2026-01-26 12:06:29.92	202.27	65.39	-37.2	-37.9	26.0	0.00e+00	0	43	0	2048917504	46	3794
2026-01-26 12:06:30.93	203.07	65.71	-37.1	-37.8	26.1	0.00e+00	0	44	0	2054160384	46	3761
2026-01-26 12:06:31.94	203.91	66.02	-37.3	-37.9	26.0	0.00e+00	0	43	0	2060451840	46	3822
2026-01-26 12:06:32.95	204.76	66.34	-37.6	-38.3	25.6	0.00e+00	0	43	0	2066743296	46	3987
2026-01-26 12:06:33.95	205.63	66.65	-37.1	-37.8	26.1	0.00e+00	0	43	0	2071986176	46	3755
2026-01-26 12:06:34.96	206.54	66.95	-37.2	-37.9	25.9	0.00e+00	0	44	0	2077229056	46	3792
2026-01-26 12:06:35.97	207.47	67.25	-37.8	-38.6	25.5	0.00e+00	0	43	0	2083520512	46	4101
2026-01-26 12:06:36.97	208.42	67.55	-37.1	-37.7	26.2	0.00e+00	0	43	0	2088763392	46	3731
2026-01-26 12:06:37.98	209.41	67.84	-36.9	-37.6	26.3	0.00e+00	0	43	0	2094006272	45	3871
2026-01-26 12:06:38.99	210.42	68.13	-37.3	-38.0	25.9	0.00e+00	0	43	0	2100297728	45	4078
2026-01-26 12:06:40.00	211.47	68.41	-37.4	-38.1	25.8	0.00e+00	0	43	0	2105540608	45	4140
2026-01-26 12:06:41.01	212.54	68.69	-37.5	-38.2	25.8	0.00e+00	0	43	0	2111832064	45	4164
2026-01-26 12:06:42.01	213.63	68.96	-37.1	-37.8	26.1	0.00e+00	0	43	0	2117074944	45	3960
2026-01-26 12:06:43.02	214.77	69.22	-37.0	-37.6	26.2	0.00e+00	0	43	0	2122317824	45	3912
2026-01-26 12:06:44.03	215.93	69.47	-36.9	-37.6	26.3	0.00e+00	0	43	0	2128609280	45	3894
2026-01-26 12:06:45.03	217.12	69.72	-37.0	-37.7	26.2	0.00e+00	0	43	0	2134900736	45	3944
2026-01-26 12:06:46.04	218.34	69.96	-36.9	-37.5	26.3	0.00e+00	0	43	0	2140143616	45	3868
2026-01-26 12:06:47.05	219.60	70.20	-36.9	-37.5	26.4	0.00e+00	0	43	0	2145386496	45	3857
2026-01-26 12:06:48.06	220.89	70.42	-36.6	-37.3	26.6	0.00e+00	0	43	0	2151677952	45	3747
2026-01-26 12:06:49.07	222.21	70.64	-36.3	-37.0	26.8	0.00e+00	0	43	0	2156920832	44	3846
2026-01-26 12:06:50.07	223.55	70.84	-36.5	-37.1	26.7	0.00e+00	0	44	0	2162163712	44	3911
2026-01-26 12:06:51.08	224.93	71.04	-36.8	-37.5	26.3	0.00e+00	0	43	0	2168455168	44	4094
2026-01-26 12:06:52.09	226.34	71.22	-36.8	-37.6	26.3	0.00e+00	0	43	0	2173698048	44	4099
2026-01-26 12:06:53.09	227.77	71.40	-36.8	-37.5	26.4	0.00e+00	0	43	0	2178940928	44	4088
2026-01-26 12:06:54.10	229.24	71.56	-36.9	-37.6	26.3	0.00e+00	0	43	0	2185232384	44	4112
2026-01-26 12:06:55.10	230.72	71.71	-36.9	-37.6	26.3	0.00e+00	0	43	0	2190475264	44	4142
2026-01-26 12:06:56.11	232.24	71.86	-36.4	-37.1	26.7	0.00e+00	0	44	0	2196766720	44	3896
2026-01-26 12:06:57.12	233.78	71.99	-36.4	-37.1	26.8	0.00e+00	0	43	0	2202009600	44	3892
2026-01-26 12:06:58.12	235.34	72.10	-36.4	-37.1	26.7	0.00e+00	0	43	0	2207252480	44	3904
2026-01-26 12:06:59.13	236.92	72.21	-36.5	-37.1	26.7	0.00e+00	0	43	0	2213543936	44	3907
2026-01-26 12:07:00.14	238.53	72.30	-36.6	-37.3	26.5	0.00e+00	0	43	0	2219835392	44	3984
2026-01-26 12:07:01.15	240.15	72.38	-36.4	-37.0	26.8	0.00e+00	0	43	0	2225078272	44	3856
2026-01-26 12:07:02.16	241.79	72.44	-36.3	-37.0	26.9	0.00e+00	0	43	0	2230321152	44	3839
2026-01-26 12:07:03.16	243.42	72.50	-36.5	-37.2	26.7	0.00e+00	0	43	0	2236612608	44	3918
2026-01-26 12:07:04.17	245.08	72.53	-36.4	-37.1	26.7	0.00e+00	0	43	0	2241855488	44	3890
2026-01-26 12:07:05.18	246.74	72.56	-36.6	-37.3	26.6	0.00e+00	0	44	0	2247098368	44	3977
2026-01-26 12:07:06.18	248.39	72.57	-36.8	-37.4	26.5	0.00e+00	0	43	0	2253389824	44	4044
2026-01-26 12:07:07.19	250.06	72.57	-36.5	-37.2	26.7	0.00e+00	0	43	0	2258632704	44	3933
2026-01-26 12:07:08.20	251.73	72.55	-36.5	-37.2	26.7	0.00e+00	0	44	0	2263875584	44	3938
2026-01-26 12:07:09.21	253.39	72.52	-36.5	-37.2	26.6	0.00e+00	0	43	0	2270167040	44	3942
2026-01-26 12:07:10.21	255.03	72.47	-36.6	-37.2	26.6	0.00e+00	0	43	0	2275409920	44	3954
2026-01-26 12:07:11.22	256.67	72.42	-36.5	-37.1	26.7	0.00e+00	0	44	0	2281701376	44	3912
2026-01-26 12:07:12.23	258.30	72.34	-36.4	-37.0	26.8	0.00e+00	0	43	0	2286944256	44	3854
2026-01-26 12:07:13.24	259.92	72.26	-36.5	-37.2	26.7	0.00e+00	0	44	0	2293235712	44	3931
2026-01-26 12:07:14.24	261.50	72.16	-36.5	-37.2	26.6	0.00e+00	0	43	0	2298478592	44	3937
2026-01-26 12:07:15.25	263.08	72.05	-36.4	-37.1	26.8	0.00e+00	0	43	0	2304770048	44	3890
2026-01-26 12:07:16.26	264.63	71.93	-36.6	-37.3	26.6	0.00e+00	0	43	0	2310012928	44	3967
2026-01-26 12:07:17.27	266.17	71.79	-36.6	-37.3	26.6	0.00e+00	0	43	0	2315255808	44	3969
2026-01-26 12:07:18.28	267.67	71.64	-36.7	-37.4	26.5	0.00e+00	0	43	0	2321547264	44	4014
2026-01-26 12:07:19.29	269.16	71.49	-36.5	-37.2	26.7	0.00e+00	0	43	0	2326790144	44	3922
2026-01-26 12:07:20.29	270.60	71.32	-36.6	-37.3	26.6	0.00e+00	0	43	0	2332033024	44	3995
2026-01-26 12:07:21.30	272.02	71.14	-36.6	-37.3	26.6	0.00e+00	0	43	0	2338324480	44	3995
2026-01-26 12:07:22.31	273.42	70.94	-36.5	-37.1	26.7	0.00e+00	0	44	0	2343567360	44	3906
2026-01-26 12:07:23.32	274.78	70.74	-36.5	-37.2	26.7	0.00e+00	0	43	0	2348810240	44	3930
2026-01-26 12:07:24.32	276.11	70.54	-36.8	-37.5	26.4	0.00e+00	0	43	0	2355101696	44	4074
2026-01-26 12:07:25.33	277.41	70.32	-36.8	-37.5	26.5	0.00e+00	0	44	0	2360344576	44	4068
2026-01-26 12:07:26.33	278.67	70.09	-36.8	-37.5	26.5	0.00e+00	0	43	0	2366636032	44	4089
2026-01-26 12:07:27.34	279.92	69.85	-36.8	-37.5	26.4	0.00e+00	0	43	0	2371878912	44	4062
2026-01-26 12:07:28.35	281.13	69.61	-36.7	-37.4	26.5	0.00e+00	0	43	0	2378170368	44	4009
2026-01-26 12:07:29.35	282.30	69.36	-36.8	-37.5	26.4	0.00e+00	0	43	0	2383413248	44	4071
2026-01-26 12:07:30.36	283.45	69.10	-37.2	-37.9	26.1	0.00e+00	0	44	0	2389704704	44	4271
2026-01-26 12:07:31.37	284.56	68.83	-37.2	-37.9	26.1	0.00e+00	0	43	0	2394947584	45	4011
2026-01-26 12:07:32.38	285.65	68.56	-37.2	-37.9	26.2	0.00e+00	0	44	0	2400190464	45	4005
2026-01-26 12:07:33.39	286.71	68.28	-37.1	-37.8	26.2	0.00e+00	0	43	0	2406481920	45	3994
2026-01-26 12:07:34.40	287.74	68.00	-37.2	-37.9	26.2	0.00e+00	0	43	0	2411724800	45	4007
2026-01-26 12:07:35.41	288.74	67.71	-37.1	-37.8	26.2	0.00e+00	0	43	0	2416967680	45	3976
2026-01-26 12:07:36.42	289.72	67.41	-37.2	-37.9	26.2	0.00e+00	0	43	0	2423259136	45	4014
2026-01-26 12:07:37.43	290.66	67.11	-37.1	-37.7	26.3	0.00e+00	0	44	0	2428502016	45	3956
2026-01-26 12:07:38.43	291.57	66.81	-37.0	-37.7	26.3	0.00e+00	0	43	0	2433744896	45	3934
2026-01-26 12:07:39.44	292.46	66.51	-37.1	-37.8	26.2	0.00e+00	0	43	0	2440036352	45	3975
2026-01-26 12:07:40.45	293.33	66.19	-37.3	-38.0	26.0	0.00e+00	0	43	0	2446327808	45	4072
2026-01-26 12:07:41.45	294.17	65.88	-37.3	-38.0	26.1	0.00e+00	0	43	0	2451570688	45	4060
2026-01-26 12:07:42.46	294.99	65.56	-37.3	-38.0	26.1	0.00e+00	0	43	0	2456813568	45	4052
2026-01-26 12:07:43.47	295.78	65.24	-37.4	-38.1	26.0	0.00e+00	0	43	0	2463105024	45	4109
2026-01-26 12:07:44.48	296.55	64.92	-37.6	-38.3	25.8	0.00e+00	0	43	0	2468347904	45	4233
2026-01-26 12:07:45.48	297.30	64.59	-37.7	-38.4	25.7	0.00e+00	0	43	0	2474639360	45	4259
2026-01-26 12:07:46.49	298.03	64.27	-37.7	-38.4	25.7	0.00e+00	0	43	0	2479882240	46	4037
2026-01-26 12:07:47.50	298.74	63.93	-37.6	-38.3	25.8	0.00e+00	0	43	0	2485125120	46	4000
2026-01-26 12:07:48.51	299.43	63.60	-37.4	-38.1	26.0	0.00e+00	0	43	0	2491416576	46	3907
2026-01-26 12:07:49.51	300.09	63.27	-37.6	-38.3	25.8	0.00e+00	0	43	0	2496659456	46	3968
2026-01-26 12:07:50.52	300.75	62.93	-37.6	-38.3	25.8	0.00e+00	0	43	0	2501902336	46	3980
2026-01-26 12:07:51.53	301.38	62.60	-37.5	-38.2	25.9	0.00e+00	0	43	0	2508193792	46	3940
2026-01-26 12:07:52.53	301.99	62.26	-37.5	-38.1	25.9	0.00e+00	0	44	0	2514485248	46	3897
2026-01-26 12:07:53.54	302.59	61.92	-37.5	-38.2	25.9	0.00e+00	0	43	0	2519728128	46	3937
2026-01-26 12:07:54.55	303.17	61.58	-37.8	-38.5	25.6	0.00e+00	0	43	0	2524971008	46	4082
2026-01-26 12:07:55.56	303.74	61.24	-37.7	-38.5	25.7	0.00e+00	0	43	0	2531262464	46	4054
2026-01-26 12:07:56.57	304.30	60.90	-37.9	-38.6	25.6	0.00e+00	0	43	0	2536505344	46	4117
2026-01-26 12:07:57.57	304.83	60.56	-38.0	-38.7	25.5	0.00e+00	0	44	0	2541748224	46	4146
2026-01-26 12:07:58.58	305.35	60.22	-38.1	-38.8	25.4	0.00e+00	0	43	0	2548039680	46	4213
2026-01-26 12:07:59.59	305.86	59.87	-38.4	-39.1	25.2	0.00e+00	0	43	0	2553282560	47	4113
2026-01-26 12:08:00.60	306.36	59.53	-38.4	-39.2	25.1	0.00e+00	0	43	0	2559574016	47	4157
2026-01-26 12:08:01.61	306.84	59.19	-38.2	-38.9	25.3	0.00e+00	0	43	0	2564816896	47	4023
2026-01-26 12:08:02.62	307.32	58.84	-38.2	-38.9	25.3	0.00e+00	0	43	0	2570059776	47	4051
2026-01-26 12:08:03.63	307.78	58.50	-38.3	-39.0	25.2	0.00e+00	0	43	0	2576351232	47	4090
2026-01-26 12:08:04.64	308.22	58.16	-38.3	-39.0	25.2	0.00e+00	0	44	0	2582642688	47	4077
2026-01-26 12:08:05.65	308.66	57.82	-38.3	-39.0	25.2	0.00e+00	0	43	0	2587885568	47	4087
2026-01-26 12:08:06.65	309.08	57.48	-38.4	-39.1	25.1	0.00e+00	0	43	0	2593128448	47	4124
2026-01-26 12:08:07.66	309.50	57.14	-38.3	-39.0	25.2	0.00e+00	0	43	0	2599419904	47	4097
2026-01-26 12:08:08.67	309.90	56.80	-38.5	-39.3	25.0	0.00e+00	0	44	0	2604662784	47	4197
2026-01-26 12:08:09.68	310.30	56.46	-38.6	-39.4	24.9	0.00e+00	0	44	0	2609905664	47	4248
2026-01-26 12:08:10.69	310.69	56.12	-38.7	-39.4	24.8	0.00e+00	0	44	0	2616197120	47	4284
2026-01-26 12:08:11.70	311.06	55.79	-39.2	-39.9	24.9	0.00e+00	0	43	0	2621440000	48	4265
2026-01-26 12:08:12.71	311.43	55.45	-39.1	-39.8	25.1	0.00e+00	0	44	0	2626682880	48	4198
2026-01-26 12:08:13.71	311.79	55.12	-39.2	-39.9	25.0	0.00e+00	0	43	0	2632974336	48	4265
2026-01-26 12:08:14.73	312.14	54.78	-39.1	-39.8	25.0	0.00e+00	0	44	0	2638217216	48	4220
2026-01-26 12:08:15.73	312.48	54.45	-39.2	-39.9	24.9	0.00e+00	0	43	0	2644508672	48	4261
2026-01-26 12:08:16.74	312.82	54.12	-39.3	-40.0	24.8	0.00e+00	0	43	0	2649751552	49	4080
2026-01-26 12:08:17.75	313.15	53.79	-39.3	-40.0	24.8	0.00e+00	0	43	0	2656043008	49	4086
2026-01-26 12:08:18.76	313.47	53.46	-39.3	-40.0	24.9	0.00e+00	0	43	0	2661285888	49	4075
2026-01-26 12:08:19.76	313.78	53.13	-39.3	-40.0	24.9	0.00e+00	0	43	0	2667577344	49	4079
2026-01-26 12:08:20.77	314.09	52.80	-39.2	-40.0	24.9	0.00e+00	0	43	0	2672820224	49	4058
2026-01-26 12:08:21.78	314.39	52.48	-38.9	-39.6	25.2	0.00e+00	0	43	0	2678063104	49	3888
2026-01-26 12:08:22.78	314.68	52.16	-38.7	-39.3	25.4	0.00e+00	0	43	0	2684354560	49	3768
2026-01-26 12:08:23.79	314.97	51.83	-38.5	-39.2	25.5	0.00e+00	0	43	0	2689597440	49	3707
2026-01-26 12:08:24.80	315.25	51.51	-38.6	-39.3	25.5	0.00e+00	0	43	0	2694840320	49	3748
2026-01-26 12:08:25.81	315.52	51.19	-38.7	-39.4	25.3	0.00e+00	0	43	0	2701131776	49	3811
2026-01-26 12:08:26.82	315.79	50.87	-38.8	-39.5	25.3	0.00e+00	0	43	0	2706374656	49	3832
2026-01-26 12:08:27.82	316.05	50.56	-38.7	-39.4	25.3	0.00e+00	0	43	0	2711617536	49	3820
2026-01-26 12:08:28.83	316.31	50.25	-38.2	-38.9	25.8	0.00e+00	0	43	0	2717908992	48	3797
2026-01-26 12:08:29.84	316.57	49.93	-38.0	-38.7	25.9	0.00e+00	0	43	0	2724200448	48	3710
2026-01-26 12:08:30.85	316.82	49.62	-38.1	-38.7	25.9	0.00e+00	0	43	0	2729443328	48	3726
2026-01-26 12:08:31.85	317.06	49.31	-38.0	-38.7	25.9	0.00e+00	0	44	0	2734686208	48	3706
2026-01-26 12:08:32.86	317.30	49.00	-38.1	-38.8	25.9	0.00e+00	0	43	0	2740977664	48	3751
2026-01-26 12:08:33.87	317.53	48.70	-38.2	-38.9	25.8	0.00e+00	0	43	0	2746220544	48	3784
2026-01-26 12:08:34.88	317.76	48.39	-38.3	-39.0	25.7	0.00e+00	0	44	0	2752512000	48	3847
2026-01-26 12:08:35.88	317.98	48.09	-38.3	-39.0	25.6	0.00e+00	0	43	0	2757754880	48	3861
2026-01-26 12:08:36.89	318.20	47.79	-38.4	-39.1	25.6	0.00e+00	0	43	0	2762997760	48	3886
2026-01-26 12:08:37.89	318.42	47.49	-38.5	-39.2	25.5	0.00e+00	0	43	0	2769289216	48	3949
2026-01-26 12:08:38.90	318.63	47.19	-38.6	-39.4	25.4	0.00e+00	0	43	0	2774532096	48	4006
2026-01-26 12:08:39.90	318.84	46.90	-38.7	-39.4	25.3	0.00e+00	0	43	0	2779774976	48	4026
2026-01-26 12:08:40.91	319.05	46.60	-38.7	-39.4	25.3	0.00e+00	0	44	0	2786066432	48	4034
2026-01-26 12:08:41.91	319.24	46.31	-38.6	-39.3	25.3	0.00e+00	0	43	0	2791309312	48	3996
2026-01-26 12:08:42.92	319.44	46.02	-38.3	-39.0	25.6	0.00e+00	0	44	0	2796552192	48	3858
2026-01-26 12:08:43.92	319.64	45.73	-38.4	-39.1	25.6	0.00e+00	0	43	0	2802843648	48	3882
2026-01-26 12:08:44.93	319.83	45.44	-38.2	-38.9	25.7	0.00e+00	0	43	0	2808086528	48	3818
2026-01-26 12:08:45.93	320.01	45.16	-38.2	-38.9	25.7	0.00e+00	0	43	0	2814377984	48	3799
2026-01-26 12:08:46.94	320.20	44.87	-38.2	-38.9	25.7	0.00e+00	0	44	0	2819620864	48	3804
2026-01-26 12:08:47.95	320.38	44.59	-38.2	-38.9	25.7	0.00e+00	0	43	0	2825912320	48	3818
2026-01-26 12:08:48.96	320.56	44.31	-38.0	-38.7	25.9	0.00e+00	0	43	0	2831155200	48	3712
2026-01-26 12:08:49.96	320.73	44.03	-38.1	-38.7	25.9	0.00e+00	0	44	0	2837446656	48	3728
2026-01-26 12:08:50.97	320.90	43.75	-37.6	-38.3	25.7	0.00e+00	0	44	0	2842689536	47	3776
2026-01-26 12:08:51.99	321.07	43.47	-37.6	-38.3	25.7	0.00e+00	0	43	0	2847932416	47	3768
2026-01-26 12:08:53.00	321.24	43.20	-37.4	-38.1	25.9	0.00e+00	0	43	0	2854223872	46	3891
2026-01-26 12:08:54.00	321.40	42.93	-37.4	-38.1	25.8	0.00e+00	0	44	0	2859466752	46	3907
2026-01-26 12:08:55.01	321.56	42.66	-37.5	-38.2	25.8	0.00e+00	0	44	0	2864709632	46	3926
2026-01-26 12:08:56.02	321.72	42.39	-37.5	-38.2	25.8	0.00e+00	0	44	0	2871001088	46	3944
2026-01-26 12:08:57.03	321.87	42.12	-37.4	-38.1	25.9	0.00e+00	0	44	0	2877292544	46	3875
2026-01-26 12:08:58.04	322.03	41.85	-37.3	-38.0	26.0	0.00e+00	0	43	0	2882535424	46	3831
2026-01-26 12:08:59.05	322.18	41.59	-37.3	-38.0	26.0	0.00e+00	0	43	0	2887778304	46	3830
2026-01-26 12:09:00.05	322.33	41.33	-37.2	-37.9	26.0	0.00e+00	0	44	0	2894069760	46	3816
2026-01-26 12:09:01.06	322.47	41.07	-37.2	-37.9	26.0	0.00e+00	0	43	0	2899312640	46	3809
2026-01-26 12:09:02.07	322.62	40.81	-37.3	-37.9	26.0	0.00e+00	0	44	0	2904555520	46	3824
2026-01-26 12:09:03.07	322.76	40.55	-37.2	-37.9	26.0	0.00e+00	0	44	0	2910846976	46	3806
2026-01-26 12:09:04.08	322.90	40.30	-37.3	-38.0	26.0	0.00e+00	0	43	0	2916089856	46	3846
2026-01-26 12:09:05.09	323.03	40.04	-37.3	-38.0	25.9	0.00e+00	0	43	0	2922381312	46	3848
2026-01-26 12:09:06.10	323.17	39.79	-37.3	-38.0	26.0	0.00e+00	0	44	0	2927624192	46	3832
2026-01-26 12:09:07.11	323.30	39.54	-37.2	-37.9	26.0	0.00e+00	0	44	0	2932867072	46	3809
2026-01-26 12:09:08.11	323.43	39.29	-37.2	-37.9	26.0	0.00e+00	0	43	0	2939158528	46	3813
2026-01-26 12:09:09.13	323.56	39.04	-37.2	-37.9	26.0	0.00e+00	0	44	0	2944401408	46	3806
2026-01-26 12:09:10.13	323.69	38.80	-37.3	-38.0	26.0	0.00e+00	0	43	0	2950692864	46	3832
2026-01-26 12:09:11.15	323.82	38.55	-37.1	-37.8	26.1	0.00e+00	0	44	0	2955935744	46	3750
2026-01-26 12:09:12.15	323.94	38.31	-37.2	-37.9	26.0	0.00e+00	0	44	0	2962227200	46	3793
2026-01-26 12:09:13.16	324.06	38.07	-37.1	-37.8	26.0	0.00e+00	0	43	0	2967470080	46	3767
2026-01-26 12:09:14.17	324.18	37.83	-37.2	-37.9	26.0	0.00e+00	0	44	0	2972712960	46	3810
2026-01-26 12:09:15.17	324.30	37.59	-37.3	-38.0	25.9	0.00e+00	0	44	0	2979004416	46	3858
2026-01-26 12:09:16.18	324.42	37.36	-37.4	-38.1	25.8	0.00e+00	0	43	0	2984247296	46	3890
2026-01-26 12:09:17.19	324.53	37.12	-37.4	-38.1	25.8	0.00e+00	0	43	0	2989490176	46	3896
2026-01-26 12:09:18.20	324.65	36.89	-37.4	-38.1	25.8	0.00e+00	0	44	0	2995781632	46	3913
2026-01-26 12:09:19.21	324.76	36.66	-37.5	-38.2	25.7	0.00e+00	0	44	0	3001024512	46	3934
2026-01-26 12:09:20.22	324.87	36.43	-37.4	-38.1	25.8	0.00e+00	0	43	0	3007315968	46	3886
2026-01-26 12:09:21.23	324.98	36.20	-37.4	-38.1	25.8	0.00e+00	0	44	0	3012558848	46	3877
2026-01-26 12:09:22.24	325.09	35.97	-37.1	-37.8	26.0	0.00e+00	0	44	0	3018850304	46	3757
2026-01-26 12:09:23.25	325.19	35.74	-37.2	-37.9	26.0	0.00e+00	0	43	0	3024093184	46	3784
2026-01-26 12:09:24.26	325.30	35.52	-37.1	-37.8	26.0	0.00e+00	0	44	0	3030384640	46	3768
2026-01-26 12:09:25.27	325.40	35.30	-37.1	-37.8	26.0	0.00e+00	0	44	0	3035627520	46	3770
2026-01-26 12:09:26.27	325.50	35.08	-37.2	-37.9	26.0	0.00e+00	0	43	0	3040870400	46	3797
2026-01-26 12:09:27.28	325.60	34.86	-37.3	-38.0	25.9	0.00e+00	0	44	0	3047161856	46	3826
2026-01-26 12:09:28.28	325.70	34.64	-37.2	-37.9	25.9	0.00e+00	0	44	0	3052404736	46	3815
2026-01-26 12:09:29.29	325.80	34.42	-37.4	-38.1	25.8	0.00e+00	0	44	0	3057647616	46	3875
2026-01-26 12:09:30.29	325.90	34.21	-37.3	-38.0	25.8	0.00e+00	0	43	0	3063939072	46	3854
2026-01-26 12:09:31.30	325.99	34.00	-37.3	-38.0	25.8	0.00e+00	0	44	0	3069181952	46	3862
2026-01-26 12:09:32.31	326.09	33.78	-37.2	-37.9	25.9	0.00e+00	0	43	0	3074424832	46	3817
2026-01-26 12:09:33.31	326.18	33.57	-37.3	-38.0	25.8	0.00e+00	0	44	0	3080716288	46	3841
2026-01-26 12:09:34.32	326.28	33.36	-37.4	-38.1	25.8	0.00e+00	0	44	0	3085959168	46	3872
2026-01-26 12:09:35.33	326.37	33.15	-37.3	-38.0	25.9	0.00e+00	0	44	0	3092250624	46	3826
2026-01-26 12:09:36.34	326.46	32.95	-37.3	-38.0	25.8	0.00e+00	0	44	0	3097493504	46	3839
2026-01-26 12:09:37.34	326.55	32.74	-37.4	-38.0	25.8	0.00e+00	0	44	0	3103784960	46	3863
2026-01-26 12:09:38.35	326.63	32.54	-37.3	-38.0	25.8	0.00e+00	0	43	0	3109027840	46	3865
2026-01-26 12:09:39.36	326.72	32.33	-37.4	-38.1	25.7	0.00e+00	0	43	0	3115319296	46	3893
2026-01-26 12:09:40.37	326.81	32.13	-37.5	-38.2	25.7	0.00e+00	0	44	0	3120562176	46	3915
2026-01-26 12:09:41.37	326.89	31.93	-37.5	-38.2	25.7	0.00e+00	0	44	0	3125805056	46	3926
2026-01-26 12:09:42.38	326.98	31.73	-37.6	-38.3	25.6	0.00e+00	0	44	0	3132096512	46	3974
2026-01-26 12:09:43.39	327.06	31.54	-37.6	-38.3	25.5	0.00e+00	0	44	0	3137339392	46	3997
2026-01-26 12:09:44.40	327.14	31.34	-37.5	-38.3	25.6	0.00e+00	0	43	0	3142582272	46	3967
2026-01-26 12:09:45.41	327.22	31.14	-37.6	-38.3	25.5	0.00e+00	0	43	0	3148873728	46	4000
2026-01-26 12:09:46.41	327.30	30.95	-37.6	-38.3	25.5	0.00e+00	0	43	0	3154116608	46	3985
2026-01-26 12:09:47.42	327.38	30.76	-37.5	-38.2	25.6	0.00e+00	0	43	0	3159359488	46	3920
2026-01-26 12:09:48.43	327.46	30.57	-37.5	-38.2	25.6	0.00e+00	0	44	0	3165650944	46	3955
2026-01-26 12:09:49.44	327.54	30.37	-37.6	-38.3	25.6	0.00e+00	0	44	0	3171942400	46	3964
2026-01-26 12:09:50.45	327.61	30.19	-37.4	-38.1	25.7	0.00e+00	0	44	0	3177185280	46	3869
2026-01-26 12:09:51.45	327.69	30.00	-37.3	-38.0	25.8	0.00e+00	0	43	0	3182428160	46	3843
2026-01-26 12:09:52.46	327.76	29.81	-37.4	-38.1	25.7	0.00e+00	0	43	0	3188719616	46	3881
2026-01-26 12:09:53.47	327.84	29.63	-37.4	-38.1	25.7	0.00e+00	0	43	0	3193962496	46	3886
2026-01-26 12:09:54.48	327.91	29.44	-37.3	-38.0	25.8	0.00e+00	0	43	0	3200253952	46	3834
2026-01-26 12:09:55.48	327.98	29.26	-37.4	-38.1	25.7	0.00e+00	0	43	0	3205496832	46	3872
2026-01-26 12:09:56.49	328.06	29.08	-37.3	-38.0	25.7	0.00e+00	0	43	0	3210739712	46	3859
2026-01-26 12:09:57.50	328.13	28.89	-37.5	-38.2	25.6	0.00e+00	0	44	0	3217031168	46	3922
2026-01-26 12:09:58.50	328.20	28.72	-37.6	-38.3	25.5	0.00e+00	0	44	0	3222274048	46	3975
2026-01-26 12:09:59.51	328.27	28.54	-37.5	-38.2	25.5	0.00e+00	0	44	0	3227516928	46	3949
2026-01-26 12:10:00.52	328.34	28.36	-37.6	-38.3	25.6	0.00e+00	0	43	0	3233808384	46	3965
2026-01-26 12:10:01.53	328.40	28.18	-37.6	-38.3	25.5	0.00e+00	0	43	0	3239051264	46	3985
2026-01-26 12:10:02.53	328.47	28.01	-37.6	-38.3	25.5	0.00e+00	0	44	0	3245342720	46	3982
2026-01-26 12:10:03.55	328.54	27.83	-37.6	-38.3	25.5	0.00e+00	0	44	0	3250585600	46	3979
2026-01-26 12:10:04.55	328.60	27.66	-37.6	-38.3	25.4	0.00e+00	0	44	0	3256877056	46	3995
2026-01-26 12:10:05.56	328.67	27.49	-37.6	-38.3	25.5	0.00e+00	0	44	0	3262119936	46	3990
2026-01-26 12:10:06.57	328.74	27.32	-37.6	-38.3	25.5	0.00e+00	0	44	0	3267362816	46	3971
2026-01-26 12:10:07.58	328.80	27.14	-37.5	-38.2	25.5	0.00e+00	0	44	0	3273654272	46	3948
2026-01-26 12:10:08.58	328.86	26.98	-37.4	-38.1	25.6	0.00e+00	0	44	0	3278897152	46	3893
2026-01-26 12:10:09.59	328.93	26.81	-37.5	-38.3	25.5	0.00e+00	0	43	0	3285188608	46	3962
2026-01-26 12:10:10.60	328.99	26.64	-37.5	-38.2	25.5	0.00e+00	0	43	0	3290431488	46	3931
2026-01-26 12:10:11.61	329.05	26.47	-37.6	-38.3	25.4	0.00e+00	0	44	0	3295674368	46	3963
2026-01-26 12:10:12.62	329.11	26.31	-37.7	-38.4	25.4	0.00e+00	0	43	0	3301965824	46	4025
2026-01-26 12:10:13.63	329.17	26.14	-37.6	-38.3	25.5	0.00e+00	0	44	0	3307208704	46	3967
2026-01-26 12:10:14.63	329.23	25.98	-37.7	-38.4	25.3	0.00e+00	0	44	0	3313500160	46	4028
2026-01-26 12:10:15.64	329.29	25.82	-37.7	-38.4	25.3	0.00e+00	0	44	0	3318743040	46	4046
2026-01-26 12:10:16.65	329.35	25.66	-37.7	-38.4	25.3	0.00e+00	0	44	0	3325034496	46	4038
2026-01-26 12:10:17.66	329.41	25.50	-37.9	-38.6	25.2	0.00e+00	0	44	0	3330277376	46	4106
2026-01-26 12:10:18.66	329.47	25.34	-37.9	-38.7	25.1	0.00e+00	0	44	0	3335520256	46	4148
2026-01-26 12:10:19.67	329.52	25.18	-38.0	-38.7	25.0	0.00e+00	0	44	0	3341811712	46	4191
2026-01-26 12:10:20.68	329.58	25.02	-38.0	-38.7	25.0	0.00e+00	0	43	0	3347054592	46	4180
2026-01-26 12:10:21.69	329.64	24.87	-38.1	-38.8	24.9	0.00e+00	0	44	0	3352297472	46	4234
2026-01-26 12:10:22.70	329.69	24.71	-38.1	-38.8	25.0	0.00e+00	0	43	0	3358588928	46	4225
2026-01-26 12:10:23.71	329.75	24.55	-38.1	-38.9	24.9	0.00e+00	0	43	0	3363831808	46	4245
2026-01-26 12:10:24.72	329.80	24.40	-38.2	-39.0	24.8	0.00e+00	0	44	0	3370123264	47	4055
2026-01-26 12:10:25.73	329.86	24.25	-38.1	-38.9	24.9	0.00e+00	0	44	0	3375366144	47	4012
2026-01-26 12:10:26.73	329.91	24.10	-38.2	-38.9	24.8	0.00e+00	0	44	0	3381657600	47	4045
2026-01-26 12:10:27.74	329.96	23.94	-38.2	-38.9	24.8	0.00e+00	0	44	0	3386900480	47	4042
2026-01-26 12:10:28.75	330.02	23.79	-38.2	-39.0	24.8	0.00e+00	0	44	0	3393191936	47	4055
2026-01-26 12:10:29.75	330.07	23.64	-38.4	-39.1	24.7	0.00e+00	0	44	0	3398434816	47	4118
2026-01-26 12:10:30.76	330.12	23.50	-38.4	-39.2	24.6	0.00e+00	0	44	0	3403677696	47	4147
2026-01-26 12:10:31.77	330.17	23.35	-38.3	-39.0	24.7	0.00e+00	0	44	0	3409969152	47	4086
2026-01-26 12:10:32.77	330.22	23.20	-38.3	-39.0	24.7	0.00e+00	0	43	0	3415212032	47	4096
2026-01-26 12:10:33.78	330.27	23.05	-38.4	-39.2	24.6	0.00e+00	0	44	0	3420454912	47	4156
2026-01-26 12:10:34.79	330.32	22.91	-38.4	-39.1	24.6	0.00e+00	0	43	0	3426746368	47	4130
2026-01-26 12:10:35.80	330.37	22.76	-38.3	-39.0	24.7	0.00e+00	0	44	0	3431989248	47	4087
2026-01-26 12:10:36.80	330.42	22.62	-38.4	-39.1	24.6	0.00e+00	0	43	0	3437232128	47	4144
2026-01-26 12:10:37.81	330.47	22.48	-38.4	-39.1	24.6	0.00e+00	0	44	0	3443523584	47	4123
2026-01-26 12:10:38.82	330.52	22.33	-38.4	-39.2	24.6	0.00e+00	0	44	0	3448766464	47	4153
2026-01-26 12:10:39.82	330.57	22.19	-38.5	-39.3	24.5	0.00e+00	0	43	0	3455057920	47	4207
2026-01-26 12:10:40.83	330.61	22.05	-38.5	-39.2	24.5	0.00e+00	0	43	0	3460300800	47	4183
2026-01-26 12:10:41.84	330.66	21.91	-38.5	-39.3	24.5	0.00e+00	0	43	0	3466592256	47	4206
2026-01-26 12:10:42.85	330.71	21.77	-38.6	-39.3	24.4	0.00e+00	0	43	0	3471835136	47	4222
2026-01-26 12:10:43.85	330.75	21.64	-38.6	-39.4	24.4	0.00e+00	0	44	0	3478126592	47	4253
2026-01-26 12:10:44.86	330.80	21.50	-38.6	-39.4	24.4	0.00e+00	0	44	0	3483369472	47	4246
2026-01-26 12:10:45.87	330.85	21.36	-38.6	-39.3	24.4	0.00e+00	0	44	0	3488612352	47	4231
2026-01-26 12:10:46.88	330.89	21.22	-38.7	-39.5	24.3	0.00e+00	0	43	0	3494903808	47	4292
2026-01-26 12:10:47.88	330.94	21.09	-38.6	-39.4	24.4	0.00e+00	0	43	0	3500146688	47	4265
2026-01-26 12:10:48.89	330.98	20.95	-39.0	-39.8	24.5	0.00e+00	0	43	0	3505389568	48	4202
2026-01-26 12:10:49.89	331.02	20.82	-39.0	-39.7	24.6	0.00e+00	0	44	0	3511681024	48	4184
2026-01-26 12:10:50.90	331.07	20.69	-39.1	-39.8	24.5	0.00e+00	0	43	0	3516923904	48	4227
2026-01-26 12:10:51.91	331.11	20.55	-39.1	-39.8	24.4	0.00e+00	0	44	0	3522166784	48	4238
2026-01-26 12:10:52.92	331.16	20.42	-39.0	-39.8	24.5	0.00e+00	0	44	0	3528458240	48	4200
2026-01-26 12:10:53.93	331.20	20.29	-39.1	-39.8	24.5	0.00e+00	0	43	0	3533701120	48	4222
2026-01-26 12:10:54.93	331.24	20.16	-39.1	-39.8	24.5	0.00e+00	0	44	0	3539992576	48	4218
2026-01-26 12:10:55.94	331.28	20.03	-39.1	-39.9	24.4	0.00e+00	0	43	0	3545235456	48	4243
2026-01-26 12:10:56.94	331.33	19.90	-39.1	-39.8	24.4	0.00e+00	0	44	0	3551526912	48	4234
2026-01-26 12:10:57.95	331.37	19.77	-39.1	-39.8	24.4	0.00e+00	0	44	0	3556769792	48	4239
2026-01-26 12:10:58.96	331.41	19.64	-39.1	-39.8	24.4	0.00e+00	0	44	0	3563061248	48	4230
2026-01-26 12:10:59.97	331.45	19.52	-39.2	-39.9	24.4	0.00e+00	0	44	0	3568304128	49	4037
2026-01-26 12:11:00.98	331.49	19.39	-39.2	-39.9	24.4	0.00e+00	0	44	0	3573547008	49	4034
2026-01-26 12:11:01.98	331.53	19.26	-39.3	-40.0	24.3	0.00e+00	0	44	0	3579838464	49	4074
2026-01-26 12:11:02.99	331.57	19.14	-39.3	-40.0	24.2	0.00e+00	0	43	0	3585081344	49	4091
2026-01-26 12:11:04.00	331.61	19.01	-39.2	-39.9	24.3	0.00e+00	0	44	0	3590324224	49	4035
2026-01-26 12:11:05.01	331.65	18.89	-39.3	-40.0	24.2	0.00e+00	0	43	0	3596615680	49	4084
2026-01-26 12:11:06.01	331.69	18.76	-39.3	-40.0	24.2	0.00e+00	0	44	0	3601858560	49	4086
2026-01-26 12:11:07.02	331.73	18.64	-39.3	-40.0	24.2	0.00e+00	0	43	0	3607101440	49	4096
2026-01-26 12:11:08.03	331.77	18.52	-39.4	-40.1	24.2	0.00e+00	0	44	0	3613392896	49	4122
2026-01-26 12:11:09.03	331.81	18.40	-39.5	-40.2	24.1	0.00e+00	0	44	0	3619684352	49	4170
2026-01-26 12:11:10.04	331.84	18.28	-39.5	-40.3	24.0	0.00e+00	0	44	0	3624927232	49	4200
2026-01-26 12:11:11.05	331.88	18.15	-39.5	-40.2	24.0	0.00e+00	0	44	0	3630170112	49	4190
2026-01-26 12:11:12.06	331.92	18.03	-39.6	-40.4	23.9	0.00e+00	0	44	0	3636461568	49	4251
2026-01-26 12:11:13.07	331.96	17.91	-39.6	-40.3	23.9	0.00e+00	0	43	0	3641704448	49	4230
2026-01-26 12:11:14.07	331.99	17.80	-39.7	-40.5	23.8	0.00e+00	0	43	0	3647995904	49	4298
2026-01-26 12:11:15.08	332.03	17.68	-39.7	-40.5	23.8	0.00e+00	0	44	0	3653238784	50	4059
2026-01-26 12:11:16.08	332.07	17.56	-39.8	-40.6	23.7	0.00e+00	0	43	0	3658481664	50	4116
2026-01-26 12:11:17.09	332.10	17.44	-39.8	-40.6	23.7	0.00e+00	0	43	0	3664773120	50	4127
2026-01-26 12:11:18.10	332.14	17.33	-39.9	-40.6	23.6	0.00e+00	0	43	0	3670016000	50	4135
2026-01-26 12:11:19.10	332.18	17.21	-39.9	-40.7	23.6	0.00e+00	0	44	0	3675258880	50	4177
2026-01-26 12:11:20.11	332.21	17.10	-40.0	-40.8	23.5	0.00e+00	0	44	0	3681550336	50	4210
