passes_logs/2026/01/26/R3.2S_Murmansk/R3.2S_Murmansk__20260126_081720_KANOPUS-V_5_rec.log

#Pass ID: 20260126_081720_KANOPUS-V 5
#Satellite: KANOPUS-V 5
#Configuration: KANOPUS-V_8320
#almurnet v.1.7.20251203
#Start time: 2026-01-26 08:17:21

#Version: 2.2.20231116
#Station: R3.2S_Murmansk
#Location: 33.079688 lon 68.888172 lat
#TLE: 1 43876U 18111A   26026.00801652  .00005574  00000+0  23616-3 0  9999
#TLE: 2 43876  97.3673 294.3234 0001826  89.2210 270.9236 15.23545039393147

#Time	Az	El	Level	Level2	SNR	BER	BlckErr	Temp	State	Recorded	gain1	gain2
2026-01-26 08:17:21.60	174.01	2.07	-49.1	-58.0	3.8	7.46e-01	0	41	0	0	68	10824
2026-01-26 08:17:22.61	174.05	2.14	-49.2	-58.0	3.8	7.45e-01	0	41	104	0	69	10236
2026-01-26 08:17:23.62	174.08	2.22	-49.1	-58.0	3.8	7.45e-01	0	42	104	0	69	10267
2026-01-26 08:17:24.63	174.12	2.29	-49.2	-58.0	3.8	7.46e-01	0	42	104	0	69	10206
2026-01-26 08:17:25.63	174.15	2.36	-49.2	-58.0	3.8	7.45e-01	0	42	104	0	69	10238
2026-01-26 08:17:26.64	174.18	2.43	-49.2	-58.0	3.8	7.46e-01	0	42	104	0	69	10195
2026-01-26 08:17:27.65	174.22	2.50	-49.1	-58.0	3.8	7.46e-01	0	42	104	0	69	10227
2026-01-26 08:17:28.66	174.25	2.57	-49.1	-58.0	3.8	7.47e-01	0	41	104	0	69	10224
2026-01-26 08:17:29.67	174.29	2.64	-49.2	-58.0	3.8	7.44e-01	0	41	104	0	69	10217
2026-01-26 08:17:30.67	174.32	2.71	-49.1	-58.0	3.8	7.45e-01	0	42	104	0	69	10204
2026-01-26 08:17:31.68	174.36	2.79	-49.2	-58.0	3.8	7.45e-01	0	42	104	0	69	10206
2026-01-26 08:17:32.69	174.40	2.86	-49.2	-58.0	3.8	7.45e-01	0	42	104	0	69	10220
2026-01-26 08:17:33.70	174.43	2.93	-49.2	-58.0	3.8	7.46e-01	0	42	104	0	69	10216
2026-01-26 08:17:34.71	174.47	3.00	-49.2	-58.0	3.8	7.45e-01	0	42	104	0	69	10180
2026-01-26 08:17:35.71	174.51	3.08	-49.2	-58.0	3.8	7.45e-01	0	42	104	0	69	10202
2026-01-26 08:17:36.72	174.54	3.15	-49.2	-58.0	3.8	7.45e-01	0	42	104	0	69	10228
2026-01-26 08:17:37.73	174.58	3.22	-49.2	-58.0	3.8	7.45e-01	0	42	104	0	69	10232
2026-01-26 08:17:38.74	174.62	3.30	-49.2	-58.0	3.8	7.44e-01	0	42	104	0	69	10213
2026-01-26 08:17:39.75	174.65	3.37	-49.1	-58.0	3.8	7.44e-01	0	42	104	0	69	10215
2026-01-26 08:17:40.75	174.69	3.45	-49.2	-58.0	3.8	7.46e-01	0	42	104	0	69	10249
2026-01-26 08:17:41.76	174.73	3.52	-49.2	-58.0	3.8	7.46e-01	0	42	104	0	69	10232
2026-01-26 08:17:42.77	174.77	3.60	-49.1	-58.0	3.8	7.45e-01	0	42	104	0	69	10205
2026-01-26 08:17:43.78	174.80	3.67	-49.2	-58.0	3.8	7.45e-01	0	42	104	0	69	10230
2026-01-26 08:17:44.79	174.84	3.75	-49.2	-58.0	3.8	7.45e-01	0	42	104	0	69	10222
2026-01-26 08:17:45.80	174.88	3.82	-49.1	-58.0	3.8	7.47e-01	0	42	104	0	69	10231
2026-01-26 08:17:46.81	174.92	3.90	-49.2	-58.0	3.8	7.45e-01	0	42	104	0	69	10187
2026-01-26 08:17:47.82	174.96	3.98	-49.2	-58.0	3.8	7.44e-01	0	42	104	0	69	10210
2026-01-26 08:17:48.82	175.00	4.05	-49.2	-58.0	3.8	7.44e-01	0	42	104	0	69	10195
2026-01-26 08:17:49.83	175.04	4.13	-49.2	-58.0	3.8	7.44e-01	0	42	104	0	69	10221
2026-01-26 08:17:50.84	175.08	4.21	-49.2	-58.0	3.8	7.45e-01	0	42	104	0	69	10199
2026-01-26 08:17:51.85	175.12	4.28	-49.2	-58.0	3.8	7.46e-01	0	42	104	0	69	10213
2026-01-26 08:17:52.85	175.16	4.36	-49.2	-58.0	3.8	7.45e-01	0	42	104	0	69	10228
2026-01-26 08:17:53.86	175.20	4.44	-49.2	-58.0	3.8	7.46e-01	0	42	104	0	69	10188
2026-01-26 08:17:54.87	175.24	4.52	-49.2	-58.0	3.8	7.46e-01	0	42	104	0	69	10235
2026-01-26 08:17:55.88	175.28	4.60	-49.2	-58.0	3.8	7.45e-01	0	42	104	0	69	10215
2026-01-26 08:17:56.89	175.32	4.68	-49.2	-58.0	3.8	7.44e-01	0	42	104	0	69	10234
2026-01-26 08:17:57.89	175.37	4.75	-49.2	-58.0	3.8	7.46e-01	0	42	104	0	69	10228
2026-01-26 08:17:58.90	175.41	4.83	-49.2	-58.0	3.8	7.46e-01	0	43	104	0	69	10225
2026-01-26 08:17:59.91	175.45	4.91	-49.1	-58.0	3.8	7.44e-01	0	42	104	0	69	10231
2026-01-26 08:18:00.91	175.49	4.99	-49.2	-58.0	3.8	7.45e-01	0	43	104	0	69	10224
2026-01-26 08:18:01.92	175.53	5.07	-49.2	-58.0	3.8	7.46e-01	0	43	104	0	69	10217
2026-01-26 08:18:02.93	175.58	5.16	-49.2	-58.0	3.8	7.45e-01	0	43	104	0	69	10219
2026-01-26 08:18:03.94	175.62	5.24	-49.2	-58.0	3.8	7.45e-01	0	43	104	0	69	10233
2026-01-26 08:18:04.94	175.66	5.32	-49.2	-58.0	3.8	7.45e-01	0	42	104	0	69	10233
2026-01-26 08:18:05.95	175.71	5.40	-49.2	-58.0	3.8	7.46e-01	0	43	104	0	69	10220
2026-01-26 08:18:06.96	175.75	5.48	-49.2	-58.0	3.8	7.45e-01	0	42	104	0	69	10227
2026-01-26 08:18:07.97	175.80	5.57	-49.2	-58.0	3.8	7.46e-01	0	43	104	0	69	10231
2026-01-26 08:18:08.97	175.84	5.65	-49.2	-58.0	3.8	7.46e-01	0	43	104	0	69	10279
2026-01-26 08:18:09.98	175.89	5.73	-49.2	-58.0	3.8	7.44e-01	0	43	104	0	69	10218
2026-01-26 08:18:10.99	175.93	5.81	-49.2	-58.0	3.8	7.46e-01	0	43	104	0	69	10209
2026-01-26 08:18:12.00	175.98	5.90	-49.2	-58.0	3.8	7.45e-01	0	43	104	0	69	10238
2026-01-26 08:18:13.01	176.02	5.98	-49.2	-58.0	3.8	7.47e-01	0	43	104	0	69	10189
2026-01-26 08:18:14.01	176.07	6.07	-49.2	-58.0	3.8	7.46e-01	0	43	104	0	69	10223
2026-01-26 08:18:15.02	176.12	6.15	-49.2	-58.0	3.8	7.45e-01	0	43	104	0	69	10243
2026-01-26 08:18:16.03	176.16	6.24	-49.2	-58.0	3.8	7.47e-01	0	43	104	0	69	10221
2026-01-26 08:18:17.03	176.21	6.32	-49.2	-58.0	3.8	7.44e-01	0	43	104	0	69	10255
2026-01-26 08:18:18.04	176.26	6.41	-49.2	-58.0	3.8	7.44e-01	0	43	104	0	69	10217
2026-01-26 08:18:19.05	176.31	6.50	-49.2	-58.0	3.8	7.47e-01	0	43	104	0	69	10217
2026-01-26 08:18:20.05	176.35	6.58	-49.2	-58.0	3.8	7.44e-01	0	43	104	0	69	10221
2026-01-26 08:18:21.06	176.40	6.67	-49.2	-58.0	3.8	7.46e-01	0	43	104	0	69	10229
2026-01-26 08:18:22.07	176.45	6.76	-49.2	-58.0	3.8	7.44e-01	0	43	104	0	69	10202
2026-01-26 08:18:23.08	176.50	6.84	-49.2	-58.0	3.8	7.45e-01	0	43	104	0	69	10186
2026-01-26 08:18:24.09	176.55	6.93	-49.2	-58.0	3.8	7.46e-01	0	43	104	0	69	10190
2026-01-26 08:18:25.09	176.60	7.02	-49.2	-58.0	3.8	7.45e-01	0	43	104	0	69	10197
2026-01-26 08:18:26.10	176.65	7.11	-49.2	-58.0	3.8	7.46e-01	0	43	104	0	69	10202
2026-01-26 08:18:27.11	176.70	7.20	-49.2	-58.0	3.8	7.45e-01	0	43	104	0	69	10229
2026-01-26 08:18:28.12	176.75	7.29	-49.2	-58.0	3.8	7.45e-01	0	43	104	0	69	10180
2026-01-26 08:18:29.13	176.80	7.38	-49.2	-58.0	3.8	7.45e-01	0	43	104	0	69	10215
2026-01-26 08:18:30.14	176.85	7.47	-49.2	-58.0	3.8	7.44e-01	0	43	104	0	69	10224
2026-01-26 08:18:31.15	176.91	7.56	-49.2	-58.0	3.8	7.45e-01	0	43	104	0	69	10230
2026-01-26 08:18:32.15	176.96	7.65	-49.2	-58.0	3.8	7.44e-01	0	43	104	0	69	10199
2026-01-26 08:18:33.17	177.01	7.75	-49.2	-58.0	3.8	7.42e-01	0	43	104	0	69	10236
2026-01-26 08:18:34.18	177.07	7.84	-49.2	-58.0	3.8	7.45e-01	0	43	104	0	69	10202
2026-01-26 08:18:35.19	177.12	7.93	-49.2	-58.0	3.8	7.46e-01	0	43	104	0	69	10236
2026-01-26 08:18:36.19	177.17	8.03	-49.2	-58.0	3.8	7.43e-01	0	43	104	0	69	10254
2026-01-26 08:18:37.20	177.23	8.12	-49.2	-58.0	3.8	7.46e-01	0	43	104	0	69	10241
2026-01-26 08:18:38.21	177.28	8.21	-49.2	-58.0	3.8	7.45e-01	0	43	104	0	69	10221
2026-01-26 08:18:39.22	177.34	8.31	-49.2	-58.0	3.8	7.44e-01	0	43	104	0	69	10210
2026-01-26 08:18:40.23	177.39	8.41	-49.2	-58.0	3.8	7.45e-01	0	43	104	0	69	10208
2026-01-26 08:18:41.23	177.45	8.50	-49.2	-58.0	3.8	7.45e-01	0	43	104	0	69	10215
2026-01-26 08:18:42.24	177.51	8.60	-49.2	-58.0	3.8	7.46e-01	0	43	104	0	69	10240
2026-01-26 08:18:43.25	177.56	8.69	-49.2	-58.0	3.8	7.44e-01	0	43	104	0	69	10218
2026-01-26 08:18:44.26	177.62	8.79	-49.2	-58.0	3.8	7.46e-01	0	43	104	0	69	10252
2026-01-26 08:18:45.27	177.68	8.89	-49.2	-58.0	3.8	7.46e-01	0	43	104	0	69	10220
2026-01-26 08:18:46.27	177.74	8.99	-49.2	-58.0	3.8	7.45e-01	0	43	104	0	69	10228
2026-01-26 08:18:47.28	177.80	9.08	-49.2	-58.0	3.8	7.46e-01	0	43	104	0	69	10248
2026-01-26 08:18:48.29	177.85	9.18	-49.2	-58.0	3.8	7.45e-01	0	43	104	0	69	10227
2026-01-26 08:18:49.30	177.91	9.28	-49.2	-58.0	3.8	7.46e-01	0	43	104	0	69	10185
2026-01-26 08:18:50.31	177.97	9.38	-49.2	-58.0	3.8	7.46e-01	0	43	104	0	69	10276
2026-01-26 08:18:51.31	178.04	9.48	-49.2	-58.0	3.8	7.45e-01	0	43	104	0	69	10236
2026-01-26 08:18:52.32	178.10	9.59	-49.2	-58.0	3.8	7.45e-01	0	43	104	0	69	10211
2026-01-26 08:18:53.33	178.16	9.69	-49.2	-58.0	3.8	7.45e-01	0	43	104	0	69	10207
2026-01-26 08:18:54.34	178.22	9.79	-49.2	-58.0	3.8	7.48e-01	0	43	104	0	69	10248
2026-01-26 08:18:55.35	178.28	9.89	-49.2	-58.0	3.8	7.45e-01	0	43	104	0	69	10219
2026-01-26 08:18:56.35	178.35	10.00	-49.2	-58.0	3.8	7.45e-01	0	43	104	0	69	10249
2026-01-26 08:18:57.36	178.41	10.10	-49.2	-58.0	3.8	7.44e-01	0	43	104	0	69	10225
2026-01-26 08:18:58.37	178.47	10.20	-49.2	-58.0	3.8	7.44e-01	0	43	104	0	69	10219
2026-01-26 08:18:59.38	178.54	10.31	-49.2	-58.0	3.8	7.45e-01	0	43	104	0	69	10251
2026-01-26 08:19:00.39	178.60	10.42	-49.2	-58.0	3.8	7.46e-01	0	43	104	0	69	10232
2026-01-26 08:19:01.39	178.67	10.52	-49.2	-58.0	3.8	7.47e-01	0	43	104	0	69	10241
2026-01-26 08:19:02.40	178.74	10.63	-49.2	-58.0	3.8	7.46e-01	0	43	104	0	69	10230
2026-01-26 08:19:03.41	178.80	10.74	-49.2	-58.0	3.8	7.46e-01	0	43	104	0	69	10237
2026-01-26 08:19:04.42	178.87	10.84	-49.2	-58.0	3.8	7.45e-01	0	43	104	0	69	10203
2026-01-26 08:19:05.43	178.94	10.95	-49.2	-58.0	3.8	7.45e-01	0	43	104	0	69	10236
2026-01-26 08:19:06.43	179.01	11.06	-49.2	-58.0	3.8	7.43e-01	0	44	104	0	69	10217
2026-01-26 08:19:07.44	179.08	11.17	-49.2	-58.0	3.8	7.46e-01	0	43	104	0	69	10232
2026-01-26 08:19:08.44	179.15	11.28	-49.2	-58.0	3.8	7.45e-01	0	43	104	0	69	10219
2026-01-26 08:19:09.45	179.22	11.39	-49.2	-58.0	3.8	7.44e-01	0	43	104	0	69	10224
2026-01-26 08:19:10.46	179.29	11.50	-49.2	-58.0	3.8	7.46e-01	0	43	104	0	69	10223
2026-01-26 08:19:11.47	179.36	11.62	-49.2	-58.0	3.8	7.44e-01	0	44	104	0	69	10257
2026-01-26 08:19:12.48	179.43	11.73	-49.2	-58.0	3.8	7.45e-01	0	43	104	0	69	10208
2026-01-26 08:19:13.49	179.51	11.84	-49.2	-58.0	3.8	7.46e-01	0	44	104	0	69	10257
2026-01-26 08:19:14.50	179.58	11.96	-49.2	-58.0	3.8	7.43e-01	0	44	104	0	69	10231
2026-01-26 08:19:15.51	179.65	12.08	-49.2	-58.0	3.8	7.44e-01	0	43	104	0	69	10255
2026-01-26 08:19:16.52	179.73	12.19	-49.2	-58.0	3.8	7.45e-01	0	44	104	0	69	10213
2026-01-26 08:19:17.53	179.81	12.31	-49.2	-58.0	3.8	7.44e-01	0	43	104	0	69	10235
2026-01-26 08:19:18.53	179.88	12.42	-49.2	-58.0	3.8	7.45e-01	0	43	104	0	69	10207
2026-01-26 08:19:19.54	179.96	12.54	-49.2	-58.0	3.8	7.44e-01	0	43	104	0	69	10216
2026-01-26 08:19:20.55	180.04	12.66	-49.2	-58.0	3.8	7.45e-01	0	43	104	0	69	10279
2026-01-26 08:19:21.56	180.12	12.78	-49.2	-58.0	3.8	7.44e-01	0	43	104	0	69	10257
2026-01-26 08:19:22.57	180.19	12.90	-49.2	-58.0	3.8	7.45e-01	0	44	104	0	69	10217
2026-01-26 08:19:23.57	180.27	13.02	-49.2	-58.0	3.8	7.45e-01	0	44	104	0	69	10249
2026-01-26 08:19:24.58	180.36	13.14	-49.2	-58.0	3.8	7.46e-01	0	43	104	0	69	10241
2026-01-26 08:19:25.59	180.44	13.27	-49.2	-58.0	3.8	7.45e-01	0	43	104	0	69	10243
2026-01-26 08:19:26.60	180.52	13.39	-49.2	-58.0	3.8	7.46e-01	0	43	104	0	69	10224
2026-01-26 08:19:27.61	180.60	13.51	-49.2	-58.0	3.8	7.47e-01	0	44	104	0	69	10238
2026-01-26 08:19:28.61	180.69	13.64	-49.2	-58.0	3.8	7.45e-01	0	44	104	0	69	10225
2026-01-26 08:19:29.62	180.77	13.76	-49.2	-58.0	3.8	7.46e-01	0	44	104	0	69	10263
2026-01-26 08:19:30.63	180.86	13.89	-49.2	-58.0	3.8	7.44e-01	0	43	104	0	69	10220
2026-01-26 08:19:31.64	180.94	14.02	-49.2	-58.0	3.8	7.46e-01	0	44	104	0	69	10201
2026-01-26 08:19:32.65	181.03	14.15	-49.2	-58.0	3.8	7.44e-01	0	43	104	0	69	10208
2026-01-26 08:19:33.66	181.12	14.27	-49.2	-58.0	3.8	7.45e-01	0	44	104	0	69	10215
2026-01-26 08:19:34.67	181.21	14.40	-49.2	-58.0	3.8	7.44e-01	0	44	104	0	69	10220
2026-01-26 08:19:35.67	181.30	14.53	-49.2	-58.0	3.8	7.45e-01	0	44	104	0	69	10236
2026-01-26 08:19:36.68	181.39	14.67	-49.2	-58.0	3.8	7.45e-01	0	43	104	0	69	10245
2026-01-26 08:19:37.69	181.48	14.80	-49.2	-58.0	3.8	7.45e-01	0	44	104	0	69	10253
2026-01-26 08:19:38.69	181.57	14.93	-49.2	-58.0	3.8	7.44e-01	0	43	104	0	69	10192
2026-01-26 08:19:39.70	181.67	15.07	-49.2	-58.0	3.8	7.45e-01	0	43	104	0	69	10243
2026-01-26 08:19:40.71	181.76	15.20	-49.2	-58.0	3.8	7.45e-01	0	44	104	0	69	10264
2026-01-26 08:19:41.71	181.86	15.34	-49.2	-58.0	3.8	7.44e-01	0	44	104	0	69	10222
2026-01-26 08:19:42.72	181.95	15.47	-49.2	-58.0	3.8	7.45e-01	0	43	104	0	69	10224
2026-01-26 08:19:43.73	182.05	15.61	-49.2	-58.0	3.8	7.46e-01	0	44	104	0	69	10249
2026-01-26 08:19:44.74	182.15	15.75	-49.2	-58.0	3.8	7.44e-01	0	44	104	0	69	10265
2026-01-26 08:19:45.74	182.25	15.89	-49.2	-58.0	3.8	7.45e-01	0	44	104	0	69	10219
2026-01-26 08:19:46.75	182.35	16.03	-49.2	-58.0	3.8	7.46e-01	0	44	104	0	69	10250
2026-01-26 08:19:47.76	182.45	16.17	-49.2	-58.0	3.8	7.45e-01	0	43	104	0	69	10235
2026-01-26 08:19:48.77	182.55	16.31	-49.2	-58.0	3.8	7.45e-01	0	44	104	0	69	10236
2026-01-26 08:19:49.77	182.66	16.46	-49.2	-58.0	3.8	7.44e-01	0	44	104	0	69	10259
2026-01-26 08:19:50.78	182.76	16.60	-49.2	-58.0	3.8	7.46e-01	0	44	104	0	69	10236
2026-01-26 08:19:51.79	182.87	16.75	-49.2	-58.0	3.8	7.47e-01	0	44	104	0	69	10233
2026-01-26 08:19:52.79	182.98	16.89	-49.2	-58.0	3.8	7.43e-01	0	44	104	0	69	10230
2026-01-26 08:19:53.80	183.08	17.04	-49.2	-58.0	3.8	7.47e-01	0	44	104	0	69	10235
2026-01-26 08:19:54.81	183.19	17.19	-49.2	-58.0	3.8	7.44e-01	0	44	104	0	69	10240
2026-01-26 08:19:55.82	183.31	17.34	-49.2	-58.0	3.8	7.44e-01	0	44	104	0	69	10211
2026-01-26 08:19:56.83	183.42	17.49	-49.2	-58.0	3.8	7.43e-01	0	44	104	0	69	10206
2026-01-26 08:19:57.84	183.53	17.65	-49.2	-58.0	3.8	7.44e-01	0	44	104	0	69	10230
2026-01-26 08:19:58.85	183.65	17.80	-49.2	-58.0	3.8	7.45e-01	0	44	104	0	69	10232
2026-01-26 08:19:59.85	183.76	17.95	-49.2	-58.0	3.8	7.45e-01	0	44	104	0	69	10265
2026-01-26 08:20:00.85	183.88	18.11	-49.2	-58.0	3.8	7.43e-01	0	44	104	0	69	10253
2026-01-26 08:20:01.86	184.00	18.27	-49.2	-58.0	3.8	7.46e-01	0	44	104	0	69	10225
2026-01-26 08:20:02.87	184.12	18.42	-49.2	-58.0	3.8	7.45e-01	0	44	104	0	69	10222
2026-01-26 08:20:03.88	184.24	18.58	-49.2	-58.0	3.8	7.46e-01	0	44	104	0	69	10230
2026-01-26 08:20:04.89	184.36	18.74	-49.2	-58.0	3.8	7.44e-01	0	44	104	0	69	10286
2026-01-26 08:20:05.90	184.49	18.91	-49.2	-58.0	3.8	7.45e-01	0	43	104	0	69	10197
2026-01-26 08:20:06.91	184.62	19.07	-49.2	-58.0	3.8	7.45e-01	0	44	104	0	69	10270
2026-01-26 08:20:07.91	184.74	19.23	-49.2	-58.0	3.8	7.43e-01	0	44	104	0	69	10215
2026-01-26 08:20:08.92	184.87	19.40	-49.2	-58.0	3.8	7.45e-01	0	44	104	0	69	10216
2026-01-26 08:20:09.93	185.00	19.57	-49.2	-58.0	3.8	7.45e-01	0	44	104	0	69	10223
2026-01-26 08:20:10.93	185.13	19.73	-49.2	-58.0	3.8	7.46e-01	0	44	104	0	69	10237
2026-01-26 08:20:11.94	185.27	19.90	-49.2	-58.0	3.8	7.46e-01	0	44	104	0	69	10210
2026-01-26 08:20:12.95	185.40	20.07	-49.2	-58.0	3.8	7.45e-01	0	44	104	0	69	10265
2026-01-26 08:20:13.95	185.54	20.24	-49.2	-58.0	3.8	7.46e-01	0	44	104	0	69	10240
2026-01-26 08:20:14.96	185.68	20.42	-49.2	-58.0	3.8	7.45e-01	0	44	104	0	69	10209
2026-01-26 08:20:15.97	185.82	20.59	-49.2	-58.0	3.8	7.46e-01	0	44	104	0	69	10231
2026-01-26 08:20:16.97	185.96	20.77	-49.2	-58.0	3.8	7.46e-01	0	44	104	0	69	10245
2026-01-26 08:20:17.98	186.11	20.95	-49.2	-58.0	3.8	7.44e-01	0	44	104	0	69	10261
2026-01-26 08:20:18.99	186.25	21.13	-49.2	-58.0	3.8	7.47e-01	0	44	104	0	69	10241
2026-01-26 08:20:20.00	186.40	21.31	-49.2	-58.0	3.8	7.45e-01	0	44	104	0	69	10222
2026-01-26 08:20:21.01	186.55	21.49	-49.2	-58.0	3.8	7.46e-01	0	44	104	0	69	10225
2026-01-26 08:20:22.02	186.70	21.67	-49.2	-58.0	3.8	7.46e-01	0	44	104	0	69	10236
2026-01-26 08:20:23.03	186.86	21.86	-49.2	-58.0	3.8	7.46e-01	0	44	104	0	69	10221
2026-01-26 08:20:24.03	187.01	22.04	-49.2	-58.0	3.8	7.45e-01	0	44	104	0	69	10225
2026-01-26 08:20:25.04	187.17	22.23	-49.2	-58.0	3.8	7.43e-01	0	44	104	0	69	10214
2026-01-26 08:20:26.05	187.33	22.42	-49.2	-58.0	3.8	7.44e-01	0	44	104	0	69	10229
2026-01-26 08:20:27.06	187.49	22.61	-49.2	-58.0	3.8	7.44e-01	0	44	104	0	69	10235
2026-01-26 08:20:28.07	187.66	22.81	-49.2	-58.0	3.8	7.45e-01	0	44	104	0	69	10226
2026-01-26 08:20:29.08	187.83	23.00	-49.2	-58.0	3.8	7.45e-01	0	44	104	0	69	10220
2026-01-26 08:20:30.09	188.00	23.20	-49.2	-58.0	3.8	7.45e-01	0	44	104	0	69	10237
2026-01-26 08:20:31.10	188.17	23.39	-49.2	-58.0	3.8	7.46e-01	0	44	104	0	69	10212
2026-01-26 08:20:32.10	188.34	23.59	-49.2	-58.0	3.8	7.46e-01	0	44	104	0	69	10187
2026-01-26 08:20:33.11	188.52	23.79	-49.2	-58.0	3.8	7.46e-01	0	44	104	0	69	10237
2026-01-26 08:20:34.12	188.70	24.00	-49.2	-58.0	3.8	7.46e-01	0	44	104	0	69	10236
2026-01-26 08:20:35.13	188.88	24.20	-49.2	-58.0	3.8	7.45e-01	0	44	104	0	69	10225
2026-01-26 08:20:36.13	189.06	24.41	-49.2	-58.0	3.8	7.47e-01	0	44	104	0	69	10215
2026-01-26 08:20:37.14	189.25	24.61	-49.2	-58.0	3.8	7.44e-01	0	44	104	0	69	10226
2026-01-26 08:20:38.15	189.44	24.82	-49.2	-58.0	3.8	7.45e-01	0	44	104	0	69	10220
2026-01-26 08:20:39.16	189.63	25.03	-49.2	-58.0	3.8	7.44e-01	0	44	104	0	69	10203
2026-01-26 08:20:40.17	189.83	25.25	-49.2	-58.0	3.8	7.45e-01	0	44	104	0	69	10235
2026-01-26 08:20:41.17	190.02	25.46	-49.2	-58.0	3.8	7.46e-01	0	44	104	0	69	10233
2026-01-26 08:20:42.18	190.22	25.68	-49.2	-58.0	3.8	7.46e-01	0	44	104	0	69	10234
2026-01-26 08:20:43.19	190.43	25.90	-49.2	-58.0	3.8	7.44e-01	0	44	104	0	69	10244
2026-01-26 08:20:44.19	190.63	26.12	-49.2	-58.0	3.8	7.45e-01	0	44	104	0	69	10224
2026-01-26 08:20:45.20	190.84	26.34	-49.2	-58.0	3.8	7.45e-01	0	44	104	0	69	10221
2026-01-26 08:20:46.21	191.06	26.56	-49.2	-58.0	3.8	7.45e-01	0	44	104	0	69	10224
2026-01-26 08:20:47.22	191.27	26.79	-49.2	-58.0	3.8	7.44e-01	0	44	104	0	69	10231
2026-01-26 08:20:48.23	191.49	27.02	-49.2	-58.0	3.8	7.46e-01	0	44	104	0	69	10247
2026-01-26 08:20:49.24	191.72	27.25	-49.2	-58.0	3.8	7.47e-01	0	44	104	0	69	10239
2026-01-26 08:20:50.25	191.94	27.48	-49.2	-58.0	3.8	7.43e-01	0	44	104	0	69	10229
2026-01-26 08:20:51.25	192.17	27.71	-49.2	-58.0	3.8	7.45e-01	0	44	104	0	69	10223
2026-01-26 08:20:52.26	192.41	27.95	-49.2	-58.0	3.8	7.45e-01	0	44	104	0	69	10279
2026-01-26 08:20:53.27	192.65	28.18	-49.2	-58.0	3.8	7.45e-01	0	44	104	0	69	10241
2026-01-26 08:20:54.28	192.89	28.42	-49.2	-58.0	3.8	7.44e-01	0	44	104	0	69	10224
2026-01-26 08:20:55.29	193.13	28.66	-49.2	-58.0	3.8	7.45e-01	0	44	104	0	69	10202
2026-01-26 08:20:56.29	193.38	28.91	-49.2	-58.0	3.8	7.43e-01	0	44	104	0	69	10230
2026-01-26 08:20:57.30	193.64	29.15	-49.2	-58.0	3.8	7.46e-01	0	44	104	0	69	10235
2026-01-26 08:20:58.31	193.89	29.40	-49.2	-58.0	3.8	7.45e-01	0	44	104	0	69	10200
2026-01-26 08:20:59.32	194.16	29.65	-49.2	-58.0	3.8	7.46e-01	0	44	104	0	69	10240
2026-01-26 08:21:00.33	194.42	29.90	-49.2	-58.0	3.8	7.44e-01	0	44	104	0	69	10255
2026-01-26 08:21:01.33	194.69	30.15	-49.2	-58.0	3.8	7.47e-01	0	44	104	0	69	10250
2026-01-26 08:21:02.34	194.97	30.41	-49.2	-58.0	3.8	7.45e-01	0	44	104	0	69	10217
2026-01-26 08:21:03.35	195.25	30.67	-49.2	-58.0	3.8	7.45e-01	0	44	104	0	69	10247
2026-01-26 08:21:04.36	195.53	30.93	-49.2	-58.0	3.8	7.46e-01	0	44	104	0	69	10264
2026-01-26 08:21:05.36	195.82	31.19	-49.2	-58.0	3.8	7.46e-01	0	44	104	0	69	10250
2026-01-26 08:21:06.37	196.12	31.45	-49.2	-58.0	3.8	7.44e-01	0	44	104	0	69	10236
2026-01-26 08:21:07.37	196.41	31.71	-49.2	-58.0	3.8	7.46e-01	0	44	104	0	69	10210
2026-01-26 08:21:08.38	196.72	31.98	-49.2	-58.0	3.8	7.47e-01	0	44	104	0	69	10223
2026-01-26 08:21:09.38	197.03	32.25	-49.2	-58.0	3.8	7.44e-01	0	44	104	0	69	10233
2026-01-26 08:21:10.39	197.34	32.52	-49.2	-58.0	3.8	7.46e-01	0	44	104	0	69	10245
2026-01-26 08:21:11.40	197.67	32.79	-49.2	-58.0	3.8	7.46e-01	0	44	104	0	69	10249
2026-01-26 08:21:12.41	197.99	33.07	-49.2	-58.0	3.8	7.46e-01	0	44	104	0	69	10213
2026-01-26 08:21:13.41	198.33	33.35	-49.2	-58.0	3.8	7.44e-01	0	44	104	0	69	10227
2026-01-26 08:21:14.42	198.67	33.63	-49.2	-58.0	3.8	7.45e-01	0	44	104	0	69	10219
2026-01-26 08:21:15.43	199.01	33.91	-49.2	-58.0	3.8	7.44e-01	0	44	104	0	69	10228
2026-01-26 08:21:16.44	199.36	34.19	-49.2	-58.0	3.8	7.48e-01	0	44	104	0	69	10208
2026-01-26 08:21:17.44	199.72	34.48	-49.2	-58.0	3.8	7.45e-01	0	44	104	0	69	10217
2026-01-26 08:21:18.45	200.09	34.76	-49.2	-58.0	3.8	7.44e-01	0	44	104	0	69	10224
2026-01-26 08:21:19.46	200.46	35.05	-49.2	-58.0	3.8	7.45e-01	0	44	104	0	69	10253
2026-01-26 08:21:20.47	200.84	35.34	-49.2	-58.0	3.8	7.45e-01	0	44	104	0	69	10223
2026-01-26 08:21:21.48	201.23	35.64	-49.2	-58.0	3.8	7.46e-01	0	44	104	0	69	10245
2026-01-26 08:21:22.49	201.62	35.93	-49.2	-58.0	3.8	7.46e-01	0	44	104	0	69	10228
2026-01-26 08:21:23.50	202.02	36.23	-49.2	-58.0	3.8	7.45e-01	0	44	104	0	69	10230
2026-01-26 08:21:24.51	202.43	36.53	-49.2	-58.0	3.8	7.44e-01	0	44	104	0	69	10251
2026-01-26 08:21:25.51	202.85	36.82	-49.2	-58.0	3.8	7.47e-01	0	44	104	0	69	10228
2026-01-26 08:21:26.52	203.27	37.12	-49.2	-58.0	3.8	7.46e-01	0	44	104	0	69	10216
2026-01-26 08:21:27.53	203.71	37.43	-49.2	-58.0	3.8	7.45e-01	0	44	104	0	69	10233
2026-01-26 08:21:28.54	204.15	37.73	-49.2	-58.0	3.8	7.46e-01	0	44	104	0	69	10233
2026-01-26 08:21:29.54	204.59	38.03	-49.2	-58.0	3.8	7.44e-01	0	44	104	0	69	10218
2026-01-26 08:21:30.55	205.05	38.34	-49.2	-58.0	3.8	7.44e-01	0	44	104	0	69	10214
2026-01-26 08:21:31.56	205.52	38.65	-49.2	-58.0	3.8	7.46e-01	0	44	104	0	69	10211
2026-01-26 08:21:32.57	206.00	38.96	-49.2	-58.0	3.8	7.45e-01	0	44	104	0	69	10205
2026-01-26 08:21:33.58	206.49	39.27	-49.2	-58.0	3.8	7.45e-01	0	44	104	0	69	10236
2026-01-26 08:21:34.58	206.98	39.58	-49.2	-58.0	3.8	7.46e-01	0	44	104	0	69	10262
2026-01-26 08:21:35.59	207.49	39.89	-49.2	-58.0	3.8	7.46e-01	0	44	104	0	69	10209
2026-01-26 08:21:36.59	208.00	40.20	-49.2	-58.0	3.8	7.45e-01	0	44	104	0	69	10219
2026-01-26 08:21:37.60	208.53	40.51	-49.2	-58.0	3.8	7.46e-01	0	44	104	0	69	10245
2026-01-26 08:21:38.61	209.07	40.83	-49.2	-58.0	3.8	7.46e-01	0	44	104	0	69	10220
2026-01-26 08:21:39.62	209.62	41.14	-49.2	-58.0	3.8	7.44e-01	0	44	104	0	69	10214
2026-01-26 08:21:40.62	210.18	41.45	-49.2	-58.0	3.8	7.43e-01	0	44	104	0	69	10195
2026-01-26 08:21:41.63	210.75	41.77	-49.2	-58.0	3.8	7.43e-01	0	44	104	0	69	10226
2026-01-26 08:21:42.64	211.33	42.08	-49.2	-58.0	3.8	7.45e-01	0	44	104	0	69	10245
2026-01-26 08:21:43.65	211.93	42.39	-49.2	-58.0	3.8	7.45e-01	0	44	104	0	69	10221
2026-01-26 08:21:44.65	212.53	42.71	-49.2	-58.0	3.8	7.44e-01	0	44	104	0	69	10247
2026-01-26 08:21:45.66	213.15	43.02	-49.2	-58.0	3.8	7.45e-01	0	44	104	0	69	10179
2026-01-26 08:21:46.67	213.78	43.33	-49.2	-58.0	3.8	7.45e-01	0	44	104	0	69	10210
2026-01-26 08:21:47.68	214.43	43.64	-49.2	-58.0	3.8	7.45e-01	0	44	104	0	69	10219
2026-01-26 08:21:48.68	215.08	43.95	-49.2	-58.0	3.8	7.45e-01	0	44	104	0	69	10214
2026-01-26 08:21:49.69	215.75	44.26	-49.2	-58.0	3.8	7.47e-01	0	44	104	0	69	10207
2026-01-26 08:21:50.70	216.44	44.57	-49.2	-58.0	3.8	7.44e-01	0	44	104	0	69	10238
2026-01-26 08:21:51.71	217.14	44.88	-49.2	-58.0	3.8	7.45e-01	0	44	104	0	69	10235
2026-01-26 08:21:52.71	217.84	45.18	-49.2	-58.0	3.8	7.45e-01	0	44	104	0	69	10258
2026-01-26 08:21:53.72	218.57	45.48	-49.2	-58.0	3.8	7.44e-01	0	44	104	0	69	10256
2026-01-26 08:21:54.73	219.31	45.78	-49.2	-58.0	3.8	7.46e-01	0	44	104	0	69	10257
2026-01-26 08:21:55.73	220.06	46.07	-49.1	-58.0	3.8	7.46e-01	0	44	104	0	69	10220
2026-01-26 08:21:56.74	220.83	46.37	-49.2	-58.0	3.8	7.46e-01	0	44	104	0	69	10195
2026-01-26 08:21:57.75	221.62	46.66	-49.2	-58.0	3.8	7.46e-01	0	44	104	0	69	10213
2026-01-26 08:21:58.76	222.42	46.94	-49.2	-58.0	3.8	7.47e-01	0	44	104	0	69	10243
2026-01-26 08:21:59.77	223.23	47.23	-49.2	-58.0	3.8	7.47e-01	0	44	104	0	69	10219
2026-01-26 08:22:00.78	224.06	47.51	-49.2	-58.0	3.8	7.45e-01	0	44	104	0	69	10234
2026-01-26 08:22:01.78	224.90	47.78	-49.2	-58.0	3.8	7.46e-01	0	44	104	0	69	10258
2026-01-26 08:22:02.79	225.76	48.05	-49.2	-58.0	3.8	7.44e-01	0	44	104	0	69	10209
2026-01-26 08:22:03.80	226.64	48.32	-49.2	-58.0	3.8	7.45e-01	0	44	104	0	69	10222
2026-01-26 08:22:04.81	227.53	48.58	-49.2	-58.0	3.8	7.47e-01	0	44	104	0	69	10204
2026-01-26 08:22:05.81	228.43	48.83	-49.2	-58.0	3.8	7.44e-01	0	44	104	0	69	10204
2026-01-26 08:22:06.82	229.35	49.08	-49.2	-58.0	3.8	7.44e-01	0	44	104	0	69	10272
2026-01-26 08:22:07.83	230.29	49.32	-49.1	-58.0	3.8	7.44e-01	0	44	104	0	69	10214
2026-01-26 08:22:08.83	231.23	49.55	-49.2	-58.0	3.8	7.45e-01	0	44	104	0	69	10235
2026-01-26 08:22:09.84	232.20	49.78	-49.2	-58.0	3.8	7.45e-01	0	44	104	0	69	10242
2026-01-26 08:22:10.85	233.18	50.00	-49.2	-58.0	3.8	7.45e-01	0	44	104	0	69	10224
2026-01-26 08:22:11.86	234.17	50.22	-49.2	-58.0	3.8	7.45e-01	0	44	104	0	69	10222
2026-01-26 08:22:12.87	235.19	50.42	-49.2	-58.0	3.8	7.46e-01	0	44	104	0	69	10234
2026-01-26 08:22:13.87	236.20	50.62	-49.2	-58.0	3.8	7.45e-01	0	44	104	0	69	10227
2026-01-26 08:22:14.88	237.24	50.81	-49.2	-58.0	3.8	7.46e-01	0	44	104	0	69	10239
2026-01-26 08:22:15.89	238.29	50.99	-49.1	-58.0	3.8	7.45e-01	0	44	104	0	69	10230
2026-01-26 08:22:16.90	239.35	51.16	-49.1	-58.0	3.8	7.45e-01	0	44	104	0	69	10220
2026-01-26 08:22:17.91	240.43	51.32	-49.2	-58.0	3.8	7.45e-01	0	44	104	0	69	10193
2026-01-26 08:22:18.92	241.51	51.48	-49.1	-58.0	3.8	7.46e-01	0	44	104	0	69	10240
2026-01-26 08:22:19.93	242.61	51.62	-49.2	-58.0	3.8	7.44e-01	0	44	104	0	69	10207
2026-01-26 08:22:20.93	243.71	51.75	-49.2	-58.0	3.8	7.46e-01	0	44	104	0	69	10221
2026-01-26 08:22:21.95	244.84	51.87	-49.2	-58.0	3.8	7.46e-01	0	44	104	0	69	10222
2026-01-26 08:22:22.96	245.96	51.98	-49.2	-58.0	3.8	7.44e-01	0	44	104	0	69	10209
2026-01-26 08:22:23.97	247.10	52.08	-49.2	-58.0	3.8	7.44e-01	0	44	104	0	69	10265
2026-01-26 08:22:24.97	248.23	52.17	-49.2	-58.0	3.8	7.45e-01	0	44	104	0	69	10209
2026-01-26 08:22:25.98	249.38	52.25	-49.2	-58.0	3.8	7.47e-01	0	44	104	0	69	10222
2026-01-26 08:22:26.99	250.53	52.31	-49.2	-58.0	3.8	7.45e-01	0	44	104	0	69	10212
2026-01-26 08:22:28.00	251.69	52.37	-49.2	-58.0	3.8	7.46e-01	0	44	104	0	69	10213
2026-01-26 08:22:29.01	252.85	52.41	-49.2	-58.0	3.8	7.46e-01	0	44	104	0	69	10263
2026-01-26 08:22:30.02	254.02	52.44	-49.2	-58.0	3.8	7.45e-01	0	44	104	0	69	10221
2026-01-26 08:22:31.02	255.17	52.46	-49.2	-58.0	3.8	7.45e-01	0	44	104	0	69	10239
2026-01-26 08:22:32.03	256.34	52.47	-49.2	-58.0	3.8	7.46e-01	0	44	104	0	69	10188
2026-01-26 08:22:33.04	257.51	52.46	-49.2	-58.0	3.8	7.46e-01	0	44	104	0	69	10214
2026-01-26 08:22:34.05	258.68	52.45	-49.2	-58.0	3.8	7.44e-01	0	44	104	0	69	10250
2026-01-26 08:22:35.06	259.85	52.42	-49.2	-58.0	3.8	7.44e-01	0	44	104	0	69	10215
2026-01-26 08:22:36.07	261.01	52.38	-49.2	-58.0	3.8	7.45e-01	0	44	104	0	69	10213
2026-01-26 08:22:37.08	262.17	52.33	-49.2	-58.0	3.8	7.44e-01	0	44	104	0	69	10237
2026-01-26 08:22:38.09	263.32	52.26	-49.2	-58.0	3.8	7.45e-01	0	44	104	0	69	10214
2026-01-26 08:22:39.10	264.47	52.19	-49.2	-58.0	3.8	7.45e-01	0	44	104	0	69	10222
2026-01-26 08:22:40.11	265.62	52.10	-49.2	-58.0	3.8	7.46e-01	0	44	104	0	69	10235
2026-01-26 08:22:41.11	266.74	52.01	-49.2	-58.0	3.8	7.45e-01	0	44	104	0	69	10227
2026-01-26 08:22:42.12	267.87	51.90	-49.2	-58.0	3.8	7.46e-01	0	44	104	0	69	10214
2026-01-26 08:22:43.13	268.99	51.78	-49.2	-58.0	3.8	7.45e-01	0	44	104	0	69	10212
2026-01-26 08:22:44.14	270.10	51.65	-49.2	-58.0	3.8	7.45e-01	0	44	104	0	69	10226
2026-01-26 08:22:45.15	271.20	51.51	-49.2	-58.0	3.8	7.45e-01	0	44	104	0	69	10265
2026-01-26 08:22:46.15	272.27	51.36	-49.2	-58.0	3.8	7.45e-01	0	44	104	0	69	10177
2026-01-26 08:22:47.16	273.35	51.20	-49.2	-58.0	3.8	7.43e-01	0	44	104	0	69	10226
2026-01-26 08:22:48.17	274.42	51.04	-49.2	-58.0	3.8	7.46e-01	0	44	104	0	69	10200
2026-01-26 08:22:49.18	275.47	50.86	-49.2	-58.0	3.8	7.47e-01	0	44	104	0	69	10236
2026-01-26 08:22:50.19	276.51	50.67	-49.2	-58.0	3.8	7.44e-01	0	44	104	0	69	10269
2026-01-26 08:22:51.19	277.52	50.48	-49.2	-58.0	3.8	7.46e-01	0	44	104	0	69	10210
2026-01-26 08:22:52.20	278.54	50.27	-49.2	-58.0	3.8	7.46e-01	0	44	104	0	69	10237
2026-01-26 08:22:53.21	279.54	50.06	-49.2	-58.0	3.8	7.46e-01	0	44	104	0	69	10216
2026-01-26 08:22:54.21	280.51	49.84	-49.2	-58.0	3.8	7.45e-01	0	44	104	0	69	10229
2026-01-26 08:22:55.22	281.48	49.62	-49.2	-58.0	3.8	7.46e-01	0	44	104	0	69	10191
2026-01-26 08:22:56.23	282.43	49.38	-49.2	-58.0	3.8	7.45e-01	0	44	104	0	69	10232
2026-01-26 08:22:57.24	283.37	49.14	-49.2	-58.0	3.8	7.44e-01	0	44	104	0	69	10238
2026-01-26 08:22:58.25	284.30	48.90	-49.2	-58.0	3.8	7.45e-01	0	44	104	0	69	10212
2026-01-26 08:22:59.25	285.20	48.65	-49.2	-58.0	3.8	7.45e-01	0	44	104	0	69	10220
2026-01-26 08:23:00.26	286.09	48.39	-49.2	-58.0	3.8	7.46e-01	0	44	104	0	69	10228
2026-01-26 08:23:01.26	286.96	48.13	-49.2	-58.0	3.8	7.46e-01	0	44	104	0	69	10204
2026-01-26 08:23:02.27	287.83	47.86	-49.2	-58.0	3.8	7.46e-01	0	44	104	0	69	10223
2026-01-26 08:23:03.28	288.68	47.59	-49.2	-58.0	3.8	7.45e-01	0	44	104	0	69	10244
2026-01-26 08:23:04.29	289.51	47.31	-49.2	-58.0	3.8	7.45e-01	0	44	104	0	69	10217
2026-01-26 08:23:05.30	290.33	47.03	-49.2	-58.0	3.8	7.46e-01	0	44	104	0	69	10229
2026-01-26 08:23:06.31	291.13	46.74	-49.2	-58.0	3.8	7.45e-01	0	44	104	0	69	10207
2026-01-26 08:23:07.32	291.92	46.45	-49.2	-58.0	3.8	7.45e-01	0	44	104	0	69	10210
2026-01-26 08:23:08.33	292.69	46.16	-49.2	-58.0	3.8	7.44e-01	0	44	104	0	69	10196
2026-01-26 08:23:09.33	293.44	45.87	-49.2	-58.0	3.8	7.46e-01	0	44	104	0	69	10199
2026-01-26 08:23:10.34	294.18	45.57	-49.2	-58.0	3.8	7.45e-01	0	44	104	0	69	10244
2026-01-26 08:23:11.35	294.91	45.27	-49.2	-58.0	3.8	7.46e-01	0	44	104	0	69	10220
2026-01-26 08:23:12.36	295.63	44.97	-49.2	-58.0	3.8	7.46e-01	0	44	104	0	69	10214
2026-01-26 08:23:13.36	296.32	44.67	-49.2	-58.0	3.8	7.44e-01	0	44	104	0	69	10193
2026-01-26 08:23:14.37	297.01	44.36	-49.2	-58.0	3.8	7.45e-01	0	44	104	0	69	10202
2026-01-26 08:23:15.38	297.68	44.05	-49.2	-58.0	3.8	7.46e-01	0	44	104	0	69	10248
2026-01-26 08:23:16.39	298.35	43.74	-49.2	-58.0	3.8	7.45e-01	0	44	104	0	69	10211
2026-01-26 08:23:17.39	298.99	43.43	-49.1	-58.0	3.8	7.46e-01	0	44	104	0	69	10245
2026-01-26 08:23:18.40	299.62	43.12	-49.2	-58.0	3.8	7.45e-01	0	44	104	0	69	10231
2026-01-26 08:23:19.41	300.24	42.81	-49.2	-58.0	3.8	7.47e-01	0	44	104	0	69	10227
2026-01-26 08:23:20.41	300.85	42.50	-49.2	-58.0	3.8	7.45e-01	0	44	104	0	69	10210
2026-01-26 08:23:21.42	301.45	42.19	-49.2	-58.0	3.8	7.45e-01	0	44	104	0	69	10216
2026-01-26 08:23:22.43	302.03	41.88	-49.2	-58.0	3.8	7.45e-01	0	44	104	0	69	10223
2026-01-26 08:23:23.44	302.61	41.56	-49.2	-58.0	3.8	7.45e-01	0	44	104	0	69	10248
2026-01-26 08:23:24.45	303.17	41.25	-49.2	-58.0	3.8	7.47e-01	0	44	104	0	69	10222
2026-01-26 08:23:25.45	303.71	40.94	-49.2	-58.0	3.8	7.44e-01	0	44	104	0	69	10198
2026-01-26 08:23:26.46	304.26	40.63	-49.2	-58.0	3.8	7.46e-01	0	44	104	0	69	10270
2026-01-26 08:23:27.47	304.79	40.31	-49.2	-58.0	3.8	7.46e-01	0	44	104	0	69	10223
2026-01-26 08:23:28.48	305.31	40.00	-49.2	-58.0	3.8	7.44e-01	0	44	104	0	69	10199
2026-01-26 08:23:29.49	305.81	39.69	-49.2	-58.0	3.8	7.46e-01	0	44	104	0	69	10233
2026-01-26 08:23:30.49	306.31	39.38	-49.2	-58.0	3.8	7.44e-01	0	44	104	0	69	10245
2026-01-26 08:23:31.50	306.80	39.07	-49.2	-58.0	3.8	7.45e-01	0	44	104	0	69	10218
2026-01-26 08:23:32.51	307.28	38.77	-49.2	-58.0	3.8	7.45e-01	0	44	104	0	69	10250
2026-01-26 08:23:33.52	307.75	38.46	-49.2	-58.0	3.8	7.45e-01	0	44	104	0	69	10231
2026-01-26 08:23:34.53	308.21	38.15	-49.2	-58.0	3.8	7.45e-01	0	44	104	0	69	10231
2026-01-26 08:23:35.53	308.66	37.85	-49.2	-58.0	3.8	7.46e-01	0	44	104	0	69	10193
2026-01-26 08:23:36.53	309.10	37.55	-49.1	-58.0	3.8	7.45e-01	0	44	104	0	69	10253
2026-01-26 08:23:37.54	309.53	37.25	-49.1	-58.0	3.8	7.44e-01	0	44	104	0	69	10180
2026-01-26 08:23:38.55	309.96	36.95	-49.2	-58.0	3.8	7.47e-01	0	44	104	0	69	10274
2026-01-26 08:23:39.56	310.38	36.65	-49.2	-58.0	3.8	7.44e-01	0	44	104	0	69	10223
2026-01-26 08:23:40.56	310.79	36.36	-49.2	-58.0	3.8	7.47e-01	0	44	104	0	69	10214
2026-01-26 08:23:41.57	311.19	36.06	-49.2	-58.0	3.8	7.45e-01	0	44	104	0	69	10216
2026-01-26 08:23:42.58	311.59	35.77	-49.1	-58.0	3.8	7.45e-01	0	44	104	0	69	10218
2026-01-26 08:23:43.59	311.97	35.47	-49.2	-58.0	3.8	7.47e-01	0	44	104	0	69	10216
2026-01-26 08:23:44.60	312.36	35.18	-49.2	-58.0	3.8	7.44e-01	0	44	104	0	69	10205
2026-01-26 08:23:45.61	312.73	34.89	-49.2	-58.0	3.8	7.45e-01	0	44	104	0	69	10221
2026-01-26 08:23:46.61	313.09	34.61	-49.2	-58.0	3.8	7.46e-01	0	44	104	0	69	10241
2026-01-26 08:23:47.61	313.45	34.33	-49.2	-58.0	3.8	7.46e-01	0	44	104	0	69	10214
2026-01-26 08:23:48.62	313.80	34.04	-49.2	-58.0	3.8	7.47e-01	0	44	104	0	69	10221
2026-01-26 08:23:49.63	314.15	33.76	-49.2	-58.0	3.8	7.45e-01	0	44	104	0	69	10210
2026-01-26 08:23:50.63	314.49	33.49	-49.2	-58.0	3.8	7.46e-01	0	44	104	0	69	10236
2026-01-26 08:23:51.64	314.82	33.21	-49.2	-58.0	3.8	7.46e-01	0	44	104	0	69	10218
2026-01-26 08:23:52.65	315.15	32.93	-49.2	-58.0	3.8	7.45e-01	0	44	104	0	69	10210
2026-01-26 08:23:53.65	315.47	32.66	-49.2	-58.0	3.8	7.46e-01	0	44	104	0	69	10221
2026-01-26 08:23:54.66	315.79	32.39	-49.2	-58.0	3.8	7.46e-01	0	44	104	0	69	10229
2026-01-26 08:23:55.67	316.10	32.12	-49.2	-58.0	3.8	7.45e-01	0	44	104	0	69	10235
2026-01-26 08:23:56.68	316.41	31.85	-49.2	-58.0	3.8	7.46e-01	0	44	104	0	69	10202
2026-01-26 08:23:57.69	316.71	31.59	-49.2	-58.0	3.8	7.47e-01	0	44	104	0	69	10213
2026-01-26 08:23:58.69	317.01	31.33	-49.2	-58.0	3.8	7.45e-01	0	44	104	0	69	10247
2026-01-26 08:23:59.70	317.30	31.07	-49.2	-58.0	3.8	7.45e-01	0	44	104	0	69	10206
2026-01-26 08:24:00.71	317.58	30.81	-49.2	-58.0	3.8	7.45e-01	0	44	104	0	69	10224
2026-01-26 08:24:01.72	317.87	30.55	-49.2	-58.0	3.8	7.44e-01	0	44	104	0	69	10223
2026-01-26 08:24:02.72	318.14	30.30	-49.2	-58.0	3.8	7.45e-01	0	44	104	0	69	10207
2026-01-26 08:24:03.73	318.41	30.04	-49.2	-58.0	3.8	7.46e-01	0	44	104	0	69	10242
2026-01-26 08:24:04.74	318.68	29.79	-49.2	-58.0	3.8	7.47e-01	0	44	104	0	69	10262
2026-01-26 08:24:05.75	318.94	29.54	-49.1	-58.0	3.8	7.46e-01	0	44	104	0	69	10252
2026-01-26 08:24:06.75	319.20	29.30	-49.2	-58.0	3.8	7.45e-01	0	44	104	0	69	10219
2026-01-26 08:24:07.76	319.45	29.05	-49.2	-58.0	3.8	7.45e-01	0	44	104	0	69	10229
2026-01-26 08:24:08.77	319.70	28.81	-49.2	-58.0	3.8	7.45e-01	0	44	104	0	69	10224
2026-01-26 08:24:09.78	319.95	28.57	-49.2	-58.0	3.8	7.44e-01	0	44	104	0	69	10244
2026-01-26 08:24:10.78	320.19	28.33	-49.2	-58.0	3.8	7.47e-01	0	44	104	0	69	10178
2026-01-26 08:24:11.79	320.43	28.09	-49.1	-58.0	3.8	7.44e-01	0	44	104	0	69	10220
2026-01-26 08:24:12.80	320.67	27.86	-49.1	-58.0	3.8	7.44e-01	0	44	104	0	69	10212
2026-01-26 08:24:13.81	320.90	27.62	-49.1	-58.0	3.8	7.45e-01	0	44	104	0	69	10208
2026-01-26 08:24:14.81	321.12	27.39	-49.2	-58.0	3.8	7.46e-01	0	44	104	0	69	10242
2026-01-26 08:24:15.82	321.35	27.16	-49.2	-58.0	3.8	7.46e-01	0	44	104	0	69	10192
2026-01-26 08:24:16.83	321.57	26.94	-49.2	-58.0	3.8	7.45e-01	0	44	104	0	69	10238
2026-01-26 08:24:17.84	321.79	26.71	-49.2	-58.0	3.8	7.45e-01	0	44	104	0	69	10208
2026-01-26 08:24:18.84	322.00	26.49	-49.2	-58.0	3.8	7.44e-01	0	44	104	0	69	10238
2026-01-26 08:24:19.85	322.21	26.27	-49.2	-58.0	3.8	7.45e-01	0	44	104	0	69	10209
2026-01-26 08:24:20.86	322.42	26.05	-49.2	-58.0	3.8	7.45e-01	0	44	104	0	69	10217
2026-01-26 08:24:21.87	322.62	25.83	-49.2	-58.0	3.8	7.44e-01	0	44	104	0	69	10215
2026-01-26 08:24:22.87	322.82	25.61	-49.2	-58.0	3.8	7.45e-01	0	44	104	0	69	10222
2026-01-26 08:24:23.88	323.02	25.40	-49.2	-58.0	3.8	7.46e-01	0	44	104	0	69	10204
2026-01-26 08:24:24.89	323.22	25.19	-49.2	-58.0	3.8	7.45e-01	0	44	104	0	69	10207
2026-01-26 08:24:25.89	323.41	24.98	-49.1	-58.0	3.8	7.45e-01	0	44	104	0	69	10215
2026-01-26 08:24:26.90	323.60	24.77	-49.2	-58.0	3.8	7.44e-01	0	44	104	0	69	10260
2026-01-26 08:24:27.91	323.79	24.56	-49.2	-58.0	3.8	7.45e-01	0	44	104	0	69	10215
2026-01-26 08:24:28.92	323.97	24.35	-49.2	-58.0	3.8	7.45e-01	0	44	104	0	69	10217
2026-01-26 08:24:29.93	324.16	24.15	-49.2	-58.0	3.8	7.46e-01	0	44	104	0	69	10229
2026-01-26 08:24:30.93	324.33	23.95	-49.2	-58.0	3.8	7.47e-01	0	44	104	0	69	10200
2026-01-26 08:24:31.94	324.51	23.75	-49.1	-58.0	3.8	7.44e-01	0	44	104	0	69	10184
2026-01-26 08:24:32.94	324.68	23.55	-49.2	-58.0	3.8	7.46e-01	0	44	104	0	69	10228
2026-01-26 08:24:33.95	324.86	23.35	-49.2	-58.0	3.8	7.46e-01	0	44	104	0	69	10200
2026-01-26 08:24:34.96	325.03	23.16	-49.2	-58.0	3.8	7.46e-01	0	44	104	0	69	10202
2026-01-26 08:24:35.97	325.19	22.96	-49.2	-58.0	3.8	7.46e-01	0	44	104	0	69	10227
2026-01-26 08:24:36.98	325.36	22.77	-49.2	-58.0	3.8	7.45e-01	0	44	104	0	69	10223
2026-01-26 08:24:37.99	325.52	22.58	-49.1	-58.0	3.8	7.45e-01	0	44	104	0	69	10211
2026-01-26 08:24:38.99	325.68	22.39	-49.2	-58.0	3.8	7.46e-01	0	44	104	0	69	10220
2026-01-26 08:24:40.00	325.84	22.20	-49.2	-58.0	3.8	7.47e-01	0	44	104	0	69	10203
2026-01-26 08:24:41.01	326.00	22.02	-49.2	-58.0	3.8	7.43e-01	0	44	104	0	69	10209
2026-01-26 08:24:42.02	326.15	21.83	-49.2	-58.0	3.8	7.45e-01	0	44	104	0	69	10221
2026-01-26 08:24:43.03	326.31	21.65	-49.2	-58.0	3.8	7.46e-01	0	44	104	0	69	10257
2026-01-26 08:24:44.04	326.46	21.46	-49.2	-58.0	3.8	7.46e-01	0	44	104	0	69	10232
2026-01-26 08:24:45.05	326.61	21.28	-49.2	-58.0	3.8	7.46e-01	0	44	104	0	69	10208
2026-01-26 08:24:46.06	326.75	21.11	-49.2	-58.0	3.8	7.46e-01	0	44	104	0	69	10192
2026-01-26 08:24:47.06	326.90	20.93	-49.2	-58.0	3.8	7.45e-01	0	44	104	0	69	10205
2026-01-26 08:24:48.07	327.04	20.75	-49.2	-58.0	3.8	7.44e-01	0	44	104	0	69	10184
2026-01-26 08:24:49.08	327.18	20.58	-49.2	-58.0	3.8	7.48e-01	0	44	104	0	69	10205
2026-01-26 08:24:50.09	327.32	20.40	-49.2	-58.0	3.8	7.46e-01	0	44	104	0	69	10269
2026-01-26 08:24:51.09	327.46	20.23	-49.2	-58.0	3.8	7.46e-01	0	44	104	0	69	10240
2026-01-26 08:24:52.10	327.60	20.06	-49.2	-58.0	3.8	7.45e-01	0	44	104	0	69	10236
2026-01-26 08:24:53.11	327.73	19.89	-49.1	-58.0	3.8	7.46e-01	0	44	104	0	69	10194
2026-01-26 08:24:54.11	327.86	19.73	-49.2	-58.0	3.8	7.45e-01	0	44	104	0	69	10198
2026-01-26 08:24:55.12	327.99	19.56	-49.2	-58.0	3.8	7.46e-01	0	44	104	0	69	10198
2026-01-26 08:24:56.13	328.12	19.39	-49.2	-58.0	3.8	7.45e-01	0	44	104	0	69	10241
2026-01-26 08:24:57.14	328.25	19.23	-49.2	-58.0	3.8	7.46e-01	0	44	104	0	69	10202
2026-01-26 08:24:58.15	328.38	19.07	-49.2	-58.0	3.8	7.44e-01	0	44	104	0	69	10214
2026-01-26 08:24:59.15	328.50	18.91	-49.2	-58.0	3.8	7.47e-01	0	44	104	0	69	10232
2026-01-26 08:25:00.16	328.63	18.74	-49.2	-58.0	3.8	7.45e-01	0	44	104	0	69	10232
2026-01-26 08:25:01.17	328.75	18.59	-49.2	-58.0	3.8	7.45e-01	0	44	104	0	69	10188
2026-01-26 08:25:02.18	328.87	18.43	-49.1	-58.0	3.8	7.45e-01	0	44	104	0	69	10202
2026-01-26 08:25:03.19	328.99	18.27	-49.2	-58.0	3.8	7.43e-01	0	44	104	0	69	10204
2026-01-26 08:25:04.19	329.11	18.12	-49.2	-58.0	3.8	7.44e-01	0	44	104	0	69	10210
2026-01-26 08:25:05.20	329.23	17.96	-49.2	-58.0	3.8	7.44e-01	0	44	104	0	69	10233
2026-01-26 08:25:06.21	329.34	17.81	-49.2	-58.0	3.8	7.46e-01	0	44	104	0	69	10209
2026-01-26 08:25:07.22	329.46	17.65	-49.2	-58.0	3.8	7.45e-01	0	44	104	0	69	10243
2026-01-26 08:25:08.23	329.57	17.50	-49.2	-58.0	3.8	7.45e-01	0	44	104	0	69	10213
2026-01-26 08:25:09.24	329.68	17.35	-49.2	-58.0	3.8	7.45e-01	0	44	104	0	69	10203
2026-01-26 08:25:10.25	329.79	17.20	-49.2	-58.0	3.8	7.47e-01	0	44	104	0	69	10238
2026-01-26 08:25:11.25	329.90	17.06	-49.1	-58.0	3.8	7.46e-01	0	44	104	0	69	10222
2026-01-26 08:25:12.26	330.01	16.91	-49.1	-58.0	3.8	7.47e-01	0	44	104	0	69	10247
2026-01-26 08:25:13.27	330.12	16.76	-49.2	-58.0	3.8	7.47e-01	0	44	104	0	69	10198
2026-01-26 08:25:14.28	330.22	16.62	-49.2	-58.0	3.8	7.46e-01	0	44	104	0	69	10243
2026-01-26 08:25:15.28	330.32	16.48	-49.2	-58.0	3.8	7.45e-01	0	44	104	0	69	10233
2026-01-26 08:25:16.30	330.43	16.33	-49.2	-58.0	3.8	7.45e-01	0	44	104	0	69	10252
2026-01-26 08:25:17.31	330.53	16.19	-49.2	-58.0	3.8	7.47e-01	0	44	104	0	69	10194
2026-01-26 08:25:18.31	330.63	16.05	-49.2	-58.0	3.8	7.45e-01	0	44	104	0	69	10189
2026-01-26 08:25:19.32	330.73	15.91	-49.1	-58.0	3.8	7.46e-01	0	44	104	0	69	10226
2026-01-26 08:25:20.33	330.83	15.77	-49.2	-58.0	3.8	7.46e-01	0	44	104	0	69	10207
2026-01-26 08:25:21.34	330.93	15.63	-49.1	-58.0	3.8	7.46e-01	0	44	104	0	69	10225
2026-01-26 08:25:22.34	331.03	15.50	-49.2	-58.0	3.8	7.45e-01	0	44	104	0	69	10206
2026-01-26 08:25:23.35	331.12	15.36	-49.2	-58.0	3.8	7.47e-01	0	44	104	0	69	10266
2026-01-26 08:25:24.36	331.22	15.23	-49.2	-58.0	3.8	7.45e-01	0	44	104	0	69	10215
2026-01-26 08:25:25.36	331.31	15.09	-49.1	-58.0	3.8	7.45e-01	0	44	104	0	69	10256
2026-01-26 08:25:26.37	331.40	14.96	-49.1	-58.0	3.8	7.45e-01	0	44	104	0	69	10210
2026-01-26 08:25:27.38	331.50	14.83	-49.2	-58.0	3.8	7.46e-01	0	44	104	0	69	10229
2026-01-26 08:25:28.39	331.59	14.70	-49.2	-58.0	3.8	7.43e-01	0	44	104	0	69	10250
2026-01-26 08:25:29.39	331.68	14.57	-49.2	-58.0	3.8	7.44e-01	0	44	104	0	69	10209
2026-01-26 08:25:30.40	331.77	14.44	-49.2	-58.0	3.8	7.45e-01	0	44	104	0	69	10249
2026-01-26 08:25:31.41	331.86	14.31	-49.2	-58.0	3.8	7.45e-01	0	44	104	0	69	10230
2026-01-26 08:25:32.41	331.94	14.18	-49.1	-58.0	3.8	7.45e-01	0	44	104	0	69	10222
2026-01-26 08:25:33.42	332.03	14.05	-49.2	-58.0	3.8	7.46e-01	0	44	104	0	69	10269
2026-01-26 08:25:34.43	332.12	13.93	-49.2	-58.0	3.8	7.46e-01	0	44	104	0	69	10243
2026-01-26 08:25:35.44	332.20	13.80	-49.2	-58.0	3.8	7.46e-01	0	44	104	0	69	10235
2026-01-26 08:25:36.44	332.29	13.68	-49.2	-58.0	3.8	7.45e-01	0	44	104	0	69	10234
2026-01-26 08:25:37.45	332.37	13.55	-49.2	-58.0	3.8	7.45e-01	0	44	104	0	69	10235
2026-01-26 08:25:38.46	332.45	13.43	-49.2	-58.0	3.8	7.45e-01	0	44	104	0	69	10264
2026-01-26 08:25:39.47	332.54	13.31	-49.2	-58.0	3.8	7.46e-01	0	44	104	0	69	10201
2026-01-26 08:25:40.48	332.62	13.19	-49.1	-58.0	3.8	7.46e-01	0	44	104	0	69	10226
2026-01-26 08:25:41.48	332.70	13.07	-49.2	-58.0	3.8	7.45e-01	0	44	104	0	69	10239
2026-01-26 08:25:42.49	332.78	12.95	-49.2	-58.0	3.8	7.46e-01	0	44	104	0	69	10183
2026-01-26 08:25:43.50	332.86	12.83	-49.2	-58.0	3.8	7.45e-01	0	44	104	0	69	10217
2026-01-26 08:25:44.51	332.94	12.71	-49.2	-58.0	3.8	7.44e-01	0	44	104	0	69	10224
2026-01-26 08:25:45.51	333.01	12.59	-49.2	-58.0	3.8	7.44e-01	0	44	104	0	69	10239
2026-01-26 08:25:46.52	333.09	12.47	-49.1	-58.0	3.8	7.45e-01	0	44	104	0	69	10191
2026-01-26 08:25:47.53	333.17	12.36	-49.2	-58.0	3.8	7.46e-01	0	44	104	0	69	10241
2026-01-26 08:25:48.54	333.24	12.24	-49.2	-58.0	3.8	7.47e-01	0	44	104	0	69	10199
2026-01-26 08:25:49.54	333.32	12.13	-49.2	-58.0	3.8	7.44e-01	0	44	104	0	69	10195
2026-01-26 08:25:50.55	333.39	12.01	-49.2	-58.0	3.8	7.44e-01	0	44	104	0	69	10231
2026-01-26 08:25:51.56	333.46	11.90	-49.2	-58.0	3.8	7.46e-01	0	44	104	0	69	10208
2026-01-26 08:25:52.57	333.54	11.79	-49.2	-58.0	3.8	7.46e-01	0	44	104	0	69	10232
2026-01-26 08:25:53.58	333.61	11.67	-49.2	-58.0	3.8	7.46e-01	0	44	104	0	69	10222
2026-01-26 08:25:54.59	333.68	11.56	-49.2	-58.0	3.8	7.45e-01	0	44	104	0	69	10232
2026-01-26 08:25:55.60	333.75	11.45	-49.2	-58.0	3.8	7.47e-01	0	44	104	0	69	10221
2026-01-26 08:25:56.61	333.82	11.34	-49.2	-58.0	3.8	7.45e-01	0	44	104	0	69	10226
2026-01-26 08:25:57.61	333.89	11.23	-49.2	-58.0	3.8	7.45e-01	0	44	104	0	69	10205
2026-01-26 08:25:58.62	333.96	11.12	-49.2	-58.0	3.8	7.45e-01	0	44	104	0	69	10229
2026-01-26 08:25:59.63	334.03	11.01	-49.2	-58.0	3.8	7.44e-01	0	44	104	0	69	10222
2026-01-26 08:26:00.64	334.10	10.90	-49.2	-58.0	3.8	7.44e-01	0	44	104	0	69	10230
2026-01-26 08:26:01.65	334.17	10.80	-49.2	-58.0	3.8	7.46e-01	0	44	104	0	69	10220
2026-01-26 08:26:02.66	334.23	10.69	-49.1	-58.0	3.8	7.46e-01	0	44	104	0	69	10216
2026-01-26 08:26:03.67	334.30	10.58	-49.2	-58.0	3.8	7.44e-01	0	44	104	0	69	10235
2026-01-26 08:26:04.67	334.37	10.48	-49.2	-58.0	3.8	7.45e-01	0	44	104	0	69	10227
2026-01-26 08:26:05.68	334.43	10.37	-49.2	-58.0	3.8	7.46e-01	0	44	104	0	69	10222
2026-01-26 08:26:06.69	334.50	10.27	-49.2	-58.0	3.8	7.46e-01	0	44	104	0	69	10216
2026-01-26 08:26:07.70	334.56	10.16	-49.2	-58.0	3.8	7.46e-01	0	44	104	0	69	10250
2026-01-26 08:26:08.71	334.62	10.06	-49.2	-58.0	3.8	7.45e-01	0	44	104	0	69	10182
2026-01-26 08:26:09.71	334.69	9.96	-49.1	-58.0	3.8	7.45e-01	0	44	104	0	69	10224
2026-01-26 08:26:10.72	334.75	9.86	-49.2	-58.0	3.8	7.45e-01	0	44	104	0	69	10232
2026-01-26 08:26:11.73	334.81	9.75	-49.2	-58.0	3.8	7.46e-01	0	44	104	0	69	10226
2026-01-26 08:26:12.74	334.87	9.65	-49.2	-58.0	3.8	7.45e-01	0	44	104	0	69	10236
2026-01-26 08:26:13.74	334.94	9.55	-49.2	-58.0	3.8	7.43e-01	0	44	104	0	69	10203
2026-01-26 08:26:14.75	335.00	9.45	-49.1	-58.0	3.8	7.46e-01	0	44	104	0	69	10213
2026-01-26 08:26:15.76	335.06	9.35	-49.2	-58.0	3.8	7.45e-01	0	44	104	0	69	10227
2026-01-26 08:26:16.76	335.12	9.26	-49.2	-58.0	3.8	7.45e-01	0	44	104	0	69	10217
2026-01-26 08:26:17.77	335.18	9.16	-49.2	-58.0	3.8	7.44e-01	0	44	104	0	69	10221
2026-01-26 08:26:18.78	335.23	9.06	-49.2	-58.0	3.8	7.46e-01	0	44	104	0	69	10239
2026-01-26 08:26:19.78	335.29	8.96	-49.2	-58.0	3.8	7.45e-01	0	44	104	0	69	10237
2026-01-26 08:26:20.79	335.35	8.86	-49.2	-58.0	3.8	7.45e-01	0	44	104	0	69	10188
2026-01-26 08:26:21.80	335.41	8.77	-49.2	-58.0	3.8	7.47e-01	0	44	104	0	69	10264
2026-01-26 08:26:22.81	335.47	8.67	-49.2	-58.0	3.8	7.47e-01	0	44	104	0	69	10216
2026-01-26 08:26:23.82	335.52	8.58	-49.1	-58.0	3.8	7.44e-01	0	44	104	0	69	10223
2026-01-26 08:26:24.82	335.58	8.48	-49.2	-58.0	3.8	7.44e-01	0	44	104	0	69	10184
2026-01-26 08:26:25.83	335.63	8.39	-49.2	-58.0	3.8	7.46e-01	0	44	104	0	69	10192
2026-01-26 08:26:26.83	335.69	8.29	-49.2	-58.0	3.8	7.43e-01	0	44	104	0	69	10232
2026-01-26 08:26:27.84	335.74	8.20	-49.2	-58.0	3.8	7.43e-01	0	44	104	0	69	10241
2026-01-26 08:26:28.85	335.80	8.11	-49.2	-58.0	3.8	7.45e-01	0	44	104	0	69	10199
2026-01-26 08:26:29.86	335.85	8.01	-49.2	-58.0	3.8	7.47e-01	0	44	104	0	69	10223
2026-01-26 08:26:30.86	335.91	7.92	-49.2	-58.0	3.8	7.43e-01	0	44	104	0	69	10222
2026-01-26 08:26:31.87	335.96	7.83	-49.2	-58.0	3.8	7.46e-01	0	44	104	0	69	10233
2026-01-26 08:26:32.88	336.01	7.74	-49.2	-58.0	3.8	7.44e-01	0	44	104	0	69	10211
2026-01-26 08:26:33.88	336.07	7.65	-49.2	-58.0	3.8	7.45e-01	0	44	104	0	69	10247
2026-01-26 08:26:34.89	336.12	7.55	-49.2	-58.0	3.8	7.46e-01	0	44	104	0	69	10210
2026-01-26 08:26:35.90	336.17	7.46	-49.2	-58.0	3.8	7.44e-01	0	44	104	0	69	10239
2026-01-26 08:26:36.91	336.22	7.37	-49.2	-58.0	3.8	7.47e-01	0	44	104	0	69	10227
2026-01-26 08:26:37.91	336.27	7.29	-49.2	-58.0	3.8	7.45e-01	0	44	104	0	69	10230
2026-01-26 08:26:38.92	336.32	7.20	-49.2	-58.0	3.8	7.45e-01	0	44	104	0	69	10227
2026-01-26 08:26:39.93	336.37	7.11	-49.2	-58.0	3.8	7.46e-01	0	44	104	0	69	10229
2026-01-26 08:26:40.94	336.42	7.02	-49.2	-58.0	3.8	7.45e-01	0	44	104	0	69	10211
2026-01-26 08:26:41.94	336.47	6.93	-49.2	-58.0	3.8	7.47e-01	0	44	104	0	69	10239
2026-01-26 08:26:42.95	336.52	6.84	-49.2	-58.0	3.8	7.47e-01	0	44	104	0	69	10269
2026-01-26 08:26:43.96	336.57	6.76	-49.2	-58.0	3.8	7.45e-01	0	44	104	0	69	10250
2026-01-26 08:26:44.97	336.62	6.67	-49.2	-58.0	3.8	7.45e-01	0	44	104	0	69	10262
2026-01-26 08:26:45.97	336.67	6.58	-49.2	-58.0	3.8	7.45e-01	0	44	104	0	69	10208
2026-01-26 08:26:46.98	336.72	6.50	-49.2	-58.0	3.8	7.45e-01	0	44	104	0	69	10278
2026-01-26 08:26:47.99	336.77	6.41	-49.2	-58.0	3.8	7.44e-01	0	44	104	0	69	10216
2026-01-26 08:26:49.00	336.81	6.33	-49.2	-58.0	3.8	7.45e-01	0	44	104	0	69	10238
2026-01-26 08:26:50.00	336.86	6.24	-49.2	-58.0	3.8	7.45e-01	0	44	104	0	69	10206
2026-01-26 08:26:51.01	336.91	6.16	-49.2	-58.0	3.8	7.44e-01	0	44	104	0	69	10246
2026-01-26 08:26:52.02	336.95	6.07	-49.2	-58.0	3.8	7.45e-01	0	44	104	0	69	10183
2026-01-26 08:26:53.02	337.00	5.99	-49.2	-58.0	3.8	7.44e-01	0	44	104	0	69	10231
2026-01-26 08:26:54.03	337.05	5.91	-49.2	-58.0	3.8	7.45e-01	0	44	104	0	69	10204
2026-01-26 08:26:55.04	337.09	5.82	-49.2	-58.0	3.8	7.46e-01	0	44	104	0	69	10238
2026-01-26 08:26:56.05	337.14	5.74	-49.2	-58.0	3.8	7.46e-01	0	44	104	0	69	10216
2026-01-26 08:26:57.06	337.18	5.66	-49.2	-58.0	3.8	7.45e-01	0	44	104	0	69	10228
2026-01-26 08:26:58.07	337.23	5.58	-49.2	-58.0	3.8	7.46e-01	0	44	104	0	69	10207
2026-01-26 08:26:59.08	337.27	5.49	-49.2	-58.0	3.8	7.47e-01	0	44	104	0	69	10201
2026-01-26 08:27:00.09	337.32	5.41	-49.2	-58.0	3.8	7.45e-01	0	44	104	0	69	10225
2026-01-26 08:27:01.09	337.36	5.33	-49.2	-58.0	3.8	7.46e-01	0	44	104	0	69	10224
2026-01-26 08:27:02.09	337.40	5.25	-49.2	-58.0	3.8	7.46e-01	0	44	104	0	69	10192
2026-01-26 08:27:03.10	337.45	5.17	-49.2	-58.0	3.8	7.45e-01	0	44	104	0	69	10197
2026-01-26 08:27:04.11	337.49	5.09	-49.2	-58.0	3.8	7.46e-01	0	44	104	0	69	10231
2026-01-26 08:27:05.12	337.53	5.01	-49.2	-58.0	3.8	7.43e-01	0	44	104	0	69	10224
2026-01-26 08:27:06.12	337.57	4.93	-49.2	-58.0	3.8	7.44e-01	0	44	104	0	69	10256
2026-01-26 08:27:07.13	337.62	4.85	-49.2	-58.0	3.8	7.45e-01	0	44	104	0	69	10213
2026-01-26 08:27:08.14	337.66	4.77	-49.2	-58.0	3.8	7.45e-01	0	44	104	0	69	10239
2026-01-26 08:27:09.15	337.70	4.69	-49.2	-58.0	3.8	7.46e-01	0	44	104	0	69	10274
2026-01-26 08:27:10.16	337.74	4.62	-49.2	-58.0	3.8	7.44e-01	0	44	104	0	69	10244
2026-01-26 08:27:11.17	337.78	4.54	-49.2	-58.0	3.8	7.44e-01	0	44	104	0	69	10236
2026-01-26 08:27:12.18	337.83	4.46	-49.2	-58.0	3.8	7.44e-01	0	44	104	0	69	10287
2026-01-26 08:27:13.18	337.87	4.38	-49.2	-58.0	3.8	7.45e-01	0	44	104	0	69	10236
2026-01-26 08:27:14.19	337.91	4.31	-49.2	-58.0	3.8	7.43e-01	0	44	104	0	69	10196
2026-01-26 08:27:15.20	337.95	4.23	-49.2	-58.0	3.8	7.46e-01	0	44	104	0	69	10239
2026-01-26 08:27:16.21	337.99	4.15	-49.1	-58.0	3.8	7.45e-01	0	44	104	0	69	10205
2026-01-26 08:27:17.21	338.03	4.08	-49.2	-58.0	3.8	7.47e-01	0	44	104	0	69	10247
2026-01-26 08:27:18.22	338.07	4.00	-49.2	-58.0	3.8	7.44e-01	0	44	104	0	69	10252
2026-01-26 08:27:19.23	338.11	3.92	-49.1	-58.0	3.8	7.46e-01	0	44	104	0	69	10232
2026-01-26 08:27:20.24	338.14	3.85	-49.2	-58.0	3.8	7.46e-01	0	44	104	0	69	10244
2026-01-26 08:27:21.25	338.18	3.77	-49.2	-58.0	3.8	7.45e-01	0	44	104	0	69	10218
2026-01-26 08:27:22.26	338.22	3.70	-49.2	-58.0	3.8	7.46e-01	0	44	104	0	69	10240
2026-01-26 08:27:23.27	338.26	3.62	-49.2	-58.0	3.8	7.46e-01	0	44	104	0	69	10213
2026-01-26 08:27:24.28	338.30	3.55	-49.2	-58.0	3.8	7.46e-01	0	44	104	0	69	10209
2026-01-26 08:27:25.28	338.34	3.48	-49.2	-58.0	3.8	7.44e-01	0	44	104	0	69	10226
2026-01-26 08:27:26.29	338.38	3.40	-49.2	-58.0	3.8	7.45e-01	0	44	104	0	69	10240
2026-01-26 08:27:27.30	338.41	3.33	-49.2	-58.0	3.8	7.45e-01	0	44	104	0	69	10240
2026-01-26 08:27:28.31	338.45	3.25	-49.2	-58.0	3.8	7.46e-01	0	44	104	0	69	10196
2026-01-26 08:27:29.33	338.49	3.18	-49.2	-58.0	3.8	7.46e-01	0	44	104	0	69	10228
2026-01-26 08:27:30.33	338.52	3.11	-49.2	-58.0	3.8	7.44e-01	0	44	104	0	69	10245
2026-01-26 08:27:31.34	338.56	3.04	-49.2	-58.0	3.8	7.46e-01	0	44	104	0	69	10203
2026-01-26 08:27:32.34	338.60	2.96	-49.2	-58.0	3.8	7.46e-01	0	44	104	0	69	10249
2026-01-26 08:27:33.35	338.63	2.89	-49.2	-58.0	3.8	7.46e-01	0	44	104	0	69	10237
2026-01-26 08:27:34.36	338.67	2.82	-49.2	-58.0	3.8	7.43e-01	0	44	104	0	69	10259
2026-01-26 08:27:35.37	338.71	2.75	-49.2	-58.0	3.8	7.45e-01	0	44	104	0	69	10189
2026-01-26 08:27:36.38	338.74	2.68	-49.2	-58.0	3.8	7.45e-01	0	44	104	0	69	10204
2026-01-26 08:27:37.38	338.78	2.61	-49.2	-58.0	3.8	7.45e-01	0	44	104	0	69	10227
2026-01-26 08:27:38.39	338.81	2.54	-49.2	-58.0	3.8	7.45e-01	0	44	104	0	69	10225
2026-01-26 08:27:39.40	338.85	2.46	-49.2	-58.0	3.8	7.44e-01	0	44	104	0	69	10259
2026-01-26 08:27:40.41	338.88	2.39	-49.1	-58.0	3.8	7.46e-01	0	44	104	0	69	10223
2026-01-26 08:27:41.41	338.92	2.32	-49.2	-58.0	3.8	7.45e-01	0	44	104	0	69	10245
2026-01-26 08:27:42.42	338.95	2.25	-49.1	-58.0	3.8	7.45e-01	0	44	104	0	69	10219
2026-01-26 08:27:43.42	338.99	2.18	-49.2	-58.0	3.8	7.45e-01	0	44	104	0	69	10211
2026-01-26 08:27:44.43	339.02	2.11	-49.2	-58.0	3.8	7.45e-01	0	44	104	0	69	10206
2026-01-26 08:27:45.44	339.06	2.05	-49.2	-58.0	3.8	7.45e-01	0	44	104	0	69	10223
2026-01-26 08:27:46.45	339.09	1.98	-49.2	-58.0	3.8	7.44e-01	0	44	104	0	69	10259

#Closed at: 2026-01-26 08:27:47
#Recorded file [0 MB]: D:/lorett/data/31041_260126_111721.dat