passes_logs/2026/01/26/R3.2S_Murmansk/R3.2S_Murmansk__20260126_210020_JL1KF02B07_rec.log

#Pass ID: 20260126_210020_JL1KF02B07
#Satellite: JL1KF02B07
#Configuration: 01B_900M
#almurnet v.1.7.20251203
#Start time: 2026-01-26 21:00:21

#Version: 2.2.20231116
#Station: R3.2S_Murmansk
#Location: 33.079688 lon 68.888172 lat
#TLE: 1 65939U 25226B   26026.53453942  .00007013  00000+0  44310-3 0  9995
#TLE: 2 65939  97.6523 105.5181 0017771 259.0988 100.8240 15.09238372 16205

#Time	Az	El	Level	Level2	SNR	BER	BlckErr	Temp	State	Recorded	gain1	gain2
2026-01-26 21:00:21.42	212.73	2.04	-54.9	-57.0	6.2	0.00e+00	0	43	0	0	81	18225
2026-01-26 21:00:22.43	212.83	2.10	-54.2	-56.4	6.2	0.00e+00	0	43	104	0	80	18036
2026-01-26 21:00:23.43	212.92	2.16	-54.0	-56.1	6.2	0.00e+00	0	43	104	0	79	18472
2026-01-26 21:00:24.44	213.01	2.22	-54.0	-56.1	6.2	0.00e+00	0	43	104	0	79	18399
2026-01-26 21:00:25.45	213.11	2.28	-53.9	-56.0	6.2	0.00e+00	0	43	104	0	79	18361
2026-01-26 21:00:26.45	213.20	2.34	-53.9	-56.0	6.2	0.00e+00	0	43	104	0	79	18357
2026-01-26 21:00:27.46	213.30	2.40	-53.9	-56.0	6.2	0.00e+00	0	44	104	0	79	18380
2026-01-26 21:00:28.47	213.39	2.46	-53.9	-56.0	6.2	0.00e+00	0	44	104	0	79	18253
2026-01-26 21:00:29.48	213.49	2.52	-53.9	-56.1	6.2	0.00e+00	0	44	104	0	79	18390
2026-01-26 21:00:30.49	213.59	2.58	-53.9	-56.0	6.2	0.00e+00	0	43	104	0	79	18324
2026-01-26 21:00:31.50	213.68	2.64	-53.9	-56.0	6.2	0.00e+00	0	44	104	0	79	18327
2026-01-26 21:00:32.51	213.78	2.70	-53.9	-56.0	6.2	0.00e+00	0	44	104	0	79	18311
2026-01-26 21:00:33.51	213.88	2.76	-53.9	-56.0	6.2	0.00e+00	0	44	104	0	79	18292
2026-01-26 21:00:34.52	213.98	2.83	-53.9	-56.0	6.2	0.00e+00	0	44	104	0	79	18264
2026-01-26 21:00:35.52	214.07	2.89	-53.9	-56.0	6.2	0.00e+00	0	44	104	0	79	18335
2026-01-26 21:00:36.53	214.17	2.95	-53.9	-56.0	6.2	0.00e+00	0	44	104	0	79	18315
2026-01-26 21:00:37.54	214.27	3.01	-53.9	-56.0	6.2	0.00e+00	0	44	104	0	79	18281
2026-01-26 21:00:38.54	214.37	3.07	-53.9	-56.0	6.2	0.00e+00	0	44	104	0	79	18287
2026-01-26 21:00:39.55	214.47	3.13	-53.9	-56.0	6.2	0.00e+00	0	44	104	0	79	18275
2026-01-26 21:00:40.55	214.57	3.19	-53.9	-56.0	6.2	0.00e+00	0	44	104	0	79	18217
2026-01-26 21:00:41.56	214.68	3.25	-53.9	-56.0	6.2	0.00e+00	0	44	104	0	79	18240
2026-01-26 21:00:42.57	214.78	3.32	-53.9	-56.0	6.2	0.00e+00	0	44	104	0	79	18275
2026-01-26 21:00:43.57	214.88	3.38	-53.9	-56.0	6.2	0.00e+00	0	44	104	0	79	18239
2026-01-26 21:00:44.58	214.98	3.44	-53.9	-56.0	6.2	0.00e+00	0	44	104	0	79	18203
2026-01-26 21:00:45.59	215.09	3.50	-53.9	-56.0	6.2	0.00e+00	0	44	104	0	79	18249
2026-01-26 21:00:46.60	215.19	3.56	-53.9	-56.0	6.2	0.00e+00	0	44	104	0	79	18283
2026-01-26 21:00:47.61	215.30	3.63	-53.9	-56.0	6.2	0.00e+00	0	44	104	0	79	18238
2026-01-26 21:00:48.62	215.40	3.69	-53.9	-56.0	6.2	0.00e+00	0	44	104	0	79	18198
2026-01-26 21:00:49.63	215.51	3.75	-53.9	-56.0	6.2	0.00e+00	0	44	104	0	79	18199
2026-01-26 21:00:50.64	215.62	3.81	-53.9	-56.0	6.2	0.00e+00	0	44	104	0	79	18233
2026-01-26 21:00:51.65	215.72	3.88	-53.9	-56.0	6.2	0.00e+00	0	45	104	0	79	18181
2026-01-26 21:00:52.65	215.83	3.94	-53.9	-56.0	6.2	0.00e+00	0	44	104	0	79	18187
2026-01-26 21:00:53.66	215.94	4.00	-53.9	-56.0	6.2	0.00e+00	0	44	104	0	79	18209
2026-01-26 21:00:54.67	216.05	4.07	-53.9	-56.0	6.2	0.00e+00	0	44	104	0	79	18183
2026-01-26 21:00:55.68	216.15	4.13	-53.9	-55.9	6.2	0.00e+00	0	44	104	0	79	18170
2026-01-26 21:00:56.69	216.26	4.19	-53.9	-55.9	6.2	0.00e+00	0	44	104	0	79	18155
2026-01-26 21:00:57.69	216.37	4.26	-53.9	-55.9	6.2	0.00e+00	0	45	104	0	79	18172
2026-01-26 21:00:58.70	216.48	4.32	-53.9	-55.9	6.2	0.00e+00	0	45	104	0	79	18151
2026-01-26 21:00:59.71	216.60	4.38	-53.8	-55.9	6.2	0.00e+00	0	44	104	0	79	18145
2026-01-26 21:01:00.71	216.71	4.45	-53.8	-56.0	6.2	0.00e+00	0	45	104	0	79	18211
2026-01-26 21:01:01.72	216.82	4.51	-53.9	-56.0	6.2	0.00e+00	0	44	104	0	79	18220
2026-01-26 21:01:02.73	216.93	4.57	-53.8	-56.0	6.2	0.00e+00	0	45	104	0	79	18229
2026-01-26 21:01:03.74	217.05	4.64	-53.8	-56.0	6.2	0.00e+00	0	45	104	0	79	18202
2026-01-26 21:01:04.75	217.16	4.70	-53.8	-55.9	6.2	0.00e+00	0	45	104	0	79	18155
2026-01-26 21:01:05.75	217.28	4.77	-53.8	-55.9	6.2	0.00e+00	0	45	104	0	79	18140
2026-01-26 21:01:06.76	217.39	4.83	-53.8	-56.0	6.2	0.00e+00	0	45	104	0	79	18195
2026-01-26 21:01:07.77	217.51	4.90	-53.8	-56.0	6.2	0.00e+00	0	45	104	0	79	18181
2026-01-26 21:01:08.78	217.62	4.96	-53.8	-55.9	6.2	0.00e+00	0	45	104	0	79	18178
2026-01-26 21:01:09.78	217.74	5.03	-53.8	-56.0	6.2	0.00e+00	0	45	104	0	79	18181
2026-01-26 21:01:10.79	217.86	5.09	-53.9	-56.0	6.2	0.00e+00	0	45	104	0	79	18386
2026-01-26 21:01:11.79	217.97	5.16	-53.9	-56.0	6.2	0.00e+00	0	44	104	0	79	18357
2026-01-26 21:01:12.79	218.09	5.22	-53.9	-56.0	6.2	0.00e+00	0	45	104	0	79	18248
2026-01-26 21:01:13.80	218.21	5.29	-53.8	-55.9	6.2	0.00e+00	0	45	104	0	79	18139
2026-01-26 21:01:14.80	218.33	5.35	-54.0	-56.1	6.2	0.00e+00	0	45	104	0	79	18456
2026-01-26 21:01:15.80	218.45	5.42	-53.9	-56.1	6.2	0.00e+00	0	45	104	0	79	18410
2026-01-26 21:01:16.81	218.57	5.48	-53.9	-55.9	6.2	0.00e+00	0	45	104	0	79	18161
2026-01-26 21:01:17.82	218.70	5.55	-53.8	-55.9	6.2	0.00e+00	0	45	104	0	79	18117
2026-01-26 21:01:18.82	218.82	5.61	-54.0	-56.1	6.2	0.00e+00	0	45	104	0	79	18436
2026-01-26 21:01:19.83	218.94	5.68	-53.9	-56.0	6.2	0.00e+00	0	45	104	0	79	18324
2026-01-26 21:01:20.84	219.07	5.74	-53.8	-56.0	6.2	0.00e+00	0	45	104	0	79	18211
2026-01-26 21:01:21.85	219.19	5.81	-53.8	-55.9	6.2	0.00e+00	0	45	104	0	79	18046
2026-01-26 21:01:22.85	219.31	5.88	-53.9	-56.0	6.2	0.00e+00	0	45	104	0	79	18372
2026-01-26 21:01:23.86	219.44	5.94	-53.9	-56.0	6.2	0.00e+00	0	45	104	0	79	18296
2026-01-26 21:01:24.87	219.57	6.01	-53.8	-55.9	6.2	0.00e+00	0	45	104	0	79	18136
2026-01-26 21:01:25.88	219.70	6.08	-53.8	-55.9	6.2	0.00e+00	0	45	104	0	79	18112
2026-01-26 21:01:26.88	219.82	6.14	-53.9	-56.0	6.2	0.00e+00	0	45	104	0	79	18325
2026-01-26 21:01:27.89	219.95	6.21	-53.9	-56.0	6.2	0.00e+00	0	45	104	0	79	18235
2026-01-26 21:01:28.90	220.08	6.28	-53.8	-55.9	6.2	0.00e+00	0	45	104	0	79	18111
2026-01-26 21:01:29.91	220.21	6.34	-53.8	-55.9	6.2	0.00e+00	0	45	104	0	79	18042
2026-01-26 21:01:30.91	220.34	6.41	-53.9	-56.0	6.2	0.00e+00	0	45	104	0	79	18328
2026-01-26 21:01:31.92	220.47	6.48	-53.9	-56.0	6.2	0.00e+00	0	45	104	0	79	18257
2026-01-26 21:01:32.93	220.60	6.55	-53.8	-55.9	6.2	0.00e+00	0	45	104	0	79	18100
2026-01-26 21:01:33.94	220.74	6.61	-53.8	-55.9	6.2	0.00e+00	0	45	104	0	79	18094
2026-01-26 21:01:34.94	220.87	6.68	-53.9	-56.0	6.2	0.00e+00	0	45	104	0	79	18348
2026-01-26 21:01:35.95	221.01	6.75	-53.9	-56.0	6.2	0.00e+00	0	45	104	0	79	18285
2026-01-26 21:01:36.95	221.14	6.82	-53.8	-55.9	6.2	0.00e+00	0	45	104	0	79	18133
2026-01-26 21:01:37.96	221.27	6.88	-53.8	-55.9	6.2	0.00e+00	0	45	104	0	79	18052
2026-01-26 21:01:38.97	221.41	6.95	-53.9	-56.0	6.2	0.00e+00	0	45	104	0	79	18362
2026-01-26 21:01:39.97	221.55	7.02	-53.9	-56.0	6.2	0.00e+00	0	45	104	0	79	18245
2026-01-26 21:01:40.98	221.69	7.09	-53.8	-55.9	6.2	0.00e+00	0	45	104	0	79	18145
2026-01-26 21:01:41.98	221.82	7.16	-53.8	-55.9	6.2	0.00e+00	0	45	104	0	79	18097
2026-01-26 21:01:42.99	221.96	7.22	-53.9	-56.1	6.2	0.00e+00	0	45	104	0	79	18401
2026-01-26 21:01:44.00	222.10	7.29	-53.9	-56.0	6.2	0.00e+00	0	45	104	0	79	18327
2026-01-26 21:01:45.01	222.25	7.36	-53.8	-56.0	6.2	0.00e+00	0	45	104	0	79	18188
2026-01-26 21:01:46.01	222.39	7.43	-53.8	-55.9	6.2	0.00e+00	0	45	104	0	79	18036
2026-01-26 21:01:47.01	222.53	7.50	-53.9	-56.0	6.2	0.00e+00	0	45	104	0	79	18382
2026-01-26 21:01:48.02	222.67	7.57	-53.9	-56.0	6.2	0.00e+00	0	45	104	0	79	18308
2026-01-26 21:01:49.03	222.82	7.64	-53.9	-56.0	6.2	0.00e+00	0	45	104	0	79	18202
2026-01-26 21:01:50.04	222.96	7.71	-53.8	-55.9	6.2	0.00e+00	0	45	104	0	79	18089
2026-01-26 21:01:51.05	223.11	7.78	-53.9	-56.0	6.2	0.00e+00	0	45	104	0	79	18363
2026-01-26 21:01:52.05	223.25	7.84	-53.9	-56.0	6.2	0.00e+00	0	45	104	0	79	18250
2026-01-26 21:01:53.06	223.40	7.91	-53.8	-56.0	6.2	0.00e+00	0	45	104	0	79	18211
2026-01-26 21:01:54.07	223.55	7.98	-53.8	-55.9	6.2	0.00e+00	0	45	104	0	79	18140
2026-01-26 21:01:55.07	223.70	8.05	-53.9	-56.0	6.2	0.00e+00	0	45	104	0	79	18387
2026-01-26 21:01:56.08	223.85	8.12	-53.9	-56.0	6.2	0.00e+00	0	45	104	0	79	18251
2026-01-26 21:01:57.09	224.00	8.19	-53.8	-55.9	6.2	0.00e+00	0	45	104	0	79	18147
2026-01-26 21:01:58.10	224.15	8.26	-53.8	-55.9	6.2	0.00e+00	0	45	104	0	79	18096
2026-01-26 21:01:59.11	224.30	8.33	-53.9	-56.0	6.2	0.00e+00	0	45	104	0	79	18336
2026-01-26 21:02:00.11	224.45	8.40	-53.9	-56.0	6.2	0.00e+00	0	45	104	0	79	18303
2026-01-26 21:02:01.12	224.61	8.47	-53.8	-55.9	6.2	0.00e+00	0	46	104	0	79	18125
2026-01-26 21:02:02.13	224.76	8.54	-53.8	-55.9	6.2	0.00e+00	0	45	104	0	79	18134
2026-01-26 21:02:03.14	224.92	8.62	-53.9	-56.0	6.2	0.00e+00	0	45	104	0	79	18330
2026-01-26 21:02:04.14	225.07	8.69	-53.9	-56.0	6.2	0.00e+00	0	45	104	0	79	18246
2026-01-26 21:02:05.14	225.23	8.76	-51.5	-52.7	6.4	0.00e+00	0	45	104	0	74	16609
2026-01-26 21:02:06.15	225.39	8.83	-53.2	-55.0	6.2	0.00e+00	0	45	104	0	77	18387
2026-01-26 21:02:07.16	225.55	8.90	-52.8	-54.4	6.2	0.00e+00	0	45	104	0	76	18005
2026-01-26 21:02:08.16	225.71	8.97	-51.6	-52.8	6.3	0.00e+00	0	45	104	0	75	15902
2026-01-26 21:02:09.17	225.87	9.04	-51.7	-52.9	6.3	0.00e+00	0	45	104	0	75	16077
2026-01-26 21:02:10.18	226.03	9.11	-51.8	-53.0	6.3	0.00e+00	0	45	104	0	75	16336
2026-01-26 21:02:11.19	226.19	9.18	-51.9	-53.3	6.3	0.00e+00	0	45	104	0	75	16807
2026-01-26 21:02:12.19	226.36	9.25	-52.0	-53.4	6.3	0.00e+00	0	46	104	0	75	17051
2026-01-26 21:02:13.20	226.52	9.32	-53.7	-55.7	6.2	0.00e+00	0	46	104	0	78	18737
2026-01-26 21:02:14.21	226.69	9.39	-53.3	-55.2	6.2	0.00e+00	0	45	104	0	78	17646
2026-01-26 21:02:15.21	226.85	9.47	-53.4	-55.3	6.2	0.00e+00	0	46	104	0	77	18994
2026-01-26 21:02:16.22	227.02	9.54	-52.6	-54.1	6.2	0.00e+00	0	45	104	0	77	16484
2026-01-26 21:02:17.23	227.19	9.61	-52.6	-54.1	6.3	0.00e+00	0	45	104	0	76	17394
2026-01-26 21:02:18.23	227.36	9.68	-52.6	-54.1	6.3	0.00e+00	0	45	104	0	76	17553
2026-01-26 21:02:19.24	227.53	9.75	-52.8	-54.4	6.2	0.00e+00	0	45	104	0	76	18046
2026-01-26 21:02:20.25	227.70	9.82	-52.7	-54.3	6.2	0.00e+00	0	45	104	0	76	17900
2026-01-26 21:02:21.26	227.87	9.90	-42.1	-42.0	11.8	9.26e-03	0	45	104	0	56	13707
2026-01-26 21:02:22.27	228.04	9.97	-40.1	-40.0	13.0	4.79e-03	0	46	0	92274688	52	13720
2026-01-26 21:02:23.27	228.22	10.04	-45.4	-45.5	10.2	1.05e-02	0	46	0	159383552	63	13734
2026-01-26 21:02:24.28	228.39	10.11	-38.3	-38.1	15.2	1.98e-04	0	46	0	268435456	48	13935
2026-01-26 21:02:25.29	228.57	10.18	-35.9	-35.8	15.7	7.43e-05	0	46	0	385875968	43	14192
2026-01-26 21:02:26.29	228.74	10.26	-34.6	-34.5	16.5	9.50e-06	0	46	0	494927872	41	13690
2026-01-26 21:02:27.30	228.92	10.33	-33.5	-33.4	17.1	7.60e-06	0	46	0	603979776	39	13531
2026-01-26 21:02:28.31	229.10	10.40	-32.7	-32.5	17.7	0.00e+00	0	46	0	721420288	37	13790
2026-01-26 21:02:29.31	229.28	10.47	-32.1	-31.9	17.8	0.00e+00	0	46	0	830472192	36	13546
2026-01-26 21:02:30.32	229.46	10.54	-29.2	-29.1	17.5	0.00e+00	0	46	0	956301312	30	13798
2026-01-26 21:02:31.33	229.64	10.62	-29.0	-28.9	17.7	0.00e+00	0	46	0	1065353216	30	13540
2026-01-26 21:02:32.33	229.83	10.69	-29.0	-28.8	17.6	0.00e+00	0	46	0	1182793728	29	14217
2026-01-26 21:02:33.34	230.01	10.76	-29.0	-28.8	17.7	0.00e+00	0	46	0	1291845632	29	14199
2026-01-26 21:02:34.35	230.20	10.83	-28.9	-28.7	17.8	0.00e+00	0	46	0	1409286144	29	14043
2026-01-26 21:02:35.35	230.38	10.91	-28.9	-28.7	17.8	0.00e+00	0	46	0	1518338048	29	14062
2026-01-26 21:02:36.36	230.57	10.98	-28.7	-28.5	17.9	0.00e+00	0	46	0	1635778560	29	13766
2026-01-26 21:02:37.36	230.76	11.05	-28.7	-28.6	17.9	0.00e+00	0	46	0	1744830464	29	13846
2026-01-26 21:02:38.37	230.95	11.12	-28.7	-28.6	17.8	0.00e+00	0	46	0	1853882368	29	13796
2026-01-26 21:02:39.38	231.14	11.20	-28.7	-28.5	17.9	1.90e-06	0	46	0	1971322880	29	13760
2026-01-26 21:02:40.39	231.33	11.27	-28.8	-28.7	17.8	0.00e+00	0	46	0	2080374784	29	13956
2026-01-26 21:02:41.40	231.52	11.34	-28.6	-28.4	17.9	0.00e+00	0	46	0	2197815296	29	13624
2026-01-26 21:02:42.41	231.72	11.41	-28.6	-28.4	18.0	1.90e-06	0	46	0	2306867200	29	13607
2026-01-26 21:02:43.41	231.91	11.49	-28.6	-28.5	17.8	0.00e+00	0	46	0	2415919104	29	13659
2026-01-26 21:02:44.42	232.11	11.56	-28.7	-28.5	17.9	1.90e-06	0	46	0	2541748224	29	13777
2026-01-26 21:02:45.42	232.30	11.63	-28.6	-28.4	17.8	0.00e+00	0	46	0	2659188736	29	13598
2026-01-26 21:02:46.43	232.50	11.70	-28.5	-28.4	17.9	0.00e+00	0	46	0	2768240640	29	13516
2026-01-26 21:02:47.44	232.70	11.78	-28.5	-28.4	17.8	0.00e+00	0	46	0	2877292544	28	14316
2026-01-26 21:02:48.44	232.90	11.85	-28.4	-28.3	17.8	0.00e+00	0	46	0	2994733056	28	14125
2026-01-26 21:02:49.44	233.10	11.92	-28.3	-28.2	18.0	0.00e+00	0	46	0	3103784960	28	14010
2026-01-26 21:02:50.45	233.30	11.99	-28.3	-28.2	17.8	0.00e+00	0	46	0	3221225472	28	14012
2026-01-26 21:02:51.46	233.51	12.07	-28.4	-28.3	17.8	0.00e+00	0	46	0	3330277376	28	14136
2026-01-26 21:02:52.47	233.71	12.14	-28.4	-28.2	17.7	0.00e+00	0	46	0	3439329280	28	14053
2026-01-26 21:02:53.47	233.92	12.21	-28.3	-28.1	17.9	0.00e+00	0	46	0	3556769792	28	13918
2026-01-26 21:02:54.48	234.12	12.28	-28.2	-28.0	17.8	0.00e+00	0	46	0	3665821696	28	13777
2026-01-26 21:02:55.49	234.33	12.36	-28.2	-28.0	17.8	0.00e+00	0	46	0	3783262208	28	13736
2026-01-26 21:02:56.49	234.54	12.43	-28.2	-28.1	17.9	0.00e+00	0	46	0	3892314112	28	13826
2026-01-26 21:02:57.50	234.75	12.50	-28.2	-28.0	17.9	0.00e+00	0	46	0	4009754624	28	13776
2026-01-26 21:02:58.51	234.96	12.57	-28.2	-28.1	17.9	0.00e+00	0	46	0	4118806528	28	13846
2026-01-26 21:02:59.52	235.18	12.65	-28.1	-27.9	17.9	0.00e+00	0	46	0	4227858432	28	13631
2026-01-26 21:03:00.53	235.39	12.72	-28.1	-27.9	17.9	0.00e+00	0	46	0	4353687552	28	13599
2026-01-26 21:03:01.54	235.61	12.79	-28.2	-28.0	17.7	0.00e+00	0	46	0	4462739456	28	13737
2026-01-26 21:03:02.54	235.82	12.86	-28.2	-28.0	17.9	0.00e+00	0	46	0	4580179968	28	13737
2026-01-26 21:03:03.55	236.04	12.93	-28.0	-27.9	18.0	0.00e+00	0	46	0	4689231872	27	14346
2026-01-26 21:03:04.56	236.26	13.01	-28.1	-28.0	17.9	0.00e+00	0	46	0	4806672384	27	14530
2026-01-26 21:03:05.57	236.48	13.08	-28.2	-28.1	17.8	0.00e+00	0	46	0	4915724288	27	14667
2026-01-26 21:03:06.57	236.70	13.15	-28.1	-28.0	17.9	1.90e-06	0	46	0	5033164800	27	14499
2026-01-26 21:03:07.57	236.92	13.22	-28.1	-27.9	17.8	0.00e+00	0	46	0	5142216704	27	14382
2026-01-26 21:03:08.58	237.15	13.29	-28.1	-27.9	17.9	0.00e+00	0	46	0	5251268608	27	14438
2026-01-26 21:03:09.59	237.37	13.37	-28.0	-27.9	17.9	0.00e+00	0	46	0	5368709120	27	14321
2026-01-26 21:03:10.60	237.60	13.44	-28.1	-27.9	17.9	0.00e+00	0	46	0	5477761024	27	14367
2026-01-26 21:03:11.61	237.83	13.51	-27.9	-27.7	18.0	0.00e+00	0	46	0	5595201536	27	14072
2026-01-26 21:03:12.62	238.06	13.58	-28.0	-27.9	17.8	0.00e+00	0	46	0	5712642048	27	14313
2026-01-26 21:03:13.63	238.29	13.65	-28.0	-27.8	17.7	0.00e+00	0	46	0	5830082560	27	14195
2026-01-26 21:03:14.64	238.52	13.72	-27.9	-27.8	17.7	1.90e-06	0	46	0	5939134464	27	14164
2026-01-26 21:03:15.65	238.75	13.79	-28.0	-27.9	17.9	0.00e+00	0	46	0	6056574976	27	14299
2026-01-26 21:03:16.66	238.99	13.86	-27.9	-27.8	18.0	0.00e+00	0	46	0	6165626880	27	14137
2026-01-26 21:03:17.67	239.22	13.93	-27.8	-27.7	17.9	0.00e+00	0	46	0	6274678784	27	14003
2026-01-26 21:03:18.67	239.46	14.00	-27.8	-27.7	18.0	0.00e+00	0	46	0	6392119296	27	13974
2026-01-26 21:03:19.68	239.69	14.07	-27.8	-27.7	18.0	0.00e+00	0	46	0	6501171200	27	13952
2026-01-26 21:03:20.69	239.93	14.14	-27.8	-27.6	17.9	0.00e+00	0	46	0	6618611712	27	13905
2026-01-26 21:03:21.69	240.17	14.21	-27.9	-27.7	17.6	1.90e-06	0	46	0	6727663616	27	14091
2026-01-26 21:03:22.70	240.41	14.28	-27.8	-27.7	17.7	0.00e+00	0	47	0	6836715520	27	13970
2026-01-26 21:03:23.71	240.66	14.35	-27.9	-27.7	17.8	0.00e+00	0	46	0	6954156032	27	14035
2026-01-26 21:03:24.72	240.90	14.42	-27.7	-27.5	17.8	0.00e+00	0	46	0	7079985152	27	13741
2026-01-26 21:03:25.72	241.15	14.49	-27.7	-27.5	18.0	0.00e+00	0	46	0	7189037056	27	13761
2026-01-26 21:03:26.73	241.39	14.56	-27.7	-27.5	18.0	0.00e+00	0	47	0	7298088960	27	13706
2026-01-26 21:03:27.74	241.64	14.63	-27.8	-27.6	18.0	0.00e+00	0	47	0	7415529472	27	13849
2026-01-26 21:03:28.75	241.89	14.70	-27.8	-27.6	17.7	0.00e+00	0	47	0	7524581376	27	13911
2026-01-26 21:03:29.76	242.14	14.77	-27.8	-27.6	17.9	0.00e+00	0	47	0	7642021888	27	13909
2026-01-26 21:03:30.77	242.39	14.84	-27.9	-27.7	17.6	0.00e+00	0	47	0	7751073792	27	14013
2026-01-26 21:03:31.77	242.64	14.90	-27.7	-27.5	17.7	0.00e+00	0	46	0	7868514304	27	13756
2026-01-26 21:03:32.77	242.90	14.97	-27.7	-27.5	18.0	0.00e+00	0	47	0	7977566208	27	13704
2026-01-26 21:03:33.77	243.15	15.04	-27.7	-27.6	17.8	0.00e+00	0	47	0	8086618112	27	13842
2026-01-26 21:03:34.77	243.40	15.10	-27.6	-27.5	17.9	0.00e+00	0	47	0	8204058624	27	13663
2026-01-26 21:03:35.79	243.67	15.17	-27.8	-27.6	17.6	0.00e+00	0	46	0	8313110528	27	13872
2026-01-26 21:03:36.79	243.92	15.24	-27.6	-27.4	17.8	0.00e+00	0	47	0	8430551040	27	13575
2026-01-26 21:03:37.79	244.18	15.30	-27.6	-27.4	17.6	0.00e+00	0	46	0	8539602944	27	13545
2026-01-26 21:03:38.80	244.44	15.37	-27.5	-27.3	17.5	0.00e+00	0	46	0	8648654848	27	13426
2026-01-26 21:03:39.81	244.71	15.44	-27.4	-27.3	17.6	0.00e+00	0	46	0	8766095360	26	14137
2026-01-26 21:03:40.82	244.97	15.50	-27.5	-27.3	17.5	0.00e+00	0	47	0	8875147264	26	14227
2026-01-26 21:03:41.82	245.24	15.57	-27.4	-27.3	17.6	1.90e-06	0	47	0	9000976384	26	14118
2026-01-26 21:03:42.83	245.50	15.63	-27.5	-27.4	17.5	0.00e+00	0	47	0	9110028288	26	14287
2026-01-26 21:03:43.83	245.77	15.69	-27.4	-27.3	17.6	0.00e+00	0	46	0	9227468800	26	14129
2026-01-26 21:03:44.84	246.04	15.76	-27.4	-27.3	17.3	0.00e+00	0	47	0	9336520704	26	14142
2026-01-26 21:03:45.84	246.31	15.82	-27.4	-27.3	17.4	0.00e+00	0	47	0	9453961216	26	14135
2026-01-26 21:03:46.85	246.58	15.89	-27.4	-27.3	17.6	0.00e+00	0	46	0	9563013120	26	14125
2026-01-26 21:03:47.86	246.86	15.95	-27.4	-27.2	17.4	1.90e-06	0	47	0	9672065024	26	14047
2026-01-26 21:03:48.86	247.13	16.01	-27.4	-27.2	17.1	0.00e+00	0	47	0	9789505536	26	14082
2026-01-26 21:03:49.87	247.41	16.07	-27.3	-27.1	17.2	0.00e+00	0	46	0	9898557440	26	13864
2026-01-26 21:03:50.88	247.68	16.14	-27.4	-27.3	17.4	0.00e+00	0	46	0	10015997952	26	14142
2026-01-26 21:03:51.89	247.96	16.20	-27.3	-27.2	17.0	0.00e+00	0	47	0	10125049856	26	13983
2026-01-26 21:03:52.89	248.24	16.26	-27.2	-27.0	17.1	0.00e+00	0	47	0	10234101760	26	13725
2026-01-26 21:03:53.90	248.52	16.32	-27.2	-27.0	17.4	0.00e+00	0	46	0	10351542272	26	13736
2026-01-26 21:03:54.91	248.81	16.38	-27.2	-27.0	17.4	0.00e+00	0	47	0	10460594176	26	13739
2026-01-26 21:03:55.91	249.09	16.44	-27.1	-26.9	17.3	0.00e+00	0	47	0	10578034688	26	13568
2026-01-26 21:03:56.91	249.37	16.50	-27.1	-27.0	17.0	0.00e+00	0	47	0	10687086592	26	13672
2026-01-26 21:03:57.92	249.66	16.56	-27.1	-26.9	17.2	0.00e+00	0	47	0	10804527104	26	13585
2026-01-26 21:03:58.92	249.94	16.62	-27.1	-26.9	17.0	0.00e+00	0	47	0	10921967616	26	13632
2026-01-26 21:03:59.93	250.23	16.68	-27.0	-26.9	16.9	0.00e+00	0	47	0	11039408128	26	13483
2026-01-26 21:04:00.93	250.52	16.73	-26.9	-26.8	16.9	0.00e+00	0	46	0	11148460032	25	14130
2026-01-26 21:04:01.94	250.81	16.79	-27.0	-26.9	17.0	0.00e+00	0	47	0	11265900544	25	14277
2026-01-26 21:04:02.94	251.10	16.85	-27.0	-26.8	16.7	0.00e+00	0	47	0	11374952448	25	14259
2026-01-26 21:04:03.95	251.39	16.90	-27.0	-26.9	16.9	0.00e+00	0	47	0	11484004352	25	14276
2026-01-26 21:04:04.96	251.69	16.96	-27.0	-26.9	17.0	0.00e+00	0	47	0	11601444864	25	14276
2026-01-26 21:04:05.96	251.98	17.01	-27.0	-26.9	16.9	1.90e-06	0	47	0	11710496768	25	14311
2026-01-26 21:04:06.96	252.28	17.07	-27.0	-26.8	16.9	0.00e+00	0	47	0	11827937280	25	14184
2026-01-26 21:04:07.97	252.58	17.12	-27.0	-26.8	16.9	0.00e+00	0	47	0	11936989184	25	14221
2026-01-26 21:04:08.97	252.87	17.18	-27.0	-26.8	16.8	0.00e+00	0	47	0	12046041088	25	14193
2026-01-26 21:04:09.97	253.17	17.23	-26.9	-26.7	16.5	0.00e+00	0	47	0	12163481600	25	14033
2026-01-26 21:04:10.98	253.48	17.28	-26.8	-26.6	16.6	0.00e+00	0	47	0	12272533504	25	13929
2026-01-26 21:04:11.99	253.78	17.33	-26.8	-26.7	16.9	0.00e+00	0	47	0	12389974016	25	13957
2026-01-26 21:04:13.00	254.08	17.39	-26.8	-26.6	16.7	0.00e+00	0	47	0	12499025920	25	13899
2026-01-26 21:04:14.00	254.39	17.44	-26.8	-26.7	16.3	0.00e+00	0	47	0	12608077824	25	13965
2026-01-26 21:04:15.01	254.69	17.49	-26.9	-26.7	16.3	0.00e+00	0	47	0	12725518336	25	14048
2026-01-26 21:04:16.02	255.00	17.54	-26.9	-26.7	16.4	1.90e-06	0	47	0	12851347456	25	14056
2026-01-26 21:04:17.03	255.31	17.59	-26.8	-26.7	16.4	0.00e+00	0	47	0	12960399360	25	13989
2026-01-26 21:04:18.03	255.62	17.63	-26.8	-26.7	16.5	1.90e-06	0	47	0	13069451264	25	13967
2026-01-26 21:04:19.04	255.93	17.68	-26.7	-26.6	16.5	0.00e+00	0	47	0	13186891776	25	13834
2026-01-26 21:04:20.05	256.24	17.73	-26.7	-26.5	16.6	1.90e-06	0	47	0	13295943680	25	13716
2026-01-26 21:04:21.05	256.55	17.78	-26.6	-26.5	16.6	1.90e-06	0	47	0	13413384192	25	13678
2026-01-26 21:04:22.06	256.87	17.82	-26.7	-26.5	16.6	0.00e+00	0	47	0	13522436096	25	13767
2026-01-26 21:04:23.06	257.18	17.87	-26.7	-26.6	16.6	0.00e+00	0	46	0	13631488000	25	13827
2026-01-26 21:04:24.07	257.50	17.91	-26.6	-26.4	16.7	0.00e+00	0	47	0	13748928512	25	13576
2026-01-26 21:04:25.08	257.82	17.96	-26.6	-26.5	16.7	0.00e+00	0	47	0	13857980416	25	13664
2026-01-26 21:04:26.09	258.13	18.00	-26.7	-26.5	16.4	0.00e+00	0	47	0	13975420928	25	13700
2026-01-26 21:04:27.08	258.45	18.04	-26.6	-26.5	16.7	0.00e+00	0	47	0	14084472832	25	13633
2026-01-26 21:04:28.09	258.77	18.08	-26.6	-26.4	16.6	0.00e+00	0	47	0	14201913344	25	13619
2026-01-26 21:04:29.09	259.09	18.12	-26.7	-26.5	16.7	0.00e+00	0	47	0	14310965248	25	13707
2026-01-26 21:04:30.09	259.41	18.16	-26.7	-26.5	16.5	0.00e+00	0	47	0	14420017152	25	13764
2026-01-26 21:04:31.10	259.73	18.20	-26.6	-26.4	16.6	1.90e-06	0	47	0	14537457664	25	13577
2026-01-26 21:04:32.11	260.05	18.24	-26.6	-26.4	16.8	1.90e-06	0	47	0	14646509568	25	13603
2026-01-26 21:04:33.11	260.38	18.28	-26.6	-26.4	16.7	0.00e+00	0	47	0	14763950080	25	13523
2026-01-26 21:04:34.12	260.70	18.32	-26.6	-26.4	17.1	0.00e+00	0	47	0	14881390592	25	13620
2026-01-26 21:04:35.13	261.03	18.36	-26.6	-26.4	17.1	0.00e+00	0	47	0	14998831104	25	13562
2026-01-26 21:04:36.14	261.36	18.39	-26.6	-26.4	17.0	0.00e+00	0	47	0	15107883008	25	13562
2026-01-26 21:04:37.15	261.69	18.43	-26.6	-26.5	17.3	0.00e+00	0	47	0	15225323520	25	13669
2026-01-26 21:04:38.15	262.01	18.46	-26.5	-26.3	17.0	0.00e+00	0	47	0	15334375424	25	13415
2026-01-26 21:04:39.16	262.34	18.50	-26.5	-26.4	17.3	0.00e+00	0	47	0	15443427328	25	13529
2026-01-26 21:04:40.17	262.67	18.53	-26.5	-26.4	17.4	0.00e+00	0	47	0	15560867840	25	13480
2026-01-26 21:04:41.17	263.00	18.56	-26.5	-26.4	17.2	0.00e+00	0	47	0	15669919744	24	14309
2026-01-26 21:04:42.18	263.34	18.59	-26.6	-26.4	17.2	0.00e+00	0	47	0	15787360256	24	14416
2026-01-26 21:04:43.19	263.67	18.62	-26.4	-26.3	17.5	0.00e+00	0	47	0	15896412160	24	14144
2026-01-26 21:04:44.20	264.00	18.65	-26.5	-26.3	17.6	0.00e+00	0	47	0	16005464064	24	14237
2026-01-26 21:04:45.21	264.34	18.68	-26.5	-26.3	17.4	0.00e+00	0	47	0	16122904576	24	14253
2026-01-26 21:04:46.22	264.67	18.71	-26.5	-26.3	17.3	0.00e+00	0	47	0	16231956480	24	14273
2026-01-26 21:04:47.22	265.01	18.74	-26.5	-26.3	17.7	0.00e+00	0	47	0	16357785600	24	14188
2026-01-26 21:04:48.22	265.34	18.76	-26.5	-26.4	17.5	0.00e+00	0	47	0	16466837504	24	14287
2026-01-26 21:04:49.23	265.68	18.79	-26.6	-26.5	17.5	0.00e+00	0	47	0	16584278016	24	14470
2026-01-26 21:04:50.24	266.02	18.81	-26.7	-26.5	17.7	0.00e+00	0	47	0	16693329920	24	14546
2026-01-26 21:04:51.25	266.36	18.84	-26.6	-26.4	17.8	0.00e+00	0	47	0	16810770432	24	14378
2026-01-26 21:04:52.26	266.69	18.86	-26.6	-26.4	17.9	0.00e+00	0	47	0	16919822336	24	14354
2026-01-26 21:04:53.26	267.03	18.88	-26.7	-26.5	17.6	0.00e+00	0	47	0	17037262848	24	14572
2026-01-26 21:04:54.27	267.37	18.90	-26.6	-26.4	17.8	0.00e+00	0	47	0	17146314752	24	14395
2026-01-26 21:04:55.27	267.71	18.92	-26.5	-26.4	17.9	0.00e+00	0	47	0	17255366656	24	14307
2026-01-26 21:04:56.28	268.05	18.94	-26.6	-26.4	18.0	0.00e+00	0	47	0	17372807168	24	14428
2026-01-26 21:04:57.28	268.39	18.96	-26.6	-26.4	17.9	0.00e+00	0	47	0	17481859072	24	14381
2026-01-26 21:04:58.29	268.73	18.98	-26.6	-26.4	18.0	0.00e+00	0	47	0	17599299584	24	14341
2026-01-26 21:04:59.30	269.07	18.99	-26.6	-26.4	18.2	0.00e+00	0	47	0	17708351488	24	14374
2026-01-26 21:05:00.31	269.42	19.01	-26.6	-26.5	18.2	0.00e+00	0	47	0	17817403392	24	14446
2026-01-26 21:05:01.32	269.76	19.02	-26.7	-26.5	18.1	0.00e+00	0	47	0	17934843904	24	14557
2026-01-26 21:05:02.33	270.10	19.04	-26.6	-26.5	18.2	0.00e+00	0	47	0	18060673024	24	14483
2026-01-26 21:05:03.32	270.44	19.05	-26.7	-26.5	18.3	0.00e+00	0	47	0	18169724928	24	14558
2026-01-26 21:05:04.32	270.78	19.06	-26.7	-26.6	18.5	0.00e+00	0	47	0	18278776832	24	14613
2026-01-26 21:05:05.33	271.13	19.07	-26.7	-26.5	18.4	0.00e+00	0	47	0	18396217344	24	14583
2026-01-26 21:05:06.33	271.47	19.08	-26.8	-26.6	18.3	0.00e+00	0	47	0	18505269248	24	14763
2026-01-26 21:05:07.34	271.81	19.09	-26.8	-26.6	18.5	0.00e+00	0	47	0	18622709760	24	14704
2026-01-26 21:05:08.35	272.16	19.10	-26.8	-26.6	18.7	0.00e+00	0	47	0	18731761664	24	14657
2026-01-26 21:05:09.35	272.50	19.11	-26.8	-26.7	18.6	0.00e+00	0	47	0	18840813568	24	14816
2026-01-26 21:05:10.36	272.85	19.12	-26.8	-26.6	18.6	0.00e+00	0	47	0	18958254080	24	14757
2026-01-26 21:05:11.37	273.19	19.12	-26.8	-26.6	18.5	0.00e+00	0	47	0	19067305984	24	14680
2026-01-26 21:05:12.38	273.54	19.13	-26.8	-26.7	18.6	0.00e+00	0	47	0	19184746496	24	14789
2026-01-26 21:05:13.39	273.88	19.13	-26.8	-26.6	18.7	0.00e+00	0	47	0	19293798400	24	14767
2026-01-26 21:05:14.39	274.23	19.13	-26.8	-26.7	18.7	0.00e+00	0	47	0	19402850304	24	14821
2026-01-26 21:05:15.39	274.57	19.13	-26.8	-26.7	18.8	0.00e+00	0	47	0	19520290816	24	14796
2026-01-26 21:05:16.40	274.91	19.13	-26.8	-26.6	18.9	0.00e+00	0	47	0	19629342720	24	14735
2026-01-26 21:05:17.41	275.26	19.13	-26.8	-26.6	18.9	0.00e+00	0	47	0	19746783232	24	14768
2026-01-26 21:05:18.40	275.60	19.13	-26.9	-26.7	19.1	0.00e+00	0	47	0	19855835136	24	14892
2026-01-26 21:05:19.41	275.95	19.13	-26.9	-26.7	19.2	0.00e+00	0	47	0	19973275648	24	14890
2026-01-26 21:05:20.42	276.29	19.13	-26.9	-26.8	19.2	0.00e+00	0	47	0	20082327552	24	14977
2026-01-26 21:05:21.42	276.63	19.13	-27.0	-26.8	19.2	0.00e+00	0	47	0	20208156672	24	15055
2026-01-26 21:05:22.42	276.98	19.12	-26.9	-26.7	19.3	0.00e+00	0	47	0	20317208576	24	14897
2026-01-26 21:05:23.43	277.32	19.12	-26.9	-26.7	19.2	0.00e+00	0	47	0	20434649088	24	14870
2026-01-26 21:05:24.44	277.67	19.11	-26.9	-26.8	19.3	0.00e+00	0	47	0	20543700992	24	14952
2026-01-26 21:05:25.44	278.01	19.10	-26.9	-26.7	19.3	0.00e+00	0	47	0	20652752896	24	14874
2026-01-26 21:05:26.45	278.35	19.09	-26.9	-26.7	19.3	0.00e+00	0	47	0	20770193408	24	14889
2026-01-26 21:05:27.45	278.70	19.08	-26.9	-26.7	19.3	0.00e+00	0	47	0	20879245312	24	14919
2026-01-26 21:05:28.46	279.04	19.07	-26.9	-26.8	19.3	0.00e+00	0	47	0	20996685824	24	15000
2026-01-26 21:05:29.47	279.38	19.06	-27.0	-26.8	19.4	0.00e+00	0	47	0	21105737728	24	15120
2026-01-26 21:05:30.48	279.73	19.05	-27.0	-26.9	19.5	0.00e+00	0	47	0	21214789632	24	15126
2026-01-26 21:05:31.48	280.07	19.04	-27.1	-26.9	19.4	0.00e+00	0	47	0	21332230144	24	15269
2026-01-26 21:05:32.49	280.41	19.02	-27.0	-26.8	19.5	0.00e+00	0	47	0	21441282048	24	15097
2026-01-26 21:05:33.50	280.75	19.01	-27.0	-26.9	19.6	0.00e+00	0	47	0	21558722560	24	15179
2026-01-26 21:05:34.51	281.10	18.99	-27.1	-27.0	19.5	0.00e+00	0	47	0	21667774464	24	15305
2026-01-26 21:05:35.51	281.44	18.98	-27.1	-26.9	19.6	0.00e+00	0	47	0	21776826368	24	15291
2026-01-26 21:05:36.52	281.78	18.96	-27.1	-27.0	19.6	0.00e+00	0	47	0	21902655488	24	15331
2026-01-26 21:05:37.52	282.12	18.94	-27.1	-26.9	19.6	0.00e+00	0	47	0	22020096000	24	15280
2026-01-26 21:05:38.53	282.46	18.92	-27.3	-27.1	19.6	0.00e+00	0	47	0	22129147904	25	14681
2026-01-26 21:05:39.54	282.80	18.90	-27.2	-27.1	19.6	0.00e+00	0	47	0	22238199808	25	14649
2026-01-26 21:05:40.53	283.13	18.88	-27.2	-27.1	19.6	0.00e+00	0	47	0	22355640320	25	14624
2026-01-26 21:05:41.54	283.47	18.86	-27.2	-27.1	19.6	0.00e+00	0	47	0	22464692224	25	14619
2026-01-26 21:05:42.54	283.80	18.83	-27.2	-27.1	19.5	0.00e+00	0	47	0	22582132736	25	14656
2026-01-26 21:05:43.55	284.14	18.81	-27.3	-27.2	19.4	0.00e+00	0	47	0	22691184640	25	14837
2026-01-26 21:05:44.55	284.48	18.79	-27.4	-27.2	19.4	0.00e+00	0	47	0	22800236544	25	14886
2026-01-26 21:05:45.56	284.81	18.76	-27.3	-27.1	19.4	0.00e+00	0	47	0	22917677056	25	14737
2026-01-26 21:05:46.56	285.15	18.74	-27.3	-27.2	19.3	0.00e+00	0	47	0	23026728960	25	14799
2026-01-26 21:05:47.57	285.48	18.71	-27.4	-27.3	19.2	0.00e+00	0	47	0	23144169472	25	14962
2026-01-26 21:05:48.58	285.82	18.68	-27.4	-27.2	19.3	0.00e+00	0	47	0	23253221376	25	14834
2026-01-26 21:05:49.58	286.15	18.65	-27.4	-27.2	19.3	0.00e+00	0	47	0	23370661888	25	14921
2026-01-26 21:05:50.58	286.48	18.62	-27.4	-27.2	19.3	0.00e+00	0	47	0	23479713792	25	14916
2026-01-26 21:05:51.59	286.81	18.59	-27.4	-27.2	19.3	0.00e+00	0	47	0	23588765696	25	14937
2026-01-26 21:05:52.59	287.14	18.56	-27.5	-27.4	19.3	0.00e+00	0	47	0	23706206208	25	15151
2026-01-26 21:05:53.60	287.47	18.53	-27.5	-27.4	19.2	0.00e+00	0	47	0	23815258112	25	15146
2026-01-26 21:05:54.61	287.80	18.50	-27.5	-27.4	19.2	0.00e+00	0	47	0	23932698624	25	15129
2026-01-26 21:05:55.61	288.13	18.46	-27.5	-27.3	19.2	0.00e+00	0	47	0	24041750528	25	15087
2026-01-26 21:05:56.62	288.46	18.43	-27.6	-27.5	19.0	0.00e+00	0	47	0	24167579648	25	15307
2026-01-26 21:05:57.63	288.78	18.39	-27.6	-27.5	19.1	0.00e+00	0	47	0	24276631552	25	15301
2026-01-26 21:05:58.63	289.11	18.36	-27.8	-27.6	18.9	0.00e+00	0	47	0	24394072064	26	14707
2026-01-26 21:05:59.64	289.43	18.32	-27.7	-27.5	18.9	0.00e+00	0	47	0	24503123968	26	14545
2026-01-26 21:06:00.64	289.76	18.28	-27.7	-27.5	18.9	0.00e+00	0	47	0	24612175872	26	14514
2026-01-26 21:06:01.64	290.08	18.25	-27.7	-27.6	18.8	0.00e+00	0	47	0	24729616384	26	14637
2026-01-26 21:06:02.64	290.40	18.21	-27.7	-27.5	18.8	0.00e+00	0	47	0	24838668288	26	14565
2026-01-26 21:06:03.65	290.72	18.17	-27.8	-27.6	18.6	0.00e+00	0	47	0	24956108800	26	14667
2026-01-26 21:06:04.66	291.04	18.13	-27.8	-27.7	18.6	0.00e+00	0	47	0	25065160704	26	14825
2026-01-26 21:06:05.66	291.36	18.09	-27.9	-27.8	18.5	0.00e+00	0	47	0	25174212608	26	14970
2026-01-26 21:06:06.67	291.68	18.04	-28.0	-27.8	18.4	0.00e+00	0	47	0	25291653120	26	15086
2026-01-26 21:06:07.68	292.00	18.00	-28.0	-27.9	18.4	0.00e+00	0	47	0	25400705024	26	15143
2026-01-26 21:06:08.68	292.31	17.96	-28.0	-27.8	18.7	0.00e+00	0	47	0	25518145536	26	15075
2026-01-26 21:06:09.69	292.63	17.92	-28.0	-27.9	18.7	0.00e+00	0	47	0	25627197440	26	15128
2026-01-26 21:06:10.70	292.94	17.87	-28.1	-27.9	18.5	0.00e+00	0	47	0	25744637952	26	15191
2026-01-26 21:06:11.71	293.26	17.83	-28.1	-28.0	18.4	0.00e+00	0	47	0	25853689856	26	15333
2026-01-26 21:06:12.71	293.57	17.78	-28.1	-27.9	18.5	0.00e+00	0	47	0	25962741760	26	15208
2026-01-26 21:06:13.71	293.88	17.73	-28.0	-27.8	18.5	0.00e+00	0	47	0	26080182272	26	15088
2026-01-26 21:06:14.72	294.19	17.69	-28.1	-27.9	18.4	0.00e+00	0	47	0	26197622784	26	15193
2026-01-26 21:06:15.73	294.50	17.64	-28.0	-27.9	18.6	0.00e+00	0	47	0	26315063296	26	15125
2026-01-26 21:06:16.73	294.81	17.59	-28.1	-27.9	18.4	0.00e+00	0	47	0	26424115200	26	15228
2026-01-26 21:06:17.74	295.11	17.54	-28.1	-27.9	18.3	0.00e+00	0	47	0	26541555712	26	15266
2026-01-26 21:06:18.75	295.42	17.49	-28.0	-27.9	18.5	0.00e+00	0	47	0	26650607616	26	15137
2026-01-26 21:06:19.75	295.72	17.44	-28.0	-27.9	18.5	0.00e+00	0	47	0	26768048128	26	15150
2026-01-26 21:06:20.75	296.02	17.39	-27.9	-27.7	18.5	0.00e+00	0	47	0	26877100032	26	14926
2026-01-26 21:06:21.76	296.33	17.34	-28.0	-27.9	18.6	0.00e+00	0	47	0	26986151936	26	15155
2026-01-26 21:06:22.77	296.63	17.29	-28.0	-27.8	18.6	0.00e+00	0	47	0	27103592448	26	15097
2026-01-26 21:06:23.77	296.93	17.24	-28.0	-27.8	18.7	0.00e+00	0	47	0	27212644352	26	15004
2026-01-26 21:06:24.78	297.23	17.18	-28.1	-27.9	18.8	0.00e+00	0	47	0	27330084864	26	15219
2026-01-26 21:06:25.78	297.52	17.13	-28.0	-27.8	18.6	0.00e+00	0	47	0	27439136768	26	15089
2026-01-26 21:06:26.79	297.82	17.08	-28.1	-27.9	18.4	0.00e+00	0	47	0	27548188672	26	15160
2026-01-26 21:06:27.79	298.12	17.02	-28.0	-27.9	18.6	0.00e+00	0	47	0	27665629184	26	15155
2026-01-26 21:06:28.80	298.41	16.97	-28.0	-27.8	18.7	0.00e+00	0	47	0	27774681088	26	15045
2026-01-26 21:06:29.81	298.70	16.91	-28.2	-28.0	18.6	0.00e+00	0	47	0	27892121600	27	14547
2026-01-26 21:06:30.82	299.00	16.86	-28.1	-28.0	18.5	0.00e+00	0	47	0	28009562112	27	14466
2026-01-26 21:06:31.82	299.29	16.80	-28.1	-27.9	18.6	0.00e+00	0	47	0	28127002624	27	14393
2026-01-26 21:06:32.83	299.58	16.74	-28.1	-27.9	18.7	0.00e+00	0	47	0	28236054528	27	14366
2026-01-26 21:06:33.83	299.86	16.69	-28.1	-27.9	18.7	0.00e+00	0	47	0	28353495040	27	14413
2026-01-26 21:06:34.84	300.15	16.63	-28.2	-28.1	18.5	0.00e+00	0	47	0	28462546944	27	14635
2026-01-26 21:06:35.85	300.44	16.57	-28.1	-27.9	18.6	0.00e+00	0	47	0	28571598848	27	14427
2026-01-26 21:06:36.86	300.72	16.51	-28.1	-27.9	18.6	0.00e+00	0	47	0	28689039360	27	14390
2026-01-26 21:06:37.87	301.01	16.45	-28.1	-27.9	18.8	0.00e+00	0	47	0	28798091264	27	14404
2026-01-26 21:06:38.87	301.29	16.39	-28.2	-28.0	18.8	0.00e+00	0	47	0	28915531776	27	14534
2026-01-26 21:06:39.88	301.57	16.33	-28.0	-27.9	18.9	0.00e+00	0	47	0	29024583680	27	14302
2026-01-26 21:06:40.89	301.85	16.27	-28.2	-28.0	18.8	0.00e+00	0	47	0	29142024192	27	14519
2026-01-26 21:06:41.90	302.13	16.21	-28.1	-28.0	18.9	0.00e+00	0	47	0	29251076096	27	14471
2026-01-26 21:06:42.91	302.41	16.15	-28.1	-28.0	18.9	0.00e+00	0	47	0	29360128000	27	14466
2026-01-26 21:06:43.91	302.68	16.09	-28.3	-28.1	18.8	0.00e+00	0	47	0	29477568512	27	14674
2026-01-26 21:06:44.92	302.96	16.03	-28.2	-28.0	18.9	0.00e+00	0	47	0	29603397632	27	14571
2026-01-26 21:06:45.93	303.23	15.96	-28.2	-28.0	19.0	0.00e+00	0	47	0	29712449536	27	14536
2026-01-26 21:06:46.94	303.50	15.90	-28.2	-28.0	19.0	0.00e+00	0	47	0	29821501440	27	14555
2026-01-26 21:06:47.94	303.77	15.84	-28.2	-28.1	18.9	0.00e+00	0	47	0	29938941952	27	14636
2026-01-26 21:06:48.95	304.04	15.78	-28.4	-28.2	18.8	0.00e+00	0	47	0	30047993856	27	14853
2026-01-26 21:06:49.96	304.31	15.71	-28.3	-28.2	18.9	0.00e+00	0	47	0	30165434368	27	14778
2026-01-26 21:06:50.97	304.58	15.65	-28.3	-28.1	18.9	0.00e+00	0	47	0	30274486272	27	14743
2026-01-26 21:06:51.98	304.84	15.58	-28.4	-28.2	18.9	0.00e+00	0	47	0	30383538176	27	14929
2026-01-26 21:06:52.98	305.11	15.52	-28.5	-28.4	18.7	0.00e+00	0	47	0	30500978688	27	15125
2026-01-26 21:06:53.99	305.37	15.45	-28.5	-28.3	18.7	0.00e+00	0	47	0	30610030592	27	15058
2026-01-26 21:06:55.00	305.63	15.39	-28.5	-28.3	18.8	0.00e+00	0	47	0	30727471104	27	15091
2026-01-26 21:06:56.01	305.89	15.32	-28.5	-28.4	18.7	0.00e+00	0	47	0	30836523008	27	15151
2026-01-26 21:06:57.01	306.15	15.26	-28.5	-28.4	18.7	0.00e+00	0	47	0	30945574912	27	15149
2026-01-26 21:06:58.02	306.41	15.19	-28.6	-28.4	18.6	0.00e+00	0	47	0	31071404032	27	15196
2026-01-26 21:06:59.03	306.67	15.12	-28.6	-28.4	18.6	0.00e+00	0	47	0	31188844544	28	14401
2026-01-26 21:07:00.03	306.92	15.06	-28.7	-28.5	18.6	0.00e+00	0	47	0	31297896448	28	14519
2026-01-26 21:07:01.04	307.17	14.99	-28.6	-28.4	18.6	0.00e+00	0	47	0	31406948352	28	14353
2026-01-26 21:07:02.04	307.42	14.92	-28.6	-28.4	18.6	0.00e+00	0	47	0	31524388864	28	14422
2026-01-26 21:07:03.05	307.68	14.86	-28.5	-28.4	18.6	0.00e+00	0	47	0	31633440768	28	14330
2026-01-26 21:07:04.05	307.92	14.79	-28.7	-28.5	18.5	0.00e+00	0	47	0	31750881280	28	14527
2026-01-26 21:07:05.06	308.17	14.72	-28.6	-28.5	18.6	0.00e+00	0	47	0	31859933184	28	14461
2026-01-26 21:07:06.07	308.42	14.65	-28.7	-28.6	18.4	0.00e+00	0	47	0	31968985088	28	14620
2026-01-26 21:07:07.08	308.67	14.59	-28.7	-28.6	18.3	0.00e+00	0	47	0	32086425600	28	14633
2026-01-26 21:07:08.08	308.91	14.52	-28.8	-28.6	18.4	0.00e+00	0	47	0	32195477504	28	14673
2026-01-26 21:07:09.09	309.16	14.45	-28.9	-28.7	18.2	0.00e+00	0	47	0	32312918016	28	14868
2026-01-26 21:07:10.10	309.40	14.38	-28.8	-28.7	18.3	0.00e+00	0	47	0	32421969920	28	14796
2026-01-26 21:07:11.11	309.64	14.31	-28.8	-28.6	18.2	0.00e+00	0	47	0	32539410432	28	14705
2026-01-26 21:07:12.11	309.88	14.24	-28.7	-28.5	18.2	0.00e+00	0	47	0	32648462336	28	14586
2026-01-26 21:07:13.12	310.12	14.17	-28.7	-28.6	18.2	0.00e+00	0	47	0	32774291456	28	14631
2026-01-26 21:07:14.13	310.36	14.10	-52.2	-53.5	6.6	0.00e+00	0	47	104	32807845888	75	17322
2026-01-26 21:07:15.13	310.59	14.03	-54.7	-56.9	6.2	0.00e+00	0	47	104	32807845888	80	19097
2026-01-26 21:07:16.14	310.83	13.96	-54.7	-56.8	6.2	0.00e+00	0	47	104	32807845888	80	18967
2026-01-26 21:07:17.14	311.06	13.89	-54.7	-56.8	6.2	0.00e+00	0	46	104	32807845888	80	18944
2026-01-26 21:07:18.15	311.29	13.82	-54.7	-56.8	6.2	0.00e+00	0	47	104	32807845888	80	18986
2026-01-26 21:07:19.15	311.52	13.75	-54.7	-56.8	6.2	0.00e+00	0	47	104	32807845888	80	19010
2026-01-26 21:07:20.16	311.75	13.68	-54.7	-56.8	6.2	0.00e+00	0	47	104	32807845888	80	18921
2026-01-26 21:07:21.17	311.98	13.61	-54.7	-56.8	6.2	0.00e+00	0	47	104	32807845888	80	19033
2026-01-26 21:07:22.18	312.21	13.54	-54.8	-56.8	6.2	0.00e+00	0	47	104	32807845888	80	18983
2026-01-26 21:07:23.19	312.44	13.47	-54.8	-56.8	6.2	0.00e+00	0	46	104	32807845888	80	19014
2026-01-26 21:07:24.20	312.66	13.40	-54.7	-56.8	6.2	0.00e+00	0	47	104	32807845888	80	18850
2026-01-26 21:07:25.21	312.89	13.33	-54.7	-56.8	6.2	0.00e+00	0	47	104	32807845888	80	18985
2026-01-26 21:07:26.22	313.11	13.26	-54.8	-56.8	6.2	0.00e+00	0	47	104	32807845888	80	18947
2026-01-26 21:07:27.22	313.33	13.19	-54.7	-56.8	6.2	0.00e+00	0	46	104	32807845888	80	18969
2026-01-26 21:07:28.23	313.55	13.12	-54.6	-56.7	6.2	0.00e+00	0	47	104	32807845888	80	18772
2026-01-26 21:07:29.24	313.77	13.04	-54.7	-56.8	6.2	0.00e+00	0	47	104	32807845888	80	18853
2026-01-26 21:07:30.25	313.99	12.97	-54.7	-56.8	6.2	0.00e+00	0	46	104	32807845888	80	18837
2026-01-26 21:07:31.25	314.20	12.90	-54.7	-56.8	6.2	0.00e+00	0	47	104	32807845888	80	18908
2026-01-26 21:07:32.26	314.42	12.83	-54.6	-56.6	6.2	0.00e+00	0	46	104	32807845888	80	18594
2026-01-26 21:07:33.27	314.63	12.76	-54.6	-56.8	6.2	0.00e+00	0	46	104	32807845888	80	18865
2026-01-26 21:07:34.28	314.85	12.69	-54.6	-56.6	6.2	0.00e+00	0	47	104	32807845888	80	18568
2026-01-26 21:07:35.29	315.06	12.62	-54.6	-56.7	6.2	0.00e+00	0	46	104	32807845888	80	18703
2026-01-26 21:07:36.30	315.27	12.54	-54.5	-56.6	6.2	0.00e+00	0	46	104	32807845888	80	18460
2026-01-26 21:07:37.30	315.48	12.47	-54.6	-56.7	6.2	0.00e+00	0	46	104	32807845888	80	18634
2026-01-26 21:07:38.31	315.69	12.40	-54.5	-56.6	6.2	0.00e+00	0	47	104	32807845888	80	18425
2026-01-26 21:07:39.32	315.89	12.33	-54.5	-56.6	6.2	0.00e+00	0	46	104	32807845888	80	18543
2026-01-26 21:07:40.33	316.10	12.26	-54.4	-56.5	6.2	0.00e+00	0	47	104	32807845888	80	18339
2026-01-26 21:07:41.34	316.31	12.18	-54.5	-56.6	6.2	0.00e+00	0	46	104	32807845888	80	18470
2026-01-26 21:07:42.34	316.51	12.11	-54.4	-56.5	6.2	0.00e+00	0	46	104	32807845888	80	18268
2026-01-26 21:07:43.35	316.71	12.04	-54.5	-56.6	6.2	0.00e+00	0	46	104	32807845888	80	18428
2026-01-26 21:07:44.36	316.91	11.97	-54.4	-56.5	6.2	0.00e+00	0	46	104	32807845888	80	18208
2026-01-26 21:07:45.37	317.11	11.90	-54.5	-56.5	6.2	0.00e+00	0	46	104	32807845888	80	18367
2026-01-26 21:07:46.38	317.31	11.82	-54.4	-56.4	6.2	0.00e+00	0	46	104	32807845888	80	18157
2026-01-26 21:07:47.38	317.51	11.75	-54.4	-56.5	6.2	0.00e+00	0	46	104	32807845888	80	18274
2026-01-26 21:07:48.39	317.71	11.68	-54.3	-56.4	6.2	0.00e+00	0	46	104	32807845888	80	18005
2026-01-26 21:07:49.40	317.91	11.61	-54.4	-56.5	6.2	0.00e+00	0	46	104	32807845888	80	18311
2026-01-26 21:07:50.41	318.10	11.54	-54.3	-56.4	6.2	0.00e+00	0	47	104	32807845888	80	17991
2026-01-26 21:07:51.41	318.29	11.47	-54.4	-56.4	6.2	0.00e+00	0	46	104	32807845888	80	18105
2026-01-26 21:07:52.42	318.49	11.39	-54.3	-56.3	6.2	0.00e+00	0	46	104	32807845888	80	17852
2026-01-26 21:07:53.42	318.68	11.32	-54.3	-56.4	6.2	0.00e+00	0	46	104	32807845888	80	18052
2026-01-26 21:07:54.43	318.87	11.25	-54.3	-56.4	6.2	0.00e+00	0	46	104	32807845888	80	17974
2026-01-26 21:07:55.44	319.06	11.18	-54.3	-56.3	6.2	0.00e+00	0	46	104	32807845888	80	17855
2026-01-26 21:07:56.45	319.25	11.11	-54.3	-56.3	6.2	0.00e+00	0	46	104	32807845888	80	17901
2026-01-26 21:07:57.46	319.43	11.03	-54.3	-56.3	6.2	0.00e+00	0	46	104	32807845888	80	17870
2026-01-26 21:07:58.47	319.62	10.96	-54.2	-56.2	6.2	0.00e+00	0	46	104	32807845888	80	17764
2026-01-26 21:07:59.47	319.80	10.89	-54.2	-56.2	6.2	0.00e+00	0	46	104	32807845888	80	17671
2026-01-26 21:08:00.48	319.99	10.82	-54.2	-56.3	6.2	0.00e+00	0	46	104	32807845888	80	17777
2026-01-26 21:08:01.49	320.17	10.75	-54.2	-56.2	6.2	0.00e+00	0	46	104	32807845888	80	17634
2026-01-26 21:08:02.49	320.35	10.67	-54.1	-56.1	6.2	0.00e+00	0	46	104	32807845888	80	17456
2026-01-26 21:08:03.50	320.53	10.60	-54.1	-56.1	6.2	0.00e+00	0	46	104	32807845888	80	17414
2026-01-26 21:08:04.51	320.72	10.53	-54.2	-56.3	6.2	0.00e+00	0	46	104	32807845888	79	18836
2026-01-26 21:08:05.51	320.89	10.46	-54.1	-56.1	6.2	0.00e+00	0	46	104	32807845888	79	18584
2026-01-26 21:08:06.52	321.07	10.39	-54.0	-55.9	6.2	0.00e+00	0	47	104	32807845888	79	18150
2026-01-26 21:08:07.53	321.25	10.32	-53.7	-55.5	6.2	0.00e+00	0	46	104	32807845888	79	17193
2026-01-26 21:08:08.53	321.42	10.25	-53.7	-55.5	6.2	0.00e+00	0	46	104	32807845888	79	17189
2026-01-26 21:08:09.54	321.60	10.17	-53.7	-55.5	6.2	0.00e+00	0	46	104	32807845888	79	17234
2026-01-26 21:08:10.55	321.77	10.10	-53.7	-55.5	6.2	0.00e+00	0	46	104	32807845888	79	17253
2026-01-26 21:08:11.56	321.95	10.03	-53.5	-55.2	6.2	0.00e+00	0	46	104	32807845888	79	16743
2026-01-26 21:08:12.56	322.12	9.96	-53.3	-55.0	6.3	0.00e+00	0	46	104	32807845888	78	17353
2026-01-26 21:08:13.57	322.29	9.89	-54.1	-56.2	6.2	0.00e+00	0	46	104	32807845888	78	19755
2026-01-26 21:08:14.58	322.46	9.82	-54.1	-56.2	6.2	0.00e+00	0	46	104	32807845888	79	18621
2026-01-26 21:08:15.59	322.63	9.75	-53.1	-54.7	6.3	0.00e+00	0	46	104	32807845888	78	16610
2026-01-26 21:08:16.60	322.80	9.68	-53.1	-54.6	6.3	0.00e+00	0	46	104	32807845888	78	16436
2026-01-26 21:08:17.61	322.97	9.60	-52.8	-54.4	6.3	0.00e+00	0	46	104	32807845888	77	16968
2026-01-26 21:08:18.62	323.13	9.53	-52.6	-54.1	6.3	0.00e+00	0	46	104	32807845888	77	16398
2026-01-26 21:08:19.63	323.30	9.46	-52.7	-54.1	6.3	0.00e+00	0	46	104	32807845888	77	16517
2026-01-26 21:08:20.64	323.47	9.39	-53.0	-54.6	6.3	0.00e+00	0	46	104	32807845888	77	17552
2026-01-26 21:08:21.64	323.63	9.32	-53.6	-55.5	6.2	0.00e+00	0	46	104	32807845888	77	19267
2026-01-26 21:08:22.65	323.79	9.25	-54.2	-56.3	6.2	0.00e+00	0	46	104	32807845888	78	20004
2026-01-26 21:08:23.66	323.95	9.18	-51.8	-52.9	6.5	0.00e+00	0	46	104	32807845888	75	16202
2026-01-26 21:08:24.67	324.12	9.11	-51.8	-52.9	6.5	0.00e+00	0	46	104	32807845888	75	16182
2026-01-26 21:08:25.67	324.27	9.04	-51.7	-52.8	6.5	0.00e+00	0	46	104	32807845888	75	15961
2026-01-26 21:08:26.68	324.43	8.97	-51.3	-52.3	6.6	0.00e+00	0	46	104	32807845888	74	15981
2026-01-26 21:08:27.69	324.59	8.90	-51.1	-52.1	6.6	0.00e+00	0	46	104	32807845888	74	15539
2026-01-26 21:08:28.70	324.75	8.83	-50.9	-51.8	6.6	0.00e+00	0	46	104	32807845888	73	16004
2026-01-26 21:08:29.71	324.91	8.76	-53.9	-56.0	6.2	0.00e+00	0	46	104	32807845888	78	19291
2026-01-26 21:08:30.71	325.06	8.69	-53.0	-54.6	6.3	0.00e+00	0	46	104	32807845888	78	16474
2026-01-26 21:08:31.72	325.22	8.62	-51.1	-52.2	6.6	0.00e+00	0	46	104	32807845888	73	16605
2026-01-26 21:08:32.72	325.37	8.55	-50.9	-51.8	6.6	0.00e+00	0	46	104	32807845888	73	15995
2026-01-26 21:08:33.73	325.52	8.48	-50.3	-51.2	6.8	0.00e+00	0	46	104	32807845888	72	15798
2026-01-26 21:08:34.73	325.67	8.41	-50.0	-50.8	6.9	0.00e+00	0	46	104	32807845888	71	16000
2026-01-26 21:08:35.73	325.83	8.34	-50.3	-51.2	6.8	0.00e+00	0	46	104	32807845888	71	16585
2026-01-26 21:08:36.74	325.98	8.27	-49.4	-50.2	7.0	0.00e+00	0	46	104	32807845888	70	15724
2026-01-26 21:08:37.74	326.13	8.20	-53.9	-56.0	6.2	0.00e+00	0	46	104	32807845888	78	19380
2026-01-26 21:08:38.75	326.27	8.13	-51.7	-52.9	6.5	0.00e+00	0	46	104	32807845888	75	16108
2026-01-26 21:08:39.76	326.42	8.06	-50.2	-51.0	6.8	0.00e+00	0	46	104	32807845888	70	17320
2026-01-26 21:08:40.77	326.57	8.00	-49.1	-49.8	7.1	0.00e+00	0	46	104	32807845888	70	15093
2026-01-26 21:08:41.77	326.72	7.93	-48.8	-49.5	7.2	0.00e+00	0	46	104	32807845888	69	15373
2026-01-26 21:08:42.78	326.86	7.86	-48.3	-48.9	7.3	0.00e+00	0	46	104	32807845888	68	15290
2026-01-26 21:08:43.79	327.01	7.79	-48.7	-49.4	7.2	0.00e+00	0	46	104	32807845888	68	16110
2026-01-26 21:08:44.79	327.15	7.72	-47.9	-48.4	7.4	0.00e+00	0	46	104	32807845888	67	15261
2026-01-26 21:08:45.80	327.30	7.65	-53.7	-55.8	6.2	0.00e+00	0	46	104	32807845888	77	20062
2026-01-26 21:08:46.81	327.44	7.58	-50.4	-51.3	6.7	0.00e+00	0	46	104	32807845888	72	15936
2026-01-26 21:08:47.82	327.58	7.52	-49.9	-50.7	6.9	0.00e+00	0	46	104	32807845888	70	16641
2026-01-26 21:08:48.83	327.72	7.45	-47.9	-48.4	7.5	0.00e+00	0	46	104	32807845888	67	15228
2026-01-26 21:08:49.83	327.86	7.38	-47.5	-48.1	7.5	0.00e+00	0	46	104	32807845888	66	15554
2026-01-26 21:08:50.83	328.00	7.31	-47.6	-48.1	7.5	0.00e+00	0	46	104	32807845888	66	15520
2026-01-26 21:08:51.84	328.14	7.24	-46.9	-47.4	7.7	0.00e+00	0	46	104	32807845888	65	15125
2026-01-26 21:08:52.84	328.28	7.18	-46.9	-47.4	7.7	0.00e+00	0	46	104	32807845888	65	15157
2026-01-26 21:08:53.85	328.41	7.11	-53.8	-55.9	6.2	0.00e+00	0	46	104	32807845888	78	19197
2026-01-26 21:08:54.86	328.55	7.04	-48.9	-49.6	7.2	0.00e+00	0	46	104	32807845888	69	15526
2026-01-26 21:08:55.87	328.69	6.97	-49.0	-49.8	7.1	0.00e+00	0	46	104	32807845888	68	16829
2026-01-26 21:08:56.87	328.82	6.91	-46.8	-47.3	7.7	0.00e+00	0	46	104	32807845888	65	15000
2026-01-26 21:08:57.88	328.96	6.84	-46.4	-46.9	7.8	0.00e+00	0	46	104	32807845888	64	15178
2026-01-26 21:08:58.88	329.09	6.77	-46.4	-46.8	7.8	0.00e+00	0	46	104	32807845888	64	15106
2026-01-26 21:08:59.89	329.22	6.71	-45.8	-46.2	8.0	0.00e+00	0	46	104	32807845888	62	15740
2026-01-26 21:09:00.90	329.36	6.64	-45.6	-46.0	8.0	0.00e+00	0	46	0	32807845888	62	15406
2026-01-26 21:09:01.90	329.49	6.57	-53.6	-55.7	6.2	0.00e+00	0	46	104	32807845888	77	19855
2026-01-26 21:09:02.91	329.62	6.51	-47.7	-48.2	7.5	0.00e+00	0	46	104	32807845888	67	14927
2026-01-26 21:09:03.91	329.75	6.44	-48.5	-49.1	7.3	0.00e+00	0	46	104	32807845888	67	16485
2026-01-26 21:09:04.92	329.88	6.37	-45.8	-46.1	7.9	0.00e+00	0	46	104	32807845888	63	14775
2026-01-26 21:09:05.93	330.01	6.31	-45.3	-45.6	8.1	0.00e+00	0	46	0	32807845888	62	14732
2026-01-26 21:09:06.94	330.13	6.24	-45.5	-45.9	8.0	0.00e+00	0	46	0	32807845888	62	15199
2026-01-26 21:09:07.94	330.26	6.17	-45.1	-45.5	8.1	0.00e+00	0	46	0	32807845888	61	15376
2026-01-26 21:09:08.94	330.39	6.11	-44.9	-45.2	8.1	0.00e+00	0	46	0	32807845888	60	15781
2026-01-26 21:09:09.95	330.51	6.04	-53.5	-55.6	6.2	0.00e+00	0	46	104	32807845888	77	19682
2026-01-26 21:09:10.96	330.64	5.98	-46.3	-46.7	7.7	0.00e+00	0	46	104	32807845888	64	14917
2026-01-26 21:09:11.97	330.76	5.91	-48.5	-49.2	7.2	0.00e+00	0	46	104	32807845888	67	16634
2026-01-26 21:09:12.97	330.89	5.85	-44.5	-44.9	8.2	0.00e+00	0	46	0	32807845888	60	15161
2026-01-26 21:09:13.98	331.01	5.78	-44.1	-44.4	8.3	0.00e+00	0	46	0	32807845888	59	15233
2026-01-26 21:09:14.99	331.14	5.71	-44.4	-44.7	8.3	0.00e+00	0	46	0	32807845888	59	15754
2026-01-26 21:09:15.99	331.26	5.65	-46.5	-47.0	7.6	0.00e+00	0	46	104	32807845888	64	15410
2026-01-26 21:09:17.00	331.38	5.58	-44.3	-44.7	8.2	0.00e+00	0	46	0	32807845888	59	15668
2026-01-26 21:09:18.00	331.50	5.52	-53.4	-55.4	6.2	0.00e+00	0	46	104	32807845888	77	19237
2026-01-26 21:09:19.00	331.62	5.46	-45.4	-45.7	8.0	0.00e+00	0	46	104	32807845888	62	14905
2026-01-26 21:09:20.01	331.74	5.39	-48.0	-48.7	7.3	0.00e+00	0	46	104	32807845888	66	16594
2026-01-26 21:09:21.01	331.86	5.33	-43.7	-43.9	8.4	0.00e+00	0	46	0	32807845888	59	14430
2026-01-26 21:09:22.02	331.98	5.26	-43.6	-43.9	8.4	0.00e+00	0	46	0	32807845888	59	14278
2026-01-26 21:09:23.03	332.09	5.20	-43.2	-43.5	8.5	0.00e+00	0	46	0	32807845888	58	14549
2026-01-26 21:09:24.04	332.21	5.13	-44.2	-44.5	8.3	0.00e+00	0	46	0	32807845888	59	15387
2026-01-26 21:09:25.04	332.33	5.07	-43.6	-44.0	8.4	0.00e+00	0	46	0	32807845888	58	15306
2026-01-26 21:09:26.04	332.44	5.00	-53.2	-55.3	6.2	0.00e+00	0	46	104	32807845888	76	20025
2026-01-26 21:09:27.05	332.56	4.94	-53.7	-55.9	6.2	0.00e+00	0	46	104	32807845888	77	20218
2026-01-26 21:09:28.06	332.67	4.88	-54.3	-56.4	6.2	0.00e+00	0	46	104	32807845888	79	19217
2026-01-26 21:09:29.07	332.79	4.81	-54.6	-56.7	6.2	0.00e+00	0	46	104	32807845888	79	19753
2026-01-26 21:09:30.08	332.90	4.75	-54.7	-56.9	6.2	0.00e+00	0	46	104	32807845888	79	20190
2026-01-26 21:09:31.09	333.02	4.68	-54.8	-56.9	6.2	0.00e+00	0	46	104	32807845888	80	19121
2026-01-26 21:09:32.10	333.13	4.62	-54.9	-56.9	6.2	0.00e+00	0	46	104	32807845888	80	19245
2026-01-26 21:09:33.11	333.24	4.56	-54.9	-57.0	6.2	0.00e+00	0	46	104	32807845888	80	19343
2026-01-26 21:09:34.12	333.35	4.49	-54.9	-57.0	6.2	0.00e+00	0	46	104	32807845888	80	19362
2026-01-26 21:09:35.13	333.47	4.43	-54.9	-57.0	6.2	0.00e+00	0	46	104	32807845888	80	19305
2026-01-26 21:09:36.13	333.58	4.37	-54.8	-56.9	6.2	0.00e+00	0	46	104	32807845888	80	19176
2026-01-26 21:09:37.14	333.69	4.31	-54.8	-56.8	6.2	0.00e+00	0	46	104	32807845888	80	19002
2026-01-26 21:09:38.15	333.80	4.24	-54.6	-56.7	6.2	0.00e+00	0	46	104	32807845888	80	18805
2026-01-26 21:09:39.16	333.90	4.18	-54.7	-56.8	6.2	0.00e+00	0	46	104	32807845888	80	18866
2026-01-26 21:09:40.17	334.01	4.12	-54.7	-56.7	6.2	0.00e+00	0	46	104	32807845888	80	18818
2026-01-26 21:09:41.18	334.12	4.05	-54.7	-56.8	6.2	0.00e+00	0	46	104	32807845888	80	18909
2026-01-26 21:09:42.19	334.23	3.99	-54.7	-56.8	6.2	0.00e+00	0	46	104	32807845888	80	18916
2026-01-26 21:09:43.19	334.33	3.93	-54.7	-56.8	6.2	0.00e+00	0	46	104	32807845888	80	18905
2026-01-26 21:09:44.20	334.44	3.87	-54.7	-56.8	6.2	0.00e+00	0	46	104	32807845888	80	18906
2026-01-26 21:09:45.21	334.55	3.81	-54.7	-56.8	6.2	0.00e+00	0	46	104	32807845888	80	18970
2026-01-26 21:09:46.22	334.65	3.74	-54.7	-56.8	6.2	0.00e+00	0	46	104	32807845888	80	18959
2026-01-26 21:09:47.23	334.76	3.68	-54.7	-56.8	6.2	0.00e+00	0	46	104	32807845888	80	18895
2026-01-26 21:09:48.23	334.86	3.62	-54.7	-56.8	6.2	0.00e+00	0	46	104	32807845888	80	18934
2026-01-26 21:09:49.25	334.97	3.56	-54.7	-56.8	6.2	0.00e+00	0	46	104	32807845888	80	18823
2026-01-26 21:09:50.25	335.07	3.50	-54.6	-56.7	6.2	0.00e+00	0	46	104	32807845888	80	18774
2026-01-26 21:09:51.26	335.17	3.44	-54.6	-56.7	6.2	0.00e+00	0	46	104	32807845888	80	18720
2026-01-26 21:09:52.27	335.27	3.37	-54.6	-56.7	6.2	0.00e+00	0	46	104	32807845888	80	18702
2026-01-26 21:09:53.28	335.38	3.31	-54.6	-56.7	6.2	0.00e+00	0	46	104	32807845888	80	18651
2026-01-26 21:09:54.29	335.48	3.25	-54.6	-56.7	6.2	0.00e+00	0	46	104	32807845888	80	18669
2026-01-26 21:09:55.29	335.58	3.19	-54.6	-56.6	6.2	0.00e+00	0	46	104	32807845888	80	18599
2026-01-26 21:09:56.30	335.68	3.13	-54.6	-56.7	6.2	0.00e+00	0	46	104	32807845888	80	18609
2026-01-26 21:09:57.31	335.78	3.07	-54.5	-56.6	6.2	0.00e+00	0	46	104	32807845888	80	18560
2026-01-26 21:09:58.32	335.88	3.01	-54.5	-56.6	6.2	0.00e+00	0	46	104	32807845888	80	18535
2026-01-26 21:09:59.33	335.98	2.95	-54.5	-56.6	6.2	0.00e+00	0	46	104	32807845888	80	18532
2026-01-26 21:10:00.34	336.07	2.89	-54.5	-56.6	6.2	0.00e+00	0	46	104	32807845888	80	18548
2026-01-26 21:10:01.35	336.17	2.83	-54.5	-56.6	6.2	0.00e+00	0	46	104	32807845888	80	18514
2026-01-26 21:10:02.36	336.27	2.77	-54.5	-56.6	6.2	0.00e+00	0	46	104	32807845888	80	18481
2026-01-26 21:10:03.37	336.37	2.71	-54.5	-56.6	6.2	0.00e+00	0	46	104	32807845888	80	18474
2026-01-26 21:10:04.37	336.46	2.65	-54.5	-56.6	6.2	0.00e+00	0	46	104	32807845888	80	18488
2026-01-26 21:10:05.38	336.56	2.59	-54.5	-56.6	6.2	0.00e+00	0	46	104	32807845888	80	18478
2026-01-26 21:10:06.39	336.65	2.53	-54.5	-56.6	6.2	0.00e+00	0	46	104	32807845888	80	18441
2026-01-26 21:10:07.40	336.75	2.47	-54.5	-56.6	6.2	0.00e+00	0	46	104	32807845888	80	18468
2026-01-26 21:10:08.41	336.85	2.41	-54.5	-56.5	6.2	0.00e+00	0	46	104	32807845888	80	18376
2026-01-26 21:10:09.42	336.94	2.35	-54.4	-56.5	6.2	0.00e+00	0	46	104	32807845888	80	18365
2026-01-26 21:10:10.43	337.03	2.29	-54.4	-56.5	6.2	0.00e+00	0	46	104	32807845888	80	18339
2026-01-26 21:10:11.44	337.13	2.23	-54.4	-56.5	6.2	0.00e+00	0	46	104	32807845888	80	18334
2026-01-26 21:10:12.45	337.22	2.17	-54.4	-56.5	6.2	0.00e+00	0	46	104	32807845888	80	18323
2026-01-26 21:10:13.45	337.31	2.11	-54.4	-56.5	6.2	0.00e+00	0	46	104	32807845888	80	18292
2026-01-26 21:10:14.46	337.40	2.05	-54.4	-56.5	6.2	0.00e+00	0	46	104	32807845888	80	18315
2026-01-26 21:10:15.47	337.50	1.99	-54.4	-56.5	6.2	0.00e+00	0	46	104	32807845888	80	18326
2026-01-26 21:10:16.47	337.59	1.93	-54.4	-56.5	6.2	0.00e+00	0	46	104	32807845888	80	18331

#Closed at: 2026-01-26 21:10:17
#Recorded file [32807 MB]: D:/lorett/data/31041_260127_000021.dat