passes_logs/2026/01/26/R3.2S_Murmansk/R3.2S_Murmansk__20260126_051124_KANOPUS-V_5_rec.log

#Pass ID: 20260126_051124_KANOPUS-V 5
#Satellite: KANOPUS-V 5
#Configuration: KANOPUS-V_8320
#almurnet v.1.7.20251203
#Start time: 2026-01-26 05:11:23

#Version: 2.2.20231116
#Station: R3.2S_Murmansk
#Location: 33.079688 lon 68.888172 lat
#TLE: 1 43876U 18111A   26025.54826615  .00005329  00000+0  22598-3 0  9999
#TLE: 2 43876  97.3674 293.8720 0001834  89.1965 270.9482 15.23539467393070

#Time	Az	El	Level	Level2	SNR	BER	BlckErr	Temp	State	Recorded	gain1	gain2
2026-01-26 05:11:23.84	91.51	1.98	-54.7	-63.6	3.8	7.46e-01	0	42	0	0	80	10304
2026-01-26 05:11:24.84	91.41	2.04	-54.7	-63.5	3.8	7.45e-01	0	41	104	0	80	10281
2026-01-26 05:11:25.85	91.32	2.10	-54.7	-63.5	3.8	7.44e-01	0	42	104	0	80	10263
2026-01-26 05:11:26.85	91.22	2.16	-54.7	-63.5	3.8	7.45e-01	0	42	104	0	80	10269
2026-01-26 05:11:27.86	91.12	2.22	-54.7	-63.5	3.8	7.46e-01	0	42	104	0	80	10240
2026-01-26 05:11:28.87	91.03	2.28	-54.7	-63.5	3.8	7.45e-01	0	42	104	0	80	10270
2026-01-26 05:11:29.88	90.93	2.34	-54.7	-63.5	3.8	7.46e-01	0	42	104	0	80	10256
2026-01-26 05:11:30.89	90.83	2.40	-54.7	-63.5	3.8	7.45e-01	0	42	104	0	80	10221
2026-01-26 05:11:31.89	90.73	2.46	-54.8	-63.6	3.8	7.44e-01	0	42	104	0	80	10367
2026-01-26 05:11:32.90	90.63	2.53	-54.9	-63.7	3.8	7.44e-01	0	42	104	0	80	10473
2026-01-26 05:11:33.91	90.53	2.59	-54.9	-63.7	3.8	7.45e-01	0	42	104	0	80	10499
2026-01-26 05:11:34.92	90.43	2.65	-54.9	-63.7	3.8	7.45e-01	0	42	104	0	80	10481
2026-01-26 05:11:35.92	90.33	2.71	-54.9	-63.7	3.8	7.44e-01	0	42	104	0	80	10463
2026-01-26 05:11:36.93	90.23	2.77	-54.9	-63.7	3.8	7.45e-01	0	42	104	0	80	10476
2026-01-26 05:11:37.94	90.13	2.84	-54.8	-63.6	3.8	7.45e-01	0	42	104	0	80	10390
2026-01-26 05:11:38.95	90.02	2.90	-54.8	-63.6	3.8	7.46e-01	0	42	104	0	80	10375
2026-01-26 05:11:39.96	89.92	2.96	-54.8	-63.6	3.8	7.46e-01	0	42	104	0	80	10327
2026-01-26 05:11:40.96	89.81	3.02	-54.7	-63.6	3.8	7.47e-01	0	42	104	0	80	10303
2026-01-26 05:11:41.97	89.71	3.09	-54.6	-63.5	3.8	7.44e-01	0	42	104	0	80	10177
2026-01-26 05:11:42.98	89.60	3.15	-54.6	-63.4	3.8	7.45e-01	0	42	104	0	80	10158
2026-01-26 05:11:43.99	89.50	3.21	-54.5	-63.4	3.8	7.46e-01	0	42	104	0	80	10082
2026-01-26 05:11:45.00	89.39	3.28	-54.5	-63.3	3.8	7.46e-01	0	42	104	0	80	10039
2026-01-26 05:11:46.01	89.28	3.34	-54.4	-63.2	3.8	7.44e-01	0	42	104	0	80	9901
2026-01-26 05:11:47.01	89.18	3.40	-54.3	-63.1	3.8	7.46e-01	0	42	104	0	80	9774
2026-01-26 05:11:48.02	89.07	3.47	-54.2	-62.9	3.8	7.46e-01	0	42	104	0	80	9590
2026-01-26 05:11:49.03	88.96	3.53	-54.0	-62.8	3.8	7.45e-01	0	42	104	0	80	9484
2026-01-26 05:11:50.04	88.85	3.59	-53.9	-62.7	3.8	7.46e-01	0	42	104	0	79	9869
2026-01-26 05:11:51.04	88.74	3.66	-53.6	-62.4	3.8	7.45e-01	0	42	104	0	79	9555
2026-01-26 05:11:52.05	88.63	3.72	-53.3	-62.1	3.8	7.46e-01	0	42	104	0	78	9799
2026-01-26 05:11:53.06	88.52	3.79	-53.1	-61.9	3.8	7.46e-01	0	42	104	0	78	9604
2026-01-26 05:11:54.07	88.41	3.85	-53.1	-61.9	3.8	7.45e-01	0	42	104	0	78	9506
2026-01-26 05:11:55.07	88.29	3.91	-52.9	-61.8	3.8	7.45e-01	0	42	104	0	77	9950
2026-01-26 05:11:56.08	88.18	3.98	-52.9	-61.8	3.8	7.45e-01	0	43	104	0	77	9946
2026-01-26 05:11:57.09	88.07	4.04	-52.9	-61.8	3.8	7.46e-01	0	42	104	0	77	9957
2026-01-26 05:11:58.10	87.95	4.11	-52.9	-61.7	3.8	7.45e-01	0	43	104	0	77	9887
2026-01-26 05:11:59.10	87.84	4.17	-52.9	-61.7	3.8	7.45e-01	0	43	104	0	77	9908
2026-01-26 05:12:00.11	87.72	4.24	-52.9	-61.7	3.8	7.45e-01	0	43	104	0	77	9902
2026-01-26 05:12:01.12	87.60	4.30	-52.8	-61.5	3.8	7.46e-01	0	43	104	0	77	9656
2026-01-26 05:12:02.13	87.49	4.37	-52.7	-61.0	3.8	7.46e-01	0	43	104	0	77	9096
2026-01-26 05:12:03.14	87.37	4.43	-52.6	-60.5	3.8	7.43e-01	0	43	104	0	77	8600
2026-01-26 05:12:04.15	87.25	4.50	-52.4	-59.7	3.9	7.43e-01	0	43	104	0	76	8350
2026-01-26 05:12:05.16	87.13	4.56	-52.4	-59.8	3.8	7.44e-01	0	43	104	0	76	8368
2026-01-26 05:12:06.17	87.01	4.63	-52.6	-60.2	3.8	7.42e-01	0	43	104	0	76	8858
2026-01-26 05:12:07.18	86.89	4.70	-52.5	-60.3	3.8	7.46e-01	0	43	104	0	76	8958
2026-01-26 05:12:08.19	86.77	4.76	-51.9	-58.4	3.9	7.42e-01	0	43	104	0	75	7593
2026-01-26 05:12:09.19	86.64	4.83	-51.0	-56.0	5.1	7.07e-01	0	43	0	6291456	74	6112
2026-01-26 05:12:10.20	86.52	4.89	-49.9	-53.8	6.7	6.69e-01	0	43	0	23068672	71	5615
2026-01-26 05:12:11.21	86.40	4.96	-48.9	-52.2	8.1	6.42e-01	0	43	0	37748736	69	5257
2026-01-26 05:12:12.22	86.27	5.03	-48.9	-52.3	8.0	6.44e-01	0	43	0	52428800	69	5314
2026-01-26 05:12:13.23	86.15	5.09	-45.9	-48.3	12.2	6.10e-01	0	43	0	69206016	63	4742
2026-01-26 05:12:14.24	86.02	5.16	-45.3	-47.6	12.9	6.08e-01	0	43	0	85983232	62	4627
2026-01-26 05:12:15.25	85.89	5.23	-52.6	-60.7	3.8	7.45e-01	0	43	104	92274688	75	9871
2026-01-26 05:12:16.26	85.77	5.29	-47.5	-50.2	10.4	6.18e-01	0	43	0	96468992	67	4678
2026-01-26 05:12:17.27	85.64	5.36	-45.5	-47.9	12.5	6.09e-01	0	43	0	111149056	61	5087
2026-01-26 05:12:18.28	85.51	5.43	-45.0	-47.4	13.1	6.09e-01	0	43	0	127926272	61	4768
2026-01-26 05:12:19.28	85.38	5.49	-44.9	-47.3	13.1	6.09e-01	0	43	0	142606336	61	4736
2026-01-26 05:12:20.29	85.25	5.56	-44.6	-46.9	13.5	6.08e-01	0	43	0	157286400	61	4540
2026-01-26 05:12:21.30	85.12	5.63	-45.1	-47.5	13.0	6.07e-01	0	43	0	174063616	61	4850
2026-01-26 05:12:22.31	84.98	5.70	-44.6	-47.0	13.5	6.07e-01	0	43	0	188743680	61	4550
2026-01-26 05:12:23.32	84.85	5.77	-44.6	-46.9	13.6	6.06e-01	0	43	0	203423744	61	4497
2026-01-26 05:12:24.33	84.72	5.83	-44.7	-47.0	13.5	6.08e-01	0	43	0	220200960	61	4566
2026-01-26 05:12:25.34	84.58	5.90	-44.6	-46.8	13.7	6.07e-01	0	43	0	234881024	61	4486
2026-01-26 05:12:26.34	84.45	5.97	-44.2	-46.4	14.0	6.06e-01	0	43	0	251658240	60	4537
2026-01-26 05:12:27.35	84.31	6.04	-44.4	-46.6	13.9	6.06e-01	0	43	0	266338304	60	4628
2026-01-26 05:12:28.36	84.17	6.10	-44.3	-46.5	14.0	6.06e-01	0	43	0	283115520	60	4591
2026-01-26 05:12:29.37	84.04	6.17	-44.3	-46.5	14.0	6.07e-01	0	43	0	297795584	60	4559
2026-01-26 05:12:30.37	83.90	6.24	-44.5	-46.7	13.9	6.08e-01	0	43	0	312475648	60	4659
2026-01-26 05:12:31.38	83.76	6.31	-44.4	-46.5	14.0	6.05e-01	0	43	0	329252864	60	4578
2026-01-26 05:12:32.39	83.62	6.38	-44.3	-46.4	14.1	6.07e-01	0	43	0	343932928	60	4536
2026-01-26 05:12:33.40	83.48	6.45	-44.2	-46.3	14.2	6.07e-01	0	43	0	358612992	60	4467
2026-01-26 05:12:34.41	83.33	6.52	-44.2	-46.3	14.2	6.06e-01	0	43	0	375390208	59	4733
2026-01-26 05:12:35.41	83.19	6.58	-44.3	-46.3	14.2	6.04e-01	0	43	0	390070272	59	4746
2026-01-26 05:12:36.42	83.05	6.65	-44.2	-46.2	14.3	6.06e-01	0	43	0	404750336	59	4698
2026-01-26 05:12:37.43	82.90	6.72	-44.1	-46.2	14.3	6.07e-01	0	43	0	421527552	59	4683
2026-01-26 05:12:38.44	82.76	6.79	-43.9	-45.9	14.6	6.04e-01	0	43	0	436207616	59	4526
2026-01-26 05:12:39.45	82.61	6.86	-44.2	-46.2	14.3	6.04e-01	0	43	0	452984832	59	4701
2026-01-26 05:12:40.46	82.46	6.93	-44.0	-46.0	14.5	6.05e-01	0	43	0	467664896	59	4593
2026-01-26 05:12:41.46	82.31	7.00	-43.8	-45.8	14.7	6.05e-01	0	43	0	484442112	59	4489
2026-01-26 05:12:42.47	82.17	7.07	-43.7	-45.7	14.8	6.06e-01	0	43	0	499122176	59	4396
2026-01-26 05:12:43.48	82.01	7.14	-43.5	-45.5	14.9	6.06e-01	0	43	0	513802240	59	4311
2026-01-26 05:12:44.49	81.86	7.21	-43.4	-45.4	15.1	6.06e-01	0	43	0	530579456	58	4496
2026-01-26 05:12:45.49	81.71	7.28	-43.6	-45.6	14.8	6.04e-01	0	44	0	545259520	58	4623
2026-01-26 05:12:46.50	81.56	7.35	-44.0	-46.1	14.5	6.03e-01	0	43	0	559939584	58	4876
2026-01-26 05:12:47.51	81.41	7.42	-43.9	-46.0	14.5	6.01e-01	0	43	0	576716800	58	4855
2026-01-26 05:12:48.51	81.25	7.49	-43.9	-46.0	14.5	6.03e-01	0	43	0	591396864	58	4840
2026-01-26 05:12:49.52	81.10	7.56	-43.9	-46.1	14.5	6.02e-01	0	43	0	606076928	58	4882
2026-01-26 05:12:50.53	80.94	7.63	-43.7	-45.8	14.8	6.03e-01	0	43	0	620756992	58	4716
2026-01-26 05:12:51.54	80.78	7.70	-43.7	-45.8	14.7	6.05e-01	0	44	0	637534208	58	4746
2026-01-26 05:12:52.55	80.62	7.77	-43.4	-45.5	15.0	5.99e-01	0	43	0	654311424	58	4569
2026-01-26 05:12:53.55	80.46	7.84	-43.6	-45.7	14.8	6.05e-01	0	44	0	668991488	58	4682
2026-01-26 05:12:54.56	80.30	7.91	-43.4	-45.5	15.0	6.05e-01	0	44	0	685768704	58	4567
2026-01-26 05:12:55.57	80.14	7.98	-43.2	-45.3	15.2	6.03e-01	0	43	0	700448768	58	4458
2026-01-26 05:12:56.57	79.98	8.06	-43.5	-45.6	14.9	6.04e-01	0	43	0	715128832	58	4627
2026-01-26 05:12:57.58	79.81	8.13	-43.7	-45.8	14.8	6.04e-01	0	43	0	729808896	58	4709
2026-01-26 05:12:58.59	79.65	8.20	-43.2	-45.3	15.3	6.01e-01	0	43	0	746586112	58	4447
2026-01-26 05:12:59.60	79.48	8.27	-43.3	-45.3	15.2	6.02e-01	0	43	0	761266176	58	4478
2026-01-26 05:13:00.61	79.32	8.34	-43.4	-45.4	15.1	6.03e-01	0	43	0	775946240	58	4543
2026-01-26 05:13:01.61	79.15	8.41	-43.3	-45.3	15.2	6.02e-01	0	43	0	792723456	58	4467
2026-01-26 05:13:02.62	78.98	8.48	-43.3	-45.3	15.3	6.04e-01	0	43	0	807403520	58	4450
2026-01-26 05:13:03.63	78.81	8.55	-43.4	-45.4	15.2	6.04e-01	0	43	0	822083584	58	4534
2026-01-26 05:13:04.64	78.64	8.63	-43.2	-45.3	15.3	6.01e-01	0	43	0	838860800	58	4446
2026-01-26 05:13:05.64	78.47	8.70	-43.3	-45.3	15.2	6.00e-01	0	43	0	855638016	58	4482
2026-01-26 05:13:06.65	78.30	8.77	-43.1	-45.1	15.4	6.02e-01	0	44	0	870318080	58	4378
2026-01-26 05:13:07.66	78.12	8.84	-43.0	-45.0	15.5	6.03e-01	0	43	0	884998144	58	4308
2026-01-26 05:13:08.67	77.95	8.91	-43.2	-45.2	15.4	6.03e-01	0	44	0	901775360	58	4395
2026-01-26 05:13:09.68	77.77	8.99	-43.2	-45.1	15.4	6.06e-01	0	43	0	916455424	58	4390
2026-01-26 05:13:10.69	77.59	9.06	-43.2	-45.2	15.4	6.05e-01	0	44	0	931135488	58	4395
2026-01-26 05:13:11.70	77.41	9.13	-42.9	-44.9	15.6	6.05e-01	0	44	0	947912704	57	4518
2026-01-26 05:13:12.71	77.23	9.20	-42.7	-44.6	15.8	6.04e-01	0	44	0	962592768	57	4384
2026-01-26 05:13:13.72	77.05	9.27	-42.8	-44.7	15.8	6.05e-01	0	43	0	977272832	57	4398
2026-01-26 05:13:14.73	76.87	9.35	-42.7	-44.6	15.9	6.03e-01	0	44	0	994050048	57	4361
2026-01-26 05:13:15.74	76.68	9.42	-42.6	-44.5	15.9	6.02e-01	0	44	0	1008730112	57	4308
2026-01-26 05:13:16.75	76.50	9.49	-42.6	-44.4	16.0	5.99e-01	0	44	0	1025507328	57	4269
2026-01-26 05:13:17.76	76.31	9.56	-42.6	-44.4	16.0	6.03e-01	0	44	0	1040187392	57	4289
2026-01-26 05:13:18.77	76.13	9.64	-42.6	-44.5	16.0	6.04e-01	0	44	0	1056964608	57	4301
2026-01-26 05:13:19.78	75.94	9.71	-42.6	-44.5	15.9	6.04e-01	0	44	0	1071644672	57	4317
2026-01-26 05:13:20.79	75.75	9.78	-42.5	-44.5	16.0	6.04e-01	0	44	0	1086324736	57	4294
2026-01-26 05:13:21.80	75.56	9.85	-42.6	-44.5	15.9	6.03e-01	0	44	0	1103101952	56	4575
2026-01-26 05:13:22.81	75.37	9.93	-42.5	-44.4	16.0	6.06e-01	0	44	0	1117782016	56	4532
2026-01-26 05:13:23.82	75.18	10.00	-42.5	-44.4	16.0	6.03e-01	0	44	0	1132462080	56	4532
2026-01-26 05:13:24.82	74.98	10.07	-42.5	-44.5	16.0	6.05e-01	0	44	0	1149239296	56	4556
2026-01-26 05:13:25.83	74.79	10.14	-42.5	-44.4	16.0	6.05e-01	0	44	0	1163919360	56	4532
2026-01-26 05:13:26.84	74.59	10.22	-42.4	-44.3	16.2	6.02e-01	0	44	0	1178599424	56	4490
2026-01-26 05:13:27.85	74.39	10.29	-42.5	-44.5	16.0	6.06e-01	0	44	0	1195376640	56	4549
2026-01-26 05:13:28.85	74.20	10.36	-42.6	-44.6	16.0	6.04e-01	0	44	0	1212153856	56	4600
2026-01-26 05:13:29.85	74.00	10.43	-42.5	-44.4	16.0	6.05e-01	0	44	0	1226833920	56	4543
2026-01-26 05:13:30.86	73.80	10.51	-42.6	-44.5	16.1	6.03e-01	0	44	0	1241513984	56	4549
2026-01-26 05:13:31.87	73.60	10.58	-42.3	-44.2	16.2	5.99e-01	0	44	0	1258291200	56	4436
2026-01-26 05:13:32.87	73.39	10.65	-42.4	-44.4	16.1	6.02e-01	0	44	0	1272971264	56	4503
2026-01-26 05:13:33.88	73.19	10.72	-42.5	-44.4	16.1	6.02e-01	0	44	0	1287651328	56	4515
2026-01-26 05:13:34.89	72.98	10.80	-42.4	-44.3	16.2	5.97e-01	0	44	0	1304428544	56	4463
2026-01-26 05:13:35.90	72.77	10.87	-42.3	-44.2	16.3	6.00e-01	0	44	0	1319108608	56	4436
2026-01-26 05:13:36.91	72.57	10.94	-42.3	-44.2	16.3	6.04e-01	0	44	0	1333788672	56	4436
2026-01-26 05:13:37.91	72.36	11.01	-42.3	-44.3	16.2	6.02e-01	0	44	0	1350565888	56	4451
2026-01-26 05:13:38.92	72.15	11.08	-42.1	-44.0	16.4	5.98e-01	0	44	0	1365245952	56	4335
2026-01-26 05:13:39.93	71.93	11.16	-42.1	-44.1	16.5	5.99e-01	0	44	0	1379926016	55	4625
2026-01-26 05:13:40.94	71.72	11.23	-42.1	-44.1	16.6	6.06e-01	0	44	0	1396703232	55	4601
2026-01-26 05:13:41.95	71.50	11.30	-41.9	-43.9	16.7	6.02e-01	0	44	0	1413480448	55	4530
2026-01-26 05:13:42.96	71.29	11.37	-42.0	-44.0	16.6	6.01e-01	0	44	0	1428160512	55	4575
2026-01-26 05:13:43.97	71.07	11.45	-42.1	-44.1	16.5	6.03e-01	0	44	0	1442840576	55	4635
2026-01-26 05:13:44.98	70.85	11.52	-42.1	-44.1	16.5	6.02e-01	0	44	0	1459617792	55	4650
2026-01-26 05:13:45.99	70.63	11.59	-42.1	-44.2	16.5	6.01e-01	0	44	0	1474297856	55	4654
2026-01-26 05:13:47.00	70.41	11.66	-42.0	-44.1	16.5	6.01e-01	0	44	0	1488977920	55	4618
2026-01-26 05:13:48.01	70.18	11.74	-42.1	-44.1	16.5	5.97e-01	0	44	0	1505755136	55	4644
2026-01-26 05:13:49.02	69.96	11.81	-42.1	-44.2	16.4	6.03e-01	0	44	0	1520435200	55	4674
2026-01-26 05:13:50.03	69.73	11.88	-41.9	-44.0	16.6	6.01e-01	0	44	0	1535115264	55	4570
2026-01-26 05:13:51.03	69.51	11.95	-41.9	-43.9	16.7	6.01e-01	0	44	0	1551892480	55	4539
2026-01-26 05:13:52.04	69.28	12.02	-41.9	-43.9	16.7	6.01e-01	0	44	0	1566572544	55	4535
2026-01-26 05:13:53.05	69.05	12.09	-42.1	-44.1	16.5	6.01e-01	0	44	0	1583349760	55	4637
2026-01-26 05:13:54.06	68.82	12.16	-42.1	-44.2	16.5	6.01e-01	0	44	0	1598029824	55	4675
2026-01-26 05:13:55.07	68.59	12.24	-42.3	-44.4	16.3	6.01e-01	0	44	0	1614807040	55	4799
2026-01-26 05:13:56.08	68.35	12.31	-42.1	-44.2	16.4	6.04e-01	0	44	0	1629487104	55	4680
2026-01-26 05:13:57.09	68.12	12.38	-42.0	-44.1	16.6	6.04e-01	0	44	0	1644167168	55	4610
2026-01-26 05:13:58.09	67.88	12.45	-42.2	-44.3	16.5	5.80e-01	0	44	0	1660944384	55	4711
2026-01-26 05:13:59.10	67.64	12.52	-42.1	-44.2	16.6	5.81e-01	0	44	0	1675624448	55	4664
2026-01-26 05:14:00.11	67.40	12.59	-41.9	-43.9	16.8	5.80e-01	0	44	0	1690304512	55	4529
2026-01-26 05:14:01.11	67.16	12.66	-41.8	-43.8	16.9	5.81e-01	0	44	0	1707081728	55	4463
2026-01-26 05:14:02.12	66.92	12.73	-41.8	-43.8	16.9	5.81e-01	0	44	0	1721761792	55	4458
2026-01-26 05:14:03.13	66.68	12.80	-41.6	-43.6	17.1	5.81e-01	0	44	0	1736441856	55	4352
2026-01-26 05:14:04.13	66.43	12.87	-41.6	-43.5	17.1	5.80e-01	0	44	0	1753219072	55	4340
2026-01-26 05:14:05.14	66.19	12.94	-41.5	-43.5	17.1	5.80e-01	0	44	0	1769996288	54	4566
2026-01-26 05:14:06.15	65.94	13.01	-41.6	-43.6	17.0	5.80e-01	0	44	0	1784676352	54	4649
2026-01-26 05:14:07.16	65.69	13.08	-41.5	-43.5	17.1	5.81e-01	0	44	0	1799356416	54	4587
2026-01-26 05:14:08.17	65.44	13.15	-41.4	-43.4	17.2	5.80e-01	0	44	0	1816133632	54	4502
2026-01-26 05:14:09.18	65.19	13.22	-41.3	-43.3	17.2	5.80e-01	0	44	0	1830813696	54	4493
2026-01-26 05:14:10.19	64.93	13.29	-41.4	-43.4	17.2	5.80e-01	0	44	0	1845493760	54	4535
2026-01-26 05:14:11.19	64.68	13.35	-41.4	-43.4	17.3	5.81e-01	0	44	0	1862270976	54	4495
2026-01-26 05:14:12.20	64.42	13.42	-41.3	-43.2	17.3	5.80e-01	0	44	0	1876951040	54	4438
2026-01-26 05:14:13.21	64.16	13.49	-41.2	-43.2	17.4	5.80e-01	0	44	0	1891631104	54	4402
2026-01-26 05:14:14.22	63.91	13.56	-41.3	-43.3	17.3	5.80e-01	0	44	0	1908408320	54	4449
2026-01-26 05:14:15.23	63.64	13.62	-41.2	-43.2	17.3	5.81e-01	0	44	0	1923088384	54	4404
2026-01-26 05:14:16.23	63.38	13.69	-41.2	-43.2	17.4	5.80e-01	0	44	0	1937768448	54	4406
2026-01-26 05:14:17.24	63.12	13.76	-41.2	-43.2	17.3	5.80e-01	0	44	0	1954545664	54	4433
2026-01-26 05:14:18.25	62.85	13.83	-41.1	-43.2	17.3	5.81e-01	0	44	0	1971322880	54	4427
2026-01-26 05:14:19.25	62.59	13.89	-41.2	-43.3	17.2	5.80e-01	0	44	0	1986002944	54	4478
2026-01-26 05:14:20.26	62.32	13.96	-41.2	-43.3	17.2	5.80e-01	0	44	0	2000683008	54	4477
2026-01-26 05:14:21.27	62.05	14.02	-41.3	-43.4	17.2	5.80e-01	0	44	0	2017460224	54	4521
2026-01-26 05:14:22.28	61.78	14.09	-41.4	-43.5	17.1	5.81e-01	0	44	0	2032140288	54	4587
2026-01-26 05:14:23.29	61.51	14.15	-41.4	-43.6	17.1	5.80e-01	0	44	0	2046820352	54	4628
2026-01-26 05:14:24.29	61.24	14.22	-41.5	-43.8	16.9	5.80e-01	0	44	0	2063597568	54	4706
2026-01-26 05:14:25.30	60.96	14.28	-41.4	-43.7	17.0	5.80e-01	0	44	0	2078277632	54	4659
2026-01-26 05:14:26.31	60.68	14.35	-41.6	-43.8	16.9	5.81e-01	0	44	0	2092957696	54	4756
2026-01-26 05:14:27.31	60.41	14.41	-41.6	-43.7	17.0	5.80e-01	0	44	0	2107637760	54	4705
2026-01-26 05:14:28.32	60.13	14.47	-41.4	-43.5	17.1	5.80e-01	0	44	0	2124414976	54	4597
2026-01-26 05:14:29.32	59.85	14.54	-41.3	-43.4	17.3	5.80e-01	0	44	0	2139095040	54	4512
2026-01-26 05:14:30.33	59.57	14.60	-41.3	-43.3	17.2	5.80e-01	0	44	0	2153775104	54	4493
2026-01-26 05:14:31.33	59.29	14.66	-41.2	-43.2	17.3	5.81e-01	0	44	0	2170552320	54	4432
2026-01-26 05:14:32.34	59.00	14.72	-41.1	-43.2	17.4	5.80e-01	0	44	0	2185232384	54	4409
2026-01-26 05:14:33.35	58.71	14.78	-41.1	-43.1	17.5	5.81e-01	0	44	0	2202009600	54	4358
2026-01-26 05:14:34.36	58.43	14.85	-41.1	-43.1	17.5	5.80e-01	0	44	0	2216689664	54	4365
2026-01-26 05:14:35.36	58.14	14.91	-41.2	-43.2	17.4	5.81e-01	0	44	0	2233466880	54	4428
2026-01-26 05:14:36.37	57.85	14.97	-41.0	-43.1	17.6	5.81e-01	0	44	0	2248146944	54	4357
2026-01-26 05:14:37.38	57.56	15.03	-41.0	-43.1	17.5	5.81e-01	0	44	0	2262827008	54	4353
2026-01-26 05:14:38.39	57.26	15.08	-40.9	-42.9	17.6	5.81e-01	0	44	0	2279604224	53	4528
2026-01-26 05:14:39.40	56.97	15.14	-41.0	-43.0	17.5	5.80e-01	0	44	0	2294284288	53	4587
2026-01-26 05:14:40.41	56.67	15.20	-41.1	-43.2	17.4	5.80e-01	0	44	0	2308964352	53	4654
2026-01-26 05:14:41.42	56.37	15.26	-41.1	-43.2	17.4	5.80e-01	0	44	0	2325741568	53	4671
2026-01-26 05:14:42.43	56.07	15.32	-41.1	-43.2	17.4	5.80e-01	0	44	0	2340421632	53	4680
2026-01-26 05:14:43.44	55.77	15.37	-41.2	-43.4	17.3	5.80e-01	0	44	0	2355101696	53	4765
2026-01-26 05:14:44.45	55.47	15.43	-41.1	-43.2	17.3	5.80e-01	0	44	0	2371878912	53	4698
2026-01-26 05:14:45.46	55.17	15.49	-41.1	-43.2	17.4	5.80e-01	0	44	0	2388656128	53	4686
2026-01-26 05:14:46.47	54.86	15.54	-41.0	-43.2	17.5	5.80e-01	0	44	0	2403336192	53	4659
2026-01-26 05:14:47.48	54.55	15.60	-41.0	-43.2	17.4	5.80e-01	0	44	0	2418016256	53	4657
2026-01-26 05:14:48.48	54.25	15.65	-41.0	-43.1	17.4	5.81e-01	0	44	0	2434793472	53	4610
2026-01-26 05:14:49.49	53.94	15.70	-40.8	-43.0	17.5	5.81e-01	0	44	0	2449473536	53	4551
2026-01-26 05:14:50.50	53.63	15.76	-40.9	-43.1	17.4	5.80e-01	0	44	0	2464153600	53	4643
2026-01-26 05:14:51.50	53.32	15.81	-41.0	-43.2	17.4	5.80e-01	0	44	0	2480930816	53	4693
2026-01-26 05:14:52.51	53.01	15.86	-40.8	-43.0	17.5	5.80e-01	0	44	0	2495610880	53	4577
2026-01-26 05:14:53.51	52.70	15.91	-40.9	-43.2	17.4	5.81e-01	0	44	0	2510290944	53	4666
2026-01-26 05:14:54.52	52.38	15.96	-41.0	-43.3	17.3	5.80e-01	0	44	0	2527068160	53	4739
2026-01-26 05:14:55.53	52.07	16.01	-40.9	-43.2	17.4	5.80e-01	0	44	0	2541748224	53	4653
2026-01-26 05:14:56.54	51.75	16.06	-41.0	-43.2	17.4	5.81e-01	0	44	0	2556428288	53	4702
2026-01-26 05:14:57.55	51.43	16.11	-40.9	-43.1	17.4	5.81e-01	0	44	0	2573205504	53	4645
2026-01-26 05:14:58.56	51.11	16.16	-40.9	-43.2	17.4	5.81e-01	0	44	0	2589982720	53	4660
2026-01-26 05:14:59.57	50.79	16.20	-41.1	-43.3	17.3	5.80e-01	0	44	0	2604662784	53	4744
2026-01-26 05:15:00.57	50.47	16.25	-40.9	-43.2	17.4	5.80e-01	0	44	0	2619342848	53	4662
2026-01-26 05:15:01.58	50.15	16.30	-41.0	-43.3	17.3	5.81e-01	0	44	0	2636120064	53	4720
2026-01-26 05:15:02.59	49.82	16.34	-41.0	-43.3	17.4	5.80e-01	0	44	0	2650800128	53	4709
2026-01-26 05:15:03.60	49.49	16.39	-41.1	-43.3	17.3	6.04e-01	0	44	0	2665480192	53	4734
2026-01-26 05:15:04.61	49.17	16.43	-41.2	-43.4	17.2	6.04e-01	0	44	0	2682257408	53	4780
2026-01-26 05:15:05.61	48.84	16.47	-41.1	-43.2	17.3	6.03e-01	0	44	0	2696937472	53	4702
2026-01-26 05:15:06.62	48.51	16.51	-41.1	-43.3	17.3	6.03e-01	0	44	0	2711617536	53	4716
2026-01-26 05:15:07.63	48.18	16.56	-41.0	-43.2	17.4	6.04e-01	0	44	0	2728394752	53	4658
2026-01-26 05:15:08.64	47.85	16.60	-41.1	-43.3	17.3	6.03e-01	0	44	0	2743074816	53	4708
2026-01-26 05:15:09.65	47.52	16.64	-41.0	-43.2	17.3	6.04e-01	0	44	0	2759852032	53	4675
2026-01-26 05:15:10.66	47.18	16.68	-40.9	-43.2	17.4	6.03e-01	0	44	0	2774532096	53	4659
2026-01-26 05:15:11.67	46.85	16.72	-41.0	-43.2	17.3	6.03e-01	0	44	0	2791309312	53	4688
2026-01-26 05:15:12.68	46.51	16.75	-41.0	-43.2	17.4	6.03e-01	0	44	0	2805989376	53	4661
2026-01-26 05:15:13.69	46.18	16.79	-40.8	-42.9	17.5	6.04e-01	0	44	0	2820669440	53	4529
2026-01-26 05:15:14.69	45.84	16.83	-40.8	-42.9	17.6	6.02e-01	0	44	0	2837446656	53	4530
2026-01-26 05:15:15.71	45.50	16.86	-40.8	-42.9	17.6	6.02e-01	0	44	0	2852126720	53	4545
2026-01-26 05:15:16.71	45.17	16.90	-40.9	-43.1	17.5	6.02e-01	0	44	0	2866806784	53	4600
2026-01-26 05:15:17.72	44.82	16.93	-40.9	-43.1	17.5	6.05e-01	0	44	0	2883584000	53	4625
2026-01-26 05:15:18.72	44.49	16.96	-40.8	-43.0	17.5	6.02e-01	0	44	0	2898264064	53	4551
2026-01-26 05:15:19.73	44.14	16.99	-40.9	-43.1	17.4	6.04e-01	0	44	0	2912944128	53	4619
2026-01-26 05:15:20.74	43.80	17.02	-40.8	-43.0	17.5	6.00e-01	0	44	0	2929721344	53	4589
2026-01-26 05:15:21.75	43.46	17.05	-40.8	-43.0	17.5	6.00e-01	0	44	0	2946498560	53	4597
2026-01-26 05:15:22.76	43.11	17.08	-40.9	-43.1	17.4	6.02e-01	0	44	0	2961178624	53	4640
2026-01-26 05:15:23.77	42.77	17.11	-40.9	-43.2	17.4	6.03e-01	0	44	0	2975858688	53	4656
2026-01-26 05:15:24.77	42.43	17.14	-41.0	-43.2	17.4	6.02e-01	0	44	0	2992635904	53	4669
2026-01-26 05:15:25.78	42.08	17.17	-41.0	-43.3	17.3	6.05e-01	0	44	0	3007315968	53	4710
2026-01-26 05:15:26.79	41.73	17.19	-40.9	-43.2	17.4	6.04e-01	0	44	0	3021996032	53	4666
2026-01-26 05:15:27.81	41.38	17.22	-40.9	-43.2	17.4	6.04e-01	0	44	0	3038773248	53	4660
2026-01-26 05:15:28.81	41.03	17.24	-41.0	-43.3	17.3	6.04e-01	0	44	0	3053453312	53	4722
2026-01-26 05:15:29.83	40.68	17.26	-41.0	-43.4	17.3	6.03e-01	0	44	0	3068133376	53	4774
2026-01-26 05:15:30.83	40.34	17.29	-40.9	-43.2	17.3	6.02e-01	0	44	0	3084910592	53	4700
2026-01-26 05:15:31.84	39.98	17.31	-40.8	-43.0	17.5	6.00e-01	0	44	0	3101687808	53	4573
2026-01-26 05:15:32.85	39.63	17.33	-40.8	-43.0	17.4	6.04e-01	0	44	0	3116367872	53	4582
2026-01-26 05:15:33.86	39.28	17.35	-40.9	-43.1	17.4	6.02e-01	0	44	0	3131047936	53	4631
2026-01-26 05:15:34.87	38.93	17.36	-40.9	-43.2	17.4	6.04e-01	0	44	0	3147825152	53	4654
2026-01-26 05:15:35.87	38.58	17.38	-40.9	-43.1	17.5	6.04e-01	0	44	0	3162505216	53	4639
2026-01-26 05:15:36.88	38.23	17.40	-40.8	-43.1	17.5	6.04e-01	0	44	0	3177185280	53	4609
2026-01-26 05:15:37.89	37.87	17.41	-40.9	-43.1	17.4	6.03e-01	0	44	0	3193962496	53	4645
2026-01-26 05:15:38.90	37.52	17.43	-40.8	-43.1	17.5	6.01e-01	0	44	0	3208642560	53	4609
2026-01-26 05:15:39.91	37.16	17.44	-40.9	-43.2	17.4	6.04e-01	0	44	0	3223322624	53	4694
2026-01-26 05:15:40.91	36.81	17.45	-40.9	-43.2	17.3	6.02e-01	0	44	0	3240099840	53	4698
2026-01-26 05:15:41.92	36.46	17.46	-40.8	-43.1	17.3	6.03e-01	0	44	0	3254779904	53	4642
2026-01-26 05:15:42.93	36.10	17.48	-40.8	-43.1	17.4	6.02e-01	0	44	0	3269459968	53	4633
2026-01-26 05:15:43.94	35.75	17.48	-40.8	-43.1	17.5	6.03e-01	0	44	0	3286237184	53	4602
2026-01-26 05:15:44.94	35.40	17.49	-40.9	-43.1	17.4	6.04e-01	0	44	0	3303014400	53	4642
2026-01-26 05:15:45.95	35.04	17.50	-40.9	-43.2	17.4	6.01e-01	0	44	0	3317694464	53	4696
2026-01-26 05:15:46.96	34.68	17.51	-40.9	-43.2	17.4	6.02e-01	0	44	0	3332374528	53	4681
2026-01-26 05:15:47.97	34.33	17.51	-40.9	-43.3	17.3	6.05e-01	0	44	0	3349151744	53	4724
2026-01-26 05:15:48.97	33.97	17.52	-40.9	-43.2	17.3	6.01e-01	0	44	0	3363831808	53	4691
2026-01-26 05:15:49.98	33.62	17.52	-40.9	-43.2	17.3	5.99e-01	0	44	0	3378511872	53	4698
2026-01-26 05:15:50.99	33.26	17.52	-40.9	-43.3	17.3	6.01e-01	0	44	0	3395289088	53	4731
2026-01-26 05:15:52.00	32.90	17.52	-40.9	-43.2	17.3	6.03e-01	0	44	0	3409969152	53	4700
2026-01-26 05:15:53.01	32.55	17.53	-40.9	-43.2	17.4	6.02e-01	0	44	0	3424649216	53	4668
2026-01-26 05:15:54.01	32.19	17.53	-41.0	-43.3	17.2	6.01e-01	0	44	0	3439329280	53	4723
2026-01-26 05:15:55.02	31.84	17.52	-41.1	-43.4	17.2	6.02e-01	0	44	0	3456106496	53	4802
2026-01-26 05:15:56.03	31.48	17.52	-41.0	-43.3	17.3	6.03e-01	0	44	0	3470786560	53	4756
2026-01-26 05:15:57.04	31.12	17.52	-41.0	-43.3	17.3	6.02e-01	0	44	0	3485466624	53	4722
2026-01-26 05:15:58.05	30.77	17.51	-41.0	-43.4	17.2	6.01e-01	0	44	0	3504340992	53	4774
2026-01-26 05:15:59.05	30.41	17.51	-41.1	-43.5	17.2	5.99e-01	0	44	0	3519021056	53	4830
2026-01-26 05:16:00.06	30.06	17.50	-41.1	-43.5	17.2	5.98e-01	0	44	0	3533701120	53	4859
2026-01-26 05:16:01.07	29.70	17.49	-41.0	-43.4	17.2	5.97e-01	0	44	0	3548381184	53	4805
2026-01-26 05:16:02.07	29.35	17.49	-41.1	-43.5	17.3	5.98e-01	0	44	0	3565158400	53	4819
2026-01-26 05:16:03.08	28.99	17.48	-41.2	-43.6	17.1	6.05e-01	0	44	0	3579838464	53	4904
2026-01-26 05:16:04.09	28.64	17.47	-41.1	-43.5	17.2	5.99e-01	0	44	0	3594518528	53	4839
2026-01-26 05:16:05.10	28.28	17.45	-41.1	-43.4	17.2	5.99e-01	0	44	0	3611295744	53	4806
2026-01-26 05:16:06.11	27.93	17.44	-41.2	-43.5	17.2	6.01e-01	0	44	0	3625975808	53	4861
2026-01-26 05:16:07.12	27.58	17.43	-41.1	-43.5	17.2	6.00e-01	0	44	0	3640655872	53	4834
2026-01-26 05:16:08.13	27.22	17.42	-41.0	-43.4	17.1	6.02e-01	0	44	0	3657433088	53	4807
2026-01-26 05:16:09.14	26.87	17.40	-41.2	-43.6	17.0	6.02e-01	0	44	0	3672113152	53	4892
2026-01-26 05:16:10.15	26.51	17.38	-41.2	-43.7	17.0	6.02e-01	0	44	0	3688890368	53	4963
2026-01-26 05:16:11.15	26.17	17.37	-41.2	-43.7	17.0	6.01e-01	0	44	0	3703570432	53	4946
2026-01-26 05:16:12.16	25.81	17.35	-41.3	-43.8	17.0	6.00e-01	0	44	0	3720347648	53	5001
2026-01-26 05:16:13.17	25.46	17.33	-41.1	-43.6	17.1	6.00e-01	0	44	0	3735027712	53	4877
2026-01-26 05:16:14.18	25.11	17.31	-41.3	-43.7	17.0	6.02e-01	0	44	0	3749707776	53	4965
2026-01-26 05:16:15.19	24.76	17.29	-41.2	-43.7	17.1	6.00e-01	0	44	0	3766484992	53	4930
2026-01-26 05:16:16.20	24.41	17.27	-41.2	-43.6	17.1	6.02e-01	0	44	0	3781165056	53	4878
2026-01-26 05:16:17.21	24.06	17.24	-41.1	-43.5	17.2	6.03e-01	0	44	0	3795845120	53	4816
2026-01-26 05:16:18.22	23.71	17.22	-41.2	-43.6	17.1	6.04e-01	0	44	0	3812622336	53	4897
2026-01-26 05:16:19.23	23.37	17.20	-41.1	-43.6	17.1	6.04e-01	0	44	0	3827302400	53	4897
2026-01-26 05:16:20.23	23.02	17.17	-41.2	-43.7	17.0	6.05e-01	0	44	0	3841982464	53	4965
2026-01-26 05:16:21.24	22.67	17.14	-41.3	-43.8	17.0	5.80e-01	0	44	0	3858759680	53	5012
2026-01-26 05:16:22.24	22.33	17.12	-41.2	-43.7	17.0	5.80e-01	0	44	0	3875536896	53	4966
2026-01-26 05:16:23.25	21.99	17.09	-41.2	-43.7	17.1	5.80e-01	0	44	0	3890216960	53	4946
2026-01-26 05:16:24.26	21.64	17.06	-41.2	-43.6	17.2	5.80e-01	0	44	0	3904897024	53	4884
2026-01-26 05:16:25.27	21.30	17.03	-41.1	-43.5	17.2	5.80e-01	0	44	0	3921674240	53	4824
2026-01-26 05:16:26.27	20.96	17.00	-41.2	-43.6	17.2	5.82e-01	0	44	0	3936354304	53	4883
2026-01-26 05:16:27.28	20.62	16.97	-41.1	-43.6	17.2	5.81e-01	0	44	0	3951034368	53	4874
2026-01-26 05:16:28.29	20.28	16.93	-41.2	-43.7	17.1	5.80e-01	0	44	0	3967811584	53	4933
2026-01-26 05:16:29.30	19.94	16.90	-41.2	-43.8	17.0	5.80e-01	0	44	0	3982491648	53	4992
2026-01-26 05:16:30.31	19.60	16.87	-41.3	-43.9	16.9	5.82e-01	0	44	0	3997171712	53	5061
2026-01-26 05:16:31.32	19.26	16.83	-41.3	-43.8	16.9	5.81e-01	0	44	0	4013948928	53	5029
2026-01-26 05:16:32.33	18.92	16.80	-43.0	-43.8	16.9	5.81e-01	0	44	0	4028628992	56	4211
2026-01-26 05:16:33.34	18.59	16.76	-54.0	-62.9	3.8	7.43e-01	0	44	104	4039114752	78	10673
2026-01-26 05:16:34.35	18.25	16.72	-54.0	-62.8	3.8	7.44e-01	0	44	104	4039114752	78	10632
2026-01-26 05:16:35.36	17.92	16.68	-54.0	-62.8	3.8	7.47e-01	0	44	104	4039114752	78	10589
2026-01-26 05:16:36.37	17.58	16.64	-54.0	-62.8	3.8	7.44e-01	0	44	104	4039114752	78	10608
2026-01-26 05:16:37.38	17.25	16.60	-54.0	-62.8	3.8	7.44e-01	0	44	104	4039114752	78	10577
2026-01-26 05:16:38.39	16.92	16.56	-53.9	-62.8	3.8	7.45e-01	0	44	104	4039114752	78	10555
2026-01-26 05:16:39.39	16.59	16.52	-53.9	-62.8	3.8	7.44e-01	0	44	104	4039114752	78	10541
2026-01-26 05:16:40.41	16.26	16.48	-54.0	-62.8	3.8	7.45e-01	0	44	104	4039114752	78	10544
2026-01-26 05:16:41.41	15.94	16.44	-54.0	-62.8	3.8	7.44e-01	0	44	104	4039114752	78	10561
2026-01-26 05:16:42.42	15.61	16.39	-53.9	-62.8	3.8	7.45e-01	0	44	104	4039114752	78	10540
2026-01-26 05:16:43.43	15.28	16.35	-53.9	-62.8	3.8	7.44e-01	0	44	104	4039114752	78	10551
2026-01-26 05:16:44.44	14.96	16.30	-53.9	-62.8	3.8	7.46e-01	0	44	104	4039114752	78	10537
2026-01-26 05:16:45.45	14.64	16.26	-53.9	-62.7	3.8	7.46e-01	0	44	104	4039114752	78	10524
2026-01-26 05:16:46.46	14.31	16.21	-53.9	-62.7	3.8	7.44e-01	0	44	104	4039114752	78	10474
2026-01-26 05:16:47.47	13.99	16.17	-53.9	-62.7	3.8	7.45e-01	0	44	104	4039114752	78	10485
2026-01-26 05:16:48.48	13.67	16.12	-53.9	-62.7	3.8	7.46e-01	0	44	104	4039114752	78	10523
2026-01-26 05:16:49.48	13.36	16.07	-53.9	-62.7	3.8	7.45e-01	0	44	104	4039114752	78	10516
2026-01-26 05:16:50.49	13.04	16.02	-53.9	-62.7	3.8	7.46e-01	0	44	104	4039114752	78	10488
2026-01-26 05:16:51.50	12.72	15.97	-53.9	-62.7	3.8	7.43e-01	0	44	104	4039114752	78	10487
2026-01-26 05:16:52.51	12.41	15.92	-53.9	-62.7	3.8	7.46e-01	0	44	104	4039114752	78	10473
2026-01-26 05:16:53.52	12.10	15.87	-53.9	-62.7	3.8	7.45e-01	0	44	104	4039114752	78	10465
2026-01-26 05:16:54.53	11.78	15.82	-53.9	-62.7	3.8	7.45e-01	0	44	104	4039114752	78	10468
2026-01-26 05:16:55.54	11.47	15.77	-53.9	-62.7	3.8	7.46e-01	0	44	104	4039114752	78	10463
2026-01-26 05:16:56.55	11.16	15.71	-53.9	-62.7	3.8	7.46e-01	0	44	104	4039114752	78	10503
2026-01-26 05:16:57.55	10.86	15.66	-53.9	-62.7	3.8	7.45e-01	0	44	104	4039114752	78	10471
2026-01-26 05:16:58.56	10.55	15.61	-53.9	-62.7	3.8	7.44e-01	0	44	104	4039114752	78	10450
2026-01-26 05:16:59.57	10.24	15.55	-53.9	-62.7	3.8	7.46e-01	0	44	104	4039114752	78	10425
2026-01-26 05:17:00.58	9.94	15.50	-53.9	-62.7	3.8	7.45e-01	0	44	104	4039114752	78	10438
2026-01-26 05:17:01.59	9.64	15.44	-53.8	-62.7	3.8	7.44e-01	0	44	104	4039114752	78	10419
2026-01-26 05:17:02.60	9.33	15.38	-53.8	-62.7	3.8	7.45e-01	0	44	104	4039114752	78	10448
2026-01-26 05:17:03.61	9.03	15.33	-53.8	-62.7	3.8	7.46e-01	0	44	104	4039114752	78	10434
2026-01-26 05:17:04.61	8.74	15.27	-53.9	-62.7	3.8	7.45e-01	0	44	104	4039114752	78	10459
2026-01-26 05:17:05.62	8.44	15.21	-53.8	-62.7	3.8	7.44e-01	0	44	104	4039114752	78	10422
2026-01-26 05:17:06.63	8.14	15.16	-53.8	-62.6	3.8	7.45e-01	0	44	104	4039114752	78	10381
2026-01-26 05:17:07.64	7.85	15.10	-53.8	-62.6	3.8	7.45e-01	0	44	104	4039114752	78	10404
2026-01-26 05:17:08.65	7.56	15.04	-53.8	-62.7	3.8	7.45e-01	0	44	104	4039114752	78	10438
2026-01-26 05:17:09.66	7.26	14.98	-53.8	-62.6	3.8	7.45e-01	0	44	104	4039114752	78	10363
2026-01-26 05:17:10.66	6.98	14.92	-53.8	-62.6	3.8	7.44e-01	0	44	104	4039114752	78	10388
2026-01-26 05:17:11.67	6.69	14.86	-53.8	-62.6	3.8	7.46e-01	0	44	104	4039114752	78	10383
2026-01-26 05:17:12.68	6.40	14.80	-53.8	-62.7	3.8	7.46e-01	0	44	104	4039114752	78	10415
2026-01-26 05:17:13.68	6.12	14.74	-53.8	-62.6	3.8	7.47e-01	0	44	104	4039114752	78	10386
2026-01-26 05:17:14.69	5.83	14.68	-53.8	-62.6	3.8	7.44e-01	0	44	104	4039114752	78	10400
2026-01-26 05:17:15.70	5.55	14.61	-53.8	-62.6	3.8	7.45e-01	0	44	104	4039114752	78	10383
2026-01-26 05:17:16.71	5.27	14.55	-53.8	-62.7	3.8	7.45e-01	0	44	104	4039114752	78	10446
2026-01-26 05:17:17.72	4.98	14.49	-53.8	-62.6	3.8	7.44e-01	0	44	104	4039114752	78	10394
2026-01-26 05:17:18.73	4.71	14.42	-53.8	-62.6	3.8	7.45e-01	0	44	104	4039114752	78	10389
2026-01-26 05:17:19.74	4.43	14.36	-53.8	-62.6	3.8	7.45e-01	0	44	104	4039114752	78	10389
2026-01-26 05:17:20.75	4.15	14.30	-53.8	-62.6	3.8	7.45e-01	0	44	104	4039114752	78	10368
2026-01-26 05:17:21.76	3.88	14.23	-53.8	-62.6	3.8	7.46e-01	0	44	104	4039114752	78	10362
2026-01-26 05:17:22.77	3.60	14.17	-53.8	-62.6	3.8	7.45e-01	0	44	104	4039114752	78	10326
2026-01-26 05:17:23.78	3.33	14.10	-53.8	-62.6	3.8	7.45e-01	0	44	104	4039114752	78	10324
2026-01-26 05:17:24.78	3.06	14.04	-53.8	-62.6	3.8	7.45e-01	0	44	104	4039114752	78	10385
2026-01-26 05:17:25.79	2.79	13.97	-53.7	-62.5	3.8	7.45e-01	0	44	104	4039114752	78	10272
2026-01-26 05:17:26.80	2.53	13.91	-53.7	-62.5	3.8	7.45e-01	0	44	104	4039114752	78	10286
2026-01-26 05:17:27.81	2.26	13.84	-53.8	-62.6	3.8	7.44e-01	0	44	104	4039114752	78	10303
2026-01-26 05:17:28.81	2.00	13.77	-53.8	-62.6	3.8	7.45e-01	0	44	104	4039114752	78	10296
2026-01-26 05:17:29.82	1.73	13.71	-53.7	-62.6	3.8	7.46e-01	0	44	104	4039114752	78	10301
2026-01-26 05:17:30.83	1.47	13.64	-53.7	-62.5	3.8	7.46e-01	0	44	104	4039114752	78	10285
2026-01-26 05:17:31.84	1.21	13.57	-53.7	-62.5	3.8	7.44e-01	0	44	104	4039114752	78	10289
2026-01-26 05:17:32.84	0.95	13.51	-53.8	-62.5	3.8	7.44e-01	0	44	104	4039114752	78	10275
2026-01-26 05:17:33.85	0.70	13.44	-53.7	-62.6	3.8	7.46e-01	0	44	104	4039114752	78	10316
2026-01-26 05:17:34.86	0.44	13.37	-53.7	-62.5	3.8	7.44e-01	0	44	104	4039114752	78	10276
2026-01-26 05:17:35.87	0.19	13.30	-53.7	-62.5	3.8	7.46e-01	0	44	104	4039114752	78	10266
2026-01-26 05:17:36.88	359.93	13.23	-53.8	-62.6	3.8	7.46e-01	0	44	104	4039114752	78	10300
2026-01-26 05:17:37.89	359.68	13.16	-53.7	-62.5	3.8	7.44e-01	0	44	104	4039114752	78	10256
2026-01-26 05:17:38.89	359.43	13.10	-53.7	-62.5	3.8	7.44e-01	0	44	104	4039114752	78	10243
2026-01-26 05:17:39.90	359.18	13.03	-53.7	-62.5	3.8	7.47e-01	0	44	104	4039114752	78	10280
2026-01-26 05:17:40.91	358.94	12.96	-53.7	-62.6	3.8	7.44e-01	0	44	104	4039114752	78	10304
2026-01-26 05:17:41.92	358.69	12.89	-53.7	-62.5	3.8	7.44e-01	0	44	104	4039114752	78	10212
2026-01-26 05:17:42.93	358.45	12.82	-53.7	-62.5	3.8	7.45e-01	0	44	104	4039114752	78	10219
2026-01-26 05:17:43.93	358.20	12.75	-53.7	-62.5	3.8	7.45e-01	0	44	104	4039114752	78	10276
2026-01-26 05:17:44.94	357.96	12.68	-53.7	-62.6	3.8	7.45e-01	0	44	104	4039114752	78	10303
2026-01-26 05:17:45.95	357.72	12.61	-53.6	-62.5	3.8	7.46e-01	0	44	104	4039114752	78	10197
2026-01-26 05:17:46.95	357.48	12.54	-53.7	-62.5	3.8	7.45e-01	0	44	104	4039114752	78	10210
2026-01-26 05:17:47.96	357.25	12.47	-53.7	-62.5	3.8	7.46e-01	0	44	104	4039114752	78	10214
2026-01-26 05:17:48.97	357.01	12.40	-53.7	-62.5	3.8	7.46e-01	0	44	104	4039114752	78	10228
2026-01-26 05:17:49.98	356.78	12.33	-53.6	-62.4	3.8	7.44e-01	0	44	104	4039114752	78	10153
2026-01-26 05:17:50.99	356.54	12.26	-53.6	-62.5	3.8	7.45e-01	0	44	104	4039114752	78	10205
2026-01-26 05:17:51.99	356.31	12.19	-53.6	-62.5	3.8	7.45e-01	0	44	104	4039114752	78	10207
2026-01-26 05:17:53.00	356.08	12.11	-53.7	-62.5	3.8	7.47e-01	0	44	104	4039114752	78	10234
2026-01-26 05:17:54.01	355.85	12.04	-53.6	-62.4	3.8	7.45e-01	0	44	104	4039114752	78	10153
2026-01-26 05:17:55.02	355.62	11.97	-53.6	-62.5	3.8	7.45e-01	0	44	104	4039114752	78	10181
2026-01-26 05:17:56.03	355.40	11.90	-53.6	-62.5	3.8	7.46e-01	0	44	104	4039114752	78	10186
2026-01-26 05:17:57.04	355.17	11.83	-53.6	-62.5	3.8	7.45e-01	0	44	104	4039114752	78	10191
2026-01-26 05:17:58.05	354.95	11.76	-53.6	-62.4	3.8	7.44e-01	0	44	104	4039114752	78	10128
2026-01-26 05:17:59.05	354.73	11.69	-53.6	-62.4	3.8	7.46e-01	0	44	104	4039114752	78	10122
2026-01-26 05:18:00.06	354.51	11.61	-53.6	-62.4	3.8	7.45e-01	0	44	104	4039114752	78	10129
2026-01-26 05:18:01.07	354.29	11.54	-53.7	-62.5	3.8	7.46e-01	0	44	104	4039114752	78	10197
2026-01-26 05:18:02.07	354.07	11.47	-53.6	-62.4	3.8	7.45e-01	0	44	104	4039114752	78	10139
2026-01-26 05:18:03.09	353.85	11.40	-53.6	-62.4	3.8	7.45e-01	0	44	104	4039114752	78	10154
2026-01-26 05:18:04.09	353.64	11.33	-53.6	-62.4	3.8	7.46e-01	0	44	104	4039114752	78	10145
2026-01-26 05:18:05.10	353.42	11.25	-53.6	-62.4	3.8	7.46e-01	0	44	104	4039114752	78	10130
2026-01-26 05:18:06.11	353.21	11.18	-53.5	-62.4	3.8	7.46e-01	0	44	104	4039114752	78	10108
2026-01-26 05:18:07.12	352.99	11.11	-53.6	-62.4	3.8	7.45e-01	0	44	104	4039114752	78	10062
2026-01-26 05:18:08.12	352.79	11.04	-53.6	-62.4	3.8	7.47e-01	0	44	104	4039114752	78	10131
2026-01-26 05:18:09.13	352.58	10.97	-53.6	-62.4	3.8	7.45e-01	0	44	104	4039114752	78	10150
2026-01-26 05:18:10.14	352.37	10.89	-53.5	-62.3	3.8	7.46e-01	0	44	104	4039114752	78	10020
2026-01-26 05:18:11.15	352.16	10.82	-53.5	-62.4	3.8	7.46e-01	0	44	104	4039114752	78	10110
2026-01-26 05:18:12.16	351.96	10.75	-53.5	-62.4	3.8	7.44e-01	0	44	104	4039114752	78	10088
2026-01-26 05:18:13.17	351.75	10.68	-53.6	-62.4	3.8	7.46e-01	0	44	104	4039114752	78	10145
2026-01-26 05:18:14.18	351.55	10.60	-53.5	-62.3	3.8	7.46e-01	0	44	104	4039114752	78	10054
2026-01-26 05:18:15.19	351.35	10.53	-53.5	-62.3	3.8	7.46e-01	0	44	104	4039114752	78	10026
2026-01-26 05:18:16.19	351.15	10.46	-53.5	-62.3	3.8	7.45e-01	0	44	104	4039114752	78	10051
2026-01-26 05:18:17.20	350.95	10.39	-53.5	-62.4	3.8	7.46e-01	0	44	104	4039114752	78	10069
2026-01-26 05:18:18.21	350.75	10.31	-53.5	-62.3	3.8	7.46e-01	0	44	104	4039114752	78	10017
2026-01-26 05:18:19.22	350.55	10.24	-53.5	-62.3	3.8	7.47e-01	0	44	104	4039114752	78	10000
2026-01-26 05:18:20.23	350.36	10.17	-53.5	-62.3	3.8	7.45e-01	0	44	104	4039114752	78	10054
2026-01-26 05:18:21.23	350.16	10.10	-53.5	-62.3	3.8	7.44e-01	0	44	104	4039114752	78	10046
2026-01-26 05:18:22.24	349.97	10.03	-53.4	-62.3	3.8	7.45e-01	0	44	104	4039114752	78	9963
2026-01-26 05:18:23.25	349.78	9.95	-53.5	-62.3	3.8	7.44e-01	0	44	104	4039114752	78	9990
2026-01-26 05:18:24.26	349.59	9.88	-53.5	-62.3	3.8	7.46e-01	0	44	104	4039114752	78	9969
2026-01-26 05:18:25.27	349.40	9.81	-53.5	-62.3	3.8	7.47e-01	0	44	104	4039114752	78	10002
2026-01-26 05:18:26.27	349.21	9.74	-53.4	-62.2	3.8	7.46e-01	0	44	104	4039114752	78	9941
2026-01-26 05:18:27.28	349.02	9.66	-53.4	-62.3	3.8	7.44e-01	0	44	104	4039114752	78	9951
2026-01-26 05:18:28.29	348.84	9.59	-53.5	-62.3	3.8	7.46e-01	0	44	104	4039114752	78	9989
2026-01-26 05:18:29.30	348.65	9.52	-53.5	-62.3	3.8	7.46e-01	0	44	104	4039114752	78	10000
2026-01-26 05:18:30.31	348.47	9.45	-53.4	-62.2	3.8	7.46e-01	0	44	104	4039114752	78	9897
2026-01-26 05:18:31.32	348.28	9.38	-53.4	-62.2	3.8	7.46e-01	0	44	104	4039114752	78	9918
2026-01-26 05:18:32.33	348.10	9.30	-53.4	-62.2	3.8	7.44e-01	0	44	104	4039114752	78	9941
2026-01-26 05:18:33.33	347.92	9.23	-53.4	-62.3	3.8	7.45e-01	0	44	104	4039114752	78	9968
2026-01-26 05:18:34.34	347.74	9.16	-53.4	-62.2	3.8	7.45e-01	0	44	104	4039114752	78	9867
2026-01-26 05:18:35.35	347.57	9.09	-53.4	-62.2	3.8	7.45e-01	0	44	104	4039114752	78	9924
2026-01-26 05:18:36.36	347.39	9.02	-53.4	-62.3	3.8	7.46e-01	0	44	104	4039114752	78	9950
2026-01-26 05:18:37.37	347.21	8.94	-53.4	-62.2	3.8	7.45e-01	0	44	104	4039114752	78	9920
2026-01-26 05:18:38.37	347.04	8.87	-53.3	-62.2	3.8	7.45e-01	0	44	104	4039114752	78	9851
2026-01-26 05:18:39.38	346.87	8.80	-53.4	-62.2	3.8	7.45e-01	0	44	104	4039114752	78	9875
2026-01-26 05:18:40.39	346.69	8.73	-53.4	-62.2	3.8	7.46e-01	0	44	104	4039114752	78	9891
2026-01-26 05:18:41.40	346.52	8.66	-53.4	-62.2	3.8	7.47e-01	0	44	104	4039114752	78	9900
2026-01-26 05:18:42.41	346.35	8.59	-53.3	-62.1	3.8	7.44e-01	0	44	104	4039114752	78	9814
2026-01-26 05:18:43.42	346.18	8.52	-53.3	-62.2	3.8	7.44e-01	0	44	104	4039114752	78	9839
2026-01-26 05:18:44.43	346.01	8.44	-53.4	-62.2	3.8	7.45e-01	0	44	104	4039114752	78	9863
2026-01-26 05:18:45.43	345.85	8.37	-53.3	-62.2	3.8	7.46e-01	0	44	104	4039114752	78	9848
2026-01-26 05:18:46.44	345.68	8.30	-53.3	-62.1	3.8	7.46e-01	0	44	104	4039114752	78	9804
2026-01-26 05:18:47.45	345.51	8.23	-53.3	-62.1	3.8	7.47e-01	0	44	104	4039114752	78	9813
2026-01-26 05:18:48.45	345.35	8.16	-53.3	-62.1	3.8	7.45e-01	0	44	104	4039114752	78	9814
2026-01-26 05:18:49.46	345.19	8.09	-53.3	-62.1	3.8	7.44e-01	0	44	104	4039114752	78	9784
2026-01-26 05:18:50.47	345.02	8.02	-53.3	-62.0	3.8	7.43e-01	0	44	104	4039114752	78	9715
2026-01-26 05:18:51.47	344.86	7.95	-53.3	-62.1	3.8	7.44e-01	0	44	104	4039114752	78	9755
2026-01-26 05:18:52.48	344.70	7.88	-53.3	-62.1	3.8	7.45e-01	0	44	104	4039114752	78	9807
2026-01-26 05:18:53.49	344.54	7.81	-53.3	-62.1	3.8	7.45e-01	0	44	104	4039114752	78	9755
2026-01-26 05:18:54.50	344.39	7.74	-53.2	-62.1	3.8	7.47e-01	0	44	104	4039114752	78	9731
2026-01-26 05:18:55.50	344.23	7.67	-53.2	-62.1	3.8	7.45e-01	0	44	104	4039114752	78	9727
2026-01-26 05:18:56.51	344.07	7.60	-53.3	-62.1	3.8	7.44e-01	0	44	104	4039114752	78	9744
2026-01-26 05:18:57.52	343.92	7.53	-53.2	-62.1	3.8	7.47e-01	0	44	104	4039114752	78	9742
2026-01-26 05:18:58.53	343.76	7.46	-53.2	-62.0	3.8	7.45e-01	0	44	104	4039114752	78	9674
2026-01-26 05:18:59.54	343.61	7.39	-53.2	-62.0	3.8	7.44e-01	0	44	104	4039114752	78	9715
2026-01-26 05:19:00.55	343.46	7.32	-53.3	-62.1	3.8	7.45e-01	0	44	104	4039114752	78	9762
2026-01-26 05:19:01.56	343.31	7.25	-53.2	-62.0	3.8	7.46e-01	0	44	104	4039114752	78	9672
2026-01-26 05:19:02.57	343.15	7.18	-53.2	-62.0	3.8	7.45e-01	0	44	104	4039114752	78	9631
2026-01-26 05:19:03.58	343.00	7.11	-53.2	-62.0	3.8	7.47e-01	0	44	104	4039114752	78	9675
2026-01-26 05:19:04.59	342.86	7.04	-53.2	-62.0	3.8	7.44e-01	0	44	104	4039114752	78	9709
2026-01-26 05:19:05.59	342.71	6.97	-53.1	-62.0	3.8	7.45e-01	0	44	104	4039114752	78	9647
2026-01-26 05:19:06.60	342.56	6.90	-53.1	-61.9	3.8	7.45e-01	0	44	104	4039114752	78	9597
2026-01-26 05:19:07.61	342.42	6.83	-53.1	-62.0	3.8	7.45e-01	0	44	104	4039114752	78	9613
2026-01-26 05:19:08.61	342.27	6.76	-53.2	-62.0	3.8	7.45e-01	0	44	104	4039114752	78	9666
2026-01-26 05:19:09.62	342.13	6.69	-53.1	-61.9	3.8	7.45e-01	0	44	104	4039114752	78	9606
2026-01-26 05:19:10.63	341.98	6.62	-53.1	-61.9	3.8	7.46e-01	0	44	104	4039114752	78	9518
2026-01-26 05:19:11.64	341.84	6.55	-53.1	-61.9	3.8	7.44e-01	0	44	104	4039114752	78	9602
2026-01-26 05:19:12.65	341.70	6.48	-53.2	-62.0	3.8	7.44e-01	0	44	104	4039114752	78	9661
2026-01-26 05:19:13.66	341.56	6.42	-53.1	-61.9	3.8	7.44e-01	0	44	104	4039114752	78	9540
2026-01-26 05:19:14.67	341.42	6.35	-53.1	-61.9	3.8	7.46e-01	0	44	104	4039114752	78	9528
2026-01-26 05:19:15.67	341.28	6.28	-53.1	-61.9	3.8	7.43e-01	0	44	104	4039114752	78	9577
2026-01-26 05:19:16.68	341.14	6.21	-53.1	-62.0	3.8	7.45e-01	0	44	104	4039114752	78	9614
2026-01-26 05:19:17.69	341.00	6.14	-53.0	-61.8	3.8	7.45e-01	0	44	104	4039114752	78	9475
2026-01-26 05:19:18.70	340.87	6.08	-53.0	-61.8	3.8	7.46e-01	0	44	104	4039114752	77	10032
2026-01-26 05:19:19.71	340.73	6.01	-53.0	-61.9	3.8	7.45e-01	0	44	104	4039114752	77	10090
2026-01-26 05:19:20.72	340.60	5.94	-53.1	-61.9	3.8	7.46e-01	0	44	104	4039114752	77	10114
2026-01-26 05:19:21.73	340.46	5.87	-52.9	-61.7	3.8	7.47e-01	0	44	104	4039114752	77	9932
2026-01-26 05:19:22.73	340.33	5.80	-52.9	-61.8	3.8	7.46e-01	0	44	104	4039114752	77	9961
2026-01-26 05:19:23.74	340.20	5.74	-53.0	-61.8	3.8	7.45e-01	0	44	104	4039114752	77	10008
2026-01-26 05:19:24.75	340.06	5.67	-53.0	-61.8	3.8	7.44e-01	0	44	104	4039114752	77	10053
2026-01-26 05:19:25.76	339.93	5.60	-52.9	-61.7	3.8	7.43e-01	0	44	104	4039114752	77	9890
2026-01-26 05:19:26.77	339.80	5.53	-52.9	-61.7	3.8	7.44e-01	0	44	104	4039114752	77	9898
2026-01-26 05:19:27.77	339.67	5.47	-53.0	-61.8	3.8	7.45e-01	0	44	104	4039114752	77	9959
2026-01-26 05:19:28.78	339.55	5.40	-53.0	-61.8	3.8	7.44e-01	0	44	104	4039114752	77	10042
2026-01-26 05:19:29.79	339.42	5.33	-52.8	-61.7	3.8	7.46e-01	0	44	104	4039114752	77	9844
2026-01-26 05:19:30.80	339.29	5.27	-52.9	-61.7	3.8	7.45e-01	0	44	104	4039114752	77	9862
2026-01-26 05:19:31.81	339.16	5.20	-52.9	-61.7	3.8	7.45e-01	0	44	104	4039114752	77	9911
2026-01-26 05:19:32.82	339.04	5.13	-53.0	-61.8	3.8	7.45e-01	0	44	104	4039114752	77	9966
2026-01-26 05:19:33.82	338.91	5.07	-52.8	-61.5	3.8	7.43e-01	0	44	104	4039114752	77	9717
2026-01-26 05:19:34.83	338.79	5.00	-52.9	-61.7	3.8	7.44e-01	0	44	104	4039114752	77	9892
2026-01-26 05:19:35.84	338.67	4.94	-53.3	-62.1	3.8	7.46e-01	0	44	104	4039114752	77	10379
2026-01-26 05:19:36.85	338.54	4.87	-53.6	-62.4	3.8	7.47e-01	0	44	104	4039114752	77	10778
2026-01-26 05:19:37.85	338.42	4.80	-53.8	-62.6	3.8	7.43e-01	0	44	104	4039114752	78	10410
2026-01-26 05:19:38.86	338.30	4.74	-54.0	-62.8	3.8	7.46e-01	0	45	104	4039114752	78	10584
2026-01-26 05:19:39.87	338.18	4.67	-54.1	-62.9	3.8	7.47e-01	0	44	104	4039114752	78	10669
2026-01-26 05:19:40.88	338.06	4.61	-54.2	-63.0	3.8	7.44e-01	0	44	104	4039114752	78	10845
2026-01-26 05:19:41.89	337.94	4.54	-54.2	-63.1	3.8	7.45e-01	0	44	104	4039114752	79	10306
2026-01-26 05:19:42.89	337.82	4.48	-54.3	-63.1	3.8	7.46e-01	0	44	104	4039114752	79	10308
2026-01-26 05:19:43.90	337.71	4.41	-54.3	-63.1	3.8	7.46e-01	0	44	104	4039114752	79	10327
2026-01-26 05:19:44.91	337.59	4.35	-54.3	-63.1	3.8	7.45e-01	0	44	104	4039114752	79	10312
2026-01-26 05:19:45.91	337.47	4.28	-54.2	-63.1	3.8	7.45e-01	0	44	104	4039114752	79	10311
2026-01-26 05:19:46.92	337.36	4.22	-54.2	-63.0	3.8	7.46e-01	0	44	104	4039114752	79	10245
2026-01-26 05:19:47.93	337.24	4.15	-54.1	-62.9	3.8	7.47e-01	0	44	104	4039114752	79	10114
2026-01-26 05:19:48.94	337.13	4.09	-54.0	-62.8	3.8	7.45e-01	0	44	104	4039114752	79	10026
2026-01-26 05:19:49.95	337.01	4.02	-54.1	-62.9	3.8	7.44e-01	0	44	104	4039114752	79	10088
2026-01-26 05:19:50.96	336.90	3.96	-54.1	-62.9	3.8	7.45e-01	0	44	104	4039114752	79	10131
2026-01-26 05:19:51.97	336.79	3.89	-54.1	-63.0	3.8	7.45e-01	0	44	104	4039114752	79	10201
2026-01-26 05:19:52.98	336.68	3.83	-54.1	-62.9	3.8	7.45e-01	0	44	104	4039114752	79	10170
2026-01-26 05:19:53.99	336.57	3.77	-54.1	-62.9	3.8	7.47e-01	0	44	104	4039114752	79	10174
2026-01-26 05:19:54.99	336.46	3.70	-54.1	-63.0	3.8	7.45e-01	0	44	104	4039114752	79	10209
2026-01-26 05:19:56.00	336.35	3.64	-54.1	-63.0	3.8	7.46e-01	0	44	104	4039114752	79	10212
2026-01-26 05:19:57.00	336.24	3.58	-54.1	-62.9	3.8	7.45e-01	0	44	104	4039114752	79	10126
2026-01-26 05:19:58.01	336.13	3.51	-54.1	-62.9	3.8	7.44e-01	0	44	104	4039114752	79	10124
2026-01-26 05:19:59.02	336.02	3.45	-54.1	-62.9	3.8	7.45e-01	0	44	104	4039114752	79	10070
2026-01-26 05:20:00.03	335.91	3.39	-54.1	-62.9	3.8	7.45e-01	0	44	104	4039114752	79	10111
2026-01-26 05:20:01.03	335.81	3.32	-54.1	-62.9	3.8	7.46e-01	0	44	104	4039114752	79	10107
2026-01-26 05:20:02.04	335.70	3.26	-54.0	-62.9	3.8	7.46e-01	0	44	104	4039114752	79	10097
2026-01-26 05:20:03.05	335.60	3.20	-54.1	-62.9	3.8	7.46e-01	0	44	104	4039114752	79	10093
2026-01-26 05:20:04.06	335.49	3.13	-54.0	-62.9	3.8	7.44e-01	0	44	104	4039114752	79	10104
2026-01-26 05:20:05.07	335.39	3.07	-54.0	-62.9	3.8	7.44e-01	0	44	104	4039114752	79	10080
2026-01-26 05:20:06.08	335.28	3.01	-54.0	-62.9	3.8	7.46e-01	0	44	104	4039114752	79	10084
2026-01-26 05:20:07.09	335.18	2.95	-54.0	-62.8	3.8	7.46e-01	0	44	104	4039114752	79	10054
2026-01-26 05:20:08.09	335.08	2.88	-54.0	-62.8	3.8	7.45e-01	0	44	104	4039114752	79	10042
2026-01-26 05:20:09.10	334.98	2.82	-54.0	-62.8	3.8	7.46e-01	0	44	104	4039114752	79	10027
2026-01-26 05:20:10.10	334.88	2.76	-54.0	-62.8	3.8	7.44e-01	0	44	104	4039114752	79	10051
2026-01-26 05:20:11.11	334.78	2.70	-54.0	-62.9	3.8	7.44e-01	0	44	104	4039114752	79	10071
2026-01-26 05:20:12.11	334.68	2.64	-54.0	-62.8	3.8	7.45e-01	0	44	104	4039114752	79	10041
2026-01-26 05:20:13.12	334.58	2.57	-54.0	-62.9	3.8	7.46e-01	0	44	104	4039114752	79	10074
2026-01-26 05:20:14.13	334.48	2.51	-54.0	-62.8	3.8	7.46e-01	0	44	104	4039114752	79	10020
2026-01-26 05:20:15.14	334.38	2.45	-54.0	-62.8	3.8	7.45e-01	0	44	104	4039114752	79	10028
2026-01-26 05:20:16.14	334.28	2.39	-54.0	-62.8	3.8	7.45e-01	0	44	104	4039114752	79	10018
2026-01-26 05:20:17.15	334.18	2.33	-54.0	-62.8	3.8	7.44e-01	0	44	104	4039114752	79	10043
2026-01-26 05:20:18.16	334.09	2.27	-54.0	-62.9	3.8	7.44e-01	0	44	104	4039114752	79	10062
2026-01-26 05:20:19.17	333.99	2.21	-54.0	-62.9	3.8	7.46e-01	0	44	104	4039114752	79	10063
2026-01-26 05:20:20.17	333.90	2.15	-54.0	-62.8	3.8	7.47e-01	0	44	104	4039114752	79	10021
2026-01-26 05:20:21.18	333.80	2.08	-54.0	-62.8	3.8	7.46e-01	0	44	104	4039114752	79	10010
2026-01-26 05:20:22.19	333.70	2.02	-54.0	-62.8	3.8	7.46e-01	0	44	104	4039114752	79	10023
2026-01-26 05:20:23.19	333.61	1.96	-54.0	-62.8	3.8	7.47e-01	0	44	104	4039114752	79	9990
2026-01-26 05:20:24.20	333.52	1.90	-54.0	-62.8	3.8	7.45e-01	0	44	104	4039114752	79	9971
2026-01-26 05:20:25.21	333.42	1.84	-54.0	-62.8	3.8	7.45e-01	0	44	104	4039114752	79	9993

#Closed at: 2026-01-26 05:20:25
#Recorded file [4039 MB]: D:/lorett/data/31041_260126_081123.dat