passes_logs/2026/01/26/R3.2S_Murmansk/R3.2S_Murmansk__20260126_011107_AQUA_rec.log

#Pass ID: 20260126_011107_AQUA
#Satellite: AQUA
#Configuration: AQUA
#almurnet v.1.7.20251203
#Start time: 2026-01-26 01:11:08

#Version: 2.2.20231116
#Station: R3.2S_Murmansk
#Location: 33.079688 lon 68.888172 lat
#TLE: 1 27424U 02022A   26025.50647354  .00001868  00000+0  38363-3 0  9992
#TLE: 2 27424  98.4099 352.1114 0001896  65.7986  47.0097 14.61858879262422

#Time	Az	El	Level	Level2	SNR	BER	BlckErr	Temp	State	Recorded	gain1	gain2
2026-01-26 01:11:08.18	21.45	2.04	-55.3	-73.1	3.8	7.44e-01	0	41	0	0	81	29198
2026-01-26 01:11:09.18	21.50	2.10	-55.2	-73.1	3.8	7.47e-01	0	41	104	0	80	30760
2026-01-26 01:11:10.18	21.54	2.17	-55.4	-73.3	3.8	7.43e-01	0	41	104	0	81	29713
2026-01-26 01:11:11.19	21.58	2.23	-55.4	-73.3	3.8	7.44e-01	0	41	104	0	81	29875
2026-01-26 01:11:12.20	21.63	2.29	-55.5	-73.3	3.8	7.47e-01	0	41	104	0	81	30020
2026-01-26 01:11:13.21	21.67	2.36	-55.5	-73.3	3.8	7.43e-01	0	41	104	0	81	29926
2026-01-26 01:11:14.22	21.72	2.42	-55.5	-73.3	3.8	7.44e-01	0	41	104	0	81	29907
2026-01-26 01:11:15.23	21.76	2.49	-55.5	-73.3	3.8	7.48e-01	0	41	104	0	81	29868
2026-01-26 01:11:16.23	21.81	2.55	-55.5	-73.3	3.8	7.47e-01	0	41	104	0	81	29874
2026-01-26 01:11:17.24	21.85	2.62	-55.5	-73.3	3.8	7.47e-01	0	42	104	0	81	29774
2026-01-26 01:11:18.25	21.90	2.69	-55.4	-73.2	3.8	7.45e-01	0	41	104	0	81	29519
2026-01-26 01:11:19.26	21.95	2.75	-55.4	-73.2	3.8	7.43e-01	0	42	104	0	81	29500
2026-01-26 01:11:20.27	21.99	2.82	-55.4	-73.2	3.8	7.45e-01	0	41	104	0	81	29481
2026-01-26 01:11:21.28	22.04	2.88	-55.4	-73.2	3.8	7.44e-01	0	41	104	0	81	29452
2026-01-26 01:11:22.29	22.08	2.95	-55.3	-73.1	3.8	7.46e-01	0	42	104	0	81	29273
2026-01-26 01:11:23.30	22.13	3.02	-55.3	-73.1	3.8	7.46e-01	0	42	104	0	81	29163
2026-01-26 01:11:24.31	22.18	3.08	-55.2	-73.0	3.8	7.45e-01	0	42	104	0	81	28949
2026-01-26 01:11:25.32	22.23	3.15	-55.1	-72.9	3.8	7.47e-01	0	42	104	0	81	28645
2026-01-26 01:11:26.32	22.27	3.21	-55.0	-72.8	3.8	7.46e-01	0	42	104	0	81	28322
2026-01-26 01:11:27.33	22.32	3.28	-54.9	-72.7	3.8	7.47e-01	0	42	104	0	81	27984
2026-01-26 01:11:28.33	22.37	3.35	-54.8	-72.5	3.8	7.45e-01	0	42	104	0	81	27274
2026-01-26 01:11:29.34	22.41	3.42	-54.4	-71.7	3.8	7.43e-01	0	42	104	0	80	26161
2026-01-26 01:11:30.35	22.46	3.48	-54.5	-72.0	3.8	7.46e-01	0	42	104	0	79	28770
2026-01-26 01:11:31.36	22.51	3.55	-54.2	-71.2	3.9	7.44e-01	0	42	104	0	79	26259
2026-01-26 01:11:32.37	22.56	3.62	-51.1	-55.1	16.2	5.99e-01	0	42	0	524288	72	6182
2026-01-26 01:11:33.37	22.61	3.69	-53.4	-65.4	5.3	7.03e-01	35	42	0	1572864	77	15183
2026-01-26 01:11:34.38	22.66	3.75	-53.5	-66.3	4.7	7.18e-01	0	42	104	1572864	77	16827
2026-01-26 01:11:35.39	22.71	3.82	-53.4	-66.0	4.7	7.16e-01	0	42	104	1572864	77	16311
2026-01-26 01:11:36.40	22.76	3.89	-53.4	-65.7	4.9	7.09e-01	0	42	0	1572864	77	15713
2026-01-26 01:11:37.40	22.81	3.96	-53.4	-65.3	5.2	7.03e-01	2	42	0	1572864	77	15036
2026-01-26 01:11:38.41	22.86	4.03	-53.4	-65.7	5.0	7.12e-01	0	42	0	1572864	77	15609
2026-01-26 01:11:39.42	22.91	4.10	-53.3	-66.3	4.5	7.24e-01	0	42	104	1572864	77	16763
2026-01-26 01:11:40.43	22.96	4.17	-53.2	-67.3	4.0	7.41e-01	0	42	104	1572864	77	18794
2026-01-26 01:11:41.44	23.01	4.24	-52.8	-67.2	3.8	7.44e-01	0	42	104	1572864	77	18577
2026-01-26 01:11:42.45	23.06	4.31	-52.1	-65.9	3.8	7.45e-01	0	42	104	1572864	76	17076
2026-01-26 01:11:43.45	23.11	4.37	-51.1	-64.2	3.8	7.43e-01	0	42	104	1572864	74	15602
2026-01-26 01:11:44.46	23.16	4.44	-50.1	-62.5	3.8	7.47e-01	0	42	104	1572864	72	14461
2026-01-26 01:11:45.47	23.21	4.51	-49.2	-61.1	3.8	7.46e-01	0	42	104	1572864	70	13811
2026-01-26 01:11:46.48	23.26	4.58	-48.1	-59.6	3.8	7.46e-01	0	42	104	1572864	68	13012
2026-01-26 01:11:47.49	23.32	4.66	-47.7	-59.1	3.8	7.46e-01	0	42	104	1572864	67	12994
2026-01-26 01:11:48.49	23.37	4.73	-47.2	-58.4	3.8	7.47e-01	0	42	104	1572864	66	12775
2026-01-26 01:11:49.50	23.42	4.80	-46.8	-58.0	3.8	7.44e-01	0	42	104	1572864	65	12849
2026-01-26 01:11:50.51	23.47	4.87	-46.8	-58.0	3.8	7.43e-01	0	42	104	1572864	65	12871
2026-01-26 01:11:51.52	23.53	4.94	-47.2	-58.5	3.8	7.45e-01	0	42	104	1572864	65	13651
2026-01-26 01:11:52.52	23.58	5.01	-47.4	-58.8	3.8	7.42e-01	0	42	104	1572864	65	14070
2026-01-26 01:11:53.53	23.63	5.08	-46.6	-57.8	3.8	7.47e-01	0	42	104	1572864	65	12574
2026-01-26 01:11:54.54	23.69	5.15	-47.0	-58.2	3.8	7.45e-01	0	42	104	1572864	65	13244
2026-01-26 01:11:55.54	23.74	5.22	-47.7	-59.1	3.8	7.43e-01	0	42	104	1572864	67	13070
2026-01-26 01:11:56.55	23.80	5.30	-49.2	-61.0	3.9	7.43e-01	0	43	104	1572864	70	13721
2026-01-26 01:11:57.56	23.85	5.37	-48.1	-59.5	3.8	7.44e-01	0	42	104	1572864	67	13595
2026-01-26 01:11:58.57	23.91	5.44	-50.2	-62.6	3.9	7.45e-01	0	42	104	1572864	72	14620
2026-01-26 01:11:59.58	23.96	5.52	-47.9	-59.3	3.8	7.46e-01	0	42	104	1572864	67	13371
2026-01-26 01:12:00.59	24.02	5.59	-47.8	-59.2	3.8	7.44e-01	0	42	104	1572864	67	13212
2026-01-26 01:12:01.59	24.07	5.66	-47.6	-58.9	3.8	7.45e-01	0	42	104	1572864	66	13540
2026-01-26 01:12:02.60	24.13	5.73	-49.4	-61.3	3.8	7.41e-01	0	42	104	1572864	69	15004
2026-01-26 01:12:03.61	24.18	5.81	-47.6	-58.9	3.8	7.44e-01	0	42	104	1572864	66	13534
2026-01-26 01:12:04.62	24.24	5.88	-46.6	-57.7	3.8	7.45e-01	0	42	104	1572864	65	12502
2026-01-26 01:12:05.62	24.30	5.96	-49.1	-60.8	3.8	7.43e-01	0	43	104	1572864	68	14946
2026-01-26 01:12:06.63	24.35	6.03	-48.2	-59.7	3.8	7.45e-01	0	43	104	1572864	68	13235
2026-01-26 01:12:07.64	24.41	6.10	-46.3	-57.4	3.8	7.42e-01	0	43	104	1572864	64	12717
2026-01-26 01:12:08.64	24.47	6.18	-46.3	-57.4	3.8	7.45e-01	0	42	104	1572864	64	12757
2026-01-26 01:12:09.65	24.53	6.25	-47.6	-58.8	3.8	7.43e-01	0	43	104	1572864	65	14194
2026-01-26 01:12:10.65	24.59	6.33	-48.1	-59.5	3.8	7.42e-01	0	43	104	1572864	68	12868
2026-01-26 01:12:11.66	24.64	6.40	-48.6	-60.1	3.8	7.47e-01	0	43	104	1572864	67	14590
2026-01-26 01:12:12.67	24.70	6.48	-50.3	-62.7	3.9	7.44e-01	0	43	104	1572864	72	14752
2026-01-26 01:12:13.67	24.76	6.55	-47.7	-59.0	3.8	7.44e-01	0	43	104	1572864	66	13650
2026-01-26 01:12:14.68	24.82	6.63	-48.0	-59.3	3.9	7.44e-01	0	43	104	1572864	67	13406
2026-01-26 01:12:15.69	24.88	6.71	-47.1	-58.3	3.8	7.46e-01	0	43	104	1572864	66	12613
2026-01-26 01:12:16.70	24.94	6.78	-46.9	-58.0	3.8	7.44e-01	0	43	104	1572864	65	12924
2026-01-26 01:12:17.71	25.00	6.86	-46.7	-57.9	3.8	7.48e-01	0	43	104	1572864	65	12736
2026-01-26 01:12:18.71	25.06	6.94	-47.3	-58.5	3.8	7.42e-01	0	42	104	1572864	65	13678
2026-01-26 01:12:19.72	25.12	7.01	-49.9	-62.1	3.8	7.46e-01	0	43	104	1572864	70	15489
2026-01-26 01:12:20.73	25.19	7.09	-49.8	-61.9	3.8	7.47e-01	0	43	104	1572864	71	14281
2026-01-26 01:12:21.74	25.25	7.17	-48.5	-59.9	3.8	7.42e-01	0	43	104	1572864	67	14325
2026-01-26 01:12:22.75	25.31	7.25	-47.9	-59.2	3.8	7.44e-01	0	43	104	1572864	67	13168
2026-01-26 01:12:23.75	25.37	7.33	-47.5	-58.8	3.8	7.46e-01	0	43	104	1572864	66	13301
2026-01-26 01:12:24.76	25.44	7.40	-47.2	-58.4	3.8	7.42e-01	0	43	104	1572864	66	12707
2026-01-26 01:12:25.77	25.50	7.48	-46.6	-57.7	3.8	7.45e-01	0	43	104	1572864	65	12495
2026-01-26 01:12:26.77	25.56	7.56	-48.9	-60.5	3.8	7.44e-01	0	43	104	1572864	68	14528
2026-01-26 01:12:27.78	25.63	7.64	-48.6	-60.1	3.8	7.45e-01	0	43	104	1572864	67	14641
2026-01-26 01:12:28.79	25.69	7.72	-46.3	-57.2	3.8	7.43e-01	0	43	104	1572864	63	13185
2026-01-26 01:12:29.80	25.75	7.80	-51.7	-64.9	3.8	7.46e-01	0	43	104	1572864	73	17926
2026-01-26 01:12:30.81	25.82	7.88	-46.0	-57.0	3.9	7.43e-01	0	43	104	1572864	64	12114
2026-01-26 01:12:31.81	25.88	7.96	-45.8	-56.7	3.8	7.45e-01	0	43	104	1572864	63	12503
2026-01-26 01:12:32.81	25.95	8.04	-45.8	-56.7	3.8	7.45e-01	0	43	104	1572864	63	12516
2026-01-26 01:12:33.82	26.02	8.12	-49.4	-61.1	3.8	7.44e-01	0	43	104	1572864	69	14550
2026-01-26 01:12:34.83	26.08	8.20	-47.7	-58.9	3.9	7.45e-01	0	43	104	1572864	67	12672
2026-01-26 01:12:35.84	26.15	8.28	-51.1	-63.8	3.8	7.45e-01	0	43	104	1572864	72	16716
2026-01-26 01:12:36.84	26.22	8.36	-49.4	-61.1	3.8	7.43e-01	0	43	104	1572864	70	13768
2026-01-26 01:12:37.85	26.28	8.45	-49.4	-61.1	3.9	7.45e-01	0	43	104	1572864	69	14645
2026-01-26 01:12:38.86	26.35	8.53	-47.6	-58.8	3.9	7.47e-01	0	43	104	1572864	67	12543
2026-01-26 01:12:39.87	26.42	8.61	-47.4	-58.5	3.9	7.46e-01	0	43	104	1572864	66	12950
2026-01-26 01:12:40.87	26.49	8.69	-46.8	-57.9	3.8	7.43e-01	0	43	104	1572864	65	12702
2026-01-26 01:12:41.88	26.56	8.77	-47.3	-58.4	3.8	7.41e-01	0	43	104	1572864	65	13455
2026-01-26 01:12:42.89	26.63	8.86	-50.6	-62.7	3.8	7.48e-01	0	43	104	1572864	71	15673
2026-01-26 01:12:43.89	26.70	8.94	-49.0	-60.4	3.8	7.46e-01	0	43	104	1572864	68	14364
2026-01-26 01:12:44.90	26.77	9.02	-46.2	-57.1	3.9	7.43e-01	0	43	104	1572864	63	13087
2026-01-26 01:12:45.91	26.84	9.11	-53.0	-67.6	3.8	7.43e-01	0	43	104	1572864	76	20674
2026-01-26 01:12:46.91	26.91	9.19	-46.0	-57.0	3.9	7.44e-01	0	43	104	1572864	64	12130
2026-01-26 01:12:47.92	26.98	9.28	-45.9	-56.8	3.8	7.43e-01	0	43	104	1572864	63	12557
2026-01-26 01:12:48.93	27.05	9.36	-45.6	-56.4	3.8	7.46e-01	0	43	104	1572864	63	12066
2026-01-26 01:12:49.94	27.12	9.45	-48.8	-60.2	3.8	7.42e-01	0	43	104	1572864	68	13977
2026-01-26 01:12:50.95	27.20	9.53	-47.2	-58.3	3.8	7.43e-01	0	43	104	1572864	66	12617
2026-01-26 01:12:51.95	27.27	9.62	-51.8	-65.2	3.8	7.44e-01	0	43	104	1572864	74	17524
2026-01-26 01:12:52.96	27.34	9.70	-49.1	-60.8	3.8	7.48e-01	0	43	104	1572864	70	13315
2026-01-26 01:12:53.97	27.42	9.79	-50.0	-61.7	3.8	7.47e-01	0	43	104	1572864	70	14791
2026-01-26 01:12:54.97	27.49	9.88	-47.0	-58.0	3.9	7.45e-01	0	43	104	1572864	66	12234
2026-01-26 01:12:55.98	27.57	9.96	-46.5	-57.5	3.8	7.44e-01	0	43	104	1572864	65	12221
2026-01-26 01:12:56.99	27.64	10.05	-46.2	-57.1	3.9	7.43e-01	0	43	104	1572864	64	12292
2026-01-26 01:12:58.00	27.72	10.14	-47.8	-59.0	3.8	7.47e-01	0	43	104	1572864	66	13682
2026-01-26 01:12:59.01	27.79	10.23	-46.8	-57.8	3.9	7.42e-01	0	43	104	1572864	65	12582
2026-01-26 01:13:00.01	27.87	10.31	-52.4	-66.1	3.7	7.47e-01	0	43	104	1572864	75	18477
2026-01-26 01:13:01.02	27.95	10.40	-49.0	-60.6	3.8	7.46e-01	0	43	104	1572864	69	13855
2026-01-26 01:13:02.03	28.03	10.49	-50.1	-61.9	3.8	7.44e-01	0	43	104	1572864	70	15165
2026-01-26 01:13:03.03	28.10	10.58	-46.5	-57.5	3.8	7.43e-01	0	43	104	1572864	65	12206
2026-01-26 01:13:04.04	28.18	10.67	-46.4	-57.4	3.8	7.44e-01	0	43	104	1572864	64	12707
2026-01-26 01:13:05.05	28.26	10.76	-46.2	-57.2	3.9	7.41e-01	0	43	104	1572864	64	12462
2026-01-26 01:13:06.05	28.34	10.85	-47.5	-58.6	3.9	7.45e-01	0	43	104	1572864	65	13884
2026-01-26 01:13:07.06	28.42	10.94	-46.8	-57.8	3.8	7.44e-01	0	43	104	1572864	65	12662
2026-01-26 01:13:08.07	28.50	11.03	-52.4	-66.2	3.8	7.44e-01	0	43	104	1572864	75	18591
2026-01-26 01:13:09.08	28.58	11.12	-48.8	-60.3	3.8	7.43e-01	0	43	104	1572864	69	13402
2026-01-26 01:13:10.08	28.66	11.21	-50.3	-62.3	3.8	7.43e-01	0	43	104	1572864	71	15004
2026-01-26 01:13:11.09	28.75	11.30	-45.7	-56.6	3.8	7.45e-01	0	43	104	1572864	63	12252
2026-01-26 01:13:12.10	28.83	11.39	-45.7	-56.6	3.8	7.43e-01	0	43	104	1572864	63	12276
2026-01-26 01:13:13.10	28.91	11.48	-45.5	-56.3	3.8	7.44e-01	0	43	104	1572864	62	12660
2026-01-26 01:13:14.11	29.00	11.58	-48.9	-60.5	3.8	7.45e-01	0	43	104	1572864	68	14388
2026-01-26 01:13:15.12	29.08	11.67	-48.7	-60.3	3.8	7.42e-01	0	43	104	1572864	68	14066
2026-01-26 01:13:16.13	29.17	11.76	-50.4	-62.6	3.8	7.46e-01	0	43	104	1572864	71	15483
2026-01-26 01:13:17.13	29.25	11.86	-47.8	-59.2	3.9	7.44e-01	0	43	104	1572864	67	13144
2026-01-26 01:13:18.14	29.34	11.95	-52.2	-65.8	3.9	7.45e-01	0	43	104	1572864	75	17705
2026-01-26 01:13:19.15	29.42	12.05	-46.3	-57.3	3.8	7.43e-01	0	43	104	1572864	64	12553
2026-01-26 01:13:20.15	29.51	12.14	-46.0	-57.0	3.8	7.43e-01	0	43	104	1572864	64	12109
2026-01-26 01:13:21.16	29.60	12.23	-46.0	-57.0	3.8	7.45e-01	0	43	104	1572864	64	12101
2026-01-26 01:13:22.16	29.69	12.33	-50.2	-62.3	3.8	7.45e-01	0	43	104	1572864	71	15003
2026-01-26 01:13:23.17	29.78	12.43	-46.3	-57.2	3.8	7.42e-01	0	43	104	1572864	64	12492
2026-01-26 01:13:24.18	29.87	12.52	-51.6	-64.7	3.9	7.44e-01	0	43	104	1572864	74	16593
2026-01-26 01:13:25.19	29.96	12.62	-47.3	-58.4	3.8	7.47e-01	0	43	104	1572864	66	12677
2026-01-26 01:13:26.20	30.05	12.72	-50.0	-61.9	3.8	7.46e-01	0	43	104	1572864	71	14262
2026-01-26 01:13:27.21	30.14	12.81	-46.2	-57.2	3.8	7.46e-01	0	43	104	1572864	64	12436
2026-01-26 01:13:28.21	30.23	12.91	-45.8	-56.7	3.8	7.50e-01	0	43	104	1572864	63	12424
2026-01-26 01:13:29.22	30.32	13.01	-45.3	-56.1	3.8	7.44e-01	0	43	104	1572864	62	12355
2026-01-26 01:13:30.22	30.41	13.11	-44.7	-55.5	3.8	7.45e-01	0	43	104	1572864	61	12149
2026-01-26 01:13:31.23	30.51	13.20	-47.4	-58.7	3.8	7.45e-01	0	43	104	1572864	67	12423
2026-01-26 01:13:32.24	30.60	13.30	-49.9	-61.8	3.9	7.44e-01	0	43	104	1572864	71	14118
2026-01-26 01:13:33.25	30.70	13.40	-47.0	-58.1	3.8	7.44e-01	0	43	104	1572864	66	12260
2026-01-26 01:13:34.25	30.79	13.50	-51.5	-64.4	3.8	7.45e-01	0	43	104	1572864	74	15976
2026-01-26 01:13:35.26	30.89	13.60	-45.9	-56.8	3.8	7.47e-01	0	43	104	1572864	63	12591
2026-01-26 01:13:36.27	30.99	13.70	-45.8	-56.7	3.8	7.43e-01	0	43	104	1572864	63	12503
2026-01-26 01:13:37.28	31.08	13.80	-45.4	-56.2	3.8	7.41e-01	0	43	104	1572864	62	12449
2026-01-26 01:13:38.29	31.18	13.91	-47.1	-58.2	3.8	7.43e-01	0	43	104	1572864	65	13218
2026-01-26 01:13:39.29	31.28	14.01	-45.0	-55.8	3.8	7.45e-01	0	43	104	1572864	62	11938
2026-01-26 01:13:40.30	31.38	14.11	-50.7	-63.1	3.9	7.47e-01	0	43	104	1572864	73	14639
2026-01-26 01:13:41.31	31.48	14.21	-46.2	-57.2	3.8	7.44e-01	0	43	104	1572864	64	12443
2026-01-26 01:13:42.32	31.58	14.32	-49.2	-60.9	3.9	7.48e-01	0	43	104	1572864	70	13452
2026-01-26 01:13:43.33	31.69	14.42	-45.9	-56.8	3.8	7.44e-01	0	43	104	1572864	63	12595
2026-01-26 01:13:44.33	31.79	14.52	-45.8	-56.8	3.8	7.44e-01	0	43	104	1572864	63	12520
2026-01-26 01:13:45.33	31.89	14.63	-45.2	-56.1	3.8	7.45e-01	0	43	104	1572864	62	12253
2026-01-26 01:13:46.34	31.99	14.73	-45.2	-56.0	3.8	7.45e-01	0	43	104	1572864	61	12954
2026-01-26 01:13:47.35	32.10	14.84	-47.7	-59.0	3.8	7.47e-01	0	43	104	1572864	67	12836
2026-01-26 01:13:48.36	32.21	14.94	-46.8	-57.8	3.8	7.44e-01	0	43	104	1572864	65	12614
2026-01-26 01:13:49.37	32.31	15.05	-44.8	-55.6	3.9	7.42e-01	0	43	104	1572864	61	12301
2026-01-26 01:13:50.37	32.42	15.15	-51.1	-63.8	3.9	7.43e-01	0	43	104	1572864	74	15008
2026-01-26 01:13:51.38	32.53	15.26	-44.8	-55.6	3.8	7.46e-01	0	43	104	1572864	61	12287
2026-01-26 01:13:52.39	32.64	15.37	-44.6	-55.3	3.8	7.41e-01	0	43	104	1572864	61	11910
2026-01-26 01:13:53.40	32.75	15.48	-44.5	-55.2	3.8	7.41e-01	0	43	104	1572864	60	12411
2026-01-26 01:13:54.41	32.86	15.59	-45.4	-56.0	3.8	7.43e-01	0	43	104	1572864	62	12233
2026-01-26 01:13:55.42	32.97	15.69	-45.1	-55.9	3.9	7.44e-01	0	43	104	1572864	62	11989
2026-01-26 01:13:56.42	33.08	15.80	-48.5	-60.0	3.8	7.43e-01	0	43	104	1572864	69	12876
2026-01-26 01:13:57.43	33.19	15.91	-45.6	-56.5	3.8	7.48e-01	0	43	104	1572864	63	12109
2026-01-26 01:13:58.44	33.31	16.02	-49.2	-60.9	3.8	7.45e-01	0	44	104	1572864	70	13455
2026-01-26 01:13:59.45	33.42	16.13	-45.8	-56.7	3.8	7.46e-01	0	43	104	1572864	63	12459
2026-01-26 01:14:00.46	33.54	16.24	-45.3	-56.2	3.8	7.45e-01	0	43	104	1572864	62	12465
2026-01-26 01:14:01.46	33.65	16.35	-44.5	-55.3	3.8	7.41e-01	0	43	104	1572864	61	11846
2026-01-26 01:14:02.47	33.77	16.47	-45.8	-56.9	3.8	7.43e-01	0	43	104	1572864	62	13423
2026-01-26 01:14:03.48	33.89	16.58	-45.8	-56.7	3.8	7.45e-01	0	43	104	1572864	63	12488
2026-01-26 01:14:04.49	34.01	16.69	-44.7	-55.5	3.9	7.46e-01	0	43	104	1572864	61	12180
2026-01-26 01:14:05.50	34.13	16.81	-45.0	-55.7	3.8	7.44e-01	0	43	104	1572864	60	13254
2026-01-26 01:14:06.50	34.25	16.92	-47.5	-58.9	3.8	7.44e-01	0	43	104	1572864	67	12678
2026-01-26 01:14:07.51	34.37	17.03	-44.9	-55.7	3.8	7.46e-01	0	43	104	1572864	61	12471
2026-01-26 01:14:08.52	34.49	17.15	-44.4	-55.2	3.8	7.43e-01	0	43	104	1572864	60	12406
2026-01-26 01:14:09.52	34.61	17.26	-45.0	-55.8	3.8	7.49e-01	0	43	104	1572864	60	13273
2026-01-26 01:14:10.53	34.74	17.38	-44.9	-55.7	3.9	7.46e-01	0	43	104	1572864	61	12491
2026-01-26 01:14:11.54	34.86	17.49	-44.8	-55.5	3.8	7.42e-01	0	43	104	1572864	61	12189
2026-01-26 01:14:12.55	34.99	17.61	-48.0	-59.2	3.9	7.45e-01	0	43	104	1572864	67	13165
2026-01-26 01:14:13.56	35.12	17.73	-45.8	-56.6	3.8	7.43e-01	0	43	104	1572864	62	13030
2026-01-26 01:14:14.57	35.25	17.85	-47.6	-58.9	3.8	7.43e-01	0	43	104	1572864	67	12675
2026-01-26 01:14:15.57	35.38	17.96	-45.4	-56.3	3.8	7.45e-01	0	43	104	1572864	62	12562
2026-01-26 01:14:16.58	35.51	18.08	-45.2	-56.1	3.8	7.46e-01	0	43	104	1572864	62	12286
2026-01-26 01:14:17.59	35.64	18.20	-45.9	-56.9	3.8	7.44e-01	0	43	104	1572864	62	13440
2026-01-26 01:14:18.60	35.77	18.32	-46.8	-57.9	3.8	7.45e-01	0	43	104	1572864	64	13531
2026-01-26 01:14:19.61	35.91	18.44	-46.8	-57.6	3.8	7.46e-01	0	43	104	1572864	63	13882
2026-01-26 01:14:20.62	36.04	18.56	-47.6	-58.8	3.8	7.43e-01	0	43	104	1572864	67	12609
2026-01-26 01:14:21.63	36.18	18.68	-46.0	-56.9	3.8	7.46e-01	0	43	104	1572864	62	13539
2026-01-26 01:14:22.63	36.31	18.80	-45.7	-56.6	3.9	7.46e-01	0	43	104	1572864	63	12339
2026-01-26 01:14:23.64	36.45	18.93	-44.7	-55.4	3.8	7.45e-01	0	43	104	1572864	61	12066
2026-01-26 01:14:24.64	36.59	19.05	-44.7	-55.5	3.8	7.43e-01	0	43	104	1572864	61	12163
2026-01-26 01:14:25.65	36.73	19.17	-45.3	-56.4	3.8	7.46e-01	0	43	104	1572864	61	13522
2026-01-26 01:14:26.66	36.87	19.29	-46.8	-57.8	3.8	7.44e-01	0	43	104	1572864	64	13378
2026-01-26 01:14:27.67	37.02	19.42	-46.2	-57.0	3.8	7.45e-01	0	43	104	1572864	62	13683
2026-01-26 01:14:28.67	37.16	19.54	-47.5	-58.7	3.8	7.42e-01	0	43	104	1572864	67	12411
2026-01-26 01:14:29.68	37.31	19.67	-47.4	-58.7	3.8	7.45e-01	0	43	104	1572864	65	13940
2026-01-26 01:14:30.69	37.45	19.79	-46.1	-57.0	3.8	7.42e-01	0	43	104	1572864	64	12215
2026-01-26 01:14:31.70	37.60	19.92	-45.7	-56.7	3.8	7.44e-01	0	43	104	1572864	63	12415
2026-01-26 01:14:32.71	37.75	20.05	-45.4	-56.4	3.8	7.46e-01	0	43	104	1572864	62	12665
2026-01-26 01:14:33.71	37.90	20.17	-44.8	-55.6	3.8	7.43e-01	0	43	104	1572864	61	12311
2026-01-26 01:14:34.72	38.05	20.30	-48.6	-59.9	3.8	7.41e-01	0	43	104	1572864	67	14327
2026-01-26 01:14:35.73	38.20	20.43	-45.8	-56.5	3.8	7.49e-01	0	43	104	1572864	61	13676
2026-01-26 01:14:36.73	38.36	20.56	-45.5	-56.3	3.8	7.45e-01	0	43	104	1572864	62	12524
2026-01-26 01:14:37.74	38.51	20.69	-48.3	-59.5	3.8	7.50e-01	0	43	104	1572864	66	14387
2026-01-26 01:14:38.75	38.67	20.82	-44.6	-55.4	3.8	7.44e-01	0	43	104	1572864	61	11975
2026-01-26 01:14:39.75	38.83	20.95	-44.5	-55.3	3.8	7.45e-01	0	43	104	1572864	60	12643
2026-01-26 01:14:40.76	38.99	21.08	-44.6	-55.3	3.8	7.44e-01	0	43	104	1572864	60	12658
2026-01-26 01:14:41.77	39.15	21.21	-50.0	-61.7	3.8	7.43e-01	0	43	104	1572864	70	14873
2026-01-26 01:14:42.78	39.31	21.34	-48.0	-59.2	3.8	7.42e-01	0	44	104	1572864	68	12420
2026-01-26 01:14:43.78	39.47	21.47	-49.5	-61.1	3.8	7.43e-01	0	44	104	1572864	69	14672
2026-01-26 01:14:44.79	39.64	21.61	-47.8	-58.9	3.8	7.44e-01	0	43	104	1572864	67	12799
2026-01-26 01:14:45.80	39.81	21.74	-49.0	-60.4	3.8	7.47e-01	0	43	104	1572864	68	14352
2026-01-26 01:14:46.81	39.97	21.87	-45.0	-55.8	3.8	7.44e-01	0	43	104	1572864	62	11929
2026-01-26 01:14:47.81	40.14	22.01	-45.0	-55.8	3.8	7.46e-01	0	44	104	1572864	61	12612
2026-01-26 01:14:48.82	40.31	22.14	-44.9	-55.7	3.8	7.47e-01	0	43	104	1572864	61	12397
2026-01-26 01:14:49.83	40.49	22.28	-46.0	-56.9	3.8	7.41e-01	0	43	104	1572864	62	13449
2026-01-26 01:14:50.84	40.66	22.42	-47.4	-58.6	3.8	7.43e-01	0	43	104	1572864	65	13728
2026-01-26 01:14:51.84	40.84	22.55	-49.0	-60.4	3.8	7.47e-01	0	43	104	1572864	68	14296
2026-01-26 01:14:52.85	41.01	22.69	-46.8	-57.8	3.8	7.43e-01	0	43	104	1572864	65	12642
2026-01-26 01:14:53.86	41.19	22.83	-49.4	-61.2	3.8	7.43e-01	0	43	104	1572864	69	14802
2026-01-26 01:14:54.87	41.37	22.97	-44.9	-55.7	3.9	7.44e-01	0	43	104	1572864	61	12393
2026-01-26 01:14:55.88	41.56	23.11	-44.7	-55.6	3.8	7.41e-01	0	43	104	1572864	61	12282
2026-01-26 01:14:56.88	41.74	23.25	-44.7	-55.6	3.8	7.44e-01	0	43	104	1572864	61	12237
2026-01-26 01:14:57.89	41.92	23.39	-46.8	-57.8	3.8	7.45e-01	0	43	104	1572864	64	13315
2026-01-26 01:14:58.89	42.11	23.53	-47.9	-59.1	3.8	7.46e-01	0	43	104	1572864	66	13772
2026-01-26 01:14:59.90	42.30	23.67	-49.8	-61.7	3.8	7.49e-01	0	43	104	1572864	70	14841
2026-01-26 01:15:00.91	42.49	23.81	-48.4	-59.8	3.8	7.44e-01	0	43	104	1572864	68	13353
2026-01-26 01:15:01.91	42.68	23.95	-50.8	-62.9	3.8	7.45e-01	0	43	104	1572864	71	15969
2026-01-26 01:15:02.91	42.87	24.09	-45.7	-56.5	3.8	7.45e-01	0	43	104	1572864	63	12152
2026-01-26 01:15:03.92	43.07	24.24	-45.5	-56.4	3.8	7.44e-01	0	43	104	1572864	63	11973
2026-01-26 01:15:04.93	43.27	24.38	-45.2	-56.0	3.8	7.43e-01	0	43	104	1572864	62	12107
2026-01-26 01:15:05.93	43.47	24.52	-49.4	-61.0	3.9	7.43e-01	0	43	104	1572864	69	14526
2026-01-26 01:15:06.94	43.67	24.67	-47.6	-58.8	3.8	7.45e-01	0	43	104	1572864	67	12547
2026-01-26 01:15:07.95	43.87	24.81	-50.5	-62.5	3.8	7.43e-01	0	43	104	1572864	71	15390
2026-01-26 01:15:08.96	44.08	24.96	-48.2	-59.4	3.8	7.45e-01	0	43	104	1572864	67	13505
2026-01-26 01:15:09.97	44.29	25.11	-50.2	-62.0	3.8	7.43e-01	0	44	104	1572864	70	15228
2026-01-26 01:15:10.97	44.49	25.25	-45.8	-56.7	3.8	7.45e-01	0	43	104	1572864	63	12448
2026-01-26 01:15:11.98	44.71	25.40	-45.2	-56.0	3.8	7.45e-01	0	44	104	1572864	62	12184
2026-01-26 01:15:12.99	44.92	25.55	-45.1	-55.9	3.8	7.41e-01	0	43	104	1572864	61	12748
2026-01-26 01:15:13.99	45.13	25.70	-45.8	-56.8	3.8	7.47e-01	0	43	104	1572864	62	13262
2026-01-26 01:15:15.01	45.35	25.85	-50.6	-62.6	3.8	7.43e-01	0	44	104	1572864	71	15425
2026-01-26 01:15:16.01	45.57	25.99	-48.3	-59.8	3.9	7.41e-01	0	43	104	1572864	67	14147
2026-01-26 01:15:17.02	45.79	26.14	-47.1	-58.2	3.8	7.45e-01	0	43	104	1572864	64	13939
2026-01-26 01:15:18.03	46.02	26.30	-51.4	-64.0	3.8	7.45e-01	0	43	104	1572864	73	16212
2026-01-26 01:15:19.04	46.25	26.45	-44.9	-55.6	3.8	7.46e-01	0	44	104	1572864	61	12327
2026-01-26 01:15:20.04	46.47	26.60	-44.7	-55.5	3.8	7.41e-01	0	44	104	1572864	61	12146
2026-01-26 01:15:21.05	46.70	26.75	-44.7	-55.6	3.8	7.43e-01	0	43	104	1572864	61	12242
2026-01-26 01:15:22.05	46.93	26.90	-47.0	-58.0	3.8	7.42e-01	0	43	104	1572864	64	13647
2026-01-26 01:15:23.06	47.17	27.05	-48.3	-59.8	3.8	7.41e-01	0	43	104	1572864	67	14138
2026-01-26 01:15:24.07	47.41	27.21	-50.5	-62.5	3.8	7.43e-01	0	44	104	1572864	71	15294
2026-01-26 01:15:25.08	47.65	27.36	-49.1	-60.6	3.8	7.42e-01	0	43	104	1572864	69	13860
2026-01-26 01:15:26.09	47.89	27.51	-51.3	-63.9	3.8	7.43e-01	0	43	104	1572864	73	16024
2026-01-26 01:15:27.09	48.13	27.67	-46.3	-57.2	3.8	7.47e-01	0	43	104	1572864	64	12464
2026-01-26 01:15:28.10	48.38	27.82	-46.2	-57.1	3.8	7.43e-01	0	44	104	1572864	64	12306
2026-01-26 01:15:29.11	48.63	27.98	-46.1	-57.0	3.8	7.45e-01	0	43	104	1572864	63	12918
2026-01-26 01:15:30.12	48.88	28.13	-45.0	-55.8	3.8	7.47e-01	0	43	104	1572864	62	11915
2026-01-26 01:15:31.13	49.14	28.29	-50.4	-62.6	3.8	7.43e-01	0	44	104	1572864	72	14623
2026-01-26 01:15:32.13	49.39	28.45	-47.2	-58.3	3.9	7.46e-01	0	43	104	1572864	66	12652
2026-01-26 01:15:33.14	49.65	28.60	-47.2	-58.3	3.8	7.44e-01	0	43	104	1572864	65	13326
2026-01-26 01:15:34.15	49.91	28.76	-50.2	-62.0	3.8	7.44e-01	0	43	104	1572864	71	14538
2026-01-26 01:15:35.16	50.18	28.92	-44.8	-55.6	3.8	7.48e-01	0	43	104	1572864	61	12278
2026-01-26 01:15:36.16	50.44	29.07	-44.8	-55.5	3.8	7.44e-01	0	44	104	1572864	61	12228
2026-01-26 01:15:37.17	50.71	29.23	-44.6	-55.4	3.8	7.41e-01	0	43	104	1572864	61	11961
2026-01-26 01:15:38.18	50.99	29.39	-47.1	-58.1	3.8	7.48e-01	0	43	104	1572864	65	12993
2026-01-26 01:15:39.19	51.26	29.55	-46.1	-57.1	3.8	7.45e-01	0	43	104	1572864	64	12270
2026-01-26 01:15:40.20	51.54	29.71	-50.2	-62.2	3.8	7.43e-01	0	44	104	1572864	72	14033
2026-01-26 01:15:41.21	51.82	29.87	-46.8	-57.8	3.8	7.43e-01	0	43	104	1572864	65	12529
2026-01-26 01:15:42.21	52.10	30.03	-49.7	-61.3	3.8	7.43e-01	0	43	104	1572864	71	13395
2026-01-26 01:15:43.22	52.39	30.19	-45.7	-56.5	3.8	7.45e-01	0	43	104	1572864	63	12216
2026-01-26 01:15:44.23	52.68	30.35	-45.4	-56.3	3.8	7.48e-01	0	43	104	1572864	62	12521
2026-01-26 01:15:45.24	52.97	30.51	-44.9	-55.5	3.8	7.45e-01	0	43	104	1572864	61	12189
2026-01-26 01:15:46.25	53.27	30.67	-45.0	-55.8	3.8	7.44e-01	0	44	104	1572864	61	12619
2026-01-26 01:15:47.26	53.57	30.83	-48.4	-59.4	3.8	7.46e-01	0	43	104	1572864	68	12802
2026-01-26 01:15:48.27	53.87	30.99	-47.7	-58.8	3.8	7.42e-01	0	43	104	1572864	67	12624
2026-01-26 01:15:49.28	54.17	31.15	-46.1	-57.0	3.9	7.46e-01	0	43	104	1572864	64	12207
2026-01-26 01:15:50.29	54.48	31.31	-49.3	-60.9	3.8	7.41e-01	0	43	104	1572864	70	13454
2026-01-26 01:15:51.30	54.79	31.47	-44.9	-55.8	3.8	7.44e-01	0	43	104	1572864	61	12589
2026-01-26 01:15:52.30	55.11	31.63	-45.0	-55.7	3.8	7.48e-01	0	43	104	1572864	61	12400
2026-01-26 01:15:53.31	55.42	31.79	-44.8	-55.6	3.8	7.46e-01	0	44	104	1572864	61	12246
2026-01-26 01:15:54.32	55.74	31.95	-47.6	-58.8	3.8	7.44e-01	0	43	104	1572864	67	12629
2026-01-26 01:15:55.33	56.07	32.11	-45.9	-56.7	3.8	7.43e-01	0	43	104	1572864	63	12379
2026-01-26 01:15:56.33	56.39	32.27	-49.1	-60.6	3.9	7.45e-01	0	43	104	1572864	70	12985
2026-01-26 01:15:57.34	56.72	32.43	-46.4	-57.5	3.8	7.46e-01	0	43	104	1572864	65	12131
2026-01-26 01:15:58.35	57.06	32.59	-49.8	-61.5	3.9	7.46e-01	0	43	104	1572864	71	13673
2026-01-26 01:15:59.36	57.39	32.75	-46.2	-57.1	3.8	7.44e-01	0	43	104	1572864	64	12356
2026-01-26 01:16:00.36	57.73	32.91	-45.8	-56.7	3.8	7.45e-01	0	43	104	1572864	63	12455
2026-01-26 01:16:01.37	58.07	33.07	-46.1	-56.9	3.8	7.45e-01	0	43	104	1572864	63	12716
2026-01-26 01:16:02.38	58.42	33.23	-48.8	-60.1	3.8	7.49e-01	0	43	104	1572864	69	13103
2026-01-26 01:16:03.38	58.77	33.39	-45.6	-56.5	3.9	7.45e-01	0	43	104	1572864	63	12161
2026-01-26 01:16:04.39	59.12	33.55	-46.8	-57.8	3.9	7.48e-01	0	44	104	1572864	65	12607
2026-01-26 01:16:05.39	59.48	33.71	-45.1	-56.0	3.8	7.43e-01	0	43	104	1572864	62	12110
2026-01-26 01:16:06.40	59.84	33.87	-47.8	-59.0	3.9	7.45e-01	0	44	104	1572864	67	12958
2026-01-26 01:16:07.41	60.20	34.03	-45.3	-56.0	3.8	7.43e-01	0	43	104	1572864	62	12158
2026-01-26 01:16:08.41	60.57	34.18	-45.1	-56.0	3.8	7.43e-01	0	44	104	1572864	62	12125
2026-01-26 01:16:09.42	60.94	34.34	-46.1	-56.9	3.8	7.44e-01	0	44	104	1572864	62	13531
2026-01-26 01:16:10.43	61.32	34.50	-47.4	-58.6	3.8	7.42e-01	0	43	104	1572864	67	12352
2026-01-26 01:16:11.44	61.70	34.66	-45.2	-56.1	3.9	7.46e-01	0	43	104	1572864	62	12350
2026-01-26 01:16:12.45	62.08	34.81	-48.0	-59.0	3.8	7.44e-01	0	44	104	1572864	67	12908
2026-01-26 01:16:13.46	62.47	34.97	-45.1	-55.9	3.9	7.50e-01	0	43	104	1572864	62	12006
2026-01-26 01:16:14.47	62.86	35.12	-48.1	-59.4	3.8	7.41e-01	0	43	104	1572864	68	12785
2026-01-26 01:16:15.48	63.25	35.28	-45.4	-56.2	3.8	7.46e-01	0	43	104	1572864	62	12467
2026-01-26 01:16:16.48	63.65	35.43	-44.8	-55.5	3.9	7.42e-01	0	43	104	1572864	61	12106
2026-01-26 01:16:17.49	64.05	35.58	-45.8	-56.8	3.8	7.44e-01	0	43	104	1572864	62	13398
2026-01-26 01:16:18.50	64.46	35.74	-46.9	-48.4	22.3	6.01e-01	0	43	104	1572864	65	4249
2026-01-26 01:16:19.51	64.87	35.89	-44.9	-46.2	25.5	6.04e-01	0	43	0	3145728	61	4148
2026-01-26 01:16:20.52	65.28	36.04	-47.1	-48.6	23.2	6.05e-01	0	43	0	5242880	66	4106
2026-01-26 01:16:21.53	65.70	36.19	-44.7	-45.9	25.9	6.04e-01	0	43	0	6815744	61	4032
2026-01-26 01:16:22.54	66.12	36.34	-46.5	-48.0	23.3	6.03e-01	0	44	0	8912896	65	4054
2026-01-26 01:16:23.55	66.54	36.48	-45.0	-46.2	25.5	6.03e-01	0	44	0	11010048	62	3958
2026-01-26 01:16:24.55	66.97	36.63	-45.3	-46.5	25.1	6.03e-01	0	43	0	12582912	61	4339
2026-01-26 01:16:25.56	67.40	36.78	-45.0	-46.2	25.4	6.03e-01	0	43	0	14680064	61	4170
2026-01-26 01:16:26.57	67.84	36.92	-44.7	-45.9	25.9	6.01e-01	0	43	0	16252928	61	4014
2026-01-26 01:16:27.58	68.28	37.07	-44.6	-45.8	25.9	6.02e-01	0	43	0	18350080	61	3963
2026-01-26 01:16:28.59	68.73	37.21	-44.8	-46.0	25.8	6.02e-01	0	43	0	20447232	61	4074
2026-01-26 01:16:29.60	69.17	37.35	-44.6	-45.8	25.9	6.02e-01	0	43	0	22020096	61	3989
2026-01-26 01:16:30.61	69.63	37.49	-44.6	-45.8	25.9	6.03e-01	0	43	0	24117248	61	3983
2026-01-26 01:16:31.61	70.08	37.63	-44.5	-45.7	26.0	6.02e-01	0	43	0	26214400	61	3943
2026-01-26 01:16:32.62	70.54	37.76	-44.7	-45.9	25.8	6.03e-01	0	43	0	27787264	61	4025
2026-01-26 01:16:33.63	71.01	37.90	-44.7	-45.9	25.9	6.02e-01	0	43	0	29884416	61	4031
2026-01-26 01:16:34.63	71.47	38.03	-44.7	-45.9	25.9	6.03e-01	0	44	0	31457280	61	4021
2026-01-26 01:16:35.64	71.94	38.17	-44.8	-46.0	25.8	6.02e-01	0	44	0	33554432	61	4065
2026-01-26 01:16:36.65	72.42	38.30	-44.6	-45.8	26.1	6.01e-01	0	43	0	35127296	61	3962
2026-01-26 01:16:37.65	72.89	38.43	-44.6	-45.8	26.0	6.03e-01	0	43	0	37224448	61	3983
2026-01-26 01:16:38.66	73.38	38.55	-44.7	-45.9	25.9	6.04e-01	0	43	0	39321600	61	4008
2026-01-26 01:16:39.67	73.87	38.68	-44.5	-45.7	26.1	6.04e-01	0	43	0	40894464	61	3945
2026-01-26 01:16:40.68	74.36	38.81	-44.2	-45.4	26.4	6.00e-01	0	43	0	42991616	60	4010
2026-01-26 01:16:41.68	74.85	38.93	-44.3	-45.5	26.3	6.04e-01	0	43	0	45088768	60	4061
2026-01-26 01:16:42.69	75.35	39.05	-44.5	-45.7	26.2	6.05e-01	0	44	0	46661632	60	4164
2026-01-26 01:16:43.70	75.85	39.17	-44.6	-45.8	26.0	6.03e-01	0	43	0	48758784	60	4211
2026-01-26 01:16:44.71	76.36	39.28	-44.4	-45.6	26.2	6.00e-01	0	43	0	50331648	60	4116
2026-01-26 01:16:45.71	76.86	39.40	-44.7	-45.9	26.0	6.01e-01	0	43	0	52428800	60	4255
2026-01-26 01:16:46.72	77.38	39.51	-44.6	-45.8	26.0	6.04e-01	0	43	0	54525952	60	4211
2026-01-26 01:16:47.73	77.89	39.62	-44.6	-45.8	26.0	6.00e-01	0	43	0	56098816	60	4220
2026-01-26 01:16:48.74	78.42	39.73	-44.5	-45.6	26.1	6.03e-01	0	43	0	58195968	60	4143
2026-01-26 01:16:49.74	78.94	39.83	-44.3	-45.5	26.3	6.02e-01	0	43	0	59768832	60	4057
2026-01-26 01:16:50.75	79.46	39.94	-44.4	-45.5	26.2	6.01e-01	0	43	0	61865984	60	4082
2026-01-26 01:16:51.75	79.99	40.04	-44.3	-45.4	26.4	6.03e-01	0	44	0	63438848	60	4037
2026-01-26 01:16:52.76	80.52	40.14	-44.5	-45.6	26.2	6.00e-01	0	43	0	65536000	60	4140
2026-01-26 01:16:53.76	81.06	40.23	-44.3	-45.4	26.3	6.05e-01	0	43	0	67633152	60	4047
2026-01-26 01:16:54.77	81.60	40.33	-44.2	-45.3	26.5	6.02e-01	0	43	0	69206016	60	3980
2026-01-26 01:16:55.77	82.14	40.42	-44.5	-45.7	26.0	6.02e-01	0	43	0	71303168	60	4154
2026-01-26 01:16:56.78	82.69	40.51	-44.3	-45.5	26.3	6.03e-01	0	43	0	72876032	60	4052
2026-01-26 01:16:57.79	83.24	40.60	-44.1	-45.2	26.4	6.04e-01	0	43	0	74973184	60	3937
2026-01-26 01:16:58.79	83.78	40.68	-44.0	-45.1	26.5	6.02e-01	0	43	0	77070336	59	4144
2026-01-26 01:16:59.79	84.33	40.76	-44.1	-45.2	26.4	6.02e-01	0	43	0	78643200	59	4183
2026-01-26 01:17:00.79	84.89	40.84	-44.1	-45.2	26.4	6.02e-01	0	43	0	80740352	59	4176
2026-01-26 01:17:01.80	85.45	40.91	-44.1	-45.3	26.3	6.03e-01	0	43	0	82837504	59	4200
2026-01-26 01:17:02.81	86.01	40.99	-44.1	-45.3	26.3	6.02e-01	0	43	0	84410368	59	4204
2026-01-26 01:17:03.82	86.58	41.06	-44.1	-45.3	26.4	6.05e-01	0	43	0	86507520	59	4199
2026-01-26 01:17:04.82	87.14	41.12	-43.9	-45.1	26.5	6.03e-01	0	43	0	88080384	59	4100
2026-01-26 01:17:05.83	87.72	41.19	-44.3	-45.5	26.2	6.01e-01	0	43	0	90177536	59	4310
2026-01-26 01:17:06.84	88.29	41.25	-44.1	-45.3	26.2	6.02e-01	0	43	0	91750400	59	4218
2026-01-26 01:17:07.85	88.87	41.31	-44.0	-45.1	26.5	6.02e-01	0	43	0	93847552	59	4118
2026-01-26 01:17:08.85	89.44	41.36	-44.2	-45.4	26.3	6.03e-01	0	44	0	95944704	59	4261
2026-01-26 01:17:09.85	90.01	41.41	-44.1	-45.3	26.3	6.02e-01	0	43	0	97517568	59	4214
2026-01-26 01:17:10.86	90.60	41.46	-44.1	-45.3	26.3	6.03e-01	0	43	0	99614720	59	4200
2026-01-26 01:17:11.86	91.17	41.51	-44.1	-45.3	26.2	6.02e-01	0	43	0	101187584	59	4211
2026-01-26 01:17:12.87	91.76	41.55	-44.1	-45.2	26.4	6.03e-01	0	43	0	103284736	59	4193
2026-01-26 01:17:13.87	92.34	41.59	-44.1	-45.3	26.3	6.03e-01	0	43	0	104857600	59	4217
2026-01-26 01:17:14.88	92.93	41.63	-44.1	-45.3	26.3	6.02e-01	0	43	0	106954752	59	4208
2026-01-26 01:17:15.89	93.52	41.66	-44.2	-45.4	26.3	6.04e-01	0	43	0	109051904	59	4244
2026-01-26 01:17:16.90	94.11	41.69	-44.1	-45.2	26.4	6.02e-01	0	43	0	111149056	59	4182
2026-01-26 01:17:17.90	94.69	41.72	-44.4	-45.6	26.0	6.03e-01	0	43	0	112721920	59	4362
2026-01-26 01:17:18.91	95.29	41.74	-44.2	-45.3	26.3	6.05e-01	0	43	0	114819072	59	4230
2026-01-26 01:17:19.92	95.88	41.76	-44.2	-45.3	26.3	6.02e-01	0	43	0	116391936	59	4222
2026-01-26 01:17:20.93	96.47	41.78	-44.1	-45.2	26.4	6.01e-01	0	43	0	118489088	59	4170
2026-01-26 01:17:21.93	97.06	41.79	-44.1	-45.3	26.3	6.02e-01	0	43	0	120061952	59	4215
2026-01-26 01:17:22.94	97.66	41.80	-44.2	-45.4	26.2	6.01e-01	0	43	0	122159104	59	4243
2026-01-26 01:17:23.94	98.25	41.81	-44.0	-45.2	26.4	6.04e-01	0	43	0	124256256	59	4148
2026-01-26 01:17:24.95	98.84	41.81	-44.0	-45.2	26.5	6.04e-01	0	44	0	125829120	59	4155
2026-01-26 01:17:25.96	99.44	41.81	-44.2	-45.4	26.2	6.00e-01	0	43	0	127926272	59	4244
2026-01-26 01:17:26.97	100.04	41.81	-44.4	-45.5	26.1	6.04e-01	0	43	0	129499136	59	4337
2026-01-26 01:17:27.97	100.63	41.80	-44.0	-45.1	26.4	6.04e-01	0	43	0	131596288	59	4143
2026-01-26 01:17:28.98	101.22	41.79	-44.1	-45.3	26.4	6.01e-01	0	43	0	133169152	59	4194
2026-01-26 01:17:29.99	101.82	41.78	-44.3	-45.5	26.1	6.01e-01	0	44	0	135266304	59	4319
2026-01-26 01:17:31.00	102.41	41.76	-44.2	-45.3	26.2	6.02e-01	0	43	0	137363456	59	4227
2026-01-26 01:17:32.01	103.00	41.74	-44.2	-45.3	26.3	6.01e-01	0	43	0	139460608	59	4229
2026-01-26 01:17:33.01	103.59	41.72	-44.2	-45.3	26.3	6.02e-01	0	43	0	141033472	59	4221
2026-01-26 01:17:34.02	104.18	41.69	-44.3	-45.4	26.2	6.05e-01	0	43	0	143130624	59	4262
2026-01-26 01:17:35.03	104.77	41.66	-44.7	-45.9	26.0	6.01e-01	0	44	0	144703488	60	4262
2026-01-26 01:17:36.04	105.36	41.63	-44.1	-45.2	26.5	6.03e-01	0	43	0	146800640	60	3937
2026-01-26 01:17:37.05	105.95	41.59	-44.2	-45.3	26.4	6.04e-01	0	43	0	148373504	59	4223
2026-01-26 01:17:38.05	106.53	41.55	-44.3	-45.5	26.1	6.01e-01	0	44	0	150470656	59	4311
2026-01-26 01:17:39.06	107.12	41.51	-44.3	-45.5	26.0	6.02e-01	0	43	0	152567808	59	4311
2026-01-26 01:17:40.06	107.70	41.46	-44.6	-45.8	25.9	6.02e-01	0	43	0	154140672	59	4444
2026-01-26 01:17:41.07	108.28	41.42	-44.6	-45.7	25.9	6.04e-01	0	43	0	156237824	59	4441
2026-01-26 01:17:42.08	108.86	41.36	-44.4	-45.6	24.0	6.02e-01	0	43	0	158334976	59	4361
2026-01-26 01:17:43.08	109.43	41.31	-44.4	-45.6	26.0	5.99e-01	0	43	0	159907840	59	4368
2026-01-26 01:17:44.09	110.01	41.25	-44.6	-45.7	25.8	6.03e-01	0	44	0	162004992	59	4438
2026-01-26 01:17:45.09	110.58	41.19	-44.2	-45.4	26.2	6.02e-01	0	43	0	163577856	59	4262
2026-01-26 01:17:46.10	111.15	41.12	-44.5	-45.7	26.0	6.01e-01	0	43	0	165675008	59	4393
2026-01-26 01:17:47.11	111.72	41.06	-44.4	-45.6	26.1	6.02e-01	0	44	0	167772160	59	4354
2026-01-26 01:17:48.12	112.29	40.99	-44.4	-45.6	26.0	6.02e-01	0	43	0	169345024	59	4359
2026-01-26 01:17:49.12	112.85	40.91	-44.4	-45.5	26.1	6.00e-01	0	44	0	171442176	59	4328
2026-01-26 01:17:50.13	113.41	40.84	-44.4	-45.6	26.0	6.02e-01	0	43	0	173015040	59	4347
2026-01-26 01:17:51.14	113.97	40.76	-44.6	-45.8	25.9	6.04e-01	0	43	0	175112192	59	4467
2026-01-26 01:17:52.14	114.52	40.68	-44.6	-45.7	25.9	6.03e-01	0	43	0	176685056	59	4439
2026-01-26 01:17:53.15	115.08	40.59	-44.5	-45.6	26.0	6.03e-01	0	43	0	178782208	59	4378
2026-01-26 01:17:54.16	115.63	40.51	-44.4	-45.5	26.0	6.03e-01	0	44	0	180879360	59	4336
2026-01-26 01:17:55.17	116.18	40.42	-44.4	-45.6	26.0	6.02e-01	0	43	0	182452224	59	4361
2026-01-26 01:17:56.18	116.72	40.33	-44.5	-45.7	25.9	6.03e-01	0	43	0	184549376	59	4435
2026-01-26 01:17:57.18	117.26	40.23	-44.5	-45.7	26.0	6.00e-01	0	43	0	186646528	59	4405
2026-01-26 01:17:58.19	117.80	40.14	-44.6	-45.7	25.9	6.02e-01	0	43	0	188219392	59	4432
2026-01-26 01:17:59.20	118.33	40.04	-44.7	-45.9	25.8	6.01e-01	0	43	0	190316544	60	4277
2026-01-26 01:18:00.21	118.87	39.93	-44.7	-45.9	25.8	6.01e-01	0	43	0	191889408	60	4273
2026-01-26 01:18:01.21	119.39	39.83	-44.6	-45.7	26.0	6.02e-01	0	43	0	193986560	60	4191
2026-01-26 01:18:02.23	119.92	39.72	-44.4	-45.6	26.1	6.07e-01	0	43	0	196083712	60	4131
2026-01-26 01:18:03.23	120.44	39.61	-44.3	-45.5	26.2	6.02e-01	0	43	0	197656576	60	4071
2026-01-26 01:18:04.24	120.95	39.50	-44.4	-45.6	26.1	6.01e-01	0	43	0	199753728	60	4121
2026-01-26 01:18:05.25	121.47	39.39	-44.5	-45.7	26.0	6.02e-01	0	43	0	201326592	60	4168
2026-01-26 01:18:06.26	121.98	39.28	-44.6	-45.8	25.9	6.01e-01	0	43	0	203423744	60	4211
2026-01-26 01:18:07.27	122.49	39.16	-44.5	-45.7	26.0	6.01e-01	0	43	0	204996608	60	4157
2026-01-26 01:18:08.27	122.99	39.04	-44.4	-45.6	26.2	6.02e-01	0	43	0	207093760	60	4099
2026-01-26 01:18:09.28	123.49	38.92	-44.4	-45.5	26.2	6.03e-01	0	43	0	209190912	60	4092
2026-01-26 01:18:10.29	123.98	38.80	-44.6	-45.8	25.9	6.01e-01	0	43	0	210763776	60	4203
2026-01-26 01:18:11.30	124.48	38.67	-44.4	-45.5	26.1	6.05e-01	0	44	0	212860928	60	4076
2026-01-26 01:18:12.31	124.96	38.54	-44.5	-45.6	26.1	6.03e-01	0	43	0	214958080	60	4132
2026-01-26 01:18:13.31	125.45	38.42	-44.4	-45.6	26.2	6.04e-01	0	43	0	216530944	60	4116
2026-01-26 01:18:14.32	125.93	38.29	-44.5	-45.6	26.1	6.01e-01	0	43	0	218628096	60	4133
2026-01-26 01:18:15.33	126.40	38.15	-44.4	-45.6	26.1	6.04e-01	0	43	0	220200960	60	4111
2026-01-26 01:18:16.33	126.87	38.02	-44.3	-45.5	26.2	6.01e-01	0	44	0	222298112	60	4071
2026-01-26 01:18:17.34	127.34	37.89	-44.4	-45.5	26.2	6.02e-01	0	43	0	224395264	60	4094
2026-01-26 01:18:18.35	127.81	37.75	-44.4	-45.6	26.0	6.04e-01	0	43	0	225968128	60	4140
2026-01-26 01:18:19.36	128.27	37.61	-44.3	-45.5	26.2	6.00e-01	0	43	0	228065280	60	4066
2026-01-26 01:18:20.36	128.72	37.47	-44.3	-45.4	26.3	6.03e-01	0	43	0	229638144	60	4041
2026-01-26 01:18:21.37	129.18	37.33	-44.2	-45.3	26.4	6.01e-01	0	43	0	231735296	60	3986
2026-01-26 01:18:22.37	129.62	37.19	-44.1	-45.2	26.5	5.99e-01	0	43	0	233308160	60	3958
2026-01-26 01:18:23.38	130.07	37.05	-44.3	-45.5	26.3	6.02e-01	0	43	0	235405312	60	4052
2026-01-26 01:18:24.39	130.51	36.91	-44.3	-45.5	26.2	6.03e-01	0	43	0	237502464	60	4070
2026-01-26 01:18:25.39	130.94	36.76	-44.0	-45.2	26.4	6.00e-01	0	43	0	239075328	60	3926
2026-01-26 01:18:26.40	131.38	36.62	-44.1	-45.2	26.3	6.04e-01	0	43	0	241172480	59	4168
2026-01-26 01:18:27.41	131.81	36.47	-44.0	-45.2	26.4	6.03e-01	0	43	0	243269632	59	4148
2026-01-26 01:18:28.42	132.23	36.32	-44.1	-45.2	26.4	6.04e-01	0	43	0	244842496	59	4170
2026-01-26 01:18:29.43	132.66	36.17	-44.2	-45.3	26.1	6.02e-01	0	43	0	246939648	59	4239
2026-01-26 01:18:30.44	133.07	36.02	-44.1	-45.3	26.3	6.02e-01	0	43	0	248512512	59	4197
2026-01-26 01:18:31.45	133.49	35.87	-43.9	-45.0	26.5	6.02e-01	0	44	0	250609664	59	4079
2026-01-26 01:18:32.45	133.90	35.72	-44.1	-45.3	26.2	6.04e-01	0	44	0	252706816	59	4197
2026-01-26 01:18:33.46	134.30	35.56	-43.9	-45.0	26.6	6.04e-01	0	44	0	254279680	59	4060
2026-01-26 01:18:34.47	134.71	35.41	-43.9	-45.1	26.5	6.03e-01	0	43	0	256376832	59	4103
2026-01-26 01:18:35.48	135.10	35.26	-43.6	-44.7	26.8	6.02e-01	0	43	0	257949696	59	3951
2026-01-26 01:18:36.49	135.50	35.10	-43.6	-44.7	26.8	6.02e-01	0	43	0	260046848	59	3950
2026-01-26 01:18:37.49	135.89	34.95	-43.5	-44.6	26.9	6.03e-01	0	43	0	262144000	59	3877
2026-01-26 01:18:38.50	136.28	34.79	-43.5	-44.6	26.9	6.01e-01	0	43	0	263716864	58	4123
2026-01-26 01:18:39.51	136.66	34.63	-43.5	-44.6	26.8	6.01e-01	0	43	0	265814016	58	4119
2026-01-26 01:18:40.51	137.04	34.48	-43.4	-44.5	26.9	6.03e-01	0	43	0	267386880	58	4067
2026-01-26 01:18:41.52	137.41	34.32	-43.3	-44.4	27.0	6.02e-01	0	44	0	269484032	58	4018
2026-01-26 01:18:42.53	137.79	34.16	-43.3	-44.4	27.1	6.03e-01	0	43	0	271581184	58	4011
2026-01-26 01:18:43.53	138.15	34.00	-43.3	-44.3	27.1	6.02e-01	0	43	0	273154048	58	4004
2026-01-26 01:18:44.54	138.52	33.84	-43.3	-44.4	27.1	6.02e-01	0	43	0	275251200	58	4023
2026-01-26 01:18:45.55	138.88	33.68	-43.3	-44.4	26.9	6.02e-01	0	43	0	276824064	58	4012
2026-01-26 01:18:46.56	139.24	33.52	-43.1	-44.2	27.1	6.02e-01	0	43	0	278921216	58	3916
2026-01-26 01:18:47.57	139.59	33.36	-42.9	-43.9	27.3	6.02e-01	0	43	0	281018368	57	4041
2026-01-26 01:18:48.57	139.94	33.20	-43.0	-44.1	27.3	6.04e-01	0	43	0	282591232	57	4102
2026-01-26 01:18:49.58	140.29	33.04	-43.1	-44.1	27.3	6.04e-01	0	43	0	284688384	57	4142
2026-01-26 01:18:50.59	140.63	32.88	-43.0	-44.1	27.3	6.02e-01	0	43	0	286785536	57	4119
2026-01-26 01:18:51.59	140.97	32.72	-43.0	-44.1	27.3	6.02e-01	0	43	0	288358400	57	4118
2026-01-26 01:18:52.60	141.31	32.56	-43.1	-44.1	27.2	6.02e-01	0	43	0	290455552	57	4141
2026-01-26 01:18:53.61	141.64	32.40	-43.0	-44.1	27.3	6.02e-01	0	43	0	292028416	57	4101
2026-01-26 01:18:54.62	141.98	32.24	-42.9	-43.9	27.4	6.04e-01	0	44	0	294125568	57	4045
2026-01-26 01:18:55.62	142.30	32.08	-42.6	-43.7	27.5	6.01e-01	0	43	0	295698432	57	3919
2026-01-26 01:18:56.63	142.62	31.92	-42.5	-43.5	27.7	6.02e-01	0	43	0	297795584	57	3868
2026-01-26 01:18:57.64	142.95	31.75	-42.8	-43.9	27.4	6.03e-01	0	44	0	299892736	57	4006
2026-01-26 01:18:58.64	143.26	31.59	-43.0	-44.1	27.3	6.03e-01	0	43	0	301465600	57	4103
2026-01-26 01:18:59.65	143.58	31.43	-42.9	-44.0	27.3	6.01e-01	0	43	0	303562752	57	4064
2026-01-26 01:19:00.66	143.89	31.27	-43.0	-44.1	27.2	6.01e-01	0	43	0	305135616	57	4121
2026-01-26 01:19:01.67	144.20	31.11	-42.7	-43.7	27.5	6.03e-01	0	43	0	307232768	57	3945
2026-01-26 01:19:02.68	144.50	30.95	-42.6	-43.7	27.6	6.02e-01	0	43	0	309329920	57	3932
2026-01-26 01:19:03.69	144.80	30.79	-42.8	-43.8	27.4	6.02e-01	0	43	0	310902784	57	3999
2026-01-26 01:19:04.69	145.10	30.63	-42.9	-44.0	27.3	6.03e-01	0	43	0	312999936	57	4080
2026-01-26 01:19:05.70	145.40	30.47	-42.9	-44.0	27.2	6.00e-01	0	43	0	315097088	57	4086
2026-01-26 01:19:06.70	145.69	30.31	-43.0	-44.0	27.2	6.02e-01	0	43	0	316669952	57	4093
2026-01-26 01:19:07.71	145.98	30.15	-42.9	-44.0	27.3	6.03e-01	0	43	0	318767104	57	4075
2026-01-26 01:19:08.72	146.27	29.99	-43.1	-44.1	27.2	6.03e-01	0	43	0	320339968	57	4144
2026-01-26 01:19:09.72	146.55	29.83	-43.0	-44.1	27.2	6.02e-01	0	43	0	322437120	57	4107
2026-01-26 01:19:10.73	146.83	29.67	-42.9	-44.0	27.3	6.03e-01	0	43	0	324009984	57	4055
2026-01-26 01:19:11.73	147.11	29.51	-42.9	-44.0	27.3	6.00e-01	0	43	0	326107136	57	4063
2026-01-26 01:19:12.74	147.38	29.35	-43.0	-44.0	27.2	6.02e-01	0	43	0	328204288	57	4097
2026-01-26 01:19:13.75	147.66	29.19	-43.0	-44.1	27.2	6.02e-01	0	43	0	329777152	57	4100
2026-01-26 01:19:14.76	147.93	29.03	-43.0	-44.0	27.2	6.02e-01	0	43	0	331874304	57	4098
2026-01-26 01:19:15.76	148.19	28.87	-43.0	-44.1	27.1	6.02e-01	0	43	0	333447168	57	4131
2026-01-26 01:19:16.77	148.46	28.72	-43.2	-44.3	27.0	6.00e-01	0	43	0	335544320	57	4202
2026-01-26 01:19:17.78	148.72	28.56	-43.2	-44.3	27.0	6.02e-01	0	43	0	337641472	57	4238
2026-01-26 01:19:18.78	148.98	28.40	-43.3	-44.4	26.9	6.02e-01	0	43	0	339214336	57	4255
2026-01-26 01:19:19.79	149.24	28.24	-43.2	-44.3	26.9	6.01e-01	0	44	0	341311488	57	4241
2026-01-26 01:19:20.80	149.49	28.09	-43.3	-44.4	26.9	6.01e-01	0	43	0	343408640	57	4274
2026-01-26 01:19:21.81	149.74	27.93	-43.3	-44.4	26.8	6.02e-01	0	44	0	344981504	57	4290
2026-01-26 01:19:22.81	149.99	27.78	-43.4	-44.5	26.8	6.01e-01	0	43	0	347078656	57	4304
2026-01-26 01:19:23.82	150.24	27.62	-43.3	-44.3	26.9	6.02e-01	0	43	0	348651520	57	4238
2026-01-26 01:19:24.83	150.49	27.46	-43.3	-44.3	26.9	6.02e-01	0	43	0	350748672	57	4240
2026-01-26 01:19:25.83	150.73	27.31	-43.3	-44.3	26.9	6.02e-01	0	43	0	352321536	57	4238
2026-01-26 01:19:26.84	150.97	27.16	-43.4	-44.5	26.8	6.03e-01	0	43	0	354418688	57	4317
2026-01-26 01:19:27.85	151.20	27.00	-43.5	-44.6	26.7	6.03e-01	0	43	0	356515840	57	4358
2026-01-26 01:19:28.86	151.44	26.85	-43.6	-44.7	26.5	6.03e-01	0	43	0	358088704	57	4438
2026-01-26 01:19:29.87	151.67	26.69	-43.6	-44.8	26.5	6.02e-01	0	43	0	360185856	57	4456
2026-01-26 01:19:30.88	151.91	26.54	-43.6	-44.7	26.5	6.02e-01	0	43	0	361758720	57	4440
2026-01-26 01:19:31.88	152.13	26.39	-43.6	-44.7	26.5	6.01e-01	0	43	0	363855872	57	4416
2026-01-26 01:19:32.89	152.36	26.24	-43.7	-44.8	26.5	6.01e-01	0	43	0	365953024	57	4459
2026-01-26 01:19:33.89	152.58	26.09	-43.5	-44.6	26.6	6.01e-01	0	43	0	367525888	57	4348
2026-01-26 01:19:34.90	152.80	25.94	-43.4	-44.5	26.7	6.02e-01	0	43	0	369623040	57	4325
2026-01-26 01:19:35.91	153.02	25.79	-43.4	-44.5	26.7	6.01e-01	0	43	0	371720192	57	4330
2026-01-26 01:19:36.91	153.24	25.64	-43.5	-44.6	26.6	6.03e-01	0	43	0	373293056	57	4381
2026-01-26 01:19:37.92	153.46	25.49	-43.7	-44.8	26.5	6.03e-01	0	43	0	375390208	57	4467
2026-01-26 01:19:38.93	153.67	25.34	-43.8	-45.0	26.3	6.04e-01	0	43	0	376963072	58	4317
2026-01-26 01:19:39.94	153.88	25.19	-43.9	-45.0	26.2	6.03e-01	0	43	0	379060224	58	4338
2026-01-26 01:19:40.95	154.09	25.04	-44.0	-45.1	26.0	6.04e-01	0	43	0	380633088	58	4383
2026-01-26 01:19:41.96	154.30	24.90	-44.0	-45.2	26.1	6.05e-01	0	43	0	382730240	58	4395
2026-01-26 01:19:42.96	154.50	24.75	-44.0	-45.2	26.1	6.01e-01	0	43	0	384827392	58	4406
2026-01-26 01:19:43.97	154.71	24.61	-43.8	-45.0	26.2	6.03e-01	0	43	0	386400256	58	4314
2026-01-26 01:19:44.98	154.91	24.46	-43.8	-44.9	26.3	6.03e-01	0	43	0	388497408	58	4291
2026-01-26 01:19:45.99	155.11	24.31	-43.7	-44.8	26.4	6.04e-01	0	43	0	390594560	58	4223
2026-01-26 01:19:47.00	155.31	24.17	-43.7	-44.8	26.4	6.00e-01	0	43	0	392167424	58	4231
2026-01-26 01:19:48.01	155.51	24.02	-43.7	-44.9	26.4	6.02e-01	0	44	0	394264576	58	4252
2026-01-26 01:19:49.01	155.70	23.88	-43.7	-44.9	26.4	6.05e-01	0	43	0	395837440	58	4256
2026-01-26 01:19:50.02	155.89	23.74	-43.8	-44.9	25.1	6.01e-01	0	43	0	397934592	58	4277
2026-01-26 01:19:51.03	156.08	23.60	-43.8	-44.9	26.3	6.04e-01	0	43	0	400031744	58	4279
2026-01-26 01:19:52.03	156.27	23.46	-43.6	-44.7	26.5	6.00e-01	0	43	0	401604608	58	4192
2026-01-26 01:19:53.04	156.46	23.31	-43.6	-44.7	26.5	6.02e-01	0	43	0	403701760	58	4156
2026-01-26 01:19:54.05	156.65	23.17	-43.7	-44.8	26.3	6.03e-01	0	43	0	405274624	58	4239
2026-01-26 01:19:55.05	156.83	23.03	-43.8	-44.9	26.2	6.03e-01	0	43	0	407371776	58	4289
2026-01-26 01:19:56.06	157.01	22.89	-43.9	-45.0	26.2	6.04e-01	0	43	0	408944640	58	4319
2026-01-26 01:19:57.07	157.19	22.75	-43.9	-45.1	26.1	6.02e-01	0	43	0	411041792	58	4355
2026-01-26 01:19:58.08	157.37	22.62	-44.0	-45.2	26.0	6.04e-01	0	43	0	413138944	58	4398
2026-01-26 01:19:59.09	157.55	22.48	-43.9	-45.1	26.1	6.01e-01	0	44	0	415236096	58	4356
2026-01-26 01:20:00.09	157.72	22.34	-43.8	-45.0	26.2	6.03e-01	0	43	0	416808960	58	4315
2026-01-26 01:20:01.10	157.90	22.20	-43.9	-45.1	26.2	6.01e-01	0	44	0	418906112	58	4354
2026-01-26 01:20:02.10	158.07	22.07	-43.8	-45.0	26.2	6.01e-01	0	43	0	420478976	58	4306
2026-01-26 01:20:03.11	158.24	21.93	-43.9	-45.1	26.1	6.04e-01	0	43	0	422576128	58	4354
2026-01-26 01:20:04.12	158.41	21.80	-43.7	-44.9	26.3	6.01e-01	0	43	0	424148992	58	4263
2026-01-26 01:20:05.12	158.58	21.66	-43.8	-44.9	26.3	6.04e-01	0	43	0	426246144	58	4262
2026-01-26 01:20:06.13	158.75	21.53	-43.7	-44.8	25.5	6.02e-01	0	43	0	428343296	58	4218
2026-01-26 01:20:07.14	158.91	21.39	-43.6	-44.7	26.4	6.04e-01	0	43	0	429916160	58	4187
2026-01-26 01:20:08.14	159.07	21.26	-43.6	-44.7	26.5	6.03e-01	0	43	0	432013312	58	4164
2026-01-26 01:20:09.15	159.24	21.13	-43.7	-44.8	26.4	6.03e-01	0	43	0	433586176	58	4222
2026-01-26 01:20:10.16	159.40	21.00	-43.6	-44.8	26.4	6.03e-01	0	43	0	435683328	58	4194
2026-01-26 01:20:11.17	159.56	20.87	-43.6	-44.8	26.4	6.03e-01	0	43	0	437256192	58	4201
2026-01-26 01:20:12.18	159.72	20.73	-43.6	-44.8	26.4	6.01e-01	0	43	0	439353344	58	4198
2026-01-26 01:20:13.19	159.87	20.60	-43.7	-44.8	26.2	6.03e-01	0	43	0	441450496	58	4229
2026-01-26 01:20:14.19	160.03	20.47	-43.6	-44.8	26.3	6.01e-01	0	43	0	443547648	58	4209
2026-01-26 01:20:15.20	160.18	20.34	-43.6	-44.7	26.4	6.03e-01	0	43	0	445120512	58	4180
2026-01-26 01:20:16.20	160.33	20.22	-43.6	-44.8	26.3	6.00e-01	0	43	0	447217664	58	4206
2026-01-26 01:20:17.21	160.49	20.09	-43.7	-44.8	26.3	6.02e-01	0	44	0	448790528	58	4237
2026-01-26 01:20:18.22	160.64	19.96	-43.6	-44.7	26.4	6.03e-01	0	43	0	450887680	58	4181
2026-01-26 01:20:19.23	160.78	19.83	-43.5	-44.7	26.4	6.03e-01	0	43	0	452460544	58	4154
2026-01-26 01:20:20.24	160.93	19.71	-43.6	-44.8	26.3	6.02e-01	0	44	0	454557696	58	4195
2026-01-26 01:20:21.24	161.08	19.58	-43.6	-44.7	26.4	6.02e-01	0	43	0	456654848	58	4165
2026-01-26 01:20:22.25	161.22	19.45	-43.6	-44.8	26.4	6.02e-01	0	44	0	458227712	58	4199
2026-01-26 01:20:23.26	161.37	19.33	-43.6	-44.7	26.4	6.03e-01	0	43	0	460324864	58	4186
2026-01-26 01:20:24.27	161.51	19.20	-43.6	-44.7	26.4	6.01e-01	0	43	0	461897728	58	4168
2026-01-26 01:20:25.28	161.65	19.08	-43.6	-44.7	26.4	6.01e-01	0	43	0	463994880	58	4175
2026-01-26 01:20:26.28	161.79	18.96	-43.6	-44.7	26.4	6.05e-01	0	43	0	466092032	58	4170
2026-01-26 01:20:27.29	161.93	18.83	-43.6	-44.7	26.3	6.04e-01	0	43	0	467664896	58	4184
2026-01-26 01:20:28.30	162.07	18.71	-43.6	-44.7	26.4	6.02e-01	0	43	0	469762048	58	4178
2026-01-26 01:20:29.31	162.21	18.59	-43.5	-44.7	26.4	6.00e-01	0	44	0	471859200	58	4146
2026-01-26 01:20:30.32	162.34	18.47	-43.5	-44.6	26.4	6.01e-01	0	43	0	473432064	58	4134
2026-01-26 01:20:31.32	162.48	18.35	-43.6	-44.8	26.3	6.04e-01	0	44	0	475529216	58	4201
2026-01-26 01:20:32.33	162.61	18.23	-43.5	-44.7	26.3	6.02e-01	0	43	0	477102080	58	4164
2026-01-26 01:20:33.34	162.75	18.11	-43.6	-44.7	26.3	6.01e-01	0	43	0	479199232	58	4187
2026-01-26 01:20:34.34	162.88	17.99	-43.5	-44.6	26.4	6.02e-01	0	43	0	480772096	58	4121
2026-01-26 01:20:35.35	163.01	17.87	-43.5	-44.7	26.4	6.04e-01	0	43	0	482869248	58	4152
2026-01-26 01:20:36.35	163.13	17.75	-43.5	-44.6	26.4	6.04e-01	0	43	0	484966400	58	4124
2026-01-26 01:20:37.35	163.26	17.63	-43.5	-44.6	26.3	6.02e-01	0	43	0	486539264	58	4138
2026-01-26 01:20:38.36	163.39	17.52	-43.5	-44.6	26.4	6.03e-01	0	43	0	488636416	58	4123
2026-01-26 01:20:39.37	163.52	17.40	-43.3	-44.4	26.5	6.03e-01	0	43	0	490209280	58	4044
2026-01-26 01:20:40.37	163.64	17.28	-43.3	-44.4	26.5	6.02e-01	0	43	0	492306432	58	4033
2026-01-26 01:20:41.38	163.77	17.17	-43.4	-44.5	26.4	6.02e-01	0	43	0	494403584	58	4096
2026-01-26 01:20:42.39	163.89	17.05	-43.3	-44.4	26.6	6.02e-01	0	43	0	495976448	58	4051
2026-01-26 01:20:43.39	164.01	16.94	-43.3	-44.4	26.5	6.03e-01	0	43	0	498073600	58	4046
2026-01-26 01:20:44.40	164.13	16.82	-43.4	-44.5	26.5	6.02e-01	0	43	0	500170752	58	4079
2026-01-26 01:20:45.41	164.25	16.71	-43.4	-44.5	26.5	6.01e-01	0	43	0	501743616	58	4084
2026-01-26 01:20:46.42	164.37	16.59	-43.3	-44.4	26.5	6.03e-01	0	43	0	503840768	58	4047
2026-01-26 01:20:47.43	164.49	16.48	-43.3	-44.4	26.5	6.05e-01	0	43	0	505413632	58	4047
2026-01-26 01:20:48.43	164.61	16.37	-43.3	-44.4	26.6	6.04e-01	0	43	0	507510784	58	4026
2026-01-26 01:20:49.44	164.73	16.26	-43.3	-44.4	26.6	6.02e-01	0	43	0	509083648	58	4036
2026-01-26 01:20:50.45	164.84	16.14	-43.3	-44.5	26.5	6.03e-01	0	43	0	511180800	58	4058
2026-01-26 01:20:51.46	164.96	16.03	-43.4	-44.5	26.5	6.02e-01	0	43	0	513277952	58	4064
2026-01-26 01:20:52.47	165.07	15.92	-43.4	-44.6	26.4	6.02e-01	0	43	0	514850816	58	4104
2026-01-26 01:20:53.47	165.19	15.81	-43.4	-44.5	26.4	6.03e-01	0	43	0	516947968	58	4072
2026-01-26 01:20:54.48	165.30	15.70	-43.5	-44.6	26.4	6.02e-01	0	43	0	518520832	58	4122
2026-01-26 01:20:55.49	165.41	15.59	-43.5	-44.6	26.3	6.03e-01	0	43	0	520617984	58	4127
2026-01-26 01:20:56.49	165.52	15.48	-43.4	-44.5	26.4	6.05e-01	0	43	0	522715136	58	4092
2026-01-26 01:20:57.49	165.63	15.38	-43.5	-44.6	26.3	6.00e-01	0	43	0	524288000	58	4118
2026-01-26 01:20:58.49	165.74	15.27	-43.5	-44.7	26.3	6.04e-01	0	43	0	526385152	58	4160
2026-01-26 01:20:59.50	165.85	15.16	-43.5	-44.6	26.3	6.01e-01	0	43	0	528482304	58	4136
2026-01-26 01:21:00.51	165.96	15.05	-43.5	-44.6	26.3	6.02e-01	0	43	0	530055168	58	4129
2026-01-26 01:21:01.52	166.06	14.95	-43.5	-44.7	26.3	6.01e-01	0	43	0	532152320	58	4148
2026-01-26 01:21:02.53	166.17	14.84	-43.4	-44.5	26.4	6.01e-01	0	43	0	533725184	58	4079
2026-01-26 01:21:03.53	166.27	14.73	-43.5	-44.7	26.3	6.01e-01	0	43	0	535822336	58	4146
2026-01-26 01:21:04.54	166.38	14.63	-43.4	-44.5	26.3	6.00e-01	0	43	0	537395200	58	4095
2026-01-26 01:21:05.55	166.48	14.52	-43.4	-44.5	26.3	6.02e-01	0	43	0	539492352	58	4098
2026-01-26 01:21:06.56	166.59	14.42	-43.5	-44.7	26.2	6.02e-01	0	43	0	541589504	58	4157
2026-01-26 01:21:07.57	166.69	14.31	-43.6	-44.7	26.1	6.03e-01	0	44	0	543162368	58	4185
2026-01-26 01:21:08.57	166.79	14.21	-43.5	-44.6	26.2	6.02e-01	0	43	0	545259520	58	4134
2026-01-26 01:21:09.58	166.89	14.11	-43.7	-44.8	26.0	6.04e-01	0	44	0	546832384	58	4234
2026-01-26 01:21:10.59	166.99	14.00	-43.6	-44.8	26.0	6.01e-01	0	43	0	548929536	58	4201
2026-01-26 01:21:11.59	167.09	13.90	-43.6	-44.8	26.0	6.01e-01	0	43	0	551026688	58	4217
2026-01-26 01:21:12.60	167.19	13.80	-43.6	-44.8	26.0	6.04e-01	0	43	0	552599552	58	4195
2026-01-26 01:21:13.61	167.29	13.70	-43.7	-44.8	26.0	6.03e-01	0	43	0	554696704	58	4225
2026-01-26 01:21:14.62	167.39	13.60	-43.7	-44.9	25.9	6.02e-01	0	44	0	556793856	58	4276
2026-01-26 01:21:15.62	167.48	13.49	-43.7	-44.9	25.9	6.01e-01	0	43	0	558366720	58	4276
2026-01-26 01:21:16.63	167.58	13.39	-43.8	-44.9	25.9	6.05e-01	0	43	0	560463872	58	4288
2026-01-26 01:21:17.64	167.67	13.29	-43.9	-45.1	25.8	6.03e-01	0	43	0	562036736	58	4349
2026-01-26 01:21:18.65	167.77	13.19	-43.8	-45.0	25.8	6.04e-01	0	43	0	564133888	58	4313
2026-01-26 01:21:19.65	167.86	13.09	-43.8	-45.0	25.9	6.04e-01	0	43	0	565706752	58	4292
2026-01-26 01:21:20.66	167.96	13.00	-43.8	-45.0	25.8	6.02e-01	0	43	0	567803904	58	4332
2026-01-26 01:21:21.67	168.05	12.90	-43.7	-44.9	26.0	5.99e-01	0	43	0	569901056	58	4265
2026-01-26 01:21:22.68	168.14	12.80	-43.8	-45.0	25.9	6.03e-01	0	43	0	571473920	58	4315
2026-01-26 01:21:23.69	168.23	12.70	-43.9	-45.1	25.8	6.02e-01	0	43	0	573571072	58	4364
2026-01-26 01:21:24.69	168.32	12.60	-43.9	-45.0	25.8	6.02e-01	0	43	0	575668224	58	4340
2026-01-26 01:21:25.70	168.41	12.51	-43.8	-45.0	25.9	6.03e-01	0	43	0	577241088	58	4303
2026-01-26 01:21:26.71	168.50	12.41	-43.9	-45.1	25.8	6.02e-01	0	43	0	579338240	58	4366
2026-01-26 01:21:27.72	168.59	12.31	-43.8	-45.0	25.9	6.03e-01	0	43	0	580911104	58	4327
2026-01-26 01:21:28.73	168.68	12.22	-44.0	-45.2	25.7	6.03e-01	0	43	0	583008256	58	4397
2026-01-26 01:21:29.73	168.77	12.12	-43.9	-45.1	25.8	6.03e-01	0	43	0	585105408	58	4347
2026-01-26 01:21:30.74	168.86	12.02	-43.9	-45.1	25.8	6.03e-01	0	43	0	586678272	58	4342
2026-01-26 01:21:31.74	168.94	11.93	-44.0	-45.1	25.7	6.00e-01	0	43	0	588775424	58	4387
2026-01-26 01:21:32.75	169.03	11.84	-43.9	-45.1	25.8	6.03e-01	0	43	0	590348288	58	4363
2026-01-26 01:21:33.76	169.11	11.74	-44.0	-45.1	25.7	6.02e-01	0	43	0	592445440	58	4389
2026-01-26 01:21:34.76	169.20	11.65	-44.0	-45.2	25.7	6.01e-01	0	43	0	594018304	58	4409
2026-01-26 01:21:35.77	169.28	11.55	-44.1	-45.3	25.6	6.03e-01	0	43	0	596115456	58	4444
2026-01-26 01:21:36.78	169.37	11.46	-44.0	-45.2	25.6	6.03e-01	0	43	0	598212608	58	4422
2026-01-26 01:21:37.79	169.45	11.37	-44.2	-45.4	25.5	6.03e-01	0	43	0	600309760	58	4504
2026-01-26 01:21:38.79	169.53	11.28	-44.0	-45.2	25.5	6.03e-01	0	43	0	601882624	58	4437
2026-01-26 01:21:39.80	169.62	11.18	-43.9	-45.1	25.7	6.01e-01	0	44	0	603979776	58	4363
2026-01-26 01:21:40.80	169.70	11.09	-44.1	-45.3	25.5	6.03e-01	0	43	0	605552640	58	4450
2026-01-26 01:21:41.81	169.78	11.00	-43.9	-45.1	25.5	6.02e-01	0	43	0	607649792	58	4367
2026-01-26 01:21:42.82	169.86	10.91	-44.0	-45.2	25.5	6.01e-01	0	44	0	609222656	58	4413
2026-01-26 01:21:43.82	169.94	10.82	-44.0	-45.2	25.5	6.03e-01	0	43	0	611319808	58	4439
2026-01-26 01:21:44.82	170.02	10.73	-44.1	-45.4	25.4	6.01e-01	0	43	0	613416960	58	4501
2026-01-26 01:21:45.83	170.10	10.64	-44.2	-45.4	25.3	6.04e-01	0	43	0	614989824	58	4530
2026-01-26 01:21:46.83	170.18	10.55	-44.2	-45.4	25.3	6.01e-01	0	43	0	617086976	58	4530
2026-01-26 01:21:47.84	170.26	10.46	-44.2	-45.4	25.3	6.04e-01	0	43	0	618659840	59	4257
2026-01-26 01:21:48.85	170.33	10.37	-44.1	-45.3	25.3	6.04e-01	0	43	0	620756992	59	4235
2026-01-26 01:21:49.86	170.41	10.28	-44.2	-45.5	25.2	6.05e-01	0	43	0	622329856	59	4295
2026-01-26 01:21:50.87	170.49	10.19	-44.4	-45.6	25.1	6.01e-01	0	43	0	624427008	59	4372
2026-01-26 01:21:51.87	170.56	10.10	-44.5	-45.7	25.0	6.04e-01	0	43	0	626524160	59	4439
2026-01-26 01:21:52.88	170.64	10.02	-44.7	-46.0	24.8	6.02e-01	0	43	0	628097024	60	4310
2026-01-26 01:21:53.89	170.72	9.93	-44.4	-45.6	25.2	6.04e-01	0	43	0	630194176	60	4142
2026-01-26 01:21:54.89	170.79	9.84	-44.2	-45.4	25.3	6.04e-01	0	43	0	632291328	60	4043
2026-01-26 01:21:55.90	170.86	9.75	-44.3	-45.5	25.2	6.03e-01	0	43	0	633864192	60	4095
2026-01-26 01:21:56.91	170.94	9.67	-44.4	-45.7	25.1	6.05e-01	0	43	0	635961344	60	4174
2026-01-26 01:21:57.91	171.01	9.58	-44.4	-45.7	24.2	6.02e-01	0	44	0	637534208	60	4163
2026-01-26 01:21:58.91	171.08	9.50	-44.6	-45.8	25.0	6.05e-01	0	43	0	639631360	60	4236
2026-01-26 01:21:59.92	171.16	9.41	-44.5	-45.7	25.1	6.03e-01	0	43	0	641728512	60	4189
2026-01-26 01:22:00.93	171.23	9.32	-44.4	-45.7	25.1	6.01e-01	0	43	0	643301376	60	4170
2026-01-26 01:22:01.94	171.30	9.24	-44.6	-45.9	25.0	6.04e-01	0	43	0	645398528	60	4245
2026-01-26 01:22:02.94	171.37	9.15	-44.7	-46.0	24.8	6.02e-01	0	44	0	646971392	60	4316
2026-01-26 01:22:03.95	171.44	9.07	-44.7	-46.0	24.8	6.04e-01	0	44	0	649068544	60	4334
2026-01-26 01:22:04.96	171.51	8.98	-44.8	-46.1	24.7	6.02e-01	0	43	0	650641408	60	4368
2026-01-26 01:22:05.96	171.58	8.90	-44.8	-46.2	24.7	6.04e-01	0	43	0	652738560	60	4395
2026-01-26 01:22:06.97	171.65	8.82	-44.9	-46.2	24.6	6.02e-01	0	43	0	654835712	60	4407
2026-01-26 01:22:07.97	171.72	8.73	-44.6	-45.9	25.0	6.04e-01	0	43	0	656408576	60	4263
2026-01-26 01:22:08.98	171.79	8.65	-44.5	-45.8	25.0	6.03e-01	0	43	0	658505728	60	4217
2026-01-26 01:22:09.99	171.86	8.57	-44.7	-46.0	24.8	6.02e-01	0	44	0	660602880	60	4328
2026-01-26 01:22:10.99	171.93	8.48	-44.7	-46.0	24.7	6.03e-01	0	43	0	662175744	60	4323
2026-01-26 01:22:12.00	172.00	8.40	-44.8	-46.1	24.7	6.03e-01	0	43	0	664272896	60	4362
2026-01-26 01:22:13.00	172.06	8.32	-44.7	-46.1	24.7	6.02e-01	0	43	0	665845760	60	4344
2026-01-26 01:22:14.01	172.13	8.24	-44.9	-46.2	23.8	6.04e-01	0	43	0	667942912	60	4430
2026-01-26 01:22:15.02	172.20	8.16	-44.7	-46.0	24.7	6.02e-01	0	43	0	670040064	60	4332
2026-01-26 01:22:16.03	172.26	8.07	-44.8	-46.1	24.7	6.02e-01	0	43	0	671612928	60	4372
2026-01-26 01:22:17.03	172.33	7.99	-44.9	-46.2	24.6	6.01e-01	0	43	0	673710080	60	4430
2026-01-26 01:22:18.03	172.39	7.91	-44.7	-46.0	24.7	6.02e-01	0	44	0	675282944	60	4330
2026-01-26 01:22:19.04	172.46	7.83	-44.8	-46.1	24.6	6.04e-01	0	43	0	677380096	60	4371
2026-01-26 01:22:20.04	172.52	7.75	-44.9	-46.3	24.4	6.04e-01	0	44	0	678952960	60	4453
2026-01-26 01:22:21.05	172.59	7.67	-45.0	-46.3	24.3	6.03e-01	0	43	0	681050112	60	4480
2026-01-26 01:22:22.05	172.65	7.59	-44.8	-46.1	24.6	6.02e-01	0	44	0	683147264	60	4380
2026-01-26 01:22:23.06	172.72	7.51	-45.0	-46.4	24.3	6.02e-01	0	44	0	684720128	60	4513
2026-01-26 01:22:24.07	172.78	7.43	-45.0	-46.3	24.4	6.04e-01	0	43	0	686817280	60	4480
2026-01-26 01:22:25.08	172.84	7.35	-45.1	-46.5	24.2	6.02e-01	0	43	0	688390144	60	4567
2026-01-26 01:22:26.09	172.90	7.28	-45.3	-46.6	24.0	6.03e-01	0	43	0	690487296	61	4389
2026-01-26 01:22:27.09	172.97	7.20	-45.3	-46.7	24.1	6.03e-01	0	43	0	692584448	61	4402
2026-01-26 01:22:28.10	173.03	7.12	-44.9	-46.2	24.5	6.04e-01	0	43	0	694157312	61	4178
2026-01-26 01:22:29.11	173.09	7.04	-45.1	-46.5	24.2	6.03e-01	0	43	0	696254464	61	4330
2026-01-26 01:22:30.12	173.15	6.96	-45.1	-46.5	23.6	6.05e-01	0	43	0	698351616	61	4303
2026-01-26 01:22:31.13	173.21	6.88	-45.1	-46.5	24.1	6.04e-01	0	43	0	699924480	61	4316
2026-01-26 01:22:32.13	173.27	6.81	-45.3	-46.7	24.0	6.01e-01	0	43	0	702021632	61	4415
2026-01-26 01:22:33.14	173.33	6.73	-45.4	-46.8	23.9	6.02e-01	0	43	0	703594496	61	4459
2026-01-26 01:22:34.15	173.39	6.65	-45.4	-46.9	23.8	6.02e-01	0	43	0	705691648	61	4496
2026-01-26 01:22:35.16	173.45	6.58	-45.3	-46.7	24.0	6.03e-01	0	43	0	707264512	61	4426
2026-01-26 01:22:36.16	173.51	6.50	-45.2	-46.6	24.0	6.04e-01	0	43	0	709361664	61	4368
2026-01-26 01:22:37.17	173.57	6.42	-45.3	-46.7	23.9	6.04e-01	0	43	0	711458816	61	4428
2026-01-26 01:22:38.18	173.63	6.35	-45.2	-46.6	24.0	6.02e-01	0	43	0	713031680	61	4375
2026-01-26 01:22:39.19	173.69	6.27	-45.3	-46.7	24.0	6.04e-01	0	43	0	715128832	61	4419
2026-01-26 01:22:40.20	173.75	6.20	-45.3	-46.8	23.9	6.04e-01	0	43	0	717225984	61	4444
2026-01-26 01:22:41.20	173.80	6.12	-45.5	-47.0	23.7	6.04e-01	0	43	0	718798848	61	4550
2026-01-26 01:22:42.21	173.86	6.05	-45.4	-46.8	23.8	6.03e-01	0	43	0	720896000	61	4487
2026-01-26 01:22:43.22	173.92	5.97	-45.8	-47.3	23.4	6.03e-01	0	43	0	722468864	62	4444
2026-01-26 01:22:44.23	173.98	5.90	-45.6	-47.1	23.6	6.03e-01	0	43	0	724566016	62	4351
2026-01-26 01:22:45.23	174.03	5.82	-45.9	-47.4	23.3	6.01e-01	0	43	0	726663168	62	4505
