passes_logs/2026/01/26/R3.2S_Murmansk/R3.2S_Murmansk__20260126_134131_FENGYUN_3D_rec.log

#Pass ID: 20260126_134131_FENGYUN 3D
#Satellite: FENGYUN 3D
#Configuration: FENGYUN 3D
#almurnet v.1.7.20251203
#Start time: 2026-01-26 13:41:32

#Version: 2.2.20231116
#Station: R3.2S_Murmansk
#Location: 33.079688 lon 68.888172 lat
#TLE: 1 43010U 17072A   26025.99795741 -.00000136  00000+0 -42313-4 0  9999
#TLE: 2 43010  98.9962 357.9855 0002515  89.6991 270.4472 14.19699257424818

#Time	Az	El	Level	Level2	SNR	BER	BlckErr	Temp	State	Recorded	gain1	gain2
2026-01-26 13:41:32.41	204.49	2.04	-54.1	-66.1	3.8	8.46e-01	0	41	0	0	79	14581
2026-01-26 13:41:33.41	204.55	2.10	-54.3	-66.3	3.8	8.45e-01	0	41	104	0	79	14950
2026-01-26 13:41:34.42	204.61	2.15	-54.4	-66.4	3.8	8.45e-01	0	41	104	0	79	15100
2026-01-26 13:41:35.42	204.68	2.21	-54.4	-66.4	3.8	8.46e-01	0	42	104	0	79	15109
2026-01-26 13:41:36.43	204.74	2.27	-54.4	-66.4	3.8	8.46e-01	0	41	104	0	79	15126
2026-01-26 13:41:37.43	204.81	2.33	-54.4	-66.4	3.8	8.46e-01	0	41	104	0	79	15156
2026-01-26 13:41:38.44	204.87	2.39	-54.4	-66.4	3.8	8.46e-01	0	41	104	0	79	15082
2026-01-26 13:41:39.45	204.94	2.44	-54.4	-66.4	3.8	8.46e-01	0	42	104	0	79	15055
2026-01-26 13:41:40.45	205.00	2.50	-54.4	-66.3	3.8	8.46e-01	0	41	104	0	79	15017
2026-01-26 13:41:41.46	205.07	2.56	-54.3	-66.3	3.8	8.46e-01	0	42	104	0	79	14955
2026-01-26 13:41:42.47	205.13	2.62	-54.3	-66.2	3.8	8.46e-01	0	42	104	0	79	14865
2026-01-26 13:41:43.48	205.20	2.68	-54.3	-66.2	3.8	8.46e-01	0	41	104	0	79	14755
2026-01-26 13:41:44.49	205.27	2.74	-54.2	-66.2	3.8	8.46e-01	0	42	104	0	79	14709
2026-01-26 13:41:45.49	205.33	2.79	-54.2	-66.1	3.8	8.46e-01	0	42	104	0	79	14652
2026-01-26 13:41:46.50	205.40	2.85	-54.1	-66.1	3.8	8.46e-01	0	42	104	0	79	14560
2026-01-26 13:41:47.51	205.47	2.91	-54.0	-66.0	3.8	8.46e-01	0	42	104	0	79	14399
2026-01-26 13:41:48.52	205.53	2.97	-54.0	-65.9	3.8	8.45e-01	0	42	104	0	79	14251
2026-01-26 13:41:49.53	205.60	3.03	-53.9	-65.8	3.8	8.46e-01	0	42	104	0	79	14116
2026-01-26 13:41:50.53	205.67	3.09	-53.8	-65.8	3.8	8.46e-01	0	42	104	0	79	14077
2026-01-26 13:41:51.54	205.74	3.15	-53.7	-65.7	3.8	8.46e-01	0	42	104	0	79	13899
2026-01-26 13:41:52.55	205.81	3.21	-53.6	-65.5	3.8	8.47e-01	0	42	104	0	79	13720
2026-01-26 13:41:53.55	205.88	3.27	-53.4	-65.3	3.8	8.47e-01	0	42	104	0	78	14204
2026-01-26 13:41:54.56	205.94	3.33	-53.1	-65.1	3.8	8.47e-01	0	42	104	0	78	13727
2026-01-26 13:41:55.57	206.01	3.39	-52.7	-64.5	3.8	8.45e-01	0	42	104	0	77	13667
2026-01-26 13:41:56.58	206.08	3.45	-52.7	-64.5	3.8	8.46e-01	0	42	104	0	77	13719
2026-01-26 13:41:57.59	206.15	3.51	-52.7	-64.6	3.8	8.46e-01	0	42	104	0	77	13824
2026-01-26 13:41:58.59	206.22	3.57	-52.7	-64.6	3.8	8.48e-01	0	42	104	0	77	13864
2026-01-26 13:41:59.60	206.29	3.63	-52.7	-64.6	3.8	8.47e-01	0	42	104	0	77	13870
2026-01-26 13:42:00.61	206.36	3.69	-52.7	-64.5	3.8	8.46e-01	0	42	104	0	75	15376
2026-01-26 13:42:01.62	206.44	3.75	-52.7	-64.5	3.8	8.45e-01	0	42	104	0	75	15318
2026-01-26 13:42:02.63	206.51	3.81	-52.7	-64.5	3.8	8.45e-01	0	42	104	0	75	15284
2026-01-26 13:42:03.63	206.58	3.87	-52.7	-64.5	3.8	8.46e-01	0	42	104	0	75	15256
2026-01-26 13:42:04.64	206.65	3.93	-52.7	-64.5	3.8	8.44e-01	0	42	104	0	75	15315
2026-01-26 13:42:05.64	206.72	3.99	-52.7	-64.4	3.8	8.46e-01	0	42	104	0	75	15165
2026-01-26 13:42:06.65	206.79	4.05	-52.6	-64.2	3.8	8.47e-01	0	42	104	0	75	14789
2026-01-26 13:42:07.66	206.87	4.11	-52.6	-63.8	3.8	8.47e-01	0	42	104	0	75	14146
2026-01-26 13:42:08.67	206.94	4.17	-52.5	-63.2	3.8	8.45e-01	0	42	104	0	75	13186
2026-01-26 13:42:09.68	207.01	4.23	-52.5	-62.9	3.8	8.46e-01	0	42	104	0	75	12713
2026-01-26 13:42:10.69	207.09	4.30	-52.5	-63.0	3.8	8.46e-01	0	42	104	0	75	12812
2026-01-26 13:42:11.70	207.16	4.36	-52.6	-63.5	3.8	8.46e-01	0	42	104	0	75	13603
2026-01-26 13:42:12.71	207.23	4.42	-52.6	-64.0	3.8	8.46e-01	0	42	104	0	75	14386
2026-01-26 13:42:13.72	207.31	4.48	-52.5	-62.7	3.8	8.46e-01	0	42	104	0	75	12499
2026-01-26 13:42:14.73	207.38	4.54	-51.9	-58.9	5.0	7.98e-01	0	43	0	0	75	8078
2026-01-26 13:42:15.73	207.46	4.60	-51.1	-55.9	7.3	2.46e-01	0	43	0	3145728	74	6024
2026-01-26 13:42:16.74	207.53	4.67	-49.7	-52.8	10.6	2.59e-02	0	43	0	8388608	71	5018
2026-01-26 13:42:17.75	207.61	4.73	-48.2	-50.5	13.1	2.13e-04	0	42	0	14680064	68	4555
2026-01-26 13:42:18.75	207.68	4.79	-47.0	-48.8	14.7	3.40e-06	0	42	0	19922944	66	4235
2026-01-26 13:42:19.76	207.76	4.85	-45.8	-47.3	16.3	0.00e+00	0	43	0	25165824	63	4206
2026-01-26 13:42:20.77	207.84	4.91	-45.0	-46.2	17.4	0.00e+00	0	42	0	31457280	62	3953
2026-01-26 13:42:21.77	207.91	4.98	-44.2	-45.3	18.3	0.00e+00	0	43	0	36700160	60	4004
2026-01-26 13:42:22.78	207.99	5.04	-44.1	-45.2	18.4	0.00e+00	0	43	0	42991616	60	3951
2026-01-26 13:42:23.79	208.07	5.10	-44.7	-45.9	18.1	0.00e+00	0	43	0	48234496	59	4542
2026-01-26 13:42:24.80	208.15	5.16	-48.6	-51.2	12.4	0.00e+00	0	43	0	53477376	67	5223
2026-01-26 13:42:25.81	208.22	5.23	-44.1	-45.2	18.8	2.63e-05	0	43	0	59768832	59	4192
2026-01-26 13:42:26.81	208.30	5.29	-47.7	-49.7	14.0	0.00e+00	0	42	0	66060288	65	4958
2026-01-26 13:42:27.82	208.38	5.35	-44.4	-45.5	18.5	0.00e+00	0	43	0	71303168	59	4337
2026-01-26 13:42:28.83	208.46	5.42	-43.7	-44.8	19.1	0.00e+00	0	43	0	76546048	59	3993
2026-01-26 13:42:29.83	208.54	5.48	-43.5	-44.6	19.3	0.00e+00	0	43	0	82837504	58	4129
2026-01-26 13:42:30.84	208.62	5.54	-43.7	-44.8	19.1	0.00e+00	0	43	0	88080384	58	4229
2026-01-26 13:42:31.85	208.70	5.61	-43.6	-44.6	19.3	0.00e+00	0	43	0	93323264	58	4141
2026-01-26 13:42:32.85	208.78	5.67	-43.3	-44.3	19.6	0.00e+00	0	42	0	99614720	58	3992
2026-01-26 13:42:33.86	208.86	5.73	-43.2	-44.2	19.8	0.00e+00	0	42	0	104857600	58	3944
2026-01-26 13:42:34.87	208.94	5.80	-43.6	-44.6	19.4	0.00e+00	0	43	0	110100480	58	4144
2026-01-26 13:42:35.88	209.02	5.86	-43.0	-44.0	20.0	0.00e+00	0	43	0	116391936	58	3868
2026-01-26 13:42:36.88	209.10	5.92	-43.4	-44.5	19.5	0.00e+00	0	42	0	121634816	58	4056
2026-01-26 13:42:37.89	209.19	5.99	-43.0	-44.0	20.0	0.00e+00	0	43	0	127926272	58	3848
2026-01-26 13:42:38.90	209.27	6.05	-43.1	-44.1	19.9	0.00e+00	0	43	0	133169152	58	3883
2026-01-26 13:42:39.91	209.35	6.12	-43.0	-44.0	20.1	0.00e+00	0	43	0	138412032	57	4053
2026-01-26 13:42:40.92	209.43	6.18	-43.2	-44.2	19.8	0.00e+00	0	43	0	144703488	57	4171
2026-01-26 13:42:41.93	209.52	6.25	-43.2	-44.2	19.8	0.00e+00	0	43	0	150994944	57	4175
2026-01-26 13:42:42.93	209.60	6.31	-43.3	-44.3	19.7	0.00e+00	0	43	0	156237824	57	4233
2026-01-26 13:42:43.94	209.68	6.37	-43.1	-44.1	19.9	0.00e+00	0	43	0	161480704	57	4138
2026-01-26 13:42:44.95	209.77	6.44	-43.0	-44.0	20.0	0.00e+00	0	43	0	167772160	57	4094
2026-01-26 13:42:45.95	209.85	6.50	-43.2	-44.2	19.9	0.00e+00	0	43	0	173015040	57	4164
2026-01-26 13:42:46.96	209.94	6.57	-43.0	-44.0	20.1	0.00e+00	0	43	0	178257920	57	4075
2026-01-26 13:42:47.97	210.02	6.63	-42.9	-43.9	20.2	0.00e+00	0	43	0	184549376	57	4018
2026-01-26 13:42:48.98	210.11	6.70	-42.7	-43.8	20.2	0.00e+00	0	43	0	189792256	57	4004
2026-01-26 13:42:49.99	210.20	6.77	-42.8	-43.8	20.3	0.00e+00	0	43	0	195035136	57	3962
2026-01-26 13:42:51.00	210.28	6.83	-42.6	-43.6	20.5	0.00e+00	0	43	0	201326592	57	3875
2026-01-26 13:42:52.00	210.37	6.90	-42.8	-43.7	20.4	0.00e+00	0	43	0	206569472	57	3942
2026-01-26 13:42:53.01	210.46	6.96	-42.7	-43.6	20.5	0.00e+00	0	43	0	212860928	57	3911
2026-01-26 13:42:54.02	210.55	7.03	-42.5	-43.4	20.7	0.00e+00	0	43	0	218103808	56	4037
2026-01-26 13:42:55.03	210.63	7.10	-42.5	-43.4	20.7	0.00e+00	0	43	0	224395264	56	4026
2026-01-26 13:42:56.04	210.72	7.16	-42.6	-43.6	20.6	0.00e+00	0	43	0	229638144	56	4100
2026-01-26 13:42:57.04	210.81	7.23	-42.3	-43.2	20.9	0.00e+00	0	43	0	235929600	56	3956
2026-01-26 13:42:58.05	210.90	7.29	-42.5	-43.4	20.7	0.00e+00	0	43	0	241172480	56	4025
2026-01-26 13:42:59.06	210.99	7.36	-42.4	-43.3	20.8	0.00e+00	0	43	0	246415360	56	3988
2026-01-26 13:43:00.07	211.08	7.43	-42.3	-43.2	21.0	0.00e+00	0	43	0	252706816	56	3923
2026-01-26 13:43:01.07	211.17	7.49	-42.6	-43.5	20.6	0.00e+00	0	43	0	257949696	56	4089
2026-01-26 13:43:02.08	211.26	7.56	-42.3	-43.2	20.9	0.00e+00	0	43	0	263192576	56	3942
2026-01-26 13:43:03.09	211.35	7.63	-42.4	-43.3	20.9	0.00e+00	0	43	0	269484032	56	3966
2026-01-26 13:43:04.09	211.44	7.69	-42.4	-43.3	20.8	0.00e+00	0	43	0	274726912	56	3989
2026-01-26 13:43:05.10	211.54	7.76	-42.4	-43.4	20.8	0.00e+00	0	43	0	281018368	56	4013
2026-01-26 13:43:06.10	211.63	7.83	-42.5	-43.4	20.8	0.00e+00	0	43	0	286261248	56	4041
2026-01-26 13:43:07.11	211.72	7.90	-42.6	-43.5	20.7	0.00e+00	0	43	0	292552704	56	4080
2026-01-26 13:43:08.12	211.81	7.96	-42.5	-43.4	20.8	0.00e+00	0	43	0	297795584	56	4025
2026-01-26 13:43:09.13	211.91	8.03	-42.5	-43.6	20.7	0.00e+00	0	43	0	303038464	56	4099
2026-01-26 13:43:10.13	212.00	8.10	-42.6	-43.5	20.7	0.00e+00	0	43	0	309329920	56	4075
2026-01-26 13:43:11.13	212.10	8.17	-42.4	-43.3	20.9	0.00e+00	0	43	0	314572800	56	3989
2026-01-26 13:43:12.14	212.19	8.23	-42.3	-43.2	21.0	0.00e+00	0	43	0	320864256	56	3949
2026-01-26 13:43:13.15	212.29	8.30	-42.7	-43.7	20.5	0.00e+00	0	43	0	326107136	56	4163
2026-01-26 13:43:14.16	212.38	8.37	-42.5	-43.4	20.8	0.00e+00	0	43	0	331350016	56	4019
2026-01-26 13:43:15.17	212.48	8.44	-42.5	-43.4	20.8	0.00e+00	0	43	0	337641472	56	4026
2026-01-26 13:43:16.18	212.58	8.51	-42.5	-43.5	20.8	0.00e+00	0	43	0	342884352	56	4061
2026-01-26 13:43:17.19	212.67	8.58	-42.3	-43.2	21.1	0.00e+00	0	43	0	348127232	56	3930
2026-01-26 13:43:18.19	212.77	8.64	-42.5	-43.4	20.9	0.00e+00	0	43	0	354418688	56	4026
2026-01-26 13:43:19.20	212.87	8.71	-42.4	-43.3	20.9	0.00e+00	0	43	0	359661568	56	3999
2026-01-26 13:43:20.21	212.97	8.78	-42.3	-43.2	21.1	0.00e+00	0	43	0	365953024	56	3925
2026-01-26 13:43:21.21	213.06	8.85	-42.2	-43.1	21.1	0.00e+00	0	43	0	371195904	56	3894
2026-01-26 13:43:22.22	213.16	8.92	-42.2	-43.0	21.2	0.00e+00	0	43	0	377487360	56	3865
2026-01-26 13:43:23.23	213.26	8.99	-42.2	-43.1	21.1	0.00e+00	0	43	0	382730240	56	3912
2026-01-26 13:43:24.24	213.36	9.06	-42.2	-43.1	21.2	0.00e+00	0	43	0	389021696	56	3879
2026-01-26 13:43:25.24	213.46	9.13	-42.0	-42.9	21.4	0.00e+00	0	43	0	394264576	56	3795
2026-01-26 13:43:26.25	213.57	9.20	-41.8	-42.7	21.5	0.00e+00	0	43	0	399507456	55	3945
2026-01-26 13:43:27.26	213.67	9.27	-41.9	-42.8	21.4	0.00e+00	0	43	0	405798912	55	3996
2026-01-26 13:43:28.27	213.77	9.34	-42.0	-42.9	21.3	0.00e+00	0	43	0	411041792	55	4031
2026-01-26 13:43:29.27	213.87	9.41	-42.1	-43.0	21.2	0.00e+00	0	43	0	416284672	55	4073
2026-01-26 13:43:30.28	213.97	9.48	-42.0	-42.9	21.3	0.00e+00	0	43	0	422576128	55	4034
2026-01-26 13:43:31.29	214.08	9.55	-42.0	-42.9	21.3	0.00e+00	0	43	0	427819008	55	4034
2026-01-26 13:43:32.29	214.18	9.62	-42.0	-42.8	21.4	0.00e+00	0	43	0	433061888	55	4002
2026-01-26 13:43:33.30	214.29	9.69	-42.0	-42.9	21.3	0.00e+00	0	43	0	439353344	55	4032
2026-01-26 13:43:34.31	214.39	9.76	-42.0	-42.9	21.3	0.00e+00	0	43	0	444596224	55	4040
2026-01-26 13:43:35.32	214.50	9.83	-42.0	-42.9	21.4	0.00e+00	0	43	0	450887680	55	4010
2026-01-26 13:43:36.32	214.60	9.90	-41.9	-42.8	21.4	0.00e+00	0	43	0	456130560	55	4001
2026-01-26 13:43:37.33	214.71	9.97	-42.0	-42.9	21.3	0.00e+00	0	43	0	462422016	55	4018
2026-01-26 13:43:38.33	214.81	10.04	-41.7	-42.6	21.7	0.00e+00	0	43	0	467664896	55	3878
2026-01-26 13:43:39.34	214.92	10.11	-41.7	-42.6	21.6	0.00e+00	0	43	0	473956352	55	3894
2026-01-26 13:43:40.35	215.03	10.19	-41.7	-42.6	21.7	0.00e+00	0	43	0	479199232	55	3878
2026-01-26 13:43:41.36	215.14	10.26	-41.5	-42.4	21.9	0.00e+00	0	43	0	484442112	55	3781
2026-01-26 13:43:42.37	215.25	10.33	-41.6	-42.4	21.8	0.00e+00	0	43	0	490733568	55	3819
2026-01-26 13:43:43.37	215.36	10.40	-41.6	-42.4	21.8	0.00e+00	0	43	0	495976448	55	3801
2026-01-26 13:43:44.38	215.47	10.47	-41.5	-42.4	21.8	0.00e+00	0	43	0	501219328	55	3798
2026-01-26 13:43:45.38	215.58	10.54	-41.5	-42.4	21.9	0.00e+00	0	43	0	507510784	55	3801
2026-01-26 13:43:46.39	215.69	10.62	-41.6	-42.4	21.9	0.00e+00	0	43	0	512753664	55	3801
2026-01-26 13:43:47.40	215.80	10.69	-41.6	-42.4	21.8	0.00e+00	0	43	0	517996544	55	3817
2026-01-26 13:43:48.41	215.91	10.76	-41.6	-42.4	21.8	0.00e+00	0	43	0	524288000	55	3822
2026-01-26 13:43:49.41	216.02	10.83	-41.6	-42.4	21.8	0.00e+00	0	43	0	530579456	55	3821
2026-01-26 13:43:50.42	216.14	10.90	-41.4	-42.3	22.0	0.00e+00	0	43	0	535822336	54	3979
2026-01-26 13:43:51.43	216.25	10.98	-41.4	-42.2	22.0	0.00e+00	0	43	0	541065216	54	3950
2026-01-26 13:43:52.43	216.36	11.05	-41.3	-42.2	22.1	0.00e+00	0	43	0	547356672	54	3927
2026-01-26 13:43:53.44	216.48	11.12	-41.4	-42.2	22.1	0.00e+00	0	43	0	552599552	54	3936
2026-01-26 13:43:54.44	216.59	11.20	-41.4	-42.3	22.0	0.00e+00	0	43	0	558891008	54	3971
2026-01-26 13:43:55.45	216.71	11.27	-41.4	-42.2	22.1	0.00e+00	0	43	0	564133888	54	3934
2026-01-26 13:43:56.46	216.83	11.34	-41.4	-42.2	22.1	0.00e+00	0	43	0	569376768	54	3935
2026-01-26 13:43:57.47	216.94	11.42	-41.4	-42.2	22.1	0.00e+00	0	43	0	575668224	54	3948
2026-01-26 13:43:58.47	217.06	11.49	-41.4	-42.2	22.1	0.00e+00	0	43	0	580911104	54	3936
2026-01-26 13:43:59.48	217.18	11.56	-41.5	-42.4	21.9	0.00e+00	0	43	0	586153984	54	4010
2026-01-26 13:44:00.48	217.30	11.63	-41.5	-42.3	22.0	0.00e+00	0	43	0	592445440	54	4003
2026-01-26 13:44:01.48	217.41	11.71	-41.5	-42.4	21.9	0.00e+00	0	43	0	597688320	54	4022
2026-01-26 13:44:02.49	217.53	11.78	-41.6	-42.4	21.9	0.00e+00	0	43	0	602931200	54	4049
2026-01-26 13:44:03.50	217.65	11.86	-41.5	-42.3	22.0	0.00e+00	0	43	0	609222656	54	3990
2026-01-26 13:44:04.50	217.77	11.93	-41.4	-42.3	22.0	0.00e+00	0	43	0	614465536	54	3973
2026-01-26 13:44:05.51	217.90	12.00	-41.4	-42.2	22.1	0.00e+00	0	43	0	620756992	54	3951
2026-01-26 13:44:06.52	218.02	12.08	-41.1	-41.9	22.4	0.00e+00	0	43	0	625999872	54	3821
2026-01-26 13:44:07.52	218.14	12.15	-41.2	-42.1	22.2	0.00e+00	0	43	0	632291328	54	3877
2026-01-26 13:44:08.53	218.26	12.23	-41.3	-42.1	22.2	0.00e+00	0	43	0	637534208	54	3905
2026-01-26 13:44:09.53	218.39	12.30	-41.3	-42.1	22.2	0.00e+00	0	43	0	643825664	54	3911
2026-01-26 13:44:10.54	218.51	12.38	-41.3	-42.2	22.1	0.00e+00	0	43	0	649068544	54	3932
2026-01-26 13:44:11.55	218.64	12.45	-41.4	-42.2	22.1	0.00e+00	0	43	0	654311424	54	3950
2026-01-26 13:44:12.56	218.76	12.53	-41.3	-42.2	22.2	0.00e+00	0	43	0	660602880	54	3931
2026-01-26 13:44:13.57	218.89	12.60	-41.3	-42.1	22.2	0.00e+00	0	43	0	665845760	54	3906
2026-01-26 13:44:14.58	219.02	12.68	-41.3	-42.1	22.2	0.00e+00	0	43	0	671088640	54	3909
2026-01-26 13:44:15.59	219.14	12.75	-41.2	-42.1	22.3	0.00e+00	0	43	0	677380096	54	3869
2026-01-26 13:44:16.59	219.27	12.83	-41.2	-42.0	22.3	0.00e+00	0	43	0	682622976	54	3860
2026-01-26 13:44:17.60	219.40	12.90	-41.1	-41.9	22.4	0.00e+00	0	43	0	687865856	54	3819
2026-01-26 13:44:18.61	219.53	12.98	-41.0	-41.8	22.5	0.00e+00	0	43	0	694157312	54	3764
2026-01-26 13:44:19.62	219.66	13.06	-41.1	-41.9	22.4	0.00e+00	0	43	0	700448768	53	4038
2026-01-26 13:44:20.63	219.79	13.13	-40.9	-41.7	22.6	0.00e+00	0	43	0	705691648	53	3928
2026-01-26 13:44:21.63	219.92	13.21	-40.7	-41.5	22.8	0.00e+00	0	43	0	710934528	53	3844
2026-01-26 13:44:22.64	220.05	13.28	-40.6	-41.4	22.9	0.00e+00	0	43	0	717225984	53	3801
2026-01-26 13:44:23.65	220.19	13.36	-40.7	-41.5	22.8	0.00e+00	0	43	0	722468864	53	3848
2026-01-26 13:44:24.66	220.32	13.44	-40.8	-41.6	22.8	0.00e+00	0	43	0	728760320	53	3871
2026-01-26 13:44:25.67	220.46	13.51	-40.8	-41.6	22.7	0.00e+00	0	43	0	734003200	53	3913
2026-01-26 13:44:26.68	220.59	13.59	-41.0	-41.8	22.5	0.00e+00	0	43	0	739246080	53	3997
2026-01-26 13:44:27.69	220.73	13.67	-41.0	-41.8	22.6	0.00e+00	0	43	0	745537536	53	3970
2026-01-26 13:44:28.70	220.86	13.74	-41.0	-41.9	22.5	0.00e+00	0	43	0	750780416	53	4006
2026-01-26 13:44:29.70	221.00	13.82	-40.9	-41.8	22.6	0.00e+00	0	43	0	756023296	53	3963
2026-01-26 13:44:30.71	221.14	13.90	-40.8	-41.6	22.7	0.00e+00	0	43	0	762314752	53	3908
2026-01-26 13:44:31.72	221.28	13.97	-40.8	-41.6	22.7	0.00e+00	0	43	0	768606208	53	3904
2026-01-26 13:44:32.72	221.41	14.05	-40.8	-41.6	22.7	0.00e+00	0	43	0	773849088	53	3878
2026-01-26 13:44:33.73	221.55	14.13	-40.9	-41.7	22.7	0.00e+00	0	44	0	779091968	53	3928
2026-01-26 13:44:34.74	221.69	14.20	-40.8	-41.6	22.7	0.00e+00	0	43	0	785383424	53	3893
2026-01-26 13:44:35.75	221.83	14.28	-40.9	-41.7	22.7	0.00e+00	0	43	0	790626304	53	3926
2026-01-26 13:44:36.75	221.98	14.36	-40.7	-41.5	22.8	0.00e+00	0	43	0	795869184	53	3866
2026-01-26 13:44:37.76	222.12	14.44	-40.8	-41.6	22.8	0.00e+00	0	43	0	802160640	53	3874
2026-01-26 13:44:38.77	222.26	14.51	-40.7	-41.5	22.8	0.00e+00	0	43	0	807403520	53	3848
2026-01-26 13:44:39.77	222.40	14.59	-40.8	-41.6	22.7	0.00e+00	0	43	0	813694976	53	3905
2026-01-26 13:44:40.78	222.55	14.67	-40.6	-41.4	23.0	0.00e+00	0	43	0	818937856	53	3788
2026-01-26 13:44:41.79	222.69	14.75	-40.5	-41.3	23.0	0.00e+00	0	43	0	824180736	53	3767
2026-01-26 13:44:42.79	222.84	14.82	-40.6	-41.4	23.0	0.00e+00	0	43	0	830472192	53	3789
2026-01-26 13:44:43.80	222.99	14.90	-40.5	-41.3	23.0	0.00e+00	0	43	0	835715072	53	3764
2026-01-26 13:44:44.81	223.13	14.98	-40.2	-41.0	23.3	0.00e+00	0	43	0	840957952	52	3852
2026-01-26 13:44:45.81	223.28	15.06	-40.2	-41.0	23.3	0.00e+00	0	43	0	847249408	52	3833
2026-01-26 13:44:46.82	223.43	15.14	-40.2	-41.0	23.3	0.00e+00	0	43	0	853540864	52	3850
2026-01-26 13:44:47.83	223.58	15.22	-40.4	-41.1	23.2	0.00e+00	0	43	0	858783744	52	3913
2026-01-26 13:44:48.83	223.73	15.29	-40.5	-41.3	23.1	0.00e+00	0	43	0	864026624	52	3970
2026-01-26 13:44:49.84	223.88	15.37	-40.3	-41.1	23.2	0.00e+00	0	43	0	870318080	52	3895
2026-01-26 13:44:50.84	224.03	15.45	-40.3	-41.1	23.2	0.00e+00	0	43	0	875560960	52	3896
2026-01-26 13:44:51.85	224.19	15.53	-40.4	-41.2	23.2	0.00e+00	0	43	0	880803840	52	3936
2026-01-26 13:44:52.85	224.34	15.61	-40.1	-40.9	23.4	0.00e+00	0	43	0	887095296	52	3812
2026-01-26 13:44:53.86	224.49	15.68	-40.2	-40.9	23.4	0.00e+00	0	43	0	892338176	52	3810
2026-01-26 13:44:54.87	224.65	15.76	-40.2	-41.0	23.4	0.00e+00	0	43	0	898629632	52	3832
2026-01-26 13:44:55.88	224.80	15.84	-40.1	-40.8	23.5	0.00e+00	0	43	0	903872512	52	3767
2026-01-26 13:44:56.89	224.96	15.92	-40.1	-40.9	23.5	0.00e+00	0	43	0	909115392	52	3794
2026-01-26 13:44:57.89	225.12	16.00	-40.0	-40.8	23.5	0.00e+00	0	43	0	915406848	52	3763
2026-01-26 13:44:58.89	225.28	16.08	-40.1	-40.9	23.5	0.00e+00	0	43	0	920649728	52	3798
2026-01-26 13:44:59.90	225.43	16.16	-40.1	-40.9	23.4	0.00e+00	0	43	0	925892608	52	3810
2026-01-26 13:45:00.91	225.59	16.24	-40.1	-40.8	23.5	0.00e+00	0	43	0	932184064	52	3770
2026-01-26 13:45:01.91	225.75	16.32	-40.0	-40.8	23.6	0.00e+00	0	43	0	938475520	52	3742
2026-01-26 13:45:02.92	225.92	16.39	-40.1	-40.8	23.5	0.00e+00	0	43	0	943718400	52	3766
2026-01-26 13:45:03.92	226.08	16.47	-40.1	-40.8	23.6	0.00e+00	0	43	0	948961280	51	4000
2026-01-26 13:45:04.93	226.24	16.55	-40.1	-40.9	23.6	0.00e+00	0	43	0	955252736	51	4022
2026-01-26 13:45:05.94	226.41	16.63	-40.1	-40.8	23.6	0.00e+00	0	43	0	960495616	51	4000
2026-01-26 13:45:06.95	226.57	16.71	-40.1	-40.9	23.6	0.00e+00	0	43	0	965738496	51	4007
2026-01-26 13:45:07.95	226.74	16.79	-40.2	-41.0	23.5	0.00e+00	0	43	0	972029952	51	4052
2026-01-26 13:45:08.96	226.90	16.87	-40.3	-41.1	23.4	0.00e+00	0	43	0	977272832	51	4104
2026-01-26 13:45:09.96	227.07	16.95	-40.2	-41.0	23.4	0.00e+00	0	43	0	983564288	51	4087
2026-01-26 13:45:10.97	227.24	17.03	-40.0	-40.8	23.6	0.00e+00	0	43	0	988807168	51	3977
2026-01-26 13:45:11.98	227.41	17.11	-40.1	-40.9	23.6	0.00e+00	0	43	0	994050048	51	4020
2026-01-26 13:45:12.99	227.58	17.19	-40.2	-41.0	23.5	0.00e+00	0	43	0	1000341504	51	4053
2026-01-26 13:45:14.00	227.75	17.27	-40.0	-40.8	23.7	0.00e+00	0	43	0	1005584384	51	3963
2026-01-26 13:45:15.00	227.92	17.35	-39.9	-40.7	23.7	0.00e+00	0	43	0	1010827264	51	3933
2026-01-26 13:45:16.01	228.09	17.43	-40.0	-40.7	23.7	0.00e+00	0	43	0	1017118720	51	3955
2026-01-26 13:45:17.02	228.27	17.51	-39.9	-40.6	23.8	0.00e+00	0	43	0	1023410176	51	3893
2026-01-26 13:45:18.03	228.44	17.59	-39.9	-40.6	23.8	0.00e+00	0	43	0	1028653056	51	3897
2026-01-26 13:45:19.03	228.62	17.66	-39.8	-40.5	23.9	0.00e+00	0	43	0	1033895936	51	3863
2026-01-26 13:45:20.04	228.79	17.74	-39.8	-40.6	23.8	0.00e+00	0	43	0	1040187392	51	3871
2026-01-26 13:45:21.05	228.97	17.82	-39.8	-40.5	23.9	0.00e+00	0	43	0	1045430272	51	3853
2026-01-26 13:45:22.06	229.15	17.90	-39.8	-40.6	23.8	0.00e+00	0	43	0	1050673152	51	3880
2026-01-26 13:45:23.06	229.33	17.98	-39.8	-40.5	23.9	0.00e+00	0	43	0	1056964608	51	3862
2026-01-26 13:45:24.07	229.51	18.06	-39.7	-40.4	24.0	0.00e+00	0	43	0	1062207488	51	3810
2026-01-26 13:45:25.08	229.69	18.14	-39.7	-40.4	24.0	0.00e+00	0	43	0	1068498944	51	3804
2026-01-26 13:45:26.09	229.87	18.22	-39.4	-40.1	24.2	0.00e+00	0	43	0	1073741824	50	3911
2026-01-26 13:45:27.09	230.05	18.30	-39.5	-40.2	24.1	0.00e+00	0	43	0	1078984704	50	3956
2026-01-26 13:45:28.10	230.23	18.38	-39.6	-40.3	24.1	0.00e+00	0	43	0	1085276160	50	3975
2026-01-26 13:45:29.11	230.42	18.46	-39.6	-40.4	24.0	0.00e+00	0	43	0	1090519040	50	4022
2026-01-26 13:45:30.12	230.60	18.54	-39.5	-40.3	24.1	0.00e+00	0	43	0	1096810496	50	3959
2026-01-26 13:45:31.13	230.79	18.62	-39.7	-40.4	24.0	0.00e+00	0	43	0	1102053376	50	4027
2026-01-26 13:45:32.13	230.98	18.70	-39.6	-40.4	24.0	0.00e+00	0	43	0	1108344832	50	4014
2026-01-26 13:45:33.14	231.17	18.78	-39.7	-40.5	24.0	0.00e+00	0	43	0	1113587712	50	4060
2026-01-26 13:45:34.15	231.36	18.86	-39.7	-40.4	24.0	0.00e+00	0	43	0	1118830592	50	4029
2026-01-26 13:45:35.15	231.54	18.93	-39.7	-40.4	24.0	0.00e+00	0	43	0	1125122048	50	4039
2026-01-26 13:45:36.16	231.74	19.01	-39.6	-40.3	24.1	0.00e+00	0	43	0	1130364928	50	3996
2026-01-26 13:45:37.17	231.93	19.09	-39.4	-40.1	24.3	0.00e+00	0	43	0	1135607808	50	3901
2026-01-26 13:45:38.18	232.12	19.17	-39.4	-40.1	24.3	0.00e+00	0	43	0	1141899264	50	3891
2026-01-26 13:45:39.19	232.32	19.25	-39.4	-40.2	24.2	0.00e+00	0	43	0	1147142144	50	3930
2026-01-26 13:45:40.19	232.51	19.33	-39.4	-40.1	24.3	0.00e+00	0	43	0	1153433600	50	3895
2026-01-26 13:45:41.20	232.71	19.41	-39.4	-40.2	24.3	0.00e+00	0	43	0	1158676480	50	3921
2026-01-26 13:45:42.21	232.90	19.49	-39.3	-40.1	24.4	0.00e+00	0	43	0	1163919360	50	3869
2026-01-26 13:45:43.21	233.10	19.57	-39.4	-40.2	24.3	0.00e+00	0	43	0	1170210816	50	3924
2026-01-26 13:45:44.22	233.30	19.64	-39.4	-40.2	24.3	0.00e+00	0	43	0	1176502272	50	3916
2026-01-26 13:45:45.22	233.50	19.72	-39.4	-40.1	24.3	0.00e+00	0	43	0	1181745152	50	3887
2026-01-26 13:45:46.23	233.70	19.80	-39.4	-40.1	24.3	0.00e+00	0	43	0	1186988032	50	3900
2026-01-26 13:45:47.24	233.90	19.88	-39.4	-40.2	24.3	0.00e+00	0	43	0	1193279488	50	3927
2026-01-26 13:45:48.25	234.11	19.96	-39.5	-40.2	24.2	0.00e+00	0	43	0	1198522368	50	3938
2026-01-26 13:45:49.25	234.31	20.04	-39.4	-40.2	24.2	0.00e+00	0	43	0	1203765248	50	3930
2026-01-26 13:45:50.26	234.51	20.11	-39.5	-40.2	24.2	0.00e+00	0	43	0	1210056704	50	3956
2026-01-26 13:45:51.27	234.72	20.19	-39.4	-40.2	24.3	0.00e+00	0	43	0	1215299584	50	3926
2026-01-26 13:45:52.28	234.93	20.27	-39.3	-40.0	24.4	0.00e+00	0	43	0	1220542464	50	3861
2026-01-26 13:45:53.29	235.14	20.35	-39.2	-40.0	24.5	0.00e+00	0	43	0	1226833920	50	3826
2026-01-26 13:45:54.29	235.34	20.42	-39.3	-40.0	24.4	0.00e+00	0	43	0	1232076800	50	3854
2026-01-26 13:45:55.29	235.55	20.50	-39.2	-39.9	24.6	0.00e+00	0	43	0	1238368256	50	3791
2026-01-26 13:45:56.30	235.76	20.58	-39.2	-39.9	24.5	0.00e+00	0	43	0	1243611136	50	3795
2026-01-26 13:45:57.31	235.98	20.65	-39.2	-39.9	24.5	0.00e+00	0	43	0	1248854016	50	3807
2026-01-26 13:45:58.32	236.19	20.73	-39.3	-40.0	24.5	0.00e+00	0	43	0	1255145472	50	3832
2026-01-26 13:45:59.33	236.40	20.81	-39.3	-40.1	24.4	0.00e+00	0	43	0	1261436928	50	3874
2026-01-26 13:46:00.33	236.62	20.88	-39.4	-40.1	24.3	0.00e+00	0	43	0	1266679808	50	3902
2026-01-26 13:46:01.34	236.83	20.96	-39.5	-40.2	24.3	0.00e+00	0	43	0	1271922688	50	3938
2026-01-26 13:46:02.35	237.05	21.04	-39.5	-40.2	24.3	0.00e+00	0	43	0	1278214144	50	3935
2026-01-26 13:46:03.35	237.27	21.11	-39.3	-40.0	24.4	0.00e+00	0	43	0	1283457024	50	3850
2026-01-26 13:46:04.36	237.49	21.19	-39.2	-39.9	24.5	0.00e+00	0	43	0	1288699904	50	3814
2026-01-26 13:46:05.37	237.71	21.26	-39.0	-39.7	24.7	0.00e+00	0	43	0	1294991360	50	3705
2026-01-26 13:46:06.37	237.93	21.34	-38.7	-39.4	25.0	0.00e+00	0	43	0	1300234240	49	3794
2026-01-26 13:46:07.38	238.15	21.42	-38.7	-39.4	24.9	0.00e+00	0	43	0	1305477120	49	3817
2026-01-26 13:46:08.38	238.38	21.49	-38.7	-39.4	25.0	0.00e+00	0	43	0	1311768576	49	3801
2026-01-26 13:46:09.39	238.60	21.56	-38.8	-39.5	24.9	0.00e+00	0	43	0	1317011456	49	3848
2026-01-26 13:46:10.39	238.82	21.64	-38.9	-39.7	24.8	0.00e+00	0	43	0	1323302912	49	3919
2026-01-26 13:46:11.39	239.05	21.71	-39.0	-39.7	24.7	0.00e+00	0	43	0	1328545792	49	3943
2026-01-26 13:46:12.40	239.28	21.79	-39.0	-39.7	24.7	0.00e+00	0	43	0	1333788672	49	3927
2026-01-26 13:46:13.40	239.50	21.86	-38.9	-39.6	24.8	0.00e+00	0	43	0	1340080128	49	3908
2026-01-26 13:46:14.41	239.74	21.93	-38.9	-39.6	24.8	0.00e+00	0	43	0	1345323008	49	3890
2026-01-26 13:46:15.42	239.97	22.01	-38.9	-39.6	24.8	0.00e+00	0	43	0	1351614464	49	3906
2026-01-26 13:46:16.42	240.20	22.08	-38.9	-39.6	24.8	0.00e+00	0	43	0	1356857344	49	3907
2026-01-26 13:46:17.43	240.43	22.15	-39.1	-39.8	24.6	0.00e+00	0	43	0	1363148800	49	3981
2026-01-26 13:46:18.44	240.67	22.23	-39.1	-39.8	24.6	0.00e+00	0	44	0	1368391680	49	3995
2026-01-26 13:46:19.45	240.90	22.30	-39.1	-39.8	24.6	0.00e+00	0	43	0	1373634560	49	3997
2026-01-26 13:46:20.46	241.14	22.37	-39.3	-40.0	24.5	0.00e+00	0	43	0	1379926016	49	4070
2026-01-26 13:46:21.46	241.37	22.44	-39.2	-39.9	24.5	0.00e+00	0	43	0	1385168896	49	4033
2026-01-26 13:46:22.47	241.61	22.51	-39.0	-39.8	24.6	0.00e+00	0	43	0	1390411776	49	3974
2026-01-26 13:46:23.47	241.85	22.58	-38.9	-39.6	24.8	0.00e+00	0	43	0	1396703232	49	3899
2026-01-26 13:46:24.48	242.09	22.65	-38.9	-39.6	24.8	0.00e+00	0	43	0	1401946112	49	3900
2026-01-26 13:46:25.49	242.33	22.73	-38.6	-39.3	25.0	0.00e+00	0	43	0	1408237568	49	3762
2026-01-26 13:46:26.49	242.57	22.79	-38.5	-39.2	25.1	0.00e+00	0	43	0	1413480448	48	3943
2026-01-26 13:46:27.50	242.82	22.86	-38.6	-39.3	25.1	0.00e+00	0	43	0	1418723328	48	3962
2026-01-26 13:46:28.50	243.06	22.93	-38.7	-39.4	24.9	0.00e+00	0	43	0	1425014784	48	4050
2026-01-26 13:46:29.51	243.31	23.00	-38.9	-39.6	24.8	0.00e+00	0	43	0	1430257664	48	4132
2026-01-26 13:46:30.52	243.56	23.07	-38.9	-39.6	24.8	0.00e+00	0	43	0	1436549120	48	4132
2026-01-26 13:46:31.53	243.80	23.14	-38.8	-39.5	24.9	0.00e+00	0	43	0	1441792000	48	4058
2026-01-26 13:46:32.53	244.05	23.21	-38.8	-39.5	24.9	0.00e+00	0	43	0	1448083456	48	4063
2026-01-26 13:46:33.54	244.30	23.28	-38.6	-39.3	25.0	0.00e+00	0	43	0	1453326336	48	3988
2026-01-26 13:46:34.55	244.55	23.34	-38.4	-39.1	25.2	0.00e+00	0	43	0	1458569216	48	3874
2026-01-26 13:46:35.55	244.80	23.41	-38.4	-39.1	25.2	0.00e+00	0	43	0	1464860672	48	3903
2026-01-26 13:46:36.56	245.06	23.48	-38.4	-39.1	25.2	0.00e+00	0	43	0	1470103552	48	3906
2026-01-26 13:46:37.57	245.31	23.54	-38.6	-39.3	25.1	0.00e+00	0	43	0	1475346432	48	3970
2026-01-26 13:46:38.57	245.57	23.61	-38.6	-39.3	25.0	0.00e+00	0	43	0	1481637888	48	4001
2026-01-26 13:46:39.58	245.82	23.67	-38.6	-39.3	25.1	0.00e+00	0	43	0	1486880768	48	3978
2026-01-26 13:46:40.59	246.08	23.74	-38.6	-39.3	25.1	0.00e+00	0	43	0	1493172224	48	3984
2026-01-26 13:46:41.59	246.34	23.80	-38.6	-39.3	25.1	0.00e+00	0	43	0	1498415104	48	3986
2026-01-26 13:46:42.60	246.60	23.87	-38.5	-39.2	25.1	0.00e+00	0	43	0	1503657984	48	3938
2026-01-26 13:46:43.61	246.86	23.93	-38.6	-39.2	25.1	0.00e+00	0	43	0	1509949440	48	3955
2026-01-26 13:46:44.62	247.12	23.99	-38.5	-39.2	25.2	0.00e+00	0	43	0	1516240896	48	3927
2026-01-26 13:46:45.63	247.39	24.06	-38.4	-39.1	25.2	0.00e+00	0	43	0	1521483776	48	3903
2026-01-26 13:46:46.64	247.65	24.12	-38.5	-39.2	25.2	0.00e+00	0	43	0	1526726656	48	3921
2026-01-26 13:46:47.65	247.91	24.18	-38.6	-39.3	25.1	0.00e+00	0	43	0	1533018112	48	3983
2026-01-26 13:46:48.65	248.18	24.24	-38.5	-39.2	25.1	0.00e+00	0	43	0	1538260992	48	3944
2026-01-26 13:46:49.66	248.45	24.30	-38.5	-39.2	25.2	0.00e+00	0	43	0	1543503872	48	3926
2026-01-26 13:46:50.67	248.71	24.36	-38.5	-39.1	25.2	0.00e+00	0	43	0	1549795328	48	3912
2026-01-26 13:46:51.68	248.98	24.42	-38.3	-39.0	25.3	0.00e+00	0	43	0	1555038208	48	3862
2026-01-26 13:46:52.68	249.25	24.48	-38.4	-39.1	25.3	0.00e+00	0	43	0	1560281088	48	3900
2026-01-26 13:46:53.69	249.52	24.54	-38.4	-39.1	25.3	0.00e+00	0	43	0	1566572544	48	3872
2026-01-26 13:46:54.70	249.79	24.60	-38.4	-39.1	25.3	0.00e+00	0	44	0	1571815424	48	3880
2026-01-26 13:46:55.71	250.07	24.66	-38.2	-38.9	25.4	0.00e+00	0	43	0	1578106880	48	3810
2026-01-26 13:46:56.72	250.34	24.71	-38.3	-38.9	25.4	0.00e+00	0	43	0	1583349760	48	3815
2026-01-26 13:46:57.73	250.62	24.77	-38.2	-38.9	25.4	0.00e+00	0	43	0	1589641216	48	3799
2026-01-26 13:46:58.73	250.89	24.83	-38.3	-39.0	25.3	0.00e+00	0	43	0	1594884096	48	3861
2026-01-26 13:46:59.73	251.17	24.88	-38.4	-39.1	25.2	0.00e+00	0	43	0	1601175552	48	3890
2026-01-26 13:47:00.74	251.44	24.94	-38.4	-39.1	25.3	0.00e+00	0	43	0	1606418432	48	3887
2026-01-26 13:47:01.74	251.72	24.99	-38.4	-39.1	25.2	0.00e+00	0	43	0	1611661312	48	3894
2026-01-26 13:47:02.75	252.00	25.04	-38.4	-39.1	25.3	0.00e+00	0	43	0	1617952768	48	3907
2026-01-26 13:47:03.76	252.28	25.10	-38.5	-39.2	25.2	0.00e+00	0	43	0	1623195648	48	3920
2026-01-26 13:47:04.77	252.56	25.15	-38.5	-39.2	25.1	0.00e+00	0	43	0	1628438528	48	3958
2026-01-26 13:47:05.77	252.84	25.20	-38.3	-39.0	25.3	0.00e+00	0	43	0	1634729984	48	3846
2026-01-26 13:47:06.78	253.13	25.25	-38.2	-38.9	25.4	0.00e+00	0	43	0	1639972864	48	3808
2026-01-26 13:47:07.79	253.41	25.30	-38.0	-38.7	25.6	0.00e+00	0	43	0	1645215744	48	3701
2026-01-26 13:47:08.79	253.69	25.35	-37.8	-38.5	25.4	0.00e+00	0	43	0	1651507200	47	3825
2026-01-26 13:47:09.80	253.98	25.40	-37.7	-38.4	25.4	0.00e+00	0	43	0	1656750080	47	3784
2026-01-26 13:47:10.81	254.27	25.45	-37.8	-38.5	25.3	0.00e+00	0	43	0	1663041536	47	3856
2026-01-26 13:47:11.81	254.55	25.50	-37.9	-38.6	25.2	0.00e+00	0	43	0	1668284416	47	3892
2026-01-26 13:47:12.82	254.84	25.55	-37.9	-38.6	25.2	0.00e+00	0	43	0	1674575872	47	3877
2026-01-26 13:47:13.83	255.13	25.59	-37.7	-38.5	25.3	0.00e+00	0	43	0	1679818752	47	3829
2026-01-26 13:47:14.84	255.42	25.64	-37.8	-38.5	25.3	0.00e+00	0	43	0	1686110208	47	3859
2026-01-26 13:47:15.84	255.71	25.68	-37.8	-38.6	25.3	0.00e+00	0	43	0	1691353088	47	3869
2026-01-26 13:47:16.85	256.00	25.73	-37.8	-38.6	25.3	0.00e+00	0	43	0	1696595968	47	3870
2026-01-26 13:47:17.85	256.29	25.77	-37.9	-38.6	25.2	0.00e+00	0	43	0	1702887424	47	3892
2026-01-26 13:47:18.86	256.58	25.81	-38.0	-38.7	25.1	0.00e+00	0	43	0	1708130304	47	3927
2026-01-26 13:47:19.87	256.88	25.86	-37.9	-38.6	25.2	0.00e+00	0	43	0	1713373184	47	3888
2026-01-26 13:47:20.88	257.17	25.90	-37.9	-38.6	25.2	0.00e+00	0	43	0	1719664640	47	3905
2026-01-26 13:47:21.88	257.47	25.94	-37.9	-38.6	25.2	0.00e+00	0	43	0	1724907520	47	3899
2026-01-26 13:47:22.89	257.76	25.98	-37.8	-38.5	25.3	0.00e+00	0	43	0	1730150400	47	3865
2026-01-26 13:47:23.89	258.06	26.02	-37.8	-38.6	25.3	0.00e+00	0	43	0	1736441856	47	3872
2026-01-26 13:47:24.90	258.36	26.06	-37.8	-38.5	25.3	0.00e+00	0	43	0	1741684736	47	3847
2026-01-26 13:47:25.91	258.65	26.10	-37.9	-38.6	25.2	0.00e+00	0	43	0	1747976192	47	3896
2026-01-26 13:47:26.91	258.95	26.13	-37.8	-38.5	25.3	0.00e+00	0	43	0	1753219072	47	3855
2026-01-26 13:47:27.91	259.25	26.17	-37.7	-38.4	25.4	0.00e+00	0	43	0	1759510528	47	3787
2026-01-26 13:47:28.92	259.55	26.21	-37.7	-38.4	25.3	0.00e+00	0	43	0	1764753408	47	3823
2026-01-26 13:47:29.93	259.85	26.24	-37.8	-38.5	25.3	0.00e+00	0	43	0	1771044864	47	3853
2026-01-26 13:47:30.94	260.15	26.27	-37.9	-38.7	25.2	0.00e+00	0	43	0	1776287744	47	3918
2026-01-26 13:47:31.95	260.45	26.31	-38.1	-38.8	25.1	0.00e+00	0	43	0	1781530624	47	3974
2026-01-26 13:47:32.96	260.76	26.34	-38.0	-38.7	25.1	0.00e+00	0	43	0	1787822080	47	3957
2026-01-26 13:47:33.96	261.06	26.37	-37.8	-38.6	25.3	0.00e+00	0	43	0	1793064960	47	3876
2026-01-26 13:47:34.97	261.36	26.40	-37.8	-38.5	25.3	0.00e+00	0	43	0	1798307840	47	3847
2026-01-26 13:47:35.98	261.67	26.43	-37.8	-38.5	25.3	0.00e+00	0	43	0	1804599296	47	3868
2026-01-26 13:47:36.99	261.97	26.46	-38.0	-38.7	25.2	0.00e+00	0	43	0	1809842176	47	3942
2026-01-26 13:47:38.00	262.28	26.49	-37.9	-38.6	25.2	0.00e+00	0	44	0	1815085056	47	3895
2026-01-26 13:47:39.00	262.58	26.52	-37.7	-38.4	25.4	0.00e+00	0	43	0	1821376512	47	3800
2026-01-26 13:47:40.01	262.89	26.55	-37.5	-38.2	25.6	0.00e+00	0	43	0	1826619392	47	3711
2026-01-26 13:47:41.01	263.20	26.57	-37.5	-38.2	25.6	0.00e+00	0	43	0	1832910848	46	3948
2026-01-26 13:47:42.02	263.50	26.60	-37.6	-38.2	25.5	0.00e+00	0	43	0	1838153728	46	3958
2026-01-26 13:47:43.03	263.81	26.62	-37.6	-38.3	25.5	0.00e+00	0	43	0	1844445184	46	3984
2026-01-26 13:47:44.04	264.12	26.65	-37.5	-38.2	25.5	0.00e+00	0	43	0	1849688064	46	3952
2026-01-26 13:47:45.05	264.43	26.67	-37.4	-38.1	25.6	0.00e+00	0	43	0	1855979520	46	3907
2026-01-26 13:47:46.05	264.74	26.69	-37.6	-38.3	25.5	0.00e+00	0	43	0	1861222400	46	3962
2026-01-26 13:47:47.06	265.05	26.71	-37.5	-38.2	25.6	0.00e+00	0	43	0	1866465280	46	3941
2026-01-26 13:47:48.07	265.36	26.73	-37.7	-38.4	25.4	0.00e+00	0	43	0	1872756736	46	4021
2026-01-26 13:47:49.08	265.67	26.75	-37.8	-38.5	25.3	0.00e+00	0	43	0	1877999616	46	4089
2026-01-26 13:47:50.09	265.98	26.77	-37.8	-38.5	25.3	0.00e+00	0	43	0	1883242496	46	4098
2026-01-26 13:47:51.09	266.29	26.79	-37.8	-38.5	25.3	0.00e+00	0	44	0	1889533952	46	4072
2026-01-26 13:47:52.10	266.60	26.80	-37.8	-38.5	25.3	0.00e+00	0	43	0	1894776832	46	4054
2026-01-26 13:47:53.11	266.92	26.82	-37.8	-38.5	25.4	0.00e+00	0	43	0	1900019712	46	4061
2026-01-26 13:47:54.11	267.23	26.83	-37.8	-38.5	25.3	0.00e+00	0	43	0	1906311168	46	4091
2026-01-26 13:47:55.12	267.54	26.85	-37.9	-38.6	25.3	0.00e+00	0	43	0	1912602624	46	4113
2026-01-26 13:47:56.13	267.85	26.86	-37.9	-38.6	25.2	0.00e+00	0	43	0	1917845504	46	4143
2026-01-26 13:47:57.14	268.17	26.87	-38.0	-38.7	25.2	0.00e+00	0	43	0	1923088384	46	4170
2026-01-26 13:47:58.14	268.48	26.89	-38.1	-38.8	25.1	0.00e+00	0	43	0	1929379840	46	4213
2026-01-26 13:47:59.15	268.79	26.90	-38.1	-38.8	25.1	0.00e+00	0	43	0	1934622720	46	4215
2026-01-26 13:48:00.16	269.11	26.91	-38.0	-38.7	25.2	0.00e+00	0	43	0	1940914176	46	4153
2026-01-26 13:48:01.17	269.42	26.91	-37.9	-38.6	25.3	0.00e+00	0	43	0	1946157056	46	4120
2026-01-26 13:48:02.18	269.73	26.92	-38.0	-38.7	25.2	0.00e+00	0	44	0	1951399936	46	4151
2026-01-26 13:48:03.18	270.05	26.93	-37.9	-38.6	25.3	0.00e+00	0	43	0	1957691392	46	4120
2026-01-26 13:48:04.19	270.36	26.93	-37.9	-38.6	25.3	0.00e+00	0	43	0	1962934272	46	4113
2026-01-26 13:48:05.19	270.67	26.94	-37.9	-38.6	25.3	0.00e+00	0	43	0	1968177152	46	4117
2026-01-26 13:48:06.20	270.99	26.94	-37.9	-38.7	25.2	0.00e+00	0	43	0	1974468608	46	4151
2026-01-26 13:48:07.21	271.30	26.95	-37.8	-38.5	25.3	0.00e+00	0	43	0	1979711488	46	4076
2026-01-26 13:48:08.21	271.61	26.95	-37.8	-38.5	25.3	0.00e+00	0	44	0	1986002944	46	4085
2026-01-26 13:48:09.22	271.93	26.95	-37.9	-38.6	25.3	0.00e+00	0	43	0	1991245824	46	4106
2026-01-26 13:48:10.23	272.24	26.95	-37.8	-38.5	25.4	0.00e+00	0	43	0	1997537280	46	4073
2026-01-26 13:48:11.24	272.56	26.95	-37.7	-38.4	25.4	0.00e+00	0	44	0	2002780160	46	4027
2026-01-26 13:48:12.24	272.87	26.95	-37.7	-38.4	25.4	0.00e+00	0	43	0	2008023040	46	4051
2026-01-26 13:48:13.25	273.19	26.95	-37.9	-38.6	25.3	0.00e+00	0	43	0	2014314496	46	4124
2026-01-26 13:48:14.25	273.50	26.94	-37.8	-38.5	25.3	0.00e+00	0	44	0	2019557376	46	4098
2026-01-26 13:48:15.26	273.81	26.94	-38.0	-38.7	25.2	0.00e+00	0	43	0	2025848832	46	4165
2026-01-26 13:48:16.26	274.12	26.94	-37.9	-38.6	25.2	0.00e+00	0	44	0	2031091712	46	4139
2026-01-26 13:48:17.27	274.44	26.93	-37.8	-38.5	25.3	0.00e+00	0	43	0	2036334592	46	4078
2026-01-26 13:48:18.28	274.75	26.92	-37.8	-38.5	25.3	0.00e+00	0	44	0	2042626048	46	4097
2026-01-26 13:48:19.29	275.07	26.92	-37.8	-38.5	25.4	0.00e+00	0	44	0	2047868928	46	4081
2026-01-26 13:48:20.30	275.38	26.91	-37.8	-38.5	25.3	0.00e+00	0	44	0	2053111808	46	4086
2026-01-26 13:48:21.30	275.69	26.90	-37.8	-38.5	25.4	0.00e+00	0	43	0	2059403264	46	4084
2026-01-26 13:48:22.31	276.01	26.89	-37.9	-38.6	25.3	0.00e+00	0	44	0	2064646144	46	4114
2026-01-26 13:48:23.32	276.32	26.88	-37.8	-38.5	25.3	0.00e+00	0	43	0	2070937600	46	4097
2026-01-26 13:48:24.33	276.63	26.86	-37.8	-38.5	25.4	0.00e+00	0	44	0	2076180480	46	4086
2026-01-26 13:48:25.33	276.94	26.85	-37.8	-38.5	25.3	0.00e+00	0	43	0	2082471936	46	4086
2026-01-26 13:48:26.35	277.26	26.84	-37.8	-38.5	25.4	0.00e+00	0	43	0	2087714816	46	4054
2026-01-26 13:48:27.36	277.57	26.82	-37.7	-38.4	25.5	0.00e+00	0	43	0	2092957696	46	4015
2026-01-26 13:48:28.36	277.88	26.81	-37.7	-38.4	25.5	0.00e+00	0	44	0	2099249152	46	4024
2026-01-26 13:48:29.37	278.19	26.79	-37.7	-38.4	25.4	0.00e+00	0	43	0	2104492032	46	4039
2026-01-26 13:48:30.38	278.51	26.77	-37.8	-38.5	25.4	0.00e+00	0	43	0	2110783488	46	4060
2026-01-26 13:48:31.39	278.82	26.75	-37.9	-38.6	25.3	0.00e+00	0	44	0	2116026368	46	4105
2026-01-26 13:48:32.39	279.13	26.74	-37.9	-38.6	25.3	0.00e+00	0	44	0	2121269248	46	4137
2026-01-26 13:48:33.40	279.44	26.72	-38.0	-38.8	25.1	0.00e+00	0	43	0	2127560704	46	4204
2026-01-26 13:48:34.41	279.75	26.69	-38.1	-38.9	25.0	0.00e+00	0	43	0	2132803584	46	4246
2026-01-26 13:48:35.42	280.06	26.67	-38.0	-38.7	25.2	0.00e+00	0	43	0	2139095040	46	4186
2026-01-26 13:48:36.42	280.36	26.65	-38.1	-38.8	25.1	0.00e+00	0	43	0	2144337920	46	4210
2026-01-26 13:48:37.43	280.67	26.63	-38.2	-38.9	25.1	0.00e+00	0	43	0	2150629376	46	4254
2026-01-26 13:48:38.44	280.98	26.60	-38.3	-39.0	25.0	0.00e+00	0	43	0	2155872256	47	4073
2026-01-26 13:48:39.45	281.29	26.58	-38.1	-38.9	25.1	0.00e+00	0	44	0	2161115136	47	4010
2026-01-26 13:48:40.46	281.59	26.55	-38.2	-38.9	25.1	0.00e+00	0	43	0	2167406592	47	4015
2026-01-26 13:48:41.47	281.90	26.52	-38.2	-39.0	25.0	0.00e+00	0	43	0	2172649472	47	4058
2026-01-26 13:48:42.47	282.21	26.50	-37.9	-38.6	25.4	0.00e+00	0	43	0	2177892352	47	3889
2026-01-26 13:48:43.48	282.51	26.47	-37.8	-38.5	25.4	0.00e+00	0	43	0	2184183808	47	3856
2026-01-26 13:48:44.49	282.82	26.44	-37.8	-38.5	25.5	0.00e+00	0	43	0	2189426688	47	3839
2026-01-26 13:48:45.49	283.12	26.41	-37.7	-38.4	25.5	0.00e+00	0	43	0	2195718144	47	3817
2026-01-26 13:48:46.50	283.42	26.38	-37.9	-38.6	25.4	0.00e+00	0	44	0	2200961024	47	3877
2026-01-26 13:48:47.51	283.73	26.35	-38.0	-38.7	25.2	0.00e+00	0	43	0	2206203904	47	3935
2026-01-26 13:48:48.52	284.03	26.31	-38.1	-38.8	25.1	0.00e+00	0	43	0	2212495360	47	4001
2026-01-26 13:48:49.53	284.33	26.28	-38.0	-38.8	25.2	0.00e+00	0	44	0	2218786816	47	3970
2026-01-26 13:48:50.54	284.63	26.25	-38.2	-38.9	25.1	0.00e+00	0	44	0	2224029696	47	4025
2026-01-26 13:48:51.55	284.93	26.21	-38.2	-38.9	25.1	0.00e+00	0	43	0	2229272576	47	4029
2026-01-26 13:48:52.55	285.23	26.18	-38.1	-38.8	25.2	0.00e+00	0	43	0	2235564032	47	3990
2026-01-26 13:48:53.56	285.53	26.14	-38.2	-38.9	25.1	0.00e+00	0	43	0	2240806912	47	4034
2026-01-26 13:48:54.57	285.83	26.10	-38.3	-39.0	25.0	0.00e+00	0	44	0	2246049792	47	4078
2026-01-26 13:48:55.58	286.13	26.07	-38.3	-39.0	25.0	0.00e+00	0	44	0	2252341248	47	4087
2026-01-26 13:48:56.58	286.42	26.03	-38.3	-39.1	24.9	0.00e+00	0	43	0	2257584128	47	4115
2026-01-26 13:48:57.59	286.72	25.99	-38.2	-38.9	25.1	0.00e+00	0	43	0	2262827008	47	4027
2026-01-26 13:48:58.60	287.02	25.95	-38.1	-38.8	25.2	0.00e+00	0	43	0	2269118464	47	3990
2026-01-26 13:48:59.60	287.31	25.91	-38.2	-38.9	25.1	0.00e+00	0	44	0	2274361344	47	4030
2026-01-26 13:49:00.61	287.60	25.87	-38.3	-39.0	25.1	0.00e+00	0	43	0	2280652800	47	4064
2026-01-26 13:49:01.61	287.90	25.82	-38.3	-39.0	25.1	0.00e+00	0	44	0	2285895680	47	4067
2026-01-26 13:49:02.62	288.19	25.78	-38.4	-39.2	24.9	0.00e+00	0	44	0	2292187136	47	4151
2026-01-26 13:49:03.63	288.48	25.74	-38.5	-39.2	24.8	0.00e+00	0	43	0	2297430016	47	4185
2026-01-26 13:49:04.63	288.77	25.69	-38.4	-39.2	24.9	0.00e+00	0	43	0	2303721472	47	4168
2026-01-26 13:49:05.64	289.06	25.65	-38.5	-39.2	24.8	0.00e+00	0	43	0	2308964352	47	4188
2026-01-26 13:49:06.64	289.35	25.60	-38.6	-39.3	24.8	0.00e+00	0	43	0	2314207232	47	4220
2026-01-26 13:49:07.65	289.64	25.56	-38.5	-39.2	24.9	0.00e+00	0	43	0	2320498688	47	4158
2026-01-26 13:49:08.66	289.93	25.51	-38.3	-39.1	25.0	0.00e+00	0	43	0	2325741568	47	4102
2026-01-26 13:49:09.67	290.21	25.46	-38.3	-39.0	25.0	0.00e+00	0	43	0	2330984448	47	4091
2026-01-26 13:49:10.68	290.50	25.41	-38.3	-39.0	25.1	0.00e+00	0	43	0	2337275904	47	4076
2026-01-26 13:49:11.69	290.78	25.36	-38.3	-39.0	25.0	0.00e+00	0	43	0	2342518784	47	4091
2026-01-26 13:49:12.70	291.07	25.31	-38.2	-39.0	25.1	0.00e+00	0	43	0	2347761664	47	4056
2026-01-26 13:49:13.71	291.35	25.26	-38.1	-38.8	25.3	0.00e+00	0	44	0	2354053120	47	3961
2026-01-26 13:49:14.71	291.63	25.21	-38.0	-38.7	25.3	0.00e+00	0	43	0	2359296000	47	3956
2026-01-26 13:49:15.72	291.92	25.16	-38.1	-38.8	25.2	0.00e+00	0	43	0	2365587456	47	3993
2026-01-26 13:49:16.73	292.20	25.11	-38.3	-39.0	25.1	0.00e+00	0	43	0	2370830336	47	4063
2026-01-26 13:49:17.74	292.48	25.06	-38.3	-39.0	25.1	0.00e+00	0	43	0	2377121792	47	4092
2026-01-26 13:49:18.74	292.75	25.00	-38.5	-39.2	24.9	0.00e+00	0	43	0	2382364672	47	4179
2026-01-26 13:49:19.75	293.03	24.95	-38.5	-39.3	24.8	0.00e+00	0	43	0	2388656128	47	4206
2026-01-26 13:49:20.76	293.31	24.89	-38.7	-39.4	24.7	0.00e+00	0	43	0	2393899008	47	4261
2026-01-26 13:49:21.77	293.59	24.84	-38.6	-39.4	24.8	0.00e+00	0	44	0	2399141888	47	4244
2026-01-26 13:49:22.78	293.86	24.78	-38.4	-39.1	25.0	0.00e+00	0	43	0	2405433344	47	4129
2026-01-26 13:49:23.79	294.14	24.73	-38.5	-39.2	24.9	0.00e+00	0	43	0	2410676224	47	4164
2026-01-26 13:49:24.79	294.41	24.67	-38.5	-39.2	24.9	0.00e+00	0	43	0	2415919104	47	4172
2026-01-26 13:49:25.80	294.68	24.61	-38.5	-39.3	24.9	0.00e+00	0	43	0	2422210560	47	4194
2026-01-26 13:49:26.81	294.95	24.55	-38.6	-39.3	24.8	0.00e+00	0	44	0	2427453440	47	4217
2026-01-26 13:49:27.82	295.22	24.50	-38.7	-39.4	24.7	0.00e+00	0	43	0	2433744896	47	4275
2026-01-26 13:49:28.82	295.49	24.44	-38.7	-39.4	24.7	0.00e+00	0	43	0	2438987776	47	4278
2026-01-26 13:49:29.82	295.76	24.38	-39.0	-39.7	25.0	0.00e+00	0	44	0	2445279232	48	4166
2026-01-26 13:49:30.83	296.02	24.32	-38.9	-39.6	25.1	0.00e+00	0	43	0	2450522112	48	4115
2026-01-26 13:49:31.84	296.29	24.26	-38.9	-39.6	25.0	0.00e+00	0	44	0	2455764992	48	4127
2026-01-26 13:49:32.85	296.56	24.20	-38.8	-39.4	25.2	0.00e+00	0	43	0	2462056448	48	4046
2026-01-26 13:49:33.86	296.82	24.14	-38.7	-39.4	25.2	0.00e+00	0	44	0	2467299328	48	4048
2026-01-26 13:49:34.87	297.08	24.07	-38.9	-39.6	25.0	0.00e+00	0	43	0	2473590784	48	4140
2026-01-26 13:49:35.88	297.35	24.01	-39.0	-39.7	24.9	0.00e+00	0	43	0	2478833664	48	4177
2026-01-26 13:49:36.89	297.61	23.95	-39.0	-39.7	24.9	0.00e+00	0	43	0	2484076544	48	4184
2026-01-26 13:49:37.89	297.87	23.89	-38.9	-39.7	25.0	0.00e+00	0	43	0	2490368000	48	4151
2026-01-26 13:49:38.89	298.12	23.82	-38.9	-39.6	25.0	0.00e+00	0	43	0	2495610880	48	4137
2026-01-26 13:49:39.90	298.38	23.76	-38.8	-39.5	25.1	0.00e+00	0	44	0	2500853760	48	4062
2026-01-26 13:49:40.91	298.64	23.69	-38.8	-39.4	25.1	0.00e+00	0	43	0	2507145216	48	4048
2026-01-26 13:49:41.92	298.90	23.63	-38.9	-39.6	25.0	0.00e+00	0	43	0	2513436672	48	4100
2026-01-26 13:49:42.93	299.15	23.56	-39.1	-39.8	24.8	0.00e+00	0	43	0	2518679552	48	4210
2026-01-26 13:49:43.93	299.40	23.50	-39.1	-39.9	24.8	0.00e+00	0	43	0	2523922432	48	4250
2026-01-26 13:49:44.94	299.66	23.43	-39.2	-40.0	24.7	0.00e+00	0	43	0	2530213888	49	4064
2026-01-26 13:49:45.95	299.91	23.36	-39.3	-40.0	24.6	0.00e+00	0	44	0	2535456768	49	4091
2026-01-26 13:49:46.95	300.16	23.30	-39.3	-40.0	24.7	0.00e+00	0	43	0	2540699648	49	4068
2026-01-26 13:49:47.96	300.41	23.23	-39.1	-39.8	24.8	0.00e+00	0	43	0	2546991104	49	3995
2026-01-26 13:49:48.97	300.66	23.16	-39.0	-39.7	24.9	0.00e+00	0	44	0	2552233984	49	3941
2026-01-26 13:49:49.97	300.90	23.10	-39.0	-39.7	24.9	0.00e+00	0	43	0	2558525440	49	3923
2026-01-26 13:49:50.98	301.15	23.03	-38.9	-39.6	25.0	0.00e+00	0	43	0	2563768320	49	3881
2026-01-26 13:49:51.99	301.40	22.96	-38.7	-39.4	25.1	0.00e+00	0	43	0	2569011200	49	3817
2026-01-26 13:49:53.00	301.64	22.89	-38.9	-39.6	25.0	0.00e+00	0	44	0	2575302656	49	3871
2026-01-26 13:49:54.00	301.88	22.82	-39.0	-39.7	24.9	0.00e+00	0	43	0	2580545536	49	3924
2026-01-26 13:49:55.01	302.13	22.75	-39.1	-39.8	24.8	0.00e+00	0	43	0	2585788416	49	3972
2026-01-26 13:49:56.01	302.36	22.68	-39.2	-39.9	24.7	0.00e+00	0	43	0	2592079872	49	4026
2026-01-26 13:49:57.02	302.61	22.61	-39.3	-40.0	24.6	0.00e+00	0	43	0	2598371328	49	4086
2026-01-26 13:49:58.02	302.84	22.54	-39.2	-39.9	24.7	0.00e+00	0	44	0	2603614208	49	4047
2026-01-26 13:49:59.03	303.08	22.47	-39.2	-40.0	24.6	0.00e+00	0	43	0	2608857088	49	4066
2026-01-26 13:50:00.03	303.32	22.40	-39.3	-40.0	24.5	0.00e+00	0	43	0	2615148544	49	4098
2026-01-26 13:50:01.04	303.55	22.33	-39.3	-40.0	24.6	0.00e+00	0	44	0	2620391424	49	4086
2026-01-26 13:50:02.05	303.79	22.25	-39.2	-40.0	24.6	0.00e+00	0	43	0	2625634304	49	4062
2026-01-26 13:50:03.06	304.02	22.18	-39.2	-39.9	24.6	0.00e+00	0	43	0	2631925760	49	4043
2026-01-26 13:50:04.06	304.25	22.11	-39.2	-39.9	24.7	0.00e+00	0	44	0	2637168640	49	4023
2026-01-26 13:50:05.07	304.48	22.04	-39.2	-40.0	24.6	0.00e+00	0	43	0	2643460096	49	4062
2026-01-26 13:50:06.08	304.72	21.96	-39.2	-39.9	24.7	0.00e+00	0	43	0	2648702976	49	4028
2026-01-26 13:50:07.09	304.95	21.89	-39.2	-39.9	24.7	0.00e+00	0	43	0	2653945856	49	4027
2026-01-26 13:50:08.10	305.17	21.82	-39.4	-40.1	24.5	0.00e+00	0	43	0	2660237312	49	4110
2026-01-26 13:50:09.11	305.40	21.74	-39.3	-40.0	24.6	0.00e+00	0	43	0	2665480192	49	4069
2026-01-26 13:50:10.12	305.63	21.67	-39.4	-40.1	24.4	0.00e+00	0	44	0	2671771648	49	4143
2026-01-26 13:50:11.13	305.85	21.59	-39.4	-40.1	24.4	0.00e+00	0	44	0	2677014528	49	4135
2026-01-26 13:50:12.13	306.08	21.52	-39.3	-40.0	24.5	0.00e+00	0	43	0	2683305984	49	4092
2026-01-26 13:50:13.14	306.30	21.45	-39.3	-40.0	24.5	0.00e+00	0	43	0	2688548864	49	4068
2026-01-26 13:50:14.15	306.52	21.37	-39.3	-40.0	24.5	0.00e+00	0	43	0	2693791744	49	4074
2026-01-26 13:50:15.16	306.74	21.30	-39.2	-39.9	24.6	0.00e+00	0	43	0	2700083200	49	4036
2026-01-26 13:50:16.17	306.97	21.22	-39.1	-39.9	24.6	0.00e+00	0	43	0	2705326080	49	4006
2026-01-26 13:50:17.17	307.18	21.15	-39.2	-39.9	24.6	0.00e+00	0	44	0	2710568960	49	4023
2026-01-26 13:50:18.18	307.40	21.07	-39.3	-40.0	24.5	0.00e+00	0	43	0	2716860416	49	4063
2026-01-26 13:50:19.19	307.62	20.99	-39.4	-40.1	24.4	0.00e+00	0	44	0	2722103296	49	4137
2026-01-26 13:50:20.20	307.83	20.92	-39.6	-40.3	24.2	0.00e+00	0	43	0	2728394752	49	4242
2026-01-26 13:50:21.21	308.05	20.84	-39.5	-40.2	24.3	0.00e+00	0	44	0	2733637632	49	4179
2026-01-26 13:50:22.22	308.26	20.77	-39.6	-40.3	24.2	0.00e+00	0	43	0	2739929088	49	4220
2026-01-26 13:50:23.23	308.48	20.69	-39.6	-40.3	24.2	0.00e+00	0	44	0	2745171968	49	4216
2026-01-26 13:50:24.23	308.69	20.61	-39.6	-40.3	24.2	0.00e+00	0	44	0	2751463424	49	4211
2026-01-26 13:50:25.24	308.90	20.54	-39.7	-40.4	24.1	0.00e+00	0	43	0	2756706304	49	4278
2026-01-26 13:50:26.24	309.11	20.46	-39.7	-40.4	24.1	0.00e+00	0	43	0	2761949184	49	4287
2026-01-26 13:50:27.25	309.31	20.38	-39.8	-40.5	24.0	0.00e+00	0	43	0	2768240640	50	4093
2026-01-26 13:50:28.26	309.52	20.31	-39.9	-40.7	23.9	0.00e+00	0	44	0	2773483520	50	4175
2026-01-26 13:50:29.27	309.73	20.23	-40.0	-40.8	23.8	0.00e+00	0	43	0	2778726400	50	4194
2026-01-26 13:50:30.28	309.94	20.15	-39.9	-40.7	23.9	0.00e+00	0	43	0	2785017856	50	4159
2026-01-26 13:50:31.29	310.14	20.07	-40.0	-40.8	23.8	0.00e+00	0	43	0	2790260736	50	4195
2026-01-26 13:50:32.30	310.34	20.00	-39.9	-40.7	23.9	0.00e+00	0	44	0	2795503616	50	4160
2026-01-26 13:50:33.31	310.55	19.92	-40.0	-40.8	23.8	0.00e+00	0	43	0	2801795072	50	4218
2026-01-26 13:50:34.31	310.75	19.84	-40.1	-40.9	23.7	0.00e+00	0	43	0	2808086528	50	4244
2026-01-26 13:50:35.32	310.95	19.76	-40.0	-40.8	23.7	0.00e+00	0	43	0	2813329408	50	4220
2026-01-26 13:50:36.33	311.15	19.68	-40.0	-40.8	23.8	0.00e+00	0	44	0	2818572288	50	4211
2026-01-26 13:50:37.34	311.35	19.61	-40.0	-40.8	23.8	0.00e+00	0	44	0	2824863744	50	4203
2026-01-26 13:50:38.35	311.55	19.53	-39.8	-40.5	24.0	0.00e+00	0	44	0	2830106624	50	4073
2026-01-26 13:50:39.35	311.74	19.45	-39.8	-40.6	24.0	0.00e+00	0	43	0	2836398080	50	4099
2026-01-26 13:50:40.36	311.94	19.37	-39.8	-40.5	24.0	0.00e+00	0	43	0	2841640960	50	4068
2026-01-26 13:50:41.37	312.13	19.29	-39.7	-40.5	24.1	0.00e+00	0	44	0	2846883840	50	4054
2026-01-26 13:50:42.38	312.33	19.21	-39.6	-40.4	24.1	0.00e+00	0	43	0	2853175296	50	4012
2026-01-26 13:50:43.38	312.52	19.14	-39.7	-40.4	24.1	0.00e+00	0	44	0	2858418176	50	4027
2026-01-26 13:50:44.39	312.71	19.06	-39.7	-40.4	24.1	0.00e+00	0	43	0	2863661056	50	4024
2026-01-26 13:50:45.39	312.90	18.98	-39.9	-40.6	23.9	0.00e+00	0	43	0	2869952512	50	4124
2026-01-26 13:50:46.41	313.09	18.90	-40.0	-40.7	23.8	0.00e+00	0	43	0	2875195392	50	4182
2026-01-26 13:50:47.41	313.28	18.82	-40.1	-40.9	23.7	0.00e+00	0	44	0	2880438272	50	4248
2026-01-26 13:50:48.41	313.46	18.74	-40.1	-40.9	23.6	0.00e+00	0	43	0	2886729728	50	4279
2026-01-26 13:50:49.42	313.65	18.66	-40.1	-40.9	23.6	0.00e+00	0	43	0	2893021184	50	4271
2026-01-26 13:50:50.43	313.84	18.59	-40.1	-40.9	23.6	0.00e+00	0	44	0	2898264064	50	4264
2026-01-26 13:50:51.44	314.02	18.51	-40.2	-41.0	23.6	0.00e+00	0	43	0	2903506944	50	4294
2026-01-26 13:50:52.45	314.21	18.43	-40.0	-40.8	23.7	0.00e+00	0	43	0	2909798400	50	4211
2026-01-26 13:50:53.45	314.39	18.35	-40.1	-40.8	23.7	0.00e+00	0	43	0	2915041280	50	4210
2026-01-26 13:50:54.46	314.57	18.27	-40.0	-40.7	23.7	0.00e+00	0	43	0	2921332736	50	4192
2026-01-26 13:50:55.47	314.75	18.19	-40.1	-40.9	23.6	0.00e+00	0	44	0	2926575616	50	4249
2026-01-26 13:50:56.48	314.93	18.11	-40.2	-40.9	23.6	0.00e+00	0	44	0	2931818496	50	4274
2026-01-26 13:50:57.49	315.11	18.03	-40.2	-41.0	23.5	0.00e+00	0	43	0	2938109952	51	4077
2026-01-26 13:50:58.49	315.29	17.95	-40.3	-41.1	23.4	0.00e+00	0	43	0	2943352832	51	4126
2026-01-26 13:50:59.50	315.47	17.87	-40.4	-41.1	23.4	0.00e+00	0	43	0	2948595712	51	4140
2026-01-26 13:51:00.51	315.65	17.80	-40.4	-41.2	23.3	0.00e+00	0	43	0	2954887168	51	4168
2026-01-26 13:51:01.52	315.82	17.72	-40.4	-41.2	23.3	0.00e+00	0	44	0	2961178624	51	4150
2026-01-26 13:51:02.53	316.00	17.64	-40.3	-41.0	23.4	0.00e+00	0	43	0	2966421504	51	4098
2026-01-26 13:51:03.54	316.17	17.56	-40.3	-41.0	23.5	0.00e+00	0	43	0	2971664384	51	4081
2026-01-26 13:51:04.55	316.35	17.48	-40.3	-41.1	23.4	0.00e+00	0	43	0	2977955840	51	4116
2026-01-26 13:51:05.56	316.52	17.40	-40.4	-41.1	23.3	0.00e+00	0	44	0	2983198720	51	4140
2026-01-26 13:51:06.57	316.69	17.32	-40.3	-41.1	23.4	0.00e+00	0	43	0	2988441600	51	4125
2026-01-26 13:51:07.57	316.86	17.24	-40.4	-41.2	23.3	0.00e+00	0	44	0	2994733056	51	4180
2026-01-26 13:51:08.58	317.03	17.16	-40.4	-41.2	23.3	0.00e+00	0	43	0	2999975936	51	4147
2026-01-26 13:51:09.59	317.20	17.08	-40.3	-41.0	23.4	0.00e+00	0	44	0	3006267392	51	4098
2026-01-26 13:51:10.60	317.37	17.00	-40.4	-41.2	23.3	0.00e+00	0	43	0	3011510272	51	4154
2026-01-26 13:51:11.61	317.54	16.93	-40.3	-41.1	23.3	0.00e+00	0	43	0	3016753152	51	4125
2026-01-26 13:51:12.61	317.70	16.85	-40.4	-41.2	23.2	0.00e+00	0	44	0	3023044608	51	4185
2026-01-26 13:51:13.62	317.87	16.77	-40.4	-41.2	23.2	0.00e+00	0	43	0	3029336064	51	4189
2026-01-26 13:51:14.63	318.03	16.69	-40.5	-41.3	23.2	0.00e+00	0	44	0	3034578944	51	4200
2026-01-26 13:51:15.64	318.20	16.61	-40.5	-41.3	23.2	0.00e+00	0	43	0	3039821824	51	4211
2026-01-26 13:51:16.65	318.36	16.53	-40.5	-41.3	23.2	0.00e+00	0	44	0	3046113280	51	4221
2026-01-26 13:51:17.65	318.52	16.45	-40.6	-41.4	23.1	0.00e+00	0	43	0	3051356160	51	4265
2026-01-26 13:51:18.66	318.68	16.37	-40.4	-41.2	23.3	0.00e+00	0	44	0	3056599040	51	4171
2026-01-26 13:51:19.67	318.84	16.30	-40.3	-41.1	23.4	0.00e+00	0	44	0	3062890496	51	4111
2026-01-26 13:51:20.67	319.00	16.22	-40.4	-41.1	23.3	0.00e+00	0	43	0	3068133376	51	4139
2026-01-26 13:51:21.68	319.16	16.14	-40.4	-41.2	23.3	0.00e+00	0	43	0	3073376256	51	4153
2026-01-26 13:51:22.69	319.32	16.06	-40.2	-41.0	23.5	0.00e+00	0	44	0	3079667712	51	4062
2026-01-26 13:51:23.70	319.48	15.98	-40.3	-41.1	23.4	0.00e+00	0	43	0	3084910592	51	4105
2026-01-26 13:51:24.70	319.63	15.90	-40.4	-41.2	23.2	0.00e+00	0	43	0	3091202048	51	4159
2026-01-26 13:51:25.71	319.79	15.83	-40.5	-41.3	23.2	0.00e+00	0	43	0	3096444928	51	4201
2026-01-26 13:51:26.72	319.94	15.75	-40.6	-41.4	23.0	0.00e+00	0	44	0	3102736384	51	4274
2026-01-26 13:51:27.73	320.10	15.67	-40.7	-41.5	22.9	0.00e+00	0	44	0	3107979264	52	4077
2026-01-26 13:51:28.73	320.25	15.59	-40.6	-41.5	22.9	0.00e+00	0	44	0	3114270720	52	4052
2026-01-26 13:51:29.74	320.40	15.51	-40.6	-41.4	22.9	0.00e+00	0	43	0	3119513600	52	4036
2026-01-26 13:51:30.74	320.55	15.44	-40.7	-41.5	22.9	0.00e+00	0	43	0	3124756480	52	4055
2026-01-26 13:51:31.75	320.71	15.36	-40.6	-41.4	23.0	0.00e+00	0	43	0	3131047936	52	4014
2026-01-26 13:51:32.76	320.86	15.28	-40.6	-41.4	23.0	0.00e+00	0	44	0	3136290816	52	4011
2026-01-26 13:51:33.77	321.01	15.20	-40.6	-41.4	22.9	0.00e+00	0	44	0	3141533696	52	4038
2026-01-26 13:51:34.77	321.15	15.12	-40.5	-41.3	23.0	0.00e+00	0	43	0	3147825152	52	3997
2026-01-26 13:51:35.78	321.30	15.05	-40.6	-41.4	22.9	0.00e+00	0	43	0	3153068032	52	4025
2026-01-26 13:51:36.78	321.45	14.97	-40.6	-41.4	22.9	0.00e+00	0	44	0	3158310912	52	4045
2026-01-26 13:51:37.78	321.59	14.89	-40.6	-41.4	22.9	0.00e+00	0	44	0	3164602368	52	4039
2026-01-26 13:51:38.79	321.74	14.82	-40.7	-41.5	22.8	0.00e+00	0	44	0	3169845248	52	4067
2026-01-26 13:51:39.80	321.89	14.74	-40.7	-41.5	22.8	0.00e+00	0	44	0	3176136704	52	4094
2026-01-26 13:51:40.81	322.03	14.66	-40.8	-41.6	22.7	0.00e+00	0	43	0	3181379584	52	4122
2026-01-26 13:51:41.82	322.17	14.58	-40.9	-41.7	22.6	0.00e+00	0	44	0	3187671040	52	4166
2026-01-26 13:51:42.83	322.32	14.51	-40.9	-41.7	22.6	0.00e+00	0	44	0	3192913920	52	4172
2026-01-26 13:51:43.83	322.46	14.43	-40.9	-41.8	22.6	0.00e+00	0	44	0	3199205376	52	4199
2026-01-26 13:51:44.84	322.60	14.35	-40.9	-41.7	22.6	0.00e+00	0	44	0	3204448256	52	4159
2026-01-26 13:51:45.85	322.74	14.28	-41.1	-41.9	22.4	0.00e+00	0	43	0	3209691136	52	4259
2026-01-26 13:51:46.85	322.88	14.20	-40.9	-41.7	22.5	0.00e+00	0	43	0	3215982592	52	4192
2026-01-26 13:51:47.86	323.02	14.12	-40.9	-41.7	22.6	0.00e+00	0	44	0	3221225472	52	4155
2026-01-26 13:51:48.87	323.16	14.05	-41.0	-41.8	22.5	0.00e+00	0	43	0	3226468352	52	4207
2026-01-26 13:51:49.87	323.30	13.97	-40.9	-41.7	22.6	0.00e+00	0	43	0	3232759808	52	4171
2026-01-26 13:51:50.89	323.44	13.89	-40.8	-41.6	22.6	0.00e+00	0	43	0	3238002688	52	4140
2026-01-26 13:51:51.89	323.57	13.82	-40.9	-41.7	22.6	0.00e+00	0	43	0	3243245568	52	4159
2026-01-26 13:51:52.90	323.71	13.74	-40.9	-41.7	22.6	0.00e+00	0	44	0	3249537024	52	4151
2026-01-26 13:51:53.91	323.84	13.66	-41.0	-41.8	22.5	0.00e+00	0	43	0	3254779904	52	4219
2026-01-26 13:51:54.92	323.98	13.59	-41.1	-41.9	22.3	0.00e+00	0	43	0	3261071360	52	4270
2026-01-26 13:51:55.93	324.11	13.51	-41.0	-41.8	22.5	0.00e+00	0	44	0	3266314240	52	4210
2026-01-26 13:51:56.93	324.24	13.44	-41.0	-41.8	22.5	0.00e+00	0	43	0	3272605696	52	4219
2026-01-26 13:51:57.94	324.38	13.36	-41.1	-41.9	22.3	0.00e+00	0	43	0	3277848576	52	4272
2026-01-26 13:51:58.95	324.51	13.29	-41.1	-42.0	22.3	0.00e+00	0	43	0	3284140032	53	4061
2026-01-26 13:51:59.96	324.64	13.21	-41.2	-42.0	22.2	0.00e+00	0	43	0	3289382912	53	4097
2026-01-26 13:52:00.97	324.77	13.13	-41.2	-42.1	22.2	0.00e+00	0	43	0	3294625792	53	4110
2026-01-26 13:52:01.97	324.90	13.06	-41.2	-42.1	22.2	0.00e+00	0	44	0	3300917248	53	4106
2026-01-26 13:52:02.98	325.03	12.98	-41.2	-42.0	22.2	0.00e+00	0	43	0	3306160128	53	4093
2026-01-26 13:52:03.99	325.16	12.91	-41.2	-42.1	22.2	0.00e+00	0	43	0	3311403008	53	4111
2026-01-26 13:52:05.00	325.29	12.83	-41.3	-42.2	22.1	0.00e+00	0	44	0	3317694464	53	4163
2026-01-26 13:52:06.01	325.42	12.76	-41.3	-42.1	22.2	0.00e+00	0	43	0	3322937344	53	4116
2026-01-26 13:52:07.01	325.54	12.68	-41.2	-42.1	22.2	0.00e+00	0	44	0	3328180224	53	4103
2026-01-26 13:52:08.02	325.67	12.61	-41.2	-42.1	22.2	0.00e+00	0	43	0	3334471680	53	4110
2026-01-26 13:52:09.03	325.80	12.54	-41.2	-42.1	22.2	0.00e+00	0	43	0	3340763136	53	4108
2026-01-26 13:52:10.03	325.92	12.46	-41.4	-42.2	22.0	0.00e+00	0	43	0	3346006016	53	4180
2026-01-26 13:52:11.04	326.05	12.39	-41.1	-42.0	22.2	0.00e+00	0	44	0	3351248896	53	4068
2026-01-26 13:52:12.05	326.17	12.31	-41.2	-42.1	22.2	0.00e+00	0	43	0	3357540352	53	4102
2026-01-26 13:52:13.06	326.29	12.24	-41.2	-42.0	22.2	0.00e+00	0	44	0	3362783232	53	4091
2026-01-26 13:52:14.07	326.42	12.16	-41.1	-42.0	22.2	0.00e+00	0	44	0	3369074688	53	4052
2026-01-26 13:52:15.08	326.54	12.09	-41.3	-42.1	22.1	0.00e+00	0	43	0	3374317568	53	4121
2026-01-26 13:52:16.09	326.66	12.02	-41.3	-42.1	22.1	0.00e+00	0	44	0	3379560448	53	4135
2026-01-26 13:52:17.10	326.78	11.94	-41.2	-42.0	22.1	0.00e+00	0	43	0	3385851904	53	4097
2026-01-26 13:52:18.11	326.90	11.87	-41.2	-42.0	22.2	0.00e+00	0	44	0	3391094784	53	4085
2026-01-26 13:52:19.12	327.02	11.79	-41.2	-42.1	22.1	0.00e+00	0	43	0	3397386240	53	4104
2026-01-26 13:52:20.12	327.14	11.72	-41.3	-42.2	22.0	0.00e+00	0	44	0	3402629120	53	4159
2026-01-26 13:52:21.13	327.26	11.65	-41.3	-42.1	22.0	0.00e+00	0	44	0	3408920576	53	4143
2026-01-26 13:52:22.14	327.38	11.58	-41.3	-42.2	22.0	0.00e+00	0	43	0	3414163456	53	4167
2026-01-26 13:52:23.15	327.50	11.50	-41.3	-42.2	22.0	0.00e+00	0	44	0	3419406336	53	4149
2026-01-26 13:52:24.15	327.61	11.43	-41.3	-42.1	22.0	0.00e+00	0	44	0	3425697792	53	4144
2026-01-26 13:52:25.16	327.73	11.36	-41.4	-42.3	21.9	0.00e+00	0	44	0	3430940672	53	4206
2026-01-26 13:52:26.17	327.84	11.28	-41.4	-42.3	21.9	0.00e+00	0	44	0	3436183552	53	4194
2026-01-26 13:52:27.18	327.96	11.21	-41.5	-42.4	21.8	0.00e+00	0	44	0	3442475008	53	4248
2026-01-26 13:52:28.19	328.07	11.14	-41.6	-42.5	21.7	0.00e+00	0	43	0	3447717888	53	4303
2026-01-26 13:52:29.20	328.19	11.07	-41.7	-42.6	21.6	0.00e+00	0	44	0	3454009344	54	4108
2026-01-26 13:52:30.20	328.30	10.99	-41.7	-42.6	21.6	0.00e+00	0	43	0	3459252224	54	4121
2026-01-26 13:52:31.21	328.42	10.92	-41.5	-42.3	21.8	0.00e+00	0	44	0	3465543680	54	4000
2026-01-26 13:52:32.22	328.53	10.85	-41.6	-42.5	21.7	0.00e+00	0	43	0	3470786560	54	4068
2026-01-26 13:52:33.23	328.64	10.78	-41.6	-42.5	21.6	0.00e+00	0	43	0	3477078016	54	4081
2026-01-26 13:52:34.23	328.75	10.71	-41.8	-42.7	21.4	0.00e+00	0	44	0	3482320896	54	4160
2026-01-26 13:52:35.24	328.86	10.64	-41.6	-42.5	21.6	0.00e+00	0	43	0	3487563776	54	4055
2026-01-26 13:52:36.24	328.97	10.56	-41.7	-42.6	21.5	0.00e+00	0	44	0	3493855232	54	4124
2026-01-26 13:52:37.25	329.08	10.49	-41.7	-42.6	21.5	0.00e+00	0	43	0	3499098112	54	4135
2026-01-26 13:52:38.26	329.19	10.42	-41.9	-42.8	21.3	0.00e+00	0	44	0	3504340992	54	4236
2026-01-26 13:52:39.26	329.30	10.35	-41.7	-42.6	21.5	0.00e+00	0	43	0	3510632448	54	4109
2026-01-26 13:52:40.27	329.41	10.28	-41.7	-42.6	21.5	0.00e+00	0	43	0	3515875328	54	4127
2026-01-26 13:52:41.27	329.52	10.21	-41.8	-42.6	21.5	0.00e+00	0	43	0	3521118208	54	4141
2026-01-26 13:52:42.28	329.62	10.14	-41.8	-42.7	21.4	0.00e+00	0	43	0	3527409664	54	4158
2026-01-26 13:52:43.28	329.73	10.07	-41.8	-42.7	21.4	0.00e+00	0	43	0	3532652544	54	4183
2026-01-26 13:52:44.29	329.84	10.00	-41.9	-42.9	21.3	0.00e+00	0	44	0	3538944000	54	4249
2026-01-26 13:52:45.29	329.94	9.93	-42.0	-42.9	21.2	0.00e+00	0	44	0	3544186880	54	4272
2026-01-26 13:52:46.30	330.05	9.86	-42.0	-42.9	21.2	0.00e+00	0	43	0	3549429760	54	4256
2026-01-26 13:52:47.31	330.15	9.79	-42.0	-42.9	21.2	0.00e+00	0	44	0	3555721216	54	4270
2026-01-26 13:52:48.31	330.26	9.72	-42.1	-43.0	21.1	0.00e+00	0	43	0	3562012672	54	4301
2026-01-26 13:52:49.32	330.36	9.65	-42.2	-43.2	20.9	0.00e+00	0	44	0	3567255552	55	4158
2026-01-26 13:52:50.33	330.47	9.58	-42.3	-43.2	20.9	0.00e+00	0	43	0	3572498432	55	4166
2026-01-26 13:52:51.34	330.57	9.51	-42.3	-43.2	20.9	0.00e+00	0	43	0	3578789888	55	4162
2026-01-26 13:52:52.34	330.67	9.44	-42.3	-43.2	20.8	0.00e+00	0	44	0	3584032768	55	4183
2026-01-26 13:52:53.35	330.77	9.37	-42.3	-43.3	20.8	0.00e+00	0	44	0	3589275648	55	4197
2026-01-26 13:52:54.36	330.88	9.30	-42.3	-43.3	20.8	0.00e+00	0	44	0	3595567104	55	4200
2026-01-26 13:52:55.37	330.98	9.23	-42.4	-43.3	20.7	0.00e+00	0	43	0	3600809984	55	4238
2026-01-26 13:52:56.37	331.08	9.16	-42.4	-43.3	20.7	0.00e+00	0	44	0	3606052864	55	4235
2026-01-26 13:52:57.38	331.18	9.09	-42.4	-43.3	20.8	0.00e+00	0	44	0	3612344320	55	4230
2026-01-26 13:52:58.39	331.28	9.02	-42.4	-43.3	20.8	0.00e+00	0	43	0	3617587200	55	4213
2026-01-26 13:52:59.39	331.38	8.96	-42.3	-43.2	20.9	0.00e+00	0	44	0	3623878656	55	4156
