passes_logs/2026/01/26/R3.2S_Murmansk/R3.2S_Murmansk__20260126_064346_KANOPUS-V_5_rec.log

#Pass ID: 20260126_064346_KANOPUS-V 5
#Satellite: KANOPUS-V 5
#Configuration: KANOPUS-V_8320
#almurnet v.1.7.20251203
#Start time: 2026-01-26 06:43:48

#Version: 2.2.20231116
#Station: R3.2S_Murmansk
#Location: 33.079688 lon 68.888172 lat
#TLE: 1 43876U 18111A   26026.00801652  .00005574  00000+0  23616-3 0  9999
#TLE: 2 43876  97.3673 294.3234 0001826  89.2210 270.9236 15.23545039393147

#Time	Az	El	Level	Level2	SNR	BER	BlckErr	Temp	State	Recorded	gain1	gain2
2026-01-26 06:43:48.90	130.91	2.15	-54.8	-63.6	3.8	7.45e-01	0	42	0	0	80	10366
2026-01-26 06:43:49.90	130.87	2.22	-55.0	-63.8	3.8	7.46e-01	0	42	104	0	81	10054
2026-01-26 06:43:50.91	130.83	2.29	-54.9	-63.8	3.8	7.46e-01	0	42	104	0	81	9996
2026-01-26 06:43:51.92	130.79	2.36	-54.9	-63.8	3.8	7.45e-01	0	42	104	0	81	9965
2026-01-26 06:43:52.93	130.75	2.43	-54.9	-63.8	3.8	7.45e-01	0	42	104	0	81	9957
2026-01-26 06:43:53.94	130.70	2.50	-54.9	-63.7	3.8	7.44e-01	0	42	104	0	81	9917
2026-01-26 06:43:54.95	130.66	2.57	-54.9	-63.7	3.8	7.46e-01	0	42	104	0	81	9903
2026-01-26 06:43:55.95	130.62	2.64	-54.8	-63.7	3.8	7.44e-01	0	42	104	0	81	9899
2026-01-26 06:43:56.96	130.58	2.71	-54.8	-63.6	3.8	7.45e-01	0	42	104	0	81	9799
2026-01-26 06:43:57.97	130.53	2.78	-54.7	-63.5	3.8	7.47e-01	0	42	104	0	81	9716
2026-01-26 06:43:58.98	130.49	2.86	-54.7	-63.5	3.8	7.46e-01	0	42	104	0	81	9674
2026-01-26 06:43:59.99	130.45	2.93	-54.6	-63.4	3.8	7.46e-01	0	42	104	0	81	9604
2026-01-26 06:44:00.99	130.40	3.00	-54.6	-63.4	3.8	7.46e-01	0	42	104	0	81	9558
2026-01-26 06:44:02.00	130.36	3.07	-54.4	-63.3	3.8	7.44e-01	0	42	104	0	80	9965
2026-01-26 06:44:03.01	130.32	3.14	-54.3	-63.1	3.8	7.47e-01	0	42	104	0	80	9828
2026-01-26 06:44:04.01	130.27	3.22	-54.2	-63.1	3.8	7.44e-01	0	42	104	0	80	9722
2026-01-26 06:44:05.02	130.23	3.29	-54.1	-62.9	3.8	7.46e-01	0	42	104	0	80	9551
2026-01-26 06:44:06.03	130.18	3.36	-54.0	-62.8	3.8	7.44e-01	0	42	104	0	79	9986
2026-01-26 06:44:07.03	130.14	3.44	-53.8	-62.7	3.8	7.45e-01	0	42	104	0	79	9835
2026-01-26 06:44:08.04	130.09	3.51	-53.6	-62.5	3.8	7.45e-01	0	42	104	0	79	9615
2026-01-26 06:44:09.04	130.05	3.58	-53.5	-62.4	3.8	7.45e-01	0	42	104	0	79	9504
2026-01-26 06:44:10.05	130.00	3.66	-53.4	-62.2	3.8	7.46e-01	0	42	104	0	78	9869
2026-01-26 06:44:11.05	129.95	3.73	-53.2	-62.1	3.8	7.45e-01	0	42	104	0	78	9754
2026-01-26 06:44:12.06	129.91	3.81	-53.1	-61.9	3.8	7.46e-01	0	42	104	0	78	9582
2026-01-26 06:44:13.07	129.86	3.88	-53.0	-61.8	3.8	7.45e-01	0	43	104	0	78	9491
2026-01-26 06:44:14.07	129.81	3.96	-53.0	-61.8	3.8	7.44e-01	0	42	104	0	78	9452
2026-01-26 06:44:15.08	129.76	4.03	-53.0	-61.8	3.8	7.47e-01	0	42	104	0	78	9445
2026-01-26 06:44:16.09	129.72	4.11	-53.0	-61.8	3.8	7.45e-01	0	43	104	0	77	9977
2026-01-26 06:44:17.10	129.67	4.19	-52.7	-61.8	3.8	7.46e-01	0	43	104	0	77	9971
2026-01-26 06:44:18.10	129.62	4.26	-52.5	-61.8	3.8	7.45e-01	0	42	104	0	77	9980
2026-01-26 06:44:19.11	129.57	4.34	-50.5	-54.7	5.8	6.87e-01	0	43	104	0	73	5576
2026-01-26 06:44:20.12	129.52	4.42	-49.1	-52.4	8.2	6.42e-01	0	43	0	10485760	70	5057
2026-01-26 06:44:21.13	129.47	4.50	-48.4	-51.4	9.1	6.31e-01	0	43	0	25165824	68	5066
2026-01-26 06:44:22.13	129.42	4.57	-47.6	-50.3	10.4	6.21e-01	0	43	0	41943040	67	4744
2026-01-26 06:44:23.15	129.37	4.65	-46.8	-49.3	11.3	6.17e-01	0	43	0	56623104	65	4724
2026-01-26 06:44:24.16	129.32	4.73	-46.2	-48.5	12.0	6.13e-01	0	43	0	71303168	64	4563
2026-01-26 06:44:25.17	129.26	4.81	-46.2	-48.5	12.0	6.13e-01	0	43	0	88080384	64	4554
2026-01-26 06:44:26.17	129.21	4.89	-46.2	-48.4	12.1	6.13e-01	0	43	0	102760448	63	4813
2026-01-26 06:44:27.18	129.16	4.97	-46.4	-48.8	11.8	6.14e-01	0	43	0	117440512	63	4996
2026-01-26 06:44:28.19	129.11	5.05	-46.9	-49.3	11.2	6.17e-01	0	43	0	134217728	64	5018
2026-01-26 06:44:29.20	129.05	5.13	-46.2	-48.5	12.2	6.13e-01	0	43	0	148897792	64	4559
2026-01-26 06:44:30.20	129.00	5.20	-46.9	-49.4	11.3	6.17e-01	0	43	0	163577856	65	4774
2026-01-26 06:44:31.21	128.95	5.29	-50.8	-55.3	5.5	6.96e-01	0	43	0	180355072	73	5942
2026-01-26 06:44:32.21	128.89	5.37	-46.2	-48.4	12.2	6.13e-01	0	43	0	197132288	64	4500
2026-01-26 06:44:33.22	128.84	5.45	-50.7	-55.1	5.7	6.89e-01	0	43	0	211812352	73	5849
2026-01-26 06:44:34.23	128.78	5.53	-46.4	-48.7	11.8	6.14e-01	0	43	0	226492416	64	4704
2026-01-26 06:44:35.24	128.73	5.61	-45.8	-48.0	12.6	6.12e-01	0	43	0	243269632	63	4571
2026-01-26 06:44:36.25	128.67	5.69	-46.0	-48.2	12.5	6.12e-01	0	43	0	257949696	63	4704
2026-01-26 06:44:37.25	128.62	5.77	-45.9	-48.1	12.6	6.12e-01	0	43	0	272629760	63	4646
2026-01-26 06:44:38.25	128.56	5.86	-45.8	-48.0	12.7	6.12e-01	0	43	0	289406976	63	4572
2026-01-26 06:44:39.25	128.50	5.94	-45.4	-47.8	13.0	5.86e-01	0	43	0	304087040	62	4722
2026-01-26 06:44:40.26	128.44	6.02	-45.8	-48.3	12.6	5.88e-01	0	43	0	318767104	62	4989
2026-01-26 06:44:41.26	128.39	6.10	-45.9	-48.3	12.6	5.88e-01	0	43	0	333447168	62	4998
2026-01-26 06:44:42.27	128.33	6.19	-45.7	-48.1	12.8	5.88e-01	0	43	0	350224384	62	4885
2026-01-26 06:44:43.28	128.27	6.27	-45.7	-48.0	12.8	5.87e-01	0	43	0	364904448	62	4863
2026-01-26 06:44:44.29	128.21	6.36	-45.5	-47.8	13.0	5.86e-01	0	43	0	379584512	62	4747
2026-01-26 06:44:45.29	128.15	6.44	-45.5	-47.8	13.0	5.86e-01	0	43	0	396361728	62	4743
2026-01-26 06:44:46.30	128.09	6.53	-45.3	-47.6	13.2	5.87e-01	0	43	0	411041792	62	4648
2026-01-26 06:44:47.31	128.03	6.61	-45.3	-47.7	13.2	5.86e-01	0	43	0	427819008	62	4673
2026-01-26 06:44:48.32	127.97	6.70	-45.3	-47.6	13.2	5.87e-01	0	43	0	442499072	62	4650
2026-01-26 06:44:49.32	127.91	6.78	-45.3	-47.6	13.3	5.86e-01	0	43	0	459276288	62	4641
2026-01-26 06:44:50.33	127.84	6.87	-45.3	-47.7	13.2	5.86e-01	0	43	0	473956352	62	4680
2026-01-26 06:44:51.34	127.78	6.96	-45.3	-47.7	13.2	5.86e-01	0	43	0	488636416	62	4701
2026-01-26 06:44:52.35	127.72	7.05	-45.3	-47.7	13.2	5.86e-01	0	43	0	505413632	62	4703
2026-01-26 06:44:53.35	127.65	7.13	-45.2	-47.6	13.4	5.86e-01	0	43	0	520093696	62	4614
2026-01-26 06:44:54.36	127.59	7.22	-45.2	-47.6	13.4	5.86e-01	0	43	0	534773760	62	4614
2026-01-26 06:44:55.37	127.52	7.31	-45.1	-47.4	13.5	5.85e-01	0	43	0	551550976	62	4535
2026-01-26 06:44:56.38	127.46	7.40	-44.7	-47.0	13.8	5.85e-01	0	43	0	566231040	61	4581
2026-01-26 06:44:57.38	127.39	7.49	-45.0	-47.3	13.6	5.86e-01	0	43	0	580911104	61	4731
2026-01-26 06:44:58.39	127.33	7.58	-45.0	-47.3	13.6	5.85e-01	0	43	0	597688320	61	4755
2026-01-26 06:44:59.39	127.26	7.67	-44.7	-47.0	13.9	5.85e-01	0	43	0	612368384	61	4549
2026-01-26 06:45:00.41	127.19	7.76	-44.6	-46.9	14.0	5.85e-01	0	43	0	629145600	60	4785
2026-01-26 06:45:01.41	127.13	7.85	-44.6	-46.9	14.0	5.86e-01	0	43	0	643825664	60	4788
2026-01-26 06:45:02.42	127.06	7.94	-44.6	-46.8	14.1	5.85e-01	0	43	0	660602880	60	4735
2026-01-26 06:45:03.43	126.99	8.03	-44.6	-46.8	14.1	5.85e-01	0	43	0	675282944	60	4746
2026-01-26 06:45:04.43	126.92	8.12	-44.4	-46.6	14.3	5.85e-01	0	43	0	689963008	60	4619
2026-01-26 06:45:05.45	126.85	8.22	-44.5	-46.7	14.2	5.85e-01	0	43	0	706740224	60	4670
2026-01-26 06:45:06.45	126.78	8.31	-44.5	-46.7	14.2	5.84e-01	0	43	0	721420288	60	4661
2026-01-26 06:45:07.45	126.71	8.40	-44.3	-46.5	14.4	5.84e-01	0	43	0	736100352	60	4592
2026-01-26 06:45:08.46	126.63	8.50	-44.3	-46.5	14.4	5.85e-01	0	43	0	752877568	60	4568
2026-01-26 06:45:09.47	126.56	8.59	-44.4	-46.5	14.4	5.85e-01	0	43	0	767557632	60	4585
2026-01-26 06:45:10.47	126.49	8.69	-44.2	-46.3	14.6	5.84e-01	0	43	0	782237696	60	4486
2026-01-26 06:45:11.48	126.41	8.78	-44.1	-46.2	14.6	5.85e-01	0	43	0	799014912	60	4435
2026-01-26 06:45:12.49	126.34	8.88	-44.1	-46.2	14.7	5.85e-01	0	43	0	813694976	60	4424
2026-01-26 06:45:13.50	126.26	8.97	-44.2	-46.2	14.6	5.84e-01	0	43	0	828375040	60	4440
2026-01-26 06:45:14.50	126.19	9.07	-44.1	-46.2	14.7	5.83e-01	0	43	0	845152256	60	4408
2026-01-26 06:45:15.51	126.11	9.17	-44.1	-46.2	14.8	5.84e-01	0	43	0	861929472	60	4399
2026-01-26 06:45:16.52	126.03	9.26	-44.1	-46.2	14.7	5.85e-01	0	43	0	876609536	60	4420
2026-01-26 06:45:17.53	125.96	9.36	-44.1	-46.1	14.8	5.83e-01	0	43	0	891289600	59	4628
2026-01-26 06:45:18.53	125.88	9.46	-44.2	-46.2	14.7	5.84e-01	0	43	0	908066816	59	4688
2026-01-26 06:45:19.54	125.80	9.56	-44.2	-46.2	14.7	5.84e-01	0	43	0	922746880	59	4686
2026-01-26 06:45:20.54	125.72	9.66	-43.9	-45.9	14.9	5.84e-01	0	44	0	937426944	59	4541
2026-01-26 06:45:21.55	125.64	9.76	-44.0	-46.0	14.9	5.84e-01	0	44	0	954204160	59	4587
2026-01-26 06:45:22.56	125.56	9.86	-44.0	-46.0	14.9	5.84e-01	0	43	0	968884224	59	4549
2026-01-26 06:45:23.57	125.48	9.96	-43.8	-45.8	15.1	5.84e-01	0	43	0	983564288	59	4460
2026-01-26 06:45:24.58	125.39	10.06	-43.9	-45.8	15.1	5.85e-01	0	43	0	1000341504	59	4480
2026-01-26 06:45:25.59	125.31	10.16	-43.6	-45.5	15.4	5.83e-01	0	44	0	1015021568	59	4310
2026-01-26 06:45:26.60	125.22	10.27	-43.7	-45.7	15.2	5.84e-01	0	43	0	1029701632	59	4415
2026-01-26 06:45:27.60	125.14	10.37	-43.6	-45.5	15.3	5.84e-01	0	44	0	1046478848	59	4340
2026-01-26 06:45:28.61	125.05	10.47	-43.6	-45.5	15.3	5.84e-01	0	43	0	1063256064	59	4337
2026-01-26 06:45:29.62	124.97	10.58	-43.6	-45.6	15.3	5.84e-01	0	43	0	1077936128	59	4354
2026-01-26 06:45:30.63	124.88	10.68	-43.7	-45.7	15.1	5.84e-01	0	43	0	1092616192	59	4433
2026-01-26 06:45:31.64	124.79	10.79	-43.5	-45.5	15.4	5.85e-01	0	43	0	1109393408	59	4312
2026-01-26 06:45:32.65	124.70	10.89	-43.3	-45.3	15.5	5.85e-01	0	44	0	1124073472	58	4461
2026-01-26 06:45:33.65	124.61	11.00	-43.3	-45.3	15.4	5.83e-01	0	43	0	1138753536	58	4491
2026-01-26 06:45:34.66	124.52	11.10	-43.1	-45.1	15.6	5.83e-01	0	44	0	1155530752	58	4386
2026-01-26 06:45:35.67	124.43	11.21	-43.1	-45.2	15.6	5.84e-01	0	43	0	1170210816	58	4394
2026-01-26 06:45:36.68	124.34	11.32	-43.2	-45.2	15.6	5.84e-01	0	44	0	1184890880	58	4407
2026-01-26 06:45:37.69	124.24	11.43	-43.1	-45.1	15.7	5.83e-01	0	44	0	1201668096	58	4368
2026-01-26 06:45:38.70	124.15	11.54	-43.1	-45.1	15.7	5.83e-01	0	43	0	1216348160	58	4376
2026-01-26 06:45:39.71	124.06	11.65	-43.0	-45.0	15.7	5.84e-01	0	44	0	1233125376	57	4581
2026-01-26 06:45:40.71	123.96	11.76	-43.0	-45.0	15.7	5.83e-01	0	43	0	1247805440	57	4583
2026-01-26 06:45:41.72	123.86	11.87	-42.9	-44.9	15.8	5.83e-01	0	43	0	1264582656	57	4522
2026-01-26 06:45:42.73	123.77	11.98	-42.9	-44.9	15.9	5.83e-01	0	44	0	1279262720	57	4516
2026-01-26 06:45:43.73	123.67	12.09	-42.8	-44.8	16.0	5.84e-01	0	43	0	1293942784	57	4457
2026-01-26 06:45:44.74	123.57	12.20	-42.8	-44.9	15.9	5.83e-01	0	44	0	1310720000	57	4505
2026-01-26 06:45:45.75	123.47	12.32	-42.8	-44.8	15.9	5.83e-01	0	44	0	1325400064	57	4492
2026-01-26 06:45:46.75	123.37	12.43	-42.8	-44.8	16.0	5.84e-01	0	44	0	1340080128	57	4454
2026-01-26 06:45:47.76	123.26	12.54	-42.8	-44.8	16.0	5.84e-01	0	44	0	1356857344	57	4450
2026-01-26 06:45:48.77	123.16	12.66	-42.7	-44.7	16.1	5.83e-01	0	44	0	1371537408	57	4411
2026-01-26 06:45:49.77	123.06	12.77	-42.7	-44.7	16.1	5.84e-01	0	44	0	1386217472	57	4413
2026-01-26 06:45:50.78	122.95	12.89	-42.7	-44.7	16.1	5.84e-01	0	44	0	1402994688	57	4410
2026-01-26 06:45:51.78	122.85	13.01	-42.6	-44.6	16.2	5.84e-01	0	44	0	1417674752	57	4366
2026-01-26 06:45:52.79	122.74	13.12	-42.6	-44.6	16.2	5.84e-01	0	44	0	1432354816	57	4356
2026-01-26 06:45:53.80	122.63	13.24	-42.6	-44.6	16.2	5.84e-01	0	44	0	1447034880	57	4357
2026-01-26 06:45:54.81	122.52	13.36	-42.8	-44.8	16.0	5.84e-01	0	44	0	1465909248	57	4464
2026-01-26 06:45:55.82	122.41	13.48	-42.6	-44.6	16.2	5.84e-01	0	44	0	1480589312	57	4359
2026-01-26 06:45:56.83	122.30	13.60	-42.6	-44.5	16.2	5.84e-01	0	44	0	1495269376	57	4338
2026-01-26 06:45:57.83	122.18	13.72	-42.5	-44.4	16.4	5.84e-01	0	44	0	1512046592	57	4285
2026-01-26 06:45:58.84	122.07	13.84	-42.5	-44.5	16.3	5.84e-01	0	44	0	1526726656	57	4301
2026-01-26 06:45:59.85	121.95	13.97	-42.5	-44.4	16.4	5.84e-01	0	44	0	1541406720	56	4513
2026-01-26 06:46:00.85	121.84	14.09	-42.4	-44.3	16.5	5.83e-01	0	44	0	1556086784	56	4474
2026-01-26 06:46:01.86	121.72	14.21	-42.3	-44.3	16.5	5.83e-01	0	44	0	1572864000	56	4444
2026-01-26 06:46:02.87	121.60	14.34	-42.5	-44.5	16.4	5.84e-01	0	44	0	1587544064	56	4547
2026-01-26 06:46:03.88	121.48	14.46	-42.6	-44.5	16.3	5.84e-01	0	44	0	1602224128	56	4591
2026-01-26 06:46:04.89	121.36	14.59	-42.4	-44.4	16.4	5.84e-01	0	44	0	1619001344	56	4522
2026-01-26 06:46:05.89	121.24	14.72	-42.4	-44.4	16.4	5.84e-01	0	44	0	1633681408	56	4531
2026-01-26 06:46:06.91	121.11	14.84	-42.3	-44.3	16.6	5.84e-01	0	44	0	1650458624	56	4460
2026-01-26 06:46:07.91	120.99	14.97	-42.3	-44.3	16.6	5.83e-01	0	44	0	1665138688	56	4459
2026-01-26 06:46:08.92	120.86	15.10	-42.2	-44.2	16.6	5.84e-01	0	44	0	1681915904	56	4408
2026-01-26 06:46:09.93	120.73	15.23	-42.2	-44.3	16.5	5.83e-01	0	44	0	1696595968	56	4445
2026-01-26 06:46:10.93	120.60	15.36	-42.0	-44.0	16.8	5.84e-01	0	44	0	1711276032	56	4332
2026-01-26 06:46:11.94	120.47	15.49	-42.1	-44.1	16.7	5.83e-01	0	44	0	1728053248	56	4381
2026-01-26 06:46:12.95	120.34	15.62	-42.2	-44.3	16.7	5.83e-01	0	44	0	1742733312	55	4718
2026-01-26 06:46:13.96	120.21	15.76	-42.0	-44.1	16.8	5.83e-01	0	44	0	1757413376	55	4634
2026-01-26 06:46:14.97	120.07	15.89	-42.1	-44.1	16.8	5.83e-01	0	44	0	1774190592	55	4650
2026-01-26 06:46:15.97	119.94	16.03	-41.9	-44.0	17.0	5.84e-01	0	44	0	1788870656	55	4553
2026-01-26 06:46:16.98	119.80	16.16	-41.8	-43.8	17.1	5.83e-01	0	44	0	1803550720	55	4470
2026-01-26 06:46:17.99	119.66	16.30	-41.6	-43.7	17.2	5.83e-01	0	44	0	1820327936	55	4395
2026-01-26 06:46:19.01	119.52	16.44	-41.5	-43.5	17.3	5.84e-01	0	44	0	1837105152	55	4334
2026-01-26 06:46:20.01	119.37	16.57	-41.4	-43.4	17.4	5.83e-01	0	44	0	1851785216	54	4512
2026-01-26 06:46:21.02	119.23	16.71	-41.5	-43.4	17.4	5.84e-01	0	44	0	1866465280	54	4511
2026-01-26 06:46:22.03	119.08	16.85	-41.3	-43.2	17.5	6.01e-01	0	44	0	1883242496	54	4403
2026-01-26 06:46:23.04	118.94	16.99	-41.3	-43.1	17.6	5.94e-01	0	44	0	1897922560	54	4377
2026-01-26 06:46:24.05	118.79	17.14	-41.3	-43.1	17.6	5.96e-01	0	44	0	1912602624	54	4365
2026-01-26 06:46:25.06	118.64	17.28	-41.3	-43.1	17.7	5.97e-01	0	44	0	1929379840	54	4355
2026-01-26 06:46:26.07	118.48	17.42	-41.3	-43.1	17.7	5.92e-01	0	44	0	1944059904	54	4363
2026-01-26 06:46:27.08	118.33	17.57	-41.4	-43.1	17.6	5.98e-01	0	44	0	1958739968	54	4382
2026-01-26 06:46:28.09	118.17	17.71	-41.1	-42.8	17.8	5.92e-01	0	44	0	1975517184	54	4230
2026-01-26 06:46:29.09	118.02	17.86	-40.9	-42.6	18.0	5.95e-01	0	44	0	1990197248	53	4358
2026-01-26 06:46:30.10	117.86	18.00	-40.9	-42.6	18.0	6.00e-01	0	44	0	2004877312	53	4365
2026-01-26 06:46:31.11	117.69	18.15	-40.9	-42.6	18.0	5.99e-01	0	44	0	2021654528	53	4353
2026-01-26 06:46:32.11	117.53	18.30	-40.8	-42.5	18.0	5.98e-01	0	44	0	2038431744	53	4327
2026-01-26 06:46:33.12	117.37	18.45	-40.7	-42.5	18.0	6.00e-01	0	44	0	2053111808	53	4324
2026-01-26 06:46:34.13	117.20	18.60	-40.7	-42.4	18.1	6.01e-01	0	44	0	2067791872	53	4287
2026-01-26 06:46:35.14	117.03	18.75	-40.6	-42.4	18.2	6.00e-01	0	44	0	2084569088	53	4261
2026-01-26 06:46:36.15	116.86	18.90	-40.6	-42.4	18.1	5.93e-01	0	44	0	2099249152	53	4281
2026-01-26 06:46:37.15	116.69	19.06	-40.6	-42.5	18.1	5.98e-01	0	44	0	2113929216	53	4301
2026-01-26 06:46:38.17	116.51	19.21	-40.5	-42.4	18.2	6.00e-01	0	44	0	2130706432	53	4267
2026-01-26 06:46:39.17	116.33	19.37	-40.5	-42.4	18.1	5.98e-01	0	44	0	2145386496	52	4525
2026-01-26 06:46:40.18	116.16	19.52	-40.5	-42.4	18.1	5.95e-01	0	44	0	2160066560	52	4520
2026-01-26 06:46:41.19	115.97	19.68	-40.4	-42.3	18.2	6.01e-01	0	44	0	2176843776	52	4455
2026-01-26 06:46:42.20	115.79	19.84	-40.3	-42.2	18.2	6.03e-01	0	44	0	2191523840	52	4436
2026-01-26 06:46:43.20	115.60	20.00	-40.4	-42.3	18.2	5.98e-01	0	44	0	2206203904	52	4478
2026-01-26 06:46:44.21	115.42	20.16	-40.2	-42.1	18.4	5.98e-01	0	44	0	2222981120	52	4365
2026-01-26 06:46:45.22	115.23	20.32	-40.2	-42.0	18.4	5.99e-01	0	44	0	2239758336	52	4315
2026-01-26 06:46:46.23	115.03	20.48	-40.1	-41.9	18.5	6.00e-01	0	44	0	2254438400	52	4291
2026-01-26 06:46:47.24	114.84	20.65	-40.0	-41.8	18.6	6.00e-01	0	44	0	2269118464	52	4217
2026-01-26 06:46:48.25	114.64	20.81	-40.1	-41.9	18.5	6.01e-01	0	44	0	2285895680	51	4504
2026-01-26 06:46:49.26	114.44	20.98	-40.1	-41.9	18.6	6.00e-01	0	44	0	2300575744	51	4512
2026-01-26 06:46:50.27	114.24	21.14	-40.0	-41.8	18.6	6.01e-01	0	44	0	2315255808	51	4450
2026-01-26 06:46:51.27	114.03	21.31	-40.0	-41.8	18.6	6.01e-01	0	44	0	2332033024	51	4452
2026-01-26 06:46:52.28	113.82	21.48	-40.0	-41.8	18.6	5.95e-01	0	44	0	2346713088	51	4458
2026-01-26 06:46:53.29	113.61	21.65	-40.0	-41.8	18.6	5.99e-01	0	44	0	2361393152	51	4480
2026-01-26 06:46:54.29	113.40	21.82	-40.0	-41.8	18.6	5.99e-01	0	44	0	2378170368	51	4489
2026-01-26 06:46:55.30	113.19	21.99	-39.9	-41.7	18.6	5.98e-01	0	44	0	2392850432	51	4440
2026-01-26 06:46:56.31	112.97	22.16	-40.0	-41.9	18.6	5.99e-01	0	44	0	2409627648	51	4499
2026-01-26 06:46:57.32	112.75	22.34	-40.1	-41.9	18.5	6.04e-01	0	44	0	2424307712	51	4536
2026-01-26 06:46:58.33	112.52	22.51	-39.9	-41.8	18.7	6.00e-01	0	44	0	2441084928	51	4462
2026-01-26 06:46:59.34	112.29	22.69	-39.8	-41.6	18.7	5.97e-01	0	44	0	2455764992	51	4377
2026-01-26 06:47:00.34	112.07	22.86	-39.9	-41.8	18.6	6.00e-01	0	44	0	2470445056	51	4442
2026-01-26 06:47:01.35	111.83	23.04	-39.9	-41.8	18.6	5.99e-01	0	44	0	2487222272	51	4463
2026-01-26 06:47:02.36	111.60	23.22	-39.7	-41.6	18.8	6.00e-01	0	44	0	2501902336	51	4354
2026-01-26 06:47:03.37	111.36	23.40	-39.8	-41.6	18.8	6.02e-01	0	44	0	2516582400	51	4388
2026-01-26 06:47:04.37	111.12	23.58	-39.6	-41.4	18.9	6.01e-01	0	44	0	2533359616	51	4285
2026-01-26 06:47:05.38	110.87	23.76	-39.4	-41.2	19.0	6.01e-01	0	44	0	2548039680	50	4407
2026-01-26 06:47:06.39	110.62	23.95	-39.4	-41.1	19.1	6.00e-01	0	44	0	2562719744	50	4375
2026-01-26 06:47:07.40	110.37	24.13	-39.2	-41.0	19.1	6.00e-01	0	44	0	2579496960	50	4312
2026-01-26 06:47:08.41	110.11	24.32	-39.3	-41.0	19.2	6.00e-01	0	44	0	2596274176	50	4318
2026-01-26 06:47:09.41	109.85	24.50	-39.1	-40.8	19.3	6.01e-01	0	44	0	2610954240	50	4222
2026-01-26 06:47:10.42	109.59	24.69	-39.1	-40.8	19.3	6.01e-01	0	44	0	2625634304	50	4223
2026-01-26 06:47:11.43	109.33	24.88	-39.0	-40.8	19.3	6.00e-01	0	44	0	2642411520	50	4206
2026-01-26 06:47:12.44	109.06	25.07	-38.9	-40.6	19.3	6.04e-01	0	44	0	2657091584	49	4379
2026-01-26 06:47:13.45	108.78	25.26	-39.0	-40.7	19.3	6.02e-01	0	44	0	2671771648	49	4434
2026-01-26 06:47:14.46	108.50	25.45	-38.9	-40.7	19.3	6.00e-01	0	44	0	2688548864	49	4396
2026-01-26 06:47:15.47	108.22	25.65	-38.9	-40.7	19.4	6.02e-01	0	44	0	2703228928	49	4409
2026-01-26 06:47:16.48	107.94	25.84	-38.9	-40.7	19.3	6.00e-01	0	44	0	2717908992	49	4419
2026-01-26 06:47:17.48	107.65	26.03	-39.0	-40.7	19.3	6.00e-01	0	44	0	2734686208	49	4426
2026-01-26 06:47:18.49	107.36	26.23	-39.0	-40.8	19.3	6.00e-01	0	44	0	2749366272	49	4442
2026-01-26 06:47:19.50	107.06	26.43	-39.0	-40.7	19.3	6.00e-01	0	44	0	2764046336	49	4418
2026-01-26 06:47:20.50	106.76	26.62	-39.0	-40.7	19.3	6.00e-01	0	44	0	2780823552	49	4413
2026-01-26 06:47:21.51	106.46	26.82	-39.0	-40.7	19.3	6.00e-01	0	44	0	2797600768	49	4423
2026-01-26 06:47:22.52	106.15	27.02	-39.0	-40.7	19.3	6.00e-01	0	44	0	2812280832	49	4417
2026-01-26 06:47:23.53	105.84	27.22	-38.7	-40.4	19.5	6.01e-01	0	44	0	2826960896	49	4264
2026-01-26 06:47:24.53	105.52	27.42	-38.8	-40.5	19.5	6.02e-01	0	44	0	2843738112	49	4313
2026-01-26 06:47:25.54	105.20	27.63	-38.7	-40.4	19.6	6.00e-01	0	44	0	2858418176	49	4269
2026-01-26 06:47:26.55	104.87	27.83	-38.6	-40.3	19.6	5.99e-01	0	44	0	2873098240	49	4207
2026-01-26 06:47:27.56	104.54	28.03	-38.6	-40.3	19.6	6.04e-01	0	44	0	2889875456	49	4211
2026-01-26 06:47:28.57	104.20	28.24	-38.6	-40.4	19.5	6.00e-01	0	44	0	2904555520	49	4274
2026-01-26 06:47:29.57	103.86	28.44	-38.6	-40.4	19.5	5.98e-01	0	44	0	2919235584	49	4287
2026-01-26 06:47:30.58	103.52	28.65	-38.6	-40.5	19.5	6.01e-01	0	44	0	2933915648	49	4292
2026-01-26 06:47:31.59	103.17	28.86	-38.6	-40.5	19.5	6.00e-01	0	44	0	2950692864	49	4309
2026-01-26 06:47:32.59	102.81	29.06	-38.6	-40.4	19.5	6.01e-01	0	44	0	2965372928	49	4251
2026-01-26 06:47:33.60	102.45	29.27	-38.5	-40.3	19.6	6.01e-01	0	44	0	2980052992	49	4221
2026-01-26 06:47:34.61	102.08	29.48	-38.6	-40.4	19.5	6.01e-01	0	44	0	2998927360	49	4250
2026-01-26 06:47:35.62	101.71	29.69	-38.6	-40.3	19.5	6.02e-01	0	44	0	3013607424	49	4229
2026-01-26 06:47:36.63	101.34	29.90	-38.6	-40.3	19.6	6.02e-01	0	44	0	3028287488	49	4212
2026-01-26 06:47:37.63	100.96	30.11	-38.6	-40.2	19.6	6.01e-01	0	44	0	3042967552	49	4190
2026-01-26 06:47:38.64	100.57	30.32	-38.5	-40.2	19.6	6.01e-01	0	44	0	3059744768	49	4184
2026-01-26 06:47:39.65	100.18	30.53	-38.4	-40.1	19.6	6.00e-01	0	44	0	3074424832	48	4360
2026-01-26 06:47:40.66	99.78	30.74	-38.4	-40.0	19.6	6.02e-01	0	44	0	3089104896	48	4333
2026-01-26 06:47:41.67	99.37	30.96	-38.5	-40.1	19.6	6.02e-01	0	44	0	3105882112	48	4391
2026-01-26 06:47:42.67	98.97	31.17	-38.4	-40.0	19.7	6.02e-01	0	44	0	3120562176	48	4332
2026-01-26 06:47:43.68	98.55	31.38	-38.5	-40.2	19.6	5.99e-01	0	44	0	3135242240	48	4434
2026-01-26 06:47:44.68	98.13	31.59	-38.5	-40.3	19.5	5.98e-01	0	44	0	3152019456	48	4452
2026-01-26 06:47:45.69	97.70	31.81	-38.6	-40.4	19.5	5.98e-01	0	44	0	3166699520	48	4523
2026-01-26 06:47:46.71	97.26	32.02	-38.6	-40.5	19.4	5.99e-01	0	44	0	3183476736	48	4556
2026-01-26 06:47:47.71	96.83	32.23	-38.8	-40.5	19.4	5.99e-01	0	44	0	3198156800	48	4598
2026-01-26 06:47:48.72	96.38	32.45	-38.8	-40.5	19.4	5.99e-01	0	44	0	3214934016	48	4591
2026-01-26 06:47:49.73	95.92	32.66	-38.7	-40.3	19.5	5.99e-01	0	44	0	3229614080	48	4490
2026-01-26 06:47:50.74	95.46	32.88	-38.6	-40.3	19.6	6.00e-01	0	44	0	3244294144	48	4467
2026-01-26 06:47:51.75	95.00	33.09	-38.7	-40.4	19.4	6.01e-01	0	44	0	3261071360	48	4499
2026-01-26 06:47:52.76	94.52	33.30	-38.8	-40.5	19.4	5.98e-01	0	44	0	3275751424	48	4560
2026-01-26 06:47:53.77	94.04	33.51	-38.9	-40.6	19.4	6.01e-01	0	44	0	3290431488	48	4619
2026-01-26 06:47:54.78	93.56	33.73	-38.9	-40.6	19.3	5.99e-01	0	44	0	3307208704	48	4643
2026-01-26 06:47:55.79	93.06	33.94	-38.9	-40.7	19.3	5.99e-01	0	44	0	3321888768	48	4693
2026-01-26 06:47:56.80	92.56	34.15	-39.0	-40.8	19.3	5.99e-01	0	44	0	3336568832	48	4744
2026-01-26 06:47:57.81	92.06	34.36	-39.0	-40.7	19.2	6.01e-01	0	44	0	3353346048	48	4701
2026-01-26 06:47:58.81	91.55	34.57	-38.8	-40.5	19.4	6.00e-01	0	44	0	3370123264	48	4590
2026-01-26 06:47:59.82	91.02	34.78	-38.8	-40.6	19.3	5.98e-01	0	44	0	3384803328	48	4599
2026-01-26 06:48:00.83	90.50	34.98	-38.8	-40.6	19.3	6.01e-01	0	44	0	3399483392	48	4622
2026-01-26 06:48:01.84	89.96	35.19	-38.9	-40.7	19.3	5.99e-01	0	44	0	3416260608	48	4662
2026-01-26 06:48:02.85	89.42	35.39	-38.9	-40.6	19.4	5.98e-01	0	44	0	3430940672	48	4635
2026-01-26 06:48:03.85	88.87	35.60	-38.9	-40.6	19.3	5.98e-01	0	44	0	3445620736	48	4648
2026-01-26 06:48:04.86	88.31	35.80	-38.8	-40.7	19.4	6.00e-01	0	44	0	3462397952	48	4660
2026-01-26 06:48:05.87	87.75	36.00	-39.0	-40.9	19.1	6.01e-01	0	44	0	3477078016	48	4761
2026-01-26 06:48:06.88	87.18	36.20	-39.3	-41.1	19.0	6.02e-01	0	44	0	3491758080	49	4636
2026-01-26 06:48:07.89	86.60	36.40	-39.4	-41.2	19.0	5.98e-01	0	44	0	3508535296	49	4682
2026-01-26 06:48:08.90	86.01	36.59	-39.4	-41.2	18.9	6.00e-01	0	44	0	3523215360	49	4701
2026-01-26 06:48:09.91	85.41	36.79	-39.4	-41.2	19.1	5.98e-01	0	44	0	3539992576	49	4702
2026-01-26 06:48:10.91	84.82	36.98	-39.1	-40.9	19.2	5.97e-01	0	44	0	3554672640	49	4494
2026-01-26 06:48:11.92	84.21	37.17	-39.2	-41.0	19.1	5.99e-01	0	44	0	3571449856	49	4596
2026-01-26 06:48:12.92	83.60	37.35	-39.3	-41.2	19.1	5.97e-01	0	44	0	3586129920	49	4666
2026-01-26 06:48:13.93	82.97	37.54	-39.3	-41.1	19.1	6.00e-01	0	44	0	3600809984	49	4615
2026-01-26 06:48:14.94	82.34	37.72	-39.2	-41.0	19.1	5.97e-01	0	44	0	3617587200	49	4598
2026-01-26 06:48:15.94	81.70	37.90	-39.1	-40.9	19.2	5.98e-01	0	44	0	3632267264	49	4507
2026-01-26 06:48:16.95	81.06	38.08	-39.1	-40.8	19.3	6.00e-01	0	44	0	3646947328	49	4475
2026-01-26 06:48:17.95	80.41	38.25	-38.9	-40.8	19.3	6.01e-01	0	44	0	3663724544	49	4447
2026-01-26 06:48:18.96	79.75	38.42	-39.1	-41.0	19.2	5.98e-01	0	44	0	3678404608	49	4566
2026-01-26 06:48:19.97	79.08	38.59	-39.1	-40.9	19.2	5.99e-01	0	44	0	3693084672	49	4531
2026-01-26 06:48:20.98	78.40	38.75	-39.2	-41.1	19.1	6.01e-01	0	44	0	3709861888	49	4621
2026-01-26 06:48:21.98	77.72	38.91	-39.2	-41.1	19.2	6.01e-01	0	44	0	3724541952	49	4626
2026-01-26 06:48:22.99	77.03	39.07	-39.2	-41.1	19.1	6.01e-01	0	44	0	3739222016	49	4638
2026-01-26 06:48:24.00	76.34	39.22	-39.3	-41.2	19.0	6.02e-01	0	44	0	3755999232	49	4668
2026-01-26 06:48:25.01	75.63	39.37	-39.4	-41.4	18.9	6.01e-01	0	44	0	3772776448	49	4767
2026-01-26 06:48:26.02	74.92	39.51	-39.3	-41.3	19.0	6.00e-01	0	44	0	3787456512	49	4721
2026-01-26 06:48:27.03	74.20	39.66	-39.4	-41.5	18.9	6.01e-01	0	44	0	3802136576	49	4822
2026-01-26 06:48:28.03	73.48	39.79	-39.7	-41.9	18.5	6.00e-01	0	44	0	3818913792	49	5098
2026-01-26 06:48:29.04	72.75	39.92	-39.8	-42.1	18.5	6.01e-01	0	44	0	3833593856	50	4876
2026-01-26 06:48:30.05	72.02	40.05	-39.7	-41.8	18.7	5.98e-01	0	44	0	3848273920	50	4746
2026-01-26 06:48:31.05	71.28	40.17	-39.7	-41.8	18.7	6.01e-01	0	44	0	3865051136	50	4718
2026-01-26 06:48:32.06	70.53	40.29	-39.4	-41.6	18.8	6.01e-01	0	44	0	3879731200	50	4604
2026-01-26 06:48:33.07	69.78	40.41	-39.7	-41.8	18.7	6.01e-01	0	44	0	3894411264	50	4740
2026-01-26 06:48:34.07	69.03	40.51	-39.7	-42.0	18.6	6.01e-01	0	44	0	3911188480	50	4822
2026-01-26 06:48:35.08	68.26	40.62	-39.7	-42.0	18.5	5.99e-01	0	44	0	3925868544	50	4841
2026-01-26 06:48:36.09	67.49	40.71	-39.8	-42.0	18.5	6.00e-01	0	44	0	3940548608	50	4832
2026-01-26 06:48:37.09	66.73	40.81	-39.6	-41.7	18.8	6.01e-01	0	44	0	3957325824	50	4694
2026-01-26 06:48:38.10	65.95	40.89	-39.6	-41.7	18.8	5.98e-01	0	44	0	3972005888	50	4670
2026-01-26 06:48:39.11	65.16	40.98	-39.7	-41.9	18.7	6.02e-01	0	44	0	3988783104	50	4780
2026-01-26 06:48:40.12	64.38	41.05	-39.8	-42.1	18.5	6.05e-01	0	44	0	4003463168	50	4888
2026-01-26 06:48:41.13	63.59	41.12	-39.5	-41.7	18.7	6.04e-01	0	44	0	4020240384	50	4674
2026-01-26 06:48:42.13	62.80	41.19	-39.5	-41.6	18.7	6.05e-01	0	44	0	4034920448	50	4648
2026-01-26 06:48:43.14	62.00	41.25	-39.4	-41.5	18.9	6.00e-01	0	44	0	4049600512	50	4581
2026-01-26 06:48:44.15	61.20	41.30	-39.5	-41.6	18.8	6.03e-01	0	44	0	4066377728	50	4623
2026-01-26 06:48:45.15	60.41	41.34	-39.7	-42.0	18.4	6.01e-01	0	44	0	4081057792	50	4840
2026-01-26 06:48:46.16	59.60	41.39	-39.9	-42.1	18.5	6.05e-01	0	44	0	4095737856	50	4919
2026-01-26 06:48:47.17	58.80	41.42	-39.6	-41.8	18.7	6.07e-01	0	44	0	4112515072	50	4727
2026-01-26 06:48:48.18	57.99	41.45	-39.7	-41.9	18.7	6.06e-01	0	44	0	4127195136	50	4761
2026-01-26 06:48:49.19	57.18	41.47	-39.4	-41.5	18.8	6.05e-01	0	44	0	4141875200	50	4590
2026-01-26 06:48:50.20	56.37	41.49	-39.5	-41.7	18.8	6.06e-01	0	44	0	4156555264	50	4685
2026-01-26 06:48:51.21	55.55	41.50	-39.6	-41.8	18.7	6.04e-01	0	44	0	4175429632	50	4735
2026-01-26 06:48:52.21	54.75	41.50	-39.6	-41.8	18.6	6.05e-01	0	44	0	4190109696	50	4727
2026-01-26 06:48:53.22	53.94	41.50	-39.4	-41.7	18.8	6.06e-01	0	44	0	4204789760	50	4662
2026-01-26 06:48:54.23	53.13	41.49	-39.2	-41.3	19.0	6.04e-01	0	44	0	4221566976	50	4481
2026-01-26 06:48:55.24	52.32	41.47	-39.4	-41.5	18.9	6.05e-01	0	44	0	4236247040	50	4569
2026-01-26 06:48:56.25	51.51	41.45	-39.7	-42.0	18.6	6.05e-01	0	44	0	4250927104	50	4825
2026-01-26 06:48:57.25	50.70	41.43	-39.8	-41.9	18.5	6.06e-01	0	44	0	4265607168	50	4801
2026-01-26 06:48:58.26	49.90	41.39	-39.7	-41.8	18.8	6.04e-01	0	44	0	4282384384	50	4708
2026-01-26 06:48:59.27	49.09	41.35	-39.6	-41.7	18.8	6.05e-01	0	44	0	4297064448	50	4697
2026-01-26 06:49:00.27	48.30	41.31	-39.6	-41.8	18.6	6.03e-01	0	44	0	4311744512	50	4707
2026-01-26 06:49:01.28	47.50	41.26	-39.7	-41.9	18.6	6.03e-01	0	44	0	4328521728	50	4766
2026-01-26 06:49:02.29	46.70	41.20	-39.7	-42.0	18.6	6.03e-01	0	44	0	4343201792	50	4833
2026-01-26 06:49:03.30	45.90	41.14	-39.7	-41.9	18.6	6.04e-01	0	44	0	4357881856	50	4810
2026-01-26 06:49:04.31	45.11	41.07	-39.7	-41.9	18.6	6.03e-01	0	44	0	4376756224	50	4793
2026-01-26 06:49:05.31	44.33	40.99	-39.7	-41.9	18.7	6.01e-01	0	44	0	4391436288	50	4782
2026-01-26 06:49:06.32	43.55	40.91	-39.7	-41.9	18.6	5.97e-01	0	44	0	4406116352	50	4812
2026-01-26 06:49:07.33	42.77	40.83	-40.0	-42.3	18.4	6.00e-01	0	44	0	4420796416	50	5015
2026-01-26 06:49:08.33	42.00	40.73	-40.0	-42.3	18.4	5.96e-01	0	44	0	4437573632	50	5005
2026-01-26 06:49:09.34	41.24	40.64	-39.9	-42.2	18.4	6.02e-01	0	44	0	4452253696	50	4940
2026-01-26 06:49:10.35	40.47	40.54	-39.9	-42.2	18.5	6.03e-01	0	44	0	4466933760	50	4952
2026-01-26 06:49:11.36	39.71	40.43	-40.0	-42.4	18.3	6.01e-01	0	44	0	4483710976	50	5081
2026-01-26 06:49:12.37	38.96	40.32	-40.1	-42.6	18.3	5.95e-01	0	44	0	4498391040	50	5160
2026-01-26 06:49:13.38	38.21	40.20	-40.3	-42.5	18.3	6.01e-01	0	44	0	4513071104	51	4841
2026-01-26 06:49:14.39	37.46	40.08	-40.3	-42.4	18.4	5.99e-01	0	44	0	4529848320	51	4788
2026-01-26 06:49:15.39	36.74	39.95	-39.9	-41.9	18.7	5.98e-01	0	44	0	4544528384	51	4512
2026-01-26 06:49:16.40	36.00	39.82	-39.9	-42.0	18.7	5.97e-01	0	44	0	4559208448	51	4548
2026-01-26 06:49:17.41	35.28	39.68	-40.2	-42.2	18.5	5.98e-01	0	44	0	4575985664	51	4664
2026-01-26 06:49:18.41	34.57	39.54	-40.3	-42.4	18.3	5.98e-01	0	44	0	4592762880	51	4809
2026-01-26 06:49:19.42	33.86	39.40	-40.3	-42.5	18.3	5.97e-01	0	44	0	4607442944	51	4845
2026-01-26 06:49:20.43	33.15	39.25	-40.4	-42.5	18.3	6.00e-01	0	44	0	4622123008	51	4831
2026-01-26 06:49:21.43	32.46	39.10	-40.3	-42.5	18.3	5.99e-01	0	44	0	4638900224	51	4816
2026-01-26 06:49:22.44	31.77	38.95	-40.2	-42.3	18.4	5.97e-01	0	44	0	4653580288	51	4715
2026-01-26 06:49:23.44	31.09	38.79	-40.1	-42.2	18.4	6.01e-01	0	44	0	4668260352	51	4666
2026-01-26 06:49:24.45	30.42	38.62	-40.2	-42.2	18.4	6.01e-01	0	44	0	4685037568	51	4683
2026-01-26 06:49:25.46	29.75	38.46	-40.2	-42.1	18.6	5.96e-01	0	44	0	4699717632	51	4636
2026-01-26 06:49:26.46	29.09	38.29	-40.2	-42.1	18.5	5.99e-01	0	44	0	4714397696	51	4642
2026-01-26 06:49:27.47	28.44	38.12	-40.3	-42.2	18.4	6.02e-01	0	44	0	4731174912	51	4704
2026-01-26 06:49:28.48	27.79	37.94	-40.4	-42.4	18.3	6.00e-01	0	44	0	4745854976	51	4800
2026-01-26 06:49:29.49	27.15	37.76	-40.3	-42.3	18.3	5.99e-01	0	44	0	4760535040	51	4751
2026-01-26 06:49:30.49	26.52	37.58	-40.2	-42.2	18.4	6.00e-01	0	44	0	4777312256	51	4682
2026-01-26 06:49:31.50	25.90	37.40	-40.1	-42.2	18.4	6.02e-01	0	44	0	4791992320	51	4700
2026-01-26 06:49:32.51	25.28	37.21	-40.1	-42.1	18.5	6.02e-01	0	44	0	4808769536	51	4619
2026-01-26 06:49:33.52	24.67	37.02	-40.2	-42.2	18.5	6.01e-01	0	44	0	4823449600	51	4685
2026-01-26 06:49:34.53	24.07	36.83	-40.3	-42.2	18.5	5.98e-01	0	44	0	4840226816	51	4701
2026-01-26 06:49:35.54	23.47	36.64	-40.3	-42.1	18.5	6.02e-01	0	44	0	4854906880	51	4634
2026-01-26 06:49:36.55	22.88	36.44	-40.3	-42.1	18.5	6.02e-01	0	44	0	4869586944	51	4649
2026-01-26 06:49:37.55	22.31	36.25	-40.4	-42.2	18.4	6.01e-01	0	44	0	4886364160	51	4696
2026-01-26 06:49:38.56	21.74	36.05	-40.3	-42.2	18.4	6.02e-01	0	44	0	4901044224	51	4694
2026-01-26 06:49:39.57	21.17	35.85	-40.1	-42.1	18.5	6.03e-01	0	44	0	4915724288	51	4633
2026-01-26 06:49:40.57	20.62	35.65	-40.1	-42.0	18.6	6.03e-01	0	44	0	4932501504	51	4567
2026-01-26 06:49:41.58	20.07	35.45	-40.3	-42.1	18.5	5.97e-01	0	44	0	4947181568	51	4633
2026-01-26 06:49:42.59	19.52	35.24	-40.3	-42.0	18.6	6.00e-01	0	44	0	4961861632	51	4580
2026-01-26 06:49:43.59	18.99	35.04	-40.1	-41.8	18.7	5.97e-01	0	44	0	4978638848	51	4472
2026-01-26 06:49:44.60	18.46	34.83	-40.0	-41.8	18.7	5.99e-01	0	44	0	4993318912	51	4468
2026-01-26 06:49:45.61	17.94	34.63	-39.9	-41.7	18.7	5.98e-01	0	44	0	5010096128	51	4425
2026-01-26 06:49:46.62	17.43	34.42	-39.9	-41.9	18.7	5.97e-01	0	44	0	5024776192	51	4494
2026-01-26 06:49:47.63	16.92	34.21	-40.0	-42.1	18.6	5.99e-01	0	44	0	5041553408	51	4601
2026-01-26 06:49:48.63	16.42	34.00	-40.1	-42.1	18.5	5.98e-01	0	44	0	5056233472	51	4630
2026-01-26 06:49:49.64	15.93	33.79	-40.2	-42.2	18.5	5.97e-01	0	44	0	5070913536	51	4670
2026-01-26 06:49:50.65	15.44	33.58	-40.1	-42.1	18.5	5.98e-01	0	44	0	5087690752	51	4605
2026-01-26 06:49:51.66	14.96	33.37	-40.1	-42.0	18.5	6.02e-01	0	44	0	5102370816	51	4577
2026-01-26 06:49:52.66	14.49	33.16	-40.0	-41.9	18.6	5.96e-01	0	44	0	5117050880	51	4527
2026-01-26 06:49:53.67	14.03	32.94	-39.9	-41.8	18.6	6.01e-01	0	44	0	5133828096	51	4470
2026-01-26 06:49:54.67	13.57	32.73	-40.0	-41.9	18.6	6.01e-01	0	44	0	5148508160	51	4516
2026-01-26 06:49:55.68	13.12	32.52	-40.0	-41.9	18.5	6.00e-01	0	44	0	5163188224	51	4517
2026-01-26 06:49:56.69	12.67	32.31	-40.0	-41.9	18.6	6.03e-01	0	44	0	5179965440	51	4538
2026-01-26 06:49:57.69	12.23	32.10	-39.9	-41.9	18.6	6.02e-01	0	44	0	5194645504	51	4508
2026-01-26 06:49:58.70	11.80	31.88	-39.9	-41.8	18.6	6.04e-01	0	44	0	5209325568	51	4481
2026-01-26 06:49:59.71	11.37	31.67	-39.8	-41.7	18.8	6.00e-01	0	44	0	5226102784	51	4414
2026-01-26 06:50:00.72	10.95	31.46	-39.8	-41.7	18.7	6.02e-01	0	44	0	5242880000	51	4404
2026-01-26 06:50:01.73	10.53	31.24	-39.7	-41.7	18.8	6.01e-01	0	44	0	5257560064	51	4399
2026-01-26 06:50:02.74	10.12	31.03	-39.7	-41.7	18.7	5.98e-01	0	44	0	5272240128	51	4432
2026-01-26 06:50:03.74	9.72	30.82	-39.7	-41.7	18.7	5.98e-01	0	44	0	5289017344	51	4411
2026-01-26 06:50:04.75	9.32	30.61	-39.7	-41.7	18.7	6.00e-01	0	44	0	5303697408	51	4419
2026-01-26 06:50:05.76	8.92	30.40	-39.6	-41.6	18.8	6.03e-01	0	44	0	5318377472	51	4352
2026-01-26 06:50:06.77	8.54	30.19	-39.5	-41.5	18.9	6.01e-01	0	44	0	5335154688	51	4302
2026-01-26 06:50:07.77	8.16	29.98	-39.5	-41.4	18.9	6.05e-01	0	44	0	5349834752	51	4247
2026-01-26 06:50:08.78	7.78	29.77	-39.3	-41.2	19.0	6.00e-01	0	44	0	5364514816	50	4397
2026-01-26 06:50:09.79	7.41	29.56	-39.3	-41.1	19.0	6.03e-01	0	44	0	5379194880	50	4385
2026-01-26 06:50:10.80	7.04	29.35	-39.4	-41.3	19.0	6.02e-01	0	44	0	5395972096	50	4442
2026-01-26 06:50:11.80	6.68	29.15	-39.4	-41.3	18.9	6.04e-01	0	44	0	5410652160	50	4472
2026-01-26 06:50:12.81	6.33	28.94	-39.5	-41.4	18.8	6.02e-01	0	44	0	5427429376	50	4533
2026-01-26 06:50:13.82	5.97	28.73	-39.5	-41.5	18.9	6.02e-01	0	44	0	5444206592	50	4551
2026-01-26 06:50:14.83	5.63	28.53	-39.5	-41.4	18.8	6.02e-01	0	44	0	5458886656	50	4540
2026-01-26 06:50:15.84	5.29	28.32	-39.4	-41.3	18.9	6.01e-01	0	44	0	5473566720	50	4492
2026-01-26 06:50:16.85	4.95	28.12	-39.4	-41.3	18.9	6.02e-01	0	44	0	5490343936	50	4460
2026-01-26 06:50:17.86	4.62	27.91	-39.4	-41.3	18.9	6.02e-01	0	44	0	5505024000	50	4449
2026-01-26 06:50:18.87	4.29	27.71	-39.4	-41.3	18.9	6.03e-01	0	44	0	5519704064	50	4474
2026-01-26 06:50:19.88	3.97	27.51	-39.5	-41.5	18.8	6.04e-01	0	44	0	5534384128	50	4560
2026-01-26 06:50:20.89	3.65	27.31	-39.5	-41.5	18.7	6.04e-01	0	44	0	5551161344	50	4587
2026-01-26 06:50:21.89	3.34	27.11	-39.4	-41.5	18.8	5.99e-01	0	44	0	5565841408	50	4546
2026-01-26 06:50:22.90	3.03	26.91	-39.4	-41.4	18.8	6.01e-01	0	44	0	5580521472	50	4543
2026-01-26 06:50:23.91	2.72	26.71	-39.5	-41.5	18.7	6.00e-01	0	44	0	5599395840	50	4579
2026-01-26 06:50:24.92	2.42	26.51	-39.6	-41.5	18.7	6.03e-01	0	44	0	5614075904	50	4593
2026-01-26 06:50:25.92	2.13	26.32	-39.6	-41.6	18.7	5.99e-01	0	44	0	5628755968	50	4609
2026-01-26 06:50:26.93	1.83	26.12	-39.8	-41.8	18.6	6.01e-01	0	44	0	5643436032	50	4714
2026-01-26 06:50:27.94	1.55	25.93	-39.7	-41.7	18.6	6.00e-01	0	44	0	5660213248	50	4662
2026-01-26 06:50:28.95	1.26	25.74	-39.7	-41.7	18.6	6.00e-01	0	44	0	5674893312	50	4670
2026-01-26 06:50:29.96	0.98	25.54	-39.7	-41.8	18.6	6.00e-01	0	44	0	5689573376	50	4715
2026-01-26 06:50:30.97	0.70	25.35	-39.6	-41.6	18.6	6.02e-01	0	44	0	5706350592	50	4630
2026-01-26 06:50:31.98	0.43	25.16	-39.5	-41.6	18.6	6.01e-01	0	44	0	5721030656	50	4631
2026-01-26 06:50:32.99	0.16	24.97	-39.6	-41.7	18.5	5.99e-01	0	44	0	5735710720	50	4696
2026-01-26 06:50:34.00	359.89	24.78	-39.7	-41.9	18.4	5.99e-01	0	44	0	5752487936	50	4772
2026-01-26 06:50:35.01	359.63	24.60	-39.8	-41.9	18.4	6.00e-01	0	44	0	5769265152	50	4797
2026-01-26 06:50:36.02	359.37	24.41	-39.8	-41.9	18.4	6.01e-01	0	44	0	5783945216	50	4810
2026-01-26 06:50:37.03	359.11	24.22	-39.9	-42.0	18.4	6.00e-01	0	44	0	5798625280	50	4856
2026-01-26 06:50:38.03	358.86	24.04	-39.9	-42.0	18.4	6.02e-01	0	44	0	5815402496	50	4841
2026-01-26 06:50:39.05	358.61	23.86	-39.9	-42.0	18.4	6.01e-01	0	44	0	5830082560	50	4856
2026-01-26 06:50:40.06	358.37	23.67	-39.9	-41.9	18.4	6.03e-01	0	44	0	5844762624	50	4794
2026-01-26 06:50:41.07	358.12	23.49	-39.9	-41.9	18.4	6.02e-01	0	44	0	5861539840	50	4809
2026-01-26 06:50:42.07	357.89	23.31	-39.9	-42.0	18.4	6.04e-01	0	44	0	5876219904	50	4818
2026-01-26 06:50:43.08	357.65	23.14	-40.0	-42.0	18.4	6.05e-01	0	44	0	5890899968	50	4850
2026-01-26 06:50:44.09	357.42	22.96	-39.9	-41.9	18.4	6.04e-01	0	44	0	5907677184	50	4808
2026-01-26 06:50:45.10	357.19	22.78	-40.0	-42.0	18.3	6.04e-01	0	44	0	5922357248	50	4863
2026-01-26 06:50:46.11	356.96	22.60	-39.9	-42.0	18.3	6.01e-01	0	44	0	5939134464	50	4865
2026-01-26 06:50:47.11	356.74	22.43	-40.0	-42.1	18.3	5.98e-01	0	44	0	5953814528	50	4882
2026-01-26 06:50:48.12	356.52	22.26	-40.1	-42.2	18.1	6.03e-01	0	44	0	5970591744	50	4932
2026-01-26 06:50:49.13	356.30	22.08	-40.2	-42.3	18.1	6.00e-01	0	44	0	5985271808	50	5010
2026-01-26 06:50:50.13	356.08	21.91	-40.1	-42.2	18.2	6.03e-01	0	44	0	5999951872	51	4690
2026-01-26 06:50:51.14	355.87	21.74	-40.2	-42.3	18.2	6.04e-01	0	44	0	6016729088	51	4726
2026-01-26 06:50:52.15	355.66	21.57	-40.3	-42.4	18.0	6.06e-01	0	44	0	6031409152	51	4811
2026-01-26 06:50:53.16	355.45	21.41	-40.3	-42.4	18.0	6.03e-01	0	44	0	6046089216	51	4777
2026-01-26 06:50:54.17	355.25	21.24	-40.4	-42.5	18.0	6.02e-01	0	44	0	6062866432	51	4830
2026-01-26 06:50:55.17	355.04	21.07	-40.4	-42.6	17.9	6.03e-01	0	44	0	6077546496	51	4885
2026-01-26 06:50:56.18	354.84	20.91	-40.5	-42.6	17.9	6.04e-01	0	44	0	6092226560	51	4896
2026-01-26 06:50:57.19	354.65	20.74	-40.6	-42.7	17.8	6.03e-01	0	44	0	6109003776	51	4963
2026-01-26 06:50:58.20	354.45	20.58	-40.6	-42.7	17.8	6.03e-01	0	44	0	6123683840	51	4962
2026-01-26 06:50:59.21	354.26	20.42	-40.7	-42.8	17.7	6.03e-01	0	44	0	6140461056	52	4740
2026-01-26 06:51:00.22	354.07	20.26	-40.8	-43.0	17.6	6.03e-01	0	44	0	6155141120	52	4822
2026-01-26 06:51:01.23	353.88	20.10	-41.0	-43.2	17.5	5.84e-01	0	44	0	6171918336	52	4961
2026-01-26 06:51:02.24	353.69	19.94	-40.8	-43.0	17.6	5.84e-01	0	44	0	6186598400	52	4850
2026-01-26 06:51:03.25	353.51	19.78	-41.0	-43.2	17.4	5.84e-01	0	44	0	6201278464	52	4957
2026-01-26 06:51:04.26	353.33	19.62	-41.0	-43.2	17.5	5.84e-01	0	44	0	6218055680	52	4965
2026-01-26 06:51:05.27	353.15	19.47	-40.9	-43.1	17.5	5.84e-01	0	44	0	6232735744	52	4907
2026-01-26 06:51:06.28	352.97	19.31	-41.0	-43.2	17.4	5.84e-01	0	44	0	6247415808	52	4964
2026-01-26 06:51:07.29	352.80	19.16	-41.1	-43.3	17.3	5.83e-01	0	44	0	6264193024	52	5022
2026-01-26 06:51:08.29	352.62	19.00	-41.1	-43.3	17.4	5.83e-01	0	44	0	6278873088	52	5022
2026-01-26 06:51:09.30	352.45	18.85	-41.2	-43.4	17.2	5.84e-01	0	44	0	6293553152	52	5087
2026-01-26 06:51:10.31	352.28	18.70	-41.1	-43.3	17.3	5.83e-01	0	44	0	6310330368	52	5028
2026-01-26 06:51:11.33	352.12	18.55	-41.2	-43.4	17.2	5.83e-01	0	44	0	6327107584	52	5081
2026-01-26 06:51:12.33	351.95	18.40	-42.5	-43.3	17.3	5.83e-01	0	44	0	6341787648	56	4002
2026-01-26 06:51:13.34	351.79	18.25	-53.9	-62.8	3.8	7.45e-01	0	44	104	6350176256	78	10625
2026-01-26 06:51:14.35	351.63	18.10	-53.9	-62.7	3.8	7.45e-01	0	44	104	6350176256	78	10521
2026-01-26 06:51:15.36	351.47	17.96	-53.9	-62.7	3.8	7.47e-01	0	44	104	6350176256	78	10510
2026-01-26 06:51:16.36	351.31	17.81	-53.8	-62.7	3.8	7.44e-01	0	44	104	6350176256	78	10420
2026-01-26 06:51:17.37	351.16	17.67	-53.9	-62.7	3.8	7.46e-01	0	44	104	6350176256	78	10429
2026-01-26 06:51:18.38	351.00	17.52	-53.8	-62.7	3.8	7.46e-01	0	44	104	6350176256	78	10426
2026-01-26 06:51:19.39	350.85	17.38	-53.8	-62.6	3.8	7.44e-01	0	44	104	6350176256	78	10408
2026-01-26 06:51:20.39	350.70	17.24	-53.8	-62.6	3.8	7.45e-01	0	44	104	6350176256	78	10367
2026-01-26 06:51:21.40	350.55	17.10	-53.8	-62.6	3.8	7.46e-01	0	44	104	6350176256	78	10342
2026-01-26 06:51:22.41	350.40	16.96	-53.8	-62.6	3.8	7.45e-01	0	44	104	6350176256	78	10394
2026-01-26 06:51:23.42	350.26	16.82	-53.8	-62.6	3.8	7.44e-01	0	44	104	6350176256	78	10339
2026-01-26 06:51:24.42	350.11	16.68	-53.8	-62.6	3.8	7.47e-01	0	44	104	6350176256	78	10347
2026-01-26 06:51:25.43	349.97	16.54	-53.8	-62.6	3.8	7.46e-01	0	44	104	6350176256	78	10342
2026-01-26 06:51:26.44	349.83	16.40	-53.8	-62.6	3.8	7.46e-01	0	44	104	6350176256	78	10347
2026-01-26 06:51:27.45	349.69	16.27	-53.8	-62.6	3.8	7.46e-01	0	44	104	6350176256	78	10358
2026-01-26 06:51:28.46	349.55	16.13	-53.8	-62.6	3.8	7.46e-01	0	44	104	6350176256	78	10354
2026-01-26 06:51:29.47	349.42	16.00	-53.8	-62.6	3.8	7.44e-01	0	44	104	6350176256	78	10317
2026-01-26 06:51:30.48	349.28	15.86	-53.8	-62.6	3.8	7.44e-01	0	44	104	6350176256	78	10353
2026-01-26 06:51:31.48	349.15	15.73	-53.7	-62.6	3.8	7.44e-01	0	44	104	6350176256	78	10333
2026-01-26 06:51:32.49	349.02	15.60	-53.7	-62.6	3.8	7.46e-01	0	44	104	6350176256	78	10296
2026-01-26 06:51:33.50	348.89	15.47	-53.7	-62.5	3.8	7.45e-01	0	44	104	6350176256	78	10272
2026-01-26 06:51:34.50	348.76	15.34	-53.7	-62.5	3.8	7.46e-01	0	44	104	6350176256	78	10283
2026-01-26 06:51:35.51	348.63	15.21	-53.7	-62.5	3.8	7.46e-01	0	44	104	6350176256	78	10279
2026-01-26 06:51:36.52	348.50	15.08	-53.7	-62.5	3.8	7.46e-01	0	44	104	6350176256	78	10283
2026-01-26 06:51:37.52	348.38	14.95	-53.7	-62.5	3.8	7.46e-01	0	44	104	6350176256	78	10243
2026-01-26 06:51:38.53	348.26	14.83	-53.7	-62.5	3.8	7.48e-01	0	44	104	6350176256	78	10272
2026-01-26 06:51:39.53	348.13	14.70	-53.7	-62.5	3.8	7.45e-01	0	44	104	6350176256	78	10266
2026-01-26 06:51:40.54	348.01	14.57	-53.7	-62.5	3.8	7.44e-01	0	44	104	6350176256	78	10284
2026-01-26 06:51:41.55	347.89	14.45	-53.7	-62.5	3.8	7.46e-01	0	44	104	6350176256	78	10288
2026-01-26 06:51:42.55	347.78	14.33	-53.7	-62.5	3.8	7.46e-01	0	44	104	6350176256	78	10281
2026-01-26 06:51:43.56	347.66	14.20	-53.7	-62.5	3.8	7.44e-01	0	44	104	6350176256	78	10260
2026-01-26 06:51:44.57	347.54	14.08	-53.7	-62.5	3.8	7.45e-01	0	44	104	6350176256	78	10229
2026-01-26 06:51:45.58	347.43	13.96	-53.7	-62.5	3.8	7.44e-01	0	44	104	6350176256	78	10277
2026-01-26 06:51:46.59	347.31	13.83	-53.7	-62.5	3.8	7.45e-01	0	44	104	6350176256	78	10257
2026-01-26 06:51:47.59	347.20	13.71	-53.7	-62.5	3.8	7.45e-01	0	44	104	6350176256	78	10194
2026-01-26 06:51:48.60	347.09	13.59	-53.6	-62.5	3.8	7.47e-01	0	44	104	6350176256	78	10201
2026-01-26 06:51:49.60	346.98	13.48	-53.7	-62.5	3.8	7.44e-01	0	44	104	6350176256	78	10211
2026-01-26 06:51:50.61	346.87	13.36	-53.7	-62.5	3.8	7.43e-01	0	44	104	6350176256	78	10229
2026-01-26 06:51:51.62	346.76	13.24	-53.6	-62.4	3.8	7.46e-01	0	44	104	6350176256	78	10175
2026-01-26 06:51:52.63	346.65	13.12	-53.6	-62.4	3.8	7.46e-01	0	44	104	6350176256	78	10175
2026-01-26 06:51:53.63	346.55	13.00	-53.6	-62.4	3.8	7.46e-01	0	44	104	6350176256	78	10168
2026-01-26 06:51:54.64	346.44	12.89	-53.6	-62.5	3.8	7.45e-01	0	44	104	6350176256	78	10200
2026-01-26 06:51:55.64	346.34	12.77	-53.6	-62.4	3.8	7.45e-01	0	44	104	6350176256	78	10147
2026-01-26 06:51:56.65	346.24	12.66	-53.6	-62.4	3.8	7.47e-01	0	44	104	6350176256	78	10111
2026-01-26 06:51:57.66	346.13	12.54	-53.6	-62.4	3.8	7.45e-01	0	44	104	6350176256	78	10117
2026-01-26 06:51:58.66	346.03	12.43	-53.6	-62.5	3.8	7.46e-01	0	44	104	6350176256	78	10185
2026-01-26 06:51:59.66	345.93	12.32	-53.6	-62.4	3.8	7.46e-01	0	44	104	6350176256	78	10100
2026-01-26 06:52:00.67	345.83	12.21	-53.6	-62.4	3.8	7.45e-01	0	44	104	6350176256	78	10105
2026-01-26 06:52:01.68	345.74	12.09	-53.6	-62.4	3.8	7.45e-01	0	44	104	6350176256	78	10133
2026-01-26 06:52:02.69	345.64	11.98	-53.6	-62.4	3.8	7.44e-01	0	44	104	6350176256	78	10151
2026-01-26 06:52:03.70	345.54	11.87	-53.6	-62.3	3.8	7.45e-01	0	44	104	6350176256	78	10053
2026-01-26 06:52:04.71	345.45	11.76	-53.6	-62.4	3.8	7.46e-01	0	44	104	6350176256	78	10088
2026-01-26 06:52:05.72	345.35	11.65	-53.6	-62.4	3.8	7.47e-01	0	44	104	6350176256	78	10101
2026-01-26 06:52:06.72	345.26	11.54	-53.6	-62.4	3.8	7.45e-01	0	44	104	6350176256	78	10115
2026-01-26 06:52:07.73	345.16	11.44	-53.5	-62.4	3.8	7.46e-01	0	44	104	6350176256	78	10071
2026-01-26 06:52:08.74	345.07	11.33	-53.5	-62.3	3.8	7.45e-01	0	44	104	6350176256	78	10051
2026-01-26 06:52:09.74	344.98	11.22	-53.6	-62.4	3.8	7.45e-01	0	44	104	6350176256	78	10089
2026-01-26 06:52:10.75	344.89	11.12	-53.6	-62.4	3.8	7.45e-01	0	44	104	6350176256	78	10082
2026-01-26 06:52:11.76	344.80	11.01	-53.5	-62.4	3.8	7.45e-01	0	44	104	6350176256	78	10065
2026-01-26 06:52:12.76	344.71	10.90	-53.5	-62.4	3.8	7.46e-01	0	44	104	6350176256	78	10062
2026-01-26 06:52:13.77	344.63	10.80	-53.5	-62.3	3.8	7.45e-01	0	44	104	6350176256	78	10037
2026-01-26 06:52:14.78	344.54	10.69	-53.5	-62.4	3.8	7.46e-01	0	44	104	6350176256	78	10082
2026-01-26 06:52:15.79	344.45	10.59	-53.5	-62.3	3.8	7.45e-01	0	44	104	6350176256	78	10013
2026-01-26 06:52:16.79	344.37	10.49	-53.5	-62.3	3.8	7.46e-01	0	44	104	6350176256	78	10024
2026-01-26 06:52:17.79	344.28	10.39	-53.5	-62.3	3.8	7.46e-01	0	44	104	6350176256	78	10030
2026-01-26 06:52:18.80	344.20	10.28	-53.5	-62.3	3.8	7.47e-01	0	44	104	6350176256	78	10038
2026-01-26 06:52:19.81	344.12	10.18	-53.5	-62.3	3.8	7.43e-01	0	44	104	6350176256	78	10005
2026-01-26 06:52:20.81	344.03	10.08	-53.5	-62.3	3.8	7.44e-01	0	44	104	6350176256	78	9984
2026-01-26 06:52:21.82	343.95	9.98	-53.5	-62.3	3.8	7.44e-01	0	44	104	6350176256	78	10000
2026-01-26 06:52:22.83	343.87	9.88	-53.5	-62.3	3.8	7.45e-01	0	44	104	6350176256	78	10052
2026-01-26 06:52:23.84	343.79	9.78	-53.5	-62.3	3.8	7.45e-01	0	44	104	6350176256	78	9976
2026-01-26 06:52:24.85	343.71	9.68	-53.4	-62.3	3.8	7.47e-01	0	44	104	6350176256	78	9952
2026-01-26 06:52:25.86	343.63	9.58	-53.5	-62.3	3.8	7.46e-01	0	44	104	6350176256	78	10026
2026-01-26 06:52:26.86	343.55	9.48	-53.5	-62.3	3.8	7.44e-01	0	44	104	6350176256	78	9999
2026-01-26 06:52:27.87	343.48	9.39	-53.4	-62.2	3.8	7.45e-01	0	44	104	6350176256	78	9922
2026-01-26 06:52:28.88	343.40	9.29	-53.4	-62.2	3.8	7.45e-01	0	44	104	6350176256	78	9897
2026-01-26 06:52:29.88	343.32	9.19	-53.5	-62.3	3.8	7.45e-01	0	44	104	6350176256	78	9967
2026-01-26 06:52:30.89	343.25	9.10	-53.4	-62.3	3.8	7.45e-01	0	44	104	6350176256	78	9983
2026-01-26 06:52:31.89	343.17	9.00	-53.4	-62.2	3.8	7.46e-01	0	44	104	6350176256	78	9892
2026-01-26 06:52:32.90	343.10	8.90	-53.4	-62.2	3.8	7.45e-01	0	44	104	6350176256	78	9864
2026-01-26 06:52:33.91	343.03	8.81	-53.4	-62.3	3.8	7.45e-01	0	44	104	6350176256	78	9952
2026-01-26 06:52:34.92	342.95	8.71	-53.4	-62.2	3.8	7.44e-01	0	44	104	6350176256	78	9931
2026-01-26 06:52:35.93	342.88	8.62	-53.3	-62.2	3.8	7.44e-01	0	44	104	6350176256	78	9866
2026-01-26 06:52:36.94	342.81	8.53	-53.3	-62.1	3.8	7.45e-01	0	44	104	6350176256	78	9809
2026-01-26 06:52:37.95	342.74	8.43	-53.4	-62.2	3.8	7.45e-01	0	44	104	6350176256	78	9888
2026-01-26 06:52:38.95	342.67	8.34	-53.4	-62.2	3.8	7.45e-01	0	44	104	6350176256	78	9903
2026-01-26 06:52:39.96	342.60	8.25	-53.3	-62.1	3.8	7.44e-01	0	44	104	6350176256	78	9774
2026-01-26 06:52:40.97	342.53	8.15	-53.3	-62.1	3.8	7.46e-01	0	44	104	6350176256	78	9772
2026-01-26 06:52:41.97	342.46	8.06	-53.3	-62.2	3.8	7.46e-01	0	44	104	6350176256	78	9854
2026-01-26 06:52:42.98	342.39	7.97	-53.3	-62.1	3.8	7.45e-01	0	44	104	6350176256	78	9804
2026-01-26 06:52:43.99	342.32	7.88	-53.3	-62.1	3.8	7.46e-01	0	44	104	6350176256	78	9730
2026-01-26 06:52:45.00	342.26	7.79	-53.2	-62.1	3.8	7.47e-01	0	44	104	6350176256	78	9742
2026-01-26 06:52:46.00	342.19	7.70	-53.3	-62.1	3.8	7.47e-01	0	44	104	6350176256	78	9797
2026-01-26 06:52:47.01	342.12	7.61	-53.3	-62.1	3.8	7.45e-01	0	44	104	6350176256	78	9819
2026-01-26 06:52:48.01	342.06	7.52	-53.2	-62.0	3.8	7.45e-01	0	44	104	6350176256	78	9651
2026-01-26 06:52:49.02	341.99	7.43	-53.2	-62.0	3.8	7.45e-01	0	44	104	6350176256	78	9694
2026-01-26 06:52:50.02	341.93	7.35	-53.3	-62.1	3.8	7.47e-01	0	44	104	6350176256	78	9777
2026-01-26 06:52:51.03	341.87	7.26	-53.3	-62.1	3.8	7.44e-01	0	44	104	6350176256	78	9759
2026-01-26 06:52:52.04	341.80	7.17	-53.2	-62.0	3.8	7.46e-01	0	44	104	6350176256	78	9625
2026-01-26 06:52:53.05	341.74	7.08	-53.2	-61.9	3.8	7.45e-01	0	44	104	6350176256	78	9596
2026-01-26 06:52:54.05	341.68	7.00	-53.2	-62.0	3.8	7.45e-01	0	44	104	6350176256	78	9699
2026-01-26 06:52:55.05	341.62	6.91	-53.2	-62.0	3.8	7.46e-01	0	44	104	6350176256	78	9676
2026-01-26 06:52:56.06	341.55	6.82	-53.1	-61.9	3.8	7.44e-01	0	44	104	6350176256	78	9548
2026-01-26 06:52:57.07	341.49	6.74	-53.1	-61.9	3.8	7.44e-01	0	44	104	6350176256	78	9565
2026-01-26 06:52:58.07	341.43	6.65	-53.2	-62.0	3.8	7.44e-01	0	44	104	6350176256	78	9685
2026-01-26 06:52:59.08	341.37	6.57	-53.2	-62.0	3.8	7.45e-01	0	44	104	6350176256	78	9679
2026-01-26 06:53:00.09	341.31	6.48	-53.0	-61.9	3.8	7.45e-01	0	44	104	6350176256	78	9500
2026-01-26 06:53:01.10	341.25	6.40	-53.0	-61.8	3.8	7.43e-01	0	44	104	6350176256	78	9479
2026-01-26 06:53:02.11	341.20	6.31	-53.1	-62.0	3.8	7.46e-01	0	44	104	6350176256	78	9621
2026-01-26 06:53:03.11	341.14	6.23	-53.1	-62.0	3.8	7.45e-01	0	44	104	6350176256	78	9620
2026-01-26 06:53:04.12	341.08	6.15	-53.0	-61.8	3.8	7.47e-01	0	44	104	6350176256	78	9434
2026-01-26 06:53:05.13	341.02	6.06	-53.0	-61.8	3.8	7.45e-01	0	44	104	6350176256	78	9408
2026-01-26 06:53:06.13	340.97	5.98	-53.1	-61.9	3.8	7.44e-01	0	44	104	6350176256	78	9572
2026-01-26 06:53:07.14	340.91	5.90	-53.1	-61.9	3.8	7.46e-01	0	44	104	6350176256	78	9545
2026-01-26 06:53:08.14	340.85	5.82	-52.9	-61.7	3.8	7.45e-01	0	44	104	6350176256	77	9937
2026-01-26 06:53:09.15	340.80	5.73	-52.9	-61.7	3.8	7.46e-01	0	44	104	6350176256	77	9933
2026-01-26 06:53:10.15	340.74	5.65	-53.0	-61.8	3.8	7.44e-01	0	44	104	6350176256	77	10035
2026-01-26 06:53:11.16	340.69	5.57	-53.0	-61.8	3.8	7.45e-01	0	44	104	6350176256	77	9976
2026-01-26 06:53:12.16	340.64	5.49	-52.9	-61.7	3.8	7.46e-01	0	44	104	6350176256	77	9873
2026-01-26 06:53:13.17	340.58	5.41	-52.9	-61.7	3.8	7.45e-01	0	44	104	6350176256	77	9883
2026-01-26 06:53:14.18	340.53	5.33	-53.0	-61.8	3.8	7.45e-01	0	44	104	6350176256	77	9989
2026-01-26 06:53:15.19	340.48	5.25	-52.9	-61.8	3.8	7.44e-01	0	44	104	6350176256	77	9952
2026-01-26 06:53:16.20	340.42	5.17	-52.8	-61.6	3.8	7.44e-01	0	44	104	6350176256	77	9813
2026-01-26 06:53:17.21	340.37	5.09	-52.8	-61.6	3.8	7.46e-01	0	44	104	6350176256	77	9819
2026-01-26 06:53:18.21	340.32	5.01	-52.9	-61.7	3.8	7.45e-01	0	44	104	6350176256	77	9931
2026-01-26 06:53:19.22	340.27	4.93	-53.3	-62.1	3.8	7.45e-01	0	44	104	6350176256	77	10368
2026-01-26 06:53:20.23	340.22	4.86	-53.6	-62.4	3.8	7.46e-01	0	44	104	6350176256	77	10693
2026-01-26 06:53:21.24	340.17	4.78	-53.8	-62.6	3.8	7.46e-01	0	44	104	6350176256	78	10332
2026-01-26 06:53:22.24	340.12	4.70	-53.9	-62.7	3.8	7.45e-01	0	44	104	6350176256	78	10424
2026-01-26 06:53:23.25	340.07	4.62	-54.0	-62.8	3.8	7.46e-01	0	44	104	6350176256	78	10596
2026-01-26 06:53:24.25	340.02	4.55	-54.1	-62.9	3.8	7.45e-01	0	44	104	6350176256	78	10705
2026-01-26 06:53:25.26	339.97	4.47	-54.3	-63.1	3.8	7.45e-01	0	44	104	6350176256	79	10312
2026-01-26 06:53:26.27	339.92	4.39	-54.3	-63.1	3.8	7.45e-01	0	44	104	6350176256	79	10379
2026-01-26 06:53:27.28	339.87	4.31	-54.3	-63.1	3.8	7.47e-01	0	44	104	6350176256	79	10367
2026-01-26 06:53:28.29	339.82	4.24	-54.3	-63.1	3.8	7.45e-01	0	44	104	6350176256	79	10366
2026-01-26 06:53:29.29	339.77	4.16	-54.3	-63.1	3.8	7.45e-01	0	44	104	6350176256	79	10335
2026-01-26 06:53:30.30	339.73	4.09	-54.2	-63.0	3.8	7.45e-01	0	44	104	6350176256	79	10272
2026-01-26 06:53:31.31	339.68	4.01	-54.2	-63.0	3.8	7.47e-01	0	44	104	6350176256	79	10232
2026-01-26 06:53:32.32	339.63	3.94	-54.1	-62.9	3.8	7.45e-01	0	44	104	6350176256	79	10111
2026-01-26 06:53:33.32	339.59	3.86	-54.0	-62.8	3.8	7.46e-01	0	44	104	6350176256	79	10005
2026-01-26 06:53:34.33	339.54	3.79	-54.0	-62.8	3.8	7.45e-01	0	44	104	6350176256	79	10039
2026-01-26 06:53:35.34	339.49	3.71	-54.0	-62.9	3.8	7.46e-01	0	44	104	6350176256	79	10090
2026-01-26 06:53:36.35	339.45	3.64	-54.1	-62.9	3.8	7.46e-01	0	44	104	6350176256	79	10104
2026-01-26 06:53:37.36	339.40	3.56	-54.1	-62.9	3.8	7.46e-01	0	44	104	6350176256	79	10113
2026-01-26 06:53:38.37	339.36	3.49	-54.1	-62.9	3.8	7.46e-01	0	44	104	6350176256	79	10063
2026-01-26 06:53:39.37	339.31	3.42	-54.0	-62.8	3.8	7.45e-01	0	44	104	6350176256	79	10056
2026-01-26 06:53:40.37	339.27	3.34	-54.0	-62.8	3.8	7.46e-01	0	44	104	6350176256	79	10054
2026-01-26 06:53:41.38	339.23	3.27	-54.0	-62.8	3.8	7.45e-01	0	44	104	6350176256	79	9987
2026-01-26 06:53:42.39	339.18	3.20	-54.0	-62.7	3.8	7.44e-01	0	44	104	6350176256	79	9939
2026-01-26 06:53:43.40	339.14	3.13	-54.0	-62.8	3.8	7.45e-01	0	44	104	6350176256	79	9963
2026-01-26 06:53:44.41	339.10	3.05	-53.9	-62.8	3.8	7.46e-01	0	44	104	6350176256	79	9971
2026-01-26 06:53:45.41	339.05	2.98	-53.9	-62.7	3.8	7.45e-01	0	44	104	6350176256	79	9930
2026-01-26 06:53:46.42	339.01	2.91	-53.9	-62.7	3.8	7.45e-01	0	44	104	6350176256	79	9905
2026-01-26 06:53:47.43	338.97	2.84	-53.9	-62.8	3.8	7.45e-01	0	44	104	6350176256	79	9953
2026-01-26 06:53:48.44	338.93	2.77	-53.9	-62.7	3.8	7.44e-01	0	44	104	6350176256	79	9928
2026-01-26 06:53:49.45	338.88	2.70	-53.9	-62.7	3.8	7.45e-01	0	44	104	6350176256	79	9944
2026-01-26 06:53:50.45	338.84	2.63	-53.9	-62.7	3.8	7.46e-01	0	44	104	6350176256	79	9931
2026-01-26 06:53:51.46	338.80	2.56	-53.9	-62.8	3.8	7.45e-01	0	44	104	6350176256	79	9970
2026-01-26 06:53:52.47	338.76	2.49	-53.9	-62.7	3.8	7.44e-01	0	44	104	6350176256	79	9925
2026-01-26 06:53:53.48	338.72	2.41	-53.9	-62.7	3.8	7.46e-01	0	44	104	6350176256	79	9913
2026-01-26 06:53:54.49	338.68	2.34	-53.9	-62.7	3.8	7.45e-01	0	44	104	6350176256	79	9915
2026-01-26 06:53:55.49	338.64	2.28	-53.9	-62.7	3.8	7.45e-01	0	44	104	6350176256	79	9905
2026-01-26 06:53:56.50	338.60	2.21	-53.9	-62.7	3.8	7.44e-01	0	44	104	6350176256	79	9906
2026-01-26 06:53:57.51	338.56	2.14	-53.9	-62.7	3.8	7.45e-01	0	44	104	6350176256	79	9913
2026-01-26 06:53:58.52	338.52	2.07	-53.9	-62.7	3.8	7.45e-01	0	44	104	6350176256	79	9933

#Closed at: 2026-01-26 06:53:59
#Recorded file [6350 MB]: D:/lorett/data/31041_260126_094348.dat