passes_logs/2026/01/26/R3.2S_Murmansk/R3.2S_Murmansk__20260126_002200_FENGYUN_3D_rec.log

#Pass ID: 20260126_002200_FENGYUN 3D
#Satellite: FENGYUN 3D
#Configuration: FENGYUN 3D
#almurnet v.1.7.20251203
#Start time: 2026-01-26 00:22:00

#Version: 2.2.20231116
#Station: R3.2S_Murmansk
#Location: 33.079688 lon 68.888172 lat
#TLE: 1 43010U 17072A   26025.50461972  .00000046  00000+0  43592-4 0  9990
#TLE: 2 43010  98.9962 357.4844 0002523  89.7890 270.3575 14.19699798424744

#Time	Az	El	Level	Level2	SNR	BER	BlckErr	Temp	State	Recorded	gain1	gain2
2026-01-26 00:22:00.00	19.36	1.97	-53.7	-65.7	3.8	8.47e-01	0	42	0	0	78	14727
2026-01-26 00:22:01.02	19.43	2.02	-53.2	-65.2	3.8	8.47e-01	0	42	104	0	77	14795
2026-01-26 00:22:02.02	19.51	2.08	-53.0	-65.0	3.8	8.46e-01	0	42	104	0	77	14415
2026-01-26 00:22:03.03	19.58	2.13	-52.7	-64.7	3.8	8.46e-01	0	42	104	0	77	13981
2026-01-26 00:22:04.04	19.65	2.19	-52.3	-64.2	3.8	8.46e-01	0	42	104	0	76	13970
2026-01-26 00:22:05.05	19.73	2.24	-52.1	-64.0	3.8	8.46e-01	0	42	104	0	76	13620
2026-01-26 00:22:06.06	19.80	2.30	-52.1	-63.9	3.8	8.45e-01	0	42	104	0	76	13531
2026-01-26 00:22:07.06	19.88	2.35	-52.1	-63.9	3.8	8.45e-01	0	42	104	0	76	13507
2026-01-26 00:22:08.07	19.95	2.41	-52.1	-63.9	3.8	8.47e-01	0	42	104	0	76	13471
2026-01-26 00:22:09.08	20.03	2.46	-52.1	-63.9	3.8	8.46e-01	0	42	104	0	76	13525
2026-01-26 00:22:10.09	20.10	2.52	-52.1	-63.9	3.8	8.46e-01	0	42	104	0	76	13462
2026-01-26 00:22:11.10	20.18	2.57	-52.1	-63.9	3.8	8.46e-01	0	42	104	0	76	13452
2026-01-26 00:22:12.10	20.25	2.63	-52.1	-63.9	3.8	8.46e-01	0	42	104	0	76	13493
2026-01-26 00:22:13.11	20.33	2.68	-52.1	-63.9	3.8	8.46e-01	0	42	104	0	76	13461
2026-01-26 00:22:14.12	20.41	2.74	-52.1	-63.9	3.8	8.46e-01	0	42	104	0	76	13526
2026-01-26 00:22:15.13	20.48	2.79	-52.1	-63.9	3.8	8.47e-01	0	42	104	0	76	13535
2026-01-26 00:22:16.14	20.56	2.85	-52.1	-63.9	3.8	8.46e-01	0	42	104	0	76	13530
2026-01-26 00:22:17.15	20.64	2.90	-52.1	-63.9	3.8	8.45e-01	0	42	104	0	76	13542
2026-01-26 00:22:18.16	20.72	2.96	-52.1	-64.0	3.8	8.46e-01	0	42	104	0	76	13578
2026-01-26 00:22:19.17	20.79	3.02	-52.1	-63.9	3.8	8.46e-01	0	42	104	0	76	13476
2026-01-26 00:22:20.17	20.87	3.07	-52.0	-63.8	3.8	8.46e-01	0	42	104	0	76	13263
2026-01-26 00:22:21.18	20.95	3.13	-52.0	-63.7	3.8	8.47e-01	0	42	104	0	76	13189
2026-01-26 00:22:22.19	21.03	3.18	-52.0	-63.6	3.8	8.47e-01	0	42	104	0	76	13047
2026-01-26 00:22:23.20	21.11	3.24	-52.0	-63.6	3.8	8.46e-01	0	43	104	0	76	12973
2026-01-26 00:22:24.21	21.19	3.30	-52.0	-63.7	3.8	8.45e-01	0	42	104	0	76	13145
2026-01-26 00:22:25.21	21.27	3.35	-52.0	-63.7	3.8	8.46e-01	0	42	104	0	76	13253
2026-01-26 00:22:26.22	21.35	3.41	-52.1	-63.8	3.8	8.46e-01	0	42	104	0	76	13380
2026-01-26 00:22:27.23	21.43	3.46	-52.1	-63.9	3.8	8.46e-01	0	42	104	0	76	13537
2026-01-26 00:22:28.23	21.51	3.52	-52.1	-63.9	3.8	8.46e-01	0	42	104	0	76	13536
2026-01-26 00:22:29.24	21.59	3.58	-52.1	-63.9	3.8	8.46e-01	0	42	104	0	76	13560
2026-01-26 00:22:30.25	21.67	3.63	-52.1	-63.9	3.8	8.47e-01	0	42	104	0	76	13530
2026-01-26 00:22:31.26	21.75	3.69	-52.1	-63.9	3.8	8.46e-01	0	42	104	0	76	13538
2026-01-26 00:22:32.26	21.83	3.75	-52.0	-63.8	3.8	8.46e-01	0	42	104	0	76	13399
2026-01-26 00:22:33.27	21.91	3.80	-52.0	-63.6	3.8	8.46e-01	0	43	104	0	76	13087
2026-01-26 00:22:34.28	21.99	3.86	-52.0	-63.3	3.8	8.46e-01	0	43	104	0	76	12525
2026-01-26 00:22:35.29	22.08	3.92	-51.9	-62.7	3.8	8.46e-01	0	43	104	0	75	12484
2026-01-26 00:22:36.29	22.16	3.97	-51.9	-62.5	3.8	8.46e-01	0	43	104	0	75	12104
2026-01-26 00:22:37.30	22.24	4.03	-51.9	-62.5	3.8	8.45e-01	0	43	104	0	75	12230
2026-01-26 00:22:38.31	22.33	4.09	-51.9	-62.6	3.8	8.46e-01	0	42	104	0	75	12361
2026-01-26 00:22:39.31	22.41	4.14	-51.8	-62.0	3.8	8.44e-01	0	43	104	0	75	11428
2026-01-26 00:22:40.32	22.49	4.20	-51.5	-59.5	4.5	8.33e-01	0	42	0	0	75	8619
2026-01-26 00:22:41.33	22.58	4.26	-50.6	-55.9	6.8	4.38e-01	0	43	0	2097152	73	6412
2026-01-26 00:22:42.33	22.66	4.32	-49.6	-53.3	9.5	2.82e-02	0	43	0	7340032	71	5302
2026-01-26 00:22:43.34	22.75	4.37	-48.2	-50.8	12.1	2.12e-03	0	43	0	12582912	68	4718
2026-01-26 00:22:44.35	22.83	4.43	-46.7	-48.5	14.4	2.40e-05	0	43	0	18874368	65	4330
2026-01-26 00:22:45.36	22.92	4.49	-45.4	-46.9	16.1	0.00e+00	0	43	0	24117248	62	4255
2026-01-26 00:22:46.37	23.00	4.55	-44.2	-45.5	17.5	0.00e+00	0	43	0	30408704	60	4062
2026-01-26 00:22:47.37	23.09	4.60	-44.1	-45.3	18.1	0.00e+00	0	43	0	35651584	59	4203
2026-01-26 00:22:48.38	23.18	4.66	-43.5	-44.6	18.7	0.00e+00	0	43	0	40894464	58	4117
2026-01-26 00:22:49.39	23.26	4.72	-43.0	-44.1	19.2	0.00e+00	0	43	0	47185920	58	3897
2026-01-26 00:22:50.39	23.35	4.78	-43.6	-44.7	18.6	0.00e+00	0	43	0	52428800	58	4183
2026-01-26 00:22:51.40	23.44	4.84	-43.6	-44.8	18.6	0.00e+00	0	43	0	57671680	58	4213
2026-01-26 00:22:52.41	23.52	4.89	-44.7	-46.0	17.4	0.00e+00	0	43	0	63963136	59	4579
2026-01-26 00:22:53.42	23.61	4.95	-45.6	-47.2	15.8	0.00e+00	0	43	0	70254592	61	4694
2026-01-26 00:22:54.43	23.70	5.01	-46.7	-48.7	14.2	1.10e-06	0	43	0	75497472	64	4670
2026-01-26 00:22:55.44	23.79	5.07	-46.2	-47.9	14.9	7.43e-05	0	43	0	80740352	64	4276
2026-01-26 00:22:56.45	23.88	5.13	-46.0	-47.7	15.5	0.00e+00	0	43	0	87031808	62	4683
2026-01-26 00:22:57.45	23.97	5.19	-49.3	-52.6	9.8	8.43e-01	0	43	104	88080384	70	5195
2026-01-26 00:22:58.46	24.06	5.24	-44.5	-45.7	17.3	0.00e+00	0	43	0	92274688	61	3954
2026-01-26 00:22:59.47	24.15	5.30	-44.6	-45.9	17.7	0.00e+00	0	43	0	97517568	59	4519
2026-01-26 00:23:00.48	24.24	5.36	-47.9	-50.2	12.4	4.78e-01	0	43	0	101711872	68	4440
2026-01-26 00:23:01.49	24.33	5.42	-43.3	-44.3	19.1	0.00e+00	0	43	0	106954752	58	4002
2026-01-26 00:23:02.49	24.42	5.48	-43.3	-44.4	19.1	0.00e+00	0	43	0	112197632	58	4025
2026-01-26 00:23:03.50	24.51	5.54	-43.0	-44.1	19.4	0.00e+00	0	43	0	118489088	57	4110
2026-01-26 00:23:04.51	24.60	5.60	-42.8	-43.8	19.6	0.00e+00	0	43	0	124780544	57	3995
2026-01-26 00:23:05.51	24.70	5.66	-42.6	-43.6	19.9	0.00e+00	0	43	0	130023424	56	4124
2026-01-26 00:23:06.52	24.79	5.72	-42.7	-43.7	19.8	0.00e+00	0	43	0	135266304	56	4189
2026-01-26 00:23:07.52	24.88	5.77	-42.8	-43.8	19.7	0.00e+00	0	43	0	141557760	56	4217
2026-01-26 00:23:08.53	24.97	5.83	-42.6	-43.6	19.9	0.00e+00	0	43	0	146800640	56	4111
2026-01-26 00:23:09.54	25.07	5.89	-43.0	-44.0	19.5	0.00e+00	0	43	0	152043520	56	4327
2026-01-26 00:23:10.54	25.16	5.95	-42.8	-43.8	19.7	0.00e+00	0	43	0	158334976	56	4241
2026-01-26 00:23:11.55	25.26	6.01	-42.7	-43.7	19.8	0.00e+00	0	43	0	163577856	56	4189
2026-01-26 00:23:12.56	25.35	6.07	-42.6	-43.6	19.9	0.00e+00	0	43	0	168820736	56	4142
2026-01-26 00:23:13.57	25.45	6.13	-42.6	-43.6	19.9	0.00e+00	0	43	0	175112192	56	4126
2026-01-26 00:23:14.58	25.54	6.19	-42.5	-43.5	20.0	0.00e+00	0	43	0	180355072	56	4093
2026-01-26 00:23:15.59	25.64	6.25	-42.5	-43.5	20.1	0.00e+00	0	43	0	186646528	56	4060
2026-01-26 00:23:16.59	25.73	6.31	-42.3	-43.2	20.3	0.00e+00	0	43	0	191889408	56	3955
2026-01-26 00:23:17.60	25.83	6.37	-42.3	-43.3	20.3	0.00e+00	0	43	0	197132288	56	3979
2026-01-26 00:23:18.61	25.93	6.43	-42.3	-43.3	20.2	0.00e+00	0	43	0	203423744	56	3992
2026-01-26 00:23:19.62	26.02	6.49	-42.5	-43.5	20.1	0.00e+00	0	43	0	209715200	56	4070
2026-01-26 00:23:20.63	26.12	6.55	-42.3	-43.3	20.3	0.00e+00	0	43	0	214958080	56	3963
2026-01-26 00:23:21.63	26.22	6.61	-42.1	-43.1	20.5	0.00e+00	0	43	0	220200960	56	3875
2026-01-26 00:23:22.64	26.32	6.67	-42.2	-43.1	20.5	0.00e+00	0	43	0	226492416	56	3894
2026-01-26 00:23:23.65	26.42	6.73	-42.2	-43.2	20.4	0.00e+00	0	43	0	231735296	56	3931
2026-01-26 00:23:24.66	26.52	6.79	-42.3	-43.3	20.3	0.00e+00	0	43	0	236978176	56	3991
2026-01-26 00:23:25.67	26.62	6.85	-42.2	-43.1	20.5	0.00e+00	0	43	0	243269632	56	3901
2026-01-26 00:23:26.67	26.72	6.92	-42.3	-43.3	20.3	0.00e+00	0	43	0	248512512	56	3992
2026-01-26 00:23:27.68	26.82	6.98	-42.4	-43.4	20.3	0.00e+00	0	43	0	253755392	56	4029
2026-01-26 00:23:28.69	26.92	7.04	-42.5	-43.4	20.2	0.00e+00	0	43	0	260046848	56	4051
2026-01-26 00:23:29.69	27.02	7.10	-42.1	-43.1	20.5	0.00e+00	0	43	0	265289728	56	3896
2026-01-26 00:23:30.70	27.12	7.16	-42.3	-43.3	20.4	0.00e+00	0	43	0	271581184	56	3969
2026-01-26 00:23:31.71	27.22	7.22	-42.3	-43.2	20.4	0.00e+00	0	43	0	276824064	56	3948
2026-01-26 00:23:32.72	27.32	7.28	-41.9	-42.9	20.6	0.00e+00	0	43	0	283115520	55	4022
2026-01-26 00:23:33.72	27.43	7.34	-41.9	-42.8	20.7	0.00e+00	0	43	0	288358400	55	4000
2026-01-26 00:23:34.73	27.53	7.40	-41.9	-42.9	20.7	0.00e+00	0	43	0	294649856	55	4013
2026-01-26 00:23:35.73	27.63	7.46	-41.8	-42.7	20.9	0.00e+00	0	43	0	299892736	55	3947
2026-01-26 00:23:36.74	27.74	7.53	-41.8	-42.7	20.8	0.00e+00	0	43	0	305135616	55	3954
2026-01-26 00:23:37.75	27.84	7.59	-41.6	-42.5	21.1	0.00e+00	0	43	0	311427072	55	3834
2026-01-26 00:23:38.75	27.95	7.65	-41.6	-42.5	21.1	0.00e+00	0	43	0	316669952	55	3846
2026-01-26 00:23:39.76	28.05	7.71	-41.8	-42.8	20.8	0.00e+00	0	43	0	321912832	55	3962
2026-01-26 00:23:40.77	28.16	7.77	-42.0	-43.0	20.6	0.00e+00	0	43	0	328204288	55	4059
2026-01-26 00:23:41.78	28.26	7.83	-41.8	-42.7	20.9	0.00e+00	0	43	0	333447168	55	3943
2026-01-26 00:23:42.79	28.37	7.90	-42.0	-43.0	20.7	0.00e+00	0	43	0	338690048	55	4053
2026-01-26 00:23:43.79	28.48	7.96	-41.9	-42.8	20.8	0.00e+00	0	43	0	344981504	55	4001
2026-01-26 00:23:44.80	28.58	8.02	-41.9	-42.8	20.7	0.00e+00	0	43	0	350224384	55	4004
2026-01-26 00:23:45.81	28.69	8.08	-41.9	-42.9	20.8	0.00e+00	0	43	0	356515840	55	4018
2026-01-26 00:23:46.81	28.80	8.14	-41.8	-42.7	20.9	0.00e+00	0	43	0	361758720	55	3954
2026-01-26 00:23:47.82	28.91	8.20	-41.8	-42.7	20.9	0.00e+00	0	43	0	368050176	55	3958
2026-01-26 00:23:48.83	29.02	8.27	-41.7	-42.6	21.1	0.00e+00	0	43	0	373293056	55	3874
2026-01-26 00:23:49.84	29.13	8.33	-41.6	-42.5	21.1	0.00e+00	0	43	0	379584512	55	3855
2026-01-26 00:23:50.85	29.24	8.39	-41.6	-42.5	21.2	0.00e+00	0	43	0	384827392	55	3841
2026-01-26 00:23:51.85	29.35	8.45	-41.4	-42.3	21.3	0.00e+00	0	43	0	390070272	54	4002
2026-01-26 00:23:52.86	29.46	8.52	-41.4	-42.3	21.4	0.00e+00	0	43	0	396361728	54	3971
2026-01-26 00:23:53.87	29.57	8.58	-41.5	-42.4	21.3	0.00e+00	0	43	0	401604608	54	4017
2026-01-26 00:23:54.87	29.68	8.64	-41.2	-42.1	21.6	0.00e+00	0	43	0	406847488	54	3887
2026-01-26 00:23:55.89	29.80	8.71	-41.3	-42.2	21.5	0.00e+00	0	43	0	413138944	54	3915
2026-01-26 00:23:56.89	29.91	8.77	-41.3	-42.1	21.5	0.00e+00	0	43	0	418381824	54	3908
2026-01-26 00:23:57.90	30.02	8.83	-41.3	-42.2	21.5	0.00e+00	0	43	0	424673280	54	3939
2026-01-26 00:23:58.90	30.14	8.89	-41.5	-42.3	21.3	0.00e+00	0	43	0	429916160	54	4001
2026-01-26 00:23:59.91	30.25	8.96	-41.3	-42.2	21.5	0.00e+00	0	43	0	436207616	54	3942
2026-01-26 00:24:00.92	30.36	9.02	-41.4	-42.2	21.4	0.00e+00	0	43	0	441450496	54	3952
2026-01-26 00:24:01.93	30.48	9.08	-41.1	-42.0	21.7	0.00e+00	0	43	0	446693376	54	3846
2026-01-26 00:24:02.94	30.60	9.15	-41.1	-42.0	21.7	0.00e+00	0	43	0	452984832	54	3849
2026-01-26 00:24:03.94	30.71	9.21	-41.1	-42.0	21.7	0.00e+00	0	43	0	458227712	54	3841
2026-01-26 00:24:04.95	30.83	9.27	-41.1	-42.0	21.7	0.00e+00	0	43	0	464519168	54	3836
2026-01-26 00:24:05.96	30.95	9.34	-41.3	-42.1	21.6	0.00e+00	0	43	0	469762048	54	3895
2026-01-26 00:24:06.97	31.06	9.40	-41.3	-42.1	21.6	0.00e+00	0	43	0	475004928	54	3900
2026-01-26 00:24:07.97	31.18	9.46	-41.3	-42.1	21.5	0.00e+00	0	43	0	481296384	54	3910
2026-01-26 00:24:08.98	31.30	9.53	-41.2	-42.0	21.7	0.00e+00	0	43	0	486539264	54	3862
2026-01-26 00:24:09.98	31.42	9.59	-41.2	-42.0	21.7	0.00e+00	0	43	0	491782144	54	3862
2026-01-26 00:24:10.99	31.54	9.65	-41.1	-42.0	21.7	0.00e+00	0	43	0	498073600	54	3846
2026-01-26 00:24:11.99	31.66	9.72	-41.3	-42.2	21.6	0.00e+00	0	43	0	503316480	54	3920
2026-01-26 00:24:13.00	31.78	9.78	-41.1	-42.0	21.7	0.00e+00	0	43	0	509607936	54	3853
2026-01-26 00:24:14.01	31.90	9.84	-41.2	-42.1	21.7	0.00e+00	0	43	0	514850816	54	3885
2026-01-26 00:24:15.02	32.02	9.91	-41.2	-42.1	21.7	0.00e+00	0	43	0	521142272	54	3871
2026-01-26 00:24:16.03	32.14	9.97	-41.1	-41.9	21.8	0.00e+00	0	43	0	526385152	54	3817
2026-01-26 00:24:17.04	32.27	10.04	-41.1	-42.0	21.8	0.00e+00	0	43	0	532676608	54	3828
2026-01-26 00:24:18.05	32.39	10.10	-40.8	-41.6	22.1	0.00e+00	0	43	0	537919488	53	3904
2026-01-26 00:24:19.06	32.51	10.16	-40.7	-41.5	22.2	0.00e+00	0	43	0	543162368	53	3846
2026-01-26 00:24:20.07	32.64	10.23	-40.7	-41.5	22.2	0.00e+00	0	43	0	549453824	53	3833
2026-01-26 00:24:21.07	32.76	10.29	-40.6	-41.4	22.3	0.00e+00	0	43	0	554696704	53	3815
2026-01-26 00:24:22.08	32.89	10.36	-40.6	-41.4	22.3	0.00e+00	0	43	0	559939584	53	3800
2026-01-26 00:24:23.09	33.01	10.42	-40.7	-41.5	22.2	0.00e+00	0	43	0	566231040	53	3842
2026-01-26 00:24:24.09	33.14	10.48	-40.7	-41.6	22.2	0.00e+00	0	44	0	571473920	53	3871
2026-01-26 00:24:25.10	33.27	10.55	-40.6	-41.4	22.3	0.00e+00	0	44	0	576716800	53	3804
2026-01-26 00:24:26.11	33.39	10.61	-40.8	-41.6	22.2	0.00e+00	0	44	0	583008256	53	3886
2026-01-26 00:24:27.11	33.52	10.68	-40.9	-41.7	22.0	0.00e+00	0	44	0	589299712	53	3951
2026-01-26 00:24:28.12	33.65	10.74	-40.8	-41.6	22.2	0.00e+00	0	43	0	594542592	53	3897
2026-01-26 00:24:29.13	33.78	10.81	-40.8	-41.6	22.2	0.00e+00	0	44	0	599785472	53	3909
2026-01-26 00:24:30.13	33.91	10.87	-41.0	-41.8	22.0	0.00e+00	0	44	0	606076928	53	3994
2026-01-26 00:24:31.14	34.04	10.94	-41.1	-42.0	21.8	0.00e+00	0	44	0	611319808	53	4058
2026-01-26 00:24:32.14	34.17	11.00	-40.9	-41.7	22.0	0.00e+00	0	43	0	617611264	53	3958
2026-01-26 00:24:33.15	34.30	11.06	-40.9	-41.8	22.0	0.00e+00	0	43	0	622854144	53	3967
2026-01-26 00:24:34.16	34.43	11.13	-40.9	-41.8	22.0	0.00e+00	0	43	0	628097024	53	3974
2026-01-26 00:24:35.17	34.56	11.19	-40.8	-41.7	22.1	0.00e+00	0	43	0	634388480	53	3915
2026-01-26 00:24:36.18	34.70	11.26	-40.7	-41.5	22.3	0.00e+00	0	43	0	639631360	53	3852
2026-01-26 00:24:37.18	34.83	11.32	-40.6	-41.4	22.4	0.00e+00	0	44	0	644874240	53	3802
2026-01-26 00:24:38.19	34.96	11.39	-40.7	-41.5	22.3	0.00e+00	0	43	0	651165696	53	3858
2026-01-26 00:24:39.19	35.10	11.45	-40.7	-41.5	22.3	0.00e+00	0	43	0	656408576	53	3848
2026-01-26 00:24:40.20	35.23	11.52	-40.6	-41.4	22.4	0.00e+00	0	43	0	661651456	53	3809
2026-01-26 00:24:41.21	35.37	11.58	-40.8	-41.6	22.2	0.00e+00	0	43	0	667942912	53	3893
2026-01-26 00:24:42.22	35.51	11.65	-40.7	-41.5	22.3	0.00e+00	0	43	0	674234368	53	3847
2026-01-26 00:24:43.23	35.64	11.71	-40.6	-41.5	22.3	0.00e+00	0	43	0	679477248	53	3838
2026-01-26 00:24:44.24	35.78	11.78	-40.7	-41.5	22.3	0.00e+00	0	43	0	684720128	53	3863
2026-01-26 00:24:45.25	35.92	11.84	-40.6	-41.5	22.3	0.00e+00	0	43	0	691011584	53	3828
2026-01-26 00:24:46.25	36.06	11.91	-40.6	-41.5	22.4	0.00e+00	0	44	0	696254464	53	3830
2026-01-26 00:24:47.26	36.20	11.97	-40.7	-41.6	22.2	0.00e+00	0	43	0	702545920	53	3887
2026-01-26 00:24:48.27	36.34	12.04	-40.7	-41.5	22.2	0.00e+00	0	43	0	707788800	53	3848
2026-01-26 00:24:49.28	36.48	12.11	-40.4	-41.2	22.5	0.00e+00	0	44	0	713031680	52	3951
2026-01-26 00:24:50.29	36.62	12.17	-40.5	-41.3	22.3	0.00e+00	0	43	0	719323136	52	3985
2026-01-26 00:24:51.30	36.76	12.24	-40.4	-41.2	22.5	0.00e+00	0	44	0	724566016	52	3939
2026-01-26 00:24:52.31	36.90	12.30	-40.4	-41.2	22.6	0.00e+00	0	44	0	730857472	52	3920
2026-01-26 00:24:53.32	37.05	12.37	-40.3	-41.1	22.6	0.00e+00	0	43	0	736100352	52	3900
2026-01-26 00:24:54.33	37.19	12.43	-40.4	-41.2	22.6	0.00e+00	0	44	0	742391808	52	3924
2026-01-26 00:24:55.34	37.34	12.50	-40.4	-41.2	22.6	0.00e+00	0	43	0	747634688	52	3920
2026-01-26 00:24:56.35	37.48	12.56	-40.2	-41.0	22.7	0.00e+00	0	43	0	752877568	52	3852
2026-01-26 00:24:57.35	37.62	12.63	-40.2	-41.0	22.7	0.00e+00	0	43	0	759169024	52	3840
2026-01-26 00:24:58.35	37.77	12.69	-40.2	-41.0	22.7	0.00e+00	0	43	0	764411904	52	3857
2026-01-26 00:24:59.36	37.92	12.76	-40.1	-40.9	22.8	0.00e+00	0	43	0	769654784	52	3800
2026-01-26 00:25:00.37	38.06	12.82	-40.1	-40.9	22.8	0.00e+00	0	43	0	775946240	52	3815
2026-01-26 00:25:01.38	38.21	12.89	-40.1	-40.9	22.8	0.00e+00	0	44	0	781189120	52	3816
2026-01-26 00:25:02.37	38.36	12.95	-40.2	-40.9	22.8	0.00e+00	0	44	0	787480576	52	3820
2026-01-26 00:25:03.38	38.51	13.02	-40.2	-40.9	22.9	0.00e+00	0	43	0	792723456	52	3822
2026-01-26 00:25:04.39	38.66	13.09	-40.2	-41.0	22.8	0.00e+00	0	43	0	797966336	52	3864
2026-01-26 00:25:05.40	38.81	13.15	-40.2	-41.0	22.8	0.00e+00	0	43	0	804257792	52	3859
2026-01-26 00:25:06.40	38.96	13.22	-40.2	-41.0	22.9	0.00e+00	0	44	0	809500672	52	3836
2026-01-26 00:25:07.41	39.11	13.28	-40.1	-40.9	23.0	0.00e+00	0	44	0	815792128	52	3796
2026-01-26 00:25:08.42	39.26	13.35	-40.1	-40.9	23.0	0.00e+00	0	43	0	821035008	52	3790
2026-01-26 00:25:09.43	39.42	13.41	-40.0	-40.8	23.0	0.00e+00	0	44	0	827326464	52	3757
2026-01-26 00:25:10.43	39.57	13.48	-40.0	-40.8	23.1	0.00e+00	0	44	0	832569344	51	3971
2026-01-26 00:25:11.44	39.72	13.54	-40.0	-40.8	23.1	0.00e+00	0	44	0	837812224	51	3975
2026-01-26 00:25:12.44	39.88	13.61	-40.1	-40.8	23.1	0.00e+00	0	43	0	844103680	51	4004
2026-01-26 00:25:13.45	40.03	13.67	-40.0	-40.8	23.1	0.00e+00	0	44	0	849346560	51	3969
2026-01-26 00:25:14.45	40.19	13.74	-40.2	-41.0	22.9	0.00e+00	0	43	0	854589440	51	4075
2026-01-26 00:25:15.46	40.35	13.80	-40.2	-41.0	23.0	0.00e+00	0	43	0	860880896	51	4062
2026-01-26 00:25:16.47	40.51	13.87	-40.1	-40.9	23.0	0.00e+00	0	44	0	866123776	51	4046
2026-01-26 00:25:17.47	40.66	13.93	-40.3	-41.1	22.8	0.00e+00	0	44	0	872415232	51	4137
2026-01-26 00:25:18.48	40.82	14.00	-40.2	-41.0	22.9	0.00e+00	0	44	0	877658112	51	4079
2026-01-26 00:25:19.49	40.98	14.07	-40.4	-41.2	22.8	0.00e+00	0	43	0	882900992	51	4163
2026-01-26 00:25:20.50	41.14	14.13	-40.4	-41.2	22.8	0.00e+00	0	44	0	889192448	51	4150
2026-01-26 00:25:21.51	41.30	14.20	-40.4	-41.2	22.8	0.00e+00	0	44	0	895483904	51	4166
2026-01-26 00:25:22.52	41.47	14.26	-40.3	-41.2	22.8	0.00e+00	0	44	0	900726784	51	4146
2026-01-26 00:25:23.53	41.63	14.33	-40.2	-41.0	22.9	0.00e+00	0	43	0	905969664	51	4091
2026-01-26 00:25:24.53	41.79	14.39	-40.2	-41.0	22.9	0.00e+00	0	43	0	912261120	51	4081
2026-01-26 00:25:25.54	41.96	14.46	-40.2	-41.0	22.9	0.00e+00	0	43	0	917504000	51	4092
2026-01-26 00:25:26.55	42.12	14.52	-40.0	-40.8	23.1	0.00e+00	0	43	0	922746880	51	4004
2026-01-26 00:25:27.56	42.29	14.59	-39.9	-40.7	23.2	0.00e+00	0	43	0	929038336	51	3935
2026-01-26 00:25:28.57	42.45	14.65	-39.9	-40.7	23.3	0.00e+00	0	43	0	934281216	51	3933
2026-01-26 00:25:29.58	42.62	14.72	-40.1	-40.9	23.1	0.00e+00	0	43	0	939524096	51	4011
2026-01-26 00:25:30.59	42.79	14.78	-39.8	-40.5	23.4	0.00e+00	0	43	0	945815552	51	3862
2026-01-26 00:25:31.59	42.95	14.85	-39.7	-40.5	23.4	0.00e+00	0	43	0	951058432	51	3845
2026-01-26 00:25:32.60	43.12	14.91	-39.8	-40.5	23.4	0.00e+00	0	43	0	957349888	51	3860
2026-01-26 00:25:33.60	43.29	14.98	-39.7	-40.5	23.4	0.00e+00	0	43	0	962592768	51	3840
2026-01-26 00:25:34.61	43.46	15.04	-39.9	-40.6	23.3	0.00e+00	0	44	0	968884224	51	3904
2026-01-26 00:25:35.62	43.63	15.11	-39.9	-40.7	23.2	0.00e+00	0	43	0	974127104	51	3934
2026-01-26 00:25:36.63	43.81	15.17	-39.9	-40.7	23.3	0.00e+00	0	44	0	980418560	51	3935
2026-01-26 00:25:37.64	43.98	15.23	-39.9	-40.7	23.3	0.00e+00	0	43	0	985661440	51	3941
2026-01-26 00:25:38.65	44.15	15.30	-40.0	-40.7	23.2	0.00e+00	0	43	0	990904320	51	3956
2026-01-26 00:25:39.66	44.33	15.36	-39.9	-40.6	23.3	0.00e+00	0	43	0	997195776	51	3908
2026-01-26 00:25:40.67	44.50	15.43	-39.8	-40.5	23.4	0.00e+00	0	43	0	1002438656	51	3857
2026-01-26 00:25:41.67	44.67	15.49	-39.7	-40.5	23.5	0.00e+00	0	43	0	1007681536	51	3833
2026-01-26 00:25:42.68	44.85	15.56	-39.6	-40.4	23.5	0.00e+00	0	43	0	1013972992	51	3809
2026-01-26 00:25:43.69	45.03	15.62	-39.7	-40.5	23.5	0.00e+00	0	43	0	1019215872	51	3836
2026-01-26 00:25:44.69	45.20	15.68	-39.6	-40.4	23.5	0.00e+00	0	43	0	1024458752	51	3811
2026-01-26 00:25:45.70	45.38	15.75	-39.6	-40.3	23.6	0.00e+00	0	43	0	1030750208	51	3775
2026-01-26 00:25:46.71	45.56	15.81	-39.4	-40.2	23.7	0.00e+00	0	43	0	1037041664	50	3919
2026-01-26 00:25:47.71	45.74	15.87	-39.5	-40.2	23.7	0.00e+00	0	43	0	1042284544	50	3951
2026-01-26 00:25:48.72	45.92	15.94	-39.5	-40.2	23.7	0.00e+00	0	44	0	1047527424	50	3952
2026-01-26 00:25:49.72	46.10	16.00	-39.4	-40.2	23.8	0.00e+00	0	44	0	1053818880	50	3925
2026-01-26 00:25:50.73	46.28	16.07	-39.4	-40.2	23.8	0.00e+00	0	44	0	1059061760	50	3933
2026-01-26 00:25:51.74	46.47	16.13	-39.5	-40.2	23.7	0.00e+00	0	43	0	1065353216	50	3944
2026-01-26 00:25:52.75	46.65	16.19	-39.5	-40.2	23.7	0.00e+00	0	44	0	1070596096	50	3953
2026-01-26 00:25:53.76	46.84	16.26	-39.4	-40.2	23.7	0.00e+00	0	44	0	1075838976	50	3934
2026-01-26 00:25:54.77	47.02	16.32	-39.5	-40.3	23.7	0.00e+00	0	44	0	1082130432	50	3960
2026-01-26 00:25:55.77	47.21	16.38	-39.4	-40.2	23.8	0.00e+00	0	44	0	1087373312	50	3933
2026-01-26 00:25:56.78	47.39	16.44	-39.6	-40.3	23.7	0.00e+00	0	44	0	1092616192	50	3988
2026-01-26 00:25:57.79	47.58	16.51	-39.5	-40.2	23.7	0.00e+00	0	44	0	1098907648	50	3953
2026-01-26 00:25:58.80	47.77	16.57	-39.6	-40.3	23.7	0.00e+00	0	43	0	1104150528	50	3984
2026-01-26 00:25:59.80	47.96	16.63	-39.4	-40.2	23.8	0.00e+00	0	44	0	1109393408	50	3928
2026-01-26 00:26:00.81	48.15	16.69	-39.5	-40.3	23.7	0.00e+00	0	43	0	1115684864	50	3962
2026-01-26 00:26:01.82	48.34	16.75	-39.4	-40.2	23.8	0.00e+00	0	43	0	1121976320	50	3933
2026-01-26 00:26:02.83	48.53	16.82	-39.5	-40.3	23.7	0.00e+00	0	44	0	1127219200	50	3961
2026-01-26 00:26:03.84	48.72	16.88	-39.3	-40.1	23.9	0.00e+00	0	44	0	1132462080	50	3881
2026-01-26 00:26:04.85	48.91	16.94	-39.2	-40.0	24.0	0.00e+00	0	43	0	1138753536	50	3827
2026-01-26 00:26:05.85	49.11	17.00	-39.2	-39.9	24.0	0.00e+00	0	43	0	1143996416	50	3796
2026-01-26 00:26:06.86	49.30	17.06	-39.2	-39.9	24.0	0.00e+00	0	44	0	1150287872	50	3814
2026-01-26 00:26:07.87	49.50	17.12	-39.1	-39.8	24.1	0.00e+00	0	44	0	1155530752	50	3775
2026-01-26 00:26:08.88	49.69	17.19	-39.1	-39.8	24.1	0.00e+00	0	44	0	1160773632	50	3778
2026-01-26 00:26:09.89	49.89	17.25	-39.1	-39.9	24.1	0.00e+00	0	44	0	1167065088	50	3781
2026-01-26 00:26:10.89	50.08	17.31	-39.1	-39.9	24.1	0.00e+00	0	44	0	1172307968	50	3782
2026-01-26 00:26:11.90	50.28	17.37	-39.2	-39.9	24.1	0.00e+00	0	44	0	1177550848	50	3806
2026-01-26 00:26:12.90	50.48	17.43	-39.2	-39.9	24.0	0.00e+00	0	43	0	1183842304	50	3814
2026-01-26 00:26:13.91	50.68	17.49	-39.2	-40.0	24.0	0.00e+00	0	44	0	1190133760	50	3828
2026-01-26 00:26:14.92	50.88	17.55	-39.3	-40.0	23.9	0.00e+00	0	44	0	1195376640	50	3862
2026-01-26 00:26:15.93	51.08	17.61	-39.3	-40.0	24.0	0.00e+00	0	44	0	1200619520	50	3857
2026-01-26 00:26:16.94	51.28	17.67	-39.4	-40.2	23.8	0.00e+00	0	44	0	1206910976	50	3922
2026-01-26 00:26:17.94	51.49	17.73	-39.3	-40.0	24.0	0.00e+00	0	44	0	1212153856	50	3859
2026-01-26 00:26:18.95	51.69	17.79	-39.2	-39.9	24.0	0.00e+00	0	44	0	1217396736	50	3803
2026-01-26 00:26:19.96	51.89	17.84	-39.1	-39.8	24.2	0.00e+00	0	44	0	1223688192	50	3751
2026-01-26 00:26:20.96	52.10	17.90	-39.2	-39.9	24.1	0.00e+00	0	43	0	1228931072	50	3797
2026-01-26 00:26:21.97	52.30	17.96	-39.3	-40.0	24.0	0.00e+00	0	44	0	1235222528	50	3841
2026-01-26 00:26:22.99	52.51	18.02	-39.2	-40.0	24.0	0.00e+00	0	44	0	1240465408	50	3834
2026-01-26 00:26:24.00	52.72	18.08	-39.2	-39.9	24.1	0.00e+00	0	43	0	1245708288	50	3817
2026-01-26 00:26:25.01	52.93	18.14	-39.3	-40.0	23.9	0.00e+00	0	44	0	1251999744	50	3857
2026-01-26 00:26:26.02	53.14	18.19	-39.3	-40.1	23.9	0.00e+00	0	44	0	1258291200	50	3876
2026-01-26 00:26:27.02	53.35	18.25	-39.2	-40.0	24.1	0.00e+00	0	44	0	1263534080	50	3827
2026-01-26 00:26:28.03	53.56	18.31	-39.2	-40.0	24.0	0.00e+00	0	44	0	1268776960	50	3844
2026-01-26 00:26:29.04	53.77	18.37	-39.3	-40.1	24.0	0.00e+00	0	43	0	1275068416	50	3872
2026-01-26 00:26:30.04	53.98	18.42	-39.2	-39.9	24.0	0.00e+00	0	43	0	1280311296	50	3812
2026-01-26 00:26:31.05	54.19	18.48	-39.0	-39.8	24.2	0.00e+00	0	44	0	1285554176	50	3750
2026-01-26 00:26:32.05	54.40	18.53	-39.1	-39.8	24.2	0.00e+00	0	44	0	1291845632	50	3767
2026-01-26 00:26:33.06	54.62	18.59	-39.1	-39.8	24.2	0.00e+00	0	44	0	1297088512	50	3754
2026-01-26 00:26:34.06	54.83	18.65	-38.9	-39.6	24.3	0.00e+00	0	43	0	1302331392	49	3910
2026-01-26 00:26:35.07	55.05	18.70	-38.9	-39.6	24.3	0.00e+00	0	43	0	1308622848	49	3899
2026-01-26 00:26:36.08	55.27	18.76	-39.0	-39.7	24.2	0.00e+00	0	44	0	1313865728	49	3934
2026-01-26 00:26:37.08	55.48	18.81	-39.0	-39.7	24.2	0.00e+00	0	43	0	1320157184	49	3951
2026-01-26 00:26:38.09	55.70	18.87	-38.9	-39.7	24.3	0.00e+00	0	44	0	1325400064	49	3926
2026-01-26 00:26:39.09	55.92	18.92	-39.0	-39.7	24.2	0.00e+00	0	44	0	1330642944	49	3948
2026-01-26 00:26:40.10	56.14	18.97	-39.0	-39.7	24.2	0.00e+00	0	44	0	1336934400	49	3945
2026-01-26 00:26:41.10	56.36	19.03	-38.9	-39.6	24.3	0.00e+00	0	44	0	1342177280	49	3898
2026-01-26 00:26:42.11	56.58	19.08	-38.7	-39.4	24.5	0.00e+00	0	43	0	1348468736	49	3820
2026-01-26 00:26:43.12	56.80	19.13	-38.7	-39.4	24.5	0.00e+00	0	43	0	1353711616	49	3798
2026-01-26 00:26:44.13	57.02	19.19	-38.6	-39.3	24.6	0.00e+00	0	44	0	1360003072	49	3756
2026-01-26 00:26:45.13	57.25	19.24	-38.5	-39.2	24.7	0.00e+00	0	44	0	1365245952	49	3735
2026-01-26 00:26:46.14	57.47	19.29	-38.5	-39.2	24.7	0.00e+00	0	44	0	1370488832	49	3728
2026-01-26 00:26:47.15	57.70	19.34	-38.5	-39.2	24.7	0.00e+00	0	44	0	1376780288	49	3731
2026-01-26 00:26:48.16	57.92	19.40	-38.7	-39.4	24.5	0.00e+00	0	43	0	1382023168	49	3811
2026-01-26 00:26:49.16	58.15	19.45	-38.8	-39.5	24.5	0.00e+00	0	43	0	1387266048	49	3854
2026-01-26 00:26:50.17	58.37	19.50	-38.9	-39.7	24.3	0.00e+00	0	43	0	1393557504	49	3921
2026-01-26 00:26:51.17	58.60	19.55	-38.9	-39.6	24.4	0.00e+00	0	43	0	1398800384	49	3889
2026-01-26 00:26:52.18	58.83	19.60	-38.9	-39.6	24.3	0.00e+00	0	44	0	1405091840	49	3909
2026-01-26 00:26:53.19	59.06	19.65	-38.8	-39.5	24.4	0.00e+00	0	44	0	1410334720	49	3862
2026-01-26 00:26:54.20	59.29	19.70	-38.8	-39.5	24.5	0.00e+00	0	44	0	1415577600	49	3843
2026-01-26 00:26:55.20	59.52	19.75	-38.8	-39.5	24.4	0.00e+00	0	44	0	1421869056	49	3857
2026-01-26 00:26:56.21	59.75	19.80	-38.9	-39.7	24.3	0.00e+00	0	44	0	1428160512	49	3917
2026-01-26 00:26:57.22	59.98	19.84	-38.6	-39.3	24.6	0.00e+00	0	44	0	1433403392	49	3770
2026-01-26 00:26:58.23	60.22	19.89	-38.7	-39.4	24.5	0.00e+00	0	44	0	1438646272	49	3807
2026-01-26 00:26:59.23	60.45	19.94	-38.8	-39.6	24.4	0.00e+00	0	44	0	1444937728	49	3884
2026-01-26 00:27:00.24	60.68	19.99	-38.9	-39.6	24.4	0.00e+00	0	44	0	1450180608	49	3897
2026-01-26 00:27:01.25	60.92	20.03	-38.8	-39.5	24.5	0.00e+00	0	44	0	1455423488	49	3866
2026-01-26 00:27:02.26	61.16	20.08	-38.8	-39.5	24.4	0.00e+00	0	43	0	1461714944	49	3854
2026-01-26 00:27:03.27	61.39	20.13	-38.7	-39.4	24.6	0.00e+00	0	44	0	1466957824	49	3798
2026-01-26 00:27:04.28	61.63	20.17	-38.6	-39.3	24.7	0.00e+00	0	43	0	1472200704	49	3747
2026-01-26 00:27:05.29	61.87	20.22	-38.6	-39.4	24.6	0.00e+00	0	44	0	1478492160	49	3789
2026-01-26 00:27:06.30	62.11	20.26	-38.7	-39.4	24.5	0.00e+00	0	43	0	1483735040	49	3808
2026-01-26 00:27:07.30	62.35	20.31	-38.6	-39.3	24.6	0.00e+00	0	43	0	1490026496	49	3761
2026-01-26 00:27:08.30	62.59	20.35	-38.6	-39.3	24.7	0.00e+00	0	43	0	1495269376	49	3760
2026-01-26 00:27:09.31	62.83	20.40	-38.6	-39.3	24.6	0.00e+00	0	44	0	1501560832	49	3761
2026-01-26 00:27:10.32	63.07	20.44	-38.7	-39.4	24.6	0.00e+00	0	43	0	1506803712	49	3800
2026-01-26 00:27:11.33	63.31	20.48	-38.6	-39.3	24.6	0.00e+00	0	44	0	1513095168	49	3776
2026-01-26 00:27:12.34	63.55	20.52	-38.5	-39.2	24.7	0.00e+00	0	43	0	1518338048	49	3721
2026-01-26 00:27:13.35	63.80	20.57	-38.5	-39.2	24.7	0.00e+00	0	44	0	1523580928	49	3733
2026-01-26 00:27:14.36	64.04	20.61	-38.5	-39.2	24.8	0.00e+00	0	44	0	1529872384	48	3928
2026-01-26 00:27:15.37	64.29	20.65	-38.5	-39.2	24.7	0.00e+00	0	43	0	1535115264	48	3952
2026-01-26 00:27:16.37	64.53	20.69	-38.5	-39.2	24.7	0.00e+00	0	43	0	1540358144	48	3958
2026-01-26 00:27:17.39	64.78	20.73	-38.4	-39.1	24.8	0.00e+00	0	43	0	1546649600	48	3883
2026-01-26 00:27:18.40	65.03	20.77	-38.3	-39.0	24.9	0.00e+00	0	43	0	1551892480	48	3847
2026-01-26 00:27:19.41	65.28	20.81	-38.3	-39.0	24.9	0.00e+00	0	44	0	1558183936	48	3836
2026-01-26 00:27:20.41	65.52	20.85	-38.1	-38.8	25.1	0.00e+00	0	43	0	1563426816	48	3761
2026-01-26 00:27:21.41	65.77	20.89	-38.2	-38.9	25.1	0.00e+00	0	43	0	1569718272	48	3785
2026-01-26 00:27:22.42	66.02	20.92	-38.3	-39.0	24.9	0.00e+00	0	44	0	1574961152	48	3831
2026-01-26 00:27:23.43	66.27	20.96	-38.2	-38.9	25.0	0.00e+00	0	44	0	1580204032	48	3819
2026-01-26 00:27:24.44	66.52	21.00	-38.4	-39.1	24.8	0.00e+00	0	44	0	1586495488	48	3875
2026-01-26 00:27:25.45	66.77	21.04	-38.4	-39.1	24.9	0.00e+00	0	44	0	1591738368	48	3873
2026-01-26 00:27:26.44	67.02	21.07	-38.3	-39.0	24.9	0.00e+00	0	44	0	1598029824	48	3863
2026-01-26 00:27:27.45	67.27	21.11	-38.4	-39.1	24.8	0.00e+00	0	44	0	1603272704	48	3895
2026-01-26 00:27:28.45	67.52	21.14	-38.4	-39.1	24.8	0.00e+00	0	44	0	1608515584	48	3896
2026-01-26 00:27:29.46	67.77	21.18	-38.5	-39.2	24.7	0.00e+00	0	44	0	1614807040	48	3944
2026-01-26 00:27:30.47	68.03	21.21	-38.6	-39.3	24.6	0.00e+00	0	43	0	1620049920	48	4001
2026-01-26 00:27:31.48	68.28	21.24	-38.6	-39.4	24.6	0.00e+00	0	43	0	1625292800	48	4014
2026-01-26 00:27:32.49	68.54	21.28	-38.4	-39.2	24.8	0.00e+00	0	43	0	1631584256	48	3915
2026-01-26 00:27:33.50	68.79	21.31	-38.5	-39.2	24.7	0.00e+00	0	43	0	1636827136	48	3947
2026-01-26 00:27:34.50	69.05	21.34	-38.5	-39.3	24.7	0.00e+00	0	44	0	1642070016	48	3966
2026-01-26 00:27:35.51	69.30	21.37	-38.6	-39.3	24.6	0.00e+00	0	44	0	1648361472	48	3981
2026-01-26 00:27:36.52	69.56	21.40	-38.5	-39.2	24.7	0.00e+00	0	43	0	1654652928	48	3930
2026-01-26 00:27:37.53	69.82	21.43	-38.5	-39.2	24.7	0.00e+00	0	44	0	1659895808	48	3931
2026-01-26 00:27:38.53	70.07	21.46	-38.5	-39.2	24.7	0.00e+00	0	44	0	1665138688	48	3933
2026-01-26 00:27:39.53	70.33	21.49	-38.4	-39.1	24.8	0.00e+00	0	43	0	1671430144	48	3891
2026-01-26 00:27:40.54	70.59	21.52	-38.4	-39.1	24.8	0.00e+00	0	44	0	1676673024	48	3887
2026-01-26 00:27:41.54	70.85	21.55	-38.5	-39.2	24.7	0.00e+00	0	44	0	1682964480	48	3958
2026-01-26 00:27:42.55	71.11	21.58	-38.5	-39.2	24.7	0.00e+00	0	43	0	1688207360	48	3945
2026-01-26 00:27:43.56	71.37	21.60	-38.4	-39.1	24.8	0.00e+00	0	43	0	1693450240	48	3903
2026-01-26 00:27:44.57	71.63	21.63	-38.3	-39.0	24.9	0.00e+00	0	43	0	1699741696	48	3831
2026-01-26 00:27:45.57	71.89	21.65	-38.2	-38.9	25.0	0.00e+00	0	43	0	1704984576	48	3807
2026-01-26 00:27:46.58	72.15	21.68	-38.2	-38.9	25.0	0.00e+00	0	44	0	1710227456	48	3789
2026-01-26 00:27:47.58	72.41	21.70	-38.1	-38.8	25.1	0.00e+00	0	43	0	1716518912	48	3772
2026-01-26 00:27:48.59	72.67	21.73	-38.2	-38.9	25.0	0.00e+00	0	44	0	1721761792	48	3787
2026-01-26 00:27:49.60	72.94	21.75	-38.2	-38.9	25.0	0.00e+00	0	44	0	1727004672	48	3820
2026-01-26 00:27:50.60	73.20	21.78	-38.3	-39.0	24.9	0.00e+00	0	44	0	1733296128	48	3841
2026-01-26 00:27:51.61	73.46	21.80	-38.3	-39.0	24.9	0.00e+00	0	44	0	1739587584	48	3843
2026-01-26 00:27:52.62	73.73	21.82	-38.1	-38.8	25.0	0.00e+00	0	44	0	1744830464	48	3779
2026-01-26 00:27:53.62	73.99	21.84	-38.1	-38.8	25.1	0.00e+00	0	44	0	1750073344	48	3759
2026-01-26 00:27:54.63	74.25	21.86	-38.0	-38.7	25.2	0.00e+00	0	44	0	1756364800	48	3716
2026-01-26 00:27:55.64	74.52	21.88	-38.0	-38.7	25.2	0.00e+00	0	44	0	1761607680	48	3710
2026-01-26 00:27:56.65	74.78	21.90	-38.1	-38.8	25.1	0.00e+00	0	44	0	1767899136	48	3752
2026-01-26 00:27:57.65	75.05	21.92	-38.1	-38.9	25.1	0.00e+00	0	44	0	1773142016	48	3783
2026-01-26 00:27:58.66	75.31	21.94	-38.3	-39.0	25.0	0.00e+00	0	44	0	1778384896	48	3831
2026-01-26 00:27:59.67	75.58	21.95	-38.3	-39.0	24.9	0.00e+00	0	44	0	1784676352	48	3843
2026-01-26 00:28:00.66	75.84	21.97	-38.3	-39.0	24.9	0.00e+00	0	43	0	1789919232	48	3865
2026-01-26 00:28:01.67	76.11	21.99	-38.1	-38.8	25.1	0.00e+00	0	44	0	1795162112	48	3776
2026-01-26 00:28:02.67	76.38	22.00	-38.1	-38.8	25.1	0.00e+00	0	44	0	1801453568	48	3753
2026-01-26 00:28:03.68	76.64	22.02	-38.2	-38.9	25.0	0.00e+00	0	44	0	1806696448	48	3791
2026-01-26 00:28:04.68	76.91	22.03	-38.2	-38.9	25.1	0.00e+00	0	44	0	1811939328	48	3787
2026-01-26 00:28:05.69	77.18	22.05	-38.3	-39.0	24.9	0.00e+00	0	43	0	1818230784	48	3829
2026-01-26 00:28:06.70	77.45	22.06	-38.4	-39.1	24.8	0.00e+00	0	43	0	1823473664	48	3893
2026-01-26 00:28:07.71	77.71	22.07	-38.3	-39.0	24.9	0.00e+00	0	44	0	1829765120	48	3847
2026-01-26 00:28:08.71	77.98	22.09	-38.3	-39.0	24.9	0.00e+00	0	43	0	1835008000	48	3841
2026-01-26 00:28:09.72	78.25	22.10	-38.2	-38.9	25.0	0.00e+00	0	44	0	1841299456	48	3817
2026-01-26 00:28:10.72	78.52	22.11	-38.2	-38.9	25.0	0.00e+00	0	44	0	1846542336	48	3788
2026-01-26 00:28:11.73	78.79	22.12	-38.1	-38.8	25.0	0.00e+00	0	43	0	1852833792	48	3778
2026-01-26 00:28:12.73	79.05	22.13	-38.2	-38.9	25.0	0.00e+00	0	44	0	1858076672	48	3821
2026-01-26 00:28:13.73	79.32	22.14	-38.2	-38.9	25.0	0.00e+00	0	44	0	1863319552	48	3796
2026-01-26 00:28:14.74	79.59	22.14	-38.2	-38.9	25.0	0.00e+00	0	43	0	1869611008	48	3805
2026-01-26 00:28:15.75	79.86	22.15	-38.3	-39.0	24.9	0.00e+00	0	43	0	1874853888	48	3826
2026-01-26 00:28:16.75	80.13	22.16	-38.2	-38.9	25.0	0.00e+00	0	44	0	1880096768	48	3823
2026-01-26 00:28:17.76	80.40	22.17	-38.3	-39.0	24.9	0.00e+00	0	44	0	1886388224	48	3836
2026-01-26 00:28:18.77	80.67	22.17	-38.3	-39.0	24.9	0.00e+00	0	43	0	1891631104	48	3847
2026-01-26 00:28:19.78	80.94	22.18	-38.1	-38.9	25.0	0.00e+00	0	44	0	1896873984	48	3786
2026-01-26 00:28:20.79	81.21	22.18	-38.1	-38.8	25.1	0.00e+00	0	44	0	1903165440	48	3763
2026-01-26 00:28:21.79	81.48	22.18	-38.1	-38.8	25.0	0.00e+00	0	44	0	1908408320	48	3780
2026-01-26 00:28:22.80	81.75	22.19	-38.2	-38.9	25.0	0.00e+00	0	43	0	1914699776	48	3783
2026-01-26 00:28:23.81	82.02	22.19	-38.2	-38.9	25.0	0.00e+00	0	43	0	1919942656	48	3790
2026-01-26 00:28:24.81	82.29	22.19	-38.2	-38.9	25.0	0.00e+00	0	44	0	1926234112	48	3796
2026-01-26 00:28:25.82	82.56	22.19	-38.2	-38.9	25.0	0.00e+00	0	44	0	1931476992	48	3815
2026-01-26 00:28:26.83	82.83	22.19	-38.2	-38.9	25.0	0.00e+00	0	43	0	1937768448	48	3817
2026-01-26 00:28:27.84	83.10	22.19	-38.2	-38.9	25.0	0.00e+00	0	43	0	1943011328	48	3795
2026-01-26 00:28:28.84	83.37	22.19	-38.2	-39.0	24.9	0.00e+00	0	44	0	1948254208	48	3832
2026-01-26 00:28:29.85	83.64	22.19	-38.3	-39.1	24.8	0.00e+00	0	43	0	1954545664	48	3881
2026-01-26 00:28:30.86	83.91	22.19	-38.3	-39.0	24.9	0.00e+00	0	44	0	1959788544	48	3845
2026-01-26 00:28:31.87	84.18	22.19	-38.3	-39.0	24.9	0.00e+00	0	44	0	1965031424	48	3832
2026-01-26 00:28:32.88	84.46	22.18	-38.2	-38.9	25.0	0.00e+00	0	44	0	1971322880	48	3816
2026-01-26 00:28:33.88	84.72	22.18	-38.3	-39.0	24.9	0.00e+00	0	43	0	1976565760	48	3847
2026-01-26 00:28:34.89	84.99	22.18	-38.4	-39.1	24.8	0.00e+00	0	44	0	1981808640	48	3908
2026-01-26 00:28:35.90	85.26	22.17	-38.4	-39.2	24.8	0.00e+00	0	44	0	1988100096	48	3924
2026-01-26 00:28:36.91	85.54	22.16	-38.5	-39.2	24.7	0.00e+00	0	44	0	1994391552	48	3933
2026-01-26 00:28:37.92	85.81	22.16	-38.4	-39.2	24.7	0.00e+00	0	43	0	1999634432	48	3919
2026-01-26 00:28:38.92	86.07	22.15	-38.3	-39.0	24.9	0.00e+00	0	44	0	2004877312	48	3853
2026-01-26 00:28:39.93	86.34	22.14	-38.2	-38.9	25.0	0.00e+00	0	43	0	2011168768	48	3791
2026-01-26 00:28:40.93	86.61	22.13	-38.1	-38.8	25.1	0.00e+00	0	44	0	2016411648	48	3742
2026-01-26 00:28:41.93	86.88	22.13	-38.3	-39.0	24.9	0.00e+00	0	43	0	2022703104	48	3832
2026-01-26 00:28:42.94	87.15	22.12	-38.1	-38.8	25.0	0.00e+00	0	44	0	2027945984	48	3776
2026-01-26 00:28:43.95	87.42	22.11	-38.3	-39.0	24.9	0.00e+00	0	43	0	2033188864	48	3835
2026-01-26 00:28:44.95	87.69	22.10	-38.2	-39.0	24.9	0.00e+00	0	44	0	2039480320	48	3831
2026-01-26 00:28:45.96	87.96	22.08	-38.4	-39.1	24.9	0.00e+00	0	44	0	2044723200	48	3884
2026-01-26 00:28:46.97	88.22	22.07	-38.4	-39.1	24.8	0.00e+00	0	44	0	2049966080	48	3912
2026-01-26 00:28:47.97	88.49	22.06	-38.4	-39.1	24.8	0.00e+00	0	43	0	2056257536	48	3899
2026-01-26 00:28:48.97	88.76	22.05	-38.5	-39.2	24.7	0.00e+00	0	43	0	2061500416	48	3953
2026-01-26 00:28:49.98	89.03	22.03	-38.4	-39.2	24.8	0.00e+00	0	44	0	2066743296	48	3918
2026-01-26 00:28:50.99	89.29	22.02	-38.4	-39.2	24.8	0.00e+00	0	44	0	2073034752	48	3914
2026-01-26 00:28:52.00	89.56	22.00	-38.4	-39.1	24.8	0.00e+00	0	43	0	2078277632	48	3886
2026-01-26 00:28:53.01	89.83	21.99	-38.3	-39.1	24.9	0.00e+00	0	44	0	2084569088	48	3870
2026-01-26 00:28:54.01	90.09	21.97	-38.4	-39.1	24.7	0.00e+00	0	43	0	2089811968	48	3906
2026-01-26 00:28:55.02	90.36	21.95	-38.3	-39.0	24.9	0.00e+00	0	44	0	2096103424	48	3853
2026-01-26 00:28:56.03	90.63	21.93	-38.4	-39.1	24.8	0.00e+00	0	44	0	2101346304	48	3901
2026-01-26 00:28:57.04	90.90	21.92	-38.3	-39.0	24.9	0.00e+00	0	44	0	2107637760	48	3848
2026-01-26 00:28:58.05	91.16	21.90	-38.4	-39.1	24.8	0.00e+00	0	43	0	2112880640	48	3873
2026-01-26 00:28:59.05	91.42	21.88	-38.4	-39.1	24.8	0.00e+00	0	43	0	2118123520	48	3873
2026-01-26 00:29:00.06	91.69	21.86	-38.4	-39.1	24.7	0.00e+00	0	44	0	2124414976	48	3913
2026-01-26 00:29:01.07	91.96	21.84	-38.5	-39.2	24.7	0.00e+00	0	44	0	2129657856	48	3957
2026-01-26 00:29:02.08	92.22	21.82	-38.6	-39.3	24.6	0.00e+00	0	43	0	2134900736	48	3981
2026-01-26 00:29:03.09	92.49	21.79	-38.6	-39.3	24.6	0.00e+00	0	43	0	2141192192	48	3998
2026-01-26 00:29:04.10	92.75	21.77	-38.6	-39.4	24.6	0.00e+00	0	43	0	2146435072	48	4005
2026-01-26 00:29:05.11	93.01	21.75	-38.6	-39.3	24.6	0.00e+00	0	43	0	2152726528	48	4004
2026-01-26 00:29:06.12	93.28	21.72	-38.7	-39.4	24.5	0.00e+00	0	43	0	2157969408	48	4047
2026-01-26 00:29:07.13	93.54	21.70	-38.6	-39.4	24.6	0.00e+00	0	43	0	2164260864	48	4013
2026-01-26 00:29:08.14	93.80	21.67	-38.5	-39.2	24.7	0.00e+00	0	43	0	2169503744	48	3946
2026-01-26 00:29:09.14	94.06	21.65	-38.4	-39.2	24.8	0.00e+00	0	43	0	2174746624	48	3919
2026-01-26 00:29:10.15	94.32	21.62	-38.5	-39.2	24.7	0.00e+00	0	43	0	2181038080	48	3927
2026-01-26 00:29:11.16	94.59	21.60	-38.5	-39.2	24.7	0.00e+00	0	44	0	2186280960	48	3946
2026-01-26 00:29:12.17	94.85	21.57	-38.4	-39.1	24.8	0.00e+00	0	44	0	2192572416	48	3905
2026-01-26 00:29:13.18	95.11	21.54	-38.5	-39.2	24.7	0.00e+00	0	44	0	2197815296	48	3923
2026-01-26 00:29:14.18	95.37	21.51	-38.5	-39.2	24.7	0.00e+00	0	44	0	2203058176	48	3950
2026-01-26 00:29:15.19	95.63	21.48	-38.5	-39.2	24.7	0.00e+00	0	44	0	2209349632	48	3953
2026-01-26 00:29:16.20	95.88	21.46	-38.6	-39.3	24.6	0.00e+00	0	43	0	2214592512	48	3977
2026-01-26 00:29:17.21	96.14	21.43	-38.6	-39.3	24.6	0.00e+00	0	43	0	2220883968	48	3978
2026-01-26 00:29:18.22	96.40	21.39	-38.5	-39.2	24.7	0.00e+00	0	43	0	2226126848	48	3938
2026-01-26 00:29:19.23	96.66	21.36	-38.4	-39.1	24.8	0.00e+00	0	44	0	2232418304	48	3884
2026-01-26 00:29:20.23	96.91	21.33	-38.5	-39.2	24.7	0.00e+00	0	44	0	2237661184	48	3926
2026-01-26 00:29:21.24	97.17	21.30	-38.4	-39.1	24.8	0.00e+00	0	44	0	2242904064	48	3909
2026-01-26 00:29:22.25	97.43	21.27	-38.5	-39.2	24.7	0.00e+00	0	43	0	2249195520	48	3948
2026-01-26 00:29:23.26	97.68	21.23	-38.4	-39.2	24.7	0.00e+00	0	44	0	2254438400	48	3921
2026-01-26 00:29:24.27	97.94	21.20	-38.6	-39.3	24.6	0.00e+00	0	44	0	2259681280	48	3980
2026-01-26 00:29:25.27	98.19	21.17	-38.5	-39.2	24.7	0.00e+00	0	44	0	2265972736	48	3927
2026-01-26 00:29:26.28	98.44	21.13	-38.5	-39.2	24.7	0.00e+00	0	44	0	2271215616	48	3932
2026-01-26 00:29:27.29	98.70	21.10	-38.5	-39.2	24.7	0.00e+00	0	44	0	2277507072	48	3951
2026-01-26 00:29:28.30	98.95	21.06	-38.6	-39.4	24.5	0.00e+00	0	44	0	2282749952	48	4013
2026-01-26 00:29:29.31	99.20	21.02	-38.8	-39.5	24.4	0.00e+00	0	43	0	2289041408	48	4073
2026-01-26 00:29:30.32	99.45	20.99	-38.9	-39.6	24.3	0.00e+00	0	44	0	2294284288	48	4141
2026-01-26 00:29:31.32	99.70	20.95	-39.0	-39.7	24.2	0.00e+00	0	43	0	2300575744	48	4192
2026-01-26 00:29:32.33	99.95	20.91	-38.9	-39.7	24.3	0.00e+00	0	44	0	2305818624	48	4147
2026-01-26 00:29:33.34	100.20	20.87	-38.9	-39.7	24.3	0.00e+00	0	43	0	2311061504	48	4157
2026-01-26 00:29:34.35	100.45	20.84	-38.8	-39.5	24.4	0.00e+00	0	44	0	2317352960	48	4094
2026-01-26 00:29:35.36	100.70	20.80	-38.7	-39.4	24.5	0.00e+00	0	44	0	2322595840	48	4047
2026-01-26 00:29:36.37	100.95	20.76	-38.7	-39.4	24.5	0.00e+00	0	44	0	2327838720	48	4048
2026-01-26 00:29:37.37	101.19	20.72	-38.7	-39.4	24.5	0.00e+00	0	44	0	2334130176	48	4026
2026-01-26 00:29:38.38	101.44	20.68	-38.9	-39.6	24.4	0.00e+00	0	44	0	2339373056	48	4118
2026-01-26 00:29:39.39	101.69	20.64	-38.8	-39.5	24.4	0.00e+00	0	44	0	2344615936	48	4095
2026-01-26 00:29:40.40	101.93	20.59	-38.9	-39.7	24.3	0.00e+00	0	44	0	2350907392	48	4149
2026-01-26 00:29:41.41	102.18	20.55	-38.9	-39.6	24.3	0.00e+00	0	44	0	2357198848	48	4131
2026-01-26 00:29:42.42	102.42	20.51	-38.9	-39.7	24.3	0.00e+00	0	44	0	2362441728	48	4164
2026-01-26 00:29:43.43	102.67	20.47	-39.0	-39.7	24.2	0.00e+00	0	44	0	2367684608	48	4183
2026-01-26 00:29:44.43	102.91	20.42	-39.0	-39.7	24.2	0.00e+00	0	43	0	2373976064	48	4178
2026-01-26 00:29:45.44	103.15	20.38	-39.0	-39.7	24.2	0.00e+00	0	44	0	2379218944	48	4182
2026-01-26 00:29:46.45	103.39	20.34	-39.0	-39.7	24.2	0.00e+00	0	44	0	2385510400	48	4185
2026-01-26 00:29:47.45	103.63	20.29	-39.0	-39.7	24.2	0.00e+00	0	43	0	2390753280	48	4189
2026-01-26 00:29:48.46	103.87	20.25	-39.1	-39.9	24.1	0.00e+00	0	44	0	2395996160	48	4256
2026-01-26 00:29:49.46	104.11	20.20	-39.1	-39.8	24.2	0.00e+00	0	44	0	2402287616	48	4219
2026-01-26 00:29:50.47	104.35	20.16	-39.1	-39.9	24.1	0.00e+00	0	44	0	2407530496	48	4249
2026-01-26 00:29:51.48	104.58	20.11	-38.9	-39.7	24.3	0.00e+00	0	43	0	2412773376	48	4153
2026-01-26 00:29:52.49	104.82	20.06	-39.0	-39.8	24.2	0.00e+00	0	44	0	2419064832	48	4207
2026-01-26 00:29:53.49	105.06	20.02	-39.1	-39.9	24.1	0.00e+00	0	44	0	2424307712	48	4253
2026-01-26 00:29:54.51	105.30	19.97	-39.0	-39.7	24.2	0.00e+00	0	44	0	2430599168	48	4183
2026-01-26 00:29:55.51	105.53	19.92	-39.2	-39.9	24.1	0.00e+00	0	44	0	2435842048	48	4271
2026-01-26 00:29:56.52	105.76	19.87	-39.1	-39.9	24.1	0.00e+00	0	44	0	2442133504	48	4261
2026-01-26 00:29:57.52	105.99	19.83	-39.1	-39.9	24.1	0.00e+00	0	43	0	2447376384	48	4248
2026-01-26 00:29:58.53	106.23	19.78	-39.1	-39.8	24.1	0.00e+00	0	44	0	2452619264	48	4240
2026-01-26 00:29:59.54	106.46	19.73	-39.1	-39.8	24.1	0.00e+00	0	43	0	2458910720	48	4226
2026-01-26 00:30:00.55	106.69	19.68	-39.1	-39.8	24.1	0.00e+00	0	43	0	2464153600	48	4235
2026-01-26 00:30:01.55	106.92	19.63	-39.0	-39.7	24.2	0.00e+00	0	44	0	2470445056	48	4174
2026-01-26 00:30:02.56	107.15	19.58	-39.1	-39.8	24.2	0.00e+00	0	43	0	2475687936	48	4214
2026-01-26 00:30:03.57	107.38	19.53	-39.1	-39.8	24.1	0.00e+00	0	44	0	2480930816	48	4234
2026-01-26 00:30:04.58	107.61	19.48	-39.2	-39.9	24.0	0.00e+00	0	44	0	2487222272	48	4281
2026-01-26 00:30:05.59	107.84	19.42	-39.2	-40.0	24.0	0.00e+00	0	43	0	2492465152	48	4292
2026-01-26 00:30:06.59	108.06	19.37	-39.2	-40.0	24.0	0.00e+00	0	44	0	2497708032	49	4056
2026-01-26 00:30:07.60	108.29	19.32	-39.2	-39.9	24.0	0.00e+00	0	43	0	2503999488	49	4046
2026-01-26 00:30:08.61	108.52	19.27	-39.0	-39.8	24.2	0.00e+00	0	44	0	2510290944	49	3966
2026-01-26 00:30:09.61	108.74	19.22	-38.9	-39.6	24.3	0.00e+00	0	44	0	2515533824	49	3897
2026-01-26 00:30:10.62	108.96	19.16	-38.9	-39.7	24.2	0.00e+00	0	44	0	2520776704	49	3929
2026-01-26 00:30:11.63	109.19	19.11	-39.0	-39.7	24.2	0.00e+00	0	43	0	2527068160	49	3924
2026-01-26 00:30:12.64	109.41	19.06	-39.0	-39.8	24.2	0.00e+00	0	44	0	2532311040	49	3963
2026-01-26 00:30:13.65	109.63	19.00	-39.2	-39.9	24.1	0.00e+00	0	44	0	2537553920	49	4032
2026-01-26 00:30:14.66	109.85	18.95	-39.3	-40.0	23.9	0.00e+00	0	44	0	2543845376	49	4097
2026-01-26 00:30:15.67	110.07	18.89	-39.4	-40.2	23.8	0.00e+00	0	44	0	2549088256	49	4158
2026-01-26 00:30:16.68	110.29	18.84	-39.5	-40.2	23.7	0.00e+00	0	44	0	2555379712	49	4188
2026-01-26 00:30:17.69	110.51	18.78	-39.4	-40.2	23.7	0.00e+00	0	44	0	2560622592	49	4175
2026-01-26 00:30:18.69	110.73	18.73	-39.4	-40.2	23.8	0.00e+00	0	44	0	2565865472	49	4162
2026-01-26 00:30:19.70	110.95	18.67	-39.5	-40.3	23.7	0.00e+00	0	44	0	2572156928	49	4216
2026-01-26 00:30:20.71	111.16	18.62	-39.5	-40.3	23.4	0.00e+00	0	44	0	2578448384	49	4203
2026-01-26 00:30:21.72	111.38	18.56	-39.2	-40.0	23.6	0.00e+00	0	44	0	2583691264	49	4075
2026-01-26 00:30:22.73	111.59	18.51	-39.3	-40.1	23.6	0.00e+00	0	44	0	2588934144	49	4103
2026-01-26 00:30:23.74	111.81	18.45	-39.3	-40.1	23.6	0.00e+00	0	44	0	2595225600	49	4104
2026-01-26 00:30:24.75	112.02	18.39	-39.2	-40.0	23.6	0.00e+00	0	44	0	2600468480	49	4084
2026-01-26 00:30:25.76	112.24	18.33	-39.4	-40.2	23.5	0.00e+00	0	44	0	2605711360	49	4168
2026-01-26 00:30:26.77	112.45	18.28	-39.4	-40.2	23.5	0.00e+00	0	43	0	2612002816	49	4149
2026-01-26 00:30:27.78	112.66	18.22	-39.2	-40.0	23.7	0.00e+00	0	43	0	2617245696	49	4064
2026-01-26 00:30:28.79	112.87	18.16	-39.1	-39.9	23.7	0.00e+00	0	43	0	2622488576	49	4031
2026-01-26 00:30:29.80	113.08	18.10	-39.2	-40.0	23.7	0.00e+00	0	44	0	2628780032	49	4057
2026-01-26 00:30:30.80	113.29	18.05	-39.5	-40.3	23.6	0.00e+00	0	43	0	2634022912	49	4194
2026-01-26 00:30:31.81	113.49	17.99	-39.4	-40.3	23.5	0.00e+00	0	43	0	2640314368	49	4195
2026-01-26 00:30:32.82	113.70	17.93	-39.6	-40.4	23.4	0.00e+00	0	44	0	2645557248	49	4257
2026-01-26 00:30:33.83	113.91	17.87	-39.6	-40.4	23.4	0.00e+00	0	44	0	2651848704	49	4273
2026-01-26 00:30:34.83	114.11	17.81	-39.7	-40.6	23.2	0.00e+00	0	44	0	2657091584	49	4347
2026-01-26 00:30:35.84	114.32	17.75	-39.7	-40.5	23.2	0.00e+00	0	44	0	2663383040	50	4096
2026-01-26 00:30:36.85	114.52	17.69	-39.9	-40.7	23.0	0.00e+00	0	44	0	2668625920	50	4176
2026-01-26 00:30:37.86	114.73	17.63	-39.9	-40.7	23.0	0.00e+00	0	43	0	2673868800	50	4165
2026-01-26 00:30:38.87	114.93	17.57	-39.9	-40.7	23.0	0.00e+00	0	44	0	2680160256	50	4178
2026-01-26 00:30:39.87	115.13	17.51	-39.9	-40.8	23.0	0.00e+00	0	43	0	2685403136	50	4202
2026-01-26 00:30:40.88	115.33	17.45	-40.0	-40.8	22.9	0.00e+00	0	44	0	2690646016	50	4217
2026-01-26 00:30:41.89	115.53	17.39	-40.1	-41.0	22.8	0.00e+00	0	43	0	2696937472	50	4303
2026-01-26 00:30:42.90	115.73	17.33	-40.2	-41.1	22.7	0.00e+00	0	44	0	2702180352	51	4109
2026-01-26 00:30:43.91	115.93	17.27	-40.1	-41.0	22.8	0.00e+00	0	44	0	2708471808	51	4063
2026-01-26 00:30:44.92	116.13	17.21	-40.2	-41.0	22.7	0.00e+00	0	43	0	2713714688	51	4097
2026-01-26 00:30:45.93	116.32	17.15	-40.0	-40.8	22.9	0.00e+00	0	44	0	2720006144	51	3976
2026-01-26 00:30:46.93	116.52	17.08	-40.0	-40.8	22.9	0.00e+00	0	43	0	2725249024	51	3988
2026-01-26 00:30:47.94	116.71	17.02	-39.9	-40.8	23.0	0.00e+00	0	43	0	2730491904	51	3963
2026-01-26 00:30:48.95	116.91	16.96	-39.9	-40.7	23.0	0.00e+00	0	44	0	2736783360	51	3950
2026-01-26 00:30:49.96	117.10	16.90	-40.0	-40.8	22.9	0.00e+00	0	43	0	2742026240	51	3999
2026-01-26 00:30:50.97	117.30	16.84	-40.0	-40.8	22.9	0.00e+00	0	44	0	2748317696	51	4004
2026-01-26 00:30:51.97	117.49	16.77	-39.9	-40.8	22.9	0.00e+00	0	44	0	2753560576	51	3961
2026-01-26 00:30:52.98	117.68	16.71	-40.0	-40.9	22.9	0.00e+00	0	43	0	2758803456	51	4006
2026-01-26 00:30:53.99	117.87	16.65	-39.8	-40.7	23.0	0.00e+00	0	43	0	2765094912	51	3926
2026-01-26 00:30:55.00	118.06	16.59	-39.8	-40.7	23.0	0.00e+00	0	43	0	2770337792	51	3916
2026-01-26 00:30:56.01	118.25	16.52	-39.7	-40.5	23.2	0.00e+00	0	44	0	2776629248	51	3850
2026-01-26 00:30:57.02	118.44	16.46	-39.8	-40.6	23.1	0.00e+00	0	44	0	2781872128	51	3891
2026-01-26 00:30:58.03	118.63	16.40	-39.6	-40.5	23.2	0.00e+00	0	44	0	2788163584	51	3826
2026-01-26 00:30:59.03	118.81	16.34	-39.8	-40.6	23.0	0.00e+00	0	44	0	2793406464	51	3913
2026-01-26 00:31:00.04	119.00	16.27	-39.9	-40.7	23.0	0.00e+00	0	44	0	2798649344	51	3953
2026-01-26 00:31:01.05	119.18	16.21	-40.0	-40.8	22.9	0.00e+00	0	44	0	2804940800	51	3990
2026-01-26 00:31:02.05	119.37	16.15	-39.9	-40.8	22.9	0.00e+00	0	44	0	2810183680	51	3967
2026-01-26 00:31:03.06	119.55	16.08	-40.0	-40.9	22.9	0.00e+00	0	43	0	2815426560	51	4006
2026-01-26 00:31:04.07	119.74	16.02	-40.0	-40.8	22.8	0.00e+00	0	44	0	2821718016	51	4004
2026-01-26 00:31:05.08	119.92	15.95	-40.1	-40.9	22.8	0.00e+00	0	44	0	2826960896	51	4027
2026-01-26 00:31:06.08	120.10	15.89	-40.1	-40.9	22.7	0.00e+00	0	44	0	2833252352	51	4032
2026-01-26 00:31:07.09	120.28	15.83	-40.1	-41.0	22.7	0.00e+00	0	44	0	2838495232	51	4070
2026-01-26 00:31:08.10	120.46	15.76	-40.1	-40.9	22.7	0.00e+00	0	44	0	2843738112	51	4051
2026-01-26 00:31:09.11	120.64	15.70	-39.9	-40.8	22.9	0.00e+00	0	44	0	2850029568	51	3962
2026-01-26 00:31:10.11	120.82	15.63	-40.1	-40.9	22.8	0.00e+00	0	44	0	2856321024	51	4024
2026-01-26 00:31:11.12	120.99	15.57	-40.0	-40.9	22.7	0.00e+00	0	44	0	2861563904	51	4023
2026-01-26 00:31:12.13	121.17	15.50	-40.1	-41.0	22.7	0.00e+00	0	44	0	2866806784	51	4070
2026-01-26 00:31:13.14	121.35	15.44	-40.3	-41.1	22.5	0.00e+00	0	43	0	2873098240	51	4141
2026-01-26 00:31:14.15	121.52	15.38	-40.4	-41.3	22.3	0.00e+00	0	44	0	2878341120	51	4211
2026-01-26 00:31:15.15	121.70	15.31	-40.5	-41.4	22.2	0.00e+00	0	43	0	2883584000	51	4261
2026-01-26 00:31:16.16	121.87	15.25	-40.4	-41.3	22.3	0.00e+00	0	44	0	2889875456	51	4223
2026-01-26 00:31:17.17	122.05	15.18	-40.4	-41.3	22.3	0.00e+00	0	44	0	2895118336	51	4236
2026-01-26 00:31:18.18	122.22	15.12	-40.4	-41.2	22.4	0.00e+00	0	43	0	2900361216	51	4192
2026-01-26 00:31:19.19	122.39	15.05	-40.3	-41.2	22.4	0.00e+00	0	44	0	2906652672	51	4163
2026-01-26 00:31:20.19	122.56	14.99	-40.4	-41.2	22.4	0.00e+00	0	44	0	2911895552	51	4182
2026-01-26 00:31:21.20	122.73	14.92	-40.3	-41.2	22.4	0.00e+00	0	44	0	2918187008	51	4147
2026-01-26 00:31:22.21	122.90	14.86	-40.2	-41.0	22.5	0.00e+00	0	44	0	2923429888	51	4087
2026-01-26 00:31:23.22	123.07	14.79	-40.3	-41.2	22.5	0.00e+00	0	44	0	2929721344	51	4153
2026-01-26 00:31:24.23	123.24	14.72	-40.3	-41.2	22.4	0.00e+00	0	44	0	2934964224	51	4147
2026-01-26 00:31:25.23	123.41	14.66	-40.1	-41.0	22.6	0.00e+00	0	44	0	2941255680	51	4069
2026-01-26 00:31:26.24	123.57	14.59	-40.2	-41.1	22.4	0.00e+00	0	44	0	2946498560	51	4118
2026-01-26 00:31:27.24	123.74	14.53	-40.2	-41.0	22.5	0.00e+00	0	44	0	2951741440	51	4081
2026-01-26 00:31:28.25	123.91	14.46	-40.3	-41.1	22.4	0.00e+00	0	44	0	2958032896	51	4144
2026-01-26 00:31:29.26	124.07	14.40	-40.2	-41.0	22.5	0.00e+00	0	44	0	2963275776	51	4093
2026-01-26 00:31:30.27	124.24	14.33	-40.3	-41.1	22.4	0.00e+00	0	44	0	2968518656	51	4136
2026-01-26 00:31:31.28	124.40	14.27	-40.3	-41.1	22.4	0.00e+00	0	43	0	2974810112	51	4132
2026-01-26 00:31:32.29	124.56	14.20	-40.3	-41.1	22.4	0.00e+00	0	43	0	2980052992	51	4144
2026-01-26 00:31:33.29	124.72	14.14	-40.2	-41.1	22.4	0.00e+00	0	44	0	2985295872	51	4130
2026-01-26 00:31:34.30	124.88	14.07	-40.3	-41.2	22.3	0.00e+00	0	44	0	2991587328	51	4176
2026-01-26 00:31:35.30	125.04	14.00	-40.3	-41.1	22.4	0.00e+00	0	43	0	2996830208	51	4144
2026-01-26 00:31:36.31	125.20	13.94	-40.2	-41.0	22.5	0.00e+00	0	44	0	3003121664	51	4090
2026-01-26 00:31:37.32	125.36	13.87	-40.3	-41.1	22.4	0.00e+00	0	44	0	3008364544	51	4139
2026-01-26 00:31:38.33	125.52	13.81	-40.3	-41.1	22.4	0.00e+00	0	43	0	3014656000	51	4142
2026-01-26 00:31:39.33	125.68	13.74	-40.3	-41.1	22.4	0.00e+00	0	44	0	3019898880	51	4122
2026-01-26 00:31:40.34	125.84	13.68	-40.2	-41.1	22.5	0.00e+00	0	44	0	3026190336	51	4100
2026-01-26 00:31:41.35	125.99	13.61	-40.4	-41.2	22.3	0.00e+00	0	44	0	3031433216	51	4187
2026-01-26 00:31:42.35	126.15	13.54	-40.4	-41.3	22.2	0.00e+00	0	44	0	3036676096	51	4205
2026-01-26 00:31:43.36	126.30	13.48	-40.5	-41.4	22.2	0.00e+00	0	44	0	3042967552	51	4263
2026-01-26 00:31:44.37	126.46	13.41	-40.6	-41.5	22.0	0.00e+00	0	44	0	3048210432	51	4316
2026-01-26 00:31:45.38	126.61	13.35	-40.6	-41.5	22.1	0.00e+00	0	44	0	3053453312	51	4295
2026-01-26 00:31:46.39	126.77	13.28	-40.6	-41.5	22.0	0.00e+00	0	44	0	3059744768	51	4322
2026-01-26 00:31:47.40	126.92	13.21	-40.4	-41.3	22.2	0.00e+00	0	44	0	3064987648	51	4217
2026-01-26 00:31:48.41	127.07	13.15	-40.4	-41.3	22.2	0.00e+00	0	44	0	3071279104	51	4225
2026-01-26 00:31:49.41	127.22	13.08	-40.5	-41.4	22.1	0.00e+00	0	44	0	3076521984	51	4250
2026-01-26 00:31:50.42	127.37	13.02	-40.5	-41.3	22.1	0.00e+00	0	44	0	3082813440	51	4229
2026-01-26 00:31:51.43	127.52	12.95	-40.4	-41.3	22.2	0.00e+00	0	44	0	3088056320	51	4195
2026-01-26 00:31:52.44	127.67	12.88	-40.3	-41.2	22.3	0.00e+00	0	44	0	3093299200	51	4169
2026-01-26 00:31:53.45	127.82	12.82	-40.5	-41.3	22.2	0.00e+00	0	44	0	3099590656	51	4225
2026-01-26 00:31:54.45	127.97	12.75	-40.6	-41.4	22.0	0.00e+00	0	44	0	3104833536	51	4277
2026-01-26 00:31:55.46	128.12	12.69	-40.6	-41.4	22.0	0.00e+00	0	44	0	3111124992	51	4288
2026-01-26 00:31:56.47	128.26	12.62	-40.8	-41.7	21.8	0.00e+00	0	44	0	3116367872	52	4149
2026-01-26 00:31:57.48	128.41	12.55	-40.7	-41.6	21.8	0.00e+00	0	44	0	3121610752	52	4106
2026-01-26 00:31:58.49	128.56	12.49	-40.6	-41.5	21.8	0.00e+00	0	44	0	3127902208	52	4090
2026-01-26 00:31:59.49	128.70	12.42	-40.5	-41.4	21.9	0.00e+00	0	44	0	3133145088	52	4045
2026-01-26 00:32:00.50	128.84	12.36	-40.6	-41.5	21.9	0.00e+00	0	44	0	3138387968	52	4078
2026-01-26 00:32:01.51	128.99	12.29	-40.7	-41.6	21.8	0.00e+00	0	44	0	3144679424	52	4143
2026-01-26 00:32:02.51	129.13	12.23	-40.7	-41.6	21.8	0.00e+00	0	44	0	3150970880	52	4129
2026-01-26 00:32:03.52	129.27	12.16	-40.7	-41.6	21.8	0.00e+00	0	44	0	3156213760	52	4142
2026-01-26 00:32:04.53	129.41	12.09	-40.8	-41.6	21.7	0.00e+00	0	44	0	3161456640	52	4144
2026-01-26 00:32:05.53	129.55	12.03	-40.9	-41.8	21.6	0.00e+00	0	44	0	3167748096	52	4199
2026-01-26 00:32:06.54	129.70	11.96	-40.8	-41.7	21.7	0.00e+00	0	44	0	3172990976	52	4157
2026-01-26 00:32:07.55	129.84	11.90	-40.7	-41.6	21.8	0.00e+00	0	44	0	3178233856	52	4132
2026-01-26 00:32:08.55	129.97	11.83	-40.7	-41.6	21.8	0.00e+00	0	44	0	3184525312	52	4118
2026-01-26 00:32:09.56	130.11	11.77	-40.7	-41.6	21.8	0.00e+00	0	43	0	3189768192	52	4105
2026-01-26 00:32:10.57	130.25	11.70	-40.8	-41.7	21.7	0.00e+00	0	44	0	3196059648	52	4153
2026-01-26 00:32:11.58	130.39	11.64	-40.8	-41.7	21.6	0.00e+00	0	44	0	3201302528	52	4191
2026-01-26 00:32:12.59	130.53	11.57	-40.9	-41.8	21.6	0.00e+00	0	44	0	3206545408	52	4222
2026-01-26 00:32:13.60	130.66	11.50	-41.0	-41.9	21.5	0.00e+00	0	44	0	3212836864	52	4275
2026-01-26 00:32:14.61	130.80	11.44	-41.0	-42.0	21.4	0.00e+00	0	44	0	3219128320	52	4302
2026-01-26 00:32:15.62	130.93	11.37	-40.9	-41.9	21.5	0.00e+00	0	44	0	3224371200	52	4243
2026-01-26 00:32:16.63	131.07	11.31	-41.0	-41.9	21.5	0.00e+00	0	44	0	3229614080	52	4262
2026-01-26 00:32:17.64	131.20	11.24	-41.0	-41.9	21.4	0.00e+00	0	44	0	3235905536	52	4272
2026-01-26 00:32:18.65	131.34	11.18	-41.0	-41.9	21.4	0.00e+00	0	44	0	3241148416	52	4287
2026-01-26 00:32:19.66	131.47	11.11	-41.0	-41.9	21.4	0.00e+00	0	44	0	3246391296	52	4287
2026-01-26 00:32:20.66	131.60	11.05	-41.0	-42.0	21.4	0.00e+00	0	44	0	3252682752	52	4295
2026-01-26 00:32:21.67	131.73	10.98	-40.9	-41.8	21.5	0.00e+00	0	44	0	3257925632	52	4235
2026-01-26 00:32:22.68	131.87	10.92	-41.0	-41.9	21.4	0.00e+00	0	43	0	3263168512	52	4284
2026-01-26 00:32:23.69	132.00	10.85	-41.0	-41.9	21.4	0.00e+00	0	44	0	3269459968	52	4290
2026-01-26 00:32:24.70	132.13	10.78	-41.2	-42.1	21.3	0.00e+00	0	44	0	3274702848	52	4359
2026-01-26 00:32:25.71	132.26	10.72	-41.0	-41.9	21.4	0.00e+00	0	44	0	3280994304	52	4261
2026-01-26 00:32:26.71	132.39	10.65	-41.1	-42.0	21.3	0.00e+00	0	44	0	3286237184	52	4293
2026-01-26 00:32:27.72	132.51	10.59	-41.0	-41.9	21.4	0.00e+00	0	44	0	3292528640	52	4250
2026-01-26 00:32:28.73	132.64	10.52	-41.0	-41.9	21.4	0.00e+00	0	43	0	3297771520	52	4278
2026-01-26 00:32:29.74	132.77	10.46	-41.0	-41.9	21.4	0.00e+00	0	44	0	3304062976	52	4280
2026-01-26 00:32:30.75	132.90	10.39	-41.0	-41.9	21.4	0.00e+00	0	44	0	3309305856	52	4285
2026-01-26 00:32:31.75	133.02	10.33	-41.2	-42.1	21.2	0.00e+00	0	44	0	3314548736	52	4353
2026-01-26 00:32:32.76	133.15	10.27	-41.2	-42.2	21.1	0.00e+00	0	44	0	3320840192	53	4150
2026-01-26 00:32:33.77	133.27	10.20	-41.4	-42.4	21.0	0.00e+00	0	44	0	3326083072	53	4249
2026-01-26 00:32:34.78	133.40	10.14	-41.5	-42.5	20.9	0.00e+00	0	44	0	3331325952	53	4296
2026-01-26 00:32:35.79	133.52	10.07	-41.4	-42.3	21.0	0.00e+00	0	44	0	3337617408	53	4238
2026-01-26 00:32:36.79	133.65	10.01	-41.4	-42.4	21.0	0.00e+00	0	43	0	3342860288	53	4257
2026-01-26 00:32:37.80	133.77	9.94	-41.2	-42.1	21.2	0.00e+00	0	44	0	3348103168	53	4135
2026-01-26 00:32:38.81	133.89	9.88	-41.3	-42.2	21.1	0.00e+00	0	44	0	3354394624	53	4172
2026-01-26 00:32:39.82	134.01	9.81	-41.2	-42.1	21.2	0.00e+00	0	44	0	3360686080	53	4127
2026-01-26 00:32:40.83	134.14	9.75	-41.2	-42.1	21.2	0.00e+00	0	44	0	3365928960	53	4126
2026-01-26 00:32:41.84	134.26	9.68	-41.3	-42.2	21.1	0.00e+00	0	44	0	3371171840	53	4169
2026-01-26 00:32:42.85	134.38	9.62	-41.1	-42.0	21.3	0.00e+00	0	44	0	3377463296	53	4093
2026-01-26 00:32:43.86	134.50	9.56	-41.0	-41.9	21.4	0.00e+00	0	44	0	3382706176	53	4038
2026-01-26 00:32:44.87	134.62	9.49	-41.2	-42.1	21.2	0.00e+00	0	44	0	3388997632	53	4110
2026-01-26 00:32:45.87	134.74	9.43	-41.1	-42.0	21.2	0.00e+00	0	44	0	3394240512	53	4095
2026-01-26 00:32:46.88	134.85	9.36	-41.3	-42.2	21.0	0.00e+00	0	44	0	3399483392	53	4191
2026-01-26 00:32:47.89	134.97	9.30	-41.4	-42.3	21.0	0.00e+00	0	44	0	3405774848	53	4214
2026-01-26 00:32:48.89	135.09	9.24	-41.2	-42.1	21.2	0.00e+00	0	44	0	3411017728	53	4107
2026-01-26 00:32:49.90	135.21	9.17	-41.1	-42.0	21.2	0.00e+00	0	44	0	3416260608	53	4084
2026-01-26 00:32:50.91	135.32	9.11	-41.2	-42.2	21.1	0.00e+00	0	44	0	3422552064	53	4156
2026-01-26 00:32:51.92	135.44	9.05	-41.3	-42.3	21.0	0.00e+00	0	44	0	3428843520	53	4207
2026-01-26 00:32:52.93	135.56	8.98	-41.3	-42.2	21.0	0.00e+00	0	44	0	3434086400	53	4189
2026-01-26 00:32:53.93	135.67	8.92	-41.2	-42.2	21.1	0.00e+00	0	43	0	3439329280	53	4150
2026-01-26 00:32:54.94	135.78	8.86	-41.4	-42.3	20.9	0.00e+00	0	44	0	3445620736	53	4235
2026-01-26 00:32:55.95	135.90	8.79	-41.5	-42.5	20.8	0.00e+00	0	44	0	3450863616	53	4293
2026-01-26 00:32:56.96	136.01	8.73	-41.5	-42.4	20.8	0.00e+00	0	44	0	3456106496	53	4278
2026-01-26 00:32:57.97	136.13	8.66	-41.4	-42.4	20.8	0.00e+00	0	44	0	3462397952	53	4256
2026-01-26 00:32:58.98	136.24	8.60	-41.6	-42.6	20.6	0.00e+00	0	44	0	3467640832	53	4354
2026-01-26 00:32:59.99	136.35	8.54	-41.7	-42.7	20.5	0.00e+00	0	44	0	3473932288	53	4408
2026-01-26 00:33:01.00	136.46	8.48	-41.6	-42.6	20.6	0.00e+00	0	44	0	3479175168	53	4355
2026-01-26 00:33:02.01	136.58	8.41	-41.8	-42.8	20.4	0.00e+00	0	44	0	3485466624	54	4210
2026-01-26 00:33:03.01	136.69	8.35	-41.9	-42.9	20.3	0.00e+00	0	44	0	3490709504	54	4267
2026-01-26 00:33:04.02	136.80	8.29	-41.9	-42.9	20.3	0.00e+00	0	44	0	3497000960	54	4282
2026-01-26 00:33:05.03	136.91	8.22	-41.8	-42.9	20.4	0.00e+00	0	44	0	3502243840	54	4243
2026-01-26 00:33:06.04	137.02	8.16	-41.9	-43.0	20.3	0.00e+00	0	43	0	3507486720	54	4294
2026-01-26 00:33:07.04	137.12	8.10	-42.1	-43.1	20.1	0.00e+00	0	44	0	3513778176	54	4382
2026-01-26 00:33:08.04	137.23	8.04	-42.2	-43.3	20.0	0.00e+00	0	44	0	3519021056	55	4205
2026-01-26 00:33:09.05	137.34	7.97	-42.1	-43.1	20.1	0.00e+00	0	44	0	3524263936	55	4129
2026-01-26 00:33:10.06	137.45	7.91	-42.0	-43.0	20.2	0.00e+00	0	44	0	3530555392	55	4091
2026-01-26 00:33:11.07	137.56	7.85	-42.2	-43.2	20.0	0.00e+00	0	44	0	3535798272	55	4171
2026-01-26 00:33:12.08	137.66	7.79	-42.3	-43.3	19.9	0.00e+00	0	44	0	3541041152	55	4234
2026-01-26 00:33:13.09	137.77	7.72	-42.4	-43.4	19.8	0.00e+00	0	44	0	3547332608	55	4273
2026-01-26 00:33:14.10	137.87	7.66	-42.2	-43.2	20.0	0.00e+00	0	44	0	3552575488	55	4165
2026-01-26 00:33:15.11	137.98	7.60	-42.2	-43.2	20.0	0.00e+00	0	44	0	3558866944	55	4188
2026-01-26 00:33:16.12	138.09	7.54	-42.2	-43.2	19.9	0.00e+00	0	44	0	3564109824	55	4190
2026-01-26 00:33:17.13	138.19	7.48	-42.0	-43.0	20.2	0.00e+00	0	44	0	3570401280	55	4074
2026-01-26 00:33:18.14	138.30	7.41	-42.3	-43.3	19.9	0.00e+00	0	43	0	3575644160	55	4227
2026-01-26 00:33:19.14	138.40	7.35	-42.1	-43.1	20.0	0.00e+00	0	44	0	3581935616	55	4133
2026-01-26 00:33:20.15	138.50	7.29	-42.2	-43.2	20.0	0.00e+00	0	44	0	3587178496	55	4167
2026-01-26 00:33:21.16	138.61	7.23	-42.3	-43.3	19.9	0.00e+00	0	44	0	3592421376	55	4233
2026-01-26 00:33:22.17	138.71	7.17	-42.5	-43.5	19.6	0.00e+00	0	43	0	3598712832	55	4337
2026-01-26 00:33:23.17	138.81	7.11	-42.4	-43.5	19.7	0.00e+00	0	44	0	3603955712	55	4305
2026-01-26 00:33:24.18	138.91	7.04	-42.2	-43.3	19.9	0.00e+00	0	44	0	3609198592	55	4213
2026-01-26 00:33:25.19	139.01	6.98	-42.4	-43.4	19.7	0.00e+00	0	44	0	3615490048	55	4291
2026-01-26 00:33:26.20	139.11	6.92	-42.2	-43.3	19.9	0.00e+00	0	44	0	3620732928	55	4212
2026-01-26 00:33:27.21	139.21	6.86	-42.4	-43.4	19.7	0.00e+00	0	44	0	3627024384	55	4284
2026-01-26 00:33:28.21	139.31	6.80	-42.4	-43.5	19.7	0.00e+00	0	43	0	3632267264	55	4311
2026-01-26 00:33:29.22	139.41	6.74	-42.4	-43.5	19.6	0.00e+00	0	44	0	3638558720	55	4314
2026-01-26 00:33:30.23	139.51	6.68	-42.4	-43.5	19.6	0.00e+00	0	44	0	3643801600	55	4302
2026-01-26 00:33:31.24	139.61	6.62	-42.0	-43.0	20.1	0.00e+00	0	44	0	3649044480	55	4060
2026-01-26 00:33:32.24	139.71	6.56	-42.0	-43.1	20.0	0.00e+00	0	44	0	3655335936	55	4103
2026-01-26 00:33:33.25	139.81	6.49	-42.3	-43.4	19.7	0.00e+00	0	43	0	3660578816	55	4268
