passes_logs/2026/01/26/R3.2S_Murmansk/R3.2S_Murmansk__20260126_044532_NOAA_20_JPSS-1_rec.log

#Pass ID: 20260126_044532_NOAA 20 (JPSS-1)
#Satellite: NOAA 20 (JPSS-1)
#Configuration: NOAA 20
#almurnet v.1.7.20251203
#Start time: 2026-01-26 04:45:32

#Version: 2.2.20231116
#Station: R3.2S_Murmansk
#Location: 33.079688 lon 68.888172 lat
#TLE: 1 43013U 17073A   26025.47986292  .00000161  00000+0  97249-4 0  9993
#TLE: 2 43013  98.7646 326.3091 0001052  24.2709 335.8516 14.19540188424225

#Time	Az	El	Level	Level2	SNR	BER	BlckErr	Temp	State	Recorded	gain1	gain2
2026-01-26 04:45:32.63	56.36	2.00	-54.0	-69.0	3.8	1.49e+00	0	41	0	0	79	20410
2026-01-26 04:45:33.64	56.29	2.06	-54.0	-69.0	3.8	1.49e+00	0	41	104	0	78	21679
2026-01-26 04:45:34.65	56.23	2.12	-54.1	-69.1	3.8	1.49e+00	0	41	104	0	78	21858
2026-01-26 04:45:35.65	56.17	2.17	-54.2	-69.1	3.8	1.49e+00	0	41	104	0	78	21992
2026-01-26 04:45:36.66	56.10	2.23	-54.2	-69.2	3.8	1.49e+00	0	41	104	0	78	22012
2026-01-26 04:45:37.67	56.04	2.29	-54.2	-69.2	3.8	1.49e+00	0	41	104	0	78	22067
2026-01-26 04:45:38.68	55.97	2.35	-54.2	-69.2	3.8	1.49e+00	0	41	104	0	78	22028
2026-01-26 04:45:39.68	55.91	2.40	-54.2	-69.2	3.8	1.49e+00	0	41	104	0	78	22021
2026-01-26 04:45:40.69	55.84	2.46	-54.1	-69.1	3.8	1.49e+00	0	41	104	0	78	21900
2026-01-26 04:45:41.70	55.77	2.52	-54.1	-69.1	3.8	1.49e+00	0	41	104	0	78	21826
2026-01-26 04:45:42.71	55.71	2.58	-54.1	-69.0	3.8	1.49e+00	0	42	104	0	78	21714
2026-01-26 04:45:43.71	55.64	2.64	-54.0	-69.0	3.8	1.49e+00	0	41	104	0	78	21540
2026-01-26 04:45:44.72	55.57	2.69	-53.9	-68.9	3.8	1.49e+00	0	41	104	0	78	21335
2026-01-26 04:45:45.73	55.51	2.75	-53.9	-68.8	3.8	1.49e+00	0	41	104	0	78	21213
2026-01-26 04:45:46.73	55.44	2.81	-53.8	-68.8	3.8	1.49e+00	0	42	104	0	78	21089
2026-01-26 04:45:47.74	55.37	2.87	-53.8	-68.8	3.8	1.49e+00	0	42	104	0	78	21065
2026-01-26 04:45:48.75	55.30	2.93	-53.8	-68.7	3.8	1.49e+00	0	42	104	0	78	20936
2026-01-26 04:45:49.76	55.24	2.99	-53.7	-68.6	3.8	1.49e+00	0	42	104	0	78	20684
2026-01-26 04:45:50.77	55.17	3.04	-53.5	-68.5	3.8	1.49e+00	0	42	104	0	78	20386
2026-01-26 04:45:51.77	55.10	3.10	-53.4	-68.4	3.8	1.49e+00	0	42	104	0	78	20120
2026-01-26 04:45:52.78	55.03	3.16	-53.3	-68.3	3.8	1.49e+00	0	42	104	0	78	19874
2026-01-26 04:45:53.79	54.96	3.22	-53.2	-68.1	3.8	1.49e+00	0	42	104	0	78	19515
2026-01-26 04:45:54.80	54.89	3.28	-53.0	-67.9	3.8	1.49e+00	0	42	104	0	78	19151
2026-01-26 04:45:55.80	54.82	3.34	-52.7	-67.6	3.8	1.49e+00	0	42	104	0	77	19609
2026-01-26 04:45:56.81	54.75	3.40	-52.2	-67.1	3.8	1.49e+00	0	42	104	0	76	19576
2026-01-26 04:45:57.82	54.68	3.46	-52.1	-67.0	3.8	1.49e+00	0	42	104	0	76	19279
2026-01-26 04:45:58.83	54.61	3.52	-52.1	-67.0	3.8	1.49e+00	0	42	104	0	76	19321
2026-01-26 04:45:59.83	54.54	3.57	-52.1	-67.0	3.8	1.49e+00	0	42	104	0	76	19346
2026-01-26 04:46:00.85	54.47	3.63	-52.1	-67.0	3.8	1.49e+00	0	42	104	0	76	19293
2026-01-26 04:46:01.86	54.40	3.69	-52.1	-67.0	3.8	1.49e+00	0	42	104	0	76	19196
2026-01-26 04:46:02.86	54.32	3.75	-52.1	-67.0	3.8	1.49e+00	0	42	104	0	76	19189
2026-01-26 04:46:03.87	54.25	3.81	-52.1	-67.0	3.8	1.49e+00	0	42	104	0	76	19182
2026-01-26 04:46:04.87	54.18	3.87	-52.1	-67.0	3.8	1.49e+00	0	42	104	0	76	19242
2026-01-26 04:46:05.88	54.11	3.93	-52.1	-67.0	3.8	1.49e+00	0	42	104	0	76	19242
2026-01-26 04:46:06.89	54.03	3.99	-52.1	-66.9	3.8	1.49e+00	0	42	104	0	76	19112
2026-01-26 04:46:07.90	53.96	4.05	-52.0	-66.6	3.8	1.49e+00	0	42	104	0	76	18502
2026-01-26 04:46:08.90	53.89	4.11	-52.0	-66.2	3.8	1.49e+00	0	42	104	0	76	17517
2026-01-26 04:46:09.91	53.81	4.17	-52.0	-65.4	3.8	1.49e+00	0	42	104	0	76	16029
2026-01-26 04:46:10.92	53.74	4.23	-51.9	-65.0	3.8	1.49e+00	0	42	104	0	75	16264
2026-01-26 04:46:11.93	53.66	4.29	-51.9	-64.6	3.8	1.49e+00	0	43	104	0	75	15535
2026-01-26 04:46:12.93	53.59	4.35	-51.9	-64.3	3.8	1.47e+00	0	42	104	0	75	14958
2026-01-26 04:46:13.94	53.51	4.41	-51.9	-64.9	3.8	1.48e+00	0	42	104	0	75	16051
2026-01-26 04:46:14.95	53.44	4.47	-51.9	-65.0	3.8	1.49e+00	0	42	104	0	75	16250
2026-01-26 04:46:15.96	53.36	4.54	-51.9	-65.0	3.8	1.49e+00	0	42	104	0	75	16173
2026-01-26 04:46:16.97	53.28	4.60	-51.9	-64.3	4.0	1.48e+00	0	42	104	0	75	14962
2026-01-26 04:46:17.97	53.21	4.66	-51.8	-63.0	4.3	1.43e+00	11	42	104	0	75	12908
2026-01-26 04:46:18.98	53.13	4.72	-51.7	-61.6	4.9	9.67e-01	0	42	0	1048576	75	11001
2026-01-26 04:46:19.99	53.05	4.78	-51.5	-60.0	5.9	5.54e-01	0	42	0	3145728	75	9127
2026-01-26 04:46:20.99	52.97	4.84	-51.3	-59.0	6.7	2.29e-01	0	42	0	5242880	74	8655
2026-01-26 04:46:22.00	52.90	4.90	-51.1	-58.1	7.6	1.26e-01	0	42	0	7340032	74	7759
2026-01-26 04:46:23.01	52.82	4.96	-50.9	-57.3	8.4	6.06e-02	0	42	0	8388608	73	7486
2026-01-26 04:46:24.01	52.74	5.02	-50.7	-56.6	9.1	2.86e-02	0	42	0	10485760	73	6915
2026-01-26 04:46:25.02	52.66	5.09	-50.2	-54.7	11.3	1.11e-03	0	43	0	12582912	71	6255
2026-01-26 04:46:26.03	52.58	5.15	-51.6	-60.4	5.8	3.69e-02	0	42	0	14680064	73	10662
2026-01-26 04:46:27.04	52.50	5.21	-51.5	-60.7	5.5	2.00e-01	0	43	0	16777216	73	11107
2026-01-26 04:46:28.04	52.42	5.27	-48.2	-50.8	15.3	2.88e-04	0	42	0	17825792	68	4721
2026-01-26 04:46:29.05	52.34	5.33	-51.9	-66.4	3.8	5.09e-01	0	43	104	19922944	74	20301
2026-01-26 04:46:30.06	52.26	5.39	-48.2	-50.8	15.2	2.05e-05	0	43	0	19922944	68	4712
2026-01-26 04:46:31.07	52.18	5.46	-48.1	-50.6	15.6	0.00e+00	0	42	0	22020096	68	4615
2026-01-26 04:46:32.07	52.10	5.52	-48.1	-50.7	15.5	0.00e+00	0	43	0	24117248	68	4674
2026-01-26 04:46:33.07	52.02	5.58	-48.1	-50.6	15.6	0.00e+00	0	43	0	25165824	68	4618
2026-01-26 04:46:34.08	51.93	5.64	-48.0	-50.5	15.6	0.00e+00	0	43	0	27262976	67	4824
2026-01-26 04:46:35.09	51.85	5.70	-48.1	-50.6	15.6	0.00e+00	0	43	0	29360128	67	4899
2026-01-26 04:46:36.10	51.77	5.77	-48.1	-50.6	15.5	0.00e+00	0	43	0	31457280	67	4921
2026-01-26 04:46:37.11	51.68	5.83	-47.9	-50.3	15.8	0.00e+00	0	43	0	32505856	67	4745
2026-01-26 04:46:38.12	51.60	5.89	-47.9	-50.3	15.9	0.00e+00	0	43	0	34603008	67	4723
2026-01-26 04:46:39.12	51.51	5.96	-47.8	-50.2	16.0	0.00e+00	0	43	0	36700160	67	4671
2026-01-26 04:46:40.13	51.43	6.02	-47.8	-50.2	16.0	0.00e+00	0	43	0	38797312	67	4673
2026-01-26 04:46:41.13	51.35	6.08	-47.9	-50.3	15.9	0.00e+00	0	43	0	40894464	67	4750
2026-01-26 04:46:42.14	51.26	6.14	-47.9	-50.4	15.8	0.00e+00	0	42	0	42991616	67	4781
2026-01-26 04:46:43.15	51.17	6.21	-47.7	-50.1	16.1	0.00e+00	0	43	0	44040192	67	4600
2026-01-26 04:46:44.15	51.09	6.27	-47.6	-49.9	16.3	0.00e+00	0	43	0	46137344	67	4519
2026-01-26 04:46:45.16	51.00	6.33	-47.7	-50.0	16.3	0.00e+00	0	43	0	48234496	67	4573
2026-01-26 04:46:46.17	50.91	6.40	-47.7	-50.0	16.2	0.00e+00	0	43	0	50331648	67	4571
2026-01-26 04:46:47.18	50.83	6.46	-47.6	-49.9	16.4	0.00e+00	0	43	0	52428800	67	4520
2026-01-26 04:46:48.18	50.74	6.52	-47.8	-50.1	16.2	0.00e+00	0	43	0	53477376	67	4625
2026-01-26 04:46:49.19	50.65	6.59	-47.8	-50.1	16.2	0.00e+00	0	43	0	55574528	67	4630
2026-01-26 04:46:50.20	50.56	6.65	-47.7	-49.9	16.4	0.00e+00	0	43	0	57671680	67	4520
2026-01-26 04:46:51.21	50.47	6.72	-47.6	-49.9	16.4	0.00e+00	0	43	0	59768832	67	4503
2026-01-26 04:46:52.21	50.39	6.78	-47.8	-50.1	16.2	0.00e+00	0	43	0	60817408	67	4603
2026-01-26 04:46:53.22	50.30	6.84	-47.8	-50.0	16.3	0.00e+00	0	43	0	62914560	67	4592
2026-01-26 04:46:54.23	50.21	6.91	-47.8	-50.1	16.2	0.00e+00	0	43	0	65011712	67	4621
2026-01-26 04:46:55.23	50.12	6.97	-47.8	-50.0	16.3	0.00e+00	0	43	0	67108864	67	4582
2026-01-26 04:46:56.24	50.02	7.04	-47.7	-49.9	16.4	0.00e+00	0	43	0	69206016	67	4532
2026-01-26 04:46:57.24	49.93	7.10	-47.8	-50.1	16.2	0.00e+00	0	43	0	71303168	67	4641
2026-01-26 04:46:58.25	49.84	7.16	-47.9	-50.2	16.2	0.00e+00	0	43	0	72351744	67	4675
2026-01-26 04:46:59.25	49.75	7.23	-47.9	-50.3	16.1	0.00e+00	0	43	0	74448896	67	4735
2026-01-26 04:47:00.26	49.66	7.29	-47.8	-50.0	16.4	0.00e+00	0	43	0	76546048	67	4581
2026-01-26 04:47:01.26	49.56	7.36	-47.7	-49.9	16.5	0.00e+00	0	43	0	78643200	67	4522
2026-01-26 04:47:02.27	49.47	7.42	-47.9	-50.2	16.1	0.00e+00	0	43	0	80740352	67	4700
2026-01-26 04:47:03.27	49.38	7.49	-47.9	-50.2	16.2	0.00e+00	0	43	0	81788928	67	4668
2026-01-26 04:47:04.28	49.28	7.55	-47.7	-49.9	16.5	0.00e+00	0	43	0	83886080	67	4512
2026-01-26 04:47:05.30	49.19	7.62	-47.8	-50.1	16.3	0.00e+00	0	43	0	85983232	67	4611
2026-01-26 04:47:06.30	49.09	7.68	-47.8	-50.0	16.4	0.00e+00	0	43	0	88080384	67	4590
2026-01-26 04:47:07.31	49.00	7.75	-47.7	-49.9	16.5	0.00e+00	0	43	0	89128960	67	4535
2026-01-26 04:47:08.31	48.90	7.81	-47.7	-49.9	16.6	0.00e+00	0	43	0	91226112	67	4498
2026-01-26 04:47:09.32	48.80	7.88	-47.7	-49.9	16.6	0.00e+00	0	43	0	93323264	67	4513
2026-01-26 04:47:10.32	48.71	7.94	-47.7	-49.9	16.5	0.00e+00	0	43	0	95420416	67	4541
2026-01-26 04:47:11.32	48.61	8.01	-47.5	-49.7	16.8	0.00e+00	0	43	0	97517568	67	4407
2026-01-26 04:47:12.33	48.51	8.07	-47.7	-49.9	16.6	0.00e+00	0	43	0	98566144	67	4517
2026-01-26 04:47:13.33	48.42	8.14	-47.6	-49.7	16.8	0.00e+00	0	43	0	100663296	67	4409
2026-01-26 04:47:14.34	48.32	8.21	-47.5	-49.6	16.8	0.00e+00	0	43	0	102760448	67	4379
2026-01-26 04:47:15.34	48.22	8.27	-47.6	-49.7	16.8	0.00e+00	0	43	0	104857600	67	4415
2026-01-26 04:47:16.35	48.12	8.34	-47.6	-49.7	16.8	0.00e+00	0	43	0	106954752	67	4421
2026-01-26 04:47:17.35	48.02	8.40	-47.5	-49.6	16.9	0.00e+00	0	43	0	109051904	67	4381
2026-01-26 04:47:18.36	47.92	8.47	-47.4	-49.5	17.0	0.00e+00	0	43	0	110100480	66	4575
2026-01-26 04:47:19.37	47.82	8.54	-47.5	-49.5	17.0	0.00e+00	0	43	0	112197632	66	4582
2026-01-26 04:47:20.37	47.72	8.60	-47.4	-49.5	17.0	0.00e+00	0	43	0	114294784	66	4561
2026-01-26 04:47:21.38	47.61	8.67	-47.2	-49.2	17.3	0.00e+00	0	43	0	116391936	66	4408
2026-01-26 04:47:22.39	47.51	8.74	-47.3	-49.3	17.2	0.00e+00	0	43	0	117440512	66	4453
2026-01-26 04:47:23.39	47.41	8.80	-47.3	-49.3	17.2	0.00e+00	0	43	0	119537664	66	4451
2026-01-26 04:47:24.40	47.30	8.87	-47.1	-49.1	17.4	0.00e+00	0	43	0	121634816	66	4351
2026-01-26 04:47:25.40	47.20	8.94	-47.3	-49.2	17.3	0.00e+00	0	43	0	123731968	66	4426
2026-01-26 04:47:26.41	47.10	9.00	-47.3	-49.2	17.3	0.00e+00	0	43	0	125829120	66	4437
2026-01-26 04:47:27.42	46.99	9.07	-47.2	-49.1	17.4	0.00e+00	0	43	0	126877696	66	4361
2026-01-26 04:47:28.43	46.88	9.14	-47.2	-49.2	17.4	0.00e+00	0	43	0	128974848	66	4392
2026-01-26 04:47:29.43	46.78	9.20	-47.2	-49.2	17.4	0.00e+00	0	43	0	131072000	66	4400
2026-01-26 04:47:30.44	46.67	9.27	-47.2	-49.2	17.4	0.00e+00	0	43	0	133169152	66	4405
2026-01-26 04:47:31.45	46.57	9.34	-47.2	-49.1	17.4	0.00e+00	0	43	0	135266304	66	4382
2026-01-26 04:47:32.45	46.46	9.41	-47.1	-49.0	17.5	0.00e+00	0	43	0	137363456	66	4324
2026-01-26 04:47:33.46	46.35	9.47	-47.2	-49.2	17.4	0.00e+00	0	43	0	138412032	66	4407
2026-01-26 04:47:34.47	46.24	9.54	-47.3	-49.3	17.3	0.00e+00	0	43	0	140509184	66	4454
2026-01-26 04:47:35.48	46.13	9.61	-47.3	-49.2	17.4	0.00e+00	0	43	0	142606336	66	4431
2026-01-26 04:47:36.48	46.02	9.68	-47.4	-49.4	17.2	0.00e+00	0	43	0	144703488	66	4513
2026-01-26 04:47:37.49	45.91	9.75	-47.5	-49.6	17.0	0.00e+00	0	43	0	145752064	66	4600
2026-01-26 04:47:38.49	45.80	9.81	-47.5	-49.6	17.0	0.00e+00	0	43	0	147849216	66	4616
2026-01-26 04:47:39.50	45.69	9.88	-47.4	-49.4	17.1	0.00e+00	0	43	0	149946368	66	4535
2026-01-26 04:47:40.51	45.58	9.95	-47.4	-49.4	17.2	0.00e+00	0	43	0	152043520	66	4523
2026-01-26 04:47:41.52	45.47	10.02	-47.4	-49.4	17.2	0.00e+00	0	43	0	154140672	66	4513
2026-01-26 04:47:42.52	45.35	10.09	-47.5	-49.5	17.1	0.00e+00	0	43	0	155189248	66	4587
2026-01-26 04:47:43.52	45.24	10.15	-47.6	-49.6	16.9	0.00e+00	0	43	0	157286400	66	4651
2026-01-26 04:47:44.52	45.13	10.22	-47.4	-49.4	17.2	0.00e+00	0	43	0	159383552	66	4525
2026-01-26 04:47:45.54	45.01	10.29	-47.4	-49.4	17.2	0.00e+00	0	43	0	161480704	66	4543
2026-01-26 04:47:46.54	44.90	10.36	-47.4	-49.4	17.2	0.00e+00	0	43	0	163577856	66	4521
2026-01-26 04:47:47.54	44.78	10.43	-47.5	-49.4	17.2	0.00e+00	0	43	0	165675008	66	4545
2026-01-26 04:47:48.55	44.67	10.50	-47.4	-49.3	17.3	0.00e+00	0	43	0	166723584	66	4484
2026-01-26 04:47:49.56	44.55	10.56	-47.3	-49.3	17.4	0.00e+00	0	43	0	168820736	66	4450
2026-01-26 04:47:50.57	44.43	10.63	-47.4	-49.5	17.2	0.00e+00	0	43	0	170917888	66	4549
2026-01-26 04:47:51.57	44.32	10.70	-47.2	-49.1	17.5	0.00e+00	0	43	0	173015040	66	4373
2026-01-26 04:47:52.58	44.20	10.77	-47.3	-49.2	17.5	0.00e+00	0	43	0	174063616	66	4417
2026-01-26 04:47:53.59	44.08	10.84	-47.2	-49.2	17.5	0.00e+00	0	43	0	176160768	66	4393
2026-01-26 04:47:54.60	43.96	10.91	-47.1	-49.0	17.7	0.00e+00	0	43	0	178257920	66	4312
2026-01-26 04:47:55.60	43.84	10.98	-47.1	-49.0	17.6	0.00e+00	0	43	0	180355072	66	4326
2026-01-26 04:47:56.61	43.72	11.05	-47.2	-49.1	17.6	0.00e+00	0	43	0	182452224	66	4361
2026-01-26 04:47:57.62	43.60	11.12	-47.1	-49.0	17.7	0.00e+00	0	43	0	183500800	66	4299
2026-01-26 04:47:58.63	43.47	11.19	-47.0	-48.8	17.8	0.00e+00	0	43	0	185597952	66	4240
2026-01-26 04:47:59.64	43.35	11.26	-46.9	-48.7	18.0	0.00e+00	0	43	0	187695104	65	4403
2026-01-26 04:48:00.65	43.23	11.33	-47.0	-48.8	17.9	0.00e+00	0	43	0	189792256	65	4463
2026-01-26 04:48:01.66	43.10	11.40	-47.0	-48.9	17.8	0.00e+00	0	43	0	191889408	65	4503
2026-01-26 04:48:02.66	42.98	11.47	-46.9	-48.8	17.9	0.00e+00	0	43	0	193986560	65	4448
2026-01-26 04:48:03.67	42.85	11.54	-46.9	-48.7	17.9	0.00e+00	0	43	0	195035136	65	4438
2026-01-26 04:48:04.67	42.73	11.61	-46.9	-48.8	17.9	0.00e+00	0	43	0	197132288	65	4443
2026-01-26 04:48:05.68	42.60	11.68	-46.6	-48.4	18.3	0.00e+00	0	43	0	199229440	65	4243
2026-01-26 04:48:06.69	42.48	11.75	-46.5	-48.2	18.5	0.00e+00	0	43	0	201326592	65	4168
2026-01-26 04:48:07.69	42.35	11.82	-46.6	-48.3	18.4	0.00e+00	0	43	0	202375168	65	4223
2026-01-26 04:48:08.70	42.22	11.89	-46.6	-48.3	18.4	0.00e+00	0	43	0	204472320	65	4219
2026-01-26 04:48:09.71	42.09	11.96	-46.7	-48.4	18.4	0.00e+00	0	43	0	206569472	65	4247
2026-01-26 04:48:10.71	41.96	12.03	-46.7	-48.4	18.3	0.00e+00	0	43	0	208666624	65	4279
2026-01-26 04:48:11.72	41.83	12.10	-46.7	-48.5	18.3	0.00e+00	0	43	0	210763776	65	4294
2026-01-26 04:48:12.72	41.71	12.17	-46.6	-48.3	18.4	0.00e+00	0	43	0	211812352	65	4234
2026-01-26 04:48:13.73	41.57	12.24	-46.7	-48.4	18.4	0.00e+00	0	43	0	213909504	65	4245
2026-01-26 04:48:14.73	41.44	12.31	-46.8	-48.5	18.2	0.00e+00	0	43	0	216006656	65	4328
2026-01-26 04:48:15.74	41.31	12.38	-46.7	-48.4	18.4	0.00e+00	0	43	0	218103808	65	4258
2026-01-26 04:48:16.75	41.18	12.45	-46.6	-48.3	18.4	0.00e+00	0	43	0	220200960	65	4229
2026-01-26 04:48:17.76	41.04	12.52	-46.6	-48.3	18.5	0.00e+00	0	43	0	222298112	65	4225
2026-01-26 04:48:18.77	40.91	12.59	-46.7	-48.4	18.3	0.00e+00	0	43	0	223346688	65	4277
2026-01-26 04:48:19.77	40.77	12.66	-46.7	-48.4	18.4	0.00e+00	0	43	0	225443840	65	4261
2026-01-26 04:48:20.77	40.64	12.73	-46.6	-48.3	18.5	0.00e+00	0	43	0	227540992	65	4211
2026-01-26 04:48:21.78	40.50	12.80	-46.5	-48.1	18.6	0.00e+00	0	43	0	229638144	64	4384
2026-01-26 04:48:22.79	40.36	12.87	-46.5	-48.1	18.7	0.00e+00	0	43	0	230686720	64	4378
2026-01-26 04:48:23.80	40.23	12.94	-46.5	-48.1	18.7	0.00e+00	0	43	0	232783872	64	4361
2026-01-26 04:48:24.80	40.09	13.01	-46.4	-48.0	18.8	0.00e+00	0	43	0	234881024	64	4294
2026-01-26 04:48:25.80	39.95	13.08	-46.4	-48.0	18.6	0.00e+00	0	43	0	236978176	64	4331
2026-01-26 04:48:26.81	39.81	13.15	-46.3	-47.8	18.9	0.00e+00	0	43	0	239075328	64	4232
2026-01-26 04:48:27.81	39.67	13.22	-46.2	-47.7	19.1	0.00e+00	0	43	0	240123904	64	4182
2026-01-26 04:48:28.82	39.53	13.30	-46.1	-47.7	19.1	0.00e+00	0	43	0	242221056	64	4152
2026-01-26 04:48:29.83	39.39	13.37	-46.1	-47.6	19.1	0.00e+00	0	43	0	244318208	64	4143
2026-01-26 04:48:30.84	39.25	13.44	-46.1	-47.6	19.2	0.00e+00	0	43	0	246415360	64	4126
2026-01-26 04:48:31.85	39.10	13.51	-46.1	-47.7	19.1	0.00e+00	0	43	0	248512512	64	4148
2026-01-26 04:48:32.85	38.96	13.58	-46.0	-47.5	19.3	0.00e+00	0	43	0	250609664	64	4062
2026-01-26 04:48:33.86	38.81	13.65	-46.0	-47.5	19.3	0.00e+00	0	43	0	251658240	64	4080
2026-01-26 04:48:34.87	38.67	13.72	-46.1	-47.6	19.2	0.00e+00	0	44	0	253755392	64	4119
2026-01-26 04:48:35.88	38.52	13.79	-46.1	-47.7	19.1	0.00e+00	0	43	0	255852544	64	4156
2026-01-26 04:48:36.89	38.37	13.87	-46.0	-47.5	19.3	0.00e+00	0	43	0	257949696	64	4094
2026-01-26 04:48:37.90	38.23	13.94	-46.1	-47.6	19.2	0.00e+00	0	43	0	258998272	64	4114
2026-01-26 04:48:38.91	38.08	14.01	-46.1	-47.6	19.2	0.00e+00	0	43	0	261095424	64	4116
2026-01-26 04:48:39.91	37.93	14.08	-46.1	-47.6	19.2	0.00e+00	0	43	0	263192576	64	4136
2026-01-26 04:48:40.92	37.78	14.15	-46.2	-47.8	19.0	0.00e+00	0	43	0	265289728	64	4209
2026-01-26 04:48:41.93	37.63	14.22	-46.3	-47.9	18.9	0.00e+00	0	43	0	267386880	64	4253
2026-01-26 04:48:42.93	37.48	14.29	-46.3	-47.9	19.0	0.00e+00	0	43	0	268435456	64	4245
2026-01-26 04:48:43.93	37.33	14.36	-46.4	-48.0	18.9	0.00e+00	0	43	0	270532608	64	4294
2026-01-26 04:48:44.94	37.18	14.44	-46.3	-47.9	18.9	0.00e+00	0	43	0	272629760	64	4258
2026-01-26 04:48:45.95	37.02	14.51	-46.3	-47.9	18.9	0.00e+00	0	43	0	274726912	64	4278
2026-01-26 04:48:46.96	36.87	14.58	-46.4	-48.0	18.8	0.00e+00	0	43	0	276824064	64	4311
2026-01-26 04:48:47.97	36.71	14.65	-46.4	-48.0	18.9	0.00e+00	0	43	0	278921216	64	4296
2026-01-26 04:48:48.97	36.56	14.72	-46.4	-48.0	18.8	0.00e+00	0	43	0	279969792	64	4338
2026-01-26 04:48:49.98	36.40	14.79	-46.5	-48.1	18.7	0.00e+00	0	43	0	282066944	64	4380
2026-01-26 04:48:50.99	36.24	14.86	-46.5	-48.1	18.7	0.00e+00	0	43	0	284164096	64	4372
2026-01-26 04:48:52.00	36.08	14.94	-46.5	-48.2	18.7	0.00e+00	0	43	0	286261248	64	4392
2026-01-26 04:48:53.01	35.93	15.01	-46.5	-48.1	18.8	0.00e+00	0	43	0	287309824	64	4360
2026-01-26 04:48:54.01	35.77	15.08	-46.6	-48.3	18.6	0.00e+00	0	43	0	289406976	64	4453
2026-01-26 04:48:55.02	35.61	15.15	-46.7	-48.4	18.5	0.00e+00	0	43	0	291504128	64	4504
2026-01-26 04:48:56.03	35.44	15.22	-46.7	-48.4	18.5	0.00e+00	0	43	0	293601280	64	4537
2026-01-26 04:48:57.04	35.28	15.29	-46.7	-48.3	18.5	0.00e+00	0	43	0	295698432	64	4488
2026-01-26 04:48:58.05	35.12	15.36	-46.8	-48.5	18.4	0.00e+00	0	43	0	297795584	64	4551
2026-01-26 04:48:59.05	34.96	15.43	-46.8	-48.5	18.4	0.00e+00	0	43	0	298844160	64	4561
2026-01-26 04:49:00.06	34.79	15.50	-46.8	-48.5	18.4	0.00e+00	0	43	0	300941312	64	4560
2026-01-26 04:49:01.07	34.63	15.58	-46.8	-48.5	18.4	0.00e+00	0	43	0	303038464	64	4555
2026-01-26 04:49:02.08	34.46	15.65	-46.7	-48.4	18.5	0.00e+00	0	43	0	305135616	64	4528
2026-01-26 04:49:03.08	34.30	15.72	-46.8	-48.5	18.4	0.00e+00	0	44	0	307232768	64	4550
2026-01-26 04:49:04.09	34.13	15.79	-46.7	-48.4	18.5	0.00e+00	0	43	0	308281344	64	4511
2026-01-26 04:49:05.09	33.96	15.86	-46.8	-48.5	18.4	0.00e+00	0	43	0	310378496	64	4560
2026-01-26 04:49:06.10	33.79	15.93	-46.8	-48.6	18.3	0.00e+00	0	43	0	312475648	64	4601
2026-01-26 04:49:07.10	33.62	16.00	-46.8	-48.5	18.4	0.00e+00	0	43	0	314572800	64	4568
2026-01-26 04:49:08.11	33.45	16.07	-46.9	-48.6	18.3	0.00e+00	0	43	0	315621376	64	4617
2026-01-26 04:49:09.12	33.28	16.14	-46.9	-48.6	18.3	0.00e+00	0	43	0	317718528	64	4625
2026-01-26 04:49:10.13	33.11	16.21	-46.9	-48.6	18.3	0.00e+00	0	43	0	319815680	64	4651
2026-01-26 04:49:11.13	32.93	16.28	-46.8	-48.5	18.4	0.00e+00	0	43	0	321912832	64	4574
2026-01-26 04:49:12.14	32.76	16.35	-46.8	-48.5	18.5	0.00e+00	0	43	0	324009984	64	4546
2026-01-26 04:49:13.15	32.59	16.42	-46.8	-48.5	18.4	0.00e+00	0	43	0	326107136	64	4597
2026-01-26 04:49:14.16	32.41	16.49	-47.0	-48.7	18.2	0.00e+00	0	43	0	327155712	64	4697
2026-01-26 04:49:15.17	32.23	16.57	-46.8	-48.5	18.3	0.00e+00	0	43	0	329252864	64	4597
2026-01-26 04:49:16.17	32.06	16.63	-46.9	-48.7	18.2	0.00e+00	0	43	0	331350016	64	4670
2026-01-26 04:49:17.18	31.88	16.71	-47.0	-48.7	18.2	0.00e+00	0	43	0	333447168	64	4677
2026-01-26 04:49:18.18	31.70	16.77	-46.9	-48.6	18.3	0.00e+00	0	43	0	335544320	64	4609
2026-01-26 04:49:19.19	31.52	16.84	-46.8	-48.5	18.5	0.00e+00	0	43	0	336592896	64	4548
2026-01-26 04:49:20.20	31.34	16.91	-46.8	-48.5	18.4	0.00e+00	0	43	0	338690048	64	4574
2026-01-26 04:49:21.20	31.16	16.98	-46.8	-48.5	18.4	0.00e+00	0	44	0	340787200	64	4595
2026-01-26 04:49:22.20	30.98	17.05	-46.8	-48.5	18.5	0.00e+00	0	43	0	342884352	64	4554
2026-01-26 04:49:23.21	30.79	17.12	-46.7	-48.3	18.6	0.00e+00	0	43	0	343932928	64	4478
2026-01-26 04:49:24.21	30.61	17.19	-46.8	-48.4	18.5	0.00e+00	0	43	0	346030080	64	4536
2026-01-26 04:49:25.22	30.43	17.26	-46.7	-48.3	18.6	0.00e+00	0	43	0	348127232	64	4466
2026-01-26 04:49:26.23	30.24	17.33	-46.8	-48.4	18.5	0.00e+00	0	43	0	350224384	64	4534
2026-01-26 04:49:27.24	30.05	17.40	-46.8	-48.4	18.5	0.00e+00	0	43	0	352321536	64	4531
2026-01-26 04:49:28.25	29.86	17.47	-46.7	-48.3	18.6	0.00e+00	0	43	0	354418688	64	4483
2026-01-26 04:49:29.25	29.68	17.54	-46.7	-48.4	18.6	0.00e+00	0	43	0	355467264	64	4507
2026-01-26 04:49:30.25	29.49	17.61	-46.8	-48.5	18.5	0.00e+00	0	43	0	357564416	64	4551
2026-01-26 04:49:31.26	29.30	17.67	-46.6	-48.2	18.7	0.00e+00	0	43	0	359661568	64	4423
2026-01-26 04:49:32.27	29.11	17.74	-46.4	-48.0	18.9	0.00e+00	0	44	0	361758720	64	4327
2026-01-26 04:49:33.28	28.91	17.81	-46.4	-48.0	19.0	0.00e+00	0	43	0	363855872	64	4301
2026-01-26 04:49:34.29	28.72	17.88	-46.4	-47.9	19.0	0.00e+00	0	43	0	364904448	64	4277
2026-01-26 04:49:35.29	28.53	17.95	-46.3	-47.8	19.1	0.00e+00	0	43	0	367001600	64	4233
2026-01-26 04:49:36.30	28.33	18.02	-46.3	-47.8	19.1	0.00e+00	0	43	0	369098752	64	4241
2026-01-26 04:49:37.31	28.14	18.08	-46.0	-47.5	19.4	0.00e+00	0	43	0	371195904	64	4077
2026-01-26 04:49:38.32	27.94	18.15	-46.1	-47.6	19.5	0.00e+00	0	43	0	372244480	63	4346
2026-01-26 04:49:39.33	27.74	18.22	-45.9	-47.3	19.7	0.00e+00	0	43	0	374341632	63	4229
2026-01-26 04:49:40.33	27.55	18.29	-45.7	-47.1	20.0	0.00e+00	0	43	0	376438784	63	4118
2026-01-26 04:49:41.34	27.35	18.35	-45.6	-47.0	20.1	0.00e+00	0	43	0	378535936	63	4052
2026-01-26 04:49:42.35	27.15	18.42	-45.4	-46.7	20.3	0.00e+00	0	43	0	380633088	62	4173
2026-01-26 04:49:43.36	26.95	18.49	-45.4	-46.7	20.4	0.00e+00	0	43	0	382730240	62	4153
2026-01-26 04:49:44.37	26.74	18.55	-45.3	-46.6	20.4	0.00e+00	0	43	0	383778816	62	4120
2026-01-26 04:49:45.37	26.54	18.62	-45.1	-46.4	20.7	0.00e+00	0	43	0	385875968	62	4020
2026-01-26 04:49:46.37	26.34	18.68	-45.0	-46.3	20.7	0.00e+00	0	43	0	387973120	62	3969
2026-01-26 04:49:47.38	26.14	18.75	-45.1	-46.4	20.6	0.00e+00	0	43	0	390070272	62	4034
2026-01-26 04:49:48.39	25.93	18.82	-45.0	-46.3	20.8	0.00e+00	0	43	0	392167424	62	3963
2026-01-26 04:49:49.39	25.72	18.88	-45.0	-46.2	20.8	0.00e+00	0	43	0	393216000	61	4188
2026-01-26 04:49:50.39	25.52	18.95	-45.0	-46.3	20.7	0.00e+00	0	43	0	395313152	61	4194
2026-01-26 04:49:51.40	25.31	19.01	-44.9	-46.2	20.8	0.00e+00	0	43	0	397410304	61	4163
2026-01-26 04:49:52.41	25.10	19.08	-45.0	-46.2	20.8	0.00e+00	0	43	0	399507456	61	4186
2026-01-26 04:49:53.41	24.89	19.14	-44.8	-46.0	21.0	0.00e+00	0	43	0	400556032	61	4059
2026-01-26 04:49:54.42	24.68	19.20	-44.8	-46.0	21.0	0.00e+00	0	43	0	402653184	61	4094
2026-01-26 04:49:55.43	24.47	19.27	-44.7	-45.9	21.1	0.00e+00	0	43	0	404750336	61	4045
2026-01-26 04:49:56.44	24.26	19.33	-44.6	-45.8	21.2	0.00e+00	0	43	0	406847488	61	3993
2026-01-26 04:49:57.45	24.04	19.40	-44.7	-45.8	21.1	0.00e+00	0	43	0	408944640	61	4001
2026-01-26 04:49:58.45	23.83	19.46	-44.7	-45.9	21.1	0.00e+00	0	43	0	411041792	61	4015
2026-01-26 04:49:59.46	23.62	19.52	-44.6	-45.8	21.2	0.00e+00	0	43	0	412090368	61	3982
2026-01-26 04:50:00.47	23.40	19.59	-44.6	-45.8	21.2	0.00e+00	0	43	0	414187520	61	3991
2026-01-26 04:50:01.47	23.18	19.65	-44.6	-45.8	21.2	0.00e+00	0	43	0	416284672	61	3999
2026-01-26 04:50:02.47	22.97	19.71	-44.6	-45.8	21.2	0.00e+00	0	43	0	418381824	61	3983
2026-01-26 04:50:03.48	22.75	19.77	-44.5	-45.7	21.3	0.00e+00	0	43	0	420478976	61	3945
2026-01-26 04:50:04.49	22.53	19.83	-44.6	-45.7	21.1	0.00e+00	0	43	0	421527552	61	3952
2026-01-26 04:50:05.49	22.31	19.89	-44.4	-45.6	21.4	0.00e+00	0	43	0	423624704	60	4107
2026-01-26 04:50:06.50	22.09	19.96	-44.3	-45.5	21.5	0.00e+00	0	43	0	425721856	60	4056
2026-01-26 04:50:07.51	21.86	20.02	-44.3	-45.5	21.5	0.00e+00	0	43	0	427819008	60	4063
2026-01-26 04:50:08.51	21.64	20.08	-44.4	-45.6	21.4	0.00e+00	0	43	0	428867584	60	4122
2026-01-26 04:50:09.52	21.42	20.14	-44.4	-45.6	21.5	0.00e+00	0	43	0	430964736	60	4099
2026-01-26 04:50:10.53	21.19	20.20	-44.5	-45.6	21.4	0.00e+00	0	43	0	433061888	60	4141
2026-01-26 04:50:11.53	20.97	20.26	-44.5	-45.6	21.4	0.00e+00	0	43	0	435159040	60	4135
2026-01-26 04:50:12.53	20.74	20.31	-44.4	-45.5	21.5	0.00e+00	0	44	0	437256192	60	4068
2026-01-26 04:50:13.54	20.52	20.37	-44.5	-45.6	21.4	0.00e+00	0	44	0	439353344	60	4133
2026-01-26 04:50:14.55	20.29	20.43	-44.7	-45.9	21.2	0.00e+00	0	43	0	440401920	60	4246
2026-01-26 04:50:15.56	20.06	20.49	-44.5	-45.6	21.4	0.00e+00	0	43	0	442499072	60	4139
2026-01-26 04:50:16.56	19.83	20.55	-44.4	-45.6	21.4	0.00e+00	0	43	0	444596224	60	4112
2026-01-26 04:50:17.57	19.60	20.60	-44.5	-45.7	21.4	0.00e+00	0	43	0	446693376	60	4154
2026-01-26 04:50:18.57	19.37	20.66	-44.6	-45.8	21.3	0.00e+00	0	43	0	448790528	60	4218
2026-01-26 04:50:19.58	19.13	20.72	-44.6	-45.8	21.2	0.00e+00	0	43	0	449839104	60	4214
2026-01-26 04:50:20.59	18.90	20.77	-44.7	-45.9	21.2	0.00e+00	0	43	0	451936256	60	4244
2026-01-26 04:50:21.60	18.66	20.83	-44.8	-46.0	21.1	0.00e+00	0	43	0	454033408	60	4298
2026-01-26 04:50:22.61	18.43	20.89	-44.6	-45.8	21.3	0.00e+00	0	43	0	456130560	60	4208
2026-01-26 04:50:23.61	18.19	20.94	-44.6	-45.8	21.3	0.00e+00	0	43	0	457179136	60	4214
2026-01-26 04:50:24.62	17.96	21.00	-44.8	-46.0	21.1	0.00e+00	0	43	0	459276288	60	4321
2026-01-26 04:50:25.63	17.72	21.05	-44.6	-45.8	21.3	0.00e+00	0	43	0	461373440	60	4201
2026-01-26 04:50:26.64	17.48	21.10	-44.6	-45.8	21.3	0.00e+00	0	43	0	463470592	60	4216
2026-01-26 04:50:27.64	17.24	21.16	-44.6	-45.8	21.3	0.00e+00	0	43	0	465567744	60	4219
2026-01-26 04:50:28.65	17.00	21.21	-44.4	-45.6	21.5	0.00e+00	0	43	0	467664896	60	4110
2026-01-26 04:50:29.66	16.76	21.26	-44.5	-45.6	21.4	0.00e+00	0	43	0	468713472	60	4144
2026-01-26 04:50:30.67	16.51	21.32	-44.5	-45.6	21.4	0.00e+00	0	43	0	470810624	60	4133
2026-01-26 04:50:31.67	16.27	21.37	-44.4	-45.5	21.6	0.00e+00	0	43	0	472907776	60	4080
2026-01-26 04:50:32.68	16.03	21.42	-44.2	-45.3	21.8	0.00e+00	0	43	0	475004928	60	3978
2026-01-26 04:50:33.68	15.79	21.47	-44.1	-45.2	21.9	0.00e+00	0	43	0	477102080	60	3919
2026-01-26 04:50:34.69	15.54	21.52	-44.1	-45.2	21.8	0.00e+00	0	43	0	478150656	60	3945
2026-01-26 04:50:35.69	15.30	21.57	-44.3	-45.4	22.0	0.00e+00	0	43	0	480247808	59	4271
2026-01-26 04:50:36.70	15.05	21.62	-44.5	-45.6	21.8	0.00e+00	0	43	0	482344960	59	4366
2026-01-26 04:50:37.71	14.80	21.67	-44.4	-45.6	21.8	0.00e+00	0	43	0	484442112	59	4346
2026-01-26 04:50:38.72	14.55	21.72	-44.5	-45.7	21.7	0.00e+00	0	43	0	485490688	59	4406
2026-01-26 04:50:39.72	14.30	21.76	-44.6	-45.7	21.7	0.00e+00	0	43	0	487587840	59	4430
2026-01-26 04:50:40.73	14.05	21.81	-44.3	-45.5	21.6	0.00e+00	0	43	0	489684992	60	4053
2026-01-26 04:50:41.74	13.80	21.86	-44.2	-45.3	21.7	0.00e+00	0	43	0	491782144	60	4004
2026-01-26 04:50:42.75	13.55	21.91	-44.3	-45.4	22.0	0.00e+00	0	43	0	493879296	59	4268
2026-01-26 04:50:43.75	13.30	21.95	-44.3	-45.4	22.0	0.00e+00	0	43	0	495976448	59	4265
2026-01-26 04:50:44.76	13.04	22.00	-44.4	-45.6	21.9	0.00e+00	0	43	0	497025024	59	4341
2026-01-26 04:50:45.76	12.79	22.04	-44.3	-45.4	21.9	0.00e+00	0	43	0	499122176	59	4291
2026-01-26 04:50:46.77	12.54	22.09	-44.2	-45.3	22.0	0.00e+00	0	43	0	501219328	59	4241
2026-01-26 04:50:47.78	12.28	22.13	-44.2	-45.3	22.1	0.00e+00	0	44	0	503316480	59	4196
2026-01-26 04:50:48.79	12.02	22.17	-44.0	-45.1	22.3	0.00e+00	0	43	0	505413632	59	4104
2026-01-26 04:50:49.80	11.77	22.22	-44.1	-45.2	22.2	0.00e+00	0	43	0	506462208	59	4172
2026-01-26 04:50:50.80	11.51	22.26	-44.2	-45.2	22.1	0.00e+00	0	43	0	508559360	59	4193
2026-01-26 04:50:51.81	11.25	22.30	-44.2	-45.3	22.1	0.00e+00	0	44	0	510656512	59	4216
2026-01-26 04:50:52.81	10.99	22.34	-44.2	-45.3	22.1	0.00e+00	0	43	0	512753664	59	4199
2026-01-26 04:50:53.82	10.73	22.38	-44.3	-45.4	22.0	0.00e+00	0	43	0	513802240	59	4283
2026-01-26 04:50:54.82	10.48	22.42	-44.4	-45.5	21.9	0.00e+00	0	43	0	515899392	59	4301
2026-01-26 04:50:55.83	10.21	22.46	-44.5	-45.6	21.8	0.00e+00	0	43	0	517996544	59	4360
2026-01-26 04:50:56.83	9.95	22.50	-44.6	-45.8	21.7	0.00e+00	0	43	0	520093696	59	4449
2026-01-26 04:50:57.84	9.69	22.54	-44.6	-45.7	21.7	0.00e+00	0	43	0	522190848	59	4433
2026-01-26 04:50:58.85	9.43	22.58	-44.6	-45.7	21.7	0.00e+00	0	43	0	524288000	59	4422
2026-01-26 04:50:59.86	9.16	22.61	-44.6	-45.7	21.7	0.00e+00	0	43	0	525336576	59	4405
2026-01-26 04:51:00.87	8.90	22.65	-44.5	-45.6	21.8	0.00e+00	0	43	0	527433728	59	4369
2026-01-26 04:51:01.87	8.64	22.69	-44.5	-45.6	21.8	0.00e+00	0	43	0	529530880	59	4346
2026-01-26 04:51:02.87	8.37	22.72	-44.7	-45.8	21.6	0.00e+00	0	43	0	531628032	59	4472
2026-01-26 04:51:03.88	8.11	22.76	-44.4	-45.5	21.6	0.00e+00	0	43	0	533725184	60	4089
2026-01-26 04:51:04.89	7.84	22.79	-44.6	-45.8	21.4	0.00e+00	0	43	0	534773760	60	4210
2026-01-26 04:51:05.89	7.57	22.82	-44.7	-45.9	21.2	0.00e+00	0	43	0	536870912	60	4280
2026-01-26 04:51:06.90	7.30	22.86	-44.9	-46.1	21.0	0.00e+00	0	43	0	538968064	60	4386
2026-01-26 04:51:07.91	7.04	22.89	-45.1	-46.3	20.8	0.00e+00	0	43	0	541065216	60	4479
2026-01-26 04:51:08.92	6.77	22.92	-45.2	-46.5	20.7	0.00e+00	0	43	0	542113792	60	4551
2026-01-26 04:51:09.92	6.50	22.95	-45.4	-46.7	20.5	0.00e+00	0	43	0	544210944	61	4399
2026-01-26 04:51:10.93	6.23	22.98	-45.3	-46.6	20.6	0.00e+00	0	43	0	546308096	61	4359
2026-01-26 04:51:11.94	5.96	23.01	-45.4	-46.7	20.5	0.00e+00	0	44	0	548405248	61	4417
2026-01-26 04:51:12.95	5.68	23.04	-45.3	-46.6	20.6	0.00e+00	0	43	0	550502400	61	4341
2026-01-26 04:51:13.96	5.41	23.07	-45.2	-46.5	20.7	0.00e+00	0	43	0	552599552	61	4308
2026-01-26 04:51:14.96	5.14	23.10	-45.3	-46.5	20.6	0.00e+00	0	43	0	553648128	61	4333
2026-01-26 04:51:15.97	4.87	23.12	-45.4	-46.7	20.5	0.00e+00	0	43	0	555745280	61	4398
2026-01-26 04:51:16.98	4.60	23.15	-45.5	-46.8	20.4	0.00e+00	0	43	0	557842432	61	4455
2026-01-26 04:51:17.99	4.32	23.18	-45.5	-46.8	20.3	0.00e+00	0	43	0	559939584	61	4492
2026-01-26 04:51:18.99	4.05	23.20	-45.6	-46.9	20.3	0.00e+00	0	43	0	562036736	61	4509
2026-01-26 04:51:20.00	3.77	23.23	-45.5	-46.8	20.4	0.00e+00	0	43	0	563085312	61	4478
2026-01-26 04:51:21.01	3.50	23.25	-45.5	-46.8	20.4	0.00e+00	0	43	0	565182464	61	4483
2026-01-26 04:51:22.02	3.22	23.27	-45.7	-47.0	20.2	0.00e+00	0	44	0	567279616	61	4591
2026-01-26 04:51:23.03	2.95	23.29	-45.8	-47.2	20.0	0.00e+00	0	44	0	569376768	62	4416
2026-01-26 04:51:24.03	2.67	23.32	-46.1	-47.5	19.8	0.00e+00	0	43	0	570425344	62	4574
2026-01-26 04:51:25.04	2.40	23.34	-46.2	-47.7	19.6	0.00e+00	0	43	0	572522496	62	4659
2026-01-26 04:51:26.05	2.12	23.36	-46.2	-47.6	19.6	0.00e+00	0	43	0	574619648	63	4391
2026-01-26 04:51:27.06	1.84	23.38	-46.2	-47.6	19.7	0.00e+00	0	43	0	576716800	63	4378
2026-01-26 04:51:28.07	1.56	23.39	-46.2	-47.6	19.6	0.00e+00	0	43	0	578813952	63	4382
2026-01-26 04:51:29.07	1.29	23.41	-46.2	-47.6	19.6	0.00e+00	0	43	0	580911104	63	4382
2026-01-26 04:51:30.08	1.01	23.43	-46.3	-47.7	19.5	0.00e+00	0	43	0	581959680	63	4438
2026-01-26 04:51:31.09	0.73	23.45	-46.3	-47.8	19.4	0.00e+00	0	44	0	584056832	63	4476
2026-01-26 04:51:32.09	0.45	23.46	-46.4	-47.9	19.4	0.00e+00	0	44	0	586153984	63	4509
2026-01-26 04:51:33.10	0.17	23.48	-46.2	-47.6	19.7	0.00e+00	0	44	0	588251136	63	4361
2026-01-26 04:51:34.11	359.89	23.49	-46.0	-47.5	19.8	0.00e+00	0	43	0	590348288	63	4293
2026-01-26 04:51:35.11	359.62	23.50	-45.9	-47.2	20.0	0.00e+00	0	43	0	591396864	63	4191
2026-01-26 04:51:36.12	359.34	23.52	-45.8	-47.2	20.1	0.00e+00	0	43	0	593494016	63	4155
2026-01-26 04:51:37.12	359.06	23.53	-45.9	-47.2	20.0	0.00e+00	0	43	0	595591168	63	4185
2026-01-26 04:51:38.13	358.78	23.54	-46.0	-47.4	19.9	0.00e+00	0	43	0	597688320	63	4259
2026-01-26 04:51:39.14	358.50	23.55	-46.1	-47.5	19.8	0.00e+00	0	43	0	599785472	63	4322
2026-01-26 04:51:40.14	358.22	23.56	-46.1	-47.5	19.8	0.00e+00	0	44	0	600834048	63	4308
2026-01-26 04:51:41.15	357.94	23.57	-45.9	-47.3	19.9	0.00e+00	0	43	0	602931200	63	4223
2026-01-26 04:51:42.15	357.66	23.58	-45.9	-47.2	20.0	0.00e+00	0	43	0	605028352	63	4191
2026-01-26 04:51:43.16	357.38	23.59	-45.8	-47.2	20.1	0.00e+00	0	43	0	607125504	63	4154
2026-01-26 04:51:44.17	357.09	23.59	-45.9	-47.3	20.0	0.00e+00	0	43	0	609222656	63	4210
2026-01-26 04:51:45.18	356.81	23.60	-45.9	-47.3	20.0	0.00e+00	0	43	0	610271232	63	4199
2026-01-26 04:51:46.18	356.53	23.61	-46.0	-47.4	19.9	0.00e+00	0	44	0	612368384	63	4259
2026-01-26 04:51:47.19	356.25	23.61	-46.1	-47.5	19.8	0.00e+00	0	43	0	614465536	63	4322
2026-01-26 04:51:48.20	355.97	23.61	-45.7	-47.1	20.2	0.00e+00	0	43	0	616562688	63	4110
2026-01-26 04:51:49.21	355.69	23.62	-45.6	-46.9	20.3	0.00e+00	0	43	0	618659840	63	4044
2026-01-26 04:51:50.20	355.41	23.62	-45.6	-46.9	20.3	0.00e+00	0	43	0	619708416	63	4023
2026-01-26 04:51:51.21	355.13	23.62	-45.8	-47.1	20.1	0.00e+00	0	43	0	621805568	63	4145
2026-01-26 04:51:52.22	354.84	23.62	-45.9	-47.2	20.0	0.00e+00	0	43	0	623902720	63	4188
2026-01-26 04:51:53.23	354.56	23.62	-45.9	-47.3	19.9	0.00e+00	0	43	0	625999872	63	4229
2026-01-26 04:51:54.23	354.28	23.62	-45.9	-47.2	20.0	0.00e+00	0	44	0	627048448	63	4180
2026-01-26 04:51:55.24	354.00	23.62	-45.8	-47.2	20.1	0.00e+00	0	44	0	629145600	63	4174
2026-01-26 04:51:56.25	353.72	23.62	-45.9	-47.2	20.0	0.00e+00	0	43	0	631242752	63	4178
2026-01-26 04:51:57.26	353.44	23.62	-45.6	-46.9	20.3	0.00e+00	0	43	0	633339904	63	4027
2026-01-26 04:51:58.26	353.16	23.61	-45.3	-46.5	20.7	0.00e+00	0	43	0	635437056	62	4081
2026-01-26 04:51:59.27	352.87	23.61	-45.1	-46.4	20.9	0.00e+00	0	43	0	637534208	62	4005
2026-01-26 04:52:00.27	352.59	23.60	-45.2	-46.5	20.7	0.00e+00	0	43	0	638582784	62	4060
2026-01-26 04:52:01.28	352.31	23.60	-45.2	-46.5	20.8	0.00e+00	0	43	0	640679936	62	4055
2026-01-26 04:52:02.29	352.03	23.59	-45.1	-46.4	20.8	0.00e+00	0	44	0	642777088	62	4009
2026-01-26 04:52:03.30	351.75	23.58	-45.0	-46.3	21.0	0.00e+00	0	43	0	644874240	62	3969
2026-01-26 04:52:04.31	351.47	23.58	-44.9	-46.1	21.1	0.00e+00	0	43	0	646971392	61	4138
2026-01-26 04:52:05.31	351.19	23.57	-44.9	-46.1	21.1	0.00e+00	0	43	0	648019968	61	4135
2026-01-26 04:52:06.32	350.91	23.56	-44.7	-45.9	21.2	0.00e+00	0	43	0	650117120	61	4044
2026-01-26 04:52:07.33	350.63	23.55	-44.7	-45.9	21.3	0.00e+00	0	43	0	652214272	61	4005
2026-01-26 04:52:08.33	350.35	23.54	-44.6	-45.7	21.4	0.00e+00	0	43	0	654311424	61	3946
2026-01-26 04:52:09.34	350.07	23.53	-44.5	-45.7	21.5	0.00e+00	0	43	0	656408576	61	3931
2026-01-26 04:52:10.35	349.79	23.51	-44.6	-45.8	21.4	0.00e+00	0	43	0	657457152	61	3961
2026-01-26 04:52:11.36	349.51	23.50	-44.6	-45.8	21.4	0.00e+00	0	44	0	659554304	61	3967
2026-01-26 04:52:12.37	349.23	23.49	-44.3	-45.5	21.7	0.00e+00	0	43	0	661651456	60	4055
2026-01-26 04:52:13.37	348.95	23.47	-44.3	-45.4	21.7	0.00e+00	0	43	0	663748608	60	4040
2026-01-26 04:52:14.37	348.67	23.46	-44.0	-45.1	22.0	0.00e+00	0	43	0	665845760	60	3898
2026-01-26 04:52:15.38	348.39	23.44	-44.5	-45.6	21.9	0.00e+00	0	43	0	666894336	59	4382
2026-01-26 04:52:16.39	348.12	23.42	-44.4	-45.5	22.0	0.00e+00	0	43	0	668991488	59	4312
2026-01-26 04:52:17.39	347.84	23.41	-44.1	-45.2	22.2	0.00e+00	0	44	0	671088640	59	4160
2026-01-26 04:52:18.39	347.56	23.39	-44.0	-45.1	22.3	0.00e+00	0	43	0	673185792	59	4130
2026-01-26 04:52:19.40	347.29	23.37	-44.0	-45.1	22.2	0.00e+00	0	43	0	675282944	59	4127
2026-01-26 04:52:20.40	347.01	23.35	-44.0	-45.1	22.3	0.00e+00	0	43	0	676331520	59	4112
2026-01-26 04:52:21.41	346.73	23.33	-44.0	-45.1	22.3	0.00e+00	0	43	0	678428672	59	4122
2026-01-26 04:52:22.42	346.46	23.31	-43.9	-45.0	22.4	0.00e+00	0	43	0	680525824	59	4082
2026-01-26 04:52:23.43	346.18	23.29	-44.0	-45.1	22.3	0.00e+00	0	43	0	682622976	59	4117
2026-01-26 04:52:24.43	345.91	23.26	-44.1	-45.1	22.3	0.00e+00	0	43	0	683671552	59	4133
2026-01-26 04:52:25.44	345.63	23.24	-43.9	-45.0	22.5	0.00e+00	0	43	0	685768704	59	4057
2026-01-26 04:52:26.45	345.36	23.22	-43.7	-44.7	22.7	0.00e+00	0	43	0	687865856	59	3931
2026-01-26 04:52:27.45	345.08	23.19	-43.5	-44.5	22.9	0.00e+00	0	43	0	689963008	59	3858
2026-01-26 04:52:28.46	344.81	23.17	-43.6	-44.6	22.7	0.00e+00	0	43	0	692060160	59	3908
2026-01-26 04:52:29.47	344.53	23.14	-43.7	-44.8	22.6	0.00e+00	0	43	0	694157312	59	3972
2026-01-26 04:52:30.47	344.26	23.12	-43.9	-44.9	22.5	0.00e+00	0	43	0	695205888	59	4049
2026-01-26 04:52:31.47	343.99	23.09	-43.9	-45.0	22.4	0.00e+00	0	43	0	697303040	59	4076
2026-01-26 04:52:32.48	343.72	23.06	-44.0	-45.1	22.3	0.00e+00	0	43	0	699400192	59	4108
2026-01-26 04:52:33.49	343.45	23.03	-44.2	-45.3	22.1	0.00e+00	0	43	0	701497344	59	4210
2026-01-26 04:52:34.50	343.18	23.00	-44.2	-45.3	22.2	0.00e+00	0	43	0	703594496	59	4205
2026-01-26 04:52:35.51	342.91	22.97	-44.1	-45.2	22.2	0.00e+00	0	43	0	704643072	59	4175
2026-01-26 04:52:36.52	342.64	22.94	-44.2	-45.3	22.1	0.00e+00	0	43	0	706740224	59	4209
2026-01-26 04:52:37.53	342.37	22.91	-44.1	-45.2	22.2	0.00e+00	0	43	0	708837376	59	4161
2026-01-26 04:52:38.53	342.10	22.88	-44.0	-45.1	22.3	0.00e+00	0	43	0	710934528	59	4123
2026-01-26 04:52:39.53	341.83	22.85	-44.2	-45.3	22.1	0.00e+00	0	43	0	711983104	59	4219
2026-01-26 04:52:40.53	341.57	22.81	-44.3	-45.4	22.0	0.00e+00	0	43	0	714080256	59	4282
2026-01-26 04:52:41.54	341.30	22.78	-44.4	-45.6	21.9	0.00e+00	0	44	0	716177408	59	4345
2026-01-26 04:52:42.55	341.03	22.75	-44.5	-45.7	21.8	0.00e+00	0	43	0	718274560	59	4397
2026-01-26 04:52:43.55	340.77	22.71	-44.6	-45.8	21.7	0.00e+00	0	43	0	720371712	59	4443
2026-01-26 04:52:44.56	340.50	22.68	-44.4	-45.5	21.7	0.00e+00	0	43	0	722468864	60	4064
2026-01-26 04:52:45.57	340.24	22.64	-44.5	-45.6	21.5	0.00e+00	0	43	0	723517440	60	4125
2026-01-26 04:52:46.57	339.97	22.60	-44.6	-45.8	21.4	0.00e+00	0	43	0	725614592	60	4214
2026-01-26 04:52:47.58	339.71	22.57	-44.6	-45.7	21.4	0.00e+00	0	43	0	727711744	60	4175
2026-01-26 04:52:48.59	339.45	22.53	-44.7	-45.8	21.3	0.00e+00	0	43	0	729808896	60	4241
2026-01-26 04:52:49.60	339.18	22.49	-44.6	-45.8	21.4	0.00e+00	0	43	0	731906048	60	4218
2026-01-26 04:52:50.60	338.93	22.45	-44.7	-45.9	21.2	0.00e+00	0	43	0	732954624	60	4276
2026-01-26 04:52:51.61	338.66	22.41	-44.8	-45.9	21.2	0.00e+00	0	43	0	735051776	60	4287
2026-01-26 04:52:52.61	338.41	22.37	-44.7	-45.9	21.3	0.00e+00	0	43	0	737148928	60	4263
2026-01-26 04:52:53.62	338.15	22.33	-44.8	-46.0	21.2	0.00e+00	0	43	0	739246080	60	4296
2026-01-26 04:52:54.63	337.89	22.29	-44.9	-46.1	21.0	0.00e+00	0	43	0	740294656	60	4361
2026-01-26 04:52:55.63	337.63	22.25	-44.9	-46.1	21.0	0.00e+00	0	43	0	742391808	60	4386
2026-01-26 04:52:56.63	337.37	22.20	-45.2	-46.4	20.8	0.00e+00	0	43	0	744488960	60	4513
2026-01-26 04:52:57.64	337.12	22.16	-45.2	-46.4	20.8	0.00e+00	0	43	0	746586112	60	4541
2026-01-26 04:52:58.65	336.86	22.12	-45.3	-46.6	20.6	0.00e+00	0	43	0	748683264	61	4351
2026-01-26 04:52:59.65	336.61	22.07	-45.3	-46.6	20.6	0.00e+00	0	43	0	750780416	61	4378
2026-01-26 04:53:00.66	336.35	22.03	-45.4	-46.6	20.5	0.00e+00	0	43	0	751828992	61	4390
2026-01-26 04:53:01.67	336.10	21.98	-45.3	-46.6	20.6	0.00e+00	0	44	0	753926144	61	4345
2026-01-26 04:53:02.67	335.85	21.94	-45.4	-46.6	20.6	0.00e+00	0	43	0	756023296	61	4383
2026-01-26 04:53:03.68	335.59	21.89	-45.3	-46.6	20.6	0.00e+00	0	43	0	758120448	61	4358
2026-01-26 04:53:04.69	335.34	21.85	-45.4	-46.7	20.5	0.00e+00	0	44	0	760217600	61	4395
2026-01-26 04:53:05.69	335.09	21.80	-45.3	-46.6	20.6	0.00e+00	0	43	0	761266176	61	4341
2026-01-26 04:53:06.70	334.84	21.75	-45.3	-46.6	20.6	0.00e+00	0	43	0	763363328	61	4354
2026-01-26 04:53:07.71	334.59	21.70	-45.3	-46.6	20.6	0.00e+00	0	44	0	765460480	61	4361
2026-01-26 04:53:08.72	334.34	21.65	-45.5	-46.8	20.4	0.00e+00	0	43	0	767557632	61	4479
2026-01-26 04:53:09.72	334.10	21.61	-45.5	-46.8	20.3	0.00e+00	0	43	0	768606208	61	4489
2026-01-26 04:53:10.73	333.85	21.56	-45.6	-47.0	20.2	0.00e+00	0	43	0	770703360	61	4552
2026-01-26 04:53:11.74	333.60	21.51	-45.7	-47.0	20.2	0.00e+00	0	43	0	772800512	61	4598
2026-01-26 04:53:12.74	333.36	21.45	-45.8	-47.2	20.1	0.00e+00	0	43	0	774897664	62	4393
2026-01-26 04:53:13.75	333.12	21.40	-45.9	-47.3	20.0	0.00e+00	0	43	0	776994816	62	4443
2026-01-26 04:53:14.76	332.87	21.35	-45.8	-47.2	20.0	0.00e+00	0	43	0	779091968	62	4430
2026-01-26 04:53:15.77	332.63	21.30	-45.9	-47.3	19.9	0.00e+00	0	43	0	780140544	62	4447
2026-01-26 04:53:16.77	332.39	21.25	-45.8	-47.2	20.0	0.00e+00	0	43	0	782237696	62	4413
2026-01-26 04:53:17.78	332.15	21.20	-46.0	-47.4	19.7	0.00e+00	0	43	0	784334848	62	4534
2026-01-26 04:53:18.78	331.91	21.14	-45.6	-46.9	20.2	0.00e+00	0	43	0	786432000	62	4278
2026-01-26 04:53:19.79	331.67	21.09	-45.6	-47.0	20.2	0.00e+00	0	43	0	788529152	62	4299
2026-01-26 04:53:20.80	331.43	21.03	-45.8	-47.2	20.1	0.00e+00	0	44	0	789577728	62	4395
2026-01-26 04:53:21.80	331.19	20.98	-45.9	-47.3	19.9	0.00e+00	0	43	0	791674880	62	4475
2026-01-26 04:53:22.81	330.96	20.93	-46.0	-47.4	19.8	0.00e+00	0	43	0	793772032	62	4543
2026-01-26 04:53:23.81	330.72	20.87	-45.9	-47.3	19.9	0.00e+00	0	43	0	795869184	62	4455
2026-01-26 04:53:24.82	330.49	20.81	-45.7	-47.1	20.1	0.00e+00	0	44	0	796917760	62	4360
2026-01-26 04:53:25.83	330.25	20.76	-45.7	-47.1	20.1	0.00e+00	0	43	0	799014912	62	4355
2026-01-26 04:53:26.83	330.02	20.70	-45.7	-47.1	20.1	0.00e+00	0	44	0	801112064	62	4350
2026-01-26 04:53:27.84	329.79	20.65	-45.6	-46.9	20.3	0.00e+00	0	43	0	803209216	62	4270
2026-01-26 04:53:28.84	329.56	20.59	-45.7	-47.0	20.2	0.00e+00	0	43	0	805306368	62	4307
2026-01-26 04:53:29.85	329.32	20.53	-45.6	-47.0	20.2	0.00e+00	0	43	0	807403520	62	4314
2026-01-26 04:53:30.85	329.10	20.47	-45.7	-47.0	20.1	0.00e+00	0	43	0	808452096	62	4336
2026-01-26 04:53:31.86	328.87	20.42	-45.6	-46.9	20.3	0.00e+00	0	43	0	810549248	62	4285
2026-01-26 04:53:32.87	328.64	20.36	-45.7	-47.0	20.1	0.00e+00	0	43	0	812646400	62	4328
2026-01-26 04:53:33.88	328.41	20.30	-45.5	-46.8	20.4	0.00e+00	0	44	0	814743552	62	4213
2026-01-26 04:53:34.89	328.18	20.24	-45.6	-46.9	20.2	0.00e+00	0	43	0	816840704	62	4277
2026-01-26 04:53:35.89	327.96	20.18	-45.6	-46.9	20.3	0.00e+00	0	43	0	817889280	62	4258
2026-01-26 04:53:36.90	327.73	20.12	-45.7	-47.0	20.2	0.00e+00	0	43	0	819986432	62	4312
2026-01-26 04:53:37.91	327.51	20.06	-45.5	-46.8	20.3	0.00e+00	0	44	0	822083584	62	4238
2026-01-26 04:53:38.92	327.29	20.00	-45.4	-46.7	20.4	0.00e+00	0	43	0	824180736	62	4186
2026-01-26 04:53:39.93	327.06	19.94	-45.3	-46.6	20.5	0.00e+00	0	43	0	825229312	62	4137
2026-01-26 04:53:40.93	326.84	19.88	-45.5	-46.8	20.4	0.00e+00	0	44	0	827326464	62	4201
2026-01-26 04:53:41.94	326.62	19.81	-45.4	-46.7	20.4	0.00e+00	0	43	0	829423616	62	4193
2026-01-26 04:53:42.94	326.40	19.75	-45.3	-46.6	20.5	0.00e+00	0	43	0	831520768	62	4110
2026-01-26 04:53:43.95	326.19	19.69	-45.3	-46.6	20.6	0.00e+00	0	43	0	833617920	62	4120
2026-01-26 04:53:44.96	325.97	19.63	-45.2	-46.5	20.6	0.00e+00	0	43	0	835715072	62	4067
2026-01-26 04:53:45.96	325.75	19.57	-45.3	-46.6	20.6	0.00e+00	0	44	0	836763648	62	4110
2026-01-26 04:53:46.97	325.54	19.50	-45.3	-46.5	20.6	0.00e+00	0	44	0	838860800	62	4084
2026-01-26 04:53:47.98	325.32	19.44	-45.2	-46.5	20.6	0.00e+00	0	43	0	840957952	62	4084
2026-01-26 04:53:48.98	325.11	19.38	-45.3	-46.5	20.6	0.00e+00	0	43	0	843055104	62	4090
2026-01-26 04:53:49.99	324.89	19.31	-45.4	-46.7	20.5	0.00e+00	0	43	0	845152256	62	4166
2026-01-26 04:53:51.00	324.68	19.25	-45.3	-46.6	20.5	0.00e+00	0	43	0	846200832	62	4140
2026-01-26 04:53:52.00	324.47	19.19	-45.3	-46.6	20.5	0.00e+00	0	43	0	848297984	62	4139
2026-01-26 04:53:53.00	324.26	19.12	-45.4	-46.6	20.5	0.00e+00	0	43	0	850395136	62	4139
2026-01-26 04:53:54.01	324.05	19.06	-45.3	-46.6	20.5	0.00e+00	0	44	0	852492288	62	4134
2026-01-26 04:53:55.02	323.84	18.99	-45.3	-46.6	20.5	0.00e+00	0	44	0	853540864	62	4106
2026-01-26 04:53:56.03	323.64	18.93	-45.2	-46.5	20.7	0.00e+00	0	43	0	855638016	62	4058
2026-01-26 04:53:57.04	323.43	18.86	-45.3	-46.5	20.6	0.00e+00	0	44	0	857735168	62	4091
2026-01-26 04:53:58.04	323.22	18.80	-45.2	-46.5	20.6	0.00e+00	0	43	0	859832320	62	4083
2026-01-26 04:53:59.05	323.02	18.73	-45.4	-46.7	20.4	0.00e+00	0	43	0	861929472	62	4193
2026-01-26 04:54:00.06	322.81	18.66	-45.4	-46.7	20.4	0.00e+00	0	44	0	864026624	62	4172
2026-01-26 04:54:01.06	322.61	18.60	-45.5	-46.8	20.3	0.00e+00	0	44	0	865075200	62	4210
2026-01-26 04:54:02.07	322.41	18.53	-45.4	-46.8	20.4	0.00e+00	0	43	0	867172352	62	4200
2026-01-26 04:54:03.07	322.21	18.47	-45.5	-46.8	20.3	0.00e+00	0	43	0	869269504	62	4233
2026-01-26 04:54:04.08	322.01	18.40	-45.5	-46.9	20.2	0.00e+00	0	43	0	871366656	62	4248
2026-01-26 04:54:05.08	321.81	18.33	-45.6	-46.9	20.2	0.00e+00	0	43	0	873463808	62	4266
2026-01-26 04:54:06.09	321.61	18.27	-45.6	-46.9	20.2	0.00e+00	0	43	0	874512384	62	4264
2026-01-26 04:54:07.10	321.41	18.20	-45.5	-46.9	20.2	0.00e+00	0	43	0	876609536	62	4253
2026-01-26 04:54:08.11	321.22	18.13	-45.6	-47.0	20.1	0.00e+00	0	43	0	878706688	62	4319
2026-01-26 04:54:09.11	321.02	18.06	-45.6	-46.9	20.2	0.00e+00	0	43	0	880803840	62	4264
2026-01-26 04:54:10.12	320.83	18.00	-45.5	-46.9	20.2	0.00e+00	0	43	0	881852416	62	4249
2026-01-26 04:54:11.13	320.63	17.93	-45.5	-46.8	20.3	0.00e+00	0	43	0	883949568	62	4234
2026-01-26 04:54:12.13	320.44	17.86	-45.5	-46.8	20.3	0.00e+00	0	43	0	886046720	62	4229
2026-01-26 04:54:13.14	320.25	17.79	-45.6	-46.9	20.2	0.00e+00	0	43	0	888143872	62	4280
2026-01-26 04:54:14.15	320.05	17.72	-45.5	-46.8	20.2	0.00e+00	0	43	0	890241024	62	4236
2026-01-26 04:54:15.15	319.86	17.66	-45.6	-46.9	20.2	0.00e+00	0	44	0	892338176	62	4275
2026-01-26 04:54:16.16	319.67	17.59	-45.6	-46.9	20.2	0.00e+00	0	43	0	893386752	62	4265
2026-01-26 04:54:17.16	319.49	17.52	-45.6	-46.9	20.2	0.00e+00	0	43	0	895483904	62	4276
2026-01-26 04:54:18.17	319.30	17.45	-45.5	-46.9	20.2	0.00e+00	0	43	0	897581056	62	4254
2026-01-26 04:54:19.17	319.11	17.38	-45.4	-46.7	20.3	0.00e+00	0	43	0	899678208	62	4189
2026-01-26 04:54:20.18	318.92	17.31	-45.4	-46.7	20.3	0.00e+00	0	43	0	901775360	62	4184
2026-01-26 04:54:21.18	318.74	17.24	-45.4	-46.7	20.4	0.00e+00	0	43	0	902823936	62	4177
2026-01-26 04:54:22.19	318.55	17.17	-45.4	-46.7	20.4	0.00e+00	0	43	0	904921088	62	4192
2026-01-26 04:54:23.20	318.37	17.10	-45.4	-46.8	20.3	0.00e+00	0	43	0	907018240	62	4197
2026-01-26 04:54:24.21	318.19	17.03	-45.4	-46.7	20.3	0.00e+00	0	43	0	909115392	62	4188
2026-01-26 04:54:25.22	318.00	16.96	-45.3	-46.6	20.5	0.00e+00	0	44	0	910163968	62	4121
2026-01-26 04:54:26.23	317.82	16.89	-45.3	-46.5	20.5	0.00e+00	0	43	0	912261120	62	4097
2026-01-26 04:54:27.23	317.64	16.82	-45.3	-46.6	20.5	0.00e+00	0	44	0	914358272	62	4132
2026-01-26 04:54:28.23	317.46	16.76	-45.3	-46.6	20.4	0.00e+00	0	43	0	916455424	62	4130
2026-01-26 04:54:29.24	317.29	16.68	-45.1	-46.4	20.7	0.00e+00	0	43	0	918552576	62	4020
2026-01-26 04:54:30.25	317.11	16.61	-44.9	-46.2	20.8	0.00e+00	0	43	0	920649728	61	4163
2026-01-26 04:54:31.25	316.93	16.54	-44.8	-46.0	21.0	0.00e+00	0	43	0	921698304	61	4073
2026-01-26 04:54:32.26	316.75	16.47	-44.8	-46.0	21.0	0.00e+00	0	43	0	923795456	61	4093
2026-01-26 04:54:33.27	316.58	16.40	-44.8	-46.0	21.0	0.00e+00	0	43	0	925892608	61	4081
2026-01-26 04:54:34.27	316.41	16.33	-44.9	-46.1	20.9	0.00e+00	0	43	0	927989760	61	4135
2026-01-26 04:54:35.28	316.23	16.26	-44.9	-46.1	20.9	0.00e+00	0	43	0	930086912	61	4143
2026-01-26 04:54:36.28	316.06	16.19	-44.9	-46.2	20.8	0.00e+00	0	43	0	931135488	61	4155
2026-01-26 04:54:37.29	315.89	16.12	-44.9	-46.1	20.9	0.00e+00	0	44	0	933232640	61	4135
2026-01-26 04:54:38.29	315.72	16.05	-44.9	-46.2	20.8	0.00e+00	0	43	0	935329792	61	4155
2026-01-26 04:54:39.30	315.55	15.98	-45.0	-46.2	20.8	0.00e+00	0	43	0	937426944	61	4181
2026-01-26 04:54:40.31	315.38	15.91	-44.9	-46.2	20.8	0.00e+00	0	44	0	938475520	61	4162
2026-01-26 04:54:41.32	315.21	15.84	-44.9	-46.1	20.8	0.00e+00	0	43	0	940572672	61	4143
2026-01-26 04:54:42.32	315.04	15.77	-44.9	-46.1	20.8	0.00e+00	0	44	0	942669824	61	4141
2026-01-26 04:54:43.33	314.87	15.70	-44.8	-46.0	21.0	0.00e+00	0	43	0	944766976	61	4073
2026-01-26 04:54:44.33	314.71	15.63	-44.6	-45.8	21.1	0.00e+00	0	44	0	946864128	61	3999
2026-01-26 04:54:45.34	314.54	15.56	-44.6	-45.8	21.1	0.00e+00	0	43	0	948961280	61	3996
2026-01-26 04:54:46.35	314.38	15.48	-44.6	-45.8	21.2	0.00e+00	0	44	0	950009856	61	3971
2026-01-26 04:54:47.35	314.21	15.41	-44.5	-45.6	21.3	0.00e+00	0	43	0	952107008	60	4134
2026-01-26 04:54:48.35	314.05	15.34	-44.6	-45.8	21.2	0.00e+00	0	43	0	954204160	60	4224
2026-01-26 04:54:49.36	313.89	15.27	-44.7	-45.9	21.1	0.00e+00	0	43	0	956301312	60	4263
2026-01-26 04:54:50.37	313.73	15.20	-44.6	-45.8	21.2	0.00e+00	0	44	0	958398464	60	4216
2026-01-26 04:54:51.37	313.57	15.13	-44.7	-45.9	21.1	0.00e+00	0	43	0	959447040	60	4266
2026-01-26 04:54:52.38	313.41	15.06	-44.6	-45.8	21.1	0.00e+00	0	43	0	961544192	60	4236
2026-01-26 04:54:53.39	313.25	14.99	-44.7	-45.9	21.0	0.00e+00	0	43	0	963641344	60	4271
2026-01-26 04:54:54.39	313.09	14.92	-44.6	-45.8	21.1	0.00e+00	0	43	0	965738496	60	4235
2026-01-26 04:54:55.40	312.93	14.85	-44.6	-45.8	21.2	0.00e+00	0	43	0	966787072	60	4209
2026-01-26 04:54:56.40	312.77	14.77	-44.6	-45.8	21.1	0.00e+00	0	43	0	968884224	60	4242
2026-01-26 04:54:57.40	312.62	14.70	-44.6	-45.8	21.1	0.00e+00	0	43	0	970981376	60	4238
2026-01-26 04:54:58.41	312.46	14.63	-44.5	-45.7	21.2	0.00e+00	0	43	0	973078528	60	4173
2026-01-26 04:54:59.41	312.31	14.56	-44.5	-45.7	21.2	0.00e+00	0	43	0	975175680	60	4171
2026-01-26 04:55:00.42	312.16	14.49	-44.6	-45.8	21.2	0.00e+00	0	43	0	976224256	60	4202
2026-01-26 04:55:01.43	312.00	14.42	-44.6	-45.8	21.1	0.00e+00	0	43	0	978321408	60	4224
2026-01-26 04:55:02.43	311.85	14.35	-44.6	-45.8	21.1	0.00e+00	0	43	0	980418560	60	4202
2026-01-26 04:55:03.43	311.70	14.28	-44.7	-45.9	21.0	0.00e+00	0	44	0	982515712	60	4269
2026-01-26 04:55:04.44	311.55	14.21	-44.6	-45.9	21.1	0.00e+00	0	44	0	984612864	60	4245
2026-01-26 04:55:05.45	311.40	14.13	-44.7	-45.9	21.0	0.00e+00	0	44	0	986710016	60	4280
2026-01-26 04:55:06.45	311.25	14.06	-44.8	-46.1	20.9	0.00e+00	0	43	0	987758592	60	4354
2026-01-26 04:55:07.45	311.10	13.99	-44.9	-46.1	20.8	0.00e+00	0	43	0	989855744	60	4385
2026-01-26 04:55:08.46	310.95	13.92	-44.9	-46.1	20.7	0.00e+00	0	44	0	991952896	60	4391
2026-01-26 04:55:09.46	310.81	13.85	-44.9	-46.2	20.8	0.00e+00	0	43	0	994050048	60	4404
2026-01-26 04:55:10.46	310.66	13.78	-44.9	-46.1	20.8	0.00e+00	0	43	0	995098624	60	4382
2026-01-26 04:55:11.47	310.51	13.71	-44.9	-46.2	20.7	0.00e+00	0	43	0	997195776	60	4420
2026-01-26 04:55:12.48	310.37	13.64	-45.0	-46.3	20.6	0.00e+00	0	43	0	999292928	60	4450
2026-01-26 04:55:13.49	310.22	13.57	-45.1	-46.4	20.5	0.00e+00	0	44	0	1001390080	60	4520
2026-01-26 04:55:14.49	310.08	13.49	-45.1	-46.4	20.5	0.00e+00	0	43	0	1003487232	60	4533
2026-01-26 04:55:15.50	309.94	13.42	-45.2	-46.6	20.3	0.00e+00	0	44	0	1004535808	61	4342
2026-01-26 04:55:16.50	309.80	13.35	-45.2	-46.5	20.4	0.00e+00	0	44	0	1006632960	61	4323
2026-01-26 04:55:17.51	309.65	13.28	-45.4	-46.7	20.2	0.00e+00	0	43	0	1008730112	61	4431
2026-01-26 04:55:18.52	309.51	13.21	-45.3	-46.6	20.3	0.00e+00	0	43	0	1010827264	61	4391
2026-01-26 04:55:19.53	309.37	13.14	-45.4	-46.8	20.1	0.00e+00	0	43	0	1012924416	61	4450
2026-01-26 04:55:20.54	309.23	13.07	-45.5	-46.9	20.0	0.00e+00	0	44	0	1015021568	61	4525
2026-01-26 04:55:21.54	309.09	13.00	-45.5	-46.8	20.1	0.00e+00	0	43	0	1016070144	61	4475
2026-01-26 04:55:22.55	308.96	12.93	-45.4	-46.8	20.1	0.00e+00	0	43	0	1018167296	61	4450
2026-01-26 04:55:23.56	308.82	12.86	-45.2	-46.6	20.3	0.00e+00	0	43	0	1020264448	61	4346
2026-01-26 04:55:24.56	308.68	12.79	-45.3	-46.6	20.2	0.00e+00	0	44	0	1022361600	61	4388
2026-01-26 04:55:25.57	308.54	12.71	-45.3	-46.7	20.2	0.00e+00	0	43	0	1023410176	61	4402
2026-01-26 04:55:26.58	308.41	12.64	-45.1	-46.4	20.4	0.00e+00	0	43	0	1025507328	61	4277
2026-01-26 04:55:27.58	308.27	12.57	-45.2	-46.5	20.4	0.00e+00	0	43	0	1027604480	61	4314
2026-01-26 04:55:28.59	308.14	12.50	-45.2	-46.5	20.3	0.00e+00	0	44	0	1029701632	61	4335
2026-01-26 04:55:29.59	308.01	12.43	-45.2	-46.5	20.4	0.00e+00	0	44	0	1031798784	61	4318
2026-01-26 04:55:30.60	307.87	12.36	-45.4	-46.7	20.2	0.00e+00	0	43	0	1032847360	61	4429
2026-01-26 04:55:31.60	307.74	12.29	-45.5	-46.9	20.0	0.00e+00	0	43	0	1034944512	61	4538
2026-01-26 04:55:32.61	307.61	12.22	-45.6	-47.0	19.9	0.00e+00	0	44	0	1037041664	61	4598
2026-01-26 04:55:33.62	307.48	12.15	-45.6	-47.1	19.8	0.00e+00	0	43	0	1039138816	61	4602
2026-01-26 04:55:34.63	307.35	12.08	-45.6	-47.1	19.8	0.00e+00	0	43	0	1041235968	61	4599
2026-01-26 04:55:35.63	307.22	12.01	-45.7	-47.1	19.8	0.00e+00	0	44	0	1042284544	62	4370
2026-01-26 04:55:36.64	307.09	11.94	-45.7	-47.1	19.8	0.00e+00	0	43	0	1044381696	62	4363
2026-01-26 04:55:37.64	306.96	11.87	-45.7	-47.1	19.7	0.00e+00	0	43	0	1046478848	62	4390
2026-01-26 04:55:38.65	306.83	11.80	-45.7	-47.2	19.7	0.00e+00	0	43	0	1048576000	62	4400
2026-01-26 04:55:39.65	306.71	11.73	-45.8	-47.2	19.6	0.00e+00	0	43	0	1050673152	62	4438
2026-01-26 04:55:40.66	306.58	11.66	-45.7	-47.1	19.7	0.00e+00	0	43	0	1051721728	62	4389
2026-01-26 04:55:41.67	306.45	11.59	-45.7	-47.1	19.7	0.00e+00	0	44	0	1053818880	62	4368
2026-01-26 04:55:42.67	306.33	11.52	-45.8	-47.3	19.6	0.00e+00	0	43	0	1055916032	62	4466
2026-01-26 04:55:43.68	306.21	11.45	-45.8	-47.3	19.6	0.00e+00	0	43	0	1058013184	62	4460
2026-01-26 04:55:44.69	306.08	11.38	-45.9	-47.4	19.5	0.00e+00	0	43	0	1060110336	62	4509
2026-01-26 04:55:45.69	305.96	11.31	-46.0	-47.5	19.4	0.00e+00	0	43	0	1061158912	62	4561
2026-01-26 04:55:46.70	305.83	11.24	-45.8	-47.3	19.6	0.00e+00	0	43	0	1063256064	62	4462
2026-01-26 04:55:47.71	305.71	11.17	-46.0	-47.5	19.3	0.00e+00	0	43	0	1065353216	62	4582
2026-01-26 04:55:48.72	305.59	11.10	-45.9	-47.4	19.5	0.00e+00	0	43	0	1067450368	62	4501
2026-01-26 04:55:49.73	305.47	11.03	-46.0	-47.5	19.3	0.00e+00	0	43	0	1069547520	62	4575
2026-01-26 04:55:50.73	305.35	10.96	-46.0	-47.5	19.3	0.00e+00	0	43	0	1070596096	62	4596
2026-01-26 04:55:51.74	305.23	10.90	-45.9	-47.4	19.4	0.00e+00	0	43	0	1072693248	62	4520
2026-01-26 04:55:52.74	305.11	10.83	-46.0	-47.5	19.3	0.00e+00	0	44	0	1074790400	62	4595
2026-01-26 04:55:53.75	304.99	10.76	-46.0	-47.5	19.3	0.00e+00	0	43	0	1076887552	62	4549
2026-01-26 04:55:54.75	304.87	10.69	-46.1	-47.7	19.1	0.00e+00	0	44	0	1078984704	62	4653
2026-01-26 04:55:55.76	304.75	10.62	-46.2	-47.7	19.1	0.00e+00	0	44	0	1080033280	62	4675
2026-01-26 04:55:56.77	304.64	10.55	-46.3	-47.9	18.9	0.00e+00	0	44	0	1082130432	63	4494
2026-01-26 04:55:57.77	304.52	10.48	-46.3	-47.8	19.0	0.00e+00	0	44	0	1084227584	63	4480
2026-01-26 04:55:58.78	304.40	10.41	-46.3	-47.9	18.9	0.00e+00	0	43	0	1086324736	63	4498
2026-01-26 04:55:59.79	304.29	10.34	-46.3	-47.9	18.9	0.00e+00	0	44	0	1088421888	63	4503
2026-01-26 04:56:00.79	304.17	10.28	-46.3	-47.9	18.9	0.00e+00	0	43	0	1089470464	63	4529
2026-01-26 04:56:01.80	304.06	10.21	-46.4	-48.0	18.8	0.00e+00	0	44	0	1091567616	63	4566
2026-01-26 04:56:02.81	303.95	10.14	-46.4	-48.0	18.8	0.00e+00	0	43	0	1093664768	63	4557
2026-01-26 04:56:03.81	303.83	10.07	-46.4	-48.0	18.7	0.00e+00	0	43	0	1095761920	63	4598
2026-01-26 04:56:04.81	303.72	10.00	-46.4	-48.0	18.8	0.00e+00	0	43	0	1097859072	63	4567
2026-01-26 04:56:05.82	303.61	9.94	-46.3	-47.9	18.9	0.00e+00	0	43	0	1098907648	63	4512
2026-01-26 04:56:06.83	303.50	9.87	-46.2	-47.7	19.0	0.00e+00	0	43	0	1101004800	63	4439
2026-01-26 04:56:07.83	303.39	9.80	-46.2	-47.8	18.9	0.00e+00	0	44	0	1103101952	63	4475
2026-01-26 04:56:08.84	303.28	9.73	-46.3	-47.9	18.9	0.00e+00	0	43	0	1105199104	63	4499
2026-01-26 04:56:09.84	303.17	9.66	-46.2	-47.8	18.9	0.00e+00	0	43	0	1107296256	63	4471
2026-01-26 04:56:10.85	303.06	9.60	-46.3	-47.9	18.8	0.00e+00	0	44	0	1108344832	63	4511
2026-01-26 04:56:11.85	302.95	9.53	-46.3	-47.9	18.8	0.00e+00	0	44	0	1110441984	63	4511
2026-01-26 04:56:12.86	302.84	9.46	-46.3	-47.8	18.9	0.00e+00	0	43	0	1112539136	63	4491
2026-01-26 04:56:13.86	302.73	9.39	-46.6	-48.2	18.5	0.00e+00	0	44	0	1114636288	63	4695
2026-01-26 04:56:14.87	302.62	9.33	-46.4	-48.0	18.7	0.00e+00	0	44	0	1116733440	63	4590
2026-01-26 04:56:15.87	302.52	9.26	-46.6	-48.3	18.4	0.00e+00	0	44	0	1117782016	63	4735
2026-01-26 04:56:16.88	302.41	9.19	-46.7	-48.4	18.2	0.00e+00	0	44	0	1119879168	64	4544
2026-01-26 04:56:17.88	302.31	9.13	-46.7	-48.4	18.2	0.00e+00	0	44	0	1121976320	64	4532
2026-01-26 04:56:18.89	302.20	9.06	-46.8	-48.5	18.0	0.00e+00	0	43	0	1124073472	64	4593
2026-01-26 04:56:19.89	302.10	8.99	-46.7	-48.5	18.1	0.00e+00	0	44	0	1126170624	64	4554
2026-01-26 04:56:20.90	301.99	8.92	-46.7	-48.4	18.2	0.00e+00	0	44	0	1127219200	64	4514
2026-01-26 04:56:21.91	301.89	8.86	-46.9	-48.8	17.8	0.00e+00	0	44	0	1129316352	64	4719
2026-01-26 04:56:22.91	301.78	8.79	-46.8	-48.6	18.0	0.00e+00	0	43	0	1131413504	64	4605
2026-01-26 04:56:23.92	301.68	8.72	-46.9	-48.7	17.9	0.00e+00	0	43	0	1133510656	64	4684
2026-01-26 04:56:24.93	301.58	8.66	-46.9	-48.7	17.9	0.00e+00	0	44	0	1135607808	64	4658
2026-01-26 04:56:25.94	301.48	8.59	-46.8	-48.6	18.0	0.00e+00	0	43	0	1136656384	64	4643
2026-01-26 04:56:26.94	301.37	8.52	-46.8	-48.6	18.0	0.00e+00	0	44	0	1138753536	64	4599
2026-01-26 04:56:27.95	301.27	8.46	-46.9	-48.8	17.8	0.00e+00	0	44	0	1140850688	64	4706
2026-01-26 04:56:28.96	301.17	8.39	-47.0	-48.8	17.7	0.00e+00	0	44	0	1142947840	64	4745
2026-01-26 04:56:29.96	301.07	8.33	-47.1	-49.1	17.5	0.00e+00	0	44	0	1145044992	64	4882
2026-01-26 04:56:30.97	300.97	8.26	-47.0	-48.9	17.6	0.00e+00	0	43	0	1146093568	64	4813
2026-01-26 04:56:31.97	300.87	8.19	-47.1	-49.1	17.4	0.00e+00	0	44	0	1148190720	64	4890
2026-01-26 04:56:32.98	300.78	8.13	-47.3	-49.3	17.2	0.00e+00	0	43	0	1150287872	65	4719
2026-01-26 04:56:33.99	300.68	8.06	-47.2	-49.2	17.3	0.00e+00	0	43	0	1152385024	65	4685
2026-01-26 04:56:34.99	300.58	8.00	-47.3	-49.3	17.2	0.00e+00	0	43	0	1154482176	65	4711
2026-01-26 04:56:36.00	300.48	7.93	-47.2	-49.1	17.4	0.00e+00	0	43	0	1155530752	65	4650
2026-01-26 04:56:37.01	300.38	7.87	-47.2	-49.2	17.3	0.00e+00	0	44	0	1157627904	65	4675
2026-01-26 04:56:38.01	300.29	7.80	-47.3	-49.3	17.2	0.00e+00	0	44	0	1159725056	65	4717
2026-01-26 04:56:39.02	300.19	7.74	-47.2	-49.2	17.3	0.00e+00	0	43	0	1161822208	65	4663
2026-01-26 04:56:40.03	300.10	7.67	-47.2	-49.1	17.3	0.00e+00	0	44	0	1163919360	65	4644
2026-01-26 04:56:41.03	300.00	7.61	-47.3	-49.2	17.3	0.00e+00	0	43	0	1164967936	65	4705
2026-01-26 04:56:42.04	299.91	7.54	-47.2	-49.2	17.3	0.00e+00	0	44	0	1167065088	65	4680
2026-01-26 04:56:43.04	299.81	7.48	-47.3	-49.3	17.2	0.00e+00	0	44	0	1169162240	65	4734
2026-01-26 04:56:44.05	299.72	7.41	-47.3	-49.3	17.1	0.00e+00	0	43	0	1171259392	65	4752
2026-01-26 04:56:45.06	299.63	7.35	-47.2	-49.1	17.3	0.00e+00	0	43	0	1173356544	65	4622
2026-01-26 04:56:46.06	299.53	7.28	-47.2	-49.1	17.3	0.00e+00	0	43	0	1174405120	65	4631
2026-01-26 04:56:47.07	299.44	7.22	-47.2	-49.1	17.3	0.00e+00	0	44	0	1176502272	65	4629
2026-01-26 04:56:48.08	299.35	7.15	-47.2	-49.1	17.3	0.00e+00	0	44	0	1178599424	65	4641
2026-01-26 04:56:49.09	299.26	7.09	-47.2	-49.2	17.2	0.00e+00	0	44	0	1180696576	65	4682
2026-01-26 04:56:50.09	299.17	7.02	-47.2	-49.2	17.2	0.00e+00	0	43	0	1182793728	65	4670
2026-01-26 04:56:51.10	299.07	6.96	-47.3	-49.3	17.1	0.00e+00	0	43	0	1183842304	65	4722
2026-01-26 04:56:52.10	298.98	6.89	-47.5	-49.6	16.8	0.00e+00	0	43	0	1185939456	65	4871
2026-01-26 04:56:53.11	298.89	6.83	-47.4	-49.4	16.9	0.00e+00	0	44	0	1188036608	65	4799
2026-01-26 04:56:54.11	298.81	6.77	-47.2	-49.2	17.1	0.00e+00	0	44	0	1190133760	65	4688
2026-01-26 04:56:55.12	298.72	6.70	-47.5	-49.6	16.7	0.00e+00	0	43	0	1192230912	65	4910
2026-01-26 04:56:56.13	298.63	6.64	-47.5	-49.6	16.8	0.00e+00	0	43	0	1193279488	65	4888
2026-01-26 04:56:57.13	298.54	6.58	-47.5	-49.7	16.7	0.00e+00	0	44	0	1195376640	65	4950
2026-01-26 04:56:58.14	298.45	6.51	-47.8	-50.0	16.4	0.00e+00	0	43	0	1197473792	66	4845
2026-01-26 04:56:59.14	298.36	6.45	-47.7	-49.9	16.5	0.00e+00	0	43	0	1199570944	66	4787
2026-01-26 04:57:00.15	298.28	6.39	-47.6	-49.7	16.6	0.00e+00	0	44	0	1201668096	66	4696
2026-01-26 04:57:01.16	298.19	6.32	-47.7	-49.9	16.5	0.00e+00	0	43	0	1202716672	66	4777
2026-01-26 04:57:02.17	298.10	6.26	-47.7	-50.0	16.4	0.00e+00	0	43	0	1204813824	66	4825
2026-01-26 04:57:03.17	298.02	6.20	-47.7	-50.0	16.3	0.00e+00	0	43	0	1206910976	66	4837
2026-01-26 04:57:04.18	297.93	6.13	-47.9	-50.2	16.0	0.00e+00	0	43	0	1209008128	66	4945
2026-01-26 04:57:05.19	297.84	6.07	-47.9	-50.3	16.0	0.00e+00	0	43	0	1211105280	66	5007
2026-01-26 04:57:06.20	297.76	6.01	-47.9	-50.3	16.0	0.00e+00	0	44	0	1212153856	66	5013
2026-01-26 04:57:07.21	297.67	5.94	-47.7	-49.9	16.4	0.00e+00	0	43	0	1214251008	66	4790
2026-01-26 04:57:08.21	297.59	5.88	-47.7	-50.0	16.2	0.00e+00	0	43	0	1216348160	66	4839
2026-01-26 04:57:09.22	297.51	5.82	-47.8	-50.2	16.1	0.00e+00	0	43	0	1218445312	66	4945
