passes_logs/2026/01/26/R3.2S_Murmansk/R3.2S_Murmansk__20260126_140910_AQUA_rec.log

#Pass ID: 20260126_140910_AQUA
#Satellite: AQUA
#Configuration: AQUA
#almurnet v.1.7.20251203
#Start time: 2026-01-26 14:09:12

#Version: 2.2.20231116
#Station: R3.2S_Murmansk
#Location: 33.079688 lon 68.888172 lat
#TLE: 1 27424U 02022A   26025.91340420  .00001969  00000+0  40368-3 0  9991
#TLE: 2 27424  98.4100 352.5253 0001880  65.2649  27.8322 14.61861165262482

#Time	Az	El	Level	Level2	SNR	BER	BlckErr	Temp	State	Recorded	gain1	gain2
2026-01-26 14:09:12.04	229.61	2.10	-55.7	-73.6	3.8	7.47e-01	0	41	0	0	82	29099
2026-01-26 14:09:13.04	229.71	2.15	-56.1	-73.9	3.8	7.42e-01	0	41	104	0	82	30340
2026-01-26 14:09:14.04	229.81	2.21	-56.1	-73.9	3.8	7.43e-01	0	41	104	0	82	30279
2026-01-26 14:09:15.05	229.91	2.26	-56.1	-73.9	3.8	7.44e-01	0	41	104	0	82	30189
2026-01-26 14:09:16.06	230.01	2.31	-56.0	-73.9	3.8	7.45e-01	0	41	104	0	82	30091
2026-01-26 14:09:17.06	230.11	2.36	-56.0	-73.8	3.8	7.44e-01	0	41	104	0	82	29959
2026-01-26 14:09:18.07	230.22	2.41	-55.9	-73.8	3.8	7.46e-01	0	41	104	0	82	29772
2026-01-26 14:09:19.08	230.32	2.46	-55.9	-73.7	3.8	7.46e-01	0	41	104	0	82	29597
2026-01-26 14:09:20.09	230.43	2.51	-55.8	-73.7	3.8	7.45e-01	0	41	104	0	82	29431
2026-01-26 14:09:21.09	230.53	2.57	-55.8	-73.6	3.8	7.44e-01	0	41	104	0	82	29303
2026-01-26 14:09:22.10	230.63	2.62	-55.7	-73.6	3.8	7.44e-01	0	42	104	0	82	29054
2026-01-26 14:09:23.11	230.74	2.67	-55.7	-73.5	3.8	7.45e-01	0	41	104	0	82	28952
2026-01-26 14:09:24.12	230.84	2.72	-55.6	-73.5	3.8	7.45e-01	0	41	104	0	82	28726
2026-01-26 14:09:25.13	230.95	2.77	-55.6	-73.3	3.8	7.42e-01	0	42	104	0	82	28329
2026-01-26 14:09:26.13	231.05	2.82	-55.5	-73.3	3.8	7.43e-01	0	41	104	0	82	28261
2026-01-26 14:09:27.14	231.16	2.88	-55.4	-73.3	3.8	7.43e-01	0	42	104	0	82	28075
2026-01-26 14:09:28.15	231.27	2.93	-55.3	-73.2	3.8	7.44e-01	0	42	104	0	82	27740
2026-01-26 14:09:29.16	231.37	2.98	-55.2	-73.0	3.8	7.44e-01	0	42	104	0	82	27358
2026-01-26 14:09:30.17	231.48	3.03	-55.0	-72.8	3.8	7.48e-01	0	42	104	0	82	26611
2026-01-26 14:09:31.18	231.59	3.08	-54.6	-72.5	3.8	7.46e-01	0	42	104	0	81	27094
2026-01-26 14:09:32.19	231.70	3.14	-54.4	-72.2	3.8	7.43e-01	0	42	104	0	80	27931
2026-01-26 14:09:33.20	231.81	3.19	-54.3	-72.2	3.8	7.46e-01	0	42	104	0	80	27799
2026-01-26 14:09:34.21	231.92	3.24	-54.3	-72.2	3.8	7.43e-01	0	42	104	0	80	27719
2026-01-26 14:09:35.22	232.03	3.29	-54.3	-72.1	3.8	7.45e-01	0	42	104	0	80	27663
2026-01-26 14:09:36.23	232.14	3.34	-54.3	-72.1	3.8	7.49e-01	0	42	104	0	80	27517
2026-01-26 14:09:37.23	232.25	3.40	-54.3	-72.0	3.8	7.44e-01	0	42	104	0	80	27344
2026-01-26 14:09:38.24	232.36	3.45	-54.3	-72.0	3.8	7.47e-01	0	42	104	0	80	27297
2026-01-26 14:09:39.25	232.47	3.50	-54.3	-72.0	3.8	7.44e-01	0	42	104	0	80	27265
2026-01-26 14:09:40.26	232.58	3.55	-54.3	-72.1	3.8	7.45e-01	0	42	104	0	80	27437
2026-01-26 14:09:41.26	232.69	3.60	-54.3	-72.1	3.8	7.47e-01	0	42	104	0	80	27576
2026-01-26 14:09:42.27	232.80	3.66	-54.3	-72.1	3.8	7.49e-01	0	42	104	0	80	27628
2026-01-26 14:09:43.28	232.92	3.71	-54.3	-72.1	3.8	7.45e-01	0	42	104	0	80	27689
2026-01-26 14:09:44.29	233.03	3.76	-54.3	-72.1	3.8	7.45e-01	0	42	104	0	80	27585
2026-01-26 14:09:45.29	233.14	3.81	-54.3	-72.1	3.8	7.45e-01	0	42	104	0	80	27532
2026-01-26 14:09:46.30	233.26	3.87	-54.3	-72.0	3.8	7.42e-01	0	42	104	0	80	27311
2026-01-26 14:09:47.31	233.37	3.92	-54.3	-71.9	3.8	7.48e-01	0	42	104	0	80	26886
2026-01-26 14:09:48.32	233.49	3.97	-54.3	-71.7	3.8	7.46e-01	0	42	104	0	80	26381
2026-01-26 14:09:49.32	233.60	4.02	-54.3	-71.6	3.8	7.46e-01	0	42	104	0	80	25896
2026-01-26 14:09:50.33	233.72	4.08	-54.3	-71.7	3.8	7.44e-01	0	42	104	0	80	26294
2026-01-26 14:09:51.34	233.83	4.13	-54.3	-71.9	3.8	7.46e-01	0	42	104	0	80	26819
2026-01-26 14:09:52.35	233.95	4.18	-54.3	-71.9	3.8	7.46e-01	0	42	104	0	80	26860
2026-01-26 14:09:53.36	234.07	4.23	-54.3	-71.8	3.8	7.44e-01	0	42	104	0	80	26700
2026-01-26 14:09:54.36	234.18	4.29	-54.3	-71.8	3.8	7.47e-01	0	42	104	0	80	26630
2026-01-26 14:09:55.37	234.30	4.34	-54.3	-72.0	3.8	7.49e-01	0	42	104	0	80	27210
2026-01-26 14:09:56.38	234.42	4.39	-54.3	-71.8	3.8	7.43e-01	0	42	104	0	80	26595
2026-01-26 14:09:57.39	234.54	4.44	-54.2	-70.4	3.8	7.45e-01	0	42	104	0	80	22591
2026-01-26 14:09:58.40	234.66	4.50	-54.1	-67.6	4.5	7.26e-01	0	42	104	0	80	16417
2026-01-26 14:09:59.41	234.78	4.55	-54.0	-66.2	5.2	7.04e-01	0	42	104	0	80	14026
2026-01-26 14:10:00.41	234.90	4.60	-54.0	-66.2	5.2	7.02e-01	0	42	0	0	80	13993
2026-01-26 14:10:01.42	235.02	4.65	-54.1	-66.7	5.0	7.11e-01	0	42	0	0	80	14771
2026-01-26 14:10:02.43	235.14	4.71	-54.0	-65.8	5.4	6.98e-01	16	42	0	0	80	13357
2026-01-26 14:10:03.43	235.26	4.76	-53.4	-60.9	9.6	6.27e-01	0	42	0	1572864	78	8494
2026-01-26 14:10:04.44	235.38	4.81	-51.9	-56.1	14.9	6.05e-01	0	43	0	3670016	75	5852
2026-01-26 14:10:05.45	235.51	4.86	-50.4	-53.3	17.8	6.06e-01	0	42	0	5242880	72	4994
2026-01-26 14:10:06.46	235.63	4.92	-48.8	-50.9	20.2	6.05e-01	0	42	0	7340032	69	4520
2026-01-26 14:10:07.47	235.75	4.97	-47.9	-49.8	21.5	6.07e-01	0	42	0	8912896	67	4446
2026-01-26 14:10:08.48	235.88	5.02	-47.3	-49.0	22.2	6.05e-01	0	42	0	11010048	66	4318
2026-01-26 14:10:09.49	236.00	5.08	-47.6	-49.4	21.8	6.06e-01	0	43	0	13107200	66	4530
2026-01-26 14:10:10.49	236.13	5.13	-48.5	-50.6	20.9	6.07e-01	0	42	0	14680064	67	4881
2026-01-26 14:10:11.50	236.25	5.18	-47.7	-49.5	21.4	6.05e-01	0	42	0	16777216	67	4323
2026-01-26 14:10:12.50	236.38	5.23	-49.0	-51.4	19.4	6.07e-01	0	42	0	18350080	70	4521
2026-01-26 14:10:13.51	236.50	5.29	-47.1	-48.8	22.2	6.08e-01	0	42	0	20447232	66	4210
2026-01-26 14:10:14.52	236.63	5.34	-47.9	-49.7	21.3	6.08e-01	0	43	0	22020096	67	4428
2026-01-26 14:10:15.52	236.76	5.39	-47.3	-48.9	22.3	6.08e-01	0	43	0	24117248	66	4289
2026-01-26 14:10:16.53	236.88	5.45	-47.2	-48.9	22.4	6.07e-01	0	42	0	26214400	66	4262
2026-01-26 14:10:17.53	237.01	5.50	-47.4	-49.1	22.2	6.06e-01	0	42	0	27787264	65	4634
2026-01-26 14:10:18.53	237.14	5.55	-46.9	-48.5	22.7	6.09e-01	0	42	0	29884416	65	4309
2026-01-26 14:10:19.54	237.27	5.60	-46.7	-48.3	23.0	6.07e-01	0	42	0	31457280	65	4194
2026-01-26 14:10:20.54	237.40	5.66	-46.6	-48.2	23.0	6.06e-01	0	43	0	33554432	65	4165
2026-01-26 14:10:21.55	237.53	5.71	-47.3	-49.0	22.3	6.05e-01	0	42	0	35651584	65	4557
2026-01-26 14:10:22.56	237.66	5.76	-47.2	-48.9	22.4	6.05e-01	0	43	0	37224448	65	4495
2026-01-26 14:10:23.57	237.79	5.81	-46.8	-48.4	22.9	6.07e-01	0	42	0	39321600	65	4253
2026-01-26 14:10:24.57	237.92	5.87	-47.0	-48.7	22.6	6.08e-01	0	42	0	41418752	65	4393
2026-01-26 14:10:25.58	238.05	5.92	-46.8	-48.4	22.8	6.06e-01	0	43	0	42991616	65	4265
2026-01-26 14:10:26.59	238.19	5.97	-46.6	-48.1	23.1	6.06e-01	0	43	0	45088768	65	4145
2026-01-26 14:10:27.60	238.32	6.03	-47.0	-48.6	22.7	6.07e-01	0	43	0	46661632	65	4380
2026-01-26 14:10:28.61	238.45	6.08	-47.1	-48.7	22.5	6.07e-01	0	43	0	48758784	65	4414
2026-01-26 14:10:29.61	238.59	6.13	-46.6	-48.1	23.1	6.07e-01	0	42	0	50331648	65	4133
2026-01-26 14:10:30.61	238.72	6.18	-46.4	-48.0	23.3	6.07e-01	0	43	0	52428800	64	4292
2026-01-26 14:10:31.62	238.86	6.24	-46.2	-47.7	23.5	6.04e-01	0	43	0	54525952	64	4158
2026-01-26 14:10:32.63	238.99	6.29	-46.8	-48.4	22.8	6.08e-01	0	43	0	56098816	64	4526
2026-01-26 14:10:33.63	239.13	6.34	-46.7	-48.3	23.0	6.05e-01	0	43	0	58195968	64	4455
2026-01-26 14:10:34.65	239.27	6.40	-46.7	-48.2	23.1	6.06e-01	0	43	0	60293120	64	4441
2026-01-26 14:10:35.66	239.40	6.45	-46.7	-48.2	23.1	6.06e-01	0	43	0	61865984	64	4432
2026-01-26 14:10:36.66	239.54	6.50	-46.6	-48.2	23.1	6.06e-01	0	43	0	63963136	64	4411
2026-01-26 14:10:37.67	239.68	6.55	-46.7	-48.2	23.0	6.07e-01	0	43	0	65536000	64	4427
2026-01-26 14:10:38.68	239.82	6.61	-46.5	-48.0	23.3	6.05e-01	0	43	0	67633152	64	4312
2026-01-26 14:10:39.68	239.96	6.66	-46.3	-47.8	23.6	6.04e-01	0	43	0	69730304	64	4202
2026-01-26 14:10:40.69	240.10	6.71	-46.3	-47.7	23.5	6.05e-01	0	43	0	71303168	64	4187
2026-01-26 14:10:41.70	240.24	6.77	-46.1	-47.6	23.7	6.07e-01	0	43	0	73400320	64	4119
2026-01-26 14:10:42.71	240.38	6.82	-46.5	-48.0	23.3	6.06e-01	0	43	0	74973184	64	4312
2026-01-26 14:10:43.71	240.52	6.87	-46.6	-48.1	23.2	6.05e-01	0	43	0	77070336	64	4387
2026-01-26 14:10:44.72	240.66	6.92	-46.6	-48.1	23.2	6.06e-01	0	43	0	78643200	64	4386
2026-01-26 14:10:45.72	240.80	6.98	-46.6	-48.1	23.2	6.05e-01	0	43	0	80740352	64	4389
2026-01-26 14:10:46.73	240.95	7.03	-46.6	-48.2	23.1	6.06e-01	0	43	0	82837504	64	4398
2026-01-26 14:10:47.73	241.09	7.08	-46.0	-47.4	23.8	6.04e-01	0	42	0	84410368	64	4050
2026-01-26 14:10:48.73	241.23	7.13	-46.4	-47.9	23.5	6.08e-01	0	43	0	86507520	63	4496
2026-01-26 14:10:49.74	241.38	7.19	-46.6	-48.1	23.2	6.05e-01	0	43	0	88604672	63	4630
2026-01-26 14:10:50.74	241.52	7.24	-46.3	-47.7	23.7	6.06e-01	0	43	0	90177536	63	4421
2026-01-26 14:10:51.75	241.67	7.29	-46.4	-47.9	23.4	6.05e-01	0	43	0	92274688	63	4530
2026-01-26 14:10:52.75	241.81	7.34	-46.5	-48.0	23.4	6.05e-01	0	43	0	93847552	63	4579
2026-01-26 14:10:53.76	241.96	7.40	-46.3	-47.8	23.5	6.07e-01	0	43	0	95944704	63	4458
2026-01-26 14:10:54.76	242.11	7.45	-46.3	-47.7	23.6	6.05e-01	0	43	0	98041856	63	4439
2026-01-26 14:10:55.77	242.25	7.50	-46.1	-47.5	23.9	6.06e-01	0	43	0	99614720	63	4329
2026-01-26 14:10:56.77	242.40	7.55	-46.1	-47.6	23.8	6.06e-01	0	43	0	101711872	63	4349
2026-01-26 14:10:57.78	242.55	7.60	-46.1	-47.6	23.7	6.06e-01	0	43	0	103284736	64	4099
2026-01-26 14:10:58.79	242.70	7.66	-46.0	-47.4	23.9	6.04e-01	0	43	0	105381888	64	4029
2026-01-26 14:10:59.79	242.85	7.71	-46.3	-47.7	23.7	6.05e-01	0	43	0	106954752	63	4418
2026-01-26 14:11:00.79	243.00	7.76	-46.3	-47.7	23.7	6.05e-01	0	43	0	109051904	63	4429
2026-01-26 14:11:01.80	243.15	7.81	-46.2	-47.6	23.8	6.06e-01	0	43	0	111149056	63	4389
2026-01-26 14:11:02.81	243.30	7.87	-46.1	-47.5	24.0	6.04e-01	0	43	0	112721920	63	4307
2026-01-26 14:11:03.81	243.46	7.92	-46.3	-47.8	23.6	6.06e-01	0	43	0	114819072	63	4467
2026-01-26 14:11:04.82	243.61	7.97	-46.3	-47.8	23.6	6.06e-01	0	43	0	116391936	63	4472
2026-01-26 14:11:05.83	243.76	8.02	-46.4	-47.8	23.6	6.04e-01	0	43	0	118489088	63	4483
2026-01-26 14:11:06.83	243.92	8.07	-46.2	-47.6	23.8	6.07e-01	0	43	0	120061952	63	4373
2026-01-26 14:11:07.84	244.07	8.12	-46.0	-47.4	24.0	6.04e-01	0	43	0	122159104	63	4272
2026-01-26 14:11:08.84	244.23	8.18	-46.1	-47.6	23.8	6.08e-01	0	43	0	124256256	63	4348
2026-01-26 14:11:09.85	244.38	8.23	-45.9	-47.3	24.1	6.06e-01	0	43	0	126353408	63	4227
2026-01-26 14:11:10.86	244.54	8.28	-45.9	-47.3	24.1	6.07e-01	0	43	0	127926272	63	4202
2026-01-26 14:11:11.87	244.70	8.33	-46.1	-47.5	23.9	6.06e-01	0	43	0	130023424	63	4307
2026-01-26 14:11:12.88	244.86	8.38	-46.1	-47.5	23.9	6.06e-01	0	43	0	131596288	63	4316
2026-01-26 14:11:13.88	245.01	8.44	-46.2	-47.6	23.9	6.06e-01	0	43	0	133693440	63	4371
2026-01-26 14:11:14.89	245.17	8.49	-46.1	-47.5	23.9	6.06e-01	0	43	0	135266304	63	4333
2026-01-26 14:11:15.90	245.33	8.54	-46.0	-47.4	24.0	6.06e-01	0	43	0	137363456	63	4268
2026-01-26 14:11:16.91	245.49	8.59	-46.0	-47.4	24.0	6.05e-01	0	43	0	139460608	63	4282
2026-01-26 14:11:17.91	245.65	8.64	-46.2	-47.6	23.9	6.06e-01	0	43	0	141033472	63	4365
2026-01-26 14:11:18.92	245.81	8.69	-46.1	-47.5	24.0	6.06e-01	0	43	0	143130624	63	4310
2026-01-26 14:11:19.92	245.97	8.74	-46.3	-47.7	23.8	6.06e-01	0	43	0	144703488	63	4425
2026-01-26 14:11:20.93	246.14	8.79	-46.0	-47.3	24.1	6.03e-01	0	43	0	146800640	63	4234
2026-01-26 14:11:21.93	246.30	8.85	-46.0	-47.4	24.0	6.09e-01	0	43	0	148373504	63	4283
2026-01-26 14:11:22.94	246.46	8.90	-46.1	-47.5	24.0	6.08e-01	0	43	0	150470656	63	4309
2026-01-26 14:11:23.95	246.63	8.95	-45.9	-47.2	24.2	6.05e-01	0	43	0	152567808	63	4189
2026-01-26 14:11:24.96	246.79	9.00	-45.8	-47.2	24.3	6.06e-01	0	43	0	154664960	63	4162
2026-01-26 14:11:25.96	246.96	9.05	-45.8	-47.1	24.3	6.04e-01	0	43	0	156237824	63	4141
2026-01-26 14:11:26.96	247.12	9.10	-45.9	-47.3	24.3	6.07e-01	0	43	0	158334976	63	4207
2026-01-26 14:11:27.97	247.29	9.15	-45.9	-47.3	24.2	6.05e-01	0	43	0	159907840	63	4216
2026-01-26 14:11:28.98	247.46	9.20	-46.0	-47.4	24.1	6.05e-01	0	43	0	162004992	63	4244
2026-01-26 14:11:29.98	247.62	9.25	-45.9	-47.3	24.2	6.05e-01	0	43	0	163577856	63	4225
2026-01-26 14:11:30.99	247.79	9.30	-45.8	-47.2	24.3	6.05e-01	0	43	0	165675008	63	4160
2026-01-26 14:11:32.00	247.96	9.35	-45.7	-47.1	24.4	6.06e-01	0	43	0	167772160	63	4122
2026-01-26 14:11:33.00	248.13	9.40	-45.7	-47.0	24.5	6.05e-01	0	43	0	169345024	63	4087
2026-01-26 14:11:34.01	248.30	9.45	-45.7	-47.1	24.5	6.06e-01	0	43	0	171442176	63	4103
2026-01-26 14:11:35.01	248.47	9.50	-45.7	-47.0	24.5	6.06e-01	0	43	0	173015040	63	4097
2026-01-26 14:11:36.02	248.64	9.55	-45.8	-47.2	24.3	6.07e-01	0	43	0	175112192	63	4158
2026-01-26 14:11:37.03	248.81	9.60	-45.7	-47.0	24.5	6.06e-01	0	43	0	176685056	63	4089
2026-01-26 14:11:38.03	248.99	9.65	-45.8	-47.1	24.4	6.06e-01	0	43	0	178782208	63	4132
2026-01-26 14:11:39.04	249.16	9.70	-45.7	-47.1	24.4	6.08e-01	0	43	0	180879360	63	4119
2026-01-26 14:11:40.05	249.33	9.75	-45.7	-47.0	24.5	6.08e-01	0	43	0	182976512	63	4075
2026-01-26 14:11:41.05	249.51	9.80	-45.7	-47.0	24.4	6.05e-01	0	43	0	184549376	63	4096
2026-01-26 14:11:42.06	249.68	9.85	-45.7	-47.1	24.5	6.04e-01	0	43	0	186646528	63	4113
2026-01-26 14:11:43.06	249.86	9.90	-45.6	-46.9	24.7	6.06e-01	0	43	0	188219392	63	4031
2026-01-26 14:11:44.07	250.03	9.95	-45.5	-46.9	24.7	6.06e-01	0	43	0	190316544	63	4010
2026-01-26 14:11:45.08	250.21	9.99	-45.7	-47.0	24.5	6.05e-01	0	43	0	191889408	63	4086
2026-01-26 14:11:46.08	250.39	10.04	-46.0	-56.9	3.9	7.36e-01	0	43	104	192937984	63	12758
2026-01-26 14:11:47.09	250.57	10.09	-46.1	-57.0	3.9	7.44e-01	0	43	104	192937984	63	12811
2026-01-26 14:11:48.09	250.74	10.14	-46.0	-56.9	3.9	7.40e-01	0	43	104	192937984	63	12677
2026-01-26 14:11:49.10	250.92	10.19	-47.8	-58.9	4.0	7.41e-01	0	43	104	192937984	66	13527
2026-01-26 14:11:50.11	251.11	10.24	-49.9	-61.7	3.8	7.42e-01	0	43	104	192937984	70	14799
2026-01-26 14:11:51.11	251.29	10.28	-50.6	-62.7	3.8	7.46e-01	0	43	104	192937984	72	14858
2026-01-26 14:11:52.12	251.47	10.33	-50.5	-62.6	3.8	7.43e-01	0	43	104	192937984	71	15501
2026-01-26 14:11:53.13	251.65	10.38	-45.9	-56.9	3.8	7.49e-01	0	43	104	192937984	63	12694
2026-01-26 14:11:54.14	251.83	10.43	-45.9	-56.9	3.8	7.46e-01	0	43	104	192937984	63	12755
2026-01-26 14:11:55.15	252.02	10.48	-45.8	-56.7	3.8	7.47e-01	0	43	104	192937984	63	12488
2026-01-26 14:11:56.16	252.20	10.52	-48.7	-60.1	3.8	7.44e-01	0	43	104	192937984	68	13832
2026-01-26 14:11:57.17	252.39	10.57	-49.3	-60.6	3.9	7.41e-01	0	43	104	192937984	70	13066
2026-01-26 14:11:58.18	252.57	10.62	-50.0	-61.9	3.7	7.46e-01	0	43	104	192937984	72	13438
2026-01-26 14:11:59.18	252.76	10.66	-49.2	-60.7	4.3	7.30e-01	0	43	104	192937984	70	13162
2026-01-26 14:12:00.19	252.94	10.71	-47.4	-58.3	4.1	7.36e-01	0	43	104	192937984	65	13290
2026-01-26 14:12:01.19	253.13	10.76	-45.5	-56.1	4.1	7.34e-01	0	43	104	192937984	63	11604
2026-01-26 14:12:02.20	253.32	10.80	-45.5	-56.2	4.4	7.27e-01	0	43	104	192937984	63	11707
2026-01-26 14:12:03.21	253.50	10.85	-45.6	-56.2	4.1	7.35e-01	0	43	104	192937984	63	11767
2026-01-26 14:12:04.21	253.69	10.90	-46.5	-57.5	3.8	7.46e-01	0	43	104	192937984	63	13591
2026-01-26 14:12:05.22	253.88	10.94	-46.9	-58.0	3.8	7.45e-01	0	43	104	192937984	65	12880
2026-01-26 14:12:06.23	254.07	10.99	-49.4	-60.7	3.9	7.43e-01	0	43	104	192937984	70	13152
2026-01-26 14:12:07.23	254.26	11.03	-49.3	-60.7	3.9	7.45e-01	0	43	104	192937984	70	13235
2026-01-26 14:12:08.24	254.45	11.08	-49.7	-61.4	3.9	7.44e-01	0	43	104	192937984	71	13474
2026-01-26 14:12:09.24	254.64	11.13	-45.7	-56.7	3.8	7.45e-01	0	43	104	192937984	63	12413
2026-01-26 14:12:10.25	254.84	11.17	-45.7	-56.6	3.8	7.46e-01	0	43	104	192937984	63	12367
2026-01-26 14:12:11.26	255.03	11.22	-45.7	-56.6	3.8	7.43e-01	0	43	104	192937984	63	12256
2026-01-26 14:12:12.27	255.23	11.26	-46.5	-57.5	3.8	7.47e-01	0	43	104	192937984	65	12096
2026-01-26 14:12:13.27	255.42	11.30	-46.0	-56.9	3.8	7.46e-01	0	43	104	192937984	64	12019
2026-01-26 14:12:14.28	255.61	11.35	-48.8	-60.3	3.8	7.44e-01	0	43	104	192937984	69	13371
2026-01-26 14:12:15.29	255.81	11.39	-47.9	-59.3	3.8	7.43e-01	0	43	104	192937984	68	12571
2026-01-26 14:12:16.29	256.00	11.44	-48.8	-60.3	3.8	7.41e-01	0	43	104	192937984	69	13264
2026-01-26 14:12:17.30	256.20	11.48	-45.6	-56.5	3.8	7.46e-01	0	43	104	192937984	63	12200
2026-01-26 14:12:18.31	256.40	11.53	-45.6	-56.4	3.8	7.44e-01	0	43	104	192937984	63	12025
2026-01-26 14:12:19.32	256.60	11.57	-45.5	-56.4	3.8	7.45e-01	0	43	104	192937984	63	11956
2026-01-26 14:12:20.33	256.80	11.61	-46.0	-57.0	3.8	7.43e-01	0	43	104	192937984	64	12144
2026-01-26 14:12:21.34	257.00	11.66	-46.0	-57.0	3.8	7.43e-01	0	43	104	192937984	64	12169
2026-01-26 14:12:22.35	257.20	11.70	-48.5	-59.8	3.8	7.45e-01	0	43	104	192937984	69	12606
2026-01-26 14:12:23.35	257.40	11.74	-46.6	-57.6	3.9	7.44e-01	0	43	104	192937984	65	12323
2026-01-26 14:12:24.36	257.60	11.78	-48.0	-58.8	3.8	7.44e-01	0	43	104	192937984	67	12521
2026-01-26 14:12:25.36	257.80	11.82	-45.7	-56.5	3.8	7.44e-01	0	43	104	192937984	63	12154
2026-01-26 14:12:26.37	258.00	11.87	-45.5	-56.3	3.8	7.49e-01	0	43	104	192937984	63	11925
2026-01-26 14:12:27.37	258.20	11.91	-45.5	-56.3	3.8	7.47e-01	0	43	104	192937984	62	12555
2026-01-26 14:12:28.38	258.41	11.95	-45.9	-56.9	3.9	7.44e-01	0	43	104	192937984	63	12743
2026-01-26 14:12:29.39	258.61	11.99	-45.5	-56.5	3.8	7.45e-01	0	43	104	192937984	63	12100
2026-01-26 14:12:30.39	258.82	12.03	-48.6	-60.1	3.8	7.46e-01	0	43	104	192937984	69	12984
2026-01-26 14:12:31.40	259.02	12.07	-46.5	-57.4	3.9	7.45e-01	0	43	104	192937984	65	12061
2026-01-26 14:12:32.40	259.23	12.11	-48.0	-59.3	3.9	7.47e-01	0	43	104	192937984	68	12556
2026-01-26 14:12:33.40	259.43	12.15	-45.6	-56.5	3.8	7.45e-01	0	43	104	192937984	63	12145
2026-01-26 14:12:34.41	259.64	12.19	-45.5	-56.4	3.8	7.46e-01	0	43	104	192937984	63	12060
2026-01-26 14:12:35.41	259.84	12.23	-46.1	-57.0	3.8	7.45e-01	0	43	104	192937984	63	12891
2026-01-26 14:12:36.41	260.05	12.27	-48.8	-60.1	3.9	7.47e-01	0	43	104	192937984	69	13056
2026-01-26 14:12:37.41	260.26	12.31	-46.5	-57.4	3.8	7.45e-01	0	43	104	192937984	65	12082
2026-01-26 14:12:38.42	260.47	12.35	-48.7	-60.2	3.9	7.44e-01	0	43	104	192937984	69	13135
2026-01-26 14:12:39.43	260.68	12.39	-47.0	-58.2	3.8	7.42e-01	0	43	104	192937984	66	12445
2026-01-26 14:12:40.43	260.89	12.43	-46.1	-57.1	3.8	7.48e-01	0	43	104	192937984	64	12260
2026-01-26 14:12:41.44	261.10	12.46	-45.2	-55.9	3.8	7.46e-01	0	43	104	192937984	62	12039
2026-01-26 14:12:42.45	261.31	12.50	-45.2	-56.0	3.8	7.46e-01	0	43	104	192937984	62	12096
2026-01-26 14:12:43.46	261.52	12.54	-45.8	-56.7	3.8	7.46e-01	0	43	104	192937984	62	13127
2026-01-26 14:12:44.47	261.74	12.58	-45.5	-56.4	3.8	7.44e-01	0	43	104	192937984	63	11975
2026-01-26 14:12:45.48	261.95	12.62	-45.5	-56.3	3.8	7.47e-01	0	43	104	192937984	62	12556
2026-01-26 14:12:46.49	262.17	12.65	-47.8	-59.0	3.8	7.43e-01	0	43	104	192937984	67	12858
2026-01-26 14:12:47.49	262.38	12.69	-45.3	-56.1	3.8	7.45e-01	0	43	104	192937984	62	12337
2026-01-26 14:12:48.50	262.59	12.73	-46.4	-57.1	3.8	7.39e-01	0	43	104	192937984	64	12300
2026-01-26 14:12:49.51	262.81	12.76	-45.2	-56.1	3.8	7.46e-01	0	43	104	192937984	62	12288
2026-01-26 14:12:50.51	263.03	12.80	-45.2	-56.0	3.8	7.47e-01	0	43	104	192937984	62	12179
2026-01-26 14:12:51.52	263.24	12.83	-46.4	-57.4	3.8	7.45e-01	0	43	104	192937984	63	13507
2026-01-26 14:12:52.52	263.46	12.87	-45.7	-56.5	3.8	7.41e-01	0	43	104	192937984	63	12227
2026-01-26 14:12:53.53	263.68	12.90	-45.4	-56.3	3.8	7.44e-01	0	43	104	192937984	62	12551
2026-01-26 14:12:54.54	263.90	12.94	-48.2	-59.4	3.8	7.46e-01	0	43	104	192937984	67	13448
2026-01-26 14:12:55.54	264.11	12.97	-45.6	-56.4	3.8	7.48e-01	0	43	104	192937984	62	12706
2026-01-26 14:12:56.55	264.33	13.00	-45.7	-56.6	3.9	7.47e-01	0	43	104	192937984	63	12311
2026-01-26 14:12:57.56	264.55	13.04	-45.2	-56.0	3.8	7.45e-01	0	43	104	192937984	62	12189
2026-01-26 14:12:58.57	264.77	13.07	-45.2	-56.1	3.8	7.40e-01	0	43	104	192937984	62	12304
2026-01-26 14:12:59.57	264.99	13.10	-45.9	-56.8	3.8	7.48e-01	0	43	104	192937984	62	13322
2026-01-26 14:13:00.58	265.21	13.14	-45.1	-55.9	3.8	7.44e-01	0	43	104	192937984	62	12093
2026-01-26 14:13:01.59	265.44	13.17	-46.5	-57.5	3.8	7.48e-01	0	43	104	192937984	63	13601
2026-01-26 14:13:02.60	265.66	13.20	-48.1	-59.3	3.8	7.47e-01	0	43	104	192937984	67	13279
2026-01-26 14:13:03.61	265.88	13.23	-45.5	-56.2	3.8	7.43e-01	0	43	104	192937984	62	12482
2026-01-26 14:13:04.61	266.11	13.26	-46.5	-57.4	3.8	7.43e-01	0	43	104	192937984	65	12082
2026-01-26 14:13:05.62	266.33	13.29	-45.4	-56.3	3.8	7.44e-01	0	43	104	192937984	62	12564
2026-01-26 14:13:06.63	266.55	13.33	-45.2	-56.1	3.8	7.44e-01	0	43	104	192937984	62	12308
2026-01-26 14:13:07.64	266.78	13.36	-46.4	-57.3	3.8	7.39e-01	0	43	104	192937984	63	13345
2026-01-26 14:13:08.65	267.01	13.39	-45.3	-56.0	3.9	7.46e-01	0	43	104	192937984	62	12169
2026-01-26 14:13:09.66	267.23	13.42	-48.1	-59.2	3.8	7.44e-01	0	43	104	192937984	66	14032
2026-01-26 14:13:10.66	267.46	13.44	-48.8	-60.3	3.8	7.40e-01	0	43	104	192937984	68	14180
2026-01-26 14:13:11.67	267.68	13.47	-46.7	-58.1	3.8	7.43e-01	0	43	104	192937984	64	13777
2026-01-26 14:13:12.68	267.91	13.50	-46.0	-56.8	3.8	7.44e-01	0	43	104	192937984	64	11919
2026-01-26 14:13:13.69	268.14	13.53	-45.2	-56.0	3.8	7.45e-01	0	43	104	192937984	62	12102
2026-01-26 14:13:14.70	268.37	13.56	-45.1	-55.9	3.8	7.45e-01	0	43	104	192937984	62	12015
2026-01-26 14:13:15.70	268.60	13.59	-45.4	-56.3	3.8	7.43e-01	0	43	104	192937984	62	12655
2026-01-26 14:13:16.71	268.83	13.61	-45.5	-56.3	3.8	7.48e-01	0	43	104	192937984	62	12640
2026-01-26 14:13:17.71	269.05	13.64	-48.3	-59.4	3.8	7.43e-01	0	43	104	192937984	66	14371
2026-01-26 14:13:18.72	269.28	13.67	-49.5	-61.0	3.8	7.48e-01	0	43	104	192937984	69	14484
2026-01-26 14:13:19.73	269.51	13.69	-47.1	-58.1	3.8	7.47e-01	0	43	104	192937984	64	13729
2026-01-26 14:13:20.74	269.75	13.72	-46.1	-57.1	3.8	7.44e-01	0	43	104	192937984	64	12271
2026-01-26 14:13:21.75	269.98	13.74	-45.8	-56.8	3.8	7.43e-01	0	43	104	192937984	63	12539
2026-01-26 14:13:22.76	270.21	13.77	-45.7	-56.5	3.8	7.44e-01	0	43	104	192937984	63	12233
2026-01-26 14:13:23.76	270.44	13.79	-46.6	-57.6	3.8	7.46e-01	0	43	104	192937984	63	13844
2026-01-26 14:13:24.76	270.67	13.82	-49.5	-61.0	3.8	7.43e-01	0	43	104	192937984	69	14448
2026-01-26 14:13:25.77	270.90	13.84	-48.9	-60.3	3.8	7.42e-01	0	43	104	192937984	68	14146
2026-01-26 14:13:26.78	271.14	13.86	-51.2	-63.6	3.8	7.44e-01	0	43	104	192937984	72	16338
2026-01-26 14:13:27.79	271.37	13.89	-46.1	-57.0	3.8	7.47e-01	0	43	104	192937984	63	12877
2026-01-26 14:13:28.79	271.60	13.91	-46.1	-57.0	3.8	7.44e-01	0	43	104	192937984	64	12230
2026-01-26 14:13:29.80	271.84	13.93	-46.1	-57.1	3.8	7.44e-01	0	43	104	192937984	64	12307
2026-01-26 14:13:30.80	272.07	13.95	-45.9	-56.8	3.8	7.46e-01	0	43	104	192937984	63	12657
2026-01-26 14:13:31.81	272.30	13.97	-46.6	-57.5	3.8	7.42e-01	0	43	104	192937984	63	13706
2026-01-26 14:13:32.81	272.54	13.99	-45.6	-56.5	3.8	7.44e-01	0	43	104	192937984	62	12815
2026-01-26 14:13:33.82	272.77	14.01	-49.9	-61.8	3.8	7.45e-01	0	43	104	192937984	70	14947
2026-01-26 14:13:34.83	273.01	14.03	-50.3	-62.2	3.8	7.46e-01	0	43	104	192937984	71	14813
2026-01-26 14:13:35.84	273.25	14.05	-48.0	-59.1	3.8	7.43e-01	0	43	104	192937984	66	13848
2026-01-26 14:13:36.84	273.48	14.07	-46.0	-56.9	3.8	7.43e-01	0	43	104	192937984	64	12048
2026-01-26 14:13:37.85	273.72	14.09	-45.7	-56.6	3.8	7.43e-01	0	43	104	192937984	63	12244
2026-01-26 14:13:38.86	273.96	14.11	-45.4	-56.3	3.8	7.44e-01	0	43	104	192937984	62	12521
2026-01-26 14:13:39.87	274.20	14.13	-47.0	-58.2	3.8	7.43e-01	0	43	104	192937984	64	13957
2026-01-26 14:13:40.88	274.43	14.15	-46.0	-56.9	3.8	7.42e-01	0	43	104	192937984	62	13496
2026-01-26 14:13:41.89	274.67	14.16	-50.9	-63.0	3.8	7.47e-01	0	43	104	192937984	72	15377
2026-01-26 14:13:42.89	274.91	14.18	-50.8	-62.9	3.8	7.40e-01	0	43	104	192937984	72	15067
2026-01-26 14:13:43.90	275.15	14.20	-48.9	-60.4	3.8	7.44e-01	0	43	104	192937984	68	14213
2026-01-26 14:13:44.91	275.39	14.21	-46.0	-56.8	3.8	7.41e-01	0	43	104	192937984	63	12653
2026-01-26 14:13:45.92	275.63	14.23	-45.8	-56.6	3.8	7.45e-01	0	43	104	192937984	63	12340
2026-01-26 14:13:46.92	275.86	14.24	-45.6	-56.5	3.8	7.46e-01	0	43	104	192937984	63	12116
2026-01-26 14:13:47.93	276.10	14.26	-46.3	-57.2	3.8	7.44e-01	0	43	104	192937984	63	13255
2026-01-26 14:13:48.94	276.34	14.27	-49.4	-60.9	3.8	7.45e-01	0	43	104	192937984	69	14305
2026-01-26 14:13:49.95	276.59	14.29	-51.1	-63.4	3.8	7.42e-01	0	43	104	192937984	72	16036
2026-01-26 14:13:50.95	276.82	14.30	-51.9	-64.8	3.8	7.46e-01	0	43	104	192937984	74	16846
2026-01-26 14:13:51.96	277.06	14.31	-47.0	-58.0	3.8	7.44e-01	0	43	104	192937984	64	13690
2026-01-26 14:13:52.96	277.30	14.32	-46.2	-57.1	3.8	7.44e-01	0	43	104	192937984	64	12325
2026-01-26 14:13:53.97	277.54	14.34	-46.2	-57.0	3.8	7.46e-01	0	43	104	192937984	64	12229
2026-01-26 14:13:54.98	277.79	14.35	-45.7	-56.6	3.8	7.44e-01	0	43	104	192937984	63	12240
2026-01-26 14:13:55.99	278.03	14.36	-45.2	-56.0	3.8	7.44e-01	0	43	104	192937984	62	12217
2026-01-26 14:13:57.00	278.27	14.37	-46.3	-57.3	3.8	7.45e-01	0	43	104	192937984	63	13365
2026-01-26 14:13:58.01	278.51	14.38	-51.1	-63.4	3.8	7.44e-01	0	43	104	192937984	73	15115
2026-01-26 14:13:59.01	278.75	14.39	-51.5	-63.9	3.8	7.44e-01	0	43	104	192937984	73	16004
2026-01-26 14:14:00.02	278.99	14.40	-48.9	-60.3	3.9	7.45e-01	0	43	104	192937984	68	14053
2026-01-26 14:14:01.03	279.24	14.41	-46.5	-57.6	3.8	7.44e-01	0	43	104	192937984	65	12255
2026-01-26 14:14:02.04	279.48	14.42	-46.1	-57.1	3.8	7.41e-01	0	43	104	192937984	64	12310
2026-01-26 14:14:03.04	279.72	14.43	-45.9	-56.8	3.8	7.45e-01	0	43	104	192937984	63	12604
2026-01-26 14:14:04.05	279.96	14.43	-45.8	-56.6	3.8	7.44e-01	0	43	104	192937984	62	13019
2026-01-26 14:14:05.05	280.20	14.44	-48.3	-59.6	3.8	7.42e-01	0	43	104	192937984	68	13083
2026-01-26 14:14:06.06	280.45	14.45	-51.7	-64.3	3.8	7.44e-01	0	43	104	192937984	74	15848
2026-01-26 14:14:07.07	280.69	14.45	-52.0	-64.9	3.9	7.41e-01	0	43	104	192937984	75	15946
2026-01-26 14:14:08.08	280.93	14.46	-47.7	-58.7	3.8	7.39e-01	0	43	104	192937984	65	14012
2026-01-26 14:14:09.09	281.18	14.46	-46.8	-57.8	3.8	7.43e-01	0	44	104	192937984	65	12582
2026-01-26 14:14:10.10	281.42	14.47	-46.7	-57.7	3.8	7.42e-01	0	43	104	192937984	65	12428
2026-01-26 14:14:11.10	281.66	14.47	-46.3	-57.3	3.9	7.43e-01	0	44	104	192937984	64	12547
2026-01-26 14:14:12.11	281.91	14.48	-46.9	-57.9	3.8	7.43e-01	0	43	104	192937984	64	13458
2026-01-26 14:14:13.13	282.15	14.48	-46.7	-57.6	3.8	7.43e-01	0	43	104	192937984	63	13846
2026-01-26 14:14:14.13	282.40	14.48	-51.0	-63.1	3.8	7.41e-01	0	43	104	192937984	73	14662
2026-01-26 14:14:15.13	282.64	14.49	-51.9	-64.5	3.9	7.45e-01	0	43	104	192937984	75	15243
2026-01-26 14:14:16.14	282.88	14.49	-48.2	-59.6	3.8	7.44e-01	0	44	104	192937984	67	13731
2026-01-26 14:14:17.15	283.12	14.49	-46.1	-57.0	3.8	7.45e-01	0	43	104	192937984	64	12128
2026-01-26 14:14:18.15	283.37	14.49	-46.0	-56.8	3.9	7.49e-01	0	43	104	192937984	63	12589
2026-01-26 14:14:19.16	283.61	14.49	-45.6	-56.5	3.8	7.43e-01	0	43	104	192937984	63	12152
2026-01-26 14:14:20.17	283.85	14.49	-45.6	-56.4	3.8	7.41e-01	0	43	104	192937984	63	12073
2026-01-26 14:14:21.18	284.10	14.49	-47.1	-58.2	3.9	7.44e-01	0	43	104	192937984	66	12499
2026-01-26 14:14:22.19	284.34	14.49	-52.0	-64.6	3.8	7.45e-01	0	43	104	192937984	75	15471
2026-01-26 14:14:23.20	284.59	14.49	-49.5	-61.1	3.8	7.43e-01	0	43	104	192937984	71	12979
2026-01-26 14:14:24.20	284.83	14.49	-46.9	-57.9	3.9	7.44e-01	0	43	104	192937984	64	13420
2026-01-26 14:14:25.21	285.07	14.49	-45.8	-56.7	3.8	7.43e-01	0	43	104	192937984	63	12432
2026-01-26 14:14:26.21	285.31	14.48	-45.8	-56.6	3.9	7.47e-01	0	43	104	192937984	63	12364
2026-01-26 14:14:27.22	285.56	14.48	-45.8	-56.6	3.8	7.45e-01	0	43	104	192937984	63	12337
2026-01-26 14:14:28.23	285.80	14.48	-47.1	-58.2	3.9	7.43e-01	0	43	104	192937984	66	12443
2026-01-26 14:14:29.24	286.04	14.47	-46.0	-56.8	3.9	7.42e-01	0	43	104	192937984	64	11947
2026-01-26 14:14:30.25	286.29	14.47	-50.3	-62.1	3.8	7.41e-01	0	43	104	192937984	72	13790
2026-01-26 14:14:31.26	286.53	14.46	-49.7	-61.2	3.9	7.43e-01	0	43	104	192937984	71	13256
2026-01-26 14:14:32.27	286.78	14.46	-47.4	-58.5	3.8	7.43e-01	0	43	104	192937984	66	12904
2026-01-26 14:14:33.28	287.02	14.45	-46.1	-57.0	3.9	7.41e-01	0	43	104	192937984	63	12849
2026-01-26 14:14:34.29	287.26	14.45	-45.9	-56.7	3.9	7.40e-01	0	44	104	192937984	63	12434
2026-01-26 14:14:35.29	287.50	14.44	-45.7	-56.4	3.8	7.43e-01	0	43	104	192937984	63	12076
2026-01-26 14:14:36.30	287.75	14.43	-45.6	-56.4	3.8	7.46e-01	0	43	104	192937984	63	12019
2026-01-26 14:14:37.30	287.99	14.43	-45.9	-56.7	3.8	7.41e-01	0	43	104	192937984	63	12486
2026-01-26 14:14:38.31	288.23	14.42	-52.2	-64.9	3.8	7.46e-01	0	43	104	192937984	76	15192
2026-01-26 14:14:39.31	288.47	14.41	-48.0	-59.2	3.8	7.46e-01	0	43	104	192937984	68	12425
2026-01-26 14:14:40.32	288.71	14.40	-47.2	-58.2	3.8	7.43e-01	0	43	104	192937984	65	13163
2026-01-26 14:14:41.33	288.95	14.39	-46.1	-57.0	3.8	7.42e-01	0	43	104	192937984	63	12882
2026-01-26 14:14:42.34	289.20	14.38	-45.9	-56.8	3.8	7.46e-01	0	43	104	192937984	63	12618
2026-01-26 14:14:43.34	289.44	14.37	-45.6	-56.5	3.8	7.45e-01	0	43	104	192937984	63	12152
2026-01-26 14:14:44.35	289.68	14.36	-45.4	-56.2	3.8	7.43e-01	0	43	104	192937984	62	12451
2026-01-26 14:14:45.35	289.92	14.35	-46.0	-56.7	3.9	7.46e-01	0	43	104	192937984	63	12417
2026-01-26 14:14:46.36	290.16	14.34	-50.4	-62.0	3.8	7.48e-01	0	43	104	192937984	72	13685
2026-01-26 14:14:47.36	290.40	14.33	-48.0	-59.3	3.8	7.44e-01	0	43	104	192937984	68	12524
2026-01-26 14:14:48.37	290.64	14.32	-46.8	-57.8	3.8	7.45e-01	0	43	104	192937984	65	12539
2026-01-26 14:14:49.38	290.88	14.30	-46.0	-56.8	3.8	7.45e-01	0	43	104	192937984	63	12584
2026-01-26 14:14:50.39	291.12	14.29	-45.8	-56.6	3.8	7.46e-01	0	43	104	192937984	63	12347
2026-01-26 14:14:51.39	291.36	14.28	-45.7	-56.5	3.8	7.45e-01	0	43	104	192937984	63	12201
2026-01-26 14:14:52.41	291.60	14.26	-45.8	-56.6	3.8	7.45e-01	0	43	104	192937984	63	12348
2026-01-26 14:14:53.41	291.84	14.25	-45.5	-56.3	3.8	7.43e-01	0	43	104	192937984	63	11820
2026-01-26 14:14:54.42	292.08	14.23	-51.9	-64.3	3.9	7.43e-01	0	43	104	192937984	76	14141
2026-01-26 14:14:55.43	292.32	14.22	-46.8	-57.7	3.8	7.44e-01	0	43	104	192937984	65	12437
2026-01-26 14:14:56.44	292.55	14.20	-47.3	-58.3	3.8	7.44e-01	0	43	104	192937984	66	12595
2026-01-26 14:14:57.44	292.79	14.18	-46.5	-57.3	3.8	7.46e-01	0	43	104	192937984	64	12549
2026-01-26 14:14:58.44	293.03	14.17	-46.4	-57.3	3.8	7.44e-01	0	43	104	192937984	64	12659
2026-01-26 14:14:59.45	293.27	14.15	-46.4	-57.4	3.9	7.45e-01	0	44	104	192937984	64	12759
2026-01-26 14:15:00.46	293.50	14.13	-46.4	-57.3	3.8	7.47e-01	0	43	104	192937984	64	12638
2026-01-26 14:15:01.46	293.74	14.12	-46.3	-57.1	3.8	7.45e-01	0	43	104	192937984	64	12371
2026-01-26 14:15:02.47	293.98	14.10	-51.7	-63.8	3.8	7.43e-01	0	43	104	192937984	73	15872
2026-01-26 14:15:03.48	294.21	14.08	-46.4	-57.4	3.9	7.42e-01	0	44	104	192937984	65	12036
2026-01-26 14:15:04.49	294.45	14.06	-46.6	-57.6	3.8	7.46e-01	0	43	104	192937984	65	12321
2026-01-26 14:15:05.50	294.69	14.04	-46.1	-57.0	3.9	7.44e-01	0	43	104	192937984	64	12106
2026-01-26 14:15:06.50	294.92	14.02	-46.0	-56.8	3.9	7.46e-01	0	43	104	192937984	63	12597
2026-01-26 14:15:07.51	295.16	14.00	-47.3	-58.5	3.8	7.46e-01	0	43	104	192937984	65	13689
2026-01-26 14:15:08.52	295.39	13.98	-47.4	-58.3	3.8	7.46e-01	0	44	104	192937984	66	12631
2026-01-26 14:15:09.52	295.62	13.96	-46.4	-57.4	3.8	7.47e-01	0	43	104	192937984	63	13512
2026-01-26 14:15:10.53	295.86	13.94	-50.8	-62.7	3.8	7.42e-01	0	43	104	192937984	73	13926
2026-01-26 14:15:11.54	296.09	13.91	-46.1	-57.0	3.8	7.45e-01	0	44	104	192937984	63	12832
2026-01-26 14:15:12.55	296.33	13.89	-46.5	-57.3	3.8	7.42e-01	0	43	104	192937984	65	11897
2026-01-26 14:15:13.55	296.56	13.87	-46.2	-57.0	3.8	7.46e-01	0	43	104	192937984	64	12153
2026-01-26 14:15:14.56	296.79	13.85	-46.2	-57.0	3.8	7.43e-01	0	44	104	192937984	63	12936
2026-01-26 14:15:15.57	297.02	13.82	-46.5	-57.4	3.8	7.44e-01	0	43	104	192937984	63	13462
2026-01-26 14:15:16.58	297.26	13.80	-46.6	-57.4	3.8	7.41e-01	0	43	104	192937984	64	12753
2026-01-26 14:15:17.58	297.49	13.77	-46.7	-57.6	3.8	7.45e-01	0	43	104	192937984	64	13034
2026-01-26 14:15:18.59	297.72	13.75	-52.7	-65.6	3.8	7.46e-01	0	43	104	192937984	75	17336
2026-01-26 14:15:19.60	297.95	13.72	-45.7	-56.5	3.9	7.44e-01	0	43	104	192937984	63	12214
2026-01-26 14:15:20.61	298.18	13.70	-46.0	-56.9	3.8	7.44e-01	0	43	104	192937984	64	12037
2026-01-26 14:15:21.62	298.41	13.67	-45.8	-56.6	3.8	7.48e-01	0	43	104	192937984	63	12322
2026-01-26 14:15:22.63	298.64	13.65	-45.7	-56.5	3.8	7.41e-01	0	43	104	192937984	63	12149
2026-01-26 14:15:23.64	298.87	13.62	-46.2	-57.1	3.8	7.43e-01	0	43	104	192937984	62	13801
2026-01-26 14:15:24.65	299.10	13.59	-46.7	-57.6	3.8	7.44e-01	0	43	104	192937984	63	13783
2026-01-26 14:15:25.65	299.32	13.57	-51.0	-63.0	3.8	7.47e-01	0	43	104	192937984	72	15365
2026-01-26 14:15:26.66	299.55	13.54	-49.4	-60.7	3.9	7.44e-01	0	43	104	192937984	70	13151
2026-01-26 14:15:27.67	299.78	13.51	-46.8	-57.6	3.8	7.46e-01	0	43	104	192937984	64	13055
2026-01-26 14:15:28.68	300.01	13.48	-46.5	-57.5	3.9	7.44e-01	0	43	104	192937984	65	12157
2026-01-26 14:15:29.68	300.23	13.45	-46.1	-57.1	3.8	7.44e-01	0	44	104	192937984	64	12310
2026-01-26 14:15:30.69	300.46	13.42	-46.1	-56.9	3.9	7.45e-01	0	44	104	192937984	63	12789
2026-01-26 14:15:31.70	300.68	13.39	-48.4	-59.6	3.8	7.45e-01	0	43	104	192937984	67	13742
2026-01-26 14:15:32.71	300.91	13.36	-47.2	-58.2	3.8	7.43e-01	0	43	104	192937984	65	13166
2026-01-26 14:15:33.72	301.13	13.33	-47.3	-58.5	3.8	7.44e-01	0	43	104	192937984	65	13606
2026-01-26 14:15:34.73	301.36	13.30	-53.5	-67.3	3.8	7.48e-01	0	44	104	192937984	77	18844
2026-01-26 14:15:35.73	301.58	13.27	-45.6	-56.3	3.8	7.47e-01	0	43	104	192937984	62	12555
2026-01-26 14:15:36.74	301.80	13.24	-45.6	-56.3	3.9	7.45e-01	0	43	104	192937984	63	11945
2026-01-26 14:15:37.74	302.02	13.21	-45.2	-55.9	3.8	7.48e-01	0	43	104	192937984	62	12081
2026-01-26 14:15:38.75	302.25	13.18	-45.3	-56.1	3.8	7.48e-01	0	43	104	192937984	62	12372
2026-01-26 14:15:39.76	302.47	13.15	-45.7	-56.6	3.8	7.47e-01	0	43	104	192937984	62	13009
2026-01-26 14:15:40.77	302.69	13.11	-46.9	-57.9	3.9	7.44e-01	0	43	104	192937984	64	13531
2026-01-26 14:15:41.77	302.91	13.08	-52.9	-66.4	3.8	7.44e-01	0	43	104	192937984	76	18090
2026-01-26 14:15:42.78	303.13	13.05	-48.9	-60.2	3.8	7.43e-01	0	43	104	192937984	69	13185
2026-01-26 14:15:43.79	303.35	13.02	-47.7	-58.8	3.9	7.46e-01	0	43	104	192937984	65	14048
2026-01-26 14:15:44.80	303.57	12.98	-46.4	-57.2	3.8	7.46e-01	0	43	104	192937984	64	12515
2026-01-26 14:15:45.81	303.79	12.95	-46.3	-57.2	3.9	7.47e-01	0	43	104	192937984	64	12378
2026-01-26 14:15:46.81	304.00	12.91	-45.9	-56.7	3.8	7.45e-01	0	43	104	192937984	63	12422
2026-01-26 14:15:47.82	304.22	12.88	-45.4	-56.2	3.8	7.46e-01	0	43	104	192937984	62	12477
2026-01-26 14:15:48.83	304.44	12.84	-48.0	-59.2	3.9	7.45e-01	0	43	104	192937984	66	13894
2026-01-26 14:15:49.84	304.65	12.81	-48.4	-59.6	3.8	7.42e-01	0	43	104	192937984	67	13829
2026-01-26 14:15:50.85	304.87	12.77	-54.2	-69.7	3.7	7.45e-01	0	43	104	192937984	78	23321
2026-01-26 14:15:51.86	305.08	12.74	-46.9	-57.8	3.8	7.45e-01	0	43	104	192937984	64	13271
2026-01-26 14:15:52.87	305.30	12.70	-45.6	-56.4	3.9	7.44e-01	0	43	104	192937984	63	12024
2026-01-26 14:15:53.87	305.51	12.67	-45.5	-56.3	3.8	7.44e-01	0	43	104	192937984	62	12603
2026-01-26 14:15:54.88	305.72	12.63	-45.4	-56.2	3.9	7.42e-01	0	43	104	192937984	62	12408
2026-01-26 14:15:55.89	305.94	12.59	-46.2	-57.0	3.8	7.45e-01	0	43	104	192937984	62	13677
2026-01-26 14:15:56.90	306.15	12.55	-47.0	-57.9	3.9	7.44e-01	0	43	104	192937984	64	13566
2026-01-26 14:15:57.91	306.36	12.52	-53.9	-68.6	3.7	7.47e-01	0	43	104	192937984	78	20724
2026-01-26 14:15:58.91	306.57	12.48	-48.4	-59.7	3.8	7.44e-01	0	43	104	192937984	68	13159
2026-01-26 14:15:59.92	306.78	12.44	-48.7	-60.4	3.9	7.47e-01	0	43	104	192937984	68	14256
2026-01-26 14:16:00.93	306.99	12.40	-46.4	-57.4	3.8	7.42e-01	0	43	104	192937984	64	12695
2026-01-26 14:16:01.93	307.20	12.36	-46.5	-57.5	3.9	7.41e-01	0	43	104	192937984	64	12861
2026-01-26 14:16:02.94	307.41	12.33	-46.0	-57.0	3.8	7.44e-01	0	44	104	192937984	63	12862
2026-01-26 14:16:03.95	307.62	12.29	-46.6	-57.5	3.8	7.41e-01	0	43	104	192937984	63	13644
2026-01-26 14:16:04.95	307.83	12.25	-49.4	-60.8	3.8	7.43e-01	0	43	104	192937984	69	14127
2026-01-26 14:16:05.96	308.03	12.21	-48.4	-59.6	3.9	7.43e-01	0	44	104	192937984	67	13875
2026-01-26 14:16:06.97	308.24	12.17	-54.3	-70.1	3.8	7.47e-01	0	43	104	192937984	79	23231
2026-01-26 14:16:07.97	308.44	12.13	-47.1	-58.1	3.8	7.43e-01	0	43	104	192937984	64	13728
2026-01-26 14:16:08.98	308.65	12.09	-45.4	-56.2	3.8	7.47e-01	0	43	104	192937984	62	12406
2026-01-26 14:16:09.99	308.86	12.05	-45.3	-56.1	3.8	7.45e-01	0	43	104	192937984	62	12310
2026-01-26 14:16:10.99	309.06	12.01	-45.3	-56.2	3.8	7.45e-01	0	43	104	192937984	62	12407
2026-01-26 14:16:12.00	309.26	11.97	-45.8	-56.7	3.8	7.42e-01	0	43	104	192937984	62	13132
2026-01-26 14:16:13.01	309.47	11.93	-47.3	-58.3	3.8	7.42e-01	0	43	104	192937984	65	13410
2026-01-26 14:16:14.02	309.67	11.88	-54.2	-69.9	3.7	7.41e-01	0	43	104	192937984	79	22741
2026-01-26 14:16:15.03	309.87	11.84	-48.2	-59.5	3.9	7.45e-01	0	43	104	192937984	68	12854
2026-01-26 14:16:16.04	310.07	11.80	-49.6	-61.2	3.8	7.46e-01	0	43	104	192937984	69	14805
2026-01-26 14:16:17.05	310.27	11.76	-46.5	-57.5	3.8	7.43e-01	0	43	104	192937984	65	12145
2026-01-26 14:16:18.05	310.47	11.72	-46.4	-57.2	3.8	7.45e-01	0	43	104	192937984	64	12501
2026-01-26 14:16:19.05	310.67	11.67	-46.0	-56.9	3.8	7.45e-01	0	43	104	192937984	64	12014
2026-01-26 14:16:20.06	310.87	11.63	-46.2	-57.1	3.8	7.46e-01	0	44	104	192937984	63	13106
2026-01-26 14:16:21.07	311.07	11.59	-47.0	-58.1	3.8	7.45e-01	0	43	104	192937984	65	13001
2026-01-26 14:16:22.08	311.26	11.54	-54.0	-69.6	3.8	7.45e-01	0	43	104	192937984	78	23265
2026-01-26 14:16:23.08	311.46	11.50	-48.0	-59.2	3.9	7.44e-01	0	43	104	192937984	67	13170
2026-01-26 14:16:24.09	311.66	11.46	-49.6	-61.2	3.8	7.46e-01	0	43	104	192937984	69	14743
2026-01-26 14:16:25.09	311.85	11.41	-46.5	-57.5	3.8	7.41e-01	0	43	104	192937984	65	12110
2026-01-26 14:16:26.10	312.05	11.37	-46.4	-57.3	3.8	7.42e-01	0	43	104	192937984	64	12553
2026-01-26 14:16:27.11	312.24	11.33	-46.1	-57.0	3.8	7.45e-01	0	43	104	192937984	64	12194
2026-01-26 14:16:28.11	312.43	11.28	-46.3	-57.3	3.8	7.45e-01	0	43	104	192937984	63	13287
2026-01-26 14:16:29.12	312.63	11.24	-49.5	-61.2	3.8	7.47e-01	0	43	104	192937984	69	14782
2026-01-26 14:16:30.13	312.82	11.19	-48.4	-59.8	3.9	7.44e-01	0	43	104	192937984	67	14088
2026-01-26 14:16:31.13	313.01	11.15	-54.0	-69.5	3.8	7.45e-01	0	44	104	192937984	78	22790
2026-01-26 14:16:32.14	313.20	11.10	-46.8	-57.8	3.8	7.44e-01	0	43	104	192937984	64	13387
2026-01-26 14:16:33.15	313.39	11.06	-45.4	-56.1	3.8	7.45e-01	0	43	104	192937984	62	12369
2026-01-26 14:16:34.16	313.58	11.01	-45.3	-56.1	3.8	7.46e-01	0	43	104	192937984	62	12244
2026-01-26 14:16:35.17	313.77	10.97	-45.4	-56.1	3.8	7.48e-01	0	43	104	192937984	62	12309
2026-01-26 14:16:36.18	313.96	10.92	-46.3	-57.3	3.9	7.41e-01	0	43	104	192937984	64	12557
2026-01-26 14:16:37.19	314.15	10.88	-46.1	-57.1	3.9	7.45e-01	0	43	104	192937984	64	12348
2026-01-26 14:16:38.20	314.34	10.83	-53.6	-68.4	3.9	7.42e-01	0	44	104	192937984	78	20102
2026-01-26 14:16:39.20	314.53	10.78	-47.6	-58.7	3.8	7.44e-01	0	43	104	192937984	67	12394
2026-01-26 14:16:40.21	314.71	10.74	-49.5	-61.1	3.8	7.45e-01	0	43	104	192937984	69	14621
2026-01-26 14:16:41.22	314.90	10.69	-46.8	-57.8	3.8	7.48e-01	0	43	104	192937984	65	12542
2026-01-26 14:16:42.23	315.08	10.64	-47.0	-58.1	3.8	7.46e-01	0	43	104	192937984	65	12991
2026-01-26 14:16:43.23	315.27	10.60	-46.2	-57.2	3.8	7.45e-01	0	43	104	192937984	64	12410
2026-01-26 14:16:44.24	315.45	10.55	-45.8	-56.7	3.8	7.43e-01	0	43	104	192937984	63	12488
2026-01-26 14:16:45.25	315.63	10.50	-48.0	-59.0	3.9	7.47e-01	0	43	104	192937984	67	12859
2026-01-26 14:16:46.25	315.82	10.46	-49.1	-60.6	3.9	7.43e-01	0	43	104	192937984	68	14591
2026-01-26 14:16:47.26	316.00	10.41	-51.2	-63.6	3.9	7.46e-01	0	43	104	192937984	74	14630
2026-01-26 14:16:48.27	316.18	10.36	-46.5	-57.5	3.8	7.48e-01	0	43	104	192937984	64	12827
2026-01-26 14:16:49.29	316.36	10.31	-45.5	-56.2	3.8	7.45e-01	0	43	104	192937984	62	12458
2026-01-26 14:16:50.29	316.54	10.27	-45.4	-56.2	3.8	7.43e-01	0	43	104	192937984	62	12433
2026-01-26 14:16:51.30	316.72	10.22	-45.5	-56.4	3.8	7.47e-01	0	44	104	192937984	62	12720
2026-01-26 14:16:52.31	316.90	10.17	-46.0	-57.0	3.9	7.44e-01	0	43	104	192937984	64	12095
2026-01-26 14:16:53.32	317.08	10.12	-45.7	-56.6	3.8	7.43e-01	0	43	104	192937984	63	12353
2026-01-26 14:16:54.32	317.26	10.07	-53.1	-67.5	3.9	7.41e-01	0	43	104	192937984	78	18239
2026-01-26 14:16:55.33	317.43	10.02	-47.1	-58.2	3.8	7.42e-01	0	43	104	192937984	66	12462
2026-01-26 14:16:56.34	317.61	9.98	-48.7	-60.2	3.9	7.46e-01	0	44	104	192937984	69	13137
2026-01-26 14:16:57.34	317.79	9.93	-46.8	-57.8	3.8	7.43e-01	0	43	104	192937984	65	12647
2026-01-26 14:16:58.35	317.96	9.88	-46.6	-57.5	3.8	7.44e-01	0	43	104	192937984	65	12183
2026-01-26 14:16:59.36	318.14	9.83	-47.0	-57.9	3.8	7.44e-01	0	43	104	192937984	65	12807
2026-01-26 14:17:00.36	318.31	9.78	-46.0	-56.9	3.9	7.45e-01	0	43	104	192937984	64	11981
2026-01-26 14:17:01.37	318.48	9.73	-45.8	-56.6	3.8	7.47e-01	0	43	104	192937984	63	12261
2026-01-26 14:17:02.38	318.66	9.68	-51.1	-63.6	3.9	7.43e-01	0	43	104	192937984	74	14614
2026-01-26 14:17:03.39	318.83	9.63	-45.6	-56.5	3.8	7.44e-01	0	43	104	192937984	63	12103
2026-01-26 14:17:04.40	319.00	9.58	-48.0	-59.4	3.8	7.44e-01	0	44	104	192937984	68	12675
2026-01-26 14:17:05.41	319.17	9.53	-46.3	-57.3	3.8	7.44e-01	0	43	104	192937984	64	12611
2026-01-26 14:17:06.41	319.34	9.49	-46.2	-57.2	3.8	7.46e-01	0	44	104	192937984	64	12408
2026-01-26 14:17:07.43	319.51	9.43	-45.7	-56.6	3.8	7.45e-01	0	43	104	192937984	63	12356
2026-01-26 14:17:08.43	319.68	9.39	-45.9	-56.8	3.8	7.45e-01	0	43	104	192937984	63	12593
2026-01-26 14:17:09.44	319.85	9.34	-47.1	-58.1	3.8	7.44e-01	0	43	104	192937984	64	13749
2026-01-26 14:17:10.45	320.02	9.29	-51.1	-63.5	3.9	7.44e-01	0	44	104	192937984	74	14434
2026-01-26 14:17:11.46	320.18	9.24	-46.9	-57.8	3.8	7.45e-01	0	43	104	192937984	65	12624
2026-01-26 14:17:12.47	320.35	9.19	-48.2	-59.4	3.9	7.44e-01	0	43	104	192937984	68	12775
2026-01-26 14:17:13.47	320.52	9.14	-47.1	-58.1	3.8	7.44e-01	0	43	104	192937984	66	12316
2026-01-26 14:17:14.48	320.68	9.08	-46.5	-57.5	3.8	7.44e-01	0	43	104	192937984	65	12159
2026-01-26 14:17:15.49	320.85	9.03	-46.1	-57.0	3.8	7.46e-01	0	43	104	192937984	64	12213
2026-01-26 14:17:16.50	321.01	8.98	-45.8	-56.7	3.8	7.43e-01	0	43	104	192937984	63	12499
2026-01-26 14:17:17.51	321.18	8.93	-47.8	-58.8	3.8	7.42e-01	0	43	104	192937984	65	14190
2026-01-26 14:17:18.51	321.34	8.88	-49.8	-61.6	3.9	7.43e-01	0	43	104	192937984	71	13743
2026-01-26 14:17:19.52	321.50	8.83	-46.0	-56.9	3.8	7.45e-01	0	43	104	192937984	63	12684
2026-01-26 14:17:20.53	321.66	8.78	-47.6	-58.8	3.8	7.44e-01	0	43	104	192937984	67	12571
2026-01-26 14:17:21.54	321.83	8.73	-46.2	-57.1	3.8	7.45e-01	0	43	104	192937984	64	12365
2026-01-26 14:17:22.54	321.98	8.68	-45.9	-56.8	3.8	7.45e-01	0	43	104	192937984	63	12618
2026-01-26 14:17:23.55	322.15	8.63	-46.4	-57.3	3.8	7.45e-01	0	43	104	192937984	63	13382
2026-01-26 14:17:24.56	322.31	8.58	-45.8	-56.7	3.8	7.45e-01	0	43	104	192937984	63	12433
2026-01-26 14:17:25.57	322.46	8.53	-50.3	-62.1	3.8	7.48e-01	0	43	104	192937984	70	15463
2026-01-26 14:17:26.57	322.62	8.48	-48.8	-60.2	3.8	7.42e-01	0	43	104	192937984	69	13118
2026-01-26 14:17:27.58	322.78	8.42	-46.5	-57.5	3.8	7.43e-01	0	43	104	192937984	63	13648
2026-01-26 14:17:28.59	322.94	8.37	-47.1	-58.2	3.8	7.44e-01	0	43	104	192937984	66	12440
2026-01-26 14:17:29.59	323.09	8.32	-46.5	-57.5	3.8	7.46e-01	0	43	104	192937984	65	12197
2026-01-26 14:17:30.60	323.25	8.27	-46.4	-57.4	3.8	7.45e-01	0	44	104	192937984	64	12702
2026-01-26 14:17:31.61	323.41	8.22	-46.0	-56.8	3.8	7.43e-01	0	43	104	192937984	63	12572
2026-01-26 14:17:32.61	323.56	8.17	-46.0	-56.9	3.8	7.45e-01	0	43	104	192937984	63	12705
2026-01-26 14:17:33.62	323.71	8.12	-50.2	-61.9	3.8	7.42e-01	0	43	104	192937984	70	15078
2026-01-26 14:17:34.63	323.87	8.06	-49.0	-60.4	3.8	7.43e-01	0	44	104	192937984	70	12781
2026-01-26 14:17:35.64	324.02	8.01	-46.6	-57.4	3.8	7.45e-01	0	44	104	192937984	64	12807
2026-01-26 14:17:36.64	324.17	7.96	-46.8	-57.8	3.8	7.43e-01	0	43	104	192937984	65	12605
2026-01-26 14:17:37.65	324.33	7.91	-46.3	-57.2	3.8	7.43e-01	0	44	104	192937984	64	12500
2026-01-26 14:17:38.66	324.48	7.86	-46.2	-57.3	3.8	7.44e-01	0	43	104	192937984	64	12525
2026-01-26 14:17:39.67	324.63	7.81	-46.4	-57.4	3.8	7.48e-01	0	44	104	192937984	64	12808
2026-01-26 14:17:40.67	324.78	7.75	-46.3	-57.3	3.8	7.45e-01	0	44	104	192937984	63	13281
2026-01-26 14:17:41.68	324.93	7.70	-52.7	-66.4	3.8	7.44e-01	0	43	104	192937984	75	19074
2026-01-26 14:17:42.69	325.08	7.65	-48.6	-60.2	3.8	7.43e-01	0	44	104	192937984	69	13171
2026-01-26 14:17:43.69	325.22	7.60	-47.6	-58.8	3.8	7.45e-01	0	44	104	192937984	65	14077
2026-01-26 14:17:44.70	325.37	7.55	-46.9	-58.0	3.8	7.42e-01	0	44	104	192937984	65	12927
2026-01-26 14:17:45.71	325.52	7.49	-47.0	-58.1	3.8	7.40e-01	0	43	104	192937984	65	12982
2026-01-26 14:17:46.72	325.67	7.44	-46.8	-57.9	3.9	7.44e-01	0	43	104	192937984	65	12714
2026-01-26 14:17:47.73	325.82	7.39	-46.5	-57.6	3.8	7.42e-01	0	43	104	192937984	64	12979
2026-01-26 14:17:48.73	325.96	7.34	-46.3	-57.3	3.8	7.43e-01	0	43	104	192937984	63	13274
2026-01-26 14:17:49.74	326.11	7.29	-52.9	-67.1	3.8	7.47e-01	0	44	104	192937984	76	19554
2026-01-26 14:17:50.75	326.25	7.23	-48.4	-59.5	3.8	7.43e-01	0	43	104	192937984	68	12908
2026-01-26 14:17:51.75	326.39	7.18	-48.4	-59.7	3.8	7.44e-01	0	43	104	192937984	67	13940
2026-01-26 14:17:52.75	326.54	7.13	-46.8	-57.7	3.8	7.44e-01	0	44	104	192937984	65	12498
2026-01-26 14:17:53.76	326.68	7.08	-46.7	-57.6	3.8	7.47e-01	0	43	104	192937984	65	12341
2026-01-26 14:17:54.77	326.82	7.03	-46.7	-57.6	3.8	7.45e-01	0	44	104	192937984	65	12324
2026-01-26 14:17:55.78	326.97	6.97	-47.1	-58.1	3.8	7.43e-01	0	44	104	192937984	64	13882
2026-01-26 14:17:56.79	327.11	6.92	-46.5	-57.4	3.8	7.44e-01	0	43	104	192937984	64	12797
2026-01-26 14:17:57.80	327.25	6.87	-53.7	-69.8	3.8	7.48e-01	0	44	104	192937984	77	25057
2026-01-26 14:17:58.81	327.39	6.82	-48.6	-60.1	3.8	7.42e-01	0	43	104	192937984	69	12996
2026-01-26 14:17:59.81	327.53	6.76	-48.7	-60.2	3.8	7.45e-01	0	43	104	192937984	67	14792
2026-01-26 14:18:00.82	327.67	6.71	-47.1	-58.3	3.8	7.42e-01	0	44	104	192937984	66	12594
2026-01-26 14:18:01.83	327.81	6.66	-46.8	-58.0	3.8	7.45e-01	0	44	104	192937984	65	12838
2026-01-26 14:18:02.84	327.95	6.61	-46.5	-57.6	3.8	7.46e-01	0	43	104	192937984	65	12343
2026-01-26 14:18:03.84	328.08	6.56	-47.1	-58.2	3.8	7.48e-01	0	44	104	192937984	64	13992
2026-01-26 14:18:04.85	328.22	6.50	-46.7	-57.8	3.8	7.45e-01	0	44	104	192937984	64	13361
2026-01-26 14:18:05.86	328.36	6.45	-53.9	-70.9	3.8	7.45e-01	0	43	104	192937984	78	26784
2026-01-26 14:18:06.86	328.49	6.40	-48.7	-60.2	3.8	7.45e-01	0	43	104	192937984	69	13116
2026-01-26 14:18:07.87	328.63	6.35	-49.2	-60.8	3.9	7.46e-01	0	43	104	192937984	68	14956
2026-01-26 14:18:08.87	328.76	6.29	-47.2	-58.3	3.8	7.44e-01	0	43	104	192937984	66	12556
2026-01-26 14:18:09.89	328.90	6.24	-46.8	-57.9	3.8	7.46e-01	0	43	104	192937984	65	12737
2026-01-26 14:18:10.90	329.04	6.19	-46.8	-57.8	3.8	7.45e-01	0	44	104	192937984	65	12643
2026-01-26 14:18:11.91	329.17	6.14	-46.8	-57.9	3.8	7.42e-01	0	43	104	192937984	64	13418
2026-01-26 14:18:12.91	329.30	6.08	-46.7	-57.8	3.8	7.45e-01	0	43	104	192937984	64	13284
2026-01-26 14:18:13.92	329.43	6.03	-53.8	-70.3	3.9	7.44e-01	0	43	104	192937984	78	25217
2026-01-26 14:18:14.93	329.57	5.98	-48.9	-60.5	3.7	7.46e-01	0	44	104	192937984	69	13684
2026-01-26 14:18:15.94	329.70	5.93	-49.8	-62.0	3.8	7.44e-01	0	43	104	192937984	70	15240
2026-01-26 14:18:16.95	329.83	5.87	-47.2	-58.4	3.9	7.44e-01	0	43	104	192937984	66	12754
2026-01-26 14:18:17.96	329.96	5.82	-47.2	-48.9	21.2	6.04e-01	0	43	0	193462272	66	4259
2026-01-26 14:18:18.97	330.09	5.77	-47.0	-48.7	21.8	6.03e-01	0	43	0	195035136	65	4402
2026-01-26 14:18:19.97	330.22	5.72	-47.3	-49.0	21.5	6.05e-01	0	43	0	197132288	65	4582
2026-01-26 14:18:20.98	330.35	5.66	-46.6	-48.2	22.2	6.05e-01	0	43	0	198705152	65	4161
2026-01-26 14:18:21.99	330.48	5.61	-46.2	-47.7	22.6	6.02e-01	0	43	0	200802304	64	4186
2026-01-26 14:18:22.99	330.61	5.56	-46.3	-47.8	22.6	6.01e-01	0	43	0	202899456	64	4233
2026-01-26 14:18:24.00	330.74	5.51	-46.3	-47.8	22.5	6.03e-01	0	43	0	204472320	64	4237
2026-01-26 14:18:25.00	330.86	5.45	-46.2	-47.8	22.6	6.03e-01	0	43	0	206569472	64	4204
2026-01-26 14:18:26.01	330.99	5.40	-46.2	-47.8	22.7	6.03e-01	0	43	0	208142336	64	4200
2026-01-26 14:18:27.02	331.12	5.35	-45.9	-47.4	23.0	6.04e-01	0	43	0	210239488	63	4281
2026-01-26 14:18:28.02	331.24	5.30	-46.0	-47.5	22.9	6.04e-01	0	43	0	211812352	63	4323
2026-01-26 14:18:29.03	331.37	5.24	-46.3	-47.8	22.6	6.03e-01	0	43	0	213909504	63	4480
2026-01-26 14:18:30.04	331.49	5.19	-46.6	-48.2	22.3	6.03e-01	0	43	0	216006656	63	4670
2026-01-26 14:18:31.04	331.62	5.14	-46.4	-48.0	22.5	6.03e-01	0	43	0	218103808	63	4568
2026-01-26 14:18:32.05	331.74	5.09	-46.3	-47.9	22.6	6.07e-01	0	43	0	219676672	63	4501
2026-01-26 14:18:33.05	331.86	5.04	-46.5	-48.1	22.3	6.02e-01	0	43	0	221773824	63	4640
2026-01-26 14:18:34.06	331.99	4.98	-54.1	-70.8	3.9	7.48e-01	0	43	104	222822400	78	26568
2026-01-26 14:18:35.07	332.11	4.93	-54.5	-72.3	3.8	7.47e-01	0	43	104	222822400	79	29986
2026-01-26 14:18:36.07	332.23	4.88	-54.7	-72.5	3.8	7.47e-01	0	44	104	222822400	80	28830
2026-01-26 14:18:37.08	332.35	4.83	-54.8	-72.6	3.8	7.42e-01	0	44	104	222822400	80	29315
2026-01-26 14:18:38.08	332.47	4.78	-54.9	-72.7	3.8	7.43e-01	0	44	104	222822400	80	29494
2026-01-26 14:18:39.09	332.59	4.72	-55.0	-72.8	3.8	7.45e-01	0	43	104	222822400	80	29968
2026-01-26 14:18:40.10	332.72	4.67	-55.1	-72.9	3.8	7.43e-01	0	43	104	222822400	80	30126
2026-01-26 14:18:41.11	332.84	4.62	-55.1	-72.9	3.8	7.45e-01	0	43	104	222822400	80	30161
2026-01-26 14:18:42.12	332.96	4.57	-55.0	-72.9	3.8	7.44e-01	0	44	104	222822400	80	30170
2026-01-26 14:18:43.13	333.07	4.51	-55.0	-72.9	3.8	7.42e-01	0	44	104	222822400	80	30078
2026-01-26 14:18:44.13	333.19	4.46	-54.9	-72.8	3.8	7.47e-01	0	44	104	222822400	80	29839
2026-01-26 14:18:45.14	333.31	4.41	-54.8	-72.7	3.8	7.46e-01	0	44	104	222822400	80	29478
2026-01-26 14:18:46.14	333.43	4.36	-54.8	-72.7	3.8	7.47e-01	0	43	104	222822400	80	29525
2026-01-26 14:18:47.15	333.55	4.31	-54.9	-72.8	3.8	7.45e-01	0	44	104	222822400	80	29706
2026-01-26 14:18:48.16	333.66	4.25	-54.9	-72.8	3.8	7.44e-01	0	43	104	222822400	80	29745
2026-01-26 14:18:49.17	333.78	4.20	-55.0	-72.8	3.8	7.43e-01	0	44	104	222822400	80	29895
2026-01-26 14:18:50.18	333.90	4.15	-55.0	-72.9	3.8	7.46e-01	0	44	104	222822400	80	30046
2026-01-26 14:18:51.19	334.01	4.10	-55.0	-72.8	3.8	7.46e-01	0	44	104	222822400	80	29952
2026-01-26 14:18:52.20	334.13	4.05	-55.1	-72.9	3.8	7.46e-01	0	43	104	222822400	80	30303
2026-01-26 14:18:53.21	334.24	3.99	-55.1	-72.9	3.8	7.43e-01	0	44	104	222822400	80	30317
2026-01-26 14:18:54.21	334.36	3.94	-55.1	-72.9	3.8	7.48e-01	0	43	104	222822400	80	30303
2026-01-26 14:18:55.22	334.47	3.89	-55.1	-72.9	3.8	7.45e-01	0	43	104	222822400	80	30306
2026-01-26 14:18:56.23	334.58	3.84	-55.1	-72.9	3.8	7.44e-01	0	44	104	222822400	80	30050
2026-01-26 14:18:57.24	334.70	3.79	-55.0	-72.9	3.8	7.47e-01	0	43	104	222822400	80	30146
2026-01-26 14:18:58.25	334.81	3.73	-55.0	-72.9	3.8	7.46e-01	0	43	104	222822400	80	30038
2026-01-26 14:18:59.25	334.92	3.68	-55.0	-72.8	3.8	7.45e-01	0	44	104	222822400	80	29959
2026-01-26 14:19:00.26	335.03	3.63	-55.0	-72.8	3.8	7.47e-01	0	44	104	222822400	80	29967
2026-01-26 14:19:01.26	335.14	3.58	-55.0	-72.8	3.8	7.45e-01	0	43	104	222822400	80	29973
2026-01-26 14:19:02.26	335.25	3.53	-55.0	-72.8	3.8	7.44e-01	0	43	104	222822400	80	29978
2026-01-26 14:19:03.27	335.36	3.48	-55.0	-72.8	3.8	7.45e-01	0	44	104	222822400	80	29967
2026-01-26 14:19:04.27	335.47	3.42	-55.0	-72.8	3.8	7.44e-01	0	44	104	222822400	80	29993
2026-01-26 14:19:05.28	335.58	3.37	-55.0	-72.8	3.8	7.45e-01	0	44	104	222822400	80	29907
2026-01-26 14:19:06.29	335.69	3.32	-55.0	-72.8	3.8	7.43e-01	0	44	104	222822400	80	29829
2026-01-26 14:19:07.30	335.80	3.27	-55.0	-72.8	3.8	7.45e-01	0	43	104	222822400	80	29848
2026-01-26 14:19:08.31	335.91	3.22	-55.0	-72.8	3.8	7.45e-01	0	44	104	222822400	80	29859
2026-01-26 14:19:09.31	336.02	3.17	-55.0	-72.8	3.8	7.43e-01	0	44	104	222822400	80	29820
2026-01-26 14:19:10.33	336.13	3.11	-55.0	-72.8	3.8	7.46e-01	0	43	104	222822400	80	29789
2026-01-26 14:19:11.33	336.23	3.06	-55.0	-72.8	3.8	7.50e-01	0	44	104	222822400	80	29860
2026-01-26 14:19:12.34	336.34	3.01	-55.0	-72.8	3.8	7.44e-01	0	44	104	222822400	80	29810
2026-01-26 14:19:13.34	336.45	2.96	-54.9	-72.8	3.8	7.44e-01	0	43	104	222822400	80	29743
2026-01-26 14:19:14.35	336.55	2.91	-54.9	-72.8	3.8	7.45e-01	0	43	104	222822400	80	29809
2026-01-26 14:19:15.36	336.66	2.86	-54.9	-72.8	3.8	7.43e-01	0	43	104	222822400	80	29800
2026-01-26 14:19:16.37	336.77	2.81	-54.9	-72.8	3.8	7.44e-01	0	44	104	222822400	80	29830
2026-01-26 14:19:17.38	336.87	2.76	-54.9	-72.8	3.8	7.42e-01	0	44	104	222822400	80	29796
2026-01-26 14:19:18.39	336.98	2.70	-54.9	-72.8	3.8	7.45e-01	0	44	104	222822400	80	29750
2026-01-26 14:19:19.40	337.08	2.65	-54.9	-72.8	3.8	7.43e-01	0	44	104	222822400	80	29766
2026-01-26 14:19:20.41	337.18	2.60	-54.9	-72.8	3.8	7.44e-01	0	43	104	222822400	80	29733
2026-01-26 14:19:21.41	337.29	2.55	-54.9	-72.7	3.8	7.48e-01	0	43	104	222822400	80	29682
2026-01-26 14:19:22.42	337.39	2.50	-54.9	-72.7	3.8	7.47e-01	0	43	104	222822400	80	29657
2026-01-26 14:19:23.43	337.49	2.45	-54.9	-72.8	3.8	7.46e-01	0	44	104	222822400	80	29724
2026-01-26 14:19:24.44	337.60	2.40	-54.9	-72.8	3.8	7.45e-01	0	44	104	222822400	80	29741
2026-01-26 14:19:25.45	337.70	2.35	-54.9	-72.7	3.8	7.47e-01	0	43	104	222822400	80	29642
2026-01-26 14:19:26.46	337.80	2.30	-54.9	-72.8	3.8	7.45e-01	0	44	104	222822400	80	29709
2026-01-26 14:19:27.47	337.90	2.24	-54.9	-72.7	3.8	7.43e-01	0	44	104	222822400	80	29677
2026-01-26 14:19:28.47	338.00	2.19	-54.9	-72.7	3.8	7.41e-01	0	44	104	222822400	80	29658
2026-01-26 14:19:29.48	338.10	2.14	-54.9	-72.7	3.8	7.46e-01	0	44	104	222822400	80	29587
2026-01-26 14:19:30.49	338.20	2.09	-54.9	-72.8	3.8	7.47e-01	0	43	104	222822400	80	29693
2026-01-26 14:19:31.50	338.30	2.04	-54.9	-72.8	3.8	7.44e-01	0	43	104	222822400	80	29715
2026-01-26 14:19:32.51	338.40	1.99	-54.9	-72.7	3.8	7.43e-01	0	44	104	222822400	80	29680
2026-01-26 14:19:33.51	338.50	1.94	-54.9	-72.7	3.8	7.45e-01	0	43	104	222822400	80	29624
2026-01-26 14:19:34.52	338.60	1.89	-54.9	-72.7	3.8	7.46e-01	0	44	104	222822400	80	29682

#Closed at: 2026-01-26 14:19:34
#Recorded file [222 MB]: D:/lorett/data/31041_260126_170911.dat