passes_logs/2026/01/26/R3.2S_Murmansk/R3.2S_Murmansk__20260126_071337_NOAA_21_JPSS-2_rec.log

#Pass ID: 20260126_071337_NOAA 21 (JPSS-2)
#Satellite: NOAA 21 (JPSS-2)
#Configuration: NOAA-21
#almurnet v.1.7.20251203
#Start time: 2026-01-26 07:15:06

#Version: 2.2.20231116
#Station: R3.2S_Murmansk
#Location: 33.079688 lon 68.888172 lat
#TLE: 1 54234U 22150A   26025.93791214  .00000195  00000+0  11336-3 0  9990
#TLE: 2 54234  98.7509 326.7059 0000782 212.3040 147.8088 14.19539484166365

#Time	Az	El	Level	Level2	SNR	BER	BlckErr	Temp	State	Recorded	gain1	gain2
2026-01-26 07:15:06.20	94.45	7.84	-53.1	-65.0	3.8	8.47e-01	0	42	0	0	77	14484
2026-01-26 07:15:07.20	94.38	7.92	-54.0	-66.8	3.8	1.49e+00	0	43	104	0	78	16716
2026-01-26 07:15:08.21	94.31	7.99	-54.0	-66.8	3.8	1.49e+00	0	43	104	0	78	16780
2026-01-26 07:15:09.21	94.24	8.06	-54.1	-66.8	3.8	1.49e+00	0	44	104	0	78	16844
2026-01-26 07:15:10.22	94.16	8.13	-54.1	-66.9	3.8	1.49e+00	0	44	104	0	78	16943
2026-01-26 07:15:11.22	94.09	8.21	-54.2	-66.9	3.8	1.49e+00	0	43	104	0	78	17003
2026-01-26 07:15:12.23	94.01	8.28	-54.2	-66.9	3.8	1.49e+00	0	43	104	0	78	17080
2026-01-26 07:15:13.23	93.94	8.35	-54.2	-67.0	3.8	1.49e+00	0	44	104	0	78	17106
2026-01-26 07:15:14.24	93.86	8.43	-54.2	-67.0	3.8	1.49e+00	0	44	104	0	78	17123
2026-01-26 07:15:15.25	93.79	8.50	-54.2	-67.0	3.8	1.49e+00	0	43	104	0	79	16253
2026-01-26 07:15:16.26	93.71	8.58	-54.3	-67.0	3.8	1.49e+00	0	43	104	0	79	16282
2026-01-26 07:15:17.27	93.63	8.65	-54.3	-67.0	3.8	1.49e+00	0	44	104	0	79	16287
2026-01-26 07:15:18.27	93.56	8.72	-54.3	-67.0	3.8	1.49e+00	0	44	104	0	79	16305
2026-01-26 07:15:19.28	93.48	8.80	-54.3	-67.1	3.8	1.49e+00	0	44	104	0	79	16325
2026-01-26 07:15:20.29	93.40	8.87	-54.3	-67.1	3.8	1.49e+00	0	43	104	0	79	16335
2026-01-26 07:15:21.29	93.32	8.95	-54.3	-67.1	3.8	1.49e+00	0	44	104	0	79	16432
2026-01-26 07:15:22.30	93.25	9.02	-54.3	-67.1	3.8	1.49e+00	0	44	104	0	79	16376
2026-01-26 07:15:23.31	93.17	9.10	-54.3	-67.1	3.8	1.49e+00	0	44	104	0	79	16351
2026-01-26 07:15:24.31	93.09	9.17	-54.3	-67.1	3.8	1.49e+00	0	44	104	0	79	16343
2026-01-26 07:15:25.32	93.01	9.25	-54.3	-67.0	3.8	1.49e+00	0	44	104	0	79	16304
2026-01-26 07:15:26.32	92.93	9.32	-54.2	-67.0	3.8	1.49e+00	0	44	104	0	79	16222
2026-01-26 07:15:27.33	92.85	9.40	-54.3	-67.0	3.8	1.49e+00	0	43	104	0	79	16234
2026-01-26 07:15:28.33	92.77	9.48	-54.2	-67.0	3.8	1.49e+00	0	43	104	0	79	16219
2026-01-26 07:15:29.34	92.68	9.55	-54.2	-67.0	3.8	1.49e+00	0	43	104	0	79	16219
2026-01-26 07:15:30.35	92.60	9.63	-54.2	-67.0	3.8	1.49e+00	0	44	104	0	79	16244
2026-01-26 07:15:31.36	92.52	9.70	-54.2	-67.0	3.8	1.49e+00	0	44	104	0	79	16252
2026-01-26 07:15:32.37	92.44	9.78	-54.2	-67.0	3.8	1.49e+00	0	44	104	0	79	16166
2026-01-26 07:15:33.37	92.35	9.86	-54.2	-66.9	3.8	1.49e+00	0	44	104	0	79	16122
2026-01-26 07:15:34.38	92.27	9.94	-54.1	-66.9	3.8	1.49e+00	0	44	104	0	79	16053
2026-01-26 07:15:35.39	92.18	10.01	-54.1	-66.9	3.8	1.49e+00	0	43	104	0	79	16033
2026-01-26 07:15:36.40	92.10	10.09	-54.1	-66.9	3.8	1.49e+00	0	44	104	0	79	16011
2026-01-26 07:15:37.41	92.01	10.17	-54.1	-66.9	3.8	1.49e+00	0	44	104	0	79	16015
2026-01-26 07:15:38.42	91.93	10.25	-54.2	-66.9	3.8	1.49e+00	0	43	104	0	79	16113
2026-01-26 07:15:39.43	91.84	10.32	-54.2	-66.9	3.8	1.49e+00	0	44	104	0	79	16073
2026-01-26 07:15:40.43	91.76	10.40	-54.2	-66.9	3.8	1.49e+00	0	44	104	0	79	16106
2026-01-26 07:15:41.44	91.67	10.48	-54.2	-66.9	3.8	1.49e+00	0	44	104	0	79	16106
2026-01-26 07:15:42.45	91.58	10.56	-54.2	-66.9	3.8	1.49e+00	0	44	104	0	79	16071
2026-01-26 07:15:43.46	91.49	10.64	-54.2	-66.9	3.8	1.49e+00	0	44	104	0	79	16081
2026-01-26 07:15:44.47	91.40	10.72	-54.1	-66.9	3.8	1.49e+00	0	44	104	0	79	16071
2026-01-26 07:15:45.48	91.31	10.80	-54.2	-66.9	3.8	1.49e+00	0	44	104	0	79	16080
2026-01-26 07:15:46.49	91.22	10.88	-54.1	-66.9	3.8	1.49e+00	0	44	104	0	79	16033
2026-01-26 07:15:47.49	91.13	10.96	-54.1	-66.9	3.8	1.49e+00	0	44	104	0	79	15959
2026-01-26 07:15:48.50	91.04	11.04	-54.1	-66.8	3.8	1.49e+00	0	44	104	0	79	15922
2026-01-26 07:15:49.50	90.95	11.11	-54.1	-66.8	3.8	1.49e+00	0	44	104	0	79	15894
2026-01-26 07:15:50.51	90.86	11.19	-54.1	-66.8	3.8	1.49e+00	0	44	104	0	79	15863
2026-01-26 07:15:51.52	90.77	11.28	-54.1	-66.8	3.8	1.49e+00	0	43	104	0	79	15858
2026-01-26 07:15:52.53	90.68	11.36	-54.1	-66.8	3.8	1.49e+00	0	44	104	0	79	15919
2026-01-26 07:15:53.54	90.58	11.44	-54.1	-66.8	3.8	1.49e+00	0	44	104	0	79	15909
2026-01-26 07:15:54.54	90.49	11.52	-54.1	-66.8	3.8	1.49e+00	0	44	104	0	79	15905
2026-01-26 07:15:55.56	90.39	11.60	-54.1	-66.8	3.8	1.49e+00	0	44	104	0	79	15936
2026-01-26 07:15:56.57	90.30	11.68	-54.1	-66.8	3.8	1.49e+00	0	44	104	0	79	15856
2026-01-26 07:15:57.57	90.20	11.76	-54.0	-66.8	3.8	1.49e+00	0	44	104	0	79	15867
2026-01-26 07:15:58.58	90.11	11.84	-54.1	-66.8	3.8	1.49e+00	0	44	104	0	79	15871
2026-01-26 07:15:59.59	90.01	11.92	-54.0	-66.8	3.8	1.49e+00	0	43	104	0	79	15869
2026-01-26 07:16:00.59	89.91	12.01	-54.0	-66.8	3.8	1.49e+00	0	43	104	0	79	15866
2026-01-26 07:16:01.60	89.82	12.09	-54.0	-66.8	3.8	1.49e+00	0	44	104	0	79	15795
2026-01-26 07:16:02.61	89.72	12.17	-54.0	-66.8	3.8	1.49e+00	0	44	104	0	79	15832
2026-01-26 07:16:03.62	89.62	12.25	-54.0	-66.8	3.8	1.49e+00	0	44	104	0	79	15819
2026-01-26 07:16:04.62	89.52	12.34	-54.0	-66.8	3.8	1.49e+00	0	44	104	0	79	15801
2026-01-26 07:16:05.63	89.42	12.42	-54.0	-66.8	3.8	1.49e+00	0	44	104	0	79	15829
2026-01-26 07:16:06.64	89.32	12.50	-54.0	-66.8	3.8	1.49e+00	0	44	104	0	79	15791
2026-01-26 07:16:07.65	89.22	12.59	-54.0	-66.8	3.8	1.49e+00	0	44	104	0	79	15768
2026-01-26 07:16:08.66	89.12	12.67	-54.0	-66.8	3.8	1.49e+00	0	44	104	0	79	15829
2026-01-26 07:16:09.67	89.01	12.75	-54.0	-66.8	3.8	1.49e+00	0	44	104	0	79	15787
2026-01-26 07:16:10.67	88.91	12.84	-54.0	-66.8	3.8	1.49e+00	0	44	104	0	79	15783
2026-01-26 07:16:11.68	88.81	12.92	-54.0	-66.8	3.8	1.49e+00	0	44	104	0	79	15804
2026-01-26 07:16:12.68	88.71	13.00	-54.0	-66.7	3.8	1.49e+00	0	44	104	0	79	15757
2026-01-26 07:16:13.69	88.60	13.09	-54.0	-66.8	3.8	1.49e+00	0	43	104	0	79	15786
2026-01-26 07:16:14.70	88.49	13.17	-54.1	-66.9	3.8	1.49e+00	0	43	104	0	79	15981
2026-01-26 07:16:15.71	88.39	13.26	-54.2	-67.0	3.8	1.49e+00	0	43	104	0	79	16128
2026-01-26 07:16:16.71	88.28	13.34	-54.2	-67.0	3.8	1.49e+00	0	43	104	0	79	16173
2026-01-26 07:16:17.72	88.18	13.43	-54.2	-67.0	3.8	1.49e+00	0	43	104	0	79	16190
2026-01-26 07:16:18.72	88.07	13.51	-54.2	-66.9	3.8	1.49e+00	0	44	104	0	79	16124
2026-01-26 07:16:19.73	87.96	13.60	-54.2	-66.9	3.8	1.49e+00	0	44	104	0	79	16125
2026-01-26 07:16:20.74	87.85	13.69	-54.1	-66.9	3.8	1.49e+00	0	44	104	0	79	16034
2026-01-26 07:16:21.75	87.74	13.77	-54.1	-66.9	3.8	1.49e+00	0	43	104	0	79	15969
2026-01-26 07:16:22.76	87.63	13.86	-54.1	-66.8	3.8	1.49e+00	0	44	104	0	79	15889
2026-01-26 07:16:23.77	87.52	13.95	-54.0	-66.8	3.8	1.49e+00	0	44	104	0	79	15806
2026-01-26 07:16:24.78	87.41	14.03	-53.9	-66.7	3.8	1.49e+00	0	43	104	0	79	15679
2026-01-26 07:16:25.78	87.29	14.12	-53.8	-66.6	3.8	1.49e+00	0	44	104	0	79	15495
2026-01-26 07:16:26.79	87.18	14.21	-53.8	-66.6	3.8	1.49e+00	0	44	104	0	79	15440
2026-01-26 07:16:27.79	87.07	14.29	-53.7	-66.5	3.8	1.49e+00	0	43	104	0	79	15265
2026-01-26 07:16:28.80	86.95	14.38	-53.7	-66.4	3.8	1.49e+00	0	44	104	0	79	15103
2026-01-26 07:16:29.80	86.84	14.47	-53.5	-66.3	3.8	1.49e+00	0	44	104	0	79	14964
2026-01-26 07:16:30.81	86.72	14.55	-53.5	-66.2	3.8	1.49e+00	0	43	104	0	79	14868
2026-01-26 07:16:31.82	86.61	14.64	-53.4	-66.2	3.8	1.49e+00	0	43	104	0	78	15606
2026-01-26 07:16:32.83	86.49	14.73	-53.4	-66.1	3.8	1.49e+00	0	44	104	0	78	15436
2026-01-26 07:16:33.83	86.37	14.82	-53.3	-66.0	3.8	1.49e+00	0	43	104	0	78	15368
2026-01-26 07:16:34.84	86.25	14.91	-53.2	-65.9	3.8	1.49e+00	0	44	104	0	78	15150
2026-01-26 07:16:35.85	86.13	15.00	-53.1	-65.8	3.8	1.49e+00	0	44	104	0	78	14906
2026-01-26 07:16:36.85	86.01	15.08	-45.7	-47.0	17.5	0.00e+00	0	44	0	1048576	63	4055
2026-01-26 07:16:37.86	85.89	15.17	-51.1	-55.6	9.0	5.09e-03	0	43	0	3145728	72	6536
2026-01-26 07:16:38.87	85.77	15.26	-47.4	-49.2	15.4	6.58e-04	0	43	0	6291456	66	4412
2026-01-26 07:16:39.88	85.65	15.35	-49.0	-51.5	13.4	0.00e+00	0	44	0	9437184	68	5117
2026-01-26 07:16:40.88	85.53	15.44	-43.3	-44.2	20.5	0.00e+00	0	44	0	12582912	58	3946
2026-01-26 07:16:41.89	85.40	15.53	-52.1	-58.9	6.1	4.53e-03	0	44	0	15728640	74	8496
2026-01-26 07:16:42.89	85.28	15.62	-43.7	-44.7	19.8	0.00e+00	0	44	0	16777216	59	3932
2026-01-26 07:16:43.90	85.15	15.71	-43.2	-44.2	20.6	0.00e+00	0	43	0	19922944	58	3915
2026-01-26 07:16:44.91	85.03	15.80	-43.3	-44.3	20.5	0.00e+00	0	44	0	23068672	58	3966
2026-01-26 07:16:45.92	84.90	15.89	-43.3	-44.3	20.5	0.00e+00	0	44	0	26214400	58	3970
2026-01-26 07:16:46.92	84.77	15.98	-43.4	-44.4	20.4	0.00e+00	0	43	0	29360128	58	4023
2026-01-26 07:16:47.93	84.64	16.08	-43.3	-44.2	20.6	0.00e+00	0	43	0	32505856	58	3939
2026-01-26 07:16:48.94	84.51	16.17	-43.1	-44.1	20.7	0.00e+00	0	44	0	35651584	58	3875
2026-01-26 07:16:49.95	84.38	16.26	-43.0	-44.0	20.8	0.00e+00	0	44	0	38797312	58	3826
2026-01-26 07:16:50.95	84.25	16.35	-43.0	-43.9	20.8	0.00e+00	0	44	0	41943040	57	4040
2026-01-26 07:16:51.96	84.12	16.44	-43.2	-44.2	20.6	0.00e+00	0	44	0	45088768	57	4146
2026-01-26 07:16:52.97	83.99	16.53	-43.3	-44.3	20.5	0.00e+00	0	43	0	48234496	57	4205
2026-01-26 07:16:53.97	83.86	16.63	-43.2	-44.2	20.5	0.00e+00	0	44	0	51380224	57	4153
2026-01-26 07:16:54.98	83.72	16.72	-43.4	-44.4	20.4	0.00e+00	0	44	0	54525952	57	4247
2026-01-26 07:16:55.98	83.59	16.81	-43.2	-44.1	20.6	0.00e+00	0	44	0	57671680	57	4137
2026-01-26 07:16:56.99	83.45	16.90	-43.2	-44.1	20.6	0.00e+00	0	43	0	60817408	57	4140
2026-01-26 07:16:58.00	83.31	17.00	-43.2	-44.1	20.6	0.00e+00	0	43	0	63963136	57	4140
2026-01-26 07:16:59.00	83.18	17.09	-43.2	-44.1	20.7	0.00e+00	0	44	0	67108864	57	4133
2026-01-26 07:17:00.01	83.04	17.18	-43.1	-44.1	20.7	0.00e+00	0	44	0	70254592	57	4106
2026-01-26 07:17:01.01	82.90	17.28	-43.2	-44.1	20.7	0.00e+00	0	43	0	73400320	57	4124
2026-01-26 07:17:02.02	82.76	17.37	-43.2	-44.1	20.7	0.00e+00	0	43	0	76546048	57	4130
2026-01-26 07:17:03.03	82.62	17.46	-43.0	-44.0	20.8	0.00e+00	0	43	0	79691776	57	4060
2026-01-26 07:17:04.04	82.48	17.56	-43.2	-44.1	20.6	0.00e+00	0	44	0	82837504	57	4141
2026-01-26 07:17:05.04	82.33	17.65	-43.1	-44.1	20.7	0.00e+00	0	43	0	85983232	57	4112
2026-01-26 07:17:06.05	82.19	17.75	-43.1	-44.1	20.7	0.00e+00	0	44	0	89128960	57	4113
2026-01-26 07:17:07.06	82.04	17.84	-43.1	-44.0	20.7	0.00e+00	0	44	0	92274688	57	4090
2026-01-26 07:17:08.07	81.90	17.94	-43.3	-44.3	20.5	0.00e+00	0	43	0	95420416	57	4201
2026-01-26 07:17:09.07	81.75	18.03	-43.1	-44.0	20.8	0.00e+00	0	43	0	98566144	57	4088
2026-01-26 07:17:10.08	81.60	18.13	-43.0	-43.9	20.9	0.00e+00	0	44	0	101711872	57	4026
2026-01-26 07:17:11.08	81.46	18.22	-43.0	-43.9	20.9	0.00e+00	0	43	0	104857600	57	4039
2026-01-26 07:17:12.09	81.31	18.32	-42.9	-43.8	20.9	0.00e+00	0	43	0	108003328	57	4001
2026-01-26 07:17:13.10	81.16	18.41	-42.9	-43.8	20.9	0.00e+00	0	43	0	111149056	57	4000
2026-01-26 07:17:14.11	81.01	18.51	-42.8	-43.7	21.1	0.00e+00	0	44	0	114294784	57	3923
2026-01-26 07:17:15.11	80.85	18.60	-43.0	-43.9	20.9	0.00e+00	0	43	0	117440512	57	4016
2026-01-26 07:17:16.12	80.70	18.70	-42.6	-43.5	21.2	0.00e+00	0	43	0	120586240	57	3860
2026-01-26 07:17:17.13	80.55	18.80	-42.6	-43.5	21.2	0.00e+00	0	43	0	123731968	57	3851
2026-01-26 07:17:18.14	80.39	18.89	-42.6	-43.5	21.2	0.00e+00	0	44	0	126877696	57	3859
2026-01-26 07:17:19.15	80.23	18.99	-42.6	-43.5	21.2	0.00e+00	0	43	0	130023424	57	3855
2026-01-26 07:17:20.15	80.08	19.08	-42.6	-43.5	21.2	0.00e+00	0	44	0	133169152	57	3848
2026-01-26 07:17:21.16	79.92	19.18	-42.4	-43.3	21.4	0.00e+00	0	44	0	136314880	56	3987
2026-01-26 07:17:22.16	79.76	19.28	-42.4	-43.3	21.3	0.00e+00	0	43	0	139460608	56	3963
2026-01-26 07:17:23.17	79.60	19.38	-42.3	-43.2	21.4	0.00e+00	0	44	0	142606336	56	3926
2026-01-26 07:17:24.18	79.44	19.47	-42.3	-43.1	21.5	0.00e+00	0	44	0	145752064	56	3896
2026-01-26 07:17:25.19	79.27	19.57	-42.5	-43.4	21.3	0.00e+00	0	44	0	148897792	56	4018
2026-01-26 07:17:26.20	79.11	19.67	-42.4	-43.3	21.4	0.00e+00	0	44	0	152043520	56	3967
2026-01-26 07:17:27.21	78.95	19.77	-42.5	-43.4	21.3	0.00e+00	0	44	0	155189248	56	4034
2026-01-26 07:17:28.21	78.78	19.86	-42.6	-43.5	21.3	0.00e+00	0	44	0	158334976	56	4072
2026-01-26 07:17:29.22	78.61	19.96	-42.6	-43.5	21.3	0.00e+00	0	43	0	161480704	56	4080
2026-01-26 07:17:30.22	78.45	20.06	-42.4	-43.2	21.5	0.00e+00	0	43	0	164626432	56	3957
2026-01-26 07:17:31.23	78.28	20.16	-42.0	-42.9	21.8	0.00e+00	0	43	0	167772160	56	3785
2026-01-26 07:17:32.24	78.11	20.26	-41.8	-42.6	21.9	0.00e+00	0	43	0	170917888	55	3903
2026-01-26 07:17:33.25	77.94	20.35	-41.9	-42.8	21.7	0.00e+00	0	44	0	174063616	55	3966
2026-01-26 07:17:34.26	77.76	20.45	-41.9	-42.7	21.8	0.00e+00	0	43	0	177209344	55	3929
2026-01-26 07:17:35.26	77.59	20.55	-41.9	-42.7	21.8	0.00e+00	0	43	0	180355072	55	3936
2026-01-26 07:17:36.27	77.42	20.65	-41.9	-42.8	21.8	0.00e+00	0	43	0	183500800	55	3961
2026-01-26 07:17:37.27	77.24	20.75	-41.7	-42.5	22.0	0.00e+00	0	44	0	186646528	55	3860
2026-01-26 07:17:38.28	77.06	20.85	-41.8	-42.6	22.0	0.00e+00	0	43	0	189792256	55	3894
2026-01-26 07:17:39.29	76.89	20.95	-41.7	-42.5	22.1	0.00e+00	0	43	0	192937984	55	3856
2026-01-26 07:17:40.29	76.71	21.04	-41.7	-42.5	22.1	0.00e+00	0	44	0	196083712	55	3848
2026-01-26 07:17:41.30	76.53	21.14	-41.8	-42.7	22.0	0.00e+00	0	43	0	199229440	55	3925
2026-01-26 07:17:42.31	76.35	21.24	-41.9	-42.7	21.9	0.00e+00	0	43	0	202375168	55	3944
2026-01-26 07:17:43.32	76.16	21.34	-41.9	-42.8	21.9	0.00e+00	0	43	0	205520896	55	3971
2026-01-26 07:17:44.32	75.98	21.44	-41.9	-42.7	22.0	0.00e+00	0	43	0	208666624	55	3924
2026-01-26 07:17:45.33	75.79	21.54	-41.7	-42.5	22.1	0.00e+00	0	44	0	211812352	55	3848
2026-01-26 07:17:46.33	75.61	21.64	-41.8	-42.6	22.0	0.00e+00	0	43	0	214958080	55	3897
2026-01-26 07:17:47.34	75.42	21.74	-41.6	-42.5	22.1	0.00e+00	0	43	0	218103808	55	3830
2026-01-26 07:17:48.34	75.23	21.84	-41.7	-42.5	22.1	0.00e+00	0	43	0	221249536	55	3840
2026-01-26 07:17:49.35	75.04	21.94	-41.7	-42.5	22.1	0.00e+00	0	44	0	224395264	55	3838
2026-01-26 07:17:50.36	74.85	22.04	-41.7	-42.5	22.1	0.00e+00	0	43	0	227540992	55	3835
2026-01-26 07:17:51.37	74.66	22.14	-41.7	-42.6	22.1	0.00e+00	0	43	0	230686720	55	3870
2026-01-26 07:17:52.38	74.47	22.24	-41.8	-42.6	22.0	0.00e+00	0	44	0	233832448	55	3881
2026-01-26 07:17:53.39	74.27	22.34	-41.9	-42.7	21.9	0.00e+00	0	44	0	236978176	55	3939
2026-01-26 07:17:54.39	74.08	22.44	-41.8	-42.6	22.1	0.00e+00	0	43	0	240123904	55	3880
2026-01-26 07:17:55.40	73.88	22.54	-41.8	-42.6	22.0	0.00e+00	0	43	0	243269632	55	3908
2026-01-26 07:17:56.40	73.68	22.64	-41.8	-42.6	22.1	0.00e+00	0	43	0	246415360	55	3878
2026-01-26 07:17:57.41	73.48	22.74	-41.8	-42.6	22.1	0.00e+00	0	43	0	249561088	55	3875
2026-01-26 07:17:58.42	73.28	22.84	-41.9	-42.7	21.9	0.00e+00	0	43	0	252706816	55	3940
2026-01-26 07:17:59.42	73.08	22.94	-41.8	-42.6	22.0	0.00e+00	0	43	0	255852544	55	3898
2026-01-26 07:18:00.43	72.87	23.04	-41.9	-42.8	21.8	0.00e+00	0	43	0	258998272	55	3959
2026-01-26 07:18:01.44	72.67	23.14	-42.1	-43.0	21.7	0.00e+00	0	43	0	262144000	55	4061
2026-01-26 07:18:02.45	72.46	23.24	-42.2	-43.0	21.7	0.00e+00	0	43	0	265289728	55	4076
2026-01-26 07:18:03.45	72.25	23.34	-42.1	-43.0	21.7	0.00e+00	0	43	0	268435456	55	4058
2026-01-26 07:18:04.46	72.04	23.44	-42.1	-43.0	21.8	0.00e+00	0	44	0	271581184	55	4053
2026-01-26 07:18:05.47	71.83	23.54	-41.9	-42.7	22.0	0.00e+00	0	43	0	274726912	55	3958
2026-01-26 07:18:06.48	71.62	23.64	-41.6	-42.4	22.3	0.00e+00	0	43	0	277872640	55	3790
2026-01-26 07:18:07.48	71.41	23.74	-41.5	-42.3	22.3	0.00e+00	0	43	0	281018368	55	3752
2026-01-26 07:18:08.49	71.19	23.84	-41.5	-42.3	22.2	0.00e+00	0	43	0	284164096	55	3771
2026-01-26 07:18:09.49	70.98	23.93	-41.6	-42.3	22.1	0.00e+00	0	43	0	287309824	55	3779
2026-01-26 07:18:10.50	70.76	24.03	-41.6	-42.4	22.1	0.00e+00	0	44	0	290455552	55	3799
2026-01-26 07:18:11.51	70.54	24.13	-41.8	-42.6	22.1	0.00e+00	0	44	0	293601280	55	3880
2026-01-26 07:18:12.51	70.32	24.23	-41.7	-42.5	22.1	0.00e+00	0	43	0	296747008	55	3848
2026-01-26 07:18:13.51	70.10	24.33	-41.8	-42.7	22.0	0.00e+00	0	43	0	299892736	55	3919
2026-01-26 07:18:14.52	69.88	24.43	-41.9	-42.7	22.0	0.00e+00	0	43	0	303038464	55	3944
2026-01-26 07:18:15.53	69.65	24.53	-41.8	-42.6	22.1	0.00e+00	0	44	0	306184192	55	3883
2026-01-26 07:18:16.53	69.43	24.63	-41.7	-42.5	22.2	0.00e+00	0	44	0	309329920	55	3843
2026-01-26 07:18:17.54	69.20	24.73	-41.7	-42.5	22.2	0.00e+00	0	43	0	312475648	55	3842
2026-01-26 07:18:18.54	68.97	24.83	-41.8	-42.5	22.1	0.00e+00	0	43	0	315621376	55	3868
2026-01-26 07:18:19.55	68.74	24.92	-41.7	-42.5	22.1	0.00e+00	0	43	0	318767104	55	3854
2026-01-26 07:18:20.57	68.51	25.02	-41.8	-42.6	22.1	0.00e+00	0	43	0	321912832	55	3887
2026-01-26 07:18:21.58	68.27	25.12	-41.9	-42.7	22.0	0.00e+00	0	43	0	325058560	55	3921
2026-01-26 07:18:22.58	68.04	25.22	-42.0	-42.8	21.9	0.00e+00	0	43	0	328204288	55	3969
2026-01-26 07:18:23.59	67.80	25.32	-42.1	-42.9	21.8	0.00e+00	0	43	0	331350016	55	4030
2026-01-26 07:18:24.59	67.57	25.42	-42.1	-42.9	21.9	0.00e+00	0	44	0	334495744	55	4020
2026-01-26 07:18:25.60	67.33	25.51	-42.1	-42.9	21.9	0.00e+00	0	44	0	337641472	55	4017
2026-01-26 07:18:26.61	67.09	25.61	-42.2	-43.0	21.8	0.00e+00	0	43	0	340787200	55	4073
2026-01-26 07:18:27.62	66.84	25.71	-42.2	-43.1	21.7	0.00e+00	0	44	0	343932928	55	4106
2026-01-26 07:18:28.63	66.60	25.81	-42.4	-43.2	21.5	0.00e+00	0	43	0	347078656	55	4178
2026-01-26 07:18:29.63	66.36	25.90	-42.5	-43.4	21.4	0.00e+00	0	43	0	350224384	55	4274
2026-01-26 07:18:30.63	66.11	26.00	-42.6	-43.5	21.3	0.00e+00	0	43	0	353370112	55	4319
2026-01-26 07:18:31.64	65.86	26.09	-42.7	-43.6	21.2	0.00e+00	0	44	0	356515840	55	4352
2026-01-26 07:18:32.65	65.61	26.19	-42.8	-43.7	21.3	0.00e+00	0	43	0	359661568	56	4151
2026-01-26 07:18:33.65	65.36	26.29	-42.6	-43.5	21.4	0.00e+00	0	44	0	362807296	56	4068
2026-01-26 07:18:34.66	65.11	26.38	-42.7	-43.6	21.3	0.00e+00	0	43	0	365953024	56	4111
2026-01-26 07:18:35.67	64.86	26.48	-42.6	-43.4	21.5	0.00e+00	0	43	0	369098752	56	4041
2026-01-26 07:18:36.67	64.60	26.57	-42.5	-43.4	21.5	0.00e+00	0	44	0	372244480	56	4035
2026-01-26 07:18:37.68	64.34	26.67	-42.6	-43.5	21.5	0.00e+00	0	44	0	375390208	56	4054
2026-01-26 07:18:38.68	64.09	26.76	-42.4	-43.3	21.6	0.00e+00	0	43	0	378535936	56	3974
2026-01-26 07:18:39.69	63.83	26.85	-42.4	-43.2	21.7	0.00e+00	0	43	0	381681664	56	3952
2026-01-26 07:18:40.70	63.56	26.95	-42.3	-43.1	21.8	0.00e+00	0	43	0	384827392	56	3902
2026-01-26 07:18:41.71	63.30	27.04	-42.3	-43.1	21.8	0.00e+00	0	44	0	387973120	56	3899
2026-01-26 07:18:42.71	63.04	27.13	-42.3	-43.2	21.8	0.00e+00	0	43	0	391118848	56	3918
2026-01-26 07:18:43.72	62.77	27.23	-42.3	-43.1	21.8	0.00e+00	0	43	0	394264576	56	3906
2026-01-26 07:18:44.73	62.50	27.32	-42.4	-43.2	21.7	0.00e+00	0	43	0	397410304	56	3940
2026-01-26 07:18:45.73	62.23	27.41	-42.4	-43.2	21.7	0.00e+00	0	43	0	400556032	56	3941
2026-01-26 07:18:46.74	61.96	27.50	-42.5	-43.3	21.6	0.00e+00	0	43	0	403701760	56	3984
2026-01-26 07:18:47.74	61.69	27.59	-42.6	-43.5	21.5	0.00e+00	0	43	0	406847488	56	4060
2026-01-26 07:18:48.75	61.41	27.68	-42.5	-43.4	21.5	0.00e+00	0	43	0	409993216	56	4014
2026-01-26 07:18:49.76	61.14	27.77	-42.6	-43.4	21.5	0.00e+00	0	44	0	413138944	56	4032
2026-01-26 07:18:50.76	60.86	27.86	-42.5	-43.4	21.5	0.00e+00	0	43	0	416284672	56	4020
2026-01-26 07:18:51.77	60.58	27.95	-42.6	-43.5	21.4	0.00e+00	0	43	0	419430400	56	4072
2026-01-26 07:18:52.78	60.30	28.04	-42.5	-43.3	21.6	0.00e+00	0	44	0	422576128	56	4002
2026-01-26 07:18:53.78	60.02	28.13	-42.4	-43.2	21.7	0.00e+00	0	44	0	425721856	56	3953
2026-01-26 07:18:54.79	59.74	28.22	-42.4	-43.3	21.6	0.00e+00	0	43	0	428867584	56	3964
2026-01-26 07:18:55.79	59.45	28.30	-42.4	-43.3	21.6	0.00e+00	0	43	0	432013312	56	3960
2026-01-26 07:18:56.80	59.16	28.39	-42.4	-43.2	21.7	0.00e+00	0	43	0	435159040	56	3937
2026-01-26 07:18:57.80	58.88	28.47	-42.3	-43.2	21.7	0.00e+00	0	43	0	438304768	56	3916
2026-01-26 07:18:58.81	58.59	28.56	-42.1	-43.0	21.9	0.00e+00	0	43	0	441450496	56	3831
2026-01-26 07:18:59.82	58.30	28.65	-42.2	-43.0	21.9	0.00e+00	0	43	0	444596224	56	3842
2026-01-26 07:19:00.83	58.00	28.73	-42.5	-43.3	21.5	0.00e+00	0	43	0	447741952	56	3997
2026-01-26 07:19:01.84	57.71	28.81	-42.6	-43.5	21.4	0.00e+00	0	43	0	450887680	56	4071
2026-01-26 07:19:02.85	57.41	28.90	-42.8	-43.7	21.3	0.00e+00	0	44	0	454033408	56	4182
2026-01-26 07:19:03.85	57.11	28.98	-42.8	-43.7	21.3	0.00e+00	0	44	0	457179136	56	4166
2026-01-26 07:19:04.86	56.81	29.06	-42.8	-43.7	21.3	0.00e+00	0	43	0	460324864	56	4181
2026-01-26 07:19:05.86	56.51	29.14	-42.7	-43.5	21.4	0.00e+00	0	43	0	463470592	56	4093
2026-01-26 07:19:06.87	56.21	29.22	-42.8	-43.6	21.3	0.00e+00	0	43	0	466616320	56	4143
2026-01-26 07:19:07.87	55.91	29.30	-42.6	-43.5	21.3	0.00e+00	0	44	0	469762048	56	4077
2026-01-26 07:19:08.88	55.60	29.38	-42.8	-43.7	21.2	0.00e+00	0	44	0	472907776	56	4154
2026-01-26 07:19:09.88	55.30	29.46	-43.0	-43.9	21.1	0.00e+00	0	43	0	476053504	56	4248
2026-01-26 07:19:10.89	54.99	29.54	-42.7	-43.6	21.3	0.00e+00	0	43	0	479199232	56	4114
2026-01-26 07:19:11.89	54.68	29.62	-42.6	-43.5	21.5	0.00e+00	0	43	0	482344960	56	4063
2026-01-26 07:19:12.90	54.37	29.69	-42.5	-43.3	21.6	0.00e+00	0	43	0	485490688	56	4004
2026-01-26 07:19:13.91	54.06	29.77	-42.2	-43.0	21.9	0.00e+00	0	44	0	488636416	56	3831
2026-01-26 07:19:14.91	53.74	29.84	-42.1	-42.9	22.0	0.00e+00	0	43	0	491782144	56	3792
2026-01-26 07:19:15.91	53.43	29.92	-42.2	-43.0	21.9	0.00e+00	0	43	0	494927872	56	3853
2026-01-26 07:19:16.92	53.11	29.99	-42.2	-43.1	21.9	0.00e+00	0	43	0	498073600	56	3871
2026-01-26 07:19:17.93	52.79	30.06	-42.4	-43.3	21.7	0.00e+00	0	43	0	501219328	56	3960
2026-01-26 07:19:18.93	52.48	30.13	-42.4	-43.3	21.7	0.00e+00	0	43	0	504365056	56	3979
2026-01-26 07:19:19.94	52.15	30.20	-42.5	-43.4	21.6	0.00e+00	0	43	0	507510784	56	4019
2026-01-26 07:19:20.95	51.83	30.27	-42.6	-43.4	21.5	0.00e+00	0	43	0	510656512	56	4039
2026-01-26 07:19:21.95	51.51	30.34	-42.7	-43.6	21.4	0.00e+00	0	43	0	513802240	56	4105
2026-01-26 07:19:22.95	51.18	30.41	-42.8	-43.6	21.3	0.00e+00	0	43	0	516947968	56	4141
2026-01-26 07:19:23.96	50.86	30.48	-42.9	-43.8	21.2	0.00e+00	0	43	0	520093696	56	4226
2026-01-26 07:19:24.97	50.53	30.55	-43.1	-44.0	21.0	0.00e+00	0	43	0	523239424	56	4322
2026-01-26 07:19:25.98	50.20	30.61	-43.3	-44.2	20.9	0.00e+00	0	43	0	526385152	57	4171
2026-01-26 07:19:26.98	49.87	30.68	-43.2	-44.1	21.0	0.00e+00	0	43	0	529530880	57	4116
2026-01-26 07:19:27.99	49.53	30.74	-43.2	-44.1	21.0	0.00e+00	0	43	0	532676608	57	4135
2026-01-26 07:19:29.00	49.20	30.80	-43.2	-44.1	21.0	0.00e+00	0	43	0	535822336	57	4130
2026-01-26 07:19:30.00	48.87	30.86	-43.1	-44.0	21.1	0.00e+00	0	43	0	538968064	57	4079
2026-01-26 07:19:31.01	48.53	30.92	-43.1	-44.0	21.1	0.00e+00	0	43	0	542113792	57	4081
2026-01-26 07:19:32.02	48.19	30.98	-43.0	-43.9	21.1	0.00e+00	0	43	0	545259520	57	4043
2026-01-26 07:19:33.03	47.85	31.04	-43.2	-44.1	21.0	0.00e+00	0	43	0	548405248	57	4105
2026-01-26 07:19:34.03	47.51	31.10	-43.0	-43.9	21.2	0.00e+00	0	44	0	551550976	57	4026
2026-01-26 07:19:35.04	47.17	31.16	-43.0	-43.9	21.2	0.00e+00	0	43	0	554696704	57	4040
2026-01-26 07:19:36.05	46.83	31.21	-42.9	-43.8	21.3	0.00e+00	0	44	0	557842432	57	3967
2026-01-26 07:19:37.05	46.49	31.27	-43.0	-43.8	21.2	0.00e+00	0	43	0	560988160	57	3995
2026-01-26 07:19:38.06	46.14	31.32	-43.0	-43.8	21.2	0.00e+00	0	43	0	564133888	57	4002
2026-01-26 07:19:39.07	45.79	31.37	-43.0	-43.9	21.1	0.00e+00	0	43	0	567279616	57	4039
2026-01-26 07:19:40.07	45.45	31.43	-43.2	-44.1	21.0	0.00e+00	0	43	0	570425344	57	4122
2026-01-26 07:19:41.08	45.10	31.48	-43.3	-44.2	20.9	0.00e+00	0	43	0	573571072	57	4171
2026-01-26 07:19:42.09	44.75	31.53	-43.4	-44.3	20.8	0.00e+00	0	43	0	576716800	57	4239
2026-01-26 07:19:43.09	44.40	31.57	-43.4	-44.3	20.8	0.00e+00	0	43	0	579862528	57	4237
2026-01-26 07:19:44.10	44.05	31.62	-43.5	-44.5	20.6	0.00e+00	0	43	0	583008256	57	4312
2026-01-26 07:19:45.10	43.70	31.67	-43.5	-44.5	20.6	0.00e+00	0	44	0	586153984	57	4299
2026-01-26 07:19:46.11	43.35	31.71	-43.5	-44.4	20.7	0.00e+00	0	43	0	589299712	57	4276
2026-01-26 07:19:47.12	42.99	31.75	-43.3	-44.3	20.8	0.00e+00	0	44	0	592445440	57	4195
2026-01-26 07:19:48.13	42.64	31.80	-43.2	-44.1	20.9	0.00e+00	0	43	0	595591168	57	4140
2026-01-26 07:19:49.13	42.28	31.84	-43.2	-44.1	21.0	0.00e+00	0	43	0	598736896	57	4117
2026-01-26 07:19:50.13	41.93	31.88	-43.0	-43.9	21.1	0.00e+00	0	44	0	601882624	57	4028
2026-01-26 07:19:51.14	41.57	31.92	-43.0	-43.9	21.2	0.00e+00	0	43	0	605028352	57	4040
2026-01-26 07:19:52.15	41.21	31.95	-42.9	-43.7	21.3	0.00e+00	0	44	0	608174080	57	3958
2026-01-26 07:19:53.16	40.85	31.99	-43.0	-43.9	21.2	0.00e+00	0	43	0	611319808	57	4022
2026-01-26 07:19:54.16	40.49	32.02	-43.0	-43.9	21.1	0.00e+00	0	43	0	614465536	57	4045
2026-01-26 07:19:55.17	40.13	32.06	-43.1	-44.0	21.0	0.00e+00	0	43	0	617611264	57	4096
2026-01-26 07:19:56.18	39.77	32.09	-43.3	-44.2	20.9	0.00e+00	0	43	0	620756992	57	4185
2026-01-26 07:19:57.18	39.41	32.12	-43.2	-44.1	21.0	0.00e+00	0	43	0	623902720	57	4110
2026-01-26 07:19:58.19	39.04	32.15	-43.2	-44.1	20.9	0.00e+00	0	43	0	627048448	57	4142
2026-01-26 07:19:59.20	38.68	32.18	-43.2	-44.1	21.0	0.00e+00	0	43	0	630194176	57	4104
2026-01-26 07:20:00.20	38.32	32.21	-43.2	-44.1	21.0	0.00e+00	0	43	0	633339904	57	4110
2026-01-26 07:20:01.20	37.95	32.23	-43.2	-44.1	20.9	0.00e+00	0	43	0	636485632	57	4144
2026-01-26 07:20:02.21	37.59	32.26	-43.2	-44.1	21.0	0.00e+00	0	43	0	639631360	57	4127
2026-01-26 07:20:03.22	37.22	32.28	-43.5	-44.5	20.7	0.00e+00	0	44	0	642777088	57	4298
2026-01-26 07:20:04.22	36.86	32.30	-43.6	-44.6	20.6	0.00e+00	0	43	0	645922816	57	4363
2026-01-26 07:20:05.22	36.49	32.32	-43.7	-44.7	20.5	0.00e+00	0	43	0	649068544	57	4396
2026-01-26 07:20:06.23	36.12	32.34	-43.6	-44.6	20.6	0.00e+00	0	43	0	652214272	57	4348
2026-01-26 07:20:07.24	35.75	32.36	-43.6	-44.5	20.6	0.00e+00	0	43	0	655360000	57	4323
2026-01-26 07:20:08.25	35.38	32.38	-43.5	-44.5	20.7	0.00e+00	0	43	0	658505728	57	4301
2026-01-26 07:20:09.25	35.02	32.39	-43.4	-44.3	20.9	0.00e+00	0	43	0	661651456	57	4221
2026-01-26 07:20:10.26	34.65	32.41	-43.3	-44.2	20.9	0.00e+00	0	43	0	664797184	57	4188
2026-01-26 07:20:11.27	34.28	32.42	-43.3	-44.2	20.8	0.00e+00	0	44	0	667942912	57	4193
2026-01-26 07:20:12.28	33.91	32.43	-43.2	-44.1	21.0	0.00e+00	0	43	0	671088640	57	4109
2026-01-26 07:20:13.28	33.54	32.44	-43.2	-44.1	21.0	0.00e+00	0	43	0	674234368	57	4142
2026-01-26 07:20:14.29	33.17	32.45	-43.3	-44.2	20.9	0.00e+00	0	43	0	677380096	57	4192
2026-01-26 07:20:15.30	32.80	32.46	-43.4	-44.3	20.8	0.00e+00	0	43	0	680525824	57	4239
2026-01-26 07:20:16.31	32.43	32.47	-43.7	-44.6	20.5	0.00e+00	0	44	0	683671552	57	4379
2026-01-26 07:20:17.31	32.06	32.47	-43.7	-44.6	20.5	0.00e+00	0	43	0	686817280	57	4386
2026-01-26 07:20:18.32	31.69	32.47	-43.5	-44.4	20.8	0.00e+00	0	43	0	689963008	57	4276
2026-01-26 07:20:19.33	31.31	32.48	-43.4	-44.4	20.8	0.00e+00	0	43	0	693108736	57	4262
2026-01-26 07:20:20.33	30.95	32.48	-43.3	-44.2	20.9	0.00e+00	0	43	0	696254464	57	4173
2026-01-26 07:20:21.34	30.57	32.48	-43.3	-44.2	21.0	0.00e+00	0	43	0	699400192	57	4159
2026-01-26 07:20:22.35	30.20	32.47	-43.3	-44.2	21.0	0.00e+00	0	43	0	702545920	57	4158
2026-01-26 07:20:23.36	29.83	32.47	-43.0	-43.9	21.2	0.00e+00	0	44	0	705691648	57	4041
2026-01-26 07:20:24.36	29.46	32.47	-42.9	-43.7	21.3	0.00e+00	0	43	0	708837376	57	3956
2026-01-26 07:20:25.37	29.09	32.46	-42.9	-43.8	21.2	0.00e+00	0	43	0	711983104	57	3959
2026-01-26 07:20:26.37	28.72	32.45	-43.1	-44.0	21.0	0.00e+00	0	43	0	715128832	57	4081
2026-01-26 07:20:27.38	28.35	32.44	-43.1	-44.1	21.0	0.00e+00	0	43	0	718274560	57	4099
2026-01-26 07:20:28.38	27.98	32.43	-43.0	-43.8	21.3	0.00e+00	0	43	0	721420288	57	3996
2026-01-26 07:20:29.39	27.61	32.42	-43.0	-43.8	21.3	0.00e+00	0	43	0	724566016	57	3998
2026-01-26 07:20:30.40	27.24	32.41	-43.2	-44.1	21.0	0.00e+00	0	43	0	727711744	57	4102
2026-01-26 07:20:31.41	26.87	32.39	-43.2	-44.1	21.0	0.00e+00	0	43	0	730857472	57	4129
2026-01-26 07:20:32.42	26.50	32.38	-43.2	-44.1	21.0	0.00e+00	0	44	0	734003200	57	4137
2026-01-26 07:20:33.43	26.13	32.36	-43.2	-44.1	21.0	0.00e+00	0	44	0	737148928	57	4103
2026-01-26 07:20:34.44	25.77	32.34	-43.0	-43.9	21.2	0.00e+00	0	43	0	740294656	57	4038
2026-01-26 07:20:35.44	25.40	32.32	-43.2	-44.1	21.1	0.00e+00	0	43	0	743440384	57	4124
2026-01-26 07:20:36.45	25.03	32.30	-42.9	-43.8	21.3	0.00e+00	0	44	0	746586112	57	3980
2026-01-26 07:20:37.46	24.67	32.28	-43.0	-43.9	21.2	0.00e+00	0	44	0	749731840	57	4039
2026-01-26 07:20:38.46	24.30	32.26	-43.0	-43.9	21.2	0.00e+00	0	44	0	752877568	57	4033
2026-01-26 07:20:39.47	23.94	32.23	-42.9	-43.8	21.3	0.00e+00	0	44	0	756023296	57	3974
2026-01-26 07:20:40.48	23.57	32.21	-42.8	-43.7	21.4	0.00e+00	0	44	0	759169024	57	3917
2026-01-26 07:20:41.49	23.20	32.18	-42.8	-43.7	21.4	0.00e+00	0	43	0	762314752	57	3921
2026-01-26 07:20:42.49	22.84	32.15	-42.8	-43.7	21.4	0.00e+00	0	44	0	765460480	57	3918
2026-01-26 07:20:43.50	22.48	32.12	-42.7	-43.5	21.5	0.00e+00	0	44	0	768606208	57	3865
2026-01-26 07:20:44.51	22.12	32.09	-42.8	-43.7	21.4	0.00e+00	0	44	0	771751936	57	3942
2026-01-26 07:20:45.52	21.75	32.06	-43.1	-44.0	21.1	0.00e+00	0	44	0	774897664	57	4071
2026-01-26 07:20:46.53	21.39	32.02	-43.1	-44.0	21.1	0.00e+00	0	43	0	778043392	57	4095
2026-01-26 07:20:47.53	21.03	31.99	-43.0	-43.9	21.2	0.00e+00	0	44	0	781189120	57	4034
2026-01-26 07:20:48.54	20.67	31.95	-43.0	-43.9	21.3	0.00e+00	0	43	0	784334848	57	4008
2026-01-26 07:20:49.55	20.31	31.91	-43.1	-44.0	21.2	0.00e+00	0	44	0	787480576	57	4053
2026-01-26 07:20:50.56	19.96	31.88	-43.1	-44.0	21.2	0.00e+00	0	44	0	790626304	57	4054
2026-01-26 07:20:51.57	19.60	31.84	-43.1	-44.0	21.1	0.00e+00	0	44	0	793772032	57	4066
2026-01-26 07:20:52.57	19.25	31.79	-43.1	-44.0	21.1	0.00e+00	0	44	0	796917760	57	4086
2026-01-26 07:20:53.58	18.89	31.75	-42.9	-43.8	21.2	0.00e+00	0	43	0	800063488	57	3995
2026-01-26 07:20:54.58	18.54	31.71	-42.9	-43.8	21.2	0.00e+00	0	44	0	803209216	57	3992
2026-01-26 07:20:55.59	18.18	31.66	-43.1	-44.0	21.0	0.00e+00	0	44	0	806354944	57	4067
2026-01-26 07:20:56.60	17.83	31.62	-43.2	-44.1	20.9	0.00e+00	0	44	0	809500672	57	4114
2026-01-26 07:20:57.60	17.48	31.57	-43.2	-44.1	20.9	0.00e+00	0	43	0	812646400	57	4145
2026-01-26 07:20:58.61	17.13	31.52	-43.2	-44.1	20.9	0.00e+00	0	43	0	815792128	57	4143
2026-01-26 07:20:59.61	16.79	31.47	-43.2	-44.1	20.9	0.00e+00	0	43	0	818937856	57	4113
2026-01-26 07:21:00.62	16.44	31.42	-43.1	-44.0	21.1	0.00e+00	0	44	0	822083584	57	4062
2026-01-26 07:21:01.63	16.09	31.37	-43.0	-43.9	21.2	0.00e+00	0	43	0	825229312	57	4022
2026-01-26 07:21:02.64	15.74	31.32	-43.0	-43.9	21.2	0.00e+00	0	43	0	828375040	57	4014
2026-01-26 07:21:03.65	15.40	31.27	-42.9	-43.8	21.3	0.00e+00	0	43	0	831520768	57	3986
2026-01-26 07:21:04.65	15.06	31.21	-43.2	-44.1	21.1	0.00e+00	0	43	0	834666496	57	4112
2026-01-26 07:21:05.66	14.71	31.16	-43.4	-44.3	20.9	0.00e+00	0	44	0	837812224	57	4229
2026-01-26 07:21:06.67	14.37	31.10	-43.5	-44.5	20.7	0.00e+00	0	43	0	840957952	57	4299
2026-01-26 07:21:07.68	14.03	31.04	-43.6	-44.5	20.7	0.00e+00	0	44	0	844103680	57	4326
2026-01-26 07:21:08.69	13.69	30.98	-43.2	-44.1	21.1	0.00e+00	0	43	0	847249408	57	4114
2026-01-26 07:21:09.69	13.36	30.92	-43.1	-44.0	21.1	0.00e+00	0	43	0	850395136	57	4073
2026-01-26 07:21:10.70	13.02	30.86	-42.9	-43.8	21.3	0.00e+00	0	43	0	853540864	57	3989
2026-01-26 07:21:11.71	12.68	30.80	-42.6	-43.5	21.6	0.00e+00	0	43	0	856686592	57	3830
2026-01-26 07:21:12.71	12.35	30.74	-42.6	-43.5	21.6	0.00e+00	0	43	0	859832320	57	3825
2026-01-26 07:21:13.73	12.02	30.67	-42.8	-43.7	21.3	0.00e+00	0	43	0	862978048	57	3949
2026-01-26 07:21:14.73	11.69	30.61	-43.2	-44.1	21.0	0.00e+00	0	43	0	866123776	57	4120
2026-01-26 07:21:15.74	11.36	30.54	-43.4	-44.3	20.8	0.00e+00	0	43	0	869269504	57	4234
2026-01-26 07:21:16.75	11.03	30.48	-43.4	-44.3	20.7	0.00e+00	0	43	0	872415232	57	4222
2026-01-26 07:21:17.76	10.70	30.41	-43.4	-44.3	20.7	0.00e+00	0	43	0	875560960	57	4217
2026-01-26 07:21:18.77	10.38	30.34	-43.1	-44.0	21.0	0.00e+00	0	43	0	878706688	57	4090
2026-01-26 07:21:19.78	10.05	30.27	-43.1	-44.0	21.1	0.00e+00	0	44	0	881852416	57	4058
2026-01-26 07:21:20.79	9.73	30.20	-42.7	-43.6	21.5	0.00e+00	0	43	0	884998144	57	3870
2026-01-26 07:21:21.79	9.41	30.13	-42.5	-43.3	21.6	0.00e+00	0	43	0	888143872	57	3775
2026-01-26 07:21:22.80	9.09	30.06	-42.7	-43.6	21.5	0.00e+00	0	43	0	891289600	57	3869
2026-01-26 07:21:23.81	8.77	29.99	-42.8	-43.6	21.4	0.00e+00	0	44	0	894435328	57	3906
2026-01-26 07:21:24.82	8.45	29.91	-42.9	-43.8	21.3	0.00e+00	0	44	0	897581056	57	3959
2026-01-26 07:21:25.83	8.14	29.84	-42.6	-43.5	21.5	0.00e+00	0	43	0	900726784	57	3851
2026-01-26 07:21:26.83	7.83	29.76	-42.6	-43.5	21.5	0.00e+00	0	43	0	903872512	57	3844
2026-01-26 07:21:27.84	7.51	29.69	-42.4	-43.2	21.7	0.00e+00	0	43	0	907018240	56	3951
2026-01-26 07:21:28.85	7.20	29.61	-42.2	-43.0	21.9	0.00e+00	0	43	0	910163968	56	3845
2026-01-26 07:21:29.85	6.89	29.54	-42.1	-42.9	22.0	0.00e+00	0	43	0	913309696	56	3815
2026-01-26 07:21:30.86	6.58	29.46	-42.4	-43.2	21.8	0.00e+00	0	43	0	916455424	56	3928
2026-01-26 07:21:31.87	6.28	29.38	-42.7	-43.6	21.5	0.00e+00	0	44	0	919601152	56	4099
2026-01-26 07:21:32.88	5.97	29.30	-42.9	-43.7	21.3	0.00e+00	0	43	0	922746880	56	4187
2026-01-26 07:21:33.89	5.67	29.22	-42.8	-43.7	21.4	0.00e+00	0	43	0	925892608	56	4166
2026-01-26 07:21:34.89	5.37	29.14	-42.6	-43.5	21.5	0.00e+00	0	43	0	929038336	56	4068
2026-01-26 07:21:35.90	5.07	29.06	-42.5	-43.3	21.6	0.00e+00	0	43	0	932184064	56	3995
2026-01-26 07:21:36.91	4.77	28.98	-42.5	-43.3	21.6	0.00e+00	0	43	0	935329792	56	3983
2026-01-26 07:21:37.92	4.47	28.89	-41.8	-42.6	22.2	0.00e+00	0	43	0	938475520	55	3899
2026-01-26 07:21:38.93	4.17	28.81	-41.7	-42.5	22.3	0.00e+00	0	43	0	941621248	55	3850
2026-01-26 07:21:39.93	3.88	28.73	-42.0	-42.8	22.0	0.00e+00	0	43	0	944766976	55	4004
2026-01-26 07:21:40.94	3.59	28.64	-42.4	-43.3	21.6	0.00e+00	0	43	0	947912704	55	4202
2026-01-26 07:21:41.94	3.30	28.56	-42.6	-43.5	21.4	0.00e+00	0	44	0	951058432	55	4326
2026-01-26 07:21:42.95	3.01	28.47	-42.7	-43.5	21.2	0.00e+00	0	44	0	954204160	55	4330
2026-01-26 07:21:43.95	2.72	28.39	-42.5	-43.4	21.3	0.00e+00	0	43	0	957349888	55	4262
2026-01-26 07:21:44.96	2.44	28.30	-42.3	-43.1	21.5	0.00e+00	0	43	0	960495616	55	4141
2026-01-26 07:21:45.97	2.15	28.21	-41.9	-42.7	22.0	0.00e+00	0	43	0	963641344	55	3935
2026-01-26 07:21:46.97	1.87	28.12	-41.8	-42.6	22.1	0.00e+00	0	44	0	966787072	55	3905
2026-01-26 07:21:47.98	1.59	28.04	-41.9	-42.7	22.1	0.00e+00	0	43	0	969932800	55	3935
2026-01-26 07:21:48.98	1.31	27.95	-42.1	-42.9	21.9	0.00e+00	0	43	0	973078528	55	4051
2026-01-26 07:21:49.99	1.03	27.86	-42.4	-43.3	21.6	0.00e+00	0	43	0	976224256	55	4199
2026-01-26 07:21:51.00	0.75	27.77	-42.5	-43.4	21.5	0.00e+00	0	43	0	979369984	55	4267
2026-01-26 07:21:52.00	0.48	27.68	-42.5	-43.4	21.5	0.00e+00	0	43	0	982515712	55	4244
2026-01-26 07:21:53.01	0.20	27.59	-42.2	-43.0	21.8	0.00e+00	0	44	0	985661440	55	4072
2026-01-26 07:21:54.02	359.93	27.50	-42.0	-42.8	22.0	0.00e+00	0	43	0	988807168	55	3964
2026-01-26 07:21:55.02	359.66	27.41	-41.9	-42.7	22.1	0.00e+00	0	43	0	991952896	55	3928
2026-01-26 07:21:56.03	359.39	27.32	-41.5	-42.2	22.5	0.00e+00	0	43	0	995098624	55	3737
2026-01-26 07:21:57.04	359.12	27.22	-41.2	-41.9	22.7	0.00e+00	0	43	0	998244352	54	3814
2026-01-26 07:21:58.04	358.86	27.13	-41.3	-42.1	22.7	0.00e+00	0	44	0	1001390080	54	3870
2026-01-26 07:21:59.05	358.60	27.04	-41.6	-42.4	22.4	0.00e+00	0	44	0	1004535808	54	4015
2026-01-26 07:22:00.05	358.33	26.95	-42.0	-42.8	22.0	0.00e+00	0	44	0	1007681536	54	4208
2026-01-26 07:22:01.06	358.07	26.85	-42.2	-43.0	21.8	0.00e+00	0	43	0	1010827264	54	4327
2026-01-26 07:22:02.07	357.81	26.76	-42.2	-43.1	21.7	0.00e+00	0	44	0	1013972992	55	4119
2026-01-26 07:22:03.08	357.55	26.66	-42.3	-43.2	21.6	0.00e+00	0	43	0	1017118720	55	4147
2026-01-26 07:22:04.09	357.30	26.57	-42.1	-43.0	21.7	0.00e+00	0	43	0	1020264448	55	4052
2026-01-26 07:22:05.09	357.04	26.48	-42.0	-42.9	21.8	0.00e+00	0	43	0	1023410176	55	4005
2026-01-26 07:22:06.10	356.79	26.38	-41.9	-42.7	21.9	0.00e+00	0	43	0	1026555904	55	3951
2026-01-26 07:22:07.11	356.54	26.28	-41.9	-42.7	22.0	0.00e+00	0	43	0	1029701632	55	3944
2026-01-26 07:22:08.12	356.28	26.19	-41.9	-42.7	22.0	0.00e+00	0	43	0	1032847360	55	3927
2026-01-26 07:22:09.13	356.03	26.09	-42.0	-42.8	21.9	0.00e+00	0	43	0	1035993088	55	3980
2026-01-26 07:22:10.13	355.79	26.00	-42.0	-42.8	21.9	0.00e+00	0	43	0	1039138816	55	4004
2026-01-26 07:22:11.14	355.54	25.90	-42.0	-42.8	21.9	0.00e+00	0	43	0	1042284544	55	3974
2026-01-26 07:22:12.15	355.30	25.80	-42.0	-42.8	21.9	0.00e+00	0	43	0	1045430272	55	3966
2026-01-26 07:22:13.15	355.06	25.71	-42.0	-42.9	21.8	0.00e+00	0	44	0	1048576000	55	4014
2026-01-26 07:22:14.16	354.81	25.61	-42.0	-42.9	21.8	0.00e+00	0	43	0	1051721728	55	4010
2026-01-26 07:22:15.17	354.57	25.51	-42.1	-42.9	21.8	0.00e+00	0	44	0	1054867456	55	4047
2026-01-26 07:22:16.17	354.34	25.42	-42.2	-43.1	21.7	0.00e+00	0	43	0	1058013184	55	4100
2026-01-26 07:22:17.18	354.10	25.32	-42.2	-43.0	21.7	0.00e+00	0	44	0	1061158912	55	4080
2026-01-26 07:22:18.19	353.86	25.22	-42.2	-43.1	21.7	0.00e+00	0	44	0	1064304640	55	4106
2026-01-26 07:22:19.19	353.63	25.12	-42.3	-43.2	21.5	0.00e+00	0	44	0	1067450368	55	4156
2026-01-26 07:22:20.20	353.40	25.02	-42.2	-43.0	21.7	0.00e+00	0	43	0	1070596096	55	4071
2026-01-26 07:22:21.21	353.16	24.93	-42.0	-42.8	21.8	0.00e+00	0	43	0	1073741824	55	3996
2026-01-26 07:22:22.22	352.93	24.83	-42.0	-42.8	21.9	0.00e+00	0	43	0	1076887552	55	3971
2026-01-26 07:22:23.23	352.71	24.73	-42.0	-42.8	21.8	0.00e+00	0	43	0	1080033280	55	4001
2026-01-26 07:22:24.24	352.48	24.63	-42.1	-42.9	21.8	0.00e+00	0	44	0	1083179008	55	4034
2026-01-26 07:22:25.25	352.25	24.53	-42.2	-43.0	21.7	0.00e+00	0	43	0	1086324736	55	4080
2026-01-26 07:22:26.25	352.03	24.43	-42.2	-43.1	21.7	0.00e+00	0	44	0	1089470464	55	4112
2026-01-26 07:22:27.26	351.81	24.33	-42.2	-43.0	21.7	0.00e+00	0	43	0	1092616192	55	4088
2026-01-26 07:22:28.27	351.59	24.23	-42.1	-43.0	21.8	0.00e+00	0	44	0	1095761920	55	4059
2026-01-26 07:22:29.28	351.37	24.13	-42.1	-43.0	21.7	0.00e+00	0	44	0	1098907648	55	4064
2026-01-26 07:22:30.29	351.15	24.03	-42.1	-42.9	21.7	0.00e+00	0	44	0	1102053376	55	4039
2026-01-26 07:22:31.29	350.93	23.94	-42.1	-42.9	21.7	0.00e+00	0	44	0	1105199104	55	4049
2026-01-26 07:22:32.30	350.72	23.84	-42.0	-42.9	21.7	0.00e+00	0	44	0	1108344832	55	4011
2026-01-26 07:22:33.31	350.50	23.74	-42.1	-42.9	21.7	0.00e+00	0	43	0	1111490560	55	4041
2026-01-26 07:22:34.31	350.29	23.64	-42.1	-43.0	21.6	0.00e+00	0	43	0	1114636288	55	4057
2026-01-26 07:22:35.32	350.08	23.54	-42.1	-43.0	21.6	0.00e+00	0	43	0	1117782016	55	4055
2026-01-26 07:22:36.33	349.87	23.44	-42.0	-42.9	21.7	0.00e+00	0	43	0	1120927744	55	4019
2026-01-26 07:22:37.34	349.66	23.34	-42.1	-43.0	21.7	0.00e+00	0	43	0	1124073472	55	4054
2026-01-26 07:22:38.35	349.45	23.24	-42.2	-43.1	21.6	0.00e+00	0	43	0	1127219200	55	4110
2026-01-26 07:22:39.36	349.24	23.14	-42.3	-43.2	21.5	0.00e+00	0	43	0	1130364928	55	4154
2026-01-26 07:22:40.36	349.04	23.04	-42.4	-43.3	21.4	0.00e+00	0	43	0	1133510656	55	4224
2026-01-26 07:22:41.37	348.84	22.94	-42.4	-43.3	21.4	0.00e+00	0	43	0	1136656384	55	4226
2026-01-26 07:22:42.38	348.63	22.84	-42.5	-43.4	21.3	0.00e+00	0	44	0	1139802112	55	4263
2026-01-26 07:22:43.39	348.43	22.74	-42.5	-43.4	21.4	0.00e+00	0	43	0	1142947840	55	4255
2026-01-26 07:22:44.40	348.23	22.64	-42.4	-43.3	21.4	0.00e+00	0	43	0	1146093568	55	4235
2026-01-26 07:22:45.40	348.04	22.54	-42.5	-43.4	21.3	0.00e+00	0	43	0	1149239296	55	4276
2026-01-26 07:22:46.41	347.84	22.44	-42.6	-43.5	21.3	0.00e+00	0	43	0	1153433600	55	4309
2026-01-26 07:22:47.42	347.64	22.34	-42.6	-43.5	21.3	0.00e+00	0	43	0	1156579328	55	4330
2026-01-26 07:22:48.42	347.45	22.24	-42.5	-43.4	21.4	0.00e+00	0	43	0	1159725056	55	4264
2026-01-26 07:22:49.43	347.26	22.14	-42.4	-43.2	21.5	0.00e+00	0	43	0	1161822208	55	4189
2026-01-26 07:22:50.44	347.06	22.04	-42.2	-43.0	21.7	0.00e+00	0	43	0	1164967936	55	4091
2026-01-26 07:22:51.45	346.87	21.94	-42.1	-43.0	21.8	0.00e+00	0	43	0	1168113664	55	4054
2026-01-26 07:22:52.45	346.69	21.84	-42.0	-42.9	21.8	0.00e+00	0	43	0	1171259392	55	4012
2026-01-26 07:22:53.46	346.50	21.74	-41.9	-42.7	21.9	0.00e+00	0	44	0	1174405120	55	3952
2026-01-26 07:22:54.47	346.31	21.64	-41.8	-42.6	22.0	0.00e+00	0	43	0	1177550848	55	3905
2026-01-26 07:22:55.48	346.12	21.54	-41.8	-42.6	22.0	0.00e+00	0	43	0	1180696576	55	3910
2026-01-26 07:22:56.49	345.94	21.44	-41.9	-42.8	21.9	0.00e+00	0	43	0	1183842304	55	3972
2026-01-26 07:22:57.49	345.76	21.35	-42.1	-42.9	21.8	0.00e+00	0	44	0	1186988032	55	4033
2026-01-26 07:22:58.50	345.57	21.25	-42.2	-43.1	21.7	0.00e+00	0	44	0	1190133760	55	4107
2026-01-26 07:22:59.51	345.39	21.15	-42.3	-43.2	21.6	0.00e+00	0	44	0	1194328064	55	4153
2026-01-26 07:23:00.51	345.21	21.05	-42.2	-43.1	21.6	0.00e+00	0	43	0	1197473792	55	4125
2026-01-26 07:23:01.52	345.04	20.95	-42.2	-43.0	21.7	0.00e+00	0	43	0	1200619520	55	4095
2026-01-26 07:23:02.52	344.86	20.85	-42.1	-43.0	21.7	0.00e+00	0	43	0	1203765248	55	4064
2026-01-26 07:23:03.53	344.68	20.75	-42.0	-42.9	21.8	0.00e+00	0	43	0	1206910976	55	4011
2026-01-26 07:23:04.54	344.51	20.65	-41.9	-42.7	21.9	0.00e+00	0	44	0	1209008128	55	3956
2026-01-26 07:23:05.54	344.33	20.56	-41.9	-42.7	21.9	0.00e+00	0	43	0	1212153856	55	3925
2026-01-26 07:23:06.55	344.16	20.46	-41.9	-42.8	21.9	0.00e+00	0	44	0	1215299584	55	3968
2026-01-26 07:23:07.55	343.99	20.36	-41.9	-42.8	21.9	0.00e+00	0	43	0	1218445312	55	3963
2026-01-26 07:23:08.56	343.82	20.26	-41.8	-42.7	22.0	0.00e+00	0	44	0	1221591040	55	3920
2026-01-26 07:23:09.57	343.65	20.16	-41.8	-42.6	22.0	0.00e+00	0	43	0	1224736768	55	3897
2026-01-26 07:23:10.57	343.48	20.07	-41.9	-42.7	22.0	0.00e+00	0	44	0	1227882496	55	3919
2026-01-26 07:23:11.58	343.32	19.97	-41.9	-42.7	21.9	0.00e+00	0	44	0	1231028224	55	3941
2026-01-26 07:23:12.59	343.15	19.87	-41.8	-42.6	21.9	0.00e+00	0	43	0	1234173952	55	3908
2026-01-26 07:23:13.60	342.98	19.77	-41.8	-42.6	21.9	0.00e+00	0	43	0	1237319680	55	3897
2026-01-26 07:23:14.60	342.82	19.68	-41.9	-42.7	21.9	0.00e+00	0	44	0	1240465408	55	3944
2026-01-26 07:23:15.61	342.66	19.58	-41.9	-42.7	21.8	0.00e+00	0	44	0	1244659712	55	3950
2026-01-26 07:23:16.61	342.50	19.48	-41.9	-42.7	21.8	0.00e+00	0	43	0	1247805440	55	3958
2026-01-26 07:23:17.62	342.33	19.38	-41.9	-42.7	21.8	0.00e+00	0	43	0	1250951168	55	3949
2026-01-26 07:23:18.63	342.17	19.29	-41.8	-42.6	21.9	0.00e+00	0	43	0	1254096896	55	3910
2026-01-26 07:23:19.64	342.02	19.19	-41.8	-42.6	21.9	0.00e+00	0	43	0	1256194048	55	3882
2026-01-26 07:23:20.65	341.86	19.09	-41.8	-42.6	21.9	0.00e+00	0	43	0	1259339776	55	3880
2026-01-26 07:23:21.65	341.70	19.00	-41.9	-42.7	21.8	0.00e+00	0	43	0	1262485504	55	3935
2026-01-26 07:23:22.65	341.55	18.90	-41.8	-42.6	21.9	0.00e+00	0	43	0	1265631232	55	3891
2026-01-26 07:23:23.66	341.39	18.81	-41.9	-42.7	21.8	0.00e+00	0	43	0	1268776960	55	3942
2026-01-26 07:23:24.67	341.24	18.71	-42.0	-42.9	21.7	0.00e+00	0	43	0	1271922688	55	4015
2026-01-26 07:23:25.68	341.08	18.61	-42.2	-43.1	21.5	0.00e+00	0	44	0	1275068416	55	4099
2026-01-26 07:23:26.68	340.93	18.52	-42.2	-43.1	21.5	0.00e+00	0	43	0	1278214144	55	4104
2026-01-26 07:23:27.69	340.78	18.42	-42.3	-43.2	21.4	0.00e+00	0	44	0	1281359872	55	4149
2026-01-26 07:23:28.70	340.63	18.33	-42.4	-43.2	21.4	0.00e+00	0	44	0	1284505600	55	4187
2026-01-26 07:23:29.71	340.48	18.23	-42.3	-43.2	21.3	0.00e+00	0	43	0	1288699904	55	4167
2026-01-26 07:23:30.72	340.33	18.14	-42.4	-43.2	21.3	0.00e+00	0	43	0	1291845632	55	4188
2026-01-26 07:23:31.73	340.19	18.04	-42.4	-43.3	21.2	0.00e+00	0	43	0	1294991360	55	4210
2026-01-26 07:23:32.74	340.04	17.95	-42.2	-43.1	21.3	0.00e+00	0	44	0	1298137088	55	4125
2026-01-26 07:23:33.75	339.89	17.85	-42.3	-43.2	21.3	0.00e+00	0	43	0	1301282816	55	4147
2026-01-26 07:23:34.76	339.75	17.76	-42.3	-43.1	21.4	0.00e+00	0	44	0	1303379968	55	4136
2026-01-26 07:23:35.77	339.61	17.66	-42.1	-43.0	21.5	0.00e+00	0	44	0	1306525696	55	4068
2026-01-26 07:23:36.77	339.47	17.57	-42.1	-43.0	21.5	0.00e+00	0	43	0	1309671424	55	4069
2026-01-26 07:23:37.78	339.32	17.48	-42.3	-43.2	21.4	0.00e+00	0	44	0	1312817152	55	4154
2026-01-26 07:23:38.79	339.18	17.38	-42.3	-43.1	21.4	0.00e+00	0	43	0	1315962880	55	4140
2026-01-26 07:23:39.80	339.04	17.29	-42.2	-43.1	21.5	0.00e+00	0	44	0	1319108608	55	4110
2026-01-26 07:23:40.80	338.90	17.20	-42.4	-43.2	21.4	0.00e+00	0	44	0	1322254336	55	4183
2026-01-26 07:23:41.81	338.77	17.10	-42.3	-43.2	21.4	0.00e+00	0	43	0	1326448640	55	4172
2026-01-26 07:23:42.82	338.63	17.01	-42.4	-43.3	21.3	0.00e+00	0	44	0	1329594368	55	4205
2026-01-26 07:23:43.83	338.49	16.92	-42.4	-43.3	21.3	0.00e+00	0	43	0	1332740096	55	4212
2026-01-26 07:23:44.83	338.36	16.82	-42.5	-43.4	21.2	0.00e+00	0	43	0	1335885824	55	4252
2026-01-26 07:23:45.84	338.22	16.73	-42.5	-43.4	21.1	0.00e+00	0	43	0	1339031552	55	4273
2026-01-26 07:23:46.85	338.09	16.64	-42.4	-43.3	21.2	0.00e+00	0	43	0	1342177280	55	4229
2026-01-26 07:23:47.85	337.96	16.55	-42.4	-43.3	21.2	0.00e+00	0	43	0	1345323008	55	4209
2026-01-26 07:23:48.86	337.82	16.46	-42.5	-43.3	21.2	0.00e+00	0	43	0	1348468736	55	4237
2026-01-26 07:23:49.87	337.69	16.36	-42.3	-43.1	21.4	0.00e+00	0	43	0	1350565888	55	4135
2026-01-26 07:23:50.88	337.56	16.27	-42.3	-43.2	21.3	0.00e+00	0	43	0	1353711616	55	4154
2026-01-26 07:23:51.89	337.43	16.18	-42.2	-43.1	21.4	0.00e+00	0	44	0	1356857344	55	4122
2026-01-26 07:23:52.89	337.30	16.09	-42.1	-42.9	21.6	0.00e+00	0	44	0	1360003072	55	4042
2026-01-26 07:23:53.90	337.18	16.00	-42.1	-42.9	21.5	0.00e+00	0	43	0	1363148800	55	4042
2026-01-26 07:23:54.91	337.05	15.91	-42.2	-43.1	21.4	0.00e+00	0	43	0	1367343104	55	4112
2026-01-26 07:23:55.92	336.92	15.82	-42.1	-43.0	21.5	0.00e+00	0	43	0	1370488832	55	4068
2026-01-26 07:23:56.93	336.80	15.73	-42.3	-43.2	21.4	0.00e+00	0	43	0	1373634560	55	4170
2026-01-26 07:23:57.94	336.67	15.64	-42.5	-43.4	21.2	0.00e+00	0	43	0	1376780288	55	4259
2026-01-26 07:23:58.95	336.55	15.55	-42.5	-43.4	21.2	0.00e+00	0	43	0	1379926016	55	4268
2026-01-26 07:23:59.95	336.42	15.46	-42.7	-43.6	21.0	0.00e+00	0	43	0	1383071744	55	4341
2026-01-26 07:24:00.96	336.30	15.37	-42.8	-43.7	21.0	0.00e+00	0	43	0	1386217472	56	4190
2026-01-26 07:24:01.97	336.18	15.28	-42.8	-43.8	21.0	0.00e+00	0	43	0	1389363200	56	4196
2026-01-26 07:24:02.97	336.06	15.19	-42.9	-43.8	20.9	0.00e+00	0	43	0	1392508928	56	4220
2026-01-26 07:24:03.98	335.94	15.10	-43.0	-43.9	20.8	0.00e+00	0	43	0	1395654656	56	4277
2026-01-26 07:24:04.98	335.82	15.01	-42.8	-43.8	20.9	0.00e+00	0	44	0	1397751808	56	4197
2026-01-26 07:24:05.99	335.70	14.92	-43.0	-43.9	20.8	0.00e+00	0	43	0	1400897536	56	4271
2026-01-26 07:24:07.00	335.58	14.83	-42.9	-43.9	20.8	0.00e+00	0	44	0	1404043264	56	4254
2026-01-26 07:24:08.00	335.47	14.75	-42.9	-43.8	20.9	0.00e+00	0	43	0	1407188992	56	4222
2026-01-26 07:24:09.01	335.35	14.66	-43.0	-43.9	20.8	0.00e+00	0	43	0	1411383296	56	4263
2026-01-26 07:24:10.01	335.23	14.57	-42.9	-43.8	20.9	0.00e+00	0	43	0	1414529024	56	4207
2026-01-26 07:24:11.02	335.12	14.48	-42.9	-43.8	20.9	0.00e+00	0	43	0	1417674752	56	4202
2026-01-26 07:24:12.03	335.00	14.40	-42.8	-43.7	20.9	0.00e+00	0	44	0	1420820480	56	4186
2026-01-26 07:24:13.04	334.89	14.31	-42.9	-43.8	20.8	0.00e+00	0	43	0	1423966208	56	4236
2026-01-26 07:24:14.04	334.78	14.22	-43.0	-43.9	20.7	0.00e+00	0	43	0	1427111936	56	4259
2026-01-26 07:24:15.05	334.66	14.14	-43.0	-44.0	20.7	0.00e+00	0	43	0	1430257664	56	4292
2026-01-26 07:24:16.06	334.55	14.05	-43.1	-44.0	20.5	0.00e+00	0	43	0	1433403392	56	4340
2026-01-26 07:24:17.06	334.44	13.96	-43.3	-44.2	20.4	0.00e+00	0	43	0	1436549120	57	4193
2026-01-26 07:24:18.07	334.33	13.88	-43.4	-44.4	20.3	0.00e+00	0	43	0	1439694848	57	4257
2026-01-26 07:24:19.07	334.22	13.79	-43.4	-44.4	20.3	0.00e+00	0	44	0	1442840576	57	4257
2026-01-26 07:24:20.08	334.11	13.70	-43.3	-44.3	20.4	0.00e+00	0	43	0	1444937728	57	4196
2026-01-26 07:24:21.09	334.00	13.62	-43.4	-44.4	20.3	0.00e+00	0	43	0	1448083456	57	4279
2026-01-26 07:24:22.09	333.90	13.53	-43.5	-44.5	20.2	0.00e+00	0	44	0	1451229184	57	4322
2026-01-26 07:24:23.10	333.79	13.45	-43.7	-44.7	20.0	0.00e+00	0	43	0	1454374912	57	4410
2026-01-26 07:24:24.10	333.68	13.36	-43.6	-44.6	20.1	0.00e+00	0	43	0	1457520640	58	4131
2026-01-26 07:24:25.11	333.58	13.28	-43.6	-44.7	20.0	0.00e+00	0	43	0	1461714944	58	4155
2026-01-26 07:24:26.12	333.47	13.19	-43.7	-44.7	20.0	0.00e+00	0	44	0	1464860672	58	4188
2026-01-26 07:24:27.13	333.37	13.11	-43.8	-44.8	19.9	0.00e+00	0	43	0	1468006400	58	4224
2026-01-26 07:24:28.13	333.26	13.03	-43.8	-44.9	19.8	0.00e+00	0	43	0	1471152128	58	4262
2026-01-26 07:24:29.14	333.16	12.94	-43.9	-45.0	19.7	0.00e+00	0	43	0	1474297856	58	4292
2026-01-26 07:24:30.15	333.06	12.86	-43.8	-44.8	19.8	1.50e-06	0	43	0	1477443584	58	4231
2026-01-26 07:24:31.16	332.95	12.77	-43.8	-44.8	19.8	0.00e+00	0	43	0	1480589312	58	4226
2026-01-26 07:24:32.17	332.85	12.69	-43.8	-44.8	19.8	0.00e+00	0	43	0	1483735040	58	4221
2026-01-26 07:24:33.17	332.75	12.61	-43.8	-44.9	19.7	0.00e+00	0	43	0	1486880768	58	4253
2026-01-26 07:24:34.18	332.65	12.52	-43.8	-44.9	19.7	0.00e+00	0	44	0	1490026496	58	4254
2026-01-26 07:24:35.19	332.55	12.44	-43.5	-44.5	20.1	0.00e+00	0	44	0	1492123648	58	4094
2026-01-26 07:24:36.20	332.45	12.36	-43.5	-44.5	20.1	0.00e+00	0	43	0	1495269376	58	4058
2026-01-26 07:24:37.20	332.35	12.28	-43.5	-44.5	20.0	0.00e+00	0	44	0	1498415104	58	4098
2026-01-26 07:24:38.21	332.25	12.19	-43.6	-44.6	20.0	0.00e+00	0	44	0	1502609408	58	4106
2026-01-26 07:24:39.22	332.16	12.11	-43.4	-44.4	20.2	0.00e+00	0	44	0	1505755136	58	4041
2026-01-26 07:24:40.23	332.06	12.03	-43.4	-44.3	20.3	0.00e+00	0	43	0	1508900864	58	3990
2026-01-26 07:24:41.23	331.96	11.95	-43.5	-44.5	20.1	0.00e+00	0	44	0	1512046592	58	4074
2026-01-26 07:24:42.24	331.87	11.87	-43.4	-44.4	20.2	0.00e+00	0	44	0	1515192320	58	4033
2026-01-26 07:24:43.25	331.77	11.78	-43.5	-44.5	20.1	0.00e+00	0	44	0	1518338048	58	4088
2026-01-26 07:24:44.26	331.67	11.70	-43.6	-44.6	20.0	0.00e+00	0	44	0	1521483776	58	4137
2026-01-26 07:24:45.26	331.58	11.62	-43.7	-44.7	19.9	0.00e+00	0	43	0	1524629504	58	4191
2026-01-26 07:24:46.26	331.49	11.54	-43.7	-44.8	19.9	0.00e+00	0	43	0	1527775232	58	4208
2026-01-26 07:24:47.27	331.39	11.46	-43.9	-45.0	19.7	0.00e+00	0	43	0	1530920960	58	4312
2026-01-26 07:24:48.28	331.30	11.38	-44.1	-45.2	19.4	0.00e+00	0	44	0	1534066688	58	4428
2026-01-26 07:24:49.29	331.21	11.30	-44.1	-45.2	19.5	0.00e+00	0	44	0	1537212416	58	4411
2026-01-26 07:24:50.29	331.12	11.22	-44.2	-45.3	19.3	0.00e+00	0	43	0	1539309568	58	4479
2026-01-26 07:24:51.30	331.03	11.14	-44.3	-45.4	19.3	0.00e+00	0	43	0	1542455296	59	4267
2026-01-26 07:24:52.31	330.94	11.06	-44.2	-45.3	19.3	0.00e+00	0	43	0	1546649600	59	4221
2026-01-26 07:24:53.32	330.85	10.98	-44.2	-45.3	19.3	0.00e+00	0	44	0	1549795328	59	4238
2026-01-26 07:24:54.33	330.76	10.90	-44.3	-45.4	19.2	0.00e+00	0	43	0	1552941056	59	4273
2026-01-26 07:24:55.34	330.67	10.82	-44.2	-45.3	19.3	0.00e+00	0	43	0	1556086784	59	4205
2026-01-26 07:24:56.35	330.58	10.74	-44.2	-45.3	19.3	0.00e+00	0	43	0	1559232512	59	4200
2026-01-26 07:24:57.35	330.49	10.66	-44.0	-45.1	19.4	0.00e+00	0	43	0	1562378240	59	4129
2026-01-26 07:24:58.36	330.40	10.59	-44.0	-45.1	19.4	0.00e+00	0	43	0	1565523968	59	4133
2026-01-26 07:24:59.37	330.31	10.51	-43.9	-45.0	19.5	0.00e+00	0	43	0	1568669696	59	4081
2026-01-26 07:25:00.37	330.23	10.43	-44.0	-45.0	19.5	0.00e+00	0	43	0	1571815424	59	4094
2026-01-26 07:25:01.39	330.14	10.35	-43.9	-44.9	19.6	0.00e+00	0	43	0	1574961152	59	4048
2026-01-26 07:25:02.39	330.06	10.27	-44.0	-45.0	19.5	0.00e+00	0	43	0	1578106880	59	4080
2026-01-26 07:25:03.40	329.97	10.20	-43.8	-44.9	19.6	0.00e+00	0	43	0	1581252608	59	4020
2026-01-26 07:25:04.40	329.89	10.12	-43.9	-44.9	19.6	7.00e-07	0	43	0	1584398336	59	4046
2026-01-26 07:25:05.41	329.80	10.04	-43.8	-44.9	19.7	0.00e+00	0	43	0	1587544064	59	4013
2026-01-26 07:25:06.42	329.72	9.96	-43.8	-44.8	19.7	0.00e+00	0	43	0	1590689792	59	4003
2026-01-26 07:25:07.43	329.63	9.89	-44.0	-45.1	19.5	0.00e+00	0	44	0	1593835520	59	4112
2026-01-26 07:25:08.43	329.55	9.81	-43.7	-44.7	19.9	0.00e+00	0	43	0	1596981248	59	3924
2026-01-26 07:25:09.44	329.47	9.73	-43.8	-44.8	19.7	0.00e+00	0	43	0	1600126976	59	3993
2026-01-26 07:25:10.44	329.39	9.66	-44.0	-45.0	19.6	0.00e+00	0	44	0	1603272704	59	4087
2026-01-26 07:25:11.45	329.31	9.58	-44.1	-45.2	19.3	0.00e+00	0	43	0	1606418432	59	4186
2026-01-26 07:25:12.46	329.22	9.50	-44.0	-45.1	19.5	0.00e+00	0	44	0	1609564160	59	4125
2026-01-26 07:25:13.47	329.14	9.43	-44.0	-45.1	19.5	0.00e+00	0	43	0	1612709888	59	4108
2026-01-26 07:25:14.47	329.06	9.35	-44.0	-45.1	19.5	0.00e+00	0	43	0	1615855616	59	4111
2026-01-26 07:25:15.48	328.98	9.28	-44.1	-45.2	19.4	0.00e+00	0	43	0	1619001344	59	4150
2026-01-26 07:25:16.49	328.90	9.20	-44.2	-45.3	19.3	0.00e+00	0	43	0	1622147072	59	4203
2026-01-26 07:25:17.50	328.83	9.13	-44.2	-45.3	19.2	0.00e+00	0	43	0	1625292800	59	4232
2026-01-26 07:25:18.50	328.75	9.05	-44.4	-45.6	19.0	0.00e+00	0	43	0	1628438528	59	4364
2026-01-26 07:25:19.52	328.67	8.98	-44.5	-45.6	18.9	0.00e+00	0	43	0	1631584256	59	4391
2026-01-26 07:25:20.52	328.59	8.90	-44.6	-45.8	18.7	0.00e+00	0	43	0	1634729984	59	4464
2026-01-26 07:25:21.53	328.51	8.83	-44.7	-45.8	18.7	0.00e+00	0	43	0	1637875712	59	4487
2026-01-26 07:25:22.54	328.44	8.75	-44.4	-45.6	18.6	0.00e+00	0	43	0	1641021440	60	4103
2026-01-26 07:25:23.55	328.36	8.68	-44.5	-45.7	18.5	0.00e+00	0	43	0	1644167168	60	4161
2026-01-26 07:25:24.56	328.28	8.60	-44.1	-45.2	18.9	0.00e+00	0	43	0	1647312896	60	3935
2026-01-26 07:25:25.56	328.21	8.53	-44.4	-45.6	18.9	0.00e+00	0	43	0	1650458624	59	4348
2026-01-26 07:25:26.56	328.13	8.46	-44.3	-45.4	19.0	0.00e+00	0	43	0	1653604352	59	4277
2026-01-26 07:25:27.57	328.06	8.38	-44.3	-45.4	19.0	0.00e+00	0	43	0	1656750080	59	4279
2026-01-26 07:25:28.58	327.98	8.31	-44.4	-45.6	18.9	0.00e+00	0	44	0	1659895808	59	4345
2026-01-26 07:25:29.59	327.91	8.24	-44.4	-45.5	18.9	0.00e+00	0	44	0	1663041536	59	4323
2026-01-26 07:25:30.59	327.84	8.16	-44.1	-45.2	19.2	0.00e+00	0	43	0	1666187264	59	4172
2026-01-26 07:25:31.60	327.76	8.09	-44.3	-45.4	19.0	0.00e+00	0	44	0	1669332992	59	4283
2026-01-26 07:25:32.61	327.69	8.02	-44.2	-45.3	19.1	0.00e+00	0	44	0	1672478720	59	4218
2026-01-26 07:25:33.62	327.62	7.95	-44.3	-45.4	19.0	0.00e+00	0	43	0	1675624448	59	4271
2026-01-26 07:25:34.63	327.54	7.87	-44.2	-45.3	19.1	0.00e+00	0	43	0	1678770176	59	4210
2026-01-26 07:25:35.63	327.47	7.80	-44.1	-45.2	19.2	0.00e+00	0	43	0	1681915904	59	4171
2026-01-26 07:25:36.64	327.40	7.73	-44.3	-45.5	18.9	0.00e+00	0	43	0	1685061632	59	4302
2026-01-26 07:25:37.65	327.33	7.66	-44.3	-45.5	18.9	0.00e+00	0	44	0	1688207360	59	4302
2026-01-26 07:25:38.65	327.26	7.59	-44.2	-45.3	19.1	0.00e+00	0	43	0	1691353088	59	4222
2026-01-26 07:25:39.66	327.19	7.51	-44.3	-45.5	18.9	0.00e+00	0	44	0	1694498816	59	4306
2026-01-26 07:25:40.67	327.12	7.44	-44.5	-45.7	18.7	0.00e+00	0	43	0	1697644544	59	4405
2026-01-26 07:25:41.68	327.05	7.37	-44.7	-45.9	18.5	0.00e+00	0	44	0	1700790272	59	4524
2026-01-26 07:25:42.68	326.98	7.30	-44.1	-45.3	18.8	0.00e+00	0	44	0	1703936000	60	3965
2026-01-26 07:25:43.69	326.91	7.23	-44.1	-45.2	18.8	0.00e+00	0	43	0	1707081728	60	3931
2026-01-26 07:25:44.69	326.84	7.16	-44.3	-45.5	18.6	0.00e+00	0	44	0	1710227456	60	4056
2026-01-26 07:25:45.70	326.78	7.09	-44.0	-45.1	18.9	0.00e+00	0	44	0	1713373184	60	3909
2026-01-26 07:25:46.71	326.71	7.02	-44.1	-45.2	18.8	0.00e+00	0	43	0	1716518912	60	3955
2026-01-26 07:25:47.72	326.64	6.95	-44.3	-45.4	18.6	0.00e+00	0	43	0	1719664640	60	4043
2026-01-26 07:25:48.73	326.57	6.88	-44.3	-45.5	18.6	0.00e+00	0	43	0	1722810368	60	4062
2026-01-26 07:25:49.73	326.51	6.81	-44.2	-45.4	18.6	0.00e+00	0	43	0	1725956096	60	4037
2026-01-26 07:25:50.74	326.44	6.74	-44.3	-45.5	18.5	0.00e+00	0	44	0	1729101824	60	4088
2026-01-26 07:25:51.75	326.37	6.67	-44.3	-45.5	18.5	0.00e+00	0	44	0	1732247552	60	4081
2026-01-26 07:25:52.76	326.31	6.60	-44.6	-45.8	18.2	0.00e+00	0	43	0	1735393280	60	4223
2026-01-26 07:25:53.77	326.24	6.53	-44.4	-45.6	18.4	0.00e+00	0	44	0	1738539008	60	4127
2026-01-26 07:25:54.77	326.18	6.46	-44.3	-45.5	18.5	0.00e+00	0	43	0	1741684736	60	4056
2026-01-26 07:25:55.78	326.11	6.39	-44.6	-45.8	18.1	0.00e+00	0	43	0	1744830464	60	4226
2026-01-26 07:25:56.79	326.05	6.32	-44.5	-45.7	18.2	0.00e+00	0	43	0	1747976192	60	4192
2026-01-26 07:25:57.80	325.98	6.25	-44.6	-45.8	18.1	0.00e+00	0	44	0	1751121920	60	4230
2026-01-26 07:25:58.81	325.92	6.18	-44.5	-45.7	18.1	0.00e+00	0	43	0	1754267648	60	4186
2026-01-26 07:25:59.82	325.86	6.11	-44.8	-46.1	17.8	0.00e+00	0	44	0	1757413376	60	4383
2026-01-26 07:26:00.82	325.79	6.05	-44.8	-46.2	17.8	0.00e+00	0	43	0	1760559104	60	4393
2026-01-26 07:26:01.83	325.73	5.98	-45.1	-46.4	17.5	0.00e+00	0	43	0	1763704832	60	4513
2026-01-26 07:26:02.84	325.67	5.91	-45.0	-46.3	17.6	0.00e+00	0	43	0	1766850560	60	4457
2026-01-26 07:26:03.84	325.61	5.84	-45.1	-46.5	17.5	0.00e+00	0	43	0	1769996288	60	4546
2026-01-26 07:26:04.85	325.54	5.77	-44.9	-46.2	17.7	0.00e+00	0	44	0	1773142016	61	4181
2026-01-26 07:26:05.85	325.48	5.71	-44.7	-46.0	17.9	0.00e+00	0	43	0	1776287744	61	4060
2026-01-26 07:26:06.86	325.42	5.64	-44.6	-45.9	18.0	0.00e+00	0	44	0	1779433472	61	4016
2026-01-26 07:26:07.87	325.36	5.57	-44.8	-46.1	17.8	0.00e+00	0	44	0	1782579200	61	4106
2026-01-26 07:26:08.87	325.30	5.50	-44.5	-45.8	18.0	0.00e+00	0	44	0	1785724928	61	3976
2026-01-26 07:26:09.88	325.24	5.44	-45.1	-46.5	17.4	0.00e+00	0	44	0	1788870656	61	4305
2026-01-26 07:26:10.89	325.18	5.37	-44.6	-45.8	18.0	0.00e+00	0	44	0	1792016384	61	3982
2026-01-26 07:26:11.89	325.12	5.30	-44.8	-46.1	17.8	0.00e+00	0	43	0	1795162112	60	4342
2026-01-26 07:26:12.90	325.06	5.24	-44.4	-45.7	18.1	0.00e+00	0	43	0	1798307840	60	4148
2026-01-26 07:26:13.91	325.00	5.17	-44.6	-45.9	17.9	0.00e+00	0	44	0	1801453568	60	4268
2026-01-26 07:26:14.91	324.94	5.10	-45.0	-46.3	17.5	0.00e+00	0	44	0	1804599296	60	4469
2026-01-26 07:26:15.92	324.88	5.04	-45.1	-46.5	17.4	0.00e+00	0	43	0	1807745024	60	4548
2026-01-26 07:26:16.93	324.82	4.97	-52.0	-63.7	3.8	7.38e-01	0	43	104	1809842176	74	14819
2026-01-26 07:26:17.93	324.77	4.90	-51.4	-64.1	3.8	1.49e+00	0	44	104	1809842176	74	15557
2026-01-26 07:26:18.94	324.71	4.84	-48.3	-61.0	3.8	1.49e+00	0	43	104	1809842176	68	15302
2026-01-26 07:26:19.95	324.65	4.77	-48.3	-60.9	3.8	1.49e+00	0	44	104	1809842176	68	15213
2026-01-26 07:26:20.96	324.59	4.71	-48.3	-60.9	3.8	1.49e+00	0	44	104	1809842176	68	15194
2026-01-26 07:26:21.97	324.53	4.64	-48.2	-60.9	3.8	1.49e+00	0	44	104	1809842176	68	15164
2026-01-26 07:26:22.98	324.48	4.58	-48.2	-60.9	3.8	1.49e+00	0	44	104	1809842176	68	15082
2026-01-26 07:26:23.99	324.42	4.51	-48.2	-60.9	3.8	1.49e+00	0	44	104	1809842176	68	15142
2026-01-26 07:26:25.00	324.36	4.45	-48.2	-60.9	3.8	1.49e+00	0	44	104	1809842176	68	15117
2026-01-26 07:26:26.00	324.31	4.38	-48.2	-60.9	3.8	1.49e+00	0	44	104	1809842176	68	15128
2026-01-26 07:26:27.01	324.25	4.32	-48.2	-60.9	3.8	1.49e+00	0	44	104	1809842176	68	15125
2026-01-26 07:26:28.02	324.20	4.25	-48.2	-60.9	3.8	1.49e+00	0	44	104	1809842176	68	15109
2026-01-26 07:26:29.03	324.14	4.19	-48.2	-60.9	3.8	1.49e+00	0	44	104	1809842176	68	15137
2026-01-26 07:26:30.04	324.09	4.12	-48.2	-60.9	3.8	1.49e+00	0	44	104	1809842176	68	15132
2026-01-26 07:26:31.05	324.03	4.06	-48.2	-60.9	3.8	1.49e+00	0	44	104	1809842176	68	15157
2026-01-26 07:26:32.05	323.98	3.99	-48.2	-60.9	3.8	1.49e+00	0	44	104	1809842176	68	15119
2026-01-26 07:26:33.06	323.92	3.93	-48.2	-60.9	3.8	1.49e+00	0	44	104	1809842176	68	15143
2026-01-26 07:26:34.07	323.87	3.86	-48.2	-60.9	3.8	1.49e+00	0	44	104	1809842176	68	15110
2026-01-26 07:26:35.07	323.82	3.80	-48.2	-60.9	3.8	1.49e+00	0	44	104	1809842176	68	15147
2026-01-26 07:26:36.08	323.76	3.74	-48.2	-60.9	3.8	1.49e+00	0	44	104	1809842176	68	15145
2026-01-26 07:26:37.09	323.71	3.67	-48.2	-60.9	3.8	1.49e+00	0	44	104	1809842176	68	15103
2026-01-26 07:26:38.09	323.66	3.61	-48.2	-60.9	3.8	1.49e+00	0	44	104	1809842176	68	15118
2026-01-26 07:26:39.10	323.60	3.55	-48.2	-60.9	3.8	1.49e+00	0	44	104	1809842176	68	15066
2026-01-26 07:26:40.11	323.55	3.48	-48.2	-60.9	3.8	1.49e+00	0	44	104	1809842176	68	15095
2026-01-26 07:26:41.12	323.50	3.42	-48.2	-60.9	3.8	1.49e+00	0	44	104	1809842176	68	15130
2026-01-26 07:26:42.13	323.45	3.36	-48.2	-60.9	3.8	1.49e+00	0	44	104	1809842176	68	15084
2026-01-26 07:26:43.13	323.40	3.29	-48.2	-60.9	3.8	1.49e+00	0	44	104	1809842176	68	15161
