passes_logs/2026/01/26/R3.2S_Murmansk/R3.2S_Murmansk__20260126_122924_AQUA_rec.log

#Pass ID: 20260126_122924_AQUA
#Satellite: AQUA
#Configuration: AQUA
#almurnet v.1.7.20251203
#Start time: 2026-01-26 12:29:26

#Version: 2.2.20231116
#Station: R3.2S_Murmansk
#Location: 33.079688 lon 68.888172 lat
#TLE: 1 27424U 02022A   26025.91340420  .00001969  00000+0  40368-3 0  9991
#TLE: 2 27424  98.4100 352.5253 0001880  65.2649  27.8322 14.61861165262482

#Time	Az	El	Level	Level2	SNR	BER	BlckErr	Temp	State	Recorded	gain1	gain2
2026-01-26 12:29:26.38	182.94	2.09	-54.7	-72.5	3.8	7.43e-01	0	43	0	0	80	28892
2026-01-26 12:29:27.39	182.98	2.16	-54.7	-72.5	3.8	7.49e-01	0	43	104	0	80	28988
2026-01-26 12:29:28.39	183.03	2.22	-54.7	-72.5	3.8	7.48e-01	0	43	104	0	80	28875
2026-01-26 12:29:29.40	183.07	2.29	-54.7	-72.5	3.8	7.46e-01	0	43	104	0	80	28919
2026-01-26 12:29:30.41	183.11	2.35	-54.7	-72.5	3.8	7.45e-01	0	43	104	0	80	28827
2026-01-26 12:29:31.42	183.16	2.42	-54.7	-72.5	3.8	7.46e-01	0	43	104	0	80	28945
2026-01-26 12:29:32.42	183.20	2.48	-54.7	-72.5	3.8	7.48e-01	0	43	104	0	80	28861
2026-01-26 12:29:33.43	183.25	2.55	-54.7	-72.5	3.8	7.42e-01	0	43	104	0	80	28906
2026-01-26 12:29:34.43	183.29	2.62	-54.7	-72.5	3.8	7.45e-01	0	43	104	0	80	28881
2026-01-26 12:29:35.44	183.34	2.68	-54.7	-72.5	3.8	7.45e-01	0	43	104	0	80	28834
2026-01-26 12:29:36.44	183.38	2.75	-54.7	-72.5	3.8	7.45e-01	0	43	104	0	80	28799
2026-01-26 12:29:37.44	183.43	2.81	-54.7	-72.5	3.8	7.46e-01	0	43	104	0	80	28807
2026-01-26 12:29:38.45	183.47	2.88	-54.7	-72.5	3.8	7.43e-01	0	43	104	0	80	28857
2026-01-26 12:29:39.46	183.52	2.95	-54.7	-72.5	3.8	7.49e-01	0	43	104	0	80	28819
2026-01-26 12:29:40.47	183.56	3.01	-54.7	-72.5	3.8	7.45e-01	0	43	104	0	80	28863
2026-01-26 12:29:41.48	183.61	3.08	-54.7	-72.5	3.8	7.46e-01	0	43	104	0	80	28806
2026-01-26 12:29:42.48	183.66	3.15	-54.7	-72.5	3.8	7.46e-01	0	43	104	0	80	28866
2026-01-26 12:29:43.49	183.70	3.22	-54.7	-72.5	3.8	7.45e-01	0	43	104	0	80	28856
2026-01-26 12:29:44.50	183.75	3.28	-54.7	-72.5	3.8	7.48e-01	0	44	104	0	80	28823
2026-01-26 12:29:45.51	183.80	3.35	-54.7	-72.5	3.8	7.42e-01	0	43	104	0	80	28819
2026-01-26 12:29:46.51	183.84	3.42	-54.7	-72.5	3.8	7.41e-01	0	43	104	0	80	28808
2026-01-26 12:29:47.52	183.89	3.49	-54.7	-72.5	3.8	7.42e-01	0	43	104	0	80	28843
2026-01-26 12:29:48.53	183.94	3.56	-54.7	-72.5	3.8	7.41e-01	0	44	104	0	80	28793
2026-01-26 12:29:49.53	183.99	3.62	-54.7	-72.5	3.8	7.48e-01	0	43	104	0	80	28820
2026-01-26 12:29:50.54	184.03	3.69	-54.7	-72.5	3.8	7.47e-01	0	43	104	0	80	28837
2026-01-26 12:29:51.55	184.08	3.76	-54.7	-72.5	3.8	7.45e-01	0	43	104	0	80	28837
2026-01-26 12:29:52.56	184.13	3.83	-54.7	-72.5	3.8	7.43e-01	0	43	104	0	80	28852
2026-01-26 12:29:53.57	184.18	3.90	-54.7	-72.5	3.8	7.43e-01	0	43	104	0	80	28819
2026-01-26 12:29:54.58	184.23	3.97	-54.7	-72.5	3.8	7.47e-01	0	44	104	0	80	28773
2026-01-26 12:29:55.59	184.28	4.04	-54.7	-72.5	3.8	7.44e-01	0	43	104	0	80	28797
2026-01-26 12:29:56.60	184.33	4.11	-54.6	-72.5	3.8	7.47e-01	0	43	104	0	80	28754
2026-01-26 12:29:57.61	184.38	4.18	-54.7	-72.5	3.8	7.42e-01	0	43	104	0	80	28846
2026-01-26 12:29:58.61	184.43	4.25	-54.7	-72.5	3.8	7.44e-01	0	43	104	0	80	28840
2026-01-26 12:29:59.61	184.48	4.32	-54.7	-72.5	3.8	7.48e-01	0	43	104	0	80	28781
2026-01-26 12:30:00.62	184.53	4.39	-54.7	-72.5	3.8	7.46e-01	0	43	104	0	80	28809
2026-01-26 12:30:01.63	184.58	4.46	-54.7	-72.5	3.8	7.46e-01	0	43	104	0	80	28828
2026-01-26 12:30:02.64	184.63	4.53	-54.7	-72.5	3.8	7.48e-01	0	43	104	0	80	28782
2026-01-26 12:30:03.64	184.68	4.60	-54.7	-72.5	3.8	7.43e-01	0	43	104	0	80	28791
2026-01-26 12:30:04.65	184.73	4.67	-54.6	-72.5	3.8	7.43e-01	0	43	104	0	80	28774
2026-01-26 12:30:05.66	184.78	4.74	-54.6	-72.5	3.8	7.44e-01	0	43	104	0	80	28794
2026-01-26 12:30:06.67	184.84	4.81	-54.6	-72.5	3.8	7.41e-01	0	44	104	0	80	28803
2026-01-26 12:30:07.68	184.89	4.89	-54.7	-72.5	3.8	7.44e-01	0	44	104	0	80	28784
2026-01-26 12:30:08.68	184.94	4.96	-54.7	-72.5	3.8	7.47e-01	0	43	104	0	80	28777
2026-01-26 12:30:09.69	184.99	5.03	-54.7	-72.5	3.8	7.42e-01	0	43	104	0	80	28798
2026-01-26 12:30:10.69	185.05	5.10	-54.6	-72.5	3.8	7.46e-01	0	43	104	0	80	28778
2026-01-26 12:30:11.70	185.10	5.18	-54.6	-72.5	3.8	7.45e-01	0	43	104	0	80	28751
2026-01-26 12:30:12.71	185.15	5.25	-54.6	-72.5	3.8	7.46e-01	0	43	104	0	80	28789
2026-01-26 12:30:13.72	185.21	5.32	-54.7	-72.5	3.8	7.44e-01	0	43	104	0	80	28775
2026-01-26 12:30:14.72	185.26	5.39	-54.7	-72.5	3.8	7.43e-01	0	43	104	0	80	28776
2026-01-26 12:30:15.73	185.31	5.47	-54.6	-72.5	3.8	7.48e-01	0	43	104	0	80	28761
2026-01-26 12:30:16.74	185.37	5.54	-54.6	-72.5	3.8	7.42e-01	0	43	104	0	80	28792
2026-01-26 12:30:17.75	185.42	5.62	-54.6	-72.5	3.8	7.45e-01	0	43	104	0	80	28783
2026-01-26 12:30:18.76	185.48	5.69	-54.6	-72.5	3.8	7.47e-01	0	43	104	0	80	28758
2026-01-26 12:30:19.77	185.54	5.76	-54.7	-72.5	3.8	7.45e-01	0	43	104	0	80	28767
2026-01-26 12:30:20.77	185.59	5.84	-54.6	-72.5	3.8	7.43e-01	0	43	104	0	80	28721
2026-01-26 12:30:21.78	185.65	5.91	-54.6	-72.5	3.8	7.47e-01	0	43	104	0	80	28767
2026-01-26 12:30:22.79	185.70	5.99	-54.6	-72.5	3.8	7.47e-01	0	43	104	0	80	28775
2026-01-26 12:30:23.79	185.76	6.06	-54.6	-72.5	3.8	7.42e-01	0	43	104	0	80	28718
2026-01-26 12:30:24.80	185.82	6.14	-54.6	-72.5	3.8	7.43e-01	0	43	104	0	80	28694
2026-01-26 12:30:25.81	185.87	6.21	-54.6	-72.5	3.8	7.45e-01	0	43	104	0	80	28692
2026-01-26 12:30:26.82	185.93	6.29	-54.6	-72.5	3.8	7.48e-01	0	43	104	0	80	28752
2026-01-26 12:30:27.83	185.99	6.37	-54.6	-72.5	3.8	7.46e-01	0	43	104	0	80	28779
2026-01-26 12:30:28.83	186.05	6.44	-54.6	-72.5	3.8	7.43e-01	0	43	104	0	80	28733
2026-01-26 12:30:29.84	186.11	6.52	-54.6	-72.5	3.8	7.45e-01	0	43	104	0	80	28795
2026-01-26 12:30:30.85	186.16	6.59	-54.6	-72.5	3.8	7.46e-01	0	44	104	0	80	28715
2026-01-26 12:30:31.86	186.22	6.67	-54.6	-72.5	3.8	7.47e-01	0	43	104	0	80	28794
2026-01-26 12:30:32.87	186.28	6.75	-54.6	-72.5	3.8	7.46e-01	0	43	104	0	80	28711
2026-01-26 12:30:33.87	186.34	6.83	-54.6	-72.5	3.8	7.46e-01	0	43	104	0	80	28778
2026-01-26 12:30:34.87	186.40	6.90	-54.7	-72.5	3.8	7.46e-01	0	43	104	0	80	28726
2026-01-26 12:30:35.88	186.46	6.98	-54.6	-72.5	3.8	7.47e-01	0	43	104	0	80	28801
2026-01-26 12:30:36.88	186.52	7.06	-54.6	-72.5	3.8	7.50e-01	0	43	104	0	80	28722
2026-01-26 12:30:37.89	186.58	7.14	-54.6	-72.5	3.8	7.47e-01	0	43	104	0	80	28778
2026-01-26 12:30:38.90	186.65	7.22	-54.6	-72.5	3.8	7.44e-01	0	43	104	0	80	28740
2026-01-26 12:30:39.91	186.71	7.30	-54.6	-72.5	3.8	7.45e-01	0	43	104	0	80	28711
2026-01-26 12:30:40.92	186.77	7.37	-54.6	-72.5	3.8	7.43e-01	0	43	104	0	80	28770
2026-01-26 12:30:41.93	186.83	7.45	-54.6	-72.5	3.8	7.45e-01	0	43	104	0	80	28762
2026-01-26 12:30:42.93	186.90	7.53	-54.6	-72.5	3.8	7.46e-01	0	43	104	0	80	28738
2026-01-26 12:30:43.94	186.96	7.61	-54.6	-72.5	3.8	7.45e-01	0	43	104	0	80	28715
2026-01-26 12:30:44.95	187.02	7.69	-54.6	-72.5	3.8	7.45e-01	0	43	104	0	80	28759
2026-01-26 12:30:45.96	187.09	7.77	-54.6	-72.5	3.8	7.45e-01	0	43	104	0	80	28698
2026-01-26 12:30:46.96	187.15	7.85	-54.6	-72.5	3.8	7.42e-01	0	43	104	0	80	28729
2026-01-26 12:30:47.97	187.21	7.94	-54.6	-72.5	3.8	7.49e-01	0	43	104	0	80	28741
2026-01-26 12:30:48.97	187.28	8.02	-54.6	-72.4	3.8	7.47e-01	0	43	104	0	80	28659
2026-01-26 12:30:49.98	187.34	8.10	-54.6	-72.5	3.8	7.45e-01	0	43	104	0	80	28746
2026-01-26 12:30:50.98	187.41	8.18	-54.6	-72.5	3.8	7.48e-01	0	43	104	0	80	28712
2026-01-26 12:30:51.99	187.48	8.26	-54.6	-72.5	3.8	7.46e-01	0	43	104	0	80	28807
2026-01-26 12:30:53.00	187.54	8.34	-54.6	-72.5	3.8	7.44e-01	0	44	104	0	80	28743
2026-01-26 12:30:54.01	187.61	8.43	-54.6	-72.5	3.8	7.47e-01	0	43	104	0	80	28737
2026-01-26 12:30:55.01	187.68	8.51	-54.6	-72.5	3.8	7.44e-01	0	44	104	0	80	28752
2026-01-26 12:30:56.02	187.74	8.59	-54.6	-72.5	3.8	7.44e-01	0	44	104	0	80	28794
2026-01-26 12:30:57.02	187.81	8.67	-54.6	-72.5	3.8	7.45e-01	0	43	104	0	80	28756
2026-01-26 12:30:58.03	187.88	8.76	-54.6	-72.5	3.8	7.49e-01	0	43	104	0	80	28767
2026-01-26 12:30:59.04	187.95	8.84	-54.6	-72.5	3.8	7.46e-01	0	44	104	0	80	28727
2026-01-26 12:31:00.05	188.02	8.93	-54.6	-72.5	3.8	7.47e-01	0	43	104	0	80	28734
2026-01-26 12:31:01.05	188.09	9.01	-54.6	-72.5	3.8	7.47e-01	0	43	104	0	80	28805
2026-01-26 12:31:02.06	188.16	9.10	-54.6	-72.5	3.8	7.44e-01	0	43	104	0	80	28751
2026-01-26 12:31:03.07	188.23	9.18	-54.6	-72.5	3.8	7.49e-01	0	44	104	0	80	28690
2026-01-26 12:31:04.07	188.30	9.26	-54.6	-72.4	3.8	7.42e-01	0	43	104	0	80	28670
2026-01-26 12:31:05.08	188.37	9.35	-54.6	-72.4	3.8	7.45e-01	0	44	104	0	80	28677
2026-01-26 12:31:06.09	188.44	9.44	-54.6	-72.5	3.8	7.49e-01	0	43	104	0	80	28682
2026-01-26 12:31:07.10	188.51	9.52	-54.6	-72.5	3.8	7.43e-01	0	44	104	0	80	28787
2026-01-26 12:31:08.10	188.59	9.61	-54.6	-72.5	3.8	7.47e-01	0	44	104	0	80	28708
2026-01-26 12:31:09.11	188.66	9.70	-54.6	-72.5	3.8	7.44e-01	0	43	104	0	80	28745
2026-01-26 12:31:10.12	188.73	9.78	-54.6	-72.5	3.8	7.43e-01	0	43	104	0	80	28703
2026-01-26 12:31:11.13	188.81	9.87	-54.6	-72.5	3.8	7.42e-01	0	43	104	0	80	28741
2026-01-26 12:31:12.13	188.88	9.96	-54.6	-72.5	3.8	7.45e-01	0	44	104	0	80	28756
2026-01-26 12:31:13.14	188.96	10.05	-54.6	-72.5	3.8	7.44e-01	0	43	104	0	80	28709
2026-01-26 12:31:14.15	189.03	10.13	-54.6	-72.4	3.8	7.47e-01	0	44	104	0	80	28678
2026-01-26 12:31:15.15	189.11	10.22	-54.6	-72.5	3.8	7.46e-01	0	43	104	0	80	28730
2026-01-26 12:31:16.16	189.18	10.31	-54.6	-72.5	3.8	7.42e-01	0	43	104	0	80	28721
2026-01-26 12:31:17.17	189.26	10.40	-54.6	-72.5	3.8	7.44e-01	0	43	104	0	80	28715
2026-01-26 12:31:18.17	189.34	10.49	-54.6	-72.5	3.8	7.41e-01	0	43	104	0	80	28704
2026-01-26 12:31:19.18	189.41	10.58	-54.6	-72.4	3.8	7.43e-01	0	44	104	0	80	28662
2026-01-26 12:31:20.19	189.49	10.67	-54.6	-72.5	3.8	7.47e-01	0	44	104	0	80	28688
2026-01-26 12:31:21.20	189.57	10.76	-54.6	-72.5	3.8	7.47e-01	0	44	104	0	80	28688
2026-01-26 12:31:22.20	189.65	10.85	-54.6	-72.5	3.8	7.44e-01	0	43	104	0	80	28753
2026-01-26 12:31:23.21	189.73	10.94	-54.6	-72.4	3.8	7.49e-01	0	44	104	0	80	28679
2026-01-26 12:31:24.22	189.81	11.04	-54.6	-72.4	3.8	7.48e-01	0	43	104	0	80	28679
2026-01-26 12:31:25.23	189.89	11.13	-54.6	-72.5	3.8	7.44e-01	0	43	104	0	80	28737
2026-01-26 12:31:26.24	189.97	11.22	-54.6	-72.5	3.8	7.44e-01	0	43	104	0	80	28718
2026-01-26 12:31:27.25	190.05	11.31	-54.6	-72.4	3.8	7.46e-01	0	43	104	0	80	28666
2026-01-26 12:31:28.25	190.14	11.41	-54.6	-72.5	3.8	7.46e-01	0	43	104	0	80	28702
2026-01-26 12:31:29.26	190.22	11.50	-54.6	-72.4	3.8	7.44e-01	0	43	104	0	80	28617
2026-01-26 12:31:30.27	190.30	11.59	-54.6	-72.5	3.8	7.47e-01	0	43	104	0	80	28703
2026-01-26 12:31:31.28	190.39	11.69	-54.6	-72.4	3.8	7.46e-01	0	43	104	0	80	28666
2026-01-26 12:31:32.29	190.47	11.78	-54.6	-72.5	3.8	7.48e-01	0	43	104	0	80	28689
2026-01-26 12:31:33.30	190.56	11.88	-54.6	-72.4	3.8	7.45e-01	0	43	104	0	80	28669
2026-01-26 12:31:34.31	190.64	11.97	-54.6	-72.4	3.8	7.48e-01	0	43	104	0	80	28662
2026-01-26 12:31:35.31	190.73	12.07	-54.6	-72.4	3.8	7.45e-01	0	43	104	0	80	28633
2026-01-26 12:31:36.32	190.81	12.16	-54.6	-72.4	3.8	7.49e-01	0	43	104	0	80	28577
2026-01-26 12:31:37.32	190.90	12.26	-54.6	-72.4	3.8	7.47e-01	0	43	104	0	80	28640
2026-01-26 12:31:38.33	190.99	12.35	-54.6	-72.5	3.8	7.44e-01	0	43	104	0	80	28693
2026-01-26 12:31:39.34	191.08	12.45	-54.6	-72.5	3.8	7.47e-01	0	44	104	0	80	28680
2026-01-26 12:31:40.35	191.17	12.55	-54.6	-72.4	3.8	7.48e-01	0	43	104	0	80	28630
2026-01-26 12:31:41.36	191.26	12.65	-54.6	-72.4	3.8	7.45e-01	0	44	104	0	80	28607
2026-01-26 12:31:42.36	191.35	12.74	-54.6	-72.4	3.8	7.42e-01	0	43	104	0	80	28600
2026-01-26 12:31:43.37	191.44	12.84	-54.6	-72.4	3.8	7.46e-01	0	44	104	0	80	28605
2026-01-26 12:31:44.38	191.53	12.94	-54.6	-72.4	3.8	7.46e-01	0	43	104	0	80	28678
2026-01-26 12:31:45.39	191.62	13.04	-54.6	-72.4	3.8	7.41e-01	0	44	104	0	80	28666
2026-01-26 12:31:46.39	191.71	13.14	-54.6	-72.4	3.8	7.44e-01	0	44	104	0	80	28607
2026-01-26 12:31:47.40	191.81	13.24	-54.6	-72.4	3.8	7.46e-01	0	44	104	0	80	28622
2026-01-26 12:31:48.41	191.90	13.34	-54.6	-72.4	3.8	7.45e-01	0	43	104	0	80	28656
2026-01-26 12:31:49.42	192.00	13.44	-54.6	-72.4	3.8	7.47e-01	0	43	104	0	80	28576
2026-01-26 12:31:50.43	192.09	13.54	-54.6	-72.4	3.8	7.46e-01	0	43	104	0	80	28608
2026-01-26 12:31:51.44	192.19	13.64	-54.6	-72.4	3.8	7.44e-01	0	43	104	0	80	28619
2026-01-26 12:31:52.45	192.28	13.75	-54.6	-72.4	3.8	7.46e-01	0	43	104	0	80	28613
2026-01-26 12:31:53.46	192.38	13.85	-54.6	-72.4	3.8	7.45e-01	0	44	104	0	80	28624
2026-01-26 12:31:54.47	192.48	13.95	-54.6	-72.4	3.8	7.47e-01	0	43	104	0	80	28631
2026-01-26 12:31:55.48	192.58	14.06	-54.6	-72.4	3.8	7.43e-01	0	43	104	0	80	28586
2026-01-26 12:31:56.49	192.68	14.16	-54.6	-72.4	3.8	7.52e-01	0	43	104	0	80	28632
2026-01-26 12:31:57.50	192.78	14.26	-54.6	-72.4	3.8	7.49e-01	0	43	104	0	80	28654
2026-01-26 12:31:58.51	192.88	14.37	-54.6	-72.4	3.8	7.48e-01	0	43	104	0	80	28608
2026-01-26 12:31:59.51	192.98	14.47	-54.6	-72.4	3.8	7.45e-01	0	43	104	0	80	28574
2026-01-26 12:32:00.52	193.08	14.58	-54.6	-72.4	3.8	7.47e-01	0	44	104	0	80	28526
2026-01-26 12:32:01.52	193.19	14.68	-54.6	-72.4	3.8	7.49e-01	0	44	104	0	80	28543
2026-01-26 12:32:02.53	193.29	14.79	-54.6	-72.4	3.8	7.46e-01	0	44	104	0	80	28587
2026-01-26 12:32:03.54	193.40	14.90	-54.6	-72.4	3.8	7.43e-01	0	43	104	0	80	28529
2026-01-26 12:32:04.55	193.50	15.00	-54.6	-72.4	3.8	7.45e-01	0	43	104	0	80	28554
2026-01-26 12:32:05.55	193.61	15.11	-54.6	-72.4	3.8	7.46e-01	0	44	104	0	80	28542
2026-01-26 12:32:06.56	193.71	15.22	-54.6	-72.4	3.8	7.45e-01	0	43	104	0	80	28601
2026-01-26 12:32:07.57	193.82	15.33	-54.6	-72.4	3.8	7.44e-01	0	44	104	0	80	28517
2026-01-26 12:32:08.58	193.93	15.44	-54.6	-72.4	3.8	7.43e-01	0	44	104	0	80	28490
2026-01-26 12:32:09.59	194.04	15.55	-54.6	-72.4	3.8	7.43e-01	0	44	104	0	80	28493
2026-01-26 12:32:10.59	194.15	15.65	-54.6	-72.4	3.8	7.47e-01	0	43	104	0	80	28545
2026-01-26 12:32:11.60	194.26	15.76	-54.6	-72.4	3.8	7.44e-01	0	44	104	0	80	28505
2026-01-26 12:32:12.60	194.37	15.87	-54.6	-72.4	3.8	7.45e-01	0	44	104	0	80	28544
2026-01-26 12:32:13.61	194.49	15.99	-54.6	-72.4	3.8	7.46e-01	0	44	104	0	80	28511
2026-01-26 12:32:14.62	194.60	16.10	-54.6	-72.4	3.8	7.45e-01	0	44	104	0	80	28509
2026-01-26 12:32:15.63	194.72	16.21	-54.6	-72.4	3.8	7.44e-01	0	43	104	0	80	28483
2026-01-26 12:32:16.63	194.83	16.32	-54.6	-72.4	3.8	7.46e-01	0	44	104	0	80	28518
2026-01-26 12:32:17.63	194.94	16.43	-54.6	-72.4	3.8	7.45e-01	0	44	104	0	80	28450
2026-01-26 12:32:18.64	195.06	16.55	-54.6	-72.4	3.8	7.44e-01	0	44	104	0	80	28515
2026-01-26 12:32:19.65	195.18	16.66	-54.6	-72.4	3.8	7.43e-01	0	44	104	0	80	28453
2026-01-26 12:32:20.65	195.30	16.77	-54.6	-72.4	3.8	7.45e-01	0	43	104	0	80	28510
2026-01-26 12:32:21.66	195.42	16.89	-54.6	-72.4	3.8	7.46e-01	0	44	104	0	80	28505
2026-01-26 12:32:22.67	195.54	17.01	-54.6	-72.4	3.8	7.42e-01	0	43	104	0	80	28477
2026-01-26 12:32:23.68	195.66	17.12	-54.6	-72.4	3.8	7.47e-01	0	44	104	0	80	28465
2026-01-26 12:32:24.68	195.78	17.24	-54.6	-72.4	3.8	7.44e-01	0	44	104	0	80	28388
2026-01-26 12:32:25.69	195.91	17.35	-54.6	-72.4	3.8	7.44e-01	0	43	104	0	80	28480
2026-01-26 12:32:26.69	196.03	17.47	-54.6	-72.4	3.8	7.44e-01	0	44	104	0	80	28462
2026-01-26 12:32:27.70	196.16	17.59	-54.6	-72.4	3.8	7.44e-01	0	44	104	0	80	28393
2026-01-26 12:32:28.71	196.29	17.71	-54.6	-72.4	3.8	7.45e-01	0	44	104	0	80	28359
2026-01-26 12:32:29.72	196.41	17.83	-54.6	-72.4	3.8	7.45e-01	0	44	104	0	80	28436
2026-01-26 12:32:30.72	196.54	17.94	-54.6	-72.4	3.8	7.46e-01	0	44	104	0	80	28413
2026-01-26 12:32:31.73	196.67	18.06	-54.6	-72.4	3.8	7.46e-01	0	43	104	0	80	28422
2026-01-26 12:32:32.74	196.80	18.18	-54.6	-72.4	3.8	7.44e-01	0	43	104	0	80	28473
2026-01-26 12:32:33.74	196.93	18.30	-54.6	-72.4	3.8	7.48e-01	0	44	104	0	80	28507
2026-01-26 12:32:34.75	197.07	18.43	-54.6	-72.4	3.8	7.45e-01	0	44	104	0	80	28455
2026-01-26 12:32:35.77	197.20	18.55	-54.6	-72.4	3.8	7.47e-01	0	44	104	0	80	28483
2026-01-26 12:32:36.77	197.34	18.67	-54.6	-72.4	3.8	7.45e-01	0	44	104	0	80	28429
2026-01-26 12:32:37.78	197.47	18.79	-54.6	-72.4	3.8	7.46e-01	0	44	104	0	80	28504
2026-01-26 12:32:38.78	197.61	18.92	-54.6	-72.4	3.8	7.43e-01	0	43	104	0	80	28477
2026-01-26 12:32:39.79	197.75	19.04	-54.6	-72.4	3.8	7.44e-01	0	43	104	0	80	28509
2026-01-26 12:32:40.80	197.89	19.17	-54.6	-72.4	3.8	7.47e-01	0	44	104	0	80	28375
2026-01-26 12:32:41.80	198.03	19.29	-54.6	-72.4	3.8	7.47e-01	0	44	104	0	80	28446
2026-01-26 12:32:42.81	198.17	19.42	-54.6	-72.4	3.8	7.46e-01	0	43	104	0	80	28407
2026-01-26 12:32:43.82	198.31	19.54	-54.6	-72.4	3.8	7.45e-01	0	44	104	0	80	28417
2026-01-26 12:32:44.83	198.46	19.67	-54.6	-72.4	3.8	7.44e-01	0	43	104	0	80	28389
2026-01-26 12:32:45.83	198.60	19.79	-54.6	-72.4	3.8	7.46e-01	0	43	104	0	80	28427
2026-01-26 12:32:46.84	198.75	19.92	-54.6	-72.4	3.8	7.49e-01	0	44	104	0	80	28402
2026-01-26 12:32:47.84	198.90	20.05	-54.6	-72.4	3.8	7.48e-01	0	44	104	0	80	28448
2026-01-26 12:32:48.85	199.05	20.18	-54.5	-72.3	3.8	7.45e-01	0	43	104	0	80	28348
2026-01-26 12:32:49.85	199.20	20.31	-54.6	-72.4	3.8	7.46e-01	0	44	104	0	80	28418
2026-01-26 12:32:50.85	199.35	20.44	-54.6	-72.4	3.8	7.46e-01	0	44	104	0	80	28477
2026-01-26 12:32:51.86	199.50	20.57	-54.5	-72.4	3.8	7.47e-01	0	43	104	0	80	28371
2026-01-26 12:32:52.87	199.66	20.70	-54.5	-72.3	3.8	7.45e-01	0	44	104	0	80	28326
2026-01-26 12:32:53.87	199.81	20.83	-54.5	-72.3	3.8	7.47e-01	0	43	104	0	80	28290
2026-01-26 12:32:54.88	199.97	20.96	-54.5	-72.4	3.8	7.44e-01	0	44	104	0	80	28393
2026-01-26 12:32:55.89	200.13	21.09	-54.6	-72.4	3.8	7.48e-01	0	43	104	0	80	28535
2026-01-26 12:32:56.90	200.29	21.23	-54.6	-72.4	3.8	7.47e-01	0	43	104	0	80	28439
2026-01-26 12:32:57.90	200.45	21.36	-54.6	-72.4	3.8	7.46e-01	0	43	104	0	80	28459
2026-01-26 12:32:58.91	200.61	21.49	-54.6	-72.4	3.8	7.41e-01	0	44	104	0	80	28486
2026-01-26 12:32:59.92	200.78	21.63	-54.5	-72.3	3.8	7.44e-01	0	44	104	0	80	28264
2026-01-26 12:33:00.93	200.95	21.77	-54.5	-72.3	3.8	7.45e-01	0	44	104	0	80	28094
2026-01-26 12:33:01.93	201.11	21.90	-54.5	-72.3	3.8	7.43e-01	0	43	104	0	80	28166
2026-01-26 12:33:02.94	201.28	22.04	-54.5	-72.4	3.8	7.47e-01	0	44	104	0	80	28371
2026-01-26 12:33:03.95	201.45	22.17	-54.5	-72.3	3.8	7.45e-01	0	43	104	0	80	28311
2026-01-26 12:33:04.96	201.62	22.31	-54.5	-72.3	3.8	7.46e-01	0	44	104	0	80	28069
2026-01-26 12:33:05.96	201.80	22.45	-54.5	-72.2	3.8	7.47e-01	0	43	104	0	80	27962
2026-01-26 12:33:06.97	201.97	22.59	-54.5	-72.3	3.8	7.45e-01	0	44	104	0	80	28051
2026-01-26 12:33:07.98	202.15	22.73	-54.5	-72.3	3.8	7.45e-01	0	43	104	0	80	28209
2026-01-26 12:33:08.99	202.33	22.87	-54.5	-72.2	3.8	7.46e-01	0	43	104	0	80	27968
2026-01-26 12:33:09.99	202.51	23.01	-54.4	-72.1	3.8	7.48e-01	0	43	104	0	80	27516
2026-01-26 12:33:11.00	202.69	23.15	-54.4	-72.1	3.8	7.47e-01	0	44	104	0	80	27421
2026-01-26 12:33:12.01	202.87	23.29	-54.4	-72.1	3.8	7.46e-01	0	43	104	0	80	27573
2026-01-26 12:33:13.01	203.06	23.43	-54.4	-72.2	3.8	7.43e-01	0	44	104	0	80	27823
2026-01-26 12:33:14.02	203.24	23.57	-54.5	-72.3	3.8	7.44e-01	0	44	104	0	80	28072
2026-01-26 12:33:15.03	203.43	23.72	-54.5	-72.3	3.8	7.46e-01	0	44	104	0	80	28198
2026-01-26 12:33:16.04	203.62	23.86	-54.5	-72.3	3.8	7.45e-01	0	44	104	0	80	28184
2026-01-26 12:33:17.04	203.81	24.01	-54.5	-72.2	3.8	7.46e-01	0	43	104	0	80	27979
2026-01-26 12:33:18.05	204.01	24.15	-54.5	-72.1	3.8	7.47e-01	0	43	104	0	80	27620
2026-01-26 12:33:19.06	204.20	24.30	-54.4	-72.0	3.8	7.48e-01	0	44	104	0	80	27304
2026-01-26 12:33:20.07	204.40	24.44	-54.4	-72.0	3.8	7.46e-01	0	44	104	0	80	27107
2026-01-26 12:33:21.07	204.60	24.59	-54.4	-72.0	3.8	7.50e-01	0	44	104	0	80	27106
2026-01-26 12:33:22.08	204.80	24.73	-54.4	-72.0	3.8	7.48e-01	0	44	104	0	80	27267
2026-01-26 12:33:23.09	205.01	24.88	-54.4	-72.1	3.8	7.45e-01	0	44	104	0	80	27389
2026-01-26 12:33:24.09	205.21	25.03	-54.4	-71.9	3.8	7.42e-01	0	44	104	0	80	27024
2026-01-26 12:33:25.10	205.42	25.18	-54.3	-71.8	3.8	7.43e-01	0	43	104	0	80	26562
2026-01-26 12:33:26.11	205.63	25.33	-54.2	-71.6	3.8	7.42e-01	0	43	104	0	80	26035
2026-01-26 12:33:27.12	205.84	25.48	-54.2	-71.5	3.8	7.46e-01	0	43	104	0	80	25819
2026-01-26 12:33:28.12	206.05	25.63	-54.2	-71.5	3.8	7.44e-01	0	44	104	0	80	25730
2026-01-26 12:33:29.13	206.27	25.78	-54.2	-71.6	3.8	7.46e-01	0	44	104	0	80	26129
2026-01-26 12:33:30.14	206.48	25.93	-54.3	-71.8	3.8	7.44e-01	0	43	104	0	80	26765
2026-01-26 12:33:31.15	206.70	26.08	-54.4	-72.1	3.8	7.44e-01	0	44	104	0	80	27498
2026-01-26 12:33:32.15	206.92	26.23	-54.4	-72.2	3.8	7.47e-01	0	44	104	0	80	27826
2026-01-26 12:33:33.16	207.15	26.39	-54.4	-72.2	3.8	7.47e-01	0	43	104	0	80	27785
2026-01-26 12:33:34.17	207.38	26.54	-54.4	-72.1	3.8	7.46e-01	0	44	104	0	80	27617
2026-01-26 12:33:35.17	207.60	26.69	-54.4	-72.0	3.8	7.46e-01	0	44	104	0	80	27379
2026-01-26 12:33:36.18	207.83	26.85	-54.3	-71.9	3.8	7.45e-01	0	44	104	0	80	27007
2026-01-26 12:33:37.19	208.07	27.00	-54.3	-71.8	3.8	7.43e-01	0	44	104	0	80	26544
2026-01-26 12:33:38.20	208.30	27.16	-54.3	-71.8	3.8	7.42e-01	0	44	104	0	80	26539
2026-01-26 12:33:39.20	208.54	27.31	-54.3	-71.9	3.8	7.46e-01	0	44	104	0	80	26775
2026-01-26 12:33:40.21	208.78	27.47	-54.4	-72.0	3.8	7.47e-01	0	44	104	0	80	27098
2026-01-26 12:33:41.22	209.02	27.62	-54.4	-72.0	3.8	7.44e-01	0	43	104	0	80	27267
2026-01-26 12:33:42.23	209.27	27.78	-54.4	-72.1	3.8	7.47e-01	0	44	104	0	80	27507
2026-01-26 12:33:43.23	209.51	27.94	-54.4	-72.1	3.8	7.43e-01	0	44	104	0	80	27528
2026-01-26 12:33:44.24	209.76	28.10	-54.4	-72.1	3.8	7.45e-01	0	44	104	0	80	27514
2026-01-26 12:33:45.25	210.01	28.25	-54.4	-72.1	3.8	7.45e-01	0	44	104	0	80	27442
2026-01-26 12:33:46.25	210.27	28.41	-54.4	-72.1	3.8	7.42e-01	0	43	104	0	80	27479
2026-01-26 12:33:47.26	210.52	28.57	-54.4	-72.1	3.8	7.49e-01	0	44	104	0	80	27642
2026-01-26 12:33:48.27	210.78	28.73	-54.4	-72.1	3.8	7.43e-01	0	43	104	0	80	27609
2026-01-26 12:33:49.28	211.05	28.89	-54.5	-72.2	3.8	7.47e-01	0	43	104	0	80	27945
2026-01-26 12:33:50.29	211.31	29.05	-54.5	-72.3	3.8	7.50e-01	0	44	104	0	80	28189
2026-01-26 12:33:51.29	211.58	29.21	-54.5	-72.3	3.8	7.47e-01	0	43	104	0	80	28339
2026-01-26 12:33:52.30	211.85	29.37	-54.5	-72.3	3.8	7.43e-01	0	43	104	0	80	28302
2026-01-26 12:33:53.31	212.12	29.53	-54.5	-72.3	3.8	7.46e-01	0	43	104	0	80	28072
2026-01-26 12:33:54.32	212.40	29.69	-54.5	-72.3	3.8	7.50e-01	0	44	104	0	80	28124
2026-01-26 12:33:55.32	212.68	29.86	-54.5	-72.3	3.8	7.43e-01	0	43	104	0	80	28133
2026-01-26 12:33:56.33	212.96	30.02	-54.5	-72.3	3.8	7.43e-01	0	44	104	0	80	28113
2026-01-26 12:33:57.34	213.24	30.18	-54.5	-72.3	3.8	7.45e-01	0	43	104	0	80	28162
2026-01-26 12:33:58.35	213.53	30.34	-54.5	-72.3	3.8	7.44e-01	0	44	104	0	80	28241
2026-01-26 12:33:59.36	213.82	30.51	-54.5	-72.3	3.8	7.46e-01	0	43	104	0	80	28171
2026-01-26 12:34:00.37	214.12	30.67	-54.5	-72.3	3.8	7.49e-01	0	43	104	0	80	28176
2026-01-26 12:34:01.37	214.41	30.83	-54.5	-72.3	3.8	7.46e-01	0	43	104	0	80	28283
2026-01-26 12:34:02.38	214.71	30.99	-54.5	-72.3	3.8	7.46e-01	0	44	104	0	80	28249
2026-01-26 12:34:03.38	215.01	31.16	-54.5	-72.3	3.8	7.41e-01	0	44	104	0	80	28262
2026-01-26 12:34:04.39	215.32	31.32	-54.5	-72.3	3.8	7.44e-01	0	43	104	0	80	28278
2026-01-26 12:34:05.39	215.62	31.48	-54.5	-72.3	3.8	7.44e-01	0	44	104	0	80	28252
2026-01-26 12:34:06.40	215.94	31.65	-54.5	-72.3	3.8	7.48e-01	0	43	104	0	80	28287
2026-01-26 12:34:07.41	216.25	31.81	-54.5	-72.3	3.8	7.44e-01	0	44	104	0	80	28310
2026-01-26 12:34:08.42	216.57	31.97	-54.5	-72.3	3.8	7.46e-01	0	44	104	0	80	28253
2026-01-26 12:34:09.43	216.89	32.14	-54.5	-72.3	3.8	7.48e-01	0	44	104	0	80	28162
2026-01-26 12:34:10.44	217.22	32.30	-54.5	-72.3	3.8	7.44e-01	0	43	104	0	80	28210
2026-01-26 12:34:11.44	217.54	32.46	-54.5	-72.3	3.8	7.45e-01	0	43	104	0	80	28310
2026-01-26 12:34:12.45	217.88	32.63	-54.5	-72.3	3.8	7.45e-01	0	43	104	0	80	28310
2026-01-26 12:34:13.46	218.21	32.79	-54.5	-72.4	3.8	7.44e-01	0	43	104	0	80	28433
2026-01-26 12:34:14.46	218.55	32.95	-54.5	-72.3	3.8	7.42e-01	0	43	104	0	80	28343
2026-01-26 12:34:15.47	218.89	33.12	-54.5	-72.3	3.8	7.49e-01	0	43	104	0	80	28338
2026-01-26 12:34:16.47	219.23	33.28	-54.5	-72.3	3.8	7.49e-01	0	43	104	0	80	28296
2026-01-26 12:34:17.48	219.58	33.44	-54.5	-72.3	3.8	7.46e-01	0	43	104	0	80	28261
2026-01-26 12:34:18.48	219.93	33.60	-54.5	-72.3	3.8	7.47e-01	0	43	104	0	80	28148
2026-01-26 12:34:19.49	220.29	33.77	-54.5	-72.3	3.8	7.46e-01	0	43	104	0	80	28211
2026-01-26 12:34:20.50	220.65	33.93	-54.5	-72.3	3.8	7.44e-01	0	44	104	0	80	28227
2026-01-26 12:34:21.51	221.01	34.09	-54.5	-72.3	3.8	7.43e-01	0	44	104	0	80	28346
2026-01-26 12:34:22.51	221.38	34.25	-54.5	-72.4	3.8	7.45e-01	0	44	104	0	80	28408
2026-01-26 12:34:23.52	221.75	34.41	-54.5	-72.3	3.8	7.47e-01	0	44	104	0	80	28291
2026-01-26 12:34:24.52	222.12	34.57	-54.5	-72.3	3.8	7.44e-01	0	43	104	0	80	28180
2026-01-26 12:34:25.53	222.50	34.73	-54.5	-72.3	3.8	7.46e-01	0	44	104	0	80	28125
2026-01-26 12:34:26.54	222.88	34.89	-54.5	-72.3	3.8	7.47e-01	0	43	104	0	80	28086
2026-01-26 12:34:27.55	223.27	35.05	-54.5	-72.3	3.8	7.44e-01	0	44	104	0	80	28108
2026-01-26 12:34:28.56	223.66	35.21	-54.5	-72.2	3.8	7.49e-01	0	43	104	0	80	28008
2026-01-26 12:34:29.57	224.05	35.37	-54.5	-72.2	3.8	7.45e-01	0	44	104	0	80	27985
2026-01-26 12:34:30.57	224.44	35.53	-54.5	-72.2	3.8	7.47e-01	0	44	104	0	80	27903
2026-01-26 12:34:31.58	224.85	35.68	-54.4	-72.1	3.8	7.45e-01	0	43	104	0	80	27689
2026-01-26 12:34:32.59	225.25	35.84	-54.4	-72.1	3.8	7.44e-01	0	43	104	0	80	27615
2026-01-26 12:34:33.60	225.66	36.00	-54.4	-72.1	3.8	7.47e-01	0	44	104	0	80	27652
2026-01-26 12:34:34.60	226.07	36.15	-54.5	-72.2	3.8	7.47e-01	0	43	104	0	80	27815
2026-01-26 12:34:35.61	226.49	36.30	-54.5	-72.2	3.8	7.43e-01	0	44	104	0	80	27881
2026-01-26 12:34:36.62	226.91	36.46	-54.5	-72.2	3.8	7.48e-01	0	44	104	0	80	27905
2026-01-26 12:34:37.63	227.33	36.61	-54.5	-72.2	3.8	7.41e-01	0	43	104	0	80	27853
2026-01-26 12:34:38.63	227.76	36.76	-54.5	-72.2	3.8	7.47e-01	0	43	104	0	80	27869
2026-01-26 12:34:39.65	228.20	36.91	-54.5	-72.2	3.8	7.45e-01	0	44	104	0	80	27974
2026-01-26 12:34:40.66	228.63	37.06	-54.5	-72.2	3.8	7.48e-01	0	43	104	0	80	27977
2026-01-26 12:34:41.66	229.07	37.21	-54.5	-72.3	3.8	7.47e-01	0	44	104	0	80	28150
2026-01-26 12:34:42.67	229.52	37.35	-54.5	-72.3	3.8	7.44e-01	0	43	104	0	80	28148
2026-01-26 12:34:43.67	229.96	37.50	-54.5	-72.3	3.8	7.45e-01	0	44	104	0	80	28195
2026-01-26 12:34:44.68	230.42	37.64	-54.5	-72.3	3.8	7.43e-01	0	43	104	0	80	28173
2026-01-26 12:34:45.69	230.87	37.78	-54.5	-72.3	3.8	7.47e-01	0	44	104	0	80	28194
2026-01-26 12:34:46.70	231.33	37.93	-54.5	-72.3	3.8	7.47e-01	0	44	104	0	80	28213
2026-01-26 12:34:47.71	231.80	38.07	-54.5	-72.4	3.8	7.46e-01	0	43	104	0	80	28364
2026-01-26 12:34:48.72	232.27	38.21	-54.5	-72.3	3.8	7.46e-01	0	44	104	0	80	28324
2026-01-26 12:34:49.73	232.74	38.34	-54.5	-72.3	3.8	7.49e-01	0	44	104	0	80	28333
2026-01-26 12:34:50.73	233.22	38.48	-54.5	-72.3	3.8	7.46e-01	0	44	104	0	80	28270
2026-01-26 12:34:51.74	233.70	38.61	-54.5	-72.3	3.8	7.46e-01	0	43	104	0	80	28328
2026-01-26 12:34:52.75	234.18	38.74	-54.6	-72.4	3.8	7.46e-01	0	44	104	0	80	28427
2026-01-26 12:34:53.76	234.67	38.88	-54.5	-72.4	3.8	7.44e-01	0	44	104	0	80	28395
2026-01-26 12:34:54.76	235.16	39.00	-54.5	-72.4	3.8	7.45e-01	0	44	104	0	80	28452
2026-01-26 12:34:55.77	235.66	39.13	-54.5	-72.4	3.8	7.44e-01	0	44	104	0	80	28419
2026-01-26 12:34:56.78	236.16	39.26	-54.5	-72.4	3.8	7.44e-01	0	44	104	0	80	28398
2026-01-26 12:34:57.78	236.66	39.38	-54.5	-72.4	3.8	7.44e-01	0	44	104	0	80	28475
2026-01-26 12:34:58.79	237.17	39.50	-54.5	-72.4	3.8	7.44e-01	0	44	104	0	80	28384
2026-01-26 12:34:59.80	237.68	39.62	-54.5	-72.4	3.8	7.47e-01	0	44	104	0	80	28418
2026-01-26 12:35:00.81	238.20	39.74	-54.5	-72.4	3.8	7.44e-01	0	44	104	0	80	28447
2026-01-26 12:35:01.82	238.72	39.85	-54.5	-72.4	3.8	7.42e-01	0	44	104	0	80	28415
2026-01-26 12:35:02.83	239.24	39.96	-54.5	-72.4	3.8	7.45e-01	0	44	104	0	80	28430
2026-01-26 12:35:03.84	239.77	40.08	-54.5	-72.4	3.8	7.44e-01	0	44	104	0	80	28379
2026-01-26 12:35:04.85	240.30	40.18	-54.5	-72.4	3.8	7.44e-01	0	44	104	0	80	28401
2026-01-26 12:35:05.85	240.83	40.29	-54.5	-72.4	3.8	7.44e-01	0	43	104	0	80	28365
2026-01-26 12:35:06.86	241.37	40.39	-54.5	-72.4	3.8	7.45e-01	0	43	104	0	80	28438
2026-01-26 12:35:07.87	241.91	40.49	-54.5	-72.4	3.8	7.45e-01	0	44	104	0	80	28451
2026-01-26 12:35:08.88	242.46	40.59	-54.5	-72.4	3.8	7.45e-01	0	44	104	0	80	28422
2026-01-26 12:35:09.89	243.01	40.69	-54.5	-72.4	3.8	7.42e-01	0	43	104	0	80	28368
2026-01-26 12:35:10.90	243.56	40.78	-54.5	-72.3	3.8	7.45e-01	0	44	104	0	80	28326
2026-01-26 12:35:11.90	244.11	40.87	-54.5	-72.4	3.8	7.47e-01	0	44	104	0	80	28358
2026-01-26 12:35:12.91	244.66	40.96	-54.5	-72.4	3.8	7.46e-01	0	43	104	0	80	28354
2026-01-26 12:35:13.92	245.22	41.05	-54.5	-72.3	3.8	7.44e-01	0	44	104	0	80	28344
2026-01-26 12:35:14.93	245.79	41.13	-54.5	-72.3	3.8	7.48e-01	0	44	104	0	80	28327
2026-01-26 12:35:15.93	246.35	41.21	-54.5	-72.4	3.8	7.48e-01	0	44	104	0	80	28384
2026-01-26 12:35:16.94	246.92	41.29	-54.5	-72.3	3.8	7.47e-01	0	43	104	0	80	28279
2026-01-26 12:35:17.95	247.49	41.36	-54.5	-72.3	3.8	7.46e-01	0	44	104	0	80	28202
2026-01-26 12:35:18.95	248.06	41.43	-54.5	-72.3	3.8	7.47e-01	0	43	104	0	80	28261
2026-01-26 12:35:19.96	248.64	41.50	-54.5	-72.3	3.8	7.42e-01	0	44	104	0	80	28315
2026-01-26 12:35:20.97	249.22	41.57	-54.5	-72.4	3.8	7.46e-01	0	43	104	0	80	28368
2026-01-26 12:35:21.97	249.79	41.63	-54.5	-72.4	3.8	7.47e-01	0	43	104	0	80	28365
2026-01-26 12:35:22.98	250.38	41.69	-54.5	-72.4	3.8	7.46e-01	0	43	104	0	80	28402
2026-01-26 12:35:23.99	250.96	41.74	-54.5	-72.4	3.8	7.45e-01	0	43	104	0	80	28386
2026-01-26 12:35:25.00	251.55	41.79	-54.5	-72.4	3.8	7.45e-01	0	44	104	0	80	28394
2026-01-26 12:35:26.01	252.14	41.84	-54.5	-72.4	3.8	7.47e-01	0	44	104	0	80	28362
2026-01-26 12:35:27.02	252.73	41.89	-54.5	-72.3	3.8	7.44e-01	0	44	104	0	80	28351
2026-01-26 12:35:28.03	253.32	41.93	-54.5	-72.4	3.8	7.45e-01	0	44	104	0	80	28394
2026-01-26 12:35:29.03	253.91	41.97	-54.5	-72.4	3.8	7.45e-01	0	44	104	0	80	28392
2026-01-26 12:35:30.03	254.50	42.01	-54.5	-72.3	3.8	7.48e-01	0	43	104	0	80	28349
2026-01-26 12:35:31.04	255.10	42.04	-54.5	-72.3	3.8	7.46e-01	0	43	104	0	80	28327
2026-01-26 12:35:32.05	255.70	42.07	-54.5	-72.3	3.8	7.45e-01	0	43	104	0	80	28303
2026-01-26 12:35:33.05	256.29	42.10	-54.5	-72.3	3.8	7.43e-01	0	43	104	0	80	28347
2026-01-26 12:35:34.06	256.89	42.12	-54.5	-72.4	3.8	7.46e-01	0	43	104	0	80	28355
2026-01-26 12:35:35.07	257.50	42.14	-54.5	-72.4	3.8	7.46e-01	0	44	104	0	80	28409
2026-01-26 12:35:36.07	258.09	42.16	-54.5	-72.4	3.8	7.46e-01	0	44	104	0	80	28367
2026-01-26 12:35:37.08	258.69	42.17	-54.5	-72.4	3.8	7.48e-01	0	43	104	0	80	28366
2026-01-26 12:35:38.08	259.29	42.18	-54.5	-72.4	3.8	7.46e-01	0	44	104	0	80	28382
2026-01-26 12:35:39.09	259.89	42.19	-54.5	-72.4	3.8	7.43e-01	0	44	104	0	80	28451
2026-01-26 12:35:40.09	260.49	42.19	-54.5	-72.4	3.8	7.44e-01	0	44	104	0	80	28426
2026-01-26 12:35:41.10	261.09	42.19	-54.5	-72.4	3.8	7.45e-01	0	44	104	0	80	28358
2026-01-26 12:35:42.11	261.70	42.18	-54.5	-72.4	3.8	7.45e-01	0	43	104	0	80	28410
2026-01-26 12:35:43.12	262.30	42.18	-54.5	-72.3	3.8	7.47e-01	0	43	104	0	80	28316
2026-01-26 12:35:44.13	262.90	42.17	-54.5	-72.3	3.8	7.43e-01	0	44	104	0	80	28310
2026-01-26 12:35:45.13	263.50	42.15	-54.5	-72.4	3.8	7.45e-01	0	43	104	0	80	28378
2026-01-26 12:35:46.13	264.10	42.13	-54.5	-72.4	3.8	7.44e-01	0	44	104	0	80	28384
2026-01-26 12:35:47.14	264.70	42.11	-54.5	-72.4	3.8	7.44e-01	0	44	104	0	80	28389
2026-01-26 12:35:48.14	265.29	42.09	-54.5	-72.3	3.8	7.43e-01	0	44	104	0	80	28277
2026-01-26 12:35:49.15	265.89	42.06	-54.5	-72.4	3.8	7.47e-01	0	43	104	0	80	28382
2026-01-26 12:35:50.16	266.49	42.03	-54.5	-72.4	3.8	7.46e-01	0	43	104	0	80	28419
2026-01-26 12:35:51.17	267.08	41.99	-54.5	-72.4	3.8	7.49e-01	0	43	104	0	80	28400
2026-01-26 12:35:52.18	267.68	41.96	-54.5	-72.4	3.8	7.42e-01	0	44	104	0	80	28377
2026-01-26 12:35:53.18	268.27	41.91	-54.5	-72.4	3.8	7.44e-01	0	43	104	0	80	28400
2026-01-26 12:35:54.19	268.86	41.87	-54.5	-72.4	3.8	7.42e-01	0	44	104	0	80	28419
2026-01-26 12:35:55.20	269.45	41.82	-54.5	-72.4	3.8	7.46e-01	0	44	104	0	80	28361
2026-01-26 12:35:56.21	270.04	41.77	-54.5	-72.3	3.8	7.44e-01	0	43	104	0	80	28336
2026-01-26 12:35:57.22	270.62	41.72	-54.5	-72.3	3.8	7.45e-01	0	44	104	0	80	28324
2026-01-26 12:35:58.22	271.20	41.66	-54.5	-72.4	3.8	7.42e-01	0	43	104	0	80	28358
2026-01-26 12:35:59.23	271.79	41.60	-54.5	-72.3	3.8	7.43e-01	0	44	104	0	80	28328
2026-01-26 12:36:00.23	272.36	41.54	-54.5	-72.4	3.8	7.48e-01	0	44	104	0	80	28418
2026-01-26 12:36:01.24	272.94	41.47	-54.5	-72.4	3.8	7.47e-01	0	44	104	0	80	28352
2026-01-26 12:36:02.25	273.51	41.40	-54.5	-72.3	3.8	7.45e-01	0	44	104	0	80	28284
2026-01-26 12:36:03.26	274.09	41.33	-54.5	-72.4	3.8	7.42e-01	0	44	104	0	80	28386
2026-01-26 12:36:04.27	274.66	41.25	-54.5	-72.3	3.8	7.46e-01	0	44	104	0	80	28305
2026-01-26 12:36:05.27	275.22	41.18	-54.5	-72.3	3.8	7.49e-01	0	44	104	0	80	28317
2026-01-26 12:36:06.28	275.78	41.10	-54.5	-72.4	3.8	7.46e-01	0	44	104	0	80	28372
2026-01-26 12:36:07.28	276.34	41.01	-54.5	-72.4	3.8	7.50e-01	0	44	104	0	80	28361
2026-01-26 12:36:08.29	276.90	40.93	-54.5	-72.3	3.8	7.47e-01	0	44	104	0	80	28341
2026-01-26 12:36:09.30	277.45	40.84	-54.5	-72.4	3.8	7.47e-01	0	44	104	0	80	28383
2026-01-26 12:36:10.31	278.00	40.74	-54.5	-72.4	3.8	7.44e-01	0	43	104	0	80	28355
2026-01-26 12:36:11.32	278.55	40.65	-54.5	-72.3	3.8	7.46e-01	0	44	104	0	80	28319
2026-01-26 12:36:12.32	279.09	40.55	-54.5	-72.3	3.8	7.44e-01	0	43	104	0	80	28279
2026-01-26 12:36:13.33	279.64	40.45	-54.5	-72.3	3.8	7.45e-01	0	44	104	0	80	28303
2026-01-26 12:36:14.34	280.18	40.35	-54.5	-72.3	3.8	7.46e-01	0	43	104	0	80	28326
2026-01-26 12:36:15.35	280.71	40.25	-54.5	-72.3	3.8	7.47e-01	0	44	104	0	80	28193
2026-01-26 12:36:16.36	281.24	40.14	-54.5	-72.3	3.8	7.47e-01	0	44	104	0	80	28339
2026-01-26 12:36:17.36	281.77	40.03	-54.5	-72.3	3.8	7.45e-01	0	44	104	0	80	28293
2026-01-26 12:36:18.37	282.29	39.92	-54.5	-72.3	3.8	7.43e-01	0	43	104	0	80	28283
2026-01-26 12:36:19.38	282.81	39.81	-54.5	-72.4	3.8	7.47e-01	0	44	104	0	80	28380
2026-01-26 12:36:20.38	283.33	39.69	-54.5	-72.3	3.8	7.48e-01	0	44	104	0	80	28343
2026-01-26 12:36:21.39	283.84	39.57	-54.5	-72.4	3.8	7.45e-01	0	44	104	0	80	28357
2026-01-26 12:36:22.40	284.35	39.45	-54.5	-72.4	3.8	7.46e-01	0	44	104	0	80	28365
2026-01-26 12:36:23.41	284.86	39.33	-54.5	-72.3	3.8	7.44e-01	0	44	104	0	80	28241
2026-01-26 12:36:24.41	285.36	39.21	-54.5	-72.3	3.8	7.49e-01	0	44	104	0	80	28252
2026-01-26 12:36:25.42	285.85	39.08	-54.5	-72.3	3.8	7.47e-01	0	44	104	0	80	28295
2026-01-26 12:36:26.43	286.35	38.96	-54.5	-72.3	3.8	7.45e-01	0	43	104	0	80	28195
2026-01-26 12:36:27.43	286.83	38.83	-54.5	-72.3	3.8	7.44e-01	0	44	104	0	80	28190
2026-01-26 12:36:28.44	287.32	38.70	-54.5	-72.3	3.8	7.46e-01	0	44	104	0	80	28274
2026-01-26 12:36:29.45	287.80	38.56	-54.5	-72.3	3.8	7.45e-01	0	44	104	0	80	28276
2026-01-26 12:36:30.46	288.28	38.43	-54.5	-72.3	3.8	7.45e-01	0	43	104	0	80	28298
2026-01-26 12:36:31.47	288.76	38.29	-54.5	-72.3	3.8	7.43e-01	0	44	104	0	80	28213
2026-01-26 12:36:32.47	289.22	38.16	-54.5	-72.3	3.8	7.44e-01	0	44	104	0	80	28347
2026-01-26 12:36:33.48	289.69	38.02	-54.5	-72.2	3.8	7.45e-01	0	43	104	0	80	27949
2026-01-26 12:36:34.49	290.15	37.88	-54.5	-71.8	3.8	7.45e-01	0	44	104	0	80	26681
2026-01-26 12:36:35.50	290.61	37.74	-54.5	-71.5	3.8	7.46e-01	0	43	104	0	80	25664
2026-01-26 12:36:36.50	291.06	37.60	-54.5	-71.6	3.8	7.43e-01	0	43	104	0	80	25857
2026-01-26 12:36:37.51	291.51	37.45	-54.5	-72.0	3.8	7.45e-01	0	44	104	0	80	27188
2026-01-26 12:36:38.52	291.96	37.31	-54.5	-72.3	3.8	7.43e-01	0	43	104	0	80	28120
2026-01-26 12:36:39.52	292.40	37.16	-54.5	-72.3	3.8	7.42e-01	0	44	104	0	80	28264
2026-01-26 12:36:40.53	292.84	37.01	-54.5	-72.3	3.8	7.45e-01	0	43	104	0	80	28321
2026-01-26 12:36:41.54	293.27	36.86	-54.5	-72.3	3.8	7.39e-01	0	43	104	0	80	28228
2026-01-26 12:36:42.55	293.70	36.71	-54.5	-72.3	3.8	7.43e-01	0	44	104	0	80	28237
2026-01-26 12:36:43.55	294.13	36.56	-54.5	-72.3	3.8	7.43e-01	0	43	104	0	80	28289
2026-01-26 12:36:44.56	294.55	36.41	-54.5	-72.4	3.8	7.46e-01	0	44	104	0	80	28362
2026-01-26 12:36:45.57	294.97	36.26	-54.5	-72.3	3.8	7.43e-01	0	44	104	0	80	28234
2026-01-26 12:36:46.57	295.38	36.11	-54.5	-72.3	3.8	7.47e-01	0	44	104	0	80	28235
2026-01-26 12:36:47.58	295.79	35.95	-54.5	-72.3	3.8	7.44e-01	0	44	104	0	80	28303
2026-01-26 12:36:48.58	296.19	35.80	-54.5	-72.3	3.8	7.47e-01	0	43	104	0	80	28130
2026-01-26 12:36:49.59	296.59	35.64	-54.5	-72.2	3.8	7.41e-01	0	44	104	0	80	27861
2026-01-26 12:36:50.61	297.00	35.48	-54.5	-72.1	3.8	7.44e-01	0	43	104	0	80	27668
2026-01-26 12:36:51.61	297.39	35.33	-54.5	-72.2	3.8	7.44e-01	0	43	104	0	80	27844
2026-01-26 12:36:52.62	297.78	35.17	-54.5	-72.3	3.8	7.44e-01	0	44	104	0	80	28100
2026-01-26 12:36:53.63	298.17	35.01	-54.5	-72.3	3.8	7.45e-01	0	43	104	0	80	28346
2026-01-26 12:36:54.63	298.55	34.85	-54.5	-72.3	3.8	7.44e-01	0	43	104	0	80	28114
2026-01-26 12:36:55.64	298.93	34.69	-54.5	-72.2	3.8	7.48e-01	0	44	104	0	80	28010
2026-01-26 12:36:56.64	299.30	34.54	-54.5	-72.3	3.8	7.44e-01	0	43	104	0	80	28105
2026-01-26 12:36:57.65	299.67	34.38	-54.5	-72.3	3.8	7.48e-01	0	44	104	0	80	28351
2026-01-26 12:36:58.65	300.04	34.22	-54.5	-72.4	3.8	7.45e-01	0	43	104	0	80	28352
2026-01-26 12:36:59.66	300.40	34.05	-54.5	-72.3	3.8	7.44e-01	0	43	104	0	80	28278
2026-01-26 12:37:00.67	300.76	33.89	-54.5	-72.3	3.8	7.43e-01	0	43	104	0	80	28230
2026-01-26 12:37:01.67	301.12	33.73	-54.5	-72.3	3.8	7.46e-01	0	43	104	0	80	28143
2026-01-26 12:37:02.68	301.47	33.57	-54.5	-72.3	3.8	7.45e-01	0	43	104	0	80	28270
2026-01-26 12:37:03.69	301.82	33.41	-54.5	-72.4	3.8	7.45e-01	0	44	104	0	80	28377
2026-01-26 12:37:04.69	302.17	33.25	-54.5	-72.4	3.8	7.45e-01	0	43	104	0	80	28368
2026-01-26 12:37:05.69	302.51	33.09	-54.5	-72.3	3.8	7.46e-01	0	44	104	0	80	28345
2026-01-26 12:37:06.70	302.85	32.92	-54.5	-72.3	3.8	7.45e-01	0	44	104	0	80	28319
2026-01-26 12:37:07.71	303.19	32.76	-54.5	-72.3	3.8	7.44e-01	0	43	104	0	80	28240
2026-01-26 12:37:08.72	303.52	32.60	-54.5	-72.3	3.8	7.43e-01	0	43	104	0	80	28275
2026-01-26 12:37:09.73	303.85	32.43	-54.5	-72.3	3.8	7.45e-01	0	43	104	0	80	28322
2026-01-26 12:37:10.74	304.18	32.27	-54.5	-72.4	3.8	7.46e-01	0	43	104	0	80	28352
2026-01-26 12:37:11.75	304.50	32.11	-54.5	-72.3	3.8	7.44e-01	0	44	104	0	80	28272
2026-01-26 12:37:12.76	304.82	31.94	-54.5	-72.3	3.8	7.44e-01	0	43	104	0	80	28266
2026-01-26 12:37:13.76	305.13	31.78	-54.5	-72.3	3.8	7.43e-01	0	44	104	0	80	28238
2026-01-26 12:37:14.77	305.45	31.62	-54.5	-72.3	3.8	7.44e-01	0	44	104	0	80	28225
2026-01-26 12:37:15.78	305.76	31.46	-54.5	-72.3	3.8	7.45e-01	0	43	104	0	80	28138
2026-01-26 12:37:16.78	306.06	31.30	-54.5	-72.3	3.8	7.44e-01	0	43	104	0	80	28148
2026-01-26 12:37:17.79	306.37	31.13	-54.5	-72.3	3.8	7.43e-01	0	44	104	0	80	28216
2026-01-26 12:37:18.80	306.67	30.97	-54.5	-72.3	3.8	7.43e-01	0	44	104	0	80	28284
2026-01-26 12:37:19.81	306.97	30.81	-54.5	-72.3	3.8	7.43e-01	0	44	104	0	80	28307
2026-01-26 12:37:20.81	307.26	30.65	-54.5	-72.3	3.8	7.43e-01	0	44	104	0	80	28332
2026-01-26 12:37:21.82	307.55	30.48	-54.5	-72.4	3.8	7.42e-01	0	43	104	0	80	28377
2026-01-26 12:37:22.83	307.84	30.32	-54.5	-72.3	3.8	7.46e-01	0	44	104	0	80	28286
2026-01-26 12:37:23.84	308.13	30.16	-54.5	-72.3	3.8	7.43e-01	0	44	104	0	80	28305
2026-01-26 12:37:24.85	308.41	30.00	-54.5	-72.3	3.8	7.43e-01	0	43	104	0	80	28192
2026-01-26 12:37:25.85	308.69	29.84	-54.5	-72.3	3.8	7.44e-01	0	43	104	0	80	28077
2026-01-26 12:37:26.86	308.96	29.68	-54.5	-72.3	3.8	7.44e-01	0	43	104	0	80	28177
2026-01-26 12:37:27.87	309.24	29.52	-54.5	-72.3	3.8	7.48e-01	0	43	104	0	80	28160
2026-01-26 12:37:28.87	309.51	29.36	-54.5	-72.3	3.8	7.48e-01	0	43	104	0	80	28335
2026-01-26 12:37:29.88	309.78	29.20	-54.5	-72.4	3.8	7.44e-01	0	44	104	0	80	28394
2026-01-26 12:37:30.89	310.04	29.04	-54.5	-72.4	3.8	7.46e-01	0	43	104	0	80	28364
2026-01-26 12:37:31.90	310.31	28.88	-54.5	-72.3	3.8	7.49e-01	0	43	104	0	80	28331
2026-01-26 12:37:32.90	310.57	28.72	-54.5	-72.3	3.8	7.42e-01	0	44	104	0	80	28258
2026-01-26 12:37:33.91	310.83	28.56	-54.5	-72.3	3.8	7.45e-01	0	43	104	0	80	28240
2026-01-26 12:37:34.92	311.08	28.40	-54.5	-72.3	3.8	7.49e-01	0	43	104	0	80	28211
2026-01-26 12:37:35.92	311.33	28.25	-54.5	-72.3	3.8	7.46e-01	0	43	104	0	80	28309
2026-01-26 12:37:36.94	311.59	28.09	-54.5	-72.4	3.8	7.45e-01	0	43	104	0	80	28385
2026-01-26 12:37:37.94	311.83	27.93	-54.5	-72.3	3.8	7.42e-01	0	44	104	0	80	28249
2026-01-26 12:37:38.95	312.08	27.78	-54.5	-72.3	3.8	7.46e-01	0	43	104	0	80	28344
2026-01-26 12:37:39.96	312.32	27.62	-54.5	-72.3	3.8	7.45e-01	0	43	104	0	80	28319
2026-01-26 12:37:40.97	312.56	27.47	-54.5	-72.4	3.8	7.49e-01	0	44	104	0	80	28364
2026-01-26 12:37:41.97	312.80	27.31	-54.5	-72.4	3.8	7.44e-01	0	43	104	0	80	28360
2026-01-26 12:37:42.98	313.04	27.16	-54.5	-72.4	3.8	7.45e-01	0	43	104	0	80	28374
2026-01-26 12:37:43.99	313.27	27.00	-54.5	-72.4	3.8	7.45e-01	0	44	104	0	80	28387
2026-01-26 12:37:44.99	313.50	26.85	-54.5	-72.4	3.8	7.48e-01	0	43	104	0	80	28389
2026-01-26 12:37:45.99	313.73	26.70	-54.5	-72.4	3.8	7.45e-01	0	43	104	0	80	28359
2026-01-26 12:37:47.00	313.96	26.54	-54.5	-72.3	3.8	7.46e-01	0	43	104	0	80	28314
2026-01-26 12:37:48.01	314.18	26.39	-54.5	-72.3	3.8	7.50e-01	0	43	104	0	80	28268
2026-01-26 12:37:49.02	314.40	26.24	-54.5	-72.4	3.8	7.44e-01	0	43	104	0	80	28354
2026-01-26 12:37:50.02	314.62	26.09	-54.5	-72.4	3.8	7.47e-01	0	43	104	0	80	28408
2026-01-26 12:37:51.03	314.84	25.94	-54.5	-72.3	3.8	7.46e-01	0	44	104	0	80	28313
2026-01-26 12:37:52.04	315.06	25.79	-54.5	-72.4	3.8	7.43e-01	0	44	104	0	80	28367
2026-01-26 12:37:53.05	315.27	25.64	-54.5	-72.4	3.8	7.47e-01	0	43	104	0	80	28365
2026-01-26 12:37:54.05	315.48	25.49	-54.5	-72.4	3.8	7.46e-01	0	44	104	0	80	28462
2026-01-26 12:37:55.06	315.69	25.34	-54.5	-72.3	3.8	7.46e-01	0	43	104	0	80	28334
2026-01-26 12:37:56.07	315.90	25.19	-54.5	-72.3	3.8	7.45e-01	0	44	104	0	80	28304
2026-01-26 12:37:57.07	316.11	25.05	-54.5	-72.3	3.8	7.43e-01	0	43	104	0	80	28284
2026-01-26 12:37:58.08	316.31	24.90	-54.5	-72.4	3.8	7.46e-01	0	44	104	0	80	28383
2026-01-26 12:37:59.08	316.51	24.75	-54.5	-72.3	3.8	7.44e-01	0	44	104	0	80	28316
2026-01-26 12:38:00.09	316.71	24.61	-54.5	-72.4	3.8	7.43e-01	0	44	104	0	80	28363
2026-01-26 12:38:01.07	316.91	24.46	-54.5	-72.3	3.8	7.43e-01	0	43	104	0	80	28336
2026-01-26 12:38:02.08	317.10	24.32	-54.5	-72.4	3.8	7.47e-01	0	44	104	0	80	28360
2026-01-26 12:38:03.09	317.30	24.17	-54.5	-72.3	3.8	7.44e-01	0	44	104	0	80	28331
2026-01-26 12:38:04.10	317.49	24.03	-54.5	-72.4	3.8	7.47e-01	0	44	104	0	80	28374
2026-01-26 12:38:05.10	317.68	23.89	-54.5	-72.3	3.8	7.50e-01	0	44	104	0	80	28271
2026-01-26 12:38:06.11	317.87	23.74	-54.5	-72.4	3.8	7.44e-01	0	43	104	0	80	28418
2026-01-26 12:38:07.11	318.06	23.60	-54.5	-72.3	3.8	7.45e-01	0	44	104	0	80	28344
2026-01-26 12:38:08.12	318.25	23.46	-54.5	-72.3	3.8	7.44e-01	0	44	104	0	80	28333
2026-01-26 12:38:09.13	318.43	23.32	-54.5	-72.3	3.8	7.46e-01	0	44	104	0	80	28319
2026-01-26 12:38:10.13	318.61	23.18	-54.5	-72.3	3.8	7.45e-01	0	44	104	0	80	28275
2026-01-26 12:38:11.14	318.79	23.04	-54.5	-72.3	3.8	7.44e-01	0	44	104	0	80	28318
2026-01-26 12:38:12.14	318.97	22.90	-54.5	-72.4	3.8	7.46e-01	0	44	104	0	80	28362
2026-01-26 12:38:13.15	319.15	22.76	-54.5	-72.4	3.8	7.48e-01	0	44	104	0	80	28363
2026-01-26 12:38:14.16	319.33	22.62	-54.5	-72.3	3.8	7.48e-01	0	44	104	0	80	28322
2026-01-26 12:38:15.17	319.50	22.49	-54.5	-72.3	3.8	7.48e-01	0	44	104	0	80	28336
2026-01-26 12:38:16.18	319.67	22.35	-54.5	-72.3	3.8	7.42e-01	0	43	104	0	80	28326
2026-01-26 12:38:17.19	319.85	22.21	-54.5	-72.3	3.8	7.48e-01	0	43	104	0	80	28304
2026-01-26 12:38:18.20	320.02	22.07	-54.5	-72.3	3.8	7.44e-01	0	44	104	0	80	28329
2026-01-26 12:38:19.21	320.18	21.94	-54.5	-72.3	3.8	7.45e-01	0	44	104	0	80	28090
2026-01-26 12:38:20.21	320.35	21.80	-54.5	-72.3	3.8	7.44e-01	0	44	104	0	80	28062
2026-01-26 12:38:21.22	320.52	21.67	-54.5	-72.3	3.8	7.46e-01	0	44	104	0	80	28144
2026-01-26 12:38:22.23	320.68	21.54	-54.5	-72.3	3.8	7.44e-01	0	44	104	0	80	28191
2026-01-26 12:38:23.24	320.84	21.40	-54.5	-72.3	3.8	7.43e-01	0	44	104	0	80	28227
2026-01-26 12:38:24.25	321.00	21.27	-54.5	-72.3	3.8	7.45e-01	0	44	104	0	80	28304
2026-01-26 12:38:25.25	321.16	21.14	-54.5	-72.3	3.8	7.49e-01	0	43	104	0	80	28335
2026-01-26 12:38:26.26	321.32	21.01	-54.5	-72.3	3.8	7.44e-01	0	43	104	0	80	28246
2026-01-26 12:38:27.27	321.48	20.87	-54.5	-72.3	3.8	7.44e-01	0	43	104	0	80	28236
2026-01-26 12:38:28.27	321.63	20.74	-54.5	-72.3	3.8	7.44e-01	0	43	104	0	80	28154
2026-01-26 12:38:29.28	321.79	20.61	-54.5	-72.3	3.8	7.45e-01	0	43	104	0	80	28282
2026-01-26 12:38:30.29	321.94	20.48	-54.5	-72.3	3.8	7.44e-01	0	43	104	0	80	28142
2026-01-26 12:38:31.30	322.09	20.35	-54.5	-72.3	3.8	7.42e-01	0	43	104	0	80	28109
2026-01-26 12:38:32.30	322.24	20.23	-54.5	-72.3	3.8	7.43e-01	0	44	104	0	80	28164
2026-01-26 12:38:33.31	322.39	20.10	-54.5	-72.3	3.8	7.46e-01	0	43	104	0	80	28130
2026-01-26 12:38:34.31	322.54	19.97	-54.5	-72.3	3.8	7.42e-01	0	43	104	0	80	28146
2026-01-26 12:38:35.31	322.68	19.85	-54.5	-72.2	3.8	7.47e-01	0	43	104	0	80	27986
2026-01-26 12:38:36.32	322.83	19.72	-54.5	-72.2	3.8	7.43e-01	0	44	104	0	80	27979
2026-01-26 12:38:37.33	322.97	19.59	-54.5	-72.3	3.8	7.44e-01	0	44	104	0	80	28077
2026-01-26 12:38:38.34	323.12	19.47	-54.5	-72.3	3.8	7.45e-01	0	44	104	0	80	28042
2026-01-26 12:38:39.34	323.26	19.34	-54.5	-72.3	3.8	7.47e-01	0	44	104	0	80	28100
2026-01-26 12:38:40.35	323.40	19.22	-54.5	-72.3	3.8	7.47e-01	0	44	104	0	80	28087
2026-01-26 12:38:41.36	323.54	19.10	-54.5	-72.3	3.8	7.45e-01	0	44	104	0	80	28070
2026-01-26 12:38:42.37	323.68	18.97	-54.5	-72.3	3.8	7.46e-01	0	43	104	0	80	28160
2026-01-26 12:38:43.37	323.81	18.85	-54.5	-72.3	3.8	7.46e-01	0	44	104	0	80	28073
2026-01-26 12:38:44.38	323.95	18.73	-54.5	-72.3	3.8	7.46e-01	0	44	104	0	80	28157
2026-01-26 12:38:45.39	324.08	18.61	-54.5	-72.3	3.8	7.45e-01	0	44	104	0	80	28284
2026-01-26 12:38:46.40	324.22	18.49	-54.5	-72.3	3.8	7.48e-01	0	43	104	0	80	28333
2026-01-26 12:38:47.40	324.35	18.37	-54.5	-72.3	3.8	7.45e-01	0	44	104	0	80	28279
2026-01-26 12:38:48.41	324.48	18.25	-54.5	-72.3	3.8	7.41e-01	0	44	104	0	80	28257
2026-01-26 12:38:49.42	324.61	18.13	-54.5	-72.3	3.8	7.45e-01	0	44	104	0	80	28342
2026-01-26 12:38:50.43	324.74	18.01	-54.5	-72.3	3.8	7.45e-01	0	43	104	0	80	28237
2026-01-26 12:38:51.43	324.87	17.89	-54.5	-72.3	3.8	7.47e-01	0	43	104	0	80	28155
2026-01-26 12:38:52.44	325.00	17.77	-54.5	-72.3	3.8	7.47e-01	0	44	104	0	80	28061
2026-01-26 12:38:53.45	325.12	17.65	-54.5	-72.3	3.8	7.44e-01	0	44	104	0	80	28031
2026-01-26 12:38:54.46	325.25	17.54	-54.5	-72.2	3.8	7.44e-01	0	44	104	0	80	27982
2026-01-26 12:38:55.47	325.38	17.42	-54.5	-72.2	3.8	7.45e-01	0	43	104	0	80	27839
2026-01-26 12:38:56.47	325.50	17.30	-54.5	-72.1	3.8	7.46e-01	0	44	104	0	80	27691
2026-01-26 12:38:57.48	325.62	17.19	-54.5	-72.2	3.8	7.48e-01	0	44	104	0	80	27869
2026-01-26 12:38:58.49	325.74	17.07	-54.5	-72.2	3.8	7.43e-01	0	43	104	0	80	27910
2026-01-26 12:38:59.50	325.86	16.96	-54.5	-72.3	3.8	7.49e-01	0	44	104	0	80	28129
2026-01-26 12:39:00.51	325.98	16.84	-54.5	-72.3	3.8	7.44e-01	0	43	104	0	80	28124
2026-01-26 12:39:01.51	326.10	16.73	-54.5	-72.3	3.8	7.43e-01	0	43	104	0	80	28180
2026-01-26 12:39:02.52	326.22	16.62	-54.5	-72.3	3.8	7.45e-01	0	44	104	0	80	28270
2026-01-26 12:39:03.53	326.34	16.50	-54.5	-72.3	3.8	7.50e-01	0	44	104	0	80	28188
2026-01-26 12:39:04.54	326.45	16.39	-54.5	-72.3	3.8	7.45e-01	0	44	104	0	80	28136
2026-01-26 12:39:05.55	326.57	16.28	-54.5	-72.3	3.8	7.46e-01	0	43	104	0	80	28152
2026-01-26 12:39:06.55	326.68	16.17	-54.5	-72.3	3.8	7.42e-01	0	43	104	0	80	28086
2026-01-26 12:39:07.56	326.80	16.06	-54.5	-72.3	3.8	7.44e-01	0	44	104	0	80	28100
2026-01-26 12:39:08.57	326.91	15.95	-54.5	-72.3	3.8	7.43e-01	0	43	104	0	80	28077
2026-01-26 12:39:09.58	327.02	15.84	-54.5	-72.3	3.8	7.48e-01	0	44	104	0	80	28165
2026-01-26 12:39:10.59	327.13	15.73	-54.5	-72.3	3.8	7.44e-01	0	44	104	0	80	28245
2026-01-26 12:39:11.59	327.24	15.62	-54.5	-72.3	3.8	7.45e-01	0	43	104	0	80	28269
2026-01-26 12:39:12.60	327.35	15.51	-54.5	-72.4	3.8	7.47e-01	0	43	104	0	80	28361
2026-01-26 12:39:13.60	327.46	15.40	-54.5	-72.3	3.8	7.44e-01	0	44	104	0	80	28350
2026-01-26 12:39:14.61	327.57	15.30	-54.5	-72.4	3.8	7.46e-01	0	43	104	0	80	28385
2026-01-26 12:39:15.62	327.67	15.19	-54.5	-72.4	3.8	7.47e-01	0	44	104	0	80	28422
2026-01-26 12:39:16.62	327.78	15.08	-54.5	-72.3	3.8	7.45e-01	0	44	104	0	80	28348
2026-01-26 12:39:17.63	327.88	14.98	-54.5	-72.4	3.8	7.47e-01	0	44	104	0	80	28363
2026-01-26 12:39:18.64	327.99	14.87	-54.5	-72.3	3.8	7.47e-01	0	44	104	0	80	28348
2026-01-26 12:39:19.64	328.09	14.76	-54.5	-72.3	3.8	7.46e-01	0	44	104	0	80	28333
2026-01-26 12:39:20.65	328.20	14.66	-54.5	-72.4	3.8	7.47e-01	0	44	104	0	80	28357
2026-01-26 12:39:21.66	328.30	14.55	-54.5	-72.3	3.8	7.42e-01	0	43	104	0	80	28297
2026-01-26 12:39:22.67	328.40	14.45	-54.5	-72.3	3.8	7.46e-01	0	44	104	0	80	28323
2026-01-26 12:39:23.68	328.50	14.35	-54.5	-72.3	3.8	7.46e-01	0	44	104	0	80	28282
2026-01-26 12:39:24.68	328.60	14.24	-54.5	-72.4	3.8	7.45e-01	0	43	104	0	80	28423
2026-01-26 12:39:25.69	328.70	14.14	-54.5	-72.3	3.8	7.46e-01	0	43	104	0	80	28328
2026-01-26 12:39:26.70	328.80	14.04	-54.5	-72.3	3.8	7.46e-01	0	44	104	0	80	28330
2026-01-26 12:39:27.70	328.90	13.94	-54.5	-72.4	3.8	7.48e-01	0	44	104	0	80	28362
2026-01-26 12:39:28.71	328.99	13.83	-54.5	-72.4	3.8	7.46e-01	0	44	104	0	80	28374
2026-01-26 12:39:29.72	329.09	13.73	-54.5	-72.3	3.8	7.47e-01	0	43	104	0	80	28338
2026-01-26 12:39:30.73	329.19	13.63	-54.5	-72.4	3.8	7.44e-01	0	44	104	0	80	28385
2026-01-26 12:39:31.73	329.28	13.53	-54.5	-72.4	3.8	7.45e-01	0	44	104	0	80	28429
2026-01-26 12:39:32.74	329.38	13.43	-54.5	-72.4	3.8	7.44e-01	0	43	104	0	80	28379
2026-01-26 12:39:33.75	329.47	13.33	-54.5	-72.4	3.8	7.43e-01	0	44	104	0	80	28367
2026-01-26 12:39:34.76	329.57	13.23	-54.5	-72.3	3.8	7.48e-01	0	43	104	0	80	28334
2026-01-26 12:39:35.76	329.66	13.13	-54.5	-72.4	3.8	7.48e-01	0	44	104	0	80	28397
2026-01-26 12:39:36.77	329.75	13.03	-54.5	-72.4	3.8	7.44e-01	0	44	104	0	80	28406
2026-01-26 12:39:37.77	329.84	12.94	-54.5	-72.4	3.8	7.44e-01	0	43	104	0	80	28410
2026-01-26 12:39:38.78	329.93	12.84	-54.5	-72.4	3.8	7.47e-01	0	44	104	0	80	28392
2026-01-26 12:39:39.79	330.02	12.74	-54.5	-72.4	3.8	7.44e-01	0	44	104	0	80	28419
2026-01-26 12:39:40.80	330.11	12.64	-54.5	-72.4	3.8	7.45e-01	0	43	104	0	80	28370
2026-01-26 12:39:41.81	330.20	12.55	-54.5	-72.4	3.8	7.46e-01	0	44	104	0	80	28370
2026-01-26 12:39:42.81	330.29	12.45	-54.5	-72.4	3.8	7.46e-01	0	44	104	0	80	28397
2026-01-26 12:39:43.82	330.38	12.35	-54.5	-72.4	3.8	7.45e-01	0	44	104	0	80	28417
2026-01-26 12:39:44.83	330.47	12.26	-54.5	-72.4	3.8	7.44e-01	0	44	104	0	80	28411
2026-01-26 12:39:45.83	330.55	12.16	-54.5	-72.4	3.8	7.47e-01	0	43	104	0	80	28457
2026-01-26 12:39:46.84	330.64	12.07	-54.5	-72.4	3.8	7.43e-01	0	43	104	0	80	28379
2026-01-26 12:39:47.85	330.72	11.97	-54.5	-72.4	3.8	7.45e-01	0	43	104	0	80	28446
2026-01-26 12:39:48.86	330.81	11.88	-54.5	-72.4	3.8	7.46e-01	0	43	104	0	80	28428
2026-01-26 12:39:49.86	330.89	11.79	-54.5	-72.4	3.8	7.43e-01	0	44	104	0	80	28450
2026-01-26 12:39:50.87	330.98	11.69	-54.5	-72.4	3.8	7.46e-01	0	44	104	0	80	28407
2026-01-26 12:39:51.88	331.06	11.60	-54.5	-72.4	3.8	7.47e-01	0	44	104	0	80	28445
2026-01-26 12:39:52.89	331.15	11.51	-54.5	-72.4	3.8	7.45e-01	0	43	104	0	80	28370
2026-01-26 12:39:53.89	331.23	11.41	-54.5	-72.4	3.8	7.47e-01	0	44	104	0	80	28405
2026-01-26 12:39:54.90	331.31	11.32	-54.5	-72.4	3.8	7.45e-01	0	43	104	0	80	28437
2026-01-26 12:39:55.91	331.39	11.23	-54.5	-72.4	3.8	7.47e-01	0	43	104	0	80	28366
2026-01-26 12:39:56.92	331.47	11.14	-54.5	-72.4	3.8	7.46e-01	0	43	104	0	80	28366
2026-01-26 12:39:57.93	331.55	11.05	-54.5	-72.4	3.8	7.46e-01	0	44	104	0	80	28419
2026-01-26 12:39:58.93	331.63	10.96	-54.5	-72.4	3.8	7.45e-01	0	43	104	0	80	28354
2026-01-26 12:39:59.94	331.71	10.87	-54.5	-72.4	3.8	7.42e-01	0	43	104	0	80	28379
2026-01-26 12:40:00.93	331.79	10.78	-54.5	-72.4	3.8	7.44e-01	0	44	104	0	80	28377
2026-01-26 12:40:01.94	331.87	10.69	-54.5	-72.4	3.8	7.43e-01	0	44	104	0	80	28434
2026-01-26 12:40:02.94	331.94	10.60	-54.5	-72.4	3.8	7.46e-01	0	44	104	0	80	28369
2026-01-26 12:40:03.95	332.02	10.51	-54.5	-72.4	3.8	7.44e-01	0	43	104	0	80	28423
2026-01-26 12:40:04.96	332.10	10.42	-54.5	-72.4	3.8	7.47e-01	0	44	104	0	80	28390
2026-01-26 12:40:05.97	332.18	10.33	-54.5	-72.4	3.8	7.45e-01	0	43	104	0	80	28400
2026-01-26 12:40:06.97	332.25	10.24	-54.5	-72.4	3.8	7.44e-01	0	43	104	0	80	28427
2026-01-26 12:40:07.98	332.33	10.16	-54.5	-72.4	3.8	7.44e-01	0	43	104	0	80	28401
2026-01-26 12:40:08.99	332.40	10.07	-54.5	-72.3	3.8	7.48e-01	0	43	104	0	80	28308
2026-01-26 12:40:10.00	332.48	9.98	-54.5	-72.4	3.8	7.44e-01	0	43	104	0	80	28352
2026-01-26 12:40:11.00	332.55	9.90	-54.5	-72.4	3.8	7.46e-01	0	43	104	0	80	28377
2026-01-26 12:40:12.01	332.63	9.81	-54.5	-72.4	3.8	7.47e-01	0	44	104	0	80	28389
2026-01-26 12:40:13.02	332.70	9.72	-54.5	-72.4	3.8	7.47e-01	0	44	104	0	80	28409
2026-01-26 12:40:14.03	332.77	9.64	-54.5	-72.4	3.8	7.43e-01	0	43	104	0	80	28489
2026-01-26 12:40:15.04	332.84	9.55	-54.5	-72.4	3.8	7.48e-01	0	44	104	0	80	28427
2026-01-26 12:40:16.04	332.92	9.46	-54.5	-72.4	3.8	7.44e-01	0	43	104	0	80	28447
2026-01-26 12:40:17.05	332.99	9.38	-54.5	-72.4	3.8	7.48e-01	0	43	104	0	80	28390
2026-01-26 12:40:18.06	333.06	9.29	-54.5	-72.4	3.8	7.43e-01	0	44	104	0	80	28398
2026-01-26 12:40:19.06	333.13	9.21	-54.5	-72.4	3.8	7.43e-01	0	44	104	0	80	28392
2026-01-26 12:40:20.07	333.20	9.13	-54.5	-72.4	3.8	7.45e-01	0	44	104	0	80	28414
2026-01-26 12:40:21.08	333.27	9.04	-54.5	-72.4	3.8	7.43e-01	0	44	104	0	80	28447
2026-01-26 12:40:22.09	333.34	8.96	-54.5	-72.3	3.8	7.46e-01	0	44	104	0	80	28332
2026-01-26 12:40:23.10	333.41	8.87	-54.5	-72.3	3.8	7.43e-01	0	44	104	0	80	28336
2026-01-26 12:40:24.11	333.48	8.79	-54.5	-72.4	3.8	7.45e-01	0	44	104	0	80	28358
2026-01-26 12:40:25.12	333.55	8.71	-54.5	-72.3	3.8	7.44e-01	0	44	104	0	80	28305
2026-01-26 12:40:26.13	333.61	8.62	-54.5	-72.4	3.8	7.42e-01	0	43	104	0	80	28396
2026-01-26 12:40:27.13	333.68	8.54	-54.5	-72.4	3.8	7.47e-01	0	44	104	0	80	28412
2026-01-26 12:40:28.14	333.75	8.46	-54.5	-72.4	3.8	7.46e-01	0	44	104	0	80	28358
2026-01-26 12:40:29.15	333.82	8.38	-54.5	-72.4	3.8	7.43e-01	0	43	104	0	80	28394
2026-01-26 12:40:30.16	333.88	8.30	-54.5	-72.4	3.8	7.48e-01	0	44	104	0	80	28433
2026-01-26 12:40:31.16	333.95	8.22	-54.5	-72.4	3.8	7.45e-01	0	44	104	0	80	28353
2026-01-26 12:40:32.17	334.01	8.13	-54.5	-72.4	3.8	7.48e-01	0	44	104	0	80	28421
2026-01-26 12:40:33.17	334.08	8.05	-54.5	-72.4	3.8	7.47e-01	0	43	104	0	80	28363
2026-01-26 12:40:34.18	334.14	7.97	-54.5	-72.3	3.8	7.44e-01	0	43	104	0	80	28347
2026-01-26 12:40:35.18	334.21	7.89	-54.5	-72.4	3.8	7.45e-01	0	44	104	0	80	28371
2026-01-26 12:40:36.19	334.27	7.81	-54.5	-72.3	3.8	7.47e-01	0	43	104	0	80	28322
2026-01-26 12:40:37.20	334.34	7.73	-54.5	-72.3	3.8	7.46e-01	0	44	104	0	80	28228
2026-01-26 12:40:38.21	334.40	7.65	-54.6	-72.3	3.8	7.46e-01	0	44	104	0	80	28287
2026-01-26 12:40:39.22	334.46	7.57	-54.5	-72.3	3.8	7.44e-01	0	44	104	0	80	28261
2026-01-26 12:40:40.22	334.53	7.50	-54.6	-72.3	3.8	7.44e-01	0	44	104	0	80	28299
2026-01-26 12:40:41.23	334.59	7.42	-54.5	-72.3	3.8	7.48e-01	0	44	104	0	80	28298
2026-01-26 12:40:42.24	334.65	7.34	-54.5	-72.3	3.8	7.47e-01	0	44	104	0	80	28271
2026-01-26 12:40:43.24	334.71	7.26	-54.5	-72.3	3.8	7.47e-01	0	43	104	0	80	28334
2026-01-26 12:40:44.25	334.77	7.18	-54.5	-72.3	3.8	7.43e-01	0	44	104	0	80	28289
2026-01-26 12:40:45.26	334.83	7.11	-54.5	-72.3	3.8	7.46e-01	0	43	104	0	80	28319
2026-01-26 12:40:46.27	334.90	7.03	-54.5	-72.3	3.8	7.44e-01	0	43	104	0	80	28331
2026-01-26 12:40:47.28	334.96	6.95	-54.5	-72.3	3.8	7.45e-01	0	43	104	0	80	28309
2026-01-26 12:40:48.29	335.02	6.87	-54.5	-72.4	3.8	7.44e-01	0	44	104	0	80	28364
2026-01-26 12:40:49.30	335.08	6.80	-54.5	-72.4	3.8	7.42e-01	0	44	104	0	80	28363
2026-01-26 12:40:50.31	335.14	6.72	-54.5	-72.4	3.8	7.49e-01	0	43	104	0	80	28452
2026-01-26 12:40:51.31	335.19	6.64	-54.5	-72.4	3.8	7.46e-01	0	44	104	0	80	28355
2026-01-26 12:40:52.31	335.25	6.57	-54.6	-72.4	3.8	7.47e-01	0	44	104	0	80	28454
2026-01-26 12:40:53.32	335.31	6.49	-54.5	-72.4	3.8	7.47e-01	0	44	104	0	80	28393
2026-01-26 12:40:54.33	335.37	6.42	-54.5	-72.4	3.8	7.47e-01	0	43	104	0	80	28388
2026-01-26 12:40:55.33	335.43	6.34	-54.6	-72.4	3.8	7.47e-01	0	44	104	0	80	28424
2026-01-26 12:40:56.34	335.49	6.27	-54.5	-72.4	3.8	7.46e-01	0	43	104	0	80	28427
2026-01-26 12:40:57.34	335.54	6.19	-54.5	-72.4	3.8	7.43e-01	0	43	104	0	80	28469
2026-01-26 12:40:58.35	335.60	6.12	-54.5	-72.4	3.8	7.43e-01	0	44	104	0	80	28437
2026-01-26 12:40:59.36	335.66	6.04	-54.5	-72.4	3.8	7.45e-01	0	44	104	0	80	28430
2026-01-26 12:41:00.36	335.71	5.97	-54.5	-72.4	3.8	7.47e-01	0	43	104	0	80	28426
2026-01-26 12:41:01.37	335.77	5.89	-54.5	-72.4	3.8	7.45e-01	0	44	104	0	80	28480
2026-01-26 12:41:02.38	335.83	5.82	-54.5	-72.4	3.8	7.47e-01	0	44	104	0	80	28453
2026-01-26 12:41:03.39	335.88	5.75	-54.5	-72.4	3.8	7.45e-01	0	44	104	0	80	28463
2026-01-26 12:41:04.39	335.94	5.67	-54.5	-72.4	3.8	7.43e-01	0	44	104	0	80	28501
2026-01-26 12:41:05.40	335.99	5.60	-54.6	-72.4	3.8	7.43e-01	0	43	104	0	80	28443
2026-01-26 12:41:06.40	336.05	5.53	-54.5	-72.4	3.8	7.46e-01	0	44	104	0	80	28410
2026-01-26 12:41:07.40	336.10	5.45	-54.6	-72.4	3.8	7.46e-01	0	44	104	0	80	28355
2026-01-26 12:41:08.41	336.16	5.38	-54.5	-72.4	3.8	7.47e-01	0	44	104	0	80	28442
2026-01-26 12:41:09.42	336.21	5.31	-54.5	-72.4	3.8	7.47e-01	0	44	104	0	80	28423
2026-01-26 12:41:10.42	336.26	5.24	-54.5	-72.4	3.8	7.40e-01	0	43	104	0	80	28384
2026-01-26 12:41:11.43	336.32	5.16	-54.6	-72.4	3.8	7.45e-01	0	44	104	0	80	28423
2026-01-26 12:41:12.44	336.37	5.09	-54.5	-72.4	3.8	7.46e-01	0	43	104	0	80	28427
2026-01-26 12:41:13.45	336.42	5.02	-54.5	-72.4	3.8	7.45e-01	0	43	104	0	80	28492
2026-01-26 12:41:14.45	336.48	4.95	-54.5	-72.4	3.8	7.48e-01	0	43	104	0	80	28435
2026-01-26 12:41:15.46	336.53	4.88	-54.5	-72.4	3.8	7.47e-01	0	43	104	0	80	28441
2026-01-26 12:41:16.47	336.58	4.81	-54.5	-72.4	3.8	7.44e-01	0	43	104	0	80	28464
2026-01-26 12:41:17.47	336.63	4.74	-54.5	-72.4	3.8	7.44e-01	0	43	104	0	80	28458
2026-01-26 12:41:18.48	336.68	4.67	-54.6	-72.4	3.8	7.47e-01	0	43	104	0	80	28419
2026-01-26 12:41:19.49	336.74	4.60	-54.5	-72.4	3.8	7.46e-01	0	44	104	0	80	28450
2026-01-26 12:41:20.50	336.79	4.52	-54.5	-72.4	3.8	7.45e-01	0	44	104	0	80	28459
2026-01-26 12:41:21.51	336.84	4.45	-54.5	-72.4	3.8	7.46e-01	0	44	104	0	80	28478
2026-01-26 12:41:22.51	336.89	4.39	-54.5	-72.4	3.8	7.47e-01	0	44	104	0	80	28451
2026-01-26 12:41:23.52	336.94	4.32	-54.5	-72.4	3.8	7.45e-01	0	43	104	0	80	28424
2026-01-26 12:41:24.53	336.99	4.25	-54.5	-72.4	3.8	7.44e-01	0	44	104	0	80	28457
2026-01-26 12:41:25.53	337.04	4.18	-54.5	-72.4	3.8	7.44e-01	0	44	104	0	80	28397
2026-01-26 12:41:26.53	337.09	4.11	-54.5	-72.4	3.8	7.45e-01	0	44	104	0	80	28455
2026-01-26 12:41:27.54	337.14	4.04	-54.5	-72.4	3.8	7.48e-01	0	44	104	0	80	28421
2026-01-26 12:41:28.55	337.19	3.97	-54.5	-72.4	3.8	7.42e-01	0	43	104	0	80	28442
2026-01-26 12:41:29.56	337.24	3.90	-54.5	-72.4	3.8	7.47e-01	0	43	104	0	80	28421
2026-01-26 12:41:30.57	337.29	3.83	-54.5	-72.4	3.8	7.46e-01	0	44	104	0	80	28428
2026-01-26 12:41:31.58	337.33	3.76	-54.5	-72.4	3.8	7.42e-01	0	43	104	0	80	28383
2026-01-26 12:41:32.59	337.38	3.70	-54.5	-72.3	3.8	7.45e-01	0	44	104	0	80	28259
2026-01-26 12:41:33.59	337.43	3.63	-54.5	-72.3	3.8	7.47e-01	0	44	104	0	80	28231
2026-01-26 12:41:34.61	337.48	3.56	-54.5	-72.3	3.8	7.44e-01	0	44	104	0	80	28129
2026-01-26 12:41:35.61	337.53	3.49	-54.5	-72.3	3.8	7.45e-01	0	44	104	0	80	28121
2026-01-26 12:41:36.62	337.57	3.43	-54.5	-72.3	3.8	7.42e-01	0	44	104	0	80	28300
2026-01-26 12:41:37.63	337.62	3.36	-54.5	-72.3	3.8	7.47e-01	0	44	104	0	80	28304
2026-01-26 12:41:38.64	337.67	3.29	-54.5	-72.4	3.8	7.45e-01	0	44	104	0	80	28456
2026-01-26 12:41:39.64	337.72	3.22	-54.5	-72.4	3.8	7.46e-01	0	44	104	0	80	28460
2026-01-26 12:41:40.65	337.76	3.16	-54.5	-72.4	3.8	7.46e-01	0	43	104	0	80	28451
2026-01-26 12:41:41.65	337.81	3.09	-54.5	-72.4	3.8	7.48e-01	0	43	104	0	80	28448
2026-01-26 12:41:42.66	337.86	3.02	-54.6	-72.4	3.8	7.45e-01	0	43	104	0	80	28431
2026-01-26 12:41:43.67	337.90	2.96	-54.6	-72.4	3.8	7.46e-01	0	43	104	0	80	28480
2026-01-26 12:41:44.68	337.95	2.89	-54.5	-72.4	3.8	7.44e-01	0	44	104	0	80	28429
2026-01-26 12:41:45.69	337.99	2.83	-54.5	-72.4	3.8	7.47e-01	0	44	104	0	80	28463
2026-01-26 12:41:46.69	338.04	2.76	-54.5	-72.4	3.8	7.45e-01	0	43	104	0	80	28424
2026-01-26 12:41:47.70	338.08	2.69	-54.5	-72.4	3.8	7.45e-01	0	44	104	0	80	28443
