passes_logs/2026/01/26/R3.2S_Murmansk/R3.2S_Murmansk__20260126_020231_FENGYUN_3D_rec.log

#Pass ID: 20260126_020231_FENGYUN 3D
#Satellite: FENGYUN 3D
#Configuration: FENGYUN 3D
#almurnet v.1.7.20251203
#Start time: 2026-01-26 02:02:32

#Version: 2.2.20231116
#Station: R3.2S_Murmansk
#Location: 33.079688 lon 68.888172 lat
#TLE: 1 43010U 17072A   26025.50461972  .00000046  00000+0  43592-4 0  9990
#TLE: 2 43010  98.9962 357.4844 0002523  89.7890 270.3575 14.19699798424744

#Time	Az	El	Level	Level2	SNR	BER	BlckErr	Temp	State	Recorded	gain1	gain2
2026-01-26 02:02:32.43	22.66	2.07	-53.9	-65.8	3.8	8.46e-01	0	42	0	0	78	14999
2026-01-26 02:02:33.43	22.69	2.14	-53.9	-65.9	3.8	8.47e-01	0	41	104	0	78	15122
2026-01-26 02:02:34.44	22.71	2.20	-53.9	-65.8	3.8	8.46e-01	0	41	104	0	78	15030
2026-01-26 02:02:35.45	22.74	2.27	-53.9	-65.8	3.8	8.46e-01	0	41	104	0	78	15051
2026-01-26 02:02:36.45	22.76	2.33	-53.9	-65.9	3.8	8.47e-01	0	42	104	0	78	15134
2026-01-26 02:02:37.46	22.79	2.39	-54.0	-66.0	3.8	8.46e-01	0	41	104	0	78	15302
2026-01-26 02:02:38.47	22.81	2.46	-54.0	-66.0	3.8	8.47e-01	0	41	104	0	78	15335
2026-01-26 02:02:39.47	22.84	2.52	-54.0	-66.0	3.8	8.46e-01	0	42	104	0	78	15285
2026-01-26 02:02:40.48	22.87	2.59	-54.1	-66.0	3.8	8.47e-01	0	42	104	0	78	15356
2026-01-26 02:02:41.49	22.89	2.65	-54.1	-66.0	3.8	8.46e-01	0	41	104	0	78	15369
2026-01-26 02:02:42.50	22.92	2.72	-54.1	-66.0	3.8	8.46e-01	0	42	104	0	78	15352
2026-01-26 02:02:43.51	22.94	2.78	-54.0	-66.0	3.8	8.46e-01	0	42	104	0	78	15298
2026-01-26 02:02:44.52	22.97	2.85	-54.0	-66.0	3.8	8.46e-01	0	42	104	0	78	15252
2026-01-26 02:02:45.52	23.00	2.91	-54.0	-65.9	3.8	8.47e-01	0	42	104	0	78	15193
2026-01-26 02:02:46.52	23.02	2.98	-53.9	-65.9	3.8	8.46e-01	0	42	104	0	78	15076
2026-01-26 02:02:47.53	23.05	3.04	-53.9	-65.8	3.8	8.46e-01	0	42	104	0	78	15011
2026-01-26 02:02:48.54	23.08	3.11	-53.9	-65.8	3.8	8.46e-01	0	42	104	0	78	14999
2026-01-26 02:02:49.55	23.10	3.17	-53.8	-65.8	3.8	8.46e-01	0	42	104	0	78	14954
2026-01-26 02:02:50.56	23.13	3.24	-53.8	-65.7	3.8	8.47e-01	0	42	104	0	78	14839
2026-01-26 02:02:51.56	23.16	3.30	-53.7	-65.7	3.8	8.47e-01	0	42	104	0	78	14724
2026-01-26 02:02:52.57	23.18	3.37	-53.6	-65.6	3.8	8.47e-01	0	42	104	0	78	14583
2026-01-26 02:02:53.58	23.21	3.44	-53.5	-65.5	3.8	8.47e-01	0	42	104	0	78	14432
2026-01-26 02:02:54.59	23.24	3.50	-53.4	-65.4	3.8	8.46e-01	0	42	104	0	78	14211
2026-01-26 02:02:55.60	23.26	3.57	-53.3	-65.3	3.8	8.46e-01	0	42	104	0	78	14057
2026-01-26 02:02:56.60	23.29	3.64	-53.1	-65.0	3.8	8.46e-01	0	42	104	0	78	13669
2026-01-26 02:02:57.61	23.32	3.70	-52.9	-64.7	3.8	8.46e-01	0	42	104	0	77	14028
2026-01-26 02:02:58.61	23.35	3.77	-52.5	-64.4	3.8	8.45e-01	0	42	104	0	77	13474
2026-01-26 02:02:59.62	23.37	3.84	-48.6	-51.4	11.3	8.43e-01	0	42	104	0	69	4778
2026-01-26 02:03:00.63	23.40	3.91	-47.4	-49.5	13.3	5.49e-05	0	42	0	5242880	66	4564
2026-01-26 02:03:01.64	23.43	3.97	-46.0	-47.7	15.2	0.00e+00	0	42	0	10485760	64	4180
2026-01-26 02:03:02.65	23.46	4.04	-45.4	-46.8	16.2	0.00e+00	0	42	0	16777216	62	4241
2026-01-26 02:03:03.66	23.49	4.11	-44.6	-46.0	17.0	0.00e+00	0	42	0	22020096	61	4059
2026-01-26 02:03:04.67	23.51	4.18	-44.2	-45.4	17.6	0.00e+00	0	42	0	28311552	60	4038
2026-01-26 02:03:05.68	23.54	4.25	-44.1	-45.3	18.0	0.00e+00	0	42	0	33554432	59	4233
2026-01-26 02:03:06.69	23.57	4.32	-43.9	-45.1	18.3	0.00e+00	0	42	0	38797312	59	4101
2026-01-26 02:03:07.70	23.60	4.39	-43.4	-44.5	18.8	0.00e+00	0	42	0	45088768	58	4070
2026-01-26 02:03:08.70	23.63	4.45	-43.6	-44.8	18.5	0.00e+00	0	42	0	50331648	58	4209
2026-01-26 02:03:09.71	23.66	4.52	-43.5	-44.7	18.7	0.00e+00	0	42	0	55574528	58	4146
2026-01-26 02:03:10.72	23.69	4.59	-43.9	-45.1	18.2	0.00e+00	0	42	0	61865984	58	4379
2026-01-26 02:03:11.73	23.72	4.66	-44.2	-45.5	17.9	0.00e+00	0	42	0	67108864	59	4315
2026-01-26 02:03:12.74	23.75	4.73	-44.7	-46.1	17.3	0.00e+00	0	42	0	73400320	59	4600
2026-01-26 02:03:13.75	23.77	4.80	-45.2	-46.7	16.3	0.00e+00	0	42	0	78643200	61	4431
2026-01-26 02:03:14.76	23.80	4.87	-46.4	-48.2	14.8	1.10e-06	0	43	0	84934656	63	4703
2026-01-26 02:03:15.77	23.83	4.94	-46.9	-48.9	14.0	8.00e-06	0	42	0	90177536	64	4762
2026-01-26 02:03:16.78	23.86	5.01	-48.1	-50.7	12.2	4.46e-05	0	42	0	95420416	66	5221
2026-01-26 02:03:17.79	23.89	5.08	-44.3	-45.5	17.5	3.40e-06	0	42	0	101711872	60	4083
2026-01-26 02:03:18.79	23.92	5.15	-49.9	-53.9	8.9	0.00e+00	0	43	0	106954752	70	6059
2026-01-26 02:03:19.80	23.95	5.22	-48.9	-51.9	11.1	1.43e-03	0	42	0	113246208	68	5361
2026-01-26 02:03:20.81	23.98	5.30	-44.2	-45.4	18.0	1.91e-04	0	43	0	118489088	59	4246
2026-01-26 02:03:21.81	24.01	5.37	-51.9	-62.6	3.9	2.65e-01	0	43	0	123731968	74	13035
2026-01-26 02:03:22.82	24.04	5.44	-44.1	-45.2	17.4	7.87e-01	0	43	104	123731968	59	4190
2026-01-26 02:03:23.83	24.07	5.51	-43.9	-45.1	18.4	0.00e+00	0	42	0	127926272	59	4115
2026-01-26 02:03:24.84	24.10	5.58	-43.5	-44.6	18.9	0.00e+00	0	43	0	134217728	58	4108
2026-01-26 02:03:25.84	24.13	5.65	-42.9	-44.0	19.5	0.00e+00	0	43	0	139460608	57	4073
2026-01-26 02:03:26.85	24.17	5.72	-43.1	-44.1	19.4	0.00e+00	0	43	0	145752064	57	4132
2026-01-26 02:03:27.86	24.20	5.80	-43.1	-44.2	19.3	0.00e+00	0	43	0	150994944	57	4162
2026-01-26 02:03:28.87	24.23	5.87	-42.7	-43.8	19.7	0.00e+00	0	42	0	156237824	57	3971
2026-01-26 02:03:29.88	24.26	5.94	-42.9	-44.0	19.5	0.00e+00	0	43	0	162529280	57	4065
2026-01-26 02:03:30.88	24.29	6.02	-42.9	-43.9	19.6	0.00e+00	0	43	0	167772160	57	4050
2026-01-26 02:03:31.89	24.32	6.09	-42.8	-43.9	19.7	0.00e+00	0	43	0	173015040	57	4024
2026-01-26 02:03:32.90	24.35	6.16	-43.1	-44.1	19.5	0.00e+00	0	43	0	179306496	57	4129
2026-01-26 02:03:33.91	24.39	6.24	-42.9	-44.0	19.6	0.00e+00	0	43	0	184549376	57	4062
2026-01-26 02:03:34.92	24.42	6.31	-42.7	-43.7	19.8	0.00e+00	0	43	0	190840832	57	3950
2026-01-26 02:03:35.93	24.45	6.38	-42.6	-43.6	19.9	0.00e+00	0	43	0	196083712	57	3910
2026-01-26 02:03:36.93	24.48	6.46	-42.5	-43.5	20.1	0.00e+00	0	43	0	202375168	57	3838
2026-01-26 02:03:37.94	24.51	6.53	-42.4	-43.4	20.2	0.00e+00	0	43	0	207618048	56	4005
2026-01-26 02:03:38.95	24.55	6.61	-42.4	-43.4	20.2	0.00e+00	0	43	0	213909504	56	4030
2026-01-26 02:03:39.96	24.58	6.68	-42.6	-43.6	20.0	0.00e+00	0	43	0	219152384	56	4112
2026-01-26 02:03:40.96	24.61	6.76	-42.3	-43.2	20.4	0.00e+00	0	43	0	224395264	56	3948
2026-01-26 02:03:41.97	24.64	6.83	-42.3	-43.3	20.3	0.00e+00	0	43	0	230686720	56	3971
2026-01-26 02:03:42.98	24.68	6.91	-42.1	-43.0	20.6	0.00e+00	0	43	0	235929600	56	3863
2026-01-26 02:03:43.99	24.71	6.98	-42.1	-43.1	20.5	0.00e+00	0	43	0	241172480	56	3897
2026-01-26 02:03:45.00	24.74	7.06	-42.4	-43.4	20.2	0.00e+00	0	43	0	247463936	56	4016
2026-01-26 02:03:46.01	24.78	7.14	-42.1	-43.1	20.5	0.00e+00	0	43	0	252706816	56	3878
2026-01-26 02:03:47.02	24.81	7.21	-41.9	-42.8	20.7	0.00e+00	0	43	0	257949696	55	3967
2026-01-26 02:03:48.02	24.85	7.29	-41.8	-42.7	20.8	0.00e+00	0	43	0	264241152	55	3953
2026-01-26 02:03:49.03	24.88	7.36	-41.8	-42.7	20.9	0.00e+00	0	43	0	269484032	55	3920
2026-01-26 02:03:50.04	24.91	7.44	-41.9	-42.9	20.7	0.00e+00	0	43	0	275775488	55	4021
2026-01-26 02:03:51.05	24.95	7.52	-42.0	-43.0	20.6	0.00e+00	0	43	0	281018368	55	4066
2026-01-26 02:03:52.05	24.98	7.60	-41.8	-42.7	20.9	0.00e+00	0	43	0	287309824	55	3939
2026-01-26 02:03:53.06	25.02	7.67	-41.7	-42.6	21.0	0.00e+00	0	43	0	292552704	55	3904
2026-01-26 02:03:54.07	25.05	7.75	-41.7	-42.6	21.0	0.00e+00	0	43	0	298844160	55	3885
2026-01-26 02:03:55.07	25.09	7.83	-41.5	-42.4	21.2	0.00e+00	0	43	0	304087040	54	4019
2026-01-26 02:03:56.08	25.12	7.91	-41.8	-42.7	20.9	0.00e+00	0	43	0	309329920	54	4187
2026-01-26 02:03:57.09	25.16	7.99	-42.0	-42.9	20.7	0.00e+00	0	43	0	315621376	54	4279
2026-01-26 02:03:58.09	25.19	8.07	-41.7	-42.6	21.1	0.00e+00	0	43	0	320864256	54	4114
2026-01-26 02:03:59.10	25.23	8.14	-41.6	-42.5	21.1	0.00e+00	0	43	0	326107136	54	4081
2026-01-26 02:04:00.11	25.26	8.22	-41.5	-42.4	21.2	0.00e+00	0	43	0	332398592	54	4026
2026-01-26 02:04:01.12	25.30	8.30	-41.6	-42.5	21.2	0.00e+00	0	43	0	337641472	54	4075
2026-01-26 02:04:02.12	25.34	8.38	-41.4	-42.3	21.3	0.00e+00	0	43	0	342884352	54	3985
2026-01-26 02:04:03.13	25.37	8.46	-41.4	-42.3	21.4	0.00e+00	0	43	0	349175808	54	3980
2026-01-26 02:04:04.14	25.41	8.54	-41.4	-42.3	21.3	0.00e+00	0	43	0	355467264	54	3995
2026-01-26 02:04:05.15	25.45	8.62	-41.5	-42.4	21.3	0.00e+00	0	43	0	360710144	54	4032
2026-01-26 02:04:06.16	25.48	8.71	-41.6	-42.5	21.2	0.00e+00	0	43	0	365953024	54	4081
2026-01-26 02:04:07.17	25.52	8.79	-41.5	-42.3	21.3	0.00e+00	0	43	0	372244480	54	3996
2026-01-26 02:04:08.17	25.56	8.87	-41.5	-42.3	21.3	0.00e+00	0	43	0	377487360	54	4002
2026-01-26 02:04:09.18	25.59	8.95	-41.5	-42.4	21.2	0.00e+00	0	43	0	383778816	54	4042
2026-01-26 02:04:10.19	25.63	9.03	-41.4	-42.3	21.5	0.00e+00	0	43	0	389021696	54	3961
2026-01-26 02:04:11.19	25.67	9.11	-41.4	-42.2	21.5	0.00e+00	0	43	0	394264576	54	3952
2026-01-26 02:04:12.20	25.71	9.20	-41.7	-42.6	21.2	0.00e+00	0	43	0	400556032	54	4110
2026-01-26 02:04:13.21	25.74	9.28	-41.6	-42.5	21.2	0.00e+00	0	43	0	405798912	54	4069
2026-01-26 02:04:14.22	25.78	9.36	-41.4	-42.3	21.4	0.00e+00	0	43	0	411041792	54	3974
2026-01-26 02:04:15.22	25.82	9.44	-41.5	-42.4	21.4	0.00e+00	0	43	0	417333248	54	4007
2026-01-26 02:04:16.23	25.86	9.53	-41.7	-42.6	21.2	0.00e+00	0	43	0	422576128	54	4100
2026-01-26 02:04:17.24	25.90	9.61	-41.6	-42.5	21.3	0.00e+00	0	43	0	428867584	54	4063
2026-01-26 02:04:18.25	25.94	9.70	-41.7	-42.6	21.1	0.00e+00	0	43	0	434110464	54	4122
2026-01-26 02:04:19.25	25.98	9.78	-41.5	-42.4	21.4	0.00e+00	0	43	0	440401920	54	4011
2026-01-26 02:04:20.26	26.02	9.86	-41.7	-42.6	21.2	0.00e+00	0	43	0	445644800	54	4120
2026-01-26 02:04:21.27	26.06	9.95	-41.7	-42.6	21.2	0.00e+00	0	43	0	450887680	54	4102
2026-01-26 02:04:22.27	26.10	10.03	-41.7	-42.6	21.3	0.00e+00	0	43	0	457179136	54	4100
2026-01-26 02:04:23.28	26.14	10.12	-41.7	-42.6	21.2	0.00e+00	0	43	0	462422016	54	4134
2026-01-26 02:04:24.29	26.18	10.20	-41.4	-42.3	21.5	0.00e+00	0	43	0	468713472	54	3966
2026-01-26 02:04:25.30	26.22	10.29	-41.5	-42.4	21.4	0.00e+00	0	43	0	473956352	54	4049
2026-01-26 02:04:26.31	26.26	10.38	-41.5	-42.4	21.4	0.00e+00	0	43	0	479199232	54	4039
2026-01-26 02:04:27.32	26.30	10.46	-41.6	-42.5	21.4	0.00e+00	0	43	0	485490688	54	4060
2026-01-26 02:04:28.33	26.34	10.55	-41.4	-42.3	21.5	0.00e+00	0	43	0	490733568	54	3972
2026-01-26 02:04:29.34	26.38	10.64	-41.4	-42.3	21.5	0.00e+00	0	43	0	497025024	54	3991
2026-01-26 02:04:30.35	26.42	10.73	-41.4	-42.3	21.5	0.00e+00	0	43	0	502267904	54	3977
2026-01-26 02:04:31.36	26.46	10.81	-41.3	-42.2	21.6	0.00e+00	0	43	0	508559360	54	3942
2026-01-26 02:04:32.37	26.51	10.90	-41.3	-42.2	21.7	0.00e+00	0	43	0	513802240	54	3923
2026-01-26 02:04:33.37	26.55	10.99	-41.3	-42.1	21.7	0.00e+00	0	43	0	519045120	54	3911
2026-01-26 02:04:34.37	26.59	11.08	-41.2	-42.0	21.8	0.00e+00	0	43	0	525336576	54	3865
2026-01-26 02:04:35.38	26.63	11.17	-41.1	-41.9	21.9	0.00e+00	0	43	0	530579456	54	3818
2026-01-26 02:04:36.39	26.68	11.26	-41.0	-41.9	21.9	0.00e+00	0	43	0	535822336	54	3804
2026-01-26 02:04:37.40	26.72	11.35	-41.1	-41.9	21.9	0.00e+00	0	43	0	542113792	54	3812
2026-01-26 02:04:38.41	26.76	11.44	-40.9	-41.7	22.1	0.00e+00	0	43	0	547356672	53	3946
2026-01-26 02:04:39.42	26.81	11.53	-40.8	-41.7	22.1	0.00e+00	0	43	0	553648128	53	3926
2026-01-26 02:04:40.42	26.85	11.62	-40.8	-41.6	22.2	0.00e+00	0	43	0	558891008	53	3912
2026-01-26 02:04:41.42	26.89	11.71	-40.8	-41.6	22.2	0.00e+00	0	43	0	564133888	53	3908
2026-01-26 02:04:42.43	26.94	11.80	-40.6	-41.5	22.4	0.00e+00	0	43	0	570425344	53	3828
2026-01-26 02:04:43.44	26.98	11.89	-40.6	-41.4	22.4	0.00e+00	0	43	0	576716800	53	3808
2026-01-26 02:04:44.45	27.03	11.98	-40.7	-41.5	22.3	0.00e+00	0	43	0	581959680	53	3866
2026-01-26 02:04:45.45	27.07	12.07	-40.5	-41.3	22.5	0.00e+00	0	43	0	587202560	53	3749
2026-01-26 02:04:46.46	27.12	12.17	-40.6	-41.4	22.4	0.00e+00	0	43	0	593494016	52	4014
2026-01-26 02:04:47.47	27.16	12.26	-40.6	-41.4	22.5	0.00e+00	0	43	0	598736896	52	4025
2026-01-26 02:04:48.47	27.21	12.35	-40.8	-41.6	22.3	0.00e+00	0	43	0	603979776	52	4111
2026-01-26 02:04:49.48	27.26	12.45	-40.5	-41.3	22.5	0.00e+00	0	43	0	610271232	52	3971
2026-01-26 02:04:50.48	27.30	12.54	-40.5	-41.3	22.5	0.00e+00	0	43	0	615514112	52	3977
2026-01-26 02:04:51.49	27.35	12.63	-40.5	-41.3	22.6	0.00e+00	0	43	0	620756992	52	3974
2026-01-26 02:04:52.50	27.40	12.73	-40.5	-41.3	22.6	0.00e+00	0	43	0	627048448	52	3973
2026-01-26 02:04:53.50	27.44	12.82	-40.6	-41.4	22.4	0.00e+00	0	43	0	632291328	52	4047
2026-01-26 02:04:54.51	27.49	12.92	-40.5	-41.3	22.6	0.00e+00	0	43	0	638582784	52	3972
2026-01-26 02:04:55.52	27.54	13.01	-40.5	-41.3	22.5	0.00e+00	0	43	0	643825664	52	3990
2026-01-26 02:04:56.53	27.59	13.11	-40.6	-41.4	22.5	0.00e+00	0	43	0	649068544	52	4019
2026-01-26 02:04:57.53	27.63	13.21	-40.6	-41.4	22.4	0.00e+00	0	43	0	655360000	52	4035
2026-01-26 02:04:58.53	27.68	13.30	-40.6	-41.4	22.5	0.00e+00	0	43	0	661651456	52	4010
2026-01-26 02:04:59.54	27.73	13.40	-40.5	-41.3	22.6	0.00e+00	0	43	0	666894336	52	3968
2026-01-26 02:05:00.54	27.78	13.50	-40.4	-41.2	22.7	0.00e+00	0	43	0	672137216	52	3937
2026-01-26 02:05:01.55	27.83	13.59	-40.4	-41.2	22.7	0.00e+00	0	43	0	678428672	52	3951
2026-01-26 02:05:02.56	27.88	13.69	-40.4	-41.2	22.7	0.00e+00	0	43	0	683671552	52	3919
2026-01-26 02:05:03.56	27.93	13.79	-40.5	-41.3	22.6	0.00e+00	0	43	0	688914432	52	3969
2026-01-26 02:05:04.57	27.98	13.89	-40.4	-41.2	22.7	0.00e+00	0	43	0	695205888	52	3930
2026-01-26 02:05:05.58	28.03	13.99	-40.4	-41.2	22.7	0.00e+00	0	43	0	700448768	52	3938
2026-01-26 02:05:06.58	28.08	14.09	-40.3	-41.1	22.8	0.00e+00	0	43	0	705691648	52	3895
2026-01-26 02:05:07.59	28.13	14.19	-40.2	-41.0	22.9	0.00e+00	0	43	0	711983104	52	3852
2026-01-26 02:05:08.59	28.18	14.29	-40.3	-41.1	22.8	0.00e+00	0	43	0	717225984	52	3877
2026-01-26 02:05:09.60	28.24	14.39	-40.1	-40.9	23.0	0.00e+00	0	43	0	723517440	52	3808
2026-01-26 02:05:10.61	28.29	14.49	-40.2	-40.9	22.9	0.00e+00	0	43	0	728760320	52	3823
2026-01-26 02:05:11.61	28.34	14.59	-40.0	-40.8	23.1	0.00e+00	0	43	0	734003200	52	3767
2026-01-26 02:05:12.62	28.39	14.70	-40.1	-40.9	23.1	0.00e+00	0	43	0	740294656	52	3781
2026-01-26 02:05:13.63	28.45	14.80	-40.0	-40.8	23.2	0.00e+00	0	43	0	745537536	51	3979
2026-01-26 02:05:14.63	28.50	14.90	-40.1	-40.9	23.1	0.00e+00	0	43	0	751828992	51	4013
2026-01-26 02:05:15.64	28.55	15.00	-40.1	-40.9	23.1	0.00e+00	0	43	0	757071872	51	4030
2026-01-26 02:05:16.65	28.61	15.11	-40.0	-40.7	23.3	0.00e+00	0	43	0	763363328	51	3944
2026-01-26 02:05:17.65	28.66	15.21	-40.0	-40.8	23.2	0.00e+00	0	44	0	768606208	51	3971
2026-01-26 02:05:18.66	28.72	15.32	-40.1	-40.8	23.2	0.00e+00	0	43	0	773849088	51	3993
2026-01-26 02:05:19.66	28.77	15.42	-39.9	-40.7	23.3	0.00e+00	0	43	0	780140544	51	3935
2026-01-26 02:05:20.67	28.83	15.53	-39.9	-40.7	23.3	0.00e+00	0	43	0	785383424	51	3928
2026-01-26 02:05:21.68	28.89	15.63	-40.0	-40.8	23.2	0.00e+00	0	43	0	790626304	51	3974
2026-01-26 02:05:22.68	28.94	15.74	-40.0	-40.7	23.3	0.00e+00	0	43	0	796917760	51	3957
2026-01-26 02:05:23.68	29.00	15.85	-40.0	-40.7	23.3	0.00e+00	0	43	0	802160640	51	3957
2026-01-26 02:05:24.69	29.05	15.95	-40.0	-40.8	23.2	0.00e+00	0	43	0	808452096	51	3985
2026-01-26 02:05:25.70	29.11	16.06	-40.0	-40.7	23.3	0.00e+00	0	43	0	813694976	51	3958
2026-01-26 02:05:26.70	29.17	16.17	-40.0	-40.8	23.3	0.00e+00	0	44	0	818937856	51	3961
2026-01-26 02:05:27.71	29.23	16.28	-40.0	-40.8	23.2	0.00e+00	0	43	0	825229312	51	3985
2026-01-26 02:05:28.71	29.29	16.39	-40.0	-40.8	23.3	0.00e+00	0	43	0	830472192	51	3981
2026-01-26 02:05:29.72	29.35	16.50	-40.0	-40.8	23.3	0.00e+00	0	43	0	835715072	51	3971
2026-01-26 02:05:30.73	29.41	16.61	-40.0	-40.8	23.3	0.00e+00	0	43	0	842006528	51	3968
2026-01-26 02:05:31.74	29.47	16.72	-39.6	-40.4	23.6	0.00e+00	0	43	0	848297984	51	3808
2026-01-26 02:05:32.75	29.53	16.83	-39.6	-40.4	23.6	0.00e+00	0	44	0	853540864	51	3809
2026-01-26 02:05:33.75	29.59	16.94	-39.6	-40.4	23.6	0.00e+00	0	43	0	858783744	51	3781
2026-01-26 02:05:34.76	29.65	17.05	-39.4	-40.2	23.8	0.00e+00	0	43	0	865075200	50	3926
2026-01-26 02:05:35.76	29.71	17.16	-39.6	-40.3	23.7	0.00e+00	0	43	0	870318080	50	4000
2026-01-26 02:05:36.77	29.77	17.28	-39.4	-40.1	23.8	0.00e+00	0	43	0	876609536	50	3893
2026-01-26 02:05:37.78	29.83	17.39	-39.3	-40.0	24.0	0.00e+00	0	43	0	881852416	50	3857
2026-01-26 02:05:38.78	29.90	17.50	-39.3	-40.0	23.9	0.00e+00	0	43	0	887095296	50	3863
2026-01-26 02:05:39.79	29.96	17.62	-39.3	-40.0	24.0	0.00e+00	0	43	0	893386752	50	3859
2026-01-26 02:05:40.80	30.02	17.73	-39.3	-40.1	23.9	0.00e+00	0	43	0	898629632	50	3883
2026-01-26 02:05:41.80	30.09	17.85	-39.3	-40.1	23.9	0.00e+00	0	43	0	903872512	50	3887
2026-01-26 02:05:42.81	30.15	17.96	-39.3	-40.0	24.0	0.00e+00	0	43	0	910163968	50	3865
2026-01-26 02:05:43.82	30.22	18.08	-39.3	-40.0	24.0	0.00e+00	0	43	0	915406848	50	3849
2026-01-26 02:05:44.83	30.28	18.20	-39.3	-40.0	24.0	0.00e+00	0	43	0	920649728	50	3861
2026-01-26 02:05:45.83	30.35	18.32	-39.3	-40.0	24.0	0.00e+00	0	43	0	926941184	50	3864
2026-01-26 02:05:46.84	30.42	18.43	-39.3	-40.0	23.9	0.00e+00	0	43	0	933232640	50	3865
2026-01-26 02:05:47.84	30.48	18.55	-39.2	-39.9	24.1	0.00e+00	0	43	0	938475520	50	3812
2026-01-26 02:05:48.85	30.55	18.67	-39.2	-40.0	24.0	0.00e+00	0	43	0	943718400	50	3842
2026-01-26 02:05:49.86	30.62	18.79	-39.3	-40.0	24.0	0.00e+00	0	43	0	950009856	50	3863
2026-01-26 02:05:50.86	30.69	18.91	-39.3	-40.1	24.0	0.00e+00	0	43	0	955252736	50	3872
2026-01-26 02:05:51.87	30.75	19.03	-39.2	-39.9	24.1	0.00e+00	0	43	0	961544192	50	3807
2026-01-26 02:05:52.87	30.82	19.15	-39.0	-39.8	24.3	0.00e+00	0	43	0	966787072	50	3741
2026-01-26 02:05:53.88	30.89	19.27	-39.0	-39.7	24.3	0.00e+00	0	43	0	972029952	50	3735
2026-01-26 02:05:54.89	30.96	19.40	-39.1	-39.8	24.1	0.00e+00	0	43	0	978321408	50	3761
2026-01-26 02:05:55.89	31.04	19.52	-39.1	-39.8	24.2	0.00e+00	0	43	0	983564288	50	3769
2026-01-26 02:05:56.90	31.11	19.64	-39.1	-39.8	24.2	0.00e+00	0	43	0	988807168	50	3766
2026-01-26 02:05:57.91	31.18	19.77	-39.0	-39.7	24.3	0.00e+00	0	43	0	995098624	50	3723
2026-01-26 02:05:58.91	31.25	19.89	-39.1	-39.9	24.2	0.00e+00	0	43	0	1000341504	50	3798
2026-01-26 02:05:59.92	31.33	20.02	-39.2	-40.0	24.1	0.00e+00	0	43	0	1005584384	50	3834
2026-01-26 02:06:00.93	31.40	20.14	-39.1	-39.9	24.2	0.00e+00	0	43	0	1011875840	50	3784
2026-01-26 02:06:01.93	31.47	20.27	-39.2	-39.9	24.2	0.00e+00	0	43	0	1018167296	50	3809
2026-01-26 02:06:02.94	31.55	20.40	-39.1	-39.9	24.2	0.00e+00	0	44	0	1023410176	50	3784
2026-01-26 02:06:03.94	31.62	20.52	-39.2	-39.9	24.2	0.00e+00	0	43	0	1028653056	50	3813
2026-01-26 02:06:04.95	31.70	20.65	-39.1	-39.8	24.2	0.00e+00	0	43	0	1034944512	50	3767
2026-01-26 02:06:05.96	31.78	20.78	-39.0	-39.7	24.3	0.00e+00	0	43	0	1040187392	50	3735
2026-01-26 02:06:06.96	31.85	20.91	-39.0	-39.7	24.3	0.00e+00	0	43	0	1046478848	50	3731
2026-01-26 02:06:07.97	31.93	21.04	-38.9	-39.6	24.5	0.00e+00	0	43	0	1051721728	49	3884
2026-01-26 02:06:08.98	32.01	21.17	-38.7	-39.5	24.6	0.00e+00	0	43	0	1056964608	49	3826
2026-01-26 02:06:09.98	32.09	21.30	-38.8	-39.5	24.6	0.00e+00	0	43	0	1063256064	49	3838
2026-01-26 02:06:10.99	32.17	21.44	-38.7	-39.4	24.6	0.00e+00	0	43	0	1068498944	49	3811
2026-01-26 02:06:11.99	32.25	21.57	-38.7	-39.4	24.6	0.00e+00	0	43	0	1073741824	49	3810
2026-01-26 02:06:13.00	32.33	21.70	-38.7	-39.4	24.7	0.00e+00	0	43	0	1080033280	49	3798
2026-01-26 02:06:14.01	32.41	21.84	-38.7	-39.5	24.6	0.00e+00	0	43	0	1085276160	49	3828
2026-01-26 02:06:15.02	32.50	21.97	-38.5	-39.3	24.8	0.00e+00	0	43	0	1090519040	49	3740
2026-01-26 02:06:16.02	32.58	22.11	-38.5	-39.2	24.8	0.00e+00	0	43	0	1096810496	49	3733
2026-01-26 02:06:17.03	32.66	22.24	-38.5	-39.2	24.8	0.00e+00	0	44	0	1102053376	49	3735
2026-01-26 02:06:18.03	32.75	22.38	-38.5	-39.3	24.8	0.00e+00	0	44	0	1108344832	49	3739
2026-01-26 02:06:19.04	32.83	22.52	-38.6	-39.3	24.8	0.00e+00	0	43	0	1113587712	49	3758
2026-01-26 02:06:20.05	32.92	22.66	-38.6	-39.3	24.8	0.00e+00	0	43	0	1119879168	49	3747
2026-01-26 02:06:21.05	33.00	22.79	-38.5	-39.2	24.8	0.00e+00	0	43	0	1125122048	49	3721
2026-01-26 02:06:22.06	33.09	22.93	-38.6	-39.3	24.7	0.00e+00	0	43	0	1131413504	49	3771
2026-01-26 02:06:23.06	33.18	23.07	-38.6	-39.3	24.8	0.00e+00	0	43	0	1136656384	49	3750
2026-01-26 02:06:24.07	33.27	23.21	-38.5	-39.2	24.8	0.00e+00	0	43	0	1141899264	49	3731
2026-01-26 02:06:25.08	33.36	23.36	-38.4	-39.2	24.9	0.00e+00	0	43	0	1148190720	48	3914
2026-01-26 02:06:26.08	33.45	23.50	-38.4	-39.1	24.9	0.00e+00	0	43	0	1153433600	48	3912
2026-01-26 02:06:27.09	33.54	23.64	-38.4	-39.1	24.9	0.00e+00	0	43	0	1158676480	48	3886
2026-01-26 02:06:28.10	33.63	23.79	-38.3	-39.0	25.1	0.00e+00	0	43	0	1164967936	48	3834
2026-01-26 02:06:29.11	33.73	23.93	-38.3	-39.1	25.0	0.00e+00	0	43	0	1170210816	48	3871
2026-01-26 02:06:30.11	33.82	24.07	-38.3	-39.0	25.0	0.00e+00	0	43	0	1175453696	48	3859
2026-01-26 02:06:31.12	33.91	24.22	-38.2	-38.9	25.1	0.00e+00	0	43	0	1181745152	48	3821
2026-01-26 02:06:32.13	34.01	24.37	-38.2	-38.9	25.2	0.00e+00	0	43	0	1188036608	48	3786
2026-01-26 02:06:33.14	34.11	24.52	-38.2	-38.9	25.1	0.00e+00	0	43	0	1193279488	48	3805
2026-01-26 02:06:34.15	34.20	24.67	-38.3	-39.0	25.1	0.00e+00	0	43	0	1198522368	48	3833
2026-01-26 02:06:35.16	34.30	24.81	-38.1	-38.8	25.2	0.00e+00	0	43	0	1204813824	48	3759
2026-01-26 02:06:36.16	34.40	24.96	-38.1	-38.7	25.3	0.00e+00	0	43	0	1210056704	48	3736
2026-01-26 02:06:37.17	34.50	25.11	-37.6	-38.3	25.2	0.00e+00	0	43	0	1216348160	47	3768
2026-01-26 02:06:38.18	34.60	25.27	-37.6	-38.3	25.2	0.00e+00	0	43	0	1221591040	47	3762
2026-01-26 02:06:39.19	34.70	25.42	-37.6	-38.3	25.2	0.00e+00	0	44	0	1226833920	47	3767
2026-01-26 02:06:40.20	34.81	25.57	-37.4	-38.2	25.2	0.00e+00	0	43	0	1233125376	46	3914
2026-01-26 02:06:41.21	34.91	25.73	-37.4	-38.1	25.4	0.00e+00	0	43	0	1238368256	46	3898
2026-01-26 02:06:42.21	35.01	25.88	-37.4	-38.1	25.4	0.00e+00	0	43	0	1243611136	46	3912
2026-01-26 02:06:43.22	35.12	26.04	-37.5	-38.2	25.3	0.00e+00	0	43	0	1249902592	46	3944
2026-01-26 02:06:44.22	35.23	26.19	-37.6	-38.3	25.2	0.00e+00	0	43	0	1255145472	46	3992
2026-01-26 02:06:45.23	35.33	26.35	-37.6	-38.3	25.2	0.00e+00	0	43	0	1260388352	46	3966
2026-01-26 02:06:46.23	35.44	26.51	-37.7	-38.4	25.1	0.00e+00	0	43	0	1266679808	46	4030
2026-01-26 02:06:47.24	35.55	26.66	-37.6	-38.4	25.2	0.00e+00	0	43	0	1272971264	46	4007
2026-01-26 02:06:48.24	35.66	26.82	-37.6	-38.3	25.2	0.00e+00	0	43	0	1278214144	46	3979
2026-01-26 02:06:49.25	35.77	26.98	-37.6	-38.3	25.2	0.00e+00	0	43	0	1283457024	46	3976
2026-01-26 02:06:50.26	35.89	27.15	-37.6	-38.4	25.2	0.00e+00	0	43	0	1289748480	46	4005
2026-01-26 02:06:51.27	36.00	27.31	-37.5	-38.2	25.3	0.00e+00	0	43	0	1294991360	46	3922
2026-01-26 02:06:52.28	36.12	27.47	-37.4	-38.1	25.4	0.00e+00	0	43	0	1301282816	46	3903
2026-01-26 02:06:53.28	36.23	27.63	-37.4	-38.1	25.4	0.00e+00	0	43	0	1306525696	46	3906
2026-01-26 02:06:54.29	36.35	27.80	-37.5	-38.2	25.3	0.00e+00	0	43	0	1311768576	46	3941
2026-01-26 02:06:55.30	36.47	27.96	-37.6	-38.3	25.3	0.00e+00	0	43	0	1318060032	46	3966
2026-01-26 02:06:56.31	36.59	28.13	-37.6	-38.3	25.2	0.00e+00	0	43	0	1323302912	46	4003
2026-01-26 02:06:57.32	36.71	28.30	-37.7	-38.5	25.1	0.00e+00	0	43	0	1328545792	46	4054
2026-01-26 02:06:58.32	36.83	28.47	-37.8	-38.5	25.1	0.00e+00	0	43	0	1334837248	46	4067
2026-01-26 02:06:59.33	36.95	28.64	-37.7	-38.4	25.1	0.00e+00	0	43	0	1341128704	46	4034
2026-01-26 02:07:00.34	37.08	28.81	-37.7	-38.4	25.2	0.00e+00	0	43	0	1346371584	46	4016
2026-01-26 02:07:01.35	37.21	28.98	-37.6	-38.4	25.2	0.00e+00	0	43	0	1351614464	46	4006
2026-01-26 02:07:02.36	37.33	29.15	-37.5	-38.3	25.3	0.00e+00	0	44	0	1357905920	46	3959
2026-01-26 02:07:03.36	37.46	29.32	-37.6	-38.3	25.2	0.00e+00	0	43	0	1363148800	46	3988
2026-01-26 02:07:04.37	37.59	29.50	-37.6	-38.3	25.2	0.00e+00	0	43	0	1368391680	46	3980
2026-01-26 02:07:05.37	37.72	29.67	-37.6	-38.3	25.2	0.00e+00	0	43	0	1374683136	46	4003
2026-01-26 02:07:06.38	37.85	29.84	-37.5	-38.2	25.3	0.00e+00	0	43	0	1379926016	46	3954
2026-01-26 02:07:07.39	37.99	30.02	-37.5	-38.2	25.3	0.00e+00	0	43	0	1386217472	46	3957
2026-01-26 02:07:08.40	38.12	30.20	-37.3	-38.0	25.5	0.00e+00	0	44	0	1391460352	46	3837
2026-01-26 02:07:09.41	38.26	30.38	-37.2	-37.9	25.6	0.00e+00	0	44	0	1396703232	46	3809
2026-01-26 02:07:10.42	38.40	30.56	-37.2	-37.9	25.6	0.00e+00	0	43	0	1402994688	46	3812
2026-01-26 02:07:11.42	38.54	30.74	-37.2	-37.8	25.7	0.00e+00	0	43	0	1408237568	46	3778
2026-01-26 02:07:12.43	38.68	30.92	-37.3	-38.0	25.5	0.00e+00	0	44	0	1413480448	46	3863
2026-01-26 02:07:13.44	38.82	31.10	-37.4	-38.1	25.4	0.00e+00	0	43	0	1419771904	46	3902
2026-01-26 02:07:14.45	38.97	31.28	-37.6	-38.3	25.3	0.00e+00	0	43	0	1426063360	46	3993
2026-01-26 02:07:15.46	39.12	31.47	-37.6	-38.3	25.3	0.00e+00	0	43	0	1431306240	46	3982
2026-01-26 02:07:16.46	39.26	31.65	-37.6	-38.3	25.3	0.00e+00	0	43	0	1436549120	46	3991
2026-01-26 02:07:17.47	39.41	31.84	-37.5	-38.2	25.4	0.00e+00	0	44	0	1442840576	46	3926
2026-01-26 02:07:18.47	39.56	32.02	-37.4	-38.1	25.5	0.00e+00	0	43	0	1448083456	46	3886
2026-01-26 02:07:19.48	39.72	32.21	-37.4	-38.1	25.4	0.00e+00	0	44	0	1453326336	46	3903
2026-01-26 02:07:20.49	39.87	32.40	-37.5	-38.2	25.4	0.00e+00	0	43	0	1459617792	46	3933
2026-01-26 02:07:21.49	40.03	32.59	-37.2	-37.9	25.7	0.00e+00	0	43	0	1464860672	46	3793
2026-01-26 02:07:22.50	40.18	32.78	-37.3	-37.9	25.6	0.00e+00	0	43	0	1471152128	46	3824
2026-01-26 02:07:23.51	40.34	32.97	-37.2	-37.9	25.7	0.00e+00	0	43	0	1476395008	46	3793
2026-01-26 02:07:24.51	40.50	33.16	-37.1	-37.8	25.8	0.00e+00	0	43	0	1481637888	46	3749
2026-01-26 02:07:25.52	40.67	33.36	-37.2	-37.9	25.7	0.00e+00	0	43	0	1487929344	46	3791
2026-01-26 02:07:26.52	40.83	33.55	-37.3	-38.0	25.6	0.00e+00	0	43	0	1493172224	46	3830
2026-01-26 02:07:27.53	41.00	33.75	-37.3	-38.0	25.6	0.00e+00	0	43	0	1498415104	46	3849
2026-01-26 02:07:28.54	41.17	33.95	-37.4	-38.1	25.5	0.00e+00	0	44	0	1504706560	46	3888
2026-01-26 02:07:29.54	41.34	34.14	-37.3	-38.0	25.6	0.00e+00	0	44	0	1510998016	46	3847
2026-01-26 02:07:30.54	41.51	34.34	-37.3	-38.0	25.6	0.00e+00	0	44	0	1516240896	46	3846
2026-01-26 02:07:31.55	41.69	34.54	-37.3	-38.0	25.6	0.00e+00	0	43	0	1521483776	46	3851
2026-01-26 02:07:32.55	41.86	34.74	-37.3	-38.0	25.6	0.00e+00	0	43	0	1527775232	46	3845
2026-01-26 02:07:33.56	42.04	34.94	-37.4	-38.1	25.5	0.00e+00	0	44	0	1533018112	46	3884
2026-01-26 02:07:34.56	42.23	35.14	-37.2	-37.9	25.7	0.00e+00	0	43	0	1538260992	46	3818
2026-01-26 02:07:35.57	42.41	35.35	-37.3	-38.1	25.5	0.00e+00	0	43	0	1544552448	46	3869
2026-01-26 02:07:36.58	42.60	35.55	-37.2	-37.9	25.7	0.00e+00	0	43	0	1549795328	46	3812
2026-01-26 02:07:37.59	42.79	35.76	-37.2	-37.9	25.6	0.00e+00	0	43	0	1556086784	46	3821
2026-01-26 02:07:38.59	42.98	35.96	-37.2	-37.9	25.7	0.00e+00	0	44	0	1561329664	46	3796
2026-01-26 02:07:39.60	43.17	36.17	-37.2	-37.9	25.6	0.00e+00	0	43	0	1566572544	46	3819
2026-01-26 02:07:40.61	43.37	36.38	-37.1	-37.8	25.8	0.00e+00	0	44	0	1572864000	46	3762
2026-01-26 02:07:41.62	43.56	36.59	-37.0	-37.7	25.8	0.00e+00	0	43	0	1578106880	46	3729
2026-01-26 02:07:42.63	43.77	36.80	-37.2	-37.9	25.7	0.00e+00	0	43	0	1583349760	46	3811
2026-01-26 02:07:43.64	43.97	37.01	-37.1	-37.8	25.7	0.00e+00	0	43	0	1589641216	46	3774
2026-01-26 02:07:44.64	44.17	37.23	-37.0	-37.7	25.9	0.00e+00	0	43	0	1595932672	46	3728
2026-01-26 02:07:45.65	44.38	37.44	-37.1	-37.8	25.8	0.00e+00	0	43	0	1601175552	46	3764
2026-01-26 02:07:46.66	44.60	37.65	-37.2	-37.9	25.8	0.00e+00	0	43	0	1606418432	46	3786
2026-01-26 02:07:47.67	44.81	37.87	-37.2	-37.9	25.7	0.00e+00	0	43	0	1612709888	46	3798
2026-01-26 02:07:48.68	45.03	38.09	-36.9	-37.6	26.0	0.00e+00	0	43	0	1617952768	45	3897
2026-01-26 02:07:49.69	45.25	38.31	-37.0	-37.7	25.9	0.00e+00	0	44	0	1623195648	45	3914
2026-01-26 02:07:50.69	45.47	38.52	-36.8	-37.5	26.0	0.00e+00	0	43	0	1629487104	45	3844
2026-01-26 02:07:51.70	45.70	38.74	-36.9	-37.5	26.0	0.00e+00	0	44	0	1634729984	45	3867
2026-01-26 02:07:52.70	45.92	38.96	-37.0	-37.7	25.9	0.00e+00	0	43	0	1641021440	45	3943
2026-01-26 02:07:53.71	46.15	39.18	-37.1	-37.8	25.8	0.00e+00	0	43	0	1646264320	45	3968
2026-01-26 02:07:54.72	46.39	39.41	-37.1	-37.9	25.8	0.00e+00	0	44	0	1651507200	45	4005
2026-01-26 02:07:55.73	46.63	39.63	-37.1	-37.8	25.8	0.00e+00	0	43	0	1657798656	45	3983
2026-01-26 02:07:56.73	46.87	39.85	-37.2	-37.9	25.8	0.00e+00	0	43	0	1663041536	45	4007
2026-01-26 02:07:57.74	47.11	40.08	-37.4	-38.1	25.6	0.00e+00	0	43	0	1669332992	45	4104
2026-01-26 02:07:58.74	47.36	40.30	-37.2	-37.8	25.8	0.00e+00	0	43	0	1674575872	45	4004
2026-01-26 02:07:59.75	47.61	40.53	-37.1	-37.8	25.8	0.00e+00	0	44	0	1680867328	45	3980
2026-01-26 02:08:00.75	47.86	40.75	-37.2	-37.9	25.7	0.00e+00	0	43	0	1686110208	45	4035
2026-01-26 02:08:01.76	48.12	40.98	-37.2	-37.9	25.7	0.00e+00	0	44	0	1691353088	45	4018
2026-01-26 02:08:02.77	48.39	41.21	-37.3	-38.0	25.7	0.00e+00	0	43	0	1697644544	45	4055
2026-01-26 02:08:03.77	48.65	41.44	-37.3	-38.0	25.7	0.00e+00	0	43	0	1702887424	45	4055
2026-01-26 02:08:04.78	48.92	41.67	-37.3	-38.1	25.6	0.00e+00	0	43	0	1708130304	45	4100
2026-01-26 02:08:05.79	49.19	41.90	-37.3	-38.0	25.7	0.00e+00	0	43	0	1714421760	45	4061
2026-01-26 02:08:06.80	49.47	42.14	-37.4	-38.1	25.6	0.00e+00	0	43	0	1719664640	45	4107
2026-01-26 02:08:07.81	49.75	42.37	-37.3	-38.0	25.7	0.00e+00	0	43	0	1725956096	45	4071
2026-01-26 02:08:08.82	50.04	42.60	-37.3	-38.0	25.6	0.00e+00	0	43	0	1731198976	45	4074
2026-01-26 02:08:09.83	50.33	42.84	-37.3	-38.0	25.6	0.00e+00	0	43	0	1736441856	45	4087
2026-01-26 02:08:10.84	50.62	43.08	-37.5	-38.2	25.5	0.00e+00	0	43	0	1742733312	45	4165
2026-01-26 02:08:11.85	50.92	43.31	-37.4	-38.1	25.6	0.00e+00	0	43	0	1749024768	45	4125
2026-01-26 02:08:12.85	51.22	43.55	-37.4	-38.1	25.6	0.00e+00	0	43	0	1754267648	45	4130
2026-01-26 02:08:13.86	51.53	43.78	-37.4	-38.1	25.6	0.00e+00	0	43	0	1759510528	45	4135
2026-01-26 02:08:14.87	51.84	44.02	-37.5	-38.2	25.4	0.00e+00	0	43	0	1765801984	45	4192
2026-01-26 02:08:15.88	52.16	44.26	-37.6	-38.3	25.4	0.00e+00	0	43	0	1771044864	45	4242
2026-01-26 02:08:16.88	52.47	44.50	-37.6	-38.3	25.4	0.00e+00	0	43	0	1776287744	45	4222
2026-01-26 02:08:17.89	52.80	44.74	-37.5	-38.2	25.4	0.00e+00	0	43	0	1782579200	45	4182
2026-01-26 02:08:18.89	53.13	44.97	-37.6	-38.3	25.4	0.00e+00	0	43	0	1787822080	45	4205
2026-01-26 02:08:19.90	53.46	45.21	-37.8	-38.5	25.2	0.00e+00	0	43	0	1793064960	46	4069
2026-01-26 02:08:20.91	53.80	45.46	-38.1	-38.8	25.0	0.00e+00	0	44	0	1799356416	46	4225
2026-01-26 02:08:21.92	54.15	45.70	-38.1	-38.8	24.9	0.00e+00	0	43	0	1804599296	46	4242
2026-01-26 02:08:22.93	54.50	45.94	-37.9	-38.7	25.1	0.00e+00	0	43	0	1810890752	46	4159
2026-01-26 02:08:23.93	54.85	46.18	-37.9	-38.6	25.2	0.00e+00	0	43	0	1816133632	46	4118
2026-01-26 02:08:24.94	55.22	46.42	-37.8	-38.5	25.3	0.00e+00	0	43	0	1822425088	46	4061
2026-01-26 02:08:25.95	55.58	46.66	-37.6	-38.3	25.4	0.00e+00	0	43	0	1827667968	46	3974
2026-01-26 02:08:26.96	55.96	46.90	-37.5	-38.2	25.5	0.00e+00	0	43	0	1833959424	46	3947
2026-01-26 02:08:27.97	56.33	47.15	-37.7	-38.4	25.3	0.00e+00	0	43	0	1839202304	46	4043
2026-01-26 02:08:28.97	56.72	47.39	-37.8	-38.6	25.2	0.00e+00	0	44	0	1844445184	46	4099
2026-01-26 02:08:29.98	57.11	47.63	-37.9	-38.6	25.1	0.00e+00	0	43	0	1850736640	46	4142
2026-01-26 02:08:30.99	57.50	47.87	-37.7	-38.4	25.3	0.00e+00	0	43	0	1855979520	46	4042
2026-01-26 02:08:32.00	57.91	48.11	-37.7	-38.4	25.4	0.00e+00	0	43	0	1861222400	46	4011
2026-01-26 02:08:33.01	58.31	48.36	-37.4	-38.1	25.6	0.00e+00	0	43	0	1867513856	46	3904
2026-01-26 02:08:34.02	58.73	48.60	-37.5	-38.2	25.5	0.00e+00	0	43	0	1872756736	46	3938
2026-01-26 02:08:35.03	59.15	48.84	-37.6	-38.3	25.4	0.00e+00	0	43	0	1877999616	46	4000
2026-01-26 02:08:36.04	59.58	49.08	-37.8	-38.5	25.3	0.00e+00	0	44	0	1884291072	46	4082
2026-01-26 02:08:37.04	60.01	49.32	-37.9	-38.6	25.2	0.00e+00	0	44	0	1890582528	46	4118
2026-01-26 02:08:38.05	60.45	49.56	-37.9	-38.6	25.1	0.00e+00	0	43	0	1895825408	46	4132
2026-01-26 02:08:39.06	60.90	49.80	-37.9	-38.6	25.2	0.00e+00	0	44	0	1901068288	46	4121
2026-01-26 02:08:40.07	61.36	50.04	-37.9	-38.6	25.2	0.00e+00	0	43	0	1907359744	46	4126
2026-01-26 02:08:41.08	61.82	50.28	-37.8	-38.5	25.3	0.00e+00	0	43	0	1912602624	46	4081
2026-01-26 02:08:42.09	62.29	50.52	-38.1	-38.8	25.0	0.00e+00	0	44	0	1918894080	46	4220
2026-01-26 02:08:43.10	62.77	50.75	-38.4	-39.2	24.7	0.00e+00	0	44	0	1924136960	47	4173
2026-01-26 02:08:44.11	63.26	50.99	-38.4	-39.2	24.7	0.00e+00	0	44	0	1929379840	47	4162
2026-01-26 02:08:45.11	63.74	51.22	-38.3	-39.1	24.8	0.00e+00	0	43	0	1935671296	47	4104
2026-01-26 02:08:46.12	64.25	51.46	-37.9	-38.6	25.2	0.00e+00	0	43	0	1940914176	47	3912
2026-01-26 02:08:47.13	64.75	51.69	-37.9	-38.7	25.2	0.00e+00	0	44	0	1946157056	47	3923
2026-01-26 02:08:48.14	65.27	51.92	-38.1	-38.8	25.0	0.00e+00	0	43	0	1952448512	47	3972
2026-01-26 02:08:49.14	65.79	52.15	-38.1	-38.8	25.0	0.00e+00	0	43	0	1958739968	47	3975
2026-01-26 02:08:50.15	66.32	52.38	-38.1	-38.8	25.1	0.00e+00	0	43	0	1963982848	47	3977
2026-01-26 02:08:51.16	66.86	52.61	-38.3	-39.0	24.8	0.00e+00	0	43	0	1969225728	47	4086
2026-01-26 02:08:52.17	67.41	52.84	-38.2	-38.9	24.9	0.00e+00	0	44	0	1975517184	47	4051
2026-01-26 02:08:53.17	67.97	53.06	-38.2	-38.9	25.0	0.00e+00	0	43	0	1980760064	47	4023
2026-01-26 02:08:54.18	68.53	53.28	-38.1	-38.8	25.0	0.00e+00	0	44	0	1986002944	47	3995
2026-01-26 02:08:55.19	69.11	53.50	-38.4	-39.2	24.7	0.00e+00	0	44	0	1992294400	47	4155
2026-01-26 02:08:56.20	69.69	53.72	-39.0	-39.7	24.7	0.00e+00	0	44	0	1997537280	48	4185
2026-01-26 02:08:57.21	70.28	53.94	-38.7	-39.4	25.0	0.00e+00	0	43	0	2003828736	48	4040
2026-01-26 02:08:58.21	70.88	54.15	-38.7	-39.4	25.0	0.00e+00	0	43	0	2009071616	48	4038
2026-01-26 02:08:59.22	71.49	54.37	-38.7	-39.4	25.0	0.00e+00	0	44	0	2014314496	48	4043
2026-01-26 02:09:00.22	72.10	54.58	-38.7	-39.4	25.1	0.00e+00	0	44	0	2020605952	48	4016
2026-01-26 02:09:01.23	72.73	54.78	-38.9	-39.6	24.9	0.00e+00	0	44	0	2025848832	48	4110
2026-01-26 02:09:02.23	73.36	54.99	-38.7	-39.4	25.1	0.00e+00	0	43	0	2031091712	48	4015
2026-01-26 02:09:03.24	74.01	55.19	-38.7	-39.4	25.0	0.00e+00	0	43	0	2037383168	48	4037
2026-01-26 02:09:04.24	74.66	55.39	-38.8	-39.5	24.9	0.00e+00	0	44	0	2043674624	48	4070
2026-01-26 02:09:05.25	75.32	55.59	-38.7	-39.3	25.1	0.00e+00	0	44	0	2048917504	48	3989
2026-01-26 02:09:06.26	76.00	55.78	-38.8	-39.4	25.0	0.00e+00	0	44	0	2054160384	48	4049
2026-01-26 02:09:07.27	76.68	55.97	-39.1	-39.8	24.7	0.00e+00	0	44	0	2060451840	48	4238
2026-01-26 02:09:08.28	77.37	56.16	-39.1	-39.8	24.7	0.00e+00	0	43	0	2065694720	49	3987
2026-01-26 02:09:09.28	78.07	56.34	-39.1	-39.8	24.7	0.00e+00	0	43	0	2070937600	49	4002
2026-01-26 02:09:10.29	78.78	56.52	-39.0	-39.7	24.8	0.00e+00	0	43	0	2077229056	49	3925
2026-01-26 02:09:11.29	79.49	56.70	-39.1	-39.9	24.6	0.00e+00	0	44	0	2082471936	49	4021
2026-01-26 02:09:12.30	80.22	56.87	-38.9	-39.6	24.9	0.00e+00	0	44	0	2088763392	49	3910
2026-01-26 02:09:13.31	80.96	57.04	-38.8	-39.5	24.9	0.00e+00	0	43	0	2094006272	49	3852
2026-01-26 02:09:14.32	81.71	57.20	-38.9	-39.6	24.9	0.00e+00	0	44	0	2099249152	49	3905
2026-01-26 02:09:15.32	82.46	57.36	-38.7	-39.4	25.0	0.00e+00	0	44	0	2105540608	49	3818
2026-01-26 02:09:16.33	83.22	57.52	-38.7	-39.4	25.1	0.00e+00	0	44	0	2110783488	49	3781
2026-01-26 02:09:17.34	84.00	57.67	-38.8	-39.5	24.9	0.00e+00	0	44	0	2117074944	49	3860
2026-01-26 02:09:18.34	84.77	57.82	-38.9	-39.6	24.9	0.00e+00	0	44	0	2122317824	49	3887
2026-01-26 02:09:19.35	85.56	57.96	-38.7	-39.4	25.0	0.00e+00	0	43	0	2128609280	49	3803
2026-01-26 02:09:20.36	86.36	58.10	-38.7	-39.4	25.1	0.00e+00	0	43	0	2133852160	49	3796
2026-01-26 02:09:21.37	87.17	58.24	-38.6	-39.3	25.1	0.00e+00	0	43	0	2139095040	49	3755
2026-01-26 02:09:22.37	87.98	58.36	-38.7	-39.4	25.1	0.00e+00	0	43	0	2145386496	49	3788
2026-01-26 02:09:23.38	88.80	58.49	-38.6	-39.3	25.1	0.00e+00	0	44	0	2150629376	49	3752
2026-01-26 02:09:24.39	89.63	58.60	-38.3	-39.0	25.4	0.00e+00	0	43	0	2155872256	48	3850
2026-01-26 02:09:25.40	90.47	58.72	-38.3	-39.0	25.4	0.00e+00	0	44	0	2162163712	48	3854
2026-01-26 02:09:26.41	91.31	58.83	-38.3	-39.0	25.4	0.00e+00	0	43	0	2167406592	48	3861
2026-01-26 02:09:27.41	92.15	58.93	-38.1	-38.8	25.5	0.00e+00	0	43	0	2173698048	48	3769
2026-01-26 02:09:28.42	93.01	59.02	-38.2	-38.9	25.5	0.00e+00	0	43	0	2178940928	48	3793
2026-01-26 02:09:29.43	93.88	59.11	-38.3	-39.0	25.4	0.00e+00	0	43	0	2184183808	48	3861
2026-01-26 02:09:30.44	94.75	59.20	-38.4	-39.0	25.3	0.00e+00	0	43	0	2190475264	48	3867
2026-01-26 02:09:31.45	95.62	59.28	-38.3	-39.0	25.4	0.00e+00	0	44	0	2196766720	48	3856
2026-01-26 02:09:32.45	96.49	59.35	-38.4	-39.1	25.3	0.00e+00	0	43	0	2202009600	48	3889
2026-01-26 02:09:33.46	97.38	59.42	-38.5	-39.2	25.2	0.00e+00	0	44	0	2207252480	48	3956
2026-01-26 02:09:34.47	98.27	59.48	-38.5	-39.2	25.2	0.00e+00	0	44	0	2213543936	48	3948
2026-01-26 02:09:35.48	99.16	59.53	-38.3	-38.9	25.4	0.00e+00	0	44	0	2218786816	48	3822
2026-01-26 02:09:36.48	100.05	59.58	-38.3	-38.9	25.4	0.00e+00	0	44	0	2224029696	48	3822
2026-01-26 02:09:37.49	100.95	59.63	-38.3	-39.1	25.3	0.00e+00	0	43	0	2230321152	48	3872
2026-01-26 02:09:38.50	101.85	59.66	-38.5	-39.2	25.1	0.00e+00	0	43	0	2235564032	48	3945
2026-01-26 02:09:39.51	102.76	59.69	-38.5	-39.3	25.1	0.00e+00	0	44	0	2240806912	48	3964
2026-01-26 02:09:40.52	103.66	59.71	-38.4	-39.1	25.3	0.00e+00	0	44	0	2247098368	48	3870
2026-01-26 02:09:41.52	104.56	59.73	-38.3	-39.0	25.4	0.00e+00	0	44	0	2252341248	48	3840
2026-01-26 02:09:42.53	105.47	59.74	-38.3	-39.0	25.3	0.00e+00	0	44	0	2258632704	48	3862
2026-01-26 02:09:43.53	106.37	59.75	-38.4	-39.1	25.3	0.00e+00	0	44	0	2263875584	48	3887
2026-01-26 02:09:44.54	107.28	59.74	-38.3	-39.0	25.3	0.00e+00	0	43	0	2270167040	48	3868
2026-01-26 02:09:45.55	108.19	59.74	-38.2	-38.9	25.5	0.00e+00	0	44	0	2275409920	48	3801
2026-01-26 02:09:46.56	109.10	59.72	-38.2	-38.9	25.5	0.00e+00	0	43	0	2281701376	48	3792
2026-01-26 02:09:47.57	110.01	59.70	-38.4	-39.2	25.2	0.00e+00	0	44	0	2286944256	48	3926
2026-01-26 02:09:48.57	110.91	59.67	-38.3	-39.0	25.4	0.00e+00	0	43	0	2292187136	48	3868
2026-01-26 02:09:49.58	111.81	59.64	-38.4	-39.1	25.3	0.00e+00	0	44	0	2298478592	48	3913
2026-01-26 02:09:50.59	112.71	59.60	-38.4	-39.1	25.3	0.00e+00	0	44	0	2303721472	48	3896
2026-01-26 02:09:51.60	113.61	59.55	-38.4	-39.2	25.2	0.00e+00	0	44	0	2308964352	48	3922
2026-01-26 02:09:52.61	114.51	59.50	-38.4	-39.1	25.3	0.00e+00	0	43	0	2315255808	48	3889
2026-01-26 02:09:53.61	115.39	59.44	-38.2	-38.9	25.5	0.00e+00	0	43	0	2320498688	48	3790
2026-01-26 02:09:54.62	116.27	59.37	-38.3	-39.0	25.3	0.00e+00	0	44	0	2325741568	48	3857
2026-01-26 02:09:55.63	117.16	59.30	-38.3	-39.0	25.4	0.00e+00	0	44	0	2332033024	48	3825
2026-01-26 02:09:56.63	118.03	59.22	-38.6	-39.3	25.2	0.00e+00	0	44	0	2338324480	48	3962
2026-01-26 02:09:57.64	118.90	59.14	-38.7	-39.4	25.1	0.00e+00	0	44	0	2343567360	48	4030
2026-01-26 02:09:58.65	119.76	59.05	-38.8	-39.5	25.0	0.00e+00	0	44	0	2348810240	48	4056
2026-01-26 02:09:59.66	120.62	58.96	-38.7	-39.4	25.0	0.00e+00	0	44	0	2355101696	48	4032
2026-01-26 02:10:00.67	121.48	58.86	-38.9	-39.6	24.9	0.00e+00	0	44	0	2360344576	48	4124
2026-01-26 02:10:01.67	122.32	58.75	-38.7	-39.4	25.0	0.00e+00	0	44	0	2366636032	48	4041
2026-01-26 02:10:02.68	123.16	58.64	-38.8	-39.5	25.0	0.00e+00	0	44	0	2371878912	48	4069
2026-01-26 02:10:03.69	123.99	58.52	-38.7	-39.4	25.1	0.00e+00	0	44	0	2377121792	48	4021
2026-01-26 02:10:04.69	124.81	58.40	-38.8	-39.6	24.9	0.00e+00	0	43	0	2383413248	48	4105
2026-01-26 02:10:05.70	125.63	58.28	-38.6	-39.3	25.1	0.00e+00	0	44	0	2388656128	48	3963
2026-01-26 02:10:06.71	126.44	58.14	-38.6	-39.3	25.1	0.00e+00	0	43	0	2393899008	48	3982
2026-01-26 02:10:07.72	127.24	58.01	-38.9	-39.7	24.8	0.00e+00	0	44	0	2400190464	48	4157
2026-01-26 02:10:08.73	128.04	57.86	-38.9	-39.7	24.8	0.00e+00	0	43	0	2405433344	48	4155
2026-01-26 02:10:09.73	128.81	57.72	-38.9	-39.6	24.9	0.00e+00	0	44	0	2411724800	48	4113
2026-01-26 02:10:10.74	129.59	57.57	-38.7	-39.4	25.0	0.00e+00	0	43	0	2416967680	48	4020
2026-01-26 02:10:11.75	130.36	57.41	-38.4	-39.1	25.3	0.00e+00	0	44	0	2423259136	48	3888
2026-01-26 02:10:12.76	131.12	57.25	-38.6	-39.3	25.1	0.00e+00	0	44	0	2428502016	48	3995
2026-01-26 02:10:13.77	131.87	57.09	-38.7	-39.4	25.0	0.00e+00	0	44	0	2433744896	48	4022
2026-01-26 02:10:14.77	132.61	56.92	-38.5	-39.1	25.2	0.00e+00	0	44	0	2440036352	48	3904
2026-01-26 02:10:15.78	133.34	56.75	-38.5	-39.2	25.3	0.00e+00	0	44	0	2445279232	48	3914
2026-01-26 02:10:16.79	134.06	56.57	-38.9	-39.7	24.8	0.00e+00	0	44	0	2451570688	48	4151
2026-01-26 02:10:17.79	134.77	56.39	-39.0	-39.8	24.7	0.00e+00	0	44	0	2456813568	48	4205
2026-01-26 02:10:18.80	135.48	56.21	-38.7	-39.4	25.0	0.00e+00	0	44	0	2462056448	48	4041
2026-01-26 02:10:19.81	136.17	56.02	-38.8	-39.5	24.9	0.00e+00	0	44	0	2468347904	48	4087
2026-01-26 02:10:20.82	136.86	55.83	-38.7	-39.4	25.0	0.00e+00	0	44	0	2473590784	48	4026
2026-01-26 02:10:21.83	137.54	55.64	-38.5	-39.2	25.2	0.00e+00	0	44	0	2478833664	48	3936
2026-01-26 02:10:22.83	138.20	55.45	-38.5	-39.3	25.1	0.00e+00	0	44	0	2485125120	48	3961
2026-01-26 02:10:23.83	138.85	55.25	-38.4	-39.1	25.3	0.00e+00	0	44	0	2491416576	48	3882
2026-01-26 02:10:24.84	139.50	55.05	-38.5	-39.2	25.2	0.00e+00	0	44	0	2496659456	48	3917
2026-01-26 02:10:25.85	140.14	54.84	-38.6	-39.3	25.0	0.00e+00	0	44	0	2501902336	48	4003
2026-01-26 02:10:26.86	140.78	54.63	-38.7	-39.4	25.0	0.00e+00	0	44	0	2508193792	48	4016
2026-01-26 02:10:27.86	141.39	54.42	-38.6	-39.3	25.1	0.00e+00	0	44	0	2513436672	48	3990
2026-01-26 02:10:28.87	142.01	54.21	-38.6	-39.3	25.0	0.00e+00	0	44	0	2518679552	48	4003
2026-01-26 02:10:29.88	142.61	54.00	-38.9	-39.6	24.9	0.00e+00	0	44	0	2524971008	48	4114
2026-01-26 02:10:30.89	143.21	53.78	-38.8	-39.5	24.9	0.00e+00	0	44	0	2530213888	48	4092
2026-01-26 02:10:31.90	143.79	53.56	-38.7	-39.4	25.0	0.00e+00	0	44	0	2536505344	48	4042
2026-01-26 02:10:32.91	144.37	53.34	-38.8	-39.5	24.9	0.00e+00	0	44	0	2541748224	48	4068
2026-01-26 02:10:33.92	144.94	53.11	-38.5	-39.2	25.2	0.00e+00	0	43	0	2546991104	48	3916
2026-01-26 02:10:34.93	145.50	52.89	-38.4	-39.1	25.3	0.00e+00	0	44	0	2553282560	48	3878
2026-01-26 02:10:35.94	146.06	52.66	-38.4	-39.1	25.2	0.00e+00	0	43	0	2559574016	48	3906
2026-01-26 02:10:36.94	146.59	52.44	-38.6	-39.3	25.0	0.00e+00	0	44	0	2564816896	48	4003
2026-01-26 02:10:37.95	147.13	52.21	-38.6	-39.3	25.1	0.00e+00	0	43	0	2570059776	48	3977
2026-01-26 02:10:38.96	147.66	51.98	-38.6	-39.3	25.1	0.00e+00	0	44	0	2576351232	48	3983
2026-01-26 02:10:39.97	148.18	51.74	-38.7	-39.4	25.0	0.00e+00	0	44	0	2581594112	48	4023
2026-01-26 02:10:40.97	148.68	51.51	-38.4	-39.1	25.3	0.00e+00	0	44	0	2586836992	48	3879
2026-01-26 02:10:41.98	149.19	51.28	-38.2	-38.9	25.4	0.00e+00	0	44	0	2593128448	48	3803
2026-01-26 02:10:42.99	149.68	51.04	-38.3	-39.0	25.4	0.00e+00	0	43	0	2598371328	48	3827
2026-01-26 02:10:43.99	150.17	50.81	-38.3	-39.1	25.3	0.00e+00	0	44	0	2603614208	48	3869
2026-01-26 02:10:45.00	150.65	50.57	-38.4	-39.1	25.3	0.00e+00	0	44	0	2609905664	48	3896
2026-01-26 02:10:46.01	151.12	50.33	-38.4	-39.1	25.3	0.00e+00	0	44	0	2615148544	48	3892
2026-01-26 02:10:47.02	151.59	50.09	-38.3	-39.0	25.3	0.00e+00	0	44	0	2621440000	48	3847
2026-01-26 02:10:48.03	152.05	49.85	-38.3	-39.0	25.3	0.00e+00	0	43	0	2626682880	48	3855
2026-01-26 02:10:49.03	152.49	49.61	-38.3	-39.0	25.3	0.00e+00	0	44	0	2631925760	48	3856
2026-01-26 02:10:50.04	152.94	49.37	-38.1	-38.8	25.5	0.00e+00	0	44	0	2638217216	48	3772
2026-01-26 02:10:51.04	153.37	49.13	-38.2	-38.9	25.4	0.00e+00	0	43	0	2644508672	48	3823
2026-01-26 02:10:52.05	153.80	48.89	-38.4	-39.2	25.2	0.00e+00	0	43	0	2649751552	48	3923
2026-01-26 02:10:53.06	154.23	48.65	-38.4	-39.1	25.3	0.00e+00	0	44	0	2654994432	48	3881
2026-01-26 02:10:54.07	154.65	48.40	-38.3	-39.1	25.3	0.00e+00	0	43	0	2661285888	48	3873
2026-01-26 02:10:55.08	155.06	48.16	-38.1	-38.7	25.5	0.00e+00	0	44	0	2666528768	48	3731
2026-01-26 02:10:56.08	155.46	47.92	-37.6	-38.3	25.4	0.00e+00	0	44	0	2671771648	47	3750
2026-01-26 02:10:57.09	155.86	47.68	-37.6	-38.3	25.5	0.00e+00	0	44	0	2678063104	47	3759
2026-01-26 02:10:58.10	156.25	47.43	-37.6	-38.3	25.4	0.00e+00	0	44	0	2683305984	47	3777
2026-01-26 02:10:59.11	156.64	47.19	-37.6	-38.3	25.4	0.00e+00	0	44	0	2688548864	47	3778
2026-01-26 02:11:00.12	157.02	46.95	-37.8	-38.5	25.2	0.00e+00	0	44	0	2694840320	47	3860
2026-01-26 02:11:01.13	157.39	46.70	-37.9	-38.6	25.1	0.00e+00	0	44	0	2700083200	47	3909
2026-01-26 02:11:02.13	157.76	46.46	-37.9	-38.7	25.1	0.00e+00	0	43	0	2706374656	47	3925
2026-01-26 02:11:03.14	158.12	46.22	-37.9	-38.6	25.2	0.00e+00	0	44	0	2711617536	47	3883
2026-01-26 02:11:04.15	158.48	45.98	-37.7	-38.4	25.3	0.00e+00	0	44	0	2717908992	47	3798
2026-01-26 02:11:05.15	158.83	45.74	-37.7	-38.4	25.3	0.00e+00	0	44	0	2723151872	47	3799
2026-01-26 02:11:06.16	159.18	45.50	-37.8	-38.5	25.2	0.00e+00	0	43	0	2729443328	47	3855
2026-01-26 02:11:07.17	159.52	45.25	-37.6	-38.3	25.4	0.00e+00	0	44	0	2734686208	47	3769
2026-01-26 02:11:08.17	159.86	45.02	-37.6	-38.3	25.4	0.00e+00	0	43	0	2739929088	47	3760
2026-01-26 02:11:09.18	160.19	44.77	-37.6	-38.4	25.4	0.00e+00	0	44	0	2746220544	47	3782
2026-01-26 02:11:10.19	160.52	44.53	-37.6	-38.3	25.4	0.00e+00	0	44	0	2751463424	47	3780
2026-01-26 02:11:11.20	160.84	44.29	-37.6	-38.3	25.4	0.00e+00	0	44	0	2756706304	47	3776
2026-01-26 02:11:12.21	161.16	44.05	-37.7	-38.4	25.3	0.00e+00	0	44	0	2762997760	47	3793
2026-01-26 02:11:13.22	161.47	43.82	-37.8	-38.5	25.3	0.00e+00	0	43	0	2768240640	47	3842
2026-01-26 02:11:14.22	161.78	43.58	-37.7	-38.4	25.4	0.00e+00	0	43	0	2773483520	47	3788
2026-01-26 02:11:15.23	162.08	43.34	-37.8	-38.5	25.2	0.00e+00	0	43	0	2779774976	47	3858
2026-01-26 02:11:16.24	162.38	43.10	-37.3	-38.0	25.7	0.00e+00	0	43	0	2786066432	46	3859
2026-01-26 02:11:17.25	162.68	42.87	-37.3	-38.0	25.6	0.00e+00	0	43	0	2791309312	46	3861
2026-01-26 02:11:18.25	162.96	42.63	-37.1	-37.8	25.8	0.00e+00	0	44	0	2796552192	46	3779
2026-01-26 02:11:19.26	163.25	42.40	-37.1	-37.8	25.8	0.00e+00	0	44	0	2802843648	46	3769
2026-01-26 02:11:20.27	163.53	42.16	-37.3	-38.0	25.7	0.00e+00	0	44	0	2808086528	46	3840
2026-01-26 02:11:21.28	163.81	41.93	-37.2	-37.9	25.7	0.00e+00	0	43	0	2814377984	46	3821
2026-01-26 02:11:22.29	164.09	41.70	-37.2	-38.0	25.7	0.00e+00	0	44	0	2819620864	46	3828
2026-01-26 02:11:23.30	164.36	41.47	-37.2	-37.9	25.7	0.00e+00	0	43	0	2824863744	46	3817
2026-01-26 02:11:24.31	164.63	41.23	-37.2	-37.9	25.7	0.00e+00	0	44	0	2831155200	46	3806
2026-01-26 02:11:25.31	164.89	41.01	-37.1	-37.9	25.8	0.00e+00	0	44	0	2836398080	46	3784
2026-01-26 02:11:26.33	165.15	40.77	-37.0	-37.7	25.9	0.00e+00	0	44	0	2841640960	46	3734
2026-01-26 02:11:27.33	165.41	40.55	-36.9	-37.6	25.9	0.00e+00	0	43	0	2847932416	45	3909
2026-01-26 02:11:28.34	165.66	40.32	-36.9	-37.6	25.9	0.00e+00	0	43	0	2854223872	45	3906
2026-01-26 02:11:29.35	165.91	40.09	-36.9	-37.6	26.0	0.00e+00	0	43	0	2859466752	45	3883
2026-01-26 02:11:30.36	166.16	39.86	-36.9	-37.6	26.0	0.00e+00	0	44	0	2864709632	45	3894
2026-01-26 02:11:31.36	166.40	39.64	-37.0	-37.7	25.9	0.00e+00	0	43	0	2871001088	45	3926
2026-01-26 02:11:32.37	166.64	39.42	-37.0	-37.7	25.8	0.00e+00	0	43	0	2876243968	45	3949
2026-01-26 02:11:33.38	166.87	39.19	-37.0	-37.7	25.8	0.00e+00	0	43	0	2881486848	45	3950
2026-01-26 02:11:34.39	167.11	38.97	-37.1	-37.8	25.8	0.00e+00	0	43	0	2887778304	45	3972
2026-01-26 02:11:35.40	167.34	38.75	-37.0	-37.7	25.8	0.00e+00	0	44	0	2893021184	45	3944
2026-01-26 02:11:36.41	167.56	38.53	-37.0	-37.7	25.8	0.00e+00	0	44	0	2899312640	45	3944
2026-01-26 02:11:37.41	167.78	38.31	-36.9	-37.6	26.0	0.00e+00	0	43	0	2904555520	45	3883
2026-01-26 02:11:38.42	168.01	38.09	-36.9	-37.5	26.0	0.00e+00	0	43	0	2909798400	45	3865
2026-01-26 02:11:39.43	168.22	37.87	-36.9	-37.5	26.0	0.00e+00	0	44	0	2916089856	45	3864
2026-01-26 02:11:40.43	168.44	37.66	-36.8	-37.5	26.0	0.00e+00	0	43	0	2922381312	45	3864
2026-01-26 02:11:41.44	168.65	37.44	-37.0	-37.7	25.8	0.00e+00	0	44	0	2927624192	45	3932
2026-01-26 02:11:42.45	168.86	37.23	-37.0	-37.7	25.9	0.00e+00	0	43	0	2932867072	45	3937
2026-01-26 02:11:43.46	169.07	37.01	-37.0	-37.7	25.8	0.00e+00	0	43	0	2939158528	45	3940
2026-01-26 02:11:44.47	169.27	36.80	-37.1	-37.8	25.8	0.00e+00	0	44	0	2944401408	45	3987
2026-01-26 02:11:45.48	169.47	36.59	-37.2	-37.9	25.7	0.00e+00	0	44	0	2949644288	45	4011
2026-01-26 02:11:46.49	169.67	36.37	-37.3	-38.0	25.6	0.00e+00	0	43	0	2955935744	45	4065
2026-01-26 02:11:47.50	169.87	36.16	-37.2	-37.9	25.6	0.00e+00	0	43	0	2961178624	45	4037
2026-01-26 02:11:48.51	170.07	35.96	-37.2	-37.9	25.6	0.00e+00	0	43	0	2966421504	45	4029
2026-01-26 02:11:49.51	170.26	35.75	-37.3	-38.0	25.6	0.00e+00	0	44	0	2972712960	45	4070
2026-01-26 02:11:50.52	170.45	35.54	-37.3	-38.0	25.5	0.00e+00	0	44	0	2977955840	45	4093
2026-01-26 02:11:51.52	170.63	35.34	-37.3	-38.0	25.6	0.00e+00	0	43	0	2984247296	45	4059
2026-01-26 02:11:52.53	170.82	35.13	-37.2	-37.9	25.7	0.00e+00	0	43	0	2989490176	45	4016
2026-01-26 02:11:53.53	171.00	34.93	-37.2	-38.0	25.6	0.00e+00	0	43	0	2995781632	45	4057
2026-01-26 02:11:54.54	171.18	34.73	-37.1	-37.8	25.8	0.00e+00	0	43	0	3001024512	45	3976
2026-01-26 02:11:55.55	171.36	34.52	-37.1	-37.8	25.7	0.00e+00	0	44	0	3007315968	45	3993
2026-01-26 02:11:56.56	171.53	34.32	-37.0	-37.7	25.8	0.00e+00	0	44	0	3012558848	45	3939
2026-01-26 02:11:57.57	171.71	34.12	-37.0	-37.7	25.8	0.00e+00	0	43	0	3017801728	45	3928
2026-01-26 02:11:58.58	171.88	33.92	-37.0	-37.8	25.2	0.00e+00	0	44	0	3024093184	45	3961
2026-01-26 02:11:59.59	172.05	33.73	-36.8	-37.5	25.4	0.00e+00	0	44	0	3029336064	45	3845
2026-01-26 02:12:00.60	172.22	33.53	-36.9	-37.6	25.4	0.00e+00	0	44	0	3034578944	45	3898
2026-01-26 02:12:01.60	172.38	33.33	-36.9	-37.7	25.3	0.00e+00	0	44	0	3040870400	45	3916
2026-01-26 02:12:02.61	172.55	33.14	-37.0	-37.8	25.2	0.00e+00	0	44	0	3046113280	45	3978
2026-01-26 02:12:03.62	172.71	32.94	-37.0	-37.8	25.2	0.00e+00	0	44	0	3051356160	45	3971
2026-01-26 02:12:04.62	172.87	32.75	-37.1	-37.9	25.1	0.00e+00	0	43	0	3057647616	45	4008
2026-01-26 02:12:05.63	173.03	32.56	-37.3	-38.0	25.0	0.00e+00	0	44	0	3062890496	45	4092
2026-01-26 02:12:06.64	173.18	32.37	-37.2	-38.0	25.0	0.00e+00	0	43	0	3069181952	45	4088
2026-01-26 02:12:07.65	173.34	32.18	-37.3	-38.0	25.0	0.00e+00	0	44	0	3074424832	45	4098
2026-01-26 02:12:08.65	173.49	31.99	-37.2	-38.0	25.0	0.00e+00	0	43	0	3080716288	45	4080
2026-01-26 02:12:09.66	173.64	31.80	-37.1	-37.9	25.1	0.00e+00	0	43	0	3085959168	45	4024
2026-01-26 02:12:10.67	173.79	31.62	-37.1	-37.8	25.2	0.00e+00	0	44	0	3092250624	45	3992
2026-01-26 02:12:11.67	173.94	31.43	-37.1	-37.9	25.2	0.00e+00	0	44	0	3097493504	45	4020
2026-01-26 02:12:12.68	174.09	31.25	-36.9	-37.7	25.3	0.00e+00	0	44	0	3102736384	45	3930
2026-01-26 02:12:13.69	174.23	31.06	-37.0	-37.8	25.3	0.00e+00	0	43	0	3109027840	45	3971
2026-01-26 02:12:14.70	174.38	30.88	-37.0	-37.8	25.2	0.00e+00	0	44	0	3114270720	45	3976
2026-01-26 02:12:15.71	174.52	30.70	-37.2	-37.9	25.1	0.00e+00	0	44	0	3119513600	45	4029
2026-01-26 02:12:16.72	174.66	30.52	-37.0	-37.8	25.2	0.00e+00	0	43	0	3125805056	45	3980
2026-01-26 02:12:17.72	174.80	30.34	-37.0	-37.8	25.2	0.00e+00	0	43	0	3131047936	45	3973
2026-01-26 02:12:18.73	174.93	30.16	-37.1	-37.9	25.2	0.00e+00	0	43	0	3137339392	45	4012
2026-01-26 02:12:19.74	175.07	29.98	-37.2	-38.0	25.0	0.00e+00	0	43	0	3142582272	45	4057
2026-01-26 02:12:20.75	175.20	29.80	-37.2	-37.9	25.1	0.00e+00	0	44	0	3148873728	45	4046
2026-01-26 02:12:21.75	175.34	29.63	-37.2	-37.9	25.1	0.00e+00	0	43	0	3154116608	45	4038
2026-01-26 02:12:22.76	175.47	29.45	-37.2	-38.0	25.0	0.00e+00	0	44	0	3159359488	45	4075
2026-01-26 02:12:23.77	175.60	29.28	-37.3	-38.1	24.9	0.00e+00	0	44	0	3165650944	45	4123
2026-01-26 02:12:24.78	175.73	29.10	-37.3	-38.1	25.0	0.00e+00	0	44	0	3170893824	45	4101
2026-01-26 02:12:25.79	175.86	28.93	-37.3	-38.0	25.0	0.00e+00	0	43	0	3177185280	45	4086
2026-01-26 02:12:26.79	175.98	28.76	-37.3	-38.1	24.9	0.00e+00	0	44	0	3182428160	45	4104
2026-01-26 02:12:27.80	176.11	28.59	-37.4	-38.1	24.9	0.00e+00	0	43	0	3187671040	45	4143
2026-01-26 02:12:28.81	176.23	28.42	-37.5	-38.2	24.8	0.00e+00	0	43	0	3193962496	45	4181
2026-01-26 02:12:29.81	176.35	28.25	-37.4	-38.1	24.9	0.00e+00	0	44	0	3199205376	45	4131
2026-01-26 02:12:30.82	176.47	28.08	-37.3	-38.0	25.0	0.00e+00	0	44	0	3204448256	45	4096
2026-01-26 02:12:31.83	176.59	27.91	-37.2	-38.0	25.0	0.00e+00	0	43	0	3210739712	45	4073
2026-01-26 02:12:32.84	176.71	27.75	-37.4	-38.1	24.9	0.00e+00	0	44	0	3217031168	45	4136
2026-01-26 02:12:33.84	176.83	27.58	-37.2	-38.0	25.0	0.00e+00	0	44	0	3222274048	45	4072
2026-01-26 02:12:34.85	176.94	27.42	-37.2	-38.0	25.0	0.00e+00	0	44	0	3227516928	45	4060
2026-01-26 02:12:35.85	177.06	27.25	-37.0	-37.8	25.2	0.00e+00	0	44	0	3233808384	45	3966
2026-01-26 02:12:36.86	177.17	27.09	-37.1	-37.8	25.1	0.00e+00	0	43	0	3239051264	45	3994
2026-01-26 02:12:37.87	177.29	26.93	-36.9	-37.7	25.3	0.00e+00	0	44	0	3244294144	45	3925
2026-01-26 02:12:38.88	177.40	26.77	-37.0	-37.8	25.2	0.00e+00	0	44	0	3250585600	45	3966
2026-01-26 02:12:39.89	177.51	26.61	-37.0	-37.7	25.2	0.00e+00	0	44	0	3255828480	45	3938
2026-01-26 02:12:40.89	177.62	26.45	-37.1	-37.8	25.1	0.00e+00	0	44	0	3262119936	45	3996
2026-01-26 02:12:41.90	177.73	26.29	-37.1	-37.9	25.1	0.00e+00	0	44	0	3267362816	45	4023
2026-01-26 02:12:42.91	177.83	26.13	-37.2	-38.0	25.0	0.00e+00	0	44	0	3272605696	45	4065
2026-01-26 02:12:43.92	177.94	25.97	-37.4	-38.1	24.9	0.00e+00	0	44	0	3278897152	45	4126
2026-01-26 02:12:44.93	178.05	25.82	-37.4	-38.1	24.8	0.00e+00	0	44	0	3284140032	45	4142
2026-01-26 02:12:45.93	178.15	25.66	-37.5	-38.3	24.7	0.00e+00	0	44	0	3290431488	45	4213
2026-01-26 02:12:46.94	178.25	25.51	-37.6	-38.4	24.6	0.00e+00	0	44	0	3295674368	45	4264
2026-01-26 02:12:47.95	178.36	25.35	-37.6	-38.3	24.6	0.00e+00	0	43	0	3301965824	45	4239
2026-01-26 02:12:48.96	178.46	25.20	-37.7	-38.5	24.6	0.00e+00	0	44	0	3307208704	45	4307
2026-01-26 02:12:49.96	178.56	25.05	-37.7	-38.5	24.6	0.00e+00	0	44	0	3312451584	46	4065
2026-01-26 02:12:50.97	178.66	24.90	-37.6	-38.4	24.7	0.00e+00	0	44	0	3318743040	46	4013
2026-01-26 02:12:51.98	178.76	24.75	-37.7	-38.5	24.6	0.00e+00	0	43	0	3323985920	46	4065
2026-01-26 02:12:52.99	178.86	24.60	-37.7	-38.4	24.6	0.00e+00	0	43	0	3329228800	46	4049
2026-01-26 02:12:54.00	178.95	24.45	-37.6	-38.3	24.7	0.00e+00	0	44	0	3335520256	46	3995
2026-01-26 02:12:55.00	179.05	24.30	-37.6	-38.4	24.7	0.00e+00	0	43	0	3340763136	46	4029
2026-01-26 02:12:56.01	179.15	24.15	-37.6	-38.4	24.7	0.00e+00	0	44	0	3347054592	46	4014
2026-01-26 02:12:57.02	179.24	24.01	-37.6	-38.4	24.6	0.00e+00	0	43	0	3352297472	46	4017
2026-01-26 02:12:58.02	179.33	23.86	-37.6	-38.3	24.7	0.00e+00	0	43	0	3357540352	46	3987
2026-01-26 02:12:59.02	179.43	23.72	-37.6	-38.4	24.6	0.00e+00	0	43	0	3363831808	46	4034
2026-01-26 02:13:00.03	179.52	23.57	-37.7	-38.4	24.6	0.00e+00	0	44	0	3370123264	46	4038
2026-01-26 02:13:01.04	179.61	23.43	-37.6	-38.4	24.6	0.00e+00	0	44	0	3375366144	46	4026
2026-01-26 02:13:02.05	179.70	23.28	-37.7	-38.4	24.6	0.00e+00	0	43	0	3380609024	46	4047
2026-01-26 02:13:03.05	179.79	23.14	-37.8	-38.5	24.5	0.00e+00	0	44	0	3386900480	46	4098
2026-01-26 02:13:04.06	179.88	23.00	-37.8	-38.6	24.5	0.00e+00	0	44	0	3392143360	46	4104
2026-01-26 02:13:05.07	179.97	22.86	-37.9	-38.7	24.4	0.00e+00	0	43	0	3397386240	46	4148
2026-01-26 02:13:06.08	180.05	22.72	-37.8	-38.5	24.5	0.00e+00	0	44	0	3403677696	46	4093
2026-01-26 02:13:07.08	180.14	22.58	-37.9	-38.6	24.4	0.00e+00	0	44	0	3408920576	46	4145
2026-01-26 02:13:08.09	180.23	22.44	-38.0	-38.7	24.3	0.00e+00	0	44	0	3414163456	46	4192
2026-01-26 02:13:09.10	180.31	22.30	-38.0	-38.8	24.3	0.00e+00	0	44	0	3420454912	46	4197
2026-01-26 02:13:10.11	180.40	22.16	-38.2	-39.0	24.1	0.00e+00	0	44	0	3425697792	46	4301
2026-01-26 02:13:11.12	180.48	22.03	-38.1	-38.9	24.2	0.00e+00	0	44	0	3431989248	46	4272
2026-01-26 02:13:12.13	180.56	21.89	-38.2	-39.0	24.1	0.00e+00	0	44	0	3437232128	46	4315
2026-01-26 02:13:13.13	180.64	21.76	-38.2	-39.0	24.1	0.00e+00	0	44	0	3443523584	47	4070
2026-01-26 02:13:14.14	180.73	21.62	-38.2	-39.0	24.1	0.00e+00	0	44	0	3448766464	47	4079
2026-01-26 02:13:15.15	180.81	21.49	-38.1	-38.9	24.1	0.00e+00	0	44	0	3455057920	47	4035
2026-01-26 02:13:16.15	180.89	21.35	-38.3	-39.1	24.0	0.00e+00	0	43	0	3460300800	47	4099
2026-01-26 02:13:17.16	180.97	21.22	-38.3	-39.0	24.0	0.00e+00	0	43	0	3465543680	47	4088
2026-01-26 02:13:18.17	181.05	21.09	-38.3	-39.1	24.0	0.00e+00	0	43	0	3471835136	47	4132
2026-01-26 02:13:19.18	181.13	20.96	-38.2	-39.0	24.0	0.00e+00	0	44	0	3477078016	47	4086
2026-01-26 02:13:20.18	181.20	20.83	-38.3	-39.1	24.0	0.00e+00	0	44	0	3482320896	47	4128
2026-01-26 02:13:21.19	181.28	20.70	-38.4	-39.1	24.0	0.00e+00	0	44	0	3488612352	47	4142
2026-01-26 02:13:22.20	181.36	20.57	-38.4	-39.2	23.9	0.00e+00	0	44	0	3493855232	47	4166
2026-01-26 02:13:23.21	181.43	20.44	-38.4	-39.2	23.8	0.00e+00	0	43	0	3499098112	47	4187
2026-01-26 02:13:24.21	181.51	20.31	-38.5	-39.3	23.8	0.00e+00	0	43	0	3505389568	47	4233
2026-01-26 02:13:25.21	181.58	20.18	-38.6	-39.4	23.7	0.00e+00	0	44	0	3510632448	47	4256
2026-01-26 02:13:26.22	181.66	20.06	-38.7	-39.5	23.6	0.00e+00	0	44	0	3516923904	47	4307
2026-01-26 02:13:27.23	181.73	19.93	-38.7	-39.5	23.6	0.00e+00	0	43	0	3522166784	47	4311
2026-01-26 02:13:28.24	181.80	19.80	-39.1	-39.9	23.7	0.00e+00	0	44	0	3528458240	48	4275
2026-01-26 02:13:29.24	181.88	19.68	-39.2	-40.0	23.7	0.00e+00	0	43	0	3533701120	48	4301
2026-01-26 02:13:30.25	181.95	19.55	-39.1	-40.0	23.7	0.00e+00	0	44	0	3539992576	48	4298
2026-01-26 02:13:31.26	182.02	19.43	-39.2	-40.1	23.6	0.00e+00	0	44	0	3545235456	49	4102
2026-01-26 02:13:32.27	182.09	19.30	-39.3	-40.1	23.5	0.00e+00	0	43	0	3550478336	49	4139
2026-01-26 02:13:33.28	182.16	19.18	-39.3	-40.1	23.6	0.00e+00	0	43	0	3556769792	49	4113
2026-01-26 02:13:34.29	182.23	19.06	-39.4	-40.2	23.5	0.00e+00	0	44	0	3562012672	49	4166
2026-01-26 02:13:35.29	182.30	18.94	-39.3	-40.1	23.6	0.00e+00	0	44	0	3567255552	49	4125
2026-01-26 02:13:36.30	182.37	18.82	-39.3	-40.1	23.6	0.00e+00	0	43	0	3573547008	49	4128
2026-01-26 02:13:37.31	182.44	18.69	-39.5	-40.3	23.4	0.00e+00	0	43	0	3578789888	49	4221
2026-01-26 02:13:38.32	182.50	18.57	-39.3	-40.1	23.6	0.00e+00	0	44	0	3584032768	49	4117
2026-01-26 02:13:39.33	182.57	18.45	-39.3	-40.1	23.5	0.00e+00	0	43	0	3590324224	49	4125
2026-01-26 02:13:40.33	182.64	18.34	-39.3	-40.1	23.5	0.00e+00	0	43	0	3596615680	49	4137
2026-01-26 02:13:41.34	182.70	18.22	-39.2	-40.0	23.7	0.00e+00	0	44	0	3601858560	49	4054
2026-01-26 02:13:42.35	182.77	18.10	-39.2	-40.0	23.6	0.00e+00	0	43	0	3607101440	49	4066
2026-01-26 02:13:43.35	182.83	17.98	-39.3	-40.0	23.6	0.00e+00	0	43	0	3613392896	49	4091
2026-01-26 02:13:44.36	182.90	17.86	-39.2	-40.0	23.6	0.00e+00	0	44	0	3618635776	49	4082
2026-01-26 02:13:45.36	182.96	17.75	-39.2	-40.0	23.7	0.00e+00	0	43	0	3624927232	49	4069
2026-01-26 02:13:46.37	183.03	17.63	-39.3	-40.1	23.5	0.00e+00	0	44	0	3630170112	49	4120
2026-01-26 02:13:47.38	183.09	17.52	-39.2	-40.0	23.6	0.00e+00	0	43	0	3635412992	49	4079
2026-01-26 02:13:48.39	183.15	17.40	-39.3	-40.0	23.6	0.00e+00	0	43	0	3641704448	49	4096
2026-01-26 02:13:49.39	183.22	17.29	-39.3	-40.1	23.5	0.00e+00	0	44	0	3646947328	49	4126
2026-01-26 02:13:50.40	183.28	17.17	-39.5	-40.3	23.4	0.00e+00	0	44	0	3652190208	49	4206
2026-01-26 02:13:51.40	183.34	17.06	-39.4	-40.2	23.5	0.00e+00	0	43	0	3658481664	49	4178
2026-01-26 02:13:52.41	183.40	16.95	-39.4	-40.2	23.5	0.00e+00	0	43	0	3663724544	49	4176
2026-01-26 02:13:53.42	183.46	16.84	-39.5	-40.3	23.4	0.00e+00	0	43	0	3668967424	49	4236
2026-01-26 02:13:54.42	183.52	16.72	-39.6	-40.4	23.3	0.00e+00	0	43	0	3675258880	49	4254
2026-01-26 02:13:55.43	183.58	16.61	-39.6	-40.4	23.3	0.00e+00	0	44	0	3680501760	49	4267
2026-01-26 02:13:56.44	183.64	16.50	-39.7	-40.5	23.2	0.00e+00	0	44	0	3686793216	49	4318
2026-01-26 02:13:57.45	183.70	16.39	-39.7	-40.6	23.2	0.00e+00	0	44	0	3692036096	50	4100
2026-01-26 02:13:58.45	183.76	16.28	-39.8	-40.6	23.1	0.00e+00	0	44	0	3698327552	50	4134
2026-01-26 02:13:59.46	183.82	16.17	-39.9	-40.7	23.0	0.00e+00	0	44	0	3703570432	50	4190
2026-01-26 02:14:00.47	183.88	16.06	-39.9	-40.7	23.0	0.00e+00	0	44	0	3709861888	50	4172
2026-01-26 02:14:01.47	183.93	15.95	-40.0	-40.8	22.9	0.00e+00	0	43	0	3715104768	50	4214
2026-01-26 02:14:02.48	183.99	15.85	-40.0	-40.9	22.9	0.00e+00	0	44	0	3720347648	50	4252
2026-01-26 02:14:03.49	184.05	15.74	-40.1	-40.9	22.8	0.00e+00	0	43	0	3726639104	50	4263
