passes_logs/2026/01/26/R3.2S_Murmansk/R3.2S_Murmansk__20260126_101958_FENGYUN_3D_rec.log

#Pass ID: 20260126_101958_FENGYUN 3D
#Satellite: FENGYUN 3D
#Configuration: FENGYUN 3D
#almurnet v.1.7.20251203
#Start time: 2026-01-26 10:19:58

#Version: 2.2.20231116
#Station: R3.2S_Murmansk
#Location: 33.079688 lon 68.888172 lat
#TLE: 1 43010U 17072A   26025.99795741 -.00000136  00000+0 -42313-4 0  9999
#TLE: 2 43010  98.9962 357.9855 0002515  89.6991 270.4472 14.19699257424818

#Time	Az	El	Level	Level2	SNR	BER	BlckErr	Temp	State	Recorded	gain1	gain2
2026-01-26 10:19:58.78	122.37	2.03	-47.9	-59.8	3.8	8.46e-01	0	41	0	0	66	14882
2026-01-26 10:19:59.78	122.35	2.09	-47.9	-59.7	3.8	8.46e-01	0	41	104	0	66	14863
2026-01-26 10:20:00.79	122.32	2.15	-47.9	-59.7	3.8	8.47e-01	0	41	104	0	66	14868
2026-01-26 10:20:01.79	122.29	2.22	-47.9	-59.7	3.8	8.46e-01	0	41	104	0	66	14866
2026-01-26 10:20:02.80	122.26	2.28	-47.9	-59.7	3.8	8.46e-01	0	41	104	0	66	14875
2026-01-26 10:20:03.81	122.24	2.34	-47.9	-59.8	3.8	8.46e-01	0	41	104	0	66	14907
2026-01-26 10:20:04.82	122.21	2.41	-47.9	-59.8	3.8	8.46e-01	0	41	104	0	66	14900
2026-01-26 10:20:05.82	122.18	2.47	-47.9	-59.7	3.8	8.45e-01	0	41	104	0	66	14838
2026-01-26 10:20:06.83	122.15	2.54	-47.9	-59.7	3.8	8.47e-01	0	41	104	0	66	14842
2026-01-26 10:20:07.84	122.12	2.60	-47.9	-59.7	3.8	8.46e-01	0	41	104	0	66	14829
2026-01-26 10:20:08.85	122.10	2.67	-47.9	-59.7	3.8	8.47e-01	0	42	104	0	66	14874
2026-01-26 10:20:09.86	122.07	2.73	-47.9	-59.7	3.8	8.46e-01	0	41	104	0	66	14871
2026-01-26 10:20:10.87	122.04	2.80	-47.9	-59.7	3.8	8.46e-01	0	42	104	0	66	14848
2026-01-26 10:20:11.88	122.01	2.86	-47.9	-59.7	3.8	8.48e-01	0	42	104	0	66	14805
2026-01-26 10:20:12.89	121.98	2.93	-47.9	-59.7	3.8	8.46e-01	0	42	104	0	66	14874
2026-01-26 10:20:13.89	121.95	2.99	-47.9	-59.7	3.8	8.46e-01	0	42	104	0	66	14833
2026-01-26 10:20:14.90	121.92	3.06	-47.9	-59.7	3.8	8.46e-01	0	42	104	0	66	14878
2026-01-26 10:20:15.91	121.89	3.13	-47.9	-59.7	3.8	8.45e-01	0	42	104	0	66	14853
2026-01-26 10:20:16.92	121.86	3.19	-47.9	-59.8	3.8	8.45e-01	0	42	104	0	66	14893
2026-01-26 10:20:17.92	121.83	3.26	-47.9	-59.7	3.8	8.47e-01	0	42	104	0	66	14816
2026-01-26 10:20:18.93	121.80	3.32	-47.9	-59.8	3.8	8.46e-01	0	42	104	0	66	14890
2026-01-26 10:20:19.94	121.77	3.39	-47.9	-59.7	3.8	8.47e-01	0	42	104	0	66	14875
2026-01-26 10:20:20.95	121.74	3.46	-47.9	-59.7	3.8	8.47e-01	0	42	104	0	66	14806
2026-01-26 10:20:21.96	121.71	3.52	-47.9	-59.7	3.8	8.47e-01	0	42	104	0	66	14879
2026-01-26 10:20:22.97	121.68	3.59	-47.9	-59.7	3.8	8.47e-01	0	42	104	0	66	14865
2026-01-26 10:20:23.97	121.65	3.66	-47.9	-59.7	3.8	8.47e-01	0	42	104	0	66	14872
2026-01-26 10:20:24.98	121.62	3.72	-47.9	-59.8	3.8	8.46e-01	0	42	104	0	66	14887
2026-01-26 10:20:25.99	121.59	3.79	-47.9	-59.7	3.8	8.46e-01	0	42	104	0	66	14859
2026-01-26 10:20:27.00	121.56	3.86	-47.9	-59.7	3.8	8.45e-01	0	42	104	0	66	14815
2026-01-26 10:20:28.01	121.52	3.93	-47.9	-59.7	3.8	8.47e-01	0	42	104	0	66	14837
2026-01-26 10:20:29.01	121.49	4.00	-47.9	-59.7	3.8	8.45e-01	0	42	104	0	66	14858
2026-01-26 10:20:30.02	121.46	4.06	-47.9	-59.7	3.8	8.46e-01	0	42	104	0	66	14860
2026-01-26 10:20:31.03	121.43	4.13	-47.9	-59.8	3.8	8.46e-01	0	42	104	0	66	14888
2026-01-26 10:20:32.04	121.40	4.20	-47.9	-59.8	3.8	8.46e-01	0	42	104	0	66	14903
2026-01-26 10:20:33.04	121.37	4.27	-47.9	-59.7	3.8	8.47e-01	0	42	104	0	66	14865
2026-01-26 10:20:34.05	121.33	4.34	-47.9	-59.8	3.8	8.46e-01	0	42	104	0	66	14889
2026-01-26 10:20:35.06	121.30	4.41	-47.9	-59.7	3.8	8.47e-01	0	42	104	0	66	14854
2026-01-26 10:20:36.07	121.27	4.47	-47.9	-59.7	3.8	8.46e-01	0	42	104	0	66	14876
2026-01-26 10:20:37.08	121.23	4.54	-47.9	-59.7	3.8	8.47e-01	0	42	104	0	66	14865
2026-01-26 10:20:38.09	121.20	4.61	-47.9	-59.7	3.8	8.46e-01	0	42	104	0	66	14870
2026-01-26 10:20:39.09	121.17	4.68	-47.9	-59.8	3.8	8.47e-01	0	42	104	0	66	14897
2026-01-26 10:20:40.10	121.14	4.75	-47.9	-59.8	3.8	8.47e-01	0	42	104	0	66	14904
2026-01-26 10:20:41.11	121.10	4.82	-47.9	-59.7	3.8	8.46e-01	0	42	104	0	66	14861
2026-01-26 10:20:42.12	121.07	4.89	-47.9	-59.7	3.8	8.46e-01	0	42	104	0	66	14846
2026-01-26 10:20:43.12	121.03	4.96	-47.9	-59.7	3.8	8.46e-01	0	42	104	0	66	14865
2026-01-26 10:20:44.13	121.00	5.03	-47.9	-59.7	3.8	8.46e-01	0	42	104	0	66	14848
2026-01-26 10:20:45.14	120.97	5.10	-47.9	-59.7	3.8	8.47e-01	0	42	104	0	66	14857
2026-01-26 10:20:46.15	120.93	5.17	-47.9	-59.7	3.8	8.45e-01	0	42	104	0	66	14877
2026-01-26 10:20:47.15	120.90	5.24	-47.9	-59.7	3.8	8.47e-01	0	43	104	0	66	14860
2026-01-26 10:20:48.16	120.86	5.32	-47.9	-59.7	3.8	8.46e-01	0	42	104	0	66	14827
2026-01-26 10:20:49.17	120.83	5.39	-47.9	-59.8	3.8	8.46e-01	0	42	104	0	66	14899
2026-01-26 10:20:50.18	120.79	5.46	-47.9	-59.7	3.8	8.47e-01	0	43	104	0	66	14866
2026-01-26 10:20:51.19	120.76	5.53	-47.9	-59.7	3.8	8.46e-01	0	42	104	0	66	14840
2026-01-26 10:20:52.20	120.72	5.60	-47.9	-59.8	3.8	8.46e-01	0	42	104	0	66	14896
2026-01-26 10:20:53.20	120.68	5.67	-47.9	-59.7	3.8	8.46e-01	0	43	104	0	66	14874
2026-01-26 10:20:54.21	120.65	5.75	-47.9	-59.7	3.8	8.46e-01	0	43	104	0	66	14870
2026-01-26 10:20:55.21	120.61	5.82	-47.9	-59.8	3.8	8.46e-01	0	43	104	0	66	14921
2026-01-26 10:20:56.22	120.58	5.89	-47.9	-59.7	3.8	8.46e-01	0	43	104	0	66	14869
2026-01-26 10:20:57.23	120.54	5.96	-47.9	-59.7	3.8	8.46e-01	0	42	104	0	66	14875
2026-01-26 10:20:58.24	120.50	6.04	-47.9	-59.7	3.8	8.46e-01	0	43	104	0	66	14868
2026-01-26 10:20:59.25	120.47	6.11	-47.9	-59.7	3.8	8.46e-01	0	43	104	0	66	14867
2026-01-26 10:21:00.26	120.43	6.18	-47.9	-59.8	3.8	8.47e-01	0	43	104	0	66	14889
2026-01-26 10:21:01.27	120.39	6.26	-47.9	-59.7	3.8	8.46e-01	0	43	104	0	66	14867
2026-01-26 10:21:02.28	120.35	6.33	-47.9	-59.8	3.8	8.46e-01	0	43	104	0	66	14895
2026-01-26 10:21:03.28	120.32	6.40	-47.9	-59.8	3.8	8.46e-01	0	43	104	0	66	14915
2026-01-26 10:21:04.29	120.28	6.48	-47.9	-59.8	3.8	8.47e-01	0	43	104	0	66	14886
2026-01-26 10:21:05.30	120.24	6.55	-47.9	-59.8	3.8	8.46e-01	0	43	104	0	66	14915
2026-01-26 10:21:06.31	120.20	6.63	-47.9	-59.8	3.8	8.46e-01	0	43	104	0	66	14926
2026-01-26 10:21:07.32	120.16	6.70	-47.9	-59.7	3.8	8.45e-01	0	43	104	0	66	14868
2026-01-26 10:21:08.33	120.12	6.78	-47.9	-59.8	3.8	8.47e-01	0	43	104	0	66	14883
2026-01-26 10:21:09.33	120.08	6.85	-47.9	-59.7	3.8	8.47e-01	0	43	104	0	66	14863
2026-01-26 10:21:10.34	120.04	6.93	-47.9	-59.7	3.8	8.45e-01	0	43	104	0	66	14816
2026-01-26 10:21:11.35	120.01	7.00	-47.9	-59.7	3.8	8.45e-01	0	43	104	0	66	14854
2026-01-26 10:21:12.36	119.97	7.08	-47.9	-59.8	3.8	8.47e-01	0	43	104	0	66	14880
2026-01-26 10:21:13.36	119.93	7.15	-47.9	-59.7	3.8	8.45e-01	0	43	104	0	66	14841
2026-01-26 10:21:14.37	119.89	7.23	-47.9	-59.7	3.8	8.46e-01	0	43	104	0	66	14843
2026-01-26 10:21:15.38	119.85	7.31	-47.9	-59.7	3.8	8.45e-01	0	43	104	0	66	14864
2026-01-26 10:21:16.39	119.80	7.38	-47.9	-59.7	3.8	8.46e-01	0	43	104	0	66	14873
2026-01-26 10:21:17.40	119.76	7.46	-47.9	-59.8	3.8	8.46e-01	0	43	104	0	66	14909
2026-01-26 10:21:18.41	119.72	7.54	-47.9	-59.8	3.8	8.46e-01	0	43	104	0	66	14913
2026-01-26 10:21:19.41	119.68	7.61	-47.9	-59.7	3.8	8.46e-01	0	43	104	0	66	14858
2026-01-26 10:21:20.42	119.64	7.69	-47.9	-59.7	3.8	8.46e-01	0	43	104	0	66	14840
2026-01-26 10:21:21.43	119.60	7.77	-47.9	-59.7	3.8	8.46e-01	0	43	104	0	66	14857
2026-01-26 10:21:22.43	119.56	7.85	-47.9	-59.8	3.8	8.46e-01	0	43	104	0	66	14885
2026-01-26 10:21:23.44	119.51	7.93	-47.9	-59.7	3.8	8.46e-01	0	43	104	0	66	14864
2026-01-26 10:21:24.45	119.47	8.00	-47.9	-59.8	3.8	8.46e-01	0	43	104	0	66	14880
2026-01-26 10:21:25.46	119.43	8.08	-47.9	-59.7	3.8	8.46e-01	0	43	104	0	66	14870
2026-01-26 10:21:26.47	119.38	8.16	-47.9	-59.7	3.8	8.46e-01	0	43	104	0	66	14863
2026-01-26 10:21:27.48	119.34	8.24	-47.9	-59.7	3.8	8.46e-01	0	43	104	0	66	14851
2026-01-26 10:21:28.48	119.30	8.32	-47.9	-59.8	3.8	8.47e-01	0	43	104	0	66	14908
2026-01-26 10:21:29.49	119.25	8.40	-47.9	-59.7	3.8	8.46e-01	0	43	104	0	66	14864
2026-01-26 10:21:30.49	119.21	8.48	-47.9	-59.7	3.8	8.45e-01	0	43	104	0	66	14868
2026-01-26 10:21:31.50	119.17	8.56	-47.9	-59.8	3.8	8.47e-01	0	43	104	0	66	14891
2026-01-26 10:21:32.51	119.12	8.64	-47.9	-59.8	3.8	8.47e-01	0	43	104	0	66	14889
2026-01-26 10:21:33.52	119.08	8.72	-47.9	-59.8	3.8	8.47e-01	0	43	104	0	66	14887
2026-01-26 10:21:34.52	119.03	8.80	-47.9	-59.7	3.8	8.46e-01	0	43	104	0	66	14872
2026-01-26 10:21:35.54	118.99	8.88	-47.9	-59.7	3.8	8.46e-01	0	43	104	0	66	14867
2026-01-26 10:21:36.55	118.94	8.96	-47.9	-59.7	3.8	8.46e-01	0	43	104	0	66	14867
2026-01-26 10:21:37.55	118.89	9.04	-47.9	-59.7	3.8	8.46e-01	0	43	104	0	66	14821
2026-01-26 10:21:38.56	118.85	9.13	-47.9	-59.8	3.8	8.47e-01	0	43	104	0	66	14888
2026-01-26 10:21:39.57	118.80	9.21	-47.9	-59.8	3.8	8.47e-01	0	43	104	0	66	14880
2026-01-26 10:21:40.59	118.75	9.29	-47.9	-59.8	3.8	8.47e-01	0	43	104	0	66	14909
2026-01-26 10:21:41.59	118.71	9.37	-47.9	-59.7	3.8	8.47e-01	0	43	104	0	66	14879
2026-01-26 10:21:42.60	118.66	9.46	-47.9	-59.7	3.8	8.47e-01	0	43	104	0	66	14861
2026-01-26 10:21:43.61	118.61	9.54	-47.9	-59.7	3.8	8.45e-01	0	43	104	0	66	14855
2026-01-26 10:21:44.61	118.56	9.62	-47.9	-59.7	3.8	8.45e-01	0	43	104	0	66	14853
2026-01-26 10:21:45.62	118.52	9.71	-47.9	-59.7	3.8	8.46e-01	0	43	104	0	66	14850
2026-01-26 10:21:46.63	118.47	9.79	-47.9	-59.7	3.8	8.45e-01	0	43	104	0	66	14869
2026-01-26 10:21:47.64	118.42	9.87	-47.9	-59.7	3.8	8.47e-01	0	43	104	0	66	14872
2026-01-26 10:21:48.65	118.37	9.96	-47.9	-59.7	3.8	8.45e-01	0	43	104	0	66	14861
2026-01-26 10:21:49.65	118.32	10.04	-47.9	-59.8	3.8	8.46e-01	0	43	104	0	66	14903
2026-01-26 10:21:50.66	118.27	10.13	-47.9	-59.7	3.8	8.46e-01	0	43	104	0	66	14868
2026-01-26 10:21:51.67	118.22	10.21	-47.9	-59.8	3.8	8.46e-01	0	43	104	0	66	14896
2026-01-26 10:21:52.67	118.17	10.30	-47.9	-59.7	3.8	8.45e-01	0	43	104	0	66	14835
2026-01-26 10:21:53.68	118.12	10.38	-47.9	-59.7	3.8	8.46e-01	0	43	104	0	66	14846
2026-01-26 10:21:54.69	118.07	10.47	-47.9	-59.8	3.8	8.45e-01	0	43	104	0	66	14922
2026-01-26 10:21:55.70	118.02	10.55	-47.9	-59.8	3.8	8.47e-01	0	43	104	0	66	14891
2026-01-26 10:21:56.71	117.97	10.64	-47.9	-59.8	3.8	8.46e-01	0	43	104	0	66	14914
2026-01-26 10:21:57.71	117.91	10.73	-47.9	-59.8	3.8	8.47e-01	0	43	104	0	66	14884
2026-01-26 10:21:58.72	117.86	10.81	-47.9	-59.7	3.8	8.47e-01	0	43	104	0	66	14872
2026-01-26 10:21:59.73	117.81	10.90	-47.9	-59.7	3.8	8.46e-01	0	43	104	0	66	14875
2026-01-26 10:22:00.74	117.76	10.99	-47.9	-59.8	3.8	8.46e-01	0	43	104	0	66	14885
2026-01-26 10:22:01.75	117.70	11.08	-47.9	-59.8	3.8	8.46e-01	0	43	104	0	66	14897
2026-01-26 10:22:02.75	117.65	11.16	-47.9	-59.8	3.8	8.46e-01	0	43	104	0	66	14882
2026-01-26 10:22:03.76	117.60	11.25	-47.9	-59.7	3.8	8.47e-01	0	43	104	0	66	14869
2026-01-26 10:22:04.77	117.54	11.34	-47.9	-59.8	3.8	8.45e-01	0	43	104	0	66	14912
2026-01-26 10:22:05.77	117.49	11.43	-47.9	-59.7	3.8	8.46e-01	0	43	104	0	66	14827
2026-01-26 10:22:06.78	117.43	11.52	-47.9	-59.7	3.8	8.47e-01	0	43	104	0	66	14866
2026-01-26 10:22:07.79	117.38	11.61	-47.9	-59.8	3.8	8.46e-01	0	43	104	0	66	14905
2026-01-26 10:22:08.80	117.32	11.70	-47.9	-59.8	3.8	8.45e-01	0	43	104	0	66	14883
2026-01-26 10:22:09.81	117.26	11.79	-47.9	-59.7	3.8	8.47e-01	0	43	104	0	66	14871
2026-01-26 10:22:10.81	117.21	11.88	-47.9	-59.8	3.8	8.47e-01	0	43	104	0	66	14912
2026-01-26 10:22:11.82	117.15	11.97	-47.9	-59.7	3.8	8.46e-01	0	43	104	0	66	14873
2026-01-26 10:22:12.82	117.10	12.06	-47.9	-59.7	3.8	8.46e-01	0	43	104	0	66	14854
2026-01-26 10:22:13.83	117.04	12.15	-47.9	-59.7	3.8	8.46e-01	0	43	104	0	66	14877
2026-01-26 10:22:14.84	116.98	12.25	-47.9	-59.8	3.8	8.46e-01	0	43	104	0	66	14917
2026-01-26 10:22:15.85	116.92	12.34	-47.9	-59.7	3.8	8.48e-01	0	43	104	0	66	14876
2026-01-26 10:22:16.85	116.86	12.43	-47.9	-59.8	3.8	8.46e-01	0	43	104	0	66	14898
2026-01-26 10:22:17.86	116.80	12.52	-47.9	-59.7	3.8	8.46e-01	0	43	104	0	66	14827
2026-01-26 10:22:18.87	116.74	12.62	-47.9	-59.8	3.8	8.46e-01	0	43	104	0	66	14885
2026-01-26 10:22:19.88	116.68	12.71	-47.9	-59.7	3.8	8.46e-01	0	43	104	0	66	14871
2026-01-26 10:22:20.88	116.62	12.80	-47.9	-59.7	3.8	8.47e-01	0	43	104	0	66	14873
2026-01-26 10:22:21.89	116.56	12.90	-47.9	-59.7	3.8	8.46e-01	0	43	104	0	66	14851
2026-01-26 10:22:22.90	116.50	12.99	-47.7	-59.7	3.8	8.46e-01	0	43	104	0	66	14848
2026-01-26 10:22:23.91	116.44	13.09	-47.9	-59.8	3.8	8.46e-01	0	43	104	0	66	14904
2026-01-26 10:22:24.91	116.38	13.18	-47.9	-59.8	3.8	8.46e-01	0	43	104	0	66	14914
2026-01-26 10:22:25.93	116.32	13.28	-47.9	-59.7	3.8	8.46e-01	0	43	104	0	66	14875
2026-01-26 10:22:26.93	116.25	13.37	-47.9	-59.7	3.8	8.46e-01	0	43	104	0	66	14845
2026-01-26 10:22:27.94	116.19	13.47	-47.9	-59.8	3.8	8.46e-01	0	43	104	0	66	14892
2026-01-26 10:22:28.94	116.13	13.56	-47.9	-59.7	3.8	8.46e-01	0	43	104	0	66	14873
2026-01-26 10:22:29.95	116.06	13.66	-47.9	-59.7	3.8	8.45e-01	0	43	104	0	66	14873
2026-01-26 10:22:30.96	116.00	13.76	-47.9	-59.8	3.8	8.46e-01	0	43	104	0	66	14890
2026-01-26 10:22:31.97	115.93	13.85	-47.9	-59.8	3.8	8.46e-01	0	43	104	0	66	14913
2026-01-26 10:22:32.97	115.87	13.95	-47.9	-59.8	3.8	8.47e-01	0	44	104	0	66	14906
2026-01-26 10:22:33.98	115.80	14.05	-47.9	-59.7	3.8	8.46e-01	0	43	104	0	66	14862
2026-01-26 10:22:34.99	115.74	14.15	-47.9	-59.8	3.8	8.47e-01	0	43	104	0	66	14909
2026-01-26 10:22:36.00	115.67	14.25	-47.9	-59.8	3.8	8.47e-01	0	43	104	0	66	14914
2026-01-26 10:22:37.01	115.60	14.35	-47.9	-59.8	3.8	8.46e-01	0	44	104	0	66	14911
2026-01-26 10:22:38.01	115.54	14.45	-47.9	-59.8	3.8	8.46e-01	0	43	104	0	66	14901
2026-01-26 10:22:39.02	115.47	14.55	-47.9	-59.8	3.8	8.47e-01	0	43	104	0	66	14884
2026-01-26 10:22:40.03	115.40	14.65	-47.9	-59.8	3.8	8.46e-01	0	43	104	0	66	14896
2026-01-26 10:22:41.04	115.33	14.75	-47.9	-59.8	3.8	8.46e-01	0	43	104	0	66	14887
2026-01-26 10:22:42.04	115.26	14.85	-47.9	-59.7	3.8	8.45e-01	0	43	104	0	66	14857
2026-01-26 10:22:43.05	115.19	14.95	-47.9	-59.8	3.8	8.46e-01	0	43	104	0	66	14905
2026-01-26 10:22:44.05	115.12	15.05	-47.9	-59.8	3.8	8.47e-01	0	43	104	0	66	14937
2026-01-26 10:22:45.06	115.05	15.15	-47.9	-59.7	3.8	8.44e-01	0	43	104	0	66	14854
2026-01-26 10:22:46.07	114.98	15.26	-47.9	-59.7	3.8	8.45e-01	0	43	104	0	66	14877
2026-01-26 10:22:47.07	114.90	15.36	-47.9	-59.8	3.8	8.46e-01	0	43	104	0	66	14915
2026-01-26 10:22:48.08	114.83	15.46	-47.9	-59.7	3.8	8.46e-01	0	43	104	0	66	14876
2026-01-26 10:22:49.09	114.76	15.57	-47.9	-59.7	3.8	8.47e-01	0	43	104	0	66	14874
2026-01-26 10:22:50.09	114.69	15.67	-47.9	-59.8	3.8	8.45e-01	0	43	104	0	66	14886
2026-01-26 10:22:51.10	114.61	15.77	-47.9	-59.8	3.8	8.46e-01	0	43	104	0	66	14887
2026-01-26 10:22:52.11	114.54	15.88	-47.9	-59.8	3.8	8.47e-01	0	43	104	0	66	14903
2026-01-26 10:22:53.12	114.46	15.98	-47.9	-59.8	3.8	8.46e-01	0	43	104	0	66	14910
2026-01-26 10:22:54.12	114.39	16.09	-47.9	-59.7	3.8	8.46e-01	0	43	104	0	66	14871
2026-01-26 10:22:55.13	114.31	16.20	-47.9	-59.8	3.8	8.46e-01	0	43	104	0	66	14924
2026-01-26 10:22:56.14	114.23	16.30	-47.9	-59.7	3.8	8.46e-01	0	43	104	0	66	14844
2026-01-26 10:22:57.15	114.15	16.41	-47.9	-59.7	3.8	8.45e-01	0	43	104	0	66	14854
2026-01-26 10:22:58.15	114.08	16.52	-47.9	-59.8	3.8	8.46e-01	0	43	104	0	66	14947
2026-01-26 10:22:59.16	114.00	16.62	-47.9	-59.8	3.8	8.46e-01	0	43	104	0	66	14903
2026-01-26 10:23:00.17	113.92	16.73	-47.9	-59.8	3.8	8.46e-01	0	43	104	0	66	14915
2026-01-26 10:23:01.18	113.84	16.84	-47.9	-59.8	3.8	8.46e-01	0	43	104	0	66	14895
2026-01-26 10:23:02.19	113.76	16.95	-47.9	-59.7	3.8	8.47e-01	0	43	104	0	66	14864
2026-01-26 10:23:03.20	113.68	17.06	-47.9	-59.8	3.8	8.47e-01	0	43	104	0	66	14891
2026-01-26 10:23:04.21	113.59	17.17	-47.9	-59.8	3.8	8.46e-01	0	43	104	0	66	14888
2026-01-26 10:23:05.22	113.51	17.28	-47.9	-59.7	3.8	8.47e-01	0	43	104	0	66	14870
2026-01-26 10:23:06.23	113.43	17.39	-47.9	-59.8	3.8	8.46e-01	0	43	104	0	66	14911
2026-01-26 10:23:07.24	113.34	17.50	-47.9	-59.8	3.8	8.45e-01	0	43	104	0	66	14886
2026-01-26 10:23:08.25	113.26	17.61	-47.9	-59.7	3.8	8.47e-01	0	44	104	0	66	14843
2026-01-26 10:23:09.25	113.17	17.73	-47.9	-59.8	3.8	8.46e-01	0	43	104	0	66	14883
2026-01-26 10:23:10.26	113.09	17.84	-47.9	-59.7	3.8	8.46e-01	0	43	104	0	66	14854
2026-01-26 10:23:11.27	113.00	17.95	-47.9	-59.8	3.8	8.46e-01	0	44	104	0	66	14893
2026-01-26 10:23:12.28	112.92	18.07	-47.9	-59.8	3.8	8.45e-01	0	43	104	0	66	14933
2026-01-26 10:23:13.28	112.83	18.18	-47.9	-59.7	3.8	8.47e-01	0	43	104	0	66	14872
2026-01-26 10:23:14.29	112.74	18.29	-47.9	-59.8	3.8	8.46e-01	0	44	104	0	66	14905
2026-01-26 10:23:15.30	112.65	18.41	-47.9	-59.7	3.8	8.45e-01	0	44	104	0	66	14868
2026-01-26 10:23:16.30	112.56	18.52	-47.9	-59.7	3.8	8.47e-01	0	44	104	0	66	14878
2026-01-26 10:23:17.31	112.47	18.64	-47.9	-59.8	3.8	8.46e-01	0	43	104	0	66	14899
2026-01-26 10:23:18.31	112.38	18.75	-47.9	-59.8	3.8	8.46e-01	0	44	104	0	66	14911
2026-01-26 10:23:19.32	112.29	18.87	-47.9	-59.8	3.8	8.45e-01	0	43	104	0	66	14920
2026-01-26 10:23:20.33	112.20	18.99	-47.9	-59.8	3.8	8.47e-01	0	43	104	0	66	14882
2026-01-26 10:23:21.33	112.10	19.10	-47.9	-59.7	3.8	8.45e-01	0	44	104	0	66	14873
2026-01-26 10:23:22.34	112.01	19.22	-47.9	-59.7	3.8	8.46e-01	0	44	104	0	66	14868
2026-01-26 10:23:23.35	111.91	19.34	-47.9	-59.8	3.8	8.44e-01	0	43	104	0	66	14905
2026-01-26 10:23:24.36	111.82	19.46	-47.9	-59.7	3.8	8.46e-01	0	44	104	0	66	14862
2026-01-26 10:23:25.36	111.72	19.58	-47.9	-59.8	3.8	8.46e-01	0	43	104	0	66	14898
2026-01-26 10:23:26.37	111.63	19.70	-47.9	-59.8	3.8	8.47e-01	0	43	104	0	66	14899
2026-01-26 10:23:27.38	111.53	19.82	-47.9	-59.7	3.8	8.46e-01	0	44	104	0	66	14877
2026-01-26 10:23:28.39	111.43	19.94	-47.9	-59.8	3.8	8.46e-01	0	44	104	0	66	14889
2026-01-26 10:23:29.40	111.33	20.06	-47.9	-59.7	3.8	8.46e-01	0	44	104	0	66	14877
2026-01-26 10:23:30.41	111.23	20.19	-47.9	-59.8	3.8	8.45e-01	0	44	104	0	66	14894
2026-01-26 10:23:31.42	111.13	20.31	-47.9	-59.7	3.8	8.46e-01	0	43	104	0	66	14874
2026-01-26 10:23:32.42	111.03	20.43	-47.9	-59.8	3.8	8.47e-01	0	43	104	0	66	14915
2026-01-26 10:23:33.43	110.92	20.55	-47.9	-59.8	3.8	8.47e-01	0	43	104	0	66	14881
2026-01-26 10:23:34.44	110.82	20.68	-47.9	-59.8	3.8	8.47e-01	0	44	104	0	66	14894
2026-01-26 10:23:35.44	110.71	20.80	-47.9	-59.8	3.8	8.47e-01	0	43	104	0	66	14934
2026-01-26 10:23:36.45	110.61	20.93	-47.9	-59.7	3.8	8.46e-01	0	43	104	0	66	14869
2026-01-26 10:23:37.46	110.50	21.05	-47.9	-59.8	3.8	8.47e-01	0	44	104	0	66	14918
2026-01-26 10:23:38.47	110.39	21.18	-47.9	-59.7	3.8	8.47e-01	0	43	104	0	66	14869
2026-01-26 10:23:39.48	110.29	21.31	-47.9	-59.8	3.8	8.45e-01	0	44	104	0	66	14910
2026-01-26 10:23:40.49	110.18	21.43	-47.9	-59.8	3.8	8.45e-01	0	43	104	0	66	14897
2026-01-26 10:23:41.50	110.07	21.56	-47.9	-59.8	3.8	8.45e-01	0	44	104	0	66	14882
2026-01-26 10:23:42.51	109.96	21.69	-47.9	-59.7	3.8	8.46e-01	0	43	104	0	66	14871
2026-01-26 10:23:43.52	109.84	21.82	-47.9	-59.8	3.8	8.47e-01	0	43	104	0	66	14905
2026-01-26 10:23:44.53	109.73	21.95	-47.9	-59.8	3.8	8.47e-01	0	44	104	0	66	14906
2026-01-26 10:23:45.53	109.62	22.08	-47.9	-59.7	3.8	8.46e-01	0	44	104	0	66	14876
2026-01-26 10:23:46.54	109.50	22.21	-47.9	-59.8	3.8	8.46e-01	0	44	104	0	66	14886
2026-01-26 10:23:47.55	109.39	22.34	-47.9	-59.7	3.8	8.47e-01	0	43	104	0	66	14857
2026-01-26 10:23:48.56	109.27	22.47	-47.9	-59.8	3.8	8.46e-01	0	43	104	0	66	14901
2026-01-26 10:23:49.57	109.15	22.60	-47.9	-59.8	3.8	8.45e-01	0	43	104	0	66	14886
2026-01-26 10:23:50.57	109.03	22.74	-47.9	-59.8	3.8	8.45e-01	0	44	104	0	66	14885
2026-01-26 10:23:51.58	108.91	22.87	-47.9	-59.8	3.8	8.46e-01	0	44	104	0	66	14900
2026-01-26 10:23:52.58	108.79	23.00	-47.9	-59.8	3.8	8.46e-01	0	43	104	0	66	14888
2026-01-26 10:23:53.59	108.67	23.14	-47.9	-59.8	3.8	8.47e-01	0	44	104	0	66	14900
2026-01-26 10:23:54.60	108.55	23.27	-47.9	-59.7	3.8	8.47e-01	0	44	104	0	66	14869
2026-01-26 10:23:55.61	108.42	23.41	-47.9	-59.8	3.8	8.47e-01	0	44	104	0	66	14923
2026-01-26 10:23:56.61	108.30	23.54	-47.9	-59.8	3.8	8.46e-01	0	43	104	0	66	14942
2026-01-26 10:23:57.62	108.17	23.68	-47.9	-59.8	3.8	8.46e-01	0	44	104	0	66	14886
2026-01-26 10:23:58.63	108.05	23.82	-47.9	-59.8	3.8	8.45e-01	0	44	104	0	66	14937
2026-01-26 10:23:59.64	107.92	23.95	-47.9	-59.8	3.8	8.46e-01	0	44	104	0	66	14895
2026-01-26 10:24:00.64	107.79	24.09	-47.9	-59.8	3.8	8.46e-01	0	44	104	0	66	14922
2026-01-26 10:24:01.65	107.66	24.23	-47.9	-59.8	3.8	8.45e-01	0	44	104	0	66	14940
2026-01-26 10:24:02.66	107.52	24.37	-47.9	-59.8	3.8	8.46e-01	0	44	104	0	66	14916
2026-01-26 10:24:03.67	107.39	24.51	-47.9	-59.7	3.8	8.46e-01	0	44	104	0	66	14879
2026-01-26 10:24:04.67	107.26	24.65	-47.9	-59.8	3.8	8.45e-01	0	44	104	0	66	14935
2026-01-26 10:24:05.68	107.12	24.79	-47.9	-59.8	3.8	8.45e-01	0	44	104	0	66	14929
2026-01-26 10:24:06.69	106.98	24.93	-47.9	-59.7	3.8	8.47e-01	0	44	104	0	66	14870
2026-01-26 10:24:07.69	106.85	25.07	-47.9	-59.8	3.8	8.47e-01	0	44	104	0	66	14906
2026-01-26 10:24:08.70	106.71	25.21	-47.9	-59.7	3.8	8.45e-01	0	44	104	0	66	14849
2026-01-26 10:24:09.71	106.56	25.36	-47.9	-59.7	3.8	8.47e-01	0	44	104	0	66	14856
2026-01-26 10:24:10.72	106.42	25.50	-47.9	-59.7	3.8	8.45e-01	0	44	104	0	66	14850
2026-01-26 10:24:11.73	106.28	25.65	-47.9	-59.8	3.8	8.46e-01	0	44	104	0	66	14913
2026-01-26 10:24:12.73	106.13	25.79	-47.9	-59.7	3.8	8.45e-01	0	44	104	0	66	14868
2026-01-26 10:24:13.74	105.99	25.94	-47.9	-59.7	3.8	8.46e-01	0	44	104	0	66	14870
2026-01-26 10:24:14.74	105.84	26.08	-47.9	-59.7	3.8	8.46e-01	0	44	104	0	66	14877
2026-01-26 10:24:15.75	105.69	26.23	-47.9	-59.8	3.8	8.47e-01	0	43	104	0	66	14895
2026-01-26 10:24:16.76	105.54	26.38	-47.9	-59.8	3.8	8.45e-01	0	44	104	0	66	14903
2026-01-26 10:24:17.77	105.39	26.53	-47.9	-59.8	3.8	8.46e-01	0	44	104	0	66	14892
2026-01-26 10:24:18.77	105.24	26.67	-47.9	-59.8	3.8	8.45e-01	0	44	104	0	66	14893
2026-01-26 10:24:19.78	105.08	26.82	-47.9	-59.8	3.8	8.46e-01	0	44	104	0	66	14895
2026-01-26 10:24:20.79	104.93	26.97	-47.9	-59.8	3.8	8.46e-01	0	44	104	0	66	14910
2026-01-26 10:24:21.79	104.77	27.12	-47.9	-59.8	3.8	8.46e-01	0	44	104	0	66	14887
2026-01-26 10:24:22.80	104.61	27.27	-47.9	-59.7	3.8	8.46e-01	0	44	104	0	66	14879
2026-01-26 10:24:23.81	104.45	27.42	-47.9	-59.8	3.8	8.46e-01	0	44	104	0	66	14893
2026-01-26 10:24:24.82	104.29	27.58	-47.9	-59.8	3.8	8.47e-01	0	44	104	0	66	14907
2026-01-26 10:24:25.82	104.12	27.73	-47.9	-59.8	3.8	8.47e-01	0	44	104	0	66	14896
2026-01-26 10:24:26.83	103.96	27.88	-47.9	-59.8	3.8	8.47e-01	0	44	104	0	66	14888
2026-01-26 10:24:27.84	103.79	28.04	-47.9	-59.8	3.8	8.45e-01	0	44	104	0	66	14921
2026-01-26 10:24:28.85	103.62	28.19	-47.9	-59.8	3.8	8.45e-01	0	44	104	0	66	14895
2026-01-26 10:24:29.85	103.45	28.34	-47.9	-59.7	3.8	8.47e-01	0	44	104	0	66	14853
2026-01-26 10:24:30.86	103.28	28.50	-47.9	-59.8	3.8	8.46e-01	0	44	104	0	66	14885
2026-01-26 10:24:31.87	103.10	28.66	-47.9	-59.8	3.8	8.46e-01	0	43	104	0	66	14912
2026-01-26 10:24:32.88	102.93	28.81	-47.9	-59.8	3.8	8.45e-01	0	44	104	0	66	14901
2026-01-26 10:24:33.88	102.75	28.97	-47.9	-59.7	3.8	8.47e-01	0	43	104	0	66	14874
2026-01-26 10:24:34.89	102.57	29.13	-47.9	-59.8	3.8	8.46e-01	0	44	104	0	66	14921
2026-01-26 10:24:35.90	102.39	29.29	-47.9	-59.8	3.8	8.45e-01	0	44	104	0	66	14921
2026-01-26 10:24:36.91	102.21	29.44	-47.9	-59.8	3.8	8.46e-01	0	44	104	0	66	14929
2026-01-26 10:24:37.91	102.03	29.60	-47.9	-59.7	3.8	8.46e-01	0	43	104	0	66	14865
2026-01-26 10:24:38.92	101.84	29.76	-47.9	-59.7	3.8	8.46e-01	0	43	104	0	66	14879
2026-01-26 10:24:39.93	101.65	29.92	-47.9	-59.7	3.8	8.46e-01	0	44	104	0	66	14857
2026-01-26 10:24:40.94	101.46	30.09	-47.9	-59.8	3.8	8.46e-01	0	44	104	0	66	14890
2026-01-26 10:24:41.95	101.27	30.25	-47.9	-59.8	3.8	8.46e-01	0	44	104	0	66	14884
2026-01-26 10:24:42.95	101.07	30.41	-47.9	-59.8	3.8	8.46e-01	0	43	104	0	66	14900
2026-01-26 10:24:43.96	100.88	30.57	-47.9	-59.8	3.8	8.47e-01	0	44	104	0	66	14892
2026-01-26 10:24:44.97	100.68	30.74	-47.9	-59.8	3.8	8.46e-01	0	43	104	0	66	14911
2026-01-26 10:24:45.97	100.48	30.90	-47.9	-59.8	3.8	8.46e-01	0	44	104	0	66	14934
2026-01-26 10:24:46.98	100.28	31.06	-47.9	-59.8	3.8	8.45e-01	0	44	104	0	66	14889
2026-01-26 10:24:47.99	100.07	31.23	-47.9	-59.8	3.8	8.46e-01	0	44	104	0	66	14924
2026-01-26 10:24:48.99	99.87	31.39	-47.9	-59.7	3.8	8.46e-01	0	44	104	0	66	14873
2026-01-26 10:24:50.00	99.66	31.56	-47.9	-59.8	3.8	8.47e-01	0	44	104	0	66	14885
2026-01-26 10:24:51.01	99.45	31.72	-47.9	-59.8	3.8	8.45e-01	0	44	104	0	66	14907
2026-01-26 10:24:52.02	99.23	31.89	-47.9	-59.8	3.8	8.46e-01	0	43	104	0	66	14937
2026-01-26 10:24:53.03	99.02	32.06	-47.9	-59.8	3.8	8.47e-01	0	44	104	0	66	14886
2026-01-26 10:24:54.03	98.80	32.23	-47.9	-59.8	3.8	8.47e-01	0	44	104	0	66	14953
2026-01-26 10:24:55.04	98.58	32.39	-47.9	-59.8	3.8	8.45e-01	0	44	104	0	66	14897
2026-01-26 10:24:56.05	98.36	32.56	-47.9	-59.8	3.8	8.46e-01	0	43	104	0	66	14914
2026-01-26 10:24:57.06	98.14	32.73	-47.9	-59.8	3.8	8.46e-01	0	44	104	0	66	14930
2026-01-26 10:24:58.07	97.91	32.90	-47.9	-59.8	3.8	8.46e-01	0	44	104	0	66	14915
2026-01-26 10:24:59.08	97.68	33.07	-47.9	-59.7	3.8	8.46e-01	0	44	104	0	66	14879
2026-01-26 10:25:00.09	97.45	33.24	-47.9	-59.7	3.8	8.46e-01	0	44	104	0	66	14865
2026-01-26 10:25:01.09	97.21	33.41	-47.9	-59.8	3.8	8.45e-01	0	44	104	0	66	14888
2026-01-26 10:25:02.10	96.98	33.59	-47.9	-59.8	3.8	8.46e-01	0	44	104	0	66	14887
2026-01-26 10:25:03.11	96.74	33.76	-47.9	-59.8	3.8	8.46e-01	0	44	104	0	66	14894
2026-01-26 10:25:04.12	96.50	33.93	-47.9	-59.8	3.8	8.46e-01	0	44	104	0	66	14884
2026-01-26 10:25:05.13	96.25	34.10	-47.9	-59.8	3.8	8.46e-01	0	44	104	0	66	14933
2026-01-26 10:25:06.13	96.01	34.27	-47.9	-59.8	3.8	8.46e-01	0	44	104	0	66	14887
2026-01-26 10:25:07.14	95.75	34.45	-47.9	-59.8	3.8	8.46e-01	0	43	104	0	66	14895
2026-01-26 10:25:08.15	95.50	34.62	-47.9	-59.7	3.8	8.46e-01	0	44	104	0	66	14859
2026-01-26 10:25:09.16	95.25	34.80	-47.9	-59.8	3.8	8.46e-01	0	44	104	0	66	14919
2026-01-26 10:25:10.16	94.99	34.97	-47.9	-59.8	3.8	8.47e-01	0	43	104	0	66	14885
2026-01-26 10:25:11.17	94.73	35.14	-47.9	-59.8	3.8	8.46e-01	0	44	104	0	66	14885
2026-01-26 10:25:12.18	94.47	35.32	-47.9	-59.8	3.8	8.47e-01	0	44	104	0	66	14920
2026-01-26 10:25:13.18	94.20	35.49	-47.9	-59.8	3.8	8.46e-01	0	44	104	0	66	14944
2026-01-26 10:25:14.19	93.93	35.67	-47.9	-59.8	3.8	8.45e-01	0	44	104	0	66	14906
2026-01-26 10:25:15.20	93.66	35.84	-47.9	-59.8	3.8	8.46e-01	0	44	104	0	66	14898
2026-01-26 10:25:16.21	93.38	36.02	-47.9	-59.7	3.8	8.47e-01	0	44	104	0	66	14857
2026-01-26 10:25:17.22	93.10	36.19	-47.9	-59.7	3.8	8.46e-01	0	44	104	0	66	14857
2026-01-26 10:25:18.23	92.82	36.37	-47.9	-59.7	3.8	8.47e-01	0	44	104	0	66	14874
2026-01-26 10:25:19.24	92.54	36.55	-47.9	-59.8	3.8	8.47e-01	0	44	104	0	66	14888
2026-01-26 10:25:20.25	92.25	36.72	-47.9	-59.8	3.8	8.46e-01	0	44	104	0	66	14913
2026-01-26 10:25:21.25	91.96	36.90	-47.9	-59.7	3.8	8.47e-01	0	44	104	0	66	14871
2026-01-26 10:25:22.26	91.67	37.08	-47.9	-59.8	3.8	8.47e-01	0	44	104	0	66	14902
2026-01-26 10:25:23.27	91.37	37.25	-47.9	-59.8	3.8	8.46e-01	0	43	104	0	66	14899
2026-01-26 10:25:24.28	91.07	37.43	-47.9	-59.8	3.8	8.47e-01	0	44	104	0	66	14929
2026-01-26 10:25:25.29	90.77	37.61	-47.9	-59.8	3.8	8.48e-01	0	44	104	0	66	14900
2026-01-26 10:25:26.29	90.46	37.78	-47.9	-59.8	3.8	8.46e-01	0	44	104	0	66	14922
2026-01-26 10:25:27.30	90.15	37.96	-47.9	-59.8	3.8	8.47e-01	0	43	104	0	66	14946
2026-01-26 10:25:28.31	89.84	38.14	-47.9	-59.8	3.8	8.46e-01	0	44	104	0	66	14926
2026-01-26 10:25:29.31	89.52	38.31	-47.9	-59.8	3.8	8.47e-01	0	44	104	0	66	14898
2026-01-26 10:25:30.33	89.20	38.49	-47.9	-59.8	3.8	8.47e-01	0	44	104	0	66	14898
2026-01-26 10:25:31.33	88.88	38.66	-47.9	-59.8	3.8	8.47e-01	0	43	104	0	66	14897
2026-01-26 10:25:32.34	88.55	38.84	-47.9	-59.8	3.8	8.46e-01	0	43	104	0	66	14913
2026-01-26 10:25:33.35	88.22	39.02	-47.9	-59.8	3.8	8.45e-01	0	44	104	0	66	14933
2026-01-26 10:25:34.36	87.88	39.19	-47.9	-59.8	3.8	8.47e-01	0	44	104	0	66	14920
2026-01-26 10:25:35.37	87.54	39.37	-47.9	-59.8	3.8	8.46e-01	0	44	104	0	66	14896
2026-01-26 10:25:36.37	87.20	39.54	-47.9	-59.8	3.8	8.45e-01	0	44	104	0	66	14902
2026-01-26 10:25:37.38	86.85	39.72	-47.9	-59.7	3.8	8.47e-01	0	44	104	0	66	14856
2026-01-26 10:25:38.39	86.50	39.89	-47.9	-59.7	3.8	8.46e-01	0	44	104	0	66	14879
2026-01-26 10:25:39.40	86.15	40.07	-47.9	-59.8	3.8	8.46e-01	0	44	104	0	66	14896
2026-01-26 10:25:40.40	85.80	40.24	-47.9	-59.7	3.8	8.46e-01	0	44	104	0	66	14873
2026-01-26 10:25:41.41	85.43	40.41	-47.9	-59.8	3.8	8.46e-01	0	44	104	0	66	14898
2026-01-26 10:25:42.42	85.07	40.59	-47.9	-59.8	3.8	8.47e-01	0	44	104	0	66	14890
2026-01-26 10:25:43.42	84.70	40.76	-47.9	-59.8	3.8	8.46e-01	0	44	104	0	66	14920
2026-01-26 10:25:44.43	84.33	40.93	-47.9	-59.8	3.8	8.46e-01	0	44	104	0	66	14885
2026-01-26 10:25:45.44	83.95	41.10	-47.9	-59.8	3.8	8.46e-01	0	44	104	0	66	14906
2026-01-26 10:25:46.45	83.57	41.27	-47.9	-59.7	3.8	8.46e-01	0	44	104	0	66	14832
2026-01-26 10:25:47.46	83.18	41.44	-47.9	-59.7	3.8	8.45e-01	0	44	104	0	66	14879
2026-01-26 10:25:48.47	82.79	41.61	-47.9	-59.8	3.8	8.46e-01	0	44	104	0	66	14904
2026-01-26 10:25:49.48	82.40	41.78	-47.9	-59.8	3.8	8.46e-01	0	44	104	0	66	14909
2026-01-26 10:25:50.49	82.00	41.95	-47.9	-59.8	3.8	8.46e-01	0	44	104	0	66	14886
2026-01-26 10:25:51.49	81.60	42.11	-47.9	-59.8	3.8	8.46e-01	0	44	104	0	66	14942
2026-01-26 10:25:52.50	81.20	42.28	-47.9	-59.8	3.8	8.45e-01	0	44	104	0	66	14894
2026-01-26 10:25:53.51	80.79	42.45	-47.9	-59.8	3.8	8.45e-01	0	44	104	0	66	14945
2026-01-26 10:25:54.52	80.37	42.61	-47.9	-59.8	3.8	8.47e-01	0	43	104	0	66	14889
2026-01-26 10:25:55.53	79.95	42.77	-47.9	-59.8	3.8	8.47e-01	0	43	104	0	66	14915
2026-01-26 10:25:56.53	79.53	42.93	-47.9	-59.8	3.8	8.46e-01	0	44	104	0	66	14916
2026-01-26 10:25:57.54	79.10	43.10	-47.9	-59.8	3.8	8.46e-01	0	44	104	0	66	14917
2026-01-26 10:25:58.55	78.67	43.26	-47.8	-59.7	3.8	8.48e-01	0	44	104	0	66	14878
2026-01-26 10:25:59.55	78.24	43.41	-47.9	-59.8	3.8	8.45e-01	0	44	104	0	66	14902
2026-01-26 10:26:00.56	77.80	43.57	-47.9	-59.8	3.8	8.47e-01	0	44	104	0	66	14891
2026-01-26 10:26:01.57	77.35	43.73	-47.9	-59.8	3.8	8.45e-01	0	44	104	0	66	14932
2026-01-26 10:26:02.58	76.90	43.88	-47.9	-59.7	3.8	8.48e-01	0	44	104	0	66	14859
2026-01-26 10:26:03.59	76.45	44.04	-47.9	-59.8	3.8	8.46e-01	0	44	104	0	66	14926
2026-01-26 10:26:04.59	76.00	44.19	-47.9	-59.8	3.8	8.46e-01	0	44	104	0	66	14936
2026-01-26 10:26:05.60	75.53	44.34	-47.9	-59.8	3.8	8.46e-01	0	44	104	0	66	14918
2026-01-26 10:26:06.61	75.07	44.49	-47.9	-59.8	3.8	8.46e-01	0	43	104	0	66	14903
2026-01-26 10:26:07.61	74.60	44.63	-47.9	-59.8	3.8	8.45e-01	0	44	104	0	66	14904
2026-01-26 10:26:08.62	74.12	44.78	-47.9	-59.8	3.8	8.47e-01	0	44	104	0	66	14902
2026-01-26 10:26:09.63	73.64	44.92	-47.9	-59.8	3.8	8.45e-01	0	44	104	0	66	14944
2026-01-26 10:26:10.64	73.16	45.07	-47.9	-59.8	3.8	8.45e-01	0	44	104	0	66	14884
2026-01-26 10:26:11.65	72.67	45.21	-47.9	-59.8	3.8	8.46e-01	0	44	104	0	66	14892
2026-01-26 10:26:12.65	72.18	45.35	-47.9	-59.8	3.8	8.46e-01	0	44	104	0	66	14927
2026-01-26 10:26:13.66	71.68	45.48	-47.9	-59.8	3.8	8.47e-01	0	44	104	0	66	14887
2026-01-26 10:26:14.67	71.18	45.62	-47.9	-59.8	3.8	8.47e-01	0	44	104	0	66	14893
2026-01-26 10:26:15.67	70.68	45.75	-47.9	-59.8	3.8	8.46e-01	0	44	104	0	66	14937
2026-01-26 10:26:16.68	70.17	45.88	-47.9	-59.8	3.8	8.47e-01	0	44	104	0	66	14893
2026-01-26 10:26:17.69	69.66	46.01	-47.9	-59.8	3.8	8.46e-01	0	44	104	0	66	14942
2026-01-26 10:26:18.69	69.14	46.14	-47.9	-59.8	3.8	8.47e-01	0	44	104	0	66	14919
2026-01-26 10:26:19.70	68.62	46.26	-47.9	-59.8	3.8	8.47e-01	0	44	104	0	66	14924
2026-01-26 10:26:20.71	68.09	46.38	-47.9	-59.8	3.8	8.46e-01	0	44	104	0	66	14923
2026-01-26 10:26:21.71	67.57	46.50	-47.9	-59.8	3.8	8.46e-01	0	44	104	0	66	14907
2026-01-26 10:26:22.72	67.03	46.62	-47.9	-59.8	3.8	8.45e-01	0	44	104	0	66	14920
2026-01-26 10:26:23.73	66.49	46.73	-47.9	-59.8	3.8	8.47e-01	0	44	104	0	66	14896
2026-01-26 10:26:24.74	65.95	46.85	-47.9	-59.7	3.8	8.46e-01	0	44	104	0	66	14876
2026-01-26 10:26:25.75	65.40	46.96	-47.9	-59.7	3.8	8.45e-01	0	44	104	0	66	14878
2026-01-26 10:26:26.76	64.85	47.06	-47.9	-59.7	3.8	8.46e-01	0	44	104	0	66	14866
2026-01-26 10:26:27.77	64.30	47.17	-47.9	-59.8	3.8	8.46e-01	0	44	104	0	66	14902
2026-01-26 10:26:28.77	63.74	47.27	-47.9	-59.8	3.8	8.45e-01	0	44	104	0	66	14924
2026-01-26 10:26:29.78	63.18	47.37	-47.9	-59.7	3.8	8.46e-01	0	44	104	0	66	14874
2026-01-26 10:26:30.79	62.62	47.47	-47.9	-59.8	3.8	8.47e-01	0	44	104	0	66	14902
2026-01-26 10:26:31.79	62.05	47.56	-47.9	-59.7	3.8	8.45e-01	0	44	104	0	66	14877
2026-01-26 10:26:32.80	61.48	47.65	-47.9	-59.8	3.8	8.46e-01	0	44	104	0	66	14902
2026-01-26 10:26:33.81	60.90	47.74	-47.9	-59.8	3.8	8.46e-01	0	44	104	0	66	14884
2026-01-26 10:26:34.81	60.33	47.82	-47.9	-59.8	3.8	8.46e-01	0	44	104	0	66	14886
2026-01-26 10:26:35.82	59.75	47.90	-47.9	-59.8	3.8	8.45e-01	0	43	104	0	66	14926
2026-01-26 10:26:36.83	59.16	47.98	-47.9	-59.8	3.8	8.46e-01	0	44	104	0	66	14914
2026-01-26 10:26:37.84	58.58	48.06	-47.9	-59.8	3.8	8.47e-01	0	44	104	0	66	14900
2026-01-26 10:26:38.84	57.99	48.13	-47.9	-59.8	3.8	8.45e-01	0	43	104	0	66	14960
2026-01-26 10:26:39.85	57.40	48.20	-47.9	-59.8	3.8	8.45e-01	0	44	104	0	66	14919
2026-01-26 10:26:40.86	56.80	48.26	-47.9	-59.8	3.8	8.46e-01	0	44	104	0	66	14969
2026-01-26 10:26:41.87	56.20	48.33	-47.9	-59.8	3.8	8.47e-01	0	44	104	0	66	14926
2026-01-26 10:26:42.87	55.61	48.39	-47.9	-59.8	3.8	8.45e-01	0	44	104	0	66	14919
2026-01-26 10:26:43.88	55.01	48.44	-47.9	-59.8	3.8	8.46e-01	0	44	104	0	66	14918
2026-01-26 10:26:44.89	54.40	48.49	-47.9	-59.8	3.8	8.46e-01	0	44	104	0	66	14900
2026-01-26 10:26:45.90	53.79	48.54	-47.9	-59.8	3.8	8.46e-01	0	44	104	0	66	14904
2026-01-26 10:26:46.90	53.19	48.59	-47.9	-59.7	3.8	8.46e-01	0	44	104	0	66	14862
2026-01-26 10:26:47.91	52.58	48.63	-47.9	-59.8	3.8	8.45e-01	0	44	104	0	66	14880
2026-01-26 10:26:48.92	51.97	48.67	-47.9	-59.8	3.8	8.46e-01	0	44	104	0	66	14914
2026-01-26 10:26:49.93	51.35	48.71	-47.9	-59.8	3.8	8.46e-01	0	43	104	0	66	14895
2026-01-26 10:26:50.94	50.74	48.74	-47.9	-59.8	3.8	8.46e-01	0	44	104	0	66	14920
2026-01-26 10:26:51.95	50.12	48.77	-47.9	-59.8	3.8	8.46e-01	0	44	104	0	66	14912
2026-01-26 10:26:52.96	49.50	48.79	-47.9	-59.8	3.8	8.45e-01	0	44	104	0	66	14893
2026-01-26 10:26:53.96	48.89	48.81	-47.9	-59.8	3.8	8.45e-01	0	44	104	0	66	14905
2026-01-26 10:26:54.97	48.27	48.83	-47.9	-59.7	3.8	8.45e-01	0	44	104	0	66	14878
2026-01-26 10:26:55.98	47.65	48.84	-47.9	-59.8	3.8	8.46e-01	0	44	104	0	66	14912
2026-01-26 10:26:56.99	47.03	48.85	-47.9	-59.8	3.8	8.46e-01	0	44	104	0	66	14886
2026-01-26 10:26:57.99	46.42	48.86	-47.9	-59.8	3.8	8.47e-01	0	44	104	0	66	14919
2026-01-26 10:26:59.00	45.80	48.86	-47.9	-59.8	3.8	8.47e-01	0	44	104	0	66	14932
2026-01-26 10:27:00.01	45.17	48.86	-47.9	-59.8	3.8	8.46e-01	0	44	104	0	66	14927
2026-01-26 10:27:01.02	44.55	48.86	-47.9	-59.8	3.8	8.46e-01	0	44	104	0	66	14894
2026-01-26 10:27:02.02	43.94	48.85	-47.9	-59.8	3.8	8.46e-01	0	44	104	0	66	14906
2026-01-26 10:27:03.03	43.32	48.84	-47.9	-59.8	3.8	8.46e-01	0	44	104	0	66	14918
2026-01-26 10:27:04.03	42.71	48.83	-47.9	-59.8	3.8	8.47e-01	0	44	104	0	66	14904
2026-01-26 10:27:05.04	42.09	48.81	-47.9	-59.8	3.8	8.45e-01	0	44	104	0	66	14893
2026-01-26 10:27:06.05	41.47	48.78	-47.9	-59.8	3.8	8.47e-01	0	44	104	0	66	14905
2026-01-26 10:27:07.06	40.85	48.76	-47.9	-59.8	3.8	8.47e-01	0	44	104	0	66	14900
2026-01-26 10:27:08.06	40.24	48.73	-47.9	-59.8	3.8	8.47e-01	0	44	104	0	66	14913
2026-01-26 10:27:09.07	39.63	48.70	-47.9	-59.7	3.8	8.45e-01	0	44	104	0	66	14879
2026-01-26 10:27:10.07	39.02	48.66	-47.9	-59.8	3.8	8.46e-01	0	44	104	0	66	14946
2026-01-26 10:27:11.08	38.41	48.62	-47.9	-59.7	3.8	8.46e-01	0	44	104	0	66	14866
2026-01-26 10:27:12.09	37.80	48.58	-47.9	-59.8	3.8	8.47e-01	0	44	104	0	66	14904
2026-01-26 10:27:13.10	37.19	48.53	-47.9	-59.7	3.8	8.47e-01	0	44	104	0	66	14877
2026-01-26 10:27:14.10	36.59	48.48	-47.9	-59.8	3.8	8.46e-01	0	44	104	0	66	14894
2026-01-26 10:27:15.11	35.98	48.43	-47.9	-59.8	3.8	8.47e-01	0	44	104	0	66	14937
2026-01-26 10:27:16.12	35.38	48.37	-47.8	-59.7	3.8	8.46e-01	0	44	104	0	66	14876
2026-01-26 10:27:17.13	34.78	48.31	-47.9	-59.8	3.8	8.45e-01	0	44	104	0	66	14884
2026-01-26 10:27:18.13	34.19	48.25	-47.9	-59.8	3.8	8.46e-01	0	44	104	0	66	14942
2026-01-26 10:27:19.14	33.60	48.18	-47.9	-59.8	3.8	8.47e-01	0	44	104	0	66	14933
2026-01-26 10:27:20.15	33.00	48.11	-47.9	-59.8	3.8	8.46e-01	0	44	104	0	66	14930
2026-01-26 10:27:21.17	32.41	48.04	-47.9	-59.8	3.8	8.47e-01	0	44	104	0	66	14953
2026-01-26 10:27:22.17	31.83	47.96	-47.9	-59.8	3.8	8.46e-01	0	44	104	0	66	14946
2026-01-26 10:27:23.18	31.24	47.88	-47.9	-59.8	3.8	8.46e-01	0	44	104	0	66	14922
2026-01-26 10:27:24.18	30.67	47.80	-47.9	-59.8	3.8	8.45e-01	0	44	104	0	66	14891
2026-01-26 10:27:25.19	30.09	47.72	-47.9	-59.8	3.8	8.46e-01	0	44	104	0	66	14900
2026-01-26 10:27:26.20	29.52	47.63	-47.9	-59.7	3.8	8.47e-01	0	44	104	0	66	14871
2026-01-26 10:27:27.21	28.94	47.54	-47.9	-59.7	3.8	8.47e-01	0	44	104	0	66	14877
2026-01-26 10:27:28.22	28.38	47.44	-47.9	-59.8	3.8	8.47e-01	0	44	104	0	66	14956
2026-01-26 10:27:29.23	27.81	47.34	-47.9	-59.8	3.8	8.46e-01	0	44	104	0	66	14882
2026-01-26 10:27:30.24	27.25	47.24	-47.9	-59.8	3.8	8.46e-01	0	44	104	0	66	14902
2026-01-26 10:27:31.24	26.70	47.14	-47.9	-59.8	3.8	8.45e-01	0	44	104	0	66	14890
2026-01-26 10:27:32.25	26.15	47.04	-47.9	-59.8	3.8	8.46e-01	0	44	104	0	66	14894
2026-01-26 10:27:33.26	25.60	46.93	-47.9	-59.7	3.8	8.46e-01	0	44	104	0	66	14878
2026-01-26 10:27:34.27	25.05	46.82	-47.9	-59.8	3.8	8.47e-01	0	44	104	0	66	14890
2026-01-26 10:27:35.28	24.51	46.70	-47.9	-59.8	3.8	8.45e-01	0	44	104	0	66	14896
2026-01-26 10:27:36.29	23.97	46.59	-47.9	-59.8	3.8	8.46e-01	0	44	104	0	66	14915
2026-01-26 10:27:37.29	23.45	46.47	-47.9	-59.8	3.8	8.47e-01	0	44	104	0	66	14907
2026-01-26 10:27:38.31	22.91	46.35	-47.9	-59.8	3.8	8.47e-01	0	44	104	0	66	14921
2026-01-26 10:27:39.31	22.39	46.23	-47.9	-59.8	3.8	8.46e-01	0	44	104	0	66	14909
2026-01-26 10:27:40.33	21.86	46.10	-47.9	-59.8	3.8	8.46e-01	0	43	104	0	66	14940
2026-01-26 10:27:41.33	21.35	45.98	-47.9	-59.8	3.8	8.46e-01	0	43	104	0	66	14905
2026-01-26 10:27:42.34	20.84	45.85	-47.9	-59.8	3.8	8.46e-01	0	44	104	0	66	14908
2026-01-26 10:27:43.34	20.34	45.72	-47.9	-59.8	3.8	8.45e-01	0	44	104	0	66	14942
2026-01-26 10:27:44.35	19.83	45.58	-47.9	-59.8	3.8	8.46e-01	0	44	104	0	66	14927
2026-01-26 10:27:45.36	19.33	45.45	-47.9	-59.8	3.8	8.46e-01	0	44	104	0	66	14917
2026-01-26 10:27:46.37	18.84	45.31	-47.9	-59.7	3.8	8.46e-01	0	44	104	0	66	14878
2026-01-26 10:27:47.38	18.34	45.17	-47.9	-59.7	3.8	8.46e-01	0	44	104	0	66	14852
2026-01-26 10:27:48.39	17.86	45.03	-47.9	-59.8	3.8	8.47e-01	0	44	104	0	66	14893
2026-01-26 10:27:49.40	17.37	44.89	-47.9	-59.8	3.8	8.45e-01	0	44	104	0	66	14880
2026-01-26 10:27:50.40	16.90	44.74	-47.9	-59.8	3.8	8.46e-01	0	44	104	0	66	14924
2026-01-26 10:27:51.40	16.43	44.60	-47.9	-59.8	3.8	8.47e-01	0	44	104	0	66	14933
2026-01-26 10:27:52.41	15.96	44.45	-47.9	-59.8	3.8	8.46e-01	0	44	104	0	66	14895
2026-01-26 10:27:53.42	15.50	44.30	-47.9	-59.8	3.8	8.46e-01	0	44	104	0	66	14915
2026-01-26 10:27:54.43	15.04	44.15	-47.9	-59.8	3.8	8.46e-01	0	44	104	0	66	14911
2026-01-26 10:27:55.44	14.58	44.00	-47.9	-59.8	3.8	8.46e-01	0	44	104	0	66	14896
2026-01-26 10:27:56.45	14.13	43.84	-47.9	-59.8	3.8	8.46e-01	0	44	104	0	66	14928
2026-01-26 10:27:57.46	13.68	43.69	-47.9	-59.8	3.8	8.47e-01	0	44	104	0	66	14915
2026-01-26 10:27:58.46	13.24	43.53	-47.9	-59.8	3.8	8.46e-01	0	44	104	0	66	14889
2026-01-26 10:27:59.47	12.80	43.38	-47.9	-59.8	3.8	8.46e-01	0	44	104	0	66	14923
2026-01-26 10:28:00.48	12.37	43.22	-47.9	-59.8	3.8	8.45e-01	0	44	104	0	66	14922
2026-01-26 10:28:01.49	11.94	43.06	-47.9	-59.8	3.8	8.46e-01	0	44	104	0	66	14910
2026-01-26 10:28:02.50	11.51	42.90	-47.9	-59.8	3.8	8.46e-01	0	44	104	0	66	14906
2026-01-26 10:28:03.51	11.09	42.73	-47.9	-59.8	3.8	8.46e-01	0	44	104	0	66	14942
2026-01-26 10:28:04.52	10.67	42.57	-47.9	-59.8	3.8	8.46e-01	0	44	104	0	66	14938
2026-01-26 10:28:05.53	10.26	42.41	-47.9	-59.8	3.8	8.46e-01	0	44	104	0	66	14932
2026-01-26 10:28:06.53	9.85	42.24	-47.9	-59.8	3.8	8.46e-01	0	44	104	0	66	14919
2026-01-26 10:28:07.54	9.45	42.08	-47.9	-59.8	3.8	8.46e-01	0	44	104	0	66	14915
2026-01-26 10:28:08.55	9.05	41.91	-47.9	-59.8	3.8	8.46e-01	0	44	104	0	66	14895
2026-01-26 10:28:09.55	8.66	41.74	-47.9	-59.8	3.8	8.46e-01	0	44	104	0	66	14915
2026-01-26 10:28:10.56	8.26	41.57	-47.9	-59.8	3.8	8.46e-01	0	44	104	0	66	14898
2026-01-26 10:28:11.57	7.88	41.40	-47.9	-59.8	3.8	8.47e-01	0	44	104	0	66	14906
2026-01-26 10:28:12.57	7.50	41.24	-47.9	-59.8	3.8	8.47e-01	0	44	104	0	66	14949
2026-01-26 10:28:13.58	7.12	41.06	-47.9	-59.8	3.8	8.47e-01	0	44	104	0	66	14932
2026-01-26 10:28:14.59	6.74	40.89	-47.9	-59.8	3.8	8.46e-01	0	44	104	0	66	14945
2026-01-26 10:28:15.60	6.37	40.72	-47.9	-59.8	3.8	8.46e-01	0	44	104	0	66	14932
2026-01-26 10:28:16.61	6.00	40.55	-47.9	-59.8	3.8	8.46e-01	0	44	104	0	66	14893
2026-01-26 10:28:17.62	5.64	40.38	-47.9	-59.8	3.8	8.47e-01	0	44	104	0	66	14918
2026-01-26 10:28:18.62	5.28	40.20	-47.9	-59.8	3.8	8.47e-01	0	44	104	0	66	14935
2026-01-26 10:28:19.63	4.92	40.03	-47.9	-59.8	3.8	8.46e-01	0	44	104	0	66	14880
2026-01-26 10:28:20.64	4.57	39.86	-47.9	-59.8	3.8	8.45e-01	0	44	104	0	66	14925
2026-01-26 10:28:21.64	4.23	39.68	-47.9	-59.8	3.8	8.47e-01	0	44	104	0	66	14941
2026-01-26 10:28:22.65	3.88	39.51	-47.9	-59.8	3.8	8.46e-01	0	44	104	0	66	14881
2026-01-26 10:28:23.66	3.54	39.33	-47.9	-59.8	3.8	8.46e-01	0	44	104	0	66	14887
2026-01-26 10:28:24.67	3.20	39.16	-47.9	-59.8	3.8	8.47e-01	0	44	104	0	66	14893
2026-01-26 10:28:25.68	2.87	38.98	-47.9	-59.8	3.8	8.47e-01	0	44	104	0	66	14914
2026-01-26 10:28:26.69	2.54	38.81	-47.9	-59.7	3.8	8.47e-01	0	44	104	0	66	14869
2026-01-26 10:28:27.70	2.21	38.63	-48.0	-59.8	3.8	8.45e-01	0	44	104	0	66	14887
2026-01-26 10:28:28.71	1.89	38.45	-47.9	-59.8	3.8	8.46e-01	0	44	104	0	66	14917
2026-01-26 10:28:29.71	1.57	38.28	-47.9	-59.8	3.8	8.47e-01	0	44	104	0	66	14900
2026-01-26 10:28:30.72	1.26	38.10	-47.9	-59.8	3.8	8.45e-01	0	44	104	0	66	14897
2026-01-26 10:28:31.73	0.94	37.93	-47.9	-59.8	3.8	8.47e-01	0	44	104	0	66	14939
2026-01-26 10:28:32.74	0.63	37.75	-47.9	-59.8	3.8	8.46e-01	0	44	104	0	66	14905
2026-01-26 10:28:33.74	0.33	37.58	-47.8	-59.8	3.8	8.46e-01	0	44	104	0	66	14911
2026-01-26 10:28:34.75	0.03	37.40	-47.9	-59.8	3.8	8.47e-01	0	44	104	0	66	14933
2026-01-26 10:28:35.76	359.73	37.22	-47.9	-59.8	3.8	8.46e-01	0	44	104	0	66	14930
2026-01-26 10:28:36.77	359.43	37.05	-47.9	-59.8	3.8	8.46e-01	0	44	104	0	66	14922
2026-01-26 10:28:37.78	359.14	36.87	-47.9	-59.7	3.8	8.46e-01	0	44	104	0	66	14848
2026-01-26 10:28:38.79	358.85	36.69	-47.9	-59.8	3.8	8.47e-01	0	44	104	0	66	14909
2026-01-26 10:28:39.79	358.57	36.52	-47.9	-59.8	3.8	8.47e-01	0	43	104	0	66	14935
2026-01-26 10:28:40.80	358.28	36.34	-47.9	-59.8	3.8	8.46e-01	0	44	104	0	66	14906
2026-01-26 10:28:41.81	358.00	36.17	-47.9	-59.8	3.8	8.45e-01	0	44	104	0	66	14909
2026-01-26 10:28:42.81	357.73	35.99	-47.9	-59.8	3.8	8.46e-01	0	44	104	0	66	14903
2026-01-26 10:28:43.82	357.46	35.82	-47.9	-59.8	3.8	8.47e-01	0	44	104	0	66	14903
2026-01-26 10:28:44.83	357.18	35.64	-47.9	-59.8	3.8	8.46e-01	0	44	104	0	66	14890
2026-01-26 10:28:45.83	356.92	35.47	-47.9	-59.8	3.8	8.46e-01	0	44	104	0	66	14904
2026-01-26 10:28:46.84	356.65	35.30	-47.9	-59.8	3.8	8.46e-01	0	44	104	0	66	14908
2026-01-26 10:28:47.85	356.39	35.12	-47.9	-59.8	3.8	8.47e-01	0	44	104	0	66	14900
2026-01-26 10:28:48.86	356.13	34.95	-47.9	-59.8	3.8	8.46e-01	0	44	104	0	66	14899
2026-01-26 10:28:49.87	355.87	34.77	-47.9	-59.8	3.8	8.47e-01	0	44	104	0	66	14934
2026-01-26 10:28:50.88	355.62	34.60	-47.9	-59.8	3.8	8.46e-01	0	44	104	0	66	14905
2026-01-26 10:28:51.89	355.37	34.43	-47.9	-59.8	3.8	8.45e-01	0	44	104	0	66	14908
2026-01-26 10:28:52.90	355.12	34.25	-47.9	-59.8	3.8	8.46e-01	0	44	104	0	66	14887
2026-01-26 10:28:53.91	354.87	34.08	-47.9	-59.8	3.8	8.46e-01	0	44	104	0	66	14926
2026-01-26 10:28:54.92	354.63	33.91	-47.9	-59.8	3.8	8.45e-01	0	43	104	0	66	14881
2026-01-26 10:28:55.93	354.39	33.74	-47.9	-59.8	3.8	8.45e-01	0	44	104	0	66	14905
2026-01-26 10:28:56.93	354.15	33.57	-47.9	-59.8	3.8	8.46e-01	0	44	104	0	66	14901
2026-01-26 10:28:57.94	353.92	33.40	-48.0	-59.8	3.8	8.46e-01	0	44	104	0	66	14926
2026-01-26 10:28:58.95	353.68	33.22	-47.9	-59.8	3.8	8.46e-01	0	44	104	0	66	14935
2026-01-26 10:28:59.96	353.45	33.05	-47.9	-59.8	3.8	8.46e-01	0	44	104	0	66	14925
2026-01-26 10:29:00.97	353.22	32.88	-47.9	-59.8	3.8	8.46e-01	0	44	104	0	66	14888
2026-01-26 10:29:01.97	353.00	32.72	-47.9	-59.8	3.8	8.46e-01	0	44	104	0	66	14911
2026-01-26 10:29:02.98	352.78	32.55	-47.9	-59.7	3.8	8.47e-01	0	44	104	0	66	14871
2026-01-26 10:29:03.99	352.55	32.38	-47.9	-59.8	3.8	8.46e-01	0	44	104	0	66	14902
2026-01-26 10:29:05.00	352.34	32.21	-47.9	-59.8	3.8	8.46e-01	0	44	104	0	66	14896
2026-01-26 10:29:06.01	352.12	32.04	-47.9	-59.8	3.8	8.46e-01	0	44	104	0	66	14910
2026-01-26 10:29:07.02	351.90	31.88	-48.0	-59.8	3.8	8.46e-01	0	44	104	0	66	14917
2026-01-26 10:29:08.03	351.69	31.71	-48.0	-59.8	3.8	8.46e-01	0	44	104	0	66	14925
2026-01-26 10:29:09.03	351.48	31.55	-47.9	-59.8	3.8	8.45e-01	0	44	104	0	66	14907
2026-01-26 10:29:10.04	351.28	31.38	-48.0	-59.8	3.8	8.46e-01	0	44	104	0	66	14890
2026-01-26 10:29:11.05	351.07	31.22	-47.9	-59.8	3.8	8.46e-01	0	44	104	0	66	14918
2026-01-26 10:29:12.06	350.87	31.05	-47.9	-59.8	3.8	8.46e-01	0	44	104	0	66	14907
2026-01-26 10:29:13.07	350.66	30.89	-47.9	-59.8	3.8	8.46e-01	0	43	104	0	66	14932
2026-01-26 10:29:14.07	350.47	30.72	-47.9	-59.8	3.8	8.45e-01	0	44	104	0	66	14931
2026-01-26 10:29:15.08	350.27	30.56	-47.9	-59.8	3.8	8.46e-01	0	44	104	0	66	14893
2026-01-26 10:29:16.09	350.07	30.40	-47.9	-59.8	3.8	8.46e-01	0	43	104	0	66	14919
2026-01-26 10:29:17.10	349.88	30.24	-47.9	-59.8	3.8	8.46e-01	0	44	104	0	66	14916
2026-01-26 10:29:18.10	349.69	30.08	-48.0	-59.8	3.8	8.46e-01	0	43	104	0	66	14931
2026-01-26 10:29:19.11	349.50	29.92	-47.9	-59.8	3.8	8.46e-01	0	44	104	0	66	14915
2026-01-26 10:29:20.12	349.31	29.76	-47.9	-59.8	3.8	8.47e-01	0	44	104	0	66	14926
2026-01-26 10:29:21.13	349.13	29.60	-47.9	-59.7	3.8	8.46e-01	0	44	104	0	66	14864
2026-01-26 10:29:22.14	348.94	29.44	-47.9	-59.8	3.8	8.46e-01	0	43	104	0	66	14883
2026-01-26 10:29:23.15	348.76	29.28	-47.9	-59.7	3.8	8.48e-01	0	44	104	0	66	14865
2026-01-26 10:29:24.16	348.58	29.12	-47.9	-59.8	3.8	8.46e-01	0	44	104	0	66	14895
2026-01-26 10:29:25.16	348.40	28.96	-47.9	-59.7	3.8	8.46e-01	0	44	104	0	66	14873
2026-01-26 10:29:26.17	348.23	28.81	-47.9	-59.8	3.8	8.47e-01	0	44	104	0	66	14892
2026-01-26 10:29:27.18	348.05	28.65	-47.9	-59.8	3.8	8.46e-01	0	44	104	0	66	14950
2026-01-26 10:29:28.19	347.88	28.50	-47.9	-59.8	3.8	8.46e-01	0	44	104	0	66	14907
2026-01-26 10:29:29.19	347.71	28.34	-47.9	-59.8	3.8	8.46e-01	0	44	104	0	66	14939
2026-01-26 10:29:30.20	347.54	28.19	-47.9	-59.8	3.8	8.46e-01	0	44	104	0	66	14909
2026-01-26 10:29:31.21	347.37	28.03	-47.9	-59.8	3.8	8.46e-01	0	44	104	0	66	14905
2026-01-26 10:29:32.22	347.21	27.88	-47.9	-59.8	3.8	8.46e-01	0	44	104	0	66	14902
2026-01-26 10:29:33.23	347.04	27.73	-47.9	-59.8	3.8	8.46e-01	0	43	104	0	66	14930
2026-01-26 10:29:34.24	346.88	27.57	-47.9	-59.8	3.8	8.46e-01	0	44	104	0	66	14918
2026-01-26 10:29:35.24	346.72	27.42	-48.0	-59.8	3.8	8.46e-01	0	44	104	0	66	14928
2026-01-26 10:29:36.25	346.56	27.27	-47.9	-59.8	3.8	8.45e-01	0	44	104	0	66	14918
2026-01-26 10:29:37.26	346.40	27.12	-48.0	-59.8	3.8	8.47e-01	0	43	104	0	66	14925
2026-01-26 10:29:38.27	346.24	26.97	-47.9	-59.8	3.8	8.47e-01	0	44	104	0	66	14939
2026-01-26 10:29:39.28	346.09	26.82	-48.0	-59.8	3.8	8.47e-01	0	44	104	0	66	14920
2026-01-26 10:29:40.29	345.93	26.67	-47.9	-59.7	3.8	8.46e-01	0	44	104	0	66	14879
2026-01-26 10:29:41.29	345.78	26.53	-47.9	-59.8	3.8	8.46e-01	0	44	104	0	66	14937
2026-01-26 10:29:42.30	345.63	26.38	-48.0	-59.8	3.8	8.45e-01	0	44	104	0	66	14928
2026-01-26 10:29:43.31	345.48	26.23	-48.0	-59.8	3.8	8.46e-01	0	44	104	0	66	14939
2026-01-26 10:29:44.32	345.33	26.09	-47.9	-59.7	3.8	8.45e-01	0	44	104	0	66	14876
2026-01-26 10:29:45.33	345.18	25.94	-48.0	-59.8	3.8	8.46e-01	0	43	104	0	66	14955
2026-01-26 10:29:46.33	345.04	25.80	-47.9	-59.8	3.8	8.45e-01	0	44	104	0	66	14903
2026-01-26 10:29:47.34	344.89	25.65	-47.9	-59.8	3.8	8.45e-01	0	44	104	0	66	14890
2026-01-26 10:29:48.35	344.75	25.51	-47.9	-59.8	3.8	8.46e-01	0	44	104	0	66	14945
2026-01-26 10:29:49.35	344.61	25.36	-48.0	-59.8	3.8	8.46e-01	0	44	104	0	66	14909
2026-01-26 10:29:50.36	344.47	25.22	-48.0	-59.8	3.8	8.45e-01	0	44	104	0	66	14949
2026-01-26 10:29:51.37	344.33	25.08	-47.7	-59.8	3.8	8.46e-01	0	44	104	0	66	14888
2026-01-26 10:29:52.38	344.19	24.94	-47.9	-59.8	3.8	8.46e-01	0	44	104	0	66	14914
2026-01-26 10:29:53.38	344.06	24.80	-47.9	-59.8	3.8	8.46e-01	0	44	104	0	66	14926
2026-01-26 10:29:54.39	343.92	24.66	-47.9	-59.8	3.8	8.46e-01	0	44	104	0	66	14918
2026-01-26 10:29:55.40	343.79	24.52	-47.9	-59.8	3.8	8.46e-01	0	44	104	0	66	14910
2026-01-26 10:29:56.41	343.66	24.38	-47.9	-59.8	3.8	8.46e-01	0	44	104	0	66	14892
2026-01-26 10:29:57.41	343.53	24.24	-47.9	-59.8	3.8	8.46e-01	0	44	104	0	66	14885
2026-01-26 10:29:58.42	343.40	24.10	-48.0	-59.8	3.8	8.46e-01	0	44	104	0	66	14949
2026-01-26 10:29:59.43	343.27	23.96	-47.9	-59.8	3.8	8.47e-01	0	44	104	0	66	14888
2026-01-26 10:30:00.44	343.14	23.83	-47.9	-59.8	3.8	8.46e-01	0	44	104	0	66	14939
2026-01-26 10:30:01.45	343.01	23.69	-47.9	-59.8	3.8	8.47e-01	0	44	104	0	66	14940
2026-01-26 10:30:02.46	342.89	23.55	-48.0	-59.8	3.8	8.48e-01	0	44	104	0	66	14918
2026-01-26 10:30:03.47	342.76	23.42	-47.9	-59.8	3.8	8.47e-01	0	44	104	0	66	14934
2026-01-26 10:30:04.47	342.64	23.28	-48.0	-59.7	3.8	8.47e-01	0	44	104	0	66	14874
2026-01-26 10:30:05.48	342.52	23.15	-47.9	-59.8	3.8	8.47e-01	0	44	104	0	66	14901
2026-01-26 10:30:06.49	342.39	23.01	-47.9	-59.8	3.8	8.46e-01	0	44	104	0	66	14911
2026-01-26 10:30:07.49	342.28	22.88	-47.9	-59.8	3.8	8.46e-01	0	44	104	0	66	14919
2026-01-26 10:30:08.50	342.16	22.75	-47.9	-59.8	3.8	8.46e-01	0	44	104	0	66	14936
2026-01-26 10:30:09.51	342.04	22.62	-47.9	-59.8	3.8	8.45e-01	0	44	104	0	66	14919
2026-01-26 10:30:10.52	341.92	22.49	-48.0	-59.8	3.8	8.46e-01	0	44	104	0	66	14922
2026-01-26 10:30:11.53	341.80	22.35	-47.9	-59.8	3.8	8.45e-01	0	44	104	0	66	14884
2026-01-26 10:30:12.53	341.69	22.23	-47.9	-59.7	3.8	8.46e-01	0	44	104	0	66	14879
2026-01-26 10:30:13.54	341.58	22.10	-47.9	-59.8	3.8	8.46e-01	0	44	104	0	66	14906
2026-01-26 10:30:14.55	341.46	21.97	-47.9	-59.8	3.8	8.46e-01	0	44	104	0	66	14914
2026-01-26 10:30:15.55	341.35	21.84	-47.9	-59.8	3.8	8.47e-01	0	44	104	0	66	14908
2026-01-26 10:30:16.56	341.24	21.71	-47.9	-59.8	3.8	8.45e-01	0	44	104	0	66	14895
2026-01-26 10:30:17.57	341.13	21.58	-47.9	-59.8	3.8	8.46e-01	0	44	104	0	66	14905
2026-01-26 10:30:18.58	341.02	21.45	-47.9	-59.8	3.8	8.46e-01	0	44	104	0	66	14930
2026-01-26 10:30:19.58	340.91	21.33	-47.9	-59.8	3.8	8.45e-01	0	44	104	0	66	14919
2026-01-26 10:30:20.59	340.81	21.20	-47.9	-59.7	3.8	8.47e-01	0	44	104	0	66	14864
2026-01-26 10:30:21.60	340.70	21.08	-47.9	-59.8	3.8	8.46e-01	0	44	104	0	66	14911
2026-01-26 10:30:22.61	340.59	20.95	-48.0	-59.8	3.8	8.45e-01	0	44	104	0	66	14900
2026-01-26 10:30:23.61	340.49	20.83	-47.9	-59.8	3.8	8.46e-01	0	44	104	0	66	14923
2026-01-26 10:30:24.62	340.38	20.70	-47.9	-59.8	3.8	8.46e-01	0	44	104	0	66	14924
2026-01-26 10:30:25.63	340.28	20.58	-47.9	-59.8	3.8	8.45e-01	0	44	104	0	66	14927
2026-01-26 10:30:26.63	340.18	20.46	-47.9	-59.8	3.8	8.47e-01	0	44	104	0	66	14974
2026-01-26 10:30:27.64	340.08	20.33	-47.9	-59.8	3.8	8.47e-01	0	44	104	0	66	14894
2026-01-26 10:30:28.65	339.98	20.21	-47.9	-59.8	3.8	8.46e-01	0	44	104	0	66	14922
2026-01-26 10:30:29.65	339.88	20.09	-47.9	-59.8	3.8	8.46e-01	0	44	104	0	66	14928
2026-01-26 10:30:30.66	339.78	19.97	-47.9	-59.8	3.8	8.46e-01	0	44	104	0	66	14958
2026-01-26 10:30:31.67	339.68	19.85	-48.0	-59.8	3.8	8.46e-01	0	43	104	0	66	14936
2026-01-26 10:30:32.68	339.58	19.73	-47.9	-59.8	3.8	8.45e-01	0	44	104	0	66	14938
2026-01-26 10:30:33.68	339.49	19.61	-47.9	-59.8	3.8	8.46e-01	0	44	104	0	66	14922
2026-01-26 10:30:34.69	339.39	19.49	-47.9	-59.8	3.8	8.46e-01	0	44	104	0	66	14936
2026-01-26 10:30:35.70	339.30	19.37	-48.0	-59.8	3.8	8.48e-01	0	44	104	0	66	14923
2026-01-26 10:30:36.71	339.20	19.25	-47.9	-59.8	3.8	8.45e-01	0	44	104	0	66	14900
2026-01-26 10:30:37.71	339.11	19.14	-47.9	-59.8	3.8	8.46e-01	0	44	104	0	66	14921
2026-01-26 10:30:38.72	339.02	19.02	-47.9	-59.8	3.8	8.46e-01	0	44	104	0	66	14891
2026-01-26 10:30:39.73	338.93	18.90	-47.9	-59.8	3.8	8.48e-01	0	44	104	0	66	14933
2026-01-26 10:30:40.74	338.83	18.78	-48.0	-59.8	3.8	8.46e-01	0	44	104	0	66	14917
2026-01-26 10:30:41.75	338.74	18.67	-48.0	-59.8	3.8	8.46e-01	0	44	104	0	66	14926
2026-01-26 10:30:42.75	338.65	18.55	-47.9	-59.8	3.8	8.46e-01	0	44	104	0	66	14902
2026-01-26 10:30:43.76	338.56	18.44	-47.9	-59.8	3.8	8.46e-01	0	44	104	0	66	14916
2026-01-26 10:30:44.77	338.48	18.32	-47.9	-59.8	3.8	8.47e-01	0	44	104	0	66	14929
2026-01-26 10:30:45.78	338.39	18.21	-47.9	-59.8	3.8	8.46e-01	0	43	104	0	66	14892
2026-01-26 10:30:46.78	338.30	18.10	-47.9	-59.8	3.8	8.47e-01	0	44	104	0	66	14934
2026-01-26 10:30:47.79	338.22	17.98	-48.0	-59.8	3.8	8.46e-01	0	44	104	0	66	14943
2026-01-26 10:30:48.80	338.13	17.87	-48.0	-59.8	3.8	8.46e-01	0	44	104	0	66	14967
2026-01-26 10:30:49.81	338.04	17.76	-47.9	-59.8	3.8	8.47e-01	0	44	104	0	66	14953
2026-01-26 10:30:50.81	337.96	17.65	-47.9	-59.8	3.8	8.45e-01	0	44	104	0	66	14932
2026-01-26 10:30:51.82	337.88	17.54	-47.9	-59.8	3.8	8.46e-01	0	44	104	0	66	14915
2026-01-26 10:30:52.83	337.79	17.43	-47.9	-59.8	3.8	8.47e-01	0	44	104	0	66	14908
2026-01-26 10:30:53.84	337.71	17.32	-47.9	-59.8	3.8	8.47e-01	0	44	104	0	66	14896
2026-01-26 10:30:54.85	337.63	17.20	-47.9	-59.8	3.8	8.46e-01	0	44	104	0	66	14931
2026-01-26 10:30:55.85	337.55	17.10	-47.9	-59.8	3.8	8.46e-01	0	44	104	0	66	14927
2026-01-26 10:30:56.86	337.47	16.99	-48.0	-59.8	3.8	8.47e-01	0	44	104	0	66	14940
2026-01-26 10:30:57.87	337.39	16.88	-47.9	-59.8	3.8	8.45e-01	0	44	104	0	66	14905
2026-01-26 10:30:58.88	337.31	16.77	-48.0	-59.8	3.8	8.47e-01	0	44	104	0	66	14975
2026-01-26 10:30:59.88	337.23	16.66	-47.9	-59.8	3.8	8.45e-01	0	44	104	0	66	14947
2026-01-26 10:31:00.89	337.15	16.55	-47.9	-59.8	3.8	8.46e-01	0	44	104	0	66	14941
2026-01-26 10:31:01.90	337.07	16.45	-47.9	-59.8	3.8	8.46e-01	0	44	104	0	66	14921
2026-01-26 10:31:02.91	337.00	16.34	-47.9	-59.8	3.8	8.47e-01	0	44	104	0	66	14910
2026-01-26 10:31:03.92	336.92	16.23	-47.9	-59.8	3.8	8.46e-01	0	44	104	0	66	14892
2026-01-26 10:31:04.92	336.85	16.13	-48.0	-59.8	3.8	8.47e-01	0	44	104	0	66	14958
2026-01-26 10:31:05.93	336.77	16.02	-48.0	-59.8	3.8	8.47e-01	0	44	104	0	66	14954
2026-01-26 10:31:06.94	336.69	15.92	-47.9	-59.8	3.8	8.46e-01	0	44	104	0	66	14913
2026-01-26 10:31:07.94	336.62	15.81	-48.0	-59.8	3.8	8.46e-01	0	44	104	0	66	14926
2026-01-26 10:31:08.95	336.55	15.71	-47.9	-59.8	3.8	8.47e-01	0	44	104	0	66	14939
2026-01-26 10:31:09.96	336.47	15.61	-47.9	-59.8	3.8	8.47e-01	0	44	104	0	66	14922
2026-01-26 10:31:10.96	336.40	15.50	-48.0	-59.8	3.8	8.46e-01	0	44	104	0	66	14891
2026-01-26 10:31:11.97	336.33	15.40	-48.0	-59.8	3.8	8.46e-01	0	44	104	0	66	14966
2026-01-26 10:31:12.98	336.26	15.30	-47.9	-59.8	3.8	8.46e-01	0	44	104	0	66	14942
2026-01-26 10:31:13.98	336.19	15.20	-47.9	-59.8	3.8	8.46e-01	0	44	104	0	66	14906
2026-01-26 10:31:14.99	336.12	15.09	-47.9	-59.8	3.8	8.46e-01	0	44	104	0	66	14935
2026-01-26 10:31:16.00	336.05	14.99	-48.0	-59.8	3.8	8.45e-01	0	44	104	0	66	14932
2026-01-26 10:31:17.01	335.98	14.89	-47.9	-59.8	3.8	8.47e-01	0	44	104	0	66	14955
2026-01-26 10:31:18.02	335.91	14.79	-47.9	-59.8	3.8	8.46e-01	0	44	104	0	66	14923
2026-01-26 10:31:19.02	335.84	14.69	-47.9	-59.8	3.8	8.46e-01	0	44	104	0	66	14906
2026-01-26 10:31:20.03	335.77	14.59	-47.9	-59.8	3.8	8.45e-01	0	44	104	0	66	14891
2026-01-26 10:31:21.04	335.70	14.49	-47.9	-59.8	3.8	8.46e-01	0	44	104	0	66	14917
2026-01-26 10:31:22.05	335.64	14.39	-47.9	-59.8	3.8	8.46e-01	0	44	104	0	66	14908
2026-01-26 10:31:23.05	335.57	14.29	-47.9	-59.8	3.8	8.45e-01	0	44	104	0	66	14897
2026-01-26 10:31:24.06	335.50	14.19	-47.9	-59.8	3.8	8.45e-01	0	44	104	0	66	14897
2026-01-26 10:31:25.07	335.44	14.10	-47.9	-59.8	3.8	8.47e-01	0	44	104	0	66	14966
2026-01-26 10:31:26.08	335.37	14.00	-47.9	-59.8	3.8	8.47e-01	0	44	104	0	66	14939
2026-01-26 10:31:27.09	335.31	13.90	-47.9	-59.8	3.8	8.46e-01	0	44	104	0	66	14918
2026-01-26 10:31:28.09	335.24	13.80	-48.0	-59.8	3.8	8.46e-01	0	44	104	0	66	14937
2026-01-26 10:31:29.10	335.18	13.71	-47.9	-59.8	3.8	8.46e-01	0	44	104	0	66	14904
2026-01-26 10:31:30.10	335.12	13.61	-47.9	-59.8	3.8	8.47e-01	0	44	104	0	66	14908
2026-01-26 10:31:31.11	335.05	13.51	-47.9	-59.8	3.8	8.46e-01	0	44	104	0	66	14901
2026-01-26 10:31:32.12	334.99	13.42	-47.9	-59.8	3.8	8.47e-01	0	44	104	0	66	14898
2026-01-26 10:31:33.12	334.93	13.32	-47.9	-59.8	3.8	8.46e-01	0	44	104	0	66	14929
2026-01-26 10:31:34.13	334.87	13.23	-48.0	-59.8	3.8	8.46e-01	0	44	104	0	66	14936
2026-01-26 10:31:35.14	334.81	13.13	-47.9	-59.8	3.8	8.47e-01	0	44	104	0	66	14909
2026-01-26 10:31:36.15	334.75	13.04	-47.9	-59.8	3.8	8.44e-01	0	44	104	0	66	14918
2026-01-26 10:31:37.16	334.69	12.95	-47.9	-59.8	3.8	8.46e-01	0	44	104	0	66	14955
2026-01-26 10:31:38.16	334.63	12.85	-47.9	-59.8	3.8	8.46e-01	0	44	104	0	66	14932
2026-01-26 10:31:39.17	334.57	12.76	-48.0	-59.8	3.8	8.46e-01	0	44	104	0	66	14901
2026-01-26 10:31:40.18	334.51	12.67	-47.9	-59.8	3.8	8.47e-01	0	44	104	0	66	14925
2026-01-26 10:31:41.19	334.45	12.57	-47.9	-59.8	3.8	8.46e-01	0	44	104	0	66	14937
2026-01-26 10:31:42.20	334.39	12.48	-47.9	-59.8	3.8	8.46e-01	0	44	104	0	66	14892
2026-01-26 10:31:43.21	334.33	12.39	-47.9	-59.8	3.8	8.46e-01	0	44	104	0	66	14907
2026-01-26 10:31:44.21	334.27	12.30	-47.9	-59.8	3.8	8.45e-01	0	44	104	0	66	14935
2026-01-26 10:31:45.22	334.22	12.20	-47.9	-59.8	3.8	8.47e-01	0	44	104	0	66	14929
2026-01-26 10:31:46.23	334.16	12.11	-47.9	-59.8	3.8	8.46e-01	0	44	104	0	66	14881
2026-01-26 10:31:47.24	334.10	12.02	-47.9	-59.8	3.8	8.47e-01	0	44	104	0	66	14929
2026-01-26 10:31:48.25	334.05	11.93	-47.9	-59.8	3.8	8.46e-01	0	44	104	0	66	14956
2026-01-26 10:31:49.25	333.99	11.84	-47.9	-59.8	3.8	8.46e-01	0	44	104	0	66	14901
2026-01-26 10:31:50.26	333.94	11.75	-47.9	-59.8	3.8	8.45e-01	0	44	104	0	66	14926
2026-01-26 10:31:51.27	333.88	11.66	-47.9	-59.8	3.8	8.45e-01	0	44	104	0	66	14902
2026-01-26 10:31:52.28	333.83	11.57	-47.9	-59.8	3.8	8.46e-01	0	44	104	0	66	14918
2026-01-26 10:31:53.29	333.77	11.48	-47.9	-59.8	3.8	8.45e-01	0	44	104	0	66	14905
2026-01-26 10:31:54.29	333.72	11.39	-47.9	-59.8	3.8	8.46e-01	0	44	104	0	66	14937
2026-01-26 10:31:55.30	333.66	11.31	-47.9	-59.8	3.8	8.46e-01	0	44	104	0	66	14971
2026-01-26 10:31:56.31	333.61	11.22	-47.9	-59.8	3.8	8.47e-01	0	44	104	0	66	14909
2026-01-26 10:31:57.31	333.56	11.13	-47.9	-59.8	3.8	8.45e-01	0	44	104	0	66	14924
2026-01-26 10:31:58.32	333.50	11.04	-47.9	-59.8	3.8	8.47e-01	0	44	104	0	66	14921
2026-01-26 10:31:59.33	333.45	10.96	-48.0	-59.8	3.8	8.46e-01	0	44	104	0	66	14910
2026-01-26 10:32:00.34	333.40	10.87	-47.9	-59.8	3.8	8.46e-01	0	44	104	0	66	14924
2026-01-26 10:32:01.34	333.35	10.78	-48.0	-59.8	3.8	8.47e-01	0	44	104	0	66	14936
2026-01-26 10:32:02.35	333.30	10.70	-47.9	-59.8	3.8	8.46e-01	0	44	104	0	66	14900
2026-01-26 10:32:03.36	333.25	10.61	-47.9	-59.8	3.8	8.46e-01	0	44	104	0	66	14898
2026-01-26 10:32:04.37	333.20	10.52	-47.9	-59.8	3.8	8.47e-01	0	44	104	0	66	14926
2026-01-26 10:32:05.37	333.15	10.44	-47.9	-59.8	3.8	8.46e-01	0	44	104	0	66	14929
2026-01-26 10:32:06.38	333.10	10.35	-47.9	-59.8	3.8	8.45e-01	0	44	104	0	66	14933
2026-01-26 10:32:07.39	333.05	10.27	-47.9	-59.8	3.8	8.47e-01	0	44	104	0	66	14914
2026-01-26 10:32:08.40	333.00	10.18	-47.9	-59.7	3.8	8.46e-01	0	44	104	0	66	14869
2026-01-26 10:32:09.41	332.95	10.10	-47.9	-59.8	3.8	8.45e-01	0	44	104	0	66	14918
2026-01-26 10:32:10.41	332.90	10.01	-48.0	-59.8	3.8	8.45e-01	0	44	104	0	66	14959
2026-01-26 10:32:11.42	332.85	9.93	-47.9	-59.8	3.8	8.46e-01	0	44	104	0	66	14945
2026-01-26 10:32:12.43	332.80	9.85	-47.9	-59.8	3.8	8.47e-01	0	44	104	0	66	14940
2026-01-26 10:32:13.44	332.75	9.76	-47.9	-59.8	3.8	8.46e-01	0	44	104	0	66	14895
2026-01-26 10:32:14.45	332.71	9.68	-47.9	-59.8	3.8	8.47e-01	0	44	104	0	66	14925
2026-01-26 10:32:15.46	332.66	9.60	-47.9	-59.8	3.8	8.45e-01	0	44	104	0	66	14944
2026-01-26 10:32:16.47	332.61	9.51	-48.0	-59.8	3.8	8.46e-01	0	44	104	0	66	14951
2026-01-26 10:32:17.47	332.56	9.43	-47.9	-59.8	3.8	8.47e-01	0	44	104	0	66	14922
2026-01-26 10:32:18.48	332.52	9.35	-47.9	-59.8	3.8	8.47e-01	0	44	104	0	66	14908
2026-01-26 10:32:19.49	332.47	9.27	-47.9	-59.8	3.8	8.45e-01	0	44	104	0	66	14893
2026-01-26 10:32:20.49	332.43	9.18	-47.9	-59.8	3.8	8.47e-01	0	44	104	0	66	14905
2026-01-26 10:32:21.50	332.38	9.10	-47.9	-59.8	3.8	8.46e-01	0	44	104	0	66	14915
2026-01-26 10:32:22.51	332.34	9.02	-47.9	-59.8	3.8	8.47e-01	0	44	104	0	66	14908
