passes_logs/2026/01/26/R3.2S_Murmansk/R3.2S_Murmansk__20260126_000540_ZKG05_rec.log

#Pass ID: 20260126_000540_ZKG05
#Satellite: ZKG05
#Configuration: ZKG05
#almurnet v.1.7.20251203
#Start time: 2026-01-26 00:05:40

#Version: 2.2.20231116
#Station: R3.2S_Murmansk
#Location: 33.079688 lon 68.888172 lat
#TLE: 1 65263U 25180E   26025.53288388  .00001444  00000+0  77880-4 0  9994
#TLE: 2 65263  97.4774 154.6216 0001647  84.9743 275.1678 15.16338307 24100

#Time	Az	El	Level	Level2	SNR	BER	BlckErr	Temp	State	Recorded	gain1	gain2
2026-01-26 00:05:40.44	205.65	2.01	-54.3	-56.4	6.2	0.00e+00	0	50	0	0	79	19048
2026-01-26 00:05:41.44	205.74	2.08	-54.2	-56.4	6.2	0.00e+00	0	50	104	0	80	18006
2026-01-26 00:05:42.44	205.82	2.14	-54.2	-56.3	6.2	0.00e+00	0	50	104	0	80	17900
2026-01-26 00:05:43.45	205.91	2.20	-54.3	-56.4	6.2	0.00e+00	0	50	104	0	80	17998
2026-01-26 00:05:44.46	206.00	2.26	-54.4	-56.5	6.2	0.00e+00	0	50	104	0	80	18259
2026-01-26 00:05:45.46	206.08	2.33	-54.5	-56.5	6.2	0.00e+00	0	50	104	0	80	18371
2026-01-26 00:05:46.47	206.17	2.39	-54.5	-56.6	6.2	0.00e+00	0	50	104	0	80	18453
2026-01-26 00:05:47.47	206.26	2.45	-54.5	-56.6	6.2	0.00e+00	0	50	104	0	80	18554
2026-01-26 00:05:48.48	206.35	2.52	-54.5	-56.6	6.2	0.00e+00	0	50	104	0	80	18570
2026-01-26 00:05:49.49	206.44	2.58	-54.5	-56.6	6.2	0.00e+00	0	50	104	0	80	18530
2026-01-26 00:05:50.50	206.53	2.64	-54.5	-56.6	6.2	0.00e+00	0	51	104	0	80	18517
2026-01-26 00:05:51.51	206.62	2.71	-54.5	-56.6	6.2	0.00e+00	0	50	104	0	80	18457
2026-01-26 00:05:52.52	206.71	2.77	-54.5	-56.5	6.2	0.00e+00	0	51	104	0	80	18335
2026-01-26 00:05:53.53	206.80	2.84	-54.4	-56.5	6.2	0.00e+00	0	51	104	0	80	18294
2026-01-26 00:05:54.54	206.89	2.90	-54.4	-56.5	6.2	0.00e+00	0	51	104	0	80	18203
2026-01-26 00:05:55.55	206.98	2.96	-54.4	-56.4	6.2	0.00e+00	0	51	104	0	80	18156
2026-01-26 00:05:56.56	207.07	3.03	-54.3	-56.4	6.2	0.00e+00	0	51	104	0	80	18059
2026-01-26 00:05:57.57	207.17	3.09	-54.3	-56.4	6.2	0.00e+00	0	51	104	0	80	18006
2026-01-26 00:05:58.57	207.26	3.16	-54.2	-56.3	6.2	0.00e+00	0	51	104	0	80	17799
2026-01-26 00:05:59.58	207.35	3.22	-54.1	-56.2	6.2	0.00e+00	0	51	104	0	80	17664
2026-01-26 00:06:00.59	207.45	3.29	-54.0	-56.1	6.2	0.00e+00	0	51	104	0	80	17474
2026-01-26 00:06:01.59	207.54	3.35	-54.0	-56.1	6.2	0.00e+00	0	51	104	0	79	18470
2026-01-26 00:06:02.61	207.64	3.42	-53.9	-56.0	6.2	0.00e+00	0	51	104	0	79	18278
2026-01-26 00:06:03.61	207.73	3.48	-53.8	-55.8	6.2	0.00e+00	0	51	104	0	79	17966
2026-01-26 00:06:04.62	207.83	3.55	-53.6	-55.7	6.2	0.00e+00	0	51	104	0	79	17602
2026-01-26 00:06:05.63	207.93	3.62	-53.2	-55.3	6.2	0.00e+00	0	51	104	0	78	17904
2026-01-26 00:06:06.64	208.03	3.68	-52.9	-55.0	6.2	0.00e+00	0	51	104	0	77	18240
2026-01-26 00:06:07.65	208.12	3.75	-52.8	-54.9	6.2	0.00e+00	0	51	104	0	77	18148
2026-01-26 00:06:08.65	208.22	3.81	-52.8	-54.9	6.2	0.00e+00	0	51	104	0	77	18156
2026-01-26 00:06:09.65	208.32	3.88	-52.8	-54.9	6.2	0.00e+00	0	52	104	0	77	18123
2026-01-26 00:06:10.66	208.42	3.95	-52.8	-54.9	6.2	0.00e+00	0	52	104	0	77	18109
2026-01-26 00:06:11.67	208.52	4.01	-52.8	-54.9	6.2	0.00e+00	0	52	104	0	77	18145
2026-01-26 00:06:12.68	208.62	4.08	-52.8	-54.9	6.2	0.00e+00	0	52	104	0	77	18100
2026-01-26 00:06:13.69	208.72	4.15	-52.8	-54.9	6.2	0.00e+00	0	52	104	0	77	18052
2026-01-26 00:06:14.69	208.82	4.22	-52.8	-54.9	6.2	0.00e+00	0	52	104	0	77	18147
2026-01-26 00:06:15.70	208.93	4.28	-52.8	-54.9	6.2	0.00e+00	0	52	104	0	77	18139
2026-01-26 00:06:16.71	209.03	4.35	-52.8	-54.9	6.2	0.00e+00	0	52	104	0	77	18046
2026-01-26 00:06:17.72	209.13	4.42	-52.8	-54.9	6.2	0.00e+00	0	52	104	0	77	18051
2026-01-26 00:06:18.73	209.24	4.49	-52.8	-54.9	6.2	0.00e+00	0	52	104	0	77	18079
2026-01-26 00:06:19.74	209.34	4.55	-52.8	-54.9	6.2	0.00e+00	0	52	104	0	77	18086
2026-01-26 00:06:20.74	209.45	4.62	-52.8	-54.9	6.2	0.00e+00	0	52	104	0	77	18070
2026-01-26 00:06:21.75	209.55	4.69	-52.8	-54.9	6.2	0.00e+00	0	52	104	0	77	18066
2026-01-26 00:06:22.75	209.66	4.76	-52.8	-54.9	6.2	0.00e+00	0	52	104	0	77	18105
2026-01-26 00:06:23.77	209.77	4.83	-52.8	-54.9	6.2	0.00e+00	0	52	104	0	77	18064
2026-01-26 00:06:24.77	209.87	4.90	-52.8	-54.9	6.2	0.00e+00	0	52	104	0	77	18051
2026-01-26 00:06:25.78	209.98	4.97	-52.8	-54.9	6.2	0.00e+00	0	52	104	0	77	18083
2026-01-26 00:06:26.78	210.09	5.03	-52.8	-54.9	6.2	0.00e+00	0	52	104	0	77	18052
2026-01-26 00:06:27.79	210.20	5.10	-52.8	-54.9	6.2	0.00e+00	0	52	104	0	77	18119
2026-01-26 00:06:28.80	210.31	5.17	-52.8	-54.8	6.2	0.00e+00	0	52	104	0	77	17951
2026-01-26 00:06:29.81	210.42	5.24	-52.9	-55.0	6.2	0.00e+00	0	52	104	0	77	18271
2026-01-26 00:06:30.81	210.53	5.31	-52.9	-54.9	6.2	0.00e+00	0	52	104	0	77	18165
2026-01-26 00:06:31.82	210.65	5.38	-52.8	-54.9	6.2	0.00e+00	0	53	104	0	77	18049
2026-01-26 00:06:32.83	210.76	5.45	-52.7	-54.8	6.2	0.00e+00	0	52	104	0	77	17939
2026-01-26 00:06:33.84	210.87	5.52	-52.9	-55.0	6.2	0.00e+00	0	53	104	0	77	18231
2026-01-26 00:06:34.84	210.99	5.59	-52.9	-54.9	6.2	0.00e+00	0	53	104	0	77	18175
2026-01-26 00:06:35.85	211.10	5.66	-52.8	-54.9	6.2	0.00e+00	0	53	104	0	77	18042
2026-01-26 00:06:36.86	211.22	5.74	-52.7	-54.8	6.2	0.00e+00	0	53	104	0	77	17937
2026-01-26 00:06:37.87	211.33	5.81	-52.9	-55.0	6.2	0.00e+00	0	53	104	0	77	18271
2026-01-26 00:06:38.88	211.45	5.88	-52.9	-55.0	6.2	0.00e+00	0	53	104	0	77	18254
2026-01-26 00:06:39.89	211.57	5.95	-52.8	-54.9	6.2	0.00e+00	0	53	104	0	77	18040
2026-01-26 00:06:40.90	211.69	6.02	-52.8	-54.8	6.2	0.00e+00	0	53	104	0	77	17925
2026-01-26 00:06:41.91	211.80	6.09	-52.9	-55.0	6.2	0.00e+00	0	53	104	0	77	18286
2026-01-26 00:06:42.91	211.92	6.16	-52.9	-55.0	6.2	0.00e+00	0	53	104	0	77	18250
2026-01-26 00:06:43.92	212.04	6.24	-52.8	-54.9	6.2	0.00e+00	0	53	104	0	77	18141
2026-01-26 00:06:44.93	212.17	6.31	-52.8	-54.9	6.2	0.00e+00	0	53	104	0	77	18012
2026-01-26 00:06:45.93	212.29	6.38	-52.9	-55.0	6.2	0.00e+00	0	53	104	0	77	18342
2026-01-26 00:06:46.94	212.41	6.45	-52.9	-55.0	6.2	0.00e+00	0	53	104	0	77	18335
2026-01-26 00:06:47.95	212.53	6.53	-52.9	-55.0	6.2	0.00e+00	0	53	104	0	77	18182
2026-01-26 00:06:48.96	212.66	6.60	-52.8	-54.9	6.2	0.00e+00	0	53	104	0	77	18089
2026-01-26 00:06:49.96	212.78	6.67	-52.9	-55.1	6.2	0.00e+00	0	53	104	0	77	18435
2026-01-26 00:06:50.97	212.91	6.74	-52.9	-55.0	6.2	0.00e+00	0	53	104	0	77	18330
2026-01-26 00:06:51.98	213.03	6.82	-52.9	-55.0	6.2	0.00e+00	0	53	104	0	77	18225
2026-01-26 00:06:52.99	213.16	6.89	-52.9	-55.0	6.2	0.00e+00	0	53	104	0	77	18191
2026-01-26 00:06:54.00	213.29	6.97	-52.9	-55.1	6.2	0.00e+00	0	53	104	0	77	18444
2026-01-26 00:06:55.01	213.42	7.04	-53.0	-55.0	6.2	0.00e+00	0	53	104	0	77	18380
2026-01-26 00:06:56.01	213.54	7.11	-52.9	-55.0	6.2	0.00e+00	0	53	104	0	77	18319
2026-01-26 00:06:57.02	213.67	7.19	-52.9	-55.0	6.2	0.00e+00	0	53	104	0	77	18186
2026-01-26 00:06:58.03	213.80	7.26	-52.9	-55.1	6.2	0.00e+00	0	53	104	0	77	18476
2026-01-26 00:06:59.03	213.94	7.34	-53.0	-55.1	6.2	0.00e+00	0	53	104	0	77	18492
2026-01-26 00:07:00.04	214.07	7.41	-52.9	-55.0	6.2	0.00e+00	0	53	104	0	77	18312
2026-01-26 00:07:01.04	214.20	7.49	-52.9	-55.0	6.2	0.00e+00	0	53	104	0	77	18272
2026-01-26 00:07:02.05	214.33	7.56	-53.0	-55.1	6.2	0.00e+00	0	53	104	0	77	18570
2026-01-26 00:07:03.06	214.47	7.64	-53.0	-55.1	6.2	0.00e+00	0	53	104	0	77	18543
2026-01-26 00:07:04.07	214.61	7.71	-53.0	-55.0	6.2	0.00e+00	0	53	104	0	77	18376
2026-01-26 00:07:05.08	214.74	7.79	-52.9	-55.0	6.2	0.00e+00	0	53	104	0	77	18323
2026-01-26 00:07:06.08	214.88	7.86	-53.0	-55.2	6.2	0.00e+00	0	53	104	0	77	18656
2026-01-26 00:07:07.09	215.02	7.94	-53.0	-55.1	6.2	0.00e+00	0	53	104	0	77	18514
2026-01-26 00:07:08.09	215.15	8.02	-53.0	-55.1	6.2	0.00e+00	0	53	104	0	77	18438
2026-01-26 00:07:09.10	215.30	8.09	-53.0	-55.1	6.2	0.00e+00	0	53	104	0	77	18410
2026-01-26 00:07:10.11	215.44	8.17	-53.0	-55.2	6.2	0.00e+00	0	53	104	0	77	18646
2026-01-26 00:07:11.12	215.58	8.25	-53.0	-55.1	6.2	0.00e+00	0	54	104	0	77	18592
2026-01-26 00:07:12.12	215.72	8.32	-53.0	-55.1	6.2	0.00e+00	0	53	104	0	77	18510
2026-01-26 00:07:13.13	215.86	8.40	-53.0	-55.1	6.2	0.00e+00	0	53	104	0	77	18507
2026-01-26 00:07:14.14	216.01	8.48	-53.0	-55.2	6.2	0.00e+00	0	54	104	0	77	18693
2026-01-26 00:07:15.15	216.15	8.56	-53.1	-55.2	6.2	0.00e+00	0	54	104	0	77	18630
2026-01-26 00:07:16.16	216.30	8.63	-53.0	-55.1	6.2	0.00e+00	0	53	104	0	77	18552
2026-01-26 00:07:17.17	216.45	8.71	-53.0	-55.1	6.2	0.00e+00	0	54	104	0	77	18556
2026-01-26 00:07:18.17	216.59	8.79	-53.0	-55.2	6.2	0.00e+00	0	54	104	0	77	18749
2026-01-26 00:07:19.18	216.74	8.87	-53.1	-55.2	6.2	0.00e+00	0	54	104	0	77	18678
2026-01-26 00:07:20.18	216.89	8.95	-53.1	-55.2	6.2	0.00e+00	0	54	104	0	77	18667
2026-01-26 00:07:21.19	217.04	9.02	-53.0	-55.1	6.2	0.00e+00	0	53	104	0	77	18580
2026-01-26 00:07:22.20	217.20	9.10	-53.0	-55.2	6.2	0.00e+00	0	54	104	0	77	18788
2026-01-26 00:07:23.21	217.35	9.18	-53.1	-55.2	6.2	0.00e+00	0	54	104	0	77	18709
2026-01-26 00:07:24.22	217.50	9.26	-53.1	-55.2	6.2	0.00e+00	0	53	104	0	77	18642
2026-01-26 00:07:25.23	217.66	9.34	-53.1	-55.2	6.2	0.00e+00	0	54	104	0	77	18616
2026-01-26 00:07:26.23	217.81	9.42	-53.0	-55.2	6.2	0.00e+00	0	54	104	0	77	18782
2026-01-26 00:07:27.24	217.97	9.50	-53.1	-55.2	6.2	0.00e+00	0	53	104	0	77	18791
2026-01-26 00:07:28.25	218.13	9.58	-53.1	-55.2	6.2	0.00e+00	0	54	104	0	77	18680
2026-01-26 00:07:29.26	218.29	9.66	-53.1	-55.2	6.2	0.00e+00	0	54	104	0	77	18697
2026-01-26 00:07:30.27	218.45	9.74	-53.1	-55.3	6.2	0.00e+00	0	54	104	0	77	18833
2026-01-26 00:07:31.27	218.61	9.82	-53.1	-55.2	6.2	0.00e+00	0	54	104	0	77	18804
2026-01-26 00:07:32.28	218.77	9.90	-53.1	-55.2	6.2	0.00e+00	0	54	104	0	77	18734
2026-01-26 00:07:33.29	218.93	9.98	-53.1	-55.2	6.2	0.00e+00	0	54	104	0	77	18754
2026-01-26 00:07:34.30	219.10	10.06	-53.0	-55.3	6.2	0.00e+00	0	54	104	0	77	18843
2026-01-26 00:07:35.31	219.26	10.14	-53.1	-55.3	6.2	0.00e+00	0	54	104	0	77	18839
2026-01-26 00:07:36.31	219.43	10.22	-53.1	-55.3	6.2	0.00e+00	0	54	104	0	77	18833
2026-01-26 00:07:37.32	219.60	10.31	-53.1	-55.2	6.2	0.00e+00	0	54	104	0	77	18796
2026-01-26 00:07:38.33	219.76	10.39	-53.1	-55.3	6.2	0.00e+00	0	54	104	0	77	18880
2026-01-26 00:07:39.33	219.93	10.47	-53.2	-55.3	6.2	0.00e+00	0	54	104	0	77	18864
2026-01-26 00:07:40.34	220.10	10.55	-53.2	-55.3	6.2	0.00e+00	0	54	104	0	77	18831
2026-01-26 00:07:41.35	220.28	10.63	-53.2	-55.3	6.2	0.00e+00	0	54	104	0	77	18845
2026-01-26 00:07:42.36	220.45	10.72	-53.1	-55.3	6.2	0.00e+00	0	54	104	0	77	18953
2026-01-26 00:07:43.36	220.62	10.80	-53.2	-55.3	6.2	0.00e+00	0	54	104	0	77	18863
2026-01-26 00:07:44.37	220.80	10.88	-53.2	-55.3	6.2	0.00e+00	0	54	104	0	77	18885
2026-01-26 00:07:45.38	220.97	10.96	-53.2	-55.3	6.2	0.00e+00	0	54	104	0	77	18890
2026-01-26 00:07:46.38	221.15	11.04	-53.1	-55.3	6.2	0.00e+00	0	54	104	0	77	19013
2026-01-26 00:07:47.39	221.33	11.13	-53.2	-55.3	6.2	0.00e+00	0	54	104	0	77	18993
2026-01-26 00:07:48.39	221.51	11.21	-53.2	-55.3	6.2	0.00e+00	0	54	104	0	77	18941
2026-01-26 00:07:49.40	221.69	11.29	-53.2	-55.3	6.2	0.00e+00	0	54	104	0	77	18965
2026-01-26 00:07:50.41	221.87	11.38	-53.2	-55.3	6.2	0.00e+00	0	54	104	0	77	18977
2026-01-26 00:07:51.42	222.06	11.46	-53.2	-55.4	6.2	0.00e+00	0	54	104	0	77	19040
2026-01-26 00:07:52.42	222.24	11.54	-53.2	-55.3	6.2	0.00e+00	0	54	104	0	77	18945
2026-01-26 00:07:53.43	222.43	11.63	-53.2	-55.3	6.2	0.00e+00	0	54	104	0	77	18986
2026-01-26 00:07:54.44	222.61	11.71	-53.1	-55.3	6.2	0.00e+00	0	54	104	0	77	18974
2026-01-26 00:07:55.45	222.80	11.80	-53.2	-55.3	6.2	0.00e+00	0	54	104	0	77	19005
2026-01-26 00:07:56.45	222.99	11.88	-53.2	-55.3	6.2	0.00e+00	0	54	104	0	77	18999
2026-01-26 00:07:57.46	223.18	11.96	-53.2	-55.3	6.2	0.00e+00	0	54	104	0	77	19010
2026-01-26 00:07:58.47	223.37	12.05	-53.2	-55.4	6.2	0.00e+00	0	54	104	0	77	19066
2026-01-26 00:07:59.48	223.57	12.13	-53.2	-55.3	6.2	0.00e+00	0	54	104	0	77	19020
2026-01-26 00:08:00.48	223.76	12.22	-53.3	-55.3	6.2	0.00e+00	0	54	104	0	77	19011
2026-01-26 00:08:01.49	223.96	12.30	-53.2	-55.4	6.2	0.00e+00	0	54	104	0	77	19076
2026-01-26 00:08:02.50	224.16	12.39	-53.2	-55.4	6.2	0.00e+00	0	54	104	0	77	19123
2026-01-26 00:08:03.50	224.35	12.47	-53.2	-55.4	6.2	0.00e+00	0	54	104	0	77	19050
2026-01-26 00:08:04.51	224.55	12.56	-53.3	-55.4	6.2	0.00e+00	0	54	104	0	77	19050
2026-01-26 00:08:05.51	224.75	12.64	-53.2	-55.4	6.2	0.00e+00	0	54	104	0	77	19071
2026-01-26 00:08:06.52	224.96	12.73	-53.2	-55.4	6.2	0.00e+00	0	54	104	0	77	19130
2026-01-26 00:08:07.53	225.16	12.81	-53.2	-55.4	6.2	0.00e+00	0	54	104	0	77	19123
2026-01-26 00:08:08.54	225.37	12.90	-53.3	-55.4	6.2	0.00e+00	0	54	104	0	77	19100
2026-01-26 00:08:09.55	225.57	12.98	-53.2	-55.4	6.2	0.00e+00	0	54	104	0	77	19121
2026-01-26 00:08:10.55	225.78	13.07	-53.2	-55.4	6.2	0.00e+00	0	54	104	0	77	19184
2026-01-26 00:08:11.56	225.99	13.16	-53.2	-55.4	6.2	0.00e+00	0	54	104	0	77	19077
2026-01-26 00:08:12.57	226.20	13.24	-53.3	-55.4	6.2	0.00e+00	0	54	104	0	77	19105
2026-01-26 00:08:13.57	226.41	13.33	-53.2	-55.4	6.2	0.00e+00	0	54	104	0	77	19122
2026-01-26 00:08:14.58	226.63	13.41	-53.2	-55.4	6.2	0.00e+00	0	54	104	0	77	19197
2026-01-26 00:08:15.59	226.84	13.50	-53.2	-55.4	6.2	0.00e+00	0	54	104	0	77	19146
2026-01-26 00:08:16.60	227.06	13.59	-53.3	-55.4	6.2	0.00e+00	0	54	104	0	77	19169
2026-01-26 00:08:17.61	227.28	13.67	-53.2	-55.4	6.2	0.00e+00	0	54	104	0	77	19179
2026-01-26 00:08:18.61	227.50	13.76	-53.3	-55.4	6.2	0.00e+00	0	54	104	0	77	19199
2026-01-26 00:08:19.62	227.72	13.84	-53.3	-55.4	6.2	0.00e+00	0	54	104	0	77	19174
2026-01-26 00:08:20.63	227.94	13.93	-53.3	-55.4	6.2	0.00e+00	0	54	104	0	77	19189
2026-01-26 00:08:21.63	228.17	14.02	-53.2	-55.4	6.2	0.00e+00	0	54	104	0	77	19200
2026-01-26 00:08:22.64	228.39	14.10	-53.3	-55.4	6.2	0.00e+00	0	54	104	0	77	19221
2026-01-26 00:08:23.64	228.62	14.19	-53.3	-55.4	6.2	0.00e+00	0	54	104	0	77	19202
2026-01-26 00:08:24.65	228.85	14.28	-53.4	-55.4	6.2	0.00e+00	0	54	104	0	77	19237
2026-01-26 00:08:25.66	229.08	14.36	-53.2	-55.4	6.2	0.00e+00	0	54	104	0	77	19247
2026-01-26 00:08:26.67	229.31	14.45	-53.3	-55.5	6.2	0.00e+00	0	54	104	0	77	19269
2026-01-26 00:08:27.68	229.54	14.54	-53.3	-55.5	6.2	0.00e+00	0	54	104	0	77	19334
2026-01-26 00:08:28.69	229.78	14.62	-53.4	-55.5	6.2	0.00e+00	0	54	104	0	77	19395
2026-01-26 00:08:29.69	230.01	14.71	-53.3	-55.5	6.2	0.00e+00	0	54	104	0	77	19289
2026-01-26 00:08:30.70	230.25	14.80	-53.4	-55.5	6.2	0.00e+00	0	54	104	0	77	19425
2026-01-26 00:08:31.71	230.49	14.88	-53.3	-55.5	6.2	0.00e+00	0	54	104	0	77	19316
2026-01-26 00:08:32.71	230.73	14.97	-53.4	-55.5	6.2	0.00e+00	0	54	104	0	77	19324
2026-01-26 00:08:33.72	230.98	15.06	-49.5	-50.5	7.2	0.00e+00	0	54	104	0	71	15296
2026-01-26 00:08:34.72	231.22	15.14	-50.9	-52.2	6.6	0.00e+00	0	54	104	0	72	17624
2026-01-26 00:08:35.73	231.47	15.23	-28.1	-28.0	18.8	0.00e+00	0	55	0	8388608	27	14590
2026-01-26 00:08:36.74	231.71	15.31	-27.8	-27.6	19.0	0.00e+00	0	56	0	134217728	27	13941
2026-01-26 00:08:37.75	231.96	15.40	-27.9	-27.8	19.0	0.00e+00	0	55	0	251658240	27	14118
2026-01-26 00:08:38.76	232.22	15.49	-27.6	-27.5	19.1	5.77e-04	0	56	0	360710144	27	13720
2026-01-26 00:08:39.77	232.47	15.57	-28.3	-28.2	18.7	5.77e-04	0	56	0	469762048	27	14847
2026-01-26 00:08:40.77	232.72	15.66	-28.1	-28.0	18.8	5.77e-04	0	56	0	587202560	27	14500
2026-01-26 00:08:41.78	232.98	15.74	-28.3	-28.1	18.8	2.10e-04	0	56	0	696254464	27	14736
2026-01-26 00:08:42.79	233.24	15.83	-28.2	-28.0	18.8	2.10e-04	0	56	0	813694976	27	14586
2026-01-26 00:08:43.80	233.50	15.92	-27.6	-27.5	19.1	2.10e-04	0	56	0	922746880	27	13738
2026-01-26 00:08:44.81	233.76	16.00	-27.4	-27.2	19.2	1.76e-04	0	56	0	1031798784	26	14110
2026-01-26 00:08:45.81	234.02	16.09	-27.5	-27.3	19.2	1.76e-04	0	56	0	1149239296	26	14258
2026-01-26 00:08:46.81	234.28	16.17	-27.3	-27.1	19.3	1.76e-04	0	56	0	1258291200	26	13946
2026-01-26 00:08:47.82	234.55	16.26	-27.3	-27.2	19.2	9.53e-05	0	56	0	1375731712	26	13970
2026-01-26 00:08:48.83	234.82	16.34	-27.3	-27.2	19.3	9.53e-05	0	56	0	1484783616	26	13984
2026-01-26 00:08:49.84	235.09	16.43	-27.6	-27.5	19.1	9.53e-05	0	56	0	1593835520	26	14546
2026-01-26 00:08:50.84	235.36	16.51	-27.4	-27.2	19.2	1.19e-04	0	56	0	1719664640	26	14064
2026-01-26 00:08:51.85	235.63	16.60	-27.2	-27.1	19.3	1.19e-04	0	56	0	1837105152	26	13879
2026-01-26 00:08:52.86	235.91	16.68	-27.3	-27.2	19.3	1.19e-04	0	56	0	1946157056	26	14001
2026-01-26 00:08:53.87	236.18	16.77	-27.2	-27.1	19.3	5.24e-05	0	57	0	2055208960	26	13866
2026-01-26 00:08:54.88	236.46	16.85	-27.3	-27.2	19.3	5.24e-05	0	56	0	2172649472	26	13965
2026-01-26 00:08:55.88	236.74	16.93	-27.3	-27.2	19.2	8.58e-05	0	56	0	2281701376	26	13974
2026-01-26 00:08:56.89	237.02	17.02	-27.2	-27.1	19.2	8.58e-05	0	56	0	2399141888	26	13861
2026-01-26 00:08:57.90	237.31	17.10	-27.2	-27.1	19.2	8.58e-05	0	57	0	2508193792	26	13874
2026-01-26 00:08:58.91	237.60	17.18	-27.2	-27.1	18.8	5.72e-05	0	57	0	2625634304	26	13920
2026-01-26 00:08:59.92	237.88	17.27	-27.2	-27.1	19.3	5.72e-05	0	57	0	2734686208	26	13814
2026-01-26 00:09:00.93	238.17	17.35	-27.3	-27.2	19.2	5.72e-05	0	57	0	2843738112	26	14015
2026-01-26 00:09:01.94	238.46	17.43	-27.1	-26.9	19.4	3.33e-05	0	56	0	2961178624	26	13572
2026-01-26 00:09:02.94	238.75	17.51	-27.1	-27.0	19.3	3.33e-05	0	57	0	3078619136	26	13703
2026-01-26 00:09:03.95	239.05	17.60	-27.2	-27.1	19.3	1.90e-05	0	56	0	3196059648	26	13797
2026-01-26 00:09:04.96	239.35	17.68	-27.1	-26.9	19.3	1.90e-05	0	57	0	3305111552	26	13601
2026-01-26 00:09:05.97	239.65	17.76	-27.0	-26.8	19.4	1.90e-05	0	57	0	3422552064	25	14263
2026-01-26 00:09:06.97	239.94	17.84	-26.9	-26.7	19.4	1.90e-05	0	57	0	3531603968	25	14103
2026-01-26 00:09:07.98	240.25	17.92	-26.9	-26.7	19.4	1.43e-05	0	57	0	3649044480	25	14102
2026-01-26 00:09:08.99	240.55	18.00	-27.0	-26.9	19.4	1.43e-05	0	57	0	3758096384	25	14301
2026-01-26 00:09:09.99	240.85	18.08	-26.9	-26.7	19.4	1.43e-05	0	57	0	3867148288	25	14083
2026-01-26 00:09:11.00	241.16	18.16	-26.8	-26.7	19.4	1.90e-05	0	57	0	3984588800	25	14012
2026-01-26 00:09:12.01	241.47	18.24	-26.8	-26.7	19.5	1.90e-05	0	57	0	4093640704	25	13985
2026-01-26 00:09:13.01	241.78	18.31	-26.8	-26.7	19.5	1.90e-05	0	57	0	4211081216	25	13961
2026-01-26 00:09:14.02	242.09	18.39	-26.7	-26.6	19.5	1.43e-05	0	57	0	4320133120	25	13875
2026-01-26 00:09:15.02	242.40	18.47	-26.7	-26.6	19.5	1.43e-05	0	57	0	4429185024	25	13825
2026-01-26 00:09:16.03	242.72	18.55	-26.6	-26.5	19.5	1.43e-05	0	57	0	4546625536	25	13724
2026-01-26 00:09:17.04	243.04	18.62	-26.7	-26.6	19.5	4.70e-06	0	57	0	4655677440	25	13846
2026-01-26 00:09:18.04	243.36	18.70	-26.7	-26.6	19.5	4.70e-06	0	57	0	4781506560	25	13876
2026-01-26 00:09:19.04	243.67	18.77	-26.6	-26.5	19.5	4.70e-06	0	57	0	4890558464	25	13743
2026-01-26 00:09:20.05	244.00	18.85	-26.6	-26.4	19.6	9.50e-06	0	57	0	5007998976	25	13589
2026-01-26 00:09:21.06	244.32	18.92	-26.6	-26.4	19.6	9.50e-06	0	57	0	5117050880	25	13600
2026-01-26 00:09:22.07	244.65	19.00	-26.5	-26.4	19.6	9.50e-06	0	57	0	5234491392	25	13572
2026-01-26 00:09:23.08	244.98	19.07	-26.5	-26.3	19.6	0.00e+00	0	57	0	5343543296	25	13476
2026-01-26 00:09:24.09	245.31	19.14	-26.5	-26.4	19.6	0.00e+00	0	57	0	5452595200	24	14338
2026-01-26 00:09:25.09	245.64	19.21	-26.5	-26.4	19.6	1.43e-05	0	57	0	5570035712	24	14281
2026-01-26 00:09:26.10	245.98	19.29	-26.4	-26.2	19.7	1.43e-05	0	57	0	5679087616	24	14105
2026-01-26 00:09:27.11	246.31	19.36	-26.5	-26.3	19.6	1.43e-05	0	57	0	5796528128	24	14242
2026-01-26 00:09:28.11	246.65	19.43	-26.4	-26.3	19.6	4.70e-06	0	57	0	5905580032	24	14198
2026-01-26 00:09:29.12	246.99	19.50	-26.5	-26.3	19.6	4.70e-06	0	57	0	6023020544	24	14263
2026-01-26 00:09:30.12	247.32	19.57	-26.4	-26.3	19.7	4.70e-06	0	57	0	6132072448	24	14189
2026-01-26 00:09:31.13	247.67	19.63	-26.4	-26.3	19.6	9.50e-06	0	57	0	6241124352	24	14226
2026-01-26 00:09:32.13	248.01	19.70	-26.5	-26.3	19.6	9.50e-06	0	57	0	6358564864	24	14260
2026-01-26 00:09:33.14	248.36	19.77	-26.3	-26.2	19.7	4.70e-06	0	57	0	6467616768	24	14010
2026-01-26 00:09:34.14	248.70	19.83	-26.3	-26.2	19.7	4.70e-06	0	57	0	6593445888	24	14030
2026-01-26 00:09:35.15	249.05	19.90	-26.2	-26.1	19.8	0.00e+00	0	57	0	6702497792	24	13858
2026-01-26 00:09:36.16	249.40	19.97	-26.3	-26.2	19.7	0.00e+00	0	57	0	6819938304	24	13951
2026-01-26 00:09:37.17	249.76	20.03	-26.3	-26.2	19.7	0.00e+00	0	57	0	6928990208	24	13993
2026-01-26 00:09:38.18	250.11	20.09	-26.3	-26.2	19.7	0.00e+00	0	58	0	7046430720	24	14015
2026-01-26 00:09:39.18	250.46	20.15	-26.1	-25.9	19.8	0.00e+00	0	57	0	7155482624	24	13625
2026-01-26 00:09:40.19	250.82	20.22	-26.2	-26.1	19.8	0.00e+00	0	57	0	7264534528	24	13831
2026-01-26 00:09:41.20	251.18	20.28	-26.2	-26.1	19.8	4.70e-06	0	58	0	7381975040	24	13842
2026-01-26 00:09:42.21	251.54	20.34	-26.3	-26.1	19.8	4.70e-06	0	57	0	7491026944	24	13946
2026-01-26 00:09:43.22	251.90	20.40	-26.0	-25.9	19.8	4.70e-06	0	57	0	7608467456	24	13559
2026-01-26 00:09:44.23	252.27	20.46	-26.1	-26.0	19.8	0.00e+00	0	58	0	7717519360	24	13687
2026-01-26 00:09:45.24	252.63	20.51	-26.1	-26.0	19.8	0.00e+00	0	58	0	7826571264	24	13680
2026-01-26 00:09:46.25	253.00	20.57	-26.0	-25.9	19.8	0.00e+00	0	58	0	7952400384	24	13563
2026-01-26 00:09:47.26	253.37	20.63	-25.9	-25.8	19.9	0.00e+00	0	58	0	8069840896	23	14189
2026-01-26 00:09:48.26	253.74	20.68	-26.1	-25.9	19.8	0.00e+00	0	58	0	8178892800	23	14398
2026-01-26 00:09:49.27	254.11	20.73	-26.1	-26.0	19.8	0.00e+00	0	58	0	8287944704	23	14546
2026-01-26 00:09:50.28	254.48	20.79	-26.0	-25.9	19.9	0.00e+00	0	58	0	8405385216	23	14311
2026-01-26 00:09:51.29	254.86	20.84	-26.1	-26.0	19.8	0.00e+00	0	58	0	8514437120	23	14542
2026-01-26 00:09:52.30	255.23	20.89	-26.2	-26.0	19.8	0.00e+00	0	58	0	8631877632	23	14571
2026-01-26 00:09:53.31	255.61	20.94	-26.3	-26.2	19.8	0.00e+00	0	58	0	8740929536	23	14839
2026-01-26 00:09:54.31	255.98	20.99	-26.0	-25.9	19.9	0.00e+00	0	58	0	8858370048	23	14361
2026-01-26 00:09:55.32	256.36	21.04	-26.2	-26.1	19.8	0.00e+00	0	58	0	8967421952	23	14684
2026-01-26 00:09:56.33	256.75	21.08	-25.9	-25.8	19.9	0.00e+00	0	58	0	9076473856	23	14223
2026-01-26 00:09:57.34	257.13	21.13	-26.2	-26.1	19.8	0.00e+00	0	58	0	9193914368	23	14703
2026-01-26 00:09:58.34	257.51	21.17	-26.3	-26.1	19.8	0.00e+00	0	58	0	9311354880	23	14758
2026-01-26 00:09:59.35	257.89	21.22	-26.0	-25.9	19.3	0.00e+00	0	58	0	9428795392	23	14346
2026-01-26 00:10:00.36	258.28	21.26	-26.1	-25.9	19.6	0.00e+00	0	58	0	9537847296	23	14427
2026-01-26 00:10:01.36	258.66	21.30	-26.3	-26.1	19.6	0.00e+00	0	58	0	9655287808	23	14751
2026-01-26 00:10:02.37	259.05	21.34	-26.2	-26.1	19.7	0.00e+00	0	58	0	9764339712	23	14642
2026-01-26 00:10:03.38	259.44	21.38	-26.0	-25.9	19.6	0.00e+00	0	58	0	9881780224	23	14368
2026-01-26 00:10:04.39	259.83	21.42	-26.1	-26.0	19.2	0.00e+00	0	58	0	9990832128	23	14481
2026-01-26 00:10:05.39	260.22	21.45	-26.4	-26.3	19.2	0.00e+00	0	58	0	10099884032	23	15020
2026-01-26 00:10:06.40	260.61	21.49	-26.4	-26.3	19.6	1.43e-05	0	58	0	10217324544	23	15053
2026-01-26 00:10:07.41	261.00	21.52	-26.0	-25.9	19.7	1.43e-05	0	58	0	10326376448	23	14359
2026-01-26 00:10:08.42	261.40	21.56	-26.0	-25.9	19.7	1.43e-05	0	58	0	10443816960	23	14343
2026-01-26 00:10:09.42	261.79	21.59	-26.4	-26.3	19.4	4.70e-06	0	58	0	10552868864	23	14975
2026-01-26 00:10:10.43	262.19	21.62	-26.1	-25.9	19.1	4.70e-06	0	58	0	10661920768	23	14433
2026-01-26 00:10:11.44	262.58	21.65	-25.9	-25.8	19.5	4.70e-06	0	58	0	10779361280	23	14184
2026-01-26 00:10:12.45	262.98	21.68	-26.0	-25.9	19.8	1.43e-05	0	58	0	10905190400	23	14299
2026-01-26 00:10:13.46	263.38	21.70	-26.2	-26.0	19.7	1.43e-05	0	58	0	11014242304	23	14572
2026-01-26 00:10:14.47	263.78	21.73	-26.4	-26.3	19.6	0.00e+00	0	58	0	11123294208	23	14956
2026-01-26 00:10:15.47	264.17	21.75	-26.7	-26.6	19.2	0.00e+00	0	58	0	11240734720	24	14641
2026-01-26 00:10:16.48	264.58	21.78	-26.8	-26.6	19.6	0.00e+00	0	58	0	11349786624	24	14737
2026-01-26 00:10:17.49	264.98	21.80	-26.5	-26.4	19.7	4.70e-06	0	58	0	11467227136	24	14381
2026-01-26 00:10:18.50	265.38	21.82	-26.6	-26.5	19.7	4.70e-06	0	58	0	11576279040	24	14466
2026-01-26 00:10:19.51	265.78	21.84	-26.8	-26.7	19.6	4.70e-06	0	58	0	11685330944	24	14784
2026-01-26 00:10:20.52	266.18	21.86	-26.4	-26.3	19.8	4.70e-06	0	58	0	11802771456	24	14142
2026-01-26 00:10:21.52	266.58	21.88	-26.5	-26.4	19.8	4.70e-06	0	58	0	11911823360	24	14312
2026-01-26 00:10:22.53	266.99	21.89	-26.0	-25.8	20.0	4.70e-06	0	58	0	12029263872	24	13470
2026-01-26 00:10:23.54	267.39	21.91	-26.5	-26.4	19.7	0.00e+00	0	58	0	12138315776	23	15172
2026-01-26 00:10:24.55	267.80	21.92	-25.9	-25.8	20.0	0.00e+00	0	58	0	12264144896	23	14142
2026-01-26 00:10:25.56	268.20	21.93	-25.8	-25.7	20.0	0.00e+00	0	58	0	12373196800	23	14059
2026-01-26 00:10:26.57	268.61	21.94	-26.0	-25.8	19.9	0.00e+00	0	58	0	12490637312	23	14242
2026-01-26 00:10:27.57	269.01	21.95	-27.1	-27.0	19.5	0.00e+00	0	58	0	12599689216	24	15390
2026-01-26 00:10:28.58	269.42	21.96	-25.9	-25.8	20.0	0.00e+00	0	58	0	12717129728	23	14212
2026-01-26 00:10:29.59	269.82	21.96	-25.8	-25.7	20.0	0.00e+00	0	58	0	12826181632	23	13974
2026-01-26 00:10:30.60	270.23	21.97	-25.7	-25.6	20.1	0.00e+00	0	58	0	12935233536	23	13848
2026-01-26 00:10:31.61	270.63	21.97	-25.7	-25.5	20.1	0.00e+00	0	58	0	13052674048	23	13761
2026-01-26 00:10:32.61	271.04	21.98	-25.8	-25.6	20.0	0.00e+00	0	58	0	13161725952	23	13895
2026-01-26 00:10:33.62	271.44	21.98	-26.0	-25.8	20.0	4.70e-06	0	58	0	13279166464	23	14261
2026-01-26 00:10:34.63	271.85	21.98	-25.8	-25.6	20.0	4.70e-06	0	58	0	13388218368	23	13918
2026-01-26 00:10:35.63	272.25	21.97	-25.7	-25.5	20.1	4.70e-06	0	58	0	13497270272	23	13755
2026-01-26 00:10:36.64	272.66	21.97	-25.8	-25.6	20.0	9.50e-06	0	58	0	13614710784	23	13895
2026-01-26 00:10:37.65	273.07	21.97	-25.9	-25.8	20.0	9.50e-06	0	58	0	13740539904	23	14133
2026-01-26 00:10:38.65	273.47	21.96	-25.8	-25.7	20.0	0.00e+00	0	58	0	13849591808	23	13985
2026-01-26 00:10:39.66	273.87	21.96	-25.7	-25.6	20.1	0.00e+00	0	58	0	13958643712	23	13872
2026-01-26 00:10:40.67	274.28	21.95	-25.8	-25.7	20.0	0.00e+00	0	58	0	14076084224	23	14002
2026-01-26 00:10:41.67	274.68	21.94	-25.8	-25.6	20.1	0.00e+00	0	58	0	14185136128	23	13901
2026-01-26 00:10:42.68	275.09	21.93	-26.0	-25.8	20.0	0.00e+00	0	58	0	14302576640	23	14241
2026-01-26 00:10:43.68	275.49	21.91	-25.8	-25.6	20.1	9.50e-06	0	58	0	14411628544	23	13916
2026-01-26 00:10:44.69	275.89	21.90	-25.6	-25.5	20.1	9.50e-06	0	58	0	14520680448	23	13709
2026-01-26 00:10:45.70	276.30	21.89	-25.7	-25.6	20.1	9.50e-06	0	58	0	14638120960	23	13848
2026-01-26 00:10:46.71	276.70	21.87	-25.8	-25.6	20.0	0.00e+00	0	58	0	14747172864	23	13909
2026-01-26 00:10:47.72	277.10	21.85	-25.8	-25.6	20.1	0.00e+00	0	58	0	14864613376	23	13905
2026-01-26 00:10:48.73	277.50	21.83	-25.8	-25.7	20.1	0.00e+00	0	58	0	14973665280	23	14008
2026-01-26 00:10:49.74	277.91	21.81	-25.8	-25.7	20.1	0.00e+00	0	58	0	15082717184	23	13992
2026-01-26 00:10:50.75	278.31	21.79	-25.9	-25.8	20.0	0.00e+00	0	58	0	15208546304	23	14116
2026-01-26 00:10:51.76	278.71	21.77	-25.9	-25.8	20.0	0.00e+00	0	58	0	15325986816	23	14173
2026-01-26 00:10:52.76	279.10	21.75	-25.8	-25.6	20.1	0.00e+00	0	58	0	15435038720	23	13945
2026-01-26 00:10:53.77	279.50	21.72	-25.9	-25.8	20.0	0.00e+00	0	58	0	15544090624	23	14157
2026-01-26 00:10:54.78	279.90	21.70	-26.0	-25.8	20.0	0.00e+00	0	58	0	15661531136	23	14228
2026-01-26 00:10:55.79	280.30	21.67	-25.9	-25.7	20.1	0.00e+00	0	58	0	15770583040	23	14080
2026-01-26 00:10:56.79	280.69	21.64	-26.0	-25.9	20.0	0.00e+00	0	58	0	15888023552	23	14388
2026-01-26 00:10:57.80	281.09	21.61	-26.0	-25.9	20.0	0.00e+00	0	58	0	15997075456	23	14382
2026-01-26 00:10:58.81	281.49	21.58	-25.9	-25.8	20.0	0.00e+00	0	58	0	16114515968	23	14155
2026-01-26 00:10:59.82	281.88	21.55	-25.8	-25.7	20.1	0.00e+00	0	58	0	16223567872	23	14013
2026-01-26 00:11:00.83	282.27	21.51	-25.9	-25.7	20.1	0.00e+00	0	58	0	16332619776	23	14102
2026-01-26 00:11:01.84	282.67	21.48	-26.1	-26.0	20.0	0.00e+00	0	58	0	16450060288	23	14477
2026-01-26 00:11:02.85	283.06	21.44	-26.3	-26.1	19.9	0.00e+00	0	58	0	16567500800	23	14761
2026-01-26 00:11:03.85	283.44	21.41	-26.0	-25.9	20.0	0.00e+00	0	58	0	16684941312	23	14347
2026-01-26 00:11:04.87	283.84	21.37	-26.0	-25.9	20.0	0.00e+00	0	58	0	16793993216	23	14336
2026-01-26 00:11:05.87	284.22	21.33	-26.0	-25.8	20.0	9.50e-06	0	58	0	16911433728	23	14226
2026-01-26 00:11:06.88	284.61	21.29	-26.0	-25.8	20.0	9.50e-06	0	58	0	17020485632	23	14255
2026-01-26 00:11:07.88	284.99	21.25	-26.0	-25.8	20.0	9.50e-06	0	58	0	17137926144	23	14265
2026-01-26 00:11:08.89	285.38	21.20	-26.1	-26.0	20.0	9.50e-06	0	58	0	17246978048	23	14496
2026-01-26 00:11:09.89	285.76	21.16	-26.1	-25.9	20.0	0.00e+00	0	58	0	17356029952	23	14386
2026-01-26 00:11:10.90	286.14	21.12	-26.1	-26.0	20.0	0.00e+00	0	58	0	17473470464	23	14553
2026-01-26 00:11:11.91	286.52	21.07	-26.0	-25.9	20.0	0.00e+00	0	58	0	17582522368	23	14369
2026-01-26 00:11:12.92	286.90	21.02	-26.0	-25.9	20.0	0.00e+00	0	58	0	17699962880	23	14354
2026-01-26 00:11:13.93	287.28	20.97	-25.9	-25.7	20.1	0.00e+00	0	58	0	17809014784	23	14078
2026-01-26 00:11:14.93	287.65	20.93	-26.0	-25.9	20.1	0.00e+00	0	58	0	17918066688	23	14277
2026-01-26 00:11:15.94	288.03	20.88	-26.3	-26.1	20.0	0.00e+00	0	58	0	18035507200	23	14737
2026-01-26 00:11:16.95	288.40	20.83	-26.2	-26.0	20.0	0.00e+00	0	58	0	18161336320	23	14605
2026-01-26 00:11:17.95	288.77	20.77	-26.1	-26.0	20.0	0.00e+00	0	58	0	18270388224	23	14465
2026-01-26 00:11:18.96	289.14	20.72	-26.1	-26.0	20.0	0.00e+00	0	58	0	18379440128	23	14455
2026-01-26 00:11:19.97	289.51	20.67	-26.3	-26.1	19.9	0.00e+00	0	58	0	18496880640	23	14759
2026-01-26 00:11:20.97	289.88	20.61	-26.2	-26.1	20.0	0.00e+00	0	58	0	18605932544	23	14692
2026-01-26 00:11:21.98	290.24	20.56	-26.4	-26.2	19.9	4.70e-06	0	58	0	18723373056	23	14904
2026-01-26 00:11:22.99	290.61	20.50	-26.3	-26.2	19.9	4.70e-06	0	58	0	18832424960	23	14788
2026-01-26 00:11:24.00	290.97	20.44	-26.3	-26.2	19.9	4.70e-06	0	58	0	18941476864	23	14894
2026-01-26 00:11:25.00	291.33	20.38	-26.5	-26.4	19.8	0.00e+00	0	58	0	19058917376	23	15126
2026-01-26 00:11:26.01	291.70	20.33	-26.3	-26.2	19.9	0.00e+00	0	58	0	19167969280	23	14893
2026-01-26 00:11:27.02	292.05	20.27	-26.3	-26.1	19.9	0.00e+00	0	58	0	19285409792	23	14741
2026-01-26 00:11:28.03	292.41	20.20	-26.3	-26.2	19.9	0.00e+00	0	58	0	19394461696	23	14818
2026-01-26 00:11:29.03	292.77	20.14	-26.3	-26.2	19.9	0.00e+00	0	58	0	19511902208	23	14812
2026-01-26 00:11:30.04	293.12	20.08	-26.4	-26.3	19.9	0.00e+00	0	58	0	19620954112	23	15033
2026-01-26 00:11:31.04	293.47	20.02	-26.4	-26.3	19.9	4.70e-06	0	58	0	19746783232	23	14972
2026-01-26 00:11:32.05	293.82	19.95	-26.3	-26.2	20.0	4.70e-06	0	58	0	19855835136	23	14865
2026-01-26 00:11:33.05	294.17	19.89	-26.5	-26.4	19.9	9.50e-06	0	58	0	19973275648	23	15138
2026-01-26 00:11:34.06	294.52	19.82	-26.6	-26.4	19.9	9.50e-06	0	58	0	20082327552	23	15235
2026-01-26 00:11:35.07	294.86	19.76	-26.5	-26.3	19.9	9.50e-06	0	58	0	20191379456	23	15058
2026-01-26 00:11:36.08	295.21	19.69	-26.5	-26.4	19.9	0.00e+00	0	58	0	20308819968	23	15206
2026-01-26 00:11:37.08	295.55	19.62	-26.5	-26.4	19.9	0.00e+00	0	58	0	20417871872	23	15202
2026-01-26 00:11:38.09	295.89	19.56	-26.6	-26.5	19.8	0.00e+00	0	58	0	20535312384	23	15314
2026-01-26 00:11:39.10	296.23	19.49	-26.6	-26.4	19.8	0.00e+00	0	58	0	20644364288	23	15245
2026-01-26 00:11:40.11	296.57	19.42	-26.8	-26.7	19.7	0.00e+00	0	58	0	20753416192	24	14872
2026-01-26 00:11:41.11	296.90	19.35	-26.8	-26.7	19.8	0.00e+00	0	59	0	20870856704	24	14791
2026-01-26 00:11:42.12	297.23	19.28	-26.5	-26.4	19.9	9.50e-06	0	58	0	20979908608	24	14313
2026-01-26 00:11:43.13	297.57	19.20	-26.6	-26.4	19.9	9.50e-06	0	58	0	21097349120	24	14421
2026-01-26 00:11:44.13	297.90	19.13	-26.7	-26.5	19.8	4.70e-06	0	58	0	21206401024	24	14560
2026-01-26 00:11:45.13	298.22	19.06	-26.6	-26.5	19.8	4.70e-06	0	58	0	21315452928	24	14541
2026-01-26 00:11:46.13	298.55	18.99	-26.7	-26.6	19.8	4.70e-06	0	58	0	21432893440	24	14673
2026-01-26 00:11:47.13	298.87	18.92	-26.8	-26.6	19.8	4.70e-06	0	58	0	21541945344	24	14767
2026-01-26 00:11:48.14	299.19	18.84	-26.8	-26.6	19.8	4.70e-06	0	58	0	21667774464	24	14749
2026-01-26 00:11:49.15	299.51	18.77	-26.8	-26.7	19.8	4.70e-06	0	58	0	21776826368	24	14830
2026-01-26 00:11:50.16	299.83	18.69	-27.0	-26.9	19.7	4.70e-06	0	58	0	21894266880	24	15148
2026-01-26 00:11:51.17	300.15	18.62	-26.9	-26.8	19.7	0.00e+00	0	58	0	22003318784	24	15000
2026-01-26 00:11:52.17	300.47	18.54	-27.0	-26.9	19.7	0.00e+00	0	58	0	22120759296	24	15144
2026-01-26 00:11:53.18	300.78	18.46	-27.1	-27.0	19.6	0.00e+00	0	58	0	22229811200	24	15296
2026-01-26 00:11:54.19	301.10	18.39	-27.1	-27.0	19.6	0.00e+00	0	58	0	22338863104	24	15308
2026-01-26 00:11:55.19	301.40	18.31	-27.0	-26.9	19.6	4.70e-06	0	58	0	22456303616	24	15194
2026-01-26 00:11:56.20	301.71	18.23	-27.2	-27.0	19.6	4.70e-06	0	58	0	22565355520	24	15427
2026-01-26 00:11:57.21	302.02	18.15	-27.1	-27.0	19.6	4.70e-06	0	58	0	22682796032	24	15354
2026-01-26 00:11:58.21	302.32	18.07	-27.2	-27.0	19.6	4.70e-06	0	58	0	22791847936	24	15411
2026-01-26 00:11:59.22	302.63	17.99	-27.3	-27.2	19.6	4.70e-06	0	58	0	22909288448	25	14806
2026-01-26 00:12:00.23	302.93	17.91	-27.2	-27.1	19.6	4.70e-06	0	58	0	23018340352	25	14697
2026-01-26 00:12:01.23	303.23	17.84	-27.4	-27.2	19.5	4.70e-06	0	58	0	23127392256	25	14930
2026-01-26 00:12:02.24	303.53	17.75	-27.5	-27.4	19.5	4.70e-06	0	58	0	23253221376	25	15130
2026-01-26 00:12:03.25	303.82	17.67	-27.3	-27.2	19.5	1.43e-05	0	58	0	23370661888	25	14883
2026-01-26 00:12:04.25	304.12	17.59	-27.4	-27.2	19.5	1.43e-05	0	58	0	23479713792	25	14942
2026-01-26 00:12:05.26	304.41	17.51	-27.5	-27.4	19.4	1.90e-05	0	58	0	23588765696	25	15161
2026-01-26 00:12:06.26	304.70	17.43	-27.6	-27.5	19.4	1.90e-05	0	58	0	23706206208	25	15388
2026-01-26 00:12:07.27	304.99	17.35	-27.6	-27.5	19.4	2.38e-05	0	58	0	23815258112	25	15325
2026-01-26 00:12:08.28	305.28	17.27	-27.7	-27.6	19.4	2.38e-05	0	58	0	23932698624	26	14704
2026-01-26 00:12:09.29	305.56	17.18	-27.7	-27.6	19.4	2.38e-05	0	58	0	24041750528	26	14671
2026-01-26 00:12:10.29	305.84	17.10	-27.8	-27.6	19.3	4.70e-06	0	59	0	24150802432	26	14764
2026-01-26 00:12:11.30	306.13	17.02	-27.7	-27.6	19.3	4.70e-06	0	58	0	24268242944	26	14715
2026-01-26 00:12:12.31	306.41	16.94	-27.9	-27.7	19.3	4.29e-05	0	59	0	24377294848	26	14920
2026-01-26 00:12:13.31	306.69	16.85	-27.9	-27.8	19.3	4.29e-05	0	58	0	24494735360	26	14983
2026-01-26 00:12:14.33	306.97	16.77	-27.8	-27.7	19.3	4.29e-05	0	58	0	24603787264	26	14850
2026-01-26 00:12:15.34	307.24	16.69	-28.0	-27.9	19.2	4.29e-05	0	59	0	24712839168	26	15132
2026-01-26 00:12:16.34	307.51	16.60	-28.1	-28.0	19.1	4.29e-05	0	58	0	24838668288	26	15323
2026-01-26 00:12:17.35	307.78	16.52	-28.0	-27.9	19.2	4.29e-05	0	58	0	24956108800	26	15221
2026-01-26 00:12:18.36	308.06	16.43	-28.0	-27.9	19.2	4.76e-05	0	58	0	25065160704	26	15257
2026-01-26 00:12:19.37	308.32	16.35	-28.2	-28.1	19.1	4.76e-05	0	58	0	25174212608	26	15486
2026-01-26 00:12:20.38	308.59	16.26	-28.1	-28.0	19.1	4.76e-05	0	58	0	25291653120	26	15340
2026-01-26 00:12:21.39	308.86	16.18	-28.2	-28.1	19.1	3.81e-05	0	59	0	25400705024	27	14660
2026-01-26 00:12:22.39	309.12	16.10	-28.3	-28.2	19.1	3.81e-05	0	58	0	25518145536	27	14843
2026-01-26 00:12:23.40	309.38	16.01	-28.3	-28.2	19.1	3.81e-05	0	58	0	25627197440	27	14810
2026-01-26 00:12:24.41	309.64	15.92	-28.4	-28.2	19.0	5.24e-05	0	58	0	25736249344	27	14945
2026-01-26 00:12:25.42	309.90	15.84	-28.4	-28.3	19.0	5.24e-05	0	58	0	25853689856	27	15063
2026-01-26 00:12:26.42	310.15	15.75	-28.6	-28.5	18.9	8.10e-05	0	59	0	25962741760	27	15370
2026-01-26 00:12:27.43	310.41	15.67	-28.6	-28.4	18.9	8.10e-05	0	59	0	26080182272	27	15257
2026-01-26 00:12:28.44	310.66	15.58	-28.6	-28.5	18.9	8.10e-05	0	59	0	26189234176	27	15399
2026-01-26 00:12:29.44	310.91	15.50	-28.7	-28.5	18.8	7.62e-05	0	59	0	26315063296	27	15462
2026-01-26 00:12:30.45	311.16	15.41	-28.6	-28.5	18.8	7.62e-05	0	59	0	26424115200	28	14479
2026-01-26 00:12:31.46	311.41	15.33	-28.6	-28.4	18.8	7.62e-05	0	58	0	26541555712	28	14410
2026-01-26 00:12:32.47	311.66	15.24	-28.6	-28.5	18.8	8.10e-05	0	58	0	26650607616	28	14518
2026-01-26 00:12:33.48	311.90	15.16	-28.7	-28.6	18.7	8.10e-05	0	59	0	26768048128	28	14693
2026-01-26 00:12:34.49	312.15	15.07	-28.8	-28.7	18.7	8.10e-05	0	58	0	26877100032	28	14846
2026-01-26 00:12:35.49	312.39	14.98	-28.8	-28.7	18.7	1.24e-04	0	58	0	26986151936	28	14800
2026-01-26 00:12:36.50	312.63	14.90	-28.8	-28.7	18.7	1.24e-04	0	59	0	27103592448	28	14779
2026-01-26 00:12:37.51	312.86	14.81	-28.9	-28.7	18.7	1.24e-04	0	59	0	27212644352	28	14911
2026-01-26 00:12:38.52	313.10	14.73	-28.9	-28.8	18.6	1.24e-04	0	58	0	27330084864	28	15017
2026-01-26 00:12:39.53	313.34	14.64	-28.9	-28.7	18.7	1.24e-04	0	59	0	27439136768	28	14917
2026-01-26 00:12:40.53	313.57	14.55	-29.0	-28.8	18.6	1.24e-04	0	59	0	27548188672	28	15102
2026-01-26 00:12:41.54	313.80	14.47	-29.1	-29.0	18.5	1.76e-04	0	58	0	27665629184	28	15348
2026-01-26 00:12:42.55	314.03	14.38	-29.0	-28.9	18.6	1.76e-04	0	58	0	27791458304	28	15259
2026-01-26 00:12:43.55	314.26	14.30	-29.3	-29.2	18.4	1.76e-04	0	58	0	27900510208	29	14824
2026-01-26 00:12:44.56	314.49	14.21	-29.2	-29.0	18.5	1.86e-04	0	59	0	28009562112	29	14580
2026-01-26 00:12:45.57	314.71	14.12	-29.2	-29.1	18.5	1.86e-04	0	59	0	28127002624	29	14696
2026-01-26 00:12:46.58	314.94	14.04	-29.4	-29.3	18.3	1.86e-04	0	58	0	28236054528	29	15065
2026-01-26 00:12:47.59	315.16	13.95	-29.4	-29.3	18.4	1.76e-04	0	58	0	28353495040	29	14964
2026-01-26 00:12:48.60	315.39	13.87	-29.5	-29.4	18.3	1.76e-04	0	59	0	28462546944	29	15147
2026-01-26 00:12:49.60	315.60	13.78	-29.4	-29.3	18.3	1.76e-04	0	58	0	28571598848	29	15082
2026-01-26 00:12:50.61	315.82	13.70	-29.5	-29.4	18.3	2.38e-04	0	58	0	28689039360	29	15222
2026-01-26 00:12:51.61	316.04	13.61	-29.6	-29.4	18.3	2.38e-04	0	58	0	28798091264	29	15254
2026-01-26 00:12:52.61	316.25	13.53	-29.5	-29.4	18.3	2.38e-04	0	59	0	28915531776	29	15252
2026-01-26 00:12:53.62	316.47	13.44	-29.6	-29.5	18.2	2.53e-04	0	59	0	29024583680	29	15400
2026-01-26 00:12:54.63	316.68	13.35	-29.7	-29.6	18.2	2.53e-04	0	59	0	29133635584	30	14727
2026-01-26 00:12:55.64	316.89	13.27	-51.0	-52.3	6.6	2.53e-04	0	58	104	29209133056	72	17900
2026-01-26 00:12:56.65	317.10	13.18	-53.2	-55.6	6.2	2.53e-04	0	58	104	29209133056	77	19587
2026-01-26 00:12:57.66	317.31	13.10	-53.2	-55.5	6.2	2.53e-04	0	57	104	29209133056	77	19448
2026-01-26 00:12:58.66	317.52	13.01	-53.3	-55.5	6.2	2.53e-04	0	57	104	29209133056	77	19442
2026-01-26 00:12:59.67	317.72	12.93	-53.5	-55.6	6.2	2.53e-04	0	57	104	29209133056	77	19514
2026-01-26 00:13:00.67	317.93	12.84	-53.5	-55.6	6.2	2.53e-04	0	57	104	29209133056	77	19500
2026-01-26 00:13:01.68	318.13	12.76	-53.4	-55.6	6.2	2.62e-04	0	57	104	29209133056	77	19556
2026-01-26 00:13:02.68	318.33	12.68	-53.3	-55.5	6.2	2.62e-04	0	57	104	29209133056	77	19441
2026-01-26 00:13:03.69	318.53	12.59	-53.4	-55.6	6.2	2.62e-04	0	57	104	29209133056	77	19496
2026-01-26 00:13:04.70	318.73	12.51	-53.4	-55.5	6.2	2.62e-04	0	57	104	29209133056	77	19439
2026-01-26 00:13:05.71	318.93	12.42	-53.4	-55.5	6.2	2.62e-04	0	57	104	29209133056	77	19443
2026-01-26 00:13:06.72	319.12	12.34	-53.3	-55.5	6.2	2.62e-04	0	57	104	29209133056	77	19436
2026-01-26 00:13:07.73	319.32	12.25	-53.4	-55.5	6.2	2.62e-04	0	57	104	29209133056	77	19470
2026-01-26 00:13:08.74	319.51	12.17	-53.4	-55.5	6.2	2.62e-04	0	57	104	29209133056	77	19357
2026-01-26 00:13:09.75	319.71	12.08	-53.4	-55.5	6.2	2.62e-04	0	57	104	29209133056	77	19426
2026-01-26 00:13:10.76	319.90	12.00	-53.3	-55.5	6.2	2.62e-04	0	57	104	29209133056	77	19275
2026-01-26 00:13:11.77	320.09	11.92	-53.4	-55.5	6.2	2.62e-04	0	57	104	29209133056	77	19312
2026-01-26 00:13:12.78	320.28	11.83	-53.4	-55.5	6.2	2.62e-04	0	57	104	29209133056	77	19271
2026-01-26 00:13:13.79	320.47	11.75	-53.3	-55.5	6.2	2.62e-04	0	57	104	29209133056	77	19307
2026-01-26 00:13:14.79	320.65	11.67	-53.2	-55.4	6.2	2.62e-04	0	57	104	29209133056	77	19211
2026-01-26 00:13:15.80	320.84	11.58	-53.3	-55.4	6.2	2.62e-04	0	57	104	29209133056	77	19218
2026-01-26 00:13:16.80	321.02	11.50	-53.3	-55.4	6.2	2.62e-04	0	56	104	29209133056	77	19218
2026-01-26 00:13:17.81	321.20	11.42	-53.3	-55.5	6.2	2.62e-04	0	57	104	29209133056	77	19272
2026-01-26 00:13:18.81	321.38	11.34	-53.2	-55.4	6.2	0.00e+00	0	56	104	29209133056	77	19245
2026-01-26 00:13:19.82	321.56	11.25	-53.3	-55.4	6.2	0.00e+00	0	56	104	29209133056	77	19143
2026-01-26 00:13:20.83	321.74	11.17	-53.3	-55.4	6.2	0.00e+00	0	57	104	29209133056	77	19090
2026-01-26 00:13:21.84	321.92	11.09	-53.3	-55.4	6.2	0.00e+00	0	56	104	29209133056	77	19195
2026-01-26 00:13:22.85	322.10	11.00	-53.2	-55.4	6.2	0.00e+00	0	56	104	29209133056	77	19087
2026-01-26 00:13:23.85	322.27	10.92	-53.3	-55.4	6.2	0.00e+00	0	56	104	29209133056	77	19117
2026-01-26 00:13:24.86	322.45	10.84	-53.3	-55.4	6.2	0.00e+00	0	56	104	29209133056	77	19092
2026-01-26 00:13:25.87	322.62	10.76	-53.3	-55.4	6.2	0.00e+00	0	56	104	29209133056	77	19186
2026-01-26 00:13:26.88	322.79	10.68	-53.2	-55.4	6.2	0.00e+00	0	56	104	29209133056	77	19068
2026-01-26 00:13:27.88	322.96	10.60	-53.3	-55.4	6.2	0.00e+00	0	56	104	29209133056	77	19090
2026-01-26 00:13:28.89	323.13	10.52	-53.2	-55.3	6.2	0.00e+00	0	56	104	29209133056	77	18977
2026-01-26 00:13:29.90	323.30	10.43	-53.2	-55.3	6.2	0.00e+00	0	56	104	29209133056	77	19006
2026-01-26 00:13:30.91	323.47	10.35	-53.1	-55.3	6.2	0.00e+00	0	56	104	29209133056	77	18981
2026-01-26 00:13:31.92	323.64	10.27	-53.2	-55.3	6.2	0.00e+00	0	56	104	29209133056	77	18958
2026-01-26 00:13:32.92	323.80	10.19	-53.2	-55.3	6.2	0.00e+00	0	56	104	29209133056	77	18901
2026-01-26 00:13:33.93	323.96	10.11	-53.2	-55.3	6.2	0.00e+00	0	56	104	29209133056	77	19003
2026-01-26 00:13:34.94	324.13	10.03	-53.1	-55.3	6.2	0.00e+00	0	56	104	29209133056	77	18852
2026-01-26 00:13:35.95	324.29	9.95	-53.2	-55.3	6.2	0.00e+00	0	56	104	29209133056	77	18852
2026-01-26 00:13:36.96	324.45	9.87	-53.2	-55.3	6.2	0.00e+00	0	56	104	29209133056	77	18834
2026-01-26 00:13:37.97	324.61	9.79	-53.2	-55.3	6.2	0.00e+00	0	56	104	29209133056	77	18935
2026-01-26 00:13:38.97	324.77	9.71	-53.1	-55.3	6.2	0.00e+00	0	56	104	29209133056	77	18830
2026-01-26 00:13:39.98	324.93	9.63	-53.2	-55.3	6.2	0.00e+00	0	56	104	29209133056	77	18877
2026-01-26 00:13:40.99	325.09	9.55	-53.1	-55.2	6.2	0.00e+00	0	56	104	29209133056	77	18793
2026-01-26 00:13:42.00	325.24	9.47	-53.2	-55.3	6.2	0.00e+00	0	56	104	29209133056	77	18895
2026-01-26 00:13:43.01	325.40	9.40	-53.1	-55.2	6.2	0.00e+00	0	56	104	29209133056	77	18763
2026-01-26 00:13:44.01	325.55	9.32	-53.1	-55.2	6.2	0.00e+00	0	56	104	29209133056	77	18774
2026-01-26 00:13:45.02	325.71	9.24	-53.1	-55.2	6.2	0.00e+00	0	56	104	29209133056	77	18663
2026-01-26 00:13:46.03	325.86	9.16	-53.2	-55.3	6.2	0.00e+00	0	56	104	29209133056	77	18869
2026-01-26 00:13:47.03	326.01	9.08	-53.0	-55.2	6.2	0.00e+00	0	56	104	29209133056	77	18719
2026-01-26 00:13:48.04	326.16	9.00	-53.1	-55.2	6.2	0.00e+00	0	56	104	29209133056	77	18761
2026-01-26 00:13:49.05	326.31	8.93	-53.1	-55.1	6.2	0.00e+00	0	56	104	29209133056	77	18600
2026-01-26 00:13:50.06	326.46	8.85	-53.1	-55.3	6.2	0.00e+00	0	56	104	29209133056	77	18854
2026-01-26 00:13:51.07	326.60	8.77	-53.0	-55.2	6.2	0.00e+00	0	56	104	29209133056	77	18641
2026-01-26 00:13:52.07	326.75	8.69	-53.1	-55.2	6.2	0.00e+00	0	56	104	29209133056	77	18632
2026-01-26 00:13:53.08	326.90	8.62	-53.0	-55.1	6.2	0.00e+00	0	56	104	29209133056	77	18486
2026-01-26 00:13:54.09	327.04	8.54	-53.1	-55.2	6.2	0.00e+00	0	56	104	29209133056	77	18712
2026-01-26 00:13:55.09	327.18	8.46	-53.0	-55.2	6.2	0.00e+00	0	56	104	29209133056	77	18618
2026-01-26 00:13:56.10	327.33	8.39	-53.0	-55.2	6.2	0.00e+00	0	56	104	29209133056	77	18619
2026-01-26 00:13:57.11	327.47	8.31	-53.0	-55.1	6.2	0.00e+00	0	56	104	29209133056	77	18473
2026-01-26 00:13:58.12	327.61	8.23	-53.1	-55.2	6.2	0.00e+00	0	56	104	29209133056	77	18651
2026-01-26 00:13:59.13	327.75	8.16	-52.9	-55.1	6.2	0.00e+00	0	56	104	29209133056	77	18448
2026-01-26 00:14:00.13	327.89	8.08	-53.0	-55.1	6.2	0.00e+00	0	55	104	29209133056	77	18512
2026-01-26 00:14:01.14	328.03	8.01	-53.0	-55.0	6.2	0.00e+00	0	56	104	29209133056	77	18375
2026-01-26 00:14:02.15	328.17	7.93	-53.0	-55.1	6.2	0.00e+00	0	56	104	29209133056	77	18546
2026-01-26 00:14:03.16	328.30	7.85	-52.9	-55.0	6.2	0.00e+00	0	56	104	29209133056	77	18385
2026-01-26 00:14:04.17	328.44	7.78	-53.0	-55.1	6.2	0.00e+00	0	56	104	29209133056	77	18476
2026-01-26 00:14:05.17	328.57	7.70	-52.9	-55.0	6.2	0.00e+00	0	56	104	29209133056	77	18383
2026-01-26 00:14:06.18	328.71	7.63	-53.0	-55.1	6.2	0.00e+00	0	56	104	29209133056	77	18563
2026-01-26 00:14:07.19	328.84	7.55	-52.9	-55.0	6.2	0.00e+00	0	56	104	29209133056	77	18277
2026-01-26 00:14:08.20	328.98	7.48	-52.9	-55.1	6.2	0.00e+00	0	55	104	29209133056	77	18411
2026-01-26 00:14:09.21	329.11	7.41	-52.9	-55.0	6.2	0.00e+00	0	56	104	29209133056	77	18282
2026-01-26 00:14:10.21	329.24	7.33	-52.9	-55.1	6.2	0.00e+00	0	56	104	29209133056	77	18393
2026-01-26 00:14:11.22	329.37	7.26	-52.8	-55.0	6.2	0.00e+00	0	55	104	29209133056	77	18250
2026-01-26 00:14:12.23	329.50	7.18	-52.9	-55.0	6.2	0.00e+00	0	55	104	29209133056	77	18269
2026-01-26 00:14:13.23	329.63	7.11	-52.9	-55.0	6.2	0.00e+00	0	55	104	29209133056	77	18238
2026-01-26 00:14:14.24	329.76	7.04	-52.9	-55.0	6.2	0.00e+00	0	55	104	29209133056	77	18234
2026-01-26 00:14:15.25	329.88	6.96	-52.8	-54.9	6.2	0.00e+00	0	56	104	29209133056	77	18105
2026-01-26 00:14:16.26	330.01	6.89	-52.9	-54.9	6.2	0.00e+00	0	55	104	29209133056	77	18168
2026-01-26 00:14:17.27	330.14	6.82	-52.8	-54.9	6.2	0.00e+00	0	55	104	29209133056	77	18096
2026-01-26 00:14:18.27	330.26	6.75	-52.8	-54.9	6.2	0.00e+00	0	55	104	29209133056	77	18131
2026-01-26 00:14:19.28	330.38	6.67	-52.7	-54.9	6.2	0.00e+00	0	55	104	29209133056	77	18025
2026-01-26 00:14:20.29	330.51	6.60	-52.8	-54.9	6.2	0.00e+00	0	55	104	29209133056	77	18013
2026-01-26 00:14:21.29	330.63	6.53	-52.8	-54.9	6.2	0.00e+00	0	56	104	29209133056	77	18076
2026-01-26 00:14:22.30	330.75	6.46	-52.7	-54.8	6.2	0.00e+00	0	55	104	29209133056	77	17933
2026-01-26 00:14:23.31	330.87	6.38	-52.7	-54.8	6.2	0.00e+00	0	55	104	29209133056	77	17963
2026-01-26 00:14:24.32	331.00	6.31	-52.8	-54.8	6.2	0.00e+00	0	55	104	29209133056	77	17963
2026-01-26 00:14:25.33	331.12	6.24	-52.7	-54.8	6.2	0.00e+00	0	55	104	29209133056	77	17948
2026-01-26 00:14:26.33	331.23	6.17	-52.6	-54.7	6.2	0.00e+00	0	55	104	29209133056	76	18625
2026-01-26 00:14:27.34	331.35	6.10	-52.7	-54.8	6.2	0.00e+00	0	55	104	29209133056	76	18888
2026-01-26 00:14:28.35	331.47	6.03	-52.7	-54.8	6.2	0.00e+00	0	55	104	29209133056	76	18927
2026-01-26 00:14:29.36	331.59	5.96	-52.7	-54.7	6.2	0.00e+00	0	55	104	29209133056	76	18738
2026-01-26 00:14:30.37	331.70	5.89	-51.9	-53.8	6.2	0.00e+00	0	55	104	29209133056	75	17791
2026-01-26 00:14:31.37	331.82	5.82	-51.5	-53.3	6.2	0.00e+00	0	55	104	29209133056	75	16799
2026-01-26 00:14:32.38	331.94	5.74	-50.0	-51.4	6.3	0.00e+00	0	55	104	29209133056	71	17111
2026-01-26 00:14:33.39	332.05	5.67	-48.2	-49.5	6.3	0.00e+00	0	55	104	29209133056	68	16378
2026-01-26 00:14:34.39	332.16	5.61	-48.5	-49.8	6.4	0.00e+00	0	55	104	29209133056	67	17812
2026-01-26 00:14:35.40	332.28	5.54	-52.6	-54.7	6.2	0.00e+00	0	55	104	29209133056	75	19803
2026-01-26 00:14:36.41	332.39	5.47	-52.5	-54.7	6.2	0.00e+00	0	55	104	29209133056	75	19744
2026-01-26 00:14:37.41	332.50	5.40	-51.5	-53.0	6.3	0.00e+00	0	55	104	29209133056	74	17275
2026-01-26 00:14:38.42	332.61	5.33	-51.6	-53.6	6.2	0.00e+00	0	55	104	29209133056	74	18414
2026-01-26 00:14:39.43	332.72	5.26	-51.4	-53.0	6.3	0.00e+00	0	55	104	29209133056	74	17310
2026-01-26 00:14:40.43	332.83	5.19	-51.2	-52.7	6.3	0.00e+00	0	55	104	29209133056	74	16710
2026-01-26 00:14:41.44	332.94	5.12	-48.3	-49.0	7.0	0.00e+00	0	55	104	29209133056	68	15451
2026-01-26 00:14:42.45	333.05	5.05	-48.8	-49.7	6.9	0.00e+00	0	55	104	29209133056	67	17589
2026-01-26 00:14:43.46	333.16	4.98	-50.8	-52.9	6.2	0.00e+00	0	55	104	29209133056	72	19061
2026-01-26 00:14:44.46	333.27	4.91	-53.0	-55.2	6.2	0.00e+00	0	55	104	29209133056	76	19716
2026-01-26 00:14:45.47	333.37	4.85	-53.3	-55.4	6.2	0.00e+00	0	55	104	29209133056	77	19087
2026-01-26 00:14:46.48	333.48	4.78	-53.5	-55.6	6.2	0.00e+00	0	55	104	29209133056	77	19541
2026-01-26 00:14:47.49	333.59	4.71	-53.6	-55.7	6.2	0.00e+00	0	55	104	29209133056	77	19787
2026-01-26 00:14:48.50	333.69	4.64	-53.7	-55.8	6.2	0.00e+00	0	55	104	29209133056	77	19948
2026-01-26 00:14:49.51	333.80	4.57	-53.8	-55.9	6.2	0.00e+00	0	55	104	29209133056	78	19133
2026-01-26 00:14:50.51	333.90	4.51	-53.8	-55.9	6.2	0.00e+00	0	55	104	29209133056	78	19195
2026-01-26 00:14:51.52	334.00	4.44	-53.8	-55.9	6.2	0.00e+00	0	55	104	29209133056	78	19222
2026-01-26 00:14:52.53	334.11	4.37	-53.8	-55.9	6.2	0.00e+00	0	55	104	29209133056	78	19176
2026-01-26 00:14:53.54	334.21	4.31	-53.8	-55.9	6.2	0.00e+00	0	55	104	29209133056	78	19062
2026-01-26 00:14:54.55	334.31	4.24	-53.7	-55.8	6.2	0.00e+00	0	55	104	29209133056	78	18881
2026-01-26 00:14:55.56	334.41	4.17	-53.6	-55.7	6.2	0.00e+00	0	55	104	29209133056	78	18614
2026-01-26 00:14:56.56	334.51	4.11	-53.6	-55.7	6.2	0.00e+00	0	55	104	29209133056	78	18682
2026-01-26 00:14:57.57	334.61	4.04	-53.6	-55.7	6.2	0.00e+00	0	55	104	29209133056	78	18696
2026-01-26 00:14:58.58	334.71	3.97	-53.7	-55.7	6.2	0.00e+00	0	55	104	29209133056	78	18818
2026-01-26 00:14:59.59	334.81	3.91	-53.7	-55.8	6.2	0.00e+00	0	55	104	29209133056	78	18898
2026-01-26 00:15:00.60	334.91	3.84	-53.7	-55.8	6.2	0.00e+00	0	55	104	29209133056	78	18917
2026-01-26 00:15:01.61	335.01	3.78	-53.7	-55.8	6.2	0.00e+00	0	55	104	29209133056	78	19010
2026-01-26 00:15:02.62	335.11	3.71	-53.7	-55.8	6.2	0.00e+00	0	55	104	29209133056	78	18999
2026-01-26 00:15:03.63	335.20	3.64	-53.7	-55.8	6.2	0.00e+00	0	55	104	29209133056	78	18970
2026-01-26 00:15:04.64	335.30	3.58	-53.7	-55.8	6.2	0.00e+00	0	55	104	29209133056	78	18964
2026-01-26 00:15:05.65	335.40	3.51	-53.7	-55.8	6.2	0.00e+00	0	55	104	29209133056	78	18844
2026-01-26 00:15:06.65	335.49	3.45	-53.6	-55.7	6.2	0.00e+00	0	55	104	29209133056	78	18769
2026-01-26 00:15:07.65	335.59	3.38	-53.6	-55.7	6.2	0.00e+00	0	55	104	29209133056	78	18761
2026-01-26 00:15:08.66	335.68	3.32	-53.6	-55.7	6.2	0.00e+00	0	55	104	29209133056	78	18705
2026-01-26 00:15:09.67	335.78	3.25	-53.6	-55.7	6.2	0.00e+00	0	55	104	29209133056	78	18702
2026-01-26 00:15:10.68	335.87	3.19	-53.6	-55.7	6.2	0.00e+00	0	55	104	29209133056	78	18743
2026-01-26 00:15:11.68	335.96	3.13	-53.6	-55.7	6.2	0.00e+00	0	55	104	29209133056	78	18651
2026-01-26 00:15:12.69	336.05	3.06	-53.6	-55.7	6.2	0.00e+00	0	55	104	29209133056	78	18675
2026-01-26 00:15:13.70	336.15	3.00	-53.6	-55.7	6.2	0.00e+00	0	55	104	29209133056	78	18623
2026-01-26 00:15:14.71	336.24	2.93	-53.6	-55.7	6.2	0.00e+00	0	55	104	29209133056	78	18650
2026-01-26 00:15:15.72	336.33	2.87	-53.6	-55.7	6.2	0.00e+00	0	55	104	29209133056	78	18618
2026-01-26 00:15:16.73	336.42	2.81	-53.6	-55.6	6.2	0.00e+00	0	55	104	29209133056	78	18561
2026-01-26 00:15:17.74	336.51	2.74	-53.5	-55.6	6.2	0.00e+00	0	55	104	29209133056	78	18553
2026-01-26 00:15:18.74	336.60	2.68	-53.6	-55.7	6.2	0.00e+00	0	55	104	29209133056	78	18632
2026-01-26 00:15:19.75	336.69	2.62	-53.6	-55.6	6.2	0.00e+00	0	55	104	29209133056	78	18562
2026-01-26 00:15:20.76	336.78	2.55	-53.5	-55.6	6.2	0.00e+00	0	55	104	29209133056	78	18546
2026-01-26 00:15:21.77	336.87	2.49	-53.5	-55.6	6.2	0.00e+00	0	55	104	29209133056	78	18536
2026-01-26 00:15:22.78	336.96	2.43	-53.5	-55.6	6.2	0.00e+00	0	55	104	29209133056	78	18578
2026-01-26 00:15:23.79	337.04	2.37	-53.5	-55.6	6.2	0.00e+00	0	55	104	29209133056	78	18472
2026-01-26 00:15:24.80	337.13	2.30	-53.5	-55.6	6.2	0.00e+00	0	55	104	29209133056	78	18466
2026-01-26 00:15:25.81	337.22	2.24	-53.5	-55.6	6.2	0.00e+00	0	55	104	29209133056	78	18506
2026-01-26 00:15:26.81	337.30	2.18	-53.5	-55.6	6.2	0.00e+00	0	55	104	29209133056	78	18496
2026-01-26 00:15:27.81	337.39	2.12	-53.5	-55.6	6.2	0.00e+00	0	55	104	29209133056	78	18535
2026-01-26 00:15:28.82	337.47	2.06	-53.5	-55.6	6.2	0.00e+00	0	55	104	29209133056	78	18501
2026-01-26 00:15:29.83	337.56	1.99	-53.5	-55.6	6.2	0.00e+00	0	55	104	29209133056	78	18533

#Closed at: 2026-01-26 00:15:30
#Recorded file [29209 MB]: D:/lorett/data/31041_260126_030540.dat