passes_logs/2026/01/26/R3.2S_Murmansk/R3.2S_Murmansk__20260126_214611_NOAA_20_JPSS-1_rec.log

#Pass ID: 20260126_214611_NOAA 20 (JPSS-1)
#Satellite: NOAA 20 (JPSS-1)
#Configuration: NOAA 20
#almurnet v.1.7.20251203
#Start time: 2026-01-26 21:46:11

#Version: 2.2.20231116
#Station: R3.2S_Murmansk
#Location: 33.079688 lon 68.888172 lat
#TLE: 1 43013U 17073A   26026.46665230  .00000148  00000+0  91302-4 0  9998
#TLE: 2 43013  98.7646 327.2856 0001008  22.9532 337.1688 14.19540616424360

#Time	Az	El	Level	Level2	SNR	BER	BlckErr	Temp	State	Recorded	gain1	gain2
2026-01-26 21:46:11.73	18.42	2.03	-54.3	-69.3	3.8	1.49e+00	0	43	0	0	79	21065
2026-01-26 21:46:12.72	18.51	2.08	-54.4	-69.4	3.8	1.49e+00	0	43	104	0	79	21461
2026-01-26 21:46:13.73	18.60	2.13	-54.4	-69.4	3.8	1.49e+00	0	43	104	0	79	21301
2026-01-26 21:46:14.73	18.68	2.18	-54.4	-69.4	3.8	1.49e+00	0	43	104	0	79	21329
2026-01-26 21:46:15.75	18.77	2.23	-54.4	-69.4	3.8	1.49e+00	0	43	104	0	79	21295
2026-01-26 21:46:16.75	18.86	2.28	-54.4	-69.4	3.8	1.49e+00	0	43	104	0	79	21270
2026-01-26 21:46:17.76	18.94	2.33	-54.3	-69.3	3.8	1.49e+00	0	43	104	0	79	21258
2026-01-26 21:46:18.76	19.03	2.38	-54.3	-69.3	3.8	1.49e+00	0	43	104	0	79	21207
2026-01-26 21:46:19.77	19.12	2.43	-54.3	-69.3	3.8	1.49e+00	0	43	104	0	79	21141
2026-01-26 21:46:20.78	19.21	2.48	-54.3	-69.3	3.8	1.49e+00	0	43	104	0	79	21027
2026-01-26 21:46:21.78	19.30	2.53	-54.2	-69.2	3.8	1.49e+00	0	43	104	0	79	20922
2026-01-26 21:46:22.79	19.39	2.58	-54.2	-69.2	3.8	1.49e+00	0	43	104	0	79	20870
2026-01-26 21:46:23.80	19.48	2.63	-54.2	-69.2	3.8	1.49e+00	0	43	104	0	79	20790
2026-01-26 21:46:24.81	19.57	2.68	-54.1	-69.1	3.8	1.49e+00	0	43	104	0	79	20666
2026-01-26 21:46:25.82	19.66	2.73	-54.1	-69.1	3.8	1.49e+00	0	43	104	0	79	20550
2026-01-26 21:46:26.82	19.75	2.78	-54.0	-69.0	3.8	1.49e+00	0	43	104	0	79	20354
2026-01-26 21:46:27.83	19.84	2.83	-53.9	-68.9	3.8	1.49e+00	0	43	104	0	79	20141
2026-01-26 21:46:28.83	19.93	2.88	-53.8	-68.8	3.8	1.49e+00	0	43	104	0	79	19930
2026-01-26 21:46:29.84	20.02	2.93	-53.7	-68.7	3.8	1.49e+00	0	43	104	0	79	19663
2026-01-26 21:46:30.84	20.11	2.99	-53.6	-68.5	3.8	1.49e+00	0	43	104	0	79	19306
2026-01-26 21:46:31.85	20.20	3.04	-53.4	-68.3	3.8	1.49e+00	0	43	104	0	78	20039
2026-01-26 21:46:32.85	20.29	3.09	-53.1	-68.1	3.8	1.49e+00	0	43	104	0	78	19429
2026-01-26 21:46:33.86	20.38	3.14	-52.7	-67.6	3.8	1.49e+00	0	43	104	0	77	19489
2026-01-26 21:46:34.87	20.48	3.19	-52.4	-67.2	3.8	1.49e+00	0	43	104	0	76	19696
2026-01-26 21:46:35.88	20.57	3.24	-52.4	-67.2	3.8	1.49e+00	0	43	104	0	76	19731
2026-01-26 21:46:36.89	20.66	3.29	-52.4	-67.2	3.8	1.49e+00	0	43	104	0	76	19761
2026-01-26 21:46:37.90	20.76	3.34	-52.4	-67.2	3.8	1.49e+00	0	43	104	0	76	19738
2026-01-26 21:46:38.91	20.85	3.39	-52.4	-67.2	3.8	1.49e+00	0	43	104	0	76	19765
2026-01-26 21:46:39.91	20.94	3.44	-52.4	-67.2	3.8	1.49e+00	0	43	104	0	76	19640
2026-01-26 21:46:40.92	21.04	3.49	-52.4	-67.1	3.8	1.49e+00	0	43	104	0	76	19607
2026-01-26 21:46:41.93	21.13	3.55	-52.3	-67.1	3.8	1.49e+00	0	43	104	0	76	19589
2026-01-26 21:46:42.93	21.23	3.60	-52.3	-67.1	3.8	1.49e+00	0	43	104	0	76	19496
2026-01-26 21:46:43.94	21.32	3.65	-52.3	-67.1	3.8	1.49e+00	0	43	104	0	76	19500
2026-01-26 21:46:44.95	21.42	3.70	-52.3	-67.1	3.8	1.49e+00	0	43	104	0	76	19566
2026-01-26 21:46:45.96	21.52	3.75	-52.3	-67.2	3.8	1.49e+00	0	43	104	0	76	19663
2026-01-26 21:46:46.97	21.61	3.80	-52.3	-67.2	3.8	1.49e+00	0	43	104	0	76	19747
2026-01-26 21:46:47.98	21.71	3.85	-52.3	-67.3	3.8	1.49e+00	0	43	104	0	76	19845
2026-01-26 21:46:48.99	21.81	3.91	-52.3	-67.3	3.8	1.49e+00	0	43	104	0	76	19856
2026-01-26 21:46:50.00	21.90	3.96	-52.3	-67.3	3.8	1.49e+00	0	43	104	0	76	19915
2026-01-26 21:46:51.01	22.00	4.01	-52.3	-67.3	3.8	1.49e+00	0	43	104	0	76	19944
2026-01-26 21:46:52.02	22.10	4.06	-52.3	-67.3	3.8	1.49e+00	0	43	104	0	76	19869
2026-01-26 21:46:53.03	22.20	4.11	-52.3	-67.2	3.8	1.49e+00	0	43	104	0	76	19706
2026-01-26 21:46:54.04	22.30	4.16	-52.3	-67.0	3.8	1.49e+00	0	43	104	0	76	19343
2026-01-26 21:46:55.05	22.40	4.21	-52.3	-66.6	3.8	1.49e+00	0	43	104	0	76	18506
2026-01-26 21:46:56.05	22.50	4.27	-52.3	-66.2	3.8	1.49e+00	0	43	104	0	76	17583
2026-01-26 21:46:57.06	22.60	4.32	-52.3	-65.6	3.8	1.49e+00	0	43	104	0	76	16426
2026-01-26 21:46:58.07	22.70	4.37	-52.2	-64.9	4.0	1.49e+00	0	43	104	0	76	15184
2026-01-26 21:46:59.08	22.80	4.42	-52.2	-64.0	3.9	1.46e+00	0	43	104	0	76	13674
2026-01-26 21:47:00.08	22.90	4.47	-52.1	-62.8	4.5	1.26e+00	16	43	0	0	76	11822
2026-01-26 21:47:01.09	23.00	4.52	-51.9	-61.1	5.3	7.34e-01	0	43	0	2097152	75	10327
2026-01-26 21:47:02.09	23.10	4.58	-51.6	-59.4	6.6	3.58e-01	0	43	0	4194304	75	8515
2026-01-26 21:47:03.10	23.20	4.63	-51.4	-58.4	7.6	1.15e-01	0	43	0	6291456	74	7996
2026-01-26 21:47:04.11	23.30	4.68	-51.1	-57.2	8.8	4.70e-02	0	43	0	7340032	74	6985
2026-01-26 21:47:05.12	23.40	4.73	-50.9	-56.5	9.5	2.15e-02	0	43	0	9437184	73	6878
2026-01-26 21:47:06.13	23.51	4.78	-50.8	-56.1	9.9	9.73e-03	0	43	0	11534336	73	6543
2026-01-26 21:47:07.13	23.61	4.84	-50.7	-56.0	10.0	8.11e-03	0	44	0	13631488	73	6448
2026-01-26 21:47:08.14	23.71	4.89	-50.9	-56.5	9.4	9.97e-03	0	43	0	15728640	73	6874
2026-01-26 21:47:09.15	23.82	4.94	-51.2	-57.5	8.5	3.46e-02	0	43	0	17825792	73	7684
2026-01-26 21:47:10.16	23.92	4.99	-51.4	-58.6	7.4	7.55e-02	0	43	0	18874368	73	8755
2026-01-26 21:47:11.17	24.03	5.04	-51.8	-61.0	5.4	3.02e-01	0	43	0	20971520	74	10784
2026-01-26 21:47:12.17	24.13	5.10	-47.5	-49.6	16.7	3.03e-03	0	43	0	23068672	67	4368
2026-01-26 21:47:13.18	24.24	5.15	-50.8	-56.0	10.1	1.95e-03	0	43	0	25165824	72	6856
2026-01-26 21:47:14.18	24.34	5.20	-52.3	-66.8	3.8	1.29e+00	0	43	104	26214400	75	20020
2026-01-26 21:47:15.19	24.45	5.25	-52.1	-64.6	4.0	1.49e+00	0	43	104	26214400	75	15551
2026-01-26 21:47:16.20	24.55	5.30	-47.5	-49.6	16.7	0.00e+00	0	43	0	27262976	67	4373
2026-01-26 21:47:17.20	24.66	5.36	-47.5	-49.5	16.8	0.00e+00	0	43	0	29360128	66	4591
2026-01-26 21:47:18.21	24.77	5.41	-47.4	-49.4	17.0	0.00e+00	0	43	0	30408704	66	4524
2026-01-26 21:47:19.22	24.87	5.46	-47.4	-49.4	17.0	0.00e+00	0	43	0	32505856	66	4529
2026-01-26 21:47:20.22	24.98	5.51	-47.5	-49.6	16.8	0.00e+00	0	43	0	34603008	66	4608
2026-01-26 21:47:21.23	25.09	5.56	-47.2	-49.2	17.2	0.00e+00	0	43	0	36700160	66	4404
2026-01-26 21:47:22.23	25.20	5.62	-47.4	-49.4	17.0	0.00e+00	0	43	0	38797312	66	4527
2026-01-26 21:47:23.23	25.30	5.67	-47.4	-49.5	17.0	0.00e+00	0	43	0	40894464	66	4554
2026-01-26 21:47:24.24	25.41	5.72	-47.5	-49.6	16.8	0.00e+00	0	43	0	41943040	66	4650
2026-01-26 21:47:25.25	25.52	5.77	-47.5	-49.5	16.9	0.00e+00	0	43	0	44040192	66	4595
2026-01-26 21:47:26.26	25.63	5.83	-47.3	-49.3	17.1	0.00e+00	0	43	0	46137344	66	4483
2026-01-26 21:47:27.26	25.74	5.88	-47.6	-49.8	16.7	0.00e+00	0	43	0	48234496	66	4721
2026-01-26 21:47:28.27	25.85	5.93	-47.2	-49.2	17.3	0.00e+00	0	43	0	50331648	66	4428
2026-01-26 21:47:29.28	25.96	5.98	-47.2	-49.1	17.3	0.00e+00	0	43	0	51380224	66	4380
2026-01-26 21:47:30.29	26.08	6.04	-47.2	-49.1	17.3	0.00e+00	0	43	0	53477376	66	4389
2026-01-26 21:47:31.29	26.19	6.09	-47.2	-49.1	17.4	0.00e+00	0	43	0	55574528	66	4384
2026-01-26 21:47:32.30	26.30	6.14	-47.4	-49.4	17.1	0.00e+00	0	44	0	57671680	66	4531
2026-01-26 21:47:33.31	26.41	6.19	-47.4	-49.5	17.0	0.00e+00	0	43	0	58720256	66	4551
2026-01-26 21:47:34.31	26.52	6.25	-47.3	-49.3	17.2	0.00e+00	0	43	0	60817408	66	4487
2026-01-26 21:47:35.32	26.64	6.30	-47.2	-49.1	17.4	0.00e+00	0	43	0	62914560	66	4383
2026-01-26 21:47:36.33	26.75	6.35	-47.2	-49.1	17.4	0.00e+00	0	43	0	65011712	66	4369
2026-01-26 21:47:37.33	26.87	6.40	-47.3	-49.3	17.3	0.00e+00	0	43	0	67108864	66	4447
2026-01-26 21:47:38.34	26.98	6.46	-47.2	-49.1	17.4	0.00e+00	0	43	0	69206016	66	4386
2026-01-26 21:47:39.35	27.10	6.51	-47.1	-49.1	17.5	0.00e+00	0	43	0	70254592	66	4346
2026-01-26 21:47:40.36	27.21	6.56	-47.2	-49.2	17.4	0.00e+00	0	43	0	72351744	66	4415
2026-01-26 21:47:41.37	27.33	6.61	-47.1	-49.0	17.6	0.00e+00	0	43	0	74448896	66	4313
2026-01-26 21:47:42.37	27.44	6.67	-47.0	-48.9	17.7	0.00e+00	0	43	0	76546048	66	4262
2026-01-26 21:47:43.38	27.56	6.72	-47.1	-48.9	17.6	0.00e+00	0	43	0	78643200	66	4287
2026-01-26 21:47:44.38	27.67	6.77	-47.0	-48.8	17.8	0.00e+00	0	43	0	79691776	65	4481
2026-01-26 21:47:45.39	27.79	6.82	-46.9	-48.7	17.8	0.00e+00	0	43	0	81788928	65	4427
2026-01-26 21:47:46.40	27.91	6.88	-46.9	-48.8	17.8	0.00e+00	0	43	0	83886080	65	4465
2026-01-26 21:47:47.41	28.03	6.93	-46.9	-48.7	17.9	0.00e+00	0	43	0	85983232	65	4411
2026-01-26 21:47:48.42	28.15	6.98	-46.8	-48.6	18.0	0.00e+00	0	43	0	87031808	65	4347
2026-01-26 21:47:49.43	28.27	7.03	-46.7	-48.5	18.1	0.00e+00	0	43	0	89128960	65	4312
2026-01-26 21:47:50.43	28.38	7.09	-46.6	-48.3	18.3	0.00e+00	0	43	0	91226112	65	4229
2026-01-26 21:47:51.44	28.50	7.14	-46.6	-48.4	18.2	0.00e+00	0	43	0	93323264	65	4250
2026-01-26 21:47:52.45	28.63	7.19	-46.7	-48.4	18.3	0.00e+00	0	43	0	95420416	65	4259
2026-01-26 21:47:53.45	28.75	7.25	-46.8	-48.6	18.1	0.00e+00	0	43	0	97517568	65	4349
2026-01-26 21:47:54.46	28.87	7.30	-46.7	-48.4	18.2	0.00e+00	0	43	0	98566144	65	4279
2026-01-26 21:47:55.47	28.99	7.35	-46.7	-48.5	18.2	0.00e+00	0	43	0	100663296	65	4302
2026-01-26 21:47:56.47	29.11	7.40	-46.7	-48.5	18.2	0.00e+00	0	43	0	102760448	65	4293
2026-01-26 21:47:57.48	29.23	7.46	-46.7	-48.4	18.2	0.00e+00	0	43	0	104857600	65	4288
2026-01-26 21:47:58.49	29.35	7.51	-46.7	-48.4	18.2	0.00e+00	0	43	0	106954752	65	4276
2026-01-26 21:47:59.49	29.48	7.56	-46.7	-48.5	18.2	0.00e+00	0	43	0	108003328	65	4300
2026-01-26 21:48:00.50	29.60	7.61	-46.7	-48.4	18.2	0.00e+00	0	43	0	110100480	65	4270
2026-01-26 21:48:01.51	29.72	7.67	-46.7	-48.5	18.3	0.00e+00	0	43	0	112197632	65	4301
2026-01-26 21:48:02.51	29.85	7.72	-46.8	-48.5	18.2	0.00e+00	0	43	0	114294784	65	4317
2026-01-26 21:48:03.52	29.97	7.77	-46.6	-48.3	18.3	0.00e+00	0	43	0	115343360	65	4237
2026-01-26 21:48:04.53	30.10	7.82	-46.6	-48.3	18.4	0.00e+00	0	43	0	117440512	65	4200
2026-01-26 21:48:05.53	30.22	7.88	-46.6	-48.3	18.3	0.00e+00	0	43	0	119537664	65	4226
2026-01-26 21:48:06.54	30.35	7.93	-46.7	-48.4	18.3	0.00e+00	0	43	0	121634816	65	4251
2026-01-26 21:48:07.54	30.48	7.98	-46.6	-48.2	18.4	0.00e+00	0	43	0	123731968	65	4183
2026-01-26 21:48:08.55	30.60	8.04	-46.6	-48.3	18.4	0.00e+00	0	43	0	125829120	65	4213
2026-01-26 21:48:09.56	30.73	8.09	-46.7	-48.4	18.3	0.00e+00	0	43	0	126877696	65	4261
2026-01-26 21:48:10.56	30.86	8.14	-46.7	-48.4	18.3	0.00e+00	0	43	0	128974848	65	4275
2026-01-26 21:48:11.57	30.99	8.19	-46.6	-48.3	18.4	0.00e+00	0	44	0	131072000	65	4214
2026-01-26 21:48:12.58	31.12	8.25	-46.8	-48.5	18.2	0.00e+00	0	43	0	133169152	65	4325
2026-01-26 21:48:13.58	31.24	8.30	-46.8	-48.5	18.2	0.00e+00	0	43	0	135266304	65	4323
2026-01-26 21:48:14.59	31.37	8.35	-46.9	-48.7	18.0	0.00e+00	0	43	0	136314880	65	4427
2026-01-26 21:48:15.59	31.50	8.40	-46.9	-48.7	18.1	0.00e+00	0	43	0	138412032	65	4409
2026-01-26 21:48:16.59	31.63	8.46	-46.8	-48.6	18.2	0.00e+00	0	43	0	140509184	65	4356
2026-01-26 21:48:17.60	31.76	8.51	-46.9	-48.7	18.1	0.00e+00	0	43	0	142606336	65	4401
2026-01-26 21:48:18.61	31.89	8.56	-46.8	-48.6	18.2	0.00e+00	0	43	0	143654912	65	4341
2026-01-26 21:48:19.61	32.03	8.61	-46.8	-48.5	18.3	0.00e+00	0	43	0	145752064	65	4298
2026-01-26 21:48:20.62	32.16	8.67	-46.7	-48.4	18.4	0.00e+00	0	43	0	147849216	65	4245
2026-01-26 21:48:21.63	32.29	8.72	-46.6	-48.3	18.5	0.00e+00	0	43	0	149946368	65	4204
2026-01-26 21:48:22.63	32.42	8.77	-46.7	-48.4	18.4	0.00e+00	0	43	0	152043520	65	4262
2026-01-26 21:48:23.64	32.56	8.82	-46.6	-48.2	18.6	0.00e+00	0	43	0	154140672	65	4176
2026-01-26 21:48:24.65	32.69	8.88	-46.5	-48.2	18.6	0.00e+00	0	43	0	155189248	65	4160
2026-01-26 21:48:25.65	32.83	8.93	-46.5	-48.2	18.6	0.00e+00	0	43	0	157286400	65	4163
2026-01-26 21:48:26.66	32.96	8.98	-46.5	-48.2	18.6	0.00e+00	0	43	0	159383552	65	4165
2026-01-26 21:48:27.66	33.10	9.03	-46.4	-48.1	18.7	0.00e+00	0	43	0	161480704	64	4351
2026-01-26 21:48:28.67	33.23	9.08	-46.3	-47.9	18.8	0.00e+00	0	43	0	163577856	64	4277
2026-01-26 21:48:29.68	33.37	9.14	-46.3	-47.9	18.9	0.00e+00	0	43	0	164626432	64	4263
2026-01-26 21:48:30.68	33.51	9.19	-46.4	-48.0	18.8	0.00e+00	0	43	0	166723584	64	4330
2026-01-26 21:48:31.69	33.64	9.24	-46.3	-47.9	18.8	0.00e+00	0	43	0	168820736	64	4278
2026-01-26 21:48:32.70	33.78	9.29	-46.3	-47.9	18.9	0.00e+00	0	44	0	170917888	64	4284
2026-01-26 21:48:33.71	33.92	9.35	-46.1	-47.6	19.1	0.00e+00	0	43	0	171966464	64	4138
2026-01-26 21:48:34.72	34.06	9.40	-46.0	-47.5	19.3	0.00e+00	0	43	0	174063616	64	4068
2026-01-26 21:48:35.73	34.20	9.45	-46.1	-47.7	19.3	0.00e+00	0	43	0	176160768	63	4392
2026-01-26 21:48:36.73	34.34	9.50	-46.0	-47.5	19.4	0.00e+00	0	43	0	178257920	63	4317
2026-01-26 21:48:37.74	34.48	9.55	-46.1	-47.6	19.3	0.00e+00	0	43	0	180355072	63	4368
2026-01-26 21:48:38.75	34.62	9.61	-46.1	-47.6	19.3	0.00e+00	0	43	0	182452224	63	4358
2026-01-26 21:48:39.76	34.76	9.66	-45.9	-47.4	19.5	0.00e+00	0	44	0	183500800	63	4262
2026-01-26 21:48:40.76	34.90	9.71	-45.9	-47.3	19.6	0.00e+00	0	43	0	185597952	63	4220
2026-01-26 21:48:41.76	35.04	9.76	-45.8	-47.3	19.6	0.00e+00	0	43	0	187695104	63	4208
2026-01-26 21:48:42.76	35.19	9.81	-45.9	-47.3	19.6	0.00e+00	0	44	0	189792256	63	4233
2026-01-26 21:48:43.77	35.33	9.87	-45.7	-47.1	19.8	0.00e+00	0	44	0	191889408	63	4132
2026-01-26 21:48:44.77	35.47	9.92	-45.8	-47.2	19.7	0.00e+00	0	44	0	192937984	63	4168
2026-01-26 21:48:45.78	35.62	9.97	-45.6	-47.0	19.9	0.00e+00	0	44	0	195035136	63	4091
2026-01-26 21:48:46.79	35.76	10.02	-45.7	-47.1	19.8	0.00e+00	0	44	0	197132288	63	4112
2026-01-26 21:48:47.80	35.91	10.07	-45.7	-47.1	19.9	0.00e+00	0	43	0	199229440	63	4101
2026-01-26 21:48:48.81	36.05	10.12	-45.6	-46.9	20.0	0.00e+00	0	44	0	200278016	63	4046
2026-01-26 21:48:49.81	36.20	10.17	-45.6	-46.9	20.0	0.00e+00	0	44	0	202375168	63	4039
2026-01-26 21:48:50.82	36.35	10.23	-45.7	-47.1	19.8	0.00e+00	0	44	0	204472320	63	4115
2026-01-26 21:48:51.83	36.49	10.28	-45.5	-46.9	20.1	0.00e+00	0	44	0	206569472	63	4012
2026-01-26 21:48:52.84	36.64	10.33	-45.6	-47.0	19.9	0.00e+00	0	44	0	208666624	63	4079
2026-01-26 21:48:53.85	36.79	10.38	-45.6	-46.9	19.9	0.00e+00	0	44	0	210763776	63	4045
2026-01-26 21:48:54.85	36.94	10.43	-45.6	-47.0	20.0	0.00e+00	0	44	0	211812352	63	4073
2026-01-26 21:48:55.86	37.09	10.48	-45.7	-47.0	19.9	0.00e+00	0	44	0	213909504	63	4096
2026-01-26 21:48:56.87	37.24	10.53	-45.7	-47.1	19.9	0.00e+00	0	44	0	216006656	63	4102
2026-01-26 21:48:57.88	37.39	10.59	-45.7	-47.1	19.8	0.00e+00	0	44	0	218103808	63	4126
2026-01-26 21:48:58.88	37.54	10.64	-45.7	-47.1	19.8	0.00e+00	0	44	0	220200960	63	4137
2026-01-26 21:48:59.89	37.69	10.69	-45.8	-47.2	19.7	0.00e+00	0	44	0	221249536	63	4184
2026-01-26 21:49:00.89	37.84	10.74	-45.8	-47.2	19.8	0.00e+00	0	44	0	223346688	63	4149
2026-01-26 21:49:01.90	37.99	10.79	-45.8	-47.2	19.8	0.00e+00	0	44	0	225443840	63	4171
2026-01-26 21:49:02.91	38.14	10.84	-45.7	-47.1	19.9	0.00e+00	0	44	0	227540992	63	4106
2026-01-26 21:49:03.91	38.30	10.89	-45.7	-47.1	19.8	0.00e+00	0	44	0	228589568	63	4127
2026-01-26 21:49:04.92	38.45	10.94	-45.6	-46.9	20.0	0.00e+00	0	44	0	230686720	63	4035
2026-01-26 21:49:05.93	38.61	10.99	-45.6	-47.0	20.0	0.00e+00	0	44	0	232783872	63	4086
2026-01-26 21:49:06.94	38.76	11.04	-45.7	-47.0	19.9	0.00e+00	0	44	0	234881024	63	4088
2026-01-26 21:49:07.94	38.92	11.09	-45.7	-47.1	19.9	0.00e+00	0	44	0	236978176	63	4140
2026-01-26 21:49:08.95	39.07	11.14	-45.7	-47.1	19.9	0.00e+00	0	44	0	239075328	63	4106
2026-01-26 21:49:09.96	39.23	11.19	-45.8	-47.2	19.8	0.00e+00	0	44	0	240123904	63	4162
2026-01-26 21:49:10.97	39.39	11.24	-45.8	-47.3	19.7	0.00e+00	0	44	0	242221056	63	4198
2026-01-26 21:49:11.98	39.54	11.29	-45.8	-47.2	19.4	0.00e+00	0	44	0	244318208	63	4182
2026-01-26 21:49:12.98	39.70	11.34	-45.8	-47.2	19.7	0.00e+00	0	44	0	246415360	63	4170
2026-01-26 21:49:13.99	39.86	11.39	-45.7	-47.1	20.0	0.00e+00	0	44	0	248512512	63	4103
2026-01-26 21:49:14.99	40.02	11.44	-45.6	-47.0	20.0	0.00e+00	0	44	0	249561088	62	4305
2026-01-26 21:49:16.00	40.18	11.49	-45.6	-47.0	20.0	0.00e+00	0	44	0	251658240	62	4320
2026-01-26 21:49:17.01	40.34	11.54	-45.5	-46.8	20.0	0.00e+00	0	44	0	253755392	62	4239
2026-01-26 21:49:18.01	40.50	11.59	-45.5	-46.9	20.0	0.00e+00	0	44	0	255852544	62	4245
2026-01-26 21:49:19.02	40.66	11.64	-45.6	-46.9	20.2	0.00e+00	0	44	0	256901120	62	4280
2026-01-26 21:49:20.03	40.82	11.69	-45.5	-46.9	20.0	0.00e+00	0	44	0	258998272	62	4253
2026-01-26 21:49:21.04	40.98	11.74	-45.6	-47.0	19.9	0.00e+00	0	44	0	261095424	62	4306
2026-01-26 21:49:22.05	41.15	11.79	-45.7	-47.1	19.8	0.00e+00	0	44	0	263192576	62	4375
2026-01-26 21:49:23.05	41.31	11.84	-45.7	-47.1	20.0	0.00e+00	0	44	0	265289728	62	4367
2026-01-26 21:49:24.06	41.47	11.88	-45.9	-47.3	19.7	0.00e+00	0	44	0	267386880	62	4464
2026-01-26 21:49:25.06	41.63	11.93	-45.9	-47.4	19.8	0.00e+00	0	44	0	268435456	62	4494
2026-01-26 21:49:26.07	41.80	11.98	-45.8	-47.2	19.8	0.00e+00	0	44	0	270532608	62	4412
2026-01-26 21:49:27.07	41.96	12.03	-45.8	-47.2	19.9	0.00e+00	0	44	0	272629760	62	4411
2026-01-26 21:49:28.08	42.13	12.08	-45.8	-47.2	19.8	0.00e+00	0	44	0	274726912	62	4425
2026-01-26 21:49:29.09	42.30	12.13	-45.9	-47.3	19.8	0.00e+00	0	44	0	276824064	62	4450
2026-01-26 21:49:30.09	42.46	12.17	-45.9	-47.3	19.7	0.00e+00	0	44	0	277872640	62	4453
2026-01-26 21:49:31.10	42.63	12.22	-45.9	-47.3	19.7	0.00e+00	0	44	0	279969792	62	4470
2026-01-26 21:49:32.11	42.80	12.27	-45.8	-47.2	19.7	0.00e+00	0	44	0	282066944	62	4440
2026-01-26 21:49:33.11	42.97	12.32	-46.0	-47.4	19.6	0.00e+00	0	44	0	284164096	62	4519
2026-01-26 21:49:34.12	43.13	12.37	-46.1	-47.5	19.6	0.00e+00	0	44	0	285212672	62	4586
2026-01-26 21:49:35.13	43.30	12.41	-46.0	-47.4	19.5	0.00e+00	0	44	0	287309824	62	4517
2026-01-26 21:49:36.13	43.47	12.46	-46.1	-47.6	19.5	0.00e+00	0	44	0	289406976	62	4622
2026-01-26 21:49:37.14	43.64	12.51	-46.1	-47.6	19.4	0.00e+00	0	44	0	291504128	63	4362
2026-01-26 21:49:38.15	43.82	12.55	-46.2	-47.7	19.3	0.00e+00	0	44	0	293601280	63	4433
2026-01-26 21:49:39.16	43.99	12.60	-46.2	-47.7	19.4	0.00e+00	0	44	0	295698432	63	4395
2026-01-26 21:49:40.16	44.16	12.65	-46.3	-47.8	19.3	0.00e+00	0	44	0	296747008	63	4461
2026-01-26 21:49:41.17	44.33	12.69	-46.3	-47.8	19.2	0.00e+00	0	44	0	298844160	63	4463
2026-01-26 21:49:42.17	44.50	12.74	-46.4	-47.9	19.2	0.00e+00	0	44	0	300941312	63	4528
2026-01-26 21:49:43.18	44.68	12.79	-46.6	-48.2	18.9	0.00e+00	0	44	0	303038464	63	4680
2026-01-26 21:49:44.19	44.85	12.83	-46.6	-48.2	18.8	0.00e+00	0	44	0	305135616	64	4402
2026-01-26 21:49:45.19	45.03	12.88	-46.7	-48.3	18.6	0.00e+00	0	44	0	306184192	64	4493
2026-01-26 21:49:46.20	45.20	12.93	-46.9	-48.6	18.3	0.00e+00	0	44	0	308281344	64	4611
2026-01-26 21:49:47.21	45.38	12.97	-46.8	-48.5	18.6	0.00e+00	0	44	0	310378496	64	4572
2026-01-26 21:49:48.22	45.55	13.02	-46.9	-48.6	18.6	0.00e+00	0	44	0	312475648	64	4607
2026-01-26 21:49:49.23	45.73	13.06	-46.8	-48.5	18.5	0.00e+00	0	44	0	314572800	64	4549
2026-01-26 21:49:50.24	45.91	13.11	-46.9	-48.6	18.4	0.00e+00	0	44	0	315621376	64	4647
2026-01-26 21:49:51.25	46.09	13.15	-47.0	-48.7	18.3	0.00e+00	0	44	0	317718528	64	4676
2026-01-26 21:49:52.25	46.27	13.20	-46.9	-48.6	18.4	0.00e+00	0	44	0	319815680	64	4609
2026-01-26 21:49:53.26	46.44	13.24	-47.0	-48.7	18.3	0.00e+00	0	44	0	321912832	64	4679
2026-01-26 21:49:54.27	46.62	13.29	-46.9	-48.6	18.5	0.00e+00	0	44	0	324009984	64	4604
2026-01-26 21:49:55.27	46.80	13.33	-46.9	-48.6	18.5	0.00e+00	0	44	0	325058560	64	4604
2026-01-26 21:49:56.28	46.98	13.38	-47.0	-48.7	18.4	0.00e+00	0	44	0	327155712	64	4675
2026-01-26 21:49:57.28	47.16	13.42	-47.0	-48.7	18.3	0.00e+00	0	44	0	329252864	64	4672
2026-01-26 21:49:58.29	47.35	13.46	-47.0	-48.6	18.4	0.00e+00	0	44	0	331350016	64	4651
2026-01-26 21:49:59.30	47.53	13.51	-47.0	-48.8	18.3	0.00e+00	0	44	0	333447168	64	4711
2026-01-26 21:50:00.31	47.71	13.55	-47.2	-49.0	18.1	0.00e+00	0	44	0	334495744	65	4590
2026-01-26 21:50:01.31	47.89	13.59	-47.3	-49.1	18.0	0.00e+00	0	44	0	336592896	65	4607
2026-01-26 21:50:02.32	48.08	13.64	-47.4	-49.2	17.8	0.00e+00	0	44	0	338690048	65	4673
2026-01-26 21:50:03.32	48.26	13.68	-47.5	-49.4	17.6	0.00e+00	0	44	0	340787200	65	4772
2026-01-26 21:50:04.33	48.45	13.72	-47.5	-49.4	17.7	0.00e+00	0	44	0	342884352	65	4792
2026-01-26 21:50:05.34	48.63	13.77	-47.6	-49.5	17.5	0.00e+00	0	44	0	343932928	65	4837
2026-01-26 21:50:06.35	48.82	13.81	-47.5	-49.4	17.8	0.00e+00	0	44	0	346030080	65	4787
2026-01-26 21:50:07.35	49.00	13.85	-47.3	-49.2	17.9	0.00e+00	0	44	0	348127232	65	4659
2026-01-26 21:50:08.36	49.19	13.89	-47.2	-49.0	18.0	0.00e+00	0	44	0	350224384	65	4553
2026-01-26 21:50:09.36	49.38	13.93	-47.2	-49.0	18.1	0.00e+00	0	44	0	352321536	65	4580
2026-01-26 21:50:10.37	49.57	13.98	-47.3	-49.1	18.0	0.00e+00	0	44	0	353370112	65	4609
2026-01-26 21:50:11.38	49.75	14.02	-47.4	-49.2	17.9	0.00e+00	0	44	0	355467264	65	4702
2026-01-26 21:50:12.39	49.94	14.06	-47.4	-49.2	17.8	0.00e+00	0	44	0	357564416	65	4685
2026-01-26 21:50:13.39	50.13	14.10	-47.5	-49.3	17.7	0.00e+00	0	44	0	359661568	65	4757
2026-01-26 21:50:14.40	50.32	14.14	-47.6	-49.5	17.6	0.00e+00	0	44	0	361758720	65	4821
2026-01-26 21:50:15.41	50.51	14.18	-47.7	-49.7	17.4	0.00e+00	0	44	0	362807296	66	4670
2026-01-26 21:50:16.42	50.70	14.22	-47.7	-49.6	17.4	0.00e+00	0	44	0	364904448	66	4639
2026-01-26 21:50:17.43	50.90	14.26	-47.9	-49.9	17.3	0.00e+00	0	44	0	367001600	66	4771
2026-01-26 21:50:18.43	51.09	14.30	-47.9	-49.9	17.3	0.00e+00	0	44	0	369098752	66	4763
2026-01-26 21:50:19.44	51.28	14.34	-47.9	-50.0	17.3	0.00e+00	0	44	0	371195904	66	4817
2026-01-26 21:50:20.45	51.47	14.38	-47.8	-49.7	17.4	0.00e+00	0	44	0	372244480	66	4687
2026-01-26 21:50:21.46	51.67	14.42	-47.6	-49.6	17.5	0.00e+00	0	44	0	374341632	66	4606
2026-01-26 21:50:22.46	51.86	14.46	-47.4	-49.2	17.9	0.00e+00	0	44	0	376438784	66	4399
2026-01-26 21:50:23.47	52.05	14.50	-47.2	-49.0	18.1	0.00e+00	0	44	0	378535936	66	4308
2026-01-26 21:50:24.47	52.25	14.53	-47.0	-48.7	18.4	0.00e+00	0	44	0	380633088	65	4410
2026-01-26 21:50:25.48	52.44	14.57	-47.0	-48.7	18.3	0.00e+00	0	44	0	381681664	65	4432
2026-01-26 21:50:26.49	52.64	14.61	-47.0	-48.7	18.4	0.00e+00	0	44	0	383778816	65	4410
2026-01-26 21:50:27.50	52.84	14.65	-47.2	-48.9	18.2	0.00e+00	0	44	0	385875968	65	4529
2026-01-26 21:50:28.50	53.03	14.68	-47.0	-48.7	18.4	0.00e+00	0	44	0	387973120	65	4433
2026-01-26 21:50:29.51	53.23	14.72	-47.0	-48.8	18.3	0.00e+00	0	44	0	390070272	65	4444
2026-01-26 21:50:30.52	53.43	14.76	-47.0	-48.7	18.4	0.00e+00	0	44	0	391118848	65	4402
2026-01-26 21:50:31.53	53.63	14.80	-46.9	-48.6	18.5	0.00e+00	0	44	0	393216000	65	4342
2026-01-26 21:50:32.54	53.83	14.83	-46.9	-48.5	18.6	0.00e+00	0	44	0	395313152	65	4330
2026-01-26 21:50:33.54	54.02	14.87	-46.7	-48.3	18.8	0.00e+00	0	44	0	397410304	65	4224
2026-01-26 21:50:34.55	54.22	14.90	-46.6	-48.2	18.8	0.00e+00	0	44	0	399507456	65	4187
2026-01-26 21:50:35.55	54.42	14.94	-46.6	-48.2	18.9	0.00e+00	0	44	0	400556032	65	4156
2026-01-26 21:50:36.56	54.62	14.97	-46.4	-47.9	19.1	0.00e+00	0	44	0	402653184	64	4279
2026-01-26 21:50:37.57	54.83	15.01	-46.2	-47.7	19.3	0.00e+00	0	44	0	404750336	64	4178
2026-01-26 21:50:38.58	55.03	15.04	-46.3	-47.8	19.4	0.00e+00	0	44	0	406847488	64	4199
2026-01-26 21:50:39.58	55.23	15.08	-46.1	-47.5	19.5	0.00e+00	0	44	0	408944640	64	4084
2026-01-26 21:50:40.58	55.43	15.11	-46.1	-47.5	19.7	0.00e+00	0	44	0	409993216	63	4316
2026-01-26 21:50:41.59	55.63	15.15	-45.9	-47.3	19.8	0.00e+00	0	44	0	412090368	63	4207
2026-01-26 21:50:42.60	55.84	15.18	-45.7	-47.1	20.0	0.00e+00	0	44	0	414187520	63	4127
2026-01-26 21:50:43.61	56.04	15.21	-45.7	-47.1	20.0	0.00e+00	0	44	0	416284672	63	4123
2026-01-26 21:50:44.61	56.24	15.25	-45.7	-47.1	20.0	0.00e+00	0	44	0	418381824	63	4128
2026-01-26 21:50:45.62	56.45	15.28	-45.8	-47.1	20.0	0.00e+00	0	44	0	419430400	63	4140
2026-01-26 21:50:46.63	56.65	15.31	-45.7	-47.0	20.1	0.00e+00	0	44	0	421527552	63	4090
2026-01-26 21:50:47.63	56.86	15.34	-45.9	-47.3	19.9	0.00e+00	0	44	0	423624704	63	4194
2026-01-26 21:50:48.64	57.06	15.38	-45.7	-47.1	20.1	0.00e+00	0	44	0	425721856	63	4122
2026-01-26 21:50:49.65	57.27	15.41	-45.8	-47.2	20.0	0.00e+00	0	44	0	427819008	63	4158
2026-01-26 21:50:50.65	57.48	15.44	-45.8	-47.1	20.1	0.00e+00	0	44	0	428867584	63	4132
2026-01-26 21:50:51.66	57.69	15.47	-45.8	-47.2	19.9	0.00e+00	0	44	0	430964736	63	4183
2026-01-26 21:50:52.66	57.89	15.50	-45.9	-47.4	19.8	0.00e+00	0	44	0	433061888	63	4246
2026-01-26 21:50:53.67	58.10	15.53	-46.0	-47.5	19.7	0.00e+00	0	44	0	435159040	63	4297
2026-01-26 21:50:54.67	58.31	15.56	-46.1	-47.6	19.5	0.00e+00	0	44	0	437256192	63	4363
2026-01-26 21:50:55.68	58.52	15.59	-46.1	-47.6	19.6	0.00e+00	0	44	0	438304768	63	4349
2026-01-26 21:50:56.69	58.73	15.62	-46.0	-47.5	19.7	0.00e+00	0	44	0	440401920	63	4297
2026-01-26 21:50:57.70	58.94	15.65	-46.1	-47.6	19.6	0.00e+00	0	44	0	442499072	63	4356
2026-01-26 21:50:58.70	59.14	15.68	-46.1	-47.6	19.6	0.00e+00	0	44	0	444596224	63	4356
2026-01-26 21:50:59.71	59.36	15.70	-46.1	-47.5	19.7	0.00e+00	0	44	0	446693376	63	4319
2026-01-26 21:51:00.72	59.57	15.73	-46.0	-47.4	19.7	0.00e+00	0	44	0	447741952	63	4269
2026-01-26 21:51:01.72	59.78	15.76	-46.1	-47.5	19.6	0.00e+00	0	44	0	449839104	63	4339
2026-01-26 21:51:02.73	59.99	15.79	-46.2	-47.7	19.5	0.00e+00	0	44	0	451936256	63	4394
2026-01-26 21:51:03.73	60.20	15.81	-46.3	-47.8	19.4	0.00e+00	0	44	0	454033408	63	4460
2026-01-26 21:51:04.74	60.41	15.84	-46.4	-48.0	19.2	0.00e+00	0	44	0	456130560	63	4547
2026-01-26 21:51:05.75	60.63	15.87	-46.5	-48.1	19.1	0.00e+00	0	44	0	457179136	63	4609
2026-01-26 21:51:06.76	60.84	15.89	-46.5	-48.1	19.1	0.00e+00	0	44	0	459276288	63	4603
2026-01-26 21:51:07.77	61.05	15.92	-46.6	-48.1	19.0	0.00e+00	0	44	0	461373440	63	4651
2026-01-26 21:51:08.78	61.27	15.94	-46.6	-48.1	18.9	0.00e+00	0	44	0	463470592	64	4375
2026-01-26 21:51:09.79	61.48	15.97	-46.7	-48.3	18.8	0.00e+00	0	44	0	465567744	64	4456
2026-01-26 21:51:10.80	61.70	15.99	-46.5	-48.0	19.0	0.00e+00	0	44	0	466616320	64	4328
2026-01-26 21:51:11.81	61.91	16.02	-46.5	-48.1	19.1	0.00e+00	0	44	0	468713472	64	4357
2026-01-26 21:51:12.82	62.13	16.04	-46.4	-48.0	19.1	0.00e+00	0	44	0	470810624	64	4302
2026-01-26 21:51:13.83	62.35	16.07	-46.3	-47.8	19.3	0.00e+00	0	44	0	472907776	64	4200
2026-01-26 21:51:14.83	62.56	16.09	-46.4	-47.9	19.2	0.00e+00	0	44	0	475004928	64	4267
2026-01-26 21:51:15.85	62.78	16.11	-46.4	-47.9	19.3	0.00e+00	0	44	0	477102080	64	4248
2026-01-26 21:51:16.86	63.00	16.13	-46.4	-47.9	19.2	0.00e+00	0	44	0	478150656	64	4272
2026-01-26 21:51:17.87	63.21	16.16	-46.4	-47.9	19.2	0.00e+00	0	44	0	480247808	64	4261
2026-01-26 21:51:18.88	63.43	16.18	-46.4	-47.9	19.1	0.00e+00	0	44	0	482344960	64	4267
2026-01-26 21:51:19.88	63.65	16.20	-46.4	-47.9	19.2	0.00e+00	0	44	0	484442112	64	4257
2026-01-26 21:51:20.89	63.87	16.22	-46.4	-47.9	19.2	0.00e+00	0	44	0	485490688	64	4268
2026-01-26 21:51:21.90	64.08	16.24	-46.4	-47.9	19.2	0.00e+00	0	44	0	487587840	64	4290
2026-01-26 21:51:22.91	64.30	16.26	-46.4	-48.0	19.2	0.00e+00	0	44	0	489684992	64	4294
2026-01-26 21:51:23.92	64.52	16.28	-46.3	-47.8	19.2	0.00e+00	0	44	0	491782144	64	4239
2026-01-26 21:51:24.92	64.74	16.30	-46.3	-47.8	19.3	0.00e+00	0	44	0	493879296	64	4197
2026-01-26 21:51:25.93	64.96	16.32	-46.3	-47.8	19.2	0.00e+00	0	44	0	494927872	64	4234
2026-01-26 21:51:26.93	65.18	16.34	-46.3	-47.8	19.3	0.00e+00	0	44	0	497025024	64	4242
2026-01-26 21:51:27.95	65.40	16.36	-46.3	-47.8	19.2	0.00e+00	0	44	0	499122176	64	4229
2026-01-26 21:51:28.95	65.62	16.38	-46.3	-47.8	19.3	0.00e+00	0	45	0	501219328	64	4209
2026-01-26 21:51:29.96	65.84	16.39	-46.1	-47.5	19.6	0.00e+00	0	44	0	503316480	64	4082
2026-01-26 21:51:30.96	66.06	16.41	-46.0	-47.5	19.7	0.00e+00	0	44	0	505413632	64	4055
2026-01-26 21:51:31.97	66.28	16.43	-46.1	-47.5	19.7	0.00e+00	0	44	0	506462208	63	4303
2026-01-26 21:51:32.97	66.50	16.44	-46.1	-47.5	19.7	0.00e+00	0	44	0	508559360	63	4321
2026-01-26 21:51:33.98	66.72	16.46	-46.2	-47.7	19.5	0.00e+00	0	44	0	510656512	63	4405
2026-01-26 21:51:34.99	66.94	16.47	-46.2	-47.7	19.4	0.00e+00	0	44	0	512753664	63	4407
2026-01-26 21:51:36.00	67.17	16.49	-46.2	-47.7	19.5	0.00e+00	0	44	0	513802240	63	4414
2026-01-26 21:51:37.00	67.39	16.50	-46.1	-47.6	19.6	0.00e+00	0	44	0	515899392	63	4341
2026-01-26 21:51:38.01	67.61	16.52	-46.0	-47.5	19.6	0.00e+00	0	44	0	517996544	63	4307
2026-01-26 21:51:39.02	67.83	16.53	-46.2	-47.6	19.6	0.00e+00	0	44	0	520093696	63	4371
2026-01-26 21:51:40.03	68.05	16.55	-46.2	-47.7	19.4	0.00e+00	0	44	0	522190848	63	4423
2026-01-26 21:51:41.03	68.28	16.56	-46.3	-47.8	19.4	0.00e+00	0	44	0	524288000	63	4462
2026-01-26 21:51:42.04	68.50	16.57	-46.3	-47.8	19.4	0.00e+00	0	44	0	525336576	63	4470
2026-01-26 21:51:43.04	68.72	16.59	-46.3	-47.8	19.3	0.00e+00	0	44	0	527433728	63	4489
2026-01-26 21:51:44.05	68.94	16.60	-46.5	-48.0	19.2	0.00e+00	0	44	0	529530880	63	4569
2026-01-26 21:51:45.05	69.17	16.61	-46.5	-48.0	19.2	0.00e+00	0	44	0	531628032	63	4564
2026-01-26 21:51:46.05	69.39	16.62	-46.6	-48.1	19.1	0.00e+00	0	44	0	533725184	63	4632
2026-01-26 21:51:47.06	69.61	16.63	-46.7	-48.3	18.9	0.00e+00	0	44	0	534773760	63	4737
2026-01-26 21:51:48.07	69.84	16.64	-46.5	-48.0	19.1	0.00e+00	0	44	0	536870912	63	4597
2026-01-26 21:51:49.08	70.06	16.65	-46.5	-48.1	19.1	0.00e+00	0	44	0	538968064	63	4613
2026-01-26 21:51:50.09	70.29	16.66	-46.4	-47.9	19.3	0.00e+00	0	44	0	541065216	63	4541
2026-01-26 21:51:51.10	70.51	16.67	-46.3	-47.8	19.3	0.00e+00	0	45	0	542113792	63	4488
2026-01-26 21:51:52.10	70.74	16.68	-46.4	-47.9	19.3	0.00e+00	0	44	0	544210944	63	4498
2026-01-26 21:51:53.11	70.96	16.69	-46.2	-47.6	19.6	0.00e+00	0	44	0	546308096	63	4378
2026-01-26 21:51:54.12	71.19	16.69	-46.1	-47.5	19.7	0.00e+00	0	44	0	548405248	63	4312
2026-01-26 21:51:55.12	71.41	16.70	-46.1	-47.5	19.7	0.00e+00	0	44	0	550502400	63	4328
2026-01-26 21:51:56.13	71.64	16.71	-46.0	-47.4	19.7	0.00e+00	0	44	0	551550976	63	4265
2026-01-26 21:51:57.13	71.86	16.72	-46.1	-47.6	19.6	0.00e+00	0	44	0	553648128	63	4356
2026-01-26 21:51:58.14	72.08	16.72	-46.1	-47.6	19.6	0.00e+00	0	44	0	555745280	63	4354
2026-01-26 21:51:59.15	72.31	16.73	-46.2	-47.7	19.4	0.00e+00	0	44	0	557842432	63	4398
2026-01-26 21:52:00.15	72.53	16.73	-46.4	-47.9	19.3	0.00e+00	0	44	0	559939584	63	4500
2026-01-26 21:52:01.16	72.76	16.74	-46.3	-47.8	19.4	0.00e+00	0	44	0	562036736	63	4478
2026-01-26 21:52:02.17	72.99	16.74	-46.4	-47.9	19.2	0.00e+00	0	44	0	563085312	63	4538
2026-01-26 21:52:03.18	73.21	16.75	-46.4	-47.9	19.2	0.00e+00	0	44	0	565182464	63	4507
2026-01-26 21:52:04.18	73.44	16.75	-46.4	-47.9	19.2	0.00e+00	0	44	0	567279616	63	4538
2026-01-26 21:52:05.19	73.66	16.75	-46.5	-48.0	19.2	0.00e+00	0	44	0	569376768	63	4591
2026-01-26 21:52:06.20	73.89	16.76	-46.3	-47.8	19.3	0.00e+00	0	44	0	570425344	63	4490
2026-01-26 21:52:07.21	74.12	16.76	-46.2	-47.6	19.5	0.00e+00	0	44	0	572522496	63	4385
2026-01-26 21:52:08.22	74.34	16.76	-46.0	-47.5	19.7	0.00e+00	0	44	0	574619648	63	4295
2026-01-26 21:52:09.23	74.57	16.76	-45.9	-47.3	19.9	0.00e+00	0	44	0	576716800	63	4212
2026-01-26 21:52:10.23	74.79	16.76	-45.9	-47.2	19.9	0.00e+00	0	44	0	578813952	63	4192
2026-01-26 21:52:11.24	75.02	16.76	-45.8	-47.2	19.9	0.00e+00	0	44	0	580911104	63	4166
2026-01-26 21:52:12.25	75.25	16.76	-45.9	-47.3	19.9	0.00e+00	0	44	0	581959680	63	4202
2026-01-26 21:52:13.25	75.47	16.76	-45.9	-47.3	19.9	0.00e+00	0	44	0	584056832	63	4200
2026-01-26 21:52:14.26	75.70	16.76	-45.8	-47.2	19.9	0.00e+00	0	44	0	586153984	63	4186
2026-01-26 21:52:15.27	75.92	16.76	-46.0	-47.4	19.8	0.00e+00	0	44	0	588251136	63	4279
2026-01-26 21:52:16.28	76.15	16.76	-45.9	-47.3	19.8	0.00e+00	0	44	0	590348288	63	4205
2026-01-26 21:52:17.29	76.38	16.76	-46.0	-47.4	19.7	0.00e+00	0	44	0	591396864	63	4251
2026-01-26 21:52:18.30	76.60	16.76	-46.1	-47.5	19.6	0.00e+00	0	44	0	593494016	63	4339
2026-01-26 21:52:19.31	76.83	16.76	-46.2	-47.6	19.5	0.00e+00	0	44	0	595591168	63	4379
2026-01-26 21:52:20.32	77.06	16.75	-46.2	-47.7	19.4	0.00e+00	0	44	0	597688320	63	4403
2026-01-26 21:52:21.32	77.28	16.75	-46.2	-47.7	19.5	0.00e+00	0	44	0	598736896	63	4397
2026-01-26 21:52:22.32	77.50	16.75	-46.3	-47.8	19.3	0.00e+00	0	44	0	600834048	63	4452
2026-01-26 21:52:23.33	77.73	16.74	-46.2	-47.7	19.4	0.00e+00	0	44	0	602931200	63	4428
2026-01-26 21:52:24.34	77.96	16.74	-46.3	-47.7	19.4	0.00e+00	0	44	0	605028352	63	4430
2026-01-26 21:52:25.35	78.18	16.73	-46.1	-47.6	19.5	0.00e+00	0	44	0	607125504	63	4360
2026-01-26 21:52:26.35	78.41	16.73	-46.1	-47.5	19.6	0.00e+00	0	44	0	609222656	63	4319
2026-01-26 21:52:27.36	78.63	16.72	-45.9	-47.3	19.8	0.00e+00	0	44	0	610271232	63	4239
2026-01-26 21:52:28.37	78.86	16.71	-45.9	-47.3	19.8	0.00e+00	0	44	0	612368384	63	4229
2026-01-26 21:52:29.38	79.08	16.71	-45.9	-47.3	19.7	0.00e+00	0	44	0	614465536	63	4212
2026-01-26 21:52:30.39	79.31	16.70	-46.0	-47.4	19.7	0.00e+00	0	44	0	616562688	63	4287
2026-01-26 21:52:31.39	79.53	16.69	-46.0	-47.5	19.6	0.00e+00	0	44	0	618659840	63	4307
2026-01-26 21:52:32.40	79.76	16.68	-46.0	-47.4	19.7	0.00e+00	0	44	0	619708416	63	4271
2026-01-26 21:52:33.40	79.98	16.67	-46.0	-47.4	19.7	0.00e+00	0	44	0	621805568	63	4263
2026-01-26 21:52:34.39	80.20	16.67	-45.9	-47.3	19.8	0.00e+00	0	44	0	623902720	63	4210
2026-01-26 21:52:35.39	80.43	16.66	-45.8	-47.2	19.9	0.00e+00	0	44	0	625999872	63	4164
2026-01-26 21:52:36.39	80.65	16.65	-45.8	-47.2	19.9	0.00e+00	0	44	0	627048448	63	4159
2026-01-26 21:52:37.39	80.87	16.64	-45.8	-47.2	20.0	0.00e+00	0	44	0	629145600	63	4151
2026-01-26 21:52:38.39	81.09	16.63	-45.6	-47.0	20.2	0.00e+00	0	44	0	631242752	63	4067
2026-01-26 21:52:39.38	81.31	16.62	-45.6	-47.0	20.1	0.00e+00	0	44	0	633339904	63	4076
2026-01-26 21:52:40.38	81.54	16.60	-45.8	-47.2	19.9	0.00e+00	0	44	0	635437056	63	4158
2026-01-26 21:52:41.38	81.76	16.59	-45.8	-47.2	19.9	0.00e+00	0	44	0	636485632	63	4191
2026-01-26 21:52:42.38	81.98	16.58	-46.0	-47.4	19.8	0.00e+00	0	44	0	638582784	63	4256
2026-01-26 21:52:43.38	82.20	16.57	-46.0	-47.4	19.7	0.00e+00	0	44	0	640679936	63	4279
2026-01-26 21:52:44.38	82.42	16.56	-46.0	-47.5	19.7	0.00e+00	0	44	0	642777088	63	4296
2026-01-26 21:52:45.39	82.65	16.54	-46.0	-47.4	19.7	0.00e+00	0	44	0	644874240	63	4262
2026-01-26 21:52:46.39	82.87	16.53	-45.8	-47.1	20.0	0.00e+00	0	44	0	645922816	63	4133
2026-01-26 21:52:47.38	83.09	16.51	-45.6	-47.0	20.1	0.00e+00	0	44	0	648019968	63	4055
2026-01-26 21:52:48.39	83.31	16.50	-45.6	-46.9	20.1	0.00e+00	0	44	0	650117120	63	4037
2026-01-26 21:52:49.40	83.53	16.48	-45.5	-46.8	20.3	0.00e+00	0	44	0	652214272	62	4221
2026-01-26 21:52:50.40	83.75	16.47	-45.6	-46.9	20.3	0.00e+00	0	44	0	654311424	62	4263
2026-01-26 21:52:51.40	83.97	16.45	-45.5	-46.8	20.3	0.00e+00	0	44	0	655360000	62	4206
2026-01-26 21:52:52.40	84.19	16.44	-45.4	-46.7	20.4	0.00e+00	0	44	0	657457152	62	4182
2026-01-26 21:52:53.40	84.41	16.42	-45.4	-46.7	20.3	0.00e+00	0	44	0	659554304	62	4189
2026-01-26 21:52:54.40	84.63	16.40	-45.4	-46.7	20.3	0.00e+00	0	44	0	661651456	62	4163
2026-01-26 21:52:55.40	84.85	16.39	-45.2	-46.5	20.5	0.00e+00	0	44	0	662700032	62	4065
2026-01-26 21:52:56.41	85.07	16.37	-45.2	-46.5	20.6	0.00e+00	0	44	0	664797184	62	4066
2026-01-26 21:52:57.41	85.29	16.35	-45.3	-46.5	20.5	0.00e+00	0	44	0	666894336	62	4093
2026-01-26 21:52:58.41	85.51	16.33	-45.2	-46.5	20.5	0.00e+00	0	44	0	668991488	62	4076
2026-01-26 21:52:59.40	85.73	16.31	-45.3	-46.6	20.5	0.00e+00	0	44	0	671088640	62	4116
2026-01-26 21:53:00.40	85.94	16.30	-45.4	-46.7	20.3	0.00e+00	0	44	0	672137216	62	4186
2026-01-26 21:53:01.40	86.16	16.28	-45.4	-46.7	20.4	0.00e+00	0	44	0	674234368	62	4151
2026-01-26 21:53:02.40	86.38	16.26	-45.4	-46.8	20.3	0.00e+00	0	45	0	676331520	62	4196
2026-01-26 21:53:03.40	86.60	16.24	-45.3	-46.6	20.5	0.00e+00	0	44	0	678428672	62	4130
2026-01-26 21:53:04.40	86.81	16.22	-45.3	-46.6	20.4	0.00e+00	0	44	0	680525824	62	4137
2026-01-26 21:53:05.41	87.03	16.19	-45.2	-46.4	20.6	0.00e+00	0	44	0	681574400	62	4049
2026-01-26 21:53:06.41	87.25	16.17	-45.3	-46.6	20.4	0.00e+00	0	44	0	683671552	62	4107
2026-01-26 21:53:07.42	87.47	16.15	-45.5	-46.8	20.3	0.00e+00	0	45	0	685768704	62	4218
2026-01-26 21:53:08.43	87.68	16.13	-45.6	-47.0	20.1	0.00e+00	0	44	0	687865856	62	4300
2026-01-26 21:53:09.44	87.90	16.11	-45.6	-47.0	20.1	0.00e+00	0	44	0	689963008	62	4299
2026-01-26 21:53:10.44	88.12	16.08	-45.7	-47.0	20.0	0.00e+00	0	44	0	691011584	62	4335
2026-01-26 21:53:11.45	88.33	16.06	-45.7	-47.1	19.9	0.00e+00	0	45	0	693108736	62	4379
2026-01-26 21:53:12.46	88.55	16.04	-45.5	-46.9	20.2	0.00e+00	0	44	0	695205888	62	4249
2026-01-26 21:53:13.47	88.76	16.01	-45.4	-46.7	20.3	0.00e+00	0	44	0	697303040	62	4182
2026-01-26 21:53:14.48	88.98	15.99	-45.1	-46.3	20.7	0.00e+00	0	44	0	699400192	62	4004
2026-01-26 21:53:15.49	89.20	15.96	-44.9	-46.1	20.9	0.00e+00	0	44	0	700448768	61	4138
2026-01-26 21:53:16.50	89.41	15.94	-44.8	-46.0	20.9	0.00e+00	0	44	0	702545920	61	4092
2026-01-26 21:53:17.50	89.62	15.91	-44.8	-46.0	20.9	0.00e+00	0	44	0	704643072	61	4094
2026-01-26 21:53:18.50	89.84	15.89	-44.7	-45.9	21.0	0.00e+00	0	44	0	706740224	61	4018
2026-01-26 21:53:19.51	90.05	15.86	-44.5	-45.7	21.2	0.00e+00	0	44	0	708837376	61	3945
2026-01-26 21:53:20.52	90.26	15.83	-44.5	-45.7	21.2	0.00e+00	0	44	0	709885952	61	3947
2026-01-26 21:53:21.53	90.48	15.81	-44.4	-45.5	21.4	0.00e+00	0	44	0	711983104	60	4094
2026-01-26 21:53:22.53	90.69	15.78	-44.4	-45.6	21.4	0.00e+00	0	44	0	714080256	60	4104
2026-01-26 21:53:23.54	90.90	15.75	-44.5	-45.7	21.3	0.00e+00	0	44	0	716177408	60	4171
2026-01-26 21:53:24.54	91.11	15.72	-44.5	-45.6	21.3	0.00e+00	0	44	0	718274560	60	4144
2026-01-26 21:53:25.54	91.32	15.70	-44.6	-45.8	21.2	0.00e+00	0	44	0	719323136	60	4206
2026-01-26 21:53:26.55	91.53	15.67	-44.5	-45.7	21.2	0.00e+00	0	44	0	721420288	60	4173
2026-01-26 21:53:27.56	91.74	15.64	-44.6	-45.8	21.1	0.00e+00	0	44	0	723517440	60	4236
2026-01-26 21:53:28.57	91.95	15.61	-44.8	-46.1	20.9	0.00e+00	0	44	0	725614592	60	4352
2026-01-26 21:53:29.57	92.16	15.58	-44.9	-46.1	20.8	0.00e+00	0	44	0	727711744	60	4368
2026-01-26 21:53:30.58	92.37	15.55	-44.9	-46.2	20.8	0.00e+00	0	44	0	728760320	60	4392
2026-01-26 21:53:31.59	92.58	15.52	-44.8	-46.1	20.9	0.00e+00	0	44	0	730857472	60	4342
2026-01-26 21:53:32.60	92.79	15.49	-44.8	-46.0	20.9	0.00e+00	0	44	0	732954624	60	4331
2026-01-26 21:53:33.60	93.00	15.46	-44.7	-46.0	21.0	0.00e+00	0	44	0	735051776	60	4294
2026-01-26 21:53:34.61	93.21	15.43	-44.6	-45.8	21.2	0.00e+00	0	44	0	737148928	60	4208
2026-01-26 21:53:35.62	93.41	15.40	-44.6	-45.8	21.2	0.00e+00	0	45	0	738197504	60	4223
2026-01-26 21:53:36.63	93.62	15.36	-44.4	-45.6	21.3	0.00e+00	0	44	0	740294656	60	4125
2026-01-26 21:53:37.63	93.83	15.33	-44.4	-45.6	21.3	0.00e+00	0	44	0	742391808	60	4105
2026-01-26 21:53:38.64	94.03	15.30	-44.3	-45.5	21.4	0.00e+00	0	44	0	744488960	60	4061
2026-01-26 21:53:39.65	94.24	15.27	-44.3	-45.5	21.4	0.00e+00	0	45	0	746586112	60	4070
2026-01-26 21:53:40.66	94.44	15.23	-44.5	-45.7	21.2	0.00e+00	0	45	0	747634688	60	4156
2026-01-26 21:53:41.66	94.65	15.20	-44.6	-45.8	21.1	0.00e+00	0	44	0	749731840	60	4229
2026-01-26 21:53:42.67	94.85	15.17	-44.8	-46.1	20.9	0.00e+00	0	44	0	751828992	60	4344
2026-01-26 21:53:43.68	95.06	15.13	-45.0	-46.3	20.7	0.00e+00	0	44	0	753926144	60	4445
2026-01-26 21:53:44.69	95.26	15.10	-45.1	-46.4	20.6	0.00e+00	0	44	0	756023296	60	4516
2026-01-26 21:53:45.69	95.46	15.07	-45.1	-46.4	20.5	0.00e+00	0	44	0	757071872	60	4504
2026-01-26 21:53:46.70	95.66	15.03	-45.1	-46.4	20.5	0.00e+00	0	44	0	759169024	60	4527
2026-01-26 21:53:47.71	95.87	15.00	-45.1	-46.4	20.5	0.00e+00	0	44	0	761266176	61	4265
2026-01-26 21:53:48.72	96.07	14.96	-45.0	-46.3	20.6	0.00e+00	0	44	0	763363328	61	4204
2026-01-26 21:53:49.73	96.27	14.92	-45.2	-46.5	20.4	0.00e+00	0	44	0	765460480	61	4302
2026-01-26 21:53:50.74	96.47	14.89	-45.1	-46.4	20.6	0.00e+00	0	44	0	767557632	61	4263
2026-01-26 21:53:51.75	96.67	14.85	-45.1	-46.4	20.5	0.00e+00	0	44	0	768606208	61	4268
2026-01-26 21:53:52.75	96.87	14.82	-45.3	-46.6	20.4	0.00e+00	0	44	0	770703360	61	4361
2026-01-26 21:53:53.76	97.07	14.78	-45.1	-46.4	20.5	0.00e+00	0	45	0	772800512	61	4272
2026-01-26 21:53:54.77	97.27	14.74	-45.1	-46.4	20.6	0.00e+00	0	44	0	774897664	61	4257
2026-01-26 21:53:55.78	97.47	14.71	-45.0	-46.3	20.7	0.00e+00	0	44	0	775946240	61	4210
2026-01-26 21:53:56.78	97.66	14.67	-44.9	-46.2	20.8	0.00e+00	0	45	0	778043392	61	4150
2026-01-26 21:53:57.79	97.86	14.63	-44.9	-46.2	20.7	0.00e+00	0	44	0	780140544	61	4168
2026-01-26 21:53:58.80	98.06	14.59	-44.9	-46.2	20.7	0.00e+00	0	44	0	782237696	61	4166
2026-01-26 21:53:59.81	98.26	14.55	-45.0	-46.3	20.6	0.00e+00	0	44	0	784334848	61	4220
2026-01-26 21:54:00.82	98.45	14.52	-45.2	-46.5	20.5	0.00e+00	0	44	0	785383424	61	4306
2026-01-26 21:54:01.83	98.65	14.48	-45.6	-47.0	20.0	0.00e+00	0	44	0	787480576	61	4563
2026-01-26 21:54:02.83	98.84	14.44	-45.8	-47.3	19.7	0.00e+00	0	44	0	789577728	62	4448
2026-01-26 21:54:03.84	99.04	14.40	-46.0	-47.5	19.4	0.00e+00	0	44	0	791674880	62	4571
2026-01-26 21:54:04.85	99.23	14.36	-46.4	-47.9	19.1	0.00e+00	0	44	0	793772032	63	4537
2026-01-26 21:54:05.86	99.42	14.32	-46.5	-48.1	19.0	0.00e+00	0	44	0	795869184	63	4616
2026-01-26 21:54:06.87	99.62	14.28	-46.6	-48.2	18.7	0.00e+00	0	44	0	796917760	64	4430
2026-01-26 21:54:07.87	99.81	14.24	-46.8	-48.5	18.4	0.00e+00	0	44	0	799014912	64	4570
2026-01-26 21:54:08.87	100.00	14.20	-46.9	-48.6	18.4	0.00e+00	0	44	0	801112064	64	4627
2026-01-26 21:54:09.88	100.19	14.16	-46.8	-48.5	18.5	0.00e+00	0	44	0	803209216	64	4562
2026-01-26 21:54:10.89	100.38	14.12	-46.9	-48.7	18.3	0.00e+00	0	45	0	804257792	64	4666
2026-01-26 21:54:11.89	100.57	14.08	-46.9	-48.7	18.3	0.00e+00	0	44	0	806354944	64	4661
2026-01-26 21:54:12.90	100.76	14.04	-47.0	-48.7	18.3	0.00e+00	0	44	0	808452096	64	4680
2026-01-26 21:54:13.91	100.95	14.00	-47.0	-48.7	18.2	0.00e+00	0	44	0	810549248	64	4694
2026-01-26 21:54:14.92	101.14	13.95	-46.8	-48.5	18.3	0.00e+00	0	44	0	812646400	64	4571
2026-01-26 21:54:15.93	101.33	13.91	-46.9	-48.6	18.4	0.00e+00	0	44	0	814743552	64	4611
2026-01-26 21:54:16.94	101.52	13.87	-46.7	-48.4	18.5	0.00e+00	0	44	0	815792128	64	4495
2026-01-26 21:54:17.95	101.71	13.83	-46.7	-48.3	18.6	0.00e+00	0	44	0	817889280	64	4473
2026-01-26 21:54:18.95	101.89	13.79	-46.6	-48.2	18.7	0.00e+00	0	44	0	819986432	64	4436
2026-01-26 21:54:19.96	102.08	13.74	-46.5	-48.1	18.8	0.00e+00	0	44	0	822083584	64	4379
2026-01-26 21:54:20.96	102.26	13.70	-46.4	-48.0	18.9	0.00e+00	0	44	0	824180736	64	4312
2026-01-26 21:54:21.97	102.45	13.66	-46.4	-48.0	19.0	0.00e+00	0	44	0	825229312	64	4297
2026-01-26 21:54:22.98	102.63	13.61	-46.4	-47.9	18.9	0.00e+00	0	44	0	827326464	64	4291
2026-01-26 21:54:23.99	102.82	13.57	-46.5	-48.1	18.8	0.00e+00	0	44	0	829423616	64	4379
2026-01-26 21:54:24.99	103.00	13.53	-46.6	-48.2	18.7	0.00e+00	0	44	0	831520768	64	4434
2026-01-26 21:54:26.00	103.18	13.48	-46.8	-48.5	18.5	0.00e+00	0	44	0	832569344	64	4559
2026-01-26 21:54:27.01	103.37	13.44	-46.9	-48.6	18.3	0.00e+00	0	44	0	834666496	64	4614
2026-01-26 21:54:28.01	103.55	13.39	-47.0	-48.7	18.1	0.00e+00	0	44	0	836763648	64	4701
2026-01-26 21:54:29.02	103.73	13.35	-47.1	-48.9	18.0	0.00e+00	0	44	0	838860800	64	4813
2026-01-26 21:54:30.03	103.91	13.31	-47.2	-49.1	17.8	0.00e+00	0	44	0	840957952	65	4609
2026-01-26 21:54:31.03	104.09	13.26	-47.4	-49.2	17.7	0.00e+00	0	44	0	843055104	65	4694
2026-01-26 21:54:32.04	104.27	13.22	-47.3	-49.1	17.8	0.00e+00	0	44	0	844103680	65	4643
2026-01-26 21:54:33.05	104.45	13.17	-47.2	-49.1	17.8	0.00e+00	0	44	0	846200832	65	4610
2026-01-26 21:54:34.06	104.63	13.13	-47.2	-49.1	17.9	0.00e+00	0	44	0	848297984	65	4610
2026-01-26 21:54:35.07	104.81	13.08	-47.0	-48.7	18.2	0.00e+00	0	44	0	850395136	65	4416
2026-01-26 21:54:36.08	104.99	13.03	-46.9	-48.6	18.3	0.00e+00	0	44	0	852492288	65	4351
2026-01-26 21:54:37.08	105.16	12.99	-46.9	-48.6	18.3	0.00e+00	0	44	0	853540864	65	4358
2026-01-26 21:54:38.09	105.34	12.94	-46.8	-48.4	18.5	0.00e+00	0	44	0	855638016	65	4286
2026-01-26 21:54:39.09	105.51	12.90	-46.6	-48.2	18.6	0.00e+00	0	44	0	857735168	65	4175
2026-01-26 21:54:40.10	105.69	12.85	-46.8	-48.4	18.4	0.00e+00	0	44	0	859832320	65	4288
2026-01-26 21:54:41.11	105.87	12.80	-46.9	-48.6	18.3	0.00e+00	0	44	0	860880896	65	4348
2026-01-26 21:54:42.11	106.04	12.76	-46.8	-48.4	18.5	0.00e+00	0	44	0	862978048	65	4283
2026-01-26 21:54:43.11	106.21	12.71	-46.6	-48.3	18.6	0.00e+00	0	44	0	865075200	65	4207
2026-01-26 21:54:44.12	106.39	12.66	-46.5	-48.1	18.8	0.00e+00	0	45	0	867172352	65	4120
2026-01-26 21:54:45.12	106.56	12.62	-46.3	-47.9	18.9	0.00e+00	0	44	0	869269504	64	4270
2026-01-26 21:54:46.13	106.73	12.57	-46.1	-47.6	19.3	0.00e+00	0	44	0	871366656	64	4105
2026-01-26 21:54:47.14	106.90	12.52	-46.1	-47.6	19.4	0.00e+00	0	45	0	872415232	63	4349
2026-01-26 21:54:48.15	107.08	12.48	-46.1	-47.6	19.3	0.00e+00	0	44	0	874512384	63	4375
2026-01-26 21:54:49.16	107.25	12.43	-46.1	-47.6	19.4	0.00e+00	0	44	0	876609536	63	4352
2026-01-26 21:54:50.16	107.42	12.38	-46.1	-47.6	19.4	0.00e+00	0	45	0	878706688	63	4347
2026-01-26 21:54:51.17	107.59	12.33	-46.2	-47.7	19.1	0.00e+00	0	45	0	880803840	63	4435
2026-01-26 21:54:52.18	107.76	12.28	-46.3	-47.9	19.1	0.00e+00	0	45	0	881852416	63	4497
2026-01-26 21:54:53.19	107.93	12.24	-46.3	-47.9	19.1	0.00e+00	0	44	0	883949568	63	4519
2026-01-26 21:54:54.19	108.09	12.19	-46.4	-47.9	19.0	0.00e+00	0	44	0	886046720	63	4526
2026-01-26 21:54:55.20	108.26	12.14	-46.5	-48.1	18.8	0.00e+00	0	44	0	888143872	63	4624
2026-01-26 21:54:56.21	108.43	12.09	-46.5	-48.0	18.9	0.00e+00	0	44	0	889192448	63	4592
2026-01-26 21:54:57.21	108.59	12.04	-46.6	-48.2	18.8	0.00e+00	0	44	0	891289600	63	4674
2026-01-26 21:54:58.22	108.76	11.99	-46.7	-48.3	18.7	0.00e+00	0	44	0	893386752	63	4733
2026-01-26 21:54:59.23	108.93	11.95	-46.7	-48.3	18.6	0.00e+00	0	44	0	895483904	63	4734
2026-01-26 21:55:00.24	109.09	11.90	-46.6	-48.3	18.6	0.00e+00	0	44	0	897581056	64	4465
2026-01-26 21:55:01.25	109.26	11.85	-46.7	-48.3	18.5	0.00e+00	0	44	0	899678208	64	4477
2026-01-26 21:55:02.26	109.42	11.80	-46.6	-48.3	18.6	0.00e+00	0	45	0	900726784	64	4452
2026-01-26 21:55:03.27	109.59	11.75	-46.3	-47.9	19.0	0.00e+00	0	44	0	902823936	64	4256
2026-01-26 21:55:04.27	109.75	11.70	-46.1	-47.7	19.1	0.00e+00	0	44	0	904921088	64	4146
2026-01-26 21:55:05.28	109.91	11.65	-46.0	-47.5	19.4	0.00e+00	0	44	0	907018240	63	4324
2026-01-26 21:55:06.29	110.07	11.60	-45.8	-47.2	19.7	0.00e+00	0	44	0	909115392	63	4175
2026-01-26 21:55:07.29	110.23	11.55	-45.8	-47.2	19.7	0.00e+00	0	44	0	910163968	63	4161
2026-01-26 21:55:08.30	110.39	11.50	-45.4	-46.8	20.1	0.00e+00	0	45	0	912261120	62	4211
2026-01-26 21:55:09.31	110.55	11.45	-45.4	-46.7	20.1	0.00e+00	0	44	0	914358272	62	4186
2026-01-26 21:55:10.31	110.71	11.40	-45.5	-46.9	20.0	0.00e+00	0	45	0	916455424	62	4243
2026-01-26 21:55:11.32	110.87	11.35	-45.6	-47.0	19.8	0.00e+00	0	44	0	917504000	62	4331
2026-01-26 21:55:12.33	111.03	11.30	-45.7	-47.2	19.7	0.00e+00	0	44	0	919601152	62	4404
2026-01-26 21:55:13.34	111.19	11.25	-45.8	-47.3	19.6	0.00e+00	0	45	0	921698304	62	4450
2026-01-26 21:55:14.35	111.35	11.20	-46.0	-47.5	19.4	0.00e+00	0	44	0	923795456	62	4563
2026-01-26 21:55:15.36	111.51	11.15	-46.0	-47.5	19.4	0.00e+00	0	44	0	925892608	62	4554
2026-01-26 21:55:16.36	111.66	11.10	-46.0	-47.5	19.4	0.00e+00	0	45	0	927989760	62	4546
2026-01-26 21:55:17.37	111.82	11.05	-46.0	-47.4	19.4	0.00e+00	0	44	0	929038336	62	4542
2026-01-26 21:55:18.38	111.97	11.00	-46.0	-47.5	19.4	0.00e+00	0	44	0	931135488	62	4573
2026-01-26 21:55:19.38	112.13	10.95	-46.0	-47.5	19.4	0.00e+00	0	44	0	933232640	62	4560
2026-01-26 21:55:20.38	112.28	10.90	-45.9	-47.3	19.6	0.00e+00	0	44	0	935329792	62	4467
2026-01-26 21:55:21.39	112.44	10.85	-45.9	-47.4	19.5	0.00e+00	0	44	0	937426944	62	4523
2026-01-26 21:55:22.39	112.59	10.79	-46.0	-47.5	19.4	0.00e+00	0	44	0	938475520	62	4567
2026-01-26 21:55:23.40	112.74	10.74	-46.0	-47.5	19.4	0.00e+00	0	44	0	940572672	62	4586
2026-01-26 21:55:24.41	112.90	10.69	-46.1	-47.6	19.3	0.00e+00	0	44	0	942669824	62	4646
2026-01-26 21:55:25.42	113.05	10.64	-46.1	-47.6	19.3	0.00e+00	0	44	0	944766976	62	4623
2026-01-26 21:55:26.42	113.20	10.59	-46.0	-47.5	19.3	0.00e+00	0	44	0	945815552	62	4586
2026-01-26 21:55:27.43	113.35	10.54	-46.0	-47.5	19.4	0.00e+00	0	45	0	947912704	62	4567
2026-01-26 21:55:28.44	113.50	10.49	-46.0	-47.4	19.5	0.00e+00	0	44	0	950009856	62	4529
2026-01-26 21:55:29.44	113.65	10.44	-45.6	-47.0	19.8	0.00e+00	0	44	0	952107008	62	4304
2026-01-26 21:55:30.45	113.80	10.38	-45.6	-47.0	19.8	0.00e+00	0	44	0	954204160	62	4311
2026-01-26 21:55:31.46	113.95	10.33	-45.8	-47.2	19.6	0.00e+00	0	44	0	956301312	62	4412
2026-01-26 21:55:32.47	114.10	10.28	-45.9	-47.3	19.5	0.00e+00	0	44	0	957349888	62	4479
2026-01-26 21:55:33.48	114.25	10.23	-45.9	-47.3	19.5	0.00e+00	0	44	0	959447040	62	4475
2026-01-26 21:55:34.49	114.39	10.18	-46.0	-47.5	19.4	0.00e+00	0	44	0	961544192	62	4547
2026-01-26 21:55:35.50	114.54	10.12	-46.2	-47.7	19.1	0.00e+00	0	44	0	963641344	62	4692
2026-01-26 21:55:36.51	114.69	10.07	-46.3	-48.0	18.9	0.00e+00	0	44	0	965738496	63	4548
2026-01-26 21:55:37.52	114.83	10.02	-46.5	-48.1	18.8	0.00e+00	0	45	0	966787072	63	4613
2026-01-26 21:55:38.53	114.98	9.97	-46.4	-48.0	18.8	0.00e+00	0	44	0	968884224	63	4586
2026-01-26 21:55:39.53	115.12	9.92	-46.2	-47.8	19.0	0.00e+00	0	44	0	970981376	63	4474
2026-01-26 21:55:40.54	115.27	9.86	-46.1	-47.7	19.1	0.00e+00	0	44	0	973078528	63	4393
2026-01-26 21:55:41.55	115.41	9.81	-46.0	-47.5	19.3	0.00e+00	0	44	0	975175680	63	4323
2026-01-26 21:55:42.56	115.56	9.76	-46.0	-47.6	19.2	0.00e+00	0	44	0	976224256	63	4343
2026-01-26 21:55:43.57	115.70	9.71	-46.0	-47.5	19.3	0.00e+00	0	44	0	978321408	63	4327
2026-01-26 21:55:44.58	115.84	9.65	-46.0	-47.5	19.3	0.00e+00	0	44	0	980418560	63	4316
2026-01-26 21:55:45.59	115.99	9.60	-46.1	-47.6	19.2	0.00e+00	0	44	0	982515712	63	4358
2026-01-26 21:55:46.60	116.13	9.55	-46.2	-47.7	19.1	0.00e+00	0	44	0	984612864	63	4420
2026-01-26 21:55:47.61	116.27	9.50	-46.2	-47.8	19.0	0.00e+00	0	44	0	985661440	63	4447
2026-01-26 21:55:48.61	116.41	9.45	-46.2	-47.8	18.9	0.00e+00	0	44	0	987758592	63	4464
2026-01-26 21:55:49.62	116.55	9.39	-46.4	-48.1	18.7	0.00e+00	0	44	0	989855744	63	4600
2026-01-26 21:55:50.63	116.69	9.34	-46.5	-48.2	18.6	0.00e+00	0	44	0	991952896	63	4682
2026-01-26 21:55:51.63	116.83	9.29	-46.6	-48.3	18.4	0.00e+00	0	44	0	994050048	63	4723
2026-01-26 21:55:52.64	116.97	9.23	-46.4	-48.0	18.7	0.00e+00	0	44	0	995098624	63	4575
2026-01-26 21:55:53.65	117.10	9.18	-46.3	-48.0	18.7	0.00e+00	0	44	0	997195776	63	4549
2026-01-26 21:55:54.66	117.24	9.13	-46.1	-47.7	19.0	0.00e+00	0	44	0	999292928	63	4407
2026-01-26 21:55:55.67	117.38	9.08	-46.1	-47.6	19.0	0.00e+00	0	44	0	1001390080	63	4368
2026-01-26 21:55:56.67	117.51	9.02	-46.1	-47.6	19.0	0.00e+00	0	44	0	1003487232	63	4381
2026-01-26 21:55:57.68	117.65	8.97	-46.0	-47.6	19.1	0.00e+00	0	44	0	1004535808	63	4341
2026-01-26 21:55:58.69	117.79	8.92	-46.0	-47.5	19.1	0.00e+00	0	44	0	1006632960	63	4320
2026-01-26 21:55:59.70	117.92	8.87	-46.1	-47.7	18.9	0.00e+00	0	44	0	1008730112	63	4426
2026-01-26 21:56:00.70	118.06	8.81	-46.0	-47.6	19.0	0.00e+00	0	44	0	1010827264	63	4353
2026-01-26 21:56:01.71	118.19	8.76	-46.3	-47.9	18.7	0.00e+00	0	44	0	1012924416	63	4531
2026-01-26 21:56:02.72	118.33	8.71	-46.5	-48.1	18.5	0.00e+00	0	44	0	1013972992	63	4651
2026-01-26 21:56:03.73	118.46	8.65	-46.5	-48.2	18.5	0.00e+00	0	44	0	1016070144	63	4653
2026-01-26 21:56:04.73	118.59	8.60	-46.6	-48.4	18.1	0.00e+00	0	44	0	1018167296	64	4523
2026-01-26 21:56:05.75	118.73	8.55	-46.6	-48.4	18.2	0.00e+00	0	44	0	1020264448	64	4497
2026-01-26 21:56:06.76	118.86	8.49	-46.5	-48.3	18.2	0.00e+00	0	44	0	1022361600	64	4463
2026-01-26 21:56:07.77	118.99	8.44	-46.4	-48.1	18.3	0.00e+00	0	44	0	1023410176	64	4383
2026-01-26 21:56:08.77	119.12	8.39	-46.4	-48.1	18.4	0.00e+00	0	44	0	1025507328	64	4349
2026-01-26 21:56:09.78	119.25	8.34	-46.5	-48.2	18.3	0.00e+00	0	44	0	1027604480	64	4418
2026-01-26 21:56:10.79	119.38	8.28	-46.5	-48.3	18.2	0.00e+00	0	44	0	1029701632	64	4455
2026-01-26 21:56:11.79	119.51	8.23	-46.4	-48.1	18.3	0.00e+00	0	44	0	1031798784	64	4386
2026-01-26 21:56:12.79	119.64	8.18	-46.6	-48.3	18.2	0.00e+00	0	44	0	1032847360	64	4477
2026-01-26 21:56:13.80	119.77	8.12	-46.5	-48.3	18.2	0.00e+00	0	44	0	1034944512	64	4470
2026-01-26 21:56:14.80	119.89	8.07	-46.8	-48.6	17.8	0.00e+00	0	44	0	1037041664	64	4628
2026-01-26 21:56:15.78	120.02	8.02	-46.9	-48.8	17.7	0.00e+00	0	44	0	1039138816	64	4731
2026-01-26 21:56:16.76	120.14	7.97	-46.9	-48.8	17.6	0.00e+00	0	44	0	1041235968	64	4724
2026-01-26 21:56:17.73	120.27	7.92	-47.0	-48.9	17.5	0.00e+00	0	44	0	1042284544	64	4803
2026-01-26 21:56:18.70	120.39	7.87	-46.8	-48.6	17.8	0.00e+00	0	44	0	1044381696	64	4619
2026-01-26 21:56:19.67	120.51	7.81	-46.9	-48.8	17.7	0.00e+00	0	44	0	1046478848	64	4706
2026-01-26 21:56:20.64	120.63	7.76	-47.0	-48.9	17.5	0.00e+00	0	44	0	1048576000	64	4804
2026-01-26 21:56:21.61	120.75	7.71	-46.8	-48.6	17.8	0.00e+00	0	44	0	1049624576	64	4640
2026-01-26 21:56:22.58	120.87	7.66	-46.8	-48.7	17.7	0.00e+00	0	44	0	1051721728	64	4671
2026-01-26 21:56:23.55	120.99	7.61	-46.9	-48.8	17.6	0.00e+00	0	44	0	1053818880	64	4725
2026-01-26 21:56:24.52	121.11	7.56	-46.8	-48.6	17.8	0.00e+00	0	44	0	1054867456	64	4622
2026-01-26 21:56:25.49	121.23	7.51	-46.8	-48.6	17.8	0.00e+00	0	44	0	1056964608	64	4630
2026-01-26 21:56:26.45	121.35	7.46	-47.0	-48.9	17.5	0.00e+00	0	44	0	1059061760	64	4772
2026-01-26 21:56:27.42	121.47	7.41	-47.0	-48.9	17.5	0.00e+00	0	44	0	1061158912	64	4793
2026-01-26 21:56:28.39	121.58	7.35	-47.1	-49.1	17.3	0.00e+00	0	44	0	1062207488	64	4893
2026-01-26 21:56:29.36	121.70	7.30	-47.1	-49.0	17.3	0.00e+00	0	44	0	1064304640	64	4862
2026-01-26 21:56:30.33	121.82	7.25	-47.1	-49.1	17.2	0.00e+00	0	44	0	1066401792	64	4912
2026-01-26 21:56:31.29	121.93	7.20	-47.2	-49.2	17.1	0.00e+00	0	44	0	1068498944	64	4951
2026-01-26 21:56:32.26	122.05	7.15	-47.2	-49.3	17.1	0.00e+00	0	44	0	1069547520	65	4712
2026-01-26 21:56:33.23	122.17	7.10	-47.3	-49.4	16.9	0.00e+00	0	44	0	1071644672	65	4808
2026-01-26 21:56:34.20	122.28	7.05	-47.2	-49.2	17.1	0.00e+00	0	44	0	1073741824	65	4668
2026-01-26 21:56:35.17	122.40	7.00	-47.1	-49.1	17.2	0.00e+00	0	44	0	1074790400	65	4647
2026-01-26 21:56:36.14	122.51	6.95	-47.1	-49.1	17.2	0.00e+00	0	44	0	1076887552	65	4616
2026-01-26 21:56:37.11	122.63	6.89	-46.9	-48.8	17.5	0.00e+00	0	44	0	1078984704	65	4472
2026-01-26 21:56:38.07	122.74	6.84	-46.9	-48.9	17.4	0.00e+00	0	44	0	1081081856	65	4508
2026-01-26 21:56:39.04	122.85	6.79	-47.0	-49.0	17.3	0.00e+00	0	44	0	1082130432	65	4548
2026-01-26 21:56:40.01	122.97	6.74	-46.9	-48.8	17.5	0.00e+00	0	44	0	1084227584	65	4470
2026-01-26 21:56:40.98	123.08	6.69	-47.0	-48.9	17.3	0.00e+00	0	44	0	1086324736	65	4524
2026-01-26 21:56:41.94	123.19	6.64	-46.9	-48.8	17.4	0.00e+00	0	44	0	1088421888	65	4473
2026-01-26 21:56:42.91	123.30	6.59	-47.0	-49.0	17.3	0.00e+00	0	44	0	1089470464	65	4549
2026-01-26 21:56:43.87	123.41	6.54	-47.3	-49.4	16.9	0.00e+00	0	44	0	1091567616	65	4775
2026-01-26 21:56:44.84	123.52	6.49	-47.3	-49.4	16.8	0.00e+00	0	44	0	1093664768	65	4794
2026-01-26 21:56:45.81	123.63	6.44	-47.2	-49.3	16.9	0.00e+00	0	44	0	1094713344	65	4732
2026-01-26 21:56:46.78	123.74	6.39	-47.6	-49.8	16.4	0.00e+00	0	44	0	1096810496	65	5015
2026-01-26 21:56:47.75	123.86	6.33	-47.5	-49.7	16.5	0.00e+00	0	44	0	1098907648	65	4976
2026-01-26 21:56:48.72	123.97	6.28	-47.4	-49.7	16.5	0.00e+00	0	44	0	1101004800	65	4927
2026-01-26 21:56:49.69	124.07	6.23	-47.4	-49.6	16.6	0.00e+00	0	44	0	1102053376	65	4898
2026-01-26 21:56:50.66	124.18	6.18	-47.5	-49.8	16.4	0.00e+00	0	44	0	1104150528	65	4988
2026-01-26 21:56:51.63	124.29	6.13	-47.4	-49.6	16.6	0.00e+00	0	44	0	1106247680	65	4871
2026-01-26 21:56:52.59	124.40	6.08	-47.5	-49.8	16.4	0.00e+00	0	44	0	1108344832	65	4989
2026-01-26 21:56:53.56	124.51	6.03	-47.4	-49.7	16.4	0.00e+00	0	44	0	1109393408	65	4940
2026-01-26 21:56:54.53	124.62	5.98	-47.4	-49.5	16.6	0.00e+00	0	44	0	1111490560	65	4855
2026-01-26 21:56:55.50	124.72	5.93	-47.3	-49.4	16.7	0.00e+00	0	44	0	1113587712	65	4785
2026-01-26 21:56:56.46	124.83	5.88	-47.4	-49.6	16.5	0.00e+00	0	44	0	1115684864	65	4907
2026-01-26 21:56:57.44	124.94	5.83	-47.5	-49.8	16.3	0.00e+00	0	44	0	1116733440	65	5028
2026-01-26 21:56:58.40	125.04	5.78	-47.5	-49.8	16.3	0.00e+00	0	44	0	1118830592	65	5035
2026-01-26 21:56:59.37	125.15	5.72	-47.7	-50.1	15.9	0.00e+00	0	44	0	1120927744	66	4920
2026-01-26 21:57:00.34	125.25	5.67	-47.7	-50.0	16.0	0.00e+00	0	44	0	1123024896	66	4867
2026-01-26 21:57:01.31	125.36	5.62	-47.6	-49.9	16.2	0.00e+00	0	44	0	1124073472	66	4768
2026-01-26 21:57:02.28	125.46	5.57	-47.6	-49.9	16.1	0.00e+00	0	44	0	1126170624	66	4798
2026-01-26 21:57:03.24	125.57	5.52	-47.6	-50.0	16.0	0.00e+00	0	44	0	1128267776	66	4843
2026-01-26 21:57:04.21	125.67	5.47	-47.8	-50.3	15.8	0.00e+00	0	44	0	1129316352	66	5001
2026-01-26 21:57:05.18	125.77	5.42	-47.8	-50.3	15.7	0.00e+00	0	44	0	1131413504	66	5009
2026-01-26 21:57:06.15	125.88	5.37	-47.8	-50.3	15.7	0.00e+00	0	44	0	1133510656	66	5031
2026-01-26 21:57:07.12	125.98	5.32	-47.7	-50.1	15.9	0.00e+00	0	44	0	1135607808	66	4890
2026-01-26 21:57:08.08	126.08	5.27	-47.7	-50.1	15.9	0.00e+00	0	44	0	1136656384	66	4886
2026-01-26 21:57:09.05	126.19	5.22	-47.4	-49.6	16.4	0.00e+00	0	44	0	1138753536	66	4632
2026-01-26 21:57:10.02	126.29	5.17	-47.6	-50.0	16.0	0.00e+00	0	44	0	1140850688	66	4825
2026-01-26 21:57:10.99	126.39	5.12	-47.6	-50.0	16.0	0.00e+00	0	44	0	1142947840	66	4853
2026-01-26 21:57:11.95	126.49	5.07	-47.6	-50.0	16.0	0.00e+00	0	44	0	1143996416	66	4820
2026-01-26 21:57:12.92	126.59	5.02	-47.5	-49.9	16.1	0.00e+00	0	44	0	1146093568	66	4777
2026-01-26 21:57:13.89	126.69	4.97	-52.2	-66.5	3.8	2.85e-01	15	44	0	1148190720	74	20472
2026-01-26 21:57:14.86	126.79	4.92	-52.6	-67.6	3.8	1.49e+00	0	44	104	1148190720	75	21810
2026-01-26 21:57:15.83	126.89	4.87	-52.9	-67.8	3.8	1.49e+00	0	44	104	1148190720	76	21173
2026-01-26 21:57:16.80	126.99	4.81	-53.0	-68.0	3.8	1.49e+00	0	44	104	1148190720	76	21633
2026-01-26 21:57:17.77	127.09	4.76	-53.2	-68.2	3.8	1.49e+00	0	44	104	1148190720	76	22071
2026-01-26 21:57:18.74	127.19	4.71	-53.4	-68.3	3.8	1.49e+00	0	44	104	1148190720	77	21257
2026-01-26 21:57:19.71	127.29	4.66	-53.5	-68.5	3.8	1.49e+00	0	44	104	1148190720	77	21528
2026-01-26 21:57:20.68	127.39	4.61	-53.6	-68.6	3.8	1.49e+00	0	44	104	1148190720	77	21817
2026-01-26 21:57:21.64	127.49	4.56	-53.7	-68.6	3.8	1.49e+00	0	44	104	1148190720	77	22001
2026-01-26 21:57:22.61	127.58	4.51	-53.8	-68.7	3.8	1.49e+00	0	44	104	1148190720	78	20962
2026-01-26 21:57:23.58	127.68	4.46	-53.9	-68.8	3.8	1.49e+00	0	44	104	1148190720	78	21192
2026-01-26 21:57:24.55	127.78	4.41	-53.9	-68.9	3.8	1.49e+00	0	44	104	1148190720	78	21376
2026-01-26 21:57:25.52	127.87	4.36	-54.0	-68.9	3.8	1.49e+00	0	44	104	1148190720	78	21457
2026-01-26 21:57:26.49	127.97	4.31	-54.0	-69.0	3.8	1.49e+00	0	44	104	1148190720	78	21633
2026-01-26 21:57:27.46	128.07	4.26	-54.1	-69.1	3.8	1.49e+00	0	44	104	1148190720	78	21773
2026-01-26 21:57:28.43	128.16	4.21	-54.1	-69.1	3.8	1.49e+00	0	44	104	1148190720	78	21856
2026-01-26 21:57:29.40	128.26	4.16	-54.2	-69.1	3.8	1.49e+00	0	44	104	1148190720	78	21999
2026-01-26 21:57:30.37	128.35	4.11	-54.2	-69.2	3.8	1.49e+00	0	44	104	1148190720	78	22081
2026-01-26 21:57:31.34	128.45	4.06	-54.2	-69.2	3.8	1.49e+00	0	44	104	1148190720	79	20941
2026-01-26 21:57:32.31	128.54	4.01	-54.3	-69.2	3.8	1.49e+00	0	44	104	1148190720	79	20993
2026-01-26 21:57:33.29	128.64	3.96	-54.3	-69.3	3.8	1.49e+00	0	44	104	1148190720	79	21050
2026-01-26 21:57:34.26	128.73	3.91	-54.3	-69.3	3.8	1.49e+00	0	44	104	1148190720	79	21100
2026-01-26 21:57:35.23	128.83	3.86	-54.3	-69.3	3.8	1.49e+00	0	44	104	1148190720	79	21191
2026-01-26 21:57:36.20	128.92	3.81	-54.4	-69.3	3.8	1.49e+00	0	44	104	1148190720	79	21233
2026-01-26 21:57:37.17	129.01	3.76	-54.3	-69.3	3.8	1.49e+00	0	44	104	1148190720	79	21247
2026-01-26 21:57:38.14	129.11	3.71	-54.4	-69.4	3.8	1.49e+00	0	44	104	1148190720	79	21289
2026-01-26 21:57:39.11	129.20	3.66	-54.4	-69.4	3.8	1.49e+00	0	44	104	1148190720	79	21292
2026-01-26 21:57:40.08	129.29	3.61	-54.4	-69.4	3.8	1.49e+00	0	44	104	1148190720	79	21389
2026-01-26 21:57:41.04	129.38	3.56	-54.4	-69.4	3.8	1.49e+00	0	44	104	1148190720	79	21339
2026-01-26 21:57:42.01	129.47	3.51	-54.4	-69.4	3.8	1.49e+00	0	44	104	1148190720	79	21424
2026-01-26 21:57:42.98	129.57	3.46	-54.5	-69.5	3.8	1.49e+00	0	44	104	1148190720	79	21533
2026-01-26 21:57:43.95	129.66	3.41	-54.5	-69.5	3.8	1.49e+00	0	44	104	1148190720	79	21591
2026-01-26 21:57:44.92	129.75	3.36	-54.5	-69.5	3.8	1.49e+00	0	44	104	1148190720	79	21597
2026-01-26 21:57:45.89	129.84	3.32	-54.5	-69.5	3.8	1.49e+00	0	44	104	1148190720	79	21624
2026-01-26 21:57:46.86	129.93	3.27	-54.5	-69.5	3.8	1.49e+00	0	44	104	1148190720	79	21611
