passes_logs/2026/01/26/R3.2S_Murmansk/R3.2S_Murmansk__20260126_052253_FENGYUN_3D_rec.log

#Pass ID: 20260126_052253_FENGYUN 3D
#Satellite: FENGYUN 3D
#Configuration: FENGYUN 3D
#almurnet v.1.7.20251203
#Start time: 2026-01-26 05:22:54

#Version: 2.2.20231116
#Station: R3.2S_Murmansk
#Location: 33.079688 lon 68.888172 lat
#TLE: 1 43010U 17072A   26025.50461972  .00000046  00000+0  43592-4 0  9990
#TLE: 2 43010  98.9962 357.4844 0002523  89.7890 270.3575 14.19699798424744

#Time	Az	El	Level	Level2	SNR	BER	BlckErr	Temp	State	Recorded	gain1	gain2
2026-01-26 05:22:54.51	40.65	2.09	-54.0	-65.9	3.8	8.46e-01	0	42	0	0	79	14345
2026-01-26 05:22:55.51	40.60	2.15	-54.0	-66.0	3.8	8.47e-01	0	42	104	0	78	15239
2026-01-26 05:22:56.52	40.55	2.21	-54.0	-65.9	3.8	8.46e-01	0	42	104	0	78	15179
2026-01-26 05:22:57.53	40.50	2.27	-54.0	-65.9	3.8	8.46e-01	0	42	104	0	78	15194
2026-01-26 05:22:58.54	40.45	2.33	-54.0	-65.9	3.8	8.47e-01	0	42	104	0	78	15158
2026-01-26 05:22:59.55	40.39	2.39	-54.0	-65.9	3.8	8.45e-01	0	42	104	0	78	15125
2026-01-26 05:23:00.56	40.34	2.45	-54.0	-65.9	3.8	8.46e-01	0	42	104	0	78	15169
2026-01-26 05:23:01.57	40.29	2.51	-54.0	-66.0	3.8	8.47e-01	0	42	104	0	78	15297
2026-01-26 05:23:02.58	40.24	2.57	-54.1	-66.1	3.8	8.45e-01	0	42	104	0	78	15499
2026-01-26 05:23:03.59	40.19	2.63	-54.2	-66.2	3.8	8.46e-01	0	42	104	0	78	15581
2026-01-26 05:23:04.60	40.13	2.69	-54.2	-66.1	3.8	8.46e-01	0	42	104	0	78	15556
2026-01-26 05:23:05.61	40.08	2.75	-54.2	-66.1	3.8	8.47e-01	0	42	104	0	78	15469
2026-01-26 05:23:06.61	40.03	2.82	-54.1	-66.1	3.8	8.46e-01	0	43	104	0	78	15475
2026-01-26 05:23:07.62	39.97	2.88	-54.1	-66.1	3.8	8.46e-01	0	42	104	0	78	15405
2026-01-26 05:23:08.63	39.92	2.94	-54.1	-66.1	3.8	8.45e-01	0	42	104	0	78	15441
2026-01-26 05:23:09.64	39.87	3.00	-54.1	-66.0	3.8	8.46e-01	0	42	104	0	78	15370
2026-01-26 05:23:10.65	39.81	3.06	-54.1	-66.0	3.8	8.47e-01	0	43	104	0	78	15294
2026-01-26 05:23:11.65	39.76	3.12	-54.0	-65.9	3.8	8.45e-01	0	43	104	0	78	15153
2026-01-26 05:23:12.66	39.70	3.19	-53.9	-65.9	3.8	8.46e-01	0	42	104	0	78	15148
2026-01-26 05:23:13.67	39.65	3.25	-53.9	-65.8	3.8	8.45e-01	0	43	104	0	78	15043
2026-01-26 05:23:14.68	39.59	3.31	-53.9	-65.8	3.8	8.46e-01	0	42	104	0	78	14951
2026-01-26 05:23:15.69	39.54	3.37	-53.8	-65.7	3.8	8.46e-01	0	42	104	0	78	14848
2026-01-26 05:23:16.70	39.48	3.44	-53.7	-65.7	3.8	8.47e-01	0	42	104	0	78	14738
2026-01-26 05:23:17.71	39.43	3.50	-53.5	-65.6	3.8	8.47e-01	0	43	104	0	78	14570
2026-01-26 05:23:18.72	39.37	3.56	-53.5	-65.5	3.8	8.45e-01	0	43	104	0	78	14388
2026-01-26 05:23:19.73	39.31	3.62	-53.4	-65.3	3.8	8.47e-01	0	43	104	0	78	14202
2026-01-26 05:23:20.74	39.26	3.69	-53.3	-65.2	3.8	8.46e-01	0	43	104	0	78	13941
2026-01-26 05:23:21.75	39.20	3.75	-53.1	-65.0	3.8	8.46e-01	0	43	104	0	78	13684
2026-01-26 05:23:22.75	39.14	3.81	-52.8	-64.3	3.8	8.45e-01	0	43	104	0	77	13343
2026-01-26 05:23:23.76	39.08	3.88	-52.3	-64.0	3.8	8.47e-01	0	43	104	0	76	13680
2026-01-26 05:23:24.77	39.03	3.94	-51.7	-60.5	4.2	8.41e-01	0	43	104	0	75	9639
2026-01-26 05:23:25.77	38.97	4.00	-51.6	-60.3	4.2	8.38e-01	0	43	0	0	75	9442
2026-01-26 05:23:26.78	38.91	4.07	-51.6	-59.7	4.4	8.28e-01	0	43	0	0	75	8814
2026-01-26 05:23:27.79	38.85	4.13	-51.4	-59.1	4.6	8.13e-01	0	43	0	0	74	8747
2026-01-26 05:23:28.80	38.79	4.20	-51.5	-59.3	4.6	8.19e-01	0	43	0	0	74	8930
2026-01-26 05:23:29.81	38.73	4.26	-51.4	-59.1	4.6	8.02e-01	0	43	0	0	74	8675
2026-01-26 05:23:30.82	38.67	4.32	-51.2	-57.9	5.3	7.69e-01	0	43	0	0	74	7626
2026-01-26 05:23:31.83	38.61	4.39	-51.0	-57.2	5.7	7.03e-01	0	43	0	0	74	7010
2026-01-26 05:23:32.84	38.55	4.45	-50.3	-55.1	7.5	1.64e-01	0	43	0	6291456	72	6177
2026-01-26 05:23:33.85	38.49	4.52	-49.8	-53.6	9.1	7.43e-02	0	43	0	11534336	71	5517
2026-01-26 05:23:34.85	38.43	4.58	-49.3	-52.6	10.2	8.83e-03	0	43	0	16777216	70	5204
2026-01-26 05:23:35.86	38.37	4.65	-48.6	-51.5	11.3	3.04e-03	0	43	0	23068672	69	4827
2026-01-26 05:23:36.87	38.31	4.71	-48.1	-50.6	12.3	3.59e-04	0	43	0	28311552	68	4625
2026-01-26 05:23:37.87	38.25	4.78	-47.6	-49.9	13.0	1.09e-04	0	43	0	33554432	67	4498
2026-01-26 05:23:38.88	38.19	4.84	-47.7	-50.1	12.7	6.63e-05	0	43	0	39845888	67	4619
2026-01-26 05:23:39.89	38.13	4.91	-47.7	-50.0	12.9	1.41e-04	0	43	0	45088768	67	4561
2026-01-26 05:23:40.90	38.07	4.97	-47.8	-50.2	12.6	1.66e-04	0	43	0	51380224	67	4659
2026-01-26 05:23:41.91	38.00	5.04	-48.1	-50.7	12.1	2.62e-04	0	43	0	56623104	67	4950
2026-01-26 05:23:42.92	37.94	5.10	-45.0	-46.4	16.8	0.00e+00	0	43	0	62914560	60	4495
2026-01-26 05:23:43.93	37.88	5.17	-43.5	-44.6	18.8	0.00e+00	0	43	0	68157440	58	4136
2026-01-26 05:23:44.93	37.81	5.24	-51.8	-62.7	3.8	1.72e-01	0	43	104	72351744	74	13159
2026-01-26 05:23:45.94	37.75	5.30	-44.9	-46.2	16.4	3.00e-01	0	43	104	72351744	61	4168
2026-01-26 05:23:46.95	37.69	5.37	-46.7	-48.5	14.6	0.00e+00	0	43	0	77594624	63	4861
2026-01-26 05:23:47.96	37.62	5.43	-43.6	-44.7	18.8	0.00e+00	0	43	0	82837504	59	3923
2026-01-26 05:23:48.97	37.56	5.50	-43.2	-44.3	19.2	0.00e+00	0	43	0	88080384	58	3971
2026-01-26 05:23:49.98	37.49	5.57	-43.0	-44.1	19.4	0.00e+00	0	43	0	94371840	58	3871
2026-01-26 05:23:50.99	37.43	5.63	-43.4	-44.6	18.9	0.00e+00	0	43	0	99614720	57	4342
2026-01-26 05:23:52.00	37.36	5.70	-43.0	-44.1	19.4	0.00e+00	0	43	0	104857600	57	4111
2026-01-26 05:23:53.01	37.29	5.77	-43.4	-44.5	19.0	0.00e+00	0	43	0	111149056	57	4293
2026-01-26 05:23:54.01	37.23	5.83	-43.3	-44.3	19.2	0.00e+00	0	43	0	117440512	57	4240
2026-01-26 05:23:55.03	37.16	5.90	-43.2	-44.2	19.3	0.00e+00	0	43	0	122683392	57	4189
2026-01-26 05:23:56.03	37.09	5.97	-43.2	-44.3	19.2	0.00e+00	0	43	0	127926272	57	4194
2026-01-26 05:23:57.04	37.03	6.04	-43.3	-44.4	19.1	0.00e+00	0	43	0	134217728	57	4272
2026-01-26 05:23:58.05	36.96	6.10	-43.1	-44.2	19.4	0.00e+00	0	43	0	139460608	57	4158
2026-01-26 05:23:59.06	36.89	6.17	-43.4	-44.5	19.0	0.00e+00	0	43	0	144703488	57	4323
2026-01-26 05:24:00.07	36.82	6.24	-43.1	-44.1	19.4	0.00e+00	0	43	0	150994944	57	4125
2026-01-26 05:24:01.08	36.75	6.31	-43.2	-44.3	19.3	0.00e+00	0	43	0	156237824	57	4199
2026-01-26 05:24:02.09	36.69	6.38	-43.3	-44.4	19.2	0.00e+00	0	43	0	162529280	57	4273
2026-01-26 05:24:03.09	36.62	6.45	-43.0	-44.1	19.5	0.00e+00	0	43	0	167772160	57	4115
2026-01-26 05:24:04.10	36.55	6.51	-43.1	-44.2	19.5	0.00e+00	0	43	0	173015040	57	4152
2026-01-26 05:24:05.11	36.48	6.58	-43.1	-44.2	19.4	0.00e+00	0	43	0	179306496	57	4159
2026-01-26 05:24:06.12	36.41	6.65	-43.1	-44.2	19.4	0.00e+00	0	43	0	185597952	57	4158
2026-01-26 05:24:07.13	36.34	6.72	-42.8	-43.8	19.9	0.00e+00	0	43	0	190840832	57	3966
2026-01-26 05:24:08.14	36.26	6.79	-42.5	-43.5	20.2	0.00e+00	0	43	0	196083712	56	4056
2026-01-26 05:24:09.15	36.19	6.86	-42.4	-43.4	20.3	0.00e+00	0	43	0	202375168	56	4009
2026-01-26 05:24:10.16	36.12	6.93	-42.6	-43.5	20.1	0.00e+00	0	43	0	207618048	56	4094
2026-01-26 05:24:11.17	36.05	7.00	-42.5	-43.5	20.2	0.00e+00	0	43	0	212860928	56	4068
2026-01-26 05:24:12.18	35.98	7.07	-42.5	-43.5	20.2	0.00e+00	0	43	0	219152384	56	4066
2026-01-26 05:24:13.19	35.90	7.14	-42.7	-43.7	20.0	0.00e+00	0	43	0	224395264	56	4148
2026-01-26 05:24:14.20	35.83	7.21	-42.6	-43.6	20.0	0.00e+00	0	43	0	229638144	56	4127
2026-01-26 05:24:15.21	35.76	7.28	-43.0	-44.1	19.6	0.00e+00	0	43	0	235929600	56	4344
2026-01-26 05:24:16.21	35.68	7.35	-42.5	-43.5	20.2	0.00e+00	0	43	0	241172480	56	4059
2026-01-26 05:24:17.22	35.61	7.42	-42.4	-43.3	20.4	0.00e+00	0	43	0	247463936	56	3986
2026-01-26 05:24:18.23	35.53	7.49	-42.4	-43.3	20.4	0.00e+00	0	43	0	252706816	56	3989
2026-01-26 05:24:19.24	35.46	7.56	-42.6	-43.5	20.2	0.00e+00	0	43	0	258998272	56	4093
2026-01-26 05:24:20.25	35.38	7.63	-42.6	-43.6	20.2	0.00e+00	0	43	0	264241152	56	4104
2026-01-26 05:24:21.25	35.31	7.70	-42.5	-43.4	20.3	0.00e+00	0	43	0	270532608	56	4051
2026-01-26 05:24:22.26	35.23	7.77	-42.5	-43.5	20.3	0.00e+00	0	43	0	275775488	56	4064
2026-01-26 05:24:23.27	35.16	7.84	-42.2	-43.1	20.6	0.00e+00	0	43	0	281018368	56	3903
2026-01-26 05:24:24.28	35.08	7.91	-42.3	-43.3	20.5	0.00e+00	0	43	0	287309824	56	3966
2026-01-26 05:24:25.29	35.00	7.99	-42.2	-43.1	20.7	0.00e+00	0	43	0	292552704	56	3885
2026-01-26 05:24:26.29	34.92	8.06	-42.2	-43.1	20.6	0.00e+00	0	43	0	297795584	56	3903
2026-01-26 05:24:27.30	34.85	8.13	-41.9	-42.8	20.9	0.00e+00	0	43	0	304087040	55	3975
2026-01-26 05:24:28.31	34.77	8.20	-41.8	-42.7	21.0	0.00e+00	0	43	0	309329920	55	3927
2026-01-26 05:24:29.32	34.69	8.27	-42.0	-42.9	20.7	0.00e+00	0	43	0	315621376	55	4050
2026-01-26 05:24:30.33	34.61	8.35	-42.2	-43.1	20.5	0.00e+00	0	43	0	320864256	55	4145
2026-01-26 05:24:31.34	34.53	8.42	-42.0	-42.9	20.8	0.00e+00	0	43	0	327155712	55	4043
2026-01-26 05:24:32.35	34.45	8.49	-42.1	-43.0	20.7	0.00e+00	0	43	0	332398592	55	4064
2026-01-26 05:24:33.36	34.37	8.56	-42.0	-42.9	20.8	0.00e+00	0	43	0	337641472	55	4039
2026-01-26 05:24:34.37	34.29	8.64	-42.2	-43.1	20.6	0.00e+00	0	43	0	343932928	55	4119
2026-01-26 05:24:35.38	34.20	8.71	-42.2	-43.2	20.6	0.00e+00	0	43	0	349175808	55	4149
2026-01-26 05:24:36.39	34.12	8.78	-42.1	-43.1	20.7	0.00e+00	0	43	0	355467264	55	4106
2026-01-26 05:24:37.40	34.04	8.86	-42.0	-42.9	20.9	0.00e+00	0	43	0	360710144	55	4025
2026-01-26 05:24:38.41	33.96	8.93	-42.1	-43.0	20.7	0.00e+00	0	43	0	365953024	55	4096
2026-01-26 05:24:39.42	33.87	9.00	-42.1	-43.0	20.8	0.00e+00	0	43	0	372244480	55	4068
2026-01-26 05:24:40.42	33.79	9.08	-42.1	-43.0	20.7	0.00e+00	0	43	0	378535936	55	4079
2026-01-26 05:24:41.43	33.71	9.15	-42.0	-42.9	20.8	0.00e+00	0	43	0	383778816	55	4046
2026-01-26 05:24:42.44	33.62	9.23	-41.9	-42.8	20.9	0.00e+00	0	43	0	389021696	55	3990
2026-01-26 05:24:43.45	33.54	9.30	-41.8	-42.7	21.1	0.00e+00	0	43	0	395313152	55	3928
2026-01-26 05:24:44.46	33.45	9.38	-42.0	-42.9	20.9	0.00e+00	0	43	0	400556032	55	4027
2026-01-26 05:24:45.47	33.36	9.45	-41.8	-42.7	21.0	0.00e+00	0	43	0	405798912	55	3955
2026-01-26 05:24:46.48	33.28	9.52	-42.0	-42.9	20.9	0.00e+00	0	43	0	412090368	55	4023
2026-01-26 05:24:47.49	33.19	9.60	-41.9	-42.9	20.9	0.00e+00	0	43	0	417333248	55	4012
2026-01-26 05:24:48.49	33.10	9.67	-41.9	-42.8	21.0	0.00e+00	0	43	0	422576128	55	3991
2026-01-26 05:24:49.50	33.02	9.75	-41.8	-42.7	21.1	0.00e+00	0	43	0	428867584	55	3951
2026-01-26 05:24:50.51	32.93	9.83	-41.8	-42.8	21.0	0.00e+00	0	43	0	434110464	55	3966
2026-01-26 05:24:51.52	32.84	9.90	-41.9	-42.8	20.9	0.00e+00	0	43	0	440401920	55	4004
2026-01-26 05:24:52.53	32.75	9.98	-42.0	-42.9	20.9	0.00e+00	0	43	0	445644800	55	4022
2026-01-26 05:24:53.53	32.66	10.05	-41.8	-42.7	21.1	0.00e+00	0	43	0	451936256	55	3927
2026-01-26 05:24:54.54	32.57	10.13	-41.7	-42.6	21.2	0.00e+00	0	43	0	457179136	55	3894
2026-01-26 05:24:55.55	32.48	10.20	-41.6	-42.5	21.3	0.00e+00	0	44	0	463470592	55	3851
2026-01-26 05:24:56.56	32.39	10.28	-41.8	-42.7	21.2	0.00e+00	0	43	0	468713472	55	3919
2026-01-26 05:24:57.57	32.30	10.36	-41.7	-42.6	21.3	0.00e+00	0	43	0	473956352	55	3888
2026-01-26 05:24:58.57	32.20	10.43	-41.8	-42.7	21.2	0.00e+00	0	43	0	480247808	55	3923
2026-01-26 05:24:59.58	32.11	10.51	-41.8	-42.7	21.1	0.00e+00	0	43	0	485490688	55	3951
2026-01-26 05:25:00.59	32.02	10.59	-41.9	-42.8	21.1	0.00e+00	0	43	0	490733568	55	3986
2026-01-26 05:25:01.61	31.92	10.67	-41.6	-42.5	21.4	0.00e+00	0	43	0	497025024	55	3850
2026-01-26 05:25:02.61	31.83	10.74	-41.7	-42.5	21.3	0.00e+00	0	43	0	502267904	55	3868
2026-01-26 05:25:03.62	31.74	10.82	-41.6	-42.5	21.4	0.00e+00	0	43	0	508559360	55	3825
2026-01-26 05:25:04.63	31.64	10.90	-41.4	-42.2	21.6	0.00e+00	0	43	0	513802240	54	3945
2026-01-26 05:25:05.64	31.54	10.98	-41.5	-42.3	21.5	0.00e+00	0	43	0	520093696	54	3999
2026-01-26 05:25:06.65	31.45	11.06	-41.4	-42.2	21.6	0.00e+00	0	43	0	525336576	54	3952
2026-01-26 05:25:07.66	31.35	11.13	-41.7	-42.5	21.4	0.00e+00	0	43	0	530579456	54	4096
2026-01-26 05:25:08.67	31.25	11.21	-41.6	-42.5	21.4	0.00e+00	0	43	0	536870912	54	4088
2026-01-26 05:25:09.67	31.16	11.29	-41.7	-42.6	21.3	0.00e+00	0	43	0	542113792	54	4106
2026-01-26 05:25:10.68	31.06	11.37	-41.5	-42.3	21.6	0.00e+00	0	43	0	548405248	54	3990
2026-01-26 05:25:11.69	30.96	11.45	-41.5	-42.3	21.6	0.00e+00	0	43	0	553648128	54	3994
2026-01-26 05:25:12.70	30.86	11.53	-41.2	-42.1	21.8	0.00e+00	0	43	0	558891008	54	3885
2026-01-26 05:25:13.71	30.76	11.61	-41.3	-42.1	21.8	0.00e+00	0	43	0	565182464	54	3902
2026-01-26 05:25:14.72	30.66	11.69	-41.4	-42.3	21.6	0.00e+00	0	43	0	571473920	54	3971
2026-01-26 05:25:15.73	30.56	11.77	-41.3	-42.2	21.7	0.00e+00	0	43	0	576716800	54	3925
2026-01-26 05:25:16.74	30.45	11.85	-41.4	-42.3	21.7	0.00e+00	0	43	0	581959680	54	3964
2026-01-26 05:25:17.75	30.35	11.93	-41.3	-42.1	21.8	0.00e+00	0	43	0	588251136	54	3911
2026-01-26 05:25:18.76	30.25	12.01	-41.1	-41.9	22.0	0.00e+00	0	43	0	593494016	54	3816
2026-01-26 05:25:19.77	30.14	12.09	-41.0	-41.8	22.1	0.00e+00	0	43	0	598736896	54	3777
2026-01-26 05:25:20.77	30.04	12.17	-40.9	-41.8	22.1	0.00e+00	0	43	0	605028352	53	3970
2026-01-26 05:25:21.79	29.93	12.25	-41.1	-42.0	21.9	0.00e+00	0	43	0	610271232	53	4061
2026-01-26 05:25:22.80	29.83	12.33	-41.0	-41.9	22.0	0.00e+00	0	43	0	615514112	53	4023
2026-01-26 05:25:23.81	29.72	12.41	-41.0	-41.9	22.0	0.00e+00	0	43	0	621805568	53	4019
2026-01-26 05:25:24.82	29.62	12.49	-40.9	-41.7	22.2	0.00e+00	0	43	0	628097024	53	3947
2026-01-26 05:25:25.82	29.51	12.57	-41.0	-41.8	22.1	0.00e+00	0	43	0	633339904	53	3998
2026-01-26 05:25:26.83	29.40	12.65	-40.9	-41.7	22.2	0.00e+00	0	43	0	638582784	53	3956
2026-01-26 05:25:27.84	29.29	12.73	-40.9	-41.7	22.2	0.00e+00	0	44	0	644874240	53	3950
2026-01-26 05:25:28.85	29.18	12.82	-41.0	-41.8	22.1	0.00e+00	0	43	0	650117120	53	3986
2026-01-26 05:25:29.86	29.07	12.90	-40.9	-41.7	22.2	0.00e+00	0	43	0	656408576	53	3951
2026-01-26 05:25:30.87	28.96	12.98	-40.9	-41.8	22.1	0.00e+00	0	43	0	661651456	53	3967
2026-01-26 05:25:31.88	28.85	13.06	-41.1	-41.9	22.0	0.00e+00	0	43	0	666894336	53	4049
2026-01-26 05:25:32.89	28.74	13.15	-41.1	-41.9	22.0	0.00e+00	0	44	0	673185792	53	4035
2026-01-26 05:25:33.89	28.63	13.23	-41.0	-41.8	22.1	0.00e+00	0	43	0	678428672	53	3993
2026-01-26 05:25:34.91	28.52	13.31	-40.9	-41.7	22.3	0.00e+00	0	43	0	683671552	53	3931
2026-01-26 05:25:35.91	28.40	13.39	-40.9	-41.7	22.2	0.00e+00	0	43	0	689963008	53	3939
2026-01-26 05:25:36.93	28.29	13.48	-40.8	-41.6	22.4	0.00e+00	0	43	0	696254464	53	3886
2026-01-26 05:25:37.93	28.17	13.56	-40.8	-41.6	22.3	0.00e+00	0	43	0	701497344	53	3885
2026-01-26 05:25:38.94	28.06	13.64	-40.7	-41.5	22.5	0.00e+00	0	44	0	706740224	53	3833
2026-01-26 05:25:39.95	27.94	13.73	-40.6	-41.4	22.5	0.00e+00	0	43	0	713031680	53	3800
2026-01-26 05:25:40.96	27.82	13.81	-40.6	-41.4	22.5	0.00e+00	0	43	0	718274560	53	3822
2026-01-26 05:25:41.97	27.71	13.90	-40.6	-41.4	22.5	0.00e+00	0	43	0	723517440	53	3817
2026-01-26 05:25:42.98	27.59	13.98	-40.7	-41.5	22.5	0.00e+00	0	43	0	729808896	53	3835
2026-01-26 05:25:43.99	27.47	14.07	-40.7	-41.5	22.5	0.00e+00	0	44	0	735051776	53	3835
2026-01-26 05:25:45.00	27.35	14.15	-40.7	-41.5	22.5	0.00e+00	0	43	0	741343232	53	3835
2026-01-26 05:25:46.00	27.23	14.23	-40.6	-41.4	22.6	0.00e+00	0	43	0	746586112	53	3805
2026-01-26 05:25:47.01	27.11	14.32	-40.6	-41.4	22.5	0.00e+00	0	44	0	751828992	53	3819
2026-01-26 05:25:48.02	26.99	14.40	-40.6	-41.4	22.5	0.00e+00	0	43	0	758120448	53	3819
2026-01-26 05:25:49.03	26.86	14.49	-40.5	-41.3	22.7	0.00e+00	0	43	0	764411904	53	3757
2026-01-26 05:25:50.04	26.74	14.57	-40.6	-41.4	22.6	0.00e+00	0	44	0	769654784	52	4014
2026-01-26 05:25:51.05	26.62	14.66	-40.6	-41.4	22.6	0.00e+00	0	43	0	774897664	52	4020
2026-01-26 05:25:52.06	26.49	14.75	-40.5	-41.3	22.7	0.00e+00	0	43	0	781189120	52	3970
2026-01-26 05:25:53.07	26.37	14.83	-40.6	-41.4	22.6	0.00e+00	0	43	0	786432000	52	4012
2026-01-26 05:25:54.08	26.24	14.92	-40.3	-41.1	22.8	0.00e+00	0	43	0	791674880	52	3893
2026-01-26 05:25:55.09	26.11	15.00	-40.4	-41.2	22.8	0.00e+00	0	44	0	797966336	52	3915
2026-01-26 05:25:56.09	25.99	15.09	-40.2	-40.9	23.0	0.00e+00	0	43	0	803209216	52	3823
2026-01-26 05:25:57.10	25.86	15.18	-40.2	-41.0	23.0	0.00e+00	0	43	0	808452096	52	3849
2026-01-26 05:25:58.11	25.73	15.26	-40.2	-41.0	23.0	0.00e+00	0	43	0	814743552	52	3825
2026-01-26 05:25:59.12	25.60	15.35	-40.2	-41.0	23.0	0.00e+00	0	44	0	821035008	52	3827
2026-01-26 05:26:00.13	25.47	15.44	-40.2	-41.0	23.0	0.00e+00	0	43	0	826277888	52	3854
2026-01-26 05:26:01.14	25.34	15.52	-40.1	-40.9	23.1	0.00e+00	0	43	0	831520768	52	3803
2026-01-26 05:26:02.15	25.20	15.61	-40.1	-40.9	23.1	0.00e+00	0	44	0	837812224	52	3804
2026-01-26 05:26:03.16	25.07	15.70	-40.0	-40.8	23.2	0.00e+00	0	43	0	843055104	52	3763
2026-01-26 05:26:04.17	24.94	15.79	-40.0	-40.8	23.2	0.00e+00	0	43	0	849346560	52	3768
2026-01-26 05:26:05.18	24.80	15.87	-40.1	-40.9	23.1	0.00e+00	0	44	0	854589440	52	3808
2026-01-26 05:26:06.19	24.66	15.96	-40.1	-40.9	23.0	0.00e+00	0	43	0	859832320	52	3824
2026-01-26 05:26:07.20	24.53	16.05	-40.3	-41.1	22.9	0.00e+00	0	43	0	866123776	52	3896
2026-01-26 05:26:08.21	24.39	16.14	-40.1	-40.9	23.1	0.00e+00	0	44	0	871366656	52	3796
2026-01-26 05:26:09.22	24.25	16.23	-40.0	-40.8	23.2	0.00e+00	0	43	0	877658112	52	3772
2026-01-26 05:26:10.23	24.11	16.32	-40.0	-40.8	23.2	0.00e+00	0	44	0	882900992	52	3766
2026-01-26 05:26:11.24	23.97	16.40	-40.1	-40.9	23.1	0.00e+00	0	44	0	889192448	52	3796
2026-01-26 05:26:12.24	23.83	16.49	-40.0	-40.8	23.3	0.00e+00	0	44	0	894435328	51	3974
2026-01-26 05:26:13.25	23.69	16.58	-40.0	-40.8	23.3	0.00e+00	0	43	0	899678208	51	3972
2026-01-26 05:26:14.26	23.55	16.67	-40.2	-40.9	23.2	0.00e+00	0	44	0	905969664	51	4047
2026-01-26 05:26:15.27	23.41	16.76	-39.9	-40.7	23.4	0.00e+00	0	44	0	911212544	51	3940
2026-01-26 05:26:16.28	23.26	16.85	-40.0	-40.7	23.4	0.00e+00	0	44	0	916455424	51	3944
2026-01-26 05:26:17.29	23.12	16.94	-40.0	-40.7	23.4	0.00e+00	0	44	0	922746880	51	3947
2026-01-26 05:26:18.29	22.97	17.03	-39.8	-40.6	23.5	0.00e+00	0	44	0	927989760	51	3873
2026-01-26 05:26:19.31	22.82	17.12	-39.8	-40.6	23.5	0.00e+00	0	43	0	934281216	51	3876
2026-01-26 05:26:20.32	22.68	17.21	-39.8	-40.6	23.5	0.00e+00	0	43	0	939524096	51	3894
2026-01-26 05:26:21.33	22.53	17.30	-39.8	-40.6	23.5	0.00e+00	0	44	0	945815552	51	3885
2026-01-26 05:26:22.33	22.38	17.39	-39.8	-40.6	23.5	0.00e+00	0	44	0	951058432	51	3887
2026-01-26 05:26:23.34	22.23	17.48	-39.7	-40.4	23.6	0.00e+00	0	43	0	957349888	51	3818
2026-01-26 05:26:24.35	22.08	17.57	-39.6	-40.3	23.7	0.00e+00	0	43	0	962592768	51	3779
2026-01-26 05:26:25.36	21.93	17.66	-39.6	-40.4	23.7	0.00e+00	0	43	0	967835648	51	3804
2026-01-26 05:26:26.37	21.77	17.75	-39.7	-40.5	23.6	0.00e+00	0	44	0	974127104	51	3842
2026-01-26 05:26:27.38	21.62	17.84	-39.6	-40.4	23.7	0.00e+00	0	44	0	979369984	51	3783
2026-01-26 05:26:28.39	21.46	17.93	-39.6	-40.3	23.8	0.00e+00	0	44	0	984612864	51	3764
2026-01-26 05:26:29.40	21.31	18.02	-39.5	-40.3	23.8	0.00e+00	0	44	0	990904320	51	3743
2026-01-26 05:26:30.41	21.15	18.11	-39.6	-40.3	23.8	0.00e+00	0	44	0	996147200	50	3983
2026-01-26 05:26:31.41	20.99	18.20	-39.6	-40.3	23.8	0.00e+00	0	44	0	1001390080	50	3997
2026-01-26 05:26:32.42	20.83	18.30	-39.6	-40.4	23.7	0.00e+00	0	43	0	1007681536	50	4027
2026-01-26 05:26:33.43	20.67	18.39	-39.5	-40.3	23.8	0.00e+00	0	44	0	1013972992	50	3977
2026-01-26 05:26:34.44	20.51	18.48	-39.6	-40.3	23.8	0.00e+00	0	43	0	1019215872	50	4004
2026-01-26 05:26:35.45	20.35	18.57	-39.6	-40.3	23.8	0.00e+00	0	43	0	1024458752	50	3981
2026-01-26 05:26:36.45	20.19	18.66	-39.3	-40.1	24.0	0.00e+00	0	44	0	1030750208	50	3879
2026-01-26 05:26:37.46	20.03	18.75	-39.2	-39.9	24.2	0.00e+00	0	43	0	1035993088	50	3809
2026-01-26 05:26:38.47	19.86	18.85	-39.1	-39.8	24.2	0.00e+00	0	43	0	1042284544	50	3775
2026-01-26 05:26:39.49	19.69	18.94	-39.2	-39.9	24.2	0.00e+00	0	43	0	1047527424	50	3803
2026-01-26 05:26:40.49	19.53	19.03	-39.2	-39.9	24.2	0.00e+00	0	43	0	1052770304	50	3802
2026-01-26 05:26:41.50	19.36	19.12	-39.1	-39.9	24.2	0.00e+00	0	43	0	1059061760	50	3786
2026-01-26 05:26:42.51	19.19	19.21	-39.1	-39.9	24.2	0.00e+00	0	43	0	1064304640	50	3793
2026-01-26 05:26:43.52	19.02	19.31	-39.3	-40.0	24.1	0.00e+00	0	44	0	1070596096	50	3843
2026-01-26 05:26:44.53	18.85	19.40	-39.2	-39.9	24.2	0.00e+00	0	43	0	1075838976	50	3819
2026-01-26 05:26:45.54	18.68	19.49	-39.2	-39.9	24.2	0.00e+00	0	43	0	1082130432	50	3801
2026-01-26 05:26:46.55	18.50	19.58	-39.2	-39.9	24.2	0.00e+00	0	43	0	1087373312	50	3800
2026-01-26 05:26:47.56	18.33	19.68	-39.0	-39.8	24.3	0.00e+00	0	44	0	1092616192	50	3740
2026-01-26 05:26:48.57	18.15	19.77	-39.0	-39.8	24.3	0.00e+00	0	44	0	1098907648	50	3745
2026-01-26 05:26:49.58	17.98	19.86	-39.1	-39.8	24.2	0.00e+00	0	43	0	1104150528	50	3775
2026-01-26 05:26:50.59	17.80	19.96	-39.1	-39.8	24.3	0.00e+00	0	43	0	1109393408	50	3757
2026-01-26 05:26:51.60	17.62	20.05	-39.0	-39.8	24.3	0.00e+00	0	44	0	1115684864	50	3752
2026-01-26 05:26:52.61	17.44	20.14	-39.1	-39.8	24.3	0.00e+00	0	43	0	1120927744	50	3765
2026-01-26 05:26:53.62	17.26	20.24	-39.1	-39.8	24.3	0.00e+00	0	43	0	1127219200	50	3764
2026-01-26 05:26:54.62	17.08	20.33	-39.2	-39.9	24.2	0.00e+00	0	43	0	1132462080	50	3823
2026-01-26 05:26:55.63	16.90	20.42	-39.2	-40.0	24.1	0.00e+00	0	43	0	1138753536	50	3844
2026-01-26 05:26:56.64	16.71	20.51	-39.3	-40.1	24.1	0.00e+00	0	44	0	1143996416	50	3877
2026-01-26 05:26:57.65	16.53	20.61	-39.3	-40.0	24.2	0.00e+00	0	43	0	1150287872	50	3848
2026-01-26 05:26:58.65	16.34	20.70	-39.4	-40.1	24.0	0.00e+00	0	44	0	1155530752	50	3909
2026-01-26 05:26:59.66	16.15	20.79	-39.4	-40.1	24.0	0.00e+00	0	43	0	1160773632	50	3903
2026-01-26 05:27:00.67	15.97	20.89	-39.3	-40.1	24.1	0.00e+00	0	43	0	1167065088	50	3871
2026-01-26 05:27:01.67	15.78	20.98	-39.3	-40.0	24.1	0.00e+00	0	43	0	1172307968	50	3847
2026-01-26 05:27:02.68	15.59	21.07	-39.1	-39.8	24.3	0.00e+00	0	43	0	1177550848	50	3764
2026-01-26 05:27:03.69	15.39	21.16	-39.1	-39.8	24.3	0.00e+00	0	43	0	1183842304	50	3769
2026-01-26 05:27:04.69	15.20	21.26	-39.1	-39.8	24.3	0.00e+00	0	44	0	1189085184	50	3770
2026-01-26 05:27:05.70	15.01	21.35	-39.1	-39.8	24.4	0.00e+00	0	43	0	1194328064	50	3754
2026-01-26 05:27:06.71	14.81	21.44	-39.0	-39.7	24.4	0.00e+00	0	44	0	1200619520	50	3731
2026-01-26 05:27:07.71	14.62	21.54	-39.0	-39.7	24.4	0.00e+00	0	44	0	1205862400	49	3937
2026-01-26 05:27:08.73	14.42	21.63	-39.0	-39.8	24.4	0.00e+00	0	44	0	1212153856	49	3959
2026-01-26 05:27:09.73	14.22	21.72	-39.0	-39.8	24.4	0.00e+00	0	44	0	1217396736	49	3973
2026-01-26 05:27:10.74	14.02	21.81	-39.1	-39.9	24.3	0.00e+00	0	43	0	1223688192	49	4016
2026-01-26 05:27:11.74	13.82	21.91	-39.1	-39.9	24.3	0.00e+00	0	43	0	1228931072	49	4008
2026-01-26 05:27:12.75	13.61	22.00	-39.0	-39.8	24.4	0.00e+00	0	43	0	1235222528	49	3963
2026-01-26 05:27:13.76	13.41	22.09	-38.8	-39.5	24.6	0.00e+00	0	43	0	1240465408	49	3862
2026-01-26 05:27:14.77	13.20	22.19	-38.7	-39.4	24.7	0.00e+00	0	43	0	1245708288	49	3798
2026-01-26 05:27:15.79	12.99	22.28	-38.8	-39.6	24.6	0.00e+00	0	44	0	1251999744	49	3877
2026-01-26 05:27:16.79	12.79	22.37	-38.8	-39.5	24.6	0.00e+00	0	43	0	1257242624	49	3844
2026-01-26 05:27:17.80	12.58	22.46	-38.8	-39.5	24.6	0.00e+00	0	44	0	1262485504	49	3863
2026-01-26 05:27:18.80	12.37	22.56	-38.8	-39.5	24.6	0.00e+00	0	43	0	1268776960	49	3845
2026-01-26 05:27:19.81	12.16	22.65	-38.8	-39.6	24.6	0.00e+00	0	43	0	1274019840	49	3871
2026-01-26 05:27:20.82	11.94	22.74	-38.8	-39.6	24.6	0.00e+00	0	43	0	1280311296	49	3876
2026-01-26 05:27:21.82	11.73	22.83	-38.5	-39.3	24.8	0.00e+00	0	44	0	1285554176	49	3739
2026-01-26 05:27:22.83	11.52	22.93	-38.5	-39.2	24.9	0.00e+00	0	43	0	1291845632	48	3916
2026-01-26 05:27:23.84	11.30	23.02	-38.3	-39.0	25.1	0.00e+00	0	43	0	1297088512	48	3853
2026-01-26 05:27:24.85	11.08	23.11	-38.2	-38.9	25.2	0.00e+00	0	43	0	1302331392	48	3810
2026-01-26 05:27:25.86	10.86	23.20	-38.3	-39.0	25.1	0.00e+00	0	43	0	1308622848	48	3857
2026-01-26 05:27:26.87	10.64	23.29	-38.5	-39.2	24.9	0.00e+00	0	44	0	1313865728	48	3936
2026-01-26 05:27:27.88	10.42	23.38	-38.6	-39.3	24.8	0.00e+00	0	43	0	1320157184	48	3971
2026-01-26 05:27:28.89	10.19	23.48	-38.6	-39.3	24.8	0.00e+00	0	44	0	1325400064	48	3998
2026-01-26 05:27:29.90	9.97	23.57	-38.6	-39.3	24.8	0.00e+00	0	43	0	1330642944	48	3989
2026-01-26 05:27:30.91	9.74	23.66	-38.6	-39.3	24.8	0.00e+00	0	43	0	1336934400	48	3974
2026-01-26 05:27:31.91	9.52	23.75	-38.4	-39.2	25.0	0.00e+00	0	44	0	1342177280	48	3917
2026-01-26 05:27:32.93	9.28	23.84	-38.5	-39.2	24.9	0.00e+00	0	44	0	1348468736	48	3954
2026-01-26 05:27:33.93	9.06	23.93	-38.3	-39.0	25.1	0.00e+00	0	44	0	1353711616	48	3849
2026-01-26 05:27:34.94	8.82	24.02	-38.1	-38.8	25.3	0.00e+00	0	43	0	1360003072	48	3749
2026-01-26 05:27:35.95	8.59	24.11	-38.2	-38.9	25.2	0.00e+00	0	44	0	1365245952	48	3782
2026-01-26 05:27:36.95	8.36	24.20	-38.1	-38.8	25.3	0.00e+00	0	43	0	1370488832	48	3761
2026-01-26 05:27:37.96	8.12	24.29	-38.2	-38.8	25.2	0.00e+00	0	44	0	1376780288	48	3780
2026-01-26 05:27:38.97	7.89	24.38	-38.2	-38.9	25.2	0.00e+00	0	43	0	1382023168	48	3800
2026-01-26 05:27:39.98	7.65	24.47	-38.2	-38.9	25.2	0.00e+00	0	43	0	1387266048	48	3806
2026-01-26 05:27:40.99	7.41	24.56	-38.1	-38.8	25.3	0.00e+00	0	43	0	1393557504	48	3751
2026-01-26 05:27:42.00	7.17	24.65	-38.1	-38.8	25.3	0.00e+00	0	43	0	1398800384	48	3758
2026-01-26 05:27:43.01	6.92	24.74	-38.1	-38.8	25.2	0.00e+00	0	44	0	1405091840	48	3775
2026-01-26 05:27:44.01	6.68	24.82	-38.0	-38.7	25.4	0.00e+00	0	43	0	1410334720	48	3716
2026-01-26 05:27:45.02	6.44	24.91	-37.7	-38.4	25.4	0.00e+00	0	44	0	1416626176	47	3791
2026-01-26 05:27:46.03	6.19	25.00	-37.5	-38.2	25.4	0.00e+00	0	43	0	1421869056	47	3714
2026-01-26 05:27:47.03	5.94	25.09	-37.5	-38.2	25.3	0.00e+00	0	44	0	1428160512	46	3941
2026-01-26 05:27:48.04	5.69	25.17	-37.6	-38.3	25.3	0.00e+00	0	44	0	1433403392	46	3974
2026-01-26 05:27:49.05	5.44	25.26	-37.7	-38.4	25.1	0.00e+00	0	44	0	1438646272	46	4043
2026-01-26 05:27:50.05	5.19	25.34	-37.8	-38.6	25.0	0.00e+00	0	43	0	1444937728	46	4106
2026-01-26 05:27:51.06	4.94	25.43	-38.0	-38.7	24.9	0.00e+00	0	43	0	1450180608	46	4177
2026-01-26 05:27:52.07	4.68	25.52	-38.1	-38.8	24.8	0.00e+00	0	44	0	1455423488	46	4221
2026-01-26 05:27:53.08	4.43	25.60	-38.1	-38.9	24.7	0.00e+00	0	44	0	1461714944	46	4243
2026-01-26 05:27:54.09	4.17	25.69	-37.8	-38.6	25.0	0.00e+00	0	44	0	1466957824	46	4105
2026-01-26 05:27:55.10	3.91	25.77	-37.8	-38.6	25.1	0.00e+00	0	43	0	1472200704	46	4104
2026-01-26 05:27:56.11	3.65	25.86	-37.8	-38.5	25.1	0.00e+00	0	43	0	1478492160	46	4063
2026-01-26 05:27:57.12	3.39	25.94	-37.8	-38.6	25.0	0.00e+00	0	44	0	1484783616	46	4101
2026-01-26 05:27:58.13	3.12	26.02	-37.7	-38.4	25.1	0.00e+00	0	43	0	1490026496	46	4039
2026-01-26 05:27:59.14	2.86	26.11	-37.6	-38.3	25.2	0.00e+00	0	43	0	1495269376	46	3993
2026-01-26 05:28:00.15	2.59	26.19	-37.8	-38.6	25.0	0.00e+00	0	43	0	1501560832	46	4106
2026-01-26 05:28:01.16	2.32	26.27	-37.9	-38.6	25.0	0.00e+00	0	43	0	1506803712	46	4145
2026-01-26 05:28:02.17	2.05	26.35	-38.0	-38.7	24.9	0.00e+00	0	43	0	1513095168	46	4174
2026-01-26 05:28:03.18	1.78	26.44	-38.0	-38.7	24.9	0.00e+00	0	43	0	1518338048	46	4177
2026-01-26 05:28:04.18	1.51	26.52	-37.8	-38.5	25.1	0.00e+00	0	44	0	1523580928	46	4090
2026-01-26 05:28:05.19	1.24	26.60	-37.7	-38.4	25.2	0.00e+00	0	43	0	1529872384	46	4046
2026-01-26 05:28:06.20	0.96	26.68	-37.6	-38.3	25.2	0.00e+00	0	43	0	1535115264	46	3992
2026-01-26 05:28:07.21	0.69	26.76	-37.6	-38.3	25.3	0.00e+00	0	44	0	1540358144	46	3993
2026-01-26 05:28:08.21	0.41	26.83	-37.5	-38.2	25.4	0.00e+00	0	44	0	1546649600	46	3935
2026-01-26 05:28:09.22	0.13	26.91	-37.3	-38.0	25.5	0.00e+00	0	44	0	1552941056	46	3861
2026-01-26 05:28:10.23	359.85	26.99	-37.3	-38.0	25.5	0.00e+00	0	43	0	1558183936	46	3857
2026-01-26 05:28:11.24	359.57	27.07	-37.2	-37.9	25.6	0.00e+00	0	44	0	1563426816	46	3813
2026-01-26 05:28:12.25	359.29	27.14	-37.3	-38.0	25.6	0.00e+00	0	43	0	1569718272	46	3827
2026-01-26 05:28:13.26	359.00	27.22	-37.4	-38.1	25.5	0.00e+00	0	44	0	1574961152	46	3886
2026-01-26 05:28:14.26	358.72	27.30	-37.5	-38.2	25.4	0.00e+00	0	43	0	1580204032	46	3934
2026-01-26 05:28:15.27	358.43	27.37	-37.4	-38.1	25.4	0.00e+00	0	44	0	1586495488	46	3910
2026-01-26 05:28:16.28	358.14	27.45	-37.6	-38.3	25.3	0.00e+00	0	43	0	1591738368	46	4004
2026-01-26 05:28:17.29	357.85	27.52	-37.7	-38.4	25.2	0.00e+00	0	43	0	1598029824	46	4026
2026-01-26 05:28:18.29	357.57	27.59	-37.8	-38.6	25.1	0.00e+00	0	44	0	1603272704	46	4102
2026-01-26 05:28:19.30	357.27	27.66	-37.8	-38.5	25.1	0.00e+00	0	44	0	1608515584	46	4090
2026-01-26 05:28:20.31	356.98	27.74	-37.7	-38.4	25.2	0.00e+00	0	43	0	1614807040	46	4051
2026-01-26 05:28:21.31	356.69	27.81	-37.7	-38.4	25.2	0.00e+00	0	43	0	1620049920	46	4022
2026-01-26 05:28:22.32	356.39	27.88	-37.6	-38.4	25.3	0.00e+00	0	44	0	1626341376	46	4007
2026-01-26 05:28:23.33	356.09	27.95	-37.5	-38.2	25.4	0.00e+00	0	44	0	1631584256	46	3925
2026-01-26 05:28:24.33	355.80	28.02	-37.4	-38.1	25.5	0.00e+00	0	43	0	1637875712	46	3896
2026-01-26 05:28:25.34	355.50	28.09	-37.5	-38.2	25.4	0.00e+00	0	43	0	1643118592	46	3957
2026-01-26 05:28:26.35	355.19	28.15	-37.5	-38.2	25.4	0.00e+00	0	43	0	1648361472	46	3947
2026-01-26 05:28:27.36	354.89	28.22	-37.4	-38.1	25.5	0.00e+00	0	44	0	1654652928	46	3895
2026-01-26 05:28:28.37	354.59	28.29	-37.3	-38.0	25.5	0.00e+00	0	43	0	1659895808	46	3864
2026-01-26 05:28:29.37	354.28	28.35	-37.4	-38.2	25.5	0.00e+00	0	43	0	1665138688	46	3914
2026-01-26 05:28:30.38	353.98	28.42	-37.5	-38.2	25.4	0.00e+00	0	43	0	1671430144	46	3936
2026-01-26 05:28:31.39	353.67	28.48	-37.6	-38.3	25.3	0.00e+00	0	43	0	1676673024	46	3995
2026-01-26 05:28:32.40	353.36	28.54	-37.5	-38.2	25.4	0.00e+00	0	43	0	1682964480	46	3934
2026-01-26 05:28:33.41	353.05	28.61	-37.3	-38.0	25.6	0.00e+00	0	44	0	1688207360	46	3848
2026-01-26 05:28:34.42	352.73	28.67	-37.1	-37.8	25.8	0.00e+00	0	44	0	1694498816	46	3740
2026-01-26 05:28:35.43	352.42	28.73	-36.9	-37.6	25.9	0.00e+00	0	43	0	1699741696	45	3894
2026-01-26 05:28:36.44	352.11	28.79	-37.0	-37.7	25.9	0.00e+00	0	44	0	1706033152	45	3917
2026-01-26 05:28:37.45	351.79	28.85	-37.1	-37.8	25.8	0.00e+00	0	43	0	1711276032	45	3992
2026-01-26 05:28:38.46	351.47	28.91	-37.2	-37.9	25.7	0.00e+00	0	43	0	1716518912	45	4021
2026-01-26 05:28:39.47	351.16	28.96	-37.3	-38.0	25.6	0.00e+00	0	43	0	1722810368	45	4077
2026-01-26 05:28:40.48	350.84	29.02	-37.4	-38.1	25.5	0.00e+00	0	44	0	1728053248	45	4119
2026-01-26 05:28:41.49	350.52	29.08	-37.4	-38.1	25.5	0.00e+00	0	44	0	1733296128	45	4110
2026-01-26 05:28:42.49	350.20	29.13	-37.2	-37.9	25.6	0.00e+00	0	44	0	1739587584	45	4047
2026-01-26 05:28:43.50	349.88	29.19	-37.1	-37.8	25.7	0.00e+00	0	43	0	1744830464	45	3993
2026-01-26 05:28:44.51	349.55	29.24	-37.0	-37.7	25.8	0.00e+00	0	43	0	1750073344	45	3946
2026-01-26 05:28:45.52	349.23	29.29	-37.2	-37.9	25.7	0.00e+00	0	43	0	1756364800	45	4025
2026-01-26 05:28:46.53	348.90	29.34	-37.2	-37.9	25.7	0.00e+00	0	44	0	1762656256	45	4023
2026-01-26 05:28:47.54	348.58	29.39	-37.2	-37.9	25.7	0.00e+00	0	44	0	1767899136	45	4040
2026-01-26 05:28:48.54	348.25	29.44	-37.2	-37.9	25.7	0.00e+00	0	43	0	1773142016	45	4048
2026-01-26 05:28:49.55	347.92	29.49	-37.3	-38.0	25.6	0.00e+00	0	43	0	1779433472	45	4059
2026-01-26 05:28:50.56	347.59	29.54	-37.3	-38.0	25.6	0.00e+00	0	43	0	1784676352	45	4085
2026-01-26 05:28:51.57	347.26	29.58	-37.3	-38.0	25.6	0.00e+00	0	43	0	1790967808	45	4092
2026-01-26 05:28:52.57	346.94	29.63	-37.2	-37.9	25.7	0.00e+00	0	43	0	1796210688	45	4024
2026-01-26 05:28:53.58	346.60	29.67	-37.3	-38.0	25.6	0.00e+00	0	44	0	1801453568	45	4054
2026-01-26 05:28:54.59	346.27	29.72	-37.3	-38.0	25.6	0.00e+00	0	43	0	1807745024	45	4096
2026-01-26 05:28:55.59	345.94	29.76	-37.3	-38.0	25.6	0.00e+00	0	44	0	1812987904	45	4077
2026-01-26 05:28:56.60	345.60	29.80	-37.2	-37.9	25.7	0.00e+00	0	44	0	1818230784	45	4041
2026-01-26 05:28:57.60	345.27	29.84	-37.1	-37.8	25.8	0.00e+00	0	43	0	1824522240	45	3997
2026-01-26 05:28:58.61	344.93	29.88	-36.9	-37.6	26.0	0.00e+00	0	44	0	1829765120	45	3881
2026-01-26 05:28:59.62	344.60	29.92	-37.0	-37.6	25.9	0.00e+00	0	44	0	1836056576	45	3912
2026-01-26 05:29:00.63	344.26	29.95	-37.0	-37.7	25.9	0.00e+00	0	43	0	1841299456	45	3917
2026-01-26 05:29:01.64	343.92	29.99	-37.1	-37.8	25.8	0.00e+00	0	44	0	1847590912	45	4003
2026-01-26 05:29:02.64	343.58	30.02	-37.1	-37.8	25.8	0.00e+00	0	44	0	1852833792	45	3978
2026-01-26 05:29:03.65	343.24	30.06	-37.0	-37.7	25.9	0.00e+00	0	43	0	1858076672	45	3945
2026-01-26 05:29:04.66	342.90	30.09	-36.9	-37.6	25.9	0.00e+00	0	44	0	1864368128	45	3895
2026-01-26 05:29:05.67	342.56	30.12	-37.1	-37.8	25.8	0.00e+00	0	43	0	1869611008	45	3961
2026-01-26 05:29:06.68	342.21	30.15	-37.3	-38.0	25.7	0.00e+00	0	43	0	1875902464	45	4062
2026-01-26 05:29:07.69	341.87	30.18	-37.3	-38.0	25.6	0.00e+00	0	43	0	1881145344	45	4077
2026-01-26 05:29:08.69	341.53	30.21	-37.3	-38.0	25.6	0.00e+00	0	43	0	1886388224	45	4087
2026-01-26 05:29:09.70	341.19	30.24	-37.3	-38.0	25.7	0.00e+00	0	43	0	1892679680	45	4052
2026-01-26 05:29:10.71	340.84	30.26	-37.1	-37.8	25.9	0.00e+00	0	44	0	1897922560	45	3961
2026-01-26 05:29:11.72	340.49	30.29	-37.0	-37.7	25.9	0.00e+00	0	43	0	1904214016	45	3925
2026-01-26 05:29:12.72	340.15	30.31	-37.0	-37.7	25.9	0.00e+00	0	44	0	1909456896	45	3944
2026-01-26 05:29:13.73	339.81	30.33	-37.0	-37.7	25.9	0.00e+00	0	43	0	1915748352	45	3919
2026-01-26 05:29:14.74	339.46	30.36	-37.2	-37.9	25.8	0.00e+00	0	44	0	1920991232	45	4018
2026-01-26 05:29:15.75	339.11	30.38	-37.1	-37.8	25.8	0.00e+00	0	44	0	1926234112	45	3996
2026-01-26 05:29:16.76	338.76	30.39	-37.1	-37.8	25.8	0.00e+00	0	44	0	1932525568	45	3994
2026-01-26 05:29:17.76	338.42	30.41	-37.0	-37.7	25.9	0.00e+00	0	43	0	1937768448	45	3933
2026-01-26 05:29:18.77	338.07	30.43	-37.0	-37.7	25.9	0.00e+00	0	43	0	1943011328	45	3938
2026-01-26 05:29:19.78	337.72	30.44	-36.9	-37.6	26.0	0.00e+00	0	44	0	1949302784	45	3903
2026-01-26 05:29:20.79	337.37	30.46	-36.9	-37.6	26.0	0.00e+00	0	44	0	1954545664	45	3905
2026-01-26 05:29:21.80	337.02	30.47	-37.1	-37.8	25.9	0.00e+00	0	43	0	1960837120	45	3967
2026-01-26 05:29:22.81	336.67	30.48	-37.1	-37.8	25.9	0.00e+00	0	43	0	1966080000	45	3970
2026-01-26 05:29:23.82	336.32	30.49	-37.2	-37.9	25.8	0.00e+00	0	43	0	1972371456	45	4036
2026-01-26 05:29:24.82	335.97	30.50	-37.3	-38.0	25.7	0.00e+00	0	44	0	1977614336	45	4058
2026-01-26 05:29:25.83	335.62	30.51	-36.9	-37.6	26.0	0.00e+00	0	43	0	1983905792	45	3888
2026-01-26 05:29:26.84	335.27	30.52	-36.8	-37.5	26.2	0.00e+00	0	44	0	1989148672	45	3831
2026-01-26 05:29:27.85	334.92	30.52	-36.8	-37.5	26.1	0.00e+00	0	43	0	1994391552	45	3837
2026-01-26 05:29:28.86	334.57	30.53	-37.0	-37.7	26.0	0.00e+00	0	43	0	2000683008	45	3922
2026-01-26 05:29:29.87	334.22	30.53	-37.1	-37.8	25.9	0.00e+00	0	43	0	2005925888	45	3973
2026-01-26 05:29:30.88	333.86	30.53	-37.1	-37.8	25.9	0.00e+00	0	43	0	2011168768	45	3965
2026-01-26 05:29:31.89	333.51	30.54	-37.1	-37.8	25.9	0.00e+00	0	43	0	2017460224	45	3968
2026-01-26 05:29:32.89	333.16	30.54	-37.1	-37.8	25.9	0.00e+00	0	43	0	2022703104	45	3981
2026-01-26 05:29:33.90	332.81	30.53	-37.2	-37.9	25.8	0.00e+00	0	43	0	2027945984	45	4027
2026-01-26 05:29:34.90	332.47	30.53	-37.2	-37.9	25.8	0.00e+00	0	43	0	2034237440	45	4036
2026-01-26 05:29:35.91	332.11	30.53	-37.1	-37.8	25.9	0.00e+00	0	43	0	2039480320	45	3985
2026-01-26 05:29:36.92	331.76	30.52	-37.2	-37.9	25.8	0.00e+00	0	43	0	2045771776	45	4023
2026-01-26 05:29:37.93	331.41	30.52	-37.2	-37.9	25.8	0.00e+00	0	44	0	2051014656	45	4025
2026-01-26 05:29:38.93	331.06	30.51	-37.2	-37.9	25.8	0.00e+00	0	43	0	2057306112	45	4029
2026-01-26 05:29:39.94	330.71	30.50	-37.0	-37.7	26.0	0.00e+00	0	44	0	2062548992	45	3933
2026-01-26 05:29:40.95	330.36	30.49	-37.0	-37.7	25.9	0.00e+00	0	43	0	2068840448	45	3939
2026-01-26 05:29:41.96	330.01	30.48	-37.0	-37.7	25.9	0.00e+00	0	43	0	2074083328	45	3949
2026-01-26 05:29:42.97	329.66	30.47	-36.9	-37.6	26.0	0.00e+00	0	43	0	2079326208	45	3891
2026-01-26 05:29:43.98	329.31	30.45	-37.0	-37.7	26.0	0.00e+00	0	43	0	2085617664	45	3935
2026-01-26 05:29:44.99	328.96	30.44	-37.0	-37.7	26.0	0.00e+00	0	43	0	2090860544	45	3925
2026-01-26 05:29:46.00	328.61	30.42	-37.0	-37.7	25.9	0.00e+00	0	43	0	2096103424	45	3942
2026-01-26 05:29:47.01	328.26	30.41	-37.2	-37.9	25.8	0.00e+00	0	43	0	2102394880	45	4010
2026-01-26 05:29:48.02	327.92	30.39	-37.2	-37.9	25.8	0.00e+00	0	43	0	2108686336	45	4031
2026-01-26 05:29:49.03	327.57	30.37	-37.1	-37.8	25.8	0.00e+00	0	43	0	2113929216	45	3978
2026-01-26 05:29:50.03	327.22	30.35	-36.9	-37.6	26.0	0.00e+00	0	44	0	2119172096	45	3895
2026-01-26 05:29:51.04	326.88	30.33	-36.9	-37.6	26.0	0.00e+00	0	43	0	2125463552	45	3891
2026-01-26 05:29:52.05	326.53	30.30	-37.1	-37.7	25.9	0.00e+00	0	44	0	2130706432	45	3956
2026-01-26 05:29:53.06	326.18	30.28	-37.1	-37.8	25.9	0.00e+00	0	44	0	2135949312	45	3967
2026-01-26 05:29:54.07	325.84	30.25	-37.0	-37.7	25.9	0.00e+00	0	44	0	2142240768	45	3957
2026-01-26 05:29:55.08	325.49	30.23	-37.0	-37.7	25.9	0.00e+00	0	44	0	2147483648	45	3947
2026-01-26 05:29:56.09	325.15	30.20	-37.0	-37.6	26.0	0.00e+00	0	44	0	2153775104	45	3913
2026-01-26 05:29:57.09	324.81	30.17	-36.9	-37.6	26.1	0.00e+00	0	43	0	2159017984	45	3891
2026-01-26 05:29:58.10	324.46	30.14	-36.9	-37.6	26.1	0.00e+00	0	43	0	2164260864	45	3892
2026-01-26 05:29:59.11	324.12	30.11	-37.0	-37.7	25.9	0.00e+00	0	43	0	2170552320	45	3940
2026-01-26 05:30:00.12	323.78	30.08	-36.9	-37.6	26.0	0.00e+00	0	44	0	2176843776	45	3888
2026-01-26 05:30:01.13	323.44	30.05	-37.0	-37.7	26.0	0.00e+00	0	43	0	2182086656	45	3926
2026-01-26 05:30:02.13	323.10	30.01	-37.1	-37.8	25.9	0.00e+00	0	44	0	2187329536	45	3981
2026-01-26 05:30:03.14	322.76	29.98	-37.1	-37.8	25.9	0.00e+00	0	44	0	2193620992	45	3994
2026-01-26 05:30:04.15	322.42	29.94	-37.0	-37.7	25.9	0.00e+00	0	44	0	2198863872	45	3949
2026-01-26 05:30:05.16	322.08	29.90	-37.1	-37.8	25.9	0.00e+00	0	43	0	2204106752	45	3963
2026-01-26 05:30:06.17	321.75	29.86	-37.1	-37.8	25.8	0.00e+00	0	44	0	2210398208	45	4000
2026-01-26 05:30:07.17	321.41	29.82	-37.2	-37.9	25.8	0.00e+00	0	44	0	2215641088	45	4011
2026-01-26 05:30:08.18	321.08	29.78	-37.0	-37.7	25.9	0.00e+00	0	43	0	2220883968	45	3928
2026-01-26 05:30:09.19	320.74	29.74	-36.8	-37.5	26.1	0.00e+00	0	43	0	2227175424	45	3839
2026-01-26 05:30:10.20	320.41	29.70	-36.8	-37.4	26.1	0.00e+00	0	43	0	2232418304	45	3821
2026-01-26 05:30:11.21	320.07	29.66	-36.9	-37.6	26.1	0.00e+00	0	44	0	2238709760	45	3872
2026-01-26 05:30:12.21	319.74	29.61	-37.0	-37.7	25.9	0.00e+00	0	43	0	2243952640	45	3946
2026-01-26 05:30:13.22	319.41	29.57	-37.1	-37.8	25.9	0.00e+00	0	43	0	2250244096	45	3982
2026-01-26 05:30:14.23	319.08	29.52	-37.2	-37.9	25.8	0.00e+00	0	43	0	2255486976	45	4034
2026-01-26 05:30:15.24	318.75	29.47	-37.3	-38.0	25.7	0.00e+00	0	43	0	2261778432	45	4082
2026-01-26 05:30:16.25	318.42	29.42	-37.3	-38.0	25.7	0.00e+00	0	43	0	2267021312	45	4092
2026-01-26 05:30:17.26	318.10	29.37	-37.4	-38.1	25.6	0.00e+00	0	44	0	2272264192	45	4112
2026-01-26 05:30:18.27	317.77	29.32	-37.5	-38.2	25.5	0.00e+00	0	43	0	2278555648	45	4169
2026-01-26 05:30:19.28	317.44	29.27	-37.5	-38.3	25.5	0.00e+00	0	44	0	2283798528	45	4198
2026-01-26 05:30:20.28	317.12	29.22	-37.6	-38.3	25.4	0.00e+00	0	44	0	2289041408	45	4236
2026-01-26 05:30:21.29	316.80	29.16	-37.6	-38.3	25.4	0.00e+00	0	43	0	2295332864	45	4231
2026-01-26 05:30:22.30	316.48	29.11	-37.6	-38.3	25.4	0.00e+00	0	44	0	2300575744	45	4221
2026-01-26 05:30:23.31	316.16	29.06	-37.6	-38.3	25.4	0.00e+00	0	43	0	2305818624	45	4241
2026-01-26 05:30:24.32	315.84	29.00	-37.4	-38.1	25.6	0.00e+00	0	44	0	2312110080	45	4126
2026-01-26 05:30:25.33	315.52	28.94	-37.3	-38.0	25.7	0.00e+00	0	43	0	2318401536	45	4095
2026-01-26 05:30:26.34	315.20	28.88	-37.2	-37.9	25.8	0.00e+00	0	43	0	2323644416	45	4012
2026-01-26 05:30:27.34	314.89	28.83	-37.1	-37.8	25.9	0.00e+00	0	44	0	2328887296	45	3981
2026-01-26 05:30:28.35	314.57	28.77	-37.1	-37.8	25.8	0.00e+00	0	43	0	2335178752	45	3993
2026-01-26 05:30:29.36	314.26	28.71	-37.1	-37.8	25.8	0.00e+00	0	43	0	2340421632	45	3999
2026-01-26 05:30:30.37	313.94	28.64	-37.3	-38.0	25.7	0.00e+00	0	43	0	2346713088	45	4077
2026-01-26 05:30:31.37	313.63	28.58	-37.3	-38.0	25.7	0.00e+00	0	44	0	2351955968	45	4090
2026-01-26 05:30:32.38	313.32	28.52	-37.3	-38.0	25.7	0.00e+00	0	43	0	2357198848	45	4076
2026-01-26 05:30:33.39	313.01	28.46	-37.4	-38.1	25.6	0.00e+00	0	43	0	2363490304	45	4100
2026-01-26 05:30:34.40	312.71	28.39	-37.3	-38.0	25.7	0.00e+00	0	43	0	2368733184	45	4083
2026-01-26 05:30:35.41	312.40	28.33	-37.4	-38.0	25.6	0.00e+00	0	44	0	2373976064	45	4097
2026-01-26 05:30:36.42	312.09	28.26	-37.3	-37.9	25.7	0.00e+00	0	44	0	2380267520	45	4049
2026-01-26 05:30:37.42	311.79	28.19	-37.4	-38.1	25.6	0.00e+00	0	44	0	2386558976	45	4122
2026-01-26 05:30:38.43	311.49	28.13	-37.5	-38.2	25.5	0.00e+00	0	44	0	2391801856	45	4154
2026-01-26 05:30:39.44	311.19	28.06	-37.5	-38.2	25.5	0.00e+00	0	43	0	2397044736	45	4149
2026-01-26 05:30:40.44	310.89	27.99	-37.3	-38.0	25.7	0.00e+00	0	44	0	2403336192	45	4056
2026-01-26 05:30:41.45	310.59	27.92	-37.3	-38.0	25.7	0.00e+00	0	43	0	2408579072	45	4057
2026-01-26 05:30:42.46	310.29	27.85	-37.2	-37.9	25.8	0.00e+00	0	43	0	2413821952	45	4027
2026-01-26 05:30:43.47	310.00	27.78	-37.2	-37.9	25.8	0.00e+00	0	43	0	2420113408	45	4029
2026-01-26 05:30:44.47	309.70	27.71	-37.2	-37.9	25.8	0.00e+00	0	43	0	2425356288	45	4009
2026-01-26 05:30:45.48	309.41	27.64	-37.3	-38.0	25.7	0.00e+00	0	43	0	2431647744	45	4078
2026-01-26 05:30:46.49	309.12	27.56	-37.3	-38.0	25.7	0.00e+00	0	43	0	2436890624	45	4094
2026-01-26 05:30:47.50	308.83	27.49	-37.3	-38.0	25.7	0.00e+00	0	43	0	2442133504	45	4080
2026-01-26 05:30:48.51	308.54	27.41	-37.4	-38.1	25.6	0.00e+00	0	44	0	2448424960	45	4124
2026-01-26 05:30:49.52	308.25	27.34	-37.4	-38.1	25.6	0.00e+00	0	43	0	2454716416	45	4129
2026-01-26 05:30:50.53	307.96	27.26	-37.4	-38.1	25.6	0.00e+00	0	44	0	2459959296	45	4123
2026-01-26 05:30:51.54	307.67	27.19	-37.4	-38.0	25.6	0.00e+00	0	44	0	2465202176	45	4097
2026-01-26 05:30:52.55	307.39	27.11	-37.4	-38.1	25.6	0.00e+00	0	44	0	2471493632	45	4109
2026-01-26 05:30:53.56	307.11	27.03	-37.4	-38.1	25.6	0.00e+00	0	44	0	2476736512	45	4107
2026-01-26 05:30:54.57	306.83	26.96	-37.5	-38.2	25.5	0.00e+00	0	43	0	2481979392	45	4155
2026-01-26 05:30:55.57	306.55	26.88	-37.5	-38.2	25.5	0.00e+00	0	43	0	2488270848	45	4174
2026-01-26 05:30:56.58	306.27	26.80	-37.7	-38.4	25.4	0.00e+00	0	44	0	2493513728	45	4259
2026-01-26 05:30:57.59	305.99	26.72	-37.7	-38.5	25.3	0.00e+00	0	44	0	2498756608	46	4054
2026-01-26 05:30:58.60	305.72	26.64	-37.7	-38.5	25.3	0.00e+00	0	44	0	2505048064	46	4052
2026-01-26 05:30:59.61	305.44	26.56	-37.8	-38.5	25.3	0.00e+00	0	43	0	2510290944	46	4093
2026-01-26 05:31:00.62	305.17	26.48	-37.9	-38.6	25.2	0.00e+00	0	44	0	2516582400	46	4107
2026-01-26 05:31:01.63	304.90	26.40	-37.7	-38.4	25.3	0.00e+00	0	44	0	2521825280	46	4049
2026-01-26 05:31:02.64	304.62	26.32	-37.8	-38.5	25.3	0.00e+00	0	44	0	2528116736	46	4088
2026-01-26 05:31:03.65	304.36	26.24	-37.8	-38.6	25.2	0.00e+00	0	43	0	2533359616	46	4102
2026-01-26 05:31:04.66	304.09	26.15	-37.8	-38.5	25.2	0.00e+00	0	44	0	2539651072	46	4092
2026-01-26 05:31:05.67	303.82	26.07	-37.8	-38.5	25.2	0.00e+00	0	44	0	2544893952	46	4095
2026-01-26 05:31:06.68	303.56	25.99	-37.8	-38.5	25.3	0.00e+00	0	43	0	2550136832	46	4064
2026-01-26 05:31:07.68	303.30	25.90	-37.8	-38.5	25.2	0.00e+00	0	44	0	2556428288	46	4083
2026-01-26 05:31:08.68	303.04	25.82	-37.6	-38.3	25.4	0.00e+00	0	44	0	2561671168	46	3989
2026-01-26 05:31:09.69	302.78	25.74	-37.5	-38.2	25.5	0.00e+00	0	43	0	2566914048	46	3933
2026-01-26 05:31:10.70	302.52	25.65	-37.7	-38.4	25.4	0.00e+00	0	44	0	2573205504	46	4021
2026-01-26 05:31:11.71	302.26	25.56	-37.7	-38.4	25.4	0.00e+00	0	43	0	2578448384	46	4022
2026-01-26 05:31:12.72	302.00	25.48	-37.8	-38.6	25.2	0.00e+00	0	44	0	2584739840	46	4106
2026-01-26 05:31:13.73	301.75	25.39	-37.9	-38.7	25.1	0.00e+00	0	43	0	2589982720	46	4157
2026-01-26 05:31:14.74	301.49	25.31	-38.0	-38.8	25.0	0.00e+00	0	43	0	2596274176	46	4202
2026-01-26 05:31:15.75	301.24	25.22	-38.0	-38.8	25.1	0.00e+00	0	44	0	2601517056	46	4200
2026-01-26 05:31:16.75	300.99	25.13	-37.8	-38.5	25.3	0.00e+00	0	43	0	2606759936	46	4066
2026-01-26 05:31:17.77	300.74	25.05	-37.8	-38.5	25.2	0.00e+00	0	43	0	2613051392	46	4093
2026-01-26 05:31:18.78	300.49	24.96	-37.8	-38.5	25.3	0.00e+00	0	43	0	2618294272	46	4054
2026-01-26 05:31:19.79	300.25	24.87	-37.7	-38.4	25.3	0.00e+00	0	43	0	2624585728	46	4027
2026-01-26 05:31:20.79	300.00	24.78	-37.9	-38.6	25.2	0.00e+00	0	44	0	2629828608	46	4102
2026-01-26 05:31:21.80	299.76	24.69	-37.9	-38.6	25.2	0.00e+00	0	44	0	2635071488	46	4116
2026-01-26 05:31:22.81	299.52	24.60	-37.9	-38.6	25.2	0.00e+00	0	43	0	2641362944	46	4139
2026-01-26 05:31:23.82	299.27	24.52	-37.9	-38.7	25.1	0.00e+00	0	43	0	2647654400	46	4158
2026-01-26 05:31:24.82	299.04	24.43	-38.0	-38.7	25.0	0.00e+00	0	44	0	2652897280	46	4187
2026-01-26 05:31:25.83	298.80	24.34	-38.0	-38.7	25.1	0.00e+00	0	43	0	2658140160	46	4185
2026-01-26 05:31:26.84	298.56	24.25	-38.0	-38.7	25.1	0.00e+00	0	43	0	2664431616	46	4172
2026-01-26 05:31:27.85	298.33	24.16	-37.9	-38.6	25.1	0.00e+00	0	44	0	2669674496	46	4129
2026-01-26 05:31:28.85	298.09	24.07	-37.9	-38.6	25.2	0.00e+00	0	44	0	2674917376	46	4112
2026-01-26 05:31:29.86	297.86	23.98	-37.9	-38.6	25.2	0.00e+00	0	44	0	2681208832	46	4125
2026-01-26 05:31:30.87	297.63	23.89	-38.0	-38.7	25.1	0.00e+00	0	43	0	2686451712	46	4183
2026-01-26 05:31:31.88	297.40	23.80	-38.1	-38.8	25.0	0.00e+00	0	43	0	2691694592	46	4230
2026-01-26 05:31:32.89	297.17	23.70	-38.2	-38.9	24.9	0.00e+00	0	44	0	2697986048	46	4288
2026-01-26 05:31:33.89	296.94	23.61	-38.3	-39.0	24.8	0.00e+00	0	43	0	2703228928	47	4073
2026-01-26 05:31:34.91	296.72	23.52	-38.4	-39.1	24.7	0.00e+00	0	43	0	2709520384	47	4133
2026-01-26 05:31:35.91	296.49	23.43	-38.4	-39.1	24.7	0.00e+00	0	43	0	2714763264	47	4145
2026-01-26 05:31:36.93	296.27	23.34	-38.3	-39.1	24.8	0.00e+00	0	43	0	2721054720	47	4118
2026-01-26 05:31:37.94	296.04	23.25	-38.3	-39.1	24.7	0.00e+00	0	44	0	2726297600	47	4109
2026-01-26 05:31:38.95	295.82	23.16	-38.4	-39.1	24.7	0.00e+00	0	44	0	2732589056	47	4128
2026-01-26 05:31:39.95	295.61	23.06	-38.3	-39.1	24.8	0.00e+00	0	43	0	2737831936	47	4100
2026-01-26 05:31:40.96	295.39	22.97	-38.4	-39.1	24.7	0.00e+00	0	44	0	2743074816	47	4130
2026-01-26 05:31:41.97	295.17	22.88	-38.5	-39.2	24.7	0.00e+00	0	43	0	2749366272	47	4175
2026-01-26 05:31:42.98	294.95	22.79	-38.5	-39.3	24.6	0.00e+00	0	43	0	2754609152	47	4201
2026-01-26 05:31:43.99	294.74	22.69	-38.5	-39.3	24.6	0.00e+00	0	43	0	2759852032	47	4200
2026-01-26 05:31:45.00	294.53	22.60	-38.6	-39.3	24.5	0.00e+00	0	43	0	2766143488	47	4230
2026-01-26 05:31:46.01	294.31	22.51	-38.6	-39.3	24.5	0.00e+00	0	44	0	2771386368	47	4229
2026-01-26 05:31:47.01	294.11	22.42	-38.5	-39.2	24.6	0.00e+00	0	44	0	2776629248	47	4190
2026-01-26 05:31:48.02	293.90	22.32	-38.5	-39.2	24.6	0.00e+00	0	43	0	2782920704	47	4176
2026-01-26 05:31:49.03	293.69	22.23	-38.6	-39.3	24.5	0.00e+00	0	43	0	2789212160	47	4220
2026-01-26 05:31:50.03	293.48	22.14	-38.6	-39.3	24.6	0.00e+00	0	44	0	2794455040	47	4218
2026-01-26 05:31:51.04	293.28	22.05	-38.5	-39.3	24.6	0.00e+00	0	44	0	2799697920	47	4208
2026-01-26 05:31:52.04	293.08	21.95	-38.6	-39.4	24.5	0.00e+00	0	43	0	2805989376	47	4257
2026-01-26 05:31:53.04	292.87	21.86	-39.0	-39.7	24.6	0.00e+00	0	44	0	2811232256	48	4190
2026-01-26 05:31:54.05	292.67	21.77	-39.0	-39.7	24.7	0.00e+00	0	44	0	2817523712	48	4184
2026-01-26 05:31:55.06	292.47	21.67	-39.0	-39.7	24.7	0.00e+00	0	43	0	2822766592	48	4165
2026-01-26 05:31:56.07	292.27	21.58	-39.1	-39.8	24.6	0.00e+00	0	44	0	2828009472	48	4228
2026-01-26 05:31:57.08	292.07	21.49	-39.1	-39.8	24.6	0.00e+00	0	44	0	2834300928	48	4232
2026-01-26 05:31:58.09	291.88	21.39	-39.1	-39.8	24.6	0.00e+00	0	43	0	2839543808	48	4218
2026-01-26 05:31:59.09	291.68	21.30	-39.1	-39.8	24.6	0.00e+00	0	44	0	2844786688	48	4234
2026-01-26 05:32:00.10	291.49	21.21	-39.0	-39.7	24.7	0.00e+00	0	44	0	2851078144	48	4192
2026-01-26 05:32:01.11	291.29	21.12	-38.9	-39.6	24.8	0.00e+00	0	43	0	2856321024	48	4124
2026-01-26 05:32:02.12	291.10	21.02	-38.9	-39.6	24.8	0.00e+00	0	43	0	2862612480	48	4126
2026-01-26 05:32:03.13	290.91	20.93	-39.0	-39.7	24.7	0.00e+00	0	43	0	2867855360	48	4179
2026-01-26 05:32:04.13	290.72	20.84	-39.0	-39.8	24.6	0.00e+00	0	43	0	2874146816	48	4196
2026-01-26 05:32:05.14	290.53	20.74	-39.0	-39.7	24.7	0.00e+00	0	44	0	2879389696	48	4178
2026-01-26 05:32:06.15	290.35	20.65	-39.0	-39.8	24.6	0.00e+00	0	44	0	2884632576	48	4204
2026-01-26 05:32:07.16	290.16	20.56	-39.0	-39.7	24.7	0.00e+00	0	44	0	2890924032	48	4179
2026-01-26 05:32:08.17	289.97	20.46	-39.1	-39.8	24.6	0.00e+00	0	44	0	2896166912	48	4217
2026-01-26 05:32:09.18	289.79	20.37	-39.1	-39.8	24.6	0.00e+00	0	43	0	2902458368	48	4239
2026-01-26 05:32:10.19	289.61	20.28	-39.1	-39.8	24.6	0.00e+00	0	44	0	2907701248	48	4204
2026-01-26 05:32:11.20	289.42	20.18	-39.1	-39.8	24.6	0.00e+00	0	43	0	2912944128	48	4233
2026-01-26 05:32:12.21	289.24	20.09	-39.1	-39.9	24.5	0.00e+00	0	43	0	2919235584	48	4249
2026-01-26 05:32:13.21	289.07	20.00	-39.3	-40.0	24.4	0.00e+00	0	43	0	2924478464	49	4069
2026-01-26 05:32:14.22	288.89	19.90	-39.2	-40.0	24.5	0.00e+00	0	43	0	2930769920	49	4059
2026-01-26 05:32:15.23	288.71	19.81	-39.3	-40.0	24.4	0.00e+00	0	43	0	2936012800	49	4064
2026-01-26 05:32:16.23	288.53	19.72	-39.2	-39.9	24.5	0.00e+00	0	43	0	2942304256	49	4051
2026-01-26 05:32:17.24	288.36	19.63	-39.2	-40.0	24.4	0.00e+00	0	43	0	2947547136	49	4058
2026-01-26 05:32:18.25	288.18	19.53	-39.3	-40.0	24.4	0.00e+00	0	43	0	2952790016	49	4084
2026-01-26 05:32:19.27	288.01	19.44	-39.4	-40.2	24.2	0.00e+00	0	43	0	2959081472	49	4159
2026-01-26 05:32:20.28	287.84	19.35	-39.4	-40.2	24.3	0.00e+00	0	43	0	2964324352	49	4146
2026-01-26 05:32:21.29	287.67	19.25	-39.6	-40.3	24.1	0.00e+00	0	43	0	2969567232	49	4222
2026-01-26 05:32:22.29	287.50	19.16	-39.3	-40.0	24.4	0.00e+00	0	43	0	2975858688	49	4089
2026-01-26 05:32:23.30	287.33	19.07	-39.2	-40.0	24.4	0.00e+00	0	43	0	2981101568	49	4053
2026-01-26 05:32:24.31	287.16	18.98	-39.4	-40.1	24.3	0.00e+00	0	43	0	2987393024	49	4119
2026-01-26 05:32:25.32	286.99	18.89	-39.4	-40.2	24.2	0.00e+00	0	44	0	2992635904	49	4148
2026-01-26 05:32:26.33	286.83	18.79	-39.4	-40.2	24.2	0.00e+00	0	43	0	2998927360	49	4149
2026-01-26 05:32:27.34	286.66	18.70	-39.3	-40.0	24.4	0.00e+00	0	43	0	3004170240	49	4064
2026-01-26 05:32:28.35	286.50	18.61	-39.4	-40.2	24.2	0.00e+00	0	43	0	3010461696	49	4162
2026-01-26 05:32:29.36	286.34	18.52	-39.5	-40.2	24.2	0.00e+00	0	43	0	3015704576	49	4177
2026-01-26 05:32:30.37	286.17	18.43	-39.6	-40.3	24.1	0.00e+00	0	43	0	3020947456	49	4218
2026-01-26 05:32:31.38	286.01	18.33	-39.7	-40.4	24.0	0.00e+00	0	43	0	3027238912	49	4280
2026-01-26 05:32:32.39	285.85	18.24	-39.7	-40.4	24.0	0.00e+00	0	44	0	3032481792	50	4033
2026-01-26 05:32:33.40	285.69	18.15	-39.8	-40.5	23.9	0.00e+00	0	43	0	3037724672	50	4084
2026-01-26 05:32:34.41	285.54	18.06	-39.8	-40.6	23.8	0.00e+00	0	43	0	3044016128	50	4116
2026-01-26 05:32:35.41	285.38	17.97	-39.8	-40.6	23.8	0.00e+00	0	43	0	3049259008	50	4115
2026-01-26 05:32:36.43	285.22	17.88	-39.7	-40.5	23.9	0.00e+00	0	44	0	3055550464	50	4073
2026-01-26 05:32:37.43	285.07	17.79	-39.9	-40.6	23.7	0.00e+00	0	43	0	3060793344	50	4142
2026-01-26 05:32:38.45	284.91	17.69	-39.9	-40.6	23.8	0.00e+00	0	43	0	3067084800	50	4127
2026-01-26 05:32:39.45	284.76	17.60	-39.9	-40.6	23.8	0.00e+00	0	43	0	3072327680	50	4126
2026-01-26 05:32:40.46	284.61	17.51	-39.9	-40.7	23.7	0.00e+00	0	43	0	3077570560	50	4155
2026-01-26 05:32:41.47	284.46	17.42	-40.0	-40.7	23.6	0.00e+00	0	44	0	3083862016	50	4192
2026-01-26 05:32:42.48	284.31	17.33	-40.0	-40.7	23.7	0.00e+00	0	44	0	3089104896	50	4180
2026-01-26 05:32:43.49	284.16	17.24	-40.0	-40.8	23.6	0.00e+00	0	43	0	3095396352	50	4198
2026-01-26 05:32:44.50	284.01	17.15	-40.0	-40.7	23.6	0.00e+00	0	43	0	3100639232	50	4190
2026-01-26 05:32:45.51	283.86	17.06	-40.0	-40.7	23.6	0.00e+00	0	44	0	3105882112	50	4182
2026-01-26 05:32:46.52	283.71	16.97	-40.0	-40.7	23.6	0.00e+00	0	43	0	3112173568	50	4193
2026-01-26 05:32:47.53	283.57	16.88	-40.1	-40.9	23.5	0.00e+00	0	43	0	3118465024	50	4247
2026-01-26 05:32:48.54	283.42	16.79	-40.1	-40.9	23.5	0.00e+00	0	44	0	3123707904	50	4244
2026-01-26 05:32:49.55	283.28	16.70	-40.1	-40.9	23.4	0.00e+00	0	44	0	3128950784	50	4272
2026-01-26 05:32:50.56	283.14	16.61	-40.2	-41.0	23.4	0.00e+00	0	43	0	3135242240	50	4297
2026-01-26 05:32:51.57	282.99	16.52	-40.3	-41.1	23.3	0.00e+00	0	43	0	3140485120	51	4105
2026-01-26 05:32:52.57	282.85	16.44	-40.3	-41.1	23.3	0.00e+00	0	44	0	3145728000	51	4107
2026-01-26 05:32:53.58	282.71	16.35	-40.4	-41.2	23.2	0.00e+00	0	43	0	3152019456	51	4166
2026-01-26 05:32:54.59	282.57	16.26	-40.5	-41.2	23.1	0.00e+00	0	43	0	3157262336	51	4192
2026-01-26 05:32:55.60	282.43	16.17	-40.4	-41.2	23.1	0.00e+00	0	43	0	3162505216	51	4173
2026-01-26 05:32:56.61	282.30	16.08	-40.4	-41.2	23.2	0.00e+00	0	43	0	3168796672	51	4161
2026-01-26 05:32:57.62	282.16	15.99	-40.3	-41.1	23.2	0.00e+00	0	43	0	3175088128	51	4131
2026-01-26 05:32:58.63	282.02	15.90	-40.4	-41.1	23.2	0.00e+00	0	43	0	3180331008	51	4141
2026-01-26 05:32:59.63	281.89	15.82	-40.3	-41.0	23.3	0.00e+00	0	44	0	3185573888	51	4088
2026-01-26 05:33:00.62	281.75	15.73	-40.4	-41.1	23.2	0.00e+00	0	43	0	3191865344	51	4138
2026-01-26 05:33:01.63	281.62	15.64	-40.5	-41.2	23.1	0.00e+00	0	44	0	3197108224	51	4190
2026-01-26 05:33:02.64	281.49	15.56	-40.5	-41.3	23.1	0.00e+00	0	43	0	3203399680	51	4210
2026-01-26 05:33:03.64	281.36	15.47	-40.6	-41.4	22.9	0.00e+00	0	44	0	3208642560	51	4252
2026-01-26 05:33:04.65	281.22	15.38	-40.6	-41.4	22.9	0.00e+00	0	43	0	3213885440	51	4271
2026-01-26 05:33:05.66	281.09	15.29	-40.6	-41.4	23.0	0.00e+00	0	43	0	3220176896	51	4247
2026-01-26 05:33:06.67	280.96	15.21	-40.5	-41.3	23.0	0.00e+00	0	43	0	3225419776	51	4205
2026-01-26 05:33:07.68	280.83	15.12	-40.5	-41.2	23.1	0.00e+00	0	43	0	3230662656	51	4189
2026-01-26 05:33:08.69	280.70	15.03	-40.5	-41.3	23.0	0.00e+00	0	43	0	3236954112	51	4194
2026-01-26 05:33:09.69	280.58	14.95	-40.4	-41.2	23.1	0.00e+00	0	43	0	3242196992	51	4169
2026-01-26 05:33:10.70	280.45	14.86	-40.5	-41.3	23.0	0.00e+00	0	44	0	3247439872	51	4216
2026-01-26 05:33:11.71	280.32	14.78	-40.6	-41.4	22.9	0.00e+00	0	43	0	3253731328	51	4246
2026-01-26 05:33:12.72	280.20	14.69	-40.6	-41.4	22.9	0.00e+00	0	43	0	3260022784	51	4271
2026-01-26 05:33:13.73	280.07	14.60	-40.7	-41.5	22.7	0.00e+00	0	44	0	3265265664	52	4077
2026-01-26 05:33:14.74	279.95	14.52	-40.7	-41.5	22.7	0.00e+00	0	43	0	3270508544	52	4090
2026-01-26 05:33:15.75	279.83	14.43	-40.7	-41.5	22.7	0.00e+00	0	44	0	3276800000	52	4092
2026-01-26 05:33:16.75	279.70	14.35	-40.8	-41.6	22.6	0.00e+00	0	43	0	3282042880	52	4133
2026-01-26 05:33:17.76	279.58	14.26	-40.9	-41.7	22.5	0.00e+00	0	43	0	3288334336	52	4178
2026-01-26 05:33:18.77	279.46	14.18	-40.9	-41.7	22.5	0.00e+00	0	43	0	3293577216	52	4187
2026-01-26 05:33:19.78	279.34	14.09	-40.9	-41.7	22.5	0.00e+00	0	44	0	3298820096	52	4160
2026-01-26 05:33:20.79	279.22	14.01	-41.0	-41.8	22.4	0.00e+00	0	44	0	3305111552	52	4230
2026-01-26 05:33:21.79	279.10	13.93	-41.0	-41.8	22.4	0.00e+00	0	43	0	3310354432	52	4216
2026-01-26 05:33:22.80	278.98	13.84	-40.9	-41.7	22.5	0.00e+00	0	43	0	3315597312	52	4185
2026-01-26 05:33:23.80	278.87	13.76	-40.8	-41.7	22.5	0.00e+00	0	43	0	3321888768	52	4148
2026-01-26 05:33:24.81	278.75	13.67	-41.1	-41.9	22.3	0.00e+00	0	44	0	3327131648	52	4274
2026-01-26 05:33:25.82	278.63	13.59	-41.1	-41.9	22.3	0.00e+00	0	43	0	3333423104	52	4284
2026-01-26 05:33:26.83	278.52	13.51	-41.3	-42.1	22.1	0.00e+00	0	43	0	3338665984	53	4134
2026-01-26 05:33:27.83	278.40	13.42	-41.3	-42.1	22.1	0.00e+00	0	44	0	3344957440	53	4142
2026-01-26 05:33:28.84	278.29	13.34	-41.1	-42.0	22.2	0.00e+00	0	43	0	3350200320	53	4061
2026-01-26 05:33:29.85	278.18	13.26	-41.1	-41.9	22.2	0.00e+00	0	43	0	3355443200	53	4047
2026-01-26 05:33:30.86	278.06	13.17	-40.9	-41.8	22.4	0.00e+00	0	44	0	3361734656	53	3964
2026-01-26 05:33:31.87	277.95	13.09	-41.0	-41.8	22.4	0.00e+00	0	43	0	3366977536	53	3970
2026-01-26 05:33:32.88	277.84	13.01	-40.9	-41.7	22.5	0.00e+00	0	43	0	3373268992	53	3931
2026-01-26 05:33:33.89	277.73	12.93	-40.9	-41.8	22.4	0.00e+00	0	44	0	3378511872	53	3960
2026-01-26 05:33:34.90	277.62	12.84	-40.8	-41.7	22.5	0.00e+00	0	44	0	3383754752	53	3915
2026-01-26 05:33:35.91	277.51	12.76	-41.0	-41.8	22.4	0.00e+00	0	44	0	3390046208	53	3975
2026-01-26 05:33:36.92	277.40	12.68	-41.0	-41.8	22.4	0.00e+00	0	44	0	3396337664	53	3968
2026-01-26 05:33:37.93	277.29	12.60	-40.9	-41.7	22.4	0.00e+00	0	44	0	3401580544	53	3954
2026-01-26 05:33:38.94	277.18	12.52	-41.1	-41.9	22.2	0.00e+00	0	43	0	3406823424	53	4048
2026-01-26 05:33:39.95	277.07	12.43	-41.2	-42.0	22.1	0.00e+00	0	44	0	3413114880	53	4079
2026-01-26 05:33:40.95	276.97	12.35	-41.3	-42.1	22.0	0.00e+00	0	43	0	3418357760	53	4124
2026-01-26 05:33:41.96	276.86	12.27	-41.4	-42.2	21.9	0.00e+00	0	43	0	3423600640	53	4176
2026-01-26 05:33:42.97	276.75	12.19	-41.4	-42.3	21.8	0.00e+00	0	43	0	3429892096	53	4218
2026-01-26 05:33:43.98	276.65	12.11	-41.4	-42.3	21.9	0.00e+00	0	44	0	3435134976	53	4198
2026-01-26 05:33:44.99	276.54	12.03	-41.3	-42.2	22.0	0.00e+00	0	43	0	3440377856	53	4149
2026-01-26 05:33:45.99	276.44	11.95	-41.4	-42.3	21.9	0.00e+00	0	43	0	3446669312	53	4212
2026-01-26 05:33:47.00	276.34	11.87	-41.5	-42.3	21.8	0.00e+00	0	43	0	3451912192	53	4240
2026-01-26 05:33:48.01	276.24	11.79	-41.3	-42.2	22.0	0.00e+00	0	43	0	3458203648	53	4147
2026-01-26 05:33:49.02	276.13	11.71	-41.3	-42.1	22.0	0.00e+00	0	44	0	3463446528	53	4132
2026-01-26 05:33:50.03	276.03	11.63	-41.3	-42.2	21.9	0.00e+00	0	44	0	3469737984	53	4148
2026-01-26 05:33:51.03	275.93	11.55	-41.4	-42.2	21.8	0.00e+00	0	43	0	3474980864	53	4193
2026-01-26 05:33:52.04	275.83	11.47	-41.3	-42.2	21.9	0.00e+00	0	43	0	3481272320	53	4158
2026-01-26 05:33:53.05	275.73	11.39	-41.4	-42.2	21.8	0.00e+00	0	43	0	3486515200	53	4193
2026-01-26 05:33:54.05	275.63	11.31	-41.3	-42.2	21.9	0.00e+00	0	44	0	3491758080	53	4147
2026-01-26 05:33:55.06	275.53	11.24	-41.4	-42.3	21.8	0.00e+00	0	43	0	3498049536	53	4212
2026-01-26 05:33:56.07	275.44	11.16	-41.4	-42.3	21.8	0.00e+00	0	43	0	3503292416	53	4212
2026-01-26 05:33:57.08	275.34	11.08	-41.4	-42.3	21.8	0.00e+00	0	43	0	3508535296	53	4194
2026-01-26 05:33:58.09	275.24	11.00	-41.6	-42.5	21.6	0.00e+00	0	43	0	3514826752	53	4311
2026-01-26 05:33:59.10	275.14	10.92	-41.6	-42.5	21.6	0.00e+00	0	43	0	3520069632	53	4302
2026-01-26 05:34:00.11	275.05	10.84	-41.6	-42.5	21.6	0.00e+00	0	44	0	3525312512	53	4298
2026-01-26 05:34:01.12	274.95	10.77	-41.5	-42.3	21.7	0.00e+00	0	44	0	3531603968	53	4231
2026-01-26 05:34:02.13	274.86	10.69	-41.5	-42.4	21.7	0.00e+00	0	43	0	3537895424	53	4260
2026-01-26 05:34:03.14	274.76	10.61	-41.5	-42.4	21.6	0.00e+00	0	44	0	3543138304	53	4257
2026-01-26 05:34:04.15	274.67	10.53	-41.6	-42.5	21.6	0.00e+00	0	43	0	3548381184	53	4299
2026-01-26 05:34:05.16	274.57	10.46	-41.7	-42.5	21.5	0.00e+00	0	43	0	3554672640	53	4333
2026-01-26 05:34:06.17	274.48	10.38	-41.6	-42.5	21.6	0.00e+00	0	43	0	3559915520	53	4315
2026-01-26 05:34:07.17	274.39	10.30	-41.8	-42.7	21.3	0.00e+00	0	43	0	3566206976	54	4179
2026-01-26 05:34:08.18	274.30	10.23	-41.5	-42.3	21.7	0.00e+00	0	44	0	3571449856	54	3991
2026-01-26 05:34:09.19	274.21	10.15	-41.4	-42.3	21.7	0.00e+00	0	43	0	3576692736	54	3975
2026-01-26 05:34:10.20	274.12	10.07	-41.4	-42.3	21.7	0.00e+00	0	43	0	3582984192	54	3977
2026-01-26 05:34:11.21	274.03	10.00	-41.6	-42.5	21.5	0.00e+00	0	43	0	3588227072	54	4061
2026-01-26 05:34:12.21	273.94	9.92	-41.7	-42.6	21.4	0.00e+00	0	43	0	3593469952	54	4108
2026-01-26 05:34:13.22	273.85	9.85	-41.6	-42.5	21.5	0.00e+00	0	43	0	3599761408	54	4065
2026-01-26 05:34:14.23	273.76	9.77	-41.6	-42.5	21.5	0.00e+00	0	43	0	3606052864	54	4082
2026-01-26 05:34:15.24	273.67	9.69	-41.8	-42.7	21.3	0.00e+00	0	43	0	3611295744	54	4163
2026-01-26 05:34:16.25	273.58	9.62	-41.7	-42.6	21.3	0.00e+00	0	44	0	3616538624	54	4142
2026-01-26 05:34:17.25	273.49	9.54	-41.7	-42.6	21.4	0.00e+00	0	43	0	3622830080	54	4113
2026-01-26 05:34:18.26	273.41	9.47	-41.6	-42.4	21.5	0.00e+00	0	43	0	3628072960	54	4049
2026-01-26 05:34:19.26	273.32	9.39	-41.6	-42.5	21.5	0.00e+00	0	44	0	3633315840	54	4052
2026-01-26 05:34:20.27	273.23	9.32	-41.6	-42.5	21.4	0.00e+00	0	43	0	3639607296	54	4086
2026-01-26 05:34:21.28	273.15	9.25	-41.8	-42.7	21.3	0.00e+00	0	44	0	3644850176	54	4152
2026-01-26 05:34:22.29	273.06	9.17	-41.8	-42.7	21.3	0.00e+00	0	43	0	3651141632	54	4153
2026-01-26 05:34:23.29	272.98	9.10	-41.5	-42.4	21.5	0.00e+00	0	44	0	3656384512	54	4025
2026-01-26 05:34:24.30	272.89	9.02	-41.7	-42.6	21.4	0.00e+00	0	43	0	3661627392	54	4107
2026-01-26 05:34:25.31	272.81	8.95	-41.8	-42.7	21.2	0.00e+00	0	43	0	3667918848	54	4159
2026-01-26 05:34:26.32	272.73	8.87	-41.9	-42.8	21.1	0.00e+00	0	44	0	3674210304	54	4214
