passes_logs/2026/01/26/R3.2S_Murmansk/R3.2S_Murmansk__20260126_084102_FENGYUN_3D_rec.log

#Pass ID: 20260126_084102_FENGYUN 3D
#Satellite: FENGYUN 3D
#Configuration: FENGYUN 3D
#almurnet v.1.7.20251203
#Start time: 2026-01-26 08:41:03

#Version: 2.2.20231116
#Station: R3.2S_Murmansk
#Location: 33.079688 lon 68.888172 lat
#TLE: 1 43010U 17072A   26025.99795741 -.00000136  00000+0 -42313-4 0  9999
#TLE: 2 43010  98.9962 357.9855 0002515  89.6991 270.4472 14.19699257424818

#Time	Az	El	Level	Level2	SNR	BER	BlckErr	Temp	State	Recorded	gain1	gain2
2026-01-26 08:41:03.96	87.44	2.09	-48.0	-59.9	3.8	8.46e-01	0	41	0	0	66	15094
2026-01-26 08:41:04.98	87.38	2.15	-48.0	-59.9	3.8	8.45e-01	0	41	104	0	66	15109
2026-01-26 08:41:05.99	87.33	2.21	-48.0	-59.9	3.8	8.47e-01	0	41	104	0	66	15093
2026-01-26 08:41:06.99	87.27	2.27	-48.0	-59.9	3.8	8.46e-01	0	41	104	0	66	15110
2026-01-26 08:41:08.00	87.22	2.33	-48.0	-59.9	3.8	8.46e-01	0	41	104	0	66	15127
2026-01-26 08:41:09.01	87.16	2.39	-48.0	-59.9	3.8	8.46e-01	0	41	104	0	66	15110
2026-01-26 08:41:10.02	87.10	2.45	-48.0	-59.9	3.8	8.46e-01	0	41	104	0	66	15104
2026-01-26 08:41:11.03	87.05	2.51	-48.0	-59.9	3.8	8.47e-01	0	41	104	0	66	15150
2026-01-26 08:41:12.04	86.99	2.57	-48.0	-59.9	3.8	8.45e-01	0	41	104	0	66	15140
2026-01-26 08:41:13.04	86.93	2.63	-48.0	-59.9	3.8	8.47e-01	0	42	104	0	66	15097
2026-01-26 08:41:14.05	86.87	2.69	-48.0	-59.9	3.8	8.46e-01	0	41	104	0	66	15079
2026-01-26 08:41:15.06	86.82	2.75	-48.0	-59.9	3.8	8.47e-01	0	42	104	0	66	15066
2026-01-26 08:41:16.07	86.76	2.81	-48.0	-59.9	3.8	8.46e-01	0	41	104	0	66	15115
2026-01-26 08:41:17.08	86.70	2.87	-48.0	-59.9	3.8	8.46e-01	0	42	104	0	66	15113
2026-01-26 08:41:18.09	86.64	2.93	-48.0	-59.9	3.8	8.45e-01	0	42	104	0	66	15080
2026-01-26 08:41:19.09	86.58	2.99	-48.0	-59.9	3.8	8.46e-01	0	42	104	0	66	15093
2026-01-26 08:41:20.10	86.52	3.05	-48.0	-59.9	3.8	8.46e-01	0	42	104	0	66	15090
2026-01-26 08:41:21.10	86.47	3.11	-48.0	-59.9	3.8	8.46e-01	0	42	104	0	66	15087
2026-01-26 08:41:22.11	86.41	3.17	-48.0	-59.9	3.8	8.47e-01	0	42	104	0	66	15126
2026-01-26 08:41:23.12	86.35	3.23	-48.0	-59.9	3.8	8.46e-01	0	42	104	0	66	15071
2026-01-26 08:41:24.13	86.29	3.30	-48.0	-59.9	3.8	8.48e-01	0	42	104	0	66	15105
2026-01-26 08:41:25.13	86.23	3.36	-48.0	-59.9	3.8	8.45e-01	0	42	104	0	66	15104
2026-01-26 08:41:26.14	86.16	3.42	-48.0	-59.9	3.8	8.46e-01	0	42	104	0	66	15091
2026-01-26 08:41:27.15	86.10	3.48	-48.0	-59.9	3.8	8.47e-01	0	42	104	0	66	15078
2026-01-26 08:41:28.16	86.04	3.54	-48.0	-59.9	3.8	8.47e-01	0	42	104	0	66	15104
2026-01-26 08:41:29.17	85.98	3.60	-48.0	-59.9	3.8	8.47e-01	0	42	104	0	66	15062
2026-01-26 08:41:30.17	85.92	3.67	-48.0	-59.9	3.8	8.46e-01	0	42	104	0	66	15124
2026-01-26 08:41:31.18	85.86	3.73	-48.0	-59.9	3.8	8.45e-01	0	42	104	0	66	15118
2026-01-26 08:41:32.19	85.80	3.79	-48.0	-59.9	3.8	8.46e-01	0	42	104	0	66	15079
2026-01-26 08:41:33.19	85.73	3.85	-48.0	-59.9	3.8	8.46e-01	0	42	104	0	66	15067
2026-01-26 08:41:34.20	85.67	3.92	-48.0	-59.9	3.8	8.45e-01	0	42	104	0	66	15086
2026-01-26 08:41:35.21	85.61	3.98	-48.0	-59.9	3.8	8.46e-01	0	42	104	0	66	15116
2026-01-26 08:41:36.22	85.54	4.04	-48.0	-59.9	3.8	8.46e-01	0	42	104	0	66	15108
2026-01-26 08:41:37.23	85.48	4.10	-48.0	-59.9	3.8	8.46e-01	0	42	104	0	66	15106
2026-01-26 08:41:38.23	85.42	4.17	-48.0	-59.9	3.8	8.47e-01	0	42	104	0	66	15063
2026-01-26 08:41:39.24	85.35	4.23	-48.0	-59.9	3.8	8.46e-01	0	42	104	0	66	15100
2026-01-26 08:41:40.25	85.29	4.29	-48.1	-59.9	3.8	8.46e-01	0	42	104	0	66	15153
2026-01-26 08:41:41.26	85.22	4.36	-48.0	-59.9	3.8	8.46e-01	0	42	104	0	66	15111
2026-01-26 08:41:42.27	85.16	4.42	-48.0	-59.9	3.8	8.46e-01	0	42	104	0	66	15071
2026-01-26 08:41:43.27	85.09	4.48	-48.0	-59.9	3.8	8.45e-01	0	42	104	0	66	15070
2026-01-26 08:41:44.28	85.03	4.55	-48.0	-59.9	3.8	8.46e-01	0	42	104	0	66	15106
2026-01-26 08:41:45.29	84.96	4.61	-48.0	-59.9	3.8	8.45e-01	0	42	104	0	66	15069
2026-01-26 08:41:46.30	84.89	4.67	-48.0	-59.9	3.8	8.46e-01	0	42	104	0	66	15094
2026-01-26 08:41:47.31	84.83	4.74	-48.0	-59.9	3.8	8.46e-01	0	42	104	0	66	15126
2026-01-26 08:41:48.32	84.76	4.80	-48.0	-59.9	3.8	8.45e-01	0	42	104	0	66	15099
2026-01-26 08:41:49.33	84.69	4.87	-48.0	-59.9	3.8	8.45e-01	0	42	104	0	66	15113
2026-01-26 08:41:50.33	84.63	4.93	-48.0	-59.9	3.8	8.45e-01	0	42	104	0	66	15070
2026-01-26 08:41:51.34	84.56	5.00	-48.0	-59.9	3.8	8.47e-01	0	42	104	0	66	15126
2026-01-26 08:41:52.34	84.49	5.06	-48.0	-59.9	3.8	8.46e-01	0	42	104	0	66	15160
2026-01-26 08:41:53.35	84.42	5.12	-48.0	-59.9	3.8	8.46e-01	0	43	104	0	66	15088
2026-01-26 08:41:54.37	84.35	5.19	-48.0	-59.9	3.8	8.46e-01	0	42	104	0	66	15058
2026-01-26 08:41:55.37	84.28	5.25	-48.0	-59.9	3.8	8.47e-01	0	43	104	0	66	15100
2026-01-26 08:41:56.38	84.21	5.32	-48.0	-59.9	3.8	8.47e-01	0	43	104	0	66	15084
2026-01-26 08:41:57.39	84.14	5.38	-48.0	-59.9	3.8	8.47e-01	0	43	104	0	66	15073
2026-01-26 08:41:58.39	84.07	5.45	-48.0	-59.9	3.8	8.46e-01	0	43	104	0	66	15083
2026-01-26 08:41:59.40	84.00	5.51	-48.0	-59.9	3.8	8.46e-01	0	43	104	0	66	15100
2026-01-26 08:42:00.41	83.93	5.58	-48.0	-59.9	3.8	8.46e-01	0	43	104	0	66	15107
2026-01-26 08:42:01.42	83.86	5.65	-48.0	-59.9	3.8	8.46e-01	0	43	104	0	66	15103
2026-01-26 08:42:02.42	83.79	5.71	-48.0	-59.9	3.8	8.46e-01	0	43	104	0	66	15114
2026-01-26 08:42:03.43	83.72	5.78	-48.0	-59.9	3.8	8.46e-01	0	43	104	0	66	15089
2026-01-26 08:42:04.44	83.65	5.84	-48.0	-59.9	3.8	8.47e-01	0	43	104	0	66	15070
2026-01-26 08:42:05.45	83.57	5.91	-48.0	-59.9	3.8	8.46e-01	0	43	104	0	66	15077
2026-01-26 08:42:06.46	83.50	5.98	-48.0	-59.9	3.8	8.45e-01	0	42	104	0	66	15083
2026-01-26 08:42:07.46	83.43	6.04	-48.0	-59.9	3.8	8.46e-01	0	43	104	0	66	15076
2026-01-26 08:42:08.46	83.35	6.11	-48.0	-59.9	3.8	8.46e-01	0	43	104	0	66	15073
2026-01-26 08:42:09.47	83.28	6.17	-48.0	-59.9	3.8	8.46e-01	0	43	104	0	66	15122
2026-01-26 08:42:10.47	83.21	6.24	-48.0	-59.9	3.8	8.46e-01	0	43	104	0	66	15153
2026-01-26 08:42:11.48	83.13	6.31	-48.0	-59.8	3.8	8.46e-01	0	43	104	0	66	15041
2026-01-26 08:42:12.49	83.06	6.38	-48.1	-59.9	3.8	8.47e-01	0	43	104	0	66	15078
2026-01-26 08:42:13.49	82.98	6.44	-48.0	-59.9	3.8	8.46e-01	0	43	104	0	66	15062
2026-01-26 08:42:14.50	82.91	6.51	-48.0	-59.9	3.8	8.46e-01	0	43	104	0	66	15101
2026-01-26 08:42:15.51	82.83	6.58	-48.0	-59.9	3.8	8.46e-01	0	43	104	0	66	15096
2026-01-26 08:42:16.51	82.75	6.64	-48.0	-59.9	3.8	8.46e-01	0	43	104	0	66	15115
2026-01-26 08:42:17.52	82.68	6.71	-48.0	-59.9	3.8	8.45e-01	0	43	104	0	66	15086
2026-01-26 08:42:18.52	82.60	6.78	-48.1	-59.9	3.8	8.46e-01	0	43	104	0	66	15089
2026-01-26 08:42:19.53	82.52	6.85	-48.0	-59.9	3.8	8.47e-01	0	43	104	0	66	15113
2026-01-26 08:42:20.54	82.45	6.91	-48.0	-59.9	3.8	8.47e-01	0	43	104	0	66	15077
2026-01-26 08:42:21.55	82.37	6.98	-48.0	-59.9	3.8	8.46e-01	0	43	104	0	66	15120
2026-01-26 08:42:22.55	82.29	7.05	-48.0	-59.9	3.8	8.46e-01	0	43	104	0	66	15140
2026-01-26 08:42:23.56	82.21	7.12	-48.0	-59.9	3.8	8.46e-01	0	43	104	0	66	15115
2026-01-26 08:42:24.57	82.13	7.19	-48.1	-59.9	3.8	8.46e-01	0	43	104	0	66	15113
2026-01-26 08:42:25.58	82.05	7.26	-48.0	-59.9	3.8	8.46e-01	0	43	104	0	66	15098
2026-01-26 08:42:26.58	81.97	7.32	-48.0	-59.9	3.8	8.46e-01	0	43	104	0	66	15085
2026-01-26 08:42:27.59	81.89	7.39	-48.0	-59.9	3.8	8.46e-01	0	43	104	0	66	15080
2026-01-26 08:42:28.60	81.81	7.46	-48.1	-59.9	3.8	8.46e-01	0	43	104	0	66	15105
2026-01-26 08:42:29.61	81.73	7.53	-48.0	-59.9	3.8	8.47e-01	0	43	104	0	66	15109
2026-01-26 08:42:30.62	81.65	7.60	-48.0	-59.9	3.8	8.45e-01	0	43	104	0	66	15062
2026-01-26 08:42:31.63	81.56	7.67	-48.0	-59.9	3.8	8.46e-01	0	43	104	0	66	15128
2026-01-26 08:42:32.63	81.48	7.74	-48.0	-59.9	3.8	8.46e-01	0	43	104	0	66	15175
2026-01-26 08:42:33.64	81.40	7.81	-48.0	-59.9	3.8	8.47e-01	0	43	104	0	66	15093
2026-01-26 08:42:34.65	81.31	7.88	-48.1	-59.9	3.8	8.48e-01	0	43	104	0	66	15094
2026-01-26 08:42:35.65	81.23	7.95	-48.0	-59.9	3.8	8.46e-01	0	43	104	0	66	15105
2026-01-26 08:42:36.66	81.15	8.02	-48.0	-59.9	3.8	8.46e-01	0	43	104	0	66	15103
2026-01-26 08:42:37.67	81.06	8.09	-48.0	-59.9	3.8	8.47e-01	0	43	104	0	66	15099
2026-01-26 08:42:38.68	80.98	8.16	-48.1	-59.9	3.8	8.47e-01	0	43	104	0	66	15118
2026-01-26 08:42:39.69	80.89	8.23	-48.0	-59.9	3.8	8.46e-01	0	43	104	0	66	15103
2026-01-26 08:42:40.70	80.80	8.30	-48.0	-59.9	3.8	8.46e-01	0	43	104	0	66	15075
2026-01-26 08:42:41.71	80.72	8.37	-48.0	-59.9	3.8	8.45e-01	0	43	104	0	66	15108
2026-01-26 08:42:42.72	80.63	8.44	-48.0	-59.9	3.8	8.45e-01	0	43	104	0	66	15118
2026-01-26 08:42:43.73	80.54	8.52	-48.0	-59.9	3.8	8.46e-01	0	43	104	0	66	15060
2026-01-26 08:42:44.74	80.46	8.59	-48.0	-59.9	3.8	8.46e-01	0	43	104	0	66	15141
2026-01-26 08:42:45.74	80.37	8.66	-48.0	-59.9	3.8	8.45e-01	0	43	104	0	66	15097
2026-01-26 08:42:46.75	80.28	8.73	-48.1	-59.9	3.8	8.46e-01	0	43	104	0	66	15131
2026-01-26 08:42:47.76	80.19	8.80	-48.1	-59.9	3.8	8.46e-01	0	43	104	0	66	15103
2026-01-26 08:42:48.77	80.10	8.87	-48.0	-59.9	3.8	8.46e-01	0	43	104	0	66	15141
2026-01-26 08:42:49.78	80.01	8.94	-48.1	-59.9	3.8	8.45e-01	0	43	104	0	66	15135
2026-01-26 08:42:50.79	79.92	9.02	-48.1	-59.9	3.8	8.45e-01	0	43	104	0	66	15121
2026-01-26 08:42:51.79	79.83	9.09	-48.0	-59.9	3.8	8.46e-01	0	43	104	0	66	15133
2026-01-26 08:42:52.80	79.74	9.16	-48.1	-59.9	3.8	8.46e-01	0	43	104	0	66	15131
2026-01-26 08:42:53.81	79.65	9.23	-48.0	-59.9	3.8	8.45e-01	0	43	104	0	66	15079
2026-01-26 08:42:54.82	79.55	9.31	-48.0	-59.9	3.8	8.46e-01	0	43	104	0	66	15137
2026-01-26 08:42:55.83	79.46	9.38	-48.1	-59.9	3.8	8.45e-01	0	43	104	0	66	15152
2026-01-26 08:42:56.84	79.37	9.45	-48.1	-59.9	3.8	8.47e-01	0	43	104	0	66	15091
2026-01-26 08:42:57.85	79.27	9.52	-48.1	-59.9	3.8	8.46e-01	0	43	104	0	66	15151
2026-01-26 08:42:58.85	79.18	9.60	-48.1	-59.9	3.8	8.46e-01	0	43	104	0	66	15119
2026-01-26 08:42:59.85	79.09	9.67	-48.0	-59.9	3.8	8.46e-01	0	43	104	0	66	15133
2026-01-26 08:43:00.86	78.99	9.74	-48.1	-59.9	3.8	8.46e-01	0	43	104	0	66	15119
2026-01-26 08:43:01.87	78.89	9.82	-48.1	-59.9	3.8	8.45e-01	0	43	104	0	66	15109
2026-01-26 08:43:02.88	78.80	9.89	-48.0	-59.9	3.8	8.47e-01	0	43	104	0	66	15104
2026-01-26 08:43:03.88	78.70	9.96	-48.0	-59.9	3.8	8.46e-01	0	43	104	0	66	15125
2026-01-26 08:43:04.89	78.60	10.04	-48.1	-59.9	3.8	8.47e-01	0	43	104	0	66	15133
2026-01-26 08:43:05.90	78.51	10.11	-48.1	-59.9	3.8	8.46e-01	0	43	104	0	66	15082
2026-01-26 08:43:06.91	78.41	10.19	-48.0	-59.9	3.8	8.47e-01	0	43	104	0	66	15146
2026-01-26 08:43:07.92	78.31	10.26	-48.1	-59.9	3.8	8.46e-01	0	43	104	0	66	15103
2026-01-26 08:43:08.93	78.21	10.34	-48.1	-59.9	3.8	8.45e-01	0	43	104	0	66	15107
2026-01-26 08:43:09.93	78.11	10.41	-48.1	-59.9	3.8	8.46e-01	0	43	104	0	66	15094
2026-01-26 08:43:10.94	78.01	10.48	-48.1	-59.9	3.8	8.45e-01	0	43	104	0	66	15070
2026-01-26 08:43:11.94	77.91	10.56	-48.0	-59.9	3.8	8.45e-01	0	43	104	0	66	15131
2026-01-26 08:43:12.95	77.81	10.63	-48.1	-59.9	3.8	8.44e-01	0	43	104	0	66	15115
2026-01-26 08:43:13.96	77.71	10.71	-48.0	-59.9	3.8	8.46e-01	0	43	104	0	66	15098
2026-01-26 08:43:14.97	77.60	10.78	-48.1	-59.9	3.8	8.47e-01	0	43	104	0	66	15126
2026-01-26 08:43:15.97	77.50	10.86	-48.1	-59.9	3.8	8.47e-01	0	43	104	0	66	15112
2026-01-26 08:43:16.98	77.40	10.94	-48.1	-59.9	3.8	8.46e-01	0	43	104	0	66	15141
2026-01-26 08:43:17.99	77.29	11.01	-48.1	-59.9	3.8	8.47e-01	0	43	104	0	66	15087
2026-01-26 08:43:19.00	77.19	11.09	-48.1	-59.9	3.8	8.46e-01	0	43	104	0	66	15133
2026-01-26 08:43:20.00	77.08	11.16	-48.0	-59.9	3.8	8.46e-01	0	43	104	0	66	15084
2026-01-26 08:43:21.01	76.98	11.24	-48.1	-59.9	3.8	8.46e-01	0	43	104	0	66	15088
2026-01-26 08:43:22.02	76.87	11.32	-48.0	-59.9	3.8	8.46e-01	0	43	104	0	66	15112
2026-01-26 08:43:23.03	76.76	11.39	-48.1	-59.9	3.8	8.46e-01	0	43	104	0	66	15151
2026-01-26 08:43:24.04	76.66	11.47	-48.0	-59.9	3.8	8.46e-01	0	43	104	0	66	15084
2026-01-26 08:43:25.04	76.55	11.55	-48.1	-59.9	3.8	8.47e-01	0	43	104	0	66	15091
2026-01-26 08:43:26.05	76.44	11.62	-48.1	-59.9	3.8	8.45e-01	0	43	104	0	66	15113
2026-01-26 08:43:27.06	76.33	11.70	-48.1	-59.9	3.8	8.46e-01	0	43	104	0	66	15138
2026-01-26 08:43:28.07	76.22	11.78	-48.1	-59.9	3.8	8.45e-01	0	43	104	0	66	15091
2026-01-26 08:43:29.07	76.11	11.85	-48.1	-59.9	3.8	8.45e-01	0	43	104	0	66	15147
2026-01-26 08:43:30.08	76.00	11.93	-48.0	-59.9	3.8	8.47e-01	0	43	104	0	66	15092
2026-01-26 08:43:31.09	75.89	12.01	-48.1	-59.9	3.8	8.47e-01	0	43	104	0	66	15156
2026-01-26 08:43:32.10	75.78	12.09	-48.1	-59.9	3.8	8.47e-01	0	43	104	0	66	15063
2026-01-26 08:43:33.11	75.66	12.16	-48.1	-59.9	3.8	8.46e-01	0	43	104	0	66	15140
2026-01-26 08:43:34.11	75.55	12.24	-48.1	-59.9	3.8	8.46e-01	0	43	104	0	66	15124
2026-01-26 08:43:35.12	75.44	12.32	-48.1	-59.9	3.8	8.45e-01	0	43	104	0	66	15133
2026-01-26 08:43:36.14	75.32	12.40	-48.1	-59.9	3.8	8.46e-01	0	43	104	0	66	15142
2026-01-26 08:43:37.15	75.20	12.48	-48.1	-59.9	3.8	8.46e-01	0	43	104	0	66	15150
2026-01-26 08:43:38.15	75.09	12.56	-48.1	-59.9	3.8	8.45e-01	0	43	104	0	66	15121
2026-01-26 08:43:39.16	74.97	12.63	-48.1	-59.9	3.8	8.46e-01	0	43	104	0	66	15080
2026-01-26 08:43:40.17	74.86	12.71	-48.1	-59.9	3.8	8.46e-01	0	43	104	0	66	15136
2026-01-26 08:43:41.18	74.74	12.79	-48.1	-59.9	3.8	8.46e-01	0	43	104	0	66	15139
2026-01-26 08:43:42.19	74.62	12.87	-48.1	-59.9	3.8	8.47e-01	0	43	104	0	66	15120
2026-01-26 08:43:43.20	74.50	12.95	-48.1	-59.9	3.8	8.46e-01	0	43	104	0	66	15137
2026-01-26 08:43:44.20	74.38	13.03	-48.1	-59.8	3.8	8.46e-01	0	43	104	0	66	15051
2026-01-26 08:43:45.21	74.26	13.11	-48.1	-59.9	3.8	8.45e-01	0	43	104	0	66	15100
2026-01-26 08:43:46.22	74.14	13.19	-48.0	-59.9	3.8	8.47e-01	0	43	104	0	66	15107
2026-01-26 08:43:47.22	74.02	13.27	-48.1	-59.9	3.8	8.45e-01	0	43	104	0	66	15099
2026-01-26 08:43:48.23	73.89	13.35	-48.1	-59.9	3.8	8.46e-01	0	43	104	0	66	15127
2026-01-26 08:43:49.24	73.77	13.43	-48.1	-59.9	3.8	8.46e-01	0	43	104	0	66	15094
2026-01-26 08:43:50.25	73.65	13.51	-48.1	-59.9	3.8	8.46e-01	0	43	104	0	66	15084
2026-01-26 08:43:51.26	73.52	13.59	-48.1	-59.9	3.8	8.46e-01	0	43	104	0	66	15090
2026-01-26 08:43:52.26	73.40	13.67	-48.1	-59.9	3.8	8.47e-01	0	43	104	0	66	15137
2026-01-26 08:43:53.27	73.27	13.75	-48.1	-59.9	3.8	8.46e-01	0	43	104	0	66	15167
2026-01-26 08:43:54.28	73.14	13.83	-48.1	-59.9	3.8	8.46e-01	0	43	104	0	66	15133
2026-01-26 08:43:55.28	73.02	13.91	-48.1	-59.9	3.8	8.47e-01	0	43	104	0	66	15156
2026-01-26 08:43:56.29	72.89	13.99	-48.1	-59.9	3.8	8.47e-01	0	43	104	0	66	15133
2026-01-26 08:43:57.30	72.76	14.07	-48.1	-59.9	3.8	8.46e-01	0	43	104	0	66	15105
2026-01-26 08:43:58.30	72.63	14.15	-48.1	-59.9	3.8	8.46e-01	0	44	104	0	66	15075
2026-01-26 08:43:59.31	72.50	14.23	-48.1	-59.9	3.8	8.46e-01	0	43	104	0	66	15123
2026-01-26 08:44:00.32	72.37	14.32	-48.1	-59.9	3.8	8.46e-01	0	43	104	0	66	15130
2026-01-26 08:44:01.33	72.24	14.40	-48.1	-59.9	3.8	8.45e-01	0	43	104	0	66	15098
2026-01-26 08:44:02.33	72.11	14.48	-48.1	-59.9	3.8	8.47e-01	0	43	104	0	66	15156
2026-01-26 08:44:03.34	71.97	14.56	-48.1	-59.9	3.8	8.46e-01	0	43	104	0	66	15138
2026-01-26 08:44:04.35	71.84	14.64	-48.1	-59.9	3.8	8.46e-01	0	43	104	0	66	15091
2026-01-26 08:44:05.36	71.70	14.72	-48.1	-59.9	3.8	8.46e-01	0	43	104	0	66	15102
2026-01-26 08:44:06.37	71.57	14.81	-48.1	-59.9	3.8	8.46e-01	0	44	104	0	66	15121
2026-01-26 08:44:07.38	71.43	14.89	-48.1	-59.9	3.8	8.45e-01	0	44	104	0	66	15097
2026-01-26 08:44:08.39	71.29	14.97	-48.1	-59.9	3.8	8.46e-01	0	43	104	0	66	15078
2026-01-26 08:44:09.39	71.16	15.05	-48.1	-59.9	3.8	8.46e-01	0	44	104	0	66	15121
2026-01-26 08:44:10.41	71.02	15.14	-48.1	-59.9	3.8	8.46e-01	0	43	104	0	66	15111
2026-01-26 08:44:11.41	70.88	15.22	-48.0	-59.9	3.8	8.45e-01	0	43	104	0	66	15132
2026-01-26 08:44:12.42	70.74	15.30	-48.1	-59.9	3.8	8.47e-01	0	43	104	0	66	15119
2026-01-26 08:44:13.43	70.60	15.38	-48.1	-59.9	3.8	8.46e-01	0	43	104	0	66	15184
2026-01-26 08:44:14.44	70.46	15.47	-48.1	-59.9	3.8	8.46e-01	0	43	104	0	66	15160
2026-01-26 08:44:15.44	70.31	15.55	-48.1	-59.9	3.8	8.47e-01	0	43	104	0	66	15123
2026-01-26 08:44:16.45	70.17	15.63	-48.1	-59.9	3.8	8.46e-01	0	43	104	0	66	15089
2026-01-26 08:44:17.47	70.03	15.72	-48.1	-59.9	3.8	8.46e-01	0	43	104	0	66	15159
2026-01-26 08:44:18.47	69.88	15.80	-48.1	-59.9	3.8	8.46e-01	0	44	104	0	66	15165
2026-01-26 08:44:19.48	69.74	15.88	-48.1	-59.9	3.8	8.46e-01	0	43	104	0	66	15120
2026-01-26 08:44:20.49	69.59	15.97	-48.1	-59.9	3.8	8.45e-01	0	44	104	0	66	15106
2026-01-26 08:44:21.49	69.44	16.05	-48.1	-59.9	3.8	8.47e-01	0	43	104	0	66	15130
2026-01-26 08:44:22.50	69.29	16.13	-48.1	-59.9	3.8	8.46e-01	0	43	104	0	66	15146
2026-01-26 08:44:23.51	69.14	16.22	-48.1	-59.9	3.8	8.46e-01	0	43	104	0	66	15138
2026-01-26 08:44:24.52	68.99	16.30	-48.1	-59.9	3.8	8.46e-01	0	43	104	0	66	15142
2026-01-26 08:44:25.53	68.84	16.38	-48.1	-59.9	3.8	8.45e-01	0	44	104	0	66	15102
2026-01-26 08:44:26.54	68.69	16.47	-48.1	-59.9	3.8	8.45e-01	0	44	104	0	66	15097
2026-01-26 08:44:27.54	68.54	16.55	-48.1	-59.9	3.8	8.45e-01	0	43	104	0	66	15086
2026-01-26 08:44:28.55	68.39	16.64	-48.1	-59.9	3.8	8.46e-01	0	43	104	0	66	15131
2026-01-26 08:44:29.56	68.23	16.72	-48.1	-59.9	3.8	8.46e-01	0	43	104	0	66	15143
2026-01-26 08:44:30.57	68.08	16.81	-48.1	-59.9	3.8	8.47e-01	0	43	104	0	66	15148
2026-01-26 08:44:31.57	67.92	16.89	-48.1	-59.9	3.8	8.47e-01	0	43	104	0	66	15142
2026-01-26 08:44:32.58	67.76	16.97	-48.0	-59.9	3.8	8.47e-01	0	44	104	0	66	15130
2026-01-26 08:44:33.59	67.60	17.06	-48.1	-59.9	3.8	8.46e-01	0	43	104	0	66	15130
2026-01-26 08:44:34.59	67.45	17.14	-48.1	-59.9	3.8	8.47e-01	0	43	104	0	66	15070
2026-01-26 08:44:35.60	67.29	17.23	-48.1	-59.9	3.8	8.46e-01	0	43	104	0	66	15091
2026-01-26 08:44:36.61	67.13	17.31	-48.1	-59.9	3.8	8.46e-01	0	43	104	0	66	15108
2026-01-26 08:44:37.62	66.96	17.40	-48.1	-59.9	3.8	8.46e-01	0	43	104	0	66	15115
2026-01-26 08:44:38.63	66.80	17.48	-48.1	-59.9	3.8	8.46e-01	0	43	104	0	66	15127
2026-01-26 08:44:39.64	66.64	17.57	-48.1	-59.9	3.8	8.46e-01	0	43	104	0	66	15134
2026-01-26 08:44:40.65	66.47	17.65	-48.1	-59.9	3.8	8.45e-01	0	43	104	0	66	15099
2026-01-26 08:44:41.65	66.31	17.74	-48.1	-59.9	3.8	8.46e-01	0	43	104	0	66	15111
2026-01-26 08:44:42.66	66.14	17.82	-48.1	-59.9	3.8	8.47e-01	0	43	104	0	66	15148
2026-01-26 08:44:43.67	65.98	17.91	-48.1	-59.9	3.8	8.47e-01	0	43	104	0	66	15128
2026-01-26 08:44:44.67	65.81	17.99	-48.1	-59.9	3.8	8.45e-01	0	43	104	0	66	15123
2026-01-26 08:44:45.68	65.64	18.08	-48.1	-59.9	3.8	8.45e-01	0	43	104	0	66	15124
2026-01-26 08:44:46.69	65.47	18.16	-48.1	-59.9	3.8	8.46e-01	0	44	104	0	66	15117
2026-01-26 08:44:47.70	65.30	18.25	-48.1	-59.9	3.8	8.45e-01	0	43	104	0	66	15145
2026-01-26 08:44:48.70	65.13	18.33	-48.1	-59.9	3.8	8.47e-01	0	43	104	0	66	15106
2026-01-26 08:44:49.71	64.95	18.42	-48.1	-59.9	3.8	8.45e-01	0	44	104	0	66	15133
2026-01-26 08:44:50.72	64.78	18.50	-48.1	-59.9	3.8	8.46e-01	0	43	104	0	66	15149
2026-01-26 08:44:51.73	64.60	18.59	-48.1	-59.9	3.8	8.47e-01	0	43	104	0	66	15111
2026-01-26 08:44:52.73	64.43	18.67	-48.1	-59.9	3.8	8.46e-01	0	43	104	0	66	15148
2026-01-26 08:44:53.74	64.25	18.76	-48.1	-59.9	3.8	8.47e-01	0	44	104	0	66	15099
2026-01-26 08:44:54.75	64.07	18.84	-48.1	-59.9	3.8	8.46e-01	0	43	104	0	66	15122
2026-01-26 08:44:55.76	63.89	18.93	-48.1	-59.9	3.8	8.46e-01	0	43	104	0	66	15148
2026-01-26 08:44:56.77	63.71	19.01	-48.1	-59.9	3.8	8.45e-01	0	43	104	0	66	15146
2026-01-26 08:44:57.77	63.53	19.10	-48.1	-59.9	3.8	8.45e-01	0	43	104	0	66	15172
2026-01-26 08:44:58.78	63.35	19.18	-48.1	-59.9	3.8	8.46e-01	0	43	104	0	66	15149
2026-01-26 08:44:59.78	63.17	19.27	-48.1	-59.9	3.8	8.45e-01	0	44	104	0	66	15142
2026-01-26 08:45:00.79	62.99	19.35	-48.1	-59.9	3.8	8.45e-01	0	43	104	0	66	15095
2026-01-26 08:45:01.80	62.80	19.44	-48.1	-59.9	3.8	8.46e-01	0	43	104	0	66	15137
2026-01-26 08:45:02.81	62.61	19.53	-48.1	-59.9	3.8	8.46e-01	0	43	104	0	66	15130
2026-01-26 08:45:03.82	62.43	19.61	-48.1	-59.9	3.8	8.46e-01	0	44	104	0	66	15136
2026-01-26 08:45:04.83	62.24	19.70	-48.1	-59.9	3.8	8.46e-01	0	43	104	0	66	15134
2026-01-26 08:45:05.83	62.05	19.78	-48.1	-59.9	3.8	8.45e-01	0	44	104	0	66	15136
2026-01-26 08:45:06.84	61.86	19.87	-48.1	-59.9	3.8	8.45e-01	0	44	104	0	66	15117
2026-01-26 08:45:07.85	61.67	19.95	-48.1	-59.9	3.8	8.47e-01	0	44	104	0	66	15157
2026-01-26 08:45:08.85	61.48	20.04	-48.1	-59.9	3.8	8.46e-01	0	43	104	0	66	15170
2026-01-26 08:45:09.86	61.28	20.12	-48.1	-59.9	3.8	8.47e-01	0	43	104	0	66	15151
2026-01-26 08:45:10.87	61.09	20.21	-48.1	-59.9	3.8	8.46e-01	0	44	104	0	66	15136
2026-01-26 08:45:11.88	60.89	20.29	-48.1	-59.9	3.8	8.46e-01	0	44	104	0	66	15124
2026-01-26 08:45:12.88	60.69	20.37	-48.1	-59.9	3.8	8.45e-01	0	44	104	0	66	15144
2026-01-26 08:45:13.89	60.50	20.46	-48.1	-59.9	3.8	8.46e-01	0	43	104	0	66	15127
2026-01-26 08:45:14.90	60.30	20.54	-48.1	-59.9	3.8	8.46e-01	0	43	104	0	66	15132
2026-01-26 08:45:15.91	60.10	20.63	-48.1	-59.9	3.8	8.46e-01	0	44	104	0	66	15103
2026-01-26 08:45:16.92	59.89	20.71	-48.1	-59.9	3.8	8.46e-01	0	44	104	0	66	15136
2026-01-26 08:45:17.93	59.69	20.80	-48.1	-59.9	3.8	8.47e-01	0	44	104	0	66	15123
2026-01-26 08:45:18.94	59.49	20.88	-48.1	-59.9	3.8	8.47e-01	0	44	104	0	66	15122
2026-01-26 08:45:19.94	59.28	20.97	-48.1	-59.9	3.8	8.46e-01	0	43	104	0	66	15129
2026-01-26 08:45:20.95	59.08	21.05	-48.1	-59.9	3.8	8.46e-01	0	44	104	0	66	15138
2026-01-26 08:45:21.96	58.87	21.13	-48.1	-59.9	3.8	8.48e-01	0	44	104	0	66	15124
2026-01-26 08:45:22.97	58.66	21.22	-48.1	-59.9	3.8	8.46e-01	0	43	104	0	66	15154
2026-01-26 08:45:23.98	58.45	21.30	-48.1	-59.9	3.8	8.46e-01	0	43	104	0	66	15150
2026-01-26 08:45:24.98	58.24	21.38	-48.1	-59.9	3.8	8.47e-01	0	44	104	0	66	15157
2026-01-26 08:45:25.99	58.03	21.47	-48.1	-59.9	3.8	8.47e-01	0	43	104	0	66	15151
2026-01-26 08:45:27.00	57.82	21.55	-48.1	-59.9	3.8	8.47e-01	0	44	104	0	66	15115
2026-01-26 08:45:28.01	57.60	21.63	-48.1	-59.9	3.8	8.46e-01	0	43	104	0	66	15133
2026-01-26 08:45:29.01	57.39	21.72	-48.1	-59.9	3.8	8.46e-01	0	44	104	0	66	15148
2026-01-26 08:45:30.02	57.17	21.80	-48.1	-59.9	3.8	8.45e-01	0	44	104	0	66	15145
2026-01-26 08:45:31.03	56.96	21.88	-48.1	-59.9	3.8	8.46e-01	0	43	104	0	66	15105
2026-01-26 08:45:32.04	56.74	21.96	-48.1	-59.9	3.8	8.46e-01	0	44	104	0	66	15178
2026-01-26 08:45:33.04	56.52	22.05	-48.1	-59.9	3.8	8.45e-01	0	44	104	0	66	15124
2026-01-26 08:45:34.05	56.30	22.13	-48.1	-59.9	3.8	8.46e-01	0	44	104	0	66	15182
2026-01-26 08:45:35.06	56.07	22.21	-48.1	-59.9	3.8	8.46e-01	0	43	104	0	66	15099
2026-01-26 08:45:36.07	55.85	22.29	-48.1	-59.9	3.8	8.46e-01	0	43	104	0	66	15125
2026-01-26 08:45:37.07	55.63	22.37	-48.1	-59.9	3.8	8.45e-01	0	43	104	0	66	15137
2026-01-26 08:45:38.08	55.40	22.45	-48.1	-59.9	3.8	8.46e-01	0	43	104	0	66	15174
2026-01-26 08:45:39.09	55.17	22.54	-48.1	-59.9	3.8	8.45e-01	0	43	104	0	66	15123
2026-01-26 08:45:40.10	54.95	22.62	-48.1	-59.9	3.8	8.45e-01	0	43	104	0	66	15112
2026-01-26 08:45:41.11	54.72	22.70	-48.1	-59.9	3.8	8.47e-01	0	44	104	0	66	15181
2026-01-26 08:45:42.12	54.48	22.78	-48.1	-59.9	3.8	8.46e-01	0	43	104	0	66	15107
2026-01-26 08:45:43.13	54.25	22.86	-48.1	-59.9	3.8	8.45e-01	0	43	104	0	66	15110
2026-01-26 08:45:44.13	54.02	22.94	-48.1	-59.9	3.8	8.47e-01	0	43	104	0	66	15105
2026-01-26 08:45:45.14	53.79	23.02	-48.0	-59.9	3.8	8.47e-01	0	44	104	0	66	15088
2026-01-26 08:45:46.14	53.55	23.09	-48.1	-59.9	3.8	8.47e-01	0	44	104	0	66	15111
2026-01-26 08:45:47.15	53.32	23.17	-48.1	-59.9	3.8	8.47e-01	0	44	104	0	66	15147
2026-01-26 08:45:48.16	53.08	23.25	-48.1	-59.9	3.8	8.47e-01	0	44	104	0	66	15175
2026-01-26 08:45:49.17	52.84	23.33	-48.1	-59.9	3.8	8.47e-01	0	44	104	0	66	15108
2026-01-26 08:45:50.17	52.60	23.41	-48.1	-59.9	3.8	8.47e-01	0	44	104	0	66	15162
2026-01-26 08:45:51.18	52.36	23.49	-48.1	-59.9	3.8	8.46e-01	0	44	104	0	66	15151
2026-01-26 08:45:52.19	52.12	23.56	-48.1	-59.9	3.8	8.47e-01	0	43	104	0	66	15159
2026-01-26 08:45:53.20	51.87	23.64	-48.1	-59.9	3.8	8.46e-01	0	43	104	0	66	15133
2026-01-26 08:45:54.21	51.63	23.72	-48.1	-59.9	3.8	8.46e-01	0	44	104	0	66	15157
2026-01-26 08:45:55.21	51.38	23.79	-48.1	-59.9	3.8	8.48e-01	0	44	104	0	66	15156
2026-01-26 08:45:56.22	51.13	23.87	-48.1	-59.9	3.8	8.46e-01	0	44	104	0	66	15113
2026-01-26 08:45:57.23	50.89	23.94	-48.1	-59.9	3.8	8.45e-01	0	43	104	0	66	15123
2026-01-26 08:45:58.23	50.64	24.02	-48.1	-59.9	3.8	8.45e-01	0	44	104	0	66	15156
2026-01-26 08:45:59.24	50.39	24.09	-48.1	-59.9	3.8	8.46e-01	0	44	104	0	66	15142
2026-01-26 08:46:00.25	50.13	24.17	-48.1	-59.9	3.8	8.46e-01	0	44	104	0	66	15166
2026-01-26 08:46:01.26	49.88	24.24	-48.1	-59.9	3.8	8.45e-01	0	44	104	0	66	15112
2026-01-26 08:46:02.26	49.63	24.32	-48.1	-59.9	3.8	8.46e-01	0	44	104	0	66	15125
2026-01-26 08:46:03.27	49.37	24.39	-48.1	-59.9	3.8	8.48e-01	0	44	104	0	66	15134
2026-01-26 08:46:04.28	49.11	24.46	-48.1	-59.9	3.8	8.46e-01	0	44	104	0	66	15129
2026-01-26 08:46:05.29	48.85	24.54	-48.1	-59.9	3.8	8.45e-01	0	44	104	0	66	15197
2026-01-26 08:46:06.30	48.59	24.61	-48.1	-59.9	3.8	8.46e-01	0	44	104	0	66	15123
2026-01-26 08:46:07.30	48.34	24.68	-48.1	-59.9	3.8	8.46e-01	0	43	104	0	66	15140
2026-01-26 08:46:08.31	48.07	24.75	-48.1	-59.9	3.8	8.47e-01	0	44	104	0	66	15130
2026-01-26 08:46:09.32	47.81	24.82	-48.1	-59.9	3.8	8.47e-01	0	44	104	0	66	15111
2026-01-26 08:46:10.33	47.55	24.89	-48.1	-59.9	3.8	8.46e-01	0	44	104	0	66	15128
2026-01-26 08:46:11.33	47.28	24.96	-48.1	-59.9	3.8	8.46e-01	0	44	104	0	66	15124
2026-01-26 08:46:12.34	47.02	25.03	-48.1	-59.9	3.8	8.46e-01	0	44	104	0	66	15152
2026-01-26 08:46:13.35	46.75	25.10	-48.1	-59.9	3.8	8.47e-01	0	44	104	0	66	15160
2026-01-26 08:46:14.35	46.48	25.17	-48.1	-59.9	3.8	8.47e-01	0	44	104	0	66	15103
2026-01-26 08:46:15.36	46.21	25.23	-48.1	-59.9	3.8	8.46e-01	0	44	104	0	66	15082
2026-01-26 08:46:16.37	45.94	25.30	-48.1	-59.9	3.8	8.45e-01	0	44	104	0	66	15142
2026-01-26 08:46:17.38	45.67	25.37	-48.1	-59.9	3.8	8.45e-01	0	43	104	0	66	15128
2026-01-26 08:46:18.38	45.39	25.43	-48.1	-59.9	3.8	8.46e-01	0	43	104	0	66	15141
2026-01-26 08:46:19.39	45.12	25.50	-48.1	-59.9	3.8	8.45e-01	0	44	104	0	66	15146
2026-01-26 08:46:20.40	44.84	25.56	-48.1	-59.9	3.8	8.47e-01	0	43	104	0	66	15129
2026-01-26 08:46:21.40	44.57	25.63	-48.1	-59.9	3.8	8.46e-01	0	44	104	0	66	15142
2026-01-26 08:46:22.41	44.29	25.69	-48.1	-59.9	3.8	8.47e-01	0	44	104	0	66	15127
2026-01-26 08:46:23.41	44.01	25.75	-48.1	-59.9	3.8	8.45e-01	0	44	104	0	66	15131
2026-01-26 08:46:24.42	43.73	25.82	-48.1	-59.9	3.8	8.48e-01	0	44	104	0	66	15119
2026-01-26 08:46:25.43	43.45	25.88	-48.1	-59.9	3.8	8.46e-01	0	44	104	0	66	15096
2026-01-26 08:46:26.44	43.17	25.94	-48.1	-59.9	3.8	8.46e-01	0	44	104	0	66	15093
2026-01-26 08:46:27.45	42.88	26.00	-48.1	-59.9	3.8	8.47e-01	0	44	104	0	66	15150
2026-01-26 08:46:28.46	42.60	26.06	-48.1	-59.9	3.8	8.45e-01	0	44	104	0	66	15137
2026-01-26 08:46:29.47	42.31	26.12	-48.1	-59.9	3.8	8.47e-01	0	44	104	0	66	15144
2026-01-26 08:46:30.47	42.03	26.18	-48.1	-59.9	3.8	8.46e-01	0	44	104	0	66	15121
2026-01-26 08:46:31.48	41.74	26.24	-48.1	-59.9	3.8	8.46e-01	0	43	104	0	66	15160
2026-01-26 08:46:32.49	41.45	26.29	-48.1	-59.9	3.8	8.46e-01	0	43	104	0	66	15168
2026-01-26 08:46:33.50	41.16	26.35	-48.1	-59.9	3.8	8.45e-01	0	44	104	0	66	15136
2026-01-26 08:46:34.51	40.87	26.41	-48.1	-59.9	3.8	8.47e-01	0	44	104	0	66	15162
2026-01-26 08:46:35.51	40.58	26.46	-48.1	-59.9	3.8	8.47e-01	0	43	104	0	66	15134
2026-01-26 08:46:36.52	40.28	26.52	-48.1	-59.9	3.8	8.46e-01	0	44	104	0	66	15153
2026-01-26 08:46:37.54	39.99	26.57	-48.1	-59.9	3.8	8.46e-01	0	44	104	0	66	15150
2026-01-26 08:46:38.54	39.69	26.62	-48.1	-59.9	3.8	8.46e-01	0	44	104	0	66	15113
2026-01-26 08:46:39.55	39.40	26.68	-48.1	-59.9	3.8	8.47e-01	0	44	104	0	66	15117
2026-01-26 08:46:40.56	39.10	26.73	-48.1	-59.9	3.8	8.46e-01	0	44	104	0	66	15127
2026-01-26 08:46:41.57	38.80	26.78	-48.1	-59.9	3.8	8.45e-01	0	44	104	0	66	15099
2026-01-26 08:46:42.58	38.50	26.83	-48.1	-59.9	3.8	8.46e-01	0	43	104	0	66	15116
2026-01-26 08:46:43.59	38.20	26.88	-48.1	-59.9	3.8	8.47e-01	0	44	104	0	66	15113
2026-01-26 08:46:44.60	37.90	26.93	-48.1	-59.9	3.8	8.46e-01	0	44	104	0	66	15147
2026-01-26 08:46:45.60	37.60	26.97	-48.1	-59.9	3.8	8.46e-01	0	44	104	0	66	15117
2026-01-26 08:46:46.61	37.30	27.02	-48.1	-59.9	3.8	8.45e-01	0	44	104	0	66	15128
2026-01-26 08:46:47.62	36.99	27.07	-48.1	-59.9	3.8	8.45e-01	0	44	104	0	66	15136
2026-01-26 08:46:48.63	36.69	27.11	-48.1	-59.9	3.8	8.47e-01	0	44	104	0	66	15101
2026-01-26 08:46:49.63	36.38	27.16	-48.1	-59.9	3.8	8.47e-01	0	44	104	0	66	15144
2026-01-26 08:46:50.64	36.08	27.20	-48.1	-59.9	3.8	8.46e-01	0	43	104	0	66	15154
2026-01-26 08:46:51.65	35.77	27.24	-48.1	-59.9	3.8	8.46e-01	0	44	104	0	66	15121
2026-01-26 08:46:52.66	35.46	27.29	-48.1	-59.9	3.8	8.47e-01	0	44	104	0	66	15112
2026-01-26 08:46:53.67	35.15	27.33	-48.1	-59.9	3.8	8.46e-01	0	44	104	0	66	15134
2026-01-26 08:46:54.67	34.85	27.37	-48.1	-59.9	3.8	8.47e-01	0	44	104	0	66	15129
2026-01-26 08:46:55.68	34.53	27.41	-48.1	-59.9	3.8	8.47e-01	0	44	104	0	66	15106
2026-01-26 08:46:56.69	34.22	27.44	-48.1	-59.9	3.8	8.47e-01	0	44	104	0	66	15138
2026-01-26 08:46:57.69	33.91	27.48	-48.1	-59.9	3.8	8.46e-01	0	44	104	0	66	15151
2026-01-26 08:46:58.70	33.60	27.52	-48.1	-59.9	3.8	8.46e-01	0	44	104	0	66	15109
2026-01-26 08:46:59.71	33.29	27.55	-48.1	-59.9	3.8	8.46e-01	0	44	104	0	66	15118
2026-01-26 08:47:00.71	32.98	27.59	-48.1	-59.9	3.8	8.47e-01	0	44	104	0	66	15141
2026-01-26 08:47:01.72	32.66	27.62	-48.1	-59.9	3.8	8.45e-01	0	44	104	0	66	15139
2026-01-26 08:47:02.73	32.35	27.66	-48.1	-59.9	3.8	8.47e-01	0	44	104	0	66	15102
2026-01-26 08:47:03.74	32.03	27.69	-48.1	-59.9	3.8	8.46e-01	0	44	104	0	66	15127
2026-01-26 08:47:04.75	31.71	27.72	-48.1	-59.9	3.8	8.45e-01	0	44	104	0	66	15064
2026-01-26 08:47:05.76	31.39	27.75	-48.1	-59.9	3.8	8.47e-01	0	44	104	0	66	15111
2026-01-26 08:47:06.77	31.08	27.78	-48.1	-59.9	3.8	8.45e-01	0	44	104	0	66	15082
2026-01-26 08:47:07.77	30.76	27.81	-48.1	-59.9	3.8	8.46e-01	0	44	104	0	66	15127
2026-01-26 08:47:08.78	30.44	27.83	-48.1	-59.9	3.8	8.46e-01	0	44	104	0	66	15153
2026-01-26 08:47:09.79	30.12	27.86	-48.1	-59.9	3.8	8.46e-01	0	44	104	0	66	15086
2026-01-26 08:47:10.80	29.80	27.89	-48.1	-59.9	3.8	8.47e-01	0	44	104	0	66	15093
2026-01-26 08:47:11.81	29.48	27.91	-48.1	-59.9	3.8	8.46e-01	0	44	104	0	66	15137
2026-01-26 08:47:12.82	29.16	27.93	-48.1	-59.9	3.8	8.47e-01	0	44	104	0	66	15167
2026-01-26 08:47:13.83	28.84	27.96	-48.1	-59.9	3.8	8.46e-01	0	44	104	0	66	15125
2026-01-26 08:47:14.83	28.52	27.98	-48.1	-59.9	3.8	8.46e-01	0	44	104	0	66	15108
2026-01-26 08:47:15.84	28.19	28.00	-48.1	-59.9	3.8	8.47e-01	0	44	104	0	66	15128
2026-01-26 08:47:16.84	27.88	28.02	-48.1	-59.9	3.8	8.46e-01	0	43	104	0	66	15154
2026-01-26 08:47:17.85	27.55	28.04	-48.1	-59.9	3.8	8.46e-01	0	44	104	0	66	15153
2026-01-26 08:47:18.86	27.23	28.06	-48.1	-59.9	3.8	8.46e-01	0	43	104	0	66	15139
2026-01-26 08:47:19.87	26.90	28.07	-48.1	-59.9	3.8	8.47e-01	0	44	104	0	66	15100
2026-01-26 08:47:20.88	26.58	28.09	-48.1	-59.9	3.8	8.45e-01	0	44	104	0	66	15158
2026-01-26 08:47:21.88	26.26	28.10	-48.1	-59.9	3.8	8.47e-01	0	44	104	0	66	15155
2026-01-26 08:47:22.89	25.93	28.12	-48.1	-59.9	3.8	8.47e-01	0	44	104	0	66	15094
2026-01-26 08:47:23.90	25.61	28.13	-48.1	-59.9	3.8	8.45e-01	0	44	104	0	66	15116
2026-01-26 08:47:24.91	25.28	28.14	-48.1	-59.9	3.8	8.45e-01	0	44	104	0	66	15112
2026-01-26 08:47:25.92	24.96	28.15	-48.1	-59.9	3.8	8.46e-01	0	44	104	0	66	15137
2026-01-26 08:47:26.93	24.63	28.16	-48.1	-59.9	3.8	8.45e-01	0	44	104	0	66	15114
2026-01-26 08:47:27.94	24.30	28.17	-48.1	-59.9	3.8	8.46e-01	0	44	104	0	66	15145
2026-01-26 08:47:28.95	23.98	28.18	-48.1	-59.9	3.8	8.47e-01	0	44	104	0	66	15138
2026-01-26 08:47:29.96	23.65	28.18	-48.1	-59.9	3.8	8.46e-01	0	44	104	0	66	15138
2026-01-26 08:47:30.97	23.32	28.19	-48.1	-59.9	3.8	8.46e-01	0	44	104	0	66	15097
2026-01-26 08:47:31.98	23.00	28.19	-48.1	-59.9	3.8	8.47e-01	0	44	104	0	66	15114
2026-01-26 08:47:32.98	22.67	28.19	-48.1	-59.9	3.8	8.46e-01	0	44	104	0	66	15144
2026-01-26 08:47:33.99	22.35	28.20	-48.1	-59.9	3.8	8.46e-01	0	44	104	0	66	15191
2026-01-26 08:47:35.00	22.02	28.20	-48.1	-59.9	3.8	8.46e-01	0	44	104	0	66	15109
2026-01-26 08:47:36.01	21.69	28.20	-48.1	-59.9	3.8	8.46e-01	0	43	104	0	66	15176
2026-01-26 08:47:37.01	21.37	28.20	-48.1	-59.9	3.8	8.46e-01	0	44	104	0	66	15133
2026-01-26 08:47:38.02	21.04	28.20	-48.1	-59.9	3.8	8.46e-01	0	44	104	0	66	15115
2026-01-26 08:47:39.02	20.72	28.19	-48.1	-59.9	3.8	8.47e-01	0	44	104	0	66	15150
2026-01-26 08:47:40.03	20.39	28.19	-48.1	-59.9	3.8	8.45e-01	0	44	104	0	66	15127
2026-01-26 08:47:41.04	20.06	28.18	-48.1	-59.9	3.8	8.46e-01	0	44	104	0	66	15122
2026-01-26 08:47:42.05	19.74	28.18	-48.1	-59.9	3.8	8.46e-01	0	44	104	0	66	15103
2026-01-26 08:47:43.06	19.41	28.17	-48.1	-59.9	3.8	8.46e-01	0	44	104	0	66	15168
2026-01-26 08:47:44.07	19.08	28.16	-48.1	-59.9	3.8	8.46e-01	0	44	104	0	66	15115
2026-01-26 08:47:45.08	18.76	28.15	-48.1	-59.9	3.8	8.46e-01	0	44	104	0	66	15084
2026-01-26 08:47:46.08	18.44	28.14	-48.1	-59.9	3.8	8.45e-01	0	44	104	0	66	15134
2026-01-26 08:47:47.09	18.11	28.13	-48.1	-59.9	3.8	8.45e-01	0	43	104	0	66	15139
2026-01-26 08:47:48.10	17.79	28.12	-48.1	-59.9	3.8	8.45e-01	0	43	104	0	66	15160
2026-01-26 08:47:49.11	17.46	28.11	-48.1	-59.9	3.8	8.45e-01	0	44	104	0	66	15126
2026-01-26 08:47:50.11	17.14	28.09	-48.1	-59.9	3.8	8.46e-01	0	44	104	0	66	15125
2026-01-26 08:47:51.12	16.81	28.08	-48.1	-59.9	3.8	8.46e-01	0	44	104	0	66	15138
2026-01-26 08:47:52.13	16.49	28.06	-48.1	-59.9	3.8	8.46e-01	0	44	104	0	66	15097
2026-01-26 08:47:53.14	16.17	28.04	-48.1	-59.9	3.8	8.47e-01	0	44	104	0	66	15130
2026-01-26 08:47:54.15	15.84	28.03	-48.1	-59.9	3.8	8.45e-01	0	44	104	0	66	15115
2026-01-26 08:47:55.15	15.52	28.01	-48.1	-59.9	3.8	8.46e-01	0	44	104	0	66	15151
2026-01-26 08:47:56.16	15.20	27.99	-48.1	-59.9	3.8	8.47e-01	0	43	104	0	66	15147
2026-01-26 08:47:57.17	14.88	27.96	-48.1	-59.9	3.8	8.46e-01	0	44	104	0	66	15155
2026-01-26 08:47:58.19	14.55	27.94	-48.1	-59.9	3.8	8.45e-01	0	44	104	0	66	15113
2026-01-26 08:47:59.19	14.23	27.92	-48.1	-59.9	3.8	8.45e-01	0	44	104	0	66	15139
2026-01-26 08:48:00.20	13.91	27.89	-48.1	-59.9	3.8	8.47e-01	0	44	104	0	66	15126
2026-01-26 08:48:01.21	13.59	27.87	-48.1	-59.9	3.8	8.45e-01	0	44	104	0	66	15115
2026-01-26 08:48:02.22	13.27	27.84	-48.1	-59.9	3.8	8.46e-01	0	43	104	0	66	15150
2026-01-26 08:48:03.23	12.95	27.82	-48.1	-59.9	3.8	8.47e-01	0	43	104	0	66	15118
2026-01-26 08:48:04.24	12.63	27.79	-48.1	-59.9	3.8	8.46e-01	0	44	104	0	66	15148
2026-01-26 08:48:05.24	12.32	27.76	-48.1	-59.9	3.8	8.47e-01	0	44	104	0	66	15116
2026-01-26 08:48:06.25	12.00	27.73	-48.0	-59.9	3.8	8.45e-01	0	44	104	0	66	15112
2026-01-26 08:48:07.26	11.68	27.70	-48.1	-59.9	3.8	8.45e-01	0	44	104	0	66	15155
2026-01-26 08:48:08.27	11.37	27.67	-48.1	-59.9	3.8	8.47e-01	0	43	104	0	66	15108
2026-01-26 08:48:09.28	11.05	27.63	-48.1	-59.9	3.8	8.46e-01	0	44	104	0	66	15165
2026-01-26 08:48:10.29	10.74	27.60	-48.1	-59.9	3.8	8.47e-01	0	44	104	0	66	15145
2026-01-26 08:48:11.30	10.42	27.56	-48.1	-59.9	3.8	8.46e-01	0	44	104	0	66	15132
2026-01-26 08:48:12.31	10.11	27.53	-48.1	-59.9	3.8	8.46e-01	0	44	104	0	66	15150
2026-01-26 08:48:13.32	9.80	27.49	-48.1	-59.9	3.8	8.48e-01	0	44	104	0	66	15127
2026-01-26 08:48:14.33	9.48	27.46	-48.1	-59.9	3.8	8.46e-01	0	43	104	0	66	15137
2026-01-26 08:48:15.33	9.18	27.42	-48.1	-59.9	3.8	8.46e-01	0	44	104	0	66	15143
2026-01-26 08:48:16.34	8.86	27.38	-48.1	-59.9	3.8	8.47e-01	0	44	104	0	66	15147
2026-01-26 08:48:17.35	8.55	27.34	-48.1	-59.9	3.8	8.47e-01	0	44	104	0	66	15116
2026-01-26 08:48:18.35	8.25	27.30	-48.1	-59.9	3.8	8.45e-01	0	44	104	0	66	15131
2026-01-26 08:48:19.36	7.94	27.26	-48.1	-59.9	3.8	8.47e-01	0	44	104	0	66	15139
2026-01-26 08:48:20.36	7.64	27.21	-48.1	-59.9	3.8	8.45e-01	0	44	104	0	66	15156
2026-01-26 08:48:21.37	7.33	27.17	-48.1	-59.9	3.8	8.46e-01	0	44	104	0	66	15140
2026-01-26 08:48:22.38	7.02	27.13	-48.1	-59.9	3.8	8.45e-01	0	44	104	0	66	15152
2026-01-26 08:48:23.39	6.72	27.08	-48.1	-59.9	3.8	8.47e-01	0	44	104	0	66	15128
2026-01-26 08:48:24.40	6.41	27.04	-48.1	-59.9	3.8	8.47e-01	0	44	104	0	66	15195
2026-01-26 08:48:25.41	6.11	26.99	-48.1	-59.9	3.8	8.46e-01	0	44	104	0	66	15124
2026-01-26 08:48:26.41	5.81	26.94	-48.1	-59.9	3.8	8.47e-01	0	44	104	0	66	15132
2026-01-26 08:48:27.42	5.51	26.89	-48.1	-59.9	3.8	8.46e-01	0	44	104	0	66	15131
2026-01-26 08:48:28.42	5.21	26.84	-48.1	-59.9	3.8	8.46e-01	0	44	104	0	66	15113
2026-01-26 08:48:29.43	4.91	26.79	-48.1	-59.9	3.8	8.46e-01	0	44	104	0	66	15120
2026-01-26 08:48:30.44	4.61	26.74	-48.1	-59.9	3.8	8.45e-01	0	44	104	0	66	15128
2026-01-26 08:48:31.45	4.32	26.69	-48.1	-59.9	3.8	8.46e-01	0	44	104	0	66	15201
2026-01-26 08:48:32.45	4.02	26.64	-48.1	-59.9	3.8	8.47e-01	0	44	104	0	66	15118
2026-01-26 08:48:33.47	3.72	26.59	-48.1	-59.9	3.8	8.47e-01	0	44	104	0	66	15145
2026-01-26 08:48:34.47	3.43	26.53	-48.1	-59.9	3.8	8.45e-01	0	44	104	0	66	15150
2026-01-26 08:48:35.48	3.14	26.48	-48.1	-59.9	3.8	8.48e-01	0	44	104	0	66	15158
2026-01-26 08:48:36.48	2.85	26.43	-48.1	-59.9	3.8	8.46e-01	0	44	104	0	66	15177
2026-01-26 08:48:37.49	2.56	26.37	-48.1	-59.9	3.8	8.45e-01	0	44	104	0	66	15083
2026-01-26 08:48:38.49	2.27	26.31	-48.1	-59.9	3.8	8.46e-01	0	44	104	0	66	15112
2026-01-26 08:48:39.50	1.98	26.26	-48.1	-59.9	3.8	8.46e-01	0	44	104	0	66	15103
2026-01-26 08:48:40.51	1.69	26.20	-48.1	-59.9	3.8	8.47e-01	0	43	104	0	66	15129
2026-01-26 08:48:41.52	1.40	26.14	-48.0	-59.9	3.8	8.46e-01	0	44	104	0	66	15159
2026-01-26 08:48:42.53	1.12	26.08	-48.1	-59.9	3.8	8.46e-01	0	44	104	0	66	15151
2026-01-26 08:48:43.53	0.83	26.02	-48.1	-59.9	3.8	8.45e-01	0	44	104	0	66	15135
2026-01-26 08:48:44.54	0.55	25.96	-48.1	-59.9	3.8	8.46e-01	0	43	104	0	66	15145
2026-01-26 08:48:45.55	0.27	25.90	-48.1	-59.9	3.8	8.46e-01	0	44	104	0	66	15137
2026-01-26 08:48:46.55	359.99	25.84	-48.1	-59.9	3.8	8.46e-01	0	44	104	0	66	15148
2026-01-26 08:48:47.56	359.71	25.78	-48.1	-59.9	3.8	8.46e-01	0	44	104	0	66	15155
2026-01-26 08:48:48.57	359.43	25.71	-48.1	-59.9	3.8	8.48e-01	0	44	104	0	66	15110
2026-01-26 08:48:49.57	359.15	25.65	-48.1	-59.9	3.8	8.47e-01	0	44	104	0	66	15153
2026-01-26 08:48:50.58	358.87	25.59	-48.1	-59.9	3.8	8.45e-01	0	44	104	0	66	15164
2026-01-26 08:48:51.59	358.60	25.52	-48.1	-59.9	3.8	8.48e-01	0	44	104	0	66	15133
2026-01-26 08:48:52.60	358.32	25.46	-48.1	-59.9	3.8	8.46e-01	0	44	104	0	66	15144
2026-01-26 08:48:53.61	358.05	25.39	-48.1	-59.9	3.8	8.45e-01	0	44	104	0	66	15151
2026-01-26 08:48:54.61	357.78	25.32	-48.1	-59.9	3.8	8.46e-01	0	43	104	0	66	15158
2026-01-26 08:48:55.62	357.51	25.26	-48.1	-59.9	3.8	8.46e-01	0	43	104	0	66	15096
2026-01-26 08:48:56.63	357.24	25.19	-48.1	-59.9	3.8	8.46e-01	0	44	104	0	66	15120
2026-01-26 08:48:57.64	356.97	25.12	-48.1	-59.9	3.8	8.46e-01	0	44	104	0	66	15144
2026-01-26 08:48:58.64	356.70	25.05	-48.1	-59.9	3.8	8.46e-01	0	44	104	0	66	15149
2026-01-26 08:48:59.65	356.43	24.99	-48.1	-59.9	3.8	8.46e-01	0	44	104	0	66	15129
2026-01-26 08:49:00.66	356.17	24.92	-48.1	-59.9	3.8	8.47e-01	0	44	104	0	66	15158
2026-01-26 08:49:01.67	355.90	24.85	-48.1	-59.9	3.8	8.45e-01	0	44	104	0	66	15141
2026-01-26 08:49:02.67	355.64	24.78	-48.1	-59.9	3.8	8.46e-01	0	43	104	0	66	15160
2026-01-26 08:49:03.68	355.38	24.70	-48.1	-59.9	3.8	8.45e-01	0	44	104	0	66	15080
2026-01-26 08:49:04.69	355.12	24.63	-48.1	-59.9	3.8	8.46e-01	0	44	104	0	66	15153
2026-01-26 08:49:05.69	354.86	24.56	-48.1	-59.9	3.8	8.45e-01	0	44	104	0	66	15136
2026-01-26 08:49:06.70	354.60	24.49	-48.1	-59.9	3.8	8.46e-01	0	44	104	0	66	15152
2026-01-26 08:49:07.71	354.34	24.42	-48.1	-59.9	3.8	8.46e-01	0	43	104	0	66	15120
2026-01-26 08:49:08.72	354.09	24.34	-48.1	-59.9	3.8	8.47e-01	0	44	104	0	66	15121
2026-01-26 08:49:09.73	353.83	24.27	-48.1	-59.9	3.8	8.46e-01	0	44	104	0	66	15160
2026-01-26 08:49:10.73	353.58	24.20	-48.1	-59.9	3.8	8.45e-01	0	43	104	0	66	15132
2026-01-26 08:49:11.74	353.33	24.12	-48.1	-59.9	3.8	8.45e-01	0	44	104	0	66	15134
2026-01-26 08:49:12.75	353.08	24.05	-48.1	-59.9	3.8	8.47e-01	0	44	104	0	66	15132
2026-01-26 08:49:13.76	352.83	23.97	-48.1	-59.9	3.8	8.47e-01	0	44	104	0	66	15127
2026-01-26 08:49:14.76	352.58	23.90	-48.1	-59.9	3.8	8.47e-01	0	44	104	0	66	15123
2026-01-26 08:49:15.77	352.33	23.82	-48.1	-59.9	3.8	8.47e-01	0	44	104	0	66	15142
2026-01-26 08:49:16.78	352.09	23.75	-48.1	-59.9	3.8	8.46e-01	0	44	104	0	66	15079
2026-01-26 08:49:17.78	351.84	23.67	-48.1	-59.9	3.8	8.45e-01	0	44	104	0	66	15141
2026-01-26 08:49:18.79	351.60	23.59	-48.1	-59.9	3.8	8.46e-01	0	44	104	0	66	15179
2026-01-26 08:49:19.80	351.35	23.52	-48.1	-59.9	3.8	8.46e-01	0	44	104	0	66	15147
2026-01-26 08:49:20.81	351.11	23.44	-48.1	-59.9	3.8	8.46e-01	0	44	104	0	66	15092
2026-01-26 08:49:21.81	350.87	23.36	-48.0	-59.9	3.8	8.46e-01	0	44	104	0	66	15156
2026-01-26 08:49:22.82	350.64	23.28	-48.1	-59.9	3.8	8.47e-01	0	44	104	0	66	15167
2026-01-26 08:49:23.83	350.40	23.20	-48.1	-59.9	3.8	8.47e-01	0	44	104	0	66	15174
2026-01-26 08:49:24.83	350.16	23.13	-48.1	-59.9	3.8	8.46e-01	0	44	104	0	66	15101
2026-01-26 08:49:25.84	349.93	23.05	-48.1	-59.9	3.8	8.46e-01	0	44	104	0	66	15158
2026-01-26 08:49:26.85	349.69	22.97	-48.1	-59.9	3.8	8.47e-01	0	44	104	0	66	15125
2026-01-26 08:49:27.86	349.46	22.89	-48.1	-59.9	3.8	8.46e-01	0	44	104	0	66	15150
2026-01-26 08:49:28.86	349.23	22.81	-48.1	-59.9	3.8	8.48e-01	0	44	104	0	66	15129
2026-01-26 08:49:29.87	349.00	22.73	-48.1	-59.9	3.8	8.46e-01	0	44	104	0	66	15131
2026-01-26 08:49:30.88	348.77	22.65	-48.1	-59.9	3.8	8.47e-01	0	44	104	0	66	15090
2026-01-26 08:49:31.89	348.54	22.57	-48.1	-59.9	3.8	8.46e-01	0	44	104	0	66	15126
2026-01-26 08:49:32.89	348.31	22.49	-48.1	-59.9	3.8	8.46e-01	0	44	104	0	66	15128
2026-01-26 08:49:33.90	348.09	22.41	-48.1	-59.9	3.8	8.47e-01	0	44	104	0	66	15127
2026-01-26 08:49:34.91	347.86	22.32	-48.1	-59.9	3.8	8.46e-01	0	44	104	0	66	15128
2026-01-26 08:49:35.92	347.64	22.24	-48.1	-59.9	3.8	8.47e-01	0	44	104	0	66	15124
2026-01-26 08:49:36.93	347.42	22.16	-48.1	-59.9	3.8	8.46e-01	0	43	104	0	66	15183
2026-01-26 08:49:37.93	347.20	22.08	-48.1	-59.9	3.8	8.47e-01	0	44	104	0	66	15159
2026-01-26 08:49:38.94	346.98	22.00	-48.1	-59.9	3.8	8.46e-01	0	44	104	0	66	15162
2026-01-26 08:49:39.95	346.76	21.92	-48.1	-59.9	3.8	8.45e-01	0	44	104	0	66	15178
2026-01-26 08:49:40.96	346.54	21.83	-48.1	-59.9	3.8	8.46e-01	0	44	104	0	66	15142
2026-01-26 08:49:41.96	346.32	21.75	-48.1	-59.9	3.8	8.47e-01	0	44	104	0	66	15150
2026-01-26 08:49:42.97	346.11	21.67	-48.1	-59.9	3.8	8.46e-01	0	44	104	0	66	15136
2026-01-26 08:49:43.98	345.89	21.59	-48.1	-59.9	3.8	8.46e-01	0	44	104	0	66	15135
2026-01-26 08:49:44.99	345.68	21.50	-48.1	-59.9	3.8	8.46e-01	0	44	104	0	66	15132
2026-01-26 08:49:45.99	345.47	21.42	-48.1	-59.9	3.8	8.46e-01	0	44	104	0	66	15157
2026-01-26 08:49:47.00	345.26	21.34	-48.1	-59.9	3.8	8.45e-01	0	44	104	0	66	15120
2026-01-26 08:49:48.01	345.05	21.25	-48.1	-59.9	3.8	8.45e-01	0	44	104	0	66	15148
2026-01-26 08:49:49.01	344.84	21.17	-48.1	-59.9	3.8	8.45e-01	0	44	104	0	66	15145
2026-01-26 08:49:50.02	344.64	21.09	-48.1	-59.9	3.8	8.46e-01	0	44	104	0	66	15163
2026-01-26 08:49:51.03	344.43	21.00	-48.1	-59.9	3.8	8.46e-01	0	44	104	0	66	15157
2026-01-26 08:49:52.04	344.23	20.92	-48.1	-59.9	3.8	8.46e-01	0	44	104	0	66	15165
2026-01-26 08:49:53.05	344.02	20.83	-48.1	-59.9	3.8	8.46e-01	0	44	104	0	66	15114
2026-01-26 08:49:54.04	343.82	20.75	-48.1	-59.9	3.8	8.45e-01	0	44	104	0	66	15139
2026-01-26 08:49:55.05	343.62	20.67	-48.1	-59.9	3.8	8.46e-01	0	44	104	0	66	15154
2026-01-26 08:49:56.06	343.42	20.58	-48.1	-59.9	3.8	8.46e-01	0	44	104	0	66	15147
2026-01-26 08:49:57.07	343.22	20.50	-48.1	-59.9	3.8	8.46e-01	0	44	104	0	66	15123
2026-01-26 08:49:58.08	343.02	20.41	-48.1	-59.9	3.8	8.46e-01	0	44	104	0	66	15120
2026-01-26 08:49:59.08	342.83	20.33	-48.1	-59.9	3.8	8.46e-01	0	44	104	0	66	15139
2026-01-26 08:50:00.09	342.63	20.24	-48.1	-59.9	3.8	8.46e-01	0	44	104	0	66	15139
2026-01-26 08:50:01.09	342.44	20.16	-48.1	-59.9	3.8	8.47e-01	0	44	104	0	66	15147
2026-01-26 08:50:02.10	342.24	20.08	-48.1	-59.9	3.8	8.44e-01	0	44	104	0	66	15146
2026-01-26 08:50:03.11	342.05	19.99	-48.1	-59.9	3.8	8.47e-01	0	44	104	0	66	15130
2026-01-26 08:50:04.12	341.86	19.91	-48.1	-59.9	3.8	8.46e-01	0	44	104	0	66	15171
2026-01-26 08:50:05.13	341.67	19.82	-48.1	-59.9	3.8	8.46e-01	0	44	104	0	66	15100
2026-01-26 08:50:06.13	341.48	19.74	-48.1	-59.9	3.8	8.46e-01	0	44	104	0	66	15149
2026-01-26 08:50:07.14	341.29	19.65	-48.1	-59.9	3.8	8.46e-01	0	44	104	0	66	15135
2026-01-26 08:50:08.15	341.10	19.57	-48.1	-59.9	3.8	8.45e-01	0	44	104	0	66	15109
2026-01-26 08:50:09.15	340.92	19.48	-48.1	-59.9	3.8	8.46e-01	0	44	104	0	66	15133
2026-01-26 08:50:10.16	340.73	19.40	-48.1	-59.9	3.8	8.45e-01	0	44	104	0	66	15159
2026-01-26 08:50:11.17	340.55	19.31	-48.1	-59.9	3.8	8.47e-01	0	44	104	0	66	15191
2026-01-26 08:50:12.17	340.37	19.23	-48.1	-59.9	3.8	8.47e-01	0	44	104	0	66	15122
2026-01-26 08:50:13.18	340.18	19.14	-48.1	-59.9	3.8	8.46e-01	0	44	104	0	66	15111
2026-01-26 08:50:14.19	340.00	19.06	-48.1	-59.9	3.8	8.46e-01	0	44	104	0	66	15150
2026-01-26 08:50:15.20	339.82	18.97	-48.1	-59.9	3.8	8.47e-01	0	44	104	0	66	15159
2026-01-26 08:50:16.20	339.64	18.89	-48.1	-59.9	3.8	8.47e-01	0	44	104	0	66	15154
2026-01-26 08:50:17.21	339.47	18.80	-48.1	-59.9	3.8	8.45e-01	0	44	104	0	66	15144
2026-01-26 08:50:18.22	339.29	18.71	-48.1	-59.9	3.8	8.46e-01	0	44	104	0	66	15137
2026-01-26 08:50:19.23	339.11	18.63	-48.1	-59.9	3.8	8.46e-01	0	44	104	0	66	15138
2026-01-26 08:50:20.24	338.94	18.54	-48.1	-59.9	3.8	8.47e-01	0	44	104	0	66	15126
2026-01-26 08:50:21.25	338.76	18.46	-48.1	-59.9	3.8	8.45e-01	0	44	104	0	66	15148
2026-01-26 08:50:22.25	338.59	18.37	-48.1	-59.9	3.8	8.47e-01	0	44	104	0	66	15145
2026-01-26 08:50:23.26	338.42	18.29	-48.1	-59.9	3.8	8.46e-01	0	44	104	0	66	15113
2026-01-26 08:50:24.27	338.25	18.20	-48.1	-59.9	3.8	8.46e-01	0	44	104	0	66	15127
2026-01-26 08:50:25.28	338.08	18.12	-48.1	-59.9	3.8	8.46e-01	0	44	104	0	66	15158
2026-01-26 08:50:26.28	337.91	18.03	-48.1	-59.9	3.8	8.46e-01	0	44	104	0	66	15118
2026-01-26 08:50:27.29	337.74	17.95	-48.1	-59.9	3.8	8.47e-01	0	44	104	0	66	15165
2026-01-26 08:50:28.30	337.57	17.86	-48.1	-59.9	3.8	8.46e-01	0	44	104	0	66	15166
2026-01-26 08:50:29.31	337.41	17.78	-48.1	-59.9	3.8	8.45e-01	0	44	104	0	66	15138
2026-01-26 08:50:30.31	337.24	17.69	-48.1	-59.9	3.8	8.47e-01	0	44	104	0	66	15142
2026-01-26 08:50:31.33	337.08	17.61	-48.1	-59.9	3.8	8.47e-01	0	44	104	0	66	15121
2026-01-26 08:50:32.34	336.91	17.52	-48.1	-59.9	3.8	8.47e-01	0	44	104	0	66	15130
2026-01-26 08:50:33.34	336.75	17.44	-48.1	-59.9	3.8	8.46e-01	0	44	104	0	66	15113
2026-01-26 08:50:34.35	336.59	17.36	-48.1	-59.9	3.8	8.46e-01	0	44	104	0	66	15110
2026-01-26 08:50:35.36	336.43	17.27	-48.1	-59.9	3.8	8.46e-01	0	44	104	0	66	15140
2026-01-26 08:50:36.36	336.27	17.19	-48.1	-59.9	3.8	8.46e-01	0	44	104	0	66	15154
2026-01-26 08:50:37.37	336.11	17.10	-48.1	-59.9	3.8	8.45e-01	0	43	104	0	66	15116
2026-01-26 08:50:38.37	335.95	17.02	-48.1	-59.9	3.8	8.45e-01	0	44	104	0	66	15112
2026-01-26 08:50:39.38	335.80	16.93	-48.0	-59.9	3.8	8.47e-01	0	44	104	0	66	15122
2026-01-26 08:50:40.39	335.64	16.85	-48.1	-59.9	3.8	8.45e-01	0	44	104	0	66	15122
2026-01-26 08:50:41.40	335.48	16.76	-48.1	-59.9	3.8	8.47e-01	0	44	104	0	66	15119
2026-01-26 08:50:42.41	335.33	16.68	-48.1	-59.9	3.8	8.46e-01	0	44	104	0	66	15111
2026-01-26 08:50:43.42	335.18	16.60	-48.1	-59.9	3.8	8.47e-01	0	44	104	0	66	15161
2026-01-26 08:50:44.43	335.02	16.51	-48.1	-59.9	3.8	8.45e-01	0	44	104	0	66	15160
2026-01-26 08:50:45.44	334.87	16.43	-48.1	-59.9	3.8	8.45e-01	0	44	104	0	66	15126
2026-01-26 08:50:46.45	334.72	16.34	-48.1	-59.9	3.8	8.46e-01	0	44	104	0	66	15132
2026-01-26 08:50:47.45	334.57	16.26	-48.1	-59.9	3.8	8.46e-01	0	44	104	0	66	15140
2026-01-26 08:50:48.46	334.42	16.18	-48.1	-59.9	3.8	8.45e-01	0	44	104	0	66	15138
2026-01-26 08:50:49.46	334.27	16.09	-48.1	-59.9	3.8	8.45e-01	0	44	104	0	66	15150
2026-01-26 08:50:50.47	334.13	16.01	-48.1	-59.9	3.8	8.46e-01	0	44	104	0	66	15155
2026-01-26 08:50:51.48	333.98	15.93	-48.1	-59.9	3.8	8.47e-01	0	44	104	0	66	15146
2026-01-26 08:50:52.49	333.83	15.84	-48.1	-59.9	3.8	8.46e-01	0	44	104	0	66	15133
2026-01-26 08:50:53.50	333.69	15.76	-48.1	-59.9	3.8	8.47e-01	0	44	104	0	66	15140
2026-01-26 08:50:54.50	333.55	15.68	-48.1	-59.9	3.8	8.47e-01	0	44	104	0	66	15102
2026-01-26 08:50:55.51	333.40	15.59	-48.1	-59.9	3.8	8.45e-01	0	44	104	0	66	15129
2026-01-26 08:50:56.52	333.26	15.51	-48.1	-59.9	3.8	8.46e-01	0	44	104	0	66	15105
2026-01-26 08:50:57.52	333.12	15.43	-48.1	-59.9	3.8	8.46e-01	0	44	104	0	66	15103
2026-01-26 08:50:58.53	332.98	15.35	-48.1	-59.9	3.8	8.46e-01	0	44	104	0	66	15120
2026-01-26 08:50:59.54	332.84	15.26	-48.1	-59.9	3.8	8.44e-01	0	44	104	0	66	15088
2026-01-26 08:51:00.55	332.70	15.18	-48.1	-59.9	3.8	8.46e-01	0	44	104	0	66	15162
2026-01-26 08:51:01.56	332.56	15.10	-48.1	-59.9	3.8	8.46e-01	0	44	104	0	66	15143
2026-01-26 08:51:02.56	332.42	15.02	-48.1	-59.9	3.8	8.47e-01	0	44	104	0	66	15081
2026-01-26 08:51:03.57	332.29	14.93	-48.1	-59.9	3.8	8.47e-01	0	44	104	0	66	15111
2026-01-26 08:51:04.57	332.15	14.85	-48.1	-59.9	3.8	8.47e-01	0	44	104	0	66	15095
2026-01-26 08:51:05.58	332.01	14.77	-48.1	-59.9	3.8	8.46e-01	0	44	104	0	66	15086
2026-01-26 08:51:06.59	331.88	14.69	-48.1	-59.9	3.8	8.47e-01	0	44	104	0	66	15135
2026-01-26 08:51:07.59	331.75	14.61	-48.1	-59.9	3.8	8.46e-01	0	44	104	0	66	15126
2026-01-26 08:51:08.60	331.61	14.53	-48.1	-59.9	3.8	8.46e-01	0	44	104	0	66	15127
2026-01-26 08:51:09.61	331.48	14.44	-48.1	-59.9	3.8	8.45e-01	0	43	104	0	66	15133
2026-01-26 08:51:10.62	331.35	14.36	-48.1	-59.9	3.8	8.46e-01	0	44	104	0	66	15122
2026-01-26 08:51:11.63	331.22	14.28	-48.1	-59.9	3.8	8.46e-01	0	43	104	0	66	15123
2026-01-26 08:51:12.64	331.09	14.20	-48.1	-59.9	3.8	8.46e-01	0	44	104	0	66	15125
2026-01-26 08:51:13.65	330.96	14.12	-48.1	-59.9	3.8	8.46e-01	0	44	104	0	66	15166
2026-01-26 08:51:14.65	330.83	14.04	-48.1	-59.9	3.8	8.47e-01	0	43	104	0	66	15069
2026-01-26 08:51:15.66	330.70	13.96	-48.1	-59.9	3.8	8.46e-01	0	44	104	0	66	15099
2026-01-26 08:51:16.67	330.57	13.88	-48.1	-59.9	3.8	8.46e-01	0	44	104	0	66	15127
2026-01-26 08:51:17.67	330.45	13.80	-48.1	-59.9	3.8	8.47e-01	0	44	104	0	66	15147
2026-01-26 08:51:18.68	330.32	13.72	-48.1	-59.9	3.8	8.47e-01	0	44	104	0	66	15104
2026-01-26 08:51:19.68	330.20	13.64	-48.1	-59.9	3.8	8.46e-01	0	43	104	0	66	15085
2026-01-26 08:51:20.69	330.07	13.56	-48.1	-59.9	3.8	8.46e-01	0	44	104	0	66	15119
2026-01-26 08:51:21.70	329.95	13.48	-48.1	-59.9	3.8	8.45e-01	0	44	104	0	66	15118
2026-01-26 08:51:22.71	329.83	13.40	-48.1	-59.9	3.8	8.46e-01	0	44	104	0	66	15132
2026-01-26 08:51:23.71	329.70	13.32	-48.1	-59.9	3.8	8.45e-01	0	44	104	0	66	15143
2026-01-26 08:51:24.72	329.58	13.24	-48.1	-59.9	3.8	8.46e-01	0	44	104	0	66	15110
2026-01-26 08:51:25.73	329.46	13.16	-48.1	-59.9	3.8	8.47e-01	0	44	104	0	66	15136
2026-01-26 08:51:26.74	329.34	13.08	-48.1	-59.9	3.8	8.47e-01	0	44	104	0	66	15128
2026-01-26 08:51:27.74	329.22	13.00	-48.1	-59.9	3.8	8.47e-01	0	44	104	0	66	15122
2026-01-26 08:51:28.75	329.10	12.92	-48.1	-59.9	3.8	8.47e-01	0	44	104	0	66	15135
2026-01-26 08:51:29.76	328.98	12.84	-48.1	-59.9	3.8	8.46e-01	0	44	104	0	66	15134
2026-01-26 08:51:30.76	328.87	12.76	-48.1	-59.9	3.8	8.47e-01	0	44	104	0	66	15132
2026-01-26 08:51:31.77	328.75	12.68	-48.1	-59.9	3.8	8.46e-01	0	44	104	0	66	15165
2026-01-26 08:51:32.77	328.63	12.61	-48.1	-59.9	3.8	8.47e-01	0	44	104	0	66	15139
2026-01-26 08:51:33.78	328.52	12.53	-48.1	-59.9	3.8	8.48e-01	0	44	104	0	66	15144
2026-01-26 08:51:34.79	328.40	12.45	-48.1	-59.9	3.8	8.46e-01	0	44	104	0	66	15136
2026-01-26 08:51:35.79	328.29	12.37	-48.1	-59.9	3.8	8.47e-01	0	44	104	0	66	15112
2026-01-26 08:51:36.80	328.17	12.29	-48.1	-59.9	3.8	8.47e-01	0	44	104	0	66	15100
2026-01-26 08:51:37.81	328.06	12.22	-48.1	-59.9	3.8	8.46e-01	0	44	104	0	66	15094
2026-01-26 08:51:38.81	327.95	12.14	-48.1	-59.9	3.8	8.47e-01	0	44	104	0	66	15110
2026-01-26 08:51:39.82	327.84	12.06	-48.1	-59.9	3.8	8.46e-01	0	44	104	0	66	15092
2026-01-26 08:51:40.83	327.72	11.98	-48.1	-59.9	3.8	8.48e-01	0	44	104	0	66	15084
2026-01-26 08:51:41.84	327.61	11.91	-48.1	-59.9	3.8	8.46e-01	0	44	104	0	66	15103
2026-01-26 08:51:42.85	327.50	11.83	-48.1	-59.9	3.8	8.47e-01	0	44	104	0	66	15113
2026-01-26 08:51:43.85	327.39	11.75	-48.1	-59.9	3.8	8.46e-01	0	44	104	0	66	15124
2026-01-26 08:51:44.86	327.28	11.67	-48.1	-59.9	3.8	8.46e-01	0	44	104	0	66	15127
2026-01-26 08:51:45.87	327.17	11.60	-48.1	-59.9	3.8	8.46e-01	0	44	104	0	66	15121
2026-01-26 08:51:46.87	327.07	11.52	-48.1	-59.9	3.8	8.45e-01	0	44	104	0	66	15110
2026-01-26 08:51:47.88	326.96	11.44	-48.1	-59.9	3.8	8.47e-01	0	44	104	0	66	15120
2026-01-26 08:51:48.89	326.85	11.37	-48.1	-59.9	3.8	8.46e-01	0	44	104	0	66	15105
2026-01-26 08:51:49.89	326.75	11.29	-48.1	-59.9	3.8	8.46e-01	0	43	104	0	66	15126
2026-01-26 08:51:50.90	326.64	11.22	-48.1	-59.9	3.8	8.46e-01	0	43	104	0	66	15078
2026-01-26 08:51:51.91	326.54	11.14	-48.1	-59.9	3.8	8.46e-01	0	44	104	0	66	15127
2026-01-26 08:51:52.92	326.43	11.06	-48.1	-59.9	3.8	8.45e-01	0	44	104	0	66	15109
2026-01-26 08:51:53.93	326.33	10.99	-48.1	-59.9	3.8	8.47e-01	0	44	104	0	66	15139
2026-01-26 08:51:54.93	326.22	10.91	-48.1	-59.9	3.8	8.45e-01	0	44	104	0	66	15105
2026-01-26 08:51:55.94	326.12	10.84	-48.1	-59.9	3.8	8.46e-01	0	44	104	0	66	15129
2026-01-26 08:51:56.95	326.02	10.76	-48.1	-59.9	3.8	8.45e-01	0	44	104	0	66	15148
2026-01-26 08:51:57.96	325.92	10.69	-48.1	-59.9	3.8	8.47e-01	0	44	104	0	66	15129
2026-01-26 08:51:58.97	325.82	10.61	-48.1	-59.9	3.8	8.46e-01	0	44	104	0	66	15131
2026-01-26 08:51:59.97	325.72	10.54	-48.1	-59.9	3.8	8.46e-01	0	44	104	0	66	15181
2026-01-26 08:52:00.98	325.62	10.46	-48.1	-59.9	3.8	8.46e-01	0	44	104	0	66	15165
2026-01-26 08:52:01.99	325.52	10.39	-48.1	-59.9	3.8	8.46e-01	0	43	104	0	66	15117
2026-01-26 08:52:02.99	325.42	10.31	-48.1	-59.9	3.8	8.46e-01	0	43	104	0	66	15165
2026-01-26 08:52:04.00	325.32	10.24	-48.1	-59.9	3.8	8.46e-01	0	44	104	0	66	15151
2026-01-26 08:52:05.01	325.22	10.17	-48.1	-59.9	3.8	8.45e-01	0	44	104	0	66	15139
2026-01-26 08:52:06.01	325.12	10.09	-48.1	-59.9	3.8	8.45e-01	0	44	104	0	66	15137
2026-01-26 08:52:07.02	325.03	10.02	-48.1	-59.9	3.8	8.46e-01	0	44	104	0	66	15148
2026-01-26 08:52:08.03	324.93	9.94	-48.1	-59.9	3.8	8.47e-01	0	44	104	0	66	15139
2026-01-26 08:52:09.04	324.83	9.87	-48.1	-59.9	3.8	8.46e-01	0	44	104	0	66	15127
2026-01-26 08:52:10.05	324.74	9.80	-48.1	-59.9	3.8	8.45e-01	0	44	104	0	66	15126
2026-01-26 08:52:11.05	324.64	9.72	-48.1	-59.9	3.8	8.47e-01	0	44	104	0	66	15116
2026-01-26 08:52:12.06	324.55	9.65	-48.1	-59.9	3.8	8.46e-01	0	43	104	0	66	15145
2026-01-26 08:52:13.06	324.45	9.58	-48.1	-59.9	3.8	8.46e-01	0	44	104	0	66	15119
2026-01-26 08:52:14.07	324.36	9.50	-48.1	-59.9	3.8	8.46e-01	0	44	104	0	66	15150
2026-01-26 08:52:15.08	324.27	9.43	-48.1	-59.9	3.8	8.46e-01	0	44	104	0	66	15082
2026-01-26 08:52:16.09	324.17	9.36	-48.1	-59.9	3.8	8.46e-01	0	44	104	0	66	15110
2026-01-26 08:52:17.10	324.08	9.29	-48.1	-59.9	3.8	8.46e-01	0	44	104	0	66	15184
2026-01-26 08:52:18.11	323.99	9.21	-48.1	-59.9	3.8	8.45e-01	0	44	104	0	66	15107
2026-01-26 08:52:19.11	323.90	9.14	-48.1	-59.9	3.8	8.47e-01	0	44	104	0	66	15104
2026-01-26 08:52:20.12	323.81	9.07	-48.1	-59.9	3.8	8.46e-01	0	44	104	0	66	15121
2026-01-26 08:52:21.13	323.72	9.00	-48.1	-59.9	3.8	8.47e-01	0	44	104	0	66	15110
2026-01-26 08:52:22.14	323.63	8.93	-48.1	-59.9	3.8	8.47e-01	0	44	104	0	66	15145
2026-01-26 08:52:23.15	323.54	8.85	-48.1	-59.9	3.8	8.48e-01	0	44	104	0	66	15109
2026-01-26 08:52:24.16	323.45	8.78	-48.1	-59.9	3.8	8.48e-01	0	44	104	0	66	15134
2026-01-26 08:52:25.17	323.36	8.71	-48.1	-59.9	3.8	8.45e-01	0	44	104	0	66	15144
2026-01-26 08:52:26.18	323.27	8.64	-48.1	-59.9	3.8	8.47e-01	0	44	104	0	66	15145
2026-01-26 08:52:27.19	323.18	8.57	-48.1	-59.9	3.8	8.47e-01	0	44	104	0	66	15133
2026-01-26 08:52:28.19	323.10	8.50	-48.1	-59.9	3.8	8.44e-01	0	44	104	0	66	15125
2026-01-26 08:52:29.20	323.01	8.43	-48.1	-59.9	3.8	8.46e-01	0	44	104	0	66	15138
2026-01-26 08:52:30.21	322.92	8.36	-48.1	-59.9	3.8	8.47e-01	0	44	104	0	66	15061
2026-01-26 08:52:31.21	322.84	8.29	-48.1	-59.9	3.8	8.47e-01	0	44	104	0	66	15107
2026-01-26 08:52:32.22	322.75	8.22	-48.1	-59.9	3.8	8.47e-01	0	44	104	0	66	15075
2026-01-26 08:52:33.23	322.67	8.14	-48.1	-59.9	3.8	8.46e-01	0	44	104	0	66	15107
2026-01-26 08:52:34.24	322.58	8.07	-48.1	-59.9	3.8	8.46e-01	0	44	104	0	66	15087
2026-01-26 08:52:35.25	322.50	8.00	-48.1	-59.9	3.8	8.46e-01	0	44	104	0	66	15052
2026-01-26 08:52:36.25	322.42	7.93	-48.1	-59.9	3.8	8.47e-01	0	44	104	0	66	15080
2026-01-26 08:52:37.26	322.33	7.86	-48.0	-59.9	3.8	8.46e-01	0	44	104	0	66	15062
2026-01-26 08:52:38.27	322.25	7.79	-48.1	-59.9	3.8	8.46e-01	0	43	104	0	66	15061
2026-01-26 08:52:39.28	322.17	7.73	-48.1	-59.9	3.8	8.46e-01	0	44	104	0	66	15108
2026-01-26 08:52:40.29	322.09	7.66	-48.1	-59.9	3.8	8.45e-01	0	44	104	0	66	15076
2026-01-26 08:52:41.29	322.00	7.59	-48.1	-59.9	3.8	8.47e-01	0	44	104	0	66	15056
2026-01-26 08:52:42.30	321.92	7.52	-48.1	-59.8	3.8	8.46e-01	0	44	104	0	66	15002
2026-01-26 08:52:43.30	321.84	7.45	-48.1	-59.8	3.8	8.45e-01	0	44	104	0	66	15041
2026-01-26 08:52:44.31	321.76	7.38	-48.1	-59.8	3.8	8.48e-01	0	44	104	0	66	14959
2026-01-26 08:52:45.32	321.68	7.31	-48.1	-59.9	3.8	8.46e-01	0	44	104	0	66	15055
2026-01-26 08:52:46.33	321.60	7.24	-48.1	-59.9	3.8	8.46e-01	0	43	104	0	66	15073
2026-01-26 08:52:47.33	321.52	7.17	-48.1	-59.9	3.8	8.45e-01	0	44	104	0	66	15106
2026-01-26 08:52:48.34	321.44	7.11	-48.1	-59.9	3.8	8.45e-01	0	44	104	0	66	15059
2026-01-26 08:52:49.35	321.37	7.04	-48.1	-59.8	3.8	8.46e-01	0	44	104	0	66	15017
2026-01-26 08:52:50.36	321.29	6.97	-48.1	-59.8	3.8	8.47e-01	0	44	104	0	66	14943
2026-01-26 08:52:51.37	321.21	6.90	-48.1	-59.9	3.8	8.45e-01	0	44	104	0	66	15055
2026-01-26 08:52:52.38	321.13	6.83	-48.1	-59.9	3.8	8.46e-01	0	44	104	0	66	15093
2026-01-26 08:52:53.39	321.06	6.77	-48.1	-59.9	3.8	8.47e-01	0	44	104	0	66	15116
2026-01-26 08:52:54.39	320.98	6.70	-48.1	-59.9	3.8	8.47e-01	0	44	104	0	66	15137
2026-01-26 08:52:55.41	320.90	6.63	-48.1	-59.9	3.8	8.46e-01	0	44	104	0	66	15151
2026-01-26 08:52:56.41	320.83	6.56	-48.1	-59.9	3.8	8.47e-01	0	44	104	0	66	15128
2026-01-26 08:52:57.42	320.75	6.50	-48.1	-59.9	3.8	8.46e-01	0	44	104	0	66	15165
2026-01-26 08:52:58.43	320.68	6.43	-48.1	-59.9	3.8	8.45e-01	0	44	104	0	66	15117
2026-01-26 08:52:59.44	320.60	6.36	-48.1	-59.9	3.8	8.46e-01	0	44	104	0	66	15148
2026-01-26 08:53:00.44	320.53	6.30	-48.1	-59.9	3.8	8.46e-01	0	44	104	0	66	15124
2026-01-26 08:53:01.45	320.45	6.23	-48.1	-59.9	3.8	8.46e-01	0	44	104	0	66	15140
2026-01-26 08:53:02.46	320.38	6.16	-48.1	-59.9	3.8	8.46e-01	0	44	104	0	66	15118
2026-01-26 08:53:03.46	320.31	6.10	-48.1	-59.9	3.8	8.45e-01	0	44	104	0	66	15099
2026-01-26 08:53:04.47	320.23	6.03	-48.1	-59.9	3.8	8.45e-01	0	44	104	0	66	15120
2026-01-26 08:53:05.48	320.16	5.96	-48.1	-59.9	3.8	8.46e-01	0	44	104	0	66	15085
2026-01-26 08:53:06.49	320.09	5.90	-48.1	-59.9	3.8	8.46e-01	0	44	104	0	66	15095
2026-01-26 08:53:07.50	320.02	5.83	-48.1	-59.9	3.8	8.46e-01	0	44	104	0	66	15094
2026-01-26 08:53:08.50	319.95	5.77	-48.1	-59.9	3.8	8.47e-01	0	44	104	0	66	15089
2026-01-26 08:53:09.51	319.87	5.70	-48.1	-59.9	3.8	8.45e-01	0	44	104	0	66	15124
2026-01-26 08:53:10.51	319.80	5.63	-48.1	-59.9	3.8	8.47e-01	0	43	104	0	66	15070
2026-01-26 08:53:11.52	319.73	5.57	-48.1	-59.9	3.8	8.47e-01	0	44	104	0	66	15067
2026-01-26 08:53:12.53	319.66	5.50	-48.1	-59.9	3.8	8.47e-01	0	44	104	0	66	15119
2026-01-26 08:53:13.54	319.59	5.44	-48.1	-59.9	3.8	8.44e-01	0	44	104	0	66	15109
2026-01-26 08:53:14.55	319.52	5.37	-48.1	-59.9	3.8	8.46e-01	0	44	104	0	66	15142
2026-01-26 08:53:15.56	319.45	5.31	-48.1	-59.9	3.8	8.46e-01	0	44	104	0	66	15113
2026-01-26 08:53:16.57	319.38	5.24	-48.1	-59.9	3.8	8.46e-01	0	44	104	0	66	15116
2026-01-26 08:53:17.57	319.32	5.18	-48.1	-59.9	3.8	8.45e-01	0	43	104	0	66	15127
2026-01-26 08:53:18.58	319.25	5.11	-48.1	-59.9	3.8	8.45e-01	0	44	104	0	66	15190
2026-01-26 08:53:19.59	319.18	5.05	-48.1	-59.9	3.8	8.46e-01	0	44	104	0	66	15137
2026-01-26 08:53:20.60	319.11	4.98	-48.1	-59.9	3.8	8.46e-01	0	43	104	0	66	15099
2026-01-26 08:53:21.60	319.05	4.92	-48.1	-59.9	3.8	8.45e-01	0	44	104	0	66	15119
2026-01-26 08:53:22.61	318.98	4.86	-48.1	-59.9	3.8	8.46e-01	0	44	104	0	66	15183
2026-01-26 08:53:23.62	318.91	4.79	-48.1	-59.9	3.8	8.47e-01	0	44	104	0	66	15142
2026-01-26 08:53:24.63	318.84	4.73	-48.1	-59.9	3.8	8.46e-01	0	43	104	0	66	15120
2026-01-26 08:53:25.64	318.78	4.66	-48.1	-59.9	3.8	8.45e-01	0	43	104	0	66	15077
2026-01-26 08:53:26.65	318.71	4.60	-48.1	-59.9	3.8	8.45e-01	0	44	104	0	66	15131
2026-01-26 08:53:27.65	318.65	4.54	-48.1	-59.9	3.8	8.45e-01	0	44	104	0	66	15130
2026-01-26 08:53:28.66	318.58	4.47	-48.1	-59.9	3.8	8.46e-01	0	44	104	0	66	15141
2026-01-26 08:53:29.67	318.52	4.41	-48.1	-59.9	3.8	8.45e-01	0	44	104	0	66	15085
2026-01-26 08:53:30.68	318.45	4.35	-48.1	-59.9	3.8	8.45e-01	0	44	104	0	66	15106
2026-01-26 08:53:31.69	318.39	4.28	-48.1	-59.9	3.8	8.46e-01	0	44	104	0	66	15104
