passes_logs/2026/01/26/R3.2S_Murmansk/R3.2S_Murmansk__20260126_092732_ZKF01_rec.log

#Pass ID: 20260126_092732_ZKF01
#Satellite: ZKF01
#Configuration: ZKF01
#almurnet v.1.7.20251203
#Start time: 2026-01-26 09:27:33

#Version: 2.2.20231116
#Station: R3.2S_Murmansk
#Location: 33.079688 lon 68.888172 lat
#TLE: 1 61240U 24174C   26025.65656009  .00009627  00000-0  43404-3 0  9995
#TLE: 2 61240  97.4467  35.5131 0010940 352.4451   7.6618 15.21186723 74036

#Time	Az	El	Level	Level2	SNR	BER	BlckErr	Temp	State	Recorded	gain1	gain2
2026-01-26 09:27:33.93	43.31	2.09	-50.1	-51.9	3.6	0.00e+00	0	46	0	0	70	19210
2026-01-26 09:27:34.94	43.18	2.15	-50.1	-52.0	3.7	0.00e+00	0	47	104	0	70	19269
2026-01-26 09:27:35.94	43.06	2.20	-50.1	-51.9	3.7	0.00e+00	0	46	104	0	70	19219
2026-01-26 09:27:36.95	42.93	2.25	-50.1	-51.9	3.7	0.00e+00	0	47	104	0	70	19230
2026-01-26 09:27:37.96	42.81	2.31	-50.1	-51.9	3.7	0.00e+00	0	46	104	0	70	19153
2026-01-26 09:27:38.96	42.68	2.36	-50.1	-51.9	3.7	0.00e+00	0	46	104	0	70	19175
2026-01-26 09:27:39.97	42.56	2.41	-50.1	-51.9	3.7	0.00e+00	0	47	104	0	70	19123
2026-01-26 09:27:40.98	42.43	2.46	-50.1	-51.9	3.7	0.00e+00	0	46	104	0	70	19158
2026-01-26 09:27:41.99	42.30	2.52	-50.1	-51.9	3.7	0.00e+00	0	47	104	0	70	19140
2026-01-26 09:27:42.99	42.17	2.57	-50.1	-51.9	3.7	0.00e+00	0	47	104	0	70	19190
2026-01-26 09:27:44.00	42.04	2.62	-50.1	-51.9	3.7	0.00e+00	0	47	104	0	70	19164
2026-01-26 09:27:45.01	41.91	2.68	-50.1	-51.9	3.7	0.00e+00	0	47	104	0	70	19130
2026-01-26 09:27:46.02	41.78	2.73	-50.1	-51.9	3.7	0.00e+00	0	47	104	0	70	19142
2026-01-26 09:27:47.03	41.65	2.78	-50.1	-51.9	3.7	0.00e+00	0	47	104	0	70	19120
2026-01-26 09:27:48.04	41.52	2.83	-50.1	-51.9	3.7	0.00e+00	0	47	104	0	70	19166
2026-01-26 09:27:49.05	41.38	2.89	-50.1	-51.9	3.7	0.00e+00	0	47	104	0	70	19160
2026-01-26 09:27:50.05	41.25	2.94	-50.1	-51.9	3.7	0.00e+00	0	47	104	0	70	19196
2026-01-26 09:27:51.06	41.12	2.99	-50.1	-51.9	3.7	0.00e+00	0	47	104	0	70	19159
2026-01-26 09:27:52.07	40.98	3.05	-50.1	-51.9	3.7	0.00e+00	0	47	104	0	70	19173
2026-01-26 09:27:53.08	40.85	3.10	-50.1	-51.9	3.7	0.00e+00	0	47	104	0	70	19199
2026-01-26 09:27:54.08	40.71	3.15	-50.1	-51.9	3.7	0.00e+00	0	47	104	0	70	19071
2026-01-26 09:27:55.09	40.57	3.21	-50.1	-51.9	3.7	0.00e+00	0	47	104	0	70	19143
2026-01-26 09:27:56.10	40.44	3.26	-50.1	-51.9	3.7	0.00e+00	0	47	104	0	70	19213
2026-01-26 09:27:57.11	40.30	3.31	-50.1	-51.9	3.7	0.00e+00	0	47	104	0	70	19152
2026-01-26 09:27:58.11	40.16	3.36	-50.1	-51.9	3.7	0.00e+00	0	47	104	0	70	19191
2026-01-26 09:27:59.12	40.02	3.42	-50.1	-51.9	3.7	0.00e+00	0	48	104	0	70	19157
2026-01-26 09:28:00.13	39.88	3.47	-50.1	-51.9	3.7	0.00e+00	0	48	104	0	70	19182
2026-01-26 09:28:01.14	39.74	3.52	-50.1	-51.9	3.7	0.00e+00	0	48	104	0	70	19186
2026-01-26 09:28:02.14	39.60	3.58	-50.1	-51.9	3.7	0.00e+00	0	48	104	0	70	19178
2026-01-26 09:28:03.15	39.46	3.63	-50.1	-51.9	3.7	0.00e+00	0	48	104	0	70	19171
2026-01-26 09:28:04.16	39.32	3.68	-50.1	-51.9	3.7	0.00e+00	0	48	104	0	70	19119
2026-01-26 09:28:05.17	39.17	3.74	-50.1	-51.9	3.7	0.00e+00	0	48	104	0	70	19211
2026-01-26 09:28:06.17	39.03	3.79	-50.1	-51.9	3.7	0.00e+00	0	48	104	0	70	19194
2026-01-26 09:28:07.18	38.89	3.84	-50.1	-51.9	3.7	0.00e+00	0	48	104	0	70	19117
2026-01-26 09:28:08.19	38.74	3.90	-50.1	-51.9	3.7	0.00e+00	0	48	104	0	70	19156
2026-01-26 09:28:09.19	38.60	3.95	-50.1	-51.9	3.7	0.00e+00	0	48	104	0	70	19140
2026-01-26 09:28:10.20	38.45	4.00	-50.1	-51.9	3.7	0.00e+00	0	48	104	0	70	19192
2026-01-26 09:28:11.21	38.30	4.05	-50.1	-51.9	3.7	0.00e+00	0	48	104	0	70	19223
2026-01-26 09:28:12.21	38.16	4.11	-50.1	-51.9	3.7	0.00e+00	0	48	104	0	70	19151
2026-01-26 09:28:13.22	38.01	4.16	-50.1	-51.9	3.7	0.00e+00	0	48	104	0	70	19222
2026-01-26 09:28:14.23	37.86	4.21	-50.1	-51.9	3.7	0.00e+00	0	48	104	0	70	19195
2026-01-26 09:28:15.24	37.71	4.27	-50.1	-51.9	3.7	0.00e+00	0	48	104	0	70	19179
2026-01-26 09:28:16.24	37.56	4.32	-50.1	-51.9	3.7	0.00e+00	0	48	104	0	70	19107
2026-01-26 09:28:17.25	37.41	4.37	-50.1	-51.9	3.7	0.00e+00	0	48	104	0	70	19129
2026-01-26 09:28:18.26	37.25	4.43	-50.1	-51.9	3.7	0.00e+00	0	48	104	0	70	19182
2026-01-26 09:28:19.27	37.10	4.48	-50.1	-51.9	3.7	0.00e+00	0	48	104	0	70	19176
2026-01-26 09:28:20.28	36.95	4.53	-50.1	-51.9	3.7	0.00e+00	0	48	104	0	70	19128
2026-01-26 09:28:21.28	36.80	4.58	-50.1	-51.9	3.7	0.00e+00	0	48	104	0	70	19143
2026-01-26 09:28:22.29	36.64	4.64	-50.1	-51.9	3.7	0.00e+00	0	48	104	0	70	19185
2026-01-26 09:28:23.29	36.49	4.69	-50.1	-51.9	3.7	0.00e+00	0	48	104	0	70	19197
2026-01-26 09:28:24.30	36.33	4.74	-50.1	-51.9	3.7	0.00e+00	0	48	104	0	70	19161
2026-01-26 09:28:25.31	36.17	4.80	-50.1	-51.9	3.7	0.00e+00	0	48	104	0	70	19165
2026-01-26 09:28:26.31	36.02	4.85	-50.1	-51.9	3.7	0.00e+00	0	48	104	0	70	19248
2026-01-26 09:28:27.32	35.86	4.90	-50.1	-51.9	3.7	0.00e+00	0	48	104	0	70	19082
2026-01-26 09:28:28.32	35.70	4.95	-50.1	-51.9	3.7	0.00e+00	0	48	104	0	70	19184
2026-01-26 09:28:29.33	35.54	5.01	-50.1	-51.9	3.6	0.00e+00	0	48	104	0	70	19172
2026-01-26 09:28:30.34	35.38	5.06	-50.1	-51.9	3.7	0.00e+00	0	48	104	0	70	19146
2026-01-26 09:28:31.35	35.22	5.11	-50.1	-51.9	3.7	0.00e+00	0	48	104	0	70	19171
2026-01-26 09:28:32.35	35.05	5.16	-50.1	-51.9	3.7	0.00e+00	0	49	104	0	70	19141
2026-01-26 09:28:33.36	34.89	5.22	-50.1	-51.9	3.7	0.00e+00	0	48	104	0	70	19116
2026-01-26 09:28:34.37	34.73	5.27	-50.1	-51.9	3.7	0.00e+00	0	48	104	0	70	19152
2026-01-26 09:28:35.38	34.56	5.32	-50.1	-51.9	3.7	0.00e+00	0	48	104	0	70	19184
2026-01-26 09:28:36.39	34.40	5.37	-50.1	-51.9	3.7	0.00e+00	0	49	104	0	70	19223
2026-01-26 09:28:37.40	34.23	5.43	-50.1	-51.9	3.7	0.00e+00	0	48	104	0	70	19143
2026-01-26 09:28:38.41	34.06	5.48	-50.1	-51.9	3.7	0.00e+00	0	49	104	0	70	19178
2026-01-26 09:28:39.41	33.90	5.53	-50.1	-51.9	3.7	0.00e+00	0	49	104	0	70	19173
2026-01-26 09:28:40.42	33.73	5.58	-50.1	-51.9	3.7	0.00e+00	0	49	104	0	70	19208
2026-01-26 09:28:41.43	33.56	5.64	-50.1	-51.9	3.7	0.00e+00	0	49	104	0	70	19152
2026-01-26 09:28:42.43	33.39	5.69	-50.1	-51.9	3.7	0.00e+00	0	49	104	0	70	19164
2026-01-26 09:28:43.44	33.22	5.74	-50.1	-51.9	3.7	0.00e+00	0	48	104	0	70	19146
2026-01-26 09:28:44.45	33.05	5.79	-50.1	-51.9	3.7	0.00e+00	0	49	104	0	70	19187
2026-01-26 09:28:45.46	32.88	5.84	-50.1	-51.9	3.7	0.00e+00	0	49	104	0	70	19167
2026-01-26 09:28:46.46	32.70	5.89	-50.1	-51.9	3.7	0.00e+00	0	49	104	0	70	19189
2026-01-26 09:28:47.47	32.53	5.95	-50.1	-51.9	3.7	0.00e+00	0	49	104	0	70	19180
2026-01-26 09:28:48.48	32.36	6.00	-50.1	-51.9	3.7	0.00e+00	0	49	104	0	70	19192
2026-01-26 09:28:49.49	32.18	6.05	-50.1	-51.9	3.7	0.00e+00	0	49	104	0	70	19147
2026-01-26 09:28:50.49	32.01	6.10	-50.1	-51.9	3.7	0.00e+00	0	49	104	0	70	19214
2026-01-26 09:28:51.50	31.83	6.15	-50.1	-51.9	3.7	0.00e+00	0	49	104	0	70	19176
2026-01-26 09:28:52.51	31.65	6.20	-50.1	-51.9	3.7	0.00e+00	0	49	104	0	70	19163
2026-01-26 09:28:53.52	31.47	6.26	-50.1	-51.9	3.7	0.00e+00	0	49	104	0	70	19203
2026-01-26 09:28:54.53	31.29	6.31	-50.1	-51.9	3.7	0.00e+00	0	49	104	0	70	19172
2026-01-26 09:28:55.53	31.11	6.36	-50.1	-51.9	3.7	0.00e+00	0	49	104	0	70	19170
2026-01-26 09:28:56.54	30.93	6.41	-50.1	-51.9	3.7	0.00e+00	0	49	104	0	70	19151
2026-01-26 09:28:57.55	30.75	6.46	-50.1	-51.9	3.7	0.00e+00	0	49	104	0	70	19168
2026-01-26 09:28:58.57	30.57	6.51	-50.1	-51.9	3.7	0.00e+00	0	49	104	0	70	19198
2026-01-26 09:28:59.57	30.38	6.56	-50.1	-51.9	3.7	0.00e+00	0	49	104	0	70	19216
2026-01-26 09:29:00.58	30.20	6.61	-50.1	-51.9	3.7	0.00e+00	0	49	104	0	70	19205
2026-01-26 09:29:01.59	30.01	6.66	-50.1	-51.9	3.7	0.00e+00	0	49	104	0	70	19183
2026-01-26 09:29:02.59	29.83	6.71	-50.1	-51.9	3.7	0.00e+00	0	49	104	0	70	19191
2026-01-26 09:29:03.60	29.64	6.76	-50.1	-51.9	3.7	0.00e+00	0	49	104	0	70	19219
2026-01-26 09:29:04.61	29.46	6.81	-50.1	-51.9	3.7	0.00e+00	0	49	104	0	70	19173
2026-01-26 09:29:05.62	29.27	6.86	-50.1	-51.9	3.7	0.00e+00	0	49	104	0	70	19147
2026-01-26 09:29:06.63	29.08	6.91	-50.1	-51.9	3.7	0.00e+00	0	49	104	0	70	19192
2026-01-26 09:29:07.63	28.89	6.96	-50.1	-51.9	3.7	0.00e+00	0	49	104	0	70	19219
2026-01-26 09:29:08.64	28.70	7.01	-50.1	-51.9	3.7	0.00e+00	0	49	104	0	70	19137
2026-01-26 09:29:09.65	28.51	7.06	-50.1	-51.9	3.7	0.00e+00	0	49	104	0	70	19183
2026-01-26 09:29:10.66	28.31	7.11	-50.1	-51.9	3.7	0.00e+00	0	49	104	0	70	19196
2026-01-26 09:29:11.67	28.12	7.16	-50.1	-51.9	3.7	0.00e+00	0	49	104	0	70	19151
2026-01-26 09:29:12.68	27.93	7.21	-50.1	-51.9	3.7	0.00e+00	0	49	104	0	70	19200
2026-01-26 09:29:13.69	27.73	7.26	-50.1	-51.9	3.7	0.00e+00	0	49	104	0	70	19167
2026-01-26 09:29:14.70	27.54	7.31	-50.1	-51.9	3.7	0.00e+00	0	49	104	0	70	19233
2026-01-26 09:29:15.71	27.34	7.36	-50.1	-51.9	3.7	0.00e+00	0	49	104	0	70	19150
2026-01-26 09:29:16.71	27.14	7.41	-50.1	-51.9	3.7	0.00e+00	0	49	104	0	70	19169
2026-01-26 09:29:17.72	26.94	7.46	-50.1	-51.9	3.7	0.00e+00	0	49	104	0	70	19169
2026-01-26 09:29:18.73	26.75	7.50	-50.1	-51.9	3.7	0.00e+00	0	49	104	0	70	19189
2026-01-26 09:29:19.74	26.55	7.55	-50.1	-51.9	3.7	0.00e+00	0	49	104	0	70	19162
2026-01-26 09:29:20.75	26.34	7.60	-50.1	-51.9	3.7	0.00e+00	0	49	104	0	70	19242
2026-01-26 09:29:21.76	26.14	7.65	-50.1	-51.9	3.7	0.00e+00	0	49	104	0	70	19203
2026-01-26 09:29:22.77	25.94	7.70	-50.1	-51.9	3.7	0.00e+00	0	49	104	0	70	19121
2026-01-26 09:29:23.77	25.74	7.74	-50.1	-51.9	3.7	0.00e+00	0	49	104	0	70	19162
2026-01-26 09:29:24.78	25.53	7.79	-50.1	-51.9	3.7	0.00e+00	0	50	104	0	70	19172
2026-01-26 09:29:25.79	25.33	7.84	-50.1	-51.9	3.7	0.00e+00	0	49	104	0	70	19196
2026-01-26 09:29:26.80	25.12	7.89	-50.1	-51.9	3.7	0.00e+00	0	49	104	0	70	19146
2026-01-26 09:29:27.81	24.92	7.93	-50.1	-51.9	3.7	0.00e+00	0	49	104	0	70	19194
2026-01-26 09:29:28.81	24.71	7.98	-50.1	-51.9	3.7	0.00e+00	0	49	104	0	70	19194
2026-01-26 09:29:29.82	24.50	8.03	-50.1	-51.9	3.7	0.00e+00	0	49	104	0	70	19207
2026-01-26 09:29:30.82	24.30	8.07	-50.1	-51.9	3.7	0.00e+00	0	49	104	0	70	19106
2026-01-26 09:29:31.83	24.08	8.12	-50.1	-51.9	3.7	0.00e+00	0	49	104	0	70	19147
2026-01-26 09:29:32.84	23.87	8.16	-50.1	-51.9	3.7	0.00e+00	0	49	104	0	70	19203
2026-01-26 09:29:33.85	23.66	8.21	-50.1	-51.9	3.7	0.00e+00	0	49	104	0	70	19176
2026-01-26 09:29:34.86	23.45	8.26	-50.1	-51.9	3.7	0.00e+00	0	49	104	0	70	19157
2026-01-26 09:29:35.87	23.24	8.30	-50.1	-51.9	3.7	0.00e+00	0	49	104	0	70	19187
2026-01-26 09:29:36.88	23.02	8.35	-50.1	-51.9	3.7	0.00e+00	0	49	104	0	70	19192
2026-01-26 09:29:37.88	22.81	8.39	-50.1	-51.9	3.7	0.00e+00	0	49	104	0	70	19181
2026-01-26 09:29:38.89	22.59	8.44	-50.1	-51.9	3.7	0.00e+00	0	50	104	0	70	19211
2026-01-26 09:29:39.90	22.38	8.48	-50.1	-51.9	3.7	0.00e+00	0	49	104	0	70	19208
2026-01-26 09:29:40.91	22.16	8.53	-50.1	-51.9	3.7	0.00e+00	0	49	104	0	70	19182
2026-01-26 09:29:41.91	21.94	8.57	-50.1	-51.9	3.7	0.00e+00	0	49	104	0	70	19187
2026-01-26 09:29:42.92	21.72	8.61	-50.1	-51.9	3.7	0.00e+00	0	49	104	0	70	19164
2026-01-26 09:29:43.93	21.50	8.66	-50.1	-51.9	3.7	0.00e+00	0	49	104	0	70	19190
2026-01-26 09:29:44.93	21.28	8.70	-50.1	-51.9	3.7	0.00e+00	0	49	104	0	70	19157
2026-01-26 09:29:45.94	21.06	8.74	-50.1	-51.9	3.7	0.00e+00	0	49	104	0	70	19153
2026-01-26 09:29:46.95	20.84	8.79	-50.1	-51.9	3.7	0.00e+00	0	49	104	0	70	19176
2026-01-26 09:29:47.96	20.62	8.83	-50.1	-51.9	3.7	0.00e+00	0	49	104	0	70	19199
2026-01-26 09:29:48.97	20.39	8.87	-50.1	-51.9	3.7	0.00e+00	0	49	104	0	70	19177
2026-01-26 09:29:49.98	20.17	8.91	-50.1	-51.9	3.7	0.00e+00	0	50	104	0	70	19159
2026-01-26 09:29:50.99	19.94	8.96	-50.1	-51.9	3.7	0.00e+00	0	50	104	0	70	19160
2026-01-26 09:29:51.99	19.72	9.00	-50.1	-51.9	3.7	0.00e+00	0	49	104	0	70	19176
2026-01-26 09:29:53.00	19.49	9.04	-50.1	-51.9	3.7	0.00e+00	0	49	104	0	70	19178
2026-01-26 09:29:54.01	19.26	9.08	-50.1	-51.9	3.7	0.00e+00	0	50	104	0	70	19144
2026-01-26 09:29:55.02	19.03	9.12	-50.1	-51.9	3.7	0.00e+00	0	50	104	0	70	19196
2026-01-26 09:29:56.03	18.80	9.16	-50.1	-51.9	3.7	0.00e+00	0	50	104	0	70	19226
2026-01-26 09:29:57.03	18.58	9.20	-50.1	-51.9	3.7	0.00e+00	0	49	104	0	70	19175
2026-01-26 09:29:58.04	18.34	9.24	-50.1	-51.9	3.7	0.00e+00	0	49	104	0	70	19138
2026-01-26 09:29:59.05	18.11	9.28	-50.1	-51.9	3.7	0.00e+00	0	49	104	0	70	19135
2026-01-26 09:30:00.06	17.88	9.32	-50.1	-51.9	3.7	0.00e+00	0	49	104	0	70	19219
2026-01-26 09:30:01.07	17.65	9.36	-50.1	-51.9	3.7	0.00e+00	0	50	104	0	70	19221
2026-01-26 09:30:02.07	17.41	9.40	-50.1	-51.9	3.7	0.00e+00	0	49	104	0	70	19225
2026-01-26 09:30:03.08	17.18	9.43	-50.1	-51.9	3.7	0.00e+00	0	50	104	0	70	19162
2026-01-26 09:30:04.09	16.94	9.47	-50.1	-51.9	3.7	0.00e+00	0	49	104	0	70	19207
2026-01-26 09:30:05.10	16.71	9.51	-50.1	-51.9	3.7	0.00e+00	0	50	104	0	70	19206
2026-01-26 09:30:06.11	16.47	9.55	-50.1	-51.9	3.7	0.00e+00	0	49	104	0	70	19146
2026-01-26 09:30:07.11	16.23	9.59	-50.1	-51.9	3.7	0.00e+00	0	50	104	0	70	19215
2026-01-26 09:30:08.12	15.99	9.62	-50.1	-51.9	3.7	0.00e+00	0	50	104	0	70	19120
2026-01-26 09:30:09.13	15.75	9.66	-50.1	-51.9	3.7	0.00e+00	0	49	104	0	70	19198
2026-01-26 09:30:10.13	15.52	9.69	-50.1	-51.9	3.7	0.00e+00	0	49	104	0	70	19192
2026-01-26 09:30:11.14	15.28	9.73	-50.1	-51.9	3.7	0.00e+00	0	50	104	0	70	19190
2026-01-26 09:30:12.15	15.03	9.77	-50.1	-51.9	3.7	0.00e+00	0	49	104	0	70	19188
2026-01-26 09:30:13.15	14.79	9.80	-50.1	-51.9	3.7	0.00e+00	0	50	104	0	70	19190
2026-01-26 09:30:14.15	14.55	9.83	-50.1	-51.9	3.7	0.00e+00	0	50	104	0	70	19211
2026-01-26 09:30:15.16	14.31	9.87	-50.1	-51.9	3.7	0.00e+00	0	49	104	0	70	19200
2026-01-26 09:30:16.17	14.06	9.90	-50.1	-51.9	3.7	0.00e+00	0	49	104	0	70	19186
2026-01-26 09:30:17.18	13.82	9.94	-50.1	-51.9	3.7	0.00e+00	0	50	104	0	70	19148
2026-01-26 09:30:18.18	13.58	9.97	-50.1	-51.9	3.7	0.00e+00	0	50	104	0	70	19204
2026-01-26 09:30:19.19	13.33	10.00	-50.1	-51.9	3.7	0.00e+00	0	49	104	0	70	19133
2026-01-26 09:30:20.19	13.08	10.04	-50.1	-51.9	3.7	0.00e+00	0	49	104	0	70	19164
2026-01-26 09:30:21.20	12.84	10.07	-50.1	-51.9	3.7	0.00e+00	0	50	104	0	70	19193
2026-01-26 09:30:22.20	12.59	10.10	-50.1	-51.9	3.7	0.00e+00	0	49	104	0	70	19101
2026-01-26 09:30:23.21	12.34	10.13	-50.1	-51.9	3.7	0.00e+00	0	50	104	0	70	19191
2026-01-26 09:30:24.22	12.09	10.16	-50.1	-51.9	3.7	0.00e+00	0	49	104	0	70	19159
2026-01-26 09:30:25.23	11.84	10.19	-50.1	-51.9	3.7	0.00e+00	0	50	104	0	70	19179
2026-01-26 09:30:26.23	11.59	10.22	-50.1	-51.9	3.7	0.00e+00	0	50	104	0	70	19107
2026-01-26 09:30:27.23	11.34	10.25	-50.1	-51.9	3.7	0.00e+00	0	50	104	0	70	19165
2026-01-26 09:30:28.24	11.09	10.28	-50.1	-51.9	3.7	0.00e+00	0	50	104	0	70	19155
2026-01-26 09:30:29.25	10.84	10.31	-50.1	-51.9	3.7	0.00e+00	0	50	104	0	70	19168
2026-01-26 09:30:30.26	10.58	10.34	-50.1	-51.9	3.7	0.00e+00	0	50	104	0	70	19153
2026-01-26 09:30:31.27	10.33	10.37	-50.1	-51.9	3.7	0.00e+00	0	50	104	0	70	19209
2026-01-26 09:30:32.27	10.07	10.39	-50.1	-51.9	3.7	0.00e+00	0	50	104	0	70	19226
2026-01-26 09:30:33.28	9.82	10.42	-50.1	-51.9	3.7	0.00e+00	0	50	104	0	70	19189
2026-01-26 09:30:34.29	9.56	10.45	-50.1	-51.9	3.7	0.00e+00	0	50	104	0	70	19240
2026-01-26 09:30:35.29	9.31	10.48	-50.1	-51.9	3.7	0.00e+00	0	50	104	0	70	19178
2026-01-26 09:30:36.30	9.05	10.50	-50.1	-51.9	3.7	0.00e+00	0	50	104	0	70	19172
2026-01-26 09:30:37.31	8.79	10.53	-50.1	-51.9	3.7	0.00e+00	0	49	104	0	70	19224
2026-01-26 09:30:38.32	8.54	10.55	-50.1	-51.9	3.7	0.00e+00	0	50	104	0	70	19202
2026-01-26 09:30:39.33	8.28	10.58	-50.1	-51.9	3.7	0.00e+00	0	50	104	0	70	19198
2026-01-26 09:30:40.33	8.02	10.60	-50.1	-51.9	3.7	0.00e+00	0	49	104	0	70	19144
2026-01-26 09:30:41.34	7.76	10.62	-50.1	-51.9	3.7	0.00e+00	0	50	104	0	70	19200
2026-01-26 09:30:42.35	7.50	10.65	-50.1	-51.9	3.7	0.00e+00	0	50	104	0	70	19229
2026-01-26 09:30:43.36	7.24	10.67	-50.1	-51.9	3.7	0.00e+00	0	50	104	0	70	19183
2026-01-26 09:30:44.37	6.98	10.69	-50.1	-51.9	3.7	0.00e+00	0	50	104	0	70	19206
2026-01-26 09:30:45.37	6.72	10.72	-50.1	-51.9	3.7	0.00e+00	0	50	104	0	70	19172
2026-01-26 09:30:46.38	6.45	10.74	-50.1	-51.9	3.7	0.00e+00	0	50	104	0	70	19178
2026-01-26 09:30:47.39	6.19	10.76	-50.1	-51.9	3.7	0.00e+00	0	50	104	0	70	19184
2026-01-26 09:30:48.40	5.93	10.78	-50.1	-51.9	3.7	0.00e+00	0	50	104	0	70	19151
2026-01-26 09:30:49.41	5.66	10.80	-50.1	-51.9	3.7	0.00e+00	0	50	104	0	70	19142
2026-01-26 09:30:50.42	5.40	10.82	-50.1	-51.9	3.7	0.00e+00	0	50	104	0	70	19148
2026-01-26 09:30:51.43	5.14	10.84	-50.1	-51.9	3.7	0.00e+00	0	50	104	0	70	19214
2026-01-26 09:30:52.44	4.87	10.86	-50.1	-51.9	3.7	0.00e+00	0	50	104	0	70	19169
2026-01-26 09:30:53.45	4.61	10.87	-50.1	-51.9	3.7	0.00e+00	0	50	104	0	70	19150
2026-01-26 09:30:54.45	4.34	10.89	-50.1	-51.9	3.7	0.00e+00	0	50	104	0	70	19213
2026-01-26 09:30:55.46	4.08	10.91	-50.1	-51.9	3.7	0.00e+00	0	50	104	0	70	19191
2026-01-26 09:30:56.47	3.81	10.93	-50.1	-51.9	3.7	0.00e+00	0	50	104	0	70	19212
2026-01-26 09:30:57.48	3.54	10.94	-50.1	-51.9	3.7	0.00e+00	0	50	104	0	70	19198
2026-01-26 09:30:58.49	3.27	10.96	-50.1	-51.9	3.7	0.00e+00	0	50	104	0	70	19169
2026-01-26 09:30:59.49	3.01	10.97	-50.1	-51.9	3.7	0.00e+00	0	50	104	0	70	19176
2026-01-26 09:31:00.50	2.74	10.99	-50.1	-51.9	3.7	0.00e+00	0	50	104	0	70	19165
2026-01-26 09:31:01.51	2.47	11.00	-50.1	-51.9	3.7	0.00e+00	0	50	104	0	70	19214
2026-01-26 09:31:02.52	2.20	11.02	-50.1	-51.9	3.7	0.00e+00	0	50	104	0	70	19235
2026-01-26 09:31:03.52	1.94	11.03	-50.1	-51.9	3.7	0.00e+00	0	50	104	0	70	19174
2026-01-26 09:31:04.53	1.67	11.04	-50.1	-51.9	3.7	0.00e+00	0	50	104	0	70	19183
2026-01-26 09:31:05.54	1.40	11.05	-50.1	-51.9	3.7	0.00e+00	0	50	104	0	70	19213
2026-01-26 09:31:06.55	1.13	11.07	-50.1	-51.9	3.7	0.00e+00	0	50	104	0	70	19123
2026-01-26 09:31:07.56	0.86	11.08	-50.1	-51.9	3.7	0.00e+00	0	50	104	0	70	19208
2026-01-26 09:31:08.57	0.59	11.09	-50.1	-51.9	3.7	0.00e+00	0	50	104	0	70	19189
2026-01-26 09:31:09.58	0.32	11.10	-50.1	-51.9	3.7	0.00e+00	0	50	104	0	70	19172
2026-01-26 09:31:10.59	0.05	11.11	-50.1	-51.9	3.7	0.00e+00	0	50	104	0	70	19178
2026-01-26 09:31:11.60	359.78	11.12	-50.1	-51.9	3.7	0.00e+00	0	50	104	0	70	19186
2026-01-26 09:31:12.61	359.51	11.12	-50.1	-51.9	3.7	0.00e+00	0	50	104	0	70	19191
2026-01-26 09:31:13.62	359.24	11.13	-50.1	-51.9	3.7	0.00e+00	0	50	104	0	70	19164
2026-01-26 09:31:14.63	358.96	11.14	-50.1	-51.9	3.7	0.00e+00	0	50	104	0	70	19162
2026-01-26 09:31:15.63	358.70	11.15	-50.1	-51.9	3.7	0.00e+00	0	50	104	0	70	19178
2026-01-26 09:31:16.64	358.42	11.15	-50.1	-51.9	3.7	0.00e+00	0	49	104	0	70	19197
2026-01-26 09:31:17.65	358.15	11.16	-50.1	-51.9	3.7	0.00e+00	0	50	104	0	70	19197
2026-01-26 09:31:18.66	357.88	11.16	-50.1	-51.9	3.7	0.00e+00	0	50	104	0	70	19203
2026-01-26 09:31:19.67	357.61	11.17	-50.1	-51.9	3.7	0.00e+00	0	50	104	0	70	19211
2026-01-26 09:31:20.67	357.34	11.17	-50.1	-51.9	3.7	0.00e+00	0	50	104	0	70	19229
2026-01-26 09:31:21.68	357.07	11.18	-50.1	-51.9	3.7	0.00e+00	0	50	104	0	70	19193
2026-01-26 09:31:22.69	356.79	11.18	-50.1	-51.9	3.7	0.00e+00	0	49	104	0	70	19213
2026-01-26 09:31:23.69	356.52	11.18	-50.1	-51.9	3.7	0.00e+00	0	50	104	0	70	19208
2026-01-26 09:31:24.70	356.25	11.18	-50.1	-51.9	3.7	0.00e+00	0	50	104	0	70	19148
2026-01-26 09:31:25.71	355.98	11.19	-50.1	-51.9	3.7	0.00e+00	0	50	104	0	70	19203
2026-01-26 09:31:26.72	355.71	11.19	-50.1	-51.9	3.7	0.00e+00	0	50	104	0	70	19196
2026-01-26 09:31:27.73	355.43	11.19	-50.1	-51.9	3.7	0.00e+00	0	50	104	0	70	19164
2026-01-26 09:31:28.73	355.16	11.19	-50.1	-51.9	3.7	0.00e+00	0	50	104	0	70	19214
2026-01-26 09:31:29.74	354.89	11.19	-50.1	-51.9	3.7	0.00e+00	0	50	104	0	70	19232
2026-01-26 09:31:30.75	354.62	11.19	-50.1	-52.0	3.7	0.00e+00	0	50	104	0	70	19263
2026-01-26 09:31:31.76	354.35	11.18	-50.1	-51.9	3.7	0.00e+00	0	50	104	0	70	19172
2026-01-26 09:31:32.76	354.08	11.18	-50.1	-51.9	3.7	0.00e+00	0	50	104	0	70	19196
2026-01-26 09:31:33.77	353.80	11.18	-50.1	-51.9	3.7	0.00e+00	0	50	104	0	70	19227
2026-01-26 09:31:34.78	353.53	11.18	-50.1	-51.9	3.7	0.00e+00	0	50	104	0	70	19245
2026-01-26 09:31:35.78	353.26	11.17	-50.1	-51.9	3.7	0.00e+00	0	50	104	0	70	19217
2026-01-26 09:31:36.79	352.99	11.17	-50.1	-51.9	3.7	0.00e+00	0	50	104	0	70	19241
2026-01-26 09:31:37.80	352.72	11.16	-50.1	-51.9	3.7	0.00e+00	0	50	104	0	70	19163
2026-01-26 09:31:38.81	352.45	11.16	-50.1	-51.9	3.7	0.00e+00	0	50	104	0	70	19252
2026-01-26 09:31:39.82	352.17	11.15	-50.1	-51.9	3.7	0.00e+00	0	50	104	0	70	19208
2026-01-26 09:31:40.82	351.91	11.15	-50.1	-51.9	3.7	0.00e+00	0	50	104	0	70	19219
2026-01-26 09:31:41.83	351.63	11.14	-50.1	-51.9	3.7	0.00e+00	0	50	104	0	70	19177
2026-01-26 09:31:42.83	351.37	11.13	-50.1	-51.9	3.7	0.00e+00	0	50	104	0	70	19232
2026-01-26 09:31:43.84	351.09	11.12	-50.1	-51.9	3.7	0.00e+00	0	50	104	0	70	19173
2026-01-26 09:31:44.86	350.82	11.12	-50.1	-51.9	3.7	0.00e+00	0	50	104	0	70	19246
2026-01-26 09:31:45.87	350.55	11.11	-50.1	-51.9	3.7	0.00e+00	0	50	104	0	70	19159
2026-01-26 09:31:46.87	350.28	11.10	-50.1	-51.9	3.7	0.00e+00	0	50	104	0	70	19222
2026-01-26 09:31:47.88	350.01	11.09	-50.1	-51.9	3.7	0.00e+00	0	50	104	0	70	19146
2026-01-26 09:31:48.89	349.74	11.08	-50.1	-51.9	3.7	0.00e+00	0	50	104	0	70	19182
2026-01-26 09:31:49.89	349.48	11.07	-50.1	-51.9	3.7	0.00e+00	0	50	104	0	70	19217
2026-01-26 09:31:50.90	349.21	11.05	-50.1	-51.9	3.7	0.00e+00	0	50	104	0	70	19174
2026-01-26 09:31:51.91	348.94	11.04	-50.1	-51.9	3.7	0.00e+00	0	50	104	0	70	19189
2026-01-26 09:31:52.92	348.67	11.03	-50.1	-51.9	3.7	0.00e+00	0	50	104	0	70	19237
2026-01-26 09:31:53.93	348.40	11.02	-50.1	-51.9	3.7	0.00e+00	0	50	104	0	70	19207
2026-01-26 09:31:54.93	348.13	11.00	-50.1	-51.9	3.7	0.00e+00	0	50	104	0	70	19255
2026-01-26 09:31:55.94	347.87	10.99	-50.1	-51.9	3.7	0.00e+00	0	50	104	0	70	19166
2026-01-26 09:31:56.95	347.60	10.97	-50.1	-51.9	3.7	0.00e+00	0	50	104	0	70	19137
2026-01-26 09:31:57.95	347.33	10.96	-50.1	-51.9	3.7	0.00e+00	0	50	104	0	70	19202
2026-01-26 09:31:58.96	347.07	10.94	-50.1	-51.9	3.7	0.00e+00	0	50	104	0	70	19222
2026-01-26 09:31:59.97	346.80	10.93	-50.1	-51.9	3.7	0.00e+00	0	50	104	0	70	19224
2026-01-26 09:32:00.98	346.53	10.91	-50.1	-51.9	3.7	0.00e+00	0	50	104	0	70	19202
2026-01-26 09:32:01.99	346.27	10.89	-50.1	-51.9	3.7	0.00e+00	0	50	104	0	70	19177
2026-01-26 09:32:02.99	346.00	10.88	-50.1	-51.9	3.6	0.00e+00	0	50	104	0	70	19209
2026-01-26 09:32:04.00	345.74	10.86	-50.1	-52.0	3.7	0.00e+00	0	50	104	0	70	19296
2026-01-26 09:32:05.01	345.47	10.84	-50.1	-51.9	3.7	0.00e+00	0	50	104	0	70	19198
2026-01-26 09:32:06.02	345.21	10.82	-50.1	-51.9	3.7	0.00e+00	0	50	104	0	70	19217
2026-01-26 09:32:07.03	344.95	10.80	-50.1	-51.9	3.7	0.00e+00	0	50	104	0	70	19250
2026-01-26 09:32:08.03	344.69	10.78	-50.1	-51.9	3.7	0.00e+00	0	50	104	0	70	19221
2026-01-26 09:32:09.04	344.42	10.76	-50.1	-51.9	3.7	0.00e+00	0	50	104	0	70	19182
2026-01-26 09:32:10.05	344.16	10.74	-50.1	-51.9	3.7	0.00e+00	0	50	104	0	70	19210
2026-01-26 09:32:11.06	343.90	10.72	-50.1	-51.9	3.7	0.00e+00	0	50	104	0	70	19224
2026-01-26 09:32:12.07	343.64	10.70	-50.1	-51.9	3.7	0.00e+00	0	50	104	0	70	19205
2026-01-26 09:32:13.08	343.38	10.67	-50.1	-51.9	3.7	0.00e+00	0	50	104	0	70	19242
2026-01-26 09:32:14.08	343.12	10.65	-50.1	-51.9	3.7	0.00e+00	0	50	104	0	70	19171
2026-01-26 09:32:15.09	342.86	10.63	-50.1	-51.9	3.7	0.00e+00	0	50	104	0	70	19228
2026-01-26 09:32:16.10	342.60	10.60	-50.1	-51.9	3.7	0.00e+00	0	50	104	0	70	19146
2026-01-26 09:32:17.11	342.34	10.58	-50.1	-52.0	3.7	0.00e+00	0	50	104	0	70	19260
2026-01-26 09:32:18.12	342.08	10.55	-50.1	-51.9	3.7	0.00e+00	0	50	104	0	70	19203
2026-01-26 09:32:19.13	341.82	10.53	-50.1	-51.9	3.7	0.00e+00	0	50	104	0	70	19117
2026-01-26 09:32:20.13	341.57	10.50	-50.1	-51.9	3.7	0.00e+00	0	50	104	0	70	19148
2026-01-26 09:32:21.14	341.31	10.48	-50.1	-51.9	3.7	0.00e+00	0	50	104	0	70	19239
2026-01-26 09:32:22.14	341.06	10.45	-50.1	-51.9	3.7	0.00e+00	0	50	104	0	70	19206
2026-01-26 09:32:23.15	340.80	10.42	-50.1	-51.9	3.7	0.00e+00	0	50	104	0	70	19195
2026-01-26 09:32:24.16	340.55	10.40	-50.1	-51.9	3.7	0.00e+00	0	50	104	0	70	19248
2026-01-26 09:32:25.17	340.29	10.37	-50.1	-51.9	3.7	0.00e+00	0	50	104	0	70	19157
2026-01-26 09:32:26.18	340.04	10.34	-50.1	-51.9	3.7	0.00e+00	0	50	104	0	70	19198
2026-01-26 09:32:27.18	339.79	10.31	-50.1	-51.9	3.7	0.00e+00	0	50	104	0	70	19220
2026-01-26 09:32:28.19	339.53	10.28	-50.1	-51.9	3.7	0.00e+00	0	50	104	0	70	19238
2026-01-26 09:32:29.20	339.28	10.26	-50.1	-51.9	3.7	0.00e+00	0	50	104	0	70	19202
2026-01-26 09:32:30.21	339.03	10.23	-50.1	-51.9	3.7	0.00e+00	0	50	104	0	70	19221
2026-01-26 09:32:31.21	338.78	10.20	-50.1	-51.9	3.7	0.00e+00	0	50	104	0	70	19185
2026-01-26 09:32:32.22	338.53	10.17	-50.2	-51.9	3.7	0.00e+00	0	50	104	0	70	19237
2026-01-26 09:32:33.23	338.28	10.13	-50.1	-51.9	3.7	0.00e+00	0	50	104	0	70	19204
2026-01-26 09:32:34.24	338.03	10.10	-50.1	-51.9	3.7	0.00e+00	0	50	104	0	70	19231
2026-01-26 09:32:35.25	337.79	10.07	-50.1	-51.9	3.7	0.00e+00	0	50	104	0	70	19224
2026-01-26 09:32:36.25	337.54	10.04	-50.1	-51.9	3.7	0.00e+00	0	50	104	0	70	19200
2026-01-26 09:32:37.26	337.29	10.01	-50.1	-51.9	3.7	0.00e+00	0	50	104	0	70	19166
2026-01-26 09:32:38.27	337.05	9.97	-50.1	-51.9	3.7	0.00e+00	0	50	104	0	70	19218
2026-01-26 09:32:39.28	336.80	9.94	-50.1	-51.9	3.7	0.00e+00	0	50	104	0	70	19250
2026-01-26 09:32:40.29	336.56	9.91	-50.1	-51.9	3.7	0.00e+00	0	50	104	0	70	19171
2026-01-26 09:32:41.29	336.32	9.87	-50.1	-51.9	3.7	0.00e+00	0	50	104	0	70	19193
2026-01-26 09:32:42.30	336.07	9.84	-50.1	-51.9	3.7	0.00e+00	0	50	104	0	70	19203
2026-01-26 09:32:43.31	335.83	9.80	-50.1	-51.9	3.7	0.00e+00	0	50	104	0	70	19175
2026-01-26 09:32:44.31	335.59	9.77	-50.1	-51.9	3.7	0.00e+00	0	50	104	0	70	19207
2026-01-26 09:32:45.32	335.35	9.73	-50.1	-51.9	3.7	0.00e+00	0	50	104	0	70	19156
2026-01-26 09:32:46.33	335.11	9.70	-50.1	-51.9	3.7	0.00e+00	0	50	104	0	70	19159
2026-01-26 09:32:47.34	334.87	9.66	-50.1	-51.9	3.6	0.00e+00	0	50	104	0	70	19133
2026-01-26 09:32:48.35	334.63	9.63	-50.1	-52.0	3.7	0.00e+00	0	50	104	0	70	19294
2026-01-26 09:32:49.36	334.39	9.59	-50.1	-51.9	3.7	0.00e+00	0	50	104	0	70	19201
2026-01-26 09:32:50.36	334.16	9.55	-50.1	-51.9	3.7	0.00e+00	0	50	104	0	70	19218
2026-01-26 09:32:51.37	333.92	9.52	-50.1	-51.9	3.7	0.00e+00	0	50	104	0	70	19254
2026-01-26 09:32:52.38	333.69	9.48	-50.1	-51.9	3.7	0.00e+00	0	50	104	0	70	19160
2026-01-26 09:32:53.38	333.45	9.44	-50.1	-51.9	3.7	0.00e+00	0	50	104	0	70	19195
2026-01-26 09:32:54.39	333.22	9.40	-50.1	-51.9	3.7	0.00e+00	0	50	104	0	70	19173
2026-01-26 09:32:55.40	332.98	9.36	-50.1	-51.9	3.7	0.00e+00	0	50	104	0	70	19176
2026-01-26 09:32:56.41	332.75	9.32	-50.1	-51.9	3.7	0.00e+00	0	50	104	0	70	19175
2026-01-26 09:32:57.42	332.52	9.29	-50.1	-51.9	3.7	0.00e+00	0	50	104	0	70	19162
2026-01-26 09:32:58.42	332.29	9.25	-50.1	-51.9	3.7	0.00e+00	0	50	104	0	70	19167
2026-01-26 09:32:59.43	332.06	9.21	-50.1	-51.9	3.7	0.00e+00	0	50	104	0	70	19210
2026-01-26 09:33:00.44	331.83	9.17	-50.1	-51.9	3.7	0.00e+00	0	50	104	0	70	19206
2026-01-26 09:33:01.45	331.60	9.13	-50.1	-51.9	3.7	0.00e+00	0	50	104	0	70	19168
2026-01-26 09:33:02.46	331.37	9.08	-50.1	-51.9	3.7	0.00e+00	0	50	104	0	70	19244
2026-01-26 09:33:03.47	331.15	9.04	-50.1	-51.9	3.7	0.00e+00	0	50	104	0	70	19182
2026-01-26 09:33:04.47	330.92	9.00	-50.1	-51.9	3.7	0.00e+00	0	50	104	0	70	19184
2026-01-26 09:33:05.48	330.70	8.96	-50.1	-51.9	3.7	0.00e+00	0	50	104	0	70	19187
2026-01-26 09:33:06.49	330.47	8.92	-50.1	-51.9	3.7	0.00e+00	0	50	104	0	70	19186
2026-01-26 09:33:07.49	330.25	8.88	-50.1	-51.9	3.7	0.00e+00	0	50	104	0	70	19193
2026-01-26 09:33:08.50	330.03	8.84	-50.1	-51.9	3.7	0.00e+00	0	50	104	0	70	19201
2026-01-26 09:33:09.51	329.80	8.79	-50.1	-51.9	3.7	0.00e+00	0	50	104	0	70	19171
2026-01-26 09:33:10.52	329.58	8.75	-50.1	-51.9	3.7	0.00e+00	0	50	104	0	70	19188
2026-01-26 09:33:11.53	329.36	8.71	-50.1	-51.9	3.7	0.00e+00	0	50	104	0	70	19172
2026-01-26 09:33:12.54	329.14	8.66	-50.1	-51.9	3.7	0.00e+00	0	50	104	0	70	19160
2026-01-26 09:33:13.55	328.92	8.62	-50.1	-51.9	3.7	0.00e+00	0	50	104	0	70	19208
2026-01-26 09:33:14.55	328.70	8.58	-50.1	-51.9	3.7	0.00e+00	0	50	104	0	70	19206
2026-01-26 09:33:15.56	328.49	8.53	-50.1	-51.9	3.7	0.00e+00	0	50	104	0	70	19235
2026-01-26 09:33:16.57	328.27	8.49	-50.1	-51.9	3.7	0.00e+00	0	50	104	0	70	19212
2026-01-26 09:33:17.58	328.05	8.45	-50.1	-51.9	3.7	0.00e+00	0	50	104	0	70	19232
2026-01-26 09:33:18.59	327.84	8.40	-50.1	-51.9	3.7	0.00e+00	0	50	104	0	70	19242
2026-01-26 09:33:19.60	327.63	8.36	-50.1	-51.9	3.7	0.00e+00	0	50	104	0	70	19169
2026-01-26 09:33:20.61	327.41	8.31	-50.1	-51.9	3.7	0.00e+00	0	50	104	0	70	19220
2026-01-26 09:33:21.61	327.20	8.27	-50.1	-51.9	3.7	0.00e+00	0	50	104	0	70	19239
2026-01-26 09:33:22.62	326.99	8.22	-50.1	-51.9	3.7	0.00e+00	0	50	104	0	70	19195
2026-01-26 09:33:23.63	326.78	8.17	-50.1	-51.9	3.7	0.00e+00	0	50	104	0	70	19214
2026-01-26 09:33:24.64	326.57	8.13	-50.1	-51.9	3.7	0.00e+00	0	50	104	0	70	19212
2026-01-26 09:33:25.64	326.36	8.08	-50.1	-51.9	3.7	0.00e+00	0	50	104	0	70	19229
2026-01-26 09:33:26.65	326.15	8.04	-50.1	-51.9	3.7	0.00e+00	0	50	104	0	70	19215
2026-01-26 09:33:27.66	325.94	7.99	-50.1	-51.9	3.7	0.00e+00	0	50	104	0	70	19202
2026-01-26 09:33:28.67	325.74	7.94	-50.1	-51.9	3.7	0.00e+00	0	50	104	0	70	19255
2026-01-26 09:33:29.68	325.53	7.90	-50.1	-51.9	3.7	0.00e+00	0	50	104	0	70	19197
2026-01-26 09:33:30.69	325.33	7.85	-50.1	-51.9	3.7	0.00e+00	0	50	104	0	70	19213
2026-01-26 09:33:31.69	325.12	7.80	-50.1	-51.9	3.7	0.00e+00	0	50	104	0	70	19143
2026-01-26 09:33:32.70	324.92	7.76	-50.1	-51.9	3.7	0.00e+00	0	50	104	0	70	19205
2026-01-26 09:33:33.71	324.72	7.71	-50.1	-51.9	3.7	0.00e+00	0	50	104	0	70	19214
2026-01-26 09:33:34.72	324.52	7.66	-50.1	-51.9	3.7	0.00e+00	0	50	104	0	70	19185
2026-01-26 09:33:35.72	324.32	7.61	-50.1	-51.9	3.7	0.00e+00	0	50	104	0	70	19196
2026-01-26 09:33:36.73	324.12	7.57	-50.1	-51.9	3.7	0.00e+00	0	50	104	0	70	19220
2026-01-26 09:33:37.74	323.92	7.52	-50.1	-51.9	3.7	0.00e+00	0	50	104	0	70	19157
2026-01-26 09:33:38.75	323.72	7.47	-50.1	-51.9	3.7	0.00e+00	0	50	104	0	70	19155
2026-01-26 09:33:39.76	323.52	7.42	-50.1	-51.9	3.7	0.00e+00	0	50	104	0	70	19172
2026-01-26 09:33:40.77	323.32	7.37	-50.1	-51.9	3.7	0.00e+00	0	50	104	0	70	19133
2026-01-26 09:33:41.78	323.13	7.32	-50.1	-51.9	3.7	0.00e+00	0	50	104	0	70	19220
2026-01-26 09:33:42.77	322.94	7.28	-50.1	-51.9	3.7	0.00e+00	0	50	104	0	70	19187
2026-01-26 09:33:43.78	322.74	7.23	-50.1	-51.9	3.7	0.00e+00	0	50	104	0	70	19132
2026-01-26 09:33:44.79	322.55	7.18	-50.1	-51.9	3.7	0.00e+00	0	50	104	0	70	19195
2026-01-26 09:33:45.80	322.36	7.13	-50.1	-51.9	3.7	0.00e+00	0	50	104	0	70	19184
2026-01-26 09:33:46.80	322.17	7.08	-50.1	-51.9	3.7	0.00e+00	0	50	104	0	70	19194
2026-01-26 09:33:47.81	321.98	7.03	-50.1	-51.9	3.7	0.00e+00	0	50	104	0	70	19226
2026-01-26 09:33:48.82	321.79	6.98	-50.1	-51.9	3.7	0.00e+00	0	50	104	0	70	19191
2026-01-26 09:33:49.83	321.60	6.93	-50.1	-51.9	3.7	0.00e+00	0	50	104	0	70	19206
2026-01-26 09:33:50.83	321.41	6.88	-50.1	-51.9	3.7	0.00e+00	0	50	104	0	70	19220
2026-01-26 09:33:51.84	321.22	6.83	-50.1	-51.9	3.7	0.00e+00	0	50	104	0	70	19244
2026-01-26 09:33:52.85	321.04	6.78	-50.1	-51.9	3.7	0.00e+00	0	50	104	0	70	19217
2026-01-26 09:33:53.86	320.85	6.73	-50.1	-51.9	3.7	0.00e+00	0	50	104	0	70	19183
2026-01-26 09:33:54.87	320.66	6.68	-50.1	-51.9	3.7	0.00e+00	0	50	104	0	70	19174
2026-01-26 09:33:55.88	320.48	6.63	-50.1	-51.9	3.7	0.00e+00	0	50	104	0	70	19181
2026-01-26 09:33:56.89	320.30	6.58	-50.1	-51.9	3.7	0.00e+00	0	50	104	0	70	19189
2026-01-26 09:33:57.90	320.11	6.53	-50.1	-52.0	3.7	0.00e+00	0	50	104	0	70	19274
2026-01-26 09:33:58.91	319.93	6.48	-50.1	-51.9	3.7	0.00e+00	0	50	104	0	70	19203
2026-01-26 09:33:59.92	319.75	6.43	-50.1	-51.9	3.7	0.00e+00	0	50	104	0	70	19155
2026-01-26 09:34:00.93	319.57	6.38	-50.1	-51.9	3.7	0.00e+00	0	50	104	0	70	19160
2026-01-26 09:34:01.94	319.39	6.32	-50.1	-51.9	3.7	0.00e+00	0	50	104	0	70	19190
2026-01-26 09:34:02.94	319.21	6.27	-50.1	-51.9	3.7	0.00e+00	0	50	104	0	70	19152
2026-01-26 09:34:03.95	319.03	6.22	-50.1	-51.9	3.7	0.00e+00	0	50	104	0	70	19217
2026-01-26 09:34:04.96	318.86	6.17	-50.1	-51.9	3.7	0.00e+00	0	50	104	0	70	19238
2026-01-26 09:34:05.97	318.68	6.12	-50.1	-51.9	3.7	0.00e+00	0	50	104	0	70	19145
2026-01-26 09:34:06.97	318.51	6.07	-50.1	-51.9	3.7	0.00e+00	0	50	104	0	70	19246
2026-01-26 09:34:07.97	318.33	6.02	-50.1	-51.9	3.7	0.00e+00	0	50	104	0	70	19219
2026-01-26 09:34:08.98	318.16	5.97	-50.1	-51.9	3.7	0.00e+00	0	50	104	0	70	19180
2026-01-26 09:34:09.99	317.99	5.92	-50.1	-51.9	3.7	0.00e+00	0	50	104	0	70	19182
2026-01-26 09:34:11.00	317.81	5.86	-50.1	-51.9	3.7	0.00e+00	0	50	104	0	70	19146
2026-01-26 09:34:12.01	317.64	5.81	-50.1	-51.9	3.7	0.00e+00	0	50	104	0	70	19215
2026-01-26 09:34:13.01	317.47	5.76	-50.1	-51.9	3.6	0.00e+00	0	50	104	0	70	19165
2026-01-26 09:34:14.02	317.30	5.71	-50.1	-51.9	3.7	0.00e+00	0	50	104	0	70	19197
2026-01-26 09:34:15.03	317.13	5.66	-50.1	-51.9	3.7	0.00e+00	0	50	104	0	70	19184
2026-01-26 09:34:16.04	316.96	5.60	-50.1	-51.9	3.7	0.00e+00	0	50	104	0	70	19178
2026-01-26 09:34:17.05	316.80	5.55	-50.1	-51.9	3.7	0.00e+00	0	50	104	0	70	19189
2026-01-26 09:34:18.05	316.63	5.50	-50.1	-51.9	3.7	0.00e+00	0	50	104	0	70	19172
2026-01-26 09:34:19.06	316.46	5.45	-50.1	-51.9	3.7	0.00e+00	0	50	104	0	70	19183
2026-01-26 09:34:20.07	316.30	5.40	-50.1	-51.9	3.7	0.00e+00	0	50	104	0	70	19218
2026-01-26 09:34:21.07	316.14	5.34	-50.1	-51.9	3.7	0.00e+00	0	50	104	0	70	19183
2026-01-26 09:34:22.08	315.97	5.29	-50.1	-51.9	3.7	0.00e+00	0	50	104	0	70	19167
2026-01-26 09:34:23.09	315.81	5.24	-50.1	-51.9	3.7	0.00e+00	0	50	104	0	70	19243
2026-01-26 09:34:24.10	315.65	5.19	-50.1	-51.9	3.7	0.00e+00	0	50	104	0	70	19191
2026-01-26 09:34:25.11	315.48	5.14	-50.1	-51.9	3.7	0.00e+00	0	50	104	0	70	19171
2026-01-26 09:34:26.12	315.32	5.08	-50.1	-51.9	3.7	0.00e+00	0	50	104	0	70	19148
2026-01-26 09:34:27.13	315.16	5.03	-50.1	-51.9	3.7	0.00e+00	0	50	104	0	70	19154
2026-01-26 09:34:28.13	315.00	4.98	-50.1	-51.9	3.7	0.00e+00	0	50	104	0	70	19195
2026-01-26 09:34:29.14	314.85	4.93	-50.1	-51.9	3.7	0.00e+00	0	50	104	0	70	19232
2026-01-26 09:34:30.15	314.69	4.87	-50.1	-51.9	3.7	0.00e+00	0	50	104	0	70	19203
2026-01-26 09:34:31.16	314.53	4.82	-50.1	-51.9	3.7	0.00e+00	0	50	104	0	70	19216
2026-01-26 09:34:32.17	314.37	4.77	-50.1	-51.9	3.7	0.00e+00	0	50	104	0	70	19168
2026-01-26 09:34:33.17	314.22	4.72	-50.1	-51.9	3.7	0.00e+00	0	50	104	0	70	19223
2026-01-26 09:34:34.18	314.06	4.66	-50.1	-51.9	3.7	0.00e+00	0	50	104	0	70	19236
2026-01-26 09:34:35.19	313.91	4.61	-50.1	-51.9	3.7	0.00e+00	0	50	104	0	70	19236
2026-01-26 09:34:36.20	313.76	4.56	-50.1	-51.9	3.7	0.00e+00	0	50	104	0	70	19251
2026-01-26 09:34:37.21	313.60	4.50	-50.1	-51.9	3.7	0.00e+00	0	50	104	0	70	19220
2026-01-26 09:34:38.21	313.45	4.45	-50.1	-51.9	3.7	0.00e+00	0	50	104	0	70	19154
2026-01-26 09:34:39.22	313.30	4.40	-50.1	-51.9	3.7	0.00e+00	0	50	104	0	70	19164
2026-01-26 09:34:40.23	313.15	4.35	-50.1	-51.9	3.7	0.00e+00	0	50	104	0	70	19246
2026-01-26 09:34:41.24	313.00	4.29	-50.1	-51.9	3.7	0.00e+00	0	50	104	0	70	19196
2026-01-26 09:34:42.25	312.85	4.24	-50.1	-51.9	3.7	0.00e+00	0	50	104	0	70	19215
2026-01-26 09:34:43.25	312.70	4.19	-50.1	-51.9	3.7	0.00e+00	0	50	104	0	70	19167
2026-01-26 09:34:44.25	312.56	4.14	-50.1	-51.9	3.7	0.00e+00	0	50	104	0	70	19188
2026-01-26 09:34:45.26	312.41	4.08	-50.1	-51.9	3.7	0.00e+00	0	50	104	0	70	19246
2026-01-26 09:34:46.27	312.26	4.03	-50.1	-51.9	3.7	0.00e+00	0	50	104	0	70	19171
2026-01-26 09:34:47.28	312.12	3.98	-50.1	-51.9	3.7	0.00e+00	0	50	104	0	70	19209
2026-01-26 09:34:48.29	311.97	3.92	-50.1	-51.9	3.7	0.00e+00	0	50	104	0	70	19201
2026-01-26 09:34:49.29	311.83	3.87	-50.1	-51.9	3.7	0.00e+00	0	50	104	0	70	19137
2026-01-26 09:34:50.30	311.68	3.82	-50.1	-51.9	3.7	0.00e+00	0	50	104	0	70	19166
2026-01-26 09:34:51.31	311.54	3.77	-50.1	-51.9	3.7	0.00e+00	0	50	104	0	70	19236
2026-01-26 09:34:52.32	311.40	3.71	-50.1	-51.9	3.7	0.00e+00	0	50	104	0	70	19170
2026-01-26 09:34:53.33	311.25	3.66	-50.1	-51.9	3.7	0.00e+00	0	50	104	0	70	19162
2026-01-26 09:34:54.33	311.11	3.61	-50.1	-51.9	3.7	0.00e+00	0	50	104	0	70	19181
2026-01-26 09:34:55.34	310.97	3.55	-50.1	-51.9	3.7	0.00e+00	0	50	104	0	70	19238
2026-01-26 09:34:56.35	310.83	3.50	-50.1	-52.0	3.7	0.00e+00	0	50	104	0	70	19265
2026-01-26 09:34:57.36	310.69	3.45	-50.1	-51.9	3.7	0.00e+00	0	50	104	0	70	19192
2026-01-26 09:34:58.36	310.56	3.40	-50.1	-51.9	3.7	0.00e+00	0	50	104	0	70	19222
2026-01-26 09:34:59.37	310.42	3.34	-50.1	-51.9	3.7	0.00e+00	0	50	104	0	70	19196
2026-01-26 09:35:00.38	310.28	3.29	-50.1	-51.9	3.7	0.00e+00	0	50	104	0	70	19223
2026-01-26 09:35:01.39	310.14	3.24	-50.1	-51.9	3.7	0.00e+00	0	50	104	0	70	19216
2026-01-26 09:35:02.40	310.01	3.18	-50.1	-51.9	3.7	0.00e+00	0	50	104	0	70	19220
2026-01-26 09:35:03.40	309.87	3.13	-50.1	-51.9	3.7	0.00e+00	0	50	104	0	70	19211
2026-01-26 09:35:04.41	309.74	3.08	-50.1	-51.9	3.7	0.00e+00	0	50	104	0	70	19150
2026-01-26 09:35:05.42	309.61	3.03	-50.1	-51.9	3.7	0.00e+00	0	50	104	0	70	19157
2026-01-26 09:35:06.43	309.47	2.97	-50.1	-51.9	3.7	0.00e+00	0	50	104	0	70	19234
2026-01-26 09:35:07.44	309.34	2.92	-50.1	-51.9	3.7	0.00e+00	0	50	104	0	70	19233
2026-01-26 09:35:08.45	309.21	2.87	-50.1	-51.9	3.7	0.00e+00	0	50	104	0	70	19213
2026-01-26 09:35:09.45	309.08	2.81	-50.1	-51.9	3.7	0.00e+00	0	50	104	0	70	19166
2026-01-26 09:35:10.46	308.94	2.76	-50.1	-51.9	3.7	0.00e+00	0	50	104	0	70	19209
2026-01-26 09:35:11.47	308.81	2.71	-50.1	-51.9	3.7	0.00e+00	0	50	104	0	70	19248
2026-01-26 09:35:12.48	308.68	2.66	-50.1	-51.9	3.7	0.00e+00	0	50	104	0	70	19110
2026-01-26 09:35:13.49	308.55	2.60	-50.1	-51.9	3.7	0.00e+00	0	50	104	0	70	19190
2026-01-26 09:35:14.49	308.43	2.55	-50.1	-51.9	3.7	0.00e+00	0	50	104	0	70	19211
2026-01-26 09:35:15.50	308.30	2.50	-50.1	-51.9	3.7	0.00e+00	0	50	104	0	70	19206
2026-01-26 09:35:16.51	308.17	2.45	-50.1	-51.9	3.7	0.00e+00	0	50	104	0	70	19239
2026-01-26 09:35:17.52	308.05	2.39	-50.1	-51.9	3.7	0.00e+00	0	50	104	0	70	19185
2026-01-26 09:35:18.53	307.92	2.34	-50.1	-51.9	3.7	0.00e+00	0	50	104	0	70	19182
2026-01-26 09:35:19.54	307.79	2.29	-50.1	-52.0	3.7	0.00e+00	0	50	104	0	70	19278
2026-01-26 09:35:20.55	307.67	2.23	-50.1	-51.9	3.7	0.00e+00	0	50	104	0	70	19174
2026-01-26 09:35:21.56	307.54	2.18	-50.1	-51.9	3.7	0.00e+00	0	50	104	0	70	19210
2026-01-26 09:35:22.57	307.42	2.13	-50.1	-51.9	3.7	0.00e+00	0	50	104	0	70	19140
2026-01-26 09:35:23.58	307.30	2.08	-50.1	-51.9	3.7	0.00e+00	0	50	104	0	70	19193
2026-01-26 09:35:24.59	307.17	2.02	-50.1	-51.9	3.7	0.00e+00	0	50	104	0	70	19232
2026-01-26 09:35:25.59	307.05	1.97	-50.1	-51.9	3.7	0.00e+00	0	50	104	0	70	19234

#Closed at: 2026-01-26 09:35:26
#Recorded file [0 MB]: D:/lorett/data/31041_260126_122733.dat