passes_logs/2026/01/26/R3.2S_Murmansk/R3.2S_Murmansk__20260126_152529_FENGYUN_3D_rec.log

#Pass ID: 20260126_152529_FENGYUN 3D
#Satellite: FENGYUN 3D
#Configuration: FENGYUN 3D
#almurnet v.1.7.20251203
#Start time: 2026-01-26 15:25:28

#Version: 2.2.20231116
#Station: R3.2S_Murmansk
#Location: 33.079688 lon 68.888172 lat
#TLE: 1 43010U 17072A   26025.99795741 -.00000136  00000+0 -42313-4 0  9999
#TLE: 2 43010  98.9962 357.9855 0002515  89.6991 270.4472 14.19699257424818

#Time	Az	El	Level	Level2	SNR	BER	BlckErr	Temp	State	Recorded	gain1	gain2
2026-01-26 15:25:28.81	253.64	1.98	-54.3	-66.2	3.8	8.46e-01	0	41	0	0	79	14856
2026-01-26 15:25:29.81	253.75	2.02	-54.2	-66.3	3.8	8.46e-01	0	41	104	0	79	14892
2026-01-26 15:25:30.82	253.86	2.06	-54.2	-66.2	3.8	8.46e-01	0	41	104	0	79	14819
2026-01-26 15:25:31.82	253.97	2.10	-54.2	-66.2	3.8	8.46e-01	0	41	104	0	79	14822
2026-01-26 15:25:32.83	254.08	2.14	-54.2	-66.2	3.8	8.46e-01	0	41	104	0	79	14781
2026-01-26 15:25:33.84	254.19	2.18	-54.2	-66.2	3.8	8.47e-01	0	41	104	0	79	14771
2026-01-26 15:25:34.84	254.30	2.22	-54.2	-66.2	3.8	8.46e-01	0	41	104	0	79	14812
2026-01-26 15:25:35.85	254.41	2.26	-54.2	-66.2	3.8	8.46e-01	0	41	104	0	79	14736
2026-01-26 15:25:36.86	254.52	2.30	-54.4	-66.3	3.8	8.48e-01	0	41	104	0	79	15024
2026-01-26 15:25:37.87	254.63	2.34	-54.5	-66.5	3.8	8.45e-01	0	41	104	0	79	15253
2026-01-26 15:25:38.87	254.74	2.38	-54.6	-66.5	3.8	8.47e-01	0	41	104	0	79	15371
2026-01-26 15:25:39.88	254.85	2.42	-54.6	-66.5	3.8	8.46e-01	0	41	104	0	79	15391
2026-01-26 15:25:40.89	254.97	2.46	-54.6	-66.6	3.8	8.46e-01	0	41	104	0	79	15435
2026-01-26 15:25:41.90	255.08	2.50	-54.6	-66.6	3.8	8.47e-01	0	41	104	0	79	15418
2026-01-26 15:25:42.91	255.19	2.53	-54.6	-66.5	3.8	8.47e-01	0	42	104	0	79	15363
2026-01-26 15:25:43.92	255.30	2.57	-54.5	-66.5	3.8	8.45e-01	0	42	104	0	79	15272
2026-01-26 15:25:44.93	255.42	2.61	-54.5	-66.4	3.8	8.46e-01	0	42	104	0	79	15211
2026-01-26 15:25:45.93	255.53	2.65	-54.4	-66.4	3.8	8.47e-01	0	42	104	0	79	15136
2026-01-26 15:25:46.94	255.64	2.69	-54.4	-66.3	3.8	8.47e-01	0	42	104	0	79	15012
2026-01-26 15:25:47.95	255.76	2.73	-54.3	-66.3	3.8	8.46e-01	0	42	104	0	79	14921
2026-01-26 15:25:48.96	255.87	2.77	-54.2	-66.2	3.8	8.46e-01	0	42	104	0	79	14783
2026-01-26 15:25:49.97	255.99	2.81	-54.2	-66.1	3.8	8.47e-01	0	42	104	0	79	14686
2026-01-26 15:25:50.98	256.10	2.85	-54.1	-66.0	3.8	8.46e-01	0	42	104	0	79	14511
2026-01-26 15:25:51.99	256.22	2.89	-54.0	-65.9	3.8	8.47e-01	0	42	104	0	79	14330
2026-01-26 15:25:52.99	256.33	2.93	-53.8	-65.7	3.8	8.46e-01	0	41	104	0	79	14038
2026-01-26 15:25:54.00	256.45	2.97	-53.7	-65.6	3.8	8.46e-01	0	42	104	0	79	13838
2026-01-26 15:25:55.01	256.56	3.01	-53.4	-65.4	3.8	8.47e-01	0	42	104	0	78	14243
2026-01-26 15:25:56.02	256.68	3.05	-53.1	-65.0	3.8	8.46e-01	0	42	104	0	78	13570
2026-01-26 15:25:57.03	256.80	3.08	-53.0	-64.9	3.8	8.47e-01	0	42	104	0	78	13566
2026-01-26 15:25:58.04	256.91	3.12	-52.8	-64.7	3.8	8.46e-01	0	42	104	0	77	13910
2026-01-26 15:25:59.04	257.03	3.16	-52.7	-64.6	3.8	8.45e-01	0	42	104	0	77	13881
2026-01-26 15:26:00.05	257.15	3.20	-52.7	-64.6	3.8	8.47e-01	0	42	104	0	77	13760
2026-01-26 15:26:01.06	257.27	3.24	-52.7	-64.5	3.8	8.46e-01	0	42	104	0	77	13720
2026-01-26 15:26:02.07	257.39	3.28	-52.7	-64.5	3.8	8.46e-01	0	42	104	0	77	13707
2026-01-26 15:26:03.07	257.50	3.32	-52.7	-64.6	3.8	8.46e-01	0	42	104	0	77	13752
2026-01-26 15:26:04.08	257.62	3.36	-52.7	-64.6	3.8	8.47e-01	0	42	104	0	77	13749
2026-01-26 15:26:05.09	257.74	3.39	-52.7	-64.6	3.8	8.47e-01	0	42	104	0	77	13749
2026-01-26 15:26:06.09	257.86	3.43	-52.7	-64.6	3.8	8.47e-01	0	42	104	0	77	13803
2026-01-26 15:26:07.10	257.98	3.47	-52.7	-64.6	3.8	8.46e-01	0	42	104	0	77	13743
2026-01-26 15:26:08.11	258.10	3.51	-52.7	-64.5	3.8	8.47e-01	0	42	104	0	77	13689
2026-01-26 15:26:09.12	258.22	3.55	-52.7	-64.6	3.8	8.46e-01	0	42	104	0	77	13733
2026-01-26 15:26:10.13	258.34	3.59	-52.6	-64.6	3.8	8.45e-01	0	42	104	0	77	13733
2026-01-26 15:26:11.13	258.46	3.63	-52.6	-64.6	3.8	8.46e-01	0	42	104	0	77	13745
2026-01-26 15:26:12.14	258.58	3.66	-52.6	-64.6	3.8	8.44e-01	0	42	104	0	77	13748
2026-01-26 15:26:13.15	258.70	3.70	-52.6	-64.6	3.8	8.45e-01	0	42	104	0	77	13786
2026-01-26 15:26:14.16	258.82	3.74	-52.6	-64.5	3.8	8.45e-01	0	42	104	0	77	13718
2026-01-26 15:26:15.16	258.95	3.78	-52.6	-64.5	3.8	8.45e-01	0	42	104	0	77	13710
2026-01-26 15:26:16.17	259.07	3.82	-52.6	-64.5	3.8	8.46e-01	0	42	104	0	77	13703
2026-01-26 15:26:17.18	259.19	3.86	-52.6	-64.5	3.8	8.46e-01	0	42	104	0	77	13692
2026-01-26 15:26:18.19	259.31	3.89	-52.6	-64.5	3.8	8.46e-01	0	42	104	0	77	13625
2026-01-26 15:26:19.19	259.44	3.93	-52.6	-64.5	3.8	8.46e-01	0	42	104	0	77	13582
2026-01-26 15:26:20.20	259.56	3.97	-52.6	-64.5	3.8	8.45e-01	0	42	104	0	77	13649
2026-01-26 15:26:21.21	259.68	4.01	-52.6	-64.5	3.8	8.46e-01	0	42	104	0	77	13698
2026-01-26 15:26:22.22	259.81	4.04	-52.6	-64.5	3.8	8.47e-01	0	42	104	0	77	13706
2026-01-26 15:26:23.23	259.93	4.08	-52.6	-64.5	3.8	8.45e-01	0	42	104	0	77	13706
2026-01-26 15:26:24.24	260.06	4.12	-52.6	-64.5	3.8	8.47e-01	0	42	104	0	77	13718
2026-01-26 15:26:25.25	260.18	4.16	-52.6	-64.5	3.8	8.45e-01	0	43	104	0	77	13718
2026-01-26 15:26:26.25	260.31	4.20	-52.6	-64.5	3.8	8.47e-01	0	43	104	0	77	13622
2026-01-26 15:26:27.26	260.43	4.23	-52.6	-64.4	3.8	8.47e-01	0	42	104	0	77	13474
2026-01-26 15:26:28.27	260.56	4.27	-52.6	-64.3	3.8	8.46e-01	0	42	104	0	77	13262
2026-01-26 15:26:29.28	260.69	4.31	-52.6	-64.2	3.8	8.45e-01	0	42	104	0	77	13120
2026-01-26 15:26:30.28	260.81	4.35	-52.5	-64.2	3.8	8.45e-01	0	42	104	0	77	13201
2026-01-26 15:26:31.29	260.94	4.38	-52.6	-64.3	3.8	8.46e-01	0	42	104	0	77	13342
2026-01-26 15:26:32.30	261.07	4.42	-52.6	-64.4	3.8	8.47e-01	0	42	104	0	77	13506
2026-01-26 15:26:33.31	261.19	4.46	-52.6	-64.5	3.8	8.45e-01	0	42	104	0	77	13612
2026-01-26 15:26:34.32	261.32	4.49	-52.6	-64.4	3.8	8.46e-01	0	43	104	0	77	13434
2026-01-26 15:26:35.33	261.45	4.53	-52.6	-64.3	3.8	8.46e-01	0	43	104	0	77	13320
2026-01-26 15:26:36.33	261.58	4.57	-52.6	-64.3	3.8	8.47e-01	0	43	104	0	77	13348
2026-01-26 15:26:37.34	261.71	4.61	-52.6	-63.8	3.8	8.47e-01	0	42	104	0	77	12658
2026-01-26 15:26:38.35	261.84	4.64	-52.4	-62.9	3.8	8.47e-01	0	42	104	0	76	12051
2026-01-26 15:26:39.36	261.97	4.68	-52.3	-61.8	4.0	8.45e-01	0	43	104	0	76	10562
2026-01-26 15:26:40.37	262.10	4.72	-52.3	-61.6	4.1	8.40e-01	0	43	0	0	76	10313
2026-01-26 15:26:41.37	262.22	4.75	-52.4	-62.1	4.0	8.44e-01	0	43	104	0	76	10939
2026-01-26 15:26:42.37	262.35	4.79	-52.3	-62.0	3.8	8.45e-01	0	43	104	0	76	10831
2026-01-26 15:26:43.38	262.48	4.82	-51.7	-58.2	5.4	8.09e-01	0	43	0	0	75	7384
2026-01-26 15:26:44.39	262.62	4.86	-50.0	-53.6	9.6	3.05e-02	0	43	0	5242880	72	5209
2026-01-26 15:26:45.40	262.75	4.90	-47.8	-49.9	13.5	1.58e-04	0	43	0	10485760	67	4508
2026-01-26 15:26:46.41	262.88	4.93	-46.0	-47.5	15.9	0.00e+00	0	43	0	15728640	64	4089
2026-01-26 15:26:47.41	263.01	4.97	-44.4	-45.6	17.9	0.00e+00	0	43	0	22020096	60	4123
2026-01-26 15:26:48.42	263.14	5.01	-44.0	-45.1	18.8	0.00e+00	0	43	0	28311552	59	4131
2026-01-26 15:26:49.42	263.27	5.04	-44.1	-45.2	18.7	0.00e+00	0	43	0	33554432	59	4169
2026-01-26 15:26:50.43	263.41	5.08	-45.0	-46.3	17.3	0.00e+00	0	43	0	38797312	60	4454
2026-01-26 15:26:51.44	263.54	5.11	-44.0	-45.1	18.7	0.00e+00	0	43	0	45088768	59	4120
2026-01-26 15:26:52.45	263.67	5.15	-45.6	-47.0	16.6	0.00e+00	0	42	0	50331648	61	4583
2026-01-26 15:26:53.46	263.81	5.19	-44.1	-45.3	18.1	4.39e-04	0	43	0	55574528	60	3965
2026-01-26 15:26:54.47	263.94	5.22	-44.6	-45.8	17.8	0.00e+00	0	43	0	61865984	61	3993
2026-01-26 15:26:55.47	264.08	5.26	-43.3	-44.3	19.6	0.00e+00	0	43	0	67108864	58	3983
2026-01-26 15:26:56.48	264.21	5.29	-43.1	-44.1	19.8	0.00e+00	0	43	0	73400320	58	3884
2026-01-26 15:26:57.49	264.35	5.33	-43.3	-44.4	19.4	0.00e+00	0	43	0	78643200	58	4028
2026-01-26 15:26:58.50	264.48	5.36	-43.6	-44.6	19.2	0.00e+00	0	43	0	83886080	58	4140
2026-01-26 15:26:59.51	264.62	5.40	-43.5	-44.6	19.3	0.00e+00	0	43	0	90177536	58	4107
2026-01-26 15:27:00.51	264.75	5.43	-43.3	-44.3	19.5	0.00e+00	0	43	0	96468992	58	3999
2026-01-26 15:27:01.52	264.89	5.47	-43.3	-44.4	19.5	0.00e+00	0	43	0	101711872	58	4006
2026-01-26 15:27:02.53	265.03	5.50	-43.4	-44.4	19.4	0.00e+00	0	43	0	106954752	58	4039
2026-01-26 15:27:03.53	265.16	5.54	-43.2	-44.2	19.7	0.00e+00	0	43	0	113246208	58	3936
2026-01-26 15:27:04.54	265.30	5.57	-43.0	-44.0	19.9	0.00e+00	0	43	0	118489088	57	4069
2026-01-26 15:27:05.55	265.44	5.61	-43.1	-44.2	19.7	0.00e+00	0	43	0	123731968	57	4146
2026-01-26 15:27:06.55	265.57	5.64	-43.0	-44.0	19.8	0.00e+00	0	43	0	130023424	57	4083
2026-01-26 15:27:07.56	265.71	5.68	-43.1	-44.1	19.7	0.00e+00	0	43	0	135266304	57	4135
2026-01-26 15:27:08.56	265.85	5.71	-43.0	-44.0	19.8	0.00e+00	0	43	0	140509184	57	4070
2026-01-26 15:27:09.57	265.99	5.75	-43.0	-44.1	19.8	0.00e+00	0	43	0	146800640	57	4099
2026-01-26 15:27:10.58	266.13	5.78	-42.9	-43.9	19.9	0.00e+00	0	42	0	152043520	57	4048
2026-01-26 15:27:11.59	266.27	5.81	-43.1	-44.1	19.8	0.00e+00	0	43	0	158334976	57	4131
2026-01-26 15:27:12.59	266.41	5.85	-43.2	-44.2	19.7	0.00e+00	0	43	0	163577856	57	4174
2026-01-26 15:27:13.60	266.55	5.88	-43.0	-44.0	19.9	0.00e+00	0	43	0	168820736	57	4069
2026-01-26 15:27:14.61	266.69	5.92	-43.0	-44.0	19.8	0.00e+00	0	43	0	175112192	57	4095
2026-01-26 15:27:15.62	266.83	5.95	-43.0	-44.0	19.9	0.00e+00	0	43	0	181403648	57	4074
2026-01-26 15:27:16.63	266.97	5.98	-43.1	-44.1	19.8	0.00e+00	0	43	0	186646528	57	4115
2026-01-26 15:27:17.64	267.11	6.02	-43.1	-44.1	19.7	0.00e+00	0	43	0	191889408	57	4145
2026-01-26 15:27:18.65	267.25	6.05	-43.2	-44.2	19.6	0.00e+00	0	43	0	198180864	57	4187
2026-01-26 15:27:19.65	267.39	6.08	-43.4	-44.4	19.4	0.00e+00	0	43	0	203423744	57	4278
2026-01-26 15:27:20.66	267.53	6.12	-43.5	-44.6	19.2	0.00e+00	0	43	0	208666624	57	4374
2026-01-26 15:27:21.66	267.68	6.15	-43.8	-44.9	18.8	0.00e+00	0	43	0	214958080	58	4284
2026-01-26 15:27:22.67	267.82	6.18	-44.2	-45.4	18.4	0.00e+00	0	43	0	220200960	59	4284
2026-01-26 15:27:23.68	267.96	6.22	-44.6	-45.8	17.9	0.00e+00	0	43	0	225443840	59	4469
2026-01-26 15:27:24.69	268.11	6.25	-44.5	-45.8	17.6	0.00e+00	0	43	0	231735296	60	4196
2026-01-26 15:27:25.69	268.25	6.28	-44.8	-46.1	17.2	0.00e+00	0	43	0	236978176	60	4372
2026-01-26 15:27:26.70	268.39	6.31	-45.1	-46.6	16.7	0.00e+00	0	43	0	243269632	60	4602
2026-01-26 15:27:27.71	268.54	6.35	-45.4	-46.9	16.3	0.00e+00	0	43	0	248512512	61	4533
2026-01-26 15:27:28.71	268.68	6.38	-45.8	-47.4	15.8	0.00e+00	0	43	0	254803968	62	4501
2026-01-26 15:27:29.72	268.83	6.41	-45.9	-47.6	15.5	0.00e+00	0	43	0	260046848	62	4604
2026-01-26 15:27:30.73	268.97	6.44	-46.3	-48.1	15.0	0.00e+00	0	43	0	266338304	63	4621
2026-01-26 15:27:31.74	269.12	6.48	-46.5	-48.4	14.6	1.10e-06	0	43	0	271581184	63	4784
2026-01-26 15:27:32.75	269.26	6.51	-46.5	-48.3	14.7	0.00e+00	0	43	0	276824064	63	4746
2026-01-26 15:27:33.76	269.41	6.54	-46.0	-47.7	15.4	0.00e+00	0	43	0	283115520	63	4412
2026-01-26 15:27:34.77	269.56	6.57	-46.1	-47.7	15.5	0.00e+00	0	43	0	288358400	63	4430
2026-01-26 15:27:35.77	269.70	6.60	-46.0	-47.6	15.6	0.00e+00	0	43	0	293601280	63	4382
2026-01-26 15:27:36.78	269.85	6.63	-45.7	-47.3	16.0	0.00e+00	0	43	0	299892736	63	4212
2026-01-26 15:27:37.79	270.00	6.67	-45.6	-47.1	16.1	0.00e+00	0	43	0	305135616	63	4133
2026-01-26 15:27:38.79	270.14	6.70	-45.4	-46.8	16.4	0.00e+00	0	43	0	310378496	62	4234
2026-01-26 15:27:39.80	270.29	6.73	-45.1	-46.4	16.8	0.00e+00	0	43	0	316669952	62	4049
2026-01-26 15:27:40.81	270.44	6.76	-44.6	-45.9	17.4	0.00e+00	0	43	0	321912832	61	4023
2026-01-26 15:27:41.81	270.59	6.79	-44.1	-45.3	18.0	0.00e+00	0	43	0	328204288	60	4004
2026-01-26 15:27:42.82	270.74	6.82	-43.9	-45.1	18.7	0.00e+00	0	43	0	333447168	59	4112
2026-01-26 15:27:43.82	270.89	6.85	-44.0	-45.1	18.7	0.00e+00	0	43	0	339738624	59	4135
2026-01-26 15:27:44.83	271.04	6.88	-43.9	-45.0	18.8	0.00e+00	0	43	0	344981504	59	4083
2026-01-26 15:27:45.84	271.19	6.91	-43.6	-44.7	19.2	0.00e+00	0	43	0	351272960	59	3932
2026-01-26 15:27:46.85	271.34	6.94	-43.6	-44.7	19.1	0.00e+00	0	43	0	356515840	59	3940
2026-01-26 15:27:47.86	271.49	6.97	-43.3	-44.4	19.5	0.00e+00	0	43	0	361758720	58	4012
2026-01-26 15:27:48.87	271.64	7.00	-43.3	-44.4	19.4	0.00e+00	0	43	0	368050176	58	4031
2026-01-26 15:27:49.88	271.79	7.03	-43.2	-44.3	19.6	0.00e+00	0	43	0	373293056	58	3974
2026-01-26 15:27:50.89	271.94	7.06	-43.1	-44.2	19.7	0.00e+00	0	43	0	378535936	58	3920
2026-01-26 15:27:51.89	272.09	7.09	-43.2	-44.3	19.6	0.00e+00	0	43	0	384827392	58	3981
2026-01-26 15:27:52.90	272.24	7.12	-43.1	-44.1	19.7	0.00e+00	0	43	0	390070272	58	3888
2026-01-26 15:27:53.90	272.40	7.15	-42.9	-43.9	19.9	0.00e+00	0	43	0	395313152	57	4044
2026-01-26 15:27:54.91	272.55	7.18	-42.9	-43.9	20.0	0.00e+00	0	43	0	401604608	57	4007
2026-01-26 15:27:55.92	272.70	7.21	-42.9	-43.9	20.0	0.00e+00	0	43	0	407896064	57	4019
2026-01-26 15:27:56.93	272.85	7.24	-42.6	-43.6	20.3	0.00e+00	0	43	0	413138944	57	3869
2026-01-26 15:27:57.93	273.01	7.27	-42.5	-43.5	20.4	0.00e+00	0	43	0	418381824	56	4054
2026-01-26 15:27:58.94	273.16	7.29	-42.7	-43.6	20.2	0.00e+00	0	43	0	424673280	56	4141
2026-01-26 15:27:59.95	273.32	7.32	-42.6	-43.6	20.3	0.00e+00	0	43	0	429916160	56	4108
2026-01-26 15:28:00.96	273.47	7.35	-42.4	-43.4	20.4	0.00e+00	0	43	0	436207616	56	4029
2026-01-26 15:28:01.97	273.62	7.38	-42.5	-43.5	20.3	0.00e+00	0	43	0	441450496	56	4062
2026-01-26 15:28:02.97	273.78	7.41	-42.7	-43.7	20.2	0.00e+00	0	43	0	446693376	56	4161
2026-01-26 15:28:03.98	273.93	7.43	-42.7	-43.6	20.2	0.00e+00	0	43	0	452984832	56	4137
2026-01-26 15:28:04.98	274.09	7.46	-42.5	-43.4	20.4	0.00e+00	0	43	0	458227712	56	4045
2026-01-26 15:28:05.99	274.24	7.49	-42.4	-43.4	20.5	0.00e+00	0	43	0	463470592	56	4027
2026-01-26 15:28:07.00	274.40	7.52	-42.6	-43.5	20.3	0.00e+00	0	43	0	469762048	56	4095
2026-01-26 15:28:08.01	274.56	7.54	-42.6	-43.6	20.2	0.00e+00	0	43	0	475004928	56	4121
2026-01-26 15:28:09.02	274.71	7.57	-42.9	-43.9	20.0	0.00e+00	0	43	0	481296384	56	4258
2026-01-26 15:28:10.02	274.87	7.60	-42.7	-43.7	20.2	0.00e+00	0	43	0	486539264	56	4153
2026-01-26 15:28:11.03	275.03	7.63	-42.5	-43.5	20.4	0.00e+00	0	43	0	492830720	56	4081
2026-01-26 15:28:12.04	275.18	7.65	-42.7	-43.6	20.2	0.00e+00	0	43	0	498073600	56	4144
2026-01-26 15:28:13.05	275.34	7.68	-42.6	-43.6	20.3	0.00e+00	0	43	0	503316480	56	4119
2026-01-26 15:28:14.05	275.50	7.71	-42.8	-43.7	20.1	0.00e+00	0	43	0	509607936	56	4185
2026-01-26 15:28:15.06	275.66	7.73	-42.7	-43.7	20.2	0.00e+00	0	43	0	514850816	56	4179
2026-01-26 15:28:16.06	275.81	7.76	-42.7	-43.7	20.2	0.00e+00	0	43	0	521142272	56	4167
2026-01-26 15:28:17.07	275.97	7.78	-42.6	-43.6	20.3	0.00e+00	0	43	0	526385152	56	4136
2026-01-26 15:28:18.07	276.13	7.81	-42.5	-43.5	20.4	0.00e+00	0	43	0	531628032	56	4057
2026-01-26 15:28:19.08	276.29	7.83	-42.6	-43.6	20.2	0.00e+00	0	43	0	537919488	56	4130
2026-01-26 15:28:20.09	276.45	7.86	-42.8	-43.8	20.1	0.00e+00	0	43	0	543162368	56	4206
2026-01-26 15:28:21.10	276.61	7.89	-42.6	-43.6	20.2	0.00e+00	0	43	0	548405248	56	4129
2026-01-26 15:28:22.11	276.77	7.91	-42.6	-43.6	20.2	0.00e+00	0	43	0	554696704	56	4138
2026-01-26 15:28:23.11	276.93	7.94	-42.7	-43.7	20.2	0.00e+00	0	43	0	560988160	56	4158
2026-01-26 15:28:24.12	277.09	7.96	-42.6	-43.6	20.2	0.00e+00	0	43	0	566231040	56	4120
2026-01-26 15:28:25.13	277.25	7.98	-42.6	-43.6	20.3	0.00e+00	0	43	0	571473920	56	4117
2026-01-26 15:28:26.14	277.41	8.01	-42.6	-43.6	20.3	0.00e+00	0	43	0	577765376	56	4118
2026-01-26 15:28:27.14	277.57	8.03	-42.5	-43.5	20.3	0.00e+00	0	43	0	583008256	56	4062
2026-01-26 15:28:28.15	277.74	8.06	-42.4	-43.4	20.5	0.00e+00	0	43	0	588251136	56	4013
2026-01-26 15:28:29.16	277.90	8.08	-42.5	-43.5	20.4	0.00e+00	0	43	0	594542592	56	4054
2026-01-26 15:28:30.17	278.06	8.10	-42.5	-43.5	20.4	0.00e+00	0	43	0	599785472	56	4082
2026-01-26 15:28:31.18	278.22	8.13	-42.6	-43.6	20.3	0.00e+00	0	43	0	606076928	56	4109
2026-01-26 15:28:32.19	278.39	8.15	-42.7	-43.7	20.2	0.00e+00	0	43	0	611319808	56	4150
2026-01-26 15:28:33.20	278.55	8.18	-42.7	-43.7	20.2	0.00e+00	0	43	0	616562688	56	4153
2026-01-26 15:28:34.20	278.71	8.20	-42.7	-43.7	20.2	0.00e+00	0	43	0	622854144	56	4165
2026-01-26 15:28:35.21	278.87	8.22	-42.7	-43.7	20.2	0.00e+00	0	43	0	628097024	56	4152
2026-01-26 15:28:36.22	279.04	8.24	-42.8	-43.9	20.0	0.00e+00	0	43	0	634388480	56	4243
2026-01-26 15:28:37.23	279.20	8.27	-42.7	-43.7	20.2	0.00e+00	0	43	0	639631360	56	4163
2026-01-26 15:28:38.23	279.37	8.29	-42.6	-43.6	20.3	0.00e+00	0	43	0	645922816	56	4118
2026-01-26 15:28:39.25	279.53	8.31	-42.6	-43.5	20.4	0.00e+00	0	43	0	651165696	56	4095
2026-01-26 15:28:40.25	279.69	8.33	-42.6	-43.6	20.4	0.00e+00	0	43	0	656408576	56	4101
2026-01-26 15:28:41.26	279.86	8.35	-42.6	-43.5	20.4	0.00e+00	0	43	0	662700032	56	4081
2026-01-26 15:28:42.26	280.02	8.38	-42.7	-43.7	20.3	0.00e+00	0	43	0	667942912	56	4155
2026-01-26 15:28:43.27	280.19	8.40	-42.7	-43.6	20.3	0.00e+00	0	43	0	673185792	56	4138
2026-01-26 15:28:44.28	280.36	8.42	-42.8	-43.8	20.1	0.00e+00	0	43	0	679477248	56	4237
2026-01-26 15:28:45.29	280.52	8.44	-42.7	-43.6	20.3	0.00e+00	0	43	0	684720128	56	4138
2026-01-26 15:28:46.30	280.69	8.46	-42.8	-43.8	20.2	0.00e+00	0	43	0	691011584	56	4226
2026-01-26 15:28:47.31	280.85	8.48	-42.8	-43.8	20.2	0.00e+00	0	43	0	696254464	56	4198
2026-01-26 15:28:48.31	281.02	8.50	-42.8	-43.8	20.2	0.00e+00	0	43	0	702545920	56	4209
2026-01-26 15:28:49.32	281.19	8.52	-42.8	-43.8	20.2	0.00e+00	0	43	0	707788800	56	4206
2026-01-26 15:28:50.33	281.35	8.54	-42.8	-43.8	20.2	0.00e+00	0	43	0	714080256	56	4211
2026-01-26 15:28:51.34	281.52	8.56	-42.8	-43.8	20.2	0.00e+00	0	43	0	719323136	56	4230
2026-01-26 15:28:52.34	281.69	8.58	-42.8	-43.8	20.2	0.00e+00	0	43	0	724566016	56	4208
2026-01-26 15:28:53.34	281.85	8.60	-42.7	-43.7	20.3	0.00e+00	0	43	0	730857472	56	4158
2026-01-26 15:28:54.35	282.02	8.62	-42.5	-43.5	20.5	0.00e+00	0	43	0	736100352	56	4083
2026-01-26 15:28:55.36	282.19	8.64	-42.5	-43.5	20.5	0.00e+00	0	43	0	741343232	56	4077
2026-01-26 15:28:56.37	282.36	8.66	-42.4	-43.4	20.6	0.00e+00	0	43	0	747634688	56	4019
2026-01-26 15:28:57.37	282.52	8.68	-42.4	-43.3	20.6	0.00e+00	0	43	0	752877568	56	3998
2026-01-26 15:28:58.38	282.69	8.70	-42.6	-43.5	20.5	0.00e+00	0	43	0	758120448	56	4090
2026-01-26 15:28:59.39	282.86	8.71	-42.5	-43.4	20.6	0.00e+00	0	43	0	764411904	56	4044
2026-01-26 15:29:00.40	283.03	8.73	-42.4	-43.3	20.7	0.00e+00	0	43	0	769654784	56	3993
2026-01-26 15:29:01.40	283.20	8.75	-42.4	-43.3	20.7	0.00e+00	0	43	0	775946240	56	4003
2026-01-26 15:29:02.41	283.37	8.77	-42.4	-43.4	20.7	0.00e+00	0	43	0	781189120	56	4015
2026-01-26 15:29:03.42	283.54	8.78	-42.5	-43.5	20.6	0.00e+00	0	43	0	787480576	56	4061
2026-01-26 15:29:04.43	283.71	8.80	-42.6	-43.6	20.5	0.00e+00	0	43	0	792723456	56	4116
2026-01-26 15:29:05.44	283.88	8.82	-42.5	-43.4	20.6	0.00e+00	0	43	0	799014912	56	4041
2026-01-26 15:29:06.44	284.05	8.84	-42.6	-43.6	20.5	0.00e+00	0	43	0	804257792	56	4122
2026-01-26 15:29:07.45	284.22	8.85	-42.6	-43.5	20.5	0.00e+00	0	43	0	809500672	56	4090
2026-01-26 15:29:08.46	284.39	8.87	-42.6	-43.6	20.5	0.00e+00	0	43	0	815792128	56	4115
2026-01-26 15:29:09.47	284.56	8.89	-42.6	-43.6	20.6	0.00e+00	0	43	0	821035008	56	4101
2026-01-26 15:29:10.47	284.73	8.90	-42.5	-43.4	20.6	0.00e+00	0	43	0	826277888	56	4051
2026-01-26 15:29:11.48	284.90	8.92	-42.5	-43.4	20.7	0.00e+00	0	43	0	832569344	56	4018
2026-01-26 15:29:12.49	285.07	8.93	-42.6	-43.5	20.6	0.00e+00	0	43	0	837812224	56	4083
2026-01-26 15:29:13.49	285.24	8.95	-42.5	-43.4	20.7	0.00e+00	0	43	0	843055104	56	4049
2026-01-26 15:29:14.50	285.42	8.96	-42.5	-43.4	20.8	0.00e+00	0	43	0	849346560	56	4011
2026-01-26 15:29:15.51	285.59	8.98	-42.5	-43.4	20.8	0.00e+00	0	43	0	854589440	56	4040
2026-01-26 15:29:16.51	285.76	8.99	-42.5	-43.4	20.8	0.00e+00	0	43	0	860880896	56	4029
2026-01-26 15:29:17.52	285.93	9.01	-42.6	-43.5	20.7	0.00e+00	0	43	0	866123776	56	4078
2026-01-26 15:29:18.53	286.10	9.02	-42.8	-43.7	20.5	0.00e+00	0	43	0	872415232	56	4182
2026-01-26 15:29:19.54	286.28	9.04	-42.8	-43.7	20.5	0.00e+00	0	43	0	877658112	56	4193
2026-01-26 15:29:20.54	286.45	9.05	-42.9	-43.9	20.3	0.00e+00	0	43	0	883949568	56	4266
2026-01-26 15:29:21.55	286.62	9.06	-42.9	-43.9	20.3	0.00e+00	0	43	0	889192448	56	4278
2026-01-26 15:29:22.55	286.79	9.08	-42.9	-43.9	20.3	0.00e+00	0	43	0	894435328	56	4278
2026-01-26 15:29:23.56	286.97	9.09	-42.9	-43.8	20.4	0.00e+00	0	43	0	900726784	56	4234
2026-01-26 15:29:24.57	287.14	9.10	-42.6	-43.6	20.6	0.00e+00	0	43	0	905969664	56	4123
2026-01-26 15:29:25.58	287.31	9.12	-42.7	-43.7	20.6	0.00e+00	0	43	0	911212544	56	4155
2026-01-26 15:29:26.59	287.49	9.13	-42.6	-43.5	20.7	0.00e+00	0	43	0	917504000	56	4086
2026-01-26 15:29:27.59	287.66	9.14	-42.7	-43.6	20.6	0.00e+00	0	43	0	922746880	56	4139
2026-01-26 15:29:28.61	287.83	9.15	-42.6	-43.5	20.7	0.00e+00	0	43	0	927989760	56	4081
2026-01-26 15:29:29.61	288.01	9.17	-42.4	-43.3	20.9	0.00e+00	0	43	0	934281216	56	3994
2026-01-26 15:29:30.62	288.18	9.18	-42.6	-43.5	20.8	0.00e+00	0	43	0	940572672	56	4071
2026-01-26 15:29:31.63	288.36	9.19	-42.7	-43.6	20.7	0.00e+00	0	43	0	945815552	56	4114
2026-01-26 15:29:32.64	288.53	9.20	-42.6	-43.6	20.7	0.00e+00	0	43	0	951058432	56	4108
2026-01-26 15:29:33.64	288.70	9.21	-42.6	-43.6	20.7	0.00e+00	0	43	0	957349888	56	4112
2026-01-26 15:29:34.65	288.88	9.22	-42.8	-43.8	20.5	0.00e+00	0	43	0	962592768	56	4228
2026-01-26 15:29:35.66	289.05	9.23	-43.1	-44.1	20.3	0.00e+00	0	43	0	968884224	56	4346
2026-01-26 15:29:36.67	289.23	9.24	-42.9	-43.9	20.5	0.00e+00	0	43	0	974127104	56	4259
2026-01-26 15:29:37.67	289.40	9.25	-42.9	-43.9	20.4	0.00e+00	0	43	0	979369984	56	4278
2026-01-26 15:29:38.68	289.58	9.26	-43.0	-44.0	20.3	0.00e+00	0	43	0	985661440	56	4325
2026-01-26 15:29:39.69	289.75	9.27	-43.0	-44.0	20.4	0.00e+00	0	43	0	990904320	56	4308
2026-01-26 15:29:40.70	289.93	9.28	-43.1	-44.1	20.3	0.00e+00	0	43	0	996147200	56	4362
2026-01-26 15:29:41.71	290.10	9.29	-43.1	-44.1	20.3	0.00e+00	0	43	0	1002438656	56	4358
2026-01-26 15:29:42.71	290.28	9.30	-43.0	-43.9	20.5	0.00e+00	0	43	0	1008730112	56	4272
2026-01-26 15:29:43.72	290.45	9.31	-43.0	-44.0	20.4	0.00e+00	0	43	0	1013972992	56	4300
2026-01-26 15:29:44.73	290.63	9.32	-42.9	-43.8	20.6	0.00e+00	0	43	0	1019215872	56	4218
2026-01-26 15:29:45.74	290.81	9.33	-42.9	-43.9	20.6	0.00e+00	0	43	0	1025507328	56	4244
2026-01-26 15:29:46.75	290.98	9.33	-42.7	-43.7	20.7	0.00e+00	0	43	0	1030750208	56	4163
2026-01-26 15:29:47.76	291.16	9.34	-42.6	-43.6	20.8	0.00e+00	0	43	0	1035993088	56	4099
2026-01-26 15:29:48.77	291.33	9.35	-42.7	-43.7	20.8	0.00e+00	0	43	0	1042284544	56	4150
2026-01-26 15:29:49.77	291.51	9.36	-42.8	-43.8	20.6	0.00e+00	0	43	0	1047527424	56	4222
2026-01-26 15:29:50.78	291.69	9.36	-42.8	-43.8	20.6	0.00e+00	0	43	0	1053818880	56	4214
2026-01-26 15:29:51.79	291.86	9.37	-42.7	-43.6	20.8	0.00e+00	0	43	0	1059061760	56	4140
2026-01-26 15:29:52.79	292.04	9.38	-42.7	-43.7	20.7	0.00e+00	0	43	0	1064304640	56	4152
2026-01-26 15:29:53.80	292.21	9.38	-42.7	-43.7	20.7	0.00e+00	0	43	0	1070596096	56	4160
2026-01-26 15:29:54.81	292.39	9.39	-42.8	-43.8	20.6	0.00e+00	0	43	0	1076887552	56	4197
2026-01-26 15:29:55.82	292.57	9.40	-42.6	-43.5	20.9	0.00e+00	0	43	0	1082130432	56	4068
2026-01-26 15:29:56.83	292.74	9.40	-42.5	-43.4	20.9	0.00e+00	0	43	0	1087373312	56	4040
2026-01-26 15:29:57.84	292.92	9.41	-42.4	-43.4	21.0	0.00e+00	0	43	0	1093664768	56	4011
2026-01-26 15:29:58.85	293.10	9.41	-42.5	-43.4	20.9	0.00e+00	0	43	0	1098907648	56	4034
2026-01-26 15:29:59.86	293.28	9.42	-42.5	-43.4	20.9	0.00e+00	0	43	0	1104150528	56	4050
2026-01-26 15:30:00.87	293.45	9.42	-42.7	-43.6	20.8	0.00e+00	0	43	0	1110441984	56	4119
2026-01-26 15:30:01.88	293.63	9.43	-42.6	-43.6	20.8	0.00e+00	0	43	0	1115684864	56	4113
2026-01-26 15:30:02.89	293.81	9.43	-42.7	-43.6	20.7	0.00e+00	0	43	0	1120927744	56	4130
2026-01-26 15:30:03.89	293.98	9.44	-42.7	-43.6	20.7	0.00e+00	0	43	0	1127219200	56	4134
2026-01-26 15:30:04.90	294.16	9.44	-42.7	-43.6	20.7	0.00e+00	0	43	0	1132462080	56	4126
2026-01-26 15:30:05.91	294.34	9.44	-42.7	-43.7	20.7	0.00e+00	0	43	0	1138753536	56	4149
2026-01-26 15:30:06.92	294.52	9.45	-42.8	-43.7	20.6	0.00e+00	0	43	0	1143996416	56	4179
2026-01-26 15:30:07.93	294.69	9.45	-42.8	-43.7	20.6	0.00e+00	0	43	0	1150287872	56	4189
2026-01-26 15:30:08.94	294.87	9.45	-42.6	-43.6	20.7	0.00e+00	0	43	0	1155530752	56	4112
2026-01-26 15:30:09.94	295.05	9.46	-42.5	-43.4	20.9	0.00e+00	0	43	0	1161822208	56	4033
2026-01-26 15:30:10.95	295.22	9.46	-42.5	-43.4	20.9	0.00e+00	0	43	0	1167065088	56	4046
2026-01-26 15:30:11.96	295.40	9.46	-42.4	-43.3	21.0	0.00e+00	0	43	0	1172307968	56	3965
2026-01-26 15:30:12.97	295.58	9.46	-42.2	-43.1	21.1	0.00e+00	0	43	0	1178599424	56	3905
2026-01-26 15:30:13.98	295.76	9.46	-42.3	-43.2	21.0	0.00e+00	0	43	0	1183842304	56	3940
2026-01-26 15:30:14.99	295.93	9.47	-42.4	-43.3	21.0	0.00e+00	0	43	0	1189085184	56	3980
2026-01-26 15:30:15.99	296.11	9.47	-42.2	-43.1	21.2	0.00e+00	0	43	0	1195376640	56	3885
2026-01-26 15:30:17.00	296.29	9.47	-42.4	-43.3	21.0	0.00e+00	0	43	0	1200619520	56	3971
2026-01-26 15:30:18.01	296.47	9.47	-42.4	-43.3	20.9	0.00e+00	0	43	0	1205862400	56	3999
2026-01-26 15:30:19.02	296.64	9.47	-42.3	-43.2	21.1	0.00e+00	0	43	0	1212153856	56	3929
2026-01-26 15:30:20.03	296.82	9.47	-42.3	-43.2	21.0	0.00e+00	0	43	0	1218445312	56	3929
2026-01-26 15:30:21.04	297.00	9.47	-42.4	-43.3	20.9	0.00e+00	0	43	0	1223688192	56	3989
2026-01-26 15:30:22.05	297.18	9.47	-42.4	-43.4	20.8	0.00e+00	0	43	0	1228931072	56	4022
2026-01-26 15:30:23.05	297.35	9.47	-42.4	-43.4	20.9	0.00e+00	0	43	0	1235222528	56	4016
2026-01-26 15:30:24.06	297.53	9.47	-42.5	-43.4	20.8	0.00e+00	0	43	0	1240465408	56	4051
2026-01-26 15:30:25.07	297.71	9.47	-42.4	-43.3	20.9	0.00e+00	0	43	0	1246756864	56	3982
2026-01-26 15:30:26.08	297.89	9.47	-42.4	-43.3	20.9	0.00e+00	0	43	0	1251999744	56	3982
2026-01-26 15:30:27.09	298.06	9.47	-42.3	-43.2	20.9	0.00e+00	0	43	0	1257242624	56	3953
2026-01-26 15:30:28.10	298.24	9.46	-42.4	-43.3	20.9	0.00e+00	0	43	0	1263534080	56	3970
2026-01-26 15:30:29.11	298.42	9.46	-42.3	-43.2	21.0	0.00e+00	0	43	0	1269825536	56	3957
2026-01-26 15:30:30.12	298.60	9.46	-42.4	-43.4	20.9	0.00e+00	0	43	0	1275068416	56	4016
2026-01-26 15:30:31.13	298.77	9.46	-42.5	-43.4	20.8	0.00e+00	0	43	0	1280311296	56	4041
2026-01-26 15:30:32.13	298.95	9.46	-42.5	-43.5	20.7	0.00e+00	0	43	0	1286602752	56	4067
2026-01-26 15:30:33.14	299.13	9.45	-42.6	-43.6	20.6	0.00e+00	0	43	0	1291845632	56	4121
2026-01-26 15:30:34.15	299.30	9.45	-42.7	-43.7	20.6	0.00e+00	0	43	0	1297088512	56	4146
2026-01-26 15:30:35.16	299.48	9.45	-42.6	-43.5	20.7	0.00e+00	0	43	0	1303379968	56	4078
2026-01-26 15:30:36.16	299.66	9.44	-42.5	-43.4	20.8	0.00e+00	0	43	0	1308622848	56	4048
2026-01-26 15:30:37.17	299.84	9.44	-42.4	-43.4	20.8	0.00e+00	0	43	0	1313865728	56	4015
2026-01-26 15:30:38.18	300.01	9.44	-42.4	-43.3	20.9	0.00e+00	0	43	0	1320157184	56	4000
2026-01-26 15:30:39.19	300.19	9.43	-42.5	-43.4	20.8	0.00e+00	0	43	0	1325400064	56	4046
2026-01-26 15:30:40.20	300.37	9.43	-42.3	-43.2	21.0	0.00e+00	0	43	0	1331691520	56	3931
2026-01-26 15:30:41.21	300.54	9.42	-42.2	-43.1	21.1	0.00e+00	0	43	0	1336934400	56	3896
2026-01-26 15:30:42.22	300.72	9.42	-42.3	-43.2	21.0	0.00e+00	0	43	0	1343225856	56	3951
2026-01-26 15:30:43.23	300.90	9.41	-42.3	-43.2	21.0	0.00e+00	0	43	0	1348468736	56	3938
2026-01-26 15:30:44.24	301.07	9.41	-42.3	-43.2	21.0	0.00e+00	0	43	0	1354760192	56	3944
2026-01-26 15:30:45.25	301.25	9.40	-42.3	-43.3	21.0	0.00e+00	0	43	0	1360003072	56	3963
2026-01-26 15:30:46.25	301.43	9.40	-42.4	-43.3	20.9	0.00e+00	0	43	0	1365245952	56	3989
2026-01-26 15:30:47.26	301.60	9.39	-42.4	-43.3	20.9	0.00e+00	0	43	0	1371537408	56	3999
2026-01-26 15:30:48.27	301.78	9.38	-42.5	-43.4	20.8	0.00e+00	0	43	0	1376780288	56	4015
2026-01-26 15:30:49.28	301.96	9.38	-42.3	-43.3	20.9	0.00e+00	0	43	0	1382023168	56	3968
2026-01-26 15:30:50.28	302.13	9.37	-42.3	-43.2	21.0	0.00e+00	0	43	0	1388314624	56	3921
2026-01-26 15:30:51.29	302.31	9.36	-42.3	-43.2	21.0	0.00e+00	0	43	0	1393557504	56	3951
2026-01-26 15:30:52.29	302.48	9.36	-42.3	-43.2	21.0	0.00e+00	0	43	0	1398800384	56	3931
2026-01-26 15:30:53.30	302.66	9.35	-42.4	-43.3	20.9	0.00e+00	0	43	0	1405091840	56	3980
2026-01-26 15:30:54.31	302.84	9.34	-42.4	-43.3	20.9	0.00e+00	0	43	0	1410334720	56	3989
2026-01-26 15:30:55.31	303.01	9.33	-42.5	-43.4	20.8	0.00e+00	0	43	0	1416626176	56	4044
2026-01-26 15:30:56.32	303.19	9.32	-42.5	-43.5	20.7	0.00e+00	0	43	0	1421869056	56	4061
2026-01-26 15:30:57.33	303.36	9.32	-42.6	-43.6	20.6	0.00e+00	0	43	0	1428160512	56	4103
2026-01-26 15:30:58.33	303.54	9.31	-42.6	-43.5	20.6	0.00e+00	0	43	0	1433403392	56	4098
2026-01-26 15:30:59.34	303.71	9.30	-42.7	-43.6	20.5	0.00e+00	0	43	0	1439694848	56	4143
2026-01-26 15:31:00.35	303.89	9.29	-42.7	-43.7	20.5	0.00e+00	0	43	0	1444937728	56	4166
2026-01-26 15:31:01.36	304.06	9.28	-42.7	-43.7	20.5	0.00e+00	0	43	0	1450180608	56	4159
2026-01-26 15:31:02.36	304.24	9.27	-42.7	-43.6	20.5	0.00e+00	0	43	0	1456472064	56	4140
2026-01-26 15:31:03.37	304.41	9.26	-42.6	-43.5	20.6	0.00e+00	0	43	0	1461714944	56	4088
2026-01-26 15:31:04.38	304.59	9.25	-42.5	-43.5	20.6	0.00e+00	0	43	0	1466957824	56	4063
2026-01-26 15:31:05.39	304.76	9.24	-42.6	-43.5	20.6	0.00e+00	0	43	0	1473249280	56	4091
2026-01-26 15:31:06.40	304.94	9.23	-42.5	-43.4	20.7	0.00e+00	0	43	0	1478492160	56	4051
2026-01-26 15:31:07.41	305.11	9.22	-42.5	-43.4	20.7	0.00e+00	0	43	0	1483735040	56	4041
2026-01-26 15:31:08.42	305.29	9.21	-42.7	-43.6	20.5	0.00e+00	0	43	0	1490026496	56	4127
2026-01-26 15:31:09.43	305.46	9.20	-42.5	-43.4	20.7	0.00e+00	0	43	0	1496317952	56	4037
2026-01-26 15:31:10.44	305.63	9.19	-42.4	-43.4	20.8	0.00e+00	0	43	0	1501560832	56	4006
2026-01-26 15:31:11.45	305.81	9.17	-42.5	-43.5	20.7	0.00e+00	0	43	0	1506803712	56	4053
2026-01-26 15:31:12.45	305.98	9.16	-42.5	-43.4	20.7	0.00e+00	0	43	0	1513095168	56	4045
2026-01-26 15:31:13.46	306.15	9.15	-42.3	-43.2	20.9	0.00e+00	0	43	0	1518338048	56	3939
2026-01-26 15:31:14.47	306.33	9.14	-42.2	-43.1	21.1	0.00e+00	0	43	0	1524629504	56	3874
2026-01-26 15:31:15.47	306.50	9.13	-42.1	-43.0	21.1	0.00e+00	0	43	0	1529872384	56	3866
2026-01-26 15:31:16.48	306.67	9.11	-42.2	-43.1	21.0	0.00e+00	0	43	0	1535115264	56	3879
2026-01-26 15:31:17.49	306.85	9.10	-42.3	-43.2	20.9	0.00e+00	0	43	0	1541406720	56	3943
2026-01-26 15:31:18.50	307.02	9.09	-42.2	-43.2	20.9	0.00e+00	0	43	0	1546649600	56	3918
2026-01-26 15:31:19.51	307.19	9.07	-42.4	-43.3	20.8	0.00e+00	0	43	0	1551892480	56	4003
2026-01-26 15:31:20.52	307.37	9.06	-42.5	-43.5	20.6	0.00e+00	0	43	0	1558183936	56	4061
2026-01-26 15:31:21.52	307.54	9.05	-42.5	-43.4	20.7	0.00e+00	0	43	0	1564475392	56	4035
2026-01-26 15:31:22.53	307.71	9.03	-42.5	-43.5	20.6	0.00e+00	0	43	0	1569718272	56	4071
2026-01-26 15:31:23.54	307.88	9.02	-42.6	-43.5	20.6	0.00e+00	0	43	0	1574961152	56	4095
2026-01-26 15:31:24.55	308.05	9.00	-42.5	-43.4	20.6	0.00e+00	0	43	0	1581252608	56	4046
2026-01-26 15:31:25.56	308.23	8.99	-42.4	-43.3	20.7	0.00e+00	0	43	0	1586495488	56	3992
2026-01-26 15:31:26.57	308.40	8.98	-42.4	-43.3	20.7	0.00e+00	0	43	0	1591738368	56	4003
2026-01-26 15:31:27.58	308.57	8.96	-42.3	-43.2	20.8	0.00e+00	0	43	0	1598029824	56	3925
2026-01-26 15:31:28.59	308.74	8.94	-42.3	-43.2	20.8	0.00e+00	0	43	0	1603272704	56	3939
2026-01-26 15:31:29.59	308.91	8.93	-42.2	-43.1	20.9	0.00e+00	0	43	0	1609564160	56	3907
2026-01-26 15:31:30.60	309.08	8.91	-42.4	-43.3	20.7	0.00e+00	0	43	0	1614807040	56	3980
2026-01-26 15:31:31.61	309.25	8.90	-42.3	-43.2	20.8	0.00e+00	0	43	0	1621098496	56	3948
2026-01-26 15:31:32.62	309.42	8.88	-42.4	-43.3	20.7	0.00e+00	0	43	0	1626341376	56	3996
2026-01-26 15:31:33.63	309.60	8.87	-42.4	-43.4	20.6	0.00e+00	0	43	0	1632632832	56	4007
2026-01-26 15:31:34.64	309.77	8.85	-42.5	-43.4	20.6	0.00e+00	0	43	0	1637875712	56	4048
2026-01-26 15:31:35.65	309.94	8.83	-42.5	-43.4	20.6	0.00e+00	0	43	0	1643118592	56	4038
2026-01-26 15:31:36.66	310.11	8.82	-42.5	-43.4	20.6	0.00e+00	0	43	0	1649410048	56	4042
2026-01-26 15:31:37.66	310.27	8.80	-42.5	-43.4	20.6	0.00e+00	0	43	0	1654652928	56	4032
2026-01-26 15:31:38.67	310.44	8.78	-42.5	-43.5	20.5	0.00e+00	0	43	0	1659895808	56	4071
2026-01-26 15:31:39.67	310.61	8.76	-42.5	-43.4	20.6	0.00e+00	0	43	0	1666187264	56	4047
2026-01-26 15:31:40.68	310.78	8.75	-42.5	-43.4	20.6	0.00e+00	0	43	0	1671430144	56	4038
2026-01-26 15:31:41.69	310.95	8.73	-42.5	-43.4	20.6	0.00e+00	0	43	0	1676673024	56	4046
2026-01-26 15:31:42.70	311.12	8.71	-42.5	-43.4	20.6	0.00e+00	0	43	0	1682964480	56	4034
2026-01-26 15:31:43.71	311.29	8.69	-42.4	-43.3	20.7	0.00e+00	0	43	0	1689255936	56	3989
2026-01-26 15:31:44.72	311.46	8.67	-42.5	-43.4	20.6	0.00e+00	0	43	0	1694498816	56	4027
2026-01-26 15:31:45.73	311.62	8.65	-42.5	-43.4	20.6	0.00e+00	0	43	0	1699741696	56	4039
2026-01-26 15:31:46.73	311.79	8.64	-42.6	-43.5	20.5	0.00e+00	0	43	0	1706033152	56	4089
2026-01-26 15:31:47.74	311.96	8.62	-42.5	-43.5	20.5	0.00e+00	0	43	0	1711276032	56	4073
2026-01-26 15:31:48.75	312.13	8.60	-42.7	-43.7	20.3	0.00e+00	0	43	0	1717567488	56	4154
2026-01-26 15:31:49.76	312.29	8.58	-42.5	-43.5	20.5	0.00e+00	0	43	0	1722810368	56	4055
2026-01-26 15:31:50.76	312.46	8.56	-42.6	-43.6	20.4	0.00e+00	0	43	0	1728053248	56	4114
2026-01-26 15:31:51.77	312.63	8.54	-42.5	-43.5	20.5	0.00e+00	0	43	0	1734344704	56	4059
2026-01-26 15:31:52.78	312.79	8.52	-42.5	-43.5	20.5	0.00e+00	0	43	0	1739587584	56	4069
2026-01-26 15:31:53.79	312.96	8.50	-42.6	-43.5	20.4	0.00e+00	0	43	0	1744830464	56	4090
2026-01-26 15:31:54.79	313.12	8.48	-42.6	-43.6	20.4	0.00e+00	0	43	0	1751121920	56	4112
2026-01-26 15:31:55.80	313.29	8.46	-42.6	-43.5	20.4	0.00e+00	0	43	0	1756364800	56	4090
2026-01-26 15:31:56.81	313.46	8.44	-42.6	-43.5	20.5	0.00e+00	0	43	0	1761607680	56	4090
2026-01-26 15:31:57.82	313.62	8.42	-42.4	-43.3	20.6	0.00e+00	0	43	0	1767899136	56	4003
2026-01-26 15:31:58.83	313.79	8.39	-42.5	-43.5	20.5	0.00e+00	0	43	0	1774190592	56	4052
2026-01-26 15:31:59.83	313.95	8.37	-42.5	-43.4	20.5	0.00e+00	0	43	0	1779433472	56	4033
2026-01-26 15:32:00.85	314.12	8.35	-42.5	-43.5	20.4	0.00e+00	0	43	0	1784676352	56	4075
2026-01-26 15:32:01.85	314.28	8.33	-42.6	-43.5	20.4	0.00e+00	0	43	0	1790967808	56	4089
2026-01-26 15:32:02.86	314.44	8.31	-42.7	-43.6	20.3	0.00e+00	0	43	0	1796210688	56	4138
2026-01-26 15:32:03.87	314.61	8.29	-42.6	-43.5	20.4	0.00e+00	0	43	0	1802502144	56	4086
2026-01-26 15:32:04.88	314.77	8.26	-42.6	-43.5	20.4	0.00e+00	0	43	0	1807745024	56	4092
2026-01-26 15:32:05.88	314.94	8.24	-42.5	-43.4	20.5	0.00e+00	0	43	0	1812987904	56	4046
2026-01-26 15:32:06.89	315.10	8.22	-42.7	-43.6	20.3	0.00e+00	0	43	0	1819279360	56	4140
2026-01-26 15:32:07.90	315.26	8.20	-42.7	-43.7	20.3	0.00e+00	0	43	0	1824522240	56	4151
2026-01-26 15:32:08.91	315.42	8.17	-42.6	-43.6	20.3	0.00e+00	0	43	0	1829765120	56	4139
2026-01-26 15:32:09.91	315.59	8.15	-42.7	-43.7	20.2	0.00e+00	0	43	0	1836056576	56	4186
2026-01-26 15:32:10.92	315.75	8.13	-42.7	-43.7	20.2	0.00e+00	0	43	0	1842348032	56	4177
2026-01-26 15:32:11.93	315.91	8.10	-42.7	-43.7	20.2	0.00e+00	0	43	0	1847590912	56	4179
2026-01-26 15:32:12.93	316.07	8.08	-42.8	-43.8	20.1	0.00e+00	0	43	0	1852833792	56	4227
2026-01-26 15:32:13.94	316.23	8.06	-42.7	-43.7	20.2	0.00e+00	0	43	0	1859125248	56	4178
2026-01-26 15:32:14.95	316.39	8.03	-42.7	-43.7	20.2	0.00e+00	0	43	0	1864368128	56	4169
2026-01-26 15:32:15.96	316.56	8.01	-42.9	-43.9	20.0	0.00e+00	0	43	0	1869611008	56	4278
2026-01-26 15:32:16.97	316.72	7.98	-43.0	-44.0	19.9	0.00e+00	0	43	0	1875902464	56	4334
2026-01-26 15:32:17.98	316.88	7.96	-43.0	-44.1	19.9	0.00e+00	0	43	0	1881145344	56	4349
2026-01-26 15:32:18.98	317.04	7.93	-43.2	-44.2	19.8	0.00e+00	0	43	0	1887436800	56	4419
2026-01-26 15:32:19.99	317.20	7.91	-43.0	-44.0	19.9	0.00e+00	0	43	0	1892679680	57	4094
2026-01-26 15:32:21.00	317.36	7.88	-42.8	-43.8	20.1	0.00e+00	0	44	0	1897922560	57	3991
2026-01-26 15:32:22.01	317.51	7.86	-42.9	-43.9	20.0	0.00e+00	0	43	0	1904214016	57	4019
2026-01-26 15:32:23.02	317.67	7.83	-42.9	-43.9	20.0	0.00e+00	0	43	0	1910505472	57	4025
2026-01-26 15:32:24.03	317.83	7.81	-42.9	-43.9	20.1	0.00e+00	0	43	0	1915748352	57	4008
2026-01-26 15:32:25.03	317.99	7.78	-42.8	-43.8	20.1	0.00e+00	0	43	0	1920991232	57	3999
2026-01-26 15:32:26.04	318.15	7.76	-42.8	-43.8	20.1	0.00e+00	0	43	0	1927282688	57	3991
2026-01-26 15:32:27.05	318.31	7.73	-42.9	-43.9	20.0	0.00e+00	0	43	0	1932525568	57	4034
2026-01-26 15:32:28.06	318.47	7.70	-42.9	-43.9	20.0	0.00e+00	0	43	0	1937768448	57	4034
2026-01-26 15:32:29.07	318.62	7.68	-42.9	-43.9	20.0	0.00e+00	0	43	0	1944059904	57	4020
2026-01-26 15:32:30.07	318.78	7.65	-42.8	-43.8	20.1	0.00e+00	0	43	0	1949302784	57	3974
2026-01-26 15:32:31.08	318.94	7.62	-42.9	-43.9	20.1	0.00e+00	0	43	0	1954545664	57	4036
2026-01-26 15:32:32.09	319.09	7.60	-42.8	-43.8	20.1	0.00e+00	0	43	0	1960837120	57	3996
2026-01-26 15:32:33.10	319.25	7.57	-42.9	-43.9	20.0	0.00e+00	0	43	0	1966080000	57	4021
2026-01-26 15:32:34.11	319.41	7.54	-42.7	-43.7	20.2	0.00e+00	0	43	0	1972371456	57	3936
2026-01-26 15:32:35.12	319.56	7.52	-42.8	-43.8	20.2	0.00e+00	0	43	0	1977614336	57	3970
2026-01-26 15:32:36.12	319.72	7.49	-42.8	-43.8	20.2	0.00e+00	0	43	0	1983905792	57	3970
2026-01-26 15:32:37.13	319.87	7.46	-42.7	-43.7	20.2	0.00e+00	0	43	0	1989148672	57	3941
2026-01-26 15:32:38.14	320.03	7.43	-42.8	-43.8	20.2	0.00e+00	0	43	0	1995440128	57	3980
2026-01-26 15:32:39.15	320.18	7.41	-42.9	-43.9	20.0	0.00e+00	0	43	0	2000683008	57	4045
2026-01-26 15:32:40.16	320.34	7.38	-42.9	-44.0	20.0	0.00e+00	0	43	0	2005925888	57	4054
2026-01-26 15:32:41.17	320.49	7.35	-43.1	-44.1	19.9	0.00e+00	0	43	0	2012217344	57	4107
2026-01-26 15:32:42.17	320.64	7.32	-42.9	-43.9	20.1	0.00e+00	0	43	0	2017460224	57	4005
2026-01-26 15:32:43.18	320.80	7.29	-42.9	-43.9	20.0	0.00e+00	0	43	0	2022703104	57	4030
2026-01-26 15:32:44.19	320.95	7.27	-42.8	-43.8	20.1	0.00e+00	0	43	0	2028994560	57	3988
2026-01-26 15:32:45.19	321.10	7.24	-42.8	-43.8	20.1	0.00e+00	0	43	0	2034237440	57	3997
2026-01-26 15:32:46.20	321.25	7.21	-42.9	-43.9	20.0	0.00e+00	0	43	0	2039480320	57	4036
2026-01-26 15:32:47.21	321.41	7.18	-43.0	-44.0	20.0	0.00e+00	0	43	0	2045771776	57	4068
2026-01-26 15:32:48.22	321.56	7.15	-43.0	-44.0	19.9	0.00e+00	0	43	0	2052063232	57	4090
2026-01-26 15:32:49.23	321.71	7.12	-42.8	-43.8	20.1	0.00e+00	0	43	0	2057306112	57	3996
2026-01-26 15:32:50.24	321.86	7.09	-42.8	-43.8	20.1	0.00e+00	0	43	0	2062548992	57	3994
2026-01-26 15:32:51.25	322.01	7.06	-43.1	-44.1	19.8	0.00e+00	0	43	0	2068840448	57	4138
2026-01-26 15:32:52.25	322.16	7.03	-43.3	-44.3	19.6	0.00e+00	0	43	0	2074083328	57	4237
2026-01-26 15:32:53.26	322.31	7.00	-43.2	-44.3	19.6	0.00e+00	0	43	0	2080374784	57	4214
2026-01-26 15:32:54.27	322.47	6.97	-43.3	-44.3	19.6	0.00e+00	0	43	0	2085617664	57	4228
2026-01-26 15:32:55.27	322.61	6.94	-43.3	-44.4	19.5	0.00e+00	0	43	0	2090860544	57	4266
2026-01-26 15:32:56.28	322.76	6.91	-43.4	-44.5	19.4	0.00e+00	0	43	0	2097152000	57	4294
2026-01-26 15:32:57.29	322.91	6.88	-43.2	-44.2	19.7	0.00e+00	0	43	0	2102394880	57	4168
2026-01-26 15:32:58.29	323.06	6.85	-43.1	-44.2	19.8	0.00e+00	0	43	0	2107637760	57	4151
2026-01-26 15:32:59.30	323.21	6.82	-42.8	-43.7	20.1	0.00e+00	0	43	0	2113929216	57	3945
2026-01-26 15:33:00.31	323.36	6.79	-42.8	-43.8	20.0	0.00e+00	0	43	0	2119172096	57	3990
2026-01-26 15:33:01.32	323.51	6.76	-42.8	-43.8	20.0	0.00e+00	0	43	0	2125463552	57	3986
2026-01-26 15:33:02.33	323.66	6.73	-42.9	-43.9	19.9	0.00e+00	0	43	0	2130706432	57	4038
2026-01-26 15:33:03.33	323.80	6.70	-43.0	-44.0	19.9	0.00e+00	0	43	0	2136997888	57	4082
2026-01-26 15:33:04.34	323.95	6.67	-42.9	-43.8	20.0	0.00e+00	0	43	0	2142240768	57	4000
2026-01-26 15:33:05.35	324.10	6.64	-43.0	-44.1	19.8	0.00e+00	0	43	0	2147483648	57	4104
2026-01-26 15:33:06.36	324.24	6.61	-43.1	-44.1	19.8	0.00e+00	0	43	0	2153775104	57	4112
2026-01-26 15:33:07.37	324.39	6.57	-43.3	-44.3	19.5	0.00e+00	0	43	0	2159017984	57	4228
2026-01-26 15:33:08.37	324.53	6.54	-43.3	-44.4	19.5	0.00e+00	0	43	0	2165309440	57	4257
2026-01-26 15:33:09.38	324.68	6.51	-43.1	-44.2	19.7	0.00e+00	0	43	0	2170552320	57	4151
2026-01-26 15:33:10.39	324.83	6.48	-43.2	-44.2	19.6	0.00e+00	0	43	0	2175795200	57	4191
2026-01-26 15:33:11.39	324.97	6.45	-43.2	-44.3	19.5	0.00e+00	0	43	0	2182086656	57	4211
2026-01-26 15:33:12.40	325.11	6.42	-43.3	-44.4	19.5	0.00e+00	0	43	0	2187329536	57	4247
2026-01-26 15:33:13.41	325.26	6.38	-43.4	-44.4	19.4	0.00e+00	0	43	0	2193620992	57	4275
2026-01-26 15:33:14.42	325.40	6.35	-43.3	-44.4	19.4	0.00e+00	0	43	0	2198863872	57	4251
2026-01-26 15:33:15.43	325.55	6.32	-43.3	-44.4	19.4	0.00e+00	0	43	0	2205155328	57	4260
2026-01-26 15:33:16.44	325.69	6.29	-43.4	-44.4	19.4	0.00e+00	0	43	0	2210398208	57	4284
2026-01-26 15:33:17.45	325.84	6.25	-43.3	-44.3	19.5	0.00e+00	0	43	0	2215641088	57	4218
2026-01-26 15:33:18.46	325.98	6.22	-43.2	-44.3	19.5	0.00e+00	0	43	0	2221932544	57	4219
2026-01-26 15:33:19.47	326.12	6.19	-43.3	-44.3	19.5	0.00e+00	0	43	0	2227175424	57	4239
2026-01-26 15:33:20.48	326.26	6.16	-43.4	-44.4	19.4	0.00e+00	0	43	0	2232418304	57	4271
2026-01-26 15:33:21.49	326.41	6.12	-43.4	-44.4	19.4	0.00e+00	0	43	0	2238709760	57	4280
2026-01-26 15:33:22.50	326.55	6.09	-43.2	-44.2	19.6	0.00e+00	0	43	0	2243952640	57	4182
2026-01-26 15:33:23.50	326.69	6.06	-43.0	-44.1	19.7	0.00e+00	0	43	0	2250244096	57	4101
2026-01-26 15:33:24.51	326.83	6.02	-43.3	-44.3	19.5	0.00e+00	0	43	0	2255486976	57	4215
2026-01-26 15:33:25.52	326.97	5.99	-43.2	-44.2	19.6	0.00e+00	0	43	0	2261778432	57	4177
2026-01-26 15:33:26.53	327.11	5.96	-43.1	-44.1	19.7	0.00e+00	0	43	0	2267021312	57	4140
2026-01-26 15:33:27.54	327.25	5.92	-43.2	-44.2	19.6	0.00e+00	0	43	0	2273312768	57	4177
2026-01-26 15:33:28.55	327.39	5.89	-43.2	-44.3	19.5	0.00e+00	0	43	0	2278555648	57	4209
2026-01-26 15:33:29.56	327.53	5.85	-43.3	-44.4	19.4	0.00e+00	0	43	0	2283798528	57	4266
2026-01-26 15:33:30.57	327.67	5.82	-43.2	-44.3	19.5	0.00e+00	0	43	0	2290089984	57	4204
2026-01-26 15:33:31.57	327.81	5.79	-43.3	-44.3	19.4	0.00e+00	0	43	0	2295332864	57	4231
2026-01-26 15:33:32.58	327.95	5.75	-43.3	-44.4	19.4	0.00e+00	0	43	0	2300575744	57	4257
2026-01-26 15:33:33.59	328.09	5.72	-43.3	-44.4	19.4	0.00e+00	0	43	0	2306867200	57	4259
2026-01-26 15:33:34.60	328.22	5.68	-43.3	-44.4	19.4	0.00e+00	0	43	0	2312110080	57	4264
2026-01-26 15:33:35.61	328.36	5.65	-43.1	-44.1	19.6	0.00e+00	0	43	0	2317352960	57	4125
2026-01-26 15:33:36.61	328.50	5.62	-43.2	-44.2	19.5	0.00e+00	0	43	0	2323644416	57	4191
2026-01-26 15:33:37.62	328.64	5.58	-43.2	-44.2	19.6	0.00e+00	0	43	0	2329935872	57	4164
2026-01-26 15:33:38.63	328.77	5.55	-43.3	-44.4	19.3	0.00e+00	0	43	0	2335178752	57	4271
2026-01-26 15:33:39.63	328.91	5.51	-43.4	-44.5	19.3	0.00e+00	0	43	0	2340421632	57	4296
2026-01-26 15:33:40.64	329.04	5.48	-43.5	-44.6	19.2	0.00e+00	0	43	0	2346713088	57	4365
2026-01-26 15:33:41.65	329.18	5.44	-43.4	-44.4	19.3	0.00e+00	0	43	0	2351955968	57	4273
2026-01-26 15:33:42.66	329.32	5.41	-43.4	-44.5	19.2	0.00e+00	0	43	0	2358247424	57	4319
2026-01-26 15:33:43.67	329.45	5.37	-43.6	-44.7	19.1	0.00e+00	0	43	0	2363490304	57	4396
2026-01-26 15:33:44.68	329.59	5.34	-43.5	-44.6	19.2	0.00e+00	0	43	0	2368733184	57	4371
2026-01-26 15:33:45.69	329.72	5.30	-43.5	-44.6	19.1	0.00e+00	0	43	0	2375024640	57	4351
2026-01-26 15:33:46.69	329.85	5.27	-43.8	-45.0	18.8	0.00e+00	0	43	0	2380267520	58	4292
2026-01-26 15:33:47.70	329.99	5.23	-43.8	-44.9	18.8	0.00e+00	0	43	0	2385510400	58	4263
2026-01-26 15:33:48.71	330.12	5.20	-43.9	-45.0	18.7	0.00e+00	0	43	0	2391801856	58	4317
2026-01-26 15:33:49.72	330.26	5.16	-43.8	-44.9	18.8	0.00e+00	0	43	0	2398093312	58	4282
2026-01-26 15:33:50.73	330.39	5.13	-43.7	-44.8	18.8	0.00e+00	0	43	0	2403336192	58	4234
2026-01-26 15:33:51.74	330.52	5.09	-43.8	-44.9	18.8	0.00e+00	0	43	0	2408579072	58	4265
2026-01-26 15:33:52.75	330.65	5.05	-43.9	-45.0	18.6	0.00e+00	0	43	0	2414870528	58	4333
2026-01-26 15:33:53.76	330.79	5.02	-43.9	-45.1	18.7	0.00e+00	0	43	0	2420113408	58	4343
2026-01-26 15:33:54.76	330.92	4.98	-51.8	-59.2	5.0	0.00e+00	0	43	0	2425356288	74	8826
2026-01-26 15:33:55.77	331.05	4.95	-52.8	-64.8	3.8	8.46e-01	0	43	104	2425356288	76	14902
2026-01-26 15:33:56.78	331.18	4.91	-52.9	-64.9	3.8	8.46e-01	0	43	104	2425356288	76	15123
2026-01-26 15:33:57.79	331.31	4.87	-53.1	-65.0	3.8	8.46e-01	0	43	104	2425356288	76	15354
2026-01-26 15:33:58.80	331.44	4.84	-53.2	-65.2	3.8	8.46e-01	0	43	104	2425356288	77	14769
2026-01-26 15:33:59.81	331.57	4.80	-53.3	-65.3	3.8	8.45e-01	0	43	104	2425356288	77	14883
2026-01-26 15:34:00.82	331.70	4.76	-53.4	-65.3	3.8	8.47e-01	0	43	104	2425356288	77	15026
2026-01-26 15:34:01.83	331.83	4.73	-53.4	-65.3	3.8	8.46e-01	0	43	104	2425356288	77	15043
2026-01-26 15:34:02.83	331.96	4.69	-53.4	-65.3	3.8	8.46e-01	0	44	104	2425356288	77	14960
2026-01-26 15:34:03.84	332.09	4.66	-53.3	-65.2	3.8	8.45e-01	0	43	104	2425356288	77	14816
2026-01-26 15:34:04.85	332.22	4.62	-53.3	-65.2	3.8	8.46e-01	0	43	104	2425356288	77	14788
2026-01-26 15:34:05.86	332.35	4.58	-53.2	-65.1	3.8	8.47e-01	0	43	104	2425356288	77	14559
2026-01-26 15:34:06.87	332.47	4.55	-53.2	-65.1	3.8	8.46e-01	0	43	104	2425356288	77	14659
2026-01-26 15:34:07.88	332.60	4.51	-53.2	-65.2	3.8	8.46e-01	0	43	104	2425356288	77	14737
2026-01-26 15:34:08.89	332.73	4.47	-53.3	-65.2	3.8	8.45e-01	0	43	104	2425356288	77	14802
2026-01-26 15:34:09.89	332.86	4.44	-53.3	-65.2	3.8	8.46e-01	0	43	104	2425356288	77	14878
2026-01-26 15:34:10.90	332.98	4.40	-53.3	-65.3	3.8	8.45e-01	0	43	104	2425356288	77	14940
2026-01-26 15:34:11.91	333.11	4.36	-53.4	-65.3	3.8	8.46e-01	0	43	104	2425356288	77	14964
2026-01-26 15:34:12.92	333.24	4.32	-53.4	-65.3	3.8	8.47e-01	0	43	104	2425356288	77	14978
2026-01-26 15:34:13.92	333.36	4.29	-53.4	-65.4	3.8	8.47e-01	0	43	104	2425356288	77	15083
2026-01-26 15:34:14.93	333.49	4.25	-53.4	-65.4	3.8	8.47e-01	0	44	104	2425356288	77	15062
2026-01-26 15:34:15.94	333.61	4.21	-53.4	-65.4	3.8	8.46e-01	0	43	104	2425356288	77	15104
2026-01-26 15:34:16.95	333.74	4.18	-53.4	-65.3	3.8	8.46e-01	0	43	104	2425356288	77	14987
2026-01-26 15:34:17.95	333.86	4.14	-53.4	-65.3	3.8	8.47e-01	0	43	104	2425356288	77	14983
2026-01-26 15:34:18.96	333.99	4.10	-53.4	-65.3	3.8	8.45e-01	0	43	104	2425356288	77	14976
2026-01-26 15:34:19.97	334.11	4.06	-53.4	-65.3	3.8	8.46e-01	0	43	104	2425356288	77	14979
2026-01-26 15:34:20.98	334.23	4.03	-53.4	-65.3	3.8	8.47e-01	0	43	104	2425356288	77	14959
2026-01-26 15:34:21.99	334.36	3.99	-53.4	-65.3	3.8	8.47e-01	0	43	104	2425356288	77	14996
2026-01-26 15:34:22.99	334.48	3.95	-53.3	-65.3	3.8	8.46e-01	0	43	104	2425356288	77	14936
2026-01-26 15:34:24.00	334.60	3.91	-53.3	-65.3	3.8	8.47e-01	0	43	104	2425356288	77	14915
2026-01-26 15:34:25.01	334.73	3.87	-53.3	-65.3	3.8	8.46e-01	0	43	104	2425356288	77	14937
2026-01-26 15:34:26.02	334.85	3.84	-53.3	-65.3	3.8	8.46e-01	0	43	104	2425356288	77	14921
2026-01-26 15:34:27.03	334.97	3.80	-53.3	-65.3	3.8	8.47e-01	0	43	104	2425356288	77	14898
2026-01-26 15:34:28.03	335.09	3.76	-53.3	-65.3	3.8	8.46e-01	0	43	104	2425356288	77	14893
2026-01-26 15:34:29.04	335.21	3.72	-53.3	-65.3	3.8	8.46e-01	0	43	104	2425356288	77	14882
2026-01-26 15:34:30.05	335.33	3.69	-53.3	-65.3	3.8	8.46e-01	0	43	104	2425356288	77	14883
2026-01-26 15:34:31.06	335.45	3.65	-53.3	-65.2	3.8	8.46e-01	0	43	104	2425356288	77	14858
2026-01-26 15:34:32.06	335.57	3.61	-53.3	-65.2	3.8	8.46e-01	0	44	104	2425356288	77	14828
2026-01-26 15:34:33.07	335.69	3.57	-53.3	-65.2	3.8	8.47e-01	0	43	104	2425356288	77	14839
2026-01-26 15:34:34.08	335.81	3.53	-53.3	-65.3	3.8	8.45e-01	0	43	104	2425356288	77	14889
2026-01-26 15:34:35.09	335.93	3.49	-53.3	-65.2	3.8	8.47e-01	0	43	104	2425356288	77	14841
2026-01-26 15:34:36.09	336.05	3.46	-53.3	-65.2	3.8	8.45e-01	0	43	104	2425356288	77	14804
2026-01-26 15:34:37.10	336.17	3.42	-53.3	-65.2	3.8	8.46e-01	0	44	104	2425356288	77	14799
2026-01-26 15:34:38.11	336.29	3.38	-53.3	-65.2	3.8	8.47e-01	0	44	104	2425356288	77	14793
2026-01-26 15:34:39.12	336.41	3.34	-53.3	-65.2	3.8	8.45e-01	0	43	104	2425356288	77	14805
2026-01-26 15:34:40.13	336.53	3.30	-53.3	-65.2	3.8	8.47e-01	0	43	104	2425356288	77	14797
2026-01-26 15:34:41.13	336.64	3.26	-53.3	-65.2	3.8	8.46e-01	0	43	104	2425356288	77	14786
2026-01-26 15:34:42.14	336.76	3.23	-53.3	-65.2	3.8	8.47e-01	0	43	104	2425356288	77	14772
2026-01-26 15:34:43.14	336.88	3.19	-53.3	-65.2	3.8	8.46e-01	0	43	104	2425356288	77	14793
2026-01-26 15:34:44.15	336.99	3.15	-53.3	-65.2	3.8	8.46e-01	0	43	104	2425356288	77	14775
2026-01-26 15:34:45.16	337.11	3.11	-53.3	-65.2	3.8	8.48e-01	0	43	104	2425356288	77	14753
2026-01-26 15:34:46.17	337.23	3.07	-53.3	-65.2	3.8	8.46e-01	0	44	104	2425356288	77	14791
2026-01-26 15:34:47.17	337.34	3.03	-53.2	-65.2	3.8	8.46e-01	0	43	104	2425356288	77	14740
2026-01-26 15:34:48.18	337.46	2.99	-53.3	-65.2	3.8	8.46e-01	0	44	104	2425356288	77	14740
2026-01-26 15:34:49.19	337.57	2.96	-53.2	-65.2	3.8	8.46e-01	0	43	104	2425356288	77	14757
2026-01-26 15:34:50.20	337.69	2.92	-53.2	-65.2	3.8	8.45e-01	0	43	104	2425356288	77	14753
2026-01-26 15:34:51.20	337.80	2.88	-53.3	-65.2	3.8	8.46e-01	0	43	104	2425356288	77	14764
2026-01-26 15:34:52.21	337.92	2.84	-53.2	-65.2	3.8	8.47e-01	0	43	104	2425356288	77	14741
2026-01-26 15:34:53.22	338.03	2.80	-53.2	-65.2	3.8	8.46e-01	0	43	104	2425356288	77	14760
2026-01-26 15:34:54.23	338.15	2.76	-53.2	-65.2	3.8	8.47e-01	0	44	104	2425356288	77	14767
2026-01-26 15:34:55.24	338.26	2.72	-53.2	-65.2	3.8	8.47e-01	0	43	104	2425356288	77	14727
2026-01-26 15:34:56.25	338.37	2.68	-53.2	-65.2	3.8	8.46e-01	0	44	104	2425356288	77	14750
2026-01-26 15:34:57.25	338.49	2.64	-53.2	-65.2	3.8	8.46e-01	0	44	104	2425356288	77	14736
2026-01-26 15:34:58.26	338.60	2.60	-53.2	-65.2	3.8	8.45e-01	0	43	104	2425356288	77	14747
2026-01-26 15:34:59.27	338.71	2.57	-53.2	-65.1	3.8	8.47e-01	0	43	104	2425356288	77	14664
2026-01-26 15:35:00.28	338.82	2.53	-53.2	-65.2	3.8	8.46e-01	0	44	104	2425356288	77	14722
2026-01-26 15:35:01.29	338.94	2.49	-53.2	-65.1	3.8	8.47e-01	0	43	104	2425356288	77	14702
2026-01-26 15:35:02.29	339.05	2.45	-53.2	-65.2	3.8	8.46e-01	0	43	104	2425356288	77	14719
2026-01-26 15:35:03.30	339.16	2.41	-53.2	-65.1	3.8	8.46e-01	0	43	104	2425356288	77	14698
2026-01-26 15:35:04.31	339.27	2.37	-53.2	-65.2	3.8	8.45e-01	0	43	104	2425356288	77	14724
2026-01-26 15:35:05.32	339.38	2.33	-53.2	-65.2	3.8	8.45e-01	0	43	104	2425356288	77	14726
2026-01-26 15:35:06.32	339.49	2.29	-53.2	-65.1	3.8	8.46e-01	0	43	104	2425356288	77	14699
2026-01-26 15:35:07.33	339.60	2.25	-53.2	-65.1	3.8	8.45e-01	0	43	104	2425356288	77	14683
2026-01-26 15:35:08.33	339.71	2.21	-53.2	-65.1	3.8	8.46e-01	0	43	104	2425356288	77	14694
2026-01-26 15:35:09.34	339.82	2.17	-53.2	-65.1	3.8	8.46e-01	0	43	104	2425356288	77	14693
2026-01-26 15:35:10.35	339.93	2.13	-53.2	-65.1	3.8	8.47e-01	0	43	104	2425356288	77	14674
2026-01-26 15:35:11.36	340.04	2.09	-53.2	-65.2	3.8	8.46e-01	0	43	104	2425356288	77	14734
2026-01-26 15:35:12.37	340.15	2.05	-53.2	-65.1	3.8	8.46e-01	0	44	104	2425356288	77	14682
2026-01-26 15:35:13.37	340.25	2.01	-53.2	-65.2	3.8	8.46e-01	0	43	104	2425356288	77	14749
2026-01-26 15:35:14.38	340.36	1.98	-53.2	-65.2	3.8	8.47e-01	0	43	104	2425356288	77	14749
2026-01-26 15:35:15.39	340.47	1.94	-53.2	-65.1	3.8	8.45e-01	0	43	104	2425356288	77	14681

#Closed at: 2026-01-26 15:35:15
#Recorded file [2425 MB]: D:/lorett/data/31041_260126_182528.dat