passes_logs/2026/01/26/R3.2S_Murmansk/R3.2S_Murmansk__20260126_195817_TY-42_rec.log

#Pass ID: 20260126_195817_TY-42
#Satellite: TY-42
#Configuration: TY-42_900M
#almurnet v.1.7.20251203
#Start time: 2026-01-26 19:58:18

#Version: 2.2.20231116
#Station: R3.2S_Murmansk
#Location: 33.079688 lon 68.888172 lat
#TLE: 1 64048U 25103A   26026.63109954  .00008012  00000-0  38191-3 0 09992
#TLE: 2 64048 097.4117 101.8302 0001725 091.3579 298.9652 15.19176186 38587

#Time	Az	El	Level	Level2	SNR	BER	BlckErr	Temp	State	Recorded	gain1	gain2
2026-01-26 19:58:18.01	189.97	2.06	-54.6	-56.8	6.3	0.00e+00	0	50	0	0	80	18831
2026-01-26 19:58:19.01	190.03	2.12	-54.6	-56.8	6.2	0.00e+00	0	50	104	0	81	17892
2026-01-26 19:58:20.02	190.10	2.19	-54.6	-56.8	6.2	0.00e+00	0	50	104	0	81	17789
2026-01-26 19:58:21.03	190.16	2.26	-54.6	-56.8	6.2	0.00e+00	0	50	104	0	81	17785
2026-01-26 19:58:22.04	190.22	2.32	-54.8	-56.9	6.2	0.00e+00	0	50	104	0	81	18081
2026-01-26 19:58:23.05	190.28	2.39	-54.8	-57.0	6.2	0.00e+00	0	50	104	0	81	18208
2026-01-26 19:58:24.05	190.34	2.46	-54.8	-56.9	6.2	0.00e+00	0	50	104	0	81	18172
2026-01-26 19:58:25.06	190.41	2.53	-54.8	-57.0	6.2	0.00e+00	0	50	104	0	81	18199
2026-01-26 19:58:26.07	190.47	2.60	-54.8	-57.0	6.2	0.00e+00	0	50	104	0	81	18180
2026-01-26 19:58:27.08	190.53	2.67	-54.8	-57.0	6.2	0.00e+00	0	50	104	0	81	18184
2026-01-26 19:58:28.09	190.60	2.73	-54.8	-56.9	6.2	0.00e+00	0	50	104	0	81	18071
2026-01-26 19:58:29.09	190.66	2.80	-54.8	-56.9	6.2	0.00e+00	0	51	104	0	81	18104
2026-01-26 19:58:30.09	190.72	2.87	-54.8	-56.9	6.2	0.00e+00	0	50	104	0	81	18088
2026-01-26 19:58:31.09	190.79	2.94	-54.7	-56.9	6.2	0.00e+00	0	51	104	0	81	18001
2026-01-26 19:58:32.10	190.85	3.01	-54.7	-56.8	6.2	0.00e+00	0	50	104	0	81	17964
2026-01-26 19:58:33.10	190.92	3.08	-54.7	-56.8	6.2	0.00e+00	0	50	104	0	81	17909
2026-01-26 19:58:34.11	190.99	3.15	-54.6	-56.8	6.2	0.00e+00	0	51	104	0	81	17786
2026-01-26 19:58:35.12	191.05	3.22	-54.6	-56.7	6.2	0.00e+00	0	51	104	0	81	17659
2026-01-26 19:58:36.13	191.12	3.29	-54.5	-56.6	6.2	0.00e+00	0	51	104	0	81	17504
2026-01-26 19:58:37.14	191.19	3.36	-54.5	-56.6	6.2	0.00e+00	0	51	104	0	81	17465
2026-01-26 19:58:38.14	191.25	3.43	-54.4	-56.5	6.2	0.00e+00	0	51	104	0	80	18352
2026-01-26 19:58:39.15	191.32	3.50	-54.3	-56.4	6.2	0.00e+00	0	51	104	0	80	18157
2026-01-26 19:58:40.16	191.39	3.57	-54.2	-56.4	6.2	0.00e+00	0	51	104	0	80	17976
2026-01-26 19:58:41.16	191.46	3.64	-54.1	-56.3	6.2	0.00e+00	0	51	104	0	80	17784
2026-01-26 19:58:42.17	191.53	3.72	-54.0	-56.1	6.2	0.00e+00	0	51	104	0	80	17482
2026-01-26 19:58:43.18	191.60	3.79	-53.8	-55.9	6.2	0.00e+00	0	51	104	0	79	18146
2026-01-26 19:58:44.19	191.67	3.86	-53.4	-55.6	6.2	0.00e+00	0	51	104	0	78	18395
2026-01-26 19:58:45.20	191.74	3.93	-53.3	-55.5	6.2	0.00e+00	0	51	104	0	78	18230
2026-01-26 19:58:46.20	191.81	4.00	-53.3	-55.5	6.2	0.00e+00	0	51	104	0	78	18218
2026-01-26 19:58:47.21	191.88	4.08	-53.3	-55.4	6.2	0.00e+00	0	51	104	0	78	18172
2026-01-26 19:58:48.22	191.95	4.15	-53.3	-55.4	6.2	0.00e+00	0	51	104	0	78	18102
2026-01-26 19:58:49.23	192.02	4.22	-53.3	-55.4	6.2	0.00e+00	0	51	104	0	78	18120
2026-01-26 19:58:50.24	192.10	4.30	-53.3	-55.4	6.2	0.00e+00	0	51	104	0	78	18139
2026-01-26 19:58:51.25	192.17	4.37	-53.3	-55.4	6.2	0.00e+00	0	51	104	0	78	18176
2026-01-26 19:58:52.25	192.24	4.44	-53.3	-55.4	6.2	0.00e+00	0	52	104	0	78	18088
2026-01-26 19:58:53.26	192.32	4.52	-53.3	-55.4	6.2	0.00e+00	0	52	104	0	78	18100
2026-01-26 19:58:54.27	192.39	4.59	-53.3	-55.4	6.2	0.00e+00	0	52	104	0	78	18105
2026-01-26 19:58:55.28	192.47	4.67	-53.3	-55.4	6.2	0.00e+00	0	52	104	0	78	18097
2026-01-26 19:58:56.29	192.54	4.74	-53.3	-55.4	6.2	0.00e+00	0	52	104	0	78	18121
2026-01-26 19:58:57.29	192.62	4.82	-53.3	-55.4	6.2	0.00e+00	0	52	104	0	78	18109
2026-01-26 19:58:58.30	192.69	4.89	-53.3	-55.4	6.2	0.00e+00	0	52	104	0	78	18097
2026-01-26 19:58:59.31	192.77	4.97	-53.3	-55.4	6.2	0.00e+00	0	52	104	0	78	18065
2026-01-26 19:59:00.32	192.85	5.05	-53.3	-55.4	6.2	0.00e+00	0	52	104	0	78	18159
2026-01-26 19:59:01.33	192.92	5.12	-53.3	-55.4	6.2	0.00e+00	0	52	104	0	78	18170
2026-01-26 19:59:02.33	193.00	5.20	-53.2	-55.4	6.2	0.00e+00	0	52	104	0	78	18069
2026-01-26 19:59:03.34	193.08	5.27	-53.4	-55.5	6.2	0.00e+00	0	52	104	0	78	18277
2026-01-26 19:59:04.35	193.16	5.35	-53.3	-55.5	6.2	0.00e+00	0	52	104	0	78	18186
2026-01-26 19:59:05.35	193.24	5.43	-53.2	-55.4	6.2	0.00e+00	0	52	104	0	78	18005
2026-01-26 19:59:06.35	193.32	5.50	-40.1	-39.9	11.9	0.00e+00	10956	54	104	0	52	13576
2026-01-26 19:59:07.36	193.40	5.58	-40.7	-40.7	12.6	0.00e+00	0	54	0	92274688	53	13967
2026-01-26 19:59:08.36	193.48	5.66	-38.2	-38.0	14.1	8.88e-02	0	54	0	201326592	48	13774
2026-01-26 19:59:09.37	193.56	5.74	-41.8	-41.7	12.0	8.88e-02	4308	55	0	318767104	55	14090
2026-01-26 19:59:10.37	193.64	5.82	-37.0	-36.9	13.9	8.88e-02	0	54	0	427819008	45	14325
2026-01-26 19:59:11.39	193.73	5.90	-36.8	-36.8	13.9	7.01e-02	0	54	0	536870912	45	14117
2026-01-26 19:59:12.39	193.81	5.97	-37.0	-36.9	13.9	7.01e-02	0	54	0	654311424	45	14350
2026-01-26 19:59:13.40	193.89	6.05	-36.6	-36.5	14.1	7.01e-02	0	54	0	763363328	45	13775
2026-01-26 19:59:14.41	193.98	6.13	-36.5	-36.4	14.1	3.43e-02	0	54	0	889192448	45	13548
2026-01-26 19:59:15.42	194.06	6.21	-36.1	-36.1	14.3	3.43e-02	0	54	0	998244352	44	13796
2026-01-26 19:59:16.42	194.15	6.29	-36.1	-36.0	14.4	3.43e-02	0	54	0	1115684864	44	13685
2026-01-26 19:59:17.42	194.23	6.37	-36.1	-36.0	14.4	2.45e-02	0	55	0	1224736768	44	13784
2026-01-26 19:59:18.42	194.32	6.45	-36.0	-35.9	14.4	2.45e-02	0	55	0	1342177280	44	13608
2026-01-26 19:59:19.43	194.40	6.53	-36.1	-36.0	14.4	2.45e-02	0	55	0	1451229184	43	14562
2026-01-26 19:59:20.44	194.49	6.62	-36.2	-36.1	14.4	2.10e-02	0	55	0	1560281088	43	14641
2026-01-26 19:59:21.45	194.58	6.70	-36.2	-36.1	14.4	2.10e-02	0	55	0	1677721600	43	14754
2026-01-26 19:59:22.45	194.67	6.78	-36.0	-35.9	14.5	2.10e-02	0	55	0	1786773504	43	14324
2026-01-26 19:59:23.46	194.76	6.86	-35.9	-35.8	14.5	1.71e-02	0	55	0	1904214016	43	14134
2026-01-26 19:59:24.47	194.85	6.94	-35.7	-35.6	14.6	1.71e-02	0	55	0	2013265920	43	13855
2026-01-26 19:59:25.48	194.94	7.03	-35.9	-35.8	14.5	1.71e-02	0	55	0	2130706432	43	14187
2026-01-26 19:59:26.48	195.03	7.11	-35.7	-35.6	14.6	1.31e-02	0	55	0	2239758336	43	13852
2026-01-26 19:59:27.49	195.12	7.19	-35.8	-35.7	14.5	1.31e-02	0	55	0	2348810240	43	13985
2026-01-26 19:59:28.49	195.21	7.28	-35.7	-35.6	14.6	1.31e-02	0	55	0	2466250752	43	13948
2026-01-26 19:59:29.50	195.31	7.36	-35.4	-35.3	14.7	1.24e-02	0	55	0	2575302656	42	14267
2026-01-26 19:59:30.51	195.40	7.45	-35.4	-35.3	14.7	1.24e-02	0	55	0	2692743168	42	14233
2026-01-26 19:59:31.52	195.49	7.53	-35.4	-35.3	14.8	1.24e-02	0	55	0	2810183680	42	14138
2026-01-26 19:59:32.52	195.59	7.61	-35.5	-35.4	14.7	9.18e-03	0	56	0	2927624192	42	14385
2026-01-26 19:59:33.53	195.68	7.70	-35.5	-35.4	14.7	9.18e-03	0	56	0	3036676096	42	14404
2026-01-26 19:59:34.54	195.78	7.79	-35.4	-35.3	14.8	9.18e-03	0	56	0	3154116608	42	14141
2026-01-26 19:59:35.55	195.88	7.87	-35.3	-35.2	14.8	9.47e-03	0	56	0	3263168512	42	14041
2026-01-26 19:59:36.55	195.98	7.96	-35.4	-35.3	14.7	9.47e-03	0	56	0	3372220416	42	14256
2026-01-26 19:59:37.56	196.07	8.04	-35.5	-35.4	14.7	9.47e-03	0	55	0	3489660928	42	14344
2026-01-26 19:59:38.57	196.17	8.13	-35.2	-35.1	14.8	9.47e-03	0	56	0	3598712832	42	13916
2026-01-26 19:59:39.58	196.27	8.22	-35.3	-35.2	14.8	9.47e-03	0	56	0	3716153344	42	14001
2026-01-26 19:59:40.59	196.37	8.31	-35.1	-35.0	14.9	9.43e-03	0	56	0	3825205248	42	13722
2026-01-26 19:59:41.60	196.48	8.40	-35.1	-35.0	14.9	9.43e-03	0	56	0	3934257152	42	13720
2026-01-26 19:59:42.60	196.58	8.48	-34.9	-34.8	15.0	9.43e-03	0	56	0	4051697664	41	14131
2026-01-26 19:59:43.61	196.68	8.57	-34.9	-34.8	15.0	6.46e-03	0	56	0	4169138176	41	14238
2026-01-26 19:59:44.62	196.78	8.66	-34.8	-34.7	15.0	6.46e-03	0	56	0	4286578688	41	14066
2026-01-26 19:59:45.62	196.89	8.75	-34.7	-34.6	15.1	6.46e-03	0	56	0	4395630592	41	13874
2026-01-26 19:59:46.63	196.99	8.84	-34.9	-34.8	15.0	6.19e-03	0	56	0	4513071104	41	14183
2026-01-26 19:59:47.63	197.10	8.93	-34.9	-34.8	15.0	6.19e-03	0	56	0	4622123008	41	14195
2026-01-26 19:59:48.63	197.20	9.02	-34.9	-34.8	15.0	6.19e-03	0	56	0	4739563520	41	14255
2026-01-26 19:59:49.64	197.31	9.11	-34.8	-34.7	15.0	5.79e-03	0	56	0	4848615424	41	14066
2026-01-26 19:59:50.65	197.42	9.20	-34.7	-34.6	15.1	5.79e-03	0	56	0	4957667328	41	13893
2026-01-26 19:59:51.66	197.53	9.29	-34.7	-34.6	15.1	5.79e-03	0	56	0	5075107840	41	13813
2026-01-26 19:59:52.67	197.64	9.39	-34.7	-34.6	15.1	5.55e-03	0	56	0	5184159744	41	13900
2026-01-26 19:59:53.68	197.75	9.48	-34.6	-34.5	15.1	5.55e-03	0	56	0	5301600256	41	13716
2026-01-26 19:59:54.68	197.86	9.57	-34.6	-34.5	15.1	5.07e-03	0	56	0	5410652160	41	13754
2026-01-26 19:59:55.69	197.97	9.66	-34.6	-34.5	15.2	5.07e-03	0	56	0	5528092672	41	13659
2026-01-26 19:59:56.70	198.08	9.76	-34.5	-34.4	15.2	5.07e-03	0	56	0	5637144576	40	14299
2026-01-26 19:59:57.71	198.20	9.85	-34.4	-34.3	15.2	4.06e-03	0	56	0	5746196480	40	14248
2026-01-26 19:59:58.71	198.31	9.94	-34.5	-34.4	15.2	4.06e-03	0	57	0	5872025600	40	14346
2026-01-26 19:59:59.72	198.43	10.04	-34.4	-34.4	15.2	4.06e-03	0	56	0	5989466112	40	14279
2026-01-26 20:00:00.73	198.54	10.13	-34.3	-34.2	15.3	3.99e-03	0	56	0	6098518016	40	14092
2026-01-26 20:00:01.73	198.66	10.23	-34.2	-34.1	15.3	3.99e-03	0	56	0	6207569920	40	13797
2026-01-26 20:00:02.74	198.78	10.33	-34.1	-34.0	15.4	2.97e-03	0	56	0	6325010432	40	13764
2026-01-26 20:00:03.75	198.90	10.42	-34.2	-34.1	15.3	2.97e-03	0	57	0	6434062336	40	13829
2026-01-26 20:00:04.75	199.02	10.52	-34.2	-34.1	15.3	2.97e-03	0	57	0	6551502848	40	13926
2026-01-26 20:00:05.76	199.14	10.62	-34.1	-34.0	15.4	2.72e-03	0	57	0	6660554752	40	13699
2026-01-26 20:00:06.77	199.26	10.71	-34.1	-34.0	15.3	2.72e-03	0	57	0	6769606656	40	13721
2026-01-26 20:00:07.78	199.38	10.81	-34.0	-33.9	15.5	2.72e-03	0	57	0	6887047168	39	14313
2026-01-26 20:00:08.79	199.51	10.91	-34.1	-34.0	15.4	2.61e-03	0	57	0	6996099072	39	14503
2026-01-26 20:00:09.79	199.63	11.01	-33.9	-33.8	15.5	2.61e-03	0	57	0	7113539584	39	14143
2026-01-26 20:00:10.80	199.76	11.11	-34.0	-34.0	15.4	2.61e-03	0	57	0	7222591488	39	14441
2026-01-26 20:00:11.81	199.89	11.21	-33.8	-33.7	15.5	2.20e-03	0	57	0	7348420608	39	14073
2026-01-26 20:00:12.82	200.01	11.31	-43.5	-43.6	11.1	2.20e-03	5175	58	0	7457472512	57	15578
2026-01-26 20:00:13.83	200.14	11.41	-43.0	-43.1	11.4	8.06e-02	1350	58	0	7574913024	56	15493
2026-01-26 20:00:14.84	200.27	11.51	-43.3	-43.4	11.2	8.06e-02	10579	59	0	7683964928	57	15195
2026-01-26 20:00:15.84	200.40	11.61	-42.6	-42.7	11.7	8.06e-02	185	58	0	7793016832	55	15657
2026-01-26 20:00:16.84	200.53	11.71	-43.0	-43.0	11.4	2.29e-01	6326	59	0	7910457344	56	15376
2026-01-26 20:00:17.85	200.67	11.81	-40.7	-40.6	12.9	2.29e-01	0	58	0	8019509248	53	13933
2026-01-26 20:00:18.86	200.80	11.91	-38.5	-38.8	14.0	2.29e-01	0	58	0	8136949760	49	14263
2026-01-26 20:00:19.87	200.94	12.02	-36.6	-36.5	14.2	1.01e-01	0	57	0	8246001664	45	13774
2026-01-26 20:00:20.88	201.07	12.12	-35.7	-35.7	14.7	1.01e-01	0	57	0	8363442176	43	13954
2026-01-26 20:00:21.88	201.21	12.22	-34.9	-34.8	15.1	1.41e-02	0	57	0	8472494080	41	14212
2026-01-26 20:00:22.89	201.35	12.33	-34.4	-34.3	15.3	1.41e-02	0	58	0	8581545984	40	14131
2026-01-26 20:00:23.90	201.49	12.43	-34.1	-34.0	15.4	1.41e-02	0	58	0	8698986496	40	13752
2026-01-26 20:00:24.91	201.63	12.54	-34.0	-33.9	15.5	1.41e-02	0	57	0	8808038400	39	14388
2026-01-26 20:00:25.91	201.77	12.64	-33.6	-33.5	15.6	3.20e-03	0	58	0	8933867520	39	13665
2026-01-26 20:00:26.92	201.92	12.75	-33.3	-33.2	15.7	3.20e-03	0	58	0	9042919424	38	14084
2026-01-26 20:00:27.93	202.06	12.86	-33.4	-33.3	15.7	3.20e-03	0	58	0	9160359936	38	14214
2026-01-26 20:00:28.93	202.20	12.96	-33.2	-33.1	15.8	1.51e-03	0	58	0	9269411840	38	13935
2026-01-26 20:00:29.94	202.35	13.07	-33.2	-33.1	15.8	1.51e-03	0	58	0	9386852352	38	13907
2026-01-26 20:00:30.94	202.50	13.18	-33.2	-33.1	15.8	1.51e-03	0	58	0	9495904256	38	13886
2026-01-26 20:00:31.95	202.65	13.29	-33.2	-33.1	15.8	1.16e-03	0	58	0	9604956160	38	13929
2026-01-26 20:00:32.95	202.80	13.40	-33.1	-33.0	15.8	1.16e-03	0	58	0	9722396672	38	13776
2026-01-26 20:00:33.96	202.95	13.51	-33.0	-32.9	15.8	1.16e-03	0	58	0	9831448576	38	13614
2026-01-26 20:00:34.97	203.10	13.62	-33.0	-32.9	15.9	9.77e-04	0	58	0	9948889088	38	13602
2026-01-26 20:00:35.98	203.26	13.73	-33.1	-32.9	15.9	9.77e-04	0	58	0	10057940992	38	13618
2026-01-26 20:00:36.99	203.42	13.84	-32.9	-32.8	15.9	9.77e-04	0	58	0	10166992896	37	14128
2026-01-26 20:00:38.00	203.57	13.95	-33.0	-32.9	15.9	8.68e-04	0	58	0	10284433408	37	14374
2026-01-26 20:00:39.00	203.73	14.06	-32.9	-32.8	15.9	8.68e-04	0	58	0	10393485312	37	14165
2026-01-26 20:00:40.01	203.89	14.17	-32.8	-32.7	16.0	8.68e-04	0	58	0	10519314432	37	13985
2026-01-26 20:00:41.01	204.05	14.29	-32.7	-32.6	15.9	7.25e-04	0	58	0	10628366336	37	13906
2026-01-26 20:00:42.02	204.22	14.40	-32.7	-32.5	16.0	7.25e-04	0	58	0	10745806848	37	13785
2026-01-26 20:00:43.03	204.38	14.51	-32.6	-32.5	16.1	7.25e-04	0	58	0	10854858752	37	13634
2026-01-26 20:00:44.03	204.54	14.63	-32.5	-32.4	16.1	5.63e-04	0	58	0	10972299264	37	13586
2026-01-26 20:00:45.04	204.71	14.74	-32.6	-32.5	16.0	5.63e-04	0	58	0	11081351168	37	13712
2026-01-26 20:00:46.05	204.88	14.86	-32.4	-32.3	16.1	5.63e-04	0	58	0	11190403072	36	14178
2026-01-26 20:00:47.06	205.05	14.97	-32.4	-32.3	16.1	6.01e-04	0	58	0	11307843584	36	14246
2026-01-26 20:00:48.07	205.22	15.09	-32.3	-32.2	16.1	6.01e-04	0	58	0	11416895488	36	14032
2026-01-26 20:00:49.07	205.40	15.21	-32.2	-32.1	16.2	6.01e-04	0	58	0	11534336000	36	13921
2026-01-26 20:00:50.08	205.57	15.32	-32.3	-32.2	16.2	3.15e-04	0	58	0	11643387904	36	14111
2026-01-26 20:00:51.09	205.75	15.44	-32.2	-32.1	16.1	3.15e-04	0	58	0	11760828416	36	13904
2026-01-26 20:00:52.10	205.93	15.56	-32.1	-32.0	16.1	3.15e-04	0	58	0	11869880320	36	13738
2026-01-26 20:00:53.11	206.11	15.68	-32.1	-32.0	16.1	3.43e-04	0	58	0	11978932224	36	13695
2026-01-26 20:00:54.11	206.29	15.80	-32.0	-31.9	16.2	3.43e-04	0	58	0	12104761344	36	13609
2026-01-26 20:00:55.12	206.47	15.92	-29.6	-29.5	15.8	3.43e-04	0	58	0	12222201856	31	13684
2026-01-26 20:00:56.13	206.66	16.04	-29.6	-29.5	15.8	3.96e-04	0	58	0	12331253760	31	13702
2026-01-26 20:00:57.14	206.84	16.16	-29.5	-29.4	15.8	3.96e-04	0	58	0	12440305664	31	13582
2026-01-26 20:00:58.15	207.03	16.28	-29.5	-29.5	15.8	3.96e-04	0	58	0	12557746176	31	13637
2026-01-26 20:00:59.16	207.22	16.41	-29.5	-29.4	15.8	7.58e-04	0	58	0	12666798080	31	13558
2026-01-26 20:01:00.17	207.41	16.53	-29.4	-29.3	15.9	7.58e-04	0	58	0	12784238592	30	14161
2026-01-26 20:01:01.17	207.61	16.65	-29.5	-29.4	15.8	6.44e-04	0	58	0	12893290496	30	14340
2026-01-26 20:01:02.18	207.80	16.78	-29.3	-29.2	15.9	6.44e-04	0	58	0	13002342400	30	14043
2026-01-26 20:01:03.19	208.00	16.90	-29.3	-29.2	15.9	6.44e-04	0	58	0	13119782912	30	14103
2026-01-26 20:01:04.20	208.20	17.03	-29.3	-29.2	15.9	6.44e-04	0	58	0	13228834816	30	14031
2026-01-26 20:01:05.21	208.40	17.15	-29.2	-29.1	15.9	6.44e-04	0	58	0	13354663936	30	13851
2026-01-26 20:01:06.22	208.60	17.28	-29.1	-29.1	15.9	6.44e-04	0	58	0	13463715840	30	13792
2026-01-26 20:01:07.23	208.81	17.40	-29.1	-29.0	16.0	6.44e-04	0	58	0	13581156352	30	13728
2026-01-26 20:01:08.24	209.01	17.53	-29.0	-28.9	16.0	5.05e-04	0	58	0	13690208256	30	13571
2026-01-26 20:01:09.24	209.22	17.66	-29.0	-28.9	16.0	5.05e-04	0	58	0	13807648768	30	13613
2026-01-26 20:01:10.25	209.43	17.78	-29.0	-28.9	16.0	4.53e-04	0	58	0	13916700672	29	14287
2026-01-26 20:01:11.26	209.65	17.91	-28.9	-28.8	16.0	4.53e-04	0	58	0	14025752576	29	14117
2026-01-26 20:01:12.27	209.86	18.04	-28.7	-28.6	16.1	4.53e-04	0	58	0	14143193088	29	13935
2026-01-26 20:01:13.27	210.08	18.17	-28.7	-28.6	16.1	4.15e-04	0	58	0	14252244992	29	13859
2026-01-26 20:01:14.28	210.30	18.30	-28.8	-28.7	16.1	4.15e-04	0	58	0	14369685504	29	13975
2026-01-26 20:01:15.29	210.52	18.43	-28.8	-28.7	16.1	2.34e-04	0	58	0	14478737408	29	13981
2026-01-26 20:01:16.30	210.74	18.56	-28.5	-28.4	16.2	2.34e-04	0	58	0	14587789312	29	13531
2026-01-26 20:01:17.30	210.96	18.69	-28.5	-28.4	16.1	2.34e-04	0	58	0	14705229824	29	13611
2026-01-26 20:01:18.31	211.19	18.83	-28.4	-28.2	16.2	2.62e-04	0	58	0	14831058944	28	14110
2026-01-26 20:01:19.32	211.42	18.96	-28.2	-28.1	16.2	2.62e-04	0	58	0	14940110848	28	13946
2026-01-26 20:01:20.33	211.65	19.09	-28.2	-28.1	16.3	2.62e-04	0	58	0	15049162752	28	13798
2026-01-26 20:01:21.34	211.89	19.22	-28.1	-28.0	16.3	1.29e-04	0	58	0	15166603264	28	13642
2026-01-26 20:01:22.34	212.12	19.36	-28.0	-27.9	16.3	1.29e-04	0	58	0	15275655168	28	13617
2026-01-26 20:01:23.35	212.36	19.49	-28.0	-27.9	16.3	1.29e-04	0	58	0	15393095680	28	13526
2026-01-26 20:01:24.35	212.60	19.63	-28.0	-27.9	16.3	9.53e-05	0	58	0	15502147584	27	14413
2026-01-26 20:01:25.36	212.85	19.76	-28.1	-28.0	16.3	9.53e-05	0	58	0	15611199488	27	14449
2026-01-26 20:01:26.37	213.09	19.90	-27.9	-27.8	16.4	9.53e-05	0	58	0	15728640000	27	14240
2026-01-26 20:01:27.37	213.34	20.03	-28.0	-27.9	16.3	8.10e-05	0	58	0	15837691904	27	14323
2026-01-26 20:01:28.38	213.59	20.17	-28.2	-28.1	16.3	8.10e-05	0	58	0	15955132416	27	14647
2026-01-26 20:01:29.38	213.84	20.31	-28.0	-27.9	16.3	8.10e-05	0	58	0	16064184320	27	14343
2026-01-26 20:01:30.39	214.10	20.44	-27.9	-27.8	16.4	1.52e-04	0	59	0	16181624832	27	14258
2026-01-26 20:01:31.39	214.36	20.58	-27.8	-27.7	16.4	1.52e-04	0	58	0	16290676736	27	13983
2026-01-26 20:01:32.40	214.62	20.72	-27.6	-27.5	16.4	1.52e-04	0	58	0	16399728640	27	13766
2026-01-26 20:01:33.41	214.88	20.86	-27.6	-27.5	16.4	7.15e-05	0	58	0	16517169152	27	13709
2026-01-26 20:01:34.41	215.15	21.00	-27.5	-27.4	16.5	7.15e-05	0	58	0	16642998272	27	13594
2026-01-26 20:01:35.42	215.42	21.14	-27.6	-27.5	16.5	7.15e-05	0	58	0	16752050176	27	13673
2026-01-26 20:01:36.43	215.69	21.28	-27.3	-27.2	16.5	2.38e-05	0	58	0	16861102080	26	13975
2026-01-26 20:01:37.44	215.96	21.42	-27.3	-27.2	16.5	2.38e-05	0	58	0	16978542592	26	14047
2026-01-26 20:01:38.45	216.24	21.56	-27.3	-27.2	16.5	2.38e-05	0	58	0	17087594496	26	14026
2026-01-26 20:01:39.45	216.52	21.70	-27.3	-27.2	16.5	2.38e-05	0	58	0	17205035008	26	13993
2026-01-26 20:01:40.46	216.80	21.84	-27.1	-27.0	16.6	2.38e-05	0	58	0	17314086912	26	13737
2026-01-26 20:01:41.47	217.09	21.98	-27.2	-27.1	16.5	2.38e-05	0	58	0	17423138816	26	13834
2026-01-26 20:01:42.47	217.37	22.12	-27.0	-26.9	16.6	2.38e-05	0	58	0	17540579328	26	13510
2026-01-26 20:01:43.48	217.67	22.26	-27.0	-26.9	16.6	2.38e-05	0	58	0	17649631232	26	13615
2026-01-26 20:01:44.49	217.96	22.41	-26.9	-26.8	16.6	2.38e-05	0	58	0	17767071744	25	14247
2026-01-26 20:01:45.50	218.26	22.55	-27.0	-26.9	16.6	2.38e-05	0	58	0	17876123648	25	14423
2026-01-26 20:01:46.51	218.56	22.69	-26.9	-26.8	16.6	2.38e-05	0	58	0	17993564160	25	14221
2026-01-26 20:01:47.51	218.86	22.83	-26.9	-26.8	16.6	2.38e-05	0	58	0	18111004672	25	14186
2026-01-26 20:01:48.52	219.17	22.98	-26.7	-26.6	16.7	2.38e-05	0	58	0	18228445184	25	13890
2026-01-26 20:01:49.53	219.48	23.12	-26.7	-26.6	16.7	2.38e-05	0	58	0	18337497088	25	13889
2026-01-26 20:01:50.54	219.79	23.27	-26.6	-26.5	16.7	9.50e-06	0	58	0	18446548992	25	13777
2026-01-26 20:01:51.55	220.11	23.41	-26.6	-26.5	16.7	9.50e-06	0	58	0	18563989504	25	13730
2026-01-26 20:01:52.55	220.43	23.55	-26.6	-26.5	16.7	9.50e-06	0	58	0	18673041408	25	13684
2026-01-26 20:01:53.56	220.75	23.70	-26.5	-26.4	16.7	1.43e-05	0	58	0	18790481920	25	13506
2026-01-26 20:01:54.57	221.08	23.84	-26.4	-26.3	16.7	1.43e-05	0	58	0	18899533824	24	14240
2026-01-26 20:01:55.58	221.41	23.99	-26.4	-26.3	16.7	1.43e-05	0	58	0	19016974336	24	14205
2026-01-26 20:01:56.59	221.74	24.13	-26.4	-26.3	16.7	9.50e-06	0	58	0	19126026240	24	14187
2026-01-26 20:01:57.59	222.07	24.28	-26.4	-26.4	16.7	9.50e-06	0	58	0	19235078144	24	14276
2026-01-26 20:01:58.60	222.41	24.42	-26.2	-26.1	16.8	4.70e-06	0	58	0	19352518656	24	13874
2026-01-26 20:01:59.61	222.76	24.57	-26.2	-26.1	16.8	4.70e-06	0	58	0	19478347776	24	13907
2026-01-26 20:02:00.62	223.10	24.71	-26.2	-26.1	16.8	4.70e-06	0	58	0	19587399680	24	13809
2026-01-26 20:02:01.63	223.45	24.86	-26.2	-26.1	16.8	4.70e-06	0	58	0	19696451584	24	13816
2026-01-26 20:02:02.63	223.80	25.00	-26.1	-26.0	16.8	4.70e-06	0	58	0	19813892096	24	13650
2026-01-26 20:02:03.64	224.16	25.15	-26.0	-25.9	16.8	4.70e-06	0	58	0	19922944000	24	13532
2026-01-26 20:02:04.65	224.52	25.29	-26.0	-25.9	16.8	4.70e-06	0	58	0	20040384512	24	13611
2026-01-26 20:02:05.66	224.89	25.44	-25.9	-25.8	16.8	0.00e+00	0	58	0	20149436416	23	14196
2026-01-26 20:02:06.66	225.25	25.58	-26.0	-25.8	16.8	0.00e+00	0	58	0	20258488320	23	14266
2026-01-26 20:02:07.67	225.62	25.72	-25.9	-25.8	16.8	0.00e+00	0	58	0	20375928832	23	14248
2026-01-26 20:02:08.69	226.00	25.87	-25.7	-25.6	16.8	0.00e+00	0	58	0	20484980736	23	13882
2026-01-26 20:02:09.70	226.38	26.01	-25.7	-25.6	16.8	0.00e+00	0	58	0	20602421248	23	13913
2026-01-26 20:02:10.70	226.76	26.15	-25.8	-25.7	16.9	0.00e+00	0	58	0	20711473152	23	13963
2026-01-26 20:02:11.71	227.15	26.30	-25.5	-25.4	16.9	4.70e-06	0	58	0	20837302272	23	13585
2026-01-26 20:02:12.72	227.54	26.44	-25.5	-25.4	16.9	4.70e-06	0	58	0	20946354176	23	13628
2026-01-26 20:02:13.73	227.93	26.58	-25.5	-25.4	16.9	4.70e-06	0	58	0	21063794688	23	13615
2026-01-26 20:02:14.73	228.33	26.72	-25.4	-25.3	16.9	4.70e-06	0	58	0	21172846592	22	14196
2026-01-26 20:02:15.74	228.73	26.86	-25.4	-25.3	16.9	4.70e-06	0	58	0	21281898496	22	14194
2026-01-26 20:02:16.74	229.13	27.00	-25.4	-25.3	16.9	0.00e+00	0	58	0	21399339008	22	14260
2026-01-26 20:02:17.75	229.54	27.14	-25.3	-25.2	16.9	0.00e+00	0	58	0	21508390912	22	13951
2026-01-26 20:02:18.76	229.95	27.28	-25.3	-25.2	17.0	0.00e+00	0	58	0	21625831424	22	14021
2026-01-26 20:02:19.77	230.37	27.42	-25.3	-25.2	16.9	0.00e+00	0	58	0	21734883328	22	13989
2026-01-26 20:02:20.77	230.79	27.56	-25.1	-25.0	17.0	0.00e+00	0	58	0	21852323840	22	13682
2026-01-26 20:02:21.78	231.21	27.70	-25.1	-25.0	17.0	0.00e+00	0	58	0	21961375744	22	13658
2026-01-26 20:02:22.79	231.64	27.83	-25.0	-24.9	17.0	4.70e-06	0	58	0	22070427648	22	13578
2026-01-26 20:02:23.79	232.07	27.97	-24.9	-24.8	17.0	4.70e-06	0	58	0	22187868160	21	14196
2026-01-26 20:02:24.80	232.51	28.10	-25.0	-24.9	17.0	4.70e-06	0	58	0	22296920064	21	14338
2026-01-26 20:02:25.80	232.95	28.24	-24.9	-24.8	17.0	0.00e+00	0	58	0	22414360576	21	14162
2026-01-26 20:02:26.81	233.39	28.37	-24.9	-24.8	17.0	0.00e+00	0	58	0	22531801088	21	14174
2026-01-26 20:02:27.82	233.84	28.50	-24.9	-24.8	17.0	0.00e+00	0	58	0	22649241600	21	14130
2026-01-26 20:02:28.83	234.29	28.63	-24.8	-24.7	17.0	0.00e+00	0	58	0	22758293504	21	14030
2026-01-26 20:02:29.84	234.75	28.76	-24.8	-24.7	17.1	0.00e+00	0	58	0	22875734016	21	14021
2026-01-26 20:02:30.85	235.21	28.89	-24.7	-24.6	17.1	0.00e+00	0	58	0	22984785920	21	13871
2026-01-26 20:02:31.86	235.67	29.02	-24.7	-24.6	17.1	0.00e+00	0	58	0	23093837824	21	13947
2026-01-26 20:02:32.86	236.14	29.15	-24.7	-24.6	17.1	0.00e+00	0	58	0	23211278336	21	13829
2026-01-26 20:02:33.87	236.61	29.27	-24.7	-24.6	17.1	0.00e+00	0	58	0	23320330240	21	13905
2026-01-26 20:02:34.87	237.08	29.40	-24.6	-24.5	17.1	0.00e+00	0	58	0	23437770752	21	13700
2026-01-26 20:02:35.88	237.56	29.52	-24.7	-24.6	17.1	0.00e+00	0	58	0	23546822656	21	13791
2026-01-26 20:02:36.88	238.04	29.64	-24.5	-24.4	17.1	0.00e+00	0	58	0	23655874560	21	13602
2026-01-26 20:02:37.89	238.53	29.76	-24.5	-24.4	17.1	0.00e+00	0	58	0	23773315072	21	13623
2026-01-26 20:02:38.90	239.02	29.88	-24.5	-24.4	17.1	0.00e+00	0	58	0	23882366976	21	13612
2026-01-26 20:02:39.91	239.52	29.99	-24.5	-24.4	17.1	0.00e+00	0	58	0	24008196096	21	13564
2026-01-26 20:02:40.92	240.02	30.11	-24.4	-24.3	17.1	0.00e+00	0	58	0	24117248000	20	14215
2026-01-26 20:02:41.92	240.52	30.22	-24.4	-24.3	17.1	0.00e+00	0	58	0	24234688512	20	14243
2026-01-26 20:02:42.93	241.02	30.33	-24.4	-24.3	17.1	0.00e+00	0	58	0	24343740416	20	14159
2026-01-26 20:02:43.94	241.54	30.44	-24.4	-24.3	17.1	0.00e+00	0	58	0	24461180928	20	14190
2026-01-26 20:02:44.94	242.05	30.55	-24.3	-24.2	17.1	0.00e+00	0	58	0	24570232832	20	13981
2026-01-26 20:02:45.95	242.56	30.66	-24.3	-24.1	17.1	0.00e+00	0	58	0	24679284736	20	13933
2026-01-26 20:02:46.96	243.09	30.76	-24.2	-24.1	17.1	0.00e+00	0	58	0	24796725248	20	13909
2026-01-26 20:02:47.97	243.61	30.86	-24.1	-24.0	17.1	0.00e+00	0	58	0	24905777152	20	13680
2026-01-26 20:02:48.97	244.13	30.96	-24.1	-24.0	17.1	4.70e-06	0	58	0	25023217664	20	13760
2026-01-26 20:02:49.98	244.67	31.06	-24.1	-24.0	17.1	4.70e-06	0	58	0	25132269568	20	13742
2026-01-26 20:02:50.98	245.20	31.16	-24.1	-23.9	17.1	4.70e-06	0	58	0	25249710080	20	13626
2026-01-26 20:02:51.99	245.74	31.25	-24.0	-23.9	17.1	4.70e-06	0	58	0	25358761984	20	13597
2026-01-26 20:02:53.00	246.28	31.34	-24.1	-23.9	17.1	0.00e+00	0	58	0	25467813888	20	13630
2026-01-26 20:02:54.01	246.82	31.43	-24.0	-23.9	17.1	0.00e+00	0	58	0	25585254400	20	13524
2026-01-26 20:02:55.01	247.37	31.52	-24.0	-23.9	17.2	0.00e+00	0	58	0	25711083520	20	13513
2026-01-26 20:02:56.02	247.92	31.60	-24.0	-23.9	17.1	0.00e+00	0	58	0	25820135424	19	14394
2026-01-26 20:02:57.03	248.47	31.68	-24.1	-24.0	17.1	0.00e+00	0	58	0	25929187328	19	14453
2026-01-26 20:02:58.04	249.03	31.76	-24.0	-23.8	17.1	0.00e+00	0	58	0	26046627840	19	14271
2026-01-26 20:02:59.04	249.59	31.84	-24.0	-23.9	17.1	0.00e+00	0	58	0	26155679744	19	14373
2026-01-26 20:03:00.05	250.15	31.91	-24.2	-24.1	17.0	0.00e+00	0	58	0	26273120256	19	14616
2026-01-26 20:03:01.06	250.71	31.98	-24.0	-23.9	17.2	0.00e+00	0	58	0	26382172160	19	14311
2026-01-26 20:03:02.07	251.28	32.05	-24.0	-23.9	17.1	0.00e+00	0	58	0	26491224064	19	14374
2026-01-26 20:03:03.08	251.85	32.12	-24.1	-24.0	17.0	0.00e+00	0	58	0	26608664576	19	14501
2026-01-26 20:03:04.09	252.43	32.18	-24.0	-23.9	17.2	0.00e+00	0	58	0	26717716480	19	14297
2026-01-26 20:03:05.09	253.00	32.24	-24.0	-23.9	17.0	0.00e+00	0	58	0	26835156992	19	14298
2026-01-26 20:03:06.10	253.57	32.30	-23.9	-23.8	17.0	0.00e+00	0	58	0	26944208896	19	14206
2026-01-26 20:03:07.11	254.15	32.35	-23.9	-23.8	17.1	0.00e+00	0	58	0	27070038016	19	14185
2026-01-26 20:03:08.12	254.74	32.40	-23.9	-23.8	17.0	0.00e+00	0	58	0	27179089920	19	14248
2026-01-26 20:03:09.13	255.32	32.45	-23.8	-23.7	17.0	0.00e+00	0	58	0	27296530432	19	14079
2026-01-26 20:03:10.13	255.90	32.50	-23.8	-23.7	17.0	0.00e+00	0	58	0	27405582336	19	14020
2026-01-26 20:03:11.14	256.49	32.54	-23.8	-23.7	17.0	0.00e+00	0	58	0	27514634240	19	14048
2026-01-26 20:03:12.14	257.07	32.58	-23.9	-23.8	17.0	0.00e+00	0	58	0	27632074752	19	14129
2026-01-26 20:03:13.14	257.65	32.62	-23.8	-23.7	17.0	0.00e+00	0	58	0	27741126656	19	14089
2026-01-26 20:03:14.15	258.25	32.65	-23.8	-23.7	17.0	0.00e+00	0	58	0	27858567168	19	14015
2026-01-26 20:03:15.16	258.84	32.68	-23.9	-23.8	17.0	0.00e+00	0	58	0	27967619072	19	14246
2026-01-26 20:03:16.17	259.43	32.71	-23.8	-23.7	17.0	0.00e+00	0	58	0	28076670976	19	14043
2026-01-26 20:03:17.18	260.03	32.73	-23.8	-23.7	17.0	0.00e+00	0	58	0	28194111488	19	14100
2026-01-26 20:03:18.18	260.62	32.75	-23.8	-23.7	17.0	0.00e+00	0	58	0	28303163392	19	14034
2026-01-26 20:03:19.19	261.21	32.77	-23.9	-23.8	16.9	0.00e+00	0	58	0	28420603904	19	14126
2026-01-26 20:03:20.20	261.81	32.79	-23.8	-23.7	16.9	0.00e+00	0	58	0	28529655808	19	14081
2026-01-26 20:03:21.20	262.40	32.80	-23.8	-23.7	16.9	0.00e+00	0	58	0	28647096320	19	14065
2026-01-26 20:03:22.21	263.00	32.81	-23.9	-23.8	17.1	0.00e+00	0	58	0	28764536832	19	14135
2026-01-26 20:03:23.22	263.60	32.81	-24.0	-23.9	16.9	0.00e+00	0	58	0	28881977344	19	14319
2026-01-26 20:03:24.23	264.20	32.81	-24.0	-23.9	16.9	0.00e+00	0	58	0	28991029248	19	14411
2026-01-26 20:03:25.24	264.79	32.81	-23.9	-23.8	16.9	0.00e+00	0	58	0	29108469760	19	14260
2026-01-26 20:03:26.25	265.39	32.81	-23.9	-23.8	16.9	0.00e+00	0	58	0	29217521664	19	14176
2026-01-26 20:03:27.25	265.98	32.80	-23.9	-23.8	16.9	0.00e+00	0	58	0	29326573568	19	14232
2026-01-26 20:03:28.26	266.58	32.79	-24.1	-24.0	16.9	0.00e+00	0	58	0	29444014080	19	14458
2026-01-26 20:03:29.27	267.18	32.77	-24.0	-23.8	16.9	0.00e+00	0	58	0	29553065984	19	14274
2026-01-26 20:03:30.27	267.77	32.76	-24.1	-24.0	16.9	0.00e+00	0	58	0	29670506496	19	14456
2026-01-26 20:03:31.28	268.36	32.73	-24.1	-23.9	16.9	0.00e+00	0	58	0	29779558400	19	14425
2026-01-26 20:03:32.29	268.96	32.71	-24.1	-24.0	16.9	0.00e+00	0	58	0	29888610304	19	14481
2026-01-26 20:03:33.29	269.55	32.68	-24.0	-23.9	17.0	0.00e+00	0	58	0	30006050816	19	14327
2026-01-26 20:03:34.30	270.14	32.65	-24.1	-24.0	16.9	0.00e+00	0	58	0	30115102720	19	14446
2026-01-26 20:03:35.31	270.73	32.62	-24.1	-24.0	16.9	0.00e+00	0	58	0	30240931840	19	14483
2026-01-26 20:03:36.32	271.32	32.58	-24.2	-24.0	16.9	0.00e+00	0	58	0	30349983744	19	14597
2026-01-26 20:03:37.32	271.90	32.54	-24.1	-24.0	16.8	0.00e+00	0	58	0	30467424256	19	14576
2026-01-26 20:03:38.32	272.48	32.50	-24.3	-24.2	16.8	0.00e+00	0	58	0	30576476160	19	14845
2026-01-26 20:03:39.33	273.07	32.46	-24.2	-24.1	16.9	0.00e+00	0	58	0	30693916672	19	14636
2026-01-26 20:03:40.34	273.65	32.41	-24.3	-24.1	16.9	0.00e+00	0	58	0	30802968576	19	14773
2026-01-26 20:03:41.35	274.23	32.36	-24.2	-24.1	16.9	0.00e+00	0	58	0	30912020480	19	14638
2026-01-26 20:03:42.36	274.81	32.30	-24.3	-24.2	16.9	0.00e+00	0	58	0	31029460992	19	14850
2026-01-26 20:03:43.36	275.38	32.24	-24.3	-24.2	16.9	0.00e+00	0	58	0	31138512896	19	14928
2026-01-26 20:03:44.36	275.95	32.18	-24.3	-24.1	16.9	0.00e+00	0	58	0	31255953408	19	14761
2026-01-26 20:03:45.37	276.52	32.12	-24.3	-24.2	16.9	0.00e+00	0	58	0	31365005312	19	14799
2026-01-26 20:03:46.38	277.09	32.06	-24.2	-24.0	16.9	0.00e+00	0	58	0	31474057216	19	14582
2026-01-26 20:03:47.39	277.66	31.99	-24.2	-24.1	17.0	0.00e+00	0	58	0	31591497728	19	14620
2026-01-26 20:03:48.39	278.22	31.92	-24.3	-24.2	17.0	0.00e+00	0	58	0	31700549632	19	14792
2026-01-26 20:03:49.40	278.78	31.84	-24.3	-24.2	16.9	0.00e+00	0	58	0	31817990144	19	14847
2026-01-26 20:03:50.41	279.34	31.77	-24.3	-24.2	16.9	0.00e+00	0	58	0	31927042048	19	14904
2026-01-26 20:03:51.42	279.90	31.69	-24.4	-24.3	16.9	0.00e+00	0	58	0	32052871168	19	14961
2026-01-26 20:03:52.42	280.45	31.61	-24.4	-24.3	16.9	4.70e-06	0	58	0	32161923072	19	15046
2026-01-26 20:03:53.43	281.00	31.52	-24.5	-24.4	17.0	4.70e-06	0	58	0	32279363584	19	15150
2026-01-26 20:03:54.44	281.55	31.44	-24.6	-24.4	16.9	4.70e-06	0	58	0	32388415488	19	15281
2026-01-26 20:03:55.45	282.09	31.35	-24.5	-24.4	17.0	0.00e+00	0	58	0	32505856000	19	15248
2026-01-26 20:03:56.46	282.63	31.26	-24.6	-24.5	16.9	0.00e+00	0	58	0	32614907904	19	15332
2026-01-26 20:03:57.47	283.17	31.16	-24.6	-24.5	17.0	0.00e+00	0	58	0	32723959808	19	15398
2026-01-26 20:03:58.48	283.71	31.07	-24.7	-24.5	16.9	0.00e+00	0	58	0	32841400320	19	15465
2026-01-26 20:03:59.49	284.24	30.97	-24.7	-24.6	17.0	0.00e+00	0	59	0	32950452224	20	14668
2026-01-26 20:04:00.50	284.76	30.87	-24.7	-24.6	17.0	0.00e+00	0	58	0	33067892736	20	14668
2026-01-26 20:04:01.51	285.29	30.77	-24.6	-24.5	17.0	0.00e+00	0	58	0	33176944640	20	14541
2026-01-26 20:04:02.51	285.80	30.67	-24.7	-24.5	17.1	0.00e+00	0	58	0	33302773760	20	14589
2026-01-26 20:04:03.53	286.33	30.56	-24.8	-24.6	17.0	0.00e+00	0	58	0	33411825664	20	14762
2026-01-26 20:04:04.53	286.84	30.45	-24.7	-24.6	17.1	0.00e+00	0	59	0	33529266176	20	14746
2026-01-26 20:04:05.54	287.34	30.34	-24.7	-24.6	17.1	0.00e+00	0	58	0	33638318080	20	14630
2026-01-26 20:04:06.55	287.85	30.23	-24.8	-24.7	17.1	0.00e+00	0	58	0	33747369984	20	14863
2026-01-26 20:04:07.56	288.35	30.12	-24.8	-24.6	17.2	0.00e+00	0	58	0	33864810496	20	14762
2026-01-26 20:04:08.57	288.85	30.00	-24.9	-24.7	17.0	0.00e+00	0	58	0	33973862400	20	14944
2026-01-26 20:04:09.57	289.34	29.89	-24.9	-24.8	17.1	0.00e+00	0	58	0	34091302912	20	14976
2026-01-26 20:04:10.57	289.83	29.77	-24.9	-24.8	17.1	0.00e+00	0	59	0	34200354816	20	15074
2026-01-26 20:04:11.58	290.31	29.65	-24.8	-24.7	17.1	0.00e+00	0	58	0	34309406720	20	14900
2026-01-26 20:04:12.59	290.80	29.53	-25.0	-24.9	17.1	0.00e+00	0	58	0	34426847232	20	15141
2026-01-26 20:04:13.60	291.28	29.41	-25.1	-25.0	17.1	0.00e+00	0	58	0	34535899136	20	15345
2026-01-26 20:04:14.61	291.75	29.29	-25.0	-24.9	17.1	0.00e+00	0	58	0	34661728256	20	15188
2026-01-26 20:04:15.62	292.22	29.16	-25.1	-25.0	17.1	0.00e+00	0	58	0	34770780160	20	15447
2026-01-26 20:04:16.62	292.69	29.04	-25.2	-25.0	17.1	0.00e+00	0	58	0	34888220672	20	15466
2026-01-26 20:04:17.63	293.15	28.91	-25.1	-25.0	17.1	0.00e+00	0	58	0	34997272576	20	15327
2026-01-26 20:04:18.64	293.61	28.78	-25.2	-25.1	17.1	0.00e+00	0	58	0	35114713088	20	15480
2026-01-26 20:04:19.65	294.07	28.65	-25.1	-25.0	17.1	0.00e+00	0	58	0	35223764992	20	15347
2026-01-26 20:04:20.64	294.51	28.52	-25.1	-25.0	17.2	0.00e+00	0	58	0	35332816896	20	15431
2026-01-26 20:04:21.65	294.96	28.39	-25.2	-25.1	17.3	0.00e+00	0	58	0	35450257408	20	15492
2026-01-26 20:04:22.66	295.40	28.26	-25.4	-25.3	17.3	0.00e+00	0	58	0	35559309312	21	15014
2026-01-26 20:04:23.67	295.84	28.12	-25.4	-25.3	17.3	0.00e+00	0	58	0	35676749824	21	15042
2026-01-26 20:04:24.68	296.28	27.99	-25.3	-25.2	17.3	0.00e+00	0	58	0	35785801728	21	14845
2026-01-26 20:04:25.69	296.71	27.85	-25.3	-25.2	17.3	0.00e+00	0	58	0	35903242240	21	14812
2026-01-26 20:04:26.70	297.14	27.72	-25.4	-25.3	17.3	0.00e+00	0	58	0	36012294144	21	15059
2026-01-26 20:04:27.71	297.56	27.58	-25.4	-25.3	17.3	0.00e+00	0	59	0	36121346048	21	15065
2026-01-26 20:04:28.71	297.98	27.45	-25.4	-25.3	17.3	0.00e+00	0	58	0	36247175168	21	15086
2026-01-26 20:04:29.71	298.39	27.31	-25.4	-25.3	17.3	0.00e+00	0	58	0	36364615680	21	15068
2026-01-26 20:04:30.72	298.80	27.17	-25.5	-25.4	17.3	0.00e+00	0	58	0	36473667584	21	15181
2026-01-26 20:04:31.73	299.21	27.03	-25.5	-25.4	17.3	0.00e+00	0	59	0	36582719488	21	15245
2026-01-26 20:04:32.74	299.61	26.89	-25.6	-25.5	17.3	0.00e+00	0	58	0	36700160000	21	15394
2026-01-26 20:04:33.75	300.01	26.75	-25.6	-25.5	17.3	0.00e+00	0	58	0	36809211904	21	15377
2026-01-26 20:04:34.76	300.41	26.61	-25.6	-25.5	17.3	0.00e+00	0	59	0	36926652416	21	15439
2026-01-26 20:04:35.77	300.80	26.47	-25.7	-25.6	17.3	0.00e+00	0	59	0	37035704320	22	14673
2026-01-26 20:04:36.78	301.19	26.32	-25.8	-25.7	17.3	4.70e-06	0	59	0	37144756224	22	14789
2026-01-26 20:04:37.79	301.58	26.18	-25.7	-25.6	17.3	4.70e-06	0	58	0	37262196736	22	14750
2026-01-26 20:04:38.79	301.96	26.04	-25.8	-25.7	17.3	4.70e-06	0	58	0	37371248640	22	14931
2026-01-26 20:04:39.80	302.33	25.90	-25.8	-25.7	17.3	0.00e+00	0	58	0	37488689152	22	14908
2026-01-26 20:04:40.81	302.71	25.76	-25.9	-25.8	17.2	0.00e+00	0	58	0	37606129664	22	15055
2026-01-26 20:04:41.82	303.08	25.61	-26.0	-25.9	17.2	0.00e+00	0	59	0	37723570176	22	15191
2026-01-26 20:04:42.83	303.45	25.47	-26.0	-25.9	17.2	0.00e+00	0	59	0	37832622080	22	15122
2026-01-26 20:04:43.84	303.81	25.32	-26.1	-26.0	17.2	0.00e+00	0	58	0	37950062592	22	15345
2026-01-26 20:04:44.85	304.17	25.18	-26.1	-26.0	17.1	0.00e+00	0	59	0	38059114496	22	15355
2026-01-26 20:04:45.85	304.52	25.04	-26.1	-26.0	17.2	0.00e+00	0	59	0	38168166400	22	15337
2026-01-26 20:04:46.86	304.88	24.89	-26.1	-26.0	17.1	0.00e+00	0	59	0	38285606912	22	15422
2026-01-26 20:04:47.86	305.22	24.75	-26.1	-26.0	17.1	9.50e-06	0	59	0	38394658816	22	15351
2026-01-26 20:04:48.87	305.57	24.61	-26.2	-26.1	17.1	9.50e-06	0	59	0	38512099328	23	14703
2026-01-26 20:04:49.88	305.91	24.46	-26.2	-26.1	17.1	9.50e-06	0	59	0	38621151232	23	14683
2026-01-26 20:04:50.89	306.25	24.32	-26.3	-26.1	17.1	0.00e+00	0	59	0	38730203136	23	14767
2026-01-26 20:04:51.89	306.58	24.18	-26.4	-26.3	17.0	0.00e+00	0	59	0	38847643648	23	14972
2026-01-26 20:04:52.90	306.91	24.03	-26.4	-26.3	17.0	0.00e+00	0	59	0	38956695552	23	14978
2026-01-26 20:04:53.91	307.24	23.89	-26.3	-26.2	17.0	0.00e+00	0	59	0	39082524672	23	14917
2026-01-26 20:04:54.92	307.57	23.74	-26.5	-26.4	17.0	4.70e-06	0	59	0	39191576576	23	15140
2026-01-26 20:04:55.93	307.89	23.60	-26.5	-26.4	17.0	4.70e-06	0	59	0	39309017088	23	15124
2026-01-26 20:04:56.93	308.21	23.46	-26.5	-26.4	17.0	9.50e-06	0	58	0	39418068992	23	15171
2026-01-26 20:04:57.94	308.52	23.31	-26.5	-26.4	17.0	9.50e-06	0	59	0	39535509504	23	15278
2026-01-26 20:04:58.95	308.83	23.17	-26.6	-26.5	17.0	9.50e-06	0	59	0	39644561408	23	15330
2026-01-26 20:04:59.95	309.14	23.03	-26.7	-26.6	16.9	9.50e-06	0	58	0	39762001920	23	15500
2026-01-26 20:05:00.96	309.45	22.89	-26.7	-26.6	16.9	9.50e-06	0	59	0	39871053824	23	15524
2026-01-26 20:05:01.97	309.75	22.74	-26.8	-26.6	16.9	9.50e-06	0	59	0	39980105728	24	14767
2026-01-26 20:05:02.97	310.05	22.60	-26.9	-26.7	16.8	9.50e-06	0	59	0	40097546240	24	14944
2026-01-26 20:05:03.98	310.35	22.46	-27.0	-26.9	16.8	4.70e-06	0	59	0	40206598144	24	15206
2026-01-26 20:05:04.99	310.64	22.32	-26.9	-26.8	16.8	4.70e-06	0	59	0	40324038656	24	14955
2026-01-26 20:05:06.00	310.93	22.18	-27.0	-26.9	16.8	4.70e-06	0	59	0	40433090560	24	15129
2026-01-26 20:05:07.01	311.22	22.03	-27.0	-26.9	16.8	9.50e-06	0	59	0	40542142464	24	15216
2026-01-26 20:05:08.02	311.51	21.89	-27.1	-27.0	16.7	9.50e-06	0	59	0	40667971584	24	15427
2026-01-26 20:05:09.03	311.79	21.75	-27.2	-27.1	16.7	1.90e-05	0	59	0	40785412096	25	14698
2026-01-26 20:05:10.03	312.07	21.61	-27.3	-27.2	16.7	1.90e-05	0	59	0	40894464000	25	14871
2026-01-26 20:05:11.04	312.34	21.47	-27.3	-27.2	16.7	1.90e-05	0	59	0	41003515904	25	14891
2026-01-26 20:05:12.04	312.61	21.33	-27.4	-27.3	16.6	2.38e-05	0	59	0	41120956416	25	14993
2026-01-26 20:05:13.05	312.89	21.19	-27.5	-27.4	16.6	2.38e-05	0	59	0	41230008320	25	15158
2026-01-26 20:05:14.06	313.15	21.06	-27.6	-27.4	16.6	2.38e-05	0	59	0	41347448832	25	15290
2026-01-26 20:05:15.07	313.42	20.92	-27.5	-27.4	16.6	2.86e-05	0	59	0	41456500736	25	15239
2026-01-26 20:05:16.08	313.68	20.78	-27.5	-27.4	16.6	2.86e-05	0	59	0	41565552640	25	15165
2026-01-26 20:05:17.09	313.95	20.64	-27.6	-27.4	16.6	2.86e-05	0	59	0	41682993152	25	15276
2026-01-26 20:05:18.10	314.20	20.50	-27.6	-27.5	16.6	5.24e-05	0	59	0	41792045056	25	15322
2026-01-26 20:05:19.11	314.46	20.37	-27.7	-27.6	16.6	5.24e-05	0	59	0	41909485568	26	14713
2026-01-26 20:05:20.11	314.71	20.23	-27.6	-27.5	16.6	5.24e-05	0	59	0	42026926080	26	14586
2026-01-26 20:05:21.13	314.96	20.09	-27.7	-27.6	16.6	1.90e-05	0	59	0	42144366592	26	14722
2026-01-26 20:05:22.13	315.21	19.96	-27.8	-27.7	16.5	1.90e-05	0	59	0	42253418496	26	14823
2026-01-26 20:05:23.14	315.46	19.82	-27.9	-27.8	16.5	1.90e-05	0	59	0	42370859008	26	14961
2026-01-26 20:05:24.15	315.70	19.69	-27.8	-27.7	16.5	6.19e-05	0	59	0	42479910912	26	14845
2026-01-26 20:05:25.16	315.94	19.56	-27.9	-27.8	16.5	6.19e-05	0	59	0	42588962816	26	15034
2026-01-26 20:05:26.17	316.18	19.42	-27.9	-27.8	16.5	6.19e-05	0	59	0	42706403328	26	15019
2026-01-26 20:05:27.17	316.41	19.29	-28.0	-27.9	16.5	7.62e-05	0	59	0	42815455232	26	15182
2026-01-26 20:05:28.18	316.65	19.16	-27.9	-27.8	16.5	7.62e-05	0	59	0	42932895744	26	15015
2026-01-26 20:05:29.19	316.88	19.02	-27.9	-27.8	16.5	7.62e-05	0	59	0	43041947648	26	15061
2026-01-26 20:05:30.19	317.11	18.89	-28.0	-27.9	16.5	6.67e-05	0	59	0	43159388160	26	15214
2026-01-26 20:05:31.20	317.33	18.76	-27.9	-27.8	16.5	6.67e-05	0	59	0	43268440064	26	15057
2026-01-26 20:05:32.21	317.56	18.63	-28.0	-27.9	16.4	6.67e-05	0	59	0	43377491968	26	15165
2026-01-26 20:05:33.20	317.78	18.50	-28.1	-28.0	16.4	1.14e-04	0	59	0	43494932480	26	15367
2026-01-26 20:05:34.21	318.00	18.37	-28.1	-28.0	16.4	1.14e-04	0	59	0	43620761600	26	15302
2026-01-26 20:05:35.21	318.22	18.25	-28.0	-27.9	16.4	1.14e-04	0	59	0	43729813504	26	15260
2026-01-26 20:05:36.22	318.43	18.12	-28.1	-28.0	16.4	1.14e-04	0	59	0	43838865408	26	15381
2026-01-26 20:05:37.22	318.64	17.99	-28.1	-28.0	16.4	1.24e-04	0	59	0	43956305920	26	15433
2026-01-26 20:05:38.22	318.86	17.86	-28.2	-28.1	16.4	1.24e-04	0	59	0	44065357824	26	15502
2026-01-26 20:05:39.23	319.07	17.74	-28.3	-28.2	16.3	1.72e-04	0	59	0	44182798336	27	14782
2026-01-26 20:05:40.24	319.27	17.61	-28.3	-28.2	16.3	1.72e-04	0	59	0	44291850240	27	14918
2026-01-26 20:05:41.25	319.48	17.48	-28.4	-28.3	16.3	2.29e-04	0	59	0	44400902144	27	14953
2026-01-26 20:05:42.26	319.69	17.36	-28.4	-28.3	16.3	2.29e-04	0	59	0	44518342656	27	15051
2026-01-26 20:05:43.26	319.89	17.23	-28.7	-28.6	16.2	2.29e-04	0	59	0	44627394560	27	15478
2026-01-26 20:05:44.27	320.09	17.11	-28.5	-28.4	16.2	2.29e-04	0	59	0	44744835072	27	15272
2026-01-26 20:05:45.28	320.29	16.98	-28.6	-28.5	16.2	2.72e-04	0	59	0	44853886976	27	15419
2026-01-26 20:05:46.29	320.48	16.86	-28.6	-28.5	16.2	2.72e-04	0	59	0	44962938880	27	15308
2026-01-26 20:05:47.30	320.68	16.74	-28.6	-28.5	16.2	3.86e-04	0	59	0	45080379392	27	15391
2026-01-26 20:05:48.31	320.87	16.61	-28.6	-28.5	16.2	3.86e-04	0	59	0	45206208512	28	14490
2026-01-26 20:05:49.31	321.06	16.49	-28.7	-28.6	16.2	3.86e-04	0	59	0	45315260416	28	14651
2026-01-26 20:05:50.32	321.25	16.37	-28.7	-28.6	16.1	4.15e-04	0	59	0	45424312320	28	14765
2026-01-26 20:05:51.33	321.44	16.25	-28.7	-28.6	16.2	4.15e-04	0	59	0	45541752832	28	14614
2026-01-26 20:05:52.33	321.63	16.13	-28.7	-28.6	16.1	4.15e-04	0	59	0	45650804736	28	14714
2026-01-26 20:05:53.35	321.81	16.01	-28.9	-28.8	16.1	5.15e-04	0	59	0	45768245248	28	14979
2026-01-26 20:05:54.35	321.99	15.89	-28.8	-28.7	16.1	5.15e-04	0	59	0	45877297152	28	14838
2026-01-26 20:05:55.36	322.18	15.77	-28.9	-28.8	16.1	6.63e-04	0	59	0	45986349056	28	15021
2026-01-26 20:05:56.37	322.36	15.65	-28.9	-28.8	16.1	6.63e-04	0	59	0	46103789568	28	15054
2026-01-26 20:05:57.38	322.53	15.53	-29.1	-29.0	16.0	6.63e-04	0	59	0	46212841472	28	15391
2026-01-26 20:05:58.39	322.71	15.42	-29.1	-29.0	16.0	6.63e-04	0	59	0	46330281984	28	15320
2026-01-26 20:05:59.40	322.89	15.30	-29.1	-29.0	16.0	7.49e-04	0	59	0	46439333888	28	15421
2026-01-26 20:06:00.41	323.06	15.18	-29.1	-29.0	16.0	7.49e-04	0	59	0	46565163008	28	15385
2026-01-26 20:06:01.42	323.23	15.07	-29.2	-29.0	16.0	7.49e-04	0	59	0	46674214912	28	15471
2026-01-26 20:06:02.42	323.40	14.95	-29.3	-29.2	16.0	8.73e-04	0	59	0	46791655424	29	14827
2026-01-26 20:06:03.43	323.57	14.84	-29.2	-29.1	16.0	8.73e-04	0	59	0	46900707328	29	14733
2026-01-26 20:06:04.44	323.74	14.72	-29.2	-29.1	16.0	8.73e-04	0	59	0	47018147840	29	14729
2026-01-26 20:06:05.45	323.90	14.61	-29.3	-29.1	16.0	1.13e-03	0	59	0	47127199744	29	14776
2026-01-26 20:06:06.45	324.07	14.50	-29.3	-29.2	15.9	1.13e-03	0	59	0	47236251648	29	14790
2026-01-26 20:06:07.46	324.23	14.38	-29.4	-29.3	15.9	1.28e-03	0	59	0	47353692160	29	14978
2026-01-26 20:06:08.47	324.39	14.27	-29.4	-29.3	15.9	1.28e-03	0	59	0	47462744064	29	15042
2026-01-26 20:06:09.48	324.55	14.16	-29.3	-29.2	16.0	1.21e-03	0	59	0	47580184576	29	14806
2026-01-26 20:06:10.49	324.71	14.05	-29.3	-29.2	15.9	1.21e-03	0	59	0	47689236480	29	14904
2026-01-26 20:06:11.50	324.87	13.94	-29.4	-29.2	15.9	1.21e-03	0	59	0	47798288384	29	14941
2026-01-26 20:06:12.51	325.02	13.82	-29.3	-29.2	15.9	1.36e-03	0	59	0	47915728896	29	14875
2026-01-26 20:06:13.51	325.18	13.72	-29.3	-29.2	15.9	1.36e-03	0	59	0	48041558016	29	14857
2026-01-26 20:06:14.52	325.33	13.61	-29.4	-29.3	15.9	1.36e-03	0	59	0	48150609920	29	14961
2026-01-26 20:06:15.53	325.48	13.50	-29.3	-29.2	15.9	1.13e-03	0	59	0	48259661824	29	14911
2026-01-26 20:06:16.53	325.63	13.39	-29.4	-29.3	15.9	1.13e-03	0	59	0	48377102336	29	15062
2026-01-26 20:06:17.54	325.78	13.28	-29.4	-29.3	15.9	1.33e-03	0	59	0	48486154240	29	14989
2026-01-26 20:06:18.55	325.93	13.17	-29.6	-29.5	15.8	1.33e-03	0	59	0	48603594752	29	15308
2026-01-26 20:06:19.55	326.08	13.07	-29.5	-29.4	15.8	1.33e-03	0	59	0	48712646656	29	15256
2026-01-26 20:06:20.56	326.22	12.96	-29.6	-29.5	15.8	1.30e-03	0	59	0	48821698560	29	15379
2026-01-26 20:06:21.57	326.37	12.85	-29.6	-29.5	15.8	1.30e-03	0	59	0	48939139072	29	15461
2026-01-26 20:06:22.57	326.51	12.75	-29.7	-29.6	15.8	1.30e-03	0	59	0	49048190976	29	15487
2026-01-26 20:06:23.58	326.65	12.64	-29.8	-29.7	15.8	1.25e-03	0	59	0	49165631488	30	14862
2026-01-26 20:06:24.58	326.79	12.54	-29.8	-29.7	15.8	1.25e-03	0	59	0	49274683392	30	14866
2026-01-26 20:06:25.59	326.93	12.43	-30.0	-29.9	15.7	1.25e-03	0	59	0	49383735296	30	15218
2026-01-26 20:06:26.60	327.07	12.33	-29.8	-29.8	15.7	1.55e-03	0	59	0	49501175808	30	14970
2026-01-26 20:06:27.61	327.21	12.23	-30.0	-29.9	15.7	1.55e-03	0	59	0	49610227712	30	15210
2026-01-26 20:06:28.62	327.35	12.12	-30.0	-29.9	15.7	1.68e-03	0	59	0	49736056832	30	15235
2026-01-26 20:06:29.61	327.48	12.02	-30.1	-30.0	15.6	1.68e-03	0	59	0	49845108736	30	15371
2026-01-26 20:06:30.62	327.61	11.92	-30.2	-30.1	15.6	1.68e-03	0	59	0	49962549248	30	15508
2026-01-26 20:06:31.63	327.75	11.82	-30.3	-30.2	15.6	2.08e-03	0	59	0	50071601152	31	14871
2026-01-26 20:06:32.63	327.88	11.72	-30.4	-30.3	15.5	2.08e-03	0	59	0	50189041664	31	14998
2026-01-26 20:06:33.63	328.01	11.62	-30.3	-30.2	15.6	2.08e-03	0	59	0	50298093568	31	14925
2026-01-26 20:06:34.64	328.14	11.52	-30.4	-30.3	15.5	2.56e-03	0	59	0	50415534080	31	15010
2026-01-26 20:06:35.65	328.27	11.42	-30.5	-30.4	15.5	2.56e-03	0	59	0	50524585984	31	15150
2026-01-26 20:06:36.65	328.39	11.32	-30.3	-30.2	15.5	2.85e-03	0	59	0	50633637888	31	14906
2026-01-26 20:06:37.66	328.52	11.22	-30.4	-30.3	15.5	2.85e-03	0	59	0	50751078400	31	14970
2026-01-26 20:06:38.67	328.65	11.12	-30.4	-30.3	15.5	2.85e-03	0	59	0	50860130304	31	15010
2026-01-26 20:06:39.68	328.77	11.02	-30.6	-30.5	15.4	2.78e-03	0	59	0	50977570816	31	15369
2026-01-26 20:06:40.68	328.90	10.93	-30.6	-30.5	15.4	2.78e-03	0	59	0	51086622720	31	15398
2026-01-26 20:06:41.69	329.02	10.83	-30.4	-30.4	15.4	2.78e-03	0	59	0	51195674624	31	15134
2026-01-26 20:06:42.70	329.14	10.73	-30.5	-30.4	15.4	2.78e-03	0	59	0	51313115136	31	15236
2026-01-26 20:06:43.70	329.26	10.63	-30.6	-30.5	15.4	3.47e-03	0	59	0	51422167040	31	15405
2026-01-26 20:06:44.71	329.38	10.54	-30.6	-30.5	15.4	3.47e-03	0	59	0	51547996160	31	15316
2026-01-26 20:06:45.72	329.50	10.44	-30.6	-30.5	15.3	3.47e-03	0	59	0	51657048064	32	14530
2026-01-26 20:06:46.72	329.62	10.35	-30.6	-30.5	15.3	3.47e-03	0	59	0	51774488576	32	14546
2026-01-26 20:06:47.73	329.74	10.25	-30.6	-30.5	15.3	3.56e-03	0	59	0	51883540480	32	14562
2026-01-26 20:06:48.73	329.85	10.16	-30.7	-30.7	15.3	3.56e-03	0	59	0	52000980992	32	14796
2026-01-26 20:06:49.73	329.97	10.07	-30.6	-30.5	15.3	3.56e-03	0	59	0	52110032896	32	14494
2026-01-26 20:06:50.74	330.08	9.97	-53.4	-52.6	4.8	3.56e-03	0	59	104	52210696192	50	65534
2026-01-26 20:06:51.75	330.20	9.88	-53.6	-55.8	6.2	3.11e-03	0	58	104	52210696192	77	19948
2026-01-26 20:06:52.76	330.31	9.78	-53.5	-55.6	6.2	3.11e-03	0	58	104	52210696192	77	19577
2026-01-26 20:06:53.77	330.42	9.69	-53.6	-55.8	6.2	3.11e-03	0	58	104	52210696192	77	20027
2026-01-26 20:06:54.77	330.53	9.60	-53.6	-55.7	6.2	3.11e-03	0	58	104	52210696192	77	19771
2026-01-26 20:06:55.78	330.65	9.51	-53.6	-55.7	6.2	3.11e-03	0	58	104	52210696192	77	19832
2026-01-26 20:06:56.79	330.76	9.42	-53.6	-55.7	6.2	3.11e-03	0	58	104	52210696192	77	19817
2026-01-26 20:06:57.79	330.86	9.33	-53.6	-55.7	6.2	3.11e-03	0	58	104	52210696192	77	19740
2026-01-26 20:06:58.80	330.97	9.23	-53.6	-55.7	6.2	3.11e-03	0	58	104	52210696192	77	19915
2026-01-26 20:06:59.81	331.08	9.14	-53.6	-55.7	6.2	3.11e-03	0	57	104	52210696192	77	19735
2026-01-26 20:07:00.81	331.19	9.05	-53.6	-55.7	6.2	3.11e-03	0	58	104	52210696192	77	19814
2026-01-26 20:07:01.82	331.29	8.96	-53.5	-55.6	6.2	0.00e+00	0	57	104	52210696192	77	19699
2026-01-26 20:07:02.83	331.40	8.87	-53.6	-55.7	6.2	0.00e+00	0	57	104	52210696192	77	19779
2026-01-26 20:07:03.84	331.50	8.79	-53.5	-55.7	6.2	0.00e+00	0	57	104	52210696192	77	19709
2026-01-26 20:07:04.84	331.60	8.70	-53.5	-55.6	6.2	0.00e+00	0	57	104	52210696192	77	19685
2026-01-26 20:07:05.85	331.71	8.61	-53.5	-55.6	6.2	0.00e+00	0	57	104	52210696192	77	19564
2026-01-26 20:07:06.86	331.81	8.52	-53.5	-55.6	6.2	0.00e+00	0	57	104	52210696192	77	19684
2026-01-26 20:07:07.87	331.91	8.43	-53.5	-55.6	6.2	0.00e+00	0	57	104	52210696192	77	19526
2026-01-26 20:07:08.87	332.01	8.35	-53.5	-55.6	6.2	0.00e+00	0	57	104	52210696192	77	19624
2026-01-26 20:07:09.87	332.11	8.26	-53.4	-55.6	6.2	0.00e+00	0	57	104	52210696192	77	19496
2026-01-26 20:07:10.88	332.21	8.17	-53.5	-55.6	6.2	0.00e+00	0	57	104	52210696192	77	19645
2026-01-26 20:07:11.89	332.31	8.09	-53.4	-55.5	6.2	0.00e+00	0	57	104	52210696192	77	19448
2026-01-26 20:07:12.90	332.41	8.00	-53.4	-55.6	6.2	0.00e+00	0	57	104	52210696192	77	19580
2026-01-26 20:07:13.90	332.50	7.92	-53.4	-55.5	6.2	0.00e+00	0	57	104	52210696192	77	19414
2026-01-26 20:07:14.91	332.60	7.83	-53.5	-55.6	6.2	0.00e+00	0	57	104	52210696192	77	19548
2026-01-26 20:07:15.91	332.70	7.75	-53.4	-55.5	6.2	0.00e+00	0	57	104	52210696192	77	19364
2026-01-26 20:07:16.92	332.79	7.66	-53.4	-55.5	6.2	0.00e+00	0	57	104	52210696192	77	19451
2026-01-26 20:07:17.93	332.89	7.58	-53.3	-55.5	6.2	0.00e+00	0	57	104	52210696192	77	19296
2026-01-26 20:07:18.93	332.98	7.49	-53.4	-55.5	6.2	0.00e+00	0	57	104	52210696192	77	19379
2026-01-26 20:07:19.94	333.07	7.41	-53.3	-55.4	6.2	0.00e+00	0	57	104	52210696192	77	19194
2026-01-26 20:07:20.95	333.17	7.33	-53.3	-55.4	6.2	0.00e+00	0	57	104	52210696192	77	19149
2026-01-26 20:07:21.95	333.26	7.24	-53.3	-55.4	6.2	0.00e+00	0	57	104	52210696192	77	19087
2026-01-26 20:07:22.96	333.35	7.16	-53.4	-55.5	6.2	0.00e+00	0	57	104	52210696192	77	19334
2026-01-26 20:07:23.97	333.44	7.08	-53.3	-55.4	6.2	0.00e+00	0	56	104	52210696192	77	19200
2026-01-26 20:07:24.98	333.53	6.99	-53.3	-55.4	6.2	0.00e+00	0	57	104	52210696192	77	19209
2026-01-26 20:07:25.98	333.62	6.91	-53.2	-55.4	6.2	0.00e+00	0	56	104	52210696192	77	19055
2026-01-26 20:07:26.99	333.71	6.83	-53.3	-55.5	6.2	0.00e+00	0	56	104	52210696192	77	19293
2026-01-26 20:07:27.99	333.80	6.75	-53.2	-55.4	6.2	0.00e+00	0	56	104	52210696192	77	19064
2026-01-26 20:07:28.99	333.89	6.67	-53.3	-55.4	6.2	0.00e+00	0	57	104	52210696192	77	19212
2026-01-26 20:07:30.00	333.97	6.59	-53.2	-55.3	6.2	0.00e+00	0	56	104	52210696192	77	18935
2026-01-26 20:07:31.01	334.06	6.51	-53.3	-55.5	6.2	0.00e+00	0	56	104	52210696192	77	19265
2026-01-26 20:07:32.01	334.15	6.43	-53.2	-55.3	6.2	0.00e+00	0	56	104	52210696192	77	19023
2026-01-26 20:07:33.02	334.23	6.35	-53.3	-55.4	6.2	0.00e+00	0	56	104	52210696192	77	19163
2026-01-26 20:07:34.02	334.32	6.27	-53.2	-55.3	6.2	0.00e+00	0	56	104	52210696192	77	18877
2026-01-26 20:07:35.03	334.40	6.19	-53.3	-55.4	6.2	0.00e+00	0	56	104	52210696192	77	19115
2026-01-26 20:07:36.03	334.48	6.11	-53.2	-55.3	6.2	0.00e+00	0	56	104	52210696192	77	18881
2026-01-26 20:07:37.04	334.57	6.03	-53.2	-55.4	6.2	0.00e+00	0	56	104	52210696192	77	19076
2026-01-26 20:07:38.05	334.65	5.95	-53.0	-55.2	6.2	0.00e+00	0	56	104	52210696192	77	18606
2026-01-26 20:07:39.06	334.73	5.88	-53.2	-55.4	6.2	0.00e+00	0	56	104	52210696192	77	19078
2026-01-26 20:07:40.07	334.82	5.80	-53.1	-55.2	6.2	0.00e+00	0	56	104	52210696192	77	18747
2026-01-26 20:07:41.07	334.90	5.72	-53.2	-55.3	6.2	0.00e+00	0	56	104	52210696192	77	18925
2026-01-26 20:07:42.08	334.98	5.64	-52.7	-54.9	6.2	0.00e+00	0	56	104	52210696192	77	18051
2026-01-26 20:07:43.09	335.06	5.57	-53.2	-55.3	6.2	0.00e+00	0	56	104	52210696192	77	18950
2026-01-26 20:07:44.10	335.14	5.49	-53.0	-55.2	6.2	0.00e+00	0	56	104	52210696192	77	18679
2026-01-26 20:07:45.11	335.22	5.41	-53.1	-55.3	6.2	0.00e+00	0	56	104	52210696192	77	18828
2026-01-26 20:07:46.12	335.30	5.34	-52.8	-54.9	6.2	0.00e+00	0	56	104	52210696192	77	18078
2026-01-26 20:07:47.13	335.38	5.26	-53.1	-55.3	6.2	0.00e+00	0	56	104	52210696192	77	18835
2026-01-26 20:07:48.13	335.45	5.18	-52.8	-55.0	6.2	0.00e+00	0	56	104	52210696192	77	18209
2026-01-26 20:07:49.14	335.53	5.11	-52.6	-54.8	6.2	0.00e+00	0	56	104	52210696192	77	17828
2026-01-26 20:07:50.15	335.61	5.03	-52.8	-54.9	6.2	0.00e+00	0	56	104	52210696192	77	18098
2026-01-26 20:07:51.15	335.68	4.96	-53.2	-55.3	6.2	0.00e+00	0	56	104	52210696192	77	18951
2026-01-26 20:07:52.15	335.76	4.88	-53.6	-55.6	6.2	0.00e+00	0	56	104	52210696192	77	19703
2026-01-26 20:07:53.16	335.84	4.81	-53.8	-55.9	6.2	0.00e+00	0	56	104	52210696192	78	19139
2026-01-26 20:07:54.16	335.91	4.74	-53.9	-56.1	6.2	0.00e+00	0	56	104	52210696192	78	19490
2026-01-26 20:07:55.17	335.99	4.66	-54.0	-56.2	6.2	0.00e+00	0	56	104	52210696192	78	19783
2026-01-26 20:07:56.18	336.06	4.59	-54.1	-56.2	6.2	0.00e+00	0	56	104	52210696192	78	19807
2026-01-26 20:07:57.19	336.13	4.51	-54.2	-56.3	6.2	0.00e+00	0	56	104	52210696192	78	19977
2026-01-26 20:07:58.19	336.21	4.44	-53.7	-55.6	6.2	0.00e+00	0	56	104	52210696192	78	18482
2026-01-26 20:07:59.20	336.28	4.37	-54.2	-56.3	6.2	0.00e+00	0	56	104	52210696192	78	19964
2026-01-26 20:08:00.21	336.35	4.29	-54.2	-56.4	6.2	0.00e+00	0	56	104	52210696192	79	19119
2026-01-26 20:08:01.22	336.42	4.22	-54.2	-56.3	6.2	0.00e+00	0	56	104	52210696192	79	18995
2026-01-26 20:08:02.23	336.50	4.15	-54.1	-56.3	6.2	0.00e+00	0	56	104	52210696192	79	18830
2026-01-26 20:08:03.23	336.57	4.08	-54.0	-56.1	6.2	0.00e+00	0	56	104	52210696192	79	18589
2026-01-26 20:08:04.24	336.64	4.01	-54.0	-56.1	6.2	0.00e+00	0	56	104	52210696192	79	18544
2026-01-26 20:08:05.25	336.71	3.93	-54.1	-56.2	6.2	0.00e+00	0	55	104	52210696192	79	18769
2026-01-26 20:08:06.25	336.78	3.86	-54.1	-56.3	6.2	0.00e+00	0	56	104	52210696192	79	18862
2026-01-26 20:08:07.25	336.85	3.79	-54.1	-56.3	6.2	0.00e+00	0	56	104	52210696192	79	18866
2026-01-26 20:08:08.26	336.92	3.72	-54.2	-56.3	6.2	0.00e+00	0	55	104	52210696192	79	18884
2026-01-26 20:08:09.27	336.99	3.65	-54.2	-56.3	6.2	0.00e+00	0	56	104	52210696192	79	18973
2026-01-26 20:08:10.28	337.05	3.58	-54.2	-56.3	6.2	0.00e+00	0	56	104	52210696192	79	18962
2026-01-26 20:08:11.28	337.12	3.51	-54.2	-56.3	6.2	0.00e+00	0	56	104	52210696192	79	19031
2026-01-26 20:08:12.29	337.19	3.44	-54.2	-56.3	6.2	0.00e+00	0	56	104	52210696192	79	18989
2026-01-26 20:08:13.30	337.26	3.37	-54.1	-56.2	6.2	0.00e+00	0	56	104	52210696192	79	18657
2026-01-26 20:08:14.30	337.32	3.30	-54.1	-56.1	6.2	0.00e+00	0	56	104	52210696192	79	18552
2026-01-26 20:08:15.31	337.39	3.23	-54.0	-56.1	6.2	0.00e+00	0	56	104	52210696192	79	18499
2026-01-26 20:08:16.32	337.46	3.16	-54.0	-56.1	6.2	0.00e+00	0	56	104	52210696192	79	18517
2026-01-26 20:08:17.32	337.52	3.09	-54.0	-56.1	6.2	0.00e+00	0	55	104	52210696192	79	18514
2026-01-26 20:08:18.33	337.59	3.02	-54.0	-56.1	6.2	0.00e+00	0	55	104	52210696192	79	18463
2026-01-26 20:08:19.34	337.65	2.95	-54.0	-56.1	6.2	0.00e+00	0	55	104	52210696192	79	18546
2026-01-26 20:08:20.35	337.72	2.88	-54.0	-56.1	6.2	0.00e+00	0	55	104	52210696192	79	18561
2026-01-26 20:08:21.36	337.78	2.81	-54.0	-56.2	6.2	0.00e+00	0	55	104	52210696192	79	18633
2026-01-26 20:08:22.37	337.85	2.75	-54.0	-56.1	6.2	0.00e+00	0	55	104	52210696192	79	18599
2026-01-26 20:08:23.38	337.91	2.68	-54.0	-56.1	6.2	0.00e+00	0	55	104	52210696192	79	18572
2026-01-26 20:08:24.38	337.97	2.61	-54.0	-56.1	6.2	0.00e+00	0	55	104	52210696192	79	18516
2026-01-26 20:08:25.39	338.04	2.54	-54.0	-56.1	6.2	0.00e+00	0	56	104	52210696192	79	18568
2026-01-26 20:08:26.40	338.10	2.47	-54.0	-56.1	6.2	0.00e+00	0	56	104	52210696192	79	18555
2026-01-26 20:08:27.41	338.16	2.41	-54.0	-56.1	6.2	0.00e+00	0	55	104	52210696192	79	18576
2026-01-26 20:08:28.42	338.22	2.34	-54.0	-56.1	6.2	0.00e+00	0	55	104	52210696192	79	18448
2026-01-26 20:08:29.42	338.29	2.27	-54.0	-56.1	6.2	0.00e+00	0	55	104	52210696192	79	18429
2026-01-26 20:08:30.43	338.35	2.21	-54.0	-56.1	6.2	0.00e+00	0	56	104	52210696192	79	18398
2026-01-26 20:08:31.43	338.41	2.14	-54.0	-56.1	6.2	0.00e+00	0	55	104	52210696192	79	18453
2026-01-26 20:08:32.44	338.47	2.07	-54.0	-56.1	6.2	0.00e+00	0	55	104	52210696192	79	18429
2026-01-26 20:08:33.45	338.53	2.01	-54.0	-56.1	6.2	0.00e+00	0	56	104	52210696192	79	18501
2026-01-26 20:08:34.45	338.59	1.94	-54.0	-56.1	6.2	0.00e+00	0	55	104	52210696192	79	18488

#Closed at: 2026-01-26 20:08:34
#Recorded file [52210 MB]: D:/lorett/data/31041_260126_225817.dat