passes_logs/2026/01/26/R3.2S_Murmansk/R3.2S_Murmansk__20260126_124623_SUOMI_NPP_rec.log

#Pass ID: 20260126_124623_SUOMI NPP
#Satellite: SUOMI NPP
#Configuration: NPP
#almurnet v.1.7.20251203
#Start time: 2026-01-26 12:46:24

#Version: 2.2.20231116
#Station: R3.2S_Murmansk
#Location: 33.079688 lon 68.888172 lat
#TLE: 1 37849U 11061A   26025.95877665  .00000192  00000+0  11229-3 0  9997
#TLE: 2 37849  98.7822 327.9136 0002155  44.9234 315.2116 14.19530109738267

#Time	Az	El	Level	Level2	SNR	BER	BlckErr	Temp	State	Recorded	gain1	gain2
2026-01-26 12:46:24.82	233.94	2.05	-53.0	-68.0	3.8	1.49e+00	0	41	0	0	76	21585
2026-01-26 12:46:25.82	234.03	2.09	-53.0	-68.0	3.8	1.49e+00	0	42	104	0	76	21732
2026-01-26 12:46:26.83	234.12	2.14	-53.0	-68.0	3.8	1.49e+00	0	42	104	0	76	21604
2026-01-26 12:46:27.83	234.21	2.19	-53.0	-68.0	3.8	1.49e+00	0	42	104	0	76	21615
2026-01-26 12:46:28.84	234.31	2.24	-53.0	-68.0	3.8	1.49e+00	0	42	104	0	76	21583
2026-01-26 12:46:29.85	234.40	2.29	-53.0	-68.0	3.8	1.49e+00	0	42	104	0	76	21531
2026-01-26 12:46:30.85	234.49	2.34	-53.0	-68.0	3.8	1.49e+00	0	42	104	0	76	21572
2026-01-26 12:46:31.86	234.59	2.39	-53.0	-68.0	3.8	1.49e+00	0	42	104	0	76	21614
2026-01-26 12:46:32.87	234.68	2.43	-53.0	-68.0	3.8	1.49e+00	0	42	104	0	76	21548
2026-01-26 12:46:33.87	234.78	2.48	-53.0	-68.0	3.8	1.49e+00	0	42	104	0	76	21585
2026-01-26 12:46:34.88	234.87	2.53	-53.0	-68.0	3.8	1.49e+00	0	42	104	0	76	21558
2026-01-26 12:46:35.88	234.97	2.58	-53.0	-68.0	3.8	1.49e+00	0	42	104	0	76	21592
2026-01-26 12:46:36.89	235.06	2.63	-53.0	-68.0	3.8	1.49e+00	0	42	104	0	76	21508
2026-01-26 12:46:37.90	235.16	2.68	-53.0	-68.0	3.8	1.49e+00	0	42	104	0	76	21608
2026-01-26 12:46:38.91	235.25	2.73	-53.0	-68.0	3.8	1.49e+00	0	42	104	0	76	21625
2026-01-26 12:46:39.91	235.35	2.77	-53.0	-68.0	3.8	1.49e+00	0	42	104	0	76	21596
2026-01-26 12:46:40.92	235.45	2.82	-53.0	-68.0	3.8	1.49e+00	0	42	104	0	76	21598
2026-01-26 12:46:41.92	235.54	2.87	-53.0	-68.0	3.8	1.49e+00	0	42	104	0	76	21617
2026-01-26 12:46:42.92	235.64	2.92	-53.0	-68.0	3.8	1.49e+00	0	42	104	0	76	21532
2026-01-26 12:46:43.92	235.74	2.97	-53.0	-68.0	3.8	1.49e+00	0	42	104	0	76	21627
2026-01-26 12:46:44.93	235.84	3.02	-53.0	-68.0	3.8	1.49e+00	0	42	104	0	76	21580
2026-01-26 12:46:45.94	235.93	3.07	-53.0	-68.0	3.8	1.49e+00	0	42	104	0	76	21634
2026-01-26 12:46:46.95	236.03	3.11	-53.0	-68.0	3.8	1.49e+00	0	42	104	0	76	21615
2026-01-26 12:46:47.96	236.13	3.16	-53.0	-68.0	3.8	1.49e+00	0	42	104	0	76	21592
2026-01-26 12:46:48.96	236.23	3.21	-53.0	-68.0	3.8	1.49e+00	0	42	104	0	76	21578
2026-01-26 12:46:49.97	236.33	3.26	-53.0	-68.0	3.8	1.49e+00	0	42	104	0	76	21568
2026-01-26 12:46:50.98	236.43	3.31	-53.0	-68.0	3.8	1.49e+00	0	42	104	0	76	21673
2026-01-26 12:46:51.98	236.53	3.36	-53.0	-68.0	3.8	1.49e+00	0	42	104	0	76	21527
2026-01-26 12:46:52.99	236.63	3.41	-53.0	-68.0	3.8	1.49e+00	0	42	104	0	76	21608
2026-01-26 12:46:54.00	236.73	3.46	-53.0	-68.0	3.8	1.49e+00	0	42	104	0	76	21611
2026-01-26 12:46:55.01	236.83	3.51	-53.0	-68.0	3.8	1.49e+00	0	42	104	0	76	21644
2026-01-26 12:46:56.02	236.94	3.55	-53.0	-68.0	3.8	1.49e+00	0	42	104	0	76	21621
2026-01-26 12:46:57.03	237.04	3.60	-53.0	-68.0	3.8	1.49e+00	0	42	104	0	76	21537
2026-01-26 12:46:58.04	237.14	3.65	-53.0	-68.0	3.8	1.49e+00	0	43	104	0	76	21591
2026-01-26 12:46:59.04	237.24	3.70	-53.0	-68.0	3.8	1.49e+00	0	42	104	0	76	21531
2026-01-26 12:47:00.05	237.34	3.75	-53.0	-68.0	3.8	1.49e+00	0	42	104	0	76	21608
2026-01-26 12:47:01.06	237.45	3.80	-53.0	-68.0	3.8	1.49e+00	0	42	104	0	76	21632
2026-01-26 12:47:02.06	237.55	3.85	-53.0	-68.0	3.8	1.49e+00	0	42	104	0	76	21552
2026-01-26 12:47:03.07	237.65	3.90	-53.0	-68.0	3.8	1.49e+00	0	43	104	0	76	21562
2026-01-26 12:47:04.08	237.76	3.95	-53.0	-68.0	3.8	1.49e+00	0	43	104	0	76	21605
2026-01-26 12:47:05.08	237.86	4.00	-53.0	-68.0	3.8	1.49e+00	0	43	104	0	76	21618
2026-01-26 12:47:06.09	237.97	4.04	-53.0	-68.0	3.8	1.49e+00	0	42	104	0	76	21607
2026-01-26 12:47:07.10	238.07	4.09	-53.0	-68.0	3.8	1.49e+00	0	42	104	0	76	21598
2026-01-26 12:47:08.11	238.18	4.14	-53.0	-68.0	3.8	1.49e+00	0	42	104	0	76	21623
2026-01-26 12:47:09.11	238.28	4.19	-53.0	-68.0	3.8	1.49e+00	0	42	104	0	76	21571
2026-01-26 12:47:10.12	238.39	4.24	-53.0	-68.0	3.8	1.49e+00	0	42	104	0	76	21524
2026-01-26 12:47:11.13	238.50	4.29	-53.0	-68.0	3.8	1.49e+00	0	42	104	0	76	21590
2026-01-26 12:47:12.14	238.60	4.34	-53.0	-68.0	3.8	1.49e+00	0	43	104	0	76	21570
2026-01-26 12:47:13.14	238.71	4.39	-53.0	-68.0	3.8	1.49e+00	0	43	104	0	76	21582
2026-01-26 12:47:14.15	238.82	4.44	-53.0	-68.0	3.8	1.49e+00	0	43	104	0	76	21535
2026-01-26 12:47:15.15	238.93	4.49	-53.0	-68.0	3.8	1.49e+00	0	43	104	0	76	21573
2026-01-26 12:47:16.16	239.03	4.54	-53.0	-68.0	3.8	1.49e+00	0	43	104	0	76	21576
2026-01-26 12:47:17.17	239.14	4.59	-53.0	-68.0	3.8	1.49e+00	0	43	104	0	76	21511
2026-01-26 12:47:18.18	239.25	4.64	-53.0	-68.0	3.8	1.49e+00	0	43	104	0	76	21569
2026-01-26 12:47:19.18	239.36	4.68	-53.0	-68.0	3.8	1.49e+00	0	43	104	0	76	21528
2026-01-26 12:47:20.19	239.47	4.73	-53.0	-68.0	3.8	1.49e+00	0	43	104	0	76	21568
2026-01-26 12:47:21.20	239.58	4.78	-53.0	-68.0	3.8	1.49e+00	0	43	104	0	76	21570
2026-01-26 12:47:22.20	239.69	4.83	-53.0	-68.0	3.8	1.49e+00	0	43	104	0	76	21582
2026-01-26 12:47:23.21	239.80	4.88	-53.0	-68.0	3.8	1.49e+00	0	43	104	0	76	21557
2026-01-26 12:47:24.22	239.91	4.93	-53.0	-68.0	3.8	1.49e+00	0	43	104	0	76	21586
2026-01-26 12:47:25.23	240.02	4.98	-53.0	-68.0	3.8	1.49e+00	0	43	104	0	76	21580
2026-01-26 12:47:26.23	240.13	5.03	-53.0	-68.0	3.8	1.49e+00	0	43	104	0	76	21589
2026-01-26 12:47:27.24	240.25	5.08	-53.0	-68.0	3.8	1.49e+00	0	43	104	0	76	21516
2026-01-26 12:47:28.25	240.36	5.13	-53.0	-68.0	3.8	1.49e+00	0	43	104	0	76	21572
2026-01-26 12:47:29.26	240.47	5.18	-53.0	-68.0	3.8	1.49e+00	0	43	104	0	76	21549
2026-01-26 12:47:30.27	240.59	5.23	-53.0	-68.0	3.8	1.49e+00	0	43	104	0	76	21554
2026-01-26 12:47:31.27	240.70	5.28	-53.0	-68.0	3.8	1.49e+00	0	43	104	0	76	21526
2026-01-26 12:47:32.28	240.81	5.32	-53.0	-68.0	3.8	1.49e+00	0	43	104	0	76	21586
2026-01-26 12:47:33.29	240.93	5.37	-53.0	-68.0	3.8	1.49e+00	0	43	104	0	76	21528
2026-01-26 12:47:34.30	241.04	5.42	-53.0	-68.0	3.8	1.49e+00	0	43	104	0	76	21551
2026-01-26 12:47:35.30	241.16	5.47	-53.0	-68.0	3.8	1.49e+00	0	43	104	0	76	21614
2026-01-26 12:47:36.31	241.27	5.52	-53.0	-68.0	3.8	1.49e+00	0	43	104	0	76	21568
2026-01-26 12:47:37.32	241.39	5.57	-53.0	-68.0	3.8	1.49e+00	0	43	104	0	76	21630
2026-01-26 12:47:38.33	241.50	5.62	-53.0	-68.0	3.8	1.49e+00	0	43	104	0	76	21561
2026-01-26 12:47:39.33	241.62	5.67	-53.0	-68.0	3.8	1.49e+00	0	43	104	0	76	21600
2026-01-26 12:47:40.34	241.74	5.72	-53.0	-68.0	3.8	1.49e+00	0	43	104	0	76	21564
2026-01-26 12:47:41.35	241.86	5.77	-53.0	-68.0	3.8	1.49e+00	0	43	104	0	76	21605
2026-01-26 12:47:42.36	241.97	5.82	-53.0	-68.0	3.8	1.49e+00	0	43	104	0	76	21559
2026-01-26 12:47:43.36	242.09	5.87	-53.0	-68.0	3.8	1.49e+00	0	43	104	0	76	21611
2026-01-26 12:47:44.37	242.21	5.92	-53.0	-68.0	3.8	1.49e+00	0	43	104	0	76	21614
2026-01-26 12:47:45.38	242.33	5.96	-53.0	-68.0	3.8	1.49e+00	0	43	104	0	76	21600
2026-01-26 12:47:46.39	242.45	6.01	-53.0	-68.0	3.8	1.49e+00	0	43	104	0	76	21559
2026-01-26 12:47:47.39	242.57	6.06	-53.0	-68.0	3.8	1.49e+00	0	43	104	0	76	21601
2026-01-26 12:47:48.40	242.69	6.11	-53.0	-68.0	3.8	1.49e+00	0	43	104	0	76	21601
2026-01-26 12:47:49.41	242.81	6.16	-53.0	-68.0	3.8	1.49e+00	0	43	104	0	76	21538
2026-01-26 12:47:50.42	242.93	6.21	-53.0	-68.0	3.8	1.49e+00	0	43	104	0	76	21626
2026-01-26 12:47:51.43	243.05	6.26	-53.0	-68.0	3.8	1.49e+00	0	43	104	0	76	21590
2026-01-26 12:47:52.44	243.17	6.31	-53.0	-68.0	3.8	1.49e+00	0	43	104	0	76	21571
2026-01-26 12:47:53.45	243.29	6.36	-53.0	-68.0	3.8	1.49e+00	0	43	104	0	76	21586
2026-01-26 12:47:54.45	243.42	6.41	-53.0	-68.0	3.8	1.49e+00	0	43	104	0	76	21601
2026-01-26 12:47:55.46	243.54	6.46	-53.0	-68.0	3.8	1.49e+00	0	43	104	0	76	21536
2026-01-26 12:47:56.47	243.66	6.51	-53.0	-68.0	3.8	1.49e+00	0	43	104	0	76	21559
2026-01-26 12:47:57.48	243.79	6.56	-53.0	-68.0	3.8	1.49e+00	0	43	104	0	76	21554
2026-01-26 12:47:58.49	243.91	6.60	-53.0	-68.0	3.8	1.49e+00	0	43	104	0	76	21596
2026-01-26 12:47:59.49	244.03	6.65	-53.0	-68.0	3.8	1.49e+00	0	43	104	0	76	21524
2026-01-26 12:48:00.50	244.16	6.70	-53.0	-68.0	3.8	1.49e+00	0	43	104	0	76	21573
2026-01-26 12:48:01.51	244.28	6.75	-53.0	-68.0	3.8	1.49e+00	0	43	104	0	76	21620
2026-01-26 12:48:02.51	244.41	6.80	-53.0	-68.0	3.8	1.49e+00	0	43	104	0	76	21594
2026-01-26 12:48:03.52	244.53	6.85	-53.0	-68.0	3.8	1.49e+00	0	43	104	0	76	21602
2026-01-26 12:48:04.52	244.66	6.90	-53.0	-68.0	3.8	1.49e+00	0	43	104	0	76	21597
2026-01-26 12:48:05.53	244.79	6.95	-53.0	-68.0	3.8	1.49e+00	0	43	104	0	76	21605
2026-01-26 12:48:06.54	244.91	7.00	-53.0	-68.0	3.8	1.49e+00	0	43	104	0	76	21592
2026-01-26 12:48:07.55	245.04	7.04	-53.0	-68.0	3.8	1.49e+00	0	43	104	0	76	21524
2026-01-26 12:48:08.56	245.17	7.09	-53.0	-68.0	3.8	1.49e+00	0	43	104	0	76	21597
2026-01-26 12:48:09.56	245.30	7.14	-53.0	-68.0	3.8	1.49e+00	0	43	104	0	76	21571
2026-01-26 12:48:10.57	245.43	7.19	-53.0	-68.0	3.8	1.49e+00	0	43	104	0	76	21607
2026-01-26 12:48:11.58	245.56	7.24	-53.0	-68.0	3.8	1.49e+00	0	43	104	0	76	21573
2026-01-26 12:48:12.59	245.69	7.29	-53.0	-68.0	3.8	1.49e+00	0	43	104	0	76	21623
2026-01-26 12:48:13.60	245.82	7.34	-53.0	-68.0	3.8	1.49e+00	0	43	104	0	76	21590
2026-01-26 12:48:14.61	245.95	7.39	-53.0	-68.0	3.8	1.49e+00	0	43	104	0	76	21551
2026-01-26 12:48:15.61	246.08	7.43	-53.0	-68.0	3.8	1.49e+00	0	43	104	0	76	21551
2026-01-26 12:48:16.62	246.21	7.48	-53.0	-68.0	3.8	1.49e+00	0	43	104	0	76	21572
2026-01-26 12:48:17.63	246.34	7.53	-53.0	-68.0	3.8	1.49e+00	0	43	104	0	76	21623
2026-01-26 12:48:18.63	246.47	7.58	-53.0	-68.0	3.8	1.49e+00	0	43	104	0	76	21636
2026-01-26 12:48:19.63	246.60	7.63	-53.0	-68.0	3.8	1.49e+00	0	43	104	0	76	21553
2026-01-26 12:48:20.64	246.74	7.68	-53.0	-68.0	3.8	1.49e+00	0	43	104	0	76	21563
2026-01-26 12:48:21.65	246.87	7.72	-53.0	-68.0	3.8	1.49e+00	0	43	104	0	76	21564
2026-01-26 12:48:22.66	247.00	7.77	-53.0	-68.0	3.8	1.49e+00	0	43	104	0	76	21629
2026-01-26 12:48:23.67	247.14	7.82	-53.0	-68.0	3.8	1.49e+00	0	43	104	0	76	21609
2026-01-26 12:48:24.67	247.27	7.87	-53.0	-68.0	3.8	1.49e+00	0	43	104	0	76	21602
2026-01-26 12:48:25.68	247.41	7.92	-53.0	-68.0	3.8	1.49e+00	0	43	104	0	76	21578
2026-01-26 12:48:26.69	247.54	7.97	-53.0	-68.0	3.8	1.49e+00	0	43	104	0	76	21598
2026-01-26 12:48:27.70	247.68	8.01	-53.0	-68.0	3.8	1.49e+00	0	43	104	0	76	21573
2026-01-26 12:48:28.70	247.82	8.06	-53.0	-68.0	3.8	1.49e+00	0	43	104	0	76	21610
2026-01-26 12:48:29.71	247.95	8.11	-53.0	-68.0	3.8	1.49e+00	0	43	104	0	76	21580
2026-01-26 12:48:30.72	248.09	8.16	-53.0	-67.9	3.8	1.49e+00	0	43	104	0	76	21464
2026-01-26 12:48:31.73	248.23	8.21	-53.0	-68.0	3.8	1.49e+00	0	43	104	0	76	21609
2026-01-26 12:48:32.73	248.37	8.25	-53.0	-68.0	3.8	1.49e+00	0	43	104	0	76	21581
2026-01-26 12:48:33.74	248.50	8.30	-53.0	-68.0	3.8	1.49e+00	0	43	104	0	76	21587
2026-01-26 12:48:34.74	248.64	8.35	-53.0	-68.0	3.8	1.49e+00	0	43	104	0	76	21595
2026-01-26 12:48:35.75	248.78	8.40	-53.0	-68.0	3.8	1.49e+00	0	43	104	0	76	21552
2026-01-26 12:48:36.76	248.92	8.45	-53.0	-68.0	3.8	1.49e+00	0	43	104	0	76	21602
2026-01-26 12:48:37.77	249.06	8.49	-53.0	-68.0	3.8	1.49e+00	0	43	104	0	76	21636
2026-01-26 12:48:38.78	249.20	8.54	-53.0	-68.0	3.8	1.49e+00	0	43	104	0	76	21570
2026-01-26 12:48:39.79	249.35	8.59	-53.0	-68.0	3.8	1.49e+00	0	43	104	0	76	21575
2026-01-26 12:48:40.80	249.49	8.64	-53.0	-68.0	3.8	1.49e+00	0	43	104	0	76	21611
2026-01-26 12:48:41.81	249.63	8.68	-53.0	-68.0	3.8	1.49e+00	0	43	104	0	76	21611
2026-01-26 12:48:42.81	249.77	8.73	-53.0	-68.0	3.8	1.49e+00	0	43	104	0	76	21551
2026-01-26 12:48:43.82	249.92	8.78	-53.0	-68.0	3.8	1.49e+00	0	43	104	0	76	21629
2026-01-26 12:48:44.82	250.06	8.83	-53.0	-68.0	3.8	1.49e+00	0	43	104	0	76	21555
2026-01-26 12:48:45.83	250.20	8.87	-53.0	-68.0	3.8	1.49e+00	0	43	104	0	76	21610
2026-01-26 12:48:46.84	250.35	8.92	-53.0	-68.0	3.8	1.49e+00	0	43	104	0	76	21574
2026-01-26 12:48:47.84	250.49	8.97	-53.0	-68.0	3.8	1.49e+00	0	43	104	0	76	21582
2026-01-26 12:48:48.85	250.64	9.01	-53.0	-68.0	3.8	1.49e+00	0	43	104	0	76	21558
2026-01-26 12:48:49.85	250.78	9.06	-53.0	-68.0	3.8	1.49e+00	0	43	104	0	76	21524
2026-01-26 12:48:50.86	250.93	9.11	-53.0	-68.0	3.8	1.49e+00	0	43	104	0	76	21544
2026-01-26 12:48:51.87	251.07	9.15	-53.0	-68.0	3.8	1.49e+00	0	43	104	0	76	21533
2026-01-26 12:48:52.87	251.22	9.20	-53.0	-68.0	3.8	1.49e+00	0	43	104	0	76	21570
2026-01-26 12:48:53.88	251.37	9.25	-53.0	-68.0	3.8	1.49e+00	0	43	104	0	76	21628
2026-01-26 12:48:54.89	251.52	9.29	-53.0	-68.0	3.8	1.49e+00	0	44	104	0	76	21545
2026-01-26 12:48:55.89	251.66	9.34	-53.0	-68.0	3.8	1.49e+00	0	43	104	0	76	21577
2026-01-26 12:48:56.90	251.81	9.39	-53.0	-68.0	3.8	1.49e+00	0	43	104	0	76	21621
2026-01-26 12:48:57.91	251.96	9.43	-53.0	-68.0	3.8	1.49e+00	0	43	104	0	76	21550
2026-01-26 12:48:58.92	252.11	9.48	-53.0	-68.0	3.8	1.49e+00	0	44	104	0	76	21593
2026-01-26 12:48:59.93	252.26	9.52	-53.0	-68.0	3.8	1.49e+00	0	44	104	0	76	21542
2026-01-26 12:49:00.93	252.41	9.57	-53.0	-68.0	3.8	1.49e+00	0	43	104	0	76	21605
2026-01-26 12:49:01.94	252.56	9.62	-53.0	-68.0	3.8	1.49e+00	0	44	104	0	76	21573
2026-01-26 12:49:02.94	252.71	9.66	-53.0	-68.0	3.8	1.49e+00	0	43	104	0	76	21631
2026-01-26 12:49:03.94	252.87	9.71	-53.0	-68.0	3.8	1.49e+00	0	43	104	0	76	21587
2026-01-26 12:49:04.95	253.02	9.75	-53.0	-68.0	3.8	1.49e+00	0	43	104	0	76	21563
2026-01-26 12:49:05.95	253.17	9.80	-53.0	-68.0	3.8	1.49e+00	0	44	104	0	76	21582
2026-01-26 12:49:06.96	253.32	9.84	-53.0	-68.0	3.8	1.49e+00	0	43	104	0	76	21588
2026-01-26 12:49:07.97	253.48	9.89	-53.0	-68.0	3.8	1.49e+00	0	43	104	0	76	21550
2026-01-26 12:49:08.97	253.63	9.93	-53.0	-68.0	3.8	1.49e+00	0	43	104	0	76	21617
2026-01-26 12:49:09.98	253.79	9.98	-53.0	-68.0	3.8	1.49e+00	0	43	104	0	76	21568
2026-01-26 12:49:10.99	253.94	10.02	-53.0	-67.9	3.8	1.49e+00	0	44	104	0	76	21501
2026-01-26 12:49:12.00	254.10	10.07	-53.0	-68.0	3.8	1.49e+00	0	43	104	0	76	21594
2026-01-26 12:49:13.01	254.26	10.11	-53.0	-68.0	3.8	1.49e+00	0	43	104	0	76	21586
2026-01-26 12:49:14.01	254.41	10.16	-53.0	-68.0	3.8	1.49e+00	0	43	104	0	76	21627
2026-01-26 12:49:15.02	254.57	10.20	-53.0	-68.0	3.8	1.49e+00	0	43	104	0	76	21586
2026-01-26 12:49:16.03	254.73	10.25	-53.0	-68.0	3.8	1.49e+00	0	44	104	0	76	21578
2026-01-26 12:49:17.04	254.88	10.29	-53.0	-68.0	3.8	1.49e+00	0	43	104	0	76	21610
2026-01-26 12:49:18.05	255.04	10.34	-53.0	-68.0	3.8	1.49e+00	0	43	104	0	76	21576
2026-01-26 12:49:19.05	255.20	10.38	-53.0	-68.0	3.8	1.49e+00	0	43	104	0	76	21597
2026-01-26 12:49:20.06	255.36	10.43	-53.0	-68.0	3.8	1.49e+00	0	43	104	0	76	21637
2026-01-26 12:49:21.07	255.52	10.47	-53.0	-68.0	3.8	1.49e+00	0	43	104	0	76	21571
2026-01-26 12:49:22.07	255.68	10.51	-53.0	-68.0	3.8	1.49e+00	0	43	104	0	76	21557
2026-01-26 12:49:23.08	255.84	10.56	-53.0	-68.0	3.8	1.49e+00	0	44	104	0	76	21594
2026-01-26 12:49:24.09	256.00	10.60	-53.0	-68.0	3.8	1.49e+00	0	43	104	0	76	21576
2026-01-26 12:49:25.10	256.17	10.64	-53.0	-68.0	3.8	1.49e+00	0	44	104	0	76	21606
2026-01-26 12:49:26.11	256.33	10.69	-53.0	-68.0	3.8	1.49e+00	0	43	104	0	76	21546
2026-01-26 12:49:27.11	256.49	10.73	-53.0	-68.0	3.8	1.49e+00	0	43	104	0	76	21559
2026-01-26 12:49:28.12	256.65	10.77	-53.0	-68.0	3.8	1.49e+00	0	44	104	0	76	21536
2026-01-26 12:49:29.13	256.82	10.82	-53.0	-68.0	3.8	1.49e+00	0	43	104	0	76	21548
2026-01-26 12:49:30.13	256.98	10.86	-53.0	-68.0	3.8	1.49e+00	0	44	104	0	76	21580
2026-01-26 12:49:31.14	257.14	10.90	-53.0	-68.0	3.8	1.49e+00	0	43	104	0	76	21520
2026-01-26 12:49:32.15	257.31	10.95	-53.0	-68.0	3.8	1.49e+00	0	43	104	0	76	21548
2026-01-26 12:49:33.16	257.48	10.99	-53.0	-68.0	3.8	1.49e+00	0	44	104	0	76	21570
2026-01-26 12:49:34.16	257.64	11.03	-53.0	-67.9	3.8	1.49e+00	0	43	104	0	76	21450
2026-01-26 12:49:35.17	257.81	11.07	-53.0	-68.0	3.8	1.49e+00	0	44	104	0	76	21569
2026-01-26 12:49:36.17	257.97	11.11	-53.0	-68.0	3.8	1.49e+00	0	44	104	0	76	21526
2026-01-26 12:49:37.18	258.14	11.16	-53.0	-68.0	3.8	1.49e+00	0	43	104	0	76	21550
2026-01-26 12:49:38.19	258.31	11.20	-53.0	-68.0	3.8	1.49e+00	0	44	104	0	76	21557
2026-01-26 12:49:39.20	258.48	11.24	-53.0	-68.0	3.8	1.49e+00	0	44	104	0	76	21534
2026-01-26 12:49:40.20	258.64	11.28	-53.0	-68.0	3.8	1.49e+00	0	44	104	0	76	21588
2026-01-26 12:49:41.21	258.81	11.32	-53.0	-68.0	3.8	1.49e+00	0	44	104	0	76	21582
2026-01-26 12:49:42.22	258.98	11.36	-53.0	-68.0	3.8	1.49e+00	0	44	104	0	76	21535
2026-01-26 12:49:43.22	259.15	11.40	-53.0	-68.0	3.8	1.49e+00	0	44	104	0	76	21570
2026-01-26 12:49:44.23	259.32	11.45	-53.0	-68.0	3.8	1.49e+00	0	43	104	0	76	21602
2026-01-26 12:49:45.24	259.50	11.49	-53.0	-68.0	3.8	1.49e+00	0	44	104	0	76	21594
2026-01-26 12:49:46.25	259.67	11.53	-53.0	-68.0	3.8	1.49e+00	0	44	104	0	76	21584
2026-01-26 12:49:47.25	259.84	11.57	-53.0	-68.0	3.8	1.49e+00	0	43	104	0	76	21556
2026-01-26 12:49:48.26	260.01	11.61	-53.0	-68.0	3.8	1.49e+00	0	44	104	0	76	21642
2026-01-26 12:49:49.27	260.18	11.65	-53.0	-68.0	3.8	1.49e+00	0	44	104	0	76	21641
2026-01-26 12:49:50.28	260.36	11.69	-53.0	-68.0	3.8	1.49e+00	0	43	104	0	76	21601
2026-01-26 12:49:51.28	260.53	11.73	-53.0	-68.0	3.8	1.49e+00	0	44	104	0	76	21581
2026-01-26 12:49:52.28	260.70	11.77	-53.0	-68.0	3.8	1.49e+00	0	43	104	0	76	21633
2026-01-26 12:49:53.29	260.88	11.81	-53.0	-68.0	3.8	1.49e+00	0	44	104	0	76	21607
2026-01-26 12:49:54.29	261.05	11.84	-53.0	-68.0	3.8	1.49e+00	0	43	104	0	76	21633
2026-01-26 12:49:55.30	261.23	11.88	-53.0	-68.0	3.8	1.49e+00	0	44	104	0	76	21556
2026-01-26 12:49:56.31	261.40	11.92	-53.0	-68.0	3.8	1.49e+00	0	44	104	0	76	21589
2026-01-26 12:49:57.31	261.58	11.96	-53.0	-68.0	3.8	1.49e+00	0	44	104	0	76	21583
2026-01-26 12:49:58.32	261.76	12.00	-53.0	-68.0	3.8	1.49e+00	0	43	104	0	76	21542
2026-01-26 12:49:59.33	261.93	12.04	-53.0	-68.0	3.8	1.49e+00	0	44	104	0	76	21537
2026-01-26 12:50:00.34	262.11	12.08	-53.0	-68.0	3.8	1.49e+00	0	43	104	0	76	21607
2026-01-26 12:50:01.35	262.29	12.11	-53.0	-68.0	3.8	1.49e+00	0	44	104	0	76	21593
2026-01-26 12:50:02.35	262.47	12.15	-53.0	-68.0	3.8	1.49e+00	0	44	104	0	76	21588
2026-01-26 12:50:03.36	262.65	12.19	-53.0	-68.0	3.8	1.49e+00	0	43	104	0	76	21568
2026-01-26 12:50:04.37	262.83	12.23	-53.0	-68.0	3.8	1.49e+00	0	43	104	0	76	21570
2026-01-26 12:50:05.37	263.01	12.26	-53.0	-68.0	3.8	1.49e+00	0	44	104	0	76	21584
2026-01-26 12:50:06.38	263.19	12.30	-53.0	-68.0	3.8	1.49e+00	0	43	104	0	76	21576
2026-01-26 12:50:07.39	263.37	12.34	-53.0	-68.0	3.8	1.49e+00	0	44	104	0	76	21563
2026-01-26 12:50:08.39	263.55	12.37	-53.0	-68.0	3.8	1.49e+00	0	43	104	0	76	21580
2026-01-26 12:50:09.40	263.73	12.41	-53.0	-68.0	3.8	1.49e+00	0	43	104	0	76	21617
2026-01-26 12:50:10.41	263.91	12.45	-53.0	-68.0	3.8	1.49e+00	0	44	104	0	76	21570
2026-01-26 12:50:11.41	264.09	12.48	-53.0	-68.0	3.8	1.49e+00	0	43	104	0	76	21562
2026-01-26 12:50:12.42	264.28	12.52	-53.0	-68.0	3.8	1.49e+00	0	44	104	0	76	21607
2026-01-26 12:50:13.43	264.46	12.55	-53.0	-68.0	3.8	1.49e+00	0	43	104	0	76	21657
2026-01-26 12:50:14.44	264.64	12.59	-53.0	-68.0	3.8	1.49e+00	0	43	104	0	76	21631
2026-01-26 12:50:15.45	264.83	12.62	-53.0	-68.0	3.8	1.49e+00	0	44	104	0	76	21613
2026-01-26 12:50:16.45	265.01	12.66	-53.0	-68.0	3.8	1.49e+00	0	43	104	0	76	21661
2026-01-26 12:50:17.46	265.20	12.69	-53.0	-68.0	3.8	1.49e+00	0	44	104	0	76	21544
2026-01-26 12:50:18.46	265.38	12.73	-53.0	-68.0	3.8	1.49e+00	0	44	104	0	76	21580
2026-01-26 12:50:19.47	265.57	12.76	-53.0	-68.0	3.8	1.49e+00	0	44	104	0	76	21586
2026-01-26 12:50:20.48	265.76	12.80	-53.0	-68.0	3.8	1.49e+00	0	43	104	0	76	21617
2026-01-26 12:50:21.48	265.94	12.83	-53.0	-68.0	3.8	1.49e+00	0	44	104	0	76	21549
2026-01-26 12:50:22.49	266.13	12.86	-53.0	-68.0	3.8	1.49e+00	0	43	104	0	76	21620
2026-01-26 12:50:23.49	266.31	12.90	-53.0	-68.0	3.8	1.49e+00	0	44	104	0	76	21626
2026-01-26 12:50:24.50	266.50	12.93	-53.0	-68.0	3.8	1.49e+00	0	44	104	0	76	21614
2026-01-26 12:50:25.50	266.69	12.96	-53.0	-68.0	3.8	1.49e+00	0	43	104	0	76	21624
2026-01-26 12:50:26.51	266.88	12.99	-53.0	-68.0	3.8	1.49e+00	0	44	104	0	76	21556
2026-01-26 12:50:27.52	267.07	13.03	-53.0	-68.0	3.8	1.49e+00	0	43	104	0	76	21634
2026-01-26 12:50:28.53	267.26	13.06	-53.0	-68.0	3.8	1.49e+00	0	43	104	0	76	21576
2026-01-26 12:50:29.53	267.45	13.09	-53.0	-68.0	3.8	1.49e+00	0	44	104	0	76	21570
2026-01-26 12:50:30.53	267.64	13.12	-53.0	-68.0	3.8	1.49e+00	0	44	104	0	76	21587
2026-01-26 12:50:31.54	267.83	13.15	-53.0	-68.0	3.8	1.49e+00	0	44	104	0	76	21602
2026-01-26 12:50:32.55	268.02	13.18	-53.0	-68.0	3.8	1.49e+00	0	44	104	0	76	21542
2026-01-26 12:50:33.56	268.21	13.22	-53.0	-68.0	3.8	1.49e+00	0	44	104	0	76	21563
2026-01-26 12:50:34.57	268.40	13.25	-53.0	-68.0	3.8	1.49e+00	0	44	104	0	76	21580
2026-01-26 12:50:35.57	268.59	13.28	-53.0	-68.0	3.8	1.49e+00	0	43	104	0	76	21587
2026-01-26 12:50:36.58	268.79	13.31	-53.0	-68.0	3.8	1.49e+00	0	44	104	0	76	21559
2026-01-26 12:50:37.59	268.98	13.34	-53.0	-68.0	3.8	1.49e+00	0	44	104	0	76	21579
2026-01-26 12:50:38.59	269.17	13.37	-53.0	-68.0	3.8	1.49e+00	0	44	104	0	76	21614
2026-01-26 12:50:39.60	269.37	13.40	-53.0	-68.0	3.8	1.49e+00	0	44	104	0	76	21568
2026-01-26 12:50:40.61	269.56	13.42	-53.0	-68.0	3.8	1.49e+00	0	44	104	0	76	21542
2026-01-26 12:50:41.61	269.75	13.45	-53.0	-68.0	3.8	1.49e+00	0	43	104	0	76	21617
2026-01-26 12:50:42.62	269.95	13.48	-53.0	-68.0	3.8	1.49e+00	0	44	104	0	76	21582
2026-01-26 12:50:43.63	270.14	13.51	-53.0	-68.0	3.8	1.49e+00	0	44	104	0	76	21591
2026-01-26 12:50:44.64	270.34	13.54	-53.0	-68.0	3.8	1.49e+00	0	43	104	0	76	21573
2026-01-26 12:50:45.65	270.54	13.57	-53.0	-68.0	3.8	1.49e+00	0	44	104	0	76	21582
2026-01-26 12:50:46.66	270.73	13.59	-53.0	-68.0	3.8	1.49e+00	0	43	104	0	76	21510
2026-01-26 12:50:47.67	270.93	13.62	-53.0	-68.0	3.8	1.49e+00	0	44	104	0	76	21518
2026-01-26 12:50:48.67	271.13	13.65	-53.0	-68.0	3.8	1.49e+00	0	43	104	0	76	21542
2026-01-26 12:50:49.68	271.32	13.67	-53.0	-68.0	3.8	1.49e+00	0	44	104	0	76	21537
2026-01-26 12:50:50.69	271.52	13.70	-53.0	-68.0	3.8	1.49e+00	0	43	104	0	76	21581
2026-01-26 12:50:51.70	271.72	13.73	-53.0	-68.0	3.8	1.49e+00	0	43	104	0	76	21616
2026-01-26 12:50:52.71	271.92	13.75	-53.0	-68.0	3.8	1.49e+00	0	44	104	0	76	21640
2026-01-26 12:50:53.72	272.12	13.78	-53.0	-68.0	3.8	1.49e+00	0	44	104	0	76	21547
2026-01-26 12:50:54.73	272.32	13.80	-53.0	-68.0	3.8	1.49e+00	0	44	104	0	76	21588
2026-01-26 12:50:55.74	272.52	13.83	-53.0	-68.0	3.8	1.49e+00	0	43	104	0	76	21619
2026-01-26 12:50:56.75	272.72	13.85	-53.0	-68.0	3.8	1.49e+00	0	44	104	0	76	21604
2026-01-26 12:50:57.76	272.92	13.88	-53.0	-68.0	3.8	1.49e+00	0	44	104	0	76	21644
2026-01-26 12:50:58.76	273.12	13.90	-53.0	-68.0	3.8	1.49e+00	0	43	104	0	76	21525
2026-01-26 12:50:59.77	273.32	13.92	-53.0	-68.0	3.8	1.49e+00	0	43	104	0	76	21558
2026-01-26 12:51:00.78	273.52	13.95	-53.0	-68.0	3.8	1.49e+00	0	43	104	0	76	21520
2026-01-26 12:51:01.79	273.72	13.97	-53.0	-68.0	3.8	1.49e+00	0	43	104	0	76	21571
2026-01-26 12:51:02.79	273.92	13.99	-53.0	-68.0	3.8	1.49e+00	0	43	104	0	76	21563
2026-01-26 12:51:03.80	274.12	14.02	-53.0	-68.0	3.8	1.49e+00	0	44	104	0	76	21645
2026-01-26 12:51:04.81	274.33	14.04	-53.0	-68.0	3.8	1.49e+00	0	44	104	0	76	21612
2026-01-26 12:51:05.82	274.53	14.06	-53.0	-68.0	3.8	1.49e+00	0	43	104	0	76	21554
2026-01-26 12:51:06.83	274.73	14.08	-53.0	-68.0	3.8	1.49e+00	0	44	104	0	76	21607
2026-01-26 12:51:07.83	274.93	14.10	-53.0	-68.0	3.8	1.49e+00	0	44	104	0	76	21622
2026-01-26 12:51:08.84	275.14	14.12	-53.0	-68.0	3.8	1.49e+00	0	44	104	0	76	21587
2026-01-26 12:51:09.85	275.34	14.14	-53.0	-68.0	3.8	1.49e+00	0	44	104	0	76	21511
2026-01-26 12:51:10.86	275.55	14.16	-53.0	-67.9	3.8	1.49e+00	0	43	104	0	76	21504
2026-01-26 12:51:11.87	275.75	14.18	-53.0	-68.0	3.8	1.49e+00	0	44	104	0	76	21579
2026-01-26 12:51:12.88	275.96	14.20	-53.0	-68.0	3.8	1.49e+00	0	44	104	0	76	21615
2026-01-26 12:51:13.88	276.16	14.22	-53.0	-68.0	3.8	1.49e+00	0	43	104	0	76	21569
2026-01-26 12:51:14.89	276.36	14.24	-53.0	-68.0	3.8	1.49e+00	0	44	104	0	76	21585
2026-01-26 12:51:15.90	276.57	14.26	-53.0	-68.0	3.8	1.49e+00	0	44	104	0	76	21580
2026-01-26 12:51:16.91	276.77	14.28	-53.0	-68.0	3.8	1.49e+00	0	44	104	0	76	21532
2026-01-26 12:51:17.92	276.98	14.30	-53.0	-68.0	3.8	1.49e+00	0	44	104	0	76	21547
2026-01-26 12:51:18.93	277.19	14.32	-53.0	-68.0	3.8	1.49e+00	0	44	104	0	76	21582
2026-01-26 12:51:19.93	277.39	14.33	-53.0	-68.0	3.8	1.49e+00	0	44	104	0	76	21570
2026-01-26 12:51:20.94	277.60	14.35	-53.0	-68.0	3.8	1.49e+00	0	43	104	0	76	21584
2026-01-26 12:51:21.95	277.81	14.37	-53.0	-68.0	3.8	1.49e+00	0	44	104	0	76	21553
2026-01-26 12:51:22.96	278.01	14.38	-53.0	-68.0	3.8	1.49e+00	0	44	104	0	76	21583
2026-01-26 12:51:23.96	278.22	14.40	-53.0	-68.0	3.8	1.49e+00	0	44	104	0	76	21578
2026-01-26 12:51:24.96	278.42	14.41	-53.0	-68.0	3.8	1.49e+00	0	43	104	0	76	21575
2026-01-26 12:51:25.97	278.63	14.43	-53.0	-68.0	3.8	1.49e+00	0	43	104	0	76	21574
2026-01-26 12:51:26.97	278.84	14.45	-53.0	-67.9	3.8	1.49e+00	0	44	104	0	76	21503
2026-01-26 12:51:27.98	279.05	14.46	-53.0	-68.0	3.8	1.49e+00	0	44	104	0	76	21609
2026-01-26 12:51:28.99	279.25	14.47	-53.0	-68.0	3.8	1.49e+00	0	44	104	0	76	21544
2026-01-26 12:51:29.99	279.46	14.49	-53.0	-68.0	3.8	1.49e+00	0	44	104	0	76	21612
2026-01-26 12:51:31.00	279.67	14.50	-53.0	-68.0	3.8	1.49e+00	0	44	104	0	76	21531
2026-01-26 12:51:32.01	279.88	14.52	-53.0	-68.0	3.8	1.49e+00	0	43	104	0	76	21584
2026-01-26 12:51:33.02	280.09	14.53	-53.0	-68.0	3.8	1.49e+00	0	44	104	0	76	21571
2026-01-26 12:51:34.03	280.30	14.54	-53.0	-68.0	3.8	1.49e+00	0	43	104	0	76	21515
2026-01-26 12:51:35.03	280.50	14.55	-53.0	-67.9	3.8	1.49e+00	0	43	104	0	76	21470
2026-01-26 12:51:36.04	280.71	14.57	-53.0	-67.9	3.8	1.49e+00	0	44	104	0	76	21482
2026-01-26 12:51:37.04	280.92	14.58	-53.0	-68.0	3.8	1.49e+00	0	44	104	0	76	21534
2026-01-26 12:51:38.05	281.13	14.59	-53.0	-68.0	3.8	1.49e+00	0	44	104	0	76	21551
2026-01-26 12:51:39.06	281.34	14.60	-53.0	-68.0	3.8	1.49e+00	0	44	104	0	76	21531
2026-01-26 12:51:40.06	281.55	14.61	-53.0	-68.0	3.8	1.49e+00	0	44	104	0	76	21581
2026-01-26 12:51:41.07	281.76	14.62	-53.0	-68.0	3.8	1.49e+00	0	44	104	0	76	21602
2026-01-26 12:51:42.08	281.97	14.63	-53.0	-68.0	3.8	1.49e+00	0	44	104	0	76	21545
2026-01-26 12:51:43.08	282.18	14.64	-53.0	-68.0	3.8	1.49e+00	0	44	104	0	76	21525
2026-01-26 12:51:44.09	282.39	14.65	-53.0	-68.0	3.8	1.49e+00	0	44	104	0	76	21530
2026-01-26 12:51:45.09	282.60	14.66	-53.0	-67.9	3.8	1.49e+00	0	44	104	0	76	21432
2026-01-26 12:51:46.09	282.81	14.67	-53.0	-67.9	3.8	1.49e+00	0	44	104	0	76	21463
2026-01-26 12:51:47.10	283.02	14.67	-53.0	-67.9	3.8	1.49e+00	0	44	104	0	76	21505
2026-01-26 12:51:48.11	283.23	14.68	-53.0	-68.0	3.8	1.49e+00	0	43	104	0	76	21562
2026-01-26 12:51:49.12	283.44	14.69	-53.0	-68.0	3.8	1.49e+00	0	44	104	0	76	21573
2026-01-26 12:51:50.13	283.65	14.70	-53.0	-68.0	3.8	1.49e+00	0	43	104	0	76	21599
2026-01-26 12:51:51.14	283.86	14.70	-53.0	-68.0	3.8	1.49e+00	0	44	104	0	76	21541
2026-01-26 12:51:52.15	284.08	14.71	-53.0	-68.0	3.8	1.49e+00	0	43	104	0	76	21583
2026-01-26 12:51:53.15	284.28	14.72	-53.0	-68.0	3.8	1.49e+00	0	44	104	0	76	21582
2026-01-26 12:51:54.16	284.50	14.72	-53.0	-68.0	3.8	1.49e+00	0	44	104	0	76	21559
2026-01-26 12:51:55.17	284.71	14.73	-53.0	-68.0	3.8	1.49e+00	0	43	104	0	76	21608
2026-01-26 12:51:56.18	284.92	14.73	-53.0	-68.0	3.8	1.49e+00	0	43	104	0	76	21572
2026-01-26 12:51:57.19	285.13	14.74	-53.0	-68.0	3.8	1.49e+00	0	43	104	0	76	21565
2026-01-26 12:51:58.19	285.34	14.74	-53.0	-68.0	3.8	1.49e+00	0	43	104	0	76	21507
2026-01-26 12:51:59.20	285.55	14.74	-53.0	-68.0	3.8	1.49e+00	0	44	104	0	76	21509
2026-01-26 12:52:00.21	285.77	14.75	-53.0	-67.9	3.8	1.49e+00	0	44	104	0	76	21473
2026-01-26 12:52:01.21	285.98	14.75	-53.0	-68.0	3.8	1.49e+00	0	44	104	0	76	21509
2026-01-26 12:52:02.22	286.19	14.75	-53.0	-68.0	3.8	1.49e+00	0	44	104	0	76	21530
2026-01-26 12:52:03.23	286.40	14.76	-53.0	-67.9	3.8	1.49e+00	0	43	104	0	76	21482
2026-01-26 12:52:04.24	286.61	14.76	-53.0	-68.0	3.8	1.49e+00	0	44	104	0	76	21550
2026-01-26 12:52:05.24	286.82	14.76	-53.0	-67.9	3.8	1.49e+00	0	43	104	0	76	21500
2026-01-26 12:52:06.25	287.04	14.76	-53.0	-68.0	3.8	1.49e+00	0	43	104	0	76	21529
2026-01-26 12:52:07.26	287.25	14.76	-53.0	-68.0	3.8	1.49e+00	0	44	104	0	76	21520
2026-01-26 12:52:08.27	287.46	14.76	-53.0	-68.0	3.8	1.49e+00	0	43	104	0	76	21535
2026-01-26 12:52:09.28	287.67	14.76	-53.0	-67.9	3.8	1.49e+00	0	44	104	0	76	21470
2026-01-26 12:52:10.28	287.88	14.76	-53.0	-67.9	3.8	1.49e+00	0	44	104	0	76	21475
2026-01-26 12:52:11.29	288.09	14.76	-53.0	-67.9	3.8	1.49e+00	0	44	104	0	76	21413
2026-01-26 12:52:12.30	288.31	14.76	-53.0	-67.9	3.8	1.49e+00	0	43	104	0	76	21266
2026-01-26 12:52:13.31	288.52	14.76	-53.0	-67.8	3.8	1.49e+00	0	43	104	0	76	21132
2026-01-26 12:52:14.31	288.73	14.76	-53.0	-67.7	3.8	1.49e+00	0	44	104	0	76	21005
2026-01-26 12:52:15.31	288.94	14.76	-53.0	-67.7	3.8	1.49e+00	0	43	104	0	76	20927
2026-01-26 12:52:16.32	289.15	14.75	-53.0	-67.7	3.8	1.49e+00	0	44	104	0	76	20953
2026-01-26 12:52:17.33	289.36	14.75	-53.0	-67.7	3.8	1.49e+00	0	44	104	0	76	20992
2026-01-26 12:52:18.34	289.58	14.75	-53.0	-67.8	3.8	1.49e+00	0	43	104	0	76	21041
2026-01-26 12:52:19.35	289.79	14.74	-53.0	-67.8	3.8	1.49e+00	0	43	104	0	76	21090
2026-01-26 12:52:20.36	290.00	14.74	-53.0	-67.8	3.8	1.49e+00	0	43	104	0	76	21259
2026-01-26 12:52:21.37	290.21	14.74	-53.0	-67.9	3.8	1.49e+00	0	44	104	0	76	21438
2026-01-26 12:52:22.37	290.42	14.73	-53.0	-68.0	3.8	1.49e+00	0	43	104	0	76	21528
2026-01-26 12:52:23.38	290.63	14.73	-53.0	-68.0	3.8	1.49e+00	0	44	104	0	76	21517
2026-01-26 12:52:24.38	290.84	14.72	-53.0	-68.0	3.8	1.49e+00	0	44	104	0	76	21567
2026-01-26 12:52:25.39	291.05	14.72	-53.0	-67.9	3.8	1.49e+00	0	43	104	0	76	21506
2026-01-26 12:52:26.40	291.27	14.71	-53.0	-68.0	3.8	1.49e+00	0	44	104	0	76	21544
2026-01-26 12:52:27.41	291.48	14.70	-53.0	-68.0	3.8	1.49e+00	0	44	104	0	76	21551
2026-01-26 12:52:28.41	291.69	14.70	-53.0	-68.0	3.8	1.49e+00	0	44	104	0	76	21553
2026-01-26 12:52:29.42	291.90	14.69	-53.0	-67.9	3.8	1.49e+00	0	44	104	0	76	21466
2026-01-26 12:52:30.43	292.11	14.68	-53.0	-67.9	3.8	1.49e+00	0	43	104	0	76	21454
2026-01-26 12:52:31.43	292.32	14.68	-53.0	-67.9	3.8	1.49e+00	0	44	104	0	76	21422
2026-01-26 12:52:32.44	292.53	14.67	-53.0	-67.9	3.8	1.49e+00	0	44	104	0	76	21427
2026-01-26 12:52:33.45	292.74	14.66	-53.0	-67.9	3.8	1.49e+00	0	44	104	0	76	21392
2026-01-26 12:52:34.46	292.95	14.65	-53.0	-67.9	3.8	1.49e+00	0	44	104	0	76	21435
2026-01-26 12:52:35.47	293.16	14.64	-53.0	-67.9	3.8	1.49e+00	0	43	104	0	76	21425
2026-01-26 12:52:36.48	293.37	14.63	-53.0	-68.0	3.8	1.49e+00	0	44	104	0	76	21528
2026-01-26 12:52:37.49	293.58	14.62	-53.0	-68.0	3.8	1.49e+00	0	44	104	0	76	21598
2026-01-26 12:52:38.49	293.79	14.61	-53.0	-68.0	3.8	1.49e+00	0	44	104	0	76	21601
2026-01-26 12:52:39.49	294.00	14.60	-53.0	-68.0	3.8	1.49e+00	0	44	104	0	76	21569
2026-01-26 12:52:40.50	294.21	14.59	-53.0	-68.0	3.8	1.49e+00	0	44	104	0	76	21562
2026-01-26 12:52:41.51	294.42	14.58	-53.0	-68.0	3.8	1.49e+00	0	44	104	0	76	21530
2026-01-26 12:52:42.51	294.62	14.57	-53.0	-68.0	3.8	1.49e+00	0	44	104	0	76	21522
2026-01-26 12:52:43.53	294.84	14.55	-53.0	-67.9	3.8	1.49e+00	0	44	104	0	76	21494
2026-01-26 12:52:44.53	295.04	14.54	-53.0	-68.0	3.8	1.49e+00	0	44	104	0	76	21516
2026-01-26 12:52:45.54	295.25	14.53	-53.0	-67.9	3.8	1.49e+00	0	44	104	0	76	21497
2026-01-26 12:52:46.54	295.46	14.52	-53.0	-67.9	3.8	1.49e+00	0	44	104	0	76	21465
2026-01-26 12:52:47.55	295.67	14.50	-53.0	-67.9	3.8	1.49e+00	0	44	104	0	76	21496
2026-01-26 12:52:48.56	295.88	14.49	-53.0	-68.0	3.8	1.49e+00	0	44	104	0	76	21513
2026-01-26 12:52:49.57	296.08	14.48	-53.0	-68.0	3.8	1.49e+00	0	44	104	0	76	21517
2026-01-26 12:52:50.57	296.29	14.46	-53.0	-68.0	3.8	1.49e+00	0	44	104	0	76	21546
2026-01-26 12:52:51.58	296.50	14.45	-53.0	-67.9	3.8	1.49e+00	0	44	104	0	76	21497
2026-01-26 12:52:52.59	296.71	14.43	-53.0	-67.9	3.8	1.49e+00	0	44	104	0	76	21477
2026-01-26 12:52:53.59	296.91	14.42	-53.0	-67.9	3.8	1.49e+00	0	44	104	0	76	21494
2026-01-26 12:52:54.60	297.12	14.40	-53.0	-67.9	3.8	1.49e+00	0	44	104	0	76	21506
2026-01-26 12:52:55.60	297.32	14.39	-53.0	-68.0	3.8	1.49e+00	0	44	104	0	76	21547
2026-01-26 12:52:56.61	297.53	14.37	-53.0	-67.9	3.8	1.49e+00	0	44	104	0	76	21490
2026-01-26 12:52:57.62	297.74	14.35	-53.0	-68.0	3.8	1.49e+00	0	44	104	0	76	21556
2026-01-26 12:52:58.62	297.94	14.34	-53.0	-68.0	3.8	1.49e+00	0	44	104	0	76	21563
2026-01-26 12:52:59.63	298.15	14.32	-53.0	-68.0	3.8	1.49e+00	0	44	104	0	76	21526
2026-01-26 12:53:00.64	298.35	14.30	-53.0	-68.0	3.8	1.49e+00	0	43	104	0	76	21509
2026-01-26 12:53:01.65	298.56	14.28	-53.0	-68.0	3.8	1.49e+00	0	44	104	0	76	21553
2026-01-26 12:53:02.65	298.76	14.26	-53.0	-68.0	3.8	1.49e+00	0	44	104	0	76	21528
2026-01-26 12:53:03.66	298.97	14.25	-53.0	-68.0	3.8	1.49e+00	0	44	104	0	76	21535
2026-01-26 12:53:04.67	299.17	14.23	-53.0	-67.9	3.8	1.49e+00	0	44	104	0	76	21488
2026-01-26 12:53:05.67	299.38	14.21	-53.0	-68.0	3.8	1.49e+00	0	44	104	0	76	21532
2026-01-26 12:53:06.69	299.58	14.19	-53.0	-67.9	3.8	1.49e+00	0	44	104	0	76	21494
2026-01-26 12:53:07.70	299.79	14.17	-53.0	-67.9	3.8	1.49e+00	0	43	104	0	76	21428
2026-01-26 12:53:08.70	299.99	14.15	-53.0	-67.9	3.8	1.49e+00	0	44	104	0	76	21480
2026-01-26 12:53:09.71	300.19	14.13	-53.0	-67.9	3.8	1.49e+00	0	44	104	0	76	21419
2026-01-26 12:53:10.72	300.39	14.11	-53.0	-67.9	3.8	1.49e+00	0	44	104	0	76	21451
2026-01-26 12:53:11.73	300.60	14.09	-53.0	-67.9	3.8	1.49e+00	0	44	104	0	76	21424
2026-01-26 12:53:12.73	300.80	14.06	-53.0	-67.9	3.8	1.49e+00	0	44	104	0	76	21489
2026-01-26 12:53:13.74	301.00	14.04	-53.0	-67.9	3.8	1.49e+00	0	44	104	0	76	21501
2026-01-26 12:53:14.75	301.20	14.02	-53.0	-68.0	3.8	1.49e+00	0	44	104	0	76	21555
2026-01-26 12:53:15.75	301.40	14.00	-53.0	-67.9	3.8	1.49e+00	0	44	104	0	76	21503
2026-01-26 12:53:16.76	301.60	13.97	-53.0	-68.0	3.8	1.49e+00	0	43	104	0	76	21540
2026-01-26 12:53:17.77	301.81	13.95	-53.0	-68.0	3.8	1.49e+00	0	44	104	0	76	21535
2026-01-26 12:53:18.78	302.01	13.93	-53.0	-67.9	3.8	1.49e+00	0	44	104	0	76	21484
2026-01-26 12:53:19.79	302.21	13.90	-53.0	-67.9	3.8	1.49e+00	0	44	104	0	76	21495
2026-01-26 12:53:20.80	302.41	13.88	-53.0	-67.9	3.8	1.49e+00	0	44	104	0	76	21503
2026-01-26 12:53:21.80	302.61	13.86	-53.0	-67.9	3.8	1.49e+00	0	44	104	0	76	21412
2026-01-26 12:53:22.81	302.80	13.83	-53.0	-67.9	3.8	1.49e+00	0	44	104	0	76	21463
2026-01-26 12:53:23.82	303.00	13.81	-53.0	-67.9	3.8	1.49e+00	0	44	104	0	76	21487
2026-01-26 12:53:24.83	303.20	13.78	-53.0	-67.9	3.8	1.49e+00	0	43	104	0	76	21468
2026-01-26 12:53:25.83	303.40	13.76	-53.0	-68.0	3.8	1.49e+00	0	44	104	0	76	21569
2026-01-26 12:53:26.84	303.60	13.73	-53.0	-67.9	3.8	1.49e+00	0	43	104	0	76	21471
2026-01-26 12:53:27.84	303.79	13.71	-53.0	-67.9	3.8	1.49e+00	0	44	104	0	76	21484
2026-01-26 12:53:28.85	303.99	13.68	-53.0	-67.9	3.8	1.49e+00	0	44	104	0	76	21487
2026-01-26 12:53:29.85	304.19	13.65	-53.0	-67.9	3.8	1.49e+00	0	44	104	0	76	21425
2026-01-26 12:53:30.86	304.38	13.63	-53.0	-67.9	3.8	1.49e+00	0	44	104	0	76	21349
2026-01-26 12:53:31.87	304.58	13.60	-53.0	-67.9	3.8	1.49e+00	0	44	104	0	76	21310
2026-01-26 12:53:32.88	304.78	13.57	-53.0	-67.8	3.8	1.49e+00	0	43	104	0	76	21212
2026-01-26 12:53:33.89	304.97	13.54	-53.0	-67.8	3.8	1.49e+00	0	44	104	0	76	21101
2026-01-26 12:53:34.89	305.17	13.52	-53.0	-67.7	3.8	1.49e+00	0	44	104	0	76	20984
2026-01-26 12:53:35.90	305.36	13.49	-53.0	-67.7	3.8	1.49e+00	0	44	104	0	76	20952
2026-01-26 12:53:36.90	305.55	13.46	-53.0	-67.7	3.8	1.49e+00	0	44	104	0	76	20904
2026-01-26 12:53:37.91	305.75	13.43	-53.0	-67.6	3.8	1.49e+00	0	44	104	0	76	20768
2026-01-26 12:53:38.92	305.94	13.40	-53.0	-67.7	3.8	1.49e+00	0	43	104	0	76	20869
2026-01-26 12:53:39.93	306.14	13.37	-53.0	-67.7	3.8	1.49e+00	0	44	104	0	76	20991
2026-01-26 12:53:40.94	306.33	13.34	-53.0	-67.8	3.8	1.49e+00	0	44	104	0	76	21137
2026-01-26 12:53:41.95	306.52	13.31	-53.0	-67.8	3.8	1.49e+00	0	44	104	0	76	21260
2026-01-26 12:53:42.96	306.72	13.28	-53.0	-67.9	3.8	1.49e+00	0	44	104	0	76	21323
2026-01-26 12:53:43.97	306.91	13.25	-53.0	-67.9	3.8	1.49e+00	0	44	104	0	76	21339
2026-01-26 12:53:44.97	307.10	13.22	-53.0	-67.9	3.8	1.49e+00	0	43	104	0	76	21352
2026-01-26 12:53:45.98	307.29	13.19	-53.0	-67.9	3.8	1.49e+00	0	44	104	0	76	21373
2026-01-26 12:53:46.99	307.48	13.16	-53.0	-67.9	3.8	1.49e+00	0	44	104	0	76	21403
2026-01-26 12:53:47.99	307.67	13.13	-53.0	-67.9	3.8	1.49e+00	0	43	104	0	76	21420
2026-01-26 12:53:49.00	307.86	13.10	-53.0	-68.0	3.8	1.49e+00	0	44	104	0	76	21507
2026-01-26 12:53:50.01	308.05	13.07	-53.0	-68.0	3.8	1.49e+00	0	44	104	0	76	21510
2026-01-26 12:53:51.02	308.24	13.04	-53.0	-68.0	3.8	1.49e+00	0	44	104	0	76	21512
2026-01-26 12:53:52.03	308.43	13.00	-53.0	-67.9	3.8	1.49e+00	0	43	104	0	76	21470
2026-01-26 12:53:53.03	308.61	12.97	-53.0	-67.9	3.8	1.49e+00	0	44	104	0	76	21455
2026-01-26 12:53:54.04	308.80	12.94	-53.0	-67.9	3.8	1.49e+00	0	44	104	0	76	21394
2026-01-26 12:53:55.04	308.99	12.91	-53.0	-67.9	3.8	1.49e+00	0	44	104	0	76	21397
2026-01-26 12:53:56.05	309.18	12.87	-53.0	-67.9	3.8	1.49e+00	0	44	104	0	76	21455
2026-01-26 12:53:57.06	309.36	12.84	-53.0	-67.9	3.8	1.49e+00	0	44	104	0	76	21419
2026-01-26 12:53:58.07	309.55	12.81	-53.0	-67.9	3.8	1.49e+00	0	43	104	0	76	21415
2026-01-26 12:53:59.08	309.74	12.77	-53.0	-67.9	3.8	1.49e+00	0	44	104	0	76	21373
2026-01-26 12:54:00.08	309.92	12.74	-53.0	-67.9	3.8	1.49e+00	0	44	104	0	76	21380
2026-01-26 12:54:01.09	310.11	12.70	-53.0	-67.9	3.8	1.49e+00	0	44	104	0	76	21432
2026-01-26 12:54:02.09	310.29	12.67	-53.0	-67.9	3.8	1.49e+00	0	44	104	0	76	21440
2026-01-26 12:54:03.10	310.47	12.64	-53.0	-67.9	3.8	1.49e+00	0	43	104	0	76	21423
2026-01-26 12:54:04.10	310.66	12.60	-53.0	-67.9	3.8	1.49e+00	0	44	104	0	76	21455
2026-01-26 12:54:05.11	310.84	12.57	-53.0	-67.9	3.8	1.49e+00	0	44	104	0	76	21471
2026-01-26 12:54:06.12	311.02	12.53	-53.0	-67.9	3.8	1.49e+00	0	44	104	0	76	21477
2026-01-26 12:54:07.13	311.20	12.50	-53.0	-68.0	3.8	1.49e+00	0	44	104	0	76	21508
2026-01-26 12:54:08.13	311.39	12.46	-53.0	-67.9	3.8	1.49e+00	0	44	104	0	76	21480
2026-01-26 12:54:09.14	311.57	12.42	-53.0	-67.9	3.8	1.49e+00	0	44	104	0	76	21503
2026-01-26 12:54:10.14	311.75	12.39	-53.0	-68.0	3.8	1.49e+00	0	43	104	0	76	21540
2026-01-26 12:54:11.15	311.93	12.35	-53.0	-68.0	3.8	1.49e+00	0	44	104	0	76	21540
2026-01-26 12:54:12.16	312.11	12.32	-53.0	-67.9	3.8	1.49e+00	0	44	104	0	76	21485
2026-01-26 12:54:13.17	312.29	12.28	-53.0	-67.9	3.8	1.49e+00	0	44	104	0	76	21459
2026-01-26 12:54:14.18	312.47	12.24	-53.0	-68.0	3.8	1.49e+00	0	44	104	0	76	21518
2026-01-26 12:54:15.19	312.65	12.20	-53.0	-68.0	3.8	1.49e+00	0	44	104	0	76	21530
2026-01-26 12:54:16.20	312.83	12.17	-53.0	-67.9	3.8	1.49e+00	0	44	104	0	76	21495
2026-01-26 12:54:17.21	313.01	12.13	-53.0	-67.9	3.8	1.49e+00	0	44	104	0	76	21481
2026-01-26 12:54:18.21	313.18	12.09	-53.0	-67.9	3.8	1.49e+00	0	44	104	0	76	21431
2026-01-26 12:54:19.22	313.36	12.05	-53.0	-67.9	3.8	1.49e+00	0	44	104	0	76	21443
2026-01-26 12:54:20.23	313.54	12.02	-53.0	-67.9	3.8	1.49e+00	0	44	104	0	76	21419
2026-01-26 12:54:21.24	313.71	11.98	-53.0	-67.9	3.8	1.49e+00	0	43	104	0	76	21452
2026-01-26 12:54:22.24	313.89	11.94	-53.0	-67.9	3.8	1.49e+00	0	44	104	0	76	21464
2026-01-26 12:54:23.25	314.06	11.90	-53.0	-67.9	3.8	1.49e+00	0	44	104	0	76	21484
2026-01-26 12:54:24.26	314.24	11.86	-53.0	-67.9	3.8	1.49e+00	0	43	104	0	76	21457
2026-01-26 12:54:25.27	314.41	11.82	-53.0	-67.9	3.8	1.49e+00	0	44	104	0	76	21431
2026-01-26 12:54:26.27	314.59	11.78	-53.0	-67.9	3.8	1.49e+00	0	44	104	0	76	21474
2026-01-26 12:54:27.28	314.76	11.74	-53.0	-68.0	3.8	1.49e+00	0	43	104	0	76	21512
2026-01-26 12:54:28.29	314.93	11.71	-53.0	-67.9	3.8	1.49e+00	0	44	104	0	76	21482
2026-01-26 12:54:29.29	315.10	11.67	-53.0	-68.0	3.8	1.49e+00	0	44	104	0	76	21523
2026-01-26 12:54:30.30	315.28	11.63	-53.0	-68.0	3.8	1.49e+00	0	44	104	0	76	21549
2026-01-26 12:54:31.31	315.45	11.59	-53.0	-67.9	3.8	1.49e+00	0	44	104	0	76	21484
2026-01-26 12:54:32.31	315.62	11.55	-53.0	-68.0	3.8	1.49e+00	0	44	104	0	76	21517
2026-01-26 12:54:33.32	315.79	11.51	-53.0	-68.0	3.8	1.49e+00	0	44	104	0	76	21533
2026-01-26 12:54:34.33	315.96	11.47	-53.0	-68.0	3.8	1.49e+00	0	44	104	0	76	21542
2026-01-26 12:54:35.33	316.13	11.43	-53.0	-67.9	3.8	1.49e+00	0	44	104	0	76	21455
2026-01-26 12:54:36.34	316.30	11.38	-53.0	-67.9	3.8	1.49e+00	0	44	104	0	76	21486
2026-01-26 12:54:37.35	316.47	11.34	-53.0	-67.9	3.8	1.49e+00	0	44	104	0	76	21480
2026-01-26 12:54:38.35	316.64	11.30	-53.0	-67.9	3.8	1.49e+00	0	43	104	0	76	21438
2026-01-26 12:54:39.36	316.81	11.26	-53.0	-67.9	3.8	1.49e+00	0	44	104	0	76	21469
2026-01-26 12:54:40.36	316.97	11.22	-53.0	-67.9	3.8	1.49e+00	0	44	104	0	76	21399
2026-01-26 12:54:41.37	317.14	11.18	-53.0	-67.9	3.8	1.49e+00	0	44	104	0	76	21407
2026-01-26 12:54:42.37	317.30	11.14	-53.0	-67.9	3.8	1.49e+00	0	44	104	0	76	21389
2026-01-26 12:54:43.38	317.47	11.10	-53.0	-67.9	3.8	1.49e+00	0	44	104	0	76	21457
2026-01-26 12:54:44.38	317.64	11.05	-53.0	-67.9	3.8	1.49e+00	0	44	104	0	76	21424
2026-01-26 12:54:45.39	317.80	11.01	-53.0	-67.9	3.8	1.49e+00	0	44	104	0	76	21500
2026-01-26 12:54:46.39	317.97	10.97	-53.0	-67.9	3.8	1.49e+00	0	44	104	0	76	21461
2026-01-26 12:54:47.40	318.13	10.93	-53.0	-67.9	3.8	1.49e+00	0	44	104	0	76	21476
2026-01-26 12:54:48.41	318.29	10.89	-53.0	-67.9	3.8	1.49e+00	0	44	104	0	76	21505
2026-01-26 12:54:49.43	318.46	10.84	-53.0	-67.9	3.8	1.49e+00	0	44	104	0	76	21492
2026-01-26 12:54:50.43	318.62	10.80	-53.0	-68.0	3.8	1.49e+00	0	44	104	0	76	21556
2026-01-26 12:54:51.44	318.78	10.76	-53.0	-68.0	3.8	1.49e+00	0	44	104	0	76	21541
2026-01-26 12:54:52.45	318.95	10.71	-53.0	-67.9	3.8	1.49e+00	0	44	104	0	76	21504
2026-01-26 12:54:53.46	319.11	10.67	-53.0	-68.0	3.8	1.49e+00	0	44	104	0	76	21536
2026-01-26 12:54:54.46	319.27	10.63	-53.0	-67.9	3.8	1.49e+00	0	44	104	0	76	21427
2026-01-26 12:54:55.47	319.43	10.58	-53.0	-67.9	3.8	1.49e+00	0	43	104	0	76	21450
2026-01-26 12:54:56.48	319.59	10.54	-53.0	-67.9	3.8	1.49e+00	0	44	104	0	76	21405
2026-01-26 12:54:57.48	319.75	10.50	-53.0	-67.9	3.8	1.49e+00	0	44	104	0	76	21444
2026-01-26 12:54:58.49	319.91	10.45	-53.0	-67.9	3.8	1.49e+00	0	44	104	0	76	21398
2026-01-26 12:54:59.50	320.07	10.41	-53.0	-67.9	3.8	1.49e+00	0	44	104	0	76	21470
2026-01-26 12:55:00.50	320.23	10.37	-53.0	-67.9	3.8	1.49e+00	0	44	104	0	76	21354
2026-01-26 12:55:01.51	320.38	10.32	-53.0	-67.9	3.8	1.49e+00	0	44	104	0	76	21362
2026-01-26 12:55:02.52	320.54	10.28	-53.0	-67.9	3.8	1.49e+00	0	44	104	0	76	21396
2026-01-26 12:55:03.53	320.70	10.23	-53.0	-67.9	3.8	1.49e+00	0	44	104	0	76	21408
2026-01-26 12:55:04.53	320.85	10.19	-53.0	-67.9	3.8	1.49e+00	0	44	104	0	76	21396
2026-01-26 12:55:05.54	321.01	10.15	-53.0	-67.9	3.8	1.49e+00	0	43	104	0	76	21488
2026-01-26 12:55:06.55	321.17	10.10	-53.0	-67.9	3.8	1.49e+00	0	44	104	0	76	21466
2026-01-26 12:55:07.56	321.32	10.06	-53.0	-67.9	3.8	1.49e+00	0	44	104	0	76	21451
2026-01-26 12:55:08.56	321.48	10.01	-53.0	-67.9	3.8	1.49e+00	0	44	104	0	76	21466
2026-01-26 12:55:09.57	321.63	9.97	-53.0	-68.0	3.8	1.49e+00	0	44	104	0	76	21516
2026-01-26 12:55:10.58	321.79	9.92	-53.0	-67.9	3.8	1.49e+00	0	44	104	0	76	21503
2026-01-26 12:55:11.59	321.94	9.88	-53.0	-68.0	3.8	1.49e+00	0	44	104	0	76	21534
2026-01-26 12:55:12.59	322.09	9.83	-53.0	-67.9	3.8	1.49e+00	0	44	104	0	76	21449
2026-01-26 12:55:13.60	322.24	9.79	-53.0	-67.9	3.8	1.49e+00	0	44	104	0	76	21475
2026-01-26 12:55:14.60	322.39	9.74	-53.0	-67.9	3.8	1.49e+00	0	44	104	0	76	21408
2026-01-26 12:55:15.61	322.55	9.70	-53.0	-67.9	3.8	1.49e+00	0	44	104	0	76	21383
2026-01-26 12:55:16.62	322.70	9.65	-53.0	-67.9	3.8	1.49e+00	0	43	104	0	76	21359
2026-01-26 12:55:17.63	322.85	9.61	-53.0	-67.9	3.8	1.49e+00	0	44	104	0	76	21377
2026-01-26 12:55:18.64	323.00	9.56	-53.0	-67.9	3.8	1.49e+00	0	44	104	0	76	21328
2026-01-26 12:55:19.65	323.15	9.51	-53.0	-67.9	3.8	1.49e+00	0	44	104	0	76	21335
2026-01-26 12:55:20.65	323.30	9.47	-53.0	-67.8	3.8	1.49e+00	0	44	104	0	76	21255
2026-01-26 12:55:21.66	323.45	9.42	-53.0	-67.9	3.8	1.49e+00	0	44	104	0	76	21273
2026-01-26 12:55:22.66	323.59	9.38	-53.0	-67.9	3.8	1.49e+00	0	44	104	0	76	21284
2026-01-26 12:55:23.67	323.74	9.33	-53.0	-67.9	3.8	1.49e+00	0	44	104	0	76	21313
2026-01-26 12:55:24.67	323.89	9.28	-53.0	-67.8	3.8	1.49e+00	0	44	104	0	76	21208
2026-01-26 12:55:25.68	324.04	9.24	-53.0	-67.8	3.8	1.49e+00	0	44	104	0	76	21260
2026-01-26 12:55:26.68	324.18	9.19	-53.0	-67.8	3.8	1.49e+00	0	44	104	0	76	21260
2026-01-26 12:55:27.69	324.33	9.15	-53.0	-67.9	3.8	1.49e+00	0	44	104	0	76	21296
2026-01-26 12:55:28.69	324.47	9.10	-53.0	-67.8	3.8	1.49e+00	0	44	104	0	76	21197
2026-01-26 12:55:29.70	324.62	9.05	-53.0	-67.9	3.8	1.49e+00	0	43	104	0	76	21315
2026-01-26 12:55:30.71	324.76	9.01	-53.0	-67.9	3.8	1.49e+00	0	44	104	0	76	21377
2026-01-26 12:55:31.72	324.91	8.96	-53.0	-67.9	3.8	1.49e+00	0	44	104	0	76	21413
2026-01-26 12:55:32.72	325.05	8.91	-53.0	-67.9	3.8	1.49e+00	0	43	104	0	76	21413
2026-01-26 12:55:33.73	325.19	8.87	-52.9	-67.9	3.8	1.49e+00	0	44	104	0	76	21391
2026-01-26 12:55:34.74	325.34	8.82	-53.0	-67.9	3.8	1.49e+00	0	43	104	0	76	21445
2026-01-26 12:55:35.75	325.48	8.77	-53.0	-67.9	3.8	1.49e+00	0	44	104	0	76	21448
2026-01-26 12:55:36.76	325.62	8.73	-53.0	-67.9	3.8	1.49e+00	0	44	104	0	76	21478
2026-01-26 12:55:37.77	325.77	8.68	-53.0	-68.0	3.8	1.49e+00	0	43	104	0	76	21511
2026-01-26 12:55:38.77	325.91	8.63	-53.0	-67.9	3.8	1.49e+00	0	44	104	0	76	21440
2026-01-26 12:55:39.78	326.05	8.58	-53.0	-67.9	3.8	1.49e+00	0	43	104	0	76	21481
2026-01-26 12:55:40.78	326.19	8.54	-53.0	-67.9	3.8	1.49e+00	0	43	104	0	76	21483
2026-01-26 12:55:41.79	326.33	8.49	-53.0	-67.9	3.8	1.49e+00	0	43	104	0	76	21473
2026-01-26 12:55:42.80	326.47	8.44	-53.0	-67.9	3.8	1.49e+00	0	43	104	0	76	21467
2026-01-26 12:55:43.80	326.60	8.40	-53.0	-68.0	3.8	1.49e+00	0	44	104	0	76	21522
2026-01-26 12:55:44.81	326.74	8.35	-53.0	-67.9	3.8	1.49e+00	0	44	104	0	76	21504
2026-01-26 12:55:45.82	326.88	8.30	-53.0	-68.0	3.8	1.49e+00	0	44	104	0	76	21513
2026-01-26 12:55:46.82	327.02	8.25	-53.0	-67.9	3.8	1.49e+00	0	44	104	0	76	21472
2026-01-26 12:55:47.83	327.16	8.21	-53.0	-67.9	3.8	1.49e+00	0	43	104	0	76	21483
2026-01-26 12:55:48.84	327.29	8.16	-53.0	-68.0	3.8	1.49e+00	0	44	104	0	76	21541
2026-01-26 12:55:49.85	327.43	8.11	-53.0	-68.0	3.8	1.49e+00	0	43	104	0	76	21546
2026-01-26 12:55:50.85	327.56	8.06	-53.0	-67.9	3.8	1.49e+00	0	43	104	0	76	21457
2026-01-26 12:55:51.85	327.70	8.02	-53.0	-67.9	3.8	1.49e+00	0	44	104	0	76	21428
2026-01-26 12:55:52.86	327.84	7.97	-53.0	-67.9	3.8	1.49e+00	0	43	104	0	76	21483
2026-01-26 12:55:53.87	327.97	7.92	-53.0	-67.9	3.8	1.49e+00	0	43	104	0	76	21505
2026-01-26 12:55:54.88	328.10	7.87	-53.0	-67.9	3.8	1.49e+00	0	43	104	0	76	21485
2026-01-26 12:55:55.89	328.24	7.82	-53.0	-67.9	3.8	1.49e+00	0	44	104	0	76	21478
2026-01-26 12:55:56.89	328.37	7.78	-53.0	-67.9	3.8	1.49e+00	0	43	104	0	76	21460
2026-01-26 12:55:57.90	328.50	7.73	-53.0	-67.9	3.8	1.49e+00	0	44	104	0	76	21467
2026-01-26 12:55:58.91	328.64	7.68	-53.0	-67.9	3.8	1.49e+00	0	43	104	0	76	21452
2026-01-26 12:55:59.91	328.77	7.63	-53.0	-67.9	3.8	1.49e+00	0	44	104	0	76	21449
2026-01-26 12:56:00.92	328.90	7.58	-53.0	-68.0	3.8	1.49e+00	0	43	104	0	76	21527
2026-01-26 12:56:01.93	329.03	7.54	-53.0	-67.9	3.8	1.49e+00	0	44	104	0	76	21465
2026-01-26 12:56:02.94	329.16	7.49	-53.0	-67.9	3.8	1.49e+00	0	44	104	0	76	21506
2026-01-26 12:56:03.95	329.30	7.44	-53.0	-67.9	3.8	1.49e+00	0	44	104	0	76	21472
2026-01-26 12:56:04.96	329.43	7.39	-53.0	-67.9	3.8	1.49e+00	0	44	104	0	76	21478
2026-01-26 12:56:05.96	329.55	7.34	-53.0	-67.9	3.8	1.49e+00	0	44	104	0	76	21447
2026-01-26 12:56:06.96	329.68	7.30	-53.0	-67.9	3.8	1.49e+00	0	44	104	0	76	21478
2026-01-26 12:56:07.97	329.81	7.25	-53.0	-67.9	3.8	1.49e+00	0	44	104	0	76	21473
2026-01-26 12:56:08.98	329.94	7.20	-53.0	-68.0	3.8	1.49e+00	0	44	104	0	76	21507
2026-01-26 12:56:09.99	330.07	7.15	-53.0	-67.9	3.8	1.49e+00	0	44	104	0	76	21474
2026-01-26 12:56:11.00	330.20	7.10	-53.0	-67.9	3.8	1.49e+00	0	44	104	0	76	21453
2026-01-26 12:56:12.01	330.32	7.05	-53.0	-68.0	3.8	1.49e+00	0	44	104	0	76	21510
2026-01-26 12:56:13.01	330.45	7.00	-53.0	-68.0	3.8	1.49e+00	0	44	104	0	76	21527
2026-01-26 12:56:14.02	330.58	6.96	-53.0	-68.0	3.8	1.49e+00	0	44	104	0	76	21526
2026-01-26 12:56:15.03	330.70	6.91	-53.0	-67.9	3.8	1.49e+00	0	44	104	0	76	21503
2026-01-26 12:56:16.04	330.83	6.86	-53.0	-67.9	3.8	1.49e+00	0	43	104	0	76	21480
2026-01-26 12:56:17.04	330.95	6.81	-53.0	-67.9	3.8	1.49e+00	0	44	104	0	76	21491
2026-01-26 12:56:18.05	331.08	6.76	-53.0	-68.0	3.8	1.49e+00	0	44	104	0	76	21529
2026-01-26 12:56:19.05	331.20	6.71	-53.0	-67.9	3.8	1.49e+00	0	43	104	0	76	21479
2026-01-26 12:56:20.06	331.33	6.67	-53.0	-67.9	3.8	1.49e+00	0	44	104	0	76	21494
2026-01-26 12:56:21.07	331.45	6.62	-53.0	-68.0	3.8	1.49e+00	0	44	104	0	76	21530
2026-01-26 12:56:22.08	331.57	6.57	-53.0	-68.0	3.8	1.49e+00	0	44	104	0	76	21553
2026-01-26 12:56:23.08	331.70	6.52	-53.0	-68.0	3.8	1.49e+00	0	44	104	0	76	21545
2026-01-26 12:56:24.09	331.82	6.47	-53.0	-67.9	3.8	1.49e+00	0	44	104	0	76	21479
2026-01-26 12:56:25.10	331.94	6.42	-53.0	-68.0	3.8	1.49e+00	0	44	104	0	76	21548
2026-01-26 12:56:26.11	332.06	6.37	-53.0	-67.9	3.8	1.49e+00	0	44	104	0	76	21506
2026-01-26 12:56:27.11	332.18	6.32	-53.0	-68.0	3.8	1.49e+00	0	44	104	0	76	21508
2026-01-26 12:56:28.12	332.31	6.28	-53.0	-67.9	3.8	1.49e+00	0	44	104	0	76	21451
2026-01-26 12:56:29.13	332.43	6.23	-53.0	-68.0	3.8	1.49e+00	0	44	104	0	76	21525
2026-01-26 12:56:30.14	332.55	6.18	-53.0	-68.0	3.8	1.49e+00	0	44	104	0	76	21549
2026-01-26 12:56:31.15	332.67	6.13	-53.0	-68.0	3.8	1.49e+00	0	44	104	0	76	21553
2026-01-26 12:56:32.16	332.79	6.08	-53.0	-67.9	3.8	1.49e+00	0	44	104	0	76	21471
2026-01-26 12:56:33.17	332.91	6.03	-53.0	-67.9	3.8	1.49e+00	0	43	104	0	76	21497
2026-01-26 12:56:34.17	333.02	5.98	-52.9	-68.0	3.8	1.49e+00	0	44	104	0	76	21569
2026-01-26 12:56:35.18	333.14	5.93	-53.0	-67.9	3.8	1.49e+00	0	44	104	0	76	21495
2026-01-26 12:56:36.19	333.26	5.89	-53.0	-68.0	3.8	1.49e+00	0	44	104	0	76	21508
2026-01-26 12:56:37.20	333.38	5.84	-53.0	-67.9	3.8	1.49e+00	0	44	104	0	76	21484
2026-01-26 12:56:38.20	333.49	5.79	-53.0	-68.0	3.8	1.49e+00	0	44	104	0	76	21535
2026-01-26 12:56:39.21	333.61	5.74	-53.0	-67.9	3.8	1.49e+00	0	43	104	0	76	21474
2026-01-26 12:56:40.22	333.73	5.69	-53.0	-67.9	3.8	1.49e+00	0	44	104	0	76	21500
2026-01-26 12:56:41.23	333.84	5.64	-53.0	-68.0	3.8	1.49e+00	0	43	104	0	76	21515
2026-01-26 12:56:42.23	333.96	5.59	-53.0	-68.0	3.8	1.49e+00	0	44	104	0	76	21568
2026-01-26 12:56:43.25	334.08	5.54	-53.0	-67.9	3.8	1.49e+00	0	43	104	0	76	21462
2026-01-26 12:56:44.25	334.19	5.49	-53.0	-67.9	3.8	1.49e+00	0	44	104	0	76	21443
2026-01-26 12:56:45.26	334.30	5.45	-53.0	-67.9	3.8	1.49e+00	0	44	104	0	76	21450
2026-01-26 12:56:46.26	334.42	5.40	-53.0	-68.0	3.8	1.49e+00	0	44	104	0	76	21543
2026-01-26 12:56:47.27	334.53	5.35	-53.0	-67.9	3.8	1.49e+00	0	44	104	0	76	21455
2026-01-26 12:56:48.28	334.64	5.30	-53.0	-67.9	3.8	1.49e+00	0	44	104	0	76	21464
2026-01-26 12:56:49.28	334.76	5.25	-53.0	-67.9	3.8	1.49e+00	0	43	104	0	76	21485
2026-01-26 12:56:50.29	334.87	5.20	-53.0	-67.9	3.8	1.49e+00	0	44	104	0	76	21461
2026-01-26 12:56:51.29	334.98	5.15	-53.0	-67.9	3.8	1.49e+00	0	44	104	0	76	21456
2026-01-26 12:56:52.30	335.09	5.10	-53.0	-67.9	3.8	1.49e+00	0	44	104	0	76	21420
2026-01-26 12:56:53.31	335.21	5.06	-53.0	-67.9	3.8	1.49e+00	0	44	104	0	76	21487
2026-01-26 12:56:54.32	335.32	5.01	-53.0	-67.9	3.8	1.49e+00	0	44	104	0	76	21487
2026-01-26 12:56:55.33	335.43	4.96	-53.0	-68.0	3.8	1.49e+00	0	44	104	0	76	21519
2026-01-26 12:56:56.33	335.54	4.91	-53.0	-68.0	3.8	1.49e+00	0	44	104	0	76	21515
2026-01-26 12:56:57.34	335.65	4.86	-53.0	-67.9	3.8	1.49e+00	0	44	104	0	76	21477
2026-01-26 12:56:58.35	335.76	4.81	-53.0	-67.9	3.8	1.49e+00	0	43	104	0	76	21436
2026-01-26 12:56:59.35	335.87	4.76	-53.0	-67.9	3.8	1.49e+00	0	44	104	0	76	21401
2026-01-26 12:57:00.36	335.98	4.71	-53.0	-68.0	3.8	1.49e+00	0	44	104	0	76	21543
2026-01-26 12:57:01.37	336.09	4.67	-53.0	-67.9	3.8	1.49e+00	0	44	104	0	76	21499
2026-01-26 12:57:02.37	336.19	4.62	-53.0	-68.0	3.8	1.49e+00	0	43	104	0	76	21513
2026-01-26 12:57:03.38	336.30	4.57	-53.0	-67.9	3.8	1.49e+00	0	43	104	0	76	21475
2026-01-26 12:57:04.39	336.41	4.52	-53.0	-67.9	3.8	1.49e+00	0	44	104	0	76	21497
2026-01-26 12:57:05.40	336.52	4.47	-53.0	-68.0	3.8	1.49e+00	0	44	104	0	76	21570
2026-01-26 12:57:06.41	336.63	4.42	-53.0	-67.9	3.8	1.49e+00	0	44	104	0	76	21494
2026-01-26 12:57:07.42	336.73	4.37	-53.0	-67.9	3.8	1.49e+00	0	43	104	0	76	21456
2026-01-26 12:57:08.43	336.84	4.32	-53.0	-67.9	3.8	1.49e+00	0	44	104	0	76	21494
2026-01-26 12:57:09.43	336.94	4.28	-53.0	-67.9	3.8	1.49e+00	0	43	104	0	76	21489
2026-01-26 12:57:10.44	337.05	4.23	-53.0	-68.0	3.8	1.49e+00	0	44	104	0	76	21529
2026-01-26 12:57:11.45	337.16	4.18	-53.0	-68.0	3.8	1.49e+00	0	44	104	0	76	21518
2026-01-26 12:57:12.45	337.26	4.13	-53.0	-67.9	3.8	1.49e+00	0	44	104	0	76	21488
2026-01-26 12:57:13.46	337.37	4.08	-53.0	-67.9	3.8	1.49e+00	0	44	104	0	76	21482
2026-01-26 12:57:14.47	337.47	4.03	-53.0	-68.0	3.8	1.49e+00	0	44	104	0	76	21560
2026-01-26 12:57:15.48	337.57	3.98	-53.0	-67.9	3.8	1.49e+00	0	44	104	0	76	21489
2026-01-26 12:57:16.49	337.68	3.93	-53.0	-68.0	3.8	1.49e+00	0	44	104	0	76	21536
2026-01-26 12:57:17.49	337.78	3.89	-53.0	-68.0	3.8	1.49e+00	0	44	104	0	76	21523
2026-01-26 12:57:18.50	337.88	3.84	-53.0	-67.9	3.8	1.49e+00	0	44	104	0	76	21468
2026-01-26 12:57:19.51	337.99	3.79	-53.0	-67.9	3.8	1.49e+00	0	44	104	0	76	21484
2026-01-26 12:57:20.51	338.09	3.74	-53.0	-67.9	3.8	1.49e+00	0	44	104	0	76	21441
2026-01-26 12:57:21.52	338.19	3.69	-53.0	-68.0	3.8	1.49e+00	0	44	104	0	76	21523
2026-01-26 12:57:22.53	338.29	3.64	-53.0	-68.0	3.8	1.49e+00	0	44	104	0	76	21547
2026-01-26 12:57:23.54	338.40	3.59	-53.0	-68.0	3.8	1.49e+00	0	44	104	0	76	21521
2026-01-26 12:57:24.55	338.50	3.55	-53.0	-67.9	3.8	1.49e+00	0	44	104	0	76	21464
2026-01-26 12:57:25.56	338.60	3.50	-53.0	-68.0	3.8	1.49e+00	0	44	104	0	76	21518
2026-01-26 12:57:26.57	338.70	3.45	-53.0	-67.9	3.8	1.49e+00	0	44	104	0	76	21458
2026-01-26 12:57:27.58	338.80	3.40	-53.0	-67.9	3.8	1.49e+00	0	44	104	0	76	21501
2026-01-26 12:57:28.59	338.90	3.35	-53.0	-68.0	3.8	1.49e+00	0	44	104	0	76	21513
2026-01-26 12:57:29.60	339.00	3.30	-53.0	-67.9	3.8	1.49e+00	0	44	104	0	76	21472
2026-01-26 12:57:30.60	339.10	3.25	-53.0	-67.9	3.8	1.49e+00	0	44	104	0	76	21445
2026-01-26 12:57:31.60	339.20	3.21	-53.0	-68.0	3.8	1.49e+00	0	44	104	0	76	21519
2026-01-26 12:57:32.61	339.30	3.16	-53.0	-67.9	3.8	1.49e+00	0	44	104	0	76	21465
2026-01-26 12:57:33.62	339.39	3.11	-53.0	-67.9	3.8	1.49e+00	0	44	104	0	76	21493
2026-01-26 12:57:34.63	339.49	3.06	-53.0	-68.0	3.8	1.49e+00	0	43	104	0	76	21509
2026-01-26 12:57:35.63	339.59	3.01	-53.0	-67.9	3.8	1.49e+00	0	44	104	0	76	21496
2026-01-26 12:57:36.63	339.69	2.97	-53.0	-67.9	3.8	1.49e+00	0	44	104	0	76	21471
2026-01-26 12:57:37.64	339.78	2.92	-53.0	-67.9	3.8	1.49e+00	0	44	104	0	76	21493
2026-01-26 12:57:38.64	339.88	2.87	-53.0	-67.9	3.8	1.49e+00	0	44	104	0	76	21497
2026-01-26 12:57:39.65	339.98	2.82	-53.0	-68.0	3.8	1.49e+00	0	44	104	0	76	21551
2026-01-26 12:57:40.66	340.07	2.77	-53.0	-67.9	3.8	1.49e+00	0	44	104	0	76	21503
2026-01-26 12:57:41.67	340.17	2.72	-53.0	-67.9	3.8	1.49e+00	0	44	104	0	76	21463
2026-01-26 12:57:42.68	340.26	2.68	-53.0	-68.0	3.8	1.49e+00	0	44	104	0	76	21521
2026-01-26 12:57:43.69	340.36	2.63	-53.0	-67.9	3.8	1.49e+00	0	44	104	0	76	21491
2026-01-26 12:57:44.69	340.45	2.58	-53.0	-67.9	3.8	1.49e+00	0	44	104	0	76	21471
2026-01-26 12:57:45.70	340.55	2.53	-53.0	-68.0	3.8	1.49e+00	0	44	104	0	76	21519
2026-01-26 12:57:46.71	340.64	2.48	-53.0	-67.9	3.8	1.49e+00	0	44	104	0	76	21483
2026-01-26 12:57:47.71	340.74	2.44	-53.0	-67.9	3.8	1.49e+00	0	44	104	0	76	21431
2026-01-26 12:57:48.72	340.83	2.39	-53.0	-67.9	3.8	1.49e+00	0	44	104	0	76	21505
2026-01-26 12:57:49.72	340.93	2.34	-53.0	-68.0	3.8	1.49e+00	0	44	104	0	76	21509
2026-01-26 12:57:50.73	341.02	2.29	-53.0	-68.0	3.8	1.49e+00	0	43	104	0	76	21517
2026-01-26 12:57:51.73	341.11	2.24	-53.0	-68.0	3.8	1.49e+00	0	44	104	0	76	21507
2026-01-26 12:57:52.73	341.20	2.20	-53.0	-68.0	3.8	1.49e+00	0	44	104	0	76	21547
2026-01-26 12:57:53.74	341.30	2.15	-53.0	-67.9	3.8	1.49e+00	0	43	104	0	76	21472
2026-01-26 12:57:54.75	341.39	2.10	-53.0	-68.0	3.8	1.49e+00	0	44	104	0	76	21520
2026-01-26 12:57:55.75	341.48	2.05	-53.0	-68.0	3.8	1.49e+00	0	43	104	0	76	21515
2026-01-26 12:57:56.76	341.57	2.00	-53.0	-68.0	3.8	1.49e+00	0	44	104	0	76	21528
2026-01-26 12:57:57.77	341.66	1.96	-53.0	-68.0	3.8	1.49e+00	0	44	104	0	76	21553
2026-01-26 12:57:58.78	341.75	1.91	-53.0	-67.9	3.8	1.49e+00	0	43	104	0	76	21484

#Closed at: 2026-01-26 12:57:59
#Recorded file [0 MB]: D:/lorett/data/31041_260126_154624.dat