passes_logs/2026/01/26/R3.2S_Murmansk/R3.2S_Murmansk__20260126_024844_AQUA_rec.log

#Pass ID: 20260126_024844_AQUA
#Satellite: AQUA
#Configuration: AQUA
#almurnet v.1.7.20251203
#Start time: 2026-01-26 02:48:45

#Version: 2.2.20231116
#Station: R3.2S_Murmansk
#Location: 33.079688 lon 68.888172 lat
#TLE: 1 27424U 02022A   26025.50647354  .00001868  00000+0  38363-3 0  9992
#TLE: 2 27424  98.4099 352.1114 0001896  65.7986  47.0097 14.61858879262422

#Time	Az	El	Level	Level2	SNR	BER	BlckErr	Temp	State	Recorded	gain1	gain2
2026-01-26 02:48:45.46	24.94	2.07	-55.3	-73.2	3.8	7.43e-01	0	41	0	0	81	29473
2026-01-26 02:48:46.47	24.92	2.13	-55.3	-73.2	3.8	7.46e-01	0	41	104	0	81	29550
2026-01-26 02:48:47.47	24.91	2.20	-55.3	-73.2	3.8	7.46e-01	0	41	104	0	81	29417
2026-01-26 02:48:48.48	24.90	2.27	-55.3	-73.2	3.8	7.42e-01	0	41	104	0	81	29407
2026-01-26 02:48:49.49	24.89	2.33	-55.3	-73.2	3.8	7.48e-01	0	42	104	0	81	29416
2026-01-26 02:48:50.50	24.88	2.40	-55.3	-73.1	3.8	7.45e-01	0	41	104	0	81	29317
2026-01-26 02:48:51.51	24.87	2.47	-55.3	-73.1	3.8	7.46e-01	0	41	104	0	81	29231
2026-01-26 02:48:52.51	24.86	2.54	-55.3	-73.1	3.8	7.46e-01	0	41	104	0	81	29237
2026-01-26 02:48:53.52	24.84	2.61	-55.3	-73.1	3.8	7.43e-01	0	41	104	0	81	29212
2026-01-26 02:48:54.53	24.83	2.67	-55.3	-73.1	3.8	7.46e-01	0	41	104	0	81	29137
2026-01-26 02:48:55.53	24.82	2.74	-55.3	-73.1	3.8	7.45e-01	0	41	104	0	81	29196
2026-01-26 02:48:56.54	24.81	2.81	-55.3	-73.1	3.8	7.45e-01	0	42	104	0	81	29121
2026-01-26 02:48:57.55	24.80	2.88	-55.3	-73.1	3.8	7.44e-01	0	42	104	0	81	29147
2026-01-26 02:48:58.56	24.78	2.95	-55.3	-73.2	3.8	7.46e-01	0	41	104	0	81	29401
2026-01-26 02:48:59.57	24.77	3.02	-55.5	-73.3	3.8	7.45e-01	0	42	104	0	81	29873
2026-01-26 02:49:00.57	24.76	3.09	-55.5	-73.3	3.8	7.45e-01	0	42	104	0	81	29823
2026-01-26 02:49:01.58	24.75	3.16	-55.5	-73.3	3.8	7.41e-01	0	42	104	0	81	29901
2026-01-26 02:49:02.59	24.74	3.23	-55.5	-73.3	3.8	7.46e-01	0	42	104	0	81	29928
2026-01-26 02:49:03.60	24.72	3.30	-55.5	-73.3	3.8	7.47e-01	0	42	104	0	81	29923
2026-01-26 02:49:04.61	24.71	3.37	-55.5	-73.4	3.8	7.44e-01	0	42	104	0	81	30033
2026-01-26 02:49:05.62	24.70	3.44	-55.5	-73.3	3.8	7.47e-01	0	42	104	0	81	29993
2026-01-26 02:49:06.62	24.69	3.51	-55.5	-73.3	3.8	7.45e-01	0	42	104	0	81	29856
2026-01-26 02:49:07.63	24.67	3.58	-55.4	-73.2	3.8	7.46e-01	0	42	104	0	81	29586
2026-01-26 02:49:08.64	24.66	3.65	-55.4	-73.2	3.8	7.47e-01	0	42	104	0	81	29462
2026-01-26 02:49:09.65	24.65	3.72	-55.4	-73.2	3.8	7.46e-01	0	42	104	0	81	29561
2026-01-26 02:49:10.65	24.63	3.79	-55.3	-73.2	3.8	7.48e-01	0	42	104	0	81	29402
2026-01-26 02:49:11.66	24.62	3.86	-55.3	-73.1	3.8	7.43e-01	0	42	104	0	81	29251
2026-01-26 02:49:12.67	24.61	3.93	-55.2	-73.0	3.8	7.45e-01	0	42	104	0	81	28966
2026-01-26 02:49:13.68	24.59	4.00	-55.1	-73.0	3.8	7.44e-01	0	42	104	0	81	28749
2026-01-26 02:49:14.69	24.58	4.08	-55.1	-72.9	3.8	7.46e-01	0	42	104	0	81	28378
2026-01-26 02:49:15.69	24.57	4.15	-55.0	-72.8	3.8	7.45e-01	0	42	104	0	81	28127
2026-01-26 02:49:16.70	24.55	4.22	-54.8	-72.6	3.8	7.43e-01	0	42	104	0	81	27559
2026-01-26 02:49:17.71	24.54	4.29	-54.7	-72.5	3.8	7.43e-01	0	42	104	0	81	27275
2026-01-26 02:49:18.72	24.52	4.37	-54.5	-72.3	3.8	7.49e-01	0	42	104	0	81	26672
2026-01-26 02:49:19.73	24.51	4.44	-54.2	-71.4	3.8	7.49e-01	0	42	104	0	80	25435
2026-01-26 02:49:20.73	24.50	4.51	-53.6	-64.6	8.5	6.52e-01	72	42	104	0	77	13747
2026-01-26 02:49:21.74	24.48	4.59	-48.3	-59.8	3.8	7.47e-01	0	42	104	0	68	13409
2026-01-26 02:49:22.75	24.47	4.66	-47.6	-59.0	3.8	7.48e-01	0	42	104	0	67	12912
2026-01-26 02:49:23.76	24.45	4.73	-48.2	-59.7	3.8	7.46e-01	0	42	104	0	67	13917
2026-01-26 02:49:24.76	24.44	4.81	-48.6	-60.2	3.8	7.44e-01	0	42	104	0	67	14871
2026-01-26 02:49:25.77	24.42	4.88	-49.1	-60.9	3.8	7.45e-01	0	42	104	0	68	15146
2026-01-26 02:49:26.77	24.41	4.96	-49.6	-61.7	3.8	7.43e-01	0	42	104	0	69	15646
2026-01-26 02:49:27.78	24.39	5.03	-50.4	-62.9	3.8	7.48e-01	0	42	104	0	71	16038
2026-01-26 02:49:28.79	24.38	5.11	-49.6	-61.7	3.8	7.47e-01	0	42	104	0	69	15620
2026-01-26 02:49:29.80	24.36	5.18	-47.2	-58.4	3.8	7.44e-01	0	42	104	0	65	13465
2026-01-26 02:49:30.81	24.35	5.26	-53.0	-68.6	3.7	7.51e-01	0	42	104	0	76	23267
2026-01-26 02:49:31.82	24.33	5.34	-46.2	-57.2	3.8	7.44e-01	0	42	104	0	64	12495
2026-01-26 02:49:32.83	24.32	5.41	-52.5	-67.2	3.8	7.45e-01	0	42	104	0	75	20960
2026-01-26 02:49:33.83	24.30	5.49	-46.3	-57.4	3.8	7.42e-01	0	42	104	0	64	12667
2026-01-26 02:49:34.84	24.29	5.56	-46.3	-57.3	3.8	7.46e-01	0	42	104	0	63	13407
2026-01-26 02:49:35.85	24.27	5.64	-46.2	-57.3	3.8	7.46e-01	0	42	104	0	63	13298
2026-01-26 02:49:36.86	24.26	5.72	-51.9	-63.7	3.8	7.43e-01	0	42	104	0	74	14770
2026-01-26 02:49:37.87	24.24	5.80	-47.3	-58.7	3.8	7.41e-01	0	42	104	0	65	13892
2026-01-26 02:49:38.88	24.22	5.87	-53.4	-70.1	3.8	7.47e-01	0	42	104	0	77	25962
2026-01-26 02:49:39.89	24.21	5.95	-46.6	-57.7	3.8	7.46e-01	0	43	104	0	64	13137
2026-01-26 02:49:40.89	24.19	6.03	-53.0	-68.5	3.8	7.44e-01	0	42	104	0	76	22838
2026-01-26 02:49:41.90	24.17	6.11	-46.3	-57.4	3.8	7.45e-01	0	42	104	0	64	12743
2026-01-26 02:49:42.91	24.16	6.19	-45.9	-56.9	3.8	7.45e-01	0	42	104	0	63	12667
2026-01-26 02:49:43.92	24.14	6.27	-45.7	-56.6	3.8	7.44e-01	0	43	104	0	63	12343
2026-01-26 02:49:44.93	24.12	6.34	-51.6	-63.5	3.9	7.47e-01	0	43	104	0	73	15353
2026-01-26 02:49:45.92	24.11	6.42	-47.0	-58.2	3.8	7.45e-01	0	42	104	0	64	13979
2026-01-26 02:49:46.93	24.09	6.50	-53.5	-70.3	3.8	7.44e-01	0	43	104	0	77	26605
2026-01-26 02:49:47.94	24.07	6.58	-46.6	-57.6	3.8	7.46e-01	0	43	104	0	64	12994
2026-01-26 02:49:48.95	24.06	6.66	-52.9	-67.7	3.8	7.43e-01	0	43	104	0	76	20992
2026-01-26 02:49:49.96	24.04	6.74	-45.8	-56.8	3.8	7.45e-01	0	42	104	0	63	12534
2026-01-26 02:49:50.97	24.02	6.82	-45.9	-56.9	3.8	7.42e-01	0	42	104	0	63	12730
2026-01-26 02:49:51.98	24.00	6.91	-45.9	-56.8	3.8	7.46e-01	0	43	104	0	63	12611
2026-01-26 02:49:52.99	23.99	6.99	-48.1	-59.3	3.8	7.46e-01	0	43	104	0	66	14156
2026-01-26 02:49:53.99	23.97	7.07	-46.8	-57.9	3.8	7.45e-01	0	43	104	0	64	13417
2026-01-26 02:49:55.00	23.95	7.15	-53.6	-70.4	3.8	7.43e-01	0	43	104	0	77	27033
2026-01-26 02:49:56.01	23.93	7.23	-46.5	-57.5	3.8	7.46e-01	0	43	104	0	63	13640
2026-01-26 02:49:57.01	23.91	7.31	-53.1	-68.2	3.8	7.45e-01	0	43	104	0	76	22231
2026-01-26 02:49:58.02	23.89	7.40	-45.6	-56.4	3.8	7.44e-01	0	43	104	0	63	12063
2026-01-26 02:49:59.03	23.88	7.48	-45.8	-56.7	3.8	7.45e-01	0	43	104	0	63	12502
2026-01-26 02:50:00.04	23.86	7.56	-45.8	-56.7	3.8	7.46e-01	0	42	104	0	63	12474
2026-01-26 02:50:01.05	23.84	7.65	-50.1	-61.9	3.8	7.45e-01	0	43	104	0	70	15111
2026-01-26 02:50:02.05	23.82	7.73	-46.9	-57.9	3.9	7.45e-01	0	43	104	0	64	13562
2026-01-26 02:50:03.06	23.80	7.82	-53.6	-69.6	3.8	7.44e-01	0	43	104	0	77	24669
2026-01-26 02:50:04.07	23.78	7.90	-45.9	-56.9	3.8	7.41e-01	0	43	104	0	62	13427
2026-01-26 02:50:05.08	23.76	7.99	-53.1	-68.0	3.8	7.47e-01	0	43	104	0	76	21697
2026-01-26 02:50:06.08	23.74	8.07	-46.5	-57.5	3.8	7.46e-01	0	43	104	0	65	12124
2026-01-26 02:50:07.09	23.72	8.16	-45.9	-56.8	3.8	7.43e-01	0	43	104	0	63	12535
2026-01-26 02:50:08.10	23.70	8.24	-45.7	-56.6	3.8	7.46e-01	0	43	104	0	63	12306
2026-01-26 02:50:09.11	23.68	8.33	-47.9	-59.3	3.8	7.43e-01	0	43	104	0	66	14147
2026-01-26 02:50:10.11	23.66	8.41	-46.7	-57.7	3.8	7.41e-01	0	43	104	0	63	13901
2026-01-26 02:50:11.12	23.64	8.50	-53.7	-69.7	3.8	7.46e-01	0	43	104	0	77	24886
2026-01-26 02:50:12.13	23.62	8.59	-46.2	-57.2	3.8	7.43e-01	0	43	104	0	63	13177
2026-01-26 02:50:13.13	23.60	8.68	-53.1	-67.8	3.8	7.47e-01	0	43	104	0	76	21080
2026-01-26 02:50:14.14	23.58	8.76	-45.4	-56.1	3.8	7.43e-01	0	43	104	0	62	12311
2026-01-26 02:50:15.15	23.56	8.85	-45.2	-55.9	3.8	7.43e-01	0	43	104	0	62	12053
2026-01-26 02:50:16.16	23.53	8.94	-45.3	-56.0	3.8	7.46e-01	0	43	104	0	62	12205
2026-01-26 02:50:17.16	23.51	9.03	-48.9	-60.6	3.8	7.45e-01	0	43	104	0	69	13796
2026-01-26 02:50:18.17	23.49	9.12	-46.6	-57.6	3.9	7.48e-01	0	43	104	0	63	13778
2026-01-26 02:50:19.17	23.47	9.21	-53.3	-68.0	3.8	7.42e-01	0	43	104	0	78	19264
2026-01-26 02:50:20.18	23.45	9.30	-45.5	-56.3	3.9	7.43e-01	0	43	104	0	63	11890
2026-01-26 02:50:21.19	23.43	9.39	-52.9	-67.6	3.9	7.47e-01	0	43	104	0	76	20722
2026-01-26 02:50:22.20	23.40	9.48	-46.0	-56.9	3.8	7.42e-01	0	43	104	0	63	12733
2026-01-26 02:50:23.21	23.38	9.57	-46.4	-57.4	3.8	7.43e-01	0	43	104	0	63	13523
2026-01-26 02:50:24.22	23.36	9.66	-46.4	-57.4	3.8	7.41e-01	0	43	104	0	63	13472
2026-01-26 02:50:25.22	23.34	9.75	-45.0	-55.8	3.8	7.46e-01	0	43	104	0	61	12562
2026-01-26 02:50:26.23	23.31	9.85	-46.1	-57.1	3.8	7.44e-01	0	43	104	0	62	13830
2026-01-26 02:50:27.23	23.29	9.94	-53.2	-67.9	3.8	7.44e-01	0	43	104	0	78	18975
2026-01-26 02:50:28.24	23.27	10.03	-45.4	-55.9	3.9	7.44e-01	0	43	104	0	62	12091
2026-01-26 02:50:29.25	23.24	10.12	-52.8	-67.4	3.8	7.46e-01	0	43	104	0	76	20113
2026-01-26 02:50:30.25	23.22	10.22	-45.9	-56.8	3.8	7.44e-01	0	43	104	0	63	12588
2026-01-26 02:50:31.26	23.19	10.31	-46.1	-57.1	3.8	7.46e-01	0	43	104	0	63	13054
2026-01-26 02:50:32.26	23.17	10.41	-46.0	-57.0	3.9	7.46e-01	0	43	104	0	63	12824
2026-01-26 02:50:33.27	23.15	10.50	-46.6	-57.7	3.8	7.46e-01	0	43	104	0	65	12515
2026-01-26 02:50:34.28	23.12	10.60	-46.3	-57.5	3.8	7.41e-01	0	43	104	0	63	13647
2026-01-26 02:50:35.29	23.10	10.69	-52.0	-65.5	3.9	7.40e-01	0	43	104	0	76	16254
2026-01-26 02:50:36.30	23.07	10.79	-44.9	-55.6	3.9	7.44e-01	0	43	104	0	61	12369
2026-01-26 02:50:37.30	23.05	10.88	-51.7	-65.0	3.9	7.46e-01	0	43	104	0	75	16129
2026-01-26 02:50:38.31	23.02	10.98	-44.8	-55.6	3.8	7.40e-01	0	43	104	0	61	12345
2026-01-26 02:50:39.32	22.99	11.08	-44.8	-55.5	3.8	7.47e-01	0	43	104	0	61	12195
2026-01-26 02:50:40.32	22.97	11.18	-45.0	-55.9	3.8	7.47e-01	0	43	104	0	61	12723
2026-01-26 02:50:41.33	22.94	11.27	-49.5	-61.5	3.8	7.44e-01	0	43	104	0	71	13593
2026-01-26 02:50:42.34	22.92	11.37	-46.1	-57.0	3.9	7.46e-01	0	43	104	0	62	13712
2026-01-26 02:50:43.35	22.89	11.47	-52.3	-65.9	3.9	7.41e-01	0	43	104	0	76	17050
2026-01-26 02:50:44.35	22.86	11.57	-44.5	-55.3	3.9	7.42e-01	0	43	104	0	61	11830
2026-01-26 02:50:45.36	22.84	11.67	-52.4	-66.4	3.8	7.45e-01	0	43	104	0	77	17070
2026-01-26 02:50:46.37	22.81	11.77	-45.7	-56.6	3.8	7.45e-01	0	43	104	0	63	12290
2026-01-26 02:50:47.38	22.78	11.87	-44.8	-55.6	3.8	7.40e-01	0	43	104	0	61	12351
2026-01-26 02:50:48.39	22.75	11.97	-44.5	-55.2	3.8	7.44e-01	0	43	104	0	60	12473
2026-01-26 02:50:49.39	22.73	12.07	-45.3	-56.1	3.8	7.44e-01	0	43	104	0	62	12348
2026-01-26 02:50:50.40	22.70	12.18	-46.5	-57.5	3.8	7.42e-01	0	43	104	0	63	13643
2026-01-26 02:50:51.41	22.67	12.28	-49.8	-61.6	3.9	7.46e-01	0	43	104	0	71	13795
2026-01-26 02:50:52.42	22.64	12.38	-44.4	-55.1	3.8	7.43e-01	0	43	104	0	60	12359
2026-01-26 02:50:53.43	22.61	12.49	-51.1	-63.7	3.9	7.43e-01	0	43	104	0	74	14803
2026-01-26 02:50:54.43	22.58	12.59	-45.1	-55.9	3.8	7.48e-01	0	43	104	0	62	12032
2026-01-26 02:50:55.44	22.55	12.70	-44.6	-55.3	3.8	7.46e-01	0	43	104	0	61	11912
2026-01-26 02:50:56.44	22.52	12.80	-44.3	-55.0	3.9	7.41e-01	0	43	104	0	60	12168
2026-01-26 02:50:57.45	22.49	12.91	-45.1	-56.0	3.8	7.45e-01	0	43	104	0	62	12108
2026-01-26 02:50:58.46	22.46	13.01	-46.2	-57.0	3.8	7.47e-01	0	43	104	0	62	13649
2026-01-26 02:50:59.47	22.43	13.12	-46.0	-57.0	3.8	7.49e-01	0	43	104	0	64	12117
2026-01-26 02:51:00.48	22.40	13.23	-44.9	-55.6	3.8	7.44e-01	0	43	104	0	60	13006
2026-01-26 02:51:01.48	22.37	13.33	-47.2	-58.3	3.9	7.46e-01	0	43	104	0	66	12548
2026-01-26 02:51:02.49	22.34	13.44	-44.1	-54.8	3.8	7.44e-01	0	43	104	0	60	11890
2026-01-26 02:51:03.50	22.31	13.55	-44.3	-55.0	3.8	7.44e-01	0	43	104	0	60	12175
2026-01-26 02:51:04.51	22.28	13.66	-45.2	-56.0	3.8	7.44e-01	0	43	104	0	60	13624
2026-01-26 02:51:05.51	22.25	13.77	-44.5	-55.4	3.8	7.44e-01	0	43	104	0	61	11960
2026-01-26 02:51:06.52	22.21	13.88	-47.4	-58.8	3.8	7.47e-01	0	43	104	0	65	14086
2026-01-26 02:51:07.53	22.18	13.99	-45.9	-56.5	3.8	7.44e-01	0	43	104	0	63	12130
2026-01-26 02:51:08.53	22.15	14.10	-44.8	-55.5	3.8	7.47e-01	0	43	104	0	60	12930
2026-01-26 02:51:09.54	22.11	14.21	-48.3	-59.5	3.8	7.43e-01	0	43	104	0	68	12929
2026-01-26 02:51:10.55	22.08	14.33	-45.1	-55.9	3.8	7.43e-01	0	43	104	0	61	12740
2026-01-26 02:51:11.55	22.05	14.44	-44.6	-55.4	3.8	7.40e-01	0	43	104	0	61	12027
2026-01-26 02:51:12.56	22.01	14.55	-44.9	-55.7	3.8	7.44e-01	0	43	104	0	60	13202
2026-01-26 02:51:13.57	21.98	14.67	-44.3	-55.1	3.9	7.45e-01	0	43	104	0	60	12241
2026-01-26 02:51:14.58	21.94	14.78	-49.8	-61.5	3.8	7.45e-01	0	43	104	0	69	15248
2026-01-26 02:51:15.59	21.91	14.90	-44.7	-55.6	3.8	7.47e-01	0	43	104	0	61	12249
2026-01-26 02:51:16.60	21.87	15.01	-47.0	-58.1	3.8	7.43e-01	0	43	104	0	64	13782
2026-01-26 02:51:17.61	21.84	15.13	-46.9	-58.1	3.8	7.46e-01	0	43	104	0	66	12310
2026-01-26 02:51:18.61	21.80	15.25	-44.7	-55.5	3.8	7.42e-01	0	43	104	0	61	12222
2026-01-26 02:51:19.62	21.76	15.36	-44.3	-55.1	3.8	7.47e-01	0	43	104	0	60	12246
2026-01-26 02:51:20.63	21.73	15.48	-46.5	-57.4	3.8	7.45e-01	0	43	104	0	63	13564
2026-01-26 02:51:21.64	21.69	15.60	-44.3	-55.0	3.9	7.46e-01	0	43	104	0	60	12178
2026-01-26 02:51:22.65	21.65	15.72	-49.5	-61.2	3.8	7.45e-01	0	43	104	0	69	14853
2026-01-26 02:51:23.65	21.61	15.84	-44.7	-55.5	3.8	7.44e-01	0	43	104	0	61	12182
2026-01-26 02:51:24.66	21.58	15.96	-46.8	-57.7	3.8	7.47e-01	0	43	104	0	63	13947
2026-01-26 02:51:25.67	21.54	16.09	-45.8	-56.8	3.8	7.47e-01	0	43	104	0	63	12562
2026-01-26 02:51:26.69	21.50	16.21	-44.5	-55.2	3.8	7.44e-01	0	43	104	0	61	11805
2026-01-26 02:51:27.69	21.46	16.33	-44.2	-54.9	3.8	7.45e-01	0	43	104	0	60	12057
2026-01-26 02:51:28.70	21.42	16.45	-45.4	-56.3	3.8	7.45e-01	0	43	104	0	61	13270
2026-01-26 02:51:29.71	21.38	16.58	-44.2	-55.0	3.8	7.44e-01	0	43	104	0	60	12151
2026-01-26 02:51:30.72	21.34	16.70	-51.7	-64.5	3.8	7.48e-01	0	43	104	0	73	17089
2026-01-26 02:51:31.73	21.30	16.83	-44.9	-55.7	3.9	7.43e-01	0	43	104	0	61	12452
2026-01-26 02:51:32.73	21.26	16.96	-49.4	-61.3	3.8	7.42e-01	0	43	104	0	69	14910
2026-01-26 02:51:33.74	21.21	17.08	-46.1	-57.0	3.8	7.46e-01	0	43	104	0	64	12219
2026-01-26 02:51:34.75	21.17	17.21	-45.0	-55.9	3.8	7.42e-01	0	43	104	0	62	11976
2026-01-26 02:51:35.76	21.13	17.34	-44.4	-55.0	3.8	7.45e-01	0	43	104	0	60	12159
2026-01-26 02:51:36.77	21.09	17.47	-46.4	-57.4	3.8	7.45e-01	0	43	104	0	63	13501
2026-01-26 02:51:37.77	21.04	17.60	-45.0	-55.8	3.8	7.48e-01	0	43	104	0	61	12624
2026-01-26 02:51:38.78	21.00	17.73	-53.2	-67.6	3.8	7.47e-01	0	43	104	0	76	20700
2026-01-26 02:51:39.79	20.95	17.86	-45.5	-56.3	3.8	7.48e-01	0	43	104	0	62	12558
2026-01-26 02:51:40.79	20.91	17.99	-51.1	-63.4	3.8	7.47e-01	0	43	104	0	72	16040
2026-01-26 02:51:41.80	20.87	18.13	-44.9	-55.8	3.8	7.44e-01	0	43	104	0	62	11937
2026-01-26 02:51:42.81	20.82	18.26	-44.8	-55.6	3.8	7.48e-01	0	43	104	0	61	12256
2026-01-26 02:51:43.82	20.77	18.40	-44.2	-55.0	3.8	7.43e-01	0	43	104	0	60	12124
2026-01-26 02:51:44.83	20.73	18.53	-47.5	-58.6	3.8	7.44e-01	0	43	104	0	65	13787
2026-01-26 02:51:45.83	20.68	18.67	-44.4	-55.2	3.8	7.44e-01	0	43	104	0	60	12445
2026-01-26 02:51:46.84	20.63	18.80	-53.1	-67.1	3.8	7.47e-01	0	44	104	0	76	19611
2026-01-26 02:51:47.85	20.58	18.94	-45.3	-56.2	3.8	7.42e-01	0	43	104	0	62	12384
2026-01-26 02:51:48.85	20.54	19.08	-50.9	-63.3	3.8	7.44e-01	0	43	104	0	72	15797
2026-01-26 02:51:49.86	20.49	19.22	-45.2	-56.0	3.8	7.45e-01	0	43	104	0	62	12210
2026-01-26 02:51:50.87	20.44	19.36	-44.4	-55.2	3.8	7.45e-01	0	43	104	0	60	12394
2026-01-26 02:51:51.87	20.39	19.50	-44.1	-54.8	3.8	7.47e-01	0	43	104	0	60	11948
2026-01-26 02:51:52.88	20.34	19.64	-48.6	-60.1	3.9	7.45e-01	0	43	104	0	67	14633
2026-01-26 02:51:53.89	20.29	19.79	-44.8	-55.6	3.8	7.43e-01	0	43	104	0	60	13035
2026-01-26 02:51:54.89	20.23	19.93	-53.9	-69.5	3.7	7.44e-01	0	43	104	0	78	22843
2026-01-26 02:51:55.90	20.18	20.07	-45.8	-56.6	3.8	7.47e-01	0	43	104	0	62	13050
2026-01-26 02:51:56.91	20.13	20.22	-52.2	-65.3	3.8	7.47e-01	0	43	104	0	74	17768
2026-01-26 02:51:57.92	20.07	20.37	-45.0	-55.7	3.8	7.45e-01	0	44	104	0	62	11806
2026-01-26 02:51:58.93	20.02	20.51	-44.4	-55.1	3.9	7.43e-01	0	43	104	0	60	12342
2026-01-26 02:51:59.93	19.97	20.66	-44.2	-54.9	3.8	7.43e-01	0	43	104	0	60	12004
2026-01-26 02:52:00.94	19.91	20.81	-49.4	-61.1	3.8	7.46e-01	0	43	104	0	69	14541
2026-01-26 02:52:01.95	19.86	20.96	-45.0	-55.8	3.8	7.45e-01	0	43	104	0	60	13265
2026-01-26 02:52:02.95	19.80	21.11	-53.9	-69.6	3.7	7.46e-01	0	43	104	0	78	23047
2026-01-26 02:52:03.95	19.74	21.26	-46.1	-57.0	3.8	7.44e-01	0	43	104	0	63	12881
2026-01-26 02:52:04.96	19.69	21.42	-52.7	-66.4	3.8	7.48e-01	0	43	104	0	75	19012
2026-01-26 02:52:05.97	19.63	21.57	-45.5	-56.4	3.8	7.45e-01	0	43	104	0	63	12006
2026-01-26 02:52:06.97	19.57	21.72	-44.9	-55.6	3.8	7.44e-01	0	43	104	0	61	12362
2026-01-26 02:52:07.98	19.51	21.88	-44.6	-55.3	3.8	7.49e-01	0	43	104	0	61	11877
2026-01-26 02:52:08.99	19.45	22.04	-49.3	-60.9	3.8	7.42e-01	0	43	104	0	69	14339
2026-01-26 02:52:10.00	19.39	22.20	-47.2	-58.3	3.8	7.44e-01	0	44	104	0	66	12585
2026-01-26 02:52:11.00	19.33	22.35	-54.0	-69.7	3.8	7.46e-01	0	43	104	0	78	23462
2026-01-26 02:52:12.01	19.26	22.52	-44.7	-55.5	3.8	7.44e-01	0	43	104	0	61	12100
2026-01-26 02:52:13.02	19.20	22.68	-53.7	-68.7	3.8	7.45e-01	0	44	104	0	77	22038
2026-01-26 02:52:14.03	19.14	22.84	-44.6	-55.3	3.8	7.42e-01	0	44	104	0	61	11937
2026-01-26 02:52:15.03	19.07	23.00	-44.7	-55.4	3.8	7.43e-01	0	43	104	0	61	12024
2026-01-26 02:52:16.05	19.01	23.17	-44.6	-55.4	3.8	7.45e-01	0	43	104	0	61	12028
2026-01-26 02:52:17.05	18.94	23.33	-48.6	-60.0	3.8	7.44e-01	0	43	104	0	67	14438
2026-01-26 02:52:18.06	18.87	23.50	-47.2	-58.3	3.8	7.45e-01	0	44	104	0	65	13394
2026-01-26 02:52:19.07	18.81	23.67	-54.0	-69.7	3.8	7.45e-01	0	43	104	0	78	23326
2026-01-26 02:52:20.08	18.74	23.84	-44.9	-55.7	3.8	7.48e-01	0	43	104	0	61	12475
2026-01-26 02:52:21.08	18.67	24.01	-53.7	-68.9	3.8	7.47e-01	0	43	104	0	78	21414
2026-01-26 02:52:22.09	18.60	24.18	-44.9	-55.7	3.8	7.43e-01	0	43	104	0	61	12437
2026-01-26 02:52:23.10	18.53	24.35	-44.6	-55.4	3.8	7.46e-01	0	43	104	0	61	11972
2026-01-26 02:52:24.10	18.45	24.52	-44.5	-55.3	3.8	7.43e-01	0	43	104	0	61	11827
2026-01-26 02:52:25.11	18.38	24.70	-47.4	-58.6	3.8	7.46e-01	0	43	104	0	66	13061
2026-01-26 02:52:26.12	18.31	24.88	-45.3	-56.1	3.8	7.43e-01	0	43	104	0	61	13011
2026-01-26 02:52:27.12	18.23	25.05	-54.3	-70.8	3.8	7.40e-01	0	44	104	0	79	25110
2026-01-26 02:52:28.13	18.16	25.23	-46.1	-57.0	3.8	7.42e-01	0	43	104	0	63	12916
2026-01-26 02:52:29.14	18.08	25.41	-52.5	-66.0	3.8	7.45e-01	0	43	104	0	75	18231
2026-01-26 02:52:30.15	18.00	25.59	-44.9	-55.6	3.8	7.46e-01	0	43	104	0	61	12268
2026-01-26 02:52:31.15	17.93	25.77	-44.6	-55.4	3.8	7.44e-01	0	44	104	0	61	11974
2026-01-26 02:52:32.16	17.85	25.96	-44.3	-55.1	3.8	7.42e-01	0	43	104	0	60	12283
2026-01-26 02:52:33.17	17.77	26.14	-48.2	-59.5	3.9	7.42e-01	0	43	104	0	68	12868
2026-01-26 02:52:34.17	17.69	26.33	-45.1	-55.8	3.8	7.45e-01	0	44	104	0	61	12642
2026-01-26 02:52:35.18	17.60	26.52	-53.7	-68.7	3.9	7.41e-01	0	43	104	0	79	19837
2026-01-26 02:52:36.19	17.52	26.71	-45.3	-56.1	3.8	7.44e-01	0	44	104	0	62	12340
2026-01-26 02:52:37.19	17.44	26.89	-52.1	-65.1	3.8	7.47e-01	0	43	104	0	75	16491
2026-01-26 02:52:38.20	17.35	27.09	-44.8	-55.5	3.9	7.43e-01	0	43	104	0	61	12188
2026-01-26 02:52:39.21	17.26	27.28	-44.3	-55.1	3.8	7.46e-01	0	43	104	0	60	12262
2026-01-26 02:52:40.22	17.17	27.48	-44.2	-54.9	3.8	7.43e-01	0	43	104	0	60	12010
2026-01-26 02:52:41.23	17.08	27.67	-48.6	-60.1	3.9	7.43e-01	0	44	104	0	69	12989
2026-01-26 02:52:42.24	16.99	27.87	-44.8	-55.6	3.9	7.44e-01	0	43	104	0	61	12236
2026-01-26 02:52:43.25	16.90	28.07	-53.7	-68.6	3.9	7.39e-01	0	44	104	0	79	19564
2026-01-26 02:52:44.26	16.81	28.27	-44.9	-55.5	3.8	7.40e-01	0	43	104	0	61	12174
2026-01-26 02:52:45.27	16.72	28.47	-51.5	-64.3	3.8	7.46e-01	0	43	104	0	75	14934
2026-01-26 02:52:46.27	16.62	28.67	-44.8	-55.6	3.8	7.47e-01	0	43	104	0	61	12262
2026-01-26 02:52:47.28	16.52	28.88	-44.6	-55.4	3.8	7.42e-01	0	43	104	0	60	12685
2026-01-26 02:52:48.29	16.43	29.09	-44.0	-54.8	3.8	7.44e-01	0	43	104	0	60	11830
2026-01-26 02:52:49.30	16.33	29.30	-45.5	-56.4	3.8	7.46e-01	0	43	104	0	63	12031
2026-01-26 02:52:50.31	16.22	29.51	-44.6	-55.3	3.8	7.41e-01	0	44	104	0	60	12557
2026-01-26 02:52:51.32	16.12	29.72	-51.6	-64.3	3.9	7.43e-01	0	43	104	0	75	14947
2026-01-26 02:52:52.33	16.02	29.93	-44.0	-54.5	3.8	7.46e-01	0	43	104	0	59	12205
2026-01-26 02:52:53.34	15.91	30.15	-50.5	-62.5	3.9	7.44e-01	0	44	104	0	73	13682
2026-01-26 02:52:54.35	15.81	30.36	-44.1	-54.8	3.8	7.47e-01	0	43	104	0	60	11820
2026-01-26 02:52:55.35	15.70	30.58	-44.0	-54.7	3.8	7.46e-01	0	43	104	0	59	12469
2026-01-26 02:52:56.36	15.59	30.80	-43.9	-54.7	3.8	7.45e-01	0	43	104	0	59	12385
2026-01-26 02:52:57.37	15.48	31.02	-45.5	-56.4	3.8	7.42e-01	0	44	104	0	63	11972
2026-01-26 02:52:58.37	15.36	31.24	-45.0	-55.7	3.8	7.43e-01	0	43	104	0	60	13195
2026-01-26 02:52:59.38	15.25	31.46	-49.5	-61.2	3.9	7.46e-01	0	43	104	0	71	13184
2026-01-26 02:53:00.39	15.13	31.69	-44.1	-54.7	3.9	7.43e-01	0	43	104	0	60	11705
2026-01-26 02:53:01.40	15.01	31.92	-49.5	-61.2	3.9	7.42e-01	0	44	104	0	71	13185
2026-01-26 02:53:02.41	14.89	32.15	-44.5	-55.2	3.8	7.44e-01	0	43	104	0	61	11727
2026-01-26 02:53:03.42	14.77	32.38	-44.2	-54.9	3.8	7.46e-01	0	43	104	0	60	12022
2026-01-26 02:53:04.42	14.65	32.61	-45.0	-55.8	3.8	7.44e-01	0	44	104	0	60	13303
2026-01-26 02:53:05.43	14.52	32.85	-48.9	-60.1	3.8	7.43e-01	0	43	104	0	69	12984
2026-01-26 02:53:06.44	14.40	33.08	-45.4	-56.2	3.8	7.44e-01	0	43	104	0	62	12400
2026-01-26 02:53:07.45	14.27	33.32	-48.1	-59.4	3.9	7.43e-01	0	43	104	0	68	12686
2026-01-26 02:53:08.45	14.14	33.56	-44.2	-54.9	3.8	7.46e-01	0	44	104	0	60	12021
2026-01-26 02:53:09.46	14.00	33.80	-49.7	-61.4	3.9	7.45e-01	0	44	104	0	71	13467
2026-01-26 02:53:10.47	13.87	34.05	-44.3	-55.0	3.8	7.43e-01	0	44	104	0	60	12186
2026-01-26 02:53:11.48	13.73	34.30	-44.6	-55.3	3.8	7.46e-01	0	44	104	0	60	12644
2026-01-26 02:53:12.48	13.59	34.54	-46.6	-57.5	3.8	7.45e-01	0	44	104	0	63	13620
2026-01-26 02:53:13.49	13.45	34.79	-45.3	-56.1	3.8	7.46e-01	0	43	104	0	62	12263
2026-01-26 02:53:14.50	13.30	35.04	-47.0	-57.9	3.8	7.45e-01	0	44	104	0	64	13437
2026-01-26 02:53:15.51	13.15	35.30	-47.8	-58.9	3.9	7.43e-01	0	44	104	0	67	12712
2026-01-26 02:53:16.52	13.00	35.55	-45.6	-56.4	3.8	7.44e-01	0	43	104	0	61	13452
2026-01-26 02:53:17.53	12.85	35.81	-48.1	-59.3	3.9	7.44e-01	0	44	104	0	68	12621
2026-01-26 02:53:18.53	12.70	36.07	-45.6	-56.5	3.8	7.44e-01	0	43	104	0	63	12187
2026-01-26 02:53:19.54	12.54	36.33	-45.9	-56.8	3.8	7.42e-01	0	44	104	0	63	12543
2026-01-26 02:53:20.54	12.38	36.59	-47.5	-58.6	3.9	7.40e-01	0	44	104	0	65	13753
2026-01-26 02:53:21.55	12.22	36.86	-46.8	-57.7	3.8	7.49e-01	0	44	104	0	65	12519
2026-01-26 02:53:22.56	12.05	37.13	-47.6	-58.6	3.8	7.43e-01	0	44	104	0	65	13800
2026-01-26 02:53:23.57	11.89	37.40	-47.6	-58.7	3.8	7.44e-01	0	44	104	0	67	12407
2026-01-26 02:53:24.58	11.71	37.67	-47.8	-58.8	3.8	7.45e-01	0	44	104	0	65	14145
2026-01-26 02:53:25.59	11.54	37.94	-47.7	-59.0	3.8	7.45e-01	0	43	104	0	67	12885
2026-01-26 02:53:26.60	11.36	38.22	-46.9	-58.0	3.8	7.45e-01	0	43	104	0	65	12855
2026-01-26 02:53:27.61	11.18	38.50	-46.7	-57.7	3.8	7.44e-01	0	43	104	0	65	12415
2026-01-26 02:53:28.61	11.00	38.78	-47.9	-59.1	3.8	7.48e-01	0	43	104	0	66	13854
2026-01-26 02:53:29.62	10.81	39.06	-46.6	-57.4	3.9	7.46e-01	0	43	104	0	65	12040
2026-01-26 02:53:30.63	10.62	39.34	-49.9	-61.7	3.8	7.42e-01	0	44	104	0	70	14867
2026-01-26 02:53:31.63	10.43	39.63	-48.0	-59.2	3.8	7.42e-01	0	43	104	0	68	12456
2026-01-26 02:53:32.64	10.23	39.92	-48.3	-59.4	3.8	7.42e-01	0	43	104	0	66	14309
2026-01-26 02:53:33.65	10.03	40.21	-47.7	-58.9	3.9	7.51e-01	0	43	104	0	67	12758
2026-01-26 02:53:34.65	9.83	40.50	-46.0	-56.9	3.8	7.43e-01	0	43	104	0	64	11985
2026-01-26 02:53:35.66	9.62	40.79	-45.8	-56.6	3.8	7.44e-01	0	43	104	0	63	12349
2026-01-26 02:53:36.67	9.40	41.09	-49.5	-60.9	3.8	7.47e-01	0	43	104	0	69	14318
2026-01-26 02:53:37.68	9.19	41.39	-46.6	-57.6	3.8	7.46e-01	0	44	104	0	65	12324
2026-01-26 02:53:38.69	8.96	41.69	-51.6	-63.9	3.8	7.43e-01	0	43	104	0	73	16029
2026-01-26 02:53:39.70	8.74	42.00	-47.9	-59.1	3.8	7.47e-01	0	43	104	0	67	12964
2026-01-26 02:53:40.71	8.51	42.30	-49.2	-60.5	3.8	7.45e-01	0	44	104	0	68	14496
2026-01-26 02:53:41.71	8.27	42.61	-45.4	-55.9	3.9	7.46e-01	0	44	104	0	62	11999
2026-01-26 02:53:42.72	8.03	42.92	-45.2	-56.0	3.9	7.45e-01	0	44	104	0	62	12110
2026-01-26 02:53:43.73	7.79	43.23	-45.2	-55.9	3.8	7.47e-01	0	43	104	0	62	12070
2026-01-26 02:53:44.73	7.54	43.54	-50.2	-61.9	3.8	7.43e-01	0	43	104	0	70	15080
2026-01-26 02:53:45.74	7.29	43.86	-46.2	-57.1	3.8	7.44e-01	0	44	104	0	64	12297
2026-01-26 02:53:46.74	7.03	44.17	-51.2	-63.2	3.8	7.46e-01	0	44	104	0	72	15753
2026-01-26 02:53:47.75	6.77	44.49	-47.2	-58.2	3.8	7.44e-01	0	43	104	0	66	12399
2026-01-26 02:53:48.75	6.50	44.81	-48.2	-59.3	3.8	7.45e-01	0	43	104	0	66	14099
2026-01-26 02:53:49.76	6.22	45.14	-45.4	-55.9	3.8	7.41e-01	0	43	104	0	62	12063
2026-01-26 02:53:50.77	5.94	45.47	-45.0	-55.8	3.8	7.46e-01	0	43	104	0	62	11844
2026-01-26 02:53:51.78	5.65	45.79	-44.8	-55.5	3.8	7.45e-01	0	43	104	0	61	12219
2026-01-26 02:53:52.78	5.36	46.12	-53.1	-66.6	3.8	7.47e-01	0	43	104	0	76	18356
2026-01-26 02:53:53.79	5.06	46.46	-49.6	-61.2	3.8	7.47e-01	0	43	104	0	71	13177
2026-01-26 02:53:54.79	4.75	46.79	-51.3	-63.3	3.8	7.47e-01	0	43	104	0	72	15809
2026-01-26 02:53:55.80	4.44	47.12	-46.0	-56.8	3.8	7.46e-01	0	44	104	0	63	12572
2026-01-26 02:53:56.81	4.12	47.46	-52.9	-66.2	3.8	7.45e-01	0	43	104	0	76	17629
2026-01-26 02:53:57.82	3.79	47.80	-46.7	-57.8	3.9	7.44e-01	0	43	104	0	65	12526
2026-01-26 02:53:58.82	3.46	48.14	-45.9	-56.7	3.8	7.44e-01	0	43	104	0	63	12482
2026-01-26 02:53:59.83	3.11	48.49	-44.9	-55.6	3.8	7.43e-01	0	43	104	0	61	12298
2026-01-26 02:54:00.83	2.76	48.83	-47.1	-58.2	3.9	7.41e-01	0	43	104	0	64	13926
2026-01-26 02:54:01.84	2.40	49.18	-46.5	-57.4	3.8	7.42e-01	0	44	104	0	63	13523
2026-01-26 02:54:02.85	2.04	49.52	-53.0	-66.3	3.8	7.48e-01	0	43	104	0	76	17762
2026-01-26 02:54:03.85	1.66	49.87	-48.7	-60.0	3.8	7.46e-01	0	44	104	0	69	12822
2026-01-26 02:54:04.86	1.28	50.22	-50.7	-62.4	3.8	7.48e-01	0	44	104	0	71	15189
2026-01-26 02:54:05.87	0.88	50.58	-45.4	-56.1	3.8	7.44e-01	0	44	104	0	62	12273
2026-01-26 02:54:06.88	0.48	50.93	-45.3	-56.2	3.8	7.46e-01	0	43	104	0	62	12387
2026-01-26 02:54:07.89	0.06	51.29	-44.8	-55.5	3.8	7.43e-01	0	44	104	0	61	12144
2026-01-26 02:54:08.90	359.64	51.64	-48.6	-59.7	3.9	7.40e-01	0	44	104	0	67	14022
2026-01-26 02:54:09.91	359.20	52.00	-45.6	-46.9	24.4	6.01e-01	0	43	0	524288	61	4505
2026-01-26 02:54:10.91	358.76	52.36	-53.7	-59.2	14.2	6.06e-01	0	43	0	2621440	77	7425
2026-01-26 02:54:11.92	358.30	52.72	-47.6	-49.1	23.0	6.01e-01	0	43	0	4194304	65	4633
2026-01-26 02:54:12.93	357.83	53.08	-49.7	-51.8	20.8	6.02e-01	0	43	0	6291456	69	5009
2026-01-26 02:54:13.94	357.35	53.44	-43.8	-44.9	26.8	6.04e-01	0	43	0	7864320	59	4032
2026-01-26 02:54:14.95	356.86	53.80	-43.9	-45.0	26.7	6.02e-01	0	43	0	9961472	59	4095
2026-01-26 02:54:15.95	356.36	54.16	-43.9	-45.0	26.8	6.03e-01	0	44	0	12058624	59	4072
2026-01-26 02:54:16.96	355.84	54.53	-44.2	-45.3	26.5	6.03e-01	0	43	0	13631488	59	4224
2026-01-26 02:54:17.96	355.31	54.89	-43.9	-45.0	26.7	6.03e-01	0	43	0	15728640	59	4087
2026-01-26 02:54:18.97	354.76	55.25	-43.9	-45.1	26.7	6.01e-01	0	43	0	17825792	59	4100
2026-01-26 02:54:19.98	354.20	55.61	-44.1	-45.2	26.6	6.05e-01	0	43	0	19398656	59	4186
2026-01-26 02:54:20.99	353.63	55.98	-44.2	-45.3	26.5	6.03e-01	0	43	0	21495808	59	4211
2026-01-26 02:54:21.99	353.04	56.34	-44.2	-45.3	26.5	6.02e-01	0	44	0	23068672	59	4206
2026-01-26 02:54:23.00	352.44	56.70	-44.7	-45.9	26.1	6.02e-01	0	43	0	25165824	59	4494
2026-01-26 02:54:24.00	351.82	57.06	-44.7	-45.9	26.0	6.04e-01	0	43	0	27262976	60	4274
2026-01-26 02:54:25.02	351.17	57.42	-44.7	-45.9	26.1	6.01e-01	0	44	0	28835840	60	4268
2026-01-26 02:54:26.02	350.52	57.78	-45.0	-46.2	25.9	6.00e-01	0	43	0	30932992	60	4394
2026-01-26 02:54:27.03	349.85	58.13	-45.1	-46.3	25.7	6.00e-01	0	44	0	32505856	60	4473
2026-01-26 02:54:28.04	349.15	58.49	-45.2	-46.4	25.6	6.02e-01	0	43	0	34603008	61	4288
2026-01-26 02:54:29.04	348.45	58.84	-45.0	-46.2	25.8	6.02e-01	0	43	0	36175872	61	4186
2026-01-26 02:54:30.05	347.71	59.19	-45.3	-46.5	25.6	6.01e-01	0	43	0	38273024	61	4303
2026-01-26 02:54:31.05	346.97	59.54	-45.7	-47.0	25.0	6.04e-01	0	43	0	40370176	62	4326
2026-01-26 02:54:32.06	346.20	59.89	-45.2	-46.4	25.6	6.02e-01	0	43	0	41943040	62	4021
2026-01-26 02:54:33.06	345.41	60.23	-45.2	-46.4	25.7	6.01e-01	0	43	0	44040192	61	4267
2026-01-26 02:54:34.07	344.59	60.57	-45.4	-46.6	25.4	6.01e-01	0	43	0	46137344	61	4382
2026-01-26 02:54:35.08	343.76	60.91	-45.7	-46.9	25.1	6.03e-01	0	43	0	47710208	61	4545
2026-01-26 02:54:36.08	342.90	61.24	-45.1	-46.3	25.9	6.02e-01	0	43	0	49807360	62	3971
2026-01-26 02:54:37.09	342.02	61.57	-46.0	-47.3	24.8	6.02e-01	0	43	0	51380224	62	4485
2026-01-26 02:54:38.10	341.11	61.90	-45.4	-46.7	25.4	6.03e-01	0	44	0	53477376	62	4155
2026-01-26 02:54:39.10	340.19	62.22	-45.5	-46.7	25.5	6.01e-01	0	43	0	55574528	62	4179
2026-01-26 02:54:40.11	339.23	62.54	-45.7	-47.0	25.2	6.02e-01	0	43	0	57147392	62	4313
2026-01-26 02:54:41.12	338.25	62.85	-46.2	-47.5	24.8	6.00e-01	0	43	0	59244544	62	4568
2026-01-26 02:54:42.12	337.25	63.15	-46.2	-47.5	24.8	6.03e-01	0	43	0	60817408	62	4557
2026-01-26 02:54:43.13	336.21	63.45	-46.8	-48.2	23.9	6.04e-01	0	43	0	62914560	64	4421
2026-01-26 02:54:44.14	335.15	63.74	-46.8	-48.2	24.1	6.00e-01	0	43	0	64487424	64	4414
2026-01-26 02:54:45.15	334.06	64.03	-46.5	-47.9	24.3	6.04e-01	0	43	0	66584576	64	4246
2026-01-26 02:54:46.15	332.96	64.30	-46.9	-48.3	24.0	6.02e-01	0	43	0	68681728	64	4469
2026-01-26 02:54:47.16	331.82	64.57	-46.6	-48.0	24.2	6.01e-01	0	43	0	70254592	64	4301
2026-01-26 02:54:48.17	330.65	64.83	-46.9	-48.3	23.9	6.02e-01	0	43	0	72351744	64	4489
2026-01-26 02:54:49.18	329.45	65.09	-47.0	-48.4	23.8	6.01e-01	0	43	0	74448896	64	4541
2026-01-26 02:54:50.18	328.24	65.33	-46.9	-48.3	23.9	6.02e-01	0	43	0	76021760	65	4233
2026-01-26 02:54:51.19	326.99	65.56	-47.4	-49.0	23.3	6.01e-01	0	43	0	78118912	65	4547
2026-01-26 02:54:52.20	325.71	65.79	-47.4	-48.9	23.4	6.01e-01	0	43	0	79691776	66	4249
2026-01-26 02:54:53.21	324.41	66.00	-47.6	-49.1	23.3	6.01e-01	0	43	0	81788928	66	4361
2026-01-26 02:54:54.21	323.10	66.20	-48.1	-49.7	22.7	6.00e-01	0	43	0	83886080	66	4705
2026-01-26 02:54:55.22	321.74	66.39	-47.6	-49.1	23.1	6.03e-01	0	43	0	85458944	66	4390
2026-01-26 02:54:56.23	320.37	66.57	-48.1	-49.8	22.6	6.02e-01	0	43	0	87556096	66	4715
2026-01-26 02:54:57.23	318.98	66.74	-47.8	-49.4	22.9	6.02e-01	0	43	0	89128960	67	4246
2026-01-26 02:54:58.24	317.56	66.90	-47.9	-49.5	22.9	6.02e-01	0	43	0	91226112	67	4312
2026-01-26 02:54:59.25	316.12	67.04	-48.2	-49.8	22.5	6.02e-01	0	43	0	92798976	67	4481
2026-01-26 02:55:00.26	314.66	67.17	-47.9	-49.4	22.9	6.00e-01	0	43	0	94896128	67	4273
2026-01-26 02:55:01.26	313.20	67.28	-48.1	-49.7	22.8	6.02e-01	0	43	0	96993280	67	4418
2026-01-26 02:55:02.27	311.71	67.39	-47.9	-49.5	22.8	6.01e-01	0	43	0	98566144	67	4307
2026-01-26 02:55:03.28	310.20	67.47	-48.1	-49.7	22.7	5.99e-01	0	43	0	100663296	67	4439
2026-01-26 02:55:04.29	308.68	67.55	-47.7	-49.2	23.2	6.00e-01	0	44	0	102760448	67	4166
2026-01-26 02:55:05.29	307.17	67.61	-48.4	-50.1	22.3	5.99e-01	0	43	0	104333312	67	4602
2026-01-26 02:55:06.30	305.63	67.65	-47.8	-49.4	22.9	6.02e-01	0	44	0	106430464	67	4247
2026-01-26 02:55:07.31	304.09	67.68	-48.7	-50.5	21.8	6.00e-01	0	44	0	108003328	68	4578
2026-01-26 02:55:08.31	302.56	67.70	-48.0	-49.6	22.7	6.01e-01	0	43	0	110100480	68	4131
2026-01-26 02:55:09.32	301.02	67.70	-48.2	-49.9	22.6	6.03e-01	0	43	0	112197632	67	4517
2026-01-26 02:55:10.32	299.49	67.68	-48.9	-50.7	21.5	6.01e-01	0	43	0	113770496	68	4700
2026-01-26 02:55:11.33	297.94	67.65	-48.4	-50.0	22.3	6.02e-01	0	43	0	115867648	68	4333
2026-01-26 02:55:12.34	296.41	67.61	-48.5	-50.2	22.1	6.01e-01	0	43	0	117440512	68	4405
2026-01-26 02:55:13.35	294.88	67.55	-48.6	-50.3	21.9	6.02e-01	0	43	0	119537664	68	4484
2026-01-26 02:55:14.36	293.36	67.47	-48.1	-49.6	22.8	6.03e-01	0	43	0	121110528	67	4380
2026-01-26 02:55:15.36	291.87	67.39	-48.6	-50.3	22.0	6.00e-01	0	43	0	123207680	68	4458
2026-01-26 02:55:16.37	290.38	67.29	-48.1	-49.7	22.6	6.02e-01	0	44	0	125304832	68	4170
2026-01-26 02:55:17.38	288.90	67.17	-48.5	-50.2	22.2	6.03e-01	0	44	0	126877696	68	4399
2026-01-26 02:55:18.38	287.45	67.04	-48.3	-50.0	22.4	6.03e-01	0	43	0	128974848	68	4314
2026-01-26 02:55:19.39	286.01	66.90	-48.8	-50.6	21.8	6.01e-01	0	43	0	131072000	68	4635
2026-01-26 02:55:20.39	284.60	66.75	-48.7	-50.5	21.8	6.00e-01	0	43	0	132644864	68	4559
2026-01-26 02:55:21.40	283.20	66.58	-49.2	-51.1	21.2	6.02e-01	0	44	0	134742016	69	4637
2026-01-26 02:55:22.40	281.84	66.40	-49.0	-50.8	21.5	6.02e-01	0	44	0	136314880	69	4492
2026-01-26 02:55:23.40	280.50	66.21	-49.1	-51.0	21.4	6.01e-01	0	43	0	138412032	69	4572
2026-01-26 02:55:24.41	279.17	66.01	-49.5	-51.5	20.8	6.00e-01	0	43	0	140509184	69	4849
2026-01-26 02:55:25.42	277.87	65.79	-49.0	-50.8	21.4	6.04e-01	0	43	0	142082048	69	4488
2026-01-26 02:55:26.42	276.60	65.57	-48.9	-50.7	21.7	6.00e-01	0	43	0	144179200	69	4428
2026-01-26 02:55:27.43	275.35	65.34	-49.6	-51.6	20.8	6.05e-01	0	43	0	145752064	70	4620
2026-01-26 02:55:28.43	274.13	65.09	-48.4	-50.1	22.1	6.02e-01	0	43	0	147849216	68	4383
2026-01-26 02:55:29.44	272.94	64.84	-48.0	-49.6	22.8	5.99e-01	0	43	0	149422080	67	4352
2026-01-26 02:55:30.45	271.76	64.58	-48.1	-49.7	22.7	6.01e-01	0	43	0	151519232	67	4394
2026-01-26 02:55:31.45	270.63	64.31	-48.4	-50.1	22.3	5.99e-01	0	43	0	153616384	67	4636
2026-01-26 02:55:32.46	269.51	64.03	-47.6	-49.2	23.1	6.04e-01	0	43	0	155189248	67	4149
2026-01-26 02:55:33.47	268.42	63.75	-47.6	-49.1	23.2	6.06e-01	0	43	0	157286400	67	4124
2026-01-26 02:55:34.47	267.37	63.46	-47.5	-49.1	23.3	6.00e-01	0	43	0	159383552	66	4343
2026-01-26 02:55:35.48	266.33	63.16	-47.6	-49.1	23.2	6.01e-01	0	43	0	160956416	66	4374
2026-01-26 02:55:36.48	265.33	62.86	-47.0	-48.4	23.9	6.02e-01	0	43	0	163053568	66	4026
2026-01-26 02:55:37.49	264.35	62.55	-47.6	-49.2	23.2	6.01e-01	0	43	0	164626432	66	4409
2026-01-26 02:55:38.50	263.39	62.23	-47.4	-48.8	23.4	6.00e-01	0	43	0	166723584	66	4233
2026-01-26 02:55:39.51	262.45	61.91	-47.5	-49.0	23.4	6.03e-01	0	43	0	168820736	66	4322
2026-01-26 02:55:40.51	261.55	61.58	-47.1	-48.5	23.8	6.01e-01	0	43	0	170393600	66	4077
2026-01-26 02:55:41.52	260.67	61.25	-47.4	-48.9	23.5	6.02e-01	0	44	0	172490752	66	4257
2026-01-26 02:55:42.53	259.80	60.92	-47.3	-48.8	23.4	5.99e-01	0	43	0	174063616	66	4241
2026-01-26 02:55:43.53	258.97	60.58	-46.0	-47.2	24.9	6.02e-01	0	43	0	176160768	63	4179
2026-01-26 02:55:44.53	258.16	60.24	-45.9	-47.2	25.1	6.04e-01	0	44	0	177733632	63	4159
2026-01-26 02:55:45.54	257.37	59.90	-46.1	-47.4	24.8	6.01e-01	0	43	0	179830784	63	4280
2026-01-26 02:55:46.55	256.59	59.55	-45.9	-47.2	25.2	6.03e-01	0	43	0	181927936	63	4153
2026-01-26 02:55:47.55	255.85	59.20	-45.9	-47.2	25.1	6.02e-01	0	43	0	183500800	63	4152
2026-01-26 02:55:48.56	255.11	58.85	-45.4	-46.6	25.6	6.01e-01	0	44	0	185597952	62	4124
2026-01-26 02:55:49.56	254.40	58.50	-45.5	-46.7	25.5	6.05e-01	0	43	0	187170816	62	4193
2026-01-26 02:55:50.57	253.71	58.14	-45.7	-47.0	25.2	6.02e-01	0	43	0	189267968	62	4323
2026-01-26 02:55:51.58	253.03	57.78	-45.1	-46.3	25.7	6.02e-01	0	43	0	191365120	62	4001
2026-01-26 02:55:52.58	252.38	57.42	-44.6	-45.7	26.2	6.04e-01	0	43	0	192937984	61	3949
2026-01-26 02:55:53.59	251.74	57.06	-45.0	-46.2	25.9	6.02e-01	0	44	0	195035136	60	4402
2026-01-26 02:55:54.59	251.12	56.70	-45.3	-46.5	25.6	6.01e-01	0	43	0	197132288	61	4309
2026-01-26 02:55:55.60	250.51	56.34	-44.9	-46.1	26.0	6.03e-01	0	43	0	198705152	61	4130
2026-01-26 02:55:56.61	249.92	55.98	-44.1	-45.2	26.7	6.03e-01	0	43	0	200802304	59	4169
2026-01-26 02:55:57.62	249.34	55.61	-43.8	-44.9	26.9	6.04e-01	0	43	0	202375168	59	4020
2026-01-26 02:55:58.63	248.78	55.25	-44.8	-46.0	26.2	6.03e-01	0	43	0	204472320	60	4320
2026-01-26 02:55:59.64	248.23	54.88	-43.8	-44.9	26.8	6.04e-01	0	43	0	206045184	59	4029
2026-01-26 02:56:00.64	247.70	54.52	-43.6	-44.7	27.2	6.02e-01	0	43	0	208142336	59	3937
2026-01-26 02:56:01.65	247.18	54.16	-43.7	-44.8	27.1	6.02e-01	0	43	0	210239488	59	3997
2026-01-26 02:56:02.66	246.68	53.80	-43.6	-44.7	27.2	6.02e-01	0	43	0	211812352	59	3937
2026-01-26 02:56:03.67	246.18	53.43	-43.5	-44.6	27.2	6.02e-01	0	43	0	213909504	58	4108
2026-01-26 02:56:04.67	245.70	53.07	-43.9	-45.0	26.9	6.03e-01	0	43	0	216006656	58	4309
2026-01-26 02:56:05.68	245.23	52.71	-43.6	-44.7	27.1	6.01e-01	0	43	0	217579520	58	4169
2026-01-26 02:56:06.68	244.78	52.35	-43.5	-44.6	27.3	6.02e-01	0	43	0	219676672	58	4121
2026-01-26 02:56:07.69	244.33	51.99	-43.9	-45.0	26.9	6.02e-01	0	43	0	221249536	58	4331
2026-01-26 02:56:08.70	243.90	51.63	-43.6	-44.6	27.1	6.04e-01	0	43	0	223346688	58	4134
2026-01-26 02:56:09.71	243.47	51.28	-43.6	-44.7	27.1	6.03e-01	0	43	0	225443840	58	4156
2026-01-26 02:56:10.71	243.06	50.92	-43.9	-45.0	26.8	6.01e-01	0	43	0	227016704	58	4332
2026-01-26 02:56:11.72	242.65	50.57	-43.7	-44.8	27.0	6.01e-01	0	43	0	229113856	58	4199
2026-01-26 02:56:12.72	242.26	50.22	-43.8	-44.9	27.0	6.02e-01	0	43	0	230686720	58	4255
2026-01-26 02:56:13.73	241.87	49.86	-44.4	-45.5	26.4	6.05e-01	0	43	0	232783872	59	4333
2026-01-26 02:56:14.74	241.50	49.51	-44.4	-45.6	26.3	6.00e-01	0	43	0	234356736	59	4357
2026-01-26 02:56:15.75	241.13	49.16	-44.4	-45.5	26.2	6.04e-01	0	43	0	236453888	59	4340
2026-01-26 02:56:16.76	240.77	48.81	-44.2	-45.3	26.5	6.01e-01	0	43	0	238551040	59	4239
2026-01-26 02:56:17.76	240.42	48.47	-44.0	-45.1	26.5	6.03e-01	0	43	0	240123904	59	4143
2026-01-26 02:56:18.76	240.08	48.13	-44.1	-45.2	26.6	6.02e-01	0	43	0	242221056	59	4159
2026-01-26 02:56:19.77	239.74	47.79	-44.3	-45.5	26.4	6.02e-01	0	43	0	244318208	59	4299
2026-01-26 02:56:20.78	239.41	47.45	-44.5	-45.6	26.1	6.01e-01	0	43	0	245891072	59	4381
2026-01-26 02:56:21.79	239.09	47.11	-44.4	-45.5	26.2	6.02e-01	0	43	0	247988224	59	4335
2026-01-26 02:56:22.79	238.77	46.77	-44.2	-45.3	26.4	6.02e-01	0	43	0	249561088	59	4209
2026-01-26 02:56:23.80	238.47	46.44	-44.2	-45.3	26.4	6.01e-01	0	43	0	251658240	59	4216
2026-01-26 02:56:24.80	238.17	46.10	-44.0	-45.1	26.5	6.03e-01	0	43	0	253755392	59	4135
2026-01-26 02:56:25.81	237.87	45.77	-44.1	-45.2	26.5	6.00e-01	0	43	0	255328256	59	4158
2026-01-26 02:56:26.82	237.58	45.44	-44.4	-45.6	26.1	6.02e-01	0	43	0	257425408	59	4365
2026-01-26 02:56:27.83	237.30	45.12	-44.3	-45.4	26.3	6.01e-01	0	43	0	258998272	59	4287
2026-01-26 02:56:28.84	237.02	44.79	-44.3	-45.4	26.2	6.03e-01	0	43	0	261095424	59	4281
2026-01-26 02:56:29.85	236.75	44.47	-44.1	-45.2	26.4	6.03e-01	0	43	0	262668288	59	4148
2026-01-26 02:56:30.85	236.49	44.15	-44.1	-45.2	26.4	6.02e-01	0	43	0	264765440	59	4189
2026-01-26 02:56:31.86	236.23	43.83	-44.0	-45.1	26.5	6.02e-01	0	43	0	266862592	59	4134
2026-01-26 02:56:32.87	235.97	43.51	-44.3	-45.4	26.3	6.02e-01	0	43	0	268435456	59	4257
2026-01-26 02:56:33.87	235.72	43.20	-44.5	-45.6	26.1	6.03e-01	0	43	0	270532608	59	4369
2026-01-26 02:56:34.88	235.48	42.88	-44.7	-45.9	25.8	6.01e-01	0	43	0	272629760	59	4502
2026-01-26 02:56:35.89	235.24	42.57	-44.9	-46.1	25.7	6.00e-01	0	43	0	274202624	60	4355
2026-01-26 02:56:36.89	235.01	42.27	-45.0	-46.2	25.6	6.03e-01	0	43	0	276299776	60	4432
2026-01-26 02:56:37.90	234.78	41.96	-45.1	-46.3	24.6	6.02e-01	0	43	0	277872640	60	4476
2026-01-26 02:56:38.90	234.55	41.66	-44.9	-46.0	25.7	6.04e-01	0	43	0	279969792	60	4325
2026-01-26 02:56:39.91	234.33	41.36	-45.0	-46.2	25.5	6.02e-01	0	43	0	282066944	60	4429
2026-01-26 02:56:40.92	234.11	41.06	-45.8	-47.1	25.0	6.03e-01	0	43	0	283639808	62	4364
2026-01-26 02:56:41.93	233.90	40.76	-45.9	-47.2	24.6	6.02e-01	0	44	0	285736960	62	4424
2026-01-26 02:56:42.94	233.69	40.46	-45.8	-47.1	24.9	6.00e-01	0	43	0	287309824	62	4348
2026-01-26 02:56:43.95	233.48	40.17	-45.6	-46.9	25.1	6.02e-01	0	43	0	289406976	62	4249
2026-01-26 02:56:44.95	233.28	39.88	-46.0	-47.3	24.7	6.01e-01	0	43	0	290979840	62	4459
2026-01-26 02:56:45.96	233.08	39.59	-46.1	-47.4	24.5	6.00e-01	0	43	0	293076992	62	4538
2026-01-26 02:56:46.97	232.89	39.30	-46.1	-47.4	24.5	6.01e-01	0	43	0	295174144	62	4539
2026-01-26 02:56:47.98	232.70	39.01	-46.0	-47.3	24.6	6.04e-01	0	44	0	296747008	62	4482
2026-01-26 02:56:48.98	232.51	38.73	-46.5	-47.9	24.1	6.04e-01	0	43	0	298844160	63	4504
2026-01-26 02:56:49.99	232.33	38.45	-46.2	-47.6	24.4	6.00e-01	0	43	0	300941312	63	4362
2026-01-26 02:56:50.99	232.15	38.18	-46.3	-47.6	24.4	6.01e-01	0	43	0	302514176	63	4383
2026-01-26 02:56:52.00	231.97	37.90	-46.1	-47.4	24.5	6.02e-01	0	43	0	304611328	63	4270
2026-01-26 02:56:53.01	231.79	37.62	-46.1	-47.4	24.6	6.02e-01	0	43	0	306184192	63	4251
2026-01-26 02:56:54.01	231.62	37.35	-45.9	-47.2	24.7	6.00e-01	0	44	0	308281344	63	4155
2026-01-26 02:56:55.02	231.45	37.08	-45.6	-46.9	25.0	6.04e-01	0	43	0	310378496	63	4028
2026-01-26 02:56:56.03	231.29	36.81	-45.8	-47.1	24.8	6.02e-01	0	43	0	311951360	63	4099
2026-01-26 02:56:57.03	231.13	36.55	-46.0	-47.4	24.6	6.04e-01	0	43	0	314048512	63	4248
2026-01-26 02:56:58.04	230.97	36.29	-46.0	-47.4	24.5	6.00e-01	0	43	0	315621376	63	4266
2026-01-26 02:56:59.05	230.81	36.02	-45.9	-47.2	24.7	5.99e-01	0	44	0	317718528	63	4179
2026-01-26 02:57:00.05	230.65	35.76	-45.7	-46.9	25.0	6.02e-01	0	43	0	319291392	63	4038
2026-01-26 02:57:01.06	230.50	35.51	-45.7	-47.0	25.0	6.00e-01	0	43	0	321388544	63	4057
2026-01-26 02:57:02.07	230.35	35.25	-45.3	-46.5	25.4	6.02e-01	0	43	0	323485696	62	4079
2026-01-26 02:57:03.07	230.21	35.00	-45.0	-46.2	25.6	6.01e-01	0	43	0	325058560	62	3958
2026-01-26 02:57:04.08	230.06	34.74	-44.9	-46.0	25.8	6.04e-01	0	43	0	327155712	61	4095
2026-01-26 02:57:05.09	229.92	34.49	-44.8	-46.0	25.9	6.04e-01	0	43	0	329252864	61	4056
2026-01-26 02:57:06.09	229.78	34.25	-44.7	-45.9	26.0	6.04e-01	0	44	0	330825728	61	4026
2026-01-26 02:57:07.10	229.64	34.00	-44.7	-45.9	25.9	6.01e-01	0	43	0	332922880	61	4042
2026-01-26 02:57:08.10	229.50	33.76	-44.8	-46.0	26.0	6.03e-01	0	43	0	334495744	61	4054
2026-01-26 02:57:09.11	229.37	33.51	-44.5	-45.7	26.1	6.03e-01	0	43	0	336592896	61	3932
2026-01-26 02:57:10.12	229.24	33.27	-44.2	-45.4	26.4	6.00e-01	0	43	0	338690048	60	4015
2026-01-26 02:57:11.13	229.11	33.03	-44.1	-45.2	26.6	6.05e-01	0	44	0	340262912	60	3948
2026-01-26 02:57:12.14	228.98	32.79	-44.2	-45.3	26.4	6.05e-01	0	43	0	342360064	60	3988
2026-01-26 02:57:13.15	228.85	32.56	-44.2	-45.4	26.4	6.05e-01	0	43	0	343932928	60	4010
2026-01-26 02:57:14.15	228.73	32.33	-44.0	-45.2	26.4	6.02e-01	0	43	0	346030080	59	4156
2026-01-26 02:57:15.16	228.61	32.09	-44.0	-45.1	26.4	6.04e-01	0	43	0	347602944	59	4145
2026-01-26 02:57:16.17	228.49	31.86	-43.9	-45.0	26.6	6.02e-01	0	43	0	349700096	59	4065
2026-01-26 02:57:17.17	228.37	31.64	-43.9	-45.0	26.6	6.04e-01	0	43	0	351797248	59	4078
2026-01-26 02:57:18.17	228.25	31.41	-43.9	-45.0	26.6	6.00e-01	0	43	0	353370112	59	4096
2026-01-26 02:57:19.18	228.14	31.19	-43.8	-44.9	26.7	6.04e-01	0	43	0	355467264	59	4044
2026-01-26 02:57:20.19	228.02	30.96	-43.8	-44.9	26.6	6.02e-01	0	43	0	357564416	59	4042
2026-01-26 02:57:21.20	227.91	30.74	-43.9	-45.0	26.6	6.03e-01	0	43	0	359137280	59	4091
2026-01-26 02:57:22.20	227.80	30.52	-44.0	-45.2	26.4	6.01e-01	0	43	0	361234432	59	4151
2026-01-26 02:57:23.21	227.69	30.30	-44.0	-45.1	26.5	6.02e-01	0	43	0	362807296	59	4118
2026-01-26 02:57:24.21	227.59	30.09	-44.0	-45.1	26.5	6.01e-01	0	43	0	364904448	59	4131
2026-01-26 02:57:25.22	227.48	29.87	-44.0	-45.1	26.5	6.01e-01	0	43	0	367001600	59	4142
2026-01-26 02:57:26.23	227.38	29.66	-43.9	-45.1	25.5	6.02e-01	0	43	0	368574464	59	4100
2026-01-26 02:57:27.23	227.27	29.45	-43.9	-45.1	26.5	6.00e-01	0	43	0	370671616	59	4108
2026-01-26 02:57:28.24	227.17	29.24	-43.9	-45.1	26.4	6.03e-01	0	43	0	372244480	59	4101
2026-01-26 02:57:29.25	227.07	29.03	-44.0	-45.1	26.3	6.06e-01	0	43	0	374341632	59	4140
2026-01-26 02:57:30.26	226.97	28.82	-43.9	-45.1	26.4	6.01e-01	0	44	0	375914496	59	4104
2026-01-26 02:57:31.26	226.88	28.62	-44.0	-45.1	26.4	6.02e-01	0	43	0	378011648	59	4129
2026-01-26 02:57:32.27	226.78	28.41	-43.9	-45.0	26.5	6.03e-01	0	44	0	380108800	59	4080
2026-01-26 02:57:33.27	226.69	28.21	-43.9	-45.0	26.5	6.01e-01	0	43	0	381681664	59	4084
2026-01-26 02:57:34.28	226.59	28.01	-44.0	-45.1	26.4	6.01e-01	0	43	0	383778816	59	4122
2026-01-26 02:57:35.28	226.50	27.81	-44.1	-45.2	26.4	6.03e-01	0	43	0	385875968	59	4177
2026-01-26 02:57:36.29	226.41	27.61	-44.2	-45.4	26.2	6.02e-01	0	44	0	387448832	59	4246
2026-01-26 02:57:37.30	226.32	27.42	-44.1	-45.3	26.2	6.01e-01	0	43	0	389545984	59	4213
2026-01-26 02:57:38.31	226.23	27.22	-44.2	-45.3	26.1	6.04e-01	0	43	0	391118848	59	4242
2026-01-26 02:57:39.31	226.15	27.03	-44.1	-45.2	26.3	6.02e-01	0	43	0	393216000	59	4175
2026-01-26 02:57:40.32	226.06	26.84	-44.1	-45.2	26.2	6.02e-01	0	43	0	395313152	59	4189
2026-01-26 02:57:41.32	225.98	26.65	-44.1	-45.2	26.3	6.01e-01	0	43	0	396886016	59	4157
2026-01-26 02:57:42.33	225.89	26.46	-44.1	-45.3	26.2	6.02e-01	0	43	0	398983168	59	4200
2026-01-26 02:57:43.34	225.81	26.27	-44.3	-45.4	26.1	6.01e-01	0	43	0	400556032	59	4275
2026-01-26 02:57:44.35	225.73	26.08	-44.3	-45.5	26.0	6.03e-01	0	43	0	402653184	59	4307
2026-01-26 02:57:45.35	225.65	25.90	-44.5	-45.7	25.8	6.02e-01	0	43	0	404226048	59	4402
2026-01-26 02:57:46.35	225.57	25.71	-44.5	-45.7	25.7	6.04e-01	0	44	0	406323200	59	4437
2026-01-26 02:57:47.36	225.49	25.53	-44.6	-45.8	25.6	6.01e-01	0	43	0	408420352	59	4487
2026-01-26 02:57:48.37	225.41	25.35	-44.6	-45.8	25.7	6.04e-01	0	43	0	409993216	59	4476
2026-01-26 02:57:49.37	225.33	25.17	-44.6	-45.8	25.6	6.04e-01	0	43	0	412090368	59	4469
2026-01-26 02:57:50.38	225.26	24.99	-44.6	-45.8	25.6	6.00e-01	0	43	0	414187520	59	4481
2026-01-26 02:57:51.39	225.18	24.81	-44.6	-45.9	25.6	6.02e-01	0	44	0	415760384	59	4498
2026-01-26 02:57:52.39	225.11	24.64	-44.6	-45.8	25.7	6.00e-01	0	43	0	417857536	59	4465
2026-01-26 02:57:53.40	225.04	24.46	-44.6	-45.8	25.6	6.02e-01	0	43	0	419430400	59	4465
2026-01-26 02:57:54.41	224.96	24.29	-44.6	-45.9	25.6	6.03e-01	0	44	0	421527552	59	4494
2026-01-26 02:57:55.41	224.89	24.11	-44.7	-45.9	25.5	6.02e-01	0	43	0	423624704	59	4536
2026-01-26 02:57:56.42	224.82	23.94	-44.6	-45.8	25.7	5.99e-01	0	43	0	425197568	60	4221
2026-01-26 02:57:57.42	224.75	23.77	-44.4	-45.6	25.6	6.02e-01	0	44	0	427294720	60	4130
2026-01-26 02:57:58.43	224.68	23.60	-44.5	-45.7	25.9	6.02e-01	0	44	0	428867584	60	4153
2026-01-26 02:57:59.44	224.61	23.43	-44.3	-45.5	26.1	6.04e-01	0	43	0	430964736	60	4063
2026-01-26 02:58:00.44	224.55	23.27	-44.4	-45.6	26.0	6.03e-01	0	43	0	432537600	60	4108
2026-01-26 02:58:01.45	224.48	23.10	-44.3	-45.5	26.0	6.02e-01	0	43	0	434634752	60	4076
2026-01-26 02:58:02.46	224.42	22.94	-44.4	-45.5	26.0	6.01e-01	0	43	0	436731904	60	4087
2026-01-26 02:58:03.46	224.35	22.77	-44.4	-45.6	26.0	6.01e-01	0	43	0	438304768	60	4117
2026-01-26 02:58:04.46	224.29	22.61	-44.5	-45.7	25.8	6.03e-01	0	44	0	440401920	60	4177
2026-01-26 02:58:05.47	224.22	22.45	-44.6	-45.8	25.8	6.01e-01	0	43	0	442499072	60	4202
2026-01-26 02:58:06.48	224.16	22.29	-44.6	-45.8	25.8	6.01e-01	0	43	0	444071936	60	4217
2026-01-26 02:58:07.48	224.10	22.13	-44.6	-45.9	25.7	6.00e-01	0	43	0	446169088	60	4243
2026-01-26 02:58:08.49	224.04	21.97	-44.6	-45.9	25.7	6.03e-01	0	43	0	447741952	60	4256
2026-01-26 02:58:09.49	223.98	21.81	-44.6	-45.9	25.7	6.02e-01	0	43	0	449839104	60	4247
2026-01-26 02:58:10.50	223.92	21.66	-44.6	-45.9	25.6	6.03e-01	0	44	0	451936256	60	4253
2026-01-26 02:58:11.51	223.86	21.50	-44.6	-45.8	25.7	6.02e-01	0	43	0	453509120	60	4217
2026-01-26 02:58:12.51	223.80	21.35	-44.5	-45.7	25.8	6.03e-01	0	43	0	455606272	60	4174
2026-01-26 02:58:13.52	223.74	21.19	-44.4	-45.5	25.9	6.04e-01	0	43	0	457179136	60	4096
2026-01-26 02:58:14.53	223.68	21.04	-44.3	-45.5	25.9	6.01e-01	0	44	0	459276288	60	4083
2026-01-26 02:58:15.54	223.63	20.89	-44.3	-45.5	26.0	6.01e-01	0	44	0	460849152	60	4073
2026-01-26 02:58:16.54	223.57	20.74	-44.4	-45.5	26.0	6.02e-01	0	43	0	462946304	60	4086
2026-01-26 02:58:17.54	223.51	20.59	-44.3	-45.5	26.0	6.01e-01	0	43	0	465043456	60	4079
2026-01-26 02:58:18.55	223.46	20.44	-44.4	-45.5	25.9	6.01e-01	0	44	0	466616320	60	4086
2026-01-26 02:58:19.56	223.41	20.29	-44.4	-45.5	25.9	6.00e-01	0	44	0	468713472	60	4092
2026-01-26 02:58:20.57	223.35	20.15	-44.5	-45.7	25.8	6.02e-01	0	43	0	470810624	60	4147
2026-01-26 02:58:21.57	223.30	20.00	-44.4	-45.6	25.8	6.02e-01	0	43	0	472383488	60	4136
2026-01-26 02:58:22.58	223.25	19.86	-44.5	-45.7	25.8	6.03e-01	0	44	0	474480640	60	4149
2026-01-26 02:58:23.59	223.19	19.71	-44.4	-45.6	25.8	6.00e-01	0	43	0	476053504	60	4125
2026-01-26 02:58:24.59	223.14	19.57	-44.4	-45.6	25.8	6.05e-01	0	44	0	478150656	60	4130
2026-01-26 02:58:25.60	223.09	19.43	-44.4	-45.6	25.8	6.02e-01	0	43	0	480247808	60	4101
2026-01-26 02:58:26.60	223.04	19.29	-44.4	-45.7	25.7	5.99e-01	0	43	0	481820672	60	4147
2026-01-26 02:58:27.61	222.99	19.14	-44.3	-45.5	25.8	6.00e-01	0	43	0	483917824	60	4090
2026-01-26 02:58:28.61	222.94	19.01	-44.4	-45.6	25.8	6.01e-01	0	44	0	485490688	60	4124
2026-01-26 02:58:29.62	222.89	18.87	-44.2	-45.4	26.0	6.03e-01	0	44	0	487587840	60	4039
2026-01-26 02:58:30.62	222.84	18.73	-44.3	-45.5	25.9	6.03e-01	0	43	0	489160704	60	4063
2026-01-26 02:58:31.63	222.80	18.59	-44.3	-45.5	25.9	6.03e-01	0	43	0	491257856	60	4063
2026-01-26 02:58:32.64	222.75	18.45	-44.3	-45.5	25.8	6.00e-01	0	43	0	493355008	60	4073
2026-01-26 02:58:33.65	222.70	18.32	-44.4	-45.6	25.8	6.02e-01	0	43	0	494927872	60	4099
2026-01-26 02:58:34.65	222.65	18.18	-44.3	-45.5	25.8	6.05e-01	0	44	0	497025024	60	4083
2026-01-26 02:58:35.66	222.61	18.05	-44.4	-45.6	25.8	6.03e-01	0	43	0	498597888	60	4115
2026-01-26 02:58:36.66	222.56	17.92	-44.3	-45.5	25.8	6.03e-01	0	43	0	500695040	60	4094
2026-01-26 02:58:37.67	222.52	17.78	-44.4	-45.6	25.8	6.04e-01	0	43	0	502792192	60	4104
2026-01-26 02:58:38.68	222.47	17.65	-44.3	-45.5	25.8	6.02e-01	0	43	0	504365056	60	4089
2026-01-26 02:58:39.69	222.43	17.52	-44.4	-45.6	25.8	6.02e-01	0	44	0	506462208	60	4113
2026-01-26 02:58:40.69	222.38	17.39	-44.4	-45.6	25.7	6.03e-01	0	44	0	508559360	60	4134
2026-01-26 02:58:41.70	222.34	17.26	-44.4	-45.6	25.8	6.05e-01	0	44	0	510132224	60	4109
2026-01-26 02:58:42.71	222.30	17.13	-44.4	-45.7	25.7	6.02e-01	0	44	0	512229376	60	4151
2026-01-26 02:58:43.72	222.26	17.00	-44.4	-45.6	25.7	6.03e-01	0	43	0	513802240	60	4143
2026-01-26 02:58:44.72	222.21	16.88	-44.4	-45.6	25.7	6.01e-01	0	43	0	515899392	60	4136
2026-01-26 02:58:45.73	222.17	16.75	-44.4	-45.7	25.7	6.00e-01	0	43	0	517472256	60	4155
2026-01-26 02:58:46.74	222.13	16.62	-44.4	-45.7	25.7	6.03e-01	0	43	0	519569408	60	4148
2026-01-26 02:58:47.75	222.09	16.50	-44.5	-45.7	25.6	6.02e-01	0	43	0	521666560	60	4183
2026-01-26 02:58:48.75	222.05	16.37	-44.5	-45.7	25.6	6.03e-01	0	44	0	523239424	60	4186
2026-01-26 02:58:49.76	222.01	16.25	-44.6	-45.8	25.6	6.04e-01	0	44	0	525336576	60	4212
2026-01-26 02:58:50.76	221.97	16.13	-44.4	-45.6	25.7	6.02e-01	0	43	0	526909440	60	4122
2026-01-26 02:58:51.77	221.93	16.01	-44.4	-45.6	25.7	6.01e-01	0	44	0	529006592	60	4126
2026-01-26 02:58:52.77	221.89	15.88	-44.5	-45.8	25.5	6.04e-01	0	43	0	531103744	60	4203
2026-01-26 02:58:53.78	221.85	15.76	-44.6	-45.8	25.5	6.01e-01	0	44	0	532676608	60	4240
2026-01-26 02:58:54.79	221.81	15.64	-44.5	-45.7	25.6	6.00e-01	0	43	0	534773760	60	4193
2026-01-26 02:58:55.80	221.77	15.52	-44.4	-45.6	25.7	6.02e-01	0	43	0	536870912	60	4120
2026-01-26 02:58:56.80	221.74	15.40	-44.4	-45.6	25.6	6.03e-01	0	44	0	538443776	60	4145
2026-01-26 02:58:57.81	221.70	15.28	-44.5	-45.7	25.6	6.04e-01	0	43	0	540540928	60	4189
2026-01-26 02:58:58.82	221.66	15.17	-44.6	-45.8	25.4	6.01e-01	0	43	0	542113792	60	4234
2026-01-26 02:58:59.83	221.63	15.05	-44.4	-45.6	25.6	6.00e-01	0	43	0	544210944	60	4144
2026-01-26 02:59:00.84	221.59	14.93	-44.4	-45.6	25.7	6.02e-01	0	43	0	545783808	60	4121
2026-01-26 02:59:01.84	221.55	14.82	-44.4	-45.6	25.6	6.03e-01	0	43	0	547880960	60	4141
2026-01-26 02:59:02.85	221.52	14.70	-44.3	-45.5	25.7	6.02e-01	0	43	0	549978112	60	4082
2026-01-26 02:59:03.86	221.48	14.58	-44.4	-45.6	25.7	6.03e-01	0	43	0	551550976	60	4120
2026-01-26 02:59:04.87	221.45	14.47	-44.5	-45.7	25.5	6.06e-01	0	43	0	553648128	60	4173
2026-01-26 02:59:05.87	221.41	14.36	-44.5	-45.7	25.5	6.02e-01	0	43	0	555745280	60	4171
2026-01-26 02:59:06.88	221.38	14.24	-44.4	-45.6	25.6	6.01e-01	0	43	0	557318144	60	4126
2026-01-26 02:59:07.89	221.34	14.13	-44.4	-45.6	25.6	6.02e-01	0	43	0	559415296	60	4131
2026-01-26 02:59:08.90	221.31	14.02	-44.4	-45.7	25.6	6.02e-01	0	43	0	560988160	60	4149
2026-01-26 02:59:09.91	221.28	13.90	-44.4	-45.6	25.6	6.04e-01	0	43	0	563085312	60	4119
2026-01-26 02:59:10.91	221.24	13.79	-44.4	-45.6	25.6	6.01e-01	0	43	0	565182464	60	4135
2026-01-26 02:59:11.92	221.21	13.68	-44.4	-45.6	25.5	6.01e-01	0	43	0	566755328	60	4111
2026-01-26 02:59:12.92	221.18	13.57	-44.3	-45.5	25.6	6.03e-01	0	44	0	568852480	60	4074
2026-01-26 02:59:13.93	221.15	13.46	-44.1	-45.3	25.8	6.03e-01	0	43	0	570425344	60	3987
2026-01-26 02:59:14.93	221.11	13.36	-44.3	-45.5	25.7	6.02e-01	0	43	0	572522496	60	4055
2026-01-26 02:59:15.94	221.08	13.25	-44.2	-45.4	25.7	6.02e-01	0	43	0	574095360	60	4019
2026-01-26 02:59:16.95	221.05	13.14	-44.3	-45.5	25.6	6.03e-01	0	43	0	576192512	60	4091
2026-01-26 02:59:17.95	221.02	13.03	-44.3	-45.5	24.6	6.00e-01	0	43	0	578289664	60	4098
2026-01-26 02:59:18.96	220.99	12.93	-44.3	-45.5	25.7	6.00e-01	0	43	0	579862528	60	4076
2026-01-26 02:59:19.97	220.96	12.82	-44.4	-45.6	25.5	6.01e-01	0	43	0	581959680	60	4119
2026-01-26 02:59:20.98	220.93	12.71	-44.4	-45.7	25.5	6.01e-01	0	43	0	584056832	60	4147
2026-01-26 02:59:21.99	220.90	12.61	-44.4	-45.7	25.5	6.03e-01	0	43	0	585629696	60	4148
2026-01-26 02:59:22.99	220.87	12.50	-44.4	-45.6	25.6	6.01e-01	0	43	0	587726848	60	4130
2026-01-26 02:59:24.00	220.84	12.40	-44.4	-45.7	25.4	6.03e-01	0	43	0	589299712	60	4155
2026-01-26 02:59:25.01	220.81	12.30	-44.5	-45.7	25.4	6.00e-01	0	43	0	591396864	60	4186
2026-01-26 02:59:26.02	220.78	12.19	-44.5	-45.7	25.4	6.02e-01	0	43	0	593494016	60	4181
2026-01-26 02:59:27.03	220.75	12.09	-44.5	-45.7	25.5	6.02e-01	0	43	0	595066880	60	4168
2026-01-26 02:59:28.04	220.72	11.99	-44.5	-45.8	25.4	6.03e-01	0	43	0	597164032	60	4198
2026-01-26 02:59:29.04	220.69	11.88	-44.5	-45.7	25.4	6.03e-01	0	43	0	598736896	60	4171
2026-01-26 02:59:30.05	220.67	11.78	-44.6	-45.8	25.3	6.02e-01	0	43	0	600834048	60	4225
2026-01-26 02:59:31.06	220.64	11.68	-44.7	-45.9	25.2	6.00e-01	0	43	0	602406912	60	4288
2026-01-26 02:59:32.07	220.61	11.58	-44.8	-46.0	25.1	6.02e-01	0	43	0	604504064	60	4335
2026-01-26 02:59:33.07	220.58	11.48	-44.6	-45.8	25.3	6.02e-01	0	43	0	606601216	60	4238
2026-01-26 02:59:34.08	220.55	11.38	-44.6	-45.8	25.3	6.01e-01	0	43	0	608174080	60	4217
2026-01-26 02:59:35.09	220.53	11.28	-44.5	-45.8	25.3	6.02e-01	0	43	0	610271232	60	4208
2026-01-26 02:59:36.10	220.50	11.18	-44.5	-45.8	25.3	6.01e-01	0	43	0	612368384	60	4198
2026-01-26 02:59:37.10	220.47	11.08	-44.5	-45.8	25.3	6.01e-01	0	43	0	613941248	60	4208
2026-01-26 02:59:38.11	220.45	10.99	-44.7	-45.9	25.2	5.99e-01	0	43	0	616038400	60	4270
2026-01-26 02:59:39.12	220.42	10.89	-44.5	-45.8	25.3	6.03e-01	0	43	0	617611264	60	4209
2026-01-26 02:59:40.12	220.40	10.79	-44.7	-46.0	25.1	6.00e-01	0	44	0	619708416	60	4304
2026-01-26 02:59:41.13	220.37	10.70	-44.8	-46.1	25.0	6.02e-01	0	44	0	621805568	60	4343
2026-01-26 02:59:42.13	220.34	10.60	-44.8	-46.0	25.0	6.03e-01	0	43	0	623378432	60	4340
2026-01-26 02:59:43.14	220.32	10.50	-44.6	-45.9	25.2	6.04e-01	0	43	0	625475584	60	4251
2026-01-26 02:59:44.15	220.29	10.41	-44.8	-46.1	25.0	6.02e-01	0	43	0	627048448	60	4371
2026-01-26 02:59:45.16	220.27	10.31	-44.8	-46.0	25.0	6.02e-01	0	43	0	629145600	60	4340
2026-01-26 02:59:46.17	220.24	10.22	-44.7	-45.9	25.1	5.98e-01	0	43	0	631242752	60	4288
2026-01-26 02:59:47.17	220.22	10.12	-44.8	-46.1	25.0	6.04e-01	0	43	0	632815616	60	4352
2026-01-26 02:59:48.18	220.19	10.03	-44.8	-46.0	25.0	6.02e-01	0	43	0	634912768	60	4328
2026-01-26 02:59:49.18	220.17	9.94	-44.8	-46.1	24.9	6.03e-01	0	43	0	636485632	60	4355
2026-01-26 02:59:50.19	220.15	9.84	-44.7	-46.0	25.0	6.01e-01	0	43	0	638582784	60	4317
2026-01-26 02:59:51.20	220.12	9.75	-44.8	-46.1	25.0	6.02e-01	0	43	0	640679936	60	4356
2026-01-26 02:59:52.21	220.10	9.66	-44.8	-46.1	25.0	6.02e-01	0	43	0	642252800	60	4345
2026-01-26 02:59:53.21	220.08	9.57	-45.0	-46.3	24.8	6.03e-01	0	43	0	644349952	60	4458
2026-01-26 02:59:54.22	220.05	9.48	-45.1	-46.4	24.6	5.99e-01	0	43	0	645922816	60	4503
2026-01-26 02:59:55.23	220.03	9.38	-45.0	-46.3	24.7	6.01e-01	0	43	0	648019968	60	4492
2026-01-26 02:59:56.23	220.01	9.29	-45.0	-46.4	24.6	6.04e-01	0	43	0	650117120	60	4494
2026-01-26 02:59:57.24	219.98	9.20	-45.0	-46.4	24.7	6.02e-01	0	43	0	651689984	60	4496
2026-01-26 02:59:58.25	219.96	9.11	-45.0	-46.3	24.7	6.02e-01	0	43	0	653787136	60	4486
2026-01-26 02:59:59.26	219.94	9.02	-45.1	-46.4	24.6	6.01e-01	0	44	0	655360000	60	4535
2026-01-26 03:00:00.27	219.92	8.93	-45.1	-46.4	24.6	6.02e-01	0	43	0	657457152	60	4522
2026-01-26 03:00:01.27	219.89	8.85	-45.1	-46.4	24.5	6.01e-01	0	44	0	659554304	60	4545
2026-01-26 03:00:02.28	219.87	8.76	-45.1	-46.5	24.5	6.02e-01	0	43	0	661127168	60	4561
2026-01-26 03:00:03.28	219.85	8.67	-45.0	-46.4	24.6	6.01e-01	0	44	0	663224320	60	4506
2026-01-26 03:00:04.29	219.83	8.58	-45.3	-46.6	24.3	6.03e-01	0	44	0	664797184	61	4384
2026-01-26 03:00:05.30	219.81	8.49	-45.4	-46.8	24.2	6.02e-01	0	43	0	666894336	61	4451
2026-01-26 03:00:06.30	219.79	8.41	-45.2	-46.5	24.4	5.98e-01	0	43	0	668991488	61	4327
2026-01-26 03:00:07.31	219.77	8.32	-45.3	-46.6	24.4	6.03e-01	0	43	0	670564352	61	4390
2026-01-26 03:00:08.32	219.74	8.23	-45.2	-46.5	24.4	6.01e-01	0	43	0	672661504	61	4323
2026-01-26 03:00:09.33	219.72	8.14	-45.1	-46.4	24.5	6.02e-01	0	43	0	674234368	61	4287
2026-01-26 03:00:10.33	219.70	8.06	-45.5	-46.9	24.1	6.01e-01	0	43	0	676331520	61	4498
2026-01-26 03:00:11.34	219.68	7.97	-45.4	-46.8	24.1	6.02e-01	0	43	0	678428672	61	4483
2026-01-26 03:00:12.35	219.66	7.89	-45.4	-46.8	24.2	6.03e-01	0	43	0	680001536	61	4448
2026-01-26 03:00:13.36	219.64	7.80	-45.5	-46.9	24.1	6.02e-01	0	43	0	682098688	61	4496
2026-01-26 03:00:14.36	219.62	7.72	-45.4	-46.8	24.1	6.02e-01	0	44	0	683671552	61	4469
2026-01-26 03:00:15.37	219.60	7.63	-45.6	-47.0	23.9	6.02e-01	0	43	0	685768704	61	4577
2026-01-26 03:00:16.38	219.58	7.55	-45.5	-46.9	24.0	6.02e-01	0	43	0	687865856	61	4509
2026-01-26 03:00:17.39	219.56	7.47	-45.4	-46.8	24.1	6.02e-01	0	43	0	689438720	61	4466
2026-01-26 03:00:18.40	219.54	7.38	-45.5	-46.9	24.0	5.99e-01	0	43	0	691535872	61	4500
2026-01-26 03:00:19.41	219.52	7.30	-45.4	-46.8	24.1	5.99e-01	0	44	0	693108736	61	4473
2026-01-26 03:00:20.42	219.51	7.22	-45.4	-46.8	24.0	6.04e-01	0	43	0	695205888	61	4477
2026-01-26 03:00:21.43	219.49	7.13	-45.4	-46.8	23.8	6.03e-01	0	43	0	697303040	61	4491
2026-01-26 03:00:22.43	219.47	7.05	-45.4	-46.8	24.0	6.03e-01	0	43	0	698875904	61	4447
2026-01-26 03:00:23.44	219.45	6.97	-45.5	-46.9	23.9	6.03e-01	0	43	0	700973056	61	4528
2026-01-26 03:00:24.45	219.43	6.89	-45.5	-46.9	23.9	6.02e-01	0	43	0	702545920	61	4523
2026-01-26 03:00:25.46	219.41	6.80	-45.6	-47.0	23.8	6.02e-01	0	43	0	704643072	61	4586
2026-01-26 03:00:26.46	219.39	6.72	-45.7	-47.2	23.6	6.03e-01	0	43	0	706740224	62	4395
2026-01-26 03:00:27.47	219.38	6.64	-45.6	-47.0	23.8	6.04e-01	0	43	0	708313088	62	4323
2026-01-26 03:00:28.48	219.36	6.56	-45.5	-46.9	23.8	6.02e-01	0	43	0	710410240	62	4286
2026-01-26 03:00:29.49	219.34	6.48	-45.5	-46.9	23.8	6.05e-01	0	43	0	712507392	62	4282
2026-01-26 03:00:30.50	219.32	6.40	-45.8	-47.3	23.4	6.00e-01	0	44	0	714080256	62	4465
2026-01-26 03:00:31.51	219.30	6.32	-45.8	-47.3	23.5	6.01e-01	0	44	0	716177408	62	4453
2026-01-26 03:00:32.51	219.29	6.24	-45.9	-47.5	23.3	6.00e-01	0	43	0	717750272	62	4548
2026-01-26 03:00:33.52	219.27	6.16	-45.7	-47.1	23.6	6.01e-01	0	43	0	719847424	62	4379
2026-01-26 03:00:34.53	219.25	6.08	-45.7	-47.2	23.6	6.03e-01	0	44	0	721420288	62	4395
2026-01-26 03:00:35.54	219.23	6.00	-45.8	-47.3	23.4	6.02e-01	0	44	0	723517440	62	4466
2026-01-26 03:00:36.55	219.22	5.93	-45.9	-47.4	23.3	6.03e-01	0	43	0	725614592	62	4537
2026-01-26 03:00:37.55	219.20	5.85	-45.8	-47.3	23.4	6.00e-01	0	44	0	727187456	62	4465
2026-01-26 03:00:38.56	219.18	5.77	-45.9	-47.4	23.3	6.02e-01	0	43	0	729284608	62	4538
2026-01-26 03:00:39.57	219.17	5.69	-46.1	-47.6	23.1	6.03e-01	0	43	0	730857472	62	4649
2026-01-26 03:00:40.57	219.15	5.62	-46.1	-47.6	23.0	5.98e-01	0	44	0	732954624	63	4384
2026-01-26 03:00:41.58	219.13	5.54	-46.1	-47.7	23.1	6.01e-01	0	43	0	735051776	63	4395
2026-01-26 03:00:42.59	219.12	5.46	-46.3	-47.9	22.7	6.02e-01	0	44	0	736624640	63	4539
