passes_logs/2026/01/26/R3.2S_Murmansk/R3.2S_Murmansk__20260126_103910_TY-42_rec.log

#Pass ID: 20260126_103910_TY-42
#Satellite: TY-42
#Configuration: TY-42_900M
#almurnet v.1.7.20251203
#Start time: 2026-01-26 10:39:10

#Version: 2.2.20231116
#Station: R3.2S_Murmansk
#Location: 33.079688 lon 68.888172 lat
#TLE: 1 64048U 25103A   26025.90722222  .00008016  00000-0  38191-3 0 09994
#TLE: 2 64048 097.4113 101.1198 0001664 095.7251 298.2114 15.19193032 38479

#Time	Az	El	Level	Level2	SNR	BER	BlckErr	Temp	State	Recorded	gain1	gain2
2026-01-26 10:39:10.05	22.43	1.98	-48.5	-50.6	6.2	0.00e+00	0	50	0	0	68	18511
2026-01-26 10:39:11.05	22.38	2.04	-48.5	-50.7	6.2	0.00e+00	0	50	104	0	68	18634
2026-01-26 10:39:12.05	22.33	2.11	-48.5	-50.6	6.2	0.00e+00	0	50	104	0	68	18586
2026-01-26 10:39:13.06	22.28	2.18	-48.5	-50.6	6.2	0.00e+00	0	50	104	0	68	18582
2026-01-26 10:39:14.07	22.23	2.25	-48.5	-50.6	6.2	0.00e+00	0	50	104	0	68	18551
2026-01-26 10:39:15.07	22.18	2.31	-48.5	-50.6	6.2	0.00e+00	0	50	104	0	68	18512
2026-01-26 10:39:16.08	22.13	2.38	-48.5	-50.6	6.2	0.00e+00	0	50	104	0	68	18488
2026-01-26 10:39:17.09	22.08	2.45	-48.5	-50.6	6.2	0.00e+00	0	50	104	0	68	18524
2026-01-26 10:39:18.10	22.03	2.52	-48.5	-50.6	6.2	0.00e+00	0	50	104	0	68	18513
2026-01-26 10:39:19.11	21.98	2.59	-48.5	-50.6	6.2	0.00e+00	0	50	104	0	68	18513
2026-01-26 10:39:20.12	21.92	2.66	-48.5	-50.6	6.2	0.00e+00	0	50	104	0	68	18545
2026-01-26 10:39:21.13	21.87	2.73	-48.5	-50.6	6.2	0.00e+00	0	50	104	0	68	18491
2026-01-26 10:39:22.13	21.82	2.80	-48.5	-50.6	6.2	0.00e+00	0	50	104	0	68	18524
2026-01-26 10:39:23.14	21.77	2.87	-48.5	-50.6	6.2	0.00e+00	0	50	104	0	68	18539
2026-01-26 10:39:24.15	21.71	2.94	-48.5	-50.6	6.2	0.00e+00	0	50	104	0	68	18531
2026-01-26 10:39:25.16	21.66	3.01	-48.5	-50.6	6.2	0.00e+00	0	51	104	0	68	18555
2026-01-26 10:39:26.17	21.60	3.08	-48.5	-50.6	6.2	0.00e+00	0	51	104	0	68	18498
2026-01-26 10:39:27.18	21.55	3.15	-48.5	-50.6	6.2	0.00e+00	0	51	104	0	68	18414
2026-01-26 10:39:28.19	21.49	3.22	-48.4	-50.6	6.2	0.00e+00	0	51	104	0	68	18460
2026-01-26 10:39:29.19	21.44	3.29	-48.4	-50.6	6.2	0.00e+00	0	51	104	0	68	18513
2026-01-26 10:39:30.20	21.38	3.36	-48.5	-50.6	6.2	0.00e+00	0	51	104	0	68	18472
2026-01-26 10:39:31.21	21.33	3.43	-48.4	-50.6	6.2	0.00e+00	0	51	104	0	68	18442
2026-01-26 10:39:32.22	21.27	3.51	-48.5	-50.6	6.2	0.00e+00	0	51	104	0	68	18542
2026-01-26 10:39:33.22	21.21	3.58	-48.5	-50.6	6.2	0.00e+00	0	51	104	0	68	18465
2026-01-26 10:39:34.23	21.16	3.65	-48.5	-50.6	6.2	0.00e+00	0	51	104	0	68	18456
2026-01-26 10:39:35.24	21.10	3.72	-48.5	-50.6	6.2	0.00e+00	0	51	104	0	68	18499
2026-01-26 10:39:36.25	21.04	3.80	-48.5	-50.6	6.2	0.00e+00	0	51	104	0	68	18587
2026-01-26 10:39:37.26	20.98	3.87	-48.5	-50.7	6.2	0.00e+00	0	51	104	0	68	18619
2026-01-26 10:39:38.27	20.92	3.94	-48.5	-50.6	6.2	0.00e+00	0	51	104	0	68	18519
2026-01-26 10:39:39.28	20.86	4.02	-48.5	-50.6	6.2	0.00e+00	0	52	104	0	68	18549
2026-01-26 10:39:40.29	20.80	4.09	-48.5	-50.6	6.2	0.00e+00	0	52	104	0	68	18538
2026-01-26 10:39:41.30	20.74	4.16	-48.5	-50.6	6.2	0.00e+00	0	52	104	0	68	18478
2026-01-26 10:39:42.31	20.68	4.24	-48.5	-50.6	6.2	0.00e+00	0	52	104	0	68	18553
2026-01-26 10:39:43.32	20.62	4.31	-48.5	-50.6	6.2	0.00e+00	0	52	104	0	68	18541
2026-01-26 10:39:44.33	20.56	4.39	-48.5	-50.6	6.2	0.00e+00	0	52	104	0	68	18551
2026-01-26 10:39:45.33	20.50	4.46	-48.5	-50.6	6.2	0.00e+00	0	52	104	0	68	18497
2026-01-26 10:39:46.34	20.44	4.54	-48.5	-50.6	6.2	0.00e+00	0	52	104	0	68	18463
2026-01-26 10:39:47.35	20.37	4.61	-48.5	-50.6	6.2	0.00e+00	0	52	104	0	68	18475
2026-01-26 10:39:48.36	20.31	4.69	-48.5	-50.6	6.2	0.00e+00	0	52	104	0	68	18502
2026-01-26 10:39:49.37	20.25	4.76	-48.5	-50.6	6.2	0.00e+00	0	52	104	0	68	18502
2026-01-26 10:39:50.37	20.18	4.84	-48.5	-50.6	6.2	0.00e+00	0	52	104	0	68	18547
2026-01-26 10:39:51.38	20.12	4.92	-48.5	-50.6	6.2	0.00e+00	0	52	104	0	68	18459
2026-01-26 10:39:52.39	20.05	4.99	-48.5	-50.6	6.2	0.00e+00	0	52	104	0	68	18449
2026-01-26 10:39:53.40	19.99	5.07	-48.5	-50.6	6.2	0.00e+00	0	52	104	0	68	18526
2026-01-26 10:39:54.41	19.92	5.15	-48.5	-50.6	6.2	0.00e+00	0	52	104	0	68	18481
2026-01-26 10:39:55.41	19.86	5.22	-48.5	-50.6	6.2	0.00e+00	0	52	104	0	68	18449
2026-01-26 10:39:56.42	19.79	5.30	-48.5	-50.6	6.2	0.00e+00	0	52	104	0	68	18549
2026-01-26 10:39:57.43	19.72	5.38	-48.5	-50.6	6.2	0.00e+00	0	52	104	0	68	18488
2026-01-26 10:39:58.44	19.66	5.46	-48.5	-50.6	6.2	0.00e+00	0	52	104	0	68	18556
2026-01-26 10:39:59.44	19.59	5.54	-48.5	-50.6	6.2	0.00e+00	0	52	104	0	68	18562
2026-01-26 10:40:00.45	19.52	5.62	-48.5	-50.6	6.2	0.00e+00	0	52	104	0	68	18528
2026-01-26 10:40:01.46	19.45	5.69	-48.5	-50.6	6.2	0.00e+00	0	52	104	0	68	18509
2026-01-26 10:40:02.47	19.38	5.77	-48.5	-50.6	6.2	0.00e+00	0	52	104	0	68	18544
2026-01-26 10:40:03.48	19.31	5.85	-48.5	-50.6	6.2	0.00e+00	0	52	104	0	68	18459
2026-01-26 10:40:04.48	19.24	5.93	-48.5	-50.6	6.2	0.00e+00	0	52	104	0	68	18550
2026-01-26 10:40:05.49	19.17	6.01	-48.5	-50.6	6.2	0.00e+00	0	53	104	0	68	18548
2026-01-26 10:40:06.50	19.10	6.09	-48.5	-50.6	6.2	0.00e+00	0	53	104	0	68	18587
2026-01-26 10:40:07.51	19.02	6.18	-48.5	-50.6	6.2	0.00e+00	0	52	104	0	68	18504
2026-01-26 10:40:08.52	18.95	6.26	-48.5	-50.6	6.2	0.00e+00	0	53	104	0	68	18526
2026-01-26 10:40:09.53	18.88	6.34	-48.5	-50.6	6.2	0.00e+00	0	53	104	0	68	18578
2026-01-26 10:40:10.53	18.81	6.42	-48.5	-50.6	6.2	0.00e+00	0	53	104	0	68	18465
2026-01-26 10:40:11.54	18.73	6.50	-48.5	-50.6	6.2	0.00e+00	0	53	104	0	68	18557
2026-01-26 10:40:12.54	18.66	6.58	-48.5	-50.6	6.2	0.00e+00	0	53	104	0	68	18531
2026-01-26 10:40:13.55	18.58	6.67	-48.5	-50.6	6.2	0.00e+00	0	53	104	0	68	18539
2026-01-26 10:40:14.56	18.50	6.75	-48.5	-50.6	6.2	0.00e+00	0	53	104	0	68	18559
2026-01-26 10:40:15.57	18.43	6.83	-48.5	-50.6	6.2	0.00e+00	0	53	104	0	68	18564
2026-01-26 10:40:16.57	18.35	6.92	-48.5	-50.6	6.2	0.00e+00	0	53	104	0	68	18535
2026-01-26 10:40:17.58	18.27	7.00	-48.5	-50.6	6.2	0.00e+00	0	53	104	0	68	18552
2026-01-26 10:40:18.59	18.20	7.08	-48.5	-50.6	6.2	0.00e+00	0	53	104	0	68	18487
2026-01-26 10:40:19.60	18.12	7.17	-48.5	-50.6	6.2	0.00e+00	0	53	104	0	68	18546
2026-01-26 10:40:20.60	18.04	7.25	-48.5	-50.6	6.2	0.00e+00	0	53	104	0	68	18568
2026-01-26 10:40:21.61	17.96	7.34	-48.5	-50.6	6.2	0.00e+00	0	53	104	0	68	18504
2026-01-26 10:40:22.62	17.88	7.42	-48.5	-50.6	6.2	0.00e+00	0	53	104	0	68	18554
2026-01-26 10:40:23.63	17.79	7.51	-48.5	-50.6	6.2	0.00e+00	0	53	104	0	68	18552
2026-01-26 10:40:24.63	17.71	7.59	-48.5	-50.6	6.2	0.00e+00	0	53	104	0	68	18584
2026-01-26 10:40:25.64	17.63	7.68	-48.5	-50.6	6.2	0.00e+00	0	53	104	0	68	18530
2026-01-26 10:40:26.65	17.55	7.77	-48.5	-50.7	6.2	0.00e+00	0	53	104	0	68	18642
2026-01-26 10:40:27.66	17.46	7.86	-48.5	-50.7	6.2	0.00e+00	0	53	104	0	68	18608
2026-01-26 10:40:28.67	17.38	7.94	-48.5	-50.7	6.2	0.00e+00	0	53	104	0	68	18609
2026-01-26 10:40:29.68	17.29	8.03	-48.5	-50.6	6.2	0.00e+00	0	53	104	0	68	18577
2026-01-26 10:40:30.69	17.21	8.12	-48.5	-50.6	6.2	0.00e+00	0	53	104	0	68	18601
2026-01-26 10:40:31.70	17.12	8.21	-48.5	-50.6	6.2	0.00e+00	0	53	104	0	68	18528
2026-01-26 10:40:32.71	17.03	8.30	-48.5	-50.6	6.2	0.00e+00	0	53	104	0	68	18573
2026-01-26 10:40:33.72	16.95	8.39	-48.5	-50.6	6.2	0.00e+00	0	53	104	0	68	18601
2026-01-26 10:40:34.73	16.86	8.48	-48.5	-50.6	6.2	0.00e+00	0	53	104	0	68	18556
2026-01-26 10:40:35.73	16.77	8.57	-48.5	-50.6	6.2	0.00e+00	0	53	104	0	68	18599
2026-01-26 10:40:36.74	16.68	8.66	-48.5	-50.6	6.2	0.00e+00	0	53	104	0	68	18561
2026-01-26 10:40:37.75	16.59	8.75	-48.5	-50.6	6.2	0.00e+00	0	53	104	0	68	18517
2026-01-26 10:40:38.76	16.49	8.84	-48.5	-50.6	6.2	0.00e+00	0	53	104	0	68	18556
2026-01-26 10:40:39.76	16.40	8.93	-48.5	-50.6	6.2	0.00e+00	0	53	104	0	68	18505
2026-01-26 10:40:40.77	16.31	9.02	-48.5	-50.6	6.2	0.00e+00	0	53	104	0	68	18530
2026-01-26 10:40:41.78	16.22	9.12	-48.5	-50.6	6.2	0.00e+00	0	53	104	0	68	18528
2026-01-26 10:40:42.78	16.12	9.21	-48.5	-50.6	6.2	0.00e+00	0	54	104	0	68	18599
2026-01-26 10:40:43.79	16.03	9.30	-48.5	-50.7	6.2	0.00e+00	0	53	104	0	68	18607
2026-01-26 10:40:44.80	15.93	9.39	-48.5	-50.6	6.2	0.00e+00	0	53	104	0	68	18546
2026-01-26 10:40:45.81	15.83	9.49	-48.5	-50.6	6.2	0.00e+00	0	53	104	0	68	18568
2026-01-26 10:40:46.82	15.74	9.58	-48.5	-50.6	6.2	0.00e+00	0	54	104	0	68	18545
2026-01-26 10:40:47.83	15.64	9.68	-48.5	-50.6	6.2	0.00e+00	0	54	104	0	68	18570
2026-01-26 10:40:48.84	15.54	9.77	-48.5	-50.6	6.2	0.00e+00	0	53	104	0	68	18590
2026-01-26 10:40:49.84	15.44	9.87	-48.5	-50.6	6.2	0.00e+00	0	54	104	0	68	18537
2026-01-26 10:40:50.85	15.34	9.96	-48.5	-50.6	6.2	0.00e+00	0	54	104	0	68	18542
2026-01-26 10:40:51.86	15.24	10.06	-48.5	-50.6	6.2	0.00e+00	0	54	104	0	68	18564
2026-01-26 10:40:52.87	15.13	10.16	-48.5	-50.7	6.2	0.00e+00	0	54	104	0	68	18616
2026-01-26 10:40:53.87	15.03	10.25	-48.5	-50.6	6.2	0.00e+00	0	53	104	0	68	18601
2026-01-26 10:40:54.88	14.93	10.35	-48.5	-50.7	6.2	0.00e+00	0	54	104	0	68	18632
2026-01-26 10:40:55.89	14.82	10.45	-48.5	-50.7	6.2	0.00e+00	0	54	104	0	68	18607
2026-01-26 10:40:56.90	14.71	10.55	-48.5	-50.6	6.2	0.00e+00	0	54	104	0	68	18580
2026-01-26 10:40:57.91	14.61	10.65	-48.5	-50.6	6.2	0.00e+00	0	54	104	0	68	18528
2026-01-26 10:40:58.91	14.50	10.75	-48.5	-50.6	6.2	0.00e+00	0	53	104	0	68	18555
2026-01-26 10:40:59.92	14.39	10.85	-48.5	-50.6	6.2	0.00e+00	0	54	104	0	68	18510
2026-01-26 10:41:00.93	14.28	10.95	-48.5	-50.6	6.2	0.00e+00	0	54	104	0	68	18583
2026-01-26 10:41:01.94	14.17	11.05	-48.5	-50.6	6.2	0.00e+00	0	53	104	0	68	18537
2026-01-26 10:41:02.95	14.06	11.15	-48.5	-50.7	6.2	0.00e+00	0	54	104	0	68	18653
2026-01-26 10:41:03.96	13.94	11.25	-48.5	-50.6	6.2	0.00e+00	0	54	104	0	68	18573
2026-01-26 10:41:04.97	13.83	11.35	-48.5	-50.6	6.2	0.00e+00	0	54	104	0	68	18566
2026-01-26 10:41:05.98	13.72	11.46	-48.5	-50.7	6.2	0.00e+00	0	54	104	0	68	18649
2026-01-26 10:41:06.99	13.60	11.56	-48.5	-50.6	6.2	0.00e+00	0	54	104	0	68	18580
2026-01-26 10:41:08.00	13.48	11.66	-48.5	-50.7	6.2	0.00e+00	0	54	104	0	68	18607
2026-01-26 10:41:09.01	13.37	11.77	-48.5	-50.7	6.2	0.00e+00	0	54	104	0	68	18607
2026-01-26 10:41:10.01	13.25	11.87	-48.5	-50.7	6.2	0.00e+00	0	54	104	0	68	18632
2026-01-26 10:41:11.02	13.13	11.98	-48.5	-50.6	6.2	0.00e+00	0	54	104	0	68	18575
2026-01-26 10:41:12.03	13.01	12.08	-48.5	-50.6	6.2	0.00e+00	0	54	104	0	68	18588
2026-01-26 10:41:13.03	12.89	12.19	-48.5	-50.6	6.2	0.00e+00	0	54	104	0	68	18560
2026-01-26 10:41:14.04	12.76	12.29	-48.5	-50.6	6.2	0.00e+00	0	54	104	0	68	18568
2026-01-26 10:41:15.04	12.64	12.40	-48.5	-50.6	6.2	0.00e+00	0	54	104	0	68	18597
2026-01-26 10:41:16.05	12.51	12.51	-48.5	-50.7	6.2	0.00e+00	0	54	104	0	68	18605
2026-01-26 10:41:17.06	12.39	12.61	-48.5	-50.6	6.2	0.00e+00	0	54	104	0	68	18582
2026-01-26 10:41:18.07	12.26	12.72	-48.5	-50.6	6.2	0.00e+00	0	54	104	0	68	18592
2026-01-26 10:41:19.08	12.13	12.83	-48.5	-50.7	6.2	0.00e+00	0	54	104	0	68	18612
2026-01-26 10:41:20.09	12.00	12.94	-48.5	-50.6	6.2	0.00e+00	0	54	104	0	68	18552
2026-01-26 10:41:21.09	11.87	13.05	-48.5	-50.6	6.2	0.00e+00	0	54	104	0	68	18568
2026-01-26 10:41:22.10	11.74	13.16	-48.5	-50.6	6.2	0.00e+00	0	54	104	0	68	18593
2026-01-26 10:41:23.11	11.60	13.27	-48.5	-50.6	6.2	0.00e+00	0	54	104	0	68	18547
2026-01-26 10:41:24.12	11.47	13.38	-48.5	-50.6	6.2	0.00e+00	0	54	104	0	68	18564
2026-01-26 10:41:25.13	11.33	13.50	-48.5	-50.6	6.2	0.00e+00	0	54	104	0	68	18583
2026-01-26 10:41:26.13	11.20	13.61	-48.5	-50.6	6.2	0.00e+00	0	54	104	0	68	18558
2026-01-26 10:41:27.14	11.06	13.72	-48.5	-50.7	6.2	0.00e+00	0	54	104	0	68	18630
2026-01-26 10:41:28.15	10.92	13.83	-48.5	-50.7	6.2	0.00e+00	0	54	104	0	68	18614
2026-01-26 10:41:29.15	10.78	13.95	-48.5	-50.7	6.2	0.00e+00	0	54	104	0	68	18643
2026-01-26 10:41:30.16	10.63	14.06	-48.5	-50.6	6.2	0.00e+00	0	54	104	0	68	18572
2026-01-26 10:41:31.17	10.49	14.18	-48.5	-50.6	6.2	0.00e+00	0	54	104	0	68	18575
2026-01-26 10:41:32.18	10.34	14.29	-48.5	-50.6	6.2	0.00e+00	0	54	104	0	68	18601
2026-01-26 10:41:33.19	10.20	14.41	-48.5	-50.6	6.2	0.00e+00	0	54	104	0	68	18602
2026-01-26 10:41:34.19	10.05	14.53	-48.5	-50.7	6.2	0.00e+00	0	54	104	0	68	18612
2026-01-26 10:41:35.20	9.90	14.64	-48.5	-50.7	6.2	0.00e+00	0	54	104	0	68	18637
2026-01-26 10:41:36.21	9.75	14.76	-48.5	-50.6	6.2	0.00e+00	0	54	104	0	68	18548
2026-01-26 10:41:37.21	9.60	14.88	-48.5	-50.6	6.2	0.00e+00	0	54	104	0	68	18601
2026-01-26 10:41:38.23	9.44	15.00	-48.5	-50.6	6.2	0.00e+00	0	54	104	0	68	18567
2026-01-26 10:41:39.23	9.29	15.12	-48.5	-50.6	6.2	0.00e+00	0	54	104	0	68	18573
2026-01-26 10:41:40.23	9.13	15.24	-48.5	-50.7	6.2	0.00e+00	0	54	104	0	68	18611
2026-01-26 10:41:41.24	8.97	15.36	-48.5	-50.6	6.2	0.00e+00	0	54	104	0	68	18588
2026-01-26 10:41:42.25	8.81	15.48	-48.5	-50.7	6.2	0.00e+00	0	54	104	0	68	18639
2026-01-26 10:41:43.25	8.65	15.60	-48.5	-50.7	6.2	0.00e+00	0	54	104	0	68	18630
2026-01-26 10:41:44.26	8.49	15.72	-48.5	-50.6	6.2	0.00e+00	0	54	104	0	68	18594
2026-01-26 10:41:45.27	8.33	15.85	-48.5	-50.6	6.2	0.00e+00	0	54	104	0	68	18583
2026-01-26 10:41:46.28	8.16	15.97	-48.5	-50.6	6.2	0.00e+00	0	54	104	0	68	18602
2026-01-26 10:41:47.28	7.99	16.10	-48.5	-50.6	6.2	0.00e+00	0	54	104	0	68	18574
2026-01-26 10:41:48.29	7.82	16.22	-48.5	-50.6	6.2	0.00e+00	0	54	104	0	68	18589
2026-01-26 10:41:49.30	7.65	16.35	-48.5	-50.6	6.2	0.00e+00	0	54	104	0	68	18595
2026-01-26 10:41:50.30	7.48	16.47	-48.5	-50.7	6.2	0.00e+00	0	54	104	0	68	18610
2026-01-26 10:41:51.30	7.31	16.60	-48.5	-50.7	6.2	0.00e+00	0	54	104	0	68	18634
2026-01-26 10:41:52.31	7.13	16.72	-48.5	-50.6	6.2	0.00e+00	0	54	104	0	68	18563
2026-01-26 10:41:53.32	6.95	16.85	-48.5	-50.6	6.2	0.00e+00	0	54	104	0	68	18561
2026-01-26 10:41:54.33	6.77	16.98	-48.5	-50.6	6.2	0.00e+00	0	54	104	0	68	18519
2026-01-26 10:41:55.33	6.59	17.11	-48.5	-50.6	6.2	0.00e+00	0	54	104	0	68	18506
2026-01-26 10:41:56.34	6.40	17.24	-48.5	-50.6	6.2	0.00e+00	0	54	104	0	68	18538
2026-01-26 10:41:57.35	6.22	17.37	-48.5	-50.6	6.2	0.00e+00	0	54	104	0	68	18579
2026-01-26 10:41:58.36	6.03	17.50	-48.5	-50.6	6.2	0.00e+00	0	54	104	0	68	18600
2026-01-26 10:41:59.37	5.84	17.63	-48.5	-50.6	6.2	0.00e+00	0	54	104	0	68	18584
2026-01-26 10:42:00.37	5.65	17.76	-48.5	-50.6	6.2	0.00e+00	0	54	104	0	68	18563
2026-01-26 10:42:01.38	5.46	17.90	-48.5	-50.6	6.2	0.00e+00	0	54	104	0	68	18556
2026-01-26 10:42:02.39	5.26	18.03	-48.5	-50.6	6.2	0.00e+00	0	54	104	0	68	18581
2026-01-26 10:42:03.39	5.06	18.16	-48.5	-50.6	6.2	0.00e+00	0	54	104	0	68	18579
2026-01-26 10:42:04.40	4.86	18.30	-48.5	-50.6	6.2	0.00e+00	0	54	104	0	68	18576
2026-01-26 10:42:05.41	4.66	18.43	-48.5	-50.6	6.2	0.00e+00	0	54	104	0	68	18537
2026-01-26 10:42:06.41	4.46	18.57	-48.5	-50.6	6.2	0.00e+00	0	54	104	0	68	18554
2026-01-26 10:42:07.42	4.25	18.71	-48.5	-50.6	6.2	0.00e+00	0	54	104	0	68	18595
2026-01-26 10:42:08.43	4.05	18.84	-48.5	-50.6	6.2	0.00e+00	0	54	104	0	68	18596
2026-01-26 10:42:09.44	3.83	18.98	-48.5	-50.7	6.2	0.00e+00	0	54	104	0	68	18609
2026-01-26 10:42:10.44	3.62	19.12	-48.5	-50.6	6.2	0.00e+00	0	54	104	0	68	18575
2026-01-26 10:42:11.45	3.41	19.26	-48.5	-50.7	6.2	0.00e+00	0	54	104	0	68	18621
2026-01-26 10:42:12.46	3.19	19.40	-48.5	-50.7	6.2	0.00e+00	0	54	104	0	68	18606
2026-01-26 10:42:13.47	2.97	19.54	-48.5	-50.7	6.2	0.00e+00	0	54	104	0	68	18607
2026-01-26 10:42:14.48	2.75	19.68	-48.5	-50.7	6.2	0.00e+00	0	54	104	0	68	18605
2026-01-26 10:42:15.48	2.53	19.82	-48.5	-50.7	6.2	0.00e+00	0	54	104	0	68	18644
2026-01-26 10:42:16.49	2.30	19.96	-48.5	-50.6	6.2	0.00e+00	0	54	104	0	68	18578
2026-01-26 10:42:17.50	2.07	20.10	-48.5	-50.6	6.2	0.00e+00	0	54	104	0	68	18534
2026-01-26 10:42:18.51	1.84	20.25	-48.5	-50.6	6.2	0.00e+00	0	54	104	0	68	18577
2026-01-26 10:42:19.52	1.60	20.39	-48.5	-50.6	6.2	0.00e+00	0	54	104	0	68	18536
2026-01-26 10:42:20.53	1.37	20.53	-48.5	-50.6	6.2	0.00e+00	0	54	104	0	68	18580
2026-01-26 10:42:21.54	1.13	20.68	-48.5	-50.7	6.2	0.00e+00	0	54	104	0	68	18637
2026-01-26 10:42:22.55	0.89	20.82	-48.5	-50.6	6.2	0.00e+00	0	54	104	0	68	18596
2026-01-26 10:42:23.56	0.64	20.97	-48.5	-50.6	6.2	0.00e+00	0	54	104	0	68	18557
2026-01-26 10:42:24.56	0.40	21.11	-48.5	-50.7	6.2	0.00e+00	0	54	104	0	68	18609
2026-01-26 10:42:25.57	0.15	21.26	-48.5	-50.6	6.2	0.00e+00	0	54	104	0	68	18550
2026-01-26 10:42:26.58	359.89	21.41	-48.5	-50.7	6.2	0.00e+00	0	54	104	0	68	18628
2026-01-26 10:42:27.59	359.64	21.56	-48.5	-50.6	6.2	0.00e+00	0	54	104	0	68	18573
2026-01-26 10:42:28.60	359.38	21.71	-48.5	-50.6	6.2	0.00e+00	0	54	104	0	68	18533
2026-01-26 10:42:29.61	359.12	21.86	-48.5	-50.6	6.2	0.00e+00	0	54	104	0	68	18567
2026-01-26 10:42:30.62	358.85	22.01	-48.5	-50.6	6.2	0.00e+00	0	54	104	0	68	18597
2026-01-26 10:42:31.63	358.58	22.16	-48.5	-50.6	6.2	0.00e+00	0	54	104	0	68	18576
2026-01-26 10:42:32.63	358.32	22.31	-48.5	-50.7	6.2	0.00e+00	0	54	104	0	68	18621
2026-01-26 10:42:33.64	358.04	22.46	-48.5	-50.6	6.2	0.00e+00	0	54	104	0	68	18521
2026-01-26 10:42:34.65	357.77	22.61	-48.5	-50.6	6.2	0.00e+00	0	54	104	0	68	18597
2026-01-26 10:42:35.66	357.49	22.76	-48.5	-50.6	6.2	0.00e+00	0	54	104	0	68	18531
2026-01-26 10:42:36.67	357.21	22.91	-48.5	-50.7	6.2	0.00e+00	0	54	104	0	68	18606
2026-01-26 10:42:37.68	356.92	23.07	-48.5	-50.6	6.2	0.00e+00	0	54	104	0	68	18520
2026-01-26 10:42:38.69	356.63	23.22	-48.5	-50.6	6.2	0.00e+00	0	54	104	0	68	18602
2026-01-26 10:42:39.70	356.34	23.37	-48.5	-50.6	6.2	0.00e+00	0	54	104	0	68	18580
2026-01-26 10:42:40.71	356.04	23.53	-48.5	-50.6	6.2	0.00e+00	0	54	104	0	68	18602
2026-01-26 10:42:41.72	355.75	23.68	-48.5	-50.6	6.2	0.00e+00	0	54	104	0	68	18534
2026-01-26 10:42:42.73	355.44	23.84	-48.5	-50.6	6.2	0.00e+00	0	54	104	0	68	18576
2026-01-26 10:42:43.73	355.14	23.99	-48.5	-50.7	6.2	0.00e+00	0	54	104	0	68	18638
2026-01-26 10:42:44.74	354.83	24.15	-48.5	-50.7	6.2	0.00e+00	0	54	104	0	68	18605
2026-01-26 10:42:45.75	354.52	24.30	-48.5	-50.6	6.2	0.00e+00	0	54	104	0	68	18597
2026-01-26 10:42:46.76	354.20	24.46	-48.5	-50.6	6.2	0.00e+00	0	54	104	0	68	18599
2026-01-26 10:42:47.76	353.89	24.61	-48.5	-50.7	6.2	0.00e+00	0	54	104	0	68	18613
2026-01-26 10:42:48.77	353.57	24.77	-48.5	-50.6	6.2	0.00e+00	0	54	104	0	68	18561
2026-01-26 10:42:49.77	353.24	24.92	-48.5	-50.6	6.2	0.00e+00	0	54	104	0	68	18562
2026-01-26 10:42:50.78	352.91	25.08	-48.5	-50.6	6.2	0.00e+00	0	54	104	0	68	18587
2026-01-26 10:42:51.79	352.58	25.24	-48.5	-50.6	6.2	0.00e+00	0	54	104	0	68	18579
2026-01-26 10:42:52.80	352.24	25.40	-48.5	-50.6	6.2	0.00e+00	0	54	104	0	68	18540
2026-01-26 10:42:53.81	351.90	25.55	-48.5	-50.6	6.2	0.00e+00	0	54	104	0	68	18585
2026-01-26 10:42:54.81	351.56	25.71	-48.5	-50.7	6.2	0.00e+00	0	54	104	0	68	18644
2026-01-26 10:42:55.82	351.21	25.87	-48.5	-50.6	6.2	0.00e+00	0	54	104	0	68	18560
2026-01-26 10:42:56.83	350.86	26.03	-48.5	-50.6	6.2	0.00e+00	0	54	104	0	68	18550
2026-01-26 10:42:57.84	350.50	26.18	-48.5	-50.6	6.2	0.00e+00	0	54	104	0	68	18530
2026-01-26 10:42:58.84	350.14	26.34	-48.5	-50.6	6.2	0.00e+00	0	54	104	0	68	18599
2026-01-26 10:42:59.85	349.78	26.50	-48.5	-50.6	6.2	0.00e+00	0	54	104	0	68	18552
2026-01-26 10:43:00.86	349.41	26.65	-48.5	-50.6	6.2	0.00e+00	0	54	104	0	68	18512
2026-01-26 10:43:01.86	349.04	26.81	-48.5	-50.6	6.2	0.00e+00	0	54	104	0	68	18560
2026-01-26 10:43:02.87	348.66	26.97	-48.5	-50.6	6.2	0.00e+00	0	54	104	0	68	18567
2026-01-26 10:43:03.88	348.28	27.12	-48.5	-50.6	6.2	0.00e+00	0	54	104	0	68	18579
2026-01-26 10:43:04.89	347.90	27.28	-48.5	-50.7	6.2	0.00e+00	0	54	104	0	68	18610
2026-01-26 10:43:05.90	347.51	27.44	-48.5	-50.6	6.2	0.00e+00	0	54	104	0	68	18587
2026-01-26 10:43:06.91	347.12	27.59	-48.5	-50.6	6.2	0.00e+00	0	54	104	0	68	18601
2026-01-26 10:43:07.92	346.72	27.75	-48.5	-50.6	6.2	0.00e+00	0	54	104	0	68	18566
2026-01-26 10:43:08.93	346.32	27.91	-48.5	-50.6	6.2	0.00e+00	0	54	104	0	68	18564
2026-01-26 10:43:09.94	345.91	28.06	-48.5	-50.6	6.2	0.00e+00	0	54	104	0	68	18574
2026-01-26 10:43:10.94	345.50	28.21	-48.5	-50.6	6.2	0.00e+00	0	54	104	0	68	18544
2026-01-26 10:43:11.95	345.09	28.37	-48.5	-50.6	6.2	0.00e+00	0	54	104	0	68	18598
2026-01-26 10:43:12.95	344.67	28.52	-48.5	-50.6	6.2	0.00e+00	0	54	104	0	68	18559
2026-01-26 10:43:13.96	344.25	28.67	-48.5	-50.6	6.2	0.00e+00	0	54	104	0	68	18586
2026-01-26 10:43:14.97	343.82	28.83	-48.5	-50.6	6.2	0.00e+00	0	54	104	0	68	18576
2026-01-26 10:43:15.97	343.39	28.98	-48.5	-50.6	6.2	0.00e+00	0	54	104	0	68	18552
2026-01-26 10:43:16.98	342.96	29.13	-48.5	-50.6	6.2	0.00e+00	0	55	104	0	68	18559
2026-01-26 10:43:17.99	342.51	29.28	-48.5	-50.6	6.2	0.00e+00	0	54	104	0	68	18538
2026-01-26 10:43:19.00	342.07	29.43	-48.5	-50.6	6.2	0.00e+00	0	54	104	0	68	18599
2026-01-26 10:43:20.01	341.62	29.58	-48.5	-50.7	6.2	0.00e+00	0	54	104	0	68	18603
2026-01-26 10:43:21.01	341.17	29.72	-48.5	-50.6	6.2	0.00e+00	0	54	104	0	68	18559
2026-01-26 10:43:22.02	340.71	29.87	-48.5	-50.7	6.2	0.00e+00	0	54	104	0	68	18611
2026-01-26 10:43:23.03	340.24	30.01	-48.5	-50.7	6.2	0.00e+00	0	54	104	0	68	18624
2026-01-26 10:43:24.04	339.77	30.16	-48.5	-50.6	6.2	0.00e+00	0	54	104	0	68	18552
2026-01-26 10:43:25.04	339.30	30.30	-48.5	-50.6	6.2	0.00e+00	0	54	104	0	68	18559
2026-01-26 10:43:26.05	338.83	30.44	-48.5	-50.6	6.2	0.00e+00	0	54	104	0	68	18566
2026-01-26 10:43:27.06	338.34	30.58	-48.5	-50.6	6.2	0.00e+00	0	54	104	0	68	18540
2026-01-26 10:43:28.07	337.86	30.72	-48.5	-50.6	6.2	0.00e+00	0	54	104	0	68	18564
2026-01-26 10:43:29.07	337.37	30.86	-48.5	-50.6	6.2	0.00e+00	0	54	104	0	68	18535
2026-01-26 10:43:30.08	336.87	30.99	-48.5	-50.6	6.2	0.00e+00	0	54	104	0	68	18546
2026-01-26 10:43:31.09	336.37	31.13	-48.5	-50.6	6.2	0.00e+00	0	54	104	0	68	18560
2026-01-26 10:43:32.09	335.87	31.26	-48.5	-50.6	6.2	0.00e+00	0	55	104	0	68	18562
2026-01-26 10:43:33.09	335.37	31.39	-48.5	-50.6	6.2	0.00e+00	0	54	104	0	68	18577
2026-01-26 10:43:34.10	334.85	31.52	-48.5	-50.6	6.2	0.00e+00	0	54	104	0	68	18590
2026-01-26 10:43:35.11	334.34	31.65	-48.5	-50.6	6.2	0.00e+00	0	55	104	0	68	18597
2026-01-26 10:43:36.11	333.82	31.77	-48.5	-50.7	6.2	0.00e+00	0	54	104	0	68	18637
2026-01-26 10:43:37.12	333.29	31.90	-48.5	-50.6	6.2	0.00e+00	0	54	104	0	68	18569
2026-01-26 10:43:38.13	332.76	32.02	-48.5	-50.6	6.2	0.00e+00	0	54	104	0	68	18573
2026-01-26 10:43:39.14	332.22	32.14	-48.5	-50.6	6.2	0.00e+00	0	54	104	0	68	18557
2026-01-26 10:43:40.15	331.68	32.26	-48.5	-50.6	6.2	0.00e+00	0	54	104	0	68	18538
2026-01-26 10:43:41.16	331.14	32.37	-48.5	-50.6	6.2	0.00e+00	0	54	104	0	68	18569
2026-01-26 10:43:42.17	330.59	32.49	-48.5	-50.6	6.2	0.00e+00	0	55	104	0	68	18562
2026-01-26 10:43:43.17	330.04	32.60	-48.5	-50.7	6.2	0.00e+00	0	54	104	0	68	18639
2026-01-26 10:43:44.18	329.49	32.71	-48.5	-50.6	6.2	0.00e+00	0	54	104	0	68	18560
2026-01-26 10:43:45.18	328.93	32.81	-48.5	-50.6	6.2	0.00e+00	0	54	104	0	68	18593
2026-01-26 10:43:46.19	328.37	32.92	-48.5	-50.6	6.2	0.00e+00	0	54	104	0	68	18602
2026-01-26 10:43:47.20	327.80	33.02	-48.5	-50.7	6.2	0.00e+00	0	54	104	0	68	18622
2026-01-26 10:43:48.21	327.22	33.12	-48.5	-50.6	6.2	0.00e+00	0	55	104	0	68	18561
2026-01-26 10:43:49.22	326.65	33.21	-48.5	-50.6	6.2	0.00e+00	0	55	104	0	68	18587
2026-01-26 10:43:50.22	326.07	33.30	-48.5	-50.6	6.2	0.00e+00	0	54	104	0	68	18534
2026-01-26 10:43:51.23	325.49	33.40	-48.5	-50.6	6.2	0.00e+00	0	54	104	0	68	18595
2026-01-26 10:43:52.24	324.90	33.48	-48.5	-50.6	6.2	0.00e+00	0	54	104	0	68	18577
2026-01-26 10:43:53.25	324.31	33.57	-48.5	-50.6	6.2	0.00e+00	0	54	104	0	68	18596
2026-01-26 10:43:54.25	323.73	33.65	-48.5	-50.6	6.2	0.00e+00	0	54	104	0	68	18572
2026-01-26 10:43:55.26	323.13	33.73	-48.5	-50.6	6.2	0.00e+00	0	54	104	0	68	18555
2026-01-26 10:43:56.27	322.53	33.80	-48.5	-50.6	6.2	0.00e+00	0	54	104	0	68	18531
2026-01-26 10:43:57.28	321.93	33.87	-48.5	-50.6	6.2	0.00e+00	0	54	104	0	68	18468
2026-01-26 10:43:58.29	321.32	33.94	-48.5	-50.6	6.2	0.00e+00	0	54	104	0	68	18429
2026-01-26 10:43:59.30	320.72	34.01	-48.5	-50.6	6.2	0.00e+00	0	54	104	0	68	18597
2026-01-26 10:44:00.30	320.11	34.07	-48.5	-50.6	6.2	0.00e+00	0	54	104	0	68	18590
2026-01-26 10:44:01.31	319.50	34.13	-48.5	-50.6	6.2	0.00e+00	0	54	104	0	68	18570
2026-01-26 10:44:02.32	318.88	34.19	-48.5	-50.6	6.2	0.00e+00	0	54	104	0	68	18510
2026-01-26 10:44:03.33	318.27	34.24	-48.5	-50.6	6.2	0.00e+00	0	54	104	0	68	18475
2026-01-26 10:44:04.33	317.65	34.29	-48.5	-50.6	6.2	0.00e+00	0	54	104	0	68	18539
2026-01-26 10:44:05.34	317.03	34.33	-48.5	-50.7	6.2	0.00e+00	0	54	104	0	68	18622
2026-01-26 10:44:06.35	316.41	34.37	-48.5	-50.6	6.2	0.00e+00	0	54	104	0	68	18556
2026-01-26 10:44:07.35	315.79	34.41	-48.5	-50.6	6.2	0.00e+00	0	54	104	0	68	18600
2026-01-26 10:44:08.36	315.16	34.45	-48.5	-50.6	6.2	0.00e+00	0	54	104	0	68	18584
2026-01-26 10:44:09.37	314.54	34.48	-48.5	-50.6	6.2	0.00e+00	0	54	104	0	68	18590
2026-01-26 10:44:10.37	313.91	34.50	-48.5	-50.6	6.2	0.00e+00	0	54	104	0	68	18554
2026-01-26 10:44:11.38	313.28	34.53	-48.5	-50.6	6.2	0.00e+00	0	55	104	0	68	18445
2026-01-26 10:44:12.39	312.65	34.55	-48.5	-50.6	6.2	0.00e+00	0	54	104	0	68	18585
2026-01-26 10:44:13.40	312.02	34.56	-48.5	-50.6	6.2	0.00e+00	0	54	104	0	68	18542
2026-01-26 10:44:14.40	311.40	34.58	-48.5	-50.6	6.2	0.00e+00	0	54	104	0	68	18550
2026-01-26 10:44:15.41	310.76	34.59	-48.5	-50.6	6.2	0.00e+00	0	54	104	0	68	18588
2026-01-26 10:44:16.42	310.13	34.59	-48.5	-50.6	6.2	0.00e+00	0	55	104	0	68	18475
2026-01-26 10:44:17.43	309.50	34.59	-48.5	-50.6	6.2	0.00e+00	0	54	104	0	68	18547
2026-01-26 10:44:18.44	308.86	34.59	-48.5	-50.6	6.2	0.00e+00	0	55	104	0	68	18582
2026-01-26 10:44:19.45	308.23	34.58	-48.5	-50.6	6.2	0.00e+00	0	54	104	0	68	18550
2026-01-26 10:44:20.46	307.60	34.57	-48.5	-50.6	6.2	0.00e+00	0	54	104	0	68	18563
2026-01-26 10:44:21.47	306.97	34.56	-48.5	-50.6	6.2	0.00e+00	0	55	104	0	68	18596
2026-01-26 10:44:22.48	306.33	34.54	-48.5	-50.6	6.2	0.00e+00	0	54	104	0	68	18576
2026-01-26 10:44:23.48	305.71	34.52	-48.5	-50.6	6.2	0.00e+00	0	54	104	0	68	18564
2026-01-26 10:44:24.48	305.09	34.50	-48.5	-50.6	6.2	0.00e+00	0	54	104	0	68	18540
2026-01-26 10:44:25.49	304.46	34.47	-48.5	-50.6	6.2	0.00e+00	0	55	104	0	68	18505
2026-01-26 10:44:26.50	303.83	34.43	-48.5	-50.6	6.2	0.00e+00	0	54	104	0	68	18550
2026-01-26 10:44:27.51	303.20	34.40	-48.5	-50.6	6.2	0.00e+00	0	55	104	0	68	18540
2026-01-26 10:44:28.52	302.58	34.36	-48.5	-50.6	6.2	0.00e+00	0	54	104	0	68	18494
2026-01-26 10:44:29.53	301.96	34.32	-48.5	-50.6	6.2	0.00e+00	0	54	104	0	68	18547
2026-01-26 10:44:30.54	301.33	34.27	-48.5	-50.6	6.2	0.00e+00	0	54	104	0	68	18573
2026-01-26 10:44:31.55	300.72	34.22	-48.5	-50.7	6.2	0.00e+00	0	55	104	0	68	18607
2026-01-26 10:44:32.55	300.10	34.17	-48.5	-50.7	6.2	0.00e+00	0	54	104	0	68	18608
2026-01-26 10:44:33.56	299.49	34.11	-48.5	-50.6	6.2	0.00e+00	0	54	104	0	68	18572
2026-01-26 10:44:34.57	298.88	34.05	-48.5	-50.6	6.2	0.00e+00	0	54	104	0	68	18567
2026-01-26 10:44:35.58	298.27	33.98	-48.5	-50.7	6.2	0.00e+00	0	55	104	0	68	18616
2026-01-26 10:44:36.59	297.66	33.92	-48.5	-50.6	6.2	0.00e+00	0	54	104	0	68	18594
2026-01-26 10:44:37.59	297.06	33.85	-48.5	-50.6	6.2	0.00e+00	0	54	104	0	68	18565
2026-01-26 10:44:38.60	296.46	33.77	-48.5	-50.6	6.2	0.00e+00	0	54	104	0	68	18548
2026-01-26 10:44:39.61	295.86	33.70	-48.5	-50.6	6.2	0.00e+00	0	54	104	0	68	18560
2026-01-26 10:44:40.61	295.27	33.62	-48.5	-50.6	6.2	0.00e+00	0	54	104	0	68	18553
2026-01-26 10:44:41.62	294.68	33.54	-48.5	-50.7	6.2	0.00e+00	0	54	104	0	68	18640
2026-01-26 10:44:42.63	294.09	33.45	-48.5	-50.7	6.2	0.00e+00	0	54	104	0	68	18628
2026-01-26 10:44:43.63	293.51	33.36	-48.5	-50.6	6.2	0.00e+00	0	54	104	0	68	18591
2026-01-26 10:44:44.64	292.92	33.27	-48.5	-50.6	6.2	0.00e+00	0	54	104	0	68	18559
2026-01-26 10:44:45.65	292.35	33.18	-48.5	-50.6	6.2	0.00e+00	0	54	104	0	68	18584
2026-01-26 10:44:46.66	291.77	33.08	-48.5	-50.6	6.2	0.00e+00	0	54	104	0	68	18559
2026-01-26 10:44:47.67	291.20	32.98	-48.5	-50.6	6.2	0.00e+00	0	54	104	0	68	18575
2026-01-26 10:44:48.67	290.64	32.88	-48.5	-50.6	6.2	0.00e+00	0	54	104	0	68	18594
2026-01-26 10:44:49.68	290.07	32.77	-48.5	-50.6	6.2	0.00e+00	0	54	104	0	68	18580
2026-01-26 10:44:50.69	289.51	32.66	-48.5	-50.6	6.2	0.00e+00	0	54	104	0	68	18588
2026-01-26 10:44:51.70	288.95	32.55	-48.5	-50.7	6.2	0.00e+00	0	54	104	0	68	18617
2026-01-26 10:44:52.71	288.40	32.44	-48.5	-50.6	6.2	0.00e+00	0	54	104	0	68	18528
2026-01-26 10:44:53.72	287.85	32.33	-48.5	-50.7	6.2	0.00e+00	0	54	104	0	68	18609
2026-01-26 10:44:54.72	287.32	32.21	-48.5	-50.7	6.2	0.00e+00	0	55	104	0	68	18609
2026-01-26 10:44:55.73	286.78	32.09	-48.5	-50.6	6.2	0.00e+00	0	54	104	0	68	18586
2026-01-26 10:44:56.73	286.25	31.97	-48.5	-50.6	6.2	0.00e+00	0	54	104	0	68	18563
2026-01-26 10:44:57.74	285.71	31.85	-48.5	-50.6	6.2	0.00e+00	0	54	104	0	68	18559
2026-01-26 10:44:58.75	285.19	31.72	-48.5	-50.7	6.2	0.00e+00	0	54	104	0	68	18611
2026-01-26 10:44:59.76	284.67	31.60	-48.5	-50.6	6.2	0.00e+00	0	54	104	0	68	18546
2026-01-26 10:45:00.77	284.15	31.47	-48.5	-50.6	6.2	0.00e+00	0	54	104	0	68	18532
2026-01-26 10:45:01.78	283.63	31.34	-48.5	-50.6	6.2	0.00e+00	0	54	104	0	68	18592
2026-01-26 10:45:02.78	283.13	31.20	-48.5	-50.7	6.2	0.00e+00	0	54	104	0	68	18615
2026-01-26 10:45:03.79	282.62	31.07	-48.5	-50.6	6.2	0.00e+00	0	54	104	0	68	18577
2026-01-26 10:45:04.79	282.13	30.94	-48.5	-50.7	6.2	0.00e+00	0	54	104	0	68	18623
2026-01-26 10:45:05.80	281.63	30.80	-48.5	-50.6	6.2	0.00e+00	0	54	104	0	68	18551
2026-01-26 10:45:06.81	281.14	30.66	-48.5	-50.7	6.2	0.00e+00	0	54	104	0	68	18630
2026-01-26 10:45:07.82	280.66	30.52	-48.5	-50.6	6.2	0.00e+00	0	54	104	0	68	18541
2026-01-26 10:45:08.83	280.17	30.38	-48.5	-50.6	6.2	0.00e+00	0	54	104	0	68	18551
2026-01-26 10:45:09.83	279.70	30.24	-48.5	-50.6	6.2	0.00e+00	0	54	104	0	68	18593
2026-01-26 10:45:10.84	279.23	30.09	-48.5	-50.7	6.2	0.00e+00	0	55	104	0	68	18615
2026-01-26 10:45:11.85	278.76	29.95	-48.5	-50.6	6.2	0.00e+00	0	55	104	0	68	18551
2026-01-26 10:45:12.86	278.30	29.80	-48.5	-50.6	6.2	0.00e+00	0	54	104	0	68	18588
2026-01-26 10:45:13.87	277.84	29.65	-48.5	-50.7	6.2	0.00e+00	0	54	104	0	68	18605
2026-01-26 10:45:14.87	277.39	29.51	-48.5	-50.6	6.2	0.00e+00	0	55	104	0	68	18572
2026-01-26 10:45:15.88	276.94	29.36	-48.5	-50.7	6.2	0.00e+00	0	54	104	0	68	18676
2026-01-26 10:45:16.89	276.49	29.21	-48.5	-50.7	6.2	0.00e+00	0	54	104	0	68	18618
2026-01-26 10:45:17.90	276.05	29.06	-48.5	-50.6	6.2	0.00e+00	0	54	104	0	68	18600
2026-01-26 10:45:18.91	275.61	28.90	-48.5	-50.7	6.2	0.00e+00	0	55	104	0	68	18606
2026-01-26 10:45:19.92	275.18	28.75	-48.5	-50.7	6.2	0.00e+00	0	54	104	0	68	18617
2026-01-26 10:45:20.93	274.75	28.60	-48.5	-50.7	6.2	0.00e+00	0	55	104	0	68	18613
2026-01-26 10:45:21.94	274.33	28.44	-48.5	-50.6	6.2	0.00e+00	0	54	104	0	68	18578
2026-01-26 10:45:22.95	273.91	28.29	-48.5	-50.7	6.2	0.00e+00	0	54	104	0	68	18629
2026-01-26 10:45:23.96	273.50	28.14	-48.5	-50.6	6.2	0.00e+00	0	55	104	0	68	18564
2026-01-26 10:45:24.97	273.09	27.98	-48.5	-50.6	6.2	0.00e+00	0	54	104	0	68	18592
2026-01-26 10:45:25.97	272.69	27.83	-48.5	-50.6	6.2	0.00e+00	0	54	104	0	68	18549
2026-01-26 10:45:26.98	272.29	27.67	-48.5	-50.7	6.2	0.00e+00	0	54	104	0	68	18617
2026-01-26 10:45:27.99	271.89	27.51	-48.5	-50.6	6.2	0.00e+00	0	55	104	0	68	18572
2026-01-26 10:45:29.00	271.50	27.36	-48.5	-50.6	6.2	0.00e+00	0	55	104	0	68	18596
2026-01-26 10:45:30.01	271.11	27.20	-48.5	-50.7	6.2	0.00e+00	0	55	104	0	68	18630
2026-01-26 10:45:31.01	270.73	27.04	-48.5	-50.7	6.2	0.00e+00	0	55	104	0	68	18625
2026-01-26 10:45:32.02	270.35	26.88	-48.5	-50.6	6.2	0.00e+00	0	55	104	0	68	18594
2026-01-26 10:45:33.03	269.97	26.73	-48.5	-50.7	6.2	0.00e+00	0	55	104	0	68	18607
2026-01-26 10:45:34.04	269.60	26.57	-48.5	-50.6	6.2	0.00e+00	0	54	104	0	68	18586
2026-01-26 10:45:35.05	269.23	26.41	-48.5	-50.6	6.2	0.00e+00	0	54	104	0	68	18586
2026-01-26 10:45:36.06	268.87	26.25	-48.5	-50.6	6.2	0.00e+00	0	55	104	0	68	18598
2026-01-26 10:45:37.07	268.51	26.09	-48.5	-50.6	6.2	0.00e+00	0	54	104	0	68	18575
2026-01-26 10:45:38.07	268.15	25.94	-48.5	-50.6	6.2	0.00e+00	0	55	104	0	68	18580
2026-01-26 10:45:39.08	267.80	25.78	-48.5	-50.7	6.2	0.00e+00	0	55	104	0	68	18644
2026-01-26 10:45:40.09	267.45	25.62	-48.5	-50.6	6.2	0.00e+00	0	54	104	0	68	18506
2026-01-26 10:45:41.09	267.11	25.46	-48.5	-50.6	6.2	0.00e+00	0	54	104	0	68	18550
2026-01-26 10:45:42.10	266.77	25.31	-48.5	-50.6	6.2	0.00e+00	0	54	104	0	68	18544
2026-01-26 10:45:43.11	266.43	25.15	-48.5	-50.7	6.2	0.00e+00	0	55	104	0	68	18642
2026-01-26 10:45:44.12	266.10	24.99	-48.5	-50.7	6.2	0.00e+00	0	54	104	0	68	18614
2026-01-26 10:45:45.13	265.77	24.83	-48.5	-50.6	6.2	0.00e+00	0	54	104	0	68	18577
2026-01-26 10:45:46.13	265.45	24.68	-48.5	-50.7	6.2	0.00e+00	0	55	104	0	68	18636
2026-01-26 10:45:47.14	265.13	24.52	-48.5	-50.7	6.2	0.00e+00	0	54	104	0	68	18674
2026-01-26 10:45:48.15	264.81	24.36	-48.5	-50.7	6.2	0.00e+00	0	54	104	0	68	18652
2026-01-26 10:45:49.16	264.49	24.21	-48.5	-50.7	6.2	0.00e+00	0	55	104	0	68	18605
2026-01-26 10:45:50.16	264.18	24.05	-48.5	-50.7	6.2	0.00e+00	0	55	104	0	68	18641
2026-01-26 10:45:51.17	263.88	23.90	-48.5	-50.6	6.2	0.00e+00	0	55	104	0	68	18579
2026-01-26 10:45:52.18	263.57	23.74	-48.5	-50.7	6.2	0.00e+00	0	55	104	0	68	18616
2026-01-26 10:45:53.19	263.27	23.58	-48.5	-50.7	6.2	0.00e+00	0	55	104	0	68	18664
2026-01-26 10:45:54.20	262.97	23.43	-48.5	-50.7	6.2	0.00e+00	0	54	104	0	68	18603
2026-01-26 10:45:55.21	262.68	23.27	-48.5	-50.7	6.2	0.00e+00	0	55	104	0	68	18629
2026-01-26 10:45:56.22	262.38	23.12	-48.5	-50.7	6.2	0.00e+00	0	55	104	0	68	18614
2026-01-26 10:45:57.22	262.10	22.97	-48.5	-50.7	6.2	0.00e+00	0	54	104	0	68	18614
2026-01-26 10:45:58.23	261.81	22.81	-48.5	-50.7	6.2	0.00e+00	0	55	104	0	68	18655
2026-01-26 10:45:59.24	261.53	22.66	-48.5	-50.6	6.2	0.00e+00	0	55	104	0	68	18590
2026-01-26 10:46:00.25	261.25	22.51	-48.5	-50.7	6.2	0.00e+00	0	55	104	0	68	18664
2026-01-26 10:46:01.25	260.98	22.36	-48.5	-50.6	6.2	0.00e+00	0	55	104	0	68	18576
2026-01-26 10:46:02.26	260.71	22.21	-48.5	-50.7	6.2	0.00e+00	0	55	104	0	68	18617
2026-01-26 10:46:03.27	260.44	22.06	-48.5	-50.7	6.2	0.00e+00	0	55	104	0	68	18608
2026-01-26 10:46:04.27	260.17	21.91	-48.5	-50.7	6.2	0.00e+00	0	55	104	0	68	18611
2026-01-26 10:46:05.28	259.91	21.76	-48.5	-50.7	6.2	0.00e+00	0	55	104	0	68	18616
2026-01-26 10:46:06.28	259.65	21.61	-48.5	-50.6	6.2	0.00e+00	0	54	104	0	68	18570
2026-01-26 10:46:07.29	259.39	21.46	-48.5	-50.7	6.2	0.00e+00	0	55	104	0	68	18651
2026-01-26 10:46:08.30	259.14	21.31	-48.5	-50.7	6.2	0.00e+00	0	55	104	0	68	18621
2026-01-26 10:46:09.31	258.88	21.16	-48.5	-50.6	6.2	0.00e+00	0	54	104	0	68	18593
2026-01-26 10:46:10.32	258.63	21.01	-48.5	-50.7	6.2	0.00e+00	0	55	104	0	68	18650
2026-01-26 10:46:11.33	258.39	20.87	-48.5	-50.6	6.2	0.00e+00	0	55	104	0	68	18598
2026-01-26 10:46:12.33	258.14	20.72	-48.5	-50.6	6.2	0.00e+00	0	55	104	0	68	18598
2026-01-26 10:46:13.34	257.90	20.58	-48.5	-50.7	6.2	0.00e+00	0	55	104	0	68	18636
2026-01-26 10:46:14.35	257.66	20.43	-48.5	-50.7	6.2	0.00e+00	0	55	104	0	68	18616
2026-01-26 10:46:15.36	257.43	20.29	-48.5	-50.7	6.2	0.00e+00	0	54	104	0	68	18658
2026-01-26 10:46:16.37	257.19	20.14	-48.5	-50.7	6.2	0.00e+00	0	55	104	0	68	18633
2026-01-26 10:46:17.37	256.96	20.00	-48.5	-50.6	6.2	0.00e+00	0	55	104	0	68	18595
2026-01-26 10:46:18.38	256.73	19.86	-48.5	-50.6	6.2	0.00e+00	0	55	104	0	68	18559
2026-01-26 10:46:19.39	256.51	19.72	-48.5	-50.7	6.2	0.00e+00	0	55	104	0	68	18629
2026-01-26 10:46:20.40	256.28	19.57	-48.5	-50.7	6.2	0.00e+00	0	55	104	0	68	18638
2026-01-26 10:46:21.40	256.06	19.43	-48.5	-50.7	6.2	0.00e+00	0	54	104	0	68	18656
2026-01-26 10:46:22.41	255.84	19.29	-48.5	-50.7	6.2	0.00e+00	0	54	104	0	68	18642
2026-01-26 10:46:23.42	255.62	19.15	-48.5	-50.7	6.2	0.00e+00	0	55	104	0	68	18621
2026-01-26 10:46:24.43	255.41	19.01	-48.5	-50.6	6.2	0.00e+00	0	55	104	0	68	18589
2026-01-26 10:46:25.43	255.20	18.88	-48.5	-50.7	6.2	0.00e+00	0	55	104	0	68	18639
2026-01-26 10:46:26.44	254.99	18.74	-48.5	-50.7	6.2	0.00e+00	0	55	104	0	68	18661
2026-01-26 10:46:27.45	254.78	18.60	-48.5	-50.6	6.2	0.00e+00	0	54	104	0	68	18595
2026-01-26 10:46:28.45	254.57	18.47	-48.5	-50.7	6.2	0.00e+00	0	54	104	0	68	18622
2026-01-26 10:46:29.46	254.37	18.33	-48.5	-50.6	6.2	0.00e+00	0	55	104	0	68	18594
2026-01-26 10:46:30.47	254.17	18.19	-48.5	-50.7	6.2	0.00e+00	0	54	104	0	68	18620
2026-01-26 10:46:31.48	253.97	18.06	-48.5	-50.6	6.2	0.00e+00	0	55	104	0	68	18549
2026-01-26 10:46:32.49	253.77	17.92	-48.5	-50.7	6.2	0.00e+00	0	55	104	0	68	18649
2026-01-26 10:46:33.50	253.57	17.79	-48.5	-50.6	6.2	0.00e+00	0	54	104	0	68	18572
2026-01-26 10:46:34.51	253.38	17.66	-48.5	-50.7	6.2	0.00e+00	0	55	104	0	68	18636
2026-01-26 10:46:35.51	253.19	17.53	-48.5	-50.7	6.2	0.00e+00	0	55	104	0	68	18627
2026-01-26 10:46:36.52	253.00	17.39	-48.5	-50.6	6.2	0.00e+00	0	54	104	0	68	18584
2026-01-26 10:46:37.53	252.81	17.26	-48.5	-50.6	6.2	0.00e+00	0	54	104	0	68	18592
2026-01-26 10:46:38.54	252.63	17.13	-48.5	-50.7	6.2	0.00e+00	0	55	104	0	68	18640
2026-01-26 10:46:39.55	252.44	17.00	-48.5	-50.7	6.2	0.00e+00	0	55	104	0	68	18627
2026-01-26 10:46:40.55	252.26	16.87	-48.5	-50.7	6.2	0.00e+00	0	54	104	0	68	18632
2026-01-26 10:46:41.56	252.08	16.74	-48.5	-50.7	6.2	0.00e+00	0	54	104	0	68	18611
2026-01-26 10:46:42.57	251.90	16.62	-48.5	-50.7	6.2	0.00e+00	0	55	104	0	68	18608
2026-01-26 10:46:43.57	251.73	16.49	-48.5	-50.6	6.2	0.00e+00	0	55	104	0	68	18599
2026-01-26 10:46:44.58	251.55	16.36	-48.5	-50.6	6.2	0.00e+00	0	54	104	0	68	18582
2026-01-26 10:46:45.59	251.38	16.24	-48.5	-50.7	6.2	0.00e+00	0	54	104	0	68	18642
2026-01-26 10:46:46.60	251.21	16.11	-48.5	-50.7	6.2	0.00e+00	0	55	104	0	68	18637
2026-01-26 10:46:47.61	251.04	15.98	-48.5	-50.7	6.2	0.00e+00	0	54	104	0	68	18649
2026-01-26 10:46:48.61	250.87	15.86	-48.5	-50.6	6.2	0.00e+00	0	54	104	0	68	18572
2026-01-26 10:46:49.62	250.71	15.74	-48.5	-50.7	6.2	0.00e+00	0	55	104	0	68	18628
2026-01-26 10:46:50.63	250.54	15.61	-48.5	-50.7	6.2	0.00e+00	0	54	104	0	68	18625
2026-01-26 10:46:51.64	250.38	15.49	-48.5	-50.6	6.2	0.00e+00	0	54	104	0	68	18585
2026-01-26 10:46:52.65	250.21	15.37	-48.5	-50.7	6.2	0.00e+00	0	54	104	0	68	18709
2026-01-26 10:46:53.65	250.06	15.25	-48.5	-50.7	6.2	0.00e+00	0	54	104	0	68	18620
2026-01-26 10:46:54.66	249.90	15.13	-48.5	-50.7	6.2	0.00e+00	0	54	104	0	68	18629
2026-01-26 10:46:55.66	249.74	15.01	-48.5	-50.7	6.2	0.00e+00	0	54	104	0	68	18615
2026-01-26 10:46:56.67	249.59	14.89	-48.5	-50.7	6.2	0.00e+00	0	54	104	0	68	18617
2026-01-26 10:46:57.68	249.43	14.77	-48.5	-50.7	6.2	0.00e+00	0	55	104	0	68	18652
2026-01-26 10:46:58.69	249.28	14.65	-48.5	-50.7	6.2	0.00e+00	0	54	104	0	68	18608
2026-01-26 10:46:59.70	249.13	14.53	-48.5	-50.7	6.2	0.00e+00	0	55	104	0	68	18651
2026-01-26 10:47:00.71	248.98	14.41	-48.5	-50.6	6.2	0.00e+00	0	55	104	0	68	18554
2026-01-26 10:47:01.72	248.83	14.29	-48.5	-50.6	6.2	0.00e+00	0	55	104	0	68	18569
2026-01-26 10:47:02.73	248.68	14.18	-48.5	-50.7	6.2	0.00e+00	0	55	104	0	68	18609
2026-01-26 10:47:03.74	248.54	14.06	-48.5	-50.7	6.2	0.00e+00	0	55	104	0	68	18615
2026-01-26 10:47:04.74	248.39	13.95	-48.5	-50.7	6.2	0.00e+00	0	55	104	0	68	18607
2026-01-26 10:47:05.75	248.25	13.83	-48.5	-50.7	6.2	0.00e+00	0	55	104	0	68	18634
2026-01-26 10:47:06.76	248.11	13.72	-48.5	-50.7	6.2	0.00e+00	0	55	104	0	68	18625
2026-01-26 10:47:07.76	247.97	13.61	-48.5	-50.7	6.2	0.00e+00	0	54	104	0	68	18621
2026-01-26 10:47:08.76	247.83	13.49	-48.5	-50.6	6.2	0.00e+00	0	54	104	0	68	18526
2026-01-26 10:47:09.77	247.70	13.38	-48.5	-50.7	6.2	0.00e+00	0	54	104	0	68	18611
2026-01-26 10:47:10.77	247.56	13.27	-48.5	-50.6	6.2	0.00e+00	0	55	104	0	68	18581
2026-01-26 10:47:11.78	247.43	13.16	-48.5	-50.7	6.2	0.00e+00	0	55	104	0	68	18628
2026-01-26 10:47:12.79	247.29	13.05	-48.5	-50.6	6.2	0.00e+00	0	55	104	0	68	18575
2026-01-26 10:47:13.80	247.16	12.93	-48.5	-50.6	6.2	0.00e+00	0	55	104	0	68	18506
2026-01-26 10:47:14.80	247.03	12.83	-48.5	-50.6	6.2	0.00e+00	0	54	104	0	68	18541
2026-01-26 10:47:15.81	246.90	12.72	-48.5	-50.6	6.2	0.00e+00	0	55	104	0	68	18586
2026-01-26 10:47:16.82	246.77	12.61	-48.5	-50.6	6.2	0.00e+00	0	55	104	0	68	18557
2026-01-26 10:47:17.83	246.64	12.50	-48.5	-50.6	6.2	0.00e+00	0	55	104	0	68	18555
2026-01-26 10:47:18.84	246.52	12.39	-48.5	-50.6	6.2	0.00e+00	0	55	104	0	68	18591
2026-01-26 10:47:19.84	246.39	12.28	-48.5	-50.7	6.2	0.00e+00	0	54	104	0	68	18655
2026-01-26 10:47:20.85	246.27	12.18	-48.5	-50.6	6.2	0.00e+00	0	55	104	0	68	18576
2026-01-26 10:47:21.85	246.14	12.07	-48.5	-50.6	6.2	0.00e+00	0	55	104	0	68	18601
2026-01-26 10:47:22.86	246.02	11.96	-48.5	-50.7	6.2	0.00e+00	0	55	104	0	68	18626
2026-01-26 10:47:23.87	245.90	11.86	-48.5	-50.7	6.2	0.00e+00	0	55	104	0	68	18610
2026-01-26 10:47:24.87	245.78	11.75	-48.5	-50.7	6.2	0.00e+00	0	55	104	0	68	18617
2026-01-26 10:47:25.88	245.66	11.65	-48.5	-50.6	6.2	0.00e+00	0	55	104	0	68	18598
2026-01-26 10:47:26.89	245.54	11.55	-48.5	-50.7	6.2	0.00e+00	0	55	104	0	68	18689
2026-01-26 10:47:27.90	245.43	11.44	-48.5	-50.7	6.2	0.00e+00	0	55	104	0	68	18626
2026-01-26 10:47:28.90	245.31	11.34	-48.5	-50.6	6.2	0.00e+00	0	55	104	0	68	18576
2026-01-26 10:47:29.91	245.20	11.24	-48.5	-50.6	6.2	0.00e+00	0	55	104	0	68	18585
2026-01-26 10:47:30.93	245.08	11.13	-48.5	-50.7	6.2	0.00e+00	0	55	104	0	68	18660
2026-01-26 10:47:31.93	244.97	11.03	-48.5	-50.6	6.2	0.00e+00	0	55	104	0	68	18593
2026-01-26 10:47:32.94	244.86	10.93	-48.5	-50.7	6.2	0.00e+00	0	54	104	0	68	18663
2026-01-26 10:47:33.95	244.75	10.83	-48.5	-50.6	6.2	0.00e+00	0	54	104	0	68	18587
2026-01-26 10:47:34.96	244.64	10.73	-48.5	-50.7	6.2	0.00e+00	0	54	104	0	68	18628
2026-01-26 10:47:35.96	244.53	10.63	-48.5	-50.7	6.2	0.00e+00	0	55	104	0	68	18619
2026-01-26 10:47:36.97	244.42	10.53	-48.5	-50.7	6.2	0.00e+00	0	54	104	0	68	18636
2026-01-26 10:47:37.98	244.31	10.43	-48.5	-50.7	6.2	0.00e+00	0	55	104	0	68	18637
2026-01-26 10:47:38.98	244.21	10.33	-48.5	-50.6	6.2	0.00e+00	0	55	104	0	68	18600
2026-01-26 10:47:39.99	244.10	10.24	-48.5	-50.7	6.2	0.00e+00	0	54	104	0	68	18605
2026-01-26 10:47:40.99	244.00	10.14	-48.5	-50.6	6.2	0.00e+00	0	55	104	0	68	18552
2026-01-26 10:47:42.00	243.89	10.04	-48.5	-50.7	6.2	0.00e+00	0	55	104	0	68	18619
2026-01-26 10:47:43.01	243.79	9.94	-48.5	-50.6	6.2	0.00e+00	0	55	104	0	68	18573
2026-01-26 10:47:44.02	243.69	9.85	-48.5	-50.6	6.2	0.00e+00	0	55	104	0	68	18576
2026-01-26 10:47:45.03	243.59	9.75	-48.5	-50.7	6.2	0.00e+00	0	55	104	0	68	18624
2026-01-26 10:47:46.04	243.49	9.66	-48.5	-50.6	6.2	0.00e+00	0	54	104	0	68	18591
2026-01-26 10:47:47.05	243.39	9.56	-48.5	-50.7	6.2	0.00e+00	0	55	104	0	68	18613
2026-01-26 10:47:48.05	243.29	9.47	-48.5	-50.6	6.2	0.00e+00	0	55	104	0	68	18602
2026-01-26 10:47:49.05	243.19	9.37	-48.5	-50.6	6.2	0.00e+00	0	55	104	0	68	18559
2026-01-26 10:47:50.06	243.09	9.28	-48.5	-50.7	6.2	0.00e+00	0	55	104	0	68	18646
2026-01-26 10:47:51.07	243.00	9.18	-48.5	-50.7	6.2	0.00e+00	0	55	104	0	68	18613
2026-01-26 10:47:52.07	242.90	9.09	-48.5	-50.7	6.2	0.00e+00	0	54	104	0	68	18631
2026-01-26 10:47:53.08	242.81	9.00	-48.5	-50.7	6.2	0.00e+00	0	55	104	0	68	18649
2026-01-26 10:47:54.09	242.71	8.91	-48.5	-50.7	6.2	0.00e+00	0	55	104	0	68	18666
2026-01-26 10:47:55.09	242.62	8.81	-48.5	-50.7	6.2	0.00e+00	0	55	104	0	68	18690
2026-01-26 10:47:56.09	242.53	8.72	-48.5	-50.7	6.2	0.00e+00	0	55	104	0	68	18622
2026-01-26 10:47:57.10	242.44	8.63	-48.5	-50.7	6.2	0.00e+00	0	55	104	0	68	18606
2026-01-26 10:47:58.11	242.35	8.54	-48.5	-50.6	6.2	0.00e+00	0	55	104	0	68	18581
2026-01-26 10:47:59.11	242.26	8.45	-48.5	-50.7	6.2	0.00e+00	0	54	104	0	68	18655
2026-01-26 10:48:00.12	242.17	8.36	-48.4	-50.7	6.2	0.00e+00	0	55	104	0	68	18625
2026-01-26 10:48:01.13	242.08	8.27	-48.5	-50.7	6.2	0.00e+00	0	55	104	0	68	18635
2026-01-26 10:48:02.14	241.99	8.18	-48.5	-50.7	6.2	0.00e+00	0	55	104	0	68	18676
2026-01-26 10:48:03.15	241.90	8.09	-48.5	-50.7	6.2	0.00e+00	0	55	104	0	68	18634
2026-01-26 10:48:04.16	241.82	8.00	-48.5	-50.7	6.2	0.00e+00	0	55	104	0	68	18662
2026-01-26 10:48:05.17	241.73	7.91	-48.5	-50.6	6.2	0.00e+00	0	55	104	0	68	18567
2026-01-26 10:48:06.17	241.64	7.83	-48.5	-50.7	6.2	0.00e+00	0	55	104	0	68	18689
2026-01-26 10:48:07.19	241.56	7.74	-48.5	-50.7	6.2	0.00e+00	0	55	104	0	68	18637
2026-01-26 10:48:08.20	241.47	7.65	-48.5	-50.7	6.2	0.00e+00	0	55	104	0	68	18620
2026-01-26 10:48:09.21	241.39	7.56	-48.5	-50.6	6.2	0.00e+00	0	54	104	0	68	18562
2026-01-26 10:48:10.21	241.31	7.48	-48.5	-50.7	6.2	0.00e+00	0	55	104	0	68	18676
2026-01-26 10:48:11.23	241.22	7.39	-48.5	-50.6	6.2	0.00e+00	0	55	104	0	68	18563
2026-01-26 10:48:12.23	241.14	7.31	-48.5	-50.7	6.2	0.00e+00	0	55	104	0	68	18653
2026-01-26 10:48:13.24	241.06	7.22	-48.5	-50.7	6.2	0.00e+00	0	55	104	0	68	18633
2026-01-26 10:48:14.25	240.98	7.13	-48.5	-50.6	6.2	0.00e+00	0	55	104	0	68	18557
2026-01-26 10:48:15.25	240.90	7.05	-48.5	-50.6	6.2	0.00e+00	0	55	104	0	68	18597
2026-01-26 10:48:16.26	240.82	6.97	-48.5	-50.7	6.2	0.00e+00	0	55	104	0	68	18615
2026-01-26 10:48:17.27	240.74	6.88	-48.5	-50.7	6.2	0.00e+00	0	55	104	0	68	18605
2026-01-26 10:48:18.28	240.67	6.80	-48.5	-50.7	6.2	0.00e+00	0	55	104	0	68	18662
2026-01-26 10:48:19.28	240.59	6.71	-48.5	-50.7	6.2	0.00e+00	0	55	104	0	68	18651
2026-01-26 10:48:20.29	240.51	6.63	-48.5	-50.7	6.2	0.00e+00	0	55	104	0	68	18631
2026-01-26 10:48:21.30	240.44	6.55	-48.5	-50.6	6.2	0.00e+00	0	54	104	0	68	18585
2026-01-26 10:48:22.31	240.36	6.46	-48.5	-50.7	6.2	0.00e+00	0	55	104	0	68	18624
2026-01-26 10:48:23.32	240.28	6.38	-48.5	-50.7	6.2	0.00e+00	0	55	104	0	68	18644
2026-01-26 10:48:24.33	240.21	6.30	-49.1	-51.3	6.2	0.00e+00	0	55	104	0	68	20045
2026-01-26 10:48:25.34	240.14	6.22	-49.5	-51.6	6.2	0.00e+00	0	54	104	0	69	19623
2026-01-26 10:48:26.35	240.06	6.14	-49.5	-51.6	6.2	0.00e+00	0	54	104	0	69	19665
2026-01-26 10:48:27.36	239.99	6.06	-49.5	-51.6	6.2	0.00e+00	0	55	104	0	69	19671
2026-01-26 10:48:28.37	239.92	5.97	-49.5	-51.6	6.2	0.00e+00	0	55	104	0	69	19639
2026-01-26 10:48:29.37	239.84	5.89	-49.5	-51.7	6.2	0.00e+00	0	55	104	0	69	19711
2026-01-26 10:48:30.38	239.77	5.81	-49.5	-51.6	6.2	0.00e+00	0	55	104	0	69	19662
2026-01-26 10:48:31.39	239.70	5.73	-49.5	-51.6	6.2	0.00e+00	0	55	104	0	69	19663
2026-01-26 10:48:32.39	239.63	5.65	-49.5	-51.6	6.2	0.00e+00	0	55	104	0	69	19609
2026-01-26 10:48:33.40	239.56	5.57	-49.5	-51.6	6.2	0.00e+00	0	55	104	0	69	19664
2026-01-26 10:48:34.41	239.49	5.50	-49.5	-51.6	6.2	0.00e+00	0	55	104	0	69	19681
2026-01-26 10:48:35.42	239.42	5.42	-49.5	-51.6	6.2	0.00e+00	0	55	104	0	69	19689
2026-01-26 10:48:36.43	239.35	5.34	-49.5	-51.7	6.2	0.00e+00	0	54	104	0	69	19705
2026-01-26 10:48:37.43	239.29	5.26	-49.5	-51.6	6.2	0.00e+00	0	55	104	0	69	19652
2026-01-26 10:48:38.44	239.22	5.18	-49.5	-51.6	6.2	0.00e+00	0	55	104	0	69	19672
2026-01-26 10:48:39.44	239.15	5.10	-49.5	-51.6	6.2	0.00e+00	0	54	104	0	69	19669
2026-01-26 10:48:40.45	239.09	5.03	-49.5	-51.6	6.2	0.00e+00	0	55	104	0	69	19691
2026-01-26 10:48:41.46	239.02	4.95	-49.5	-51.6	6.2	0.00e+00	0	55	104	0	69	19612
2026-01-26 10:48:42.47	238.95	4.87	-49.5	-51.6	6.2	0.00e+00	0	55	104	0	69	19695
2026-01-26 10:48:43.48	238.89	4.80	-49.5	-51.6	6.2	0.00e+00	0	55	104	0	69	19591
2026-01-26 10:48:44.48	238.82	4.72	-49.5	-51.6	6.2	0.00e+00	0	55	104	0	69	19691
2026-01-26 10:48:45.49	238.76	4.64	-49.5	-51.6	6.2	0.00e+00	0	55	104	0	69	19675
2026-01-26 10:48:46.50	238.70	4.57	-49.5	-51.6	6.2	0.00e+00	0	55	104	0	69	19637
2026-01-26 10:48:47.50	238.63	4.49	-49.5	-51.6	6.2	0.00e+00	0	55	104	0	69	19646
2026-01-26 10:48:48.52	238.57	4.42	-49.5	-51.6	6.2	0.00e+00	0	55	104	0	69	19673
2026-01-26 10:48:49.52	238.51	4.34	-49.5	-51.6	6.2	0.00e+00	0	55	104	0	69	19567
2026-01-26 10:48:50.53	238.45	4.27	-49.5	-51.6	6.2	0.00e+00	0	55	104	0	69	19674
2026-01-26 10:48:51.54	238.38	4.19	-49.5	-51.6	6.2	0.00e+00	0	55	104	0	69	19655
2026-01-26 10:48:52.54	238.32	4.12	-49.5	-51.6	6.2	0.00e+00	0	55	104	0	69	19681
2026-01-26 10:48:53.55	238.26	4.04	-49.5	-51.6	6.2	0.00e+00	0	54	104	0	69	19594
2026-01-26 10:48:54.56	238.20	3.97	-49.5	-51.6	6.2	0.00e+00	0	55	104	0	69	19660
2026-01-26 10:48:55.57	238.14	3.90	-49.5	-51.6	6.2	0.00e+00	0	55	104	0	69	19632
2026-01-26 10:48:56.58	238.08	3.82	-49.5	-51.6	6.2	0.00e+00	0	55	104	0	69	19701
2026-01-26 10:48:57.58	238.02	3.75	-49.5	-51.6	6.2	0.00e+00	0	55	104	0	69	19703
2026-01-26 10:48:58.59	237.96	3.68	-49.5	-51.7	6.2	0.00e+00	0	55	104	0	69	19721
2026-01-26 10:48:59.60	237.90	3.60	-49.5	-51.6	6.2	0.00e+00	0	55	104	0	69	19618
2026-01-26 10:49:00.60	237.85	3.53	-49.5	-51.6	6.2	0.00e+00	0	55	104	0	69	19656
2026-01-26 10:49:01.61	237.79	3.46	-49.5	-51.6	6.2	0.00e+00	0	55	104	0	69	19673
2026-01-26 10:49:02.61	237.73	3.39	-49.5	-51.7	6.2	0.00e+00	0	54	104	0	69	19706
2026-01-26 10:49:03.63	237.67	3.31	-49.5	-51.6	6.2	0.00e+00	0	55	104	0	69	19684
2026-01-26 10:49:04.63	237.62	3.24	-49.5	-51.6	6.2	0.00e+00	0	55	104	0	69	19675
2026-01-26 10:49:05.64	237.56	3.17	-49.5	-51.6	6.2	0.00e+00	0	55	104	0	69	19664
2026-01-26 10:49:06.65	237.51	3.10	-49.5	-51.6	6.2	0.00e+00	0	55	104	0	69	19667
2026-01-26 10:49:07.66	237.45	3.03	-49.5	-51.6	6.2	0.00e+00	0	55	104	0	69	19638
2026-01-26 10:49:08.67	237.40	2.96	-49.8	-51.9	6.2	0.00e+00	0	55	104	0	70	19226
2026-01-26 10:49:09.68	237.34	2.89	-49.9	-52.0	6.2	0.00e+00	0	55	104	0	70	19363
2026-01-26 10:49:10.68	237.29	2.82	-49.9	-52.0	6.2	0.00e+00	0	55	104	0	70	19397
2026-01-26 10:49:11.69	237.23	2.75	-49.8	-52.0	6.2	0.00e+00	0	54	104	0	70	19319
2026-01-26 10:49:12.70	237.18	2.68	-49.8	-52.0	6.2	0.00e+00	0	55	104	0	70	19320
2026-01-26 10:49:13.71	237.12	2.61	-49.8	-52.0	6.2	0.00e+00	0	55	104	0	70	19359
2026-01-26 10:49:14.71	237.07	2.54	-49.8	-52.0	6.2	0.00e+00	0	55	104	0	70	19268
2026-01-26 10:49:15.72	237.02	2.47	-49.8	-52.0	6.2	0.00e+00	0	55	104	0	70	19341
2026-01-26 10:49:16.73	236.97	2.40	-49.8	-51.9	6.2	0.00e+00	0	54	104	0	70	19242
2026-01-26 10:49:17.73	236.91	2.33	-49.8	-52.0	6.2	0.00e+00	0	55	104	0	70	19297
2026-01-26 10:49:18.74	236.86	2.26	-49.8	-52.0	6.2	0.00e+00	0	55	104	0	70	19325
2026-01-26 10:49:19.74	236.81	2.20	-49.8	-52.0	6.2	0.00e+00	0	55	104	0	70	19306
2026-01-26 10:49:20.75	236.76	2.13	-49.8	-52.0	6.2	0.00e+00	0	55	104	0	70	19340
2026-01-26 10:49:21.76	236.71	2.06	-49.8	-52.0	6.2	0.00e+00	0	55	104	0	70	19313
2026-01-26 10:49:22.77	236.66	1.99	-49.8	-52.0	6.2	0.00e+00	0	55	104	0	70	19260

#Closed at: 2026-01-26 10:49:23
#Recorded file [0 MB]: D:/lorett/data/31041_260126_133909.dat