passes_logs/2026/01/26/R3.2S_Murmansk/R3.2S_Murmansk__20260126_070214_FENGYUN_3D_rec.log

#Pass ID: 20260126_070214_FENGYUN 3D
#Satellite: FENGYUN 3D
#Configuration: FENGYUN 3D
#almurnet v.1.7.20251203
#Start time: 2026-01-26 07:02:14

#Version: 2.2.20231116
#Station: R3.2S_Murmansk
#Location: 33.079688 lon 68.888172 lat
#TLE: 1 43010U 17072A   26025.99795741 -.00000136  00000+0 -42313-4 0  9999
#TLE: 2 43010  98.9962 357.9855 0002515  89.6991 270.4472 14.19699257424818

#Time	Az	El	Level	Level2	SNR	BER	BlckErr	Temp	State	Recorded	gain1	gain2
2026-01-26 07:02:14.72	59.64	2.02	-54.0	-66.0	3.8	8.48e-01	0	41	0	0	79	14387
2026-01-26 07:02:15.72	59.57	2.08	-54.0	-65.9	3.8	8.46e-01	0	41	104	0	78	15223
2026-01-26 07:02:16.73	59.51	2.14	-54.0	-66.0	3.8	8.46e-01	0	41	104	0	78	15238
2026-01-26 07:02:17.74	59.45	2.20	-54.0	-66.0	3.8	8.46e-01	0	41	104	0	78	15251
2026-01-26 07:02:18.74	59.38	2.25	-54.0	-65.9	3.8	8.47e-01	0	41	104	0	78	15218
2026-01-26 07:02:19.75	59.32	2.31	-54.0	-65.9	3.8	8.47e-01	0	41	104	0	78	15225
2026-01-26 07:02:20.76	59.25	2.37	-54.0	-65.9	3.8	8.45e-01	0	41	104	0	78	15220
2026-01-26 07:02:21.77	59.19	2.43	-54.0	-65.9	3.8	8.46e-01	0	41	104	0	78	15208
2026-01-26 07:02:22.78	59.12	2.49	-54.0	-65.9	3.8	8.45e-01	0	41	104	0	78	15175
2026-01-26 07:02:23.79	59.06	2.54	-53.9	-65.9	3.8	8.45e-01	0	42	104	0	78	15130
2026-01-26 07:02:24.79	58.99	2.60	-53.9	-65.9	3.8	8.47e-01	0	41	104	0	78	15126
2026-01-26 07:02:25.81	58.93	2.66	-53.9	-65.9	3.8	8.46e-01	0	42	104	0	78	15124
2026-01-26 07:02:26.81	58.86	2.72	-53.9	-65.9	3.8	8.46e-01	0	42	104	0	78	15129
2026-01-26 07:02:27.82	58.79	2.78	-53.9	-65.9	3.8	8.47e-01	0	42	104	0	78	15170
2026-01-26 07:02:28.83	58.73	2.84	-53.9	-65.9	3.8	8.46e-01	0	42	104	0	78	15129
2026-01-26 07:02:29.83	58.66	2.89	-54.1	-66.0	3.8	8.45e-01	0	42	104	0	78	15366
2026-01-26 07:02:30.84	58.59	2.95	-54.1	-66.1	3.8	8.46e-01	0	42	104	0	78	15501
2026-01-26 07:02:31.85	58.52	3.01	-54.2	-66.1	3.8	8.46e-01	0	42	104	0	78	15517
2026-01-26 07:02:32.86	58.46	3.07	-54.2	-66.2	3.8	8.46e-01	0	42	104	0	78	15585
2026-01-26 07:02:33.87	58.39	3.13	-54.1	-66.1	3.8	8.46e-01	0	42	104	0	78	15516
2026-01-26 07:02:34.87	58.32	3.19	-54.1	-66.1	3.8	8.46e-01	0	42	104	0	78	15423
2026-01-26 07:02:35.88	58.25	3.25	-54.1	-66.1	3.8	8.44e-01	0	42	104	0	78	15402
2026-01-26 07:02:36.89	58.18	3.31	-54.0	-66.0	3.8	8.47e-01	0	42	104	0	78	15276
2026-01-26 07:02:37.90	58.11	3.37	-54.0	-65.9	3.8	8.47e-01	0	42	104	0	78	15206
2026-01-26 07:02:38.91	58.04	3.43	-53.9	-65.9	3.8	8.45e-01	0	42	104	0	78	15095
2026-01-26 07:02:39.91	57.97	3.49	-53.8	-65.8	3.8	8.45e-01	0	42	104	0	78	14934
2026-01-26 07:02:40.92	57.90	3.54	-53.8	-65.7	3.8	8.46e-01	0	42	104	0	78	14837
2026-01-26 07:02:41.93	57.83	3.60	-53.7	-65.6	3.8	8.46e-01	0	42	104	0	78	14699
2026-01-26 07:02:42.93	57.76	3.66	-53.7	-65.6	3.8	8.47e-01	0	42	104	0	78	14654
2026-01-26 07:02:43.94	57.69	3.72	-53.6	-65.5	3.8	8.45e-01	0	42	104	0	78	14412
2026-01-26 07:02:44.95	57.62	3.78	-53.5	-65.4	3.8	8.46e-01	0	42	104	0	78	14281
2026-01-26 07:02:45.96	57.55	3.84	-53.3	-65.3	3.8	8.46e-01	0	42	104	0	78	14054
2026-01-26 07:02:46.96	57.48	3.90	-53.2	-65.1	3.8	8.47e-01	0	42	104	0	78	13862
2026-01-26 07:02:47.97	57.40	3.96	-53.1	-65.0	3.8	8.47e-01	0	42	104	0	78	13716
2026-01-26 07:02:48.98	57.33	4.02	-53.0	-64.9	3.8	8.46e-01	0	42	104	0	78	13527
2026-01-26 07:02:49.99	57.26	4.08	-52.7	-64.6	3.8	8.46e-01	0	42	104	0	77	13798
2026-01-26 07:02:51.00	57.18	4.15	-52.3	-64.1	3.8	8.47e-01	0	42	104	0	76	13853
2026-01-26 07:02:52.01	57.11	4.21	-51.5	-60.7	3.9	8.46e-01	0	42	104	0	75	9919
2026-01-26 07:02:53.02	57.04	4.27	-51.2	-59.2	4.5	8.28e-01	0	42	0	0	74	8797
2026-01-26 07:02:54.02	56.96	4.33	-51.2	-59.3	4.4	8.26e-01	0	42	0	0	74	8937
2026-01-26 07:02:55.02	56.89	4.39	-51.3	-59.6	4.3	8.28e-01	0	42	0	0	74	9221
2026-01-26 07:02:56.03	56.81	4.45	-51.2	-59.3	4.4	8.28e-01	0	42	0	0	74	8882
2026-01-26 07:02:57.04	56.74	4.51	-50.9	-57.6	5.3	7.55e-01	0	43	0	0	73	7758
2026-01-26 07:02:58.05	56.66	4.57	-50.5	-56.2	6.3	3.51e-01	0	42	0	2097152	73	6574
2026-01-26 07:02:59.05	56.59	4.63	-49.6	-53.7	8.6	8.85e-02	0	42	0	8388608	71	5578
2026-01-26 07:03:00.06	56.51	4.69	-48.9	-52.2	10.2	9.63e-03	0	42	0	13631488	69	5277
2026-01-26 07:03:01.07	56.43	4.75	-48.2	-50.9	11.6	2.29e-03	0	43	0	19922944	68	4792
2026-01-26 07:03:02.08	56.36	4.82	-47.3	-49.6	12.9	1.70e-04	0	42	0	25165824	66	4632
2026-01-26 07:03:03.08	56.28	4.88	-46.9	-49.0	13.6	2.17e-05	0	43	0	30408704	65	4551
2026-01-26 07:03:04.09	56.20	4.94	-46.3	-48.1	14.4	1.10e-06	0	43	0	36700160	64	4377
2026-01-26 07:03:05.10	56.12	5.00	-46.4	-48.4	14.2	5.70e-06	0	43	0	41943040	64	4517
2026-01-26 07:03:06.11	56.05	5.06	-46.5	-48.5	14.0	1.60e-05	0	42	0	47185920	64	4595
2026-01-26 07:03:07.11	55.97	5.12	-45.8	-47.5	15.3	0.00e+00	0	43	0	53477376	62	4579
2026-01-26 07:03:08.12	55.89	5.19	-46.9	-49.0	13.6	3.43e-05	0	42	0	59768832	65	4562
2026-01-26 07:03:09.13	55.81	5.25	-49.4	-53.4	8.9	1.76e-02	0	43	0	65011712	70	5663
2026-01-26 07:03:10.14	55.73	5.31	-43.4	-44.5	18.7	0.00e+00	0	43	0	70254592	58	4065
2026-01-26 07:03:11.14	55.65	5.37	-51.4	-61.6	3.8	8.31e-01	0	43	104	73400320	73	12264
2026-01-26 07:03:12.15	55.57	5.43	-43.6	-44.8	18.3	0.00e+00	0	43	0	75497472	59	3973
2026-01-26 07:03:13.16	55.49	5.50	-43.2	-44.3	18.9	0.00e+00	0	43	0	81788928	58	3959
2026-01-26 07:03:14.16	55.41	5.56	-43.0	-44.0	19.1	0.00e+00	0	43	0	87031808	58	3867
2026-01-26 07:03:15.17	55.33	5.62	-43.5	-44.6	18.6	0.00e+00	0	43	0	92274688	57	4381
2026-01-26 07:03:16.18	55.24	5.68	-43.0	-44.1	19.1	0.00e+00	0	43	0	98566144	57	4110
2026-01-26 07:03:17.19	55.16	5.75	-43.2	-44.3	18.9	0.00e+00	0	43	0	103809024	57	4209
2026-01-26 07:03:18.20	55.08	5.81	-43.3	-44.4	18.8	0.00e+00	0	43	0	110100480	57	4278
2026-01-26 07:03:19.20	55.00	5.87	-43.3	-44.4	18.8	0.00e+00	0	43	0	115343360	57	4262
2026-01-26 07:03:20.21	54.91	5.94	-43.0	-44.1	19.1	0.00e+00	0	43	0	120586240	57	4144
2026-01-26 07:03:21.22	54.83	6.00	-43.3	-44.4	18.8	0.00e+00	0	43	0	126877696	57	4290
2026-01-26 07:03:22.23	54.74	6.06	-43.2	-44.3	18.9	0.00e+00	0	43	0	133169152	57	4215
2026-01-26 07:03:23.23	54.66	6.13	-43.0	-44.1	19.2	0.00e+00	0	43	0	138412032	57	4108
2026-01-26 07:03:24.24	54.58	6.19	-43.0	-44.1	19.2	0.00e+00	0	43	0	143654912	57	4103
2026-01-26 07:03:25.25	54.49	6.25	-42.7	-43.8	19.5	0.00e+00	0	43	0	149946368	57	3964
2026-01-26 07:03:26.25	54.41	6.32	-43.2	-44.3	19.0	0.00e+00	0	43	0	155189248	57	4228
2026-01-26 07:03:27.26	54.32	6.38	-43.5	-44.7	18.6	0.00e+00	0	43	0	160432128	57	4407
2026-01-26 07:03:28.27	54.23	6.44	-43.0	-44.1	19.2	0.00e+00	0	43	0	166723584	57	4130
2026-01-26 07:03:29.28	54.15	6.51	-43.2	-44.3	19.1	0.00e+00	0	43	0	171966464	57	4209
2026-01-26 07:03:30.28	54.06	6.57	-42.9	-44.0	19.4	0.00e+00	0	43	0	178257920	57	4059
2026-01-26 07:03:31.29	53.97	6.64	-43.0	-44.1	19.3	0.00e+00	0	43	0	183500800	57	4117
2026-01-26 07:03:32.30	53.88	6.70	-43.3	-44.4	18.9	0.00e+00	0	43	0	188743680	57	4284
2026-01-26 07:03:33.30	53.80	6.76	-43.1	-44.2	19.1	0.00e+00	0	43	0	195035136	57	4174
2026-01-26 07:03:34.31	53.71	6.83	-43.1	-44.2	19.2	0.00e+00	0	43	0	200278016	57	4180
2026-01-26 07:03:35.32	53.62	6.89	-43.2	-44.3	19.1	0.00e+00	0	43	0	205520896	57	4207
2026-01-26 07:03:36.33	53.53	6.96	-43.5	-44.7	18.7	0.00e+00	0	43	0	211812352	57	4402
2026-01-26 07:03:37.34	53.44	7.02	-43.4	-44.5	18.9	0.00e+00	0	43	0	218103808	57	4306
2026-01-26 07:03:38.34	53.35	7.09	-43.2	-44.3	19.0	0.00e+00	0	43	0	223346688	57	4234
2026-01-26 07:03:39.35	53.26	7.15	-43.6	-44.8	18.6	0.00e+00	0	43	0	228589568	57	4456
2026-01-26 07:03:40.36	53.17	7.22	-43.1	-44.2	19.2	0.00e+00	0	43	0	234881024	57	4166
2026-01-26 07:03:41.37	53.07	7.28	-42.9	-43.9	19.5	0.00e+00	0	43	0	240123904	57	4035
2026-01-26 07:03:42.39	52.98	7.35	-43.0	-44.0	19.4	0.00e+00	0	43	0	245366784	57	4084
2026-01-26 07:03:43.39	52.89	7.41	-42.8	-43.9	19.6	0.00e+00	0	43	0	251658240	57	4006
2026-01-26 07:03:44.40	52.79	7.48	-42.8	-43.8	19.7	0.00e+00	0	43	0	256901120	57	3978
2026-01-26 07:03:45.41	52.70	7.55	-42.8	-43.8	19.6	0.00e+00	0	43	0	263192576	57	4004
2026-01-26 07:03:46.42	52.61	7.61	-43.3	-44.4	19.1	0.00e+00	0	43	0	268435456	57	4257
2026-01-26 07:03:47.43	52.51	7.68	-42.9	-43.9	19.6	0.00e+00	0	43	0	274726912	57	4018
2026-01-26 07:03:48.44	52.42	7.74	-42.6	-43.6	19.9	0.00e+00	0	43	0	279969792	57	3911
2026-01-26 07:03:49.45	52.32	7.81	-42.4	-43.3	20.2	0.00e+00	0	43	0	286261248	56	4003
2026-01-26 07:03:50.46	52.23	7.87	-42.5	-43.4	20.1	0.00e+00	0	43	0	291504128	56	4049
2026-01-26 07:03:51.46	52.13	7.94	-42.3	-43.2	20.3	0.00e+00	0	43	0	296747008	56	3947
2026-01-26 07:03:52.47	52.03	8.01	-42.3	-43.3	20.3	0.00e+00	0	43	0	303038464	56	3991
2026-01-26 07:03:53.49	51.94	8.07	-42.6	-43.6	20.0	0.00e+00	0	43	0	308281344	56	4115
2026-01-26 07:03:54.50	51.84	8.14	-42.5	-43.5	20.1	0.00e+00	0	43	0	313524224	56	4063
2026-01-26 07:03:55.50	51.74	8.21	-42.7	-43.7	19.9	0.00e+00	0	43	0	319815680	56	4167
2026-01-26 07:03:56.51	51.64	8.27	-42.2	-43.1	20.5	0.00e+00	0	43	0	325058560	56	3904
2026-01-26 07:03:57.52	51.54	8.34	-42.5	-43.4	20.2	0.00e+00	0	43	0	330301440	56	4049
2026-01-26 07:03:58.53	51.44	8.41	-42.4	-43.4	20.3	0.00e+00	0	43	0	336592896	56	4016
2026-01-26 07:03:59.53	51.35	8.47	-42.2	-43.2	20.5	0.00e+00	0	43	0	342884352	56	3933
2026-01-26 07:04:00.54	51.24	8.54	-41.8	-42.7	20.9	0.00e+00	0	43	0	348127232	55	3922
2026-01-26 07:04:01.55	51.14	8.61	-42.2	-43.2	20.4	0.00e+00	0	43	0	353370112	55	4165
2026-01-26 07:04:02.56	51.04	8.67	-42.3	-43.2	20.4	0.00e+00	0	43	0	359661568	55	4184
2026-01-26 07:04:03.56	50.94	8.74	-42.3	-43.3	20.3	0.00e+00	0	43	0	364904448	55	4220
2026-01-26 07:04:04.57	50.84	8.81	-42.2	-43.1	20.4	0.00e+00	0	43	0	371195904	55	4142
2026-01-26 07:04:05.58	50.74	8.88	-42.2	-43.2	20.4	0.00e+00	0	43	0	376438784	55	4172
2026-01-26 07:04:06.59	50.63	8.94	-42.2	-43.1	20.5	0.00e+00	0	43	0	381681664	55	4127
2026-01-26 07:04:07.60	50.53	9.01	-42.2	-43.1	20.4	0.00e+00	0	43	0	387973120	55	4137
2026-01-26 07:04:08.60	50.43	9.08	-42.3	-43.3	20.3	0.00e+00	0	43	0	393216000	55	4205
2026-01-26 07:04:09.61	50.32	9.15	-42.2	-43.2	20.4	0.00e+00	0	43	0	398458880	55	4173
2026-01-26 07:04:10.62	50.21	9.21	-42.5	-43.4	20.2	0.00e+00	0	43	0	404750336	55	4291
2026-01-26 07:04:11.63	50.11	9.28	-42.4	-43.3	20.3	0.00e+00	0	43	0	411041792	55	4233
2026-01-26 07:04:12.64	50.00	9.35	-42.3	-43.2	20.4	0.00e+00	0	43	0	416284672	55	4186
2026-01-26 07:04:13.65	49.90	9.42	-42.0	-42.9	20.7	0.00e+00	0	43	0	421527552	55	4024
2026-01-26 07:04:14.66	49.79	9.49	-42.1	-43.0	20.6	0.00e+00	0	43	0	427819008	55	4074
2026-01-26 07:04:15.67	49.68	9.55	-42.1	-43.0	20.6	0.00e+00	0	43	0	433061888	55	4094
2026-01-26 07:04:16.67	49.57	9.62	-41.8	-42.8	20.9	0.00e+00	0	43	0	438304768	55	3962
2026-01-26 07:04:17.68	49.46	9.69	-42.2	-43.2	20.5	0.00e+00	0	43	0	444596224	55	4150
2026-01-26 07:04:18.69	49.35	9.76	-42.1	-43.1	20.6	0.00e+00	0	43	0	449839104	55	4116
2026-01-26 07:04:19.70	49.24	9.83	-42.1	-43.1	20.6	0.00e+00	0	43	0	456130560	55	4120
2026-01-26 07:04:20.71	49.13	9.90	-42.2	-43.2	20.5	0.00e+00	0	43	0	461373440	55	4146
2026-01-26 07:04:21.71	49.02	9.96	-42.0	-43.0	20.7	0.00e+00	0	43	0	466616320	55	4060
2026-01-26 07:04:22.72	48.91	10.03	-41.8	-42.8	20.9	0.00e+00	0	43	0	472907776	55	3960
2026-01-26 07:04:23.73	48.80	10.10	-42.1	-43.1	20.6	0.00e+00	0	43	0	479199232	55	4099
2026-01-26 07:04:24.74	48.69	10.17	-42.3	-43.3	20.4	0.00e+00	0	43	0	484442112	55	4222
2026-01-26 07:04:25.74	48.57	10.24	-42.2	-43.2	20.5	0.00e+00	0	43	0	489684992	55	4152
2026-01-26 07:04:26.75	48.46	10.31	-42.2	-43.1	20.6	0.00e+00	0	43	0	495976448	55	4130
2026-01-26 07:04:27.76	48.35	10.38	-42.1	-43.0	20.7	0.00e+00	0	43	0	501219328	55	4094
2026-01-26 07:04:28.77	48.23	10.45	-42.0	-42.9	20.8	0.00e+00	0	43	0	506462208	55	4042
2026-01-26 07:04:29.78	48.12	10.52	-42.1	-43.0	20.7	0.00e+00	0	43	0	512753664	55	4086
2026-01-26 07:04:30.78	48.00	10.59	-41.9	-42.8	20.9	0.00e+00	0	43	0	517996544	55	3991
2026-01-26 07:04:31.79	47.88	10.66	-41.7	-42.7	21.1	0.00e+00	0	43	0	523239424	55	3917
2026-01-26 07:04:32.79	47.77	10.73	-41.6	-42.5	21.2	0.00e+00	0	43	0	529530880	55	3862
2026-01-26 07:04:33.80	47.65	10.80	-41.7	-42.6	21.1	0.00e+00	0	43	0	534773760	55	3888
2026-01-26 07:04:34.81	47.53	10.87	-41.6	-42.5	21.2	0.00e+00	0	43	0	541065216	55	3855
2026-01-26 07:04:35.82	47.41	10.94	-41.7	-42.6	21.1	0.00e+00	0	43	0	546308096	55	3903
2026-01-26 07:04:36.83	47.29	11.01	-41.6	-42.5	21.2	0.00e+00	0	43	0	552599552	55	3860
2026-01-26 07:04:37.83	47.17	11.08	-41.7	-42.6	21.1	0.00e+00	0	43	0	557842432	55	3896
2026-01-26 07:04:38.84	47.05	11.15	-41.7	-42.7	21.1	0.00e+00	0	43	0	564133888	55	3919
2026-01-26 07:04:39.85	46.93	11.22	-41.6	-42.5	21.2	0.00e+00	0	43	0	569376768	55	3856
2026-01-26 07:04:40.86	46.81	11.29	-41.7	-42.6	21.1	0.00e+00	0	43	0	574619648	55	3878
2026-01-26 07:04:41.87	46.69	11.36	-41.7	-42.5	21.2	0.00e+00	0	43	0	580911104	55	3867
2026-01-26 07:04:42.87	46.57	11.43	-41.6	-42.5	21.2	0.00e+00	0	43	0	586153984	55	3846
2026-01-26 07:04:43.87	46.44	11.50	-41.7	-42.6	21.2	0.00e+00	0	43	0	591396864	55	3871
2026-01-26 07:04:44.88	46.32	11.57	-41.5	-42.4	21.4	0.00e+00	0	43	0	597688320	55	3797
2026-01-26 07:04:45.89	46.19	11.64	-41.4	-42.2	21.5	0.00e+00	0	43	0	602931200	54	3958
2026-01-26 07:04:46.90	46.07	11.71	-41.3	-42.1	21.6	0.00e+00	0	43	0	608174080	54	3909
2026-01-26 07:04:47.90	45.94	11.78	-41.2	-42.0	21.7	0.00e+00	0	43	0	614465536	54	3851
2026-01-26 07:04:48.91	45.82	11.85	-41.3	-42.1	21.6	0.00e+00	0	43	0	619708416	54	3912
2026-01-26 07:04:49.92	45.69	11.92	-41.4	-42.3	21.5	0.00e+00	0	43	0	625999872	54	3961
2026-01-26 07:04:50.92	45.56	11.99	-41.6	-42.5	21.3	0.00e+00	0	43	0	631242752	54	4086
2026-01-26 07:04:51.93	45.43	12.06	-41.3	-42.2	21.6	0.00e+00	0	43	0	637534208	54	3929
2026-01-26 07:04:52.94	45.30	12.13	-41.4	-42.3	21.4	0.00e+00	0	43	0	642777088	54	3997
2026-01-26 07:04:53.95	45.17	12.21	-41.3	-42.1	21.6	0.00e+00	0	43	0	649068544	54	3907
2026-01-26 07:04:54.96	45.04	12.28	-41.2	-42.1	21.7	0.00e+00	0	43	0	654311424	54	3875
2026-01-26 07:04:55.97	44.91	12.35	-41.3	-42.1	21.6	0.00e+00	0	43	0	659554304	54	3907
2026-01-26 07:04:56.98	44.78	12.42	-41.2	-42.1	21.7	0.00e+00	0	43	0	665845760	54	3899
2026-01-26 07:04:57.99	44.65	12.49	-41.4	-42.3	21.5	0.00e+00	0	43	0	671088640	54	3959
2026-01-26 07:04:58.99	44.52	12.56	-41.3	-42.2	21.6	0.00e+00	0	43	0	676331520	54	3919
2026-01-26 07:05:00.00	44.38	12.63	-41.3	-42.1	21.6	0.00e+00	0	43	0	682622976	54	3904
2026-01-26 07:05:01.00	44.25	12.70	-41.1	-42.0	21.8	0.00e+00	0	43	0	687865856	54	3837
2026-01-26 07:05:02.01	44.11	12.78	-41.1	-41.9	21.9	0.00e+00	0	43	0	693108736	54	3809
2026-01-26 07:05:03.02	43.98	12.85	-41.1	-41.9	21.8	0.00e+00	0	43	0	699400192	54	3817
2026-01-26 07:05:04.03	43.84	12.92	-41.0	-41.9	21.9	0.00e+00	0	43	0	705691648	54	3790
2026-01-26 07:05:05.04	43.70	12.99	-41.0	-41.9	21.9	0.00e+00	0	43	0	710934528	54	3801
2026-01-26 07:05:06.05	43.57	13.06	-41.1	-41.9	21.9	0.00e+00	0	43	0	716177408	54	3813
2026-01-26 07:05:07.05	43.43	13.14	-41.0	-41.9	21.9	0.00e+00	0	43	0	722468864	54	3785
2026-01-26 07:05:08.06	43.29	13.21	-41.0	-41.9	21.9	0.00e+00	0	43	0	727711744	53	4022
2026-01-26 07:05:09.07	43.15	13.28	-40.8	-41.6	22.1	0.00e+00	0	43	0	734003200	53	3913
2026-01-26 07:05:10.07	43.01	13.35	-40.7	-41.6	22.2	0.00e+00	0	43	0	739246080	53	3873
2026-01-26 07:05:11.08	42.87	13.42	-40.8	-41.6	22.1	0.00e+00	0	43	0	744488960	53	3907
2026-01-26 07:05:12.09	42.73	13.49	-40.7	-41.5	22.2	0.00e+00	0	43	0	750780416	53	3866
2026-01-26 07:05:13.10	42.58	13.57	-40.7	-41.6	22.2	0.00e+00	0	43	0	756023296	53	3878
2026-01-26 07:05:14.11	42.44	13.64	-40.8	-41.6	22.1	0.00e+00	0	43	0	761266176	53	3913
2026-01-26 07:05:15.12	42.30	13.71	-40.8	-41.6	22.2	0.00e+00	0	43	0	767557632	53	3908
2026-01-26 07:05:16.13	42.15	13.78	-40.9	-41.7	22.1	0.00e+00	0	43	0	773849088	53	3931
2026-01-26 07:05:17.13	42.01	13.86	-40.6	-41.5	22.3	0.00e+00	0	43	0	779091968	53	3833
2026-01-26 07:05:18.14	41.86	13.93	-40.7	-41.5	22.3	0.00e+00	0	43	0	784334848	53	3855
2026-01-26 07:05:19.15	41.71	14.00	-40.7	-41.5	22.2	0.00e+00	0	43	0	790626304	53	3863
2026-01-26 07:05:20.16	41.56	14.07	-40.8	-41.6	22.2	0.00e+00	0	43	0	795869184	53	3887
2026-01-26 07:05:21.17	41.42	14.15	-40.7	-41.6	22.2	0.00e+00	0	44	0	801112064	53	3876
2026-01-26 07:05:22.18	41.27	14.22	-40.6	-41.5	22.3	0.00e+00	0	43	0	807403520	53	3825
2026-01-26 07:05:23.18	41.12	14.29	-40.7	-41.5	22.3	0.00e+00	0	43	0	812646400	53	3839
2026-01-26 07:05:24.19	40.97	14.36	-40.7	-41.5	22.2	0.00e+00	0	43	0	818937856	53	3868
2026-01-26 07:05:25.20	40.81	14.43	-40.5	-41.3	22.5	0.00e+00	0	44	0	824180736	53	3768
2026-01-26 07:05:26.21	40.66	14.51	-40.6	-41.4	22.4	0.00e+00	0	44	0	829423616	53	3787
2026-01-26 07:05:27.21	40.51	14.58	-40.6	-41.4	22.4	0.00e+00	0	43	0	835715072	53	3807
2026-01-26 07:05:28.22	40.36	14.65	-40.7	-41.5	22.3	0.00e+00	0	43	0	840957952	53	3840
2026-01-26 07:05:29.23	40.20	14.72	-40.5	-41.3	22.5	0.00e+00	0	43	0	847249408	53	3770
2026-01-26 07:05:30.24	40.05	14.80	-40.4	-41.2	22.6	0.00e+00	0	43	0	852492288	52	3947
2026-01-26 07:05:31.25	39.89	14.87	-40.5	-41.3	22.5	0.00e+00	0	43	0	858783744	52	3980
2026-01-26 07:05:32.26	39.73	14.94	-40.6	-41.4	22.4	0.00e+00	0	43	0	864026624	52	4027
2026-01-26 07:05:33.27	39.58	15.01	-40.4	-41.2	22.7	0.00e+00	0	43	0	869269504	52	3925
2026-01-26 07:05:34.28	39.42	15.09	-40.2	-41.0	22.8	0.00e+00	0	43	0	875560960	52	3867
2026-01-26 07:05:35.29	39.26	15.16	-40.2	-41.0	22.8	0.00e+00	0	43	0	880803840	52	3830
2026-01-26 07:05:36.29	39.10	15.23	-40.3	-41.1	22.7	0.00e+00	0	43	0	886046720	52	3908
2026-01-26 07:05:37.30	38.94	15.30	-40.2	-41.0	22.8	0.00e+00	0	43	0	892338176	52	3852
2026-01-26 07:05:38.31	38.78	15.38	-40.2	-41.0	22.9	0.00e+00	0	43	0	897581056	52	3833
2026-01-26 07:05:39.32	38.61	15.45	-40.2	-41.0	22.9	0.00e+00	0	43	0	903872512	52	3836
2026-01-26 07:05:40.33	38.45	15.52	-40.4	-41.2	22.7	0.00e+00	0	43	0	909115392	52	3923
2026-01-26 07:05:41.33	38.29	15.59	-40.4	-41.2	22.7	0.00e+00	0	43	0	915406848	52	3928
2026-01-26 07:05:42.34	38.12	15.66	-40.3	-41.1	22.8	0.00e+00	0	43	0	920649728	52	3873
2026-01-26 07:05:43.35	37.96	15.74	-40.2	-41.0	22.8	0.00e+00	0	43	0	926941184	52	3865
2026-01-26 07:05:44.35	37.79	15.81	-40.3	-41.1	22.8	0.00e+00	0	43	0	932184064	52	3883
2026-01-26 07:05:45.36	37.62	15.88	-40.3	-41.2	22.8	0.00e+00	0	43	0	937426944	52	3915
2026-01-26 07:05:46.36	37.46	15.95	-40.2	-41.0	22.8	0.00e+00	0	43	0	943718400	52	3867
2026-01-26 07:05:47.37	37.29	16.03	-40.1	-40.9	22.9	0.00e+00	0	43	0	948961280	52	3818
2026-01-26 07:05:48.38	37.12	16.10	-40.1	-40.9	23.0	0.00e+00	0	43	0	954204160	52	3792
2026-01-26 07:05:49.39	36.95	16.17	-40.1	-40.9	23.1	0.00e+00	0	43	0	960495616	51	4019
2026-01-26 07:05:50.40	36.78	16.24	-40.2	-41.0	23.0	0.00e+00	0	43	0	965738496	51	4070
2026-01-26 07:05:51.41	36.60	16.31	-40.2	-40.9	23.0	0.00e+00	0	43	0	970981376	51	4048
2026-01-26 07:05:52.42	36.43	16.39	-40.1	-40.9	23.0	0.00e+00	0	43	0	977272832	51	4042
2026-01-26 07:05:53.43	36.26	16.46	-40.2	-41.0	23.0	0.00e+00	0	43	0	983564288	51	4073
2026-01-26 07:05:54.44	36.08	16.53	-40.1	-40.9	23.1	0.00e+00	0	43	0	988807168	51	4042
2026-01-26 07:05:55.45	35.91	16.60	-40.2	-41.0	23.0	0.00e+00	0	43	0	994050048	51	4063
2026-01-26 07:05:56.45	35.73	16.67	-40.3	-41.1	22.9	0.00e+00	0	43	0	1000341504	51	4102
2026-01-26 07:05:57.46	35.55	16.74	-40.3	-41.1	22.9	0.00e+00	0	43	0	1005584384	51	4120
2026-01-26 07:05:58.47	35.38	16.82	-40.2	-41.0	23.0	0.00e+00	0	43	0	1011875840	51	4073
2026-01-26 07:05:59.47	35.20	16.89	-40.3	-41.0	23.0	0.00e+00	0	43	0	1017118720	51	4096
2026-01-26 07:06:00.48	35.02	16.96	-40.2	-41.0	23.0	0.00e+00	0	43	0	1022361600	51	4065
2026-01-26 07:06:01.49	34.84	17.03	-40.0	-40.8	23.2	0.00e+00	0	43	0	1028653056	51	3979
2026-01-26 07:06:02.50	34.66	17.10	-40.0	-40.8	23.2	0.00e+00	0	43	0	1033895936	51	3979
2026-01-26 07:06:03.51	34.47	17.17	-40.0	-40.7	23.3	0.00e+00	0	43	0	1039138816	51	3954
2026-01-26 07:06:04.51	34.29	17.24	-39.8	-40.5	23.4	0.00e+00	0	43	0	1045430272	51	3861
2026-01-26 07:06:05.52	34.11	17.31	-39.9	-40.6	23.4	0.00e+00	0	43	0	1051721728	51	3904
2026-01-26 07:06:06.53	33.92	17.38	-39.8	-40.6	23.4	0.00e+00	0	43	0	1056964608	51	3869
2026-01-26 07:06:07.54	33.73	17.45	-39.9	-40.6	23.4	0.00e+00	0	43	0	1062207488	51	3901
2026-01-26 07:06:08.54	33.55	17.52	-39.9	-40.6	23.4	0.00e+00	0	43	0	1068498944	51	3905
2026-01-26 07:06:09.54	33.36	17.59	-39.8	-40.6	23.4	0.00e+00	0	43	0	1073741824	51	3891
2026-01-26 07:06:10.55	33.17	17.66	-39.8	-40.5	23.5	0.00e+00	0	43	0	1078984704	51	3862
2026-01-26 07:06:11.55	32.99	17.73	-39.7	-40.4	23.6	0.00e+00	0	43	0	1085276160	51	3824
2026-01-26 07:06:12.56	32.80	17.80	-39.6	-40.4	23.6	0.00e+00	0	43	0	1090519040	51	3793
2026-01-26 07:06:13.57	32.60	17.87	-39.7	-40.4	23.6	0.00e+00	0	43	0	1096810496	51	3810
2026-01-26 07:06:14.57	32.41	17.94	-39.6	-40.4	23.6	0.00e+00	0	43	0	1102053376	51	3786
2026-01-26 07:06:15.58	32.22	18.01	-39.6	-40.3	23.6	0.00e+00	0	43	0	1107296256	51	3778
2026-01-26 07:06:16.58	32.03	18.08	-39.5	-40.3	23.7	0.00e+00	0	43	0	1113587712	51	3752
2026-01-26 07:06:17.59	31.83	18.15	-39.4	-40.1	23.8	0.00e+00	0	44	0	1118830592	50	3906
2026-01-26 07:06:18.60	31.64	18.22	-39.3	-40.1	23.9	0.00e+00	0	43	0	1124073472	50	3890
2026-01-26 07:06:19.60	31.44	18.29	-39.4	-40.2	23.8	0.00e+00	0	44	0	1130364928	50	3918
2026-01-26 07:06:20.61	31.24	18.36	-39.5	-40.2	23.8	0.00e+00	0	43	0	1135607808	50	3947
2026-01-26 07:06:21.62	31.05	18.43	-39.4	-40.2	23.8	0.00e+00	0	43	0	1140850688	50	3930
2026-01-26 07:06:22.63	30.85	18.50	-39.4	-40.1	23.9	0.00e+00	0	43	0	1147142144	50	3903
2026-01-26 07:06:23.64	30.65	18.56	-39.3	-40.1	23.9	0.00e+00	0	43	0	1153433600	50	3880
2026-01-26 07:06:24.65	30.44	18.63	-39.4	-40.1	23.9	0.00e+00	0	43	0	1158676480	50	3898
2026-01-26 07:06:25.66	30.24	18.70	-39.3	-40.0	24.0	0.00e+00	0	43	0	1163919360	50	3854
2026-01-26 07:06:26.67	30.04	18.77	-39.2	-40.0	24.0	0.00e+00	0	43	0	1170210816	50	3828
2026-01-26 07:06:27.68	29.83	18.84	-39.1	-39.9	24.1	0.00e+00	0	43	0	1175453696	50	3784
2026-01-26 07:06:28.69	29.63	18.90	-39.3	-40.0	24.0	0.00e+00	0	43	0	1181745152	50	3852
2026-01-26 07:06:29.69	29.42	18.97	-39.3	-40.1	23.9	0.00e+00	0	43	0	1186988032	50	3872
2026-01-26 07:06:30.70	29.22	19.04	-39.4	-40.1	23.9	0.00e+00	0	43	0	1192230912	50	3910
2026-01-26 07:06:31.71	29.01	19.11	-39.3	-40.1	23.9	0.00e+00	0	43	0	1198522368	50	3893
2026-01-26 07:06:32.71	28.80	19.17	-39.4	-40.1	23.9	0.00e+00	0	43	0	1203765248	50	3910
2026-01-26 07:06:33.72	28.59	19.24	-39.5	-40.2	23.8	0.00e+00	0	43	0	1209008128	50	3958
2026-01-26 07:06:34.73	28.38	19.30	-39.4	-40.2	23.9	0.00e+00	0	43	0	1215299584	50	3916
2026-01-26 07:06:35.74	28.17	19.37	-39.3	-40.0	24.0	0.00e+00	0	43	0	1221591040	50	3842
2026-01-26 07:06:36.74	27.96	19.44	-39.1	-39.8	24.2	0.00e+00	0	43	0	1226833920	50	3756
2026-01-26 07:06:37.75	27.75	19.50	-39.1	-39.9	24.1	0.00e+00	0	43	0	1232076800	50	3788
2026-01-26 07:06:38.76	27.53	19.57	-39.0	-39.7	24.2	0.00e+00	0	44	0	1238368256	50	3732
2026-01-26 07:06:39.77	27.32	19.63	-39.0	-39.8	24.2	0.00e+00	0	43	0	1243611136	50	3750
2026-01-26 07:06:40.78	27.10	19.70	-39.1	-39.8	24.2	0.00e+00	0	43	0	1248854016	50	3780
2026-01-26 07:06:41.78	26.89	19.76	-39.2	-40.0	24.1	0.00e+00	0	43	0	1255145472	50	3827
2026-01-26 07:06:42.79	26.67	19.82	-39.2	-39.9	24.1	0.00e+00	0	43	0	1260388352	50	3824
2026-01-26 07:06:43.80	26.45	19.89	-39.2	-39.9	24.1	0.00e+00	0	44	0	1266679808	50	3805
2026-01-26 07:06:44.81	26.23	19.95	-39.1	-39.9	24.1	0.00e+00	0	43	0	1271922688	50	3796
2026-01-26 07:06:45.81	26.01	20.01	-39.2	-39.9	24.1	0.00e+00	0	43	0	1277165568	50	3816
2026-01-26 07:06:46.82	25.79	20.08	-38.9	-39.6	24.3	0.00e+00	0	44	0	1283457024	49	3906
2026-01-26 07:06:47.83	25.57	20.14	-38.9	-39.6	24.4	0.00e+00	0	43	0	1289748480	49	3882
2026-01-26 07:06:48.83	25.34	20.20	-39.0	-39.7	24.3	0.00e+00	0	43	0	1294991360	49	3937
2026-01-26 07:06:49.84	25.12	20.26	-38.9	-39.6	24.3	0.00e+00	0	43	0	1300234240	49	3911
2026-01-26 07:06:50.85	24.89	20.33	-39.0	-39.7	24.3	0.00e+00	0	43	0	1306525696	49	3946
2026-01-26 07:06:51.86	24.67	20.39	-39.1	-39.9	24.2	0.00e+00	0	43	0	1311768576	49	4006
2026-01-26 07:06:52.87	24.44	20.45	-39.1	-39.9	24.2	0.00e+00	0	44	0	1317011456	49	4005
2026-01-26 07:06:53.88	24.21	20.51	-39.1	-39.9	24.1	0.00e+00	0	43	0	1323302912	49	4008
2026-01-26 07:06:54.89	23.98	20.57	-39.1	-39.8	24.2	0.00e+00	0	43	0	1328545792	49	3995
2026-01-26 07:06:55.90	23.75	20.63	-39.0	-39.7	24.3	0.00e+00	0	44	0	1333788672	49	3956
2026-01-26 07:06:56.91	23.52	20.69	-39.0	-39.7	24.3	0.00e+00	0	43	0	1340080128	49	3936
2026-01-26 07:06:57.92	23.29	20.75	-39.0	-39.7	24.3	0.00e+00	0	43	0	1345323008	49	3954
2026-01-26 07:06:58.92	23.06	20.81	-38.8	-39.6	24.4	0.00e+00	0	43	0	1351614464	49	3871
2026-01-26 07:06:59.93	22.83	20.87	-38.9	-39.6	24.3	0.00e+00	0	43	0	1356857344	49	3907
2026-01-26 07:07:00.93	22.59	20.93	-38.9	-39.6	24.3	0.00e+00	0	43	0	1363148800	49	3904
2026-01-26 07:07:01.94	22.36	20.98	-38.9	-39.6	24.4	0.00e+00	0	43	0	1368391680	49	3902
2026-01-26 07:07:02.95	22.12	21.04	-38.9	-39.6	24.4	0.00e+00	0	43	0	1374683136	49	3890
2026-01-26 07:07:03.95	21.89	21.10	-38.8	-39.6	24.4	0.00e+00	0	43	0	1379926016	49	3869
2026-01-26 07:07:04.96	21.65	21.16	-38.8	-39.5	24.5	0.00e+00	0	43	0	1385168896	49	3843
2026-01-26 07:07:05.96	21.41	21.21	-38.7	-39.5	24.5	0.00e+00	0	44	0	1391460352	49	3825
2026-01-26 07:07:06.97	21.17	21.27	-38.7	-39.4	24.6	0.00e+00	0	43	0	1396703232	49	3817
2026-01-26 07:07:07.98	20.93	21.32	-38.7	-39.4	24.6	0.00e+00	0	44	0	1401946112	49	3804
2026-01-26 07:07:08.99	20.69	21.38	-38.8	-39.5	24.5	0.00e+00	0	43	0	1408237568	49	3866
2026-01-26 07:07:09.99	20.45	21.43	-38.8	-39.6	24.4	0.00e+00	0	43	0	1413480448	49	3874
2026-01-26 07:07:11.00	20.21	21.49	-38.9	-39.7	24.4	0.00e+00	0	44	0	1418723328	49	3917
2026-01-26 07:07:12.01	19.96	21.54	-39.1	-39.8	24.2	0.00e+00	0	43	0	1425014784	49	3996
2026-01-26 07:07:13.01	19.72	21.60	-38.9	-39.6	24.4	0.00e+00	0	43	0	1430257664	49	3890
2026-01-26 07:07:14.01	19.47	21.65	-38.8	-39.5	24.5	0.00e+00	0	43	0	1436549120	49	3861
2026-01-26 07:07:15.02	19.23	21.70	-38.8	-39.5	24.5	0.00e+00	0	43	0	1441792000	49	3837
2026-01-26 07:07:16.03	18.98	21.75	-38.7	-39.4	24.6	0.00e+00	0	43	0	1448083456	49	3821
2026-01-26 07:07:17.04	18.73	21.80	-38.7	-39.4	24.6	0.00e+00	0	43	0	1453326336	49	3807
2026-01-26 07:07:18.05	18.48	21.86	-38.7	-39.4	24.6	0.00e+00	0	43	0	1459617792	49	3819
2026-01-26 07:07:19.05	18.23	21.91	-38.7	-39.5	24.6	0.00e+00	0	43	0	1464860672	49	3825
2026-01-26 07:07:20.06	17.98	21.96	-38.6	-39.4	24.7	0.00e+00	0	43	0	1470103552	49	3785
2026-01-26 07:07:21.07	17.73	22.01	-38.5	-39.2	24.8	0.00e+00	0	43	0	1476395008	49	3725
2026-01-26 07:07:22.08	17.48	22.06	-38.5	-39.2	24.8	0.00e+00	0	43	0	1481637888	49	3718
2026-01-26 07:07:23.08	17.23	22.10	-38.5	-39.2	24.8	0.00e+00	0	43	0	1486880768	49	3731
2026-01-26 07:07:24.09	16.97	22.15	-38.5	-39.2	24.8	0.00e+00	0	43	0	1493172224	49	3732
2026-01-26 07:07:25.10	16.72	22.20	-38.5	-39.2	24.8	0.00e+00	0	43	0	1498415104	48	3930
2026-01-26 07:07:26.11	16.46	22.25	-38.6	-39.3	24.7	0.00e+00	0	43	0	1503657984	48	3970
2026-01-26 07:07:27.11	16.21	22.29	-38.4	-39.1	24.9	0.00e+00	0	43	0	1509949440	48	3901
2026-01-26 07:07:28.12	15.95	22.34	-38.3	-39.0	25.0	0.00e+00	0	43	0	1515192320	48	3852
2026-01-26 07:07:29.13	15.69	22.39	-38.3	-39.1	25.0	0.00e+00	0	43	0	1521483776	48	3870
2026-01-26 07:07:30.14	15.44	22.43	-38.4	-39.2	24.9	0.00e+00	0	44	0	1526726656	48	3924
2026-01-26 07:07:31.14	15.18	22.48	-38.5	-39.2	24.8	0.00e+00	0	43	0	1533018112	48	3941
2026-01-26 07:07:32.15	14.92	22.52	-38.5	-39.2	24.8	0.00e+00	0	43	0	1538260992	48	3948
2026-01-26 07:07:33.15	14.66	22.56	-38.4	-39.1	24.9	0.00e+00	0	43	0	1544552448	48	3902
2026-01-26 07:07:34.15	14.40	22.60	-38.4	-39.1	24.9	0.00e+00	0	43	0	1549795328	48	3882
2026-01-26 07:07:35.16	14.14	22.65	-38.4	-39.1	25.0	0.00e+00	0	43	0	1555038208	48	3872
2026-01-26 07:07:36.17	13.87	22.69	-38.4	-39.1	24.9	0.00e+00	0	43	0	1561329664	48	3912
2026-01-26 07:07:37.17	13.61	22.73	-38.4	-39.1	24.9	0.00e+00	0	44	0	1566572544	48	3893
2026-01-26 07:07:38.18	13.35	22.77	-38.5	-39.2	24.9	0.00e+00	0	43	0	1571815424	48	3919
2026-01-26 07:07:39.18	13.09	22.81	-38.3	-39.0	25.0	0.00e+00	0	43	0	1578106880	48	3864
2026-01-26 07:07:40.19	12.82	22.85	-38.2	-38.9	25.1	0.00e+00	0	43	0	1583349760	48	3806
2026-01-26 07:07:41.19	12.56	22.89	-38.2	-38.9	25.1	0.00e+00	0	43	0	1588592640	48	3815
2026-01-26 07:07:42.20	12.29	22.93	-38.2	-38.9	25.1	0.00e+00	0	43	0	1594884096	48	3804
2026-01-26 07:07:43.21	12.02	22.96	-38.2	-38.9	25.1	0.00e+00	0	43	0	1600126976	48	3820
2026-01-26 07:07:44.22	11.75	23.00	-38.3	-39.0	25.0	0.00e+00	0	43	0	1606418432	48	3863
2026-01-26 07:07:45.22	11.48	23.04	-38.4	-39.1	24.9	0.00e+00	0	43	0	1611661312	48	3900
2026-01-26 07:07:46.23	11.21	23.07	-38.5	-39.2	24.9	0.00e+00	0	43	0	1617952768	48	3935
2026-01-26 07:07:47.24	10.94	23.11	-38.5	-39.2	24.8	0.00e+00	0	43	0	1623195648	48	3944
2026-01-26 07:07:48.25	10.67	23.14	-38.5	-39.3	24.8	0.00e+00	0	43	0	1629487104	48	3964
2026-01-26 07:07:49.26	10.40	23.18	-38.5	-39.2	24.8	0.00e+00	0	43	0	1634729984	48	3934
2026-01-26 07:07:50.27	10.13	23.21	-38.5	-39.2	24.9	0.00e+00	0	43	0	1639972864	48	3928
2026-01-26 07:07:51.27	9.86	23.24	-38.5	-39.2	24.8	0.00e+00	0	43	0	1646264320	48	3948
2026-01-26 07:07:52.28	9.58	23.27	-38.5	-39.2	24.9	0.00e+00	0	43	0	1651507200	48	3927
2026-01-26 07:07:53.29	9.31	23.30	-38.4	-39.1	25.0	0.00e+00	0	43	0	1656750080	48	3876
2026-01-26 07:07:54.29	9.04	23.33	-38.3	-39.0	25.0	0.00e+00	0	44	0	1663041536	48	3854
2026-01-26 07:07:55.30	8.76	23.36	-38.3	-39.0	25.0	0.00e+00	0	43	0	1668284416	48	3842
2026-01-26 07:07:56.31	8.49	23.39	-38.3	-39.0	25.0	0.00e+00	0	43	0	1673527296	48	3844
2026-01-26 07:07:57.32	8.21	23.42	-38.2	-38.9	25.1	0.00e+00	0	43	0	1679818752	48	3792
2026-01-26 07:07:58.33	7.94	23.45	-38.3	-39.0	25.0	0.00e+00	0	43	0	1686110208	48	3852
2026-01-26 07:07:59.34	7.66	23.48	-38.2	-39.0	25.1	0.00e+00	0	43	0	1691353088	48	3830
2026-01-26 07:08:00.35	7.38	23.50	-38.1	-38.8	25.2	0.00e+00	0	43	0	1696595968	48	3768
2026-01-26 07:08:01.35	7.11	23.53	-37.7	-38.4	25.1	0.00e+00	0	44	0	1702887424	47	3806
2026-01-26 07:08:02.36	6.83	23.55	-37.6	-38.3	25.2	0.00e+00	0	43	0	1708130304	47	3755
2026-01-26 07:08:03.37	6.55	23.58	-37.6	-38.3	25.2	0.00e+00	0	43	0	1714421760	47	3756
2026-01-26 07:08:04.38	6.27	23.60	-37.6	-38.3	25.2	0.00e+00	0	43	0	1719664640	47	3758
2026-01-26 07:08:05.38	5.99	23.62	-37.6	-38.3	25.2	0.00e+00	0	43	0	1724907520	47	3754
2026-01-26 07:08:06.39	5.71	23.64	-37.5	-38.2	25.2	0.00e+00	0	43	0	1731198976	47	3729
2026-01-26 07:08:07.40	5.43	23.67	-37.7	-38.5	25.1	0.00e+00	0	43	0	1736441856	47	3831
2026-01-26 07:08:08.41	5.15	23.69	-37.7	-38.4	25.1	0.00e+00	0	43	0	1741684736	47	3804
2026-01-26 07:08:09.41	4.87	23.71	-37.7	-38.5	25.1	0.00e+00	0	43	0	1747976192	47	3828
2026-01-26 07:08:10.42	4.59	23.73	-37.7	-38.5	25.0	0.00e+00	0	43	0	1753219072	47	3832
2026-01-26 07:08:11.43	4.31	23.74	-37.8	-38.6	25.0	0.00e+00	0	43	0	1759510528	47	3881
2026-01-26 07:08:12.44	4.02	23.76	-37.9	-38.7	24.9	0.00e+00	0	43	0	1764753408	47	3921
2026-01-26 07:08:13.45	3.74	23.78	-37.9	-38.7	24.9	0.00e+00	0	43	0	1771044864	47	3921
2026-01-26 07:08:14.45	3.46	23.79	-37.8	-38.6	25.0	0.00e+00	0	43	0	1776287744	47	3871
2026-01-26 07:08:15.46	3.18	23.81	-37.7	-38.5	25.1	0.00e+00	0	43	0	1781530624	47	3826
2026-01-26 07:08:16.47	2.89	23.82	-37.9	-38.6	25.0	0.00e+00	0	43	0	1787822080	47	3876
2026-01-26 07:08:17.48	2.61	23.84	-37.8	-38.5	25.0	0.00e+00	0	43	0	1793064960	47	3854
2026-01-26 07:08:18.49	2.33	23.85	-37.8	-38.5	25.0	0.00e+00	0	43	0	1799356416	47	3854
2026-01-26 07:08:19.49	2.05	23.86	-37.7	-38.4	25.1	0.00e+00	0	43	0	1804599296	47	3807
2026-01-26 07:08:20.50	1.76	23.88	-37.8	-38.5	25.0	0.00e+00	0	43	0	1809842176	47	3841
2026-01-26 07:08:21.50	1.48	23.89	-37.7	-38.4	25.1	0.00e+00	0	43	0	1816133632	47	3806
2026-01-26 07:08:22.51	1.19	23.90	-37.6	-38.3	25.2	0.00e+00	0	43	0	1821376512	47	3766
2026-01-26 07:08:23.52	0.91	23.91	-37.6	-38.3	25.2	0.00e+00	0	43	0	1826619392	47	3766
2026-01-26 07:08:24.52	0.63	23.91	-37.6	-38.3	25.2	0.00e+00	0	44	0	1832910848	47	3776
2026-01-26 07:08:25.53	0.34	23.92	-37.5	-38.2	25.3	0.00e+00	0	44	0	1839202304	47	3726
2026-01-26 07:08:26.54	0.06	23.93	-37.6	-38.3	25.2	0.00e+00	0	43	0	1844445184	47	3751
2026-01-26 07:08:27.55	359.77	23.94	-37.7	-38.4	25.1	0.00e+00	0	43	0	1849688064	47	3796
2026-01-26 07:08:28.55	359.49	23.94	-37.6	-38.4	25.2	0.00e+00	0	43	0	1855979520	47	3782
2026-01-26 07:08:29.56	359.20	23.95	-37.6	-38.3	25.2	0.00e+00	0	43	0	1861222400	47	3748
2026-01-26 07:08:30.57	358.91	23.95	-37.5	-38.2	25.3	0.00e+00	0	44	0	1866465280	47	3704
2026-01-26 07:08:31.58	358.63	23.95	-37.5	-38.3	25.3	0.00e+00	0	43	0	1872756736	47	3741
2026-01-26 07:08:32.59	358.34	23.96	-37.6	-38.3	25.2	0.00e+00	0	43	0	1877999616	47	3748
2026-01-26 07:08:33.59	358.06	23.96	-37.7	-38.4	25.1	0.00e+00	0	43	0	1884291072	47	3803
2026-01-26 07:08:34.60	357.77	23.96	-37.7	-38.5	25.0	0.00e+00	0	43	0	1889533952	47	3837
2026-01-26 07:08:35.61	357.49	23.96	-37.7	-38.4	25.1	0.00e+00	0	44	0	1894776832	47	3805
2026-01-26 07:08:36.62	357.20	23.96	-37.6	-38.3	25.1	0.00e+00	0	43	0	1901068288	47	3775
2026-01-26 07:08:37.63	356.91	23.96	-37.6	-38.4	25.2	0.00e+00	0	43	0	1907359744	47	3782
2026-01-26 07:08:38.64	356.63	23.95	-37.5	-38.2	25.3	0.00e+00	0	43	0	1912602624	47	3726
2026-01-26 07:08:39.65	356.34	23.95	-37.6	-38.3	25.2	0.00e+00	0	43	0	1917845504	47	3745
2026-01-26 07:08:40.65	356.06	23.95	-37.6	-38.3	25.2	0.00e+00	0	44	0	1924136960	47	3747
2026-01-26 07:08:41.66	355.77	23.94	-37.6	-38.4	25.2	0.00e+00	0	43	0	1929379840	47	3784
2026-01-26 07:08:42.67	355.49	23.94	-37.5	-38.2	25.3	0.00e+00	0	43	0	1934622720	47	3706
2026-01-26 07:08:43.68	355.20	23.93	-37.6	-38.3	25.2	0.00e+00	0	43	0	1940914176	47	3759
2026-01-26 07:08:44.69	354.92	23.93	-37.6	-38.3	25.2	0.00e+00	0	43	0	1946157056	47	3778
2026-01-26 07:08:45.70	354.63	23.92	-37.6	-38.4	25.2	0.00e+00	0	43	0	1951399936	47	3789
2026-01-26 07:08:46.71	354.35	23.91	-37.6	-38.3	25.2	0.00e+00	0	44	0	1957691392	47	3746
2026-01-26 07:08:47.72	354.06	23.90	-37.5	-38.2	25.3	0.00e+00	0	43	0	1962934272	47	3715
2026-01-26 07:08:48.73	353.78	23.89	-37.4	-38.2	25.3	0.00e+00	0	43	0	1969225728	46	3915
2026-01-26 07:08:49.74	353.49	23.88	-37.5	-38.2	25.3	0.00e+00	0	44	0	1974468608	46	3929
2026-01-26 07:08:50.75	353.21	23.87	-37.5	-38.3	25.3	0.00e+00	0	44	0	1980760064	46	3962
2026-01-26 07:08:51.76	352.92	23.86	-37.6	-38.3	25.2	0.00e+00	0	43	0	1986002944	46	3999
2026-01-26 07:08:52.77	352.64	23.84	-37.6	-38.3	25.2	0.00e+00	0	43	0	1992294400	46	3982
2026-01-26 07:08:53.77	352.36	23.83	-37.5	-38.2	25.2	0.00e+00	0	43	0	1997537280	46	3954
2026-01-26 07:08:54.78	352.07	23.82	-37.7	-38.4	25.1	0.00e+00	0	43	0	2002780160	46	4047
2026-01-26 07:08:55.79	351.79	23.80	-37.7	-38.4	25.1	0.00e+00	0	43	0	2009071616	46	4045
2026-01-26 07:08:56.80	351.51	23.78	-37.6	-38.3	25.2	0.00e+00	0	43	0	2014314496	46	3993
2026-01-26 07:08:57.81	351.22	23.77	-37.6	-38.3	25.2	0.00e+00	0	43	0	2019557376	46	3981
2026-01-26 07:08:58.82	350.94	23.75	-37.6	-38.3	25.2	0.00e+00	0	44	0	2025848832	46	3982
2026-01-26 07:08:59.82	350.66	23.73	-37.6	-38.3	25.2	0.00e+00	0	44	0	2031091712	46	3968
2026-01-26 07:09:00.83	350.38	23.71	-37.4	-38.1	25.3	0.00e+00	0	43	0	2037383168	46	3900
2026-01-26 07:09:01.83	350.10	23.69	-37.5	-38.2	25.3	0.00e+00	0	44	0	2042626048	46	3939
2026-01-26 07:09:02.84	349.82	23.67	-37.6	-38.3	25.2	0.00e+00	0	44	0	2048917504	46	3989
2026-01-26 07:09:03.85	349.54	23.65	-37.7	-38.4	25.1	0.00e+00	0	43	0	2054160384	46	4043
2026-01-26 07:09:04.85	349.26	23.63	-37.6	-38.4	25.1	0.00e+00	0	43	0	2059403264	46	4013
2026-01-26 07:09:05.86	348.98	23.61	-37.5	-38.2	25.3	0.00e+00	0	43	0	2065694720	46	3934
2026-01-26 07:09:06.87	348.70	23.58	-37.4	-38.1	25.3	0.00e+00	0	44	0	2070937600	46	3911
2026-01-26 07:09:07.87	348.43	23.56	-37.4	-38.1	25.4	0.00e+00	0	44	0	2077229056	46	3895
2026-01-26 07:09:08.88	348.15	23.54	-37.5	-38.2	25.3	0.00e+00	0	43	0	2082471936	46	3922
2026-01-26 07:09:09.89	347.87	23.51	-37.7	-38.4	25.1	0.00e+00	0	43	0	2087714816	46	4017
2026-01-26 07:09:10.89	347.59	23.49	-37.7	-38.4	25.1	0.00e+00	0	43	0	2094006272	46	4025
2026-01-26 07:09:11.90	347.32	23.46	-37.7	-38.4	25.1	0.00e+00	0	43	0	2099249152	46	4018
2026-01-26 07:09:12.91	347.04	23.43	-37.6	-38.3	25.2	0.00e+00	0	43	0	2104492032	46	3971
2026-01-26 07:09:13.92	346.76	23.40	-37.6	-38.3	25.2	0.00e+00	0	43	0	2110783488	46	3995
2026-01-26 07:09:14.93	346.49	23.37	-37.7	-38.4	25.1	0.00e+00	0	43	0	2117074944	46	4006
2026-01-26 07:09:15.93	346.21	23.34	-37.8	-38.5	25.0	0.00e+00	0	44	0	2122317824	46	4078
2026-01-26 07:09:16.94	345.94	23.31	-38.0	-38.7	24.9	0.00e+00	0	44	0	2127560704	46	4169
2026-01-26 07:09:17.94	345.67	23.28	-37.9	-38.6	24.9	0.00e+00	0	43	0	2133852160	46	4121
2026-01-26 07:09:18.95	345.39	23.25	-38.0	-38.7	24.9	0.00e+00	0	43	0	2139095040	46	4169
2026-01-26 07:09:19.96	345.12	23.22	-37.7	-38.4	25.1	0.00e+00	0	43	0	2144337920	46	4018
2026-01-26 07:09:20.97	344.85	23.19	-37.6	-38.4	25.2	0.00e+00	0	43	0	2150629376	46	4006
2026-01-26 07:09:21.98	344.58	23.15	-37.7	-38.4	25.1	0.00e+00	0	43	0	2155872256	46	4024
2026-01-26 07:09:22.99	344.30	23.12	-37.7	-38.4	25.1	0.00e+00	0	43	0	2162163712	46	4023
2026-01-26 07:09:23.99	344.04	23.09	-37.7	-38.5	25.1	0.00e+00	0	44	0	2167406592	46	4052
2026-01-26 07:09:25.00	343.77	23.05	-37.7	-38.4	25.1	0.00e+00	0	43	0	2172649472	46	4029
2026-01-26 07:09:26.01	343.50	23.01	-37.9	-38.6	25.0	0.00e+00	0	43	0	2178940928	46	4115
2026-01-26 07:09:27.02	343.23	22.98	-37.5	-38.2	25.3	0.00e+00	0	43	0	2185232384	46	3958
2026-01-26 07:09:28.03	342.96	22.94	-37.6	-38.3	25.2	0.00e+00	0	43	0	2190475264	46	3999
2026-01-26 07:09:29.04	342.69	22.90	-37.7	-38.4	25.1	0.00e+00	0	43	0	2195718144	46	4050
2026-01-26 07:09:30.04	342.43	22.86	-37.7	-38.4	25.2	0.00e+00	0	43	0	2202009600	46	4014
2026-01-26 07:09:31.05	342.16	22.82	-37.5	-38.2	25.3	0.00e+00	0	43	0	2207252480	46	3954
2026-01-26 07:09:32.05	341.90	22.78	-37.7	-38.5	25.1	0.00e+00	0	43	0	2212495360	46	4052
2026-01-26 07:09:33.06	341.63	22.74	-37.8	-38.5	25.1	0.00e+00	0	43	0	2218786816	46	4064
2026-01-26 07:09:34.06	341.37	22.70	-37.7	-38.4	25.1	0.00e+00	0	43	0	2224029696	46	4020
2026-01-26 07:09:35.07	341.11	22.66	-37.7	-38.5	25.1	0.00e+00	0	44	0	2229272576	46	4060
2026-01-26 07:09:36.08	340.85	22.62	-37.6	-38.3	25.2	0.00e+00	0	43	0	2235564032	46	3983
2026-01-26 07:09:37.09	340.58	22.58	-37.6	-38.3	25.2	0.00e+00	0	44	0	2240806912	46	4001
2026-01-26 07:09:38.09	340.32	22.53	-37.7	-38.4	25.1	0.00e+00	0	43	0	2247098368	46	4048
2026-01-26 07:09:39.11	340.06	22.49	-37.7	-38.4	25.1	0.00e+00	0	43	0	2252341248	46	4032
2026-01-26 07:09:40.11	339.80	22.45	-37.7	-38.4	25.1	0.00e+00	0	43	0	2257584128	46	4048
2026-01-26 07:09:41.13	339.54	22.40	-37.7	-38.4	25.1	0.00e+00	0	43	0	2263875584	46	4031
2026-01-26 07:09:42.14	339.28	22.36	-37.7	-38.4	25.1	0.00e+00	0	43	0	2270167040	46	4035
2026-01-26 07:09:43.14	339.03	22.31	-37.6	-38.3	25.2	0.00e+00	0	44	0	2275409920	46	3997
2026-01-26 07:09:44.15	338.77	22.26	-37.6	-38.3	25.2	0.00e+00	0	43	0	2280652800	46	4002
2026-01-26 07:09:45.16	338.52	22.22	-37.7	-38.4	25.1	0.00e+00	0	43	0	2286944256	46	4026
2026-01-26 07:09:46.17	338.26	22.17	-37.8	-38.5	25.0	0.00e+00	0	43	0	2292187136	46	4086
2026-01-26 07:09:47.18	338.01	22.12	-37.8	-38.5	25.0	0.00e+00	0	43	0	2297430016	46	4094
2026-01-26 07:09:48.18	337.75	22.07	-37.8	-38.6	25.0	0.00e+00	0	43	0	2303721472	46	4102
2026-01-26 07:09:49.19	337.50	22.02	-37.8	-38.6	25.0	0.00e+00	0	43	0	2308964352	46	4105
2026-01-26 07:09:50.20	337.25	21.97	-37.9	-38.7	24.9	0.00e+00	0	43	0	2314207232	46	4147
2026-01-26 07:09:51.21	337.00	21.92	-37.9	-38.6	24.9	0.00e+00	0	44	0	2320498688	46	4143
2026-01-26 07:09:52.22	336.75	21.87	-37.9	-38.6	24.9	0.00e+00	0	43	0	2325741568	46	4136
2026-01-26 07:09:53.23	336.50	21.82	-38.0	-38.8	24.8	0.00e+00	0	43	0	2332033024	46	4197
2026-01-26 07:09:54.23	336.25	21.77	-38.1	-38.8	24.8	0.00e+00	0	43	0	2337275904	46	4225
2026-01-26 07:09:55.23	336.01	21.72	-38.1	-38.8	24.8	0.00e+00	0	43	0	2343567360	46	4212
2026-01-26 07:09:56.24	335.76	21.67	-38.1	-38.9	24.7	0.00e+00	0	43	0	2348810240	46	4248
2026-01-26 07:09:57.25	335.51	21.61	-38.0	-38.7	24.8	0.00e+00	0	43	0	2355101696	46	4178
2026-01-26 07:09:58.26	335.27	21.56	-37.9	-38.6	24.9	0.00e+00	0	43	0	2360344576	46	4133
2026-01-26 07:09:59.27	335.02	21.51	-37.9	-38.6	24.9	0.00e+00	0	43	0	2365587456	46	4141
2026-01-26 07:10:00.27	334.78	21.45	-38.0	-38.7	24.8	0.00e+00	0	44	0	2371878912	46	4189
2026-01-26 07:10:01.27	334.54	21.40	-38.0	-38.7	24.8	0.00e+00	0	44	0	2377121792	46	4163
2026-01-26 07:10:02.28	334.30	21.34	-37.9	-38.6	24.9	0.00e+00	0	43	0	2382364672	46	4134
2026-01-26 07:10:03.29	334.06	21.29	-37.8	-38.5	25.0	0.00e+00	0	43	0	2388656128	46	4068
2026-01-26 07:10:04.30	333.82	21.23	-37.8	-38.5	25.0	0.00e+00	0	43	0	2393899008	46	4074
2026-01-26 07:10:05.30	333.58	21.18	-37.8	-38.6	24.9	0.00e+00	0	44	0	2399141888	46	4104
2026-01-26 07:10:06.31	333.34	21.12	-37.9	-38.6	24.9	0.00e+00	0	43	0	2405433344	46	4143
2026-01-26 07:10:07.32	333.10	21.06	-37.9	-38.7	24.9	0.00e+00	0	44	0	2410676224	46	4146
2026-01-26 07:10:08.32	332.87	21.00	-37.9	-38.6	24.9	0.00e+00	0	43	0	2416967680	46	4115
2026-01-26 07:10:09.33	332.63	20.95	-37.9	-38.6	24.9	0.00e+00	0	43	0	2422210560	46	4126
2026-01-26 07:10:10.34	332.40	20.89	-38.0	-38.7	24.9	0.00e+00	0	44	0	2428502016	46	4163
2026-01-26 07:10:11.35	332.17	20.83	-38.1	-38.8	24.8	0.00e+00	0	44	0	2433744896	46	4210
2026-01-26 07:10:12.36	331.93	20.77	-38.1	-38.8	24.7	0.00e+00	0	44	0	2440036352	46	4218
2026-01-26 07:10:13.37	331.70	20.71	-38.2	-38.9	24.7	0.00e+00	0	43	0	2445279232	46	4264
2026-01-26 07:10:14.38	331.47	20.65	-38.3	-39.0	24.6	0.00e+00	0	43	0	2450522112	47	4065
2026-01-26 07:10:15.39	331.24	20.59	-38.1	-38.9	24.7	0.00e+00	0	43	0	2456813568	47	4008
2026-01-26 07:10:16.40	331.01	20.53	-38.1	-38.8	24.7	0.00e+00	0	43	0	2462056448	47	3995
2026-01-26 07:10:17.41	330.78	20.47	-38.4	-39.1	24.5	0.00e+00	0	43	0	2467299328	47	4122
2026-01-26 07:10:18.41	330.55	20.41	-38.6	-39.3	24.3	0.00e+00	0	43	0	2473590784	47	4228
2026-01-26 07:10:19.42	330.33	20.35	-38.6	-39.4	24.2	0.00e+00	0	43	0	2478833664	47	4255
2026-01-26 07:10:20.43	330.10	20.29	-38.6	-39.3	24.3	0.00e+00	0	43	0	2485125120	47	4229
2026-01-26 07:10:21.43	329.88	20.22	-38.6	-39.4	24.2	0.00e+00	0	43	0	2490368000	47	4251
2026-01-26 07:10:22.44	329.66	20.16	-38.4	-39.1	24.4	0.00e+00	0	44	0	2496659456	47	4137
2026-01-26 07:10:23.45	329.43	20.10	-38.4	-39.2	24.4	0.00e+00	0	43	0	2501902336	47	4156
2026-01-26 07:10:24.46	329.21	20.04	-38.4	-39.1	24.4	0.00e+00	0	43	0	2507145216	47	4140
2026-01-26 07:10:25.46	328.99	19.97	-38.4	-39.1	24.5	0.00e+00	0	43	0	2513436672	47	4136
2026-01-26 07:10:26.47	328.77	19.91	-38.4	-39.1	24.4	0.00e+00	0	44	0	2518679552	47	4139
2026-01-26 07:10:27.48	328.55	19.85	-38.3	-39.1	24.5	0.00e+00	0	43	0	2524971008	47	4109
2026-01-26 07:10:28.49	328.33	19.78	-38.3	-39.1	24.5	0.00e+00	0	43	0	2530213888	47	4101
2026-01-26 07:10:29.50	328.12	19.72	-38.4	-39.2	24.4	0.00e+00	0	43	0	2535456768	47	4168
2026-01-26 07:10:30.51	327.90	19.65	-38.5	-39.3	24.3	0.00e+00	0	43	0	2541748224	47	4208
2026-01-26 07:10:31.52	327.68	19.59	-38.7	-39.5	24.1	0.00e+00	0	43	0	2546991104	47	4301
2026-01-26 07:10:32.53	327.47	19.52	-39.1	-39.8	24.3	0.00e+00	0	43	0	2553282560	48	4236
2026-01-26 07:10:33.54	327.25	19.46	-39.3	-40.0	24.1	0.00e+00	0	44	0	2558525440	49	4074
2026-01-26 07:10:34.55	327.04	19.39	-39.3	-40.0	24.1	0.00e+00	0	43	0	2564816896	49	4077
2026-01-26 07:10:35.55	326.83	19.32	-39.1	-39.8	24.3	0.00e+00	0	43	0	2570059776	49	4000
2026-01-26 07:10:36.56	326.62	19.26	-39.2	-39.9	24.2	0.00e+00	0	43	0	2575302656	49	4049
2026-01-26 07:10:37.57	326.41	19.19	-39.3	-40.0	24.1	0.00e+00	0	43	0	2581594112	49	4078
2026-01-26 07:10:38.58	326.20	19.13	-39.3	-40.0	24.1	0.00e+00	0	44	0	2586836992	49	4071
2026-01-26 07:10:39.59	325.99	19.06	-39.3	-40.1	24.1	0.00e+00	0	44	0	2592079872	49	4109
2026-01-26 07:10:40.59	325.79	18.99	-39.3	-40.0	24.1	0.00e+00	0	43	0	2598371328	49	4080
2026-01-26 07:10:41.59	325.58	18.93	-39.3	-40.0	24.1	0.00e+00	0	44	0	2603614208	49	4072
2026-01-26 07:10:42.60	325.38	18.86	-39.3	-40.0	24.1	0.00e+00	0	43	0	2609905664	49	4079
2026-01-26 07:10:43.61	325.17	18.79	-39.3	-40.1	24.0	0.00e+00	0	43	0	2615148544	49	4115
2026-01-26 07:10:44.61	324.97	18.72	-39.4	-40.1	24.0	0.00e+00	0	43	0	2620391424	49	4138
2026-01-26 07:10:45.62	324.77	18.66	-39.3	-40.0	24.1	0.00e+00	0	43	0	2626682880	49	4076
2026-01-26 07:10:46.63	324.57	18.59	-39.2	-39.9	24.2	0.00e+00	0	43	0	2632974336	49	4051
2026-01-26 07:10:47.63	324.37	18.52	-39.2	-39.9	24.2	0.00e+00	0	44	0	2638217216	49	4015
2026-01-26 07:10:48.64	324.17	18.45	-39.0	-39.7	24.4	0.00e+00	0	43	0	2643460096	49	3945
2026-01-26 07:10:49.65	323.97	18.38	-39.2	-39.9	24.2	0.00e+00	0	43	0	2649751552	49	4020
2026-01-26 07:10:50.65	323.77	18.31	-39.2	-40.0	24.2	0.00e+00	0	44	0	2654994432	49	4055
2026-01-26 07:10:51.66	323.58	18.24	-39.1	-39.8	24.3	0.00e+00	0	43	0	2660237312	49	3996
2026-01-26 07:10:52.67	323.38	18.17	-39.1	-39.9	24.2	0.00e+00	0	44	0	2666528768	49	4020
2026-01-26 07:10:53.68	323.18	18.11	-39.1	-39.8	24.2	0.00e+00	0	44	0	2671771648	49	3997
2026-01-26 07:10:54.69	322.99	18.04	-39.1	-39.8	24.3	0.00e+00	0	44	0	2677014528	49	3988
2026-01-26 07:10:55.69	322.80	17.97	-39.2	-39.9	24.2	0.00e+00	0	43	0	2683305984	49	4027
2026-01-26 07:10:56.70	322.60	17.90	-39.2	-39.9	24.2	0.00e+00	0	43	0	2688548864	49	4026
2026-01-26 07:10:57.71	322.41	17.83	-39.2	-39.9	24.1	0.00e+00	0	44	0	2694840320	49	4045
2026-01-26 07:10:58.72	322.22	17.76	-39.3	-40.1	24.0	0.00e+00	0	44	0	2700083200	49	4108
2026-01-26 07:10:59.73	322.03	17.69	-39.3	-40.1	24.0	0.00e+00	0	43	0	2706374656	49	4115
2026-01-26 07:11:00.73	321.84	17.62	-39.4	-40.1	24.0	0.00e+00	0	43	0	2711617536	49	4119
2026-01-26 07:11:01.74	321.66	17.55	-39.3	-40.0	24.1	0.00e+00	0	43	0	2717908992	49	4061
2026-01-26 07:11:02.75	321.47	17.48	-39.3	-40.1	24.1	0.00e+00	0	44	0	2723151872	49	4099
2026-01-26 07:11:03.75	321.28	17.41	-39.3	-40.0	24.1	0.00e+00	0	44	0	2728394752	49	4078
2026-01-26 07:11:04.76	321.10	17.33	-39.2	-39.9	24.1	0.00e+00	0	43	0	2734686208	49	4050
2026-01-26 07:11:05.77	320.91	17.26	-39.2	-40.0	24.1	0.00e+00	0	44	0	2739929088	49	4054
2026-01-26 07:11:06.77	320.73	17.19	-39.3	-40.0	24.1	0.00e+00	0	43	0	2745171968	49	4078
2026-01-26 07:11:07.78	320.55	17.12	-39.3	-40.0	24.0	0.00e+00	0	43	0	2751463424	49	4083
2026-01-26 07:11:08.79	320.37	17.05	-39.4	-40.1	24.0	0.00e+00	0	43	0	2756706304	49	4125
2026-01-26 07:11:09.79	320.19	16.98	-39.2	-39.9	24.1	0.00e+00	0	43	0	2761949184	49	4044
2026-01-26 07:11:10.80	320.01	16.91	-39.2	-39.9	24.1	0.00e+00	0	44	0	2768240640	49	4042
2026-01-26 07:11:11.81	319.83	16.84	-39.3	-40.0	24.1	0.00e+00	0	43	0	2773483520	49	4069
2026-01-26 07:11:12.82	319.65	16.77	-39.3	-40.0	24.0	0.00e+00	0	44	0	2779774976	49	4083
2026-01-26 07:11:13.83	319.47	16.69	-39.3	-40.0	24.0	0.00e+00	0	43	0	2785017856	49	4077
2026-01-26 07:11:14.84	319.29	16.62	-39.3	-40.1	24.0	0.00e+00	0	43	0	2791309312	49	4108
2026-01-26 07:11:15.85	319.12	16.55	-39.4	-40.1	24.0	0.00e+00	0	43	0	2796552192	49	4116
2026-01-26 07:11:16.86	318.94	16.48	-39.5	-40.3	23.8	0.00e+00	0	44	0	2802843648	49	4206
2026-01-26 07:11:17.87	318.77	16.41	-39.5	-40.2	23.8	0.00e+00	0	43	0	2808086528	49	4172
2026-01-26 07:11:18.87	318.60	16.34	-39.6	-40.4	23.7	0.00e+00	0	43	0	2813329408	49	4248
2026-01-26 07:11:19.88	318.42	16.26	-39.6	-40.4	23.7	0.00e+00	0	43	0	2819620864	49	4261
2026-01-26 07:11:20.89	318.25	16.19	-39.8	-40.5	23.6	0.00e+00	0	43	0	2824863744	50	4081
2026-01-26 07:11:21.90	318.08	16.12	-39.9	-40.6	23.4	0.00e+00	0	43	0	2830106624	50	4144
2026-01-26 07:11:22.91	317.91	16.05	-39.8	-40.6	23.5	0.00e+00	0	43	0	2836398080	50	4104
2026-01-26 07:11:23.92	317.74	15.98	-39.8	-40.6	23.5	0.00e+00	0	43	0	2841640960	50	4125
2026-01-26 07:11:24.93	317.57	15.90	-39.9	-40.6	23.4	0.00e+00	0	43	0	2847932416	50	4137
2026-01-26 07:11:25.93	317.41	15.83	-39.9	-40.7	23.4	0.00e+00	0	43	0	2853175296	50	4166
2026-01-26 07:11:26.94	317.24	15.76	-40.0	-40.8	23.3	0.00e+00	0	44	0	2859466752	50	4200
2026-01-26 07:11:27.95	317.07	15.69	-40.1	-40.9	23.2	0.00e+00	0	43	0	2864709632	50	4260
2026-01-26 07:11:28.96	316.91	15.61	-40.1	-40.8	23.3	0.00e+00	0	44	0	2869952512	50	4230
2026-01-26 07:11:29.97	316.74	15.54	-40.0	-40.8	23.3	0.00e+00	0	44	0	2876243968	50	4194
2026-01-26 07:11:30.97	316.58	15.47	-39.9	-40.7	23.4	0.00e+00	0	43	0	2881486848	50	4182
2026-01-26 07:11:31.98	316.42	15.40	-39.9	-40.6	23.5	0.00e+00	0	43	0	2887778304	50	4124
2026-01-26 07:11:32.99	316.26	15.33	-39.9	-40.6	23.4	0.00e+00	0	43	0	2893021184	50	4130
2026-01-26 07:11:34.00	316.10	15.25	-39.9	-40.7	23.4	0.00e+00	0	43	0	2898264064	50	4171
2026-01-26 07:11:35.00	315.94	15.18	-39.9	-40.7	23.4	0.00e+00	0	43	0	2904555520	50	4152
2026-01-26 07:11:36.01	315.78	15.11	-39.7	-40.5	23.6	0.00e+00	0	43	0	2909798400	50	4064
2026-01-26 07:11:37.02	315.62	15.04	-39.8	-40.6	23.5	0.00e+00	0	44	0	2915041280	50	4119
2026-01-26 07:11:38.03	315.46	14.96	-39.9	-40.6	23.4	0.00e+00	0	44	0	2921332736	50	4138
2026-01-26 07:11:39.04	315.30	14.89	-40.0	-40.8	23.3	0.00e+00	0	43	0	2927624192	50	4194
2026-01-26 07:11:40.04	315.15	14.82	-40.0	-40.7	23.3	0.00e+00	0	43	0	2932867072	50	4182
2026-01-26 07:11:41.05	314.99	14.75	-40.0	-40.8	23.3	0.00e+00	0	44	0	2938109952	50	4220
2026-01-26 07:11:42.06	314.84	14.67	-40.2	-41.0	23.1	0.00e+00	0	43	0	2944401408	50	4313
2026-01-26 07:11:43.07	314.68	14.60	-40.0	-40.8	23.2	0.00e+00	0	43	0	2949644288	50	4234
2026-01-26 07:11:44.08	314.53	14.53	-40.2	-40.9	23.1	0.00e+00	0	43	0	2954887168	50	4290
2026-01-26 07:11:45.08	314.38	14.46	-40.3	-41.0	23.0	0.00e+00	0	43	0	2961178624	51	4097
2026-01-26 07:11:46.09	314.23	14.38	-40.2	-41.0	23.0	0.00e+00	0	43	0	2966421504	51	4086
2026-01-26 07:11:47.10	314.07	14.31	-40.3	-41.1	23.0	0.00e+00	0	43	0	2972712960	51	4101
2026-01-26 07:11:48.11	313.92	14.24	-40.1	-40.9	23.1	0.00e+00	0	44	0	2977955840	51	4037
2026-01-26 07:11:49.12	313.77	14.17	-40.2	-40.9	23.1	0.00e+00	0	43	0	2983198720	51	4042
2026-01-26 07:11:50.12	313.63	14.09	-40.2	-41.0	23.1	0.00e+00	0	43	0	2989490176	51	4061
2026-01-26 07:11:51.13	313.48	14.02	-40.3	-41.0	23.0	0.00e+00	0	43	0	2995781632	51	4092
2026-01-26 07:11:52.14	313.33	13.95	-40.3	-41.1	22.9	0.00e+00	0	43	0	3001024512	51	4118
2026-01-26 07:11:53.15	313.18	13.88	-40.4	-41.2	22.9	0.00e+00	0	43	0	3006267392	51	4151
2026-01-26 07:11:54.15	313.04	13.81	-40.4	-41.2	22.8	0.00e+00	0	44	0	3012558848	51	4170
2026-01-26 07:11:55.16	312.89	13.73	-40.3	-41.1	22.9	0.00e+00	0	43	0	3017801728	51	4130
2026-01-26 07:11:56.16	312.75	13.66	-40.4	-41.1	22.9	0.00e+00	0	43	0	3023044608	51	4145
2026-01-26 07:11:57.17	312.61	13.59	-40.3	-41.1	22.9	0.00e+00	0	43	0	3029336064	51	4139
2026-01-26 07:11:58.17	312.47	13.52	-40.4	-41.2	22.8	0.00e+00	0	43	0	3034578944	51	4165
2026-01-26 07:11:59.18	312.32	13.45	-40.5	-41.3	22.8	0.00e+00	0	43	0	3039821824	51	4204
2026-01-26 07:12:00.19	312.18	13.37	-40.4	-41.2	22.8	0.00e+00	0	44	0	3046113280	51	4160
2026-01-26 07:12:01.20	312.04	13.30	-40.5	-41.3	22.8	0.00e+00	0	43	0	3051356160	51	4203
2026-01-26 07:12:02.20	311.90	13.23	-40.5	-41.3	22.7	0.00e+00	0	43	0	3057647616	51	4223
2026-01-26 07:12:03.21	311.76	13.16	-40.7	-41.5	22.5	0.00e+00	0	43	0	3062890496	52	4061
2026-01-26 07:12:04.22	311.62	13.09	-40.9	-41.7	22.3	0.00e+00	0	43	0	3068133376	52	4167
2026-01-26 07:12:05.22	311.49	13.02	-40.6	-41.4	22.6	0.00e+00	0	43	0	3074424832	52	4029
2026-01-26 07:12:06.23	311.35	12.94	-40.8	-41.6	22.4	0.00e+00	0	43	0	3080716288	52	4113
2026-01-26 07:12:07.24	311.21	12.87	-40.6	-41.4	22.5	0.00e+00	0	43	0	3085959168	52	4045
2026-01-26 07:12:08.25	311.08	12.80	-40.5	-41.4	22.6	0.00e+00	0	44	0	3091202048	52	4007
2026-01-26 07:12:09.25	310.94	12.73	-40.6	-41.4	22.5	0.00e+00	0	43	0	3097493504	52	4043
2026-01-26 07:12:10.26	310.81	12.66	-40.6	-41.4	22.6	0.00e+00	0	43	0	3102736384	52	4020
2026-01-26 07:12:11.27	310.67	12.59	-40.7	-41.5	22.5	0.00e+00	0	43	0	3107979264	52	4073
2026-01-26 07:12:12.28	310.54	12.51	-40.6	-41.4	22.5	0.00e+00	0	43	0	3114270720	52	4042
2026-01-26 07:12:13.28	310.41	12.44	-40.7	-41.5	22.5	0.00e+00	0	43	0	3119513600	52	4063
2026-01-26 07:12:14.29	310.28	12.37	-40.7	-41.5	22.4	0.00e+00	0	43	0	3124756480	52	4086
2026-01-26 07:12:15.30	310.14	12.30	-40.7	-41.5	22.4	0.00e+00	0	43	0	3131047936	52	4089
2026-01-26 07:12:16.31	310.01	12.23	-40.9	-41.7	22.2	0.00e+00	0	43	0	3136290816	52	4184
2026-01-26 07:12:17.32	309.88	12.16	-41.0	-41.8	22.2	0.00e+00	0	44	0	3142582272	52	4214
2026-01-26 07:12:18.33	309.75	12.09	-40.9	-41.7	22.2	0.00e+00	0	43	0	3147825152	52	4191
2026-01-26 07:12:19.33	309.63	12.02	-40.8	-41.6	22.3	0.00e+00	0	43	0	3154116608	52	4134
2026-01-26 07:12:20.34	309.50	11.94	-40.9	-41.7	22.2	0.00e+00	0	43	0	3159359488	52	4174
2026-01-26 07:12:21.35	309.37	11.87	-40.9	-41.7	22.2	0.00e+00	0	43	0	3165650944	52	4173
2026-01-26 07:12:22.36	309.24	11.80	-41.0	-41.8	22.1	0.00e+00	0	43	0	3170893824	52	4222
2026-01-26 07:12:23.37	309.12	11.73	-41.0	-41.8	22.1	0.00e+00	0	43	0	3176136704	52	4234
2026-01-26 07:12:24.38	308.99	11.66	-40.9	-41.7	22.2	0.00e+00	0	43	0	3182428160	52	4171
2026-01-26 07:12:25.39	308.86	11.59	-41.0	-41.8	22.1	0.00e+00	0	43	0	3187671040	52	4229
2026-01-26 07:12:26.40	308.74	11.52	-41.1	-41.9	22.0	0.00e+00	0	43	0	3192913920	52	4289
2026-01-26 07:12:27.41	308.62	11.45	-41.1	-42.0	21.9	0.00e+00	0	43	0	3199205376	52	4313
2026-01-26 07:12:28.41	308.49	11.38	-41.3	-42.1	21.8	0.00e+00	0	43	0	3204448256	53	4119
2026-01-26 07:12:29.42	308.37	11.31	-41.0	-41.9	22.0	0.00e+00	0	43	0	3209691136	53	4005
2026-01-26 07:12:30.43	308.25	11.24	-41.0	-41.8	22.1	0.00e+00	0	43	0	3215982592	53	3986
2026-01-26 07:12:31.44	308.13	11.17	-41.0	-41.8	22.1	0.00e+00	0	43	0	3222274048	53	3982
2026-01-26 07:12:32.44	308.01	11.10	-41.0	-41.8	22.1	0.00e+00	0	43	0	3227516928	53	3998
2026-01-26 07:12:33.45	307.89	11.03	-41.1	-42.0	21.9	0.00e+00	0	43	0	3232759808	53	4068
2026-01-26 07:12:34.46	307.77	10.96	-41.2	-42.0	21.9	0.00e+00	0	43	0	3239051264	53	4083
2026-01-26 07:12:35.47	307.65	10.89	-41.3	-42.1	21.8	0.00e+00	0	43	0	3244294144	53	4127
2026-01-26 07:12:36.49	307.53	10.82	-41.4	-42.3	21.6	0.00e+00	0	44	0	3250585600	53	4203
2026-01-26 07:12:37.49	307.41	10.75	-41.5	-42.3	21.5	0.00e+00	0	43	0	3255828480	53	4242
2026-01-26 07:12:38.50	307.29	10.68	-41.3	-42.2	21.7	0.00e+00	0	43	0	3261071360	53	4171
2026-01-26 07:12:39.51	307.18	10.61	-41.4	-42.3	21.6	0.00e+00	0	43	0	3267362816	53	4224
2026-01-26 07:12:40.52	307.06	10.54	-41.4	-42.3	21.6	0.00e+00	0	43	0	3272605696	53	4217
2026-01-26 07:12:41.53	306.95	10.47	-41.5	-42.3	21.5	0.00e+00	0	44	0	3278897152	53	4240
2026-01-26 07:12:42.53	306.83	10.40	-41.4	-42.3	21.6	0.00e+00	0	43	0	3284140032	53	4210
2026-01-26 07:12:43.54	306.72	10.33	-41.5	-42.4	21.4	0.00e+00	0	43	0	3290431488	53	4279
2026-01-26 07:12:44.55	306.60	10.26	-41.6	-42.5	21.4	0.00e+00	0	43	0	3295674368	53	4293
2026-01-26 07:12:45.56	306.49	10.19	-41.3	-42.2	21.6	0.00e+00	0	43	0	3300917248	53	4162
2026-01-26 07:12:46.57	306.38	10.12	-41.5	-42.3	21.5	0.00e+00	0	43	0	3307208704	53	4235
2026-01-26 07:12:47.57	306.26	10.05	-41.5	-42.4	21.4	0.00e+00	0	43	0	3312451584	53	4253
2026-01-26 07:12:48.58	306.15	9.98	-41.5	-42.4	21.4	0.00e+00	0	43	0	3317694464	53	4271
2026-01-26 07:12:49.59	306.04	9.92	-41.4	-42.3	21.5	0.00e+00	0	43	0	3323985920	53	4223
2026-01-26 07:12:50.60	305.93	9.85	-41.4	-42.3	21.5	0.00e+00	0	43	0	3329228800	53	4219
2026-01-26 07:12:51.61	305.82	9.78	-41.4	-42.3	21.5	0.00e+00	0	43	0	3335520256	53	4212
2026-01-26 07:12:52.61	305.71	9.71	-41.6	-42.5	21.3	0.00e+00	0	43	0	3340763136	53	4307
2026-01-26 07:12:53.63	305.60	9.64	-41.4	-42.3	21.5	0.00e+00	0	43	0	3347054592	53	4195
2026-01-26 07:12:54.63	305.49	9.57	-41.4	-42.3	21.5	0.00e+00	0	43	0	3352297472	53	4212
2026-01-26 07:12:55.64	305.39	9.50	-41.4	-42.3	21.5	0.00e+00	0	43	0	3358588928	53	4197
2026-01-26 07:12:56.64	305.28	9.44	-41.6	-42.5	21.3	0.00e+00	0	43	0	3363831808	53	4300
2026-01-26 07:12:57.65	305.17	9.37	-41.7	-42.6	21.2	0.00e+00	0	43	0	3369074688	54	4106
2026-01-26 07:12:58.66	305.07	9.30	-41.8	-42.7	21.1	0.00e+00	0	43	0	3375366144	54	4154
2026-01-26 07:12:59.67	304.96	9.23	-41.9	-42.8	21.0	0.00e+00	0	43	0	3380609024	54	4208
2026-01-26 07:13:00.68	304.85	9.16	-41.8	-42.7	21.1	0.00e+00	0	43	0	3385851904	54	4173
2026-01-26 07:13:01.68	304.75	9.10	-41.8	-42.7	21.1	0.00e+00	0	43	0	3392143360	54	4167
2026-01-26 07:13:02.69	304.64	9.03	-41.9	-42.8	21.0	0.00e+00	0	43	0	3397386240	54	4237
2026-01-26 07:13:03.70	304.54	8.96	-41.9	-42.9	20.9	0.00e+00	0	43	0	3402629120	54	4250
2026-01-26 07:13:04.70	304.44	8.89	-41.9	-42.8	21.0	0.00e+00	0	43	0	3408920576	54	4223
2026-01-26 07:13:05.71	304.34	8.83	-41.7	-42.6	21.2	0.00e+00	0	44	0	3414163456	54	4117
2026-01-26 07:13:06.72	304.23	8.76	-42.0	-42.9	20.8	0.00e+00	0	43	0	3420454912	54	4290
2026-01-26 07:13:07.73	304.13	8.69	-41.8	-42.7	21.0	0.00e+00	0	44	0	3425697792	54	4188
2026-01-26 07:13:08.73	304.03	8.63	-41.9	-42.8	20.9	0.00e+00	0	43	0	3431989248	54	4235
2026-01-26 07:13:09.74	303.93	8.56	-41.9	-42.8	20.9	0.00e+00	0	44	0	3437232128	55	3975
2026-01-26 07:13:10.75	303.83	8.49	-41.8	-42.7	21.0	0.00e+00	0	44	0	3443523584	55	3957
2026-01-26 07:13:11.76	303.73	8.42	-42.0	-42.9	20.8	0.00e+00	0	44	0	3448766464	55	4050
2026-01-26 07:13:12.76	303.63	8.36	-42.5	-43.4	20.2	0.00e+00	0	43	0	3454009344	55	4279
2026-01-26 07:13:13.77	303.53	8.29	-42.3	-43.3	20.3	0.00e+00	0	43	0	3460300800	55	4221
2026-01-26 07:13:14.77	303.43	8.23	-41.9	-42.9	20.8	0.00e+00	0	43	0	3465543680	55	4008
2026-01-26 07:13:15.78	303.33	8.16	-42.3	-43.3	20.4	0.00e+00	0	44	0	3470786560	55	4196
2026-01-26 07:13:16.79	303.24	8.09	-42.2	-43.2	20.4	0.00e+00	0	43	0	3477078016	55	4168
2026-01-26 07:13:17.80	303.14	8.03	-42.1	-43.1	20.5	0.00e+00	0	44	0	3482320896	55	4108
2026-01-26 07:13:18.80	303.04	7.96	-42.4	-43.4	20.2	0.00e+00	0	43	0	3487563776	55	4253
2026-01-26 07:13:19.81	302.95	7.89	-42.5	-43.5	20.0	0.00e+00	0	44	0	3493855232	55	4335
2026-01-26 07:13:20.82	302.85	7.83	-42.6	-43.6	20.0	0.00e+00	0	44	0	3499098112	55	4369
2026-01-26 07:13:21.83	302.75	7.76	-42.3	-43.2	20.3	0.00e+00	0	43	0	3505389568	55	4181
2026-01-26 07:13:22.83	302.66	7.70	-42.5	-43.5	20.0	0.00e+00	0	43	0	3510632448	55	4297
2026-01-26 07:13:23.84	302.57	7.63	-42.2	-43.2	20.3	0.00e+00	0	43	0	3516923904	55	4168
2026-01-26 07:13:24.84	302.47	7.57	-42.6	-43.7	19.8	0.00e+00	0	43	0	3522166784	55	4392
2026-01-26 07:13:25.85	302.38	7.50	-42.8	-43.9	19.7	0.00e+00	0	44	0	3528458240	56	4249
2026-01-26 07:13:26.86	302.28	7.44	-43.2	-44.2	19.3	0.00e+00	0	43	0	3533701120	56	4428
2026-01-26 07:13:27.87	302.19	7.37	-43.0	-44.1	19.4	0.00e+00	0	43	0	3538944000	56	4347
2026-01-26 07:13:28.88	302.10	7.30	-42.3	-43.3	20.2	0.00e+00	0	43	0	3545235456	56	3995
2026-01-26 07:13:29.89	302.01	7.24	-42.8	-43.9	19.6	0.00e+00	0	43	0	3550478336	56	4264
2026-01-26 07:13:30.89	301.92	7.17	-42.8	-43.9	19.6	0.00e+00	0	44	0	3555721216	56	4264
2026-01-26 07:13:31.90	301.83	7.11	-42.5	-43.5	19.9	0.00e+00	0	44	0	3562012672	56	4090
2026-01-26 07:13:32.90	301.74	7.04	-42.7	-43.7	19.8	0.00e+00	0	43	0	3567255552	56	4171
2026-01-26 07:13:33.91	301.64	6.98	-42.6	-43.6	19.8	0.00e+00	0	44	0	3572498432	56	4116
2026-01-26 07:13:34.92	301.55	6.92	-42.9	-43.9	19.5	0.00e+00	0	43	0	3578789888	56	4283
2026-01-26 07:13:35.92	301.47	6.85	-42.5	-43.5	19.9	0.00e+00	0	43	0	3584032768	56	4094
2026-01-26 07:13:36.93	301.38	6.79	-42.5	-43.6	19.8	0.00e+00	0	43	0	3590324224	56	4105
2026-01-26 07:13:37.94	301.29	6.72	-42.8	-43.8	19.6	0.00e+00	0	43	0	3595567104	56	4212
2026-01-26 07:13:38.95	301.20	6.66	-42.7	-43.7	19.7	0.00e+00	0	43	0	3601858560	56	4166
2026-01-26 07:13:39.96	301.11	6.59	-42.8	-43.9	19.5	0.00e+00	0	43	0	3607101440	56	4246
2026-01-26 07:13:40.97	301.02	6.53	-42.9	-43.9	19.5	0.00e+00	0	43	0	3613392896	56	4269
2026-01-26 07:13:41.97	300.94	6.47	-42.8	-43.8	19.5	0.00e+00	0	43	0	3618635776	56	4213
2026-01-26 07:13:42.98	300.85	6.40	-42.8	-43.8	19.5	0.00e+00	0	43	0	3623878656	56	4232
2026-01-26 07:13:43.99	300.76	6.34	-42.7	-43.7	19.6	0.00e+00	0	43	0	3630170112	56	4192
2026-01-26 07:13:45.00	300.68	6.27	-42.7	-43.7	19.6	0.00e+00	0	43	0	3635412992	56	4171
2026-01-26 07:13:45.99	300.60	6.21	-42.8	-43.8	19.5	0.00e+00	0	43	0	3640655872	56	4228
2026-01-26 07:13:47.00	300.51	6.15	-42.5	-43.5	19.8	0.00e+00	0	43	0	3646947328	56	4090
2026-01-26 07:13:48.01	300.43	6.08	-42.8	-43.9	19.5	0.00e+00	0	43	0	3652190208	56	4249
