passes_logs/2026/01/26/R3.2S_Murmansk/R3.2S_Murmansk__20260126_232643_NOAA_20_JPSS-1_rec.log

#Pass ID: 20260126_232643_NOAA 20 (JPSS-1)
#Satellite: NOAA 20 (JPSS-1)
#Configuration: NOAA 20
#almurnet v.1.7.20251203
#Start time: 2026-01-26 23:26:44

#Version: 2.2.20231116
#Station: R3.2S_Murmansk
#Location: 33.079688 lon 68.888172 lat
#TLE: 1 43013U 17073A   26026.46665230  .00000148  00000+0  91302-4 0  9998
#TLE: 2 43013  98.7646 327.2856 0001008  22.9532 337.1688 14.19540616424360

#Time	Az	El	Level	Level2	SNR	BER	BlckErr	Temp	State	Recorded	gain1	gain2
2026-01-26 23:26:44.22	20.75	2.04	-54.2	-69.2	3.8	1.49e+00	0	41	0	0	79	20916
2026-01-26 23:26:45.21	20.79	2.10	-54.2	-69.2	3.8	1.49e+00	0	41	104	0	78	22178
2026-01-26 23:26:46.22	20.83	2.16	-54.2	-69.2	3.8	1.49e+00	0	41	104	0	78	22054
2026-01-26 23:26:47.23	20.86	2.22	-54.2	-69.1	3.8	1.49e+00	0	41	104	0	78	21956
2026-01-26 23:26:48.24	20.90	2.29	-54.2	-69.1	3.8	1.49e+00	0	41	104	0	78	21994
2026-01-26 23:26:49.25	20.94	2.35	-54.2	-69.1	3.8	1.49e+00	0	41	104	0	78	21957
2026-01-26 23:26:50.26	20.98	2.41	-54.1	-69.1	3.8	1.49e+00	0	41	104	0	78	21933
2026-01-26 23:26:51.27	21.02	2.47	-54.2	-69.1	3.8	1.49e+00	0	41	104	0	78	21980
2026-01-26 23:26:52.28	21.06	2.54	-54.3	-69.3	3.8	1.49e+00	0	41	104	0	79	21176
2026-01-26 23:26:53.29	21.10	2.60	-54.3	-69.3	3.8	1.49e+00	0	41	104	0	79	21167
2026-01-26 23:26:54.29	21.14	2.66	-54.3	-69.3	3.8	1.49e+00	0	41	104	0	79	21194
2026-01-26 23:26:55.30	21.18	2.73	-54.4	-69.3	3.8	1.49e+00	0	41	104	0	79	21197
2026-01-26 23:26:56.31	21.22	2.79	-54.3	-69.3	3.8	1.49e+00	0	41	104	0	79	21195
2026-01-26 23:26:57.32	21.26	2.85	-54.3	-69.3	3.8	1.49e+00	0	41	104	0	79	21216
2026-01-26 23:26:58.33	21.31	2.92	-54.3	-69.3	3.8	1.49e+00	0	41	104	0	79	21173
2026-01-26 23:26:59.34	21.35	2.98	-54.3	-69.3	3.8	1.49e+00	0	41	104	0	79	21132
2026-01-26 23:27:00.34	21.39	3.04	-54.3	-69.3	3.8	1.49e+00	0	41	104	0	79	21047
2026-01-26 23:27:01.35	21.43	3.11	-54.2	-69.2	3.8	1.49e+00	0	41	104	0	79	20952
2026-01-26 23:27:02.36	21.47	3.17	-54.2	-69.2	3.8	1.49e+00	0	41	104	0	79	20871
2026-01-26 23:27:03.37	21.51	3.24	-54.2	-69.2	3.8	1.49e+00	0	42	104	0	79	20888
2026-01-26 23:27:04.38	21.55	3.30	-54.2	-69.2	3.8	1.49e+00	0	42	104	0	79	20796
2026-01-26 23:27:05.39	21.59	3.37	-54.1	-69.1	3.8	1.49e+00	0	42	104	0	79	20683
2026-01-26 23:27:06.40	21.64	3.43	-54.1	-69.0	3.8	1.49e+00	0	41	104	0	79	20509
2026-01-26 23:27:07.41	21.68	3.50	-54.0	-69.0	3.8	1.49e+00	0	42	104	0	79	20304
2026-01-26 23:27:08.41	21.72	3.56	-53.9	-68.9	3.8	1.49e+00	0	42	104	0	79	20073
2026-01-26 23:27:09.42	21.76	3.62	-53.8	-68.7	3.8	1.49e+00	0	42	104	0	79	19817
2026-01-26 23:27:10.43	21.81	3.69	-53.7	-68.6	3.8	1.49e+00	0	41	104	0	79	19500
2026-01-26 23:27:11.44	21.85	3.76	-53.5	-68.5	3.8	1.49e+00	0	42	104	0	79	19179
2026-01-26 23:27:12.45	21.89	3.82	-53.3	-68.2	3.8	1.49e+00	0	42	104	0	78	19723
2026-01-26 23:27:13.46	21.94	3.89	-52.9	-67.9	3.8	1.49e+00	0	42	104	0	77	20121
2026-01-26 23:27:14.47	21.98	3.95	-52.0	-61.2	4.3	1.49e+00	0	42	104	0	76	9932
2026-01-26 23:27:15.47	22.02	4.02	-51.3	-57.7	8.4	6.98e-02	0	42	0	0	74	7410
2026-01-26 23:27:16.48	22.07	4.08	-50.9	-56.3	9.7	2.99e-02	0	42	0	2097152	73	6684
2026-01-26 23:27:17.49	22.11	4.15	-50.5	-55.3	10.9	5.54e-03	0	42	0	4194304	73	5934
2026-01-26 23:27:18.50	22.15	4.22	-49.9	-53.7	12.6	6.66e-04	0	42	0	6291456	71	5575
2026-01-26 23:27:19.50	22.20	4.28	-49.3	-52.6	13.8	1.98e-05	0	42	0	7340032	70	5165
2026-01-26 23:27:20.51	22.24	4.35	-49.0	-52.1	14.3	0.00e+00	0	42	0	9437184	69	5167
2026-01-26 23:27:21.52	22.29	4.42	-48.6	-51.2	15.1	0.00e+00	0	42	0	11534336	69	4699
2026-01-26 23:27:22.53	22.33	4.48	-48.1	-50.6	15.7	0.00e+00	0	42	0	13631488	68	4615
2026-01-26 23:27:23.54	22.38	4.55	-48.5	-51.1	15.2	0.00e+00	0	42	0	15728640	68	4917
2026-01-26 23:27:24.55	22.42	4.62	-48.2	-50.7	15.7	0.00e+00	0	42	0	17825792	68	4668
2026-01-26 23:27:25.56	22.47	4.69	-48.7	-51.4	15.0	0.00e+00	0	42	0	18874368	68	5077
2026-01-26 23:27:26.57	22.51	4.75	-48.7	-51.5	14.9	0.00e+00	0	42	0	20971520	68	5127
2026-01-26 23:27:27.57	22.56	4.82	-49.1	-52.3	14.1	7.00e-07	0	42	0	23068672	68	5620
2026-01-26 23:27:28.58	22.61	4.89	-49.5	-52.9	13.4	4.50e-06	0	42	0	25165824	69	5713
2026-01-26 23:27:29.59	22.65	4.96	-50.3	-54.6	11.6	3.74e-04	0	42	0	27262976	71	6182
2026-01-26 23:27:30.60	22.70	5.03	-50.7	-55.9	10.3	7.57e-04	0	42	0	28311552	72	6751
2026-01-26 23:27:31.60	22.74	5.09	-51.1	-56.9	9.1	1.87e-02	0	42	0	30408704	72	7619
2026-01-26 23:27:32.61	22.79	5.16	-49.0	-52.0	14.3	3.34e-03	0	42	0	32505856	70	4821
2026-01-26 23:27:33.62	22.84	5.23	-51.2	-57.5	9.6	0.00e+00	0	42	0	34603008	72	8084
2026-01-26 23:27:34.63	22.88	5.30	-51.3	-57.7	8.1	1.29e+00	1	42	104	34603008	74	7395
2026-01-26 23:27:35.63	22.93	5.37	-48.7	-51.3	15.3	2.53e-03	0	42	0	35651584	68	4990
2026-01-26 23:27:36.64	22.98	5.44	-48.6	-51.1	15.4	4.95e-05	0	42	0	37748736	69	4628
2026-01-26 23:27:37.65	23.03	5.51	-48.3	-50.8	15.7	0.00e+00	0	42	0	38797312	68	4713
2026-01-26 23:27:38.65	23.07	5.58	-48.1	-50.4	16.1	0.00e+00	0	42	0	40894464	68	4542
2026-01-26 23:27:39.66	23.12	5.65	-48.5	-51.0	15.5	0.00e+00	0	42	0	42991616	68	4839
2026-01-26 23:27:40.67	23.17	5.72	-48.2	-50.6	15.9	0.00e+00	0	42	0	45088768	68	4634
2026-01-26 23:27:41.68	23.22	5.79	-48.2	-50.6	16.0	0.00e+00	0	42	0	47185920	68	4605
2026-01-26 23:27:42.69	23.27	5.86	-48.1	-50.4	16.2	0.00e+00	0	42	0	48234496	68	4507
2026-01-26 23:27:43.69	23.32	5.93	-48.1	-50.4	16.2	0.00e+00	0	42	0	50331648	68	4501
2026-01-26 23:27:44.70	23.37	6.00	-48.0	-50.4	16.1	0.00e+00	0	42	0	52428800	67	4762
2026-01-26 23:27:45.71	23.42	6.07	-47.8	-49.9	16.6	0.00e+00	0	42	0	54525952	67	4545
2026-01-26 23:27:46.71	23.47	6.14	-47.9	-50.1	16.4	0.00e+00	0	42	0	55574528	67	4641
2026-01-26 23:27:47.72	23.51	6.21	-48.0	-50.3	16.2	0.00e+00	0	42	0	57671680	67	4744
2026-01-26 23:27:48.72	23.56	6.28	-48.0	-50.4	16.1	0.00e+00	0	42	0	59768832	67	4766
2026-01-26 23:27:49.72	23.61	6.35	-47.9	-50.1	16.4	0.00e+00	0	42	0	61865984	67	4630
2026-01-26 23:27:50.73	23.67	6.42	-47.9	-50.2	16.4	0.00e+00	0	42	0	63963136	67	4652
2026-01-26 23:27:51.74	23.72	6.50	-47.8	-49.9	16.6	0.00e+00	0	42	0	66060288	67	4541
2026-01-26 23:27:52.75	23.77	6.57	-47.7	-49.8	16.7	0.00e+00	0	42	0	67108864	67	4475
2026-01-26 23:27:53.75	23.82	6.64	-47.8	-50.0	16.6	0.00e+00	0	42	0	69206016	67	4573
2026-01-26 23:27:54.76	23.87	6.71	-47.7	-49.9	16.7	0.00e+00	0	42	0	71303168	67	4511
2026-01-26 23:27:55.77	23.92	6.79	-47.8	-50.0	16.6	0.00e+00	0	42	0	73400320	67	4567
2026-01-26 23:27:56.78	23.97	6.86	-47.7	-49.9	16.7	0.00e+00	0	42	0	75497472	67	4515
2026-01-26 23:27:57.78	24.02	6.93	-47.6	-49.7	16.9	0.00e+00	0	42	0	76546048	67	4413
2026-01-26 23:27:58.79	24.08	7.00	-47.8	-49.9	16.7	0.00e+00	0	42	0	78643200	67	4543
2026-01-26 23:27:59.80	24.13	7.08	-47.6	-49.6	17.0	0.00e+00	0	43	0	80740352	67	4373
2026-01-26 23:28:00.81	24.18	7.15	-47.7	-49.8	16.8	0.00e+00	0	42	0	82837504	67	4468
2026-01-26 23:28:01.82	24.24	7.23	-47.7	-49.8	16.8	0.00e+00	0	42	0	84934656	67	4473
2026-01-26 23:28:02.83	24.29	7.30	-47.7	-49.9	16.8	0.00e+00	0	42	0	85983232	67	4497
2026-01-26 23:28:03.84	24.34	7.37	-47.6	-49.6	17.0	0.00e+00	0	42	0	88080384	67	4371
2026-01-26 23:28:04.85	24.40	7.45	-47.6	-49.6	17.1	0.00e+00	0	42	0	90177536	67	4353
2026-01-26 23:28:05.85	24.45	7.52	-47.4	-49.4	17.3	0.00e+00	0	42	0	92274688	66	4501
2026-01-26 23:28:06.86	24.50	7.60	-47.5	-49.6	17.2	0.00e+00	0	42	0	94371840	66	4599
2026-01-26 23:28:07.87	24.56	7.67	-47.4	-49.3	17.4	0.00e+00	0	42	0	95420416	66	4484
2026-01-26 23:28:08.88	24.61	7.75	-47.6	-49.6	17.1	0.00e+00	0	43	0	97517568	66	4645
2026-01-26 23:28:09.88	24.67	7.82	-47.6	-49.7	17.1	0.00e+00	0	42	0	99614720	66	4676
2026-01-26 23:28:10.89	24.72	7.90	-47.4	-49.3	17.4	0.00e+00	0	42	0	101711872	66	4477
2026-01-26 23:28:11.90	24.78	7.97	-47.4	-49.4	17.4	0.00e+00	0	43	0	103809024	66	4495
2026-01-26 23:28:12.91	24.84	8.05	-47.4	-49.4	17.3	0.00e+00	0	43	0	104857600	66	4520
2026-01-26 23:28:13.92	24.89	8.13	-47.2	-49.1	17.7	0.00e+00	0	43	0	106954752	66	4346
2026-01-26 23:28:14.92	24.95	8.20	-47.3	-49.2	17.6	0.00e+00	0	43	0	109051904	66	4419
2026-01-26 23:28:15.93	25.00	8.28	-47.3	-49.2	17.6	0.00e+00	0	43	0	111149056	66	4392
2026-01-26 23:28:16.94	25.06	8.36	-47.0	-48.8	17.9	0.00e+00	0	43	0	113246208	66	4225
2026-01-26 23:28:17.95	25.12	8.43	-47.1	-48.9	17.8	0.00e+00	0	43	0	114294784	65	4533
2026-01-26 23:28:18.95	25.18	8.51	-47.2	-49.0	17.7	0.00e+00	0	43	0	116391936	65	4593
2026-01-26 23:28:19.95	25.23	8.59	-47.1	-49.0	17.8	0.00e+00	0	42	0	118489088	65	4570
2026-01-26 23:28:20.96	25.29	8.66	-47.0	-48.8	18.0	0.00e+00	0	43	0	120586240	65	4461
2026-01-26 23:28:21.97	25.35	8.74	-46.9	-48.7	18.1	0.00e+00	0	42	0	122683392	65	4414
2026-01-26 23:28:22.98	25.41	8.82	-47.0	-48.8	18.0	0.00e+00	0	43	0	123731968	65	4446
2026-01-26 23:28:23.99	25.47	8.90	-46.9	-48.7	18.1	0.00e+00	0	43	0	125829120	65	4404
2026-01-26 23:28:25.00	25.53	8.98	-46.9	-48.7	18.1	0.00e+00	0	43	0	127926272	65	4429
2026-01-26 23:28:26.00	25.59	9.06	-46.8	-48.6	18.2	0.00e+00	0	43	0	130023424	65	4344
2026-01-26 23:28:27.01	25.65	9.13	-46.8	-48.5	18.3	0.00e+00	0	43	0	132120576	65	4337
2026-01-26 23:28:28.02	25.71	9.21	-46.9	-48.7	18.1	0.00e+00	0	42	0	134217728	65	4420
2026-01-26 23:28:29.03	25.77	9.29	-46.9	-48.6	18.2	0.00e+00	0	42	0	135266304	65	4391
2026-01-26 23:28:30.04	25.83	9.37	-46.8	-48.5	18.3	0.00e+00	0	43	0	137363456	65	4305
2026-01-26 23:28:31.05	25.89	9.45	-46.8	-48.5	18.4	0.00e+00	0	43	0	139460608	65	4295
2026-01-26 23:28:32.05	25.95	9.53	-46.8	-48.6	18.3	0.00e+00	0	43	0	141557760	65	4349
2026-01-26 23:28:33.06	26.01	9.61	-46.8	-48.5	18.3	0.00e+00	0	42	0	142606336	65	4318
2026-01-26 23:28:34.07	26.07	9.69	-46.6	-48.2	18.6	0.00e+00	0	43	0	144703488	65	4171
2026-01-26 23:28:35.08	26.13	9.78	-46.7	-48.4	18.4	0.00e+00	0	43	0	146800640	65	4279
2026-01-26 23:28:36.08	26.20	9.86	-46.8	-48.5	18.3	0.00e+00	0	43	0	148897792	65	4327
2026-01-26 23:28:37.09	26.26	9.94	-46.7	-48.4	18.5	0.00e+00	0	43	0	150994944	65	4257
2026-01-26 23:28:38.09	26.32	10.02	-46.6	-48.3	18.6	0.00e+00	0	43	0	152043520	65	4204
2026-01-26 23:28:39.10	26.39	10.10	-46.7	-48.4	18.5	0.00e+00	0	42	0	154140672	65	4256
2026-01-26 23:28:40.11	26.45	10.18	-46.6	-48.2	18.7	0.00e+00	0	43	0	156237824	65	4162
2026-01-26 23:28:41.12	26.51	10.26	-46.6	-48.2	18.7	0.00e+00	0	43	0	158334976	65	4179
2026-01-26 23:28:42.13	26.58	10.35	-46.5	-48.1	18.7	0.00e+00	0	43	0	160432128	64	4384
2026-01-26 23:28:43.14	26.64	10.43	-46.4	-47.9	19.0	0.00e+00	0	42	0	162529280	64	4280
2026-01-26 23:28:44.15	26.71	10.51	-46.5	-48.1	18.8	0.00e+00	0	42	0	163577856	64	4361
2026-01-26 23:28:45.16	26.78	10.60	-46.5	-48.2	18.7	0.00e+00	0	42	0	165675008	64	4397
2026-01-26 23:28:46.16	26.84	10.68	-46.5	-48.2	18.7	0.00e+00	0	43	0	167772160	64	4395
2026-01-26 23:28:47.17	26.91	10.76	-46.6	-48.2	18.7	0.00e+00	0	43	0	169869312	64	4422
2026-01-26 23:28:48.18	26.97	10.85	-46.7	-48.3	18.6	0.00e+00	0	43	0	170917888	64	4463
2026-01-26 23:28:49.19	27.04	10.93	-46.5	-48.1	18.8	0.00e+00	0	42	0	173015040	64	4359
2026-01-26 23:28:50.20	27.11	11.02	-46.6	-48.2	18.7	0.00e+00	0	43	0	175112192	64	4420
2026-01-26 23:28:51.21	27.18	11.10	-46.6	-48.2	18.8	0.00e+00	0	43	0	177209344	64	4399
2026-01-26 23:28:52.21	27.24	11.19	-46.5	-48.1	18.8	0.00e+00	0	43	0	179306496	64	4385
2026-01-26 23:28:53.22	27.31	11.27	-46.5	-48.1	18.8	0.00e+00	0	43	0	181403648	64	4368
2026-01-26 23:28:54.23	27.38	11.36	-46.4	-47.9	19.0	0.00e+00	0	43	0	182452224	64	4291
2026-01-26 23:28:55.24	27.45	11.44	-46.4	-48.0	18.9	0.00e+00	0	43	0	184549376	64	4297
2026-01-26 23:28:56.25	27.52	11.53	-46.4	-48.0	19.0	0.00e+00	0	43	0	186646528	64	4323
2026-01-26 23:28:57.26	27.59	11.62	-46.3	-47.9	19.0	0.00e+00	0	43	0	188743680	64	4256
2026-01-26 23:28:58.27	27.66	11.70	-46.5	-48.0	18.9	0.00e+00	0	43	0	190840832	64	4337
2026-01-26 23:28:59.28	27.73	11.79	-46.4	-47.9	19.1	0.00e+00	0	43	0	191889408	64	4276
2026-01-26 23:29:00.29	27.80	11.88	-46.5	-48.1	18.9	0.00e+00	0	43	0	193986560	64	4369
2026-01-26 23:29:01.30	27.87	11.97	-46.4	-47.9	19.0	0.00e+00	0	43	0	196083712	64	4271
2026-01-26 23:29:02.31	27.95	12.05	-46.3	-47.8	19.2	0.00e+00	0	43	0	198180864	64	4215
2026-01-26 23:29:03.31	28.02	12.14	-46.3	-47.9	19.1	0.00e+00	0	43	0	199229440	64	4247
2026-01-26 23:29:04.32	28.09	12.23	-46.3	-47.8	19.1	0.00e+00	0	43	0	201326592	64	4235
2026-01-26 23:29:05.33	28.16	12.32	-46.2	-47.7	19.3	0.00e+00	0	43	0	203423744	64	4173
2026-01-26 23:29:06.33	28.24	12.41	-46.3	-47.8	19.2	0.00e+00	0	43	0	205520896	64	4219
2026-01-26 23:29:07.34	28.31	12.50	-46.4	-47.9	19.1	0.00e+00	0	43	0	207618048	64	4267
2026-01-26 23:29:08.35	28.39	12.59	-46.4	-48.0	19.0	0.00e+00	0	43	0	209715200	64	4307
2026-01-26 23:29:09.35	28.46	12.68	-46.2	-47.8	19.2	0.00e+00	0	43	0	210763776	64	4196
2026-01-26 23:29:10.36	28.53	12.77	-46.1	-47.5	19.5	0.00e+00	0	43	0	212860928	64	4095
2026-01-26 23:29:11.37	28.61	12.86	-46.0	-47.5	19.6	0.00e+00	0	43	0	214958080	63	4308
2026-01-26 23:29:12.38	28.69	12.95	-46.1	-47.6	19.5	0.00e+00	0	43	0	217055232	63	4358
2026-01-26 23:29:13.38	28.76	13.04	-46.1	-47.6	19.5	0.00e+00	0	43	0	219152384	63	4350
2026-01-26 23:29:14.39	28.84	13.13	-46.0	-47.4	19.7	0.00e+00	0	43	0	220200960	63	4278
2026-01-26 23:29:15.40	28.92	13.22	-45.9	-47.3	19.8	0.00e+00	0	43	0	222298112	63	4211
2026-01-26 23:29:16.40	28.99	13.31	-45.9	-47.3	19.9	0.00e+00	0	43	0	224395264	63	4198
2026-01-26 23:29:17.41	29.07	13.40	-45.9	-47.3	19.8	0.00e+00	0	43	0	226492416	63	4230
2026-01-26 23:29:18.41	29.15	13.50	-45.8	-47.2	19.9	0.00e+00	0	43	0	227540992	63	4185
2026-01-26 23:29:19.42	29.23	13.59	-45.8	-47.2	19.9	0.00e+00	0	43	0	229638144	63	4170
2026-01-26 23:29:20.42	29.31	13.68	-45.9	-47.3	19.8	0.00e+00	0	43	0	231735296	63	4231
2026-01-26 23:29:21.43	29.39	13.77	-46.0	-47.4	19.7	0.00e+00	0	43	0	233832448	63	4259
2026-01-26 23:29:22.44	29.47	13.87	-45.9	-47.3	19.8	0.00e+00	0	43	0	235929600	63	4219
2026-01-26 23:29:23.44	29.55	13.96	-45.8	-47.2	19.9	0.00e+00	0	43	0	238026752	63	4180
2026-01-26 23:29:24.45	29.63	14.06	-45.6	-47.0	20.2	0.00e+00	0	43	0	239075328	63	4054
2026-01-26 23:29:25.46	29.71	14.15	-45.7	-47.1	20.1	0.00e+00	0	43	0	241172480	63	4114
2026-01-26 23:29:26.46	29.80	14.25	-45.7	-47.1	20.0	0.00e+00	0	43	0	243269632	63	4119
2026-01-26 23:29:27.47	29.88	14.34	-45.7	-47.0	20.1	0.00e+00	0	43	0	245366784	63	4088
2026-01-26 23:29:28.48	29.96	14.44	-45.7	-47.1	20.1	0.00e+00	0	43	0	247463936	63	4107
2026-01-26 23:29:29.49	30.05	14.53	-45.7	-47.0	20.1	0.00e+00	0	43	0	248512512	63	4086
2026-01-26 23:29:30.49	30.13	14.63	-45.7	-47.0	20.2	0.00e+00	0	43	0	250609664	63	4072
2026-01-26 23:29:31.50	30.22	14.72	-45.8	-47.2	20.0	0.00e+00	0	43	0	252706816	63	4161
2026-01-26 23:29:32.51	30.30	14.82	-45.8	-47.2	20.0	0.00e+00	0	43	0	254803968	63	4167
2026-01-26 23:29:33.52	30.39	14.92	-45.8	-47.2	19.9	0.00e+00	0	43	0	256901120	63	4182
2026-01-26 23:29:34.53	30.48	15.02	-45.9	-47.3	19.9	0.00e+00	0	43	0	257949696	63	4206
2026-01-26 23:29:35.54	30.56	15.12	-45.9	-47.3	19.9	0.00e+00	0	43	0	260046848	63	4210
2026-01-26 23:29:36.55	30.65	15.21	-46.0	-47.4	19.8	0.00e+00	0	43	0	262144000	63	4255
2026-01-26 23:29:37.55	30.74	15.31	-45.9	-47.3	19.9	0.00e+00	0	43	0	264241152	63	4224
2026-01-26 23:29:38.56	30.83	15.41	-45.9	-47.3	19.9	0.00e+00	0	43	0	266338304	63	4227
2026-01-26 23:29:39.57	30.92	15.51	-46.0	-47.4	19.8	0.00e+00	0	43	0	267386880	63	4267
2026-01-26 23:29:40.58	31.01	15.61	-46.0	-47.4	19.8	0.00e+00	0	43	0	269484032	63	4287
2026-01-26 23:29:41.59	31.10	15.71	-46.0	-47.4	19.8	0.00e+00	0	43	0	271581184	63	4273
2026-01-26 23:29:42.59	31.19	15.81	-46.1	-47.5	19.7	0.00e+00	0	43	0	273678336	63	4333
2026-01-26 23:29:43.60	31.28	15.91	-46.1	-47.5	19.7	0.00e+00	0	43	0	275775488	63	4309
2026-01-26 23:29:44.61	31.37	16.01	-45.9	-47.3	19.9	0.00e+00	0	43	0	276824064	63	4221
2026-01-26 23:29:45.62	31.47	16.11	-46.0	-47.4	19.8	0.00e+00	0	43	0	278921216	63	4273
2026-01-26 23:29:46.63	31.56	16.22	-46.0	-47.5	19.7	0.00e+00	0	43	0	281018368	63	4296
2026-01-26 23:29:47.64	31.65	16.32	-46.0	-47.4	19.8	0.00e+00	0	43	0	283115520	63	4260
2026-01-26 23:29:48.65	31.75	16.42	-46.0	-47.4	19.8	0.00e+00	0	43	0	285212672	63	4265
2026-01-26 23:29:49.66	31.85	16.52	-45.9	-47.3	19.9	0.00e+00	0	43	0	286261248	63	4233
2026-01-26 23:29:50.67	31.94	16.63	-46.1	-47.5	19.8	0.00e+00	0	43	0	288358400	63	4314
2026-01-26 23:29:51.67	32.04	16.73	-46.0	-47.5	19.8	0.00e+00	0	43	0	290455552	63	4294
2026-01-26 23:29:52.68	32.13	16.83	-46.0	-47.4	19.8	0.00e+00	0	43	0	292552704	63	4287
2026-01-26 23:29:53.69	32.23	16.94	-46.1	-47.5	19.8	0.00e+00	0	43	0	294649856	63	4322
2026-01-26 23:29:54.70	32.33	17.04	-46.2	-47.6	19.7	0.00e+00	0	43	0	295698432	63	4362
2026-01-26 23:29:55.71	32.43	17.15	-46.2	-47.6	19.6	0.00e+00	0	43	0	297795584	63	4376
2026-01-26 23:29:56.72	32.53	17.25	-46.1	-47.5	19.7	0.00e+00	0	43	0	299892736	63	4333
2026-01-26 23:29:57.72	32.63	17.36	-46.1	-47.5	19.7	0.00e+00	0	43	0	301989888	63	4336
2026-01-26 23:29:58.73	32.73	17.47	-46.1	-47.6	19.7	0.00e+00	0	43	0	304087040	63	4353
2026-01-26 23:29:59.74	32.83	17.57	-46.1	-47.5	19.7	0.00e+00	0	43	0	306184192	63	4335
2026-01-26 23:30:00.75	32.94	17.68	-46.1	-47.5	19.8	0.00e+00	0	43	0	307232768	63	4297
2026-01-26 23:30:01.76	33.04	17.79	-46.1	-47.5	19.8	0.00e+00	0	43	0	309329920	63	4297
2026-01-26 23:30:02.77	33.14	17.89	-46.2	-47.6	19.7	0.00e+00	0	43	0	311427072	63	4370
2026-01-26 23:30:03.77	33.25	18.00	-46.0	-47.4	19.8	0.00e+00	0	43	0	313524224	63	4284
2026-01-26 23:30:04.78	33.35	18.11	-45.8	-47.2	20.1	0.00e+00	0	43	0	314572800	63	4159
2026-01-26 23:30:05.79	33.46	18.22	-45.8	-47.1	20.2	0.00e+00	0	43	0	316669952	63	4127
2026-01-26 23:30:06.79	33.57	18.33	-45.8	-47.1	20.2	0.00e+00	0	43	0	318767104	63	4124
2026-01-26 23:30:07.80	33.67	18.44	-45.8	-47.1	20.1	0.00e+00	0	43	0	320864256	63	4140
2026-01-26 23:30:08.81	33.78	18.55	-45.7	-47.1	20.3	0.00e+00	0	43	0	322961408	63	4107
2026-01-26 23:30:09.81	33.89	18.66	-45.7	-47.1	20.2	0.00e+00	0	43	0	324009984	63	4111
2026-01-26 23:30:10.82	34.00	18.77	-45.8	-47.1	20.2	0.00e+00	0	43	0	326107136	63	4127
2026-01-26 23:30:11.83	34.11	18.88	-45.7	-47.0	20.2	0.00e+00	0	43	0	328204288	63	4097
2026-01-26 23:30:12.83	34.22	18.99	-45.8	-47.2	20.1	0.00e+00	0	43	0	330301440	63	4169
2026-01-26 23:30:13.84	34.33	19.10	-45.8	-47.1	20.2	0.00e+00	0	43	0	332398592	63	4126
2026-01-26 23:30:14.85	34.45	19.22	-45.9	-47.2	20.1	0.00e+00	0	43	0	334495744	63	4188
2026-01-26 23:30:15.85	34.56	19.33	-45.8	-47.2	20.1	0.00e+00	0	43	0	335544320	63	4154
2026-01-26 23:30:16.86	34.67	19.44	-45.9	-47.3	20.1	0.00e+00	0	43	0	337641472	63	4203
2026-01-26 23:30:17.87	34.79	19.56	-45.9	-47.3	20.0	0.00e+00	0	43	0	339738624	63	4215
2026-01-26 23:30:18.88	34.91	19.67	-45.9	-47.2	20.1	0.00e+00	0	43	0	341835776	63	4187
2026-01-26 23:30:19.88	35.02	19.78	-45.9	-47.3	20.0	0.00e+00	0	43	0	342884352	63	4217
2026-01-26 23:30:20.88	35.14	19.90	-46.0	-47.4	19.9	0.00e+00	0	43	0	344981504	63	4262
2026-01-26 23:30:21.89	35.26	20.01	-46.1	-47.5	19.9	0.00e+00	0	43	0	347078656	63	4298
2026-01-26 23:30:22.89	35.38	20.13	-46.1	-47.5	19.8	0.00e+00	0	43	0	349175808	63	4310
2026-01-26 23:30:23.90	35.50	20.24	-46.0	-47.4	19.9	0.00e+00	0	43	0	351272960	63	4290
2026-01-26 23:30:24.91	35.62	20.36	-46.1	-47.5	19.8	0.00e+00	0	43	0	352321536	63	4339
2026-01-26 23:30:25.91	35.74	20.48	-46.2	-47.6	19.7	0.00e+00	0	43	0	354418688	63	4375
2026-01-26 23:30:26.92	35.86	20.60	-46.1	-47.5	19.8	0.00e+00	0	43	0	356515840	63	4339
2026-01-26 23:30:27.93	35.99	20.71	-46.2	-47.6	19.7	0.00e+00	0	43	0	358612992	63	4385
2026-01-26 23:30:28.93	36.11	20.83	-46.3	-47.7	19.7	0.00e+00	0	43	0	360710144	63	4431
2026-01-26 23:30:29.94	36.24	20.95	-46.2	-47.7	19.7	0.00e+00	0	43	0	362807296	63	4399
2026-01-26 23:30:30.95	36.37	21.07	-46.1	-47.5	19.8	0.00e+00	0	43	0	363855872	63	4326
2026-01-26 23:30:31.95	36.49	21.19	-46.2	-47.6	19.7	0.00e+00	0	43	0	365953024	63	4391
2026-01-26 23:30:32.96	36.62	21.31	-46.2	-47.7	19.7	0.00e+00	0	43	0	368050176	63	4397
2026-01-26 23:30:33.96	36.75	21.43	-46.3	-47.8	19.6	0.00e+00	0	43	0	370147328	63	4458
2026-01-26 23:30:34.97	36.88	21.55	-46.4	-47.9	19.4	0.00e+00	0	43	0	371195904	63	4525
2026-01-26 23:30:35.97	37.01	21.67	-46.4	-47.9	19.5	0.00e+00	0	43	0	373293056	63	4525
2026-01-26 23:30:36.98	37.14	21.79	-46.5	-48.0	19.5	0.00e+00	0	43	0	375390208	63	4549
2026-01-26 23:30:37.99	37.28	21.91	-46.5	-47.9	19.4	0.00e+00	0	43	0	377487360	63	4541
2026-01-26 23:30:39.00	37.41	22.04	-46.4	-47.9	19.5	0.00e+00	0	43	0	379584512	63	4506
2026-01-26 23:30:40.01	37.55	22.16	-46.4	-47.9	19.5	0.00e+00	0	43	0	380633088	63	4508
2026-01-26 23:30:41.01	37.68	22.28	-46.4	-47.9	19.5	0.00e+00	0	43	0	382730240	63	4509
2026-01-26 23:30:42.02	37.82	22.41	-46.4	-47.8	19.6	0.00e+00	0	43	0	384827392	63	4470
2026-01-26 23:30:43.03	37.96	22.53	-46.3	-47.7	19.7	0.00e+00	0	43	0	386924544	63	4434
2026-01-26 23:30:44.04	38.10	22.66	-46.3	-47.8	19.6	0.00e+00	0	43	0	389021696	63	4457
2026-01-26 23:30:45.05	38.24	22.78	-46.3	-47.8	19.6	0.00e+00	0	43	0	391118848	63	4442
2026-01-26 23:30:46.06	38.39	22.91	-46.3	-47.7	19.7	0.00e+00	0	43	0	392167424	63	4418
2026-01-26 23:30:47.07	38.53	23.03	-46.4	-47.8	19.6	0.00e+00	0	43	0	394264576	63	4479
2026-01-26 23:30:48.07	38.67	23.16	-46.2	-47.6	19.7	0.00e+00	0	43	0	396361728	63	4378
2026-01-26 23:30:49.08	38.82	23.29	-46.2	-47.6	19.8	0.00e+00	0	43	0	398458880	63	4353
2026-01-26 23:30:50.09	38.96	23.42	-46.2	-47.6	19.8	0.00e+00	0	43	0	399507456	63	4368
2026-01-26 23:30:51.10	39.11	23.54	-46.2	-47.6	19.8	0.00e+00	0	43	0	401604608	63	4358
2026-01-26 23:30:52.11	39.26	23.67	-46.1	-47.5	19.9	0.00e+00	0	43	0	403701760	63	4301
2026-01-26 23:30:53.11	39.41	23.80	-46.1	-47.4	20.0	0.00e+00	0	43	0	405798912	63	4283
2026-01-26 23:30:54.12	39.56	23.93	-46.2	-47.5	19.9	0.00e+00	0	43	0	407896064	63	4338
2026-01-26 23:30:55.13	39.72	24.06	-46.2	-47.7	19.7	0.00e+00	0	43	0	409993216	63	4394
2026-01-26 23:30:56.13	39.87	24.19	-46.3	-47.7	19.7	0.00e+00	0	43	0	411041792	63	4433
2026-01-26 23:30:57.14	40.02	24.32	-46.3	-47.7	19.7	0.00e+00	0	43	0	413138944	63	4406
2026-01-26 23:30:58.15	40.18	24.45	-46.4	-47.9	19.6	0.00e+00	0	43	0	415236096	63	4505
2026-01-26 23:30:59.16	40.34	24.58	-46.4	-47.9	19.6	0.00e+00	0	43	0	417333248	63	4500
2026-01-26 23:31:00.16	40.49	24.71	-46.5	-48.0	19.5	0.00e+00	0	43	0	419430400	63	4557
2026-01-26 23:31:01.17	40.66	24.85	-46.4	-47.9	19.5	0.00e+00	0	43	0	420478976	63	4523
2026-01-26 23:31:02.18	40.82	24.98	-46.4	-47.8	19.7	0.00e+00	0	43	0	422576128	63	4470
2026-01-26 23:31:03.19	40.98	25.11	-46.3	-47.8	19.7	0.00e+00	0	43	0	424673280	63	4452
2026-01-26 23:31:04.20	41.14	25.25	-46.5	-48.0	19.5	0.00e+00	0	43	0	426770432	63	4562
2026-01-26 23:31:05.21	41.31	25.38	-46.4	-47.9	19.6	0.00e+00	0	43	0	427819008	63	4507
2026-01-26 23:31:06.21	41.48	25.52	-46.5	-47.9	19.5	0.00e+00	0	43	0	429916160	63	4527
2026-01-26 23:31:07.22	41.64	25.65	-46.6	-48.0	19.4	0.00e+00	0	43	0	432013312	63	4590
2026-01-26 23:31:08.22	41.81	25.78	-46.6	-48.1	19.4	0.00e+00	0	43	0	434110464	63	4621
2026-01-26 23:31:09.23	41.98	25.92	-46.6	-48.1	19.4	0.00e+00	0	43	0	436207616	63	4628
2026-01-26 23:31:10.24	42.16	26.06	-46.7	-48.2	19.2	0.00e+00	0	43	0	438304768	64	4423
2026-01-26 23:31:11.25	42.33	26.19	-46.7	-48.2	19.2	0.00e+00	0	43	0	439353344	64	4415
2026-01-26 23:31:12.26	42.51	26.33	-46.5	-48.0	19.3	0.00e+00	0	43	0	441450496	64	4331
2026-01-26 23:31:13.27	42.68	26.47	-46.4	-47.8	19.5	0.00e+00	0	43	0	443547648	64	4234
2026-01-26 23:31:14.28	42.86	26.61	-46.3	-47.7	19.7	0.00e+00	0	43	0	445644800	64	4173
2026-01-26 23:31:15.29	43.04	26.75	-46.3	-47.7	19.7	0.00e+00	0	43	0	447741952	64	4175
2026-01-26 23:31:16.29	43.22	26.89	-46.1	-47.5	19.9	0.00e+00	0	43	0	448790528	64	4080
2026-01-26 23:31:17.30	43.41	27.02	-46.1	-47.5	20.0	0.00e+00	0	43	0	450887680	63	4292
2026-01-26 23:31:18.31	43.59	27.16	-46.2	-47.6	19.9	0.00e+00	0	43	0	452984832	63	4356
2026-01-26 23:31:19.31	43.78	27.30	-46.1	-47.5	20.0	0.00e+00	0	43	0	455081984	63	4309
2026-01-26 23:31:20.33	43.97	27.45	-46.3	-47.6	19.8	0.00e+00	0	43	0	457179136	63	4390
2026-01-26 23:31:21.33	44.15	27.59	-46.5	-47.9	19.6	0.00e+00	0	43	0	458227712	63	4540
2026-01-26 23:31:22.33	44.34	27.73	-46.7	-48.2	19.2	0.00e+00	0	43	0	460324864	64	4441
2026-01-26 23:31:23.34	44.54	27.87	-46.9	-48.5	19.0	0.00e+00	0	43	0	462422016	64	4569
2026-01-26 23:31:24.35	44.73	28.01	-47.0	-48.6	18.9	0.00e+00	0	43	0	464519168	64	4599
2026-01-26 23:31:25.36	44.93	28.15	-47.1	-48.7	18.7	0.00e+00	0	43	0	466616320	64	4669
2026-01-26 23:31:26.37	45.12	28.30	-46.9	-48.4	19.0	0.00e+00	0	43	0	467664896	64	4538
2026-01-26 23:31:27.37	45.32	28.44	-46.9	-48.5	19.0	0.00e+00	0	43	0	469762048	64	4556
2026-01-26 23:31:28.38	45.52	28.58	-46.8	-48.4	19.1	0.00e+00	0	43	0	471859200	64	4516
2026-01-26 23:31:29.39	45.73	28.73	-47.0	-48.6	18.9	0.00e+00	0	43	0	473956352	64	4630
2026-01-26 23:31:30.40	45.93	28.87	-47.1	-48.8	18.7	0.00e+00	0	43	0	476053504	64	4722
2026-01-26 23:31:31.40	46.14	29.02	-47.3	-49.0	18.4	0.00e+00	0	43	0	477102080	65	4589
2026-01-26 23:31:32.42	46.35	29.16	-47.5	-49.3	18.2	0.00e+00	0	43	0	479199232	65	4735
2026-01-26 23:31:33.42	46.56	29.31	-47.6	-49.4	18.0	0.00e+00	0	43	0	481296384	65	4800
2026-01-26 23:31:34.43	46.77	29.45	-47.5	-49.3	18.2	0.00e+00	0	43	0	483393536	65	4711
2026-01-26 23:31:35.43	46.98	29.60	-47.3	-49.0	18.5	0.00e+00	0	43	0	485490688	65	4547
2026-01-26 23:31:36.44	47.20	29.75	-47.2	-48.8	18.7	0.00e+00	0	43	0	486539264	65	4487
2026-01-26 23:31:37.45	47.42	29.89	-47.0	-48.6	18.9	0.00e+00	0	43	0	488636416	65	4375
2026-01-26 23:31:38.45	47.63	30.04	-47.0	-48.6	18.8	0.00e+00	0	43	0	490733568	65	4382
2026-01-26 23:31:39.46	47.86	30.19	-47.0	-48.7	18.9	0.00e+00	0	43	0	492830720	65	4394
2026-01-26 23:31:40.47	48.08	30.33	-47.2	-48.9	18.6	0.00e+00	0	43	0	494927872	65	4504
2026-01-26 23:31:41.47	48.30	30.48	-47.4	-49.1	18.4	0.00e+00	0	43	0	495976448	65	4610
2026-01-26 23:31:42.48	48.53	30.63	-47.6	-49.4	18.1	0.00e+00	0	43	0	498073600	65	4795
2026-01-26 23:31:43.49	48.76	30.78	-47.8	-49.6	17.9	0.00e+00	0	43	0	500170752	66	4641
2026-01-26 23:31:44.49	48.99	30.93	-47.7	-49.5	18.0	0.00e+00	0	43	0	502267904	66	4593
2026-01-26 23:31:45.50	49.23	31.08	-47.6	-49.4	18.2	0.00e+00	0	43	0	504365056	66	4494
2026-01-26 23:31:46.51	49.46	31.23	-47.6	-49.3	18.3	0.00e+00	0	43	0	505413632	66	4460
2026-01-26 23:31:47.52	49.70	31.38	-47.2	-48.8	18.7	0.00e+00	0	43	0	507510784	66	4235
2026-01-26 23:31:48.52	49.94	31.52	-47.3	-49.0	18.6	0.00e+00	0	43	0	509607936	66	4294
2026-01-26 23:31:49.53	50.18	31.67	-47.4	-49.1	18.5	0.00e+00	0	43	0	511705088	66	4351
2026-01-26 23:31:50.53	50.43	31.82	-47.5	-49.2	18.3	0.00e+00	0	43	0	513802240	66	4430
2026-01-26 23:31:51.54	50.67	31.97	-47.6	-49.4	18.2	0.00e+00	0	43	0	514850816	66	4508
2026-01-26 23:31:52.55	50.92	32.13	-47.6	-49.3	18.2	0.00e+00	0	43	0	516947968	66	4462
2026-01-26 23:31:53.56	51.18	32.28	-47.3	-49.0	18.6	0.00e+00	0	43	0	519045120	66	4295
2026-01-26 23:31:54.56	51.43	32.43	-47.0	-48.5	19.0	0.00e+00	0	43	0	521142272	66	4098
2026-01-26 23:31:55.57	51.68	32.58	-47.0	-48.5	19.0	0.00e+00	0	43	0	523239424	65	4324
2026-01-26 23:31:56.58	51.94	32.73	-46.7	-48.2	19.3	0.00e+00	0	43	0	524288000	65	4191
2026-01-26 23:31:57.59	52.20	32.88	-46.8	-48.3	19.3	0.00e+00	0	43	0	526385152	65	4206
2026-01-26 23:31:58.60	52.47	33.03	-46.7	-48.2	19.3	0.00e+00	0	43	0	528482304	65	4180
2026-01-26 23:31:59.60	52.73	33.18	-46.9	-48.4	19.1	0.00e+00	0	43	0	530579456	65	4267
2026-01-26 23:32:00.61	53.00	33.34	-47.0	-48.5	19.0	0.00e+00	0	43	0	532676608	65	4323
2026-01-26 23:32:01.62	53.27	33.49	-47.1	-48.7	18.9	0.00e+00	0	43	0	533725184	65	4411
2026-01-26 23:32:02.63	53.55	33.64	-47.3	-48.9	18.7	0.00e+00	0	43	0	535822336	65	4523
2026-01-26 23:32:03.63	53.82	33.79	-47.3	-48.9	18.6	0.00e+00	0	43	0	537919488	65	4527
2026-01-26 23:32:04.64	54.10	33.94	-47.1	-48.7	18.8	0.00e+00	0	43	0	540016640	65	4431
2026-01-26 23:32:05.65	54.38	34.10	-47.1	-48.7	18.9	0.00e+00	0	43	0	542113792	65	4400
2026-01-26 23:32:06.66	54.66	34.25	-47.0	-48.5	19.0	0.00e+00	0	43	0	543162368	65	4338
2026-01-26 23:32:07.67	54.95	34.40	-46.8	-48.3	19.2	0.00e+00	0	43	0	545259520	65	4228
2026-01-26 23:32:08.67	55.24	34.55	-46.8	-48.3	19.3	0.00e+00	0	43	0	547356672	65	4200
2026-01-26 23:32:09.68	55.53	34.70	-46.6	-48.0	19.5	0.00e+00	0	43	0	549453824	65	4081
2026-01-26 23:32:10.69	55.82	34.86	-46.5	-48.0	19.5	0.00e+00	0	43	0	551550976	65	4067
2026-01-26 23:32:11.70	56.12	35.01	-46.5	-48.0	19.5	0.00e+00	0	43	0	552599552	64	4316
2026-01-26 23:32:12.71	56.42	35.16	-46.6	-48.1	19.5	0.00e+00	0	43	0	554696704	64	4357
2026-01-26 23:32:13.72	56.72	35.31	-46.7	-48.2	19.4	0.00e+00	0	43	0	556793856	64	4416
2026-01-26 23:32:14.73	57.03	35.46	-46.7	-48.2	19.3	0.00e+00	0	43	0	558891008	64	4414
2026-01-26 23:32:15.73	57.33	35.61	-46.8	-48.3	19.3	0.00e+00	0	43	0	560988160	64	4445
2026-01-26 23:32:16.74	57.64	35.77	-46.6	-48.1	19.4	0.00e+00	0	43	0	562036736	64	4360
2026-01-26 23:32:17.75	57.96	35.92	-46.7	-48.2	19.4	0.00e+00	0	43	0	564133888	64	4402
2026-01-26 23:32:18.75	58.27	36.07	-46.7	-48.2	19.3	0.00e+00	0	43	0	566231040	64	4427
2026-01-26 23:32:19.76	58.59	36.22	-46.8	-48.3	19.3	0.00e+00	0	43	0	568328192	64	4466
2026-01-26 23:32:20.77	58.91	36.37	-46.8	-48.3	19.3	0.00e+00	0	43	0	570425344	64	4472
2026-01-26 23:32:21.77	59.24	36.52	-46.7	-48.2	19.4	0.00e+00	0	43	0	571473920	64	4401
2026-01-26 23:32:22.78	59.57	36.67	-46.7	-48.1	19.4	0.00e+00	0	43	0	573571072	64	4380
2026-01-26 23:32:23.78	59.89	36.81	-47.0	-48.5	19.1	0.00e+00	0	43	0	575668224	64	4571
2026-01-26 23:32:24.79	60.23	36.96	-47.1	-48.7	18.8	0.00e+00	0	43	0	577765376	64	4688
2026-01-26 23:32:25.80	60.57	37.11	-47.2	-48.9	18.7	0.00e+00	0	43	0	579862528	65	4495
2026-01-26 23:32:26.80	60.90	37.26	-47.5	-49.2	18.4	0.00e+00	0	43	0	580911104	65	4667
2026-01-26 23:32:27.81	61.25	37.41	-47.5	-49.2	18.4	0.00e+00	0	43	0	583008256	65	4699
2026-01-26 23:32:28.81	61.59	37.55	-47.4	-49.0	18.5	0.00e+00	0	43	0	585105408	65	4598
2026-01-26 23:32:29.83	61.94	37.70	-47.2	-48.8	18.8	0.00e+00	0	43	0	587202560	65	4473
2026-01-26 23:32:30.83	62.29	37.84	-47.1	-48.7	18.9	0.00e+00	0	43	0	589299712	65	4397
2026-01-26 23:32:31.84	62.65	37.99	-47.2	-48.8	18.8	0.00e+00	0	43	0	590348288	65	4445
2026-01-26 23:32:32.85	63.01	38.14	-47.3	-49.0	18.6	0.00e+00	0	43	0	592445440	65	4546
2026-01-26 23:32:33.85	63.37	38.28	-47.6	-49.4	18.2	0.00e+00	0	43	0	594542592	65	4770
2026-01-26 23:32:34.86	63.73	38.42	-48.2	-50.1	17.6	0.00e+00	0	43	0	596639744	66	4889
2026-01-26 23:32:35.87	64.10	38.57	-48.4	-50.4	17.3	0.00e+00	0	43	0	598736896	67	4771
2026-01-26 23:32:36.88	64.47	38.71	-48.5	-50.6	17.1	0.00e+00	0	43	0	599785472	67	4876
2026-01-26 23:32:37.89	64.85	38.85	-48.3	-50.3	17.4	0.00e+00	0	43	0	601882624	67	4728
2026-01-26 23:32:38.90	65.23	38.99	-47.9	-49.7	17.9	0.00e+00	0	43	0	603979776	67	4431
2026-01-26 23:32:39.91	65.61	39.13	-47.6	-49.2	18.4	0.00e+00	0	43	0	606076928	67	4186
2026-01-26 23:32:40.91	65.99	39.27	-47.4	-49.1	18.6	0.00e+00	0	43	0	608174080	66	4358
2026-01-26 23:32:41.92	66.38	39.41	-47.2	-48.8	18.8	0.00e+00	0	43	0	610271232	66	4228
2026-01-26 23:32:42.93	66.77	39.54	-47.6	-49.3	18.4	0.00e+00	0	43	0	611319808	66	4453
2026-01-26 23:32:43.94	67.16	39.68	-47.8	-49.5	18.1	0.00e+00	0	43	0	613416960	66	4585
2026-01-26 23:32:44.95	67.56	39.82	-47.9	-49.8	17.8	0.00e+00	0	43	0	615514112	66	4719
2026-01-26 23:32:45.95	67.96	39.95	-47.6	-49.3	18.3	0.00e+00	0	43	0	617611264	66	4451
2026-01-26 23:32:46.96	68.36	40.08	-47.4	-49.0	18.7	0.00e+00	0	43	0	618659840	66	4320
2026-01-26 23:32:47.97	68.77	40.22	-47.1	-48.7	18.9	0.00e+00	0	43	0	620756992	66	4156
2026-01-26 23:32:48.98	69.18	40.35	-46.7	-48.2	19.4	0.00e+00	0	43	0	622854144	65	4163
2026-01-26 23:32:49.99	69.59	40.48	-46.8	-48.3	19.3	0.00e+00	0	43	0	624951296	65	4199
2026-01-26 23:32:50.99	70.01	40.61	-47.3	-48.9	18.7	0.00e+00	0	43	0	627048448	65	4540
2026-01-26 23:32:51.99	70.42	40.73	-48.0	-49.9	17.7	0.00e+00	0	43	0	628097024	66	4789
2026-01-26 23:32:53.00	70.85	40.86	-48.6	-50.6	17.1	0.00e+00	0	43	0	630194176	67	4925
2026-01-26 23:32:54.00	71.27	40.98	-48.4	-50.4	17.4	0.00e+00	0	43	0	632291328	67	4769
2026-01-26 23:32:55.01	71.70	41.11	-47.8	-49.6	18.1	0.00e+00	0	43	0	634388480	67	4357
2026-01-26 23:32:56.01	72.13	41.23	-47.3	-49.0	18.7	0.00e+00	0	43	0	636485632	66	4294
2026-01-26 23:32:57.02	72.57	41.35	-47.3	-48.9	18.7	0.00e+00	0	43	0	638582784	66	4268
2026-01-26 23:32:58.03	73.01	41.47	-47.3	-49.0	18.7	0.00e+00	0	43	0	639631360	66	4295
2026-01-26 23:32:59.03	73.45	41.59	-48.0	-49.9	17.8	0.00e+00	0	43	0	641728512	66	4779
2026-01-26 23:33:00.04	73.90	41.70	-48.8	-51.0	16.8	0.00e+00	0	43	0	643825664	68	4815
2026-01-26 23:33:01.05	74.35	41.82	-49.4	-51.8	15.9	0.00e+00	0	43	0	645922816	69	4997
2026-01-26 23:33:02.05	74.79	41.93	-49.4	-51.8	16.0	0.00e+00	0	43	0	646971392	69	4993
2026-01-26 23:33:03.05	75.25	42.04	-48.7	-50.8	17.0	0.00e+00	0	43	0	649068544	69	4451
2026-01-26 23:33:04.06	75.71	42.15	-48.1	-49.9	17.8	0.00e+00	0	43	0	651165696	68	4283
2026-01-26 23:33:05.07	76.17	42.26	-47.8	-49.5	18.1	0.00e+00	0	43	0	653262848	67	4335
2026-01-26 23:33:06.08	76.63	42.37	-47.4	-49.1	18.6	0.00e+00	0	43	0	655360000	66	4350
2026-01-26 23:33:07.09	77.10	42.47	-47.7	-49.4	18.4	0.00e+00	0	43	0	656408576	66	4504
2026-01-26 23:33:08.10	77.57	42.58	-48.3	-50.2	17.5	0.00e+00	0	43	0	658505728	67	4679
2026-01-26 23:33:09.11	78.05	42.68	-49.0	-51.2	16.6	0.00e+00	0	43	0	660602880	68	4962
2026-01-26 23:33:10.11	78.52	42.78	-49.1	-51.4	16.4	0.00e+00	0	43	0	662700032	69	4799
2026-01-26 23:33:11.12	79.00	42.88	-48.3	-50.2	17.7	0.00e+00	0	43	0	664797184	68	4398
2026-01-26 23:33:12.13	79.48	42.97	-47.5	-49.2	18.4	0.00e+00	0	43	0	666894336	67	4154
2026-01-26 23:33:13.13	79.97	43.07	-47.4	-49.0	18.6	0.00e+00	0	43	0	667942912	66	4334
2026-01-26 23:33:14.14	80.46	43.16	-47.7	-49.5	18.2	0.00e+00	0	43	0	670040064	66	4552
2026-01-26 23:33:15.15	80.95	43.25	-48.2	-50.0	17.5	0.00e+00	0	43	0	672137216	67	4589
2026-01-26 23:33:16.15	81.44	43.33	-48.2	-50.2	17.5	0.00e+00	0	43	0	674234368	67	4652
2026-01-26 23:33:17.16	81.93	43.42	-47.7	-49.4	18.3	0.00e+00	0	43	0	675282944	67	4263
2026-01-26 23:33:18.17	82.43	43.50	-47.3	-48.9	18.9	0.00e+00	0	43	0	677380096	66	4253
2026-01-26 23:33:19.18	82.94	43.58	-46.9	-48.4	19.3	0.00e+00	0	43	0	679477248	65	4267
2026-01-26 23:33:20.19	83.44	43.66	-46.3	-47.7	19.8	0.00e+00	0	43	0	681574400	64	4184
2026-01-26 23:33:21.19	83.94	43.74	-46.3	-47.7	20.0	0.00e+00	0	43	0	683671552	64	4165
2026-01-26 23:33:22.20	84.45	43.81	-46.5	-48.0	19.8	0.00e+00	0	43	0	684720128	64	4292
2026-01-26 23:33:23.21	84.96	43.89	-46.8	-48.3	19.3	0.00e+00	0	43	0	686817280	64	4456
2026-01-26 23:33:24.22	85.48	43.95	-47.0	-48.6	19.0	0.00e+00	0	43	0	688914432	64	4601
2026-01-26 23:33:25.23	85.99	44.02	-47.2	-48.8	19.0	0.00e+00	0	43	0	691011584	64	4712
2026-01-26 23:33:26.23	86.51	44.09	-47.6	-49.3	18.4	0.00e+00	0	43	0	693108736	65	4718
2026-01-26 23:33:27.24	87.03	44.15	-47.9	-49.8	17.9	0.00e+00	0	43	0	695205888	66	4725
2026-01-26 23:33:28.25	87.55	44.21	-48.0	-49.8	17.8	0.00e+00	0	43	0	696254464	66	4724
2026-01-26 23:33:29.24	88.06	44.27	-47.8	-49.6	18.0	0.00e+00	0	43	0	698351616	66	4609
2026-01-26 23:33:30.25	88.59	44.32	-47.6	-49.3	18.4	0.00e+00	0	43	0	700448768	66	4471
2026-01-26 23:33:31.26	89.12	44.37	-47.7	-49.4	18.2	0.00e+00	0	43	0	702545920	66	4540
2026-01-26 23:33:32.26	89.64	44.42	-47.7	-49.4	18.3	0.00e+00	0	43	0	703594496	66	4520
2026-01-26 23:33:33.27	90.17	44.47	-47.6	-49.3	18.4	0.00e+00	0	43	0	705691648	66	4449
2026-01-26 23:33:34.28	90.71	44.51	-47.5	-49.2	18.5	0.00e+00	0	43	0	707788800	66	4407
2026-01-26 23:33:35.29	91.24	44.56	-47.7	-49.4	18.3	0.00e+00	0	43	0	709885952	66	4503
2026-01-26 23:33:36.30	91.78	44.60	-47.7	-49.5	18.2	0.00e+00	0	43	0	711983104	66	4548
2026-01-26 23:33:37.31	92.31	44.63	-47.4	-49.1	18.6	0.00e+00	0	43	0	713031680	66	4357
2026-01-26 23:33:38.31	92.85	44.67	-47.0	-48.5	19.1	0.00e+00	0	43	0	715128832	66	4080
2026-01-26 23:33:39.32	93.39	44.70	-46.8	-48.3	19.3	0.00e+00	0	43	0	717225984	65	4222
2026-01-26 23:33:40.33	93.93	44.73	-46.8	-48.3	19.3	0.00e+00	0	43	0	719323136	65	4230
2026-01-26 23:33:41.34	94.47	44.75	-46.6	-48.1	19.6	0.00e+00	0	43	0	721420288	65	4113
2026-01-26 23:33:42.35	95.01	44.77	-46.2	-47.6	20.0	0.00e+00	0	43	0	723517440	64	4115
2026-01-26 23:33:43.36	95.55	44.79	-46.4	-47.8	19.8	0.00e+00	0	43	0	724566016	64	4226
2026-01-26 23:33:44.37	96.10	44.81	-46.7	-48.2	19.4	0.00e+00	0	43	0	726663168	64	4404
2026-01-26 23:33:45.37	96.63	44.83	-46.8	-48.3	19.2	0.00e+00	0	43	0	728760320	64	4483
2026-01-26 23:33:46.38	97.18	44.84	-46.8	-48.4	19.2	0.00e+00	0	43	0	730857472	64	4500
2026-01-26 23:33:47.39	97.72	44.85	-46.6	-48.1	19.6	0.00e+00	0	43	0	731906048	64	4347
2026-01-26 23:33:48.39	98.26	44.85	-46.2	-47.6	20.0	0.00e+00	0	43	0	734003200	64	4100
2026-01-26 23:33:49.40	98.81	44.86	-45.9	-47.2	20.5	0.00e+00	0	43	0	736100352	63	4155
2026-01-26 23:33:50.41	99.35	44.86	-45.8	-47.0	20.6	0.00e+00	0	43	0	738197504	63	4089
2026-01-26 23:33:51.41	99.89	44.86	-46.0	-47.2	20.4	0.00e+00	0	43	0	740294656	63	4192
2026-01-26 23:33:52.42	100.44	44.85	-46.4	-47.8	20.0	0.00e+00	0	43	0	742391808	63	4444
2026-01-26 23:33:53.42	100.98	44.84	-46.2	-47.5	20.1	0.00e+00	0	43	0	743440384	63	4315
2026-01-26 23:33:54.43	101.52	44.83	-45.8	-47.0	20.6	0.00e+00	0	43	0	745537536	63	4076
2026-01-26 23:33:55.44	102.07	44.82	-45.8	-47.1	20.6	0.00e+00	0	43	0	747634688	63	4121
2026-01-26 23:33:56.45	102.61	44.80	-46.3	-47.7	20.0	0.00e+00	0	43	0	749731840	63	4416
2026-01-26 23:33:57.45	103.15	44.79	-46.6	-48.1	19.5	0.00e+00	0	43	0	751828992	64	4361
2026-01-26 23:33:58.46	103.69	44.76	-46.9	-48.4	19.2	0.00e+00	0	43	0	752877568	64	4527
2026-01-26 23:33:59.47	104.23	44.74	-46.6	-48.1	19.5	0.00e+00	0	43	0	754974720	64	4353
2026-01-26 23:34:00.48	104.78	44.71	-46.4	-47.8	19.8	0.00e+00	0	43	0	757071872	64	4236
2026-01-26 23:34:01.48	105.31	44.68	-46.3	-47.7	19.9	0.00e+00	0	43	0	759169024	64	4161
2026-01-26 23:34:02.49	105.85	44.65	-46.4	-47.8	19.8	0.00e+00	0	43	0	760217600	64	4223
2026-01-26 23:34:03.50	106.39	44.62	-46.3	-47.7	19.9	0.00e+00	0	43	0	762314752	64	4175
2026-01-26 23:34:04.50	106.92	44.58	-46.4	-47.8	19.9	0.00e+00	0	43	0	764411904	64	4197
2026-01-26 23:34:05.51	107.45	44.54	-46.4	-47.8	19.9	0.00e+00	0	43	0	766509056	64	4214
2026-01-26 23:34:06.52	107.99	44.49	-46.9	-48.4	19.2	0.00e+00	0	43	0	768606208	64	4525
2026-01-26 23:34:07.53	108.52	44.45	-48.0	-49.8	17.9	0.00e+00	0	43	0	770703360	66	4755
2026-01-26 23:34:08.54	109.05	44.40	-48.5	-50.6	17.1	0.00e+00	0	43	0	771751936	67	4898
2026-01-26 23:34:09.55	109.58	44.35	-48.4	-50.4	17.3	0.00e+00	0	43	0	773849088	67	4771
2026-01-26 23:34:10.55	110.10	44.30	-47.7	-49.4	18.2	0.00e+00	0	43	0	775946240	67	4278
2026-01-26 23:34:11.55	110.62	44.24	-47.3	-48.9	18.8	0.00e+00	0	43	0	778043392	66	4277
2026-01-26 23:34:12.56	111.15	44.18	-47.8	-49.5	18.1	0.00e+00	0	43	0	780140544	66	4593
2026-01-26 23:34:13.57	111.67	44.12	-47.9	-49.7	17.9	0.00e+00	0	43	0	781189120	66	4666
2026-01-26 23:34:14.58	112.19	44.06	-47.4	-49.1	18.5	0.00e+00	0	43	0	783286272	66	4349
2026-01-26 23:34:15.58	112.70	43.99	-46.7	-48.1	19.5	0.00e+00	0	43	0	785383424	65	4142
2026-01-26 23:34:16.59	113.22	43.92	-46.5	-48.0	19.6	0.00e+00	0	43	0	787480576	64	4297
2026-01-26 23:34:17.60	113.73	43.85	-46.3	-47.6	20.0	0.00e+00	0	43	0	788529152	64	4129
2026-01-26 23:34:18.61	114.24	43.78	-47.0	-48.5	19.1	0.00e+00	0	43	0	790626304	64	4577
2026-01-26 23:34:19.62	114.75	43.70	-47.6	-49.3	18.3	0.00e+00	0	43	0	792723456	65	4721
2026-01-26 23:34:20.63	115.26	43.62	-47.4	-49.0	18.6	0.00e+00	0	43	0	794820608	65	4578
2026-01-26 23:34:21.63	115.76	43.55	-47.0	-48.5	19.1	0.00e+00	0	43	0	796917760	65	4322
2026-01-26 23:34:22.64	116.26	43.46	-47.0	-48.5	19.1	0.00e+00	0	43	0	799014912	65	4317
2026-01-26 23:34:23.65	116.76	43.38	-47.4	-49.1	18.6	0.00e+00	0	43	0	800063488	65	4631
2026-01-26 23:34:24.66	117.26	43.29	-47.5	-49.2	18.5	0.00e+00	0	43	0	802160640	65	4662
2026-01-26 23:34:25.67	117.75	43.20	-47.0	-48.5	19.1	0.00e+00	0	43	0	804257792	65	4325
2026-01-26 23:34:26.68	118.24	43.11	-46.2	-47.5	20.0	0.00e+00	0	43	0	806354944	64	4094
2026-01-26 23:34:27.69	118.73	43.02	-45.8	-47.1	20.5	0.00e+00	0	43	0	808452096	63	4138
2026-01-26 23:34:28.69	119.21	42.92	-45.7	-47.0	20.6	0.00e+00	0	43	0	809500672	63	4055
2026-01-26 23:34:29.70	119.69	42.83	-46.2	-47.5	20.2	0.00e+00	0	43	0	811597824	63	4313
2026-01-26 23:34:30.71	120.17	42.73	-46.2	-47.5	20.1	0.00e+00	0	43	0	813694976	63	4338
2026-01-26 23:34:31.71	120.65	42.63	-45.3	-46.5	21.1	0.00e+00	0	43	0	815792128	62	4082
2026-01-26 23:34:32.72	121.12	42.53	-44.5	-45.6	21.9	0.00e+00	0	43	0	817889280	61	3896
2026-01-26 23:34:33.73	121.59	42.42	-44.5	-45.6	22.0	0.00e+00	0	43	0	818937856	60	4125
2026-01-26 23:34:34.73	122.05	42.32	-45.0	-46.2	21.4	0.00e+00	0	43	0	821035008	60	4407
2026-01-26 23:34:35.73	122.51	42.21	-45.7	-46.9	20.7	0.00e+00	0	43	0	823132160	62	4285
2026-01-26 23:34:36.74	122.98	42.10	-45.8	-47.1	20.5	0.00e+00	0	43	0	825229312	62	4356
2026-01-26 23:34:37.75	123.43	41.99	-45.3	-46.5	21.1	0.00e+00	0	43	0	827326464	62	4054
2026-01-26 23:34:38.76	123.89	41.87	-44.7	-45.8	21.8	0.00e+00	0	43	0	828375040	61	3971
2026-01-26 23:34:39.77	124.34	41.76	-44.6	-45.7	21.8	0.00e+00	0	43	0	830472192	61	3949
2026-01-26 23:34:40.77	124.79	41.64	-45.5	-46.7	20.9	0.00e+00	0	43	0	832569344	61	4438
2026-01-26 23:34:41.78	125.23	41.53	-45.7	-46.9	20.7	0.00e+00	0	43	0	834666496	62	4282
2026-01-26 23:34:42.79	125.68	41.41	-44.7	-45.8	21.7	0.00e+00	0	43	0	836763648	61	3989
2026-01-26 23:34:43.79	126.11	41.29	-44.1	-45.2	22.3	0.00e+00	0	43	0	837812224	60	3924
2026-01-26 23:34:44.81	126.55	41.16	-44.6	-45.7	22.2	0.00e+00	0	43	0	839909376	59	4416
2026-01-26 23:34:45.81	126.98	41.04	-44.8	-45.9	21.6	0.00e+00	0	43	0	842006528	60	4288
2026-01-26 23:34:46.81	127.41	40.92	-44.7	-45.8	21.7	0.00e+00	0	43	0	844103680	60	4205
2026-01-26 23:34:47.82	127.83	40.79	-44.2	-45.3	22.2	0.00e+00	0	43	0	846200832	60	3982
2026-01-26 23:34:48.83	128.26	40.66	-44.3	-45.3	22.4	0.00e+00	0	43	0	847249408	59	4239
2026-01-26 23:34:49.84	128.68	40.53	-44.4	-45.5	22.2	0.00e+00	0	43	0	849346560	59	4305
2026-01-26 23:34:50.84	129.09	40.41	-44.6	-45.7	21.9	0.00e+00	0	43	0	851443712	60	4161
2026-01-26 23:34:51.85	129.50	40.27	-45.3	-46.5	21.3	0.00e+00	0	43	0	853540864	61	4340
2026-01-26 23:34:52.86	129.91	40.14	-45.5	-46.8	20.8	0.00e+00	0	43	0	855638016	61	4466
2026-01-26 23:34:53.86	130.32	40.01	-45.5	-46.8	20.8	0.00e+00	0	43	0	856686592	62	4211
2026-01-26 23:34:54.87	130.72	39.88	-45.5	-46.8	20.9	0.00e+00	0	43	0	858783744	62	4199
2026-01-26 23:34:55.88	131.12	39.74	-45.3	-46.5	21.1	0.00e+00	0	43	0	860880896	62	4095
2026-01-26 23:34:56.89	131.52	39.60	-45.5	-46.7	20.9	0.00e+00	0	43	0	862978048	62	4175
2026-01-26 23:34:57.90	131.91	39.47	-45.5	-46.7	20.9	0.00e+00	0	43	0	865075200	62	4160
2026-01-26 23:34:58.90	132.30	39.33	-45.2	-46.4	21.2	0.00e+00	0	43	0	866123776	62	4038
2026-01-26 23:34:59.91	132.68	39.19	-45.3	-46.4	21.1	0.00e+00	0	43	0	868220928	62	4047
2026-01-26 23:35:00.92	133.07	39.05	-45.6	-46.8	20.9	0.00e+00	0	43	0	870318080	62	4214
2026-01-26 23:35:01.93	133.45	38.91	-45.9	-47.2	20.5	0.00e+00	0	43	0	872415232	62	4399
2026-01-26 23:35:02.93	133.82	38.77	-45.8	-47.1	20.5	0.00e+00	0	43	0	874512384	62	4354
2026-01-26 23:35:03.94	134.20	38.62	-45.4	-46.6	20.9	0.00e+00	0	43	0	875560960	62	4143
2026-01-26 23:35:04.95	134.57	38.48	-45.5	-46.7	20.9	0.00e+00	0	43	0	877658112	62	4175
2026-01-26 23:35:05.96	134.94	38.34	-46.2	-47.5	20.2	0.00e+00	0	43	0	879755264	62	4584
2026-01-26 23:35:06.97	135.30	38.19	-46.9	-48.5	18.9	0.00e+00	0	43	0	881852416	64	4574
2026-01-26 23:35:07.97	135.66	38.05	-46.9	-48.5	19.1	0.00e+00	0	43	0	883949568	64	4556
2026-01-26 23:35:08.98	136.02	37.90	-46.5	-47.9	19.6	0.00e+00	0	43	0	884998144	64	4276
2026-01-26 23:35:09.99	136.37	37.76	-45.9	-47.2	20.4	0.00e+00	0	43	0	887095296	63	4186
2026-01-26 23:35:10.99	136.72	37.61	-45.7	-47.0	20.6	0.00e+00	0	43	0	889192448	63	4054
2026-01-26 23:35:12.00	137.07	37.46	-45.3	-46.5	21.1	0.00e+00	0	43	0	891289600	62	4066
2026-01-26 23:35:13.01	137.42	37.31	-45.7	-47.0	20.6	0.00e+00	0	43	0	893386752	62	4293
2026-01-26 23:35:14.01	137.76	37.17	-46.3	-47.7	20.0	0.00e+00	0	43	0	894435328	63	4407
2026-01-26 23:35:15.02	138.10	37.02	-45.7	-47.0	20.5	0.00e+00	0	43	0	896532480	63	4077
2026-01-26 23:35:16.03	138.43	36.87	-45.0	-46.1	21.2	0.00e+00	0	43	0	898629632	62	3908
2026-01-26 23:35:17.04	138.77	36.72	-44.5	-45.6	21.9	0.00e+00	0	43	0	900726784	61	3895
2026-01-26 23:35:18.04	139.09	36.57	-44.6	-45.7	21.8	0.00e+00	0	43	0	902823936	60	4157
2026-01-26 23:35:19.05	139.42	36.42	-45.7	-47.0	20.5	0.00e+00	0	43	0	903872512	62	4298
2026-01-26 23:35:20.06	139.75	36.27	-46.9	-48.4	19.1	0.00e+00	0	43	0	905969664	64	4541
2026-01-26 23:35:21.06	140.06	36.12	-46.7	-48.2	19.3	0.00e+00	0	43	0	908066816	64	4415
2026-01-26 23:35:22.07	140.38	35.97	-45.9	-47.2	20.3	0.00e+00	0	43	0	910163968	63	4188
2026-01-26 23:35:23.08	140.70	35.82	-45.5	-46.7	20.8	0.00e+00	0	43	0	912261120	62	4173
2026-01-26 23:35:24.09	141.01	35.66	-45.4	-46.6	20.9	0.00e+00	0	43	0	913309696	62	4138
2026-01-26 23:35:25.10	141.32	35.51	-46.2	-47.6	20.0	0.00e+00	0	43	0	915406848	62	4617
2026-01-26 23:35:26.10	141.63	35.36	-47.1	-48.7	18.9	0.00e+00	0	43	0	917504000	64	4687
2026-01-26 23:35:27.11	141.93	35.21	-47.8	-49.6	17.9	0.00e+00	0	43	0	919601152	66	4651
2026-01-26 23:35:28.12	142.23	35.06	-47.1	-48.7	18.8	0.00e+00	0	43	0	921698304	66	4163
2026-01-26 23:35:29.13	142.53	34.90	-46.0	-47.3	20.2	0.00e+00	0	43	0	923795456	63	4228
2026-01-26 23:35:30.13	142.83	34.75	-45.3	-46.5	20.9	0.00e+00	0	43	0	924844032	62	4065
2026-01-26 23:35:31.14	143.12	34.60	-45.2	-46.4	21.1	0.00e+00	0	43	0	926941184	62	4024
2026-01-26 23:35:32.15	143.41	34.45	-45.1	-46.2	21.3	0.00e+00	0	43	0	929038336	61	4178
2026-01-26 23:35:33.16	143.70	34.29	-46.0	-47.4	20.2	0.00e+00	0	43	0	931135488	62	4516
2026-01-26 23:35:34.17	143.99	34.14	-47.6	-49.4	18.1	0.00e+00	0	43	0	932184064	65	4807
2026-01-26 23:35:35.17	144.27	33.99	-48.4	-50.4	17.1	0.00e+00	0	43	0	934281216	67	4807
2026-01-26 23:35:36.18	144.55	33.84	-47.2	-48.8	18.6	0.00e+00	0	43	0	936378368	66	4229
2026-01-26 23:35:37.19	144.83	33.68	-45.8	-47.1	20.3	0.00e+00	0	43	0	938475520	63	4135
2026-01-26 23:35:38.20	145.10	33.53	-45.3	-46.5	20.9	0.00e+00	0	43	0	940572672	62	4079
2026-01-26 23:35:39.21	145.37	33.38	-45.6	-46.9	20.5	0.00e+00	0	43	0	941621248	62	4247
2026-01-26 23:35:40.21	145.64	33.23	-46.7	-48.2	19.4	0.00e+00	0	43	0	943718400	63	4652
2026-01-26 23:35:41.22	145.91	33.07	-48.2	-50.3	17.3	0.00e+00	0	43	0	945815552	66	4995
2026-01-26 23:35:42.23	146.17	32.92	-48.8	-51.1	16.4	0.00e+00	0	43	0	947912704	68	4925
2026-01-26 23:35:43.24	146.44	32.77	-48.1	-50.1	17.4	0.00e+00	0	43	0	950009856	68	4369
2026-01-26 23:35:44.25	146.70	32.62	-46.5	-48.0	19.3	0.00e+00	0	43	0	952107008	65	4061
2026-01-26 23:35:45.26	146.96	32.46	-45.4	-46.7	20.7	0.00e+00	0	43	0	953155584	62	4148
2026-01-26 23:35:46.27	147.21	32.31	-45.1	-46.3	21.1	0.00e+00	0	43	0	955252736	62	3968
2026-01-26 23:35:47.27	147.46	32.16	-45.1	-46.2	21.2	0.00e+00	0	43	0	957349888	62	3951
2026-01-26 23:35:48.28	147.72	32.01	-45.8	-47.1	20.3	0.00e+00	0	43	0	959447040	62	4373
2026-01-26 23:35:49.29	147.96	31.86	-46.9	-48.5	18.9	0.00e+00	0	43	0	960495616	64	4589
2026-01-26 23:35:50.30	148.21	31.71	-48.2	-50.3	17.2	0.00e+00	0	43	0	962592768	67	4723
2026-01-26 23:35:51.31	148.46	31.55	-48.7	-50.9	16.5	0.00e+00	0	43	0	964689920	67	5075
2026-01-26 23:35:52.32	148.70	31.40	-47.7	-49.5	17.9	0.00e+00	0	43	0	966787072	67	4316
2026-01-26 23:35:53.32	148.94	31.25	-46.3	-47.8	19.5	0.00e+00	0	43	0	968884224	64	4204
2026-01-26 23:35:54.33	149.17	31.10	-45.9	-47.3	20.1	0.00e+00	0	43	0	970981376	63	4194
2026-01-26 23:35:55.33	149.41	30.95	-46.1	-47.4	20.1	0.00e+00	0	43	0	972029952	63	4262
2026-01-26 23:35:56.34	149.64	30.80	-46.2	-47.6	19.8	0.00e+00	0	43	0	974127104	63	4383
2026-01-26 23:35:57.35	149.87	30.66	-47.0	-48.6	18.8	0.00e+00	0	43	0	976224256	64	4647
2026-01-26 23:35:58.36	150.10	30.51	-48.2	-50.2	17.2	0.00e+00	0	43	0	978321408	66	4975
2026-01-26 23:35:59.36	150.33	30.36	-49.4	-52.0	15.5	0.00e+00	0	43	0	980418560	69	5152
2026-01-26 23:36:00.37	150.55	30.21	-49.7	-52.6	14.9	0.00e+00	0	43	0	981467136	70	5160
2026-01-26 23:36:01.37	150.77	30.06	-48.7	-50.9	16.6	0.00e+00	0	43	0	983564288	69	4518
2026-01-26 23:36:02.38	151.00	29.91	-47.5	-49.3	18.1	0.00e+00	0	43	0	985661440	67	4231
2026-01-26 23:36:03.39	151.21	29.77	-47.0	-48.6	18.8	0.00e+00	0	43	0	987758592	66	4122
2026-01-26 23:36:04.40	151.43	29.62	-46.4	-47.9	19.4	0.00e+00	0	43	0	988807168	64	4258
2026-01-26 23:36:05.40	151.65	29.47	-46.0	-47.4	20.1	0.00e+00	0	43	0	990904320	63	4243
2026-01-26 23:36:06.41	151.86	29.33	-45.5	-46.8	20.6	0.00e+00	0	43	0	993001472	63	3964
2026-01-26 23:36:07.42	152.07	29.18	-46.0	-47.4	20.0	0.00e+00	0	43	0	995098624	63	4258
2026-01-26 23:36:08.43	152.28	29.03	-46.6	-48.1	19.3	0.00e+00	0	43	0	997195776	63	4617
2026-01-26 23:36:09.44	152.49	28.89	-47.3	-49.1	18.3	0.00e+00	0	43	0	999292928	65	4600
2026-01-26 23:36:10.45	152.70	28.74	-47.5	-49.3	18.1	0.00e+00	0	43	0	1000341504	65	4708
2026-01-26 23:36:11.46	152.90	28.60	-47.4	-49.2	18.2	0.00e+00	0	43	0	1002438656	65	4668
2026-01-26 23:36:12.47	153.10	28.45	-46.8	-48.4	18.9	0.00e+00	0	43	0	1004535808	65	4276
2026-01-26 23:36:13.47	153.30	28.31	-46.4	-47.8	19.5	0.00e+00	0	43	0	1006632960	64	4232
2026-01-26 23:36:14.47	153.50	28.16	-46.1	-47.5	19.7	0.00e+00	0	43	0	1008730112	64	4097
2026-01-26 23:36:15.48	153.70	28.02	-46.0	-47.3	20.0	0.00e+00	0	43	0	1009778688	63	4232
2026-01-26 23:36:16.49	153.89	27.88	-46.0	-47.3	19.9	0.00e+00	0	43	0	1011875840	63	4238
2026-01-26 23:36:17.50	154.09	27.73	-46.5	-48.0	19.4	0.00e+00	0	43	0	1013972992	63	4551
2026-01-26 23:36:18.51	154.28	27.59	-46.7	-48.2	19.2	0.00e+00	0	43	0	1016070144	63	4681
2026-01-26 23:36:19.52	154.47	27.45	-46.7	-48.3	19.0	0.00e+00	0	43	0	1017118720	64	4471
2026-01-26 23:36:20.53	154.66	27.31	-46.9	-48.5	18.8	0.00e+00	0	43	0	1019215872	64	4565
2026-01-26 23:36:21.54	154.84	27.17	-46.7	-48.3	19.0	0.00e+00	0	43	0	1021313024	64	4477
2026-01-26 23:36:22.54	155.03	27.03	-46.2	-47.6	19.6	0.00e+00	0	43	0	1023410176	64	4122
2026-01-26 23:36:23.55	155.21	26.89	-45.8	-47.1	20.2	0.00e+00	0	43	0	1025507328	63	4113
2026-01-26 23:36:24.56	155.40	26.75	-45.4	-46.6	20.6	0.00e+00	0	43	0	1027604480	62	4138
2026-01-26 23:36:25.56	155.57	26.61	-45.2	-46.4	20.9	0.00e+00	0	43	0	1028653056	62	4044
2026-01-26 23:36:26.57	155.75	26.47	-45.1	-46.3	21.0	0.00e+00	0	43	0	1030750208	62	3995
2026-01-26 23:36:27.58	155.93	26.33	-44.8	-46.0	21.3	0.00e+00	0	43	0	1032847360	61	4061
2026-01-26 23:36:28.59	156.11	26.19	-44.9	-46.0	21.2	0.00e+00	0	43	0	1034944512	61	4094
2026-01-26 23:36:29.60	156.28	26.05	-45.3	-46.5	20.8	0.00e+00	0	43	0	1037041664	61	4339
2026-01-26 23:36:30.61	156.46	25.92	-45.5	-46.8	20.6	0.00e+00	0	43	0	1038090240	61	4446
2026-01-26 23:36:31.61	156.63	25.78	-45.9	-47.3	20.1	0.00e+00	0	43	0	1040187392	62	4457
2026-01-26 23:36:32.61	156.80	25.65	-46.2	-47.6	19.7	0.00e+00	0	43	0	1042284544	62	4623
2026-01-26 23:36:33.62	156.97	25.51	-46.2	-47.7	19.7	0.00e+00	0	43	0	1044381696	62	4656
2026-01-26 23:36:34.63	157.13	25.37	-46.2	-47.6	19.7	0.00e+00	0	43	0	1046478848	63	4384
2026-01-26 23:36:35.64	157.30	25.24	-46.0	-47.4	19.9	0.00e+00	0	43	0	1047527424	63	4251
2026-01-26 23:36:36.65	157.47	25.10	-45.8	-47.1	20.2	0.00e+00	0	43	0	1049624576	63	4113
2026-01-26 23:36:37.65	157.63	24.97	-45.7	-47.1	20.2	0.00e+00	0	43	0	1051721728	63	4102
2026-01-26 23:36:38.66	157.79	24.84	-45.6	-46.9	20.4	0.00e+00	0	43	0	1053818880	63	4009
2026-01-26 23:36:39.67	157.95	24.70	-45.4	-46.7	20.6	0.00e+00	0	43	0	1055916032	62	4155
2026-01-26 23:36:40.68	158.11	24.57	-45.5	-46.8	20.5	0.00e+00	0	43	0	1056964608	62	4194
2026-01-26 23:36:41.69	158.27	24.44	-45.6	-46.9	20.4	0.00e+00	0	43	0	1059061760	62	4246
2026-01-26 23:36:42.70	158.43	24.31	-45.5	-46.8	20.5	0.00e+00	0	43	0	1061158912	62	4204
2026-01-26 23:36:43.71	158.58	24.17	-45.5	-46.7	20.5	0.00e+00	0	43	0	1063256064	62	4189
2026-01-26 23:36:44.72	158.74	24.04	-45.4	-46.7	20.5	0.00e+00	0	43	0	1065353216	62	4181
2026-01-26 23:36:45.73	158.89	23.91	-45.5	-46.7	20.5	0.00e+00	0	43	0	1066401792	62	4187
2026-01-26 23:36:46.73	159.04	23.78	-45.8	-47.1	20.2	0.00e+00	0	43	0	1068498944	62	4364
2026-01-26 23:36:47.74	159.19	23.65	-45.8	-47.1	20.1	0.00e+00	0	43	0	1070596096	62	4382
2026-01-26 23:36:48.75	159.34	23.52	-46.1	-47.6	19.7	0.00e+00	0	43	0	1072693248	62	4615
2026-01-26 23:36:49.76	159.49	23.39	-46.4	-47.9	19.4	0.00e+00	0	43	0	1074790400	63	4545
2026-01-26 23:36:50.77	159.64	23.27	-46.6	-48.1	19.3	0.00e+00	0	43	0	1075838976	63	4623
2026-01-26 23:36:51.77	159.78	23.14	-46.6	-48.1	19.0	0.00e+00	0	43	0	1077936128	64	4385
2026-01-26 23:36:52.78	159.93	23.01	-46.5	-48.1	19.1	0.00e+00	0	43	0	1080033280	64	4341
2026-01-26 23:36:53.79	160.07	22.88	-46.4	-48.0	19.2	0.00e+00	0	43	0	1082130432	64	4298
2026-01-26 23:36:54.80	160.22	22.76	-46.2	-47.7	19.5	0.00e+00	0	43	0	1084227584	64	4160
2026-01-26 23:36:55.81	160.36	22.63	-45.9	-47.3	20.0	0.00e+00	0	43	0	1085276160	63	4203
2026-01-26 23:36:56.82	160.50	22.51	-45.9	-47.3	19.9	0.00e+00	0	43	0	1087373312	63	4229
2026-01-26 23:36:57.83	160.64	22.38	-45.7	-47.1	20.2	0.00e+00	0	43	0	1089470464	63	4106
2026-01-26 23:36:58.83	160.77	22.26	-45.6	-46.9	20.3	0.00e+00	0	43	0	1091567616	63	4037
2026-01-26 23:36:59.84	160.91	22.13	-45.7	-47.0	20.2	0.00e+00	0	43	0	1093664768	63	4094
2026-01-26 23:37:00.85	161.05	22.01	-45.8	-47.1	20.1	0.00e+00	0	43	0	1094713344	63	4128
2026-01-26 23:37:01.85	161.18	21.88	-45.9	-47.2	20.0	0.00e+00	0	43	0	1096810496	63	4193
2026-01-26 23:37:02.86	161.32	21.76	-46.0	-47.4	19.8	0.00e+00	0	43	0	1098907648	63	4281
2026-01-26 23:37:03.87	161.45	21.64	-46.1	-47.5	19.7	0.00e+00	0	43	0	1101004800	63	4314
2026-01-26 23:37:04.88	161.58	21.52	-46.0	-47.4	19.9	0.00e+00	0	43	0	1103101952	63	4254
2026-01-26 23:37:05.89	161.71	21.39	-46.0	-47.3	19.9	0.00e+00	0	43	0	1104150528	63	4241
2026-01-26 23:37:06.89	161.84	21.27	-45.9	-47.2	20.0	0.00e+00	0	43	0	1106247680	63	4186
2026-01-26 23:37:07.90	161.97	21.15	-45.9	-47.3	19.9	0.00e+00	0	43	0	1108344832	63	4195
2026-01-26 23:37:08.91	162.10	21.03	-45.7	-47.0	20.2	0.00e+00	0	43	0	1110441984	63	4081
2026-01-26 23:37:09.91	162.23	20.91	-45.6	-46.9	20.3	0.00e+00	0	43	0	1112539136	63	4030
2026-01-26 23:37:10.93	162.35	20.79	-45.7	-47.0	20.2	0.00e+00	0	43	0	1114636288	63	4080
2026-01-26 23:37:11.93	162.48	20.67	-45.6	-46.9	20.3	0.00e+00	0	43	0	1115684864	63	4031
2026-01-26 23:37:12.94	162.60	20.56	-45.6	-47.0	20.2	0.00e+00	0	43	0	1117782016	63	4052
2026-01-26 23:37:13.95	162.73	20.44	-45.7	-47.0	20.2	0.00e+00	0	43	0	1119879168	63	4079
2026-01-26 23:37:14.95	162.85	20.32	-45.8	-47.1	20.1	0.00e+00	0	43	0	1121976320	63	4126
2026-01-26 23:37:15.96	162.97	20.20	-45.8	-47.1	20.1	0.00e+00	0	43	0	1124073472	63	4133
2026-01-26 23:37:16.97	163.09	20.09	-45.8	-47.2	20.0	0.00e+00	0	43	0	1125122048	63	4170
2026-01-26 23:37:17.98	163.21	19.97	-45.9	-47.3	19.8	0.00e+00	0	43	0	1127219200	63	4234
2026-01-26 23:37:18.98	163.33	19.85	-46.0	-47.4	19.8	0.00e+00	0	43	0	1129316352	63	4260
2026-01-26 23:37:19.99	163.45	19.74	-45.9	-47.2	19.9	0.00e+00	0	43	0	1131413504	63	4190
2026-01-26 23:37:21.00	163.56	19.62	-46.0	-47.5	19.4	0.00e+00	0	43	0	1132462080	63	4294
2026-01-26 23:37:22.01	163.68	19.51	-46.1	-47.5	19.6	0.00e+00	0	43	0	1134559232	63	4335
2026-01-26 23:37:23.01	163.79	19.39	-46.2	-47.7	19.5	0.00e+00	0	43	0	1136656384	63	4407
2026-01-26 23:37:24.02	163.91	19.28	-46.2	-47.6	19.5	0.00e+00	0	43	0	1138753536	63	4381
2026-01-26 23:37:25.03	164.02	19.17	-46.3	-47.8	19.4	0.00e+00	0	43	0	1140850688	63	4452
2026-01-26 23:37:26.03	164.14	19.05	-46.3	-47.8	19.3	0.00e+00	0	43	0	1142947840	63	4475
2026-01-26 23:37:27.04	164.25	18.94	-46.4	-48.0	19.2	0.00e+00	0	43	0	1143996416	63	4546
2026-01-26 23:37:28.04	164.36	18.83	-46.5	-48.1	19.1	0.00e+00	0	43	0	1146093568	63	4622
2026-01-26 23:37:29.04	164.47	18.72	-46.5	-48.1	19.1	0.00e+00	0	43	0	1148190720	63	4606
2026-01-26 23:37:30.05	164.58	18.61	-46.5	-48.1	19.1	0.00e+00	0	43	0	1150287872	63	4604
2026-01-26 23:37:31.06	164.69	18.50	-46.5	-48.0	19.1	0.00e+00	0	43	0	1152385024	63	4566
2026-01-26 23:37:32.06	164.80	18.39	-46.4	-48.0	19.2	0.00e+00	0	43	0	1153433600	63	4556
2026-01-26 23:37:33.07	164.90	18.28	-46.3	-47.8	19.3	0.00e+00	0	43	0	1155530752	63	4492
2026-01-26 23:37:34.08	165.01	18.17	-46.2	-47.7	19.4	0.00e+00	0	43	0	1157627904	63	4432
2026-01-26 23:37:35.09	165.12	18.06	-46.2	-47.6	19.5	0.00e+00	0	43	0	1159725056	63	4390
2026-01-26 23:37:36.09	165.22	17.95	-46.2	-47.7	19.5	0.00e+00	0	43	0	1160773632	63	4404
2026-01-26 23:37:37.10	165.33	17.84	-46.3	-47.8	19.4	0.00e+00	0	43	0	1162870784	63	4444
2026-01-26 23:37:38.11	165.43	17.73	-46.2	-47.7	19.5	0.00e+00	0	43	0	1164967936	63	4393
2026-01-26 23:37:39.12	165.53	17.62	-46.2	-47.6	19.5	0.00e+00	0	43	0	1167065088	63	4390
2026-01-26 23:37:40.13	165.64	17.51	-46.2	-47.7	19.4	0.00e+00	0	43	0	1169162240	63	4428
2026-01-26 23:37:41.13	165.74	17.41	-46.1	-47.5	19.5	0.00e+00	0	43	0	1171259392	63	4324
2026-01-26 23:37:42.14	165.84	17.30	-46.1	-47.5	19.6	0.00e+00	0	43	0	1172307968	63	4318
2026-01-26 23:37:43.15	165.94	17.19	-46.2	-47.6	19.4	0.00e+00	0	43	0	1174405120	63	4386
2026-01-26 23:37:44.16	166.04	17.09	-46.2	-47.7	19.4	0.00e+00	0	43	0	1176502272	63	4398
2026-01-26 23:37:45.16	166.14	16.98	-46.2	-47.6	19.4	0.00e+00	0	43	0	1178599424	63	4391
2026-01-26 23:37:46.17	166.24	16.88	-46.3	-47.8	19.3	0.00e+00	0	43	0	1180696576	63	4452
2026-01-26 23:37:47.18	166.34	16.77	-46.2	-47.6	19.4	0.00e+00	0	43	0	1181745152	63	4381
2026-01-26 23:37:48.19	166.43	16.67	-46.1	-47.6	19.5	0.00e+00	0	43	0	1183842304	63	4342
2026-01-26 23:37:49.19	166.53	16.56	-46.3	-47.8	19.3	0.00e+00	0	43	0	1185939456	63	4453
2026-01-26 23:37:50.20	166.62	16.46	-46.1	-47.6	19.5	0.00e+00	0	43	0	1188036608	63	4357
2026-01-26 23:37:51.20	166.72	16.36	-46.0	-47.5	19.6	0.00e+00	0	43	0	1189085184	63	4292
2026-01-26 23:37:52.22	166.82	16.25	-46.1	-47.6	19.5	0.00e+00	0	43	0	1191182336	63	4354
2026-01-26 23:37:53.23	166.91	16.15	-46.2	-47.6	19.4	0.00e+00	0	43	0	1193279488	63	4384
2026-01-26 23:37:54.24	167.00	16.05	-46.1	-47.6	19.5	0.00e+00	0	43	0	1195376640	63	4345
2026-01-26 23:37:55.24	167.10	15.95	-45.8	-47.2	19.8	0.00e+00	0	43	0	1197473792	63	4182
2026-01-26 23:37:56.25	167.19	15.85	-45.9	-47.3	19.7	0.00e+00	0	43	0	1199570944	63	4218
2026-01-26 23:37:57.27	167.28	15.74	-45.9	-47.3	19.7	0.00e+00	0	43	0	1200619520	63	4234
2026-01-26 23:37:58.27	167.37	15.64	-46.0	-47.5	19.6	0.00e+00	0	43	0	1202716672	63	4295
2026-01-26 23:37:59.28	167.46	15.54	-46.0	-47.5	19.6	0.00e+00	0	43	0	1204813824	63	4295
2026-01-26 23:38:00.29	167.55	15.44	-46.1	-47.5	19.5	0.00e+00	0	43	0	1206910976	63	4324
2026-01-26 23:38:01.29	167.64	15.34	-46.1	-47.6	19.4	0.00e+00	0	43	0	1209008128	63	4377
2026-01-26 23:38:02.30	167.73	15.24	-46.2	-47.7	19.4	0.00e+00	0	43	0	1210056704	63	4402
2026-01-26 23:38:03.31	167.82	15.14	-46.4	-47.9	19.1	0.00e+00	0	43	0	1212153856	63	4542
2026-01-26 23:38:04.32	167.91	15.04	-46.5	-48.1	18.9	0.00e+00	0	43	0	1214251008	63	4615
2026-01-26 23:38:05.33	167.99	14.95	-46.6	-48.2	18.9	0.00e+00	0	43	0	1216348160	63	4666
2026-01-26 23:38:06.33	168.08	14.85	-46.6	-48.2	18.8	0.00e+00	0	43	0	1218445312	63	4697
2026-01-26 23:38:07.34	168.16	14.75	-46.7	-48.3	18.6	0.00e+00	0	43	0	1219493888	64	4487
2026-01-26 23:38:08.35	168.25	14.65	-46.8	-48.5	18.5	0.00e+00	0	43	0	1221591040	64	4556
2026-01-26 23:38:09.37	168.34	14.55	-46.8	-48.5	18.5	0.00e+00	0	43	0	1223688192	64	4557
2026-01-26 23:38:10.37	168.42	14.46	-46.9	-48.6	18.3	0.00e+00	0	43	0	1225785344	64	4627
2026-01-26 23:38:11.38	168.50	14.36	-46.8	-48.5	18.5	0.00e+00	0	43	0	1227882496	64	4546
2026-01-26 23:38:12.39	168.59	14.27	-46.7	-48.4	18.5	0.00e+00	0	43	0	1228931072	64	4498
2026-01-26 23:38:13.39	168.67	14.17	-46.7	-48.4	18.5	0.00e+00	0	43	0	1231028224	64	4507
2026-01-26 23:38:14.40	168.75	14.07	-46.7	-48.3	18.6	0.00e+00	0	43	0	1233125376	64	4489
2026-01-26 23:38:15.41	168.83	13.98	-46.6	-48.3	18.6	0.00e+00	0	43	0	1235222528	64	4448
2026-01-26 23:38:16.41	168.92	13.88	-46.7	-48.4	18.5	0.00e+00	0	43	0	1237319680	64	4524
2026-01-26 23:38:17.42	169.00	13.79	-46.3	-47.9	19.0	0.00e+00	0	43	0	1238368256	64	4252
2026-01-26 23:38:18.42	169.08	13.70	-46.2	-47.7	19.1	0.00e+00	0	43	0	1240465408	64	4192
2026-01-26 23:38:19.43	169.16	13.60	-46.1	-47.6	19.3	0.00e+00	0	43	0	1242562560	64	4120
