passes_logs/2026/01/26/R3.2S_Murmansk/R3.2S_Murmansk__20260126_034253_FENGYUN_3D_rec.log

#Pass ID: 20260126_034253_FENGYUN 3D
#Satellite: FENGYUN 3D
#Configuration: FENGYUN 3D
#almurnet v.1.7.20251203
#Start time: 2026-01-26 03:42:54

#Version: 2.2.20231116
#Station: R3.2S_Murmansk
#Location: 33.079688 lon 68.888172 lat
#TLE: 1 43010U 17072A   26025.50461972  .00000046  00000+0  43592-4 0  9990
#TLE: 2 43010  98.9962 357.4844 0002523  89.7890 270.3575 14.19699798424744

#Time	Az	El	Level	Level2	SNR	BER	BlckErr	Temp	State	Recorded	gain1	gain2
2026-01-26 03:42:54.87	29.23	2.06	-53.9	-65.9	3.8	8.46e-01	0	41	0	0	78	15066
2026-01-26 03:42:55.88	29.21	2.12	-54.1	-66.0	3.8	8.46e-01	0	41	104	0	78	15366
2026-01-26 03:42:56.89	29.19	2.19	-54.1	-66.1	3.8	8.47e-01	0	41	104	0	78	15427
2026-01-26 03:42:57.90	29.17	2.25	-54.1	-66.0	3.8	8.46e-01	0	41	104	0	78	15362
2026-01-26 03:42:58.90	29.15	2.32	-54.1	-66.0	3.8	8.46e-01	0	42	104	0	78	15371
2026-01-26 03:42:59.91	29.14	2.38	-54.1	-66.0	3.8	8.45e-01	0	41	104	0	78	15356
2026-01-26 03:43:00.92	29.12	2.45	-54.0	-66.0	3.8	8.45e-01	0	41	104	0	78	15278
2026-01-26 03:43:01.92	29.10	2.51	-54.0	-66.0	3.8	8.44e-01	0	42	104	0	78	15271
2026-01-26 03:43:02.93	29.08	2.58	-54.0	-65.9	3.8	8.47e-01	0	42	104	0	78	15149
2026-01-26 03:43:03.94	29.06	2.64	-53.9	-65.9	3.8	8.46e-01	0	42	104	0	78	15075
2026-01-26 03:43:04.95	29.04	2.71	-53.9	-65.9	3.8	8.46e-01	0	42	104	0	78	15053
2026-01-26 03:43:05.96	29.02	2.77	-53.9	-65.8	3.8	8.47e-01	0	42	104	0	78	14997
2026-01-26 03:43:06.97	29.00	2.84	-53.9	-65.8	3.8	8.47e-01	0	42	104	0	78	15006
2026-01-26 03:43:07.98	28.98	2.90	-53.8	-65.7	3.8	8.46e-01	0	42	104	0	78	14836
2026-01-26 03:43:08.99	28.96	2.97	-53.7	-65.6	3.8	8.47e-01	0	42	104	0	78	14670
2026-01-26 03:43:09.99	28.94	3.04	-53.6	-65.6	3.8	8.46e-01	0	42	104	0	78	14544
2026-01-26 03:43:11.00	28.91	3.10	-53.5	-65.4	3.8	8.47e-01	0	42	104	0	78	14352
2026-01-26 03:43:12.01	28.89	3.17	-53.4	-65.3	3.8	8.46e-01	0	42	104	0	78	14142
2026-01-26 03:43:13.01	28.87	3.23	-53.2	-65.2	3.8	8.45e-01	0	42	104	0	78	13895
2026-01-26 03:43:14.02	28.85	3.30	-53.0	-65.0	3.8	8.46e-01	0	42	104	0	78	13596
2026-01-26 03:43:15.03	28.83	3.37	-52.7	-64.4	3.8	8.47e-01	0	42	104	0	77	13424
2026-01-26 03:43:16.03	28.81	3.43	-52.1	-63.4	3.8	8.46e-01	0	42	104	0	76	12676
2026-01-26 03:43:17.04	28.79	3.50	-51.9	-63.3	3.8	8.46e-01	0	42	104	0	75	13402
2026-01-26 03:43:18.05	28.77	3.57	-51.9	-62.9	3.8	8.45e-01	0	42	104	0	75	12666
2026-01-26 03:43:19.06	28.75	3.64	-51.8	-62.2	3.8	8.46e-01	0	42	104	0	75	11685
2026-01-26 03:43:20.06	28.72	3.70	-51.7	-61.1	3.9	8.43e-01	0	42	104	0	75	10387
2026-01-26 03:43:21.07	28.70	3.77	-51.6	-60.5	4.2	8.39e-01	0	42	0	0	75	9624
2026-01-26 03:43:22.08	28.68	3.84	-51.4	-59.2	4.6	8.24e-01	0	42	0	0	74	8773
2026-01-26 03:43:23.09	28.66	3.91	-51.4	-59.2	4.6	8.22e-01	0	42	0	0	74	8777
2026-01-26 03:43:24.09	28.64	3.97	-51.3	-58.7	4.8	7.97e-01	0	42	0	0	74	8318
2026-01-26 03:43:25.10	28.61	4.04	-51.1	-57.8	5.3	7.25e-01	0	42	0	0	74	7489
2026-01-26 03:43:26.11	28.59	4.11	-50.8	-56.5	6.2	5.26e-01	0	42	0	2097152	73	6847
2026-01-26 03:43:27.12	28.57	4.18	-50.4	-55.4	7.1	1.67e-01	0	42	0	7340032	72	6414
2026-01-26 03:43:28.12	28.55	4.25	-50.1	-54.6	7.9	1.17e-01	0	42	0	13631488	72	5841
2026-01-26 03:43:29.13	28.52	4.32	-49.5	-53.2	9.5	3.10e-02	0	42	0	18874368	71	5267
2026-01-26 03:43:30.14	28.50	4.39	-48.8	-51.8	10.9	6.02e-03	0	42	0	24117248	69	5008
2026-01-26 03:43:31.15	28.48	4.46	-48.5	-51.4	11.4	1.88e-03	0	43	0	30408704	69	4767
2026-01-26 03:43:32.16	28.45	4.53	-48.2	-50.8	12.0	3.76e-04	0	42	0	35651584	68	4720
2026-01-26 03:43:33.17	28.43	4.60	-47.3	-49.4	13.4	1.66e-04	0	42	0	41943040	66	4521
2026-01-26 03:43:34.17	28.41	4.67	-47.7	-50.0	12.7	4.57e-05	0	42	0	47185920	66	4866
2026-01-26 03:43:35.18	28.38	4.74	-47.2	-49.3	13.5	2.74e-05	0	42	0	53477376	66	4471
2026-01-26 03:43:36.19	28.36	4.81	-47.1	-49.2	13.6	1.71e-05	0	42	0	58720256	66	4426
2026-01-26 03:43:37.20	28.34	4.88	-46.8	-48.8	13.9	5.70e-06	0	43	0	65011712	65	4478
2026-01-26 03:43:38.21	28.31	4.95	-47.5	-49.7	13.0	4.00e-05	0	42	0	70254592	65	4982
2026-01-26 03:43:39.22	28.29	5.02	-47.6	-49.9	12.8	1.06e-04	0	43	0	75497472	66	4765
2026-01-26 03:43:40.23	28.26	5.09	-49.1	-52.2	10.6	2.32e-02	0	43	0	81788928	70	4941
2026-01-26 03:43:41.23	28.24	5.16	-43.4	-44.5	18.9	0.00e+00	0	42	0	87031808	58	4071
2026-01-26 03:43:42.24	28.22	5.23	-51.8	-62.3	3.8	8.45e-01	0	42	104	90177536	74	12596
2026-01-26 03:43:43.25	28.19	5.30	-45.2	-46.5	16.3	7.09e-02	0	43	0	90177536	62	4093
2026-01-26 03:43:44.26	28.17	5.38	-48.6	-51.4	11.3	1.04e-03	0	42	0	96468992	68	5091
2026-01-26 03:43:45.27	28.14	5.45	-44.1	-45.4	17.6	0.00e+00	0	43	0	101711872	60	4012
2026-01-26 03:43:46.27	28.12	5.52	-44.0	-45.2	17.8	0.00e+00	0	43	0	106954752	60	3929
2026-01-26 03:43:47.28	28.09	5.59	-44.3	-45.5	17.8	0.00e+00	0	42	0	113246208	59	4332
2026-01-26 03:43:48.29	28.07	5.67	-43.7	-44.8	18.6	0.00e+00	0	43	0	119537664	59	3994
2026-01-26 03:43:49.29	28.04	5.74	-43.4	-44.5	18.9	0.00e+00	0	43	0	124780544	58	4085
2026-01-26 03:43:50.30	28.01	5.81	-43.5	-44.7	18.7	0.00e+00	0	42	0	130023424	58	4150
2026-01-26 03:43:51.31	27.99	5.88	-43.2	-44.3	19.2	0.00e+00	0	43	0	136314880	58	3964
2026-01-26 03:43:52.31	27.96	5.96	-42.8	-43.8	19.6	0.00e+00	0	43	0	141557760	57	3986
2026-01-26 03:43:53.32	27.94	6.03	-42.5	-43.5	19.9	0.00e+00	0	43	0	146800640	57	3859
2026-01-26 03:43:54.32	27.91	6.10	-43.0	-44.1	19.4	0.00e+00	0	43	0	153092096	57	4101
2026-01-26 03:43:55.33	27.88	6.18	-42.9	-43.9	19.6	0.00e+00	0	43	0	158334976	57	4026
2026-01-26 03:43:56.34	27.86	6.25	-42.5	-43.5	20.0	0.00e+00	0	43	0	164626432	57	3855
2026-01-26 03:43:57.35	27.83	6.33	-42.8	-43.8	19.7	0.00e+00	0	43	0	169869312	57	3996
2026-01-26 03:43:58.36	27.80	6.40	-42.7	-43.8	19.8	0.00e+00	0	43	0	175112192	57	3961
2026-01-26 03:43:59.37	27.78	6.48	-42.7	-43.7	19.8	0.00e+00	0	43	0	181403648	57	3940
2026-01-26 03:44:00.37	27.75	6.55	-42.8	-43.8	19.7	0.00e+00	0	43	0	187695104	57	3978
2026-01-26 03:44:01.38	27.72	6.63	-42.6	-43.6	19.9	0.00e+00	0	43	0	192937984	57	3893
2026-01-26 03:44:02.39	27.69	6.70	-42.8	-43.8	19.7	0.00e+00	0	43	0	198180864	57	3986
2026-01-26 03:44:03.40	27.67	6.78	-42.9	-44.0	19.6	0.00e+00	0	43	0	204472320	57	4055
2026-01-26 03:44:04.40	27.64	6.85	-42.7	-43.7	19.8	0.00e+00	0	42	0	209715200	57	3943
2026-01-26 03:44:05.41	27.61	6.93	-42.8	-43.8	19.7	0.00e+00	0	43	0	214958080	57	3995
2026-01-26 03:44:06.42	27.58	7.00	-42.8	-43.8	19.8	0.00e+00	0	43	0	221249536	57	3978
2026-01-26 03:44:07.43	27.55	7.08	-42.7	-43.7	19.9	0.00e+00	0	43	0	226492416	57	3924
2026-01-26 03:44:08.43	27.53	7.16	-43.0	-44.0	19.6	0.00e+00	0	43	0	231735296	57	4087
2026-01-26 03:44:09.44	27.50	7.23	-42.7	-43.7	19.9	0.00e+00	0	43	0	238026752	57	3950
2026-01-26 03:44:10.45	27.47	7.31	-43.0	-44.0	19.6	0.00e+00	0	43	0	243269632	57	4089
2026-01-26 03:44:11.46	27.44	7.39	-43.0	-44.0	19.6	0.00e+00	0	43	0	249561088	57	4097
2026-01-26 03:44:12.47	27.41	7.47	-42.7	-43.7	20.0	0.00e+00	0	43	0	254803968	57	3924
2026-01-26 03:44:13.48	27.38	7.54	-42.5	-43.5	20.1	0.00e+00	0	43	0	261095424	56	4072
2026-01-26 03:44:14.49	27.35	7.62	-42.6	-43.6	20.1	0.00e+00	0	43	0	266338304	56	4107
2026-01-26 03:44:15.50	27.32	7.70	-42.4	-43.4	20.2	0.00e+00	0	43	0	272629760	56	4037
2026-01-26 03:44:16.51	27.29	7.78	-42.7	-43.7	20.0	0.00e+00	0	43	0	277872640	56	4146
2026-01-26 03:44:17.51	27.26	7.86	-42.4	-43.4	20.3	0.00e+00	0	43	0	283115520	56	4008
2026-01-26 03:44:18.52	27.23	7.94	-42.6	-43.5	20.1	0.00e+00	0	43	0	289406976	56	4093
2026-01-26 03:44:19.53	27.20	8.02	-42.5	-43.5	20.2	0.00e+00	0	43	0	294649856	56	4087
2026-01-26 03:44:20.53	27.17	8.10	-42.4	-43.4	20.3	0.00e+00	0	43	0	299892736	56	4038
2026-01-26 03:44:21.54	27.14	8.18	-42.4	-43.3	20.4	0.00e+00	0	43	0	306184192	56	3986
2026-01-26 03:44:22.55	27.11	8.26	-42.3	-43.2	20.5	0.00e+00	0	43	0	311427072	56	3956
2026-01-26 03:44:23.55	27.08	8.33	-42.4	-43.4	20.4	0.00e+00	0	43	0	316669952	56	4005
2026-01-26 03:44:24.56	27.04	8.42	-42.3	-43.3	20.4	0.00e+00	0	43	0	322961408	56	3978
2026-01-26 03:44:25.57	27.01	8.50	-42.3	-43.2	20.5	0.00e+00	0	43	0	328204288	56	3951
2026-01-26 03:44:26.57	26.98	8.58	-42.3	-43.3	20.4	0.00e+00	0	43	0	334495744	56	3981
2026-01-26 03:44:27.58	26.95	8.66	-42.1	-43.0	20.7	0.00e+00	0	43	0	339738624	56	3858
2026-01-26 03:44:28.59	26.92	8.74	-42.1	-43.1	20.7	0.00e+00	0	43	0	346030080	56	3884
2026-01-26 03:44:29.60	26.88	8.82	-42.0	-42.9	20.7	0.00e+00	0	43	0	351272960	55	4039
2026-01-26 03:44:30.61	26.85	8.90	-42.1	-43.0	20.7	0.00e+00	0	43	0	357564416	55	4076
2026-01-26 03:44:31.61	26.82	8.99	-41.9	-42.9	20.8	0.00e+00	0	43	0	362807296	55	4016
2026-01-26 03:44:32.62	26.79	9.07	-42.0	-43.0	20.7	0.00e+00	0	43	0	368050176	55	4061
2026-01-26 03:44:33.63	26.75	9.15	-42.1	-43.0	20.7	0.00e+00	0	43	0	374341632	55	4075
2026-01-26 03:44:34.64	26.72	9.23	-42.0	-42.9	20.8	0.00e+00	0	43	0	379584512	55	4030
2026-01-26 03:44:35.65	26.68	9.32	-41.8	-42.8	20.9	0.00e+00	0	43	0	384827392	55	3965
2026-01-26 03:44:36.65	26.65	9.40	-41.8	-42.7	21.0	0.00e+00	0	43	0	391118848	55	3949
2026-01-26 03:44:37.66	26.62	9.48	-41.9	-42.8	20.9	0.00e+00	0	43	0	396361728	55	4001
2026-01-26 03:44:38.67	26.58	9.57	-41.8	-42.7	21.1	0.00e+00	0	43	0	401604608	55	3920
2026-01-26 03:44:39.68	26.55	9.65	-41.6	-42.6	21.2	0.00e+00	0	43	0	407896064	55	3872
2026-01-26 03:44:40.69	26.51	9.74	-41.8	-42.8	21.0	0.00e+00	0	43	0	414187520	55	3962
2026-01-26 03:44:41.69	26.48	9.82	-41.7	-42.6	21.1	0.00e+00	0	43	0	419430400	55	3888
2026-01-26 03:44:42.70	26.44	9.91	-41.8	-42.7	21.0	0.00e+00	0	43	0	424673280	55	3937
2026-01-26 03:44:43.71	26.41	9.99	-41.7	-42.6	21.1	0.00e+00	0	43	0	430964736	55	3905
2026-01-26 03:44:44.72	26.37	10.08	-41.6	-42.5	21.2	0.00e+00	0	43	0	436207616	55	3854
2026-01-26 03:44:45.73	26.33	10.16	-41.7	-42.7	21.1	0.00e+00	0	43	0	442499072	55	3914
2026-01-26 03:44:46.74	26.30	10.25	-41.8	-42.7	21.0	0.00e+00	0	43	0	447741952	55	3951
2026-01-26 03:44:47.75	26.26	10.34	-41.7	-42.7	21.0	0.00e+00	0	43	0	452984832	55	3950
2026-01-26 03:44:48.75	26.23	10.42	-41.8	-42.8	21.0	0.00e+00	0	43	0	459276288	55	3983
2026-01-26 03:44:49.76	26.19	10.51	-41.9	-42.9	20.9	0.00e+00	0	43	0	464519168	55	4037
2026-01-26 03:44:50.77	26.15	10.60	-41.8	-42.8	21.0	0.00e+00	0	43	0	469762048	55	3987
2026-01-26 03:44:51.78	26.11	10.69	-41.4	-42.4	21.4	0.00e+00	0	43	0	476053504	54	4026
2026-01-26 03:44:52.79	26.08	10.78	-41.5	-42.5	21.3	0.00e+00	0	43	0	482344960	54	4083
2026-01-26 03:44:53.79	26.04	10.86	-41.5	-42.5	21.3	0.00e+00	0	43	0	487587840	54	4054
2026-01-26 03:44:54.80	26.00	10.95	-41.4	-42.3	21.4	0.00e+00	0	43	0	492830720	54	4002
2026-01-26 03:44:55.80	25.96	11.04	-41.5	-42.5	21.3	0.00e+00	0	43	0	499122176	54	4059
2026-01-26 03:44:56.81	25.92	11.13	-41.3	-42.2	21.6	0.00e+00	0	43	0	504365056	54	3942
2026-01-26 03:44:57.82	25.88	11.22	-41.5	-42.4	21.5	0.00e+00	0	43	0	509607936	54	4006
2026-01-26 03:44:58.83	25.84	11.31	-41.6	-42.5	21.4	0.00e+00	0	43	0	515899392	54	4052
2026-01-26 03:44:59.83	25.80	11.40	-41.5	-42.4	21.4	0.00e+00	0	43	0	521142272	54	4016
2026-01-26 03:45:00.84	25.76	11.49	-41.4	-42.3	21.5	0.00e+00	0	43	0	527433728	54	3969
2026-01-26 03:45:01.84	25.72	11.58	-41.5	-42.4	21.5	0.00e+00	0	43	0	532676608	54	4005
2026-01-26 03:45:02.85	25.68	11.67	-41.2	-42.0	21.8	0.00e+00	0	43	0	537919488	54	3858
2026-01-26 03:45:03.86	25.64	11.76	-41.2	-42.0	21.8	0.00e+00	0	43	0	544210944	54	3865
2026-01-26 03:45:04.87	25.60	11.86	-41.1	-42.0	21.8	0.00e+00	0	43	0	549453824	54	3841
2026-01-26 03:45:05.88	25.56	11.95	-41.2	-42.1	21.7	0.00e+00	0	43	0	555745280	54	3890
2026-01-26 03:45:06.89	25.52	12.04	-41.2	-42.1	21.8	0.00e+00	0	43	0	560988160	54	3882
2026-01-26 03:45:07.89	25.48	12.13	-41.1	-42.0	21.9	0.00e+00	0	43	0	567279616	54	3826
2026-01-26 03:45:08.90	25.44	12.23	-41.2	-42.0	21.8	0.00e+00	0	43	0	572522496	54	3856
2026-01-26 03:45:09.91	25.39	12.32	-41.1	-42.0	21.9	0.00e+00	0	43	0	577765376	54	3832
2026-01-26 03:45:10.92	25.35	12.41	-41.2	-42.1	21.8	0.00e+00	0	43	0	584056832	54	3878
2026-01-26 03:45:11.92	25.31	12.51	-41.2	-42.1	21.8	0.00e+00	0	43	0	589299712	54	3870
2026-01-26 03:45:12.93	25.26	12.60	-41.1	-41.9	22.0	0.00e+00	0	43	0	594542592	54	3817
2026-01-26 03:45:13.94	25.22	12.70	-41.1	-42.0	21.9	0.00e+00	0	43	0	600834048	54	3836
2026-01-26 03:45:14.95	25.18	12.79	-41.0	-41.8	22.0	0.00e+00	0	43	0	606076928	53	3984
2026-01-26 03:45:15.96	25.13	12.89	-41.0	-41.8	22.1	0.00e+00	0	43	0	612368384	53	3991
2026-01-26 03:45:16.97	25.09	12.98	-40.9	-41.8	22.1	0.00e+00	0	43	0	617611264	53	3975
2026-01-26 03:45:17.97	25.04	13.08	-40.7	-41.6	22.3	0.00e+00	0	43	0	623902720	53	3882
2026-01-26 03:45:18.98	25.00	13.18	-40.9	-41.7	22.1	0.00e+00	0	43	0	629145600	53	3949
2026-01-26 03:45:19.99	24.95	13.27	-40.9	-41.7	22.2	0.00e+00	0	43	0	635437056	53	3941
2026-01-26 03:45:21.00	24.91	13.37	-40.9	-41.8	22.1	0.00e+00	0	43	0	640679936	53	3961
2026-01-26 03:45:22.01	24.86	13.47	-40.9	-41.7	22.2	0.00e+00	0	43	0	645922816	53	3939
2026-01-26 03:45:23.02	24.81	13.57	-40.8	-41.6	22.3	0.00e+00	0	43	0	652214272	53	3890
2026-01-26 03:45:24.02	24.77	13.67	-40.7	-41.6	22.3	0.00e+00	0	43	0	657457152	53	3884
2026-01-26 03:45:25.03	24.72	13.77	-40.8	-41.6	22.3	0.00e+00	0	43	0	662700032	53	3889
2026-01-26 03:45:26.03	24.67	13.86	-40.8	-41.6	22.3	0.00e+00	0	43	0	668991488	53	3894
2026-01-26 03:45:27.04	24.63	13.96	-40.7	-41.6	22.4	0.00e+00	0	43	0	674234368	53	3870
2026-01-26 03:45:28.05	24.58	14.06	-40.6	-41.5	22.4	0.00e+00	0	43	0	679477248	53	3830
2026-01-26 03:45:29.05	24.53	14.16	-40.7	-41.6	22.3	0.00e+00	0	43	0	685768704	53	3879
2026-01-26 03:45:30.06	24.48	14.27	-40.8	-41.6	22.3	0.00e+00	0	43	0	691011584	53	3898
2026-01-26 03:45:31.07	24.43	14.37	-40.6	-41.4	22.5	0.00e+00	0	43	0	697303040	53	3824
2026-01-26 03:45:32.08	24.38	14.47	-40.7	-41.5	22.4	0.00e+00	0	44	0	702545920	53	3865
2026-01-26 03:45:33.09	24.33	14.57	-40.5	-41.3	22.6	0.00e+00	0	43	0	708837376	53	3769
2026-01-26 03:45:34.10	24.28	14.67	-40.4	-41.2	22.7	0.00e+00	0	43	0	714080256	52	3921
2026-01-26 03:45:35.11	24.23	14.78	-40.3	-41.1	22.8	0.00e+00	0	43	0	720371712	52	3913
2026-01-26 03:45:36.11	24.18	14.88	-40.3	-41.1	22.8	0.00e+00	0	43	0	725614592	52	3875
2026-01-26 03:45:37.12	24.13	14.98	-40.2	-41.1	22.8	0.00e+00	0	43	0	730857472	52	3873
2026-01-26 03:45:38.13	24.08	15.09	-40.3	-41.1	22.8	0.00e+00	0	43	0	737148928	52	3882
2026-01-26 03:45:39.14	24.02	15.19	-40.2	-41.0	22.9	0.00e+00	0	43	0	742391808	52	3853
2026-01-26 03:45:40.14	23.97	15.30	-40.2	-41.0	22.9	0.00e+00	0	43	0	747634688	52	3854
2026-01-26 03:45:41.15	23.92	15.40	-40.2	-41.0	22.9	0.00e+00	0	43	0	753926144	52	3841
2026-01-26 03:45:42.16	23.86	15.51	-40.2	-41.0	22.9	0.00e+00	0	43	0	759169024	52	3852
2026-01-26 03:45:43.17	23.81	15.62	-40.0	-40.8	23.2	0.00e+00	0	43	0	765460480	51	3980
2026-01-26 03:45:44.19	23.75	15.72	-40.0	-40.7	23.2	0.00e+00	0	43	0	770703360	51	3948
2026-01-26 03:45:45.19	23.70	15.83	-39.9	-40.7	23.3	0.00e+00	0	43	0	776994816	51	3944
2026-01-26 03:45:46.20	23.65	15.94	-39.9	-40.7	23.3	0.00e+00	0	43	0	782237696	51	3924
2026-01-26 03:45:47.21	23.59	16.05	-40.0	-40.8	23.2	0.00e+00	0	43	0	787480576	51	3983
2026-01-26 03:45:48.22	23.53	16.15	-40.0	-40.8	23.2	0.00e+00	0	43	0	793772032	51	3984
2026-01-26 03:45:49.23	23.48	16.26	-39.9	-40.6	23.4	0.00e+00	0	43	0	799014912	51	3912
2026-01-26 03:45:50.24	23.42	16.37	-39.9	-40.6	23.3	0.00e+00	0	44	0	805306368	51	3913
2026-01-26 03:45:51.25	23.36	16.48	-39.8	-40.6	23.4	0.00e+00	0	43	0	810549248	51	3900
2026-01-26 03:45:52.26	23.30	16.59	-39.9	-40.7	23.3	0.00e+00	0	43	0	815792128	51	3935
2026-01-26 03:45:53.27	23.25	16.71	-39.9	-40.6	23.4	0.00e+00	0	43	0	822083584	51	3908
2026-01-26 03:45:54.28	23.19	16.82	-39.9	-40.6	23.4	0.00e+00	0	43	0	828375040	51	3906
2026-01-26 03:45:55.29	23.13	16.93	-39.9	-40.7	23.3	0.00e+00	0	43	0	833617920	51	3918
2026-01-26 03:45:56.29	23.07	17.04	-39.7	-40.5	23.5	0.00e+00	0	43	0	838860800	51	3834
2026-01-26 03:45:57.30	23.01	17.15	-39.7	-40.4	23.6	0.00e+00	0	43	0	845152256	51	3824
2026-01-26 03:45:58.31	22.95	17.27	-39.8	-40.5	23.5	0.00e+00	0	43	0	850395136	51	3854
2026-01-26 03:45:59.32	22.89	17.38	-39.6	-40.3	23.7	0.00e+00	0	43	0	855638016	51	3771
2026-01-26 03:46:00.33	22.83	17.50	-39.6	-40.3	23.6	0.00e+00	0	43	0	861929472	51	3771
2026-01-26 03:46:01.33	22.76	17.61	-39.5	-40.3	23.7	0.00e+00	0	43	0	867172352	51	3744
2026-01-26 03:46:02.34	22.70	17.72	-39.5	-40.3	23.7	0.00e+00	0	43	0	872415232	51	3739
2026-01-26 03:46:03.35	22.64	17.84	-39.4	-40.1	23.9	0.00e+00	0	43	0	878706688	50	3895
2026-01-26 03:46:04.36	22.57	17.96	-39.4	-40.1	23.8	0.00e+00	0	43	0	883949568	50	3911
2026-01-26 03:46:05.36	22.51	18.07	-39.4	-40.1	23.9	0.00e+00	0	43	0	890241024	50	3903
2026-01-26 03:46:06.37	22.45	18.19	-39.3	-40.1	23.9	0.00e+00	0	43	0	895483904	50	3896
2026-01-26 03:46:07.38	22.38	18.31	-39.4	-40.1	23.9	0.00e+00	0	43	0	901775360	50	3900
2026-01-26 03:46:08.39	22.31	18.43	-39.4	-40.2	23.8	0.00e+00	0	43	0	907018240	50	3918
2026-01-26 03:46:09.39	22.25	18.54	-39.3	-40.1	24.0	0.00e+00	0	43	0	913309696	50	3869
2026-01-26 03:46:10.40	22.18	18.66	-39.3	-40.1	23.9	0.00e+00	0	43	0	918552576	50	3877
2026-01-26 03:46:11.41	22.11	18.78	-39.3	-40.1	23.9	0.00e+00	0	44	0	923795456	50	3879
2026-01-26 03:46:12.41	22.05	18.90	-39.4	-40.1	23.9	0.00e+00	0	43	0	930086912	50	3911
2026-01-26 03:46:13.42	21.98	19.03	-39.3	-40.0	24.0	0.00e+00	0	43	0	935329792	50	3866
2026-01-26 03:46:14.43	21.91	19.15	-39.3	-40.0	24.0	0.00e+00	0	43	0	940572672	50	3867
2026-01-26 03:46:15.44	21.84	19.27	-39.3	-40.0	24.0	0.00e+00	0	43	0	946864128	50	3866
2026-01-26 03:46:16.45	21.77	19.39	-39.3	-40.0	24.0	0.00e+00	0	44	0	952107008	50	3847
2026-01-26 03:46:17.46	21.70	19.52	-39.2	-40.0	24.1	0.00e+00	0	43	0	957349888	50	3836
2026-01-26 03:46:18.47	21.63	19.64	-39.3	-40.0	24.0	0.00e+00	0	43	0	963641344	50	3847
2026-01-26 03:46:19.48	21.55	19.76	-39.3	-40.1	24.0	0.00e+00	0	43	0	969932800	50	3878
2026-01-26 03:46:20.49	21.48	19.89	-39.3	-40.0	24.0	0.00e+00	0	43	0	975175680	50	3867
2026-01-26 03:46:21.50	21.41	20.02	-39.2	-39.9	24.1	0.00e+00	0	43	0	980418560	50	3816
2026-01-26 03:46:22.51	21.33	20.14	-39.2	-39.9	24.1	0.00e+00	0	43	0	986710016	50	3804
2026-01-26 03:46:23.52	21.26	20.27	-39.2	-39.9	24.1	0.00e+00	0	44	0	991952896	50	3821
2026-01-26 03:46:24.53	21.18	20.40	-39.1	-39.9	24.2	0.00e+00	0	43	0	998244352	50	3795
2026-01-26 03:46:25.54	21.11	20.52	-39.2	-39.9	24.2	0.00e+00	0	43	0	1003487232	50	3795
2026-01-26 03:46:26.55	21.03	20.65	-39.1	-39.9	24.2	0.00e+00	0	43	0	1008730112	50	3786
2026-01-26 03:46:27.56	20.95	20.78	-39.0	-39.7	24.3	0.00e+00	0	43	0	1015021568	50	3726
2026-01-26 03:46:28.56	20.88	20.91	-39.1	-39.8	24.3	0.00e+00	0	43	0	1020264448	50	3755
2026-01-26 03:46:29.57	20.80	21.04	-39.1	-39.8	24.3	0.00e+00	0	43	0	1025507328	50	3759
2026-01-26 03:46:30.57	20.72	21.17	-39.1	-39.9	24.2	0.00e+00	0	43	0	1031798784	50	3784
2026-01-26 03:46:31.58	20.64	21.30	-39.1	-39.9	24.2	0.00e+00	0	44	0	1038090240	50	3790
2026-01-26 03:46:32.59	20.56	21.44	-39.2	-39.9	24.2	0.00e+00	0	43	0	1043333120	50	3798
2026-01-26 03:46:33.60	20.47	21.57	-38.9	-39.6	24.4	0.00e+00	0	43	0	1048576000	49	3898
2026-01-26 03:46:34.61	20.39	21.70	-38.9	-39.6	24.4	0.00e+00	0	43	0	1054867456	49	3903
2026-01-26 03:46:35.62	20.31	21.84	-38.8	-39.6	24.5	0.00e+00	0	43	0	1060110336	49	3877
2026-01-26 03:46:36.63	20.23	21.97	-38.8	-39.5	24.5	0.00e+00	0	43	0	1065353216	49	3854
2026-01-26 03:46:37.63	20.14	22.11	-38.9	-39.7	24.4	0.00e+00	0	43	0	1071644672	49	3916
2026-01-26 03:46:38.64	20.06	22.24	-38.8	-39.6	24.5	0.00e+00	0	43	0	1076887552	49	3875
2026-01-26 03:46:39.65	19.97	22.38	-38.9	-39.6	24.5	0.00e+00	0	43	0	1083179008	49	3907
2026-01-26 03:46:40.65	19.88	22.52	-38.9	-39.6	24.5	0.00e+00	0	43	0	1088421888	49	3895
2026-01-26 03:46:41.66	19.80	22.65	-38.8	-39.5	24.6	0.00e+00	0	43	0	1093664768	49	3864
2026-01-26 03:46:42.67	19.71	22.79	-38.8	-39.5	24.6	0.00e+00	0	43	0	1099956224	49	3843
2026-01-26 03:46:43.68	19.62	22.93	-38.7	-39.5	24.6	0.00e+00	0	43	0	1106247680	49	3829
2026-01-26 03:46:44.68	19.53	23.07	-39.0	-39.7	24.4	0.00e+00	0	44	0	1111490560	49	3937
2026-01-26 03:46:45.69	19.44	23.21	-38.7	-39.4	24.7	0.00e+00	0	44	0	1116733440	49	3796
2026-01-26 03:46:46.70	19.34	23.36	-38.9	-39.6	24.5	0.00e+00	0	43	0	1123024896	49	3886
2026-01-26 03:46:47.71	19.25	23.50	-38.7	-39.4	24.7	0.00e+00	0	44	0	1128267776	49	3809
2026-01-26 03:46:48.71	19.16	23.64	-38.7	-39.4	24.7	0.00e+00	0	43	0	1133510656	49	3805
2026-01-26 03:46:49.72	19.06	23.78	-38.3	-39.0	25.0	0.00e+00	0	44	0	1139802112	48	3866
2026-01-26 03:46:50.73	18.97	23.93	-38.3	-39.0	25.0	0.00e+00	0	44	0	1145044992	48	3857
2026-01-26 03:46:51.73	18.87	24.07	-38.3	-39.0	25.0	0.00e+00	0	43	0	1150287872	48	3866
2026-01-26 03:46:52.74	18.78	24.22	-38.3	-39.0	25.0	0.00e+00	0	43	0	1156579328	48	3837
2026-01-26 03:46:53.75	18.68	24.36	-38.4	-39.1	25.0	0.00e+00	0	43	0	1161822208	48	3880
2026-01-26 03:46:54.76	18.58	24.51	-38.4	-39.1	25.0	0.00e+00	0	44	0	1168113664	48	3876
2026-01-26 03:46:55.77	18.48	24.66	-38.1	-38.8	25.2	0.00e+00	0	44	0	1173356544	48	3766
2026-01-26 03:46:56.77	18.38	24.81	-38.2	-38.9	25.2	0.00e+00	0	43	0	1178599424	48	3793
2026-01-26 03:46:57.78	18.27	24.96	-38.1	-38.8	25.2	0.00e+00	0	43	0	1184890880	48	3757
2026-01-26 03:46:58.79	18.17	25.11	-38.0	-38.7	25.3	0.00e+00	0	43	0	1191182336	48	3713
2026-01-26 03:46:59.79	18.07	25.26	-38.1	-38.8	25.3	0.00e+00	0	43	0	1196425216	48	3750
2026-01-26 03:47:00.80	17.96	25.41	-38.1	-38.8	25.3	0.00e+00	0	43	0	1201668096	48	3739
2026-01-26 03:47:01.81	17.86	25.56	-37.7	-38.4	25.1	0.00e+00	0	44	0	1207959552	47	3791
2026-01-26 03:47:02.81	17.75	25.71	-37.7	-38.4	25.1	0.00e+00	0	43	0	1213202432	47	3808
2026-01-26 03:47:03.82	17.64	25.87	-37.6	-38.3	25.2	0.00e+00	0	43	0	1218445312	47	3772
2026-01-26 03:47:04.83	17.53	26.02	-37.5	-38.2	25.3	0.00e+00	0	43	0	1224736768	47	3724
2026-01-26 03:47:05.84	17.42	26.18	-37.5	-38.2	25.3	0.00e+00	0	44	0	1229979648	47	3737
2026-01-26 03:47:06.85	17.31	26.33	-37.6	-38.3	25.2	0.00e+00	0	43	0	1235222528	47	3740
2026-01-26 03:47:07.86	17.20	26.49	-37.6	-38.3	25.2	0.00e+00	0	43	0	1241513984	47	3774
2026-01-26 03:47:08.87	17.08	26.65	-37.7	-38.4	25.2	0.00e+00	0	44	0	1246756864	47	3795
2026-01-26 03:47:09.88	16.97	26.81	-37.5	-38.2	25.3	0.00e+00	0	44	0	1253048320	47	3734
2026-01-26 03:47:10.89	16.85	26.97	-37.7	-38.4	25.2	0.00e+00	0	43	0	1258291200	47	3787
2026-01-26 03:47:11.89	16.73	27.13	-37.7	-38.4	25.1	0.00e+00	0	44	0	1264582656	47	3804
2026-01-26 03:47:12.90	16.61	27.29	-37.8	-38.5	25.1	0.00e+00	0	43	0	1269825536	47	3842
2026-01-26 03:47:13.91	16.49	27.45	-37.7	-38.4	25.1	0.00e+00	0	43	0	1276116992	47	3824
2026-01-26 03:47:14.92	16.37	27.61	-37.7	-38.4	25.2	0.00e+00	0	43	0	1281359872	47	3808
2026-01-26 03:47:15.92	16.25	27.78	-37.8	-38.5	25.1	0.00e+00	0	43	0	1286602752	47	3840
2026-01-26 03:47:16.93	16.13	27.94	-37.8	-38.5	25.1	0.00e+00	0	43	0	1292894208	47	3860
2026-01-26 03:47:17.94	16.00	28.11	-37.6	-38.3	25.2	0.00e+00	0	43	0	1298137088	47	3780
2026-01-26 03:47:18.95	15.87	28.27	-37.6	-38.3	25.2	0.00e+00	0	43	0	1303379968	47	3769
2026-01-26 03:47:19.96	15.75	28.44	-37.6	-38.3	25.3	0.00e+00	0	43	0	1309671424	47	3765
2026-01-26 03:47:20.96	15.62	28.61	-37.6	-38.3	25.3	0.00e+00	0	43	0	1314914304	47	3756
2026-01-26 03:47:21.97	15.49	28.77	-37.6	-38.4	25.2	0.00e+00	0	43	0	1321205760	47	3783
2026-01-26 03:47:22.98	15.35	28.94	-37.4	-38.1	25.4	0.00e+00	0	43	0	1326448640	46	3913
2026-01-26 03:47:23.99	15.22	29.11	-37.4	-38.1	25.4	0.00e+00	0	43	0	1332740096	46	3908
2026-01-26 03:47:25.00	15.08	29.29	-37.4	-38.1	25.4	0.00e+00	0	43	0	1337982976	46	3886
2026-01-26 03:47:26.01	14.95	29.46	-37.5	-38.2	25.4	0.00e+00	0	43	0	1343225856	46	3931
2026-01-26 03:47:27.01	14.81	29.63	-37.5	-38.3	25.3	0.00e+00	0	44	0	1349517312	46	3960
2026-01-26 03:47:28.02	14.67	29.80	-37.5	-38.3	25.3	0.00e+00	0	44	0	1354760192	46	3962
2026-01-26 03:47:29.03	14.53	29.98	-37.6	-38.4	25.2	0.00e+00	0	43	0	1361051648	46	4009
2026-01-26 03:47:30.04	14.39	30.15	-37.5	-38.2	25.3	0.00e+00	0	43	0	1366294528	46	3948
2026-01-26 03:47:31.05	14.24	30.33	-37.5	-38.2	25.3	0.00e+00	0	44	0	1371537408	46	3949
2026-01-26 03:47:32.05	14.10	30.51	-37.5	-38.2	25.4	0.00e+00	0	44	0	1377828864	46	3923
2026-01-26 03:47:33.06	13.95	30.68	-37.4	-38.1	25.5	0.00e+00	0	43	0	1383071744	46	3877
2026-01-26 03:47:34.07	13.80	30.86	-37.3	-38.0	25.6	0.00e+00	0	44	0	1388314624	46	3845
2026-01-26 03:47:35.08	13.65	31.04	-37.3	-38.0	25.6	0.00e+00	0	43	0	1394606080	46	3847
2026-01-26 03:47:36.09	13.50	31.23	-37.2	-37.9	25.7	0.00e+00	0	43	0	1400897536	46	3784
2026-01-26 03:47:37.09	13.34	31.41	-37.3	-38.0	25.6	0.00e+00	0	43	0	1406140416	46	3835
2026-01-26 03:47:38.10	13.19	31.59	-37.3	-38.1	25.5	0.00e+00	0	43	0	1411383296	46	3870
2026-01-26 03:47:39.11	13.03	31.77	-37.4	-38.1	25.5	0.00e+00	0	44	0	1417674752	46	3876
2026-01-26 03:47:40.11	12.87	31.95	-37.5	-38.2	25.4	0.00e+00	0	43	0	1422917632	46	3948
2026-01-26 03:47:41.12	12.71	32.14	-37.4	-38.1	25.5	0.00e+00	0	43	0	1428160512	46	3875
2026-01-26 03:47:42.13	12.54	32.33	-37.2	-37.9	25.7	0.00e+00	0	44	0	1434451968	46	3790
2026-01-26 03:47:43.14	12.38	32.51	-37.3	-38.0	25.6	0.00e+00	0	43	0	1439694848	46	3833
2026-01-26 03:47:44.14	12.21	32.70	-37.2	-37.9	25.7	0.00e+00	0	44	0	1445986304	46	3798
2026-01-26 03:47:45.15	12.04	32.89	-37.2	-37.9	25.7	0.00e+00	0	44	0	1451229184	46	3791
2026-01-26 03:47:46.16	11.87	33.08	-37.3	-38.0	25.6	0.00e+00	0	44	0	1456472064	46	3855
2026-01-26 03:47:47.17	11.69	33.27	-37.1	-37.8	25.7	0.00e+00	0	43	0	1462763520	46	3772
2026-01-26 03:47:48.18	11.52	33.46	-37.2	-37.9	25.7	0.00e+00	0	44	0	1469054976	46	3795
2026-01-26 03:47:49.18	11.34	33.65	-37.2	-38.0	25.6	0.00e+00	0	43	0	1474297856	46	3828
2026-01-26 03:47:50.19	11.16	33.84	-37.3	-38.1	25.5	0.00e+00	0	43	0	1479540736	46	3879
2026-01-26 03:47:51.20	10.98	34.04	-37.2	-37.9	25.7	0.00e+00	0	44	0	1485832192	46	3823
2026-01-26 03:47:52.21	10.79	34.23	-37.2	-37.9	25.7	0.00e+00	0	43	0	1491075072	46	3792
2026-01-26 03:47:53.21	10.61	34.43	-37.1	-37.8	25.7	0.00e+00	0	43	0	1496317952	46	3775
2026-01-26 03:47:54.22	10.42	34.63	-37.2	-37.9	25.7	0.00e+00	0	43	0	1502609408	46	3791
2026-01-26 03:47:55.23	10.23	34.82	-37.3	-38.0	25.6	0.00e+00	0	43	0	1507852288	46	3835
2026-01-26 03:47:56.24	10.03	35.02	-37.3	-38.0	25.6	0.00e+00	0	43	0	1513095168	46	3838
2026-01-26 03:47:57.25	9.84	35.22	-37.2	-37.9	25.7	0.00e+00	0	44	0	1519386624	46	3799
2026-01-26 03:47:58.25	9.64	35.42	-37.1	-37.8	25.8	0.00e+00	0	43	0	1524629504	46	3756
2026-01-26 03:47:59.26	9.44	35.62	-37.0	-37.7	25.8	0.00e+00	0	43	0	1530920960	46	3734
2026-01-26 03:48:00.27	9.24	35.82	-37.1	-37.8	25.8	0.00e+00	0	43	0	1536163840	46	3742
2026-01-26 03:48:01.28	9.03	36.03	-37.2	-37.9	25.7	0.00e+00	0	44	0	1542455296	46	3800
2026-01-26 03:48:02.29	8.82	36.23	-37.2	-37.9	25.7	0.00e+00	0	43	0	1547698176	46	3821
2026-01-26 03:48:03.30	8.61	36.44	-37.2	-37.9	25.7	0.00e+00	0	44	0	1553989632	46	3816
2026-01-26 03:48:04.30	8.39	36.64	-37.3	-38.0	25.6	0.00e+00	0	43	0	1559232512	46	3837
2026-01-26 03:48:05.31	8.18	36.85	-37.3	-38.0	25.6	0.00e+00	0	44	0	1564475392	46	3867
2026-01-26 03:48:06.32	7.96	37.05	-37.3	-38.0	25.7	0.00e+00	0	43	0	1570766848	46	3829
2026-01-26 03:48:07.33	7.73	37.26	-37.3	-38.1	25.6	0.00e+00	0	44	0	1576009728	46	3871
2026-01-26 03:48:08.34	7.51	37.47	-37.3	-38.0	25.7	0.00e+00	0	43	0	1581252608	46	3842
2026-01-26 03:48:09.35	7.28	37.68	-37.3	-38.0	25.6	0.00e+00	0	43	0	1587544064	46	3864
2026-01-26 03:48:10.35	7.05	37.89	-37.2	-37.9	25.8	0.00e+00	0	43	0	1592786944	46	3801
2026-01-26 03:48:11.36	6.81	38.10	-37.2	-37.9	25.8	0.00e+00	0	44	0	1598029824	46	3782
2026-01-26 03:48:12.37	6.58	38.31	-37.3	-38.0	25.7	0.00e+00	0	43	0	1604321280	46	3829
2026-01-26 03:48:13.37	6.34	38.52	-37.1	-37.8	25.9	0.00e+00	0	43	0	1610612736	46	3745
2026-01-26 03:48:14.38	6.09	38.73	-37.2	-37.9	25.8	0.00e+00	0	43	0	1615855616	46	3786
2026-01-26 03:48:15.39	5.84	38.95	-37.3	-38.0	25.7	0.00e+00	0	44	0	1621098496	46	3855
2026-01-26 03:48:16.39	5.60	39.16	-37.4	-38.1	25.7	0.00e+00	0	43	0	1627389952	46	3882
2026-01-26 03:48:17.40	5.34	39.38	-37.5	-38.2	25.6	0.00e+00	0	44	0	1632632832	46	3921
2026-01-26 03:48:18.41	5.08	39.59	-37.4	-38.1	25.6	0.00e+00	0	43	0	1638924288	46	3909
2026-01-26 03:48:19.41	4.82	39.81	-37.4	-38.0	25.7	0.00e+00	0	43	0	1644167168	46	3866
2026-01-26 03:48:20.42	4.56	40.03	-37.5	-38.2	25.5	0.00e+00	0	43	0	1649410048	46	3940
2026-01-26 03:48:21.43	4.29	40.24	-37.6	-38.3	25.5	0.00e+00	0	44	0	1655701504	46	3969
2026-01-26 03:48:22.44	4.02	40.46	-37.7	-38.4	25.4	0.00e+00	0	44	0	1660944384	46	4017
2026-01-26 03:48:23.45	3.74	40.68	-37.5	-38.2	25.5	0.00e+00	0	44	0	1666187264	46	3953
2026-01-26 03:48:24.46	3.46	40.90	-37.5	-38.2	25.5	0.00e+00	0	43	0	1672478720	46	3941
2026-01-26 03:48:25.46	3.18	41.12	-37.5	-38.2	25.6	0.00e+00	0	43	0	1677721600	46	3923
2026-01-26 03:48:26.47	2.89	41.34	-37.4	-38.1	25.6	0.00e+00	0	43	0	1684013056	46	3892
2026-01-26 03:48:27.48	2.60	41.56	-37.4	-38.1	25.7	0.00e+00	0	43	0	1689255936	46	3870
2026-01-26 03:48:28.49	2.31	41.79	-37.4	-38.1	25.7	0.00e+00	0	43	0	1695547392	46	3881
2026-01-26 03:48:29.49	2.01	42.01	-37.5	-38.2	25.6	0.00e+00	0	43	0	1700790272	46	3918
2026-01-26 03:48:30.50	1.71	42.23	-37.5	-38.2	25.6	0.00e+00	0	43	0	1706033152	46	3955
2026-01-26 03:48:31.51	1.40	42.45	-37.6	-38.3	25.5	0.00e+00	0	43	0	1712324608	46	4000
2026-01-26 03:48:32.52	1.08	42.68	-37.6	-38.3	25.5	0.00e+00	0	44	0	1717567488	46	3985
2026-01-26 03:48:33.53	0.77	42.90	-37.8	-38.5	25.3	0.00e+00	0	43	0	1723858944	46	4080
2026-01-26 03:48:34.53	0.45	43.12	-37.8	-38.5	25.4	0.00e+00	0	43	0	1729101824	46	4062
2026-01-26 03:48:35.54	0.12	43.35	-37.7	-38.4	25.4	0.00e+00	0	43	0	1734344704	46	4025
2026-01-26 03:48:36.55	359.79	43.57	-37.6	-38.3	25.5	0.00e+00	0	43	0	1740636160	46	3996
2026-01-26 03:48:37.56	359.46	43.80	-37.5	-38.2	25.6	0.00e+00	0	44	0	1745879040	46	3927
2026-01-26 03:48:38.56	359.12	44.02	-37.6	-38.3	25.5	0.00e+00	0	43	0	1751121920	46	3963
2026-01-26 03:48:39.57	358.77	44.25	-37.7	-38.4	25.4	0.00e+00	0	44	0	1757413376	46	4017
2026-01-26 03:48:40.58	358.42	44.47	-37.9	-38.6	25.2	0.00e+00	0	43	0	1763704832	46	4129
2026-01-26 03:48:41.58	358.07	44.70	-38.0	-38.7	25.2	0.00e+00	0	44	0	1768947712	46	4181
2026-01-26 03:48:42.59	357.71	44.92	-37.9	-38.6	25.3	0.00e+00	0	43	0	1774190592	46	4117
2026-01-26 03:48:43.60	357.34	45.15	-37.8	-38.5	25.3	0.00e+00	0	44	0	1780482048	46	4060
2026-01-26 03:48:44.61	356.97	45.37	-37.7	-38.5	25.4	0.00e+00	0	43	0	1785724928	46	4056
2026-01-26 03:48:45.61	356.60	45.60	-37.9	-38.6	25.2	0.00e+00	0	44	0	1790967808	46	4131
2026-01-26 03:48:46.63	356.22	45.83	-38.1	-38.8	25.1	0.00e+00	0	44	0	1797259264	46	4235
2026-01-26 03:48:47.63	355.83	46.05	-38.2	-39.0	25.0	0.00e+00	0	43	0	1802502144	47	4054
2026-01-26 03:48:48.64	355.44	46.27	-38.2	-38.9	25.0	0.00e+00	0	43	0	1808793600	47	4031
2026-01-26 03:48:49.65	355.04	46.50	-38.1	-38.8	25.1	0.00e+00	0	44	0	1814036480	47	3974
2026-01-26 03:48:50.66	354.64	46.72	-37.9	-38.6	25.3	0.00e+00	0	43	0	1819279360	47	3889
2026-01-26 03:48:51.67	354.23	46.95	-38.0	-38.7	25.2	0.00e+00	0	43	0	1825570816	47	3929
2026-01-26 03:48:52.67	353.81	47.17	-38.2	-38.9	25.0	0.00e+00	0	43	0	1831862272	47	4051
2026-01-26 03:48:53.68	353.39	47.39	-38.3	-39.0	24.9	0.00e+00	0	44	0	1837105152	47	4093
2026-01-26 03:48:54.69	352.96	47.62	-38.1	-38.8	25.1	0.00e+00	0	44	0	1842348032	47	4004
2026-01-26 03:48:55.70	352.53	47.84	-38.1	-38.8	25.1	0.00e+00	0	43	0	1848639488	47	3982
2026-01-26 03:48:56.71	352.09	48.06	-38.1	-38.8	25.2	0.00e+00	0	44	0	1853882368	47	3974
2026-01-26 03:48:57.72	351.64	48.28	-37.9	-38.6	25.3	0.00e+00	0	43	0	1859125248	47	3904
2026-01-26 03:48:58.73	351.18	48.50	-38.2	-38.9	25.1	0.00e+00	0	43	0	1865416704	47	4022
2026-01-26 03:48:59.74	350.72	48.72	-38.3	-39.1	24.9	0.00e+00	0	44	0	1870659584	47	4100
2026-01-26 03:49:00.74	350.26	48.93	-38.3	-39.0	24.9	0.00e+00	0	44	0	1876951040	47	4092
2026-01-26 03:49:01.75	349.79	49.15	-38.2	-38.9	25.0	0.00e+00	0	43	0	1882193920	47	4044
2026-01-26 03:49:02.75	349.31	49.37	-38.4	-39.1	24.9	0.00e+00	0	44	0	1887436800	47	4110
2026-01-26 03:49:03.76	348.83	49.58	-38.5	-39.3	24.7	0.00e+00	0	44	0	1893728256	47	4209
2026-01-26 03:49:04.76	348.34	49.79	-38.6	-39.4	24.6	0.00e+00	0	43	0	1898971136	47	4251
2026-01-26 03:49:05.77	347.83	50.00	-38.4	-39.1	24.9	0.00e+00	0	44	0	1904214016	47	4124
2026-01-26 03:49:06.78	347.33	50.22	-38.5	-39.2	24.8	0.00e+00	0	43	0	1910505472	47	4173
2026-01-26 03:49:07.78	346.82	50.42	-38.5	-39.2	24.8	0.00e+00	0	44	0	1916796928	47	4176
2026-01-26 03:49:08.79	346.29	50.63	-38.6	-39.4	24.7	0.00e+00	0	43	0	1922039808	47	4255
2026-01-26 03:49:09.79	345.77	50.83	-39.1	-39.9	24.7	0.00e+00	0	43	0	1927282688	48	4243
2026-01-26 03:49:10.80	345.23	51.04	-39.3	-40.0	24.7	0.00e+00	0	43	0	1933574144	49	4078
2026-01-26 03:49:11.80	344.69	51.24	-39.1	-39.9	24.7	0.00e+00	0	44	0	1938817024	49	4006
2026-01-26 03:49:12.81	344.14	51.44	-39.0	-39.7	24.9	0.00e+00	0	44	0	1944059904	49	3916
2026-01-26 03:49:13.81	343.59	51.64	-39.0	-39.7	24.9	0.00e+00	0	43	0	1950351360	49	3935
2026-01-26 03:49:14.82	343.02	51.83	-38.9	-39.6	25.0	0.00e+00	0	44	0	1955594240	49	3904
2026-01-26 03:49:15.83	342.45	52.03	-38.9	-39.6	25.0	0.00e+00	0	43	0	1961885696	49	3902
2026-01-26 03:49:16.83	341.87	52.22	-39.1	-39.8	24.9	0.00e+00	0	44	0	1967128576	49	3972
2026-01-26 03:49:17.84	341.28	52.41	-39.0	-39.7	24.9	0.00e+00	0	43	0	1972371456	49	3923
2026-01-26 03:49:18.85	340.68	52.60	-38.8	-39.4	25.1	0.00e+00	0	44	0	1978662912	49	3820
2026-01-26 03:49:19.86	340.08	52.78	-38.7	-39.4	25.2	0.00e+00	0	43	0	1983905792	49	3813
2026-01-26 03:49:20.86	339.47	52.96	-38.8	-39.5	25.1	0.00e+00	0	43	0	1989148672	49	3852
2026-01-26 03:49:21.87	338.85	53.14	-38.8	-39.5	25.1	0.00e+00	0	44	0	1995440128	49	3861
2026-01-26 03:49:22.88	338.22	53.32	-38.7	-39.4	25.2	0.00e+00	0	43	0	2001731584	49	3818
2026-01-26 03:49:23.89	337.59	53.49	-38.4	-39.1	25.4	0.00e+00	0	44	0	2006974464	48	3905
2026-01-26 03:49:24.90	336.95	53.66	-38.4	-39.0	25.5	0.00e+00	0	43	0	2012217344	48	3859
2026-01-26 03:49:25.90	336.30	53.83	-38.5	-39.2	25.4	0.00e+00	0	43	0	2018508800	48	3915
2026-01-26 03:49:26.91	335.64	53.99	-38.8	-39.5	25.1	0.00e+00	0	44	0	2023751680	48	4085
2026-01-26 03:49:27.93	334.97	54.16	-38.9	-39.6	25.0	0.00e+00	0	44	0	2028994560	48	4134
2026-01-26 03:49:28.93	334.31	54.31	-38.6	-39.3	25.3	0.00e+00	0	44	0	2035286016	48	3999
2026-01-26 03:49:29.95	333.62	54.47	-38.7	-39.4	25.3	0.00e+00	0	43	0	2040528896	48	4007
2026-01-26 03:49:30.95	332.94	54.62	-38.7	-39.4	25.2	0.00e+00	0	43	0	2046820352	48	4036
2026-01-26 03:49:31.96	332.24	54.76	-38.9	-39.6	25.0	0.00e+00	0	43	0	2052063232	48	4125
2026-01-26 03:49:32.97	331.54	54.91	-38.8	-39.5	25.1	0.00e+00	0	43	0	2058354688	48	4063
2026-01-26 03:49:33.98	330.83	55.04	-38.7	-39.4	25.2	0.00e+00	0	43	0	2063597568	48	4022
2026-01-26 03:49:34.99	330.11	55.18	-38.4	-39.1	25.5	0.00e+00	0	43	0	2069889024	48	3897
2026-01-26 03:49:35.99	329.40	55.31	-38.4	-39.1	25.4	0.00e+00	0	43	0	2075131904	48	3912
2026-01-26 03:49:37.00	328.67	55.44	-38.4	-39.2	25.4	0.00e+00	0	44	0	2080374784	48	3915
2026-01-26 03:49:38.01	327.93	55.56	-38.4	-39.1	25.5	0.00e+00	0	43	0	2086666240	48	3877
2026-01-26 03:49:39.01	327.20	55.67	-38.6	-39.3	25.3	0.00e+00	0	43	0	2091909120	48	3984
2026-01-26 03:49:40.02	326.45	55.79	-39.0	-39.7	24.9	0.00e+00	0	43	0	2097152000	48	4185
2026-01-26 03:49:41.02	325.70	55.89	-38.6	-39.3	25.3	0.00e+00	0	43	0	2103443456	48	3996
2026-01-26 03:49:42.02	324.95	56.00	-38.6	-39.3	25.3	0.00e+00	0	43	0	2108686336	48	3996
2026-01-26 03:49:43.03	324.19	56.10	-38.7	-39.4	25.2	0.00e+00	0	44	0	2113929216	48	4032
2026-01-26 03:49:44.04	323.41	56.19	-38.7	-39.4	25.2	0.00e+00	0	44	0	2120220672	48	4023
2026-01-26 03:49:45.05	322.64	56.28	-38.6	-39.3	25.3	0.00e+00	0	44	0	2125463552	48	3968
2026-01-26 03:49:46.05	321.86	56.36	-38.4	-39.1	25.5	0.00e+00	0	44	0	2131755008	48	3890
2026-01-26 03:49:47.06	321.08	56.44	-38.4	-39.1	25.5	0.00e+00	0	43	0	2136997888	48	3887
2026-01-26 03:49:48.07	320.29	56.52	-38.5	-39.2	25.4	0.00e+00	0	43	0	2142240768	48	3917
2026-01-26 03:49:49.07	319.50	56.58	-38.8	-39.5	25.2	0.00e+00	0	43	0	2148532224	48	4054
2026-01-26 03:49:50.08	318.70	56.65	-39.0	-39.7	24.9	0.00e+00	0	43	0	2154823680	48	4189
2026-01-26 03:49:51.09	317.90	56.71	-38.9	-39.7	25.0	0.00e+00	0	43	0	2160066560	48	4147
2026-01-26 03:49:52.10	317.10	56.76	-38.9	-39.6	25.0	0.00e+00	0	43	0	2165309440	48	4127
2026-01-26 03:49:53.11	316.29	56.81	-38.9	-39.6	25.1	0.00e+00	0	43	0	2171600896	48	4102
2026-01-26 03:49:54.12	315.48	56.85	-39.0	-39.7	25.0	0.00e+00	0	43	0	2176843776	48	4154
2026-01-26 03:49:55.13	314.67	56.88	-39.1	-39.8	24.8	0.00e+00	0	44	0	2182086656	48	4238
2026-01-26 03:49:56.13	313.86	56.92	-39.1	-39.8	24.9	0.00e+00	0	44	0	2188378112	49	3975
2026-01-26 03:49:57.14	313.04	56.94	-39.1	-39.9	24.8	0.00e+00	0	44	0	2193620992	49	4007
2026-01-26 03:49:58.14	312.23	56.96	-39.2	-40.0	24.8	0.00e+00	0	43	0	2198863872	49	4055
2026-01-26 03:49:59.15	311.42	56.97	-39.1	-39.8	24.9	0.00e+00	0	43	0	2205155328	49	3969
2026-01-26 03:50:00.15	310.60	56.98	-38.9	-39.6	25.1	0.00e+00	0	43	0	2210398208	49	3872
2026-01-26 03:50:01.16	309.78	56.99	-38.6	-39.3	25.3	0.00e+00	0	43	0	2216689664	49	3776
2026-01-26 03:50:02.17	308.96	56.98	-39.0	-39.7	25.0	0.00e+00	0	44	0	2221932544	49	3950
2026-01-26 03:50:03.17	308.15	56.98	-39.1	-39.8	24.9	0.00e+00	0	43	0	2228224000	49	3981
2026-01-26 03:50:04.18	307.33	56.96	-38.9	-39.6	25.0	0.00e+00	0	43	0	2233466880	49	3911
2026-01-26 03:50:05.19	306.52	56.94	-39.0	-39.7	25.0	0.00e+00	0	43	0	2239758336	49	3924
2026-01-26 03:50:06.20	305.70	56.92	-39.1	-39.8	24.9	0.00e+00	0	43	0	2245001216	49	3999
2026-01-26 03:50:07.21	304.88	56.89	-38.9	-39.6	25.1	0.00e+00	0	43	0	2250244096	49	3892
2026-01-26 03:50:08.21	304.08	56.85	-38.7	-39.4	25.3	0.00e+00	0	43	0	2256535552	49	3785
2026-01-26 03:50:09.22	303.27	56.81	-38.9	-39.6	25.1	0.00e+00	0	44	0	2261778432	49	3893
2026-01-26 03:50:10.22	302.47	56.76	-39.1	-39.8	24.9	0.00e+00	0	44	0	2267021312	49	3974
2026-01-26 03:50:11.23	301.66	56.71	-39.0	-39.7	25.0	0.00e+00	0	43	0	2273312768	49	3934
2026-01-26 03:50:12.23	300.87	56.65	-38.9	-39.7	25.1	0.00e+00	0	44	0	2278555648	49	3914
2026-01-26 03:50:13.24	300.07	56.59	-38.9	-39.6	25.1	0.00e+00	0	44	0	2283798528	49	3881
2026-01-26 03:50:14.24	299.28	56.52	-39.1	-39.8	24.9	0.00e+00	0	43	0	2290089984	49	4002
2026-01-26 03:50:15.25	298.49	56.45	-39.3	-40.0	24.8	0.00e+00	0	43	0	2295332864	49	4080
2026-01-26 03:50:16.25	297.71	56.37	-39.3	-40.0	24.7	0.00e+00	0	43	0	2301624320	49	4085
2026-01-26 03:50:17.26	296.93	56.29	-39.3	-40.0	24.7	0.00e+00	0	44	0	2306867200	49	4067
2026-01-26 03:50:18.27	296.16	56.20	-39.0	-39.7	25.0	0.00e+00	0	44	0	2312110080	49	3927
2026-01-26 03:50:19.28	295.38	56.10	-38.9	-39.6	25.1	0.00e+00	0	44	0	2318401536	49	3880
2026-01-26 03:50:20.28	294.62	56.00	-39.0	-39.7	25.0	0.00e+00	0	43	0	2324692992	49	3923
2026-01-26 03:50:21.29	293.86	55.90	-38.9	-39.6	25.1	0.00e+00	0	44	0	2329935872	49	3899
2026-01-26 03:50:22.30	293.11	55.79	-38.7	-39.4	25.2	0.00e+00	0	43	0	2335178752	49	3817
2026-01-26 03:50:23.31	292.36	55.68	-38.8	-39.5	25.2	0.00e+00	0	44	0	2341470208	49	3856
2026-01-26 03:50:24.32	291.62	55.56	-38.8	-39.5	25.2	0.00e+00	0	43	0	2346713088	49	3855
2026-01-26 03:50:25.32	290.89	55.44	-38.7	-39.4	25.3	0.00e+00	0	43	0	2351955968	49	3811
2026-01-26 03:50:26.33	290.16	55.32	-38.8	-39.5	25.2	0.00e+00	0	43	0	2358247424	49	3839
2026-01-26 03:50:27.34	289.43	55.19	-38.8	-39.5	25.2	0.00e+00	0	44	0	2363490304	49	3853
2026-01-26 03:50:28.35	288.71	55.05	-38.7	-39.4	25.2	0.00e+00	0	43	0	2368733184	49	3822
2026-01-26 03:50:29.36	288.00	54.91	-38.7	-39.4	25.3	0.00e+00	0	43	0	2375024640	49	3796
2026-01-26 03:50:30.37	287.30	54.77	-38.4	-39.1	25.5	0.00e+00	0	43	0	2380267520	48	3894
2026-01-26 03:50:31.37	286.61	54.62	-38.4	-39.1	25.5	0.00e+00	0	43	0	2386558976	48	3910
2026-01-26 03:50:32.38	285.92	54.47	-38.4	-39.2	25.5	0.00e+00	0	43	0	2391801856	48	3916
2026-01-26 03:50:33.39	285.24	54.32	-38.4	-39.1	25.5	0.00e+00	0	44	0	2398093312	48	3871
2026-01-26 03:50:34.39	284.57	54.16	-38.4	-39.1	25.5	0.00e+00	0	44	0	2403336192	48	3890
2026-01-26 03:50:35.40	283.91	54.00	-38.5	-39.2	25.5	0.00e+00	0	43	0	2409627648	48	3925
2026-01-26 03:50:36.41	283.25	53.84	-38.5	-39.2	25.4	0.00e+00	0	43	0	2414870528	48	3951
2026-01-26 03:50:37.42	282.60	53.67	-38.6	-39.3	25.4	0.00e+00	0	43	0	2420113408	48	3965
2026-01-26 03:50:38.42	281.96	53.50	-38.6	-39.2	25.4	0.00e+00	0	43	0	2426404864	48	3956
2026-01-26 03:50:39.42	281.33	53.33	-38.7	-39.4	25.2	0.00e+00	0	43	0	2431647744	48	4035
2026-01-26 03:50:40.43	280.70	53.15	-38.9	-39.7	25.0	0.00e+00	0	43	0	2436890624	48	4148
2026-01-26 03:50:41.44	280.08	52.97	-38.9	-39.6	25.1	0.00e+00	0	44	0	2443182080	48	4134
2026-01-26 03:50:42.45	279.46	52.79	-38.9	-39.6	25.0	0.00e+00	0	44	0	2448424960	48	4140
2026-01-26 03:50:43.46	278.86	52.61	-38.8	-39.5	25.1	0.00e+00	0	43	0	2453667840	48	4083
2026-01-26 03:50:44.47	278.26	52.42	-38.6	-39.3	25.3	0.00e+00	0	44	0	2459959296	48	3997
2026-01-26 03:50:45.48	277.67	52.23	-38.7	-39.4	25.2	0.00e+00	0	44	0	2466250752	48	4012
2026-01-26 03:50:46.49	277.09	52.04	-39.0	-39.7	24.9	0.00e+00	0	43	0	2471493632	48	4193
2026-01-26 03:50:47.49	276.52	51.84	-39.0	-39.7	25.0	0.00e+00	0	44	0	2476736512	48	4176
2026-01-26 03:50:48.50	275.95	51.65	-39.0	-39.7	25.0	0.00e+00	0	43	0	2483027968	48	4153
2026-01-26 03:50:49.51	275.39	51.45	-39.1	-39.8	24.9	0.00e+00	0	43	0	2488270848	48	4219
2026-01-26 03:50:50.52	274.83	51.25	-39.1	-39.8	24.9	0.00e+00	0	43	0	2494562304	48	4217
2026-01-26 03:50:51.52	274.29	51.04	-38.9	-39.6	25.1	0.00e+00	0	44	0	2499805184	48	4124
2026-01-26 03:50:52.53	273.76	50.84	-38.9	-39.6	25.0	0.00e+00	0	44	0	2505048064	48	4137
2026-01-26 03:50:53.54	273.23	50.63	-39.1	-39.9	24.8	0.00e+00	0	43	0	2511339520	48	4262
2026-01-26 03:50:54.55	272.70	50.42	-39.1	-39.8	24.9	0.00e+00	0	44	0	2516582400	48	4222
2026-01-26 03:50:55.56	272.19	50.21	-38.8	-39.5	25.2	0.00e+00	0	44	0	2521825280	48	4058
2026-01-26 03:50:56.57	271.68	50.00	-38.7	-39.4	25.2	0.00e+00	0	43	0	2528116736	48	4019
2026-01-26 03:50:57.58	271.17	49.79	-38.7	-39.4	25.2	0.00e+00	0	44	0	2534408192	48	4016
2026-01-26 03:50:58.58	270.68	49.58	-38.6	-39.4	25.3	0.00e+00	0	44	0	2539651072	48	4005
2026-01-26 03:50:59.58	270.20	49.37	-38.7	-39.4	25.2	0.00e+00	0	44	0	2544893952	48	4022
2026-01-26 03:51:00.59	269.72	49.15	-38.6	-39.3	25.3	0.00e+00	0	43	0	2551185408	48	3984
2026-01-26 03:51:01.60	269.24	48.93	-38.8	-39.5	25.2	0.00e+00	0	44	0	2556428288	48	4064
2026-01-26 03:51:02.61	268.78	48.71	-38.7	-39.4	25.2	0.00e+00	0	43	0	2561671168	48	4031
2026-01-26 03:51:03.61	268.32	48.50	-38.5	-39.2	25.5	0.00e+00	0	44	0	2567962624	48	3914
2026-01-26 03:51:04.62	267.86	48.28	-38.4	-39.1	25.4	0.00e+00	0	43	0	2573205504	48	3912
2026-01-26 03:51:05.63	267.42	48.06	-38.4	-39.2	25.4	0.00e+00	0	43	0	2579496960	48	3917
2026-01-26 03:51:06.64	266.97	47.83	-38.3	-39.0	25.5	0.00e+00	0	44	0	2584739840	48	3859
2026-01-26 03:51:07.64	266.54	47.61	-38.4	-39.0	25.5	0.00e+00	0	43	0	2589982720	48	3865
2026-01-26 03:51:08.65	266.11	47.39	-38.3	-38.9	25.6	0.00e+00	0	43	0	2596274176	48	3813
2026-01-26 03:51:09.66	265.69	47.17	-38.0	-38.7	25.8	0.00e+00	0	44	0	2601517056	48	3726
2026-01-26 03:51:10.67	265.27	46.94	-38.1	-38.8	25.7	0.00e+00	0	44	0	2606759936	48	3753
2026-01-26 03:51:11.68	264.86	46.72	-38.1	-38.8	25.7	0.00e+00	0	43	0	2613051392	48	3772
2026-01-26 03:51:12.69	264.46	46.49	-38.3	-39.0	25.6	0.00e+00	0	43	0	2619342848	48	3836
2026-01-26 03:51:13.69	264.06	46.27	-38.2	-38.9	25.6	0.00e+00	0	43	0	2624585728	48	3806
2026-01-26 03:51:14.70	263.67	46.04	-38.2	-38.9	25.6	0.00e+00	0	43	0	2629828608	48	3814
2026-01-26 03:51:15.71	263.28	45.82	-38.1	-38.7	25.8	0.00e+00	0	43	0	2636120064	48	3731
2026-01-26 03:51:16.71	262.90	45.59	-38.1	-38.8	25.7	0.00e+00	0	44	0	2641362944	48	3740
2026-01-26 03:51:17.72	262.52	45.37	-38.0	-38.7	25.8	0.00e+00	0	44	0	2646605824	48	3735
2026-01-26 03:51:18.73	262.15	45.14	-38.1	-38.8	25.7	0.00e+00	0	43	0	2652897280	48	3745
2026-01-26 03:51:19.74	261.78	44.91	-37.6	-38.3	25.6	0.00e+00	0	44	0	2658140160	47	3759
2026-01-26 03:51:20.74	261.43	44.69	-37.7	-38.4	25.5	0.00e+00	0	44	0	2664431616	47	3799
2026-01-26 03:51:21.75	261.07	44.46	-37.4	-38.1	25.7	0.00e+00	0	43	0	2669674496	46	3896
2026-01-26 03:51:22.76	260.72	44.24	-37.3	-37.9	25.9	0.00e+00	0	44	0	2674917376	46	3812
2026-01-26 03:51:23.76	260.38	44.01	-37.3	-38.0	25.8	0.00e+00	0	44	0	2681208832	46	3862
2026-01-26 03:51:24.77	260.04	43.79	-37.7	-38.5	25.5	0.00e+00	0	44	0	2687500288	46	4052
2026-01-26 03:51:25.78	259.70	43.56	-37.9	-38.7	25.3	0.00e+00	0	44	0	2692743168	46	4151
2026-01-26 03:51:26.79	259.37	43.34	-37.9	-38.6	25.3	0.00e+00	0	44	0	2697986048	46	4134
2026-01-26 03:51:27.80	259.04	43.11	-37.8	-38.5	25.4	0.00e+00	0	44	0	2704277504	46	4098
2026-01-26 03:51:28.80	258.72	42.89	-37.4	-38.1	25.7	0.00e+00	0	44	0	2709520384	46	3880
2026-01-26 03:51:29.81	258.40	42.66	-37.3	-38.0	25.8	0.00e+00	0	43	0	2714763264	46	3847
2026-01-26 03:51:30.82	258.09	42.44	-37.4	-38.1	25.8	0.00e+00	0	44	0	2721054720	46	3881
2026-01-26 03:51:31.83	257.78	42.21	-37.3	-38.0	25.9	0.00e+00	0	43	0	2726297600	46	3843
2026-01-26 03:51:32.83	257.48	41.99	-37.4	-38.1	25.8	0.00e+00	0	44	0	2731540480	46	3876
2026-01-26 03:51:33.84	257.18	41.77	-37.5	-38.2	25.7	0.00e+00	0	44	0	2737831936	46	3918
2026-01-26 03:51:34.85	256.88	41.55	-37.4	-38.1	25.8	0.00e+00	0	43	0	2743074816	46	3875
2026-01-26 03:51:35.85	256.59	41.33	-37.5	-38.2	25.7	0.00e+00	0	44	0	2749366272	46	3920
2026-01-26 03:51:36.86	256.30	41.10	-37.6	-38.3	25.6	0.00e+00	0	44	0	2754609152	46	3960
2026-01-26 03:51:37.87	256.02	40.88	-37.4	-38.0	25.8	0.00e+00	0	44	0	2759852032	46	3863
2026-01-26 03:51:38.88	255.74	40.66	-37.5	-38.2	25.7	0.00e+00	0	44	0	2766143488	46	3940
2026-01-26 03:51:39.88	255.46	40.44	-37.5	-38.2	25.7	0.00e+00	0	44	0	2772434944	46	3929
2026-01-26 03:51:40.89	255.19	40.23	-37.3	-38.0	25.8	0.00e+00	0	44	0	2777677824	46	3863
2026-01-26 03:51:41.90	254.92	40.01	-37.2	-37.9	25.9	0.00e+00	0	43	0	2782920704	46	3789
2026-01-26 03:51:42.91	254.66	39.79	-37.2	-37.9	25.9	0.00e+00	0	43	0	2789212160	46	3814
2026-01-26 03:51:43.91	254.40	39.57	-37.2	-37.8	26.0	0.00e+00	0	44	0	2794455040	46	3780
2026-01-26 03:51:44.92	254.14	39.36	-37.0	-37.7	26.1	0.00e+00	0	44	0	2799697920	46	3721
2026-01-26 03:51:45.92	253.89	39.14	-37.1	-37.8	26.0	0.00e+00	0	44	0	2805989376	46	3746
2026-01-26 03:51:46.93	253.63	38.93	-37.1	-37.8	26.0	0.00e+00	0	43	0	2811232256	46	3741
2026-01-26 03:51:47.93	253.39	38.71	-37.2	-37.9	25.9	0.00e+00	0	44	0	2816475136	46	3794
2026-01-26 03:51:48.94	253.14	38.50	-37.1	-37.8	26.0	0.00e+00	0	44	0	2822766592	46	3753
2026-01-26 03:51:49.95	252.90	38.29	-37.1	-37.8	26.0	0.00e+00	0	44	0	2828009472	46	3755
2026-01-26 03:51:50.96	252.66	38.07	-37.1	-37.8	26.0	0.00e+00	0	44	0	2834300928	46	3774
2026-01-26 03:51:51.96	252.43	37.86	-37.3	-38.0	25.8	0.00e+00	0	44	0	2839543808	46	3829
2026-01-26 03:51:52.97	252.20	37.65	-37.3	-38.0	25.8	0.00e+00	0	43	0	2845835264	46	3859
2026-01-26 03:51:53.98	251.97	37.44	-37.4	-38.2	25.7	0.00e+00	0	43	0	2851078144	46	3918
2026-01-26 03:51:54.99	251.74	37.23	-37.4	-38.1	25.7	0.00e+00	0	44	0	2857369600	46	3905
2026-01-26 03:51:55.99	251.52	37.03	-37.4	-38.2	25.6	0.00e+00	0	44	0	2862612480	46	3916
2026-01-26 03:51:57.00	251.30	36.82	-37.5	-38.2	25.6	0.00e+00	0	44	0	2867855360	46	3930
2026-01-26 03:51:58.00	251.08	36.61	-37.4	-38.1	25.7	0.00e+00	0	43	0	2874146816	46	3877
2026-01-26 03:51:59.02	250.86	36.41	-37.5	-38.2	25.6	0.00e+00	0	44	0	2879389696	46	3921
2026-01-26 03:52:00.02	250.65	36.20	-37.3	-38.0	25.8	0.00e+00	0	43	0	2884632576	46	3846
2026-01-26 03:52:01.03	250.44	36.00	-37.3	-38.0	25.8	0.00e+00	0	44	0	2890924032	46	3853
2026-01-26 03:52:02.04	250.24	35.79	-37.2	-37.9	25.8	0.00e+00	0	44	0	2896166912	46	3795
2026-01-26 03:52:03.05	250.03	35.59	-37.2	-37.9	25.8	0.00e+00	0	43	0	2901409792	46	3804
2026-01-26 03:52:04.06	249.83	35.39	-37.2	-37.9	25.8	0.00e+00	0	44	0	2907701248	46	3811
2026-01-26 03:52:05.06	249.63	35.19	-37.3	-38.0	25.7	0.00e+00	0	44	0	2912944128	46	3859
2026-01-26 03:52:06.07	249.43	34.99	-37.4	-38.1	25.6	0.00e+00	0	43	0	2919235584	46	3908
2026-01-26 03:52:07.08	249.24	34.79	-37.6	-38.3	25.5	0.00e+00	0	44	0	2924478464	46	3987
2026-01-26 03:52:08.08	249.05	34.59	-37.6	-38.3	25.4	0.00e+00	0	44	0	2930769920	46	3993
2026-01-26 03:52:09.09	248.86	34.40	-37.6	-38.4	25.4	0.00e+00	0	43	0	2936012800	46	4008
2026-01-26 03:52:10.09	248.67	34.20	-37.5	-38.2	25.6	0.00e+00	0	44	0	2942304256	46	3919
2026-01-26 03:52:11.10	248.49	34.01	-37.3	-38.0	25.7	0.00e+00	0	44	0	2947547136	46	3849
2026-01-26 03:52:12.11	248.31	33.81	-37.4	-38.1	25.7	0.00e+00	0	44	0	2952790016	46	3878
2026-01-26 03:52:13.12	248.12	33.62	-37.2	-37.9	25.8	0.00e+00	0	43	0	2959081472	46	3794
2026-01-26 03:52:14.12	247.95	33.43	-37.2	-37.9	25.8	0.00e+00	0	44	0	2964324352	46	3815
2026-01-26 03:52:15.13	247.77	33.23	-37.1	-37.8	25.9	0.00e+00	0	44	0	2969567232	46	3775
2026-01-26 03:52:16.14	247.60	33.04	-37.3	-38.0	25.8	0.00e+00	0	44	0	2975858688	46	3831
2026-01-26 03:52:17.14	247.43	32.85	-37.3	-38.0	25.7	0.00e+00	0	43	0	2981101568	46	3854
2026-01-26 03:52:18.15	247.26	32.67	-37.2	-37.9	25.8	0.00e+00	0	44	0	2986344448	46	3816
2026-01-26 03:52:19.16	247.09	32.48	-37.3	-38.0	25.7	0.00e+00	0	44	0	2992635904	46	3864
2026-01-26 03:52:20.17	246.92	32.29	-37.4	-38.1	25.6	0.00e+00	0	44	0	2997878784	46	3909
2026-01-26 03:52:21.17	246.76	32.10	-37.4	-38.1	25.6	0.00e+00	0	44	0	3004170240	46	3907
2026-01-26 03:52:22.18	246.59	31.92	-37.5	-38.2	25.5	0.00e+00	0	44	0	3009413120	46	3956
2026-01-26 03:52:23.18	246.44	31.73	-37.6	-38.3	25.4	0.00e+00	0	44	0	3015704576	46	3987
2026-01-26 03:52:24.19	246.28	31.55	-37.6	-38.3	25.4	0.00e+00	0	43	0	3020947456	46	3973
2026-01-26 03:52:25.20	246.12	31.37	-37.5	-38.2	25.5	0.00e+00	0	44	0	3027238912	46	3955
2026-01-26 03:52:26.21	245.96	31.19	-37.5	-38.2	25.5	0.00e+00	0	43	0	3032481792	46	3922
2026-01-26 03:52:27.22	245.81	31.00	-37.5	-38.2	25.6	0.00e+00	0	44	0	3037724672	46	3923
2026-01-26 03:52:28.22	245.66	30.82	-37.4	-38.1	25.6	0.00e+00	0	43	0	3044016128	46	3891
2026-01-26 03:52:29.23	245.51	30.65	-37.4	-38.1	25.6	0.00e+00	0	44	0	3049259008	46	3906
2026-01-26 03:52:30.24	245.36	30.47	-37.5	-38.2	25.5	0.00e+00	0	44	0	3054501888	46	3929
2026-01-26 03:52:31.24	245.22	30.29	-37.6	-38.3	25.5	0.00e+00	0	44	0	3060793344	46	3963
2026-01-26 03:52:32.24	245.07	30.11	-37.6	-38.3	25.4	0.00e+00	0	44	0	3066036224	46	3991
2026-01-26 03:52:33.25	244.93	29.94	-37.6	-38.3	25.4	0.00e+00	0	44	0	3071279104	46	3982
2026-01-26 03:52:34.26	244.79	29.76	-37.7	-38.4	25.3	0.00e+00	0	43	0	3077570560	46	4048
2026-01-26 03:52:35.27	244.65	29.59	-37.7	-38.5	25.3	0.00e+00	0	44	0	3082813440	46	4052
2026-01-26 03:52:36.27	244.51	29.42	-37.7	-38.4	25.3	0.00e+00	0	44	0	3089104896	46	4040
2026-01-26 03:52:37.27	244.37	29.25	-37.7	-38.4	25.3	0.00e+00	0	44	0	3094347776	46	4044
2026-01-26 03:52:38.28	244.24	29.07	-37.8	-38.5	25.2	0.00e+00	0	43	0	3100639232	46	4072
2026-01-26 03:52:39.29	244.10	28.90	-37.9	-38.6	25.1	0.00e+00	0	44	0	3105882112	46	4115
2026-01-26 03:52:40.29	243.97	28.73	-37.9	-38.6	25.1	0.00e+00	0	43	0	3112173568	46	4118
2026-01-26 03:52:41.29	243.84	28.57	-37.8	-38.5	25.2	0.00e+00	0	44	0	3117416448	46	4087
2026-01-26 03:52:42.30	243.71	28.40	-37.8	-38.5	25.2	0.00e+00	0	44	0	3122659328	46	4064
2026-01-26 03:52:43.31	243.58	28.23	-37.7	-38.4	25.3	0.00e+00	0	44	0	3128950784	46	4039
2026-01-26 03:52:44.31	243.46	28.07	-37.7	-38.4	25.3	0.00e+00	0	44	0	3134193664	46	4037
2026-01-26 03:52:45.32	243.33	27.90	-37.7	-38.4	25.3	0.00e+00	0	43	0	3139436544	46	4027
2026-01-26 03:52:46.32	243.21	27.74	-37.7	-38.4	25.3	0.00e+00	0	44	0	3145728000	46	4022
2026-01-26 03:52:47.32	243.08	27.57	-37.7	-38.4	25.2	0.00e+00	0	44	0	3150970880	46	4032
2026-01-26 03:52:48.33	242.96	27.41	-37.7	-38.5	25.2	0.00e+00	0	44	0	3156213760	46	4054
2026-01-26 03:52:49.34	242.84	27.25	-37.7	-38.4	25.2	0.00e+00	0	44	0	3162505216	46	4046
2026-01-26 03:52:50.35	242.72	27.09	-37.7	-38.5	25.2	0.00e+00	0	44	0	3167748096	46	4057
2026-01-26 03:52:51.36	242.60	26.92	-37.8	-38.5	25.1	0.00e+00	0	44	0	3174039552	46	4096
2026-01-26 03:52:52.37	242.49	26.76	-37.8	-38.5	25.2	0.00e+00	0	43	0	3179282432	46	4064
2026-01-26 03:52:53.37	242.37	26.61	-37.8	-38.5	25.2	0.00e+00	0	43	0	3185573888	46	4073
2026-01-26 03:52:54.38	242.26	26.45	-37.8	-38.5	25.1	0.00e+00	0	44	0	3190816768	46	4087
2026-01-26 03:52:55.38	242.14	26.29	-37.7	-38.5	25.2	0.00e+00	0	43	0	3197108224	46	4057
2026-01-26 03:52:56.39	242.03	26.14	-37.7	-38.4	25.3	0.00e+00	0	44	0	3202351104	46	4021
2026-01-26 03:52:57.40	241.92	25.98	-37.8	-38.5	25.1	0.00e+00	0	43	0	3207593984	46	4070
2026-01-26 03:52:58.41	241.81	25.82	-37.6	-38.4	25.3	0.00e+00	0	44	0	3213885440	46	4006
2026-01-26 03:52:59.41	241.70	25.67	-37.6	-38.3	25.3	0.00e+00	0	44	0	3219128320	46	3987
2026-01-26 03:53:00.42	241.59	25.52	-37.6	-38.3	25.3	0.00e+00	0	44	0	3224371200	46	3990
2026-01-26 03:53:01.43	241.49	25.36	-37.6	-38.3	25.3	0.00e+00	0	44	0	3230662656	46	3989
2026-01-26 03:53:02.43	241.38	25.21	-37.6	-38.3	25.3	0.00e+00	0	44	0	3235905536	46	3988
2026-01-26 03:53:03.44	241.28	25.06	-37.6	-38.3	25.3	0.00e+00	0	44	0	3241148416	46	3991
2026-01-26 03:53:04.44	241.17	24.91	-37.6	-38.3	25.3	0.00e+00	0	43	0	3247439872	46	3996
2026-01-26 03:53:05.45	241.07	24.76	-37.7	-38.4	25.2	0.00e+00	0	44	0	3252682752	46	4006
2026-01-26 03:53:06.47	240.97	24.61	-37.7	-38.4	25.2	0.00e+00	0	44	0	3258974208	46	4045
2026-01-26 03:53:07.47	240.87	24.46	-37.8	-38.5	25.1	0.00e+00	0	44	0	3264217088	46	4095
2026-01-26 03:53:08.48	240.77	24.32	-37.8	-38.5	25.1	0.00e+00	0	43	0	3270508544	46	4081
2026-01-26 03:53:09.49	240.67	24.17	-37.8	-38.6	25.1	0.00e+00	0	43	0	3275751424	46	4101
2026-01-26 03:53:10.50	240.57	24.02	-37.9	-38.6	25.0	0.00e+00	0	43	0	3282042880	46	4137
2026-01-26 03:53:11.51	240.48	23.88	-37.9	-38.6	25.0	0.00e+00	0	44	0	3287285760	46	4145
2026-01-26 03:53:12.52	240.38	23.73	-38.0	-38.8	24.9	0.00e+00	0	44	0	3292528640	46	4202
2026-01-26 03:53:13.52	240.28	23.59	-38.1	-38.9	24.8	0.00e+00	0	44	0	3298820096	46	4253
2026-01-26 03:53:14.53	240.19	23.45	-38.0	-38.8	24.9	0.00e+00	0	44	0	3304062976	46	4212
2026-01-26 03:53:15.54	240.10	23.30	-38.2	-38.9	24.7	0.00e+00	0	44	0	3309305856	46	4280
2026-01-26 03:53:16.55	240.00	23.16	-38.2	-38.9	24.8	0.00e+00	0	44	0	3315597312	47	4025
2026-01-26 03:53:17.56	239.91	23.02	-38.1	-38.9	24.8	0.00e+00	0	43	0	3320840192	47	4019
2026-01-26 03:53:18.57	239.82	22.88	-38.1	-38.9	24.8	0.00e+00	0	43	0	3326083072	47	4011
2026-01-26 03:53:19.57	239.73	22.74	-38.2	-38.9	24.7	0.00e+00	0	44	0	3332374528	47	4038
2026-01-26 03:53:20.58	239.64	22.60	-38.1	-38.8	24.8	0.00e+00	0	43	0	3338665984	47	4004
2026-01-26 03:53:21.59	239.56	22.46	-38.2	-39.0	24.7	0.00e+00	0	43	0	3343908864	47	4055
2026-01-26 03:53:22.59	239.47	22.32	-38.1	-38.9	24.7	0.00e+00	0	44	0	3349151744	47	4013
2026-01-26 03:53:23.60	239.38	22.19	-38.1	-38.8	24.8	0.00e+00	0	44	0	3355443200	47	3980
2026-01-26 03:53:24.61	239.30	22.05	-38.1	-38.8	24.8	0.00e+00	0	43	0	3360686080	47	4001
2026-01-26 03:53:25.62	239.21	21.91	-38.1	-38.9	24.8	0.00e+00	0	44	0	3366977536	47	4008
2026-01-26 03:53:26.63	239.13	21.78	-38.2	-38.9	24.7	0.00e+00	0	43	0	3372220416	47	4023
2026-01-26 03:53:27.63	239.04	21.65	-38.2	-38.9	24.7	0.00e+00	0	43	0	3377463296	47	4039
2026-01-26 03:53:28.63	238.96	21.51	-38.1	-38.9	24.7	0.00e+00	0	43	0	3383754752	47	4017
2026-01-26 03:53:29.65	238.88	21.38	-38.2	-38.9	24.6	0.00e+00	0	44	0	3388997632	47	4050
2026-01-26 03:53:30.66	238.80	21.25	-38.2	-38.9	24.7	0.00e+00	0	44	0	3394240512	47	4026
2026-01-26 03:53:31.66	238.72	21.11	-38.2	-39.0	24.7	0.00e+00	0	43	0	3400531968	47	4052
2026-01-26 03:53:32.67	238.64	20.98	-38.3	-39.1	24.6	0.00e+00	0	43	0	3405774848	47	4108
2026-01-26 03:53:33.68	238.56	20.85	-38.3	-39.1	24.5	0.00e+00	0	43	0	3412066304	47	4109
2026-01-26 03:53:34.68	238.48	20.72	-38.3	-39.1	24.5	0.00e+00	0	44	0	3417309184	47	4116
2026-01-26 03:53:35.69	238.40	20.59	-38.3	-39.1	24.5	0.00e+00	0	43	0	3423600640	47	4113
2026-01-26 03:53:36.70	238.32	20.46	-38.5	-39.2	24.4	0.00e+00	0	44	0	3428843520	47	4165
2026-01-26 03:53:37.71	238.25	20.34	-38.5	-39.2	24.4	0.00e+00	0	44	0	3434086400	47	4186
2026-01-26 03:53:38.71	238.17	20.21	-38.4	-39.1	24.5	0.00e+00	0	44	0	3440377856	47	4133
2026-01-26 03:53:39.71	238.10	20.08	-38.5	-39.2	24.4	0.00e+00	0	44	0	3445620736	47	4168
2026-01-26 03:53:40.72	238.02	19.96	-38.5	-39.3	24.3	0.00e+00	0	43	0	3451912192	47	4216
2026-01-26 03:53:41.72	237.95	19.83	-38.6	-39.3	24.3	0.00e+00	0	44	0	3457155072	47	4223
2026-01-26 03:53:42.73	237.88	19.71	-38.6	-39.3	24.3	0.00e+00	0	43	0	3462397952	47	4240
2026-01-26 03:53:43.74	237.80	19.58	-38.7	-39.4	24.2	0.00e+00	0	44	0	3468689408	47	4275
2026-01-26 03:53:44.75	237.73	19.46	-39.1	-39.8	24.3	0.00e+00	0	44	0	3473932288	48	4230
2026-01-26 03:53:45.76	237.66	19.33	-39.1	-39.9	24.3	0.00e+00	0	44	0	3479175168	48	4258
2026-01-26 03:53:46.76	237.59	19.21	-39.3	-40.0	24.2	0.00e+00	0	43	0	3485466624	49	4071
2026-01-26 03:53:47.77	237.52	19.09	-39.3	-40.0	24.1	0.00e+00	0	44	0	3491758080	49	4082
2026-01-26 03:53:48.78	237.45	18.97	-39.3	-40.0	24.1	0.00e+00	0	44	0	3497000960	49	4093
2026-01-26 03:53:49.79	237.38	18.84	-39.4	-40.2	24.0	0.00e+00	0	44	0	3502243840	49	4154
2026-01-26 03:53:50.80	237.31	18.72	-39.4	-40.2	24.0	0.00e+00	0	44	0	3508535296	49	4163
2026-01-26 03:53:51.81	237.24	18.60	-39.6	-40.4	23.8	0.00e+00	0	44	0	3513778176	49	4249
2026-01-26 03:53:52.81	237.18	18.48	-39.6	-40.4	23.8	0.00e+00	0	43	0	3519021056	49	4245
2026-01-26 03:53:53.82	237.11	18.36	-39.7	-40.4	23.7	0.00e+00	0	43	0	3525312512	49	4288
2026-01-26 03:53:54.83	237.04	18.25	-39.7	-40.4	23.7	0.00e+00	0	43	0	3530555392	49	4284
2026-01-26 03:53:55.83	236.98	18.13	-39.6	-40.4	23.8	0.00e+00	0	44	0	3536846848	49	4272
2026-01-26 03:53:56.84	236.91	18.01	-39.6	-40.4	23.8	0.00e+00	0	43	0	3542089728	49	4272
2026-01-26 03:53:57.85	236.85	17.89	-39.7	-40.5	23.7	0.00e+00	0	43	0	3547332608	49	4295
2026-01-26 03:53:58.85	236.79	17.78	-39.6	-40.4	23.8	0.00e+00	0	44	0	3553624064	49	4264
2026-01-26 03:53:59.86	236.72	17.66	-39.7	-40.4	23.7	0.00e+00	0	43	0	3558866944	49	4286
2026-01-26 03:54:00.87	236.66	17.55	-39.6	-40.3	23.8	0.00e+00	0	43	0	3564109824	49	4242
2026-01-26 03:54:01.88	236.60	17.43	-39.7	-40.4	23.7	0.00e+00	0	43	0	3570401280	49	4286
2026-01-26 03:54:02.89	236.53	17.32	-39.7	-40.4	23.7	0.00e+00	0	43	0	3576692736	49	4271
2026-01-26 03:54:03.89	236.47	17.20	-39.7	-40.4	23.7	0.00e+00	0	43	0	3581935616	50	4049
2026-01-26 03:54:04.90	236.41	17.09	-39.7	-40.4	23.8	0.00e+00	0	44	0	3587178496	50	4025
2026-01-26 03:54:05.91	236.35	16.97	-39.7	-40.4	23.7	0.00e+00	0	44	0	3593469952	50	4047
2026-01-26 03:54:06.92	236.29	16.86	-39.7	-40.4	23.7	0.00e+00	0	43	0	3598712832	50	4051
2026-01-26 03:54:07.93	236.23	16.75	-39.7	-40.4	23.7	0.00e+00	0	44	0	3603955712	50	4051
2026-01-26 03:54:08.93	236.17	16.64	-39.8	-40.5	23.6	0.00e+00	0	44	0	3610247168	50	4082
2026-01-26 03:54:09.94	236.11	16.53	-39.8	-40.5	23.6	0.00e+00	0	44	0	3615490048	50	4094
2026-01-26 03:54:10.95	236.05	16.42	-40.0	-40.7	23.4	0.00e+00	0	43	0	3621781504	50	4192
2026-01-26 03:54:11.96	236.00	16.31	-40.1	-40.8	23.3	0.00e+00	0	43	0	3627024384	50	4228
2026-01-26 03:54:12.97	235.94	16.20	-40.0	-40.8	23.3	0.00e+00	0	44	0	3632267264	50	4223
2026-01-26 03:54:13.98	235.88	16.09	-40.2	-41.0	23.2	0.00e+00	0	44	0	3638558720	51	4084
2026-01-26 03:54:14.98	235.83	15.98	-40.2	-40.9	23.2	0.00e+00	0	44	0	3644850176	51	4044
2026-01-26 03:54:15.99	235.77	15.87	-40.2	-41.0	23.1	0.00e+00	0	44	0	3650093056	51	4080
2026-01-26 03:54:17.00	235.71	15.76	-40.3	-41.1	23.1	0.00e+00	0	44	0	3655335936	51	4106
2026-01-26 03:54:18.01	235.66	15.65	-40.2	-41.0	23.1	0.00e+00	0	43	0	3661627392	51	4094
2026-01-26 03:54:19.02	235.60	15.55	-40.3	-41.1	23.1	0.00e+00	0	44	0	3666870272	51	4135
2026-01-26 03:54:20.03	235.55	15.44	-40.3	-41.1	23.1	0.00e+00	0	43	0	3672113152	51	4122
2026-01-26 03:54:21.03	235.49	15.34	-40.4	-41.2	23.0	0.00e+00	0	44	0	3678404608	51	4155
2026-01-26 03:54:22.04	235.44	15.23	-40.3	-41.1	23.0	0.00e+00	0	44	0	3683647488	51	4141
2026-01-26 03:54:23.05	235.39	15.12	-40.4	-41.2	23.0	0.00e+00	0	44	0	3688890368	51	4151
2026-01-26 03:54:24.06	235.33	15.02	-40.4	-41.2	22.9	0.00e+00	0	44	0	3695181824	51	4183
2026-01-26 03:54:25.07	235.28	14.91	-40.4	-41.2	22.9	0.00e+00	0	43	0	3700424704	51	4171
2026-01-26 03:54:26.08	235.23	14.81	-40.4	-41.2	22.9	0.00e+00	0	44	0	3706716160	51	4180
