passes_logs/2026/01/26/R3.2S_Murmansk/R3.2S_Murmansk__20260126_130800_NOAA_20_JPSS-1_rec.log

#Pass ID: 20260126_130800_NOAA 20 (JPSS-1)
#Satellite: NOAA 20 (JPSS-1)
#Configuration: NOAA 20
#almurnet v.1.7.20251203
#Start time: 2026-01-26 13:08:00

#Version: 2.2.20231116
#Station: R3.2S_Murmansk
#Location: 33.079688 lon 68.888172 lat
#TLE: 1 43013U 17073A   26025.90277267  .00000170  00000+0  10165-3 0  9997
#TLE: 2 43013  98.7646 326.7276 0001032  23.5492 336.5731 14.19540457424285

#Time	Az	El	Level	Level2	SNR	BER	BlckErr	Temp	State	Recorded	gain1	gain2
2026-01-26 13:08:00.30	246.48	1.97	-52.9	-67.9	3.8	1.49e+00	0	41	0	0	76	21351
2026-01-26 13:08:01.30	246.59	2.02	-52.9	-67.9	3.8	1.49e+00	0	41	104	0	76	21387
2026-01-26 13:08:02.31	246.69	2.06	-52.9	-67.9	3.8	1.49e+00	0	41	104	0	76	21390
2026-01-26 13:08:03.32	246.79	2.10	-52.9	-67.9	3.8	1.49e+00	0	41	104	0	76	21400
2026-01-26 13:08:04.33	246.90	2.15	-52.9	-67.9	3.8	1.49e+00	0	41	104	0	76	21373
2026-01-26 13:08:05.33	247.00	2.19	-52.9	-67.9	3.8	1.49e+00	0	41	104	0	76	21408
2026-01-26 13:08:06.34	247.10	2.23	-52.9	-67.9	3.8	1.49e+00	0	41	104	0	76	21394
2026-01-26 13:08:07.35	247.21	2.28	-52.9	-67.9	3.8	1.49e+00	0	42	104	0	76	21353
2026-01-26 13:08:08.35	247.31	2.32	-52.9	-67.9	3.8	1.49e+00	0	41	104	0	76	21420
2026-01-26 13:08:09.36	247.42	2.36	-52.9	-67.9	3.8	1.49e+00	0	41	104	0	76	21409
2026-01-26 13:08:10.37	247.52	2.41	-52.9	-67.9	3.8	1.49e+00	0	41	104	0	76	21410
2026-01-26 13:08:11.38	247.63	2.45	-52.9	-67.9	3.8	1.49e+00	0	42	104	0	76	21422
2026-01-26 13:08:12.39	247.73	2.49	-52.9	-67.9	3.8	1.49e+00	0	42	104	0	76	21357
2026-01-26 13:08:13.40	247.84	2.54	-52.9	-67.9	3.8	1.49e+00	0	42	104	0	76	21375
2026-01-26 13:08:14.41	247.95	2.58	-52.9	-67.9	3.8	1.49e+00	0	42	104	0	76	21355
2026-01-26 13:08:15.41	248.05	2.62	-52.9	-67.9	3.8	1.49e+00	0	42	104	0	76	21385
2026-01-26 13:08:16.42	248.16	2.67	-52.9	-67.9	3.8	1.49e+00	0	42	104	0	76	21387
2026-01-26 13:08:17.43	248.27	2.71	-52.9	-67.9	3.8	1.49e+00	0	42	104	0	76	21395
2026-01-26 13:08:18.43	248.37	2.75	-52.9	-67.9	3.8	1.49e+00	0	42	104	0	76	21334
2026-01-26 13:08:19.44	248.48	2.79	-52.9	-67.9	3.8	1.49e+00	0	42	104	0	76	21366
2026-01-26 13:08:20.45	248.59	2.84	-52.9	-67.9	3.8	1.49e+00	0	42	104	0	76	21336
2026-01-26 13:08:21.45	248.70	2.88	-52.9	-67.9	3.8	1.49e+00	0	42	104	0	76	21394
2026-01-26 13:08:22.45	248.80	2.92	-52.9	-67.9	3.8	1.49e+00	0	42	104	0	76	21378
2026-01-26 13:08:23.46	248.91	2.97	-52.9	-67.9	3.8	1.49e+00	0	42	104	0	76	21396
2026-01-26 13:08:24.47	249.02	3.01	-52.9	-67.9	3.8	1.49e+00	0	42	104	0	76	21339
2026-01-26 13:08:25.48	249.13	3.05	-52.9	-67.9	3.8	1.49e+00	0	42	104	0	76	21396
2026-01-26 13:08:26.49	249.24	3.10	-52.9	-67.9	3.8	1.49e+00	0	42	104	0	76	21400
2026-01-26 13:08:27.49	249.35	3.14	-52.9	-67.9	3.8	1.49e+00	0	42	104	0	76	21389
2026-01-26 13:08:28.50	249.46	3.18	-52.9	-67.9	3.8	1.49e+00	0	42	104	0	76	21370
2026-01-26 13:08:29.50	249.57	3.22	-52.9	-67.9	3.8	1.49e+00	0	42	104	0	76	21401
2026-01-26 13:08:30.51	249.69	3.27	-52.9	-67.9	3.8	1.49e+00	0	42	104	0	76	21363
2026-01-26 13:08:31.52	249.80	3.31	-52.9	-67.9	3.8	1.49e+00	0	42	104	0	76	21403
2026-01-26 13:08:32.53	249.91	3.35	-52.9	-67.9	3.8	1.49e+00	0	42	104	0	76	21320
2026-01-26 13:08:33.54	250.02	3.40	-52.9	-67.9	3.8	1.49e+00	0	42	104	0	76	21394
2026-01-26 13:08:34.55	250.13	3.44	-52.9	-67.9	3.8	1.49e+00	0	42	104	0	76	21391
2026-01-26 13:08:35.55	250.25	3.48	-52.9	-67.9	3.8	1.49e+00	0	42	104	0	76	21438
2026-01-26 13:08:36.56	250.36	3.52	-52.9	-67.9	3.8	1.49e+00	0	42	104	0	76	21398
2026-01-26 13:08:37.57	250.47	3.57	-52.9	-67.9	3.8	1.49e+00	0	42	104	0	76	21433
2026-01-26 13:08:38.57	250.59	3.61	-52.9	-67.9	3.8	1.49e+00	0	42	104	0	76	21383
2026-01-26 13:08:39.57	250.70	3.65	-52.9	-67.9	3.8	1.49e+00	0	42	104	0	76	21354
2026-01-26 13:08:40.58	250.81	3.70	-52.9	-67.9	3.8	1.49e+00	0	42	104	0	76	21377
2026-01-26 13:08:41.59	250.93	3.74	-52.9	-67.9	3.8	1.49e+00	0	42	104	0	76	21351
2026-01-26 13:08:42.60	251.04	3.78	-52.9	-67.9	3.8	1.49e+00	0	42	104	0	76	21372
2026-01-26 13:08:43.60	251.16	3.82	-52.9	-67.9	3.8	1.49e+00	0	42	104	0	76	21400
2026-01-26 13:08:44.61	251.27	3.87	-52.9	-67.9	3.8	1.49e+00	0	42	104	0	76	21370
2026-01-26 13:08:45.62	251.39	3.91	-52.9	-67.9	3.8	1.49e+00	0	42	104	0	76	21364
2026-01-26 13:08:46.63	251.51	3.95	-52.9	-67.9	3.8	1.49e+00	0	42	104	0	76	21373
2026-01-26 13:08:47.64	251.62	3.99	-52.9	-67.9	3.8	1.49e+00	0	42	104	0	76	21362
2026-01-26 13:08:48.65	251.74	4.04	-52.9	-67.9	3.8	1.49e+00	0	42	104	0	76	21350
2026-01-26 13:08:49.65	251.86	4.08	-52.9	-67.9	3.8	1.49e+00	0	42	104	0	76	21420
2026-01-26 13:08:50.66	251.97	4.12	-52.9	-67.9	3.8	1.49e+00	0	42	104	0	76	21388
2026-01-26 13:08:51.67	252.09	4.16	-52.9	-67.9	3.8	1.49e+00	0	42	104	0	76	21421
2026-01-26 13:08:52.67	252.21	4.21	-52.9	-67.9	3.8	1.49e+00	0	42	104	0	76	21422
2026-01-26 13:08:53.68	252.33	4.25	-52.9	-67.9	3.8	1.49e+00	0	42	104	0	76	21428
2026-01-26 13:08:54.69	252.45	4.29	-52.9	-67.9	3.8	1.49e+00	0	42	104	0	76	21391
2026-01-26 13:08:55.69	252.56	4.33	-52.9	-67.9	3.8	1.49e+00	0	42	104	0	76	21429
2026-01-26 13:08:56.70	252.68	4.37	-53.2	-68.2	3.8	1.49e+00	0	42	104	0	76	22080
2026-01-26 13:08:57.71	252.80	4.42	-53.5	-68.5	3.8	1.49e+00	0	43	104	0	77	21580
2026-01-26 13:08:58.71	252.92	4.46	-53.7	-68.7	3.8	1.49e+00	0	42	104	0	77	22067
2026-01-26 13:08:59.72	253.04	4.50	-53.9	-68.8	3.8	1.49e+00	0	43	104	0	78	21158
2026-01-26 13:09:00.73	253.17	4.54	-53.9	-68.9	3.8	1.49e+00	0	42	104	0	78	21366
2026-01-26 13:09:01.74	253.29	4.59	-54.0	-69.0	3.8	1.49e+00	0	43	104	0	78	21538
2026-01-26 13:09:02.75	253.41	4.63	-54.1	-69.0	3.8	1.49e+00	0	43	104	0	78	21711
2026-01-26 13:09:03.76	253.53	4.67	-54.1	-69.1	3.8	1.49e+00	0	43	104	0	78	21937
2026-01-26 13:09:04.77	253.65	4.71	-54.2	-69.1	3.8	1.49e+00	0	43	104	0	78	21978
2026-01-26 13:09:05.77	253.77	4.75	-54.2	-69.2	3.8	1.49e+00	0	43	104	0	78	22113
2026-01-26 13:09:06.78	253.90	4.80	-54.2	-69.2	3.8	1.49e+00	0	43	104	0	79	20991
2026-01-26 13:09:07.79	254.02	4.84	-54.3	-69.3	3.8	1.49e+00	0	43	104	0	79	21055
2026-01-26 13:09:08.79	254.14	4.88	-54.3	-69.3	3.8	1.49e+00	0	43	104	0	79	21089
2026-01-26 13:09:09.80	254.27	4.92	-54.3	-69.3	3.8	1.49e+00	0	43	104	0	79	21139
2026-01-26 13:09:10.81	254.39	4.96	-54.3	-69.3	3.8	1.49e+00	0	43	104	0	79	21127
2026-01-26 13:09:11.81	254.52	5.00	-54.4	-69.3	3.8	1.49e+00	0	43	104	0	79	21232
2026-01-26 13:09:12.82	254.64	5.05	-54.4	-69.4	3.8	1.49e+00	0	43	104	0	79	21296
2026-01-26 13:09:13.83	254.77	5.09	-54.4	-69.4	3.8	1.49e+00	0	43	104	0	79	21300
2026-01-26 13:09:14.84	254.89	5.13	-54.4	-69.4	3.8	1.49e+00	0	43	104	0	79	21301
2026-01-26 13:09:15.85	255.02	5.17	-54.4	-69.4	3.8	1.49e+00	0	43	104	0	79	21375
2026-01-26 13:09:16.85	255.14	5.21	-54.4	-69.4	3.8	1.49e+00	0	43	104	0	79	21427
2026-01-26 13:09:17.86	255.27	5.25	-54.4	-69.4	3.8	1.49e+00	0	43	104	0	79	21361
2026-01-26 13:09:18.87	255.40	5.29	-54.4	-69.4	3.8	1.49e+00	0	43	104	0	79	21373
2026-01-26 13:09:19.88	255.52	5.34	-54.4	-69.4	3.8	1.49e+00	0	43	104	0	79	21361
2026-01-26 13:09:20.89	255.65	5.38	-54.4	-69.4	3.8	1.49e+00	0	43	104	0	79	21270
2026-01-26 13:09:21.89	255.78	5.42	-54.4	-69.4	3.8	1.49e+00	0	43	104	0	79	21293
2026-01-26 13:09:22.90	255.91	5.46	-54.4	-69.3	3.8	1.49e+00	0	43	104	0	79	21237
2026-01-26 13:09:23.91	256.04	5.50	-54.3	-69.3	3.8	1.49e+00	0	43	104	0	79	21160
2026-01-26 13:09:24.92	256.17	5.54	-54.3	-69.3	3.8	1.49e+00	0	43	104	0	79	21223
2026-01-26 13:09:25.93	256.30	5.58	-54.3	-69.3	3.8	1.49e+00	0	43	104	0	79	21222
2026-01-26 13:09:26.94	256.43	5.62	-54.3	-69.3	3.8	1.49e+00	0	43	104	0	79	21208
2026-01-26 13:09:27.95	256.56	5.66	-54.3	-69.3	3.8	1.49e+00	0	43	104	0	79	21068
2026-01-26 13:09:28.96	256.69	5.71	-54.3	-69.2	3.8	1.49e+00	0	43	104	0	79	20997
2026-01-26 13:09:29.97	256.82	5.75	-54.3	-69.3	3.8	1.49e+00	0	43	104	0	79	21027
2026-01-26 13:09:30.97	256.95	5.79	-54.2	-69.2	3.8	1.49e+00	0	43	104	0	79	20985
2026-01-26 13:09:31.98	257.08	5.83	-54.2	-69.2	3.8	1.49e+00	0	43	104	0	79	21006
2026-01-26 13:09:32.99	257.21	5.87	-54.2	-69.3	3.8	1.49e+00	0	43	104	0	79	21035
2026-01-26 13:09:34.00	257.34	5.91	-54.3	-69.2	3.8	1.49e+00	0	43	104	0	79	20974
2026-01-26 13:09:35.01	257.48	5.95	-54.3	-69.3	3.8	1.49e+00	0	43	104	0	79	21091
2026-01-26 13:09:36.01	257.61	5.99	-54.3	-69.3	3.8	1.49e+00	0	43	104	0	79	21079
2026-01-26 13:09:37.02	257.74	6.03	-54.3	-69.2	3.8	1.49e+00	0	43	104	0	79	20968
2026-01-26 13:09:38.02	257.87	6.07	-54.2	-69.2	3.8	1.49e+00	0	43	104	0	79	20973
2026-01-26 13:09:39.03	258.01	6.11	-54.2	-69.2	3.8	1.49e+00	0	43	104	0	79	20964
2026-01-26 13:09:40.04	258.14	6.15	-54.2	-69.2	3.8	1.49e+00	0	43	104	0	79	20935
2026-01-26 13:09:41.05	258.28	6.19	-54.2	-69.2	3.8	1.49e+00	0	43	104	0	79	20925
2026-01-26 13:09:42.06	258.41	6.23	-54.2	-69.2	3.8	1.49e+00	0	43	104	0	79	20919
2026-01-26 13:09:43.07	258.55	6.27	-54.2	-69.2	3.8	1.49e+00	0	43	104	0	79	20866
2026-01-26 13:09:44.08	258.68	6.31	-54.2	-69.2	3.8	1.49e+00	0	43	104	0	79	20814
2026-01-26 13:09:45.09	258.82	6.35	-54.2	-69.2	3.8	1.49e+00	0	43	104	0	79	20834
2026-01-26 13:09:46.10	258.96	6.39	-54.2	-69.2	3.8	1.49e+00	0	43	104	0	79	20807
2026-01-26 13:09:47.10	259.09	6.43	-54.2	-69.2	3.8	1.49e+00	0	43	104	0	79	20826
2026-01-26 13:09:48.11	259.23	6.47	-54.2	-69.1	3.8	1.49e+00	0	43	104	0	79	20754
2026-01-26 13:09:49.12	259.37	6.51	-54.2	-69.1	3.8	1.49e+00	0	43	104	0	79	20741
2026-01-26 13:09:50.13	259.51	6.55	-54.2	-69.1	3.8	1.49e+00	0	43	104	0	79	20736
2026-01-26 13:09:51.13	259.64	6.59	-54.1	-69.1	3.8	1.49e+00	0	43	104	0	79	20740
2026-01-26 13:09:52.14	259.78	6.62	-54.2	-69.1	3.8	1.49e+00	0	43	104	0	79	20689
2026-01-26 13:09:53.14	259.92	6.66	-54.2	-69.1	3.8	1.49e+00	0	43	104	0	79	20752
2026-01-26 13:09:54.15	260.06	6.70	-54.1	-69.1	3.8	1.49e+00	0	43	104	0	79	20747
2026-01-26 13:09:55.16	260.20	6.74	-54.1	-69.1	3.8	1.49e+00	0	43	104	0	79	20721
2026-01-26 13:09:56.17	260.34	6.78	-54.1	-69.1	3.8	1.49e+00	0	43	104	0	79	20686
2026-01-26 13:09:57.18	260.48	6.82	-54.3	-69.3	3.8	1.49e+00	0	43	104	0	79	21124
2026-01-26 13:09:58.19	260.62	6.86	-54.4	-69.4	3.8	1.49e+00	0	43	104	0	79	21407
2026-01-26 13:09:59.20	260.76	6.90	-54.5	-69.4	3.8	1.49e+00	0	43	104	0	79	21493
2026-01-26 13:10:00.21	260.90	6.94	-54.5	-69.5	3.8	1.49e+00	0	43	104	0	79	21554
2026-01-26 13:10:01.22	261.05	6.97	-54.5	-69.5	3.8	1.49e+00	0	43	104	0	79	21553
2026-01-26 13:10:02.23	261.19	7.01	-54.5	-69.4	3.8	1.49e+00	0	43	104	0	79	21433
2026-01-26 13:10:03.24	261.33	7.05	-54.4	-69.4	3.8	1.49e+00	0	43	104	0	79	21453
2026-01-26 13:10:04.24	261.47	7.09	-54.4	-69.4	3.8	1.49e+00	0	43	104	0	79	21278
2026-01-26 13:10:05.25	261.62	7.13	-54.3	-69.3	3.8	1.49e+00	0	43	104	0	79	21173
2026-01-26 13:10:06.26	261.76	7.16	-54.3	-69.3	3.8	1.49e+00	0	43	104	0	79	21098
2026-01-26 13:10:07.27	261.90	7.20	-54.2	-69.3	3.8	1.49e+00	0	43	104	0	79	21021
2026-01-26 13:10:08.27	262.05	7.24	-54.2	-69.2	3.8	1.49e+00	0	43	104	0	79	20816
2026-01-26 13:10:09.28	262.19	7.28	-54.1	-69.1	3.8	1.49e+00	0	43	104	0	79	20657
2026-01-26 13:10:10.29	262.34	7.32	-53.7	-68.7	3.8	1.49e+00	0	43	104	0	78	21013
2026-01-26 13:10:11.30	262.48	7.35	-54.0	-68.9	3.8	1.49e+00	0	43	104	0	78	21499
2026-01-26 13:10:12.31	262.63	7.39	-53.9	-68.8	3.8	1.49e+00	0	43	104	0	78	21227
2026-01-26 13:10:13.32	262.77	7.43	-53.8	-68.7	3.8	1.49e+00	0	43	104	0	78	20989
2026-01-26 13:10:14.33	262.92	7.47	-53.7	-68.6	3.8	1.49e+00	0	43	104	0	78	20751
2026-01-26 13:10:15.33	263.07	7.50	-53.5	-68.4	3.8	1.49e+00	0	43	104	0	78	20199
2026-01-26 13:10:16.34	263.21	7.54	-53.3	-68.1	3.8	1.49e+00	0	43	104	0	78	19424
2026-01-26 13:10:17.35	263.36	7.58	-53.2	-68.1	3.8	1.49e+00	0	43	104	0	78	19559
2026-01-26 13:10:18.36	263.51	7.61	-52.1	-58.6	7.2	1.49e+00	0	43	104	0	76	7297
2026-01-26 13:10:19.37	263.66	7.65	-47.7	-49.6	17.2	0.00e+00	0	43	0	1048576	66	4635
2026-01-26 13:10:20.38	263.81	7.69	-47.6	-49.6	17.3	0.00e+00	0	43	0	3145728	66	4611
2026-01-26 13:10:21.39	263.96	7.72	-48.3	-50.6	16.3	0.00e+00	0	43	0	4194304	67	4885
2026-01-26 13:10:22.39	264.10	7.76	-50.1	-53.5	13.1	1.29e-02	0	43	0	6291456	72	5115
2026-01-26 13:10:23.40	264.25	7.80	-50.7	-54.7	12.2	2.91e-04	0	43	0	8388608	72	5906
2026-01-26 13:10:24.41	264.40	7.83	-49.2	-52.0	14.7	3.03e-02	0	43	0	10485760	70	4817
2026-01-26 13:10:25.41	264.55	7.87	-47.6	-49.6	17.3	0.00e+00	0	43	0	12582912	66	4618
2026-01-26 13:10:26.42	264.70	7.90	-47.3	-49.2	17.6	0.00e+00	0	43	0	14680064	66	4406
2026-01-26 13:10:27.43	264.86	7.94	-47.4	-49.3	17.6	0.00e+00	0	43	0	15728640	66	4458
2026-01-26 13:10:28.44	265.01	7.97	-47.4	-49.3	17.6	0.00e+00	0	43	0	17825792	66	4451
2026-01-26 13:10:29.45	265.16	8.01	-47.3	-49.2	17.6	0.00e+00	0	43	0	19922944	66	4412
2026-01-26 13:10:30.45	265.31	8.04	-47.2	-49.1	17.8	0.00e+00	0	43	0	22020096	66	4348
2026-01-26 13:10:31.45	265.46	8.08	-47.3	-49.1	17.7	0.00e+00	0	43	0	23068672	66	4372
2026-01-26 13:10:32.46	265.61	8.12	-47.3	-49.1	17.8	0.00e+00	0	43	0	25165824	66	4365
2026-01-26 13:10:33.47	265.77	8.15	-47.2	-49.1	17.8	0.00e+00	0	43	0	27262976	66	4372
2026-01-26 13:10:34.47	265.92	8.18	-47.3	-49.1	17.7	0.00e+00	0	43	0	29360128	66	4391
2026-01-26 13:10:35.48	266.07	8.22	-47.3	-49.1	17.7	0.00e+00	0	43	0	31457280	66	4387
2026-01-26 13:10:36.49	266.23	8.25	-47.3	-49.1	17.6	0.00e+00	0	43	0	32505856	66	4384
2026-01-26 13:10:37.49	266.38	8.29	-47.3	-49.1	17.7	0.00e+00	0	43	0	34603008	66	4384
2026-01-26 13:10:38.50	266.54	8.32	-47.3	-49.2	17.6	0.00e+00	0	43	0	36700160	66	4416
2026-01-26 13:10:39.51	266.69	8.36	-47.4	-49.4	17.2	0.00e+00	0	43	0	38797312	66	4545
2026-01-26 13:10:40.51	266.85	8.39	-47.6	-49.7	17.0	0.00e+00	0	43	0	40894464	66	4652
2026-01-26 13:10:41.53	267.01	8.43	-47.9	-50.1	16.4	0.00e+00	0	43	0	42991616	66	4923
2026-01-26 13:10:42.53	267.16	8.46	-48.2	-50.8	15.5	0.00e+00	0	43	0	44040192	67	5028
2026-01-26 13:10:43.54	267.32	8.49	-48.6	-51.5	14.6	0.00e+00	0	43	0	46137344	67	5428
2026-01-26 13:10:44.55	267.47	8.53	-48.9	-52.2	13.8	2.20e-06	0	43	0	48234496	68	5576
2026-01-26 13:10:45.56	267.63	8.56	-49.1	-52.7	13.0	7.60e-06	0	43	0	50331648	68	5906
2026-01-26 13:10:46.57	267.79	8.59	-49.4	-53.6	11.9	2.11e-04	0	43	0	51380224	69	6149
2026-01-26 13:10:47.57	267.95	8.63	-49.6	-54.2	11.0	9.73e-04	0	43	0	53477376	69	6639
2026-01-26 13:10:48.58	268.11	8.66	-49.9	-55.3	9.8	4.61e-03	0	43	0	55574528	70	7102
2026-01-26 13:10:49.58	268.26	8.69	-50.2	-56.5	8.4	1.90e-02	0	43	0	57671680	70	8144
2026-01-26 13:10:50.59	268.42	8.72	-50.4	-57.6	7.3	9.62e-02	0	43	0	59768832	71	8756
2026-01-26 13:10:51.60	268.58	8.76	-50.6	-58.6	6.5	1.95e-01	0	43	0	60817408	71	9772
2026-01-26 13:10:52.60	268.74	8.79	-50.7	-58.8	6.3	2.51e-01	0	43	0	62914560	71	9978
2026-01-26 13:10:53.61	268.90	8.82	-50.6	-58.1	6.9	2.19e-01	0	43	0	65011712	71	9254
2026-01-26 13:10:54.62	269.06	8.85	-50.5	-57.3	7.8	1.01e-01	0	43	0	67108864	71	8451
2026-01-26 13:10:55.63	269.22	8.89	-50.4	-57.0	8.1	7.19e-02	0	44	0	69206016	71	8133
2026-01-26 13:10:56.63	269.38	8.92	-51.2	-59.8	6.2	6.08e-02	0	43	0	71303168	72	10605
2026-01-26 13:10:57.64	269.54	8.95	-51.4	-62.0	4.6	6.03e-01	0	43	0	72351744	74	12217
2026-01-26 13:10:58.65	269.71	8.98	-49.6	-53.7	12.0	1.08e+00	0	43	0	73400320	71	5550
2026-01-26 13:10:59.65	269.87	9.01	-49.8	-53.9	12.0	2.74e-03	0	43	0	75497472	71	5688
2026-01-26 13:11:00.66	270.03	9.04	-49.3	-52.7	13.4	4.19e-05	0	43	0	77594624	70	5275
2026-01-26 13:11:01.67	270.19	9.07	-49.1	-52.1	14.3	7.00e-07	0	43	0	79691776	70	4900
2026-01-26 13:11:02.68	270.36	9.10	-48.9	-51.6	15.0	7.00e-07	0	43	0	81788928	69	4894
2026-01-26 13:11:03.69	270.52	9.13	-48.5	-51.0	15.7	0.00e+00	0	43	0	82837504	69	4568
2026-01-26 13:11:04.69	270.68	9.17	-48.3	-50.6	16.2	0.00e+00	0	43	0	84934656	68	4633
2026-01-26 13:11:05.70	270.85	9.20	-48.4	-50.7	16.2	0.00e+00	0	43	0	87031808	68	4658
2026-01-26 13:11:06.70	271.01	9.23	-48.0	-50.1	16.7	0.00e+00	0	43	0	89128960	68	4377
2026-01-26 13:11:07.71	271.18	9.26	-47.6	-49.6	17.2	0.00e+00	0	43	0	91226112	67	4359
2026-01-26 13:11:08.71	271.34	9.29	-47.6	-49.5	17.3	0.00e+00	0	43	0	92274688	67	4327
2026-01-26 13:11:09.71	271.50	9.31	-47.4	-49.3	17.6	0.00e+00	0	43	0	94371840	66	4444
2026-01-26 13:11:10.71	271.67	9.34	-47.6	-49.5	17.4	0.00e+00	0	43	0	96468992	66	4596
2026-01-26 13:11:11.72	271.83	9.37	-47.5	-49.5	17.5	0.00e+00	0	43	0	98566144	66	4555
2026-01-26 13:11:12.72	272.00	9.40	-47.6	-49.6	17.4	0.00e+00	0	43	0	100663296	66	4608
2026-01-26 13:11:13.73	272.17	9.43	-47.5	-49.4	17.5	0.00e+00	0	43	0	101711872	66	4533
2026-01-26 13:11:14.74	272.33	9.46	-47.5	-49.4	17.6	0.00e+00	0	43	0	103809024	66	4501
2026-01-26 13:11:15.74	272.50	9.49	-47.3	-49.1	17.9	0.00e+00	0	43	0	105906176	66	4356
2026-01-26 13:11:16.75	272.67	9.52	-47.1	-48.9	18.1	0.00e+00	0	43	0	108003328	66	4269
2026-01-26 13:11:17.76	272.84	9.55	-47.3	-49.1	17.9	0.00e+00	0	43	0	110100480	66	4344
2026-01-26 13:11:18.76	273.00	9.57	-47.2	-49.0	18.0	0.00e+00	0	43	0	111149056	66	4318
2026-01-26 13:11:19.77	273.17	9.60	-47.3	-49.1	17.8	0.00e+00	0	43	0	113246208	66	4384
2026-01-26 13:11:20.78	273.34	9.63	-47.3	-49.2	17.8	0.00e+00	0	43	0	115343360	66	4406
2026-01-26 13:11:21.79	273.51	9.66	-47.4	-49.3	17.7	0.00e+00	0	43	0	117440512	66	4464
2026-01-26 13:11:22.79	273.68	9.68	-47.4	-49.2	17.7	0.00e+00	0	43	0	118489088	66	4429
2026-01-26 13:11:23.80	273.85	9.71	-47.3	-49.1	17.9	0.00e+00	0	43	0	120586240	66	4371
2026-01-26 13:11:24.80	274.02	9.74	-47.4	-49.2	17.8	0.00e+00	0	43	0	122683392	66	4419
2026-01-26 13:11:25.81	274.19	9.76	-47.4	-49.2	17.8	0.00e+00	0	43	0	124780544	66	4426
2026-01-26 13:11:26.82	274.36	9.79	-47.4	-49.2	17.8	0.00e+00	0	43	0	126877696	66	4416
2026-01-26 13:11:27.82	274.53	9.82	-47.5	-49.4	17.6	0.00e+00	0	43	0	128974848	66	4523
2026-01-26 13:11:28.83	274.70	9.84	-47.4	-49.2	17.8	0.00e+00	0	43	0	130023424	66	4413
2026-01-26 13:11:29.83	274.87	9.87	-47.3	-49.1	17.9	0.00e+00	0	43	0	132120576	66	4367
2026-01-26 13:11:30.84	275.04	9.89	-47.4	-49.3	17.7	0.00e+00	0	43	0	134217728	66	4463
2026-01-26 13:11:31.85	275.21	9.92	-47.6	-49.5	17.5	0.00e+00	0	43	0	136314880	66	4570
2026-01-26 13:11:32.85	275.39	9.95	-47.4	-49.3	17.7	0.00e+00	0	43	0	138412032	66	4475
2026-01-26 13:11:33.86	275.56	9.97	-47.6	-49.6	17.4	0.00e+00	0	43	0	139460608	66	4619
2026-01-26 13:11:34.86	275.73	10.00	-47.5	-49.3	17.6	0.00e+00	0	43	0	141557760	66	4491
2026-01-26 13:11:35.87	275.90	10.02	-47.5	-49.4	17.6	0.00e+00	0	43	0	143654912	66	4535
2026-01-26 13:11:36.87	276.08	10.04	-47.4	-49.3	17.8	0.00e+00	0	43	0	145752064	66	4442
2026-01-26 13:11:37.88	276.25	10.07	-47.4	-49.3	17.7	0.00e+00	0	43	0	146800640	66	4467
2026-01-26 13:11:38.89	276.42	10.09	-47.5	-49.3	17.7	0.00e+00	0	43	0	148897792	66	4485
2026-01-26 13:11:39.89	276.60	10.12	-47.4	-49.3	17.6	0.00e+00	0	43	0	150994944	66	4461
2026-01-26 13:11:40.89	276.77	10.14	-47.3	-49.1	17.9	0.00e+00	0	43	0	153092096	66	4369
2026-01-26 13:11:41.90	276.95	10.16	-47.2	-49.0	18.0	0.00e+00	0	43	0	155189248	66	4322
2026-01-26 13:11:42.91	277.12	10.19	-47.2	-48.9	18.1	0.00e+00	0	43	0	157286400	66	4271
2026-01-26 13:11:43.92	277.30	10.21	-47.1	-48.8	18.1	0.00e+00	0	43	0	158334976	66	4242
2026-01-26 13:11:44.93	277.47	10.23	-47.1	-48.9	18.2	0.00e+00	0	43	0	160432128	66	4257
2026-01-26 13:11:45.94	277.65	10.26	-47.2	-49.0	18.0	0.00e+00	0	43	0	162529280	66	4296
2026-01-26 13:11:46.94	277.82	10.28	-47.2	-49.0	18.1	0.00e+00	0	43	0	164626432	66	4313
2026-01-26 13:11:47.95	278.00	10.30	-47.2	-49.0	18.0	0.00e+00	0	43	0	166723584	66	4327
2026-01-26 13:11:48.95	278.18	10.32	-47.3	-49.1	17.9	0.00e+00	0	43	0	167772160	66	4380
2026-01-26 13:11:49.96	278.35	10.34	-47.3	-49.1	18.0	0.00e+00	0	43	0	169869312	66	4344
2026-01-26 13:11:50.96	278.53	10.37	-47.2	-49.0	18.1	0.00e+00	0	43	0	171966464	66	4314
2026-01-26 13:11:51.97	278.71	10.39	-47.3	-49.1	17.9	0.00e+00	0	43	0	174063616	66	4391
2026-01-26 13:11:52.98	278.89	10.41	-47.3	-49.1	18.0	0.00e+00	0	43	0	175112192	66	4371
2026-01-26 13:11:53.99	279.06	10.43	-47.2	-49.0	18.1	0.00e+00	0	43	0	177209344	66	4305
2026-01-26 13:11:54.99	279.24	10.45	-47.3	-49.1	18.0	0.00e+00	0	43	0	179306496	66	4360
2026-01-26 13:11:56.00	279.42	10.47	-47.2	-49.0	18.1	0.00e+00	0	43	0	181403648	66	4292
2026-01-26 13:11:57.01	279.60	10.49	-47.2	-49.0	18.1	0.00e+00	0	43	0	183500800	66	4309
2026-01-26 13:11:58.02	279.78	10.51	-47.2	-49.0	18.1	0.00e+00	0	43	0	185597952	66	4323
2026-01-26 13:11:59.03	279.96	10.53	-47.2	-48.9	18.1	0.00e+00	0	43	0	186646528	66	4263
2026-01-26 13:12:00.03	280.14	10.55	-47.0	-48.7	18.4	0.00e+00	0	43	0	188743680	66	4156
2026-01-26 13:12:01.04	280.32	10.57	-46.8	-48.4	18.6	0.00e+00	0	43	0	190840832	65	4277
2026-01-26 13:12:02.05	280.50	10.59	-46.8	-48.5	18.7	0.00e+00	0	43	0	192937984	65	4295
2026-01-26 13:12:03.05	280.67	10.61	-46.7	-48.4	18.8	0.00e+00	0	43	0	195035136	65	4257
2026-01-26 13:12:04.06	280.85	10.63	-46.8	-48.5	18.6	0.00e+00	0	43	0	196083712	65	4308
2026-01-26 13:12:05.06	281.03	10.64	-46.7	-48.3	18.7	0.00e+00	0	43	0	198180864	65	4235
2026-01-26 13:12:06.07	281.22	10.66	-46.8	-48.4	18.7	0.00e+00	0	43	0	200278016	65	4265
2026-01-26 13:12:07.08	281.40	10.68	-46.9	-48.6	18.5	0.00e+00	0	43	0	202375168	65	4357
2026-01-26 13:12:08.08	281.58	10.70	-47.1	-48.8	18.3	0.00e+00	0	43	0	203423744	65	4452
2026-01-26 13:12:09.09	281.76	10.72	-47.0	-48.7	18.4	0.00e+00	0	43	0	205520896	65	4435
2026-01-26 13:12:10.09	281.94	10.73	-47.1	-48.8	18.3	0.00e+00	0	43	0	207618048	65	4482
2026-01-26 13:12:11.10	282.12	10.75	-47.2	-48.9	18.2	0.00e+00	0	43	0	209715200	65	4530
2026-01-26 13:12:12.11	282.30	10.77	-47.2	-48.9	18.2	0.00e+00	0	43	0	211812352	65	4542
2026-01-26 13:12:13.12	282.48	10.78	-47.2	-49.0	18.2	0.00e+00	0	43	0	213909504	65	4551
2026-01-26 13:12:14.13	282.67	10.80	-47.3	-49.1	18.1	0.00e+00	0	43	0	214958080	65	4617
2026-01-26 13:12:15.13	282.85	10.81	-47.3	-49.0	18.1	0.00e+00	0	43	0	217055232	65	4590
2026-01-26 13:12:16.13	283.03	10.83	-47.2	-49.0	18.1	0.00e+00	0	43	0	219152384	65	4572
2026-01-26 13:12:17.14	283.21	10.85	-47.2	-49.0	18.1	0.00e+00	0	43	0	221249536	65	4562
2026-01-26 13:12:18.15	283.40	10.86	-47.3	-49.1	18.0	0.00e+00	0	43	0	223346688	65	4644
2026-01-26 13:12:19.15	283.58	10.88	-47.4	-49.2	17.9	0.00e+00	0	43	0	224395264	65	4658
2026-01-26 13:12:20.16	283.76	10.89	-47.4	-49.2	18.0	0.00e+00	0	43	0	226492416	65	4675
2026-01-26 13:12:21.17	283.95	10.91	-47.6	-49.4	17.8	0.00e+00	0	43	0	228589568	65	4787
2026-01-26 13:12:22.17	284.13	10.92	-47.6	-49.4	17.7	0.00e+00	0	43	0	230686720	65	4804
2026-01-26 13:12:23.18	284.31	10.93	-47.6	-49.5	17.7	0.00e+00	0	43	0	231735296	65	4837
2026-01-26 13:12:24.18	284.50	10.95	-47.7	-49.6	17.6	0.00e+00	0	43	0	233832448	66	4612
2026-01-26 13:12:25.19	284.68	10.96	-47.7	-49.5	17.7	0.00e+00	0	44	0	235929600	66	4589
2026-01-26 13:12:26.20	284.87	10.97	-47.7	-49.6	17.6	0.00e+00	0	43	0	238026752	66	4625
2026-01-26 13:12:27.21	285.05	10.99	-47.9	-49.8	17.4	0.00e+00	0	43	0	240123904	66	4732
2026-01-26 13:12:28.21	285.23	11.00	-47.9	-49.8	17.4	0.00e+00	0	43	0	242221056	66	4743
2026-01-26 13:12:29.22	285.42	11.01	-47.8	-49.7	17.5	0.00e+00	0	43	0	243269632	66	4667
2026-01-26 13:12:30.22	285.60	11.02	-47.8	-49.7	17.5	0.00e+00	0	43	0	245366784	66	4693
2026-01-26 13:12:31.23	285.79	11.04	-47.8	-49.8	17.5	0.00e+00	0	43	0	247463936	66	4711
2026-01-26 13:12:32.23	285.97	11.05	-47.9	-49.8	17.4	0.00e+00	0	43	0	249561088	66	4732
2026-01-26 13:12:33.24	286.16	11.06	-48.0	-49.9	17.3	0.00e+00	0	43	0	251658240	66	4797
2026-01-26 13:12:34.25	286.34	11.07	-48.0	-50.0	17.2	0.00e+00	0	43	0	252706816	66	4861
2026-01-26 13:12:35.25	286.53	11.08	-48.1	-50.1	17.1	0.00e+00	0	43	0	254803968	66	4920
2026-01-26 13:12:36.26	286.71	11.09	-48.3	-50.4	16.8	0.00e+00	0	43	0	256901120	67	4791
2026-01-26 13:12:37.26	286.90	11.10	-48.4	-50.6	16.6	0.00e+00	0	43	0	258998272	67	4899
2026-01-26 13:12:38.27	287.09	11.11	-48.4	-50.5	16.7	0.00e+00	0	43	0	260046848	67	4841
2026-01-26 13:12:39.28	287.27	11.12	-48.4	-50.6	16.7	0.00e+00	0	43	0	262144000	67	4890
2026-01-26 13:12:40.28	287.46	11.13	-48.4	-50.6	16.7	0.00e+00	0	43	0	264241152	67	4878
2026-01-26 13:12:41.29	287.64	11.14	-48.4	-50.6	16.7	0.00e+00	0	43	0	266338304	67	4890
2026-01-26 13:12:42.30	287.83	11.15	-48.3	-50.4	16.8	0.00e+00	0	43	0	268435456	67	4811
2026-01-26 13:12:43.30	288.02	11.16	-48.2	-50.2	17.1	0.00e+00	0	43	0	270532608	67	4677
2026-01-26 13:12:44.31	288.20	11.17	-48.1	-50.1	17.2	0.00e+00	0	43	0	271581184	67	4600
2026-01-26 13:12:45.32	288.39	11.18	-48.1	-50.1	17.2	0.00e+00	0	43	0	273678336	67	4626
2026-01-26 13:12:46.33	288.58	11.18	-48.0	-49.9	17.3	0.00e+00	0	43	0	275775488	67	4543
2026-01-26 13:12:47.33	288.76	11.19	-47.9	-49.8	17.5	0.00e+00	0	43	0	277872640	67	4466
2026-01-26 13:12:48.33	288.95	11.20	-47.8	-49.7	17.6	0.00e+00	0	43	0	279969792	67	4402
2026-01-26 13:12:49.34	289.14	11.21	-47.8	-49.7	17.6	0.00e+00	0	43	0	281018368	67	4392
2026-01-26 13:12:50.35	289.32	11.21	-47.8	-49.7	17.6	0.00e+00	0	43	0	283115520	67	4407
2026-01-26 13:12:51.35	289.51	11.22	-47.8	-49.7	17.7	0.00e+00	0	43	0	285212672	67	4395
2026-01-26 13:12:52.36	289.70	11.23	-47.9	-49.9	17.5	0.00e+00	0	43	0	287309824	67	4505
2026-01-26 13:12:53.37	289.89	11.23	-48.0	-49.9	17.5	0.00e+00	0	43	0	288358400	67	4523
2026-01-26 13:12:54.38	290.07	11.24	-48.0	-50.0	17.4	0.00e+00	0	43	0	290455552	67	4566
2026-01-26 13:12:55.39	290.26	11.24	-47.9	-49.9	17.5	0.00e+00	0	43	0	292552704	67	4512
2026-01-26 13:12:56.39	290.45	11.25	-47.8	-49.7	17.6	0.00e+00	0	43	0	294649856	67	4434
2026-01-26 13:12:57.40	290.64	11.25	-47.9	-49.8	17.5	0.00e+00	0	43	0	296747008	67	4472
2026-01-26 13:12:58.40	290.82	11.26	-47.9	-49.9	17.5	0.00e+00	0	43	0	298844160	67	4502
2026-01-26 13:12:59.41	291.01	11.26	-47.9	-49.8	17.6	0.00e+00	0	44	0	299892736	67	4449
2026-01-26 13:13:00.41	291.20	11.27	-47.8	-49.7	17.6	0.00e+00	0	43	0	301989888	67	4441
2026-01-26 13:13:01.42	291.39	11.27	-47.6	-49.4	17.9	0.00e+00	0	43	0	304087040	67	4266
2026-01-26 13:13:02.42	291.57	11.27	-47.6	-49.4	18.0	0.00e+00	0	43	0	306184192	67	4253
2026-01-26 13:13:03.43	291.76	11.28	-47.6	-49.5	17.9	0.00e+00	0	43	0	308281344	67	4302
2026-01-26 13:13:04.44	291.95	11.28	-47.7	-49.6	17.8	0.00e+00	0	43	0	309329920	67	4371
2026-01-26 13:13:05.45	292.14	11.28	-47.7	-49.6	17.8	0.00e+00	0	43	0	311427072	67	4363
2026-01-26 13:13:06.45	292.33	11.29	-47.6	-49.5	17.9	0.00e+00	0	43	0	313524224	67	4308
2026-01-26 13:13:07.46	292.51	11.29	-47.6	-49.4	18.0	0.00e+00	0	43	0	315621376	67	4249
2026-01-26 13:13:08.47	292.70	11.29	-47.5	-49.3	18.0	0.00e+00	0	43	0	316669952	67	4231
2026-01-26 13:13:09.47	292.89	11.29	-47.4	-49.3	18.0	0.00e+00	0	43	0	318767104	66	4445
2026-01-26 13:13:10.48	293.08	11.29	-46.9	-49.1	18.2	0.00e+00	0	43	0	320864256	65	4649
2026-01-26 13:13:11.49	293.27	11.29	-45.3	-49.1	18.0	0.00e+00	0	43	0	322961408	62	5524
2026-01-26 13:13:12.50	293.46	11.30	-44.1	-49.2	17.7	0.00e+00	0	43	0	325058560	60	6244
2026-01-26 13:13:13.50	293.64	11.30	-44.1	-49.7	17.4	0.00e+00	0	43	0	327155712	59	6982
2026-01-26 13:13:14.51	293.83	11.30	-45.7	-49.2	17.7	0.00e+00	0	43	0	328204288	61	5898
2026-01-26 13:13:15.51	294.02	11.30	-47.1	-49.2	17.9	0.00e+00	0	43	0	330301440	64	4937
2026-01-26 13:13:16.52	294.21	11.30	-47.3	-49.1	18.1	0.00e+00	0	43	0	332398592	65	4643
2026-01-26 13:13:17.53	294.40	11.30	-47.2	-49.0	18.2	0.00e+00	0	43	0	334495744	65	4553
2026-01-26 13:13:18.54	294.58	11.30	-47.2	-48.9	18.3	0.00e+00	0	43	0	336592896	65	4537
2026-01-26 13:13:19.55	294.77	11.29	-47.0	-48.7	18.5	0.00e+00	0	43	0	337641472	65	4428
2026-01-26 13:13:20.55	294.96	11.29	-47.1	-48.8	18.5	0.00e+00	0	43	0	339738624	65	4457
2026-01-26 13:13:21.56	295.15	11.29	-46.9	-48.6	18.7	0.00e+00	0	43	0	341835776	65	4354
2026-01-26 13:13:22.57	295.34	11.29	-46.8	-48.4	18.9	0.00e+00	0	43	0	343932928	65	4246
2026-01-26 13:13:23.58	295.53	11.29	-46.7	-48.2	19.0	0.00e+00	0	43	0	344981504	65	4182
2026-01-26 13:13:24.58	295.71	11.28	-46.5	-48.1	19.2	0.00e+00	0	43	0	347078656	65	4103
2026-01-26 13:13:25.59	295.90	11.28	-46.4	-47.9	19.3	0.00e+00	0	43	0	349175808	64	4268
2026-01-26 13:13:26.60	296.09	11.28	-46.4	-47.9	19.3	0.00e+00	0	43	0	351272960	64	4275
2026-01-26 13:13:27.61	296.28	11.28	-46.4	-47.8	19.3	0.00e+00	0	43	0	353370112	64	4241
2026-01-26 13:13:28.62	296.47	11.27	-46.4	-48.0	19.2	0.00e+00	0	43	0	355467264	64	4301
2026-01-26 13:13:29.62	296.65	11.27	-46.6	-48.1	19.1	0.00e+00	0	43	0	356515840	64	4366
2026-01-26 13:13:30.64	296.84	11.26	-46.5	-48.0	19.1	0.00e+00	0	43	0	358612992	64	4340
2026-01-26 13:13:31.64	297.03	11.26	-46.6	-48.1	19.1	0.00e+00	0	43	0	360710144	64	4367
2026-01-26 13:13:32.65	297.22	11.26	-46.6	-48.2	18.9	0.00e+00	0	43	0	362807296	64	4424
2026-01-26 13:13:33.65	297.40	11.25	-46.5	-48.0	19.1	0.00e+00	0	43	0	364904448	64	4325
2026-01-26 13:13:34.66	297.59	11.25	-46.3	-47.8	19.3	0.00e+00	0	43	0	365953024	64	4233
2026-01-26 13:13:35.67	297.78	11.24	-46.3	-47.8	19.4	0.00e+00	0	43	0	368050176	64	4201
2026-01-26 13:13:36.68	297.97	11.24	-46.2	-47.6	19.5	0.00e+00	0	43	0	370147328	64	4126
2026-01-26 13:13:37.69	298.16	11.23	-46.1	-47.5	19.6	0.00e+00	0	43	0	372244480	64	4098
2026-01-26 13:13:38.69	298.34	11.22	-46.1	-47.5	19.6	0.00e+00	0	43	0	373293056	64	4089
2026-01-26 13:13:39.70	298.53	11.22	-46.1	-47.5	19.6	0.00e+00	0	43	0	375390208	64	4098
2026-01-26 13:13:40.70	298.71	11.21	-46.1	-47.6	19.5	0.00e+00	0	43	0	377487360	64	4126
2026-01-26 13:13:41.71	298.90	11.20	-46.2	-47.7	19.4	0.00e+00	0	43	0	379584512	64	4153
2026-01-26 13:13:42.72	299.09	11.20	-46.2	-47.7	19.5	0.00e+00	0	43	0	381681664	64	4159
2026-01-26 13:13:43.72	299.28	11.19	-46.3	-47.8	19.3	0.00e+00	0	43	0	383778816	64	4208
2026-01-26 13:13:44.73	299.46	11.18	-46.3	-47.7	19.4	0.00e+00	0	43	0	384827392	64	4193
2026-01-26 13:13:45.73	299.65	11.17	-46.2	-47.6	19.5	0.00e+00	0	44	0	386924544	64	4137
2026-01-26 13:13:46.73	299.83	11.16	-46.1	-47.6	19.5	0.00e+00	0	43	0	389021696	64	4102
2026-01-26 13:13:47.74	300.02	11.16	-46.0	-47.4	19.6	0.00e+00	0	43	0	391118848	64	4034
2026-01-26 13:13:48.75	300.21	11.15	-46.0	-47.4	19.6	0.00e+00	0	43	0	393216000	64	4047
2026-01-26 13:13:49.76	300.39	11.14	-46.1	-47.5	19.6	0.00e+00	0	43	0	394264576	64	4091
2026-01-26 13:13:50.77	300.58	11.13	-46.1	-47.5	19.6	0.00e+00	0	43	0	396361728	64	4081
2026-01-26 13:13:51.77	300.76	11.12	-46.0	-47.5	19.6	0.00e+00	0	43	0	398458880	64	4060
2026-01-26 13:13:52.78	300.95	11.11	-46.1	-47.5	19.6	0.00e+00	0	43	0	400556032	64	4089
2026-01-26 13:13:53.78	301.14	11.10	-46.0	-47.5	19.6	0.00e+00	0	44	0	401604608	64	4065
2026-01-26 13:13:54.79	301.32	11.09	-46.0	-47.5	19.7	0.00e+00	0	43	0	403701760	63	4305
2026-01-26 13:13:55.80	301.51	11.08	-46.2	-47.6	19.6	0.00e+00	0	44	0	405798912	63	4365
2026-01-26 13:13:56.80	301.69	11.07	-46.2	-47.7	19.4	0.00e+00	0	43	0	407896064	63	4414
2026-01-26 13:13:57.81	301.88	11.05	-46.2	-47.7	19.5	0.00e+00	0	43	0	409993216	63	4404
2026-01-26 13:13:58.82	302.06	11.04	-46.3	-47.8	19.4	0.00e+00	0	43	0	412090368	63	4469
2026-01-26 13:13:59.83	302.25	11.03	-46.3	-47.8	19.4	0.00e+00	0	44	0	413138944	63	4475
2026-01-26 13:14:00.83	302.43	11.02	-46.4	-47.9	19.3	0.00e+00	0	43	0	415236096	63	4514
2026-01-26 13:14:01.84	302.62	11.01	-46.4	-47.9	19.2	0.00e+00	0	43	0	417333248	63	4530
2026-01-26 13:14:02.85	302.80	10.99	-46.3	-47.8	19.4	0.00e+00	0	43	0	419430400	63	4478
2026-01-26 13:14:03.85	302.98	10.98	-46.4	-47.9	19.3	0.00e+00	0	43	0	421527552	63	4516
2026-01-26 13:14:04.86	303.17	10.97	-46.4	-48.0	19.2	0.00e+00	0	43	0	422576128	63	4560
2026-01-26 13:14:05.87	303.35	10.96	-46.5	-48.0	19.2	0.00e+00	0	43	0	424673280	63	4568
2026-01-26 13:14:06.88	303.54	10.94	-46.4	-47.9	19.2	0.00e+00	0	43	0	426770432	63	4529
2026-01-26 13:14:07.88	303.72	10.93	-46.3	-47.8	19.4	0.00e+00	0	43	0	428867584	63	4452
2026-01-26 13:14:08.89	303.90	10.91	-46.4	-47.9	19.3	0.00e+00	0	43	0	429916160	63	4512
2026-01-26 13:14:09.90	304.09	10.90	-46.2	-47.7	19.5	0.00e+00	0	43	0	432013312	63	4396
2026-01-26 13:14:10.91	304.27	10.89	-46.2	-47.7	19.4	0.00e+00	0	43	0	434110464	63	4429
2026-01-26 13:14:11.92	304.45	10.87	-46.2	-47.7	19.4	0.00e+00	0	43	0	436207616	63	4434
2026-01-26 13:14:12.92	304.64	10.86	-46.4	-47.9	19.2	0.00e+00	0	43	0	438304768	63	4528
2026-01-26 13:14:13.93	304.82	10.84	-46.4	-47.9	19.2	0.00e+00	0	43	0	440401920	63	4533
2026-01-26 13:14:14.94	305.00	10.83	-46.5	-48.1	19.1	0.00e+00	0	43	0	441450496	63	4612
2026-01-26 13:14:15.94	305.18	10.81	-46.5	-48.0	19.1	0.00e+00	0	43	0	443547648	63	4570
2026-01-26 13:14:16.95	305.37	10.79	-46.6	-48.2	19.0	0.00e+00	0	43	0	445644800	63	4667
2026-01-26 13:14:17.95	305.55	10.78	-46.6	-48.2	18.9	0.00e+00	0	43	0	447741952	63	4696
2026-01-26 13:14:18.96	305.73	10.76	-46.6	-48.2	18.8	0.00e+00	0	43	0	449839104	64	4422
2026-01-26 13:14:19.96	305.91	10.74	-46.7	-48.3	18.7	0.00e+00	0	43	0	450887680	64	4471
2026-01-26 13:14:20.97	306.09	10.73	-46.7	-48.3	18.7	0.00e+00	0	43	0	452984832	64	4459
2026-01-26 13:14:21.98	306.27	10.71	-46.7	-48.3	18.7	0.00e+00	0	43	0	455081984	64	4456
2026-01-26 13:14:22.98	306.45	10.69	-46.7	-48.3	18.8	0.00e+00	0	43	0	457179136	64	4454
2026-01-26 13:14:23.99	306.63	10.67	-46.5	-48.1	18.9	0.00e+00	0	43	0	458227712	64	4361
2026-01-26 13:14:25.00	306.81	10.66	-46.5	-48.0	19.0	0.00e+00	0	43	0	460324864	64	4329
2026-01-26 13:14:26.01	306.99	10.64	-46.4	-48.0	19.0	0.00e+00	0	43	0	462422016	64	4312
2026-01-26 13:14:27.02	307.17	10.62	-46.1	-47.6	19.4	0.00e+00	0	43	0	464519168	64	4117
2026-01-26 13:14:28.03	307.35	10.60	-46.1	-47.6	19.4	0.00e+00	0	43	0	466616320	64	4108
2026-01-26 13:14:29.03	307.53	10.58	-46.1	-47.6	19.4	0.00e+00	0	43	0	468713472	64	4105
2026-01-26 13:14:30.04	307.71	10.56	-46.2	-47.7	19.3	0.00e+00	0	43	0	469762048	64	4164
2026-01-26 13:14:31.05	307.89	10.54	-46.1	-47.6	19.4	0.00e+00	0	43	0	471859200	64	4108
2026-01-26 13:14:32.05	308.07	10.52	-46.2	-47.7	19.3	0.00e+00	0	43	0	473956352	64	4158
2026-01-26 13:14:33.06	308.25	10.50	-46.2	-47.7	19.2	0.00e+00	0	43	0	476053504	64	4188
2026-01-26 13:14:34.06	308.42	10.49	-46.3	-47.9	19.1	0.00e+00	0	43	0	478150656	64	4252
2026-01-26 13:14:35.06	308.60	10.46	-46.3	-47.9	19.1	0.00e+00	0	43	0	479199232	64	4247
2026-01-26 13:14:36.07	308.78	10.44	-46.2	-47.7	19.3	0.00e+00	0	43	0	481296384	64	4157
2026-01-26 13:14:37.07	308.96	10.42	-46.1	-47.6	19.4	0.00e+00	0	43	0	483393536	64	4102
2026-01-26 13:14:38.08	309.13	10.40	-46.1	-47.6	19.3	0.00e+00	0	43	0	485490688	64	4136
2026-01-26 13:14:39.08	309.31	10.38	-46.2	-47.7	19.3	0.00e+00	0	43	0	486539264	64	4159
2026-01-26 13:14:40.08	309.48	10.36	-46.1	-47.6	19.3	0.00e+00	0	43	0	488636416	64	4130
2026-01-26 13:14:41.09	309.66	10.34	-46.0	-47.5	19.5	0.00e+00	0	43	0	490733568	64	4069
2026-01-26 13:14:42.10	309.84	10.32	-46.1	-47.6	19.4	0.00e+00	0	43	0	492830720	64	4125
2026-01-26 13:14:43.11	310.02	10.30	-46.1	-47.6	19.4	0.00e+00	0	44	0	494927872	64	4125
2026-01-26 13:14:44.12	310.19	10.27	-46.0	-47.5	19.6	0.00e+00	0	43	0	497025024	63	4292
2026-01-26 13:14:45.13	310.37	10.25	-46.1	-47.5	19.6	0.00e+00	0	43	0	498073600	63	4318
2026-01-26 13:14:46.13	310.54	10.23	-46.2	-47.7	19.4	0.00e+00	0	43	0	500170752	63	4400
2026-01-26 13:14:47.14	310.72	10.21	-46.1	-47.6	19.5	0.00e+00	0	43	0	502267904	63	4353
2026-01-26 13:14:48.14	310.89	10.18	-46.0	-47.5	19.6	0.00e+00	0	43	0	504365056	63	4298
2026-01-26 13:14:49.15	311.07	10.16	-45.9	-47.3	19.7	0.00e+00	0	43	0	506462208	63	4229
2026-01-26 13:14:50.16	311.24	10.14	-46.0	-47.4	19.6	0.00e+00	0	43	0	507510784	63	4279
2026-01-26 13:14:51.17	311.41	10.11	-45.9	-47.3	19.6	0.00e+00	0	43	0	509607936	63	4223
2026-01-26 13:14:52.17	311.59	10.09	-45.9	-47.4	19.6	0.00e+00	0	43	0	511705088	63	4259
2026-01-26 13:14:53.18	311.76	10.06	-46.0	-47.4	19.6	0.00e+00	0	43	0	513802240	63	4283
2026-01-26 13:14:54.18	311.93	10.04	-45.9	-47.4	19.7	0.00e+00	0	43	0	514850816	63	4251
2026-01-26 13:14:55.19	312.11	10.01	-46.0	-47.5	19.6	0.00e+00	0	43	0	516947968	63	4296
2026-01-26 13:14:56.19	312.28	9.99	-46.0	-47.4	19.6	0.00e+00	0	43	0	519045120	63	4284
2026-01-26 13:14:57.20	312.45	9.97	-46.2	-47.7	19.3	0.00e+00	0	43	0	521142272	63	4392
2026-01-26 13:14:58.20	312.62	9.94	-46.3	-47.8	19.2	0.00e+00	0	43	0	523239424	63	4482
2026-01-26 13:14:59.21	312.79	9.92	-46.2	-47.8	19.3	0.00e+00	0	43	0	525336576	63	4446
2026-01-26 13:15:00.21	312.96	9.89	-46.2	-47.8	19.2	0.00e+00	0	43	0	526385152	63	4452
2026-01-26 13:15:01.21	313.13	9.86	-46.3	-47.9	19.1	0.00e+00	0	43	0	528482304	63	4494
2026-01-26 13:15:02.22	313.30	9.84	-46.2	-47.7	19.3	0.00e+00	0	43	0	530579456	63	4427
2026-01-26 13:15:03.22	313.47	9.81	-46.3	-47.9	19.1	0.00e+00	0	43	0	532676608	63	4512
2026-01-26 13:15:04.23	313.64	9.79	-46.2	-47.8	19.2	0.00e+00	0	43	0	534773760	63	4445
2026-01-26 13:15:05.24	313.81	9.76	-46.2	-47.7	19.2	0.00e+00	0	43	0	535822336	63	4439
2026-01-26 13:15:06.24	313.98	9.73	-46.3	-47.8	19.1	0.00e+00	0	43	0	537919488	63	4482
2026-01-26 13:15:07.25	314.15	9.71	-46.3	-47.8	19.1	0.00e+00	0	43	0	540016640	63	4488
2026-01-26 13:15:08.26	314.32	9.68	-46.3	-47.9	19.1	0.00e+00	0	43	0	542113792	63	4514
2026-01-26 13:15:09.26	314.49	9.65	-46.2	-47.7	19.3	0.00e+00	0	43	0	543162368	63	4413
2026-01-26 13:15:10.27	314.66	9.62	-46.1	-47.5	19.4	0.00e+00	0	43	0	545259520	63	4336
2026-01-26 13:15:11.27	314.82	9.60	-46.0	-47.4	19.5	0.00e+00	0	43	0	547356672	63	4286
2026-01-26 13:15:12.28	314.99	9.57	-45.9	-47.3	19.6	0.00e+00	0	43	0	549453824	63	4211
2026-01-26 13:15:13.28	315.16	9.54	-46.0	-47.4	19.5	0.00e+00	0	43	0	551550976	63	4283
2026-01-26 13:15:14.29	315.33	9.51	-46.1	-47.6	19.3	0.00e+00	0	43	0	552599552	63	4349
2026-01-26 13:15:15.29	315.49	9.49	-46.3	-47.8	19.1	0.00e+00	0	43	0	554696704	63	4465
2026-01-26 13:15:16.30	315.66	9.46	-46.4	-48.0	18.9	0.00e+00	0	43	0	556793856	63	4572
2026-01-26 13:15:17.30	315.82	9.43	-46.5	-48.1	18.9	0.00e+00	0	43	0	558891008	63	4607
2026-01-26 13:15:18.31	315.99	9.40	-46.6	-48.2	18.7	0.00e+00	0	43	0	560988160	63	4703
2026-01-26 13:15:19.31	316.15	9.37	-46.6	-48.3	18.5	0.00e+00	0	43	0	563085312	64	4475
2026-01-26 13:15:20.32	316.32	9.34	-46.6	-48.2	18.6	0.00e+00	0	43	0	564133888	64	4425
2026-01-26 13:15:21.33	316.49	9.31	-46.5	-48.1	18.7	0.00e+00	0	43	0	566231040	64	4359
2026-01-26 13:15:22.34	316.65	9.28	-46.5	-48.1	18.5	0.00e+00	0	43	0	568328192	64	4385
2026-01-26 13:15:23.35	316.82	9.25	-46.5	-48.1	18.5	0.00e+00	0	43	0	570425344	64	4365
2026-01-26 13:15:24.35	316.98	9.22	-46.5	-48.1	18.6	0.00e+00	0	43	0	571473920	64	4386
2026-01-26 13:15:25.36	317.14	9.19	-46.5	-48.1	18.6	0.00e+00	0	43	0	573571072	64	4364
2026-01-26 13:15:26.37	317.31	9.16	-46.4	-48.0	18.7	0.00e+00	0	43	0	575668224	64	4320
2026-01-26 13:15:27.37	317.47	9.13	-46.5	-48.1	18.7	0.00e+00	0	43	0	577765376	64	4360
2026-01-26 13:15:28.38	317.63	9.10	-46.4	-48.1	18.7	0.00e+00	0	43	0	579862528	64	4345
2026-01-26 13:15:29.39	317.79	9.07	-46.5	-48.1	18.6	0.00e+00	0	43	0	580911104	64	4388
2026-01-26 13:15:30.40	317.96	9.04	-46.8	-48.5	18.3	0.00e+00	0	43	0	583008256	64	4559
2026-01-26 13:15:31.41	318.12	9.01	-46.6	-48.3	18.5	0.00e+00	0	43	0	585105408	64	4481
2026-01-26 13:15:32.41	318.28	8.98	-46.9	-48.6	18.2	0.00e+00	0	43	0	587202560	64	4643
2026-01-26 13:15:33.42	318.44	8.95	-46.8	-48.6	18.2	0.00e+00	0	43	0	589299712	64	4630
2026-01-26 13:15:34.43	318.60	8.92	-47.0	-48.8	18.0	0.00e+00	0	43	0	591396864	64	4714
2026-01-26 13:15:35.43	318.76	8.88	-47.0	-48.8	17.9	0.00e+00	0	43	0	592445440	64	4748
2026-01-26 13:15:36.44	318.92	8.85	-47.2	-49.1	17.7	0.00e+00	0	43	0	594542592	64	4871
2026-01-26 13:15:37.44	319.08	8.82	-47.4	-49.3	17.5	0.00e+00	0	43	0	596639744	65	4738
2026-01-26 13:15:38.45	319.24	8.79	-47.4	-49.4	17.4	0.00e+00	0	43	0	598736896	65	4779
2026-01-26 13:15:39.46	319.40	8.76	-47.5	-49.5	17.2	0.00e+00	0	43	0	599785472	65	4849
2026-01-26 13:15:40.47	319.56	8.72	-47.7	-49.7	17.0	0.00e+00	0	43	0	601882624	65	4958
2026-01-26 13:15:41.47	319.71	8.69	-47.8	-49.9	16.9	0.00e+00	0	43	0	603979776	66	4805
2026-01-26 13:15:42.48	319.87	8.66	-48.0	-50.1	16.7	0.00e+00	0	43	0	606076928	66	4920
2026-01-26 13:15:43.49	320.03	8.63	-48.2	-50.5	16.3	0.00e+00	0	43	0	608174080	66	5121
2026-01-26 13:15:44.50	320.19	8.59	-48.1	-50.4	16.4	0.00e+00	0	43	0	609222656	66	5061
2026-01-26 13:15:45.50	320.34	8.56	-48.0	-50.2	16.6	0.00e+00	0	43	0	611319808	66	4927
2026-01-26 13:15:46.51	320.50	8.53	-47.9	-50.1	16.7	0.00e+00	0	43	0	613416960	66	4891
2026-01-26 13:15:47.52	320.66	8.49	-48.0	-50.1	16.6	0.00e+00	0	44	0	615514112	66	4924
2026-01-26 13:15:48.53	320.81	8.46	-47.9	-50.1	16.6	0.00e+00	0	43	0	617611264	66	4903
2026-01-26 13:15:49.54	320.97	8.43	-47.9	-50.0	16.7	0.00e+00	0	43	0	619708416	66	4856
2026-01-26 13:15:50.55	321.13	8.39	-47.7	-49.8	16.9	0.00e+00	0	44	0	620756992	66	4741
2026-01-26 13:15:51.55	321.28	8.36	-47.8	-50.0	16.8	0.00e+00	0	43	0	622854144	66	4824
2026-01-26 13:15:52.56	321.43	8.32	-47.9	-50.0	16.8	0.00e+00	0	44	0	624951296	66	4832
2026-01-26 13:15:53.57	321.59	8.29	-47.8	-49.9	16.9	0.00e+00	0	43	0	627048448	66	4793
2026-01-26 13:15:54.57	321.74	8.26	-48.0	-50.2	16.6	0.00e+00	0	43	0	628097024	66	4951
2026-01-26 13:15:55.58	321.89	8.22	-47.8	-49.9	16.8	0.00e+00	0	43	0	630194176	66	4784
2026-01-26 13:15:56.59	322.05	8.19	-48.0	-50.2	16.6	0.00e+00	0	43	0	632291328	66	4928
2026-01-26 13:15:57.60	322.20	8.15	-47.9	-50.1	16.6	0.00e+00	0	43	0	634388480	66	4907
2026-01-26 13:15:58.61	322.35	8.12	-48.1	-50.3	16.5	0.00e+00	0	43	0	636485632	66	4991
2026-01-26 13:15:59.61	322.50	8.08	-48.1	-50.3	16.5	0.00e+00	0	43	0	638582784	66	5013
2026-01-26 13:16:00.62	322.66	8.05	-48.2	-50.5	16.2	0.00e+00	0	44	0	639631360	67	4863
2026-01-26 13:16:01.63	322.81	8.01	-48.4	-50.8	16.0	0.00e+00	0	43	0	641728512	67	5012
2026-01-26 13:16:02.64	322.96	7.98	-48.5	-51.0	15.7	0.00e+00	0	43	0	643825664	67	5119
2026-01-26 13:16:03.64	323.11	7.94	-48.9	-51.6	15.2	0.00e+00	0	43	0	645922816	68	5171
2026-01-26 13:16:04.66	323.26	7.91	-49.0	-51.7	15.1	0.00e+00	0	43	0	648019968	68	5233
2026-01-26 13:16:05.66	323.41	7.87	-49.1	-51.9	14.8	0.00e+00	0	43	0	649068544	68	5383
2026-01-26 13:16:06.67	323.56	7.83	-49.2	-52.0	14.7	0.00e+00	0	43	0	651165696	69	5135
2026-01-26 13:16:07.68	323.71	7.80	-49.2	-52.0	14.8	0.00e+00	0	43	0	653262848	69	5122
2026-01-26 13:16:08.69	323.86	7.76	-49.1	-51.9	14.9	0.00e+00	0	43	0	655360000	69	5082
2026-01-26 13:16:09.69	324.01	7.73	-49.2	-52.1	14.6	0.00e+00	0	43	0	656408576	69	5189
2026-01-26 13:16:10.70	324.15	7.69	-49.3	-52.2	14.5	7.00e-07	0	43	0	658505728	69	5255
2026-01-26 13:16:11.70	324.30	7.65	-49.3	-52.3	14.4	7.00e-07	0	43	0	660602880	69	5298
2026-01-26 13:16:12.71	324.45	7.62	-49.1	-51.9	14.8	0.00e+00	0	43	0	662700032	69	5094
2026-01-26 13:16:13.72	324.60	7.58	-49.1	-51.9	14.8	0.00e+00	0	43	0	664797184	69	5094
2026-01-26 13:16:14.73	324.74	7.55	-48.9	-51.6	15.1	0.00e+00	0	43	0	666894336	69	4916
2026-01-26 13:16:15.73	324.89	7.51	-48.9	-51.6	15.2	0.00e+00	0	43	0	667942912	69	4887
2026-01-26 13:16:16.74	325.04	7.47	-48.8	-51.4	15.4	0.00e+00	0	44	0	670040064	69	4791
2026-01-26 13:16:17.75	325.18	7.43	-48.8	-51.4	15.4	0.00e+00	0	43	0	672137216	69	4803
2026-01-26 13:16:18.75	325.33	7.40	-48.7	-51.2	15.5	0.00e+00	0	44	0	674234368	69	4678
2026-01-26 13:16:19.76	325.47	7.36	-48.6	-51.2	15.5	0.00e+00	0	43	0	676331520	69	4665
2026-01-26 13:16:20.77	325.62	7.32	-48.7	-51.2	15.5	0.00e+00	0	43	0	677380096	69	4684
2026-01-26 13:16:21.77	325.76	7.29	-48.6	-51.2	15.6	0.00e+00	0	43	0	679477248	69	4657
2026-01-26 13:16:22.78	325.90	7.25	-48.7	-51.3	15.4	0.00e+00	0	43	0	681574400	69	4758
2026-01-26 13:16:23.79	326.05	7.21	-48.8	-51.5	15.2	0.00e+00	0	43	0	683671552	69	4825
2026-01-26 13:16:24.80	326.19	7.17	-48.9	-51.6	15.0	0.00e+00	0	44	0	684720128	69	4907
2026-01-26 13:16:25.80	326.33	7.14	-48.9	-51.6	15.0	0.00e+00	0	43	0	686817280	69	4905
2026-01-26 13:16:26.81	326.48	7.10	-48.8	-51.5	15.0	0.00e+00	0	43	0	688914432	69	4861
2026-01-26 13:16:27.82	326.62	7.06	-48.8	-51.5	14.9	7.00e-07	0	43	0	691011584	69	4839
2026-01-26 13:16:28.83	326.76	7.02	-48.8	-51.5	14.9	0.00e+00	0	43	0	693108736	69	4827
2026-01-26 13:16:29.84	326.90	6.98	-48.6	-51.2	15.3	0.00e+00	0	43	0	695205888	69	4689
2026-01-26 13:16:30.85	327.04	6.95	-48.5	-51.1	15.5	0.00e+00	0	43	0	696254464	69	4599
2026-01-26 13:16:31.86	327.18	6.91	-48.4	-50.9	15.7	0.00e+00	0	44	0	698351616	68	4784
2026-01-26 13:16:32.86	327.32	6.87	-48.3	-50.7	15.8	0.00e+00	0	44	0	700448768	68	4695
2026-01-26 13:16:33.87	327.46	6.83	-48.1	-50.4	16.1	0.00e+00	0	44	0	702545920	68	4520
2026-01-26 13:16:34.87	327.60	6.79	-48.2	-50.6	16.1	0.00e+00	0	43	0	704643072	68	4601
2026-01-26 13:16:35.88	327.74	6.75	-48.3	-50.7	15.9	0.00e+00	0	43	0	705691648	68	4685
2026-01-26 13:16:36.88	327.88	6.72	-48.3	-50.7	16.0	0.00e+00	0	43	0	707788800	68	4660
2026-01-26 13:16:37.89	328.02	6.68	-48.6	-51.1	15.5	0.00e+00	0	43	0	709885952	68	4897
2026-01-26 13:16:38.90	328.16	6.64	-48.7	-51.4	15.2	0.00e+00	0	43	0	711983104	68	5056
2026-01-26 13:16:39.91	328.29	6.60	-48.9	-51.6	15.0	0.00e+00	0	43	0	714080256	68	5201
2026-01-26 13:16:40.91	328.43	6.56	-49.0	-51.8	14.8	0.00e+00	0	44	0	715128832	68	5292
2026-01-26 13:16:41.92	328.57	6.52	-49.0	-51.9	14.7	0.00e+00	0	43	0	717225984	68	5349
2026-01-26 13:16:42.93	328.71	6.48	-48.9	-51.7	14.9	0.00e+00	0	43	0	719323136	68	5268
2026-01-26 13:16:43.94	328.84	6.44	-48.7	-51.4	15.2	0.00e+00	0	43	0	721420288	68	5070
2026-01-26 13:16:44.95	328.98	6.40	-48.4	-50.9	15.6	0.00e+00	0	43	0	723517440	68	4797
2026-01-26 13:16:45.95	329.11	6.36	-48.2	-50.6	16.0	0.00e+00	0	43	0	724566016	68	4622
2026-01-26 13:16:46.95	329.25	6.33	-48.1	-50.4	16.1	0.00e+00	0	43	0	726663168	68	4542
2026-01-26 13:16:47.96	329.38	6.29	-47.8	-50.0	16.4	0.00e+00	0	43	0	728760320	67	4575
2026-01-26 13:16:48.97	329.52	6.25	-47.8	-49.9	16.6	0.00e+00	0	43	0	730857472	67	4536
2026-01-26 13:16:49.97	329.65	6.21	-47.7	-49.9	16.6	0.00e+00	0	43	0	732954624	67	4519
2026-01-26 13:16:50.98	329.79	6.17	-47.8	-50.0	16.5	0.00e+00	0	43	0	734003200	67	4569
2026-01-26 13:16:51.99	329.92	6.13	-47.9	-50.1	16.3	0.00e+00	0	43	0	736100352	67	4638
2026-01-26 13:16:52.99	330.05	6.09	-47.9	-50.1	16.3	0.00e+00	0	43	0	738197504	67	4647
2026-01-26 13:16:54.00	330.19	6.05	-47.7	-49.9	16.6	0.00e+00	0	43	0	740294656	67	4514
2026-01-26 13:16:55.01	330.32	6.01	-47.7	-50.0	16.4	0.00e+00	0	43	0	742391808	67	4554
2026-01-26 13:16:56.02	330.45	5.97	-47.9	-50.1	16.2	0.00e+00	0	43	0	743440384	67	4649
2026-01-26 13:16:57.02	330.58	5.93	-47.8	-50.1	16.3	0.00e+00	0	43	0	745537536	67	4620
2026-01-26 13:16:58.03	330.71	5.89	-47.8	-50.1	16.3	0.00e+00	0	43	0	747634688	67	4631
2026-01-26 13:16:59.03	330.84	5.85	-47.9	-50.2	16.3	0.00e+00	0	43	0	749731840	67	4655
2026-01-26 13:17:00.04	330.97	5.81	-47.7	-49.9	16.5	0.00e+00	0	43	0	751828992	67	4528
2026-01-26 13:17:01.04	331.10	5.77	-47.7	-49.9	16.5	0.00e+00	0	43	0	752877568	67	4525
2026-01-26 13:17:02.05	331.23	5.73	-47.8	-50.0	16.4	0.00e+00	0	43	0	754974720	67	4580
2026-01-26 13:17:03.06	331.36	5.69	-47.7	-49.9	16.4	0.00e+00	0	43	0	757071872	67	4532
2026-01-26 13:17:04.07	331.49	5.65	-47.8	-50.1	16.3	0.00e+00	0	43	0	759169024	67	4621
2026-01-26 13:17:05.07	331.62	5.61	-47.9	-50.3	16.1	0.00e+00	0	44	0	761266176	67	4710
2026-01-26 13:17:06.08	331.75	5.57	-47.9	-50.3	16.1	0.00e+00	0	43	0	762314752	67	4712
2026-01-26 13:17:07.09	331.88	5.52	-48.1	-50.4	15.9	0.00e+00	0	43	0	764411904	67	4812
2026-01-26 13:17:08.10	332.01	5.48	-48.1	-50.4	15.9	0.00e+00	0	43	0	766509056	67	4810
2026-01-26 13:17:09.11	332.14	5.44	-47.9	-50.3	16.1	0.00e+00	0	44	0	768606208	67	4720
2026-01-26 13:17:10.11	332.26	5.40	-47.8	-50.0	16.3	0.00e+00	0	43	0	770703360	67	4598
2026-01-26 13:17:11.12	332.39	5.36	-47.9	-50.2	16.2	0.00e+00	0	43	0	771751936	67	4661
2026-01-26 13:17:12.13	332.52	5.32	-47.8	-50.2	16.2	0.00e+00	0	43	0	773849088	67	4658
2026-01-26 13:17:13.14	332.64	5.28	-47.5	-49.7	16.7	0.00e+00	0	43	0	775946240	67	4396
2026-01-26 13:17:14.14	332.77	5.24	-47.4	-49.5	16.8	0.00e+00	0	43	0	778043392	66	4561
2026-01-26 13:17:15.15	332.90	5.20	-47.2	-49.3	17.0	0.00e+00	0	43	0	780140544	66	4443
2026-01-26 13:17:16.16	333.02	5.16	-47.1	-49.2	17.1	0.00e+00	0	43	0	781189120	66	4396
2026-01-26 13:17:17.17	333.15	5.11	-47.2	-49.3	17.0	0.00e+00	0	43	0	783286272	66	4469
2026-01-26 13:17:18.17	333.27	5.07	-47.1	-49.1	17.1	0.00e+00	0	44	0	785383424	66	4368
2026-01-26 13:17:19.18	333.39	5.03	-47.4	-49.6	16.7	0.00e+00	0	44	0	787480576	66	4622
2026-01-26 13:17:20.19	333.52	4.99	-52.6	-67.6	3.8	4.83e-02	0	43	104	788529152	75	21979
2026-01-26 13:17:21.19	333.64	4.95	-53.0	-68.0	3.8	1.49e+00	0	43	104	788529152	76	21553
2026-01-26 13:17:22.20	333.77	4.91	-53.2	-68.1	3.8	1.49e+00	0	44	104	788529152	76	21965
2026-01-26 13:17:23.21	333.89	4.87	-53.3	-68.2	3.8	1.49e+00	0	43	104	788529152	77	21009
2026-01-26 13:17:24.21	334.01	4.83	-53.4	-68.3	3.8	1.49e+00	0	44	104	788529152	77	21191
2026-01-26 13:17:25.22	334.13	4.78	-53.0	-67.0	3.8	1.49e+00	0	44	104	788529152	77	18190
2026-01-26 13:17:26.23	334.26	4.74	-53.3	-67.9	3.8	1.49e+00	0	43	104	788529152	77	20126
2026-01-26 13:17:27.23	334.38	4.70	-53.5	-68.5	3.8	1.49e+00	0	43	104	788529152	77	21637
2026-01-26 13:17:28.24	334.50	4.66	-53.5	-68.5	3.8	1.49e+00	0	44	104	788529152	77	21677
2026-01-26 13:17:29.25	334.62	4.62	-53.5	-68.5	3.8	1.49e+00	0	43	104	788529152	77	21550
2026-01-26 13:17:30.25	334.74	4.58	-53.4	-68.4	3.8	1.49e+00	0	43	104	788529152	77	21387
2026-01-26 13:17:31.26	334.86	4.53	-53.3	-68.3	3.8	1.49e+00	0	44	104	788529152	77	21094
2026-01-26 13:17:32.27	334.98	4.49	-53.3	-68.2	3.8	1.49e+00	0	44	104	788529152	77	20957
2026-01-26 13:17:33.28	335.10	4.45	-53.3	-68.3	3.8	1.49e+00	0	44	104	788529152	77	21094
2026-01-26 13:17:34.29	335.22	4.41	-53.4	-68.3	3.8	1.49e+00	0	43	104	788529152	77	21184
2026-01-26 13:17:35.29	335.34	4.37	-53.4	-68.4	3.8	1.49e+00	0	44	104	788529152	77	21315
2026-01-26 13:17:36.30	335.46	4.33	-53.4	-68.4	3.8	1.49e+00	0	43	104	788529152	77	21397
2026-01-26 13:17:37.31	335.58	4.28	-53.5	-68.4	3.8	1.49e+00	0	43	104	788529152	77	21410
2026-01-26 13:17:38.32	335.69	4.24	-53.5	-68.5	3.8	1.49e+00	0	44	104	788529152	77	21535
2026-01-26 13:17:39.33	335.81	4.20	-53.5	-68.4	3.8	1.49e+00	0	43	104	788529152	77	21305
2026-01-26 13:17:40.33	335.93	4.16	-53.5	-68.5	3.8	1.49e+00	0	43	104	788529152	77	21543
2026-01-26 13:17:41.34	336.05	4.12	-53.5	-68.5	3.8	1.49e+00	0	43	104	788529152	77	21517
2026-01-26 13:17:42.35	336.16	4.07	-53.5	-68.4	3.8	1.49e+00	0	43	104	788529152	77	21421
2026-01-26 13:17:43.35	336.28	4.03	-53.4	-68.4	3.8	1.49e+00	0	44	104	788529152	77	21362
2026-01-26 13:17:44.36	336.39	3.99	-53.4	-68.4	3.8	1.49e+00	0	43	104	788529152	77	21450
2026-01-26 13:17:45.37	336.51	3.95	-53.4	-68.4	3.8	1.49e+00	0	43	104	788529152	77	21418
2026-01-26 13:17:46.38	336.63	3.90	-53.5	-68.4	3.8	1.49e+00	0	44	104	788529152	77	21410
2026-01-26 13:17:47.39	336.74	3.86	-53.4	-68.4	3.8	1.49e+00	0	44	104	788529152	77	21355
2026-01-26 13:17:48.40	336.86	3.82	-53.4	-68.4	3.8	1.49e+00	0	44	104	788529152	77	21329
2026-01-26 13:17:49.41	336.97	3.78	-53.4	-68.4	3.8	1.49e+00	0	44	104	788529152	77	21344
2026-01-26 13:17:50.41	337.09	3.74	-53.4	-68.4	3.8	1.49e+00	0	43	104	788529152	77	21277
2026-01-26 13:17:51.42	337.20	3.69	-53.4	-68.4	3.8	1.49e+00	0	43	104	788529152	77	21318
2026-01-26 13:17:52.43	337.31	3.65	-53.4	-68.4	3.8	1.49e+00	0	43	104	788529152	77	21320
2026-01-26 13:17:53.43	337.43	3.61	-53.4	-68.3	3.8	1.49e+00	0	44	104	788529152	77	21249
2026-01-26 13:17:54.44	337.54	3.57	-53.4	-68.4	3.8	1.49e+00	0	44	104	788529152	77	21287
2026-01-26 13:17:55.45	337.65	3.52	-53.4	-68.4	3.8	1.49e+00	0	44	104	788529152	77	21278
2026-01-26 13:17:56.46	337.76	3.48	-53.4	-68.4	3.8	1.49e+00	0	44	104	788529152	77	21290
2026-01-26 13:17:57.47	337.88	3.44	-53.4	-68.4	3.8	1.49e+00	0	44	104	788529152	77	21283
2026-01-26 13:17:58.47	337.99	3.40	-53.4	-68.3	3.8	1.49e+00	0	44	104	788529152	77	21247
2026-01-26 13:17:59.48	338.10	3.35	-53.4	-68.3	3.8	1.49e+00	0	44	104	788529152	77	21224
2026-01-26 13:18:00.49	338.21	3.31	-53.4	-68.3	3.8	1.49e+00	0	44	104	788529152	77	21243
2026-01-26 13:18:01.50	338.32	3.27	-53.4	-68.3	3.8	1.49e+00	0	44	104	788529152	77	21220
2026-01-26 13:18:02.50	338.43	3.23	-53.4	-68.3	3.8	1.49e+00	0	44	104	788529152	77	21108
2026-01-26 13:18:03.51	338.54	3.18	-53.4	-68.3	3.8	1.49e+00	0	44	104	788529152	77	21195
2026-01-26 13:18:04.52	338.65	3.14	-53.4	-68.3	3.8	1.49e+00	0	44	104	788529152	77	21167
2026-01-26 13:18:05.53	338.76	3.10	-53.4	-68.3	3.8	1.49e+00	0	44	104	788529152	77	21198
2026-01-26 13:18:06.53	338.87	3.06	-53.4	-68.3	3.8	1.49e+00	0	44	104	788529152	77	21107
2026-01-26 13:18:07.54	338.98	3.01	-53.3	-68.3	3.8	1.49e+00	0	44	104	788529152	77	21098
2026-01-26 13:18:08.55	339.09	2.97	-53.3	-68.3	3.8	1.49e+00	0	44	104	788529152	77	21116
2026-01-26 13:18:09.56	339.20	2.93	-53.3	-68.3	3.8	1.49e+00	0	44	104	788529152	77	21086
2026-01-26 13:18:10.57	339.31	2.88	-53.3	-68.3	3.8	1.49e+00	0	44	104	788529152	77	21066
2026-01-26 13:18:11.58	339.41	2.84	-53.3	-68.3	3.8	1.49e+00	0	44	104	788529152	77	21089
2026-01-26 13:18:12.59	339.52	2.80	-53.3	-68.3	3.8	1.49e+00	0	44	104	788529152	77	21096
2026-01-26 13:18:13.59	339.63	2.76	-53.3	-68.3	3.8	1.49e+00	0	43	104	788529152	77	21051
2026-01-26 13:18:14.60	339.74	2.71	-53.3	-68.3	3.8	1.49e+00	0	43	104	788529152	77	21102
2026-01-26 13:18:15.61	339.84	2.67	-53.3	-68.3	3.8	1.49e+00	0	44	104	788529152	77	21055
2026-01-26 13:18:16.61	339.95	2.63	-53.3	-68.3	3.8	1.49e+00	0	44	104	788529152	77	21072
2026-01-26 13:18:17.62	340.05	2.59	-53.3	-68.3	3.8	1.49e+00	0	44	104	788529152	77	21091
2026-01-26 13:18:18.63	340.16	2.54	-53.3	-68.3	3.8	1.49e+00	0	44	104	788529152	77	21084
2026-01-26 13:18:19.63	340.26	2.50	-53.3	-68.3	3.8	1.49e+00	0	43	104	788529152	77	21031
2026-01-26 13:18:20.64	340.37	2.46	-53.3	-68.3	3.8	1.49e+00	0	44	104	788529152	77	21054
2026-01-26 13:18:21.65	340.48	2.41	-53.3	-68.3	3.8	1.49e+00	0	44	104	788529152	77	21090
2026-01-26 13:18:22.66	340.58	2.37	-53.3	-68.3	3.8	1.49e+00	0	44	104	788529152	77	21083
2026-01-26 13:18:23.67	340.68	2.33	-53.3	-68.3	3.8	1.49e+00	0	44	104	788529152	77	21079
2026-01-26 13:18:24.67	340.79	2.29	-53.3	-68.3	3.8	1.49e+00	0	44	104	788529152	77	21109
2026-01-26 13:18:25.68	340.89	2.24	-53.3	-68.2	3.8	1.49e+00	0	43	104	788529152	77	21009
2026-01-26 13:18:26.69	341.00	2.20	-53.3	-68.3	3.8	1.49e+00	0	44	104	788529152	77	21126
2026-01-26 13:18:27.70	341.10	2.16	-53.3	-68.2	3.8	1.49e+00	0	44	104	788529152	77	21009
2026-01-26 13:18:28.71	341.20	2.11	-53.3	-68.3	3.8	1.49e+00	0	43	104	788529152	77	21043
2026-01-26 13:18:29.71	341.30	2.07	-53.3	-68.2	3.8	1.49e+00	0	44	104	788529152	77	21008
2026-01-26 13:18:30.71	341.41	2.03	-53.3	-68.3	3.8	1.49e+00	0	44	104	788529152	77	21045
2026-01-26 13:18:31.72	341.51	1.99	-53.3	-68.2	3.8	1.49e+00	0	44	104	788529152	77	20927

#Closed at: 2026-01-26 13:18:31
#Recorded file [788 MB]: D:/lorett/data/31041_260126_160800.dat