passes_logs/2026/01/26/R3.2S_Murmansk/R3.2S_Murmansk__20260126_085249_NOAA_21_JPSS-2_rec.log

#Pass ID: 20260126_085249_NOAA 21 (JPSS-2)
#Satellite: NOAA 21 (JPSS-2)
#Configuration: NOAA-21
#almurnet v.1.7.20251203
#Start time: 2026-01-26 08:54:19

#Version: 2.2.20231116
#Station: R3.2S_Murmansk
#Location: 33.079688 lon 68.888172 lat
#TLE: 1 54234U 22150A   26025.93791214  .00000195  00000+0  11336-3 0  9990
#TLE: 2 54234  98.7509 326.7059 0000782 212.3040 147.8088 14.19539484166365

#Time	Az	El	Level	Level2	SNR	BER	BlckErr	Temp	State	Recorded	gain1	gain2
2026-01-26 08:54:19.33	134.85	8.40	-48.1	-59.9	3.8	8.46e-01	0	42	0	0	66	15099
2026-01-26 08:54:20.33	134.82	8.48	-48.1	-60.7	3.8	1.49e+00	0	44	104	0	66	16684
2026-01-26 08:54:21.34	134.80	8.56	-48.1	-60.7	3.8	1.49e+00	0	44	104	0	66	16623
2026-01-26 08:54:22.35	134.78	8.65	-48.1	-60.7	3.8	1.49e+00	0	43	104	0	66	16625
2026-01-26 08:54:23.36	134.75	8.73	-48.1	-60.7	3.8	1.49e+00	0	43	104	0	66	16638
2026-01-26 08:54:24.37	134.73	8.81	-48.1	-60.7	3.8	1.49e+00	0	44	104	0	66	16566
2026-01-26 08:54:25.37	134.70	8.89	-48.1	-60.7	3.8	1.49e+00	0	44	104	0	66	16615
2026-01-26 08:54:26.38	134.68	8.98	-48.1	-60.7	3.8	1.49e+00	0	43	104	0	66	16587
2026-01-26 08:54:27.39	134.66	9.06	-48.1	-60.7	3.8	1.49e+00	0	44	104	0	66	16581
2026-01-26 08:54:28.40	134.63	9.14	-48.1	-60.7	3.8	1.49e+00	0	43	104	0	66	16566
2026-01-26 08:54:29.40	134.61	9.23	-48.1	-60.7	3.8	1.49e+00	0	43	104	0	66	16573
2026-01-26 08:54:30.41	134.58	9.31	-48.1	-60.7	3.8	1.49e+00	0	43	104	0	66	16576
2026-01-26 08:54:31.42	134.56	9.40	-48.1	-60.7	3.8	1.49e+00	0	43	104	0	66	16582
2026-01-26 08:54:32.43	134.53	9.48	-48.1	-60.7	3.8	1.49e+00	0	44	104	0	66	16568
2026-01-26 08:54:33.43	134.51	9.57	-48.1	-60.7	3.8	1.49e+00	0	43	104	0	66	16594
2026-01-26 08:54:34.44	134.48	9.65	-48.1	-60.7	3.8	1.49e+00	0	43	104	0	66	16546
2026-01-26 08:54:35.45	134.46	9.74	-48.1	-60.7	3.8	1.49e+00	0	43	104	0	66	16529
2026-01-26 08:54:36.46	134.43	9.82	-48.1	-60.7	3.8	1.49e+00	0	44	104	0	66	16521
2026-01-26 08:54:37.46	134.40	9.91	-48.1	-60.7	3.8	1.49e+00	0	44	104	0	66	16504
2026-01-26 08:54:38.47	134.38	10.00	-48.1	-60.7	3.8	1.49e+00	0	43	104	0	66	16564
2026-01-26 08:54:39.47	134.35	10.08	-48.1	-60.6	3.8	1.49e+00	0	43	104	0	66	16430
2026-01-26 08:54:40.48	134.33	10.17	-48.1	-60.6	3.8	1.49e+00	0	43	104	0	66	16400
2026-01-26 08:54:41.49	134.30	10.26	-48.1	-60.7	3.8	1.49e+00	0	43	104	0	66	16510
2026-01-26 08:54:42.50	134.27	10.35	-48.1	-60.8	3.8	1.49e+00	0	43	104	0	66	16705
2026-01-26 08:54:43.51	134.25	10.44	-48.1	-60.7	3.8	1.49e+00	0	43	104	0	66	16668
2026-01-26 08:54:44.52	134.22	10.52	-48.1	-60.7	3.8	1.49e+00	0	43	104	0	66	16638
2026-01-26 08:54:45.53	134.19	10.61	-48.1	-60.7	3.8	1.49e+00	0	43	104	0	66	16607
2026-01-26 08:54:46.54	134.16	10.70	-48.1	-60.7	3.8	1.49e+00	0	43	104	0	66	16643
2026-01-26 08:54:47.55	134.14	10.79	-48.1	-60.8	3.8	1.49e+00	0	43	104	0	66	16696
2026-01-26 08:54:48.55	134.11	10.88	-48.1	-60.7	3.8	1.49e+00	0	44	104	0	66	16670
2026-01-26 08:54:49.56	134.08	10.97	-48.1	-60.7	3.8	1.49e+00	0	44	104	0	66	16606
2026-01-26 08:54:50.57	134.05	11.06	-48.1	-60.7	3.8	1.49e+00	0	44	104	0	66	16666
2026-01-26 08:54:51.58	134.02	11.15	-48.1	-60.7	3.8	1.49e+00	0	44	104	0	66	16688
2026-01-26 08:54:52.59	133.99	11.24	-48.1	-60.7	3.8	1.49e+00	0	44	104	0	66	16622
2026-01-26 08:54:53.59	133.97	11.33	-48.1	-60.7	3.8	1.49e+00	0	44	104	0	66	16617
2026-01-26 08:54:54.60	133.94	11.43	-48.1	-60.7	3.8	1.49e+00	0	43	104	0	66	16659
2026-01-26 08:54:55.61	133.91	11.52	-48.1	-60.7	3.8	1.49e+00	0	43	104	0	66	16647
2026-01-26 08:54:56.61	133.88	11.61	-48.1	-60.7	3.8	1.49e+00	0	43	104	0	66	16655
2026-01-26 08:54:57.62	133.85	11.70	-48.1	-60.7	3.8	1.49e+00	0	44	104	0	66	16630
2026-01-26 08:54:58.63	133.82	11.80	-48.1	-60.7	3.8	1.49e+00	0	44	104	0	66	16641
2026-01-26 08:54:59.64	133.79	11.89	-48.1	-60.7	3.8	1.49e+00	0	44	104	0	66	16623
2026-01-26 08:55:00.65	133.76	11.98	-48.1	-60.7	3.8	1.49e+00	0	43	104	0	66	16619
2026-01-26 08:55:01.65	133.73	12.08	-48.1	-60.7	3.8	1.49e+00	0	43	104	0	66	16621
2026-01-26 08:55:02.66	133.70	12.17	-48.1	-60.7	3.8	1.49e+00	0	43	104	0	66	16610
2026-01-26 08:55:03.66	133.67	12.27	-48.1	-60.7	3.8	1.49e+00	0	43	104	0	66	16661
2026-01-26 08:55:04.67	133.63	12.36	-48.1	-60.7	3.8	1.49e+00	0	43	104	0	66	16673
2026-01-26 08:55:05.68	133.60	12.46	-48.1	-60.7	3.8	1.49e+00	0	43	104	0	66	16662
2026-01-26 08:55:06.69	133.57	12.55	-48.1	-60.7	3.8	1.49e+00	0	43	104	0	66	16659
2026-01-26 08:55:07.70	133.54	12.65	-48.1	-60.7	3.8	1.49e+00	0	44	104	0	66	16671
2026-01-26 08:55:08.70	133.51	12.75	-48.1	-60.7	3.8	1.49e+00	0	43	104	0	66	16658
2026-01-26 08:55:09.71	133.48	12.84	-48.1	-60.8	3.8	1.49e+00	0	43	104	0	66	16710
2026-01-26 08:55:10.72	133.44	12.94	-48.1	-60.7	3.8	1.49e+00	0	44	104	0	66	16658
2026-01-26 08:55:11.72	133.41	13.04	-48.1	-60.7	3.8	1.49e+00	0	44	104	0	66	16690
2026-01-26 08:55:12.73	133.38	13.14	-48.1	-60.7	3.8	1.49e+00	0	43	104	0	66	16648
2026-01-26 08:55:13.74	133.34	13.24	-48.1	-60.7	3.8	1.49e+00	0	43	104	0	66	16679
2026-01-26 08:55:14.75	133.31	13.33	-48.1	-60.7	3.8	1.49e+00	0	43	104	0	66	16687
2026-01-26 08:55:15.75	133.28	13.43	-48.1	-60.7	3.8	1.49e+00	0	43	104	0	66	16662
2026-01-26 08:55:16.76	133.24	13.53	-48.1	-60.7	3.8	1.49e+00	0	43	104	0	66	16671
2026-01-26 08:55:17.77	133.21	13.63	-48.1	-60.7	3.8	1.49e+00	0	44	104	0	66	16654
2026-01-26 08:55:18.78	133.17	13.73	-48.1	-60.7	3.8	1.49e+00	0	43	104	0	66	16655
2026-01-26 08:55:19.79	133.14	13.84	-48.1	-60.7	3.8	1.49e+00	0	44	104	0	66	16671
2026-01-26 08:55:20.80	133.10	13.94	-48.1	-60.7	3.8	1.49e+00	0	44	104	0	66	16667
2026-01-26 08:55:21.81	133.07	14.04	-48.1	-60.7	3.8	1.49e+00	0	44	104	0	66	16645
2026-01-26 08:55:22.81	133.03	14.14	-48.1	-60.7	3.8	1.49e+00	0	44	104	0	66	16663
2026-01-26 08:55:23.82	133.00	14.24	-48.1	-60.7	3.8	1.49e+00	0	44	104	0	66	16664
2026-01-26 08:55:24.83	132.96	14.35	-48.1	-60.7	3.8	1.49e+00	0	43	104	0	66	16662
2026-01-26 08:55:25.83	132.92	14.45	-48.1	-60.7	3.8	1.49e+00	0	43	104	0	66	16660
2026-01-26 08:55:26.84	132.89	14.55	-48.1	-60.7	3.8	1.49e+00	0	43	104	0	66	16631
2026-01-26 08:55:27.85	132.85	14.66	-48.1	-60.7	3.8	1.49e+00	0	43	104	0	66	16623
2026-01-26 08:55:28.86	132.81	14.76	-48.1	-60.8	3.8	1.49e+00	0	43	104	0	66	16705
2026-01-26 08:55:29.87	132.78	14.87	-48.1	-60.7	3.8	1.49e+00	0	43	104	0	66	16613
2026-01-26 08:55:30.87	132.74	14.97	-48.1	-60.7	3.8	1.49e+00	0	44	104	0	66	16654
2026-01-26 08:55:31.88	132.70	15.08	-48.1	-60.7	3.8	1.49e+00	0	44	104	0	66	16660
2026-01-26 08:55:32.89	132.66	15.19	-48.1	-60.7	3.8	1.49e+00	0	43	104	0	66	16618
2026-01-26 08:55:33.90	132.62	15.29	-48.1	-60.8	3.8	1.49e+00	0	44	104	0	66	16707
2026-01-26 08:55:34.91	132.58	15.40	-48.1	-60.7	3.8	1.49e+00	0	44	104	0	66	16635
2026-01-26 08:55:35.92	132.54	15.51	-48.1	-60.7	3.8	1.49e+00	0	44	104	0	66	16653
2026-01-26 08:55:36.93	132.50	15.62	-48.1	-60.7	3.8	1.49e+00	0	44	104	0	66	16632
2026-01-26 08:55:37.93	132.47	15.73	-48.1	-60.7	3.8	1.49e+00	0	44	104	0	66	16658
2026-01-26 08:55:38.94	132.43	15.84	-48.1	-60.7	3.8	1.49e+00	0	44	104	0	66	16664
2026-01-26 08:55:39.95	132.38	15.95	-48.1	-60.7	3.8	1.49e+00	0	44	104	0	66	16656
2026-01-26 08:55:40.96	132.34	16.06	-48.1	-60.7	3.8	1.49e+00	0	43	104	0	66	16653
2026-01-26 08:55:41.97	132.30	16.17	-48.1	-60.7	3.8	1.49e+00	0	44	104	0	66	16666
2026-01-26 08:55:42.98	132.26	16.28	-48.1	-60.7	3.8	1.49e+00	0	44	104	0	66	16679
2026-01-26 08:55:43.99	132.22	16.39	-48.1	-60.7	3.8	1.49e+00	0	43	104	0	66	16655
2026-01-26 08:55:44.99	132.18	16.50	-48.1	-60.7	3.8	1.49e+00	0	44	104	0	66	16649
2026-01-26 08:55:46.00	132.13	16.61	-48.1	-60.8	3.8	1.49e+00	0	43	104	0	66	16717
2026-01-26 08:55:47.01	132.09	16.73	-48.1	-60.7	3.8	1.49e+00	0	44	104	0	66	16680
2026-01-26 08:55:48.01	132.05	16.84	-48.1	-60.7	3.8	1.49e+00	0	44	104	0	66	16648
2026-01-26 08:55:49.02	132.00	16.96	-48.1	-60.7	3.8	1.49e+00	0	44	104	0	66	16612
2026-01-26 08:55:50.03	131.96	17.07	-48.1	-60.7	3.8	1.49e+00	0	43	104	0	66	16631
2026-01-26 08:55:51.04	131.92	17.19	-48.1	-60.7	3.8	1.49e+00	0	44	104	0	66	16626
2026-01-26 08:55:52.05	131.87	17.30	-48.1	-60.7	3.8	1.49e+00	0	44	104	0	66	16638
2026-01-26 08:55:53.05	131.83	17.42	-48.1	-60.7	3.8	1.49e+00	0	44	104	0	66	16635
2026-01-26 08:55:54.06	131.78	17.53	-48.1	-60.7	3.8	1.49e+00	0	44	104	0	66	16648
2026-01-26 08:55:55.07	131.73	17.65	-48.1	-60.7	3.8	1.49e+00	0	44	104	0	66	16691
2026-01-26 08:55:56.07	131.69	17.77	-48.1	-60.7	3.8	1.49e+00	0	43	104	0	66	16659
2026-01-26 08:55:57.08	131.64	17.89	-48.1	-60.7	3.8	1.49e+00	0	44	104	0	66	16647
2026-01-26 08:55:58.09	131.60	18.01	-48.1	-60.7	3.8	1.49e+00	0	44	104	0	66	16659
2026-01-26 08:55:59.10	131.55	18.13	-48.1	-60.7	3.8	1.49e+00	0	44	104	0	66	16615
2026-01-26 08:56:00.11	131.50	18.25	-48.1	-60.7	3.8	1.49e+00	0	44	104	0	66	16649
2026-01-26 08:56:01.12	131.45	18.37	-48.1	-60.7	3.8	1.49e+00	0	44	104	0	66	16640
2026-01-26 08:56:02.13	131.40	18.49	-48.1	-60.7	3.8	1.49e+00	0	44	104	0	66	16648
2026-01-26 08:56:03.13	131.35	18.61	-48.1	-60.7	3.8	1.49e+00	0	44	104	0	66	16637
2026-01-26 08:56:04.14	131.30	18.73	-48.1	-60.7	3.8	1.49e+00	0	44	104	0	66	16630
2026-01-26 08:56:05.15	131.26	18.86	-48.1	-60.7	3.8	1.49e+00	0	44	104	0	66	16640
2026-01-26 08:56:06.15	131.21	18.98	-48.1	-60.7	3.8	1.49e+00	0	44	104	0	66	16654
2026-01-26 08:56:07.16	131.15	19.10	-48.1	-60.7	3.8	1.49e+00	0	44	104	0	66	16672
2026-01-26 08:56:08.17	131.10	19.23	-48.1	-60.7	3.8	1.49e+00	0	44	104	0	66	16638
2026-01-26 08:56:09.17	131.05	19.35	-48.1	-60.7	3.8	1.49e+00	0	44	104	0	66	16640
2026-01-26 08:56:10.18	131.00	19.48	-48.1	-60.7	3.8	1.49e+00	0	44	104	0	66	16657
2026-01-26 08:56:11.19	130.95	19.61	-48.1	-60.7	3.8	1.49e+00	0	44	104	0	66	16659
2026-01-26 08:56:12.20	130.89	19.73	-48.1	-60.7	3.8	1.49e+00	0	44	104	0	66	16663
2026-01-26 08:56:13.20	130.84	19.86	-48.1	-60.7	3.8	1.49e+00	0	44	104	0	66	16638
2026-01-26 08:56:14.21	130.79	19.99	-48.1	-60.7	3.8	1.49e+00	0	44	104	0	66	16680
2026-01-26 08:56:15.22	130.73	20.12	-48.1	-60.7	3.8	1.49e+00	0	44	104	0	66	16654
2026-01-26 08:56:16.23	130.68	20.25	-48.1	-60.7	3.8	1.49e+00	0	43	104	0	66	16656
2026-01-26 08:56:17.24	130.62	20.38	-48.1	-60.7	3.8	1.49e+00	0	43	104	0	66	16665
2026-01-26 08:56:18.24	130.57	20.51	-48.1	-60.7	3.8	1.49e+00	0	43	104	0	66	16654
2026-01-26 08:56:19.25	130.51	20.64	-48.1	-60.7	3.8	1.49e+00	0	44	104	0	66	16631
2026-01-26 08:56:20.26	130.45	20.78	-48.1	-60.7	3.8	1.49e+00	0	44	104	0	66	16646
2026-01-26 08:56:21.27	130.40	20.91	-48.1	-60.8	3.8	1.49e+00	0	43	104	0	66	16708
2026-01-26 08:56:22.28	130.34	21.04	-48.1	-60.7	3.8	1.49e+00	0	44	104	0	66	16652
2026-01-26 08:56:23.28	130.28	21.18	-48.1	-60.7	3.8	1.49e+00	0	44	104	0	66	16634
2026-01-26 08:56:24.29	130.22	21.31	-48.1	-60.7	3.8	1.49e+00	0	44	104	0	66	16649
2026-01-26 08:56:25.30	130.16	21.45	-48.1	-60.7	3.8	1.49e+00	0	43	104	0	66	16646
2026-01-26 08:56:26.31	130.10	21.58	-48.1	-60.7	3.8	1.49e+00	0	43	104	0	66	16621
2026-01-26 08:56:27.32	130.04	21.72	-48.1	-60.7	3.8	1.49e+00	0	44	104	0	66	16644
2026-01-26 08:56:28.33	129.98	21.86	-48.1	-60.7	3.8	1.49e+00	0	44	104	0	66	16638
2026-01-26 08:56:29.33	129.92	22.00	-48.1	-60.7	3.8	1.49e+00	0	44	104	0	66	16679
2026-01-26 08:56:30.34	129.85	22.14	-48.1	-60.7	3.8	1.49e+00	0	43	104	0	66	16649
2026-01-26 08:56:31.35	129.79	22.28	-48.1	-60.7	3.8	1.49e+00	0	44	104	0	66	16630
2026-01-26 08:56:32.36	129.73	22.42	-48.1	-60.7	3.8	1.49e+00	0	43	104	0	66	16622
2026-01-26 08:56:33.37	129.66	22.56	-48.1	-60.7	3.8	1.49e+00	0	44	104	0	66	16683
2026-01-26 08:56:34.37	129.60	22.70	-48.1	-60.7	3.8	1.49e+00	0	43	104	0	66	16607
2026-01-26 08:56:35.38	129.53	22.85	-48.1	-60.7	3.8	1.49e+00	0	43	104	0	66	16636
2026-01-26 08:56:36.39	129.47	22.99	-48.1	-60.7	3.8	1.49e+00	0	44	104	0	66	16593
2026-01-26 08:56:37.40	129.40	23.13	-48.1	-60.7	3.8	1.49e+00	0	44	104	0	66	16657
2026-01-26 08:56:38.41	129.33	23.28	-48.1	-60.7	3.8	1.49e+00	0	43	104	0	66	16653
2026-01-26 08:56:39.41	129.26	23.42	-48.1	-60.7	3.8	1.49e+00	0	43	104	0	66	16671
2026-01-26 08:56:40.42	129.20	23.57	-48.1	-60.7	3.8	1.49e+00	0	43	104	0	66	16592
2026-01-26 08:56:41.42	129.13	23.72	-48.1	-60.7	3.8	1.49e+00	0	44	104	0	66	16668
2026-01-26 08:56:42.43	129.06	23.87	-48.1	-60.7	3.8	1.49e+00	0	43	104	0	66	16646
2026-01-26 08:56:43.44	128.99	24.02	-48.1	-60.7	3.8	1.49e+00	0	44	104	0	66	16675
2026-01-26 08:56:44.45	128.91	24.17	-48.1	-60.7	3.8	1.49e+00	0	44	104	0	66	16678
2026-01-26 08:56:45.45	128.84	24.32	-48.1	-60.7	3.8	1.49e+00	0	44	104	0	66	16648
2026-01-26 08:56:46.46	128.77	24.47	-48.1	-60.7	3.8	1.49e+00	0	43	104	0	66	16645
2026-01-26 08:56:47.47	128.70	24.62	-48.1	-60.7	3.8	1.49e+00	0	44	104	0	66	16626
2026-01-26 08:56:48.48	128.62	24.78	-48.1	-60.7	3.8	1.49e+00	0	44	104	0	66	16650
2026-01-26 08:56:49.49	128.55	24.93	-48.1	-60.7	3.8	1.49e+00	0	43	104	0	66	16661
2026-01-26 08:56:50.50	128.47	25.09	-48.1	-60.7	3.8	1.49e+00	0	44	104	0	66	16635
2026-01-26 08:56:51.51	128.39	25.24	-48.1	-60.7	3.8	1.49e+00	0	44	104	0	66	16658
2026-01-26 08:56:52.52	128.31	25.40	-48.1	-60.7	3.8	1.49e+00	0	44	104	0	66	16658
2026-01-26 08:56:53.53	128.24	25.56	-48.1	-60.7	3.8	1.49e+00	0	44	104	0	66	16682
2026-01-26 08:56:54.53	128.16	25.71	-48.1	-60.7	3.8	1.49e+00	0	43	104	0	66	16664
2026-01-26 08:56:55.54	128.08	25.87	-48.1	-60.8	3.8	1.49e+00	0	43	104	0	66	16726
2026-01-26 08:56:56.56	128.00	26.04	-48.1	-60.7	3.8	1.49e+00	0	43	104	0	66	16650
2026-01-26 08:56:57.57	127.91	26.20	-48.1	-60.7	3.8	1.49e+00	0	43	104	0	66	16605
2026-01-26 08:56:58.57	127.83	26.36	-48.1	-60.7	3.8	1.49e+00	0	44	104	0	66	16663
2026-01-26 08:56:59.58	127.75	26.52	-48.1	-60.7	3.8	1.49e+00	0	44	104	0	66	16622
2026-01-26 08:57:00.59	127.66	26.69	-48.1	-60.7	3.8	1.49e+00	0	44	104	0	66	16618
2026-01-26 08:57:01.60	127.58	26.85	-48.1	-60.7	3.8	1.49e+00	0	44	104	0	66	16641
2026-01-26 08:57:02.60	127.49	27.02	-48.1	-60.8	3.8	1.49e+00	0	44	104	0	66	16701
2026-01-26 08:57:03.62	127.40	27.18	-48.1	-60.7	3.8	1.49e+00	0	43	104	0	66	16618
2026-01-26 08:57:04.63	127.32	27.35	-48.1	-60.7	3.8	1.49e+00	0	44	104	0	66	16647
2026-01-26 08:57:05.63	127.23	27.52	-48.1	-60.7	3.8	1.49e+00	0	44	104	0	66	16662
2026-01-26 08:57:06.64	127.14	27.69	-48.1	-60.7	3.8	1.49e+00	0	43	104	0	66	16650
2026-01-26 08:57:07.65	127.05	27.86	-48.1	-60.8	3.8	1.49e+00	0	44	104	0	66	16706
2026-01-26 08:57:08.66	126.95	28.03	-48.1	-60.8	3.8	1.49e+00	0	44	104	0	66	16695
2026-01-26 08:57:09.67	126.86	28.21	-48.1	-60.7	3.8	1.49e+00	0	44	104	0	66	16638
2026-01-26 08:57:10.68	126.77	28.38	-48.1	-60.7	3.8	1.49e+00	0	44	104	0	66	16646
2026-01-26 08:57:11.69	126.67	28.55	-48.1	-60.7	3.8	1.49e+00	0	43	104	0	66	16630
2026-01-26 08:57:12.69	126.58	28.73	-48.1	-60.7	3.8	1.49e+00	0	44	104	0	66	16613
2026-01-26 08:57:13.70	126.48	28.91	-48.1	-60.7	3.8	1.49e+00	0	43	104	0	66	16659
2026-01-26 08:57:14.71	126.38	29.08	-48.1	-60.7	3.8	1.49e+00	0	44	104	0	66	16672
2026-01-26 08:57:15.72	126.28	29.26	-48.1	-60.7	3.8	1.49e+00	0	43	104	0	66	16643
2026-01-26 08:57:16.73	126.18	29.44	-48.1	-60.7	3.8	1.49e+00	0	43	104	0	66	16629
2026-01-26 08:57:17.73	126.08	29.62	-48.1	-60.7	3.8	1.49e+00	0	43	104	0	66	16641
2026-01-26 08:57:18.74	125.98	29.80	-48.1	-60.7	3.8	1.49e+00	0	44	104	0	66	16666
2026-01-26 08:57:19.75	125.87	29.99	-48.1	-60.7	3.8	1.49e+00	0	44	104	0	66	16657
2026-01-26 08:57:20.75	125.77	30.17	-48.1	-60.7	3.8	1.49e+00	0	43	104	0	66	16634
2026-01-26 08:57:21.76	125.66	30.35	-48.1	-60.7	3.8	1.49e+00	0	43	104	0	66	16626
2026-01-26 08:57:22.76	125.55	30.54	-48.1	-60.7	3.8	1.49e+00	0	44	104	0	66	16611
2026-01-26 08:57:23.77	125.44	30.73	-48.1	-60.7	3.8	1.49e+00	0	43	104	0	66	16636
2026-01-26 08:57:24.78	125.33	30.91	-48.1	-60.7	3.8	1.49e+00	0	44	104	0	66	16636
2026-01-26 08:57:25.79	125.22	31.10	-48.1	-60.7	3.8	1.49e+00	0	43	104	0	66	16594
2026-01-26 08:57:26.80	125.11	31.29	-48.1	-60.7	3.8	1.49e+00	0	43	104	0	66	16669
2026-01-26 08:57:27.81	124.99	31.49	-48.1	-60.7	3.8	1.49e+00	0	44	104	0	66	16645
2026-01-26 08:57:28.82	124.87	31.68	-48.1	-60.7	3.8	1.49e+00	0	43	104	0	66	16635
2026-01-26 08:57:29.82	124.76	31.87	-48.1	-60.7	3.8	1.49e+00	0	43	104	0	66	16662
2026-01-26 08:57:30.82	124.64	32.07	-48.1	-60.8	3.8	1.49e+00	0	44	104	0	66	16697
2026-01-26 08:57:31.83	124.52	32.26	-48.1	-60.7	3.8	1.49e+00	0	43	104	0	66	16676
2026-01-26 08:57:32.84	124.40	32.46	-48.1	-60.7	3.8	1.49e+00	0	44	104	0	66	16637
2026-01-26 08:57:33.85	124.27	32.66	-48.1	-60.7	3.8	1.49e+00	0	44	104	0	66	16647
2026-01-26 08:57:34.85	124.15	32.86	-48.1	-60.7	3.8	1.49e+00	0	43	104	0	66	16665
2026-01-26 08:57:35.86	124.02	33.06	-48.1	-60.7	3.8	1.49e+00	0	44	104	0	66	16671
2026-01-26 08:57:36.87	123.89	33.26	-48.1	-60.7	3.8	1.49e+00	0	44	104	0	66	16677
2026-01-26 08:57:37.88	123.76	33.46	-48.1	-60.7	3.8	1.49e+00	0	44	104	0	66	16623
2026-01-26 08:57:38.88	123.63	33.66	-48.1	-60.8	3.8	1.49e+00	0	43	104	0	66	16738
2026-01-26 08:57:39.89	123.50	33.87	-48.1	-60.7	3.8	1.49e+00	0	44	104	0	66	16613
2026-01-26 08:57:40.90	123.37	34.08	-48.1	-60.7	3.8	1.49e+00	0	43	104	0	66	16635
2026-01-26 08:57:41.91	123.23	34.28	-48.1	-60.7	3.8	1.49e+00	0	43	104	0	66	16644
2026-01-26 08:57:42.92	123.09	34.49	-48.1	-60.7	3.8	1.49e+00	0	43	104	0	66	16649
2026-01-26 08:57:43.92	122.95	34.70	-48.1	-60.7	3.8	1.49e+00	0	43	104	0	66	16685
2026-01-26 08:57:44.93	122.81	34.91	-48.1	-60.7	3.8	1.49e+00	0	43	104	0	66	16645
2026-01-26 08:57:45.94	122.66	35.13	-48.1	-60.7	3.8	1.49e+00	0	44	104	0	66	16665
2026-01-26 08:57:46.95	122.52	35.34	-48.1	-60.7	3.8	1.49e+00	0	44	104	0	66	16643
2026-01-26 08:57:47.96	122.37	35.56	-48.1	-60.7	3.8	1.49e+00	0	43	104	0	66	16688
2026-01-26 08:57:48.97	122.22	35.77	-48.1	-60.7	3.8	1.49e+00	0	43	104	0	66	16611
2026-01-26 08:57:49.97	122.07	35.99	-48.1	-60.7	3.8	1.49e+00	0	44	104	0	66	16674
2026-01-26 08:57:50.98	121.91	36.21	-48.1	-60.7	3.8	1.49e+00	0	44	104	0	66	16618
2026-01-26 08:57:51.99	121.76	36.43	-48.1	-60.7	3.8	1.49e+00	0	44	104	0	66	16670
2026-01-26 08:57:53.00	121.60	36.65	-48.1	-60.7	3.8	1.49e+00	0	44	104	0	66	16615
2026-01-26 08:57:54.01	121.44	36.87	-48.1	-60.7	3.8	1.49e+00	0	44	104	0	66	16626
2026-01-26 08:57:55.01	121.28	37.09	-48.1	-60.7	3.8	1.49e+00	0	43	104	0	66	16626
2026-01-26 08:57:56.02	121.11	37.32	-48.1	-60.7	3.8	1.49e+00	0	43	104	0	66	16646
2026-01-26 08:57:57.03	120.94	37.54	-48.1	-60.7	3.8	1.49e+00	0	43	104	0	66	16680
2026-01-26 08:57:58.04	120.77	37.77	-48.1	-60.7	3.8	1.49e+00	0	43	104	0	66	16686
2026-01-26 08:57:59.04	120.60	38.00	-48.1	-60.7	3.8	1.49e+00	0	44	104	0	66	16685
2026-01-26 08:58:00.05	120.43	38.23	-48.1	-60.7	3.8	1.49e+00	0	43	104	0	66	16651
2026-01-26 08:58:01.06	120.25	38.46	-48.1	-60.7	3.8	1.49e+00	0	44	104	0	66	16679
2026-01-26 08:58:02.07	120.07	38.69	-48.1	-60.7	3.8	1.49e+00	0	44	104	0	66	16667
2026-01-26 08:58:03.08	119.88	38.93	-48.1	-60.7	3.8	1.49e+00	0	44	104	0	66	16641
2026-01-26 08:58:04.09	119.70	39.16	-48.1	-60.7	3.8	1.49e+00	0	43	104	0	66	16653
2026-01-26 08:58:05.10	119.51	39.40	-48.1	-60.7	3.8	1.49e+00	0	44	104	0	66	16649
2026-01-26 08:58:06.11	119.32	39.64	-48.1	-60.7	3.8	1.49e+00	0	43	104	0	66	16639
2026-01-26 08:58:07.12	119.13	39.88	-48.1	-60.7	3.8	1.49e+00	0	44	104	0	66	16655
2026-01-26 08:58:08.13	118.93	40.12	-48.1	-60.7	3.8	1.49e+00	0	43	104	0	66	16601
2026-01-26 08:58:09.13	118.73	40.36	-48.1	-60.7	3.8	1.49e+00	0	43	104	0	66	16647
2026-01-26 08:58:10.15	118.53	40.60	-48.1	-60.7	3.8	1.49e+00	0	44	104	0	66	16654
2026-01-26 08:58:11.15	118.32	40.84	-48.1	-60.7	3.8	1.49e+00	0	44	104	0	66	16613
2026-01-26 08:58:12.16	118.11	41.09	-48.1	-60.7	3.8	1.49e+00	0	43	104	0	66	16632
2026-01-26 08:58:13.17	117.90	41.33	-48.1	-60.7	3.8	1.49e+00	0	44	104	0	66	16652
2026-01-26 08:58:14.18	117.68	41.58	-48.1	-60.8	3.8	1.49e+00	0	43	104	0	66	16706
2026-01-26 08:58:15.19	117.46	41.83	-48.1	-60.7	3.8	1.49e+00	0	43	104	0	66	16648
2026-01-26 08:58:16.20	117.24	42.08	-48.1	-60.8	3.8	1.49e+00	0	44	104	0	66	16702
2026-01-26 08:58:17.21	117.02	42.33	-48.1	-60.7	3.8	1.49e+00	0	43	104	0	66	16600
2026-01-26 08:58:18.21	116.79	42.58	-48.1	-60.7	3.8	1.49e+00	0	44	104	0	66	16652
2026-01-26 08:58:19.22	116.55	42.83	-47.9	-60.7	3.8	1.49e+00	0	44	104	0	66	16678
2026-01-26 08:58:20.23	116.32	43.09	-48.1	-60.7	3.8	1.49e+00	0	43	104	0	66	16691
2026-01-26 08:58:21.23	116.08	43.34	-48.1	-60.7	3.8	1.49e+00	0	44	104	0	66	16633
2026-01-26 08:58:22.24	115.83	43.60	-48.1	-60.7	3.8	1.49e+00	0	44	104	0	66	16660
2026-01-26 08:58:23.25	115.58	43.86	-48.1	-60.8	3.8	1.49e+00	0	43	104	0	66	16701
2026-01-26 08:58:24.25	115.33	44.11	-48.1	-60.7	3.8	1.49e+00	0	43	104	0	66	16638
2026-01-26 08:58:25.26	115.08	44.37	-48.1	-60.7	3.8	1.49e+00	0	44	104	0	66	16649
2026-01-26 08:58:26.27	114.81	44.64	-48.1	-60.7	3.8	1.49e+00	0	44	104	0	66	16627
2026-01-26 08:58:27.28	114.55	44.90	-48.1	-60.7	3.8	1.49e+00	0	44	104	0	66	16660
2026-01-26 08:58:28.29	114.28	45.16	-48.1	-60.7	3.8	1.49e+00	0	44	104	0	66	16650
2026-01-26 08:58:29.29	114.01	45.42	-48.1	-60.7	3.8	1.49e+00	0	44	104	0	66	16668
2026-01-26 08:58:30.30	113.73	45.69	-48.1	-60.7	3.8	1.49e+00	0	44	104	0	66	16651
2026-01-26 08:58:31.31	113.44	45.96	-48.1	-60.7	3.8	1.49e+00	0	43	104	0	66	16682
2026-01-26 08:58:32.32	113.15	46.22	-48.1	-60.7	3.8	1.49e+00	0	44	104	0	66	16651
2026-01-26 08:58:33.33	112.86	46.49	-48.1	-60.7	3.8	1.49e+00	0	43	104	0	66	16655
2026-01-26 08:58:34.34	112.56	46.76	-48.1	-60.7	3.8	1.49e+00	0	44	104	0	66	16669
2026-01-26 08:58:35.34	112.26	47.03	-48.1	-60.7	3.8	1.49e+00	0	43	104	0	66	16632
2026-01-26 08:58:36.35	111.95	47.30	-48.1	-60.7	3.8	1.49e+00	0	44	104	0	66	16657
2026-01-26 08:58:37.36	111.63	47.57	-48.1	-60.7	3.8	1.49e+00	0	44	104	0	66	16612
2026-01-26 08:58:38.37	111.31	47.84	-48.1	-60.7	3.8	1.49e+00	0	44	104	0	66	16681
2026-01-26 08:58:39.37	110.99	48.11	-48.1	-60.8	3.8	1.49e+00	0	43	104	0	66	16701
2026-01-26 08:58:40.38	110.65	48.39	-48.1	-60.7	3.8	1.49e+00	0	44	104	0	66	16662
2026-01-26 08:58:41.39	110.31	48.66	-48.1	-60.7	3.8	1.49e+00	0	44	104	0	66	16633
2026-01-26 08:58:42.39	109.97	48.93	-48.1	-60.7	3.8	1.49e+00	0	44	104	0	66	16646
2026-01-26 08:58:43.40	109.62	49.21	-48.1	-60.7	3.8	1.49e+00	0	43	104	0	66	16663
2026-01-26 08:58:44.41	109.26	49.48	-48.1	-60.7	3.8	1.49e+00	0	43	104	0	66	16635
2026-01-26 08:58:45.41	108.90	49.76	-48.1	-60.7	3.8	1.49e+00	0	44	104	0	66	16657
2026-01-26 08:58:46.42	108.53	50.03	-48.1	-60.7	3.8	1.49e+00	0	44	104	0	66	16632
2026-01-26 08:58:47.43	108.15	50.31	-48.1	-60.7	3.8	1.49e+00	0	44	104	0	66	16683
2026-01-26 08:58:48.44	107.77	50.59	-48.1	-60.7	3.8	1.49e+00	0	44	104	0	66	16651
2026-01-26 08:58:49.44	107.38	50.86	-48.1	-60.7	3.8	1.49e+00	0	43	104	0	66	16649
2026-01-26 08:58:50.45	106.98	51.14	-48.1	-60.7	3.8	1.49e+00	0	44	104	0	66	16613
2026-01-26 08:58:51.46	106.58	51.42	-48.1	-60.7	3.8	1.49e+00	0	44	104	0	66	16652
2026-01-26 08:58:52.47	106.16	51.70	-48.1	-60.7	3.8	1.49e+00	0	44	104	0	66	16672
2026-01-26 08:58:53.47	105.74	51.97	-48.1	-60.7	3.8	1.49e+00	0	43	104	0	66	16680
2026-01-26 08:58:54.48	105.31	52.25	-48.1	-60.7	3.8	1.49e+00	0	44	104	0	66	16668
2026-01-26 08:58:55.49	104.87	52.53	-48.1	-60.7	3.8	1.49e+00	0	43	104	0	66	16605
2026-01-26 08:58:56.50	104.43	52.81	-48.1	-60.7	3.8	1.49e+00	0	43	104	0	66	16630
2026-01-26 08:58:57.51	103.97	53.08	-48.1	-60.7	3.8	1.49e+00	0	44	104	0	66	16682
2026-01-26 08:58:58.52	103.51	53.36	-48.1	-60.7	3.8	1.49e+00	0	44	104	0	66	16683
2026-01-26 08:58:59.53	103.03	53.64	-48.1	-60.7	3.8	1.49e+00	0	44	104	0	66	16631
2026-01-26 08:59:00.54	102.55	53.91	-48.1	-60.7	3.8	1.49e+00	0	43	104	0	66	16648
2026-01-26 08:59:01.55	102.06	54.19	-48.1	-60.7	3.8	1.49e+00	0	44	104	0	66	16655
2026-01-26 08:59:02.56	101.56	54.47	-48.1	-60.7	3.8	1.49e+00	0	44	104	0	66	16665
2026-01-26 08:59:03.57	101.05	54.74	-48.1	-60.7	3.8	1.49e+00	0	43	104	0	66	16644
2026-01-26 08:59:04.57	100.53	55.01	-48.1	-60.7	3.8	1.49e+00	0	43	104	0	66	16657
2026-01-26 08:59:05.58	100.00	55.28	-48.1	-60.7	3.8	1.49e+00	0	43	104	0	66	16643
2026-01-26 08:59:06.59	99.46	55.55	-48.1	-60.7	3.8	1.49e+00	0	44	104	0	66	16654
2026-01-26 08:59:07.60	98.91	55.82	-48.1	-60.7	3.8	1.49e+00	0	43	104	0	66	16629
2026-01-26 08:59:08.60	98.35	56.09	-48.1	-60.7	3.8	1.49e+00	0	43	104	0	66	16674
2026-01-26 08:59:09.61	97.78	56.35	-48.1	-60.7	3.8	1.49e+00	0	44	104	0	66	16620
2026-01-26 08:59:10.61	97.20	56.62	-48.1	-60.7	3.8	1.49e+00	0	44	104	0	66	16651
2026-01-26 08:59:11.62	96.60	56.88	-48.1	-60.7	3.8	1.49e+00	0	43	104	0	66	16634
2026-01-26 08:59:12.63	95.99	57.14	-48.1	-60.7	3.8	1.49e+00	0	43	104	0	66	16650
2026-01-26 08:59:13.64	95.38	57.40	-48.1	-60.8	3.8	1.49e+00	0	43	104	0	66	16700
2026-01-26 08:59:14.65	94.74	57.66	-48.1	-60.7	3.8	1.49e+00	0	43	104	0	66	16650
2026-01-26 08:59:15.66	94.10	57.92	-48.1	-60.7	3.8	1.49e+00	0	43	104	0	66	16651
2026-01-26 08:59:16.67	93.44	58.17	-48.1	-60.7	3.8	1.49e+00	0	43	104	0	66	16625
2026-01-26 08:59:17.68	92.78	58.42	-48.1	-60.7	3.8	1.49e+00	0	43	104	0	66	16642
2026-01-26 08:59:18.69	92.10	58.67	-48.1	-60.7	3.8	1.49e+00	0	43	104	0	66	16661
2026-01-26 08:59:19.70	91.40	58.91	-48.1	-60.7	3.8	1.49e+00	0	44	104	0	66	16660
2026-01-26 08:59:20.70	90.70	59.15	-48.1	-60.7	3.8	1.49e+00	0	44	104	0	66	16691
2026-01-26 08:59:21.71	89.98	59.39	-48.1	-60.7	3.8	1.49e+00	0	43	104	0	66	16656
2026-01-26 08:59:22.71	89.26	59.62	-48.1	-60.7	3.8	1.49e+00	0	43	104	0	66	16660
2026-01-26 08:59:23.72	88.51	59.86	-48.1	-60.7	3.8	1.49e+00	0	43	104	0	66	16644
2026-01-26 08:59:24.73	87.75	60.09	-48.1	-60.7	3.8	1.49e+00	0	44	104	0	66	16592
2026-01-26 08:59:25.73	86.98	60.31	-48.1	-60.7	3.8	1.49e+00	0	43	104	0	66	16641
2026-01-26 08:59:26.74	86.20	60.53	-48.1	-60.7	3.8	1.49e+00	0	44	104	0	66	16660
2026-01-26 08:59:27.75	85.40	60.75	-48.1	-60.7	3.8	1.49e+00	0	44	104	0	66	16633
2026-01-26 08:59:28.76	84.58	60.96	-48.1	-60.7	3.8	1.49e+00	0	44	104	0	66	16689
2026-01-26 08:59:29.77	83.75	61.17	-48.1	-60.7	3.8	1.49e+00	0	43	104	0	66	16633
2026-01-26 08:59:30.78	82.91	61.37	-48.1	-60.7	3.8	1.49e+00	0	44	104	0	66	16641
2026-01-26 08:59:31.79	82.06	61.57	-48.1	-60.7	3.8	1.49e+00	0	44	104	0	66	16634
2026-01-26 08:59:32.80	81.19	61.76	-48.1	-60.7	3.8	1.49e+00	0	43	104	0	66	16648
2026-01-26 08:59:33.81	80.31	61.95	-48.1	-60.7	3.8	1.49e+00	0	43	104	0	66	16667
2026-01-26 08:59:34.82	79.41	62.13	-48.1	-60.7	3.8	1.49e+00	0	43	104	0	66	16673
2026-01-26 08:59:35.83	78.50	62.31	-48.1	-60.7	3.8	1.49e+00	0	43	104	0	66	16583
2026-01-26 08:59:36.84	77.58	62.48	-48.1	-60.7	3.8	1.49e+00	0	43	104	0	66	16620
2026-01-26 08:59:37.85	76.64	62.64	-48.1	-60.7	3.8	1.49e+00	0	43	104	0	66	16645
2026-01-26 08:59:38.85	75.70	62.80	-48.1	-60.7	3.8	1.49e+00	0	44	104	0	66	16646
2026-01-26 08:59:39.86	74.74	62.95	-48.1	-60.7	3.8	1.49e+00	0	43	104	0	66	16681
2026-01-26 08:59:40.87	73.77	63.10	-48.1	-60.7	3.8	1.49e+00	0	43	104	0	66	16692
2026-01-26 08:59:41.88	72.79	63.24	-48.1	-60.7	3.8	1.49e+00	0	44	104	0	66	16646
2026-01-26 08:59:42.89	71.79	63.37	-48.1	-60.7	3.8	1.49e+00	0	44	104	0	66	16632
2026-01-26 08:59:43.89	70.79	63.49	-48.1	-60.7	3.8	1.49e+00	0	44	104	0	66	16649
2026-01-26 08:59:44.90	69.78	63.61	-48.1	-60.7	3.8	1.49e+00	0	44	104	0	66	16668
2026-01-26 08:59:45.91	68.75	63.72	-48.1	-60.7	3.8	1.49e+00	0	43	104	0	66	16645
2026-01-26 08:59:46.91	67.72	63.83	-48.1	-60.7	3.8	1.49e+00	0	44	104	0	66	16634
2026-01-26 08:59:47.92	66.68	63.92	-48.1	-60.7	3.8	1.49e+00	0	44	104	0	66	16631
2026-01-26 08:59:48.93	65.62	64.01	-48.1	-60.7	3.8	1.49e+00	0	44	104	0	66	16659
2026-01-26 08:59:49.94	64.56	64.09	-48.1	-60.7	3.8	1.49e+00	0	43	104	0	66	16651
2026-01-26 08:59:50.94	63.50	64.16	-48.1	-60.7	3.8	1.49e+00	0	44	104	0	66	16623
2026-01-26 08:59:51.95	62.43	64.23	-48.1	-60.7	3.8	1.49e+00	0	44	104	0	66	16607
2026-01-26 08:59:52.96	61.35	64.28	-48.1	-60.7	3.8	1.49e+00	0	44	104	0	66	16659
2026-01-26 08:59:53.97	60.26	64.33	-48.1	-60.7	3.8	1.49e+00	0	44	104	0	66	16600
2026-01-26 08:59:54.98	59.17	64.37	-48.1	-60.7	3.8	1.49e+00	0	44	104	0	66	16622
2026-01-26 08:59:55.99	58.08	64.40	-48.1	-60.7	3.8	1.49e+00	0	44	104	0	66	16654
2026-01-26 08:59:56.99	57.00	64.43	-48.1	-60.7	3.8	1.49e+00	0	43	104	0	66	16615
2026-01-26 08:59:58.00	55.90	64.44	-48.1	-60.7	3.8	1.49e+00	0	44	104	0	66	16651
2026-01-26 08:59:59.01	54.80	64.45	-48.1	-60.7	3.8	1.49e+00	0	44	104	0	66	16640
2026-01-26 09:00:00.01	53.71	64.45	-48.1	-60.7	3.8	1.49e+00	0	44	104	0	66	16641
2026-01-26 09:00:01.02	52.62	64.43	-48.1	-60.7	3.8	1.49e+00	0	44	104	0	66	16659
2026-01-26 09:00:02.02	51.53	64.42	-48.1	-60.7	3.8	1.49e+00	0	43	104	0	66	16644
2026-01-26 09:00:03.03	50.44	64.39	-48.1	-60.7	3.8	1.49e+00	0	43	104	0	66	16646
2026-01-26 09:00:04.04	49.34	64.35	-48.1	-60.7	3.8	1.49e+00	0	44	104	0	66	16641
2026-01-26 09:00:05.05	48.26	64.31	-48.1	-60.7	3.8	1.49e+00	0	43	104	0	66	16679
2026-01-26 09:00:06.05	47.18	64.26	-48.1	-60.7	3.8	1.49e+00	0	43	104	0	66	16660
2026-01-26 09:00:07.06	46.11	64.20	-48.1	-60.7	3.8	1.49e+00	0	43	104	0	66	16665
2026-01-26 09:00:08.07	45.04	64.13	-48.1	-60.7	3.8	1.49e+00	0	44	104	0	66	16606
2026-01-26 09:00:09.08	43.97	64.05	-48.1	-60.7	3.8	1.49e+00	0	44	104	0	66	16655
2026-01-26 09:00:10.08	42.92	63.97	-48.1	-60.7	3.8	1.49e+00	0	44	104	0	66	16675
2026-01-26 09:00:11.09	41.87	63.88	-48.1	-60.7	3.8	1.49e+00	0	44	104	0	66	16655
2026-01-26 09:00:12.10	40.83	63.78	-48.1	-60.7	3.8	1.49e+00	0	43	104	0	66	16643
2026-01-26 09:00:13.11	39.80	63.67	-48.1	-60.7	3.8	1.49e+00	0	44	104	0	66	16637
2026-01-26 09:00:14.12	38.78	63.56	-48.1	-60.7	3.8	1.49e+00	0	44	104	0	66	16667
2026-01-26 09:00:15.12	37.78	63.44	-48.1	-60.7	3.8	1.49e+00	0	43	104	0	66	16648
2026-01-26 09:00:16.13	36.78	63.31	-48.1	-60.7	3.8	1.49e+00	0	44	104	0	66	16680
2026-01-26 09:00:17.14	35.79	63.17	-48.1	-60.7	3.8	1.49e+00	0	43	104	0	66	16648
2026-01-26 09:00:18.15	34.81	63.03	-48.1	-60.7	3.8	1.49e+00	0	44	104	0	66	16679
2026-01-26 09:00:19.16	33.84	62.88	-48.1	-60.7	3.8	1.49e+00	0	43	104	0	66	16683
2026-01-26 09:00:20.16	32.90	62.73	-48.1	-60.7	3.8	1.49e+00	0	43	104	0	66	16637
2026-01-26 09:00:21.17	31.96	62.57	-48.1	-60.7	3.8	1.49e+00	0	43	104	0	66	16626
2026-01-26 09:00:22.18	31.03	62.40	-48.1	-60.7	3.8	1.49e+00	0	44	104	0	66	16672
2026-01-26 09:00:23.18	30.12	62.23	-48.1	-60.7	3.8	1.49e+00	0	43	104	0	66	16568
2026-01-26 09:00:24.19	29.22	62.05	-48.1	-60.7	3.8	1.49e+00	0	44	104	0	66	16665
2026-01-26 09:00:25.20	28.33	61.86	-48.1	-60.7	3.8	1.49e+00	0	43	104	0	66	16639
2026-01-26 09:00:26.20	27.46	61.68	-48.1	-60.7	3.8	1.49e+00	0	44	104	0	66	16689
2026-01-26 09:00:27.21	26.60	61.48	-48.1	-60.7	3.8	1.49e+00	0	44	104	0	66	16663
2026-01-26 09:00:28.21	25.76	61.28	-48.1	-60.7	3.8	1.49e+00	0	44	104	0	66	16621
2026-01-26 09:00:29.23	24.92	61.07	-48.1	-60.7	3.8	1.49e+00	0	43	104	0	66	16582
2026-01-26 09:00:30.23	24.10	60.87	-48.1	-60.7	3.8	1.49e+00	0	44	104	0	66	16674
2026-01-26 09:00:31.24	23.30	60.65	-48.1	-60.7	3.8	1.49e+00	0	43	104	0	66	16636
2026-01-26 09:00:32.25	22.50	60.44	-48.1	-60.7	3.8	1.49e+00	0	44	104	0	66	16654
2026-01-26 09:00:33.26	21.72	60.21	-48.1	-60.7	3.8	1.49e+00	0	43	104	0	66	16671
2026-01-26 09:00:34.26	20.96	59.99	-48.1	-60.7	3.8	1.49e+00	0	44	104	0	66	16645
2026-01-26 09:00:35.27	20.21	59.76	-48.1	-60.7	3.8	1.49e+00	0	44	104	0	66	16652
2026-01-26 09:00:36.28	19.47	59.53	-48.1	-60.7	3.8	1.49e+00	0	43	104	0	66	16613
2026-01-26 09:00:37.29	18.74	59.29	-48.1	-60.7	3.8	1.49e+00	0	44	104	0	66	16605
2026-01-26 09:00:38.29	18.04	59.05	-48.1	-60.7	3.8	1.49e+00	0	44	104	0	66	16680
2026-01-26 09:00:39.30	17.34	58.81	-48.1	-60.7	3.8	1.49e+00	0	44	104	0	66	16654
2026-01-26 09:00:40.31	16.65	58.56	-48.1	-60.7	3.8	1.49e+00	0	44	104	0	66	16630
2026-01-26 09:00:41.32	15.98	58.31	-48.1	-60.7	3.8	1.49e+00	0	43	104	0	66	16672
2026-01-26 09:00:42.32	15.32	58.07	-48.1	-60.7	3.8	1.49e+00	0	44	104	0	66	16648
2026-01-26 09:00:43.33	14.67	57.81	-48.1	-60.7	3.8	1.49e+00	0	44	104	0	66	16633
2026-01-26 09:00:44.33	14.04	57.56	-48.1	-60.7	3.8	1.49e+00	0	44	104	0	66	16626
2026-01-26 09:00:45.34	13.41	57.30	-48.1	-60.7	3.8	1.49e+00	0	44	104	0	66	16688
2026-01-26 09:00:46.35	12.80	57.04	-48.1	-60.7	3.8	1.49e+00	0	44	104	0	66	16635
2026-01-26 09:00:47.36	12.20	56.78	-48.1	-60.7	3.8	1.49e+00	0	44	104	0	66	16650
2026-01-26 09:00:48.37	11.61	56.51	-48.1	-60.7	3.8	1.49e+00	0	44	104	0	66	16639
2026-01-26 09:00:49.37	11.04	56.25	-48.1	-60.7	3.8	1.49e+00	0	44	104	0	66	16615
2026-01-26 09:00:50.38	10.47	55.98	-48.1	-60.7	3.8	1.49e+00	0	44	104	0	66	16609
2026-01-26 09:00:51.39	9.91	55.72	-48.1	-60.7	3.8	1.49e+00	0	44	104	0	66	16685
2026-01-26 09:00:52.40	9.36	55.45	-48.1	-60.7	3.8	1.49e+00	0	44	104	0	66	16657
2026-01-26 09:00:53.41	8.83	55.17	-48.1	-60.7	3.8	1.49e+00	0	44	104	0	66	16683
2026-01-26 09:00:54.41	8.31	54.91	-48.1	-60.7	3.8	1.49e+00	0	44	104	0	66	16611
2026-01-26 09:00:55.42	7.79	54.63	-48.1	-60.7	3.8	1.49e+00	0	44	104	0	66	16666
2026-01-26 09:00:56.43	7.28	54.36	-48.1	-60.7	3.8	1.49e+00	0	44	104	0	66	16642
2026-01-26 09:00:57.43	6.79	54.09	-48.1	-60.7	3.8	1.49e+00	0	44	104	0	66	16574
2026-01-26 09:00:58.44	6.31	53.81	-48.1	-60.7	3.8	1.49e+00	0	44	104	0	66	16613
2026-01-26 09:00:59.45	5.83	53.54	-48.1	-60.7	3.8	1.49e+00	0	44	104	0	66	16628
2026-01-26 09:01:00.46	5.36	53.26	-48.1	-60.7	3.8	1.49e+00	0	44	104	0	66	16620
2026-01-26 09:01:01.47	4.90	52.98	-48.1	-60.7	3.8	1.49e+00	0	44	104	0	66	16628
2026-01-26 09:01:02.47	4.45	52.71	-48.1	-60.8	3.8	1.49e+00	0	44	104	0	66	16722
2026-01-26 09:01:03.48	4.01	52.43	-48.1	-60.7	3.8	1.49e+00	0	44	104	0	66	16632
2026-01-26 09:01:04.49	3.57	52.15	-48.1	-60.7	3.8	1.49e+00	0	44	104	0	66	16644
2026-01-26 09:01:05.50	3.15	51.88	-48.1	-60.7	3.8	1.49e+00	0	44	104	0	66	16648
2026-01-26 09:01:06.50	2.73	51.60	-48.1	-60.7	3.8	1.49e+00	0	44	104	0	66	16632
2026-01-26 09:01:07.51	2.32	51.32	-48.1	-60.7	3.8	1.49e+00	0	44	104	0	66	16617
2026-01-26 09:01:08.52	1.92	51.05	-48.1	-60.7	3.8	1.49e+00	0	43	104	0	66	16628
2026-01-26 09:01:09.53	1.52	50.77	-48.1	-60.7	3.8	1.49e+00	0	44	104	0	66	16672
2026-01-26 09:01:10.53	1.14	50.50	-48.1	-60.7	3.8	1.49e+00	0	44	104	0	66	16663
2026-01-26 09:01:11.54	0.76	50.22	-48.1	-60.7	3.8	1.49e+00	0	44	104	0	66	16654
2026-01-26 09:01:12.55	0.38	49.94	-48.1	-60.7	3.8	1.49e+00	0	44	104	0	66	16662
2026-01-26 09:01:13.56	0.02	49.67	-48.1	-60.7	3.8	1.49e+00	0	44	104	0	66	16651
2026-01-26 09:01:14.56	359.66	49.39	-48.1	-60.7	3.8	1.49e+00	0	44	104	0	66	16586
2026-01-26 09:01:15.57	359.31	49.12	-48.1	-60.7	3.8	1.49e+00	0	44	104	0	66	16648
2026-01-26 09:01:16.58	358.96	48.84	-48.1	-60.7	3.8	1.49e+00	0	44	104	0	66	16638
2026-01-26 09:01:17.59	358.62	48.57	-48.1	-60.7	3.8	1.49e+00	0	43	104	0	66	16633
2026-01-26 09:01:18.60	358.28	48.30	-48.1	-60.7	3.8	1.49e+00	0	43	104	0	66	16682
2026-01-26 09:01:19.61	357.95	48.02	-48.1	-60.7	3.8	1.49e+00	0	44	104	0	66	16604
2026-01-26 09:01:20.61	357.63	47.75	-48.1	-60.7	3.8	1.49e+00	0	44	104	0	66	16673
2026-01-26 09:01:21.62	357.31	47.48	-48.1	-60.7	3.8	1.49e+00	0	44	104	0	66	16669
2026-01-26 09:01:22.63	357.00	47.21	-48.1	-60.7	3.8	1.49e+00	0	44	104	0	66	16607
2026-01-26 09:01:23.64	356.69	46.94	-48.1	-60.7	3.8	1.49e+00	0	44	104	0	66	16665
2026-01-26 09:01:24.65	356.39	46.67	-48.1	-60.7	3.8	1.49e+00	0	44	104	0	66	16652
2026-01-26 09:01:25.65	356.09	46.41	-48.1	-60.7	3.8	1.49e+00	0	44	104	0	66	16670
2026-01-26 09:01:26.66	355.80	46.14	-48.1	-60.7	3.8	1.49e+00	0	43	104	0	66	16685
2026-01-26 09:01:27.67	355.52	45.87	-48.1	-60.7	3.8	1.49e+00	0	44	104	0	66	16616
2026-01-26 09:01:28.68	355.23	45.61	-48.1	-60.7	3.8	1.49e+00	0	44	104	0	66	16694
2026-01-26 09:01:29.69	354.96	45.35	-48.1	-60.7	3.8	1.49e+00	0	44	104	0	66	16628
2026-01-26 09:01:30.69	354.69	45.08	-48.1	-60.7	3.8	1.49e+00	0	43	104	0	66	16663
2026-01-26 09:01:31.70	354.42	44.82	-48.1	-60.7	3.8	1.49e+00	0	44	104	0	66	16656
2026-01-26 09:01:32.71	354.15	44.56	-48.1	-60.7	3.8	1.49e+00	0	43	104	0	66	16658
2026-01-26 09:01:33.72	353.90	44.30	-48.1	-60.7	3.8	1.49e+00	0	43	104	0	66	16666
2026-01-26 09:01:34.73	353.64	44.04	-48.1	-60.7	3.8	1.49e+00	0	43	104	0	66	16637
2026-01-26 09:01:35.74	353.39	43.78	-48.1	-60.7	3.8	1.49e+00	0	43	104	0	66	16662
2026-01-26 09:01:36.75	353.14	43.53	-48.1	-60.7	3.8	1.49e+00	0	44	104	0	66	16652
2026-01-26 09:01:37.76	352.90	43.27	-48.1	-60.7	3.8	1.49e+00	0	44	104	0	66	16656
2026-01-26 09:01:38.77	352.66	43.02	-48.1	-60.7	3.8	1.49e+00	0	44	104	0	66	16629
2026-01-26 09:01:39.77	352.43	42.77	-48.1	-60.7	3.8	1.49e+00	0	43	104	0	66	16654
2026-01-26 09:01:40.78	352.20	42.51	-48.1	-60.7	3.8	1.49e+00	0	43	104	0	66	16660
2026-01-26 09:01:41.79	351.97	42.26	-48.1	-60.8	3.8	1.49e+00	0	44	104	0	66	16715
2026-01-26 09:01:42.79	351.75	42.01	-48.1	-60.7	3.8	1.49e+00	0	44	104	0	66	16628
2026-01-26 09:01:43.80	351.53	41.77	-48.1	-60.7	3.8	1.49e+00	0	43	104	0	66	16640
2026-01-26 09:01:44.81	351.31	41.52	-48.1	-60.7	3.8	1.49e+00	0	43	104	0	66	16634
2026-01-26 09:01:45.82	351.09	41.27	-48.1	-60.7	3.8	1.49e+00	0	44	104	0	66	16612
2026-01-26 09:01:46.83	350.88	41.03	-48.1	-60.7	3.8	1.49e+00	0	44	104	0	66	16654
2026-01-26 09:01:47.84	350.68	40.78	-48.1	-60.7	3.8	1.49e+00	0	43	104	0	66	16605
2026-01-26 09:01:48.85	350.47	40.54	-48.1	-60.7	3.8	1.49e+00	0	44	104	0	66	16620
2026-01-26 09:01:49.86	350.27	40.30	-48.1	-60.7	3.8	1.49e+00	0	44	104	0	66	16681
2026-01-26 09:01:50.87	350.07	40.06	-48.1	-60.7	3.8	1.49e+00	0	44	104	0	66	16647
2026-01-26 09:01:51.87	349.88	39.82	-48.1	-60.7	3.8	1.49e+00	0	44	104	0	66	16649
2026-01-26 09:01:52.88	349.69	39.58	-48.1	-60.7	3.8	1.49e+00	0	43	104	0	66	16660
2026-01-26 09:01:53.89	349.50	39.35	-48.1	-60.7	3.8	1.49e+00	0	44	104	0	66	16629
2026-01-26 09:01:54.90	349.31	39.11	-48.1	-60.7	3.8	1.49e+00	0	44	104	0	66	16678
2026-01-26 09:01:55.91	349.13	38.88	-48.1	-60.7	3.8	1.49e+00	0	44	104	0	66	16639
2026-01-26 09:01:56.92	348.94	38.64	-48.1	-60.7	3.8	1.49e+00	0	44	104	0	66	16647
2026-01-26 09:01:57.93	348.76	38.41	-48.1	-60.7	3.8	1.49e+00	0	44	104	0	66	16599
2026-01-26 09:01:58.94	348.59	38.18	-48.1	-60.7	3.8	1.49e+00	0	43	104	0	66	16619
2026-01-26 09:01:59.95	348.41	37.95	-48.1	-60.7	3.8	1.49e+00	0	44	104	0	66	16635
2026-01-26 09:02:00.96	348.24	37.72	-48.1	-60.7	3.8	1.49e+00	0	44	104	0	66	16643
2026-01-26 09:02:01.97	348.07	37.50	-48.1	-60.7	3.8	1.49e+00	0	44	104	0	66	16633
2026-01-26 09:02:02.98	347.91	37.27	-48.1	-60.7	3.8	1.49e+00	0	43	104	0	66	16622
2026-01-26 09:02:03.99	347.74	37.05	-48.1	-60.7	3.8	1.49e+00	0	44	104	0	66	16653
2026-01-26 09:02:04.99	347.58	36.83	-48.1	-60.7	3.8	1.49e+00	0	44	104	0	66	16644
2026-01-26 09:02:06.00	347.42	36.61	-48.1	-60.7	3.8	1.49e+00	0	44	104	0	66	16616
2026-01-26 09:02:07.01	347.27	36.39	-48.1	-60.7	3.8	1.49e+00	0	43	104	0	66	16650
2026-01-26 09:02:08.02	347.11	36.17	-48.1	-60.7	3.8	1.49e+00	0	44	104	0	66	16581
2026-01-26 09:02:09.02	346.96	35.95	-48.1	-60.7	3.8	1.49e+00	0	44	104	0	66	16660
2026-01-26 09:02:10.03	346.81	35.73	-48.1	-60.7	3.8	1.49e+00	0	44	104	0	66	16640
2026-01-26 09:02:11.04	346.66	35.52	-48.1	-60.7	3.8	1.49e+00	0	43	104	0	66	16665
2026-01-26 09:02:12.05	346.51	35.31	-48.1	-60.7	3.8	1.49e+00	0	44	104	0	66	16624
2026-01-26 09:02:13.06	346.37	35.09	-48.1	-60.7	3.8	1.49e+00	0	43	104	0	66	16660
2026-01-26 09:02:14.07	346.22	34.88	-48.1	-60.7	3.8	1.49e+00	0	44	104	0	66	16633
2026-01-26 09:02:15.07	346.08	34.67	-48.1	-60.7	3.8	1.49e+00	0	43	104	0	66	16648
2026-01-26 09:02:16.08	345.95	34.46	-48.1	-60.7	3.8	1.49e+00	0	43	104	0	66	16637
2026-01-26 09:02:17.09	345.81	34.25	-48.1	-60.7	3.8	1.49e+00	0	44	104	0	66	16660
2026-01-26 09:02:18.10	345.67	34.05	-48.1	-60.7	3.8	1.49e+00	0	43	104	0	66	16672
2026-01-26 09:02:19.11	345.54	33.84	-48.1	-60.7	3.8	1.49e+00	0	44	104	0	66	16644
2026-01-26 09:02:20.11	345.41	33.64	-48.1	-60.7	3.8	1.49e+00	0	44	104	0	66	16659
2026-01-26 09:02:21.12	345.28	33.44	-48.1	-60.7	3.8	1.49e+00	0	44	104	0	66	16583
2026-01-26 09:02:22.13	345.15	33.23	-48.1	-60.7	3.8	1.49e+00	0	44	104	0	66	16639
2026-01-26 09:02:23.14	345.02	33.03	-48.1	-60.7	3.8	1.49e+00	0	44	104	0	66	16638
2026-01-26 09:02:24.15	344.89	32.83	-48.1	-60.7	3.8	1.49e+00	0	44	104	0	66	16617
2026-01-26 09:02:25.16	344.77	32.63	-48.1	-60.8	3.8	1.49e+00	0	44	104	0	66	16700
2026-01-26 09:02:26.17	344.65	32.44	-48.1	-60.7	3.8	1.49e+00	0	43	104	0	66	16595
2026-01-26 09:02:27.18	344.53	32.24	-48.1	-60.7	3.8	1.49e+00	0	43	104	0	66	16589
2026-01-26 09:02:28.19	344.41	32.04	-48.1	-60.7	3.8	1.49e+00	0	43	104	0	66	16632
2026-01-26 09:02:29.19	344.29	31.85	-48.1	-60.7	3.8	1.49e+00	0	44	104	0	66	16628
2026-01-26 09:02:30.20	344.17	31.66	-48.1	-60.7	3.8	1.49e+00	0	43	104	0	66	16616
2026-01-26 09:02:31.21	344.06	31.47	-48.1	-60.7	3.8	1.49e+00	0	43	104	0	66	16578
2026-01-26 09:02:32.21	343.94	31.28	-48.1	-60.7	3.8	1.49e+00	0	43	104	0	66	16633
2026-01-26 09:02:33.22	343.83	31.09	-48.1	-60.7	3.8	1.49e+00	0	43	104	0	66	16612
2026-01-26 09:02:34.23	343.72	30.90	-48.1	-60.7	3.8	1.49e+00	0	43	104	0	66	16612
2026-01-26 09:02:35.24	343.61	30.71	-48.1	-60.7	3.8	1.49e+00	0	44	104	0	66	16616
2026-01-26 09:02:36.25	343.50	30.53	-48.1	-60.7	3.8	1.49e+00	0	43	104	0	66	16674
2026-01-26 09:02:37.26	343.39	30.34	-48.1	-60.7	3.8	1.49e+00	0	44	104	0	66	16662
2026-01-26 09:02:38.27	343.29	30.16	-48.1	-60.7	3.8	1.49e+00	0	44	104	0	66	16644
2026-01-26 09:02:39.28	343.18	29.97	-48.1	-60.7	3.8	1.49e+00	0	43	104	0	66	16605
2026-01-26 09:02:40.29	343.08	29.79	-48.1	-60.7	3.8	1.49e+00	0	44	104	0	66	16635
2026-01-26 09:02:41.29	342.98	29.61	-48.1	-60.7	3.8	1.49e+00	0	43	104	0	66	16642
2026-01-26 09:02:42.30	342.88	29.43	-48.1	-60.7	3.8	1.49e+00	0	44	104	0	66	16661
2026-01-26 09:02:43.31	342.78	29.25	-48.1	-60.7	3.8	1.49e+00	0	43	104	0	66	16653
2026-01-26 09:02:44.32	342.68	29.07	-48.1	-60.7	3.8	1.49e+00	0	44	104	0	66	16636
2026-01-26 09:02:45.33	342.58	28.90	-48.1	-60.7	3.8	1.49e+00	0	43	104	0	66	16635
2026-01-26 09:02:46.33	342.49	28.72	-48.1	-60.7	3.8	1.49e+00	0	43	104	0	66	16626
2026-01-26 09:02:47.34	342.39	28.55	-48.1	-60.7	3.8	1.49e+00	0	43	104	0	66	16611
2026-01-26 09:02:48.35	342.30	28.37	-48.1	-60.7	3.8	1.49e+00	0	43	104	0	66	16607
2026-01-26 09:02:49.36	342.20	28.20	-48.0	-60.7	3.8	1.49e+00	0	44	104	0	66	16671
2026-01-26 09:02:50.37	342.11	28.03	-48.1	-60.7	3.8	1.49e+00	0	44	104	0	66	16565
2026-01-26 09:02:51.38	342.02	27.86	-48.1	-60.7	3.8	1.49e+00	0	44	104	0	66	16611
2026-01-26 09:02:52.38	341.93	27.69	-48.1	-60.7	3.8	1.49e+00	0	43	104	0	66	16666
2026-01-26 09:02:53.39	341.84	27.52	-48.1	-60.7	3.8	1.49e+00	0	43	104	0	66	16605
2026-01-26 09:02:54.40	341.75	27.35	-48.1	-60.7	3.8	1.49e+00	0	44	104	0	66	16618
2026-01-26 09:02:55.41	341.66	27.19	-48.1	-60.7	3.8	1.49e+00	0	43	104	0	66	16620
2026-01-26 09:02:56.41	341.58	27.02	-48.1	-60.7	3.8	1.49e+00	0	44	104	0	66	16620
2026-01-26 09:02:57.42	341.49	26.86	-48.1	-60.7	3.8	1.49e+00	0	44	104	0	66	16675
2026-01-26 09:02:58.43	341.41	26.69	-48.1	-60.7	3.8	1.49e+00	0	43	104	0	66	16650
2026-01-26 09:02:59.44	341.32	26.53	-48.1	-60.7	3.8	1.49e+00	0	43	104	0	66	16649
2026-01-26 09:03:00.45	341.24	26.37	-48.1	-60.7	3.8	1.49e+00	0	44	104	0	66	16652
2026-01-26 09:03:01.46	341.16	26.20	-48.1	-60.7	3.8	1.49e+00	0	44	104	0	66	16607
2026-01-26 09:03:02.46	341.08	26.04	-48.1	-60.7	3.8	1.49e+00	0	43	104	0	66	16644
2026-01-26 09:03:03.47	341.00	25.88	-48.1	-60.7	3.8	1.49e+00	0	44	104	0	66	16633
2026-01-26 09:03:04.48	340.92	25.73	-48.1	-60.7	3.8	1.49e+00	0	44	104	0	66	16633
2026-01-26 09:03:05.49	340.84	25.57	-48.1	-60.7	3.8	1.49e+00	0	44	104	0	66	16602
2026-01-26 09:03:06.50	340.76	25.41	-48.1	-60.7	3.8	1.49e+00	0	43	104	0	66	16640
2026-01-26 09:03:07.50	340.69	25.26	-48.1	-60.7	3.8	1.49e+00	0	44	104	0	66	16668
2026-01-26 09:03:08.51	340.61	25.10	-48.1	-60.7	3.8	1.49e+00	0	44	104	0	66	16623
2026-01-26 09:03:09.52	340.53	24.95	-48.1	-60.7	3.8	1.49e+00	0	43	104	0	66	16619
2026-01-26 09:03:10.52	340.46	24.79	-48.1	-60.7	3.8	1.49e+00	0	44	104	0	66	16600
2026-01-26 09:03:11.53	340.39	24.64	-48.1	-60.7	3.8	1.49e+00	0	44	104	0	66	16630
2026-01-26 09:03:12.54	340.31	24.49	-48.1	-60.7	3.8	1.49e+00	0	44	104	0	66	16674
2026-01-26 09:03:13.55	340.24	24.34	-48.1	-60.7	3.8	1.49e+00	0	44	104	0	66	16603
2026-01-26 09:03:14.55	340.17	24.19	-48.1	-60.7	3.8	1.49e+00	0	44	104	0	66	16577
2026-01-26 09:03:15.56	340.10	24.04	-48.1	-60.7	3.8	1.49e+00	0	44	104	0	66	16658
2026-01-26 09:03:16.57	340.03	23.89	-48.1	-60.7	3.8	1.49e+00	0	44	104	0	66	16626
2026-01-26 09:03:17.58	339.96	23.74	-48.1	-60.7	3.8	1.49e+00	0	44	104	0	66	16638
2026-01-26 09:03:18.59	339.89	23.59	-48.1	-60.7	3.8	1.49e+00	0	44	104	0	66	16632
2026-01-26 09:03:19.60	339.82	23.45	-48.1	-60.7	3.8	1.49e+00	0	44	104	0	66	16619
2026-01-26 09:03:20.60	339.76	23.30	-48.1	-60.7	3.8	1.49e+00	0	44	104	0	66	16644
2026-01-26 09:03:21.61	339.69	23.16	-48.1	-60.7	3.8	1.49e+00	0	44	104	0	66	16614
2026-01-26 09:03:22.62	339.62	23.01	-48.1	-60.7	3.8	1.49e+00	0	44	104	0	66	16618
2026-01-26 09:03:23.62	339.56	22.87	-48.1	-60.7	3.8	1.49e+00	0	43	104	0	66	16630
2026-01-26 09:03:24.63	339.49	22.73	-48.1	-60.7	3.8	1.49e+00	0	44	104	0	66	16594
2026-01-26 09:03:25.64	339.43	22.59	-48.1	-60.7	3.8	1.49e+00	0	43	104	0	66	16622
2026-01-26 09:03:26.65	339.37	22.45	-48.1	-60.7	3.8	1.49e+00	0	44	104	0	66	16588
2026-01-26 09:03:27.65	339.30	22.31	-48.1	-60.7	3.8	1.49e+00	0	43	104	0	66	16617
2026-01-26 09:03:28.66	339.24	22.17	-48.1	-60.7	3.8	1.49e+00	0	44	104	0	66	16626
2026-01-26 09:03:29.67	339.18	22.03	-48.1	-60.7	3.8	1.49e+00	0	44	104	0	66	16668
2026-01-26 09:03:30.67	339.12	21.89	-48.1	-60.7	3.8	1.49e+00	0	44	104	0	66	16614
2026-01-26 09:03:31.68	339.06	21.75	-48.1	-60.7	3.8	1.49e+00	0	44	104	0	66	16646
2026-01-26 09:03:32.69	339.00	21.62	-48.1	-60.7	3.8	1.49e+00	0	44	104	0	66	16631
2026-01-26 09:03:33.70	338.94	21.48	-48.1	-60.7	3.8	1.49e+00	0	44	104	0	66	16607
2026-01-26 09:03:34.71	338.88	21.34	-48.1	-60.7	3.8	1.49e+00	0	44	104	0	66	16602
2026-01-26 09:03:35.72	338.82	21.21	-48.1	-60.7	3.8	1.49e+00	0	43	104	0	66	16664
2026-01-26 09:03:36.73	338.76	21.07	-48.1	-60.7	3.8	1.49e+00	0	43	104	0	66	16631
2026-01-26 09:03:37.73	338.70	20.94	-48.1	-60.7	3.8	1.49e+00	0	43	104	0	66	16637
2026-01-26 09:03:38.74	338.65	20.81	-48.1	-60.7	3.8	1.49e+00	0	44	104	0	66	16647
2026-01-26 09:03:39.75	338.59	20.68	-48.1	-60.7	3.8	1.49e+00	0	44	104	0	66	16621
2026-01-26 09:03:40.76	338.54	20.55	-48.1	-60.7	3.8	1.49e+00	0	44	104	0	66	16613
2026-01-26 09:03:41.77	338.48	20.42	-48.1	-60.7	3.8	1.49e+00	0	44	104	0	66	16613
2026-01-26 09:03:42.77	338.43	20.29	-48.1	-60.7	3.8	1.49e+00	0	44	104	0	66	16583
2026-01-26 09:03:43.78	338.37	20.16	-48.1	-60.7	3.8	1.49e+00	0	44	104	0	66	16630
2026-01-26 09:03:44.79	338.32	20.03	-48.1	-60.7	3.8	1.49e+00	0	44	104	0	66	16675
2026-01-26 09:03:45.79	338.26	19.90	-48.1	-60.7	3.8	1.49e+00	0	44	104	0	66	16624
2026-01-26 09:03:46.81	338.21	19.77	-48.1	-60.7	3.8	1.49e+00	0	44	104	0	66	16617
2026-01-26 09:03:47.81	338.16	19.65	-48.1	-60.7	3.8	1.49e+00	0	44	104	0	66	16593
2026-01-26 09:03:48.82	338.11	19.52	-48.1	-60.7	3.8	1.49e+00	0	43	104	0	66	16684
2026-01-26 09:03:49.83	338.06	19.39	-48.1	-60.7	3.8	1.49e+00	0	44	104	0	66	16620
2026-01-26 09:03:50.84	338.00	19.27	-48.1	-60.7	3.8	1.49e+00	0	44	104	0	66	16624
2026-01-26 09:03:51.85	337.95	19.14	-48.1	-60.7	3.8	1.49e+00	0	43	104	0	66	16619
2026-01-26 09:03:52.86	337.90	19.02	-48.1	-60.7	3.8	1.49e+00	0	44	104	0	66	16607
2026-01-26 09:03:53.87	337.85	18.90	-48.1	-60.7	3.8	1.49e+00	0	44	104	0	66	16595
2026-01-26 09:03:54.88	337.80	18.77	-48.1	-60.7	3.8	1.49e+00	0	44	104	0	66	16603
2026-01-26 09:03:55.89	337.76	18.65	-48.1	-60.7	3.8	1.49e+00	0	44	104	0	66	16636
2026-01-26 09:03:56.89	337.71	18.53	-48.1	-60.7	3.8	1.49e+00	0	43	104	0	66	16627
2026-01-26 09:03:57.90	337.66	18.41	-48.1	-60.7	3.8	1.49e+00	0	43	104	0	66	16642
2026-01-26 09:03:58.91	337.61	18.29	-48.1	-60.7	3.8	1.49e+00	0	44	104	0	66	16598
2026-01-26 09:03:59.91	337.57	18.17	-48.1	-60.7	3.8	1.49e+00	0	44	104	0	66	16672
2026-01-26 09:04:00.92	337.52	18.05	-48.1	-60.7	3.8	1.49e+00	0	44	104	0	66	16652
2026-01-26 09:04:01.93	337.47	17.93	-48.1	-60.7	3.8	1.49e+00	0	44	104	0	66	16614
2026-01-26 09:04:02.93	337.43	17.82	-48.1	-60.7	3.8	1.49e+00	0	44	104	0	66	16612
2026-01-26 09:04:03.94	337.38	17.70	-48.1	-60.7	3.8	1.49e+00	0	44	104	0	66	16594
2026-01-26 09:04:04.95	337.34	17.58	-48.1	-60.7	3.8	1.49e+00	0	44	104	0	66	16650
2026-01-26 09:04:05.96	337.29	17.46	-48.1	-60.7	3.8	1.49e+00	0	44	104	0	66	16618
2026-01-26 09:04:06.97	337.25	17.35	-48.0	-60.7	3.8	1.49e+00	0	43	104	0	66	16597
2026-01-26 09:04:07.97	337.20	17.23	-48.1	-60.7	3.8	1.49e+00	0	44	104	0	66	16617
2026-01-26 09:04:08.98	337.16	17.12	-48.1	-60.7	3.8	1.49e+00	0	43	104	0	66	16634
2026-01-26 09:04:09.99	337.12	17.00	-48.1	-60.7	3.8	1.49e+00	0	43	104	0	66	16600
2026-01-26 09:04:10.99	337.07	16.89	-48.1	-60.7	3.8	1.49e+00	0	44	104	0	66	16678
2026-01-26 09:04:12.00	337.03	16.78	-48.1	-60.7	3.8	1.49e+00	0	44	104	0	66	16621
2026-01-26 09:04:13.01	336.99	16.66	-48.1	-60.7	3.8	1.49e+00	0	43	104	0	66	16633
2026-01-26 09:04:14.02	336.95	16.55	-48.1	-60.7	3.8	1.49e+00	0	44	104	0	66	16657
2026-01-26 09:04:15.02	336.90	16.44	-48.1	-60.7	3.8	1.49e+00	0	44	104	0	66	16647
2026-01-26 09:04:16.03	336.86	16.33	-48.1	-60.7	3.8	1.49e+00	0	44	104	0	66	16626
2026-01-26 09:04:17.04	336.82	16.22	-48.1	-60.7	3.8	1.49e+00	0	44	104	0	66	16631
2026-01-26 09:04:18.05	336.78	16.11	-48.1	-60.7	3.8	1.49e+00	0	44	104	0	66	16574
2026-01-26 09:04:19.06	336.74	16.00	-48.1	-60.7	3.8	1.49e+00	0	44	104	0	66	16578
2026-01-26 09:04:20.07	336.70	15.89	-48.1	-60.7	3.8	1.49e+00	0	44	104	0	66	16627
2026-01-26 09:04:21.08	336.66	15.78	-48.1	-60.7	3.8	1.49e+00	0	44	104	0	66	16631
2026-01-26 09:04:22.08	336.62	15.67	-48.1	-60.7	3.8	1.49e+00	0	44	104	0	66	16623
2026-01-26 09:04:23.09	336.58	15.56	-48.1	-60.7	3.8	1.49e+00	0	44	104	0	66	16626
2026-01-26 09:04:24.09	336.54	15.46	-48.1	-60.7	3.8	1.49e+00	0	44	104	0	66	16555
2026-01-26 09:04:25.10	336.51	15.35	-48.1	-60.7	3.8	1.49e+00	0	44	104	0	66	16614
2026-01-26 09:04:26.11	336.47	15.24	-48.1	-60.7	3.8	1.49e+00	0	43	104	0	66	16636
2026-01-26 09:04:27.12	336.43	15.14	-48.1	-60.7	3.8	1.49e+00	0	44	104	0	66	16534
2026-01-26 09:04:28.13	336.39	15.03	-48.1	-60.7	3.8	1.49e+00	0	44	104	0	66	16586
2026-01-26 09:04:29.13	336.36	14.93	-48.1	-60.7	3.8	1.49e+00	0	44	104	0	66	16616
2026-01-26 09:04:30.14	336.32	14.82	-48.1	-60.7	3.8	1.49e+00	0	44	104	0	66	16596
2026-01-26 09:04:31.15	336.28	14.72	-48.1	-60.7	3.8	1.49e+00	0	43	104	0	66	16630
2026-01-26 09:04:32.16	336.25	14.61	-48.1	-60.7	3.8	1.49e+00	0	44	104	0	66	16587
2026-01-26 09:04:33.17	336.21	14.51	-48.1	-60.7	3.8	1.49e+00	0	44	104	0	66	16588
2026-01-26 09:04:34.17	336.17	14.41	-48.1	-60.7	3.8	1.49e+00	0	44	104	0	66	16615
2026-01-26 09:04:35.18	336.14	14.30	-48.1	-60.7	3.8	1.49e+00	0	44	104	0	66	16623
2026-01-26 09:04:36.19	336.10	14.20	-48.1	-60.7	3.8	1.49e+00	0	43	104	0	66	16651
2026-01-26 09:04:37.19	336.07	14.10	-48.1	-60.7	3.8	1.49e+00	0	44	104	0	66	16603
2026-01-26 09:04:38.20	336.03	14.00	-48.1	-60.7	3.8	1.49e+00	0	44	104	0	66	16594
2026-01-26 09:04:39.21	336.00	13.90	-48.1	-60.7	3.8	1.49e+00	0	43	104	0	66	16622
2026-01-26 09:04:40.22	335.96	13.80	-48.1	-60.7	3.8	1.49e+00	0	44	104	0	66	16655
2026-01-26 09:04:41.23	335.93	13.70	-48.1	-60.7	3.8	1.49e+00	0	44	104	0	66	16641
2026-01-26 09:04:42.24	335.90	13.60	-48.1	-60.7	3.8	1.49e+00	0	44	104	0	66	16640
2026-01-26 09:04:43.24	335.86	13.50	-48.1	-60.7	3.8	1.49e+00	0	44	104	0	66	16596
2026-01-26 09:04:44.25	335.83	13.40	-48.1	-60.7	3.8	1.49e+00	0	43	104	0	66	16593
2026-01-26 09:04:45.26	335.80	13.30	-48.1	-60.7	3.8	1.49e+00	0	44	104	0	66	16605
2026-01-26 09:04:46.27	335.76	13.20	-48.1	-60.7	3.8	1.49e+00	0	44	104	0	66	16633
2026-01-26 09:04:47.28	335.73	13.10	-48.1	-60.7	3.8	1.49e+00	0	44	104	0	66	16634
2026-01-26 09:04:48.29	335.70	13.00	-48.1	-60.7	3.8	1.49e+00	0	43	104	0	66	16606
2026-01-26 09:04:49.30	335.67	12.91	-48.1	-60.7	3.8	1.49e+00	0	44	104	0	66	16594
2026-01-26 09:04:50.30	335.64	12.81	-48.1	-60.7	3.8	1.49e+00	0	44	104	0	66	16610
2026-01-26 09:04:51.31	335.61	12.72	-48.1	-60.7	3.8	1.49e+00	0	44	104	0	66	16629
2026-01-26 09:04:52.32	335.57	12.62	-48.1	-60.7	3.8	1.49e+00	0	44	104	0	66	16613
2026-01-26 09:04:53.33	335.54	12.52	-48.1	-60.7	3.8	1.49e+00	0	44	104	0	66	16602
2026-01-26 09:04:54.33	335.51	12.43	-48.1	-60.7	3.8	1.49e+00	0	44	104	0	66	16614
2026-01-26 09:04:55.34	335.48	12.33	-48.1	-60.7	3.8	1.49e+00	0	44	104	0	66	16616
2026-01-26 09:04:56.35	335.45	12.24	-48.1	-60.7	3.8	1.49e+00	0	44	104	0	66	16591
2026-01-26 09:04:57.36	335.42	12.14	-48.1	-60.7	3.8	1.49e+00	0	44	104	0	66	16682
2026-01-26 09:04:58.37	335.39	12.05	-48.1	-60.7	3.8	1.49e+00	0	44	104	0	66	16595
2026-01-26 09:04:59.37	335.36	11.96	-48.1	-60.7	3.8	1.49e+00	0	44	104	0	66	16636
2026-01-26 09:05:00.38	335.33	11.86	-48.1	-60.7	3.8	1.49e+00	0	44	104	0	66	16617
2026-01-26 09:05:01.39	335.30	11.77	-48.1	-60.7	3.8	1.49e+00	0	44	104	0	66	16602
2026-01-26 09:05:02.40	335.27	11.68	-48.1	-60.7	3.8	1.49e+00	0	44	104	0	66	16600
2026-01-26 09:05:03.41	335.24	11.59	-48.1	-60.7	3.8	1.49e+00	0	44	104	0	66	16631
2026-01-26 09:05:04.41	335.22	11.50	-48.1	-60.7	3.8	1.49e+00	0	44	104	0	66	16595
2026-01-26 09:05:05.41	335.19	11.40	-48.1	-60.7	3.8	1.49e+00	0	44	104	0	66	16646
2026-01-26 09:05:06.42	335.16	11.31	-48.1	-60.7	3.8	1.49e+00	0	43	104	0	66	16616
2026-01-26 09:05:07.43	335.13	11.22	-48.1	-60.7	3.8	1.49e+00	0	44	104	0	66	16621
2026-01-26 09:05:08.44	335.10	11.13	-48.1	-60.7	3.8	1.49e+00	0	44	104	0	66	16638
2026-01-26 09:05:09.45	335.08	11.04	-48.1	-60.7	3.8	1.49e+00	0	44	104	0	66	16589
2026-01-26 09:05:10.45	335.05	10.95	-48.1	-60.7	3.8	1.49e+00	0	44	104	0	66	16573
2026-01-26 09:05:11.46	335.02	10.86	-48.1	-60.7	3.8	1.49e+00	0	43	104	0	66	16581
2026-01-26 09:05:12.47	334.99	10.77	-48.1	-60.7	3.8	1.49e+00	0	43	104	0	66	16623
2026-01-26 09:05:13.48	334.97	10.68	-48.1	-60.7	3.8	1.49e+00	0	44	104	0	66	16590
2026-01-26 09:05:14.49	334.94	10.60	-48.1	-60.7	3.8	1.49e+00	0	44	104	0	66	16638
2026-01-26 09:05:15.49	334.91	10.51	-48.1	-60.7	3.8	1.49e+00	0	43	104	0	66	16587
2026-01-26 09:05:16.50	334.89	10.42	-48.1	-60.7	3.8	1.49e+00	0	44	104	0	66	16585
2026-01-26 09:05:17.51	334.86	10.33	-48.1	-60.7	3.8	1.49e+00	0	44	104	0	66	16590
2026-01-26 09:05:18.53	334.84	10.24	-48.1	-60.7	3.8	1.49e+00	0	43	104	0	66	16620
2026-01-26 09:05:19.53	334.81	10.16	-48.1	-60.7	3.8	1.49e+00	0	43	104	0	66	16618
2026-01-26 09:05:20.54	334.78	10.07	-48.1	-60.7	3.8	1.49e+00	0	43	104	0	66	16568
2026-01-26 09:05:21.55	334.76	9.98	-48.1	-60.7	3.8	1.49e+00	0	44	104	0	66	16609
2026-01-26 09:05:22.56	334.73	9.90	-48.1	-60.7	3.8	1.49e+00	0	44	104	0	66	16592
2026-01-26 09:05:23.57	334.71	9.81	-48.1	-60.7	3.8	1.49e+00	0	44	104	0	66	16666
2026-01-26 09:05:24.57	334.68	9.73	-48.1	-60.7	3.8	1.49e+00	0	44	104	0	66	16584
2026-01-26 09:05:25.58	334.66	9.64	-48.1	-60.7	3.8	1.49e+00	0	44	104	0	66	16635
2026-01-26 09:05:26.59	334.63	9.56	-48.1	-60.7	3.8	1.49e+00	0	44	104	0	66	16596
2026-01-26 09:05:27.60	334.61	9.47	-48.0	-60.7	3.8	1.49e+00	0	44	104	0	66	16600
2026-01-26 09:05:28.61	334.59	9.39	-48.1	-60.7	3.8	1.49e+00	0	43	104	0	66	16595
2026-01-26 09:05:29.61	334.56	9.30	-48.1	-60.7	3.8	1.49e+00	0	43	104	0	66	16631
2026-01-26 09:05:30.62	334.54	9.22	-48.1	-60.7	3.8	1.49e+00	0	44	104	0	66	16605
2026-01-26 09:05:31.63	334.51	9.14	-48.1	-60.7	3.8	1.49e+00	0	44	104	0	66	16604
2026-01-26 09:05:32.64	334.49	9.05	-48.1	-60.7	3.8	1.49e+00	0	44	104	0	66	16624
2026-01-26 09:05:33.65	334.47	8.97	-48.1	-60.7	3.8	1.49e+00	0	44	104	0	66	16671
2026-01-26 09:05:34.66	334.44	8.89	-48.1	-60.7	3.8	1.49e+00	0	44	104	0	66	16656
2026-01-26 09:05:35.67	334.42	8.80	-48.1	-60.7	3.8	1.49e+00	0	44	104	0	66	16612
2026-01-26 09:05:36.67	334.40	8.72	-48.1	-60.7	3.8	1.49e+00	0	44	104	0	66	16641
2026-01-26 09:05:37.69	334.37	8.64	-48.1	-60.7	3.8	1.49e+00	0	44	104	0	66	16572
2026-01-26 09:05:38.69	334.35	8.56	-48.1	-60.7	3.8	1.49e+00	0	44	104	0	66	16630
2026-01-26 09:05:39.70	334.33	8.48	-48.1	-60.7	3.8	1.49e+00	0	44	104	0	66	16567
2026-01-26 09:05:40.71	334.31	8.39	-48.1	-60.7	3.8	1.49e+00	0	44	104	0	66	16659
2026-01-26 09:05:41.72	334.28	8.31	-48.1	-60.7	3.8	1.49e+00	0	43	104	0	66	16591
2026-01-26 09:05:42.73	334.26	8.23	-48.1	-60.7	3.8	1.49e+00	0	43	104	0	66	16611
2026-01-26 09:05:43.73	334.24	8.15	-48.1	-60.7	3.8	1.49e+00	0	44	104	0	66	16637
2026-01-26 09:05:44.74	334.22	8.07	-48.0	-60.7	3.8	1.49e+00	0	43	104	0	66	16607
2026-01-26 09:05:45.75	334.20	7.99	-48.1	-60.7	3.8	1.49e+00	0	43	104	0	66	16613
2026-01-26 09:05:46.76	334.18	7.91	-48.1	-60.7	3.8	1.49e+00	0	43	104	0	66	16612
2026-01-26 09:05:47.77	334.15	7.83	-48.1	-60.7	3.8	1.49e+00	0	44	104	0	66	16620
2026-01-26 09:05:48.77	334.13	7.75	-48.1	-60.7	3.8	1.49e+00	0	44	104	0	66	16610
2026-01-26 09:05:49.78	334.11	7.68	-48.1	-60.7	3.8	1.49e+00	0	43	104	0	66	16608
2026-01-26 09:05:50.79	334.09	7.60	-48.1	-60.7	3.8	1.49e+00	0	44	104	0	66	16630
2026-01-26 09:05:51.80	334.07	7.52	-48.1	-60.7	3.8	1.49e+00	0	44	104	0	66	16603
2026-01-26 09:05:52.81	334.05	7.44	-48.1	-60.7	3.8	1.49e+00	0	44	104	0	66	16624
2026-01-26 09:05:53.81	334.03	7.36	-48.1	-60.7	3.8	1.49e+00	0	44	104	0	66	16627
2026-01-26 09:05:54.82	334.01	7.28	-48.1	-60.7	3.8	1.49e+00	0	44	104	0	66	16611
2026-01-26 09:05:55.83	333.99	7.21	-48.1	-60.7	3.8	1.49e+00	0	44	104	0	66	16578
2026-01-26 09:05:56.83	333.97	7.13	-48.1	-60.7	3.8	1.49e+00	0	44	104	0	66	16590
2026-01-26 09:05:57.84	333.95	7.05	-48.1	-60.7	3.8	1.49e+00	0	44	104	0	66	16581
2026-01-26 09:05:58.85	333.93	6.98	-48.1	-60.7	3.8	1.49e+00	0	44	104	0	66	16584
2026-01-26 09:05:59.86	333.91	6.90	-48.1	-60.7	3.8	1.49e+00	0	43	104	0	66	16556
2026-01-26 09:06:00.87	333.89	6.82	-48.1	-60.7	3.8	1.49e+00	0	44	104	0	66	16607
2026-01-26 09:06:01.87	333.87	6.75	-48.1	-60.7	3.8	1.49e+00	0	44	104	0	66	16572
2026-01-26 09:06:02.88	333.85	6.67	-48.1	-60.7	3.8	1.49e+00	0	44	104	0	66	16597
2026-01-26 09:06:03.89	333.83	6.59	-48.1	-60.7	3.8	1.49e+00	0	44	104	0	66	16593
2026-01-26 09:06:04.90	333.81	6.52	-48.1	-60.7	3.8	1.49e+00	0	44	104	0	66	16586
2026-01-26 09:06:05.90	333.79	6.44	-48.1	-60.7	3.8	1.49e+00	0	44	104	0	66	16591
2026-01-26 09:06:06.91	333.77	6.37	-48.1	-60.7	3.8	1.49e+00	0	44	104	0	66	16612
2026-01-26 09:06:07.91	333.76	6.29	-48.1	-60.7	3.8	1.49e+00	0	44	104	0	66	16584
2026-01-26 09:06:08.92	333.74	6.22	-48.1	-60.7	3.8	1.49e+00	0	44	104	0	66	16621
2026-01-26 09:06:09.93	333.72	6.14	-48.1	-60.7	3.8	1.49e+00	0	44	104	0	66	16590
2026-01-26 09:06:10.94	333.70	6.07	-48.1	-60.7	3.8	1.49e+00	0	44	104	0	66	16572
2026-01-26 09:06:11.94	333.68	6.00	-48.1	-60.7	3.8	1.49e+00	0	44	104	0	66	16656
2026-01-26 09:06:12.95	333.66	5.92	-48.1	-60.7	3.8	1.49e+00	0	44	104	0	66	16586
2026-01-26 09:06:13.96	333.65	5.85	-48.0	-60.7	3.8	1.49e+00	0	44	104	0	66	16619
2026-01-26 09:06:14.97	333.63	5.78	-48.1	-60.7	3.8	1.49e+00	0	44	104	0	66	16562
2026-01-26 09:06:15.98	333.61	5.70	-48.1	-60.7	3.8	1.49e+00	0	43	104	0	66	16617
2026-01-26 09:06:16.99	333.59	5.63	-48.1	-60.7	3.8	1.49e+00	0	44	104	0	66	16585
2026-01-26 09:06:18.00	333.57	5.56	-48.1	-60.7	3.8	1.49e+00	0	44	104	0	66	16562
2026-01-26 09:06:19.01	333.56	5.48	-48.1	-60.7	3.8	1.49e+00	0	44	104	0	66	16540
2026-01-26 09:06:20.01	333.54	5.41	-48.1	-60.7	3.8	1.49e+00	0	44	104	0	66	16575
2026-01-26 09:06:21.02	333.52	5.34	-48.1	-60.7	3.8	1.49e+00	0	44	104	0	66	16582
2026-01-26 09:06:22.03	333.50	5.27	-48.1	-60.7	3.8	1.49e+00	0	44	104	0	66	16522
2026-01-26 09:06:23.04	333.49	5.19	-48.1	-60.7	3.8	1.49e+00	0	44	104	0	66	16579
2026-01-26 09:06:24.05	333.47	5.12	-48.1	-60.7	3.8	1.49e+00	0	44	104	0	66	16557
2026-01-26 09:06:25.06	333.45	5.05	-48.1	-60.7	3.8	1.49e+00	0	44	104	0	66	16626
2026-01-26 09:06:26.07	333.44	4.98	-48.1	-60.7	3.8	1.49e+00	0	43	104	0	66	16616
2026-01-26 09:06:27.08	333.42	4.91	-48.1	-60.7	3.8	1.49e+00	0	43	104	0	66	16556
2026-01-26 09:06:28.09	333.40	4.84	-48.1	-60.7	3.8	1.49e+00	0	44	104	0	66	16613
2026-01-26 09:06:29.09	333.39	4.77	-48.1	-60.7	3.8	1.49e+00	0	44	104	0	66	16565
2026-01-26 09:06:30.10	333.37	4.70	-48.1	-60.7	3.8	1.49e+00	0	43	104	0	66	16593
2026-01-26 09:06:31.11	333.35	4.63	-48.1	-60.7	3.8	1.49e+00	0	44	104	0	66	16602
2026-01-26 09:06:32.12	333.34	4.56	-48.1	-60.7	3.8	1.49e+00	0	44	104	0	66	16604
2026-01-26 09:06:33.13	333.32	4.49	-48.1	-60.7	3.8	1.49e+00	0	44	104	0	66	16618
2026-01-26 09:06:34.13	333.31	4.42	-48.1	-60.7	3.8	1.49e+00	0	44	104	0	66	16608
2026-01-26 09:06:35.14	333.29	4.35	-48.1	-60.7	3.8	1.49e+00	0	44	104	0	66	16561
2026-01-26 09:06:36.15	333.27	4.28	-48.1	-60.7	3.8	1.49e+00	0	44	104	0	66	16535
2026-01-26 09:06:37.15	333.26	4.21	-48.1	-60.7	3.8	1.49e+00	0	44	104	0	66	16587
2026-01-26 09:06:38.16	333.24	4.14	-48.1	-60.7	3.8	1.49e+00	0	44	104	0	66	16581
2026-01-26 09:06:39.17	333.23	4.07	-48.1	-60.7	3.8	1.49e+00	0	44	104	0	66	16583
2026-01-26 09:06:40.17	333.21	4.00	-48.1	-60.7	3.8	1.49e+00	0	44	104	0	66	16586
2026-01-26 09:06:41.18	333.20	3.93	-48.1	-60.7	3.8	1.49e+00	0	44	104	0	66	16577
2026-01-26 09:06:42.19	333.18	3.86	-48.1	-60.7	3.8	1.49e+00	0	43	104	0	66	16592
