passes_logs/2026/01/26/R3.2S_Murmansk/R3.2S_Murmansk__20260126_182353_TY-42_rec.log

#Pass ID: 20260126_182353_TY-42
#Satellite: TY-42
#Configuration: TY-42_900M
#almurnet v.1.7.20251203
#Start time: 2026-01-26 18:23:54

#Version: 2.2.20231116
#Station: R3.2S_Murmansk
#Location: 33.079688 lon 68.888172 lat
#TLE: 1 64048U 25103A   26026.63109954  .00008012  00000-0  38191-3 0 09992
#TLE: 2 64048 097.4117 101.8302 0001725 091.3579 298.9652 15.19176186 38587

#Time	Az	El	Level	Level2	SNR	BER	BlckErr	Temp	State	Recorded	gain1	gain2
2026-01-26 18:23:54.10	145.85	1.99	-54.7	-56.8	6.2	0.00e+00	0	49	0	0	80	18968
2026-01-26 18:23:55.10	145.83	2.06	-54.5	-56.7	6.2	0.00e+00	0	49	104	0	80	18757
2026-01-26 18:23:56.11	145.82	2.13	-54.5	-56.6	6.2	0.00e+00	0	50	104	0	80	18455
2026-01-26 18:23:57.11	145.81	2.20	-54.4	-56.5	6.2	0.00e+00	0	50	104	0	80	18290
2026-01-26 18:23:58.12	145.79	2.27	-54.3	-56.5	6.2	0.00e+00	0	50	104	0	80	18219
2026-01-26 18:23:59.13	145.78	2.34	-54.2	-56.4	6.2	0.00e+00	0	50	104	0	80	17989
2026-01-26 18:24:00.13	145.76	2.41	-54.1	-56.2	6.2	0.00e+00	0	50	104	0	80	17763
2026-01-26 18:24:01.14	145.74	2.49	-54.0	-56.1	6.2	0.00e+00	0	50	104	0	80	17471
2026-01-26 18:24:02.14	145.73	2.56	-53.9	-56.1	6.2	0.00e+00	0	50	104	0	79	18436
2026-01-26 18:24:03.15	145.71	2.63	-53.8	-55.9	6.2	0.00e+00	0	50	104	0	79	18152
2026-01-26 18:24:04.16	145.70	2.70	-53.6	-55.7	6.2	0.00e+00	0	50	104	0	79	17701
2026-01-26 18:24:05.16	145.68	2.77	-53.3	-55.5	6.2	0.00e+00	0	50	104	0	78	18183
2026-01-26 18:24:06.17	145.67	2.85	-53.0	-55.1	6.2	0.00e+00	0	50	104	0	78	17450
2026-01-26 18:24:07.17	145.65	2.92	-52.8	-55.0	6.2	0.00e+00	0	50	104	0	77	18205
2026-01-26 18:24:08.18	145.63	2.99	-52.8	-55.0	6.2	0.00e+00	0	50	104	0	77	18233
2026-01-26 18:24:09.19	145.62	3.07	-52.8	-55.0	6.2	0.00e+00	0	51	104	0	77	18188
2026-01-26 18:24:10.20	145.60	3.14	-52.8	-54.9	6.2	0.00e+00	0	51	104	0	77	18157
2026-01-26 18:24:11.20	145.59	3.22	-52.8	-54.9	6.2	0.00e+00	0	50	104	0	77	18113
2026-01-26 18:24:12.21	145.57	3.29	-52.8	-54.9	6.2	0.00e+00	0	51	104	0	77	18080
2026-01-26 18:24:13.22	145.55	3.37	-52.8	-54.9	6.2	0.00e+00	0	51	104	0	77	18166
2026-01-26 18:24:14.23	145.54	3.44	-52.8	-54.9	6.2	0.00e+00	0	51	104	0	77	18084
2026-01-26 18:24:15.23	145.52	3.52	-52.8	-54.9	6.2	0.00e+00	0	51	104	0	77	18084
2026-01-26 18:24:16.24	145.50	3.59	-52.8	-54.9	6.2	0.00e+00	0	51	104	0	77	18130
2026-01-26 18:24:17.25	145.48	3.67	-52.8	-54.9	6.2	0.00e+00	0	51	104	0	77	18087
2026-01-26 18:24:18.25	145.47	3.74	-52.8	-54.9	6.2	0.00e+00	0	51	104	0	77	18147
2026-01-26 18:24:19.26	145.45	3.82	-52.8	-54.9	6.2	0.00e+00	0	51	104	0	77	18094
2026-01-26 18:24:20.27	145.43	3.90	-52.8	-54.9	6.2	0.00e+00	0	51	104	0	77	18118
2026-01-26 18:24:21.28	145.41	3.97	-52.8	-54.9	6.2	0.00e+00	0	51	104	0	77	18134
2026-01-26 18:24:22.28	145.40	4.05	-52.8	-54.9	6.2	0.00e+00	0	51	104	0	77	18121
2026-01-26 18:24:23.29	145.38	4.13	-52.8	-54.9	6.2	0.00e+00	0	51	104	0	77	18051
2026-01-26 18:24:24.30	145.36	4.21	-52.8	-54.9	6.2	0.00e+00	0	51	104	0	77	18086
2026-01-26 18:24:25.31	145.34	4.28	-52.8	-54.9	6.2	0.00e+00	0	51	104	0	77	18071
2026-01-26 18:24:26.32	145.32	4.36	-52.8	-54.9	6.2	0.00e+00	0	51	104	0	77	18089
2026-01-26 18:24:27.33	145.30	4.44	-52.8	-54.9	6.2	0.00e+00	0	51	104	0	77	18089
2026-01-26 18:24:28.34	145.28	4.52	-52.8	-54.9	6.2	0.00e+00	0	51	104	0	77	18070
2026-01-26 18:24:29.34	145.26	4.60	-52.8	-54.9	6.2	0.00e+00	0	51	104	0	77	18090
2026-01-26 18:24:30.34	145.25	4.68	-52.8	-54.9	6.2	0.00e+00	0	51	104	0	77	18096
2026-01-26 18:24:31.35	145.23	4.76	-52.8	-54.9	6.2	0.00e+00	0	51	104	0	77	18020
2026-01-26 18:24:32.36	145.21	4.84	-52.8	-54.9	6.2	0.00e+00	0	52	104	0	77	18051
2026-01-26 18:24:33.37	145.19	4.92	-52.8	-54.9	6.2	0.00e+00	0	52	104	0	77	18022
2026-01-26 18:24:34.37	145.17	5.00	-52.8	-54.9	6.2	0.00e+00	0	52	104	0	77	18080
2026-01-26 18:24:35.38	145.15	5.08	-52.8	-54.9	6.2	0.00e+00	0	52	104	0	77	18178
2026-01-26 18:24:36.39	145.13	5.16	-52.9	-55.0	6.2	0.00e+00	0	52	104	0	77	18260
2026-01-26 18:24:37.39	145.11	5.24	-52.9	-55.0	6.2	0.00e+00	0	52	104	0	77	18259
2026-01-26 18:24:38.39	145.09	5.33	-52.8	-54.9	6.2	0.00e+00	0	52	104	0	77	18132
2026-01-26 18:24:39.40	145.07	5.41	-52.9	-55.0	6.2	0.00e+00	0	52	104	0	77	18338
2026-01-26 18:24:40.41	145.05	5.49	-50.4	-51.4	6.6	0.00e+00	0	52	104	0	72	16143
2026-01-26 18:24:41.42	145.02	5.58	-48.1	-48.6	7.8	0.00e+00	0	52	104	0	67	15495
2026-01-26 18:24:42.43	145.00	5.66	-46.0	-46.3	8.9	0.00e+00	0	52	104	0	64	14166
2026-01-26 18:24:43.43	144.98	5.74	-44.5	-44.7	9.6	0.00e+00	90	52	104	0	61	13997
2026-01-26 18:24:44.44	144.96	5.83	-44.5	-44.6	9.9	0.00e+00	11033	55	0	41943040	59	15623
2026-01-26 18:24:45.45	144.94	5.91	-42.7	-42.7	11.0	0.00e+00	11020	56	0	159383552	57	14089
2026-01-26 18:24:46.46	144.92	6.00	-42.0	-42.0	11.5	2.82e-01	4769	56	0	268435456	55	14509
2026-01-26 18:24:47.47	144.89	6.08	-40.6	-40.6	12.3	2.82e-01	0	55	0	385875968	53	13815
2026-01-26 18:24:48.47	144.87	6.17	-40.3	-40.3	12.5	2.82e-01	0	55	0	494927872	52	14148
2026-01-26 18:24:49.48	144.85	6.25	-39.8	-39.8	12.8	1.35e-01	0	55	0	603979776	51	14135
2026-01-26 18:24:50.49	144.83	6.34	-39.4	-39.4	13.0	1.35e-01	0	55	0	721420288	50	14319
2026-01-26 18:24:51.50	144.80	6.43	-39.4	-39.3	13.1	1.35e-01	0	55	0	830472192	50	14217
2026-01-26 18:24:52.50	144.78	6.52	-38.8	-38.8	13.4	5.95e-02	0	55	0	956301312	49	14119
2026-01-26 18:24:53.51	144.76	6.60	-38.1	-38.0	13.8	5.95e-02	0	55	0	1065353216	48	13727
2026-01-26 18:24:54.52	144.73	6.69	-37.0	-37.0	13.5	3.43e-02	0	55	0	1182793728	46	13634
2026-01-26 18:24:55.52	144.71	6.78	-36.7	-36.7	13.6	3.43e-02	0	55	0	1291845632	45	13963
2026-01-26 18:24:56.53	144.69	6.87	-36.7	-36.6	13.7	3.43e-02	0	55	0	1409286144	45	13846
2026-01-26 18:24:57.54	144.66	6.96	-36.5	-36.4	13.8	3.40e-02	0	55	0	1518338048	45	13598
2026-01-26 18:24:58.55	144.64	7.05	-36.6	-36.5	13.8	3.40e-02	0	55	0	1627389952	45	13726
2026-01-26 18:24:59.55	144.61	7.14	-36.6	-36.5	13.8	3.00e-02	0	55	0	1744830464	45	13713
2026-01-26 18:25:00.56	144.59	7.23	-36.5	-36.5	13.8	3.00e-02	0	55	0	1853882368	45	13646
2026-01-26 18:25:01.57	144.56	7.32	-36.6	-36.5	13.8	3.00e-02	0	55	0	1971322880	45	13670
2026-01-26 18:25:02.58	144.54	7.41	-36.5	-36.5	13.8	3.11e-02	0	55	0	2080374784	45	13662
2026-01-26 18:25:03.58	144.51	7.50	-36.4	-36.3	13.9	3.11e-02	0	55	0	2197815296	44	14198
2026-01-26 18:25:04.59	144.49	7.59	-36.3	-36.2	13.9	3.11e-02	0	55	0	2306867200	44	14110
2026-01-26 18:25:05.60	144.46	7.69	-36.4	-36.3	13.9	2.82e-02	0	55	0	2415919104	44	14210
2026-01-26 18:25:06.61	144.44	7.78	-36.4	-36.3	13.9	2.82e-02	0	56	0	2541748224	44	14237
2026-01-26 18:25:07.61	144.41	7.87	-36.2	-36.2	13.9	2.53e-02	0	55	0	2659188736	44	13991
2026-01-26 18:25:08.61	144.38	7.97	-36.2	-36.1	14.0	2.53e-02	0	56	0	2768240640	44	13878
2026-01-26 18:25:09.62	144.36	8.06	-36.1	-36.1	14.0	2.42e-02	0	56	0	2877292544	44	13817
2026-01-26 18:25:10.63	144.33	8.16	-36.1	-36.0	14.0	2.42e-02	0	56	0	2994733056	44	13777
2026-01-26 18:25:11.64	144.30	8.25	-36.1	-36.0	14.1	2.42e-02	0	56	0	3103784960	43	14575
2026-01-26 18:25:12.65	144.28	8.35	-36.2	-36.1	14.1	2.42e-02	0	56	0	3221225472	43	14677
2026-01-26 18:25:13.65	144.25	8.44	-36.0	-36.0	14.2	2.22e-02	0	56	0	3330277376	43	14483
2026-01-26 18:25:14.65	144.22	8.54	-36.2	-36.1	14.1	2.22e-02	0	56	0	3439329280	43	14656
2026-01-26 18:25:15.66	144.19	8.64	-36.2	-36.1	14.1	2.22e-02	0	56	0	3556769792	43	14750
2026-01-26 18:25:16.67	144.16	8.74	-36.0	-35.9	14.2	2.05e-02	0	56	0	3665821696	43	14422
2026-01-26 18:25:17.67	144.14	8.83	-35.9	-35.8	14.2	2.05e-02	0	56	0	3783262208	43	14173
2026-01-26 18:25:18.68	144.11	8.93	-35.9	-35.9	14.2	2.05e-02	0	56	0	3892314112	43	14285
2026-01-26 18:25:19.68	144.08	9.03	-35.9	-35.8	14.3	1.77e-02	0	56	0	4001366016	43	14208
2026-01-26 18:25:20.69	144.05	9.13	-35.8	-35.8	14.3	1.77e-02	0	56	0	4118806528	43	14153
2026-01-26 18:25:21.69	144.02	9.23	-35.8	-35.8	14.3	1.77e-02	0	56	0	4227858432	43	14149
2026-01-26 18:25:22.71	143.99	9.33	-35.7	-35.6	14.4	1.59e-02	0	56	0	4353687552	43	13939
2026-01-26 18:25:23.71	143.96	9.43	-35.8	-35.7	14.3	1.59e-02	0	56	0	4462739456	43	13991
2026-01-26 18:25:24.72	143.93	9.54	-35.8	-35.7	14.3	1.59e-02	0	56	0	4580179968	43	14031
2026-01-26 18:25:25.72	143.90	9.64	-35.6	-35.5	14.4	1.56e-02	0	56	0	4689231872	43	13695
2026-01-26 18:25:26.73	143.86	9.74	-35.6	-35.6	14.4	1.56e-02	0	56	0	4806672384	43	13818
2026-01-26 18:25:27.74	143.83	9.84	-35.5	-35.4	14.5	1.56e-02	0	56	0	4915724288	43	13608
2026-01-26 18:25:28.74	143.80	9.95	-35.4	-35.3	14.5	1.29e-02	0	56	0	5033164800	42	14177
2026-01-26 18:25:29.74	143.77	10.05	-35.4	-35.4	14.5	1.29e-02	0	56	0	5142216704	42	14278
2026-01-26 18:25:30.75	143.74	10.16	-35.4	-35.3	14.5	1.29e-02	0	57	0	5251268608	42	14135
2026-01-26 18:25:31.75	143.70	10.26	-35.3	-35.2	14.6	1.19e-02	0	56	0	5368709120	42	14024
2026-01-26 18:25:32.76	143.67	10.37	-35.3	-35.2	14.5	1.19e-02	0	56	0	5477761024	42	14066
2026-01-26 18:25:33.76	143.64	10.48	-35.2	-35.1	14.6	1.19e-02	0	56	0	5595201536	42	13899
2026-01-26 18:25:34.77	143.60	10.58	-35.2	-35.1	14.6	1.15e-02	0	56	0	5704253440	42	13887
2026-01-26 18:25:35.77	143.57	10.69	-35.2	-35.1	14.6	1.15e-02	0	57	0	5813305344	42	13898
2026-01-26 18:25:36.78	143.53	10.80	-35.1	-35.0	14.6	1.15e-02	0	57	0	5930745856	42	13747
2026-01-26 18:25:37.79	143.50	10.91	-35.0	-34.9	14.7	9.32e-03	0	56	0	6039797760	42	13615
2026-01-26 18:25:38.79	143.46	11.02	-34.9	-34.8	14.7	9.32e-03	0	57	0	6157238272	41	14243
2026-01-26 18:25:39.80	143.43	11.13	-34.9	-34.8	14.8	9.32e-03	0	57	0	6274678784	41	14224
2026-01-26 18:25:40.81	143.39	11.24	-34.9	-34.8	14.8	9.01e-03	0	57	0	6392119296	41	14187
2026-01-26 18:25:41.81	143.36	11.35	-34.8	-34.7	14.8	9.01e-03	0	57	0	6501171200	41	14101
2026-01-26 18:25:42.82	143.32	11.47	-34.7	-34.6	14.9	7.59e-03	0	57	0	6618611712	41	13913
2026-01-26 18:25:43.83	143.28	11.58	-34.7	-34.7	14.9	7.59e-03	0	57	0	6727663616	41	13956
2026-01-26 18:25:44.84	143.25	11.70	-34.6	-34.5	14.9	7.59e-03	0	57	0	6836715520	41	13742
2026-01-26 18:25:45.84	143.21	11.81	-34.6	-34.5	14.9	6.17e-03	0	57	0	6954156032	41	13746
2026-01-26 18:25:46.85	143.17	11.93	-34.5	-34.4	14.9	6.17e-03	0	57	0	7063207936	41	13605
2026-01-26 18:25:47.85	143.13	12.04	-34.6	-34.5	14.9	6.17e-03	0	57	0	7180648448	41	13663
2026-01-26 18:25:48.85	143.09	12.16	-34.5	-34.4	14.9	5.68e-03	0	57	0	7289700352	41	13616
2026-01-26 18:25:49.85	143.05	12.27	-34.3	-34.2	15.0	5.68e-03	0	57	0	7398752256	40	14106
2026-01-26 18:25:50.86	143.01	12.39	-34.3	-34.2	15.0	4.63e-03	0	57	0	7516192768	40	14015
2026-01-26 18:25:51.87	142.97	12.51	-34.3	-34.2	15.0	4.63e-03	0	57	0	7625244672	40	14077
2026-01-26 18:25:52.88	142.93	12.63	-34.2	-34.1	15.1	4.63e-03	0	57	0	7742685184	40	13898
2026-01-26 18:25:53.89	142.89	12.75	-34.1	-34.0	15.1	3.91e-03	0	57	0	7851737088	40	13743
2026-01-26 18:25:54.90	142.85	12.88	-34.1	-34.0	15.1	3.91e-03	0	57	0	7969177600	40	13675
2026-01-26 18:25:55.89	142.81	13.00	-34.1	-34.1	15.1	3.91e-03	0	57	0	8078229504	40	13801
2026-01-26 18:25:56.90	142.77	13.12	-34.1	-34.0	15.1	3.83e-03	0	57	0	8204058624	40	13765
2026-01-26 18:25:57.91	142.72	13.24	-34.0	-33.9	15.2	3.83e-03	0	57	0	8313110528	39	14340
2026-01-26 18:25:58.91	142.68	13.37	-33.9	-33.8	15.2	3.26e-03	0	57	0	8430551040	39	14272
2026-01-26 18:25:59.92	142.64	13.49	-33.9	-33.8	15.2	3.26e-03	0	57	0	8539602944	39	14235
2026-01-26 18:26:00.92	142.59	13.62	-33.7	-33.6	15.3	3.26e-03	0	57	0	8648654848	39	13941
2026-01-26 18:26:01.93	142.55	13.75	-33.7	-33.6	15.3	2.44e-03	0	57	0	8766095360	39	13855
2026-01-26 18:26:02.94	142.50	13.88	-33.7	-33.6	15.3	2.44e-03	0	57	0	8875147264	39	13946
2026-01-26 18:26:03.94	142.46	14.00	-33.6	-33.5	15.4	2.44e-03	0	58	0	8992587776	39	13701
2026-01-26 18:26:04.95	142.41	14.13	-33.5	-33.4	15.4	1.73e-03	0	58	0	9101639680	39	13599
2026-01-26 18:26:05.96	142.36	14.26	-33.5	-33.4	15.4	1.73e-03	0	58	0	9210691584	39	13619
2026-01-26 18:26:06.96	142.32	14.40	-33.6	-33.5	15.4	1.73e-03	0	57	0	9328132096	39	13658
2026-01-26 18:26:07.97	142.27	14.53	-33.4	-33.3	15.5	1.62e-03	0	58	0	9437184000	38	14135
2026-01-26 18:26:08.98	142.22	14.66	-33.4	-33.3	15.5	1.62e-03	0	57	0	9554624512	38	14179
2026-01-26 18:26:09.98	142.17	14.80	-33.2	-33.1	15.5	1.62e-03	0	58	0	9663676416	38	13913
2026-01-26 18:26:10.99	142.12	14.93	-33.2	-33.1	15.5	1.45e-03	0	58	0	9772728320	38	13873
2026-01-26 18:26:12.00	142.07	15.07	-33.2	-33.1	15.5	1.45e-03	0	58	0	9890168832	38	13832
2026-01-26 18:26:13.01	142.02	15.21	-33.0	-32.9	15.6	1.45e-03	0	57	0	10015997952	38	13567
2026-01-26 18:26:14.02	141.97	15.34	-32.9	-32.8	15.5	1.25e-03	0	58	0	10125049856	37	14245
2026-01-26 18:26:15.02	141.92	15.48	-32.9	-32.8	15.6	1.25e-03	0	58	0	10234101760	37	14142
2026-01-26 18:26:16.03	141.87	15.62	-32.9	-32.8	15.6	1.25e-03	0	58	0	10351542272	37	14269
2026-01-26 18:26:17.03	141.81	15.76	-32.9	-32.8	15.6	9.68e-04	0	58	0	10460594176	37	14181
2026-01-26 18:26:18.04	141.76	15.91	-32.7	-32.6	15.6	9.68e-04	0	58	0	10578034688	37	13938
2026-01-26 18:26:19.05	141.70	16.05	-32.7	-32.6	15.7	8.53e-04	0	58	0	10687086592	37	13913
2026-01-26 18:26:20.05	141.65	16.19	-32.8	-32.7	15.7	8.53e-04	0	58	0	10804527104	37	13967
2026-01-26 18:26:21.06	141.59	16.34	-32.7	-32.6	15.7	7.91e-04	0	58	0	10913579008	37	13794
2026-01-26 18:26:22.06	141.54	16.48	-32.7	-32.6	15.7	7.91e-04	0	58	0	11022630912	37	13877
2026-01-26 18:26:23.07	141.48	16.63	-32.7	-32.6	15.7	7.91e-04	0	58	0	11140071424	37	13864
2026-01-26 18:26:24.07	141.42	16.78	-32.7	-32.6	15.7	7.01e-04	0	58	0	11249123328	37	13828
2026-01-26 18:26:25.07	141.37	16.93	-32.4	-32.3	15.8	7.01e-04	0	58	0	11366563840	36	14256
2026-01-26 18:26:26.07	141.31	17.08	-32.4	-32.3	15.8	7.01e-04	0	58	0	11475615744	36	14198
2026-01-26 18:26:27.07	141.25	17.23	-32.4	-32.3	15.8	5.43e-04	0	58	0	11584667648	36	14159
2026-01-26 18:26:28.08	141.19	17.38	-32.4	-32.3	15.8	5.43e-04	0	58	0	11702108160	36	14146
2026-01-26 18:26:29.09	141.13	17.54	-32.2	-32.1	15.9	4.96e-04	0	58	0	11811160064	36	13941
2026-01-26 18:26:30.09	141.06	17.69	-32.2	-32.1	15.9	4.96e-04	0	58	0	11928600576	36	13850
2026-01-26 18:26:31.09	141.00	17.85	-32.1	-32.0	15.9	4.96e-04	0	58	0	12037652480	36	13732
2026-01-26 18:26:32.10	140.94	18.01	-32.0	-31.9	15.9	4.96e-04	0	58	0	12163481600	36	13624
2026-01-26 18:26:33.11	140.87	18.17	-29.6	-29.6	15.5	4.10e-04	0	58	0	12272533504	31	13817
2026-01-26 18:26:34.11	140.81	18.33	-29.6	-29.5	15.5	4.10e-04	0	58	0	12389974016	31	13741
2026-01-26 18:26:35.12	140.74	18.49	-29.6	-29.5	15.5	4.10e-04	0	58	0	12499025920	31	13719
2026-01-26 18:26:36.13	140.67	18.65	-29.5	-29.4	15.6	1.54e-03	0	58	0	12608077824	31	13607
2026-01-26 18:26:37.13	140.61	18.82	-29.4	-29.3	15.6	1.54e-03	0	58	0	12725518336	30	14259
2026-01-26 18:26:38.14	140.54	18.98	-29.1	-29.0	15.7	1.54e-03	0	58	0	12834570240	30	13774
2026-01-26 18:26:39.15	140.47	19.15	-29.1	-29.0	15.7	1.17e-03	0	58	0	12952010752	30	13734
2026-01-26 18:26:40.15	140.40	19.32	-29.1	-29.1	15.7	1.17e-03	0	58	0	13061062656	30	13791
2026-01-26 18:26:41.16	140.33	19.49	-28.8	-28.7	15.8	1.04e-03	0	58	0	13170114560	29	14053
2026-01-26 18:26:42.16	140.25	19.66	-28.9	-28.8	15.7	1.04e-03	0	58	0	13287555072	29	14160
2026-01-26 18:26:43.16	140.18	19.83	-28.6	-28.5	15.8	1.04e-03	0	58	0	13396606976	29	13786
2026-01-26 18:26:44.17	140.11	20.01	-28.4	-28.3	15.9	1.04e-03	0	58	0	13514047488	28	14200
2026-01-26 18:26:45.18	140.03	20.18	-28.5	-28.4	15.8	7.82e-04	0	58	0	13623099392	28	14325
2026-01-26 18:26:46.18	139.95	20.36	-28.1	-28.1	15.9	7.82e-04	0	58	0	13740539904	28	13820
2026-01-26 18:26:47.19	139.88	20.54	-28.1	-28.0	15.9	4.20e-04	0	58	0	13849591808	28	13706
2026-01-26 18:26:48.19	139.80	20.72	-28.0	-28.0	15.9	4.20e-04	0	58	0	13958643712	28	13659
2026-01-26 18:26:49.20	139.72	20.90	-27.9	-27.8	16.0	4.20e-04	0	58	0	14084472832	27	14211
2026-01-26 18:26:50.21	139.64	21.09	-27.9	-27.8	16.0	4.20e-04	0	58	0	14201913344	27	14211
2026-01-26 18:26:51.22	139.55	21.27	-27.7	-27.6	16.1	3.05e-04	0	58	0	14310965248	27	13915
2026-01-26 18:26:52.21	139.47	21.46	-27.8	-27.7	16.1	3.05e-04	0	58	0	14420017152	27	13986
2026-01-26 18:26:53.22	139.39	21.64	-27.7	-27.6	16.1	1.29e-04	0	58	0	14537457664	27	13885
2026-01-26 18:26:54.23	139.30	21.84	-27.4	-27.3	16.1	1.29e-04	0	58	0	14646509568	26	14198
2026-01-26 18:26:55.23	139.22	22.03	-27.4	-27.3	16.1	1.48e-04	0	58	0	14763950080	26	14167
2026-01-26 18:26:56.24	139.13	22.22	-27.4	-27.3	16.1	1.48e-04	0	58	0	14873001984	26	14171
2026-01-26 18:26:57.24	139.04	22.42	-27.1	-27.1	16.2	1.48e-04	0	58	0	14982053888	26	13803
2026-01-26 18:26:58.25	138.95	22.61	-27.2	-27.1	16.1	6.67e-05	0	58	0	15099494400	26	13826
2026-01-26 18:26:59.26	138.85	22.81	-27.1	-27.0	16.2	6.67e-05	0	58	0	15208546304	26	13723
2026-01-26 18:27:00.27	138.76	23.01	-27.0	-27.0	16.3	6.67e-05	0	58	0	15325986816	26	13633
2026-01-26 18:27:01.27	138.67	23.22	-27.1	-27.0	16.2	6.67e-05	0	58	0	15435038720	26	13783
2026-01-26 18:27:02.28	138.57	23.42	-26.9	-26.8	16.3	3.81e-05	0	58	0	15544090624	25	14228
2026-01-26 18:27:03.29	138.47	23.63	-26.9	-26.8	16.3	3.81e-05	0	58	0	15661531136	25	14166
2026-01-26 18:27:04.30	138.37	23.84	-26.9	-26.8	16.3	3.81e-05	0	58	0	15770583040	25	14221
2026-01-26 18:27:05.30	138.27	24.05	-26.9	-26.8	16.3	3.81e-05	0	58	0	15896412160	25	14194
2026-01-26 18:27:06.31	138.17	24.26	-26.7	-26.6	16.4	3.81e-05	0	58	0	16005464064	25	13810
2026-01-26 18:27:07.32	138.06	24.48	-26.8	-26.7	16.4	3.81e-05	0	58	0	16122904576	25	14001
2026-01-26 18:27:08.33	137.96	24.69	-26.7	-26.7	16.4	4.29e-05	0	58	0	16231956480	25	13968
2026-01-26 18:27:09.33	137.85	24.91	-26.6	-26.5	16.5	4.29e-05	0	58	0	16349396992	25	13653
2026-01-26 18:27:10.34	137.74	25.13	-26.5	-26.4	16.5	4.29e-05	0	58	0	16458448896	25	13524
2026-01-26 18:27:11.35	137.63	25.36	-26.4	-26.3	16.5	4.76e-05	0	58	0	16575889408	24	14143
2026-01-26 18:27:12.35	137.52	25.58	-26.5	-26.4	16.5	4.76e-05	0	58	0	16684941312	24	14363
2026-01-26 18:27:13.36	137.40	25.81	-26.4	-26.3	16.5	4.76e-05	0	58	0	16793993216	24	14214
2026-01-26 18:27:14.37	137.29	26.04	-26.1	-26.0	16.6	1.90e-05	0	58	0	16911433728	24	13778
2026-01-26 18:27:15.38	137.17	26.27	-26.1	-26.0	16.6	1.90e-05	0	58	0	17020485632	24	13789
2026-01-26 18:27:16.38	137.05	26.50	-26.0	-25.9	16.7	1.90e-05	0	58	0	17137926144	24	13508
2026-01-26 18:27:17.39	136.93	26.74	-25.8	-25.7	16.6	5.24e-05	0	58	0	17246978048	23	14053
2026-01-26 18:27:18.39	136.80	26.98	-25.9	-25.8	16.7	5.24e-05	0	58	0	17356029952	23	14222
2026-01-26 18:27:19.40	136.68	27.22	-25.6	-25.5	16.7	2.86e-05	0	58	0	17481859072	23	13684
2026-01-26 18:27:20.41	136.55	27.47	-25.4	-25.3	16.8	2.86e-05	0	58	0	17599299584	22	14253
2026-01-26 18:27:21.42	136.42	27.71	-25.3	-25.2	16.8	2.86e-05	0	58	0	17708351488	22	14079
2026-01-26 18:27:22.43	136.28	27.96	-25.2	-25.1	16.8	2.38e-05	0	59	0	17817403392	22	13944
2026-01-26 18:27:23.43	136.15	28.21	-25.1	-25.0	16.8	2.38e-05	0	58	0	17934843904	22	13779
2026-01-26 18:27:24.44	136.01	28.47	-25.1	-25.0	16.8	2.38e-05	0	58	0	18043895808	22	13718
2026-01-26 18:27:25.45	135.87	28.72	-25.0	-24.9	16.9	1.43e-05	0	58	0	18161336320	22	13546
2026-01-26 18:27:26.46	135.72	28.98	-24.8	-24.7	16.9	1.43e-05	0	58	0	18270388224	21	14047
2026-01-26 18:27:27.47	135.58	29.25	-24.7	-24.6	16.9	9.50e-06	0	58	0	18379440128	21	13908
2026-01-26 18:27:28.47	135.43	29.51	-24.6	-24.5	16.9	9.50e-06	0	58	0	18496880640	21	13717
2026-01-26 18:27:29.48	135.28	29.78	-24.6	-24.5	17.0	9.50e-06	0	58	0	18605932544	21	13675
2026-01-26 18:27:30.49	135.13	30.05	-24.3	-24.2	17.0	0.00e+00	0	58	0	18723373056	20	14031
2026-01-26 18:27:31.50	134.97	30.32	-24.3	-24.2	17.0	0.00e+00	0	58	0	18832424960	20	14076
2026-01-26 18:27:32.50	134.81	30.60	-24.2	-24.1	17.0	0.00e+00	0	58	0	18958254080	20	13836
2026-01-26 18:27:33.51	134.65	30.88	-24.1	-24.1	17.0	0.00e+00	0	58	0	19067305984	20	13792
2026-01-26 18:27:34.52	134.48	31.16	-24.1	-24.0	17.1	0.00e+00	0	58	0	19184746496	20	13655
2026-01-26 18:27:35.52	134.31	31.44	-24.1	-24.0	17.1	0.00e+00	0	58	0	19293798400	20	13751
2026-01-26 18:27:36.53	134.14	31.73	-24.1	-24.0	17.1	4.70e-06	0	58	0	19402850304	20	13654
2026-01-26 18:27:37.53	133.97	32.02	-24.1	-24.0	17.1	4.70e-06	0	58	0	19520290816	19	14499
2026-01-26 18:27:38.54	133.79	32.31	-24.0	-23.9	17.1	4.70e-06	0	58	0	19629342720	19	14296
2026-01-26 18:27:39.55	133.60	32.61	-24.1	-24.0	17.1	0.00e+00	0	58	0	19746783232	19	14498
2026-01-26 18:27:40.56	133.42	32.91	-23.9	-23.8	17.2	0.00e+00	0	58	0	19855835136	19	14194
2026-01-26 18:27:41.56	133.23	33.21	-23.8	-23.7	17.1	0.00e+00	0	58	0	19973275648	19	14100
2026-01-26 18:27:42.57	133.03	33.52	-23.4	-23.3	17.2	0.00e+00	0	58	0	20082327552	18	14133
2026-01-26 18:27:43.58	132.83	33.83	-23.2	-23.1	17.2	0.00e+00	0	58	0	20191379456	18	13905
2026-01-26 18:27:44.59	132.63	34.14	-23.1	-23.0	17.2	0.00e+00	0	58	0	20308819968	18	13771
2026-01-26 18:27:45.59	132.43	34.45	-23.1	-23.0	17.2	0.00e+00	0	58	0	20417871872	18	13751
2026-01-26 18:27:46.60	132.21	34.77	-22.9	-22.8	17.2	0.00e+00	0	58	0	20535312384	17	14253
2026-01-26 18:27:47.61	132.00	35.10	-22.9	-22.8	17.2	0.00e+00	0	58	0	20652752896	17	14246
2026-01-26 18:27:48.62	131.78	35.42	-22.7	-22.6	17.3	0.00e+00	0	58	0	20770193408	17	13811
2026-01-26 18:27:49.63	131.55	35.76	-22.6	-22.5	17.3	0.00e+00	0	58	0	20879245312	17	13711
2026-01-26 18:27:50.64	131.32	36.09	-22.6	-22.5	17.3	0.00e+00	0	58	0	20996685824	17	13662
2026-01-26 18:27:51.65	131.08	36.43	-22.3	-22.2	17.3	0.00e+00	0	58	0	21105737728	16	14000
2026-01-26 18:27:52.66	130.84	36.77	-22.3	-22.2	17.3	0.00e+00	0	58	0	21214789632	16	13961
2026-01-26 18:27:53.66	130.60	37.11	-22.1	-22.0	17.3	0.00e+00	0	58	0	21332230144	16	13746
2026-01-26 18:27:54.67	130.35	37.46	-22.1	-22.0	17.3	0.00e+00	0	58	0	21441282048	16	13773
2026-01-26 18:27:55.68	130.09	37.81	-22.1	-22.0	17.3	0.00e+00	0	58	0	21558722560	16	13700
2026-01-26 18:27:56.69	129.83	38.16	-22.0	-21.9	17.4	0.00e+00	0	58	0	21667774464	16	13545
2026-01-26 18:27:57.69	129.56	38.52	-21.8	-21.7	17.4	0.00e+00	0	58	0	21776826368	15	13965
2026-01-26 18:27:58.70	129.28	38.88	-21.5	-21.4	17.4	0.00e+00	0	58	0	21902655488	15	13600
2026-01-26 18:27:59.71	129.00	39.25	-21.5	-21.4	17.4	0.00e+00	0	58	0	22020096000	15	13550
2026-01-26 18:28:00.72	128.71	39.62	-21.4	-21.3	17.4	0.00e+00	0	58	0	22129147904	14	14242
2026-01-26 18:28:01.73	128.41	39.99	-21.4	-21.3	17.4	0.00e+00	0	58	0	22238199808	14	14217
2026-01-26 18:28:02.74	128.11	40.37	-21.2	-21.1	17.4	0.00e+00	0	58	0	22355640320	14	13805
2026-01-26 18:28:03.75	127.80	40.75	-21.2	-21.1	17.4	0.00e+00	0	58	0	22464692224	14	13817
2026-01-26 18:28:04.75	127.48	41.13	-21.2	-21.1	17.5	0.00e+00	0	58	0	22582132736	14	13888
2026-01-26 18:28:05.76	127.15	41.51	-21.0	-20.9	17.5	0.00e+00	0	58	0	22691184640	14	13478
2026-01-26 18:28:06.77	126.81	41.91	-20.8	-20.6	17.5	0.00e+00	0	58	0	22800236544	13	13941
2026-01-26 18:28:07.77	126.47	42.30	-20.7	-20.6	17.5	0.00e+00	0	58	0	22917677056	13	13900
2026-01-26 18:28:08.78	126.12	42.70	-20.8	-20.6	17.5	0.00e+00	0	58	0	23026728960	13	13924
2026-01-26 18:28:09.79	125.76	43.10	-20.6	-20.4	17.5	0.00e+00	0	58	0	23144169472	13	13626
2026-01-26 18:28:10.80	125.38	43.50	-20.6	-20.4	17.5	0.00e+00	0	58	0	23253221376	13	13607
2026-01-26 18:28:11.81	125.00	43.91	-20.5	-20.4	17.5	0.00e+00	0	58	0	23379050496	13	13527
2026-01-26 18:28:12.81	124.61	44.32	-20.4	-20.3	17.5	0.00e+00	0	58	0	23488102400	12	14182
2026-01-26 18:28:13.82	124.21	44.74	-20.5	-20.3	17.5	0.00e+00	0	58	0	23605542912	12	14272
2026-01-26 18:28:14.83	123.79	45.16	-20.2	-20.1	17.6	0.00e+00	0	58	0	23714594816	12	13819
2026-01-26 18:28:15.84	123.36	45.58	-20.3	-20.2	17.6	0.00e+00	0	58	0	23832035328	12	13965
2026-01-26 18:28:16.84	122.93	46.00	-20.1	-20.0	17.6	0.00e+00	0	58	0	23941087232	12	13652
2026-01-26 18:28:17.85	122.48	46.43	-20.1	-20.0	17.6	0.00e+00	0	58	0	24050139136	11	14525
2026-01-26 18:28:18.86	122.01	46.86	-20.1	-19.9	17.6	0.00e+00	0	58	0	24167579648	11	14410
2026-01-26 18:28:19.87	121.53	47.30	-20.0	-19.9	17.6	0.00e+00	0	58	0	24276631552	11	14289
2026-01-26 18:28:20.88	121.04	47.73	-19.8	-19.7	17.6	0.00e+00	0	58	0	24394072064	11	13963
2026-01-26 18:28:21.89	120.53	48.17	-19.9	-19.8	17.6	0.00e+00	0	58	0	24503123968	11	14180
2026-01-26 18:28:22.89	120.02	48.61	-19.6	-19.5	17.6	0.00e+00	0	58	0	24612175872	11	13676
2026-01-26 18:28:23.90	119.48	49.06	-19.7	-19.5	17.6	0.00e+00	0	58	0	24729616384	11	13776
2026-01-26 18:28:24.91	118.93	49.50	-19.6	-19.5	17.5	0.00e+00	0	58	0	24855445504	11	13663
2026-01-26 18:28:25.91	118.36	49.95	-19.4	-19.2	17.6	0.00e+00	0	58	0	24964497408	10	14083
2026-01-26 18:28:26.92	117.77	50.40	-19.2	-19.1	17.6	0.00e+00	0	58	0	25073549312	10	13889
2026-01-26 18:28:27.92	117.17	50.85	-19.1	-19.0	17.7	0.00e+00	0	58	0	25190989824	10	13677
2026-01-26 18:28:28.93	116.55	51.30	-19.2	-19.1	17.7	0.00e+00	0	58	0	25300041728	10	13793
2026-01-26 18:28:29.93	115.91	51.75	-19.0	-18.8	17.7	0.00e+00	0	58	0	25417482240	10	13475
2026-01-26 18:28:30.93	115.25	52.20	-19.0	-18.9	17.7	0.00e+00	0	58	0	25526534144	9	14302
2026-01-26 18:28:31.94	114.56	52.66	-18.8	-18.7	17.7	0.00e+00	0	58	0	25635586048	9	13952
2026-01-26 18:28:32.95	113.85	53.12	-18.8	-18.6	17.7	0.00e+00	0	58	0	25753026560	9	13941
2026-01-26 18:28:33.95	113.13	53.57	-18.6	-18.5	17.7	0.00e+00	0	58	0	25862078464	9	13671
2026-01-26 18:28:34.96	112.37	54.03	-18.6	-18.5	17.7	0.00e+00	0	58	0	25979518976	9	13715
2026-01-26 18:28:35.97	111.59	54.48	-18.4	-18.2	17.7	0.00e+00	0	58	0	26088570880	8	14099
2026-01-26 18:28:36.98	110.78	54.94	-18.4	-18.3	17.7	0.00e+00	0	58	0	26197622784	8	14134
2026-01-26 18:28:37.98	109.96	55.39	-18.4	-18.2	17.7	0.00e+00	0	58	0	26315063296	8	14099
2026-01-26 18:28:38.99	109.09	55.84	-18.3	-18.1	17.7	0.00e+00	0	58	0	26424115200	8	13939
2026-01-26 18:28:40.00	108.20	56.29	-18.1	-18.0	17.6	0.00e+00	0	58	0	26541555712	8	13742
2026-01-26 18:28:41.01	107.28	56.74	-18.2	-18.1	17.6	0.00e+00	0	58	0	26667384832	8	13791
2026-01-26 18:28:42.01	106.34	57.17	-18.1	-17.9	17.6	0.00e+00	0	58	0	26776436736	8	13629
2026-01-26 18:28:43.02	105.36	57.61	-18.1	-18.0	17.6	0.00e+00	0	58	0	26885488640	8	13674
2026-01-26 18:28:44.02	104.36	58.04	-18.0	-17.9	17.6	0.00e+00	0	58	0	27002929152	8	13546
2026-01-26 18:28:45.03	103.31	58.47	-18.1	-18.0	17.6	0.00e+00	0	59	0	27111981056	8	13713
2026-01-26 18:28:46.03	102.24	58.89	-18.1	-18.0	17.6	0.00e+00	0	58	0	27229421568	8	13702
2026-01-26 18:28:47.03	101.13	59.31	-18.0	-17.9	17.5	0.00e+00	0	58	0	27338473472	8	13578
2026-01-26 18:28:48.04	99.98	59.72	-18.0	-17.8	17.6	0.00e+00	0	58	0	27447525376	7	14242
2026-01-26 18:28:49.04	98.80	60.11	-18.0	-17.8	17.5	0.00e+00	0	58	0	27564965888	7	14261
2026-01-26 18:28:50.04	97.58	60.50	-18.0	-17.9	17.5	0.00e+00	0	59	0	27674017792	7	14340
2026-01-26 18:28:51.05	96.31	60.89	-18.0	-17.8	17.6	0.00e+00	0	58	0	27791458304	7	14237
2026-01-26 18:28:52.06	95.00	61.26	-17.8	-17.7	17.5	0.00e+00	0	58	0	27900510208	7	13980
2026-01-26 18:28:53.06	93.67	61.62	-17.9	-17.8	17.5	0.00e+00	0	58	0	28009562112	7	14147
2026-01-26 18:28:54.07	92.28	61.97	-17.9	-17.7	17.6	0.00e+00	0	58	0	28127002624	7	14085
2026-01-26 18:28:55.07	90.87	62.31	-17.6	-17.5	17.5	0.00e+00	0	59	0	28236054528	7	13687
2026-01-26 18:28:56.08	89.41	62.63	-17.6	-17.5	17.6	0.00e+00	0	59	0	28353495040	7	13730
2026-01-26 18:28:57.09	87.90	62.94	-17.6	-17.4	17.6	0.00e+00	0	58	0	28462546944	7	13580
2026-01-26 18:28:58.10	86.36	63.24	-17.5	-17.4	17.5	0.00e+00	0	59	0	28571598848	7	13561
2026-01-26 18:28:59.10	84.79	63.51	-17.4	-17.2	17.5	0.00e+00	0	59	0	28697427968	6	14090
2026-01-26 18:29:00.11	83.17	63.77	-17.4	-17.2	17.5	0.00e+00	0	58	0	28814868480	6	14103
2026-01-26 18:29:01.12	81.52	64.02	-17.4	-17.3	17.5	0.00e+00	0	59	0	28923920384	6	14221
2026-01-26 18:29:02.13	79.83	64.24	-17.4	-17.3	17.5	0.00e+00	0	58	0	29032972288	6	14208
2026-01-26 18:29:03.13	78.12	64.44	-17.4	-17.2	17.5	0.00e+00	0	59	0	29150412800	6	14109
2026-01-26 18:29:04.14	76.37	64.63	-17.2	-17.1	17.5	0.00e+00	0	58	0	29259464704	6	13868
2026-01-26 18:29:05.15	74.59	64.79	-17.3	-17.2	17.5	0.00e+00	0	59	0	29376905216	6	14042
2026-01-26 18:29:06.15	72.81	64.93	-17.4	-17.3	17.5	0.00e+00	0	59	0	29485957120	6	14197
2026-01-26 18:29:07.16	70.99	65.05	-17.3	-17.2	17.5	0.00e+00	0	59	0	29603397632	6	14012
2026-01-26 18:29:08.17	69.14	65.15	-17.4	-17.2	17.5	0.00e+00	0	59	0	29712449536	6	14069
2026-01-26 18:29:09.18	67.29	65.23	-17.3	-17.1	17.5	0.00e+00	0	59	0	29821501440	6	13912
2026-01-26 18:29:10.18	65.44	65.28	-17.2	-17.0	17.5	0.00e+00	0	58	0	29938941952	6	13784
2026-01-26 18:29:11.19	63.57	65.31	-17.3	-17.2	17.5	0.00e+00	0	59	0	30047993856	6	13986
2026-01-26 18:29:12.20	61.69	65.31	-17.3	-17.2	17.5	0.00e+00	0	59	0	30165434368	6	13997
2026-01-26 18:29:13.21	59.82	65.29	-17.8	-17.7	17.4	0.00e+00	0	58	0	30282874880	6	14852
2026-01-26 18:29:14.22	57.95	65.25	-17.2	-17.1	17.6	0.00e+00	0	58	0	30400315392	6	13843
2026-01-26 18:29:15.22	56.11	65.18	-17.3	-17.2	17.6	0.00e+00	0	58	0	30509367296	6	14034
2026-01-26 18:29:16.23	54.26	65.09	-17.3	-17.2	17.6	0.00e+00	0	59	0	30626807808	6	13973
2026-01-26 18:29:17.24	52.43	64.98	-17.2	-17.0	17.6	0.00e+00	0	59	0	30735859712	6	13754
2026-01-26 18:29:18.24	50.64	64.84	-17.2	-17.1	17.6	0.00e+00	0	58	0	30844911616	6	13863
2026-01-26 18:29:19.25	48.86	64.69	-17.3	-17.1	17.6	0.00e+00	0	58	0	30962352128	6	13913
2026-01-26 18:29:20.25	47.11	64.51	-17.3	-17.1	17.6	0.00e+00	0	59	0	31071404032	6	13913
2026-01-26 18:29:21.25	45.40	64.32	-17.3	-17.2	17.7	0.00e+00	0	59	0	31188844544	6	14022
2026-01-26 18:29:22.26	43.70	64.10	-17.2	-17.1	17.7	0.00e+00	0	59	0	31297896448	6	13862
2026-01-26 18:29:23.27	42.03	63.86	-17.3	-17.2	17.7	0.00e+00	0	59	0	31406948352	6	14046
2026-01-26 18:29:24.28	40.40	63.61	-17.4	-17.2	17.7	0.00e+00	0	59	0	31524388864	6	14090
2026-01-26 18:29:25.27	38.84	63.34	-17.5	-17.4	17.7	0.00e+00	0	59	0	31633440768	6	14319
2026-01-26 18:29:26.28	37.28	63.05	-17.4	-17.3	17.7	0.00e+00	0	59	0	31750881280	6	14121
2026-01-26 18:29:27.29	35.77	62.75	-17.5	-17.4	17.7	0.00e+00	0	59	0	31859933184	6	14346
2026-01-26 18:29:28.30	34.29	62.43	-17.5	-17.4	17.7	0.00e+00	0	59	0	31977373696	6	14374
2026-01-26 18:29:29.31	32.85	62.09	-17.6	-17.4	17.7	0.00e+00	0	58	0	32094814208	6	14433
2026-01-26 18:29:30.31	31.46	61.75	-17.7	-17.6	17.7	0.00e+00	0	58	0	32212254720	6	14643
2026-01-26 18:29:31.32	30.11	61.39	-17.6	-17.5	17.7	0.00e+00	0	59	0	32321306624	6	14541
2026-01-26 18:29:32.33	28.79	61.02	-17.7	-17.6	17.7	0.00e+00	0	59	0	32430358528	6	14629
2026-01-26 18:29:33.34	27.51	60.64	-17.8	-17.7	17.6	0.00e+00	0	59	0	32547799040	6	14817
2026-01-26 18:29:34.34	26.28	60.26	-17.9	-17.7	17.6	0.00e+00	0	58	0	32656850944	6	14920
2026-01-26 18:29:35.35	25.07	59.86	-17.9	-17.7	17.6	0.00e+00	0	59	0	32774291456	6	14913
2026-01-26 18:29:36.35	23.92	59.46	-17.9	-17.7	17.6	0.00e+00	0	59	0	32883343360	6	14888
2026-01-26 18:29:37.36	22.79	59.04	-18.0	-17.9	17.6	0.00e+00	0	59	0	33000783872	6	15145
2026-01-26 18:29:38.36	21.71	58.63	-18.0	-17.9	17.6	0.00e+00	0	59	0	33109835776	6	15141
2026-01-26 18:29:39.37	20.65	58.20	-18.1	-18.0	17.6	0.00e+00	0	59	0	33218887680	6	15309
2026-01-26 18:29:40.38	19.63	57.77	-18.4	-18.3	17.6	0.00e+00	0	59	0	33336328192	7	14952
2026-01-26 18:29:41.38	18.64	57.33	-18.4	-18.2	17.6	0.00e+00	0	59	0	33445380096	7	14934
2026-01-26 18:29:42.39	17.68	56.89	-18.4	-18.2	17.6	0.00e+00	0	58	0	33562820608	7	14902
2026-01-26 18:29:43.40	16.75	56.45	-18.4	-18.3	17.5	0.00e+00	0	59	0	33680261120	7	15035
2026-01-26 18:29:44.41	15.86	56.00	-18.5	-18.4	17.6	0.00e+00	0	59	0	33797701632	7	15198
2026-01-26 18:29:45.41	14.99	55.56	-18.5	-18.4	17.6	0.00e+00	0	59	0	33906753536	7	15135
2026-01-26 18:29:46.42	14.15	55.11	-18.5	-18.4	17.6	0.00e+00	0	59	0	34024194048	7	15222
2026-01-26 18:29:47.43	13.34	54.65	-18.6	-18.5	17.6	0.00e+00	0	59	0	34133245952	7	15333
2026-01-26 18:29:48.43	12.56	54.20	-18.6	-18.5	17.6	0.00e+00	0	59	0	34242297856	7	15370
2026-01-26 18:29:49.44	11.79	53.75	-18.7	-18.5	17.6	0.00e+00	0	59	0	34359738368	7	15446
2026-01-26 18:29:50.44	11.06	53.29	-18.7	-18.6	17.6	0.00e+00	0	58	0	34468790272	7	15506
2026-01-26 18:29:51.45	10.34	52.84	-18.7	-18.6	17.6	0.00e+00	0	59	0	34586230784	8	14710
2026-01-26 18:29:52.46	9.65	52.38	-18.8	-18.7	17.6	0.00e+00	0	58	0	34695282688	8	14819
2026-01-26 18:29:53.46	8.99	51.93	-18.9	-18.8	17.6	0.00e+00	0	59	0	34804334592	8	15039
2026-01-26 18:29:54.47	8.33	51.48	-19.1	-18.9	17.6	0.00e+00	0	59	0	34921775104	8	15265
2026-01-26 18:29:55.47	7.71	51.03	-19.1	-19.0	17.6	0.00e+00	0	59	0	35030827008	8	15322
2026-01-26 18:29:56.48	7.10	50.58	-19.2	-19.1	17.5	0.00e+00	0	58	0	35148267520	8	15525
2026-01-26 18:29:57.49	6.50	50.13	-19.4	-19.2	17.6	0.00e+00	0	59	0	35257319424	9	14906
2026-01-26 18:29:58.50	5.93	49.68	-19.4	-19.3	17.5	0.00e+00	0	59	0	35374759936	9	14975
2026-01-26 18:29:59.50	5.37	49.24	-19.5	-19.4	17.5	0.00e+00	0	58	0	35492200448	9	15198
2026-01-26 18:30:00.51	4.83	48.79	-19.6	-19.5	17.5	0.00e+00	0	59	0	35609640960	9	15405
2026-01-26 18:30:01.51	4.31	48.35	-19.7	-19.6	17.5	0.00e+00	0	59	0	35718692864	9	15487
2026-01-26 18:30:02.51	3.80	47.92	-19.8	-19.7	17.5	0.00e+00	0	59	0	35836133376	10	14781
2026-01-26 18:30:03.52	3.31	47.48	-19.9	-19.8	17.5	0.00e+00	0	59	0	35945185280	10	14965
2026-01-26 18:30:04.53	2.83	47.05	-19.9	-19.8	17.5	0.00e+00	0	59	0	36054237184	10	15021
2026-01-26 18:30:05.53	2.36	46.62	-20.0	-19.9	17.5	0.00e+00	0	59	0	36171677696	10	15201
2026-01-26 18:30:06.54	1.91	46.19	-20.2	-20.1	17.5	0.00e+00	0	59	0	36280729600	10	15499
2026-01-26 18:30:07.54	1.47	45.77	-20.2	-20.1	17.5	0.00e+00	0	59	0	36398170112	10	15575
2026-01-26 18:30:08.55	1.04	45.35	-20.3	-20.2	17.5	0.00e+00	0	59	0	36507222016	11	14838
2026-01-26 18:30:09.56	0.62	44.93	-20.4	-20.3	17.5	0.00e+00	0	59	0	36616273920	11	14993
2026-01-26 18:30:10.56	0.21	44.51	-20.6	-20.4	17.5	0.00e+00	0	58	0	36733714432	11	15293
2026-01-26 18:30:11.57	359.82	44.10	-20.6	-20.4	17.4	0.00e+00	0	59	0	36842766336	11	15287
2026-01-26 18:30:12.57	359.44	43.70	-20.7	-20.6	17.4	0.00e+00	0	59	0	36960206848	11	15568
2026-01-26 18:30:13.58	359.06	43.29	-20.6	-20.5	17.4	0.00e+00	0	59	0	37069258752	12	14566
2026-01-26 18:30:14.58	358.70	42.89	-20.6	-20.5	17.4	0.00e+00	0	59	0	37178310656	12	14543
2026-01-26 18:30:15.59	358.34	42.49	-20.8	-20.7	17.4	0.00e+00	0	59	0	37295751168	12	14789
2026-01-26 18:30:16.60	357.99	42.10	-20.8	-20.6	17.4	0.00e+00	0	59	0	37404803072	12	14768
2026-01-26 18:30:17.60	357.66	41.71	-20.8	-20.7	17.3	0.00e+00	0	59	0	37530632192	12	14891
2026-01-26 18:30:18.61	357.33	41.32	-21.0	-20.9	17.3	0.00e+00	0	59	0	37639684096	12	15127
2026-01-26 18:30:19.62	357.00	40.94	-21.0	-20.9	17.3	0.00e+00	0	59	0	37757124608	12	15129
2026-01-26 18:30:20.62	356.69	40.56	-21.1	-21.0	17.3	0.00e+00	0	59	0	37866176512	12	15348
2026-01-26 18:30:21.63	356.38	40.19	-21.2	-21.1	17.3	0.00e+00	0	59	0	37983617024	12	15477
2026-01-26 18:30:22.64	356.09	39.81	-21.4	-21.2	17.3	0.00e+00	0	59	0	38092668928	13	14934
2026-01-26 18:30:23.65	355.79	39.44	-21.4	-21.2	17.3	0.00e+00	0	59	0	38201720832	13	14940
2026-01-26 18:30:24.66	355.51	39.08	-21.5	-21.4	17.2	0.00e+00	0	59	0	38319161344	13	15124
2026-01-26 18:30:25.66	355.23	38.72	-21.6	-21.4	17.2	0.00e+00	0	59	0	38428213248	13	15267
2026-01-26 18:30:26.67	354.96	38.36	-21.6	-21.4	17.2	0.00e+00	0	59	0	38545653760	13	15289
2026-01-26 18:30:27.68	354.69	38.00	-21.7	-21.5	17.2	0.00e+00	0	59	0	38654705664	13	15447
2026-01-26 18:30:28.68	354.44	37.65	-21.7	-21.5	17.2	0.00e+00	0	59	0	38772146176	13	15468
2026-01-26 18:30:29.69	354.18	37.31	-21.8	-21.6	17.2	0.00e+00	0	59	0	38881198080	14	14762
2026-01-26 18:30:30.69	353.94	36.96	-21.9	-21.8	17.2	0.00e+00	0	59	0	38990249984	14	14949
2026-01-26 18:30:31.70	353.69	36.62	-21.9	-21.8	17.1	0.00e+00	0	59	0	39116079104	14	14992
2026-01-26 18:30:32.71	353.46	36.29	-22.1	-22.0	17.1	0.00e+00	0	59	0	39233519616	14	15322
2026-01-26 18:30:33.72	353.22	35.95	-22.1	-22.0	17.1	0.00e+00	0	59	0	39342571520	14	15409
2026-01-26 18:30:34.72	353.00	35.62	-22.2	-22.1	17.1	0.00e+00	0	59	0	39451623424	14	15492
2026-01-26 18:30:35.73	352.78	35.30	-22.3	-22.2	17.1	0.00e+00	0	59	0	39569063936	15	14865
2026-01-26 18:30:36.74	352.56	34.97	-22.5	-22.4	17.1	0.00e+00	0	59	0	39678115840	15	15136
2026-01-26 18:30:37.75	352.35	34.65	-22.6	-22.5	17.1	0.00e+00	0	59	0	39795556352	15	15324
2026-01-26 18:30:38.76	352.14	34.33	-22.7	-22.6	17.1	0.00e+00	0	59	0	39904608256	15	15508
2026-01-26 18:30:39.76	351.94	34.02	-22.8	-22.6	17.1	0.00e+00	0	59	0	40013660160	16	14760
2026-01-26 18:30:40.77	351.74	33.71	-22.9	-22.8	17.1	0.00e+00	0	59	0	40131100672	16	15042
2026-01-26 18:30:41.78	351.54	33.41	-23.0	-22.9	17.1	0.00e+00	0	59	0	40240152576	16	15199
2026-01-26 18:30:42.79	351.35	33.10	-23.2	-23.1	17.1	0.00e+00	0	59	0	40357593088	16	15489
2026-01-26 18:30:43.79	351.16	32.80	-23.3	-23.2	17.0	0.00e+00	0	59	0	40466644992	17	14796
2026-01-26 18:30:44.80	350.98	32.51	-23.5	-23.3	17.0	0.00e+00	0	59	0	40575696896	17	15098
2026-01-26 18:30:45.80	350.80	32.21	-23.6	-23.5	17.0	0.00e+00	0	59	0	40701526016	17	15364
2026-01-26 18:30:46.80	350.62	31.93	-23.7	-23.6	16.9	0.00e+00	0	59	0	40818966528	18	14724
2026-01-26 18:30:47.81	350.45	31.64	-23.9	-23.8	16.9	0.00e+00	0	59	0	40928018432	18	15025
2026-01-26 18:30:48.81	350.28	31.35	-24.1	-24.0	16.9	0.00e+00	0	59	0	41037070336	18	15343
2026-01-26 18:30:49.82	350.11	31.07	-24.2	-24.1	16.9	0.00e+00	0	59	0	41154510848	18	15507
2026-01-26 18:30:50.82	349.95	30.79	-24.4	-24.2	16.9	0.00e+00	0	59	0	41263562752	19	14921
2026-01-26 18:30:51.83	349.79	30.52	-24.5	-24.4	16.8	0.00e+00	0	59	0	41381003264	19	15163
2026-01-26 18:30:52.84	349.63	30.24	-24.7	-24.5	16.8	0.00e+00	0	59	0	41490055168	19	15446
2026-01-26 18:30:53.84	349.48	29.97	-54.1	-56.4	6.2	0.00e+00	0	58	104	41582329856	59	60699
2026-01-26 18:30:54.84	349.33	29.71	-54.3	-56.5	6.2	0.00e+00	0	58	104	41582329856	79	19310
2026-01-26 18:30:55.85	349.18	29.44	-54.3	-56.4	6.2	0.00e+00	0	57	104	41582329856	79	19184
2026-01-26 18:30:56.86	349.03	29.18	-54.3	-56.4	6.2	0.00e+00	0	57	104	41582329856	79	19145
2026-01-26 18:30:57.86	348.89	28.92	-54.3	-56.4	6.2	0.00e+00	0	57	104	41582329856	79	19151
2026-01-26 18:30:58.87	348.75	28.66	-54.3	-56.4	6.2	0.00e+00	0	57	104	41582329856	79	19048
2026-01-26 18:30:59.87	348.61	28.41	-54.3	-56.4	6.2	0.00e+00	0	57	104	41582329856	79	19084
2026-01-26 18:31:00.88	348.47	28.16	-54.2	-56.4	6.2	0.00e+00	0	57	104	41582329856	79	19126
2026-01-26 18:31:01.89	348.34	27.91	-54.2	-56.4	6.2	0.00e+00	0	57	104	41582329856	79	19068
2026-01-26 18:31:02.89	348.21	27.66	-54.2	-56.3	6.2	0.00e+00	0	57	104	41582329856	79	19026
2026-01-26 18:31:03.89	348.08	27.42	-54.2	-56.4	6.2	0.00e+00	0	57	104	41582329856	79	19119
2026-01-26 18:31:04.90	347.95	27.18	-54.2	-56.4	6.2	0.00e+00	0	57	104	41582329856	79	19039
2026-01-26 18:31:05.90	347.83	26.94	-54.2	-56.3	6.2	0.00e+00	0	57	104	41582329856	79	19017
2026-01-26 18:31:06.91	347.70	26.70	-54.2	-56.3	6.2	0.00e+00	0	57	104	41582329856	79	18921
2026-01-26 18:31:07.91	347.58	26.47	-54.2	-56.3	6.2	0.00e+00	0	57	104	41582329856	79	18972
2026-01-26 18:31:08.92	347.46	26.24	-54.2	-56.3	6.2	0.00e+00	0	57	104	41582329856	79	18971
2026-01-26 18:31:09.93	347.35	26.01	-54.2	-56.3	6.2	0.00e+00	0	57	104	41582329856	79	18916
2026-01-26 18:31:10.93	347.23	25.78	-54.2	-56.3	6.2	0.00e+00	0	57	104	41582329856	79	18997
2026-01-26 18:31:11.93	347.12	25.56	-54.2	-56.3	6.2	0.00e+00	0	56	104	41582329856	79	18919
2026-01-26 18:31:12.94	347.01	25.33	-54.2	-56.3	6.2	0.00e+00	0	57	104	41582329856	79	18926
2026-01-26 18:31:13.94	346.90	25.11	-54.2	-56.3	6.2	0.00e+00	0	57	104	41582329856	79	18847
2026-01-26 18:31:14.94	346.79	24.89	-54.1	-56.3	6.2	0.00e+00	0	57	104	41582329856	79	18868
2026-01-26 18:31:15.95	346.69	24.68	-54.1	-56.3	6.2	0.00e+00	0	57	104	41582329856	79	18869
2026-01-26 18:31:16.96	346.58	24.46	-54.1	-56.2	6.2	0.00e+00	0	57	104	41582329856	79	18778
2026-01-26 18:31:17.97	346.48	24.25	-54.1	-56.3	6.2	0.00e+00	0	57	104	41582329856	79	18846
2026-01-26 18:31:18.97	346.38	24.04	-54.1	-56.2	6.2	0.00e+00	0	56	104	41582329856	79	18764
2026-01-26 18:31:19.98	346.28	23.83	-54.1	-56.2	6.2	0.00e+00	0	56	104	41582329856	79	18803
2026-01-26 18:31:20.98	346.18	23.62	-54.1	-56.2	6.2	0.00e+00	0	56	104	41582329856	79	18756
2026-01-26 18:31:21.98	346.08	23.42	-54.1	-56.2	6.2	0.00e+00	0	56	104	41582329856	79	18725
2026-01-26 18:31:22.99	345.99	23.21	-54.1	-56.2	6.2	0.00e+00	0	56	104	41582329856	79	18717
2026-01-26 18:31:23.99	345.89	23.01	-54.1	-56.2	6.2	0.00e+00	0	56	104	41582329856	79	18704
2026-01-26 18:31:24.99	345.80	22.81	-54.1	-56.2	6.2	0.00e+00	0	57	104	41582329856	79	18670
2026-01-26 18:31:26.00	345.71	22.62	-54.1	-56.2	6.2	0.00e+00	0	56	104	41582329856	79	18687
2026-01-26 18:31:27.01	345.62	22.42	-54.1	-56.2	6.2	0.00e+00	0	56	104	41582329856	79	18685
2026-01-26 18:31:28.01	345.53	22.23	-54.1	-56.1	6.2	0.00e+00	0	56	104	41582329856	79	18599
2026-01-26 18:31:29.02	345.45	22.03	-54.0	-56.2	6.2	0.00e+00	0	56	104	41582329856	79	18640
2026-01-26 18:31:30.02	345.36	21.84	-54.0	-56.2	6.2	0.00e+00	0	56	104	41582329856	79	18648
2026-01-26 18:31:31.03	345.28	21.65	-54.0	-56.1	6.2	0.00e+00	0	56	104	41582329856	79	18583
2026-01-26 18:31:32.03	345.19	21.47	-54.0	-56.1	6.2	0.00e+00	0	56	104	41582329856	79	18597
2026-01-26 18:31:33.03	345.11	21.28	-54.0	-56.1	6.2	0.00e+00	0	56	104	41582329856	79	18550
2026-01-26 18:31:34.03	345.03	21.10	-54.0	-56.2	6.2	0.00e+00	0	56	104	41582329856	79	18604
2026-01-26 18:31:35.04	344.95	20.92	-54.0	-56.1	6.2	0.00e+00	0	56	104	41582329856	79	18546
2026-01-26 18:31:36.04	344.87	20.74	-54.0	-56.1	6.2	0.00e+00	0	56	104	41582329856	79	18535
2026-01-26 18:31:37.04	344.79	20.56	-54.0	-56.1	6.2	0.00e+00	0	56	104	41582329856	79	18556
2026-01-26 18:31:38.05	344.72	20.38	-54.0	-56.1	6.2	0.00e+00	0	56	104	41582329856	79	18447
2026-01-26 18:31:39.06	344.64	20.20	-54.0	-56.1	6.2	0.00e+00	0	56	104	41582329856	79	18498
2026-01-26 18:31:40.07	344.57	20.03	-54.0	-56.1	6.2	0.00e+00	0	56	104	41582329856	79	18514
2026-01-26 18:31:41.07	344.49	19.86	-54.0	-56.1	6.2	0.00e+00	0	56	104	41582329856	79	18442
2026-01-26 18:31:42.08	344.42	19.68	-54.0	-56.1	6.2	0.00e+00	0	56	104	41582329856	79	18506
2026-01-26 18:31:43.09	344.35	19.51	-53.9	-56.1	6.2	0.00e+00	0	56	104	41582329856	79	18430
2026-01-26 18:31:44.09	344.28	19.35	-53.9	-56.0	6.2	0.00e+00	0	55	104	41582329856	79	18374
2026-01-26 18:31:45.10	344.21	19.18	-53.9	-56.0	6.2	0.00e+00	0	56	104	41582329856	79	18373
2026-01-26 18:31:46.10	344.14	19.01	-53.9	-56.1	6.2	0.00e+00	0	56	104	41582329856	79	18441
2026-01-26 18:31:47.10	344.07	18.85	-53.9	-56.0	6.2	0.00e+00	0	56	104	41582329856	79	18354
2026-01-26 18:31:48.11	344.00	18.68	-53.9	-56.1	6.2	0.00e+00	0	56	104	41582329856	79	18409
2026-01-26 18:31:49.11	343.94	18.52	-53.9	-56.0	6.2	0.00e+00	0	56	104	41582329856	79	18298
2026-01-26 18:31:50.12	343.87	18.36	-53.9	-56.0	6.2	0.00e+00	0	56	104	41582329856	79	18351
2026-01-26 18:31:51.13	343.81	18.20	-53.9	-56.0	6.2	0.00e+00	0	56	104	41582329856	79	18281
2026-01-26 18:31:52.13	343.74	18.04	-53.9	-56.0	6.2	0.00e+00	0	56	104	41582329856	79	18271
2026-01-26 18:31:53.14	343.68	17.89	-53.9	-56.0	6.2	0.00e+00	0	55	104	41582329856	79	18297
2026-01-26 18:31:54.15	343.62	17.73	-53.9	-56.0	6.2	0.00e+00	0	55	104	41582329856	79	18210
2026-01-26 18:31:55.16	343.56	17.57	-53.9	-56.0	6.2	0.00e+00	0	55	104	41582329856	79	18229
2026-01-26 18:31:56.16	343.50	17.42	-53.9	-56.0	6.2	0.00e+00	0	55	104	41582329856	79	18188
2026-01-26 18:31:57.16	343.44	17.27	-53.8	-56.0	6.2	0.00e+00	0	55	104	41582329856	79	18210
2026-01-26 18:31:58.17	343.38	17.12	-53.9	-56.0	6.2	0.00e+00	0	55	104	41582329856	79	18246
2026-01-26 18:31:59.17	343.32	16.97	-53.8	-56.0	6.2	0.00e+00	0	55	104	41582329856	79	18235
2026-01-26 18:32:00.18	343.26	16.82	-53.8	-56.0	6.2	0.00e+00	0	55	104	41582329856	79	18218
2026-01-26 18:32:01.18	343.21	16.67	-53.8	-56.0	6.2	0.00e+00	0	55	104	41582329856	79	18191
2026-01-26 18:32:02.19	343.15	16.53	-53.8	-55.9	6.2	0.00e+00	0	55	104	41582329856	79	18176
2026-01-26 18:32:03.20	343.09	16.38	-53.8	-56.0	6.2	0.00e+00	0	55	104	41582329856	79	18194
2026-01-26 18:32:04.20	343.04	16.24	-53.8	-55.9	6.2	0.00e+00	0	55	104	41582329856	79	18130
2026-01-26 18:32:05.21	342.99	16.09	-53.8	-55.9	6.2	0.00e+00	0	55	104	41582329856	79	18104
2026-01-26 18:32:06.21	342.93	15.95	-53.8	-55.9	6.2	0.00e+00	0	55	104	41582329856	79	18168
2026-01-26 18:32:07.22	342.88	15.81	-53.8	-55.9	6.2	0.00e+00	0	55	104	41582329856	79	18095
2026-01-26 18:32:08.22	342.83	15.67	-53.8	-55.9	6.2	0.00e+00	0	55	104	41582329856	79	18059
2026-01-26 18:32:09.23	342.78	15.53	-53.8	-55.9	6.2	0.00e+00	0	55	104	41582329856	79	18006
2026-01-26 18:32:10.24	342.72	15.39	-53.8	-55.9	6.2	0.00e+00	0	55	104	41582329856	79	18102
2026-01-26 18:32:11.24	342.67	15.25	-53.8	-55.9	6.2	0.00e+00	0	55	104	41582329856	79	18108
2026-01-26 18:32:12.25	342.62	15.12	-53.8	-55.9	6.2	0.00e+00	0	55	104	41582329856	79	18063
2026-01-26 18:32:13.25	342.57	14.98	-53.7	-55.9	6.2	0.00e+00	0	56	104	41582329856	79	18026
2026-01-26 18:32:14.25	342.53	14.85	-53.8	-55.9	6.2	0.00e+00	0	55	104	41582329856	79	17978
2026-01-26 18:32:15.26	342.48	14.72	-53.7	-55.8	6.2	0.00e+00	0	55	104	41582329856	79	17944
2026-01-26 18:32:16.27	342.43	14.58	-53.7	-55.9	6.2	0.00e+00	0	55	104	41582329856	79	17981
2026-01-26 18:32:17.27	342.38	14.45	-53.7	-55.8	6.2	0.00e+00	0	55	104	41582329856	79	17963
2026-01-26 18:32:18.28	342.34	14.32	-53.7	-55.9	6.2	0.00e+00	0	55	104	41582329856	79	17998
2026-01-26 18:32:19.28	342.29	14.19	-53.7	-55.8	6.2	0.00e+00	0	55	104	41582329856	79	17931
2026-01-26 18:32:20.29	342.24	14.06	-53.7	-55.8	6.2	0.00e+00	0	55	104	41582329856	79	17957
2026-01-26 18:32:21.30	342.20	13.93	-53.7	-55.8	6.2	0.00e+00	0	55	104	41582329856	79	17888
2026-01-26 18:32:22.31	342.15	13.81	-53.7	-55.8	6.2	0.00e+00	0	55	104	41582329856	79	17906
2026-01-26 18:32:23.31	342.11	13.68	-53.7	-55.8	6.2	0.00e+00	0	55	104	41582329856	79	17820
2026-01-26 18:32:24.32	342.07	13.55	-53.7	-55.7	6.2	0.00e+00	0	55	104	41582329856	79	17761
2026-01-26 18:32:25.32	342.02	13.43	-53.6	-55.8	6.2	0.00e+00	0	55	104	41582329856	79	17778
2026-01-26 18:32:26.33	341.98	13.31	-53.7	-55.8	6.2	0.00e+00	0	55	104	41582329856	79	17790
2026-01-26 18:32:27.33	341.94	13.18	-53.6	-55.7	6.2	0.00e+00	0	55	104	41582329856	79	17761
2026-01-26 18:32:28.34	341.90	13.06	-53.6	-55.8	6.2	0.00e+00	0	55	104	41582329856	79	17774
2026-01-26 18:32:29.34	341.86	12.94	-53.6	-55.7	6.2	0.00e+00	0	55	104	41582329856	79	17762
2026-01-26 18:32:30.35	341.82	12.82	-53.6	-55.8	6.2	0.00e+00	0	55	104	41582329856	79	17788
2026-01-26 18:32:31.35	341.78	12.70	-53.6	-55.7	6.2	0.00e+00	0	55	104	41582329856	79	17716
2026-01-26 18:32:32.36	341.74	12.58	-53.6	-55.7	6.2	0.00e+00	0	55	104	41582329856	79	17731
2026-01-26 18:32:33.36	341.70	12.46	-53.6	-55.7	6.2	0.00e+00	0	55	104	41582329856	79	17741
2026-01-26 18:32:34.37	341.66	12.34	-53.6	-55.7	6.2	0.00e+00	0	55	104	41582329856	79	17755
2026-01-26 18:32:35.37	341.62	12.23	-53.6	-55.7	6.2	0.00e+00	0	55	104	41582329856	79	17715
2026-01-26 18:32:36.38	341.58	12.11	-53.6	-55.7	6.2	0.00e+00	0	55	104	41582329856	79	17691
2026-01-26 18:32:37.39	341.54	11.99	-53.6	-55.7	6.2	0.00e+00	0	55	104	41582329856	79	17633
2026-01-26 18:32:38.40	341.50	11.88	-53.6	-55.7	6.2	0.00e+00	0	55	104	41582329856	79	17616
2026-01-26 18:32:39.41	341.47	11.76	-53.6	-55.7	6.2	0.00e+00	0	55	104	41582329856	79	17610
2026-01-26 18:32:40.41	341.43	11.65	-53.5	-55.7	6.2	0.00e+00	0	55	104	41582329856	79	17575
2026-01-26 18:32:41.41	341.39	11.54	-53.5	-55.7	6.2	0.00e+00	0	55	104	41582329856	79	17631
2026-01-26 18:32:42.42	341.36	11.43	-53.5	-55.6	6.2	0.00e+00	0	55	104	41582329856	79	17559
2026-01-26 18:32:43.42	341.32	11.31	-53.5	-55.6	6.2	0.00e+00	0	55	104	41582329856	79	17539
2026-01-26 18:32:44.43	341.29	11.20	-53.5	-55.7	6.2	0.00e+00	0	55	104	41582329856	79	17577
2026-01-26 18:32:45.44	341.25	11.09	-53.5	-55.7	6.2	0.00e+00	0	55	104	41582329856	79	17568
2026-01-26 18:32:46.44	341.22	10.98	-53.5	-55.7	6.2	0.00e+00	0	55	104	41582329856	79	17579
2026-01-26 18:32:47.44	341.18	10.88	-53.5	-55.6	6.2	0.00e+00	0	55	104	41582329856	79	17460
2026-01-26 18:32:48.45	341.15	10.77	-53.5	-55.6	6.2	0.00e+00	0	55	104	41582329856	78	18416
2026-01-26 18:32:49.46	341.12	10.66	-53.5	-55.6	6.2	0.00e+00	0	55	104	41582329856	78	18466
2026-01-26 18:32:50.47	341.08	10.55	-53.5	-55.6	6.2	0.00e+00	0	55	104	41582329856	78	18535
2026-01-26 18:32:51.48	341.05	10.44	-53.4	-55.6	6.2	0.00e+00	0	55	104	41582329856	78	18440
2026-01-26 18:32:52.49	341.02	10.34	-53.4	-55.5	6.2	0.00e+00	0	55	104	41582329856	78	18346
2026-01-26 18:32:53.49	340.99	10.23	-53.4	-55.6	6.2	0.00e+00	0	55	104	41582329856	78	18420
2026-01-26 18:32:54.50	340.95	10.13	-53.4	-55.6	6.2	0.00e+00	0	55	104	41582329856	78	18498
2026-01-26 18:32:55.51	340.92	10.02	-53.4	-55.5	6.2	0.00e+00	0	55	104	41582329856	78	18341
2026-01-26 18:32:56.51	340.89	9.92	-53.4	-55.5	6.2	0.00e+00	0	55	104	41582329856	78	18355
2026-01-26 18:32:57.51	340.86	9.82	-53.4	-55.5	6.2	0.00e+00	0	55	104	41582329856	78	18356
2026-01-26 18:32:58.52	340.83	9.71	-53.4	-55.5	6.2	0.00e+00	0	55	104	41582329856	78	18361
2026-01-26 18:32:59.53	340.80	9.61	-53.4	-55.5	6.2	0.00e+00	0	55	104	41582329856	78	18339
2026-01-26 18:33:00.53	340.77	9.51	-53.4	-55.5	6.2	0.00e+00	0	55	104	41582329856	78	18246
2026-01-26 18:33:01.54	340.74	9.41	-53.4	-55.5	6.2	0.00e+00	0	55	104	41582329856	78	18330
2026-01-26 18:33:02.55	340.71	9.31	-53.4	-55.5	6.2	0.00e+00	0	55	104	41582329856	78	18361
2026-01-26 18:33:03.56	340.68	9.21	-53.3	-55.5	6.2	0.00e+00	0	55	104	41582329856	78	18198
2026-01-26 18:33:04.56	340.65	9.11	-53.3	-55.5	6.2	0.00e+00	0	55	104	41582329856	78	18196
2026-01-26 18:33:05.57	340.62	9.01	-53.4	-55.5	6.2	0.00e+00	0	55	104	41582329856	78	18236
2026-01-26 18:33:06.57	340.59	8.91	-53.4	-55.5	6.2	0.00e+00	0	55	104	41582329856	78	18253
2026-01-26 18:33:07.57	340.57	8.82	-53.3	-55.4	6.2	0.00e+00	0	55	104	41582329856	78	18159
2026-01-26 18:33:08.58	340.54	8.72	-53.3	-55.4	6.2	0.00e+00	0	55	104	41582329856	78	18135
2026-01-26 18:33:09.59	340.51	8.62	-53.3	-55.5	6.2	0.00e+00	0	55	104	41582329856	78	18195
2026-01-26 18:33:10.59	340.48	8.53	-53.3	-55.4	6.2	0.00e+00	0	55	104	41582329856	78	18169
2026-01-26 18:33:11.60	340.46	8.43	-53.3	-55.4	6.2	0.00e+00	0	55	104	41582329856	78	18061
2026-01-26 18:33:12.61	340.43	8.33	-53.2	-55.3	6.2	0.00e+00	0	55	104	41582329856	78	17970
2026-01-26 18:33:13.61	340.40	8.24	-53.3	-55.4	6.2	0.00e+00	0	55	104	41582329856	78	18110
2026-01-26 18:33:14.62	340.38	8.14	-53.3	-55.4	6.2	0.00e+00	0	55	104	41582329856	78	18116
2026-01-26 18:33:15.63	340.35	8.05	-53.2	-55.4	6.2	0.00e+00	0	55	104	41582329856	78	17973
2026-01-26 18:33:16.64	340.32	7.96	-53.2	-55.3	6.2	0.00e+00	0	55	104	41582329856	78	17897
2026-01-26 18:33:17.64	340.30	7.86	-53.3	-55.4	6.2	0.00e+00	0	55	104	41582329856	78	18056
2026-01-26 18:33:18.65	340.27	7.77	-53.2	-55.4	6.2	0.00e+00	0	55	104	41582329856	78	17985
2026-01-26 18:33:19.65	340.25	7.68	-53.2	-55.3	6.2	0.00e+00	0	55	104	41582329856	78	17921
2026-01-26 18:33:20.66	340.22	7.59	-53.2	-55.3	6.2	0.00e+00	0	55	104	41582329856	78	17827
2026-01-26 18:33:21.67	340.20	7.50	-53.2	-55.4	6.2	0.00e+00	0	55	104	41582329856	78	17990
2026-01-26 18:33:22.67	340.17	7.40	-53.2	-55.4	6.2	0.00e+00	0	55	104	41582329856	78	17974
2026-01-26 18:33:23.67	340.15	7.32	-53.2	-55.3	6.2	0.00e+00	0	55	104	41582329856	78	17907
2026-01-26 18:33:24.68	340.13	7.22	-53.1	-55.3	6.2	0.00e+00	0	55	104	41582329856	78	17787
2026-01-26 18:33:25.69	340.10	7.13	-53.2	-55.3	6.2	0.00e+00	0	55	104	41582329856	78	17897
2026-01-26 18:33:26.70	340.08	7.05	-53.2	-55.3	6.2	0.00e+00	0	55	104	41582329856	78	17881
2026-01-26 18:33:27.70	340.06	6.96	-53.1	-55.2	6.2	0.00e+00	0	55	104	41582329856	78	17759
2026-01-26 18:33:28.71	340.03	6.87	-53.1	-55.2	6.2	0.00e+00	0	55	104	41582329856	78	17655
2026-01-26 18:33:29.72	340.01	6.78	-53.2	-55.3	6.2	0.00e+00	0	55	104	41582329856	78	17837
2026-01-26 18:33:30.73	339.99	6.69	-53.1	-55.3	6.2	0.00e+00	0	55	104	41582329856	78	17802
2026-01-26 18:33:31.73	339.96	6.61	-53.1	-55.2	6.2	0.00e+00	0	55	104	41582329856	78	17673
2026-01-26 18:33:32.74	339.94	6.52	-53.0	-55.1	6.2	0.00e+00	0	55	104	41582329856	78	17559
2026-01-26 18:33:33.74	339.92	6.43	-53.1	-55.2	6.2	0.00e+00	0	55	104	41582329856	78	17741
2026-01-26 18:33:34.75	339.90	6.35	-53.1	-55.2	6.2	0.00e+00	0	55	104	41582329856	78	17677
2026-01-26 18:33:35.75	339.88	6.26	-53.0	-55.2	6.2	0.00e+00	0	55	104	41582329856	78	17599
2026-01-26 18:33:36.76	339.85	6.17	-52.9	-55.1	6.2	0.00e+00	0	55	104	41582329856	77	18399
2026-01-26 18:33:37.76	339.83	6.09	-53.1	-55.2	6.2	0.00e+00	0	55	104	41582329856	77	18625
2026-01-26 18:33:38.77	339.81	6.01	-53.0	-55.1	6.2	0.00e+00	0	55	104	41582329856	77	18595
2026-01-26 18:33:39.77	339.79	5.92	-52.9	-55.1	6.2	0.00e+00	0	55	104	41582329856	77	18435
2026-01-26 18:33:40.78	339.77	5.84	-52.9	-55.0	6.2	0.00e+00	0	55	104	41582329856	77	18348
2026-01-26 18:33:41.79	339.75	5.75	-53.0	-55.1	6.2	0.00e+00	0	55	104	41582329856	77	18556
2026-01-26 18:33:42.80	339.73	5.67	-53.0	-55.1	6.2	0.00e+00	0	55	104	41582329856	77	18410
2026-01-26 18:33:43.81	339.71	5.59	-52.9	-55.0	6.2	0.00e+00	0	55	104	41582329856	77	18303
2026-01-26 18:33:44.81	339.69	5.50	-52.8	-54.9	6.2	0.00e+00	0	55	104	41582329856	77	18153
2026-01-26 18:33:45.82	339.67	5.42	-53.0	-55.1	6.2	0.00e+00	0	55	104	41582329856	77	18526
2026-01-26 18:33:46.82	339.65	5.34	-52.9	-55.0	6.2	0.00e+00	0	55	104	41582329856	77	18346
2026-01-26 18:33:47.82	339.63	5.26	-52.8	-54.9	6.2	0.00e+00	0	55	104	41582329856	77	18176
2026-01-26 18:33:48.83	339.61	5.18	-52.8	-54.9	6.2	0.00e+00	0	55	104	41582329856	77	18032
2026-01-26 18:33:49.84	339.59	5.10	-52.9	-55.0	6.2	0.00e+00	0	55	104	41582329856	77	18335
2026-01-26 18:33:50.85	339.57	5.02	-52.8	-55.0	6.2	0.00e+00	0	55	104	41582329856	77	18283
2026-01-26 18:33:51.86	339.55	4.94	-52.7	-54.8	6.2	0.00e+00	0	55	104	41582329856	77	17883
2026-01-26 18:33:52.86	339.53	4.86	-51.5	-53.6	6.2	0.00e+00	0	55	104	41582329856	75	17530
2026-01-26 18:33:53.87	339.51	4.78	-49.0	-51.2	6.2	0.00e+00	0	55	104	41582329856	70	17672
2026-01-26 18:33:54.88	339.50	4.70	-49.0	-51.2	6.2	0.00e+00	0	55	104	41582329856	70	17605
2026-01-26 18:33:55.89	339.48	4.62	-49.0	-51.1	6.2	0.00e+00	0	55	104	41582329856	70	17549
2026-01-26 18:33:56.89	339.46	4.54	-49.0	-51.2	6.2	0.00e+00	0	55	104	41582329856	70	17616
2026-01-26 18:33:57.90	339.44	4.46	-49.0	-51.2	6.2	0.00e+00	0	55	104	41582329856	70	17567
2026-01-26 18:33:58.90	339.42	4.38	-49.0	-51.2	6.2	0.00e+00	0	55	104	41582329856	70	17567
2026-01-26 18:33:59.91	339.40	4.30	-49.0	-51.2	6.2	0.00e+00	0	55	104	41582329856	70	17585
2026-01-26 18:34:00.91	339.39	4.23	-49.0	-51.2	6.2	0.00e+00	0	55	104	41582329856	70	17573
2026-01-26 18:34:01.92	339.37	4.15	-49.0	-51.1	6.2	0.00e+00	0	55	104	41582329856	70	17540
2026-01-26 18:34:02.93	339.35	4.07	-49.0	-51.2	6.2	0.00e+00	0	55	104	41582329856	70	17565
2026-01-26 18:34:03.93	339.34	4.00	-49.0	-51.2	6.2	0.00e+00	0	55	104	41582329856	70	17592
2026-01-26 18:34:04.94	339.32	3.92	-49.0	-51.2	6.2	0.00e+00	0	55	104	41582329856	70	17599
2026-01-26 18:34:05.95	339.30	3.84	-49.0	-51.1	6.2	0.00e+00	0	55	104	41582329856	70	17539
2026-01-26 18:34:06.95	339.28	3.77	-49.0	-51.1	6.2	0.00e+00	0	55	104	41582329856	70	17519
2026-01-26 18:34:07.95	339.27	3.69	-49.0	-51.1	6.2	0.00e+00	0	55	104	41582329856	70	17518
2026-01-26 18:34:08.96	339.25	3.62	-49.0	-51.1	6.2	0.00e+00	0	55	104	41582329856	70	17540
2026-01-26 18:34:09.96	339.24	3.54	-49.0	-51.1	6.2	0.00e+00	0	55	104	41582329856	70	17480
2026-01-26 18:34:10.96	339.22	3.47	-49.0	-51.1	6.2	0.00e+00	0	55	104	41582329856	70	17541
2026-01-26 18:34:11.96	339.20	3.40	-49.0	-51.1	6.2	0.00e+00	0	55	104	41582329856	70	17528
2026-01-26 18:34:12.97	339.19	3.32	-49.0	-51.1	6.2	0.00e+00	0	55	104	41582329856	70	17553
2026-01-26 18:34:13.98	339.17	3.25	-49.0	-51.1	6.2	0.00e+00	0	55	104	41582329856	70	17476
2026-01-26 18:34:14.99	339.16	3.17	-49.0	-51.1	6.2	0.00e+00	0	55	104	41582329856	70	17500
2026-01-26 18:34:16.00	339.14	3.10	-49.0	-51.1	6.2	0.00e+00	0	55	104	41582329856	70	17482
2026-01-26 18:34:17.00	339.12	3.03	-49.0	-51.1	6.2	0.00e+00	0	55	104	41582329856	70	17481
2026-01-26 18:34:18.01	339.11	2.95	-49.0	-51.1	6.2	0.00e+00	0	55	104	41582329856	70	17530
2026-01-26 18:34:19.01	339.09	2.88	-49.0	-51.1	6.2	0.00e+00	0	55	104	41582329856	70	17539
2026-01-26 18:34:20.02	339.08	2.81	-49.0	-51.1	6.2	0.00e+00	0	55	104	41582329856	70	17533
2026-01-26 18:34:21.03	339.06	2.74	-49.0	-51.1	6.2	0.00e+00	0	55	104	41582329856	70	17522
2026-01-26 18:34:22.04	339.05	2.66	-49.0	-51.1	6.2	0.00e+00	0	55	104	41582329856	70	17492
2026-01-26 18:34:23.05	339.03	2.59	-49.0	-51.1	6.2	0.00e+00	0	55	104	41582329856	70	17463
2026-01-26 18:34:24.05	339.02	2.52	-49.0	-51.1	6.2	0.00e+00	0	55	104	41582329856	70	17530
2026-01-26 18:34:25.06	339.01	2.45	-49.0	-51.1	6.2	0.00e+00	0	55	104	41582329856	70	17495
2026-01-26 18:34:26.07	338.99	2.38	-49.0	-51.1	6.2	0.00e+00	0	55	104	41582329856	70	17546
2026-01-26 18:34:27.07	338.98	2.31	-49.0	-51.1	6.2	0.00e+00	0	55	104	41582329856	70	17504
2026-01-26 18:34:28.08	338.96	2.24	-49.0	-51.1	6.2	0.00e+00	0	55	104	41582329856	70	17553
2026-01-26 18:34:29.08	338.95	2.17	-49.0	-51.1	6.2	0.00e+00	0	55	104	41582329856	70	17529
2026-01-26 18:34:30.09	338.93	2.10	-49.0	-51.1	6.2	0.00e+00	0	55	104	41582329856	70	17541
2026-01-26 18:34:31.10	338.92	2.03	-49.0	-51.2	6.2	0.00e+00	0	55	104	41582329856	70	17572

#Closed at: 2026-01-26 18:34:31
#Recorded file [41582 MB]: D:/lorett/data/31041_260126_212353.dat