passes_logs/2026/01/26/R3.2S_Murmansk/R3.2S_Murmansk__20260126_060414_SUOMI_NPP_rec.log

#Pass ID: 20260126_060414_SUOMI NPP
#Satellite: SUOMI NPP
#Configuration: NPP
#almurnet v.1.7.20251203
#Start time: 2026-01-26 06:04:16

#Version: 2.2.20231116
#Station: R3.2S_Murmansk
#Location: 33.079688 lon 68.888172 lat
#TLE: 1 37849U 11061A   26025.95877665  .00000192  00000+0  11229-3 0  9997
#TLE: 2 37849  98.7822 327.9136 0002155  44.9234 315.2116 14.19530109738267

#Time	Az	El	Level	Level2	SNR	BER	BlckErr	Temp	State	Recorded	gain1	gain2
2026-01-26 06:04:16.21	75.60	2.11	-53.9	-68.9	3.8	1.49e+00	0	41	0	0	78	21346
2026-01-26 06:04:17.20	75.54	2.17	-54.1	-69.1	3.8	1.49e+00	0	41	104	0	78	21991
2026-01-26 06:04:18.21	75.47	2.23	-54.1	-69.1	3.8	1.49e+00	0	41	104	0	78	21914
2026-01-26 06:04:19.22	75.41	2.29	-54.1	-69.1	3.8	1.49e+00	0	41	104	0	78	21973
2026-01-26 06:04:20.23	75.35	2.35	-54.1	-69.1	3.8	1.49e+00	0	41	104	0	78	21761
2026-01-26 06:04:21.23	75.29	2.40	-54.0	-69.0	3.8	1.49e+00	0	41	104	0	78	21681
2026-01-26 06:04:22.24	75.22	2.46	-54.0	-69.0	3.8	1.49e+00	0	41	104	0	78	21546
2026-01-26 06:04:23.25	75.16	2.52	-53.9	-68.9	3.8	1.49e+00	0	41	104	0	78	21337
2026-01-26 06:04:24.26	75.09	2.58	-53.9	-68.8	3.8	1.49e+00	0	41	104	0	78	21168
2026-01-26 06:04:25.27	75.03	2.64	-53.8	-68.8	3.8	1.49e+00	0	41	104	0	78	21122
2026-01-26 06:04:26.28	74.97	2.70	-53.8	-68.7	3.8	1.49e+00	0	41	104	0	78	20968
2026-01-26 06:04:27.29	74.90	2.76	-53.7	-68.7	3.8	1.49e+00	0	41	104	0	78	20798
2026-01-26 06:04:28.29	74.84	2.82	-53.6	-68.6	3.8	1.49e+00	0	41	104	0	78	20626
2026-01-26 06:04:29.30	74.77	2.88	-53.5	-68.4	3.8	1.49e+00	0	41	104	0	78	20272
2026-01-26 06:04:30.31	74.71	2.93	-53.3	-68.3	3.8	1.49e+00	0	41	104	0	78	19969
2026-01-26 06:04:31.31	74.64	2.99	-53.2	-68.1	3.8	1.49e+00	0	41	104	0	78	19588
2026-01-26 06:04:32.32	74.57	3.05	-53.0	-67.9	3.8	1.49e+00	0	42	104	0	78	19129
2026-01-26 06:04:33.33	74.51	3.11	-52.8	-67.8	3.8	1.49e+00	0	41	104	0	77	19861
2026-01-26 06:04:34.34	74.44	3.17	-52.5	-67.4	3.8	1.49e+00	0	41	104	0	77	19114
2026-01-26 06:04:35.34	74.37	3.23	-52.1	-67.0	3.8	1.49e+00	0	42	104	0	76	19384
2026-01-26 06:04:36.35	74.31	3.29	-52.1	-66.9	3.8	1.49e+00	0	42	104	0	76	19095
2026-01-26 06:04:37.36	74.24	3.35	-52.0	-66.9	3.8	1.49e+00	0	42	104	0	76	19164
2026-01-26 06:04:38.36	74.17	3.41	-52.0	-67.0	3.8	1.49e+00	0	42	104	0	76	19169
2026-01-26 06:04:39.37	74.10	3.47	-52.0	-66.9	3.8	1.49e+00	0	42	104	0	76	19159
2026-01-26 06:04:40.38	74.04	3.53	-52.0	-67.0	3.8	1.49e+00	0	42	104	0	76	19236
2026-01-26 06:04:41.39	73.97	3.59	-52.0	-67.0	3.8	1.49e+00	0	42	104	0	76	19194
2026-01-26 06:04:42.40	73.90	3.65	-52.0	-66.9	3.8	1.49e+00	0	42	104	0	76	19125
2026-01-26 06:04:43.41	73.83	3.71	-52.0	-66.9	3.8	1.49e+00	0	42	104	0	76	19086
2026-01-26 06:04:44.42	73.76	3.77	-52.0	-66.9	3.8	1.49e+00	0	42	104	0	76	19083
2026-01-26 06:04:45.43	73.69	3.83	-52.0	-66.9	3.8	1.49e+00	0	42	104	0	76	19103
2026-01-26 06:04:46.43	73.62	3.89	-52.0	-66.9	3.8	1.49e+00	0	42	104	0	76	19147
2026-01-26 06:04:47.44	73.55	3.95	-52.0	-66.8	3.8	1.49e+00	0	42	104	0	76	18818
2026-01-26 06:04:48.45	73.48	4.01	-52.0	-66.6	3.8	1.49e+00	0	42	104	0	76	18333
2026-01-26 06:04:49.46	73.41	4.08	-52.0	-66.1	3.8	1.49e+00	0	42	104	0	76	17443
2026-01-26 06:04:50.47	73.33	4.14	-51.9	-65.6	3.8	1.49e+00	0	42	104	0	75	17361
2026-01-26 06:04:51.47	73.26	4.20	-51.9	-64.9	3.8	1.49e+00	0	42	104	0	75	16088
2026-01-26 06:04:52.48	73.19	4.26	-51.9	-64.5	4.0	1.49e+00	0	42	104	0	75	15362
2026-01-26 06:04:53.49	73.12	4.32	-51.9	-64.3	4.0	1.47e+00	0	42	104	0	75	15042
2026-01-26 06:04:54.49	73.05	4.38	-51.9	-64.8	3.8	1.48e+00	0	42	104	0	75	15805
2026-01-26 06:04:55.50	72.97	4.44	-51.9	-64.9	3.8	1.49e+00	0	42	104	0	75	16059
2026-01-26 06:04:56.51	72.90	4.50	-51.9	-65.1	3.8	1.49e+00	0	42	104	0	75	16332
2026-01-26 06:04:57.52	72.83	4.57	-51.9	-64.5	4.0	1.48e+00	0	42	104	0	75	15246
2026-01-26 06:04:58.52	72.75	4.63	-51.8	-63.1	4.3	1.45e+00	0	42	104	0	75	13105
2026-01-26 06:04:59.53	72.68	4.69	-51.5	-60.9	5.2	9.75e-01	0	42	0	1048576	75	10163
2026-01-26 06:05:00.54	72.60	4.75	-51.3	-59.3	6.4	3.30e-01	0	42	0	3145728	74	8949
2026-01-26 06:05:01.54	72.53	4.81	-51.1	-58.2	7.4	1.47e-01	0	42	0	4194304	74	7890
2026-01-26 06:05:02.55	72.45	4.87	-50.9	-57.4	8.2	5.20e-02	0	42	0	6291456	73	7591
2026-01-26 06:05:03.56	72.38	4.94	-50.6	-56.4	9.2	4.25e-02	0	42	0	8388608	73	6756
2026-01-26 06:05:04.57	72.30	5.00	-50.5	-56.2	9.4	2.12e-02	0	42	0	10485760	73	6626
2026-01-26 06:05:05.58	72.23	5.06	-50.6	-56.3	9.4	1.08e-02	0	42	0	12582912	72	7090
2026-01-26 06:05:06.58	72.15	5.12	-51.1	-58.4	7.4	4.18e-02	0	42	0	13631488	72	8985
2026-01-26 06:05:07.59	72.07	5.19	-50.4	-55.7	10.0	7.06e-02	0	42	0	15728640	72	6625
2026-01-26 06:05:08.61	72.00	5.25	-49.0	-52.4	13.1	1.88e-01	0	42	0	17825792	70	5047
2026-01-26 06:05:09.61	71.92	5.31	-51.7	-62.3	5.0	0.00e+00	0	42	0	19922944	73	13393
2026-01-26 06:05:10.62	71.84	5.38	-49.0	-52.4	12.7	1.42e+00	1	42	104	19922944	70	5061
2026-01-26 06:05:11.63	71.76	5.44	-47.4	-49.7	16.0	0.00e+00	0	42	0	20971520	66	4703
2026-01-26 06:05:12.64	71.68	5.50	-47.4	-49.8	16.0	0.00e+00	0	42	0	23068672	66	4742
2026-01-26 06:05:13.65	71.60	5.57	-47.4	-49.9	16.1	0.00e+00	0	42	0	24117248	66	4766
2026-01-26 06:05:14.66	71.52	5.63	-47.4	-49.8	16.1	0.00e+00	0	42	0	26214400	66	4743
2026-01-26 06:05:15.67	71.44	5.69	-47.6	-50.2	15.8	0.00e+00	0	42	0	28311552	66	4933
2026-01-26 06:05:16.67	71.36	5.76	-47.6	-50.0	15.9	0.00e+00	0	42	0	30408704	66	4851
2026-01-26 06:05:17.68	71.28	5.82	-47.6	-50.1	15.8	0.00e+00	0	42	0	32505856	66	4910
2026-01-26 06:05:18.69	71.20	5.88	-47.4	-49.8	16.2	0.00e+00	0	42	0	33554432	66	4719
2026-01-26 06:05:19.70	71.12	5.95	-47.3	-49.7	16.2	0.00e+00	0	42	0	35651584	66	4671
2026-01-26 06:05:20.71	71.04	6.01	-47.3	-49.7	16.3	0.00e+00	0	42	0	37748736	66	4652
2026-01-26 06:05:21.72	70.96	6.08	-47.2	-49.5	16.5	0.00e+00	0	42	0	39845888	66	4554
2026-01-26 06:05:22.72	70.88	6.14	-47.3	-49.7	16.4	0.00e+00	0	43	0	41943040	66	4669
2026-01-26 06:05:23.73	70.79	6.20	-47.4	-49.7	16.3	0.00e+00	0	43	0	42991616	66	4700
2026-01-26 06:05:24.74	70.71	6.27	-47.4	-49.7	16.4	0.00e+00	0	42	0	45088768	66	4661
2026-01-26 06:05:25.75	70.63	6.33	-47.4	-49.7	16.3	0.00e+00	0	43	0	47185920	66	4696
2026-01-26 06:05:26.76	70.54	6.40	-47.4	-49.8	16.3	0.00e+00	0	42	0	49283072	66	4722
2026-01-26 06:05:27.77	70.46	6.46	-47.2	-49.4	16.6	0.00e+00	0	42	0	51380224	66	4544
2026-01-26 06:05:28.78	70.37	6.53	-47.0	-49.1	16.9	0.00e+00	0	43	0	52428800	66	4383
2026-01-26 06:05:29.79	70.29	6.59	-46.9	-49.0	17.0	0.00e+00	0	42	0	54525952	65	4583
2026-01-26 06:05:30.79	70.20	6.66	-47.0	-49.1	16.9	0.00e+00	0	43	0	56623104	65	4619
2026-01-26 06:05:31.81	70.12	6.72	-47.0	-49.2	16.9	0.00e+00	0	43	0	58720256	65	4670
2026-01-26 06:05:32.81	70.03	6.79	-47.1	-49.3	16.8	0.00e+00	0	43	0	60817408	65	4714
2026-01-26 06:05:33.82	69.94	6.85	-47.3	-49.6	16.5	0.00e+00	0	43	0	62914560	65	4878
2026-01-26 06:05:34.82	69.86	6.92	-47.2	-49.4	16.7	0.00e+00	0	43	0	63963136	65	4765
2026-01-26 06:05:35.83	69.77	6.98	-47.3	-49.6	16.5	0.00e+00	0	42	0	66060288	65	4874
2026-01-26 06:05:36.83	69.68	7.05	-47.4	-49.8	16.3	0.00e+00	0	43	0	68157440	65	4989
2026-01-26 06:05:37.84	69.59	7.11	-47.1	-49.3	16.8	0.00e+00	0	43	0	70254592	65	4719
2026-01-26 06:05:38.85	69.51	7.18	-47.5	-49.8	16.3	0.00e+00	0	43	0	71303168	65	5036
2026-01-26 06:05:39.86	69.42	7.24	-47.3	-49.6	16.5	0.00e+00	0	43	0	73400320	65	4910
2026-01-26 06:05:40.87	69.33	7.31	-47.2	-49.5	16.6	0.00e+00	0	43	0	75497472	65	4825
2026-01-26 06:05:41.87	69.24	7.38	-47.3	-49.5	16.6	0.00e+00	0	43	0	77594624	65	4841
2026-01-26 06:05:42.88	69.15	7.44	-47.3	-49.6	16.5	0.00e+00	0	43	0	79691776	65	4912
2026-01-26 06:05:43.89	69.06	7.51	-47.6	-50.0	16.1	0.00e+00	0	43	0	80740352	65	5132
2026-01-26 06:05:44.90	68.96	7.58	-47.8	-50.3	15.9	0.00e+00	0	43	0	82837504	66	4996
2026-01-26 06:05:45.91	68.87	7.64	-47.9	-50.5	15.6	0.00e+00	0	43	0	84934656	66	5152
2026-01-26 06:05:46.92	68.78	7.71	-47.8	-50.4	15.8	0.00e+00	0	43	0	87031808	66	5061
2026-01-26 06:05:47.93	68.69	7.78	-47.8	-50.3	15.9	0.00e+00	0	43	0	89128960	66	4991
2026-01-26 06:05:48.93	68.60	7.84	-47.6	-50.0	16.2	0.00e+00	0	43	0	91226112	66	4850
2026-01-26 06:05:49.94	68.50	7.91	-47.4	-49.7	16.4	0.00e+00	0	43	0	92274688	66	4698
2026-01-26 06:05:50.95	68.41	7.98	-47.1	-49.2	16.9	0.00e+00	0	43	0	94371840	66	4439
2026-01-26 06:05:51.96	68.31	8.04	-47.3	-49.5	16.6	0.00e+00	0	43	0	96468992	66	4590
2026-01-26 06:05:52.96	68.22	8.11	-47.2	-49.4	16.8	0.00e+00	0	42	0	98566144	66	4502
2026-01-26 06:05:53.97	68.12	8.18	-47.3	-49.6	16.6	0.00e+00	0	43	0	99614720	66	4623
2026-01-26 06:05:54.98	68.03	8.24	-47.4	-49.7	16.5	0.00e+00	0	43	0	101711872	66	4666
2026-01-26 06:05:55.98	67.93	8.31	-47.2	-49.4	16.8	0.00e+00	0	43	0	103809024	66	4524
2026-01-26 06:05:56.99	67.84	8.38	-47.4	-49.8	16.6	0.00e+00	0	43	0	105906176	66	4707
2026-01-26 06:05:57.99	67.74	8.45	-47.4	-49.7	16.5	0.00e+00	0	43	0	108003328	66	4700
2026-01-26 06:05:59.00	67.64	8.51	-47.2	-49.4	16.9	0.00e+00	0	43	0	109051904	66	4503
2026-01-26 06:06:00.01	67.54	8.58	-47.1	-49.2	17.0	0.00e+00	0	43	0	111149056	66	4424
2026-01-26 06:06:01.02	67.44	8.65	-46.9	-48.9	17.2	0.00e+00	0	43	0	113246208	65	4540
2026-01-26 06:06:02.03	67.35	8.72	-46.8	-48.8	17.4	0.00e+00	0	43	0	115343360	65	4458
2026-01-26 06:06:03.04	67.25	8.79	-46.7	-48.6	17.5	0.00e+00	0	42	0	117440512	65	4386
2026-01-26 06:06:04.05	67.15	8.86	-46.7	-48.7	17.5	0.00e+00	0	43	0	119537664	65	4436
2026-01-26 06:06:05.05	67.05	8.92	-46.7	-48.7	17.5	0.00e+00	0	43	0	120586240	65	4410
2026-01-26 06:06:06.06	66.95	8.99	-46.7	-48.6	17.6	0.00e+00	0	43	0	122683392	65	4378
2026-01-26 06:06:07.07	66.84	9.06	-46.6	-48.6	17.6	0.00e+00	0	43	0	124780544	65	4374
2026-01-26 06:06:08.07	66.74	9.13	-46.7	-48.7	17.5	0.00e+00	0	43	0	126877696	65	4436
2026-01-26 06:06:09.08	66.64	9.20	-46.7	-48.7	17.5	0.00e+00	0	43	0	127926272	65	4434
2026-01-26 06:06:10.09	66.54	9.27	-46.5	-48.4	17.8	0.00e+00	0	43	0	130023424	65	4274
2026-01-26 06:06:11.09	66.44	9.34	-46.7	-48.7	17.5	0.00e+00	0	43	0	132120576	65	4406
2026-01-26 06:06:12.10	66.33	9.40	-46.5	-48.4	17.9	0.00e+00	0	43	0	134217728	64	4502
2026-01-26 06:06:13.11	66.23	9.47	-46.7	-48.6	17.6	0.00e+00	0	43	0	136314880	64	4643
2026-01-26 06:06:14.12	66.12	9.54	-46.7	-48.7	17.6	0.00e+00	0	43	0	138412032	64	4669
2026-01-26 06:06:15.13	66.02	9.61	-46.6	-48.5	17.8	0.00e+00	0	43	0	139460608	64	4571
2026-01-26 06:06:16.13	65.91	9.68	-46.8	-48.8	17.5	0.00e+00	0	43	0	141557760	64	4706
2026-01-26 06:06:17.14	65.80	9.75	-46.7	-48.6	17.7	0.00e+00	0	43	0	143654912	64	4614
2026-01-26 06:06:18.14	65.70	9.82	-46.6	-48.5	17.7	0.00e+00	0	43	0	145752064	64	4579
2026-01-26 06:06:19.15	65.59	9.89	-46.7	-48.6	17.7	0.00e+00	0	43	0	147849216	64	4624
2026-01-26 06:06:20.16	65.48	9.96	-46.6	-48.5	17.8	0.00e+00	0	43	0	148897792	64	4557
2026-01-26 06:06:21.16	65.37	10.03	-46.6	-48.4	17.9	0.00e+00	0	43	0	150994944	64	4533
2026-01-26 06:06:22.17	65.27	10.10	-46.7	-48.6	17.7	0.00e+00	0	43	0	153092096	64	4629
2026-01-26 06:06:23.18	65.16	10.17	-46.7	-48.6	17.7	0.00e+00	0	43	0	155189248	64	4637
2026-01-26 06:06:24.18	65.05	10.24	-46.6	-48.6	17.8	0.00e+00	0	43	0	156237824	64	4603
2026-01-26 06:06:25.19	64.94	10.31	-46.7	-48.6	17.7	0.00e+00	0	43	0	158334976	64	4642
2026-01-26 06:06:26.20	64.82	10.38	-46.8	-48.8	17.5	0.00e+00	0	43	0	160432128	64	4729
2026-01-26 06:06:27.21	64.71	10.45	-46.9	-48.9	17.4	0.00e+00	0	43	0	162529280	64	4794
2026-01-26 06:06:28.21	64.60	10.52	-46.7	-48.7	17.7	0.00e+00	0	43	0	164626432	64	4668
2026-01-26 06:06:29.22	64.49	10.59	-46.9	-48.9	17.5	0.00e+00	0	43	0	166723584	64	4776
2026-01-26 06:06:30.23	64.37	10.66	-46.8	-48.8	17.5	0.00e+00	0	43	0	167772160	64	4741
2026-01-26 06:06:31.23	64.26	10.73	-46.8	-48.7	17.6	0.00e+00	0	43	0	169869312	64	4686
2026-01-26 06:06:32.24	64.15	10.81	-46.8	-48.8	17.6	0.00e+00	0	43	0	171966464	64	4708
2026-01-26 06:06:33.25	64.03	10.88	-46.9	-48.9	17.4	0.00e+00	0	43	0	174063616	64	4803
2026-01-26 06:06:34.26	63.92	10.95	-47.0	-48.9	17.4	0.00e+00	0	43	0	176160768	64	4812
2026-01-26 06:06:35.26	63.80	11.02	-47.1	-49.2	17.2	0.00e+00	0	43	0	177209344	64	4940
2026-01-26 06:06:36.27	63.68	11.09	-47.2	-49.3	17.1	0.00e+00	0	43	0	179306496	64	5020
2026-01-26 06:06:37.28	63.57	11.16	-47.0	-49.1	17.3	0.00e+00	0	43	0	181403648	64	4892
2026-01-26 06:06:38.29	63.45	11.23	-47.2	-49.3	17.1	0.00e+00	0	43	0	183500800	64	5004
2026-01-26 06:06:39.30	63.33	11.31	-47.0	-49.1	17.3	0.00e+00	0	43	0	184549376	64	4875
2026-01-26 06:06:40.30	63.21	11.38	-47.0	-49.0	17.3	0.00e+00	0	43	0	186646528	64	4864
2026-01-26 06:06:41.31	63.09	11.45	-46.7	-48.7	17.7	0.00e+00	0	43	0	188743680	64	4659
2026-01-26 06:06:42.32	62.97	11.52	-46.7	-48.6	17.7	0.00e+00	0	43	0	190840832	64	4642
2026-01-26 06:06:43.32	62.85	11.59	-46.9	-48.8	17.5	0.00e+00	0	43	0	192937984	64	4746
2026-01-26 06:06:44.33	62.73	11.66	-46.8	-48.8	17.6	0.00e+00	0	43	0	195035136	64	4710
2026-01-26 06:06:45.33	62.61	11.74	-46.7	-48.5	17.8	0.00e+00	0	43	0	196083712	64	4593
2026-01-26 06:06:46.34	62.48	11.81	-46.4	-48.2	18.1	0.00e+00	0	43	0	198180864	64	4439
2026-01-26 06:06:47.34	62.36	11.88	-46.5	-48.3	18.1	0.00e+00	0	43	0	200278016	64	4449
2026-01-26 06:06:48.35	62.24	11.95	-46.3	-48.1	18.3	0.00e+00	0	43	0	202375168	64	4356
2026-01-26 06:06:49.36	62.11	12.02	-46.1	-47.7	18.6	0.00e+00	0	43	0	204472320	64	4188
2026-01-26 06:06:50.37	61.99	12.10	-46.1	-47.8	18.5	0.00e+00	0	43	0	205520896	64	4239
2026-01-26 06:06:51.38	61.86	12.17	-46.1	-47.8	18.6	0.00e+00	0	43	0	207618048	64	4207
2026-01-26 06:06:52.38	61.73	12.24	-46.0	-47.7	18.7	0.00e+00	0	43	0	209715200	64	4169
2026-01-26 06:06:53.39	61.61	12.32	-46.1	-47.8	18.7	0.00e+00	0	43	0	211812352	63	4473
2026-01-26 06:06:54.40	61.48	12.39	-46.0	-47.7	18.8	0.00e+00	0	43	0	212860928	63	4426
2026-01-26 06:06:55.41	61.35	12.46	-46.1	-47.8	18.6	0.00e+00	0	43	0	214958080	63	4466
2026-01-26 06:06:56.41	61.22	12.53	-45.9	-47.5	18.9	0.00e+00	0	43	0	217055232	63	4308
2026-01-26 06:06:57.42	61.09	12.61	-45.9	-47.5	19.0	0.00e+00	0	43	0	219152384	63	4318
2026-01-26 06:06:58.43	60.96	12.68	-46.1	-47.8	18.7	0.00e+00	0	43	0	221249536	63	4442
2026-01-26 06:06:59.43	60.83	12.75	-46.2	-47.9	18.6	0.00e+00	0	43	0	223346688	63	4513
2026-01-26 06:07:00.45	60.70	12.83	-46.1	-47.8	18.7	0.00e+00	0	43	0	224395264	63	4484
2026-01-26 06:07:01.45	60.57	12.90	-46.2	-47.8	18.7	0.00e+00	0	43	0	226492416	63	4490
2026-01-26 06:07:02.46	60.43	12.97	-46.2	-47.9	18.7	0.00e+00	0	43	0	228589568	63	4496
2026-01-26 06:07:03.47	60.30	13.05	-45.9	-47.6	18.9	0.00e+00	0	43	0	230686720	63	4351
2026-01-26 06:07:04.48	60.16	13.12	-45.9	-47.5	19.0	0.00e+00	0	43	0	232783872	63	4325
2026-01-26 06:07:05.49	60.03	13.19	-45.9	-47.5	19.0	0.00e+00	0	43	0	233832448	63	4337
2026-01-26 06:07:06.50	59.89	13.27	-46.1	-47.8	18.8	0.00e+00	0	43	0	235929600	63	4446
2026-01-26 06:07:07.50	59.76	13.34	-45.9	-47.5	19.0	0.00e+00	0	43	0	238026752	63	4304
2026-01-26 06:07:08.51	59.62	13.42	-45.8	-47.4	19.1	0.00e+00	0	43	0	240123904	63	4251
2026-01-26 06:07:09.52	59.48	13.49	-45.8	-47.3	19.1	0.00e+00	0	43	0	242221056	63	4237
2026-01-26 06:07:10.53	59.34	13.56	-45.8	-47.4	19.2	0.00e+00	0	43	0	243269632	63	4243
2026-01-26 06:07:11.53	59.20	13.64	-45.7	-47.3	19.2	0.00e+00	0	43	0	245366784	63	4218
2026-01-26 06:07:12.54	59.06	13.71	-45.8	-47.4	19.1	0.00e+00	0	43	0	247463936	63	4290
2026-01-26 06:07:13.55	58.92	13.79	-45.8	-47.4	19.1	0.00e+00	0	43	0	249561088	63	4265
2026-01-26 06:07:14.56	58.78	13.86	-45.9	-47.6	18.9	0.00e+00	0	43	0	251658240	63	4341
2026-01-26 06:07:15.57	58.64	13.93	-45.8	-47.4	19.1	0.00e+00	0	43	0	252706816	63	4280
2026-01-26 06:07:16.58	58.49	14.01	-45.8	-47.4	19.1	0.00e+00	0	43	0	254803968	63	4267
2026-01-26 06:07:17.58	58.35	14.08	-45.8	-47.4	19.1	0.00e+00	0	43	0	256901120	63	4276
2026-01-26 06:07:18.59	58.21	14.16	-45.8	-47.5	19.1	0.00e+00	0	43	0	258998272	63	4292
2026-01-26 06:07:19.60	58.06	14.23	-46.0	-47.7	18.9	0.00e+00	0	43	0	261095424	63	4394
2026-01-26 06:07:20.61	57.91	14.31	-45.9	-47.5	19.0	0.00e+00	0	43	0	262144000	63	4336
2026-01-26 06:07:21.62	57.77	14.38	-46.0	-47.7	18.8	0.00e+00	0	43	0	264241152	63	4399
2026-01-26 06:07:22.63	57.62	14.45	-45.9	-47.6	18.9	0.00e+00	0	43	0	266338304	63	4365
2026-01-26 06:07:23.63	57.47	14.53	-45.9	-47.6	18.9	0.00e+00	0	43	0	268435456	63	4374
2026-01-26 06:07:24.64	57.32	14.60	-45.8	-47.4	19.1	0.00e+00	0	43	0	270532608	63	4265
2026-01-26 06:07:25.65	57.17	14.68	-45.6	-47.2	19.3	0.00e+00	0	43	0	271581184	63	4151
2026-01-26 06:07:26.66	57.02	14.75	-45.9	-47.6	18.9	0.00e+00	0	43	0	273678336	63	4360
2026-01-26 06:07:27.67	56.87	14.83	-45.9	-47.6	18.8	0.00e+00	0	43	0	275775488	63	4341
2026-01-26 06:07:28.68	56.72	14.90	-46.1	-47.8	18.7	0.00e+00	0	43	0	277872640	63	4479
2026-01-26 06:07:29.69	56.56	14.98	-46.3	-48.1	18.4	0.00e+00	0	43	0	279969792	63	4634
2026-01-26 06:07:30.69	56.41	15.05	-46.3	-48.2	18.4	0.00e+00	0	43	0	281018368	63	4663
2026-01-26 06:07:31.70	56.26	15.13	-46.3	-48.2	18.4	0.00e+00	0	43	0	283115520	63	4658
2026-01-26 06:07:32.71	56.10	15.20	-46.3	-48.1	18.5	0.00e+00	0	43	0	285212672	63	4612
2026-01-26 06:07:33.71	55.95	15.27	-46.2	-48.0	18.6	0.00e+00	0	43	0	287309824	63	4550
2026-01-26 06:07:34.72	55.79	15.35	-46.3	-48.1	18.5	0.00e+00	0	43	0	289406976	63	4599
2026-01-26 06:07:35.73	55.63	15.42	-46.4	-48.2	18.3	0.00e+00	0	43	0	291504128	63	4671
2026-01-26 06:07:36.73	55.47	15.50	-46.4	-48.2	18.4	0.00e+00	0	43	0	292552704	63	4692
2026-01-26 06:07:37.74	55.32	15.57	-46.2	-47.9	18.7	0.00e+00	0	43	0	294649856	63	4532
2026-01-26 06:07:38.75	55.15	15.65	-46.3	-48.0	18.5	0.00e+00	0	43	0	296747008	63	4582
2026-01-26 06:07:39.75	55.00	15.72	-46.3	-48.0	18.6	0.00e+00	0	43	0	298844160	63	4572
2026-01-26 06:07:40.76	54.83	15.80	-46.2	-47.9	18.7	0.00e+00	0	43	0	299892736	63	4498
2026-01-26 06:07:41.77	54.67	15.87	-46.4	-48.2	18.4	0.00e+00	0	43	0	301989888	63	4662
2026-01-26 06:07:42.77	54.51	15.95	-46.5	-48.3	18.3	0.00e+00	0	43	0	304087040	63	4749
2026-01-26 06:07:43.78	54.34	16.02	-46.6	-48.4	18.2	0.00e+00	0	43	0	306184192	63	4811
2026-01-26 06:07:44.78	54.18	16.10	-46.6	-48.5	18.2	0.00e+00	0	43	0	308281344	63	4818
2026-01-26 06:07:45.79	54.01	16.17	-46.7	-48.7	17.9	0.00e+00	0	43	0	309329920	64	4657
2026-01-26 06:07:46.80	53.85	16.25	-46.7	-48.7	17.9	0.00e+00	0	43	0	311427072	64	4667
2026-01-26 06:07:47.81	53.68	16.32	-46.8	-48.8	17.8	0.00e+00	0	43	0	313524224	64	4713
2026-01-26 06:07:48.81	53.51	16.39	-46.7	-48.7	17.9	0.00e+00	0	43	0	315621376	64	4657
2026-01-26 06:07:49.82	53.34	16.47	-46.7	-48.7	17.9	0.00e+00	0	43	0	317718528	64	4652
2026-01-26 06:07:50.83	53.17	16.54	-46.7	-48.6	18.0	0.00e+00	0	43	0	319815680	64	4615
2026-01-26 06:07:51.84	53.00	16.62	-46.3	-48.1	18.4	0.00e+00	0	43	0	320864256	64	4351
2026-01-26 06:07:52.84	52.83	16.69	-46.0	-47.7	18.8	0.00e+00	0	43	0	322961408	64	4175
2026-01-26 06:07:53.85	52.66	16.77	-46.1	-47.9	18.6	0.00e+00	0	43	0	325058560	64	4245
2026-01-26 06:07:54.86	52.48	16.84	-46.0	-47.6	18.9	0.00e+00	0	43	0	327155712	63	4369
2026-01-26 06:07:55.87	52.31	16.92	-46.0	-47.6	19.0	0.00e+00	0	43	0	328204288	63	4381
2026-01-26 06:07:56.87	52.14	16.99	-46.2	-47.9	18.7	0.00e+00	0	43	0	330301440	63	4534
2026-01-26 06:07:57.88	51.96	17.06	-46.2	-47.9	18.7	0.00e+00	0	43	0	332398592	63	4512
2026-01-26 06:07:58.89	51.78	17.14	-46.1	-47.9	18.7	0.00e+00	0	43	0	334495744	63	4501
2026-01-26 06:07:59.89	51.61	17.21	-46.1	-47.8	18.8	0.00e+00	0	43	0	336592896	63	4480
2026-01-26 06:08:00.90	51.43	17.29	-46.0	-47.7	18.9	0.00e+00	0	43	0	337641472	63	4397
2026-01-26 06:08:01.91	51.25	17.36	-46.1	-47.8	18.9	0.00e+00	0	43	0	339738624	63	4454
2026-01-26 06:08:02.92	51.07	17.43	-46.0	-47.7	19.0	0.00e+00	0	43	0	341835776	63	4394
2026-01-26 06:08:03.93	50.88	17.51	-46.1	-47.8	18.8	0.00e+00	0	43	0	343932928	63	4469
2026-01-26 06:08:04.93	50.70	17.58	-46.2	-47.9	18.8	0.00e+00	0	43	0	346030080	63	4513
2026-01-26 06:08:05.94	50.52	17.66	-46.2	-47.9	18.8	0.00e+00	0	43	0	348127232	63	4507
2026-01-26 06:08:06.96	50.33	17.73	-46.0	-47.6	18.9	0.00e+00	0	43	0	349175808	63	4387
2026-01-26 06:08:07.96	50.15	17.80	-45.9	-47.5	19.1	0.00e+00	0	43	0	351272960	63	4307
2026-01-26 06:08:08.97	49.96	17.88	-46.1	-47.8	18.8	0.00e+00	0	43	0	353370112	63	4477
2026-01-26 06:08:09.97	49.78	17.95	-46.2	-47.9	18.8	0.00e+00	0	43	0	355467264	63	4523
2026-01-26 06:08:10.98	49.59	18.02	-46.4	-48.2	18.5	0.00e+00	0	43	0	356515840	63	4659
2026-01-26 06:08:11.99	49.40	18.10	-46.5	-48.4	18.3	0.00e+00	0	43	0	358612992	63	4791
2026-01-26 06:08:12.99	49.21	18.17	-46.4	-48.2	18.5	0.00e+00	0	43	0	360710144	63	4698
2026-01-26 06:08:14.00	49.02	18.24	-46.4	-48.3	18.4	0.00e+00	0	43	0	362807296	63	4716
2026-01-26 06:08:15.01	48.83	18.31	-46.2	-47.9	18.7	0.00e+00	0	43	0	364904448	63	4509
2026-01-26 06:08:16.01	48.64	18.39	-46.4	-48.1	18.5	0.00e+00	0	43	0	367001600	63	4631
2026-01-26 06:08:17.02	48.44	18.46	-46.0	-47.7	19.0	0.00e+00	0	43	0	368050176	63	4396
2026-01-26 06:08:18.03	48.25	18.53	-45.9	-47.5	19.1	0.00e+00	0	43	0	370147328	63	4310
2026-01-26 06:08:19.04	48.05	18.60	-45.8	-47.3	19.3	0.00e+00	0	43	0	372244480	63	4234
2026-01-26 06:08:20.05	47.86	18.68	-45.5	-46.9	19.7	0.00e+00	0	43	0	374341632	62	4283
2026-01-26 06:08:21.06	47.66	18.75	-45.5	-47.0	19.7	0.00e+00	0	43	0	376438784	62	4321
2026-01-26 06:08:22.07	47.46	18.82	-45.5	-47.0	19.7	0.00e+00	0	43	0	377487360	62	4295
2026-01-26 06:08:23.08	47.26	18.89	-45.4	-46.9	19.6	0.00e+00	0	43	0	379584512	62	4286
2026-01-26 06:08:24.08	47.06	18.96	-45.5	-47.0	19.6	0.00e+00	0	43	0	381681664	62	4328
2026-01-26 06:08:25.09	46.86	19.04	-45.4	-46.9	19.7	0.00e+00	0	43	0	383778816	62	4285
2026-01-26 06:08:26.10	46.66	19.11	-45.5	-47.1	19.6	0.00e+00	0	43	0	384827392	62	4345
2026-01-26 06:08:27.11	46.46	19.18	-45.3	-46.8	19.8	0.00e+00	0	43	0	386924544	62	4214
2026-01-26 06:08:28.12	46.25	19.25	-45.5	-47.1	19.5	0.00e+00	0	43	0	389021696	62	4341
2026-01-26 06:08:29.13	46.05	19.32	-45.4	-46.9	19.6	0.00e+00	0	43	0	391118848	62	4263
2026-01-26 06:08:30.13	45.84	19.39	-45.1	-46.6	19.9	0.00e+00	0	43	0	393216000	62	4144
2026-01-26 06:08:31.13	45.64	19.46	-45.2	-46.7	19.8	0.00e+00	0	43	0	395313152	62	4165
2026-01-26 06:08:32.14	45.43	19.53	-45.0	-46.4	20.1	0.00e+00	0	43	0	396361728	61	4263
2026-01-26 06:08:33.15	45.22	19.60	-44.8	-46.2	20.3	0.00e+00	0	43	0	398458880	61	4165
2026-01-26 06:08:34.16	45.01	19.67	-44.7	-46.0	20.5	0.00e+00	0	43	0	400556032	60	4330
2026-01-26 06:08:35.17	44.80	19.74	-44.6	-45.9	20.6	0.00e+00	0	43	0	402653184	60	4268
2026-01-26 06:08:36.17	44.59	19.81	-44.6	-45.9	20.5	0.00e+00	0	43	0	404750336	60	4291
2026-01-26 06:08:37.18	44.38	19.88	-44.6	-46.0	20.5	0.00e+00	0	43	0	405798912	60	4312
2026-01-26 06:08:38.19	44.16	19.95	-44.6	-46.0	20.5	0.00e+00	0	43	0	407896064	60	4299
2026-01-26 06:08:39.20	43.95	20.02	-44.6	-46.0	20.5	0.00e+00	0	43	0	409993216	60	4298
2026-01-26 06:08:40.21	43.73	20.08	-44.8	-46.2	20.3	0.00e+00	0	43	0	412090368	60	4410
2026-01-26 06:08:41.21	43.52	20.15	-44.7	-46.1	20.4	0.00e+00	0	43	0	414187520	60	4349
2026-01-26 06:08:42.22	43.30	20.22	-44.8	-46.2	20.3	0.00e+00	0	43	0	415236096	60	4402
2026-01-26 06:08:43.23	43.08	20.29	-44.6	-45.9	20.6	0.00e+00	0	43	0	417333248	60	4256
2026-01-26 06:08:44.23	42.87	20.35	-44.6	-45.9	20.5	0.00e+00	0	43	0	419430400	60	4278
2026-01-26 06:08:45.24	42.64	20.42	-44.4	-45.7	20.8	0.00e+00	0	43	0	421527552	60	4155
2026-01-26 06:08:46.25	42.42	20.49	-44.5	-45.8	20.6	0.00e+00	0	43	0	423624704	60	4210
2026-01-26 06:08:47.25	42.20	20.55	-44.4	-45.7	20.7	0.00e+00	0	43	0	424673280	60	4172
2026-01-26 06:08:48.26	41.98	20.62	-44.4	-45.7	20.8	0.00e+00	0	43	0	426770432	60	4153
2026-01-26 06:08:49.27	41.75	20.69	-44.4	-45.7	20.7	0.00e+00	0	43	0	428867584	60	4191
2026-01-26 06:08:50.28	41.53	20.75	-44.4	-45.7	20.7	0.00e+00	0	43	0	430964736	60	4190
2026-01-26 06:08:51.28	41.30	20.82	-44.3	-45.6	20.8	0.00e+00	0	43	0	433061888	60	4124
2026-01-26 06:08:52.29	41.08	20.88	-44.3	-45.6	20.8	0.00e+00	0	43	0	434110464	60	4130
2026-01-26 06:08:53.30	40.85	20.95	-44.2	-45.5	20.9	0.00e+00	0	43	0	436207616	60	4083
2026-01-26 06:08:54.31	40.62	21.01	-44.3	-45.6	20.8	0.00e+00	0	43	0	438304768	60	4109
2026-01-26 06:08:55.32	40.39	21.08	-44.2	-45.5	20.9	0.00e+00	0	43	0	440401920	60	4069
2026-01-26 06:08:56.33	40.16	21.14	-44.1	-45.3	21.1	0.00e+00	0	43	0	442499072	60	3998
2026-01-26 06:08:57.33	39.93	21.20	-44.2	-45.4	21.0	0.00e+00	0	43	0	443547648	60	4049
2026-01-26 06:08:58.34	39.69	21.27	-44.1	-45.4	21.0	0.00e+00	0	43	0	445644800	60	4015
2026-01-26 06:08:59.35	39.46	21.33	-44.4	-45.7	21.1	0.00e+00	0	43	0	447741952	59	4401
2026-01-26 06:09:00.35	39.23	21.39	-44.4	-45.6	21.2	0.00e+00	0	43	0	449839104	59	4373
2026-01-26 06:09:01.37	38.99	21.46	-44.3	-45.5	21.2	0.00e+00	0	43	0	451936256	59	4339
2026-01-26 06:09:02.37	38.75	21.52	-44.3	-45.5	21.2	0.00e+00	0	43	0	452984832	59	4315
2026-01-26 06:09:03.38	38.52	21.58	-44.4	-45.6	20.9	0.00e+00	0	43	0	455081984	59	4373
2026-01-26 06:09:04.39	38.28	21.64	-44.3	-45.6	21.1	0.00e+00	0	43	0	457179136	59	4357
2026-01-26 06:09:05.39	38.04	21.70	-44.3	-45.5	21.3	0.00e+00	0	43	0	459276288	59	4298
2026-01-26 06:09:06.40	37.80	21.76	-44.2	-45.4	21.4	0.00e+00	0	43	0	461373440	59	4290
2026-01-26 06:09:07.41	37.56	21.82	-44.1	-45.2	21.6	0.00e+00	0	43	0	462422016	59	4186
2026-01-26 06:09:08.41	37.32	21.88	-44.1	-45.3	21.5	0.00e+00	0	43	0	464519168	59	4242
2026-01-26 06:09:09.42	37.07	21.94	-44.2	-45.4	21.4	0.00e+00	0	43	0	466616320	59	4271
2026-01-26 06:09:10.43	36.83	22.00	-44.4	-45.7	21.2	0.00e+00	0	43	0	468713472	59	4397
2026-01-26 06:09:11.44	36.58	22.05	-44.2	-45.4	21.4	0.00e+00	0	43	0	470810624	59	4253
2026-01-26 06:09:12.45	36.34	22.11	-44.2	-45.4	21.4	0.00e+00	0	43	0	471859200	59	4245
2026-01-26 06:09:13.45	36.09	22.17	-44.0	-45.2	21.6	0.00e+00	0	43	0	473956352	59	4178
2026-01-26 06:09:14.45	35.85	22.22	-44.1	-45.3	21.4	0.00e+00	0	43	0	476053504	59	4208
2026-01-26 06:09:15.46	35.60	22.28	-44.2	-45.3	21.4	0.00e+00	0	43	0	478150656	59	4241
2026-01-26 06:09:16.47	35.35	22.34	-44.1	-45.3	21.5	0.00e+00	0	43	0	480247808	59	4195
2026-01-26 06:09:17.48	35.10	22.39	-44.2	-45.4	21.4	0.00e+00	0	43	0	481296384	59	4260
2026-01-26 06:09:18.49	34.84	22.45	-44.2	-45.4	21.5	0.00e+00	0	43	0	483393536	59	4244
2026-01-26 06:09:19.50	34.59	22.50	-44.3	-45.5	21.4	0.00e+00	0	43	0	485490688	59	4310
2026-01-26 06:09:20.50	34.34	22.56	-44.3	-45.5	21.3	0.00e+00	0	43	0	487587840	59	4311
2026-01-26 06:09:21.51	34.08	22.61	-44.5	-45.8	21.1	0.00e+00	0	43	0	489684992	59	4466
2026-01-26 06:09:22.52	33.83	22.66	-44.6	-45.9	21.0	0.00e+00	0	43	0	490733568	59	4531
2026-01-26 06:09:23.53	33.57	22.72	-44.7	-45.9	21.0	0.00e+00	0	43	0	492830720	59	4535
2026-01-26 06:09:24.53	33.32	22.77	-44.5	-45.7	21.2	0.00e+00	0	43	0	494927872	59	4424
2026-01-26 06:09:25.54	33.06	22.82	-44.5	-45.7	21.2	0.00e+00	0	43	0	497025024	59	4415
2026-01-26 06:09:26.55	32.80	22.87	-44.2	-45.4	21.4	0.00e+00	0	43	0	499122176	59	4270
2026-01-26 06:09:27.55	32.54	22.92	-44.4	-45.6	21.2	0.00e+00	0	43	0	500170752	59	4373
2026-01-26 06:09:28.56	32.28	22.97	-44.6	-45.9	21.1	0.00e+00	0	43	0	502267904	59	4503
2026-01-26 06:09:29.57	32.02	23.02	-44.5	-45.7	21.2	0.00e+00	0	43	0	504365056	59	4414
2026-01-26 06:09:30.57	31.76	23.07	-44.1	-45.3	21.6	0.00e+00	0	43	0	506462208	59	4223
2026-01-26 06:09:31.58	31.50	23.12	-44.1	-45.2	21.6	0.00e+00	0	43	0	508559360	59	4171
2026-01-26 06:09:32.59	31.24	23.16	-44.0	-45.1	21.7	0.00e+00	0	43	0	509607936	59	4119
2026-01-26 06:09:33.59	30.97	23.21	-44.1	-45.3	21.6	0.00e+00	0	43	0	511705088	59	4209
2026-01-26 06:09:34.60	30.71	23.26	-44.2	-45.4	21.5	0.00e+00	0	43	0	513802240	59	4274
2026-01-26 06:09:35.61	30.44	23.30	-43.9	-45.1	21.7	0.00e+00	0	43	0	515899392	59	4120
2026-01-26 06:09:36.62	30.17	23.35	-43.9	-45.0	21.9	0.00e+00	0	43	0	517996544	59	4076
2026-01-26 06:09:37.63	29.91	23.39	-43.9	-45.0	21.8	0.00e+00	0	43	0	519045120	59	4089
2026-01-26 06:09:38.64	29.64	23.44	-44.0	-45.2	21.7	0.00e+00	0	43	0	521142272	59	4151
2026-01-26 06:09:39.64	29.37	23.48	-44.1	-45.2	21.6	0.00e+00	0	43	0	523239424	59	4172
2026-01-26 06:09:40.65	29.10	23.52	-44.0	-45.1	21.8	0.00e+00	0	43	0	525336576	59	4116
2026-01-26 06:09:41.65	28.83	23.57	-43.7	-44.8	22.0	0.00e+00	0	43	0	527433728	59	3972
2026-01-26 06:09:42.66	28.56	23.61	-43.5	-44.6	22.1	0.00e+00	0	43	0	528482304	58	4132
2026-01-26 06:09:43.66	28.29	23.65	-43.9	-45.0	21.8	0.00e+00	0	43	0	530579456	58	4325
2026-01-26 06:09:44.67	28.02	23.69	-44.4	-45.6	21.4	0.00e+00	0	43	0	532676608	59	4345
2026-01-26 06:09:45.68	27.75	23.73	-44.6	-45.9	21.1	0.00e+00	0	43	0	534773760	59	4501
2026-01-26 06:09:46.69	27.47	23.77	-44.5	-45.7	21.2	0.00e+00	0	43	0	536870912	59	4432
2026-01-26 06:09:47.69	27.20	23.81	-44.7	-45.9	21.0	0.00e+00	0	43	0	537919488	59	4529
2026-01-26 06:09:48.69	26.93	23.84	-44.7	-45.9	20.7	0.00e+00	0	43	0	540016640	60	4277
2026-01-26 06:09:49.70	26.65	23.88	-45.2	-46.5	20.2	0.00e+00	0	43	0	542113792	60	4594
2026-01-26 06:09:50.70	26.37	23.92	-45.6	-47.1	19.7	0.00e+00	0	43	0	544210944	61	4643
2026-01-26 06:09:51.71	26.10	23.95	-45.8	-47.3	19.5	0.00e+00	0	43	0	546308096	62	4470
2026-01-26 06:09:52.71	25.82	23.99	-46.1	-47.7	19.2	0.00e+00	0	43	0	547356672	62	4653
2026-01-26 06:09:53.72	25.54	24.02	-45.7	-47.2	19.6	0.00e+00	0	43	0	549453824	62	4426
2026-01-26 06:09:54.72	25.27	24.06	-45.6	-47.0	19.7	0.00e+00	0	43	0	551550976	62	4332
2026-01-26 06:09:55.73	24.99	24.09	-45.5	-46.9	19.8	0.00e+00	0	43	0	553648128	62	4278
2026-01-26 06:09:56.74	24.70	24.12	-45.3	-46.6	20.1	0.00e+00	0	43	0	555745280	62	4142
2026-01-26 06:09:57.74	24.43	24.15	-45.1	-46.4	20.3	0.00e+00	0	43	0	556793856	62	4033
2026-01-26 06:09:58.75	24.14	24.18	-45.1	-46.4	20.3	0.00e+00	0	43	0	558891008	62	4034
2026-01-26 06:09:59.75	23.86	24.21	-45.1	-46.4	20.3	0.00e+00	0	43	0	560988160	61	4290
2026-01-26 06:10:00.76	23.58	24.24	-45.0	-46.3	20.4	0.00e+00	0	43	0	563085312	61	4226
2026-01-26 06:10:01.77	23.30	24.27	-45.1	-46.5	20.3	0.00e+00	0	43	0	565182464	61	4312
2026-01-26 06:10:02.77	23.02	24.30	-45.2	-46.6	20.2	0.00e+00	0	43	0	566231040	61	4345
2026-01-26 06:10:03.78	22.73	24.33	-45.2	-46.5	20.2	0.00e+00	0	43	0	568328192	61	4340
2026-01-26 06:10:04.79	22.45	24.35	-45.1	-46.5	20.2	0.00e+00	0	43	0	570425344	61	4329
2026-01-26 06:10:05.80	22.16	24.38	-45.1	-46.5	20.2	0.00e+00	0	43	0	572522496	61	4328
2026-01-26 06:10:06.80	21.88	24.40	-45.1	-46.5	20.1	0.00e+00	0	43	0	574619648	61	4333
2026-01-26 06:10:07.81	21.59	24.43	-45.4	-46.9	19.8	0.00e+00	0	43	0	575668224	61	4508
2026-01-26 06:10:08.82	21.30	24.45	-45.8	-47.4	19.4	0.00e+00	0	43	0	577765376	62	4504
2026-01-26 06:10:09.82	21.02	24.48	-46.0	-47.6	19.2	0.00e+00	0	43	0	579862528	62	4635
2026-01-26 06:10:10.83	20.73	24.50	-45.9	-47.5	19.3	0.00e+00	0	43	0	581959680	62	4562
2026-01-26 06:10:11.84	20.44	24.52	-45.9	-47.5	19.3	0.00e+00	0	43	0	584056832	62	4564
2026-01-26 06:10:12.84	20.16	24.54	-45.9	-47.4	19.4	0.00e+00	0	43	0	585105408	62	4529
2026-01-26 06:10:13.85	19.87	24.56	-46.0	-47.6	19.2	0.00e+00	0	43	0	587202560	62	4614
2026-01-26 06:10:14.86	19.58	24.58	-51.3	-55.9	11.2	1.27e-02	0	43	0	589299712	74	6040
2026-01-26 06:10:15.87	19.29	24.60	-51.1	-55.7	11.4	9.28e-03	0	43	0	591396864	74	5878
2026-01-26 06:10:16.87	19.00	24.61	-50.0	-53.2	13.9	9.10e-06	0	43	0	593494016	71	5266
2026-01-26 06:10:17.88	18.71	24.63	-48.6	-51.1	15.9	7.00e-07	0	43	0	594542592	69	4615
2026-01-26 06:10:18.89	18.42	24.65	-47.4	-49.3	17.5	0.00e+00	0	43	0	596639744	66	4493
2026-01-26 06:10:19.90	18.13	24.66	-46.3	-47.9	18.9	0.00e+00	0	43	0	598736896	64	4274
2026-01-26 06:10:20.91	17.84	24.68	-46.0	-47.5	19.5	0.00e+00	0	43	0	600834048	63	4326
2026-01-26 06:10:21.92	17.55	24.69	-46.1	-47.7	19.2	0.00e+00	0	43	0	602931200	63	4423
2026-01-26 06:10:22.92	17.26	24.70	-46.1	-47.6	19.2	0.00e+00	0	43	0	603979776	63	4381
2026-01-26 06:10:23.93	16.97	24.71	-46.1	-47.7	19.1	0.00e+00	0	43	0	606076928	63	4400
2026-01-26 06:10:24.94	16.68	24.72	-46.3	-47.9	18.9	0.00e+00	0	43	0	608174080	63	4533
2026-01-26 06:10:25.95	16.39	24.73	-46.2	-47.9	18.9	0.00e+00	0	43	0	610271232	63	4509
2026-01-26 06:10:26.96	16.09	24.74	-46.2	-47.8	19.0	0.00e+00	0	43	0	612368384	63	4481
2026-01-26 06:10:27.97	15.80	24.75	-46.1	-47.7	19.2	0.00e+00	0	43	0	613416960	63	4393
2026-01-26 06:10:28.97	15.51	24.76	-45.9	-47.4	19.3	0.00e+00	0	43	0	615514112	63	4276
2026-01-26 06:10:29.98	15.22	24.77	-45.5	-46.9	19.8	0.00e+00	0	43	0	617611264	62	4283
2026-01-26 06:10:30.99	14.93	24.77	-45.4	-46.8	19.9	0.00e+00	0	43	0	619708416	62	4232
2026-01-26 06:10:31.99	14.64	24.78	-45.3	-46.7	20.0	0.00e+00	0	43	0	621805568	62	4162
2026-01-26 06:10:33.00	14.34	24.78	-44.9	-46.3	20.4	0.00e+00	0	43	0	622854144	61	4198
2026-01-26 06:10:34.00	14.05	24.79	-45.0	-46.4	20.3	0.00e+00	0	43	0	624951296	61	4247
2026-01-26 06:10:35.01	13.76	24.79	-45.0	-46.4	20.2	0.00e+00	0	43	0	627048448	61	4268
2026-01-26 06:10:36.02	13.47	24.79	-45.2	-46.6	20.1	0.00e+00	0	43	0	629145600	61	4370
2026-01-26 06:10:37.03	13.17	24.79	-45.4	-46.8	19.9	0.00e+00	0	43	0	631242752	61	4475
2026-01-26 06:10:38.04	12.88	24.79	-45.8	-47.3	19.5	0.00e+00	0	43	0	632291328	62	4482
2026-01-26 06:10:39.04	12.59	24.79	-46.0	-47.6	19.2	0.00e+00	0	43	0	634388480	62	4636
2026-01-26 06:10:40.04	12.30	24.79	-46.0	-47.7	19.1	0.00e+00	0	43	0	636485632	62	4677
2026-01-26 06:10:41.05	12.00	24.79	-46.0	-47.6	19.2	0.00e+00	0	43	0	638582784	62	4608
2026-01-26 06:10:42.06	11.71	24.79	-45.9	-47.5	19.3	0.00e+00	0	43	0	640679936	62	4571
2026-01-26 06:10:43.06	11.42	24.78	-45.5	-47.0	19.7	0.00e+00	0	43	0	641728512	62	4302
2026-01-26 06:10:44.07	11.13	24.78	-45.5	-47.0	19.7	0.00e+00	0	43	0	643825664	62	4317
2026-01-26 06:10:45.08	10.83	24.78	-45.2	-46.7	20.0	0.00e+00	0	43	0	645922816	62	4155
2026-01-26 06:10:46.09	10.54	24.77	-45.0	-46.4	20.2	0.00e+00	0	43	0	648019968	62	4034
2026-01-26 06:10:47.10	10.25	24.76	-44.9	-46.2	20.4	0.00e+00	0	43	0	650117120	61	4171
2026-01-26 06:10:48.11	9.96	24.75	-44.8	-46.1	20.5	0.00e+00	0	43	0	651165696	61	4138
2026-01-26 06:10:49.11	9.67	24.75	-44.7	-46.0	20.6	0.00e+00	0	43	0	653262848	61	4061
2026-01-26 06:10:50.12	9.37	24.74	-44.5	-45.7	20.9	0.00e+00	0	43	0	655360000	61	3954
2026-01-26 06:10:51.13	9.08	24.73	-44.5	-45.8	20.8	0.00e+00	0	43	0	657457152	60	4230
2026-01-26 06:10:52.13	8.79	24.72	-44.3	-45.6	21.1	0.00e+00	0	43	0	659554304	60	4105
2026-01-26 06:10:53.14	8.50	24.70	-44.3	-45.5	21.1	0.00e+00	0	43	0	660602880	60	4068
2026-01-26 06:10:54.15	8.21	24.69	-44.3	-45.6	21.0	0.00e+00	0	43	0	662700032	60	4105
2026-01-26 06:10:55.16	7.92	24.68	-44.5	-45.7	20.9	0.00e+00	0	43	0	664797184	60	4177
2026-01-26 06:10:56.17	7.63	24.66	-44.4	-45.7	20.9	0.00e+00	0	43	0	666894336	60	4172
2026-01-26 06:10:57.17	7.34	24.65	-44.3	-45.5	21.2	0.00e+00	0	43	0	668991488	60	4061
2026-01-26 06:10:58.18	7.05	24.63	-44.0	-45.2	21.4	0.00e+00	0	43	0	670040064	60	3927
2026-01-26 06:10:59.18	6.76	24.62	-44.1	-45.3	21.6	0.00e+00	0	43	0	672137216	59	4194
2026-01-26 06:11:00.19	6.47	24.60	-43.8	-44.9	22.0	0.00e+00	0	43	0	674234368	59	4009
2026-01-26 06:11:01.20	6.18	24.58	-43.9	-45.1	21.8	0.00e+00	0	43	0	676331520	59	4104
2026-01-26 06:11:02.21	5.89	24.56	-43.8	-44.9	22.0	0.00e+00	0	43	0	678428672	59	4029
2026-01-26 06:11:03.22	5.60	24.54	-43.7	-44.8	22.0	0.00e+00	0	43	0	680525824	59	3999
2026-01-26 06:11:04.23	5.32	24.52	-43.6	-44.7	22.1	0.00e+00	0	43	0	681574400	59	3941
2026-01-26 06:11:05.23	5.03	24.50	-43.5	-44.5	22.3	0.00e+00	0	43	0	683671552	59	3867
2026-01-26 06:11:06.24	4.74	24.48	-43.3	-44.3	22.5	0.00e+00	0	43	0	685768704	58	3987
2026-01-26 06:11:07.24	4.46	24.46	-43.4	-44.4	22.4	0.00e+00	0	43	0	687865856	58	4041
2026-01-26 06:11:08.25	4.17	24.43	-43.5	-44.5	22.3	0.00e+00	0	43	0	688914432	58	4098
2026-01-26 06:11:09.25	3.89	24.41	-43.7	-44.8	22.1	0.00e+00	0	43	0	691011584	58	4230
2026-01-26 06:11:10.26	3.60	24.39	-43.5	-44.6	22.3	0.00e+00	0	43	0	693108736	58	4108
2026-01-26 06:11:11.27	3.32	24.36	-43.7	-44.8	22.1	0.00e+00	0	43	0	695205888	58	4214
2026-01-26 06:11:12.27	3.03	24.33	-43.9	-45.0	21.9	0.00e+00	0	43	0	697303040	58	4326
2026-01-26 06:11:13.27	2.75	24.31	-44.1	-45.3	21.7	0.00e+00	0	43	0	698351616	58	4449
2026-01-26 06:11:14.28	2.47	24.28	-44.2	-45.4	21.5	0.00e+00	0	43	0	700448768	59	4253
2026-01-26 06:11:15.29	2.18	24.25	-44.2	-45.4	21.6	0.00e+00	0	43	0	702545920	59	4254
2026-01-26 06:11:16.29	1.90	24.22	-44.3	-45.5	21.5	0.00e+00	0	43	0	704643072	59	4296
2026-01-26 06:11:17.29	1.63	24.19	-44.3	-45.5	21.5	0.00e+00	0	43	0	706740224	59	4313
2026-01-26 06:11:18.30	1.34	24.16	-44.4	-45.6	21.4	0.00e+00	0	43	0	707788800	59	4390
2026-01-26 06:11:19.31	1.06	24.13	-44.5	-45.7	21.3	0.00e+00	0	43	0	709885952	59	4417
2026-01-26 06:11:20.31	0.78	24.10	-44.4	-45.5	21.5	0.00e+00	0	43	0	711983104	59	4331
2026-01-26 06:11:21.32	0.50	24.06	-44.1	-45.2	21.6	0.00e+00	0	43	0	714080256	59	4185
2026-01-26 06:11:22.33	0.22	24.03	-44.5	-45.7	21.4	0.00e+00	0	43	0	716177408	59	4411
2026-01-26 06:11:23.33	359.95	24.00	-44.4	-45.6	21.1	0.00e+00	0	43	0	717225984	60	4132
2026-01-26 06:11:24.34	359.67	23.96	-44.8	-46.1	20.7	0.00e+00	0	43	0	719323136	60	4368
2026-01-26 06:11:25.34	359.39	23.93	-44.9	-46.2	20.5	0.00e+00	0	43	0	721420288	60	4436
2026-01-26 06:11:26.35	359.12	23.89	-44.7	-45.9	20.8	0.00e+00	0	43	0	723517440	60	4265
2026-01-26 06:11:27.36	358.84	23.85	-44.3	-45.5	21.1	0.00e+00	0	43	0	725614592	60	4074
2026-01-26 06:11:28.37	358.57	23.82	-44.1	-45.3	21.4	0.00e+00	0	43	0	726663168	60	3967
2026-01-26 06:11:29.38	358.29	23.78	-44.2	-45.4	21.3	0.00e+00	0	43	0	728760320	60	4020
2026-01-26 06:11:30.39	358.02	23.74	-44.4	-45.6	21.2	0.00e+00	0	43	0	730857472	60	4133
2026-01-26 06:11:31.39	357.74	23.70	-44.5	-45.8	20.9	0.00e+00	0	43	0	732954624	60	4206
2026-01-26 06:11:32.39	357.47	23.66	-44.9	-46.1	20.6	0.00e+00	0	43	0	735051776	60	4390
2026-01-26 06:11:33.40	357.20	23.62	-45.3	-46.7	20.1	0.00e+00	0	43	0	736100352	61	4407
2026-01-26 06:11:34.41	356.93	23.58	-45.2	-46.6	20.2	0.00e+00	0	43	0	738197504	61	4376
2026-01-26 06:11:35.41	356.66	23.53	-45.6	-47.1	19.8	0.00e+00	0	43	0	740294656	61	4623
2026-01-26 06:11:36.42	356.39	23.49	-45.5	-47.0	19.8	0.00e+00	0	43	0	742391808	62	4309
2026-01-26 06:11:37.43	356.12	23.45	-45.6	-47.0	19.8	0.00e+00	0	43	0	744488960	62	4337
2026-01-26 06:11:38.44	355.85	23.40	-45.3	-46.7	20.1	0.00e+00	0	43	0	745537536	62	4176
2026-01-26 06:11:39.44	355.59	23.36	-45.6	-47.1	19.8	0.00e+00	0	43	0	747634688	62	4351
2026-01-26 06:11:40.44	355.32	23.32	-45.8	-47.3	19.6	0.00e+00	0	43	0	749731840	62	4465
2026-01-26 06:11:41.45	355.06	23.27	-45.9	-47.4	19.4	0.00e+00	0	43	0	751828992	62	4540
2026-01-26 06:11:42.46	354.79	23.22	-46.0	-47.6	19.2	0.00e+00	0	43	0	753926144	62	4626
2026-01-26 06:11:43.47	354.53	23.18	-45.9	-47.5	19.3	0.00e+00	0	43	0	754974720	62	4569
2026-01-26 06:11:44.48	354.26	23.13	-45.8	-47.3	19.5	0.00e+00	0	43	0	757071872	62	4492
2026-01-26 06:11:45.48	354.00	23.08	-45.9	-47.4	19.4	0.00e+00	0	43	0	759169024	62	4531
2026-01-26 06:11:46.49	353.74	23.03	-45.8	-47.3	19.5	0.00e+00	0	43	0	761266176	62	4480
2026-01-26 06:11:47.50	353.48	22.98	-45.7	-47.2	19.6	0.00e+00	0	43	0	763363328	62	4410
2026-01-26 06:11:48.51	353.22	22.93	-45.7	-47.2	19.6	0.00e+00	0	43	0	764411904	62	4410
2026-01-26 06:11:49.51	352.96	22.88	-45.8	-47.3	19.5	0.00e+00	0	43	0	766509056	62	4468
2026-01-26 06:11:50.52	352.70	22.83	-46.0	-47.6	19.2	0.00e+00	0	43	0	768606208	62	4610
2026-01-26 06:11:51.52	352.45	22.78	-46.2	-47.8	19.0	0.00e+00	0	43	0	770703360	62	4730
2026-01-26 06:11:52.53	352.19	22.73	-45.9	-47.5	19.3	0.00e+00	0	43	0	772800512	62	4582
2026-01-26 06:11:53.54	351.93	22.68	-45.9	-47.5	19.3	0.00e+00	0	43	0	773849088	62	4580
2026-01-26 06:11:54.55	351.68	22.62	-45.7	-47.2	19.5	0.00e+00	0	43	0	775946240	62	4427
2026-01-26 06:11:55.55	351.43	22.57	-45.8	-47.4	19.4	0.00e+00	0	43	0	778043392	62	4494
2026-01-26 06:11:56.56	351.17	22.52	-45.8	-47.3	19.4	0.00e+00	0	43	0	780140544	62	4482
2026-01-26 06:11:57.56	350.92	22.46	-45.9	-47.5	19.3	0.00e+00	0	43	0	782237696	62	4593
2026-01-26 06:11:58.57	350.67	22.41	-46.1	-47.8	19.1	0.00e+00	0	43	0	783286272	62	4708
2026-01-26 06:11:59.57	350.42	22.35	-45.8	-47.4	19.4	0.00e+00	0	43	0	785383424	62	4494
2026-01-26 06:12:00.58	350.17	22.30	-45.8	-47.4	19.5	0.00e+00	0	43	0	787480576	62	4501
2026-01-26 06:12:01.59	349.92	22.24	-46.0	-47.6	19.2	0.00e+00	0	43	0	789577728	62	4623
2026-01-26 06:12:02.60	349.68	22.19	-46.2	-47.9	19.0	0.00e+00	0	43	0	791674880	63	4511
2026-01-26 06:12:03.60	349.43	22.13	-46.6	-48.5	18.3	0.00e+00	0	43	0	792723456	64	4556
2026-01-26 06:12:04.61	349.18	22.07	-46.6	-48.4	18.4	0.00e+00	0	43	0	794820608	64	4503
2026-01-26 06:12:05.62	348.94	22.01	-46.2	-47.9	18.8	0.00e+00	0	43	0	796917760	64	4278
2026-01-26 06:12:06.62	348.70	21.95	-46.1	-47.8	19.0	0.00e+00	0	43	0	799014912	64	4201
2026-01-26 06:12:07.63	348.45	21.90	-45.8	-47.4	19.4	0.00e+00	0	43	0	801112064	63	4245
2026-01-26 06:12:08.64	348.21	21.84	-45.8	-47.3	19.4	0.00e+00	0	43	0	802160640	63	4227
2026-01-26 06:12:09.64	347.97	21.78	-45.8	-47.4	19.4	0.00e+00	0	43	0	804257792	63	4248
2026-01-26 06:12:10.65	347.73	21.72	-46.0	-47.6	19.2	0.00e+00	0	43	0	806354944	63	4374
2026-01-26 06:12:11.66	347.49	21.66	-46.3	-48.0	18.8	0.00e+00	0	43	0	808452096	63	4593
2026-01-26 06:12:12.67	347.25	21.60	-46.7	-48.6	18.2	0.00e+00	0	43	0	810549248	64	4614
2026-01-26 06:12:13.68	347.01	21.53	-46.9	-48.9	17.9	0.00e+00	0	43	0	811597824	64	4770
2026-01-26 06:12:14.69	346.78	21.47	-47.1	-49.2	17.5	0.00e+00	0	43	0	813694976	65	4693
2026-01-26 06:12:15.69	346.54	21.41	-46.9	-48.9	17.8	0.00e+00	0	43	0	815792128	65	4514
2026-01-26 06:12:16.70	346.31	21.35	-46.4	-48.2	18.5	0.00e+00	0	43	0	817889280	64	4409
2026-01-26 06:12:17.71	346.07	21.29	-46.0	-47.7	19.1	0.00e+00	0	43	0	819986432	63	4405
2026-01-26 06:12:18.72	345.84	21.22	-45.7	-47.2	19.6	0.00e+00	0	43	0	822083584	63	4173
2026-01-26 06:12:19.72	345.61	21.16	-45.6	-47.1	19.7	0.00e+00	0	43	0	823132160	63	4129
2026-01-26 06:12:20.73	345.38	21.10	-45.3	-46.7	20.0	0.00e+00	0	43	0	825229312	62	4172
2026-01-26 06:12:21.74	345.15	21.03	-45.4	-46.9	19.9	0.00e+00	0	43	0	827326464	62	4263
2026-01-26 06:12:22.75	344.92	20.97	-45.2	-46.7	20.0	0.00e+00	0	43	0	829423616	62	4153
2026-01-26 06:12:23.76	344.69	20.90	-45.0	-46.4	20.2	0.00e+00	0	43	0	830472192	62	4037
2026-01-26 06:12:24.76	344.47	20.84	-45.1	-46.6	20.1	0.00e+00	0	43	0	832569344	61	4358
2026-01-26 06:12:25.77	344.24	20.77	-45.2	-46.6	20.0	0.00e+00	0	43	0	834666496	61	4369
2026-01-26 06:12:26.78	344.01	20.71	-44.9	-46.3	20.3	0.00e+00	0	43	0	836763648	61	4236
2026-01-26 06:12:27.79	343.79	20.64	-44.9	-46.2	20.3	0.00e+00	0	43	0	838860800	61	4184
2026-01-26 06:12:28.80	343.57	20.58	-44.6	-45.9	20.7	0.00e+00	0	43	0	839909376	61	4017
2026-01-26 06:12:29.81	343.34	20.51	-44.3	-45.6	20.9	0.00e+00	0	43	0	842006528	60	4113
2026-01-26 06:12:30.81	343.12	20.44	-44.0	-45.2	21.3	0.00e+00	0	43	0	844103680	60	3923
2026-01-26 06:12:31.82	342.90	20.38	-44.2	-45.4	21.3	0.00e+00	0	43	0	846200832	59	4271
2026-01-26 06:12:32.83	342.68	20.31	-44.2	-45.4	21.3	0.00e+00	0	43	0	848297984	59	4280
2026-01-26 06:12:33.84	342.46	20.24	-44.3	-45.6	21.2	0.00e+00	0	43	0	850395136	59	4356
2026-01-26 06:12:34.85	342.25	20.17	-44.1	-45.4	21.3	0.00e+00	0	43	0	851443712	59	4247
2026-01-26 06:12:35.85	342.03	20.11	-44.5	-45.8	21.0	0.00e+00	0	43	0	853540864	59	4466
2026-01-26 06:12:36.86	341.82	20.04	-44.5	-45.8	20.7	0.00e+00	0	43	0	855638016	60	4239
2026-01-26 06:12:37.87	341.60	19.97	-44.9	-46.3	20.3	0.00e+00	0	43	0	857735168	60	4444
2026-01-26 06:12:38.87	341.39	19.90	-45.1	-46.5	20.1	0.00e+00	0	43	0	858783744	60	4566
2026-01-26 06:12:39.88	341.18	19.83	-45.1	-46.5	20.0	0.00e+00	0	43	0	860880896	60	4574
2026-01-26 06:12:40.89	340.97	19.76	-45.2	-46.6	20.0	0.00e+00	0	43	0	862978048	61	4369
2026-01-26 06:12:41.90	340.75	19.69	-45.3	-46.7	19.8	0.00e+00	0	43	0	865075200	61	4441
2026-01-26 06:12:42.90	340.55	19.62	-45.4	-47.0	19.6	0.00e+00	0	43	0	867172352	61	4555
2026-01-26 06:12:43.91	340.34	19.55	-45.2	-46.7	19.9	0.00e+00	0	43	0	869269504	61	4432
2026-01-26 06:12:44.92	340.13	19.48	-45.3	-46.8	20.0	0.00e+00	0	43	0	870318080	61	4454
2026-01-26 06:12:45.93	339.92	19.41	-45.0	-46.5	20.1	0.00e+00	0	43	0	872415232	61	4298
2026-01-26 06:12:46.94	339.72	19.34	-45.1	-46.5	20.0	0.00e+00	0	43	0	874512384	61	4331
2026-01-26 06:12:47.95	339.51	19.27	-44.7	-46.1	20.4	0.00e+00	0	43	0	876609536	61	4120
2026-01-26 06:12:48.95	339.31	19.20	-44.6	-46.0	20.5	0.00e+00	0	43	0	878706688	61	4072
2026-01-26 06:12:49.96	339.11	19.13	-44.6	-46.0	20.5	0.00e+00	0	43	0	879755264	61	4076
2026-01-26 06:12:50.97	338.90	19.06	-44.6	-46.0	20.5	0.00e+00	0	43	0	881852416	61	4074
2026-01-26 06:12:51.98	338.70	18.99	-44.4	-45.6	20.8	0.00e+00	0	43	0	883949568	60	4144
2026-01-26 06:12:52.98	338.50	18.92	-44.3	-45.5	21.0	0.00e+00	0	43	0	886046720	60	4096
2026-01-26 06:12:53.99	338.30	18.85	-44.3	-45.5	21.0	0.00e+00	0	43	0	887095296	60	4091
2026-01-26 06:12:54.99	338.11	18.77	-44.1	-45.4	21.1	0.00e+00	0	43	0	889192448	60	4013
2026-01-26 06:12:56.00	337.91	18.70	-44.5	-45.8	20.7	0.00e+00	0	43	0	891289600	60	4221
2026-01-26 06:12:57.01	337.71	18.63	-44.7	-46.1	20.4	0.00e+00	0	43	0	893386752	60	4364
2026-01-26 06:12:58.02	337.52	18.56	-45.0	-46.4	20.2	0.00e+00	0	43	0	895483904	60	4507
2026-01-26 06:12:59.02	337.33	18.49	-45.0	-46.4	20.1	0.00e+00	0	43	0	897581056	60	4532
2026-01-26 06:13:00.03	337.13	18.41	-44.7	-46.1	20.4	0.00e+00	0	43	0	898629632	60	4353
2026-01-26 06:13:01.04	336.94	18.34	-44.6	-45.9	20.6	0.00e+00	0	43	0	900726784	60	4262
2026-01-26 06:13:02.04	336.75	18.27	-44.6	-45.9	20.6	0.00e+00	0	43	0	902823936	60	4244
2026-01-26 06:13:03.05	336.56	18.20	-44.8	-46.1	20.4	0.00e+00	0	43	0	904921088	60	4365
2026-01-26 06:13:04.06	336.37	18.12	-44.9	-46.3	20.3	0.00e+00	0	43	0	907018240	60	4442
2026-01-26 06:13:05.06	336.18	18.05	-45.1	-46.6	20.0	0.00e+00	0	43	0	908066816	60	4602
2026-01-26 06:13:06.07	335.99	17.98	-45.2	-46.7	19.9	0.00e+00	0	43	0	910163968	61	4425
2026-01-26 06:13:07.08	335.81	17.90	-45.2	-46.7	19.9	0.00e+00	0	43	0	912261120	61	4414
2026-01-26 06:13:08.09	335.62	17.83	-45.0	-46.4	20.1	0.00e+00	0	43	0	914358272	61	4277
2026-01-26 06:13:09.09	335.44	17.76	-44.8	-46.1	20.4	0.00e+00	0	43	0	915406848	61	4127
2026-01-26 06:13:10.10	335.25	17.68	-44.7	-46.0	20.5	0.00e+00	0	43	0	917504000	61	4095
2026-01-26 06:13:11.11	335.07	17.61	-44.5	-45.8	20.7	0.00e+00	0	43	0	919601152	61	3975
2026-01-26 06:13:12.11	334.89	17.54	-44.5	-45.8	20.7	0.00e+00	0	43	0	921698304	60	4217
2026-01-26 06:13:13.12	334.71	17.46	-44.4	-45.7	20.8	0.00e+00	0	43	0	923795456	60	4152
2026-01-26 06:13:14.12	334.53	17.39	-44.4	-45.7	20.8	0.00e+00	0	43	0	925892608	60	4156
2026-01-26 06:13:15.13	334.35	17.32	-44.2	-45.4	21.0	0.00e+00	0	43	0	926941184	60	4041
2026-01-26 06:13:16.14	334.17	17.24	-44.1	-45.4	21.1	0.00e+00	0	43	0	929038336	60	4006
2026-01-26 06:13:17.15	333.99	17.17	-44.4	-45.6	21.2	0.00e+00	0	43	0	931135488	59	4359
2026-01-26 06:13:18.15	333.81	17.09	-44.6	-45.8	21.0	0.00e+00	0	43	0	933232640	59	4478
2026-01-26 06:13:19.16	333.64	17.02	-44.4	-45.6	20.9	0.00e+00	0	43	0	935329792	60	4142
2026-01-26 06:13:20.17	333.46	16.94	-44.6	-45.9	20.7	0.00e+00	0	43	0	936378368	60	4252
2026-01-26 06:13:21.17	333.29	16.87	-44.5	-45.8	20.8	0.00e+00	0	43	0	938475520	60	4213
2026-01-26 06:13:22.18	333.12	16.80	-44.4	-45.7	20.8	0.00e+00	0	43	0	940572672	60	4181
2026-01-26 06:13:23.19	332.94	16.72	-44.2	-45.4	21.0	0.00e+00	0	43	0	942669824	60	4039
2026-01-26 06:13:24.20	332.77	16.65	-44.3	-45.5	21.3	0.00e+00	0	43	0	943718400	59	4306
2026-01-26 06:13:25.21	332.60	16.57	-44.1	-45.3	21.5	0.00e+00	0	43	0	945815552	59	4195
2026-01-26 06:13:26.21	332.43	16.50	-44.1	-45.2	21.5	0.00e+00	0	43	0	947912704	59	4180
2026-01-26 06:13:27.22	332.26	16.42	-43.9	-45.0	21.7	0.00e+00	0	43	0	950009856	59	4085
2026-01-26 06:13:28.23	332.09	16.35	-43.9	-45.0	21.7	0.00e+00	0	43	0	952107008	59	4097
2026-01-26 06:13:29.24	331.92	16.28	-44.2	-45.4	21.4	0.00e+00	0	43	0	954204160	59	4253
2026-01-26 06:13:30.24	331.76	16.20	-44.4	-45.6	21.2	0.00e+00	0	43	0	955252736	59	4378
2026-01-26 06:13:31.25	331.59	16.13	-44.4	-45.6	21.1	0.00e+00	0	43	0	957349888	59	4390
2026-01-26 06:13:32.26	331.43	16.05	-44.6	-45.8	21.0	0.00e+00	0	43	0	959447040	59	4471
2026-01-26 06:13:33.27	331.26	15.98	-44.5	-45.7	21.1	0.00e+00	0	43	0	961544192	59	4415
2026-01-26 06:13:34.28	331.10	15.90	-44.6	-45.9	20.9	0.00e+00	0	43	0	963641344	59	4525
2026-01-26 06:13:35.29	330.94	15.83	-44.7	-46.0	20.8	0.00e+00	0	43	0	964689920	59	4569
2026-01-26 06:13:36.29	330.78	15.75	-44.6	-45.9	20.6	0.00e+00	0	43	0	966787072	60	4282
2026-01-26 06:13:37.30	330.62	15.68	-44.6	-45.9	20.7	0.00e+00	0	43	0	968884224	60	4258
2026-01-26 06:13:38.31	330.46	15.60	-44.3	-45.5	21.0	0.00e+00	0	43	0	970981376	60	4082
2026-01-26 06:13:39.32	330.30	15.53	-44.1	-45.3	21.1	0.00e+00	0	43	0	973078528	60	3970
2026-01-26 06:13:40.32	330.14	15.45	-44.3	-45.4	21.3	0.00e+00	0	43	0	974127104	59	4286
2026-01-26 06:13:41.33	329.98	15.38	-44.3	-45.5	21.2	0.00e+00	0	43	0	976224256	59	4318
2026-01-26 06:13:42.33	329.83	15.31	-44.1	-45.3	21.4	0.00e+00	0	43	0	978321408	59	4223
2026-01-26 06:13:43.34	329.67	15.23	-44.3	-45.5	21.3	0.00e+00	0	43	0	980418560	59	4294
2026-01-26 06:13:44.35	329.51	15.16	-44.5	-45.8	21.0	0.00e+00	0	43	0	982515712	59	4443
2026-01-26 06:13:45.36	329.36	15.08	-44.4	-45.7	20.7	0.00e+00	0	43	0	983564288	60	4169
2026-01-26 06:13:46.36	329.21	15.01	-44.8	-46.2	20.4	0.00e+00	0	43	0	985661440	60	4398
2026-01-26 06:13:47.37	329.05	14.93	-45.2	-46.7	19.8	0.00e+00	0	43	0	987758592	61	4395
2026-01-26 06:13:48.38	328.90	14.86	-45.5	-47.0	19.6	0.00e+00	0	43	0	989855744	61	4577
2026-01-26 06:13:49.39	328.75	14.78	-45.5	-47.0	19.6	0.00e+00	0	43	0	991952896	61	4573
2026-01-26 06:13:50.40	328.60	14.71	-45.5	-46.9	19.6	0.00e+00	0	43	0	993001472	61	4544
2026-01-26 06:13:51.41	328.45	14.63	-45.2	-46.6	19.9	0.00e+00	0	43	0	995098624	61	4371
2026-01-26 06:13:52.41	328.30	14.56	-45.1	-46.5	20.0	0.00e+00	0	43	0	997195776	61	4321
2026-01-26 06:13:53.42	328.15	14.49	-44.8	-46.1	20.4	0.00e+00	0	43	0	999292928	61	4108
2026-01-26 06:13:54.43	328.01	14.41	-44.7	-46.1	20.4	0.00e+00	0	43	0	1001390080	61	4112
2026-01-26 06:13:55.44	327.86	14.34	-44.7	-46.0	20.4	0.00e+00	0	43	0	1002438656	61	4097
2026-01-26 06:13:56.44	327.71	14.26	-44.8	-46.1	20.4	0.00e+00	0	43	0	1004535808	61	4133
2026-01-26 06:13:57.45	327.57	14.19	-44.7	-46.0	20.4	0.00e+00	0	43	0	1006632960	61	4079
2026-01-26 06:13:58.46	327.42	14.11	-44.6	-45.8	20.6	0.00e+00	0	43	0	1008730112	61	4002
2026-01-26 06:13:59.47	327.28	14.04	-44.7	-46.0	20.5	0.00e+00	0	43	0	1010827264	61	4064
2026-01-26 06:14:00.47	327.14	13.97	-44.6	-45.9	20.5	0.00e+00	0	43	0	1011875840	61	4049
2026-01-26 06:14:01.48	327.00	13.89	-44.6	-45.9	20.6	0.00e+00	0	43	0	1013972992	61	4018
2026-01-26 06:14:02.49	326.85	13.82	-44.6	-46.0	20.5	0.00e+00	0	43	0	1016070144	61	4055
2026-01-26 06:14:03.50	326.71	13.74	-45.0	-46.4	20.1	0.00e+00	0	43	0	1018167296	61	4258
2026-01-26 06:14:04.51	326.57	13.67	-45.2	-46.7	19.8	0.00e+00	0	43	0	1020264448	61	4401
2026-01-26 06:14:05.51	326.43	13.60	-45.6	-47.1	19.5	0.00e+00	0	43	0	1021313024	61	4611
2026-01-26 06:14:06.52	326.30	13.52	-45.9	-47.5	19.1	0.00e+00	0	43	0	1023410176	62	4588
2026-01-26 06:14:07.53	326.16	13.45	-46.1	-47.8	18.9	0.00e+00	0	43	0	1025507328	62	4730
2026-01-26 06:14:08.53	326.02	13.38	-46.2	-47.9	18.7	0.00e+00	0	43	0	1027604480	63	4519
2026-01-26 06:14:09.53	325.89	13.30	-46.0	-47.6	19.1	0.00e+00	0	43	0	1029701632	63	4357
2026-01-26 06:14:10.54	325.75	13.23	-45.9	-47.5	19.1	0.00e+00	0	43	0	1030750208	63	4337
2026-01-26 06:14:11.55	325.61	13.16	-45.6	-47.1	19.4	0.00e+00	0	43	0	1032847360	63	4142
2026-01-26 06:14:12.55	325.48	13.08	-45.5	-47.0	19.6	0.00e+00	0	43	0	1034944512	63	4073
2026-01-26 06:14:13.56	325.35	13.01	-45.2	-46.6	19.9	0.00e+00	0	43	0	1037041664	62	4109
2026-01-26 06:14:14.57	325.21	12.94	-45.2	-46.6	19.9	0.00e+00	0	43	0	1039138816	62	4120
2026-01-26 06:14:15.58	325.08	12.86	-45.0	-46.4	20.1	0.00e+00	0	43	0	1040187392	62	4006
2026-01-26 06:14:16.58	324.95	12.79	-44.9	-46.3	20.2	0.00e+00	0	43	0	1042284544	61	4214
2026-01-26 06:14:17.59	324.82	12.72	-45.1	-46.4	20.0	0.00e+00	0	43	0	1044381696	61	4283
2026-01-26 06:14:18.59	324.69	12.64	-44.9	-46.2	20.2	0.00e+00	0	43	0	1046478848	61	4170
2026-01-26 06:14:19.60	324.56	12.57	-45.0	-46.3	20.1	0.00e+00	0	43	0	1048576000	61	4225
2026-01-26 06:14:20.61	324.43	12.50	-45.0	-46.4	20.1	0.00e+00	0	43	0	1049624576	61	4260
2026-01-26 06:14:21.62	324.30	12.42	-45.1	-46.5	20.0	0.00e+00	0	43	0	1051721728	61	4313
2026-01-26 06:14:22.63	324.17	12.35	-45.0	-46.4	20.1	0.00e+00	0	43	0	1053818880	61	4249
2026-01-26 06:14:23.64	324.05	12.28	-45.0	-46.4	20.1	0.00e+00	0	43	0	1055916032	61	4249
2026-01-26 06:14:24.64	323.92	12.21	-45.1	-46.4	20.0	0.00e+00	0	43	0	1058013184	61	4290
2026-01-26 06:14:25.65	323.79	12.13	-45.2	-46.5	19.9	0.00e+00	0	43	0	1059061760	61	4336
2026-01-26 06:14:26.66	323.67	12.06	-45.3	-46.7	19.7	0.00e+00	0	43	0	1061158912	61	4415
2026-01-26 06:14:27.66	323.54	11.99	-45.1	-46.5	20.0	0.00e+00	0	43	0	1063256064	61	4302
2026-01-26 06:14:28.67	323.42	11.92	-45.2	-46.6	19.8	0.00e+00	0	43	0	1065353216	61	4365
2026-01-26 06:14:29.68	323.30	11.85	-45.3	-46.8	19.7	0.00e+00	0	43	0	1067450368	61	4450
2026-01-26 06:14:30.69	323.17	11.77	-45.6	-47.1	19.4	0.00e+00	0	43	0	1068498944	61	4626
2026-01-26 06:14:31.69	323.05	11.70	-45.6	-47.2	19.3	0.00e+00	0	43	0	1070596096	61	4659
2026-01-26 06:14:32.70	322.93	11.63	-45.6	-47.2	19.3	0.00e+00	0	43	0	1072693248	61	4668
2026-01-26 06:14:33.71	322.81	11.56	-45.8	-47.3	19.1	0.00e+00	0	43	0	1074790400	62	4478
2026-01-26 06:14:34.72	322.69	11.49	-45.7	-47.3	19.2	0.00e+00	0	43	0	1076887552	62	4459
2026-01-26 06:14:35.72	322.57	11.41	-46.0	-47.6	18.9	0.00e+00	0	43	0	1078984704	62	4642
2026-01-26 06:14:36.73	322.45	11.34	-46.2	-47.8	18.7	0.00e+00	0	43	0	1080033280	62	4743
2026-01-26 06:14:37.74	322.33	11.27	-46.0	-47.7	18.8	0.00e+00	0	43	0	1082130432	62	4673
2026-01-26 06:14:38.75	322.21	11.20	-46.1	-47.8	18.7	0.00e+00	0	43	0	1084227584	62	4731
2026-01-26 06:14:39.75	322.10	11.13	-46.1	-47.7	18.7	0.00e+00	0	43	0	1086324736	62	4702
2026-01-26 06:14:40.76	321.98	11.06	-46.1	-47.8	18.7	0.00e+00	0	43	0	1087373312	63	4443
2026-01-26 06:14:41.77	321.86	10.99	-46.2	-47.9	18.6	0.00e+00	0	43	0	1089470464	63	4506
2026-01-26 06:14:42.78	321.75	10.91	-46.5	-48.3	18.2	0.00e+00	0	43	0	1091567616	63	4738
2026-01-26 06:14:43.79	321.63	10.84	-46.3	-48.0	18.4	0.00e+00	0	43	0	1093664768	63	4592
2026-01-26 06:14:44.80	321.52	10.77	-46.3	-48.1	18.4	0.00e+00	0	43	0	1095761920	63	4608
2026-01-26 06:14:45.81	321.40	10.70	-46.3	-48.1	18.5	0.00e+00	0	43	0	1096810496	63	4603
2026-01-26 06:14:46.81	321.29	10.63	-46.2	-47.9	18.6	0.00e+00	0	43	0	1098907648	63	4503
2026-01-26 06:14:47.82	321.18	10.56	-46.1	-47.8	18.7	0.00e+00	0	43	0	1101004800	63	4454
2026-01-26 06:14:48.83	321.07	10.49	-46.0	-47.6	18.8	0.00e+00	0	43	0	1103101952	63	4360
2026-01-26 06:14:49.84	320.95	10.42	-45.9	-47.4	19.0	0.00e+00	0	43	0	1105199104	63	4286
2026-01-26 06:14:50.84	320.84	10.35	-45.6	-47.1	19.3	0.00e+00	0	43	0	1107296256	63	4132
2026-01-26 06:14:51.85	320.73	10.28	-45.8	-47.4	19.0	0.00e+00	0	43	0	1108344832	63	4263
2026-01-26 06:14:52.86	320.62	10.21	-45.9	-47.5	18.9	0.00e+00	0	43	0	1110441984	63	4318
2026-01-26 06:14:53.87	320.51	10.14	-45.8	-47.4	19.1	0.00e+00	0	43	0	1112539136	63	4244
2026-01-26 06:14:54.87	320.41	10.07	-45.7	-47.3	19.1	0.00e+00	0	43	0	1114636288	63	4202
2026-01-26 06:14:55.88	320.30	10.00	-45.8	-47.3	19.1	0.00e+00	0	43	0	1115684864	63	4214
2026-01-26 06:14:56.89	320.19	9.93	-46.1	-47.8	18.7	0.00e+00	0	44	0	1117782016	63	4445
2026-01-26 06:14:57.89	320.08	9.86	-46.1	-47.8	18.6	0.00e+00	0	43	0	1119879168	63	4470
2026-01-26 06:14:58.90	319.98	9.79	-46.5	-48.3	18.2	0.00e+00	0	43	0	1121976320	63	4722
2026-01-26 06:14:59.91	319.87	9.72	-46.5	-48.2	18.2	0.00e+00	0	43	0	1124073472	63	4697
2026-01-26 06:15:00.92	319.76	9.65	-46.5	-48.3	18.1	0.00e+00	0	43	0	1126170624	63	4745
2026-01-26 06:15:01.93	319.66	9.58	-46.5	-48.3	18.1	0.00e+00	0	43	0	1127219200	64	4457
2026-01-26 06:15:02.93	319.55	9.51	-46.5	-48.3	18.0	0.00e+00	0	43	0	1129316352	64	4444
2026-01-26 06:15:03.94	319.45	9.44	-46.4	-48.2	18.1	0.00e+00	0	43	0	1131413504	64	4430
2026-01-26 06:15:04.95	319.35	9.37	-46.5	-48.3	18.0	0.00e+00	0	43	0	1133510656	64	4457
2026-01-26 06:15:05.95	319.24	9.31	-46.2	-47.9	18.3	0.00e+00	0	43	0	1135607808	64	4269
2026-01-26 06:15:06.96	319.14	9.24	-46.1	-47.8	18.4	0.00e+00	0	43	0	1136656384	64	4241
2026-01-26 06:15:07.97	319.04	9.17	-46.2	-48.0	18.3	0.00e+00	0	43	0	1138753536	64	4301
2026-01-26 06:15:08.98	318.94	9.10	-46.4	-48.1	18.2	0.00e+00	0	43	0	1140850688	64	4373
2026-01-26 06:15:09.99	318.83	9.03	-46.1	-47.8	18.5	0.00e+00	0	43	0	1142947840	64	4226
2026-01-26 06:15:11.00	318.73	8.96	-46.2	-48.0	18.3	0.00e+00	0	43	0	1143996416	64	4299
2026-01-26 06:15:12.01	318.63	8.89	-46.0	-47.6	18.6	0.00e+00	0	43	0	1146093568	64	4137
2026-01-26 06:15:13.01	318.53	8.83	-46.3	-48.0	18.3	0.00e+00	0	43	0	1148190720	63	4566
2026-01-26 06:15:14.02	318.43	8.76	-46.0	-47.6	18.7	0.00e+00	0	43	0	1150287872	63	4385
2026-01-26 06:15:15.03	318.34	8.69	-46.3	-48.0	18.4	0.00e+00	0	43	0	1152385024	63	4560
2026-01-26 06:15:16.04	318.24	8.62	-46.4	-48.1	18.2	0.00e+00	0	43	0	1154482176	63	4641
2026-01-26 06:15:17.04	318.14	8.55	-46.4	-48.2	18.2	0.00e+00	0	43	0	1155530752	63	4655
2026-01-26 06:15:18.05	318.04	8.49	-46.5	-48.4	18.0	0.00e+00	0	43	0	1157627904	63	4765
2026-01-26 06:15:19.06	317.95	8.42	-46.6	-48.4	17.9	0.00e+00	0	43	0	1159725056	63	4809
2026-01-26 06:15:20.07	317.85	8.35	-46.6	-48.5	17.7	0.00e+00	0	43	0	1161822208	64	4588
2026-01-26 06:15:21.07	317.75	8.28	-46.6	-48.5	17.7	0.00e+00	0	43	0	1163919360	64	4580
2026-01-26 06:15:22.08	317.66	8.22	-46.6	-48.4	17.8	0.00e+00	0	43	0	1164967936	64	4543
2026-01-26 06:15:23.09	317.56	8.15	-46.8	-48.7	17.5	0.00e+00	0	43	0	1167065088	64	4690
2026-01-26 06:15:24.10	317.47	8.08	-47.0	-49.0	17.2	0.00e+00	0	43	0	1169162240	64	4848
2026-01-26 06:15:25.10	317.37	8.01	-47.1	-49.2	17.0	0.00e+00	0	43	0	1171259392	64	4969
2026-01-26 06:15:26.11	317.28	7.95	-47.4	-49.6	16.7	0.00e+00	0	43	0	1172307968	65	4873
2026-01-26 06:15:27.12	317.19	7.88	-47.3	-49.4	16.8	0.00e+00	0	43	0	1174405120	65	4803
2026-01-26 06:15:28.13	317.09	7.81	-47.3	-49.4	16.8	0.00e+00	0	43	0	1176502272	65	4784
2026-01-26 06:15:29.13	317.00	7.75	-47.1	-49.2	17.0	0.00e+00	0	43	0	1178599424	65	4687
2026-01-26 06:15:30.14	316.91	7.68	-47.2	-49.3	17.0	0.00e+00	0	43	0	1180696576	65	4706
2026-01-26 06:15:31.15	316.82	7.61	-47.3	-49.4	16.8	0.00e+00	0	43	0	1182793728	65	4783
2026-01-26 06:15:32.16	316.73	7.55	-47.2	-49.3	16.9	0.00e+00	0	43	0	1183842304	65	4712
2026-01-26 06:15:33.16	316.64	7.48	-47.3	-49.4	16.8	0.00e+00	0	43	0	1185939456	65	4786
2026-01-26 06:15:34.17	316.55	7.42	-47.1	-49.2	17.0	0.00e+00	0	43	0	1188036608	65	4677
2026-01-26 06:15:35.18	316.46	7.35	-47.1	-49.2	17.0	0.00e+00	0	43	0	1190133760	65	4671
2026-01-26 06:15:36.18	316.37	7.28	-47.2	-49.2	16.9	0.00e+00	0	43	0	1192230912	65	4700
2026-01-26 06:15:37.19	316.28	7.22	-47.2	-49.3	16.9	0.00e+00	0	43	0	1193279488	65	4728
2026-01-26 06:15:38.20	316.19	7.15	-47.2	-49.2	16.9	0.00e+00	0	43	0	1195376640	65	4704
2026-01-26 06:15:39.20	316.10	7.09	-47.4	-49.6	16.5	0.00e+00	0	43	0	1197473792	65	4907
2026-01-26 06:15:40.21	316.02	7.02	-47.2	-49.2	16.9	0.00e+00	0	43	0	1199570944	65	4696
2026-01-26 06:15:41.22	315.93	6.96	-47.3	-49.4	16.7	0.00e+00	0	43	0	1201668096	65	4795
2026-01-26 06:15:42.23	315.84	6.89	-47.1	-49.2	16.9	0.00e+00	0	43	0	1202716672	65	4657
2026-01-26 06:15:43.23	315.75	6.83	-47.5	-49.8	16.2	0.00e+00	0	43	0	1204813824	65	5021
2026-01-26 06:15:44.24	315.67	6.76	-47.8	-50.1	16.0	0.00e+00	0	43	0	1206910976	66	4924
2026-01-26 06:15:45.25	315.58	6.70	-47.7	-50.0	16.1	0.00e+00	0	43	0	1209008128	66	4838
2026-01-26 06:15:46.26	315.50	6.63	-47.8	-50.3	15.8	0.00e+00	0	43	0	1211105280	66	5000
2026-01-26 06:15:47.27	315.41	6.57	-47.9	-50.4	15.7	0.00e+00	0	43	0	1212153856	66	5049
2026-01-26 06:15:48.27	315.33	6.50	-47.9	-50.4	15.7	0.00e+00	0	43	0	1214251008	66	5060
2026-01-26 06:15:49.28	315.24	6.44	-47.8	-50.3	15.7	0.00e+00	0	43	0	1216348160	66	5013
2026-01-26 06:15:50.28	315.16	6.37	-47.9	-50.5	15.5	0.00e+00	0	43	0	1218445312	66	5136
2026-01-26 06:15:51.29	315.08	6.31	-47.9	-50.5	15.5	0.00e+00	0	43	0	1220542464	66	5141
2026-01-26 06:15:52.29	314.99	6.25	-47.8	-50.2	15.8	0.00e+00	0	43	0	1221591040	66	4973
2026-01-26 06:15:53.31	314.91	6.18	-48.0	-50.7	15.3	0.00e+00	0	43	0	1223688192	66	5224
2026-01-26 06:15:54.31	314.83	6.12	-47.8	-50.3	15.7	0.00e+00	0	43	0	1225785344	66	5022
