passes_logs/2026/01/26/R3.2S_Murmansk/R3.2S_Murmansk__20260126_230607_SUOMI_NPP_rec.log

#Pass ID: 20260126_230607_SUOMI NPP
#Satellite: SUOMI NPP
#Configuration: NPP
#almurnet v.1.7.20251203
#Start time: 2026-01-26 23:06:08

#Version: 2.2.20231116
#Station: R3.2S_Murmansk
#Location: 33.079688 lon 68.888172 lat
#TLE: 1 37849U 11061A   26026.52266023  .00000173  00000+0  10323-3 0  9994
#TLE: 2 37849  98.7822 328.4727 0002140  43.9411 316.1934 14.19530258738341

#Time	Az	El	Level	Level2	SNR	BER	BlckErr	Temp	State	Recorded	gain1	gain2
2026-01-26 23:06:08.79	19.97	2.10	-54.1	-69.1	3.8	1.49e+00	0	41	0	0	79	20671
2026-01-26 23:06:09.79	20.03	2.16	-54.3	-69.3	3.8	1.49e+00	0	41	104	0	79	21110
2026-01-26 23:06:10.80	20.08	2.22	-54.3	-69.3	3.8	1.49e+00	0	41	104	0	79	21059
2026-01-26 23:06:11.81	20.13	2.28	-54.3	-69.3	3.8	1.49e+00	0	41	104	0	79	21115
2026-01-26 23:06:12.82	20.18	2.34	-54.3	-69.3	3.8	1.49e+00	0	41	104	0	79	21067
2026-01-26 23:06:13.82	20.23	2.40	-54.3	-69.3	3.8	1.49e+00	0	41	104	0	79	21039
2026-01-26 23:06:14.83	20.28	2.46	-54.3	-69.2	3.8	1.49e+00	0	41	104	0	79	20965
2026-01-26 23:06:15.84	20.34	2.52	-54.2	-69.2	3.8	1.49e+00	0	41	104	0	79	20926
2026-01-26 23:06:16.85	20.39	2.58	-54.2	-69.1	3.8	1.49e+00	0	41	104	0	79	20723
2026-01-26 23:06:17.86	20.44	2.65	-54.1	-69.1	3.8	1.49e+00	0	41	104	0	79	20677
2026-01-26 23:06:18.86	20.50	2.71	-54.1	-69.1	3.8	1.49e+00	0	41	104	0	79	20709
2026-01-26 23:06:19.86	20.55	2.77	-54.1	-69.1	3.8	1.49e+00	0	41	104	0	79	20614
2026-01-26 23:06:20.87	20.60	2.83	-54.0	-69.0	3.8	1.49e+00	0	42	104	0	79	20514
2026-01-26 23:06:21.88	20.66	2.89	-54.0	-69.0	3.8	1.49e+00	0	41	104	0	79	20331
2026-01-26 23:06:22.89	20.71	2.95	-53.9	-68.9	3.8	1.49e+00	0	41	104	0	79	20171
2026-01-26 23:06:23.90	20.76	3.01	-53.8	-68.8	3.8	1.49e+00	0	41	104	0	79	20028
2026-01-26 23:06:24.90	20.82	3.07	-53.7	-68.7	3.8	1.49e+00	0	41	104	0	79	19622
2026-01-26 23:06:25.91	20.87	3.14	-53.6	-68.6	3.8	1.49e+00	0	41	104	0	79	19407
2026-01-26 23:06:26.92	20.93	3.20	-53.4	-68.4	3.8	1.49e+00	0	41	104	0	78	20146
2026-01-26 23:06:27.93	20.98	3.26	-53.2	-68.2	3.8	1.49e+00	0	41	104	0	78	19712
2026-01-26 23:06:28.93	21.04	3.32	-52.9	-67.9	3.8	1.49e+00	0	41	104	0	77	20110
2026-01-26 23:06:29.94	21.09	3.38	-52.4	-67.2	3.8	1.49e+00	0	42	104	0	76	19827
2026-01-26 23:06:30.94	21.15	3.45	-52.2	-66.6	3.8	1.49e+00	0	42	104	0	76	18311
2026-01-26 23:06:31.95	21.20	3.51	-52.2	-66.4	3.8	1.49e+00	0	41	104	0	76	18044
2026-01-26 23:06:32.97	21.26	3.57	-52.2	-66.4	3.8	1.49e+00	0	42	104	0	76	18025
2026-01-26 23:06:33.97	21.32	3.63	-52.2	-66.3	3.8	1.49e+00	0	42	104	0	76	17762
2026-01-26 23:06:34.98	21.37	3.70	-52.2	-66.3	3.8	1.49e+00	0	42	104	0	76	17838
2026-01-26 23:06:35.99	21.43	3.76	-52.2	-66.4	3.8	1.49e+00	0	42	104	0	76	17915
2026-01-26 23:06:37.00	21.49	3.82	-52.1	-65.5	3.8	1.49e+00	0	42	104	0	76	16255
2026-01-26 23:06:38.00	21.54	3.89	-52.0	-63.9	4.1	1.45e+00	0	42	0	0	76	13451
2026-01-26 23:06:39.01	21.60	3.95	-51.9	-62.0	4.8	1.26e+00	0	42	0	0	75	11434
2026-01-26 23:06:40.01	21.66	4.01	-51.6	-59.6	6.3	4.13e-01	0	42	0	2097152	75	8735
2026-01-26 23:06:41.02	21.71	4.08	-51.2	-57.7	8.1	9.63e-02	0	42	0	4194304	74	7389
2026-01-26 23:06:42.03	21.77	4.14	-50.9	-56.7	9.1	5.51e-02	0	42	0	6291456	73	6996
2026-01-26 23:06:43.03	21.83	4.20	-50.4	-55.2	10.7	7.73e-03	0	42	0	8388608	72	6210
2026-01-26 23:06:44.04	21.89	4.27	-49.8	-53.6	12.3	4.72e-04	0	42	0	9437184	71	5528
2026-01-26 23:06:45.05	21.95	4.33	-49.5	-53.1	13.0	4.04e-05	0	42	0	11534336	70	5503
2026-01-26 23:06:46.05	22.01	4.40	-49.4	-52.9	13.2	5.72e-05	0	42	0	13631488	70	5357
2026-01-26 23:06:47.06	22.06	4.46	-48.8	-51.9	14.2	7.00e-07	0	42	0	15728640	69	5062
2026-01-26 23:06:48.07	22.12	4.53	-49.0	-52.2	13.9	1.29e-05	0	42	0	17825792	69	5233
2026-01-26 23:06:49.08	22.18	4.59	-48.8	-51.9	14.2	7.00e-07	0	42	0	18874368	69	5055
2026-01-26 23:06:50.08	22.24	4.65	-49.4	-53.0	13.1	9.90e-06	0	42	0	20971520	69	5768
2026-01-26 23:06:51.09	22.30	4.72	-49.4	-53.0	13.0	2.59e-05	0	42	0	23068672	69	5763
2026-01-26 23:06:52.10	22.36	4.78	-50.1	-54.4	11.7	3.57e-04	0	42	0	25165824	70	6398
2026-01-26 23:06:53.10	22.42	4.85	-50.6	-55.8	10.1	3.46e-03	0	42	0	27262976	71	7085
2026-01-26 23:06:54.11	22.49	4.91	-51.0	-57.0	8.8	1.66e-02	0	42	0	28311552	72	7688
2026-01-26 23:06:55.12	22.55	4.98	-51.4	-58.8	7.1	7.81e-02	0	42	0	30408704	73	8896
2026-01-26 23:06:56.13	22.61	5.05	-51.7	-61.0	5.4	2.88e-01	0	42	0	32505856	73	11428
2026-01-26 23:06:57.13	22.67	5.11	-49.9	-53.9	12.2	6.23e-04	0	42	0	34603008	71	5710
2026-01-26 23:06:58.14	22.73	5.18	-49.9	-53.9	12.3	7.78e-05	0	42	0	36700160	71	5671
2026-01-26 23:06:59.15	22.79	5.24	-52.1	-66.7	3.8	9.00e-01	0	42	104	36700160	74	20819
2026-01-26 23:07:00.16	22.86	5.31	-52.0	-63.3	4.2	1.46e+00	0	42	104	36700160	74	14079
2026-01-26 23:07:01.16	22.92	5.38	-48.7	-51.5	14.6	0.00e+00	0	42	0	37748736	68	5142
2026-01-26 23:07:02.17	22.98	5.44	-48.4	-51.0	15.2	0.00e+00	0	42	0	39845888	68	4843
2026-01-26 23:07:03.18	23.04	5.51	-48.7	-51.6	14.7	0.00e+00	0	42	0	41943040	68	5171
2026-01-26 23:07:04.18	23.11	5.58	-48.8	-51.6	14.6	1.50e-06	0	42	0	42991616	68	5213
2026-01-26 23:07:05.19	23.17	5.64	-48.6	-51.4	14.9	7.00e-07	0	42	0	45088768	68	5071
2026-01-26 23:07:06.20	23.24	5.71	-48.7	-51.6	14.7	0.00e+00	0	42	0	47185920	68	5160
2026-01-26 23:07:07.21	23.30	5.78	-48.8	-51.7	14.6	0.00e+00	0	42	0	49283072	68	5222
2026-01-26 23:07:08.22	23.36	5.84	-49.1	-52.2	14.2	7.00e-07	0	42	0	51380224	68	5529
2026-01-26 23:07:09.22	23.43	5.91	-48.9	-51.8	14.5	0.00e+00	0	42	0	52428800	68	5289
2026-01-26 23:07:10.23	23.49	5.98	-48.8	-51.6	14.7	0.00e+00	0	42	0	54525952	68	5209
2026-01-26 23:07:11.23	23.56	6.05	-48.5	-51.2	15.1	0.00e+00	0	42	0	56623104	68	4965
2026-01-26 23:07:12.24	23.62	6.11	-48.6	-51.3	15.1	0.00e+00	0	42	0	58720256	68	4994
2026-01-26 23:07:13.25	23.69	6.18	-48.2	-50.8	15.6	0.00e+00	0	42	0	60817408	68	4722
2026-01-26 23:07:14.25	23.76	6.25	-48.6	-51.4	14.9	0.00e+00	0	43	0	61865984	68	5082
2026-01-26 23:07:15.26	23.82	6.32	-48.3	-50.8	15.5	0.00e+00	0	42	0	63963136	68	4720
2026-01-26 23:07:16.27	23.89	6.39	-48.3	-50.9	15.5	0.00e+00	0	43	0	66060288	68	4773
2026-01-26 23:07:17.28	23.96	6.46	-48.2	-50.6	15.8	0.00e+00	0	42	0	68157440	68	4620
2026-01-26 23:07:18.29	24.02	6.53	-48.4	-50.9	15.5	0.00e+00	0	42	0	70254592	68	4791
2026-01-26 23:07:19.29	24.09	6.59	-48.1	-50.5	15.8	0.00e+00	0	43	0	72351744	68	4549
2026-01-26 23:07:20.30	24.16	6.66	-48.1	-50.5	15.8	0.00e+00	0	42	0	73400320	67	4828
2026-01-26 23:07:21.31	24.23	6.73	-48.2	-50.7	15.6	0.00e+00	0	42	0	75497472	67	4943
2026-01-26 23:07:22.32	24.30	6.80	-48.2	-50.6	15.6	0.00e+00	0	42	0	77594624	67	4926
2026-01-26 23:07:23.33	24.37	6.87	-47.9	-50.2	16.1	0.00e+00	0	42	0	79691776	67	4671
2026-01-26 23:07:24.34	24.43	6.94	-48.0	-50.4	15.9	0.00e+00	0	42	0	80740352	67	4801
2026-01-26 23:07:25.35	24.50	7.01	-47.5	-49.6	16.7	0.00e+00	0	42	0	82837504	67	4390
2026-01-26 23:07:26.36	24.57	7.08	-47.8	-50.1	16.3	0.00e+00	0	42	0	84934656	67	4610
2026-01-26 23:07:27.37	24.64	7.15	-47.6	-49.8	16.6	0.00e+00	0	42	0	87031808	67	4462
2026-01-26 23:07:28.37	24.71	7.22	-47.8	-50.0	16.3	0.00e+00	0	42	0	89128960	66	4864
2026-01-26 23:07:29.38	24.78	7.29	-47.5	-49.6	16.7	0.00e+00	0	42	0	90177536	66	4635
2026-01-26 23:07:30.39	24.86	7.36	-47.5	-49.5	16.9	0.00e+00	0	42	0	92274688	66	4595
2026-01-26 23:07:31.39	24.93	7.43	-47.4	-49.5	16.9	0.00e+00	0	42	0	94371840	66	4566
2026-01-26 23:07:32.40	25.00	7.51	-47.6	-49.7	16.7	0.00e+00	0	42	0	96468992	66	4688
2026-01-26 23:07:33.40	25.07	7.58	-47.0	-48.9	17.5	0.00e+00	0	43	0	98566144	66	4282
2026-01-26 23:07:34.41	25.14	7.65	-47.3	-49.3	17.1	0.00e+00	0	42	0	100663296	66	4466
2026-01-26 23:07:35.42	25.22	7.72	-47.4	-49.4	17.0	0.00e+00	0	43	0	101711872	66	4539
2026-01-26 23:07:36.43	25.29	7.79	-47.1	-49.0	17.4	0.00e+00	0	42	0	103809024	66	4325
2026-01-26 23:07:37.43	25.36	7.86	-47.2	-49.2	17.2	0.00e+00	0	42	0	105906176	66	4410
2026-01-26 23:07:38.44	25.44	7.93	-47.3	-49.3	17.2	0.00e+00	0	43	0	108003328	66	4477
2026-01-26 23:07:39.45	25.51	8.01	-47.3	-49.3	17.2	0.00e+00	0	43	0	109051904	66	4442
2026-01-26 23:07:40.46	25.58	8.08	-47.2	-49.1	17.3	0.00e+00	0	42	0	111149056	66	4368
2026-01-26 23:07:41.46	25.66	8.15	-47.2	-49.1	17.3	0.00e+00	0	42	0	113246208	66	4382
2026-01-26 23:07:42.47	25.73	8.22	-47.2	-49.1	17.3	0.00e+00	0	42	0	115343360	66	4386
2026-01-26 23:07:43.48	25.81	8.30	-47.0	-48.8	17.6	0.00e+00	0	42	0	117440512	65	4485
2026-01-26 23:07:44.48	25.88	8.37	-47.1	-49.1	17.4	0.00e+00	0	42	0	118489088	65	4609
2026-01-26 23:07:45.49	25.96	8.44	-47.2	-49.1	17.3	0.00e+00	0	42	0	120586240	65	4622
2026-01-26 23:07:46.49	26.04	8.52	-47.1	-49.0	17.5	0.00e+00	0	43	0	122683392	65	4546
2026-01-26 23:07:47.50	26.11	8.59	-47.0	-48.9	17.6	0.00e+00	0	42	0	124780544	65	4508
2026-01-26 23:07:48.51	26.19	8.66	-47.0	-48.9	17.5	0.00e+00	0	42	0	126877696	65	4534
2026-01-26 23:07:49.52	26.27	8.74	-47.1	-49.0	17.5	0.00e+00	0	43	0	128974848	65	4584
2026-01-26 23:07:50.52	26.35	8.81	-46.8	-48.6	17.9	0.00e+00	0	43	0	130023424	65	4350
2026-01-26 23:07:51.52	26.42	8.88	-47.0	-48.9	17.6	0.00e+00	0	42	0	132120576	65	4535
2026-01-26 23:07:52.53	26.50	8.96	-46.6	-48.4	18.1	0.00e+00	0	43	0	134217728	65	4247
2026-01-26 23:07:53.54	26.58	9.03	-46.7	-48.5	18.0	0.00e+00	0	42	0	136314880	65	4322
2026-01-26 23:07:54.55	26.66	9.11	-46.9	-48.7	17.8	0.00e+00	0	43	0	137363456	65	4417
2026-01-26 23:07:55.56	26.74	9.18	-46.8	-48.6	17.9	0.00e+00	0	43	0	139460608	65	4362
2026-01-26 23:07:56.56	26.82	9.26	-46.4	-48.0	18.4	0.00e+00	0	43	0	141557760	64	4322
2026-01-26 23:07:57.57	26.90	9.33	-46.5	-48.2	18.3	0.00e+00	0	43	0	143654912	64	4419
2026-01-26 23:07:58.58	26.98	9.41	-46.7	-48.4	18.1	0.00e+00	0	43	0	145752064	64	4536
2026-01-26 23:07:59.58	27.06	9.48	-46.4	-48.1	18.3	0.00e+00	0	43	0	146800640	64	4375
2026-01-26 23:08:00.59	27.15	9.56	-46.5	-48.1	18.4	0.00e+00	0	43	0	148897792	64	4383
2026-01-26 23:08:01.60	27.23	9.64	-46.3	-47.9	18.6	0.00e+00	0	43	0	150994944	64	4277
2026-01-26 23:08:02.61	27.31	9.71	-46.3	-47.9	18.6	0.00e+00	0	43	0	153092096	64	4256
2026-01-26 23:08:03.62	27.39	9.79	-46.3	-47.9	18.6	0.00e+00	0	43	0	155189248	64	4290
2026-01-26 23:08:04.63	27.48	9.87	-46.3	-48.0	18.5	0.00e+00	0	43	0	157286400	64	4309
2026-01-26 23:08:05.63	27.56	9.94	-46.4	-48.1	18.4	0.00e+00	0	43	0	158334976	64	4361
2026-01-26 23:08:06.64	27.64	10.02	-46.2	-47.8	18.7	0.00e+00	0	43	0	160432128	64	4211
2026-01-26 23:08:07.65	27.73	10.10	-46.1	-47.7	18.8	0.00e+00	0	43	0	162529280	64	4162
2026-01-26 23:08:08.65	27.81	10.17	-46.4	-48.0	18.5	0.00e+00	0	43	0	164626432	64	4329
2026-01-26 23:08:09.66	27.90	10.25	-46.3	-47.9	18.7	0.00e+00	0	43	0	165675008	64	4251
2026-01-26 23:08:10.67	27.99	10.33	-46.2	-47.8	18.7	0.00e+00	0	42	0	167772160	64	4225
2026-01-26 23:08:11.68	28.07	10.41	-46.2	-47.8	18.7	0.00e+00	0	43	0	169869312	64	4241
2026-01-26 23:08:12.69	28.16	10.49	-45.9	-47.5	19.2	0.00e+00	0	43	0	171966464	63	4293
2026-01-26 23:08:13.70	28.25	10.57	-46.0	-47.6	19.1	0.00e+00	0	43	0	174063616	63	4347
2026-01-26 23:08:14.71	28.33	10.64	-46.1	-47.6	19.0	0.00e+00	0	43	0	176160768	63	4377
2026-01-26 23:08:15.72	28.42	10.72	-45.9	-47.4	19.2	0.00e+00	0	42	0	177209344	63	4273
2026-01-26 23:08:16.73	28.51	10.80	-45.8	-47.3	19.3	0.00e+00	0	43	0	179306496	63	4210
2026-01-26 23:08:17.73	28.60	10.88	-45.9	-47.4	19.2	0.00e+00	0	43	0	181403648	63	4279
2026-01-26 23:08:18.74	28.69	10.96	-45.6	-47.0	19.6	0.00e+00	0	42	0	183500800	63	4067
2026-01-26 23:08:19.75	28.78	11.04	-45.7	-47.1	19.5	0.00e+00	0	43	0	185597952	63	4116
2026-01-26 23:08:20.76	28.87	11.12	-45.7	-47.1	19.5	0.00e+00	0	43	0	186646528	63	4129
2026-01-26 23:08:21.76	28.96	11.20	-45.6	-47.0	19.6	0.00e+00	0	43	0	188743680	63	4052
2026-01-26 23:08:22.77	29.05	11.28	-45.8	-47.3	19.4	0.00e+00	0	43	0	190840832	62	4454
2026-01-26 23:08:23.78	29.14	11.36	-45.7	-47.2	19.5	0.00e+00	0	43	0	192937984	62	4395
2026-01-26 23:08:24.79	29.24	11.44	-45.4	-46.7	19.9	0.00e+00	0	43	0	193986560	62	4169
2026-01-26 23:08:25.80	29.33	11.52	-45.5	-46.9	19.8	0.00e+00	0	43	0	196083712	62	4262
2026-01-26 23:08:26.80	29.42	11.60	-45.6	-47.0	19.7	0.00e+00	0	43	0	198180864	62	4292
2026-01-26 23:08:27.81	29.52	11.68	-45.6	-47.0	19.6	0.00e+00	0	43	0	200278016	62	4325
2026-01-26 23:08:28.82	29.61	11.76	-45.7	-47.1	19.6	0.00e+00	0	43	0	202375168	62	4352
2026-01-26 23:08:29.83	29.70	11.85	-45.7	-47.1	19.6	0.00e+00	0	43	0	204472320	62	4356
2026-01-26 23:08:30.84	29.80	11.93	-45.7	-47.2	19.5	0.00e+00	0	43	0	205520896	62	4412
2026-01-26 23:08:31.85	29.90	12.01	-45.9	-47.4	19.3	0.00e+00	0	43	0	207618048	62	4515
2026-01-26 23:08:32.86	29.99	12.09	-45.9	-47.3	19.3	0.00e+00	0	43	0	209715200	62	4492
2026-01-26 23:08:33.86	30.09	12.17	-45.9	-47.4	19.3	0.00e+00	0	43	0	211812352	62	4523
2026-01-26 23:08:34.87	30.19	12.26	-45.8	-47.3	19.4	0.00e+00	0	43	0	213909504	62	4456
2026-01-26 23:08:35.88	30.28	12.34	-45.5	-46.9	19.8	0.00e+00	0	43	0	214958080	62	4288
2026-01-26 23:08:36.89	30.38	12.42	-46.0	-47.5	19.2	0.00e+00	0	43	0	217055232	62	4587
2026-01-26 23:08:37.89	30.48	12.51	-45.9	-47.4	19.4	0.00e+00	0	43	0	219152384	62	4520
2026-01-26 23:08:38.90	30.58	12.59	-45.9	-47.4	19.4	0.00e+00	0	43	0	221249536	62	4507
2026-01-26 23:08:39.91	30.68	12.67	-45.8	-47.3	19.4	0.00e+00	0	43	0	223346688	62	4468
2026-01-26 23:08:40.91	30.78	12.76	-45.7	-47.1	19.6	0.00e+00	0	43	0	224395264	62	4391
2026-01-26 23:08:41.92	30.88	12.84	-45.7	-47.1	19.6	0.00e+00	0	43	0	226492416	62	4388
2026-01-26 23:08:42.92	30.98	12.92	-45.7	-47.2	19.6	0.00e+00	0	43	0	228589568	62	4398
2026-01-26 23:08:43.93	31.08	13.01	-45.5	-46.8	19.9	0.00e+00	0	43	0	230686720	62	4233
2026-01-26 23:08:44.93	31.19	13.09	-45.4	-46.8	20.0	0.00e+00	0	43	0	232783872	62	4200
2026-01-26 23:08:45.94	31.29	13.18	-45.4	-46.7	20.0	0.00e+00	0	43	0	233832448	62	4177
2026-01-26 23:08:46.95	31.39	13.26	-45.4	-46.8	20.0	0.00e+00	0	43	0	235929600	62	4197
2026-01-26 23:08:47.96	31.50	13.35	-45.2	-46.5	20.2	0.00e+00	0	43	0	238026752	62	4091
2026-01-26 23:08:48.96	31.60	13.43	-45.4	-46.7	20.0	0.00e+00	0	43	0	240123904	62	4188
2026-01-26 23:08:49.97	31.71	13.52	-45.1	-46.4	20.2	0.00e+00	0	43	0	242221056	62	4038
2026-01-26 23:08:50.98	31.81	13.61	-45.1	-46.4	20.2	0.00e+00	0	43	0	243269632	61	4288
2026-01-26 23:08:51.99	31.92	13.69	-45.2	-46.6	19.7	0.00e+00	0	43	0	245366784	61	4341
2026-01-26 23:08:53.00	32.03	13.78	-45.4	-46.7	20.1	0.00e+00	0	43	0	247463936	61	4414
2026-01-26 23:08:54.00	32.14	13.87	-45.2	-46.5	20.2	0.00e+00	0	43	0	249561088	61	4299
2026-01-26 23:08:55.01	32.24	13.95	-45.2	-46.6	20.2	0.00e+00	0	43	0	251658240	61	4346
2026-01-26 23:08:56.02	32.35	14.04	-45.2	-46.6	20.2	0.00e+00	0	43	0	252706816	61	4345
2026-01-26 23:08:57.03	32.46	14.13	-45.5	-46.8	20.0	0.00e+00	0	43	0	254803968	61	4477
2026-01-26 23:08:58.04	32.57	14.22	-45.4	-46.8	19.9	0.00e+00	0	43	0	256901120	61	4470
2026-01-26 23:08:59.05	32.69	14.30	-45.6	-46.9	19.9	0.00e+00	0	43	0	258998272	61	4540
2026-01-26 23:09:00.05	32.80	14.39	-45.6	-47.0	19.8	0.00e+00	0	43	0	261095424	61	4563
2026-01-26 23:09:01.06	32.91	14.48	-45.7	-47.1	19.7	0.00e+00	0	43	0	262144000	62	4358
2026-01-26 23:09:02.07	33.02	14.57	-45.9	-47.4	19.4	0.00e+00	0	43	0	264241152	62	4527
2026-01-26 23:09:03.08	33.14	14.66	-45.9	-47.4	19.5	0.00e+00	0	43	0	266338304	62	4501
2026-01-26 23:09:04.09	33.25	14.75	-45.8	-47.3	19.6	0.00e+00	0	43	0	268435456	62	4459
2026-01-26 23:09:05.09	33.36	14.83	-46.1	-47.6	19.2	0.00e+00	0	43	0	270532608	62	4647
2026-01-26 23:09:06.10	33.48	14.92	-46.0	-47.5	19.4	0.00e+00	0	43	0	272629760	62	4582
2026-01-26 23:09:07.11	33.60	15.01	-45.9	-47.4	19.4	0.00e+00	0	43	0	273678336	62	4522
2026-01-26 23:09:08.11	33.71	15.10	-45.9	-47.3	19.5	0.00e+00	0	43	0	275775488	62	4492
2026-01-26 23:09:09.12	33.83	15.19	-46.0	-47.4	19.4	0.00e+00	0	43	0	277872640	62	4543
2026-01-26 23:09:10.13	33.95	15.28	-45.9	-47.4	19.5	0.00e+00	0	43	0	279969792	62	4516
2026-01-26 23:09:11.14	34.07	15.37	-45.8	-47.2	19.7	0.00e+00	0	43	0	281018368	62	4436
2026-01-26 23:09:12.15	34.19	15.47	-45.7	-47.1	19.7	0.00e+00	0	43	0	283115520	62	4376
2026-01-26 23:09:13.15	34.31	15.56	-45.7	-47.1	19.7	0.00e+00	0	43	0	285212672	62	4380
2026-01-26 23:09:14.16	34.43	15.65	-45.6	-47.0	19.9	0.00e+00	0	43	0	287309824	62	4319
2026-01-26 23:09:15.16	34.55	15.74	-45.7	-47.0	19.8	0.00e+00	0	43	0	289406976	62	4331
2026-01-26 23:09:16.17	34.67	15.83	-45.5	-46.9	19.9	0.00e+00	0	43	0	290455552	62	4264
2026-01-26 23:09:17.18	34.79	15.92	-45.8	-47.2	19.7	0.00e+00	0	43	0	292552704	62	4420
2026-01-26 23:09:18.19	34.92	16.01	-45.8	-47.2	19.7	0.00e+00	0	43	0	294649856	62	4397
2026-01-26 23:09:19.20	35.04	16.11	-45.9	-47.4	19.6	0.00e+00	0	43	0	296747008	62	4503
2026-01-26 23:09:20.21	35.17	16.20	-46.0	-47.5	19.4	0.00e+00	0	43	0	298844160	62	4556
2026-01-26 23:09:21.21	35.29	16.29	-45.9	-47.3	19.6	0.00e+00	0	43	0	300941312	62	4467
2026-01-26 23:09:22.23	35.42	16.39	-45.9	-47.3	19.6	0.00e+00	0	43	0	301989888	62	4485
2026-01-26 23:09:23.23	35.55	16.48	-46.1	-47.6	19.3	0.00e+00	0	43	0	304087040	62	4627
2026-01-26 23:09:24.24	35.68	16.57	-46.0	-47.5	19.4	0.00e+00	0	43	0	306184192	63	4305
2026-01-26 23:09:25.25	35.81	16.67	-46.0	-47.5	19.4	0.00e+00	0	43	0	308281344	63	4295
2026-01-26 23:09:26.25	35.94	16.76	-46.1	-47.5	19.4	0.00e+00	0	43	0	309329920	63	4336
2026-01-26 23:09:27.26	36.07	16.85	-46.1	-47.6	19.4	0.00e+00	0	43	0	311427072	63	4343
2026-01-26 23:09:28.27	36.20	16.95	-46.1	-47.6	19.3	0.00e+00	0	43	0	313524224	63	4371
2026-01-26 23:09:29.28	36.33	17.04	-46.0	-47.5	19.4	0.00e+00	0	43	0	315621376	63	4299
2026-01-26 23:09:30.28	36.46	17.14	-46.2	-47.7	19.3	0.00e+00	0	43	0	317718528	63	4396
2026-01-26 23:09:31.29	36.60	17.23	-46.0	-47.4	19.5	0.00e+00	0	43	0	319815680	63	4282
2026-01-26 23:09:32.30	36.73	17.33	-45.9	-47.3	19.7	0.00e+00	0	43	0	320864256	63	4206
2026-01-26 23:09:33.31	36.87	17.42	-46.0	-47.5	19.4	0.00e+00	0	43	0	322961408	63	4315
2026-01-26 23:09:34.32	37.00	17.52	-46.1	-47.5	19.4	0.00e+00	0	43	0	325058560	63	4329
2026-01-26 23:09:35.32	37.14	17.61	-46.0	-47.5	19.4	0.00e+00	0	43	0	327155712	63	4307
2026-01-26 23:09:36.33	37.28	17.71	-46.2	-47.7	19.3	0.00e+00	0	43	0	329252864	63	4400
2026-01-26 23:09:37.34	37.42	17.81	-46.3	-47.8	19.2	0.00e+00	0	43	0	330301440	63	4490
2026-01-26 23:09:38.34	37.56	17.90	-46.3	-47.8	19.2	0.00e+00	0	43	0	332398592	63	4472
2026-01-26 23:09:39.35	37.70	18.00	-46.7	-48.3	18.8	0.00e+00	0	43	0	334495744	63	4709
2026-01-26 23:09:40.36	37.84	18.10	-46.7	-48.3	18.8	0.00e+00	0	43	0	336592896	63	4725
2026-01-26 23:09:41.37	37.98	18.19	-46.6	-48.2	18.7	0.00e+00	0	43	0	337641472	64	4440
2026-01-26 23:09:42.38	38.12	18.29	-46.6	-48.2	18.8	0.00e+00	0	43	0	339738624	64	4430
2026-01-26 23:09:43.38	38.27	18.39	-46.6	-48.1	18.8	0.00e+00	0	43	0	341835776	64	4391
2026-01-26 23:09:44.39	38.41	18.49	-46.8	-48.4	18.6	0.00e+00	0	43	0	343932928	64	4515
2026-01-26 23:09:45.40	38.56	18.59	-46.6	-48.2	18.7	0.00e+00	0	43	0	346030080	64	4423
2026-01-26 23:09:46.41	38.71	18.68	-46.6	-48.2	18.8	0.00e+00	0	43	0	348127232	64	4402
2026-01-26 23:09:47.41	38.85	18.78	-46.5	-48.1	18.8	0.00e+00	0	43	0	349175808	64	4375
2026-01-26 23:09:48.42	39.00	18.88	-46.7	-48.3	18.7	0.00e+00	0	43	0	351272960	64	4463
2026-01-26 23:09:49.43	39.15	18.98	-46.6	-48.2	18.7	0.00e+00	0	43	0	353370112	64	4435
2026-01-26 23:09:50.44	39.30	19.08	-46.6	-48.2	18.7	0.00e+00	0	43	0	355467264	64	4410
2026-01-26 23:09:51.44	39.45	19.18	-46.6	-48.2	18.7	0.00e+00	0	43	0	357564416	64	4412
2026-01-26 23:09:52.45	39.60	19.28	-46.7	-48.3	18.7	0.00e+00	0	43	0	358612992	64	4455
2026-01-26 23:09:53.46	39.76	19.38	-46.7	-48.3	18.7	0.00e+00	0	43	0	360710144	64	4460
2026-01-26 23:09:54.47	39.91	19.48	-46.6	-48.2	18.8	0.00e+00	0	43	0	362807296	64	4399
2026-01-26 23:09:55.47	40.07	19.58	-46.4	-47.9	19.1	0.00e+00	0	43	0	364904448	64	4256
2026-01-26 23:09:56.48	40.22	19.68	-46.1	-47.6	19.3	0.00e+00	0	43	0	365953024	64	4116
2026-01-26 23:09:57.49	40.38	19.78	-46.0	-47.4	19.7	0.00e+00	0	43	0	368050176	63	4258
2026-01-26 23:09:58.50	40.54	19.88	-45.7	-47.1	19.9	0.00e+00	0	43	0	370147328	63	4103
2026-01-26 23:09:59.50	40.70	19.98	-45.6	-46.9	20.1	0.00e+00	0	43	0	372244480	63	4025
2026-01-26 23:10:00.51	40.86	20.08	-45.5	-46.8	20.1	0.00e+00	0	43	0	374341632	63	3978
2026-01-26 23:10:01.52	41.02	20.18	-45.3	-46.5	20.4	0.00e+00	0	43	0	376438784	62	4091
2026-01-26 23:10:02.52	41.18	20.28	-45.3	-46.6	20.3	0.00e+00	0	43	0	377487360	62	4137
2026-01-26 23:10:03.53	41.35	20.39	-45.4	-46.7	20.3	0.00e+00	0	43	0	379584512	62	4163
2026-01-26 23:10:04.54	41.51	20.49	-45.4	-46.7	20.2	0.00e+00	0	43	0	381681664	62	4175
2026-01-26 23:10:05.55	41.68	20.59	-45.3	-46.6	20.4	0.00e+00	0	43	0	383778816	62	4106
2026-01-26 23:10:06.56	41.84	20.69	-45.3	-46.6	20.4	0.00e+00	0	43	0	385875968	62	4115
2026-01-26 23:10:07.56	42.01	20.80	-45.4	-46.7	20.3	0.00e+00	0	43	0	386924544	62	4164
2026-01-26 23:10:08.56	42.18	20.90	-45.1	-46.4	20.6	0.00e+00	0	43	0	389021696	62	4013
2026-01-26 23:10:09.57	42.35	21.00	-45.0	-46.3	20.6	0.00e+00	0	43	0	391118848	61	4203
2026-01-26 23:10:10.57	42.52	21.10	-45.0	-46.2	20.7	0.00e+00	0	43	0	393216000	61	4183
2026-01-26 23:10:11.58	42.69	21.21	-44.8	-46.0	20.9	0.00e+00	0	43	0	394264576	61	4056
2026-01-26 23:10:12.59	42.86	21.31	-44.7	-45.9	21.0	0.00e+00	0	43	0	396361728	61	4006
2026-01-26 23:10:13.60	43.04	21.41	-44.6	-45.8	21.1	0.00e+00	0	43	0	398458880	61	3968
2026-01-26 23:10:14.60	43.21	21.52	-44.2	-45.3	21.5	0.00e+00	0	43	0	400556032	60	3973
2026-01-26 23:10:15.61	43.39	21.62	-44.3	-45.4	21.4	0.00e+00	0	43	0	402653184	60	4027
2026-01-26 23:10:16.61	43.57	21.72	-44.4	-45.5	21.3	0.00e+00	0	43	0	404750336	60	4095
2026-01-26 23:10:17.62	43.74	21.83	-44.3	-45.4	21.4	0.00e+00	0	43	0	405798912	60	4027
2026-01-26 23:10:18.62	43.92	21.93	-44.5	-45.7	21.2	0.00e+00	0	43	0	407896064	60	4179
2026-01-26 23:10:19.63	44.11	22.04	-44.7	-45.9	21.0	0.00e+00	0	43	0	409993216	60	4274
2026-01-26 23:10:20.64	44.29	22.14	-44.5	-45.7	21.2	0.00e+00	0	43	0	412090368	60	4166
2026-01-26 23:10:21.65	44.47	22.25	-44.8	-46.0	20.9	0.00e+00	0	43	0	414187520	60	4312
2026-01-26 23:10:22.65	44.66	22.35	-44.7	-45.9	21.0	0.00e+00	0	43	0	415236096	60	4254
2026-01-26 23:10:23.66	44.84	22.46	-44.7	-45.9	20.9	0.00e+00	0	43	0	417333248	60	4286
2026-01-26 23:10:24.67	45.03	22.56	-44.7	-45.9	21.0	0.00e+00	0	43	0	419430400	60	4263
2026-01-26 23:10:25.68	45.22	22.67	-44.7	-46.0	21.0	0.00e+00	0	43	0	421527552	60	4292
2026-01-26 23:10:26.68	45.41	22.77	-44.7	-45.9	21.0	0.00e+00	0	43	0	422576128	60	4282
2026-01-26 23:10:27.69	45.60	22.88	-44.8	-46.0	21.0	0.00e+00	0	43	0	424673280	60	4307
2026-01-26 23:10:28.70	45.79	22.98	-44.4	-45.5	21.3	0.00e+00	0	43	0	426770432	60	4088
2026-01-26 23:10:29.71	45.99	23.09	-44.5	-45.7	21.2	0.00e+00	0	43	0	428867584	60	4149
2026-01-26 23:10:30.71	46.18	23.19	-44.5	-45.7	21.2	0.00e+00	0	43	0	430964736	60	4148
2026-01-26 23:10:31.72	46.38	23.30	-44.3	-45.5	21.4	0.00e+00	0	43	0	433061888	60	4052
2026-01-26 23:10:32.73	46.57	23.41	-44.3	-45.5	21.4	0.00e+00	0	43	0	434110464	60	4055
2026-01-26 23:10:33.73	46.77	23.51	-44.2	-45.4	21.5	0.00e+00	0	43	0	436207616	60	4009
2026-01-26 23:10:34.74	46.97	23.62	-44.1	-45.2	21.6	0.00e+00	0	43	0	438304768	60	3957
2026-01-26 23:10:35.75	47.17	23.73	-44.3	-45.5	21.7	0.00e+00	0	43	0	440401920	59	4294
2026-01-26 23:10:36.76	47.38	23.83	-44.4	-45.5	21.7	0.00e+00	0	43	0	442499072	59	4313
2026-01-26 23:10:37.77	47.58	23.94	-44.1	-45.2	21.9	0.00e+00	0	43	0	443547648	59	4159
2026-01-26 23:10:38.77	47.79	24.05	-44.0	-45.1	22.1	0.00e+00	0	43	0	445644800	59	4099
2026-01-26 23:10:39.78	47.99	24.15	-44.0	-45.0	22.1	0.00e+00	0	43	0	447741952	59	4084
2026-01-26 23:10:40.79	48.20	24.26	-44.0	-45.1	22.0	0.00e+00	0	43	0	449839104	59	4129
2026-01-26 23:10:41.80	48.41	24.37	-44.2	-45.3	22.0	0.00e+00	0	43	0	451936256	59	4195
2026-01-26 23:10:42.81	48.62	24.47	-44.3	-45.4	21.8	0.00e+00	0	43	0	452984832	59	4252
2026-01-26 23:10:43.82	48.84	24.58	-44.5	-45.6	21.6	0.00e+00	0	43	0	455081984	59	4364
2026-01-26 23:10:44.82	49.05	24.69	-44.5	-45.7	21.5	0.00e+00	0	43	0	457179136	59	4416
2026-01-26 23:10:45.83	49.26	24.79	-44.6	-45.8	21.5	0.00e+00	0	43	0	459276288	59	4463
2026-01-26 23:10:46.84	49.48	24.90	-44.6	-45.8	21.5	0.00e+00	0	43	0	461373440	59	4454
2026-01-26 23:10:47.85	49.70	25.01	-44.2	-45.4	21.6	0.00e+00	0	43	0	462422016	60	4012
2026-01-26 23:10:48.85	49.92	25.11	-44.3	-45.4	21.5	0.00e+00	0	43	0	464519168	60	4019
2026-01-26 23:10:49.86	50.14	25.22	-44.2	-45.3	21.6	0.00e+00	0	43	0	466616320	60	3993
2026-01-26 23:10:50.86	50.36	25.33	-44.3	-45.4	21.5	0.00e+00	0	43	0	468713472	60	4026
2026-01-26 23:10:51.87	50.58	25.43	-44.3	-45.4	21.5	0.00e+00	0	43	0	470810624	60	4042
2026-01-26 23:10:52.88	50.81	25.54	-44.4	-45.6	21.4	0.00e+00	0	43	0	471859200	60	4107
2026-01-26 23:10:53.89	51.04	25.65	-44.4	-45.5	21.4	0.00e+00	0	43	0	473956352	60	4084
2026-01-26 23:10:54.89	51.26	25.75	-44.4	-45.5	21.5	0.00e+00	0	43	0	476053504	60	4068
2026-01-26 23:10:55.90	51.49	25.86	-44.5	-45.6	21.3	0.00e+00	0	43	0	478150656	60	4138
2026-01-26 23:10:56.91	51.73	25.97	-44.4	-45.5	21.4	0.00e+00	0	43	0	480247808	60	4093
2026-01-26 23:10:57.92	51.96	26.08	-44.6	-45.7	21.2	0.00e+00	0	43	0	481296384	60	4190
2026-01-26 23:10:58.93	52.20	26.18	-44.5	-45.7	21.3	0.00e+00	0	43	0	483393536	60	4146
2026-01-26 23:10:59.93	52.43	26.29	-44.5	-45.7	21.3	0.00e+00	0	43	0	485490688	60	4152
2026-01-26 23:11:00.94	52.67	26.39	-44.5	-45.6	21.3	0.00e+00	0	43	0	487587840	60	4143
2026-01-26 23:11:01.95	52.91	26.50	-44.6	-45.7	21.2	0.00e+00	0	43	0	489684992	60	4165
2026-01-26 23:11:02.95	53.15	26.61	-44.6	-45.7	21.3	0.00e+00	0	43	0	490733568	60	4168
2026-01-26 23:11:03.96	53.39	26.71	-44.7	-45.9	21.1	0.00e+00	0	43	0	492830720	60	4262
2026-01-26 23:11:04.96	53.63	26.82	-45.0	-46.2	20.8	0.00e+00	0	43	0	494927872	60	4434
2026-01-26 23:11:05.97	53.88	26.92	-45.3	-46.5	20.6	0.00e+00	0	43	0	497025024	61	4325
2026-01-26 23:11:06.98	54.13	27.03	-45.3	-46.6	20.5	0.00e+00	0	43	0	499122176	61	4342
2026-01-26 23:11:07.98	54.37	27.14	-45.6	-47.0	20.2	0.00e+00	0	43	0	500170752	62	4294
2026-01-26 23:11:08.99	54.62	27.24	-45.6	-47.0	20.2	0.00e+00	0	43	0	502267904	62	4294
2026-01-26 23:11:10.00	54.88	27.35	-45.8	-47.1	20.0	0.00e+00	0	43	0	504365056	62	4384
2026-01-26 23:11:11.01	55.13	27.45	-45.7	-47.0	20.1	0.00e+00	0	43	0	506462208	62	4338
2026-01-26 23:11:12.02	55.39	27.56	-45.9	-47.2	20.0	0.00e+00	0	43	0	508559360	62	4415
2026-01-26 23:11:13.03	55.64	27.66	-46.1	-47.5	19.6	0.00e+00	0	43	0	509607936	62	4587
2026-01-26 23:11:14.03	55.90	27.77	-46.1	-47.5	19.6	0.00e+00	0	43	0	511705088	63	4338
2026-01-26 23:11:15.04	56.16	27.87	-46.3	-47.8	19.4	0.00e+00	0	43	0	513802240	63	4447
2026-01-26 23:11:16.05	56.42	27.97	-46.2	-47.6	19.7	0.00e+00	0	43	0	515899392	63	4382
2026-01-26 23:11:17.05	56.68	28.08	-46.2	-47.7	19.5	0.00e+00	0	43	0	517996544	63	4407
2026-01-26 23:11:18.06	56.95	28.18	-46.7	-48.2	19.0	0.00e+00	0	43	0	519045120	63	4682
2026-01-26 23:11:19.07	57.22	28.29	-46.7	-48.3	18.9	0.00e+00	0	43	0	521142272	64	4476
2026-01-26 23:11:20.08	57.49	28.39	-46.9	-48.5	18.7	0.00e+00	0	43	0	523239424	64	4553
2026-01-26 23:11:21.09	57.76	28.49	-47.3	-49.1	18.1	0.00e+00	0	43	0	525336576	65	4614
2026-01-26 23:11:22.10	58.03	28.59	-47.6	-49.4	17.8	0.00e+00	0	43	0	527433728	65	4772
2026-01-26 23:11:23.10	58.30	28.70	-47.6	-49.4	17.8	0.00e+00	0	43	0	529530880	65	4775
2026-01-26 23:11:24.11	58.58	28.80	-47.7	-49.6	17.7	0.00e+00	0	43	0	530579456	66	4603
2026-01-26 23:11:25.11	58.85	28.90	-47.9	-49.9	17.3	0.00e+00	0	43	0	532676608	66	4783
2026-01-26 23:11:26.13	59.14	29.00	-48.0	-50.0	17.3	0.00e+00	0	43	0	534773760	66	4828
2026-01-26 23:11:27.13	59.41	29.10	-47.8	-49.7	17.5	0.00e+00	0	43	0	536870912	66	4703
2026-01-26 23:11:28.14	59.70	29.20	-47.6	-49.4	17.9	0.00e+00	0	43	0	537919488	66	4498
2026-01-26 23:11:29.15	59.98	29.30	-47.6	-49.5	17.8	0.00e+00	0	43	0	540016640	66	4558
2026-01-26 23:11:30.15	60.27	29.40	-47.9	-49.9	17.3	0.00e+00	0	43	0	542113792	66	4770
2026-01-26 23:11:31.16	60.55	29.50	-48.0	-49.9	17.3	0.00e+00	0	43	0	544210944	66	4808
2026-01-26 23:11:32.16	60.84	29.60	-48.0	-49.9	17.3	0.00e+00	0	43	0	546308096	66	4809
2026-01-26 23:11:33.17	61.13	29.70	-48.1	-50.1	17.2	0.00e+00	0	43	0	547356672	66	4871
2026-01-26 23:11:34.17	61.42	29.79	-48.2	-50.3	17.0	0.00e+00	0	43	0	549453824	67	4716
2026-01-26 23:11:35.18	61.72	29.89	-48.6	-50.8	16.5	0.00e+00	0	43	0	551550976	67	5007
2026-01-26 23:11:36.19	62.02	29.99	-49.0	-51.3	16.2	0.00e+00	0	43	0	553648128	68	5002
2026-01-26 23:11:37.20	62.31	30.09	-49.2	-51.6	15.8	0.00e+00	0	43	0	555745280	68	5180
2026-01-26 23:11:38.21	62.61	30.18	-49.5	-52.1	15.4	0.00e+00	0	43	0	557842432	69	5170
2026-01-26 23:11:39.21	62.91	30.28	-49.3	-51.9	15.6	0.00e+00	0	43	0	558891008	69	5042
2026-01-26 23:11:40.22	63.22	30.37	-48.9	-51.2	16.1	0.00e+00	0	43	0	560988160	69	4694
2026-01-26 23:11:41.23	63.52	30.47	-48.6	-50.8	16.5	0.00e+00	0	43	0	563085312	69	4473
2026-01-26 23:11:42.23	63.83	30.56	-49.3	-51.8	15.7	0.00e+00	0	43	0	565182464	69	4996
2026-01-26 23:11:43.24	64.14	30.65	-49.4	-52.0	15.4	0.00e+00	0	43	0	566231040	69	5133
2026-01-26 23:11:44.25	64.45	30.75	-49.2	-51.7	15.8	0.00e+00	0	43	0	568328192	69	4940
2026-01-26 23:11:45.26	64.76	30.84	-49.2	-51.7	15.8	0.00e+00	0	43	0	570425344	69	4927
2026-01-26 23:11:46.27	65.08	30.93	-49.5	-52.1	15.3	0.00e+00	0	43	0	572522496	69	5218
2026-01-26 23:11:47.28	65.39	31.02	-49.3	-51.8	15.6	7.00e-07	0	43	0	574619648	69	5027
2026-01-26 23:11:48.29	65.71	31.11	-49.4	-52.0	15.5	0.00e+00	0	43	0	575668224	69	5110
2026-01-26 23:11:49.30	66.03	31.20	-49.3	-51.8	15.7	7.00e-07	0	43	0	577765376	69	4989
2026-01-26 23:11:50.31	66.35	31.29	-48.8	-51.0	16.4	0.00e+00	0	43	0	579862528	69	4567
2026-01-26 23:11:51.31	66.67	31.38	-48.4	-50.5	16.9	0.00e+00	0	43	0	581959680	68	4563
2026-01-26 23:11:52.32	67.00	31.46	-47.6	-49.3	17.9	0.00e+00	0	43	0	584056832	66	4488
2026-01-26 23:11:53.33	67.32	31.55	-47.5	-49.3	18.0	0.00e+00	0	43	0	586153984	66	4463
2026-01-26 23:11:54.34	67.65	31.64	-47.7	-49.5	17.6	0.00e+00	0	43	0	587202560	66	4578
2026-01-26 23:11:55.35	67.98	31.72	-47.9	-49.9	17.5	0.00e+00	0	43	0	589299712	66	4760
2026-01-26 23:11:56.36	68.31	31.81	-48.8	-51.1	16.4	0.00e+00	0	43	0	591396864	68	4887
2026-01-26 23:11:57.37	68.65	31.89	-48.9	-51.2	16.3	0.00e+00	0	43	0	593494016	68	4973
2026-01-26 23:11:58.37	68.98	31.97	-48.9	-51.2	16.3	0.00e+00	0	43	0	594542592	68	4935
2026-01-26 23:11:59.38	69.32	32.05	-48.5	-50.6	16.8	0.00e+00	0	43	0	596639744	68	4617
2026-01-26 23:12:00.39	69.66	32.14	-47.8	-49.7	17.7	0.00e+00	0	43	0	598736896	67	4419
2026-01-26 23:12:01.40	70.00	32.22	-47.2	-48.9	18.5	0.00e+00	0	43	0	600834048	66	4270
2026-01-26 23:12:02.41	70.34	32.29	-46.6	-48.1	19.1	0.00e+00	0	43	0	602931200	65	4136
2026-01-26 23:12:03.41	70.68	32.37	-46.2	-47.6	19.6	0.00e+00	0	43	0	605028352	64	4120
2026-01-26 23:12:04.42	71.02	32.45	-46.7	-48.3	19.0	0.00e+00	0	43	0	606076928	64	4447
2026-01-26 23:12:05.43	71.37	32.53	-47.2	-48.9	18.4	0.00e+00	0	43	0	608174080	65	4524
2026-01-26 23:12:06.44	71.72	32.60	-48.0	-49.9	17.4	0.00e+00	0	43	0	610271232	66	4787
2026-01-26 23:12:07.45	72.07	32.68	-48.4	-50.5	16.8	0.00e+00	0	43	0	612368384	67	4834
2026-01-26 23:12:08.46	72.42	32.75	-48.0	-50.0	17.4	0.00e+00	0	43	0	614465536	67	4551
2026-01-26 23:12:09.47	72.77	32.82	-47.9	-49.7	17.6	0.00e+00	0	43	0	615514112	67	4437
2026-01-26 23:12:10.47	73.12	32.89	-47.5	-49.2	18.1	0.00e+00	0	43	0	617611264	66	4427
2026-01-26 23:12:11.47	73.48	32.96	-47.4	-49.1	18.2	0.00e+00	0	43	0	619708416	66	4349
2026-01-26 23:12:12.48	73.83	33.03	-47.3	-49.1	18.3	0.00e+00	0	43	0	621805568	66	4342
2026-01-26 23:12:13.49	74.19	33.10	-46.8	-48.4	18.9	0.00e+00	0	43	0	622854144	65	4262
2026-01-26 23:12:14.50	74.55	33.17	-47.0	-48.6	18.6	0.00e+00	0	43	0	624951296	65	4364
2026-01-26 23:12:15.50	74.91	33.24	-47.9	-49.8	17.5	0.00e+00	0	43	0	627048448	66	4745
2026-01-26 23:12:16.51	75.28	33.30	-49.1	-51.5	16.0	0.00e+00	0	43	0	629145600	68	5148
2026-01-26 23:12:17.52	75.64	33.37	-49.8	-52.5	14.9	0.00e+00	0	43	0	631242752	70	5158
2026-01-26 23:12:18.53	76.01	33.43	-50.1	-53.1	14.5	0.00e+00	0	43	0	633339904	70	5518
2026-01-26 23:12:19.54	76.38	33.49	-50.1	-53.0	14.4	7.00e-07	0	43	0	634388480	71	5135
2026-01-26 23:12:20.55	76.75	33.55	-49.9	-52.7	14.9	0.00e+00	0	43	0	636485632	71	4938
2026-01-26 23:12:21.56	77.12	33.61	-50.0	-52.8	14.6	7.00e-07	0	43	0	638582784	71	5009
2026-01-26 23:12:22.57	77.49	33.67	-50.5	-53.8	13.6	1.50e-06	0	43	0	640679936	71	5647
2026-01-26 23:12:23.58	77.86	33.73	-51.1	-55.2	12.2	8.01e-05	0	43	0	642777088	72	6266
2026-01-26 23:12:24.59	78.24	33.78	-50.8	-54.6	12.8	8.92e-05	0	43	0	643825664	72	5792
2026-01-26 23:12:25.60	78.61	33.84	-50.1	-53.1	14.3	3.00e-06	0	43	0	645922816	72	4901
2026-01-26 23:12:26.60	78.99	33.89	-49.5	-52.1	15.3	0.00e+00	0	43	0	648019968	71	4623
2026-01-26 23:12:27.61	79.36	33.94	-49.2	-51.6	15.9	7.00e-07	0	43	0	650117120	70	4624
2026-01-26 23:12:28.61	79.74	33.99	-49.1	-51.5	16.0	0.00e+00	0	43	0	652214272	70	4547
2026-01-26 23:12:29.62	80.12	34.04	-50.0	-53.0	14.6	0.00e+00	0	43	0	653262848	70	5408
2026-01-26 23:12:30.63	80.50	34.09	-50.1	-53.1	14.3	0.00e+00	0	43	0	655360000	70	5502
2026-01-26 23:12:31.64	80.89	34.14	-49.9	-52.7	14.8	7.00e-07	0	43	0	657457152	70	5265
2026-01-26 23:12:32.65	81.27	34.18	-49.4	-51.9	15.6	0.00e+00	0	43	0	659554304	70	4767
2026-01-26 23:12:33.66	81.65	34.23	-48.9	-51.1	16.4	0.00e+00	0	43	0	661651456	69	4624
2026-01-26 23:12:34.66	82.04	34.27	-48.7	-50.8	16.6	0.00e+00	0	43	0	662700032	69	4468
2026-01-26 23:12:35.67	82.42	34.31	-48.7	-50.8	16.6	0.00e+00	0	43	0	664797184	69	4489
2026-01-26 23:12:36.68	82.81	34.35	-48.3	-50.3	17.1	0.00e+00	0	43	0	666894336	68	4492
2026-01-26 23:12:37.68	83.20	34.39	-48.4	-50.4	17.0	0.00e+00	0	43	0	668991488	68	4521
2026-01-26 23:12:38.69	83.59	34.43	-48.7	-50.9	16.6	0.00e+00	0	43	0	671088640	68	4760
2026-01-26 23:12:39.70	83.98	34.47	-49.2	-51.6	15.9	0.00e+00	0	43	0	672137216	68	5182
2026-01-26 23:12:40.71	84.37	34.50	-50.0	-53.0	14.5	0.00e+00	0	43	0	674234368	70	5454
2026-01-26 23:12:41.71	84.76	34.53	-50.1	-53.1	14.5	0.00e+00	0	43	0	676331520	70	5498
2026-01-26 23:12:42.72	85.15	34.56	-50.5	-53.8	13.8	2.20e-06	0	43	0	678428672	71	5644
2026-01-26 23:12:43.73	85.54	34.59	-50.4	-53.7	13.9	1.50e-06	0	43	0	680525824	71	5556
2026-01-26 23:12:44.73	85.93	34.62	-50.6	-54.0	13.5	1.50e-06	0	43	0	681574400	72	5440
2026-01-26 23:12:45.74	86.33	34.65	-50.7	-54.2	13.1	7.32e-05	0	43	0	683671552	72	5572
2026-01-26 23:12:46.75	86.73	34.68	-50.6	-54.1	13.3	2.97e-05	0	43	0	685768704	72	5491
2026-01-26 23:12:47.76	87.12	34.70	-49.8	-52.5	15.0	1.50e-06	0	43	0	687865856	71	4857
2026-01-26 23:12:48.77	87.52	34.72	-49.2	-51.6	15.9	0.00e+00	0	43	0	689963008	70	4629
2026-01-26 23:12:49.77	87.91	34.75	-48.8	-51.0	16.5	0.00e+00	0	43	0	691011584	69	4577
2026-01-26 23:12:50.78	88.31	34.77	-48.9	-51.2	16.3	0.00e+00	0	43	0	693108736	69	4659
2026-01-26 23:12:51.79	88.71	34.78	-49.4	-51.9	15.7	0.00e+00	0	43	0	695205888	69	5085
2026-01-26 23:12:52.80	89.11	34.80	-49.7	-52.4	15.2	0.00e+00	0	43	0	697303040	69	5342
2026-01-26 23:12:53.81	89.51	34.82	-50.2	-53.3	14.3	7.00e-07	0	43	0	699400192	71	5291
2026-01-26 23:12:54.81	89.90	34.83	-50.8	-54.5	13.0	9.10e-06	0	43	0	700448768	72	5737
2026-01-26 23:12:55.82	90.30	34.84	-51.4	-55.6	11.9	2.53e-04	0	43	0	702545920	73	6184
2026-01-26 23:12:56.82	90.70	34.85	-51.7	-56.4	11.1	1.04e-03	0	43	0	704643072	74	6382
2026-01-26 23:12:57.83	91.10	34.86	-51.8	-56.8	10.4	3.13e-03	0	43	0	706740224	74	6693
2026-01-26 23:12:58.84	91.50	34.87	-51.9	-57.1	10.2	3.32e-03	0	43	0	708837376	74	6952
2026-01-26 23:12:59.84	91.90	34.88	-52.0	-57.4	9.8	7.22e-03	0	43	0	709885952	74	7178
2026-01-26 23:13:00.85	92.30	34.88	-51.2	-55.3	11.9	2.49e-03	0	43	0	711983104	74	5635
2026-01-26 23:13:01.86	92.70	34.89	-50.5	-53.9	13.6	1.41e-04	0	43	0	714080256	72	5343
2026-01-26 23:13:02.87	93.10	34.89	-49.6	-52.1	15.3	0.00e+00	0	43	0	716177408	71	4650
2026-01-26 23:13:03.88	93.51	34.89	-49.0	-51.3	16.1	0.00e+00	0	43	0	718274560	69	4747
2026-01-26 23:13:04.88	93.90	34.89	-49.0	-51.3	16.1	0.00e+00	0	43	0	719323136	69	4746
2026-01-26 23:13:05.89	94.30	34.88	-49.0	-51.3	16.2	0.00e+00	0	43	0	721420288	69	4720
2026-01-26 23:13:06.91	94.71	34.88	-49.0	-51.2	16.2	0.00e+00	0	43	0	723517440	69	4691
2026-01-26 23:13:07.91	95.11	34.87	-48.8	-51.0	16.4	0.00e+00	0	43	0	725614592	69	4580
2026-01-26 23:13:08.92	95.51	34.87	-49.0	-51.4	16.1	0.00e+00	0	43	0	727711744	69	4772
2026-01-26 23:13:09.93	95.91	34.86	-49.6	-52.3	15.3	0.00e+00	0	43	0	728760320	69	5285
2026-01-26 23:13:10.94	96.31	34.85	-50.3	-53.5	14.1	7.00e-07	0	43	0	730857472	71	5453
2026-01-26 23:13:11.94	96.71	34.84	-50.4	-53.7	13.8	4.50e-06	0	43	0	732954624	71	5545
2026-01-26 23:13:12.95	97.11	34.82	-49.8	-52.6	14.8	7.00e-07	0	43	0	735051776	71	4888
2026-01-26 23:13:13.96	97.51	34.81	-49.0	-51.3	16.3	0.00e+00	0	43	0	737148928	69	4708
2026-01-26 23:13:14.96	97.90	34.79	-48.4	-50.5	16.9	0.00e+00	0	43	0	738197504	68	4569
2026-01-26 23:13:15.97	98.30	34.77	-48.6	-50.7	16.7	0.00e+00	0	43	0	740294656	68	4699
2026-01-26 23:13:16.97	98.69	34.75	-48.7	-50.9	16.6	0.00e+00	0	43	0	742391808	68	4772
2026-01-26 23:13:17.99	99.10	34.73	-48.5	-50.6	16.9	0.00e+00	0	43	0	744488960	68	4600
2026-01-26 23:13:18.99	99.49	34.71	-47.9	-49.8	17.6	0.00e+00	0	43	0	746586112	67	4450
2026-01-26 23:13:19.99	99.88	34.69	-47.7	-49.5	17.9	0.00e+00	0	43	0	748683264	67	4323
2026-01-26 23:13:21.00	100.28	34.66	-48.3	-50.3	17.1	0.00e+00	0	43	0	749731840	67	4736
2026-01-26 23:13:22.01	100.68	34.63	-50.1	-53.1	14.5	0.00e+00	0	43	0	751828992	70	5470
2026-01-26 23:13:23.01	101.07	34.60	-50.8	-54.4	12.9	1.83e-05	0	43	0	753926144	72	5708
2026-01-26 23:13:24.02	101.46	34.57	-50.9	-54.7	12.7	9.61e-05	0	43	0	756023296	72	5898
2026-01-26 23:13:25.03	101.85	34.54	-50.0	-53.0	14.3	0.00e+00	0	43	0	757071872	72	4835
2026-01-26 23:13:26.04	102.25	34.51	-49.4	-51.9	15.5	0.00e+00	0	43	0	759169024	70	4802
2026-01-26 23:13:27.05	102.64	34.48	-49.4	-51.9	15.5	0.00e+00	0	43	0	761266176	70	4800
2026-01-26 23:13:28.05	103.03	34.44	-50.2	-53.3	14.3	0.00e+00	0	43	0	763363328	70	5609
2026-01-26 23:13:29.06	103.42	34.40	-50.9	-54.7	12.8	1.44e-05	0	43	0	765460480	72	5864
2026-01-26 23:13:30.07	103.81	34.36	-50.5	-53.8	13.5	3.43e-05	0	43	0	766509056	72	5324
2026-01-26 23:13:31.08	104.20	34.33	-49.9	-52.7	14.9	3.00e-06	0	43	0	768606208	71	4976
2026-01-26 23:13:32.09	104.58	34.28	-49.5	-52.0	15.5	0.00e+00	0	43	0	770703360	70	4836
2026-01-26 23:13:33.09	104.97	34.24	-49.7	-52.3	15.2	0.00e+00	0	43	0	772800512	70	5021
2026-01-26 23:13:34.10	105.35	34.20	-50.0	-52.8	14.7	7.00e-07	0	43	0	774897664	71	5031
2026-01-26 23:13:35.11	105.74	34.15	-49.6	-52.2	15.3	0.00e+00	0	43	0	776994816	71	4705
2026-01-26 23:13:36.12	106.12	34.11	-48.7	-50.8	16.6	0.00e+00	0	43	0	778043392	69	4450
2026-01-26 23:13:37.13	106.50	34.06	-47.5	-49.1	18.1	0.00e+00	0	43	0	780140544	67	4143
2026-01-26 23:13:38.14	106.88	34.01	-47.5	-49.2	18.2	0.00e+00	0	43	0	782237696	66	4396
2026-01-26 23:13:39.15	107.26	33.96	-48.0	-49.9	17.5	0.00e+00	0	43	0	784334848	66	4790
2026-01-26 23:13:40.15	107.64	33.91	-48.9	-51.2	16.3	0.00e+00	0	43	0	785383424	68	4944
2026-01-26 23:13:41.16	108.02	33.85	-49.1	-51.5	15.9	0.00e+00	0	43	0	787480576	69	4862
2026-01-26 23:13:42.17	108.40	33.80	-48.7	-50.9	16.5	0.00e+00	0	43	0	789577728	69	4520
2026-01-26 23:13:43.18	108.77	33.74	-48.3	-50.2	17.2	0.00e+00	0	43	0	791674880	68	4430
2026-01-26 23:13:44.19	109.14	33.69	-47.8	-49.6	17.8	0.00e+00	0	43	0	793772032	67	4351
2026-01-26 23:13:45.20	109.52	33.63	-47.6	-49.4	18.0	0.00e+00	0	43	0	795869184	67	4261
2026-01-26 23:13:46.21	109.89	33.57	-48.2	-50.2	17.1	0.00e+00	0	43	0	796917760	67	4686
2026-01-26 23:13:47.21	110.26	33.51	-48.1	-50.1	17.2	0.00e+00	0	43	0	799014912	67	4614
2026-01-26 23:13:48.22	110.62	33.45	-47.7	-49.5	17.8	0.00e+00	0	43	0	801112064	67	4326
2026-01-26 23:13:49.23	110.99	33.38	-47.2	-48.9	18.3	0.00e+00	0	43	0	803209216	66	4285
2026-01-26 23:13:50.24	111.36	33.32	-47.1	-48.7	18.6	0.00e+00	0	43	0	805306368	65	4422
2026-01-26 23:13:51.24	111.72	33.25	-47.2	-48.9	18.4	0.00e+00	0	43	0	806354944	65	4521
2026-01-26 23:13:52.25	112.08	33.19	-47.3	-49.0	18.3	0.00e+00	0	43	0	808452096	65	4554
2026-01-26 23:13:53.26	112.44	33.12	-47.3	-49.0	18.1	0.00e+00	0	43	0	810549248	65	4598
2026-01-26 23:13:54.27	112.81	33.05	-46.9	-48.5	18.8	0.00e+00	0	43	0	812646400	65	4305
2026-01-26 23:13:55.28	113.16	32.98	-46.7	-48.3	19.0	0.00e+00	0	43	0	813694976	65	4198
2026-01-26 23:13:56.29	113.52	32.91	-46.9	-48.4	18.8	0.00e+00	0	43	0	815792128	65	4286
2026-01-26 23:13:57.30	113.88	32.84	-47.3	-49.0	18.3	0.00e+00	0	43	0	817889280	65	4576
2026-01-26 23:13:58.31	114.23	32.77	-47.0	-48.7	18.5	0.00e+00	0	43	0	819986432	65	4407
2026-01-26 23:13:59.32	114.58	32.69	-46.9	-48.5	18.8	0.00e+00	0	43	0	822083584	65	4327
2026-01-26 23:14:00.33	114.94	32.62	-46.5	-48.1	19.2	0.00e+00	0	43	0	824180736	65	4099
2026-01-26 23:14:01.33	115.28	32.54	-46.3	-47.8	19.4	0.00e+00	0	43	0	825229312	64	4201
2026-01-26 23:14:02.34	115.63	32.47	-46.3	-47.7	19.5	0.00e+00	0	43	0	827326464	64	4188
2026-01-26 23:14:03.34	115.97	32.39	-46.4	-47.9	19.3	0.00e+00	0	43	0	829423616	64	4276
2026-01-26 23:14:04.35	116.32	32.31	-46.9	-48.5	18.8	0.00e+00	0	43	0	831520768	64	4562
2026-01-26 23:14:05.36	116.66	32.23	-46.7	-48.3	18.9	0.00e+00	0	43	0	833617920	64	4457
2026-01-26 23:14:06.37	117.00	32.15	-46.5	-48.0	19.3	0.00e+00	0	43	0	834666496	64	4294
2026-01-26 23:14:07.37	117.34	32.07	-45.7	-47.1	20.1	0.00e+00	0	43	0	836763648	63	4104
2026-01-26 23:14:08.38	117.68	31.99	-45.3	-46.5	20.6	0.00e+00	0	43	0	838860800	62	4090
2026-01-26 23:14:09.39	118.01	31.91	-45.6	-46.9	20.3	0.00e+00	0	43	0	840957952	62	4267
2026-01-26 23:14:10.40	118.35	31.82	-46.0	-47.3	19.9	0.00e+00	0	43	0	843055104	62	4491
2026-01-26 23:14:11.40	118.68	31.74	-46.4	-47.8	19.5	0.00e+00	0	43	0	844103680	63	4489
2026-01-26 23:14:12.41	119.01	31.66	-46.5	-48.0	19.3	0.00e+00	0	43	0	846200832	63	4559
2026-01-26 23:14:13.41	119.33	31.57	-46.1	-47.5	19.9	0.00e+00	0	43	0	848297984	63	4323
2026-01-26 23:14:14.42	119.66	31.48	-46.1	-47.5	19.8	0.00e+00	0	43	0	850395136	63	4295
2026-01-26 23:14:15.43	119.99	31.40	-45.7	-47.0	20.1	0.00e+00	0	43	0	852492288	63	4077
2026-01-26 23:14:16.44	120.31	31.31	-46.0	-47.3	19.9	0.00e+00	0	43	0	853540864	63	4235
2026-01-26 23:14:17.44	120.63	31.22	-46.2	-47.6	19.7	0.00e+00	0	43	0	855638016	63	4357
2026-01-26 23:14:18.45	120.95	31.13	-46.1	-47.6	19.7	0.00e+00	0	43	0	857735168	63	4342
2026-01-26 23:14:19.46	121.27	31.04	-45.6	-46.9	20.2	0.00e+00	0	43	0	859832320	63	4020
2026-01-26 23:14:20.47	121.59	30.95	-44.7	-45.8	21.1	0.00e+00	0	43	0	861929472	61	4002
2026-01-26 23:14:21.48	121.91	30.86	-44.4	-45.5	21.5	0.00e+00	0	43	0	862978048	60	4076
2026-01-26 23:14:22.49	122.22	30.76	-44.5	-45.7	21.3	0.00e+00	0	43	0	865075200	60	4158
2026-01-26 23:14:23.49	122.53	30.67	-45.1	-46.3	20.8	0.00e+00	0	43	0	867172352	60	4476
2026-01-26 23:14:24.49	122.84	30.58	-45.9	-47.3	20.0	0.00e+00	0	43	0	869269504	62	4464
2026-01-26 23:14:25.50	123.15	30.49	-46.6	-48.1	19.2	0.00e+00	0	43	0	871366656	63	4640
2026-01-26 23:14:26.51	123.45	30.39	-46.4	-47.9	19.4	0.00e+00	0	43	0	872415232	63	4520
2026-01-26 23:14:27.52	123.76	30.30	-46.0	-47.4	19.9	0.00e+00	0	43	0	874512384	63	4267
2026-01-26 23:14:28.52	124.06	30.20	-45.6	-46.9	20.3	0.00e+00	0	43	0	876609536	63	4041
2026-01-26 23:14:29.53	124.36	30.10	-45.6	-46.9	20.3	0.00e+00	0	43	0	878706688	62	4288
2026-01-26 23:14:30.54	124.66	30.01	-46.2	-47.6	19.6	0.00e+00	0	43	0	880803840	62	4619
2026-01-26 23:14:31.55	124.96	29.91	-46.5	-48.1	19.2	0.00e+00	0	43	0	881852416	63	4621
2026-01-26 23:14:32.56	125.26	29.81	-46.6	-48.1	19.1	0.00e+00	0	43	0	883949568	63	4641
2026-01-26 23:14:33.57	125.55	29.71	-45.9	-47.3	19.8	0.00e+00	0	43	0	886046720	63	4225
2026-01-26 23:14:34.58	125.84	29.61	-44.9	-46.1	20.9	0.00e+00	0	43	0	888143872	61	4105
2026-01-26 23:14:35.58	126.13	29.52	-44.5	-45.6	21.4	0.00e+00	0	43	0	890241024	60	4114
2026-01-26 23:14:36.59	126.42	29.42	-44.1	-45.2	21.8	0.00e+00	0	43	0	892338176	60	3930
2026-01-26 23:14:37.60	126.71	29.32	-44.8	-45.9	21.1	0.00e+00	0	43	0	893386752	60	4287
2026-01-26 23:14:38.61	126.99	29.22	-45.8	-47.1	20.0	0.00e+00	0	43	0	895483904	62	4369
2026-01-26 23:14:39.62	127.28	29.11	-46.1	-47.5	19.8	0.00e+00	0	43	0	897581056	63	4298
2026-01-26 23:14:40.63	127.56	29.01	-45.7	-47.1	20.2	0.00e+00	0	43	0	899678208	63	4101
2026-01-26 23:14:41.64	127.84	28.91	-45.0	-46.2	20.9	0.00e+00	0	43	0	900726784	62	3939
2026-01-26 23:14:42.64	128.12	28.81	-45.0	-46.2	20.9	0.00e+00	0	43	0	902823936	61	4146
2026-01-26 23:14:43.65	128.40	28.71	-44.9	-46.1	21.0	0.00e+00	0	43	0	904921088	61	4125
2026-01-26 23:14:44.66	128.67	28.60	-46.0	-47.3	19.9	0.00e+00	0	43	0	907018240	62	4478
2026-01-26 23:14:45.67	128.94	28.50	-46.5	-48.0	19.1	0.00e+00	0	43	0	909115392	63	4588
2026-01-26 23:14:46.67	129.21	28.40	-46.5	-48.0	19.3	0.00e+00	0	43	0	910163968	63	4556
2026-01-26 23:14:47.68	129.48	28.30	-45.9	-47.3	19.9	0.00e+00	0	43	0	912261120	63	4202
2026-01-26 23:14:48.68	129.75	28.19	-45.3	-46.6	20.5	0.00e+00	0	43	0	914358272	62	4100
2026-01-26 23:14:49.69	130.02	28.09	-45.6	-46.9	20.3	0.00e+00	0	43	0	916455424	62	4260
2026-01-26 23:14:50.69	130.28	27.99	-46.2	-47.6	19.6	0.00e+00	0	43	0	918552576	62	4615
2026-01-26 23:14:51.70	130.54	27.88	-46.6	-48.2	18.9	0.00e+00	0	43	0	920649728	64	4425
2026-01-26 23:14:52.71	130.81	27.78	-46.6	-48.1	18.9	0.00e+00	0	43	0	921698304	64	4379
2026-01-26 23:14:53.72	131.07	27.67	-46.5	-48.0	19.1	0.00e+00	0	43	0	923795456	64	4337
2026-01-26 23:14:54.73	131.32	27.56	-45.8	-47.1	20.0	0.00e+00	0	43	0	925892608	63	4141
2026-01-26 23:14:55.73	131.58	27.46	-45.2	-46.5	20.5	0.00e+00	0	43	0	927989760	62	4052
2026-01-26 23:14:56.73	131.83	27.36	-45.2	-46.5	20.5	0.00e+00	0	43	0	929038336	62	4064
2026-01-26 23:14:57.74	132.09	27.25	-45.2	-46.5	20.6	0.00e+00	0	43	0	931135488	61	4293
2026-01-26 23:14:58.75	132.34	27.14	-45.9	-47.3	19.8	0.00e+00	0	43	0	933232640	62	4477
2026-01-26 23:14:59.75	132.59	27.04	-46.8	-48.4	18.7	0.00e+00	0	43	0	935329792	64	4530
2026-01-26 23:15:00.76	132.83	26.93	-46.8	-48.5	18.6	0.00e+00	0	43	0	937426944	64	4552
2026-01-26 23:15:01.77	133.08	26.82	-46.6	-48.3	18.8	0.00e+00	0	43	0	938475520	64	4442
2026-01-26 23:15:02.77	133.32	26.72	-46.0	-47.4	19.6	0.00e+00	0	43	0	940572672	64	4028
2026-01-26 23:15:03.78	133.57	26.61	-45.8	-47.1	19.9	0.00e+00	0	43	0	942669824	63	4140
2026-01-26 23:15:04.78	133.81	26.51	-45.9	-47.3	19.8	0.00e+00	0	43	0	944766976	63	4213
2026-01-26 23:15:05.79	134.05	26.40	-46.7	-48.3	18.9	0.00e+00	0	43	0	946864128	64	4493
2026-01-26 23:15:06.80	134.29	26.29	-46.9	-48.6	18.5	0.00e+00	0	43	0	948961280	64	4617
2026-01-26 23:15:07.81	134.53	26.18	-47.1	-48.8	18.3	0.00e+00	0	43	0	950009856	65	4484
2026-01-26 23:15:08.81	134.76	26.08	-46.9	-48.6	18.5	0.00e+00	0	43	0	952107008	65	4346
2026-01-26 23:15:09.82	134.99	25.97	-46.0	-47.4	19.6	0.00e+00	0	43	0	954204160	63	4291
2026-01-26 23:15:10.83	135.23	25.86	-45.4	-46.7	20.3	0.00e+00	0	43	0	956301312	62	4170
2026-01-26 23:15:11.84	135.46	25.76	-45.3	-46.6	20.4	0.00e+00	0	43	0	957349888	62	4114
2026-01-26 23:15:12.84	135.69	25.65	-45.9	-47.3	19.8	0.00e+00	0	43	0	959447040	62	4474
2026-01-26 23:15:13.85	135.91	25.54	-46.7	-48.3	18.9	0.00e+00	0	43	0	961544192	63	4732
2026-01-26 23:15:14.87	136.14	25.43	-47.3	-49.2	17.9	0.00e+00	0	43	0	963641344	65	4663
2026-01-26 23:15:15.87	136.37	25.33	-47.3	-49.2	17.9	0.00e+00	0	43	0	965738496	65	4654
2026-01-26 23:15:16.88	136.59	25.22	-46.7	-48.4	18.6	0.00e+00	0	43	0	966787072	65	4268
2026-01-26 23:15:17.89	136.81	25.11	-46.0	-47.4	19.5	0.00e+00	0	43	0	968884224	63	4269
2026-01-26 23:15:18.89	137.03	25.00	-45.4	-46.7	20.2	0.00e+00	0	43	0	970981376	62	4176
2026-01-26 23:15:19.90	137.25	24.90	-44.9	-46.1	20.8	0.00e+00	0	43	0	973078528	61	4102
2026-01-26 23:15:20.91	137.47	24.79	-44.6	-45.8	21.1	0.00e+00	0	43	0	975175680	60	4206
2026-01-26 23:15:21.92	137.69	24.68	-44.5	-45.6	21.2	0.00e+00	0	43	0	977272832	60	4128
2026-01-26 23:15:22.93	137.90	24.57	-45.1	-46.4	20.6	0.00e+00	0	43	0	978321408	60	4508
2026-01-26 23:15:23.93	138.11	24.47	-45.7	-47.1	19.8	0.00e+00	0	43	0	980418560	62	4372
2026-01-26 23:15:24.94	138.33	24.36	-45.8	-47.2	19.8	0.00e+00	0	43	0	982515712	62	4422
2026-01-26 23:15:25.95	138.54	24.25	-46.1	-47.5	19.4	0.00e+00	0	43	0	984612864	63	4330
2026-01-26 23:15:26.96	138.75	24.14	-45.7	-47.1	19.8	0.00e+00	0	43	0	985661440	63	4115
2026-01-26 23:15:27.96	138.95	24.04	-45.5	-46.8	20.2	0.00e+00	0	43	0	987758592	62	4212
2026-01-26 23:15:28.97	139.16	23.93	-45.2	-46.5	20.4	0.00e+00	0	43	0	989855744	62	4072
2026-01-26 23:15:29.97	139.36	23.82	-45.0	-46.2	20.6	0.00e+00	0	43	0	991952896	61	4159
2026-01-26 23:15:30.98	139.57	23.72	-45.0	-46.3	20.6	0.00e+00	0	43	0	994050048	61	4206
2026-01-26 23:15:31.99	139.77	23.61	-45.3	-46.6	20.3	0.00e+00	0	43	0	995098624	61	4356
2026-01-26 23:15:33.00	139.97	23.50	-45.4	-46.7	20.2	0.00e+00	0	43	0	997195776	61	4412
2026-01-26 23:15:34.01	140.17	23.40	-45.2	-46.5	20.3	0.00e+00	0	43	0	999292928	61	4318
2026-01-26 23:15:35.01	140.37	23.29	-45.0	-46.2	20.6	0.00e+00	0	43	0	1001390080	61	4188
2026-01-26 23:15:36.02	140.56	23.18	-44.5	-45.7	21.1	0.00e+00	0	43	0	1003487232	60	4148
2026-01-26 23:15:37.03	140.76	23.08	-44.0	-45.1	21.5	0.00e+00	0	43	0	1005584384	60	3887
2026-01-26 23:15:38.03	140.95	22.97	-44.5	-45.6	21.4	0.00e+00	0	43	0	1006632960	59	4379
2026-01-26 23:15:39.04	141.15	22.86	-44.2	-45.3	21.6	0.00e+00	0	43	0	1008730112	59	4242
2026-01-26 23:15:40.05	141.34	22.76	-44.4	-45.6	21.4	0.00e+00	0	43	0	1010827264	59	4343
2026-01-26 23:15:41.06	141.53	22.65	-44.5	-45.6	21.2	0.00e+00	0	43	0	1012924416	60	4132
2026-01-26 23:15:42.06	141.72	22.55	-44.6	-45.8	21.0	0.00e+00	0	43	0	1013972992	60	4229
2026-01-26 23:15:43.07	141.91	22.44	-44.8	-46.0	20.7	0.00e+00	0	43	0	1016070144	60	4336
2026-01-26 23:15:44.08	142.09	22.33	-45.0	-46.3	20.5	0.00e+00	0	43	0	1018167296	60	4454
2026-01-26 23:15:45.09	142.28	22.23	-44.8	-46.1	20.7	0.00e+00	0	43	0	1020264448	60	4364
2026-01-26 23:15:46.09	142.46	22.12	-44.7	-46.0	20.8	0.00e+00	0	43	0	1022361600	60	4304
2026-01-26 23:15:47.10	142.64	22.02	-44.5	-45.7	21.1	0.00e+00	0	43	0	1024458752	60	4162
2026-01-26 23:15:48.11	142.83	21.91	-44.1	-45.3	21.4	0.00e+00	0	43	0	1025507328	60	3964
2026-01-26 23:15:49.11	143.01	21.81	-44.1	-45.2	21.5	0.00e+00	0	43	0	1027604480	60	3940
2026-01-26 23:15:50.12	143.19	21.70	-44.2	-45.3	21.4	0.00e+00	0	43	0	1029701632	60	3980
2026-01-26 23:15:51.13	143.37	21.60	-44.4	-45.6	21.4	0.00e+00	0	43	0	1031798784	59	4353
2026-01-26 23:15:52.14	143.54	21.49	-44.6	-45.8	21.3	0.00e+00	0	43	0	1033895936	59	4446
2026-01-26 23:15:53.14	143.72	21.39	-44.6	-45.8	21.0	0.00e+00	0	43	0	1034944512	60	4199
2026-01-26 23:15:54.15	143.89	21.29	-44.6	-45.8	20.9	0.00e+00	0	43	0	1037041664	60	4240
2026-01-26 23:15:55.16	144.07	21.18	-44.8	-46.0	20.7	0.00e+00	0	43	0	1039138816	60	4338
2026-01-26 23:15:56.17	144.24	21.08	-45.0	-46.2	20.6	0.00e+00	0	43	0	1041235968	60	4440
2026-01-26 23:15:57.17	144.41	20.97	-44.9	-46.2	20.6	0.00e+00	0	43	0	1042284544	60	4419
2026-01-26 23:15:58.18	144.58	20.87	-45.1	-46.4	20.4	0.00e+00	0	43	0	1044381696	60	4495
2026-01-26 23:15:59.19	144.75	20.77	-44.7	-46.0	20.7	0.00e+00	0	43	0	1046478848	60	4304
2026-01-26 23:16:00.20	144.92	20.66	-44.6	-45.8	20.9	0.00e+00	0	43	0	1048576000	60	4225
2026-01-26 23:16:01.21	145.09	20.56	-44.6	-45.8	20.9	0.00e+00	0	43	0	1050673152	60	4222
2026-01-26 23:16:02.21	145.25	20.46	-44.4	-45.5	21.2	0.00e+00	0	43	0	1052770304	60	4087
2026-01-26 23:16:03.22	145.42	20.36	-44.4	-45.6	21.1	0.00e+00	0	43	0	1053818880	60	4106
2026-01-26 23:16:04.23	145.58	20.25	-44.3	-45.5	21.2	0.00e+00	0	43	0	1055916032	60	4075
2026-01-26 23:16:05.23	145.74	20.15	-44.4	-45.6	21.1	0.00e+00	0	43	0	1058013184	60	4110
2026-01-26 23:16:06.24	145.90	20.05	-44.7	-45.9	20.7	0.00e+00	0	43	0	1060110336	60	4285
2026-01-26 23:16:07.25	146.07	19.95	-44.5	-45.8	20.9	0.00e+00	0	43	0	1062207488	60	4194
2026-01-26 23:16:08.26	146.23	19.85	-44.7	-45.9	20.8	0.00e+00	0	43	0	1063256064	60	4286
2026-01-26 23:16:09.27	146.38	19.74	-44.7	-45.9	20.8	0.00e+00	0	43	0	1065353216	60	4275
2026-01-26 23:16:10.27	146.54	19.64	-44.6	-45.8	20.9	0.00e+00	0	43	0	1067450368	60	4220
2026-01-26 23:16:11.28	146.70	19.54	-44.6	-45.8	20.9	0.00e+00	0	43	0	1069547520	60	4207
2026-01-26 23:16:12.29	146.85	19.44	-44.2	-45.3	21.2	0.00e+00	0	43	0	1070596096	60	4004
2026-01-26 23:16:13.30	147.01	19.34	-44.1	-45.2	21.4	0.00e+00	0	43	0	1072693248	60	3946
2026-01-26 23:16:14.31	147.16	19.24	-44.1	-45.2	21.4	0.00e+00	0	43	0	1074790400	60	3932
2026-01-26 23:16:15.32	147.32	19.14	-44.0	-45.1	21.5	0.00e+00	0	43	0	1076887552	60	3901
2026-01-26 23:16:16.33	147.47	19.04	-44.2	-45.4	21.3	0.00e+00	0	43	0	1078984704	60	4005
2026-01-26 23:16:17.34	147.62	18.94	-44.3	-45.5	21.1	0.00e+00	0	43	0	1081081856	60	4080
2026-01-26 23:16:18.34	147.77	18.84	-44.8	-46.0	20.8	0.00e+00	0	43	0	1082130432	60	4314
2026-01-26 23:16:19.35	147.92	18.74	-44.9	-46.1	20.5	0.00e+00	0	43	0	1084227584	60	4377
2026-01-26 23:16:20.36	148.07	18.64	-45.1	-46.4	20.3	0.00e+00	0	43	0	1086324736	60	4538
2026-01-26 23:16:21.37	148.21	18.54	-45.3	-46.6	20.1	0.00e+00	0	43	0	1088421888	61	4373
2026-01-26 23:16:22.38	148.36	18.44	-45.7	-47.1	19.7	0.00e+00	0	43	0	1090519040	61	4622
2026-01-26 23:16:23.39	148.51	18.35	-46.1	-47.6	19.2	0.00e+00	0	43	0	1091567616	62	4637
2026-01-26 23:16:24.40	148.65	18.25	-46.2	-47.8	19.1	0.00e+00	0	43	0	1093664768	63	4442
2026-01-26 23:16:25.41	148.79	18.15	-46.5	-48.1	18.8	0.00e+00	0	43	0	1095761920	63	4628
2026-01-26 23:16:26.41	148.94	18.05	-46.6	-48.3	18.4	0.00e+00	0	43	0	1097859072	64	4465
2026-01-26 23:16:27.42	149.08	17.95	-46.7	-48.4	18.4	0.00e+00	0	43	0	1099956224	64	4509
2026-01-26 23:16:28.43	149.22	17.86	-46.6	-48.3	18.5	0.00e+00	0	43	0	1101004800	64	4473
2026-01-26 23:16:29.44	149.36	17.76	-46.4	-48.0	18.7	0.00e+00	0	43	0	1103101952	64	4330
2026-01-26 23:16:30.45	149.50	17.66	-46.2	-47.8	19.0	0.00e+00	0	43	0	1105199104	64	4198
2026-01-26 23:16:31.45	149.63	17.57	-46.2	-47.7	19.0	0.00e+00	0	43	0	1107296256	64	4180
2026-01-26 23:16:32.46	149.77	17.47	-45.7	-47.1	19.6	0.00e+00	0	43	0	1109393408	63	4113
2026-01-26 23:16:33.47	149.91	17.37	-45.5	-46.9	19.8	0.00e+00	0	43	0	1110441984	62	4269
2026-01-26 23:16:34.47	150.04	17.28	-45.7	-47.1	19.7	0.00e+00	0	43	0	1112539136	62	4345
2026-01-26 23:16:35.48	150.18	17.18	-45.6	-46.9	19.8	0.00e+00	0	43	0	1114636288	62	4285
2026-01-26 23:16:36.49	150.31	17.09	-45.9	-47.3	19.4	0.00e+00	0	43	0	1116733440	62	4479
2026-01-26 23:16:37.50	150.45	16.99	-46.0	-47.5	19.3	0.00e+00	0	43	0	1118830592	62	4558
2026-01-26 23:16:38.51	150.58	16.89	-46.0	-47.5	19.2	0.00e+00	0	43	0	1119879168	62	4592
2026-01-26 23:16:39.51	150.71	16.80	-46.2	-47.8	19.0	0.00e+00	0	43	0	1121976320	63	4464
2026-01-26 23:16:40.52	150.84	16.71	-46.3	-47.9	18.9	0.00e+00	0	43	0	1124073472	63	4498
2026-01-26 23:16:41.53	150.97	16.61	-46.4	-48.1	18.7	0.00e+00	0	43	0	1126170624	63	4610
2026-01-26 23:16:42.54	151.10	16.52	-46.3	-47.9	18.8	0.00e+00	0	43	0	1128267776	63	4533
2026-01-26 23:16:43.54	151.23	16.42	-46.0	-47.5	19.3	0.00e+00	0	43	0	1129316352	63	4299
2026-01-26 23:16:44.55	151.36	16.33	-46.1	-47.6	19.1	0.00e+00	0	43	0	1131413504	63	4387
2026-01-26 23:16:45.56	151.48	16.24	-45.8	-47.2	19.5	0.00e+00	0	43	0	1133510656	63	4170
2026-01-26 23:16:46.57	151.61	16.14	-45.6	-47.0	19.7	0.00e+00	0	43	0	1135607808	62	4299
2026-01-26 23:16:47.57	151.73	16.05	-45.5	-46.9	19.8	0.00e+00	0	43	0	1137704960	62	4251
2026-01-26 23:16:48.58	151.86	15.96	-45.0	-46.3	20.3	0.00e+00	0	43	0	1138753536	62	3990
2026-01-26 23:16:49.59	151.98	15.86	-45.2	-46.5	20.2	0.00e+00	0	43	0	1140850688	62	4080
2026-01-26 23:16:50.60	152.11	15.77	-45.2	-46.5	20.1	0.00e+00	0	43	0	1142947840	62	4090
2026-01-26 23:16:51.60	152.23	15.68	-45.2	-46.5	20.2	0.00e+00	0	43	0	1145044992	62	4062
2026-01-26 23:16:52.61	152.35	15.59	-45.5	-46.9	19.8	0.00e+00	0	43	0	1147142144	62	4264
2026-01-26 23:16:53.62	152.47	15.50	-45.2	-46.6	20.1	0.00e+00	0	43	0	1148190720	62	4106
2026-01-26 23:16:54.63	152.59	15.40	-45.5	-46.9	19.8	0.00e+00	0	43	0	1150287872	62	4268
2026-01-26 23:16:55.64	152.71	15.31	-45.9	-47.3	19.3	0.00e+00	0	43	0	1152385024	62	4487
2026-01-26 23:16:56.65	152.83	15.22	-45.5	-46.8	19.8	0.00e+00	0	43	0	1154482176	62	4242
2026-01-26 23:16:57.65	152.95	15.13	-45.6	-47.0	19.6	0.00e+00	0	43	0	1156579328	62	4332
2026-01-26 23:16:58.66	153.07	15.04	-45.4	-46.7	19.9	0.00e+00	0	43	0	1157627904	62	4175
2026-01-26 23:16:59.67	153.18	14.95	-45.1	-46.5	20.1	0.00e+00	0	43	0	1159725056	62	4060
2026-01-26 23:17:00.67	153.30	14.86	-45.3	-46.6	20.0	0.00e+00	0	43	0	1161822208	62	4117
2026-01-26 23:17:01.68	153.41	14.77	-45.0	-46.3	20.3	0.00e+00	0	43	0	1163919360	62	3997
2026-01-26 23:17:02.69	153.53	14.68	-45.0	-46.3	20.3	0.00e+00	0	43	0	1166016512	61	4213
2026-01-26 23:17:03.69	153.64	14.59	-45.3	-46.6	20.0	0.00e+00	0	43	0	1168113664	61	4375
2026-01-26 23:17:04.70	153.76	14.50	-45.0	-46.3	20.3	0.00e+00	0	43	0	1169162240	61	4213
2026-01-26 23:17:05.71	153.87	14.41	-45.2	-46.6	20.0	0.00e+00	0	43	0	1171259392	61	4347
2026-01-26 23:17:06.72	153.98	14.32	-45.1	-46.5	20.1	0.00e+00	0	43	0	1173356544	61	4298
2026-01-26 23:17:07.72	154.09	14.24	-45.4	-46.8	19.8	0.00e+00	0	43	0	1175453696	61	4454
2026-01-26 23:17:08.73	154.20	14.15	-45.6	-47.1	19.5	0.00e+00	0	43	0	1176502272	61	4615
2026-01-26 23:17:09.74	154.31	14.06	-45.7	-47.1	19.5	0.00e+00	0	43	0	1178599424	62	4370
2026-01-26 23:17:10.74	154.42	13.97	-45.9	-47.4	19.3	0.00e+00	0	43	0	1180696576	62	4530
2026-01-26 23:17:11.75	154.53	13.88	-45.8	-47.3	19.3	0.00e+00	0	43	0	1182793728	62	4479
2026-01-26 23:17:12.76	154.64	13.80	-45.6	-47.1	19.5	0.00e+00	0	43	0	1184890880	62	4348
2026-01-26 23:17:13.77	154.75	13.71	-45.7	-47.2	19.4	0.00e+00	0	43	0	1185939456	62	4422
2026-01-26 23:17:14.77	154.85	13.62	-45.6	-47.1	19.5	0.00e+00	0	43	0	1188036608	62	4348
2026-01-26 23:17:15.78	154.96	13.54	-45.6	-47.1	19.5	0.00e+00	0	43	0	1190133760	62	4366
2026-01-26 23:17:16.79	155.07	13.45	-45.7	-47.2	19.4	0.00e+00	0	43	0	1192230912	62	4396
2026-01-26 23:17:17.80	155.17	13.36	-45.4	-46.8	19.8	0.00e+00	0	43	0	1194328064	62	4202
2026-01-26 23:17:18.81	155.28	13.28	-45.5	-46.9	19.7	0.00e+00	0	43	0	1196425216	62	4268
2026-01-26 23:17:19.81	155.38	13.19	-45.5	-46.9	19.7	0.00e+00	0	43	0	1197473792	62	4259
2026-01-26 23:17:20.82	155.49	13.11	-45.5	-46.9	19.6	0.00e+00	0	43	0	1199570944	62	4278
2026-01-26 23:17:21.82	155.59	13.02	-45.8	-47.2	19.3	0.00e+00	0	43	0	1201668096	62	4425
2026-01-26 23:17:22.83	155.69	12.94	-45.6	-47.0	19.5	0.00e+00	0	43	0	1203765248	62	4324
2026-01-26 23:17:23.84	155.79	12.85	-45.7	-47.1	19.4	0.00e+00	0	43	0	1204813824	62	4390
2026-01-26 23:17:24.84	155.89	12.77	-46.0	-47.5	19.1	0.00e+00	0	43	0	1206910976	62	4582
2026-01-26 23:17:25.85	155.99	12.68	-46.0	-47.6	19.0	0.00e+00	0	43	0	1209008128	62	4611
2026-01-26 23:17:26.86	156.10	12.60	-46.3	-47.9	18.7	0.00e+00	0	43	0	1211105280	63	4528
2026-01-26 23:17:27.87	156.20	12.51	-46.5	-48.2	18.4	0.00e+00	0	43	0	1213202432	63	4684
2026-01-26 23:17:28.88	156.29	12.43	-46.6	-48.3	18.3	0.00e+00	0	43	0	1214251008	63	4752
2026-01-26 23:17:29.88	156.39	12.35	-46.9	-48.7	17.8	0.00e+00	0	43	0	1216348160	64	4705
2026-01-26 23:17:30.89	156.49	12.26	-46.9	-48.8	17.8	0.00e+00	0	43	0	1218445312	64	4731
2026-01-26 23:17:31.89	156.59	12.18	-47.1	-49.0	17.6	0.00e+00	0	43	0	1220542464	64	4857
2026-01-26 23:17:32.90	156.69	12.10	-47.3	-49.3	17.2	0.00e+00	0	43	0	1222639616	65	4737
2026-01-26 23:17:33.91	156.78	12.01	-47.2	-49.2	17.4	0.00e+00	0	43	0	1224736768	65	4670
2026-01-26 23:17:34.92	156.88	11.93	-47.4	-49.5	17.1	0.00e+00	0	43	0	1225785344	65	4823
2026-01-26 23:17:35.92	156.97	11.85	-47.1	-49.1	17.5	0.00e+00	0	43	0	1227882496	65	4602
2026-01-26 23:17:36.93	157.07	11.77	-47.1	-49.1	17.5	0.00e+00	0	43	0	1229979648	65	4602
2026-01-26 23:17:37.94	157.16	11.68	-47.1	-49.1	17.4	0.00e+00	0	43	0	1232076800	65	4610
2026-01-26 23:17:38.94	157.26	11.60	-46.8	-48.6	17.9	0.00e+00	0	43	0	1233125376	65	4376
2026-01-26 23:17:39.95	157.35	11.52	-46.7	-48.5	18.0	0.00e+00	0	43	0	1235222528	65	4326
2026-01-26 23:17:40.96	157.44	11.44	-46.7	-48.5	18.0	0.00e+00	0	43	0	1237319680	65	4336
2026-01-26 23:17:41.97	157.54	11.36	-46.5	-48.1	18.3	0.00e+00	0	43	0	1239416832	64	4389
2026-01-26 23:17:42.98	157.63	11.28	-46.2	-47.9	18.6	0.00e+00	0	43	0	1241513984	64	4244
2026-01-26 23:17:43.99	157.72	11.20	-45.9	-47.5	19.0	0.00e+00	0	43	0	1242562560	63	4310
2026-01-26 23:17:44.99	157.81	11.12	-46.0	-47.6	18.9	0.00e+00	0	43	0	1244659712	63	4357
