passes_logs/2026/01/26/R3.2S_Murmansk/R3.2S_Murmansk__20260126_223859_KANOPUS-V_5_rec.log

#Pass ID: 20260126_223859_KANOPUS-V 5
#Satellite: KANOPUS-V 5
#Configuration: KANOPUS-V_8320
#almurnet v.1.7.20251203
#Start time: 2026-01-26 22:39:01

#Version: 2.2.20231116
#Station: R3.2S_Murmansk
#Location: 33.079688 lon 68.888172 lat
#TLE: 1 43876U 18111A   26026.53344362  .00004964  00000+0  21063-3 0  9993
#TLE: 2 43876  97.3674 294.8392 0001826  89.2862 270.8585 15.23550007393227

#Time	Az	El	Level	Level2	SNR	BER	BlckErr	Temp	State	Recorded	gain1	gain2
2026-01-26 22:39:01.58	20.85	2.16	-54.9	-63.8	3.8	7.46e-01	0	41	0	0	80	10542
2026-01-26 22:39:02.58	20.84	2.23	-55.1	-63.9	3.8	7.44e-01	0	41	104	0	81	10175
2026-01-26 22:39:03.59	20.82	2.30	-55.1	-63.9	3.8	7.47e-01	0	41	104	0	81	10173
2026-01-26 22:39:04.60	20.81	2.37	-55.1	-63.9	3.8	7.44e-01	0	41	104	0	81	10174
2026-01-26 22:39:05.61	20.79	2.44	-55.1	-63.9	3.8	7.45e-01	0	42	104	0	81	10118
2026-01-26 22:39:06.62	20.78	2.51	-55.0	-63.9	3.8	7.43e-01	0	42	104	0	81	10065
2026-01-26 22:39:07.63	20.77	2.58	-55.0	-63.8	3.8	7.45e-01	0	41	104	0	81	10006
2026-01-26 22:39:08.64	20.75	2.66	-54.9	-63.8	3.8	7.46e-01	0	42	104	0	81	9950
2026-01-26 22:39:09.65	20.74	2.73	-54.9	-63.8	3.8	7.46e-01	0	42	104	0	81	9975
2026-01-26 22:39:10.65	20.72	2.80	-54.9	-63.7	3.8	7.45e-01	0	42	104	0	81	9944
2026-01-26 22:39:11.66	20.71	2.87	-54.9	-63.7	3.8	7.44e-01	0	42	104	0	81	9891
2026-01-26 22:39:12.66	20.69	2.95	-54.8	-63.7	3.8	7.45e-01	0	42	104	0	81	9849
2026-01-26 22:39:13.67	20.68	3.02	-54.8	-63.6	3.8	7.47e-01	0	42	104	0	81	9794
2026-01-26 22:39:14.68	20.66	3.09	-54.7	-63.5	3.8	7.46e-01	0	42	104	0	81	9693
2026-01-26 22:39:15.69	20.65	3.17	-54.6	-63.4	3.8	7.45e-01	0	42	104	0	81	9559
2026-01-26 22:39:16.70	20.63	3.24	-54.5	-63.3	3.8	7.46e-01	0	42	104	0	81	9438
2026-01-26 22:39:17.70	20.62	3.32	-54.3	-63.1	3.8	7.45e-01	0	42	104	0	80	9829
2026-01-26 22:39:18.71	20.60	3.39	-54.2	-63.0	3.8	7.45e-01	0	42	104	0	80	9634
2026-01-26 22:39:19.72	20.58	3.47	-54.0	-62.8	3.8	7.44e-01	0	42	104	0	79	10015
2026-01-26 22:39:20.72	20.57	3.54	-53.6	-62.4	3.8	7.47e-01	0	42	104	0	79	9566
2026-01-26 22:39:21.73	20.55	3.62	-53.2	-62.1	3.8	7.44e-01	0	42	104	0	78	9728
2026-01-26 22:39:22.74	20.54	3.69	-53.2	-62.0	3.8	7.46e-01	0	42	104	0	78	9713
2026-01-26 22:39:23.75	20.52	3.77	-53.2	-62.0	3.8	7.45e-01	0	42	104	0	78	9689
2026-01-26 22:39:24.75	20.50	3.84	-53.2	-62.0	3.8	7.45e-01	0	42	104	0	78	9692
2026-01-26 22:39:25.76	20.49	3.92	-53.1	-62.1	3.8	7.45e-01	0	42	104	0	78	9746
2026-01-26 22:39:26.77	20.47	4.00	-53.2	-62.0	3.8	7.45e-01	0	42	104	0	78	9699
2026-01-26 22:39:27.78	20.45	4.07	-53.2	-62.0	3.8	7.45e-01	0	42	104	0	78	9704
2026-01-26 22:39:28.79	20.44	4.15	-53.2	-62.0	3.8	7.46e-01	0	42	104	0	78	9663
2026-01-26 22:39:29.79	20.42	4.23	-53.2	-62.1	3.8	7.44e-01	0	42	104	0	78	9718
2026-01-26 22:39:30.80	20.40	4.31	-53.2	-62.0	3.8	7.47e-01	0	42	104	0	78	9695
2026-01-26 22:39:31.81	20.38	4.39	-53.2	-62.0	3.8	7.44e-01	0	42	104	0	78	9695
2026-01-26 22:39:32.81	20.37	4.46	-53.2	-62.0	3.8	7.45e-01	0	42	104	0	78	9692
2026-01-26 22:39:33.82	20.35	4.54	-53.2	-62.0	3.8	7.45e-01	0	42	104	0	78	9677
2026-01-26 22:39:34.83	20.33	4.62	-53.2	-62.0	3.8	7.45e-01	0	42	104	0	78	9695
2026-01-26 22:39:35.84	20.31	4.70	-53.2	-62.0	3.8	7.46e-01	0	42	104	0	78	9693
2026-01-26 22:39:36.84	20.29	4.78	-53.2	-62.0	3.8	7.45e-01	0	42	104	0	78	9683
2026-01-26 22:39:37.85	20.28	4.86	-53.2	-62.0	3.8	7.46e-01	0	42	104	0	78	9657
2026-01-26 22:39:38.87	20.26	4.94	-53.2	-62.0	3.8	7.44e-01	0	42	104	0	78	9666
2026-01-26 22:39:39.87	20.24	5.02	-53.2	-62.0	3.8	7.45e-01	0	43	104	0	78	9698
2026-01-26 22:39:40.88	20.22	5.11	-53.2	-62.0	3.8	7.45e-01	0	42	104	0	78	9706
2026-01-26 22:39:41.89	20.20	5.19	-53.3	-62.2	3.8	7.45e-01	0	43	104	0	78	9840
2026-01-26 22:39:42.89	20.18	5.27	-53.2	-62.0	3.8	7.46e-01	0	42	104	0	78	9613
2026-01-26 22:39:43.90	20.16	5.35	-53.3	-62.1	3.8	7.43e-01	0	43	104	0	78	9801
2026-01-26 22:39:44.91	20.14	5.43	-53.2	-62.0	3.8	7.45e-01	0	42	104	0	78	9706
2026-01-26 22:39:45.91	20.12	5.52	-53.4	-62.2	3.8	7.45e-01	0	43	104	0	78	9851
2026-01-26 22:39:46.92	20.10	5.60	-53.2	-62.0	3.8	7.45e-01	0	43	104	0	78	9653
2026-01-26 22:39:47.93	20.08	5.68	-53.3	-62.1	3.8	7.45e-01	0	42	104	0	78	9796
2026-01-26 22:39:48.94	20.06	5.77	-53.2	-62.1	3.8	7.45e-01	0	42	104	0	78	9767
2026-01-26 22:39:49.95	20.04	5.85	-53.4	-62.3	3.8	7.45e-01	0	43	104	0	78	9960
2026-01-26 22:39:50.95	20.02	5.94	-53.2	-62.0	3.8	7.45e-01	0	43	104	0	78	9650
2026-01-26 22:39:51.96	20.00	6.02	-53.4	-62.2	3.8	7.45e-01	0	43	104	0	78	9883
2026-01-26 22:39:52.96	19.98	6.11	-53.3	-62.1	3.8	7.44e-01	0	43	104	0	78	9802
2026-01-26 22:39:53.97	19.96	6.19	-53.4	-62.3	3.8	7.44e-01	0	43	104	0	78	9955
2026-01-26 22:39:54.98	19.94	6.28	-53.3	-62.1	3.8	7.45e-01	0	43	104	0	78	9760
2026-01-26 22:39:55.99	19.92	6.37	-53.4	-62.2	3.8	7.44e-01	0	43	104	0	78	9890
2026-01-26 22:39:56.99	19.89	6.45	-53.3	-62.2	3.8	7.46e-01	0	43	104	0	78	9846
2026-01-26 22:39:58.00	19.87	6.54	-53.5	-62.3	3.8	7.47e-01	0	43	104	0	78	10012
2026-01-26 22:39:59.01	19.85	6.63	-53.3	-62.1	3.8	7.45e-01	0	43	104	0	78	9825
2026-01-26 22:40:00.01	19.83	6.72	-53.4	-62.2	3.8	7.45e-01	0	43	104	0	78	9925
2026-01-26 22:40:01.02	19.81	6.80	-53.4	-62.2	3.8	7.45e-01	0	43	104	0	78	9871
2026-01-26 22:40:02.03	19.78	6.89	-53.5	-62.3	3.8	7.47e-01	0	43	104	0	78	10056
2026-01-26 22:40:03.04	19.76	6.98	-53.4	-62.2	3.8	7.48e-01	0	43	104	0	78	9831
2026-01-26 22:40:04.05	19.74	7.07	-53.5	-62.3	3.8	7.46e-01	0	43	104	0	78	10002
2026-01-26 22:40:05.06	19.71	7.16	-53.4	-62.2	3.8	7.45e-01	0	43	104	0	78	9913
2026-01-26 22:40:06.07	19.69	7.25	-53.5	-62.4	3.8	7.46e-01	0	43	104	0	78	10102
2026-01-26 22:40:07.07	19.67	7.34	-53.4	-62.2	3.8	7.44e-01	0	43	104	0	78	9927
2026-01-26 22:40:08.08	19.64	7.44	-53.5	-62.3	3.8	7.44e-01	0	43	104	0	78	10025
2026-01-26 22:40:09.09	19.62	7.53	-53.4	-62.3	3.8	7.46e-01	0	43	104	0	78	9966
2026-01-26 22:40:10.09	19.59	7.62	-53.6	-62.4	3.8	7.45e-01	0	43	104	0	78	10127
2026-01-26 22:40:11.10	19.57	7.71	-53.4	-62.3	3.8	7.45e-01	0	43	104	0	78	9949
2026-01-26 22:40:12.11	19.54	7.81	-53.5	-62.4	3.8	7.43e-01	0	43	104	0	78	10083
2026-01-26 22:40:13.12	19.52	7.90	-53.5	-62.3	3.8	7.46e-01	0	43	104	0	78	10052
2026-01-26 22:40:14.13	19.49	8.00	-53.6	-62.4	3.8	7.46e-01	0	43	104	0	78	10168
2026-01-26 22:40:15.13	19.47	8.09	-53.5	-62.3	3.8	7.45e-01	0	43	104	0	78	10024
2026-01-26 22:40:16.14	19.44	8.18	-53.6	-62.4	3.8	7.45e-01	0	43	104	0	78	10152
2026-01-26 22:40:17.14	19.42	8.28	-53.5	-62.3	3.8	7.45e-01	0	43	104	0	78	10054
2026-01-26 22:40:18.15	19.39	8.38	-53.6	-62.5	3.8	7.44e-01	0	43	104	0	78	10204
2026-01-26 22:40:19.16	19.36	8.47	-53.5	-62.4	3.8	7.46e-01	0	43	104	0	78	10066
2026-01-26 22:40:20.16	19.34	8.57	-53.6	-62.4	3.8	7.46e-01	0	43	104	0	78	10163
2026-01-26 22:40:21.17	19.31	8.67	-53.6	-62.4	3.8	7.44e-01	0	43	104	0	78	10110
2026-01-26 22:40:22.18	19.28	8.77	-53.7	-62.5	3.8	7.45e-01	0	43	104	0	78	10237
2026-01-26 22:40:23.19	19.25	8.86	-53.6	-62.4	3.8	7.45e-01	0	43	104	0	78	10086
2026-01-26 22:40:24.19	19.23	8.96	-53.6	-62.4	3.8	7.45e-01	0	43	104	0	78	10157
2026-01-26 22:40:25.19	19.20	9.06	-53.6	-62.4	3.8	7.45e-01	0	43	104	0	78	10157
2026-01-26 22:40:26.20	19.17	9.16	-53.7	-62.5	3.8	7.46e-01	0	43	104	0	78	10286
2026-01-26 22:40:27.21	19.14	9.26	-53.6	-62.4	3.8	7.45e-01	0	43	104	0	78	10128
2026-01-26 22:40:28.21	19.11	9.36	-53.7	-62.5	3.8	7.46e-01	0	43	104	0	78	10232
2026-01-26 22:40:29.22	19.08	9.47	-53.6	-62.4	3.8	7.45e-01	0	43	104	0	78	10164
2026-01-26 22:40:30.23	19.05	9.57	-53.7	-62.6	3.8	7.45e-01	0	43	104	0	78	10313
2026-01-26 22:40:31.23	19.02	9.67	-53.6	-62.5	3.8	7.45e-01	0	43	104	0	78	10183
2026-01-26 22:40:32.24	18.99	9.77	-53.7	-62.5	3.8	7.43e-01	0	43	104	0	78	10271
2026-01-26 22:40:33.25	18.96	9.88	-53.7	-62.5	3.8	7.45e-01	0	43	104	0	78	10198
2026-01-26 22:40:34.26	18.93	9.98	-53.8	-62.6	3.8	7.45e-01	0	43	104	0	78	10318
2026-01-26 22:40:35.27	18.90	10.09	-53.7	-62.5	3.8	7.46e-01	0	43	104	0	78	10232
2026-01-26 22:40:36.27	18.87	10.19	-53.7	-62.5	3.8	7.44e-01	0	43	104	0	78	10259
2026-01-26 22:40:37.28	18.84	10.30	-53.7	-62.5	3.8	7.46e-01	0	43	104	0	78	10257
2026-01-26 22:40:38.29	18.80	10.41	-53.8	-62.6	3.8	7.44e-01	0	43	104	0	78	10316
2026-01-26 22:40:39.30	18.77	10.52	-53.7	-62.5	3.8	7.44e-01	0	43	104	0	78	10223
2026-01-26 22:40:40.30	18.74	10.62	-53.7	-62.6	3.8	7.46e-01	0	43	104	0	78	10315
2026-01-26 22:40:41.31	18.71	10.73	-53.7	-62.5	3.8	7.44e-01	0	43	104	0	78	10279
2026-01-26 22:40:42.32	18.67	10.84	-53.8	-62.6	3.8	7.46e-01	0	43	104	0	78	10350
2026-01-26 22:40:43.33	18.64	10.95	-53.7	-62.5	3.8	7.47e-01	0	43	104	0	78	10266
2026-01-26 22:40:44.34	18.60	11.06	-53.8	-62.6	3.8	7.44e-01	0	43	104	0	78	10302
2026-01-26 22:40:45.35	18.57	11.18	-53.7	-62.5	3.8	7.44e-01	0	43	104	0	78	10279
2026-01-26 22:40:46.35	18.53	11.29	-53.8	-62.6	3.8	7.46e-01	0	43	104	0	78	10412
2026-01-26 22:40:47.36	18.50	11.40	-53.7	-62.6	3.8	7.45e-01	0	43	104	0	78	10320
2026-01-26 22:40:48.37	18.46	11.51	-53.8	-62.6	3.8	7.44e-01	0	43	104	0	78	10329
2026-01-26 22:40:49.38	18.43	11.63	-53.8	-62.6	3.8	7.45e-01	0	43	104	0	78	10346
2026-01-26 22:40:50.38	18.39	11.74	-53.8	-62.6	3.8	7.44e-01	0	44	104	0	78	10407
2026-01-26 22:40:51.39	18.35	11.86	-53.8	-62.5	3.8	7.45e-01	0	44	104	0	78	10292
2026-01-26 22:40:52.39	18.32	11.97	-53.8	-62.6	3.8	7.45e-01	0	44	104	0	78	10350
2026-01-26 22:40:53.40	18.28	12.09	-53.8	-62.6	3.8	7.45e-01	0	44	104	0	78	10372
2026-01-26 22:40:54.41	18.24	12.21	-53.8	-62.7	3.8	7.46e-01	0	44	104	0	78	10449
2026-01-26 22:40:55.41	18.20	12.33	-53.8	-62.6	3.8	7.44e-01	0	43	104	0	78	10371
2026-01-26 22:40:56.42	18.16	12.45	-53.8	-62.7	3.8	7.43e-01	0	44	104	0	78	10431
2026-01-26 22:40:57.42	18.13	12.57	-53.8	-62.6	3.8	7.45e-01	0	44	104	0	78	10393
2026-01-26 22:40:58.43	18.09	12.69	-53.9	-62.7	3.8	7.47e-01	0	43	104	0	78	10452
2026-01-26 22:40:59.44	18.05	12.81	-53.8	-62.6	3.8	7.47e-01	0	44	104	0	78	10387
2026-01-26 22:41:00.45	18.00	12.93	-53.8	-62.7	3.8	7.45e-01	0	44	104	0	78	10445
2026-01-26 22:41:01.46	17.96	13.06	-53.8	-62.7	3.8	7.44e-01	0	44	104	0	78	10425
2026-01-26 22:41:02.47	17.92	13.18	-53.9	-62.7	3.8	7.47e-01	0	44	104	0	78	10495
2026-01-26 22:41:03.48	17.88	13.31	-53.8	-62.7	3.8	7.46e-01	0	44	104	0	78	10427
2026-01-26 22:41:04.49	17.84	13.43	-53.9	-62.7	3.8	7.45e-01	0	43	104	0	78	10462
2026-01-26 22:41:05.49	17.79	13.56	-53.9	-62.7	3.8	7.45e-01	0	44	104	0	78	10445
2026-01-26 22:41:06.50	17.75	13.68	-53.9	-62.7	3.8	7.44e-01	0	44	104	0	78	10495
2026-01-26 22:41:07.51	17.71	13.81	-53.9	-62.7	3.8	7.45e-01	0	44	104	0	78	10474
2026-01-26 22:41:08.52	17.66	13.94	-53.9	-62.7	3.8	7.45e-01	0	44	104	0	78	10484
2026-01-26 22:41:09.53	17.62	14.07	-53.9	-62.7	3.8	7.45e-01	0	44	104	0	78	10490
2026-01-26 22:41:10.53	17.57	14.20	-53.9	-62.7	3.8	7.45e-01	0	43	104	0	78	10523
2026-01-26 22:41:11.53	17.53	14.33	-53.9	-62.7	3.8	7.43e-01	0	44	104	0	78	10514
2026-01-26 22:41:12.54	17.48	14.47	-53.9	-62.7	3.8	7.45e-01	0	43	104	0	78	10529
2026-01-26 22:41:13.55	17.43	14.60	-53.9	-62.8	3.8	7.45e-01	0	44	104	0	78	10540
2026-01-26 22:41:14.56	17.39	14.74	-54.0	-62.8	3.8	7.45e-01	0	44	104	0	78	10555
2026-01-26 22:41:15.56	17.34	14.87	-53.9	-62.7	3.8	7.45e-01	0	44	104	0	78	10527
2026-01-26 22:41:16.57	17.29	15.01	-54.0	-62.8	3.8	7.45e-01	0	44	104	0	78	10564
2026-01-26 22:41:17.58	17.24	15.15	-54.0	-62.8	3.8	7.45e-01	0	44	104	0	78	10589
2026-01-26 22:41:18.58	17.19	15.28	-54.0	-62.8	3.8	7.44e-01	0	44	104	0	78	10593
2026-01-26 22:41:19.59	17.14	15.42	-54.0	-62.8	3.8	7.44e-01	0	44	104	0	78	10585
2026-01-26 22:41:20.59	17.09	15.56	-54.0	-62.8	3.8	7.45e-01	0	44	104	0	78	10589
2026-01-26 22:41:21.60	17.04	15.71	-54.0	-62.8	3.8	7.45e-01	0	44	104	0	78	10638
2026-01-26 22:41:22.61	16.99	15.85	-54.0	-62.8	3.8	7.44e-01	0	44	104	0	78	10582
2026-01-26 22:41:23.62	16.93	15.99	-54.0	-62.8	3.8	7.45e-01	0	43	104	0	78	10632
2026-01-26 22:41:24.63	16.88	16.14	-54.0	-62.8	3.8	7.45e-01	0	44	104	0	78	10606
2026-01-26 22:41:25.63	16.82	16.28	-54.0	-62.8	3.8	7.45e-01	0	44	104	0	78	10649
2026-01-26 22:41:26.64	16.77	16.43	-54.0	-62.8	3.8	7.46e-01	0	44	104	0	78	10632
2026-01-26 22:41:27.65	16.71	16.58	-54.0	-62.8	3.8	7.43e-01	0	44	104	0	78	10648
2026-01-26 22:41:28.66	16.66	16.73	-54.0	-62.9	3.8	7.44e-01	0	44	104	0	78	10666
2026-01-26 22:41:29.66	16.60	16.88	-54.1	-62.9	3.8	7.46e-01	0	44	104	0	78	10691
2026-01-26 22:41:30.67	16.54	17.03	-54.0	-62.9	3.8	7.45e-01	0	44	104	0	78	10696
2026-01-26 22:41:31.68	16.48	17.19	-54.0	-62.9	3.8	7.45e-01	0	44	104	0	78	10661
2026-01-26 22:41:32.69	16.42	17.34	-54.0	-62.9	3.8	7.45e-01	0	43	104	0	78	10660
2026-01-26 22:41:33.69	16.37	17.50	-54.1	-62.9	3.8	7.45e-01	0	44	104	0	78	10717
2026-01-26 22:41:34.71	16.30	17.65	-54.1	-62.9	3.8	7.46e-01	0	44	104	0	78	10686
2026-01-26 22:41:35.71	16.24	17.81	-54.1	-62.9	3.8	7.46e-01	0	44	104	0	78	10707
2026-01-26 22:41:36.72	16.18	17.97	-54.1	-62.9	3.8	7.44e-01	0	44	104	0	78	10670
2026-01-26 22:41:37.73	16.12	18.13	-54.1	-62.9	3.8	7.45e-01	0	43	104	0	78	10740
2026-01-26 22:41:38.74	16.05	18.29	-54.1	-62.9	3.8	7.44e-01	0	44	104	0	78	10701
2026-01-26 22:41:39.74	15.99	18.46	-54.1	-62.9	3.8	7.45e-01	0	44	104	0	78	10744
2026-01-26 22:41:40.75	15.92	18.62	-54.1	-62.9	3.8	7.46e-01	0	44	104	0	78	10694
2026-01-26 22:41:41.76	15.86	18.79	-54.1	-63.0	3.8	7.46e-01	0	44	104	0	78	10785
2026-01-26 22:41:42.77	15.79	18.96	-54.1	-62.9	3.8	7.46e-01	0	44	104	0	78	10721
2026-01-26 22:41:43.77	15.72	19.12	-54.1	-62.9	3.8	7.46e-01	0	44	104	0	78	10721
2026-01-26 22:41:44.77	15.65	19.29	-54.1	-62.9	3.8	7.46e-01	0	44	104	0	78	10738
2026-01-26 22:41:45.78	15.58	19.46	-54.2	-63.0	3.8	7.46e-01	0	43	104	0	78	10794
2026-01-26 22:41:46.78	15.51	19.64	-54.1	-62.9	3.8	7.44e-01	0	44	104	0	78	10740
2026-01-26 22:41:47.79	15.44	19.81	-54.1	-62.9	3.8	7.45e-01	0	44	104	0	78	10761
2026-01-26 22:41:48.80	15.36	19.99	-54.1	-63.0	3.8	7.44e-01	0	44	104	0	78	10793
2026-01-26 22:41:49.81	15.29	20.17	-54.2	-63.0	3.8	7.45e-01	0	44	104	0	78	10808
2026-01-26 22:41:50.82	15.21	20.35	-54.1	-63.0	3.8	7.46e-01	0	44	104	0	78	10816
2026-01-26 22:41:51.82	15.14	20.53	-54.1	-63.0	3.8	7.44e-01	0	44	104	0	78	10822
2026-01-26 22:41:52.83	15.06	20.71	-54.1	-63.0	3.8	7.46e-01	0	44	104	0	78	10783
2026-01-26 22:41:53.84	14.98	20.89	-54.2	-63.0	3.8	7.45e-01	0	44	104	0	78	10844
2026-01-26 22:41:54.85	14.90	21.08	-54.2	-62.9	3.8	7.46e-01	0	44	104	0	78	10776
2026-01-26 22:41:55.85	14.82	21.27	-54.2	-63.0	3.8	7.46e-01	0	44	104	0	78	10817
2026-01-26 22:41:56.86	14.74	21.46	-54.2	-62.9	3.8	7.45e-01	0	44	104	0	78	10778
2026-01-26 22:41:57.87	14.65	21.65	-54.2	-63.0	3.8	7.45e-01	0	44	104	0	78	10879
2026-01-26 22:41:58.88	14.57	21.84	-54.2	-63.0	3.8	7.45e-01	0	44	104	0	78	10816
2026-01-26 22:41:59.89	14.48	22.04	-54.2	-63.0	3.8	7.45e-01	0	44	104	0	78	10884
2026-01-26 22:42:00.89	14.40	22.23	-54.2	-63.0	3.8	7.47e-01	0	44	104	0	78	10864
2026-01-26 22:42:01.90	14.31	22.43	-54.2	-63.1	3.8	7.45e-01	0	44	104	0	79	10300
2026-01-26 22:42:02.91	14.22	22.63	-54.2	-63.0	3.8	7.45e-01	0	44	104	0	79	10239
2026-01-26 22:42:03.92	14.13	22.83	-54.2	-63.1	3.8	7.46e-01	0	44	104	0	79	10302
2026-01-26 22:42:04.93	14.03	23.04	-54.2	-63.0	3.8	7.45e-01	0	44	104	0	79	10255
2026-01-26 22:42:05.93	13.94	23.24	-54.3	-63.1	3.8	7.46e-01	0	44	104	0	79	10358
2026-01-26 22:42:06.93	13.85	23.45	-54.2	-63.1	3.8	7.44e-01	0	44	104	0	79	10294
2026-01-26 22:42:07.94	13.75	23.66	-54.3	-63.1	3.8	7.44e-01	0	44	104	0	79	10341
2026-01-26 22:42:08.95	13.65	23.87	-54.2	-63.0	3.8	7.45e-01	0	44	104	0	79	10279
2026-01-26 22:42:09.95	13.55	24.08	-54.3	-63.1	3.8	7.43e-01	0	44	104	0	79	10364
2026-01-26 22:42:10.96	13.45	24.30	-54.3	-63.1	3.8	7.46e-01	0	44	104	0	79	10302
2026-01-26 22:42:11.97	13.35	24.52	-54.3	-63.1	3.8	7.45e-01	0	44	104	0	79	10332
2026-01-26 22:42:12.97	13.24	24.74	-54.3	-63.1	3.8	7.46e-01	0	44	104	0	79	10349
2026-01-26 22:42:13.98	13.13	24.96	-54.3	-63.1	3.8	7.45e-01	0	44	104	0	79	10364
2026-01-26 22:42:14.99	13.03	25.19	-54.3	-63.1	3.8	7.45e-01	0	44	104	0	79	10362
2026-01-26 22:42:16.00	12.91	25.41	-54.3	-63.1	3.8	7.44e-01	0	44	104	0	79	10397
2026-01-26 22:42:17.01	12.80	25.64	-54.3	-63.1	3.8	7.45e-01	0	44	104	0	79	10364
2026-01-26 22:42:18.01	12.69	25.87	-54.3	-63.2	3.8	7.44e-01	0	44	104	0	79	10419
2026-01-26 22:42:19.02	12.57	26.11	-54.3	-63.1	3.8	7.44e-01	0	44	104	0	79	10374
2026-01-26 22:42:20.03	12.45	26.34	-54.3	-63.2	3.8	7.45e-01	0	44	104	0	79	10437
2026-01-26 22:42:21.04	12.33	26.58	-54.3	-63.1	3.8	7.45e-01	0	44	104	0	79	10386
2026-01-26 22:42:22.04	12.21	26.82	-54.4	-63.2	3.8	7.45e-01	0	44	104	0	79	10451
2026-01-26 22:42:23.05	12.09	27.07	-54.3	-63.2	3.8	7.44e-01	0	44	104	0	79	10433
2026-01-26 22:42:24.06	11.96	27.31	-54.4	-63.2	3.8	7.44e-01	0	44	104	0	79	10452
2026-01-26 22:42:25.06	11.83	27.56	-54.3	-63.1	3.8	7.45e-01	0	44	104	0	79	10405
2026-01-26 22:42:26.07	11.70	27.81	-54.4	-63.2	3.8	7.45e-01	0	44	104	0	79	10452
2026-01-26 22:42:27.07	11.57	28.07	-54.3	-63.2	3.8	7.45e-01	0	44	104	0	79	10436
2026-01-26 22:42:28.09	11.43	28.32	-54.4	-63.2	3.8	7.46e-01	0	44	104	0	79	10499
2026-01-26 22:42:29.10	11.30	28.58	-54.4	-63.2	3.8	7.45e-01	0	44	104	0	79	10413
2026-01-26 22:42:30.10	11.16	28.85	-54.4	-63.2	3.8	7.45e-01	0	44	104	0	79	10477
2026-01-26 22:42:31.11	11.01	29.11	-54.4	-63.2	3.8	7.45e-01	0	44	104	0	79	10460
2026-01-26 22:42:32.12	10.87	29.38	-54.4	-63.2	3.8	7.46e-01	0	44	104	0	79	10507
2026-01-26 22:42:33.12	10.72	29.65	-54.4	-63.2	3.8	7.46e-01	0	44	104	0	79	10503
2026-01-26 22:42:34.13	10.57	29.92	-54.4	-63.3	3.8	7.46e-01	0	44	104	0	79	10564
2026-01-26 22:42:35.14	10.41	30.20	-54.4	-63.2	3.8	7.46e-01	0	44	104	0	79	10507
2026-01-26 22:42:36.15	10.25	30.48	-54.4	-63.2	3.8	7.45e-01	0	44	104	0	79	10528
2026-01-26 22:42:37.15	10.09	30.76	-54.4	-63.2	3.8	7.47e-01	0	44	104	0	79	10531
2026-01-26 22:42:38.16	9.93	31.05	-54.5	-63.3	3.8	7.44e-01	0	44	104	0	79	10563
2026-01-26 22:42:39.17	9.76	31.34	-54.4	-63.2	3.8	7.45e-01	0	44	104	0	79	10495
2026-01-26 22:42:40.18	9.59	31.63	-54.5	-63.3	3.8	7.45e-01	0	44	104	0	79	10619
2026-01-26 22:42:41.19	9.42	31.92	-54.5	-63.3	3.8	7.44e-01	0	44	104	0	79	10575
2026-01-26 22:42:42.19	9.24	32.22	-54.5	-63.3	3.8	7.46e-01	0	44	104	0	79	10577
2026-01-26 22:42:43.20	9.06	32.52	-54.5	-63.3	3.8	7.44e-01	0	44	104	0	79	10557
2026-01-26 22:42:44.21	8.88	32.83	-54.5	-63.3	3.8	7.45e-01	0	44	104	0	79	10625
2026-01-26 22:42:45.21	8.69	33.13	-54.5	-63.3	3.8	7.45e-01	0	44	104	0	79	10623
2026-01-26 22:42:46.21	8.50	33.44	-54.5	-63.3	3.8	7.46e-01	0	44	104	0	79	10655
2026-01-26 22:42:47.22	8.30	33.76	-54.5	-63.3	3.8	7.46e-01	0	44	104	0	79	10583
2026-01-26 22:42:48.23	8.10	34.08	-54.5	-63.3	3.8	7.43e-01	0	44	104	0	79	10635
2026-01-26 22:42:49.23	7.90	34.40	-54.5	-63.3	3.8	7.45e-01	0	44	104	0	79	10647
2026-01-26 22:42:50.25	7.69	34.73	-54.5	-63.4	3.8	7.46e-01	0	44	104	0	79	10664
2026-01-26 22:42:51.25	7.47	35.05	-54.5	-63.4	3.8	7.46e-01	0	44	104	0	79	10663
2026-01-26 22:42:52.26	7.25	35.38	-54.5	-63.3	3.8	7.46e-01	0	44	104	0	79	10647
2026-01-26 22:42:53.27	7.03	35.72	-54.5	-63.3	3.8	7.45e-01	0	44	104	0	79	10653
2026-01-26 22:42:54.28	6.80	36.06	-54.6	-63.4	3.8	7.46e-01	0	44	104	0	79	10726
2026-01-26 22:42:55.29	6.57	36.41	-54.5	-63.4	3.8	7.44e-01	0	44	104	0	79	10665
2026-01-26 22:42:56.30	6.33	36.75	-54.6	-63.4	3.8	7.45e-01	0	44	104	0	79	10688
2026-01-26 22:42:57.30	6.08	37.10	-54.6	-63.4	3.8	7.45e-01	0	44	104	0	79	10699
2026-01-26 22:42:58.31	5.83	37.46	-54.6	-63.4	3.8	7.45e-01	0	44	104	0	79	10729
2026-01-26 22:42:59.32	5.57	37.82	-54.6	-63.4	3.8	7.47e-01	0	44	104	0	79	10715
2026-01-26 22:43:00.33	5.31	38.18	-54.6	-63.4	3.8	7.45e-01	0	44	104	0	79	10744
2026-01-26 22:43:01.33	5.04	38.54	-54.6	-63.4	3.8	7.46e-01	0	44	104	0	79	10752
2026-01-26 22:43:02.34	4.77	38.91	-54.6	-63.4	3.8	7.44e-01	0	44	104	0	79	10762
2026-01-26 22:43:03.34	4.49	39.29	-54.6	-63.4	3.8	7.45e-01	0	44	104	0	79	10707
2026-01-26 22:43:04.35	4.20	39.66	-54.6	-63.5	3.8	7.47e-01	0	44	104	0	79	10805
2026-01-26 22:43:05.36	3.90	40.05	-54.7	-63.5	3.8	7.44e-01	0	44	104	0	79	10805
2026-01-26 22:43:06.37	3.59	40.43	-54.7	-63.5	3.8	7.44e-01	0	44	104	0	79	10811
2026-01-26 22:43:07.39	3.28	40.83	-54.6	-63.4	3.8	7.44e-01	0	44	104	0	79	10763
2026-01-26 22:43:08.39	2.96	41.22	-54.7	-63.5	3.8	7.46e-01	0	44	104	0	79	10859
2026-01-26 22:43:09.40	2.63	41.62	-54.7	-63.5	3.8	7.43e-01	0	44	104	0	79	10875
2026-01-26 22:43:10.41	2.29	42.02	-54.7	-63.5	3.8	7.45e-01	0	44	104	0	80	10209
2026-01-26 22:43:11.42	1.94	42.42	-54.6	-63.4	3.8	7.46e-01	0	44	104	0	80	10174
2026-01-26 22:43:12.43	1.59	42.83	-54.6	-63.5	3.8	7.45e-01	0	44	104	0	80	10182
2026-01-26 22:43:13.44	1.22	43.25	-54.7	-63.5	3.8	7.45e-01	0	44	104	0	80	10209
2026-01-26 22:43:14.45	0.84	43.67	-54.7	-63.5	3.8	7.46e-01	0	44	104	0	80	10223
2026-01-26 22:43:15.46	0.46	44.09	-54.6	-63.5	3.8	7.44e-01	0	44	104	0	80	10214
2026-01-26 22:43:16.47	0.06	44.51	-54.7	-63.5	3.8	7.46e-01	0	44	104	0	80	10228
2026-01-26 22:43:17.48	359.65	44.94	-54.7	-63.5	3.8	7.46e-01	0	44	104	0	80	10293
2026-01-26 22:43:18.49	359.23	45.37	-54.7	-63.5	3.8	7.46e-01	0	44	104	0	80	10275
2026-01-26 22:43:19.50	358.80	45.81	-54.7	-63.5	3.8	7.44e-01	0	44	104	0	80	10267
2026-01-26 22:43:20.50	358.35	46.24	-54.7	-63.5	3.8	7.47e-01	0	44	104	0	80	10259
2026-01-26 22:43:21.51	357.89	46.69	-54.7	-63.6	3.8	7.45e-01	0	44	104	0	80	10312
2026-01-26 22:43:22.52	357.42	47.13	-54.7	-63.6	3.8	7.45e-01	0	44	104	0	80	10312
2026-01-26 22:43:23.53	356.93	47.58	-54.7	-63.5	3.8	7.46e-01	0	44	104	0	80	10280
2026-01-26 22:43:24.53	356.44	48.03	-54.7	-63.6	3.8	7.45e-01	0	44	104	0	80	10306
2026-01-26 22:43:25.54	355.92	48.49	-54.8	-63.6	3.8	7.46e-01	0	44	104	0	80	10343
2026-01-26 22:43:26.55	355.39	48.94	-54.7	-63.6	3.8	7.43e-01	0	44	104	0	80	10298
2026-01-26 22:43:27.56	354.84	49.40	-54.8	-63.6	3.8	7.46e-01	0	44	104	0	80	10298
2026-01-26 22:43:28.57	354.27	49.87	-54.8	-63.5	3.8	7.45e-01	0	44	104	0	80	10292
2026-01-26 22:43:29.57	353.69	50.33	-54.8	-63.6	3.8	7.45e-01	0	44	104	0	80	10395
2026-01-26 22:43:30.58	353.08	50.80	-54.8	-63.6	3.8	7.46e-01	0	44	104	0	80	10317
2026-01-26 22:43:31.59	352.46	51.27	-54.8	-63.6	3.8	7.45e-01	0	44	104	0	80	10366
2026-01-26 22:43:32.60	351.81	51.74	-54.8	-63.6	3.8	7.46e-01	0	44	104	0	80	10376
2026-01-26 22:43:33.61	351.15	52.21	-54.8	-63.6	3.8	7.46e-01	0	44	104	0	80	10406
2026-01-26 22:43:34.62	350.46	52.68	-54.8	-63.6	3.8	7.47e-01	0	44	104	0	80	10353
2026-01-26 22:43:35.63	349.75	53.15	-54.8	-63.7	3.8	7.46e-01	0	44	104	0	80	10428
2026-01-26 22:43:36.63	349.02	53.62	-54.8	-63.6	3.8	7.47e-01	0	44	104	0	80	10404
2026-01-26 22:43:37.64	348.26	54.10	-54.9	-63.7	3.8	7.45e-01	0	44	104	0	80	10416
2026-01-26 22:43:38.65	347.47	54.57	-54.8	-63.7	3.8	7.44e-01	0	44	104	0	80	10420
2026-01-26 22:43:39.65	346.66	55.04	-54.9	-63.7	3.8	7.46e-01	0	44	104	0	80	10433
2026-01-26 22:43:40.66	345.82	55.51	-54.9	-63.7	3.8	7.46e-01	0	44	104	0	80	10495
2026-01-26 22:43:41.66	344.96	55.98	-54.9	-63.7	3.8	7.45e-01	0	44	104	0	80	10479
2026-01-26 22:43:42.67	344.06	56.45	-54.9	-63.7	3.8	7.44e-01	0	44	104	0	80	10457
2026-01-26 22:43:43.68	343.12	56.91	-54.9	-63.7	3.8	7.45e-01	0	44	104	0	80	10514
2026-01-26 22:43:44.69	342.16	57.37	-54.9	-63.7	3.8	7.45e-01	0	44	104	0	80	10492
2026-01-26 22:43:45.70	341.16	57.83	-54.9	-63.7	3.8	7.45e-01	0	44	104	0	80	10511
2026-01-26 22:43:46.71	340.12	58.28	-54.9	-63.7	3.8	7.45e-01	0	44	104	0	80	10458
2026-01-26 22:43:47.71	339.06	58.73	-54.9	-63.7	3.8	7.45e-01	0	44	104	0	80	10491
2026-01-26 22:43:48.72	337.95	59.17	-54.9	-63.7	3.8	7.46e-01	0	44	104	0	80	10511
2026-01-26 22:43:49.73	336.81	59.61	-54.9	-63.8	3.8	7.46e-01	0	44	104	0	80	10545
2026-01-26 22:43:50.74	335.62	60.04	-54.9	-63.7	3.8	7.46e-01	0	44	104	0	80	10525
2026-01-26 22:43:51.75	334.39	60.46	-54.9	-63.7	3.8	7.44e-01	0	44	104	0	80	10503
2026-01-26 22:43:52.75	333.14	60.86	-55.0	-63.8	3.8	7.45e-01	0	44	104	0	80	10577
2026-01-26 22:43:53.76	331.83	61.26	-55.0	-63.8	3.8	7.46e-01	0	44	104	0	80	10585
2026-01-26 22:43:54.77	330.47	61.66	-54.9	-63.8	3.8	7.46e-01	0	44	104	0	80	10545
2026-01-26 22:43:55.78	329.08	62.04	-55.0	-63.8	3.8	7.46e-01	0	44	104	0	80	10554
2026-01-26 22:43:56.79	327.64	62.40	-55.0	-63.8	3.8	7.46e-01	0	44	104	0	80	10620
2026-01-26 22:43:57.79	326.17	62.75	-55.0	-63.8	3.8	7.45e-01	0	44	104	0	80	10584
2026-01-26 22:43:58.80	324.64	63.09	-54.9	-63.8	3.8	7.45e-01	0	44	104	0	80	10577
2026-01-26 22:43:59.80	323.08	63.41	-55.0	-63.8	3.8	7.45e-01	0	44	104	0	80	10610
2026-01-26 22:44:00.81	321.47	63.72	-55.0	-63.9	3.8	7.45e-01	0	44	104	0	80	10658
2026-01-26 22:44:01.82	319.81	64.00	-55.0	-63.8	3.8	7.46e-01	0	44	104	0	80	10619
2026-01-26 22:44:02.83	318.11	64.27	-55.0	-63.8	3.8	7.45e-01	0	44	104	0	80	10600
2026-01-26 22:44:03.84	316.38	64.52	-55.0	-63.8	3.8	7.46e-01	0	44	104	0	80	10626
2026-01-26 22:44:04.85	314.60	64.76	-55.0	-63.9	3.8	7.45e-01	0	44	104	0	80	10695
2026-01-26 22:44:05.86	312.79	64.96	-55.0	-63.8	3.8	7.45e-01	0	44	104	0	80	10655
2026-01-26 22:44:06.87	310.95	65.15	-55.0	-63.9	3.8	7.47e-01	0	44	104	0	80	10697
2026-01-26 22:44:07.87	309.10	65.31	-55.0	-63.9	3.8	7.47e-01	0	44	104	0	80	10675
2026-01-26 22:44:08.88	307.20	65.45	-55.1	-63.9	3.8	7.46e-01	0	44	104	0	80	10717
2026-01-26 22:44:09.89	305.28	65.57	-55.1	-63.9	3.8	7.45e-01	0	44	104	0	80	10709
2026-01-26 22:44:10.90	303.34	65.66	-55.0	-63.8	3.8	7.47e-01	0	44	104	0	80	10652
2026-01-26 22:44:11.90	301.41	65.73	-55.1	-63.9	3.8	7.43e-01	0	44	104	0	80	10724
2026-01-26 22:44:12.92	299.43	65.77	-55.1	-63.9	3.8	7.45e-01	0	44	104	0	80	10699
2026-01-26 22:44:13.93	297.46	65.78	-55.1	-63.9	3.8	7.45e-01	0	44	104	0	80	10680
2026-01-26 22:44:14.93	295.51	65.77	-55.0	-63.9	3.8	7.45e-01	0	44	104	0	80	10667
2026-01-26 22:44:15.93	293.57	65.74	-55.1	-63.9	3.8	7.45e-01	0	44	104	0	80	10677
2026-01-26 22:44:16.94	291.61	65.67	-55.1	-63.9	3.8	7.46e-01	0	44	104	0	80	10718
2026-01-26 22:44:17.95	289.67	65.59	-55.1	-63.9	3.8	7.47e-01	0	44	104	0	80	10736
2026-01-26 22:44:18.96	287.75	65.48	-55.1	-63.9	3.8	7.45e-01	0	44	104	0	80	10698
2026-01-26 22:44:19.96	285.86	65.34	-55.1	-63.9	3.8	7.44e-01	0	44	104	0	80	10738
2026-01-26 22:44:20.97	283.99	65.18	-55.1	-63.9	3.8	7.46e-01	0	44	104	0	80	10740
2026-01-26 22:44:21.98	282.14	65.00	-55.1	-63.9	3.8	7.45e-01	0	44	104	0	80	10736
2026-01-26 22:44:22.99	280.32	64.79	-55.1	-63.9	3.8	7.46e-01	0	44	104	0	80	10690
2026-01-26 22:44:23.99	278.56	64.57	-55.1	-63.9	3.8	7.46e-01	0	44	104	0	80	10737
2026-01-26 22:44:25.00	276.81	64.32	-55.1	-64.0	3.8	7.46e-01	0	44	104	0	80	10783
2026-01-26 22:44:26.01	275.10	64.06	-55.1	-63.9	3.8	7.45e-01	0	44	104	0	80	10734
2026-01-26 22:44:27.01	273.45	63.77	-55.1	-63.9	3.8	7.47e-01	0	44	104	0	80	10695
2026-01-26 22:44:28.02	271.83	63.47	-55.1	-63.9	3.8	7.44e-01	0	44	104	0	80	10761
2026-01-26 22:44:29.03	270.25	63.15	-55.1	-63.9	3.8	7.44e-01	0	44	104	0	80	10777
2026-01-26 22:44:30.04	268.71	62.82	-55.1	-63.9	3.8	7.44e-01	0	44	104	0	80	10778
2026-01-26 22:44:31.05	267.21	62.46	-55.1	-63.9	3.8	7.45e-01	0	44	104	0	80	10706
2026-01-26 22:44:32.06	265.76	62.10	-55.1	-64.0	3.8	7.44e-01	0	44	104	0	80	10782
2026-01-26 22:44:33.07	264.36	61.72	-55.1	-63.9	3.8	7.46e-01	0	44	104	0	80	10735
2026-01-26 22:44:34.07	263.01	61.34	-55.1	-63.9	3.8	7.45e-01	0	44	104	0	80	10717
2026-01-26 22:44:35.08	261.69	60.94	-55.1	-63.9	3.8	7.45e-01	0	44	104	0	80	10693
2026-01-26 22:44:36.09	260.41	60.53	-55.1	-63.9	3.8	7.44e-01	0	44	104	0	80	10726
2026-01-26 22:44:37.09	259.19	60.11	-55.1	-63.9	3.8	7.44e-01	0	44	104	0	80	10732
2026-01-26 22:44:38.10	257.99	59.68	-55.1	-63.9	3.8	7.46e-01	0	44	104	0	80	10743
2026-01-26 22:44:39.11	256.84	59.25	-55.0	-63.9	3.8	7.44e-01	0	44	104	0	80	10657
2026-01-26 22:44:40.12	255.72	58.80	-55.1	-63.9	3.8	7.45e-01	0	44	104	0	80	10703
2026-01-26 22:44:41.13	254.64	58.36	-55.1	-63.9	3.8	7.46e-01	0	44	104	0	80	10724
2026-01-26 22:44:42.14	253.60	57.90	-55.1	-63.9	3.8	7.44e-01	0	44	104	0	80	10673
2026-01-26 22:44:43.15	252.59	57.44	-55.0	-63.8	3.8	7.46e-01	0	44	104	0	80	10618
2026-01-26 22:44:44.16	251.62	56.98	-55.0	-63.9	3.8	7.44e-01	0	44	104	0	80	10671
2026-01-26 22:44:45.16	250.68	56.52	-55.0	-63.8	3.8	7.46e-01	0	44	104	0	80	10634
2026-01-26 22:44:46.17	249.78	56.05	-55.0	-63.9	3.8	7.46e-01	0	44	104	0	80	10669
2026-01-26 22:44:47.18	248.90	55.58	-55.0	-63.8	3.8	7.46e-01	0	44	104	0	80	10573
2026-01-26 22:44:48.19	248.05	55.11	-55.0	-63.8	3.8	7.45e-01	0	44	104	0	80	10626
2026-01-26 22:44:49.20	247.23	54.64	-55.0	-63.8	3.8	7.45e-01	0	44	104	0	80	10648
2026-01-26 22:44:50.21	246.44	54.16	-55.0	-63.8	3.8	7.46e-01	0	44	104	0	80	10613
2026-01-26 22:44:51.22	245.67	53.68	-55.0	-63.8	3.8	7.46e-01	0	44	104	0	80	10559
2026-01-26 22:44:52.22	244.94	53.21	-55.0	-63.8	3.8	7.45e-01	0	44	104	0	80	10610
2026-01-26 22:44:53.22	244.23	52.74	-55.0	-63.8	3.8	7.46e-01	0	44	104	0	80	10600
2026-01-26 22:44:54.23	243.53	52.27	-55.0	-63.7	3.8	7.44e-01	0	44	104	0	80	10526
2026-01-26 22:44:55.24	242.86	51.80	-54.9	-63.7	3.8	7.47e-01	0	44	104	0	80	10499
2026-01-26 22:44:56.25	242.21	51.32	-54.9	-63.8	3.8	7.45e-01	0	44	104	0	80	10546
2026-01-26 22:44:57.25	241.59	50.86	-54.9	-63.8	3.8	7.46e-01	0	44	104	0	80	10549
2026-01-26 22:44:58.26	240.98	50.39	-54.9	-63.7	3.8	7.45e-01	0	44	104	0	80	10532
2026-01-26 22:44:59.27	240.39	49.92	-54.9	-63.7	3.8	7.46e-01	0	44	104	0	80	10533
2026-01-26 22:45:00.26	239.83	49.47	-54.9	-63.7	3.8	7.45e-01	0	44	104	0	80	10517
2026-01-26 22:45:01.27	239.27	49.00	-54.9	-63.7	3.8	7.45e-01	0	44	104	0	80	10522
2026-01-26 22:45:02.27	238.74	48.55	-54.9	-63.7	3.8	7.43e-01	0	44	104	0	80	10501
2026-01-26 22:45:03.28	238.22	48.09	-54.9	-63.7	3.8	7.46e-01	0	44	104	0	80	10496
2026-01-26 22:45:04.29	237.71	47.64	-54.9	-63.7	3.8	7.46e-01	0	44	104	0	80	10489
2026-01-26 22:45:05.30	237.22	47.19	-54.9	-63.7	3.8	7.44e-01	0	44	104	0	80	10505
2026-01-26 22:45:06.31	236.75	46.74	-54.9	-63.7	3.8	7.46e-01	0	44	104	0	80	10469
2026-01-26 22:45:07.32	236.29	46.29	-54.8	-63.7	3.8	7.45e-01	0	44	104	0	80	10454
2026-01-26 22:45:08.32	235.84	45.86	-54.9	-63.7	3.8	7.46e-01	0	44	104	0	80	10466
2026-01-26 22:45:09.33	235.40	45.42	-54.9	-63.7	3.8	7.44e-01	0	44	104	0	80	10486
2026-01-26 22:45:10.34	234.98	44.98	-54.8	-63.7	3.8	7.45e-01	0	44	104	0	80	10431
2026-01-26 22:45:11.34	234.57	44.56	-54.8	-63.7	3.8	7.44e-01	0	44	104	0	80	10434
2026-01-26 22:45:12.35	234.17	44.13	-54.8	-63.7	3.8	7.45e-01	0	44	104	0	80	10456
2026-01-26 22:45:13.36	233.78	43.71	-54.8	-63.7	3.8	7.44e-01	0	44	104	0	80	10426
2026-01-26 22:45:14.37	233.40	43.29	-54.8	-63.6	3.8	7.44e-01	0	44	104	0	80	10384
2026-01-26 22:45:15.37	233.04	42.88	-54.8	-63.6	3.8	7.45e-01	0	44	104	0	80	10377
2026-01-26 22:45:16.38	232.68	42.46	-54.8	-63.6	3.8	7.44e-01	0	44	104	0	80	10403
2026-01-26 22:45:17.38	232.33	42.06	-54.8	-63.6	3.8	7.45e-01	0	44	104	0	80	10352
2026-01-26 22:45:18.39	231.99	41.65	-54.8	-63.6	3.8	7.44e-01	0	44	104	0	80	10393
2026-01-26 22:45:19.40	231.66	41.25	-54.8	-63.6	3.8	7.44e-01	0	44	104	0	80	10341
2026-01-26 22:45:20.41	231.33	40.86	-54.8	-63.6	3.8	7.47e-01	0	44	104	0	80	10344
2026-01-26 22:45:21.42	231.02	40.47	-54.8	-63.6	3.8	7.45e-01	0	44	104	0	80	10386
2026-01-26 22:45:22.43	230.71	40.08	-54.8	-63.6	3.8	7.43e-01	0	44	104	0	80	10343
2026-01-26 22:45:23.44	230.41	39.69	-54.7	-63.6	3.8	7.45e-01	0	44	104	0	80	10326
2026-01-26 22:45:24.44	230.12	39.32	-54.8	-63.6	3.8	7.44e-01	0	44	104	0	80	10343
2026-01-26 22:45:25.45	229.84	38.94	-54.7	-63.5	3.8	7.45e-01	0	44	104	0	80	10280
2026-01-26 22:45:26.46	229.56	38.57	-54.7	-63.6	3.8	7.45e-01	0	44	104	0	80	10316
2026-01-26 22:45:27.47	229.29	38.20	-54.7	-63.6	3.8	7.46e-01	0	44	104	0	80	10297
2026-01-26 22:45:28.48	229.02	37.83	-54.7	-63.6	3.8	7.45e-01	0	44	104	0	80	10299
2026-01-26 22:45:29.49	228.76	37.47	-54.7	-63.6	3.8	7.46e-01	0	44	104	0	80	10294
2026-01-26 22:45:30.49	228.51	37.12	-54.7	-63.5	3.8	7.45e-01	0	44	104	0	80	10289
2026-01-26 22:45:31.50	228.27	36.76	-54.7	-63.5	3.8	7.46e-01	0	44	104	0	80	10253
2026-01-26 22:45:32.50	228.03	36.42	-54.7	-63.5	3.8	7.46e-01	0	44	104	0	80	10286
2026-01-26 22:45:33.51	227.79	36.07	-54.7	-63.5	3.8	7.46e-01	0	44	104	0	80	10276
2026-01-26 22:45:34.52	227.56	35.73	-54.7	-63.5	3.8	7.46e-01	0	44	104	0	80	10229
2026-01-26 22:45:35.53	227.33	35.39	-54.6	-63.5	3.8	7.46e-01	0	44	104	0	80	10179
2026-01-26 22:45:36.54	227.11	35.06	-54.7	-63.5	3.8	7.44e-01	0	44	104	0	80	10219
2026-01-26 22:45:37.55	226.90	34.72	-54.7	-63.5	3.8	7.44e-01	0	44	104	0	80	10208
2026-01-26 22:45:38.56	226.69	34.40	-54.6	-63.5	3.8	7.44e-01	0	44	104	0	80	10182
2026-01-26 22:45:39.57	226.48	34.07	-54.6	-63.5	3.8	7.44e-01	0	44	104	0	80	10180
2026-01-26 22:45:40.57	226.28	33.75	-54.6	-63.5	3.8	7.45e-01	0	44	104	0	80	10213
2026-01-26 22:45:41.58	226.08	33.44	-54.6	-63.4	3.8	7.45e-01	0	44	104	0	80	10174
2026-01-26 22:45:42.59	225.89	33.12	-54.6	-63.5	3.8	7.46e-01	0	44	104	0	80	10204
2026-01-26 22:45:43.60	225.70	32.81	-54.6	-63.4	3.8	7.46e-01	0	44	104	0	80	10117
2026-01-26 22:45:44.60	225.51	32.51	-54.6	-63.4	3.8	7.46e-01	0	44	104	0	80	10142
2026-01-26 22:45:45.61	225.33	32.21	-54.6	-63.5	3.8	7.45e-01	0	44	104	0	80	10201
2026-01-26 22:45:46.62	225.15	31.90	-54.6	-63.4	3.8	7.46e-01	0	44	104	0	80	10112
2026-01-26 22:45:47.63	224.98	31.61	-54.6	-63.4	3.8	7.45e-01	0	44	104	0	80	10104
2026-01-26 22:45:48.64	224.80	31.31	-54.6	-63.4	3.8	7.44e-01	0	44	104	0	80	10117
2026-01-26 22:45:49.64	224.64	31.03	-54.6	-63.4	3.8	7.45e-01	0	44	104	0	80	10131
2026-01-26 22:45:50.65	224.47	30.74	-54.5	-63.4	3.8	7.44e-01	0	44	104	0	80	10092
2026-01-26 22:45:51.66	224.31	30.45	-54.5	-63.4	3.8	7.47e-01	0	44	104	0	80	10111
2026-01-26 22:45:52.67	224.15	30.17	-54.5	-63.4	3.8	7.44e-01	0	44	104	0	80	10108
2026-01-26 22:45:53.67	224.00	29.90	-54.5	-63.4	3.8	7.46e-01	0	44	104	0	80	10063
2026-01-26 22:45:54.68	223.85	29.62	-54.5	-63.3	3.8	7.45e-01	0	44	104	0	80	10056
2026-01-26 22:45:55.69	223.70	29.35	-54.5	-63.3	3.8	7.46e-01	0	44	104	0	80	10021
2026-01-26 22:45:56.70	223.55	29.08	-54.5	-63.3	3.8	7.46e-01	0	44	104	0	80	10052
2026-01-26 22:45:57.71	223.40	28.81	-54.5	-63.3	3.8	7.45e-01	0	44	104	0	80	10026
2026-01-26 22:45:58.71	223.26	28.55	-54.5	-63.3	3.8	7.46e-01	0	44	104	0	80	10058
2026-01-26 22:45:59.72	223.12	28.29	-54.5	-63.3	3.8	7.46e-01	0	44	104	0	80	10021
2026-01-26 22:46:00.73	222.99	28.03	-54.5	-63.3	3.8	7.44e-01	0	44	104	0	80	10033
2026-01-26 22:46:01.74	222.85	27.77	-54.5	-63.3	3.8	7.44e-01	0	44	104	0	80	10033
2026-01-26 22:46:02.74	222.72	27.52	-54.5	-63.3	3.8	7.44e-01	0	44	104	0	80	10000
2026-01-26 22:46:03.75	222.59	27.27	-54.4	-63.3	3.8	7.45e-01	0	44	104	0	80	9981
2026-01-26 22:46:04.76	222.46	27.02	-54.5	-63.3	3.8	7.43e-01	0	44	104	0	80	9989
2026-01-26 22:46:05.77	222.34	26.78	-54.4	-63.2	3.8	7.45e-01	0	44	104	0	80	9932
2026-01-26 22:46:06.77	222.22	26.54	-54.4	-63.3	3.8	7.45e-01	0	44	104	0	80	9977
2026-01-26 22:46:07.78	222.10	26.30	-54.4	-63.2	3.8	7.45e-01	0	44	104	0	80	9937
2026-01-26 22:46:08.79	221.98	26.06	-54.4	-63.3	3.8	7.46e-01	0	44	104	0	80	9947
2026-01-26 22:46:09.80	221.86	25.82	-54.4	-63.2	3.8	7.45e-01	0	44	104	0	80	9926
2026-01-26 22:46:10.81	221.75	25.59	-54.4	-63.2	3.8	7.46e-01	0	44	104	0	80	9926
2026-01-26 22:46:11.82	221.63	25.36	-54.4	-63.2	3.8	7.44e-01	0	44	104	0	80	9893
2026-01-26 22:46:12.82	221.52	25.13	-54.4	-63.2	3.8	7.45e-01	0	44	104	0	80	9889
2026-01-26 22:46:13.83	221.41	24.91	-54.4	-63.2	3.8	7.45e-01	0	44	104	0	80	9884
2026-01-26 22:46:14.83	221.31	24.69	-54.4	-63.2	3.8	7.46e-01	0	44	104	0	80	9909
2026-01-26 22:46:15.85	221.20	24.46	-54.4	-63.2	3.8	7.45e-01	0	44	104	0	80	9911
2026-01-26 22:46:16.86	221.10	24.24	-54.4	-63.2	3.8	7.45e-01	0	44	104	0	80	9894
2026-01-26 22:46:17.86	220.99	24.03	-54.4	-63.2	3.8	7.45e-01	0	44	104	0	80	9851
2026-01-26 22:46:18.87	220.89	23.81	-54.4	-63.1	3.8	7.44e-01	0	44	104	0	80	9829
2026-01-26 22:46:19.87	220.79	23.60	-54.3	-63.2	3.8	7.44e-01	0	44	104	0	80	9877
2026-01-26 22:46:20.87	220.70	23.39	-54.3	-63.1	3.8	7.46e-01	0	44	104	0	80	9829
2026-01-26 22:46:21.88	220.60	23.18	-54.3	-63.2	3.8	7.45e-01	0	44	104	0	80	9842
2026-01-26 22:46:22.88	220.51	22.98	-54.3	-63.2	3.8	7.46e-01	0	44	104	0	80	9851
2026-01-26 22:46:23.89	220.41	22.77	-54.3	-63.1	3.8	7.46e-01	0	44	104	0	80	9813
2026-01-26 22:46:24.90	220.32	22.57	-54.3	-63.1	3.8	7.45e-01	0	44	104	0	80	9794
2026-01-26 22:46:25.91	220.23	22.37	-54.3	-63.1	3.8	7.46e-01	0	44	104	0	80	9819
2026-01-26 22:46:26.91	220.14	22.17	-54.3	-63.1	3.8	7.46e-01	0	44	104	0	80	9801
2026-01-26 22:46:27.92	220.05	21.97	-54.3	-63.1	3.8	7.44e-01	0	44	104	0	80	9787
2026-01-26 22:46:28.93	219.97	21.78	-54.3	-63.1	3.8	7.45e-01	0	44	104	0	80	9765
2026-01-26 22:46:29.94	219.88	21.58	-54.2	-63.1	3.8	7.44e-01	0	44	104	0	80	9747
2026-01-26 22:46:30.95	219.80	21.39	-53.5	-63.1	3.8	7.45e-01	0	44	104	0	79	10351
2026-01-26 22:46:31.96	219.72	21.20	-54.3	-63.1	3.8	7.45e-01	0	44	104	0	79	10341
2026-01-26 22:46:32.97	219.63	21.01	-54.3	-63.1	3.8	7.46e-01	0	44	104	0	79	10344
2026-01-26 22:46:33.97	219.55	20.82	-54.3	-63.1	3.8	7.46e-01	0	44	104	0	79	10372
2026-01-26 22:46:34.98	219.47	20.64	-54.3	-63.1	3.8	7.46e-01	0	44	104	0	79	10358
2026-01-26 22:46:35.99	219.40	20.46	-54.3	-63.1	3.8	7.46e-01	0	44	104	0	79	10321
2026-01-26 22:46:36.99	219.32	20.28	-54.3	-63.1	3.8	7.46e-01	0	44	104	0	79	10332
2026-01-26 22:46:38.00	219.24	20.09	-54.3	-63.0	3.8	7.46e-01	0	44	104	0	79	10283
2026-01-26 22:46:39.01	219.17	19.92	-54.3	-63.1	3.8	7.48e-01	0	44	104	0	79	10303
2026-01-26 22:46:40.02	219.09	19.74	-54.2	-63.1	3.8	7.43e-01	0	44	104	0	79	10366
2026-01-26 22:46:41.02	219.02	19.56	-54.2	-63.1	3.8	7.44e-01	0	44	104	0	79	10298
2026-01-26 22:46:42.03	218.95	19.39	-54.2	-63.0	3.8	7.43e-01	0	44	104	0	79	10280
2026-01-26 22:46:43.04	218.88	19.22	-54.2	-63.0	3.8	7.48e-01	0	44	104	0	79	10274
2026-01-26 22:46:44.04	218.81	19.05	-54.2	-63.0	3.8	7.44e-01	0	44	104	0	79	10253
2026-01-26 22:46:45.05	218.74	18.88	-54.2	-63.0	3.8	7.46e-01	0	44	104	0	79	10281
2026-01-26 22:46:46.06	218.67	18.71	-54.2	-63.0	3.8	7.47e-01	0	44	104	0	79	10229
2026-01-26 22:46:47.06	218.61	18.54	-54.2	-63.0	3.8	7.44e-01	0	44	104	0	79	10271
2026-01-26 22:46:48.07	218.54	18.38	-54.2	-63.0	3.8	7.45e-01	0	44	104	0	79	10224
2026-01-26 22:46:49.08	218.47	18.21	-54.2	-63.0	3.8	7.46e-01	0	44	104	0	79	10281
2026-01-26 22:46:50.09	218.41	18.05	-54.2	-63.0	3.8	7.46e-01	0	44	104	0	79	10191
2026-01-26 22:46:51.10	218.35	17.89	-54.2	-63.0	3.8	7.46e-01	0	44	104	0	79	10252
2026-01-26 22:46:52.10	218.28	17.73	-54.2	-63.0	3.8	7.46e-01	0	44	104	0	79	10200
2026-01-26 22:46:53.11	218.22	17.57	-54.1	-63.0	3.8	7.46e-01	0	44	104	0	79	10203
2026-01-26 22:46:54.12	218.16	17.41	-54.1	-63.0	3.8	7.45e-01	0	44	104	0	79	10189
2026-01-26 22:46:55.13	218.10	17.26	-54.1	-63.0	3.8	7.45e-01	0	44	104	0	79	10189
2026-01-26 22:46:56.13	218.04	17.10	-54.1	-63.0	3.8	7.45e-01	0	44	104	0	79	10187
2026-01-26 22:46:57.14	217.98	16.95	-54.1	-62.9	3.8	7.45e-01	0	44	104	0	79	10155
2026-01-26 22:46:58.14	217.92	16.80	-54.1	-62.9	3.8	7.45e-01	0	44	104	0	79	10134
2026-01-26 22:46:59.15	217.86	16.65	-54.1	-62.9	3.8	7.45e-01	0	44	104	0	79	10162
2026-01-26 22:47:00.15	217.81	16.50	-54.1	-62.9	3.8	7.45e-01	0	44	104	0	79	10119
2026-01-26 22:47:01.15	217.75	16.35	-54.1	-62.9	3.8	7.45e-01	0	44	104	0	79	10155
2026-01-26 22:47:02.16	217.70	16.20	-54.1	-62.9	3.8	7.45e-01	0	44	104	0	79	10125
2026-01-26 22:47:03.17	217.64	16.05	-54.1	-62.9	3.8	7.46e-01	0	44	104	0	79	10147
2026-01-26 22:47:04.17	217.59	15.91	-54.1	-62.9	3.8	7.45e-01	0	44	104	0	79	10118
2026-01-26 22:47:05.18	217.53	15.76	-54.1	-62.9	3.8	7.46e-01	0	44	104	0	79	10128
2026-01-26 22:47:06.19	217.48	15.62	-54.1	-62.9	3.8	7.46e-01	0	44	104	0	79	10100
2026-01-26 22:47:07.19	217.43	15.48	-54.1	-62.9	3.8	7.45e-01	0	44	104	0	79	10134
2026-01-26 22:47:08.20	217.38	15.34	-54.1	-62.9	3.8	7.44e-01	0	44	104	0	79	10079
2026-01-26 22:47:09.21	217.33	15.20	-54.0	-62.9	3.8	7.45e-01	0	44	104	0	79	10069
2026-01-26 22:47:10.22	217.28	15.06	-54.0	-62.8	3.8	7.43e-01	0	44	104	0	79	10057
2026-01-26 22:47:11.23	217.23	14.92	-54.0	-62.9	3.8	7.45e-01	0	44	104	0	79	10095
2026-01-26 22:47:12.23	217.18	14.78	-54.0	-62.8	3.8	7.45e-01	0	44	104	0	79	10057
2026-01-26 22:47:13.24	217.13	14.65	-54.0	-62.9	3.8	7.46e-01	0	44	104	0	79	10069
2026-01-26 22:47:14.25	217.08	14.51	-54.0	-62.8	3.8	7.45e-01	0	44	104	0	79	10017
2026-01-26 22:47:15.25	217.03	14.38	-54.0	-62.9	3.8	7.48e-01	0	44	104	0	79	10079
2026-01-26 22:47:16.26	216.99	14.24	-54.0	-62.8	3.8	7.44e-01	0	44	104	0	79	9988
2026-01-26 22:47:17.27	216.94	14.11	-54.0	-62.8	3.8	7.46e-01	0	44	104	0	79	10024
2026-01-26 22:47:18.28	216.89	13.98	-54.0	-62.8	3.8	7.46e-01	0	44	104	0	79	10002
2026-01-26 22:47:19.29	216.85	13.85	-54.0	-62.8	3.8	7.43e-01	0	44	104	0	79	9965
2026-01-26 22:47:20.30	216.80	13.72	-54.0	-62.8	3.8	7.44e-01	0	44	104	0	79	10007
2026-01-26 22:47:21.30	216.76	13.59	-53.9	-62.7	3.8	7.45e-01	0	44	104	0	79	9939
2026-01-26 22:47:22.32	216.72	13.46	-53.9	-62.8	3.8	7.43e-01	0	44	104	0	79	9976
2026-01-26 22:47:23.32	216.67	13.34	-54.0	-62.8	3.8	7.45e-01	0	44	104	0	79	9980
2026-01-26 22:47:24.33	216.63	13.21	-53.9	-62.7	3.8	7.47e-01	0	44	104	0	79	9919
2026-01-26 22:47:25.34	216.59	13.08	-53.9	-62.7	3.8	7.43e-01	0	44	104	0	79	9930
2026-01-26 22:47:26.35	216.55	12.96	-53.9	-62.7	3.8	7.47e-01	0	44	104	0	79	9911
2026-01-26 22:47:27.36	216.50	12.83	-53.9	-62.8	3.8	7.47e-01	0	44	104	0	79	9955
2026-01-26 22:47:28.37	216.46	12.71	-53.9	-62.7	3.8	7.46e-01	0	44	104	0	79	9935
2026-01-26 22:47:29.37	216.42	12.59	-53.9	-62.7	3.8	7.46e-01	0	44	104	0	79	9864
2026-01-26 22:47:30.38	216.38	12.47	-53.9	-62.7	3.8	7.44e-01	0	44	104	0	79	9897
2026-01-26 22:47:31.39	216.34	12.35	-53.9	-62.7	3.8	7.45e-01	0	44	104	0	79	9895
2026-01-26 22:47:32.40	216.30	12.23	-53.9	-62.7	3.8	7.45e-01	0	44	104	0	79	9865
2026-01-26 22:47:33.41	216.26	12.11	-53.9	-62.7	3.8	7.47e-01	0	44	104	0	79	9857
2026-01-26 22:47:34.42	216.22	11.99	-53.9	-62.7	3.8	7.46e-01	0	44	104	0	79	9874
2026-01-26 22:47:35.42	216.19	11.87	-53.9	-62.7	3.8	7.45e-01	0	44	104	0	79	9901
2026-01-26 22:47:36.43	216.15	11.76	-53.8	-62.7	3.8	7.46e-01	0	44	104	0	79	9874
2026-01-26 22:47:37.44	216.11	11.64	-53.8	-62.6	3.8	7.46e-01	0	44	104	0	79	9824
2026-01-26 22:47:38.45	216.07	11.52	-53.8	-62.7	3.8	7.45e-01	0	44	104	0	79	9855
2026-01-26 22:47:39.46	216.04	11.41	-53.8	-62.7	3.8	7.46e-01	0	44	104	0	79	9849
2026-01-26 22:47:40.46	216.00	11.30	-53.8	-62.6	3.8	7.47e-01	0	44	104	0	79	9774
2026-01-26 22:47:41.46	215.97	11.18	-53.8	-62.6	3.8	7.44e-01	0	44	104	0	79	9769
2026-01-26 22:47:42.47	215.93	11.07	-53.8	-62.6	3.8	7.44e-01	0	44	104	0	79	9771
2026-01-26 22:47:43.47	215.90	10.96	-53.8	-62.6	3.8	7.44e-01	0	44	104	0	79	9798
2026-01-26 22:47:44.48	215.86	10.85	-53.8	-62.6	3.8	7.46e-01	0	44	104	0	79	9778
2026-01-26 22:47:45.49	215.83	10.74	-53.7	-62.5	3.8	7.44e-01	0	44	104	0	79	9717
2026-01-26 22:47:46.50	215.79	10.63	-53.8	-62.6	3.8	7.45e-01	0	44	104	0	79	9762
2026-01-26 22:47:47.51	215.76	10.52	-53.8	-62.6	3.8	7.45e-01	0	44	104	0	79	9772
2026-01-26 22:47:48.52	215.73	10.41	-53.7	-62.5	3.8	7.45e-01	0	44	104	0	79	9707
2026-01-26 22:47:49.53	215.69	10.30	-53.7	-62.5	3.8	7.46e-01	0	44	104	0	79	9652
2026-01-26 22:47:50.54	215.66	10.19	-53.7	-62.5	3.8	7.46e-01	0	44	104	0	79	9709
2026-01-26 22:47:51.55	215.63	10.09	-53.7	-62.6	3.8	7.46e-01	0	44	104	0	79	9725
2026-01-26 22:47:52.56	215.60	9.98	-53.7	-62.5	3.8	7.47e-01	0	44	104	0	79	9665
2026-01-26 22:47:53.57	215.56	9.87	-53.6	-62.5	3.8	7.45e-01	0	44	104	0	79	9644
2026-01-26 22:47:54.57	215.53	9.77	-53.7	-62.5	3.8	7.44e-01	0	44	104	0	79	9649
2026-01-26 22:47:55.58	215.50	9.67	-53.7	-62.5	3.8	7.46e-01	0	44	104	0	79	9693
2026-01-26 22:47:56.59	215.47	9.56	-53.6	-62.5	3.8	7.45e-01	0	44	104	0	79	9639
2026-01-26 22:47:57.59	215.44	9.46	-53.6	-62.4	3.8	7.44e-01	0	44	104	0	79	9563
2026-01-26 22:47:58.60	215.41	9.36	-53.6	-62.5	3.8	7.46e-01	0	44	104	0	79	9611
2026-01-26 22:47:59.61	215.38	9.25	-53.6	-62.5	3.8	7.45e-01	0	44	104	0	79	9631
2026-01-26 22:48:00.62	215.35	9.15	-53.6	-62.4	3.8	7.45e-01	0	44	104	0	79	9529
2026-01-26 22:48:01.62	215.32	9.05	-53.5	-62.4	3.8	7.45e-01	0	44	104	0	79	9528
2026-01-26 22:48:02.63	215.29	8.95	-53.6	-62.4	3.8	7.43e-01	0	44	104	0	79	9577
2026-01-26 22:48:03.64	215.26	8.85	-53.6	-62.4	3.8	7.46e-01	0	44	104	0	79	9586
2026-01-26 22:48:04.65	215.24	8.75	-53.5	-62.3	3.8	7.46e-01	0	44	104	0	79	9490
2026-01-26 22:48:05.66	215.21	8.65	-53.5	-62.4	3.8	7.46e-01	0	44	104	0	79	9503
2026-01-26 22:48:06.67	215.18	8.55	-53.6	-62.4	3.8	7.44e-01	0	44	104	0	79	9555
2026-01-26 22:48:07.67	215.15	8.46	-53.5	-62.3	3.8	7.46e-01	0	44	104	0	79	9496
2026-01-26 22:48:08.68	215.12	8.36	-53.5	-62.3	3.8	7.44e-01	0	44	104	0	79	9476
2026-01-26 22:48:09.69	215.10	8.26	-53.5	-62.3	3.8	7.46e-01	0	44	104	0	79	9442
2026-01-26 22:48:10.70	215.07	8.17	-53.5	-62.4	3.8	7.45e-01	0	44	104	0	78	10075
2026-01-26 22:48:11.71	215.04	8.07	-53.5	-62.3	3.8	7.45e-01	0	44	104	0	78	10038
2026-01-26 22:48:12.72	215.02	7.97	-53.4	-62.3	3.8	7.47e-01	0	44	104	0	78	9962
2026-01-26 22:48:13.73	214.99	7.88	-53.4	-62.2	3.8	7.45e-01	0	44	104	0	78	9922
2026-01-26 22:48:14.73	214.96	7.79	-53.5	-62.3	3.8	7.46e-01	0	44	104	0	78	10012
2026-01-26 22:48:15.74	214.94	7.69	-53.5	-62.3	3.8	7.44e-01	0	44	104	0	78	9962
2026-01-26 22:48:16.75	214.91	7.60	-53.4	-62.3	3.8	7.45e-01	0	44	104	0	78	9980
2026-01-26 22:48:17.76	214.89	7.50	-53.4	-62.2	3.8	7.43e-01	0	44	104	0	78	9885
2026-01-26 22:48:18.77	214.86	7.41	-53.4	-62.2	3.8	7.45e-01	0	44	104	0	78	9925
2026-01-26 22:48:19.78	214.84	7.32	-53.4	-62.2	3.8	7.46e-01	0	44	104	0	78	9913
2026-01-26 22:48:20.79	214.81	7.23	-53.4	-62.2	3.8	7.47e-01	0	44	104	0	78	9900
2026-01-26 22:48:21.79	214.79	7.14	-53.3	-62.1	3.8	7.44e-01	0	44	104	0	78	9798
2026-01-26 22:48:22.80	214.76	7.05	-53.4	-62.2	3.8	7.45e-01	0	44	104	0	78	9935
2026-01-26 22:48:23.81	214.74	6.96	-53.4	-62.2	3.8	7.46e-01	0	44	104	0	78	9884
2026-01-26 22:48:24.82	214.72	6.86	-53.3	-62.1	3.8	7.44e-01	0	44	104	0	78	9816
2026-01-26 22:48:25.83	214.69	6.78	-53.3	-62.1	3.8	7.45e-01	0	44	104	0	78	9798
2026-01-26 22:48:26.84	214.67	6.69	-53.4	-62.2	3.8	7.44e-01	0	44	104	0	78	9909
2026-01-26 22:48:27.84	214.65	6.60	-53.3	-62.2	3.8	7.45e-01	0	44	104	0	78	9843
2026-01-26 22:48:28.85	214.62	6.51	-53.3	-62.1	3.8	7.44e-01	0	44	104	0	78	9789
2026-01-26 22:48:29.86	214.60	6.42	-53.2	-62.1	3.8	7.44e-01	0	44	104	0	78	9723
2026-01-26 22:48:30.87	214.58	6.33	-53.3	-62.2	3.8	7.47e-01	0	44	104	0	78	9840
2026-01-26 22:48:31.88	214.56	6.25	-53.3	-62.1	3.8	7.44e-01	0	44	104	0	78	9747
2026-01-26 22:48:32.89	214.53	6.16	-53.2	-62.1	3.8	7.46e-01	0	44	104	0	78	9751
2026-01-26 22:48:33.89	214.51	6.07	-53.2	-62.0	3.8	7.46e-01	0	44	104	0	78	9679
2026-01-26 22:48:34.90	214.49	5.99	-53.3	-62.1	3.8	7.45e-01	0	44	104	0	78	9777
2026-01-26 22:48:35.91	214.47	5.90	-53.2	-62.1	3.8	7.45e-01	0	44	104	0	78	9761
2026-01-26 22:48:36.92	214.45	5.82	-53.2	-62.0	3.8	7.45e-01	0	44	104	0	78	9661
2026-01-26 22:48:37.93	214.43	5.73	-53.1	-61.9	3.8	7.45e-01	0	44	104	0	78	9601
2026-01-26 22:48:38.93	214.41	5.65	-53.3	-62.1	3.8	7.46e-01	0	44	104	0	78	9756
2026-01-26 22:48:39.94	214.39	5.56	-53.2	-62.0	3.8	7.45e-01	0	44	104	0	78	9703
2026-01-26 22:48:40.95	214.36	5.48	-53.1	-62.0	3.8	7.46e-01	0	44	104	0	78	9620
2026-01-26 22:48:41.95	214.34	5.40	-53.1	-61.9	3.8	7.44e-01	0	44	104	0	78	9530
2026-01-26 22:48:42.96	214.32	5.31	-53.2	-62.0	3.8	7.46e-01	0	44	104	0	78	9698
2026-01-26 22:48:43.97	214.30	5.23	-53.1	-62.0	3.8	7.45e-01	0	44	104	0	78	9618
2026-01-26 22:48:44.98	214.28	5.15	-53.1	-61.9	3.8	7.45e-01	0	44	104	0	78	9523
2026-01-26 22:48:45.99	214.26	5.06	-53.0	-61.9	3.8	7.43e-01	0	44	104	0	78	9506
2026-01-26 22:48:47.00	214.24	4.98	-53.3	-62.1	3.8	7.43e-01	0	44	104	0	78	9778
2026-01-26 22:48:48.01	214.22	4.90	-53.7	-62.6	3.8	7.45e-01	0	44	104	0	78	10301
2026-01-26 22:48:49.02	214.21	4.82	-54.0	-62.8	3.8	7.45e-01	0	44	104	0	78	10655
2026-01-26 22:48:50.02	214.19	4.74	-54.2	-63.0	3.8	7.44e-01	0	44	104	0	78	10886
2026-01-26 22:48:51.03	214.17	4.66	-54.3	-63.1	3.8	7.46e-01	0	44	104	0	79	10410
2026-01-26 22:48:52.04	214.15	4.58	-54.4	-63.3	3.8	7.45e-01	0	44	104	0	79	10539
2026-01-26 22:48:53.05	214.13	4.50	-54.5	-63.3	3.8	7.46e-01	0	44	104	0	79	10647
2026-01-26 22:48:54.06	214.11	4.42	-54.6	-63.4	3.8	7.44e-01	0	44	104	0	79	10689
2026-01-26 22:48:55.07	214.09	4.34	-54.6	-63.5	3.8	7.44e-01	0	44	104	0	79	10823
2026-01-26 22:48:56.07	214.07	4.26	-54.7	-63.5	3.8	7.46e-01	0	44	104	0	79	10840
2026-01-26 22:48:57.08	214.06	4.18	-54.7	-63.5	3.8	7.45e-01	0	44	104	0	79	10900
2026-01-26 22:48:58.08	214.04	4.11	-54.7	-63.5	3.8	7.47e-01	0	44	104	0	80	10269
2026-01-26 22:48:59.09	214.02	4.03	-54.7	-63.6	3.8	7.46e-01	0	44	104	0	80	10319
2026-01-26 22:49:00.10	214.00	3.95	-54.8	-63.6	3.8	7.44e-01	0	44	104	0	80	10354
2026-01-26 22:49:01.11	213.99	3.87	-54.8	-63.6	3.8	7.46e-01	0	44	104	0	80	10397
2026-01-26 22:49:02.11	213.97	3.80	-54.8	-63.6	3.8	7.45e-01	0	44	104	0	80	10373
2026-01-26 22:49:03.12	213.95	3.72	-54.8	-63.6	3.8	7.45e-01	0	44	104	0	80	10366
2026-01-26 22:49:04.13	213.93	3.64	-54.8	-63.6	3.8	7.47e-01	0	44	104	0	80	10335
2026-01-26 22:49:05.13	213.92	3.57	-54.7	-63.6	3.8	7.44e-01	0	44	104	0	80	10359
2026-01-26 22:49:06.14	213.90	3.49	-54.7	-63.6	3.8	7.46e-01	0	44	104	0	80	10303
2026-01-26 22:49:07.15	213.88	3.41	-54.7	-63.5	3.8	7.45e-01	0	44	104	0	80	10258
2026-01-26 22:49:08.16	213.87	3.34	-54.6	-63.5	3.8	7.46e-01	0	44	104	0	80	10242
2026-01-26 22:49:09.17	213.85	3.26	-54.5	-63.4	3.8	7.45e-01	0	44	104	0	80	10099
2026-01-26 22:49:10.18	213.83	3.19	-54.4	-63.2	3.8	7.44e-01	0	44	104	0	80	9913
2026-01-26 22:49:11.19	213.82	3.11	-54.3	-63.2	3.8	7.45e-01	0	44	104	0	80	9881
2026-01-26 22:49:12.19	213.80	3.04	-54.3	-63.2	3.8	7.45e-01	0	44	104	0	80	9834
2026-01-26 22:49:13.20	213.79	2.97	-54.3	-63.2	3.8	7.45e-01	0	44	104	0	80	9850
2026-01-26 22:49:14.21	213.77	2.89	-54.3	-63.1	3.8	7.44e-01	0	44	104	0	80	9814
2026-01-26 22:49:15.22	213.76	2.82	-54.3	-63.1	3.8	7.45e-01	0	44	104	0	80	9804
2026-01-26 22:49:16.23	213.74	2.75	-54.3	-63.2	3.8	7.45e-01	0	44	104	0	80	9833
2026-01-26 22:49:17.23	213.72	2.67	-54.3	-63.1	3.8	7.45e-01	0	44	104	0	80	9795
2026-01-26 22:49:18.24	213.71	2.60	-54.3	-63.1	3.8	7.46e-01	0	44	104	0	80	9818
2026-01-26 22:49:19.25	213.69	2.53	-54.3	-63.1	3.8	7.46e-01	0	44	104	0	80	9795
2026-01-26 22:49:20.25	213.68	2.46	-54.3	-63.1	3.8	7.46e-01	0	44	104	0	80	9777
2026-01-26 22:49:21.26	213.66	2.38	-54.3	-63.1	3.8	7.45e-01	0	44	104	0	80	9793
2026-01-26 22:49:22.27	213.65	2.31	-54.3	-63.1	3.8	7.46e-01	0	44	104	0	80	9793
2026-01-26 22:49:23.28	213.63	2.24	-54.3	-63.1	3.8	7.47e-01	0	44	104	0	80	9818
2026-01-26 22:49:24.28	213.62	2.17	-54.3	-63.1	3.8	7.46e-01	0	44	104	0	80	9790
2026-01-26 22:49:25.29	213.61	2.10	-54.3	-63.1	3.8	7.45e-01	0	44	104	0	80	9763
2026-01-26 22:49:26.29	213.59	2.03	-54.3	-63.1	3.8	7.46e-01	0	44	104	0	80	9798
2026-01-26 22:49:27.30	213.58	1.96	-54.3	-63.1	3.8	7.44e-01	0	44	104	0	80	9775

#Closed at: 2026-01-26 22:49:27
#Recorded file [0 MB]: D:/lorett/data/31041_260127_013901.dat