passes_logs/2026/01/26/R3.2S_Murmansk/R3.2S_Murmansk__20260126_030605_NOAA_20_JPSS-1_rec.log

#Pass ID: 20260126_030605_NOAA 20 (JPSS-1)
#Satellite: NOAA 20 (JPSS-1)
#Configuration: NOAA 20
#almurnet v.1.7.20251203
#Start time: 2026-01-26 03:06:04

#Version: 2.2.20231116
#Station: R3.2S_Murmansk
#Location: 33.079688 lon 68.888172 lat
#TLE: 1 43013U 17073A   26025.47986292  .00000161  00000+0  97249-4 0  9993
#TLE: 2 43013  98.7646 326.3091 0001052  24.2709 335.8516 14.19540188424225

#Time	Az	El	Level	Level2	SNR	BER	BlckErr	Temp	State	Recorded	gain1	gain2
2026-01-26 03:06:04.66	38.49	1.96	-53.9	-68.9	3.8	1.49e+00	0	41	0	0	78	21354
2026-01-26 03:06:05.66	38.44	2.02	-54.0	-69.0	3.8	1.49e+00	0	41	104	0	78	21704
2026-01-26 03:06:06.67	38.39	2.08	-54.1	-69.1	3.8	1.49e+00	0	41	104	0	78	21766
2026-01-26 03:06:07.68	38.34	2.15	-54.1	-69.1	3.8	1.49e+00	0	41	104	0	78	21827
2026-01-26 03:06:08.68	38.29	2.21	-54.1	-69.1	3.8	1.49e+00	0	41	104	0	78	21788
2026-01-26 03:06:09.69	38.24	2.27	-54.1	-69.0	3.8	1.49e+00	0	42	104	0	78	21752
2026-01-26 03:06:10.70	38.19	2.33	-54.1	-69.1	3.8	1.49e+00	0	42	104	0	78	21772
2026-01-26 03:06:11.70	38.15	2.39	-54.0	-69.0	3.8	1.49e+00	0	42	104	0	78	21627
2026-01-26 03:06:12.71	38.10	2.45	-54.0	-69.0	3.8	1.49e+00	0	42	104	0	78	21660
2026-01-26 03:06:13.72	38.05	2.51	-54.0	-69.0	3.8	1.49e+00	0	42	104	0	78	21563
2026-01-26 03:06:14.73	37.99	2.57	-53.9	-68.9	3.8	1.49e+00	0	42	104	0	78	21287
2026-01-26 03:06:15.73	37.94	2.63	-53.9	-68.8	3.8	1.49e+00	0	42	104	0	78	21170
2026-01-26 03:06:16.74	37.89	2.69	-53.8	-68.8	3.8	1.49e+00	0	42	104	0	78	21207
2026-01-26 03:06:17.75	37.84	2.76	-53.8	-68.8	3.8	1.49e+00	0	42	104	0	78	21098
2026-01-26 03:06:18.76	37.79	2.82	-53.8	-68.7	3.8	1.49e+00	0	42	104	0	78	20982
2026-01-26 03:06:19.77	37.74	2.88	-53.7	-68.7	3.8	1.49e+00	0	42	104	0	78	20836
2026-01-26 03:06:20.77	37.69	2.94	-53.6	-68.6	3.8	1.49e+00	0	42	104	0	78	20660
2026-01-26 03:06:21.78	37.64	3.00	-53.5	-68.5	3.8	1.49e+00	0	42	104	0	78	20416
2026-01-26 03:06:22.79	37.58	3.06	-53.4	-68.4	3.8	1.49e+00	0	42	104	0	78	20237
2026-01-26 03:06:23.79	37.53	3.13	-53.3	-68.3	3.8	1.49e+00	0	42	104	0	78	19925
2026-01-26 03:06:24.80	37.48	3.19	-53.2	-68.1	3.8	1.49e+00	0	42	104	0	78	19611
2026-01-26 03:06:25.81	37.43	3.25	-53.0	-67.9	3.8	1.49e+00	0	42	104	0	78	19143
2026-01-26 03:06:26.82	37.37	3.31	-52.7	-67.7	3.8	1.49e+00	0	42	104	0	77	19784
2026-01-26 03:06:27.82	37.32	3.38	-52.3	-67.1	3.8	1.49e+00	0	42	104	0	76	19405
2026-01-26 03:06:28.83	37.27	3.44	-52.0	-66.9	3.8	1.49e+00	0	42	104	0	76	18972
2026-01-26 03:06:29.84	37.21	3.50	-52.0	-66.8	3.8	1.49e+00	0	42	104	0	76	18759
2026-01-26 03:06:30.84	37.16	3.56	-52.0	-66.8	3.8	1.49e+00	0	42	104	0	76	18899
2026-01-26 03:06:31.85	37.10	3.63	-52.0	-66.9	3.8	1.49e+00	0	42	104	0	76	18964
2026-01-26 03:06:32.86	37.05	3.69	-52.0	-66.9	3.8	1.49e+00	0	42	104	0	76	19071
2026-01-26 03:06:33.87	36.99	3.76	-52.0	-66.9	3.8	1.49e+00	0	42	104	0	76	19108
2026-01-26 03:06:34.88	36.94	3.82	-52.0	-66.8	3.8	1.49e+00	0	42	104	0	76	18817
2026-01-26 03:06:35.88	36.88	3.88	-52.0	-66.6	3.8	1.49e+00	0	42	104	0	76	18411
2026-01-26 03:06:36.89	36.83	3.95	-51.9	-65.9	3.8	1.49e+00	0	42	104	0	75	18063
2026-01-26 03:06:37.90	36.77	4.01	-51.9	-65.2	3.8	1.49e+00	0	42	104	0	75	16660
2026-01-26 03:06:38.91	36.72	4.07	-51.9	-64.8	3.8	1.49e+00	0	42	104	0	75	15824
2026-01-26 03:06:39.92	36.66	4.14	-51.8	-64.2	4.0	1.48e+00	0	42	104	0	75	14875
2026-01-26 03:06:40.93	36.60	4.20	-51.8	-63.8	3.9	1.46e+00	0	42	104	0	75	14201
2026-01-26 03:06:41.94	36.55	4.27	-51.8	-63.6	4.1	1.41e+00	0	42	0	0	75	13785
2026-01-26 03:06:42.95	36.49	4.33	-51.8	-63.9	4.1	1.44e+00	0	42	0	0	75	14313
2026-01-26 03:06:43.96	36.43	4.40	-51.8	-63.8	4.1	1.46e+00	0	42	0	0	75	14053
2026-01-26 03:06:44.97	36.37	4.46	-51.7	-62.4	4.5	1.36e+00	12	43	0	0	75	11996
2026-01-26 03:06:45.98	36.31	4.53	-51.6	-61.4	5.0	7.76e-01	0	42	0	2097152	75	10686
2026-01-26 03:06:46.98	36.26	4.59	-51.4	-59.8	6.0	5.23e-01	0	42	0	4194304	74	9491
2026-01-26 03:06:47.99	36.20	4.66	-51.1	-58.1	7.5	2.05e-01	0	43	0	6291456	74	7759
2026-01-26 03:06:49.00	36.14	4.72	-50.8	-57.1	8.4	4.46e-02	0	43	0	7340032	73	7369
2026-01-26 03:06:50.01	36.08	4.79	-50.5	-56.2	9.4	2.41e-02	0	43	0	9437184	73	6577
2026-01-26 03:06:51.02	36.02	4.85	-50.3	-55.5	10.1	7.82e-03	0	42	0	11534336	72	6464
2026-01-26 03:06:52.03	35.96	4.92	-50.2	-55.2	10.5	5.40e-03	0	43	0	13631488	72	6226
2026-01-26 03:06:53.03	35.90	4.98	-50.1	-54.9	10.8	2.73e-03	0	43	0	14680064	72	6008
2026-01-26 03:06:54.04	35.84	5.05	-50.1	-54.9	10.8	1.62e-03	0	43	0	16777216	72	6025
2026-01-26 03:06:55.05	35.78	5.12	-50.4	-55.3	10.6	4.50e-04	0	43	0	18874368	71	6663
2026-01-26 03:06:56.06	35.72	5.18	-51.1	-57.9	7.9	5.29e-02	0	43	0	20971520	72	8479
2026-01-26 03:06:57.07	35.66	5.25	-51.3	-59.5	6.2	1.79e-02	0	43	0	23068672	73	9631
2026-01-26 03:06:58.08	35.59	5.32	-47.4	-49.5	16.4	4.54e-03	0	43	0	25165824	66	4595
2026-01-26 03:06:59.08	35.53	5.38	-51.9	-66.7	3.8	1.23e+00	0	43	104	26214400	74	20830
2026-01-26 03:07:00.09	35.47	5.45	-47.5	-49.8	16.0	5.19e-01	0	43	0	26214400	67	4452
2026-01-26 03:07:01.10	35.41	5.52	-47.6	-49.9	16.1	0.00e+00	0	43	0	28311552	67	4522
2026-01-26 03:07:02.11	35.35	5.58	-47.6	-50.0	16.0	0.00e+00	0	43	0	29360128	67	4553
2026-01-26 03:07:03.11	35.28	5.65	-47.5	-49.7	16.3	0.00e+00	0	43	0	31457280	66	4688
2026-01-26 03:07:04.12	35.22	5.72	-47.5	-49.8	16.3	0.00e+00	0	43	0	33554432	66	4725
2026-01-26 03:07:05.13	35.16	5.78	-47.4	-49.6	16.5	0.00e+00	0	43	0	35651584	66	4625
2026-01-26 03:07:06.14	35.09	5.85	-47.4	-49.7	16.4	0.00e+00	0	43	0	36700160	66	4654
2026-01-26 03:07:07.14	35.03	5.92	-47.4	-49.7	16.4	0.00e+00	0	43	0	38797312	66	4660
2026-01-26 03:07:08.15	34.96	5.99	-47.7	-50.0	16.0	0.00e+00	0	43	0	40894464	66	4862
2026-01-26 03:07:09.16	34.90	6.06	-47.5	-49.8	16.3	0.00e+00	0	43	0	42991616	66	4721
2026-01-26 03:07:10.17	34.83	6.12	-47.3	-49.4	16.7	0.00e+00	0	43	0	45088768	66	4524
2026-01-26 03:07:11.17	34.77	6.19	-47.4	-49.5	16.6	0.00e+00	0	43	0	47185920	66	4589
2026-01-26 03:07:12.18	34.70	6.26	-47.4	-49.6	16.5	0.00e+00	0	43	0	48234496	66	4631
2026-01-26 03:07:13.19	34.64	6.33	-47.2	-49.4	16.8	0.00e+00	0	43	0	50331648	66	4495
2026-01-26 03:07:14.20	34.57	6.40	-47.3	-49.4	16.7	0.00e+00	0	43	0	52428800	66	4521
2026-01-26 03:07:15.21	34.50	6.47	-47.4	-49.6	16.6	0.00e+00	0	43	0	54525952	66	4621
2026-01-26 03:07:16.21	34.44	6.53	-47.6	-49.9	16.2	0.00e+00	0	43	0	56623104	66	4804
2026-01-26 03:07:17.22	34.37	6.60	-47.4	-49.6	16.6	0.00e+00	0	43	0	57671680	66	4639
2026-01-26 03:07:18.23	34.30	6.67	-47.5	-49.6	16.6	0.00e+00	0	43	0	59768832	66	4644
2026-01-26 03:07:19.24	34.23	6.74	-47.3	-49.5	16.7	0.00e+00	0	43	0	61865984	66	4567
2026-01-26 03:07:20.24	34.16	6.81	-47.1	-49.2	17.0	0.00e+00	0	43	0	63963136	66	4411
2026-01-26 03:07:21.25	34.09	6.88	-47.3	-49.4	16.8	0.00e+00	0	43	0	65011712	66	4535
2026-01-26 03:07:22.26	34.03	6.95	-47.3	-49.4	16.9	0.00e+00	0	43	0	67108864	66	4499
2026-01-26 03:07:23.27	33.96	7.02	-47.3	-49.5	16.8	0.00e+00	0	43	0	69206016	66	4551
2026-01-26 03:07:24.27	33.89	7.09	-47.4	-49.6	16.7	0.00e+00	0	43	0	71303168	66	4611
2026-01-26 03:07:25.28	33.82	7.16	-47.5	-49.6	16.7	0.00e+00	0	43	0	73400320	66	4649
2026-01-26 03:07:26.29	33.74	7.23	-47.4	-49.5	16.8	0.00e+00	0	43	0	75497472	66	4581
2026-01-26 03:07:27.30	33.67	7.30	-47.2	-49.3	17.0	0.00e+00	0	43	0	76546048	66	4447
2026-01-26 03:07:28.31	33.60	7.37	-47.4	-49.5	16.8	0.00e+00	0	43	0	78643200	66	4554
2026-01-26 03:07:29.31	33.53	7.44	-47.5	-49.6	16.7	0.00e+00	0	43	0	80740352	66	4627
2026-01-26 03:07:30.32	33.46	7.52	-47.4	-49.5	16.9	0.00e+00	0	43	0	82837504	66	4551
2026-01-26 03:07:31.33	33.39	7.59	-47.1	-49.1	17.3	0.00e+00	0	43	0	84934656	66	4341
2026-01-26 03:07:32.33	33.31	7.66	-47.4	-49.5	16.8	0.00e+00	0	43	0	85983232	66	4551
2026-01-26 03:07:33.34	33.24	7.73	-47.4	-49.5	16.8	0.00e+00	0	43	0	88080384	66	4594
2026-01-26 03:07:34.34	33.17	7.80	-47.7	-49.9	16.5	0.00e+00	0	43	0	90177536	66	4773
2026-01-26 03:07:35.35	33.09	7.87	-47.3	-49.4	17.0	0.00e+00	0	43	0	92274688	66	4511
2026-01-26 03:07:36.35	33.02	7.94	-47.2	-49.3	17.1	0.00e+00	0	43	0	93323264	66	4460
2026-01-26 03:07:37.36	32.94	8.02	-47.3	-49.4	17.0	0.00e+00	0	43	0	95420416	66	4508
2026-01-26 03:07:38.37	32.87	8.09	-47.2	-49.3	17.1	0.00e+00	0	43	0	97517568	66	4445
2026-01-26 03:07:39.38	32.79	8.16	-47.3	-49.3	17.1	0.00e+00	0	43	0	99614720	66	4464
2026-01-26 03:07:40.38	32.72	8.23	-47.3	-49.4	17.0	0.00e+00	0	43	0	101711872	66	4514
2026-01-26 03:07:41.39	32.64	8.31	-47.3	-49.4	17.0	0.00e+00	0	43	0	103809024	66	4497
2026-01-26 03:07:42.40	32.56	8.38	-47.4	-49.5	16.9	0.00e+00	0	43	0	104857600	66	4581
2026-01-26 03:07:43.41	32.49	8.45	-47.4	-49.5	17.0	0.00e+00	0	43	0	106954752	66	4551
2026-01-26 03:07:44.41	32.41	8.52	-47.5	-49.6	16.9	0.00e+00	0	43	0	109051904	66	4615
2026-01-26 03:07:45.42	32.33	8.60	-47.0	-49.0	17.4	0.00e+00	0	43	0	111149056	66	4305
2026-01-26 03:07:46.43	32.25	8.67	-47.2	-49.1	17.3	0.00e+00	0	43	0	113246208	66	4381
2026-01-26 03:07:47.44	32.17	8.75	-47.0	-49.0	17.5	0.00e+00	0	43	0	114294784	66	4304
2026-01-26 03:07:48.45	32.10	8.82	-47.0	-48.9	17.5	0.00e+00	0	43	0	116391936	66	4280
2026-01-26 03:07:49.45	32.02	8.89	-47.1	-49.0	17.5	0.00e+00	0	43	0	118489088	66	4308
2026-01-26 03:07:50.46	31.94	8.97	-46.9	-48.8	17.6	0.00e+00	0	43	0	120586240	65	4483
2026-01-26 03:07:51.47	31.86	9.04	-46.9	-48.8	17.6	0.00e+00	0	43	0	122683392	65	4488
2026-01-26 03:07:52.47	31.78	9.12	-46.8	-48.6	17.8	0.00e+00	0	43	0	123731968	65	4376
2026-01-26 03:07:53.48	31.69	9.19	-46.9	-48.8	17.7	0.00e+00	0	43	0	125829120	65	4445
2026-01-26 03:07:54.49	31.61	9.27	-46.8	-48.6	17.9	0.00e+00	0	43	0	127926272	65	4380
2026-01-26 03:07:55.50	31.53	9.34	-46.8	-48.6	17.9	0.00e+00	0	43	0	130023424	65	4344
2026-01-26 03:07:56.50	31.45	9.42	-46.8	-48.6	17.9	0.00e+00	0	43	0	132120576	65	4369
2026-01-26 03:07:57.51	31.36	9.49	-46.6	-48.4	18.1	0.00e+00	0	43	0	133169152	65	4270
2026-01-26 03:07:58.52	31.28	9.57	-46.6	-48.4	18.1	0.00e+00	0	43	0	135266304	65	4272
2026-01-26 03:07:59.53	31.20	9.64	-46.6	-48.3	18.2	0.00e+00	0	43	0	137363456	65	4222
2026-01-26 03:08:00.53	31.11	9.72	-46.7	-48.4	18.1	0.00e+00	0	43	0	139460608	65	4284
2026-01-26 03:08:01.54	31.03	9.79	-46.6	-48.3	18.2	0.00e+00	0	43	0	141557760	65	4233
2026-01-26 03:08:02.55	30.94	9.87	-46.6	-48.4	18.1	0.00e+00	0	43	0	142606336	65	4271
2026-01-26 03:08:03.56	30.86	9.95	-46.5	-48.2	18.3	0.00e+00	0	43	0	144703488	65	4181
2026-01-26 03:08:04.56	30.77	10.02	-46.7	-48.4	18.1	0.00e+00	0	43	0	146800640	65	4281
2026-01-26 03:08:05.57	30.68	10.10	-46.4	-48.0	18.5	0.00e+00	0	43	0	148897792	64	4340
2026-01-26 03:08:06.58	30.60	10.18	-46.4	-48.1	18.4	0.00e+00	0	43	0	150994944	64	4379
2026-01-26 03:08:07.59	30.51	10.25	-46.3	-47.9	18.6	0.00e+00	0	43	0	152043520	64	4279
2026-01-26 03:08:08.60	30.42	10.33	-46.3	-48.0	18.6	0.00e+00	0	43	0	154140672	64	4294
2026-01-26 03:08:09.60	30.33	10.41	-46.4	-48.1	18.4	0.00e+00	0	43	0	156237824	64	4376
2026-01-26 03:08:10.61	30.24	10.49	-46.4	-48.0	18.5	0.00e+00	0	43	0	158334976	64	4336
2026-01-26 03:08:11.62	30.15	10.56	-46.3	-47.9	18.6	0.00e+00	0	43	0	160432128	64	4279
2026-01-26 03:08:12.63	30.06	10.64	-46.3	-48.0	18.6	0.00e+00	0	43	0	161480704	64	4293
2026-01-26 03:08:13.63	29.97	10.72	-46.4	-48.1	18.5	0.00e+00	0	43	0	163577856	64	4348
2026-01-26 03:08:14.64	29.88	10.80	-46.4	-48.0	18.6	0.00e+00	0	43	0	165675008	64	4326
2026-01-26 03:08:15.65	29.79	10.88	-46.4	-48.0	18.5	0.00e+00	0	43	0	167772160	64	4337
2026-01-26 03:08:16.66	29.70	10.96	-46.4	-48.1	18.5	0.00e+00	0	43	0	169869312	64	4365
2026-01-26 03:08:17.67	29.60	11.03	-46.3	-47.9	18.7	0.00e+00	0	43	0	171966464	64	4287
2026-01-26 03:08:18.67	29.51	11.11	-46.3	-48.0	18.7	0.00e+00	0	43	0	173015040	64	4305
2026-01-26 03:08:19.68	29.42	11.19	-46.3	-47.9	18.7	0.00e+00	0	43	0	175112192	64	4286
2026-01-26 03:08:20.69	29.32	11.27	-46.3	-48.0	18.6	0.00e+00	0	43	0	177209344	64	4315
2026-01-26 03:08:21.69	29.23	11.35	-46.4	-48.1	18.6	0.00e+00	0	43	0	179306496	64	4342
2026-01-26 03:08:22.69	29.13	11.43	-46.4	-48.0	18.6	0.00e+00	0	43	0	180355072	64	4332
2026-01-26 03:08:23.70	29.04	11.51	-46.4	-48.0	18.6	0.00e+00	0	43	0	182452224	64	4321
2026-01-26 03:08:24.71	28.94	11.59	-46.4	-48.0	18.6	0.00e+00	0	43	0	184549376	64	4321
2026-01-26 03:08:25.72	28.84	11.67	-46.3	-48.0	18.6	0.00e+00	0	43	0	186646528	64	4313
2026-01-26 03:08:26.72	28.75	11.75	-46.4	-48.0	18.6	0.00e+00	0	43	0	188743680	64	4314
2026-01-26 03:08:27.73	28.65	11.83	-46.2	-47.8	18.8	0.00e+00	0	43	0	189792256	64	4229
2026-01-26 03:08:28.73	28.55	11.91	-46.2	-47.9	18.8	0.00e+00	0	43	0	191889408	64	4245
2026-01-26 03:08:29.74	28.45	11.99	-46.2	-47.8	18.8	0.00e+00	0	43	0	193986560	64	4231
2026-01-26 03:08:30.75	28.35	12.07	-46.2	-47.8	18.9	0.00e+00	0	43	0	196083712	64	4217
2026-01-26 03:08:31.75	28.25	12.15	-46.2	-47.8	18.9	0.00e+00	0	43	0	198180864	64	4224
2026-01-26 03:08:32.76	28.15	12.24	-46.1	-47.6	19.1	0.00e+00	0	43	0	200278016	64	4127
2026-01-26 03:08:33.77	28.05	12.32	-46.1	-47.7	19.0	0.00e+00	0	43	0	201326592	64	4182
2026-01-26 03:08:34.78	27.95	12.40	-46.0	-47.5	19.1	0.00e+00	0	43	0	203423744	64	4094
2026-01-26 03:08:35.79	27.84	12.48	-46.0	-47.6	19.2	0.00e+00	0	43	0	205520896	63	4345
2026-01-26 03:08:36.80	27.74	12.56	-46.1	-47.6	19.2	0.00e+00	0	43	0	207618048	63	4363
2026-01-26 03:08:37.80	27.64	12.65	-46.2	-47.7	19.0	0.00e+00	0	43	0	208666624	63	4436
2026-01-26 03:08:38.81	27.53	12.73	-46.2	-47.7	19.1	0.00e+00	0	43	0	210763776	63	4419
2026-01-26 03:08:39.82	27.43	12.81	-46.1	-47.6	19.1	0.00e+00	0	43	0	212860928	63	4390
2026-01-26 03:08:40.83	27.32	12.89	-46.2	-47.8	19.0	0.00e+00	0	43	0	214958080	63	4442
2026-01-26 03:08:41.84	27.21	12.98	-46.2	-47.7	19.1	0.00e+00	0	43	0	217055232	63	4430
2026-01-26 03:08:42.84	27.11	13.06	-46.2	-47.7	19.1	0.00e+00	0	43	0	218103808	63	4427
2026-01-26 03:08:43.85	27.00	13.14	-46.1	-47.7	19.1	0.00e+00	0	43	0	220200960	63	4410
2026-01-26 03:08:44.86	26.89	13.23	-46.2	-47.7	19.1	0.00e+00	0	43	0	222298112	63	4414
2026-01-26 03:08:45.86	26.78	13.31	-46.3	-47.8	19.0	0.00e+00	0	43	0	224395264	63	4481
2026-01-26 03:08:46.87	26.67	13.40	-46.1	-47.6	19.2	0.00e+00	0	43	0	226492416	63	4385
2026-01-26 03:08:47.87	26.56	13.48	-46.1	-47.7	19.1	0.00e+00	0	43	0	228589568	63	4410
2026-01-26 03:08:48.88	26.45	13.56	-46.2	-47.7	19.1	0.00e+00	0	43	0	229638144	63	4426
2026-01-26 03:08:49.89	26.34	13.65	-46.3	-47.8	19.0	0.00e+00	0	43	0	231735296	63	4487
2026-01-26 03:08:50.90	26.23	13.73	-46.2	-47.8	19.1	0.00e+00	0	43	0	233832448	63	4451
2026-01-26 03:08:51.91	26.12	13.82	-46.2	-47.7	19.1	0.00e+00	0	43	0	235929600	63	4422
2026-01-26 03:08:52.91	26.00	13.90	-46.3	-47.8	19.0	0.00e+00	0	43	0	236978176	63	4482
2026-01-26 03:08:53.92	25.89	13.99	-46.4	-47.9	18.9	0.00e+00	0	43	0	239075328	63	4540
2026-01-26 03:08:54.93	25.77	14.07	-46.3	-47.9	18.9	0.00e+00	0	43	0	241172480	63	4526
2026-01-26 03:08:55.94	25.66	14.16	-46.3	-47.8	19.0	0.00e+00	0	43	0	243269632	63	4486
2026-01-26 03:08:56.95	25.54	14.25	-46.3	-47.9	18.9	0.00e+00	0	43	0	245366784	63	4529
2026-01-26 03:08:57.95	25.43	14.33	-46.3	-47.9	18.9	0.00e+00	0	43	0	246415360	63	4525
2026-01-26 03:08:58.96	25.31	14.42	-46.3	-47.9	19.0	0.00e+00	0	43	0	248512512	63	4530
2026-01-26 03:08:59.96	25.19	14.50	-46.5	-48.1	18.8	0.00e+00	0	43	0	250609664	63	4606
2026-01-26 03:09:00.97	25.07	14.59	-46.5	-48.1	18.7	0.00e+00	0	43	0	252706816	63	4647
2026-01-26 03:09:01.98	24.95	14.68	-46.4	-48.0	18.9	0.00e+00	0	43	0	254803968	63	4573
2026-01-26 03:09:02.99	24.83	14.76	-46.4	-48.0	18.9	0.00e+00	0	43	0	256901120	63	4581
2026-01-26 03:09:04.00	24.71	14.85	-46.5	-48.1	18.8	0.00e+00	0	43	0	257949696	63	4640
2026-01-26 03:09:05.01	24.59	14.94	-46.5	-48.1	18.8	0.00e+00	0	43	0	260046848	63	4611
2026-01-26 03:09:06.01	24.47	15.03	-46.5	-48.2	18.7	0.00e+00	0	43	0	262144000	63	4662
2026-01-26 03:09:07.02	24.34	15.11	-46.5	-48.1	18.8	0.00e+00	0	43	0	264241152	63	4615
2026-01-26 03:09:08.03	24.22	15.20	-46.4	-48.0	18.9	0.00e+00	0	43	0	265289728	63	4588
2026-01-26 03:09:09.04	24.09	15.29	-46.5	-48.1	18.8	0.00e+00	0	43	0	267386880	63	4605
2026-01-26 03:09:10.05	23.97	15.38	-46.4	-48.0	18.9	0.00e+00	0	43	0	269484032	63	4574
2026-01-26 03:09:11.05	23.84	15.47	-46.4	-48.0	18.9	0.00e+00	0	43	0	271581184	63	4587
2026-01-26 03:09:12.06	23.72	15.55	-46.4	-48.0	18.9	0.00e+00	0	43	0	273678336	63	4577
2026-01-26 03:09:13.06	23.59	15.64	-46.4	-48.0	18.9	0.00e+00	0	43	0	274726912	63	4568
2026-01-26 03:09:14.07	23.46	15.73	-46.4	-48.0	19.0	0.00e+00	0	43	0	276824064	63	4546
2026-01-26 03:09:15.08	23.33	15.82	-46.4	-48.0	19.0	0.00e+00	0	43	0	278921216	63	4552
2026-01-26 03:09:16.09	23.20	15.91	-46.4	-47.9	19.0	0.00e+00	0	43	0	281018368	63	4537
2026-01-26 03:09:17.09	23.07	16.00	-46.4	-48.0	18.9	0.00e+00	0	43	0	283115520	63	4559
2026-01-26 03:09:18.09	22.94	16.09	-46.5	-48.1	18.8	0.00e+00	0	43	0	285212672	63	4627
2026-01-26 03:09:19.11	22.80	16.18	-46.6	-48.2	18.7	0.00e+00	0	43	0	286261248	63	4693
2026-01-26 03:09:20.11	22.67	16.27	-46.4	-47.9	19.0	0.00e+00	0	43	0	288358400	63	4539
2026-01-26 03:09:21.12	22.54	16.36	-46.3	-47.8	19.1	0.00e+00	0	43	0	290455552	63	4491
2026-01-26 03:09:22.12	22.40	16.45	-46.3	-47.9	19.1	0.00e+00	0	43	0	292552704	63	4504
2026-01-26 03:09:23.13	22.27	16.54	-46.4	-48.0	18.9	0.00e+00	0	43	0	293601280	63	4562
2026-01-26 03:09:24.14	22.13	16.63	-46.4	-47.9	19.0	0.00e+00	0	43	0	295698432	63	4522
2026-01-26 03:09:25.14	21.99	16.72	-46.5	-48.0	18.9	0.00e+00	0	43	0	297795584	63	4595
2026-01-26 03:09:26.15	21.85	16.81	-46.4	-48.0	19.0	0.00e+00	0	43	0	299892736	63	4574
2026-01-26 03:09:27.15	21.72	16.90	-46.3	-47.9	19.1	0.00e+00	0	43	0	301989888	63	4504
2026-01-26 03:09:28.16	21.58	16.99	-46.2	-47.7	19.2	0.00e+00	0	43	0	303038464	63	4431
2026-01-26 03:09:29.17	21.43	17.08	-46.1	-47.6	19.3	0.00e+00	0	43	0	305135616	63	4371
2026-01-26 03:09:30.17	21.29	17.18	-46.2	-47.7	19.3	0.00e+00	0	43	0	307232768	63	4407
2026-01-26 03:09:31.18	21.15	17.27	-46.2	-47.7	19.3	0.00e+00	0	43	0	309329920	63	4403
2026-01-26 03:09:32.18	21.01	17.36	-46.3	-47.8	19.2	0.00e+00	0	43	0	311427072	63	4461
2026-01-26 03:09:33.19	20.86	17.45	-46.2	-47.7	19.3	0.00e+00	0	43	0	313524224	63	4399
2026-01-26 03:09:34.20	20.72	17.54	-46.1	-47.5	19.4	0.00e+00	0	43	0	314572800	63	4324
2026-01-26 03:09:35.21	20.57	17.64	-46.1	-47.5	19.5	0.00e+00	0	43	0	316669952	63	4323
2026-01-26 03:09:36.21	20.42	17.73	-46.0	-47.5	19.5	0.00e+00	0	43	0	318767104	63	4326
2026-01-26 03:09:37.22	20.28	17.82	-46.0	-47.5	19.5	0.00e+00	0	43	0	320864256	63	4322
2026-01-26 03:09:38.24	20.12	17.91	-46.0	-47.5	19.5	0.00e+00	0	43	0	321912832	63	4307
2026-01-26 03:09:39.23	19.98	18.01	-46.0	-47.4	19.6	0.00e+00	0	43	0	324009984	63	4285
2026-01-26 03:09:40.24	19.83	18.10	-45.9	-47.3	19.7	0.00e+00	0	43	0	326107136	63	4222
2026-01-26 03:09:41.25	19.67	18.19	-45.8	-47.2	19.7	0.00e+00	0	43	0	328204288	63	4191
2026-01-26 03:09:42.26	19.52	18.29	-45.8	-47.2	19.8	0.00e+00	0	43	0	330301440	63	4183
2026-01-26 03:09:43.27	19.37	18.38	-45.9	-47.3	19.7	0.00e+00	0	43	0	332398592	63	4221
2026-01-26 03:09:44.27	19.21	18.47	-45.7	-47.1	19.8	0.00e+00	0	43	0	333447168	63	4140
2026-01-26 03:09:45.28	19.06	18.57	-45.7	-47.1	19.9	0.00e+00	0	43	0	335544320	63	4110
2026-01-26 03:09:46.29	18.90	18.66	-45.7	-47.0	20.0	0.00e+00	0	43	0	337641472	63	4086
2026-01-26 03:09:47.29	18.74	18.75	-45.8	-47.1	19.9	0.00e+00	0	43	0	339738624	63	4145
2026-01-26 03:09:48.30	18.58	18.85	-45.7	-47.1	19.9	0.00e+00	0	43	0	341835776	63	4143
2026-01-26 03:09:49.31	18.42	18.94	-45.8	-47.2	19.9	0.00e+00	0	43	0	342884352	63	4146
2026-01-26 03:09:50.32	18.26	19.04	-45.8	-47.2	19.8	0.00e+00	0	43	0	344981504	63	4191
2026-01-26 03:09:51.33	18.10	19.13	-45.8	-47.2	19.9	0.00e+00	0	43	0	347078656	63	4162
2026-01-26 03:09:52.33	17.94	19.23	-45.9	-47.3	19.7	0.00e+00	0	43	0	349175808	63	4207
2026-01-26 03:09:53.34	17.77	19.32	-45.8	-47.3	19.8	0.00e+00	0	43	0	350224384	63	4195
2026-01-26 03:09:54.34	17.61	19.41	-45.7	-47.1	19.9	0.00e+00	0	43	0	352321536	63	4130
2026-01-26 03:09:55.35	17.44	19.51	-45.7	-47.0	20.0	0.00e+00	0	43	0	354418688	63	4093
2026-01-26 03:09:56.35	17.28	19.60	-45.6	-47.0	20.0	0.00e+00	0	43	0	356515840	63	4073
2026-01-26 03:09:57.36	17.11	19.70	-45.7	-47.0	20.0	0.00e+00	0	43	0	358612992	63	4095
2026-01-26 03:09:58.37	16.94	19.80	-45.6	-46.9	20.1	0.00e+00	0	44	0	360710144	63	4043
2026-01-26 03:09:59.38	16.77	19.89	-45.6	-47.0	20.1	0.00e+00	0	43	0	361758720	63	4069
2026-01-26 03:10:00.38	16.60	19.99	-45.7	-47.1	20.0	0.00e+00	0	43	0	363855872	63	4103
2026-01-26 03:10:01.39	16.43	20.08	-45.6	-47.0	20.1	0.00e+00	0	43	0	365953024	63	4053
2026-01-26 03:10:02.40	16.25	20.18	-45.6	-47.0	20.1	0.00e+00	0	43	0	368050176	63	4077
2026-01-26 03:10:03.41	16.08	20.27	-45.7	-47.0	20.1	0.00e+00	0	44	0	370147328	63	4081
2026-01-26 03:10:04.41	15.90	20.37	-45.8	-47.1	19.9	0.00e+00	0	43	0	371195904	63	4142
2026-01-26 03:10:05.42	15.73	20.46	-45.9	-47.3	19.8	0.00e+00	0	43	0	373293056	63	4200
2026-01-26 03:10:06.43	15.55	20.56	-45.8	-47.2	19.9	0.00e+00	0	43	0	375390208	63	4172
2026-01-26 03:10:07.43	15.37	20.66	-45.8	-47.2	19.9	0.00e+00	0	43	0	377487360	63	4184
2026-01-26 03:10:08.44	15.19	20.75	-46.0	-47.5	19.6	0.00e+00	0	43	0	378535936	63	4300
2026-01-26 03:10:09.45	15.01	20.85	-45.9	-47.3	19.9	0.00e+00	0	44	0	380633088	63	4199
2026-01-26 03:10:10.46	14.82	20.94	-46.0	-47.4	19.7	0.00e+00	0	43	0	382730240	63	4253
2026-01-26 03:10:11.47	14.64	21.04	-46.0	-47.5	19.7	0.00e+00	0	43	0	384827392	63	4296
2026-01-26 03:10:12.47	14.46	21.14	-46.1	-47.5	19.6	0.00e+00	0	43	0	386924544	63	4331
2026-01-26 03:10:13.48	14.27	21.23	-46.0	-47.5	19.6	0.00e+00	0	43	0	389021696	63	4302
2026-01-26 03:10:14.49	14.08	21.33	-46.1	-47.5	19.6	0.00e+00	0	43	0	390070272	63	4323
2026-01-26 03:10:15.49	13.89	21.43	-46.1	-47.5	19.6	0.00e+00	0	43	0	392167424	63	4322
2026-01-26 03:10:16.49	13.71	21.52	-46.2	-47.7	19.4	0.00e+00	0	43	0	394264576	63	4412
2026-01-26 03:10:17.50	13.52	21.62	-46.2	-47.6	19.5	0.00e+00	0	43	0	396361728	63	4389
2026-01-26 03:10:18.51	13.32	21.72	-46.3	-47.8	19.4	0.00e+00	0	43	0	398458880	63	4444
2026-01-26 03:10:19.52	13.13	21.81	-46.3	-47.8	19.4	0.00e+00	0	43	0	399507456	63	4463
2026-01-26 03:10:20.52	12.94	21.91	-46.4	-47.9	19.3	0.00e+00	0	43	0	401604608	63	4506
2026-01-26 03:10:21.53	12.74	22.00	-46.4	-47.9	19.3	0.00e+00	0	43	0	403701760	63	4514
2026-01-26 03:10:22.53	12.54	22.10	-46.5	-48.0	19.1	0.00e+00	0	43	0	405798912	63	4596
2026-01-26 03:10:23.54	12.35	22.20	-46.4	-47.9	19.3	0.00e+00	0	43	0	406847488	63	4512
2026-01-26 03:10:24.55	12.15	22.29	-46.2	-47.7	19.5	0.00e+00	0	43	0	408944640	63	4413
2026-01-26 03:10:25.56	11.94	22.39	-46.2	-47.7	19.5	0.00e+00	0	43	0	411041792	63	4405
2026-01-26 03:10:26.57	11.74	22.49	-46.1	-47.5	19.6	0.00e+00	0	43	0	413138944	63	4323
2026-01-26 03:10:27.57	11.54	22.58	-46.1	-47.5	19.6	0.00e+00	0	43	0	415236096	63	4315
2026-01-26 03:10:28.58	11.34	22.68	-46.0	-47.4	19.7	0.00e+00	0	43	0	417333248	63	4285
2026-01-26 03:10:29.58	11.13	22.78	-45.9	-47.3	19.8	0.00e+00	0	43	0	418381824	63	4234
2026-01-26 03:10:30.59	10.92	22.87	-45.8	-47.2	19.9	0.00e+00	0	43	0	420478976	63	4183
2026-01-26 03:10:31.60	10.71	22.97	-45.9	-47.3	19.9	0.00e+00	0	43	0	422576128	63	4202
2026-01-26 03:10:32.61	10.50	23.07	-46.0	-47.4	19.7	0.00e+00	0	43	0	424673280	63	4266
2026-01-26 03:10:33.61	10.30	23.16	-45.8	-47.2	20.0	0.00e+00	0	43	0	426770432	63	4160
2026-01-26 03:10:34.62	10.08	23.26	-45.8	-47.1	20.0	0.00e+00	0	43	0	427819008	63	4142
2026-01-26 03:10:35.62	9.87	23.35	-45.6	-46.9	20.2	0.00e+00	0	43	0	429916160	63	4034
2026-01-26 03:10:36.63	9.65	23.45	-45.5	-46.8	20.4	0.00e+00	0	43	0	432013312	62	4194
2026-01-26 03:10:37.63	9.44	23.54	-45.4	-46.7	20.5	0.00e+00	0	43	0	434110464	62	4146
2026-01-26 03:10:38.64	9.22	23.64	-45.4	-46.6	20.5	0.00e+00	0	43	0	435159040	62	4144
2026-01-26 03:10:39.64	9.00	23.74	-45.4	-46.7	20.4	0.00e+00	0	43	0	437256192	62	4185
2026-01-26 03:10:40.65	8.78	23.83	-45.4	-46.7	20.5	0.00e+00	0	43	0	439353344	62	4153
2026-01-26 03:10:41.66	8.56	23.93	-45.2	-46.4	20.7	0.00e+00	0	43	0	441450496	62	4036
2026-01-26 03:10:42.66	8.34	24.02	-45.1	-46.3	20.8	0.00e+00	0	43	0	443547648	62	3995
2026-01-26 03:10:43.67	8.11	24.12	-45.1	-46.3	20.9	0.00e+00	0	43	0	445644800	62	3975
2026-01-26 03:10:44.68	7.89	24.21	-45.0	-46.2	20.9	0.00e+00	0	43	0	446693376	62	3945
2026-01-26 03:10:45.68	7.66	24.31	-44.9	-46.1	21.0	0.00e+00	0	43	0	448790528	61	4120
2026-01-26 03:10:46.69	7.43	24.40	-45.0	-46.2	20.9	0.00e+00	0	43	0	450887680	61	4174
2026-01-26 03:10:47.70	7.20	24.50	-44.9	-46.1	21.0	0.00e+00	0	43	0	452984832	61	4131
2026-01-26 03:10:48.71	6.97	24.59	-44.9	-46.1	21.0	0.00e+00	0	43	0	455081984	61	4141
2026-01-26 03:10:49.72	6.74	24.69	-44.9	-46.2	21.0	0.00e+00	0	43	0	456130560	61	4149
2026-01-26 03:10:50.72	6.50	24.78	-45.0	-46.3	20.9	0.00e+00	0	43	0	458227712	61	4205
2026-01-26 03:10:51.73	6.27	24.87	-45.1	-46.3	20.9	0.00e+00	0	43	0	460324864	61	4222
2026-01-26 03:10:52.74	6.03	24.97	-45.0	-46.3	20.9	0.00e+00	0	43	0	462422016	61	4194
2026-01-26 03:10:53.75	5.79	25.06	-45.1	-46.3	20.8	0.00e+00	0	43	0	463470592	61	4216
2026-01-26 03:10:54.75	5.55	25.15	-45.0	-46.2	20.9	0.00e+00	0	43	0	465567744	61	4182
2026-01-26 03:10:55.76	5.31	25.25	-45.0	-46.3	20.9	0.00e+00	0	43	0	467664896	61	4196
2026-01-26 03:10:56.76	5.07	25.34	-44.9	-46.1	21.0	0.00e+00	0	43	0	469762048	61	4126
2026-01-26 03:10:57.77	4.83	25.43	-44.9	-46.2	21.0	0.00e+00	0	43	0	471859200	61	4150
2026-01-26 03:10:58.78	4.58	25.52	-44.9	-46.1	21.0	0.00e+00	0	43	0	473956352	61	4140
2026-01-26 03:10:59.79	4.33	25.62	-44.9	-46.2	21.0	0.00e+00	0	44	0	475004928	61	4153
2026-01-26 03:11:00.79	4.08	25.71	-44.9	-46.1	21.0	0.00e+00	0	43	0	477102080	61	4140
2026-01-26 03:11:01.79	3.84	25.80	-44.9	-46.1	21.1	0.00e+00	0	43	0	479199232	61	4115
2026-01-26 03:11:02.80	3.58	25.89	-44.9	-46.1	21.1	0.00e+00	0	43	0	481296384	61	4100
2026-01-26 03:11:03.81	3.33	25.98	-45.0	-46.2	21.0	0.00e+00	0	43	0	483393536	61	4158
2026-01-26 03:11:04.82	3.08	26.07	-45.1	-46.3	20.9	0.00e+00	0	43	0	484442112	61	4215
2026-01-26 03:11:05.82	2.82	26.16	-45.0	-46.2	20.9	0.00e+00	0	43	0	486539264	61	4188
2026-01-26 03:11:06.83	2.56	26.25	-45.1	-46.3	20.9	0.00e+00	0	43	0	488636416	61	4224
2026-01-26 03:11:07.84	2.30	26.34	-45.1	-46.4	20.9	0.00e+00	0	43	0	490733568	61	4251
2026-01-26 03:11:08.84	2.05	26.43	-45.2	-46.5	20.7	0.00e+00	0	43	0	491782144	61	4318
2026-01-26 03:11:09.84	1.79	26.52	-45.5	-46.8	20.5	0.00e+00	0	44	0	493879296	61	4463
2026-01-26 03:11:10.85	1.52	26.61	-45.7	-47.1	20.2	0.00e+00	0	43	0	495976448	61	4612
2026-01-26 03:11:11.86	1.26	26.70	-45.8	-47.1	20.1	0.00e+00	0	43	0	498073600	62	4387
2026-01-26 03:11:12.86	0.99	26.78	-45.9	-47.3	19.9	0.00e+00	0	43	0	500170752	62	4473
2026-01-26 03:11:13.87	0.72	26.87	-45.9	-47.2	20.0	0.00e+00	0	44	0	502267904	62	4440
2026-01-26 03:11:14.88	0.45	26.96	-45.8	-47.1	20.2	0.00e+00	0	43	0	503316480	62	4364
2026-01-26 03:11:15.88	0.18	27.04	-45.8	-47.1	20.1	0.00e+00	0	43	0	505413632	62	4375
2026-01-26 03:11:16.89	359.91	27.13	-45.9	-47.2	20.1	0.00e+00	0	43	0	507510784	62	4424
2026-01-26 03:11:17.90	359.64	27.21	-46.2	-47.6	19.7	0.00e+00	0	43	0	509607936	62	4636
2026-01-26 03:11:18.91	359.36	27.30	-46.2	-47.7	19.6	0.00e+00	0	43	0	511705088	63	4392
2026-01-26 03:11:19.92	359.08	27.39	-46.4	-47.8	19.5	0.00e+00	0	43	0	512753664	63	4488
2026-01-26 03:11:20.92	358.81	27.47	-46.2	-47.7	19.6	0.00e+00	0	43	0	514850816	63	4410
2026-01-26 03:11:21.93	358.53	27.55	-46.4	-47.9	19.4	0.00e+00	0	43	0	516947968	63	4526
2026-01-26 03:11:22.93	358.25	27.63	-46.7	-48.2	19.1	0.00e+00	0	43	0	519045120	63	4697
2026-01-26 03:11:23.94	357.96	27.72	-46.7	-48.2	19.0	0.00e+00	0	43	0	520093696	64	4436
2026-01-26 03:11:24.95	357.68	27.80	-46.7	-48.2	19.0	0.00e+00	0	43	0	522190848	64	4432
2026-01-26 03:11:25.96	357.39	27.88	-46.6	-48.1	19.1	0.00e+00	0	43	0	524288000	64	4367
2026-01-26 03:11:26.96	357.11	27.96	-46.6	-48.2	19.1	0.00e+00	0	43	0	526385152	64	4409
2026-01-26 03:11:27.97	356.82	28.04	-46.8	-48.4	18.9	0.00e+00	0	43	0	528482304	64	4494
2026-01-26 03:11:28.97	356.53	28.12	-46.8	-48.4	18.9	0.00e+00	0	43	0	530579456	64	4526
2026-01-26 03:11:29.97	356.24	28.20	-46.8	-48.4	18.9	0.00e+00	0	43	0	531628032	64	4516
2026-01-26 03:11:30.98	355.95	28.28	-46.8	-48.5	18.7	0.00e+00	0	43	0	533725184	64	4550
2026-01-26 03:11:31.98	355.66	28.36	-47.0	-48.6	18.6	0.00e+00	0	43	0	535822336	64	4644
2026-01-26 03:11:32.99	355.36	28.43	-47.0	-48.7	18.5	0.00e+00	0	43	0	537919488	64	4687
2026-01-26 03:11:33.99	355.07	28.51	-47.2	-48.9	18.4	0.00e+00	0	43	0	540016640	65	4508
2026-01-26 03:11:35.00	354.77	28.59	-47.2	-48.9	18.3	0.00e+00	0	43	0	541065216	65	4525
2026-01-26 03:11:36.01	354.47	28.66	-46.8	-48.4	18.8	0.00e+00	0	43	0	543162368	65	4281
2026-01-26 03:11:37.01	354.17	28.74	-46.7	-48.3	19.0	0.00e+00	0	43	0	545259520	65	4195
2026-01-26 03:11:38.02	353.86	28.81	-46.8	-48.4	19.0	0.00e+00	0	43	0	547356672	65	4246
2026-01-26 03:11:39.03	353.56	28.88	-46.8	-48.4	18.9	0.00e+00	0	43	0	548405248	65	4262
2026-01-26 03:11:40.03	353.25	28.96	-46.8	-48.4	18.9	0.00e+00	0	43	0	550502400	65	4277
2026-01-26 03:11:41.04	352.95	29.03	-46.8	-48.4	18.9	0.00e+00	0	43	0	552599552	65	4252
2026-01-26 03:11:42.04	352.64	29.10	-46.8	-48.3	18.9	0.00e+00	0	43	0	554696704	65	4242
2026-01-26 03:11:43.05	352.33	29.17	-46.6	-48.1	19.2	0.00e+00	0	43	0	556793856	65	4140
2026-01-26 03:11:44.06	352.02	29.24	-46.7	-48.2	19.1	0.00e+00	0	43	0	557842432	65	4177
2026-01-26 03:11:45.07	351.70	29.31	-46.5	-48.0	19.2	0.00e+00	0	43	0	559939584	65	4091
2026-01-26 03:11:46.08	351.39	29.38	-46.4	-47.9	19.4	0.00e+00	0	44	0	562036736	64	4269
2026-01-26 03:11:47.08	351.08	29.44	-46.5	-48.0	19.3	0.00e+00	0	43	0	564133888	64	4314
2026-01-26 03:11:48.09	350.76	29.51	-46.6	-48.2	19.1	0.00e+00	0	43	0	566231040	64	4396
2026-01-26 03:11:49.10	350.44	29.58	-46.5	-48.0	19.3	0.00e+00	0	43	0	568328192	64	4327
2026-01-26 03:11:50.11	350.12	29.64	-46.6	-48.2	19.1	0.00e+00	0	43	0	569376768	64	4402
2026-01-26 03:11:51.11	349.80	29.70	-46.7	-48.2	19.1	0.00e+00	0	44	0	571473920	64	4427
2026-01-26 03:11:52.11	349.48	29.77	-46.6	-48.1	19.2	0.00e+00	0	43	0	573571072	64	4383
2026-01-26 03:11:53.12	349.16	29.83	-46.5	-48.0	19.3	0.00e+00	0	43	0	575668224	64	4340
2026-01-26 03:11:54.13	348.84	29.89	-46.5	-48.0	19.2	0.00e+00	0	43	0	576716800	64	4337
2026-01-26 03:11:55.14	348.51	29.95	-46.6	-48.2	19.1	0.00e+00	0	43	0	578813952	64	4405
2026-01-26 03:11:56.14	348.18	30.01	-46.6	-48.2	19.2	0.00e+00	0	43	0	580911104	64	4400
2026-01-26 03:11:57.15	347.86	30.07	-46.7	-48.2	19.1	0.00e+00	0	43	0	583008256	64	4424
2026-01-26 03:11:58.16	347.53	30.13	-46.6	-48.1	19.2	0.00e+00	0	43	0	585105408	64	4369
2026-01-26 03:11:59.16	347.20	30.18	-46.7	-48.3	19.1	0.00e+00	0	43	0	586153984	64	4456
2026-01-26 03:12:00.17	346.87	30.24	-46.6	-48.1	19.1	0.00e+00	0	43	0	588251136	64	4389
2026-01-26 03:12:01.17	346.54	30.29	-46.8	-48.3	19.0	0.00e+00	0	44	0	590348288	64	4477
2026-01-26 03:12:02.18	346.20	30.35	-46.8	-48.3	19.0	0.00e+00	0	43	0	592445440	64	4488
2026-01-26 03:12:03.19	345.87	30.40	-46.9	-48.5	18.8	0.00e+00	0	43	0	594542592	64	4598
2026-01-26 03:12:04.19	345.53	30.45	-47.0	-48.7	18.7	0.00e+00	0	43	0	596639744	64	4673
2026-01-26 03:12:05.20	345.20	30.50	-47.2	-48.9	18.5	0.00e+00	0	43	0	597688320	64	4765
2026-01-26 03:12:06.20	344.86	30.55	-47.1	-48.7	18.6	0.00e+00	0	43	0	599785472	64	4675
2026-01-26 03:12:07.21	344.52	30.60	-47.1	-48.7	18.6	0.00e+00	0	43	0	601882624	64	4685
2026-01-26 03:12:08.22	344.18	30.65	-47.0	-48.7	18.7	0.00e+00	0	43	0	603979776	64	4664
2026-01-26 03:12:09.23	343.84	30.69	-47.0	-48.6	18.7	0.00e+00	0	43	0	605028352	64	4619
2026-01-26 03:12:10.23	343.50	30.74	-46.9	-48.5	18.8	0.00e+00	0	43	0	607125504	64	4595
2026-01-26 03:12:11.24	343.15	30.78	-46.8	-48.4	19.0	0.00e+00	0	43	0	609222656	64	4497
2026-01-26 03:12:12.25	342.81	30.82	-47.0	-48.7	18.7	0.00e+00	0	43	0	611319808	64	4654
2026-01-26 03:12:13.25	342.47	30.87	-46.9	-48.5	18.9	0.00e+00	0	43	0	613416960	64	4572
2026-01-26 03:12:14.26	342.12	30.91	-46.8	-48.4	18.9	0.00e+00	0	43	0	614465536	64	4531
2026-01-26 03:12:15.27	341.77	30.95	-46.8	-48.4	19.0	0.00e+00	0	43	0	616562688	64	4502
2026-01-26 03:12:16.28	341.42	30.99	-46.9	-48.4	19.0	0.00e+00	0	43	0	618659840	64	4538
2026-01-26 03:12:17.29	341.08	31.02	-46.9	-48.5	18.9	0.00e+00	0	43	0	620756992	64	4568
2026-01-26 03:12:18.30	340.73	31.06	-46.9	-48.5	18.9	0.00e+00	0	43	0	622854144	64	4578
2026-01-26 03:12:19.31	340.37	31.10	-46.8	-48.4	19.0	0.00e+00	0	43	0	624951296	64	4529
2026-01-26 03:12:20.32	340.02	31.13	-46.5	-48.0	19.4	0.00e+00	0	43	0	625999872	64	4319
2026-01-26 03:12:21.33	339.67	31.16	-46.6	-48.1	19.4	0.00e+00	0	43	0	628097024	64	4353
2026-01-26 03:12:22.33	339.32	31.19	-46.5	-48.0	19.4	0.00e+00	0	43	0	630194176	64	4319
2026-01-26 03:12:23.34	338.97	31.22	-46.6	-48.1	19.3	0.00e+00	0	43	0	632291328	64	4385
2026-01-26 03:12:24.35	338.61	31.25	-46.7	-48.2	19.3	0.00e+00	0	43	0	633339904	64	4424
2026-01-26 03:12:25.35	338.26	31.28	-46.7	-48.2	19.2	0.00e+00	0	43	0	635437056	64	4418
2026-01-26 03:12:26.36	337.91	31.31	-46.8	-48.3	19.1	0.00e+00	0	43	0	637534208	64	4485
2026-01-26 03:12:27.37	337.55	31.33	-46.9	-48.5	19.0	0.00e+00	0	43	0	639631360	64	4570
2026-01-26 03:12:28.38	337.19	31.36	-47.1	-48.7	18.7	0.00e+00	0	43	0	641728512	64	4698
2026-01-26 03:12:29.38	336.84	31.38	-47.1	-48.7	18.8	0.00e+00	0	43	0	643825664	64	4670
2026-01-26 03:12:30.39	336.48	31.40	-47.0	-48.6	18.9	0.00e+00	0	43	0	644874240	64	4635
2026-01-26 03:12:31.39	336.13	31.42	-47.0	-48.6	18.8	0.00e+00	0	43	0	646971392	64	4634
2026-01-26 03:12:32.40	335.77	31.44	-47.0	-48.6	18.9	0.00e+00	0	43	0	649068544	64	4623
2026-01-26 03:12:33.41	335.41	31.46	-47.0	-48.6	18.8	0.00e+00	0	43	0	651165696	64	4618
2026-01-26 03:12:34.42	335.05	31.48	-47.0	-48.6	18.9	0.00e+00	0	43	0	653262848	64	4608
2026-01-26 03:12:35.42	334.69	31.49	-47.1	-48.7	18.8	0.00e+00	0	43	0	654311424	64	4674
2026-01-26 03:12:36.43	334.33	31.51	-47.4	-49.1	18.3	0.00e+00	0	43	0	656408576	65	4646
2026-01-26 03:12:37.44	333.97	31.52	-47.6	-49.4	18.1	0.00e+00	0	43	0	658505728	65	4801
2026-01-26 03:12:38.44	333.62	31.53	-47.9	-49.7	17.8	0.00e+00	0	43	0	660602880	66	4686
2026-01-26 03:12:39.45	333.26	31.54	-47.7	-49.6	18.0	0.00e+00	0	43	0	661651456	66	4601
2026-01-26 03:12:40.46	332.90	31.55	-47.7	-49.5	18.0	0.00e+00	0	43	0	663748608	66	4566
2026-01-26 03:12:41.47	332.53	31.56	-47.6	-49.4	18.1	0.00e+00	0	43	0	665845760	66	4518
2026-01-26 03:12:42.47	332.18	31.57	-47.8	-49.6	17.9	0.00e+00	0	43	0	667942912	66	4615
2026-01-26 03:12:43.48	331.81	31.57	-47.7	-49.5	18.0	0.00e+00	0	43	0	670040064	66	4586
2026-01-26 03:12:44.49	331.45	31.58	-47.7	-49.5	18.0	0.00e+00	0	43	0	672137216	66	4596
2026-01-26 03:12:45.50	331.09	31.58	-47.6	-49.4	18.1	0.00e+00	0	44	0	673185792	66	4535
2026-01-26 03:12:46.51	330.73	31.58	-47.6	-49.4	18.1	0.00e+00	0	43	0	675282944	66	4522
2026-01-26 03:12:47.51	330.37	31.58	-47.7	-49.5	18.0	0.00e+00	0	44	0	677380096	66	4558
2026-01-26 03:12:48.52	330.01	31.58	-47.7	-49.5	18.0	0.00e+00	0	43	0	679477248	66	4574
2026-01-26 03:12:49.52	329.65	31.58	-47.6	-49.3	18.1	0.00e+00	0	43	0	681574400	66	4489
2026-01-26 03:12:50.53	329.29	31.58	-47.7	-49.5	18.0	0.00e+00	0	43	0	682622976	66	4557
2026-01-26 03:12:51.54	328.93	31.57	-47.7	-49.5	18.0	0.00e+00	0	43	0	684720128	66	4550
2026-01-26 03:12:52.55	328.56	31.57	-47.6	-49.4	18.1	0.00e+00	0	43	0	686817280	66	4519
2026-01-26 03:12:53.56	328.20	31.56	-47.5	-49.2	18.3	0.00e+00	0	43	0	688914432	66	4410
2026-01-26 03:12:54.57	327.84	31.55	-47.4	-49.1	18.4	0.00e+00	0	44	0	691011584	66	4353
2026-01-26 03:12:55.57	327.48	31.54	-47.2	-48.8	18.7	0.00e+00	0	43	0	692060160	66	4220
2026-01-26 03:12:56.57	327.13	31.53	-47.1	-48.7	18.8	0.00e+00	0	43	0	694157312	66	4188
2026-01-26 03:12:57.58	326.77	31.52	-47.1	-48.7	18.8	0.00e+00	0	43	0	696254464	65	4393
2026-01-26 03:12:58.59	326.41	31.50	-47.0	-48.5	18.9	0.00e+00	0	43	0	698351616	65	4336
2026-01-26 03:12:59.59	326.05	31.49	-47.1	-48.7	18.8	0.00e+00	0	43	0	700448768	65	4407
2026-01-26 03:13:00.60	325.69	31.47	-47.3	-49.0	18.5	0.00e+00	0	43	0	701497344	65	4554
2026-01-26 03:13:01.61	325.33	31.45	-47.5	-49.2	18.2	0.00e+00	0	44	0	703594496	65	4702
2026-01-26 03:13:02.62	324.97	31.44	-47.5	-49.2	18.3	0.00e+00	0	44	0	705691648	65	4695
2026-01-26 03:13:03.63	324.61	31.41	-47.4	-49.1	18.4	0.00e+00	0	43	0	707788800	65	4613
2026-01-26 03:13:04.63	324.26	31.39	-47.3	-49.0	18.5	0.00e+00	0	43	0	709885952	65	4573
2026-01-26 03:13:05.64	323.90	31.37	-47.1	-48.7	18.8	0.00e+00	0	43	0	710934528	65	4423
2026-01-26 03:13:06.65	323.54	31.35	-47.1	-48.7	18.8	0.00e+00	0	43	0	713031680	65	4407
2026-01-26 03:13:07.66	323.19	31.32	-47.1	-48.7	18.8	0.00e+00	0	43	0	715128832	65	4409
2026-01-26 03:13:08.66	322.83	31.30	-47.2	-48.9	18.7	0.00e+00	0	43	0	717225984	65	4508
2026-01-26 03:13:09.67	322.48	31.27	-47.1	-48.7	18.8	0.00e+00	0	43	0	719323136	65	4394
2026-01-26 03:13:10.68	322.12	31.24	-47.3	-48.9	18.6	0.00e+00	0	43	0	720371712	65	4529
2026-01-26 03:13:11.69	321.77	31.21	-47.2	-48.9	18.6	0.00e+00	0	43	0	722468864	65	4514
2026-01-26 03:13:12.69	321.42	31.18	-47.2	-48.9	18.5	0.00e+00	0	44	0	724566016	65	4518
2026-01-26 03:13:13.70	321.07	31.15	-47.1	-48.7	18.8	0.00e+00	0	43	0	726663168	65	4416
2026-01-26 03:13:14.71	320.71	31.11	-47.1	-48.7	18.8	0.00e+00	0	43	0	728760320	65	4400
2026-01-26 03:13:15.71	320.37	31.08	-47.1	-48.8	18.7	0.00e+00	0	43	0	729808896	65	4447
2026-01-26 03:13:16.72	320.02	31.04	-47.2	-48.9	18.7	0.00e+00	0	43	0	731906048	65	4507
2026-01-26 03:13:17.73	319.67	31.01	-47.1	-48.7	18.9	0.00e+00	0	43	0	734003200	65	4399
2026-01-26 03:13:18.74	319.32	30.97	-47.1	-48.7	18.8	0.00e+00	0	43	0	736100352	65	4430
2026-01-26 03:13:19.74	318.97	30.93	-47.1	-48.7	18.8	0.00e+00	0	43	0	738197504	65	4399
2026-01-26 03:13:20.75	318.63	30.89	-47.1	-48.7	18.8	0.00e+00	0	43	0	739246080	65	4417
2026-01-26 03:13:21.76	318.28	30.85	-47.0	-48.5	18.9	0.00e+00	0	43	0	741343232	65	4330
2026-01-26 03:13:22.77	317.93	30.80	-47.1	-48.7	18.8	0.00e+00	0	43	0	743440384	65	4402
2026-01-26 03:13:23.77	317.59	30.76	-47.2	-48.8	18.6	0.00e+00	0	43	0	745537536	65	4491
2026-01-26 03:13:24.78	317.25	30.72	-47.1	-48.7	18.8	0.00e+00	0	43	0	747634688	65	4394
2026-01-26 03:13:25.79	316.91	30.67	-47.1	-48.7	18.8	0.00e+00	0	43	0	748683264	65	4425
2026-01-26 03:13:26.80	316.57	30.62	-47.0	-48.6	18.9	0.00e+00	0	44	0	750780416	65	4362
2026-01-26 03:13:27.80	316.23	30.58	-47.1	-48.7	18.8	0.00e+00	0	43	0	752877568	65	4418
2026-01-26 03:13:28.80	315.89	30.53	-47.2	-48.8	18.7	0.00e+00	0	43	0	754974720	65	4464
2026-01-26 03:13:29.80	315.56	30.48	-47.3	-48.9	18.6	0.00e+00	0	43	0	757071872	65	4545
2026-01-26 03:13:30.81	315.22	30.43	-47.3	-49.0	18.5	0.00e+00	0	43	0	758120448	65	4546
2026-01-26 03:13:31.82	314.88	30.37	-47.4	-49.1	18.3	0.00e+00	0	44	0	760217600	65	4650
2026-01-26 03:13:32.83	314.55	30.32	-47.4	-49.1	18.4	0.00e+00	0	43	0	762314752	65	4616
2026-01-26 03:13:33.83	314.22	30.27	-47.4	-49.1	18.4	0.00e+00	0	43	0	764411904	65	4626
2026-01-26 03:13:34.84	313.88	30.21	-47.4	-49.1	18.4	0.00e+00	0	43	0	766509056	65	4599
2026-01-26 03:13:35.84	313.55	30.16	-47.3	-48.9	18.5	0.00e+00	0	44	0	767557632	65	4541
2026-01-26 03:13:36.85	313.22	30.10	-47.3	-48.9	18.6	0.00e+00	0	43	0	769654784	65	4527
2026-01-26 03:13:37.86	312.89	30.04	-47.3	-48.9	18.5	0.00e+00	0	43	0	771751936	65	4545
2026-01-26 03:13:38.87	312.57	29.98	-47.4	-49.1	18.4	0.00e+00	0	44	0	773849088	65	4617
2026-01-26 03:13:39.88	312.24	29.92	-47.6	-49.4	18.1	0.00e+00	0	43	0	775946240	65	4803
2026-01-26 03:13:40.89	311.91	29.86	-47.7	-49.5	18.0	0.00e+00	0	43	0	776994816	66	4590
2026-01-26 03:13:41.89	311.59	29.80	-47.7	-49.5	17.9	0.00e+00	0	44	0	779091968	66	4598
2026-01-26 03:13:42.90	311.27	29.74	-47.6	-49.4	18.1	0.00e+00	0	43	0	781189120	66	4515
2026-01-26 03:13:43.91	310.94	29.67	-47.7	-49.4	18.1	0.00e+00	0	44	0	783286272	66	4544
2026-01-26 03:13:44.92	310.62	29.61	-47.6	-49.4	18.1	0.00e+00	0	44	0	785383424	66	4502
2026-01-26 03:13:45.92	310.31	29.54	-47.5	-49.3	18.2	0.00e+00	0	44	0	786432000	66	4458
2026-01-26 03:13:46.92	309.99	29.48	-47.6	-49.3	18.2	0.00e+00	0	43	0	788529152	66	4475
2026-01-26 03:13:47.92	309.68	29.41	-47.7	-49.5	17.9	0.00e+00	0	44	0	790626304	66	4598
2026-01-26 03:13:48.94	309.36	29.34	-48.0	-49.9	17.7	0.00e+00	0	43	0	792723456	66	4763
2026-01-26 03:13:49.94	309.05	29.28	-48.2	-50.2	17.3	0.00e+00	0	43	0	794820608	66	4956
2026-01-26 03:13:50.95	308.74	29.21	-48.3	-50.4	17.1	0.00e+00	0	43	0	795869184	67	4788
2026-01-26 03:13:51.96	308.42	29.14	-48.2	-50.2	17.3	0.00e+00	0	43	0	797966336	67	4687
2026-01-26 03:13:52.97	308.11	29.07	-47.9	-49.8	17.7	0.00e+00	0	44	0	800063488	67	4466
2026-01-26 03:13:53.98	307.80	28.99	-47.6	-49.3	18.2	0.00e+00	0	44	0	802160640	67	4216
2026-01-26 03:13:54.98	307.50	28.92	-47.5	-49.2	18.3	0.00e+00	0	43	0	804257792	66	4432
2026-01-26 03:13:55.99	307.19	28.85	-47.3	-48.9	18.6	0.00e+00	0	43	0	805306368	66	4289
2026-01-26 03:13:56.99	306.89	28.78	-47.2	-48.9	18.6	0.00e+00	0	44	0	807403520	66	4253
2026-01-26 03:13:58.00	306.59	28.70	-47.2	-48.9	18.7	0.00e+00	0	43	0	809500672	66	4245
2026-01-26 03:13:59.01	306.29	28.63	-47.1	-48.8	18.7	0.00e+00	0	43	0	811597824	66	4194
2026-01-26 03:14:00.01	305.99	28.55	-47.1	-48.8	18.7	0.00e+00	0	44	0	813694976	66	4198
2026-01-26 03:14:01.02	305.69	28.47	-47.1	-48.7	18.8	0.00e+00	0	44	0	814743552	66	4148
2026-01-26 03:14:02.02	305.40	28.40	-47.1	-48.6	18.9	0.00e+00	0	43	0	816840704	66	4145
2026-01-26 03:14:03.03	305.10	28.32	-47.1	-48.8	18.7	0.00e+00	0	44	0	818937856	66	4199
2026-01-26 03:14:04.04	304.80	28.24	-47.2	-48.8	18.7	0.00e+00	0	44	0	821035008	66	4209
2026-01-26 03:14:05.05	304.51	28.16	-47.2	-48.8	18.7	0.00e+00	0	43	0	823132160	66	4237
2026-01-26 03:14:06.05	304.22	28.08	-47.1	-48.8	18.8	0.00e+00	0	43	0	824180736	66	4197
2026-01-26 03:14:07.06	303.93	28.00	-47.0	-48.5	18.9	0.00e+00	0	43	0	826277888	65	4340
2026-01-26 03:14:08.07	303.64	27.92	-46.8	-48.3	19.1	0.00e+00	0	43	0	828375040	65	4236
2026-01-26 03:14:09.07	303.36	27.84	-46.7	-48.1	19.3	0.00e+00	0	43	0	830472192	65	4145
2026-01-26 03:14:10.08	303.07	27.76	-46.5	-48.0	19.4	0.00e+00	0	43	0	832569344	65	4081
2026-01-26 03:14:11.09	302.79	27.68	-46.7	-48.2	19.2	0.00e+00	0	44	0	833617920	65	4167
2026-01-26 03:14:12.10	302.51	27.59	-46.6	-48.0	19.4	0.00e+00	0	43	0	835715072	65	4094
2026-01-26 03:14:13.10	302.23	27.51	-46.6	-48.1	19.3	0.00e+00	0	43	0	837812224	65	4132
2026-01-26 03:14:14.11	301.95	27.43	-46.7	-48.2	19.2	0.00e+00	0	43	0	839909376	65	4178
2026-01-26 03:14:15.12	301.67	27.34	-46.8	-48.3	19.2	0.00e+00	0	43	0	842006528	65	4212
2026-01-26 03:14:16.13	301.39	27.26	-46.7	-48.2	19.3	0.00e+00	0	43	0	843055104	65	4175
2026-01-26 03:14:17.13	301.12	27.17	-46.6	-48.1	19.4	0.00e+00	0	44	0	845152256	65	4119
2026-01-26 03:14:18.14	300.84	27.08	-46.4	-47.9	19.6	0.00e+00	0	43	0	847249408	64	4245
2026-01-26 03:14:19.15	300.57	27.00	-46.4	-47.9	19.6	0.00e+00	0	43	0	849346560	64	4253
2026-01-26 03:14:20.16	300.30	26.91	-46.4	-47.8	19.6	0.00e+00	0	44	0	851443712	64	4230
2026-01-26 03:14:21.16	300.03	26.82	-46.4	-47.8	19.6	0.00e+00	0	44	0	852492288	64	4235
2026-01-26 03:14:22.17	299.76	26.74	-46.3	-47.8	19.7	0.00e+00	0	44	0	854589440	64	4210
2026-01-26 03:14:23.18	299.50	26.65	-46.2	-47.6	19.9	0.00e+00	0	43	0	856686592	64	4112
2026-01-26 03:14:24.19	299.23	26.56	-46.3	-47.7	19.8	0.00e+00	0	43	0	858783744	64	4155
2026-01-26 03:14:25.19	298.97	26.47	-46.1	-47.5	19.9	0.00e+00	0	43	0	860880896	64	4073
2026-01-26 03:14:26.20	298.71	26.38	-46.2	-47.6	19.9	0.00e+00	0	43	0	861929472	64	4100
2026-01-26 03:14:27.21	298.45	26.29	-46.1	-47.5	19.9	0.00e+00	0	43	0	864026624	64	4088
2026-01-26 03:14:28.21	298.19	26.20	-46.0	-47.4	20.1	0.00e+00	0	43	0	866123776	64	4011
2026-01-26 03:14:29.22	297.93	26.11	-46.0	-47.3	20.2	0.00e+00	0	43	0	868220928	63	4240
2026-01-26 03:14:30.23	297.68	26.02	-46.0	-47.3	20.2	0.00e+00	0	43	0	870318080	63	4221
2026-01-26 03:14:31.24	297.42	25.93	-46.0	-47.3	20.2	0.00e+00	0	43	0	871366656	63	4220
2026-01-26 03:14:32.25	297.17	25.84	-46.0	-47.3	20.1	0.00e+00	0	43	0	873463808	63	4238
2026-01-26 03:14:33.26	296.92	25.75	-46.0	-47.3	20.2	0.00e+00	0	43	0	875560960	63	4211
2026-01-26 03:14:34.27	296.67	25.66	-45.9	-47.2	20.3	0.00e+00	0	44	0	877658112	63	4165
2026-01-26 03:14:35.28	296.42	25.56	-45.6	-46.9	20.6	0.00e+00	0	43	0	879755264	63	4022
2026-01-26 03:14:36.28	296.17	25.47	-45.6	-46.9	20.6	0.00e+00	0	43	0	881852416	63	4037
2026-01-26 03:14:37.29	295.93	25.38	-45.5	-46.7	20.7	0.00e+00	0	43	0	882900992	62	4192
2026-01-26 03:14:38.29	295.69	25.29	-45.4	-46.6	20.8	0.00e+00	0	43	0	884998144	62	4132
2026-01-26 03:14:39.30	295.44	25.19	-45.3	-46.5	20.9	0.00e+00	0	43	0	887095296	62	4078
2026-01-26 03:14:40.31	295.20	25.10	-45.1	-46.3	21.1	0.00e+00	0	44	0	889192448	62	3994
2026-01-26 03:14:41.32	294.96	25.01	-45.1	-46.2	21.2	0.00e+00	0	44	0	890241024	62	3951
2026-01-26 03:14:42.32	294.72	24.91	-45.0	-46.2	21.2	0.00e+00	0	43	0	892338176	62	3937
2026-01-26 03:14:43.32	294.49	24.82	-45.0	-46.2	21.2	0.00e+00	0	43	0	894435328	62	3946
2026-01-26 03:14:44.33	294.25	24.73	-44.9	-46.1	21.3	0.00e+00	0	43	0	896532480	61	4107
2026-01-26 03:14:45.34	294.02	24.63	-44.6	-45.7	21.6	0.00e+00	0	43	0	898629632	61	3958
2026-01-26 03:14:46.35	293.79	24.54	-44.4	-45.5	21.8	0.00e+00	0	43	0	899678208	60	4098
2026-01-26 03:14:47.35	293.56	24.44	-44.3	-45.4	22.0	0.00e+00	0	44	0	901775360	60	4030
2026-01-26 03:14:48.36	293.33	24.35	-44.3	-45.4	21.9	0.00e+00	0	44	0	903872512	60	4045
2026-01-26 03:14:49.37	293.10	24.25	-44.4	-45.4	21.9	0.00e+00	0	43	0	905969664	60	4050
2026-01-26 03:14:50.38	292.87	24.16	-44.4	-45.5	21.8	0.00e+00	0	43	0	908066816	60	4095
2026-01-26 03:14:51.38	292.64	24.06	-44.5	-45.6	21.8	0.00e+00	0	43	0	910163968	60	4136
2026-01-26 03:14:52.39	292.42	23.97	-44.6	-45.7	21.7	0.00e+00	0	43	0	911212544	60	4168
2026-01-26 03:14:53.39	292.20	23.87	-44.6	-45.7	21.7	0.00e+00	0	43	0	913309696	60	4162
2026-01-26 03:14:54.41	291.97	23.77	-44.3	-45.4	21.9	0.00e+00	0	43	0	915406848	60	4040
2026-01-26 03:14:55.41	291.76	23.68	-44.1	-45.2	22.2	0.00e+00	0	43	0	917504000	60	3921
2026-01-26 03:14:56.42	291.54	23.58	-44.3	-45.4	22.1	0.00e+00	0	43	0	918552576	59	4283
2026-01-26 03:14:57.43	291.32	23.49	-44.4	-45.5	22.2	0.00e+00	0	43	0	920649728	59	4301
2026-01-26 03:14:58.44	291.10	23.39	-44.2	-45.3	22.4	0.00e+00	0	43	0	922746880	59	4194
2026-01-26 03:14:59.44	290.89	23.29	-44.1	-45.2	22.4	0.00e+00	0	43	0	924844032	59	4173
2026-01-26 03:15:00.45	290.68	23.20	-44.2	-45.3	22.3	0.00e+00	0	43	0	926941184	59	4227
2026-01-26 03:15:01.46	290.46	23.10	-44.2	-45.3	22.4	0.00e+00	0	43	0	927989760	59	4214
2026-01-26 03:15:02.47	290.25	23.00	-44.2	-45.3	22.3	0.00e+00	0	43	0	930086912	59	4229
2026-01-26 03:15:03.47	290.04	22.91	-44.3	-45.4	22.2	0.00e+00	0	43	0	932184064	59	4280
2026-01-26 03:15:04.48	289.83	22.81	-44.2	-45.3	22.3	0.00e+00	0	43	0	934281216	59	4223
2026-01-26 03:15:05.49	289.63	22.72	-44.1	-45.2	22.4	0.00e+00	0	43	0	936378368	59	4146
2026-01-26 03:15:06.49	289.42	22.62	-44.1	-45.1	22.5	0.00e+00	0	43	0	938475520	59	4132
2026-01-26 03:15:07.50	289.22	22.52	-44.2	-45.2	22.3	0.00e+00	0	43	0	939524096	59	4188
2026-01-26 03:15:08.51	289.02	22.43	-44.2	-45.2	22.4	0.00e+00	0	43	0	941621248	59	4192
2026-01-26 03:15:09.52	288.81	22.33	-44.0	-45.1	22.5	0.00e+00	0	43	0	943718400	59	4108
2026-01-26 03:15:10.53	288.61	22.23	-44.1	-45.1	22.5	0.00e+00	0	43	0	945815552	59	4133
2026-01-26 03:15:11.53	288.41	22.14	-44.1	-45.1	22.4	0.00e+00	0	43	0	946864128	59	4145
2026-01-26 03:15:12.54	288.22	22.04	-44.0	-45.1	22.5	0.00e+00	0	43	0	948961280	59	4121
2026-01-26 03:15:13.55	288.02	21.94	-44.3	-45.3	22.3	0.00e+00	0	43	0	951058432	59	4239
2026-01-26 03:15:14.56	287.82	21.84	-44.2	-45.3	22.3	0.00e+00	0	43	0	953155584	59	4231
2026-01-26 03:15:15.57	287.63	21.75	-44.3	-45.4	22.2	0.00e+00	0	44	0	955252736	59	4261
2026-01-26 03:15:16.57	287.44	21.65	-44.3	-45.4	22.2	0.00e+00	0	43	0	957349888	59	4288
2026-01-26 03:15:17.58	287.24	21.55	-44.4	-45.5	22.2	0.00e+00	0	43	0	958398464	59	4296
2026-01-26 03:15:18.59	287.05	21.46	-44.5	-45.6	22.0	0.00e+00	0	44	0	960495616	59	4364
2026-01-26 03:15:19.60	286.86	21.36	-44.5	-45.6	22.0	0.00e+00	0	43	0	962592768	59	4348
2026-01-26 03:15:20.60	286.68	21.27	-44.5	-45.6	22.0	0.00e+00	0	44	0	964689920	59	4378
2026-01-26 03:15:21.61	286.49	21.17	-44.4	-45.5	22.1	0.00e+00	0	44	0	966787072	59	4324
2026-01-26 03:15:22.62	286.30	21.07	-44.5	-45.6	22.0	0.00e+00	0	43	0	967835648	59	4372
2026-01-26 03:15:23.62	286.12	20.98	-44.6	-45.7	21.9	0.00e+00	0	43	0	969932800	59	4410
2026-01-26 03:15:24.63	285.94	20.88	-44.6	-45.8	21.8	0.00e+00	0	43	0	972029952	59	4443
2026-01-26 03:15:25.64	285.75	20.78	-44.6	-45.8	21.8	0.00e+00	0	43	0	974127104	59	4459
2026-01-26 03:15:26.65	285.57	20.69	-44.5	-45.7	21.9	0.00e+00	0	43	0	975175680	59	4396
2026-01-26 03:15:27.66	285.39	20.59	-44.6	-45.7	21.9	0.00e+00	0	43	0	977272832	59	4403
2026-01-26 03:15:28.67	285.21	20.49	-44.7	-45.8	21.8	0.00e+00	0	44	0	979369984	59	4456
2026-01-26 03:15:29.68	285.03	20.40	-44.4	-45.5	21.8	0.00e+00	0	43	0	981467136	60	4068
2026-01-26 03:15:30.69	284.86	20.30	-44.3	-45.4	21.9	0.00e+00	0	43	0	983564288	60	4017
2026-01-26 03:15:31.70	284.68	20.20	-44.5	-45.6	21.6	0.00e+00	0	44	0	985661440	60	4133
2026-01-26 03:15:32.71	284.51	20.11	-44.5	-45.7	21.6	0.00e+00	0	43	0	986710016	60	4164
2026-01-26 03:15:33.71	284.33	20.01	-44.8	-45.9	21.4	0.00e+00	0	43	0	988807168	60	4280
2026-01-26 03:15:34.72	284.16	19.92	-44.8	-46.0	21.3	0.00e+00	0	43	0	990904320	60	4300
2026-01-26 03:15:35.73	283.99	19.82	-44.8	-46.0	21.3	0.00e+00	0	43	0	993001472	60	4313
2026-01-26 03:15:36.74	283.82	19.73	-44.8	-46.0	21.3	0.00e+00	0	43	0	995098624	60	4301
2026-01-26 03:15:37.74	283.65	19.63	-44.8	-46.0	21.2	0.00e+00	0	43	0	996147200	60	4314
2026-01-26 03:15:38.75	283.48	19.54	-44.9	-46.1	21.2	0.00e+00	0	43	0	998244352	60	4348
2026-01-26 03:15:39.76	283.32	19.44	-44.7	-45.9	21.3	0.00e+00	0	44	0	1000341504	60	4267
2026-01-26 03:15:40.77	283.15	19.35	-44.9	-46.1	21.1	0.00e+00	0	44	0	1002438656	60	4382
2026-01-26 03:15:41.77	282.99	19.25	-45.0	-46.2	21.1	0.00e+00	0	43	0	1004535808	60	4394
2026-01-26 03:15:42.78	282.82	19.16	-45.1	-46.3	21.0	0.00e+00	0	43	0	1005584384	60	4456
2026-01-26 03:15:43.79	282.66	19.06	-45.1	-46.3	20.9	0.00e+00	0	43	0	1007681536	60	4487
2026-01-26 03:15:44.80	282.50	18.97	-45.1	-46.4	20.9	0.00e+00	0	43	0	1009778688	60	4506
2026-01-26 03:15:45.80	282.34	18.87	-45.2	-46.4	20.8	0.00e+00	0	43	0	1011875840	60	4518
2026-01-26 03:15:46.81	282.18	18.78	-45.2	-46.4	20.8	0.00e+00	0	44	0	1013972992	61	4258
2026-01-26 03:15:47.82	282.02	18.68	-45.2	-46.4	20.8	0.00e+00	0	43	0	1015021568	61	4266
2026-01-26 03:15:48.83	281.86	18.59	-45.2	-46.4	20.8	0.00e+00	0	43	0	1017118720	61	4286
2026-01-26 03:15:49.84	281.70	18.49	-45.1	-46.3	20.9	0.00e+00	0	43	0	1019215872	61	4213
2026-01-26 03:15:50.85	281.55	18.40	-45.1	-46.4	20.8	0.00e+00	0	43	0	1021313024	61	4261
2026-01-26 03:15:51.86	281.39	18.31	-45.2	-46.5	20.8	0.00e+00	0	43	0	1023410176	61	4300
2026-01-26 03:15:52.86	281.24	18.21	-45.2	-46.5	20.7	0.00e+00	0	43	0	1024458752	61	4311
2026-01-26 03:15:53.87	281.09	18.12	-45.4	-46.7	20.5	0.00e+00	0	43	0	1026555904	61	4413
2026-01-26 03:15:54.88	280.93	18.03	-45.4	-46.7	20.5	0.00e+00	0	43	0	1028653056	61	4431
2026-01-26 03:15:55.89	280.78	17.93	-45.5	-46.8	20.4	0.00e+00	0	44	0	1030750208	61	4466
2026-01-26 03:15:56.89	280.63	17.84	-45.4	-46.7	20.5	0.00e+00	0	43	0	1032847360	61	4432
2026-01-26 03:15:57.90	280.48	17.75	-45.4	-46.7	20.5	0.00e+00	0	43	0	1033895936	61	4424
2026-01-26 03:15:58.91	280.34	17.66	-45.4	-46.6	20.6	0.00e+00	0	43	0	1035993088	61	4383
2026-01-26 03:15:59.92	280.19	17.56	-45.3	-46.6	20.6	0.00e+00	0	43	0	1038090240	61	4372
2026-01-26 03:16:00.92	280.04	17.47	-45.3	-46.6	20.6	0.00e+00	0	43	0	1040187392	61	4362
2026-01-26 03:16:01.93	279.90	17.38	-45.3	-46.6	20.6	0.00e+00	0	43	0	1042284544	61	4364
2026-01-26 03:16:02.94	279.75	17.29	-45.4	-46.7	20.5	0.00e+00	0	43	0	1043333120	61	4398
2026-01-26 03:16:03.95	279.61	17.19	-45.4	-46.7	20.5	0.00e+00	0	43	0	1045430272	61	4419
2026-01-26 03:16:04.95	279.47	17.10	-45.6	-46.9	20.3	0.00e+00	0	43	0	1047527424	61	4510
2026-01-26 03:16:05.96	279.32	17.01	-45.6	-47.0	20.1	0.00e+00	0	43	0	1049624576	61	4566
2026-01-26 03:16:06.96	279.19	16.92	-46.0	-47.4	19.8	0.00e+00	0	43	0	1051721728	62	4518
2026-01-26 03:16:07.97	279.04	16.83	-46.0	-47.5	19.7	0.00e+00	0	44	0	1052770304	62	4560
2026-01-26 03:16:08.98	278.91	16.74	-45.9	-47.3	19.9	0.00e+00	0	43	0	1054867456	62	4474
2026-01-26 03:16:09.99	278.77	16.65	-45.9	-47.3	19.8	0.00e+00	0	43	0	1056964608	62	4484
2026-01-26 03:16:10.99	278.63	16.56	-45.9	-47.3	19.8	0.00e+00	0	43	0	1059061760	62	4487
2026-01-26 03:16:12.00	278.49	16.47	-46.0	-47.4	19.7	0.00e+00	0	43	0	1061158912	62	4538
2026-01-26 03:16:13.01	278.36	16.37	-45.8	-47.1	20.0	0.00e+00	0	43	0	1062207488	62	4384
2026-01-26 03:16:14.01	278.22	16.28	-45.8	-47.2	19.9	0.00e+00	0	43	0	1064304640	62	4433
2026-01-26 03:16:15.02	278.09	16.19	-45.9	-47.3	19.9	0.00e+00	0	43	0	1066401792	62	4481
2026-01-26 03:16:16.03	277.95	16.10	-46.0	-47.4	19.8	0.00e+00	0	43	0	1068498944	62	4518
2026-01-26 03:16:17.03	277.82	16.02	-46.1	-47.6	19.6	0.00e+00	0	43	0	1070596096	62	4611
2026-01-26 03:16:18.04	277.69	15.93	-46.2	-47.7	19.5	0.00e+00	0	43	0	1071644672	63	4426
2026-01-26 03:16:19.05	277.56	15.84	-46.3	-47.8	19.4	0.00e+00	0	43	0	1073741824	63	4473
2026-01-26 03:16:20.05	277.43	15.75	-46.4	-47.9	19.3	0.00e+00	0	43	0	1075838976	63	4496
2026-01-26 03:16:21.06	277.30	15.66	-46.4	-47.9	19.2	0.00e+00	0	43	0	1077936128	63	4531
2026-01-26 03:16:22.07	277.17	15.57	-46.5	-48.0	19.2	0.00e+00	0	43	0	1080033280	63	4565
2026-01-26 03:16:23.08	277.04	15.48	-46.6	-48.1	19.0	0.00e+00	0	43	0	1081081856	63	4630
2026-01-26 03:16:24.09	276.92	15.39	-46.4	-48.0	19.2	0.00e+00	0	43	0	1083179008	63	4549
2026-01-26 03:16:25.10	276.79	15.30	-46.3	-47.8	19.3	0.00e+00	0	43	0	1085276160	63	4473
2026-01-26 03:16:26.10	276.67	15.21	-46.1	-47.6	19.6	0.00e+00	0	43	0	1087373312	63	4345
2026-01-26 03:16:27.11	276.54	15.13	-46.1	-47.5	19.6	0.00e+00	0	43	0	1089470464	63	4330
2026-01-26 03:16:28.12	276.42	15.04	-46.1	-47.6	19.6	0.00e+00	0	43	0	1090519040	63	4355
2026-01-26 03:16:29.12	276.29	14.95	-46.2	-47.7	19.4	0.00e+00	0	43	0	1092616192	63	4411
2026-01-26 03:16:30.13	276.17	14.86	-46.3	-47.9	19.3	0.00e+00	0	43	0	1094713344	63	4510
2026-01-26 03:16:31.14	276.05	14.78	-46.4	-48.0	19.2	0.00e+00	0	43	0	1096810496	63	4558
2026-01-26 03:16:32.15	275.93	14.69	-46.5	-48.1	19.0	0.00e+00	0	43	0	1098907648	63	4626
2026-01-26 03:16:33.15	275.81	14.60	-46.5	-48.1	19.1	0.00e+00	0	43	0	1099956224	63	4616
2026-01-26 03:16:34.16	275.69	14.52	-46.6	-48.1	19.0	0.00e+00	0	43	0	1102053376	63	4650
2026-01-26 03:16:35.16	275.57	14.43	-46.6	-48.2	18.9	0.00e+00	0	43	0	1104150528	63	4694
2026-01-26 03:16:36.17	275.45	14.34	-46.6	-48.2	18.9	0.00e+00	0	43	0	1106247680	63	4658
2026-01-26 03:16:37.17	275.34	14.26	-46.6	-48.2	18.9	0.00e+00	0	44	0	1108344832	63	4680
2026-01-26 03:16:38.17	275.22	14.17	-46.5	-48.0	19.1	0.00e+00	0	43	0	1109393408	63	4584
2026-01-26 03:16:39.18	275.10	14.09	-46.4	-47.9	19.2	0.00e+00	0	44	0	1111490560	63	4511
2026-01-26 03:16:40.18	274.99	14.00	-46.5	-48.0	19.1	0.00e+00	0	43	0	1113587712	63	4565
2026-01-26 03:16:41.19	274.87	13.91	-46.4	-47.9	19.2	0.00e+00	0	43	0	1115684864	63	4522
2026-01-26 03:16:42.20	274.76	13.83	-46.2	-47.7	19.4	0.00e+00	0	43	0	1117782016	63	4421
2026-01-26 03:16:43.20	274.65	13.74	-46.2	-47.7	19.4	0.00e+00	0	43	0	1118830592	63	4394
2026-01-26 03:16:44.21	274.53	13.66	-46.2	-47.7	19.4	0.00e+00	0	43	0	1120927744	63	4397
2026-01-26 03:16:45.22	274.42	13.57	-46.2	-47.7	19.3	0.00e+00	0	43	0	1123024896	63	4435
2026-01-26 03:16:46.23	274.31	13.49	-46.3	-47.8	19.3	0.00e+00	0	43	0	1125122048	63	4467
2026-01-26 03:16:47.23	274.20	13.41	-46.4	-47.9	19.1	0.00e+00	0	43	0	1127219200	63	4544
2026-01-26 03:16:48.24	274.09	13.32	-46.4	-48.0	19.0	0.00e+00	0	43	0	1128267776	63	4570
2026-01-26 03:16:49.25	273.98	13.24	-46.5	-48.1	19.0	0.00e+00	0	43	0	1130364928	63	4599
2026-01-26 03:16:50.26	273.87	13.15	-46.6	-48.2	18.9	0.00e+00	0	44	0	1132462080	63	4658
2026-01-26 03:16:51.27	273.76	13.07	-46.7	-48.3	18.7	0.00e+00	0	44	0	1134559232	63	4743
2026-01-26 03:16:52.27	273.66	12.99	-46.6	-48.2	18.7	0.00e+00	0	43	0	1136656384	64	4423
2026-01-26 03:16:53.28	273.55	12.90	-46.6	-48.2	18.7	0.00e+00	0	43	0	1137704960	64	4419
2026-01-26 03:16:54.29	273.44	12.82	-46.6	-48.2	18.8	0.00e+00	0	43	0	1139802112	64	4399
2026-01-26 03:16:55.30	273.34	12.74	-46.5	-48.0	18.9	0.00e+00	0	43	0	1141899264	64	4340
2026-01-26 03:16:56.31	273.23	12.65	-46.6	-48.2	18.7	0.00e+00	0	43	0	1143996416	64	4427
2026-01-26 03:16:57.31	273.13	12.57	-46.4	-48.0	18.9	0.00e+00	0	43	0	1146093568	64	4337
2026-01-26 03:16:58.32	273.02	12.49	-46.6	-48.2	18.7	0.00e+00	0	43	0	1147142144	64	4416
2026-01-26 03:16:59.33	272.92	12.41	-46.7	-48.3	18.6	0.00e+00	0	43	0	1149239296	64	4478
2026-01-26 03:17:00.34	272.82	12.32	-46.7	-48.3	18.6	0.00e+00	0	43	0	1151336448	64	4486
2026-01-26 03:17:01.34	272.72	12.24	-46.7	-48.4	18.5	0.00e+00	0	44	0	1153433600	64	4509
2026-01-26 03:17:02.35	272.61	12.16	-46.8	-48.5	18.4	0.00e+00	0	43	0	1155530752	64	4570
2026-01-26 03:17:03.35	272.51	12.08	-46.9	-48.6	18.3	0.00e+00	0	44	0	1156579328	64	4632
2026-01-26 03:17:04.36	272.41	12.00	-46.9	-48.6	18.3	0.00e+00	0	43	0	1158676480	64	4613
2026-01-26 03:17:05.37	272.31	11.92	-46.8	-48.5	18.4	0.00e+00	0	44	0	1160773632	64	4586
2026-01-26 03:17:06.38	272.21	11.84	-46.9	-48.6	18.3	0.00e+00	0	43	0	1162870784	64	4627
2026-01-26 03:17:07.38	272.11	11.76	-46.9	-48.6	18.2	0.00e+00	0	44	0	1164967936	64	4638
2026-01-26 03:17:08.39	272.02	11.68	-46.8	-48.5	18.3	0.00e+00	0	43	0	1166016512	64	4593
2026-01-26 03:17:09.40	271.92	11.60	-46.8	-48.5	18.4	0.00e+00	0	44	0	1168113664	64	4555
2026-01-26 03:17:10.41	271.82	11.51	-46.8	-48.6	18.3	0.00e+00	0	44	0	1170210816	64	4599
2026-01-26 03:17:11.41	271.73	11.44	-47.1	-48.9	18.0	0.00e+00	0	43	0	1172307968	64	4773
2026-01-26 03:17:12.42	271.63	11.36	-47.0	-48.7	18.1	0.00e+00	0	43	0	1174405120	64	4705
2026-01-26 03:17:13.43	271.53	11.28	-46.9	-48.6	18.2	0.00e+00	0	43	0	1175453696	64	4622
2026-01-26 03:17:14.43	271.44	11.20	-47.0	-48.8	18.0	0.00e+00	0	44	0	1177550848	64	4752
2026-01-26 03:17:15.44	271.34	11.12	-47.0	-48.8	18.1	0.00e+00	0	43	0	1179648000	64	4710
2026-01-26 03:17:16.44	271.25	11.04	-47.1	-48.9	18.0	0.00e+00	0	44	0	1181745152	64	4767
2026-01-26 03:17:17.45	271.16	10.96	-47.1	-48.9	17.9	0.00e+00	0	44	0	1183842304	64	4784
2026-01-26 03:17:18.46	271.07	10.88	-47.1	-49.0	17.8	0.00e+00	0	43	0	1184890880	64	4836
2026-01-26 03:17:19.47	270.97	10.80	-47.1	-48.9	17.9	0.00e+00	0	44	0	1186988032	64	4795
2026-01-26 03:17:20.48	270.88	10.72	-47.2	-49.0	17.7	0.00e+00	0	43	0	1189085184	64	4859
2026-01-26 03:17:21.49	270.79	10.64	-47.1	-48.9	17.9	0.00e+00	0	44	0	1191182336	64	4799
2026-01-26 03:17:22.50	270.70	10.57	-47.1	-48.9	17.9	0.00e+00	0	43	0	1193279488	64	4792
2026-01-26 03:17:23.50	270.61	10.49	-47.2	-49.0	17.7	0.00e+00	0	43	0	1194328064	64	4864
2026-01-26 03:17:24.51	270.52	10.41	-47.1	-49.0	17.7	0.00e+00	0	43	0	1196425216	64	4822
2026-01-26 03:17:25.51	270.43	10.33	-47.2	-49.0	17.7	0.00e+00	0	44	0	1198522368	65	4589
2026-01-26 03:17:26.52	270.34	10.26	-47.3	-49.2	17.5	0.00e+00	0	43	0	1200619520	65	4658
2026-01-26 03:17:27.53	270.25	10.18	-47.3	-49.3	17.3	0.00e+00	0	43	0	1202716672	65	4748
2026-01-26 03:17:28.53	270.17	10.10	-47.4	-49.4	17.2	0.00e+00	0	43	0	1203765248	65	4786
2026-01-26 03:17:29.54	270.08	10.03	-47.5	-49.5	17.0	0.00e+00	0	44	0	1205862400	65	4867
2026-01-26 03:17:30.54	269.99	9.95	-47.8	-50.0	16.5	0.00e+00	0	44	0	1207959552	66	4823
2026-01-26 03:17:31.55	269.90	9.87	-47.9	-50.3	16.1	0.00e+00	0	44	0	1210056704	66	5007
2026-01-26 03:17:32.56	269.82	9.80	-48.2	-50.8	15.5	0.00e+00	0	43	0	1212153856	67	4990
2026-01-26 03:17:33.57	269.73	9.72	-48.4	-51.2	14.9	0.00e+00	0	43	0	1214251008	67	5223
2026-01-26 03:17:34.58	269.65	9.64	-48.6	-51.7	14.3	7.00e-07	0	44	0	1215299584	67	5548
2026-01-26 03:17:35.59	269.56	9.57	-48.9	-52.3	13.6	5.30e-06	0	43	0	1217396736	68	5619
2026-01-26 03:17:36.59	269.48	9.49	-49.3	-53.1	12.6	3.81e-05	0	44	0	1219493888	69	5840
2026-01-26 03:17:37.60	269.40	9.42	-49.6	-53.9	11.7	2.84e-04	0	43	0	1221591040	69	6391
2026-01-26 03:17:38.61	269.31	9.34	-49.7	-54.2	11.3	9.79e-04	0	43	0	1222639616	69	6601
2026-01-26 03:17:39.61	269.23	9.27	-49.8	-54.8	10.6	2.52e-03	0	44	0	1224736768	70	6654
2026-01-26 03:17:40.62	269.15	9.19	-50.0	-55.4	9.9	5.33e-03	0	44	0	1226833920	70	7133
