passes_logs/2026/01/26/R3.2S_Murmansk/R3.2S_Murmansk__20260126_094301_NOAA_20_JPSS-1_rec.log

#Pass ID: 20260126_094301_NOAA 20 (JPSS-1)
#Satellite: NOAA 20 (JPSS-1)
#Configuration: NOAA 20
#almurnet v.1.7.20251203
#Start time: 2026-01-26 09:43:02

#Version: 2.2.20231116
#Station: R3.2S_Murmansk
#Location: 33.079688 lon 68.888172 lat
#TLE: 1 43013U 17073A   26025.90277267  .00000170  00000+0  10165-3 0  9997
#TLE: 2 43013  98.7646 326.7276 0001032  23.5492 336.5731 14.19540457424285

#Time	Az	El	Level	Level2	SNR	BER	BlckErr	Temp	State	Recorded	gain1	gain2
2026-01-26 09:43:02.43	156.24	2.05	-48.0	-62.9	3.8	1.49e+00	0	41	0	0	66	21283
2026-01-26 09:43:03.43	156.25	2.12	-48.0	-62.9	3.8	1.49e+00	0	41	104	0	66	21287
2026-01-26 09:43:04.43	156.26	2.18	-48.0	-62.8	3.8	1.49e+00	0	41	104	0	66	21249
2026-01-26 09:43:05.44	156.27	2.25	-48.0	-62.9	3.8	1.49e+00	0	41	104	0	66	21276
2026-01-26 09:43:06.44	156.28	2.31	-48.0	-62.9	3.8	1.49e+00	0	41	104	0	66	21335
2026-01-26 09:43:07.45	156.28	2.38	-48.0	-62.8	3.8	1.49e+00	0	41	104	0	66	21253
2026-01-26 09:43:08.46	156.29	2.44	-48.0	-62.9	3.8	1.49e+00	0	41	104	0	66	21311
2026-01-26 09:43:09.47	156.30	2.51	-48.0	-62.9	3.8	1.49e+00	0	42	104	0	66	21299
2026-01-26 09:43:10.48	156.31	2.57	-48.0	-62.9	3.8	1.49e+00	0	41	104	0	66	21284
2026-01-26 09:43:11.48	156.32	2.64	-48.0	-62.9	3.8	1.49e+00	0	42	104	0	66	21308
2026-01-26 09:43:12.49	156.32	2.71	-48.0	-62.9	3.8	1.49e+00	0	41	104	0	66	21261
2026-01-26 09:43:13.50	156.33	2.77	-47.8	-62.9	3.8	1.49e+00	0	42	104	0	66	21302
2026-01-26 09:43:14.51	156.34	2.84	-48.0	-62.9	3.8	1.49e+00	0	41	104	0	66	21337
2026-01-26 09:43:15.52	156.35	2.91	-48.0	-62.9	3.8	1.49e+00	0	42	104	0	66	21273
2026-01-26 09:43:16.53	156.36	2.97	-48.0	-62.9	3.8	1.49e+00	0	42	104	0	66	21349
2026-01-26 09:43:17.54	156.37	3.04	-48.0	-62.9	3.8	1.49e+00	0	42	104	0	66	21346
2026-01-26 09:43:18.55	156.38	3.11	-48.0	-62.8	3.8	1.49e+00	0	42	104	0	66	21256
2026-01-26 09:43:19.55	156.38	3.17	-48.0	-62.9	3.8	1.49e+00	0	42	104	0	66	21322
2026-01-26 09:43:20.56	156.39	3.24	-48.0	-62.9	3.8	1.49e+00	0	42	104	0	66	21334
2026-01-26 09:43:21.57	156.40	3.31	-48.0	-62.9	3.8	1.49e+00	0	42	104	0	66	21267
2026-01-26 09:43:22.57	156.41	3.38	-48.0	-62.8	3.8	1.49e+00	0	42	104	0	66	21228
2026-01-26 09:43:23.58	156.42	3.44	-48.0	-62.9	3.8	1.49e+00	0	42	104	0	66	21300
2026-01-26 09:43:24.59	156.43	3.51	-48.0	-62.9	3.8	1.49e+00	0	42	104	0	66	21342
2026-01-26 09:43:25.59	156.43	3.58	-48.0	-62.9	3.8	1.49e+00	0	42	104	0	66	21321
2026-01-26 09:43:26.60	156.44	3.65	-48.0	-62.9	3.8	1.49e+00	0	42	104	0	66	21323
2026-01-26 09:43:27.61	156.45	3.72	-48.0	-62.9	3.8	1.49e+00	0	42	104	0	66	21313
2026-01-26 09:43:28.62	156.46	3.79	-48.0	-62.9	3.8	1.49e+00	0	42	104	0	66	21297
2026-01-26 09:43:29.63	156.47	3.86	-48.0	-62.9	3.8	1.49e+00	0	42	104	0	66	21305
2026-01-26 09:43:30.63	156.48	3.92	-48.0	-62.9	3.8	1.49e+00	0	42	104	0	66	21280
2026-01-26 09:43:31.64	156.49	3.99	-48.0	-62.9	3.8	1.49e+00	0	42	104	0	66	21334
2026-01-26 09:43:32.65	156.50	4.06	-48.0	-62.9	3.8	1.49e+00	0	42	104	0	66	21305
2026-01-26 09:43:33.65	156.50	4.13	-48.0	-62.9	3.8	1.49e+00	0	42	104	0	66	21299
2026-01-26 09:43:34.66	156.51	4.20	-48.0	-62.9	3.8	1.49e+00	0	42	104	0	66	21298
2026-01-26 09:43:35.67	156.52	4.27	-48.0	-62.9	3.8	1.49e+00	0	42	104	0	66	21290
2026-01-26 09:43:36.67	156.53	4.34	-48.0	-62.9	3.8	1.49e+00	0	42	104	0	66	21336
2026-01-26 09:43:37.68	156.54	4.41	-48.0	-62.9	3.8	1.49e+00	0	42	104	0	66	21281
2026-01-26 09:43:38.69	156.55	4.48	-48.0	-62.8	3.8	1.49e+00	0	42	104	0	66	21235
2026-01-26 09:43:39.69	156.56	4.55	-48.0	-62.9	3.8	1.49e+00	0	42	104	0	66	21309
2026-01-26 09:43:40.69	156.57	4.63	-48.0	-62.9	3.8	1.49e+00	0	42	104	0	66	21267
2026-01-26 09:43:41.70	156.58	4.70	-48.0	-62.9	3.8	1.49e+00	0	42	104	0	66	21351
2026-01-26 09:43:42.71	156.59	4.77	-48.0	-62.8	3.8	1.49e+00	0	42	104	0	66	21258
2026-01-26 09:43:43.72	156.59	4.84	-48.0	-62.9	3.8	1.49e+00	0	42	104	0	66	21337
2026-01-26 09:43:44.73	156.60	4.91	-48.0	-62.9	3.8	1.49e+00	0	42	104	0	66	21282
2026-01-26 09:43:45.74	156.61	4.98	-48.0	-62.9	3.8	1.49e+00	0	42	104	0	66	21301
2026-01-26 09:43:46.75	156.62	5.06	-48.0	-62.9	3.8	1.49e+00	0	42	104	0	66	21314
2026-01-26 09:43:47.76	156.63	5.13	-48.0	-62.9	3.8	1.49e+00	0	42	104	0	66	21290
2026-01-26 09:43:48.77	156.64	5.20	-48.0	-62.9	3.8	1.49e+00	0	42	104	0	66	21328
2026-01-26 09:43:49.78	156.65	5.27	-48.0	-62.9	3.8	1.49e+00	0	42	104	0	66	21327
2026-01-26 09:43:50.79	156.66	5.35	-48.0	-62.9	3.8	1.49e+00	0	42	104	0	66	21353
2026-01-26 09:43:51.79	156.67	5.42	-48.0	-62.9	3.8	1.49e+00	0	42	104	0	66	21276
2026-01-26 09:43:52.80	156.68	5.49	-48.0	-62.9	3.8	1.49e+00	0	42	104	0	66	21261
2026-01-26 09:43:53.81	156.69	5.57	-47.9	-62.9	3.8	1.49e+00	0	42	104	0	66	21279
2026-01-26 09:43:54.82	156.70	5.64	-48.0	-62.9	3.8	1.49e+00	0	42	104	0	66	21285
2026-01-26 09:43:55.82	156.71	5.71	-48.0	-62.9	3.8	1.49e+00	0	42	104	0	66	21266
2026-01-26 09:43:56.83	156.71	5.79	-48.0	-62.9	3.8	1.49e+00	0	42	104	0	66	21314
2026-01-26 09:43:57.84	156.72	5.86	-48.0	-62.9	3.8	1.49e+00	0	42	104	0	66	21324
2026-01-26 09:43:58.84	156.73	5.94	-48.0	-62.9	3.8	1.49e+00	0	42	104	0	66	21333
2026-01-26 09:43:59.85	156.74	6.01	-48.0	-62.8	3.8	1.49e+00	0	42	104	0	66	21260
2026-01-26 09:44:00.86	156.75	6.09	-48.0	-62.9	3.8	1.49e+00	0	42	104	0	66	21291
2026-01-26 09:44:01.87	156.76	6.16	-48.0	-62.9	3.8	1.49e+00	0	43	104	0	66	21324
2026-01-26 09:44:02.88	156.77	6.24	-48.0	-62.9	3.8	1.49e+00	0	42	104	0	66	21262
2026-01-26 09:44:03.89	156.78	6.31	-48.0	-62.9	3.8	1.49e+00	0	42	104	0	66	21297
2026-01-26 09:44:04.89	156.79	6.39	-48.0	-62.9	3.8	1.49e+00	0	42	104	0	66	21320
2026-01-26 09:44:05.90	156.80	6.47	-48.0	-62.9	3.8	1.49e+00	0	42	104	0	66	21340
2026-01-26 09:44:06.91	156.81	6.54	-48.0	-62.9	3.8	1.49e+00	0	42	104	0	66	21287
2026-01-26 09:44:07.92	156.82	6.62	-48.0	-62.9	3.8	1.49e+00	0	42	104	0	66	21276
2026-01-26 09:44:08.93	156.83	6.70	-48.0	-62.9	3.8	1.49e+00	0	43	104	0	66	21309
2026-01-26 09:44:09.93	156.84	6.77	-48.0	-62.9	3.8	1.49e+00	0	42	104	0	66	21310
2026-01-26 09:44:10.94	156.85	6.85	-48.0	-62.9	3.8	1.49e+00	0	43	104	0	66	21265
2026-01-26 09:44:11.95	156.86	6.93	-48.0	-62.9	3.8	1.49e+00	0	42	104	0	66	21306
2026-01-26 09:44:12.96	156.87	7.01	-48.0	-62.8	3.8	1.49e+00	0	43	104	0	66	21252
2026-01-26 09:44:13.97	156.88	7.08	-48.0	-62.9	3.8	1.49e+00	0	43	104	0	66	21292
2026-01-26 09:44:14.97	156.89	7.16	-48.0	-62.9	3.8	1.49e+00	0	43	104	0	66	21348
2026-01-26 09:44:15.98	156.90	7.24	-48.0	-62.9	3.8	1.49e+00	0	42	104	0	66	21276
2026-01-26 09:44:16.99	156.91	7.32	-48.0	-62.9	3.8	1.49e+00	0	43	104	0	66	21279
2026-01-26 09:44:18.00	156.92	7.40	-48.0	-62.9	3.8	1.49e+00	0	43	104	0	66	21301
2026-01-26 09:44:19.00	156.93	7.48	-48.0	-62.9	3.8	1.49e+00	0	43	104	0	66	21283
2026-01-26 09:44:20.01	156.94	7.56	-48.0	-62.9	3.8	1.49e+00	0	43	104	0	66	21290
2026-01-26 09:44:21.02	156.95	7.64	-48.0	-62.9	3.8	1.49e+00	0	43	104	0	66	21347
2026-01-26 09:44:22.03	156.96	7.72	-48.0	-62.9	3.8	1.49e+00	0	43	104	0	66	21269
2026-01-26 09:44:23.04	156.97	7.80	-48.0	-62.9	3.8	1.49e+00	0	43	104	0	66	21275
2026-01-26 09:44:24.05	156.98	7.88	-48.0	-62.9	3.8	1.49e+00	0	43	104	0	66	21282
2026-01-26 09:44:25.06	156.99	7.96	-48.0	-62.9	3.8	1.49e+00	0	43	104	0	66	21317
2026-01-26 09:44:26.07	157.00	8.04	-48.0	-62.9	3.8	1.49e+00	0	43	104	0	66	21358
2026-01-26 09:44:27.07	157.01	8.12	-48.0	-62.9	3.8	1.49e+00	0	43	104	0	66	21335
2026-01-26 09:44:28.08	157.03	8.20	-48.0	-62.9	3.8	1.49e+00	0	43	104	0	66	21291
2026-01-26 09:44:29.09	157.04	8.28	-48.0	-62.8	3.8	1.49e+00	0	43	104	0	66	21248
2026-01-26 09:44:30.10	157.05	8.37	-48.0	-62.9	3.8	1.49e+00	0	43	104	0	66	21277
2026-01-26 09:44:31.11	157.06	8.45	-48.0	-62.9	3.8	1.49e+00	0	43	104	0	66	21295
2026-01-26 09:44:32.11	157.07	8.53	-48.0	-62.8	3.8	1.49e+00	0	43	104	0	66	21255
2026-01-26 09:44:33.12	157.08	8.61	-48.0	-62.9	3.8	1.49e+00	0	43	104	0	66	21298
2026-01-26 09:44:34.13	157.09	8.70	-48.0	-62.9	3.8	1.49e+00	0	43	104	0	66	21332
2026-01-26 09:44:35.14	157.10	8.78	-48.0	-62.9	3.8	1.49e+00	0	43	104	0	66	21290
2026-01-26 09:44:36.15	157.11	8.86	-48.0	-62.9	3.8	1.49e+00	0	43	104	0	66	21329
2026-01-26 09:44:37.16	157.12	8.95	-48.0	-62.9	3.8	1.49e+00	0	43	104	0	66	21292
2026-01-26 09:44:38.17	157.13	9.03	-48.0	-62.9	3.8	1.49e+00	0	43	104	0	66	21317
2026-01-26 09:44:39.17	157.14	9.12	-48.0	-62.9	3.8	1.49e+00	0	43	104	0	66	21298
2026-01-26 09:44:40.18	157.16	9.20	-48.0	-62.9	3.8	1.49e+00	0	43	104	0	66	21341
2026-01-26 09:44:41.19	157.17	9.29	-48.0	-62.9	3.8	1.49e+00	0	43	104	0	66	21302
2026-01-26 09:44:42.19	157.18	9.37	-48.0	-62.9	3.8	1.49e+00	0	43	104	0	66	21326
2026-01-26 09:44:43.20	157.19	9.46	-48.0	-62.9	3.8	1.49e+00	0	43	104	0	66	21295
2026-01-26 09:44:44.21	157.20	9.54	-48.0	-62.9	3.8	1.49e+00	0	43	104	0	66	21298
2026-01-26 09:44:45.22	157.21	9.63	-48.0	-62.9	3.8	1.49e+00	0	43	104	0	66	21295
2026-01-26 09:44:46.23	157.22	9.72	-48.0	-62.9	3.8	1.49e+00	0	43	104	0	66	21302
2026-01-26 09:44:47.23	157.23	9.80	-48.0	-62.9	3.8	1.49e+00	0	43	104	0	66	21304
2026-01-26 09:44:48.24	157.25	9.89	-48.0	-62.9	3.8	1.49e+00	0	43	104	0	66	21298
2026-01-26 09:44:49.25	157.26	9.98	-48.0	-62.9	3.8	1.49e+00	0	43	104	0	66	21313
2026-01-26 09:44:50.26	157.27	10.07	-48.0	-62.9	3.8	1.49e+00	0	43	104	0	66	21267
2026-01-26 09:44:51.27	157.28	10.15	-48.0	-62.9	3.8	1.49e+00	0	43	104	0	66	21293
2026-01-26 09:44:52.27	157.29	10.24	-48.0	-62.9	3.8	1.49e+00	0	43	104	0	66	21355
2026-01-26 09:44:53.28	157.30	10.33	-48.0	-62.9	3.8	1.49e+00	0	43	104	0	66	21280
2026-01-26 09:44:54.29	157.31	10.42	-48.0	-62.9	3.8	1.49e+00	0	43	104	0	66	21272
2026-01-26 09:44:55.30	157.33	10.51	-48.0	-62.9	3.8	1.49e+00	0	43	104	0	66	21304
2026-01-26 09:44:56.30	157.34	10.60	-48.0	-62.9	3.8	1.49e+00	0	43	104	0	66	21284
2026-01-26 09:44:57.31	157.35	10.69	-48.0	-62.9	3.8	1.49e+00	0	43	104	0	66	21312
2026-01-26 09:44:58.32	157.36	10.78	-48.0	-62.9	3.8	1.49e+00	0	43	104	0	66	21303
2026-01-26 09:44:59.33	157.37	10.87	-48.0	-62.9	3.8	1.49e+00	0	43	104	0	66	21288
2026-01-26 09:45:00.34	157.39	10.96	-48.0	-62.9	3.8	1.49e+00	0	43	104	0	66	21286
2026-01-26 09:45:01.35	157.40	11.05	-48.0	-62.9	3.8	1.49e+00	0	43	104	0	66	21299
2026-01-26 09:45:02.36	157.41	11.14	-48.0	-62.9	3.8	1.49e+00	0	43	104	0	66	21266
2026-01-26 09:45:03.37	157.42	11.24	-48.0	-62.8	3.8	1.49e+00	0	43	104	0	66	21249
2026-01-26 09:45:04.37	157.43	11.33	-48.0	-62.9	3.8	1.49e+00	0	43	104	0	66	21324
2026-01-26 09:45:05.39	157.45	11.42	-48.0	-62.9	3.8	1.49e+00	0	43	104	0	66	21278
2026-01-26 09:45:06.40	157.46	11.52	-48.0	-62.9	3.8	1.49e+00	0	43	104	0	66	21323
2026-01-26 09:45:07.40	157.47	11.61	-48.0	-62.9	3.8	1.49e+00	0	43	104	0	66	21314
2026-01-26 09:45:08.41	157.48	11.70	-48.0	-62.9	3.8	1.49e+00	0	43	104	0	66	21266
2026-01-26 09:45:09.42	157.50	11.80	-48.0	-62.9	3.8	1.49e+00	0	43	104	0	66	21349
2026-01-26 09:45:10.43	157.51	11.89	-48.0	-62.9	3.8	1.49e+00	0	43	104	0	66	21338
2026-01-26 09:45:11.43	157.52	11.99	-48.0	-62.9	3.8	1.49e+00	0	43	104	0	66	21300
2026-01-26 09:45:12.44	157.53	12.08	-48.0	-62.9	3.8	1.49e+00	0	43	104	0	66	21305
2026-01-26 09:45:13.45	157.55	12.18	-48.0	-62.9	3.8	1.49e+00	0	43	104	0	66	21309
2026-01-26 09:45:14.46	157.56	12.27	-48.0	-62.9	3.8	1.49e+00	0	43	104	0	66	21304
2026-01-26 09:45:15.47	157.57	12.37	-48.0	-62.9	3.8	1.49e+00	0	43	104	0	66	21279
2026-01-26 09:45:16.47	157.59	12.47	-48.0	-62.9	3.8	1.49e+00	0	43	104	0	66	21314
2026-01-26 09:45:17.48	157.60	12.56	-48.0	-62.9	3.8	1.49e+00	0	43	104	0	66	21278
2026-01-26 09:45:18.49	157.61	12.66	-48.0	-62.9	3.8	1.49e+00	0	43	104	0	66	21315
2026-01-26 09:45:19.49	157.63	12.76	-48.0	-62.9	3.8	1.49e+00	0	43	104	0	66	21288
2026-01-26 09:45:20.50	157.64	12.86	-48.0	-62.9	3.8	1.49e+00	0	43	104	0	66	21265
2026-01-26 09:45:21.51	157.65	12.96	-48.0	-62.9	3.8	1.49e+00	0	43	104	0	66	21328
2026-01-26 09:45:22.52	157.67	13.06	-48.0	-62.9	3.8	1.49e+00	0	43	104	0	66	21300
2026-01-26 09:45:23.53	157.68	13.16	-48.0	-62.9	3.8	1.49e+00	0	43	104	0	66	21292
2026-01-26 09:45:24.54	157.69	13.26	-48.0	-62.9	3.8	1.49e+00	0	43	104	0	66	21269
2026-01-26 09:45:25.55	157.71	13.36	-48.0	-62.9	3.8	1.49e+00	0	43	104	0	66	21316
2026-01-26 09:45:26.56	157.72	13.46	-48.0	-62.9	3.8	1.49e+00	0	43	104	0	66	21286
2026-01-26 09:45:27.57	157.73	13.56	-48.0	-62.9	3.8	1.49e+00	0	43	104	0	66	21310
2026-01-26 09:45:28.57	157.75	13.66	-48.0	-62.9	3.8	1.49e+00	0	43	104	0	66	21283
2026-01-26 09:45:29.58	157.76	13.76	-48.0	-62.9	3.8	1.49e+00	0	43	104	0	66	21301
2026-01-26 09:45:30.59	157.77	13.86	-48.0	-62.9	3.8	1.49e+00	0	43	104	0	66	21291
2026-01-26 09:45:31.59	157.79	13.97	-48.0	-62.8	3.8	1.49e+00	0	43	104	0	66	21236
2026-01-26 09:45:32.60	157.80	14.07	-48.0	-62.9	3.8	1.49e+00	0	43	104	0	66	21329
2026-01-26 09:45:33.61	157.82	14.17	-48.0	-62.9	3.8	1.49e+00	0	43	104	0	66	21297
2026-01-26 09:45:34.62	157.83	14.28	-48.0	-62.9	3.8	1.49e+00	0	43	104	0	66	21314
2026-01-26 09:45:35.63	157.84	14.38	-48.0	-62.9	3.8	1.49e+00	0	43	104	0	66	21322
2026-01-26 09:45:36.64	157.86	14.49	-48.0	-62.9	3.8	1.49e+00	0	43	104	0	66	21280
2026-01-26 09:45:37.65	157.87	14.59	-48.0	-62.9	3.8	1.49e+00	0	43	104	0	66	21287
2026-01-26 09:45:38.66	157.89	14.70	-48.0	-62.9	3.8	1.49e+00	0	43	104	0	66	21304
2026-01-26 09:45:39.67	157.90	14.81	-48.0	-62.9	3.8	1.49e+00	0	43	104	0	66	21285
2026-01-26 09:45:40.68	157.92	14.91	-48.0	-62.8	3.8	1.49e+00	0	43	104	0	66	21254
2026-01-26 09:45:41.69	157.93	15.02	-48.0	-62.9	3.8	1.49e+00	0	43	104	0	66	21318
2026-01-26 09:45:42.69	157.95	15.13	-48.0	-62.9	3.8	1.49e+00	0	43	104	0	66	21357
2026-01-26 09:45:43.70	157.96	15.24	-48.0	-62.9	3.8	1.49e+00	0	43	104	0	66	21344
2026-01-26 09:45:44.71	157.98	15.35	-48.0	-62.9	3.8	1.49e+00	0	43	104	0	66	21342
2026-01-26 09:45:45.71	157.99	15.46	-48.0	-62.9	3.8	1.49e+00	0	43	104	0	66	21295
2026-01-26 09:45:46.72	158.01	15.57	-48.0	-62.9	3.8	1.49e+00	0	43	104	0	66	21285
2026-01-26 09:45:47.73	158.02	15.68	-48.0	-62.9	3.8	1.49e+00	0	43	104	0	66	21285
2026-01-26 09:45:48.74	158.04	15.79	-48.0	-62.9	3.8	1.49e+00	0	43	104	0	66	21311
2026-01-26 09:45:49.75	158.05	15.90	-48.0	-62.9	3.8	1.49e+00	0	43	104	0	66	21346
2026-01-26 09:45:50.76	158.07	16.01	-48.0	-62.9	3.8	1.49e+00	0	43	104	0	66	21292
2026-01-26 09:45:51.77	158.08	16.12	-48.0	-62.9	3.8	1.49e+00	0	43	104	0	66	21261
2026-01-26 09:45:52.77	158.10	16.24	-48.0	-62.9	3.8	1.49e+00	0	43	104	0	66	21283
2026-01-26 09:45:53.78	158.11	16.35	-48.0	-62.9	3.8	1.49e+00	0	43	104	0	66	21285
2026-01-26 09:45:54.79	158.13	16.46	-48.0	-62.8	3.8	1.49e+00	0	43	104	0	66	21248
2026-01-26 09:45:55.79	158.15	16.58	-48.0	-62.9	3.8	1.49e+00	0	43	104	0	66	21273
2026-01-26 09:45:56.80	158.16	16.69	-48.0	-62.9	3.8	1.49e+00	0	43	104	0	66	21327
2026-01-26 09:45:57.81	158.18	16.81	-48.0	-62.9	3.8	1.49e+00	0	43	104	0	66	21299
2026-01-26 09:45:58.82	158.19	16.93	-48.0	-62.9	3.8	1.49e+00	0	43	104	0	66	21302
2026-01-26 09:45:59.83	158.21	17.04	-48.0	-62.8	3.8	1.49e+00	0	43	104	0	66	21257
2026-01-26 09:46:00.84	158.23	17.16	-48.0	-62.8	3.8	1.49e+00	0	43	104	0	66	21258
2026-01-26 09:46:01.85	158.24	17.28	-48.0	-62.9	3.8	1.49e+00	0	43	104	0	66	21321
2026-01-26 09:46:02.86	158.26	17.40	-48.0	-62.9	3.8	1.49e+00	0	43	104	0	66	21337
2026-01-26 09:46:03.87	158.28	17.52	-48.0	-62.9	3.8	1.49e+00	0	43	104	0	66	21302
2026-01-26 09:46:04.88	158.29	17.64	-48.0	-62.9	3.8	1.49e+00	0	43	104	0	66	21308
2026-01-26 09:46:05.89	158.31	17.76	-48.0	-62.9	3.8	1.49e+00	0	43	104	0	66	21265
2026-01-26 09:46:06.90	158.33	17.88	-48.0	-62.9	3.8	1.49e+00	0	43	104	0	66	21305
2026-01-26 09:46:07.91	158.34	18.00	-48.0	-62.9	3.8	1.49e+00	0	43	104	0	66	21332
2026-01-26 09:46:08.91	158.36	18.12	-48.0	-62.8	3.8	1.49e+00	0	43	104	0	66	21246
2026-01-26 09:46:09.92	158.38	18.24	-48.0	-62.9	3.8	1.49e+00	0	43	104	0	66	21338
2026-01-26 09:46:10.93	158.40	18.37	-48.0	-62.9	3.8	1.49e+00	0	43	104	0	66	21303
2026-01-26 09:46:11.93	158.41	18.49	-48.0	-62.8	3.8	1.49e+00	0	43	104	0	66	21253
2026-01-26 09:46:12.95	158.43	18.61	-48.0	-62.9	3.8	1.49e+00	0	43	104	0	66	21322
2026-01-26 09:46:13.95	158.45	18.74	-48.0	-62.9	3.8	1.49e+00	0	43	104	0	66	21288
2026-01-26 09:46:14.96	158.47	18.86	-48.0	-62.9	3.8	1.49e+00	0	43	104	0	66	21275
2026-01-26 09:46:15.97	158.49	18.99	-48.0	-62.9	3.8	1.49e+00	0	43	104	0	66	21294
2026-01-26 09:46:16.98	158.50	19.12	-48.0	-62.9	3.8	1.49e+00	0	43	104	0	66	21317
2026-01-26 09:46:17.99	158.52	19.25	-48.0	-62.8	3.8	1.49e+00	0	43	104	0	66	21259
2026-01-26 09:46:18.99	158.54	19.37	-48.0	-62.9	3.8	1.49e+00	0	43	104	0	66	21354
2026-01-26 09:46:20.00	158.56	19.50	-48.0	-62.9	3.8	1.49e+00	0	43	104	0	66	21316
2026-01-26 09:46:21.01	158.58	19.63	-48.0	-62.9	3.8	1.49e+00	0	43	104	0	66	21284
2026-01-26 09:46:22.01	158.60	19.76	-48.0	-62.9	3.8	1.49e+00	0	43	104	0	66	21292
2026-01-26 09:46:23.02	158.61	19.89	-48.0	-62.8	3.8	1.49e+00	0	43	104	0	66	21235
2026-01-26 09:46:24.03	158.63	20.02	-48.0	-62.8	3.8	1.49e+00	0	43	104	0	66	21259
2026-01-26 09:46:25.03	158.65	20.16	-48.0	-62.9	3.8	1.49e+00	0	43	104	0	66	21270
2026-01-26 09:46:26.05	158.67	20.29	-48.0	-62.9	3.8	1.49e+00	0	43	104	0	66	21311
2026-01-26 09:46:27.06	158.69	20.42	-48.0	-62.9	3.8	1.49e+00	0	43	104	0	66	21325
2026-01-26 09:46:28.06	158.71	20.56	-48.0	-62.9	3.8	1.49e+00	0	43	104	0	66	21303
2026-01-26 09:46:29.07	158.73	20.69	-48.0	-62.9	3.8	1.49e+00	0	43	104	0	66	21272
2026-01-26 09:46:30.08	158.75	20.83	-48.0	-62.9	3.8	1.49e+00	0	43	104	0	66	21296
2026-01-26 09:46:31.09	158.77	20.97	-48.0	-62.9	3.8	1.49e+00	0	43	104	0	66	21293
2026-01-26 09:46:32.10	158.79	21.10	-48.0	-62.9	3.8	1.49e+00	0	43	104	0	66	21337
2026-01-26 09:46:33.10	158.81	21.24	-48.0	-62.8	3.8	1.49e+00	0	43	104	0	66	21249
2026-01-26 09:46:34.11	158.83	21.38	-48.0	-62.9	3.8	1.49e+00	0	43	104	0	66	21281
2026-01-26 09:46:35.12	158.85	21.52	-48.0	-62.9	3.8	1.49e+00	0	43	104	0	66	21321
2026-01-26 09:46:36.12	158.87	21.66	-48.0	-62.8	3.8	1.49e+00	0	43	104	0	66	21241
2026-01-26 09:46:37.13	158.89	21.80	-48.0	-62.9	3.8	1.49e+00	0	43	104	0	66	21361
2026-01-26 09:46:38.14	158.91	21.94	-48.0	-62.9	3.8	1.49e+00	0	43	104	0	66	21299
2026-01-26 09:46:39.14	158.94	22.09	-48.0	-62.9	3.8	1.49e+00	0	43	104	0	66	21295
2026-01-26 09:46:40.15	158.96	22.23	-48.0	-62.9	3.8	1.49e+00	0	43	104	0	66	21345
2026-01-26 09:46:41.16	158.98	22.37	-48.0	-62.9	3.8	1.49e+00	0	43	104	0	66	21349
2026-01-26 09:46:42.17	159.00	22.52	-48.0	-62.9	3.8	1.49e+00	0	43	104	0	66	21280
2026-01-26 09:46:43.17	159.02	22.66	-48.0	-62.9	3.8	1.49e+00	0	43	104	0	66	21283
2026-01-26 09:46:44.18	159.04	22.81	-48.0	-62.9	3.8	1.49e+00	0	43	104	0	66	21321
2026-01-26 09:46:45.19	159.07	22.96	-48.0	-62.9	3.8	1.49e+00	0	43	104	0	66	21282
2026-01-26 09:46:46.20	159.09	23.11	-47.9	-62.9	3.8	1.49e+00	0	43	104	0	66	21275
2026-01-26 09:46:47.21	159.11	23.26	-48.0	-62.9	3.8	1.49e+00	0	43	104	0	66	21265
2026-01-26 09:46:48.21	159.13	23.41	-48.0	-62.8	3.8	1.49e+00	0	43	104	0	66	21248
2026-01-26 09:46:49.22	159.16	23.56	-48.0	-62.9	3.8	1.49e+00	0	43	104	0	66	21353
2026-01-26 09:46:50.22	159.18	23.71	-48.0	-62.9	3.8	1.49e+00	0	43	104	0	66	21313
2026-01-26 09:46:51.23	159.20	23.86	-48.0	-62.8	3.8	1.49e+00	0	43	104	0	66	21221
2026-01-26 09:46:52.24	159.23	24.02	-48.0	-62.9	3.8	1.49e+00	0	43	104	0	66	21292
2026-01-26 09:46:53.24	159.25	24.17	-48.0	-62.8	3.8	1.49e+00	0	43	104	0	66	21249
2026-01-26 09:46:54.25	159.27	24.33	-48.0	-62.9	3.8	1.49e+00	0	43	104	0	66	21302
2026-01-26 09:46:55.26	159.30	24.48	-48.0	-62.9	3.8	1.49e+00	0	43	104	0	66	21300
2026-01-26 09:46:56.27	159.32	24.64	-48.0	-62.9	3.8	1.49e+00	0	43	104	0	66	21309
2026-01-26 09:46:57.28	159.35	24.80	-48.0	-62.9	3.8	1.49e+00	0	43	104	0	66	21285
2026-01-26 09:46:58.29	159.37	24.96	-48.0	-62.9	3.8	1.49e+00	0	43	104	0	66	21294
2026-01-26 09:46:59.29	159.40	25.12	-48.0	-62.8	3.8	1.49e+00	0	43	104	0	66	21224
2026-01-26 09:47:00.30	159.42	25.28	-48.0	-62.9	3.8	1.49e+00	0	43	104	0	66	21272
2026-01-26 09:47:01.30	159.45	25.44	-48.0	-62.8	3.8	1.49e+00	0	43	104	0	66	21258
2026-01-26 09:47:02.31	159.47	25.61	-48.0	-62.9	3.8	1.49e+00	0	43	104	0	66	21284
2026-01-26 09:47:03.32	159.50	25.77	-48.0	-62.9	3.8	1.49e+00	0	44	104	0	66	21326
2026-01-26 09:47:04.33	159.52	25.94	-48.0	-62.8	3.8	1.49e+00	0	43	104	0	66	21248
2026-01-26 09:47:05.34	159.55	26.10	-48.0	-62.9	3.8	1.49e+00	0	43	104	0	66	21321
2026-01-26 09:47:06.35	159.58	26.27	-48.0	-62.9	3.8	1.49e+00	0	43	104	0	66	21300
2026-01-26 09:47:07.35	159.60	26.44	-48.0	-62.9	3.8	1.49e+00	0	43	104	0	66	21295
2026-01-26 09:47:08.36	159.63	26.61	-48.0	-62.9	3.8	1.49e+00	0	43	104	0	66	21325
2026-01-26 09:47:09.37	159.66	26.78	-48.0	-62.9	3.8	1.49e+00	0	43	104	0	66	21273
2026-01-26 09:47:10.37	159.69	26.95	-48.0	-62.9	3.8	1.49e+00	0	43	104	0	66	21317
2026-01-26 09:47:11.38	159.71	27.12	-48.0	-62.9	3.8	1.49e+00	0	43	104	0	66	21295
2026-01-26 09:47:12.39	159.74	27.30	-48.0	-62.9	3.8	1.49e+00	0	43	104	0	66	21267
2026-01-26 09:47:13.40	159.77	27.47	-48.0	-62.9	3.8	1.49e+00	0	43	104	0	66	21338
2026-01-26 09:47:14.40	159.80	27.65	-48.0	-62.9	3.8	1.49e+00	0	43	104	0	66	21331
2026-01-26 09:47:15.41	159.83	27.82	-48.0	-62.9	3.8	1.49e+00	0	43	104	0	66	21262
2026-01-26 09:47:16.42	159.86	28.00	-48.0	-62.9	3.8	1.49e+00	0	44	104	0	66	21316
2026-01-26 09:47:17.43	159.88	28.18	-48.0	-62.9	3.8	1.49e+00	0	43	104	0	66	21301
2026-01-26 09:47:18.44	159.91	28.36	-48.0	-62.9	3.8	1.49e+00	0	43	104	0	66	21277
2026-01-26 09:47:19.45	159.94	28.55	-48.0	-62.9	3.8	1.49e+00	0	43	104	0	66	21311
2026-01-26 09:47:20.46	159.97	28.73	-48.0	-62.8	3.8	1.49e+00	0	43	104	0	66	21222
2026-01-26 09:47:21.47	160.01	28.91	-48.0	-62.9	3.8	1.49e+00	0	43	104	0	66	21319
2026-01-26 09:47:22.48	160.04	29.10	-48.0	-62.9	3.8	1.49e+00	0	43	104	0	66	21290
2026-01-26 09:47:23.48	160.07	29.28	-48.0	-62.9	3.8	1.49e+00	0	43	104	0	66	21281
2026-01-26 09:47:24.48	160.10	29.47	-48.0	-62.9	3.8	1.49e+00	0	43	104	0	66	21265
2026-01-26 09:47:25.49	160.13	29.66	-48.0	-62.9	3.8	1.49e+00	0	43	104	0	66	21310
2026-01-26 09:47:26.50	160.16	29.85	-48.0	-62.8	3.8	1.49e+00	0	43	104	0	66	21229
2026-01-26 09:47:27.51	160.20	30.04	-48.0	-62.8	3.8	1.49e+00	0	43	104	0	66	21260
2026-01-26 09:47:28.51	160.23	30.23	-48.0	-62.9	3.8	1.49e+00	0	43	104	0	66	21278
2026-01-26 09:47:29.52	160.26	30.43	-48.0	-62.8	3.8	1.49e+00	0	43	104	0	66	21241
2026-01-26 09:47:30.53	160.29	30.62	-48.0	-62.9	3.8	1.49e+00	0	43	104	0	66	21282
2026-01-26 09:47:31.54	160.33	30.82	-48.0	-62.9	3.8	1.49e+00	0	43	104	0	66	21284
2026-01-26 09:47:32.55	160.36	31.02	-48.0	-62.8	3.8	1.49e+00	0	43	104	0	66	21244
2026-01-26 09:47:33.56	160.40	31.22	-48.0	-62.9	3.8	1.49e+00	0	43	104	0	66	21298
2026-01-26 09:47:34.56	160.43	31.42	-48.0	-62.9	3.8	1.49e+00	0	43	104	0	66	21300
2026-01-26 09:47:35.57	160.47	31.62	-48.0	-62.9	3.8	1.49e+00	0	43	104	0	66	21277
2026-01-26 09:47:36.58	160.50	31.83	-48.0	-62.9	3.8	1.49e+00	0	43	104	0	66	21319
2026-01-26 09:47:37.59	160.54	32.03	-48.0	-62.8	3.8	1.49e+00	0	43	104	0	66	21218
2026-01-26 09:47:38.59	160.58	32.24	-48.0	-62.9	3.8	1.49e+00	0	43	104	0	66	21314
2026-01-26 09:47:39.60	160.61	32.45	-48.0	-62.8	3.8	1.49e+00	0	43	104	0	66	21255
2026-01-26 09:47:40.61	160.65	32.65	-48.0	-62.8	3.8	1.49e+00	0	43	104	0	66	21256
2026-01-26 09:47:41.61	160.69	32.86	-48.0	-62.9	3.8	1.49e+00	0	43	104	0	66	21298
2026-01-26 09:47:42.62	160.73	33.08	-48.0	-62.9	3.8	1.49e+00	0	43	104	0	66	21284
2026-01-26 09:47:43.63	160.77	33.29	-48.0	-62.9	3.8	1.49e+00	0	43	104	0	66	21272
2026-01-26 09:47:44.63	160.80	33.50	-48.0	-62.8	3.8	1.49e+00	0	43	104	0	66	21240
2026-01-26 09:47:45.64	160.84	33.72	-48.0	-62.9	3.8	1.49e+00	0	43	104	0	66	21346
2026-01-26 09:47:46.65	160.88	33.94	-48.0	-62.9	3.8	1.49e+00	0	43	104	0	66	21312
2026-01-26 09:47:47.66	160.93	34.16	-48.0	-62.9	3.8	1.49e+00	0	43	104	0	66	21281
2026-01-26 09:47:48.66	160.97	34.38	-48.0	-62.9	3.8	1.49e+00	0	43	104	0	66	21277
2026-01-26 09:47:49.67	161.01	34.60	-48.0	-62.9	3.8	1.49e+00	0	43	104	0	66	21310
2026-01-26 09:47:50.68	161.05	34.83	-48.0	-62.9	3.8	1.49e+00	0	43	104	0	66	21272
2026-01-26 09:47:51.68	161.09	35.05	-48.0	-62.8	3.8	1.49e+00	0	43	104	0	66	21260
2026-01-26 09:47:52.69	161.14	35.28	-48.0	-62.9	3.8	1.49e+00	0	43	104	0	66	21299
2026-01-26 09:47:53.70	161.18	35.51	-48.0	-62.8	3.8	1.49e+00	0	43	104	0	66	21234
2026-01-26 09:47:54.71	161.23	35.74	-48.0	-62.9	3.8	1.49e+00	0	43	104	0	66	21330
2026-01-26 09:47:55.72	161.27	35.98	-48.0	-62.9	3.8	1.49e+00	0	43	104	0	66	21273
2026-01-26 09:47:56.73	161.32	36.21	-48.0	-62.9	3.8	1.49e+00	0	43	104	0	66	21328
2026-01-26 09:47:57.73	161.36	36.44	-48.0	-62.9	3.8	1.49e+00	0	43	104	0	66	21314
2026-01-26 09:47:58.74	161.41	36.68	-48.0	-62.9	3.8	1.49e+00	0	43	104	0	66	21270
2026-01-26 09:47:59.75	161.46	36.92	-48.0	-62.9	3.8	1.49e+00	0	43	104	0	66	21271
2026-01-26 09:48:00.75	161.50	37.16	-48.0	-62.9	3.8	1.49e+00	0	43	104	0	66	21302
2026-01-26 09:48:01.76	161.55	37.41	-48.0	-62.8	3.8	1.49e+00	0	43	104	0	66	21257
2026-01-26 09:48:02.77	161.60	37.65	-48.0	-62.9	3.8	1.49e+00	0	43	104	0	66	21312
2026-01-26 09:48:03.78	161.65	37.90	-48.0	-62.8	3.8	1.49e+00	0	43	104	0	66	21212
2026-01-26 09:48:04.79	161.70	38.15	-48.0	-62.9	3.8	1.49e+00	0	43	104	0	66	21303
2026-01-26 09:48:05.79	161.75	38.39	-48.0	-62.9	3.8	1.49e+00	0	43	104	0	66	21303
2026-01-26 09:48:06.80	161.81	38.65	-48.0	-62.9	3.8	1.49e+00	0	43	104	0	66	21272
2026-01-26 09:48:07.81	161.86	38.90	-48.0	-62.9	3.8	1.49e+00	0	43	104	0	66	21287
2026-01-26 09:48:08.82	161.91	39.16	-48.0	-62.9	3.8	1.49e+00	0	43	104	0	66	21352
2026-01-26 09:48:09.83	161.97	39.42	-48.0	-62.9	3.8	1.49e+00	0	43	104	0	66	21292
2026-01-26 09:48:10.84	162.02	39.68	-48.0	-62.8	3.8	1.49e+00	0	43	104	0	66	21236
2026-01-26 09:48:11.85	162.08	39.94	-48.0	-62.9	3.8	1.49e+00	0	43	104	0	66	21261
2026-01-26 09:48:12.86	162.14	40.20	-48.0	-62.9	3.8	1.49e+00	0	43	104	0	66	21304
2026-01-26 09:48:13.87	162.20	40.47	-48.0	-62.9	3.8	1.49e+00	0	43	104	0	66	21268
2026-01-26 09:48:14.87	162.25	40.73	-48.0	-62.8	3.8	1.49e+00	0	43	104	0	66	21230
2026-01-26 09:48:15.88	162.31	41.00	-48.0	-62.9	3.8	1.49e+00	0	43	104	0	66	21298
2026-01-26 09:48:16.89	162.38	41.27	-48.0	-62.9	3.8	1.49e+00	0	43	104	0	66	21284
2026-01-26 09:48:17.89	162.44	41.54	-48.0	-62.9	3.8	1.49e+00	0	43	104	0	66	21265
2026-01-26 09:48:18.90	162.50	41.82	-48.0	-62.9	3.8	1.49e+00	0	43	104	0	66	21294
2026-01-26 09:48:19.91	162.56	42.10	-48.0	-62.9	3.8	1.49e+00	0	43	104	0	66	21275
2026-01-26 09:48:20.92	162.63	42.38	-48.0	-62.9	3.8	1.49e+00	0	43	104	0	66	21296
2026-01-26 09:48:21.92	162.69	42.66	-48.0	-62.9	3.8	1.49e+00	0	43	104	0	66	21290
2026-01-26 09:48:22.93	162.76	42.94	-48.0	-62.9	3.8	1.49e+00	0	43	104	0	66	21319
2026-01-26 09:48:23.94	162.83	43.23	-48.0	-62.9	3.8	1.49e+00	0	43	104	0	66	21290
2026-01-26 09:48:24.95	162.90	43.52	-48.0	-62.9	3.8	1.49e+00	0	43	104	0	66	21278
2026-01-26 09:48:25.96	162.97	43.81	-48.0	-62.9	3.8	1.49e+00	0	43	104	0	66	21281
2026-01-26 09:48:26.97	163.04	44.10	-48.0	-62.9	3.8	1.49e+00	0	43	104	0	66	21266
2026-01-26 09:48:27.97	163.11	44.39	-48.0	-62.9	3.8	1.49e+00	0	43	104	0	66	21325
2026-01-26 09:48:28.98	163.19	44.69	-48.0	-62.9	3.8	1.49e+00	0	43	104	0	66	21268
2026-01-26 09:48:29.99	163.26	44.99	-48.0	-62.9	3.8	1.49e+00	0	43	104	0	66	21297
2026-01-26 09:48:30.99	163.34	45.28	-48.0	-62.9	3.8	1.49e+00	0	43	104	0	66	21305
2026-01-26 09:48:32.00	163.42	45.59	-48.0	-62.8	3.8	1.49e+00	0	43	104	0	66	21258
2026-01-26 09:48:33.01	163.50	45.89	-48.0	-62.9	3.8	1.49e+00	0	43	104	0	66	21263
2026-01-26 09:48:34.02	163.58	46.20	-48.0	-62.9	3.8	1.49e+00	0	43	104	0	66	21264
2026-01-26 09:48:35.03	163.66	46.51	-48.0	-62.9	3.8	1.49e+00	0	43	104	0	66	21277
2026-01-26 09:48:36.03	163.75	46.82	-48.0	-62.8	3.8	1.49e+00	0	43	104	0	66	21246
2026-01-26 09:48:37.04	163.83	47.14	-48.0	-62.9	3.8	1.49e+00	0	43	104	0	66	21306
2026-01-26 09:48:38.04	163.92	47.45	-48.0	-62.9	3.8	1.49e+00	0	43	104	0	66	21278
2026-01-26 09:48:39.05	164.01	47.77	-48.0	-62.9	3.8	1.49e+00	0	43	104	0	66	21317
2026-01-26 09:48:40.06	164.10	48.09	-48.0	-62.9	3.8	1.49e+00	0	43	104	0	66	21281
2026-01-26 09:48:41.07	164.19	48.42	-48.0	-62.9	3.8	1.49e+00	0	43	104	0	66	21359
2026-01-26 09:48:42.08	164.29	48.74	-48.0	-62.9	3.8	1.49e+00	0	43	104	0	66	21290
2026-01-26 09:48:43.08	164.38	49.07	-48.0	-62.9	3.8	1.49e+00	0	43	104	0	66	21290
2026-01-26 09:48:44.09	164.48	49.40	-48.0	-62.9	3.8	1.49e+00	0	43	104	0	66	21294
2026-01-26 09:48:45.09	164.58	49.73	-48.0	-62.9	3.8	1.49e+00	0	43	104	0	66	21265
2026-01-26 09:48:46.11	164.69	50.07	-48.0	-62.9	3.8	1.49e+00	0	43	104	0	66	21299
2026-01-26 09:48:47.11	164.79	50.40	-48.0	-62.9	3.8	1.49e+00	0	43	104	0	66	21305
2026-01-26 09:48:48.12	164.90	50.74	-48.0	-62.9	3.8	1.49e+00	0	43	104	0	66	21300
2026-01-26 09:48:49.12	165.01	51.08	-48.0	-62.9	3.8	1.49e+00	0	43	104	0	66	21311
2026-01-26 09:48:50.13	165.12	51.43	-48.0	-62.8	3.8	1.49e+00	0	43	104	0	66	21243
2026-01-26 09:48:51.14	165.23	51.78	-48.0	-62.9	3.8	1.49e+00	0	43	104	0	66	21319
2026-01-26 09:48:52.15	165.35	52.13	-48.0	-62.9	3.8	1.49e+00	0	43	104	0	66	21324
2026-01-26 09:48:53.15	165.47	52.48	-48.0	-62.8	3.8	1.49e+00	0	43	104	0	66	21242
2026-01-26 09:48:54.16	165.59	52.83	-48.0	-62.9	3.8	1.49e+00	0	43	104	0	66	21272
2026-01-26 09:48:55.17	165.72	53.19	-48.0	-62.9	3.8	1.49e+00	0	43	104	0	66	21305
2026-01-26 09:48:56.18	165.85	53.55	-48.0	-62.9	3.8	1.49e+00	0	43	104	0	66	21281
2026-01-26 09:48:57.18	165.98	53.91	-48.0	-62.9	3.8	1.49e+00	0	43	104	0	66	21298
2026-01-26 09:48:58.19	166.12	54.27	-48.0	-62.9	3.8	1.49e+00	0	43	104	0	66	21297
2026-01-26 09:48:59.20	166.25	54.64	-48.0	-62.8	3.8	1.49e+00	0	43	104	0	66	21256
2026-01-26 09:49:00.21	166.40	55.01	-48.0	-62.9	3.8	1.49e+00	0	43	104	0	66	21261
2026-01-26 09:49:01.21	166.54	55.38	-48.0	-62.8	3.8	1.49e+00	0	43	104	0	66	21254
2026-01-26 09:49:02.22	166.69	55.75	-48.0	-62.9	3.8	1.49e+00	0	43	104	0	66	21306
2026-01-26 09:49:03.23	166.84	56.13	-48.0	-62.9	3.8	1.49e+00	0	43	104	0	66	21264
2026-01-26 09:49:04.24	167.00	56.51	-48.0	-62.9	3.8	1.49e+00	0	44	104	0	66	21274
2026-01-26 09:49:05.25	167.17	56.89	-48.0	-62.9	3.8	1.49e+00	0	43	104	0	66	21281
2026-01-26 09:49:06.26	167.33	57.27	-48.0	-62.9	3.8	1.49e+00	0	43	104	0	66	21267
2026-01-26 09:49:07.27	167.50	57.66	-48.0	-62.9	3.8	1.49e+00	0	43	104	0	66	21310
2026-01-26 09:49:08.28	167.68	58.05	-48.0	-62.9	3.8	1.49e+00	0	44	104	0	66	21294
2026-01-26 09:49:09.29	167.86	58.44	-48.0	-62.9	3.8	1.49e+00	0	43	104	0	66	21318
2026-01-26 09:49:10.30	168.05	58.83	-48.0	-62.9	3.8	1.49e+00	0	43	104	0	66	21303
2026-01-26 09:49:11.30	168.24	59.22	-48.0	-62.9	3.8	1.49e+00	0	43	104	0	66	21344
2026-01-26 09:49:12.31	168.44	59.62	-48.0	-62.8	3.8	1.49e+00	0	43	104	0	66	21255
2026-01-26 09:49:13.32	168.64	60.02	-48.0	-62.9	3.8	1.49e+00	0	43	104	0	66	21289
2026-01-26 09:49:14.33	168.85	60.42	-48.0	-62.9	3.8	1.49e+00	0	43	104	0	66	21295
2026-01-26 09:49:15.34	169.07	60.83	-48.0	-62.8	3.8	1.49e+00	0	43	104	0	66	21244
2026-01-26 09:49:16.35	169.29	61.23	-48.0	-62.9	3.8	1.49e+00	0	43	104	0	66	21312
2026-01-26 09:49:17.36	169.52	61.64	-48.0	-62.8	3.8	1.49e+00	0	43	104	0	66	21249
2026-01-26 09:49:18.37	169.76	62.05	-48.0	-62.9	3.8	1.49e+00	0	44	104	0	66	21322
2026-01-26 09:49:19.38	170.01	62.47	-48.0	-62.9	3.8	1.49e+00	0	43	104	0	66	21302
2026-01-26 09:49:20.39	170.26	62.88	-48.0	-62.9	3.8	1.49e+00	0	43	104	0	66	21300
2026-01-26 09:49:21.40	170.53	63.30	-48.0	-62.9	3.8	1.49e+00	0	43	104	0	66	21276
2026-01-26 09:49:22.41	170.80	63.72	-48.0	-62.8	3.8	1.49e+00	0	43	104	0	66	21257
2026-01-26 09:49:23.42	171.08	64.14	-48.0	-62.9	3.8	1.49e+00	0	43	104	0	66	21278
2026-01-26 09:49:24.43	171.38	64.56	-48.0	-62.9	3.8	1.49e+00	0	43	104	0	66	21302
2026-01-26 09:49:25.44	171.68	64.99	-48.0	-62.9	3.8	1.49e+00	0	43	104	0	66	21271
2026-01-26 09:49:26.45	172.00	65.41	-48.0	-62.9	3.8	1.49e+00	0	44	104	0	66	21339
2026-01-26 09:49:27.45	172.32	65.84	-48.0	-62.9	3.8	1.49e+00	0	43	104	0	66	21324
2026-01-26 09:49:28.46	172.66	66.27	-48.0	-62.9	3.8	1.49e+00	0	43	104	0	66	21293
2026-01-26 09:49:29.47	173.02	66.70	-48.0	-62.9	3.8	1.49e+00	0	43	104	0	66	21272
2026-01-26 09:49:30.48	173.39	67.13	-48.0	-62.9	3.8	1.49e+00	0	43	104	0	66	21285
2026-01-26 09:49:31.49	173.77	67.56	-48.0	-62.9	3.8	1.49e+00	0	44	104	0	66	21360
2026-01-26 09:49:32.50	174.17	68.00	-48.0	-62.9	3.8	1.49e+00	0	43	104	0	66	21293
2026-01-26 09:49:33.50	174.59	68.43	-48.0	-62.9	3.8	1.49e+00	0	43	104	0	66	21284
2026-01-26 09:49:34.51	175.03	68.87	-48.0	-62.9	3.8	1.49e+00	0	43	104	0	66	21264
2026-01-26 09:49:35.52	175.48	69.31	-48.0	-62.9	3.8	1.49e+00	0	43	104	0	66	21284
2026-01-26 09:49:36.53	175.96	69.75	-48.0	-62.9	3.8	1.49e+00	0	43	104	0	66	21297
2026-01-26 09:49:37.54	176.46	70.18	-48.0	-62.9	3.8	1.49e+00	0	43	104	0	66	21278
2026-01-26 09:49:38.55	176.99	70.62	-48.0	-62.9	3.8	1.49e+00	0	43	104	0	66	21307
2026-01-26 09:49:39.55	177.53	71.06	-48.0	-62.8	3.8	1.49e+00	0	44	104	0	66	21246
2026-01-26 09:49:40.56	178.11	71.50	-48.0	-62.9	3.8	1.49e+00	0	43	104	0	66	21267
2026-01-26 09:49:41.57	178.72	71.94	-48.0	-62.9	3.8	1.49e+00	0	43	104	0	66	21342
2026-01-26 09:49:42.57	179.35	72.38	-48.0	-62.9	3.8	1.49e+00	0	43	104	0	66	21311
2026-01-26 09:49:43.58	180.02	72.82	-48.0	-62.9	3.8	1.49e+00	0	43	104	0	66	21311
2026-01-26 09:49:44.59	180.74	73.26	-48.0	-62.9	3.8	1.49e+00	0	43	104	0	66	21306
2026-01-26 09:49:45.59	181.48	73.69	-48.0	-62.8	3.8	1.49e+00	0	43	104	0	66	21259
2026-01-26 09:49:46.60	182.27	74.13	-48.0	-62.9	3.8	1.49e+00	0	43	104	0	66	21361
2026-01-26 09:49:47.61	183.11	74.56	-48.0	-62.9	3.8	1.49e+00	0	43	104	0	66	21359
2026-01-26 09:49:48.62	184.00	75.00	-48.0	-62.9	3.8	1.49e+00	0	43	104	0	66	21325
2026-01-26 09:49:49.62	184.94	75.43	-48.0	-62.9	3.8	1.49e+00	0	43	104	0	66	21308
2026-01-26 09:49:50.63	185.94	75.85	-48.0	-62.9	3.8	1.49e+00	0	43	104	0	66	21306
2026-01-26 09:49:51.64	187.01	76.28	-48.0	-62.9	3.8	1.49e+00	0	43	104	0	66	21318
2026-01-26 09:49:52.65	188.15	76.70	-48.0	-62.8	3.8	1.49e+00	0	43	104	0	66	21253
2026-01-26 09:49:53.66	189.36	77.12	-48.0	-62.9	3.8	1.49e+00	0	43	104	0	66	21298
2026-01-26 09:49:54.67	190.66	77.53	-48.0	-62.9	3.8	1.49e+00	0	43	104	0	66	21283
2026-01-26 09:49:55.68	192.05	77.94	-48.0	-62.9	3.8	1.49e+00	0	43	104	0	66	21350
2026-01-26 09:49:56.68	193.52	78.34	-48.0	-62.8	3.8	1.49e+00	0	43	104	0	66	21246
2026-01-26 09:49:57.69	195.12	78.73	-48.0	-62.9	3.8	1.49e+00	0	43	104	0	66	21314
2026-01-26 09:49:58.70	196.83	79.12	-48.0	-62.9	3.8	1.49e+00	0	43	104	0	66	21285
2026-01-26 09:49:59.70	198.64	79.49	-48.0	-62.9	3.8	1.49e+00	0	44	104	0	66	21265
2026-01-26 09:50:00.71	200.62	79.86	-48.0	-62.9	3.8	1.49e+00	0	44	104	0	66	21304
2026-01-26 09:50:01.72	202.73	80.21	-48.0	-62.9	3.8	1.49e+00	0	43	104	0	66	21290
2026-01-26 09:50:02.72	204.99	80.55	-48.0	-62.9	3.8	1.49e+00	0	43	104	0	66	21279
2026-01-26 09:50:03.73	207.43	80.87	-48.0	-62.9	3.8	1.49e+00	0	43	104	0	66	21280
2026-01-26 09:50:04.74	210.05	81.18	-48.0	-62.9	3.8	1.49e+00	0	44	104	0	66	21320
2026-01-26 09:50:05.75	212.86	81.47	-48.0	-62.9	3.8	1.49e+00	0	43	104	0	66	21266
2026-01-26 09:50:06.75	215.83	81.74	-48.0	-62.9	3.8	1.49e+00	0	43	104	0	66	21307
2026-01-26 09:50:07.75	218.99	81.98	-48.0	-62.9	3.8	1.49e+00	0	43	104	0	66	21271
2026-01-26 09:50:08.76	222.37	82.20	-48.0	-62.9	3.8	1.49e+00	0	43	104	0	66	21295
2026-01-26 09:50:09.77	225.94	82.39	-48.0	-62.9	3.8	1.49e+00	0	44	104	0	66	21319
2026-01-26 09:50:10.77	229.64	82.55	-48.0	-62.9	3.8	1.49e+00	0	44	104	0	66	21308
2026-01-26 09:50:11.78	233.52	82.68	-48.0	-62.9	3.8	1.49e+00	0	44	104	0	66	21295
2026-01-26 09:50:12.79	237.52	82.77	-48.0	-62.9	3.8	1.49e+00	0	43	104	0	66	21341
2026-01-26 09:50:13.79	241.57	82.83	-48.0	-62.9	3.8	1.49e+00	0	43	104	0	66	21289
2026-01-26 09:50:14.81	245.75	82.85	-48.0	-62.9	3.8	1.49e+00	0	43	104	0	66	21315
2026-01-26 09:50:15.81	249.85	82.84	-48.0	-62.9	3.8	1.49e+00	0	44	104	0	66	21267
2026-01-26 09:50:16.82	253.95	82.79	-48.0	-62.8	3.8	1.49e+00	0	43	104	0	66	21259
2026-01-26 09:50:17.83	257.97	82.70	-48.0	-62.9	3.8	1.49e+00	0	43	104	0	66	21296
2026-01-26 09:50:18.84	261.88	82.58	-48.0	-62.9	3.8	1.49e+00	0	43	104	0	66	21301
2026-01-26 09:50:19.84	265.61	82.42	-48.0	-62.9	3.8	1.49e+00	0	43	104	0	66	21321
2026-01-26 09:50:20.85	269.21	82.24	-48.0	-62.8	3.8	1.49e+00	0	43	104	0	66	21234
2026-01-26 09:50:21.86	272.62	82.02	-48.0	-62.9	3.8	1.49e+00	0	44	104	0	66	21278
2026-01-26 09:50:22.87	275.85	81.78	-48.0	-62.9	3.8	1.49e+00	0	44	104	0	66	21266
2026-01-26 09:50:23.88	278.88	81.52	-48.0	-62.8	3.8	1.49e+00	0	43	104	0	66	21253
2026-01-26 09:50:24.88	281.69	81.24	-48.0	-62.9	3.8	1.49e+00	0	43	104	0	66	21275
2026-01-26 09:50:25.89	284.34	80.93	-48.0	-62.9	3.8	1.49e+00	0	44	104	0	66	21290
2026-01-26 09:50:26.90	286.82	80.61	-48.0	-62.9	3.8	1.49e+00	0	43	104	0	66	21326
2026-01-26 09:50:27.91	289.12	80.27	-48.0	-62.9	3.8	1.49e+00	0	44	104	0	66	21279
2026-01-26 09:50:28.91	291.24	79.92	-48.0	-62.9	3.8	1.49e+00	0	43	104	0	66	21322
2026-01-26 09:50:29.92	293.24	79.56	-48.0	-62.8	3.8	1.49e+00	0	43	104	0	66	21232
2026-01-26 09:50:30.93	295.10	79.19	-48.0	-62.9	3.8	1.49e+00	0	43	104	0	66	21271
2026-01-26 09:50:31.94	296.83	78.80	-48.0	-62.9	3.8	1.49e+00	0	44	104	0	66	21269
2026-01-26 09:50:32.95	298.44	78.41	-48.0	-62.9	3.8	1.49e+00	0	43	104	0	66	21272
2026-01-26 09:50:33.96	299.94	78.01	-48.0	-62.9	3.8	1.49e+00	0	43	104	0	66	21301
2026-01-26 09:50:34.96	301.33	77.61	-48.0	-62.8	3.8	1.49e+00	0	44	104	0	66	21240
2026-01-26 09:50:35.97	302.65	77.20	-48.0	-62.8	3.8	1.49e+00	0	44	104	0	66	21256
2026-01-26 09:50:36.97	303.86	76.78	-48.0	-62.8	3.8	1.49e+00	0	44	104	0	66	21234
2026-01-26 09:50:37.98	305.01	76.36	-48.0	-62.9	3.8	1.49e+00	0	43	104	0	66	21320
2026-01-26 09:50:38.99	306.09	75.94	-48.0	-62.8	3.8	1.49e+00	0	43	104	0	66	21260
2026-01-26 09:50:39.99	307.10	75.51	-48.0	-62.9	3.8	1.49e+00	0	43	104	0	66	21314
2026-01-26 09:50:41.00	308.05	75.08	-48.0	-62.9	3.8	1.49e+00	0	43	104	0	66	21277
2026-01-26 09:50:42.00	308.95	74.65	-48.0	-62.9	3.8	1.49e+00	0	43	104	0	66	21267
2026-01-26 09:50:43.01	309.79	74.22	-48.0	-62.9	3.8	1.49e+00	0	44	104	0	66	21269
2026-01-26 09:50:44.01	310.59	73.79	-48.0	-62.9	3.8	1.49e+00	0	43	104	0	66	21279
2026-01-26 09:50:45.02	311.35	73.35	-48.0	-62.8	3.8	1.49e+00	0	44	104	0	66	21230
2026-01-26 09:50:46.03	312.06	72.91	-48.0	-62.9	3.8	1.49e+00	0	44	104	0	66	21312
2026-01-26 09:50:47.04	312.75	72.47	-48.0	-62.9	3.8	1.49e+00	0	44	104	0	66	21278
2026-01-26 09:50:48.05	313.39	72.03	-48.0	-62.8	3.8	1.49e+00	0	44	104	0	66	21258
2026-01-26 09:50:49.05	314.00	71.60	-48.0	-62.9	3.8	1.49e+00	0	44	104	0	66	21317
2026-01-26 09:50:50.06	314.58	71.16	-48.0	-62.9	3.8	1.49e+00	0	44	104	0	66	21336
2026-01-26 09:50:51.07	315.14	70.72	-48.0	-62.9	3.8	1.49e+00	0	44	104	0	66	21276
2026-01-26 09:50:52.07	315.66	70.28	-48.0	-62.8	3.8	1.49e+00	0	44	104	0	66	21227
2026-01-26 09:50:53.08	316.17	69.84	-48.0	-62.9	3.8	1.49e+00	0	44	104	0	66	21263
2026-01-26 09:50:54.09	316.65	69.40	-48.0	-62.9	3.8	1.49e+00	0	43	104	0	66	21294
2026-01-26 09:50:55.10	317.11	68.97	-48.0	-62.9	3.8	1.49e+00	0	43	104	0	66	21314
2026-01-26 09:50:56.11	317.55	68.53	-48.0	-62.8	3.8	1.49e+00	0	43	104	0	66	21249
2026-01-26 09:50:57.11	317.97	68.10	-48.0	-62.8	3.8	1.49e+00	0	44	104	0	66	21253
2026-01-26 09:50:58.12	318.37	67.66	-48.0	-62.9	3.8	1.49e+00	0	44	104	0	66	21267
2026-01-26 09:50:59.13	318.76	67.23	-48.0	-62.9	3.8	1.49e+00	0	43	104	0	66	21302
2026-01-26 09:51:00.14	319.13	66.80	-48.0	-62.9	3.8	1.49e+00	0	43	104	0	66	21296
2026-01-26 09:51:01.14	319.49	66.37	-48.0	-62.9	3.8	1.49e+00	0	43	104	0	66	21272
2026-01-26 09:51:02.15	319.83	65.94	-48.0	-62.9	3.8	1.49e+00	0	43	104	0	66	21271
2026-01-26 09:51:03.16	320.16	65.52	-48.0	-62.9	3.8	1.49e+00	0	43	104	0	66	21291
2026-01-26 09:51:04.16	320.48	65.10	-48.0	-62.9	3.8	1.49e+00	0	44	104	0	66	21294
2026-01-26 09:51:05.17	320.78	64.67	-48.0	-62.9	3.8	1.49e+00	0	43	104	0	66	21318
2026-01-26 09:51:06.18	321.08	64.25	-48.0	-62.9	3.8	1.49e+00	0	43	104	0	66	21268
2026-01-26 09:51:07.19	321.37	63.83	-48.0	-62.9	3.8	1.49e+00	0	43	104	0	66	21285
2026-01-26 09:51:08.20	321.64	63.41	-48.0	-62.8	3.8	1.49e+00	0	43	104	0	66	21253
2026-01-26 09:51:09.20	321.90	63.00	-48.0	-62.9	3.8	1.49e+00	0	43	104	0	66	21281
2026-01-26 09:51:10.21	322.16	62.58	-48.0	-62.9	3.8	1.49e+00	0	43	104	0	66	21293
2026-01-26 09:51:11.22	322.41	62.17	-48.0	-62.9	3.8	1.49e+00	0	43	104	0	66	21275
2026-01-26 09:51:12.22	322.65	61.76	-48.0	-62.8	3.8	1.49e+00	0	43	104	0	66	21250
2026-01-26 09:51:13.23	322.88	61.36	-48.0	-62.9	3.8	1.49e+00	0	43	104	0	66	21282
2026-01-26 09:51:14.24	323.11	60.95	-48.0	-62.9	3.8	1.49e+00	0	44	104	0	66	21264
2026-01-26 09:51:15.25	323.32	60.55	-48.0	-62.9	3.8	1.49e+00	0	43	104	0	66	21268
2026-01-26 09:51:16.25	323.53	60.15	-48.0	-62.8	3.8	1.49e+00	0	43	104	0	66	21256
2026-01-26 09:51:17.26	323.74	59.75	-48.0	-62.9	3.8	1.49e+00	0	43	104	0	66	21338
2026-01-26 09:51:18.26	323.94	59.35	-48.0	-62.9	3.8	1.49e+00	0	43	104	0	66	21280
2026-01-26 09:51:19.27	324.13	58.96	-48.0	-62.9	3.8	1.49e+00	0	44	104	0	66	21320
2026-01-26 09:51:20.28	324.32	58.57	-48.0	-62.9	3.8	1.49e+00	0	43	104	0	66	21318
2026-01-26 09:51:21.29	324.50	58.18	-48.0	-62.8	3.8	1.49e+00	0	44	104	0	66	21254
2026-01-26 09:51:22.29	324.68	57.79	-48.0	-62.8	3.8	1.49e+00	0	43	104	0	66	21259
2026-01-26 09:51:23.30	324.85	57.41	-48.0	-62.9	3.8	1.49e+00	0	44	104	0	66	21263
2026-01-26 09:51:24.31	325.02	57.02	-48.0	-62.9	3.8	1.49e+00	0	44	104	0	66	21280
2026-01-26 09:51:25.31	325.18	56.64	-48.0	-62.8	3.8	1.49e+00	0	44	104	0	66	21237
2026-01-26 09:51:26.32	325.34	56.27	-48.0	-62.8	3.8	1.49e+00	0	43	104	0	66	21250
2026-01-26 09:51:27.33	325.49	55.89	-48.0	-62.9	3.8	1.49e+00	0	43	104	0	66	21319
2026-01-26 09:51:28.34	325.64	55.52	-48.0	-62.9	3.8	1.49e+00	0	44	104	0	66	21287
2026-01-26 09:51:29.35	325.79	55.14	-48.0	-62.9	3.8	1.49e+00	0	43	104	0	66	21286
2026-01-26 09:51:30.36	325.93	54.77	-48.0	-62.8	3.8	1.49e+00	0	44	104	0	66	21255
2026-01-26 09:51:31.37	326.07	54.41	-48.0	-62.9	3.8	1.49e+00	0	43	104	0	66	21317
2026-01-26 09:51:32.37	326.21	54.05	-48.0	-62.9	3.8	1.49e+00	0	44	104	0	66	21289
2026-01-26 09:51:33.38	326.34	53.69	-48.0	-62.8	3.8	1.49e+00	0	43	104	0	66	21254
2026-01-26 09:51:34.39	326.47	53.33	-48.0	-62.8	3.8	1.49e+00	0	43	104	0	66	21255
2026-01-26 09:51:35.40	326.60	52.97	-48.0	-62.9	3.8	1.49e+00	0	43	104	0	66	21269
2026-01-26 09:51:36.40	326.72	52.62	-48.0	-62.8	3.8	1.49e+00	0	43	104	0	66	21243
2026-01-26 09:51:37.41	326.84	52.26	-48.0	-62.9	3.8	1.49e+00	0	43	104	0	66	21265
2026-01-26 09:51:38.41	326.96	51.92	-48.0	-62.8	3.8	1.49e+00	0	43	104	0	66	21251
2026-01-26 09:51:39.42	327.08	51.57	-48.0	-62.9	3.8	1.49e+00	0	43	104	0	66	21316
2026-01-26 09:51:40.43	327.19	51.23	-48.0	-62.9	3.8	1.49e+00	0	43	104	0	66	21293
2026-01-26 09:51:41.43	327.30	50.89	-48.0	-62.9	3.8	1.49e+00	0	43	104	0	66	21282
2026-01-26 09:51:42.44	327.41	50.55	-48.0	-62.9	3.8	1.49e+00	0	43	104	0	66	21280
2026-01-26 09:51:43.45	327.51	50.21	-48.0	-62.9	3.8	1.49e+00	0	43	104	0	66	21276
2026-01-26 09:51:44.46	327.62	49.87	-48.0	-62.9	3.8	1.49e+00	0	43	104	0	66	21305
2026-01-26 09:51:45.47	327.72	49.54	-48.0	-62.9	3.8	1.49e+00	0	44	104	0	66	21296
2026-01-26 09:51:46.48	327.82	49.21	-48.0	-62.9	3.8	1.49e+00	0	43	104	0	66	21303
2026-01-26 09:51:47.49	327.92	48.88	-48.0	-62.9	3.8	1.49e+00	0	43	104	0	66	21295
2026-01-26 09:51:48.49	328.01	48.56	-48.0	-62.9	3.8	1.49e+00	0	43	104	0	66	21320
2026-01-26 09:51:49.50	328.10	48.23	-48.0	-62.8	3.8	1.49e+00	0	44	104	0	66	21250
2026-01-26 09:51:50.51	328.20	47.91	-48.0	-62.8	3.8	1.49e+00	0	43	104	0	66	21227
2026-01-26 09:51:51.51	328.28	47.60	-48.0	-62.9	3.8	1.49e+00	0	43	104	0	66	21278
2026-01-26 09:51:52.52	328.37	47.28	-48.0	-62.9	3.8	1.49e+00	0	43	104	0	66	21288
2026-01-26 09:51:53.53	328.46	46.97	-48.0	-62.8	3.8	1.49e+00	0	44	104	0	66	21211
2026-01-26 09:51:54.54	328.54	46.65	-48.0	-62.9	3.8	1.49e+00	0	44	104	0	66	21345
2026-01-26 09:51:55.55	328.63	46.34	-48.0	-62.9	3.8	1.49e+00	0	43	104	0	66	21327
2026-01-26 09:51:56.56	328.71	46.04	-48.0	-62.9	3.8	1.49e+00	0	43	104	0	66	21268
2026-01-26 09:51:57.57	328.79	45.73	-48.0	-62.9	3.8	1.49e+00	0	44	104	0	66	21296
2026-01-26 09:51:58.57	328.87	45.43	-48.0	-62.8	3.8	1.49e+00	0	43	104	0	66	21254
2026-01-26 09:51:59.58	328.95	45.13	-48.0	-62.9	3.8	1.49e+00	0	43	104	0	66	21274
2026-01-26 09:52:00.59	329.02	44.83	-48.0	-62.9	3.8	1.49e+00	0	43	104	0	66	21275
2026-01-26 09:52:01.59	329.10	44.54	-48.0	-62.8	3.8	1.49e+00	0	43	104	0	66	21253
2026-01-26 09:52:02.60	329.17	44.24	-48.0	-62.8	3.8	1.49e+00	0	43	104	0	66	21225
2026-01-26 09:52:03.61	329.24	43.95	-48.0	-62.8	3.8	1.49e+00	0	43	104	0	66	21240
2026-01-26 09:52:04.61	329.31	43.66	-48.0	-62.9	3.8	1.49e+00	0	44	104	0	66	21311
2026-01-26 09:52:05.62	329.38	43.38	-48.0	-62.9	3.8	1.49e+00	0	44	104	0	66	21299
2026-01-26 09:52:06.63	329.45	43.09	-48.0	-62.8	3.8	1.49e+00	0	43	104	0	66	21253
2026-01-26 09:52:07.64	329.52	42.81	-48.0	-62.9	3.8	1.49e+00	0	43	104	0	66	21310
2026-01-26 09:52:08.65	329.58	42.52	-48.0	-62.8	3.8	1.49e+00	0	43	104	0	66	21258
2026-01-26 09:52:09.66	329.65	42.24	-48.0	-62.9	3.8	1.49e+00	0	43	104	0	66	21262
2026-01-26 09:52:10.66	329.71	41.97	-47.9	-62.8	3.8	1.49e+00	0	43	104	0	66	21163
2026-01-26 09:52:11.67	329.78	41.69	-47.9	-62.8	3.8	1.49e+00	0	43	104	0	66	21148
2026-01-26 09:52:12.68	329.84	41.42	-47.9	-62.8	3.8	1.49e+00	0	43	104	0	66	21107
2026-01-26 09:52:13.69	329.90	41.15	-48.0	-62.8	3.8	1.49e+00	0	43	104	0	66	21168
2026-01-26 09:52:14.69	329.96	40.88	-47.9	-62.8	3.8	1.49e+00	0	43	104	0	66	21126
2026-01-26 09:52:15.70	330.02	40.62	-47.9	-62.8	3.8	1.49e+00	0	43	104	0	66	21079
2026-01-26 09:52:16.71	330.08	40.35	-47.9	-62.8	3.8	1.49e+00	0	44	104	0	66	21082
2026-01-26 09:52:17.72	330.14	40.09	-47.9	-62.8	3.8	1.49e+00	0	43	104	0	66	21127
2026-01-26 09:52:18.73	330.19	39.82	-47.9	-62.8	3.8	1.49e+00	0	44	104	0	66	21076
2026-01-26 09:52:19.73	330.25	39.57	-47.9	-62.8	3.8	1.49e+00	0	43	104	0	66	21129
2026-01-26 09:52:20.74	330.30	39.31	-47.9	-62.8	3.8	1.49e+00	0	43	104	0	66	21154
2026-01-26 09:52:21.75	330.36	39.05	-47.9	-62.8	3.8	1.49e+00	0	43	104	0	66	21195
2026-01-26 09:52:22.76	330.41	38.80	-48.0	-62.8	3.8	1.49e+00	0	43	104	0	66	21137
2026-01-26 09:52:23.77	330.46	38.55	-47.9	-62.8	3.8	1.49e+00	0	43	104	0	66	21153
2026-01-26 09:52:24.77	330.52	38.30	-48.0	-62.8	3.8	1.49e+00	0	43	104	0	66	21197
2026-01-26 09:52:25.78	330.57	38.05	-47.9	-62.8	3.8	1.49e+00	0	43	104	0	66	21175
2026-01-26 09:52:26.79	330.62	37.80	-48.0	-62.8	3.8	1.49e+00	0	43	104	0	66	21171
2026-01-26 09:52:27.80	330.67	37.56	-47.9	-62.8	3.8	1.49e+00	0	43	104	0	66	21125
2026-01-26 09:52:28.81	330.72	37.32	-48.0	-62.8	3.8	1.49e+00	0	43	104	0	66	21166
2026-01-26 09:52:29.81	330.77	37.08	-47.9	-62.8	3.8	1.49e+00	0	43	104	0	66	21138
2026-01-26 09:52:30.82	330.81	36.84	-47.9	-62.8	3.8	1.49e+00	0	44	104	0	66	21148
2026-01-26 09:52:31.83	330.86	36.60	-48.0	-62.8	3.8	1.49e+00	0	43	104	0	66	21170
2026-01-26 09:52:32.84	330.91	36.36	-48.0	-62.8	3.8	1.49e+00	0	43	104	0	66	21176
2026-01-26 09:52:33.84	330.95	36.13	-48.0	-62.8	3.8	1.49e+00	0	43	104	0	66	21184
2026-01-26 09:52:34.85	331.00	35.90	-48.0	-62.8	3.8	1.49e+00	0	44	104	0	66	21254
2026-01-26 09:52:35.86	331.04	35.67	-48.0	-62.9	3.8	1.49e+00	0	43	104	0	66	21267
2026-01-26 09:52:36.87	331.09	35.44	-48.0	-62.9	3.8	1.49e+00	0	43	104	0	66	21263
2026-01-26 09:52:37.87	331.13	35.21	-47.9	-62.8	3.8	1.49e+00	0	43	104	0	66	21097
2026-01-26 09:52:38.88	331.17	34.99	-47.9	-62.8	3.8	1.49e+00	0	43	104	0	66	21025
2026-01-26 09:52:39.89	331.22	34.76	-47.9	-62.8	3.8	1.49e+00	0	43	104	0	66	21024
2026-01-26 09:52:40.89	331.26	34.54	-47.9	-62.8	3.8	1.49e+00	0	43	104	0	66	21137
2026-01-26 09:52:41.90	331.30	34.32	-47.9	-62.8	3.8	1.49e+00	0	43	104	0	66	21044
2026-01-26 09:52:42.91	331.34	34.10	-47.9	-62.8	3.8	1.49e+00	0	43	104	0	66	21065
2026-01-26 09:52:43.92	331.38	33.88	-47.9	-62.8	3.8	1.49e+00	0	43	104	0	66	21048
2026-01-26 09:52:44.93	331.42	33.66	-47.9	-62.8	3.8	1.49e+00	0	43	104	0	66	21040
2026-01-26 09:52:45.93	331.46	33.45	-47.9	-62.8	3.8	1.49e+00	0	43	104	0	66	21061
2026-01-26 09:52:46.94	331.50	33.24	-47.9	-62.8	3.8	1.49e+00	0	43	104	0	66	21088
2026-01-26 09:52:47.95	331.54	33.02	-47.9	-62.8	3.8	1.49e+00	0	43	104	0	66	21070
2026-01-26 09:52:48.96	331.58	32.81	-47.9	-62.8	3.8	1.49e+00	0	43	104	0	66	21103
2026-01-26 09:52:49.97	331.62	32.60	-47.9	-62.8	3.8	1.49e+00	0	43	104	0	66	21040
2026-01-26 09:52:50.98	331.65	32.39	-47.9	-62.8	3.8	1.49e+00	0	43	104	0	66	21092
2026-01-26 09:52:51.98	331.69	32.19	-47.9	-62.8	3.8	1.49e+00	0	44	104	0	66	21058
2026-01-26 09:52:52.99	331.73	31.98	-47.9	-62.8	3.8	1.49e+00	0	43	104	0	66	21145
2026-01-26 09:52:54.00	331.76	31.78	-48.0	-62.9	3.8	1.49e+00	0	43	104	0	66	21296
2026-01-26 09:52:55.01	331.80	31.58	-48.0	-62.9	3.8	1.49e+00	0	43	104	0	66	21308
2026-01-26 09:52:56.01	331.84	31.38	-48.0	-62.8	3.8	1.49e+00	0	43	104	0	66	21254
2026-01-26 09:52:57.02	331.87	31.18	-48.0	-62.8	3.8	1.49e+00	0	43	104	0	66	21243
2026-01-26 09:52:58.03	331.90	30.98	-47.8	-62.7	3.8	1.49e+00	0	43	104	0	66	21010
2026-01-26 09:52:59.03	331.94	30.79	-47.8	-62.8	3.8	1.49e+00	0	43	104	0	66	21139
2026-01-26 09:53:00.04	331.97	30.59	-47.8	-62.7	3.8	1.49e+00	0	43	104	0	66	20965
2026-01-26 09:53:01.05	332.01	30.40	-47.8	-62.7	3.8	1.49e+00	0	43	104	0	66	20914
2026-01-26 09:53:02.06	332.04	30.20	-47.8	-62.7	3.8	1.49e+00	0	43	104	0	66	20992
2026-01-26 09:53:03.07	332.07	30.01	-47.8	-62.7	3.8	1.49e+00	0	43	104	0	66	20902
2026-01-26 09:53:04.07	332.11	29.82	-47.8	-62.7	3.8	1.49e+00	0	44	104	0	66	20929
2026-01-26 09:53:05.08	332.14	29.63	-47.8	-62.7	3.8	1.49e+00	0	43	104	0	66	20944
2026-01-26 09:53:06.09	332.17	29.44	-47.8	-62.7	3.8	1.49e+00	0	43	104	0	66	20965
2026-01-26 09:53:07.10	332.20	29.26	-47.9	-62.7	3.8	1.49e+00	0	44	104	0	66	20948
2026-01-26 09:53:08.11	332.23	29.07	-47.8	-62.7	3.8	1.49e+00	0	43	104	0	66	20869
2026-01-26 09:53:09.11	332.26	28.89	-47.8	-62.7	3.8	1.49e+00	0	43	104	0	66	20909
2026-01-26 09:53:10.12	332.29	28.71	-47.8	-62.7	3.8	1.49e+00	0	44	104	0	66	20999
2026-01-26 09:53:11.13	332.32	28.52	-47.9	-62.7	3.8	1.49e+00	0	43	104	0	66	20838
2026-01-26 09:53:12.13	332.35	28.35	-48.0	-62.9	3.8	1.49e+00	0	43	104	0	66	21267
2026-01-26 09:53:13.14	332.38	28.17	-48.0	-62.8	3.8	1.49e+00	0	43	104	0	66	21252
2026-01-26 09:53:14.15	332.41	27.99	-48.0	-62.9	3.8	1.49e+00	0	43	104	0	66	21295
2026-01-26 09:53:15.16	332.44	27.81	-47.2	-62.3	3.9	1.49e+00	0	43	104	0	66	20030
2026-01-26 09:53:16.17	332.47	27.63	-47.2	-62.3	3.9	1.50e+00	0	44	104	0	66	19982
2026-01-26 09:53:17.17	332.50	27.46	-47.2	-62.3	3.9	1.49e+00	0	43	104	0	66	19989
2026-01-26 09:53:18.18	332.53	27.29	-47.1	-62.4	3.9	1.49e+00	0	43	104	0	65	21348
2026-01-26 09:53:19.19	332.56	27.11	-47.1	-62.4	3.9	1.49e+00	0	43	104	0	65	21278
2026-01-26 09:53:20.20	332.58	26.94	-47.2	-62.3	3.9	1.49e+00	0	43	104	0	65	21223
2026-01-26 09:53:21.21	332.61	26.77	-47.2	-62.3	3.9	1.49e+00	0	43	104	0	65	21162
2026-01-26 09:53:22.21	332.64	26.60	-47.2	-62.3	3.9	1.49e+00	0	43	104	0	65	21072
2026-01-26 09:53:23.22	332.67	26.43	-47.2	-62.3	3.9	1.49e+00	0	44	104	0	65	21194
2026-01-26 09:53:24.23	332.69	26.27	-47.2	-62.3	3.9	1.49e+00	0	43	104	0	65	21184
2026-01-26 09:53:25.23	332.72	26.10	-47.2	-62.3	3.9	1.49e+00	0	43	104	0	65	21162
2026-01-26 09:53:26.24	332.75	25.94	-47.2	-62.3	3.9	1.49e+00	0	43	104	0	65	21116
2026-01-26 09:53:27.25	332.77	25.77	-47.2	-62.3	3.9	1.49e+00	0	43	104	0	65	21108
2026-01-26 09:53:28.26	332.80	25.61	-47.2	-62.3	3.9	1.49e+00	0	43	104	0	65	21194
2026-01-26 09:53:29.26	332.82	25.45	-47.2	-62.4	3.9	1.49e+00	0	43	104	0	65	21266
2026-01-26 09:53:30.27	332.85	25.29	-47.1	-62.3	3.9	1.49e+00	0	43	104	0	65	21202
2026-01-26 09:53:31.28	332.88	25.12	-47.1	-62.4	3.9	1.49e+00	0	43	104	0	65	21300
2026-01-26 09:53:32.29	332.90	24.97	-47.2	-62.3	3.9	1.49e+00	0	43	104	0	65	21257
2026-01-26 09:53:33.30	332.93	24.81	-47.2	-62.3	3.9	1.49e+00	0	44	104	0	65	21254
2026-01-26 09:53:34.31	332.95	24.65	-47.2	-62.4	3.9	1.49e+00	0	44	104	0	65	21263
2026-01-26 09:53:35.32	332.97	24.49	-48.0	-62.9	3.8	1.49e+00	0	44	104	0	66	21283
2026-01-26 09:53:36.33	333.00	24.34	-48.0	-62.9	3.8	1.49e+00	0	44	104	0	66	21281
2026-01-26 09:53:37.33	333.02	24.18	-48.0	-62.9	3.8	1.49e+00	0	43	104	0	66	21273
2026-01-26 09:53:38.34	333.05	24.03	-48.0	-62.9	3.8	1.49e+00	0	43	104	0	66	21286
2026-01-26 09:53:39.35	333.07	23.88	-48.0	-62.8	3.8	1.49e+00	0	43	104	0	66	21236
2026-01-26 09:53:40.35	333.09	23.72	-48.0	-62.9	3.8	1.49e+00	0	44	104	0	66	21314
2026-01-26 09:53:41.36	333.12	23.57	-48.0	-62.9	3.8	1.49e+00	0	43	104	0	66	21289
2026-01-26 09:53:42.37	333.14	23.42	-48.0	-62.9	3.8	1.49e+00	0	43	104	0	66	21295
2026-01-26 09:53:43.38	333.16	23.27	-48.0	-62.9	3.8	1.49e+00	0	43	104	0	66	21287
2026-01-26 09:53:44.39	333.19	23.12	-48.0	-62.8	3.8	1.49e+00	0	43	104	0	66	21252
2026-01-26 09:53:45.40	333.21	22.98	-48.0	-62.9	3.8	1.49e+00	0	44	104	0	66	21271
2026-01-26 09:53:46.41	333.23	22.83	-48.0	-62.8	3.8	1.49e+00	0	44	104	0	66	21206
2026-01-26 09:53:47.41	333.25	22.69	-48.0	-62.8	3.8	1.49e+00	0	44	104	0	66	21234
2026-01-26 09:53:48.42	333.28	22.54	-48.0	-62.8	3.8	1.49e+00	0	43	104	0	66	21244
2026-01-26 09:53:49.43	333.30	22.40	-48.0	-62.9	3.8	1.49e+00	0	44	104	0	66	21282
2026-01-26 09:53:50.44	333.32	22.25	-48.0	-62.8	3.8	1.49e+00	0	43	104	0	66	21248
2026-01-26 09:53:51.45	333.34	22.11	-48.0	-62.9	3.8	1.49e+00	0	43	104	0	66	21269
2026-01-26 09:53:52.46	333.36	21.97	-48.0	-62.8	3.8	1.49e+00	0	43	104	0	66	21253
2026-01-26 09:53:53.47	333.38	21.83	-48.0	-62.9	3.8	1.49e+00	0	44	104	0	66	21266
2026-01-26 09:53:54.47	333.41	21.69	-48.0	-62.9	3.8	1.49e+00	0	44	104	0	66	21284
2026-01-26 09:53:55.48	333.43	21.55	-48.0	-62.9	3.8	1.49e+00	0	44	104	0	66	21292
2026-01-26 09:53:56.49	333.45	21.41	-48.0	-62.9	3.8	1.49e+00	0	44	104	0	66	21272
2026-01-26 09:53:57.50	333.47	21.27	-48.0	-62.9	3.8	1.49e+00	0	44	104	0	66	21267
2026-01-26 09:53:58.51	333.49	21.13	-48.0	-62.9	3.8	1.49e+00	0	44	104	0	66	21265
2026-01-26 09:53:59.52	333.51	20.99	-48.0	-62.8	3.8	1.49e+00	0	43	104	0	66	21218
2026-01-26 09:54:00.53	333.53	20.86	-48.0	-62.8	3.8	1.49e+00	0	43	104	0	66	21254
2026-01-26 09:54:01.53	333.55	20.72	-48.0	-62.9	3.8	1.49e+00	0	43	104	0	66	21304
2026-01-26 09:54:02.54	333.57	20.59	-48.0	-62.9	3.8	1.49e+00	0	44	104	0	66	21344
2026-01-26 09:54:03.55	333.59	20.46	-48.0	-62.9	3.8	1.49e+00	0	44	104	0	66	21274
2026-01-26 09:54:04.56	333.61	20.32	-48.0	-62.9	3.8	1.49e+00	0	43	104	0	66	21274
2026-01-26 09:54:05.56	333.63	20.19	-48.0	-62.9	3.8	1.49e+00	0	44	104	0	66	21264
2026-01-26 09:54:06.57	333.65	20.06	-48.0	-62.9	3.8	1.49e+00	0	43	104	0	66	21288
2026-01-26 09:54:07.58	333.67	19.93	-48.0	-62.8	3.8	1.49e+00	0	44	104	0	66	21243
2026-01-26 09:54:08.59	333.69	19.80	-48.0	-62.8	3.8	1.49e+00	0	44	104	0	66	21259
2026-01-26 09:54:09.60	333.71	19.67	-48.0	-62.9	3.8	1.49e+00	0	43	104	0	66	21274
2026-01-26 09:54:10.61	333.72	19.54	-48.0	-62.9	3.8	1.49e+00	0	43	104	0	66	21266
2026-01-26 09:54:11.62	333.74	19.41	-48.0	-62.9	3.8	1.49e+00	0	43	104	0	66	21268
2026-01-26 09:54:12.63	333.76	19.28	-48.0	-62.9	3.8	1.49e+00	0	44	104	0	66	21287
2026-01-26 09:54:13.64	333.78	19.16	-48.0	-62.9	3.8	1.49e+00	0	43	104	0	66	21268
2026-01-26 09:54:14.65	333.80	19.03	-48.0	-62.9	3.8	1.49e+00	0	43	104	0	66	21288
2026-01-26 09:54:15.65	333.82	18.91	-48.0	-62.8	3.8	1.49e+00	0	44	104	0	66	21217
2026-01-26 09:54:16.66	333.84	18.78	-48.0	-62.9	3.8	1.49e+00	0	43	104	0	66	21274
2026-01-26 09:54:17.66	333.85	18.66	-48.0	-62.9	3.8	1.49e+00	0	43	104	0	66	21274
2026-01-26 09:54:18.67	333.87	18.53	-48.0	-62.8	3.8	1.49e+00	0	43	104	0	66	21250
2026-01-26 09:54:19.68	333.89	18.41	-48.0	-62.9	3.8	1.49e+00	0	43	104	0	66	21294
2026-01-26 09:54:20.69	333.91	18.29	-48.0	-62.9	3.8	1.49e+00	0	43	104	0	66	21315
2026-01-26 09:54:21.69	333.93	18.17	-48.0	-62.9	3.8	1.49e+00	0	43	104	0	66	21281
2026-01-26 09:54:22.70	333.94	18.05	-48.0	-62.9	3.8	1.49e+00	0	44	104	0	66	21316
2026-01-26 09:54:23.71	333.96	17.92	-48.0	-62.9	3.8	1.49e+00	0	43	104	0	66	21298
2026-01-26 09:54:24.72	333.98	17.80	-48.0	-62.9	3.8	1.49e+00	0	43	104	0	66	21285
2026-01-26 09:54:25.72	334.00	17.69	-48.0	-62.8	3.8	1.49e+00	0	43	104	0	66	21219
2026-01-26 09:54:26.73	334.01	17.57	-48.0	-62.9	3.8	1.49e+00	0	44	104	0	66	21280
2026-01-26 09:54:27.74	334.03	17.45	-48.0	-62.9	3.8	1.49e+00	0	44	104	0	66	21282
2026-01-26 09:54:28.75	334.05	17.33	-48.0	-62.8	3.8	1.49e+00	0	43	104	0	66	21230
2026-01-26 09:54:29.76	334.06	17.21	-48.0	-62.9	3.8	1.49e+00	0	43	104	0	66	21280
2026-01-26 09:54:30.77	334.08	17.10	-48.0	-62.9	3.8	1.49e+00	0	43	104	0	66	21276
2026-01-26 09:54:31.77	334.10	16.98	-48.0	-62.9	3.8	1.49e+00	0	43	104	0	66	21306
2026-01-26 09:54:32.78	334.11	16.86	-48.0	-62.8	3.8	1.49e+00	0	44	104	0	66	21251
2026-01-26 09:54:33.79	334.13	16.75	-48.0	-62.8	3.8	1.49e+00	0	44	104	0	66	21255
2026-01-26 09:54:34.79	334.15	16.64	-48.0	-62.9	3.8	1.49e+00	0	44	104	0	66	21300
2026-01-26 09:54:35.80	334.16	16.52	-48.0	-62.8	3.8	1.49e+00	0	43	104	0	66	21247
2026-01-26 09:54:36.80	334.18	16.41	-48.0	-62.8	3.8	1.49e+00	0	44	104	0	66	21185
2026-01-26 09:54:37.81	334.20	16.30	-48.0	-62.8	3.8	1.49e+00	0	44	104	0	66	21226
2026-01-26 09:54:38.82	334.21	16.18	-48.0	-62.8	3.8	1.49e+00	0	44	104	0	66	21259
2026-01-26 09:54:39.82	334.23	16.07	-48.0	-62.8	3.8	1.49e+00	0	43	104	0	66	21260
2026-01-26 09:54:40.83	334.24	15.96	-48.0	-62.9	3.8	1.49e+00	0	44	104	0	66	21289
2026-01-26 09:54:41.84	334.26	15.85	-48.0	-62.9	3.8	1.49e+00	0	43	104	0	66	21279
2026-01-26 09:54:42.85	334.27	15.74	-48.0	-62.8	3.8	1.49e+00	0	43	104	0	66	21254
2026-01-26 09:54:43.86	334.29	15.63	-48.0	-62.8	3.8	1.49e+00	0	43	104	0	66	21258
2026-01-26 09:54:44.87	334.31	15.52	-48.0	-62.8	3.8	1.49e+00	0	43	104	0	66	21222
2026-01-26 09:54:45.87	334.32	15.41	-48.0	-62.8	3.8	1.49e+00	0	44	104	0	66	21241
2026-01-26 09:54:46.88	334.34	15.30	-48.0	-62.9	3.8	1.49e+00	0	43	104	0	66	21264
2026-01-26 09:54:47.89	334.35	15.20	-48.0	-62.9	3.8	1.49e+00	0	44	104	0	66	21311
2026-01-26 09:54:48.90	334.37	15.09	-48.0	-62.8	3.8	1.49e+00	0	44	104	0	66	21223
2026-01-26 09:54:49.91	334.38	14.98	-48.0	-62.9	3.8	1.49e+00	0	44	104	0	66	21270
2026-01-26 09:54:50.91	334.40	14.88	-48.0	-62.9	3.8	1.49e+00	0	44	104	0	66	21288
2026-01-26 09:54:51.92	334.41	14.77	-48.0	-62.8	3.8	1.49e+00	0	43	104	0	66	21254
2026-01-26 09:54:52.93	334.43	14.66	-48.0	-62.9	3.8	1.49e+00	0	43	104	0	66	21283
2026-01-26 09:54:53.94	334.44	14.56	-48.0	-62.8	3.8	1.49e+00	0	43	104	0	66	21249
2026-01-26 09:54:54.94	334.46	14.45	-48.0	-62.8	3.8	1.49e+00	0	43	104	0	66	21248
2026-01-26 09:54:55.95	334.47	14.35	-48.0	-62.8	3.8	1.49e+00	0	44	104	0	66	21209
2026-01-26 09:54:56.96	334.49	14.25	-48.0	-62.8	3.8	1.49e+00	0	43	104	0	66	21220
2026-01-26 09:54:57.97	334.50	14.14	-48.0	-62.8	3.8	1.49e+00	0	43	104	0	66	21250
2026-01-26 09:54:58.98	334.52	14.04	-48.0	-62.9	3.8	1.49e+00	0	43	104	0	66	21280
2026-01-26 09:54:59.99	334.53	13.94	-48.0	-62.8	3.8	1.49e+00	0	43	104	0	66	21221
2026-01-26 09:55:01.00	334.54	13.84	-48.0	-62.9	3.8	1.49e+00	0	44	104	0	66	21290
2026-01-26 09:55:02.01	334.56	13.73	-48.0	-62.8	3.8	1.49e+00	0	43	104	0	66	21205
2026-01-26 09:55:03.01	334.57	13.63	-48.0	-62.9	3.8	1.49e+00	0	43	104	0	66	21267
2026-01-26 09:55:04.02	334.59	13.53	-48.0	-62.8	3.8	1.49e+00	0	43	104	0	66	21256
2026-01-26 09:55:05.03	334.60	13.43	-48.0	-62.8	3.8	1.49e+00	0	43	104	0	66	21230
2026-01-26 09:55:06.03	334.62	13.33	-48.0	-62.8	3.8	1.49e+00	0	43	104	0	66	21244
2026-01-26 09:55:07.04	334.63	13.23	-48.0	-62.9	3.8	1.49e+00	0	43	104	0	66	21293
2026-01-26 09:55:08.05	334.64	13.13	-48.0	-62.8	3.8	1.49e+00	0	44	104	0	66	21215
2026-01-26 09:55:09.06	334.66	13.03	-48.0	-62.9	3.8	1.49e+00	0	43	104	0	66	21270
2026-01-26 09:55:10.06	334.67	12.94	-48.0	-62.8	3.8	1.49e+00	0	43	104	0	66	21237
2026-01-26 09:55:11.07	334.68	12.84	-48.0	-62.9	3.8	1.49e+00	0	43	104	0	66	21278
2026-01-26 09:55:12.08	334.70	12.74	-48.0	-62.9	3.8	1.49e+00	0	44	104	0	66	21266
2026-01-26 09:55:13.09	334.71	12.64	-48.0	-62.9	3.8	1.49e+00	0	44	104	0	66	21290
2026-01-26 09:55:14.09	334.73	12.55	-48.0	-62.8	3.8	1.49e+00	0	43	104	0	66	21251
2026-01-26 09:55:15.10	334.74	12.45	-48.0	-62.9	3.8	1.49e+00	0	43	104	0	66	21287
2026-01-26 09:55:16.11	334.75	12.36	-48.0	-62.9	3.8	1.49e+00	0	43	104	0	66	21293
2026-01-26 09:55:17.12	334.77	12.26	-48.0	-62.8	3.8	1.49e+00	0	43	104	0	66	21258
2026-01-26 09:55:18.13	334.78	12.16	-48.0	-62.9	3.8	1.49e+00	0	43	104	0	66	21272
2026-01-26 09:55:19.13	334.79	12.07	-48.0	-62.9	3.8	1.49e+00	0	43	104	0	66	21294
2026-01-26 09:55:20.14	334.81	11.98	-48.0	-62.8	3.8	1.49e+00	0	43	104	0	66	21208
2026-01-26 09:55:21.15	334.82	11.88	-48.0	-62.9	3.8	1.49e+00	0	44	104	0	66	21279
2026-01-26 09:55:22.16	334.83	11.79	-48.0	-62.8	3.8	1.49e+00	0	44	104	0	66	21256
2026-01-26 09:55:23.17	334.84	11.69	-48.0	-62.8	3.8	1.49e+00	0	43	104	0	66	21258
