passes_logs/2026/01/26/R3.2S_Murmansk/R3.2S_Murmansk__20260126_235054_ZKG05_rec.log

#Pass ID: 20260126_235054_ZKG05
#Satellite: ZKG05
#Configuration: ZKG05
#almurnet v.1.7.20251203
#Start time: 2026-01-26 23:50:56

#Version: 2.2.20231116
#Station: R3.2S_Murmansk
#Location: 33.079688 lon 68.888172 lat
#TLE: 1 65263U 25180E   26026.52273064  .00006133  00000+0  31951-3 0  9997
#TLE: 2 65263  97.4770 155.5972 0001599  90.3970 269.7447 15.16353540 24259

#Time	Az	El	Level	Level2	SNR	BER	BlckErr	Temp	State	Recorded	gain1	gain2
2026-01-26 23:50:56.39	198.46	2.15	-54.6	-56.7	6.3	0.00e+00	0	50	0	0	80	18787
2026-01-26 23:50:57.40	198.53	2.22	-54.9	-57.0	6.2	0.00e+00	0	50	104	0	81	18319
2026-01-26 23:50:58.40	198.61	2.28	-54.8	-57.0	6.2	0.00e+00	0	50	104	0	81	18197
2026-01-26 23:50:59.41	198.68	2.35	-54.8	-56.9	6.2	0.00e+00	0	50	104	0	81	18077
2026-01-26 23:51:00.42	198.76	2.42	-54.8	-56.9	6.2	0.00e+00	0	50	104	0	81	18071
2026-01-26 23:51:01.42	198.83	2.48	-54.8	-56.9	6.2	0.00e+00	0	50	104	0	81	18003
2026-01-26 23:51:02.43	198.91	2.55	-54.8	-56.9	6.2	0.00e+00	0	50	104	0	81	17993
2026-01-26 23:51:03.43	198.99	2.61	-54.7	-56.8	6.2	0.00e+00	0	50	104	0	81	17951
2026-01-26 23:51:04.44	199.06	2.68	-54.7	-56.8	6.2	0.00e+00	0	50	104	0	81	17842
2026-01-26 23:51:05.45	199.14	2.74	-54.7	-56.7	6.2	0.00e+00	0	50	104	0	81	17731
2026-01-26 23:51:06.46	199.22	2.81	-54.6	-56.7	6.2	0.00e+00	0	50	104	0	81	17673
2026-01-26 23:51:07.47	199.30	2.88	-54.6	-56.7	6.2	0.00e+00	0	51	104	0	81	17686
2026-01-26 23:51:08.47	199.38	2.94	-54.5	-56.6	6.2	0.00e+00	0	50	104	0	81	17425
2026-01-26 23:51:09.48	199.46	3.01	-54.4	-56.5	6.2	0.00e+00	0	51	104	0	80	18312
2026-01-26 23:51:10.49	199.54	3.08	-54.3	-56.4	6.2	0.00e+00	0	50	104	0	80	18104
2026-01-26 23:51:11.49	199.62	3.15	-54.3	-56.3	6.2	0.00e+00	0	51	104	0	80	17944
2026-01-26 23:51:12.49	199.70	3.21	-54.1	-56.2	6.2	0.00e+00	0	51	104	0	80	17736
2026-01-26 23:51:13.50	199.78	3.28	-54.0	-56.1	6.2	0.00e+00	0	51	104	0	80	17465
2026-01-26 23:51:14.51	199.86	3.35	-53.9	-56.0	6.2	0.00e+00	0	51	104	0	79	18252
2026-01-26 23:51:15.52	199.94	3.42	-53.5	-55.6	6.2	0.00e+00	0	51	104	0	79	17527
2026-01-26 23:51:16.53	200.03	3.48	-53.1	-55.2	6.2	0.00e+00	0	51	104	0	78	17658
2026-01-26 23:51:17.54	200.11	3.55	-53.1	-55.2	6.2	0.00e+00	0	51	104	0	78	17688
2026-01-26 23:51:18.55	200.19	3.62	-53.1	-55.2	6.2	0.00e+00	0	51	104	0	78	17735
2026-01-26 23:51:19.55	200.28	3.69	-53.1	-55.2	6.2	0.00e+00	0	51	104	0	78	17663
2026-01-26 23:51:20.56	200.36	3.76	-53.1	-55.2	6.2	0.00e+00	0	51	104	0	78	17627
2026-01-26 23:51:21.56	200.45	3.83	-53.1	-55.2	6.2	0.00e+00	0	51	104	0	78	17640
2026-01-26 23:51:22.57	200.53	3.90	-53.1	-55.2	6.2	0.00e+00	0	51	104	0	78	17649
2026-01-26 23:51:23.58	200.62	3.97	-53.1	-55.2	6.2	0.00e+00	0	51	104	0	78	17657
2026-01-26 23:51:24.59	200.71	4.04	-53.1	-55.2	6.2	0.00e+00	0	51	104	0	78	17613
2026-01-26 23:51:25.60	200.79	4.11	-53.1	-55.2	6.2	0.00e+00	0	51	104	0	78	17621
2026-01-26 23:51:26.61	200.88	4.18	-53.1	-55.2	6.2	0.00e+00	0	51	104	0	78	17631
2026-01-26 23:51:27.62	200.97	4.25	-53.1	-55.2	6.2	0.00e+00	0	51	104	0	78	17620
2026-01-26 23:51:28.62	201.06	4.32	-53.1	-55.2	6.2	0.00e+00	0	51	104	0	78	17617
2026-01-26 23:51:29.63	201.15	4.39	-53.1	-55.2	6.2	0.00e+00	0	51	104	0	78	17568
2026-01-26 23:51:30.64	201.24	4.46	-53.1	-55.2	6.2	0.00e+00	0	51	104	0	78	17588
2026-01-26 23:51:31.65	201.33	4.53	-53.1	-55.1	6.2	0.00e+00	0	52	104	0	78	17559
2026-01-26 23:51:32.65	201.42	4.60	-53.1	-55.2	6.2	0.00e+00	0	51	104	0	78	17647
2026-01-26 23:51:33.66	201.51	4.67	-53.1	-55.1	6.2	0.00e+00	0	52	104	0	78	17561
2026-01-26 23:51:34.67	201.60	4.74	-53.1	-55.2	6.2	0.00e+00	0	52	104	0	78	17590
2026-01-26 23:51:35.68	201.69	4.82	-53.0	-55.2	6.2	0.00e+00	0	52	104	0	78	17571
2026-01-26 23:51:36.68	201.78	4.89	-53.0	-55.2	6.2	0.00e+00	0	52	104	0	78	17635
2026-01-26 23:51:37.69	201.88	4.96	-53.0	-55.2	6.2	0.00e+00	0	52	104	0	78	17587
2026-01-26 23:51:38.71	201.97	5.03	-53.0	-55.2	6.2	0.00e+00	0	52	104	0	78	17634
2026-01-26 23:51:39.71	202.07	5.11	-53.1	-55.2	6.2	0.00e+00	0	52	104	0	78	17717
2026-01-26 23:51:40.72	202.16	5.18	-53.0	-55.1	6.2	0.00e+00	0	52	104	0	78	17510
2026-01-26 23:51:41.73	202.26	5.25	-53.1	-55.3	6.2	0.00e+00	0	52	104	0	78	17801
2026-01-26 23:51:42.74	202.35	5.32	-53.1	-55.2	6.2	0.00e+00	0	52	104	0	78	17739
2026-01-26 23:51:43.75	202.45	5.40	-53.1	-55.1	6.2	0.00e+00	0	52	104	0	78	17556
2026-01-26 23:51:44.76	202.55	5.47	-53.0	-55.1	6.2	0.00e+00	0	52	104	0	78	17510
2026-01-26 23:51:45.77	202.65	5.55	-53.1	-55.3	6.2	0.00e+00	0	52	104	0	78	17778
2026-01-26 23:51:46.77	202.74	5.62	-53.1	-55.2	6.2	0.00e+00	0	52	104	0	78	17753
2026-01-26 23:51:47.78	202.84	5.69	-53.1	-55.2	6.2	0.00e+00	0	52	104	0	78	17751
2026-01-26 23:51:48.79	202.94	5.77	-53.0	-55.1	6.2	0.00e+00	0	52	104	0	78	17518
2026-01-26 23:51:49.79	203.04	5.84	-53.1	-55.3	6.2	0.00e+00	0	52	104	0	78	17866
2026-01-26 23:51:50.80	203.14	5.92	-53.1	-55.3	6.2	0.00e+00	0	52	104	0	78	17848
2026-01-26 23:51:51.80	203.24	5.99	-53.1	-55.2	6.2	0.00e+00	0	52	104	0	78	17624
2026-01-26 23:51:52.81	203.35	6.07	-53.1	-55.2	6.2	0.00e+00	0	52	104	0	78	17612
2026-01-26 23:51:53.82	203.45	6.14	-53.2	-55.3	6.2	0.00e+00	0	52	104	0	78	17856
2026-01-26 23:51:54.83	203.55	6.22	-53.2	-55.3	6.2	0.00e+00	0	52	104	0	78	17841
2026-01-26 23:51:55.83	203.66	6.30	-53.1	-55.2	6.2	0.00e+00	0	52	104	0	78	17660
2026-01-26 23:51:56.84	203.76	6.37	-53.1	-55.2	6.2	0.00e+00	0	52	104	0	78	17645
2026-01-26 23:51:57.86	203.87	6.45	-53.2	-55.3	6.2	0.00e+00	0	52	104	0	78	17916
2026-01-26 23:51:58.87	203.97	6.53	-53.2	-55.3	6.2	0.00e+00	0	52	104	0	78	17885
2026-01-26 23:51:59.88	204.08	6.60	-53.1	-55.2	6.2	0.00e+00	0	52	104	0	78	17748
2026-01-26 23:52:00.88	204.19	6.68	-53.1	-55.2	6.2	0.00e+00	0	53	104	0	78	17626
2026-01-26 23:52:01.89	204.30	6.76	-53.2	-55.4	6.2	0.00e+00	0	53	104	0	78	18096
2026-01-26 23:52:02.91	204.41	6.84	-53.2	-55.3	6.2	0.00e+00	0	52	104	0	78	17957
2026-01-26 23:52:03.91	204.51	6.92	-53.2	-55.2	6.2	0.00e+00	0	53	104	0	78	17734
2026-01-26 23:52:04.92	204.62	6.99	-53.1	-55.2	6.2	0.00e+00	0	53	104	0	78	17737
2026-01-26 23:52:05.93	204.74	7.07	-53.3	-55.4	6.2	0.00e+00	0	52	104	0	78	18170
2026-01-26 23:52:06.93	204.85	7.15	-53.3	-55.4	6.2	0.00e+00	0	53	104	0	78	18060
2026-01-26 23:52:07.94	204.96	7.23	-53.2	-55.3	6.2	0.00e+00	0	53	104	0	78	17884
2026-01-26 23:52:08.95	205.07	7.31	-53.2	-55.3	6.2	0.00e+00	0	53	104	0	78	17837
2026-01-26 23:52:09.96	205.19	7.39	-53.3	-55.4	6.2	0.00e+00	0	53	104	0	78	18164
2026-01-26 23:52:10.97	205.30	7.47	-53.3	-55.4	6.2	0.00e+00	0	53	104	0	78	18121
2026-01-26 23:52:11.97	205.42	7.55	-53.3	-55.4	6.2	0.00e+00	0	53	104	0	78	18032
2026-01-26 23:52:12.97	205.53	7.63	-53.2	-55.4	6.2	0.00e+00	0	53	104	0	78	17973
2026-01-26 23:52:13.98	205.65	7.71	-53.3	-55.5	6.2	0.00e+00	0	53	104	0	78	18202
2026-01-26 23:52:14.99	205.77	7.79	-53.3	-55.4	6.2	0.00e+00	0	53	104	0	78	18154
2026-01-26 23:52:16.00	205.88	7.87	-53.3	-55.4	6.2	0.00e+00	0	53	104	0	78	18079
2026-01-26 23:52:17.01	206.00	7.95	-53.3	-55.4	6.2	0.00e+00	0	53	104	0	78	17978
2026-01-26 23:52:18.01	206.12	8.03	-53.3	-55.5	6.2	0.00e+00	0	53	104	0	78	18191
2026-01-26 23:52:19.02	206.24	8.11	-53.3	-55.4	6.2	0.00e+00	0	53	104	0	78	18168
2026-01-26 23:52:20.03	206.36	8.20	-53.3	-55.4	6.2	0.00e+00	0	53	104	0	78	18127
2026-01-26 23:52:21.04	206.49	8.28	-53.3	-55.4	6.2	0.00e+00	0	53	104	0	78	18061
2026-01-26 23:52:22.05	206.61	8.36	-53.4	-55.5	6.2	0.00e+00	0	53	104	0	78	18262
2026-01-26 23:52:23.05	206.73	8.44	-53.4	-55.5	6.2	0.00e+00	0	53	104	0	78	18262
2026-01-26 23:52:24.06	206.86	8.53	-53.3	-55.4	6.2	0.00e+00	0	53	104	0	78	18141
2026-01-26 23:52:25.07	206.98	8.61	-53.3	-55.4	6.2	0.00e+00	0	53	104	0	78	18108
2026-01-26 23:52:26.08	207.11	8.69	-53.3	-55.5	6.2	0.00e+00	0	53	104	0	78	18271
2026-01-26 23:52:27.08	207.24	8.78	-53.4	-55.5	6.2	0.00e+00	0	53	104	0	78	18291
2026-01-26 23:52:28.09	207.37	8.86	-53.3	-55.4	6.2	0.00e+00	0	53	104	0	78	18169
2026-01-26 23:52:29.10	207.49	8.95	-53.4	-55.4	6.2	0.00e+00	0	53	104	0	78	18178
2026-01-26 23:52:30.11	207.63	9.03	-53.4	-55.5	6.2	0.00e+00	0	53	104	0	78	18378
2026-01-26 23:52:31.12	207.76	9.11	-53.4	-55.5	6.2	0.00e+00	0	53	104	0	78	18299
2026-01-26 23:52:32.13	207.89	9.20	-53.4	-55.5	6.2	0.00e+00	0	53	104	0	78	18233
2026-01-26 23:52:33.14	208.02	9.29	-53.4	-55.5	6.2	0.00e+00	0	53	104	0	78	18262
2026-01-26 23:52:34.15	208.15	9.37	-53.4	-55.5	6.2	0.00e+00	0	53	104	0	78	18347
2026-01-26 23:52:35.15	208.29	9.46	-53.4	-55.6	6.2	0.00e+00	0	53	104	0	78	18398
2026-01-26 23:52:36.16	208.42	9.54	-53.4	-55.5	6.2	0.00e+00	0	53	104	0	78	18224
2026-01-26 23:52:37.17	208.56	9.63	-53.4	-55.5	6.2	0.00e+00	0	53	104	0	78	18359
2026-01-26 23:52:38.17	208.70	9.72	-53.4	-55.6	6.2	0.00e+00	0	53	104	0	78	18502
2026-01-26 23:52:39.18	208.84	9.80	-53.4	-55.6	6.2	0.00e+00	0	53	104	0	78	18469
2026-01-26 23:52:40.18	208.97	9.89	-53.4	-55.5	6.2	0.00e+00	0	53	104	0	78	18363
2026-01-26 23:52:41.19	209.11	9.98	-53.4	-55.5	6.2	0.00e+00	0	53	104	0	78	18321
2026-01-26 23:52:42.20	209.26	10.07	-53.5	-55.6	6.2	0.00e+00	0	53	104	0	78	18501
2026-01-26 23:52:43.21	209.40	10.15	-53.4	-55.6	6.2	0.00e+00	0	53	104	0	78	18432
2026-01-26 23:52:44.22	209.54	10.24	-53.5	-55.6	6.2	0.00e+00	0	53	104	0	78	18403
2026-01-26 23:52:45.23	209.69	10.33	-53.5	-55.6	6.2	0.00e+00	0	53	104	0	78	18392
2026-01-26 23:52:46.24	209.83	10.42	-53.5	-55.6	6.2	0.00e+00	0	53	104	0	78	18577
2026-01-26 23:52:47.25	209.98	10.51	-53.5	-55.6	6.2	0.00e+00	0	53	104	0	78	18525
2026-01-26 23:52:48.25	210.12	10.60	-53.5	-55.6	6.2	0.00e+00	0	53	104	0	78	18437
2026-01-26 23:52:49.26	210.27	10.69	-53.5	-55.6	6.2	0.00e+00	0	53	104	0	78	18484
2026-01-26 23:52:50.27	210.42	10.78	-53.5	-55.6	6.2	0.00e+00	0	53	104	0	78	18555
2026-01-26 23:52:51.27	210.57	10.87	-53.5	-55.6	6.2	0.00e+00	0	53	104	0	78	18534
2026-01-26 23:52:52.28	210.72	10.96	-53.5	-55.6	6.2	0.00e+00	0	53	104	0	78	18472
2026-01-26 23:52:53.29	210.88	11.05	-53.5	-55.6	6.2	0.00e+00	0	54	104	0	78	18488
2026-01-26 23:52:54.30	211.03	11.14	-53.5	-55.7	6.2	0.00e+00	0	53	104	0	78	18675
2026-01-26 23:52:55.31	211.19	11.23	-53.5	-55.6	6.2	0.00e+00	0	53	104	0	78	18560
2026-01-26 23:52:56.32	211.34	11.33	-53.5	-55.6	6.2	0.00e+00	0	53	104	0	78	18551
2026-01-26 23:52:57.32	211.50	11.42	-53.5	-55.6	6.2	0.00e+00	0	53	104	0	78	18557
2026-01-26 23:52:58.33	211.66	11.51	-53.5	-55.7	6.2	0.00e+00	0	53	104	0	78	18635
2026-01-26 23:52:59.34	211.82	11.60	-53.5	-55.6	6.2	0.00e+00	0	54	104	0	78	18567
2026-01-26 23:53:00.34	211.98	11.69	-53.5	-55.6	6.2	0.00e+00	0	54	104	0	78	18555
2026-01-26 23:53:01.35	212.14	11.79	-53.5	-55.6	6.2	0.00e+00	0	54	104	0	78	18548
2026-01-26 23:53:02.36	212.30	11.88	-53.5	-55.7	6.2	0.00e+00	0	54	104	0	78	18689
2026-01-26 23:53:03.37	212.47	11.98	-53.5	-55.7	6.2	0.00e+00	0	53	104	0	78	18632
2026-01-26 23:53:04.37	212.63	12.07	-53.5	-55.6	6.2	0.00e+00	0	54	104	0	78	18581
2026-01-26 23:53:05.38	212.80	12.16	-53.5	-55.6	6.2	0.00e+00	0	54	104	0	78	18602
2026-01-26 23:53:06.39	212.97	12.26	-53.5	-55.7	6.2	0.00e+00	0	53	104	0	78	18704
2026-01-26 23:53:07.39	213.14	12.35	-53.5	-55.7	6.2	0.00e+00	0	54	104	0	78	18669
2026-01-26 23:53:08.40	213.31	12.45	-53.5	-55.7	6.2	0.00e+00	0	54	104	0	78	18648
2026-01-26 23:53:09.41	213.48	12.54	-53.5	-55.7	6.2	0.00e+00	0	54	104	0	78	18624
2026-01-26 23:53:10.42	213.65	12.64	-53.5	-55.7	6.2	0.00e+00	0	54	104	0	78	18790
2026-01-26 23:53:11.43	213.83	12.74	-53.5	-55.7	6.2	0.00e+00	0	54	104	0	78	18684
2026-01-26 23:53:12.43	214.00	12.83	-53.6	-55.7	6.2	0.00e+00	0	54	104	0	78	18663
2026-01-26 23:53:13.44	214.18	12.93	-53.5	-55.7	6.2	0.00e+00	0	54	104	0	78	18795
2026-01-26 23:53:14.44	214.36	13.02	-53.5	-55.8	6.2	0.00e+00	0	54	104	0	78	18851
2026-01-26 23:53:15.45	214.54	13.12	-53.5	-55.7	6.2	0.00e+00	0	54	104	0	78	18714
2026-01-26 23:53:16.46	214.72	13.22	-53.6	-55.7	6.2	0.00e+00	0	53	104	0	78	18656
2026-01-26 23:53:17.47	214.90	13.32	-51.5	-52.9	6.5	0.00e+00	0	54	104	0	75	16031
2026-01-26 23:53:18.48	215.09	13.41	-51.0	-52.2	6.7	0.00e+00	0	54	104	0	72	17580
2026-01-26 23:53:19.49	215.27	13.51	-31.9	-32.1	18.6	0.00e+00	0	55	0	92274688	36	13827
2026-01-26 23:53:20.49	215.46	13.61	-34.2	-34.0	17.5	8.39e-04	0	55	0	201326592	40	13784
2026-01-26 23:53:21.50	215.64	13.71	-29.6	-29.5	18.1	8.39e-04	0	55	0	327155712	31	13712
2026-01-26 23:53:22.51	215.84	13.81	-30.2	-30.0	17.8	1.16e-03	0	55	0	436207616	30	15464
2026-01-26 23:53:23.52	216.03	13.91	-30.3	-30.2	17.7	1.16e-03	0	55	0	553648128	31	14806
2026-01-26 23:53:24.53	216.22	14.01	-29.7	-29.6	18.1	1.16e-03	0	55	0	662700032	31	13791
2026-01-26 23:53:25.53	216.41	14.11	-29.6	-29.5	18.2	5.91e-04	0	55	0	780140544	31	13708
2026-01-26 23:53:26.54	216.61	14.21	-28.9	-28.8	18.5	5.91e-04	0	55	0	889192448	29	14229
2026-01-26 23:53:27.55	216.81	14.31	-28.7	-28.6	18.6	5.91e-04	0	55	0	998244352	29	13895
2026-01-26 23:53:28.56	217.01	14.41	-28.7	-28.5	18.7	2.67e-04	0	56	0	1115684864	29	13778
2026-01-26 23:53:29.57	217.21	14.51	-28.6	-28.5	18.7	2.67e-04	0	55	0	1224736768	29	13705
2026-01-26 23:53:30.57	217.41	14.61	-28.7	-28.6	18.6	2.67e-04	0	56	0	1342177280	29	13895
2026-01-26 23:53:31.58	217.61	14.71	-28.7	-28.6	18.6	1.43e-04	0	56	0	1451229184	29	13912
2026-01-26 23:53:32.59	217.82	14.81	-28.6	-28.4	18.7	1.43e-04	0	56	0	1560281088	29	13623
2026-01-26 23:53:33.59	218.02	14.91	-29.1	-28.9	18.5	1.48e-04	0	56	0	1686110208	29	14421
2026-01-26 23:53:34.60	218.23	15.02	-29.6	-29.5	18.2	1.48e-04	0	56	0	1803550720	29	15327
2026-01-26 23:53:35.61	218.44	15.12	-28.8	-28.6	18.6	1.48e-04	0	56	0	1912602624	29	13946
2026-01-26 23:53:36.62	218.65	15.22	-28.9	-28.7	18.6	1.91e-04	0	56	0	2021654528	29	14093
2026-01-26 23:53:37.63	218.86	15.32	-28.9	-28.8	18.6	1.91e-04	0	56	0	2139095040	29	14120
2026-01-26 23:53:38.64	219.08	15.43	-28.7	-28.6	18.7	1.91e-04	0	56	0	2248146944	29	13805
2026-01-26 23:53:39.65	219.30	15.53	-28.3	-28.2	18.8	1.91e-04	0	56	0	2365587456	28	14006
2026-01-26 23:53:40.66	219.52	15.63	-28.4	-28.2	18.8	1.14e-04	0	56	0	2474639360	28	14074
2026-01-26 23:53:41.67	219.74	15.74	-28.7	-28.6	18.6	1.14e-04	0	56	0	2583691264	28	14679
2026-01-26 23:53:42.68	219.96	15.84	-28.2	-28.1	18.9	1.95e-04	0	56	0	2701131776	28	13888
2026-01-26 23:53:43.69	220.18	15.95	-28.3	-28.2	18.8	1.95e-04	0	56	0	2810183680	28	13984
2026-01-26 23:53:44.69	220.41	16.05	-28.2	-28.0	18.9	1.95e-04	0	56	0	2927624192	28	13786
2026-01-26 23:53:45.70	220.63	16.15	-28.2	-28.1	18.9	9.05e-05	0	56	0	3045064704	28	13872
2026-01-26 23:53:46.71	220.86	16.26	-28.2	-28.1	18.9	9.05e-05	0	56	0	3162505216	28	13846
2026-01-26 23:53:47.71	221.09	16.36	-28.2	-28.0	18.9	5.72e-05	0	56	0	3271557120	28	13761
2026-01-26 23:53:48.72	221.32	16.47	-28.3	-28.2	18.9	5.72e-05	0	56	0	3388997632	28	13993
2026-01-26 23:53:49.73	221.56	16.57	-28.4	-28.3	18.8	5.72e-05	0	56	0	3498049536	28	14200
2026-01-26 23:53:50.74	221.80	16.68	-28.4	-28.3	18.8	1.00e-04	0	57	0	3615490048	28	14123
2026-01-26 23:53:51.75	222.03	16.79	-28.2	-28.0	18.9	1.00e-04	0	56	0	3724541952	28	13778
2026-01-26 23:53:52.76	222.27	16.89	-28.2	-28.1	18.9	4.29e-05	0	56	0	3833593856	28	13871
2026-01-26 23:53:53.77	222.52	17.00	-28.2	-28.1	18.9	4.29e-05	0	56	0	3951034368	28	13805
2026-01-26 23:53:54.77	222.76	17.10	-28.2	-28.1	18.9	4.29e-05	0	56	0	4060086272	28	13837
2026-01-26 23:53:55.78	223.01	17.21	-28.0	-27.9	19.0	2.86e-05	0	56	0	4177526784	28	13516
2026-01-26 23:53:56.79	223.25	17.31	-28.0	-27.9	19.0	2.86e-05	0	57	0	4286578688	28	13511
2026-01-26 23:53:57.79	223.50	17.42	-28.5	-28.4	18.8	2.86e-05	0	57	0	4395630592	28	14320
2026-01-26 23:53:58.80	223.75	17.53	-28.0	-27.9	19.0	4.76e-05	0	57	0	4521459712	28	13498
2026-01-26 23:53:59.81	224.01	17.63	-28.3	-28.2	18.9	4.76e-05	0	57	0	4638900224	27	14839
2026-01-26 23:54:00.82	224.26	17.74	-28.4	-28.3	18.9	4.76e-05	0	57	0	4747952128	27	14970
2026-01-26 23:54:01.83	224.52	17.85	-28.1	-28.0	19.0	4.76e-05	0	57	0	4857004032	27	14464
2026-01-26 23:54:02.84	224.78	17.95	-27.6	-27.5	19.3	6.67e-05	0	57	0	4974444544	27	13665
2026-01-26 23:54:03.85	225.05	18.06	-27.8	-27.6	19.2	6.67e-05	0	57	0	5083496448	27	13918
2026-01-26 23:54:04.86	225.31	18.17	-27.7	-27.6	19.2	6.67e-05	0	57	0	5200936960	27	13830
2026-01-26 23:54:05.87	225.58	18.28	-27.7	-27.5	19.2	2.38e-05	0	57	0	5309988864	27	13764
2026-01-26 23:54:06.88	225.85	18.38	-27.6	-27.5	19.3	2.38e-05	0	57	0	5419040768	27	13679
2026-01-26 23:54:07.89	226.12	18.49	-27.6	-27.5	19.3	1.90e-05	0	57	0	5536481280	27	13724
2026-01-26 23:54:08.90	226.39	18.60	-27.6	-27.5	19.3	1.90e-05	0	57	0	5662310400	27	13712
2026-01-26 23:54:09.91	226.66	18.70	-27.7	-27.5	19.3	1.90e-05	0	57	0	5771362304	27	13740
2026-01-26 23:54:10.92	226.94	18.81	-27.4	-27.3	19.3	1.43e-05	0	57	0	5880414208	26	14184
2026-01-26 23:54:11.93	227.22	18.92	-27.3	-27.2	19.4	1.43e-05	0	57	0	5997854720	26	14031
2026-01-26 23:54:12.93	227.50	19.02	-27.4	-27.3	19.3	1.43e-05	0	57	0	6106906624	26	14221
2026-01-26 23:54:13.94	227.78	19.13	-27.2	-27.0	19.5	2.86e-05	0	57	0	6224347136	26	13771
2026-01-26 23:54:14.95	228.07	19.24	-26.9	-26.8	19.6	2.86e-05	0	57	0	6333399040	25	14200
2026-01-26 23:54:15.96	228.36	19.35	-27.1	-27.0	19.4	2.86e-05	0	57	0	6442450944	25	14542
2026-01-26 23:54:16.96	228.65	19.45	-27.1	-27.0	19.5	2.86e-05	0	57	0	6559891456	25	14484
2026-01-26 23:54:17.97	228.94	19.56	-26.9	-26.7	19.6	9.50e-06	0	57	0	6668943360	25	14104
2026-01-26 23:54:18.97	229.23	19.66	-26.8	-26.7	19.6	9.50e-06	0	57	0	6786383872	25	14021
2026-01-26 23:54:19.97	229.53	19.77	-26.8	-26.7	19.6	9.50e-06	0	57	0	6895435776	25	13981
2026-01-26 23:54:20.98	229.83	19.88	-26.8	-26.7	19.6	4.70e-06	0	57	0	7012876288	25	14038
2026-01-26 23:54:21.99	230.13	19.98	-26.9	-26.8	19.6	4.70e-06	0	57	0	7121928192	25	14198
2026-01-26 23:54:23.00	230.43	20.09	-26.9	-26.7	19.6	4.70e-06	0	57	0	7247757312	25	14103
2026-01-26 23:54:24.01	230.74	20.19	-26.7	-26.6	19.6	1.43e-05	0	57	0	7356809216	25	13880
2026-01-26 23:54:25.02	231.05	20.30	-26.7	-26.5	19.7	1.43e-05	0	57	0	7474249728	25	13749
2026-01-26 23:54:26.03	231.36	20.41	-26.5	-26.4	19.7	9.50e-06	0	57	0	7583301632	25	13530
2026-01-26 23:54:27.03	231.67	20.51	-26.6	-26.5	19.7	9.50e-06	0	57	0	7692353536	25	13675
2026-01-26 23:54:28.04	231.99	20.62	-26.5	-26.4	19.7	9.50e-06	0	57	0	7809794048	25	13551
2026-01-26 23:54:29.05	232.31	20.72	-26.5	-26.4	19.8	0.00e+00	0	57	0	7918845952	25	13512
2026-01-26 23:54:30.05	232.62	20.82	-26.6	-26.4	19.7	0.00e+00	0	57	0	8036286464	25	13624
2026-01-26 23:54:31.06	232.95	20.93	-26.5	-26.3	19.8	0.00e+00	0	57	0	8145338368	24	14227
2026-01-26 23:54:32.07	233.27	21.03	-26.6	-26.4	19.7	4.70e-06	0	57	0	8254390272	24	14421
2026-01-26 23:54:33.08	233.60	21.14	-26.5	-26.3	19.8	4.70e-06	0	57	0	8371830784	24	14249
2026-01-26 23:54:34.09	233.93	21.24	-26.4	-26.3	19.8	0.00e+00	0	57	0	8480882688	24	14178
2026-01-26 23:54:35.10	234.27	21.34	-26.4	-26.3	19.8	0.00e+00	0	57	0	8606711808	24	14208
2026-01-26 23:54:36.11	234.60	21.45	-26.4	-26.2	19.8	0.00e+00	0	57	0	8715763712	24	14066
2026-01-26 23:54:37.12	234.94	21.55	-26.4	-26.2	19.8	0.00e+00	0	57	0	8833204224	24	14097
2026-01-26 23:54:38.13	235.28	21.65	-26.3	-26.2	19.8	0.00e+00	0	57	0	8942256128	24	13958
2026-01-26 23:54:39.14	235.62	21.75	-26.3	-26.1	19.8	0.00e+00	0	57	0	9059696640	24	13937
2026-01-26 23:54:40.15	235.97	21.85	-26.1	-26.0	19.9	0.00e+00	0	57	0	9168748544	24	13679
2026-01-26 23:54:41.16	236.32	21.95	-26.2	-26.1	19.9	9.50e-06	0	57	0	9277800448	24	13809
2026-01-26 23:54:42.17	236.67	22.05	-26.1	-25.9	19.9	9.50e-06	0	57	0	9395240960	24	13627
2026-01-26 23:54:43.18	237.02	22.15	-26.2	-26.1	19.9	4.70e-06	0	57	0	9504292864	24	13835
2026-01-26 23:54:44.19	237.38	22.25	-26.2	-26.0	19.9	4.70e-06	0	57	0	9621733376	24	13761
2026-01-26 23:54:45.20	237.74	22.35	-26.1	-25.9	20.0	0.00e+00	0	57	0	9739173888	24	13623
2026-01-26 23:54:46.21	238.10	22.45	-26.2	-26.0	19.9	0.00e+00	0	57	0	9856614400	24	13750
2026-01-26 23:54:47.22	238.46	22.54	-25.9	-25.8	20.0	0.00e+00	0	57	0	9965666304	23	14120
2026-01-26 23:54:48.23	238.82	22.64	-25.8	-25.7	20.0	0.00e+00	0	57	0	10083106816	23	13980
2026-01-26 23:54:49.24	239.19	22.74	-25.7	-25.6	20.1	0.00e+00	0	58	0	10192158720	23	13856
2026-01-26 23:54:50.25	239.56	22.83	-25.8	-25.7	20.0	0.00e+00	0	57	0	10309599232	23	14004
2026-01-26 23:54:51.25	239.93	22.92	-25.6	-25.5	20.1	0.00e+00	0	57	0	10418651136	23	13728
2026-01-26 23:54:52.26	240.31	23.02	-25.6	-25.4	20.1	0.00e+00	0	57	0	10527703040	23	13590
2026-01-26 23:54:53.27	240.68	23.11	-25.6	-25.4	20.1	0.00e+00	0	57	0	10645143552	23	13578
2026-01-26 23:54:54.27	241.06	23.20	-25.5	-25.3	20.1	0.00e+00	0	57	0	10754195456	22	14250
2026-01-26 23:54:55.28	241.44	23.29	-25.5	-25.4	20.1	0.00e+00	0	57	0	10871635968	22	14289
2026-01-26 23:54:56.29	241.83	23.38	-25.3	-25.2	20.2	0.00e+00	0	58	0	10980687872	22	14042
2026-01-26 23:54:57.29	242.21	23.47	-25.8	-25.7	20.0	0.00e+00	0	57	0	11106516992	22	14826
2026-01-26 23:54:58.30	242.60	23.56	-25.6	-25.5	20.1	4.70e-06	0	57	0	11215568896	22	14516
2026-01-26 23:54:59.31	243.00	23.65	-25.6	-25.5	20.1	4.70e-06	0	57	0	11333009408	22	14476
2026-01-26 23:55:00.32	243.39	23.74	-25.7	-25.6	20.0	4.70e-06	0	57	0	11442061312	22	14636
2026-01-26 23:55:01.33	243.79	23.82	-25.2	-25.1	20.3	0.00e+00	0	58	0	11551113216	22	13885
2026-01-26 23:55:02.33	244.18	23.91	-25.3	-25.1	20.2	0.00e+00	0	58	0	11668553728	22	13946
2026-01-26 23:55:03.34	244.58	23.99	-25.4	-25.2	20.2	0.00e+00	0	58	0	11777605632	22	14069
2026-01-26 23:55:04.35	244.99	24.07	-25.2	-25.1	20.3	0.00e+00	0	58	0	11895046144	22	13860
2026-01-26 23:55:05.36	245.40	24.16	-25.2	-25.1	20.2	0.00e+00	0	57	0	12004098048	22	13842
2026-01-26 23:55:06.36	245.80	24.24	-25.3	-25.1	20.3	0.00e+00	0	57	0	12113149952	22	13912
2026-01-26 23:55:07.36	246.21	24.32	-25.2	-25.0	20.3	0.00e+00	0	58	0	12230590464	22	13757
2026-01-26 23:55:08.37	246.62	24.39	-25.2	-25.1	20.3	0.00e+00	0	57	0	12339642368	22	13792
2026-01-26 23:55:09.38	247.04	24.47	-25.1	-25.0	20.3	0.00e+00	0	57	0	12457082880	22	13678
2026-01-26 23:55:10.39	247.45	24.55	-25.2	-25.0	20.3	0.00e+00	0	58	0	12566134784	22	13761
2026-01-26 23:55:11.40	247.87	24.62	-25.1	-25.0	20.4	0.00e+00	0	57	0	12691963904	22	13672
2026-01-26 23:55:12.41	248.30	24.70	-25.2	-25.1	20.3	0.00e+00	0	57	0	12801015808	22	13869
2026-01-26 23:55:13.41	248.72	24.77	-25.1	-25.0	20.4	0.00e+00	0	57	0	12918456320	22	13667
2026-01-26 23:55:14.42	249.14	24.84	-25.2	-25.1	20.3	0.00e+00	0	58	0	13027508224	22	13864
2026-01-26 23:55:15.42	249.57	24.91	-25.1	-25.0	20.3	0.00e+00	0	57	0	13136560128	22	13666
2026-01-26 23:55:16.43	250.00	24.98	-25.0	-24.9	20.4	0.00e+00	0	58	0	13254000640	22	13579
2026-01-26 23:55:17.44	250.43	25.05	-25.1	-24.9	20.4	0.00e+00	0	57	0	13363052544	22	13612
2026-01-26 23:55:18.45	250.86	25.11	-25.1	-25.0	20.4	0.00e+00	0	57	0	13480493056	22	13633
2026-01-26 23:55:19.45	251.30	25.18	-25.1	-24.9	20.4	0.00e+00	0	58	0	13589544960	22	13595
2026-01-26 23:55:20.46	251.73	25.24	-25.1	-24.9	20.4	0.00e+00	0	57	0	13706985472	22	13628
2026-01-26 23:55:21.47	252.17	25.30	-25.0	-24.9	20.4	0.00e+00	0	58	0	13816037376	22	13556
2026-01-26 23:55:22.48	252.62	25.36	-25.0	-24.9	20.4	0.00e+00	0	58	0	13925089280	22	13533
2026-01-26 23:55:23.49	253.06	25.42	-25.0	-24.8	20.4	0.00e+00	0	58	0	14042529792	21	14273
2026-01-26 23:55:24.50	253.51	25.48	-25.1	-24.9	20.3	0.00e+00	0	58	0	14159970304	21	14433
2026-01-26 23:55:25.50	253.95	25.54	-25.1	-25.0	20.3	0.00e+00	0	58	0	14277410816	21	14524
2026-01-26 23:55:26.51	254.40	25.59	-25.0	-24.9	20.4	0.00e+00	0	58	0	14386462720	21	14339
2026-01-26 23:55:27.52	254.85	25.64	-25.1	-24.9	20.4	0.00e+00	0	58	0	14503903232	21	14370
2026-01-26 23:55:28.53	255.30	25.69	-25.1	-25.0	20.4	0.00e+00	0	58	0	14612955136	21	14479
2026-01-26 23:55:29.54	255.75	25.74	-24.9	-24.7	20.4	0.00e+00	0	58	0	14730395648	21	14097
2026-01-26 23:55:30.55	256.21	25.79	-24.9	-24.8	20.2	0.00e+00	0	58	0	14839447552	21	14151
2026-01-26 23:55:31.56	256.67	25.84	-24.9	-24.8	20.2	0.00e+00	0	57	0	14948499456	21	14169
2026-01-26 23:55:32.57	257.12	25.88	-24.9	-24.7	20.3	0.00e+00	0	58	0	15065939968	21	14102
2026-01-26 23:55:33.58	257.58	25.92	-24.9	-24.8	20.2	0.00e+00	0	58	0	15174991872	21	14210
2026-01-26 23:55:34.59	258.04	25.96	-25.2	-25.1	19.9	0.00e+00	0	58	0	15292432384	21	14642
2026-01-26 23:55:35.59	258.50	26.00	-25.2	-25.0	20.1	0.00e+00	0	58	0	15401484288	21	14565
2026-01-26 23:55:36.60	258.96	26.04	-25.2	-25.0	20.2	0.00e+00	0	58	0	15527313408	21	14582
2026-01-26 23:55:37.61	259.43	26.08	-24.8	-24.7	20.3	0.00e+00	0	58	0	15636365312	21	14028
2026-01-26 23:55:38.62	259.89	26.11	-24.9	-24.8	20.3	0.00e+00	0	58	0	15753805824	21	14154
2026-01-26 23:55:39.63	260.36	26.14	-25.0	-24.9	19.9	0.00e+00	0	58	0	15862857728	21	14297
2026-01-26 23:55:40.64	260.83	26.17	-24.9	-24.8	20.2	0.00e+00	0	58	0	15971909632	21	14183
2026-01-26 23:55:41.64	261.29	26.20	-24.9	-24.8	20.3	0.00e+00	0	58	0	16089350144	21	14135
2026-01-26 23:55:42.65	261.76	26.23	-24.9	-24.7	20.3	0.00e+00	0	57	0	16198402048	21	14061
2026-01-26 23:55:43.66	262.23	26.25	-25.0	-24.9	20.2	0.00e+00	0	58	0	16315842560	21	14351
2026-01-26 23:55:44.67	262.70	26.28	-25.0	-24.9	20.0	0.00e+00	0	58	0	16424894464	21	14292
2026-01-26 23:55:45.68	263.17	26.30	-24.8	-24.7	20.3	0.00e+00	0	57	0	16533946368	21	14025
2026-01-26 23:55:46.69	263.65	26.32	-24.9	-24.7	20.3	0.00e+00	0	58	0	16651386880	21	14068
2026-01-26 23:55:47.69	264.11	26.33	-24.7	-24.6	20.4	0.00e+00	0	57	0	16760438784	21	13880
2026-01-26 23:55:48.70	264.59	26.35	-25.1	-25.0	20.2	0.00e+00	0	58	0	16886267904	21	14467
2026-01-26 23:55:49.71	265.06	26.36	-24.8	-24.6	20.0	0.00e+00	0	58	0	16995319808	21	13901
2026-01-26 23:55:50.71	265.53	26.37	-25.0	-24.9	20.5	4.70e-06	0	58	0	17112760320	21	14288
2026-01-26 23:55:51.72	266.00	26.38	-25.0	-24.9	20.4	4.70e-06	0	57	0	17221812224	21	14351
2026-01-26 23:55:52.73	266.48	26.39	-24.8	-24.7	20.5	4.70e-06	0	58	0	17339252736	21	13989
2026-01-26 23:55:53.74	266.95	26.40	-24.8	-24.6	20.5	0.00e+00	0	58	0	17448304640	21	13883
2026-01-26 23:55:54.75	267.43	26.40	-25.0	-24.9	20.5	0.00e+00	0	58	0	17565745152	21	14335
2026-01-26 23:55:55.76	267.90	26.40	-24.7	-24.6	20.6	0.00e+00	0	58	0	17674797056	21	13882
2026-01-26 23:55:56.76	268.37	26.40	-25.0	-24.9	20.4	0.00e+00	0	58	0	17783848960	21	14321
2026-01-26 23:55:57.77	268.85	26.40	-24.8	-24.6	20.5	0.00e+00	0	58	0	17901289472	21	13919
2026-01-26 23:55:58.78	269.32	26.40	-24.6	-24.4	20.6	0.00e+00	0	58	0	18010341376	21	13596
2026-01-26 23:55:59.79	269.80	26.39	-24.6	-24.5	20.6	0.00e+00	0	58	0	18127781888	21	13729
2026-01-26 23:56:00.80	270.27	26.38	-24.6	-24.5	20.6	0.00e+00	0	58	0	18245222400	21	13698
2026-01-26 23:56:01.81	270.75	26.37	-25.3	-25.2	20.3	0.00e+00	0	58	0	18362662912	21	14905
2026-01-26 23:56:02.82	271.22	26.36	-25.0	-24.9	20.4	0.00e+00	0	58	0	18471714816	21	14325
2026-01-26 23:56:03.83	271.69	26.35	-24.9	-24.8	20.5	0.00e+00	0	58	0	18589155328	21	14125
2026-01-26 23:56:04.84	272.17	26.33	-24.7	-24.5	20.6	0.00e+00	0	58	0	18698207232	21	13789
2026-01-26 23:56:05.85	272.64	26.32	-24.7	-24.5	20.6	0.00e+00	0	58	0	18807259136	21	13744
2026-01-26 23:56:06.86	273.11	26.30	-24.8	-24.7	20.5	0.00e+00	0	58	0	18924699648	21	13994
2026-01-26 23:56:07.87	273.58	26.28	-24.8	-24.7	20.5	0.00e+00	0	58	0	19033751552	21	13973
2026-01-26 23:56:08.87	274.05	26.25	-25.0	-24.8	20.5	0.00e+00	0	58	0	19151192064	21	14269
2026-01-26 23:56:09.88	274.52	26.23	-24.7	-24.5	20.5	0.00e+00	0	58	0	19260243968	21	13765
2026-01-26 23:56:10.89	274.99	26.20	-24.8	-24.7	20.5	0.00e+00	0	58	0	19369295872	21	14001
2026-01-26 23:56:11.90	275.46	26.17	-24.9	-24.7	20.5	0.00e+00	0	58	0	19495124992	21	14055
2026-01-26 23:56:12.91	275.92	26.14	-24.9	-24.8	20.5	0.00e+00	0	58	0	19612565504	21	14135
2026-01-26 23:56:13.91	276.38	26.11	-25.3	-25.1	20.4	0.00e+00	0	58	0	19721617408	21	14771
2026-01-26 23:56:14.92	276.85	26.08	-24.8	-24.7	20.5	0.00e+00	0	58	0	19830669312	21	14023
2026-01-26 23:56:15.93	277.31	26.04	-24.8	-24.7	20.6	0.00e+00	0	58	0	19948109824	21	13963
2026-01-26 23:56:16.94	277.77	26.01	-24.7	-24.6	20.6	0.00e+00	0	58	0	20057161728	21	13869
2026-01-26 23:56:17.95	278.24	25.97	-24.9	-24.8	20.5	0.00e+00	0	58	0	20174602240	21	14154
2026-01-26 23:56:18.96	278.70	25.93	-25.0	-24.8	20.5	0.00e+00	0	58	0	20283654144	21	14240
2026-01-26 23:56:19.97	279.16	25.88	-24.9	-24.8	20.5	0.00e+00	0	58	0	20392706048	21	14119
2026-01-26 23:56:20.98	279.61	25.84	-25.0	-24.8	20.5	0.00e+00	0	58	0	20510146560	21	14269
2026-01-26 23:56:21.98	280.06	25.79	-25.0	-24.9	20.5	0.00e+00	0	58	0	20619198464	21	14335
2026-01-26 23:56:22.99	280.52	25.75	-25.1	-24.9	20.5	0.00e+00	0	58	0	20736638976	21	14395
2026-01-26 23:56:24.00	280.97	25.70	-25.1	-24.9	20.5	0.00e+00	0	58	0	20854079488	21	14404
2026-01-26 23:56:25.01	281.42	25.65	-24.9	-24.8	20.5	0.00e+00	0	58	0	20971520000	21	14183
2026-01-26 23:56:26.01	281.87	25.59	-25.2	-25.1	20.4	0.00e+00	0	58	0	21080571904	21	14655
2026-01-26 23:56:27.02	282.32	25.54	-25.0	-24.9	20.5	0.00e+00	0	58	0	21198012416	21	14298
2026-01-26 23:56:28.02	282.76	25.49	-24.9	-24.8	20.5	0.00e+00	0	58	0	21307064320	21	14206
2026-01-26 23:56:29.03	283.20	25.43	-25.0	-24.9	20.6	0.00e+00	0	58	0	21424504832	21	14278
2026-01-26 23:56:30.04	283.65	25.37	-25.0	-24.9	20.5	0.00e+00	0	58	0	21533556736	21	14365
2026-01-26 23:56:31.05	284.09	25.31	-25.3	-25.2	20.4	0.00e+00	0	58	0	21642608640	21	14866
2026-01-26 23:56:32.06	284.53	25.25	-25.1	-24.9	20.5	0.00e+00	0	58	0	21760049152	21	14437
2026-01-26 23:56:33.07	284.96	25.19	-25.1	-25.0	20.5	0.00e+00	0	58	0	21869101056	21	14491
2026-01-26 23:56:34.08	285.40	25.12	-25.1	-25.0	20.5	0.00e+00	0	58	0	21986541568	21	14461
2026-01-26 23:56:35.09	285.83	25.06	-25.1	-25.0	20.5	0.00e+00	0	58	0	22095593472	21	14491
2026-01-26 23:56:36.10	286.27	24.99	-25.1	-25.0	20.5	0.00e+00	0	58	0	22221422592	21	14537
2026-01-26 23:56:37.11	286.69	24.92	-25.2	-25.0	20.5	0.00e+00	0	58	0	22330474496	21	14578
2026-01-26 23:56:38.11	287.12	24.85	-25.2	-25.0	20.5	0.00e+00	0	58	0	22447915008	21	14586
2026-01-26 23:56:39.12	287.54	24.78	-25.2	-25.1	20.5	0.00e+00	0	58	0	22556966912	21	14664
2026-01-26 23:56:40.12	287.96	24.71	-25.2	-25.1	20.5	0.00e+00	0	58	0	22666018816	21	14678
2026-01-26 23:56:41.13	288.38	24.63	-25.2	-25.0	20.5	0.00e+00	0	58	0	22783459328	21	14553
2026-01-26 23:56:42.13	288.80	24.56	-25.2	-25.1	20.5	0.00e+00	0	58	0	22892511232	21	14643
2026-01-26 23:56:43.14	289.21	24.48	-25.2	-25.1	20.4	0.00e+00	0	58	0	23009951744	21	14708
2026-01-26 23:56:44.15	289.63	24.41	-25.2	-25.1	20.5	0.00e+00	0	58	0	23119003648	21	14706
2026-01-26 23:56:45.16	290.04	24.33	-25.3	-25.2	20.4	0.00e+00	0	58	0	23228055552	21	14838
2026-01-26 23:56:46.17	290.45	24.25	-25.4	-25.3	20.4	0.00e+00	0	58	0	23345496064	21	15039
2026-01-26 23:56:47.18	290.86	24.17	-25.4	-25.3	20.4	0.00e+00	0	58	0	23454547968	21	14958
2026-01-26 23:56:48.19	291.26	24.09	-25.4	-25.3	20.4	0.00e+00	0	58	0	23571988480	21	15022
2026-01-26 23:56:49.19	291.66	24.00	-25.5	-25.3	20.4	0.00e+00	0	58	0	23689428992	21	15104
2026-01-26 23:56:50.20	292.06	23.92	-25.4	-25.3	20.4	0.00e+00	0	58	0	23806869504	21	15047
2026-01-26 23:56:51.21	292.46	23.84	-25.5	-25.4	20.4	0.00e+00	0	58	0	23915921408	21	15142
2026-01-26 23:56:52.21	292.86	23.75	-25.6	-25.5	20.4	0.00e+00	0	58	0	24033361920	21	15322
2026-01-26 23:56:53.22	293.25	23.66	-25.6	-25.5	20.3	0.00e+00	0	58	0	24142413824	21	15368
2026-01-26 23:56:54.23	293.64	23.58	-25.8	-25.7	20.3	0.00e+00	0	58	0	24251465728	22	14827
2026-01-26 23:56:55.23	294.03	23.49	-25.7	-25.6	20.4	0.00e+00	0	58	0	24368906240	22	14687
2026-01-26 23:56:56.24	294.41	23.40	-26.0	-25.8	20.2	0.00e+00	0	58	0	24477958144	22	15065
2026-01-26 23:56:57.25	294.80	23.31	-25.7	-25.6	20.3	0.00e+00	0	58	0	24595398656	22	14654
2026-01-26 23:56:58.26	295.18	23.22	-25.9	-25.7	20.3	0.00e+00	0	58	0	24704450560	22	14887
2026-01-26 23:56:59.27	295.56	23.13	-25.8	-25.6	20.3	0.00e+00	0	58	0	24821891072	22	14720
2026-01-26 23:57:00.27	295.93	23.04	-25.8	-25.7	20.3	0.00e+00	0	58	0	24930942976	22	14815
2026-01-26 23:57:01.28	296.30	22.94	-25.9	-25.7	20.3	0.00e+00	0	58	0	25039994880	22	14916
2026-01-26 23:57:02.29	296.68	22.85	-25.9	-25.7	20.3	0.00e+00	0	58	0	25165824000	22	14934
2026-01-26 23:57:03.31	297.05	22.75	-26.0	-25.8	20.2	0.00e+00	0	58	0	25274875904	22	15120
2026-01-26 23:57:04.31	297.41	22.66	-26.0	-25.8	20.2	0.00e+00	0	58	0	25392316416	22	15117
2026-01-26 23:57:05.32	297.78	22.56	-26.1	-26.0	20.2	0.00e+00	0	58	0	25501368320	22	15368
2026-01-26 23:57:06.33	298.14	22.47	-26.1	-26.0	20.2	0.00e+00	0	58	0	25618808832	22	15409
2026-01-26 23:57:07.33	298.49	22.37	-26.1	-26.0	20.2	0.00e+00	0	58	0	25727860736	22	15361
2026-01-26 23:57:08.34	298.85	22.27	-26.2	-26.1	20.1	0.00e+00	0	58	0	25845301248	22	15493
2026-01-26 23:57:09.35	299.21	22.17	-26.3	-26.1	20.1	0.00e+00	0	58	0	25954353152	23	14765
2026-01-26 23:57:10.36	299.56	22.08	-26.3	-26.1	20.1	0.00e+00	0	58	0	26063405056	23	14765
2026-01-26 23:57:11.37	299.91	21.98	-26.4	-26.2	20.1	4.70e-06	0	58	0	26180845568	23	14920
2026-01-26 23:57:12.38	300.25	21.88	-26.3	-26.2	20.1	4.70e-06	0	58	0	26289897472	23	14839
2026-01-26 23:57:13.38	300.59	21.78	-26.4	-26.2	20.1	4.70e-06	0	58	0	26407337984	23	14938
2026-01-26 23:57:14.39	300.94	21.68	-26.4	-26.3	20.1	0.00e+00	0	58	0	26524778496	23	14958
2026-01-26 23:57:15.40	301.28	21.58	-26.5	-26.4	20.0	0.00e+00	0	58	0	26642219008	23	15162
2026-01-26 23:57:16.41	301.61	21.47	-26.5	-26.3	20.1	0.00e+00	0	58	0	26751270912	23	15109
2026-01-26 23:57:17.42	301.95	21.37	-26.5	-26.4	20.0	0.00e+00	0	58	0	26868711424	23	15178
2026-01-26 23:57:18.43	302.28	21.27	-26.6	-26.5	20.0	0.00e+00	0	58	0	26977763328	23	15297
2026-01-26 23:57:19.44	302.61	21.17	-26.6	-26.5	20.0	0.00e+00	0	58	0	27086815232	23	15356
2026-01-26 23:57:20.44	302.93	21.06	-26.7	-26.6	20.0	0.00e+00	0	58	0	27204255744	24	14636
2026-01-26 23:57:21.45	303.26	20.96	-26.8	-26.6	19.9	0.00e+00	0	58	0	27313307648	24	14718
2026-01-26 23:57:22.46	303.58	20.86	-26.7	-26.6	19.9	0.00e+00	0	58	0	27430748160	24	14712
2026-01-26 23:57:23.47	303.90	20.75	-26.7	-26.6	20.0	0.00e+00	0	58	0	27539800064	24	14707
2026-01-26 23:57:24.47	304.22	20.65	-26.9	-26.7	19.9	0.00e+00	0	58	0	27648851968	24	14905
2026-01-26 23:57:25.48	304.53	20.55	-26.9	-26.7	19.9	0.00e+00	0	58	0	27766292480	24	14912
2026-01-26 23:57:26.49	304.84	20.44	-27.0	-26.8	19.8	0.00e+00	0	58	0	27875344384	24	15118
2026-01-26 23:57:27.50	305.16	20.34	-27.0	-26.9	19.8	4.70e-06	0	58	0	28001173504	24	15190
2026-01-26 23:57:28.51	305.46	20.23	-27.1	-26.9	19.8	4.70e-06	0	58	0	28110225408	24	15294
2026-01-26 23:57:29.51	305.77	20.13	-27.0	-26.9	19.8	4.70e-06	0	58	0	28227665920	24	15143
2026-01-26 23:57:30.51	306.07	20.02	-27.1	-27.0	19.8	4.70e-06	0	58	0	28336717824	24	15305
2026-01-26 23:57:31.52	306.37	19.92	-27.1	-27.0	19.8	0.00e+00	0	58	0	28454158336	24	15415
2026-01-26 23:57:32.53	306.67	19.81	-27.3	-27.2	19.7	0.00e+00	0	58	0	28563210240	25	14784
2026-01-26 23:57:33.54	306.96	19.71	-27.2	-27.1	19.8	0.00e+00	0	58	0	28672262144	25	14679
2026-01-26 23:57:34.55	307.26	19.60	-27.4	-27.2	19.7	9.50e-06	0	58	0	28789702656	25	14901
2026-01-26 23:57:35.56	307.55	19.49	-27.3	-27.1	19.7	9.50e-06	0	58	0	28898754560	25	14771
2026-01-26 23:57:36.57	307.84	19.39	-27.3	-27.2	19.7	0.00e+00	0	58	0	29016195072	25	14872
2026-01-26 23:57:37.57	308.12	19.28	-27.4	-27.3	19.6	0.00e+00	0	58	0	29125246976	25	14974
2026-01-26 23:57:38.59	308.41	19.17	-27.5	-27.4	19.6	0.00e+00	0	58	0	29242687488	25	15186
2026-01-26 23:57:39.59	308.69	19.07	-27.6	-27.4	19.5	0.00e+00	0	58	0	29351739392	25	15279
2026-01-26 23:57:40.60	308.97	18.96	-27.6	-27.4	19.5	0.00e+00	0	58	0	29477568512	25	15262
2026-01-26 23:57:41.60	309.25	18.86	-27.6	-27.5	19.5	0.00e+00	0	58	0	29586620416	25	15412
2026-01-26 23:57:42.61	309.53	18.75	-27.7	-27.5	19.5	9.50e-06	0	58	0	29704060928	26	14601
2026-01-26 23:57:43.62	309.80	18.64	-27.8	-27.7	19.4	9.50e-06	0	58	0	29813112832	26	14899
2026-01-26 23:57:44.62	310.07	18.54	-27.8	-27.6	19.5	9.50e-06	0	58	0	29922164736	26	14774
2026-01-26 23:57:45.63	310.34	18.43	-27.9	-27.7	19.4	1.43e-05	0	58	0	30039605248	26	14915
2026-01-26 23:57:46.64	310.61	18.33	-28.1	-27.9	19.3	1.43e-05	0	58	0	30148657152	26	15283
2026-01-26 23:57:47.64	310.87	18.22	-28.1	-28.0	19.3	1.43e-05	0	58	0	30266097664	26	15351
2026-01-26 23:57:48.65	311.14	18.11	-28.2	-28.1	19.3	1.90e-05	0	58	0	30375149568	27	14642
2026-01-26 23:57:49.66	311.40	18.01	-28.2	-28.0	19.3	1.90e-05	0	58	0	30484201472	27	14593
2026-01-26 23:57:50.67	311.66	17.90	-28.2	-28.1	19.3	1.90e-05	0	58	0	30601641984	27	14719
2026-01-26 23:57:51.68	311.91	17.79	-28.3	-28.2	19.3	1.90e-05	0	58	0	30710693888	27	14791
2026-01-26 23:57:52.69	312.17	17.69	-28.5	-28.3	19.2	2.86e-05	0	58	0	30828134400	27	15091
2026-01-26 23:57:53.70	312.42	17.58	-28.4	-28.3	19.3	2.86e-05	0	58	0	30945574912	27	14983
2026-01-26 23:57:54.71	312.67	17.48	-28.5	-28.4	19.2	2.38e-05	0	58	0	31063015424	27	15154
2026-01-26 23:57:55.71	312.92	17.37	-28.6	-28.5	19.1	2.38e-05	0	58	0	31172067328	27	15323
2026-01-26 23:57:56.72	313.17	17.27	-28.6	-28.5	19.1	5.72e-05	0	58	0	31289507840	27	15379
2026-01-26 23:57:57.73	313.41	17.16	-28.7	-28.6	19.1	5.72e-05	0	58	0	31398559744	27	15494
2026-01-26 23:57:58.74	313.66	17.06	-28.7	-28.6	19.1	5.24e-05	0	58	0	31507611648	28	14608
2026-01-26 23:57:59.74	313.90	16.95	-28.7	-28.5	19.1	5.24e-05	0	58	0	31625052160	28	14593
2026-01-26 23:58:00.75	314.14	16.85	-28.9	-28.7	19.0	5.24e-05	0	58	0	31734104064	28	14931
2026-01-26 23:58:01.76	314.38	16.74	-29.0	-28.9	18.9	1.19e-04	0	58	0	31851544576	28	15148
2026-01-26 23:58:02.77	314.61	16.64	-28.9	-28.7	19.0	1.19e-04	0	58	0	31960596480	28	14925
2026-01-26 23:58:03.78	314.85	16.53	-28.9	-28.8	18.9	1.19e-04	0	58	0	32078036992	28	14980
2026-01-26 23:58:04.79	315.08	16.43	-29.0	-28.8	18.9	1.19e-04	0	58	0	32187088896	28	15074
2026-01-26 23:58:05.80	315.31	16.32	-28.9	-28.8	19.0	1.00e-04	0	58	0	32312918016	28	14952
2026-01-26 23:58:06.81	315.54	16.22	-29.0	-28.9	18.9	1.00e-04	0	58	0	32421969920	28	15173
2026-01-26 23:58:07.81	315.76	16.12	-29.1	-28.9	18.8	6.19e-05	0	58	0	32531021824	28	15266
2026-01-26 23:58:08.82	315.99	16.01	-29.0	-28.9	18.9	6.19e-05	0	58	0	32648462336	28	15172
2026-01-26 23:58:09.83	316.21	15.91	-29.0	-28.9	18.8	6.19e-05	0	58	0	32757514240	28	15252
2026-01-26 23:58:10.84	316.43	15.80	-29.1	-29.0	18.8	1.10e-04	0	58	0	32874954752	28	15398
2026-01-26 23:58:11.85	316.65	15.70	-29.1	-29.0	18.8	1.10e-04	0	58	0	32984006656	28	15305
2026-01-26 23:58:12.85	316.87	15.60	-29.2	-29.0	18.8	1.33e-04	0	58	0	33101447168	29	14592
2026-01-26 23:58:13.86	317.09	15.50	-29.3	-29.2	18.7	1.33e-04	0	58	0	33210499072	29	14802
2026-01-26 23:58:14.87	317.30	15.39	-29.3	-29.2	18.7	1.33e-04	0	58	0	33319550976	29	14852
2026-01-26 23:58:15.88	317.51	15.29	-29.5	-29.4	18.6	1.00e-04	0	58	0	33436991488	29	15129
2026-01-26 23:58:16.89	317.72	15.19	-29.4	-29.2	18.7	1.00e-04	0	58	0	33562820608	29	14922
2026-01-26 23:58:17.90	317.93	15.09	-29.5	-29.4	18.6	1.00e-04	0	58	0	33671872512	29	15149
2026-01-26 23:58:18.91	318.14	14.99	-29.4	-29.3	18.6	1.43e-04	0	59	0	33780924416	29	14988
2026-01-26 23:58:19.92	318.35	14.89	-29.5	-29.4	18.6	1.43e-04	0	58	0	33898364928	29	15167
2026-01-26 23:58:20.92	318.55	14.79	-29.6	-29.5	18.5	2.00e-04	0	58	0	34007416832	29	15365
2026-01-26 23:58:21.93	318.76	14.68	-29.7	-29.6	18.5	2.00e-04	0	58	0	34124857344	29	15476
2026-01-26 23:58:22.94	318.96	14.58	-29.7	-29.6	18.5	2.00e-04	0	58	0	34233909248	30	14670
2026-01-26 23:58:23.95	319.16	14.48	-29.8	-29.7	18.4	2.57e-04	0	58	0	34342961152	30	14899
2026-01-26 23:58:24.96	319.36	14.38	-29.8	-29.7	18.4	2.57e-04	0	58	0	34460401664	30	14822
2026-01-26 23:58:25.97	319.55	14.28	-29.9	-29.8	18.4	2.57e-04	0	59	0	34569453568	30	14994
2026-01-26 23:58:26.98	319.75	14.18	-29.9	-29.8	18.3	3.38e-04	0	59	0	34686894080	30	15007
2026-01-26 23:58:27.99	319.94	14.08	-30.0	-29.8	18.3	3.38e-04	0	58	0	34795945984	30	15112
2026-01-26 23:58:28.99	320.13	13.99	-30.0	-29.9	18.2	3.38e-04	0	59	0	34904997888	30	15255
2026-01-26 23:58:29.99	320.32	13.89	-30.0	-29.9	18.3	4.00e-04	0	58	0	35030827008	30	15178
2026-01-26 23:58:31.00	320.51	13.79	-30.1	-30.0	18.2	4.00e-04	0	59	0	35148267520	30	15345
2026-01-26 23:58:32.01	320.70	13.69	-30.2	-30.1	18.2	3.67e-04	0	58	0	35257319424	30	15527
2026-01-26 23:58:33.01	320.89	13.59	-30.2	-30.0	18.2	3.67e-04	0	59	0	35366371328	31	14588
2026-01-26 23:58:34.02	321.07	13.50	-30.2	-30.1	18.1	3.67e-04	0	58	0	35483811840	31	14692
2026-01-26 23:58:35.03	321.26	13.40	-30.3	-30.2	18.1	4.62e-04	0	59	0	35592863744	31	14863
2026-01-26 23:58:36.04	321.44	13.30	-30.3	-30.1	18.1	4.62e-04	0	58	0	35710304256	31	14763
2026-01-26 23:58:37.04	321.62	13.21	-30.3	-30.2	18.1	4.62e-04	0	58	0	35819356160	31	14855
2026-01-26 23:58:38.05	321.80	13.11	-30.5	-30.4	17.9	4.62e-04	0	59	0	35936796672	31	15163
2026-01-26 23:58:39.06	321.98	13.01	-30.4	-30.3	18.0	5.96e-04	0	58	0	36045848576	31	15032
2026-01-26 23:58:40.07	322.15	12.92	-30.6	-30.4	17.9	5.96e-04	0	59	0	36154900480	31	15278
2026-01-26 23:58:41.07	322.33	12.82	-53.4	-55.4	6.2	6.77e-04	0	58	104	36205232128	77	19254
2026-01-26 23:58:42.09	322.50	12.72	-53.7	-56.0	6.2	6.77e-04	0	57	104	36205232128	78	19359
2026-01-26 23:58:43.10	322.68	12.63	-53.7	-55.9	6.2	6.77e-04	0	57	104	36205232128	78	19199
2026-01-26 23:58:44.10	322.85	12.53	-53.8	-55.9	6.2	6.77e-04	0	57	104	36205232128	78	19235
2026-01-26 23:58:45.10	323.02	12.44	-53.8	-56.0	6.2	6.77e-04	0	57	104	36205232128	78	19265
2026-01-26 23:58:46.11	323.19	12.35	-53.8	-55.9	6.2	6.77e-04	0	57	104	36205232128	78	19221
2026-01-26 23:58:47.13	323.36	12.25	-53.8	-55.9	6.2	6.77e-04	0	57	104	36205232128	78	19215
2026-01-26 23:58:48.13	323.52	12.16	-53.8	-55.9	6.2	6.77e-04	0	57	104	36205232128	78	19132
2026-01-26 23:58:49.15	323.69	12.06	-53.8	-56.0	6.2	6.77e-04	0	57	104	36205232128	78	19275
2026-01-26 23:58:50.16	323.85	11.97	-53.8	-55.9	6.2	6.77e-04	0	57	104	36205232128	78	19110
2026-01-26 23:58:51.16	324.01	11.88	-53.7	-55.9	6.2	6.77e-04	0	57	104	36205232128	78	19040
2026-01-26 23:58:52.17	324.18	11.79	-53.8	-55.9	6.2	6.77e-04	0	57	104	36205232128	78	19095
2026-01-26 23:58:53.18	324.34	11.69	-53.7	-55.9	6.2	6.77e-04	0	57	104	36205232128	78	19162
2026-01-26 23:58:54.18	324.50	11.60	-53.7	-55.9	6.2	6.77e-04	0	57	104	36205232128	78	19045
2026-01-26 23:58:55.19	324.65	11.51	-53.7	-55.9	6.2	6.77e-04	0	57	104	36205232128	78	19051
2026-01-26 23:58:56.20	324.81	11.42	-53.7	-55.8	6.2	6.77e-04	0	57	104	36205232128	78	18937
2026-01-26 23:58:57.21	324.97	11.33	-53.7	-55.9	6.2	6.77e-04	0	57	104	36205232128	78	19052
2026-01-26 23:58:58.22	325.12	11.24	-53.7	-55.8	6.2	6.77e-04	0	57	104	36205232128	78	18953
2026-01-26 23:58:59.23	325.28	11.14	-53.7	-55.8	6.2	6.19e-05	0	57	104	36205232128	78	18917
2026-01-26 23:59:00.24	325.43	11.05	-53.7	-55.8	6.2	6.19e-05	0	57	104	36205232128	78	18865
2026-01-26 23:59:01.24	325.58	10.96	-53.7	-55.8	6.2	6.19e-05	0	56	104	36205232128	78	19008
2026-01-26 23:59:02.25	325.73	10.87	-53.7	-55.8	6.2	6.19e-05	0	56	104	36205232128	78	18869
2026-01-26 23:59:03.26	325.88	10.78	-53.6	-55.8	6.2	6.19e-05	0	56	104	36205232128	78	18868
2026-01-26 23:59:04.27	326.03	10.70	-53.6	-55.7	6.2	6.19e-05	0	56	104	36205232128	78	18800
2026-01-26 23:59:05.28	326.18	10.61	-53.6	-55.8	6.2	6.19e-05	0	56	104	36205232128	78	18882
2026-01-26 23:59:06.29	326.32	10.52	-53.6	-55.7	6.2	6.19e-05	0	56	104	36205232128	78	18792
2026-01-26 23:59:07.30	326.47	10.43	-53.5	-55.7	6.2	6.19e-05	0	56	104	36205232128	78	18716
2026-01-26 23:59:08.31	326.61	10.34	-53.6	-55.7	6.2	6.19e-05	0	56	104	36205232128	78	18689
2026-01-26 23:59:09.31	326.75	10.25	-53.5	-55.7	6.2	6.19e-05	0	56	104	36205232128	78	18789
2026-01-26 23:59:10.31	326.90	10.17	-53.5	-55.7	6.2	6.19e-05	0	56	104	36205232128	78	18716
2026-01-26 23:59:11.32	327.04	10.08	-53.6	-55.7	6.2	6.19e-05	0	56	104	36205232128	78	18684
2026-01-26 23:59:12.33	327.18	9.99	-53.5	-55.7	6.2	0.00e+00	0	56	104	36205232128	78	18630
2026-01-26 23:59:13.33	327.32	9.91	-53.5	-55.7	6.2	0.00e+00	0	56	104	36205232128	78	18685
2026-01-26 23:59:14.34	327.45	9.82	-53.5	-55.7	6.2	0.00e+00	0	56	104	36205232128	78	18656
2026-01-26 23:59:15.35	327.59	9.73	-53.5	-55.7	6.2	0.00e+00	0	56	104	36205232128	78	18625
2026-01-26 23:59:16.36	327.73	9.65	-53.5	-55.6	6.2	0.00e+00	0	56	104	36205232128	78	18556
2026-01-26 23:59:17.37	327.86	9.56	-53.5	-55.7	6.2	0.00e+00	0	56	104	36205232128	78	18644
2026-01-26 23:59:18.38	328.00	9.47	-53.4	-55.6	6.2	0.00e+00	0	56	104	36205232128	78	18511
2026-01-26 23:59:19.39	328.13	9.39	-53.5	-55.6	6.2	0.00e+00	0	56	104	36205232128	78	18532
2026-01-26 23:59:20.39	328.26	9.30	-53.5	-55.6	6.2	0.00e+00	0	56	104	36205232128	78	18556
2026-01-26 23:59:21.40	328.40	9.22	-53.5	-55.6	6.2	0.00e+00	0	56	104	36205232128	78	18538
2026-01-26 23:59:22.41	328.53	9.14	-53.4	-55.6	6.2	0.00e+00	0	56	104	36205232128	78	18458
2026-01-26 23:59:23.42	328.66	9.05	-53.4	-55.6	6.2	0.00e+00	0	56	104	36205232128	78	18485
2026-01-26 23:59:24.43	328.79	8.97	-53.4	-55.6	6.2	0.00e+00	0	56	104	36205232128	78	18443
2026-01-26 23:59:25.43	328.91	8.88	-53.4	-55.6	6.2	0.00e+00	0	56	104	36205232128	78	18433
2026-01-26 23:59:26.44	329.04	8.80	-53.4	-55.6	6.2	0.00e+00	0	56	104	36205232128	78	18404
2026-01-26 23:59:27.45	329.17	8.72	-53.4	-55.5	6.2	0.00e+00	0	56	104	36205232128	78	18352
2026-01-26 23:59:28.46	329.29	8.63	-53.4	-55.6	6.2	0.00e+00	0	56	104	36205232128	78	18396
2026-01-26 23:59:29.47	329.42	8.55	-53.4	-55.5	6.2	0.00e+00	0	56	104	36205232128	78	18382
2026-01-26 23:59:30.48	329.54	8.47	-53.4	-55.5	6.2	0.00e+00	0	56	104	36205232128	78	18352
2026-01-26 23:59:31.49	329.67	8.39	-53.4	-55.5	6.2	0.00e+00	0	56	104	36205232128	78	18348
2026-01-26 23:59:32.49	329.79	8.31	-53.4	-55.5	6.2	0.00e+00	0	56	104	36205232128	78	18292
2026-01-26 23:59:33.50	329.91	8.22	-53.4	-55.5	6.2	0.00e+00	0	56	104	36205232128	78	18364
2026-01-26 23:59:34.50	330.03	8.14	-53.3	-55.5	6.2	0.00e+00	0	56	104	36205232128	78	18271
2026-01-26 23:59:35.51	330.15	8.06	-53.4	-55.5	6.2	0.00e+00	0	56	104	36205232128	78	18274
2026-01-26 23:59:36.52	330.27	7.98	-53.3	-55.5	6.2	0.00e+00	0	56	104	36205232128	78	18314
2026-01-26 23:59:37.53	330.39	7.90	-53.3	-55.5	6.2	0.00e+00	0	56	104	36205232128	78	18275
2026-01-26 23:59:38.54	330.51	7.82	-53.3	-55.5	6.2	0.00e+00	0	56	104	36205232128	78	18258
2026-01-26 23:59:39.55	330.62	7.74	-53.3	-55.4	6.2	0.00e+00	0	56	104	36205232128	78	18129
2026-01-26 23:59:40.56	330.74	7.66	-53.3	-55.5	6.2	0.00e+00	0	56	104	36205232128	78	18214
2026-01-26 23:59:41.56	330.85	7.58	-53.3	-55.4	6.2	0.00e+00	0	55	104	36205232128	78	18135
2026-01-26 23:59:42.57	330.97	7.50	-53.3	-55.5	6.2	0.00e+00	0	56	104	36205232128	78	18189
2026-01-26 23:59:43.58	331.08	7.42	-53.3	-55.4	6.2	0.00e+00	0	56	104	36205232128	78	18102
2026-01-26 23:59:44.59	331.20	7.34	-53.3	-55.4	6.2	0.00e+00	0	56	104	36205232128	78	18135
2026-01-26 23:59:45.59	331.31	7.27	-53.3	-55.4	6.2	0.00e+00	0	55	104	36205232128	78	18120
2026-01-26 23:59:46.60	331.42	7.19	-53.3	-55.4	6.2	0.00e+00	0	56	104	36205232128	78	18101
2026-01-26 23:59:47.61	331.53	7.11	-53.3	-55.4	6.2	0.00e+00	0	55	104	36205232128	78	17993
2026-01-26 23:59:48.61	331.64	7.03	-53.3	-55.4	6.2	0.00e+00	0	56	104	36205232128	78	18106
2026-01-26 23:59:49.62	331.75	6.95	-53.2	-55.3	6.2	0.00e+00	0	55	104	36205232128	78	17968
2026-01-26 23:59:50.63	331.86	6.88	-53.2	-55.3	6.2	0.00e+00	0	56	104	36205232128	78	17967
2026-01-26 23:59:51.64	331.97	6.80	-53.2	-55.3	6.2	0.00e+00	0	55	104	36205232128	78	17888
2026-01-26 23:59:52.65	332.08	6.72	-53.2	-55.4	6.2	0.00e+00	0	55	104	36205232128	78	18043
2026-01-26 23:59:53.65	332.18	6.65	-53.2	-55.3	6.2	0.00e+00	0	56	104	36205232128	78	17952
2026-01-26 23:59:54.66	332.29	6.57	-53.2	-55.3	6.2	0.00e+00	0	56	104	36205232128	78	17953
2026-01-26 23:59:55.67	332.39	6.49	-53.2	-55.3	6.2	0.00e+00	0	56	104	36205232128	78	17793
2026-01-26 23:59:56.68	332.50	6.42	-53.2	-55.3	6.2	0.00e+00	0	55	104	36205232128	78	17951
2026-01-26 23:59:57.69	332.60	6.34	-53.1	-55.3	6.2	0.00e+00	0	55	104	36205232128	78	17784
2026-01-26 23:59:58.69	332.71	6.27	-53.1	-55.3	6.2	0.00e+00	0	55	104	36205232128	78	17824
2026-01-26 23:59:59.70	332.81	6.19	-53.1	-55.2	6.2	0.00e+00	0	55	104	36205232128	78	17641
2026-01-27 00:00:00.71	332.91	6.12	-53.2	-55.3	6.2	0.00e+00	0	55	104	36205232128	78	17858
2026-01-27 00:00:01.71	333.01	6.04	-53.1	-55.2	6.2	0.00e+00	0	55	104	36205232128	78	17709
2026-01-27 00:00:02.72	333.12	5.97	-53.1	-55.2	6.2	0.00e+00	0	55	104	36205232128	78	17707
2026-01-27 00:00:03.73	333.22	5.89	-53.0	-55.1	6.2	0.00e+00	0	56	104	36205232128	78	17560
2026-01-27 00:00:04.73	333.32	5.82	-53.1	-55.3	6.2	0.00e+00	0	56	104	36205232128	78	17793
2026-01-27 00:00:05.74	333.41	5.74	-53.0	-55.1	6.2	0.00e+00	0	55	104	36205232128	78	17462
2026-01-27 00:00:06.75	333.51	5.67	-53.1	-55.2	6.2	0.00e+00	0	55	104	36205232128	77	18656
2026-01-27 00:00:07.76	333.61	5.60	-52.9	-55.0	6.2	0.00e+00	0	55	104	36205232128	77	18270
2026-01-27 00:00:08.77	333.71	5.52	-53.0	-55.2	6.2	0.00e+00	0	55	104	36205232128	77	18619
2026-01-27 00:00:09.77	333.81	5.45	-52.6	-54.7	6.2	0.00e+00	0	55	104	36205232128	77	17750
2026-01-27 00:00:10.78	333.90	5.38	-53.0	-55.1	6.2	0.00e+00	0	55	104	36205232128	77	18424
2026-01-27 00:00:11.79	334.00	5.30	-52.7	-54.8	6.2	0.00e+00	0	55	104	36205232128	77	17881
2026-01-27 00:00:12.80	334.09	5.23	-53.0	-55.1	6.2	0.00e+00	0	55	104	36205232128	77	18491
2026-01-27 00:00:13.80	334.19	5.16	-51.6	-53.7	6.2	0.00e+00	0	55	104	36205232128	75	17704
2026-01-27 00:00:14.81	334.28	5.09	-52.8	-54.9	6.2	0.00e+00	0	55	104	36205232128	76	19139
2026-01-27 00:00:15.82	334.38	5.02	-51.4	-53.5	6.2	0.00e+00	0	55	104	36205232128	74	18300
2026-01-27 00:00:16.83	334.47	4.94	-52.9	-55.0	6.2	0.00e+00	0	55	104	36205232128	76	19395
2026-01-27 00:00:17.83	334.56	4.87	-53.4	-55.6	6.2	0.00e+00	0	55	104	36205232128	77	19487
2026-01-27 00:00:18.84	334.65	4.80	-53.7	-55.8	6.2	0.00e+00	0	55	104	36205232128	77	19989
2026-01-27 00:00:19.85	334.75	4.73	-53.9	-56.0	6.2	0.00e+00	0	55	104	36205232128	78	19269
2026-01-27 00:00:20.86	334.84	4.66	-54.0	-56.1	6.2	0.00e+00	0	55	104	36205232128	78	19488
2026-01-27 00:00:21.87	334.93	4.59	-54.1	-56.2	6.2	0.00e+00	0	55	104	36205232128	78	19734
2026-01-27 00:00:22.87	335.02	4.52	-54.2	-56.2	6.2	0.00e+00	0	55	104	36205232128	78	19920
2026-01-27 00:00:23.88	335.11	4.45	-54.2	-56.3	6.2	0.00e+00	0	55	104	36205232128	78	20115
2026-01-27 00:00:24.88	335.19	4.38	-54.2	-56.3	6.2	0.00e+00	0	55	104	36205232128	79	18995
2026-01-27 00:00:25.89	335.28	4.31	-54.2	-56.3	6.2	0.00e+00	0	55	104	36205232128	79	18933
2026-01-27 00:00:26.90	335.37	4.24	-53.8	-55.9	6.2	0.00e+00	0	55	104	36205232128	79	18112
2026-01-27 00:00:27.91	335.46	4.17	-54.1	-56.2	6.2	0.00e+00	0	55	104	36205232128	79	18716
2026-01-27 00:00:28.91	335.55	4.10	-54.0	-56.1	6.2	0.00e+00	0	55	104	36205232128	79	18546
2026-01-27 00:00:29.92	335.63	4.03	-54.0	-56.1	6.2	0.00e+00	0	55	104	36205232128	79	18507
2026-01-27 00:00:30.93	335.72	3.96	-54.1	-56.2	6.2	0.00e+00	0	55	104	36205232128	79	18610
2026-01-27 00:00:31.94	335.80	3.89	-54.1	-56.2	6.2	0.00e+00	0	55	104	36205232128	79	18698
2026-01-27 00:00:32.94	335.89	3.82	-54.2	-56.3	6.2	0.00e+00	0	55	104	36205232128	79	18837
2026-01-27 00:00:33.95	335.97	3.76	-54.2	-56.3	6.2	0.00e+00	0	55	104	36205232128	79	18854
2026-01-27 00:00:34.96	336.06	3.69	-54.2	-56.3	6.2	0.00e+00	0	55	104	36205232128	79	18858
2026-01-27 00:00:35.97	336.14	3.62	-54.2	-56.3	6.2	0.00e+00	0	55	104	36205232128	79	19005
2026-01-27 00:00:36.98	336.22	3.55	-54.2	-56.3	6.2	0.00e+00	0	55	104	36205232128	79	18936
2026-01-27 00:00:37.98	336.31	3.48	-54.2	-56.3	6.2	0.00e+00	0	55	104	36205232128	79	18977
2026-01-27 00:00:38.99	336.39	3.42	-54.2	-56.3	6.2	0.00e+00	0	55	104	36205232128	79	18936
2026-01-27 00:00:40.00	336.47	3.35	-54.2	-56.2	6.2	0.00e+00	0	55	104	36205232128	79	18799
2026-01-27 00:00:41.01	336.55	3.28	-54.2	-56.3	6.2	0.00e+00	0	55	104	36205232128	79	18865
2026-01-27 00:00:42.01	336.63	3.22	-54.1	-56.2	6.2	0.00e+00	0	55	104	36205232128	79	18814
2026-01-27 00:00:43.02	336.71	3.15	-54.2	-56.3	6.2	0.00e+00	0	55	104	36205232128	79	18819
2026-01-27 00:00:44.02	336.79	3.08	-54.1	-56.3	6.2	0.00e+00	0	55	104	36205232128	79	18820
2026-01-27 00:00:45.03	336.87	3.02	-54.1	-56.2	6.2	0.00e+00	0	55	104	36205232128	79	18797
2026-01-27 00:00:46.04	336.95	2.95	-54.1	-56.2	6.2	0.00e+00	0	55	104	36205232128	79	18754
2026-01-27 00:00:47.04	337.03	2.88	-54.1	-56.2	6.2	0.00e+00	0	55	104	36205232128	79	18785
2026-01-27 00:00:48.05	337.11	2.82	-54.1	-56.2	6.2	0.00e+00	0	55	104	36205232128	79	18740
2026-01-27 00:00:49.05	337.19	2.75	-54.1	-56.2	6.2	0.00e+00	0	55	104	36205232128	79	18683
2026-01-27 00:00:50.06	337.26	2.69	-54.1	-56.2	6.2	0.00e+00	0	55	104	36205232128	79	18753
2026-01-27 00:00:51.07	337.34	2.62	-54.1	-56.2	6.2	0.00e+00	0	55	104	36205232128	79	18656
2026-01-27 00:00:52.08	337.42	2.56	-54.1	-56.2	6.2	0.00e+00	0	55	104	36205232128	79	18707
2026-01-27 00:00:53.09	337.49	2.49	-54.1	-56.2	6.2	0.00e+00	0	55	104	36205232128	79	18710
2026-01-27 00:00:54.09	337.57	2.43	-54.1	-56.2	6.2	0.00e+00	0	55	104	36205232128	79	18730
2026-01-27 00:00:55.10	337.65	2.36	-54.1	-56.2	6.2	0.00e+00	0	55	104	36205232128	79	18709
2026-01-27 00:00:56.11	337.72	2.30	-54.1	-56.2	6.2	0.00e+00	0	55	104	36205232128	79	18672
2026-01-27 00:00:57.11	337.79	2.23	-54.1	-56.2	6.2	0.00e+00	0	55	104	36205232128	79	18683
2026-01-27 00:00:58.12	337.87	2.17	-54.1	-56.2	6.2	0.00e+00	0	55	104	36205232128	79	18621
2026-01-27 00:00:59.13	337.94	2.10	-54.1	-56.2	6.2	0.00e+00	0	55	104	36205232128	79	18670
2026-01-27 00:01:00.14	338.02	2.04	-54.1	-56.2	6.2	0.00e+00	0	55	104	36205232128	79	18668

#Closed at: 2026-01-27 00:01:01
#Recorded file [36205 MB]: D:/lorett/data/31041_260127_025056.dat