passes_logs/2026/01/26/R3.2S_Murmansk/R3.2S_Murmansk__20260126_042607_AQUA_rec.log

#Pass ID: 20260126_042607_AQUA
#Satellite: AQUA
#Configuration: AQUA
#almurnet v.1.7.20251203
#Start time: 2026-01-26 04:26:06

#Version: 2.2.20231116
#Station: R3.2S_Murmansk
#Location: 33.079688 lon 68.888172 lat
#TLE: 1 27424U 02022A   26025.50647354  .00001868  00000+0  38363-3 0  9992
#TLE: 2 27424  98.4099 352.1114 0001896  65.7986  47.0097 14.61858879262422

#Time	Az	El	Level	Level2	SNR	BER	BlckErr	Temp	State	Recorded	gain1	gain2
2026-01-26 04:26:06.86	32.66	1.97	-55.4	-73.3	3.8	7.44e-01	0	41	0	0	81	29736
2026-01-26 04:26:07.85	32.61	2.03	-55.4	-73.3	3.8	7.46e-01	0	41	104	0	81	29691
2026-01-26 04:26:08.86	32.56	2.09	-55.4	-73.2	3.8	7.44e-01	0	41	104	0	81	29643
2026-01-26 04:26:09.86	32.50	2.15	-55.5	-73.4	3.8	7.48e-01	0	41	104	0	81	30068
2026-01-26 04:26:10.87	32.45	2.21	-55.6	-73.4	3.8	7.46e-01	0	41	104	0	81	30273
2026-01-26 04:26:11.88	32.39	2.28	-55.6	-73.4	3.8	7.42e-01	0	41	104	0	81	30226
2026-01-26 04:26:12.89	32.34	2.34	-55.6	-73.4	3.8	7.48e-01	0	41	104	0	81	30292
2026-01-26 04:26:13.90	32.28	2.40	-55.6	-73.4	3.8	7.46e-01	0	41	104	0	81	30311
2026-01-26 04:26:14.91	32.22	2.47	-55.6	-73.5	3.8	7.42e-01	0	41	104	0	81	30382
2026-01-26 04:26:15.91	32.17	2.53	-55.6	-73.4	3.8	7.46e-01	0	42	104	0	81	30327
2026-01-26 04:26:16.92	32.11	2.59	-55.6	-73.4	3.8	7.47e-01	0	41	104	0	81	30116
2026-01-26 04:26:17.93	32.05	2.66	-55.5	-73.4	3.8	7.45e-01	0	41	104	0	81	30043
2026-01-26 04:26:18.93	32.00	2.72	-55.5	-73.3	3.8	7.46e-01	0	41	104	0	81	29859
2026-01-26 04:26:19.94	31.94	2.79	-55.4	-73.3	3.8	7.44e-01	0	41	104	0	81	29706
2026-01-26 04:26:20.94	31.88	2.85	-55.4	-73.2	3.8	7.43e-01	0	41	104	0	81	29553
2026-01-26 04:26:21.95	31.82	2.91	-55.4	-73.2	3.8	7.45e-01	0	42	104	0	81	29464
2026-01-26 04:26:22.96	31.77	2.98	-55.4	-73.2	3.8	7.43e-01	0	41	104	0	81	29422
2026-01-26 04:26:23.97	31.71	3.04	-55.3	-73.1	3.8	7.45e-01	0	42	104	0	81	29111
2026-01-26 04:26:24.98	31.65	3.11	-55.2	-73.0	3.8	7.42e-01	0	41	104	0	81	28905
2026-01-26 04:26:25.98	31.59	3.17	-55.1	-72.9	3.8	7.43e-01	0	42	104	0	81	28514
2026-01-26 04:26:26.99	31.53	3.24	-55.0	-72.7	3.8	7.43e-01	0	42	104	0	81	27890
2026-01-26 04:26:28.00	31.47	3.30	-54.9	-72.5	3.8	7.48e-01	0	42	104	0	81	27359
2026-01-26 04:26:29.01	31.41	3.37	-54.7	-72.4	3.8	7.46e-01	0	42	104	0	81	26868
2026-01-26 04:26:30.01	31.35	3.43	-54.5	-72.2	3.8	7.43e-01	0	42	104	0	81	26349
2026-01-26 04:26:31.02	31.29	3.50	-54.2	-71.5	3.8	7.44e-01	0	42	104	0	80	25666
2026-01-26 04:26:32.03	31.23	3.56	-53.8	-71.2	3.8	7.43e-01	0	42	104	0	79	26166
2026-01-26 04:26:33.03	31.16	3.63	-53.6	-70.6	3.8	7.44e-01	0	42	104	0	79	24554
2026-01-26 04:26:34.04	31.10	3.69	-53.6	-70.5	3.8	7.45e-01	0	42	104	0	79	24305
2026-01-26 04:26:35.05	31.04	3.76	-53.6	-70.9	3.8	7.46e-01	0	42	104	0	79	25459
2026-01-26 04:26:36.05	30.98	3.83	-53.6	-71.1	3.8	7.45e-01	0	42	104	0	79	26120
2026-01-26 04:26:37.06	30.91	3.89	-53.6	-70.8	3.8	7.44e-01	0	42	104	0	79	25118
2026-01-26 04:26:38.07	30.85	3.96	-53.5	-69.6	3.8	7.45e-01	0	42	104	0	79	21828
2026-01-26 04:26:39.08	30.79	4.03	-53.4	-66.8	4.5	7.25e-01	0	42	104	0	78	16782
2026-01-26 04:26:40.09	30.72	4.09	-53.3	-65.0	5.4	6.99e-01	0	42	0	0	78	13649
2026-01-26 04:26:41.10	30.66	4.16	-53.1	-63.2	6.7	6.69e-01	183	42	0	1048576	78	11079
2026-01-26 04:26:42.11	30.59	4.23	-53.1	-63.2	6.7	6.68e-01	181	42	0	3145728	78	11039
2026-01-26 04:26:43.12	30.53	4.30	-53.0	-62.2	7.6	6.53e-01	183	42	0	4718592	78	9936
2026-01-26 04:26:44.12	30.46	4.36	-53.1	-62.5	7.2	6.55e-01	181	42	0	6815744	78	10265
2026-01-26 04:26:45.13	30.40	4.43	-53.1	-62.9	7.0	6.63e-01	183	42	0	8388608	78	10752
2026-01-26 04:26:46.13	30.33	4.50	-53.1	-62.7	7.2	6.58e-01	181	42	0	10485760	78	10499
2026-01-26 04:26:47.14	30.27	4.57	-53.0	-62.2	7.8	6.48e-01	182	42	0	12582912	78	9845
2026-01-26 04:26:48.15	30.20	4.63	-52.8	-60.8	9.2	6.28e-01	0	42	0	14155776	77	8864
2026-01-26 04:26:49.16	30.13	4.70	-52.6	-60.0	10.1	6.19e-01	0	42	0	16252928	77	8087
2026-01-26 04:26:50.17	30.07	4.77	-52.0	-57.7	12.4	6.05e-01	0	42	0	18350080	76	6600
2026-01-26 04:26:51.17	30.00	4.84	-51.8	-57.3	12.9	6.04e-01	0	42	0	19922944	75	6663
2026-01-26 04:26:52.18	29.93	4.91	-51.7	-56.8	13.3	6.04e-01	0	42	0	22020096	75	6311
2026-01-26 04:26:53.19	29.86	4.98	-51.7	-56.9	13.0	6.02e-01	0	42	0	23592960	75	6413
2026-01-26 04:26:54.20	29.79	5.05	-51.5	-56.5	13.6	6.00e-01	0	42	0	25690112	75	6071
2026-01-26 04:26:55.20	29.72	5.11	-49.4	-52.1	17.4	6.01e-01	0	42	0	27787264	70	4900
2026-01-26 04:26:56.21	29.65	5.18	-46.5	-48.2	21.0	6.04e-01	0	42	0	29360128	64	4409
2026-01-26 04:26:57.22	29.58	5.25	-51.8	-67.6	4.2	7.36e-01	0	42	104	30408704	74	23094
2026-01-26 04:26:58.23	29.51	5.32	-49.4	-51.9	16.3	6.02e-01	0	42	0	31457280	70	4803
2026-01-26 04:26:59.24	29.44	5.39	-48.4	-50.7	19.0	6.05e-01	0	42	0	33554432	67	4957
2026-01-26 04:27:00.25	29.37	5.46	-46.2	-47.8	21.3	6.04e-01	0	42	0	35127296	64	4204
2026-01-26 04:27:01.26	29.30	5.53	-46.0	-47.5	21.7	6.06e-01	0	42	0	37224448	64	4090
2026-01-26 04:27:02.26	29.23	5.60	-46.0	-47.6	21.8	6.03e-01	0	42	0	39321600	63	4361
2026-01-26 04:27:03.27	29.16	5.67	-45.9	-47.4	21.9	6.05e-01	0	42	0	40894464	63	4283
2026-01-26 04:27:04.27	29.08	5.74	-45.9	-47.4	22.1	6.02e-01	0	42	0	42991616	63	4282
2026-01-26 04:27:05.28	29.01	5.81	-46.3	-47.9	21.5	6.03e-01	0	42	0	45088768	63	4542
2026-01-26 04:27:06.29	28.94	5.89	-46.1	-47.7	22.0	6.02e-01	0	43	0	46661632	63	4393
2026-01-26 04:27:07.29	28.86	5.96	-45.9	-47.5	22.2	6.01e-01	0	42	0	48758784	63	4297
2026-01-26 04:27:08.30	28.79	6.03	-45.7	-47.2	22.8	6.02e-01	0	42	0	50331648	63	4169
2026-01-26 04:27:09.31	28.71	6.10	-45.6	-47.1	23.1	6.03e-01	0	42	0	52428800	63	4122
2026-01-26 04:27:10.31	28.64	6.17	-45.6	-47.1	23.2	6.01e-01	0	42	0	54001664	63	4113
2026-01-26 04:27:11.32	28.56	6.24	-45.7	-47.1	23.2	6.04e-01	0	42	0	56098816	63	4125
2026-01-26 04:27:12.32	28.49	6.31	-45.7	-47.2	23.2	6.02e-01	0	43	0	58195968	63	4171
2026-01-26 04:27:13.33	28.41	6.39	-45.5	-46.9	23.3	6.03e-01	0	42	0	59768832	63	4031
2026-01-26 04:27:14.34	28.33	6.46	-45.5	-46.9	23.4	6.06e-01	0	42	0	61865984	62	4284
2026-01-26 04:27:15.35	28.26	6.53	-45.6	-47.0	23.4	6.03e-01	0	42	0	63438848	62	4310
2026-01-26 04:27:16.35	28.18	6.60	-45.4	-46.8	23.6	6.01e-01	0	42	0	65536000	62	4195
2026-01-26 04:27:17.36	28.10	6.68	-45.4	-46.8	23.6	6.03e-01	0	42	0	67108864	62	4220
2026-01-26 04:27:18.37	28.02	6.75	-45.2	-46.5	23.9	6.05e-01	0	42	0	69206016	62	4094
2026-01-26 04:27:19.37	27.94	6.82	-45.3	-46.7	23.6	6.04e-01	0	42	0	71303168	62	4157
2026-01-26 04:27:20.38	27.86	6.90	-45.2	-46.6	23.9	6.03e-01	0	42	0	73400320	62	4117
2026-01-26 04:27:21.39	27.78	6.97	-45.3	-46.7	23.9	6.04e-01	0	43	0	74973184	62	4182
2026-01-26 04:27:22.39	27.70	7.04	-45.1	-46.5	24.0	6.04e-01	0	42	0	77070336	62	4075
2026-01-26 04:27:23.39	27.62	7.12	-45.2	-46.6	23.8	6.02e-01	0	43	0	78643200	62	4111
2026-01-26 04:27:24.40	27.54	7.19	-45.0	-46.4	24.2	6.03e-01	0	42	0	80740352	61	4261
2026-01-26 04:27:25.41	27.46	7.27	-45.0	-46.3	23.8	6.04e-01	0	42	0	82313216	61	4235
2026-01-26 04:27:26.41	27.38	7.34	-45.1	-46.5	23.8	6.02e-01	0	43	0	84410368	61	4292
2026-01-26 04:27:27.41	27.30	7.41	-45.0	-46.4	24.0	6.03e-01	0	42	0	86507520	61	4245
2026-01-26 04:27:28.42	27.21	7.49	-45.0	-46.4	23.7	6.00e-01	0	42	0	88080384	61	4249
2026-01-26 04:27:29.43	27.13	7.56	-45.1	-46.4	23.4	6.02e-01	0	43	0	90177536	61	4283
2026-01-26 04:27:30.44	27.04	7.64	-44.9	-46.2	24.1	6.05e-01	0	43	0	91750400	61	4177
2026-01-26 04:27:31.45	26.96	7.71	-44.8	-46.1	24.4	6.05e-01	0	43	0	93847552	61	4126
2026-01-26 04:27:32.45	26.87	7.79	-44.9	-46.2	24.3	6.05e-01	0	42	0	95420416	61	4151
2026-01-26 04:27:33.46	26.79	7.87	-44.9	-46.3	24.0	6.03e-01	0	43	0	97517568	61	4205
2026-01-26 04:27:34.47	26.70	7.94	-45.0	-46.3	23.4	6.03e-01	0	43	0	99614720	61	4221
2026-01-26 04:27:35.48	26.61	8.02	-45.0	-46.3	23.6	6.04e-01	0	42	0	101711872	61	4239
2026-01-26 04:27:36.48	26.53	8.09	-44.9	-46.2	24.3	6.03e-01	0	43	0	103284736	61	4172
2026-01-26 04:27:37.49	26.44	8.17	-44.7	-46.0	24.5	6.04e-01	0	42	0	105381888	61	4078
2026-01-26 04:27:38.50	26.35	8.25	-44.9	-46.2	24.3	6.06e-01	0	43	0	106954752	61	4167
2026-01-26 04:27:39.51	26.26	8.33	-44.9	-46.2	24.6	6.02e-01	0	43	0	109051904	61	4176
2026-01-26 04:27:40.52	26.17	8.40	-44.8	-46.1	24.6	6.05e-01	0	43	0	110624768	61	4145
2026-01-26 04:27:41.52	26.08	8.48	-44.7	-45.9	24.6	6.03e-01	0	43	0	112721920	61	4050
2026-01-26 04:27:42.53	25.99	8.56	-44.7	-46.0	24.6	6.04e-01	0	43	0	114819072	61	4053
2026-01-26 04:27:43.54	25.90	8.64	-44.7	-46.0	24.6	6.03e-01	0	43	0	116391936	61	4075
2026-01-26 04:27:44.55	25.81	8.71	-44.6	-45.9	24.5	6.04e-01	0	43	0	118489088	61	4022
2026-01-26 04:27:45.55	25.72	8.79	-44.8	-46.1	24.3	6.03e-01	0	43	0	120061952	61	4112
2026-01-26 04:27:46.56	25.62	8.87	-44.8	-46.1	24.2	6.02e-01	0	43	0	122159104	61	4121
2026-01-26 04:27:47.57	25.53	8.95	-44.7	-46.0	24.3	6.03e-01	0	43	0	124256256	61	4076
2026-01-26 04:27:48.58	25.44	9.03	-44.5	-45.8	24.5	6.01e-01	0	43	0	125829120	61	3969
2026-01-26 04:27:49.59	25.34	9.11	-44.8	-46.1	23.9	6.04e-01	0	43	0	127926272	61	4099
2026-01-26 04:27:50.60	25.25	9.19	-44.7	-46.0	24.1	6.03e-01	0	43	0	130023424	61	4067
2026-01-26 04:27:51.61	25.15	9.27	-44.8	-46.0	23.9	6.03e-01	0	43	0	131596288	61	4098
2026-01-26 04:27:52.61	25.05	9.35	-44.6	-45.9	24.0	6.04e-01	0	43	0	133693440	61	4032
2026-01-26 04:27:53.62	24.96	9.43	-44.8	-46.1	23.6	6.03e-01	0	43	0	135266304	61	4104
2026-01-26 04:27:54.62	24.86	9.50	-44.4	-45.6	23.3	6.03e-01	0	43	0	137363456	60	4124
2026-01-26 04:27:55.63	24.76	9.59	-44.4	-45.7	23.2	6.04e-01	0	43	0	138936320	60	4166
2026-01-26 04:27:56.63	24.66	9.67	-44.6	-45.9	23.3	6.04e-01	0	43	0	141033472	60	4262
2026-01-26 04:27:57.64	24.56	9.75	-44.5	-45.7	22.9	6.03e-01	0	43	0	143130624	60	4182
2026-01-26 04:27:58.65	24.46	9.83	-44.5	-45.7	22.6	6.02e-01	0	43	0	144703488	60	4179
2026-01-26 04:27:59.65	24.36	9.91	-44.6	-45.8	22.8	6.03e-01	0	43	0	146800640	60	4229
2026-01-26 04:28:00.66	24.26	9.99	-44.4	-45.7	22.6	6.02e-01	0	43	0	148373504	60	4152
2026-01-26 04:28:01.66	24.16	10.07	-44.2	-45.5	22.3	6.00e-01	0	43	0	150470656	60	4055
2026-01-26 04:28:02.67	24.06	10.15	-44.3	-45.5	22.8	6.03e-01	0	43	0	152567808	60	4098
2026-01-26 04:28:03.68	23.96	10.23	-44.2	-45.4	22.9	6.04e-01	0	43	0	154140672	60	4027
2026-01-26 04:28:04.68	23.85	10.32	-44.3	-45.5	22.8	6.02e-01	0	43	0	156237824	60	4059
2026-01-26 04:28:05.69	23.75	10.40	-44.2	-45.4	23.3	6.05e-01	0	43	0	158334976	60	4049
2026-01-26 04:28:06.70	23.64	10.48	-44.3	-45.5	22.9	6.03e-01	0	43	0	159907840	60	4085
2026-01-26 04:28:07.71	23.54	10.56	-44.4	-45.6	23.2	6.04e-01	0	43	0	162004992	60	4117
2026-01-26 04:28:08.72	23.43	10.65	-44.2	-45.4	23.4	6.03e-01	0	43	0	163577856	60	4029
2026-01-26 04:28:09.72	23.32	10.73	-44.3	-45.5	23.7	6.01e-01	0	43	0	165675008	60	4076
2026-01-26 04:28:10.72	23.22	10.81	-44.2	-45.5	24.4	6.01e-01	0	43	0	167247872	60	4053
2026-01-26 04:28:11.73	23.11	10.90	-44.2	-45.4	24.5	6.02e-01	0	43	0	169345024	60	4015
2026-01-26 04:28:12.74	23.00	10.98	-44.2	-45.4	24.6	6.04e-01	0	43	0	171442176	60	4010
2026-01-26 04:28:13.74	22.89	11.07	-44.2	-45.4	24.6	6.02e-01	0	43	0	173015040	60	4017
2026-01-26 04:28:14.75	22.78	11.15	-44.2	-45.4	25.0	6.05e-01	0	43	0	175112192	60	4045
2026-01-26 04:28:15.75	22.67	11.23	-44.2	-45.4	24.9	6.02e-01	0	43	0	176685056	60	4048
2026-01-26 04:28:16.76	22.56	11.32	-44.3	-45.5	24.9	6.03e-01	0	43	0	178782208	60	4084
2026-01-26 04:28:17.77	22.44	11.40	-44.1	-45.3	25.3	6.01e-01	0	43	0	180879360	60	3999
2026-01-26 04:28:18.77	22.33	11.49	-44.2	-45.4	25.4	6.04e-01	0	43	0	182452224	60	4024
2026-01-26 04:28:19.78	22.22	11.57	-44.2	-45.4	25.6	6.03e-01	0	43	0	184549376	60	4012
2026-01-26 04:28:20.78	22.10	11.66	-44.1	-45.3	25.7	6.04e-01	0	43	0	186646528	60	3962
2026-01-26 04:28:21.79	21.99	11.75	-44.2	-45.4	25.6	6.02e-01	0	43	0	188219392	60	4008
2026-01-26 04:28:22.80	21.87	11.83	-44.1	-45.3	25.7	6.00e-01	0	43	0	190316544	59	4207
2026-01-26 04:28:23.81	21.75	11.92	-44.2	-45.4	25.5	6.03e-01	0	43	0	191889408	59	4291
2026-01-26 04:28:24.81	21.64	12.00	-44.0	-45.2	25.8	6.03e-01	0	43	0	193986560	59	4184
2026-01-26 04:28:25.82	21.52	12.09	-44.0	-45.2	25.9	6.05e-01	0	43	0	195559424	59	4148
2026-01-26 04:28:26.82	21.40	12.18	-44.1	-45.3	25.8	6.05e-01	0	43	0	197656576	59	4224
2026-01-26 04:28:27.82	21.28	12.27	-43.9	-45.1	26.0	6.03e-01	0	43	0	199753728	59	4124
2026-01-26 04:28:28.83	21.16	12.35	-44.0	-45.2	25.9	6.04e-01	0	43	0	201326592	59	4173
2026-01-26 04:28:29.84	21.04	12.44	-44.0	-45.1	25.9	6.05e-01	0	43	0	203423744	59	4144
2026-01-26 04:28:30.84	20.92	12.53	-44.1	-45.3	25.7	6.04e-01	0	43	0	204996608	59	4214
2026-01-26 04:28:31.85	20.79	12.62	-43.9	-45.1	26.0	6.03e-01	0	43	0	207093760	59	4117
2026-01-26 04:28:32.85	20.67	12.70	-44.0	-45.1	25.9	6.04e-01	0	43	0	208666624	59	4140
2026-01-26 04:28:33.86	20.54	12.79	-44.0	-45.2	25.8	6.03e-01	0	43	0	210763776	59	4166
2026-01-26 04:28:34.87	20.42	12.88	-44.0	-45.1	25.9	6.04e-01	0	43	0	212860928	59	4140
2026-01-26 04:28:35.88	20.29	12.97	-43.8	-44.9	26.1	6.03e-01	0	43	0	214958080	59	4030
2026-01-26 04:28:36.88	20.16	13.06	-43.9	-45.0	26.0	6.01e-01	0	43	0	216530944	59	4088
2026-01-26 04:28:37.89	20.03	13.15	-43.9	-45.0	26.0	6.02e-01	0	43	0	218628096	59	4096
2026-01-26 04:28:38.90	19.91	13.24	-43.9	-45.0	26.0	6.01e-01	0	43	0	220200960	59	4091
2026-01-26 04:28:39.90	19.78	13.33	-43.8	-44.9	26.2	6.06e-01	0	43	0	222298112	59	4043
2026-01-26 04:28:40.91	19.64	13.42	-43.8	-44.9	26.1	6.00e-01	0	43	0	223870976	59	4049
2026-01-26 04:28:41.91	19.51	13.51	-43.7	-44.8	26.3	6.04e-01	0	43	0	225968128	59	4000
2026-01-26 04:28:42.92	19.38	13.60	-43.8	-44.9	26.2	6.02e-01	0	43	0	228065280	59	4042
2026-01-26 04:28:43.93	19.25	13.69	-43.8	-45.0	26.2	6.03e-01	0	43	0	229638144	59	4054
2026-01-26 04:28:44.93	19.11	13.78	-43.8	-44.9	26.2	6.02e-01	0	43	0	231735296	59	4047
2026-01-26 04:28:45.94	18.98	13.87	-43.9	-45.0	26.1	6.01e-01	0	43	0	233308160	59	4080
2026-01-26 04:28:46.94	18.84	13.97	-43.8	-45.0	26.2	6.04e-01	0	43	0	235405312	59	4062
2026-01-26 04:28:47.94	18.71	14.06	-43.9	-45.1	26.1	6.04e-01	0	43	0	236978176	59	4103
2026-01-26 04:28:48.95	18.57	14.15	-43.8	-45.0	26.1	6.02e-01	0	43	0	239075328	59	4061
2026-01-26 04:28:49.96	18.43	14.24	-44.0	-45.1	26.0	6.00e-01	0	43	0	241172480	59	4133
2026-01-26 04:28:50.96	18.29	14.33	-43.8	-45.0	26.2	6.04e-01	0	43	0	243269632	59	4064
2026-01-26 04:28:51.97	18.15	14.43	-43.9	-45.0	26.1	6.03e-01	0	43	0	244842496	59	4085
2026-01-26 04:28:52.98	18.00	14.52	-43.9	-45.0	26.1	6.03e-01	0	43	0	246939648	59	4093
2026-01-26 04:28:53.98	17.86	14.61	-43.9	-45.0	26.1	6.02e-01	0	43	0	248512512	59	4087
2026-01-26 04:28:54.99	17.72	14.71	-43.9	-45.0	26.1	6.07e-01	0	43	0	250609664	59	4094
2026-01-26 04:28:56.00	17.57	14.80	-44.0	-45.2	26.0	6.02e-01	0	43	0	252182528	59	4148
2026-01-26 04:28:57.01	17.43	14.89	-43.9	-45.1	26.0	6.05e-01	0	43	0	254279680	59	4120
2026-01-26 04:28:58.02	17.28	14.99	-43.9	-45.0	26.2	6.02e-01	0	43	0	256376832	59	4083
2026-01-26 04:28:59.03	17.13	15.08	-43.9	-45.0	26.1	6.03e-01	0	43	0	257949696	59	4085
2026-01-26 04:29:00.04	16.98	15.18	-43.8	-44.9	26.2	6.04e-01	0	43	0	260046848	59	4034
2026-01-26 04:29:01.05	16.83	15.27	-43.8	-45.0	26.2	6.02e-01	0	43	0	261619712	59	4063
2026-01-26 04:29:02.05	16.68	15.37	-43.9	-45.0	26.2	6.06e-01	0	43	0	263716864	59	4089
2026-01-26 04:29:03.06	16.53	15.46	-43.9	-45.0	26.2	6.02e-01	0	43	0	265289728	59	4094
2026-01-26 04:29:04.06	16.38	15.56	-43.9	-45.0	26.2	6.02e-01	0	43	0	267386880	59	4085
2026-01-26 04:29:05.07	16.22	15.65	-43.8	-45.0	26.3	6.03e-01	0	43	0	269484032	59	4055
2026-01-26 04:29:06.08	16.07	15.75	-43.7	-44.8	26.4	6.04e-01	0	43	0	271581184	59	3987
2026-01-26 04:29:07.08	15.91	15.84	-43.8	-44.9	26.2	6.01e-01	0	43	0	273154048	59	4027
2026-01-26 04:29:08.09	15.75	15.94	-43.8	-44.9	26.2	6.03e-01	0	43	0	275251200	59	4025
2026-01-26 04:29:09.09	15.59	16.04	-43.7	-44.8	26.3	6.01e-01	0	43	0	276824064	59	3998
2026-01-26 04:29:10.10	15.43	16.13	-43.6	-44.7	26.4	6.01e-01	0	43	0	278921216	59	3938
2026-01-26 04:29:11.10	15.27	16.23	-43.6	-44.8	26.3	6.03e-01	0	43	0	280494080	59	3961
2026-01-26 04:29:12.11	15.11	16.33	-43.5	-44.6	26.4	6.02e-01	0	43	0	282591232	59	3897
2026-01-26 04:29:13.11	14.95	16.42	-43.5	-44.6	26.3	6.05e-01	0	43	0	284688384	59	3907
2026-01-26 04:29:14.11	14.79	16.52	-43.5	-44.6	26.3	6.05e-01	0	43	0	286261248	59	3898
2026-01-26 04:29:15.12	14.62	16.62	-43.6	-44.7	26.2	6.04e-01	0	43	0	288358400	59	3954
2026-01-26 04:29:16.13	14.45	16.72	-43.6	-44.7	26.1	6.04e-01	0	43	0	289931264	59	3950
2026-01-26 04:29:17.14	14.29	16.81	-43.7	-44.8	26.0	6.05e-01	0	43	0	292028416	59	3999
2026-01-26 04:29:18.15	14.12	16.91	-43.7	-44.9	25.8	6.04e-01	0	43	0	293601280	59	4014
2026-01-26 04:29:19.16	13.95	17.01	-43.7	-44.8	25.9	6.02e-01	0	43	0	295698432	59	3992
2026-01-26 04:29:20.16	13.78	17.11	-43.7	-44.8	25.9	6.04e-01	0	43	0	297795584	59	3994
2026-01-26 04:29:21.16	13.60	17.21	-43.7	-44.8	25.9	6.04e-01	0	43	0	299892736	59	3976
2026-01-26 04:29:22.17	13.43	17.31	-43.7	-44.8	25.9	6.05e-01	0	43	0	301465600	59	3995
2026-01-26 04:29:23.18	13.25	17.41	-43.7	-44.8	26.0	6.02e-01	0	43	0	303562752	59	3994
2026-01-26 04:29:24.19	13.08	17.50	-43.7	-44.8	26.1	6.02e-01	0	43	0	305135616	59	3977
2026-01-26 04:29:25.19	12.90	17.60	-43.7	-44.9	25.9	6.04e-01	0	43	0	307232768	59	4019
2026-01-26 04:29:26.19	12.72	17.70	-43.7	-44.9	26.0	6.02e-01	0	43	0	308805632	59	4015
2026-01-26 04:29:27.20	12.54	17.80	-43.9	-45.0	26.0	6.05e-01	0	43	0	310902784	59	4082
2026-01-26 04:29:28.21	12.36	17.90	-43.7	-44.9	26.1	6.04e-01	0	43	0	312999936	59	4015
2026-01-26 04:29:29.21	12.18	18.00	-43.6	-44.7	26.3	6.04e-01	0	43	0	314572800	59	3938
2026-01-26 04:29:30.22	11.99	18.10	-43.7	-44.8	26.1	6.05e-01	0	43	0	316669952	59	3984
2026-01-26 04:29:31.23	11.81	18.20	-43.7	-44.8	26.2	6.00e-01	0	43	0	318242816	59	3977
2026-01-26 04:29:32.24	11.62	18.30	-43.7	-44.9	26.1	6.03e-01	0	43	0	320339968	59	4007
2026-01-26 04:29:33.25	11.43	18.40	-43.8	-44.9	26.0	6.05e-01	0	43	0	321912832	59	4024
2026-01-26 04:29:34.26	11.24	18.51	-43.7	-44.8	26.1	6.06e-01	0	43	0	324009984	59	4002
2026-01-26 04:29:35.26	11.05	18.61	-43.8	-44.9	26.0	6.03e-01	0	43	0	326107136	59	4028
2026-01-26 04:29:36.27	10.86	18.71	-43.8	-44.9	26.0	6.03e-01	0	43	0	328204288	59	4040
2026-01-26 04:29:37.28	10.67	18.81	-43.7	-44.8	26.1	6.01e-01	0	43	0	329777152	59	3994
2026-01-26 04:29:38.28	10.47	18.91	-43.7	-44.9	26.2	6.04e-01	0	43	0	331874304	59	4012
2026-01-26 04:29:39.29	10.28	19.01	-43.8	-44.9	26.2	6.04e-01	0	43	0	333447168	59	4040
2026-01-26 04:29:40.30	10.08	19.11	-43.9	-45.1	26.1	6.04e-01	0	43	0	335544320	59	4112
2026-01-26 04:29:41.30	9.88	19.21	-43.7	-44.8	26.3	6.03e-01	0	43	0	337117184	59	4002
2026-01-26 04:29:42.30	9.68	19.32	-43.8	-44.9	26.2	6.02e-01	0	43	0	339214336	59	4021
2026-01-26 04:29:43.31	9.48	19.42	-43.7	-44.8	26.4	6.05e-01	0	43	0	341311488	59	3986
2026-01-26 04:29:44.31	9.28	19.52	-43.6	-44.8	26.5	6.05e-01	0	43	0	342884352	59	3960
2026-01-26 04:29:45.32	9.07	19.62	-43.6	-44.7	26.5	6.05e-01	0	43	0	344981504	59	3935
2026-01-26 04:29:46.32	8.87	19.72	-43.6	-44.8	26.5	6.00e-01	0	43	0	346554368	59	3964
2026-01-26 04:29:47.33	8.66	19.83	-43.6	-44.8	26.5	6.04e-01	0	43	0	348651520	59	3971
2026-01-26 04:29:48.33	8.45	19.93	-43.9	-45.0	26.3	6.02e-01	0	43	0	350224384	59	4070
2026-01-26 04:29:49.34	8.24	20.03	-43.9	-45.1	26.1	6.03e-01	0	43	0	352321536	59	4109
2026-01-26 04:29:50.35	8.03	20.13	-44.0	-45.2	26.2	6.01e-01	0	43	0	354418688	59	4155
2026-01-26 04:29:51.35	7.82	20.23	-44.1	-45.2	26.1	6.04e-01	0	43	0	355991552	59	4170
2026-01-26 04:29:52.35	7.60	20.34	-43.8	-45.0	26.3	6.01e-01	0	43	0	358088704	59	4052
2026-01-26 04:29:53.36	7.38	20.44	-43.8	-45.0	26.3	6.06e-01	0	43	0	360185856	59	4056
2026-01-26 04:29:54.37	7.17	20.54	-44.0	-45.1	26.1	6.01e-01	0	43	0	361758720	59	4128
2026-01-26 04:29:55.38	6.95	20.64	-44.0	-45.2	26.1	6.03e-01	0	43	0	363855872	59	4146
2026-01-26 04:29:56.38	6.73	20.75	-44.0	-45.1	26.0	6.03e-01	0	43	0	365428736	59	4142
2026-01-26 04:29:57.39	6.50	20.85	-44.0	-45.1	26.0	6.03e-01	0	43	0	367525888	59	4141
2026-01-26 04:29:58.40	6.28	20.95	-44.0	-45.1	26.1	6.04e-01	0	43	0	369623040	59	4121
2026-01-26 04:29:59.41	6.05	21.06	-44.1	-45.2	26.1	5.99e-01	0	43	0	371195904	59	4177
2026-01-26 04:30:00.42	5.82	21.16	-43.9	-45.0	26.1	6.02e-01	0	43	0	373293056	59	4086
2026-01-26 04:30:01.42	5.59	21.26	-43.8	-45.0	26.1	6.06e-01	0	43	0	374865920	59	4058
2026-01-26 04:30:02.43	5.36	21.36	-43.8	-44.9	26.1	6.05e-01	0	43	0	376963072	59	4028
2026-01-26 04:30:03.43	5.13	21.47	-43.8	-45.0	26.1	6.02e-01	0	43	0	378535936	59	4060
2026-01-26 04:30:04.44	4.89	21.57	-43.8	-44.9	26.1	6.02e-01	0	43	0	380633088	59	4037
2026-01-26 04:30:05.45	4.66	21.67	-43.8	-45.0	26.1	6.01e-01	0	43	0	382730240	59	4063
2026-01-26 04:30:06.45	4.42	21.77	-43.9	-45.1	25.9	6.02e-01	0	43	0	384303104	59	4103
2026-01-26 04:30:07.46	4.18	21.88	-43.9	-45.0	26.0	6.03e-01	0	43	0	386400256	59	4085
2026-01-26 04:30:08.46	3.94	21.98	-44.0	-45.1	25.8	6.05e-01	0	43	0	388497408	59	4136
2026-01-26 04:30:09.47	3.70	22.08	-44.0	-45.2	25.9	6.01e-01	0	43	0	390070272	59	4167
2026-01-26 04:30:10.48	3.45	22.18	-44.2	-45.3	25.7	6.04e-01	0	43	0	392167424	59	4238
2026-01-26 04:30:11.48	3.21	22.28	-44.1	-45.3	25.7	6.03e-01	0	43	0	393740288	59	4203
2026-01-26 04:30:12.49	2.96	22.39	-44.1	-45.2	25.6	6.02e-01	0	43	0	395837440	59	4172
2026-01-26 04:30:13.50	2.71	22.49	-44.1	-45.2	25.5	6.04e-01	0	43	0	397934592	59	4189
2026-01-26 04:30:14.51	2.46	22.59	-44.0	-45.1	25.8	6.01e-01	0	43	0	399507456	59	4142
2026-01-26 04:30:15.51	2.21	22.69	-43.8	-44.9	26.0	6.01e-01	0	43	0	401604608	59	4025
2026-01-26 04:30:16.52	1.95	22.79	-43.9	-45.1	25.9	6.01e-01	0	43	0	403177472	59	4104
2026-01-26 04:30:17.53	1.69	22.90	-44.0	-45.2	25.8	6.05e-01	0	43	0	405274624	59	4165
2026-01-26 04:30:18.53	1.44	23.00	-44.1	-45.3	25.7	6.01e-01	0	43	0	406847488	59	4211
2026-01-26 04:30:19.53	1.18	23.10	-44.1	-45.3	25.9	6.03e-01	0	43	0	408944640	59	4201
2026-01-26 04:30:20.54	0.92	23.20	-44.1	-45.3	25.8	6.02e-01	0	43	0	411041792	59	4211
2026-01-26 04:30:21.55	0.65	23.30	-44.0	-45.2	26.0	6.04e-01	0	43	0	412614656	59	4154
2026-01-26 04:30:22.56	0.39	23.40	-44.0	-45.1	26.0	6.05e-01	0	43	0	414711808	59	4137
2026-01-26 04:30:23.56	0.12	23.50	-44.0	-45.2	25.9	6.02e-01	0	43	0	416284672	59	4147
2026-01-26 04:30:24.56	359.85	23.60	-44.2	-45.3	25.8	6.03e-01	0	43	0	418381824	59	4230
2026-01-26 04:30:25.57	359.58	23.70	-44.2	-45.4	25.9	6.04e-01	0	43	0	420478976	59	4251
2026-01-26 04:30:26.58	359.31	23.80	-44.2	-45.3	25.9	6.03e-01	0	43	0	422051840	59	4224
2026-01-26 04:30:27.58	359.03	23.90	-44.2	-45.3	25.9	6.05e-01	0	43	0	424148992	59	4230
2026-01-26 04:30:28.59	358.76	24.00	-44.0	-45.2	26.1	6.05e-01	0	43	0	426246144	59	4152
2026-01-26 04:30:29.60	358.48	24.09	-44.0	-45.1	26.1	6.03e-01	0	43	0	427819008	59	4141
2026-01-26 04:30:30.60	358.20	24.19	-43.8	-45.0	25.6	6.03e-01	0	43	0	429916160	59	4064
2026-01-26 04:30:31.61	357.92	24.29	-43.8	-45.0	26.3	6.02e-01	0	43	0	431489024	59	4054
2026-01-26 04:30:32.61	357.63	24.39	-44.4	-55.2	3.8	7.45e-01	0	43	104	433061888	59	13134
2026-01-26 04:30:33.62	357.35	24.49	-44.5	-55.1	3.9	7.42e-01	0	43	104	433061888	59	13028
2026-01-26 04:30:34.63	357.06	24.58	-44.4	-55.1	3.8	7.45e-01	0	43	104	433061888	59	13079
2026-01-26 04:30:35.63	356.77	24.68	-45.0	-55.6	3.9	7.39e-01	0	43	104	433061888	60	13082
2026-01-26 04:30:36.64	356.48	24.77	-52.3	-65.0	3.9	7.45e-01	0	43	104	433061888	74	17111
2026-01-26 04:30:37.65	356.19	24.87	-52.6	-65.8	3.8	7.44e-01	0	43	104	433061888	77	15900
2026-01-26 04:30:38.66	355.89	24.97	-45.5	-56.3	3.7	7.47e-01	0	43	104	433061888	63	11922
2026-01-26 04:30:39.66	355.60	25.06	-45.9	-56.7	3.8	7.43e-01	0	43	104	433061888	63	12414
2026-01-26 04:30:40.67	355.30	25.16	-46.0	-57.0	3.8	7.46e-01	0	43	104	433061888	63	12816
2026-01-26 04:30:41.67	355.00	25.25	-46.2	-57.1	3.8	7.47e-01	0	43	104	433061888	63	13082
2026-01-26 04:30:42.68	354.69	25.34	-45.3	-56.2	3.8	7.45e-01	0	43	104	433061888	62	12393
2026-01-26 04:30:43.69	354.39	25.44	-47.4	-58.5	3.8	7.47e-01	0	43	104	433061888	65	13663
2026-01-26 04:30:44.70	354.08	25.53	-51.9	-64.6	3.8	7.46e-01	0	43	104	433061888	74	16503
2026-01-26 04:30:45.70	353.77	25.62	-46.4	-57.0	3.8	7.44e-01	0	43	104	433061888	64	12217
2026-01-26 04:30:46.70	353.47	25.71	-54.2	-69.0	3.7	7.44e-01	0	43	104	433061888	78	21752
2026-01-26 04:30:47.71	353.15	25.80	-46.5	-57.5	3.7	7.57e-01	0	43	104	433061888	65	12115
2026-01-26 04:30:48.71	352.84	25.89	-45.4	-56.2	3.7	7.55e-01	0	43	104	433061888	62	12419
2026-01-26 04:30:49.72	352.53	25.98	-44.9	-55.5	3.6	7.59e-01	0	43	104	433061888	61	12220
2026-01-26 04:30:50.73	352.21	26.07	-49.7	-61.1	3.7	7.51e-01	0	43	104	433061888	69	14672
2026-01-26 04:30:51.74	351.89	26.16	-46.9	-57.7	3.7	7.53e-01	0	43	104	433061888	65	12408
2026-01-26 04:30:52.74	351.57	26.25	-54.2	-69.1	3.8	7.51e-01	0	43	104	433061888	78	21995
2026-01-26 04:30:53.75	351.24	26.33	-51.8	-64.2	3.8	7.45e-01	0	43	104	433061888	75	14838
2026-01-26 04:30:54.76	350.92	26.42	-44.2	-54.8	3.8	7.40e-01	0	43	104	433061888	60	11908
2026-01-26 04:30:55.77	350.59	26.51	-44.2	-54.9	3.8	7.44e-01	0	43	104	433061888	60	12057
2026-01-26 04:30:56.77	350.26	26.59	-44.3	-55.0	3.9	7.41e-01	0	43	104	433061888	60	12148
2026-01-26 04:30:57.78	349.93	26.67	-44.1	-54.8	3.8	7.44e-01	0	43	104	433061888	60	11835
2026-01-26 04:30:58.79	349.60	26.76	-46.4	-57.3	3.8	7.44e-01	0	43	104	433061888	63	13310
2026-01-26 04:30:59.80	349.26	26.84	-46.2	-57.1	3.8	7.45e-01	0	43	104	433061888	63	13075
2026-01-26 04:31:00.80	348.93	26.92	-54.8	-71.8	3.7	7.45e-01	0	43	104	433061888	80	26656
2026-01-26 04:31:01.81	348.59	27.00	-52.0	-64.5	3.8	7.46e-01	0	43	104	433061888	75	15331
2026-01-26 04:31:02.82	348.25	27.09	-44.1	-54.7	3.8	7.45e-01	0	43	104	433061888	60	11725
2026-01-26 04:31:03.83	347.91	27.16	-44.1	-54.8	3.8	7.43e-01	0	43	104	433061888	60	11929
2026-01-26 04:31:04.83	347.56	27.24	-44.3	-54.9	3.8	7.45e-01	0	43	104	433061888	60	12057
2026-01-26 04:31:05.84	347.22	27.32	-44.1	-54.8	3.8	7.46e-01	0	43	104	433061888	60	11823
2026-01-26 04:31:06.84	346.87	27.40	-45.0	-55.7	3.8	7.45e-01	0	43	104	433061888	60	13188
2026-01-26 04:31:07.85	346.52	27.47	-45.9	-56.7	3.8	7.46e-01	0	43	104	433061888	62	13118
2026-01-26 04:31:08.86	346.17	27.55	-54.8	-71.8	3.7	7.41e-01	0	43	104	433061888	80	26574
2026-01-26 04:31:09.87	345.82	27.62	-52.1	-64.8	3.8	7.44e-01	0	43	104	433061888	75	15785
2026-01-26 04:31:10.87	345.47	27.70	-44.3	-54.9	3.8	7.43e-01	0	43	104	433061888	60	12048
2026-01-26 04:31:11.88	345.11	27.77	-44.0	-54.6	3.8	7.45e-01	0	43	104	433061888	59	12359
2026-01-26 04:31:12.89	344.75	27.84	-44.0	-54.6	3.8	7.44e-01	0	43	104	433061888	59	12359
2026-01-26 04:31:13.89	344.40	27.91	-44.1	-54.8	3.8	7.46e-01	0	43	104	433061888	59	12621
2026-01-26 04:31:14.90	344.04	27.98	-44.7	-55.4	3.8	7.45e-01	0	43	104	433061888	59	13516
2026-01-26 04:31:15.91	343.67	28.05	-47.2	-58.2	3.8	7.45e-01	0	43	104	433061888	64	13940
2026-01-26 04:31:16.91	343.31	28.11	-53.3	-67.2	3.7	7.44e-01	0	43	104	433061888	77	18564
2026-01-26 04:31:17.92	342.95	28.18	-44.6	-55.4	3.8	7.48e-01	0	43	104	433061888	61	11980
2026-01-26 04:31:18.93	342.58	28.25	-54.8	-71.9	3.8	7.47e-01	0	43	104	433061888	80	26897
2026-01-26 04:31:19.93	342.21	28.31	-44.2	-54.9	3.8	7.48e-01	0	43	104	433061888	60	11984
2026-01-26 04:31:20.94	341.84	28.37	-44.0	-54.5	3.8	7.47e-01	0	43	104	433061888	59	12234
2026-01-26 04:31:21.94	341.47	28.43	-44.0	-54.7	3.8	7.45e-01	0	43	104	433061888	59	12503
2026-01-26 04:31:22.95	341.10	28.49	-50.7	-62.7	3.8	7.45e-01	0	43	104	433061888	71	15677
2026-01-26 04:31:23.96	340.72	28.55	-46.1	-56.9	3.8	7.42e-01	0	43	104	433061888	64	12094
2026-01-26 04:31:24.97	340.35	28.61	-54.9	-72.3	3.8	7.45e-01	0	43	104	433061888	80	28088
2026-01-26 04:31:25.97	339.97	28.67	-52.0	-64.6	3.8	7.45e-01	0	43	104	433061888	75	15559
2026-01-26 04:31:26.98	339.59	28.72	-44.5	-55.2	3.8	7.42e-01	0	43	104	433061888	59	13172
2026-01-26 04:31:27.99	339.21	28.78	-44.1	-54.7	3.8	7.45e-01	0	43	104	433061888	59	12450
2026-01-26 04:31:29.00	338.83	28.83	-43.9	-54.6	3.8	7.45e-01	0	43	104	433061888	59	12263
2026-01-26 04:31:30.01	338.45	28.88	-44.0	-54.6	3.8	7.47e-01	0	44	104	433061888	59	12326
2026-01-26 04:31:31.01	338.06	28.93	-47.1	-58.1	3.8	7.43e-01	0	43	104	433061888	64	13839
2026-01-26 04:31:32.02	337.68	28.98	-45.9	-56.7	3.9	7.45e-01	0	43	104	433061888	63	12467
2026-01-26 04:31:33.03	337.29	29.03	-55.0	-72.3	3.8	7.47e-01	0	44	104	433061888	80	28237
2026-01-26 04:31:34.04	336.90	29.08	-52.4	-65.1	3.8	7.45e-01	0	43	104	433061888	76	15484
2026-01-26 04:31:35.05	336.51	29.12	-45.0	-55.6	3.8	7.44e-01	0	43	104	433061888	60	13109
2026-01-26 04:31:36.05	336.13	29.17	-44.3	-55.0	3.8	7.42e-01	0	43	104	433061888	60	12104
2026-01-26 04:31:37.06	335.73	29.21	-44.2	-54.8	3.8	7.45e-01	0	43	104	433061888	60	11887
2026-01-26 04:31:38.07	335.34	29.25	-44.0	-54.7	3.9	7.42e-01	0	44	104	433061888	60	11742
2026-01-26 04:31:39.08	334.95	29.29	-44.6	-55.3	3.8	7.44e-01	0	43	104	433061888	60	12632
2026-01-26 04:31:40.09	334.55	29.33	-46.9	-57.9	3.8	7.47e-01	0	43	104	433061888	64	13434
2026-01-26 04:31:41.10	334.16	29.36	-52.9	-66.1	3.9	7.46e-01	0	43	104	433061888	77	16449
2026-01-26 04:31:42.11	333.76	29.40	-44.5	-55.3	3.8	7.45e-01	0	43	104	433061888	61	11847
2026-01-26 04:31:43.11	333.37	29.43	-54.9	-72.0	3.8	7.46e-01	0	43	104	433061888	80	27090
2026-01-26 04:31:44.12	332.97	29.47	-44.5	-55.1	3.8	7.45e-01	0	43	104	433061888	60	12278
2026-01-26 04:31:45.13	332.57	29.50	-44.2	-54.9	3.8	7.44e-01	0	43	104	433061888	60	12015
2026-01-26 04:31:46.14	332.17	29.53	-44.2	-54.8	3.8	7.46e-01	0	43	104	433061888	60	11911
2026-01-26 04:31:47.14	331.77	29.56	-51.9	-64.6	3.8	7.44e-01	0	44	104	433061888	75	15515
2026-01-26 04:31:48.15	331.37	29.58	-45.7	-56.4	3.8	7.45e-01	0	43	104	433061888	63	12072
2026-01-26 04:31:49.16	330.97	29.61	-55.0	-72.1	3.8	7.44e-01	0	43	104	433061888	80	27650
2026-01-26 04:31:50.17	330.56	29.63	-50.6	-62.4	3.8	7.45e-01	0	44	104	433061888	73	13551
2026-01-26 04:31:51.17	330.16	29.65	-45.0	-55.7	3.8	7.44e-01	0	43	104	433061888	60	13201
2026-01-26 04:31:52.18	329.76	29.67	-44.3	-55.0	3.8	7.46e-01	0	43	104	433061888	60	12152
2026-01-26 04:31:53.19	329.35	29.69	-44.3	-54.9	3.8	7.43e-01	0	43	104	433061888	60	12007
2026-01-26 04:31:54.20	328.95	29.71	-44.1	-54.8	3.8	7.46e-01	0	43	104	433061888	60	11871
2026-01-26 04:31:55.21	328.54	29.73	-44.8	-55.6	3.8	7.47e-01	0	43	104	433061888	61	12236
2026-01-26 04:31:56.21	328.14	29.74	-46.4	-57.3	3.9	7.44e-01	0	43	104	433061888	64	12630
2026-01-26 04:31:57.22	327.73	29.75	-52.0	-64.6	3.9	7.42e-01	0	44	104	433061888	76	14604
2026-01-26 04:31:58.23	327.33	29.76	-44.2	-54.9	3.8	7.47e-01	0	43	104	433061888	60	11988
2026-01-26 04:31:59.23	326.92	29.77	-54.4	-69.9	3.8	7.43e-01	0	43	104	433061888	80	21450
2026-01-26 04:32:00.23	326.52	29.78	-44.7	-55.4	3.8	7.44e-01	0	43	104	433061888	61	12024
2026-01-26 04:32:01.20	326.13	29.79	-44.3	-55.0	3.8	7.43e-01	0	43	104	433061888	60	12117
2026-01-26 04:32:02.21	325.72	29.79	-44.6	-55.2	3.8	7.43e-01	0	43	104	433061888	60	12439
2026-01-26 04:32:03.22	325.31	29.80	-51.7	-64.2	3.8	7.43e-01	0	43	104	433061888	75	14855
2026-01-26 04:32:04.23	324.91	29.80	-45.5	-56.3	3.8	7.45e-01	0	43	104	433061888	63	11924
2026-01-26 04:32:05.24	324.50	29.80	-54.8	-71.1	3.8	7.48e-01	0	43	104	433061888	80	24506
2026-01-26 04:32:06.24	324.10	29.80	-50.6	-62.5	3.9	7.40e-01	0	43	104	433061888	73	13600
2026-01-26 04:32:07.25	323.69	29.79	-45.2	-55.9	3.8	7.45e-01	0	43	104	433061888	60	13559
2026-01-26 04:32:08.25	323.28	29.79	-44.6	-55.3	3.8	7.44e-01	0	43	104	433061888	60	12572
2026-01-26 04:32:09.26	322.88	29.78	-44.3	-54.9	3.8	7.44e-01	0	43	104	433061888	60	11970
2026-01-26 04:32:10.27	322.47	29.78	-44.1	-54.7	3.8	7.47e-01	0	43	104	433061888	60	11794
2026-01-26 04:32:11.28	322.06	29.77	-44.9	-55.5	3.8	7.45e-01	0	43	104	433061888	61	12165
2026-01-26 04:32:12.29	321.65	29.76	-46.2	-57.2	3.8	7.43e-01	0	43	104	433061888	64	12383
2026-01-26 04:32:13.29	321.25	29.74	-50.6	-62.7	3.9	7.44e-01	0	43	104	433061888	73	14021
2026-01-26 04:32:14.30	320.85	29.73	-44.3	-54.9	3.8	7.45e-01	0	44	104	433061888	60	12049
2026-01-26 04:32:15.31	320.44	29.71	-53.4	-67.3	3.9	7.45e-01	0	44	104	433061888	79	16754
2026-01-26 04:32:16.31	320.04	29.70	-44.8	-55.5	3.8	7.43e-01	0	43	104	433061888	61	12226
2026-01-26 04:32:17.32	319.63	29.68	-45.2	-56.0	3.8	7.45e-01	0	43	104	433061888	61	12851
2026-01-26 04:32:18.33	319.23	29.66	-45.1	-55.9	3.8	7.48e-01	0	44	104	433061888	61	12669
2026-01-26 04:32:19.34	318.82	29.64	-49.5	-61.1	3.8	7.39e-01	0	43	104	433061888	71	13011
2026-01-26 04:32:20.34	318.43	29.61	-45.3	-55.9	3.8	7.45e-01	0	43	104	433061888	62	12045
2026-01-26 04:32:21.35	318.02	29.59	-54.3	-69.7	3.9	7.44e-01	0	43	104	433061888	80	20953
2026-01-26 04:32:22.36	317.62	29.56	-49.3	-60.6	3.8	7.46e-01	0	44	104	433061888	70	13038
2026-01-26 04:32:23.36	317.22	29.54	-45.1	-55.9	3.8	7.47e-01	0	44	104	433061888	61	12803
2026-01-26 04:32:24.37	316.82	29.51	-44.6	-55.4	3.8	7.46e-01	0	43	104	433061888	61	11999
2026-01-26 04:32:25.38	316.42	29.48	-44.4	-55.2	3.9	7.45e-01	0	43	104	433061888	60	12383
2026-01-26 04:32:26.38	316.03	29.44	-44.5	-55.1	3.8	7.46e-01	0	43	104	433061888	60	12362
2026-01-26 04:32:27.39	315.63	29.41	-45.0	-55.6	3.8	7.44e-01	0	43	104	433061888	62	11633
2026-01-26 04:32:28.40	315.23	29.38	-46.8	-57.6	3.8	7.46e-01	0	43	104	433061888	64	13104
2026-01-26 04:32:29.41	314.83	29.34	-48.8	-60.0	3.8	7.43e-01	0	43	104	433061888	69	12886
2026-01-26 04:32:30.41	314.44	29.30	-45.1	-56.0	3.8	7.45e-01	0	43	104	433061888	61	12883
2026-01-26 04:32:31.42	314.05	29.26	-51.3	-63.3	3.9	7.44e-01	0	43	104	433061888	74	14188
2026-01-26 04:32:32.43	313.65	29.22	-45.1	-55.6	3.8	7.46e-01	0	43	104	433061888	61	12310
2026-01-26 04:32:33.44	313.26	29.18	-44.9	-55.5	3.8	7.45e-01	0	44	104	433061888	61	12100
2026-01-26 04:32:34.45	312.87	29.14	-45.5	-56.1	3.8	7.44e-01	0	43	104	433061888	61	12989
2026-01-26 04:32:35.46	312.48	29.09	-48.0	-59.0	3.8	7.46e-01	0	43	104	433061888	67	12855
2026-01-26 04:32:36.47	312.09	29.04	-48.7	-60.0	3.8	7.43e-01	0	43	104	433061888	67	14411
2026-01-26 04:32:37.48	311.70	29.00	-52.9	-66.4	3.9	7.46e-01	0	44	104	433061888	77	16999
2026-01-26 04:32:38.48	311.32	28.95	-46.0	-57.1	3.8	7.45e-01	0	44	104	433061888	64	12339
2026-01-26 04:32:39.49	310.93	28.90	-45.2	-55.8	3.8	7.46e-01	0	44	104	433061888	61	12524
2026-01-26 04:32:40.50	310.55	28.85	-45.1	-55.5	3.8	7.46e-01	0	44	104	433061888	61	12122
2026-01-26 04:32:41.51	310.17	28.79	-44.9	-55.1	3.8	7.46e-01	0	43	104	433061888	61	11662
2026-01-26 04:32:42.51	309.79	28.74	-44.6	-55.2	3.8	7.46e-01	0	43	104	433061888	61	11745
2026-01-26 04:32:43.52	309.41	28.69	-45.1	-56.4	3.8	7.47e-01	0	43	104	433061888	61	13481
2026-01-26 04:32:44.53	309.03	28.63	-48.6	-60.4	3.8	7.46e-01	0	43	104	433061888	67	15109
2026-01-26 04:32:45.54	308.65	28.57	-46.5	-57.6	3.9	7.39e-01	0	44	104	433061888	65	12326
2026-01-26 04:32:46.55	308.28	28.51	-47.3	-57.8	3.8	7.44e-01	0	43	104	433061888	64	13302
2026-01-26 04:32:47.56	307.90	28.45	-48.7	-59.6	3.9	7.43e-01	0	43	104	433061888	69	12291
2026-01-26 04:32:48.57	307.53	28.39	-45.0	-55.3	3.8	7.45e-01	0	43	104	433061888	61	11898
2026-01-26 04:32:49.57	307.16	28.33	-45.1	-56.0	3.9	7.41e-01	0	44	104	433061888	61	12937
2026-01-26 04:32:50.58	306.79	28.26	-47.6	-59.2	3.9	7.46e-01	0	44	104	433061888	65	14735
2026-01-26 04:32:51.59	306.42	28.20	-45.8	-56.6	3.9	7.45e-01	0	43	104	433061888	63	12300
2026-01-26 04:32:52.59	306.06	28.13	-50.5	-62.0	3.8	7.43e-01	0	43	104	433061888	71	14378
2026-01-26 04:32:53.60	305.69	28.07	-46.2	-56.8	3.8	7.43e-01	0	43	104	433061888	64	11822
2026-01-26 04:32:54.61	305.33	28.00	-50.9	-63.2	3.8	7.49e-01	0	44	104	433061888	72	15711
2026-01-26 04:32:55.61	304.97	27.93	-46.9	-58.4	3.9	7.42e-01	0	43	104	433061888	66	12765
2026-01-26 04:32:56.62	304.61	27.86	-45.2	-55.9	3.8	7.43e-01	0	43	104	433061888	62	12051
2026-01-26 04:32:57.63	304.25	27.79	-44.9	-55.4	3.8	7.45e-01	0	43	104	433061888	61	12060
2026-01-26 04:32:58.64	303.89	27.72	-49.3	-61.0	3.8	7.46e-01	0	44	104	433061888	69	14420
2026-01-26 04:32:59.64	303.54	27.64	-48.0	-59.3	3.8	7.45e-01	0	43	104	433061888	68	12625
2026-01-26 04:33:00.65	303.18	27.57	-52.1	-64.3	3.8	7.46e-01	0	44	104	433061888	74	15857
2026-01-26 04:33:01.66	302.83	27.49	-52.6	-65.1	3.8	7.43e-01	0	43	104	433061888	77	14599
2026-01-26 04:33:02.67	302.48	27.42	-45.3	-55.6	3.8	7.45e-01	0	43	104	433061888	62	11587
2026-01-26 04:33:03.68	302.13	27.34	-45.8	-56.8	3.9	7.46e-01	0	43	104	433061888	63	12615
2026-01-26 04:33:04.68	301.79	27.26	-46.2	-57.7	3.8	7.46e-01	0	43	104	433061888	63	14001
2026-01-26 04:33:05.69	301.44	27.19	-45.9	-57.1	3.8	7.47e-01	0	43	104	433061888	63	13032
2026-01-26 04:33:06.70	301.10	27.11	-45.4	-56.4	3.8	7.43e-01	0	43	104	433061888	62	12757
2026-01-26 04:33:07.71	300.76	27.03	-46.8	-57.4	3.8	7.44e-01	0	43	104	433061888	64	12678
2026-01-26 04:33:08.72	300.42	26.94	-52.1	-64.0	3.9	7.46e-01	0	43	104	433061888	74	15269
2026-01-26 04:33:09.73	300.08	26.86	-46.8	-57.9	3.9	7.41e-01	0	44	104	433061888	65	12790
2026-01-26 04:33:10.73	299.75	26.78	-54.1	-69.1	3.8	7.46e-01	0	43	104	433061888	78	21759
2026-01-26 04:33:11.74	299.41	26.70	-46.2	-57.3	3.8	7.42e-01	0	43	104	433061888	64	12529
2026-01-26 04:33:12.75	299.08	26.61	-45.7	-56.0	3.8	7.43e-01	0	43	104	433061888	63	11426
2026-01-26 04:33:13.76	298.75	26.53	-45.7	-55.8	3.9	7.44e-01	0	43	104	433061888	63	11168
2026-01-26 04:33:14.76	298.42	26.44	-51.8	-64.6	3.8	7.47e-01	0	43	104	433061888	74	16494
2026-01-26 04:33:15.76	298.10	26.36	-47.0	-58.9	3.8	7.46e-01	0	43	104	433061888	66	13543
2026-01-26 04:33:16.77	297.77	26.27	-55.2	-71.1	3.8	7.46e-01	0	43	104	433061888	80	24645
2026-01-26 04:33:17.78	297.45	26.18	-52.2	-64.5	3.8	7.43e-01	0	43	104	433061888	76	14510
2026-01-26 04:33:18.79	297.13	26.09	-46.1	-56.6	3.8	7.42e-01	0	43	104	433061888	63	12309
2026-01-26 04:33:19.80	296.81	26.00	-46.0	-57.0	3.8	7.43e-01	0	43	104	433061888	63	12902
2026-01-26 04:33:20.81	296.49	25.91	-46.3	-58.0	3.8	7.45e-01	0	44	104	433061888	63	14414
2026-01-26 04:33:21.81	296.18	25.82	-45.9	-56.0	3.8	7.42e-01	0	43	104	433061888	63	11450
2026-01-26 04:33:22.82	295.86	25.73	-45.3	-55.9	3.9	7.43e-01	0	43	104	433061888	62	12054
2026-01-26 04:33:23.82	295.56	25.64	-47.7	-58.9	3.9	7.43e-01	0	43	104	433061888	65	14288
2026-01-26 04:33:24.83	295.25	25.55	-52.6	-65.4	3.8	7.44e-01	0	43	104	433061888	75	16901
2026-01-26 04:33:25.84	294.94	25.46	-46.3	-57.1	3.8	7.47e-01	0	44	104	433061888	64	12277
2026-01-26 04:33:26.85	294.63	25.36	-54.6	-70.4	3.7	7.49e-01	0	44	104	433061888	79	24027
2026-01-26 04:33:27.86	294.33	25.27	-45.9	-57.0	3.8	7.45e-01	0	43	104	433061888	63	12944
2026-01-26 04:33:28.87	294.02	25.17	-45.7	-56.3	3.9	7.44e-01	0	43	104	433061888	63	11888
2026-01-26 04:33:29.87	293.73	25.08	-45.6	-56.3	3.8	7.44e-01	0	44	104	433061888	63	11943
2026-01-26 04:33:30.88	293.43	24.99	-52.3	-65.1	3.8	7.42e-01	0	43	104	433061888	75	16361
2026-01-26 04:33:31.89	293.13	24.89	-46.3	-57.1	3.8	7.46e-01	0	43	104	433061888	64	12334
2026-01-26 04:33:32.90	292.83	24.79	-54.7	-70.5	3.8	7.47e-01	0	43	104	433061888	79	24187
2026-01-26 04:33:33.90	292.54	24.70	-50.9	-63.2	3.8	7.43e-01	0	43	104	433061888	73	14793
2026-01-26 04:33:34.91	292.25	24.60	-46.8	-57.4	3.8	7.42e-01	0	43	104	433061888	64	12675
2026-01-26 04:33:35.92	291.96	24.50	-45.6	-56.6	3.9	7.44e-01	0	43	104	433061888	63	12363
2026-01-26 04:33:36.93	291.68	24.41	-45.8	-56.8	3.8	7.44e-01	0	43	104	433061888	63	12576
2026-01-26 04:33:37.93	291.39	24.31	-45.6	-56.2	3.9	7.42e-01	0	44	104	433061888	63	11794
2026-01-26 04:33:38.94	291.11	24.21	-46.5	-57.6	3.8	7.45e-01	0	43	104	433061888	63	13744
2026-01-26 04:33:39.95	290.83	24.11	-46.2	-56.6	3.9	7.43e-01	0	43	104	433061888	63	12331
2026-01-26 04:33:40.96	290.55	24.01	-54.6	-70.4	3.8	7.47e-01	0	43	104	433061888	79	24113
2026-01-26 04:33:41.96	290.27	23.91	-50.2	-61.7	3.8	7.41e-01	0	43	104	433061888	72	13164
2026-01-26 04:33:42.97	289.99	23.82	-47.4	-58.6	3.8	7.47e-01	0	43	104	433061888	65	13863
2026-01-26 04:33:43.98	289.72	23.72	-45.8	-56.3	3.8	7.44e-01	0	43	104	433061888	63	11828
2026-01-26 04:33:44.99	289.45	23.62	-45.8	-57.0	3.8	7.45e-01	0	43	104	433061888	63	12894
2026-01-26 04:33:46.00	289.18	23.51	-45.6	-56.5	3.9	7.42e-01	0	43	104	433061888	63	12185
2026-01-26 04:33:47.01	288.91	23.41	-46.8	-57.8	3.8	7.48e-01	0	43	104	433061888	64	13314
2026-01-26 04:33:48.02	288.64	23.31	-46.1	-56.7	3.9	7.42e-01	0	43	104	433061888	63	12485
2026-01-26 04:33:49.02	288.38	23.21	-54.6	-70.3	3.8	7.45e-01	0	43	104	433061888	79	23822
2026-01-26 04:33:50.03	288.11	23.11	-49.8	-61.3	3.8	7.45e-01	0	43	104	433061888	71	13404
2026-01-26 04:33:51.03	287.85	23.01	-47.9	-59.5	3.9	7.43e-01	0	43	104	433061888	66	14388
2026-01-26 04:33:52.04	287.59	22.91	-45.4	-55.7	3.8	7.43e-01	0	43	104	433061888	62	11720
2026-01-26 04:33:53.05	287.33	22.81	-45.4	-56.8	3.9	7.45e-01	0	43	104	433061888	62	13392
2026-01-26 04:33:54.06	287.08	22.71	-45.5	-55.6	3.8	7.42e-01	0	43	104	433061888	62	11643
2026-01-26 04:33:55.07	286.82	22.60	-48.6	-60.5	3.8	7.43e-01	0	43	104	433061888	68	14484
2026-01-26 04:33:56.07	286.57	22.50	-45.7	-56.2	3.8	7.42e-01	0	43	104	433061888	63	11750
2026-01-26 04:33:57.08	286.32	22.40	-54.4	-69.8	3.8	7.46e-01	0	44	104	433061888	79	22444
2026-01-26 04:33:58.09	286.07	22.30	-48.5	-59.9	3.9	7.46e-01	0	44	104	433061888	69	12782
2026-01-26 04:33:59.09	285.83	22.20	-48.2	-59.3	3.8	7.44e-01	0	43	104	433061888	67	13321
2026-01-26 04:34:00.10	285.58	22.09	-45.4	-56.7	3.9	7.44e-01	0	43	104	433061888	62	13145
2026-01-26 04:34:01.10	285.34	21.99	-45.2	-55.3	3.8	7.44e-01	0	43	104	433061888	62	11255
2026-01-26 04:34:02.11	285.09	21.89	-45.3	-56.7	3.8	7.43e-01	0	43	104	433061888	62	13257
2026-01-26 04:34:03.12	284.85	21.79	-48.3	-59.0	3.9	7.45e-01	0	43	104	433061888	68	12164
2026-01-26 04:34:04.13	284.61	21.68	-45.7	-56.9	3.8	7.43e-01	0	43	104	433061888	63	12743
2026-01-26 04:34:05.13	284.38	21.58	-54.1	-69.3	3.8	7.42e-01	0	43	104	433061888	79	21256
2026-01-26 04:34:06.14	284.14	21.48	-48.0	-58.6	3.9	7.41e-01	0	43	104	433061888	68	11675
2026-01-26 04:34:07.15	283.91	21.37	-48.5	-60.4	3.8	7.40e-01	0	44	104	433061888	68	14286
2026-01-26 04:34:08.16	283.68	21.27	-45.4	-55.8	3.9	7.44e-01	0	43	104	433061888	62	11852
2026-01-26 04:34:09.17	283.44	21.17	-45.3	-56.4	3.8	7.47e-01	0	43	104	433061888	62	12755
2026-01-26 04:34:10.17	283.22	21.06	-45.3	-56.4	3.8	7.44e-01	0	43	104	433061888	62	12693
2026-01-26 04:34:11.18	282.99	20.96	-46.7	-57.1	3.8	7.43e-01	0	43	104	433061888	64	12299
2026-01-26 04:34:12.19	282.76	20.86	-45.2	-56.4	3.8	7.47e-01	0	43	104	433061888	62	12783
2026-01-26 04:34:13.20	282.54	20.75	-53.6	-67.8	3.9	7.44e-01	0	44	104	433061888	78	18825
2026-01-26 04:34:14.21	282.32	20.65	-46.7	-57.0	3.9	7.44e-01	0	43	104	433061888	65	11543
2026-01-26 04:34:15.21	282.10	20.55	-48.3	-60.5	3.8	7.47e-01	0	43	104	433061888	68	14536
2026-01-26 04:34:16.22	281.88	20.45	-45.2	-55.5	3.8	7.47e-01	0	43	104	433061888	62	11484
2026-01-26 04:34:17.23	281.66	20.34	-45.3	-55.8	3.9	7.45e-01	0	44	104	433061888	62	11910
2026-01-26 04:34:18.24	281.44	20.24	-45.2	-56.9	3.8	7.42e-01	0	43	104	433061888	62	13523
2026-01-26 04:34:19.25	281.23	20.14	-46.6	-57.2	3.8	7.44e-01	0	43	104	433061888	65	11740
2026-01-26 04:34:20.26	281.01	20.03	-45.3	-55.7	3.8	7.43e-01	0	43	104	433061888	62	11814
2026-01-26 04:34:21.27	280.80	19.93	-52.3	-65.6	3.9	7.46e-01	0	43	104	433061888	76	16346
2026-01-26 04:34:22.27	280.59	19.83	-45.7	-56.1	3.8	7.44e-01	0	43	104	433061888	63	11619
2026-01-26 04:34:23.28	280.38	19.73	-47.9	-58.5	3.8	7.44e-01	0	43	104	433061888	67	12174
2026-01-26 04:34:24.29	280.17	19.62	-45.1	-56.8	3.8	7.46e-01	0	43	104	433061888	62	13263
2026-01-26 04:34:25.29	279.97	19.52	-45.3	-56.4	3.8	7.44e-01	0	43	104	433061888	62	12754
2026-01-26 04:34:26.30	279.77	19.42	-45.2	-55.5	3.9	7.47e-01	0	43	104	433061888	62	11512
2026-01-26 04:34:27.31	279.56	19.32	-45.6	-56.6	3.8	7.42e-01	0	43	104	433061888	63	12322
2026-01-26 04:34:28.32	279.36	19.21	-45.2	-56.4	3.8	7.44e-01	0	43	104	433061888	62	12792
2026-01-26 04:34:29.32	279.16	19.11	-52.5	-65.6	3.9	7.43e-01	0	43	104	433061888	77	15479
2026-01-26 04:34:30.33	278.96	19.01	-45.9	-56.4	3.8	7.43e-01	0	43	104	433061888	63	11964
2026-01-26 04:34:31.34	278.77	18.91	-48.3	-59.9	3.9	7.46e-01	0	43	104	433061888	68	13490
2026-01-26 04:34:32.35	278.57	18.81	-45.5	-56.5	3.9	7.45e-01	0	43	104	433061888	63	12232
2026-01-26 04:34:33.35	278.38	18.71	-45.3	-55.8	3.8	7.45e-01	0	44	104	433061888	62	11835
2026-01-26 04:34:34.36	278.18	18.60	-45.2	-55.7	3.8	7.44e-01	0	43	104	433061888	62	11780
2026-01-26 04:34:35.37	277.99	18.50	-46.0	-57.2	3.9	7.40e-01	0	43	104	433061888	64	12458
2026-01-26 04:34:36.37	277.80	18.40	-45.9	-57.1	3.8	7.46e-01	0	43	104	433061888	62	13756
2026-01-26 04:34:37.38	277.61	18.30	-49.1	-62.8	4.0	7.43e-01	0	43	104	433061888	70	16720
2026-01-26 04:34:38.38	277.43	18.20	-45.4	-55.9	3.8	7.44e-01	0	43	104	433061888	62	11998
2026-01-26 04:34:39.39	277.24	18.10	-47.5	-58.9	3.9	7.43e-01	0	43	104	433061888	67	12706
2026-01-26 04:34:40.40	277.06	18.00	-45.6	-56.7	3.9	7.44e-01	0	43	104	433061888	63	12381
2026-01-26 04:34:41.40	276.87	17.90	-45.6	-56.5	3.8	7.46e-01	0	44	104	433061888	63	12114
2026-01-26 04:34:42.41	276.69	17.80	-46.8	-57.8	3.8	7.42e-01	0	43	104	433061888	64	13402
2026-01-26 04:34:43.42	276.51	17.70	-50.0	-62.0	3.8	7.43e-01	0	43	104	433061888	72	13639
2026-01-26 04:34:44.43	276.33	17.60	-47.0	-58.1	3.9	7.44e-01	0	43	104	433061888	66	12341
2026-01-26 04:34:45.43	276.15	17.50	-47.6	-58.8	3.9	7.47e-01	0	43	104	433061888	67	12645
2026-01-26 04:34:46.44	275.97	17.40	-45.9	-56.4	3.8	7.45e-01	0	44	104	433061888	62	12798
2026-01-26 04:34:47.45	275.80	17.30	-50.2	-61.8	3.9	7.43e-01	0	44	104	433061888	72	13272
2026-01-26 04:34:48.45	275.63	17.20	-45.5	-56.3	3.8	7.45e-01	0	43	104	433061888	62	12580
2026-01-26 04:34:49.46	275.45	17.10	-45.2	-56.3	3.8	7.42e-01	0	44	104	433061888	62	12582
2026-01-26 04:34:50.47	275.28	17.00	-46.6	-57.7	3.8	7.41e-01	0	43	104	433061888	63	13919
2026-01-26 04:34:51.48	275.11	16.91	-47.2	-58.1	3.9	7.45e-01	0	43	104	433061888	66	12338
2026-01-26 04:34:52.49	274.94	16.81	-47.9	-59.0	3.8	7.43e-01	0	43	104	433061888	66	13641
2026-01-26 04:34:53.49	274.77	16.71	-48.9	-60.4	3.9	7.46e-01	0	44	104	433061888	70	12749
2026-01-26 04:34:54.50	274.60	16.61	-46.1	-57.2	3.8	7.42e-01	0	43	104	433061888	63	13153
2026-01-26 04:34:55.51	274.44	16.51	-47.0	-58.4	3.9	7.43e-01	0	44	104	433061888	66	12776
2026-01-26 04:34:56.51	274.27	16.42	-45.7	-56.6	3.8	7.41e-01	0	43	104	433061888	63	12251
2026-01-26 04:34:57.52	274.11	16.32	-45.5	-56.1	3.8	7.46e-01	0	44	104	433061888	63	11607
2026-01-26 04:34:58.53	273.94	16.22	-45.4	-56.0	3.8	7.42e-01	0	43	104	433061888	62	12174
2026-01-26 04:34:59.54	273.78	16.12	-45.5	-56.2	3.8	7.41e-01	0	43	104	433061888	63	11743
2026-01-26 04:35:00.55	273.62	16.03	-47.7	-58.8	3.8	7.44e-01	0	43	104	433061888	65	14115
2026-01-26 04:35:01.55	273.46	15.93	-48.6	-60.1	3.8	7.46e-01	0	43	104	433061888	69	13053
2026-01-26 04:35:02.56	273.30	15.83	-47.4	-58.8	3.8	7.43e-01	0	44	104	433061888	65	14109
2026-01-26 04:35:03.57	273.15	15.74	-46.2	-57.2	3.8	7.45e-01	0	44	104	433061888	64	12451
2026-01-26 04:35:04.57	272.99	15.64	-45.5	-56.3	3.8	7.45e-01	0	43	104	433061888	63	11881
2026-01-26 04:35:05.58	272.84	15.55	-45.4	-56.0	3.8	7.41e-01	0	43	104	433061888	62	12226
2026-01-26 04:35:06.58	272.68	15.45	-47.4	-58.4	3.9	7.45e-01	0	44	104	433061888	65	13536
2026-01-26 04:35:07.59	272.53	15.35	-45.5	-56.4	3.8	7.48e-01	0	44	104	433061888	62	12800
2026-01-26 04:35:08.60	272.38	15.26	-49.9	-61.8	3.8	7.46e-01	0	43	104	433061888	70	14911
2026-01-26 04:35:09.61	272.23	15.16	-47.7	-58.7	3.8	7.42e-01	0	43	104	433061888	67	12519
2026-01-26 04:35:10.62	272.08	15.07	-47.5	-58.6	3.8	7.45e-01	0	44	104	433061888	65	13770
2026-01-26 04:35:11.63	271.93	14.97	-46.2	-57.1	3.8	7.44e-01	0	43	104	433061888	64	12339
2026-01-26 04:35:12.63	271.78	14.88	-45.6	-56.5	3.8	7.45e-01	0	43	104	433061888	63	12165
2026-01-26 04:35:13.64	271.63	14.79	-45.4	-56.2	3.8	7.45e-01	0	43	104	433061888	62	12478
2026-01-26 04:35:14.65	271.49	14.69	-48.0	-59.2	3.8	7.42e-01	0	43	104	433061888	66	13895
2026-01-26 04:35:15.66	271.34	14.60	-45.4	-56.4	3.8	7.44e-01	0	43	104	433061888	62	12701
2026-01-26 04:35:16.67	271.20	14.50	-51.4	-64.0	3.8	7.48e-01	0	43	104	433061888	73	16176
2026-01-26 04:35:17.67	271.06	14.41	-47.1	-58.1	3.8	7.46e-01	0	43	104	433061888	66	12374
2026-01-26 04:35:18.67	270.92	14.32	-49.0	-60.3	3.8	7.46e-01	0	43	104	433061888	68	14133
2026-01-26 04:35:19.68	270.78	14.23	-45.5	-56.1	3.8	7.45e-01	0	43	104	433061888	63	11623
2026-01-26 04:35:20.69	270.64	14.13	-45.3	-55.8	3.8	7.45e-01	0	43	104	433061888	62	11952
2026-01-26 04:35:21.70	270.50	14.04	-45.3	-55.8	3.8	7.41e-01	0	43	104	433061888	62	11951
2026-01-26 04:35:22.71	270.36	13.95	-48.5	-59.7	3.9	7.43e-01	0	44	104	433061888	67	14008
2026-01-26 04:35:23.72	270.22	13.86	-46.2	-57.1	3.8	7.46e-01	0	44	104	433061888	63	12971
2026-01-26 04:35:24.73	270.08	13.77	-51.1	-63.4	3.8	7.45e-01	0	43	104	433061888	72	15996
2026-01-26 04:35:25.73	269.95	13.67	-47.1	-58.2	3.9	7.44e-01	0	43	104	433061888	66	12505
2026-01-26 04:35:26.74	269.82	13.58	-49.8	-61.3	3.8	7.43e-01	0	44	104	433061888	69	15022
2026-01-26 04:35:27.75	269.68	13.49	-45.5	-56.4	3.9	7.41e-01	0	43	104	433061888	63	11996
2026-01-26 04:35:28.76	269.55	13.40	-45.3	-56.2	3.8	7.45e-01	0	43	104	433061888	62	12383
2026-01-26 04:35:29.76	269.42	13.31	-45.3	-56.1	3.8	7.40e-01	0	43	104	433061888	62	12313
2026-01-26 04:35:30.77	269.29	13.22	-48.9	-60.3	3.8	7.44e-01	0	43	104	433061888	68	14095
2026-01-26 04:35:31.78	269.16	13.13	-46.7	-58.0	3.8	7.45e-01	0	43	104	433061888	64	13618
2026-01-26 04:35:32.79	269.03	13.04	-52.7	-65.7	3.8	7.47e-01	0	43	104	433061888	75	17633
2026-01-26 04:35:33.79	268.90	12.95	-46.9	-57.9	3.8	7.45e-01	0	43	104	433061888	65	12769
2026-01-26 04:35:34.80	268.77	12.86	-50.7	-62.7	3.8	7.46e-01	0	43	104	433061888	71	15660
2026-01-26 04:35:35.81	268.65	12.77	-45.5	-56.3	3.8	7.41e-01	0	43	104	433061888	63	11904
2026-01-26 04:35:36.82	268.52	12.68	-45.5	-56.3	3.8	7.45e-01	0	43	104	433061888	62	12563
2026-01-26 04:35:37.83	268.39	12.59	-45.3	-56.1	3.8	7.46e-01	0	43	104	433061888	62	12322
2026-01-26 04:35:38.84	268.27	12.51	-48.7	-60.4	3.8	7.47e-01	0	43	104	433061888	68	14260
2026-01-26 04:35:39.85	268.15	12.42	-46.9	-57.9	3.8	7.41e-01	0	44	104	433061888	64	13568
2026-01-26 04:35:40.85	268.03	12.33	-52.0	-64.9	3.8	7.45e-01	0	44	104	433061888	74	17041
2026-01-26 04:35:41.85	267.91	12.24	-47.1	-58.2	3.8	7.42e-01	0	44	104	433061888	66	12467
2026-01-26 04:35:42.86	267.78	12.16	-51.7	-64.5	3.8	7.43e-01	0	43	104	433061888	73	17273
2026-01-26 04:35:43.87	267.66	12.07	-45.6	-56.5	3.8	7.43e-01	0	43	104	433061888	63	12176
2026-01-26 04:35:44.87	267.55	11.98	-45.7	-56.6	3.8	7.43e-01	0	43	104	433061888	63	12251
2026-01-26 04:35:45.88	267.43	11.89	-45.4	-56.3	3.8	7.46e-01	0	43	104	433061888	62	12632
2026-01-26 04:35:46.89	267.31	11.81	-49.6	-61.4	3.9	7.44e-01	0	43	104	433061888	69	15150
2026-01-26 04:35:47.89	267.19	11.72	-47.5	-58.6	3.8	7.46e-01	0	43	104	433061888	65	13827
2026-01-26 04:35:48.90	267.08	11.64	-52.4	-65.9	3.8	7.44e-01	0	44	104	433061888	75	18001
2026-01-26 04:35:49.91	266.96	11.55	-46.8	-57.8	3.8	7.44e-01	0	43	104	433061888	65	12562
2026-01-26 04:35:50.92	266.85	11.46	-52.3	-65.0	3.8	7.49e-01	0	43	104	433061888	74	17205
2026-01-26 04:35:51.93	266.73	11.38	-45.6	-56.4	3.8	7.44e-01	0	43	104	433061888	63	12039
2026-01-26 04:35:52.94	266.62	11.29	-45.6	-56.4	3.8	7.44e-01	0	44	104	433061888	63	12034
2026-01-26 04:35:53.94	266.51	11.21	-45.6	-56.3	3.8	7.45e-01	0	43	104	433061888	63	11955
2026-01-26 04:35:54.94	266.40	11.12	-51.3	-64.0	3.8	7.46e-01	0	43	104	433061888	73	16163
2026-01-26 04:35:55.94	266.29	11.04	-48.4	-59.7	3.9	7.47e-01	0	43	104	433061888	68	13229
2026-01-26 04:35:56.95	266.18	10.95	-51.7	-64.5	3.8	7.44e-01	0	44	104	433061888	73	17276
2026-01-26 04:35:57.96	266.07	10.87	-47.6	-58.9	3.8	7.45e-01	0	43	104	433061888	67	12775
2026-01-26 04:35:58.97	265.96	10.79	-52.5	-66.3	3.8	7.43e-01	0	43	104	433061888	75	18861
2026-01-26 04:35:59.97	265.85	10.70	-46.1	-57.2	3.8	7.47e-01	0	44	104	433061888	64	12376
2026-01-26 04:36:00.98	265.74	10.62	-46.2	-57.2	3.8	7.44e-01	0	44	104	433061888	63	13223
2026-01-26 04:36:01.99	265.63	10.54	-46.0	-56.9	3.8	7.48e-01	0	43	104	433061888	63	12766
2026-01-26 04:36:03.00	265.53	10.45	-49.0	-60.5	3.8	7.47e-01	0	43	104	433061888	68	14526
2026-01-26 04:36:04.00	265.42	10.37	-48.2	-59.4	3.8	7.47e-01	0	43	104	433061888	66	14246
2026-01-26 04:36:05.01	265.32	10.29	-52.4	-65.9	3.8	7.48e-01	0	43	104	433061888	75	18016
2026-01-26 04:36:06.02	265.21	10.21	-48.0	-59.1	3.8	7.42e-01	0	43	104	433061888	67	13109
2026-01-26 04:36:07.03	265.11	10.12	-52.1	-65.2	3.8	7.45e-01	0	43	104	433061888	74	17668
2026-01-26 04:36:08.04	265.01	10.04	-46.4	-57.2	3.8	7.46e-01	0	44	104	433061888	64	12517
2026-01-26 04:36:09.04	264.90	9.96	-46.1	-57.0	3.8	7.46e-01	0	43	104	433061888	64	12117
2026-01-26 04:36:10.05	264.80	9.88	-45.8	-56.7	3.8	7.43e-01	0	43	104	433061888	63	12407
2026-01-26 04:36:11.06	264.70	9.80	-49.6	-61.4	3.9	7.49e-01	0	43	104	433061888	70	14288
2026-01-26 04:36:12.06	264.60	9.72	-47.7	-59.0	3.8	7.43e-01	0	43	104	433061888	67	12902
2026-01-26 04:36:13.07	264.50	9.63	-51.8	-65.1	3.8	7.43e-01	0	43	104	433061888	74	17297
2026-01-26 04:36:14.08	264.40	9.55	-47.7	-59.0	3.8	7.45e-01	0	43	104	433061888	67	12906
2026-01-26 04:36:15.09	264.30	9.47	-52.1	-65.4	3.8	7.44e-01	0	43	104	433061888	75	17039
2026-01-26 04:36:16.10	264.20	9.39	-47.0	-58.1	3.8	7.44e-01	0	43	104	433061888	65	13012
2026-01-26 04:36:17.10	264.11	9.31	-46.6	-57.6	3.8	7.49e-01	0	43	104	433061888	65	12329
2026-01-26 04:36:18.11	264.01	9.23	-46.6	-57.7	3.8	7.42e-01	0	43	104	433061888	65	12382
2026-01-26 04:36:19.12	263.91	9.15	-46.6	-57.6	3.9	7.42e-01	0	44	104	433061888	64	13029
2026-01-26 04:36:20.13	263.82	9.07	-47.6	-58.9	3.8	7.47e-01	0	43	104	433061888	66	13520
2026-01-26 04:36:21.13	263.72	9.00	-51.9	-65.2	3.8	7.43e-01	0	43	104	433061888	75	16642
2026-01-26 04:36:22.14	263.63	8.92	-46.8	-57.9	3.9	7.48e-01	0	43	104	433061888	65	12744
2026-01-26 04:36:23.15	263.54	8.84	-51.8	-65.0	3.9	7.43e-01	0	43	104	433061888	75	16203
2026-01-26 04:36:24.15	263.44	8.76	-46.0	-57.0	3.8	7.46e-01	0	43	104	433061888	64	12151
2026-01-26 04:36:25.16	263.35	8.68	-46.1	-57.1	3.8	7.47e-01	0	43	104	433061888	64	12309
2026-01-26 04:36:26.16	263.26	8.60	-45.9	-56.9	3.8	7.45e-01	0	44	104	433061888	63	12799
2026-01-26 04:36:27.17	263.17	8.52	-47.7	-59.0	3.9	7.46e-01	0	43	104	433061888	67	12956
2026-01-26 04:36:28.18	263.08	8.45	-47.3	-58.4	3.9	7.47e-01	0	43	104	433061888	66	12801
2026-01-26 04:36:29.19	262.98	8.37	-51.6	-64.6	3.8	7.44e-01	0	44	104	433061888	75	15540
2026-01-26 04:36:30.20	262.89	8.29	-47.6	-58.8	3.8	7.45e-01	0	43	104	433061888	67	12620
2026-01-26 04:36:31.21	262.80	8.21	-51.3	-64.1	3.9	7.47e-01	0	43	104	433061888	74	15438
2026-01-26 04:36:32.21	262.72	8.14	-47.1	-58.2	3.9	7.42e-01	0	43	104	433061888	66	12484
2026-01-26 04:36:33.22	262.63	8.06	-46.9	-58.0	3.8	7.45e-01	0	43	104	433061888	65	12854
2026-01-26 04:36:34.23	262.54	7.98	-46.3	-57.2	3.8	7.44e-01	0	43	104	433061888	64	12470
2026-01-26 04:36:35.24	262.45	7.91	-47.7	-58.9	3.8	7.46e-01	0	43	104	433061888	66	13519
2026-01-26 04:36:36.24	262.37	7.83	-47.7	-59.0	3.8	7.39e-01	0	43	104	433061888	67	12904
2026-01-26 04:36:37.25	262.28	7.76	-51.2	-64.1	3.9	7.42e-01	0	44	104	433061888	74	15502
2026-01-26 04:36:38.26	262.19	7.68	-47.2	-58.5	3.9	7.48e-01	0	43	104	433061888	66	12833
2026-01-26 04:36:39.27	262.11	7.60	-50.5	-62.9	3.9	7.49e-01	0	44	104	433061888	73	14328
2026-01-26 04:36:40.27	262.02	7.53	-46.8	-58.0	3.8	7.46e-01	0	43	104	433061888	65	12912
2026-01-26 04:36:41.27	261.94	7.45	-46.4	-57.3	3.8	7.45e-01	0	44	104	433061888	64	12629
2026-01-26 04:36:42.27	261.86	7.38	-46.4	-57.4	3.8	7.44e-01	0	44	104	433061888	64	12751
2026-01-26 04:36:43.28	261.77	7.30	-47.4	-58.5	3.8	7.44e-01	0	43	104	433061888	66	12816
2026-01-26 04:36:44.29	261.69	7.23	-47.0	-58.2	3.8	7.44e-01	0	43	104	433061888	66	12516
2026-01-26 04:36:45.29	261.61	7.16	-50.5	-63.0	3.9	7.44e-01	0	43	104	433061888	73	14383
2026-01-26 04:36:46.30	261.53	7.08	-46.3	-57.3	3.8	7.46e-01	0	43	104	433061888	64	12592
2026-01-26 04:36:47.31	261.44	7.01	-50.0	-62.2	3.8	7.48e-01	0	43	104	433061888	72	13910
2026-01-26 04:36:48.32	261.36	6.93	-46.3	-57.4	3.8	7.41e-01	0	43	104	433061888	64	12789
2026-01-26 04:36:49.33	261.28	6.86	-46.5	-57.6	3.8	7.44e-01	0	43	104	433061888	64	13054
2026-01-26 04:36:50.34	261.20	6.79	-46.8	-57.9	3.8	7.44e-01	0	43	104	433061888	64	13498
2026-01-26 04:36:51.34	261.12	6.71	-50.8	-63.5	3.9	7.47e-01	0	43	104	433061888	73	15386
2026-01-26 04:36:52.35	261.04	6.64	-47.5	-58.8	3.8	7.45e-01	0	44	104	433061888	67	12651
2026-01-26 04:36:53.36	260.96	6.57	-50.4	-62.5	3.8	7.44e-01	0	44	104	433061888	72	14512
2026-01-26 04:36:54.37	260.89	6.49	-47.2	-58.4	3.8	7.44e-01	0	43	104	433061888	66	12764
2026-01-26 04:36:55.38	260.81	6.42	-49.1	-61.0	3.8	7.44e-01	0	43	104	433061888	70	13570
2026-01-26 04:36:56.39	260.73	6.35	-47.1	-58.2	3.8	7.47e-01	0	43	104	433061888	66	12453
2026-01-26 04:36:57.39	260.65	6.28	-46.4	-57.5	3.8	7.42e-01	0	43	104	433061888	64	12815
2026-01-26 04:36:58.40	260.58	6.20	-46.3	-57.2	3.8	7.44e-01	0	43	104	433061888	64	12449
2026-01-26 04:36:59.41	260.50	6.13	-46.8	-57.8	3.8	7.43e-01	0	43	104	433061888	65	12592
2026-01-26 04:37:00.41	260.43	6.06	-47.4	-58.6	3.8	7.49e-01	0	43	104	433061888	66	13049
2026-01-26 04:37:01.42	260.35	5.99	-49.5	-61.4	3.9	7.44e-01	0	43	104	433061888	71	13453
2026-01-26 04:37:02.42	260.28	5.92	-46.9	-58.0	3.8	7.46e-01	0	43	104	433061888	65	12891
2026-01-26 04:37:03.43	260.20	5.85	-48.6	-60.2	3.8	7.44e-01	0	44	104	433061888	69	13187
2026-01-26 04:37:04.44	260.13	5.77	-46.7	-57.8	3.8	7.45e-01	0	43	104	433061888	65	12600
2026-01-26 04:37:05.44	260.05	5.70	-46.4	-57.5	3.8	7.46e-01	0	43	104	433061888	64	12854
2026-01-26 04:37:06.45	259.98	5.63	-47.4	-58.6	3.8	7.43e-01	0	43	104	433061888	65	13874
2026-01-26 04:37:07.46	259.91	5.56	-47.6	-58.9	3.8	7.42e-01	0	43	104	433061888	67	12740
2026-01-26 04:37:08.47	259.83	5.49	-48.5	-60.0	3.8	7.45e-01	0	43	104	433061888	67	14413
2026-01-26 04:37:09.47	259.76	5.42	-49.1	-60.9	3.9	7.42e-01	0	44	104	433061888	70	13556
2026-01-26 04:37:10.48	259.69	5.35	-47.6	-58.9	3.8	7.42e-01	0	43	104	433061888	65	14267
2026-01-26 04:37:11.49	259.62	5.28	-48.5	-60.2	3.9	7.47e-01	0	44	104	433061888	69	13167
2026-01-26 04:37:12.50	259.55	5.21	-47.0	-58.3	3.8	7.44e-01	0	43	104	433061888	65	13285
2026-01-26 04:37:13.50	259.48	5.14	-47.2	-58.5	3.8	7.48e-01	0	43	104	433061888	65	13690
2026-01-26 04:37:14.51	259.41	5.07	-47.1	-58.3	3.9	7.38e-01	0	43	104	433061888	65	13303
2026-01-26 04:37:15.52	259.34	5.00	-48.1	-59.5	3.9	7.42e-01	0	43	104	433061888	66	14484
2026-01-26 04:37:16.53	259.27	4.94	-54.0	-71.8	3.8	7.45e-01	0	43	104	433061888	78	29935
2026-01-26 04:37:17.54	259.20	4.87	-54.2	-72.0	3.8	7.47e-01	0	43	104	433061888	78	30564
2026-01-26 04:37:18.55	259.13	4.80	-52.8	-70.6	3.8	7.46e-01	0	43	104	433061888	77	27597
2026-01-26 04:37:19.55	259.06	4.73	-54.3	-72.1	3.8	7.48e-01	0	43	104	433061888	79	29163
2026-01-26 04:37:20.56	259.00	4.66	-54.4	-72.1	3.8	7.47e-01	0	44	104	433061888	79	29282
2026-01-26 04:37:21.57	258.93	4.59	-54.3	-72.2	3.8	7.44e-01	0	43	104	433061888	79	29381
2026-01-26 04:37:22.58	258.86	4.52	-54.2	-72.1	3.8	7.48e-01	0	43	104	433061888	79	29094
2026-01-26 04:37:23.58	258.79	4.46	-54.2	-72.0	3.8	7.48e-01	0	44	104	433061888	79	28908
2026-01-26 04:37:24.59	258.73	4.39	-54.3	-72.2	3.8	7.44e-01	0	43	104	433061888	79	29406
2026-01-26 04:37:25.60	258.66	4.32	-54.4	-72.2	3.8	7.45e-01	0	44	104	433061888	79	29646
2026-01-26 04:37:26.61	258.60	4.25	-54.5	-72.3	3.8	7.43e-01	0	44	104	433061888	79	29866
2026-01-26 04:37:27.61	258.53	4.19	-54.5	-72.4	3.8	7.45e-01	0	44	104	433061888	79	30072
2026-01-26 04:37:28.62	258.47	4.12	-54.6	-72.4	3.8	7.49e-01	0	44	104	433061888	79	30307
2026-01-26 04:37:29.63	258.40	4.05	-54.6	-72.5	3.8	7.46e-01	0	43	104	433061888	79	30551
2026-01-26 04:37:30.64	258.34	3.98	-54.7	-72.6	3.8	7.45e-01	0	43	104	433061888	79	30752
2026-01-26 04:37:31.64	258.27	3.92	-54.7	-72.5	3.8	7.45e-01	0	44	104	433061888	80	28834
2026-01-26 04:37:32.65	258.21	3.85	-54.7	-72.5	3.8	7.42e-01	0	44	104	433061888	80	29005
2026-01-26 04:37:33.67	258.14	3.78	-54.7	-72.6	3.8	7.44e-01	0	43	104	433061888	80	29089
