passes_logs/2026/01/26/R3.2S_Murmansk/R3.2S_Murmansk__20260126_121544_NOAA_21_JPSS-2_rec.log

#Pass ID: 20260126_121544_NOAA 21 (JPSS-2)
#Satellite: NOAA 21 (JPSS-2)
#Configuration: NOAA-21
#almurnet v.1.7.20251203
#Start time: 2026-01-26 12:15:44

#Version: 2.2.20231116
#Station: R3.2S_Murmansk
#Location: 33.079688 lon 68.888172 lat
#TLE: 1 54234U 22150A   26025.93791214  .00000195  00000+0  11336-3 0  9990
#TLE: 2 54234  98.7509 326.7059 0000782 212.3040 147.8088 14.19539484166365

#Time	Az	El	Level	Level2	SNR	BER	BlckErr	Temp	State	Recorded	gain1	gain2
2026-01-26 12:15:44.04	221.56	1.98	-54.1	-66.9	3.8	1.49e+00	0	43	0	0	79	16022
2026-01-26 12:15:45.05	221.64	2.03	-54.1	-66.9	3.8	1.49e+00	0	43	104	0	78	16955
2026-01-26 12:15:46.05	221.72	2.08	-54.1	-66.9	3.8	1.49e+00	0	43	104	0	78	16912
2026-01-26 12:15:47.06	221.80	2.14	-54.3	-67.1	3.8	1.49e+00	0	43	104	0	79	16320
2026-01-26 12:15:48.07	221.88	2.19	-54.4	-67.1	3.8	1.49e+00	0	43	104	0	79	16501
2026-01-26 12:15:49.08	221.96	2.24	-54.4	-67.2	3.8	1.49e+00	0	43	104	0	79	16627
2026-01-26 12:15:50.08	222.04	2.30	-54.4	-67.2	3.8	1.49e+00	0	43	104	0	79	16655
2026-01-26 12:15:51.09	222.12	2.35	-54.5	-67.2	3.8	1.49e+00	0	43	104	0	79	16660
2026-01-26 12:15:52.10	222.20	2.40	-54.4	-67.2	3.8	1.49e+00	0	43	104	0	79	16585
2026-01-26 12:15:53.10	222.29	2.46	-54.4	-67.2	3.8	1.49e+00	0	43	104	0	79	16552
2026-01-26 12:15:54.11	222.37	2.51	-54.4	-67.1	3.8	1.49e+00	0	43	104	0	79	16500
2026-01-26 12:15:55.12	222.45	2.56	-54.3	-67.1	3.8	1.49e+00	0	43	104	0	79	16387
2026-01-26 12:15:56.12	222.54	2.61	-54.3	-67.0	3.8	1.49e+00	0	43	104	0	79	16303
2026-01-26 12:15:57.13	222.62	2.67	-54.2	-67.0	3.8	1.49e+00	0	43	104	0	79	16246
2026-01-26 12:15:58.14	222.70	2.72	-54.2	-67.0	3.8	1.49e+00	0	43	104	0	79	16162
2026-01-26 12:15:59.15	222.79	2.78	-54.2	-66.9	3.8	1.49e+00	0	43	104	0	79	16119
2026-01-26 12:16:00.15	222.87	2.83	-54.1	-66.9	3.8	1.49e+00	0	43	104	0	79	16010
2026-01-26 12:16:01.16	222.96	2.88	-54.1	-66.8	3.8	1.49e+00	0	43	104	0	79	15906
2026-01-26 12:16:02.16	223.04	2.94	-54.0	-66.7	3.8	1.49e+00	0	43	104	0	79	15752
2026-01-26 12:16:03.17	223.13	2.99	-53.9	-66.7	3.8	1.49e+00	0	43	104	0	79	15602
2026-01-26 12:16:04.17	223.21	3.04	-53.9	-66.6	3.8	1.49e+00	0	43	104	0	79	15548
2026-01-26 12:16:05.18	223.30	3.10	-53.8	-66.5	3.8	1.49e+00	0	43	104	0	79	15345
2026-01-26 12:16:06.19	223.38	3.15	-53.6	-66.4	3.8	1.49e+00	0	43	104	0	79	15131
2026-01-26 12:16:07.20	223.47	3.20	-53.4	-66.2	3.8	1.49e+00	0	43	104	0	78	15581
2026-01-26 12:16:08.21	223.56	3.26	-53.1	-65.9	3.8	1.49e+00	0	43	104	0	78	15132
2026-01-26 12:16:09.21	223.64	3.31	-52.8	-65.6	3.8	1.49e+00	0	43	104	0	77	15441
2026-01-26 12:16:10.22	223.73	3.37	-52.7	-65.5	3.8	1.49e+00	0	43	104	0	77	15241
2026-01-26 12:16:11.23	223.82	3.42	-52.7	-65.5	3.8	1.49e+00	0	43	104	0	77	15247
2026-01-26 12:16:12.24	223.91	3.47	-52.7	-65.5	3.8	1.49e+00	0	43	104	0	77	15259
2026-01-26 12:16:13.25	224.00	3.53	-52.7	-65.5	3.8	1.49e+00	0	43	104	0	77	15246
2026-01-26 12:16:14.26	224.09	3.58	-52.7	-65.4	3.8	1.49e+00	0	43	104	0	77	15163
2026-01-26 12:16:15.27	224.17	3.64	-52.7	-65.4	3.8	1.49e+00	0	43	104	0	77	15074
2026-01-26 12:16:16.28	224.26	3.69	-52.7	-65.3	3.8	1.49e+00	0	43	104	0	77	14923
2026-01-26 12:16:17.29	224.35	3.75	-52.7	-65.2	3.8	1.49e+00	0	44	104	0	77	14857
2026-01-26 12:16:18.30	224.44	3.80	-52.6	-65.3	3.8	1.49e+00	0	43	104	0	77	14894
2026-01-26 12:16:19.30	224.53	3.85	-52.7	-65.3	3.8	1.49e+00	0	43	104	0	77	14986
2026-01-26 12:16:20.31	224.62	3.91	-52.6	-65.3	3.8	1.49e+00	0	43	104	0	77	15025
2026-01-26 12:16:21.31	224.71	3.96	-52.7	-65.4	3.8	1.49e+00	0	44	104	0	77	15150
2026-01-26 12:16:22.32	224.81	4.02	-52.7	-65.4	3.8	1.49e+00	0	43	104	0	77	15118
2026-01-26 12:16:23.33	224.90	4.07	-52.7	-65.4	3.8	1.49e+00	0	43	104	0	77	15139
2026-01-26 12:16:24.34	224.99	4.13	-52.6	-65.4	3.8	1.49e+00	0	43	104	0	77	15053
2026-01-26 12:16:25.35	225.08	4.18	-52.6	-65.3	3.8	1.49e+00	0	43	104	0	77	15027
2026-01-26 12:16:26.35	225.17	4.24	-52.6	-65.3	3.8	1.49e+00	0	43	104	0	77	14971
2026-01-26 12:16:27.36	225.27	4.29	-52.6	-65.2	3.8	1.49e+00	0	43	104	0	77	14766
2026-01-26 12:16:28.37	225.36	4.35	-52.6	-64.7	3.8	1.49e+00	0	43	104	0	77	13975
2026-01-26 12:16:29.37	225.45	4.40	-52.6	-64.4	3.8	1.49e+00	0	43	104	0	77	13479
2026-01-26 12:16:30.38	225.55	4.46	-52.5	-64.0	3.8	1.49e+00	0	44	104	0	77	12932
2026-01-26 12:16:31.39	225.64	4.51	-52.5	-64.0	3.8	1.49e+00	0	44	104	0	77	12913
2026-01-26 12:16:32.40	225.74	4.57	-52.6	-64.8	3.8	1.49e+00	0	43	104	0	77	14140
2026-01-26 12:16:33.41	225.83	4.62	-52.6	-64.5	3.8	1.49e+00	0	43	104	0	77	13708
2026-01-26 12:16:34.41	225.93	4.68	-52.3	-62.0	4.1	1.48e+00	0	43	104	0	76	10833
2026-01-26 12:16:35.42	226.02	4.73	-51.8	-59.0	5.5	9.66e-01	0	44	104	0	75	8101
2026-01-26 12:16:36.43	226.12	4.79	-51.0	-56.0	8.1	1.04e-01	0	43	0	2097152	74	6085
2026-01-26 12:16:37.44	226.21	4.84	-49.8	-53.0	11.2	2.62e-03	0	43	0	5242880	71	5158
2026-01-26 12:16:38.45	226.31	4.90	-48.7	-51.2	13.2	8.46e-05	0	43	0	9437184	69	4663
2026-01-26 12:16:39.46	226.41	4.96	-47.5	-49.5	14.8	7.00e-07	0	43	0	12582912	67	4311
2026-01-26 12:16:40.47	226.51	5.01	-46.9	-48.7	15.6	0.00e+00	0	43	0	15728640	65	4416
2026-01-26 12:16:41.48	226.60	5.07	-46.8	-48.5	15.9	0.00e+00	0	43	0	18874368	64	4566
2026-01-26 12:16:42.49	226.70	5.12	-47.1	-48.9	15.5	1.50e-06	0	43	0	20971520	65	4518
2026-01-26 12:16:43.49	226.80	5.18	-46.8	-48.4	15.7	2.97e-03	0	43	0	24117248	65	4281
2026-01-26 12:16:44.50	226.90	5.23	-48.5	-50.9	13.5	4.50e-06	0	43	0	27262976	67	5073
2026-01-26 12:16:45.51	227.00	5.29	-46.8	-48.5	15.6	4.22e-03	0	43	0	30408704	65	4308
2026-01-26 12:16:46.51	227.10	5.35	-46.2	-47.7	16.5	0.00e+00	0	43	0	33554432	64	4178
2026-01-26 12:16:47.52	227.20	5.40	-46.0	-47.4	16.9	0.00e+00	0	43	0	36700160	63	4279
2026-01-26 12:16:48.52	227.30	5.46	-46.0	-47.5	16.8	0.00e+00	0	43	0	39845888	63	4303
2026-01-26 12:16:49.53	227.40	5.51	-46.0	-47.5	16.8	0.00e+00	0	43	0	42991616	63	4314
2026-01-26 12:16:50.53	227.50	5.57	-46.0	-47.4	16.9	0.00e+00	0	43	0	46137344	63	4274
2026-01-26 12:16:51.54	227.60	5.62	-45.8	-47.2	17.1	0.00e+00	0	43	0	49283072	63	4173
2026-01-26 12:16:52.55	227.70	5.68	-45.9	-47.4	17.0	0.00e+00	0	43	0	53477376	63	4266
2026-01-26 12:16:53.56	227.80	5.74	-45.6	-47.0	17.3	0.00e+00	0	44	0	56623104	63	4085
2026-01-26 12:16:54.57	227.90	5.79	-45.7	-47.1	17.3	0.00e+00	0	43	0	59768832	63	4112
2026-01-26 12:16:55.58	228.01	5.85	-45.7	-47.1	17.2	0.00e+00	0	43	0	62914560	63	4142
2026-01-26 12:16:56.58	228.11	5.91	-45.7	-47.1	17.3	0.00e+00	0	43	0	66060288	63	4124
2026-01-26 12:16:57.59	228.21	5.96	-45.8	-47.1	17.2	0.00e+00	0	43	0	68157440	63	4144
2026-01-26 12:16:58.60	228.32	6.02	-45.6	-46.9	17.5	0.00e+00	0	43	0	71303168	63	4026
2026-01-26 12:16:59.60	228.42	6.07	-45.6	-47.0	17.4	0.00e+00	0	43	0	74448896	63	4082
2026-01-26 12:17:00.61	228.53	6.13	-45.7	-47.1	17.3	0.00e+00	0	43	0	77594624	63	4100
2026-01-26 12:17:01.62	228.63	6.19	-45.6	-47.0	17.4	0.00e+00	0	43	0	80740352	63	4080
2026-01-26 12:17:02.63	228.74	6.24	-45.6	-47.0	17.4	0.00e+00	0	43	0	83886080	63	4067
2026-01-26 12:17:03.63	228.84	6.30	-45.3	-46.6	17.8	0.00e+00	0	43	0	87031808	62	4140
2026-01-26 12:17:04.64	228.95	6.36	-45.6	-46.9	17.5	0.00e+00	0	44	0	90177536	62	4281
2026-01-26 12:17:05.65	229.06	6.41	-45.6	-46.9	17.5	0.00e+00	0	43	0	94371840	62	4257
2026-01-26 12:17:06.66	229.16	6.47	-45.3	-46.5	17.9	0.00e+00	0	43	0	97517568	62	4097
2026-01-26 12:17:07.67	229.27	6.53	-45.5	-46.9	17.6	0.00e+00	0	43	0	100663296	62	4245
2026-01-26 12:17:08.68	229.38	6.59	-45.4	-46.7	17.8	0.00e+00	0	44	0	103809024	62	4148
2026-01-26 12:17:09.69	229.49	6.64	-45.5	-46.8	17.7	0.00e+00	0	44	0	106954752	62	4212
2026-01-26 12:17:10.69	229.60	6.70	-45.5	-46.8	17.7	0.00e+00	0	44	0	110100480	62	4212
2026-01-26 12:17:11.70	229.70	6.76	-45.2	-46.5	18.0	0.00e+00	0	43	0	113246208	62	4070
2026-01-26 12:17:12.70	229.81	6.81	-45.1	-46.4	18.1	0.00e+00	0	43	0	115343360	62	4021
2026-01-26 12:17:13.71	229.92	6.87	-45.1	-46.4	18.1	0.00e+00	0	43	0	118489088	62	4008
2026-01-26 12:17:14.72	230.03	6.93	-45.1	-46.4	18.1	0.00e+00	0	43	0	121634816	62	4024
2026-01-26 12:17:15.73	230.14	6.98	-45.1	-46.3	18.2	0.00e+00	0	43	0	124780544	62	3974
2026-01-26 12:17:16.73	230.26	7.04	-45.1	-46.3	18.2	0.00e+00	0	44	0	127926272	62	3972
2026-01-26 12:17:17.74	230.37	7.10	-45.0	-46.2	18.3	0.00e+00	0	43	0	131072000	61	4156
2026-01-26 12:17:18.74	230.48	7.16	-45.0	-46.3	18.2	0.00e+00	0	43	0	134217728	61	4200
2026-01-26 12:17:19.75	230.59	7.21	-45.2	-46.4	18.1	0.00e+00	0	43	0	138412032	61	4267
2026-01-26 12:17:20.75	230.70	7.27	-45.3	-46.5	18.0	0.00e+00	0	43	0	141557760	61	4334
2026-01-26 12:17:21.76	230.82	7.33	-45.2	-46.4	18.1	0.00e+00	0	43	0	144703488	61	4286
2026-01-26 12:17:22.77	230.93	7.38	-45.0	-46.2	18.3	0.00e+00	0	43	0	147849216	61	4188
2026-01-26 12:17:23.78	231.04	7.44	-44.8	-46.0	18.5	0.00e+00	0	43	0	150994944	61	4079
2026-01-26 12:17:24.78	231.16	7.50	-44.9	-46.1	18.5	0.00e+00	0	43	0	154140672	61	4102
2026-01-26 12:17:25.78	231.27	7.56	-44.8	-46.0	18.5	0.00e+00	0	43	0	157286400	61	4084
2026-01-26 12:17:26.79	231.39	7.61	-44.8	-46.0	18.5	0.00e+00	0	44	0	160432128	61	4086
2026-01-26 12:17:27.80	231.50	7.67	-44.9	-46.1	18.4	0.00e+00	0	43	0	162529280	61	4118
2026-01-26 12:17:28.81	231.62	7.73	-44.8	-46.0	18.5	0.00e+00	0	43	0	165675008	61	4073
2026-01-26 12:17:29.82	231.74	7.79	-44.7	-45.9	18.6	0.00e+00	0	43	0	168820736	61	4021
2026-01-26 12:17:30.83	231.85	7.84	-44.7	-45.8	18.7	0.00e+00	0	44	0	171966464	61	3985
2026-01-26 12:17:31.84	231.97	7.90	-44.8	-45.9	18.6	0.00e+00	0	44	0	175112192	61	4043
2026-01-26 12:17:32.84	232.09	7.96	-44.6	-45.8	18.7	0.00e+00	0	43	0	179306496	61	3962
2026-01-26 12:17:33.85	232.21	8.02	-44.5	-45.6	18.8	0.00e+00	0	44	0	182452224	61	3910
2026-01-26 12:17:34.86	232.33	8.08	-44.6	-45.7	18.8	0.00e+00	0	44	0	185597952	60	4189
2026-01-26 12:17:35.87	232.45	8.13	-44.6	-45.7	18.8	0.00e+00	0	44	0	188743680	60	4174
2026-01-26 12:17:36.88	232.57	8.19	-44.6	-45.7	18.8	0.00e+00	0	44	0	191889408	60	4172
2026-01-26 12:17:37.88	232.69	8.25	-44.7	-45.8	18.7	0.00e+00	0	43	0	195035136	60	4231
2026-01-26 12:17:38.89	232.81	8.31	-44.7	-45.8	18.7	0.00e+00	0	43	0	198180864	60	4224
2026-01-26 12:17:39.90	232.93	8.36	-44.7	-45.8	18.7	0.00e+00	0	43	0	201326592	60	4228
2026-01-26 12:17:40.90	233.05	8.42	-44.7	-45.8	18.7	0.00e+00	0	44	0	204472320	60	4237
2026-01-26 12:17:41.92	233.17	8.48	-44.7	-45.8	18.8	0.00e+00	0	43	0	206569472	60	4222
2026-01-26 12:17:42.92	233.30	8.54	-44.7	-45.9	18.7	0.00e+00	0	43	0	209715200	60	4245
2026-01-26 12:17:43.93	233.42	8.60	-44.8	-45.9	18.7	0.00e+00	0	43	0	212860928	60	4286
2026-01-26 12:17:44.93	233.54	8.65	-44.6	-45.8	18.8	0.00e+00	0	43	0	216006656	60	4199
2026-01-26 12:17:45.94	233.67	8.71	-44.5	-45.6	19.0	0.00e+00	0	43	0	219152384	60	4119
2026-01-26 12:17:46.95	233.79	8.77	-44.5	-45.6	19.0	0.00e+00	0	43	0	223346688	60	4127
2026-01-26 12:17:47.96	233.92	8.83	-44.4	-45.5	19.1	0.00e+00	0	43	0	226492416	60	4083
2026-01-26 12:17:48.96	234.04	8.89	-44.3	-45.4	19.1	0.00e+00	0	43	0	229638144	60	4042
2026-01-26 12:17:49.97	234.17	8.94	-44.2	-45.3	19.3	0.00e+00	0	43	0	232783872	60	3987
2026-01-26 12:17:50.98	234.29	9.00	-44.4	-45.4	19.2	0.00e+00	0	43	0	235929600	60	4047
2026-01-26 12:17:51.98	234.42	9.06	-44.4	-45.5	19.2	0.00e+00	0	43	0	239075328	60	4053
2026-01-26 12:17:52.98	234.54	9.12	-44.2	-45.2	19.4	0.00e+00	0	44	0	242221056	60	3943
2026-01-26 12:17:53.99	234.67	9.18	-44.2	-45.2	19.4	0.00e+00	0	43	0	245366784	60	3943
2026-01-26 12:17:55.00	234.80	9.23	-44.1	-45.2	19.4	0.00e+00	0	43	0	248512512	60	3933
2026-01-26 12:17:56.01	234.93	9.29	-44.4	-45.4	19.5	0.00e+00	0	43	0	251658240	59	4273
2026-01-26 12:17:57.01	235.06	9.35	-44.4	-45.4	19.5	0.00e+00	0	43	0	254803968	59	4284
2026-01-26 12:17:58.02	235.19	9.41	-44.4	-45.4	19.5	0.00e+00	0	43	0	256901120	59	4282
2026-01-26 12:17:59.03	235.32	9.47	-44.4	-45.5	19.4	0.00e+00	0	44	0	260046848	59	4305
2026-01-26 12:18:00.03	235.45	9.53	-44.3	-45.3	19.6	0.00e+00	0	44	0	263192576	59	4237
2026-01-26 12:18:01.04	235.58	9.58	-44.3	-45.4	19.5	0.00e+00	0	44	0	266338304	59	4255
2026-01-26 12:18:02.05	235.71	9.64	-44.4	-45.5	19.4	0.00e+00	0	43	0	270532608	59	4324
2026-01-26 12:18:03.06	235.85	9.70	-44.2	-45.3	19.6	0.00e+00	0	44	0	273678336	59	4210
2026-01-26 12:18:04.07	235.98	9.76	-44.3	-45.4	19.5	0.00e+00	0	44	0	276824064	59	4246
2026-01-26 12:18:05.08	236.11	9.82	-44.2	-45.3	19.6	0.00e+00	0	44	0	279969792	59	4217
2026-01-26 12:18:06.09	236.25	9.88	-44.1	-45.2	19.7	0.00e+00	0	43	0	283115520	59	4148
2026-01-26 12:18:07.10	236.38	9.93	-44.3	-45.3	19.6	0.00e+00	0	44	0	286261248	59	4228
2026-01-26 12:18:08.11	236.52	9.99	-44.1	-45.2	19.7	0.00e+00	0	44	0	289406976	59	4161
2026-01-26 12:18:09.12	236.65	10.05	-44.2	-45.2	19.7	0.00e+00	0	43	0	292552704	59	4181
2026-01-26 12:18:10.13	236.79	10.11	-44.2	-45.3	19.7	0.00e+00	0	44	0	295698432	59	4200
2026-01-26 12:18:11.13	236.92	10.17	-44.3	-45.4	19.5	0.00e+00	0	44	0	298844160	59	4259
2026-01-26 12:18:12.14	237.06	10.22	-44.1	-45.1	19.8	0.00e+00	0	43	0	301989888	59	4133
2026-01-26 12:18:13.15	237.20	10.28	-44.2	-45.2	19.7	0.00e+00	0	44	0	305135616	59	4183
2026-01-26 12:18:14.16	237.34	10.34	-44.2	-45.2	19.7	0.00e+00	0	43	0	308281344	59	4176
2026-01-26 12:18:15.16	237.48	10.40	-44.2	-45.3	19.6	0.00e+00	0	44	0	311427072	59	4209
2026-01-26 12:18:16.17	237.61	10.46	-44.2	-45.2	19.7	0.00e+00	0	44	0	314572800	59	4182
2026-01-26 12:18:17.17	237.75	10.52	-44.2	-45.2	19.7	0.00e+00	0	44	0	317718528	59	4184
2026-01-26 12:18:18.18	237.89	10.57	-44.2	-45.3	19.7	0.00e+00	0	44	0	320864256	59	4205
2026-01-26 12:18:19.18	238.03	10.63	-44.3	-45.3	19.6	0.00e+00	0	43	0	324009984	59	4239
2026-01-26 12:18:20.19	238.18	10.69	-44.1	-45.2	19.8	0.00e+00	0	43	0	327155712	59	4162
2026-01-26 12:18:21.20	238.32	10.75	-44.2	-45.2	19.7	0.00e+00	0	44	0	330301440	59	4193
2026-01-26 12:18:22.21	238.46	10.81	-44.3	-45.3	19.6	0.00e+00	0	44	0	333447168	59	4241
2026-01-26 12:18:23.21	238.60	10.86	-44.0	-45.1	19.9	0.00e+00	0	44	0	336592896	59	4113
2026-01-26 12:18:24.22	238.75	10.92	-44.2	-45.2	19.8	0.00e+00	0	43	0	339738624	59	4176
2026-01-26 12:18:25.23	238.89	10.98	-44.1	-45.1	19.8	0.00e+00	0	43	0	342884352	59	4144
2026-01-26 12:18:26.23	239.03	11.04	-44.2	-45.2	19.7	0.00e+00	0	44	0	346030080	59	4190
2026-01-26 12:18:27.24	239.18	11.10	-44.2	-45.2	19.7	0.00e+00	0	44	0	349175808	59	4190
2026-01-26 12:18:28.25	239.32	11.15	-44.1	-45.1	19.8	0.00e+00	0	44	0	352321536	59	4139
2026-01-26 12:18:29.26	239.47	11.21	-44.1	-45.1	19.9	0.00e+00	0	43	0	355467264	59	4115
2026-01-26 12:18:30.27	239.62	11.27	-44.1	-45.1	19.9	0.00e+00	0	43	0	358612992	59	4136
2026-01-26 12:18:31.28	239.77	11.33	-44.1	-45.1	19.8	0.00e+00	0	43	0	361758720	59	4130
2026-01-26 12:18:32.29	239.91	11.39	-44.1	-45.1	19.9	0.00e+00	0	43	0	364904448	59	4134
2026-01-26 12:18:33.30	240.06	11.44	-43.9	-45.0	20.0	0.00e+00	0	44	0	368050176	59	4055
2026-01-26 12:18:34.31	240.21	11.50	-44.1	-45.1	19.9	0.00e+00	0	44	0	371195904	59	4110
2026-01-26 12:18:35.32	240.36	11.56	-44.0	-45.0	20.0	0.00e+00	0	44	0	374341632	59	4074
2026-01-26 12:18:36.33	240.51	11.62	-44.0	-45.0	20.0	0.00e+00	0	43	0	377487360	59	4080
2026-01-26 12:18:37.33	240.66	11.68	-44.0	-45.0	20.0	0.00e+00	0	44	0	380633088	59	4063
2026-01-26 12:18:38.34	240.81	11.73	-43.9	-44.9	20.1	0.00e+00	0	43	0	383778816	59	4023
2026-01-26 12:18:39.35	240.97	11.79	-43.9	-44.9	20.0	0.00e+00	0	44	0	386924544	59	4025
2026-01-26 12:18:40.36	241.12	11.85	-43.8	-44.8	20.1	0.00e+00	0	43	0	390070272	59	3996
2026-01-26 12:18:41.37	241.27	11.91	-43.9	-44.9	20.1	0.00e+00	0	44	0	393216000	59	4005
2026-01-26 12:18:42.37	241.42	11.96	-43.9	-44.9	20.1	0.00e+00	0	44	0	396361728	59	4022
2026-01-26 12:18:43.38	241.58	12.02	-43.9	-44.9	20.1	0.00e+00	0	44	0	399507456	59	4028
2026-01-26 12:18:44.39	241.73	12.08	-44.0	-45.0	20.0	0.00e+00	0	43	0	402653184	59	4063
2026-01-26 12:18:45.40	241.89	12.14	-44.0	-45.0	20.0	0.00e+00	0	43	0	405798912	59	4079
2026-01-26 12:18:46.41	242.05	12.19	-43.8	-44.8	20.2	0.00e+00	0	44	0	408944640	59	3977
2026-01-26 12:18:47.41	242.20	12.25	-43.8	-44.8	20.2	0.00e+00	0	44	0	412090368	59	3979
2026-01-26 12:18:48.42	242.36	12.31	-43.8	-44.8	20.2	0.00e+00	0	44	0	415236096	59	3966
2026-01-26 12:18:49.43	242.52	12.36	-43.8	-44.8	20.2	0.00e+00	0	44	0	418381824	59	3966
2026-01-26 12:18:50.44	242.67	12.42	-43.8	-44.8	20.2	0.00e+00	0	43	0	421527552	59	3974
2026-01-26 12:18:51.44	242.83	12.48	-43.8	-44.8	20.2	0.00e+00	0	43	0	424673280	59	3976
2026-01-26 12:18:52.45	242.99	12.54	-43.9	-44.9	20.1	0.00e+00	0	43	0	427819008	59	4018
2026-01-26 12:18:53.45	243.15	12.59	-43.6	-44.5	20.4	0.00e+00	0	44	0	430964736	59	3868
2026-01-26 12:18:54.46	243.31	12.65	-43.6	-44.6	20.4	0.00e+00	0	44	0	434110464	59	3895
2026-01-26 12:18:55.47	243.47	12.71	-43.7	-44.7	20.3	0.00e+00	0	43	0	437256192	59	3935
2026-01-26 12:18:56.47	243.63	12.76	-43.6	-44.6	20.4	0.00e+00	0	43	0	440401920	59	3886
2026-01-26 12:18:57.48	243.80	12.82	-43.6	-44.6	20.3	0.00e+00	0	43	0	443547648	59	3889
2026-01-26 12:18:58.49	243.96	12.87	-43.7	-44.7	20.2	0.00e+00	0	43	0	446693376	59	3931
2026-01-26 12:18:59.50	244.12	12.93	-43.7	-44.7	20.3	0.00e+00	0	44	0	449839104	59	3922
2026-01-26 12:19:00.51	244.29	12.99	-43.8	-44.8	20.2	0.00e+00	0	44	0	452984832	59	3964
2026-01-26 12:19:01.51	244.45	13.04	-43.7	-44.7	20.2	0.00e+00	0	44	0	456130560	59	3924
2026-01-26 12:19:02.52	244.62	13.10	-43.7	-44.7	20.2	0.00e+00	0	44	0	459276288	59	3950
2026-01-26 12:19:03.53	244.78	13.16	-43.8	-44.8	20.2	0.00e+00	0	44	0	462422016	59	3987
2026-01-26 12:19:04.53	244.95	13.21	-43.8	-44.8	20.2	0.00e+00	0	44	0	465567744	59	3982
2026-01-26 12:19:05.54	245.12	13.27	-43.9	-44.9	20.1	0.00e+00	0	43	0	468713472	59	4022
2026-01-26 12:19:06.55	245.29	13.32	-43.8	-44.8	20.2	0.00e+00	0	44	0	471859200	59	3996
2026-01-26 12:19:07.56	245.45	13.38	-43.8	-44.8	20.2	0.00e+00	0	43	0	475004928	59	3970
2026-01-26 12:19:08.57	245.62	13.43	-43.8	-44.8	20.2	0.00e+00	0	43	0	478150656	59	3961
2026-01-26 12:19:09.57	245.79	13.49	-43.8	-44.8	20.2	0.00e+00	0	43	0	481296384	59	3971
2026-01-26 12:19:10.57	245.96	13.54	-43.7	-44.7	20.3	0.00e+00	0	43	0	484442112	59	3950
2026-01-26 12:19:11.58	246.13	13.60	-43.7	-44.7	20.3	0.00e+00	0	44	0	487587840	59	3918
2026-01-26 12:19:12.58	246.30	13.65	-43.7	-44.6	20.3	0.00e+00	0	43	0	490733568	59	3913
2026-01-26 12:19:13.59	246.48	13.71	-43.7	-44.7	20.3	0.00e+00	0	43	0	493879296	59	3933
2026-01-26 12:19:14.59	246.65	13.76	-43.7	-44.6	20.4	0.00e+00	0	43	0	497025024	59	3909
2026-01-26 12:19:15.60	246.82	13.82	-43.6	-44.6	20.5	0.00e+00	0	43	0	500170752	59	3871
2026-01-26 12:19:16.61	246.99	13.87	-43.5	-44.5	20.6	0.00e+00	0	43	0	503316480	59	3827
2026-01-26 12:19:17.62	247.17	13.93	-43.5	-44.4	20.6	0.00e+00	0	43	0	506462208	59	3811
2026-01-26 12:19:18.63	247.35	13.98	-43.5	-44.4	20.6	0.00e+00	0	44	0	509607936	58	4039
2026-01-26 12:19:19.63	247.52	14.04	-43.4	-44.4	20.6	0.00e+00	0	43	0	512753664	58	4010
2026-01-26 12:19:20.64	247.70	14.09	-43.5	-44.4	20.6	0.00e+00	0	43	0	515899392	58	4029
2026-01-26 12:19:21.64	247.87	14.15	-43.5	-44.4	20.5	0.00e+00	0	43	0	519045120	58	4051
2026-01-26 12:19:22.65	248.05	14.20	-43.5	-44.4	20.6	0.00e+00	0	43	0	522190848	58	4035
2026-01-26 12:19:23.65	248.23	14.25	-43.6	-44.6	20.4	0.00e+00	0	44	0	525336576	58	4126
2026-01-26 12:19:24.66	248.41	14.31	-43.5	-44.4	20.6	0.00e+00	0	43	0	528482304	58	4049
2026-01-26 12:19:25.67	248.59	14.36	-43.6	-44.6	20.4	0.00e+00	0	43	0	531628032	58	4109
2026-01-26 12:19:26.67	248.77	14.41	-43.6	-44.6	20.4	0.00e+00	0	43	0	534773760	58	4125
2026-01-26 12:19:27.67	248.95	14.47	-43.6	-44.6	20.4	0.00e+00	0	43	0	537919488	58	4120
2026-01-26 12:19:28.68	249.13	14.52	-43.8	-44.7	20.3	0.00e+00	0	43	0	541065216	58	4187
2026-01-26 12:19:29.69	249.31	14.57	-43.7	-44.6	20.4	0.00e+00	0	44	0	544210944	58	4132
2026-01-26 12:19:30.70	249.49	14.63	-43.7	-44.7	20.4	0.00e+00	0	43	0	547356672	58	4162
2026-01-26 12:19:31.70	249.68	14.68	-43.7	-44.7	20.4	0.00e+00	0	44	0	550502400	58	4159
2026-01-26 12:19:32.71	249.86	14.73	-43.6	-44.6	20.5	0.00e+00	0	44	0	553648128	58	4107
2026-01-26 12:19:33.72	250.04	14.78	-43.7	-44.7	20.4	0.00e+00	0	44	0	556793856	58	4148
2026-01-26 12:19:34.73	250.23	14.84	-43.7	-44.7	20.5	0.00e+00	0	43	0	559939584	58	4147
2026-01-26 12:19:35.73	250.41	14.89	-43.6	-44.5	20.6	0.00e+00	0	44	0	563085312	58	4097
2026-01-26 12:19:36.74	250.60	14.94	-43.6	-44.5	20.6	0.00e+00	0	44	0	566231040	58	4093
2026-01-26 12:19:37.75	250.79	14.99	-43.4	-44.3	20.8	0.00e+00	0	43	0	569376768	58	3992
2026-01-26 12:19:38.76	250.98	15.04	-43.4	-44.3	20.7	0.00e+00	0	44	0	572522496	58	3988
2026-01-26 12:19:39.77	251.17	15.09	-43.4	-44.3	20.7	0.00e+00	0	43	0	575668224	58	3998
2026-01-26 12:19:40.77	251.35	15.14	-43.4	-44.3	20.7	0.00e+00	0	44	0	578813952	58	3993
2026-01-26 12:19:41.78	251.54	15.20	-43.5	-44.4	20.7	0.00e+00	0	43	0	581959680	58	4023
2026-01-26 12:19:42.79	251.73	15.25	-43.6	-44.5	20.6	0.00e+00	0	43	0	585105408	58	4089
2026-01-26 12:19:43.80	251.93	15.30	-43.6	-44.5	20.6	0.00e+00	0	43	0	588251136	58	4081
2026-01-26 12:19:44.80	252.12	15.35	-43.6	-44.6	20.5	0.00e+00	0	43	0	591396864	58	4107
2026-01-26 12:19:45.81	252.31	15.40	-43.7	-44.6	20.5	0.00e+00	0	44	0	594542592	58	4136
2026-01-26 12:19:46.82	252.50	15.45	-43.7	-44.6	20.5	0.00e+00	0	43	0	597688320	58	4137
2026-01-26 12:19:47.83	252.70	15.50	-43.7	-44.6	20.5	0.00e+00	0	43	0	600834048	58	4132
2026-01-26 12:19:48.84	252.89	15.55	-43.7	-44.7	20.4	0.00e+00	0	43	0	603979776	58	4168
2026-01-26 12:19:49.85	253.08	15.60	-43.8	-44.8	20.4	0.00e+00	0	43	0	607125504	58	4202
2026-01-26 12:19:50.85	253.28	15.64	-43.6	-44.6	20.5	0.00e+00	0	43	0	610271232	58	4120
2026-01-26 12:19:51.86	253.47	15.69	-43.6	-44.6	20.5	0.00e+00	0	43	0	613416960	58	4107
2026-01-26 12:19:52.87	253.67	15.74	-43.5	-44.4	20.7	0.00e+00	0	44	0	616562688	58	4044
2026-01-26 12:19:53.88	253.87	15.79	-43.5	-44.4	20.7	0.00e+00	0	43	0	619708416	58	4024
2026-01-26 12:19:54.89	254.07	15.84	-43.4	-44.3	20.8	0.00e+00	0	43	0	622854144	58	3973
2026-01-26 12:19:55.90	254.27	15.89	-43.4	-44.3	20.7	0.00e+00	0	44	0	625999872	58	4003
2026-01-26 12:19:56.91	254.47	15.94	-43.3	-44.3	20.8	0.00e+00	0	44	0	629145600	58	3969
2026-01-26 12:19:57.92	254.67	15.98	-43.4	-44.3	20.7	0.00e+00	0	44	0	632291328	58	3991
2026-01-26 12:19:58.91	254.86	16.03	-43.4	-44.3	20.8	0.00e+00	0	44	0	635437056	58	3979
2026-01-26 12:19:59.92	255.06	16.08	-43.4	-44.4	20.7	0.00e+00	0	44	0	638582784	58	4027
2026-01-26 12:20:00.93	255.27	16.12	-43.5	-44.5	20.6	0.00e+00	0	43	0	641728512	58	4068
2026-01-26 12:20:01.94	255.47	16.17	-43.6	-44.6	20.5	0.00e+00	0	44	0	644874240	58	4113
2026-01-26 12:20:02.94	255.67	16.22	-43.5	-44.5	20.6	0.00e+00	0	43	0	648019968	58	4065
2026-01-26 12:20:03.95	255.87	16.26	-43.4	-44.3	20.8	0.00e+00	0	43	0	651165696	58	3996
2026-01-26 12:20:04.96	256.08	16.31	-43.4	-44.3	20.7	0.00e+00	0	43	0	654311424	58	3989
2026-01-26 12:20:05.97	256.28	16.35	-43.4	-44.4	20.7	0.00e+00	0	43	0	657457152	58	4015
2026-01-26 12:20:06.98	256.49	16.40	-43.2	-44.1	21.0	0.00e+00	0	43	0	660602880	58	3880
2026-01-26 12:20:07.99	256.69	16.45	-42.9	-43.8	21.2	0.00e+00	0	43	0	663748608	57	3988
2026-01-26 12:20:09.00	256.90	16.49	-43.0	-43.9	21.1	0.00e+00	0	44	0	666894336	57	4009
2026-01-26 12:20:10.01	257.11	16.54	-43.0	-43.9	21.1	0.00e+00	0	44	0	670040064	57	4038
2026-01-26 12:20:11.01	257.31	16.58	-43.0	-43.9	21.1	0.00e+00	0	44	0	673185792	57	4034
2026-01-26 12:20:12.02	257.52	16.62	-43.1	-44.0	21.0	0.00e+00	0	43	0	676331520	57	4077
2026-01-26 12:20:13.03	257.73	16.67	-43.2	-44.1	20.9	0.00e+00	0	44	0	679477248	57	4119
2026-01-26 12:20:14.04	257.94	16.71	-43.2	-44.1	20.9	0.00e+00	0	43	0	682622976	57	4124
2026-01-26 12:20:15.04	258.15	16.75	-43.2	-44.2	20.9	0.00e+00	0	43	0	685768704	57	4153
2026-01-26 12:20:16.05	258.36	16.80	-43.3	-44.2	20.8	0.00e+00	0	44	0	688914432	57	4181
2026-01-26 12:20:17.06	258.57	16.84	-43.1	-44.0	21.0	0.00e+00	0	43	0	692060160	57	4089
2026-01-26 12:20:18.07	258.78	16.88	-43.2	-44.1	20.9	0.00e+00	0	43	0	695205888	57	4135
2026-01-26 12:20:19.07	258.99	16.92	-43.1	-44.1	21.0	0.00e+00	0	44	0	698351616	57	4101
2026-01-26 12:20:20.08	259.21	16.96	-43.0	-44.0	21.1	0.00e+00	0	43	0	701497344	57	4052
2026-01-26 12:20:21.09	259.42	17.01	-43.0	-43.8	21.1	0.00e+00	0	44	0	704643072	57	4002
2026-01-26 12:20:22.09	259.63	17.05	-42.9	-43.8	21.1	0.00e+00	0	44	0	707788800	57	4000
2026-01-26 12:20:23.10	259.85	17.09	-43.0	-43.9	21.0	0.00e+00	0	44	0	710934528	57	4046
2026-01-26 12:20:24.10	260.06	17.13	-43.0	-43.9	21.0	0.00e+00	0	43	0	714080256	57	4026
2026-01-26 12:20:25.11	260.28	17.17	-43.0	-43.9	21.0	0.00e+00	0	44	0	717225984	57	4036
2026-01-26 12:20:26.12	260.49	17.21	-43.0	-43.9	21.1	0.00e+00	0	44	0	720371712	57	4011
2026-01-26 12:20:27.13	260.71	17.25	-43.0	-43.9	21.1	0.00e+00	0	44	0	723517440	57	4047
2026-01-26 12:20:28.13	260.92	17.29	-42.9	-43.8	21.2	0.00e+00	0	44	0	726663168	57	3985
2026-01-26 12:20:29.14	261.14	17.33	-42.9	-43.8	21.2	0.00e+00	0	44	0	729808896	57	3972
2026-01-26 12:20:30.15	261.36	17.36	-43.0	-43.9	21.1	0.00e+00	0	43	0	732954624	57	4046
2026-01-26 12:20:31.16	261.58	17.40	-43.0	-43.9	21.1	0.00e+00	0	43	0	736100352	57	4049
2026-01-26 12:20:32.16	261.80	17.44	-42.9	-43.8	21.2	0.00e+00	0	44	0	739246080	57	4002
2026-01-26 12:20:33.17	262.02	17.48	-42.9	-43.8	21.2	0.00e+00	0	43	0	742391808	57	3979
2026-01-26 12:20:34.18	262.24	17.51	-42.8	-43.7	21.3	0.00e+00	0	43	0	745537536	57	3924
2026-01-26 12:20:35.18	262.46	17.55	-42.9	-43.8	21.2	0.00e+00	0	43	0	748683264	57	3966
2026-01-26 12:20:36.19	262.68	17.59	-42.8	-43.7	21.2	0.00e+00	0	43	0	751828992	57	3950
2026-01-26 12:20:37.20	262.90	17.62	-42.8	-43.6	21.3	0.00e+00	0	44	0	754974720	57	3905
2026-01-26 12:20:38.21	263.13	17.66	-42.8	-43.7	21.2	0.00e+00	0	44	0	758120448	57	3946
2026-01-26 12:20:39.22	263.35	17.69	-42.8	-43.7	21.3	0.00e+00	0	43	0	761266176	57	3926
2026-01-26 12:20:40.23	263.57	17.73	-42.8	-43.7	21.2	0.00e+00	0	43	0	764411904	57	3944
2026-01-26 12:20:41.24	263.80	17.76	-42.7	-43.6	21.3	0.00e+00	0	43	0	767557632	57	3903
2026-01-26 12:20:42.25	264.02	17.80	-42.7	-43.6	21.3	0.00e+00	0	44	0	770703360	57	3898
2026-01-26 12:20:43.25	264.24	17.83	-42.7	-43.6	21.4	0.00e+00	0	44	0	773849088	57	3885
2026-01-26 12:20:44.26	264.47	17.87	-42.7	-43.6	21.4	0.00e+00	0	44	0	776994816	57	3870
2026-01-26 12:20:45.27	264.70	17.90	-42.7	-43.5	21.4	0.00e+00	0	44	0	780140544	57	3864
2026-01-26 12:20:46.28	264.92	17.93	-42.6	-43.5	21.5	0.00e+00	0	44	0	783286272	57	3835
2026-01-26 12:20:47.29	265.15	17.96	-42.6	-43.5	21.5	0.00e+00	0	43	0	786432000	57	3846
2026-01-26 12:20:48.30	265.38	18.00	-42.7	-43.5	21.4	0.00e+00	0	43	0	789577728	57	3857
2026-01-26 12:20:49.31	265.61	18.03	-42.6	-43.5	21.5	0.00e+00	0	44	0	792723456	57	3833
2026-01-26 12:20:50.31	265.83	18.06	-42.6	-43.5	21.5	0.00e+00	0	43	0	795869184	57	3835
2026-01-26 12:20:51.32	266.06	18.09	-42.5	-43.4	21.6	0.00e+00	0	43	0	799014912	57	3794
2026-01-26 12:20:52.33	266.29	18.12	-42.4	-43.3	21.6	0.00e+00	0	44	0	802160640	56	3971
2026-01-26 12:20:53.34	266.52	18.15	-42.6	-43.4	21.5	0.00e+00	0	44	0	805306368	56	4041
2026-01-26 12:20:54.35	266.75	18.18	-42.5	-43.4	21.5	0.00e+00	0	43	0	808452096	56	4022
2026-01-26 12:20:55.36	266.98	18.21	-42.6	-43.4	21.5	0.00e+00	0	43	0	811597824	56	4044
2026-01-26 12:20:56.37	267.21	18.24	-42.5	-43.4	21.6	0.00e+00	0	43	0	814743552	56	4014
2026-01-26 12:20:57.37	267.44	18.26	-42.4	-43.2	21.7	0.00e+00	0	43	0	817889280	56	3952
2026-01-26 12:20:58.38	267.68	18.29	-42.4	-43.2	21.7	0.00e+00	0	43	0	821035008	56	3952
2026-01-26 12:20:59.39	267.91	18.32	-42.5	-43.3	21.7	0.00e+00	0	44	0	824180736	56	3979
2026-01-26 12:21:00.40	268.14	18.35	-42.4	-43.3	21.7	0.00e+00	0	43	0	827326464	56	3967
2026-01-26 12:21:01.41	268.37	18.37	-42.5	-43.4	21.6	0.00e+00	0	43	0	830472192	56	4022
2026-01-26 12:21:02.41	268.61	18.40	-42.4	-43.2	21.7	0.00e+00	0	44	0	833617920	56	3934
2026-01-26 12:21:03.42	268.84	18.43	-42.4	-43.3	21.7	0.00e+00	0	43	0	836763648	56	3960
2026-01-26 12:21:04.43	269.07	18.45	-42.5	-43.4	21.6	0.00e+00	0	44	0	839909376	56	4019
2026-01-26 12:21:05.44	269.31	18.48	-42.6	-43.5	21.4	0.00e+00	0	43	0	843055104	56	4073
2026-01-26 12:21:06.45	269.54	18.50	-42.5	-43.3	21.6	0.00e+00	0	44	0	846200832	56	3996
2026-01-26 12:21:07.46	269.78	18.52	-42.5	-43.3	21.7	0.00e+00	0	43	0	849346560	56	3981
2026-01-26 12:21:08.47	270.02	18.55	-42.5	-43.3	21.7	0.00e+00	0	43	0	852492288	56	3993
2026-01-26 12:21:09.47	270.25	18.57	-42.5	-43.4	21.6	0.00e+00	0	44	0	855638016	56	4008
2026-01-26 12:21:10.48	270.49	18.59	-42.4	-43.3	21.7	0.00e+00	0	43	0	858783744	56	3964
2026-01-26 12:21:11.49	270.72	18.62	-42.3	-43.1	21.8	0.00e+00	0	44	0	861929472	56	3907
2026-01-26 12:21:12.50	270.96	18.64	-42.4	-43.2	21.8	0.00e+00	0	44	0	865075200	56	3929
2026-01-26 12:21:13.50	271.20	18.66	-42.4	-43.2	21.7	0.00e+00	0	43	0	868220928	56	3945
2026-01-26 12:21:14.51	271.43	18.68	-42.4	-43.3	21.7	0.00e+00	0	44	0	871366656	56	3960
2026-01-26 12:21:15.51	271.67	18.70	-42.5	-43.3	21.7	0.00e+00	0	43	0	874512384	56	3981
2026-01-26 12:21:16.52	271.91	18.72	-42.6	-43.4	21.6	0.00e+00	0	43	0	877658112	56	4030
2026-01-26 12:21:17.53	272.15	18.74	-42.5	-43.4	21.6	0.00e+00	0	43	0	880803840	56	4020
2026-01-26 12:21:18.54	272.39	18.76	-42.4	-43.3	21.7	0.00e+00	0	43	0	883949568	56	3964
2026-01-26 12:21:19.54	272.62	18.78	-42.4	-43.2	21.7	0.00e+00	0	43	0	887095296	56	3948
2026-01-26 12:21:20.55	272.86	18.79	-42.4	-43.2	21.7	0.00e+00	0	43	0	890241024	56	3952
2026-01-26 12:21:21.55	273.10	18.81	-42.5	-43.4	21.6	0.00e+00	0	43	0	893386752	56	4012
2026-01-26 12:21:22.56	273.34	18.83	-42.6	-43.5	21.5	0.00e+00	0	44	0	896532480	56	4074
2026-01-26 12:21:23.57	273.58	18.84	-42.7	-43.5	21.4	0.00e+00	0	43	0	899678208	56	4086
2026-01-26 12:21:24.57	273.82	18.86	-42.7	-43.5	21.5	0.00e+00	0	43	0	902823936	56	4082
2026-01-26 12:21:25.58	274.06	18.88	-42.8	-43.7	21.4	0.00e+00	0	44	0	905969664	56	4159
2026-01-26 12:21:26.59	274.30	18.89	-42.8	-43.6	21.4	0.00e+00	0	44	0	909115392	56	4140
2026-01-26 12:21:27.60	274.54	18.91	-42.9	-43.8	21.3	0.00e+00	0	43	0	912261120	56	4204
2026-01-26 12:21:28.61	274.78	18.92	-42.8	-43.6	21.4	0.00e+00	0	44	0	915406848	56	4134
2026-01-26 12:21:29.61	275.02	18.93	-42.8	-43.6	21.4	0.00e+00	0	43	0	918552576	56	4145
2026-01-26 12:21:30.62	275.27	18.95	-42.8	-43.7	21.4	0.00e+00	0	44	0	921698304	56	4148
2026-01-26 12:21:31.63	275.51	18.96	-42.8	-43.7	21.3	0.00e+00	0	44	0	924844032	56	4175
2026-01-26 12:21:32.64	275.75	18.97	-43.0	-43.9	21.2	0.00e+00	0	44	0	927989760	56	4269
2026-01-26 12:21:33.64	275.99	18.98	-42.9	-43.8	21.3	0.00e+00	0	44	0	931135488	56	4235
2026-01-26 12:21:34.65	276.23	18.99	-42.9	-43.8	21.3	0.00e+00	0	44	0	934281216	56	4231
2026-01-26 12:21:35.66	276.48	19.00	-42.8	-43.7	21.4	0.00e+00	0	43	0	937426944	56	4181
2026-01-26 12:21:36.67	276.72	19.02	-42.8	-43.7	21.4	0.00e+00	0	44	0	940572672	56	4173
2026-01-26 12:21:37.67	276.96	19.02	-42.9	-43.7	21.3	0.00e+00	0	43	0	943718400	56	4184
2026-01-26 12:21:38.68	277.20	19.03	-42.7	-43.6	21.5	0.00e+00	0	44	0	946864128	56	4127
2026-01-26 12:21:39.69	277.45	19.04	-42.8	-43.6	21.4	0.00e+00	0	44	0	950009856	56	4144
2026-01-26 12:21:40.70	277.69	19.05	-42.8	-43.7	21.4	0.00e+00	0	43	0	953155584	56	4175
2026-01-26 12:21:41.71	277.93	19.06	-42.8	-43.7	21.4	0.00e+00	0	44	0	956301312	56	4166
2026-01-26 12:21:42.72	278.18	19.07	-42.8	-43.7	21.4	0.00e+00	0	44	0	959447040	56	4176
2026-01-26 12:21:43.73	278.42	19.07	-42.8	-43.7	21.4	0.00e+00	0	44	0	962592768	56	4149
2026-01-26 12:21:44.73	278.66	19.08	-42.8	-43.6	21.4	0.00e+00	0	44	0	965738496	56	4135
2026-01-26 12:21:45.74	278.91	19.08	-42.8	-43.7	21.4	0.00e+00	0	44	0	968884224	56	4168
2026-01-26 12:21:46.75	279.15	19.09	-43.0	-43.9	21.2	0.00e+00	0	44	0	972029952	56	4245
2026-01-26 12:21:47.76	279.40	19.09	-42.9	-43.8	21.3	0.00e+00	0	44	0	975175680	56	4225
2026-01-26 12:21:48.77	279.64	19.10	-42.9	-43.8	21.4	0.00e+00	0	44	0	978321408	56	4196
2026-01-26 12:21:49.78	279.89	19.10	-43.0	-43.9	21.3	0.00e+00	0	43	0	981467136	56	4243
2026-01-26 12:21:50.79	280.13	19.11	-42.8	-43.6	21.4	0.00e+00	0	43	0	984612864	56	4135
2026-01-26 12:21:51.80	280.37	19.11	-42.9	-43.7	21.4	0.00e+00	0	44	0	987758592	56	4183
2026-01-26 12:21:52.80	280.62	19.11	-42.8	-43.7	21.4	0.00e+00	0	43	0	990904320	56	4170
2026-01-26 12:21:53.80	280.86	19.11	-42.9	-43.8	21.4	0.00e+00	0	44	0	994050048	56	4202
2026-01-26 12:21:54.81	281.10	19.11	-43.0	-43.8	21.3	0.00e+00	0	43	0	997195776	56	4239
2026-01-26 12:21:55.82	281.35	19.11	-43.0	-43.9	21.3	0.00e+00	0	44	0	1000341504	56	4257
2026-01-26 12:21:56.83	281.59	19.11	-43.1	-44.0	21.2	0.00e+00	0	43	0	1003487232	56	4308
2026-01-26 12:21:57.83	281.83	19.11	-42.9	-43.8	21.4	0.00e+00	0	43	0	1006632960	56	4216
2026-01-26 12:21:58.84	282.08	19.11	-42.8	-43.7	21.5	0.00e+00	0	44	0	1009778688	56	4150
2026-01-26 12:21:59.85	282.32	19.11	-42.8	-43.7	21.5	0.00e+00	0	44	0	1012924416	56	4147
2026-01-26 12:22:00.85	282.57	19.11	-42.8	-43.6	21.5	0.00e+00	0	44	0	1016070144	56	4143
2026-01-26 12:22:01.86	282.81	19.11	-42.9	-43.7	21.4	0.00e+00	0	44	0	1019215872	56	4188
2026-01-26 12:22:02.87	283.05	19.10	-42.8	-43.7	21.5	0.00e+00	0	43	0	1022361600	56	4158
2026-01-26 12:22:03.88	283.30	19.10	-42.7	-43.6	21.6	0.00e+00	0	44	0	1025507328	56	4101
2026-01-26 12:22:04.88	283.54	19.10	-42.7	-43.6	21.6	0.00e+00	0	43	0	1028653056	56	4113
2026-01-26 12:22:05.89	283.79	19.09	-42.7	-43.6	21.5	0.00e+00	0	43	0	1031798784	56	4120
2026-01-26 12:22:06.90	284.03	19.09	-42.8	-43.7	21.4	0.00e+00	0	43	0	1034944512	56	4169
2026-01-26 12:22:07.91	284.27	19.08	-42.8	-43.6	21.5	0.00e+00	0	44	0	1038090240	56	4140
2026-01-26 12:22:08.92	284.52	19.08	-42.9	-43.8	21.4	0.00e+00	0	43	0	1041235968	56	4195
2026-01-26 12:22:09.92	284.76	19.07	-42.9	-43.8	21.3	0.00e+00	0	44	0	1044381696	56	4207
2026-01-26 12:22:10.93	285.00	19.06	-43.0	-43.9	21.2	0.00e+00	0	43	0	1047527424	56	4249
2026-01-26 12:22:11.94	285.25	19.06	-43.0	-43.9	21.3	0.00e+00	0	44	0	1050673152	56	4249
2026-01-26 12:22:12.94	285.49	19.05	-42.9	-43.8	21.3	0.00e+00	0	44	0	1053818880	56	4229
2026-01-26 12:22:13.95	285.73	19.04	-42.8	-43.7	21.4	0.00e+00	0	43	0	1056964608	56	4167
2026-01-26 12:22:14.95	285.97	19.03	-42.8	-43.7	21.4	0.00e+00	0	43	0	1060110336	56	4171
2026-01-26 12:22:15.96	286.21	19.02	-42.9	-43.8	21.3	0.00e+00	0	43	0	1063256064	56	4212
2026-01-26 12:22:16.97	286.46	19.01	-43.0	-43.9	21.2	0.00e+00	0	43	0	1066401792	56	4255
2026-01-26 12:22:17.97	286.70	19.00	-42.6	-43.9	21.2	0.00e+00	0	44	0	1069547520	56	4273
2026-01-26 12:22:18.98	286.94	18.99	-41.2	-43.8	21.0	0.00e+00	0	44	0	1072693248	54	4730
2026-01-26 12:22:19.99	287.18	18.98	-40.9	-43.6	21.0	0.00e+00	0	43	0	1075838976	53	4923
2026-01-26 12:22:20.99	287.42	18.97	-42.1	-43.6	21.2	0.00e+00	0	44	0	1078984704	54	4622
2026-01-26 12:22:22.00	287.67	18.95	-42.9	-43.7	21.3	0.00e+00	0	44	0	1082130432	56	4193
2026-01-26 12:22:23.01	287.91	18.94	-42.8	-43.7	21.4	0.00e+00	0	44	0	1085276160	56	4166
2026-01-26 12:22:24.02	288.15	18.93	-43.0	-43.8	21.4	0.00e+00	0	43	0	1088421888	56	4225
2026-01-26 12:22:25.03	288.39	18.91	-43.0	-43.9	21.3	0.00e+00	0	44	0	1091567616	56	4265
2026-01-26 12:22:26.04	288.63	18.90	-43.1	-44.0	21.2	0.00e+00	0	44	0	1094713344	56	4309
2026-01-26 12:22:27.05	288.87	18.88	-43.1	-44.0	21.2	0.00e+00	0	44	0	1097859072	56	4319
2026-01-26 12:22:28.06	289.11	18.87	-43.1	-44.0	21.3	0.00e+00	0	44	0	1101004800	56	4296
2026-01-26 12:22:29.07	289.35	18.85	-43.0	-43.9	21.4	0.00e+00	0	43	0	1104150528	56	4247
2026-01-26 12:22:30.07	289.59	18.84	-42.9	-43.8	21.5	0.00e+00	0	43	0	1107296256	56	4209
2026-01-26 12:22:31.09	289.83	18.82	-42.9	-43.8	21.4	0.00e+00	0	44	0	1110441984	56	4222
2026-01-26 12:22:32.09	290.07	18.80	-43.1	-43.9	21.3	0.00e+00	0	43	0	1113587712	56	4287
2026-01-26 12:22:33.10	290.31	18.79	-43.2	-44.1	21.2	0.00e+00	0	44	0	1116733440	56	4355
2026-01-26 12:22:34.11	290.55	18.77	-43.3	-44.2	21.1	0.00e+00	0	43	0	1119879168	57	4179
2026-01-26 12:22:35.11	290.79	18.75	-43.3	-44.2	21.1	0.00e+00	0	43	0	1123024896	57	4185
2026-01-26 12:22:36.12	291.03	18.73	-43.3	-44.2	21.1	0.00e+00	0	43	0	1126170624	57	4160
2026-01-26 12:22:37.13	291.26	18.71	-43.2	-44.1	21.2	0.00e+00	0	44	0	1129316352	57	4113
2026-01-26 12:22:38.14	291.50	18.69	-43.1	-44.0	21.2	0.00e+00	0	43	0	1132462080	57	4069
2026-01-26 12:22:39.14	291.74	18.67	-43.0	-43.9	21.3	0.00e+00	0	44	0	1135607808	57	4024
2026-01-26 12:22:40.15	291.97	18.65	-43.0	-43.9	21.3	0.00e+00	0	44	0	1139802112	57	4013
2026-01-26 12:22:41.16	292.21	18.63	-43.0	-43.8	21.4	0.00e+00	0	43	0	1142947840	57	4000
2026-01-26 12:22:42.17	292.45	18.61	-43.0	-43.8	21.4	0.00e+00	0	43	0	1145044992	57	4000
2026-01-26 12:22:43.18	292.68	18.58	-43.0	-43.8	21.4	0.00e+00	0	44	0	1148190720	57	3997
2026-01-26 12:22:44.19	292.92	18.56	-43.0	-43.8	21.4	0.00e+00	0	44	0	1151336448	57	4003
2026-01-26 12:22:45.20	293.16	18.54	-43.0	-43.9	21.4	0.00e+00	0	44	0	1154482176	57	4017
2026-01-26 12:22:46.21	293.39	18.51	-43.0	-43.8	21.3	0.00e+00	0	43	0	1157627904	57	4003
2026-01-26 12:22:47.21	293.62	18.49	-43.0	-43.9	21.3	0.00e+00	0	44	0	1160773632	57	4026
2026-01-26 12:22:48.23	293.86	18.46	-43.1	-44.0	21.2	0.00e+00	0	44	0	1163919360	57	4066
2026-01-26 12:22:49.23	294.09	18.44	-43.1	-44.0	21.2	0.00e+00	0	43	0	1167065088	57	4074
2026-01-26 12:22:50.25	294.33	18.41	-43.2	-44.1	21.2	0.00e+00	0	43	0	1171259392	57	4106
2026-01-26 12:22:51.25	294.56	18.39	-43.2	-44.0	21.2	0.00e+00	0	44	0	1174405120	57	4095
2026-01-26 12:22:52.25	294.79	18.36	-43.2	-44.0	21.2	0.00e+00	0	43	0	1177550848	57	4094
2026-01-26 12:22:53.26	295.02	18.34	-43.1	-44.0	21.3	0.00e+00	0	44	0	1180696576	57	4075
2026-01-26 12:22:54.27	295.26	18.31	-43.2	-44.1	21.2	0.00e+00	0	43	0	1183842304	57	4113
2026-01-26 12:22:55.28	295.49	18.28	-43.2	-44.1	21.2	0.00e+00	0	44	0	1186988032	57	4119
2026-01-26 12:22:56.29	295.72	18.25	-43.3	-44.2	21.1	0.00e+00	0	44	0	1190133760	57	4150
2026-01-26 12:22:57.29	295.95	18.22	-43.3	-44.2	21.1	0.00e+00	0	43	0	1192230912	57	4164
2026-01-26 12:22:58.30	296.18	18.20	-43.3	-44.2	21.1	0.00e+00	0	43	0	1195376640	57	4178
2026-01-26 12:22:59.31	296.41	18.17	-43.4	-44.2	21.0	0.00e+00	0	44	0	1198522368	57	4193
2026-01-26 12:23:00.32	296.64	18.14	-43.4	-44.3	20.9	0.00e+00	0	43	0	1201668096	57	4236
2026-01-26 12:23:01.33	296.87	18.11	-43.5	-44.4	20.9	0.00e+00	0	43	0	1204813824	57	4265
2026-01-26 12:23:02.33	297.09	18.08	-43.5	-44.4	20.8	0.00e+00	0	44	0	1207959552	57	4280
2026-01-26 12:23:03.34	297.32	18.05	-43.6	-44.5	20.8	0.00e+00	0	43	0	1211105280	57	4321
2026-01-26 12:23:04.35	297.55	18.02	-43.8	-44.7	20.6	0.00e+00	0	44	0	1215299584	58	4174
2026-01-26 12:23:05.36	297.78	17.98	-43.8	-44.8	20.5	0.00e+00	0	43	0	1218445312	58	4207
2026-01-26 12:23:06.37	298.01	17.95	-43.8	-44.7	20.6	0.00e+00	0	44	0	1221591040	58	4180
2026-01-26 12:23:07.38	298.23	17.92	-43.8	-44.8	20.5	0.00e+00	0	44	0	1224736768	58	4199
2026-01-26 12:23:08.39	298.46	17.89	-43.8	-44.7	20.6	0.00e+00	0	44	0	1227882496	58	4170
2026-01-26 12:23:09.40	298.68	17.85	-43.7	-44.7	20.6	0.00e+00	0	44	0	1231028224	58	4151
2026-01-26 12:23:10.41	298.91	17.82	-43.7	-44.7	20.6	0.00e+00	0	44	0	1234173952	58	4162
2026-01-26 12:23:11.41	299.13	17.79	-43.8	-44.7	20.6	0.00e+00	0	44	0	1237319680	58	4171
2026-01-26 12:23:12.42	299.35	17.75	-43.8	-44.8	20.5	0.00e+00	0	44	0	1239416832	58	4201
2026-01-26 12:23:13.43	299.58	17.72	-43.8	-44.7	20.5	0.00e+00	0	43	0	1242562560	58	4192
2026-01-26 12:23:14.44	299.80	17.68	-43.8	-44.7	20.6	0.00e+00	0	44	0	1245708288	58	4165
2026-01-26 12:23:15.45	300.02	17.65	-43.7	-44.7	20.6	0.00e+00	0	43	0	1249902592	58	4157
2026-01-26 12:23:16.45	300.24	17.61	-43.8	-44.7	20.6	0.00e+00	0	43	0	1253048320	58	4169
2026-01-26 12:23:17.46	300.47	17.57	-43.8	-44.8	20.5	0.00e+00	0	44	0	1256194048	58	4205
2026-01-26 12:23:18.47	300.69	17.54	-43.9	-44.8	20.4	0.00e+00	0	44	0	1259339776	58	4237
2026-01-26 12:23:19.48	300.91	17.50	-44.0	-45.0	20.3	0.00e+00	0	43	0	1262485504	58	4295
2026-01-26 12:23:20.49	301.13	17.46	-43.9	-44.9	20.4	0.00e+00	0	44	0	1265631232	58	4262
2026-01-26 12:23:21.50	301.35	17.43	-44.0	-45.0	20.3	0.00e+00	0	44	0	1268776960	58	4305
2026-01-26 12:23:22.51	301.56	17.39	-44.1	-45.0	20.2	0.00e+00	0	43	0	1271922688	58	4332
2026-01-26 12:23:23.52	301.78	17.35	-44.1	-45.1	20.2	0.00e+00	0	44	0	1275068416	58	4372
2026-01-26 12:23:24.53	302.00	17.31	-44.1	-45.1	20.1	0.00e+00	0	44	0	1278214144	58	4378
2026-01-26 12:23:25.53	302.22	17.27	-44.2	-45.2	20.1	0.00e+00	0	44	0	1281359872	58	4409
2026-01-26 12:23:26.54	302.43	17.23	-44.1	-45.1	20.1	0.00e+00	0	44	0	1284505600	58	4380
2026-01-26 12:23:27.55	302.65	17.20	-44.2	-45.3	20.0	0.00e+00	0	43	0	1287651328	59	4199
2026-01-26 12:23:28.55	302.86	17.16	-44.2	-45.3	20.0	0.00e+00	0	43	0	1290797056	59	4196
2026-01-26 12:23:29.56	303.08	17.12	-44.2	-45.2	20.0	0.00e+00	0	44	0	1293942784	59	4180
2026-01-26 12:23:30.57	303.29	17.07	-44.3	-45.3	20.0	0.00e+00	0	44	0	1297088512	59	4203
2026-01-26 12:23:31.57	303.50	17.03	-44.3	-45.3	19.9	0.00e+00	0	44	0	1300234240	59	4236
2026-01-26 12:23:32.58	303.72	16.99	-44.3	-45.4	19.9	0.00e+00	0	44	0	1303379968	59	4244
2026-01-26 12:23:33.59	303.93	16.95	-44.5	-45.5	19.7	0.00e+00	0	44	0	1306525696	59	4336
2026-01-26 12:23:34.60	304.14	16.91	-44.5	-45.6	19.7	0.00e+00	0	44	0	1309671424	59	4348
2026-01-26 12:23:35.60	304.35	16.87	-44.6	-45.7	19.6	0.00e+00	0	44	0	1312817152	59	4407
2026-01-26 12:23:36.61	304.56	16.83	-44.6	-45.6	19.6	0.00e+00	0	43	0	1315962880	59	4386
2026-01-26 12:23:37.62	304.77	16.78	-44.6	-45.6	19.6	0.00e+00	0	44	0	1319108608	59	4390
2026-01-26 12:23:38.63	304.98	16.74	-44.6	-45.7	19.6	0.00e+00	0	43	0	1322254336	59	4392
2026-01-26 12:23:39.64	305.19	16.70	-44.6	-45.7	19.6	0.00e+00	0	44	0	1325400064	59	4403
2026-01-26 12:23:40.65	305.40	16.65	-44.6	-45.7	19.6	0.00e+00	0	44	0	1328545792	59	4411
2026-01-26 12:23:41.65	305.61	16.61	-44.6	-45.7	19.6	0.00e+00	0	43	0	1331691520	59	4423
2026-01-26 12:23:42.65	305.81	16.57	-44.3	-45.4	19.6	0.00e+00	0	44	0	1334837248	60	4005
2026-01-26 12:23:43.67	306.02	16.52	-44.4	-45.4	19.6	0.00e+00	0	43	0	1337982976	60	4030
2026-01-26 12:23:44.68	306.23	16.48	-44.4	-45.5	19.5	0.00e+00	0	44	0	1341128704	60	4063
2026-01-26 12:23:45.68	306.43	16.43	-44.6	-45.6	19.3	0.00e+00	0	43	0	1344274432	60	4137
2026-01-26 12:23:46.69	306.64	16.39	-44.7	-45.8	19.2	0.00e+00	0	44	0	1347420160	60	4209
2026-01-26 12:23:47.70	306.84	16.34	-44.7	-45.8	19.1	0.00e+00	0	44	0	1350565888	60	4235
2026-01-26 12:23:48.71	307.05	16.30	-44.8	-45.9	19.1	0.00e+00	0	43	0	1353711616	60	4245
2026-01-26 12:23:49.71	307.25	16.25	-44.8	-45.9	19.1	0.00e+00	0	44	0	1356857344	60	4245
2026-01-26 12:23:50.73	307.45	16.21	-44.9	-46.0	19.0	0.00e+00	0	44	0	1360003072	60	4304
2026-01-26 12:23:51.73	307.65	16.16	-44.9	-46.0	18.9	0.00e+00	0	43	0	1363148800	60	4332
2026-01-26 12:23:52.74	307.85	16.11	-44.9	-46.0	19.0	0.00e+00	0	43	0	1366294528	60	4312
2026-01-26 12:23:53.75	308.05	16.07	-44.9	-46.0	19.0	0.00e+00	0	44	0	1369440256	60	4303
2026-01-26 12:23:54.76	308.25	16.02	-44.9	-46.0	18.9	0.00e+00	0	44	0	1372585984	60	4329
2026-01-26 12:23:55.77	308.45	15.97	-44.8	-45.9	19.0	0.00e+00	0	43	0	1375731712	60	4285
2026-01-26 12:23:56.78	308.65	15.92	-44.9	-46.0	19.0	0.00e+00	0	43	0	1378877440	60	4304
2026-01-26 12:23:57.79	308.85	15.88	-44.8	-46.0	18.9	0.00e+00	0	43	0	1382023168	60	4297
2026-01-26 12:23:58.79	309.05	15.83	-44.9	-46.1	18.9	0.00e+00	0	43	0	1385168896	60	4341
2026-01-26 12:23:59.79	309.24	15.78	-45.1	-46.2	18.7	0.00e+00	0	43	0	1388314624	60	4421
2026-01-26 12:24:00.80	309.44	15.73	-45.2	-46.4	18.5	0.00e+00	0	44	0	1391460352	61	4274
2026-01-26 12:24:01.81	309.64	15.68	-45.4	-46.7	18.3	0.00e+00	0	44	0	1394606080	61	4401
2026-01-26 12:24:02.81	309.83	15.64	-45.6	-46.8	18.1	0.00e+00	0	43	0	1397751808	61	4476
2026-01-26 12:24:03.82	310.02	15.59	-45.6	-46.8	18.1	0.00e+00	0	43	0	1400897536	61	4489
2026-01-26 12:24:04.83	310.22	15.54	-45.6	-46.8	18.1	0.00e+00	0	43	0	1404043264	61	4475
2026-01-26 12:24:05.84	310.41	15.49	-45.5	-46.8	18.1	0.00e+00	0	43	0	1407188992	61	4462
2026-01-26 12:24:06.84	310.60	15.44	-45.4	-46.7	18.2	0.00e+00	0	43	0	1410334720	61	4411
2026-01-26 12:24:07.85	310.79	15.39	-45.4	-46.6	18.3	0.00e+00	0	43	0	1413480448	61	4366
2026-01-26 12:24:08.86	310.99	15.34	-45.4	-46.6	18.3	0.00e+00	0	43	0	1416626176	61	4355
2026-01-26 12:24:09.86	311.18	15.29	-45.4	-46.6	18.3	0.00e+00	0	43	0	1419771904	61	4359
2026-01-26 12:24:10.87	311.37	15.24	-45.3	-46.5	18.4	0.00e+00	0	43	0	1422917632	61	4340
2026-01-26 12:24:11.88	311.56	15.19	-45.3	-46.5	18.4	0.00e+00	0	44	0	1426063360	61	4315
2026-01-26 12:24:12.89	311.75	15.14	-45.3	-46.6	18.4	0.00e+00	0	44	0	1429209088	61	4350
2026-01-26 12:24:13.89	311.93	15.09	-45.4	-46.6	18.3	0.00e+00	0	44	0	1432354816	61	4358
2026-01-26 12:24:14.90	312.12	15.04	-45.4	-46.6	18.3	0.00e+00	0	44	0	1435500544	61	4366
2026-01-26 12:24:15.91	312.31	14.99	-45.5	-46.7	18.2	0.00e+00	0	44	0	1438646272	61	4408
2026-01-26 12:24:16.92	312.49	14.93	-45.4	-46.7	18.2	0.00e+00	0	43	0	1441792000	61	4397
2026-01-26 12:24:17.92	312.68	14.88	-45.5	-46.7	18.2	0.00e+00	0	44	0	1444937728	61	4418
2026-01-26 12:24:18.93	312.86	14.83	-45.5	-46.8	18.1	0.00e+00	0	43	0	1448083456	61	4444
2026-01-26 12:24:19.94	313.05	14.78	-45.6	-46.8	18.0	0.00e+00	0	44	0	1451229184	61	4484
2026-01-26 12:24:20.95	313.23	14.73	-45.6	-46.9	18.0	0.00e+00	0	44	0	1454374912	61	4512
2026-01-26 12:24:21.96	313.42	14.67	-45.6	-46.9	18.0	0.00e+00	0	43	0	1457520640	61	4505
2026-01-26 12:24:22.97	313.60	14.62	-45.7	-47.0	17.9	0.00e+00	0	44	0	1460666368	61	4555
2026-01-26 12:24:23.98	313.78	14.57	-45.7	-46.9	17.9	0.00e+00	0	43	0	1463812096	61	4535
2026-01-26 12:24:24.99	313.96	14.52	-45.6	-46.9	17.9	0.00e+00	0	44	0	1466957824	61	4523
2026-01-26 12:24:26.00	314.14	14.46	-45.6	-46.9	18.0	0.00e+00	0	44	0	1470103552	61	4498
2026-01-26 12:24:27.01	314.32	14.41	-45.5	-46.8	18.0	0.00e+00	0	43	0	1473249280	61	4465
2026-01-26 12:24:28.02	314.50	14.36	-45.6	-46.8	18.0	0.00e+00	0	44	0	1476395008	61	4488
2026-01-26 12:24:29.03	314.68	14.30	-45.6	-46.9	17.9	0.00e+00	0	44	0	1479540736	61	4531
2026-01-26 12:24:30.04	314.86	14.25	-45.7	-46.9	17.9	0.00e+00	0	44	0	1482686464	61	4545
2026-01-26 12:24:31.05	315.04	14.20	-45.8	-47.1	17.7	0.00e+00	0	44	0	1485832192	62	4387
2026-01-26 12:24:32.05	315.21	14.14	-45.8	-47.2	17.7	0.00e+00	0	43	0	1488977920	62	4402
2026-01-26 12:24:33.06	315.39	14.09	-45.9	-47.2	17.6	0.00e+00	0	44	0	1492123648	62	4437
2026-01-26 12:24:34.07	315.57	14.04	-45.9	-47.2	17.7	0.00e+00	0	43	0	1495269376	62	4402
2026-01-26 12:24:35.08	315.74	13.98	-45.8	-47.1	17.7	0.00e+00	0	43	0	1498415104	62	4384
2026-01-26 12:24:36.09	315.92	13.93	-45.8	-47.1	17.8	0.00e+00	0	44	0	1501560832	62	4350
2026-01-26 12:24:37.10	316.09	13.87	-45.8	-47.2	17.7	0.00e+00	0	43	0	1504706560	62	4396
2026-01-26 12:24:38.11	316.26	13.82	-45.8	-47.1	17.7	0.00e+00	0	44	0	1507852288	62	4391
2026-01-26 12:24:39.12	316.44	13.76	-45.8	-47.1	17.7	0.00e+00	0	43	0	1510998016	62	4378
2026-01-26 12:24:40.13	316.61	13.71	-45.8	-47.1	17.7	0.00e+00	0	44	0	1514143744	62	4354
2026-01-26 12:24:41.13	316.78	13.65	-45.8	-47.1	17.7	0.00e+00	0	43	0	1517289472	62	4348
2026-01-26 12:24:42.14	316.95	13.60	-45.7	-47.0	17.8	0.00e+00	0	43	0	1520435200	62	4307
2026-01-26 12:24:43.15	317.12	13.54	-45.7	-47.0	17.8	0.00e+00	0	44	0	1523580928	62	4325
2026-01-26 12:24:44.16	317.29	13.49	-45.8	-47.1	17.7	0.00e+00	0	43	0	1526726656	62	4351
2026-01-26 12:24:45.17	317.46	13.43	-45.8	-47.1	17.7	0.00e+00	0	43	0	1529872384	62	4363
2026-01-26 12:24:46.18	317.63	13.38	-45.8	-47.2	17.7	0.00e+00	0	44	0	1533018112	62	4393
2026-01-26 12:24:47.19	317.80	13.32	-45.9	-47.2	17.6	0.00e+00	0	44	0	1536163840	62	4423
2026-01-26 12:24:48.19	317.96	13.27	-46.0	-47.3	17.5	0.00e+00	0	44	0	1539309568	62	4477
2026-01-26 12:24:49.20	318.13	13.21	-46.0	-47.3	17.5	0.00e+00	0	43	0	1542455296	62	4462
2026-01-26 12:24:50.20	318.29	13.16	-46.0	-47.3	17.5	0.00e+00	0	44	0	1545601024	62	4483
2026-01-26 12:24:51.21	318.46	13.10	-46.0	-47.3	17.5	0.00e+00	0	43	0	1548746752	62	4484
2026-01-26 12:24:52.21	318.62	13.05	-46.0	-47.4	17.5	0.00e+00	0	44	0	1551892480	62	4497
2026-01-26 12:24:53.22	318.79	12.99	-46.0	-47.4	17.5	0.00e+00	0	43	0	1555038208	62	4504
2026-01-26 12:24:54.23	318.95	12.93	-46.0	-47.4	17.5	0.00e+00	0	44	0	1558183936	62	4500
2026-01-26 12:24:55.24	319.11	12.88	-46.0	-47.3	17.5	0.00e+00	0	43	0	1561329664	62	4477
2026-01-26 12:24:56.25	319.28	12.82	-45.9	-47.3	17.5	0.00e+00	0	44	0	1564475392	62	4449
2026-01-26 12:24:57.25	319.44	12.77	-45.9	-47.3	17.6	0.00e+00	0	44	0	1567621120	62	4448
2026-01-26 12:24:58.26	319.60	12.71	-45.9	-47.2	17.6	0.00e+00	0	43	0	1570766848	62	4404
2026-01-26 12:24:59.26	319.76	12.65	-45.8	-47.2	17.6	0.00e+00	0	44	0	1573912576	62	4396
2026-01-26 12:25:00.27	319.92	12.60	-45.9	-47.2	17.6	0.00e+00	0	43	0	1577058304	62	4414
2026-01-26 12:25:01.28	320.08	12.54	-45.8	-47.1	17.7	0.00e+00	0	44	0	1580204032	62	4348
2026-01-26 12:25:02.29	320.24	12.48	-45.8	-47.1	17.6	0.00e+00	0	43	0	1583349760	62	4379
2026-01-26 12:25:03.29	320.39	12.43	-45.8	-47.1	17.6	0.00e+00	0	43	0	1586495488	62	4375
2026-01-26 12:25:04.30	320.55	12.37	-45.9	-47.2	17.5	0.00e+00	0	44	0	1589641216	62	4420
2026-01-26 12:25:05.31	320.71	12.31	-45.8	-47.2	17.6	0.00e+00	0	44	0	1592786944	62	4408
2026-01-26 12:25:06.32	320.87	12.26	-46.0	-47.3	17.5	0.00e+00	0	44	0	1595932672	62	4472
2026-01-26 12:25:07.33	321.02	12.20	-46.0	-47.3	17.4	0.00e+00	0	43	0	1599078400	62	4492
2026-01-26 12:25:08.33	321.18	12.14	-46.0	-47.4	17.4	0.00e+00	0	44	0	1602224128	62	4512
2026-01-26 12:25:09.34	321.33	12.09	-46.0	-47.4	17.3	0.00e+00	0	43	0	1605369856	62	4525
2026-01-26 12:25:10.35	321.48	12.03	-46.1	-47.5	17.3	0.00e+00	0	43	0	1608515584	62	4571
2026-01-26 12:25:11.36	321.64	11.97	-46.1	-47.6	17.2	0.00e+00	0	44	0	1611661312	62	4599
2026-01-26 12:25:12.37	321.79	11.92	-46.0	-47.3	17.4	0.00e+00	0	43	0	1614807040	62	4492
2026-01-26 12:25:13.37	321.94	11.86	-45.9	-47.2	17.5	0.00e+00	0	44	0	1617952768	62	4434
2026-01-26 12:25:14.38	322.09	11.80	-46.0	-47.4	17.3	0.00e+00	0	44	0	1621098496	62	4509
2026-01-26 12:25:15.39	322.25	11.74	-46.0	-47.4	17.3	0.00e+00	0	43	0	1624244224	62	4505
2026-01-26 12:25:16.39	322.40	11.69	-46.0	-47.4	17.3	0.00e+00	0	43	0	1627389952	62	4534
2026-01-26 12:25:17.40	322.55	11.63	-45.9	-47.3	17.4	0.00e+00	0	44	0	1630535680	62	4455
2026-01-26 12:25:18.41	322.70	11.57	-45.9	-47.3	17.4	0.00e+00	0	43	0	1633681408	62	4469
2026-01-26 12:25:19.42	322.84	11.51	-45.8	-47.2	17.5	0.00e+00	0	44	0	1636827136	62	4392
2026-01-26 12:25:20.43	322.99	11.46	-45.7	-47.0	17.7	0.00e+00	0	44	0	1639972864	62	4316
2026-01-26 12:25:21.44	323.14	11.40	-45.8	-47.1	17.6	0.00e+00	0	43	0	1643118592	62	4366
2026-01-26 12:25:22.45	323.29	11.34	-45.7	-47.0	17.7	0.00e+00	0	43	0	1646264320	62	4323
2026-01-26 12:25:23.46	323.44	11.28	-45.7	-46.9	17.7	0.00e+00	0	44	0	1649410048	62	4291
2026-01-26 12:25:24.47	323.58	11.23	-45.8	-47.2	17.5	0.00e+00	0	44	0	1652555776	62	4401
2026-01-26 12:25:25.48	323.73	11.17	-45.8	-47.1	17.5	0.00e+00	0	44	0	1655701504	62	4385
2026-01-26 12:25:26.49	323.87	11.11	-45.9	-47.3	17.3	0.00e+00	0	44	0	1658847232	62	4478
2026-01-26 12:25:27.50	324.02	11.05	-45.8	-47.2	17.5	0.00e+00	0	43	0	1661992960	62	4393
2026-01-26 12:25:28.51	324.16	11.00	-45.9	-47.2	17.4	0.00e+00	0	44	0	1665138688	62	4431
2026-01-26 12:25:29.52	324.31	10.94	-45.9	-47.3	17.3	0.00e+00	0	44	0	1668284416	62	4463
2026-01-26 12:25:30.53	324.45	10.88	-45.9	-47.3	17.3	0.00e+00	0	44	0	1671430144	62	4473
2026-01-26 12:25:31.53	324.59	10.82	-46.0	-47.4	17.2	0.00e+00	0	43	0	1674575872	62	4509
2026-01-26 12:25:32.54	324.73	10.77	-46.1	-47.5	17.2	0.00e+00	0	43	0	1677721600	62	4557
2026-01-26 12:25:33.55	324.87	10.71	-46.1	-47.5	17.2	0.00e+00	0	43	0	1680867328	62	4550
2026-01-26 12:25:34.56	325.01	10.65	-46.1	-47.5	17.1	0.00e+00	0	43	0	1684013056	62	4559
2026-01-26 12:25:35.56	325.15	10.59	-46.1	-47.6	17.0	0.00e+00	0	43	0	1687158784	62	4600
2026-01-26 12:25:36.57	325.29	10.53	-46.2	-47.7	17.0	0.00e+00	0	44	0	1690304512	63	4396
2026-01-26 12:25:37.57	325.43	10.48	-46.3	-47.8	16.9	0.00e+00	0	44	0	1693450240	63	4451
2026-01-26 12:25:38.58	325.57	10.42	-46.2	-47.6	17.0	0.00e+00	0	44	0	1696595968	63	4371
2026-01-26 12:25:39.58	325.71	10.36	-46.2	-47.7	16.9	0.00e+00	0	44	0	1699741696	63	4411
2026-01-26 12:25:40.59	325.84	10.30	-46.4	-47.9	16.8	0.00e+00	0	44	0	1702887424	63	4494
2026-01-26 12:25:41.60	325.98	10.25	-46.3	-47.7	16.9	0.00e+00	0	43	0	1706033152	63	4436
2026-01-26 12:25:42.61	326.12	10.19	-46.3	-47.8	16.8	0.00e+00	0	44	0	1709178880	63	4474
2026-01-26 12:25:43.61	326.25	10.13	-46.3	-47.8	16.8	0.00e+00	0	44	0	1712324608	63	4456
2026-01-26 12:25:44.63	326.39	10.07	-46.4	-47.9	16.7	0.00e+00	0	44	0	1715470336	63	4504
2026-01-26 12:25:45.63	326.52	10.02	-46.5	-48.0	16.6	0.00e+00	0	43	0	1718616064	63	4562
2026-01-26 12:25:46.64	326.66	9.96	-46.5	-48.0	16.6	0.00e+00	0	43	0	1721761792	63	4563
2026-01-26 12:25:47.65	326.79	9.90	-46.5	-48.1	16.5	0.00e+00	0	43	0	1724907520	63	4616
2026-01-26 12:25:48.65	326.93	9.84	-46.6	-48.1	16.5	0.00e+00	0	43	0	1728053248	63	4629
2026-01-26 12:25:49.66	327.06	9.78	-46.6	-48.2	16.4	0.00e+00	0	44	0	1731198976	63	4660
2026-01-26 12:25:50.67	327.19	9.73	-46.6	-48.1	16.4	0.00e+00	0	43	0	1734344704	63	4630
2026-01-26 12:25:51.67	327.32	9.67	-46.6	-48.1	16.4	0.00e+00	0	44	0	1737490432	63	4637
2026-01-26 12:25:52.68	327.45	9.61	-46.7	-48.3	16.2	0.00e+00	0	44	0	1740636160	64	4459
2026-01-26 12:25:53.69	327.59	9.55	-46.7	-48.3	16.2	0.00e+00	0	43	0	1743781888	64	4457
2026-01-26 12:25:54.70	327.72	9.49	-46.7	-48.4	16.1	0.00e+00	0	44	0	1746927616	64	4495
2026-01-26 12:25:55.71	327.85	9.44	-46.8	-48.5	15.9	0.00e+00	0	43	0	1750073344	64	4588
2026-01-26 12:25:56.71	327.97	9.38	-46.9	-48.6	15.9	0.00e+00	0	44	0	1753219072	64	4620
2026-01-26 12:25:57.72	328.10	9.32	-46.8	-48.5	15.9	0.00e+00	0	43	0	1756364800	64	4568
2026-01-26 12:25:58.73	328.23	9.26	-46.8	-48.5	16.0	0.00e+00	0	43	0	1759510528	64	4546
2026-01-26 12:25:59.73	328.36	9.21	-46.7	-48.3	16.1	0.00e+00	0	44	0	1762656256	64	4482
2026-01-26 12:26:00.74	328.49	9.15	-46.8	-48.4	16.1	0.00e+00	0	44	0	1765801984	64	4524
2026-01-26 12:26:01.75	328.61	9.09	-46.7	-48.3	16.1	0.00e+00	0	44	0	1768947712	64	4466
2026-01-26 12:26:02.76	328.74	9.03	-46.8	-48.4	16.0	0.00e+00	0	43	0	1772093440	64	4517
2026-01-26 12:26:03.77	328.87	8.98	-46.7	-48.4	16.0	0.00e+00	0	44	0	1775239168	64	4519
2026-01-26 12:26:04.78	328.99	8.92	-46.7	-48.3	16.1	0.00e+00	0	44	0	1778384896	64	4477
2026-01-26 12:26:05.79	329.12	8.86	-46.7	-48.3	16.1	0.00e+00	0	44	0	1781530624	64	4467
2026-01-26 12:26:06.80	329.24	8.80	-46.6	-48.2	16.2	0.00e+00	0	44	0	1784676352	64	4438
2026-01-26 12:26:07.80	329.37	8.75	-46.6	-48.2	16.2	0.00e+00	0	44	0	1787822080	64	4415
2026-01-26 12:26:08.81	329.49	8.69	-46.7	-48.4	16.0	0.00e+00	0	44	0	1790967808	64	4499
2026-01-26 12:26:09.82	329.61	8.63	-46.6	-48.3	16.1	0.00e+00	0	43	0	1794113536	64	4453
2026-01-26 12:26:10.83	329.74	8.57	-46.7	-48.3	16.1	0.00e+00	0	43	0	1797259264	64	4492
2026-01-26 12:26:11.84	329.86	8.51	-46.8	-48.4	15.9	0.00e+00	0	43	0	1800404992	64	4545
2026-01-26 12:26:12.84	329.98	8.46	-46.8	-48.5	15.9	0.00e+00	0	44	0	1803550720	64	4550
2026-01-26 12:26:13.85	330.10	8.40	-46.8	-48.5	16.0	0.00e+00	0	44	0	1806696448	64	4548
2026-01-26 12:26:14.86	330.22	8.34	-46.8	-48.5	15.9	0.00e+00	0	44	0	1809842176	64	4559
2026-01-26 12:26:15.87	330.34	8.28	-46.8	-48.5	15.9	0.00e+00	0	44	0	1812987904	64	4551
2026-01-26 12:26:16.88	330.46	8.23	-46.8	-48.5	15.9	0.00e+00	0	44	0	1816133632	64	4558
2026-01-26 12:26:17.89	330.58	8.17	-46.8	-48.5	15.9	0.00e+00	0	44	0	1819279360	64	4569
2026-01-26 12:26:18.89	330.70	8.11	-46.9	-48.6	15.8	0.00e+00	0	43	0	1822425088	64	4616
2026-01-26 12:26:19.90	330.82	8.06	-47.0	-48.8	15.6	0.00e+00	0	44	0	1825570816	64	4734
2026-01-26 12:26:20.91	330.94	8.00	-46.9	-48.7	15.7	0.00e+00	0	44	0	1828716544	64	4665
2026-01-26 12:26:21.92	331.06	7.94	-47.1	-48.9	15.4	0.00e+00	0	44	0	1831862272	64	4795
2026-01-26 12:26:22.93	331.17	7.88	-46.9	-48.6	15.7	0.00e+00	0	44	0	1835008000	64	4635
2026-01-26 12:26:23.93	331.29	7.83	-47.0	-48.7	15.6	0.00e+00	0	44	0	1838153728	64	4675
2026-01-26 12:26:24.94	331.41	7.77	-47.0	-48.7	15.6	0.00e+00	0	44	0	1841299456	64	4678
2026-01-26 12:26:25.95	331.52	7.71	-46.9	-48.7	15.6	0.00e+00	0	44	0	1844445184	64	4664
2026-01-26 12:26:26.96	331.64	7.66	-46.9	-48.7	15.6	0.00e+00	0	43	0	1847590912	64	4675
2026-01-26 12:26:27.97	331.75	7.60	-47.1	-48.8	15.5	0.00e+00	0	44	0	1850736640	64	4755
2026-01-26 12:26:28.98	331.87	7.54	-47.0	-48.8	15.5	0.00e+00	0	43	0	1853882368	64	4740
2026-01-26 12:26:29.99	331.98	7.48	-47.0	-48.7	15.5	7.00e-07	0	44	0	1857028096	64	4693
2026-01-26 12:26:31.00	332.10	7.43	-47.1	-48.9	15.4	0.00e+00	0	44	0	1860173824	64	4769
2026-01-26 12:26:32.00	332.21	7.37	-46.9	-48.7	15.6	0.00e+00	0	44	0	1863319552	64	4676
2026-01-26 12:26:33.01	332.32	7.31	-46.9	-48.7	15.6	0.00e+00	0	43	0	1866465280	64	4668
2026-01-26 12:26:34.02	332.44	7.26	-47.0	-48.7	15.5	0.00e+00	0	43	0	1869611008	64	4688
2026-01-26 12:26:35.03	332.55	7.20	-47.0	-48.8	15.5	0.00e+00	0	44	0	1872756736	64	4711
2026-01-26 12:26:36.04	332.66	7.14	-47.0	-48.8	15.4	0.00e+00	0	43	0	1875902464	64	4713
2026-01-26 12:26:37.05	332.77	7.09	-47.1	-49.0	15.3	0.00e+00	0	43	0	1880096768	64	4820
2026-01-26 12:26:38.05	332.88	7.03	-47.0	-48.8	15.4	0.00e+00	0	44	0	1883242496	64	4759
2026-01-26 12:26:39.06	332.99	6.97	-47.2	-49.0	15.2	0.00e+00	0	44	0	1885339648	64	4866
2026-01-26 12:26:40.07	333.10	6.92	-47.1	-49.0	15.3	0.00e+00	0	44	0	1888485376	64	4822
2026-01-26 12:26:41.07	333.21	6.86	-47.1	-48.9	15.3	0.00e+00	0	44	0	1891631104	64	4803
2026-01-26 12:26:42.09	333.32	6.80	-47.1	-48.9	15.3	0.00e+00	0	44	0	1894776832	64	4789
2026-01-26 12:26:43.09	333.43	6.75	-46.9	-48.7	15.5	0.00e+00	0	44	0	1897922560	64	4672
2026-01-26 12:26:44.10	333.54	6.69	-47.0	-48.8	15.4	0.00e+00	0	44	0	1901068288	64	4734
2026-01-26 12:26:45.11	333.65	6.63	-47.1	-48.9	15.3	0.00e+00	0	44	0	1904214016	64	4795
2026-01-26 12:26:46.12	333.75	6.58	-47.1	-48.9	15.3	0.00e+00	0	44	0	1907359744	64	4796
2026-01-26 12:26:47.12	333.86	6.52	-47.3	-49.2	15.0	7.00e-07	0	44	0	1910505472	65	4688
2026-01-26 12:26:48.13	333.97	6.46	-47.4	-49.3	14.8	0.00e+00	0	43	0	1913651200	65	4754
2026-01-26 12:26:49.14	334.07	6.41	-47.2	-49.1	15.0	0.00e+00	0	43	0	1916796928	65	4649
2026-01-26 12:26:50.15	334.18	6.35	-47.2	-49.1	15.1	0.00e+00	0	43	0	1920991232	65	4606
2026-01-26 12:26:51.16	334.29	6.30	-47.2	-49.1	15.0	0.00e+00	0	44	0	1924136960	65	4646
2026-01-26 12:26:52.17	334.39	6.24	-47.3	-49.3	14.9	7.00e-07	0	44	0	1927282688	65	4726
2026-01-26 12:26:53.18	334.50	6.18	-47.3	-49.3	14.8	0.00e+00	0	44	0	1930428416	65	4732
2026-01-26 12:26:54.18	334.60	6.13	-47.3	-49.2	14.9	0.00e+00	0	44	0	1933574144	65	4665
2026-01-26 12:26:55.19	334.71	6.07	-47.4	-49.4	14.7	0.00e+00	0	44	0	1935671296	65	4802
2026-01-26 12:26:56.20	334.81	6.02	-47.4	-49.4	14.7	0.00e+00	0	43	0	1938817024	65	4787
2026-01-26 12:26:57.21	334.91	5.96	-47.4	-49.4	14.6	1.50e-06	0	43	0	1941962752	65	4810
2026-01-26 12:26:58.21	335.02	5.90	-47.5	-49.6	14.5	0.00e+00	0	43	0	1945108480	65	4901
2026-01-26 12:26:59.23	335.12	5.85	-47.3	-49.3	14.7	0.00e+00	0	44	0	1948254208	65	4750
2026-01-26 12:27:00.23	335.22	5.79	-47.4	-49.4	14.7	0.00e+00	0	44	0	1951399936	65	4764
2026-01-26 12:27:01.25	335.32	5.74	-47.4	-49.4	14.6	7.00e-07	0	44	0	1955594240	65	4806
2026-01-26 12:27:02.25	335.42	5.68	-47.5	-49.5	14.5	0.00e+00	0	44	0	1958739968	65	4840
2026-01-26 12:27:03.26	335.53	5.62	-47.2	-49.1	14.9	7.00e-07	0	44	0	1961885696	65	4621
2026-01-26 12:27:04.27	335.63	5.57	-47.4	-49.4	14.7	1.50e-06	0	44	0	1965031424	65	4769
2026-01-26 12:27:05.28	335.73	5.51	-47.4	-49.4	14.6	7.00e-07	0	44	0	1968177152	65	4793
2026-01-26 12:27:06.29	335.83	5.46	-47.3	-49.3	14.8	7.00e-07	0	44	0	1971322880	65	4719
2026-01-26 12:27:07.30	335.93	5.40	-47.2	-49.1	14.9	1.50e-06	0	44	0	1974468608	65	4646
2026-01-26 12:27:08.31	336.03	5.35	-47.3	-49.2	14.7	7.00e-07	0	44	0	1977614336	65	4698
2026-01-26 12:27:09.31	336.13	5.29	-47.3	-49.3	14.7	7.00e-07	0	43	0	1980760064	65	4734
2026-01-26 12:27:10.32	336.22	5.24	-47.3	-49.2	14.8	7.00e-07	0	44	0	1982857216	65	4697
2026-01-26 12:27:11.33	336.32	5.18	-47.2	-49.1	14.8	0.00e+00	0	44	0	1986002944	65	4648
2026-01-26 12:27:12.33	336.42	5.13	-47.3	-49.3	14.7	0.00e+00	0	44	0	1989148672	65	4729
2026-01-26 12:27:13.34	336.52	5.07	-47.4	-49.4	14.5	7.00e-07	0	44	0	1992294400	65	4794
2026-01-26 12:27:14.35	336.62	5.02	-49.9	-53.7	10.6	1.50e-06	0	44	0	1996488704	70	5893
2026-01-26 12:27:15.36	336.71	4.96	-52.7	-65.5	3.8	1.49e+00	0	44	104	1996488704	75	17151
