passes_logs/2026/01/26/R3.2S_Murmansk/R3.2S_Murmansk__20260126_012600_NOAA_20_JPSS-1_rec.log

#Pass ID: 20260126_012600_NOAA 20 (JPSS-1)
#Satellite: NOAA 20 (JPSS-1)
#Configuration: NOAA 20
#almurnet v.1.7.20251203
#Start time: 2026-01-26 01:26:00

#Version: 2.2.20231116
#Station: R3.2S_Murmansk
#Location: 33.079688 lon 68.888172 lat
#TLE: 1 43013U 17073A   26025.47986292  .00000161  00000+0  97249-4 0  9993
#TLE: 2 43013  98.7646 326.3091 0001052  24.2709 335.8516 14.19540188424225

#Time	Az	El	Level	Level2	SNR	BER	BlckErr	Temp	State	Recorded	gain1	gain2
2026-01-26 01:26:00.22	27.72	1.97	-53.7	-68.7	3.8	1.49e+00	0	42	0	0	79	19673
2026-01-26 01:26:01.22	27.70	2.03	-53.2	-68.2	3.8	1.49e+00	0	42	104	0	77	20870
2026-01-26 01:26:02.23	27.69	2.10	-52.9	-67.9	3.8	1.49e+00	0	42	104	0	77	20269
2026-01-26 01:26:03.23	27.67	2.16	-52.6	-67.6	3.8	1.49e+00	0	42	104	0	77	19540
2026-01-26 01:26:04.24	27.66	2.22	-52.2	-67.1	3.8	1.49e+00	0	42	104	0	76	19453
2026-01-26 01:26:05.25	27.64	2.29	-52.1	-66.9	3.8	1.49e+00	0	42	104	0	76	19152
2026-01-26 01:26:06.25	27.63	2.35	-52.1	-66.9	3.8	1.49e+00	0	42	104	0	76	19060
2026-01-26 01:26:07.26	27.61	2.42	-52.1	-66.9	3.8	1.49e+00	0	42	104	0	76	19006
2026-01-26 01:26:08.27	27.59	2.48	-52.1	-66.8	3.8	1.49e+00	0	42	104	0	76	18807
2026-01-26 01:26:09.28	27.58	2.55	-52.0	-66.8	3.8	1.49e+00	0	42	104	0	76	18737
2026-01-26 01:26:10.29	27.56	2.61	-52.0	-66.8	3.8	1.49e+00	0	42	104	0	76	18791
2026-01-26 01:26:11.30	27.55	2.68	-52.0	-66.7	3.8	1.49e+00	0	42	104	0	76	18573
2026-01-26 01:26:12.31	27.53	2.74	-52.0	-66.6	3.8	1.49e+00	0	42	104	0	76	18378
2026-01-26 01:26:13.32	27.51	2.81	-52.0	-66.4	3.8	1.49e+00	0	42	104	0	76	18095
2026-01-26 01:26:14.33	27.50	2.88	-52.0	-66.5	3.8	1.49e+00	0	42	104	0	76	18259
2026-01-26 01:26:15.33	27.48	2.94	-52.0	-66.6	3.8	1.49e+00	0	42	104	0	76	18385
2026-01-26 01:26:16.34	27.46	3.01	-52.0	-66.7	3.8	1.49e+00	0	42	104	0	76	18635
2026-01-26 01:26:17.35	27.45	3.07	-52.0	-66.8	3.8	1.49e+00	0	42	104	0	76	18895
2026-01-26 01:26:18.35	27.43	3.14	-52.0	-66.9	3.8	1.49e+00	0	42	104	0	76	19131
2026-01-26 01:26:19.36	27.41	3.21	-52.0	-67.0	3.8	1.49e+00	0	42	104	0	76	19173
2026-01-26 01:26:20.37	27.40	3.27	-52.0	-66.8	3.8	1.49e+00	0	42	104	0	76	18798
2026-01-26 01:26:21.38	27.38	3.34	-52.0	-66.4	3.8	1.49e+00	0	42	104	0	76	17975
2026-01-26 01:26:22.38	27.36	3.41	-52.0	-66.1	3.8	1.49e+00	0	42	104	0	76	17480
2026-01-26 01:26:23.39	27.35	3.47	-52.0	-65.6	3.8	1.49e+00	0	42	104	0	76	16470
2026-01-26 01:26:24.40	27.33	3.54	-51.9	-65.0	3.8	1.49e+00	0	43	104	0	75	16159
2026-01-26 01:26:25.41	27.31	3.61	-51.9	-65.0	3.8	1.49e+00	0	43	104	0	75	16312
2026-01-26 01:26:26.42	27.29	3.68	-51.9	-64.6	3.9	1.48e+00	0	43	104	0	75	15510
2026-01-26 01:26:27.43	27.28	3.75	-51.8	-63.7	3.9	1.46e+00	0	43	104	0	75	13980
2026-01-26 01:26:28.43	27.26	3.81	-51.8	-63.2	4.3	1.37e+00	0	43	0	0	75	13219
2026-01-26 01:26:29.44	27.24	3.88	-51.7	-61.8	4.8	1.15e+00	0	43	0	1048576	75	11204
2026-01-26 01:26:30.45	27.22	3.95	-51.5	-60.3	5.7	6.08e-01	0	43	0	2097152	75	9396
2026-01-26 01:26:31.45	27.20	4.02	-51.4	-59.5	6.3	2.89e-01	0	43	0	4194304	74	9090
2026-01-26 01:26:32.46	27.19	4.09	-51.0	-57.6	8.1	1.01e-01	0	43	0	6291456	74	7295
2026-01-26 01:26:33.47	27.17	4.16	-50.7	-56.6	9.1	3.56e-02	0	43	0	8388608	73	6880
2026-01-26 01:26:34.48	27.15	4.23	-50.3	-55.3	10.4	1.42e-02	0	43	0	10485760	72	6316
2026-01-26 01:26:35.49	27.13	4.29	-49.8	-54.0	11.8	1.02e-03	0	43	0	11534336	71	5777
2026-01-26 01:26:36.49	27.11	4.36	-49.5	-53.4	12.5	1.47e-04	0	43	0	13631488	71	5345
2026-01-26 01:26:37.50	27.09	4.43	-49.2	-52.8	13.2	6.79e-05	0	43	0	15728640	70	5289
2026-01-26 01:26:38.51	27.08	4.50	-48.9	-52.1	13.9	5.30e-06	0	43	0	17825792	69	5196
2026-01-26 01:26:39.52	27.06	4.57	-48.5	-51.5	14.5	3.80e-06	0	43	0	19922944	69	4824
2026-01-26 01:26:40.53	27.04	4.64	-48.4	-51.3	14.7	0.00e+00	0	43	0	22020096	68	5021
2026-01-26 01:26:41.54	27.02	4.71	-48.6	-51.7	14.3	1.50e-06	0	43	0	23068672	68	5237
2026-01-26 01:26:42.54	27.00	4.78	-48.5	-51.5	14.5	7.00e-07	0	43	0	25165824	68	5108
2026-01-26 01:26:43.55	26.98	4.85	-48.8	-52.0	13.9	2.20e-06	0	43	0	27262976	68	5431
2026-01-26 01:26:44.56	26.96	4.93	-48.6	-51.5	14.4	3.00e-06	0	43	0	29360128	68	5159
2026-01-26 01:26:45.57	26.94	5.00	-49.3	-52.8	13.1	9.10e-06	0	43	0	30408704	69	5638
2026-01-26 01:26:46.58	26.92	5.07	-49.1	-52.5	13.6	2.28e-05	0	43	0	32505856	69	5424
2026-01-26 01:26:47.58	26.90	5.14	-49.4	-52.9	13.1	4.36e-04	0	43	0	34603008	70	5398
2026-01-26 01:26:48.59	26.88	5.21	-49.9	-54.2	12.0	0.00e+00	0	43	0	36700160	70	6267
2026-01-26 01:26:49.60	26.86	5.28	-48.6	-51.6	13.8	1.45e+00	0	43	104	36700160	69	4886
2026-01-26 01:26:50.60	26.84	5.35	-48.6	-51.6	14.7	0.00e+00	0	43	0	37748736	67	5478
2026-01-26 01:26:51.61	26.82	5.43	-48.7	-51.7	14.0	2.20e-01	0	43	0	39845888	69	4936
2026-01-26 01:26:52.62	26.80	5.50	-46.8	-48.7	17.3	0.00e+00	0	43	0	41943040	65	4421
2026-01-26 01:26:53.63	26.78	5.57	-46.9	-48.9	17.2	0.00e+00	0	43	0	44040192	65	4508
2026-01-26 01:26:54.64	26.76	5.64	-46.8	-48.8	17.3	0.00e+00	0	43	0	45088768	65	4476
2026-01-26 01:26:55.65	26.74	5.72	-46.8	-48.7	17.3	0.00e+00	0	43	0	47185920	65	4434
2026-01-26 01:26:56.66	26.72	5.79	-46.8	-48.7	17.3	0.00e+00	0	43	0	49283072	65	4434
2026-01-26 01:26:57.67	26.70	5.86	-46.9	-48.9	17.2	0.00e+00	0	43	0	51380224	65	4514
2026-01-26 01:26:58.67	26.68	5.94	-46.6	-48.5	17.6	0.00e+00	0	43	0	52428800	65	4340
2026-01-26 01:26:59.68	26.65	6.01	-46.6	-48.5	17.6	0.00e+00	0	43	0	54525952	65	4334
2026-01-26 01:27:00.69	26.63	6.09	-46.5	-48.4	17.8	0.00e+00	0	43	0	56623104	64	4511
2026-01-26 01:27:01.69	26.61	6.16	-46.5	-48.3	17.8	0.00e+00	0	43	0	58720256	64	4470
2026-01-26 01:27:02.69	26.59	6.23	-46.5	-48.3	17.8	0.00e+00	0	43	0	60817408	64	4492
2026-01-26 01:27:03.70	26.57	6.31	-46.5	-48.3	17.9	0.00e+00	0	43	0	61865984	64	4451
2026-01-26 01:27:04.71	26.55	6.38	-46.1	-47.8	18.3	0.00e+00	0	43	0	63963136	64	4239
2026-01-26 01:27:05.72	26.52	6.46	-46.1	-47.8	18.3	0.00e+00	0	43	0	66060288	64	4240
2026-01-26 01:27:06.72	26.50	6.53	-46.2	-47.9	18.2	0.00e+00	0	43	0	68157440	64	4278
2026-01-26 01:27:07.73	26.48	6.61	-46.4	-48.2	18.0	0.00e+00	0	43	0	70254592	64	4404
2026-01-26 01:27:08.74	26.46	6.68	-46.0	-47.7	18.6	0.00e+00	0	43	0	72351744	63	4403
2026-01-26 01:27:09.74	26.44	6.76	-46.4	-48.2	18.1	0.00e+00	0	43	0	73400320	63	4676
2026-01-26 01:27:10.75	26.41	6.83	-46.3	-48.1	18.3	0.00e+00	0	43	0	75497472	63	4599
2026-01-26 01:27:11.76	26.39	6.91	-46.3	-48.0	18.4	0.00e+00	0	43	0	77594624	63	4549
2026-01-26 01:27:12.77	26.37	6.99	-46.2	-47.8	18.5	0.00e+00	0	43	0	79691776	63	4480
2026-01-26 01:27:13.77	26.34	7.06	-46.4	-48.1	18.2	0.00e+00	0	43	0	80740352	63	4619
2026-01-26 01:27:14.78	26.32	7.14	-46.3	-48.0	18.4	0.00e+00	0	43	0	82837504	63	4557
2026-01-26 01:27:15.79	26.30	7.22	-46.2	-47.9	18.5	0.00e+00	0	43	0	84934656	63	4511
2026-01-26 01:27:16.80	26.27	7.30	-46.3	-48.0	18.4	0.00e+00	0	43	0	87031808	63	4551
2026-01-26 01:27:17.80	26.25	7.37	-46.1	-47.7	18.6	0.00e+00	0	43	0	89128960	63	4439
2026-01-26 01:27:18.81	26.23	7.45	-46.0	-47.6	18.8	0.00e+00	0	43	0	90177536	63	4357
2026-01-26 01:27:19.82	26.20	7.53	-46.0	-47.6	18.8	0.00e+00	0	43	0	92274688	63	4364
2026-01-26 01:27:20.83	26.18	7.61	-45.9	-47.5	18.9	0.00e+00	0	43	0	94371840	63	4331
2026-01-26 01:27:21.84	26.15	7.69	-45.9	-47.4	19.0	0.00e+00	0	43	0	96468992	63	4289
2026-01-26 01:27:22.85	26.13	7.77	-45.9	-47.4	19.0	0.00e+00	0	43	0	98566144	63	4279
2026-01-26 01:27:23.85	26.10	7.84	-45.9	-47.4	19.0	0.00e+00	0	43	0	100663296	63	4271
2026-01-26 01:27:24.86	26.08	7.92	-45.8	-47.3	19.1	0.00e+00	0	43	0	101711872	63	4234
2026-01-26 01:27:25.87	26.05	8.00	-45.8	-47.3	19.2	0.00e+00	0	43	0	103809024	63	4210
2026-01-26 01:27:26.88	26.03	8.08	-45.8	-47.3	19.1	0.00e+00	0	43	0	105906176	63	4235
2026-01-26 01:27:27.88	26.00	8.16	-45.8	-47.3	19.2	0.00e+00	0	43	0	108003328	63	4210
2026-01-26 01:27:28.89	25.98	8.24	-45.7	-47.2	19.2	0.00e+00	0	43	0	109051904	63	4181
2026-01-26 01:27:29.89	25.95	8.32	-45.8	-47.3	19.2	0.00e+00	0	43	0	111149056	63	4209
2026-01-26 01:27:30.90	25.93	8.40	-45.6	-47.1	19.5	0.00e+00	0	43	0	113246208	63	4103
2026-01-26 01:27:31.90	25.90	8.48	-45.6	-47.1	19.4	0.00e+00	0	43	0	115343360	63	4117
2026-01-26 01:27:32.91	25.87	8.57	-45.7	-47.3	19.2	0.00e+00	0	43	0	117440512	63	4197
2026-01-26 01:27:33.92	25.85	8.65	-45.4	-46.8	19.7	0.00e+00	0	43	0	118489088	62	4228
2026-01-26 01:27:34.93	25.82	8.73	-45.5	-47.0	19.5	0.00e+00	0	43	0	120586240	62	4300
2026-01-26 01:27:35.93	25.79	8.81	-45.5	-47.0	19.6	0.00e+00	0	43	0	122683392	62	4301
2026-01-26 01:27:36.94	25.77	8.89	-45.6	-47.0	19.5	0.00e+00	0	43	0	124780544	62	4335
2026-01-26 01:27:37.95	25.74	8.98	-45.5	-47.0	19.5	0.00e+00	0	43	0	126877696	62	4308
2026-01-26 01:27:38.95	25.71	9.06	-45.6	-47.1	19.5	0.00e+00	0	43	0	128974848	62	4362
2026-01-26 01:27:39.96	25.69	9.14	-45.4	-46.8	19.7	0.00e+00	0	43	0	130023424	62	4210
2026-01-26 01:27:40.97	25.66	9.22	-45.5	-46.9	19.6	0.00e+00	0	43	0	132120576	62	4273
2026-01-26 01:27:41.97	25.63	9.31	-45.5	-46.9	19.7	0.00e+00	0	43	0	134217728	62	4266
2026-01-26 01:27:42.98	25.60	9.39	-45.5	-46.9	19.6	0.00e+00	0	43	0	136314880	62	4268
2026-01-26 01:27:43.99	25.58	9.48	-45.4	-46.8	19.7	0.00e+00	0	43	0	137363456	62	4235
2026-01-26 01:27:44.99	25.55	9.56	-45.3	-46.7	19.9	0.00e+00	0	43	0	139460608	62	4159
2026-01-26 01:27:46.00	25.52	9.64	-45.3	-46.8	19.8	0.00e+00	0	43	0	141557760	62	4197
2026-01-26 01:27:47.00	25.49	9.73	-45.3	-46.6	19.9	0.00e+00	0	43	0	143654912	62	4144
2026-01-26 01:27:48.01	25.46	9.81	-45.3	-46.7	19.9	0.00e+00	0	43	0	145752064	62	4160
2026-01-26 01:27:49.01	25.43	9.90	-45.3	-46.7	19.9	0.00e+00	0	43	0	146800640	62	4169
2026-01-26 01:27:50.02	25.40	9.99	-45.4	-46.8	19.8	0.00e+00	0	43	0	148897792	62	4215
2026-01-26 01:27:51.03	25.37	10.07	-45.1	-46.5	20.0	0.00e+00	0	43	0	150994944	62	4080
2026-01-26 01:27:52.04	25.34	10.16	-45.1	-46.5	20.1	0.00e+00	0	43	0	153092096	62	4065
2026-01-26 01:27:53.04	25.31	10.24	-45.2	-46.5	20.1	0.00e+00	0	43	0	155189248	62	4095
2026-01-26 01:27:54.05	25.28	10.33	-45.1	-46.4	20.1	0.00e+00	0	43	0	157286400	62	4045
2026-01-26 01:27:55.05	25.25	10.42	-45.1	-46.5	20.1	0.00e+00	0	43	0	158334976	62	4060
2026-01-26 01:27:56.06	25.22	10.51	-45.1	-46.5	20.1	0.00e+00	0	43	0	160432128	62	4066
2026-01-26 01:27:57.07	25.19	10.59	-45.3	-46.6	20.0	0.00e+00	0	44	0	162529280	62	4128
2026-01-26 01:27:58.08	25.16	10.68	-45.3	-46.6	20.0	0.00e+00	0	43	0	164626432	62	4145
2026-01-26 01:27:59.09	25.13	10.77	-45.2	-46.6	20.1	0.00e+00	0	43	0	165675008	62	4109
2026-01-26 01:28:00.09	25.10	10.86	-45.1	-46.4	20.2	0.00e+00	0	43	0	167772160	62	4039
2026-01-26 01:28:01.09	25.07	10.95	-45.1	-46.4	20.2	0.00e+00	0	43	0	169869312	62	4025
2026-01-26 01:28:02.10	25.04	11.04	-45.1	-46.4	20.2	0.00e+00	0	43	0	171966464	61	4277
2026-01-26 01:28:03.10	25.01	11.13	-45.1	-46.4	20.2	0.00e+00	0	43	0	174063616	61	4285
2026-01-26 01:28:04.11	24.97	11.22	-45.0	-46.3	20.3	0.00e+00	0	43	0	175112192	61	4216
2026-01-26 01:28:05.12	24.94	11.31	-44.9	-46.2	20.5	0.00e+00	0	43	0	177209344	61	4146
2026-01-26 01:28:06.12	24.91	11.40	-44.9	-46.2	20.4	0.00e+00	0	43	0	179306496	61	4163
2026-01-26 01:28:07.13	24.88	11.49	-44.7	-46.0	20.6	0.00e+00	0	43	0	181403648	61	4080
2026-01-26 01:28:08.14	24.84	11.58	-44.8	-46.1	20.5	0.00e+00	0	43	0	183500800	61	4110
2026-01-26 01:28:09.15	24.81	11.67	-44.8	-46.1	20.5	0.00e+00	0	43	0	185597952	61	4141
2026-01-26 01:28:10.15	24.78	11.76	-44.8	-46.0	20.6	0.00e+00	0	43	0	186646528	61	4097
2026-01-26 01:28:11.16	24.74	11.86	-44.8	-46.1	20.6	0.00e+00	0	43	0	188743680	61	4100
2026-01-26 01:28:12.16	24.71	11.95	-44.7	-45.9	20.7	0.00e+00	0	43	0	190840832	61	4050
2026-01-26 01:28:13.17	24.67	12.04	-44.6	-45.9	20.8	0.00e+00	0	43	0	192937984	61	4010
2026-01-26 01:28:14.18	24.64	12.14	-44.7	-45.9	20.7	0.00e+00	0	43	0	193986560	61	4034
2026-01-26 01:28:15.18	24.60	12.23	-44.7	-46.0	20.7	0.00e+00	0	43	0	196083712	61	4063
2026-01-26 01:28:16.19	24.57	12.32	-44.6	-45.8	20.8	0.00e+00	0	43	0	198180864	61	3985
2026-01-26 01:28:17.20	24.53	12.42	-44.5	-45.8	20.9	0.00e+00	0	43	0	200278016	61	3969
2026-01-26 01:28:18.20	24.50	12.51	-44.6	-45.8	20.9	0.00e+00	0	43	0	202375168	61	3983
2026-01-26 01:28:19.21	24.46	12.61	-44.5	-45.8	20.9	0.00e+00	0	43	0	203423744	61	3973
2026-01-26 01:28:20.22	24.43	12.70	-44.5	-45.8	20.9	0.00e+00	0	43	0	205520896	61	3968
2026-01-26 01:28:21.22	24.39	12.80	-44.7	-46.0	20.7	0.00e+00	0	43	0	207618048	61	4065
2026-01-26 01:28:22.23	24.35	12.89	-44.6	-45.8	20.9	0.00e+00	0	43	0	209715200	61	3977
2026-01-26 01:28:23.24	24.32	12.99	-44.6	-45.8	20.8	0.00e+00	0	43	0	211812352	61	3999
2026-01-26 01:28:24.24	24.28	13.09	-44.5	-45.7	21.0	0.00e+00	0	44	0	213909504	60	4165
2026-01-26 01:28:25.25	24.24	13.19	-44.6	-45.8	20.9	0.00e+00	0	43	0	214958080	60	4222
2026-01-26 01:28:26.26	24.21	13.28	-44.6	-45.8	20.9	0.00e+00	0	44	0	217055232	60	4236
2026-01-26 01:28:27.26	24.17	13.38	-44.5	-45.7	21.0	0.00e+00	0	43	0	219152384	60	4185
2026-01-26 01:28:28.27	24.13	13.48	-44.3	-45.5	21.2	0.00e+00	0	43	0	221249536	60	4085
2026-01-26 01:28:29.28	24.09	13.58	-44.4	-45.6	21.2	0.00e+00	0	43	0	222298112	60	4108
2026-01-26 01:28:30.28	24.05	13.68	-44.4	-45.6	21.1	0.00e+00	0	43	0	224395264	60	4145
2026-01-26 01:28:31.29	24.01	13.78	-44.3	-45.5	21.2	0.00e+00	0	44	0	226492416	60	4055
2026-01-26 01:28:32.29	23.98	13.88	-44.4	-45.5	21.2	0.00e+00	0	43	0	228589568	60	4096
2026-01-26 01:28:33.30	23.94	13.98	-44.3	-45.5	21.2	0.00e+00	0	43	0	230686720	60	4088
2026-01-26 01:28:34.31	23.90	14.08	-44.3	-45.5	21.3	0.00e+00	0	44	0	231735296	60	4055
2026-01-26 01:28:35.31	23.86	14.18	-44.4	-45.6	21.1	0.00e+00	0	43	0	233832448	60	4118
2026-01-26 01:28:36.32	23.82	14.28	-44.3	-45.5	21.3	0.00e+00	0	43	0	235929600	60	4053
2026-01-26 01:28:37.32	23.77	14.38	-44.2	-45.4	21.4	0.00e+00	0	43	0	238026752	60	4016
2026-01-26 01:28:38.33	23.73	14.49	-44.3	-45.5	21.3	0.00e+00	0	43	0	240123904	60	4057
2026-01-26 01:28:39.33	23.69	14.59	-44.4	-45.6	21.2	0.00e+00	0	43	0	242221056	60	4099
2026-01-26 01:28:40.34	23.65	14.69	-44.3	-45.4	21.3	0.00e+00	0	43	0	243269632	60	4034
2026-01-26 01:28:41.35	23.61	14.79	-44.3	-45.5	21.3	0.00e+00	0	44	0	245366784	60	4069
2026-01-26 01:28:42.35	23.57	14.90	-44.4	-45.6	21.2	0.00e+00	0	43	0	247463936	60	4122
2026-01-26 01:28:43.36	23.52	15.00	-44.4	-45.6	21.2	0.00e+00	0	43	0	249561088	60	4116
2026-01-26 01:28:44.37	23.48	15.11	-44.3	-45.5	21.3	0.00e+00	0	43	0	250609664	60	4072
2026-01-26 01:28:45.37	23.44	15.21	-44.2	-45.4	21.4	0.00e+00	0	43	0	252706816	60	4018
2026-01-26 01:28:46.38	23.39	15.32	-44.3	-45.4	21.4	0.00e+00	0	43	0	254803968	60	4048
2026-01-26 01:28:47.39	23.35	15.43	-44.3	-45.5	21.3	0.00e+00	0	43	0	256901120	60	4065
2026-01-26 01:28:48.40	23.30	15.53	-44.2	-45.3	21.5	0.00e+00	0	43	0	258998272	60	4004
2026-01-26 01:28:49.40	23.26	15.64	-44.2	-45.4	21.4	0.00e+00	0	43	0	260046848	60	4017
2026-01-26 01:28:50.41	23.22	15.75	-44.2	-45.4	21.4	0.00e+00	0	44	0	262144000	60	4026
2026-01-26 01:28:51.42	23.17	15.86	-44.1	-45.3	21.5	0.00e+00	0	43	0	264241152	60	3983
2026-01-26 01:28:52.42	23.12	15.96	-44.2	-45.4	21.4	0.00e+00	0	43	0	266338304	60	4006
2026-01-26 01:28:53.43	23.08	16.07	-44.3	-45.4	21.4	0.00e+00	0	43	0	268435456	60	4038
2026-01-26 01:28:54.43	23.03	16.18	-44.2	-45.4	21.4	0.00e+00	0	43	0	270532608	60	4033
2026-01-26 01:28:55.44	22.98	16.29	-44.3	-45.4	21.4	0.00e+00	0	43	0	271581184	60	4040
2026-01-26 01:28:56.44	22.94	16.40	-44.2	-45.3	21.5	0.00e+00	0	43	0	273678336	60	3999
2026-01-26 01:28:57.45	22.89	16.51	-44.2	-45.3	21.5	0.00e+00	0	43	0	275775488	60	4003
2026-01-26 01:28:58.46	22.84	16.62	-44.2	-45.3	21.5	0.00e+00	0	43	0	277872640	60	3987
2026-01-26 01:28:59.47	22.79	16.74	-44.2	-45.3	21.5	0.00e+00	0	43	0	279969792	60	3990
2026-01-26 01:29:00.46	22.75	16.85	-44.1	-45.2	21.6	0.00e+00	0	44	0	281018368	60	3948
2026-01-26 01:29:01.47	22.70	16.96	-44.1	-45.2	21.6	0.00e+00	0	43	0	283115520	60	3945
2026-01-26 01:29:02.47	22.65	17.07	-44.2	-45.3	21.6	0.00e+00	0	43	0	285212672	60	3983
2026-01-26 01:29:03.48	22.60	17.19	-44.1	-45.2	21.6	0.00e+00	0	43	0	287309824	60	3951
2026-01-26 01:29:04.48	22.55	17.30	-44.1	-45.2	21.6	0.00e+00	0	43	0	288358400	60	3943
2026-01-26 01:29:05.48	22.50	17.42	-44.1	-45.3	21.6	0.00e+00	0	44	0	290455552	60	3965
2026-01-26 01:29:06.49	22.45	17.53	-44.1	-45.3	21.6	0.00e+00	0	43	0	292552704	60	3962
2026-01-26 01:29:07.50	22.39	17.65	-44.1	-45.3	21.6	0.00e+00	0	43	0	294649856	60	3969
2026-01-26 01:29:08.50	22.34	17.76	-44.0	-45.2	21.7	0.00e+00	0	43	0	296747008	60	3929
2026-01-26 01:29:09.51	22.29	17.88	-44.0	-45.1	21.7	0.00e+00	0	43	0	297795584	60	3912
2026-01-26 01:29:10.52	22.24	18.00	-44.0	-45.2	21.7	0.00e+00	0	43	0	299892736	60	3921
2026-01-26 01:29:11.52	22.18	18.12	-44.0	-45.1	21.8	0.00e+00	0	43	0	301989888	60	3902
2026-01-26 01:29:12.53	22.13	18.23	-44.0	-45.2	21.7	0.00e+00	0	43	0	304087040	60	3920
2026-01-26 01:29:13.54	22.07	18.35	-44.2	-45.3	21.6	0.00e+00	0	43	0	306184192	60	3981
2026-01-26 01:29:14.55	22.02	18.47	-44.1	-45.3	21.6	0.00e+00	0	43	0	308281344	60	3960
2026-01-26 01:29:15.54	21.97	18.59	-44.1	-45.2	21.7	0.00e+00	0	43	0	309329920	60	3930
2026-01-26 01:29:16.55	21.91	18.71	-44.1	-45.2	21.7	0.00e+00	0	43	0	311427072	60	3949
2026-01-26 01:29:17.56	21.85	18.84	-44.0	-45.1	21.8	0.00e+00	0	43	0	313524224	60	3905
2026-01-26 01:29:18.57	21.80	18.96	-44.0	-45.1	21.7	0.00e+00	0	43	0	315621376	60	3912
2026-01-26 01:29:19.57	21.74	19.08	-44.3	-45.5	21.8	0.00e+00	0	44	0	316669952	59	4301
2026-01-26 01:29:20.58	21.68	19.20	-44.3	-45.5	21.8	0.00e+00	0	43	0	318767104	59	4300
2026-01-26 01:29:21.58	21.62	19.33	-44.5	-45.7	21.6	0.00e+00	0	43	0	320864256	59	4393
2026-01-26 01:29:22.59	21.57	19.45	-44.5	-45.7	21.6	0.00e+00	0	43	0	322961408	59	4399
2026-01-26 01:29:23.59	21.51	19.57	-44.4	-45.6	21.7	0.00e+00	0	44	0	325058560	59	4355
2026-01-26 01:29:24.60	21.45	19.70	-44.4	-45.6	21.7	0.00e+00	0	43	0	326107136	59	4363
2026-01-26 01:29:25.61	21.39	19.83	-44.6	-45.7	21.5	0.00e+00	0	44	0	328204288	59	4425
2026-01-26 01:29:26.61	21.33	19.95	-44.5	-45.6	21.6	0.00e+00	0	43	0	330301440	59	4387
2026-01-26 01:29:27.62	21.26	20.08	-44.5	-45.7	21.6	0.00e+00	0	44	0	332398592	59	4392
2026-01-26 01:29:28.63	21.20	20.21	-44.4	-45.6	21.7	0.00e+00	0	43	0	334495744	59	4360
2026-01-26 01:29:29.63	21.14	20.34	-44.4	-45.6	21.5	0.00e+00	0	43	0	336592896	59	4356
2026-01-26 01:29:30.64	21.08	20.47	-44.5	-45.7	21.6	0.00e+00	0	44	0	337641472	59	4395
2026-01-26 01:29:31.64	21.02	20.59	-44.6	-45.7	21.6	0.00e+00	0	43	0	339738624	59	4435
2026-01-26 01:29:32.65	20.95	20.72	-44.4	-45.5	21.8	0.00e+00	0	43	0	341835776	59	4315
2026-01-26 01:29:33.66	20.89	20.86	-44.4	-45.6	21.7	0.00e+00	0	43	0	343932928	59	4350
2026-01-26 01:29:34.66	20.82	20.99	-44.4	-45.5	21.7	0.00e+00	0	44	0	344981504	59	4332
2026-01-26 01:29:35.66	20.76	21.12	-44.5	-45.6	21.7	0.00e+00	0	44	0	347078656	59	4373
2026-01-26 01:29:36.67	20.69	21.25	-44.4	-45.6	21.7	0.00e+00	0	44	0	349175808	59	4354
2026-01-26 01:29:37.69	20.62	21.39	-44.4	-45.6	21.7	0.00e+00	0	44	0	351272960	59	4359
2026-01-26 01:29:38.69	20.55	21.52	-44.5	-45.7	21.6	0.00e+00	0	43	0	353370112	59	4412
2026-01-26 01:29:39.70	20.49	21.66	-44.5	-45.6	21.7	0.00e+00	0	43	0	354418688	59	4380
2026-01-26 01:29:40.71	20.42	21.79	-44.3	-45.4	21.9	0.00e+00	0	43	0	356515840	59	4281
2026-01-26 01:29:41.71	20.35	21.93	-44.2	-45.3	22.0	0.00e+00	0	43	0	358612992	59	4203
2026-01-26 01:29:42.72	20.28	22.06	-44.2	-45.3	22.0	0.00e+00	0	44	0	360710144	59	4202
2026-01-26 01:29:43.73	20.21	22.20	-44.2	-45.3	21.9	0.00e+00	0	43	0	362807296	59	4241
2026-01-26 01:29:44.73	20.14	22.34	-44.2	-45.2	22.1	0.00e+00	0	43	0	364904448	59	4190
2026-01-26 01:29:45.74	20.06	22.48	-44.2	-45.4	22.0	0.00e+00	0	43	0	365953024	59	4246
2026-01-26 01:29:46.75	19.99	22.62	-44.2	-45.3	22.0	0.00e+00	0	43	0	368050176	59	4212
2026-01-26 01:29:47.75	19.92	22.76	-44.3	-45.4	21.9	0.00e+00	0	43	0	370147328	59	4267
2026-01-26 01:29:48.76	19.84	22.90	-44.4	-45.5	21.8	0.00e+00	0	44	0	372244480	59	4308
2026-01-26 01:29:49.77	19.77	23.04	-44.2	-45.3	22.0	0.00e+00	0	43	0	373293056	59	4233
2026-01-26 01:29:50.77	19.69	23.19	-44.3	-45.4	21.9	0.00e+00	0	44	0	375390208	59	4268
2026-01-26 01:29:51.78	19.62	23.33	-44.4	-45.5	21.8	0.00e+00	0	44	0	377487360	59	4336
2026-01-26 01:29:52.79	19.54	23.47	-44.4	-45.5	21.8	0.00e+00	0	43	0	379584512	59	4315
2026-01-26 01:29:53.80	19.46	23.62	-44.5	-45.7	21.7	0.00e+00	0	44	0	381681664	59	4406
2026-01-26 01:29:54.80	19.38	23.76	-44.6	-45.7	21.6	0.00e+00	0	44	0	382730240	59	4440
2026-01-26 01:29:55.80	19.30	23.91	-44.7	-45.8	21.5	0.00e+00	0	43	0	384827392	59	4491
2026-01-26 01:29:56.81	19.22	24.06	-44.5	-45.6	21.5	0.00e+00	0	44	0	386924544	60	4123
2026-01-26 01:29:57.82	19.14	24.21	-44.5	-45.7	21.4	0.00e+00	0	44	0	389021696	60	4147
2026-01-26 01:29:58.82	19.06	24.35	-44.5	-45.7	21.4	0.00e+00	0	43	0	391118848	60	4158
2026-01-26 01:29:59.83	18.98	24.50	-44.6	-45.8	21.3	0.00e+00	0	44	0	393216000	60	4196
2026-01-26 01:30:00.84	18.89	24.65	-44.7	-45.9	21.2	0.00e+00	0	43	0	394264576	60	4255
2026-01-26 01:30:01.85	18.81	24.81	-44.7	-45.9	21.2	0.00e+00	0	44	0	396361728	60	4262
2026-01-26 01:30:02.85	18.73	24.96	-44.7	-45.8	21.2	0.00e+00	0	44	0	398458880	60	4242
2026-01-26 01:30:03.86	18.64	25.11	-44.7	-45.9	21.2	0.00e+00	0	43	0	400556032	60	4283
2026-01-26 01:30:04.87	18.55	25.26	-44.9	-46.1	21.1	0.00e+00	0	43	0	401604608	60	4352
2026-01-26 01:30:05.88	18.46	25.42	-45.0	-46.2	20.9	0.00e+00	0	43	0	403701760	60	4437
2026-01-26 01:30:06.88	18.38	25.57	-45.0	-46.2	20.9	0.00e+00	0	43	0	405798912	60	4438
2026-01-26 01:30:07.89	18.29	25.73	-45.1	-46.3	20.8	0.00e+00	0	43	0	407896064	60	4473
2026-01-26 01:30:08.90	18.20	25.89	-45.1	-46.4	20.8	0.00e+00	0	43	0	409993216	60	4514
2026-01-26 01:30:09.91	18.10	26.04	-45.3	-46.6	20.6	0.00e+00	0	44	0	411041792	61	4347
2026-01-26 01:30:10.92	18.01	26.20	-45.3	-46.6	20.6	0.00e+00	0	44	0	413138944	61	4345
2026-01-26 01:30:11.92	17.92	26.36	-45.4	-46.7	20.5	0.00e+00	0	43	0	415236096	61	4432
2026-01-26 01:30:12.93	17.82	26.52	-45.5	-46.9	20.3	0.00e+00	0	43	0	417333248	61	4499
2026-01-26 01:30:13.94	17.73	26.68	-45.6	-47.0	20.2	0.00e+00	0	43	0	419430400	61	4557
2026-01-26 01:30:14.94	17.63	26.84	-45.7	-47.1	20.1	0.00e+00	0	44	0	421527552	62	4360
2026-01-26 01:30:15.95	17.54	27.01	-45.9	-47.3	19.9	0.00e+00	0	44	0	422576128	62	4451
2026-01-26 01:30:16.96	17.44	27.17	-46.1	-47.5	19.7	0.00e+00	0	43	0	424673280	62	4581
2026-01-26 01:30:17.96	17.34	27.34	-46.3	-47.8	19.5	0.00e+00	0	44	0	426770432	63	4445
2026-01-26 01:30:18.97	17.24	27.50	-46.4	-47.9	19.4	0.00e+00	0	43	0	428867584	63	4531
2026-01-26 01:30:19.98	17.14	27.67	-46.6	-48.2	19.1	0.00e+00	0	43	0	429916160	63	4670
2026-01-26 01:30:20.99	17.03	27.84	-46.7	-48.3	18.9	0.00e+00	0	43	0	432013312	64	4465
2026-01-26 01:30:22.00	16.93	28.00	-46.8	-48.4	18.8	0.00e+00	0	43	0	434110464	64	4509
2026-01-26 01:30:23.00	16.82	28.17	-46.7	-48.3	18.9	0.00e+00	0	43	0	436207616	64	4467
2026-01-26 01:30:24.02	16.72	28.35	-46.8	-48.4	18.8	0.00e+00	0	44	0	438304768	64	4520
2026-01-26 01:30:25.02	16.61	28.52	-47.0	-48.6	18.6	0.00e+00	0	43	0	439353344	64	4632
2026-01-26 01:30:26.03	16.50	28.69	-47.1	-48.7	18.4	0.00e+00	0	43	0	441450496	64	4701
2026-01-26 01:30:27.03	16.39	28.86	-46.9	-48.6	18.6	0.00e+00	0	44	0	443547648	64	4623
2026-01-26 01:30:28.04	16.28	29.03	-47.1	-48.7	18.5	0.00e+00	0	43	0	445644800	64	4699
2026-01-26 01:30:29.04	16.17	29.21	-47.0	-48.7	18.5	0.00e+00	0	43	0	447741952	64	4682
2026-01-26 01:30:30.05	16.06	29.38	-47.3	-49.0	18.2	0.00e+00	0	44	0	449839104	65	4580
2026-01-26 01:30:31.06	15.94	29.56	-47.4	-49.2	18.1	0.00e+00	0	43	0	450887680	65	4653
2026-01-26 01:30:32.07	15.82	29.74	-47.4	-49.2	18.0	0.00e+00	0	44	0	452984832	65	4704
2026-01-26 01:30:33.07	15.71	29.92	-47.5	-49.4	17.8	0.00e+00	0	43	0	455081984	65	4763
2026-01-26 01:30:34.08	15.59	30.10	-47.7	-49.5	17.7	0.00e+00	0	43	0	457179136	65	4868
2026-01-26 01:30:35.09	15.47	30.28	-47.6	-49.5	17.8	0.00e+00	0	43	0	458227712	65	4829
2026-01-26 01:30:36.09	15.35	30.46	-47.6	-49.4	17.9	0.00e+00	0	43	0	460324864	65	4803
2026-01-26 01:30:37.10	15.22	30.64	-47.4	-49.1	18.1	0.00e+00	0	44	0	462422016	65	4641
2026-01-26 01:30:38.10	15.10	30.82	-47.4	-49.2	18.1	0.00e+00	0	44	0	464519168	65	4682
2026-01-26 01:30:39.11	14.98	31.01	-47.5	-49.2	18.0	0.00e+00	0	43	0	466616320	65	4702
2026-01-26 01:30:40.11	14.85	31.19	-47.5	-49.3	18.0	0.00e+00	0	43	0	467664896	65	4739
2026-01-26 01:30:41.12	14.72	31.38	-47.6	-49.4	18.0	0.00e+00	0	43	0	469762048	65	4778
2026-01-26 01:30:42.13	14.59	31.57	-47.6	-49.5	17.9	0.00e+00	0	43	0	471859200	65	4822
2026-01-26 01:30:43.13	14.46	31.76	-47.9	-49.8	17.5	0.00e+00	0	43	0	473956352	66	4741
2026-01-26 01:30:44.13	14.33	31.95	-47.9	-49.9	17.4	0.00e+00	0	43	0	476053504	66	4777
2026-01-26 01:30:45.14	14.19	32.14	-47.9	-49.8	17.5	0.00e+00	0	44	0	478150656	66	4744
2026-01-26 01:30:46.14	14.05	32.33	-47.9	-49.8	17.6	0.00e+00	0	43	0	479199232	66	4720
2026-01-26 01:30:47.15	13.92	32.52	-47.8	-49.7	17.6	0.00e+00	0	43	0	481296384	66	4705
2026-01-26 01:30:48.16	13.77	32.72	-47.7	-49.5	17.8	0.00e+00	0	44	0	483393536	66	4597
2026-01-26 01:30:49.17	13.63	32.91	-47.7	-49.5	17.9	0.00e+00	0	43	0	485490688	66	4558
2026-01-26 01:30:50.17	13.49	33.11	-47.7	-49.6	17.8	0.00e+00	0	43	0	486539264	66	4602
2026-01-26 01:30:51.17	13.35	33.30	-47.6	-49.4	18.0	0.00e+00	0	43	0	488636416	66	4511
2026-01-26 01:30:52.18	13.20	33.50	-47.7	-49.6	17.8	0.00e+00	0	43	0	490733568	66	4602
2026-01-26 01:30:53.18	13.05	33.70	-47.8	-49.6	17.8	0.00e+00	0	43	0	492830720	66	4632
2026-01-26 01:30:54.19	12.90	33.90	-47.8	-49.6	17.7	0.00e+00	0	44	0	494927872	66	4641
2026-01-26 01:30:55.20	12.75	34.10	-47.9	-49.8	17.6	0.00e+00	0	44	0	495976448	66	4734
2026-01-26 01:30:56.21	12.59	34.30	-47.9	-49.8	17.6	0.00e+00	0	43	0	498073600	66	4716
2026-01-26 01:30:57.21	12.43	34.51	-47.8	-49.7	17.7	0.00e+00	0	43	0	500170752	66	4672
2026-01-26 01:30:58.22	12.27	34.71	-48.0	-50.0	17.4	0.00e+00	0	44	0	502267904	66	4823
2026-01-26 01:30:59.22	12.12	34.92	-48.0	-49.9	17.5	0.00e+00	0	44	0	504365056	66	4781
2026-01-26 01:31:00.23	11.95	35.12	-48.0	-50.0	17.4	0.00e+00	0	43	0	506462208	66	4824
2026-01-26 01:31:01.23	11.79	35.33	-48.1	-50.1	17.3	0.00e+00	0	43	0	507510784	66	4885
2026-01-26 01:31:02.24	11.62	35.54	-48.1	-50.1	17.3	0.00e+00	0	43	0	509607936	66	4914
2026-01-26 01:31:03.24	11.45	35.75	-48.0	-49.9	17.5	0.00e+00	0	43	0	511705088	66	4808
2026-01-26 01:31:04.25	11.28	35.96	-47.8	-49.7	17.6	0.00e+00	0	44	0	513802240	66	4689
2026-01-26 01:31:05.26	11.11	36.17	-47.7	-49.5	17.9	0.00e+00	0	43	0	514850816	66	4564
2026-01-26 01:31:06.27	10.93	36.39	-47.7	-49.6	17.8	0.00e+00	0	44	0	516947968	66	4618
2026-01-26 01:31:07.28	10.75	36.60	-47.7	-49.5	17.8	0.00e+00	0	43	0	519045120	66	4595
2026-01-26 01:31:08.29	10.57	36.82	-47.7	-49.5	17.9	0.00e+00	0	44	0	521142272	66	4585
2026-01-26 01:31:09.29	10.38	37.03	-47.3	-49.1	18.3	0.00e+00	0	44	0	523239424	66	4342
2026-01-26 01:31:10.29	10.20	37.25	-47.1	-48.7	18.7	0.00e+00	0	44	0	524288000	66	4172
2026-01-26 01:31:11.30	10.01	37.47	-47.0	-48.6	18.8	0.00e+00	0	44	0	526385152	65	4343
2026-01-26 01:31:12.31	9.82	37.69	-46.9	-48.5	18.8	0.00e+00	0	43	0	528482304	65	4316
2026-01-26 01:31:13.32	9.62	37.91	-46.8	-48.4	19.0	0.00e+00	0	44	0	530579456	65	4260
2026-01-26 01:31:14.33	9.43	38.13	-47.0	-48.6	18.8	0.00e+00	0	44	0	532676608	65	4374
2026-01-26 01:31:15.33	9.23	38.36	-46.8	-48.3	19.1	0.00e+00	0	43	0	534773760	65	4235
2026-01-26 01:31:16.34	9.03	38.58	-46.8	-48.3	19.0	0.00e+00	0	44	0	535822336	65	4241
2026-01-26 01:31:17.35	8.82	38.81	-46.9	-48.4	19.0	0.00e+00	0	44	0	537919488	65	4272
2026-01-26 01:31:18.35	8.61	39.03	-46.8	-48.3	19.1	0.00e+00	0	44	0	540016640	65	4241
2026-01-26 01:31:19.36	8.40	39.26	-46.8	-48.3	19.1	0.00e+00	0	43	0	542113792	65	4209
2026-01-26 01:31:20.37	8.19	39.49	-46.7	-48.3	19.2	0.00e+00	0	43	0	543162368	65	4199
2026-01-26 01:31:21.37	7.97	39.72	-46.8	-48.4	19.1	0.00e+00	0	44	0	545259520	65	4254
2026-01-26 01:31:22.38	7.75	39.95	-46.7	-48.3	19.2	0.00e+00	0	43	0	547356672	65	4204
2026-01-26 01:31:23.39	7.53	40.18	-46.9	-48.5	19.0	0.00e+00	0	43	0	549453824	65	4313
2026-01-26 01:31:24.39	7.30	40.41	-47.0	-48.6	18.9	0.00e+00	0	43	0	551550976	65	4347
2026-01-26 01:31:25.40	7.07	40.64	-47.0	-48.6	18.9	0.00e+00	0	44	0	552599552	65	4357
2026-01-26 01:31:26.40	6.84	40.88	-47.1	-48.7	18.7	0.00e+00	0	43	0	554696704	65	4434
2026-01-26 01:31:27.41	6.60	41.11	-47.1	-48.7	18.7	0.00e+00	0	43	0	556793856	65	4424
2026-01-26 01:31:28.42	6.36	41.35	-47.3	-49.0	18.5	0.00e+00	0	43	0	558891008	65	4551
2026-01-26 01:31:29.43	6.12	41.59	-47.3	-49.0	18.4	0.00e+00	0	43	0	560988160	65	4582
2026-01-26 01:31:30.43	5.87	41.83	-47.4	-49.1	18.3	0.00e+00	0	44	0	563085312	65	4643
2026-01-26 01:31:31.44	5.62	42.07	-47.3	-49.0	18.4	0.00e+00	0	43	0	564133888	65	4597
2026-01-26 01:31:32.45	5.36	42.31	-47.3	-49.0	18.5	0.00e+00	0	44	0	566231040	65	4548
2026-01-26 01:31:33.45	5.11	42.55	-47.3	-49.0	18.6	0.00e+00	0	44	0	568328192	65	4548
2026-01-26 01:31:34.46	4.84	42.79	-47.2	-48.9	18.6	0.00e+00	0	44	0	570425344	65	4518
2026-01-26 01:31:35.47	4.57	43.03	-47.3	-49.0	18.6	0.00e+00	0	43	0	571473920	65	4548
2026-01-26 01:31:36.48	4.30	43.28	-47.1	-48.7	18.8	0.00e+00	0	44	0	573571072	65	4408
2026-01-26 01:31:37.49	4.03	43.52	-47.0	-48.6	18.9	0.00e+00	0	44	0	575668224	65	4346
2026-01-26 01:31:38.49	3.75	43.77	-46.8	-48.3	19.2	0.00e+00	0	44	0	577765376	65	4238
2026-01-26 01:31:39.50	3.46	44.01	-46.6	-48.1	19.4	0.00e+00	0	43	0	579862528	65	4110
2026-01-26 01:31:40.51	3.17	44.26	-46.5	-48.0	19.5	0.00e+00	0	44	0	580911104	65	4075
2026-01-26 01:31:41.52	2.88	44.51	-46.5	-48.0	19.5	0.00e+00	0	44	0	583008256	65	4057
2026-01-26 01:31:42.53	2.58	44.76	-46.6	-48.1	19.4	0.00e+00	0	44	0	585105408	64	4382
2026-01-26 01:31:43.53	2.28	45.01	-46.8	-48.3	19.3	0.00e+00	0	44	0	587202560	64	4457
2026-01-26 01:31:44.54	1.97	45.26	-46.6	-48.1	19.4	0.00e+00	0	44	0	589299712	64	4373
2026-01-26 01:31:45.55	1.66	45.51	-46.6	-48.1	19.4	0.00e+00	0	43	0	591396864	64	4362
2026-01-26 01:31:46.55	1.34	45.76	-46.7	-48.2	19.4	0.00e+00	0	43	0	592445440	64	4407
2026-01-26 01:31:47.56	1.02	46.01	-46.5	-47.9	19.6	0.00e+00	0	43	0	594542592	64	4265
2026-01-26 01:31:48.57	0.69	46.26	-46.8	-48.3	19.2	0.00e+00	0	43	0	596639744	64	4484
2026-01-26 01:31:49.58	0.36	46.51	-47.1	-48.7	18.9	0.00e+00	0	43	0	598736896	64	4656
2026-01-26 01:31:50.59	0.02	46.77	-46.9	-48.5	19.0	0.00e+00	0	43	0	599785472	64	4566
2026-01-26 01:31:51.60	359.67	47.02	-46.9	-48.4	19.2	0.00e+00	0	43	0	601882624	64	4519
2026-01-26 01:31:52.61	359.32	47.28	-46.6	-48.1	19.4	0.00e+00	0	43	0	603979776	64	4375
2026-01-26 01:31:53.61	358.97	47.53	-46.7	-48.2	19.4	0.00e+00	0	44	0	606076928	64	4417
2026-01-26 01:31:54.62	358.60	47.78	-46.6	-48.1	19.5	0.00e+00	0	44	0	608174080	64	4351
2026-01-26 01:31:55.62	358.24	48.04	-46.6	-48.1	19.4	0.00e+00	0	44	0	610271232	64	4366
2026-01-26 01:31:56.63	357.86	48.29	-46.5	-48.0	19.6	0.00e+00	0	44	0	611319808	64	4298
2026-01-26 01:31:57.63	357.48	48.55	-46.4	-47.8	19.8	0.00e+00	0	44	0	613416960	64	4210
2026-01-26 01:31:58.64	357.10	48.80	-46.1	-47.4	20.1	0.00e+00	0	44	0	615514112	64	4025
2026-01-26 01:31:59.64	356.71	49.06	-45.7	-47.0	20.6	0.00e+00	0	44	0	617611264	63	4069
2026-01-26 01:32:00.65	356.31	49.31	-45.9	-47.1	20.5	0.00e+00	0	43	0	619708416	63	4140
2026-01-26 01:32:01.65	355.90	49.56	-45.9	-47.2	20.5	0.00e+00	0	43	0	620756992	63	4146
2026-01-26 01:32:02.65	355.49	49.82	-45.8	-47.1	20.5	0.00e+00	0	43	0	622854144	63	4127
2026-01-26 01:32:03.66	355.07	50.07	-45.8	-47.1	20.5	0.00e+00	0	43	0	624951296	63	4121
2026-01-26 01:32:04.67	354.64	50.33	-45.9	-47.2	20.5	0.00e+00	0	44	0	627048448	63	4166
2026-01-26 01:32:05.67	354.21	50.58	-45.9	-47.2	20.5	0.00e+00	0	43	0	628097024	63	4170
2026-01-26 01:32:06.68	353.77	50.83	-46.1	-47.4	20.3	0.00e+00	0	44	0	630194176	63	4288
2026-01-26 01:32:07.69	353.31	51.09	-46.1	-47.5	20.2	0.00e+00	0	44	0	632291328	63	4295
2026-01-26 01:32:08.69	352.86	51.34	-46.1	-47.5	20.2	0.00e+00	0	44	0	634388480	63	4301
2026-01-26 01:32:09.70	352.39	51.59	-46.0	-47.3	20.4	0.00e+00	0	44	0	636485632	63	4237
2026-01-26 01:32:10.71	351.92	51.84	-45.6	-46.9	20.8	0.00e+00	0	44	0	637534208	63	4009
2026-01-26 01:32:11.71	351.44	52.09	-45.2	-46.4	21.2	0.00e+00	0	44	0	639631360	62	4032
2026-01-26 01:32:12.72	350.95	52.34	-44.9	-46.0	21.5	0.00e+00	0	44	0	641728512	61	4088
2026-01-26 01:32:13.73	350.45	52.59	-44.6	-45.7	21.8	0.00e+00	0	43	0	643825664	61	3951
2026-01-26 01:32:14.74	349.94	52.84	-44.5	-45.6	21.9	0.00e+00	0	43	0	645922816	61	3892
2026-01-26 01:32:15.74	349.43	53.09	-44.7	-45.8	21.8	0.00e+00	0	44	0	648019968	61	3968
2026-01-26 01:32:16.74	348.91	53.33	-44.7	-45.8	21.8	0.00e+00	0	43	0	649068544	61	3995
2026-01-26 01:32:17.75	348.37	53.57	-44.6	-45.7	21.9	0.00e+00	0	44	0	651165696	61	3957
2026-01-26 01:32:18.76	347.83	53.82	-44.5	-45.6	22.0	0.00e+00	0	43	0	653262848	60	4105
2026-01-26 01:32:19.76	347.28	54.06	-44.4	-45.5	22.1	0.00e+00	0	43	0	655360000	60	4065
2026-01-26 01:32:20.77	346.72	54.30	-44.5	-45.6	22.0	0.00e+00	0	43	0	656408576	60	4100
2026-01-26 01:32:21.78	346.15	54.54	-44.5	-45.5	22.0	0.00e+00	0	43	0	658505728	60	4096
2026-01-26 01:32:22.78	345.57	54.77	-44.4	-45.5	22.1	0.00e+00	0	43	0	660602880	60	4075
2026-01-26 01:32:23.79	344.98	55.01	-44.4	-45.5	22.1	0.00e+00	0	44	0	662700032	60	4077
2026-01-26 01:32:24.80	344.38	55.24	-44.5	-45.6	22.0	0.00e+00	0	44	0	664797184	60	4125
2026-01-26 01:32:25.80	343.77	55.47	-45.1	-46.2	21.4	0.00e+00	0	44	0	665845760	60	4433
2026-01-26 01:32:26.81	343.15	55.69	-45.5	-46.8	20.9	0.00e+00	0	43	0	667942912	61	4456
2026-01-26 01:32:27.82	342.52	55.92	-45.8	-47.1	20.6	0.00e+00	0	44	0	670040064	62	4357
2026-01-26 01:32:28.83	341.88	56.14	-46.3	-47.7	20.0	0.00e+00	0	43	0	672137216	63	4407
2026-01-26 01:32:29.84	341.23	56.36	-46.6	-48.0	19.6	0.00e+00	0	44	0	674234368	64	4325
2026-01-26 01:32:30.84	340.57	56.58	-46.8	-48.3	19.4	0.00e+00	0	44	0	676331520	64	4475
2026-01-26 01:32:31.85	339.90	56.79	-46.6	-48.0	19.7	0.00e+00	0	44	0	677380096	64	4320
2026-01-26 01:32:32.86	339.22	57.01	-46.7	-48.2	19.5	0.00e+00	0	44	0	679477248	64	4423
2026-01-26 01:32:33.87	338.52	57.22	-46.7	-48.2	19.5	0.00e+00	0	43	0	681574400	64	4402
2026-01-26 01:32:34.87	337.82	57.42	-47.0	-48.5	19.3	0.00e+00	0	44	0	683671552	64	4583
2026-01-26 01:32:35.89	337.10	57.62	-46.8	-48.3	19.4	0.00e+00	0	43	0	684720128	64	4487
2026-01-26 01:32:36.89	336.38	57.82	-46.9	-48.3	19.3	0.00e+00	0	44	0	686817280	64	4491
2026-01-26 01:32:37.90	335.65	58.01	-47.2	-48.8	18.9	0.00e+00	0	44	0	688914432	65	4459
2026-01-26 01:32:38.91	334.90	58.20	-47.3	-48.9	18.9	0.00e+00	0	43	0	691011584	65	4494
2026-01-26 01:32:39.91	334.15	58.39	-47.2	-48.8	18.9	0.00e+00	0	44	0	693108736	65	4467
2026-01-26 01:32:40.92	333.38	58.57	-47.1	-48.7	19.0	0.00e+00	0	44	0	695205888	65	4408
2026-01-26 01:32:41.93	332.60	58.75	-47.0	-48.6	19.2	0.00e+00	0	44	0	696254464	65	4356
2026-01-26 01:32:42.93	331.82	58.92	-46.7	-48.2	19.5	0.00e+00	0	44	0	698351616	65	4173
2026-01-26 01:32:43.94	331.02	59.09	-46.1	-47.4	20.3	0.00e+00	0	44	0	700448768	64	4049
2026-01-26 01:32:44.95	330.21	59.25	-46.1	-47.4	20.4	0.00e+00	0	44	0	702545920	63	4278
2026-01-26 01:32:45.96	329.39	59.41	-46.3	-47.6	20.2	0.00e+00	0	43	0	704643072	63	4377
2026-01-26 01:32:46.96	328.56	59.57	-46.5	-47.9	19.9	0.00e+00	0	44	0	705691648	63	4515
2026-01-26 01:32:47.97	327.72	59.72	-46.2	-47.5	20.2	0.00e+00	0	44	0	707788800	63	4327
2026-01-26 01:32:48.97	326.88	59.86	-45.7	-47.0	20.7	0.00e+00	0	43	0	709885952	63	4056
2026-01-26 01:32:49.98	326.02	60.00	-45.3	-46.4	21.2	0.00e+00	0	44	0	711983104	62	4045
2026-01-26 01:32:50.99	325.16	60.13	-44.7	-45.8	21.9	0.00e+00	0	43	0	713031680	61	3972
2026-01-26 01:32:51.99	324.29	60.25	-44.6	-45.7	21.9	0.00e+00	0	44	0	715128832	61	3941
2026-01-26 01:32:53.00	323.40	60.38	-44.9	-46.0	21.7	0.00e+00	0	44	0	717225984	61	4079
2026-01-26 01:32:54.01	322.51	60.49	-45.0	-46.1	21.6	0.00e+00	0	43	0	719323136	61	4111
2026-01-26 01:32:55.01	321.61	60.60	-44.8	-45.9	21.7	0.00e+00	0	43	0	721420288	61	4049
2026-01-26 01:32:56.02	320.70	60.70	-44.6	-45.7	22.0	0.00e+00	0	43	0	722468864	61	3944
2026-01-26 01:32:57.02	319.80	60.80	-44.6	-45.7	22.0	0.00e+00	0	43	0	724566016	61	3922
2026-01-26 01:32:58.03	318.87	60.89	-44.3	-45.3	22.3	0.00e+00	0	44	0	726663168	60	3988
2026-01-26 01:32:59.04	317.94	60.97	-44.2	-45.3	22.7	0.00e+00	0	43	0	728760320	59	4205
2026-01-26 01:33:00.04	317.02	61.05	-44.3	-45.3	22.6	0.00e+00	0	44	0	730857472	59	4216
2026-01-26 01:33:01.04	316.08	61.12	-44.3	-45.3	22.7	0.00e+00	0	44	0	732954624	59	4214
2026-01-26 01:33:02.05	315.14	61.18	-44.1	-45.1	22.8	0.00e+00	0	43	0	734003200	59	4122
2026-01-26 01:33:03.06	314.19	61.24	-44.1	-45.1	22.9	0.00e+00	0	44	0	736100352	59	4101
2026-01-26 01:33:04.06	313.24	61.29	-44.2	-45.2	22.7	0.00e+00	0	44	0	738197504	59	4173
2026-01-26 01:33:05.07	312.28	61.34	-44.0	-45.0	22.9	0.00e+00	0	44	0	740294656	59	4087
2026-01-26 01:33:06.07	311.33	61.37	-43.6	-44.5	23.3	0.00e+00	0	44	0	741343232	59	3867
2026-01-26 01:33:07.08	310.36	61.40	-43.3	-44.3	23.6	0.00e+00	0	44	0	743440384	58	3970
2026-01-26 01:33:08.09	309.40	61.42	-43.1	-44.0	23.8	0.00e+00	0	44	0	745537536	58	3864
2026-01-26 01:33:09.09	308.44	61.44	-43.1	-44.0	23.8	0.00e+00	0	44	0	747634688	58	3865
2026-01-26 01:33:10.10	307.47	61.45	-43.0	-43.9	23.9	0.00e+00	0	43	0	749731840	58	3817
2026-01-26 01:33:11.10	306.51	61.45	-42.5	-43.4	24.3	0.00e+00	0	44	0	750780416	57	3796
2026-01-26 01:33:12.11	305.54	61.44	-42.5	-43.4	24.3	0.00e+00	0	44	0	752877568	56	4025
2026-01-26 01:33:13.12	304.57	61.43	-42.7	-43.6	24.2	0.00e+00	0	43	0	754974720	56	4130
2026-01-26 01:33:14.12	303.62	61.41	-42.8	-43.7	24.1	0.00e+00	0	43	0	757071872	56	4161
2026-01-26 01:33:15.13	302.65	61.38	-42.7	-43.6	24.2	0.00e+00	0	43	0	759169024	56	4124
2026-01-26 01:33:16.13	301.70	61.35	-42.5	-43.4	24.4	0.00e+00	0	44	0	761266176	56	4016
2026-01-26 01:33:17.14	300.74	61.30	-42.5	-43.3	24.4	0.00e+00	0	44	0	762314752	56	4002
2026-01-26 01:33:18.15	299.78	61.26	-42.5	-43.4	24.3	0.00e+00	0	44	0	764411904	56	4023
2026-01-26 01:33:19.15	298.84	61.20	-42.8	-43.7	24.1	0.00e+00	0	44	0	766509056	56	4174
2026-01-26 01:33:20.15	297.90	61.14	-43.0	-44.0	23.8	0.00e+00	0	44	0	768606208	56	4295
2026-01-26 01:33:21.16	296.95	61.07	-43.3	-44.2	23.7	0.00e+00	0	44	0	769654784	57	4186
2026-01-26 01:33:22.16	296.03	61.00	-43.6	-44.6	23.3	0.00e+00	0	44	0	771751936	57	4356
2026-01-26 01:33:23.16	295.10	60.92	-43.6	-44.5	23.4	0.00e+00	0	43	0	773849088	57	4334
2026-01-26 01:33:24.17	294.18	60.83	-43.6	-44.5	23.4	0.00e+00	0	44	0	775946240	57	4332
2026-01-26 01:33:25.17	293.27	60.73	-43.8	-44.7	23.2	0.00e+00	0	43	0	778043392	58	4192
2026-01-26 01:33:26.18	292.35	60.63	-44.0	-45.0	23.0	0.00e+00	0	44	0	779091968	58	4303
2026-01-26 01:33:27.19	291.45	60.52	-44.2	-45.2	22.7	0.00e+00	0	44	0	781189120	58	4441
2026-01-26 01:33:28.19	290.56	60.41	-44.4	-45.4	22.5	0.00e+00	0	43	0	783286272	59	4290
2026-01-26 01:33:29.19	289.68	60.29	-44.4	-45.4	22.3	0.00e+00	0	44	0	785383424	60	4044
2026-01-26 01:33:30.19	288.81	60.17	-44.5	-45.5	22.2	0.00e+00	0	44	0	787480576	60	4092
2026-01-26 01:33:31.19	287.95	60.04	-44.6	-45.7	22.1	0.00e+00	0	43	0	788529152	60	4160
2026-01-26 01:33:32.20	287.08	59.90	-44.7	-45.8	21.9	0.00e+00	0	44	0	790626304	60	4238
2026-01-26 01:33:33.20	286.24	59.76	-44.7	-45.8	21.9	0.00e+00	0	43	0	792723456	60	4231
2026-01-26 01:33:34.21	285.40	59.61	-44.5	-45.6	22.2	0.00e+00	0	43	0	794820608	60	4113
2026-01-26 01:33:35.21	284.57	59.46	-44.4	-45.4	22.3	0.00e+00	0	44	0	796917760	60	4037
2026-01-26 01:33:36.22	283.75	59.30	-44.8	-45.9	21.9	0.00e+00	0	43	0	797966336	60	4247
2026-01-26 01:33:37.23	282.93	59.14	-45.8	-47.1	20.7	0.00e+00	0	44	0	800063488	62	4364
2026-01-26 01:33:38.23	282.14	58.97	-46.7	-48.2	19.7	0.00e+00	0	44	0	802160640	64	4404
2026-01-26 01:33:39.24	281.34	58.80	-46.4	-47.8	20.0	0.00e+00	0	43	0	804257792	64	4220
2026-01-26 01:33:40.25	280.56	58.63	-46.1	-47.3	20.5	0.00e+00	0	44	0	806354944	63	4242
2026-01-26 01:33:41.25	279.79	58.45	-45.4	-46.6	21.1	0.00e+00	0	43	0	807403520	62	4128
2026-01-26 01:33:42.26	279.03	58.26	-45.3	-46.5	21.3	0.00e+00	0	44	0	809500672	62	4076
2026-01-26 01:33:43.27	278.28	58.07	-45.8	-47.0	20.8	0.00e+00	0	44	0	811597824	62	4331
2026-01-26 01:33:44.28	277.54	57.88	-46.6	-48.0	19.9	0.00e+00	0	44	0	813694976	63	4566
2026-01-26 01:33:45.28	276.82	57.68	-46.7	-48.2	19.6	0.00e+00	0	43	0	815792128	64	4411
2026-01-26 01:33:46.29	276.10	57.48	-46.6	-48.0	19.7	0.00e+00	0	44	0	816840704	64	4340
2026-01-26 01:33:47.28	275.40	57.28	-46.3	-47.6	20.1	0.00e+00	0	44	0	818937856	64	4145
2026-01-26 01:33:48.29	274.70	57.07	-45.7	-47.0	20.8	0.00e+00	0	44	0	821035008	63	4069
2026-01-26 01:33:49.30	274.01	56.86	-45.6	-46.8	20.9	0.00e+00	0	43	0	823132160	63	4000
2026-01-26 01:33:50.31	273.34	56.65	-45.5	-46.7	21.1	0.00e+00	0	44	0	825229312	62	4162
2026-01-26 01:33:51.31	272.68	56.43	-45.3	-46.5	21.3	0.00e+00	0	44	0	826277888	62	4069
2026-01-26 01:33:52.32	272.02	56.21	-45.4	-46.6	21.2	0.00e+00	0	44	0	828375040	62	4140
2026-01-26 01:33:53.32	271.38	55.99	-45.6	-46.9	21.0	0.00e+00	0	44	0	830472192	62	4244
2026-01-26 01:33:54.33	270.75	55.77	-45.3	-46.5	21.3	0.00e+00	0	44	0	832569344	62	4072
2026-01-26 01:33:55.34	270.12	55.54	-45.2	-46.4	21.3	0.00e+00	0	44	0	834666496	62	4019
2026-01-26 01:33:56.35	269.50	55.31	-44.9	-46.0	21.7	0.00e+00	0	44	0	835715072	61	4084
2026-01-26 01:33:57.35	268.91	55.08	-44.9	-46.0	21.7	0.00e+00	0	44	0	837812224	61	4073
2026-01-26 01:33:58.36	268.31	54.84	-44.8	-45.9	21.8	0.00e+00	0	44	0	839909376	61	4029
2026-01-26 01:33:59.36	267.73	54.61	-45.2	-46.3	21.4	0.00e+00	0	44	0	842006528	61	4241
2026-01-26 01:34:00.37	267.15	54.37	-45.1	-46.2	21.5	0.00e+00	0	44	0	844103680	61	4189
2026-01-26 01:34:01.37	266.59	54.13	-45.2	-46.4	21.4	0.00e+00	0	44	0	845152256	61	4261
2026-01-26 01:34:02.38	266.04	53.89	-45.6	-46.9	20.9	0.00e+00	0	44	0	847249408	61	4516
2026-01-26 01:34:03.39	265.49	53.65	-45.9	-47.2	20.6	0.00e+00	0	44	0	849346560	62	4421
2026-01-26 01:34:04.39	264.96	53.41	-45.3	-46.4	21.3	0.00e+00	0	44	0	851443712	62	4047
2026-01-26 01:34:05.40	264.43	53.16	-44.9	-46.0	21.6	0.00e+00	0	44	0	853540864	61	4097
2026-01-26 01:34:06.40	263.91	52.92	-45.0	-46.1	21.6	0.00e+00	0	44	0	854589440	61	4145
2026-01-26 01:34:07.41	263.40	52.67	-45.3	-46.5	21.3	0.00e+00	0	44	0	856686592	61	4303
2026-01-26 01:34:08.42	262.90	52.42	-45.5	-46.8	21.1	0.00e+00	0	44	0	858783744	61	4447
2026-01-26 01:34:09.42	262.41	52.17	-46.1	-47.4	20.5	0.00e+00	0	44	0	860880896	62	4500
2026-01-26 01:34:10.43	261.92	51.92	-46.2	-47.6	20.3	0.00e+00	0	44	0	862978048	63	4363
2026-01-26 01:34:11.44	261.44	51.67	-46.0	-47.3	20.4	0.00e+00	0	44	0	864026624	63	4230
2026-01-26 01:34:12.45	260.97	51.41	-45.9	-47.1	20.7	0.00e+00	0	44	0	866123776	63	4124
2026-01-26 01:34:13.45	260.51	51.16	-46.1	-47.4	20.4	0.00e+00	0	44	0	868220928	63	4274
2026-01-26 01:34:14.46	260.06	50.91	-46.6	-48.1	19.7	0.00e+00	0	44	0	870318080	64	4354
2026-01-26 01:34:15.47	259.61	50.65	-47.3	-48.9	18.9	0.00e+00	0	44	0	872415232	65	4501
2026-01-26 01:34:16.47	259.18	50.40	-47.7	-49.4	18.4	0.00e+00	0	44	0	873463808	65	4797
2026-01-26 01:34:17.47	258.75	50.15	-47.9	-49.7	18.1	0.00e+00	0	44	0	875560960	66	4664
2026-01-26 01:34:18.48	258.32	49.89	-47.8	-49.6	18.2	0.00e+00	0	44	0	877658112	66	4616
2026-01-26 01:34:19.48	257.91	49.64	-47.7	-49.4	18.4	0.00e+00	0	44	0	879755264	66	4505
2026-01-26 01:34:20.48	257.50	49.38	-47.6	-49.3	18.5	0.00e+00	0	44	0	881852416	66	4457
2026-01-26 01:34:21.49	257.10	49.13	-47.8	-49.5	18.3	0.00e+00	0	44	0	882900992	66	4570
2026-01-26 01:34:22.50	256.70	48.87	-48.5	-50.4	17.4	0.00e+00	0	44	0	884998144	67	4806
2026-01-26 01:34:23.51	256.31	48.61	-48.8	-50.9	16.9	0.00e+00	0	44	0	887095296	68	4793
2026-01-26 01:34:24.52	255.93	48.36	-48.8	-50.9	17.0	0.00e+00	0	44	0	889192448	68	4784
2026-01-26 01:34:25.52	255.55	48.10	-48.8	-51.0	16.9	0.00e+00	0	44	0	891289600	68	4819
2026-01-26 01:34:26.53	255.18	47.85	-48.9	-51.1	16.8	0.00e+00	0	44	0	892338176	68	4890
2026-01-26 01:34:27.54	254.82	47.59	-48.6	-50.6	17.2	0.00e+00	0	44	0	894435328	68	4617
2026-01-26 01:34:28.54	254.46	47.34	-48.0	-49.8	18.0	0.00e+00	0	44	0	896532480	68	4225
2026-01-26 01:34:29.55	254.11	47.08	-47.9	-49.6	18.1	0.00e+00	0	44	0	898629632	67	4385
2026-01-26 01:34:30.55	253.76	46.83	-47.8	-49.6	18.2	0.00e+00	0	44	0	900726784	67	4345
2026-01-26 01:34:31.56	253.42	46.58	-47.5	-49.2	18.5	0.00e+00	0	44	0	901775360	67	4173
2026-01-26 01:34:32.57	253.08	46.32	-47.3	-49.0	18.8	0.00e+00	0	44	0	903872512	66	4300
2026-01-26 01:34:33.57	252.76	46.07	-47.3	-48.9	18.8	0.00e+00	0	44	0	905969664	66	4261
2026-01-26 01:34:34.58	252.43	45.82	-47.2	-48.7	19.0	0.00e+00	0	44	0	908066816	66	4184
2026-01-26 01:34:35.59	252.11	45.57	-47.0	-48.5	19.1	0.00e+00	0	44	0	910163968	66	4090
2026-01-26 01:34:36.60	251.79	45.31	-46.9	-48.4	19.3	0.00e+00	0	44	0	911212544	65	4261
2026-01-26 01:34:37.61	251.48	45.06	-46.9	-48.4	19.3	0.00e+00	0	44	0	913309696	65	4247
2026-01-26 01:34:38.61	251.18	44.82	-47.0	-48.5	19.1	0.00e+00	0	44	0	915406848	65	4337
2026-01-26 01:34:39.62	250.88	44.57	-47.0	-48.5	19.1	0.00e+00	0	44	0	917504000	65	4320
2026-01-26 01:34:40.62	250.59	44.32	-46.4	-47.8	19.8	0.00e+00	0	44	0	919601152	64	4194
2026-01-26 01:34:41.63	250.29	44.07	-46.4	-47.8	19.9	0.00e+00	0	44	0	920649728	64	4195
2026-01-26 01:34:42.64	250.01	43.82	-46.4	-47.8	19.8	0.00e+00	0	44	0	922746880	64	4227
2026-01-26 01:34:43.64	249.73	43.58	-46.7	-48.1	19.5	0.00e+00	0	44	0	924844032	64	4389
2026-01-26 01:34:44.65	249.45	43.33	-46.9	-48.4	19.2	0.00e+00	0	44	0	926941184	64	4520
2026-01-26 01:34:45.66	249.18	43.09	-46.9	-48.5	19.2	0.00e+00	0	44	0	929038336	64	4567
2026-01-26 01:34:46.67	248.91	42.84	-47.1	-48.7	18.9	0.00e+00	0	44	0	930086912	64	4698
2026-01-26 01:34:47.67	248.64	42.60	-47.5	-49.2	18.5	0.00e+00	0	44	0	932184064	65	4659
2026-01-26 01:34:48.68	248.38	42.36	-47.2	-48.8	18.8	0.00e+00	0	44	0	934281216	65	4479
2026-01-26 01:34:49.69	248.12	42.12	-47.3	-48.9	18.7	0.00e+00	0	44	0	936378368	65	4515
2026-01-26 01:34:50.70	247.87	41.87	-47.5	-49.2	18.4	0.00e+00	0	44	0	938475520	65	4692
2026-01-26 01:34:51.70	247.62	41.64	-48.0	-49.9	17.7	0.00e+00	0	44	0	939524096	66	4793
2026-01-26 01:34:52.71	247.38	41.40	-48.1	-50.0	17.6	0.00e+00	0	44	0	941621248	66	4854
2026-01-26 01:34:53.72	247.13	41.16	-48.2	-50.1	17.5	0.00e+00	0	44	0	943718400	67	4632
2026-01-26 01:34:54.72	246.90	40.93	-48.1	-50.0	17.6	0.00e+00	0	44	0	945815552	67	4582
2026-01-26 01:34:55.73	246.66	40.69	-48.5	-50.6	17.1	0.00e+00	0	44	0	947912704	67	4879
2026-01-26 01:34:56.74	246.43	40.45	-48.7	-50.7	17.0	0.00e+00	0	44	0	948961280	68	4695
2026-01-26 01:34:57.74	246.20	40.22	-48.9	-51.1	16.7	0.00e+00	0	44	0	951058432	68	4876
2026-01-26 01:34:58.75	245.98	39.99	-48.6	-50.7	17.1	0.00e+00	0	44	0	953155584	68	4662
2026-01-26 01:34:59.76	245.75	39.76	-48.5	-50.5	17.2	0.00e+00	0	44	0	955252736	68	4571
2026-01-26 01:35:00.77	245.53	39.53	-48.4	-50.4	17.3	0.00e+00	0	44	0	957349888	68	4506
2026-01-26 01:35:01.77	245.32	39.30	-48.5	-50.6	17.1	0.00e+00	0	44	0	958398464	68	4607
2026-01-26 01:35:02.78	245.11	39.07	-48.6	-50.7	17.1	0.00e+00	0	44	0	960495616	68	4654
2026-01-26 01:35:03.79	244.90	38.84	-48.9	-51.0	16.6	0.00e+00	0	44	0	962592768	68	4857
2026-01-26 01:35:04.80	244.69	38.61	-48.7	-50.8	17.0	0.00e+00	0	44	0	964689920	68	4710
2026-01-26 01:35:05.81	244.49	38.39	-48.8	-50.9	16.7	0.00e+00	0	44	0	966787072	68	4808
2026-01-26 01:35:06.81	244.29	38.17	-48.9	-51.0	16.7	0.00e+00	0	44	0	967835648	68	4855
2026-01-26 01:35:07.81	244.09	37.94	-49.0	-51.2	16.5	0.00e+00	0	44	0	969932800	68	4959
2026-01-26 01:35:08.82	243.89	37.72	-49.3	-51.7	16.0	0.00e+00	0	44	0	972029952	69	4935
2026-01-26 01:35:09.82	243.70	37.50	-49.5	-52.1	15.7	0.00e+00	0	44	0	974127104	69	5161
2026-01-26 01:35:10.83	243.51	37.28	-49.5	-52.1	15.6	0.00e+00	0	44	0	976224256	69	5162
2026-01-26 01:35:11.83	243.33	37.06	-49.2	-51.6	16.0	0.00e+00	0	44	0	977272832	69	4923
2026-01-26 01:35:12.84	243.14	36.85	-49.0	-51.3	16.3	0.00e+00	0	44	0	979369984	69	4716
2026-01-26 01:35:13.84	242.96	36.63	-48.8	-51.0	16.7	0.00e+00	0	44	0	981467136	69	4550
2026-01-26 01:35:14.85	242.78	36.42	-48.6	-50.6	17.1	0.00e+00	0	44	0	983564288	69	4390
2026-01-26 01:35:15.86	242.60	36.20	-48.3	-50.3	17.4	0.00e+00	0	44	0	985661440	68	4443
2026-01-26 01:35:16.87	242.43	35.99	-48.3	-50.3	17.3	0.00e+00	0	44	0	986710016	68	4474
2026-01-26 01:35:17.88	242.25	35.77	-48.1	-50.1	17.6	0.00e+00	0	44	0	988807168	68	4349
2026-01-26 01:35:18.89	242.08	35.56	-47.8	-49.6	17.9	0.00e+00	0	44	0	990904320	67	4389
2026-01-26 01:35:19.90	241.91	35.35	-47.9	-49.7	17.8	0.00e+00	0	44	0	993001472	67	4432
2026-01-26 01:35:20.90	241.75	35.14	-47.9	-49.8	17.7	0.00e+00	0	44	0	995098624	67	4473
2026-01-26 01:35:21.91	241.58	34.94	-47.8	-49.6	17.9	0.00e+00	0	44	0	996147200	67	4346
2026-01-26 01:35:22.91	241.42	34.73	-47.9	-49.7	17.8	0.00e+00	0	44	0	998244352	67	4419
2026-01-26 01:35:23.92	241.26	34.52	-47.8	-49.6	18.0	0.00e+00	0	44	0	1000341504	67	4356
2026-01-26 01:35:24.93	241.10	34.32	-47.9	-49.7	17.8	0.00e+00	0	44	0	1002438656	67	4437
2026-01-26 01:35:25.93	240.95	34.12	-47.8	-49.6	17.9	0.00e+00	0	44	0	1004535808	67	4385
2026-01-26 01:35:26.94	240.79	33.91	-47.9	-49.7	17.8	0.00e+00	0	44	0	1005584384	67	4414
2026-01-26 01:35:27.95	240.64	33.71	-47.8	-49.7	17.8	0.00e+00	0	44	0	1007681536	67	4409
2026-01-26 01:35:28.95	240.49	33.51	-48.0	-49.9	17.6	0.00e+00	0	44	0	1009778688	67	4537
2026-01-26 01:35:29.96	240.34	33.31	-47.9	-49.7	17.8	0.00e+00	0	44	0	1011875840	67	4423
2026-01-26 01:35:30.97	240.20	33.12	-47.9	-49.8	17.7	0.00e+00	0	44	0	1013972992	67	4472
2026-01-26 01:35:31.97	240.05	32.92	-47.8	-49.7	17.8	0.00e+00	0	44	0	1015021568	67	4416
2026-01-26 01:35:32.98	239.91	32.72	-47.9	-49.8	17.7	0.00e+00	0	44	0	1017118720	67	4470
2026-01-26 01:35:33.99	239.77	32.53	-47.9	-49.9	17.7	0.00e+00	0	44	0	1019215872	67	4495
2026-01-26 01:35:34.99	239.63	32.34	-47.9	-49.8	17.7	0.00e+00	0	44	0	1021313024	67	4458
2026-01-26 01:35:36.00	239.49	32.14	-47.9	-49.8	17.7	0.00e+00	0	44	0	1023410176	67	4459
2026-01-26 01:35:37.01	239.36	31.95	-47.8	-49.7	17.8	0.00e+00	0	44	0	1024458752	67	4415
2026-01-26 01:35:38.02	239.22	31.76	-47.7	-49.5	17.9	0.00e+00	0	44	0	1026555904	67	4330
2026-01-26 01:35:39.03	239.09	31.57	-47.7	-49.6	17.9	0.00e+00	0	44	0	1028653056	67	4341
2026-01-26 01:35:40.03	238.96	31.38	-47.6	-49.4	18.0	0.00e+00	0	44	0	1030750208	67	4264
2026-01-26 01:35:41.04	238.83	31.19	-47.7	-49.5	17.9	0.00e+00	0	44	0	1032847360	67	4333
2026-01-26 01:35:42.04	238.70	31.01	-47.9	-49.8	17.6	0.00e+00	0	44	0	1033895936	67	4468
2026-01-26 01:35:43.05	238.57	30.82	-48.2	-50.2	17.3	0.00e+00	0	44	0	1035993088	67	4662
2026-01-26 01:35:44.06	238.45	30.64	-48.3	-50.4	17.0	0.00e+00	0	44	0	1038090240	67	4786
2026-01-26 01:35:45.07	238.32	30.45	-48.5	-50.7	16.7	0.00e+00	0	44	0	1040187392	67	4973
2026-01-26 01:35:46.07	238.20	30.27	-48.6	-50.8	16.6	0.00e+00	0	44	0	1042284544	67	5028
2026-01-26 01:35:47.08	238.08	30.09	-48.6	-50.8	16.6	0.00e+00	0	44	0	1043333120	67	5024
2026-01-26 01:35:48.09	237.96	29.91	-48.4	-50.5	16.9	0.00e+00	0	44	0	1045430272	67	4868
2026-01-26 01:35:49.10	237.84	29.73	-48.2	-50.2	17.2	0.00e+00	0	44	0	1047527424	67	4696
2026-01-26 01:35:50.10	237.73	29.55	-48.0	-50.0	17.5	0.00e+00	0	44	0	1049624576	67	4549
2026-01-26 01:35:51.11	237.61	29.37	-47.9	-49.8	17.7	0.00e+00	0	44	0	1051721728	67	4458
2026-01-26 01:35:52.12	237.50	29.20	-47.6	-49.4	18.0	0.00e+00	0	44	0	1052770304	67	4270
2026-01-26 01:35:53.13	237.38	29.02	-47.5	-49.3	18.2	0.00e+00	0	44	0	1054867456	66	4451
2026-01-26 01:35:54.13	237.27	28.85	-47.5	-49.2	18.1	0.00e+00	0	44	0	1056964608	66	4439
2026-01-26 01:35:55.14	237.16	28.67	-47.5	-49.3	18.1	0.00e+00	0	44	0	1059061760	66	4458
2026-01-26 01:35:56.14	237.05	28.50	-47.6	-49.4	18.0	0.00e+00	0	44	0	1061158912	66	4524
2026-01-26 01:35:57.15	236.94	28.33	-47.6	-49.4	18.0	0.00e+00	0	44	0	1062207488	66	4507
2026-01-26 01:35:58.16	236.84	28.16	-47.6	-49.4	18.0	0.00e+00	0	44	0	1064304640	66	4516
2026-01-26 01:35:59.17	236.73	27.99	-47.5	-49.3	18.0	0.00e+00	0	44	0	1066401792	66	4485
2026-01-26 01:36:00.18	236.63	27.82	-47.4	-49.1	18.3	0.00e+00	0	44	0	1068498944	66	4365
2026-01-26 01:36:01.19	236.52	27.65	-47.2	-48.9	18.5	0.00e+00	0	44	0	1070596096	66	4252
2026-01-26 01:36:02.20	236.42	27.48	-47.1	-48.7	18.7	0.00e+00	0	44	0	1071644672	66	4161
2026-01-26 01:36:03.21	236.32	27.32	-47.0	-48.7	18.6	0.00e+00	0	44	0	1073741824	66	4147
2026-01-26 01:36:04.21	236.22	27.15	-47.0	-48.6	18.7	0.00e+00	0	44	0	1075838976	65	4376
2026-01-26 01:36:05.22	236.12	26.99	-46.9	-48.4	18.9	0.00e+00	0	44	0	1077936128	65	4284
2026-01-26 01:36:06.23	236.02	26.82	-46.8	-48.4	18.9	0.00e+00	0	43	0	1080033280	65	4264
2026-01-26 01:36:07.23	235.93	26.66	-46.7	-48.3	19.0	0.00e+00	0	44	0	1081081856	65	4211
2026-01-26 01:36:08.24	235.83	26.50	-46.8	-48.4	18.9	0.00e+00	0	44	0	1083179008	65	4253
2026-01-26 01:36:09.25	235.73	26.34	-46.8	-48.3	18.9	0.00e+00	0	44	0	1085276160	65	4235
2026-01-26 01:36:10.26	235.64	26.18	-46.8	-48.4	18.9	0.00e+00	0	43	0	1087373312	65	4264
2026-01-26 01:36:11.27	235.55	26.02	-46.9	-48.5	18.8	0.00e+00	0	44	0	1089470464	65	4301
2026-01-26 01:36:12.27	235.45	25.86	-46.8	-48.4	18.8	0.00e+00	0	44	0	1090519040	65	4272
2026-01-26 01:36:13.27	235.36	25.70	-46.8	-48.4	18.8	0.00e+00	0	44	0	1092616192	65	4288
2026-01-26 01:36:14.28	235.27	25.55	-46.7	-48.2	19.0	0.00e+00	0	44	0	1094713344	65	4182
2026-01-26 01:36:15.29	235.18	25.39	-46.7	-48.3	19.0	0.00e+00	0	44	0	1096810496	65	4214
2026-01-26 01:36:16.29	235.10	25.24	-46.7	-48.2	19.0	0.00e+00	0	44	0	1098907648	65	4174
2026-01-26 01:36:17.30	235.01	25.08	-46.6	-48.1	19.1	0.00e+00	0	44	0	1099956224	65	4137
2026-01-26 01:36:18.31	234.92	24.93	-46.5	-48.0	19.2	0.00e+00	0	44	0	1102053376	65	4084
2026-01-26 01:36:19.31	234.84	24.78	-46.4	-47.9	19.3	0.00e+00	0	44	0	1104150528	64	4278
2026-01-26 01:36:20.32	234.75	24.63	-46.5	-48.0	19.3	0.00e+00	0	44	0	1106247680	64	4302
2026-01-26 01:36:21.33	234.67	24.47	-46.4	-47.9	19.3	0.00e+00	0	44	0	1108344832	64	4281
2026-01-26 01:36:22.33	234.58	24.33	-46.5	-48.1	19.2	0.00e+00	0	44	0	1109393408	64	4353
2026-01-26 01:36:23.34	234.50	24.18	-46.6	-48.1	19.1	0.00e+00	0	44	0	1111490560	64	4367
2026-01-26 01:36:24.34	234.42	24.03	-46.6	-48.2	19.0	0.00e+00	0	44	0	1113587712	64	4422
2026-01-26 01:36:25.35	234.34	23.88	-46.7	-48.3	18.9	0.00e+00	0	44	0	1115684864	64	4481
2026-01-26 01:36:26.36	234.26	23.73	-46.8	-48.5	18.8	0.00e+00	0	44	0	1117782016	64	4549
2026-01-26 01:36:27.37	234.18	23.59	-47.0	-48.7	18.5	0.00e+00	0	44	0	1118830592	64	4694
2026-01-26 01:36:28.38	234.10	23.44	-47.0	-48.7	18.6	0.00e+00	0	44	0	1120927744	64	4664
2026-01-26 01:36:29.39	234.02	23.30	-47.1	-48.9	18.4	0.00e+00	0	43	0	1123024896	64	4767
2026-01-26 01:36:30.39	233.95	23.15	-47.1	-48.8	18.4	0.00e+00	0	44	0	1125122048	64	4722
2026-01-26 01:36:31.40	233.87	23.01	-47.0	-48.7	18.5	0.00e+00	0	44	0	1127219200	64	4662
2026-01-26 01:36:32.40	233.80	22.87	-46.8	-48.4	18.8	0.00e+00	0	44	0	1128267776	64	4537
2026-01-26 01:36:33.41	233.72	22.72	-46.8	-48.4	18.8	0.00e+00	0	43	0	1130364928	64	4523
2026-01-26 01:36:34.42	233.65	22.58	-46.7	-48.3	18.9	0.00e+00	0	43	0	1132462080	64	4476
2026-01-26 01:36:35.42	233.57	22.44	-46.5	-48.0	19.2	0.00e+00	0	44	0	1134559232	64	4308
2026-01-26 01:36:36.43	233.50	22.30	-46.4	-47.9	19.3	0.00e+00	0	44	0	1136656384	64	4275
2026-01-26 01:36:37.44	233.43	22.16	-46.2	-47.7	19.4	0.00e+00	0	44	0	1137704960	64	4177
2026-01-26 01:36:38.45	233.36	22.03	-46.2	-47.6	19.5	0.00e+00	0	44	0	1139802112	64	4130
2026-01-26 01:36:39.45	233.29	21.89	-46.1	-47.6	19.6	0.00e+00	0	44	0	1141899264	64	4100
2026-01-26 01:36:40.46	233.22	21.75	-46.1	-47.6	19.6	0.00e+00	0	44	0	1143996416	64	4121
2026-01-26 01:36:41.47	233.15	21.62	-46.2	-47.6	19.5	0.00e+00	0	44	0	1146093568	64	4138
2026-01-26 01:36:42.47	233.08	21.48	-46.2	-47.7	19.4	0.00e+00	0	44	0	1147142144	64	4175
2026-01-26 01:36:43.48	233.01	21.35	-46.3	-47.8	19.3	0.00e+00	0	44	0	1149239296	64	4225
2026-01-26 01:36:44.49	232.94	21.21	-46.3	-47.8	19.3	0.00e+00	0	44	0	1151336448	64	4213
2026-01-26 01:36:45.50	232.87	21.08	-46.3	-47.8	19.4	0.00e+00	0	44	0	1153433600	64	4202
2026-01-26 01:36:46.50	232.81	20.95	-46.4	-48.0	19.2	0.00e+00	0	44	0	1155530752	64	4307
2026-01-26 01:36:47.51	232.74	20.81	-46.4	-47.9	19.2	0.00e+00	0	44	0	1156579328	64	4276
2026-01-26 01:36:48.52	232.68	20.68	-46.4	-47.9	19.2	0.00e+00	0	44	0	1158676480	64	4271
2026-01-26 01:36:49.53	232.61	20.55	-46.4	-48.0	19.2	0.00e+00	0	44	0	1160773632	64	4305
2026-01-26 01:36:50.53	232.55	20.42	-46.4	-48.0	19.1	0.00e+00	0	44	0	1162870784	64	4311
2026-01-26 01:36:51.54	232.49	20.29	-46.2	-47.7	19.4	0.00e+00	0	44	0	1164967936	64	4170
2026-01-26 01:36:52.55	232.42	20.16	-46.1	-47.6	19.5	0.00e+00	0	44	0	1166016512	64	4101
2026-01-26 01:36:53.56	232.36	20.03	-46.1	-47.6	19.5	0.00e+00	0	44	0	1168113664	64	4116
2026-01-26 01:36:54.56	232.30	19.91	-46.1	-47.5	19.6	0.00e+00	0	44	0	1170210816	64	4088
2026-01-26 01:36:55.56	232.24	19.78	-46.0	-47.5	19.7	0.00e+00	0	44	0	1172307968	63	4306
2026-01-26 01:36:56.57	232.18	19.65	-45.9	-47.3	19.9	0.00e+00	0	44	0	1174405120	63	4225
2026-01-26 01:36:57.58	232.12	19.53	-46.0	-47.4	19.8	0.00e+00	0	44	0	1175453696	63	4256
2026-01-26 01:36:58.59	232.06	19.40	-45.9	-47.4	19.8	0.00e+00	0	44	0	1177550848	63	4247
2026-01-26 01:36:59.59	232.00	19.28	-46.0	-47.4	19.8	0.00e+00	0	44	0	1179648000	63	4255
2026-01-26 01:37:00.60	231.94	19.15	-46.0	-47.5	19.7	0.00e+00	0	44	0	1181745152	63	4312
2026-01-26 01:37:01.61	231.88	19.03	-46.0	-47.4	19.8	0.00e+00	0	44	0	1183842304	63	4267
2026-01-26 01:37:02.62	231.82	18.91	-46.1	-47.5	19.6	0.00e+00	0	44	0	1184890880	63	4324
2026-01-26 01:37:03.62	231.77	18.78	-46.1	-47.5	19.6	0.00e+00	0	44	0	1186988032	63	4334
2026-01-26 01:37:04.63	231.71	18.66	-46.1	-47.6	19.6	0.00e+00	0	44	0	1189085184	63	4364
2026-01-26 01:37:05.64	231.65	18.54	-46.1	-47.6	19.6	0.00e+00	0	44	0	1191182336	63	4354
2026-01-26 01:37:06.65	231.60	18.42	-46.2	-47.7	19.4	0.00e+00	0	44	0	1193279488	63	4420
2026-01-26 01:37:07.66	231.54	18.30	-46.2	-47.7	19.5	0.00e+00	0	44	0	1194328064	63	4408
2026-01-26 01:37:08.67	231.49	18.18	-46.0	-47.5	19.6	0.00e+00	0	44	0	1196425216	63	4302
2026-01-26 01:37:09.67	231.43	18.06	-46.0	-47.4	19.7	0.00e+00	0	44	0	1198522368	63	4287
2026-01-26 01:37:10.68	231.38	17.94	-46.0	-47.4	19.7	0.00e+00	0	44	0	1200619520	63	4255
2026-01-26 01:37:11.69	231.32	17.82	-46.0	-47.4	19.7	0.00e+00	0	44	0	1202716672	63	4280
2026-01-26 01:37:12.69	231.27	17.71	-45.9	-47.3	19.8	0.00e+00	0	44	0	1203765248	63	4198
2026-01-26 01:37:13.70	231.22	17.59	-45.7	-47.1	20.0	0.00e+00	0	44	0	1205862400	63	4119
2026-01-26 01:37:14.71	231.17	17.47	-45.7	-47.1	20.0	0.00e+00	0	44	0	1207959552	63	4131
2026-01-26 01:37:15.71	231.12	17.36	-45.7	-47.1	20.0	0.00e+00	0	44	0	1210056704	63	4102
2026-01-26 01:37:16.72	231.06	17.24	-45.7	-47.0	20.0	0.00e+00	0	43	0	1212153856	63	4089
2026-01-26 01:37:17.73	231.01	17.13	-45.7	-47.0	20.1	0.00e+00	0	44	0	1214251008	63	4080
2026-01-26 01:37:18.74	230.96	17.01	-45.7	-47.0	20.0	0.00e+00	0	44	0	1215299584	63	4092
2026-01-26 01:37:19.74	230.91	16.90	-45.7	-47.1	20.0	0.00e+00	0	44	0	1217396736	63	4119
2026-01-26 01:37:20.75	230.86	16.79	-45.7	-47.0	20.0	0.00e+00	0	44	0	1219493888	63	4090
2026-01-26 01:37:21.76	230.81	16.67	-45.8	-47.2	19.9	0.00e+00	0	43	0	1221591040	63	4166
2026-01-26 01:37:22.77	230.76	16.56	-45.8	-47.2	19.8	0.00e+00	0	44	0	1222639616	63	4191
2026-01-26 01:37:23.77	230.72	16.45	-45.9	-47.3	19.7	0.00e+00	0	44	0	1224736768	63	4241
2026-01-26 01:37:24.77	230.67	16.34	-46.0	-47.4	19.6	0.00e+00	0	43	0	1226833920	63	4286
2026-01-26 01:37:25.78	230.62	16.23	-46.0	-47.5	19.6	0.00e+00	0	44	0	1228931072	63	4295
2026-01-26 01:37:26.79	230.57	16.12	-46.2	-47.7	19.4	0.00e+00	0	44	0	1231028224	63	4399
2026-01-26 01:37:27.80	230.53	16.01	-46.4	-47.9	19.1	0.00e+00	0	44	0	1232076800	63	4523
2026-01-26 01:37:28.80	230.48	15.90	-46.4	-47.9	19.1	0.00e+00	0	44	0	1234173952	63	4528
2026-01-26 01:37:29.81	230.43	15.79	-46.4	-47.9	19.2	0.00e+00	0	44	0	1236271104	63	4527
2026-01-26 01:37:30.82	230.39	15.68	-46.4	-48.0	19.1	0.00e+00	0	44	0	1238368256	63	4551
2026-01-26 01:37:31.83	230.34	15.57	-46.5	-48.1	18.9	0.00e+00	0	43	0	1240465408	63	4630
2026-01-26 01:37:32.84	230.30	15.47	-46.5	-48.1	18.9	0.00e+00	0	43	0	1242562560	63	4644
2026-01-26 01:37:33.84	230.25	15.36	-46.6	-48.2	18.9	0.00e+00	0	44	0	1243611136	63	4672
2026-01-26 01:37:34.85	230.21	15.25	-46.6	-48.2	18.8	0.00e+00	0	44	0	1245708288	63	4702
