passes_logs/2026/01/10/R2M6_AANII_01/R2M6_AANII_01__20260110_103153_NOAA_21_JPSS-2_rec.log

#Pass ID: 20260110_103153_NOAA 21 (JPSS-2)
#Satellite: NOAA 21 (JPSS-2)
#Configuration: NOAA 21
#almurnet v.1.7.20240730
#Start time: 2026-01-10 10:37:01

#Version: 2.2.20231116
#Station: R2M6_AANII_01
#Location: 30.233357 lon 59.946436 lat
#TLE: 1 54234U 22150A   26009.23291724  .00000115  00000+0  75298-4 0  9996
#TLE: 2 54234  98.7494 310.2026 0000856 324.9272  35.1848 14.19533567163994

#Time	Az	El	Level	Level2	SNR	BER	BlckErr	Temp	State	Recorded	gain1	gain2
2026-01-10 10:37:01.56	192.65	61.35	-33.8	-53.1	3.8	7.43e-01	0	42	0	0	28	33334
2026-01-10 10:37:02.54	193.12	61.71	-33.9	-45.1	3.8	1.49e+00	0	42	104	0	29	13121
2026-01-10 10:37:03.54	193.61	62.07	-33.9	-45.1	3.8	1.49e+00	0	42	104	0	29	13126
2026-01-10 10:37:04.54	194.12	62.44	-33.9	-45.2	3.8	1.49e+00	0	42	104	0	29	13218
2026-01-10 10:37:05.54	194.64	62.80	-34.0	-45.3	3.8	1.49e+00	0	42	104	0	29	13261
2026-01-10 10:37:06.54	195.18	63.16	-34.0	-45.4	3.8	1.49e+00	0	42	104	0	29	13301
2026-01-10 10:37:07.54	195.74	63.52	-34.0	-45.4	3.8	1.49e+00	0	42	104	0	29	13305
2026-01-10 10:37:08.54	196.31	63.89	-34.0	-45.4	3.8	1.49e+00	0	42	104	0	29	13338
2026-01-10 10:37:09.54	196.90	64.25	-34.0	-45.4	3.8	1.49e+00	0	42	104	0	29	13350
2026-01-10 10:37:10.54	197.51	64.61	-34.0	-45.4	3.8	1.49e+00	0	42	104	0	29	13325
2026-01-10 10:37:11.53	198.14	64.97	-34.0	-45.4	3.8	1.49e+00	0	42	104	0	29	13303
2026-01-10 10:37:12.54	198.79	65.33	-34.0	-45.3	3.8	1.49e+00	0	42	104	0	29	13229
2026-01-10 10:37:13.53	199.46	65.69	-34.0	-45.4	3.8	1.49e+00	0	42	104	0	29	13313
2026-01-10 10:37:14.53	200.15	66.04	-34.0	-45.4	3.8	1.49e+00	0	42	104	0	29	13298
2026-01-10 10:37:15.54	200.87	66.40	-34.1	-45.4	3.8	1.49e+00	0	42	104	0	29	13328
2026-01-10 10:37:16.54	201.61	66.75	-34.1	-45.5	3.8	1.49e+00	0	42	104	0	29	13365
2026-01-10 10:37:17.55	202.38	67.11	-34.2	-45.7	3.8	1.49e+00	0	42	104	0	29	13582
2026-01-10 10:37:18.56	203.18	67.46	-34.1	-45.6	3.8	1.49e+00	0	42	104	0	29	13527
2026-01-10 10:37:19.57	204.01	67.81	-33.9	-45.2	3.8	1.49e+00	0	42	104	0	29	13181
2026-01-10 10:37:20.57	204.86	68.15	-33.9	-45.0	3.8	1.49e+00	0	42	104	0	29	13031
2026-01-10 10:37:21.58	205.74	68.50	-33.8	-44.9	3.8	1.49e+00	0	42	104	0	29	12963
2026-01-10 10:37:22.58	206.65	68.83	-33.7	-45.3	3.8	1.49e+00	0	42	104	0	28	13656
2026-01-10 10:37:23.59	207.59	69.17	-33.7	-45.2	3.8	1.49e+00	0	42	104	0	28	13518
2026-01-10 10:37:24.60	208.57	69.50	-33.7	-45.2	3.8	1.49e+00	0	42	104	0	28	13461
2026-01-10 10:37:25.61	209.58	69.83	-33.7	-45.2	3.8	1.49e+00	0	42	104	0	28	13517
2026-01-10 10:37:26.62	210.63	70.15	-33.7	-45.2	3.8	1.49e+00	0	42	104	0	28	13547
2026-01-10 10:37:27.63	211.72	70.46	-33.7	-45.2	3.8	1.49e+00	0	42	104	0	28	13575
2026-01-10 10:37:28.64	212.84	70.77	-33.7	-45.2	3.8	1.49e+00	0	42	104	0	28	13555
2026-01-10 10:37:29.64	213.99	71.08	-33.7	-45.2	3.8	1.49e+00	0	42	104	0	28	13534
2026-01-10 10:37:30.64	215.18	71.37	-33.7	-45.2	3.8	1.49e+00	0	42	104	0	28	13547
2026-01-10 10:37:31.64	216.41	71.66	-33.7	-45.3	3.8	1.49e+00	0	42	104	0	28	13601
2026-01-10 10:37:32.65	217.69	71.94	-33.7	-45.2	3.8	1.49e+00	0	42	104	0	28	13544
2026-01-10 10:37:33.65	219.01	72.22	-33.7	-45.2	3.8	1.49e+00	0	42	104	0	28	13552
2026-01-10 10:37:34.66	220.37	72.48	-33.7	-45.2	3.8	1.49e+00	0	42	104	0	28	13561
2026-01-10 10:37:35.66	221.77	72.74	-33.7	-45.2	3.8	1.49e+00	0	42	104	0	28	13565
2026-01-10 10:37:36.67	223.23	72.99	-33.7	-45.2	3.8	1.49e+00	0	42	104	0	28	13535
2026-01-10 10:37:37.68	224.73	73.23	-33.7	-45.1	3.8	1.49e+00	0	42	104	0	28	13485
2026-01-10 10:37:38.69	226.27	73.45	-33.7	-45.2	3.8	1.49e+00	0	42	104	0	28	13587
2026-01-10 10:37:39.69	227.84	73.67	-33.7	-45.2	3.8	1.49e+00	0	42	104	0	28	13513
2026-01-10 10:37:40.70	229.47	73.87	-33.7	-45.1	3.8	1.49e+00	0	42	104	0	28	13458
2026-01-10 10:37:41.70	231.13	74.06	-33.7	-45.1	3.8	1.49e+00	0	42	104	0	28	13368
2026-01-10 10:37:42.71	232.84	74.24	-33.7	-45.1	3.8	1.49e+00	0	42	104	0	28	13427
2026-01-10 10:37:43.72	234.59	74.41	-33.7	-45.1	3.8	1.49e+00	0	42	104	0	28	13409
2026-01-10 10:37:44.72	236.37	74.56	-33.7	-45.1	3.8	1.49e+00	0	42	104	0	28	13442
2026-01-10 10:37:45.73	238.19	74.69	-33.7	-45.1	3.8	1.49e+00	0	42	104	0	28	13396
2026-01-10 10:37:46.74	240.05	74.81	-33.7	-45.1	3.8	1.49e+00	0	42	104	0	28	13268
2026-01-10 10:37:47.74	241.91	74.92	-33.7	-44.9	3.8	1.49e+00	0	42	104	0	28	13024
2026-01-10 10:37:48.75	243.83	75.01	-33.7	-45.0	3.8	1.49e+00	0	42	104	0	28	13208
2026-01-10 10:37:49.75	245.74	75.08	-33.8	-45.3	3.8	1.49e+00	0	42	104	0	28	13549
2026-01-10 10:37:50.76	247.69	75.14	-33.7	-45.1	3.8	1.49e+00	0	42	104	0	28	13403
2026-01-10 10:37:51.77	249.66	75.19	-33.6	-43.7	3.8	1.49e+00	0	42	104	0	28	11535
2026-01-10 10:37:52.78	251.63	75.21	-33.4	-42.1	3.9	1.48e+00	0	42	104	0	28	9859
2026-01-10 10:37:53.79	253.61	75.22	-33.3	-41.0	4.5	1.43e+00	0	42	104	0	27	8721
2026-01-10 10:37:54.80	255.59	75.21	-31.6	-35.3	8.6	2.78e-01	0	42	104	0	24	5471
2026-01-10 10:37:55.80	257.54	75.19	-29.1	-30.9	13.1	3.11e-04	0	42	104	0	19	4419
2026-01-10 10:37:56.81	259.51	75.14	-29.0	-30.6	13.4	9.90e-06	0	42	104	0	19	4326
2026-01-10 10:37:57.81	261.44	75.09	-29.4	-31.4	13.0	2.82e-05	0	42	104	0	19	4577
2026-01-10 10:37:58.82	263.37	75.01	-29.1	-30.8	13.4	2.51e-05	0	42	104	0	19	4373
2026-01-10 10:37:59.83	265.28	74.92	-28.7	-30.3	14.0	3.00e-06	0	42	104	0	18	4324
2026-01-10 10:38:00.84	267.16	74.81	-28.8	-30.6	13.9	3.00e-06	0	42	104	0	18	4409
2026-01-10 10:38:01.84	269.00	74.69	-29.2	-31.5	13.3	1.29e-05	0	42	104	0	18	4691
2026-01-10 10:38:02.84	270.81	74.56	-28.7	-30.3	14.0	6.10e-06	0	42	104	0	18	4339
2026-01-10 10:38:03.85	272.60	74.40	-27.9	-29.0	15.0	0.00e+00	0	42	104	0	17	4085
2026-01-10 10:38:04.85	274.33	74.24	-27.1	-28.2	15.8	0.00e+00	0	42	104	0	15	4077
2026-01-10 10:38:05.86	276.04	74.06	-26.5	-27.5	16.5	0.00e+00	0	42	104	0	14	4004
2026-01-10 10:38:06.86	277.70	73.87	-26.1	-27.1	16.8	0.00e+00	0	42	104	0	13	4005
2026-01-10 10:38:07.87	279.33	73.67	-26.4	-27.7	16.5	0.00e+00	0	42	104	0	13	4173
2026-01-10 10:38:08.88	280.91	73.45	-26.7	-28.4	16.2	0.00e+00	0	42	104	0	13	4359
2026-01-10 10:38:09.88	282.44	73.23	-26.5	-27.8	16.5	0.00e+00	0	42	104	0	13	4205
2026-01-10 10:38:10.89	283.94	72.99	-25.9	-26.5	17.2	0.00e+00	0	42	104	0	13	3868
2026-01-10 10:38:11.89	285.38	72.74	-25.5	-26.2	17.6	0.00e+00	0	42	104	0	12	3885
2026-01-10 10:38:12.90	286.79	72.49	-25.5	-26.3	17.6	0.00e+00	0	42	104	0	12	3912
2026-01-10 10:38:13.90	288.14	72.22	-25.9	-27.0	17.2	0.00e+00	0	42	104	0	12	4088
2026-01-10 10:38:14.91	289.47	71.95	-25.8	-26.8	17.3	0.00e+00	0	42	104	0	12	4046
2026-01-10 10:38:15.92	290.75	71.66	-26.0	-27.2	17.1	0.00e+00	0	42	104	0	12	4145
2026-01-10 10:38:16.93	291.99	71.37	-25.7	-26.6	17.2	0.00e+00	0	42	104	0	12	3986
2026-01-10 10:38:17.93	293.18	71.08	-25.4	-25.9	17.7	0.00e+00	0	42	104	0	12	3839
2026-01-10 10:38:18.94	294.34	70.78	-25.4	-26.1	17.7	0.00e+00	0	42	104	0	12	3866
2026-01-10 10:38:19.95	295.46	70.46	-25.8	-26.7	17.4	0.00e+00	0	42	104	0	12	4034
2026-01-10 10:38:20.96	296.54	70.15	-26.6	-28.2	16.4	0.00e+00	0	42	104	0	13	4296
2026-01-10 10:38:21.96	297.58	69.83	-27.3	-29.2	15.5	0.00e+00	0	42	104	0	14	4473
2026-01-10 10:38:22.97	298.59	69.50	-27.0	-28.6	15.8	0.00e+00	0	42	104	0	14	4322
2026-01-10 10:38:23.98	299.57	69.17	-26.0	-26.8	17.0	0.00e+00	0	42	104	0	13	3949
2026-01-10 10:38:24.98	300.51	68.84	-25.3	-26.2	17.9	7.00e-07	0	42	104	0	11	4003
2026-01-10 10:38:25.99	301.42	68.50	-25.9	-27.4	17.3	0.00e+00	0	42	104	0	11	4318
2026-01-10 10:38:27.00	302.30	68.16	-26.5	-27.9	16.4	0.00e+00	0	42	104	0	13	4226
2026-01-10 10:38:28.01	303.16	67.82	-27.1	-28.6	15.8	0.00e+00	0	42	104	0	14	4305
2026-01-10 10:38:29.01	303.97	67.47	-26.7	-27.9	16.2	0.00e+00	0	42	104	0	14	4117
2026-01-10 10:38:30.02	304.77	67.12	-26.2	-27.2	16.8	0.00e+00	0	42	104	0	13	4037
2026-01-10 10:38:31.03	305.54	66.77	-25.5	-26.2	17.6	7.00e-07	0	42	104	0	12	3888
2026-01-10 10:38:32.03	306.28	66.41	-25.4	-26.4	17.9	0.00e+00	0	42	104	0	11	4039
2026-01-10 10:38:33.05	307.01	66.05	-26.4	-28.1	16.6	0.00e+00	0	42	104	0	12	4393
2026-01-10 10:38:34.05	307.70	65.70	-26.7	-28.3	16.1	7.00e-07	0	42	104	0	13	4341
2026-01-10 10:38:35.06	308.38	65.34	-26.8	-28.5	16.1	0.00e+00	0	42	104	0	13	4387
2026-01-10 10:38:36.07	309.03	64.97	-27.1	-28.7	15.7	0.00e+00	0	42	104	0	14	4325
2026-01-10 10:38:37.07	309.66	64.61	-26.2	-27.3	16.6	7.00e-07	0	42	104	0	13	4064
2026-01-10 10:38:38.08	310.28	64.25	-26.1	-26.9	17.0	0.00e+00	0	42	104	0	13	3978
2026-01-10 10:38:39.08	310.87	63.89	-26.0	-26.9	17.0	0.00e+00	0	42	104	0	13	3957
2026-01-10 10:38:40.09	311.45	63.52	-26.4	-27.7	16.5	3.00e-06	0	42	104	0	13	4182
2026-01-10 10:38:41.10	312.01	63.16	-27.4	-29.3	15.4	0.00e+00	0	42	104	0	14	4504
2026-01-10 10:38:42.10	312.54	62.80	-27.4	-29.4	15.4	0.00e+00	0	42	104	0	14	4532
2026-01-10 10:38:43.11	313.07	62.43	-27.5	-29.1	15.3	5.30e-06	0	42	104	0	15	4317
2026-01-10 10:38:44.12	313.58	62.06	-26.5	-27.3	16.5	0.00e+00	0	42	104	0	14	3954
2026-01-10 10:38:45.13	314.08	61.70	-25.9	-26.4	17.2	0.00e+00	0	42	104	0	13	3847
2026-01-10 10:38:46.13	314.56	61.34	-25.6	-26.3	17.6	2.20e-06	0	42	104	0	12	3923
2026-01-10 10:38:47.14	315.02	60.97	-25.7	-26.6	17.5	0.00e+00	0	42	104	0	12	3982
2026-01-10 10:38:48.14	315.47	60.61	-26.2	-27.8	16.7	0.00e+00	0	42	104	0	12	4286
2026-01-10 10:38:49.14	315.91	60.25	-26.7	-28.3	16.3	0.00e+00	0	42	104	0	13	4317
2026-01-10 10:38:50.15	316.34	59.89	-27.2	-28.9	15.7	0.00e+00	0	42	104	0	14	4368
2026-01-10 10:38:51.16	316.76	59.52	-27.0	-28.4	15.9	0.00e+00	0	42	104	0	14	4249
2026-01-10 10:38:52.17	317.17	59.16	-26.4	-27.1	16.6	2.20e-06	0	42	104	0	14	3902
2026-01-10 10:38:53.18	317.56	58.80	-26.2	-27.1	16.8	0.00e+00	0	42	104	0	13	4023
2026-01-10 10:38:54.18	317.95	58.44	-26.1	-26.9	17.0	0.00e+00	0	42	104	0	13	3972
2026-01-10 10:38:55.19	318.32	58.08	-26.1	-27.1	16.9	0.00e+00	0	42	104	0	13	4002
2026-01-10 10:38:56.20	318.69	57.73	-26.3	-27.3	16.8	0.00e+00	0	42	104	0	13	4069
2026-01-10 10:38:57.21	319.04	57.37	-27.0	-28.5	15.9	0.00e+00	0	42	104	0	14	4271
2026-01-10 10:38:58.22	319.39	57.01	-27.5	-29.5	15.3	3.00e-06	0	42	104	0	14	4568
2026-01-10 10:38:59.22	319.73	56.66	-27.5	-29.1	15.2	0.00e+00	0	42	104	0	15	4328
2026-01-10 10:39:00.23	320.06	56.31	-27.0	-27.9	15.7	0.00e+00	0	42	104	0	15	4010
2026-01-10 10:39:01.24	320.38	55.96	-26.5	-27.3	16.4	0.00e+00	0	42	104	0	14	3965
2026-01-10 10:39:02.23	320.68	55.61	-26.7	-27.7	16.3	0.00e+00	0	42	104	0	14	4051
2026-01-10 10:39:03.24	320.99	55.27	-26.9	-28.3	16.0	0.00e+00	0	42	104	0	14	4204
2026-01-10 10:39:04.25	321.29	54.92	-27.1	-28.7	15.8	0.00e+00	0	42	104	0	14	4313
2026-01-10 10:39:05.26	321.58	54.57	-27.7	-29.6	15.0	0.00e+00	0	42	104	0	15	4479
2026-01-10 10:39:06.26	321.86	54.23	-27.9	-30.1	14.8	0.00e+00	0	42	104	0	15	4613
2026-01-10 10:39:07.26	322.14	53.89	-27.9	-30.0	14.8	0.00e+00	0	42	104	0	15	4590
2026-01-10 10:39:08.27	322.41	53.55	-28.1	-29.9	14.7	0.00e+00	0	42	104	0	16	4433
2026-01-10 10:39:09.28	322.68	53.21	-28.4	-30.7	14.2	2.20e-06	0	42	104	0	16	4668
2026-01-10 10:39:10.28	322.93	52.88	-28.4	-30.7	14.2	0.00e+00	0	42	104	0	16	4686
2026-01-10 10:39:11.29	323.19	52.54	-28.4	-30.2	14.2	6.80e-06	0	42	104	0	17	4417
2026-01-10 10:39:12.30	323.44	52.21	-28.3	-29.9	14.4	0.00e+00	0	42	104	0	17	4325
2026-01-10 10:39:13.30	323.68	51.88	-28.2	-29.7	14.5	2.20e-06	0	42	104	0	17	4264
2026-01-10 10:39:14.31	323.92	51.55	-28.1	-29.4	14.7	0.00e+00	0	42	104	0	17	4176
2026-01-10 10:39:15.32	324.15	51.22	-28.4	-30.1	14.3	1.50e-06	0	42	104	0	17	4376
2026-01-10 10:39:16.33	324.38	50.89	-29.3	-31.8	13.1	2.51e-05	0	42	104	0	18	4787
2026-01-10 10:39:17.33	324.60	50.57	-29.4	-32.2	12.8	5.56e-05	0	42	104	0	18	4927
2026-01-10 10:39:18.34	324.81	50.25	-29.5	-31.7	12.7	1.07e-04	0	42	104	0	19	4671
2026-01-10 10:39:19.35	325.03	49.93	-29.2	-31.0	13.2	4.34e-05	0	42	104	0	19	4431
2026-01-10 10:39:20.35	325.24	49.61	-29.4	-31.5	12.9	4.04e-05	0	42	104	0	19	4575
2026-01-10 10:39:21.35	325.44	49.30	-29.6	-32.0	12.6	1.05e-04	0	42	104	0	19	4739
2026-01-10 10:39:22.35	325.64	48.98	-29.4	-31.4	12.9	7.62e-05	0	42	104	0	19	4575
2026-01-10 10:39:23.36	325.84	48.67	-29.3	-31.3	13.0	4.80e-05	0	42	104	0	19	4537
2026-01-10 10:39:24.37	326.03	48.36	-29.3	-31.3	12.9	4.73e-05	0	42	104	0	19	4530
2026-01-10 10:39:25.37	326.22	48.05	-29.6	-32.0	12.5	9.53e-05	0	42	104	0	19	4773
2026-01-10 10:39:26.38	326.40	47.74	-29.5	-31.9	12.5	1.44e-04	0	42	104	0	19	4745
2026-01-10 10:39:27.39	326.58	47.44	-29.2	-31.0	12.9	4.73e-05	0	42	104	0	19	4460
2026-01-10 10:39:28.40	326.76	47.13	-29.0	-30.6	13.1	2.82e-05	0	42	104	0	19	4323
2026-01-10 10:39:29.41	326.94	46.83	-29.2	-31.0	13.1	2.28e-05	0	42	104	0	19	4448
2026-01-10 10:39:30.42	327.11	46.53	-29.5	-31.8	12.8	4.80e-05	0	42	104	0	19	4680
2026-01-10 10:39:31.43	327.28	46.23	-29.5	-31.8	12.7	8.31e-05	0	42	104	0	19	4691
2026-01-10 10:39:32.43	327.44	45.94	-29.5	-31.7	12.8	4.34e-05	0	42	104	0	19	4662
2026-01-10 10:39:33.44	327.61	45.64	-29.2	-31.0	13.2	2.59e-05	0	42	104	0	19	4439
2026-01-10 10:39:34.45	327.77	45.35	-29.3	-31.3	13.1	3.81e-05	0	42	104	0	19	4541
2026-01-10 10:39:35.45	327.92	45.06	-29.9	-32.9	12.1	1.53e-04	0	42	104	0	19	5056
2026-01-10 10:39:36.46	328.08	44.77	-30.2	-32.9	11.7	4.45e-04	0	42	104	0	20	4956
2026-01-10 10:39:37.46	328.23	44.49	-29.9	-32.2	12.1	4.58e-04	0	42	104	0	20	4722
2026-01-10 10:39:38.47	328.38	44.20	-29.5	-31.2	12.8	9.76e-05	0	42	104	0	20	4397
2026-01-10 10:39:39.47	328.52	43.92	-29.3	-31.2	13.1	4.42e-05	0	42	104	0	19	4477
2026-01-10 10:39:40.48	328.67	43.64	-29.2	-31.0	13.2	2.82e-05	0	42	104	0	19	4437
2026-01-10 10:39:41.49	328.81	43.36	-29.1	-30.8	13.3	2.13e-05	0	42	104	0	19	4378
2026-01-10 10:39:42.50	328.95	43.08	-29.3	-31.4	13.1	2.97e-05	0	42	104	0	19	4549
2026-01-10 10:39:43.51	329.08	42.81	-29.5	-31.8	12.8	6.48e-05	0	42	104	0	19	4672
2026-01-10 10:39:44.51	329.22	42.53	-29.6	-32.1	12.7	7.85e-05	0	42	104	0	19	4758
2026-01-10 10:39:45.53	329.35	42.26	-29.7	-32.1	12.6	7.70e-05	0	42	104	0	19	4785
2026-01-10 10:39:46.53	329.48	41.99	-29.5	-31.7	12.8	7.93e-05	0	42	104	0	19	4668
2026-01-10 10:39:47.54	329.61	41.72	-29.3	-31.1	13.2	2.59e-05	0	42	104	0	19	4470
2026-01-10 10:39:48.55	329.73	41.46	-29.1	-30.7	13.5	1.90e-05	0	42	104	0	19	4337
2026-01-10 10:39:49.55	329.86	41.19	-28.8	-30.0	13.8	2.20e-06	0	42	104	0	19	4152
2026-01-10 10:39:50.56	329.98	40.93	-28.7	-30.4	13.9	2.20e-06	0	42	104	0	18	4347
2026-01-10 10:39:51.57	330.10	40.67	-28.8	-30.6	13.8	7.00e-07	0	42	104	0	18	4409
2026-01-10 10:39:52.57	330.22	40.41	-29.2	-31.4	13.3	9.90e-06	0	42	104	0	18	4677
2026-01-10 10:39:53.57	330.33	40.16	-29.5	-32.2	13.0	4.34e-05	0	42	104	0	18	4918
2026-01-10 10:39:54.57	330.45	39.90	-29.5	-32.2	12.8	5.11e-05	0	42	104	0	18	4947
2026-01-10 10:39:55.58	330.56	39.65	-29.7	-32.3	12.6	6.17e-05	0	42	104	0	19	4830
2026-01-10 10:39:56.59	330.67	39.40	-29.4	-31.5	13.0	5.95e-05	0	42	104	0	19	4573
2026-01-10 10:39:57.59	330.78	39.15	-29.1	-30.7	13.5	1.75e-05	0	42	104	0	19	4331
2026-01-10 10:39:58.60	330.89	38.90	-28.7	-30.4	13.9	6.10e-06	0	42	104	0	18	4357
2026-01-10 10:39:59.61	331.00	38.65	-28.6	-30.1	14.1	4.50e-06	0	42	104	0	18	4288
2026-01-10 10:40:00.62	331.10	38.40	-28.7	-30.3	14.0	2.20e-06	0	42	104	0	18	4328
2026-01-10 10:40:01.62	331.20	38.16	-28.8	-30.6	13.8	1.50e-06	0	42	104	0	18	4414
2026-01-10 10:40:02.63	331.31	37.92	-28.8	-30.5	13.8	3.80e-06	0	42	104	0	18	4379
2026-01-10 10:40:03.63	331.41	37.68	-28.8	-30.5	13.8	3.80e-06	0	42	104	0	18	4401
2026-01-10 10:40:04.64	331.50	37.44	-28.7	-30.4	13.8	2.20e-06	0	42	104	0	18	4354
2026-01-10 10:40:05.65	331.60	37.20	-28.5	-30.0	14.0	2.20e-06	0	42	104	0	18	4244
2026-01-10 10:40:06.66	331.70	36.97	-28.7	-30.3	13.9	0.00e+00	0	42	104	0	18	4330
2026-01-10 10:40:07.66	331.79	36.74	-28.6	-30.1	14.1	3.00e-06	0	42	104	0	18	4267
2026-01-10 10:40:08.67	331.89	36.50	-28.9	-30.8	13.6	3.00e-06	0	42	104	0	18	4483
2026-01-10 10:40:09.68	331.98	36.27	-28.7	-30.3	14.0	6.80e-06	0	42	104	0	18	4324
2026-01-10 10:40:10.69	332.07	36.04	-29.1	-31.3	13.4	6.10e-06	0	42	104	0	18	4645
2026-01-10 10:40:11.69	332.16	35.82	-29.1	-31.3	13.4	2.13e-05	0	42	104	0	18	4635
2026-01-10 10:40:12.70	332.25	35.59	-29.2	-31.6	13.3	1.29e-05	0	42	104	0	18	4715
2026-01-10 10:40:13.70	332.34	35.37	-29.1	-31.3	13.4	1.29e-05	0	42	104	0	18	4626
2026-01-10 10:40:14.71	332.42	35.14	-29.1	-31.4	13.4	7.60e-06	0	42	104	0	18	4650
2026-01-10 10:40:15.72	332.51	34.92	-29.2	-31.4	13.3	1.98e-05	0	42	104	0	18	4673
2026-01-10 10:40:16.73	332.59	34.70	-29.1	-31.4	13.5	5.30e-06	0	42	104	0	18	4647
2026-01-10 10:40:17.73	332.68	34.48	-29.1	-30.7	13.6	1.37e-05	0	42	104	0	19	4322
2026-01-10 10:40:18.74	332.76	34.27	-29.4	-31.4	13.1	2.82e-05	0	42	104	0	19	4568
2026-01-10 10:40:19.75	332.84	34.05	-29.3	-31.3	13.2	2.44e-05	0	42	104	0	19	4517
2026-01-10 10:40:20.75	332.92	33.84	-29.5	-31.8	12.9	3.28e-05	0	42	104	0	19	4668
2026-01-10 10:40:21.75	333.00	33.63	-29.9	-32.2	12.3	1.46e-04	0	42	104	0	20	4718
2026-01-10 10:40:22.76	333.08	33.41	-30.2	-33.1	11.7	5.01e-04	0	42	104	0	20	5017
2026-01-10 10:40:23.77	333.16	33.20	-29.8	-32.0	12.3	3.17e-04	0	42	104	0	20	4655
2026-01-10 10:40:24.78	333.23	32.99	-29.4	-31.0	13.0	6.40e-05	0	42	104	0	20	4332
2026-01-10 10:40:25.78	333.31	32.79	-29.0	-30.5	13.6	1.22e-05	0	42	104	0	19	4301
2026-01-10 10:40:26.78	333.38	32.58	-28.5	-29.9	14.2	2.20e-06	0	42	104	0	18	4230
2026-01-10 10:40:27.79	333.46	32.38	-28.3	-29.8	14.5	7.00e-07	0	42	104	0	17	4301
2026-01-10 10:40:28.80	333.53	32.18	-28.1	-29.5	14.7	7.00e-07	0	42	104	0	17	4217
2026-01-10 10:40:29.81	333.60	31.97	-28.0	-29.2	14.8	0.00e+00	0	42	104	0	17	4148
2026-01-10 10:40:30.82	333.67	31.77	-27.9	-29.0	15.0	0.00e+00	0	42	104	0	17	4074
2026-01-10 10:40:31.83	333.74	31.57	-27.8	-28.8	15.1	0.00e+00	0	42	104	0	17	4025
2026-01-10 10:40:32.83	333.81	31.38	-28.1	-29.4	14.8	0.00e+00	0	42	104	0	17	4188
2026-01-10 10:40:33.84	333.88	31.18	-28.2	-29.7	14.6	0.00e+00	0	42	104	0	17	4261
2026-01-10 10:40:34.85	333.95	30.98	-28.1	-29.4	14.8	7.00e-07	0	42	104	0	17	4196
2026-01-10 10:40:35.86	334.02	30.79	-28.2	-29.6	14.6	7.00e-07	0	42	104	0	17	4240
2026-01-10 10:40:36.86	334.08	30.60	-28.2	-29.8	14.5	7.00e-07	0	42	104	0	17	4302
2026-01-10 10:40:37.87	334.15	30.41	-28.3	-29.8	14.5	0.00e+00	0	42	104	0	17	4309
2026-01-10 10:40:38.88	334.21	30.22	-28.3	-29.8	14.5	0.00e+00	0	42	104	0	17	4313
2026-01-10 10:40:39.89	334.28	30.03	-28.3	-29.9	14.4	7.00e-07	0	42	104	0	17	4331
2026-01-10 10:40:40.89	334.34	29.84	-28.7	-30.8	13.9	2.20e-06	0	42	104	0	17	4594
2026-01-10 10:40:41.89	334.40	29.65	-28.2	-29.8	14.4	7.00e-07	0	42	104	0	17	4294
2026-01-10 10:40:42.90	334.46	29.47	-27.7	-29.0	15.1	0.00e+00	0	42	104	0	16	4190
2026-01-10 10:40:43.91	334.53	29.28	-27.3	-28.1	15.6	0.00e+00	0	42	104	0	16	3962
2026-01-10 10:40:44.91	334.59	29.10	-26.8	-27.5	16.0	0.00e+00	0	42	104	0	15	3920
2026-01-10 10:40:45.92	334.65	28.92	-26.8	-28.0	16.1	0.00e+00	0	42	104	0	14	4141
2026-01-10 10:40:46.93	334.71	28.74	-26.9	-28.2	16.1	0.00e+00	0	42	104	0	14	4179
2026-01-10 10:40:47.93	334.77	28.56	-26.9	-28.2	16.1	0.00e+00	0	42	104	0	14	4175
2026-01-10 10:40:48.94	334.82	28.38	-27.0	-28.4	15.9	0.00e+00	0	42	104	0	14	4246
2026-01-10 10:40:49.94	334.88	28.21	-26.9	-28.3	16.0	0.00e+00	0	42	104	0	14	4222
2026-01-10 10:40:50.95	334.94	28.03	-27.2	-28.9	15.7	0.00e+00	0	42	104	0	14	4369
2026-01-10 10:40:51.95	334.99	27.85	-27.1	-28.6	15.9	0.00e+00	0	42	104	0	14	4293
2026-01-10 10:40:52.97	335.05	27.68	-27.0	-28.5	16.0	0.00e+00	0	42	104	0	14	4266
2026-01-10 10:40:53.97	335.11	27.51	-26.9	-28.3	16.1	0.00e+00	0	42	104	0	14	4203
2026-01-10 10:40:54.98	335.16	27.33	-27.0	-28.4	16.0	0.00e+00	0	42	104	0	14	4232
2026-01-10 10:40:55.98	335.22	27.16	-27.0	-28.5	15.9	0.00e+00	0	42	104	0	14	4281
2026-01-10 10:40:56.99	335.27	26.99	-27.0	-28.4	16.0	0.00e+00	0	42	104	0	14	4245
2026-01-10 10:40:57.99	335.32	26.83	-27.1	-28.7	15.8	7.00e-07	0	42	104	0	14	4338
2026-01-10 10:40:59.00	335.38	26.66	-27.0	-28.5	15.9	0.00e+00	0	42	104	0	14	4279
2026-01-10 10:41:00.00	335.43	26.49	-26.9	-28.2	16.1	0.00e+00	0	42	104	0	14	4187
2026-01-10 10:41:01.00	335.48	26.33	-26.9	-28.3	15.9	0.00e+00	0	42	104	0	14	4217
2026-01-10 10:41:02.01	335.53	26.16	-27.2	-28.8	15.7	0.00e+00	0	42	104	0	14	4366
2026-01-10 10:41:03.01	335.58	26.00	-27.3	-29.1	15.6	0.00e+00	0	42	104	0	14	4429
2026-01-10 10:41:04.02	335.63	25.84	-27.0	-28.4	15.9	0.00e+00	0	42	104	0	14	4247
2026-01-10 10:41:05.03	335.68	25.67	-27.2	-28.9	15.6	0.00e+00	0	42	104	0	14	4401
2026-01-10 10:41:06.04	335.73	25.51	-27.2	-28.8	15.8	0.00e+00	0	42	104	0	14	4354
2026-01-10 10:41:07.05	335.78	25.35	-27.0	-28.5	15.9	0.00e+00	0	42	104	0	14	4280
2026-01-10 10:41:08.05	335.83	25.20	-27.2	-29.0	15.6	0.00e+00	0	42	104	0	14	4404
2026-01-10 10:41:09.05	335.88	25.04	-27.4	-28.9	15.4	0.00e+00	0	42	104	0	15	4288
2026-01-10 10:41:10.06	335.92	24.88	-27.5	-29.3	15.2	0.00e+00	0	42	104	0	15	4406
2026-01-10 10:41:11.06	335.97	24.73	-27.2	-28.6	15.5	0.00e+00	0	42	104	0	15	4206
2026-01-10 10:41:12.07	336.02	24.57	-27.1	-28.3	15.7	0.00e+00	0	42	104	0	15	4107
2026-01-10 10:41:13.07	336.06	24.42	-27.0	-28.0	15.9	0.00e+00	0	42	104	0	15	4032
2026-01-10 10:41:14.07	336.11	24.26	-26.9	-27.8	16.0	0.00e+00	0	42	104	0	15	3980
2026-01-10 10:41:15.08	336.16	24.11	-26.9	-27.7	16.0	0.00e+00	0	42	104	0	15	3953
2026-01-10 10:41:16.09	336.20	23.96	-26.9	-27.7	16.0	0.00e+00	0	42	104	0	15	3957
2026-01-10 10:41:17.09	336.24	23.81	-26.9	-27.8	15.9	0.00e+00	0	42	104	0	15	3991
2026-01-10 10:41:18.10	336.29	23.66	-26.8	-27.6	16.1	0.00e+00	0	42	104	0	15	3934
2026-01-10 10:41:19.10	336.33	23.51	-26.9	-27.6	16.1	0.00e+00	0	42	104	0	15	3936
2026-01-10 10:41:20.10	336.38	23.36	-26.9	-27.7	15.9	0.00e+00	0	42	104	0	15	3971
2026-01-10 10:41:21.11	336.42	23.22	-27.3	-28.6	15.5	0.00e+00	0	42	104	0	15	4192
2026-01-10 10:41:22.12	336.46	23.07	-27.0	-28.0	15.8	0.00e+00	0	42	104	0	15	4030
2026-01-10 10:41:23.13	336.51	22.92	-27.1	-28.3	15.6	0.00e+00	0	42	104	0	15	4119
2026-01-10 10:41:24.13	336.55	22.78	-27.0	-28.1	15.7	0.00e+00	0	42	104	0	15	4073
2026-01-10 10:41:25.14	336.59	22.63	-27.1	-28.3	15.6	0.00e+00	0	42	104	0	15	4109
2026-01-10 10:41:26.15	336.63	22.49	-27.2	-28.5	15.4	0.00e+00	0	42	104	0	15	4169
2026-01-10 10:41:27.16	336.67	22.35	-27.3	-28.8	15.3	0.00e+00	0	42	104	0	15	4251
2026-01-10 10:41:28.17	336.71	22.20	-27.3	-28.7	15.4	0.00e+00	0	42	104	0	15	4224
2026-01-10 10:41:29.17	336.75	22.06	-27.2	-28.4	15.5	0.00e+00	0	42	104	0	15	4152
2026-01-10 10:41:30.18	336.79	21.92	-27.3	-28.6	15.4	0.00e+00	0	42	104	0	15	4207
2026-01-10 10:41:31.19	336.83	21.78	-27.3	-28.7	15.3	0.00e+00	0	42	104	0	15	4236
2026-01-10 10:41:32.20	336.87	21.64	-27.1	-28.4	15.4	0.00e+00	0	42	104	0	15	4146
2026-01-10 10:41:33.20	336.91	21.51	-27.0	-28.1	15.6	0.00e+00	0	42	104	0	15	4080
2026-01-10 10:41:34.21	336.95	21.37	-27.0	-28.0	15.7	0.00e+00	0	42	104	0	15	4034
2026-01-10 10:41:35.21	336.99	21.23	-27.0	-28.1	15.6	0.00e+00	0	42	104	0	15	4080
2026-01-10 10:41:36.23	337.03	21.10	-26.9	-27.8	15.8	0.00e+00	0	42	104	0	15	3996
2026-01-10 10:41:37.23	337.07	20.96	-26.8	-27.7	15.8	0.00e+00	0	42	104	0	15	3961
2026-01-10 10:41:38.23	337.10	20.83	-26.8	-27.6	15.9	0.00e+00	0	42	104	0	15	3943
2026-01-10 10:41:39.24	337.14	20.69	-26.7	-27.9	15.9	7.00e-07	0	42	104	0	14	4129
2026-01-10 10:41:40.24	337.18	20.56	-26.7	-27.8	16.0	0.00e+00	0	42	104	0	14	4110
2026-01-10 10:41:41.25	337.21	20.43	-26.6	-27.5	16.1	0.00e+00	0	42	104	0	14	4029
2026-01-10 10:41:42.25	337.25	20.30	-26.6	-27.5	16.1	0.00e+00	0	42	104	0	14	4030
2026-01-10 10:41:43.25	337.29	20.17	-26.7	-27.8	15.9	0.00e+00	0	42	104	0	14	4114
2026-01-10 10:41:44.26	337.32	20.04	-26.7	-27.8	16.0	0.00e+00	0	42	104	0	14	4094
2026-01-10 10:41:45.27	337.36	19.91	-26.7	-27.9	15.8	0.00e+00	0	42	104	0	14	4137
2026-01-10 10:41:46.27	337.39	19.78	-27.0	-28.5	15.6	0.00e+00	0	42	104	0	14	4295
2026-01-10 10:41:47.27	337.43	19.65	-26.8	-28.0	15.8	0.00e+00	0	42	104	0	14	4152
2026-01-10 10:41:48.28	337.46	19.53	-26.6	-27.7	15.9	0.00e+00	0	42	104	0	14	4074
2026-01-10 10:41:49.29	337.50	19.40	-26.6	-27.6	16.0	0.00e+00	0	42	104	0	14	4060
2026-01-10 10:41:50.30	337.53	19.27	-26.7	-27.8	15.9	0.00e+00	0	42	104	0	14	4100
2026-01-10 10:41:51.30	337.57	19.15	-26.6	-27.7	15.9	0.00e+00	0	42	104	0	14	4074
2026-01-10 10:41:52.31	337.60	19.02	-26.6	-27.8	15.8	0.00e+00	0	42	104	0	14	4093
2026-01-10 10:41:53.31	337.63	18.90	-26.9	-28.3	15.5	0.00e+00	0	42	104	0	14	4250
2026-01-10 10:41:54.32	337.67	18.77	-26.8	-28.1	15.7	0.00e+00	0	42	104	0	14	4177
2026-01-10 10:41:55.32	337.70	18.65	-26.9	-28.3	15.5	0.00e+00	0	42	104	0	14	4239
2026-01-10 10:41:56.33	337.73	18.53	-27.1	-28.8	15.3	0.00e+00	0	42	104	0	14	4374
2026-01-10 10:41:57.33	337.77	18.41	-27.1	-28.8	15.3	0.00e+00	0	42	104	0	14	4380
2026-01-10 10:41:58.34	337.80	18.28	-27.1	-28.8	15.4	0.00e+00	0	42	104	0	14	4369
2026-01-10 10:41:59.35	337.83	18.16	-27.3	-28.8	15.2	7.00e-07	0	42	104	0	15	4247
2026-01-10 10:42:00.36	337.86	18.04	-27.3	-28.8	15.1	0.00e+00	0	42	104	0	15	4250
2026-01-10 10:42:01.37	337.90	17.92	-27.5	-29.3	14.8	0.00e+00	0	42	104	0	15	4390
2026-01-10 10:42:02.38	337.93	17.80	-27.4	-28.9	15.0	0.00e+00	0	42	104	0	15	4285
2026-01-10 10:42:03.38	337.96	17.69	-27.2	-28.4	15.2	0.00e+00	0	42	104	0	15	4161
2026-01-10 10:42:04.38	337.99	17.57	-27.0	-28.1	15.4	0.00e+00	0	42	104	0	15	4082
2026-01-10 10:42:05.39	338.02	17.45	-27.1	-28.3	15.3	0.00e+00	0	42	104	0	15	4133
2026-01-10 10:42:06.40	338.05	17.33	-27.3	-28.6	15.2	0.00e+00	0	42	104	0	15	4213
2026-01-10 10:42:07.41	338.08	17.22	-27.1	-28.2	15.4	0.00e+00	0	42	104	0	15	4096
2026-01-10 10:42:08.41	338.11	17.10	-27.2	-28.4	15.3	0.00e+00	0	42	104	0	15	4157
2026-01-10 10:42:09.41	338.14	16.99	-27.3	-28.6	15.2	0.00e+00	0	42	104	0	15	4212
2026-01-10 10:42:10.42	338.17	16.87	-27.2	-28.6	15.1	0.00e+00	0	42	104	0	15	4209
2026-01-10 10:42:11.43	338.20	16.76	-27.3	-28.7	15.0	0.00e+00	0	42	104	0	15	4253
2026-01-10 10:42:12.43	338.23	16.65	-27.3	-28.8	15.0	0.00e+00	0	42	104	0	15	4269
2026-01-10 10:42:13.43	338.26	16.53	-27.4	-28.9	14.9	0.00e+00	0	42	104	0	15	4298
2026-01-10 10:42:14.44	338.29	16.42	-27.4	-28.9	14.9	0.00e+00	0	42	104	0	15	4309
2026-01-10 10:42:15.44	338.32	16.31	-27.4	-29.0	14.8	7.00e-07	0	42	104	0	15	4317
2026-01-10 10:42:16.44	338.35	16.20	-27.4	-29.1	14.8	0.00e+00	0	42	104	0	15	4341
2026-01-10 10:42:17.45	338.38	16.09	-27.4	-29.1	14.8	7.00e-07	0	42	104	0	15	4353
2026-01-10 10:42:18.46	338.41	15.98	-27.5	-29.2	14.7	0.00e+00	0	42	104	0	15	4399
2026-01-10 10:42:19.47	338.44	15.87	-27.6	-29.4	14.6	0.00e+00	0	42	104	0	15	4443
2026-01-10 10:42:20.47	338.46	15.76	-27.5	-29.2	14.7	0.00e+00	0	42	104	0	15	4384
2026-01-10 10:42:21.47	338.49	15.65	-27.6	-29.5	14.5	7.00e-07	0	42	104	0	15	4477
2026-01-10 10:42:22.48	338.52	15.54	-27.6	-29.5	14.5	0.00e+00	0	42	104	0	15	4477
2026-01-10 10:42:23.49	338.55	15.43	-27.6	-29.4	14.5	7.00e-07	0	42	104	0	15	4460
2026-01-10 10:42:24.49	338.57	15.32	-27.7	-29.6	14.4	7.00e-07	0	42	104	0	15	4522
2026-01-10 10:42:25.50	338.60	15.22	-27.7	-29.7	14.3	7.00e-07	0	42	104	0	15	4544
2026-01-10 10:42:26.51	338.63	15.11	-27.6	-29.6	14.4	2.20e-06	0	42	104	0	15	4508
2026-01-10 10:42:27.51	338.66	15.00	-27.6	-29.5	14.4	7.00e-07	0	42	104	0	15	4477
2026-01-10 10:42:28.51	338.68	14.90	-27.7	-29.7	14.3	0.00e+00	0	42	104	0	15	4529
2026-01-10 10:42:29.52	338.71	14.79	-27.7	-29.7	14.3	1.50e-06	0	42	104	0	15	4534
2026-01-10 10:42:30.53	338.74	14.69	-27.7	-29.8	14.2	1.50e-06	0	42	104	0	15	4588
2026-01-10 10:42:31.54	338.76	14.58	-27.7	-29.8	14.2	1.50e-06	0	42	104	0	15	4571
2026-01-10 10:42:32.55	338.79	14.48	-27.8	-30.0	14.1	1.50e-06	0	42	104	0	15	4648
2026-01-10 10:42:33.56	338.81	14.38	-27.8	-30.0	14.1	1.50e-06	0	42	104	0	15	4633
2026-01-10 10:42:34.56	338.84	14.27	-27.7	-29.8	14.1	1.50e-06	0	42	104	0	15	4593
2026-01-10 10:42:35.57	338.87	14.17	-27.8	-30.0	14.1	1.50e-06	0	42	104	0	15	4628
2026-01-10 10:42:36.58	338.89	14.07	-27.8	-30.0	14.0	2.20e-06	0	42	104	0	15	4650
2026-01-10 10:42:37.58	338.92	13.97	-27.9	-30.2	13.9	1.50e-06	0	42	104	0	15	4703
2026-01-10 10:42:38.59	338.94	13.86	-28.1	-30.2	13.8	4.50e-06	0	42	104	0	16	4570
2026-01-10 10:42:39.59	338.97	13.76	-27.9	-29.8	14.0	4.50e-06	0	42	104	0	16	4447
2026-01-10 10:42:40.60	338.99	13.66	-27.9	-29.8	14.0	2.20e-06	0	42	104	0	16	4450
2026-01-10 10:42:41.61	339.02	13.56	-28.0	-30.0	13.9	3.00e-06	0	42	104	0	16	4530
2026-01-10 10:42:42.61	339.04	13.46	-28.0	-29.8	14.0	3.00e-06	0	42	104	0	16	4466
2026-01-10 10:42:43.62	339.07	13.36	-28.1	-30.3	13.7	4.50e-06	0	42	104	0	16	4619
2026-01-10 10:42:44.63	339.09	13.26	-28.2	-30.4	13.6	7.60e-06	0	42	104	0	16	4640
2026-01-10 10:42:45.64	339.12	13.17	-28.2	-30.5	13.5	9.10e-06	0	42	104	0	16	4687
2026-01-10 10:42:46.65	339.14	13.07	-28.3	-30.7	13.4	1.37e-05	0	42	104	0	16	4747
2026-01-10 10:42:47.66	339.16	12.97	-28.2	-30.5	13.5	7.60e-06	0	42	104	0	16	4687
2026-01-10 10:42:48.67	339.19	12.87	-28.2	-30.4	13.6	8.30e-06	0	42	104	0	16	4636
2026-01-10 10:42:49.68	339.21	12.77	-28.3	-30.6	13.5	1.44e-05	0	42	104	0	16	4710
2026-01-10 10:42:50.68	339.24	12.68	-28.2	-30.5	13.5	8.30e-06	0	42	104	0	16	4687
2026-01-10 10:42:51.69	339.26	12.58	-28.4	-30.9	13.3	1.52e-05	0	42	104	0	16	4797
2026-01-10 10:42:52.69	339.28	12.49	-28.2	-30.6	13.5	1.22e-05	0	42	104	0	16	4699
2026-01-10 10:42:53.70	339.31	12.39	-28.1	-30.2	13.6	8.30e-06	0	42	104	0	16	4597
2026-01-10 10:42:54.70	339.33	12.30	-28.1	-30.1	13.7	4.50e-06	0	42	104	0	16	4568
2026-01-10 10:42:55.71	339.35	12.20	-28.1	-30.2	13.7	9.90e-06	0	42	104	0	16	4580
2026-01-10 10:42:56.72	339.38	12.11	-28.3	-30.6	13.4	8.30e-06	0	42	104	0	16	4728
2026-01-10 10:42:57.72	339.40	12.01	-28.3	-30.7	13.3	1.67e-05	0	42	104	0	16	4761
2026-01-10 10:42:58.73	339.42	11.92	-28.5	-30.7	13.0	4.42e-05	0	42	104	0	17	4651
2026-01-10 10:42:59.73	339.44	11.83	-28.5	-30.7	13.0	3.43e-05	0	42	104	0	17	4648
2026-01-10 10:43:00.74	339.47	11.73	-28.4	-30.4	13.2	1.67e-05	0	42	104	0	17	4549
2026-01-10 10:43:01.75	339.49	11.64	-28.4	-30.3	13.2	2.74e-05	0	42	104	0	17	4521
2026-01-10 10:43:02.75	339.51	11.55	-28.3	-30.2	13.4	1.60e-05	0	42	104	0	17	4480
2026-01-10 10:43:03.75	339.53	11.46	-28.4	-30.5	13.2	1.83e-05	0	42	104	0	17	4571
2026-01-10 10:43:04.76	339.55	11.37	-28.3	-30.1	13.4	1.75e-05	0	42	104	0	17	4442
2026-01-10 10:43:05.76	339.58	11.28	-28.1	-29.8	13.6	8.30e-06	0	42	104	0	17	4365
2026-01-10 10:43:06.77	339.60	11.18	-28.3	-30.2	13.3	1.67e-05	0	42	104	0	17	4493
2026-01-10 10:43:07.77	339.62	11.09	-28.2	-29.9	13.5	1.06e-05	0	42	104	0	17	4405
2026-01-10 10:43:08.78	339.64	11.00	-28.3	-30.2	13.3	1.67e-05	0	42	104	0	17	4466
2026-01-10 10:43:09.78	339.66	10.91	-28.2	-30.0	13.4	1.29e-05	0	42	104	0	17	4426
2026-01-10 10:43:10.78	339.68	10.83	-28.3	-30.3	13.3	1.44e-05	0	42	104	0	17	4501
2026-01-10 10:43:11.79	339.71	10.74	-28.3	-30.3	13.2	2.51e-05	0	42	104	0	17	4519
2026-01-10 10:43:12.80	339.73	10.65	-28.2	-30.0	13.3	1.52e-05	0	42	104	0	17	4435
2026-01-10 10:43:13.80	339.75	10.56	-28.4	-30.5	13.1	2.13e-05	0	42	104	0	17	4581
2026-01-10 10:43:14.80	339.77	10.47	-28.4	-30.4	13.1	4.27e-05	0	42	104	0	17	4549
2026-01-10 10:43:15.81	339.79	10.38	-28.3	-30.3	13.2	2.21e-05	0	42	104	0	17	4520
2026-01-10 10:43:16.82	339.81	10.30	-28.5	-30.6	13.1	2.97e-05	0	42	104	0	17	4601
2026-01-10 10:43:17.82	339.83	10.21	-28.4	-30.4	13.2	3.20e-05	0	42	104	0	17	4544
2026-01-10 10:43:18.83	339.85	10.12	-28.5	-30.8	13.0	2.89e-05	0	42	104	0	17	4665
2026-01-10 10:43:19.84	339.87	10.03	-28.4	-30.4	13.1	4.19e-05	0	42	104	0	17	4558
2026-01-10 10:43:20.84	339.89	9.95	-28.3	-30.3	13.2	2.44e-05	0	42	104	0	17	4524
2026-01-10 10:43:21.86	339.91	9.86	-28.4	-30.4	13.1	1.67e-05	0	42	104	0	17	4532
2026-01-10 10:43:22.86	339.93	9.78	-28.4	-30.5	13.1	3.73e-05	0	42	104	0	17	4576
2026-01-10 10:43:23.86	339.95	9.69	-28.5	-30.8	12.9	4.04e-05	0	42	104	0	17	4682
2026-01-10 10:43:24.87	339.97	9.61	-28.5	-30.7	12.9	4.73e-05	0	42	104	0	17	4635
2026-01-10 10:43:25.88	339.99	9.52	-28.5	-30.8	12.8	7.17e-05	0	42	104	0	17	4687
2026-01-10 10:43:26.89	340.01	9.44	-28.5	-30.8	12.8	5.03e-05	0	42	104	0	17	4697
2026-01-10 10:43:27.89	340.03	9.35	-28.7	-31.2	12.5	1.11e-04	0	42	104	0	17	4812
2026-01-10 10:43:28.90	340.05	9.27	-28.6	-31.0	12.6	8.08e-05	0	42	104	0	17	4763
2026-01-10 10:43:29.90	340.07	9.18	-28.5	-30.8	12.8	6.86e-05	0	42	104	0	17	4669
2026-01-10 10:43:30.91	340.09	9.10	-28.5	-30.7	12.8	5.41e-05	0	42	104	0	17	4648
2026-01-10 10:43:31.91	340.11	9.02	-28.5	-30.8	12.7	7.70e-05	0	42	104	0	17	4702
2026-01-10 10:43:32.92	340.13	8.93	-28.5	-30.9	12.7	9.15e-05	0	42	104	0	17	4707
2026-01-10 10:43:33.93	340.15	8.85	-28.4	-30.6	12.8	6.25e-05	0	42	104	0	17	4633
2026-01-10 10:43:34.93	340.17	8.77	-28.7	-31.4	12.4	1.27e-04	0	42	104	0	17	4885
2026-01-10 10:43:35.94	340.19	8.69	-28.6	-31.0	12.6	1.11e-04	0	42	104	0	17	4752
2026-01-10 10:43:36.95	340.21	8.60	-28.6	-31.0	12.6	1.19e-04	0	42	104	0	17	4752
2026-01-10 10:43:37.96	340.23	8.52	-28.7	-31.3	12.3	1.95e-04	0	42	104	0	17	4869
2026-01-10 10:43:38.96	340.24	8.44	-28.6	-31.1	12.5	1.28e-04	0	42	104	0	17	4782
2026-01-10 10:43:39.97	340.26	8.36	-28.9	-31.7	12.1	1.64e-04	0	42	104	0	17	5006
2026-01-10 10:43:40.98	340.28	8.28	-28.7	-31.4	12.2	2.49e-04	0	42	104	0	17	4918
2026-01-10 10:43:41.98	340.30	8.20	-28.7	-31.4	12.3	2.01e-04	0	42	104	0	17	4886
2026-01-10 10:43:42.99	340.32	8.12	-29.1	-31.9	11.6	5.50e-04	0	42	104	0	18	4970
2026-01-10 10:43:43.99	340.34	8.04	-28.7	-30.8	12.3	1.88e-04	0	42	104	0	18	4593
2026-01-10 10:43:45.00	340.36	7.96	-28.9	-31.3	12.0	2.06e-04	0	42	104	0	18	4754
2026-01-10 10:43:46.01	340.37	7.88	-29.1	-31.9	11.7	3.73e-04	0	42	104	0	18	4954
2026-01-10 10:43:47.02	340.39	7.80	-29.1	-31.8	11.7	4.06e-04	0	42	104	0	18	4929
2026-01-10 10:43:48.02	340.41	7.72	-29.2	-32.1	11.4	8.36e-04	0	42	104	0	18	5047
2026-01-10 10:43:49.03	340.43	7.64	-29.1	-31.8	11.6	6.43e-04	0	42	104	0	18	4937
2026-01-10 10:43:50.04	340.45	7.56	-29.0	-31.7	11.7	6.06e-04	0	42	104	0	18	4899
2026-01-10 10:43:51.05	340.47	7.48	-29.4	-32.6	11.3	9.45e-04	0	42	104	0	18	5203
2026-01-10 10:43:52.05	340.48	7.41	-29.3	-32.3	11.4	9.95e-04	0	42	104	0	18	5096
2026-01-10 10:43:53.06	340.50	7.33	-29.4	-32.7	11.1	1.11e-03	0	42	104	0	18	5251
2026-01-10 10:43:54.07	340.52	7.25	-29.2	-32.1	11.5	1.04e-03	0	42	104	0	18	5014
2026-01-10 10:43:55.07	340.54	7.17	-29.0	-31.7	11.7	5.35e-04	0	42	104	0	18	4901
2026-01-10 10:43:56.08	340.55	7.10	-28.9	-31.4	11.9	6.24e-04	0	42	104	0	18	4776
2026-01-10 10:43:57.08	340.57	7.02	-32.9	-45.0	3.8	1.49e+00	0	42	104	0	25	14503
2026-01-10 10:43:58.08	340.59	6.94	-33.3	-45.3	3.8	1.49e+00	0	42	104	0	26	14444

#Closed at: 2026-01-10 10:43:58
#Recorded file [0 MB]: D:/data/31010_260110_133701.dat