passes_logs/2026/01/10/R2M6_AANII_01/R2M6_AANII_01__20260110_012935_NOAA_20_JPSS-1_rec.log

#Pass ID: 20260110_012935_NOAA 20 (JPSS-1)
#Satellite: NOAA 20 (JPSS-1)
#Configuration: NOAA 20
#almurnet v.1.7.20240730
#Start time: 2026-01-10 01:29:36

#Version: 2.2.20231116
#Station: R2M6_AANII_01
#Location: 30.233357 lon 59.946436 lat
#TLE: 1 43013U 17073A   26009.26828276  .00000112  00000+0  74203-4 0  9990
#TLE: 2 43013  98.7631 310.2683 0001700  47.4387 312.6933 14.19534764421920

#Time	Az	El	Level	Level2	SNR	BER	BlckErr	Temp	State	Recorded	gain1	gain2
2026-01-10 01:29:36.68	12.96	7.11	-32.3	-40.8	4.4	1.39e+00	0	39	0	0	24	9597
2026-01-10 01:29:37.68	12.91	7.18	-32.0	-38.7	4.9	1.34e+00	0	39	104	0	24	7767
2026-01-10 01:29:38.67	12.85	7.26	-32.2	-39.6	6.4	2.73e-01	0	39	0	0	24	8509
2026-01-10 01:29:39.68	12.79	7.33	-32.2	-39.5	6.4	2.50e-01	0	40	0	1048576	24	8399
2026-01-10 01:29:40.68	12.74	7.40	-31.8	-38.1	7.9	5.96e-02	0	40	0	3145728	23	7447
2026-01-10 01:29:41.68	12.68	7.48	-31.7	-37.4	8.6	4.42e-02	0	40	0	5242880	23	6993
2026-01-10 01:29:42.68	12.62	7.55	-32.1	-39.0	6.9	4.53e-02	0	40	0	7340032	24	7962
2026-01-10 01:29:43.68	12.56	7.62	-31.6	-37.2	8.6	6.30e-02	0	40	0	8388608	23	6822
2026-01-10 01:29:44.67	12.51	7.70	-32.3	-39.8	6.1	3.71e-01	0	40	0	10485760	25	8491
2026-01-10 01:29:45.68	12.45	7.77	-32.3	-40.4	6.2	1.22e-01	0	40	0	12582912	24	9100
2026-01-10 01:29:46.68	12.39	7.84	-32.3	-40.1	6.2	2.43e-01	0	40	0	14680064	24	8849
2026-01-10 01:29:47.68	12.33	7.92	-32.4	-40.7	5.8	3.69e-01	0	40	0	16777216	24	9370
2026-01-10 01:29:48.68	12.27	7.99	-32.3	-40.1	6.6	3.68e-01	0	40	0	17825792	24	8796
2026-01-10 01:29:49.68	12.21	8.07	-32.5	-40.9	5.3	6.19e-01	0	40	0	19922944	25	9486
2026-01-10 01:29:50.68	12.15	8.14	-31.5	-36.2	9.3	2.59e-01	0	40	0	22020096	24	6197
2026-01-10 01:29:51.68	12.09	8.22	-31.9	-38.0	7.8	9.05e-02	0	40	0	24117248	24	7235
2026-01-10 01:29:52.68	12.03	8.29	-31.9	-38.5	7.7	1.45e-01	0	40	0	26214400	23	7696
2026-01-10 01:29:53.68	11.97	8.37	-31.8	-37.6	8.0	1.02e-01	0	40	0	27262976	24	6979
2026-01-10 01:29:54.68	11.90	8.44	-32.1	-38.7	7.4	1.52e-01	0	40	0	29360128	24	7734
2026-01-10 01:29:55.66	11.84	8.52	-32.0	-38.2	7.7	7.67e-02	0	40	0	31457280	24	7352
2026-01-10 01:29:56.67	11.78	8.60	-31.9	-37.8	7.9	1.06e-01	0	40	0	33554432	24	7128
2026-01-10 01:29:57.67	11.72	8.67	-31.9	-38.1	7.7	9.23e-02	0	40	0	34603008	24	7324
2026-01-10 01:29:58.67	11.66	8.75	-32.1	-38.9	7.2	2.00e-01	0	40	0	36700160	24	7869
2026-01-10 01:29:59.67	11.59	8.82	-32.5	-41.0	5.7	1.69e-01	0	40	0	38797312	24	9624
2026-01-10 01:30:00.67	11.53	8.90	-32.4	-40.0	6.0	5.04e-01	0	40	0	40894464	25	8672
2026-01-10 01:30:01.68	11.46	8.98	-31.9	-38.0	7.7	2.77e-01	0	40	0	42991616	24	7251
2026-01-10 01:30:02.68	11.40	9.06	-32.0	-38.5	7.4	6.68e-02	0	40	0	44040192	24	7580
2026-01-10 01:30:03.68	11.34	9.13	-31.8	-37.4	8.9	4.16e-02	0	40	0	46137344	23	6898
2026-01-10 01:30:04.68	11.27	9.21	-31.9	-38.1	8.4	4.81e-02	0	40	0	48234496	23	7320
2026-01-10 01:30:05.69	11.20	9.29	-32.1	-38.5	7.6	8.68e-02	0	40	0	50331648	24	7534
2026-01-10 01:30:06.69	11.14	9.37	-32.0	-38.2	7.9	9.48e-02	0	40	0	52428800	24	7290
2026-01-10 01:30:07.69	11.07	9.45	-32.1	-38.3	7.7	9.52e-02	0	40	0	53477376	24	7421
2026-01-10 01:30:08.69	11.01	9.52	-31.9	-37.7	8.2	6.79e-02	0	40	0	55574528	24	7010
2026-01-10 01:30:09.69	10.94	9.60	-31.8	-37.7	8.6	4.95e-02	0	40	0	57671680	23	7102
2026-01-10 01:30:10.69	10.87	9.68	-31.8	-37.7	8.6	3.61e-02	0	40	0	59768832	23	7065
2026-01-10 01:30:11.69	10.80	9.76	-31.9	-38.0	8.4	3.44e-02	0	40	0	61865984	23	7279
2026-01-10 01:30:12.69	10.74	9.84	-31.8	-37.6	8.7	5.59e-02	0	40	0	62914560	23	7012
2026-01-10 01:30:13.69	10.67	9.92	-31.6	-36.6	9.5	2.50e-02	0	40	0	65011712	23	6467
2026-01-10 01:30:14.69	10.60	10.00	-31.3	-35.7	10.2	7.55e-03	0	41	0	67108864	23	5957
2026-01-10 01:30:15.70	10.53	10.08	-31.4	-35.9	10.0	1.19e-02	0	40	0	69206016	23	6065
2026-01-10 01:30:16.70	10.46	10.16	-31.7	-37.0	9.3	1.03e-02	0	41	0	71303168	23	6647
2026-01-10 01:30:17.70	10.39	10.24	-31.6	-36.9	9.4	1.71e-02	0	41	0	72351744	23	6589
2026-01-10 01:30:18.71	10.32	10.32	-31.7	-37.0	9.5	2.39e-02	0	41	0	74448896	23	6602
2026-01-10 01:30:19.71	10.25	10.40	-31.8	-37.1	9.5	1.48e-02	0	41	0	76546048	23	6608
2026-01-10 01:30:20.72	10.17	10.48	-31.6	-35.9	10.2	1.49e-02	0	41	0	78643200	24	5890
2026-01-10 01:30:21.72	10.10	10.57	-32.1	-37.5	9.4	3.02e-02	0	40	0	79691776	24	6729
2026-01-10 01:30:22.72	10.03	10.65	-32.3	-38.5	8.3	5.74e-02	0	41	0	81788928	24	7355
2026-01-10 01:30:23.72	9.96	10.73	-32.2	-38.1	8.5	5.62e-02	0	41	0	83886080	24	7062
2026-01-10 01:30:24.72	9.88	10.81	-32.1	-37.6	8.8	3.33e-02	0	41	0	85983232	24	6789
2026-01-10 01:30:25.72	9.81	10.89	-31.8	-36.5	9.8	2.24e-02	0	41	0	88080384	24	6157
2026-01-10 01:30:26.72	9.74	10.98	-31.7	-36.1	9.9	1.47e-02	0	41	0	89128960	24	5970
2026-01-10 01:30:27.73	9.66	11.06	-31.8	-36.8	10.2	1.03e-02	0	41	0	91226112	23	6374
2026-01-10 01:30:28.73	9.59	11.14	-31.5	-35.7	10.9	2.85e-03	0	41	0	93323264	23	5839
2026-01-10 01:30:29.73	9.51	11.22	-31.4	-35.6	10.8	1.81e-03	0	41	0	95420416	23	5830
2026-01-10 01:30:30.74	9.44	11.31	-31.2	-34.8	11.5	4.12e-03	0	41	0	97517568	23	5477
2026-01-10 01:30:31.74	9.36	11.39	-30.9	-34.5	11.9	7.16e-04	0	41	0	98566144	22	5424
2026-01-10 01:30:32.74	9.28	11.48	-30.9	-34.3	12.4	4.09e-04	0	41	0	100663296	22	5337
2026-01-10 01:30:33.75	9.21	11.56	-30.9	-34.3	12.2	2.40e-03	0	41	0	102760448	22	5349
2026-01-10 01:30:34.75	9.13	11.64	-30.4	-33.6	12.9	6.25e-05	0	41	0	104857600	21	5193
2026-01-10 01:30:35.75	9.05	11.73	-30.7	-34.4	12.4	1.50e-04	0	41	0	106954752	21	5499
2026-01-10 01:30:36.76	8.97	11.81	-30.8	-34.1	12.3	2.86e-03	0	41	0	108003328	22	5251
2026-01-10 01:30:37.76	8.89	11.90	-30.8	-34.7	12.3	2.66e-03	0	41	0	110100480	21	5599
2026-01-10 01:30:38.76	8.81	11.98	-30.6	-34.2	12.5	1.72e-04	0	41	0	112197632	21	5404
2026-01-10 01:30:39.76	8.73	12.07	-30.5	-33.6	12.9	2.65e-03	0	41	0	114294784	21	5170
2026-01-10 01:30:40.77	8.65	12.16	-30.4	-33.3	13.2	2.25e-03	0	41	0	116391936	21	5063
2026-01-10 01:30:41.77	8.57	12.24	-30.3	-33.2	13.1	1.98e-05	0	41	0	117440512	21	5044
2026-01-10 01:30:42.76	8.49	12.33	-30.3	-33.8	13.1	2.05e-05	0	41	0	119537664	20	5366
2026-01-10 01:30:43.77	8.41	12.42	-30.2	-33.5	13.2	2.56e-03	0	41	0	121634816	20	5277
2026-01-10 01:30:44.77	8.32	12.50	-30.2	-33.5	13.2	2.36e-05	0	41	0	123731968	20	5270
2026-01-10 01:30:45.77	8.24	12.59	-30.4	-34.0	12.8	3.43e-05	0	41	0	124780544	20	5476
2026-01-10 01:30:46.78	8.16	12.68	-30.3	-33.9	12.9	2.57e-03	0	41	0	126877696	20	5440
2026-01-10 01:30:47.78	8.07	12.76	-30.2	-33.7	13.0	1.49e-04	0	41	0	128974848	20	5338
2026-01-10 01:30:48.78	7.99	12.85	-30.3	-33.9	12.9	5.26e-05	0	41	0	131072000	20	5418
2026-01-10 01:30:49.78	7.90	12.94	-30.3	-33.7	13.0	3.81e-05	0	41	0	133169152	20	5347
2026-01-10 01:30:50.78	7.82	13.03	-30.3	-33.9	12.9	1.11e-04	0	41	0	135266304	20	5414
2026-01-10 01:30:51.78	7.73	13.12	-30.3	-33.9	12.9	4.73e-05	0	41	0	136314880	20	5408
2026-01-10 01:30:52.78	7.65	13.20	-30.4	-34.1	12.8	5.18e-05	0	41	0	138412032	20	5503
2026-01-10 01:30:53.79	7.56	13.29	-30.3	-33.6	13.1	4.42e-05	0	41	0	140509184	20	5317
2026-01-10 01:30:54.79	7.47	13.38	-30.3	-33.4	12.8	8.08e-05	0	41	0	142606336	21	5114
2026-01-10 01:30:55.80	7.38	13.47	-30.4	-34.0	12.8	3.89e-05	0	41	0	143654912	20	5475
2026-01-10 01:30:56.80	7.29	13.56	-30.4	-34.0	12.8	4.50e-05	0	41	0	145752064	20	5469
2026-01-10 01:30:57.80	7.20	13.65	-30.5	-33.7	12.9	2.52e-03	0	41	0	147849216	21	5219
2026-01-10 01:30:58.79	7.11	13.74	-30.4	-33.9	12.9	3.28e-05	0	41	0	149946368	20	5420
2026-01-10 01:30:59.79	7.02	13.83	-30.3	-33.9	13.0	5.18e-05	0	41	0	152043520	20	5397
2026-01-10 01:31:00.78	6.93	13.92	-30.2	-33.5	13.2	2.28e-03	0	41	0	153092096	20	5250
2026-01-10 01:31:01.78	6.84	14.01	-30.3	-33.8	13.0	3.89e-05	0	41	0	155189248	20	5387
2026-01-10 01:31:02.78	6.75	14.11	-30.3	-33.8	13.0	3.58e-05	0	41	0	157286400	20	5374
2026-01-10 01:31:03.78	6.66	14.20	-30.3	-33.8	13.0	3.05e-05	0	41	0	159383552	20	5388
2026-01-10 01:31:04.79	6.56	14.29	-30.4	-34.0	12.8	2.47e-03	0	41	0	161480704	20	5480
2026-01-10 01:31:05.79	6.47	14.38	-30.4	-34.1	12.8	5.72e-05	0	41	0	162529280	20	5509
2026-01-10 01:31:06.78	6.37	14.47	-30.4	-34.0	12.9	4.11e-05	0	41	0	164626432	20	5450
2026-01-10 01:31:07.78	6.28	14.57	-30.4	-34.0	12.8	5.72e-05	0	41	0	166723584	20	5460
2026-01-10 01:31:08.78	6.18	14.66	-30.4	-34.0	12.9	5.34e-05	0	41	0	168820736	20	5474
2026-01-10 01:31:09.78	6.09	14.75	-30.5	-33.8	12.6	6.33e-05	0	41	0	169869312	21	5290
2026-01-10 01:31:10.79	5.99	14.85	-30.7	-34.4	12.2	2.12e-04	0	41	0	171966464	21	5544
2026-01-10 01:31:11.78	5.89	14.94	-30.6	-34.2	12.4	3.16e-04	0	41	0	174063616	21	5423
2026-01-10 01:31:12.78	5.79	15.03	-30.5	-33.8	12.7	8.92e-05	0	41	0	176160768	21	5291
2026-01-10 01:31:13.78	5.69	15.13	-30.7	-34.4	12.2	1.43e-04	0	41	0	178257920	21	5540
2026-01-10 01:31:14.78	5.59	15.22	-30.5	-33.9	12.5	1.79e-04	0	41	0	179306496	21	5330
2026-01-10 01:31:15.79	5.49	15.32	-30.6	-34.2	12.4	1.53e-04	0	41	0	181403648	21	5429
2026-01-10 01:31:16.79	5.39	15.41	-30.6	-34.2	12.4	1.48e-04	0	41	0	183500800	21	5446
2026-01-10 01:31:17.79	5.29	15.51	-31.2	-34.9	12.2	5.79e-05	0	41	0	185597952	22	5524
2026-01-10 01:31:18.79	5.19	15.60	-31.0	-34.6	12.3	2.41e-03	0	41	0	187695104	22	5407
2026-01-10 01:31:19.79	5.08	15.70	-30.8	-33.9	12.9	7.32e-05	0	41	0	188743680	22	5105
2026-01-10 01:31:20.79	4.98	15.80	-30.7	-33.6	13.1	2.89e-05	0	41	0	190840832	22	4997
2026-01-10 01:31:21.80	4.88	15.89	-30.6	-33.8	13.2	3.58e-05	0	41	0	192937984	21	5192
2026-01-10 01:31:22.79	4.77	15.99	-30.5	-33.5	13.3	1.44e-05	0	41	0	195035136	21	5115
2026-01-10 01:31:23.80	4.66	16.09	-30.7	-34.0	13.1	2.59e-05	0	41	0	197132288	21	5280
2026-01-10 01:31:24.80	4.56	16.18	-30.8	-34.1	13.1	3.20e-05	0	41	0	198180864	21	5313
2026-01-10 01:31:25.80	4.45	16.28	-30.7	-34.0	13.3	2.32e-03	0	41	0	200278016	21	5253
2026-01-10 01:31:26.80	4.34	16.38	-30.3	-32.9	13.7	6.10e-06	0	41	0	202375168	21	4877
2026-01-10 01:31:27.79	4.24	16.48	-30.6	-33.7	13.7	4.50e-06	0	41	0	204472320	21	5110
2026-01-10 01:31:28.79	4.13	16.58	-30.3	-33.0	13.9	6.80e-06	0	41	0	205520896	21	4911
2026-01-10 01:31:29.79	4.02	16.67	-30.2	-32.7	14.0	2.20e-06	0	41	0	207618048	21	4791
2026-01-10 01:31:30.79	3.90	16.77	-30.4	-33.3	13.8	1.14e-05	0	41	0	209715200	21	5008
2026-01-10 01:31:31.78	3.79	16.87	-30.3	-32.8	13.9	4.42e-05	0	41	0	211812352	21	4843
2026-01-10 01:31:32.78	3.68	16.97	-30.4	-33.1	13.9	3.00e-06	0	41	0	213909504	21	4916
2026-01-10 01:31:33.78	3.57	17.07	-30.2	-32.7	14.2	3.00e-06	0	41	0	214958080	21	4782
2026-01-10 01:31:34.79	3.45	17.17	-30.2	-32.6	14.2	7.60e-06	0	41	0	217055232	21	4751
2026-01-10 01:31:35.79	3.34	17.27	-30.2	-32.6	14.1	1.50e-06	0	41	0	219152384	21	4757
2026-01-10 01:31:36.79	3.22	17.37	-30.1	-32.9	14.0	7.00e-07	0	41	0	221249536	20	4970
2026-01-10 01:31:37.79	3.11	17.47	-30.4	-33.4	13.5	6.80e-06	0	41	0	223346688	21	5058
2026-01-10 01:31:38.80	2.99	17.58	-30.8	-33.7	12.6	2.59e-04	0	41	0	224395264	22	5078
2026-01-10 01:31:39.80	2.87	17.68	-30.5	-32.7	13.9	4.50e-06	0	41	0	226492416	22	4665
2026-01-10 01:31:40.80	2.75	17.78	-30.6	-33.4	14.0	7.00e-07	0	41	0	228589568	21	4975
2026-01-10 01:31:41.81	2.63	17.88	-30.5	-33.4	13.9	2.20e-06	0	41	0	230686720	21	5002
2026-01-10 01:31:42.81	2.51	17.99	-30.6	-33.5	13.4	8.30e-06	0	42	0	232783872	21	5067
2026-01-10 01:31:43.81	2.39	18.09	-30.4	-33.1	13.8	6.10e-06	0	42	0	233832448	21	4897
2026-01-10 01:31:44.81	2.27	18.19	-30.7	-33.7	13.8	1.50e-06	0	41	0	235929600	21	5126
2026-01-10 01:31:45.81	2.14	18.30	-30.4	-33.2	13.8	7.60e-06	0	41	0	238026752	21	4945
2026-01-10 01:31:46.81	2.02	18.40	-30.8	-34.2	13.1	1.90e-05	0	41	0	240123904	21	5314
2026-01-10 01:31:47.81	1.89	18.50	-30.5	-33.4	13.5	9.10e-06	0	41	0	241172480	21	5045
2026-01-10 01:31:48.82	1.77	18.61	-30.7	-33.8	13.6	4.50e-06	0	42	0	243269632	21	5154
2026-01-10 01:31:49.82	1.64	18.71	-30.2	-32.6	13.9	6.80e-06	0	41	0	245366784	21	4781
2026-01-10 01:31:50.82	1.51	18.82	-30.4	-33.1	14.1	6.10e-06	0	41	0	247463936	21	4901
2026-01-10 01:31:51.82	1.39	18.92	-30.6	-33.7	13.7	1.50e-06	0	41	0	249561088	21	5097
2026-01-10 01:31:52.82	1.26	19.03	-30.6	-32.9	13.7	1.52e-05	0	42	0	250609664	22	4705
2026-01-10 01:31:53.81	1.13	19.13	-30.6	-32.9	14.1	2.20e-06	0	42	0	252706816	22	4695
2026-01-10 01:31:54.81	1.00	19.24	-30.6	-33.5	14.0	2.20e-06	0	41	0	254803968	21	5022
2026-01-10 01:31:55.81	0.86	19.35	-30.5	-33.2	14.0	3.00e-06	0	41	0	256901120	21	4938
2026-01-10 01:31:56.81	0.73	19.45	-30.6	-33.7	13.7	4.50e-06	0	42	0	258998272	21	5103
2026-01-10 01:31:57.81	0.60	19.56	-30.5	-33.4	13.8	7.60e-06	0	41	0	260046848	21	5009
2026-01-10 01:31:58.81	0.46	19.67	-30.4	-33.2	13.8	4.50e-06	0	41	0	262144000	21	4945
2026-01-10 01:31:59.81	0.33	19.77	-30.5	-33.3	13.7	4.50e-06	0	42	0	264241152	21	5008
2026-01-10 01:32:00.81	0.19	19.88	-30.7	-33.9	13.5	1.29e-05	0	41	0	266338304	21	5182
2026-01-10 01:32:01.81	0.05	19.99	-30.6	-33.4	13.9	6.80e-06	0	41	0	267386880	21	5020
2026-01-10 01:32:02.81	359.91	20.10	-30.4	-33.0	14.1	4.50e-06	0	41	0	269484032	21	4853
2026-01-10 01:32:03.81	359.77	20.21	-30.5	-33.0	14.2	7.00e-07	0	41	0	271581184	21	4854
2026-01-10 01:32:04.81	359.63	20.32	-30.6	-33.4	14.0	7.00e-07	0	42	0	273678336	21	4993
2026-01-10 01:32:05.81	359.49	20.43	-30.6	-33.7	13.7	6.80e-06	0	41	0	275775488	21	5122
2026-01-10 01:32:06.82	359.34	20.54	-30.6	-33.5	13.6	1.06e-05	0	42	0	276824064	21	5059
2026-01-10 01:32:07.82	359.20	20.65	-30.5	-33.4	13.8	2.20e-06	0	41	0	278921216	21	5002
2026-01-10 01:32:08.82	359.06	20.76	-30.5	-33.4	13.7	3.00e-06	0	41	0	281018368	21	5020
2026-01-10 01:32:09.81	358.91	20.87	-30.6	-33.7	13.6	3.80e-06	0	41	0	283115520	21	5109
2026-01-10 01:32:10.82	358.76	20.98	-31.0	-34.2	13.1	1.67e-05	0	41	0	285212672	22	5197
2026-01-10 01:32:11.83	358.61	21.09	-30.9	-33.8	13.1	3.96e-05	0	42	0	286261248	22	5069
2026-01-10 01:32:12.82	358.46	21.20	-30.6	-33.8	13.3	1.75e-05	0	41	0	288358400	21	5185
2026-01-10 01:32:13.82	358.31	21.31	-30.7	-33.9	13.3	2.05e-05	0	42	0	290455552	21	5218
2026-01-10 01:32:14.82	358.16	21.42	-30.6	-33.7	13.4	1.52e-05	0	42	0	292552704	21	5143
2026-01-10 01:32:15.83	358.01	21.54	-30.9	-34.4	13.3	1.98e-05	0	42	0	294649856	21	5373
2026-01-10 01:32:16.82	357.86	21.65	-31.0	-34.7	13.0	2.21e-05	0	41	0	295698432	21	5504
2026-01-10 01:32:17.83	357.70	21.76	-30.8	-33.7	13.2	5.26e-05	0	41	0	297795584	22	5013
2026-01-10 01:32:18.83	357.54	21.88	-30.8	-34.3	13.1	2.97e-05	0	41	0	299892736	21	5360
2026-01-10 01:32:19.82	357.39	21.99	-30.9	-34.3	13.3	1.67e-05	0	42	0	301989888	21	5347
2026-01-10 01:32:20.82	357.23	22.10	-30.9	-34.3	13.2	2.05e-05	0	41	0	303038464	21	5347
2026-01-10 01:32:21.82	357.07	22.21	-30.8	-34.1	13.3	2.21e-05	0	42	0	305135616	21	5298
2026-01-10 01:32:22.82	356.91	22.33	-30.8	-34.4	13.0	3.73e-05	0	42	0	307232768	21	5393
2026-01-10 01:32:23.83	356.74	22.44	-31.1	-34.4	13.0	4.73e-05	0	42	0	309329920	22	5254
2026-01-10 01:32:24.83	356.58	22.56	-30.8	-34.2	12.8	3.43e-05	0	41	0	311427072	21	5316
2026-01-10 01:32:25.83	356.41	22.67	-31.0	-34.7	12.9	3.12e-05	0	42	0	312475648	21	5496
2026-01-10 01:32:26.83	356.25	22.79	-30.8	-34.3	12.3	3.43e-05	0	42	0	314572800	21	5375
2026-01-10 01:32:27.83	356.08	22.90	-30.8	-34.3	13.0	3.28e-05	0	42	0	316669952	21	5378
2026-01-10 01:32:28.83	355.91	23.02	-30.9	-34.5	12.9	4.34e-05	0	41	0	318767104	21	5453
2026-01-10 01:32:29.83	355.74	23.14	-30.8	-34.4	12.1	6.17e-05	0	41	0	320864256	21	5406
2026-01-10 01:32:30.83	355.57	23.25	-30.8	-34.2	12.1	4.88e-05	0	41	0	321912832	21	5356
2026-01-10 01:32:31.84	355.40	23.37	-30.8	-34.3	12.9	4.57e-05	0	42	0	324009984	21	5393
2026-01-10 01:32:32.84	355.23	23.49	-30.9	-34.6	12.2	3.81e-05	0	42	0	326107136	21	5486
2026-01-10 01:32:33.84	355.05	23.60	-30.9	-34.6	12.0	6.40e-05	0	42	0	328204288	21	5498
2026-01-10 01:32:34.85	354.87	23.72	-31.3	-34.9	12.5	1.92e-04	0	42	0	330301440	22	5485
2026-01-10 01:32:35.85	354.69	23.84	-31.2	-34.6	12.7	8.16e-05	0	41	0	331350016	22	5324
2026-01-10 01:32:36.85	354.52	23.96	-31.0	-34.5	12.7	3.28e-05	0	42	0	333447168	21	5437
2026-01-10 01:32:37.86	354.33	24.07	-30.9	-33.8	13.3	3.81e-05	0	42	0	335544320	22	5049
2026-01-10 01:32:38.86	354.15	24.19	-31.1	-34.5	12.4	4.65e-05	0	42	0	337641472	22	5288
2026-01-10 01:32:39.86	353.97	24.31	-30.9	-34.4	13.2	3.28e-05	0	42	0	339738624	21	5373
2026-01-10 01:32:40.86	353.78	24.43	-30.8	-34.2	13.3	2.21e-05	0	42	0	340787200	21	5315
2026-01-10 01:32:41.85	353.60	24.55	-30.9	-34.2	13.3	1.63e-03	0	42	0	342884352	21	5305
2026-01-10 01:32:42.86	353.41	24.67	-31.0	-34.2	12.4	1.67e-05	0	42	0	344981504	22	5164
2026-01-10 01:32:43.86	353.22	24.79	-30.9	-33.7	13.4	2.05e-05	0	42	0	347078656	22	5009
2026-01-10 01:32:44.87	353.03	24.91	-30.9	-34.2	12.9	1.22e-05	0	42	0	348127232	21	5285
2026-01-10 01:32:45.87	352.84	25.03	-30.8	-34.2	13.1	1.90e-05	0	42	0	350224384	21	5301
2026-01-10 01:32:46.87	352.64	25.14	-30.9	-34.4	13.1	3.28e-05	0	41	0	352321536	21	5386
2026-01-10 01:32:47.87	352.45	25.26	-30.8	-34.2	13.1	3.20e-05	0	42	0	354418688	21	5331
2026-01-10 01:32:48.88	352.25	25.39	-30.8	-34.1	13.2	6.63e-04	0	42	0	356515840	21	5286
2026-01-10 01:32:49.88	352.05	25.51	-30.8	-34.1	13.3	1.98e-05	0	41	0	357564416	21	5291
2026-01-10 01:32:50.88	351.85	25.63	-30.7	-34.0	13.1	5.18e-05	0	42	0	359661568	21	5253
2026-01-10 01:32:51.88	351.65	25.75	-31.0	-34.2	13.2	2.82e-05	0	42	0	361758720	22	5160
2026-01-10 01:32:52.88	351.45	25.87	-31.2	-34.8	12.6	4.65e-05	0	42	0	363855872	22	5427
2026-01-10 01:32:53.88	351.25	25.99	-31.3	-34.9	12.9	1.09e-04	0	42	0	365953024	22	5434
2026-01-10 01:32:54.88	351.04	26.11	-31.3	-34.9	12.8	3.58e-05	0	42	0	367001600	22	5418
2026-01-10 01:32:55.88	350.83	26.23	-31.0	-34.1	13.0	7.40e-05	0	42	0	369098752	22	5147
2026-01-10 01:32:56.88	350.62	26.35	-31.4	-35.0	12.8	5.03e-05	0	42	0	371195904	22	5482
2026-01-10 01:32:57.88	350.41	26.47	-31.5	-35.0	12.5	4.88e-05	0	42	0	373293056	23	5381
2026-01-10 01:32:58.87	350.20	26.59	-31.8	-35.7	12.2	3.29e-04	0	42	0	374341632	23	5654
2026-01-10 01:32:59.88	349.99	26.71	-31.8	-35.9	11.6	3.56e-04	0	42	0	376438784	23	5768
2026-01-10 01:33:00.88	349.77	26.84	-31.6	-35.1	12.3	2.28e-04	0	42	0	378535936	23	5405
2026-01-10 01:33:01.89	349.55	26.96	-31.3	-34.6	12.3	1.68e-04	0	42	0	380633088	23	5240
2026-01-10 01:33:02.89	349.33	27.08	-31.3	-34.9	12.6	1.68e-03	0	42	0	382730240	22	5461
2026-01-10 01:33:03.89	349.11	27.20	-31.8	-35.8	12.0	2.08e-04	0	42	0	384827392	23	5704
2026-01-10 01:33:04.89	348.89	27.32	-31.8	-35.7	12.0	3.86e-04	0	42	0	385875968	23	5646
2026-01-10 01:33:05.89	348.67	27.45	-31.8	-35.7	12.0	1.08e-03	0	42	0	387973120	23	5652
2026-01-10 01:33:06.89	348.44	27.57	-31.8	-35.9	11.7	4.36e-04	0	42	0	390070272	23	5742
2026-01-10 01:33:07.90	348.21	27.69	-31.8	-35.8	11.7	5.53e-04	0	42	0	392167424	23	5722
2026-01-10 01:33:08.90	347.98	27.81	-31.7	-35.7	11.9	5.64e-04	0	42	0	393216000	23	5664
2026-01-10 01:33:09.90	347.75	27.94	-31.8	-36.0	11.7	5.61e-04	0	42	0	395313152	23	5795
2026-01-10 01:33:10.91	347.52	28.06	-31.8	-35.8	11.7	6.20e-04	0	42	0	397410304	23	5740
2026-01-10 01:33:11.91	347.28	28.18	-32.0	-35.9	11.4	7.67e-04	0	42	0	399507456	24	5677
2026-01-10 01:33:12.91	347.05	28.30	-32.0	-36.0	11.3	9.90e-04	0	42	0	401604608	24	5708
2026-01-10 01:33:13.91	346.81	28.42	-32.0	-36.2	11.1	1.61e-03	0	42	0	402653184	24	5791
2026-01-10 01:33:14.91	346.57	28.55	-32.0	-36.0	11.2	1.46e-03	0	41	0	404750336	24	5739
2026-01-10 01:33:15.92	346.32	28.67	-31.9	-35.8	11.4	9.92e-04	0	42	0	406847488	24	5632
2026-01-10 01:33:16.92	346.08	28.79	-32.0	-36.0	11.3	1.14e-03	0	42	0	408944640	24	5699
2026-01-10 01:33:17.93	345.83	28.92	-31.8	-35.5	11.5	1.12e-03	0	42	0	411041792	24	5521
2026-01-10 01:33:18.94	345.58	29.04	-31.8	-35.6	11.3	9.11e-04	0	42	0	412090368	24	5571
2026-01-10 01:33:19.93	345.33	29.16	-32.0	-36.2	10.9	1.71e-03	0	42	0	414187520	24	5837
2026-01-10 01:33:20.93	345.08	29.28	-31.9	-36.0	11.0	2.82e-03	0	42	0	416284672	24	5742
2026-01-10 01:33:21.94	344.83	29.40	-32.0	-36.9	10.6	2.38e-03	0	42	0	418381824	23	6316
2026-01-10 01:33:22.94	344.57	29.52	-31.9	-36.1	10.7	2.91e-03	0	42	0	420478976	24	5854
2026-01-10 01:33:23.95	344.31	29.65	-32.0	-36.7	10.8	3.17e-03	0	42	0	421527552	23	6243
2026-01-10 01:33:24.95	344.05	29.77	-32.2	-36.8	10.7	1.91e-03	0	42	0	423624704	24	6099
2026-01-10 01:33:25.96	343.79	29.89	-32.4	-37.0	10.8	1.78e-03	0	42	0	425721856	24	6135
2026-01-10 01:33:26.96	343.52	30.01	-32.4	-36.9	10.4	3.96e-03	0	42	0	427819008	25	6008
2026-01-10 01:33:27.97	343.26	30.13	-32.5	-37.1	10.2	6.18e-03	0	42	0	429916160	25	6109
2026-01-10 01:33:28.96	342.99	30.25	-32.6	-37.2	10.2	5.93e-03	0	42	0	430964736	25	6147
2026-01-10 01:33:29.96	342.72	30.37	-32.4	-36.8	10.1	5.18e-03	0	42	0	433061888	25	5974
2026-01-10 01:33:30.96	342.45	30.49	-32.2	-36.1	10.8	8.56e-03	0	42	0	435159040	25	5615
2026-01-10 01:33:31.96	342.18	30.61	-32.3	-36.5	10.5	4.15e-03	0	42	0	437256192	25	5826
2026-01-10 01:33:32.97	341.90	30.73	-32.4	-36.8	10.5	4.05e-03	0	42	0	438304768	25	5926
2026-01-10 01:33:33.97	341.62	30.85	-32.3	-36.9	10.7	4.26e-03	0	42	0	440401920	24	6099
2026-01-10 01:33:34.97	341.34	30.97	-32.2	-36.8	10.6	3.04e-03	0	42	0	442499072	24	6118
2026-01-10 01:33:35.97	341.06	31.09	-32.3	-37.1	10.2	4.14e-03	0	42	0	444596224	24	6263
2026-01-10 01:33:36.98	340.77	31.21	-32.4	-37.3	10.6	4.03e-03	0	42	0	446693376	24	6345
2026-01-10 01:33:37.98	340.49	31.33	-32.5	-36.9	10.3	3.88e-03	0	42	0	448790528	25	6010
2026-01-10 01:33:38.99	340.20	31.45	-33.0	-38.4	8.9	1.57e-02	0	42	0	449839104	26	6698
2026-01-10 01:33:39.99	339.91	31.57	-32.6	-37.0	9.7	1.21e-02	0	42	0	451936256	26	5968
2026-01-10 01:33:40.99	339.61	31.68	-32.6	-37.4	10.0	6.64e-03	0	42	0	454033408	25	6281
2026-01-10 01:33:42.00	339.32	31.80	-32.1	-36.3	11.0	3.97e-03	0	42	0	456130560	24	5866
2026-01-10 01:33:43.00	339.02	31.92	-32.3	-37.0	10.4	3.07e-03	0	42	0	457179136	24	6206
2026-01-10 01:33:44.00	338.72	32.03	-32.3	-36.4	10.6	4.75e-03	0	42	0	459276288	25	5763
2026-01-10 01:33:45.00	338.42	32.15	-32.2	-36.4	11.1	3.14e-03	0	42	0	461373440	24	5888
2026-01-10 01:33:46.00	338.12	32.26	-32.3	-36.9	10.7	1.56e-03	0	42	0	463470592	24	6095
2026-01-10 01:33:47.00	337.81	32.38	-32.2	-36.5	11.0	2.43e-03	0	42	0	465567744	24	5910
2026-01-10 01:33:48.00	337.50	32.49	-32.1	-36.3	10.9	2.68e-03	0	42	0	466616320	24	5877
2026-01-10 01:33:49.00	337.19	32.60	-32.4	-37.1	10.5	3.55e-03	0	42	0	468713472	24	6245
2026-01-10 01:33:50.00	336.88	32.72	-32.4	-36.9	10.5	4.41e-03	0	42	0	470810624	25	6004
2026-01-10 01:33:51.00	336.57	32.83	-32.4	-36.9	10.1	4.48e-03	0	42	0	472907776	25	6066
2026-01-10 01:33:52.00	336.25	32.94	-32.5	-36.9	10.5	4.33e-03	0	42	0	475004928	25	5950
2026-01-10 01:33:53.00	335.93	33.05	-32.5	-37.0	10.5	4.17e-03	0	42	0	476053504	25	6006
2026-01-10 01:33:54.01	335.61	33.16	-32.5	-36.9	10.3	6.61e-03	0	42	0	478150656	25	6024
2026-01-10 01:33:55.01	335.29	33.27	-32.9	-37.9	9.1	9.74e-03	0	42	0	480247808	26	6405
2026-01-10 01:33:56.01	334.96	33.38	-32.8	-37.5	9.7	1.57e-02	0	42	0	482344960	26	6182
2026-01-10 01:33:57.02	334.63	33.49	-32.8	-38.2	9.3	1.78e-02	0	42	0	483393536	25	6681
2026-01-10 01:33:58.02	334.30	33.60	-32.9	-37.8	9.5	1.81e-02	0	42	0	485490688	26	6347
2026-01-10 01:33:59.01	333.97	33.71	-33.0	-38.0	9.4	1.42e-02	0	42	0	487587840	26	6408
2026-01-10 01:34:00.02	333.64	33.82	-33.1	-38.4	9.0	1.99e-02	0	42	0	489684992	26	6683
2026-01-10 01:34:01.01	333.30	33.92	-33.0	-38.3	8.9	2.72e-02	0	42	0	491782144	26	6616
2026-01-10 01:34:02.02	332.96	34.03	-33.1	-38.8	8.6	2.83e-02	0	42	0	492830720	26	6932
2026-01-10 01:34:03.02	332.62	34.13	-33.2	-38.9	8.6	4.35e-02	0	42	0	494927872	26	6969
2026-01-10 01:34:04.02	332.28	34.23	-33.1	-39.1	8.2	5.48e-02	0	42	0	497025024	26	7165
2026-01-10 01:34:05.02	331.93	34.34	-33.1	-39.4	7.8	6.96e-02	0	42	0	499122176	26	7392
2026-01-10 01:34:06.02	331.59	34.44	-33.2	-39.8	7.5	8.55e-02	0	42	0	501219328	26	7652
2026-01-10 01:34:07.02	331.24	34.54	-33.2	-39.9	7.4	1.01e-01	0	42	0	502267904	26	7707
2026-01-10 01:34:08.02	330.88	34.64	-33.7	-40.9	6.6	1.36e-01	0	42	0	504365056	27	8264
2026-01-10 01:34:09.02	330.53	34.74	-33.3	-39.2	8.0	9.54e-02	0	42	0	506462208	27	7063
2026-01-10 01:34:10.02	330.17	34.84	-33.1	-39.1	8.1	7.08e-02	0	42	0	508559360	26	7206
2026-01-10 01:34:11.02	329.82	34.93	-33.2	-39.5	7.7	5.70e-02	0	42	0	510656512	26	7479
2026-01-10 01:34:12.02	329.46	35.03	-32.9	-38.1	8.8	6.64e-02	0	42	0	511705088	26	6586
2026-01-10 01:34:13.02	329.09	35.13	-33.1	-39.1	8.2	5.62e-02	0	42	0	513802240	26	7174
2026-01-10 01:34:14.02	328.73	35.22	-33.1	-38.9	7.9	7.19e-02	0	42	0	515899392	27	7024
2026-01-10 01:34:15.03	328.36	35.31	-33.3	-39.8	7.7	1.05e-01	0	42	0	517996544	26	7591
2026-01-10 01:34:16.03	327.99	35.41	-33.2	-39.2	8.1	7.22e-02	0	42	0	519045120	26	7208
2026-01-10 01:34:17.03	327.62	35.50	-33.5	-40.7	7.2	8.34e-02	0	42	0	521142272	26	8228
2026-01-10 01:34:18.03	327.25	35.59	-33.2	-39.2	8.3	3.50e-02	0	42	0	523239424	26	7192
2026-01-10 01:34:19.03	326.87	35.67	-33.0	-38.4	8.9	4.04e-02	0	42	0	525336576	26	6700
2026-01-10 01:34:20.03	326.49	35.76	-33.2	-38.9	8.1	7.65e-02	0	42	0	527433728	27	6874
2026-01-10 01:34:21.03	326.12	35.85	-33.2	-39.3	8.3	5.87e-02	0	42	0	528482304	26	7260
2026-01-10 01:34:22.03	325.73	35.93	-32.8	-38.3	9.4	2.12e-02	0	42	0	530579456	25	6761
2026-01-10 01:34:23.03	325.35	36.02	-32.6	-37.4	10.0	1.65e-02	0	42	0	532676608	25	6274
2026-01-10 01:34:24.03	324.97	36.10	-32.2	-36.1	10.9	8.79e-03	0	42	0	534773760	25	5612
2026-01-10 01:34:25.04	324.58	36.18	-31.7	-35.2	11.8	2.43e-03	0	42	0	536870912	24	5362
2026-01-10 01:34:26.04	324.19	36.26	-31.6	-34.8	12.1	3.13e-04	0	42	0	537919488	24	5172
2026-01-10 01:34:27.04	323.80	36.34	-31.6	-35.0	12.4	2.07e-03	0	42	0	540016640	23	5377
2026-01-10 01:34:28.05	323.40	36.42	-31.4	-34.7	12.6	1.89e-03	0	42	0	542113792	23	5227
2026-01-10 01:34:29.05	323.00	36.49	-31.7	-35.5	12.2	1.62e-04	0	42	0	544210944	23	5565
2026-01-10 01:34:30.05	322.61	36.57	-32.0	-36.4	11.3	2.48e-03	0	42	0	546308096	23	6006
2026-01-10 01:34:31.05	322.21	36.64	-31.8	-35.8	11.9	2.94e-03	0	42	0	547356672	23	5717
2026-01-10 01:34:32.05	321.81	36.71	-31.9	-35.8	11.2	1.21e-03	0	42	0	549453824	24	5646
2026-01-10 01:34:33.06	321.40	36.79	-32.4	-37.0	10.7	4.14e-03	0	42	0	551550976	24	6172
2026-01-10 01:34:34.06	321.00	36.85	-31.9	-35.6	11.6	3.52e-03	0	42	0	553648128	24	5524
2026-01-10 01:34:35.06	320.59	36.92	-31.8	-35.4	11.7	6.62e-04	0	42	0	555745280	24	5438
2026-01-10 01:34:36.06	320.19	36.99	-31.7	-35.6	11.7	2.47e-03	0	42	0	556793856	23	5661
2026-01-10 01:34:37.07	319.77	37.05	-31.5	-35.1	12.0	2.42e-03	0	42	0	558891008	23	5457
2026-01-10 01:34:38.07	319.36	37.12	-31.7	-35.4	12.0	4.90e-04	0	42	0	560988160	23	5561
2026-01-10 01:34:39.07	318.95	37.18	-31.7	-35.5	11.9	2.17e-03	0	42	0	563085312	23	5575
2026-01-10 01:34:40.07	318.54	37.24	-31.6	-35.4	12.0	1.56e-03	0	42	0	564133888	23	5554
2026-01-10 01:34:41.07	318.12	37.29	-31.5	-35.0	12.0	3.88e-04	0	42	0	566231040	23	5436
2026-01-10 01:34:42.07	317.71	37.35	-31.3	-34.6	12.3	2.74e-04	0	42	0	568328192	23	5266
2026-01-10 01:34:43.08	317.29	37.41	-31.4	-35.1	11.7	3.07e-04	0	42	0	570425344	23	5483
2026-01-10 01:34:44.08	316.87	37.46	-31.2	-34.5	12.1	3.50e-04	0	42	0	572522496	23	5242
2026-01-10 01:34:45.08	316.45	37.51	-30.7	-33.3	13.4	4.04e-05	0	42	0	573571072	22	4879
2026-01-10 01:34:46.09	316.02	37.56	-30.2	-32.7	14.0	1.59e-04	0	42	0	575668224	21	4796
2026-01-10 01:34:47.09	315.60	37.61	-30.0	-32.0	14.5	7.09e-05	0	42	0	577765376	21	4549
2026-01-10 01:34:48.09	315.17	37.65	-29.8	-32.0	14.9	6.20e-04	0	42	0	579862528	20	4646
2026-01-10 01:34:49.09	314.75	37.70	-30.0	-33.0	14.7	8.87e-04	0	42	0	581959680	19	5083
2026-01-10 01:34:50.08	314.32	37.74	-29.7	-32.2	15.1	1.11e-04	0	42	0	583008256	19	4801
2026-01-10 01:34:51.08	313.90	37.78	-29.5	-31.9	15.2	1.29e-03	0	42	0	585105408	19	4732
2026-01-10 01:34:52.08	313.47	37.82	-29.5	-31.9	15.2	0.00e+00	0	42	0	587202560	19	4742
2026-01-10 01:34:53.09	313.03	37.86	-29.6	-32.2	15.0	1.32e-04	0	42	0	589299712	19	4832
2026-01-10 01:34:54.08	312.61	37.89	-29.5	-31.9	15.1	4.49e-04	0	42	0	591396864	19	4742
2026-01-10 01:34:55.08	312.17	37.93	-29.6	-32.2	14.9	1.67e-03	0	42	0	592445440	19	4837
2026-01-10 01:34:56.08	311.74	37.96	-29.8	-32.5	14.7	2.28e-05	0	42	0	594542592	19	4942
2026-01-10 01:34:57.09	311.30	37.99	-29.6	-32.1	15.0	2.48e-03	0	42	0	596639744	19	4792
2026-01-10 01:34:58.10	310.86	38.02	-29.6	-32.1	15.0	2.33e-03	0	42	0	598736896	19	4786
2026-01-10 01:34:59.10	310.43	38.05	-29.7	-32.2	14.9	0.00e+00	0	42	0	600834048	19	4850
2026-01-10 01:35:00.10	309.99	38.07	-29.8	-32.7	14.6	1.79e-03	0	42	0	601882624	19	5017
2026-01-10 01:35:01.11	309.55	38.09	-29.5	-31.9	15.1	1.33e-03	0	42	0	603979776	19	4725
2026-01-10 01:35:02.11	309.11	38.11	-29.2	-31.1	15.6	0.00e+00	0	42	0	606076928	19	4479
2026-01-10 01:35:03.11	308.68	38.13	-29.1	-31.3	15.8	3.44e-04	0	42	0	608174080	18	4639
2026-01-10 01:35:04.11	308.24	38.15	-29.2	-31.7	15.6	2.41e-03	0	42	0	609222656	18	4769
2026-01-10 01:35:05.11	307.80	38.17	-29.3	-31.9	15.4	8.39e-05	0	42	0	611319808	18	4856
2026-01-10 01:35:06.11	307.36	38.18	-29.6	-32.1	15.1	0.00e+00	0	42	0	613416960	19	4795
2026-01-10 01:35:07.11	306.92	38.19	-29.7	-32.4	14.8	2.27e-03	0	42	0	615514112	19	4919
2026-01-10 01:35:08.11	306.48	38.20	-29.9	-32.8	14.5	5.34e-05	0	42	0	617611264	19	5045
2026-01-10 01:35:09.11	306.04	38.21	-30.0	-32.8	14.2	1.50e-06	0	42	0	618659840	20	4936
2026-01-10 01:35:10.11	305.60	38.21	-30.3	-33.4	13.7	3.80e-06	0	42	0	620756992	20	5153
2026-01-10 01:35:11.11	305.16	38.22	-30.0	-32.8	14.2	7.00e-07	0	42	0	622854144	20	4943
2026-01-10 01:35:12.11	304.72	38.22	-30.3	-33.6	13.6	1.97e-03	0	42	0	624951296	20	5233
2026-01-10 01:35:13.11	304.28	38.22	-30.2	-33.3	13.8	3.00e-06	0	42	0	627048448	20	5120
2026-01-10 01:35:14.11	303.84	38.21	-30.2	-33.1	13.8	2.20e-06	0	42	0	628097024	20	5074
2026-01-10 01:35:15.11	303.40	38.21	-30.3	-33.4	13.7	9.31e-04	0	42	0	630194176	20	5187
2026-01-10 01:35:16.12	302.96	38.20	-30.1	-33.0	13.9	2.20e-06	0	42	0	632291328	20	5022
2026-01-10 01:35:17.12	302.52	38.20	-30.1	-33.1	13.9	3.00e-06	0	42	0	634388480	20	5052
2026-01-10 01:35:18.12	302.08	38.19	-30.3	-33.6	13.5	1.77e-03	0	42	0	635437056	20	5259
2026-01-10 01:35:19.12	301.64	38.17	-30.6	-33.8	13.2	1.68e-03	0	42	0	637534208	21	5212
2026-01-10 01:35:20.11	301.20	38.16	-31.0	-34.5	12.4	8.01e-05	0	42	0	639631360	22	5366
2026-01-10 01:35:21.11	300.76	38.15	-30.8	-34.4	12.8	1.76e-03	0	42	0	641728512	21	5422
2026-01-10 01:35:22.11	300.33	38.13	-30.9	-34.7	12.5	1.45e-03	0	42	0	643825664	21	5584
2026-01-10 01:35:23.10	299.89	38.11	-31.1	-34.8	12.2	2.23e-04	0	42	0	644874240	22	5500
2026-01-10 01:35:24.10	299.45	38.09	-31.3	-35.5	11.7	5.07e-04	0	42	0	646971392	22	5794
2026-01-10 01:35:25.11	299.01	38.06	-31.2	-35.2	11.8	8.14e-04	0	42	0	649068544	22	5661
2026-01-10 01:35:26.11	298.58	38.04	-31.1	-34.8	12.0	3.92e-04	0	42	0	651165696	22	5519
2026-01-10 01:35:27.11	298.14	38.01	-31.3	-35.2	12.0	5.13e-04	0	42	0	653262848	22	5655
2026-01-10 01:35:28.11	297.71	37.98	-31.1	-34.8	12.1	1.12e-03	0	42	0	654311424	22	5503
2026-01-10 01:35:29.11	297.27	37.95	-31.0	-34.4	12.5	6.94e-05	0	42	0	656408576	22	5324
2026-01-10 01:35:30.10	296.85	37.92	-31.0	-34.4	12.4	1.64e-04	0	42	0	658505728	22	5346
2026-01-10 01:35:31.11	296.41	37.89	-31.3	-35.3	11.8	3.17e-04	0	42	0	660602880	22	5726
2026-01-10 01:35:32.12	295.97	37.85	-31.6	-35.8	11.1	1.05e-03	0	42	0	662700032	23	5836
2026-01-10 01:35:33.13	295.54	37.81	-31.5	-35.5	11.2	3.55e-03	0	42	0	663748608	23	5686
2026-01-10 01:35:34.13	295.11	37.77	-31.5	-35.5	11.2	1.50e-03	0	42	0	665845760	23	5710
2026-01-10 01:35:35.13	294.68	37.73	-31.9	-36.5	10.0	3.26e-03	0	42	0	667942912	24	6112
2026-01-10 01:35:36.14	294.25	37.69	-31.9	-36.8	10.2	9.33e-03	0	42	0	670040064	23	6326
2026-01-10 01:35:37.14	293.82	37.64	-31.9	-36.4	10.1	7.29e-03	0	42	0	672137216	24	6026
2026-01-10 01:35:38.14	293.40	37.59	-31.6	-35.5	10.9	2.72e-03	0	42	0	673185792	24	5603
2026-01-10 01:35:39.14	292.98	37.55	-31.5	-35.6	11.1	5.09e-03	0	42	0	675282944	23	5774
2026-01-10 01:35:40.14	292.56	37.50	-31.6	-35.7	11.1	2.66e-03	0	42	0	677380096	23	5815
2026-01-10 01:35:41.14	292.13	37.44	-31.8	-36.3	10.7	9.71e-04	0	42	0	679477248	23	6107
2026-01-10 01:35:42.13	291.72	37.39	-32.1	-36.9	10.1	7.08e-03	0	42	0	681574400	24	6305
2026-01-10 01:35:43.14	291.30	37.33	-32.0	-36.6	10.1	8.91e-03	0	42	0	682622976	24	6111
2026-01-10 01:35:44.14	290.88	37.28	-32.0	-36.6	10.0	7.12e-03	0	42	0	684720128	24	6130
2026-01-10 01:35:45.14	290.47	37.22	-31.8	-36.4	10.5	3.67e-03	0	42	0	686817280	23	6139
2026-01-10 01:35:46.14	290.05	37.16	-31.8	-36.4	10.5	6.61e-03	0	42	0	688914432	23	6156
2026-01-10 01:35:47.15	289.64	37.10	-31.8	-36.5	10.5	3.71e-03	0	42	0	689963008	23	6176
2026-01-10 01:35:48.15	289.23	37.03	-31.8	-36.6	10.4	3.98e-03	0	42	0	692060160	23	6258
2026-01-10 01:35:49.16	288.81	36.97	-31.6	-36.1	10.7	3.37e-03	0	42	0	694157312	23	5985
2026-01-10 01:35:50.16	288.41	36.90	-31.7	-36.3	10.7	3.11e-03	0	42	0	696254464	23	6113
2026-01-10 01:35:51.15	288.00	36.83	-31.8	-35.9	10.5	8.41e-03	0	42	0	698351616	24	5813
2026-01-10 01:35:52.15	287.60	36.76	-31.5	-35.6	11.1	1.70e-03	0	42	0	699400192	23	5769
2026-01-10 01:35:53.15	287.20	36.69	-31.7	-36.2	10.7	1.96e-03	0	42	0	701497344	23	6031
2026-01-10 01:35:54.15	286.80	36.62	-31.8	-36.6	10.4	3.72e-03	0	42	0	703594496	23	6252
2026-01-10 01:35:55.15	286.40	36.55	-31.6	-35.8	11.1	2.85e-03	0	42	0	705691648	23	5842
2026-01-10 01:35:56.16	286.00	36.47	-31.4	-35.4	11.3	1.32e-03	0	42	0	707788800	23	5653
2026-01-10 01:35:57.17	285.60	36.39	-31.2	-34.7	11.7	8.37e-04	0	42	0	708837376	23	5380
2026-01-10 01:35:58.17	285.21	36.32	-31.2	-35.2	11.7	4.42e-04	0	42	0	710934528	22	5701
2026-01-10 01:35:59.17	284.82	36.24	-31.4	-35.1	11.4	1.06e-03	0	42	0	713031680	23	5550
2026-01-10 01:36:00.17	284.43	36.16	-30.8	-33.5	12.5	3.00e-04	0	42	0	715128832	23	4918
2026-01-10 01:36:01.18	284.04	36.07	-30.3	-32.7	13.4	2.82e-05	0	42	0	716177408	22	4702
2026-01-10 01:36:02.18	283.65	35.99	-30.1	-32.5	13.8	4.50e-06	0	42	0	718274560	21	4738
2026-01-10 01:36:03.18	283.27	35.91	-29.8	-31.8	14.3	7.00e-07	0	42	0	720371712	21	4515
2026-01-10 01:36:04.19	282.88	35.82	-30.0	-32.6	14.1	0.00e+00	0	42	0	722468864	20	4901
2026-01-10 01:36:05.20	282.50	35.73	-30.0	-32.6	14.1	2.20e-06	0	42	0	724566016	20	4905
2026-01-10 01:36:06.19	282.13	35.65	-29.8	-32.2	14.4	0.00e+00	0	42	0	726663168	20	4741
2026-01-10 01:36:07.20	281.75	35.56	-30.0	-33.1	14.1	1.50e-06	0	42	0	727711744	19	5173
2026-01-10 01:36:08.20	281.37	35.46	-29.8	-32.6	14.5	1.50e-06	0	42	0	729808896	19	4988
2026-01-10 01:36:09.21	281.00	35.37	-29.6	-32.1	14.8	7.00e-07	0	42	0	731906048	19	4819
2026-01-10 01:36:10.21	280.63	35.28	-29.7	-32.4	14.6	0.00e+00	0	42	0	734003200	19	4907
2026-01-10 01:36:11.21	280.26	35.19	-29.8	-32.8	14.4	0.00e+00	0	42	0	735051776	19	5052
2026-01-10 01:36:12.20	279.90	35.09	-29.8	-32.8	14.3	7.00e-07	0	42	0	737148928	19	5068
2026-01-10 01:36:13.21	279.54	35.00	-30.0	-33.1	14.1	1.50e-06	0	42	0	739246080	19	5184
2026-01-10 01:36:14.22	279.17	34.90	-30.0	-33.1	14.1	3.80e-06	0	42	0	741343232	19	5189
2026-01-10 01:36:15.22	278.81	34.80	-30.0	-32.7	14.0	0.00e+00	0	42	0	743440384	20	4915
2026-01-10 01:36:16.22	278.46	34.70	-30.4	-33.7	13.4	4.50e-06	0	42	0	744488960	20	5302
2026-01-10 01:36:17.23	278.10	34.60	-30.4	-33.7	13.3	1.60e-05	0	42	0	746586112	20	5308
2026-01-10 01:36:18.23	277.75	34.50	-30.6	-34.0	12.8	3.66e-05	0	42	0	748683264	21	5310
2026-01-10 01:36:19.23	277.40	34.40	-31.0	-34.6	12.0	2.10e-04	0	42	0	750780416	22	5459
2026-01-10 01:36:20.23	277.05	34.30	-30.8	-34.2	12.3	2.39e-04	0	42	0	752877568	22	5269
2026-01-10 01:36:21.24	276.70	34.19	-30.9	-34.8	12.2	2.21e-04	0	42	0	753926144	21	5651
2026-01-10 01:36:22.25	276.36	34.09	-30.6	-34.1	12.7	9.99e-05	0	42	0	756023296	21	5336
2026-01-10 01:36:23.25	276.02	33.98	-30.6	-33.9	12.8	6.10e-05	0	42	0	758120448	21	5297
2026-01-10 01:36:24.25	275.68	33.88	-30.7	-34.4	12.5	9.61e-05	0	42	0	760217600	21	5472
2026-01-10 01:36:25.25	275.34	33.77	-30.5	-33.7	12.9	7.24e-05	0	42	0	762314752	21	5213
2026-01-10 01:36:26.26	275.00	33.66	-30.4	-33.5	13.0	4.50e-05	0	42	0	763363328	21	5132
2026-01-10 01:36:27.26	274.67	33.55	-30.5	-33.6	13.0	3.50e-05	0	42	0	765460480	21	5165
2026-01-10 01:36:28.26	274.34	33.45	-30.6	-33.9	12.8	3.81e-05	0	42	0	767557632	21	5283
2026-01-10 01:36:29.26	274.01	33.34	-30.7	-34.2	12.6	6.86e-05	0	42	0	769654784	21	5415
2026-01-10 01:36:30.26	273.69	33.23	-30.8	-34.6	12.2	1.27e-04	0	42	0	771751936	21	5581
2026-01-10 01:36:31.27	273.36	33.12	-30.8	-34.6	12.3	1.93e-04	0	42	0	772800512	21	5560
2026-01-10 01:36:32.27	273.04	33.00	-30.9	-34.9	12.1	1.98e-04	0	42	0	774897664	21	5683
2026-01-10 01:36:33.27	272.72	32.89	-31.1	-34.8	11.9	2.90e-04	0	42	0	776994816	22	5540
2026-01-10 01:36:34.28	272.40	32.78	-30.9	-34.5	12.1	3.77e-04	0	42	0	779091968	22	5398
2026-01-10 01:36:35.27	272.09	32.67	-30.9	-34.5	12.1	3.01e-04	0	42	0	780140544	22	5405
2026-01-10 01:36:36.27	271.78	32.55	-30.9	-34.9	12.1	2.75e-04	0	42	0	782237696	21	5692
2026-01-10 01:36:37.27	271.47	32.44	-31.0	-34.8	11.8	3.37e-04	0	42	0	784334848	22	5539
2026-01-10 01:36:38.27	271.16	32.32	-31.0	-34.7	11.9	4.06e-04	0	42	0	786432000	22	5497
2026-01-10 01:36:39.27	270.86	32.21	-31.0	-34.6	12.0	4.18e-04	0	42	0	788529152	22	5471
2026-01-10 01:36:40.26	270.56	32.10	-31.0	-34.6	11.9	3.06e-04	0	42	0	789577728	22	5470
2026-01-10 01:36:41.26	270.26	31.98	-31.1	-34.9	11.8	5.26e-04	0	42	0	791674880	22	5591
2026-01-10 01:36:42.26	269.96	31.86	-30.9	-34.4	12.1	3.80e-04	0	42	0	793772032	22	5387
2026-01-10 01:36:43.27	269.66	31.75	-31.1	-34.8	11.9	3.00e-04	0	42	0	795869184	22	5552
2026-01-10 01:36:44.27	269.36	31.63	-31.2	-35.2	11.5	4.81e-04	0	42	0	797966336	22	5737
2026-01-10 01:36:45.28	269.07	31.51	-31.4	-35.8	11.1	1.42e-03	0	42	0	799014912	22	6007
2026-01-10 01:36:46.28	268.78	31.39	-31.4	-35.8	11.1	1.24e-03	0	42	0	801112064	22	6024
2026-01-10 01:36:47.27	268.49	31.27	-31.5	-35.6	10.9	2.50e-03	0	42	0	803209216	23	5791
2026-01-10 01:36:48.28	268.20	31.15	-31.3	-35.1	11.2	1.42e-03	0	42	0	805306368	23	5595
2026-01-10 01:36:49.28	267.92	31.04	-31.2	-35.3	11.4	1.03e-03	0	42	0	806354944	22	5763
2026-01-10 01:36:50.28	267.64	30.92	-31.2	-35.2	11.5	9.38e-04	0	42	0	808452096	22	5731
2026-01-10 01:36:51.28	267.36	30.80	-31.3	-35.7	11.2	9.57e-04	0	42	0	810549248	22	5971
2026-01-10 01:36:52.29	267.08	30.68	-31.3	-35.7	11.1	1.95e-03	0	42	0	812646400	22	5961
2026-01-10 01:36:53.29	266.80	30.56	-31.2	-35.4	11.3	1.44e-03	0	42	0	814743552	22	5819
2026-01-10 01:36:54.30	266.52	30.43	-31.4	-35.8	11.1	1.14e-03	0	42	0	816840704	22	6024
2026-01-10 01:36:55.30	266.25	30.31	-31.3	-35.7	11.2	1.33e-03	0	42	0	817889280	22	5939
2026-01-10 01:36:56.30	265.98	30.19	-31.4	-35.6	10.9	2.19e-03	0	42	0	819986432	23	5790
2026-01-10 01:36:57.30	265.71	30.07	-31.3	-35.0	11.3	1.79e-03	0	42	0	822083584	23	5558
2026-01-10 01:36:58.30	265.45	29.95	-31.1	-34.5	11.7	6.57e-04	0	42	0	824180736	23	5325
2026-01-10 01:36:59.31	265.18	29.83	-31.0	-34.1	11.9	4.12e-04	0	42	0	825229312	23	5153
2026-01-10 01:37:00.31	264.92	29.71	-30.8	-34.0	12.3	2.45e-04	0	42	0	827326464	22	5231
2026-01-10 01:37:01.31	264.66	29.58	-30.7	-34.2	12.5	1.71e-04	0	42	0	829423616	21	5424
2026-01-10 01:37:02.30	264.41	29.46	-29.7	-33.1	12.7	9.23e-05	0	42	0	831520768	21	5357
2026-01-10 01:37:03.31	264.15	29.34	-29.5	-32.8	12.8	8.08e-05	0	42	0	833617920	21	5273
2026-01-10 01:37:04.30	263.90	29.22	-31.1	-34.9	11.9	1.64e-04	0	42	0	834666496	22	5572
2026-01-10 01:37:05.30	263.65	29.10	-31.3	-35.7	11.1	1.06e-03	0	42	0	836763648	22	5953
2026-01-10 01:37:06.31	263.39	28.97	-31.0	-34.7	11.7	1.36e-03	0	42	0	838860800	22	5512
2026-01-10 01:37:07.31	263.14	28.85	-30.8	-34.2	12.2	3.35e-04	0	42	0	840957952	22	5285
2026-01-10 01:37:08.30	262.90	28.73	-31.5	-36.2	10.7	3.53e-04	0	42	0	843055104	22	6202
2026-01-10 01:37:09.31	262.65	28.61	-31.1	-34.9	11.7	2.20e-03	0	42	0	844103680	22	5568
2026-01-10 01:37:10.31	262.41	28.48	-31.4	-35.2	11.4	9.55e-04	0	42	0	846200832	23	5613
2026-01-10 01:37:11.32	262.17	28.36	-31.4	-35.9	11.3	5.70e-04	0	42	0	848297984	22	6005
2026-01-10 01:37:12.32	261.93	28.24	-30.7	-34.3	12.5	2.15e-03	0	42	0	850395136	21	5408
2026-01-10 01:37:13.32	261.69	28.12	-30.4	-33.5	13.2	3.96e-05	0	42	0	851443712	21	5115
2026-01-10 01:37:14.33	261.46	27.99	-30.4	-33.8	13.2	2.59e-05	0	42	0	853540864	20	5364
2026-01-10 01:37:15.33	261.22	27.87	-30.2	-33.5	13.4	1.22e-05	0	42	0	855638016	20	5227
2026-01-10 01:37:16.33	260.99	27.75	-30.2	-33.5	13.3	1.67e-05	0	42	0	857735168	20	5243
2026-01-10 01:37:17.33	260.76	27.62	-30.2	-33.4	13.5	1.14e-05	0	42	0	859832320	20	5201
2026-01-10 01:37:18.34	260.53	27.50	-30.4	-33.5	13.1	1.67e-05	0	42	0	861929472	21	5104
2026-01-10 01:37:19.34	260.31	27.38	-30.0	-32.3	13.8	3.00e-06	0	42	0	862978048	21	4717
2026-01-10 01:37:20.34	260.08	27.26	-30.0	-32.2	14.0	3.00e-06	0	42	0	865075200	21	4673
2026-01-10 01:37:21.34	259.86	27.13	-30.0	-32.9	13.8	6.80e-06	0	42	0	867172352	20	5020
2026-01-10 01:37:22.35	259.64	27.01	-29.8	-32.2	14.2	9.10e-06	0	42	0	869269504	20	4744
2026-01-10 01:37:23.35	259.42	26.89	-30.4	-33.9	13.4	8.30e-06	0	42	0	870318080	20	5386
2026-01-10 01:37:24.35	259.20	26.77	-30.6	-33.9	13.0	1.44e-05	0	42	0	872415232	21	5245
2026-01-10 01:37:25.35	258.98	26.64	-30.7	-34.3	12.6	6.02e-05	0	42	0	874512384	21	5427
2026-01-10 01:37:26.35	258.77	26.52	-30.1	-33.1	13.7	2.12e-03	0	42	0	876609536	20	5066
2026-01-10 01:37:27.34	258.56	26.40	-30.4	-33.9	13.1	5.30e-06	0	42	0	878706688	20	5377
2026-01-10 01:37:28.35	258.35	26.28	-30.3	-33.2	13.3	2.51e-05	0	42	0	879755264	21	5022
2026-01-10 01:37:29.36	258.14	26.16	-29.9	-33.2	14.0	2.30e-03	0	42	0	881852416	19	5210
2026-01-10 01:37:30.35	257.93	26.04	-29.9	-32.9	14.2	3.00e-06	0	42	0	883949568	19	5114
2026-01-10 01:37:31.36	257.72	25.91	-29.5	-31.6	14.6	2.20e-06	0	42	0	886046720	20	4568
2026-01-10 01:37:32.36	257.52	25.79	-29.3	-32.1	15.0	0.00e+00	0	42	0	888143872	18	4933
2026-01-10 01:37:33.37	257.31	25.67	-29.6	-32.2	14.6	1.41e-03	0	42	0	889192448	19	4869
2026-01-10 01:37:34.37	257.11	25.55	-29.7	-31.9	14.5	4.50e-06	0	42	0	891289600	20	4662
2026-01-10 01:37:35.37	256.91	25.43	-29.9	-32.6	13.9	1.06e-05	0	42	0	893386752	20	4911
2026-01-10 01:37:36.37	256.71	25.31	-30.1	-32.6	13.5	2.28e-05	0	42	0	895483904	21	4805
2026-01-10 01:37:37.37	256.52	25.19	-30.0	-32.7	14.1	1.50e-06	0	42	0	896532480	20	4923
2026-01-10 01:37:38.38	256.32	25.07	-30.3	-33.5	13.4	2.20e-06	0	42	0	898629632	20	5230
2026-01-10 01:37:39.38	256.13	24.95	-31.2	-35.4	11.2	1.06e-05	0	42	0	900726784	22	5798
2026-01-10 01:37:40.38	255.93	24.83	-29.8	-32.2	14.3	1.50e-06	0	42	0	902823936	20	4750
2026-01-10 01:37:41.38	255.74	24.71	-29.5	-31.9	14.8	0.00e+00	0	42	0	904921088	19	4774
2026-01-10 01:37:42.39	255.55	24.59	-29.6	-32.1	14.7	1.50e-06	0	42	0	907018240	19	4831
2026-01-10 01:37:43.39	255.36	24.47	-29.8	-32.3	14.1	7.00e-07	0	42	0	908066816	20	4802
2026-01-10 01:37:44.40	255.18	24.35	-29.7	-32.5	14.3	1.65e-04	0	42	0	910163968	19	4979
2026-01-10 01:37:45.40	254.99	24.23	-29.7	-32.6	14.3	7.00e-07	0	42	0	912261120	19	5009
2026-01-10 01:37:46.39	254.81	24.11	-29.8	-32.2	14.2	1.50e-06	0	42	0	914358272	20	4774
2026-01-10 01:37:47.39	254.63	23.99	-30.8	-34.6	12.1	1.74e-03	0	42	0	915406848	21	5551
2026-01-10 01:37:48.39	254.45	23.87	-30.0	-32.9	13.8	2.44e-05	0	42	0	917504000	20	5001
2026-01-10 01:37:49.40	254.27	23.76	-29.8	-32.2	14.2	3.00e-06	0	42	0	919601152	20	4785
2026-01-10 01:37:50.40	254.09	23.64	-30.3	-33.6	13.4	2.25e-03	0	42	0	921698304	20	5275
2026-01-10 01:37:51.41	253.91	23.52	-30.2	-32.9	13.3	2.27e-03	0	42	0	923795456	21	4915
2026-01-10 01:37:52.40	253.74	23.40	-31.2	-35.4	11.3	1.54e-04	0	42	0	924844032	22	5856
2026-01-10 01:37:53.40	253.56	23.29	-31.2	-35.2	11.6	2.84e-03	0	42	0	926941184	22	5713
2026-01-10 01:37:54.40	253.39	23.17	-31.2	-35.4	11.5	3.93e-03	0	42	0	929038336	22	5809
2026-01-10 01:37:55.40	253.22	23.05	-30.9	-34.9	12.2	3.82e-04	0	42	0	931135488	21	5709
2026-01-10 01:37:56.41	253.05	22.94	-30.4	-33.4	13.1	1.39e-04	0	42	0	933232640	21	5102
2026-01-10 01:37:57.41	252.88	22.82	-30.4	-33.9	13.2	2.53e-03	0	42	0	934281216	20	5402
2026-01-10 01:37:58.42	252.71	22.70	-30.2	-32.8	13.5	3.28e-04	0	42	0	936378368	21	4887
2026-01-10 01:37:59.43	252.54	22.59	-30.5	-33.6	13.0	2.44e-05	0	42	0	938475520	21	5173
2026-01-10 01:38:00.43	252.37	22.47	-30.2	-33.5	13.2	2.34e-03	0	42	0	940572672	20	5268
2026-01-10 01:38:01.43	252.21	22.36	-30.1	-33.1	13.5	2.14e-04	0	42	0	942669824	20	5097
2026-01-10 01:38:02.43	252.05	22.24	-30.1	-33.2	13.5	8.30e-06	0	42	0	943718400	20	5128
2026-01-10 01:38:03.44	251.88	22.13	-30.2	-33.4	13.3	2.57e-03	0	42	0	945815552	20	5210
2026-01-10 01:38:04.44	251.72	22.01	-30.0	-32.9	13.6	2.51e-04	0	42	0	947912704	20	5052
2026-01-10 01:38:05.44	251.57	21.90	-30.1	-33.1	13.5	2.81e-03	0	42	0	950009856	20	5114
2026-01-10 01:38:06.44	251.41	21.78	-30.3	-33.8	13.0	9.10e-06	0	42	0	952107008	20	5364
2026-01-10 01:38:07.44	251.25	21.67	-30.6	-34.0	12.4	5.77e-04	0	42	0	953155584	21	5347
2026-01-10 01:38:08.44	251.10	21.56	-30.3	-33.8	13.0	3.13e-03	0	42	0	955252736	20	5391
2026-01-10 01:38:09.44	250.94	21.45	-30.4	-34.2	12.7	5.18e-05	0	42	0	957349888	20	5538
2026-01-10 01:38:10.44	250.79	21.33	-30.4	-33.7	12.7	6.82e-04	0	42	0	959447040	21	5241
2026-01-10 01:38:11.44	250.64	21.22	-30.4	-34.1	12.7	3.08e-03	0	42	0	960495616	20	5498
2026-01-10 01:38:12.44	250.49	21.11	-30.5	-33.9	12.5	3.58e-03	0	42	0	962592768	21	5306
2026-01-10 01:38:13.45	250.33	21.00	-30.5	-34.3	12.6	8.81e-04	0	42	0	964689920	20	5615
2026-01-10 01:38:14.45	250.18	20.89	-30.7	-34.5	12.1	3.56e-03	0	42	0	966787072	21	5564
2026-01-10 01:38:15.45	250.04	20.77	-31.1	-35.3	11.2	4.11e-03	0	42	0	968884224	22	5826
2026-01-10 01:38:16.45	249.89	20.66	-31.2	-35.6	11.2	1.27e-03	0	42	0	969932800	22	5954
2026-01-10 01:38:17.46	249.74	20.55	-31.5	-36.1	10.2	1.68e-02	0	42	0	972029952	23	6065
2026-01-10 01:38:18.46	249.60	20.44	-31.5	-35.9	10.5	1.23e-02	0	42	0	974127104	23	5984
2026-01-10 01:38:19.46	249.46	20.33	-31.0	-34.9	11.5	1.57e-03	0	42	0	976224256	22	5645
2026-01-10 01:38:20.46	249.31	20.22	-31.0	-35.3	11.6	3.60e-03	0	42	0	978321408	21	5935
2026-01-10 01:38:21.46	249.17	20.11	-31.0	-34.9	11.5	4.28e-03	0	42	0	979369984	22	5624
2026-01-10 01:38:22.45	249.03	20.00	-31.1	-35.2	11.3	1.38e-03	0	42	0	981467136	22	5767
2026-01-10 01:38:23.45	248.89	19.90	-31.1	-35.2	11.2	1.80e-03	0	42	0	983564288	22	5790
2026-01-10 01:38:24.45	248.76	19.79	-30.8	-35.0	11.7	3.79e-03	0	42	0	985661440	21	5784
2026-01-10 01:38:25.45	248.62	19.68	-30.8	-34.7	11.8	6.54e-04	0	42	0	987758592	21	5691
2026-01-10 01:38:26.46	248.48	19.57	-30.6	-34.1	12.3	3.40e-03	0	42	0	988807168	21	5430
2026-01-10 01:38:27.45	248.35	19.46	-30.4	-34.3	12.5	2.84e-03	0	42	0	990904320	20	5594
2026-01-10 01:38:28.45	248.21	19.36	-30.4	-34.1	12.6	3.33e-04	0	42	0	993001472	20	5524
2026-01-10 01:38:29.46	248.08	19.25	-30.4	-34.1	12.6	2.62e-03	0	42	0	995098624	20	5523
2026-01-10 01:38:30.46	247.94	19.14	-30.3	-33.8	12.8	7.47e-05	0	42	0	996147200	20	5406
2026-01-10 01:38:31.46	247.81	19.04	-30.5	-34.3	12.6	2.97e-04	0	42	0	998244352	20	5603
2026-01-10 01:38:32.46	247.68	18.93	-30.4	-34.0	12.7	2.23e-03	0	42	0	1000341504	20	5501
2026-01-10 01:38:33.46	247.55	18.82	-30.4	-34.3	12.5	1.97e-03	0	42	0	1002438656	20	5608
2026-01-10 01:38:34.46	247.42	18.72	-30.6	-34.2	12.2	3.11e-04	0	42	0	1004535808	21	5457
2026-01-10 01:38:35.46	247.30	18.61	-30.7	-34.7	11.8	4.23e-04	0	42	0	1005584384	21	5683
2026-01-10 01:38:36.46	247.17	18.51	-30.6	-34.3	12.1	3.35e-04	0	42	0	1007681536	21	5527
2026-01-10 01:38:37.47	247.04	18.40	-30.6	-34.3	12.1	2.89e-04	0	42	0	1009778688	21	5522
2026-01-10 01:38:38.47	246.92	18.30	-30.6	-34.2	12.1	5.40e-04	0	42	0	1011875840	21	5479
2026-01-10 01:38:39.47	246.79	18.19	-30.5	-34.1	12.2	2.67e-04	0	42	0	1013972992	21	5414
2026-01-10 01:38:40.47	246.67	18.09	-30.6	-34.4	12.0	2.40e-04	0	42	0	1015021568	21	5547
2026-01-10 01:38:41.48	246.54	17.99	-30.5	-34.0	12.3	7.90e-04	0	42	0	1017118720	21	5379
2026-01-10 01:38:42.48	246.42	17.88	-30.4	-34.3	12.3	3.20e-04	0	42	0	1019215872	20	5631
2026-01-10 01:38:43.48	246.30	17.78	-30.4	-34.2	12.5	1.34e-04	0	42	0	1021313024	20	5581
2026-01-10 01:38:44.49	246.18	17.68	-30.4	-34.3	12.4	1.66e-03	0	42	0	1023410176	20	5643
2026-01-10 01:38:45.48	246.06	17.58	-30.6	-34.3	12.0	2.58e-03	0	42	0	1024458752	21	5528
2026-01-10 01:38:46.48	245.94	17.47	-30.7	-34.5	11.8	5.29e-04	0	42	0	1026555904	21	5605
2026-01-10 01:38:47.48	245.83	17.37	-30.7	-34.7	11.8	3.16e-03	0	42	0	1028653056	21	5677
2026-01-10 01:38:48.49	245.71	17.27	-30.7	-34.7	11.8	3.67e-03	0	42	0	1030750208	21	5679
2026-01-10 01:38:49.50	245.59	17.17	-30.7	-34.7	11.8	4.61e-04	0	42	0	1032847360	21	5680
2026-01-10 01:38:50.49	245.48	17.07	-30.8	-34.9	11.6	3.97e-03	0	42	0	1033895936	21	5781
2026-01-10 01:38:51.50	245.36	16.97	-30.7	-34.6	11.7	3.57e-03	0	42	0	1035993088	21	5677
2026-01-10 01:38:52.50	245.25	16.87	-30.6	-34.5	11.9	5.61e-04	0	42	0	1038090240	21	5595
2026-01-10 01:38:53.51	245.13	16.77	-30.7	-34.7	11.7	3.96e-03	0	42	0	1040187392	21	5701
2026-01-10 01:38:54.51	245.02	16.67	-30.4	-34.3	12.3	3.13e-03	0	42	0	1041235968	20	5657
2026-01-10 01:38:55.52	244.91	16.57	-30.4	-34.3	12.3	3.47e-04	0	42	0	1043333120	20	5640
2026-01-10 01:38:56.52	244.80	16.47	-30.4	-34.4	12.2	2.97e-03	0	42	0	1045430272	20	5664
2026-01-10 01:38:57.52	244.69	16.37	-30.2	-33.7	12.7	3.04e-03	0	42	0	1047527424	20	5391
2026-01-10 01:38:58.52	244.58	16.27	-30.2	-33.6	12.7	2.95e-04	0	42	0	1049624576	20	5354
2026-01-10 01:38:59.52	244.47	16.17	-30.2	-33.8	12.6	2.59e-03	0	42	0	1050673152	20	5445
2026-01-10 01:39:00.52	244.36	16.07	-30.3	-34.0	12.5	1.76e-03	0	42	0	1052770304	20	5517
2026-01-10 01:39:01.52	244.25	15.98	-30.5	-34.1	12.1	1.52e-04	0	42	0	1054867456	21	5470
2026-01-10 01:39:02.52	244.15	15.88	-30.6	-34.3	11.9	2.76e-03	0	42	0	1056964608	21	5536
2026-01-10 01:39:03.52	244.04	15.78	-30.5	-34.0	12.1	1.12e-03	0	42	0	1059061760	21	5418
2026-01-10 01:39:04.52	243.94	15.69	-30.5	-34.1	12.1	2.27e-04	0	42	0	1060110336	21	5436
2026-01-10 01:39:05.52	243.83	15.59	-30.5	-34.2	11.9	3.44e-03	0	42	0	1062207488	21	5479
2026-01-10 01:39:06.53	243.73	15.49	-30.5	-34.6	12.0	3.45e-03	0	42	0	1064304640	20	5780
2026-01-10 01:39:07.52	243.63	15.40	-30.5	-34.1	12.0	5.80e-04	0	42	0	1066401792	21	5453
2026-01-10 01:39:08.52	243.52	15.30	-30.5	-34.2	12.0	2.94e-04	0	42	0	1067450368	21	5474
2026-01-10 01:39:09.52	243.42	15.21	-30.6	-34.5	11.8	3.79e-03	0	42	0	1069547520	21	5630
2026-01-10 01:39:10.52	243.32	15.11	-30.5	-34.1	12.0	9.99e-04	0	42	0	1071644672	21	5447
2026-01-10 01:39:11.51	243.22	15.02	-30.3	-34.0	12.5	3.89e-03	0	42	0	1073741824	20	5523
2026-01-10 01:39:12.51	243.12	14.92	-30.7	-34.6	11.6	3.62e-03	0	42	0	1075838976	21	5682
2026-01-10 01:39:13.52	243.02	14.83	-30.5	-34.1	12.1	9.80e-04	0	42	0	1076887552	21	5437
2026-01-10 01:39:14.52	242.93	14.73	-30.3	-33.9	12.5	3.38e-03	0	42	0	1078984704	20	5488
2026-01-10 01:39:15.52	242.83	14.64	-30.3	-34.0	12.5	1.27e-04	0	42	0	1081081856	20	5499
2026-01-10 01:39:16.52	242.73	14.55	-30.2	-33.7	12.6	6.70e-04	0	42	0	1083179008	20	5417
2026-01-10 01:39:17.53	242.63	14.45	-30.5	-34.2	12.0	3.81e-03	0	42	0	1085276160	21	5473
2026-01-10 01:39:18.53	242.54	14.36	-30.3	-33.6	12.4	1.98e-04	0	42	0	1086324736	21	5242
2026-01-10 01:39:19.53	242.44	14.27	-30.5	-34.2	12.0	6.85e-04	0	42	0	1088421888	21	5478
2026-01-10 01:39:20.53	242.35	14.18	-30.7	-34.7	11.6	3.32e-03	0	42	0	1090519040	21	5721
2026-01-10 01:39:21.53	242.25	14.08	-30.3	-34.0	12.5	2.59e-03	0	42	0	1092616192	20	5508
2026-01-10 01:39:22.53	242.16	13.99	-30.3	-34.0	12.4	1.21e-04	0	42	0	1094713344	20	5547
2026-01-10 01:39:23.53	242.07	13.90	-30.4	-34.5	12.1	2.43e-03	0	42	0	1095761920	20	5734
2026-01-10 01:39:24.54	241.97	13.81	-30.6	-34.4	11.8	3.71e-03	0	42	0	1097859072	21	5576
2026-01-10 01:39:25.55	241.88	13.72	-30.4	-34.2	12.1	2.74e-04	0	42	0	1099956224	20	5638
2026-01-10 01:39:26.55	241.79	13.63	-30.4	-33.9	12.2	4.28e-04	0	42	0	1102053376	21	5363
2026-01-10 01:39:27.55	241.70	13.54	-30.8	-34.6	11.4	1.43e-03	0	42	0	1104150528	22	5547
2026-01-10 01:39:28.55	241.61	13.45	-30.9	-35.6	10.8	1.55e-03	0	42	0	1105199104	21	6155
2026-01-10 01:39:29.55	241.52	13.36	-31.4	-36.3	9.3	1.26e-02	0	42	0	1107296256	23	6277
2026-01-10 01:39:30.56	241.43	13.27	-30.8	-34.6	11.3	4.61e-03	0	42	0	1109393408	22	5557
2026-01-10 01:39:31.55	241.34	13.18	-31.1	-35.8	10.4	3.18e-03	0	42	0	1111490560	22	6140
2026-01-10 01:39:32.56	241.26	13.09	-30.9	-34.9	11.0	2.06e-03	0	42	0	1112539136	22	5706
2026-01-10 01:39:33.56	241.17	13.00	-30.8	-35.2	11.1	1.26e-03	0	42	0	1114636288	21	5968
2026-01-10 01:39:34.55	241.08	12.91	-31.3	-36.3	10.0	5.69e-03	0	42	0	1116733440	22	6433
2026-01-10 01:39:35.56	241.00	12.82	-31.2	-36.0	10.2	7.58e-03	0	42	0	1118830592	22	6236
2026-01-10 01:39:36.56	240.91	12.73	-31.2	-36.1	10.1	4.88e-03	0	42	0	1120927744	22	6306
2026-01-10 01:39:37.56	240.82	12.65	-31.2	-36.1	10.1	8.59e-03	0	42	0	1121976320	22	6306
2026-01-10 01:39:38.56	240.74	12.56	-31.3	-36.5	9.8	8.65e-03	0	42	0	1124073472	22	6535
2026-01-10 01:39:39.55	240.66	12.47	-31.2	-36.2	10.0	1.04e-02	0	42	0	1126170624	22	6373
2026-01-10 01:39:40.56	240.57	12.38	-30.9	-35.2	10.7	4.62e-03	0	42	0	1128267776	22	5881
2026-01-10 01:39:41.56	240.49	12.30	-30.8	-34.8	10.9	6.36e-03	0	42	0	1130364928	22	5688
2026-01-10 01:39:42.56	240.41	12.21	-30.7	-35.0	11.1	5.55e-03	0	42	0	1131413504	21	5897
2026-01-10 01:39:43.56	240.33	12.12	-30.8	-35.4	10.9	2.12e-03	0	42	0	1133510656	21	6068
2026-01-10 01:39:44.57	240.24	12.04	-30.7	-35.0	11.1	5.70e-03	0	42	0	1135607808	21	5918
2026-01-10 01:39:45.56	240.16	11.95	-30.8	-35.4	10.8	5.54e-03	0	42	0	1137704960	21	6070
2026-01-10 01:39:46.56	240.08	11.87	-30.9	-35.6	10.7	2.39e-03	0	42	0	1139802112	21	6214
2026-01-10 01:39:47.57	240.00	11.78	-30.9	-35.0	10.7	4.41e-03	0	42	0	1140850688	22	5813
2026-01-10 01:39:48.57	239.92	11.70	-30.6	-34.8	11.2	5.01e-03	0	42	0	1142947840	21	5806
2026-01-10 01:39:49.57	239.84	11.61	-30.6	-34.5	11.4	1.30e-03	0	42	0	1145044992	21	5700
2026-01-10 01:39:50.57	239.76	11.53	-30.5	-34.3	11.5	8.73e-04	0	42	0	1147142144	21	5597
2026-01-10 01:39:51.57	239.69	11.44	-30.5	-34.4	11.5	3.68e-03	0	42	0	1148190720	21	5659
2026-01-10 01:39:52.57	239.61	11.36	-30.6	-34.7	11.3	1.19e-03	0	42	0	1150287872	21	5768
2026-01-10 01:39:53.57	239.53	11.27	-30.6	-34.7	11.2	1.53e-03	0	42	0	1152385024	21	5790
2026-01-10 01:39:54.56	239.45	11.19	-30.7	-35.0	11.0	1.63e-03	0	42	0	1154482176	21	5917
2026-01-10 01:39:55.57	239.38	11.11	-30.6	-34.9	11.1	1.83e-03	0	42	0	1156579328	21	5858
2026-01-10 01:39:56.56	239.30	11.02	-30.6	-34.8	11.2	1.96e-03	0	42	0	1157627904	21	5836
2026-01-10 01:39:57.57	239.23	10.94	-30.7	-35.1	10.9	1.71e-03	0	42	0	1159725056	21	5978
2026-01-10 01:39:58.57	239.15	10.86	-30.7	-35.2	10.8	2.63e-03	0	42	0	1161822208	21	6042
2026-01-10 01:39:59.58	239.08	10.77	-30.7	-35.0	10.9	3.64e-03	0	42	0	1163919360	21	5953
2026-01-10 01:40:00.58	239.00	10.69	-30.7	-35.3	10.8	2.08e-03	0	42	0	1166016512	21	6059
2026-01-10 01:40:01.58	238.93	10.61	-30.8	-35.5	10.6	3.31e-03	0	42	0	1167065088	21	6166
2026-01-10 01:40:02.58	238.85	10.53	-30.9	-35.3	10.4	5.37e-03	0	42	0	1169162240	22	5945
2026-01-10 01:40:03.58	238.78	10.45	-31.2	-36.2	9.7	7.23e-03	0	42	0	1171259392	22	6437
2026-01-10 01:40:04.59	238.71	10.37	-31.0	-35.6	10.1	1.17e-02	0	42	0	1173356544	22	6110
2026-01-10 01:40:05.59	238.64	10.28	-30.9	-35.9	10.3	6.67e-03	0	42	0	1175453696	21	6366
2026-01-10 01:40:06.60	238.56	10.20	-31.4	-37.0	9.1	1.50e-02	0	42	0	1176502272	22	6854
2026-01-10 01:40:07.60	238.49	10.12	-31.3	-36.6	9.4	1.70e-02	0	42	0	1178599424	22	6667
2026-01-10 01:40:08.61	238.42	10.04	-31.2	-36.4	9.6	1.49e-02	0	42	0	1180696576	22	6530
2026-01-10 01:40:09.61	238.35	9.96	-31.0	-35.7	10.1	1.13e-02	0	42	0	1182793728	22	6161
2026-01-10 01:40:10.62	238.28	9.88	-31.0	-35.6	10.1	5.97e-03	0	42	0	1184890880	22	6103
2026-01-10 01:40:11.62	238.21	9.80	-30.8	-35.7	10.4	5.47e-03	0	42	0	1185939456	21	6269
2026-01-10 01:40:12.61	238.14	9.72	-30.9	-35.7	10.4	8.14e-03	0	42	0	1188036608	21	6278
2026-01-10 01:40:13.61	238.07	9.64	-30.9	-36.0	10.2	6.15e-03	0	42	0	1190133760	21	6419
2026-01-10 01:40:14.61	238.01	9.56	-30.9	-36.0	10.1	5.01e-03	0	42	0	1192230912	21	6451
2026-01-10 01:40:15.62	237.94	9.48	-31.0	-35.6	10.1	7.50e-03	0	42	0	1193279488	22	6133
2026-01-10 01:40:16.61	237.87	9.40	-31.5	-37.3	8.2	8.99e-03	0	42	0	1195376640	23	7026
2026-01-10 01:40:17.61	237.80	9.33	-31.3	-36.3	9.0	3.52e-02	0	42	0	1197473792	23	6415
2026-01-10 01:40:18.61	237.74	9.25	-31.2	-36.4	9.6	9.58e-03	0	42	0	1199570944	22	6574
2026-01-10 01:40:19.61	237.67	9.17	-31.5	-37.3	8.3	3.05e-02	0	42	0	1201668096	23	6992
2026-01-10 01:40:20.61	237.60	9.09	-31.5	-36.9	8.2	1.72e-01	0	42	0	1202716672	24	6690
2026-01-10 01:40:21.61	237.54	9.01	-31.7	-38.1	7.6	1.01e-01	0	42	0	1204813824	23	7496
2026-01-10 01:40:22.61	237.47	8.94	-31.5	-36.8	8.5	7.48e-02	0	42	0	1206910976	24	6642
2026-01-10 01:40:23.62	237.41	8.86	-31.1	-35.6	9.6	2.64e-02	0	42	0	1209008128	23	6024
2026-01-10 01:40:24.62	237.34	8.78	-31.2	-36.3	9.6	1.11e-02	0	42	0	1211105280	22	6490
2026-01-10 01:40:25.62	237.28	8.70	-31.2	-35.8	9.5	1.41e-02	0	42	0	1212153856	23	6140
2026-01-10 01:40:26.62	237.21	8.63	-31.4	-37.2	8.9	1.19e-02	0	42	0	1214251008	22	7003
2026-01-10 01:40:27.61	237.15	8.55	-31.5	-37.7	8.5	2.32e-02	0	42	0	1216348160	22	7319
2026-01-10 01:40:28.62	237.09	8.47	-31.8	-38.4	7.7	1.05e-01	0	42	0	1218445312	23	7720
2026-01-10 01:40:29.62	237.02	8.40	-31.3	-36.5	8.8	4.16e-02	0	42	0	1220542464	23	6540
2026-01-10 01:40:30.63	236.96	8.32	-31.5	-37.5	8.2	5.69e-02	0	42	0	1221591040	23	7109
2026-01-10 01:40:31.63	236.90	8.25	-31.4	-36.7	8.7	3.84e-02	0	42	0	1223688192	23	6665
2026-01-10 01:40:32.63	236.84	8.17	-31.7	-38.1	7.5	5.13e-02	0	42	0	1225785344	23	7576
2026-01-10 01:40:33.64	236.77	8.09	-31.5	-37.6	8.0	9.72e-02	0	42	0	1227882496	23	7218
2026-01-10 01:40:34.64	236.71	8.02	-31.8	-38.6	7.3	1.19e-01	0	42	0	1229979648	23	7873
2026-01-10 01:40:35.64	236.65	7.94	-31.6	-37.7	8.0	8.92e-02	0	42	0	1231028224	23	7246
2026-01-10 01:40:36.64	236.59	7.87	-31.5	-37.1	8.3	9.41e-02	0	42	0	1233125376	23	6930
2026-01-10 01:40:37.64	236.53	7.79	-31.5	-37.1	8.4	5.10e-02	0	42	0	1235222528	23	6916
2026-01-10 01:40:38.65	236.47	7.72	-31.3	-36.5	8.9	4.27e-02	0	42	0	1237319680	23	6543
2026-01-10 01:40:39.64	236.41	7.65	-31.3	-37.1	8.6	4.40e-02	0	42	0	1238368256	22	7043
2026-01-10 01:40:40.65	236.35	7.57	-31.2	-36.5	9.1	2.63e-02	0	42	0	1240465408	22	6696
2026-01-10 01:40:41.64	236.29	7.50	-31.1	-36.5	9.1	2.06e-02	0	42	0	1242562560	22	6676
2026-01-10 01:40:42.64	236.23	7.42	-31.1	-36.4	9.1	2.19e-02	0	42	0	1244659712	22	6646
2026-01-10 01:40:43.64	236.17	7.35	-31.1	-36.3	9.2	2.19e-02	0	42	0	1246756864	22	6595
2026-01-10 01:40:44.65	236.12	7.28	-31.0	-36.0	9.5	1.50e-02	0	42	0	1247805440	22	6396
2026-01-10 01:40:45.65	236.06	7.20	-31.0	-36.2	9.3	1.57e-02	0	42	0	1249902592	22	6518
2026-01-10 01:40:46.65	236.00	7.13	-31.2	-36.6	9.0	2.10e-02	0	42	0	1251999744	22	6758
2026-01-10 01:40:47.65	235.94	7.06	-32.8	-46.9	3.8	8.12e-02	0	42	104	1253048320	25	18342
2026-01-10 01:40:48.65	235.89	6.99	-33.1	-47.3	3.8	1.49e+00	0	42	104	1253048320	26	18409
2026-01-10 01:40:49.66	235.83	6.91	-33.3	-47.8	3.8	1.49e+00	0	42	104	1253048320	26	18926

#Closed at: 2026-01-10 01:40:50
#Recorded file [1253 MB]: D:/data/31010_260110_042938.dat