passes_logs/2026/01/10/R2M6_AANII_01/R2M6_AANII_01__20260110_005101_AQUA_rec.log

#Pass ID: 20260110_005101_AQUA
#Satellite: AQUA
#Configuration: AQUA
#almurnet v.1.7.20240730
#Start time: 2026-01-10 00:51:15

#Version: 2.2.20231116
#Station: R2M6_AANII_01
#Location: 30.233357 lon 59.946436 lat
#TLE: 1 27424U 02022A   26009.00333547  .00001046  00000+0  21942-3 0  9998
#TLE: 2 27424  98.4075 335.3304 0002025  85.7625 349.1392 14.61808998260011

#Time	Az	El	Level	Level2	SNR	BER	BlckErr	Temp	State	Recorded	gain1	gain2
2026-01-10 00:51:15.65	29.19	8.04	-33.5	-45.8	3.8	1.49e+00	0	42	0	0	26	14897
2026-01-10 00:51:16.64	29.28	8.11	-34.4	-53.9	3.8	7.44e-01	0	42	104	0	29	33878
2026-01-10 00:51:17.64	29.37	8.19	-34.4	-53.9	3.8	7.47e-01	0	42	104	0	29	33993
2026-01-10 00:51:18.63	29.46	8.26	-34.5	-54.0	3.8	7.45e-01	0	42	104	0	29	34139
2026-01-10 00:51:19.62	29.55	8.34	-34.5	-54.0	3.8	7.44e-01	0	42	104	0	29	34189
2026-01-10 00:51:20.62	29.65	8.41	-34.5	-54.0	3.8	7.45e-01	0	42	104	0	29	34120
2026-01-10 00:51:21.61	29.74	8.49	-34.5	-54.0	3.8	7.43e-01	0	42	104	0	29	34079
2026-01-10 00:51:22.60	29.83	8.56	-34.5	-54.0	3.8	7.44e-01	0	42	104	0	29	34096
2026-01-10 00:51:23.61	29.93	8.64	-34.5	-54.0	3.8	7.47e-01	0	42	104	0	29	34009
2026-01-10 00:51:24.60	30.02	8.72	-34.4	-54.0	3.8	7.42e-01	0	42	104	0	29	34057
2026-01-10 00:51:25.60	30.12	8.79	-34.4	-54.0	3.8	7.47e-01	0	42	104	0	29	34137
2026-01-10 00:51:26.59	30.22	8.87	-34.4	-53.9	3.8	7.44e-01	0	42	104	0	29	34064
2026-01-10 00:51:27.58	30.31	8.94	-34.4	-53.9	3.8	7.43e-01	0	42	104	0	29	33894
2026-01-10 00:51:28.57	30.41	9.02	-34.4	-53.9	3.8	7.45e-01	0	42	104	0	29	33974
2026-01-10 00:51:29.57	30.51	9.10	-34.5	-54.0	3.8	7.46e-01	0	42	104	0	29	34189
2026-01-10 00:51:30.56	30.60	9.17	-34.5	-54.0	3.8	7.43e-01	0	42	104	0	29	34142
2026-01-10 00:51:31.56	30.70	9.25	-34.4	-53.9	3.8	7.44e-01	0	42	104	0	29	33907
2026-01-10 00:51:32.56	30.80	9.33	-34.4	-53.9	3.8	7.47e-01	0	42	104	0	29	34015
2026-01-10 00:51:33.55	30.90	9.41	-34.5	-54.0	3.8	7.41e-01	0	42	104	0	29	34122
2026-01-10 00:51:34.54	31.00	9.48	-34.4	-54.0	3.8	7.43e-01	0	42	104	0	29	34067
2026-01-10 00:51:35.55	31.11	9.56	-34.4	-53.9	3.8	7.47e-01	0	42	104	0	29	33934
2026-01-10 00:51:36.54	31.21	9.64	-34.4	-53.9	3.8	7.45e-01	0	42	104	0	29	33934
2026-01-10 00:51:37.54	31.31	9.72	-34.4	-53.9	3.8	7.48e-01	0	42	104	0	29	33915
2026-01-10 00:51:38.54	31.41	9.80	-34.4	-53.9	3.8	7.43e-01	0	42	104	0	29	33887
2026-01-10 00:51:39.54	31.52	9.88	-34.4	-53.9	3.8	7.45e-01	0	42	104	0	29	33863
2026-01-10 00:51:40.53	31.62	9.96	-34.4	-53.8	3.8	7.47e-01	0	42	104	0	29	33837
2026-01-10 00:51:41.52	31.72	10.04	-34.4	-53.8	3.8	7.48e-01	0	42	104	0	29	33665
2026-01-10 00:51:42.52	31.83	10.12	-34.5	-54.0	3.8	7.46e-01	0	42	104	0	29	34199
2026-01-10 00:51:43.52	31.93	10.20	-34.4	-53.9	3.8	7.48e-01	0	42	104	0	29	33903
2026-01-10 00:51:44.52	32.04	10.28	-34.4	-53.8	3.8	7.44e-01	0	42	104	0	29	33601
2026-01-10 00:51:45.53	32.15	10.36	-34.3	-53.7	3.8	7.46e-01	0	42	104	0	29	33559
2026-01-10 00:51:46.52	32.26	10.44	-34.2	-53.6	3.8	7.47e-01	0	42	104	0	29	33267
2026-01-10 00:51:47.51	32.36	10.52	-34.1	-53.2	3.8	7.47e-01	0	42	104	0	29	32342
2026-01-10 00:51:48.52	32.47	10.60	-34.0	-53.5	3.8	7.45e-01	0	42	104	0	28	33960
2026-01-10 00:51:49.51	32.58	10.68	-33.8	-52.9	3.8	7.46e-01	0	42	104	0	28	32419
2026-01-10 00:51:50.50	32.69	10.76	-33.6	-51.1	3.8	7.45e-01	0	42	104	0	28	26952
2026-01-10 00:51:51.50	32.80	10.84	-33.5	-50.4	3.8	7.41e-01	0	42	104	0	28	25204
2026-01-10 00:51:52.49	32.91	10.92	-33.5	-49.8	4.1	7.40e-01	0	42	104	0	28	23382
2026-01-10 00:51:53.49	33.03	11.01	-33.5	-50.1	3.9	7.44e-01	0	42	104	0	28	24270
2026-01-10 00:51:54.48	33.14	11.09	-33.5	-50.5	3.9	7.44e-01	0	42	104	0	28	25302
2026-01-10 00:51:55.47	33.25	11.17	-33.5	-50.7	4.0	7.43e-01	0	42	104	0	28	26030
2026-01-10 00:51:56.48	33.37	11.25	-33.5	-51.4	3.9	7.46e-01	0	42	104	0	28	28043
2026-01-10 00:51:57.47	33.48	11.34	-33.5	-49.2	4.3	7.36e-01	0	42	104	0	28	21991
2026-01-10 00:51:58.47	33.60	11.42	-33.4	-47.4	4.0	7.34e-01	0	42	104	0	28	18163
2026-01-10 00:51:59.47	33.71	11.50	-33.0	-42.2	8.6	6.35e-01	0	42	104	0	28	10364
2026-01-10 00:52:00.47	33.83	11.59	-32.6	-39.3	11.9	6.10e-01	0	42	0	1572864	27	7790
2026-01-10 00:52:01.46	33.95	11.67	-32.0	-36.9	14.2	6.05e-01	0	42	0	3145728	26	6351
2026-01-10 00:52:02.45	34.06	11.75	-31.6	-36.1	15.3	6.05e-01	0	42	0	5242880	25	6034
2026-01-10 00:52:03.45	34.18	11.84	-31.0	-34.6	16.6	6.03e-01	0	42	0	6815744	24	5427
2026-01-10 00:52:04.44	34.30	11.92	-30.5	-33.6	17.6	6.05e-01	0	42	0	8912896	23	5135
2026-01-10 00:52:05.43	34.42	12.01	-30.4	-33.2	17.9	6.02e-01	0	42	0	10485760	23	4978
2026-01-10 00:52:06.43	34.54	12.09	-30.4	-33.8	17.9	6.02e-01	0	42	0	12582912	22	5294
2026-01-10 00:52:07.43	34.66	12.18	-30.7	-34.5	17.4	6.06e-01	0	42	0	14155776	22	5596
2026-01-10 00:52:08.42	34.78	12.26	-31.0	-35.5	16.7	6.03e-01	0	42	0	16252928	22	6068
2026-01-10 00:52:09.42	34.91	12.35	-31.5	-36.5	15.7	6.03e-01	0	42	0	18350080	23	6471
2026-01-10 00:52:10.42	35.03	12.43	-31.6	-36.5	15.2	6.04e-01	0	42	0	19922944	24	6360
2026-01-10 00:52:11.40	35.15	12.52	-31.7	-36.9	15.0	6.04e-01	0	42	0	22020096	24	6571
2026-01-10 00:52:12.40	35.28	12.60	-31.5	-36.3	15.5	6.02e-01	0	42	0	23592960	24	6226
2026-01-10 00:52:13.40	35.41	12.69	-31.9	-37.7	14.5	6.05e-01	0	42	0	25690112	24	6990
2026-01-10 00:52:14.40	35.53	12.78	-32.0	-37.9	14.4	6.04e-01	0	42	0	27262976	24	7132
2026-01-10 00:52:15.39	35.66	12.86	-31.8	-37.3	14.8	6.03e-01	0	42	0	29360128	24	6800
2026-01-10 00:52:16.39	35.79	12.95	-31.9	-37.4	14.6	6.05e-01	0	42	0	30932992	24	6854
2026-01-10 00:52:17.38	35.92	13.04	-31.5	-36.2	15.7	6.04e-01	0	42	0	33030144	24	6162
2026-01-10 00:52:18.37	36.05	13.13	-31.5	-36.3	15.6	6.04e-01	0	42	0	35127296	24	6196
2026-01-10 00:52:19.37	36.18	13.21	-31.9	-37.8	14.5	6.04e-01	0	42	0	36700160	24	7046
2026-01-10 00:52:20.37	36.31	13.30	-31.2	-35.2	16.3	6.04e-01	0	42	0	38797312	24	5706
2026-01-10 00:52:21.36	36.44	13.39	-31.7	-36.8	15.3	6.03e-01	0	42	0	40370176	24	6463
2026-01-10 00:52:22.36	36.57	13.48	-31.5	-36.0	15.8	6.01e-01	0	42	0	42467328	24	6075
2026-01-10 00:52:23.35	36.71	13.57	-31.8	-37.1	14.9	6.04e-01	0	42	0	44040192	24	6673
2026-01-10 00:52:24.33	36.84	13.65	-31.2	-35.2	16.3	6.04e-01	0	42	0	46137344	24	5665
2026-01-10 00:52:25.33	36.98	13.74	-31.0	-34.6	16.8	6.03e-01	0	42	0	47710208	24	5408
2026-01-10 00:52:26.32	37.11	13.83	-31.0	-35.4	16.9	6.03e-01	0	42	0	49807360	22	6012
2026-01-10 00:52:27.32	37.25	13.92	-31.5	-36.8	15.6	6.04e-01	0	42	0	51904512	23	6563
2026-01-10 00:52:28.32	37.39	14.01	-31.5	-36.5	15.8	6.03e-01	0	42	0	53477376	23	6412
2026-01-10 00:52:29.32	37.53	14.10	-31.9	-37.7	14.9	6.03e-01	0	42	0	55574528	24	6964
2026-01-10 00:52:30.32	37.67	14.19	-31.3	-35.5	16.2	6.03e-01	0	42	0	57147392	24	5804
2026-01-10 00:52:31.31	37.81	14.28	-31.2	-35.0	16.1	6.02e-01	0	42	0	59244544	24	5576
2026-01-10 00:52:32.30	37.95	14.37	-30.7	-33.9	17.5	6.06e-01	0	42	0	60817408	23	5235
2026-01-10 00:52:33.30	38.09	14.46	-31.5	-35.8	16.5	6.03e-01	0	42	0	62914560	24	5956
2026-01-10 00:52:34.29	38.24	14.55	-31.4	-36.1	16.1	6.01e-01	0	42	0	64487424	23	6188
2026-01-10 00:52:35.28	38.38	14.65	-31.5	-36.7	15.9	6.02e-01	0	42	0	66584576	23	6535
2026-01-10 00:52:36.28	38.52	14.74	-31.9	-37.7	14.6	6.04e-01	0	42	0	68681728	24	6972
2026-01-10 00:52:37.28	38.67	14.83	-31.6	-36.5	15.6	6.02e-01	0	42	0	70254592	24	6280
2026-01-10 00:52:38.27	38.82	14.92	-32.2	-38.1	13.8	6.05e-01	0	42	0	72351744	25	7105
2026-01-10 00:52:39.27	38.97	15.01	-31.8	-36.5	15.1	6.04e-01	0	42	0	73924608	25	6211
2026-01-10 00:52:40.26	39.11	15.11	-31.4	-35.7	16.1	6.03e-01	0	42	0	76021760	24	5878
2026-01-10 00:52:41.25	39.26	15.20	-30.8	-34.3	17.3	6.02e-01	0	42	0	77594624	23	5399
2026-01-10 00:52:42.25	39.42	15.29	-30.8	-34.7	17.6	6.04e-01	0	42	0	79691776	22	5644
2026-01-10 00:52:43.24	39.57	15.38	-31.2	-35.6	16.5	6.02e-01	0	42	0	81264640	23	5947
2026-01-10 00:52:44.24	39.72	15.48	-31.4	-36.0	16.1	6.03e-01	0	42	0	83361792	23	6174
2026-01-10 00:52:45.24	39.87	15.57	-31.4	-36.2	16.1	6.02e-01	0	42	0	85458944	23	6249
2026-01-10 00:52:46.24	40.03	15.67	-31.4	-36.1	16.1	6.02e-01	0	42	0	87031808	23	6198
2026-01-10 00:52:47.24	40.19	15.76	-30.9	-34.7	17.1	6.05e-01	0	42	0	89128960	23	5531
2026-01-10 00:52:48.24	40.34	15.85	-30.9	-34.5	17.3	6.04e-01	0	42	0	90701824	23	5443
2026-01-10 00:52:49.25	40.50	15.95	-31.0	-34.9	17.0	6.04e-01	0	42	0	92798976	23	5637
2026-01-10 00:52:50.25	40.66	16.04	-30.8	-34.1	17.6	6.05e-01	0	42	0	94371840	23	5263
2026-01-10 00:52:51.24	40.82	16.14	-31.1	-34.9	16.9	6.05e-01	0	42	0	96468992	23	5635
2026-01-10 00:52:52.24	40.98	16.23	-31.7	-36.7	15.6	6.06e-01	0	42	0	98566144	24	6369
2026-01-10 00:52:53.24	41.15	16.33	-31.4	-35.5	16.2	6.05e-01	0	42	0	100139008	24	5772
2026-01-10 00:52:54.24	41.31	16.43	-30.8	-34.2	17.5	6.03e-01	0	42	0	102236160	23	5336
2026-01-10 00:52:55.24	41.48	16.52	-30.4	-33.3	18.3	6.02e-01	0	42	0	103809024	22	5070
2026-01-10 00:52:56.23	41.64	16.62	-30.0	-32.5	18.9	6.03e-01	0	42	0	105906176	22	4793
2026-01-10 00:52:57.23	41.81	16.71	-29.8	-32.5	19.2	6.00e-01	0	42	0	107479040	21	4907
2026-01-10 00:52:58.22	41.98	16.81	-29.8	-32.3	19.4	6.02e-01	0	42	0	109576192	21	4827
2026-01-10 00:52:59.21	42.14	16.91	-29.9	-32.6	19.2	6.03e-01	0	42	0	111673344	21	4938
2026-01-10 00:53:00.19	42.31	17.00	-30.0	-32.8	19.0	6.02e-01	0	42	0	113246208	21	4997
2026-01-10 00:53:01.19	42.48	17.10	-29.8	-32.4	19.4	6.03e-01	0	42	0	115343360	21	4852
2026-01-10 00:53:02.19	42.65	17.20	-29.8	-32.5	19.3	6.03e-01	0	42	0	116916224	21	4898
2026-01-10 00:53:03.20	42.83	17.29	-29.2	-31.3	20.3	6.02e-01	0	42	0	119013376	20	4607
2026-01-10 00:53:04.19	43.00	17.39	-29.4	-32.0	19.9	6.02e-01	0	42	0	120586240	20	4822
2026-01-10 00:53:05.19	43.18	17.49	-29.8	-32.8	19.4	6.01e-01	0	42	0	122683392	20	5103
2026-01-10 00:53:06.19	43.36	17.59	-29.8	-32.9	19.3	6.03e-01	0	42	0	124780544	20	5158
2026-01-10 00:53:07.19	43.54	17.69	-29.8	-32.8	19.4	6.03e-01	0	42	0	126353408	20	5088
2026-01-10 00:53:08.18	43.71	17.78	-29.9	-33.0	19.3	6.03e-01	0	42	0	128450560	20	5188
2026-01-10 00:53:09.17	43.89	17.88	-29.6	-32.3	19.7	6.05e-01	0	42	0	130023424	20	4938
2026-01-10 00:53:10.18	44.08	17.98	-29.3	-31.5	20.2	6.03e-01	0	42	0	132120576	20	4666
2026-01-10 00:53:11.17	44.26	18.08	-29.2	-31.4	20.3	6.04e-01	0	42	0	133693440	20	4628
2026-01-10 00:53:12.16	44.44	18.18	-29.2	-31.4	20.2	6.03e-01	0	42	0	135790592	20	4635
2026-01-10 00:53:13.15	44.63	18.28	-29.2	-31.4	20.4	6.03e-01	0	42	0	137887744	20	4608
2026-01-10 00:53:14.15	44.81	18.37	-29.3	-31.6	20.2	6.03e-01	0	42	0	139460608	20	4685
2026-01-10 00:53:15.15	45.00	18.47	-29.4	-31.8	20.1	6.03e-01	0	42	0	141557760	20	4735
2026-01-10 00:53:16.14	45.19	18.57	-29.2	-31.2	20.4	6.01e-01	0	42	0	143130624	20	4563
2026-01-10 00:53:17.14	45.38	18.67	-29.9	-33.0	19.3	6.04e-01	0	42	0	145227776	20	5185
2026-01-10 00:53:18.14	45.57	18.77	-29.4	-31.9	20.1	6.02e-01	0	42	0	146800640	20	4769
2026-01-10 00:53:19.13	45.77	18.87	-29.3	-31.5	20.1	6.01e-01	0	42	0	148897792	20	4657
2026-01-10 00:53:20.12	45.96	18.97	-29.3	-31.7	20.1	6.03e-01	0	42	0	150470656	20	4712
2026-01-10 00:53:21.11	46.15	19.07	-29.3	-32.0	20.3	6.03e-01	0	42	0	152567808	19	4922
2026-01-10 00:53:22.12	46.35	19.17	-29.3	-32.0	20.3	6.04e-01	0	42	0	154664960	19	4926
2026-01-10 00:53:23.12	46.55	19.28	-29.4	-32.4	20.0	6.02e-01	0	42	0	156237824	19	5042
2026-01-10 00:53:24.12	46.75	19.38	-29.3	-32.1	20.3	6.04e-01	0	42	0	158334976	19	4966
2026-01-10 00:53:25.11	46.95	19.48	-29.7	-32.6	19.6	6.02e-01	0	42	0	159907840	20	5027
2026-01-10 00:53:26.10	47.15	19.58	-29.4	-31.8	20.1	6.03e-01	0	42	0	162004992	20	4748
2026-01-10 00:53:27.10	47.36	19.68	-29.4	-32.4	20.1	6.05e-01	0	42	0	163577856	19	5050
2026-01-10 00:53:28.08	47.56	19.78	-29.5	-32.5	20.1	6.01e-01	0	42	0	165675008	19	5086
2026-01-10 00:53:29.07	47.77	19.88	-29.5	-32.6	19.9	6.03e-01	0	42	0	167247872	19	5146
2026-01-10 00:53:30.07	47.98	19.98	-29.6	-32.7	19.9	6.04e-01	0	42	0	169345024	19	5170
2026-01-10 00:53:31.07	48.19	20.08	-29.5	-32.1	19.9	6.04e-01	0	42	0	171442176	20	4853
2026-01-10 00:53:32.07	48.40	20.18	-29.6	-32.3	19.8	6.02e-01	0	42	0	173015040	20	4929
2026-01-10 00:53:33.07	48.61	20.29	-29.5	-32.5	20.0	6.03e-01	0	42	0	175112192	19	5095
2026-01-10 00:53:34.07	48.83	20.39	-29.6	-32.4	19.8	6.04e-01	0	42	0	176685056	20	4937
2026-01-10 00:53:35.06	49.04	20.49	-29.6	-32.3	19.8	6.04e-01	0	42	0	178782208	20	4900
2026-01-10 00:53:36.07	49.26	20.59	-29.6	-32.3	19.8	6.02e-01	0	42	0	180355072	20	4914
2026-01-10 00:53:37.06	49.48	20.69	-29.5	-32.0	19.8	6.02e-01	0	42	0	182452224	20	4801
2026-01-10 00:53:38.07	49.70	20.80	-29.6	-32.4	19.7	6.02e-01	0	42	0	184549376	20	4956
2026-01-10 00:53:39.07	49.92	20.90	-29.6	-32.2	19.9	6.01e-01	0	42	0	186122240	20	4877
2026-01-10 00:53:40.06	50.14	21.00	-29.8	-32.9	19.7	6.03e-01	0	42	0	188219392	20	5123
2026-01-10 00:53:41.05	50.36	21.10	-29.3	-31.5	20.0	6.03e-01	0	42	0	189792256	20	4653
2026-01-10 00:53:42.05	50.59	21.20	-29.9	-32.6	19.7	6.02e-01	0	42	0	191889408	21	4895
2026-01-10 00:53:43.04	50.82	21.31	-29.6	-32.2	20.0	6.02e-01	0	42	0	193462272	20	4886
2026-01-10 00:53:44.04	51.05	21.41	-29.4	-31.8	20.2	6.04e-01	0	42	0	195559424	20	4753
2026-01-10 00:53:45.03	51.28	21.51	-29.3	-31.4	20.4	6.00e-01	0	42	0	197132288	20	4612
2026-01-10 00:53:46.03	51.51	21.61	-29.7	-32.6	19.6	6.03e-01	0	42	0	199229440	20	5026
2026-01-10 00:53:47.03	51.74	21.72	-29.6	-32.2	19.9	6.03e-01	0	42	0	201326592	20	4870
2026-01-10 00:53:48.02	51.98	21.82	-29.4	-31.8	20.0	6.02e-01	0	42	0	202899456	20	4733
2026-01-10 00:53:49.02	52.22	21.92	-29.4	-31.8	20.1	6.05e-01	0	42	0	204996608	20	4744
2026-01-10 00:53:50.02	52.45	22.02	-29.2	-31.3	20.4	6.03e-01	0	42	0	206569472	20	4587
2026-01-10 00:53:51.00	52.69	22.12	-29.4	-32.2	20.2	6.03e-01	0	42	0	208666624	19	4981
2026-01-10 00:53:52.00	52.93	22.22	-29.5	-32.5	20.2	6.05e-01	0	42	0	210239488	19	5074
2026-01-10 00:53:53.00	53.18	22.33	-29.2	-31.4	20.5	6.03e-01	0	42	0	212336640	20	4600
2026-01-10 00:53:54.00	53.42	22.43	-29.5	-32.5	20.2	6.03e-01	0	42	0	213909504	19	5070
2026-01-10 00:53:54.99	53.67	22.53	-29.4	-32.2	20.4	6.03e-01	0	42	0	216006656	19	4965
2026-01-10 00:53:55.98	53.92	22.63	-29.6	-32.4	19.9	6.02e-01	0	42	0	218103808	20	4947
2026-01-10 00:53:56.98	54.17	22.73	-29.5	-31.9	20.1	6.03e-01	0	42	0	219676672	20	4782
2026-01-10 00:53:57.97	54.42	22.84	-29.4	-31.7	20.2	6.02e-01	0	42	0	221773824	20	4712
2026-01-10 00:53:58.97	54.67	22.94	-29.5	-32.1	20.0	6.04e-01	0	42	0	223346688	20	4847
2026-01-10 00:53:59.97	54.93	23.04	-29.5	-32.1	20.0	6.03e-01	0	42	0	225443840	20	4832
2026-01-10 00:54:00.96	55.18	23.14	-29.8	-32.8	19.7	6.03e-01	0	42	0	227016704	20	5070
2026-01-10 00:54:01.95	55.44	23.24	-29.5	-32.0	20.0	6.03e-01	0	42	0	229113856	20	4807
2026-01-10 00:54:02.94	55.70	23.34	-29.6	-32.4	19.9	6.02e-01	0	42	0	230686720	20	4924
2026-01-10 00:54:03.94	55.96	23.44	-29.8	-32.7	19.7	6.02e-01	0	42	0	232783872	20	5063
2026-01-10 00:54:04.93	56.22	23.54	-29.7	-32.6	19.7	6.03e-01	0	42	0	234881024	20	5018
2026-01-10 00:54:05.92	56.49	23.64	-29.5	-32.1	20.0	6.02e-01	0	42	0	236453888	20	4820
2026-01-10 00:54:06.91	56.75	23.74	-29.7	-32.0	19.8	6.03e-01	0	42	0	238551040	21	4697
2026-01-10 00:54:07.91	57.02	23.84	-29.6	-31.8	19.9	6.03e-01	0	42	0	240123904	21	4634
2026-01-10 00:54:08.91	57.29	23.94	-29.7	-32.5	19.8	6.02e-01	0	42	0	242221056	20	4972
2026-01-10 00:54:09.91	57.57	24.04	-29.6	-32.2	19.8	6.03e-01	0	42	0	243793920	20	4881
2026-01-10 00:54:10.91	57.84	24.14	-29.4	-31.3	20.1	6.03e-01	0	42	0	245891072	21	4477
2026-01-10 00:54:11.90	58.12	24.24	-29.8	-32.2	19.7	6.04e-01	0	42	0	247463936	21	4769
2026-01-10 00:54:12.89	58.39	24.34	-29.8	-32.2	19.6	6.06e-01	0	42	0	249561088	21	4775
2026-01-10 00:54:13.89	58.67	24.44	-29.3	-31.4	20.4	6.02e-01	0	42	0	251658240	20	4608
2026-01-10 00:54:14.88	58.95	24.54	-29.5	-31.4	19.9	6.05e-01	0	42	0	253231104	21	4501
2026-01-10 00:54:15.88	59.24	24.63	-29.5	-32.0	20.4	6.02e-01	0	42	0	255328256	20	4782
2026-01-10 00:54:16.87	59.52	24.73	-29.6	-31.7	20.0	6.02e-01	0	42	0	256901120	21	4581
2026-01-10 00:54:17.87	59.81	24.83	-30.3	-33.5	19.1	6.04e-01	0	42	0	258998272	21	5208
2026-01-10 00:54:18.86	60.10	24.93	-29.7	-32.0	19.7	6.03e-01	0	42	0	261095424	21	4692
2026-01-10 00:54:19.85	60.39	25.02	-29.7	-32.4	19.9	6.02e-01	0	42	0	262668288	20	4934
2026-01-10 00:54:20.84	60.68	25.12	-29.7	-32.1	20.0	6.04e-01	0	42	0	264241152	21	4720
2026-01-10 00:54:21.83	60.97	25.21	-29.6	-32.2	20.4	6.02e-01	0	42	0	266338304	20	4873
2026-01-10 00:54:22.82	61.26	25.31	-29.9	-32.5	19.6	6.03e-01	0	42	0	268435456	21	4868
2026-01-10 00:54:23.82	61.56	25.40	-30.3	-33.5	19.1	6.05e-01	0	42	0	270008320	21	5209
2026-01-10 00:54:24.82	61.86	25.50	-29.8	-32.1	19.7	6.01e-01	0	42	0	272105472	21	4736
2026-01-10 00:54:25.82	62.17	25.59	-29.6	-31.6	20.1	6.03e-01	0	42	0	273678336	21	4560
2026-01-10 00:54:26.82	62.47	25.69	-29.2	-31.3	20.6	6.03e-01	0	42	0	275775488	20	4566
2026-01-10 00:54:27.82	62.78	25.78	-29.9	-33.0	20.1	6.03e-01	0	42	0	277872640	20	5144
2026-01-10 00:54:28.83	63.09	25.88	-29.6	-31.6	20.2	6.03e-01	0	42	0	279445504	21	4559
2026-01-10 00:54:29.83	63.40	25.97	-29.5	-31.8	20.3	6.05e-01	0	42	0	281542656	20	4740
2026-01-10 00:54:30.83	63.71	26.06	-29.5	-31.9	20.3	6.05e-01	0	42	0	283115520	20	4764
2026-01-10 00:54:31.84	64.03	26.16	-29.5	-31.5	20.1	6.04e-01	0	42	0	285212672	21	4509
2026-01-10 00:54:32.83	64.34	26.25	-29.4	-31.7	20.3	6.02e-01	0	42	0	286785536	20	4703
2026-01-10 00:54:33.84	64.66	26.34	-29.4	-31.8	20.3	6.03e-01	0	42	0	288882688	20	4716
2026-01-10 00:54:34.84	64.98	26.43	-29.3	-31.5	20.4	6.04e-01	0	42	0	290979840	20	4623
2026-01-10 00:54:35.84	65.30	26.52	-29.6	-32.3	20.1	6.03e-01	0	42	0	292552704	20	4914
2026-01-10 00:54:36.84	65.63	26.61	-29.5	-32.0	20.1	6.04e-01	0	42	0	294649856	20	4795
2026-01-10 00:54:37.83	65.95	26.69	-29.4	-31.8	20.3	6.04e-01	0	42	0	296222720	20	4739
2026-01-10 00:54:38.83	66.28	26.78	-29.6	-32.2	20.1	6.05e-01	0	42	0	298319872	20	4856
2026-01-10 00:54:39.83	66.60	26.87	-29.5	-32.1	20.1	6.03e-01	0	42	0	299892736	20	4823
2026-01-10 00:54:40.83	66.94	26.96	-29.3	-31.5	20.4	6.01e-01	0	42	0	301989888	20	4646
2026-01-10 00:54:41.84	67.27	27.04	-29.6	-32.2	20.1	6.02e-01	0	42	0	304087040	20	4857
2026-01-10 00:54:42.84	67.61	27.13	-29.6	-32.3	19.9	6.01e-01	0	42	0	305659904	20	4905
2026-01-10 00:54:43.85	67.95	27.21	-29.6	-32.1	20.0	6.03e-01	0	42	0	307757056	20	4845
2026-01-10 00:54:44.85	68.28	27.30	-29.6	-31.7	20.1	6.03e-01	0	42	0	309329920	21	4586
2026-01-10 00:54:45.85	68.62	27.38	-29.7	-32.0	19.7	6.02e-01	0	42	0	311427072	21	4691
2026-01-10 00:54:46.85	68.97	27.46	-29.8	-32.3	19.7	6.03e-01	0	42	0	312999936	21	4784
2026-01-10 00:54:47.85	69.31	27.54	-30.0	-32.8	19.4	6.03e-01	0	42	0	315097088	21	4940
2026-01-10 00:54:48.86	69.66	27.62	-29.7	-31.9	20.0	6.03e-01	0	42	0	317194240	21	4643
2026-01-10 00:54:49.86	70.00	27.70	-30.3	-33.7	19.0	6.04e-01	0	42	0	318767104	21	5271
2026-01-10 00:54:50.87	70.36	27.78	-30.2	-33.3	19.1	6.05e-01	0	42	0	320864256	21	5123
2026-01-10 00:54:51.86	70.70	27.86	-30.0	-32.9	19.3	6.03e-01	0	42	0	322961408	21	4989
2026-01-10 00:54:52.87	71.06	27.94	-30.0	-32.6	19.7	6.04e-01	0	42	0	324534272	21	4889
2026-01-10 00:54:53.86	71.41	28.02	-30.4	-33.9	18.7	6.04e-01	0	42	0	326631424	21	5356
2026-01-10 00:54:54.86	71.77	28.09	-30.3	-33.0	19.0	6.03e-01	0	42	0	328204288	22	4921
2026-01-10 00:54:55.87	72.13	28.17	-30.2	-32.6	19.2	6.06e-01	0	42	0	330301440	22	4788
2026-01-10 00:54:56.87	72.49	28.24	-30.0	-32.7	19.5	6.03e-01	0	42	0	331874304	21	4928
2026-01-10 00:54:57.87	72.85	28.31	-30.1	-32.9	19.3	6.05e-01	0	42	0	333971456	21	5009
2026-01-10 00:54:58.88	73.22	28.38	-29.8	-32.2	19.8	6.03e-01	0	42	0	336068608	21	4735
2026-01-10 00:54:59.88	73.58	28.45	-29.8	-32.1	19.8	6.03e-01	0	42	0	337641472	21	4733
2026-01-10 00:55:00.88	73.95	28.52	-30.0	-32.8	19.7	6.05e-01	0	42	0	339738624	21	4941
2026-01-10 00:55:01.89	74.32	28.59	-29.6	-31.8	20.0	6.04e-01	0	42	0	341311488	21	4610
2026-01-10 00:55:02.89	74.69	28.66	-29.4	-31.3	20.3	6.04e-01	0	42	0	343408640	21	4459
2026-01-10 00:55:03.89	75.06	28.73	-29.6	-31.6	20.1	6.03e-01	0	42	0	344981504	21	4566
2026-01-10 00:55:04.89	75.43	28.79	-29.6	-31.6	20.1	6.02e-01	0	42	0	347078656	21	4560
2026-01-10 00:55:05.90	75.81	28.86	-29.6	-31.7	20.1	6.03e-01	0	42	0	349175808	21	4582
2026-01-10 00:55:06.90	76.18	28.92	-29.5	-31.5	20.1	6.04e-01	0	42	0	350748672	21	4526
2026-01-10 00:55:07.90	76.56	28.98	-29.3	-31.5	20.5	6.01e-01	0	42	0	352845824	20	4632
2026-01-10 00:55:08.90	76.94	29.04	-29.4	-31.6	20.4	6.05e-01	0	42	0	354418688	20	4674
2026-01-10 00:55:09.90	77.32	29.10	-29.4	-31.8	20.3	6.03e-01	0	42	0	356515840	20	4743
2026-01-10 00:55:10.90	77.70	29.16	-29.7	-32.4	20.0	6.05e-01	0	42	0	358088704	20	4937
2026-01-10 00:55:11.91	78.09	29.22	-29.3	-31.5	20.4	6.03e-01	0	42	0	360185856	20	4640
2026-01-10 00:55:12.91	78.47	29.27	-29.3	-31.6	20.5	6.04e-01	0	42	0	362283008	20	4655
2026-01-10 00:55:13.91	78.86	29.33	-29.2	-31.2	20.6	6.05e-01	0	42	0	363855872	20	4540
2026-01-10 00:55:14.92	79.25	29.38	-29.2	-31.3	20.6	6.03e-01	0	42	0	365953024	20	4573
2026-01-10 00:55:15.92	79.64	29.43	-29.4	-31.7	20.4	6.01e-01	0	42	0	368050176	20	4684
2026-01-10 00:55:16.92	80.02	29.49	-29.4	-31.6	20.4	6.05e-01	0	42	0	369623040	20	4672
2026-01-10 00:55:17.93	80.42	29.54	-29.4	-31.3	20.3	6.04e-01	0	42	0	371720192	21	4475
2026-01-10 00:55:18.93	80.81	29.58	-29.6	-32.2	20.2	6.03e-01	0	42	0	373293056	20	4852
2026-01-10 00:55:19.93	81.20	29.63	-29.5	-31.8	20.3	6.02e-01	0	42	0	375390208	20	4743
2026-01-10 00:55:20.93	81.60	29.68	-29.6	-32.2	20.2	6.02e-01	0	42	0	376963072	20	4849
2026-01-10 00:55:21.93	81.99	29.72	-29.7	-32.5	19.9	6.03e-01	0	42	0	379060224	20	4959
2026-01-10 00:55:22.93	82.39	29.76	-29.7	-32.5	19.8	6.04e-01	0	42	0	381157376	20	4957
2026-01-10 00:55:23.93	82.79	29.81	-29.9	-33.1	19.4	6.03e-01	0	42	0	382730240	20	5184
2026-01-10 00:55:24.94	83.19	29.85	-29.8	-32.7	19.7	6.02e-01	0	42	0	384827392	20	5046
2026-01-10 00:55:25.94	83.59	29.88	-29.9	-32.9	19.6	6.05e-01	0	42	0	386400256	20	5121
2026-01-10 00:55:26.94	83.99	29.92	-29.7	-32.6	19.9	6.02e-01	0	42	0	388497408	20	4989
2026-01-10 00:55:27.95	84.40	29.96	-29.7	-32.1	19.8	6.02e-01	0	42	0	390070272	21	4705
2026-01-10 00:55:28.95	84.80	29.99	-30.1	-33.1	19.2	6.02e-01	0	42	0	392167424	21	5081
2026-01-10 00:55:29.95	85.20	30.03	-30.0	-32.7	19.4	6.03e-01	0	42	0	394264576	21	4912
2026-01-10 00:55:30.95	85.61	30.06	-30.3	-33.5	19.0	6.04e-01	0	42	0	395837440	21	5232
2026-01-10 00:55:31.95	86.01	30.09	-30.2	-33.3	19.1	6.05e-01	0	42	0	397934592	21	5127
2026-01-10 00:55:32.96	86.42	30.12	-30.4	-33.8	18.8	6.02e-01	0	42	0	400031744	21	5318
2026-01-10 00:55:33.97	86.83	30.14	-30.7	-34.1	18.4	6.04e-01	0	42	0	401604608	22	5328
2026-01-10 00:55:34.97	87.24	30.17	-30.3	-33.0	19.0	6.04e-01	0	42	0	403701760	22	4928
2026-01-10 00:55:35.97	87.65	30.19	-29.7	-32.0	19.9	6.04e-01	0	42	0	405274624	21	4682
2026-01-10 00:55:36.97	88.06	30.22	-29.9	-32.6	19.6	6.04e-01	0	42	0	407371776	21	4884
2026-01-10 00:55:37.97	88.47	30.24	-30.3	-33.4	19.0	6.02e-01	0	42	0	408944640	21	5176
2026-01-10 00:55:38.97	88.88	30.26	-30.7	-34.0	18.3	6.03e-01	0	42	0	411041792	22	5304
2026-01-10 00:55:39.97	89.29	30.27	-29.8	-32.3	19.7	6.03e-01	0	42	0	413138944	21	4787
2026-01-10 00:55:40.97	89.70	30.29	-29.8	-32.3	19.7	6.03e-01	0	42	0	414711808	21	4797
2026-01-10 00:55:41.97	90.11	30.31	-30.0	-32.8	19.5	6.03e-01	0	42	0	416808960	21	4944
2026-01-10 00:55:42.97	90.52	30.32	-29.5	-31.4	20.2	6.03e-01	0	42	0	418381824	21	4480
2026-01-10 00:55:43.97	90.93	30.33	-29.4	-31.6	20.4	6.03e-01	0	42	0	420478976	20	4668
2026-01-10 00:55:44.97	91.34	30.34	-29.4	-31.8	20.3	6.04e-01	0	42	0	422051840	20	4740
2026-01-10 00:55:45.97	91.76	30.35	-29.5	-32.4	20.3	6.02e-01	0	42	0	424148992	19	5027
2026-01-10 00:55:46.97	92.17	30.36	-29.3	-31.8	20.6	6.04e-01	0	42	0	426246144	19	4843
2026-01-10 00:55:47.97	92.58	30.36	-29.2	-31.7	20.7	6.04e-01	0	42	0	427819008	19	4820
2026-01-10 00:55:48.97	92.99	30.37	-29.2	-31.6	20.7	6.02e-01	0	42	0	429916160	19	4777
2026-01-10 00:55:49.98	93.41	30.37	-29.3	-31.8	20.5	6.04e-01	0	42	0	431489024	19	4847
2026-01-10 00:55:50.98	93.82	30.37	-29.5	-32.5	20.3	6.03e-01	0	42	0	433586176	19	5069
2026-01-10 00:55:51.98	94.24	30.37	-28.9	-31.1	21.0	6.03e-01	0	42	0	435159040	19	4597
2026-01-10 00:55:52.98	94.65	30.37	-28.9	-31.1	21.1	6.02e-01	0	42	0	437256192	19	4600
2026-01-10 00:55:53.98	95.06	30.36	-29.0	-31.2	21.0	6.03e-01	0	42	0	439353344	19	4646
2026-01-10 00:55:54.98	95.47	30.36	-29.0	-31.2	20.9	6.04e-01	0	42	0	440926208	19	4654
2026-01-10 00:55:55.98	95.89	30.35	-28.9	-30.9	21.2	6.03e-01	0	42	0	443023360	19	4549
2026-01-10 00:55:56.98	96.30	30.34	-29.0	-31.1	21.0	6.03e-01	0	42	0	444596224	19	4626
2026-01-10 00:55:57.99	96.72	30.33	-29.0	-31.2	20.9	6.03e-01	0	42	0	446693376	19	4659
2026-01-10 00:55:58.99	97.13	30.32	-29.0	-31.2	21.0	6.04e-01	0	42	0	448266240	19	4648
2026-01-10 00:56:00.00	97.54	30.31	-29.1	-31.4	20.9	6.03e-01	0	42	0	450363392	19	4713
2026-01-10 00:56:01.00	97.96	30.29	-29.0	-31.3	21.0	6.04e-01	0	42	0	452460544	19	4661
2026-01-10 00:56:02.00	98.37	30.28	-29.0	-31.3	20.9	6.02e-01	0	42	0	454033408	19	4683
2026-01-10 00:56:03.00	98.78	30.26	-29.9	-33.0	19.7	6.04e-01	0	42	0	456130560	20	5142
2026-01-10 00:56:04.00	99.19	30.24	-29.0	-30.7	20.8	6.04e-01	0	42	0	457703424	20	4398
2026-01-10 00:56:05.00	99.60	30.22	-29.1	-31.4	21.0	6.02e-01	0	42	0	459800576	19	4692
2026-01-10 00:56:06.01	100.01	30.20	-29.3	-31.8	20.7	6.03e-01	0	42	0	461897728	19	4846
2026-01-10 00:56:07.01	100.42	30.17	-28.9	-31.0	21.1	6.03e-01	0	42	0	463470592	19	4571
2026-01-10 00:56:08.02	100.83	30.15	-29.0	-31.1	21.1	6.02e-01	0	42	0	465567744	19	4619
2026-01-10 00:56:09.02	101.24	30.12	-28.9	-31.0	21.1	6.02e-01	0	42	0	467140608	19	4572
2026-01-10 00:56:10.02	101.64	30.09	-28.9	-31.1	21.0	6.03e-01	0	42	0	469237760	19	4598
2026-01-10 00:56:11.02	102.05	30.06	-29.1	-31.5	20.8	6.03e-01	0	42	0	471334912	19	4748
2026-01-10 00:56:12.02	102.45	30.03	-29.0	-31.3	21.0	6.04e-01	0	42	0	472907776	19	4658
2026-01-10 00:56:13.02	102.86	30.00	-29.0	-31.2	21.0	6.03e-01	0	42	0	475004928	19	4634
2026-01-10 00:56:14.03	103.27	29.96	-29.0	-31.2	21.0	6.01e-01	0	42	0	476577792	19	4626
2026-01-10 00:56:15.03	103.67	29.93	-28.9	-30.9	21.2	6.04e-01	0	42	0	478674944	19	4539
2026-01-10 00:56:16.03	104.07	29.89	-29.1	-31.4	20.8	6.02e-01	0	42	0	480247808	19	4715
2026-01-10 00:56:17.03	104.47	29.85	-29.0	-31.2	20.9	6.02e-01	0	42	0	482344960	19	4652
2026-01-10 00:56:18.04	104.87	29.81	-29.0	-31.2	21.0	6.02e-01	0	42	0	484442112	19	4644
2026-01-10 00:56:19.04	105.27	29.77	-28.9	-31.0	21.1	6.03e-01	0	42	0	486014976	19	4577
2026-01-10 00:56:20.04	105.67	29.73	-29.0	-31.1	21.1	6.04e-01	0	42	0	488112128	19	4607
2026-01-10 00:56:21.04	106.07	29.68	-29.1	-31.4	20.9	6.02e-01	0	42	0	489684992	19	4697
2026-01-10 00:56:22.04	106.46	29.64	-29.0	-31.3	20.9	6.05e-01	0	42	0	491782144	19	4662
2026-01-10 00:56:23.05	106.86	29.59	-29.1	-31.5	20.7	6.04e-01	0	42	0	493355008	19	4739
2026-01-10 00:56:24.05	107.25	29.54	-29.0	-31.3	20.8	6.03e-01	0	42	0	495452160	19	4679
2026-01-10 00:56:25.06	107.65	29.49	-28.9	-31.1	21.0	6.02e-01	0	42	0	497549312	19	4608
2026-01-10 00:56:26.06	108.04	29.44	-29.2	-31.7	20.6	6.04e-01	0	42	0	499122176	19	4814
2026-01-10 00:56:27.06	108.43	29.39	-29.1	-31.4	20.8	6.02e-01	0	42	0	501219328	19	4722
2026-01-10 00:56:28.07	108.82	29.33	-29.4	-32.2	20.6	6.04e-01	0	42	0	503316480	19	4956
2026-01-10 00:56:29.07	109.21	29.28	-29.5	-32.3	20.3	6.04e-01	0	42	0	504889344	19	5013
2026-01-10 00:56:30.06	109.59	29.22	-29.1	-31.5	20.8	6.03e-01	0	42	0	506986496	19	4738
2026-01-10 00:56:31.07	109.97	29.16	-29.1	-31.4	20.8	6.04e-01	0	42	0	508559360	19	4705
2026-01-10 00:56:32.07	110.36	29.11	-29.1	-31.4	20.8	6.02e-01	0	42	0	510656512	19	4712
2026-01-10 00:56:33.07	110.74	29.05	-29.3	-32.0	20.5	6.04e-01	0	42	0	512229376	19	4901
2026-01-10 00:56:34.06	111.11	28.99	-29.2	-31.7	20.6	6.05e-01	0	42	0	514326528	19	4811
2026-01-10 00:56:35.06	111.49	28.92	-29.3	-31.8	20.5	6.05e-01	0	42	0	516423680	19	4853
2026-01-10 00:56:36.07	111.87	28.86	-28.9	-31.0	21.0	6.03e-01	0	42	0	517996544	19	4586
2026-01-10 00:56:37.06	112.24	28.80	-29.9	-33.0	19.6	6.03e-01	0	42	0	520093696	20	5147
2026-01-10 00:56:38.06	112.62	28.73	-30.0	-32.7	19.4	6.03e-01	0	42	0	521666560	21	4926
2026-01-10 00:56:39.07	112.99	28.66	-30.3	-33.6	18.9	6.04e-01	0	42	0	523763712	21	5256
2026-01-10 00:56:40.08	113.37	28.60	-29.8	-32.2	19.7	6.04e-01	0	42	0	525336576	21	4759
2026-01-10 00:56:41.08	113.74	28.53	-29.6	-31.8	19.9	6.02e-01	0	42	0	527433728	21	4621
2026-01-10 00:56:42.08	114.10	28.46	-29.8	-32.2	19.7	6.05e-01	0	42	0	529530880	21	4774
2026-01-10 00:56:43.08	114.47	28.39	-29.7	-31.9	19.9	6.04e-01	0	42	0	531103744	21	4671
2026-01-10 00:56:44.09	114.84	28.31	-29.7	-32.0	19.8	6.04e-01	0	42	0	533200896	21	4710
2026-01-10 00:56:45.08	115.20	28.24	-29.9	-32.6	19.5	6.03e-01	0	42	0	534773760	21	4888
2026-01-10 00:56:46.08	115.56	28.17	-29.9	-32.5	19.6	6.06e-01	0	42	0	536870912	21	4850
2026-01-10 00:56:47.08	115.91	28.09	-30.4	-33.8	18.7	6.02e-01	0	42	0	538968064	21	5330
2026-01-10 00:56:48.08	116.27	28.02	-29.7	-32.0	19.7	6.04e-01	0	42	0	540540928	21	4701
2026-01-10 00:56:49.08	116.63	27.94	-29.4	-31.3	20.2	6.03e-01	0	42	0	542638080	21	4459
2026-01-10 00:56:50.09	116.99	27.86	-29.5	-31.9	20.1	6.04e-01	0	42	0	544210944	20	4779
2026-01-10 00:56:51.09	117.34	27.79	-29.3	-32.1	20.3	6.02e-01	0	42	0	546308096	19	4938
2026-01-10 00:56:52.08	117.68	27.71	-29.3	-32.0	20.4	6.01e-01	0	42	0	547880960	19	4901
2026-01-10 00:56:53.08	118.03	27.63	-29.5	-32.5	20.1	6.04e-01	0	42	0	549978112	19	5078
2026-01-10 00:56:54.08	118.38	27.55	-29.4	-32.2	20.3	6.06e-01	0	42	0	552075264	19	4985
2026-01-10 00:56:55.09	118.73	27.46	-29.6	-32.2	19.9	6.03e-01	0	42	0	553648128	20	4870
2026-01-10 00:56:56.09	119.07	27.38	-29.3	-31.4	20.4	6.04e-01	0	42	0	555745280	20	4610
2026-01-10 00:56:57.09	119.41	27.30	-29.2	-31.4	20.4	6.02e-01	0	42	0	557318144	20	4612
2026-01-10 00:56:58.09	119.75	27.21	-29.4	-31.7	20.2	6.01e-01	0	42	0	559415296	20	4700
2026-01-10 00:56:59.09	120.09	27.13	-29.2	-31.4	20.4	6.03e-01	0	42	0	560988160	20	4605
2026-01-10 00:57:00.09	120.43	27.04	-29.3	-32.1	20.3	6.02e-01	0	42	0	563085312	19	4932
2026-01-10 00:57:01.10	120.76	26.96	-29.4	-32.3	20.2	6.04e-01	0	42	0	565182464	19	5023
2026-01-10 00:57:02.10	121.09	26.87	-29.4	-32.3	20.2	6.04e-01	0	42	0	566755328	19	5011
2026-01-10 00:57:03.10	121.43	26.78	-29.3	-32.1	20.4	6.03e-01	0	42	0	568852480	19	4928
2026-01-10 00:57:04.10	121.75	26.69	-29.2	-31.7	20.6	6.03e-01	0	42	0	570425344	19	4822
2026-01-10 00:57:05.10	122.08	26.61	-29.4	-32.3	20.3	6.03e-01	0	42	0	572522496	19	5001
2026-01-10 00:57:06.10	122.41	26.52	-29.3	-32.0	20.4	6.02e-01	0	42	0	574619648	19	4922
2026-01-10 00:57:07.11	122.73	26.43	-29.4	-32.3	20.3	6.05e-01	0	42	0	576192512	19	5004
2026-01-10 00:57:08.10	123.05	26.34	-29.4	-32.3	20.2	6.01e-01	0	42	0	578289664	19	5008
2026-01-10 00:57:09.10	123.37	26.24	-29.5	-32.5	20.0	6.03e-01	0	42	0	579862528	19	5069
2026-01-10 00:57:10.10	123.69	26.15	-29.6	-32.3	19.8	6.03e-01	0	42	0	581959680	20	4918
2026-01-10 00:57:11.10	124.00	26.06	-29.5	-32.0	20.0	6.04e-01	0	42	0	583532544	20	4820
2026-01-10 00:57:12.10	124.31	25.97	-29.4	-31.8	20.1	6.03e-01	0	42	0	585629696	20	4740
2026-01-10 00:57:13.11	124.63	25.87	-29.4	-31.8	20.2	6.03e-01	0	42	0	587726848	20	4740
2026-01-10 00:57:14.11	124.94	25.78	-29.6	-32.2	19.9	6.03e-01	0	42	0	589299712	20	4873
2026-01-10 00:57:15.11	125.25	25.68	-29.5	-32.0	20.1	6.04e-01	0	42	0	591396864	20	4809
2026-01-10 00:57:16.11	125.55	25.59	-29.5	-32.0	20.0	6.02e-01	0	42	0	592969728	20	4814
2026-01-10 00:57:17.11	125.86	25.49	-29.5	-32.1	19.9	6.02e-01	0	42	0	595066880	20	4858
2026-01-10 00:57:18.10	126.16	25.40	-29.4	-31.8	20.1	6.03e-01	0	42	0	596639744	20	4737
2026-01-10 00:57:19.10	126.46	25.30	-29.7	-32.5	19.7	6.03e-01	0	42	0	598736896	20	4993
2026-01-10 00:57:20.10	126.76	25.21	-29.7	-32.6	19.6	6.03e-01	0	42	0	600834048	20	5014
2026-01-10 00:57:21.10	127.05	25.11	-29.9	-33.0	19.4	6.03e-01	0	42	0	602406912	20	5162
2026-01-10 00:57:22.10	127.35	25.01	-29.9	-33.1	19.4	6.03e-01	0	42	0	604504064	20	5188
2026-01-10 00:57:23.11	127.64	24.91	-29.8	-32.8	19.5	6.05e-01	0	42	0	606076928	20	5085
2026-01-10 00:57:24.10	127.93	24.82	-29.8	-32.7	19.6	6.02e-01	0	42	0	608174080	20	5064
2026-01-10 00:57:25.09	128.22	24.72	-30.1	-33.0	19.1	6.01e-01	0	42	0	609746944	21	5052
2026-01-10 00:57:26.09	128.51	24.62	-30.2	-33.4	18.8	6.02e-01	0	42	0	611844096	21	5215
2026-01-10 00:57:27.09	128.79	24.52	-30.7	-34.2	18.0	6.01e-01	0	42	0	613941248	22	5415
2026-01-10 00:57:28.10	129.08	24.42	-30.3	-33.3	18.6	6.03e-01	0	42	0	615514112	22	5053
2026-01-10 00:57:29.10	129.36	24.32	-29.8	-32.4	19.3	6.01e-01	0	42	0	617611264	21	4841
2026-01-10 00:57:30.10	129.64	24.22	-29.8	-32.3	19.5	6.03e-01	0	42	0	619184128	21	4810
2026-01-10 00:57:31.10	129.92	24.12	-29.9	-32.6	19.3	6.05e-01	0	42	0	621281280	21	4921
2026-01-10 00:57:32.10	130.19	24.02	-29.4	-31.4	20.0	6.02e-01	0	42	0	622854144	21	4517
2026-01-10 00:57:33.10	130.47	23.92	-29.6	-32.4	19.7	6.03e-01	0	42	0	624951296	20	4966
2026-01-10 00:57:34.10	130.74	23.82	-29.6	-32.4	19.7	6.02e-01	0	42	0	627048448	20	4947
2026-01-10 00:57:35.10	131.01	23.72	-29.7	-32.5	19.6	6.03e-01	0	42	0	628621312	20	5001
2026-01-10 00:57:36.10	131.28	23.61	-29.7	-32.5	19.6	6.02e-01	0	42	0	630718464	20	5003
2026-01-10 00:57:37.10	131.55	23.51	-29.7	-32.5	19.6	6.01e-01	0	42	0	632291328	20	4985
2026-01-10 00:57:38.10	131.82	23.41	-29.4	-31.9	20.0	6.01e-01	0	42	0	634388480	20	4799
2026-01-10 00:57:39.10	132.08	23.31	-29.5	-32.1	19.8	6.03e-01	0	42	0	636485632	20	4868
2026-01-10 00:57:40.10	132.34	23.21	-29.7	-32.6	19.5	6.01e-01	0	42	0	638058496	20	5050
2026-01-10 00:57:41.11	132.61	23.10	-29.5	-32.2	19.8	6.04e-01	0	42	0	640155648	20	4896
2026-01-10 00:57:42.11	132.86	23.00	-29.4	-31.8	20.0	6.02e-01	0	42	0	641728512	20	4747
2026-01-10 00:57:43.10	133.12	22.90	-29.5	-32.1	19.9	6.04e-01	0	42	0	643825664	20	4841
2026-01-10 00:57:44.11	133.38	22.80	-29.7	-32.5	19.5	6.05e-01	0	42	0	645922816	20	5009
2026-01-10 00:57:45.11	133.63	22.69	-29.6	-32.4	19.6	6.02e-01	0	42	0	647495680	20	4981
2026-01-10 00:57:46.12	133.88	22.59	-29.7	-32.6	19.6	6.03e-01	0	42	0	649592832	20	5029
2026-01-10 00:57:47.12	134.13	22.49	-29.8	-32.8	19.4	6.04e-01	0	42	0	651165696	20	5119
2026-01-10 00:57:48.13	134.39	22.38	-30.1	-33.6	18.8	6.03e-01	0	42	0	653262848	20	5413
2026-01-10 00:57:49.12	134.63	22.28	-30.0	-32.9	19.0	6.03e-01	0	42	0	654835712	21	5037
2026-01-10 00:57:50.12	134.88	22.18	-29.3	-31.6	20.0	6.05e-01	0	42	0	656932864	20	4708
2026-01-10 00:57:51.13	135.12	22.07	-29.3	-31.7	20.0	6.04e-01	0	42	0	659030016	20	4733
2026-01-10 00:57:52.13	135.36	21.97	-29.2	-31.3	20.2	6.02e-01	0	42	0	660602880	20	4611
2026-01-10 00:57:53.13	135.60	21.87	-29.2	-31.4	20.2	6.02e-01	0	42	0	662700032	20	4626
2026-01-10 00:57:54.13	135.84	21.76	-29.3	-31.6	20.1	6.02e-01	0	42	0	664272896	20	4716
2026-01-10 00:57:55.13	136.08	21.66	-29.4	-31.9	20.0	6.03e-01	0	42	0	666370048	20	4800
2026-01-10 00:57:56.14	136.32	21.56	-29.4	-31.9	19.8	6.02e-01	0	42	0	667942912	20	4819
2026-01-10 00:57:57.14	136.55	21.45	-29.4	-32.0	19.7	6.04e-01	0	42	0	670040064	20	4849
2026-01-10 00:57:58.15	136.78	21.35	-29.5	-32.3	19.5	6.04e-01	0	42	0	672137216	20	4947
2026-01-10 00:57:59.16	137.02	21.24	-29.4	-32.0	19.7	6.02e-01	0	42	0	673710080	20	4844
2026-01-10 00:58:00.16	137.25	21.14	-29.5	-32.8	19.6	6.03e-01	0	42	0	675807232	19	5233
2026-01-10 00:58:01.15	137.47	21.04	-29.5	-32.1	19.7	6.04e-01	0	42	0	677904384	20	4890
2026-01-10 00:58:02.15	137.70	20.93	-29.5	-32.6	19.7	6.05e-01	0	42	0	679477248	19	5167
2026-01-10 00:58:03.15	137.92	20.83	-29.5	-32.6	19.8	6.03e-01	0	42	0	681050112	19	5151
2026-01-10 00:58:04.15	138.14	20.73	-29.5	-32.7	19.6	6.03e-01	0	42	0	683147264	19	5217
2026-01-10 00:58:05.15	138.36	20.62	-29.5	-32.7	19.7	6.05e-01	0	42	0	685244416	19	5188
2026-01-10 00:58:06.15	138.58	20.52	-29.5	-32.8	19.6	6.04e-01	0	42	0	686817280	19	5237
2026-01-10 00:58:07.15	138.80	20.42	-29.5	-32.3	19.5	6.04e-01	0	42	0	688914432	20	4965
2026-01-10 00:58:08.15	139.02	20.32	-29.5	-32.4	19.4	6.03e-01	0	42	0	691011584	20	4993
2026-01-10 00:58:09.15	139.23	20.21	-29.3	-31.7	19.9	6.05e-01	0	42	0	692584448	20	4759
2026-01-10 00:58:10.15	139.45	20.11	-29.5	-32.2	19.6	6.02e-01	0	42	0	694681600	20	4917
2026-01-10 00:58:11.15	139.66	20.01	-29.4	-32.5	19.8	6.02e-01	0	42	0	696254464	19	5125
2026-01-10 00:58:12.15	139.87	19.90	-29.5	-32.4	19.4	6.01e-01	0	42	0	698351616	20	4982
2026-01-10 00:58:13.15	140.08	19.80	-29.4	-32.1	19.6	6.04e-01	0	42	0	699924480	20	4894
2026-01-10 00:58:14.15	140.29	19.70	-29.5	-32.6	19.7	6.04e-01	0	42	0	702021632	19	5172
2026-01-10 00:58:15.15	140.49	19.60	-29.5	-32.4	19.4	6.03e-01	0	42	0	703594496	20	4982
2026-01-10 00:58:16.15	140.70	19.50	-29.7	-32.9	19.1	6.04e-01	0	42	0	705691648	20	5172
2026-01-10 00:58:17.15	140.90	19.39	-29.7	-32.8	19.1	6.03e-01	0	42	0	707788800	20	5126
2026-01-10 00:58:18.15	141.10	19.29	-29.4	-32.6	19.7	6.05e-01	0	42	0	709361664	19	5164
2026-01-10 00:58:19.16	141.31	19.19	-29.4	-32.6	19.6	6.03e-01	0	42	0	711458816	19	5174
2026-01-10 00:58:20.17	141.51	19.09	-29.4	-32.5	19.7	6.02e-01	0	42	0	713031680	19	5131
2026-01-10 00:58:21.17	141.71	18.98	-29.4	-32.5	19.7	6.03e-01	0	42	0	715128832	19	5138
2026-01-10 00:58:22.17	141.90	18.88	-29.4	-32.5	19.7	6.03e-01	0	42	0	717225984	19	5149
2026-01-10 00:58:23.18	142.10	18.78	-29.3	-32.3	19.8	6.03e-01	0	42	0	718798848	19	5083
2026-01-10 00:58:24.18	142.29	18.68	-29.3	-32.3	19.8	6.04e-01	0	42	0	720896000	19	5064
2026-01-10 00:58:25.18	142.49	18.58	-29.3	-32.3	19.8	6.05e-01	0	42	0	722468864	19	5055
2026-01-10 00:58:26.18	142.68	18.48	-29.4	-32.6	19.6	6.04e-01	0	42	0	724566016	19	5188
2026-01-10 00:58:27.18	142.87	18.38	-29.4	-32.4	19.6	6.03e-01	0	42	0	726138880	19	5104
2026-01-10 00:58:28.19	143.06	18.28	-29.3	-32.3	19.7	6.03e-01	0	42	0	728236032	19	5070
2026-01-10 00:58:29.19	143.25	18.18	-29.4	-32.6	19.6	6.03e-01	0	42	0	730333184	19	5169
2026-01-10 00:58:30.19	143.43	18.08	-29.3	-32.4	19.6	6.04e-01	0	42	0	731906048	19	5102
2026-01-10 00:58:31.20	143.62	17.97	-29.4	-32.5	19.5	6.01e-01	0	42	0	734003200	19	5149
2026-01-10 00:58:32.20	143.80	17.87	-29.4	-32.5	19.5	6.06e-01	0	42	0	735576064	19	5165
2026-01-10 00:58:33.20	143.99	17.78	-29.5	-32.7	19.4	6.02e-01	0	42	0	737673216	19	5217
2026-01-10 00:58:34.20	144.17	17.68	-29.4	-32.6	19.5	6.02e-01	0	42	0	739770368	19	5183
2026-01-10 00:58:35.20	144.35	17.58	-29.6	-32.6	19.1	6.01e-01	0	42	0	741343232	20	5083
2026-01-10 00:58:36.21	144.53	17.48	-29.4	-32.6	19.4	6.03e-01	0	42	0	743440384	19	5197
2026-01-10 00:58:37.22	144.71	17.38	-29.5	-32.7	19.4	6.04e-01	0	42	0	745013248	19	5232
2026-01-10 00:58:38.22	144.88	17.28	-29.5	-32.5	19.1	6.01e-01	0	42	0	747110400	20	5049
2026-01-10 00:58:39.21	145.06	17.18	-29.5	-32.9	19.3	6.04e-01	0	42	0	749207552	19	5308
2026-01-10 00:58:40.20	145.23	17.08	-29.7	-33.0	18.9	6.03e-01	0	42	0	750780416	20	5246
2026-01-10 00:58:41.20	145.40	16.98	-29.6	-32.8	19.0	6.03e-01	0	42	0	752877568	20	5153
2026-01-10 00:58:42.21	145.57	16.89	-29.7	-32.9	18.9	6.04e-01	0	42	0	754450432	20	5210
2026-01-10 00:58:43.21	145.75	16.79	-29.8	-33.2	18.6	6.03e-01	0	42	0	756547584	20	5331
2026-01-10 00:58:44.21	145.91	16.69	-29.6	-32.7	19.0	6.05e-01	0	42	0	758120448	20	5119
2026-01-10 00:58:45.22	146.08	16.59	-29.5	-32.4	19.2	6.03e-01	0	42	0	760217600	20	5020
2026-01-10 00:58:46.22	146.25	16.50	-29.3	-31.8	19.5	6.03e-01	0	42	0	762314752	20	4814
2026-01-10 00:58:47.22	146.42	16.40	-29.4	-32.5	19.4	6.02e-01	0	42	0	763887616	19	5162
2026-01-10 00:58:48.22	146.58	16.30	-29.3	-32.5	19.4	6.03e-01	0	42	0	765984768	19	5161
2026-01-10 00:58:49.23	146.75	16.20	-29.3	-32.4	19.4	6.04e-01	0	42	0	767557632	19	5147
2026-01-10 00:58:50.23	146.91	16.11	-29.3	-32.3	19.5	6.05e-01	0	42	0	769654784	19	5085
2026-01-10 00:58:51.23	147.07	16.01	-29.3	-32.4	19.5	6.04e-01	0	42	0	771227648	19	5133
2026-01-10 00:58:52.23	147.23	15.92	-29.3	-32.4	19.5	6.02e-01	0	42	0	773324800	19	5147
2026-01-10 00:58:53.23	147.39	15.82	-29.2	-32.1	19.6	6.04e-01	0	42	0	775421952	19	5048
2026-01-10 00:58:54.22	147.55	15.73	-29.4	-32.7	19.3	6.03e-01	0	42	0	776994816	19	5271
2026-01-10 00:58:55.22	147.71	15.63	-29.5	-32.6	19.0	6.03e-01	0	42	0	779091968	20	5102
2026-01-10 00:58:56.23	147.86	15.53	-29.5	-32.5	19.1	6.01e-01	0	42	0	780664832	20	5075
2026-01-10 00:58:57.23	148.02	15.44	-29.6	-32.8	18.8	6.02e-01	0	42	0	782761984	20	5184
2026-01-10 00:58:58.24	148.18	15.34	-29.6	-32.7	18.9	6.04e-01	0	42	0	784859136	20	5142
2026-01-10 00:58:59.24	148.33	15.25	-29.4	-32.2	19.2	6.04e-01	0	42	0	786432000	20	4972
2026-01-10 00:59:00.24	148.48	15.16	-29.7	-32.9	18.7	6.04e-01	0	42	0	788529152	20	5244
2026-01-10 00:59:01.24	148.63	15.06	-29.5	-32.4	19.0	6.03e-01	0	42	0	790102016	20	5047
2026-01-10 00:59:02.24	148.78	14.97	-29.5	-32.9	19.2	6.03e-01	0	42	0	792199168	19	5306
2026-01-10 00:59:03.25	148.93	14.87	-29.4	-32.6	19.4	6.03e-01	0	42	0	794296320	19	5190
2026-01-10 00:59:04.25	149.08	14.78	-29.6	-32.6	19.0	6.03e-01	0	42	0	795869184	20	5110
2026-01-10 00:59:05.25	149.23	14.69	-29.5	-32.3	19.1	6.02e-01	0	42	0	797966336	20	5005
2026-01-10 00:59:06.26	149.38	14.59	-29.4	-32.1	19.2	6.03e-01	0	42	0	799539200	20	4925
2026-01-10 00:59:07.26	149.52	14.50	-29.3	-31.9	19.3	6.04e-01	0	42	0	801636352	20	4875
2026-01-10 00:59:08.27	149.67	14.41	-29.5	-32.8	19.1	6.03e-01	0	42	0	803209216	19	5313
2026-01-10 00:59:09.27	149.81	14.32	-29.4	-32.6	19.2	6.02e-01	0	42	0	805306368	19	5236
2026-01-10 00:59:10.28	149.96	14.22	-29.5	-32.9	19.0	6.03e-01	0	42	0	807403520	19	5342
2026-01-10 00:59:11.28	150.10	14.13	-29.5	-32.9	19.0	6.02e-01	0	42	0	808976384	19	5320
2026-01-10 00:59:12.29	150.24	14.04	-29.4	-32.6	19.2	6.05e-01	0	42	0	811073536	19	5242
2026-01-10 00:59:13.29	150.38	13.95	-29.5	-33.0	19.0	6.03e-01	0	42	0	812646400	19	5365
2026-01-10 00:59:14.30	150.52	13.86	-29.6	-32.7	18.7	6.03e-01	0	42	0	814743552	20	5164
2026-01-10 00:59:15.30	150.66	13.77	-29.7	-33.2	18.4	6.04e-01	0	42	0	816840704	20	5358
2026-01-10 00:59:16.30	150.80	13.68	-30.0	-33.9	18.0	6.03e-01	0	42	0	818413568	20	5648
2026-01-10 00:59:17.30	150.93	13.59	-30.1	-33.8	17.6	6.02e-01	0	42	0	820510720	21	5496
2026-01-10 00:59:18.30	151.07	13.50	-29.9	-33.8	17.9	6.05e-01	0	42	0	822083584	20	5641
2026-01-10 00:59:19.30	151.20	13.41	-29.8	-33.5	18.2	6.03e-01	0	42	0	824180736	20	5483
2026-01-10 00:59:20.30	151.34	13.32	-29.7	-33.2	18.3	6.06e-01	0	42	0	826277888	20	5394
2026-01-10 00:59:21.30	151.47	13.23	-29.9	-33.7	18.0	6.04e-01	0	42	0	827850752	20	5568
2026-01-10 00:59:22.30	151.60	13.14	-29.9	-33.7	17.9	6.04e-01	0	42	0	829947904	20	5561
2026-01-10 00:59:23.29	151.73	13.05	-29.8	-33.3	18.3	6.01e-01	0	42	0	831520768	20	5426
2026-01-10 00:59:24.29	151.87	12.96	-29.6	-32.9	18.6	6.03e-01	0	42	0	833617920	20	5245
2026-01-10 00:59:25.29	151.99	12.87	-29.5	-32.6	18.8	6.02e-01	0	42	0	835190784	20	5131
2026-01-10 00:59:26.30	152.13	12.78	-29.4	-32.3	18.9	6.03e-01	0	42	0	837287936	20	5033
2026-01-10 00:59:27.29	152.25	12.70	-29.5	-32.6	18.7	6.02e-01	0	42	0	838860800	20	5136
2026-01-10 00:59:28.29	152.38	12.61	-29.6	-32.8	18.6	6.03e-01	0	42	0	840957952	20	5228
2026-01-10 00:59:29.30	152.51	12.52	-29.5	-32.7	18.6	6.04e-01	0	42	0	843055104	20	5199
2026-01-10 00:59:30.30	152.63	12.43	-29.4	-32.5	18.8	6.03e-01	0	42	0	844627968	20	5093
2026-01-10 00:59:31.30	152.76	12.35	-29.4	-32.4	18.9	6.04e-01	0	42	0	846725120	20	5066
2026-01-10 00:59:32.30	152.88	12.26	-29.4	-32.9	18.9	6.02e-01	0	42	0	848297984	19	5375
2026-01-10 00:59:33.30	153.01	12.17	-29.4	-32.9	18.9	6.04e-01	0	42	0	850395136	19	5359
2026-01-10 00:59:34.30	153.13	12.09	-29.4	-32.9	18.9	6.06e-01	0	42	0	852492288	19	5372
2026-01-10 00:59:35.30	153.25	12.00	-29.4	-32.9	18.8	6.04e-01	0	42	0	854065152	19	5378
2026-01-10 00:59:36.30	153.37	11.92	-29.5	-33.1	18.7	6.05e-01	0	42	0	856162304	19	5467
2026-01-10 00:59:37.30	153.49	11.83	-29.5	-33.1	18.7	6.03e-01	0	42	0	857735168	19	5460
2026-01-10 00:59:38.30	153.61	11.75	-29.6	-32.9	18.5	6.04e-01	0	42	0	859832320	20	5259
2026-01-10 00:59:39.30	153.73	11.66	-29.8	-33.3	18.2	6.03e-01	0	42	0	861929472	20	5445
2026-01-10 00:59:40.30	153.85	11.58	-30.0	-34.0	17.7	6.04e-01	0	42	0	863502336	20	5704
2026-01-10 00:59:41.31	153.97	11.49	-29.9	-33.6	18.0	6.04e-01	0	42	0	865599488	20	5547
2026-01-10 00:59:42.31	154.09	11.41	-30.0	-34.0	17.7	6.03e-01	0	42	0	867172352	20	5737
2026-01-10 00:59:43.31	154.20	11.32	-30.1	-33.7	17.6	6.03e-01	0	42	0	869269504	21	5488
2026-01-10 00:59:44.31	154.32	11.24	-29.8	-33.5	18.1	6.02e-01	0	42	0	870842368	20	5511
2026-01-10 00:59:45.32	154.44	11.15	-29.9	-33.7	18.0	6.05e-01	0	42	0	872939520	20	5574
2026-01-10 00:59:46.32	154.55	11.07	-29.9	-33.9	17.8	6.04e-01	0	42	0	875036672	20	5678
2026-01-10 00:59:47.32	154.66	10.99	-30.0	-34.2	17.7	6.05e-01	0	42	0	876609536	20	5786
2026-01-10 00:59:48.33	154.78	10.90	-30.0	-34.1	17.7	6.02e-01	0	42	0	878706688	20	5745
2026-01-10 00:59:49.33	154.89	10.82	-30.3	-34.5	17.1	6.04e-01	0	42	0	880279552	21	5850
2026-01-10 00:59:50.33	155.00	10.74	-30.7	-35.1	16.3	6.03e-01	0	42	0	882376704	22	6019
2026-01-10 00:59:51.33	155.11	10.65	-30.3	-33.9	17.1	6.05e-01	0	42	0	883949568	22	5461
2026-01-10 00:59:52.33	155.22	10.57	-30.1	-33.8	17.5	6.04e-01	0	42	0	886046720	21	5532
2026-01-10 00:59:53.33	155.33	10.49	-29.9	-33.6	18.1	6.03e-01	0	42	0	888143872	20	5537
2026-01-10 00:59:54.33	155.44	10.41	-29.8	-33.5	18.1	6.02e-01	0	42	0	889716736	20	5499
2026-01-10 00:59:55.33	155.55	10.33	-29.7	-33.3	18.2	6.05e-01	0	42	0	891813888	20	5435
2026-01-10 00:59:56.33	155.66	10.24	-29.8	-33.4	18.2	6.04e-01	0	42	0	893386752	20	5462
2026-01-10 00:59:57.33	155.76	10.16	-29.8	-33.5	18.1	6.02e-01	0	42	0	895483904	20	5528
2026-01-10 00:59:58.33	155.87	10.08	-29.8	-33.5	18.1	6.04e-01	0	42	0	897056768	20	5524
2026-01-10 00:59:59.33	155.98	10.00	-29.9	-33.7	18.1	6.03e-01	0	42	0	899153920	20	5594
2026-01-10 01:00:00.32	156.08	9.92	-30.0	-33.5	17.8	6.03e-01	0	42	0	901251072	21	5390
2026-01-10 01:00:01.32	156.19	9.84	-29.8	-33.1	18.0	6.04e-01	0	42	0	902823936	21	5236
2026-01-10 01:00:02.32	156.29	9.76	-30.2	-34.0	17.6	6.04e-01	0	42	0	904921088	21	5585
2026-01-10 01:00:03.32	156.39	9.68	-31.1	-35.8	16.9	6.04e-01	0	42	0	906493952	22	6164
2026-01-10 01:00:04.32	156.50	9.60	-31.0	-36.1	15.9	6.05e-01	0	42	0	908591104	22	6453
2026-01-10 01:00:05.32	156.60	9.52	-31.4	-36.4	14.9	6.04e-01	0	42	0	910163968	24	6396
2026-01-10 01:00:06.32	156.70	9.44	-31.1	-35.8	15.6	6.02e-01	0	42	0	912261120	23	6190
2026-01-10 01:00:07.32	156.80	9.36	-30.6	-34.3	15.9	6.05e-01	0	42	0	914358272	23	5487
2026-01-10 01:00:08.32	156.90	9.29	-31.9	-38.8	13.5	6.07e-01	0	42	0	915931136	24	7926
2026-01-10 01:00:09.32	157.00	9.21	-31.5	-36.9	13.7	6.04e-01	0	42	0	918028288	24	6720
2026-01-10 01:00:10.32	157.10	9.13	-31.8	-38.0	14.3	6.04e-01	0	42	0	919601152	24	7354
2026-01-10 01:00:11.32	157.20	9.05	-30.5	-36.1	14.3	6.05e-01	0	42	0	921698304	24	6935
2026-01-10 01:00:12.32	157.30	8.97	-31.6	-37.6	14.0	6.05e-01	0	42	0	923795456	24	7187
2026-01-10 01:00:13.32	157.40	8.89	-31.4	-37.3	13.5	6.11e-01	0	42	0	925368320	23	7099
2026-01-10 01:00:14.33	157.50	8.82	-31.5	-37.7	13.4	6.11e-01	0	42	0	927465472	23	7342
2026-01-10 01:00:15.33	157.59	8.74	-31.4	-36.7	14.4	6.04e-01	0	42	0	929038336	24	6614
2026-01-10 01:00:16.34	157.69	8.66	-31.1	-36.1	14.7	6.10e-01	0	42	0	931135488	23	6368
2026-01-10 01:00:17.34	157.78	8.58	-31.0	-36.2	14.4	6.03e-01	0	42	0	932708352	22	6580
2026-01-10 01:00:18.35	157.88	8.51	-30.4	-33.7	16.8	6.03e-01	0	42	0	934805504	23	5275
2026-01-10 01:00:19.35	157.98	8.43	-29.9	-33.9	17.7	6.02e-01	0	42	0	936902656	20	5685
2026-01-10 01:00:20.35	158.07	8.35	-30.0	-34.1	17.6	6.05e-01	0	42	0	938475520	20	5778
2026-01-10 01:00:21.35	158.16	8.28	-30.2	-34.1	17.3	6.03e-01	0	42	0	940572672	21	5643
2026-01-10 01:00:22.35	158.26	8.20	-30.1	-34.0	17.3	6.04e-01	0	42	0	942145536	21	5634
2026-01-10 01:00:23.34	158.35	8.13	-30.2	-34.3	17.2	6.05e-01	0	42	0	944242688	21	5761
2026-01-10 01:00:24.35	158.44	8.05	-30.2	-34.1	17.2	6.04e-01	0	42	0	946339840	21	5675
2026-01-10 01:00:25.35	158.53	7.97	-30.3	-34.4	16.9	6.03e-01	0	42	0	947912704	21	5810
2026-01-10 01:00:26.34	158.62	7.90	-30.2	-34.1	17.2	6.05e-01	0	42	0	950009856	21	5660
2026-01-10 01:00:27.34	158.71	7.82	-30.2	-34.2	17.2	6.02e-01	0	42	0	951582720	21	5728
2026-01-10 01:00:28.35	158.80	7.75	-30.2	-34.3	17.0	6.04e-01	0	42	0	953679872	21	5758
2026-01-10 01:00:29.36	158.90	7.67	-30.1	-34.1	17.1	6.05e-01	0	42	0	955252736	21	5678
2026-01-10 01:00:30.36	158.98	7.60	-30.1	-33.8	17.3	6.03e-01	0	42	0	957349888	21	5551
2026-01-10 01:00:31.36	159.07	7.52	-30.1	-34.4	17.2	6.04e-01	0	42	0	959447040	20	5932
2026-01-10 01:00:32.36	159.16	7.45	-30.0	-34.3	17.2	6.04e-01	0	42	0	961019904	20	5921
2026-01-10 01:00:33.36	159.25	7.38	-30.0	-34.4	17.2	6.04e-01	0	42	0	963117056	20	5945
2026-01-10 01:00:34.36	159.34	7.30	-30.0	-34.4	17.1	6.02e-01	0	42	0	964689920	20	5985
2026-01-10 01:00:35.37	159.42	7.23	-30.2	-34.5	16.7	6.03e-01	0	42	0	966787072	21	5929
2026-01-10 01:00:36.37	159.51	7.16	-30.4	-35.0	16.3	6.03e-01	0	42	0	968884224	21	6164
2026-01-10 01:00:37.37	159.60	7.08	-32.8	-46.9	6.7	6.94e-01	0	42	0	970457088	26	18359
2026-01-10 01:00:38.37	159.68	7.01	-32.8	-52.5	3.8	7.45e-01	0	42	104	970457088	26	34809

#Closed at: 2026-01-10 01:00:38
#Recorded file [970 MB]: D:/data/31010_260110_035159.dat