passes_logs/2026/01/10/R2M6_AANII_01/R2M6_AANII_01__20260110_102259_FENGYUN_3D_rec.log

#Pass ID: 20260110_102259_FENGYUN 3D
#Satellite: FENGYUN 3D
#Configuration: FENGYUN 3D
#almurnet v.1.7.20240730
#Start time: 2026-01-10 10:23:00

#Version: 2.2.20231116
#Station: R2M6_AANII_01
#Location: 30.233357 lon 59.946436 lat
#TLE: 1 43010U 17072A   26009.29492227  .00000158  00000+0  96483-4 0  9996
#TLE: 2 43010  98.9936 341.0229 0002153 117.3665 242.7729 14.19694440422446

#Time	Az	El	Level	Level2	SNR	BER	BlckErr	Temp	State	Recorded	gain1	gain2
2026-01-10 10:23:00.86	99.09	7.09	-31.0	-42.1	3.8	8.47e-01	0	39	0	0	22	12804
2026-01-10 10:23:01.86	98.99	7.15	-30.9	-41.3	3.8	8.46e-01	0	39	104	0	23	11914
2026-01-10 10:23:02.87	98.90	7.22	-30.9	-41.3	3.8	8.45e-01	0	39	104	0	23	11868
2026-01-10 10:23:03.88	98.80	7.28	-30.8	-41.0	3.8	8.46e-01	0	40	104	0	23	11672
2026-01-10 10:23:04.88	98.71	7.35	-30.7	-41.2	3.8	8.46e-01	0	39	104	0	22	12146
2026-01-10 10:23:05.89	98.61	7.41	-30.6	-41.1	3.8	8.47e-01	0	40	104	0	22	12124
2026-01-10 10:23:06.90	98.52	7.48	-30.5	-40.9	3.8	8.46e-01	0	40	104	0	22	11934
2026-01-10 10:23:07.90	98.42	7.54	-30.4	-40.4	3.8	8.47e-01	0	40	104	0	22	11435
2026-01-10 10:23:08.91	98.32	7.61	-30.3	-40.1	3.8	8.46e-01	0	40	104	0	22	11119
2026-01-10 10:23:09.91	98.23	7.67	-30.3	-40.2	3.8	8.45e-01	0	40	104	0	22	11139
2026-01-10 10:23:10.92	98.13	7.74	-30.4	-40.5	3.8	8.46e-01	0	40	104	0	22	11551
2026-01-10 10:23:11.93	98.03	7.80	-30.5	-40.7	3.8	8.46e-01	0	40	104	0	22	11685
2026-01-10 10:23:12.93	97.93	7.87	-30.5	-40.8	3.8	8.46e-01	0	40	104	0	22	11779
2026-01-10 10:23:13.94	97.83	7.93	-30.5	-40.6	3.8	8.47e-01	0	40	104	0	22	11544
2026-01-10 10:23:14.94	97.73	8.00	-30.5	-40.8	3.8	8.47e-01	0	40	104	0	22	11780
2026-01-10 10:23:15.95	97.63	8.06	-30.6	-41.1	3.8	8.47e-01	0	40	104	0	22	12183
2026-01-10 10:23:16.96	97.53	8.13	-30.5	-41.0	3.8	8.46e-01	0	40	104	0	22	11959
2026-01-10 10:23:17.96	97.43	8.19	-30.5	-40.8	3.8	8.46e-01	0	40	104	0	22	11752
2026-01-10 10:23:18.97	97.33	8.26	-30.6	-41.0	3.8	8.46e-01	0	40	104	0	22	12018
2026-01-10 10:23:19.98	97.23	8.32	-30.6	-41.2	3.8	8.45e-01	0	40	104	0	22	12290
2026-01-10 10:23:20.99	97.12	8.39	-30.6	-41.2	3.8	8.46e-01	0	40	104	0	22	12200
2026-01-10 10:23:22.00	97.02	8.46	-30.5	-41.1	3.8	8.45e-01	0	40	104	0	22	12151
2026-01-10 10:23:23.01	96.92	8.52	-30.5	-40.9	3.8	8.46e-01	0	40	104	0	22	11995
2026-01-10 10:23:24.01	96.81	8.59	-30.5	-40.9	3.8	8.46e-01	0	40	104	0	22	11964
2026-01-10 10:23:25.02	96.71	8.65	-30.4	-40.8	3.8	8.46e-01	0	40	104	0	22	11882
2026-01-10 10:23:26.03	96.60	8.72	-30.4	-40.8	3.8	8.47e-01	0	40	104	0	22	11905
2026-01-10 10:23:27.04	96.50	8.79	-30.4	-40.9	3.8	8.47e-01	0	40	104	0	22	11992
2026-01-10 10:23:28.04	96.39	8.85	-30.4	-40.8	3.8	8.46e-01	0	41	104	0	22	11959
2026-01-10 10:23:29.05	96.29	8.92	-30.4	-40.8	3.8	8.46e-01	0	40	104	0	22	11928
2026-01-10 10:23:30.06	96.18	8.99	-30.4	-40.8	3.8	8.46e-01	0	40	104	0	22	11930
2026-01-10 10:23:31.07	96.07	9.05	-30.4	-40.7	3.8	8.46e-01	0	41	104	0	22	11851
2026-01-10 10:23:32.07	95.96	9.12	-30.3	-40.7	3.8	8.46e-01	0	40	104	0	22	11880
2026-01-10 10:23:33.08	95.86	9.19	-30.3	-40.6	3.8	8.46e-01	0	41	104	0	22	11745
2026-01-10 10:23:34.09	95.75	9.25	-30.3	-40.6	3.8	8.44e-01	0	41	104	0	22	11815
2026-01-10 10:23:35.09	95.64	9.32	-30.3	-40.6	3.8	8.46e-01	0	40	104	0	22	11776
2026-01-10 10:23:36.10	95.53	9.39	-30.2	-40.8	3.8	8.46e-01	0	41	104	0	21	12179
2026-01-10 10:23:37.11	95.42	9.45	-30.2	-40.8	3.8	8.47e-01	0	41	104	0	21	12193
2026-01-10 10:23:38.12	95.31	9.52	-30.3	-40.7	3.8	8.46e-01	0	41	104	0	21	11968
2026-01-10 10:23:39.13	95.19	9.59	-30.3	-40.3	3.8	8.45e-01	0	41	104	0	21	11406
2026-01-10 10:23:40.13	95.08	9.66	-30.3	-39.9	3.8	8.45e-01	0	40	104	0	21	10817
2026-01-10 10:23:41.13	94.97	9.72	-30.3	-39.4	3.8	8.45e-01	0	41	104	0	21	10238
2026-01-10 10:23:42.14	94.86	9.79	-30.4	-38.8	3.9	8.45e-01	0	41	104	0	21	9552
2026-01-10 10:23:43.15	94.74	9.86	-30.4	-38.2	4.2	8.39e-01	0	41	0	0	21	8884
2026-01-10 10:23:44.16	94.63	9.93	-30.5	-38.1	4.3	8.34e-01	0	41	0	0	21	8618
2026-01-10 10:23:45.17	94.51	9.99	-30.5	-37.4	4.7	8.13e-01	0	41	0	0	21	7970
2026-01-10 10:23:46.18	94.40	10.06	-30.7	-37.1	5.1	7.50e-01	0	41	0	0	21	7572
2026-01-10 10:23:47.18	94.28	10.13	-30.4	-35.6	6.1	3.85e-01	0	41	0	3145728	21	6561
2026-01-10 10:23:48.19	94.17	10.20	-30.3	-34.9	6.6	2.79e-01	0	41	0	8388608	21	6150
2026-01-10 10:23:49.20	94.05	10.27	-30.6	-35.7	6.4	2.70e-01	0	41	0	13631488	21	6504
2026-01-10 10:23:50.20	93.93	10.33	-30.6	-35.9	6.3	2.50e-01	0	41	0	19922944	21	6571
2026-01-10 10:23:51.21	93.81	10.40	-31.0	-36.6	5.7	4.56e-01	0	41	0	25165824	22	6882
2026-01-10 10:23:52.22	93.70	10.47	-31.2	-37.4	5.4	7.21e-01	0	41	0	28311552	22	7298
2026-01-10 10:23:53.23	93.58	10.54	-31.0	-36.3	6.0	4.69e-01	0	41	0	31457280	22	6628
2026-01-10 10:23:54.23	93.46	10.61	-30.7	-35.3	6.8	2.36e-01	0	41	0	37748736	22	6060
2026-01-10 10:23:55.24	93.34	10.68	-30.6	-34.8	7.1	1.77e-01	0	41	0	42991616	22	5823
2026-01-10 10:23:56.25	93.21	10.74	-30.3	-33.7	7.9	9.75e-02	0	41	0	48234496	22	5311
2026-01-10 10:23:57.26	93.09	10.81	-29.9	-32.9	8.8	6.69e-02	0	41	0	54525952	21	5068
2026-01-10 10:23:58.26	92.97	10.88	-29.6	-32.4	9.5	2.44e-02	0	41	0	59768832	20	4998
2026-01-10 10:23:59.27	92.85	10.95	-29.1	-31.5	10.6	4.56e-03	0	41	0	66060288	19	4750
2026-01-10 10:24:00.27	92.73	11.02	-28.2	-30.3	11.9	4.11e-04	0	41	0	71303168	17	4575
2026-01-10 10:24:01.28	92.60	11.09	-27.5	-29.0	13.2	6.20e-04	0	41	0	76546048	16	4290
2026-01-10 10:24:02.29	92.48	11.16	-28.4	-30.6	11.8	4.30e-04	0	41	0	82837504	17	4658
2026-01-10 10:24:03.29	92.35	11.22	-28.4	-30.7	11.8	2.63e-04	0	41	0	88080384	17	4688
2026-01-10 10:24:04.30	92.23	11.29	-29.0	-31.8	10.8	2.94e-03	0	41	0	94371840	18	4972
2026-01-10 10:24:05.30	92.10	11.36	-28.6	-30.6	11.5	1.37e-03	0	41	0	99614720	18	4567
2026-01-10 10:24:06.31	91.97	11.43	-28.4	-30.1	11.9	1.08e-03	0	41	0	104857600	18	4395
2026-01-10 10:24:07.32	91.85	11.50	-27.9	-29.5	12.5	2.91e-04	0	41	0	111149056	17	4317
2026-01-10 10:24:08.33	91.72	11.57	-28.0	-29.6	12.4	3.79e-04	0	41	0	116391936	17	4360
2026-01-10 10:24:09.34	91.59	11.64	-27.8	-29.4	12.6	1.74e-04	0	41	0	122683392	17	4288
2026-01-10 10:24:10.34	91.46	11.71	-28.1	-30.0	12.2	6.12e-04	0	41	0	127926272	17	4468
2026-01-10 10:24:11.35	91.33	11.78	-27.6	-29.1	13.1	8.46e-05	0	41	0	133169152	16	4314
2026-01-10 10:24:12.35	91.20	11.85	-27.0	-28.4	13.6	1.83e-05	0	41	0	139460608	15	4228
2026-01-10 10:24:13.36	91.07	11.92	-26.6	-28.0	14.2	9.10e-06	0	41	0	144703488	14	4223
2026-01-10 10:24:14.37	90.94	11.99	-25.9	-26.9	15.1	0.00e+00	0	41	0	150994944	13	4024
2026-01-10 10:24:15.37	90.81	12.06	-25.7	-26.9	15.4	0.00e+00	0	41	0	156237824	12	4138
2026-01-10 10:24:16.38	90.67	12.13	-25.6	-26.6	15.5	0.00e+00	0	41	0	161480704	12	4066
2026-01-10 10:24:17.38	90.54	12.20	-25.8	-27.1	15.3	0.00e+00	0	41	0	167772160	12	4184
2026-01-10 10:24:18.39	90.41	12.26	-25.8	-27.2	15.2	1.10e-06	0	41	0	173015040	12	4226
2026-01-10 10:24:19.40	90.27	12.33	-25.7	-27.0	15.3	0.00e+00	0	41	0	179306496	12	4168
2026-01-10 10:24:20.41	90.13	12.40	-25.7	-26.8	15.4	0.00e+00	0	41	0	184549376	12	4124
2026-01-10 10:24:21.41	90.00	12.47	-25.8	-27.1	15.3	0.00e+00	0	41	0	190840832	12	4178
2026-01-10 10:24:22.42	89.86	12.54	-25.9	-27.5	15.1	0.00e+00	0	41	0	196083712	12	4290
2026-01-10 10:24:23.43	89.72	12.61	-25.8	-27.2	15.3	0.00e+00	0	41	0	201326592	12	4208
2026-01-10 10:24:24.44	89.58	12.68	-25.9	-27.4	15.2	0.00e+00	0	41	0	207618048	12	4262
2026-01-10 10:24:25.44	89.45	12.75	-26.0	-27.5	15.1	0.00e+00	0	41	0	212860928	12	4304
2026-01-10 10:24:26.45	89.31	12.82	-26.0	-27.5	15.1	0.00e+00	0	41	0	218103808	12	4294
2026-01-10 10:24:27.46	89.17	12.89	-25.8	-27.1	15.3	0.00e+00	0	41	0	224395264	12	4201
2026-01-10 10:24:28.46	89.03	12.96	-25.5	-26.5	15.7	0.00e+00	0	41	0	229638144	12	4044
2026-01-10 10:24:29.47	88.88	13.03	-25.5	-26.6	15.7	0.00e+00	0	41	0	235929600	12	4050
2026-01-10 10:24:30.48	88.74	13.10	-25.7	-26.8	15.5	0.00e+00	0	41	0	241172480	12	4119
2026-01-10 10:24:31.49	88.60	13.18	-25.6	-26.6	15.6	0.00e+00	0	41	0	246415360	12	4068
2026-01-10 10:24:32.50	88.45	13.25	-25.5	-26.5	15.7	0.00e+00	0	41	0	252706816	12	4031
2026-01-10 10:24:33.51	88.31	13.32	-26.1	-27.8	15.0	0.00e+00	0	41	0	257949696	12	4373
2026-01-10 10:24:34.51	88.16	13.39	-25.9	-27.3	15.3	0.00e+00	0	41	0	264241152	12	4252
2026-01-10 10:24:35.52	88.02	13.46	-26.0	-27.7	15.1	0.00e+00	0	41	0	269484032	12	4333
2026-01-10 10:24:36.52	87.87	13.53	-26.0	-27.5	15.2	0.00e+00	0	41	0	275775488	12	4301
2026-01-10 10:24:37.52	87.73	13.60	-25.8	-27.1	15.4	0.00e+00	0	41	0	281018368	12	4180
2026-01-10 10:24:38.53	87.58	13.67	-25.9	-27.3	15.3	1.10e-06	0	41	0	286261248	12	4225
2026-01-10 10:24:39.54	87.43	13.74	-26.1	-27.8	15.0	1.10e-06	0	41	0	292552704	12	4365
2026-01-10 10:24:40.54	87.28	13.81	-25.9	-27.3	15.4	0.00e+00	0	41	0	297795584	12	4235
2026-01-10 10:24:41.54	87.13	13.88	-25.9	-27.3	15.3	0.00e+00	0	41	0	303038464	12	4234
2026-01-10 10:24:42.55	86.98	13.95	-25.8	-27.1	15.5	0.00e+00	0	41	0	309329920	12	4190
2026-01-10 10:24:43.55	86.83	14.02	-25.5	-26.5	15.7	0.00e+00	0	41	0	314572800	12	4038
2026-01-10 10:24:44.56	86.68	14.09	-25.3	-26.1	16.0	0.00e+00	0	42	0	320864256	12	3924
2026-01-10 10:24:45.57	86.52	14.16	-25.2	-26.4	16.2	0.00e+00	0	41	0	326107136	11	4098
2026-01-10 10:24:46.58	86.37	14.23	-25.2	-26.3	16.2	0.00e+00	0	41	0	331350016	11	4078
2026-01-10 10:24:47.59	86.21	14.30	-25.4	-26.6	16.1	0.00e+00	0	41	0	337641472	11	4160
2026-01-10 10:24:48.60	86.06	14.37	-25.4	-26.7	16.0	0.00e+00	0	41	0	342884352	11	4174
2026-01-10 10:24:49.60	85.90	14.44	-25.2	-26.4	16.2	0.00e+00	0	41	0	349175808	11	4099
2026-01-10 10:24:50.61	85.75	14.51	-25.3	-26.6	16.1	0.00e+00	0	41	0	354418688	11	4166
2026-01-10 10:24:51.61	85.59	14.58	-25.3	-26.6	16.1	0.00e+00	0	41	0	360710144	11	4158
2026-01-10 10:24:52.62	85.43	14.65	-25.2	-26.3	16.2	0.00e+00	0	41	0	365953024	11	4089
2026-01-10 10:24:53.63	85.27	14.72	-25.3	-26.6	16.1	0.00e+00	0	41	0	371195904	11	4155
2026-01-10 10:24:54.64	85.11	14.79	-25.2	-26.3	16.2	0.00e+00	0	41	0	377487360	11	4085
2026-01-10 10:24:55.64	84.95	14.86	-25.1	-26.1	16.3	0.00e+00	0	41	0	382730240	11	4038
2026-01-10 10:24:56.65	84.79	14.93	-25.1	-26.0	16.4	0.00e+00	0	42	0	387973120	11	4014
2026-01-10 10:24:57.66	84.63	15.00	-25.2	-26.2	16.3	0.00e+00	0	41	0	394264576	11	4048
2026-01-10 10:24:58.67	84.47	15.07	-25.2	-26.2	16.3	0.00e+00	0	41	0	399507456	11	4051
2026-01-10 10:24:59.67	84.30	15.14	-25.2	-26.2	16.3	0.00e+00	0	41	0	405798912	11	4060
2026-01-10 10:25:00.68	84.14	15.21	-25.2	-26.2	16.3	0.00e+00	0	41	0	411041792	11	4057
2026-01-10 10:25:01.68	83.97	15.28	-25.3	-26.5	16.1	0.00e+00	0	41	0	416284672	11	4143
2026-01-10 10:25:02.69	83.81	15.35	-25.3	-26.5	16.1	0.00e+00	0	42	0	422576128	11	4141
2026-01-10 10:25:03.70	83.64	15.42	-25.3	-26.6	16.1	0.00e+00	0	41	0	427819008	11	4160
2026-01-10 10:25:04.70	83.47	15.49	-25.3	-26.5	16.2	0.00e+00	0	41	0	434110464	11	4125
2026-01-10 10:25:05.70	83.31	15.56	-25.4	-26.7	16.0	0.00e+00	0	41	0	439353344	11	4187
2026-01-10 10:25:06.71	83.14	15.63	-25.2	-26.3	16.2	0.00e+00	0	41	0	444596224	11	4091
2026-01-10 10:25:07.72	82.97	15.70	-25.1	-26.1	16.4	0.00e+00	0	41	0	450887680	11	4016
2026-01-10 10:25:08.71	82.80	15.77	-25.0	-25.8	16.6	0.00e+00	0	41	0	456130560	11	3957
2026-01-10 10:25:09.72	82.63	15.84	-25.0	-25.8	16.6	0.00e+00	0	41	0	462422016	11	3946
2026-01-10 10:25:10.72	82.46	15.91	-25.1	-26.0	16.5	0.00e+00	0	41	0	467664896	11	4005
2026-01-10 10:25:11.72	82.28	15.98	-25.0	-25.9	16.5	0.00e+00	0	41	0	472907776	11	3978
2026-01-10 10:25:12.72	82.11	16.05	-25.1	-26.1	16.5	0.00e+00	0	41	0	479199232	11	4024
2026-01-10 10:25:13.73	81.94	16.12	-25.0	-25.7	16.7	0.00e+00	0	41	0	484442112	11	3930
2026-01-10 10:25:14.74	81.76	16.19	-25.0	-25.8	16.6	0.00e+00	0	42	0	489684992	11	3963
2026-01-10 10:25:15.75	81.58	16.25	-25.0	-25.9	16.6	0.00e+00	0	41	0	495976448	11	3972
2026-01-10 10:25:16.75	81.41	16.32	-25.0	-25.8	16.6	0.00e+00	0	41	0	501219328	11	3956
2026-01-10 10:25:17.76	81.23	16.39	-25.3	-26.5	16.3	0.00e+00	0	42	0	507510784	11	4130
2026-01-10 10:25:18.78	81.05	16.46	-25.0	-25.9	16.6	0.00e+00	0	41	0	512753664	11	3976
2026-01-10 10:25:19.78	80.87	16.53	-24.8	-25.3	16.9	0.00e+00	0	42	0	519045120	11	3842
2026-01-10 10:25:20.79	80.69	16.60	-24.7	-25.6	17.0	0.00e+00	0	42	0	524288000	10	3999
2026-01-10 10:25:21.79	80.51	16.67	-24.7	-25.6	17.0	0.00e+00	0	41	0	529530880	10	4003
2026-01-10 10:25:22.80	80.33	16.74	-24.7	-25.6	17.0	0.00e+00	0	41	0	535822336	10	4005
2026-01-10 10:25:23.81	80.14	16.81	-24.7	-25.7	16.9	0.00e+00	0	42	0	541065216	10	4023
2026-01-10 10:25:24.82	79.96	16.87	-24.8	-25.9	16.8	0.00e+00	0	42	0	547356672	10	4093
2026-01-10 10:25:25.82	79.77	16.94	-24.6	-25.5	17.1	0.00e+00	0	41	0	552599552	10	3984
2026-01-10 10:25:26.83	79.59	17.01	-24.9	-26.2	16.7	0.00e+00	0	42	0	557842432	10	4166
2026-01-10 10:25:27.83	79.40	17.08	-24.7	-25.7	17.0	0.00e+00	0	42	0	564133888	10	4021
2026-01-10 10:25:28.84	79.21	17.15	-24.8	-25.8	16.9	0.00e+00	0	41	0	569376768	10	4053
2026-01-10 10:25:29.84	79.03	17.21	-24.7	-25.6	17.0	0.00e+00	0	42	0	574619648	10	4008
2026-01-10 10:25:30.85	78.84	17.28	-24.7	-25.8	16.9	2.20e-06	0	41	0	580911104	10	4048
2026-01-10 10:25:31.85	78.65	17.35	-24.5	-25.3	17.2	0.00e+00	0	42	0	586153984	10	3928
2026-01-10 10:25:32.86	78.46	17.42	-24.5	-25.2	17.2	0.00e+00	0	42	0	592445440	10	3917
2026-01-10 10:25:33.86	78.27	17.48	-24.5	-25.1	17.3	1.10e-06	0	42	0	597688320	10	3893
2026-01-10 10:25:34.87	78.08	17.55	-24.4	-25.1	17.3	0.00e+00	0	42	0	603979776	10	3877
2026-01-10 10:25:35.88	77.88	17.62	-24.6	-25.4	17.1	0.00e+00	0	42	0	609222656	10	3954
2026-01-10 10:25:36.89	77.69	17.68	-24.6	-25.4	17.1	0.00e+00	0	42	0	614465536	10	3969
2026-01-10 10:25:37.89	77.49	17.75	-24.6	-25.5	17.1	0.00e+00	0	41	0	620756992	10	3988
2026-01-10 10:25:38.90	77.30	17.82	-24.9	-26.2	16.7	0.00e+00	0	42	0	625999872	10	4156
2026-01-10 10:25:39.91	77.10	17.88	-24.9	-26.2	16.7	2.20e-06	0	42	0	631242752	10	4148
2026-01-10 10:25:40.91	76.90	17.95	-24.8	-25.8	16.9	0.00e+00	0	42	0	637534208	10	4063
2026-01-10 10:25:41.91	76.71	18.01	-24.9	-26.0	16.8	0.00e+00	0	41	0	642777088	10	4112
2026-01-10 10:25:42.92	76.51	18.08	-24.6	-25.5	17.1	0.00e+00	0	42	0	649068544	10	3990
2026-01-10 10:25:43.93	76.31	18.15	-24.6	-25.5	17.1	0.00e+00	0	42	0	654311424	10	3970
2026-01-10 10:25:44.94	76.10	18.21	-24.6	-25.4	17.1	0.00e+00	0	42	0	659554304	10	3967
2026-01-10 10:25:45.94	75.90	18.28	-24.4	-25.0	17.3	0.00e+00	0	42	0	665845760	10	3871
2026-01-10 10:25:46.94	75.70	18.34	-24.6	-25.4	17.1	0.00e+00	0	42	0	671088640	10	3958
2026-01-10 10:25:47.95	75.50	18.41	-24.3	-24.8	17.5	0.00e+00	0	42	0	677380096	10	3800
2026-01-10 10:25:48.96	75.29	18.47	-24.3	-25.4	17.4	1.10e-06	0	42	0	682622976	9	4063
2026-01-10 10:25:49.97	75.09	18.53	-24.6	-26.0	17.1	0.00e+00	0	42	0	688914432	9	4234
2026-01-10 10:25:50.97	74.88	18.60	-24.5	-25.7	17.2	0.00e+00	0	42	0	694157312	9	4141
2026-01-10 10:25:51.98	74.67	18.66	-24.4	-25.5	17.3	1.10e-06	0	41	0	699400192	9	4097
2026-01-10 10:25:52.98	74.47	18.73	-24.4	-25.6	17.3	0.00e+00	0	42	0	705691648	9	4111
2026-01-10 10:25:53.99	74.26	18.79	-24.3	-25.4	17.4	0.00e+00	0	42	0	710934528	9	4055
2026-01-10 10:25:54.99	74.05	18.85	-24.3	-25.3	17.5	1.10e-06	0	42	0	716177408	9	4041
2026-01-10 10:25:56.00	73.84	18.91	-24.4	-25.4	17.4	0.00e+00	0	42	0	722468864	9	4070
2026-01-10 10:25:57.01	73.63	18.98	-24.3	-25.3	17.4	0.00e+00	0	42	0	727711744	9	4050
2026-01-10 10:25:58.02	73.41	19.04	-24.2	-25.0	17.6	0.00e+00	0	42	0	734003200	9	3973
2026-01-10 10:25:59.03	73.20	19.10	-24.1	-24.9	17.7	0.00e+00	0	42	0	739246080	9	3955
2026-01-10 10:26:00.03	72.99	19.16	-24.2	-25.2	17.5	0.00e+00	0	42	0	744488960	9	4018
2026-01-10 10:26:01.04	72.77	19.23	-24.1	-24.9	17.7	2.20e-06	0	42	0	750780416	9	3935
2026-01-10 10:26:02.04	72.56	19.29	-24.1	-24.9	17.7	0.00e+00	0	41	0	756023296	9	3940
2026-01-10 10:26:03.04	72.34	19.35	-24.0	-24.7	17.8	0.00e+00	0	42	0	762314752	9	3890
2026-01-10 10:26:04.05	72.12	19.41	-24.1	-24.8	17.8	1.10e-06	0	42	0	767557632	9	3912
2026-01-10 10:26:05.06	71.90	19.47	-24.0	-24.7	17.8	0.00e+00	0	42	0	772800512	9	3898
2026-01-10 10:26:06.06	71.68	19.53	-24.0	-24.7	17.8	0.00e+00	0	42	0	779091968	9	3887
2026-01-10 10:26:07.07	71.46	19.59	-24.3	-25.2	17.5	0.00e+00	0	42	0	784334848	9	4013
2026-01-10 10:26:08.07	71.24	19.65	-24.3	-25.2	17.7	0.00e+00	0	41	0	790626304	9	3987
2026-01-10 10:26:09.08	71.02	19.71	-24.4	-25.4	17.6	0.00e+00	0	42	0	795869184	9	4056
2026-01-10 10:26:10.08	70.80	19.77	-24.2	-24.9	17.9	0.00e+00	0	42	0	801112064	9	3927
2026-01-10 10:26:11.09	70.58	19.83	-24.0	-24.5	18.1	0.00e+00	0	42	0	807403520	9	3835
2026-01-10 10:26:12.10	70.35	19.88	-23.9	-24.3	18.2	0.00e+00	0	41	0	812646400	9	3792
2026-01-10 10:26:13.10	70.13	19.94	-23.9	-24.3	18.2	0.00e+00	0	41	0	817889280	9	3788
2026-01-10 10:26:14.11	69.90	20.00	-23.9	-24.8	18.2	0.00e+00	0	42	0	824180736	8	4009
2026-01-10 10:26:15.12	69.67	20.06	-23.9	-24.8	18.2	0.00e+00	0	42	0	829423616	8	4014
2026-01-10 10:26:16.13	69.44	20.12	-24.0	-25.0	18.1	0.00e+00	0	42	0	835715072	8	4065
2026-01-10 10:26:17.13	69.22	20.17	-23.8	-24.6	18.3	0.00e+00	0	42	0	840957952	8	3961
2026-01-10 10:26:18.14	68.98	20.23	-23.7	-24.5	18.4	0.00e+00	0	42	0	847249408	8	3935
2026-01-10 10:26:19.15	68.75	20.28	-23.7	-24.5	18.3	0.00e+00	0	42	0	852492288	8	3947
2026-01-10 10:26:20.15	68.52	20.34	-23.9	-24.9	18.2	0.00e+00	0	42	0	857735168	8	4024
2026-01-10 10:26:21.16	68.29	20.40	-23.8	-24.6	18.3	0.00e+00	0	42	0	864026624	8	3969
2026-01-10 10:26:22.16	68.06	20.45	-24.1	-25.2	18.0	0.00e+00	0	42	0	869269504	8	4120
2026-01-10 10:26:23.16	67.83	20.50	-23.7	-24.4	18.4	0.00e+00	0	41	0	875560960	8	3908
2026-01-10 10:26:24.17	67.59	20.56	-23.6	-24.2	18.5	0.00e+00	0	42	0	880803840	8	3851
2026-01-10 10:26:25.18	67.35	20.61	-23.4	-23.9	18.7	0.00e+00	0	42	0	886046720	8	3784
2026-01-10 10:26:26.18	67.12	20.66	-23.5	-23.9	18.7	0.00e+00	0	42	0	892338176	8	3802
2026-01-10 10:26:27.18	66.88	20.72	-23.7	-24.5	18.4	0.00e+00	0	42	0	897581056	8	3930
2026-01-10 10:26:28.19	66.65	20.77	-23.9	-24.9	18.2	0.00e+00	0	42	0	902823936	8	4040
2026-01-10 10:26:29.20	66.41	20.82	-23.8	-24.6	18.3	0.00e+00	0	42	0	909115392	8	3957
2026-01-10 10:26:30.20	66.17	20.87	-23.7	-24.4	18.4	0.00e+00	0	42	0	914358272	8	3914
2026-01-10 10:26:31.21	65.93	20.93	-23.6	-24.2	18.5	0.00e+00	0	42	0	920649728	8	3869
2026-01-10 10:26:32.22	65.68	20.98	-23.7	-24.4	18.4	0.00e+00	0	42	0	925892608	8	3908
2026-01-10 10:26:33.23	65.44	21.03	-23.9	-24.9	18.2	0.00e+00	0	42	0	932184064	8	4032
2026-01-10 10:26:34.24	65.20	21.08	-24.2	-25.5	17.9	0.00e+00	0	41	0	937426944	8	4178
2026-01-10 10:26:35.24	64.96	21.13	-24.2	-25.5	17.9	0.00e+00	0	42	0	942669824	8	4175
2026-01-10 10:26:36.25	64.71	21.18	-24.4	-25.9	17.7	0.00e+00	0	42	0	948961280	8	4277
2026-01-10 10:26:37.26	64.47	21.22	-24.3	-25.2	17.8	0.00e+00	0	42	0	954204160	9	3984
2026-01-10 10:26:38.26	64.22	21.27	-24.1	-24.7	18.0	0.00e+00	0	42	0	960495616	9	3878
2026-01-10 10:26:39.27	63.97	21.32	-24.1	-24.8	18.0	0.00e+00	0	42	0	965738496	9	3889
2026-01-10 10:26:40.27	63.73	21.37	-24.3	-25.2	17.8	0.00e+00	0	42	0	970981376	9	3999
2026-01-10 10:26:41.27	63.48	21.41	-24.4	-25.4	17.7	0.00e+00	0	42	0	977272832	9	4036
2026-01-10 10:26:42.28	63.23	21.46	-24.7	-26.1	17.3	0.00e+00	0	42	0	982515712	9	4215
2026-01-10 10:26:43.28	62.98	21.50	-24.2	-25.0	17.9	0.00e+00	0	42	0	987758592	9	3954
2026-01-10 10:26:44.28	62.73	21.55	-23.9	-24.3	18.2	0.00e+00	0	42	0	994050048	9	3780
2026-01-10 10:26:45.29	62.48	21.59	-23.6	-24.2	18.6	0.00e+00	0	42	0	999292928	8	3857
2026-01-10 10:26:46.30	62.23	21.64	-23.4	-23.7	18.8	0.00e+00	0	42	0	1005584384	8	3757
2026-01-10 10:26:47.30	61.98	21.68	-23.4	-23.8	18.8	0.00e+00	0	42	0	1010827264	8	3762
2026-01-10 10:26:48.31	61.72	21.73	-23.4	-23.9	18.8	0.00e+00	0	42	0	1017118720	8	3782
2026-01-10 10:26:49.32	61.47	21.77	-23.5	-24.1	18.6	0.00e+00	0	42	0	1022361600	8	3843
2026-01-10 10:26:50.33	61.21	21.81	-23.5	-24.1	18.6	0.00e+00	0	42	0	1027604480	8	3832
2026-01-10 10:26:51.34	60.96	21.85	-23.3	-23.7	18.9	0.00e+00	0	42	0	1033895936	8	3744
2026-01-10 10:26:52.35	60.70	21.89	-23.2	-23.9	18.9	0.00e+00	0	42	0	1039138816	7	3909
2026-01-10 10:26:53.35	60.45	21.93	-23.4	-24.2	18.8	0.00e+00	0	42	0	1044381696	7	3982
2026-01-10 10:26:54.36	60.19	21.97	-23.3	-24.1	18.8	0.00e+00	0	42	0	1050673152	7	3956
2026-01-10 10:26:55.36	59.93	22.01	-23.3	-24.2	18.8	0.00e+00	0	42	0	1055916032	7	3964
2026-01-10 10:26:56.37	59.67	22.05	-23.5	-24.6	18.6	0.00e+00	0	42	0	1062207488	7	4057
2026-01-10 10:26:57.38	59.41	22.09	-23.5	-24.6	18.6	0.00e+00	0	42	0	1067450368	7	4059
2026-01-10 10:26:58.39	59.15	22.13	-23.6	-24.7	18.6	0.00e+00	0	42	0	1072693248	7	4091
2026-01-10 10:26:59.39	58.89	22.16	-23.5	-24.6	18.6	0.00e+00	0	42	0	1078984704	7	4064
2026-01-10 10:27:00.39	58.63	22.20	-23.5	-24.5	18.7	0.00e+00	0	42	0	1084227584	7	4029
2026-01-10 10:27:01.39	58.37	22.24	-23.4	-24.3	18.8	0.00e+00	0	42	0	1090519040	7	3981
2026-01-10 10:27:02.40	58.11	22.27	-23.5	-24.5	18.7	0.00e+00	0	42	0	1095761920	7	4041
2026-01-10 10:27:03.41	57.84	22.31	-23.6	-24.6	18.6	0.00e+00	0	42	0	1102053376	7	4078
2026-01-10 10:27:04.42	57.58	22.34	-23.5	-24.4	18.7	0.00e+00	0	42	0	1107296256	7	4017
2026-01-10 10:27:05.42	57.32	22.37	-23.6	-24.7	18.6	0.00e+00	0	42	0	1112539136	7	4081
2026-01-10 10:27:06.42	57.05	22.41	-23.4	-24.4	18.8	0.00e+00	0	42	0	1118830592	7	4011
2026-01-10 10:27:07.43	56.79	22.44	-23.3	-24.2	18.8	0.00e+00	0	42	0	1124073472	7	3964
2026-01-10 10:27:08.43	56.52	22.47	-23.4	-24.2	18.8	0.00e+00	0	42	0	1129316352	7	3969
2026-01-10 10:27:09.44	56.26	22.50	-23.4	-24.2	18.8	0.00e+00	0	42	0	1135607808	7	3979
2026-01-10 10:27:10.45	55.99	22.53	-23.3	-24.1	18.9	0.00e+00	0	42	0	1140850688	7	3936
2026-01-10 10:27:11.45	55.72	22.56	-23.3	-24.2	18.9	0.00e+00	0	42	0	1146093568	7	3961
2026-01-10 10:27:12.46	55.45	22.59	-23.3	-24.0	18.9	0.00e+00	0	42	0	1152385024	7	3927
2026-01-10 10:27:13.47	55.18	22.62	-23.3	-24.2	18.9	0.00e+00	0	42	0	1157627904	7	3966
2026-01-10 10:27:14.48	54.91	22.65	-23.2	-24.0	18.9	0.00e+00	0	42	0	1163919360	7	3916
2026-01-10 10:27:15.49	54.64	22.68	-22.9	-23.3	19.3	0.00e+00	0	42	0	1169162240	7	3760
2026-01-10 10:27:16.49	54.38	22.70	-22.8	-23.4	19.5	0.00e+00	0	42	0	1175453696	6	3896
2026-01-10 10:27:17.49	54.11	22.73	-22.8	-23.5	19.5	0.00e+00	0	42	0	1180696576	6	3901
2026-01-10 10:27:18.50	53.84	22.75	-22.8	-23.5	19.4	0.00e+00	0	42	0	1185939456	6	3918
2026-01-10 10:27:19.51	53.56	22.78	-22.9	-23.8	19.3	0.00e+00	0	42	0	1192230912	6	3983
2026-01-10 10:27:20.52	53.29	22.80	-23.0	-23.9	19.2	0.00e+00	0	42	0	1197473792	6	4015
2026-01-10 10:27:21.51	53.02	22.82	-23.0	-24.0	19.2	0.00e+00	0	42	0	1203765248	6	4043
2026-01-10 10:27:22.52	52.75	22.85	-23.1	-24.3	19.1	0.00e+00	0	42	0	1209008128	6	4095
2026-01-10 10:27:23.53	52.48	22.87	-23.1	-24.2	19.1	0.00e+00	0	42	0	1214251008	6	4078
2026-01-10 10:27:24.53	52.20	22.89	-23.2	-24.4	19.0	0.00e+00	0	42	0	1220542464	6	4135
2026-01-10 10:27:25.54	51.93	22.91	-23.1	-24.1	19.1	0.00e+00	0	42	0	1225785344	6	4057
2026-01-10 10:27:26.54	51.66	22.93	-23.0	-24.0	19.2	0.00e+00	0	42	0	1231028224	6	4030
2026-01-10 10:27:27.54	51.39	22.95	-23.0	-23.5	19.3	0.00e+00	0	42	0	1237319680	7	3797
2026-01-10 10:27:28.55	51.11	22.97	-23.0	-23.9	19.3	0.00e+00	0	42	0	1242562560	6	4000
2026-01-10 10:27:29.56	50.83	22.99	-22.9	-23.8	19.3	0.00e+00	0	42	0	1248854016	6	3980
2026-01-10 10:27:30.56	50.56	23.00	-22.9	-23.8	19.3	0.00e+00	0	42	0	1254096896	6	3981
2026-01-10 10:27:31.57	50.28	23.02	-23.3	-24.5	19.0	0.00e+00	0	42	0	1260388352	6	4148
2026-01-10 10:27:32.58	50.01	23.04	-24.1	-25.3	18.1	0.00e+00	0	42	0	1265631232	8	4119
2026-01-10 10:27:33.59	49.73	23.05	-23.5	-23.9	18.8	0.00e+00	0	42	0	1270874112	8	3804
2026-01-10 10:27:34.60	49.45	23.06	-23.3	-24.0	19.0	0.00e+00	0	42	0	1277165568	7	3921
2026-01-10 10:27:35.61	49.18	23.08	-23.1	-23.8	19.1	0.00e+00	0	42	0	1282408448	7	3864
2026-01-10 10:27:36.61	48.90	23.09	-23.2	-23.8	19.1	0.00e+00	0	42	0	1288699904	7	3870
2026-01-10 10:27:37.62	48.62	23.10	-23.0	-23.5	19.3	0.00e+00	0	42	0	1293942784	7	3797
2026-01-10 10:27:38.63	48.34	23.11	-23.0	-23.5	19.3	0.00e+00	0	42	0	1299185664	7	3793
2026-01-10 10:27:39.63	48.07	23.13	-22.8	-23.5	19.5	0.00e+00	0	42	0	1305477120	6	3920
2026-01-10 10:27:40.64	47.79	23.14	-22.7	-23.4	19.5	0.00e+00	0	42	0	1310720000	6	3897
2026-01-10 10:27:41.65	47.51	23.14	-22.7	-23.4	19.5	0.00e+00	0	42	0	1315962880	6	3892
2026-01-10 10:27:42.65	47.24	23.15	-22.8	-23.5	19.5	0.00e+00	0	42	0	1322254336	6	3912
2026-01-10 10:27:43.65	46.96	23.16	-22.8	-23.5	19.5	0.00e+00	0	42	0	1327497216	6	3903
2026-01-10 10:27:44.66	46.68	23.17	-23.2	-24.3	19.1	0.00e+00	0	42	0	1333788672	6	4103
2026-01-10 10:27:45.66	46.40	23.17	-22.9	-23.7	19.4	0.00e+00	0	42	0	1339031552	6	3962
2026-01-10 10:27:46.67	46.12	23.18	-22.9	-23.8	19.3	0.00e+00	0	42	0	1345323008	6	3983
2026-01-10 10:27:47.67	45.85	23.18	-23.0	-23.9	19.3	0.00e+00	0	42	0	1350565888	6	4010
2026-01-10 10:27:48.69	45.57	23.19	-23.0	-23.9	19.3	0.00e+00	0	42	0	1355808768	6	3994
2026-01-10 10:27:49.70	45.29	23.19	-22.8	-23.6	19.4	0.00e+00	0	42	0	1362100224	6	3929
2026-01-10 10:27:50.70	45.01	23.19	-22.9	-23.8	19.4	0.00e+00	0	42	0	1367343104	6	3971
2026-01-10 10:27:51.70	44.73	23.20	-22.9	-23.8	19.4	0.00e+00	0	42	0	1372585984	6	3971
2026-01-10 10:27:52.71	44.45	23.20	-22.9	-23.8	19.3	0.00e+00	0	42	0	1378877440	6	3993
2026-01-10 10:27:53.71	44.18	23.20	-23.0	-23.9	19.3	0.00e+00	0	42	0	1384120320	6	4005
2026-01-10 10:27:54.72	43.90	23.20	-22.9	-23.8	19.3	0.00e+00	0	42	0	1390411776	6	3987
2026-01-10 10:27:55.73	43.62	23.20	-22.9	-23.8	19.3	0.00e+00	0	42	0	1395654656	6	3989
2026-01-10 10:27:56.74	43.34	23.20	-23.0	-23.9	19.3	0.00e+00	0	42	0	1400897536	6	3994
2026-01-10 10:27:57.74	43.06	23.19	-23.0	-24.0	19.2	0.00e+00	0	42	0	1407188992	6	4038
2026-01-10 10:27:58.75	42.78	23.19	-23.1	-24.2	19.1	0.00e+00	0	42	0	1412431872	6	4075
2026-01-10 10:27:59.76	42.50	23.19	-23.0	-24.0	19.2	0.00e+00	0	42	0	1418723328	6	4024
2026-01-10 10:28:00.77	42.22	23.18	-23.1	-24.2	19.1	0.00e+00	0	42	0	1423966208	6	4081
2026-01-10 10:28:01.77	41.94	23.18	-23.0	-24.0	19.2	0.00e+00	0	42	0	1430257664	6	4026
2026-01-10 10:28:02.78	41.66	23.17	-22.9	-23.7	19.4	0.00e+00	0	42	0	1435500544	6	3948
2026-01-10 10:28:03.78	41.39	23.16	-22.9	-23.7	19.4	0.00e+00	0	42	0	1440743424	6	3966
2026-01-10 10:28:04.79	41.11	23.16	-22.8	-23.6	19.5	0.00e+00	0	42	0	1447034880	6	3941
2026-01-10 10:28:05.79	40.83	23.15	-22.9	-23.8	19.4	0.00e+00	0	42	0	1452277760	6	3988
2026-01-10 10:28:06.80	40.55	23.14	-22.7	-23.4	19.6	0.00e+00	0	42	0	1457520640	6	3881
2026-01-10 10:28:07.81	40.28	23.13	-22.8	-23.6	19.5	0.00e+00	0	42	0	1463812096	6	3931
2026-01-10 10:28:08.82	40.00	23.12	-22.8	-23.6	19.5	0.00e+00	0	42	0	1469054976	6	3926
2026-01-10 10:28:09.83	39.72	23.11	-22.8	-23.6	19.4	0.00e+00	0	42	0	1475346432	6	3942
2026-01-10 10:28:10.83	39.44	23.10	-22.9	-23.8	19.3	0.00e+00	0	42	0	1480589312	6	3988
2026-01-10 10:28:11.83	39.17	23.08	-22.8	-23.4	19.5	0.00e+00	0	42	0	1485832192	6	3898
2026-01-10 10:28:12.83	38.89	23.07	-22.7	-23.3	19.6	0.00e+00	0	42	0	1492123648	6	3860
2026-01-10 10:28:13.84	38.62	23.06	-22.8	-23.6	19.4	0.00e+00	0	42	0	1497366528	6	3935
2026-01-10 10:28:14.84	38.34	23.04	-22.7	-23.4	19.5	0.00e+00	0	42	0	1503657984	6	3885
2026-01-10 10:28:15.85	38.07	23.03	-22.9	-23.6	19.4	0.00e+00	0	42	0	1508900864	6	3943
2026-01-10 10:28:16.86	37.79	23.01	-22.9	-23.7	19.4	0.00e+00	0	42	0	1515192320	6	3961
2026-01-10 10:28:17.86	37.52	22.99	-22.9	-23.7	19.4	0.00e+00	0	42	0	1520435200	6	3952
2026-01-10 10:28:18.87	37.24	22.98	-22.9	-23.7	19.4	0.00e+00	0	42	0	1525678080	6	3958
2026-01-10 10:28:19.88	36.97	22.96	-22.8	-23.6	19.4	0.00e+00	0	42	0	1531969536	6	3939
2026-01-10 10:28:20.88	36.69	22.94	-22.9	-23.8	19.3	0.00e+00	0	42	0	1537212416	6	3971
2026-01-10 10:28:21.89	36.42	22.92	-22.8	-23.4	19.5	0.00e+00	0	42	0	1542455296	6	3895
2026-01-10 10:28:22.90	36.14	22.90	-22.7	-23.4	19.5	0.00e+00	0	42	0	1548746752	6	3880
2026-01-10 10:28:23.91	35.87	22.88	-22.9	-23.7	19.4	0.00e+00	0	42	0	1553989632	6	3960
2026-01-10 10:28:24.92	35.60	22.86	-22.8	-23.6	19.4	0.00e+00	0	42	0	1560281088	6	3937
2026-01-10 10:28:25.93	35.32	22.84	-22.8	-23.6	19.4	0.00e+00	0	42	0	1565523968	6	3944
2026-01-10 10:28:26.94	35.05	22.81	-22.9	-23.8	19.3	0.00e+00	0	42	0	1570766848	6	3980
2026-01-10 10:28:27.94	34.78	22.79	-22.8	-23.5	19.5	0.00e+00	0	42	0	1577058304	6	3908
2026-01-10 10:28:28.94	34.51	22.76	-22.8	-23.5	19.5	0.00e+00	0	42	0	1582301184	6	3897
2026-01-10 10:28:29.95	34.24	22.74	-22.7	-23.3	19.6	0.00e+00	0	42	0	1588592640	6	3868
2026-01-10 10:28:30.96	33.97	22.71	-22.9	-23.7	19.3	0.00e+00	0	42	0	1593835520	6	3956
2026-01-10 10:28:31.97	33.70	22.69	-22.8	-23.6	19.4	0.00e+00	0	42	0	1600126976	6	3943
2026-01-10 10:28:32.97	33.43	22.66	-23.0	-23.9	19.2	0.00e+00	0	42	0	1605369856	6	4007
2026-01-10 10:28:33.97	33.16	22.63	-22.7	-23.4	19.5	0.00e+00	0	42	0	1610612736	6	3889
2026-01-10 10:28:34.98	32.89	22.61	-22.8	-23.6	19.4	0.00e+00	0	42	0	1616904192	6	3925
2026-01-10 10:28:35.99	32.62	22.58	-23.0	-24.0	19.2	0.00e+00	0	42	0	1622147072	6	4036
2026-01-10 10:28:36.99	32.36	22.55	-23.1	-24.1	19.1	0.00e+00	0	42	0	1627389952	6	4064
2026-01-10 10:28:38.00	32.09	22.52	-23.5	-24.5	18.8	0.00e+00	0	42	0	1633681408	7	4033
2026-01-10 10:28:39.01	31.82	22.49	-23.5	-24.6	18.7	0.00e+00	0	42	0	1638924288	7	4063
2026-01-10 10:28:40.01	31.56	22.46	-23.2	-24.0	19.0	0.00e+00	0	42	0	1645215744	7	3909
2026-01-10 10:28:41.02	31.29	22.42	-23.2	-23.9	19.1	0.00e+00	0	42	0	1650458624	7	3893
2026-01-10 10:28:42.02	31.03	22.39	-23.1	-23.6	19.2	0.00e+00	0	42	0	1655701504	7	3836
2026-01-10 10:28:43.03	30.77	22.36	-23.5	-24.6	18.8	0.00e+00	0	42	0	1661992960	7	4052
2026-01-10 10:28:44.04	30.50	22.32	-23.5	-24.5	18.8	0.00e+00	0	42	0	1667235840	7	4025
2026-01-10 10:28:45.05	30.24	22.29	-23.1	-23.7	19.2	0.00e+00	0	42	0	1673527296	7	3857
2026-01-10 10:28:46.05	29.98	22.25	-23.1	-23.6	19.3	0.00e+00	0	42	0	1678770176	7	3817
2026-01-10 10:28:47.06	29.71	22.22	-23.0	-23.5	19.3	0.00e+00	0	42	0	1684013056	7	3811
2026-01-10 10:28:48.07	29.45	22.18	-23.1	-23.6	19.3	0.00e+00	0	42	0	1690304512	7	3819
2026-01-10 10:28:49.06	29.20	22.15	-23.0	-23.4	19.3	0.00e+00	0	42	0	1695547392	7	3787
2026-01-10 10:28:50.07	28.94	22.11	-23.0	-23.4	19.3	0.00e+00	0	42	0	1701838848	7	3790
2026-01-10 10:28:51.08	28.68	22.07	-23.1	-23.6	19.2	0.00e+00	0	42	0	1707081728	7	3824
2026-01-10 10:28:52.07	28.42	22.03	-23.0	-23.5	19.3	0.00e+00	0	42	0	1712324608	7	3805
2026-01-10 10:28:53.08	28.16	21.99	-23.1	-23.7	19.2	0.00e+00	0	42	0	1718616064	7	3845
2026-01-10 10:28:54.09	27.90	21.95	-23.0	-23.4	19.3	0.00e+00	0	42	0	1723858944	7	3789
2026-01-10 10:28:55.09	27.65	21.91	-23.1	-23.6	19.2	0.00e+00	0	42	0	1729101824	7	3834
2026-01-10 10:28:56.10	27.39	21.87	-23.0	-23.5	19.3	0.00e+00	0	42	0	1735393280	7	3809
2026-01-10 10:28:57.11	27.14	21.83	-23.1	-23.6	19.2	0.00e+00	0	42	0	1740636160	7	3834
2026-01-10 10:28:58.11	26.88	21.79	-23.0	-23.4	19.3	0.00e+00	0	42	0	1746927616	7	3770
2026-01-10 10:28:59.12	26.63	21.75	-23.0	-23.6	19.2	0.00e+00	0	42	0	1752170496	7	3819
2026-01-10 10:29:00.13	26.37	21.71	-23.4	-24.2	19.0	0.00e+00	0	42	0	1758461952	7	3966
2026-01-10 10:29:01.14	26.12	21.66	-23.3	-24.0	19.0	0.00e+00	0	42	0	1763704832	7	3930
2026-01-10 10:29:02.15	25.87	21.62	-23.4	-24.3	18.9	0.00e+00	0	42	0	1768947712	7	3991
2026-01-10 10:29:03.13	25.62	21.57	-23.2	-23.9	19.1	0.00e+00	0	42	0	1775239168	7	3892
2026-01-10 10:29:04.14	25.37	21.53	-23.2	-23.9	19.1	0.00e+00	0	42	0	1780482048	7	3895
2026-01-10 10:29:05.14	25.13	21.48	-23.2	-23.9	19.0	0.00e+00	0	42	0	1786773504	7	3886
2026-01-10 10:29:06.15	24.88	21.44	-23.4	-24.3	18.8	0.00e+00	0	42	0	1792016384	7	3997
2026-01-10 10:29:07.16	24.63	21.39	-23.3	-24.1	18.9	0.00e+00	0	42	0	1797259264	7	3948
2026-01-10 10:29:08.17	24.38	21.34	-23.5	-24.4	18.7	0.00e+00	0	42	0	1803550720	7	4021
2026-01-10 10:29:09.16	24.14	21.30	-23.4	-24.3	18.8	0.00e+00	0	42	0	1808793600	7	4001
2026-01-10 10:29:10.17	23.89	21.25	-23.4	-24.3	18.8	0.00e+00	0	42	0	1814036480	7	3982
2026-01-10 10:29:11.17	23.65	21.20	-23.2	-23.9	19.0	0.00e+00	0	42	0	1820327936	7	3891
2026-01-10 10:29:12.18	23.40	21.15	-23.3	-24.0	18.9	0.00e+00	0	42	0	1825570816	7	3931
2026-01-10 10:29:13.18	23.16	21.10	-23.5	-24.5	18.7	0.00e+00	0	42	0	1831862272	7	4051
2026-01-10 10:29:14.19	22.92	21.05	-23.3	-24.1	18.9	0.00e+00	0	42	0	1837105152	7	3940
2026-01-10 10:29:15.19	22.68	21.01	-23.1	-23.8	19.1	0.00e+00	0	42	0	1842348032	7	3862
2026-01-10 10:29:16.19	22.44	20.96	-23.3	-24.0	19.0	0.00e+00	0	42	0	1848639488	7	3921
2026-01-10 10:29:17.20	22.20	20.90	-23.2	-23.8	19.1	0.00e+00	0	42	0	1853882368	7	3868
2026-01-10 10:29:18.21	21.96	20.85	-23.3	-24.1	18.9	0.00e+00	0	42	0	1860173824	7	3937
2026-01-10 10:29:19.22	21.72	20.80	-23.2	-23.9	19.0	0.00e+00	0	42	0	1865416704	7	3897
2026-01-10 10:29:20.22	21.48	20.75	-23.2	-23.9	19.0	0.00e+00	0	42	0	1870659584	7	3896
2026-01-10 10:29:21.23	21.24	20.70	-23.3	-24.0	18.9	0.00e+00	0	42	0	1876951040	7	3924
2026-01-10 10:29:22.23	21.01	20.64	-23.3	-24.0	18.9	0.00e+00	0	42	0	1882193920	7	3927
2026-01-10 10:29:23.23	20.77	20.59	-23.3	-24.1	18.9	0.00e+00	0	42	0	1887436800	7	3934
2026-01-10 10:29:24.24	20.54	20.54	-23.4	-24.3	18.8	0.00e+00	0	42	0	1893728256	7	3984
2026-01-10 10:29:25.24	20.31	20.48	-23.7	-25.0	18.4	0.00e+00	0	42	0	1898971136	7	4161
2026-01-10 10:29:26.25	20.07	20.43	-23.6	-24.8	18.5	0.00e+00	0	42	0	1905262592	7	4105
2026-01-10 10:29:27.25	19.84	20.37	-23.6	-24.7	18.6	0.00e+00	0	42	0	1910505472	7	4095
2026-01-10 10:29:28.26	19.61	20.32	-23.6	-24.8	18.5	0.00e+00	0	42	0	1916796928	7	4115
2026-01-10 10:29:29.26	19.38	20.26	-23.7	-24.8	18.5	0.00e+00	0	42	0	1922039808	7	4121
2026-01-10 10:29:30.27	19.15	20.21	-23.8	-25.1	18.4	0.00e+00	0	42	0	1927282688	7	4187
2026-01-10 10:29:31.28	18.92	20.15	-23.8	-25.2	18.3	0.00e+00	0	42	0	1933574144	7	4216
2026-01-10 10:29:32.28	18.70	20.09	-24.1	-25.3	18.1	0.00e+00	0	42	0	1938817024	8	4131
2026-01-10 10:29:33.29	18.47	20.04	-24.2	-25.4	18.0	0.00e+00	0	42	0	1945108480	8	4159
2026-01-10 10:29:34.30	18.24	19.98	-24.2	-25.5	17.9	0.00e+00	0	42	0	1950351360	8	4179
2026-01-10 10:29:35.30	18.02	19.92	-24.2	-25.5	17.9	0.00e+00	0	42	0	1955594240	8	4181
2026-01-10 10:29:36.31	17.79	19.86	-24.2	-25.5	18.0	0.00e+00	0	42	0	1961885696	8	4163
2026-01-10 10:29:37.32	17.57	19.80	-24.4	-25.4	17.7	0.00e+00	0	42	0	1967128576	9	4033
2026-01-10 10:29:38.33	17.34	19.74	-24.2	-24.9	17.9	0.00e+00	0	42	0	1973420032	9	3921
2026-01-10 10:29:39.33	17.12	19.69	-23.9	-24.3	18.3	0.00e+00	0	42	0	1978662912	9	3787
2026-01-10 10:29:40.33	16.90	19.63	-23.7	-24.4	18.5	0.00e+00	0	42	0	1983905792	8	3918
2026-01-10 10:29:41.34	16.68	19.57	-23.7	-24.4	18.5	0.00e+00	0	42	0	1990197248	8	3898
2026-01-10 10:29:42.34	16.47	19.51	-23.8	-24.7	18.4	0.00e+00	0	42	0	1995440128	8	3969
2026-01-10 10:29:43.35	16.25	19.45	-23.8	-24.6	18.3	0.00e+00	0	42	0	2001731584	8	3961
2026-01-10 10:29:44.35	16.03	19.39	-23.8	-24.6	18.3	0.00e+00	0	42	0	2006974464	8	3964
2026-01-10 10:29:45.36	15.81	19.33	-23.9	-24.9	18.2	0.00e+00	0	42	0	2012217344	8	4036
2026-01-10 10:29:46.36	15.60	19.27	-23.9	-24.9	18.2	0.00e+00	0	42	0	2018508800	8	4032
2026-01-10 10:29:47.37	15.38	19.20	-24.0	-25.0	18.1	0.00e+00	0	42	0	2023751680	8	4060
2026-01-10 10:29:48.37	15.17	19.14	-24.1	-25.3	17.9	0.00e+00	0	42	0	2028994560	8	4139
2026-01-10 10:29:49.37	14.96	19.08	-24.2	-25.5	17.9	0.00e+00	0	42	0	2035286016	8	4186
2026-01-10 10:29:50.38	14.75	19.02	-24.4	-26.0	17.6	0.00e+00	0	42	0	2040528896	8	4304
2026-01-10 10:29:51.39	14.54	18.96	-24.4	-25.9	17.7	0.00e+00	0	42	0	2046820352	8	4292
2026-01-10 10:29:52.40	14.32	18.89	-24.3	-25.3	17.7	0.00e+00	0	42	0	2052063232	9	4025
2026-01-10 10:29:53.40	14.12	18.83	-24.2	-25.1	17.8	0.00e+00	0	42	0	2058354688	9	3961
2026-01-10 10:29:54.41	13.91	18.77	-24.2	-25.0	17.9	0.00e+00	0	42	0	2063597568	9	3949
2026-01-10 10:29:55.41	13.70	18.70	-24.3	-25.1	17.8	0.00e+00	0	42	0	2068840448	9	3969
2026-01-10 10:29:56.42	13.49	18.64	-24.3	-25.1	17.8	0.00e+00	0	42	0	2075131904	9	3978
2026-01-10 10:29:57.43	13.29	18.58	-24.4	-25.3	17.7	0.00e+00	0	42	0	2080374784	9	4027
2026-01-10 10:29:58.43	13.08	18.51	-24.4	-25.4	17.6	0.00e+00	0	42	0	2085617664	9	4050
2026-01-10 10:29:59.44	12.88	18.45	-24.3	-25.2	17.7	0.00e+00	0	42	0	2091909120	9	3998
2026-01-10 10:30:00.44	12.68	18.39	-24.6	-25.8	17.4	0.00e+00	0	42	0	2097152000	9	4137
2026-01-10 10:30:01.45	12.47	18.32	-24.3	-25.2	17.7	0.00e+00	0	42	0	2103443456	9	4001
2026-01-10 10:30:02.46	12.27	18.26	-24.1	-24.8	18.0	0.00e+00	0	42	0	2108686336	9	3895
2026-01-10 10:30:03.47	12.07	18.19	-24.3	-25.2	17.7	0.00e+00	0	42	0	2113929216	9	4000
2026-01-10 10:30:04.48	11.87	18.12	-24.8	-26.4	17.1	0.00e+00	0	42	0	2120220672	9	4303
2026-01-10 10:30:05.48	11.67	18.06	-25.0	-26.1	17.0	0.00e+00	0	42	0	2125463552	10	4118
2026-01-10 10:30:06.49	11.47	17.99	-25.0	-26.1	17.1	0.00e+00	0	42	0	2131755008	10	4121
2026-01-10 10:30:07.50	11.27	17.93	-24.6	-25.3	17.4	0.00e+00	0	42	0	2136997888	10	3921
2026-01-10 10:30:08.51	11.08	17.86	-24.4	-25.0	17.7	0.00e+00	0	42	0	2143289344	10	3828
2026-01-10 10:30:09.51	10.88	17.80	-24.5	-25.1	17.5	0.00e+00	0	42	0	2148532224	10	3875
2026-01-10 10:30:10.52	10.69	17.73	-24.4	-24.9	17.6	0.00e+00	0	42	0	2153775104	10	3812
2026-01-10 10:30:11.53	10.49	17.66	-24.3	-25.1	17.8	0.00e+00	0	42	0	2160066560	9	3967
2026-01-10 10:30:12.53	10.30	17.60	-24.3	-25.3	17.7	0.00e+00	0	42	0	2165309440	9	4022
2026-01-10 10:30:13.54	10.11	17.53	-24.4	-25.4	17.7	0.00e+00	0	42	0	2170552320	9	4032
2026-01-10 10:30:14.54	9.92	17.46	-24.3	-25.1	17.8	0.00e+00	0	42	0	2176843776	9	3971
2026-01-10 10:30:15.55	9.73	17.40	-24.2	-25.1	17.8	0.00e+00	0	42	0	2182086656	9	3966
2026-01-10 10:30:16.55	9.54	17.33	-24.1	-24.8	18.0	0.00e+00	0	42	0	2188378112	9	3903
2026-01-10 10:30:17.56	9.35	17.26	-24.3	-25.2	17.8	0.00e+00	0	42	0	2193620992	9	3991
2026-01-10 10:30:18.57	9.16	17.19	-24.4	-25.4	17.6	0.00e+00	0	42	0	2198863872	9	4037
2026-01-10 10:30:19.57	8.98	17.13	-24.2	-25.0	17.8	0.00e+00	0	42	0	2205155328	9	3949
2026-01-10 10:30:20.58	8.79	17.06	-24.1	-24.8	18.0	0.00e+00	0	42	0	2210398208	9	3895
2026-01-10 10:30:21.59	8.60	16.99	-24.4	-25.4	17.6	0.00e+00	0	42	0	2216689664	9	4046
2026-01-10 10:30:22.60	8.42	16.92	-24.1	-24.8	17.9	0.00e+00	0	42	0	2221932544	9	3905
2026-01-10 10:30:23.61	8.24	16.85	-24.2	-25.0	17.8	0.00e+00	0	42	0	2228224000	9	3947
2026-01-10 10:30:24.61	8.05	16.79	-24.6	-25.9	17.4	0.00e+00	0	42	0	2233466880	9	4184
2026-01-10 10:30:25.62	7.87	16.72	-24.5	-25.5	17.5	0.00e+00	0	42	0	2238709760	9	4079
2026-01-10 10:30:26.63	7.69	16.65	-24.3	-25.2	17.7	0.00e+00	0	42	0	2245001216	9	4003
2026-01-10 10:30:27.63	7.51	16.58	-24.3	-25.2	17.7	0.00e+00	0	42	0	2250244096	9	3984
2026-01-10 10:30:28.64	7.33	16.51	-24.2	-24.9	17.8	0.00e+00	0	42	0	2256535552	9	3933
2026-01-10 10:30:29.65	7.15	16.44	-24.4	-25.3	17.6	0.00e+00	0	42	0	2261778432	9	4021
2026-01-10 10:30:30.65	6.98	16.38	-24.6	-25.8	17.4	0.00e+00	0	42	0	2267021312	9	4138
2026-01-10 10:30:31.66	6.80	16.31	-24.7	-26.2	17.2	0.00e+00	0	42	0	2273312768	9	4242
2026-01-10 10:30:32.67	6.62	16.24	-24.5	-25.6	17.5	0.00e+00	0	42	0	2278555648	9	4105
2026-01-10 10:30:33.67	6.45	16.17	-25.2	-26.7	16.9	0.00e+00	0	42	0	2283798528	10	4275
2026-01-10 10:30:34.68	6.27	16.10	-24.8	-25.7	17.4	0.00e+00	0	42	0	2290089984	10	4008
2026-01-10 10:30:35.68	6.10	16.03	-25.4	-27.1	16.5	0.00e+00	0	42	0	2295332864	10	4374
2026-01-10 10:30:36.69	5.93	15.96	-24.9	-25.6	17.1	0.00e+00	0	42	0	2301624320	11	3874
2026-01-10 10:30:37.69	5.76	15.89	-25.1	-26.4	16.9	0.00e+00	0	42	0	2306867200	10	4178
2026-01-10 10:30:38.70	5.58	15.82	-24.9	-25.9	17.3	0.00e+00	0	42	0	2313158656	10	4065
2026-01-10 10:30:39.70	5.42	15.75	-24.9	-25.9	17.3	0.00e+00	0	42	0	2318401536	10	4044
2026-01-10 10:30:40.71	5.25	15.68	-24.9	-26.0	17.2	0.00e+00	0	42	0	2323644416	10	4081
2026-01-10 10:30:41.71	5.08	15.61	-25.0	-26.1	17.0	0.00e+00	0	42	0	2329935872	10	4117
2026-01-10 10:30:42.72	4.91	15.54	-25.1	-26.3	17.1	0.00e+00	0	42	0	2335178752	10	4157
2026-01-10 10:30:43.73	4.74	15.47	-25.0	-26.3	17.1	0.00e+00	0	42	0	2340421632	10	4151
2026-01-10 10:30:44.74	4.57	15.40	-25.0	-26.1	17.2	0.00e+00	0	42	0	2346713088	10	4112
2026-01-10 10:30:45.74	4.41	15.34	-25.1	-26.5	17.0	0.00e+00	0	42	0	2351955968	10	4199
2026-01-10 10:30:46.74	4.25	15.27	-24.9	-25.9	17.4	0.00e+00	0	42	0	2358247424	10	4048
2026-01-10 10:30:47.74	4.08	15.20	-25.0	-26.1	17.3	0.00e+00	0	42	0	2363490304	10	4089
2026-01-10 10:30:48.75	3.92	15.13	-25.0	-26.3	17.1	0.00e+00	0	42	0	2368733184	10	4137
2026-01-10 10:30:49.76	3.76	15.06	-25.2	-26.7	17.0	0.00e+00	0	42	0	2375024640	10	4242
2026-01-10 10:30:50.77	3.60	14.99	-24.9	-26.0	17.4	0.00e+00	0	42	0	2380267520	10	4073
2026-01-10 10:30:51.77	3.44	14.92	-25.0	-26.3	17.1	0.00e+00	0	42	0	2386558976	10	4146
2026-01-10 10:30:52.78	3.27	14.85	-25.2	-26.6	17.1	0.00e+00	0	42	0	2391801856	10	4220
2026-01-10 10:30:53.79	3.12	14.78	-25.1	-26.5	17.1	0.00e+00	0	42	0	2397044736	10	4199
2026-01-10 10:30:54.79	2.96	14.71	-25.1	-26.5	17.0	0.00e+00	0	42	0	2403336192	10	4199
2026-01-10 10:30:55.80	2.80	14.64	-25.1	-26.4	17.0	0.00e+00	0	42	0	2408579072	10	4189
2026-01-10 10:30:56.81	2.64	14.57	-25.2	-26.6	17.0	0.00e+00	0	42	0	2414870528	10	4237
2026-01-10 10:30:57.81	2.49	14.50	-25.3	-26.8	16.9	0.00e+00	0	42	0	2420113408	10	4286
2026-01-10 10:30:58.82	2.33	14.43	-25.3	-26.9	16.7	0.00e+00	0	42	0	2425356288	10	4315
2026-01-10 10:30:59.82	2.18	14.36	-25.2	-26.7	16.8	0.00e+00	0	42	0	2431647744	10	4273
2026-01-10 10:31:00.83	2.02	14.29	-25.3	-26.9	16.7	0.00e+00	0	42	0	2436890624	10	4320
2026-01-10 10:31:01.83	1.87	14.22	-25.3	-26.9	16.6	0.00e+00	0	42	0	2442133504	10	4319
2026-01-10 10:31:02.84	1.72	14.15	-25.3	-26.9	16.8	0.00e+00	0	42	0	2448424960	10	4302
2026-01-10 10:31:03.85	1.56	14.08	-25.4	-27.1	16.7	0.00e+00	0	42	0	2453667840	10	4364
2026-01-10 10:31:04.85	1.41	14.01	-25.4	-26.6	16.8	0.00e+00	0	42	0	2459959296	11	4107
2026-01-10 10:31:05.86	1.26	13.94	-25.3	-26.4	16.8	0.00e+00	0	42	0	2465202176	11	4078
2026-01-10 10:31:06.86	1.12	13.87	-25.3	-26.4	16.8	0.00e+00	0	42	0	2471493632	11	4080
2026-01-10 10:31:07.87	0.97	13.80	-25.7	-27.2	16.4	0.00e+00	0	42	0	2476736512	11	4274
2026-01-10 10:31:08.88	0.82	13.73	-25.6	-27.0	16.6	0.00e+00	0	42	0	2481979392	11	4217
2026-01-10 10:31:09.88	0.67	13.66	-25.5	-26.7	16.7	0.00e+00	0	42	0	2488270848	11	4145
2026-01-10 10:31:10.89	0.52	13.59	-25.6	-26.9	16.6	0.00e+00	0	42	0	2493513728	11	4194
2026-01-10 10:31:11.90	0.38	13.52	-25.5	-26.8	16.6	0.00e+00	0	42	0	2499805184	11	4176
2026-01-10 10:31:12.90	0.23	13.45	-25.6	-26.9	16.4	0.00e+00	0	42	0	2505048064	11	4199
2026-01-10 10:31:13.91	0.09	13.38	-25.6	-27.0	16.4	0.00e+00	0	42	0	2510290944	11	4233
2026-01-10 10:31:14.92	359.94	13.31	-25.8	-27.4	16.1	0.00e+00	0	42	0	2516582400	11	4328
2026-01-10 10:31:15.92	359.80	13.24	-25.9	-27.7	15.9	0.00e+00	0	42	0	2521825280	11	4430
2026-01-10 10:31:16.93	359.66	13.17	-25.7	-27.3	16.2	0.00e+00	0	42	0	2527068160	11	4325
2026-01-10 10:31:17.93	359.52	13.10	-25.8	-27.4	16.1	0.00e+00	0	42	0	2533359616	11	4332
2026-01-10 10:31:18.94	359.38	13.03	-25.8	-27.4	16.0	0.00e+00	0	42	0	2538602496	11	4350
2026-01-10 10:31:19.95	359.23	12.96	-26.1	-27.7	15.5	0.00e+00	0	42	0	2544893952	12	4313
2026-01-10 10:31:20.95	359.10	12.89	-25.8	-26.9	16.0	0.00e+00	0	42	0	2550136832	12	4110
2026-01-10 10:31:21.96	358.96	12.82	-25.8	-27.0	16.0	0.00e+00	0	42	0	2556428288	12	4110
2026-01-10 10:31:22.97	358.82	12.75	-26.3	-28.0	15.4	0.00e+00	0	42	0	2561671168	12	4381
2026-01-10 10:31:23.98	358.68	12.68	-26.0	-27.4	15.6	0.00e+00	0	42	0	2566914048	12	4242
2026-01-10 10:31:24.99	358.54	12.61	-25.7	-26.7	16.0	0.00e+00	0	42	0	2573205504	12	4057
2026-01-10 10:31:26.00	358.40	12.54	-25.6	-26.6	16.0	0.00e+00	0	42	0	2578448384	12	4036
2026-01-10 10:31:27.01	358.27	12.47	-25.7	-26.8	16.0	0.00e+00	0	42	0	2584739840	12	4076
2026-01-10 10:31:28.02	358.13	12.40	-25.9	-27.1	15.8	0.00e+00	0	42	0	2589982720	12	4167
2026-01-10 10:31:29.03	358.00	12.33	-25.9	-27.2	15.8	0.00e+00	0	42	0	2595225600	12	4168
2026-01-10 10:31:30.03	357.86	12.26	-25.9	-27.2	15.7	0.00e+00	0	42	0	2601517056	12	4191
2026-01-10 10:31:31.04	357.73	12.19	-26.1	-27.7	15.4	3.40e-06	0	42	0	2606759936	12	4313
2026-01-10 10:31:32.04	357.60	12.12	-26.6	-28.1	15.0	0.00e+00	0	42	0	2612002816	13	4325
2026-01-10 10:31:33.04	357.47	12.05	-26.1	-27.1	15.4	0.00e+00	0	42	0	2618294272	13	4050
2026-01-10 10:31:34.05	357.34	11.98	-25.8	-26.5	15.8	0.00e+00	0	42	0	2623537152	13	3900
2026-01-10 10:31:35.05	357.21	11.91	-25.7	-26.9	15.9	0.00e+00	0	42	0	2629828608	12	4092
2026-01-10 10:31:36.06	357.08	11.84	-26.2	-27.8	15.5	0.00e+00	0	42	0	2635071488	12	4349
2026-01-10 10:31:37.07	356.95	11.77	-26.0	-27.5	15.5	0.00e+00	0	42	0	2641362944	12	4261
2026-01-10 10:31:38.07	356.82	11.70	-26.4	-28.3	15.1	0.00e+00	0	42	0	2646605824	12	4490
2026-01-10 10:31:39.08	356.69	11.64	-25.9	-26.8	15.7	0.00e+00	0	42	0	2651848704	13	3966
2026-01-10 10:31:40.09	356.56	11.57	-25.9	-26.6	15.7	0.00e+00	0	42	0	2658140160	13	3936
2026-01-10 10:31:41.09	356.44	11.50	-26.1	-27.2	15.4	0.00e+00	0	42	0	2663383040	13	4067
2026-01-10 10:31:42.09	356.31	11.43	-25.9	-26.8	15.6	0.00e+00	0	42	0	2669674496	13	3963
2026-01-10 10:31:43.10	356.18	11.36	-26.4	-27.7	15.1	0.00e+00	0	42	0	2674917376	13	4216
2026-01-10 10:31:44.11	356.06	11.29	-26.8	-28.6	14.6	0.00e+00	0	42	0	2680160256	13	4461
2026-01-10 10:31:45.11	355.94	11.22	-26.2	-27.5	15.3	0.00e+00	0	42	0	2686451712	13	4143
2026-01-10 10:31:46.11	355.81	11.15	-26.3	-27.7	15.1	0.00e+00	0	42	0	2691694592	13	4209
2026-01-10 10:31:47.12	355.69	11.09	-26.5	-28.1	14.8	0.00e+00	0	42	0	2696937472	13	4332
2026-01-10 10:31:48.12	355.57	11.02	-26.3	-27.6	15.1	0.00e+00	0	42	0	2703228928	13	4183
2026-01-10 10:31:49.13	355.44	10.95	-26.5	-28.1	14.8	0.00e+00	0	42	0	2708471808	13	4329
2026-01-10 10:31:50.13	355.32	10.88	-26.4	-27.7	15.1	0.00e+00	0	42	0	2714763264	13	4221
2026-01-10 10:31:51.14	355.20	10.81	-26.4	-27.8	15.0	0.00e+00	0	42	0	2720006144	13	4246
2026-01-10 10:31:52.14	355.08	10.74	-26.8	-28.6	14.6	1.10e-06	0	42	0	2726297600	13	4465
2026-01-10 10:31:53.15	354.96	10.68	-26.7	-28.5	14.6	1.10e-06	0	42	0	2731540480	13	4434
2026-01-10 10:31:54.16	354.84	10.61	-26.8	-28.8	14.5	0.00e+00	0	42	0	2736783360	13	4503
2026-01-10 10:31:55.17	354.72	10.54	-26.8	-28.8	14.4	0.00e+00	0	42	0	2743074816	13	4532
2026-01-10 10:31:56.17	354.61	10.47	-26.7	-28.5	14.6	1.10e-06	0	42	0	2748317696	13	4422
2026-01-10 10:31:57.18	354.49	10.40	-26.6	-28.3	14.7	1.10e-06	0	42	0	2753560576	13	4381
2026-01-10 10:31:58.19	354.37	10.34	-26.6	-28.2	14.7	0.00e+00	0	42	0	2759852032	13	4357
2026-01-10 10:31:59.20	354.25	10.27	-26.7	-28.5	14.6	1.10e-06	0	42	0	2765094912	13	4420
2026-01-10 10:32:00.21	354.14	10.20	-26.6	-28.4	14.6	4.50e-06	0	42	0	2771386368	13	4410
2026-01-10 10:32:01.20	354.03	10.13	-26.5	-28.2	14.7	0.00e+00	0	42	0	2776629248	13	4342
2026-01-10 10:32:02.21	353.91	10.06	-26.4	-27.9	14.8	0.00e+00	0	42	0	2781872128	13	4277
2026-01-10 10:32:03.21	353.80	10.00	-26.7	-28.5	14.5	2.20e-06	0	42	0	2788163584	13	4429
2026-01-10 10:32:04.22	353.68	9.93	-26.4	-27.9	14.7	1.10e-06	0	42	0	2793406464	13	4280
2026-01-10 10:32:05.23	353.57	9.86	-26.5	-28.1	14.7	2.20e-06	0	42	0	2799697920	13	4330
2026-01-10 10:32:06.24	353.46	9.79	-26.5	-28.0	14.8	1.10e-06	0	42	0	2804940800	13	4305
2026-01-10 10:32:07.24	353.34	9.73	-26.6	-28.3	14.6	0.00e+00	0	42	0	2811232256	13	4367
2026-01-10 10:32:08.25	353.23	9.66	-26.5	-28.2	14.6	1.10e-06	0	42	0	2816475136	13	4349
2026-01-10 10:32:09.26	353.12	9.59	-27.0	-28.6	14.1	0.00e+00	0	42	0	2821718016	14	4365
2026-01-10 10:32:10.26	353.01	9.53	-26.9	-28.4	14.3	4.50e-06	0	42	0	2828009472	14	4301
2026-01-10 10:32:11.27	352.90	9.46	-27.4	-29.7	13.6	4.50e-06	0	42	0	2833252352	14	4666
2026-01-10 10:32:12.27	352.79	9.39	-27.2	-29.3	13.9	6.80e-06	0	42	0	2838495232	14	4545
2026-01-10 10:32:13.28	352.68	9.33	-27.4	-29.7	13.6	1.60e-05	0	42	0	2844786688	14	4692
2026-01-10 10:32:14.28	352.58	9.26	-27.2	-29.3	13.9	3.40e-06	0	42	0	2850029568	14	4548
2026-01-10 10:32:15.28	352.47	9.19	-27.4	-29.6	13.6	1.37e-05	0	42	0	2855272448	14	4635
2026-01-10 10:32:16.29	352.36	9.13	-27.5	-29.4	13.4	3.20e-05	0	42	0	2861563904	15	4467
2026-01-10 10:32:17.30	352.25	9.06	-27.1	-28.5	13.9	1.14e-05	0	42	0	2866806784	15	4230
2026-01-10 10:32:18.30	352.15	8.99	-27.2	-28.6	13.9	4.50e-06	0	42	0	2873098240	15	4238
2026-01-10 10:32:19.31	352.04	8.93	-27.1	-28.3	14.1	3.40e-06	0	42	0	2878341120	15	4164
2026-01-10 10:32:20.32	351.94	8.86	-26.9	-28.0	14.2	6.80e-06	0	42	0	2884632576	15	4081
2026-01-10 10:32:21.32	351.83	8.80	-26.9	-28.0	14.2	3.40e-06	0	42	0	2889875456	15	4079
2026-01-10 10:32:22.33	351.73	8.73	-26.9	-28.5	14.2	2.20e-06	0	42	0	2895118336	14	4325
2026-01-10 10:32:23.33	351.62	8.66	-26.7	-28.1	14.3	2.20e-06	0	42	0	2901409792	14	4228
2026-01-10 10:32:24.33	351.52	8.60	-26.6	-28.0	14.4	0.00e+00	0	42	0	2906652672	14	4183
2026-01-10 10:32:25.33	351.42	8.53	-26.7	-28.1	14.3	1.10e-06	0	42	0	2911895552	14	4236
2026-01-10 10:32:26.33	351.32	8.47	-26.8	-28.3	14.2	3.40e-06	0	42	0	2918187008	14	4275
2026-01-10 10:32:27.34	351.22	8.40	-26.6	-27.9	14.5	2.20e-06	0	42	0	2923429888	14	4176
2026-01-10 10:32:28.35	351.11	8.34	-26.7	-28.1	14.3	1.10e-06	0	42	0	2929721344	14	4234
2026-01-10 10:32:29.35	351.01	8.27	-26.6	-27.9	14.4	0.00e+00	0	42	0	2934964224	14	4178
2026-01-10 10:32:30.35	350.91	8.21	-26.7	-28.0	14.3	2.20e-06	0	42	0	2940207104	14	4201
2026-01-10 10:32:31.36	350.81	8.14	-26.9	-28.5	14.0	2.20e-06	0	42	0	2946498560	14	4341
2026-01-10 10:32:32.37	350.71	8.07	-27.0	-28.7	13.9	9.10e-06	0	42	0	2951741440	14	4384
2026-01-10 10:32:33.38	350.61	8.01	-26.7	-28.2	14.1	1.10e-06	0	42	0	2958032896	14	4256
2026-01-10 10:32:34.38	350.52	7.94	-26.9	-28.6	13.9	6.80e-06	0	42	0	2963275776	14	4370
2026-01-10 10:32:35.38	350.42	7.88	-26.9	-28.5	13.9	5.70e-06	0	42	0	2968518656	14	4352
2026-01-10 10:32:36.40	350.32	7.81	-26.8	-28.4	14.0	1.10e-06	0	42	0	2974810112	14	4320
2026-01-10 10:32:37.40	350.22	7.75	-27.0	-28.8	13.8	3.40e-06	0	42	0	2980052992	14	4427
2026-01-10 10:32:38.41	350.12	7.68	-27.0	-28.8	13.7	1.25e-05	0	42	0	2986344448	14	4443
2026-01-10 10:32:39.42	350.03	7.62	-27.2	-29.2	13.5	1.14e-05	0	42	0	2991587328	14	4550
2026-01-10 10:32:40.42	349.93	7.56	-27.3	-29.5	13.3	3.31e-05	0	42	0	2996830208	14	4652
2026-01-10 10:32:41.43	349.84	7.49	-27.0	-28.8	13.8	1.37e-05	0	42	0	3003121664	14	4426
2026-01-10 10:32:42.43	349.74	7.43	-27.0	-28.8	13.7	8.00e-06	0	42	0	3008364544	14	4422
2026-01-10 10:32:43.44	349.65	7.36	-27.0	-28.8	13.8	3.40e-06	0	42	0	3014656000	14	4423
2026-01-10 10:32:44.45	349.55	7.30	-26.8	-28.3	14.1	3.40e-06	0	42	0	3019898880	14	4288
2026-01-10 10:32:45.46	349.46	7.23	-26.9	-28.6	13.9	2.20e-06	0	42	0	3025141760	14	4371
2026-01-10 10:32:46.46	349.37	7.17	-27.0	-28.7	13.8	6.80e-06	0	42	0	3031433216	14	4409
2026-01-10 10:32:47.47	349.27	7.11	-27.0	-28.8	13.7	5.70e-06	0	42	0	3036676096	14	4433
2026-01-10 10:32:48.47	349.18	7.04	-30.8	-35.3	7.8	3.31e-05	0	42	0	3042967552	21	6064
2026-01-10 10:32:49.48	349.09	6.98	-32.9	-43.9	3.8	8.44e-01	0	42	104	3042967552	25	12849

#Closed at: 2026-01-10 10:32:50
#Recorded file [3042 MB]: D:/data/31010_260110_132342.dat