passes_logs/2026/01/10/R2M6_AANII_01/R2M6_AANII_01__20260110_080405_NOAA_20_JPSS-1_rec.log

#Pass ID: 20260110_080405_NOAA 20 (JPSS-1)
#Satellite: NOAA 20 (JPSS-1)
#Configuration: NOAA 20
#almurnet v.1.7.20240730
#Start time: 2026-01-10 08:04:06

#Version: 2.2.20231116
#Station: R2M6_AANII_01
#Location: 30.233357 lon 59.946436 lat
#TLE: 1 43013U 17073A   26009.26828276  .00000112  00000+0  74203-4 0  9990
#TLE: 2 43013  98.7631 310.2683 0001700  47.4387 312.6933 14.19534764421920

#Time	Az	El	Level	Level2	SNR	BER	BlckErr	Temp	State	Recorded	gain1	gain2
2026-01-10 08:04:06.17	90.14	7.06	-31.7	-40.2	4.3	1.40e+00	0	39	0	0	24	9565
2026-01-10 08:04:07.16	90.03	7.12	-31.4	-38.1	4.8	1.25e+00	0	39	104	0	23	7803
2026-01-10 08:04:08.16	89.92	7.18	-31.4	-38.0	7.0	1.57e-01	0	39	0	0	23	7683
2026-01-10 08:04:09.16	89.82	7.24	-31.3	-37.8	7.2	1.32e-01	0	39	0	1048576	23	7569
2026-01-10 08:04:10.16	89.71	7.30	-31.5	-38.5	6.7	1.39e-01	0	40	0	3145728	23	8077
2026-01-10 08:04:11.16	89.60	7.36	-31.5	-38.4	6.8	1.92e-01	0	39	0	5242880	23	8034
2026-01-10 08:04:12.16	89.50	7.42	-31.4	-38.1	7.0	1.93e-01	0	40	0	7340032	23	7773
2026-01-10 08:04:13.16	89.39	7.48	-31.2	-36.8	8.1	8.84e-02	0	40	0	8388608	23	6854
2026-01-10 08:04:14.15	89.28	7.53	-31.2	-36.7	8.2	6.52e-02	0	39	0	10485760	23	6807
2026-01-10 08:04:15.16	89.17	7.59	-31.0	-35.9	8.8	2.85e-02	0	40	0	12582912	23	6335
2026-01-10 08:04:16.16	89.06	7.65	-30.8	-35.2	9.4	1.88e-02	0	40	0	14680064	23	5956
2026-01-10 08:04:17.16	88.95	7.71	-30.8	-35.4	9.7	1.30e-02	0	40	0	16777216	22	6166
2026-01-10 08:04:18.16	88.84	7.77	-30.9	-36.0	9.3	1.78e-02	0	40	0	17825792	22	6481
2026-01-10 08:04:19.17	88.73	7.83	-30.9	-35.8	9.4	1.48e-02	0	40	0	19922944	22	6344
2026-01-10 08:04:20.17	88.62	7.89	-30.7	-35.2	9.8	1.03e-02	0	40	0	22020096	22	6056
2026-01-10 08:04:21.17	88.51	7.95	-30.7	-35.3	9.8	9.79e-03	0	40	0	24117248	22	6063
2026-01-10 08:04:22.17	88.39	8.01	-30.7	-35.3	9.8	8.17e-03	0	40	0	26214400	22	6068
2026-01-10 08:04:23.17	88.28	8.07	-30.8	-35.4	9.7	1.12e-02	0	40	0	27262976	22	6157
2026-01-10 08:04:24.17	88.17	8.13	-30.8	-35.5	9.7	1.11e-02	0	40	0	29360128	22	6193
2026-01-10 08:04:25.17	88.05	8.19	-30.8	-35.5	9.8	1.57e-02	0	40	0	31457280	22	6163
2026-01-10 08:04:26.17	87.94	8.25	-30.7	-35.2	10.0	1.21e-02	0	40	0	33554432	22	5995
2026-01-10 08:04:27.17	87.83	8.31	-30.6	-34.7	10.5	5.26e-03	0	40	0	34603008	22	5756
2026-01-10 08:04:28.17	87.71	8.37	-30.6	-34.7	10.4	4.94e-03	0	40	0	36700160	22	5750
2026-01-10 08:04:29.17	87.59	8.43	-30.5	-34.4	10.6	3.59e-03	0	40	0	38797312	22	5623
2026-01-10 08:04:30.17	87.48	8.49	-30.6	-34.5	10.5	3.50e-03	0	40	0	40894464	22	5699
2026-01-10 08:04:31.17	87.36	8.55	-30.6	-34.7	10.4	4.39e-03	0	40	0	42991616	22	5773
2026-01-10 08:04:32.18	87.24	8.61	-30.7	-35.1	10.1	6.16e-03	0	40	0	45088768	22	5972
2026-01-10 08:04:33.18	87.13	8.67	-30.7	-34.9	10.2	6.62e-03	0	40	0	46137344	22	5887
2026-01-10 08:04:34.18	87.01	8.73	-30.7	-35.1	10.1	7.08e-03	0	40	0	48234496	22	5957
2026-01-10 08:04:35.18	86.89	8.79	-31.0	-35.9	9.5	6.44e-03	0	40	0	50331648	22	6372
2026-01-10 08:04:36.18	86.77	8.85	-30.8	-35.2	10.0	7.39e-03	0	40	0	52428800	22	6027
2026-01-10 08:04:37.18	86.65	8.91	-30.7	-35.0	10.2	6.34e-03	0	40	0	53477376	22	5913
2026-01-10 08:04:38.19	86.53	8.97	-30.8	-35.5	9.9	6.19e-03	0	40	0	55574528	22	6128
2026-01-10 08:04:39.19	86.41	9.03	-30.8	-35.4	9.9	7.27e-03	0	40	0	57671680	22	6075
2026-01-10 08:04:40.19	86.29	9.09	-30.6	-34.6	10.5	4.58e-03	0	40	0	59768832	22	5709
2026-01-10 08:04:41.19	86.17	9.15	-30.6	-34.7	10.5	3.60e-03	0	40	0	61865984	22	5727
2026-01-10 08:04:42.19	86.04	9.21	-30.5	-34.1	11.0	2.39e-03	0	40	0	62914560	22	5483
2026-01-10 08:04:43.19	85.92	9.27	-30.5	-34.1	11.0	1.48e-03	0	40	0	65011712	22	5479
2026-01-10 08:04:44.19	85.80	9.34	-30.6	-34.4	10.8	2.74e-03	0	40	0	67108864	22	5616
2026-01-10 08:04:45.19	85.67	9.40	-30.4	-33.9	11.2	1.76e-03	0	40	0	69206016	22	5376
2026-01-10 08:04:46.19	85.55	9.46	-30.4	-33.9	11.2	1.76e-03	0	41	0	71303168	22	5360
2026-01-10 08:04:47.19	85.43	9.52	-30.4	-33.9	11.2	1.32e-03	0	41	0	72351744	22	5362
2026-01-10 08:04:48.19	85.30	9.58	-30.4	-33.8	11.3	1.23e-03	0	41	0	74448896	22	5309
2026-01-10 08:04:49.19	85.18	9.64	-30.4	-33.7	11.3	1.69e-03	0	41	0	76546048	22	5304
2026-01-10 08:04:50.19	85.05	9.70	-30.3	-33.6	11.4	8.28e-04	0	40	0	78643200	22	5244
2026-01-10 08:04:51.18	84.92	9.76	-30.3	-33.5	11.5	9.36e-04	0	41	0	79691776	22	5209
2026-01-10 08:04:52.19	84.79	9.82	-30.4	-34.2	11.3	8.39e-04	0	41	0	81788928	21	5600
2026-01-10 08:04:53.19	84.67	9.88	-30.5	-34.5	11.1	1.51e-03	0	41	0	83886080	21	5740
2026-01-10 08:04:54.20	84.54	9.94	-30.4	-34.4	11.2	1.60e-03	0	41	0	85983232	21	5685
2026-01-10 08:04:55.19	84.41	10.00	-30.6	-35.0	10.8	1.71e-03	0	41	0	88080384	21	5955
2026-01-10 08:04:56.20	84.28	10.06	-30.5	-34.7	11.0	1.73e-03	0	41	0	89128960	21	5804
2026-01-10 08:04:57.20	84.15	10.12	-30.8	-35.1	10.3	7.74e-03	0	41	0	91226112	22	5938
2026-01-10 08:04:58.19	84.02	10.18	-30.6	-34.3	11.0	2.40e-03	0	41	0	93323264	22	5535
2026-01-10 08:04:59.20	83.89	10.24	-30.5	-34.1	11.1	3.78e-03	0	41	0	95420416	22	5445
2026-01-10 08:05:00.20	83.75	10.30	-30.6	-34.3	10.9	1.62e-03	0	41	0	97517568	22	5547
2026-01-10 08:05:01.19	83.62	10.36	-30.5	-34.0	11.2	1.45e-03	0	41	0	98566144	22	5400
2026-01-10 08:05:02.19	83.49	10.42	-30.6	-34.2	11.1	1.48e-03	0	41	0	100663296	22	5501
2026-01-10 08:05:03.20	83.36	10.48	-30.5	-34.2	11.1	1.86e-03	0	41	0	102760448	22	5479
2026-01-10 08:05:04.20	83.22	10.54	-30.5	-34.0	11.2	1.53e-03	0	41	0	104857600	22	5415
2026-01-10 08:05:05.21	83.09	10.61	-30.5	-34.0	11.3	1.22e-03	0	41	0	106954752	22	5382
2026-01-10 08:05:06.21	82.95	10.67	-30.4	-33.8	11.4	1.17e-03	0	41	0	108003328	22	5316
2026-01-10 08:05:07.21	82.82	10.73	-30.5	-34.0	11.2	8.76e-04	0	41	0	110100480	22	5405
2026-01-10 08:05:08.21	82.68	10.79	-30.5	-34.0	11.2	1.27e-03	0	41	0	112197632	22	5416
2026-01-10 08:05:09.22	82.54	10.85	-30.4	-33.8	11.4	9.47e-04	0	41	0	114294784	22	5317
2026-01-10 08:05:10.22	82.40	10.91	-30.3	-33.4	11.7	7.62e-04	0	41	0	115343360	22	5155
2026-01-10 08:05:11.22	82.27	10.97	-30.4	-33.7	11.6	6.29e-04	0	41	0	117440512	22	5245
2026-01-10 08:05:12.21	82.13	11.03	-30.3	-33.4	11.7	7.67e-04	0	41	0	119537664	22	5143
2026-01-10 08:05:13.21	81.99	11.09	-30.5	-34.1	11.2	6.43e-04	0	41	0	121634816	22	5418
2026-01-10 08:05:14.20	81.85	11.15	-30.3	-33.5	11.7	1.32e-03	0	41	0	123731968	22	5166
2026-01-10 08:05:15.21	81.71	11.21	-30.4	-33.8	11.5	8.25e-04	0	41	0	124780544	22	5297
2026-01-10 08:05:16.22	81.57	11.27	-30.4	-33.5	11.7	4.97e-04	0	41	0	126877696	22	5184
2026-01-10 08:05:17.22	81.43	11.33	-30.4	-33.6	11.7	6.19e-04	0	41	0	128974848	22	5208
2026-01-10 08:05:18.22	81.28	11.39	-30.4	-33.6	11.6	5.92e-04	0	41	0	131072000	22	5202
2026-01-10 08:05:19.22	81.14	11.45	-30.4	-33.8	11.4	9.32e-04	0	41	0	133169152	22	5321
2026-01-10 08:05:20.22	81.00	11.51	-30.4	-33.8	11.5	8.03e-04	0	41	0	134217728	22	5312
2026-01-10 08:05:21.22	80.85	11.57	-30.4	-33.7	11.5	7.35e-04	0	41	0	136314880	22	5270
2026-01-10 08:05:22.21	80.71	11.63	-30.5	-34.0	11.3	9.36e-04	0	41	0	138412032	22	5396
2026-01-10 08:05:23.22	80.56	11.69	-30.5	-34.0	11.3	1.12e-03	0	41	0	140509184	22	5382
2026-01-10 08:05:24.23	80.42	11.75	-30.6	-34.5	11.1	1.87e-03	0	41	0	142606336	22	5587
2026-01-10 08:05:25.23	80.27	11.81	-30.7	-34.5	11.0	1.59e-03	0	41	0	143654912	22	5608
2026-01-10 08:05:26.23	80.12	11.87	-30.6	-34.4	11.1	1.80e-03	0	41	0	145752064	22	5550
2026-01-10 08:05:27.23	79.98	11.93	-30.7	-34.8	10.8	2.42e-03	0	41	0	147849216	22	5722
2026-01-10 08:05:28.23	79.83	11.99	-30.7	-34.6	10.9	2.14e-03	0	41	0	149946368	22	5642
2026-01-10 08:05:29.22	79.68	12.05	-30.7	-34.6	11.0	3.04e-03	0	41	0	152043520	22	5642
2026-01-10 08:05:30.22	79.53	12.11	-30.9	-35.4	10.3	3.55e-03	0	41	0	153092096	22	6014
2026-01-10 08:05:31.22	79.38	12.17	-30.8	-35.0	10.7	3.22e-03	0	41	0	155189248	22	5829
2026-01-10 08:05:32.22	79.23	12.23	-30.7	-34.5	11.0	2.00e-03	0	41	0	157286400	22	5620
2026-01-10 08:05:33.23	79.08	12.29	-30.8	-34.8	10.8	2.00e-03	0	41	0	159383552	22	5736
2026-01-10 08:05:34.23	78.93	12.35	-30.9	-35.1	10.6	3.27e-03	0	41	0	160432128	22	5867
2026-01-10 08:05:35.23	78.78	12.41	-30.7	-34.6	10.9	2.36e-03	0	41	0	162529280	22	5651
2026-01-10 08:05:36.23	78.62	12.47	-30.6	-34.2	11.2	1.55e-03	0	41	0	164626432	22	5468
2026-01-10 08:05:37.23	78.47	12.53	-30.6	-34.3	11.2	1.23e-03	0	41	0	166723584	22	5502
2026-01-10 08:05:38.23	78.31	12.59	-30.6	-34.3	11.2	1.24e-03	0	41	0	168820736	22	5498
2026-01-10 08:05:39.23	78.16	12.65	-30.7	-34.6	11.0	1.83e-03	0	41	0	169869312	22	5630
2026-01-10 08:05:40.23	78.00	12.71	-30.8	-34.9	10.8	2.46e-03	0	41	0	171966464	22	5761
2026-01-10 08:05:41.23	77.85	12.77	-30.7	-34.6	11.0	2.21e-03	0	41	0	174063616	22	5650
2026-01-10 08:05:42.23	77.69	12.83	-30.7	-34.7	11.0	2.03e-03	0	41	0	176160768	22	5658
2026-01-10 08:05:43.23	77.53	12.89	-30.8	-34.7	11.0	1.71e-03	0	41	0	178257920	22	5666
2026-01-10 08:05:44.23	77.37	12.95	-30.9	-35.0	10.8	4.36e-03	0	41	0	179306496	22	5804
2026-01-10 08:05:45.23	77.22	13.01	-30.8	-34.8	10.9	2.04e-03	0	41	0	181403648	22	5731
2026-01-10 08:05:46.23	77.06	13.06	-30.8	-35.0	10.8	2.52e-03	0	41	0	183500800	22	5795
2026-01-10 08:05:47.23	76.90	13.12	-30.7	-34.6	11.0	2.33e-03	0	41	0	185597952	22	5611
2026-01-10 08:05:48.23	76.74	13.18	-30.6	-34.3	11.3	1.44e-03	0	41	0	186646528	22	5470
2026-01-10 08:05:49.23	76.57	13.24	-30.6	-34.3	11.2	9.69e-04	0	41	0	188743680	22	5496
2026-01-10 08:05:50.24	76.41	13.30	-30.5	-33.9	11.6	6.84e-04	0	41	0	190840832	22	5310
2026-01-10 08:05:51.23	76.25	13.36	-30.4	-33.6	11.7	8.46e-04	0	41	0	192937984	22	5202
2026-01-10 08:05:52.24	76.08	13.42	-30.4	-33.6	11.8	6.05e-04	0	41	0	195035136	22	5176
2026-01-10 08:05:53.24	75.92	13.48	-30.2	-33.5	12.2	2.64e-04	0	41	0	196083712	21	5266
2026-01-10 08:05:54.25	75.75	13.53	-30.3	-33.8	12.0	3.54e-04	0	41	0	198180864	21	5366
2026-01-10 08:05:55.24	75.59	13.59	-30.3	-33.7	12.1	2.96e-04	0	41	0	200278016	21	5336
2026-01-10 08:05:56.24	75.43	13.65	-30.3	-33.6	12.1	3.00e-04	0	41	0	202375168	21	5304
2026-01-10 08:05:57.25	75.26	13.71	-30.2	-33.3	12.3	2.05e-04	0	41	0	204472320	21	5173
2026-01-10 08:05:58.25	75.09	13.77	-30.1	-33.2	12.4	1.44e-04	0	41	0	205520896	21	5142
2026-01-10 08:05:59.25	74.92	13.82	-30.1	-33.2	12.4	1.27e-04	0	41	0	207618048	21	5128
2026-01-10 08:06:00.26	74.75	13.88	-30.2	-33.4	12.3	1.45e-04	0	41	0	209715200	21	5185
2026-01-10 08:06:01.25	74.58	13.94	-30.1	-33.2	12.5	1.62e-04	0	41	0	211812352	21	5120
2026-01-10 08:06:02.26	74.41	14.00	-30.1	-33.2	12.4	1.26e-04	0	41	0	213909504	21	5127
2026-01-10 08:06:03.26	74.24	14.05	-30.2	-33.4	12.3	1.40e-04	0	41	0	214958080	21	5192
2026-01-10 08:06:04.26	74.07	14.11	-30.3	-33.6	12.2	2.21e-04	0	41	0	217055232	21	5286
2026-01-10 08:06:05.26	73.90	14.17	-30.2	-33.3	12.4	1.81e-04	0	41	0	219152384	21	5148
2026-01-10 08:06:06.26	73.73	14.23	-30.4	-33.9	11.9	2.65e-04	0	41	0	221249536	21	5425
2026-01-10 08:06:07.26	73.55	14.28	-30.4	-34.0	11.9	4.55e-04	0	41	0	222298112	21	5457
2026-01-10 08:06:08.26	73.38	14.34	-30.3	-33.6	12.1	3.17e-04	0	41	0	224395264	21	5290
2026-01-10 08:06:09.26	73.20	14.40	-30.2	-33.3	12.3	2.01e-04	0	41	0	226492416	21	5176
2026-01-10 08:06:10.26	73.03	14.45	-30.2	-33.4	12.3	1.88e-04	0	42	0	228589568	21	5215
2026-01-10 08:06:11.26	72.85	14.51	-30.2	-33.4	12.4	1.39e-04	0	41	0	230686720	21	5186
2026-01-10 08:06:12.26	72.68	14.56	-30.3	-33.6	12.2	1.64e-04	0	41	0	231735296	21	5295
2026-01-10 08:06:13.26	72.50	14.62	-30.4	-34.0	12.0	4.53e-04	0	41	0	233832448	21	5425
2026-01-10 08:06:14.27	72.32	14.68	-30.2	-33.3	12.4	1.99e-04	0	41	0	235929600	21	5157
2026-01-10 08:06:15.27	72.14	14.73	-29.9	-32.5	12.9	7.78e-05	0	41	0	238026752	21	4857
2026-01-10 08:06:16.27	71.96	14.79	-29.7	-32.6	13.3	3.66e-05	0	41	0	240123904	20	4980
2026-01-10 08:06:17.27	71.78	14.84	-29.8	-32.6	13.3	1.75e-05	0	41	0	241172480	20	4995
2026-01-10 08:06:18.27	71.60	14.90	-29.8	-32.7	13.2	2.13e-05	0	42	0	243269632	20	5021
2026-01-10 08:06:19.26	71.42	14.95	-29.7	-32.6	13.3	1.14e-05	0	41	0	245366784	20	4982
2026-01-10 08:06:20.27	71.24	15.01	-29.8	-32.6	13.3	1.98e-05	0	42	0	247463936	20	4987
2026-01-10 08:06:21.27	71.06	15.06	-29.6	-32.1	13.6	1.29e-05	0	42	0	249561088	20	4805
2026-01-10 08:06:22.28	70.87	15.12	-29.6	-32.1	13.6	6.80e-06	0	42	0	250609664	20	4823
2026-01-10 08:06:23.28	70.69	15.17	-29.5	-31.9	13.7	8.30e-06	0	42	0	252706816	20	4759
2026-01-10 08:06:24.29	70.50	15.23	-29.5	-32.0	13.6	6.10e-06	0	42	0	254803968	20	4785
2026-01-10 08:06:25.29	70.31	15.28	-29.4	-31.7	13.8	6.80e-06	0	42	0	256901120	20	4671
2026-01-10 08:06:26.29	70.13	15.33	-29.6	-32.1	13.6	6.10e-06	0	41	0	258998272	20	4822
2026-01-10 08:06:27.29	69.94	15.39	-29.4	-31.7	13.9	5.30e-06	0	41	0	260046848	20	4658
2026-01-10 08:06:28.29	69.75	15.44	-29.4	-31.6	13.9	3.00e-06	0	41	0	262144000	20	4646
2026-01-10 08:06:29.29	69.57	15.49	-29.5	-31.9	13.8	3.00e-06	0	41	0	264241152	20	4727
2026-01-10 08:06:30.28	69.38	15.55	-29.6	-32.0	13.7	3.80e-06	0	41	0	266338304	20	4764
2026-01-10 08:06:31.29	69.19	15.60	-29.5	-31.9	13.8	3.80e-06	0	41	0	267386880	20	4727
2026-01-10 08:06:32.29	69.00	15.65	-29.4	-31.6	14.0	0.00e+00	0	42	0	269484032	20	4632
2026-01-10 08:06:33.29	68.81	15.71	-29.3	-31.4	14.1	2.20e-06	0	42	0	271581184	20	4569
2026-01-10 08:06:34.29	68.62	15.76	-29.4	-31.7	14.0	0.00e+00	0	41	0	273678336	20	4650
2026-01-10 08:06:35.30	68.42	15.81	-29.4	-31.7	13.9	2.20e-06	0	42	0	275775488	20	4662
2026-01-10 08:06:36.30	68.23	15.86	-29.4	-31.6	13.9	4.50e-06	0	42	0	276824064	20	4634
2026-01-10 08:06:37.29	68.04	15.91	-29.5	-31.7	13.9	6.10e-06	0	41	0	278921216	20	4679
2026-01-10 08:06:38.30	67.84	15.96	-29.5	-32.0	13.7	9.10e-06	0	42	0	281018368	20	4767
2026-01-10 08:06:39.30	67.65	16.02	-29.7	-32.3	13.5	1.60e-05	0	42	0	283115520	20	4887
2026-01-10 08:06:40.31	67.45	16.07	-29.6	-32.0	13.7	8.30e-06	0	41	0	285212672	20	4769
2026-01-10 08:06:41.32	67.25	16.12	-29.5	-31.8	13.8	6.10e-06	0	42	0	286261248	20	4712
2026-01-10 08:06:42.32	67.05	16.17	-29.5	-31.9	13.8	5.30e-06	0	41	0	288358400	20	4734
2026-01-10 08:06:43.31	66.86	16.22	-29.6	-32.2	13.6	6.80e-06	0	42	0	290455552	20	4828
2026-01-10 08:06:44.32	66.66	16.27	-29.6	-32.2	13.7	7.60e-06	0	42	0	292552704	20	4827
2026-01-10 08:06:45.33	66.46	16.32	-29.7	-32.4	13.5	1.22e-05	0	42	0	294649856	20	4905
2026-01-10 08:06:46.33	66.26	16.37	-29.7	-32.3	13.5	9.90e-06	0	42	0	295698432	20	4867
2026-01-10 08:06:47.33	66.06	16.42	-29.7	-32.3	13.5	1.14e-05	0	42	0	297795584	20	4875
2026-01-10 08:06:48.34	65.85	16.47	-29.7	-32.3	13.6	9.90e-06	0	42	0	299892736	20	4864
2026-01-10 08:06:49.34	65.65	16.52	-29.7	-32.5	13.5	1.14e-05	0	42	0	301989888	20	4924
2026-01-10 08:06:50.34	65.45	16.56	-29.6	-32.1	13.7	9.90e-06	0	41	0	304087040	20	4807
2026-01-10 08:06:51.34	65.25	16.61	-29.6	-32.1	13.6	2.20e-06	0	42	0	305135616	20	4811
2026-01-10 08:06:52.35	65.04	16.66	-29.6	-32.1	13.7	9.10e-06	0	42	0	307232768	20	4809
2026-01-10 08:06:53.35	64.84	16.71	-29.6	-32.0	13.7	3.00e-06	0	42	0	309329920	20	4764
2026-01-10 08:06:54.34	64.64	16.75	-29.6	-32.1	13.7	4.50e-06	0	42	0	311427072	20	4790
2026-01-10 08:06:55.34	64.43	16.80	-29.5	-31.7	13.9	3.00e-06	0	41	0	312475648	20	4671
2026-01-10 08:06:56.35	64.22	16.85	-29.5	-31.8	13.9	5.30e-06	0	42	0	314572800	20	4692
2026-01-10 08:06:57.35	64.02	16.90	-29.5	-31.8	13.9	5.30e-06	0	41	0	316669952	20	4688
2026-01-10 08:06:58.35	63.81	16.94	-29.5	-31.8	13.9	3.00e-06	0	42	0	318767104	20	4701
2026-01-10 08:06:59.36	63.60	16.99	-29.7	-32.4	13.5	5.30e-06	0	41	0	320864256	20	4901
2026-01-10 08:07:00.36	63.39	17.03	-29.8	-32.5	13.5	1.60e-05	0	42	0	321912832	20	4940
2026-01-10 08:07:01.36	63.18	17.08	-29.6	-31.9	13.9	2.20e-06	0	42	0	324009984	20	4738
2026-01-10 08:07:02.37	62.97	17.12	-29.4	-31.4	14.2	1.50e-06	0	42	0	326107136	20	4546
2026-01-10 08:07:03.36	62.76	17.17	-29.4	-31.6	14.1	1.50e-06	0	41	0	328204288	20	4630
2026-01-10 08:07:04.36	62.55	17.21	-29.5	-31.8	13.9	3.00e-06	0	42	0	330301440	20	4680
2026-01-10 08:07:05.36	62.34	17.26	-29.5	-31.9	13.9	3.00e-06	0	42	0	331350016	20	4710
2026-01-10 08:07:06.36	62.12	17.30	-29.6	-32.0	13.8	9.90e-06	0	42	0	333447168	20	4768
2026-01-10 08:07:07.36	61.91	17.34	-29.3	-31.3	14.2	5.30e-06	0	42	0	335544320	20	4535
2026-01-10 08:07:08.36	61.70	17.39	-29.2	-31.4	14.6	0.00e+00	0	42	0	337641472	19	4638
2026-01-10 08:07:09.36	61.48	17.43	-29.1	-31.1	14.8	1.50e-06	0	42	0	339738624	19	4562
2026-01-10 08:07:10.36	61.27	17.47	-29.1	-31.2	14.7	0.00e+00	0	42	0	340787200	19	4580
2026-01-10 08:07:11.37	61.05	17.51	-29.1	-31.1	14.8	0.00e+00	0	42	0	342884352	19	4552
2026-01-10 08:07:12.37	60.84	17.55	-28.9	-30.7	15.0	7.00e-07	0	42	0	344981504	19	4428
2026-01-10 08:07:13.38	60.62	17.60	-28.9	-30.7	15.0	0.00e+00	0	42	0	347078656	19	4440
2026-01-10 08:07:14.38	60.40	17.64	-29.0	-31.0	14.9	0.00e+00	0	42	0	349175808	19	4514
2026-01-10 08:07:15.38	60.18	17.68	-29.1	-31.2	14.7	0.00e+00	0	42	0	350224384	19	4573
2026-01-10 08:07:16.38	59.96	17.72	-28.9	-30.8	14.9	7.00e-07	0	42	0	352321536	19	4464
2026-01-10 08:07:17.39	59.74	17.76	-28.9	-30.6	15.1	0.00e+00	0	42	0	354418688	19	4409
2026-01-10 08:07:18.39	59.52	17.80	-28.9	-30.6	15.1	7.00e-07	0	42	0	356515840	19	4408
2026-01-10 08:07:19.38	59.30	17.84	-28.9	-30.6	15.1	0.00e+00	0	42	0	357564416	19	4405
2026-01-10 08:07:20.38	59.08	17.87	-28.9	-30.7	15.0	0.00e+00	0	42	0	359661568	19	4434
2026-01-10 08:07:21.38	58.86	17.91	-28.8	-30.4	15.3	0.00e+00	0	42	0	361758720	19	4333
2026-01-10 08:07:22.38	58.64	17.95	-28.8	-30.9	15.2	0.00e+00	0	42	0	363855872	18	4592
2026-01-10 08:07:23.39	58.42	17.99	-28.8	-31.0	15.2	0.00e+00	0	41	0	365953024	18	4635
2026-01-10 08:07:24.38	58.20	18.03	-28.9	-31.2	15.1	0.00e+00	0	42	0	367001600	18	4676
2026-01-10 08:07:25.38	57.97	18.06	-28.9	-31.2	15.1	0.00e+00	0	42	0	369098752	18	4691
2026-01-10 08:07:26.39	57.75	18.10	-29.0	-31.4	15.0	7.00e-07	0	42	0	371195904	18	4751
2026-01-10 08:07:27.39	57.52	18.14	-29.0	-31.4	14.9	0.00e+00	0	42	0	373293056	18	4755
2026-01-10 08:07:28.39	57.30	18.17	-29.1	-31.7	14.8	0.00e+00	0	42	0	375390208	18	4852
2026-01-10 08:07:29.40	57.07	18.21	-29.1	-31.8	14.7	7.00e-07	0	41	0	376438784	18	4888
2026-01-10 08:07:30.40	56.84	18.24	-29.1	-31.8	14.7	0.00e+00	0	42	0	378535936	18	4875
2026-01-10 08:07:31.41	56.61	18.28	-29.1	-31.8	14.7	7.00e-07	0	42	0	380633088	18	4871
2026-01-10 08:07:32.41	56.39	18.31	-29.2	-32.0	14.5	7.00e-07	0	42	0	382730240	18	4972
2026-01-10 08:07:33.41	56.16	18.34	-29.1	-31.7	14.8	7.00e-07	0	42	0	384827392	18	4848
2026-01-10 08:07:34.42	55.93	18.38	-29.1	-31.7	14.8	1.50e-06	0	42	0	385875968	18	4863
2026-01-10 08:07:35.42	55.70	18.41	-29.1	-31.7	14.8	0.00e+00	0	42	0	387973120	18	4862
2026-01-10 08:07:36.42	55.47	18.44	-29.1	-31.7	14.8	0.00e+00	0	41	0	390070272	18	4850
2026-01-10 08:07:37.43	55.24	18.47	-29.2	-31.9	14.7	0.00e+00	0	42	0	392167424	18	4911
2026-01-10 08:07:38.43	55.01	18.50	-29.2	-32.0	14.6	0.00e+00	0	42	0	394264576	18	4943
2026-01-10 08:07:39.43	54.78	18.54	-29.2	-31.9	14.7	0.00e+00	0	42	0	395313152	18	4905
2026-01-10 08:07:40.44	54.55	18.57	-29.6	-32.4	14.0	3.00e-06	0	42	0	397410304	19	4973
2026-01-10 08:07:41.43	54.32	18.60	-29.3	-31.6	14.5	7.00e-07	0	42	0	399507456	19	4692
2026-01-10 08:07:42.44	54.08	18.63	-29.3	-31.6	14.5	7.00e-07	0	42	0	401604608	19	4707
2026-01-10 08:07:43.44	53.85	18.65	-29.4	-31.9	14.4	7.00e-07	0	42	0	402653184	19	4807
2026-01-10 08:07:44.45	53.61	18.68	-29.5	-32.2	14.1	0.00e+00	0	42	0	404750336	19	4922
2026-01-10 08:07:45.45	53.38	18.71	-29.5	-32.2	14.2	7.00e-07	0	42	0	406847488	19	4919
2026-01-10 08:07:46.45	53.15	18.74	-29.5	-32.2	14.2	7.00e-07	0	42	0	408944640	19	4913
2026-01-10 08:07:47.45	52.91	18.77	-29.7	-32.6	13.9	7.00e-07	0	42	0	411041792	19	5069
2026-01-10 08:07:48.45	52.68	18.79	-29.7	-32.7	13.8	2.20e-06	0	42	0	412090368	19	5101
2026-01-10 08:07:49.45	52.44	18.82	-29.7	-32.7	13.9	3.80e-06	0	42	0	414187520	19	5093
2026-01-10 08:07:50.45	52.21	18.85	-29.6	-32.6	13.9	3.00e-06	0	42	0	416284672	19	5050
2026-01-10 08:07:51.46	51.97	18.87	-29.7	-32.7	13.9	4.50e-06	0	42	0	418381824	19	5097
2026-01-10 08:07:52.46	51.73	18.90	-29.6	-32.6	14.0	1.50e-06	0	42	0	420478976	19	5044
2026-01-10 08:07:53.46	51.50	18.92	-29.7	-32.7	13.8	6.10e-06	0	42	0	421527552	19	5108
2026-01-10 08:07:54.46	51.26	18.94	-29.8	-32.9	13.7	6.10e-06	0	42	0	423624704	19	5177
2026-01-10 08:07:55.47	51.02	18.97	-29.6	-32.6	14.0	3.00e-06	0	42	0	425721856	19	5045
2026-01-10 08:07:56.47	50.78	18.99	-29.6	-32.4	14.0	7.00e-07	0	42	0	427819008	19	4972
2026-01-10 08:07:57.47	50.55	19.01	-29.7	-32.6	13.9	3.80e-06	0	42	0	429916160	19	5071
2026-01-10 08:07:58.48	50.30	19.03	-29.7	-32.7	13.9	3.80e-06	0	42	0	430964736	19	5086
2026-01-10 08:07:59.47	50.07	19.06	-29.7	-32.8	13.8	8.30e-06	0	42	0	433061888	19	5130
2026-01-10 08:08:00.47	49.83	19.08	-29.9	-33.3	13.5	5.30e-06	0	42	0	435159040	19	5316
2026-01-10 08:08:01.48	49.59	19.10	-30.0	-33.5	13.4	1.60e-05	0	42	0	437256192	19	5384
2026-01-10 08:08:02.48	49.35	19.12	-29.9	-33.2	13.6	1.14e-05	0	42	0	439353344	19	5283
2026-01-10 08:08:03.49	49.11	19.14	-30.2	-33.6	12.9	3.05e-05	0	42	0	440401920	20	5335
2026-01-10 08:08:04.49	48.87	19.16	-30.2	-33.7	12.8	7.32e-05	0	42	0	442499072	20	5387
2026-01-10 08:08:05.49	48.63	19.17	-30.2	-33.6	12.9	4.95e-05	0	42	0	444596224	20	5333
2026-01-10 08:08:06.49	48.38	19.19	-30.3	-33.9	12.7	7.32e-05	0	42	0	446693376	20	5450
2026-01-10 08:08:07.49	48.14	19.21	-30.3	-34.0	12.6	8.62e-05	0	42	0	447741952	20	5491
2026-01-10 08:08:08.49	47.90	19.23	-30.3	-33.9	12.6	9.76e-05	0	42	0	449839104	20	5482
2026-01-10 08:08:09.50	47.66	19.24	-30.3	-34.0	12.7	1.01e-04	0	42	0	451936256	20	5479
2026-01-10 08:08:10.50	47.42	19.26	-30.4	-34.2	12.5	9.53e-05	0	42	0	454033408	20	5576
2026-01-10 08:08:11.50	47.17	19.27	-30.3	-33.9	12.7	1.30e-04	0	42	0	456130560	20	5458
2026-01-10 08:08:12.49	46.93	19.29	-30.1	-33.5	12.9	5.26e-05	0	42	0	457179136	20	5297
2026-01-10 08:08:13.49	46.69	19.30	-30.1	-33.2	13.1	3.35e-05	0	42	0	459276288	20	5189
2026-01-10 08:08:14.50	46.45	19.32	-30.1	-33.2	13.2	2.36e-05	0	42	0	461373440	20	5195
2026-01-10 08:08:15.50	46.20	19.33	-30.0	-33.2	13.2	2.44e-05	0	42	0	463470592	20	5174
2026-01-10 08:08:16.50	45.96	19.34	-30.1	-33.4	13.1	5.95e-05	0	42	0	465567744	20	5249
2026-01-10 08:08:17.51	45.71	19.35	-30.3	-33.9	12.7	5.64e-05	0	42	0	466616320	20	5463
2026-01-10 08:08:18.51	45.47	19.37	-30.4	-34.3	12.4	5.64e-05	0	42	0	468713472	20	5616
2026-01-10 08:08:19.51	45.23	19.38	-30.2	-33.7	12.9	6.79e-05	0	42	0	470810624	20	5368
2026-01-10 08:08:20.52	44.98	19.39	-30.1	-33.3	13.1	3.28e-05	0	42	0	472907776	20	5219
2026-01-10 08:08:21.52	44.74	19.40	-30.1	-33.4	13.0	4.19e-05	0	42	0	475004928	20	5262
2026-01-10 08:08:22.52	44.49	19.41	-30.1	-33.3	13.1	3.81e-05	0	42	0	476053504	20	5225
2026-01-10 08:08:23.52	44.25	19.42	-30.0	-33.2	13.2	1.75e-05	0	42	0	478150656	20	5169
2026-01-10 08:08:24.53	44.00	19.42	-30.0	-33.1	13.2	2.05e-05	0	42	0	480247808	20	5142
2026-01-10 08:08:25.52	43.76	19.43	-30.0	-33.0	13.3	1.29e-05	0	42	0	482344960	20	5121
2026-01-10 08:08:26.53	43.51	19.44	-30.0	-33.0	13.2	1.67e-05	0	42	0	484442112	20	5092
2026-01-10 08:08:27.53	43.27	19.45	-30.0	-33.0	13.3	9.90e-06	0	42	0	485490688	20	5092
2026-01-10 08:08:28.53	43.02	19.45	-30.0	-33.1	13.2	1.67e-05	0	42	0	487587840	20	5146
2026-01-10 08:08:29.53	42.78	19.46	-30.0	-33.1	13.3	1.98e-05	0	42	0	489684992	20	5130
2026-01-10 08:08:30.54	42.53	19.46	-29.9	-32.8	13.5	1.52e-05	0	42	0	491782144	20	5020
2026-01-10 08:08:31.54	42.28	19.47	-29.9	-32.7	13.5	1.37e-05	0	42	0	493879296	20	4983
2026-01-10 08:08:32.54	42.04	19.47	-29.8	-32.7	13.5	9.10e-06	0	42	0	494927872	20	4976
2026-01-10 08:08:33.54	41.79	19.47	-29.9	-32.7	13.4	1.67e-05	0	42	0	497025024	20	4988
2026-01-10 08:08:34.54	41.55	19.48	-30.0	-33.1	13.3	1.67e-05	0	42	0	499122176	20	5143
2026-01-10 08:08:35.54	41.30	19.48	-29.9	-32.9	13.4	1.83e-05	0	42	0	501219328	20	5051
2026-01-10 08:08:36.53	41.06	19.48	-29.8	-32.6	13.5	1.60e-05	0	42	0	502267904	20	4953
2026-01-10 08:08:37.54	40.81	19.48	-29.9	-32.8	13.4	8.30e-06	0	42	0	504365056	20	5044
2026-01-10 08:08:38.54	40.57	19.48	-29.7	-32.3	13.7	9.90e-06	0	42	0	506462208	20	4859
2026-01-10 08:08:39.54	40.32	19.48	-29.5	-31.8	14.0	6.80e-06	0	42	0	508559360	20	4684
2026-01-10 08:08:40.54	40.07	19.48	-29.5	-31.7	14.1	1.50e-06	0	42	0	510656512	20	4635
2026-01-10 08:08:41.54	39.83	19.48	-29.5	-31.7	14.1	1.50e-06	0	42	0	511705088	20	4651
2026-01-10 08:08:42.55	39.58	19.48	-29.6	-31.9	14.0	3.00e-06	0	42	0	513802240	20	4710
2026-01-10 08:08:43.55	39.34	19.48	-29.6	-32.0	13.9	2.20e-06	0	42	0	515899392	20	4762
2026-01-10 08:08:44.55	39.09	19.47	-29.5	-31.8	14.1	1.50e-06	0	42	0	517996544	20	4692
2026-01-10 08:08:45.55	38.85	19.47	-29.5	-31.6	14.2	2.20e-06	0	42	0	520093696	20	4624
2026-01-10 08:08:46.56	38.60	19.47	-29.5	-31.7	14.1	2.20e-06	0	42	0	521142272	20	4636
2026-01-10 08:08:47.56	38.35	19.46	-29.4	-31.6	14.2	7.00e-07	0	42	0	523239424	20	4598
2026-01-10 08:08:48.56	38.11	19.46	-29.4	-31.4	14.3	1.50e-06	0	42	0	525336576	20	4562
2026-01-10 08:08:49.56	37.86	19.45	-29.4	-31.4	14.3	7.00e-07	0	42	0	527433728	20	4559
2026-01-10 08:08:50.56	37.62	19.45	-29.4	-31.4	14.3	7.00e-07	0	42	0	528482304	20	4548
2026-01-10 08:08:51.56	37.37	19.44	-29.3	-31.3	14.4	0.00e+00	0	41	0	530579456	20	4505
2026-01-10 08:08:52.56	37.13	19.43	-29.3	-31.7	14.5	0.00e+00	0	42	0	532676608	19	4754
2026-01-10 08:08:53.57	36.88	19.43	-29.3	-31.7	14.5	7.00e-07	0	42	0	534773760	19	4735
2026-01-10 08:08:54.57	36.64	19.42	-29.3	-31.6	14.6	7.00e-07	0	42	0	536870912	19	4699
2026-01-10 08:08:55.57	36.39	19.41	-29.2	-31.3	14.7	0.00e+00	0	42	0	538968064	19	4607
2026-01-10 08:08:56.57	36.15	19.40	-29.2	-31.3	14.7	0.00e+00	0	42	0	540016640	19	4623
2026-01-10 08:08:57.58	35.90	19.39	-29.2	-31.3	14.8	0.00e+00	0	42	0	542113792	19	4616
2026-01-10 08:08:58.58	35.66	19.38	-29.2	-31.4	14.7	0.00e+00	0	42	0	544210944	19	4631
2026-01-10 08:08:59.58	35.41	19.37	-29.1	-31.2	14.8	0.00e+00	0	42	0	546308096	19	4563
2026-01-10 08:09:00.58	35.17	19.36	-29.0	-30.9	15.0	0.00e+00	0	42	0	547356672	19	4487
2026-01-10 08:09:01.59	34.92	19.35	-29.0	-31.0	15.0	0.00e+00	0	42	0	549453824	19	4501
2026-01-10 08:09:02.59	34.68	19.33	-29.0	-30.9	15.0	0.00e+00	0	42	0	551550976	19	4492
2026-01-10 08:09:03.60	34.44	19.32	-28.9	-30.7	15.1	0.00e+00	0	42	0	553648128	19	4409
2026-01-10 08:09:04.60	34.19	19.31	-29.0	-31.0	14.9	0.00e+00	0	42	0	555745280	19	4505
2026-01-10 08:09:05.61	33.95	19.29	-28.9	-30.8	15.1	0.00e+00	0	42	0	556793856	19	4447
2026-01-10 08:09:06.61	33.71	19.28	-28.9	-30.8	15.1	0.00e+00	0	42	0	558891008	19	4434
2026-01-10 08:09:07.61	33.47	19.26	-28.9	-30.7	15.1	0.00e+00	0	42	0	560988160	19	4420
2026-01-10 08:09:08.61	33.22	19.25	-28.8	-30.4	15.3	0.00e+00	0	42	0	563085312	19	4337
2026-01-10 08:09:09.61	32.98	19.23	-28.7	-30.7	15.5	0.00e+00	0	42	0	565182464	18	4517
2026-01-10 08:09:10.61	32.74	19.21	-28.6	-30.5	15.6	0.00e+00	0	42	0	566231040	18	4465
2026-01-10 08:09:11.62	32.50	19.20	-28.7	-30.7	15.5	0.00e+00	0	42	0	568328192	18	4510
2026-01-10 08:09:12.62	32.26	19.18	-28.7	-30.6	15.5	0.00e+00	0	42	0	570425344	18	4500
2026-01-10 08:09:13.62	32.02	19.16	-29.0	-31.4	15.1	0.00e+00	0	42	0	572522496	18	4739
2026-01-10 08:09:14.62	31.78	19.14	-29.0	-31.4	15.0	0.00e+00	0	42	0	574619648	18	4732
2026-01-10 08:09:15.62	31.54	19.12	-29.0	-31.5	15.0	0.00e+00	0	42	0	575668224	18	4763
2026-01-10 08:09:16.63	31.29	19.10	-29.0	-31.5	15.0	0.00e+00	0	42	0	577765376	18	4784
2026-01-10 08:09:17.63	31.06	19.08	-29.2	-31.9	14.8	7.00e-07	0	42	0	579862528	18	4894
2026-01-10 08:09:18.63	30.82	19.06	-29.1	-31.7	14.9	0.00e+00	0	42	0	581959680	18	4833
2026-01-10 08:09:19.63	30.58	19.04	-29.0	-31.4	15.1	0.00e+00	0	42	0	584056832	18	4731
2026-01-10 08:09:20.64	30.34	19.02	-29.0	-31.3	15.2	0.00e+00	0	42	0	585105408	18	4707
2026-01-10 08:09:21.64	30.10	19.00	-28.9	-31.1	15.2	0.00e+00	0	42	0	587202560	18	4656
2026-01-10 08:09:22.64	29.86	18.97	-28.9	-31.1	15.3	0.00e+00	0	42	0	589299712	18	4642
2026-01-10 08:09:23.64	29.63	18.95	-28.8	-31.0	15.3	0.00e+00	0	42	0	591396864	18	4616
2026-01-10 08:09:24.65	29.39	18.93	-29.0	-31.3	15.1	0.00e+00	0	42	0	592445440	18	4725
2026-01-10 08:09:25.66	29.15	18.90	-29.0	-31.4	15.1	0.00e+00	0	42	0	594542592	18	4737
2026-01-10 08:09:26.66	28.91	18.88	-29.1	-31.6	14.9	0.00e+00	0	42	0	596639744	18	4821
2026-01-10 08:09:27.66	28.68	18.85	-29.1	-31.7	14.9	0.00e+00	0	42	0	598736896	18	4841
2026-01-10 08:09:28.67	28.44	18.83	-29.2	-31.8	14.8	7.00e-07	0	42	0	600834048	18	4885
2026-01-10 08:09:29.67	28.21	18.80	-29.1	-31.6	15.0	0.00e+00	0	42	0	601882624	18	4804
2026-01-10 08:09:30.67	27.97	18.77	-29.2	-31.8	14.8	0.00e+00	0	42	0	603979776	18	4888
2026-01-10 08:09:31.67	27.74	18.75	-29.2	-31.8	14.8	7.00e-07	0	42	0	606076928	18	4887
2026-01-10 08:09:32.68	27.50	18.72	-29.2	-31.9	14.8	0.00e+00	0	42	0	608174080	18	4906
2026-01-10 08:09:33.68	27.27	18.69	-29.3	-32.1	14.6	0.00e+00	0	42	0	610271232	18	4997
2026-01-10 08:09:34.68	27.04	18.66	-29.4	-32.5	14.4	0.00e+00	0	42	0	611319808	18	5124
2026-01-10 08:09:35.68	26.80	18.63	-29.5	-32.1	14.3	2.20e-06	0	42	0	613416960	19	4868
2026-01-10 08:09:36.69	26.57	18.60	-29.6	-32.5	14.0	3.00e-06	0	42	0	615514112	19	5028
2026-01-10 08:09:37.69	26.34	18.57	-29.6	-32.4	14.1	3.80e-06	0	42	0	617611264	19	4969
2026-01-10 08:09:38.70	26.11	18.54	-29.5	-32.2	14.2	2.20e-06	0	42	0	619708416	19	4925
2026-01-10 08:09:39.70	25.88	18.51	-29.7	-32.7	13.9	2.20e-06	0	42	0	620756992	19	5080
2026-01-10 08:09:40.70	25.65	18.48	-29.6	-32.5	14.0	3.00e-06	0	42	0	622854144	19	5012
2026-01-10 08:09:41.70	25.42	18.45	-29.6	-32.4	14.1	2.20e-06	0	42	0	624951296	19	4965
2026-01-10 08:09:42.71	25.19	18.42	-29.8	-33.0	13.7	4.50e-06	0	42	0	627048448	19	5186
2026-01-10 08:09:43.71	24.96	18.39	-29.9	-33.2	13.6	8.30e-06	0	42	0	629145600	19	5269
2026-01-10 08:09:44.72	24.73	18.35	-29.9	-32.9	13.3	1.67e-05	0	42	0	630194176	20	5074
2026-01-10 08:09:45.72	24.50	18.32	-30.1	-33.4	13.0	3.05e-05	0	42	0	632291328	20	5269
2026-01-10 08:09:46.73	24.27	18.29	-29.9	-32.7	13.4	2.74e-05	0	42	0	634388480	20	4993
2026-01-10 08:09:47.73	24.04	18.25	-29.8	-32.6	13.5	6.10e-06	0	42	0	636485632	20	4958
2026-01-10 08:09:48.74	23.82	18.22	-29.8	-32.6	13.5	7.60e-06	0	42	0	638582784	20	4956
2026-01-10 08:09:49.74	23.59	18.18	-30.0	-33.1	13.2	1.44e-05	0	42	0	639631360	20	5156
2026-01-10 08:09:50.73	23.37	18.15	-29.6	-32.0	14.0	1.22e-05	0	42	0	641728512	20	4732
2026-01-10 08:09:51.73	23.15	18.11	-30.0	-32.9	13.5	9.10e-06	0	42	0	643825664	20	5050
2026-01-10 08:09:52.73	22.92	18.07	-30.1	-33.2	13.2	2.21e-05	0	42	0	645922816	20	5151
2026-01-10 08:09:53.73	22.70	18.04	-29.9	-32.6	13.7	9.10e-06	0	42	0	646971392	20	4945
2026-01-10 08:09:54.72	22.48	18.00	-30.2	-33.6	13.0	2.74e-05	0	42	0	649068544	20	5306
2026-01-10 08:09:55.72	22.26	17.96	-30.4	-33.8	12.5	9.99e-05	0	42	0	651165696	21	5285
2026-01-10 08:09:56.72	22.04	17.93	-30.0	-32.5	13.4	4.88e-05	0	42	0	653262848	21	4812
2026-01-10 08:09:57.72	21.81	17.89	-30.3	-33.4	12.8	2.59e-05	0	42	0	655360000	21	5143
2026-01-10 08:09:58.72	21.59	17.85	-30.3	-33.3	12.8	4.19e-05	0	42	0	656408576	21	5104
2026-01-10 08:09:59.72	21.37	17.81	-30.7	-34.6	12.0	1.23e-04	0	42	0	658505728	21	5656
2026-01-10 08:10:00.72	21.16	17.77	-30.5	-33.5	12.4	5.89e-04	0	42	0	660602880	22	5053
2026-01-10 08:10:01.72	20.94	17.73	-30.7	-34.0	12.0	2.63e-04	0	42	0	662700032	22	5264
2026-01-10 08:10:02.72	20.72	17.69	-30.6	-33.7	12.2	2.30e-04	0	42	0	664797184	22	5169
2026-01-10 08:10:03.73	20.50	17.65	-30.8	-34.4	11.7	3.19e-04	0	42	0	665845760	22	5463
2026-01-10 08:10:04.73	20.28	17.61	-30.7	-34.1	11.9	7.36e-04	0	42	0	667942912	22	5322
2026-01-10 08:10:05.73	20.07	17.57	-30.2	-33.2	12.8	1.52e-04	0	42	0	670040064	21	5066
2026-01-10 08:10:06.73	19.85	17.53	-30.4	-33.8	12.4	5.41e-05	0	42	0	672137216	21	5318
2026-01-10 08:10:07.73	19.64	17.49	-30.4	-33.6	12.6	5.79e-05	0	42	0	674234368	21	5231
2026-01-10 08:10:08.73	19.42	17.44	-30.7	-34.7	11.8	1.72e-04	0	42	0	675282944	21	5685
2026-01-10 08:10:09.74	19.21	17.40	-30.6	-34.3	12.1	4.25e-04	0	42	0	677380096	21	5498
2026-01-10 08:10:10.74	18.99	17.36	-29.9	-32.3	13.4	8.69e-05	0	42	0	679477248	21	4762
2026-01-10 08:10:11.74	18.78	17.32	-30.1	-33.0	13.0	2.97e-05	0	42	0	681574400	21	4985
2026-01-10 08:10:12.75	18.57	17.27	-30.4	-33.6	12.5	3.12e-05	0	42	0	682622976	21	5233
2026-01-10 08:10:13.75	18.35	17.23	-30.1	-32.9	13.0	9.53e-05	0	42	0	684720128	21	4970
2026-01-10 08:10:14.75	18.14	17.18	-30.1	-32.8	13.1	2.51e-05	0	42	0	686817280	21	4911
2026-01-10 08:10:15.74	17.94	17.14	-30.3	-33.5	12.6	5.79e-05	0	42	0	688914432	21	5187
2026-01-10 08:10:16.74	17.73	17.10	-30.3	-33.4	12.6	1.33e-04	0	42	0	691011584	21	5146
2026-01-10 08:10:17.75	17.52	17.05	-30.2	-33.3	12.7	6.63e-05	0	42	0	692060160	21	5102
2026-01-10 08:10:18.75	17.31	17.00	-30.2	-33.3	12.8	5.95e-05	0	42	0	694157312	21	5113
2026-01-10 08:10:19.74	17.10	16.96	-30.1	-32.9	13.0	4.80e-05	0	42	0	696254464	21	4975
2026-01-10 08:10:20.75	16.89	16.91	-29.9	-32.4	13.4	2.05e-05	0	42	0	698351616	21	4779
2026-01-10 08:10:21.76	16.69	16.87	-29.9	-32.4	13.3	1.29e-05	0	42	0	700448768	21	4783
2026-01-10 08:10:22.76	16.48	16.82	-30.0	-32.6	13.2	1.67e-05	0	42	0	701497344	21	4846
2026-01-10 08:10:23.76	16.28	16.77	-30.0	-32.6	13.1	5.49e-05	0	42	0	703594496	21	4871
2026-01-10 08:10:24.76	16.07	16.73	-30.0	-32.7	13.1	3.12e-05	0	42	0	705691648	21	4910
2026-01-10 08:10:25.76	15.87	16.68	-30.1	-33.0	12.9	3.58e-05	0	42	0	707788800	21	5006
2026-01-10 08:10:26.76	15.66	16.63	-30.2	-33.2	12.8	6.40e-05	0	42	0	708837376	21	5079
2026-01-10 08:10:27.76	15.46	16.58	-30.3	-33.4	12.7	6.56e-05	0	42	0	710934528	21	5145
2026-01-10 08:10:28.76	15.26	16.54	-30.2	-33.2	12.8	1.02e-04	0	42	0	713031680	21	5070
2026-01-10 08:10:29.76	15.06	16.49	-30.3	-33.3	12.8	5.95e-05	0	42	0	715128832	21	5111
2026-01-10 08:10:30.76	14.86	16.44	-30.4	-33.8	12.4	9.30e-05	0	42	0	717225984	21	5314
2026-01-10 08:10:31.77	14.66	16.39	-30.4	-33.7	12.6	1.70e-04	0	42	0	718274560	21	5258
2026-01-10 08:10:32.77	14.46	16.34	-30.5	-33.9	12.4	1.01e-04	0	42	0	720371712	21	5348
2026-01-10 08:10:33.78	14.26	16.29	-30.7	-34.6	12.0	2.39e-04	0	42	0	722468864	21	5617
2026-01-10 08:10:34.77	14.06	16.24	-30.8	-34.7	11.9	4.11e-04	0	42	0	724566016	21	5664
2026-01-10 08:10:35.78	13.86	16.19	-30.6	-34.2	12.3	2.62e-04	0	42	0	726663168	21	5441
2026-01-10 08:10:36.78	13.67	16.14	-30.4	-33.8	12.5	1.53e-04	0	42	0	727711744	21	5299
2026-01-10 08:10:37.78	13.47	16.09	-30.5	-33.7	12.6	9.76e-05	0	42	0	729808896	21	5261
2026-01-10 08:10:38.79	13.27	16.04	-30.5	-33.8	12.5	9.53e-05	0	42	0	731906048	21	5302
2026-01-10 08:10:39.79	13.08	15.99	-30.4	-33.7	12.6	1.12e-04	0	42	0	734003200	21	5265
2026-01-10 08:10:40.79	12.89	15.94	-30.3	-33.3	12.9	4.42e-05	0	42	0	736100352	21	5100
2026-01-10 08:10:41.79	12.69	15.88	-30.2	-33.1	12.9	5.18e-05	0	42	0	737148928	21	5040
2026-01-10 08:10:42.78	12.50	15.83	-30.4	-33.6	12.6	5.18e-05	0	42	0	739246080	21	5212
2026-01-10 08:10:43.78	12.31	15.78	-30.3	-33.4	12.8	6.33e-05	0	42	0	741343232	21	5172
2026-01-10 08:10:44.78	12.12	15.73	-30.2	-33.2	12.9	4.57e-05	0	42	0	743440384	21	5077
2026-01-10 08:10:45.79	11.93	15.68	-30.2	-33.0	12.9	4.27e-05	0	42	0	745537536	21	5015
2026-01-10 08:10:46.79	11.74	15.63	-30.1	-32.8	13.1	3.28e-05	0	42	0	746586112	21	4925
2026-01-10 08:10:47.80	11.55	15.57	-30.1	-32.7	13.2	3.28e-05	0	42	0	748683264	21	4874
2026-01-10 08:10:48.80	11.36	15.52	-30.1	-32.8	13.2	2.44e-05	0	42	0	750780416	21	4922
2026-01-10 08:10:49.80	11.17	15.47	-30.1	-32.7	13.3	2.21e-05	0	42	0	752877568	21	4865
2026-01-10 08:10:50.80	10.99	15.41	-30.1	-32.7	13.2	2.59e-05	0	42	0	754974720	21	4878
2026-01-10 08:10:51.80	10.80	15.36	-30.1	-32.9	13.1	2.05e-05	0	42	0	756023296	21	4957
2026-01-10 08:10:52.80	10.61	15.31	-30.2	-33.0	12.9	4.27e-05	0	42	0	758120448	21	5005
2026-01-10 08:10:53.80	10.43	15.25	-30.3	-33.5	12.7	5.18e-05	0	42	0	760217600	21	5167
2026-01-10 08:10:54.79	10.25	15.20	-30.2	-33.1	12.9	6.10e-05	0	42	0	762314752	21	5046
2026-01-10 08:10:55.79	10.06	15.14	-30.4	-33.5	12.8	6.56e-05	0	42	0	763363328	21	5168
2026-01-10 08:10:56.79	9.88	15.09	-30.3	-33.5	12.6	8.16e-05	0	42	0	765460480	21	5179
2026-01-10 08:10:57.79	9.70	15.04	-30.4	-33.7	12.5	8.39e-05	0	42	0	767557632	21	5275
2026-01-10 08:10:58.79	9.52	14.98	-30.4	-33.7	12.4	1.57e-04	0	42	0	769654784	21	5259
2026-01-10 08:10:59.79	9.34	14.93	-30.4	-33.7	12.4	1.05e-04	0	42	0	771751936	21	5258
2026-01-10 08:11:00.79	9.16	14.87	-30.6	-34.1	12.2	1.84e-04	0	42	0	772800512	21	5435
2026-01-10 08:11:01.79	8.98	14.82	-30.7	-34.3	12.2	1.90e-04	0	42	0	774897664	21	5504
2026-01-10 08:11:02.80	8.80	14.76	-30.7	-34.4	12.1	2.72e-04	0	42	0	776994816	21	5520
2026-01-10 08:11:03.79	8.62	14.71	-30.6	-34.3	12.1	2.15e-04	0	42	0	779091968	21	5509
2026-01-10 08:11:04.80	8.44	14.65	-30.6	-34.2	12.1	2.59e-04	0	42	0	781189120	21	5467
2026-01-10 08:11:05.80	8.26	14.59	-30.5	-34.0	12.4	2.11e-04	0	42	0	782237696	21	5358
2026-01-10 08:11:06.80	8.09	14.54	-30.7	-34.6	11.9	1.68e-04	0	42	0	784334848	21	5622
2026-01-10 08:11:07.80	7.91	14.48	-30.4	-33.8	12.4	1.68e-04	0	42	0	786432000	21	5296
2026-01-10 08:11:08.81	7.74	14.43	-30.4	-33.6	12.7	7.85e-05	0	42	0	788529152	21	5232
2026-01-10 08:11:09.81	7.56	14.37	-30.3	-33.5	12.6	1.11e-04	0	42	0	789577728	21	5201
2026-01-10 08:11:10.81	7.39	14.31	-30.5	-34.0	12.3	1.77e-04	0	42	0	791674880	21	5395
2026-01-10 08:11:11.82	7.22	14.26	-30.5	-34.0	12.2	2.21e-04	0	42	0	793772032	21	5412
2026-01-10 08:11:12.82	7.04	14.20	-30.6	-34.1	12.3	1.90e-04	0	42	0	795869184	21	5433
2026-01-10 08:11:13.82	6.87	14.14	-30.6	-34.3	12.0	3.18e-04	0	42	0	797966336	21	5527
2026-01-10 08:11:14.82	6.70	14.08	-30.7	-34.6	11.8	3.87e-04	0	42	0	800063488	21	5635
2026-01-10 08:11:15.82	6.53	14.03	-30.6	-34.5	11.9	7.59e-04	0	42	0	801112064	21	5598
2026-01-10 08:11:16.82	6.36	13.97	-30.7	-34.8	11.6	5.63e-04	0	42	0	803209216	21	5752
2026-01-10 08:11:17.82	6.19	13.91	-30.6	-34.5	11.9	4.71e-04	0	42	0	805306368	21	5598
2026-01-10 08:11:18.83	6.02	13.86	-30.4	-33.7	12.4	2.66e-04	0	42	0	807403520	21	5288
2026-01-10 08:11:19.83	5.86	13.80	-30.2	-33.3	12.6	1.15e-04	0	42	0	808452096	21	5136
2026-01-10 08:11:20.83	5.69	13.74	-30.3	-33.5	12.5	1.20e-04	0	42	0	810549248	21	5204
2026-01-10 08:11:21.83	5.52	13.68	-30.2	-33.3	12.6	1.22e-04	0	42	0	812646400	21	5127
2026-01-10 08:11:22.84	5.36	13.62	-30.1	-33.0	12.8	7.09e-05	0	42	0	814743552	21	5022
2026-01-10 08:11:23.84	5.19	13.57	-30.1	-32.8	12.9	4.04e-05	0	42	0	816840704	21	4932
2026-01-10 08:11:24.84	5.03	13.51	-30.2	-33.2	12.7	5.56e-05	0	42	0	817889280	21	5084
2026-01-10 08:11:25.84	4.87	13.45	-30.1	-32.8	13.0	7.17e-05	0	42	0	819986432	21	4932
2026-01-10 08:11:26.85	4.70	13.39	-30.1	-32.9	12.9	2.59e-05	0	42	0	822083584	21	4964
2026-01-10 08:11:27.85	4.54	13.33	-30.1	-32.8	13.0	4.65e-05	0	42	0	824180736	21	4943
2026-01-10 08:11:28.85	4.38	13.27	-30.1	-32.9	12.9	3.28e-05	0	42	0	826277888	21	4984
2026-01-10 08:11:29.86	4.22	13.22	-30.0	-32.7	13.0	5.11e-05	0	42	0	827326464	21	4906
2026-01-10 08:11:30.86	4.05	13.16	-30.0	-32.8	13.0	3.05e-05	0	42	0	829423616	21	4930
2026-01-10 08:11:31.86	3.90	13.10	-30.1	-32.8	12.9	4.11e-05	0	42	0	831520768	21	4957
2026-01-10 08:11:32.87	3.74	13.04	-30.1	-32.8	12.9	4.27e-05	0	42	0	833617920	21	4952
2026-01-10 08:11:33.87	3.58	12.98	-30.1	-32.9	12.8	5.34e-05	0	42	0	835715072	21	4980
2026-01-10 08:11:34.87	3.42	12.92	-30.1	-33.0	12.8	5.56e-05	0	42	0	836763648	21	5006
2026-01-10 08:11:35.87	3.26	12.86	-30.0	-32.7	13.0	3.05e-05	0	42	0	838860800	21	4911
2026-01-10 08:11:36.88	3.11	12.80	-30.1	-33.0	12.7	6.10e-05	0	42	0	840957952	21	5043
2026-01-10 08:11:37.89	2.95	12.74	-30.2	-33.2	12.7	9.53e-05	0	42	0	843055104	21	5090
2026-01-10 08:11:38.89	2.79	12.68	-30.3	-33.5	12.5	1.04e-04	0	42	0	845152256	21	5203
2026-01-10 08:11:39.89	2.64	12.62	-30.1	-33.1	12.9	1.04e-04	0	42	0	846200832	21	5033
2026-01-10 08:11:40.89	2.49	12.57	-30.3	-33.4	12.6	1.10e-04	0	42	0	848297984	21	5145
2026-01-10 08:11:41.90	2.33	12.51	-30.1	-32.7	13.1	4.80e-05	0	42	0	850395136	21	4900
2026-01-10 08:11:42.90	2.18	12.45	-29.9	-32.3	13.3	2.13e-05	0	42	0	852492288	21	4754
2026-01-10 08:11:43.90	2.03	12.39	-29.9	-32.7	13.5	1.14e-05	0	42	0	853540864	20	4991
2026-01-10 08:11:44.90	1.88	12.33	-29.8	-32.6	13.5	1.29e-05	0	42	0	855638016	20	4947
2026-01-10 08:11:45.91	1.72	12.27	-29.8	-32.5	13.5	1.90e-05	0	42	0	857735168	20	4942
2026-01-10 08:11:46.91	1.57	12.21	-30.0	-33.1	13.2	1.29e-05	0	42	0	859832320	20	5145
2026-01-10 08:11:47.91	1.42	12.15	-30.2	-33.7	12.8	6.40e-05	0	42	0	861929472	20	5384
2026-01-10 08:11:48.92	1.27	12.09	-30.0	-33.2	13.1	4.42e-05	0	42	0	862978048	20	5203
2026-01-10 08:11:49.92	1.13	12.03	-30.0	-33.1	13.0	2.82e-05	0	42	0	865075200	20	5168
2026-01-10 08:11:50.92	0.98	11.97	-30.0	-33.1	13.1	3.28e-05	0	42	0	867172352	20	5161
2026-01-10 08:11:51.93	0.83	11.91	-30.1	-33.5	12.9	4.57e-05	0	42	0	869269504	20	5309
2026-01-10 08:11:52.92	0.69	11.85	-30.0	-33.2	13.1	3.58e-05	0	42	0	871366656	20	5195
2026-01-10 08:11:53.93	0.54	11.79	-30.4	-34.1	12.4	5.95e-05	0	42	0	872415232	20	5554
2026-01-10 08:11:54.92	0.40	11.73	-30.1	-33.4	12.9	5.41e-05	0	42	0	874512384	20	5264
2026-01-10 08:11:55.93	0.25	11.67	-29.8	-32.5	13.6	9.10e-06	0	42	0	876609536	20	4914
2026-01-10 08:11:56.94	0.10	11.61	-29.7	-32.3	13.6	7.60e-06	0	42	0	878706688	20	4867
2026-01-10 08:11:57.94	359.96	11.55	-29.8	-32.4	13.6	8.30e-06	0	42	0	880803840	20	4899
2026-01-10 08:11:58.94	359.82	11.49	-30.1	-33.5	12.9	1.37e-05	0	42	0	881852416	20	5291
2026-01-10 08:11:59.94	359.68	11.43	-30.1	-33.4	12.9	5.72e-05	0	42	0	883949568	20	5272
2026-01-10 08:12:00.93	359.54	11.37	-30.0	-33.2	13.1	2.74e-05	0	42	0	886046720	20	5180
2026-01-10 08:12:01.94	359.39	11.31	-29.9	-33.0	13.1	3.43e-05	0	42	0	888143872	20	5107
2026-01-10 08:12:02.94	359.25	11.25	-29.7	-32.5	13.4	1.75e-05	0	42	0	890241024	20	4927
2026-01-10 08:12:03.94	359.11	11.19	-29.9	-32.9	13.1	2.13e-05	0	42	0	891289600	20	5108
2026-01-10 08:12:04.94	358.98	11.13	-29.9	-32.8	13.2	1.60e-05	0	42	0	893386752	20	5047
2026-01-10 08:12:05.95	358.84	11.07	-30.2	-33.7	12.8	3.20e-05	0	42	0	895483904	20	5394
2026-01-10 08:12:06.95	358.70	11.01	-30.0	-33.2	12.9	6.79e-05	0	42	0	897581056	20	5215
2026-01-10 08:12:07.96	358.56	10.95	-29.9	-32.9	13.1	2.74e-05	0	42	0	898629632	20	5080
2026-01-10 08:12:08.97	358.42	10.88	-29.9	-32.8	13.3	1.60e-05	0	42	0	900726784	20	5036
2026-01-10 08:12:09.97	358.29	10.82	-29.8	-32.6	13.4	1.83e-05	0	42	0	902823936	20	4956
2026-01-10 08:12:10.98	358.15	10.76	-29.9	-32.8	13.3	1.90e-05	0	42	0	904921088	20	5040
2026-01-10 08:12:11.98	358.01	10.70	-29.8	-32.6	13.4	1.29e-05	0	42	0	907018240	20	4982
2026-01-10 08:12:12.98	357.88	10.64	-29.8	-32.5	13.4	1.06e-05	0	42	0	908066816	20	4931
2026-01-10 08:12:13.99	357.74	10.58	-29.8	-32.6	13.4	1.06e-05	0	42	0	910163968	20	4972
2026-01-10 08:12:14.99	357.61	10.52	-30.0	-33.3	12.9	4.57e-05	0	42	0	912261120	20	5237
2026-01-10 08:12:15.98	357.48	10.46	-29.9	-32.9	13.1	3.05e-05	0	42	0	914358272	20	5083
2026-01-10 08:12:16.99	357.35	10.40	-29.9	-33.0	13.1	3.35e-05	0	42	0	916455424	20	5127
2026-01-10 08:12:17.99	357.21	10.34	-30.0	-33.3	12.9	3.12e-05	0	42	0	917504000	20	5258
2026-01-10 08:12:18.99	357.08	10.28	-30.0	-33.3	12.9	6.63e-05	0	42	0	919601152	20	5250
2026-01-10 08:12:20.00	356.95	10.22	-30.2	-33.7	12.5	8.69e-05	0	42	0	921698304	20	5417
2026-01-10 08:12:21.00	356.82	10.16	-30.1	-33.4	12.8	9.23e-05	0	42	0	923795456	20	5291
2026-01-10 08:12:21.99	356.69	10.10	-29.9	-33.0	13.0	4.50e-05	0	42	0	925892608	20	5147
2026-01-10 08:12:22.99	356.56	10.04	-29.8	-32.6	13.2	3.35e-05	0	42	0	926941184	20	5001
2026-01-10 08:12:24.00	356.44	9.98	-29.8	-32.7	13.2	2.44e-05	0	42	0	929038336	20	5032
2026-01-10 08:12:24.99	356.31	9.92	-29.8	-32.6	13.2	2.59e-05	0	42	0	931135488	20	4975
2026-01-10 08:12:25.99	356.18	9.86	-29.9	-33.0	12.9	4.11e-05	0	42	0	933232640	20	5135
2026-01-10 08:12:26.99	356.06	9.80	-29.8	-32.6	13.1	2.74e-05	0	42	0	935329792	20	5011
2026-01-10 08:12:27.99	355.93	9.74	-29.7	-32.5	13.3	1.44e-05	0	42	0	936378368	20	4953
2026-01-10 08:12:28.99	355.80	9.68	-29.7	-32.6	13.3	1.98e-05	0	42	0	938475520	20	4983
2026-01-10 08:12:29.99	355.68	9.62	-29.8	-32.6	13.1	2.67e-05	0	42	0	940572672	20	5019
2026-01-10 08:12:30.99	355.55	9.56	-29.8	-32.7	13.1	2.89e-05	0	42	0	942669824	20	5025
2026-01-10 08:12:31.99	355.43	9.50	-29.8	-32.8	13.0	2.97e-05	0	42	0	943718400	20	5079
2026-01-10 08:12:32.99	355.31	9.44	-29.7	-32.6	13.1	2.59e-05	0	42	0	945815552	20	5003
2026-01-10 08:12:33.99	355.18	9.38	-29.9	-33.1	12.8	4.42e-05	0	42	0	947912704	20	5197
2026-01-10 08:12:35.00	355.06	9.32	-29.9	-33.1	12.8	2.89e-05	0	42	0	950009856	20	5209
2026-01-10 08:12:36.00	354.94	9.26	-29.9	-33.2	12.7	6.71e-05	0	42	0	952107008	20	5232
2026-01-10 08:12:37.00	354.82	9.20	-29.8	-32.8	12.9	8.77e-05	0	42	0	953155584	20	5079
2026-01-10 08:12:38.00	354.70	9.14	-30.0	-33.3	12.7	3.89e-05	0	42	0	955252736	20	5250
2026-01-10 08:12:39.00	354.58	9.08	-30.1	-33.6	12.4	1.31e-04	0	42	0	957349888	20	5409
2026-01-10 08:12:40.00	354.46	9.02	-30.2	-33.9	12.4	1.79e-04	0	42	0	959447040	20	5518
2026-01-10 08:12:41.00	354.34	8.96	-30.2	-33.8	12.5	1.15e-04	0	42	0	961544192	20	5461
2026-01-10 08:12:42.00	354.22	8.90	-30.1	-33.6	12.5	1.16e-04	0	42	0	962592768	20	5362
2026-01-10 08:12:43.00	354.10	8.84	-30.3	-34.3	12.1	2.23e-04	0	42	0	964689920	20	5651
2026-01-10 08:12:44.00	353.98	8.78	-30.1	-33.7	12.4	2.00e-04	0	42	0	966787072	20	5437
2026-01-10 08:12:45.01	353.86	8.72	-30.3	-34.2	12.1	1.97e-04	0	42	0	968884224	20	5629
2026-01-10 08:12:46.01	353.75	8.66	-30.2	-34.0	12.1	2.57e-04	0	42	0	969932800	20	5586
2026-01-10 08:12:47.01	353.63	8.60	-30.3	-34.3	11.9	3.47e-04	0	42	0	972029952	20	5688
2026-01-10 08:12:48.01	353.51	8.54	-30.3	-34.2	11.9	3.55e-04	0	42	0	974127104	20	5641
2026-01-10 08:12:49.01	353.40	8.48	-30.4	-34.4	11.9	3.33e-04	0	42	0	976224256	20	5718
2026-01-10 08:12:50.02	353.28	8.42	-30.2	-34.0	12.1	3.05e-04	0	42	0	978321408	20	5559
2026-01-10 08:12:51.02	353.17	8.36	-30.4	-34.5	11.8	4.11e-04	0	42	0	980418560	20	5799
2026-01-10 08:12:52.03	353.05	8.30	-30.3	-34.3	12.0	4.66e-04	0	42	0	981467136	20	5695
2026-01-10 08:12:53.03	352.94	8.24	-30.4	-34.7	11.6	5.02e-04	0	42	0	983564288	20	5868
2026-01-10 08:12:54.04	352.83	8.18	-30.5	-34.5	11.3	9.21e-04	0	42	0	985661440	21	5707
2026-01-10 08:12:55.04	352.71	8.12	-30.7	-35.0	11.0	1.20e-03	0	42	0	987758592	21	5900
2026-01-10 08:12:56.05	352.60	8.06	-30.6	-34.8	11.1	1.71e-03	0	42	0	988807168	21	5820
2026-01-10 08:12:57.05	352.49	8.00	-30.7	-35.2	10.7	2.68e-03	0	42	0	990904320	21	6039
2026-01-10 08:12:58.04	352.38	7.94	-30.6	-34.7	11.1	1.81e-03	0	42	0	993001472	21	5812
2026-01-10 08:12:59.05	352.27	7.88	-30.4	-34.3	11.3	1.41e-03	0	42	0	995098624	21	5639
2026-01-10 08:13:00.05	352.16	7.82	-30.4	-34.4	11.3	1.45e-03	0	42	0	997195776	21	5666
2026-01-10 08:13:01.05	352.05	7.76	-30.7	-35.1	10.8	1.81e-03	0	42	0	998244352	21	5989
2026-01-10 08:13:02.05	351.94	7.70	-30.5	-34.5	11.2	2.96e-03	0	42	0	1000341504	21	5702
2026-01-10 08:13:03.05	351.83	7.64	-30.6	-34.9	10.8	1.88e-03	0	42	0	1002438656	21	5918
2026-01-10 08:13:04.05	351.72	7.58	-30.6	-34.8	10.9	2.45e-03	0	42	0	1004535808	21	5879
2026-01-10 08:13:05.05	351.61	7.52	-30.5	-34.5	11.1	1.83e-03	0	42	0	1006632960	21	5725
2026-01-10 08:13:06.06	351.51	7.46	-30.5	-34.6	11.0	1.65e-03	0	42	0	1007681536	21	5776
2026-01-10 08:13:07.06	351.40	7.40	-30.6	-35.1	10.6	2.93e-03	0	42	0	1009778688	21	6042
2026-01-10 08:13:08.06	351.29	7.34	-30.6	-34.8	10.8	2.48e-03	0	42	0	1011875840	21	5887
2026-01-10 08:13:09.07	351.18	7.28	-30.3	-34.1	11.4	1.96e-03	0	42	0	1013972992	21	5552
2026-01-10 08:13:10.07	351.08	7.22	-30.5	-34.6	11.1	1.79e-03	0	42	0	1016070144	21	5759
2026-01-10 08:13:11.07	350.97	7.17	-30.4	-34.4	11.2	1.51e-03	0	42	0	1017118720	21	5673
2026-01-10 08:13:12.07	350.87	7.11	-30.6	-35.1	10.7	1.88e-03	0	42	0	1019215872	21	5986
2026-01-10 08:13:13.08	350.76	7.05	-32.9	-45.9	3.8	1.49e+00	0	42	104	1020264448	25	16088
2026-01-10 08:13:14.08	350.66	6.99	-33.2	-47.3	3.8	1.49e+00	0	42	104	1020264448	26	18114
2026-01-10 08:13:15.08	350.56	6.93	-33.4	-47.9	3.8	1.49e+00	0	42	104	1020264448	26	19138
2026-01-10 08:13:16.08	350.45	6.87	-33.6	-47.8	3.8	1.49e+00	0	42	104	1020264448	27	18358

#Closed at: 2026-01-10 08:13:16
#Recorded file [1020 MB]: D:/data/31010_260110_110408.dat