passes_logs/2026/01/10/R2M6_AANII_01/R2M6_AANII_01__20260110_233022_NOAA_20_JPSS-1_rec.log

#Pass ID: 20260110_233022_NOAA 20 (JPSS-1)
#Satellite: NOAA 20 (JPSS-1)
#Configuration: NOAA 20
#almurnet v.1.7.20240730
#Start time: 2026-01-10 23:30:23

#Version: 2.2.20231116
#Station: R2M6_AANII_01
#Location: 30.233357 lon 59.946436 lat
#TLE: 1 43013U 17073A   26009.69119415  .00000109  00000+0  72598-4 0  9996
#TLE: 2 43013  98.7631 310.6868 0001678  46.7442 313.3874 14.19534878421981

#Time	Az	El	Level	Level2	SNR	BER	BlckErr	Temp	State	Recorded	gain1	gain2
2026-01-10 23:30:23.19	23.26	7.08	-31.1	-37.2	5.1	1.26e+00	0	39	0	0	22	7204
2026-01-10 23:30:24.18	23.31	7.15	-31.4	-38.4	4.9	1.30e+00	0	39	104	0	22	8071
2026-01-10 23:30:25.19	23.36	7.23	-31.3	-37.8	7.8	1.06e-01	0	40	0	0	22	7603
2026-01-10 23:30:26.19	23.41	7.30	-31.4	-38.1	7.5	9.92e-02	0	40	0	1048576	22	7845
2026-01-10 23:30:27.20	23.46	7.37	-31.6	-38.6	6.7	1.52e-01	0	40	0	3145728	23	8121
2026-01-10 23:30:28.21	23.51	7.45	-31.4	-37.9	7.3	1.28e-01	0	40	0	5242880	23	7564
2026-01-10 23:30:29.22	23.57	7.52	-31.4	-38.3	7.5	1.03e-01	0	40	0	7340032	22	7937
2026-01-10 23:30:30.22	23.62	7.60	-31.4	-38.4	7.4	1.07e-01	0	40	0	9437184	22	7996
2026-01-10 23:30:31.23	23.67	7.67	-31.5	-38.3	7.1	1.52e-01	0	40	0	10485760	23	7812
2026-01-10 23:30:32.23	23.72	7.75	-31.4	-37.9	7.3	1.58e-01	0	40	0	12582912	23	7547
2026-01-10 23:30:33.23	23.78	7.82	-31.3	-37.6	7.9	8.99e-02	0	40	0	14680064	22	7454
2026-01-10 23:30:34.24	23.83	7.90	-31.1	-36.9	8.5	4.91e-02	0	40	0	16777216	22	6974
2026-01-10 23:30:35.25	23.88	7.98	-31.0	-36.4	8.9	3.91e-02	0	40	0	18874368	22	6706
2026-01-10 23:30:36.25	23.94	8.05	-30.8	-36.2	9.4	1.44e-02	0	40	0	19922944	21	6702
2026-01-10 23:30:37.25	23.99	8.13	-30.8	-35.9	9.7	1.29e-02	0	40	0	22020096	21	6531
2026-01-10 23:30:38.26	24.05	8.20	-30.7	-35.7	9.8	1.14e-02	0	40	0	24117248	21	6428
2026-01-10 23:30:39.26	24.10	8.28	-30.8	-36.0	9.6	1.09e-02	0	40	0	26214400	21	6567
2026-01-10 23:30:40.26	24.16	8.36	-30.7	-35.6	9.9	1.05e-02	0	40	0	28311552	21	6379
2026-01-10 23:30:41.27	24.21	8.43	-30.9	-36.7	9.1	1.61e-02	0	40	0	29360128	21	6961
2026-01-10 23:30:42.27	24.27	8.51	-30.8	-36.1	9.5	1.81e-02	0	40	0	31457280	21	6611
2026-01-10 23:30:43.28	24.32	8.59	-30.9	-36.6	9.1	1.93e-02	0	40	0	33554432	21	6943
2026-01-10 23:30:44.28	24.38	8.67	-31.1	-36.8	8.6	3.85e-02	0	40	0	35651584	22	6935
2026-01-10 23:30:45.29	24.44	8.74	-30.9	-36.5	9.3	2.48e-02	0	40	0	37748736	21	6851
2026-01-10 23:30:46.29	24.49	8.82	-30.6	-35.5	10.0	8.03e-03	0	40	0	38797312	21	6283
2026-01-10 23:30:47.30	24.55	8.90	-30.4	-34.8	10.5	6.07e-03	0	40	0	40894464	21	5932
2026-01-10 23:30:48.31	24.61	8.98	-30.3	-34.6	11.1	3.67e-03	0	40	0	42991616	20	5962
2026-01-10 23:30:49.32	24.67	9.06	-30.2	-34.3	11.3	1.11e-03	0	40	0	45088768	20	5795
2026-01-10 23:30:50.32	24.72	9.14	-30.0	-33.9	11.6	1.25e-03	0	40	0	46137344	20	5637
2026-01-10 23:30:51.32	24.78	9.22	-30.0	-33.9	11.6	1.18e-03	0	40	0	48234496	20	5613
2026-01-10 23:30:52.33	24.84	9.30	-30.1	-34.1	11.5	6.28e-04	0	40	0	50331648	20	5684
2026-01-10 23:30:53.33	24.90	9.38	-30.2	-34.4	11.3	1.53e-03	0	40	0	52428800	20	5824
2026-01-10 23:30:54.34	24.96	9.46	-30.1	-33.9	11.6	1.06e-03	0	40	0	54525952	20	5636
2026-01-10 23:30:55.34	25.02	9.54	-30.0	-33.8	11.7	6.40e-04	0	40	0	56623104	20	5575
2026-01-10 23:30:56.35	25.08	9.62	-29.9	-33.5	11.9	4.61e-04	0	40	0	57671680	20	5459
2026-01-10 23:30:57.35	25.14	9.70	-30.1	-34.0	11.6	9.48e-04	0	41	0	59768832	20	5642
2026-01-10 23:30:58.36	25.20	9.78	-30.1	-34.1	11.5	7.11e-04	0	40	0	61865984	20	5718
2026-01-10 23:30:59.36	25.26	9.86	-30.2	-34.3	11.4	8.43e-04	0	40	0	63963136	20	5776
2026-01-10 23:31:00.37	25.32	9.94	-30.0	-33.9	11.7	1.06e-03	0	41	0	65011712	20	5589
2026-01-10 23:31:01.37	25.38	10.02	-30.2	-34.3	11.4	8.27e-04	0	41	0	67108864	20	5780
2026-01-10 23:31:02.37	25.44	10.10	-30.2	-34.5	11.3	1.53e-03	0	41	0	69206016	20	5873
2026-01-10 23:31:03.38	25.50	10.19	-30.0	-33.9	11.7	6.48e-04	0	41	0	71303168	20	5604
2026-01-10 23:31:04.39	25.56	10.27	-30.1	-33.9	11.7	4.78e-04	0	41	0	73400320	20	5614
2026-01-10 23:31:05.39	25.63	10.35	-30.0	-33.7	11.9	7.59e-04	0	41	0	74448896	20	5531
2026-01-10 23:31:06.40	25.69	10.44	-30.0	-33.7	11.9	4.64e-04	0	41	0	76546048	20	5501
2026-01-10 23:31:07.40	25.75	10.52	-30.0	-33.8	11.8	5.02e-04	0	41	0	78643200	20	5553
2026-01-10 23:31:08.41	25.81	10.60	-30.1	-34.0	11.7	1.16e-03	0	41	0	80740352	20	5625
2026-01-10 23:31:09.42	25.88	10.69	-30.0	-33.5	12.0	3.36e-04	0	41	0	82837504	20	5435
2026-01-10 23:31:10.41	25.94	10.77	-29.8	-33.1	12.4	2.17e-04	0	41	0	83886080	20	5259
2026-01-10 23:31:11.42	26.01	10.85	-29.8	-33.5	12.4	6.03e-04	0	41	0	85983232	19	5517
2026-01-10 23:31:12.43	26.07	10.94	-29.8	-33.6	12.4	7.54e-04	0	41	0	88080384	19	5571
2026-01-10 23:31:13.43	26.14	11.02	-29.8	-33.5	12.5	1.24e-04	0	41	0	90177536	19	5504
2026-01-10 23:31:14.43	26.20	11.11	-29.8	-33.5	12.5	1.22e-04	0	41	0	92274688	19	5499
2026-01-10 23:31:15.43	26.27	11.19	-29.8	-33.6	12.5	6.51e-04	0	41	0	93323264	19	5549
2026-01-10 23:31:16.44	26.33	11.28	-29.8	-33.5	12.5	1.27e-04	0	41	0	95420416	19	5532
2026-01-10 23:31:17.44	26.40	11.36	-29.8	-33.4	12.6	8.46e-05	0	41	0	97517568	19	5465
2026-01-10 23:31:18.45	26.47	11.45	-29.7	-33.2	12.7	8.85e-05	0	41	0	99614720	19	5407
2026-01-10 23:31:19.45	26.53	11.54	-29.7	-33.2	12.7	1.04e-04	0	41	0	101711872	19	5397
2026-01-10 23:31:20.46	26.60	11.62	-29.6	-33.0	12.8	5.87e-05	0	41	0	102760448	19	5323
2026-01-10 23:31:21.46	26.67	11.71	-29.7	-33.1	12.8	4.88e-05	0	41	0	104857600	19	5348
2026-01-10 23:31:22.47	26.74	11.80	-29.6	-33.0	12.9	4.57e-05	0	41	0	106954752	19	5315
2026-01-10 23:31:23.47	26.81	11.88	-29.7	-33.1	12.8	3.32e-04	0	41	0	109051904	19	5336
2026-01-10 23:31:24.48	26.88	11.97	-29.6	-33.0	12.9	3.81e-05	0	41	0	111149056	19	5290
2026-01-10 23:31:25.49	26.95	12.06	-29.7	-33.1	12.9	4.95e-05	0	41	0	112197632	19	5331
2026-01-10 23:31:26.49	27.02	12.15	-29.6	-32.9	12.9	3.37e-04	0	41	0	114294784	19	5278
2026-01-10 23:31:27.50	27.09	12.24	-29.7	-33.1	12.8	5.41e-05	0	41	0	116391936	19	5356
2026-01-10 23:31:28.51	27.16	12.33	-29.7	-33.3	12.7	9.46e-05	0	41	0	118489088	19	5421
2026-01-10 23:31:29.51	27.23	12.42	-29.6	-33.0	12.9	2.74e-04	0	41	0	120586240	19	5317
2026-01-10 23:31:30.51	27.30	12.50	-29.6	-32.9	13.0	4.27e-05	0	41	0	121634816	19	5280
2026-01-10 23:31:31.52	27.37	12.59	-29.6	-32.9	13.0	3.58e-05	0	41	0	123731968	19	5280
2026-01-10 23:31:32.52	27.44	12.68	-29.6	-32.7	13.1	3.81e-05	0	41	0	125829120	19	5200
2026-01-10 23:31:33.53	27.52	12.78	-29.5	-32.6	13.2	2.05e-05	0	41	0	127926272	19	5156
2026-01-10 23:31:34.54	27.59	12.87	-29.5	-32.6	13.2	3.28e-05	0	41	0	130023424	19	5154
2026-01-10 23:31:35.54	27.66	12.96	-29.5	-32.6	13.2	1.83e-05	0	41	0	131072000	19	5149
2026-01-10 23:31:36.55	27.74	13.05	-29.4	-32.8	13.4	1.44e-05	0	41	0	133169152	18	5325
2026-01-10 23:31:37.55	27.81	13.14	-29.4	-32.9	13.4	1.44e-05	0	41	0	135266304	18	5348
2026-01-10 23:31:38.55	27.89	13.23	-29.4	-32.7	13.5	8.30e-06	0	41	0	137363456	18	5299
2026-01-10 23:31:39.55	27.96	13.32	-29.4	-32.7	13.5	1.14e-05	0	41	0	139460608	18	5276
2026-01-10 23:31:40.56	28.04	13.42	-29.3	-32.6	13.6	9.90e-06	0	41	0	140509184	18	5265
2026-01-10 23:31:41.56	28.11	13.51	-29.3	-32.6	13.6	1.06e-05	0	41	0	142606336	18	5226
2026-01-10 23:31:42.56	28.19	13.60	-29.4	-32.7	13.5	8.30e-06	0	41	0	144703488	18	5293
2026-01-10 23:31:43.57	28.27	13.69	-29.3	-32.6	13.6	6.80e-06	0	41	0	146800640	18	5254
2026-01-10 23:31:44.56	28.34	13.79	-28.3	-31.4	13.7	1.29e-05	0	41	0	147849216	18	5138
2026-01-10 23:31:45.57	28.42	13.88	-29.4	-32.9	13.5	6.80e-06	0	41	0	149946368	18	5350
2026-01-10 23:31:46.57	28.50	13.98	-29.4	-32.4	13.1	1.14e-05	0	41	0	152043520	19	5055
2026-01-10 23:31:47.56	28.58	14.07	-29.4	-32.7	13.0	1.44e-05	0	41	0	154140672	18	5264
2026-01-10 23:31:48.57	28.66	14.16	-29.4	-32.7	13.6	9.90e-06	0	41	0	156237824	18	5293
2026-01-10 23:31:49.58	28.74	14.26	-29.4	-32.7	13.6	5.30e-06	0	41	0	157286400	18	5269
2026-01-10 23:31:50.58	28.82	14.35	-29.4	-32.7	13.5	3.58e-05	0	41	0	159383552	18	5287
2026-01-10 23:31:51.58	28.90	14.45	-29.4	-32.7	13.6	1.52e-05	0	41	0	161480704	18	5281
2026-01-10 23:31:52.59	28.98	14.55	-29.4	-32.6	13.6	1.38e-04	0	41	0	163577856	18	5256
2026-01-10 23:31:53.60	29.06	14.64	-29.4	-32.7	13.5	1.02e-03	0	41	0	165675008	18	5287
2026-01-10 23:31:54.60	29.14	14.74	-29.4	-32.7	13.6	6.80e-06	0	41	0	166723584	18	5277
2026-01-10 23:31:55.61	29.23	14.84	-29.4	-32.9	13.5	5.09e-04	0	41	0	168820736	18	5338
2026-01-10 23:31:56.61	29.31	14.94	-29.5	-32.9	13.5	1.47e-03	0	41	0	170917888	18	5356
2026-01-10 23:31:57.61	29.39	15.03	-29.4	-32.3	13.5	1.98e-05	0	41	0	173015040	19	5019
2026-01-10 23:31:58.61	29.48	15.13	-29.5	-32.7	13.3	9.73e-04	0	41	0	175112192	19	5153
2026-01-10 23:31:59.61	29.56	15.23	-29.5	-32.6	13.3	1.15e-03	0	41	0	176160768	19	5130
2026-01-10 23:32:00.61	29.65	15.33	-29.7	-33.0	13.1	2.36e-05	0	41	0	178257920	19	5265
2026-01-10 23:32:01.62	29.74	15.43	-29.6	-32.9	13.2	1.25e-03	0	41	0	180355072	19	5231
2026-01-10 23:32:02.62	29.82	15.53	-29.5	-32.5	13.4	1.13e-03	0	41	0	182452224	19	5098
2026-01-10 23:32:03.63	29.91	15.63	-29.5	-32.5	13.5	1.29e-05	0	41	0	184549376	19	5069
2026-01-10 23:32:04.64	30.00	15.73	-29.5	-32.5	13.4	7.24e-04	0	41	0	185597952	19	5093
2026-01-10 23:32:05.65	30.09	15.83	-29.5	-32.6	13.4	5.41e-04	0	41	0	187695104	19	5110
2026-01-10 23:32:06.64	30.17	15.93	-29.5	-32.7	13.3	1.37e-05	0	41	0	189792256	19	5149
2026-01-10 23:32:07.65	30.26	16.03	-29.5	-32.7	13.3	9.79e-04	0	41	0	191889408	19	5148
2026-01-10 23:32:08.65	30.35	16.13	-29.5	-32.6	13.4	4.06e-04	0	41	0	193986560	19	5109
2026-01-10 23:32:09.66	30.44	16.24	-29.7	-33.0	13.1	1.98e-05	0	42	0	195035136	19	5290
2026-01-10 23:32:10.67	30.54	16.34	-29.6	-32.8	13.2	4.26e-04	0	41	0	197132288	19	5216
2026-01-10 23:32:11.67	30.63	16.44	-29.5	-32.6	13.4	5.18e-04	0	41	0	199229440	19	5129
2026-01-10 23:32:12.68	30.72	16.54	-29.6	-32.6	13.4	1.52e-05	0	41	0	201326592	19	5128
2026-01-10 23:32:13.68	30.81	16.65	-29.6	-32.6	13.4	5.97e-04	0	41	0	203423744	19	5130
2026-01-10 23:32:14.68	30.91	16.75	-29.5	-32.5	13.5	6.27e-04	0	41	0	204472320	19	5104
2026-01-10 23:32:15.69	31.00	16.86	-29.6	-32.9	13.3	2.05e-05	0	41	0	206569472	19	5209
2026-01-10 23:32:16.69	31.09	16.96	-29.6	-32.7	13.3	5.58e-04	0	41	0	208666624	19	5162
2026-01-10 23:32:17.70	31.19	17.07	-29.7	-32.9	13.2	5.12e-04	0	41	0	210763776	19	5252
2026-01-10 23:32:18.70	31.29	17.17	-29.6	-32.8	13.3	1.52e-05	0	42	0	212860928	19	5177
2026-01-10 23:32:19.71	31.38	17.28	-29.6	-32.8	13.3	3.75e-04	0	41	0	213909504	19	5180
2026-01-10 23:32:20.71	31.48	17.38	-29.6	-32.7	13.4	5.46e-04	0	41	0	216006656	19	5158
2026-01-10 23:32:21.72	31.58	17.49	-29.7	-32.9	13.3	1.52e-05	0	41	0	218103808	19	5221
2026-01-10 23:32:22.72	31.68	17.60	-29.7	-33.1	13.1	1.21e-03	0	41	0	220200960	19	5313
2026-01-10 23:32:23.73	31.78	17.71	-29.7	-33.0	13.2	5.99e-04	0	41	0	221249536	19	5259
2026-01-10 23:32:24.74	31.88	17.81	-29.8	-33.2	13.1	2.36e-05	0	42	0	223346688	19	5324
2026-01-10 23:32:25.75	31.98	17.92	-29.7	-33.0	13.2	5.01e-04	0	41	0	225443840	19	5259
2026-01-10 23:32:26.75	32.08	18.03	-29.6	-32.8	13.4	4.94e-04	0	41	0	227540992	19	5190
2026-01-10 23:32:27.76	32.18	18.14	-29.6	-32.6	13.5	9.90e-06	0	41	0	229638144	19	5127
2026-01-10 23:32:28.76	32.28	18.25	-29.5	-32.4	13.6	2.75e-04	0	41	0	231735296	19	5033
2026-01-10 23:32:29.77	32.39	18.36	-29.5	-32.4	13.6	6.01e-04	0	41	0	232783872	19	5044
2026-01-10 23:32:30.77	32.49	18.47	-29.6	-32.8	13.4	1.83e-05	0	41	0	234881024	19	5175
2026-01-10 23:32:31.77	32.60	18.58	-29.5	-32.5	13.6	2.02e-04	0	42	0	236978176	19	5060
2026-01-10 23:32:32.78	32.70	18.69	-29.4	-32.1	13.9	2.01e-04	0	41	0	239075328	19	4913
2026-01-10 23:32:33.79	32.81	18.81	-29.3	-31.9	13.9	5.30e-06	0	41	0	241172480	19	4855
2026-01-10 23:32:34.79	32.92	18.92	-29.4	-32.1	13.8	1.59e-04	0	42	0	242221056	19	4922
2026-01-10 23:32:35.80	33.03	19.03	-29.3	-31.9	14.0	1.81e-04	0	41	0	244318208	19	4846
2026-01-10 23:32:36.80	33.13	19.14	-29.4	-32.2	13.8	6.80e-06	0	42	0	246415360	19	4945
2026-01-10 23:32:37.81	33.24	19.26	-29.3	-32.0	13.9	1.75e-04	0	42	0	248512512	19	4891
2026-01-10 23:32:38.81	33.35	19.37	-29.4	-32.7	13.8	2.23e-04	0	41	0	249561088	18	5243
2026-01-10 23:32:39.82	33.46	19.48	-29.4	-32.5	13.9	4.50e-06	0	42	0	251658240	18	5183
2026-01-10 23:32:40.82	33.58	19.60	-29.4	-32.6	13.8	4.50e-06	0	42	0	253755392	18	5232
2026-01-10 23:32:41.83	33.69	19.71	-29.5	-32.4	13.7	2.57e-04	0	42	0	255852544	19	5019
2026-01-10 23:32:42.83	33.80	19.83	-29.5	-32.4	13.6	1.06e-05	0	42	0	257949696	19	5039
2026-01-10 23:32:43.84	33.92	19.94	-29.6	-32.7	13.5	1.44e-05	0	42	0	260046848	19	5125
2026-01-10 23:32:44.85	34.03	20.06	-29.6	-32.6	13.6	2.39e-04	0	42	0	261095424	19	5091
2026-01-10 23:32:45.85	34.15	20.18	-29.0	-32.1	13.6	6.10e-06	0	42	0	263192576	19	5105
2026-01-10 23:32:46.85	34.27	20.29	-29.6	-33.2	13.4	1.37e-05	0	42	0	265289728	18	5439
2026-01-10 23:32:47.86	34.38	20.41	-29.6	-32.7	13.5	1.14e-05	0	42	0	267386880	19	5150
2026-01-10 23:32:48.87	34.50	20.53	-29.8	-33.2	12.5	2.13e-05	0	41	0	268435456	19	5331
2026-01-10 23:32:49.88	34.62	20.65	-29.8	-33.1	12.7	2.26e-04	0	42	0	270532608	19	5289
2026-01-10 23:32:50.89	34.74	20.77	-29.7	-32.9	13.4	1.22e-05	0	42	0	272629760	19	5194
2026-01-10 23:32:51.89	34.86	20.89	-29.6	-32.7	13.6	1.06e-05	0	42	0	274726912	19	5138
2026-01-10 23:32:52.89	34.99	21.01	-29.7	-32.9	13.4	1.69e-04	0	42	0	276824064	19	5202
2026-01-10 23:32:53.90	35.11	21.13	-29.7	-32.9	13.4	1.44e-05	0	42	0	277872640	19	5212
2026-01-10 23:32:54.90	35.23	21.25	-29.7	-32.9	13.4	6.10e-06	0	42	0	279969792	19	5223
2026-01-10 23:32:55.91	35.36	21.37	-29.8	-33.1	13.3	1.60e-05	0	42	0	282066944	19	5282
2026-01-10 23:32:56.92	35.49	21.49	-29.7	-33.0	13.3	1.44e-05	0	42	0	284164096	19	5232
2026-01-10 23:32:57.92	35.61	21.61	-29.7	-33.0	13.3	1.52e-05	0	42	0	286261248	19	5258
2026-01-10 23:32:58.93	35.74	21.74	-29.7	-33.0	13.4	1.83e-05	0	42	0	287309824	19	5231
2026-01-10 23:32:59.93	35.87	21.86	-29.8	-33.2	13.3	1.48e-04	0	42	0	289406976	19	5306
2026-01-10 23:33:00.94	36.00	21.98	-29.8	-33.2	13.2	5.37e-04	0	42	0	291504128	19	5319
2026-01-10 23:33:01.94	36.13	22.11	-29.9	-33.5	13.0	2.59e-05	0	42	0	293601280	19	5455
2026-01-10 23:33:02.95	36.26	22.23	-29.8	-33.3	13.2	2.11e-04	0	42	0	295698432	19	5357
2026-01-10 23:33:03.96	36.40	22.36	-29.8	-33.1	13.3	9.06e-04	0	42	0	296747008	19	5296
2026-01-10 23:33:04.96	36.53	22.48	-29.9	-33.4	13.1	2.36e-05	0	42	0	298844160	19	5387
2026-01-10 23:33:05.97	36.66	22.61	-29.8	-33.3	13.2	2.51e-05	0	42	0	300941312	19	5358
2026-01-10 23:33:06.98	36.80	22.74	-29.7	-33.0	13.4	4.81e-04	0	42	0	303038464	19	5254
2026-01-10 23:33:07.98	36.94	22.86	-29.8	-33.3	13.2	5.34e-04	0	42	0	305135616	19	5340
2026-01-10 23:33:08.99	37.08	22.99	-29.8	-33.0	13.4	2.59e-05	0	42	0	306184192	19	5253
2026-01-10 23:33:09.99	37.22	23.12	-29.8	-33.1	13.4	6.76e-04	0	42	0	308281344	19	5265
2026-01-10 23:33:11.00	37.36	23.24	-29.8	-33.1	13.3	6.73e-04	0	42	0	310378496	19	5264
2026-01-10 23:33:12.01	37.50	23.37	-29.7	-32.9	13.5	1.90e-05	0	42	0	312475648	19	5193
2026-01-10 23:33:13.01	37.64	23.50	-29.7	-32.8	13.5	1.14e-05	0	42	0	314572800	19	5175
2026-01-10 23:33:14.01	37.78	23.63	-29.7	-32.9	13.5	4.81e-04	0	42	0	315621376	19	5199
2026-01-10 23:33:15.01	37.93	23.76	-29.7	-32.8	13.6	8.30e-06	0	42	0	317718528	19	5149
2026-01-10 23:33:16.01	38.07	23.89	-29.7	-32.8	13.5	9.10e-06	0	42	0	319815680	19	5167
2026-01-10 23:33:17.02	38.22	24.02	-29.7	-33.0	13.4	4.03e-04	0	42	0	321912832	19	5230
2026-01-10 23:33:18.03	38.37	24.15	-29.6	-32.7	13.7	8.30e-06	0	42	0	324009984	19	5107
2026-01-10 23:33:19.04	38.52	24.29	-29.6	-32.5	13.6	8.69e-05	0	42	0	325058560	19	5064
2026-01-10 23:33:20.05	38.67	24.42	-29.6	-32.6	13.7	1.29e-05	0	42	0	327155712	19	5067
2026-01-10 23:33:21.05	38.82	24.55	-29.6	-32.6	13.7	3.00e-06	0	42	0	329252864	19	5085
2026-01-10 23:33:22.05	38.98	24.68	-29.7	-32.9	13.5	8.30e-06	0	42	0	331350016	19	5214
2026-01-10 23:33:23.06	39.13	24.82	-29.7	-32.7	13.6	8.30e-06	0	42	0	333447168	19	5134
2026-01-10 23:33:24.06	39.29	24.95	-29.7	-32.8	13.6	5.30e-06	0	42	0	334495744	19	5156
2026-01-10 23:33:25.06	39.44	25.09	-29.7	-33.0	13.5	6.10e-06	0	42	0	336592896	19	5221
2026-01-10 23:33:26.07	39.60	25.22	-29.8	-33.1	13.4	8.30e-06	0	42	0	338690048	19	5270
2026-01-10 23:33:27.08	39.76	25.36	-29.9	-33.3	13.3	1.37e-05	0	42	0	340787200	19	5343
2026-01-10 23:33:28.08	39.93	25.49	-29.9	-33.4	13.3	2.28e-05	0	42	0	342884352	19	5372
2026-01-10 23:33:29.08	40.09	25.63	-29.9	-33.5	13.1	1.75e-05	0	42	0	343932928	19	5429
2026-01-10 23:33:30.09	40.25	25.77	-29.9	-33.4	13.2	2.67e-05	0	42	0	346030080	19	5369
2026-01-10 23:33:31.09	40.42	25.90	-30.0	-33.6	13.1	1.75e-05	0	42	0	348127232	19	5458
2026-01-10 23:33:32.10	40.58	26.04	-30.0	-33.3	12.9	3.73e-05	0	42	0	350224384	20	5234
2026-01-10 23:33:33.11	40.75	26.18	-30.2	-33.9	12.5	8.46e-05	0	42	0	352321536	20	5472
2026-01-10 23:33:34.12	40.92	26.32	-30.0	-33.2	13.0	5.26e-05	0	42	0	353370112	20	5206
2026-01-10 23:33:35.12	41.09	26.46	-30.1	-33.6	12.8	5.03e-05	0	42	0	355467264	20	5345
2026-01-10 23:33:36.13	41.27	26.60	-30.2	-33.9	12.5	6.48e-05	0	42	0	357564416	20	5467
2026-01-10 23:33:37.13	41.44	26.74	-30.0	-33.2	13.0	4.27e-05	0	42	0	359661568	20	5206
2026-01-10 23:33:38.13	41.62	26.88	-30.0	-33.2	13.0	3.50e-05	0	42	0	361758720	20	5204
2026-01-10 23:33:39.14	41.79	27.02	-30.0	-33.1	13.0	3.96e-05	0	42	0	362807296	20	5170
2026-01-10 23:33:40.14	41.97	27.16	-30.0	-33.1	13.0	3.43e-05	0	42	0	364904448	20	5172
2026-01-10 23:33:41.15	42.15	27.31	-29.8	-32.8	13.3	2.82e-05	0	42	0	367001600	20	5042
2026-01-10 23:33:42.16	42.34	27.45	-29.8	-32.6	13.4	9.90e-06	0	42	0	369098752	20	4961
2026-01-10 23:33:43.16	42.52	27.59	-29.7	-32.5	13.5	1.60e-05	0	42	0	371195904	20	4934
2026-01-10 23:33:44.17	42.70	27.74	-29.9	-32.9	13.2	1.90e-05	0	42	0	372244480	20	5069
2026-01-10 23:33:45.18	42.89	27.88	-30.0	-33.1	13.1	1.90e-05	0	42	0	374341632	20	5142
2026-01-10 23:33:46.19	43.08	28.03	-30.1	-33.5	12.9	5.26e-05	0	42	0	376438784	20	5298
2026-01-10 23:33:47.19	43.27	28.17	-30.3	-33.9	12.6	8.16e-05	0	42	0	378535936	20	5459
2026-01-10 23:33:48.19	43.46	28.31	-30.4	-34.2	12.4	9.91e-05	0	42	0	380633088	20	5587
2026-01-10 23:33:49.20	43.65	28.46	-30.5	-34.6	12.2	1.75e-04	0	42	0	381681664	20	5761
2026-01-10 23:33:50.21	43.85	28.61	-30.5	-34.0	12.1	2.49e-04	0	42	0	383778816	21	5410
2026-01-10 23:33:51.21	44.05	28.75	-30.5	-34.2	12.1	3.17e-04	0	42	0	385875968	21	5476
2026-01-10 23:33:52.22	44.25	28.90	-30.5	-34.1	12.1	3.11e-04	0	42	0	387973120	21	5454
2026-01-10 23:33:53.22	44.45	29.05	-30.6	-34.2	12.0	2.75e-04	0	42	0	390070272	21	5502
2026-01-10 23:33:54.23	44.65	29.20	-30.6	-34.3	12.0	3.71e-04	0	42	0	391118848	21	5515
2026-01-10 23:33:55.23	44.85	29.34	-30.7	-34.7	11.7	4.35e-04	0	42	0	393216000	21	5716
2026-01-10 23:33:56.23	45.06	29.49	-30.8	-34.9	11.5	9.54e-04	0	42	0	395313152	21	5815
2026-01-10 23:33:57.22	45.26	29.64	-30.8	-35.0	11.5	7.70e-04	0	42	0	397410304	21	5840
2026-01-10 23:33:58.23	45.47	29.79	-30.7	-34.8	11.6	8.12e-04	0	42	0	398458880	21	5739
2026-01-10 23:33:59.24	45.68	29.94	-30.8	-34.8	11.6	6.70e-04	0	42	0	400556032	21	5769
2026-01-10 23:34:00.24	45.90	30.09	-30.8	-34.8	11.7	6.06e-04	0	42	0	402653184	21	5766
2026-01-10 23:34:01.25	46.11	30.24	-30.7	-34.8	11.6	6.74e-04	0	42	0	404750336	21	5744
2026-01-10 23:34:02.25	46.33	30.39	-30.7	-34.7	11.8	5.64e-04	0	42	0	406847488	21	5710
2026-01-10 23:34:03.25	46.55	30.54	-30.7	-34.6	11.8	4.89e-04	0	42	0	408944640	21	5675
2026-01-10 23:34:04.26	46.77	30.69	-30.7	-34.6	11.8	4.47e-04	0	42	0	409993216	21	5642
2026-01-10 23:34:05.26	46.99	30.84	-30.8	-34.8	11.7	4.36e-04	0	42	0	412090368	21	5760
2026-01-10 23:34:06.27	47.22	31.00	-30.8	-35.0	11.5	7.29e-04	0	42	0	414187520	21	5833
2026-01-10 23:34:07.27	47.45	31.15	-30.7	-34.7	11.7	5.74e-04	0	42	0	416284672	21	5703
2026-01-10 23:34:08.27	47.67	31.30	-30.6	-34.5	11.9	4.31e-04	0	42	0	417333248	21	5592
2026-01-10 23:34:09.28	47.91	31.45	-30.6	-34.4	12.0	3.22e-04	0	42	0	419430400	21	5555
2026-01-10 23:34:10.29	48.14	31.61	-30.6	-34.2	12.1	2.62e-04	0	42	0	421527552	21	5492
2026-01-10 23:34:11.30	48.38	31.76	-30.5	-34.1	12.2	2.03e-04	0	42	0	423624704	21	5449
2026-01-10 23:34:12.30	48.62	31.92	-30.6	-34.2	12.1	2.75e-04	0	42	0	425721856	21	5489
2026-01-10 23:34:13.31	48.86	32.07	-30.5	-34.0	12.3	2.18e-04	0	42	0	426770432	21	5400
2026-01-10 23:34:14.31	49.10	32.22	-30.6	-34.3	12.0	2.55e-04	0	42	0	428867584	21	5531
2026-01-10 23:34:15.32	49.35	32.38	-30.7	-34.7	11.8	5.28e-04	0	42	0	430964736	21	5711
2026-01-10 23:34:16.32	49.59	32.53	-30.4	-33.8	12.4	2.91e-04	0	42	0	433061888	21	5324
2026-01-10 23:34:17.33	49.84	32.69	-30.3	-33.3	12.7	6.71e-05	0	42	0	435159040	21	5122
2026-01-10 23:34:18.33	50.10	32.84	-30.1	-32.8	13.1	3.96e-05	0	42	0	436207616	21	4907
2026-01-10 23:34:19.33	50.35	33.00	-30.3	-33.5	12.6	2.13e-05	0	42	0	438304768	21	5193
2026-01-10 23:34:20.34	50.61	33.16	-30.1	-32.8	13.1	4.27e-05	0	42	0	440401920	21	4927
2026-01-10 23:34:21.35	50.87	33.31	-30.0	-33.1	13.2	2.36e-05	0	42	0	442499072	20	5145
2026-01-10 23:34:22.36	51.13	33.47	-30.2	-33.6	13.0	2.51e-05	0	42	0	444596224	20	5320
2026-01-10 23:34:23.36	51.39	33.63	-30.4	-34.1	12.6	8.39e-05	0	42	0	445644800	20	5546
2026-01-10 23:34:24.37	51.66	33.78	-30.4	-34.2	12.6	8.85e-05	0	42	0	447741952	20	5563
2026-01-10 23:34:25.38	51.93	33.94	-30.5	-34.1	12.2	1.65e-04	0	42	0	449839104	21	5451
2026-01-10 23:34:26.38	52.20	34.10	-30.6	-34.4	12.1	2.47e-04	0	42	0	451936256	21	5546
2026-01-10 23:34:27.39	52.48	34.25	-30.6	-34.3	12.1	6.10e-04	0	42	0	454033408	21	5534
2026-01-10 23:34:28.40	52.76	34.41	-30.5	-33.9	12.4	1.90e-04	0	42	0	455081984	21	5351
2026-01-10 23:34:29.40	53.04	34.57	-30.3	-33.4	12.8	9.68e-05	0	42	0	457179136	21	5148
2026-01-10 23:34:30.41	53.32	34.72	-30.2	-33.1	12.9	2.87e-04	0	42	0	459276288	21	5041
2026-01-10 23:34:31.41	53.60	34.88	-30.2	-33.7	12.9	4.95e-05	0	42	0	461373440	20	5357
2026-01-10 23:34:32.41	53.89	35.04	-30.0	-33.2	13.2	4.88e-05	0	42	0	463470592	20	5169
2026-01-10 23:34:33.41	54.18	35.19	-29.8	-32.4	13.7	9.10e-06	0	42	0	464519168	20	4887
2026-01-10 23:34:34.41	54.47	35.35	-29.6	-32.0	14.0	5.72e-05	0	42	0	466616320	20	4739
2026-01-10 23:34:35.42	54.77	35.51	-29.7	-32.2	13.9	3.00e-06	0	42	0	468713472	20	4813
2026-01-10 23:34:36.42	55.07	35.66	-29.8	-33.1	13.6	2.20e-06	0	42	0	470810624	19	5230
2026-01-10 23:34:37.43	55.37	35.82	-30.0	-33.4	13.5	2.41e-04	0	42	0	472907776	19	5365
2026-01-10 23:34:38.44	55.68	35.98	-29.9	-32.7	13.6	2.05e-05	0	42	0	473956352	20	4994
2026-01-10 23:34:39.45	55.99	36.14	-30.0	-33.0	13.4	1.22e-05	0	42	0	476053504	20	5088
2026-01-10 23:34:40.45	56.29	36.29	-30.0	-33.1	13.3	2.19e-04	0	42	0	478150656	20	5129
2026-01-10 23:34:41.45	56.61	36.45	-30.0	-33.2	13.2	1.90e-05	0	42	0	480247808	20	5162
2026-01-10 23:34:42.46	56.92	36.60	-30.0	-33.1	13.3	2.59e-05	0	42	0	482344960	20	5124
2026-01-10 23:34:43.46	57.24	36.76	-29.9	-33.2	13.7	9.90e-06	0	42	0	483393536	19	5265
2026-01-10 23:34:44.47	57.57	36.91	-30.0	-32.9	13.4	1.14e-05	0	42	0	485490688	20	5074
2026-01-10 23:34:45.47	57.89	37.07	-30.1	-33.3	13.2	5.90e-04	0	42	0	487587840	20	5205
2026-01-10 23:34:46.47	58.22	37.22	-30.2	-33.6	13.0	2.59e-05	0	42	0	489684992	20	5305
2026-01-10 23:34:47.48	58.55	37.38	-30.3	-33.9	12.8	6.40e-05	0	42	0	491782144	20	5441
2026-01-10 23:34:48.49	58.89	37.53	-30.4	-34.2	12.5	4.24e-04	0	42	0	492830720	20	5579
2026-01-10 23:34:49.50	59.23	37.69	-30.6	-34.3	12.1	2.57e-04	0	42	0	494927872	21	5515
2026-01-10 23:34:50.50	59.57	37.84	-30.8	-34.7	11.9	5.17e-04	0	42	0	497025024	21	5691
2026-01-10 23:34:51.50	59.91	37.99	-30.8	-35.0	11.7	6.00e-04	0	42	0	499122176	21	5803
2026-01-10 23:34:52.51	60.26	38.15	-30.9	-35.3	11.5	8.36e-04	0	42	0	501219328	21	5940
2026-01-10 23:34:53.51	60.61	38.30	-31.0	-35.4	11.4	6.61e-04	0	42	0	502267904	21	5988
2026-01-10 23:34:54.52	60.96	38.45	-31.2	-35.6	10.9	1.74e-03	0	42	0	504365056	22	5963
2026-01-10 23:34:55.52	61.32	38.60	-31.2	-35.8	10.8	3.20e-03	0	42	0	506462208	22	6075
2026-01-10 23:34:56.53	61.68	38.75	-31.2	-35.7	10.9	2.07e-03	0	42	0	508559360	22	6017
2026-01-10 23:34:57.53	62.04	38.90	-31.3	-35.9	10.7	3.03e-03	0	42	0	510656512	22	6125
2026-01-10 23:34:58.54	62.41	39.05	-31.4	-36.3	10.4	3.18e-03	0	42	0	511705088	22	6317
2026-01-10 23:34:59.54	62.78	39.20	-31.4	-36.4	10.4	5.52e-03	0	42	0	513802240	22	6358
2026-01-10 23:35:00.55	63.16	39.35	-31.3	-36.0	10.7	3.27e-03	0	42	0	515899392	22	6154
2026-01-10 23:35:01.55	63.53	39.50	-31.2	-35.7	10.8	3.01e-03	0	42	0	517996544	22	6016
2026-01-10 23:35:02.56	63.91	39.64	-31.1	-35.3	11.1	1.64e-03	0	42	0	520093696	22	5849
2026-01-10 23:35:03.56	64.30	39.79	-31.0	-34.9	11.5	1.16e-03	0	42	0	521142272	22	5635
2026-01-10 23:35:04.57	64.69	39.93	-31.1	-35.3	11.2	1.16e-03	0	42	0	523239424	22	5828
2026-01-10 23:35:05.57	65.08	40.08	-31.0	-34.9	11.4	1.28e-03	0	42	0	525336576	22	5665
2026-01-10 23:35:06.58	65.47	40.22	-30.9	-34.6	11.7	8.48e-04	0	42	0	527433728	22	5502
2026-01-10 23:35:07.59	65.87	40.37	-30.7	-34.1	12.0	3.81e-04	0	42	0	529530880	22	5300
2026-01-10 23:35:08.60	66.28	40.51	-30.8	-34.2	12.0	2.67e-04	0	42	0	530579456	22	5358
2026-01-10 23:35:09.60	66.68	40.65	-30.7	-34.1	12.0	3.42e-04	0	42	0	532676608	22	5287
2026-01-10 23:35:10.61	67.09	40.79	-30.8	-34.3	12.0	4.00e-04	0	42	0	534773760	22	5376
2026-01-10 23:35:11.61	67.50	40.93	-30.7	-33.9	12.1	3.14e-04	0	42	0	536870912	22	5229
2026-01-10 23:35:12.62	67.92	41.06	-30.5	-34.0	12.4	2.72e-04	0	42	0	538968064	21	5359
2026-01-10 23:35:13.62	68.33	41.20	-30.7	-34.5	12.1	1.65e-04	0	42	0	540016640	21	5598
2026-01-10 23:35:14.63	68.76	41.33	-31.1	-35.4	11.2	7.96e-04	0	42	0	542113792	22	5864
2026-01-10 23:35:15.64	69.18	41.47	-31.3	-36.0	10.7	2.94e-03	0	42	0	544210944	22	6144
2026-01-10 23:35:16.64	69.61	41.60	-31.6	-36.4	10.0	3.66e-03	0	42	0	546308096	23	6273
2026-01-10 23:35:17.65	70.05	41.73	-31.5	-36.0	10.4	6.79e-03	0	42	0	548405248	23	6049
2026-01-10 23:35:18.65	70.48	41.86	-31.2	-34.9	11.1	2.78e-03	0	42	0	549453824	23	5548
2026-01-10 23:35:19.66	70.92	41.99	-31.0	-34.6	11.4	1.27e-03	0	42	0	551550976	23	5400
2026-01-10 23:35:20.67	71.37	42.12	-31.0	-34.3	11.6	7.56e-04	0	42	0	553648128	23	5272
2026-01-10 23:35:21.67	71.81	42.24	-31.1	-34.7	11.3	9.76e-04	0	42	0	555745280	23	5469
2026-01-10 23:35:22.67	72.26	42.37	-31.3	-35.4	10.7	2.03e-03	0	42	0	556793856	23	5779
2026-01-10 23:35:23.68	72.72	42.49	-31.5	-36.0	10.3	2.97e-03	0	42	0	558891008	23	6041
2026-01-10 23:35:24.68	73.17	42.61	-31.6	-36.4	10.0	6.51e-03	0	42	0	560988160	23	6238
2026-01-10 23:35:25.69	73.63	42.73	-31.5	-36.1	10.3	6.37e-03	0	42	0	563085312	23	6114
2026-01-10 23:35:26.70	74.10	42.85	-31.3	-35.5	10.7	4.01e-03	0	42	0	565182464	23	5805
2026-01-10 23:35:27.70	74.56	42.96	-31.4	-35.6	10.7	2.87e-03	0	42	0	567279616	23	5851
2026-01-10 23:35:28.71	75.04	43.08	-31.5	-36.0	10.3	3.72e-03	0	42	0	568328192	23	6049
2026-01-10 23:35:29.71	75.51	43.19	-31.5	-36.1	10.2	6.24e-03	0	42	0	570425344	23	6113
2026-01-10 23:35:30.72	75.99	43.30	-31.6	-36.4	10.1	6.63e-03	0	42	0	572522496	23	6250
2026-01-10 23:35:31.73	76.47	43.41	-31.5	-36.1	10.3	6.47e-03	0	42	0	574619648	23	6119
2026-01-10 23:35:32.74	76.96	43.52	-31.7	-36.6	9.9	7.96e-03	0	42	0	576716800	23	6381
2026-01-10 23:35:33.73	77.44	43.62	-31.6	-36.3	10.1	8.76e-03	0	42	0	577765376	23	6216
2026-01-10 23:35:34.73	77.92	43.72	-31.4	-35.8	10.5	4.42e-03	0	42	0	579862528	23	5949
2026-01-10 23:35:35.74	78.42	43.83	-31.3	-35.3	10.9	2.56e-03	0	42	0	581959680	23	5694
2026-01-10 23:35:36.75	78.92	43.92	-31.5	-35.9	10.5	2.76e-03	0	42	0	584056832	23	5974
2026-01-10 23:35:37.75	79.41	44.02	-31.4	-35.7	10.6	4.69e-03	0	42	0	585105408	23	5921
2026-01-10 23:35:38.75	79.91	44.12	-31.3	-35.3	11.0	4.62e-03	0	42	0	587202560	23	5705
2026-01-10 23:35:39.76	80.42	44.21	-31.5	-36.1	10.3	3.22e-03	0	42	0	589299712	23	6099
2026-01-10 23:35:40.76	80.93	44.30	-31.2	-35.0	11.0	2.41e-03	0	42	0	591396864	23	5589
2026-01-10 23:35:41.77	81.44	44.39	-30.9	-33.9	11.8	6.18e-04	0	42	0	593494016	23	5134
2026-01-10 23:35:42.77	81.95	44.47	-30.9	-34.0	11.8	6.66e-04	0	42	0	594542592	23	5146
2026-01-10 23:35:43.77	82.47	44.55	-31.1	-35.3	11.3	5.48e-04	0	42	0	596639744	22	5809
2026-01-10 23:35:44.77	82.98	44.64	-30.8	-34.2	12.0	5.03e-04	0	42	0	598736896	22	5331
2026-01-10 23:35:45.78	83.51	44.71	-30.8	-34.3	12.0	3.39e-04	0	42	0	600834048	22	5380
2026-01-10 23:35:46.79	84.03	44.79	-31.0	-35.0	11.5	4.63e-04	0	42	0	602931200	22	5665
2026-01-10 23:35:47.79	84.56	44.86	-30.9	-34.7	11.7	8.44e-04	0	42	0	603979776	22	5540
2026-01-10 23:35:48.79	85.08	44.94	-30.9	-34.6	11.9	7.09e-04	0	42	0	606076928	22	5478
2026-01-10 23:35:49.80	85.62	45.00	-30.9	-34.5	11.8	4.71e-04	0	42	0	608174080	22	5465
2026-01-10 23:35:50.80	86.15	45.07	-30.8	-34.3	12.0	3.73e-04	0	42	0	610271232	22	5381
2026-01-10 23:35:51.80	86.68	45.13	-30.6	-33.8	12.4	2.13e-04	0	42	0	612368384	22	5153
2026-01-10 23:35:52.80	87.22	45.19	-30.6	-33.6	12.5	1.21e-04	0	42	0	613416960	22	5094
2026-01-10 23:35:53.80	87.75	45.25	-30.7	-34.0	12.2	1.78e-04	0	42	0	615514112	22	5264
2026-01-10 23:35:54.80	88.29	45.31	-30.8	-34.3	11.9	4.13e-04	0	42	0	617611264	22	5395
2026-01-10 23:35:55.80	88.83	45.36	-30.4	-33.0	12.8	1.84e-04	0	42	0	619708416	22	4849
2026-01-10 23:35:56.80	89.37	45.41	-30.1	-32.8	13.4	2.51e-05	0	42	0	621805568	21	4892
2026-01-10 23:35:57.81	89.92	45.46	-29.8	-32.0	13.8	1.60e-05	0	42	0	622854144	21	4637
2026-01-10 23:35:58.82	90.48	45.50	-30.0	-32.4	13.6	1.14e-05	0	42	0	624951296	21	4750
2026-01-10 23:35:59.83	91.03	45.55	-30.0	-32.3	13.7	9.10e-06	0	42	0	627048448	21	4735
2026-01-10 23:36:00.84	91.58	45.58	-29.9	-32.2	13.8	3.50e-05	0	42	0	629145600	21	4678
2026-01-10 23:36:01.84	92.13	45.62	-30.1	-32.7	13.4	4.50e-06	0	42	0	631242752	21	4860
2026-01-10 23:36:02.85	92.69	45.65	-30.0	-33.0	13.5	1.22e-05	0	42	0	632291328	20	5080
2026-01-10 23:36:03.85	93.24	45.69	-30.2	-33.4	13.3	1.67e-05	0	42	0	634388480	20	5232
2026-01-10 23:36:04.85	93.80	45.71	-30.2	-33.6	13.2	3.20e-05	0	42	0	636485632	20	5285
2026-01-10 23:36:05.86	94.36	45.74	-30.2	-33.7	13.1	2.67e-05	0	42	0	638582784	20	5334
2026-01-10 23:36:06.87	94.92	45.76	-30.2	-33.4	13.2	4.04e-05	0	42	0	640679936	20	5248
2026-01-10 23:36:07.87	95.47	45.78	-30.0	-32.9	13.5	1.14e-05	0	42	0	641728512	20	5040
2026-01-10 23:36:08.88	96.03	45.79	-29.9	-32.6	13.8	5.30e-06	0	42	0	643825664	20	4919
2026-01-10 23:36:09.88	96.59	45.81	-29.9	-32.7	13.8	3.00e-06	0	42	0	645922816	20	4954
2026-01-10 23:36:10.89	97.15	45.82	-29.7	-32.2	14.1	3.00e-06	0	42	0	648019968	20	4775
2026-01-10 23:36:11.89	97.71	45.82	-29.7	-32.2	14.0	1.50e-06	0	42	0	650117120	20	4795
2026-01-10 23:36:12.90	98.28	45.83	-29.8	-32.4	13.9	6.80e-06	0	42	0	651165696	20	4850
2026-01-10 23:36:13.91	98.84	45.83	-29.9	-32.8	13.7	3.00e-06	0	42	0	653262848	20	5007
2026-01-10 23:36:14.92	99.40	45.83	-29.9	-32.8	13.6	7.60e-06	0	42	0	655360000	20	5005
2026-01-10 23:36:15.92	99.96	45.82	-30.1	-33.4	13.4	1.60e-05	0	42	0	657457152	20	5220
2026-01-10 23:36:16.93	100.53	45.82	-29.9	-32.7	13.7	1.67e-05	0	42	0	658505728	20	4983
2026-01-10 23:36:17.93	101.08	45.81	-29.8	-32.4	14.0	5.30e-06	0	42	0	660602880	20	4860
2026-01-10 23:36:18.94	101.65	45.79	-29.9	-32.7	13.7	1.62e-04	0	42	0	662700032	20	4963
2026-01-10 23:36:19.94	102.20	45.78	-29.9	-32.6	13.8	4.50e-06	0	42	0	664797184	20	4929
2026-01-10 23:36:20.95	102.76	45.76	-30.2	-33.6	13.1	3.66e-05	0	42	0	666894336	20	5305
2026-01-10 23:36:21.95	103.32	45.73	-30.3	-33.8	13.0	3.58e-05	0	42	0	668991488	20	5380
2026-01-10 23:36:22.96	103.88	45.71	-30.8	-34.9	11.8	9.30e-05	0	42	0	670040064	21	5753
2026-01-10 23:36:23.96	104.43	45.68	-30.8	-34.7	12.0	4.77e-04	0	42	0	672137216	21	5637
2026-01-10 23:36:24.96	104.99	45.65	-30.9	-35.1	11.8	4.29e-04	0	42	0	674234368	21	5851
2026-01-10 23:36:25.97	105.54	45.62	-31.2	-35.4	11.2	8.93e-04	0	42	0	676331520	22	5875
2026-01-10 23:36:26.97	106.09	45.58	-31.4	-36.0	10.7	2.34e-03	0	42	0	677380096	22	6170
2026-01-10 23:36:27.97	106.64	45.54	-31.8	-37.0	9.6	9.27e-03	0	42	0	679477248	23	6593
2026-01-10 23:36:28.98	107.19	45.50	-32.0	-37.3	9.1	2.65e-02	0	42	0	681574400	24	6613
2026-01-10 23:36:29.98	107.74	45.45	-31.6	-35.9	10.2	1.22e-02	0	42	0	683671552	24	5873
2026-01-10 23:36:30.99	108.29	45.40	-31.2	-34.9	11.1	1.91e-03	0	42	0	685768704	23	5536
2026-01-10 23:36:31.99	108.83	45.35	-31.0	-34.4	11.6	7.19e-04	0	42	0	686817280	23	5310
2026-01-10 23:36:33.00	109.38	45.30	-31.0	-34.4	11.6	6.01e-04	0	42	0	688914432	23	5327
2026-01-10 23:36:34.00	109.92	45.24	-31.2	-34.8	11.3	7.39e-04	0	42	0	691011584	23	5484
2026-01-10 23:36:35.01	110.46	45.18	-30.9	-34.1	11.8	5.79e-04	0	42	0	693108736	23	5182
2026-01-10 23:36:36.01	111.00	45.12	-31.1	-34.8	11.3	1.13e-03	0	42	0	695205888	23	5480
2026-01-10 23:36:37.01	111.53	45.06	-30.7	-33.8	12.3	5.91e-04	0	42	0	696254464	22	5157
2026-01-10 23:36:38.01	112.06	44.99	-30.5	-33.3	12.7	5.11e-05	0	42	0	698351616	22	4958
2026-01-10 23:36:39.01	112.59	44.92	-30.7	-33.9	12.3	9.53e-05	0	42	0	700448768	22	5218
2026-01-10 23:36:40.01	113.12	44.85	-31.2	-35.3	11.3	6.11e-04	0	42	0	702545920	22	5816
2026-01-10 23:36:41.01	113.64	44.78	-30.9	-34.4	11.9	4.26e-04	0	42	0	704643072	22	5411
2026-01-10 23:36:42.01	114.16	44.70	-30.5	-33.4	12.6	1.82e-04	0	42	0	705691648	22	5029
2026-01-10 23:36:43.01	114.68	44.62	-30.5	-33.3	12.7	5.64e-05	0	42	0	707788800	22	4981
2026-01-10 23:36:44.01	115.20	44.54	-30.5	-33.4	12.6	8.31e-05	0	42	0	709885952	22	5015
2026-01-10 23:36:45.02	115.72	44.46	-30.7	-33.9	12.3	1.60e-04	0	42	0	711983104	22	5215
2026-01-10 23:36:46.02	116.23	44.37	-30.6	-33.7	12.4	2.29e-04	0	42	0	714080256	22	5115
2026-01-10 23:36:47.02	116.74	44.28	-30.0	-32.4	13.6	3.81e-05	0	42	0	715128832	21	4745
2026-01-10 23:36:48.01	117.24	44.20	-29.6	-32.0	14.2	1.50e-06	0	42	0	717225984	20	4704
2026-01-10 23:36:49.00	117.74	44.10	-29.9	-32.7	13.8	3.80e-06	0	42	0	719323136	20	4957
2026-01-10 23:36:49.99	118.23	44.01	-30.3	-33.7	13.1	1.90e-05	0	42	0	721420288	20	5359
2026-01-10 23:36:50.98	118.72	43.91	-30.2	-33.6	13.1	3.89e-05	0	42	0	722468864	20	5291
2026-01-10 23:36:51.99	119.22	43.81	-29.6	-31.9	14.3	3.80e-06	0	42	0	724566016	20	4679
2026-01-10 23:36:52.99	119.72	43.71	-29.2	-31.4	14.9	7.00e-07	0	42	0	726663168	19	4621
2026-01-10 23:36:53.98	120.20	43.61	-29.4	-31.8	14.7	0.00e+00	0	42	0	728760320	19	4737
2026-01-10 23:36:54.98	120.68	43.51	-29.5	-32.1	14.5	0.00e+00	0	42	0	730857472	19	4866
2026-01-10 23:36:55.97	121.16	43.40	-29.5	-32.0	14.6	1.50e-06	0	42	0	731906048	19	4820
2026-01-10 23:36:56.98	121.64	43.29	-29.4	-31.8	14.7	7.00e-07	0	42	0	734003200	19	4763
2026-01-10 23:36:57.98	122.12	43.18	-29.6	-32.3	14.4	7.00e-07	0	42	0	736100352	19	4911
2026-01-10 23:36:58.99	122.60	43.07	-29.5	-32.1	14.4	7.00e-07	0	42	0	738197504	19	4874
2026-01-10 23:36:59.99	123.07	42.95	-29.7	-32.6	14.2	2.20e-06	0	42	0	740294656	19	5030
2026-01-10 23:37:00.99	123.53	42.84	-29.4	-31.9	14.7	7.00e-07	0	42	0	741343232	19	4766
2026-01-10 23:37:02.00	124.00	42.72	-28.9	-30.7	15.3	0.00e+00	0	42	0	743440384	19	4387
2026-01-10 23:37:03.00	124.46	42.60	-28.7	-30.5	15.7	0.00e+00	0	42	0	745537536	18	4456
2026-01-10 23:37:04.00	124.91	42.48	-28.8	-30.8	15.6	0.00e+00	0	42	0	747634688	18	4541
2026-01-10 23:37:05.01	125.37	42.35	-29.2	-31.8	15.0	0.00e+00	0	42	0	749731840	18	4850
2026-01-10 23:37:06.00	125.81	42.23	-29.7	-32.5	14.2	0.00e+00	0	42	0	750780416	19	5008
2026-01-10 23:37:07.00	126.26	42.11	-29.2	-31.4	14.9	1.50e-06	0	42	0	752877568	19	4608
2026-01-10 23:37:08.01	126.71	41.98	-28.7	-30.6	15.7	0.00e+00	0	42	0	754974720	18	4470
2026-01-10 23:37:09.02	127.15	41.85	-28.6	-30.4	15.8	0.00e+00	0	42	0	757071872	18	4412
2026-01-10 23:37:10.02	127.58	41.72	-28.8	-30.8	15.6	0.00e+00	0	42	0	758120448	18	4535
2026-01-10 23:37:11.02	128.01	41.59	-28.9	-31.2	15.4	0.00e+00	0	42	0	760217600	18	4649
2026-01-10 23:37:12.02	128.44	41.46	-29.0	-31.4	15.3	0.00e+00	0	42	0	762314752	18	4727
2026-01-10 23:37:13.03	128.87	41.32	-29.1	-31.5	15.1	0.00e+00	0	42	0	764411904	18	4764
2026-01-10 23:37:14.03	129.29	41.19	-29.0	-31.2	15.3	0.00e+00	0	42	0	766509056	18	4674
2026-01-10 23:37:15.03	129.71	41.05	-29.1	-31.6	15.1	0.00e+00	0	42	0	767557632	18	4802
2026-01-10 23:37:16.04	130.13	40.91	-29.3	-32.1	14.8	0.00e+00	0	42	0	769654784	18	4980
2026-01-10 23:37:17.05	130.54	40.77	-29.3	-32.1	14.7	0.00e+00	0	42	0	771751936	18	4984
2026-01-10 23:37:18.05	130.95	40.63	-29.0	-31.3	15.3	0.00e+00	0	42	0	773849088	18	4694
2026-01-10 23:37:19.06	131.36	40.49	-29.0	-31.4	15.2	0.00e+00	0	42	0	775946240	18	4745
2026-01-10 23:37:20.06	131.76	40.35	-29.6	-32.5	14.3	0.00e+00	0	42	0	776994816	19	4985
2026-01-10 23:37:21.07	132.16	40.21	-30.0	-32.9	13.5	3.00e-06	0	42	0	779091968	20	5056
2026-01-10 23:37:22.06	132.55	40.06	-30.2	-33.7	13.1	1.98e-05	0	42	0	781189120	20	5338
2026-01-10 23:37:23.05	132.94	39.92	-29.5	-31.8	14.3	8.30e-06	0	42	0	783286272	20	4652
2026-01-10 23:37:24.04	133.32	39.78	-29.1	-31.2	15.0	0.00e+00	0	42	0	785383424	19	4557
2026-01-10 23:37:25.03	133.70	39.63	-29.4	-31.9	14.6	0.00e+00	0	42	0	786432000	19	4796
2026-01-10 23:37:26.04	134.08	39.49	-30.3	-33.9	12.9	1.37e-05	0	42	0	788529152	20	5448
2026-01-10 23:37:27.05	134.46	39.34	-30.7	-34.4	12.2	1.97e-04	0	42	0	790626304	21	5560
2026-01-10 23:37:28.05	134.83	39.19	-30.1	-32.7	13.3	8.92e-05	0	42	0	792723456	21	4855
2026-01-10 23:37:29.05	135.20	39.04	-29.4	-31.3	14.6	4.50e-06	0	42	0	794820608	20	4485
2026-01-10 23:37:30.05	135.57	38.89	-29.3	-31.7	14.8	0.00e+00	0	42	0	795869184	19	4706
2026-01-10 23:37:31.05	135.93	38.74	-29.8	-33.0	13.9	1.50e-06	0	42	0	797966336	19	5194
2026-01-10 23:37:32.04	136.29	38.59	-30.0	-33.1	13.4	4.50e-06	0	42	0	800063488	20	5115
2026-01-10 23:37:33.04	136.65	38.44	-30.3	-33.8	13.0	4.73e-05	0	42	0	802160640	20	5412
2026-01-10 23:37:34.05	137.00	38.29	-29.9	-32.7	13.6	2.28e-05	0	42	0	803209216	20	4972
2026-01-10 23:37:35.05	137.35	38.13	-29.3	-31.6	14.8	7.00e-07	0	42	0	805306368	19	4689
2026-01-10 23:37:36.05	137.70	37.98	-29.0	-30.9	15.2	0.00e+00	0	42	0	807403520	19	4471
2026-01-10 23:37:37.05	138.04	37.83	-29.7	-32.7	14.1	7.00e-07	0	42	0	809500672	19	5074
2026-01-10 23:37:38.06	138.39	37.67	-30.3	-33.7	13.0	9.90e-06	0	42	0	811597824	20	5364
2026-01-10 23:37:39.07	138.73	37.52	-31.2	-35.5	11.1	3.40e-04	0	42	0	812646400	22	5928
2026-01-10 23:37:40.06	139.06	37.37	-31.1	-35.2	11.2	1.96e-03	0	42	0	814743552	22	5766
2026-01-10 23:37:41.06	139.39	37.21	-30.1	-32.7	13.3	1.04e-04	0	42	0	816840704	21	4868
2026-01-10 23:37:42.06	139.72	37.06	-29.4	-31.6	14.3	2.20e-06	0	42	0	818937856	20	4618
2026-01-10 23:37:43.07	140.05	36.90	-29.8	-32.4	13.9	1.50e-06	0	42	0	821035008	20	4877
2026-01-10 23:37:44.08	140.37	36.74	-30.6	-34.3	12.0	6.79e-05	0	42	0	822083584	21	5516
2026-01-10 23:37:45.09	140.70	36.58	-31.4	-36.3	10.5	1.37e-03	0	42	0	824180736	22	6316
2026-01-10 23:37:46.09	141.01	36.43	-31.2	-35.4	11.1	2.47e-03	0	42	0	826277888	22	5901
2026-01-10 23:37:47.10	141.33	36.27	-30.5	-34.0	12.4	3.89e-04	0	42	0	828375040	21	5391
2026-01-10 23:37:48.10	141.64	36.11	-30.1	-32.8	13.2	2.44e-05	0	42	0	830472192	21	4900
2026-01-10 23:37:49.10	141.94	35.96	-30.1	-32.6	13.4	1.14e-05	0	42	0	831520768	21	4842
2026-01-10 23:37:50.10	142.25	35.80	-30.7	-34.3	12.2	4.64e-04	0	42	0	833617920	21	5501
2026-01-10 23:37:51.10	142.55	35.64	-30.9	-35.0	11.8	2.23e-04	0	42	0	835715072	21	5782
2026-01-10 23:37:52.11	142.85	35.49	-31.6	-36.3	10.1	1.84e-03	0	42	0	837812224	23	6234
2026-01-10 23:37:53.11	143.15	35.33	-31.8	-37.2	9.4	1.68e-02	0	42	0	839909376	23	6685
2026-01-10 23:37:54.11	143.44	35.17	-31.4	-36.1	10.7	6.81e-03	0	42	0	840957952	22	6188
2026-01-10 23:37:55.12	143.73	35.01	-30.6	-33.8	12.3	7.20e-04	0	42	0	843055104	22	5162
2026-01-10 23:37:56.13	144.02	34.85	-30.4	-33.5	12.8	1.04e-04	0	42	0	845152256	21	5169
2026-01-10 23:37:57.13	144.31	34.70	-30.6	-34.2	12.4	1.08e-03	0	42	0	847249408	21	5439
2026-01-10 23:37:58.13	144.59	34.54	-30.9	-35.3	11.6	3.24e-04	0	42	0	848297984	21	5928
2026-01-10 23:37:59.14	144.87	34.38	-31.8	-37.2	9.4	4.23e-03	0	42	0	850395136	23	6727
2026-01-10 23:38:00.15	145.15	34.22	-31.8	-37.2	9.3	1.93e-02	0	42	0	852492288	23	6719
2026-01-10 23:38:01.15	145.43	34.07	-31.8	-37.2	9.3	2.10e-02	0	42	0	854589440	23	6721
2026-01-10 23:38:02.15	145.70	33.91	-31.7	-37.0	9.5	2.11e-02	0	42	0	856686592	23	6614
2026-01-10 23:38:03.16	145.97	33.75	-31.9	-37.8	9.0	2.32e-02	0	42	0	857735168	23	7059
2026-01-10 23:38:04.16	146.23	33.59	-32.1	-38.0	8.3	4.64e-02	0	42	0	859832320	24	7100
2026-01-10 23:38:05.16	146.50	33.44	-31.9	-37.6	9.0	2.86e-02	0	42	0	861929472	23	6964
2026-01-10 23:38:06.18	146.76	33.28	-32.1	-37.9	8.5	2.48e-02	0	42	0	864026624	24	7008
2026-01-10 23:38:07.18	147.02	33.12	-32.5	-39.5	6.9	1.30e-01	0	42	0	866123776	25	8032
2026-01-10 23:38:08.19	147.28	32.97	-32.7	-40.5	6.2	2.69e-01	0	42	0	868220928	25	8864
2026-01-10 23:38:09.20	147.54	32.81	-32.6	-40.0	6.4	3.08e-01	0	42	0	869269504	25	8418
2026-01-10 23:38:10.20	147.79	32.65	-32.3	-38.2	7.8	1.22e-01	0	42	0	871366656	25	7155
2026-01-10 23:38:11.21	148.04	32.50	-31.9	-37.0	9.1	4.02e-02	0	42	0	873463808	24	6500
2026-01-10 23:38:12.22	148.29	32.34	-31.8	-37.0	9.5	1.88e-02	0	42	0	875560960	23	6607
2026-01-10 23:38:13.23	148.54	32.18	-31.7	-36.9	9.6	1.49e-02	0	42	0	876609536	23	6529
2026-01-10 23:38:14.23	148.78	32.03	-32.0	-38.1	8.7	2.34e-02	0	42	0	878706688	23	7226
2026-01-10 23:38:15.24	149.02	31.87	-32.6	-39.8	6.6	1.25e-01	0	42	0	880803840	25	8288
2026-01-10 23:38:16.25	149.26	31.72	-32.8	-41.1	5.8	2.95e-01	0	42	0	882900992	25	9421
2026-01-10 23:38:17.25	149.50	31.56	-33.0	-42.5	4.8	7.68e-01	0	42	0	884998144	26	10667
2026-01-10 23:38:18.26	149.74	31.41	-32.9	-41.8	5.3	6.84e-01	0	42	0	886046720	25	10040
2026-01-10 23:38:19.27	149.97	31.25	-32.5	-39.3	6.9	3.67e-01	0	42	0	888143872	25	7882
2026-01-10 23:38:20.27	150.20	31.10	-31.6	-35.9	9.8	2.70e-02	0	42	0	890241024	24	5938
2026-01-10 23:38:21.27	150.43	30.95	-30.8	-34.3	11.8	4.04e-03	0	42	0	892338176	22	5386
2026-01-10 23:38:22.28	150.65	30.79	-30.2	-33.1	13.0	1.38e-04	0	42	0	894435328	21	5015
2026-01-10 23:38:23.29	150.88	30.64	-30.0	-33.0	13.4	1.36e-03	0	42	0	896532480	20	5090
2026-01-10 23:38:24.29	151.10	30.49	-30.1	-33.4	13.1	2.18e-03	0	42	0	897581056	20	5246
2026-01-10 23:38:25.29	151.32	30.34	-30.7	-34.6	11.9	1.23e-04	0	42	0	899678208	21	5662
2026-01-10 23:38:26.30	151.54	30.18	-31.3	-36.0	10.5	2.54e-03	0	42	0	901775360	22	6187
2026-01-10 23:38:27.31	151.75	30.03	-31.6	-36.5	9.8	1.02e-02	0	42	0	903872512	23	6338
2026-01-10 23:38:28.32	151.97	29.88	-31.6	-36.5	9.8	9.72e-03	0	42	0	904921088	23	6327
2026-01-10 23:38:29.32	152.18	29.73	-31.4	-36.3	10.4	1.12e-02	0	42	0	907018240	22	6327
2026-01-10 23:38:30.32	152.39	29.58	-31.1	-35.5	10.9	2.57e-03	0	42	0	909115392	22	5957
2026-01-10 23:38:31.33	152.60	29.43	-31.1	-35.4	11.0	2.17e-03	0	42	0	911212544	22	5927
2026-01-10 23:38:32.33	152.80	29.28	-31.2	-35.8	10.7	4.25e-03	0	42	0	913309696	22	6080
2026-01-10 23:38:33.34	153.01	29.13	-31.0	-35.5	11.2	1.05e-03	0	42	0	914358272	21	6062
2026-01-10 23:38:34.35	153.21	28.98	-31.2	-35.8	10.7	1.74e-03	0	42	0	916455424	22	6128
2026-01-10 23:38:35.35	153.41	28.84	-31.4	-36.4	10.1	7.67e-03	0	42	0	918552576	22	6426
2026-01-10 23:38:36.35	153.61	28.69	-31.5	-36.4	9.8	8.34e-03	0	42	0	920649728	23	6305
2026-01-10 23:38:37.36	153.81	28.54	-31.7	-37.2	9.2	1.53e-02	0	42	0	922746880	23	6778
2026-01-10 23:38:38.37	154.00	28.39	-31.7	-37.2	9.2	3.51e-02	0	42	0	923795456	23	6750
2026-01-10 23:38:39.37	154.20	28.25	-31.1	-35.0	10.8	1.34e-02	0	42	0	925892608	23	5629
2026-01-10 23:38:40.37	154.39	28.10	-31.0	-34.6	11.2	8.76e-04	0	42	0	927989760	23	5428
2026-01-10 23:38:41.38	154.58	27.96	-30.3	-33.4	12.7	4.58e-04	0	42	0	930086912	21	5143
2026-01-10 23:38:42.39	154.77	27.81	-30.2	-33.5	12.9	1.08e-03	0	42	0	932184064	20	5311
2026-01-10 23:38:43.39	154.95	27.67	-30.0	-33.1	13.2	2.21e-05	0	42	0	933232640	20	5135
2026-01-10 23:38:44.39	155.14	27.52	-29.9	-32.7	13.4	2.28e-05	0	42	0	935329792	20	5009
2026-01-10 23:38:45.40	155.32	27.38	-30.1	-33.3	13.1	1.15e-03	0	42	0	937426944	20	5222
2026-01-10 23:38:46.41	155.51	27.23	-30.2	-33.6	12.9	4.57e-05	0	42	0	939524096	20	5331
2026-01-10 23:38:47.42	155.69	27.09	-30.4	-34.2	12.5	9.00e-05	0	42	0	941621248	20	5585
2026-01-10 23:38:48.43	155.87	26.95	-30.5	-33.9	12.3	1.83e-04	0	42	0	942669824	21	5365
2026-01-10 23:38:49.43	156.04	26.80	-30.3	-33.4	12.6	1.62e-04	0	42	0	944766976	21	5172
2026-01-10 23:38:50.44	156.22	26.66	-30.2	-33.8	12.8	8.08e-05	0	42	0	946864128	20	5414
2026-01-10 23:38:51.45	156.39	26.52	-30.1	-33.4	13.0	5.79e-05	0	42	0	948961280	20	5264
2026-01-10 23:38:52.46	156.57	26.38	-29.8	-32.7	13.5	1.44e-05	0	42	0	951058432	20	4989
2026-01-10 23:38:53.46	156.74	26.24	-29.8	-33.0	13.6	1.06e-05	0	42	0	952107008	19	5202
2026-01-10 23:38:54.46	156.91	26.10	-29.8	-33.1	13.6	3.80e-06	0	42	0	954204160	19	5261
2026-01-10 23:38:55.47	157.08	25.96	-30.0	-33.4	13.4	6.80e-06	0	42	0	956301312	19	5380
2026-01-10 23:38:56.47	157.24	25.82	-29.8	-32.6	13.5	1.90e-05	0	42	0	958398464	20	4974
2026-01-10 23:38:57.48	157.41	25.68	-29.7	-32.9	13.8	5.30e-06	0	42	0	960495616	19	5158
2026-01-10 23:38:58.48	157.57	25.55	-29.8	-32.9	13.7	6.10e-06	0	42	0	961544192	19	5173
2026-01-10 23:38:59.49	157.74	25.41	-29.7	-32.7	13.9	6.80e-06	0	42	0	963641344	19	5088
2026-01-10 23:39:00.50	157.90	25.27	-29.8	-33.1	13.6	5.30e-06	0	42	0	965738496	19	5231
2026-01-10 23:39:01.50	158.06	25.14	-29.9	-32.9	13.2	1.22e-05	0	42	0	967835648	20	5093
2026-01-10 23:39:02.51	158.22	25.00	-29.8	-32.9	13.7	1.06e-05	0	42	0	969932800	19	5183
2026-01-10 23:39:03.51	158.37	24.86	-30.0	-33.6	13.2	2.05e-05	0	42	0	970981376	19	5437
2026-01-10 23:39:04.52	158.53	24.73	-30.1	-33.4	12.9	4.65e-05	0	42	0	973078528	20	5253
2026-01-10 23:39:05.53	158.69	24.59	-30.3	-33.9	12.6	3.89e-05	0	42	0	975175680	20	5496
2026-01-10 23:39:06.53	158.84	24.46	-30.4	-34.3	12.3	2.05e-04	0	42	0	977272832	20	5659
2026-01-10 23:39:07.53	158.99	24.33	-30.3	-34.0	12.5	1.65e-04	0	42	0	979369984	20	5510
2026-01-10 23:39:08.54	159.14	24.19	-30.2	-33.9	12.5	1.07e-04	0	42	0	980418560	20	5488
2026-01-10 23:39:09.54	159.29	24.06	-30.1	-33.5	12.8	9.15e-05	0	42	0	982515712	20	5306
2026-01-10 23:39:10.55	159.44	23.93	-29.8	-33.2	13.4	1.52e-05	0	42	0	984612864	19	5293
2026-01-10 23:39:11.55	159.59	23.80	-29.8	-33.1	13.5	1.06e-05	0	42	0	986710016	19	5244
2026-01-10 23:39:12.56	159.73	23.66	-29.8	-33.1	13.5	1.52e-05	0	42	0	988807168	19	5257
2026-01-10 23:39:13.57	159.88	23.53	-29.8	-33.0	13.5	6.10e-06	0	42	0	989855744	19	5211
2026-01-10 23:39:14.57	160.02	23.40	-29.9	-33.3	13.4	1.29e-05	0	42	0	991952896	19	5315
2026-01-10 23:39:15.57	160.16	23.27	-29.9	-32.9	13.2	1.11e-04	0	42	0	994050048	20	5084
2026-01-10 23:39:16.58	160.31	23.14	-30.0	-33.1	13.1	2.38e-03	0	42	0	996147200	20	5155
2026-01-10 23:39:17.59	160.45	23.02	-30.1	-33.5	12.8	4.65e-05	0	42	0	998244352	20	5321
2026-01-10 23:39:18.59	160.59	22.89	-30.1	-33.6	12.7	9.91e-05	0	42	0	999292928	20	5383
2026-01-10 23:39:19.58	160.72	22.76	-30.1	-33.4	12.8	6.94e-05	0	42	0	1001390080	20	5291
2026-01-10 23:39:20.59	160.86	22.63	-30.0	-33.3	12.9	2.43e-03	0	42	0	1003487232	20	5256
2026-01-10 23:39:21.60	161.00	22.51	-30.0	-33.4	12.9	4.11e-05	0	42	0	1005584384	20	5272
2026-01-10 23:39:22.60	161.13	22.38	-29.9	-33.3	13.3	5.11e-05	0	42	0	1007681536	19	5365
2026-01-10 23:39:23.60	161.26	22.25	-29.7	-32.8	13.7	2.23e-03	0	42	0	1008730112	19	5142
2026-01-10 23:39:24.60	161.40	22.13	-29.5	-32.4	13.9	6.10e-06	0	42	0	1010827264	19	4991
2026-01-10 23:39:25.61	161.53	22.00	-29.6	-32.4	13.9	3.00e-06	0	42	0	1012924416	19	5005
2026-01-10 23:39:26.62	161.66	21.88	-29.6	-32.4	13.9	2.10e-03	0	42	0	1015021568	19	5016
2026-01-10 23:39:27.62	161.79	21.76	-29.4	-32.1	14.0	4.50e-06	0	42	0	1016070144	19	4902
2026-01-10 23:39:28.63	161.92	21.63	-29.6	-32.6	13.7	6.80e-06	0	42	0	1018167296	19	5081
2026-01-10 23:39:29.63	162.04	21.51	-29.7	-32.9	13.6	6.80e-06	0	42	0	1020264448	19	5182
2026-01-10 23:39:30.63	162.17	21.39	-29.7	-32.9	13.6	9.10e-06	0	42	0	1022361600	19	5183
2026-01-10 23:39:31.64	162.30	21.26	-29.7	-32.8	13.6	9.10e-06	0	42	0	1024458752	19	5154
2026-01-10 23:39:32.65	162.42	21.14	-29.7	-32.8	13.6	8.30e-06	0	42	0	1026555904	19	5160
2026-01-10 23:39:33.65	162.55	21.02	-29.8	-33.0	13.5	3.81e-05	0	42	0	1027604480	19	5241
2026-01-10 23:39:34.65	162.67	20.90	-29.7	-33.0	13.5	2.35e-03	0	42	0	1029701632	19	5241
2026-01-10 23:39:35.65	162.79	20.78	-29.8	-33.2	13.4	1.14e-05	0	42	0	1031798784	19	5316
2026-01-10 23:39:36.65	162.91	20.66	-30.0	-33.7	13.1	7.93e-05	0	42	0	1033895936	19	5498
2026-01-10 23:39:37.66	163.03	20.54	-30.0	-33.2	13.0	2.32e-03	0	42	0	1034944512	20	5209
2026-01-10 23:39:38.66	163.15	20.42	-30.1	-33.6	12.7	2.61e-03	0	42	0	1037041664	20	5373
2026-01-10 23:39:39.67	163.27	20.30	-30.2	-33.8	12.5	1.33e-04	0	42	0	1039138816	20	5456
2026-01-10 23:39:40.67	163.39	20.18	-30.1	-33.5	12.7	2.58e-03	0	42	0	1041235968	20	5342
2026-01-10 23:39:41.67	163.50	20.07	-30.1	-33.5	12.7	2.45e-03	0	42	0	1043333120	20	5362
2026-01-10 23:39:42.68	163.62	19.95	-30.1	-33.7	12.6	1.07e-04	0	42	0	1044381696	20	5427
2026-01-10 23:39:43.69	163.73	19.83	-30.2	-34.0	12.3	2.59e-03	0	42	0	1046478848	20	5534
2026-01-10 23:39:44.70	163.85	19.71	-30.2	-33.8	12.4	2.39e-03	0	42	0	1048576000	20	5468
2026-01-10 23:39:45.70	163.96	19.60	-30.0	-33.4	12.8	1.71e-04	0	42	0	1050673152	20	5304
2026-01-10 23:39:46.71	164.07	19.48	-29.9	-33.1	12.9	2.41e-03	0	42	0	1052770304	20	5200
2026-01-10 23:39:47.71	164.19	19.37	-29.9	-33.0	13.0	2.49e-03	0	42	0	1053818880	20	5158
2026-01-10 23:39:48.72	164.30	19.25	-29.8	-32.7	13.2	1.07e-04	0	42	0	1055916032	20	5026
2026-01-10 23:39:49.72	164.41	19.14	-29.9	-33.4	13.2	2.53e-03	0	42	0	1058013184	19	5396
2026-01-10 23:39:50.73	164.52	19.02	-29.8	-33.2	13.3	2.27e-03	0	42	0	1060110336	19	5317
2026-01-10 23:39:51.74	164.63	18.91	-29.7	-33.0	13.4	2.59e-05	0	42	0	1062207488	19	5241
2026-01-10 23:39:52.74	164.73	18.80	-29.8	-33.2	13.3	2.32e-03	0	42	0	1063256064	19	5323
2026-01-10 23:39:53.75	164.84	18.69	-29.8	-33.1	13.4	2.32e-03	0	42	0	1065353216	19	5293
2026-01-10 23:39:54.75	164.95	18.57	-29.8	-33.3	13.3	4.95e-05	0	42	0	1067450368	19	5338
2026-01-10 23:39:55.76	165.05	18.46	-29.8	-33.2	13.3	2.12e-03	0	42	0	1069547520	19	5307
2026-01-10 23:39:56.76	165.16	18.35	-29.9	-33.4	13.2	2.21e-04	0	42	0	1071644672	19	5395
2026-01-10 23:39:57.76	165.26	18.24	-29.9	-33.4	13.1	1.46e-04	0	42	0	1072693248	19	5409
2026-01-10 23:39:58.76	165.36	18.13	-29.9	-33.5	13.1	2.43e-03	0	42	0	1074790400	19	5420
2026-01-10 23:39:59.77	165.47	18.02	-30.0	-33.2	12.9	2.35e-03	0	42	0	1076887552	20	5228
2026-01-10 23:40:00.78	165.57	17.91	-30.1	-33.7	12.5	1.53e-04	0	42	0	1078984704	20	5429
2026-01-10 23:40:01.78	165.67	17.80	-30.0	-33.4	12.7	2.49e-03	0	42	0	1081081856	20	5304
2026-01-10 23:40:02.79	165.77	17.69	-30.0	-33.4	12.8	2.17e-03	0	42	0	1082130432	20	5290
2026-01-10 23:40:03.80	165.87	17.58	-30.0	-33.2	12.8	5.95e-05	0	42	0	1084227584	20	5233
2026-01-10 23:40:04.81	165.97	17.47	-29.9	-33.1	12.9	2.26e-03	0	42	0	1086324736	20	5192
2026-01-10 23:40:05.81	166.07	17.37	-29.9	-33.1	12.9	2.32e-03	0	42	0	1088421888	20	5200
2026-01-10 23:40:06.82	166.16	17.26	-29.9	-32.9	13.0	4.27e-05	0	42	0	1090519040	20	5129
2026-01-10 23:40:07.83	166.26	17.15	-29.8	-33.3	13.2	1.42e-04	0	42	0	1091567616	19	5368
2026-01-10 23:40:08.83	166.36	17.04	-29.8	-33.2	13.2	2.07e-03	0	42	0	1093664768	19	5336
2026-01-10 23:40:09.84	166.45	16.94	-29.9	-33.5	13.0	3.73e-05	0	42	0	1095761920	19	5449
2026-01-10 23:40:10.84	166.55	16.83	-29.8	-33.3	13.2	2.43e-04	0	42	0	1097859072	19	5358
2026-01-10 23:40:11.84	166.64	16.73	-29.7	-33.0	13.3	2.49e-03	0	42	0	1099956224	19	5234
2026-01-10 23:40:12.85	166.74	16.62	-29.6	-32.8	13.5	1.22e-04	0	42	0	1101004800	19	5177
2026-01-10 23:40:13.85	166.83	16.52	-29.6	-32.8	13.5	3.05e-04	0	42	0	1103101952	19	5157
2026-01-10 23:40:14.86	166.92	16.41	-29.7	-32.9	13.4	2.91e-04	0	42	0	1105199104	19	5221
2026-01-10 23:40:15.87	167.02	16.31	-29.8	-33.2	13.2	2.09e-04	0	42	0	1107296256	19	5321
2026-01-10 23:40:16.87	167.11	16.21	-29.8	-33.3	13.1	4.35e-04	0	42	0	1109393408	19	5370
2026-01-10 23:40:17.88	167.20	16.10	-29.9	-33.6	12.9	3.98e-04	0	42	0	1110441984	19	5503
2026-01-10 23:40:18.89	167.29	16.00	-29.9	-33.2	12.8	6.10e-05	0	42	0	1112539136	20	5244
2026-01-10 23:40:19.88	167.38	15.90	-30.0	-33.4	12.6	2.38e-03	0	42	0	1114636288	20	5334
2026-01-10 23:40:20.89	167.47	15.79	-30.0	-33.4	12.6	3.51e-04	0	42	0	1116733440	20	5334
2026-01-10 23:40:21.90	167.55	15.69	-30.1	-33.7	12.4	1.30e-04	0	42	0	1118830592	20	5451
2026-01-10 23:40:22.90	167.64	15.59	-30.0	-33.5	12.5	2.52e-03	0	42	0	1119879168	20	5365
2026-01-10 23:40:23.90	167.73	15.49	-30.0	-33.3	12.6	3.62e-04	0	42	0	1121976320	20	5309
2026-01-10 23:40:24.90	167.81	15.39	-30.0	-33.5	12.5	8.69e-05	0	42	0	1124073472	20	5367
2026-01-10 23:40:25.91	167.90	15.29	-29.9	-33.2	12.7	4.16e-04	0	42	0	1126170624	20	5248
2026-01-10 23:40:26.92	167.99	15.19	-29.9	-33.6	12.8	4.21e-04	0	42	0	1128267776	19	5541
2026-01-10 23:40:27.93	168.07	15.09	-29.8	-33.3	13.0	3.58e-05	0	42	0	1129316352	19	5393
2026-01-10 23:40:28.94	168.16	14.99	-29.8	-33.3	13.0	3.26e-04	0	42	0	1131413504	19	5413
2026-01-10 23:40:29.94	168.24	14.89	-29.7	-33.0	13.2	2.97e-05	0	42	0	1133510656	19	5282
2026-01-10 23:40:30.94	168.32	14.79	-29.6	-32.8	13.4	1.22e-05	0	42	0	1135607808	19	5199
2026-01-10 23:40:31.95	168.41	14.70	-29.7	-32.9	13.3	2.44e-04	0	42	0	1137704960	19	5233
2026-01-10 23:40:32.96	168.49	14.60	-29.6	-32.7	13.5	2.39e-04	0	42	0	1138753536	19	5142
2026-01-10 23:40:33.95	168.57	14.50	-29.5	-32.5	13.6	8.30e-06	0	42	0	1140850688	19	5063
2026-01-10 23:40:34.96	168.65	14.40	-29.5	-32.5	13.5	2.16e-04	0	42	0	1142947840	19	5088
2026-01-10 23:40:35.96	168.73	14.31	-29.6	-32.9	13.3	2.26e-04	0	42	0	1145044992	19	5215
2026-01-10 23:40:36.97	168.81	14.21	-29.7	-33.0	13.2	3.05e-05	0	42	0	1146093568	19	5298
2026-01-10 23:40:37.98	168.89	14.11	-29.8	-33.2	13.1	2.38e-04	0	42	0	1148190720	19	5342
2026-01-10 23:40:38.99	168.97	14.02	-29.8	-33.3	13.0	2.47e-04	0	42	0	1150287872	19	5381
2026-01-10 23:40:39.99	169.05	13.92	-29.9	-33.6	12.8	5.72e-05	0	42	0	1152385024	19	5498
2026-01-10 23:40:40.99	169.13	13.83	-29.9	-33.8	12.7	6.56e-05	0	42	0	1154482176	19	5585
2026-01-10 23:40:42.00	169.21	13.73	-30.0	-33.6	12.3	3.46e-04	0	42	0	1156579328	20	5424
2026-01-10 23:40:43.01	169.29	13.64	-30.3	-34.4	11.4	2.58e-04	0	42	0	1157627904	20	5767
2026-01-10 23:40:44.01	169.36	13.54	-30.2	-34.1	11.4	3.81e-04	0	42	0	1159725056	20	5657
2026-01-10 23:40:45.01	169.44	13.45	-30.2	-34.0	11.9	5.49e-04	0	42	0	1161822208	20	5608
2026-01-10 23:40:46.01	169.51	13.36	-30.2	-34.0	11.5	3.00e-04	0	42	0	1163919360	20	5616
2026-01-10 23:40:47.01	169.59	13.26	-30.2	-34.1	11.9	2.50e-03	0	42	0	1164967936	20	5654
2026-01-10 23:40:48.02	169.67	13.17	-30.3	-34.3	11.8	4.53e-04	0	42	0	1167065088	20	5750
2026-01-10 23:40:49.03	169.74	13.08	-30.2	-34.2	11.9	4.00e-04	0	42	0	1169162240	20	5672
2026-01-10 23:40:50.03	169.81	12.99	-30.4	-34.7	11.6	9.09e-04	0	42	0	1171259392	20	5899
2026-01-10 23:40:51.03	169.89	12.89	-30.3	-34.5	11.7	6.13e-04	0	42	0	1173356544	20	5842
2026-01-10 23:40:52.04	169.96	12.80	-30.4	-34.7	11.5	7.10e-04	0	42	0	1174405120	20	5926
2026-01-10 23:40:53.04	170.03	12.71	-30.3	-34.5	11.6	1.30e-03	0	42	0	1176502272	20	5838
2026-01-10 23:40:54.04	170.11	12.62	-30.3	-34.4	11.7	6.94e-04	0	42	0	1178599424	20	5801
2026-01-10 23:40:55.05	170.18	12.53	-30.3	-34.6	11.6	5.97e-04	0	42	0	1180696576	20	5882
2026-01-10 23:40:56.06	170.25	12.44	-30.3	-34.4	11.7	9.44e-04	0	42	0	1182793728	20	5797
2026-01-10 23:40:57.06	170.32	12.35	-30.3	-34.5	11.6	7.61e-04	0	42	0	1183842304	20	5848
2026-01-10 23:40:58.07	170.39	12.26	-30.4	-34.8	11.4	7.25e-04	0	42	0	1185939456	20	5956
2026-01-10 23:40:59.07	170.46	12.17	-30.2	-34.3	11.8	6.61e-04	0	42	0	1188036608	20	5735
2026-01-10 23:41:00.07	170.53	12.08	-30.1	-33.9	12.0	6.32e-04	0	42	0	1190133760	20	5579
2026-01-10 23:41:01.08	170.60	11.99	-30.1	-34.0	12.0	2.07e-03	0	42	0	1192230912	20	5589
2026-01-10 23:41:02.08	170.67	11.90	-30.1	-33.9	12.1	2.41e-04	0	42	0	1193279488	20	5550
2026-01-10 23:41:03.09	170.74	11.81	-30.0	-33.7	12.2	4.90e-04	0	42	0	1195376640	20	5464
2026-01-10 23:41:04.10	170.81	11.73	-30.0	-33.7	12.2	1.85e-03	0	42	0	1197473792	20	5466
2026-01-10 23:41:05.10	170.88	11.64	-30.1	-33.9	12.1	1.83e-03	0	42	0	1199570944	20	5543
2026-01-10 23:41:06.11	170.95	11.55	-30.0	-33.5	12.3	2.04e-04	0	42	0	1201668096	20	5413
2026-01-10 23:41:07.12	171.01	11.46	-30.0	-33.9	12.5	1.68e-03	0	42	0	1202716672	19	5650
2026-01-10 23:41:08.12	171.08	11.38	-29.9	-33.8	12.6	1.67e-03	0	42	0	1204813824	19	5601
2026-01-10 23:41:09.13	171.15	11.29	-29.9	-33.7	12.6	1.17e-04	0	42	0	1206910976	19	5586
2026-01-10 23:41:10.13	171.21	11.20	-29.9	-33.7	12.5	1.03e-04	0	42	0	1209008128	19	5585
2026-01-10 23:41:11.14	171.28	11.12	-29.9	-33.4	12.4	1.76e-03	0	42	0	1211105280	20	5348
2026-01-10 23:41:12.15	171.34	11.03	-29.9	-33.2	12.5	3.08e-04	0	42	0	1212153856	20	5265
2026-01-10 23:41:13.15	171.41	10.94	-29.9	-33.6	12.6	9.76e-05	0	42	0	1214251008	19	5528
2026-01-10 23:41:14.16	171.47	10.86	-29.9	-33.6	12.6	1.62e-03	0	42	0	1216348160	19	5548
2026-01-10 23:41:15.16	171.54	10.77	-29.9	-33.6	12.6	2.74e-04	0	42	0	1218445312	19	5538
2026-01-10 23:41:16.17	171.60	10.69	-30.0	-33.9	12.4	1.69e-03	0	42	0	1220542464	19	5654
2026-01-10 23:41:17.17	171.67	10.60	-30.1	-33.8	12.0	2.01e-03	0	42	0	1221591040	20	5511
2026-01-10 23:41:18.17	171.73	10.52	-30.2	-34.2	11.8	6.64e-04	0	42	0	1223688192	20	5717
2026-01-10 23:41:19.18	171.79	10.44	-30.1	-34.0	11.9	2.12e-03	0	42	0	1225785344	20	5605
2026-01-10 23:41:20.19	171.86	10.35	-30.0	-33.7	12.1	2.08e-03	0	42	0	1227882496	20	5467
2026-01-10 23:41:21.19	171.92	10.27	-30.0	-33.6	12.1	4.23e-04	0	42	0	1229979648	20	5456
2026-01-10 23:41:22.20	171.98	10.18	-30.1	-33.8	11.9	1.96e-03	0	42	0	1231028224	20	5553
2026-01-10 23:41:23.21	172.04	10.10	-30.1	-33.9	11.8	2.00e-03	0	42	0	1233125376	20	5577
2026-01-10 23:41:24.21	172.10	10.02	-30.1	-34.0	11.9	5.55e-04	0	42	0	1235222528	20	5606
2026-01-10 23:41:25.22	172.16	9.94	-30.3	-34.4	11.5	2.24e-03	0	42	0	1237319680	20	5792
2026-01-10 23:41:26.21	172.22	9.85	-30.3	-34.3	11.4	2.32e-03	0	42	0	1239416832	20	5765
2026-01-10 23:41:27.22	172.28	9.77	-30.3	-34.5	11.4	9.22e-04	0	42	0	1240465408	20	5864
2026-01-10 23:41:28.22	172.34	9.69	-30.3	-34.6	11.4	2.42e-03	0	42	0	1242562560	20	5866
2026-01-10 23:41:29.23	172.40	9.61	-30.4	-34.7	11.3	2.40e-03	0	42	0	1244659712	20	5943
2026-01-10 23:41:30.23	172.46	9.53	-30.5	-35.1	11.0	1.64e-03	0	42	0	1246756864	20	6141
2026-01-10 23:41:31.24	172.52	9.45	-30.3	-34.7	11.3	2.48e-03	0	42	0	1248854016	20	5940
2026-01-10 23:41:32.24	172.58	9.37	-30.4	-34.9	11.1	2.24e-03	0	42	0	1249902592	20	6043
2026-01-10 23:41:33.25	172.64	9.28	-30.6	-35.0	10.7	2.19e-03	0	42	0	1251999744	21	5989
2026-01-10 23:41:34.26	172.70	9.20	-30.7	-35.3	10.5	4.38e-03	0	42	0	1254096896	21	6117
2026-01-10 23:41:35.26	172.76	9.12	-30.6	-35.2	10.6	4.04e-03	0	42	0	1256194048	21	6063
2026-01-10 23:41:36.27	172.81	9.04	-30.7	-35.2	10.5	4.19e-03	0	42	0	1258291200	21	6102
2026-01-10 23:41:37.27	172.87	8.96	-30.6	-35.1	10.6	3.95e-03	0	42	0	1259339776	21	6046
2026-01-10 23:41:38.28	172.93	8.88	-30.7	-35.4	10.4	4.10e-03	0	42	0	1261436928	21	6196
2026-01-10 23:41:39.29	172.98	8.81	-30.8	-35.7	10.1	6.15e-03	0	42	0	1263534080	21	6343
2026-01-10 23:41:40.29	173.04	8.73	-30.7	-35.4	10.4	5.16e-03	0	42	0	1265631232	21	6170
2026-01-10 23:41:41.29	173.10	8.65	-30.8	-35.6	10.1	6.55e-03	0	42	0	1267728384	21	6316
2026-01-10 23:41:42.30	173.15	8.57	-30.6	-35.2	10.4	5.04e-03	0	42	0	1268776960	21	6116
2026-01-10 23:41:43.30	173.21	8.49	-30.5	-35.2	10.8	3.42e-03	0	42	0	1270874112	20	6222
2026-01-10 23:41:44.30	173.26	8.41	-30.4	-35.1	10.9	3.00e-03	0	42	0	1272971264	20	6175
2026-01-10 23:41:45.30	173.32	8.34	-30.4	-35.0	11.0	2.22e-03	0	42	0	1275068416	20	6125
2026-01-10 23:41:46.31	173.37	8.26	-30.5	-35.2	10.8	2.91e-03	0	42	0	1277165568	20	6216
2026-01-10 23:41:47.31	173.43	8.18	-30.3	-34.8	11.1	2.11e-03	0	42	0	1278214144	20	6004
2026-01-10 23:41:48.32	173.48	8.10	-30.4	-34.9	11.0	1.71e-03	0	42	0	1280311296	20	6059
2026-01-10 23:41:49.32	173.53	8.03	-30.3	-34.8	11.1	1.79e-03	0	42	0	1282408448	20	6017
2026-01-10 23:41:50.32	173.59	7.95	-30.3	-34.8	11.1	2.11e-03	0	42	0	1284505600	20	5995
2026-01-10 23:41:51.33	173.64	7.87	-30.4	-35.1	10.9	2.29e-03	0	42	0	1285554176	20	6147
2026-01-10 23:41:52.34	173.70	7.80	-30.3	-34.6	11.2	2.40e-03	0	42	0	1287651328	20	5905
2026-01-10 23:41:53.35	173.75	7.72	-30.2	-34.4	11.4	1.70e-03	0	42	0	1289748480	20	5821
