passes_logs/2026/01/10/R2M6_AANII_01/R2M6_AANII_01__20260110_092143_SUOMI_NPP_rec.log

#Pass ID: 20260110_092143_SUOMI NPP
#Satellite: SUOMI NPP
#Configuration: NPP
#almurnet v.1.7.20240730
#Start time: 2026-01-10 09:21:43

#Version: 2.2.20231116
#Station: R2M6_AANII_01
#Location: 30.233357 lon 59.946436 lat
#TLE: 1 37849U 11061A   26008.83076692  .00000095  00000+0  66074-4 0  9997
#TLE: 2 37849  98.7806 310.9327 0002533  74.3004 285.8451 14.19523607735834

#Time	Az	El	Level	Level2	SNR	BER	BlckErr	Temp	State	Recorded	gain1	gain2
2026-01-10 09:21:43.87	128.35	7.05	-31.0	-34.9	5.1	1.29e+00	0	39	0	0	23	5659
2026-01-10 09:21:44.87	128.30	7.12	-30.9	-34.9	5.1	1.28e+00	0	39	104	0	22	5695
2026-01-10 09:21:45.87	128.25	7.20	-30.7	-34.0	9.1	5.30e-02	0	39	0	0	22	5258
2026-01-10 09:21:46.87	128.20	7.27	-30.9	-34.7	8.7	3.11e-02	0	39	0	1048576	22	5571
2026-01-10 09:21:47.86	128.15	7.34	-30.9	-34.6	8.7	3.87e-02	0	40	0	3145728	22	5541
2026-01-10 09:21:48.86	128.10	7.42	-30.7	-33.9	9.2	2.80e-02	0	40	0	5242880	22	5207
2026-01-10 09:21:49.86	128.04	7.49	-30.8	-34.2	9.1	2.74e-02	0	39	0	7340032	22	5348
2026-01-10 09:21:50.86	127.99	7.57	-31.1	-35.5	8.1	4.39e-02	0	40	0	8388608	22	5977
2026-01-10 09:21:51.87	127.94	7.65	-31.2	-35.9	7.8	6.50e-02	0	40	0	10485760	22	6162
2026-01-10 09:21:52.87	127.89	7.72	-31.1	-35.6	8.1	8.45e-02	0	40	0	12582912	22	6014
2026-01-10 09:21:53.87	127.83	7.80	-31.1	-35.5	8.1	6.53e-02	0	40	0	14680064	22	5948
2026-01-10 09:21:54.87	127.78	7.87	-31.2	-35.9	7.8	6.86e-02	0	40	0	16777216	22	6181
2026-01-10 09:21:55.87	127.73	7.95	-31.0	-34.9	8.5	6.82e-02	0	40	0	17825792	22	5673
2026-01-10 09:21:56.88	127.67	8.03	-30.8	-34.1	9.3	2.23e-02	0	40	0	19922944	22	5254
2026-01-10 09:21:57.88	127.62	8.10	-30.4	-32.6	10.4	5.43e-03	0	40	0	22020096	22	4647
2026-01-10 09:21:58.89	127.56	8.18	-30.2	-32.6	10.7	4.64e-03	0	40	0	24117248	21	4719
2026-01-10 09:21:59.89	127.51	8.26	-30.1	-32.0	11.2	1.23e-03	0	40	0	26214400	21	4513
2026-01-10 09:22:00.88	127.46	8.33	-30.3	-32.7	10.7	2.50e-03	0	40	0	27262976	21	4761
2026-01-10 09:22:01.88	127.40	8.41	-30.0	-32.0	11.2	1.63e-03	0	40	0	29360128	21	4497
2026-01-10 09:22:02.88	127.34	8.49	-30.1	-32.2	11.1	1.30e-03	0	40	0	31457280	21	4565
2026-01-10 09:22:03.88	127.29	8.57	-30.3	-32.8	10.6	3.13e-03	0	40	0	33554432	21	4805
2026-01-10 09:22:04.89	127.23	8.65	-30.4	-33.0	10.6	3.91e-03	0	40	0	35651584	21	4870
2026-01-10 09:22:05.89	127.18	8.72	-30.5	-33.5	10.2	5.55e-03	0	40	0	36700160	21	5082
2026-01-10 09:22:06.89	127.12	8.80	-30.6	-33.8	10.0	6.60e-03	0	40	0	38797312	21	5190
2026-01-10 09:22:07.90	127.06	8.88	-30.8	-34.4	9.5	9.83e-03	0	40	0	40894464	21	5444
2026-01-10 09:22:08.90	127.00	8.96	-30.5	-33.4	10.3	7.03e-03	0	40	0	42991616	21	5008
2026-01-10 09:22:09.89	126.95	9.04	-30.4	-32.9	10.7	3.44e-03	0	40	0	45088768	21	4817
2026-01-10 09:22:10.90	126.89	9.12	-30.3	-32.7	10.9	3.40e-03	0	40	0	46137344	21	4732
2026-01-10 09:22:11.90	126.83	9.20	-30.2	-32.3	11.1	2.02e-03	0	40	0	48234496	21	4602
2026-01-10 09:22:12.91	126.77	9.28	-30.0	-31.8	11.5	1.16e-03	0	40	0	50331648	21	4414
2026-01-10 09:22:13.90	126.71	9.36	-30.0	-31.7	11.5	1.24e-03	0	40	0	52428800	21	4392
2026-01-10 09:22:14.90	126.65	9.44	-30.2	-32.3	11.2	1.04e-03	0	40	0	53477376	21	4598
2026-01-10 09:22:15.91	126.59	9.52	-30.1	-32.0	11.4	7.12e-04	0	40	0	55574528	21	4490
2026-01-10 09:22:16.90	126.53	9.60	-30.1	-32.1	11.4	6.30e-04	0	40	0	57671680	21	4507
2026-01-10 09:22:17.91	126.47	9.68	-30.3	-32.7	11.0	1.41e-03	0	40	0	59768832	21	4711
2026-01-10 09:22:18.91	126.41	9.76	-30.2	-32.4	11.2	2.19e-03	0	41	0	61865984	21	4603
2026-01-10 09:22:19.91	126.35	9.84	-30.4	-33.0	10.7	1.74e-03	0	40	0	62914560	21	4851
2026-01-10 09:22:20.91	126.29	9.93	-30.3	-32.8	10.9	3.20e-03	0	40	0	65011712	21	4749
2026-01-10 09:22:21.91	126.23	10.01	-30.2	-32.3	11.3	2.09e-03	0	40	0	67108864	21	4582
2026-01-10 09:22:22.91	126.16	10.09	-30.1	-32.0	11.5	9.37e-04	0	40	0	69206016	21	4459
2026-01-10 09:22:23.91	126.10	10.17	-30.2	-32.2	11.3	7.18e-04	0	40	0	71303168	21	4554
2026-01-10 09:22:24.91	126.04	10.25	-30.0	-31.7	11.7	5.41e-04	0	40	0	72351744	21	4366
2026-01-10 09:22:25.91	125.98	10.34	-29.8	-31.1	12.2	3.11e-04	0	40	0	74448896	21	4162
2026-01-10 09:22:26.91	125.91	10.42	-29.9	-31.7	12.1	2.57e-04	0	40	0	76546048	20	4460
2026-01-10 09:22:27.92	125.85	10.50	-29.7	-31.2	12.4	2.49e-04	0	40	0	78643200	20	4301
2026-01-10 09:22:28.92	125.78	10.59	-29.8	-31.4	12.3	1.42e-04	0	41	0	80740352	20	4353
2026-01-10 09:22:29.93	125.72	10.67	-29.9	-31.8	12.1	2.23e-04	0	41	0	81788928	20	4477
2026-01-10 09:22:30.93	125.65	10.76	-30.0	-32.1	11.9	2.57e-04	0	41	0	83886080	20	4586
2026-01-10 09:22:31.93	125.59	10.84	-30.0	-32.3	11.7	4.46e-04	0	41	0	85983232	20	4661
2026-01-10 09:22:32.93	125.52	10.93	-30.0	-32.1	11.8	4.32e-04	0	41	0	88080384	20	4595
2026-01-10 09:22:33.94	125.45	11.01	-30.0	-32.1	11.9	4.42e-04	0	41	0	90177536	20	4580
2026-01-10 09:22:34.94	125.39	11.10	-29.9	-31.9	12.1	3.20e-04	0	41	0	91226112	20	4501
2026-01-10 09:22:35.94	125.32	11.18	-29.8	-31.5	12.3	1.55e-04	0	40	0	93323264	20	4358
2026-01-10 09:22:36.93	125.25	11.27	-29.9	-31.7	12.3	1.88e-04	0	41	0	95420416	20	4420
2026-01-10 09:22:37.93	125.18	11.35	-29.9	-31.7	12.2	2.43e-04	0	41	0	97517568	20	4447
2026-01-10 09:22:38.93	125.12	11.44	-30.1	-32.4	11.8	2.55e-04	0	41	0	98566144	20	4670
2026-01-10 09:22:39.93	125.05	11.52	-30.0	-32.1	12.0	3.70e-04	0	41	0	100663296	20	4562
2026-01-10 09:22:40.93	124.98	11.61	-30.1	-32.1	11.9	3.91e-04	0	41	0	102760448	20	4579
2026-01-10 09:22:41.93	124.91	11.70	-30.1	-32.4	11.8	5.08e-04	0	41	0	104857600	20	4673
2026-01-10 09:22:42.93	124.84	11.79	-30.1	-32.2	11.9	4.14e-04	0	41	0	106954752	20	4618
2026-01-10 09:22:43.94	124.77	11.87	-30.1	-32.3	11.9	4.43e-04	0	41	0	108003328	20	4635
2026-01-10 09:22:44.94	124.70	11.96	-30.0	-32.1	12.0	4.25e-04	0	41	0	110100480	20	4559
2026-01-10 09:22:45.95	124.62	12.05	-30.1	-32.3	11.9	4.65e-04	0	41	0	112197632	20	4630
2026-01-10 09:22:46.95	124.55	12.14	-30.0	-32.0	12.2	3.03e-04	0	41	0	114294784	20	4514
2026-01-10 09:22:47.96	124.48	12.23	-29.9	-31.6	12.4	1.48e-04	0	41	0	116391936	20	4380
2026-01-10 09:22:48.96	124.41	12.32	-30.0	-32.0	12.2	2.17e-04	0	41	0	117440512	20	4511
2026-01-10 09:22:49.96	124.33	12.41	-29.9	-31.7	12.3	2.32e-04	0	41	0	119537664	20	4428
2026-01-10 09:22:50.96	124.26	12.50	-30.0	-31.9	12.2	1.72e-04	0	41	0	121634816	20	4501
2026-01-10 09:22:51.96	124.18	12.59	-30.0	-31.9	12.2	2.64e-04	0	41	0	123731968	20	4511
2026-01-10 09:22:52.96	124.11	12.68	-30.1	-32.2	12.0	3.82e-04	0	41	0	124780544	20	4590
2026-01-10 09:22:53.96	124.03	12.77	-30.0	-32.2	12.0	3.12e-04	0	41	0	126877696	20	4592
2026-01-10 09:22:54.95	123.96	12.86	-30.2	-32.5	11.8	3.48e-04	0	41	0	128974848	20	4707
2026-01-10 09:22:55.96	123.88	12.95	-30.0	-32.1	12.0	3.06e-04	0	41	0	131072000	20	4555
2026-01-10 09:22:56.96	123.81	13.04	-29.9	-31.8	12.3	2.08e-04	0	41	0	133169152	20	4447
2026-01-10 09:22:57.96	123.73	13.13	-29.7	-31.1	12.8	1.05e-04	0	41	0	134217728	20	4225
2026-01-10 09:22:58.96	123.65	13.22	-30.0	-32.0	12.1	1.69e-04	0	41	0	136314880	20	4515
2026-01-10 09:22:59.97	123.57	13.31	-29.6	-30.9	12.9	4.80e-05	0	41	0	138412032	20	4176
2026-01-10 09:23:00.97	123.49	13.41	-29.5	-30.6	13.1	4.57e-05	0	41	0	140509184	20	4076
2026-01-10 09:23:01.97	123.41	13.50	-29.7	-31.1	12.7	7.01e-05	0	41	0	142606336	20	4232
2026-01-10 09:23:02.97	123.34	13.59	-29.8	-31.3	12.6	8.08e-05	0	41	0	143654912	20	4295
2026-01-10 09:23:03.97	123.26	13.68	-29.8	-31.5	12.5	9.23e-05	0	41	0	145752064	20	4350
2026-01-10 09:23:04.97	123.17	13.78	-30.1	-32.3	11.9	2.37e-04	0	41	0	147849216	20	4645
2026-01-10 09:23:05.97	123.09	13.87	-30.1	-32.3	12.0	3.51e-04	0	41	0	149946368	20	4609
2026-01-10 09:23:06.97	123.01	13.97	-30.2	-32.5	11.9	3.00e-04	0	41	0	152043520	20	4705
2026-01-10 09:23:07.97	122.93	14.06	-30.1	-32.3	12.0	4.14e-04	0	41	0	153092096	20	4614
2026-01-10 09:23:08.98	122.85	14.16	-29.9	-31.6	12.5	1.88e-04	0	41	0	155189248	20	4373
2026-01-10 09:23:09.97	122.76	14.25	-29.9	-31.6	12.5	1.36e-04	0	41	0	157286400	20	4387
2026-01-10 09:23:10.97	122.68	14.35	-29.8	-31.2	12.8	6.40e-05	0	41	0	159383552	20	4250
2026-01-10 09:23:11.97	122.59	14.44	-29.9	-31.6	12.6	7.09e-05	0	41	0	161480704	20	4359
2026-01-10 09:23:12.97	122.51	14.54	-30.0	-31.9	12.4	1.39e-04	0	41	0	162529280	20	4475
2026-01-10 09:23:13.97	122.42	14.63	-30.1	-32.1	12.2	1.56e-04	0	41	0	164626432	20	4543
2026-01-10 09:23:14.97	122.34	14.73	-30.2	-32.4	12.0	1.45e-04	0	41	0	166723584	20	4659
2026-01-10 09:23:15.97	122.25	14.83	-30.2	-32.4	12.0	2.59e-04	0	41	0	168820736	20	4630
2026-01-10 09:23:16.98	122.16	14.92	-30.0	-31.8	12.4	2.98e-04	0	41	0	169869312	20	4448
2026-01-10 09:23:17.98	122.08	15.02	-30.1	-32.3	12.1	2.49e-04	0	41	0	171966464	20	4587
2026-01-10 09:23:18.98	121.99	15.12	-29.9	-31.5	12.7	1.14e-04	0	41	0	174063616	20	4336
2026-01-10 09:23:19.98	121.90	15.22	-29.8	-31.2	12.9	3.58e-05	0	41	0	176160768	20	4235
2026-01-10 09:23:20.98	121.81	15.32	-29.8	-31.2	12.9	5.41e-05	0	41	0	178257920	20	4236
2026-01-10 09:23:21.99	121.72	15.42	-29.7	-31.0	13.1	5.03e-05	0	41	0	179306496	20	4160
2026-01-10 09:23:22.99	121.63	15.52	-29.7	-30.8	13.1	1.75e-05	0	41	0	181403648	20	4107
2026-01-10 09:23:23.99	121.53	15.62	-29.6	-30.6	13.3	1.60e-05	0	41	0	183500800	20	4063
2026-01-10 09:23:24.99	121.44	15.71	-29.4	-30.2	13.5	1.90e-05	0	41	0	185597952	20	3932
2026-01-10 09:23:26.00	121.35	15.82	-29.8	-31.1	13.0	2.44e-05	0	41	0	187695104	20	4210
2026-01-10 09:23:27.00	121.25	15.92	-29.7	-30.9	13.1	3.20e-05	0	41	0	188743680	20	4137
2026-01-10 09:23:28.00	121.16	16.02	-29.7	-31.0	13.1	1.98e-05	0	41	0	190840832	20	4168
2026-01-10 09:23:29.00	121.07	16.12	-29.9	-31.6	12.6	4.88e-05	0	41	0	192937984	20	4374
2026-01-10 09:23:30.01	120.97	16.22	-29.9	-31.4	12.8	6.94e-05	0	41	0	195035136	20	4294
2026-01-10 09:23:31.01	120.87	16.32	-30.1	-32.0	12.4	7.55e-05	0	41	0	197132288	20	4486
2026-01-10 09:23:32.01	120.78	16.42	-29.9	-31.4	12.8	8.54e-05	0	41	0	198180864	20	4301
2026-01-10 09:23:33.02	120.68	16.53	-29.7	-30.9	13.2	5.64e-05	0	41	0	200278016	20	4126
2026-01-10 09:23:34.02	120.58	16.63	-30.0	-31.7	12.7	9.00e-05	0	41	0	202375168	20	4385
2026-01-10 09:23:35.02	120.48	16.73	-29.9	-31.4	12.9	4.42e-05	0	41	0	204472320	20	4292
2026-01-10 09:23:36.02	120.38	16.84	-29.9	-31.5	12.8	4.65e-05	0	41	0	205520896	20	4331
2026-01-10 09:23:37.03	120.28	16.94	-30.0	-31.8	12.6	7.78e-05	0	42	0	207618048	20	4431
2026-01-10 09:23:38.03	120.18	17.05	-29.8	-31.2	13.0	4.80e-05	0	41	0	209715200	20	4248
2026-01-10 09:23:39.04	120.08	17.15	-29.7	-30.9	13.2	2.13e-05	0	41	0	211812352	20	4139
2026-01-10 09:23:40.03	119.98	17.26	-29.8	-31.2	13.0	3.50e-05	0	41	0	213909504	20	4225
2026-01-10 09:23:41.04	119.87	17.36	-29.5	-30.4	13.5	3.58e-05	0	41	0	214958080	20	3993
2026-01-10 09:23:42.04	119.77	17.47	-29.8	-31.1	13.0	3.20e-05	0	41	0	217055232	20	4201
2026-01-10 09:23:43.04	119.66	17.58	-29.8	-31.1	13.1	4.27e-05	0	41	0	219152384	20	4192
2026-01-10 09:23:44.05	119.56	17.68	-29.9	-31.4	12.9	1.67e-05	0	41	0	221249536	20	4299
2026-01-10 09:23:45.05	119.45	17.79	-29.7	-30.9	13.2	2.74e-05	0	41	0	223346688	20	4134
2026-01-10 09:23:46.06	119.34	17.90	-29.7	-30.9	13.2	1.98e-05	0	41	0	224395264	20	4131
2026-01-10 09:23:47.06	119.23	18.01	-29.7	-30.8	13.3	3.20e-05	0	41	0	226492416	20	4105
2026-01-10 09:23:48.06	119.13	18.11	-29.6	-30.7	13.4	1.60e-05	0	41	0	228589568	20	4067
2026-01-10 09:23:49.06	119.02	18.22	-29.6	-30.6	13.5	1.37e-05	0	41	0	230686720	20	4029
2026-01-10 09:23:50.06	118.91	18.33	-29.8	-31.0	13.2	2.21e-05	0	42	0	232783872	20	4166
2026-01-10 09:23:51.06	118.80	18.44	-29.8	-31.1	13.2	2.59e-05	0	41	0	233832448	20	4189
2026-01-10 09:23:52.06	118.68	18.55	-30.0	-31.7	12.8	3.35e-05	0	41	0	235929600	20	4390
2026-01-10 09:23:53.07	118.57	18.66	-29.9	-31.4	13.0	3.66e-05	0	41	0	238026752	20	4273
2026-01-10 09:23:54.07	118.46	18.77	-29.8	-31.3	13.0	4.95e-05	0	41	0	240123904	20	4245
2026-01-10 09:23:55.07	118.34	18.88	-29.9	-31.4	12.9	6.33e-05	0	42	0	242221056	20	4299
2026-01-10 09:23:56.06	118.23	18.99	-29.7	-30.8	13.4	3.05e-05	0	41	0	243269632	20	4116
2026-01-10 09:23:57.07	118.11	19.10	-29.6	-30.6	13.5	7.60e-06	0	41	0	245366784	20	4052
2026-01-10 09:23:58.05	118.00	19.21	-29.7	-30.7	13.4	1.44e-05	0	42	0	247463936	20	4080
2026-01-10 09:23:59.06	117.88	19.32	-29.8	-31.1	13.2	2.28e-05	0	41	0	249561088	20	4197
2026-01-10 09:24:00.06	117.76	19.44	-29.7	-31.0	13.2	1.52e-05	0	42	0	250609664	20	4174
2026-01-10 09:24:01.06	117.64	19.55	-29.8	-31.2	13.1	1.90e-05	0	42	0	252706816	20	4218
2026-01-10 09:24:02.06	117.52	19.66	-29.8	-31.2	13.1	2.51e-05	0	41	0	254803968	20	4223
2026-01-10 09:24:03.06	117.40	19.78	-29.8	-31.3	13.1	1.67e-05	0	41	0	256901120	20	4245
2026-01-10 09:24:04.06	117.28	19.89	-29.7	-31.0	13.3	2.05e-05	0	41	0	258998272	20	4156
2026-01-10 09:24:05.06	117.15	20.00	-29.6	-30.7	13.4	1.75e-05	0	41	0	260046848	20	4067
2026-01-10 09:24:06.06	117.03	20.12	-29.8	-31.2	13.1	2.21e-05	0	41	0	262144000	20	4232
2026-01-10 09:24:07.06	116.90	20.23	-29.8	-31.2	13.2	1.67e-05	0	41	0	264241152	20	4207
2026-01-10 09:24:08.06	116.78	20.35	-30.1	-32.0	12.6	3.58e-05	0	41	0	266338304	20	4489
2026-01-10 09:24:09.06	116.65	20.46	-29.9	-31.5	13.0	5.72e-05	0	41	0	268435456	20	4316
2026-01-10 09:24:10.06	116.52	20.58	-30.1	-32.2	12.5	7.78e-05	0	41	0	269484032	20	4534
2026-01-10 09:24:11.06	116.39	20.70	-30.1	-31.9	12.7	1.26e-04	0	41	0	271581184	20	4445
2026-01-10 09:24:12.06	116.26	20.81	-30.3	-32.4	12.4	1.01e-04	0	41	0	273678336	20	4603
2026-01-10 09:24:13.06	116.13	20.93	-30.3	-32.5	12.3	1.69e-04	0	41	0	275775488	20	4629
2026-01-10 09:24:14.06	116.00	21.05	-30.2	-32.2	12.6	2.13e-04	0	42	0	277872640	20	4524
2026-01-10 09:24:15.06	115.87	21.17	-30.1	-32.0	12.7	6.71e-05	0	42	0	278921216	20	4474
2026-01-10 09:24:16.07	115.73	21.29	-30.3	-32.4	12.4	7.70e-05	0	41	0	281018368	20	4614
2026-01-10 09:24:17.07	115.60	21.41	-30.3	-32.6	12.2	1.48e-04	0	41	0	283115520	20	4678
2026-01-10 09:24:18.07	115.46	21.52	-30.1	-32.1	12.6	1.09e-04	0	41	0	285212672	20	4491
2026-01-10 09:24:19.07	115.33	21.64	-30.2	-32.3	12.4	1.65e-04	0	41	0	287309824	20	4557
2026-01-10 09:24:20.08	115.19	21.77	-30.0	-31.7	12.9	8.46e-05	0	42	0	288358400	20	4362
2026-01-10 09:24:21.07	115.05	21.88	-29.5	-30.3	13.9	1.06e-05	0	42	0	290455552	20	3954
2026-01-10 09:24:22.08	114.91	22.01	-29.7	-30.7	13.6	3.00e-06	0	42	0	292552704	20	4053
2026-01-10 09:24:23.09	114.76	22.13	-29.9	-31.5	13.1	2.13e-05	0	41	0	294649856	20	4290
2026-01-10 09:24:24.09	114.62	22.25	-30.0	-31.5	13.0	2.97e-05	0	42	0	295698432	20	4306
2026-01-10 09:24:25.09	114.48	22.37	-30.1	-31.8	12.8	4.11e-05	0	42	0	297795584	20	4417
2026-01-10 09:24:26.09	114.33	22.49	-30.3	-32.6	12.4	9.46e-05	0	42	0	299892736	20	4667
2026-01-10 09:24:27.09	114.18	22.62	-30.5	-32.7	11.9	1.16e-04	0	42	0	301989888	21	4610
2026-01-10 09:24:28.10	114.04	22.74	-30.4	-32.3	12.2	2.49e-04	0	42	0	304087040	21	4484
2026-01-10 09:24:29.10	113.89	22.87	-30.1	-31.2	12.9	2.20e-04	0	41	0	305135616	21	4127
2026-01-10 09:24:30.10	113.74	22.99	-30.1	-31.3	12.8	9.07e-05	0	41	0	307232768	21	4159
2026-01-10 09:24:31.10	113.59	23.11	-30.1	-31.5	12.7	4.65e-05	0	41	0	309329920	21	4214
2026-01-10 09:24:32.10	113.43	23.24	-30.1	-31.3	12.9	3.12e-05	0	42	0	311427072	21	4129
2026-01-10 09:24:33.10	113.28	23.36	-30.2	-31.8	12.5	7.62e-05	0	42	0	313524224	21	4294
2026-01-10 09:24:34.09	113.13	23.49	-30.3	-31.9	12.5	1.46e-04	0	42	0	314572800	21	4356
2026-01-10 09:24:35.10	112.97	23.61	-30.2	-31.8	12.5	8.92e-05	0	42	0	316669952	21	4308
2026-01-10 09:24:36.10	112.81	23.74	-30.2	-31.6	12.7	9.15e-05	0	42	0	318767104	21	4230
2026-01-10 09:24:37.10	112.65	23.87	-29.7	-30.7	13.6	7.09e-05	0	42	0	320864256	20	4060
2026-01-10 09:24:38.10	112.50	23.99	-30.1	-31.9	12.8	4.73e-05	0	42	0	322961408	20	4441
2026-01-10 09:24:39.09	112.34	24.12	-30.0	-31.7	13.0	3.96e-05	0	41	0	324009984	20	4363
2026-01-10 09:24:40.09	112.17	24.25	-30.2	-32.0	12.7	2.13e-05	0	42	0	326107136	20	4462
2026-01-10 09:24:41.10	112.01	24.38	-30.3	-32.4	12.5	9.91e-05	0	42	0	328204288	20	4597
2026-01-10 09:24:42.10	111.84	24.51	-30.2	-32.1	12.7	1.04e-04	0	42	0	330301440	20	4479
2026-01-10 09:24:43.10	111.68	24.63	-30.2	-32.1	12.8	7.17e-05	0	42	0	331350016	20	4472
2026-01-10 09:24:44.11	111.51	24.76	-30.1	-31.8	12.9	5.26e-05	0	42	0	333447168	20	4377
2026-01-10 09:24:45.11	111.34	24.89	-29.8	-31.0	13.5	3.50e-05	0	42	0	335544320	20	4123
2026-01-10 09:24:46.11	111.17	25.02	-30.1	-31.9	12.9	4.88e-05	0	42	0	337641472	20	4405
2026-01-10 09:24:47.11	110.99	25.15	-29.8	-31.0	13.5	1.37e-05	0	42	0	339738624	20	4120
2026-01-10 09:24:48.11	110.82	25.28	-29.8	-30.9	13.6	3.00e-06	0	42	0	340787200	20	4110
2026-01-10 09:24:49.11	110.65	25.42	-29.7	-30.6	13.7	5.30e-06	0	42	0	342884352	20	4004
2026-01-10 09:24:50.11	110.47	25.55	-29.8	-30.9	13.5	8.30e-06	0	42	0	344981504	20	4093
2026-01-10 09:24:51.11	110.29	25.68	-29.5	-30.3	13.8	3.00e-06	0	42	0	347078656	20	3972
2026-01-10 09:24:52.11	110.11	25.81	-29.5	-30.5	13.7	8.30e-06	0	42	0	349175808	20	4011
2026-01-10 09:24:53.12	109.93	25.94	-29.3	-30.2	14.3	5.30e-06	0	42	0	350224384	19	4004
2026-01-10 09:24:54.11	109.75	26.08	-29.8	-31.6	13.4	1.37e-05	0	42	0	352321536	19	4434
2026-01-10 09:24:55.11	109.56	26.21	-29.9	-31.8	13.3	8.30e-06	0	42	0	354418688	19	4504
2026-01-10 09:24:56.11	109.38	26.34	-30.1	-31.9	12.8	1.22e-05	0	42	0	356515840	20	4445
2026-01-10 09:24:57.11	109.19	26.48	-30.2	-32.2	12.6	8.01e-05	0	42	0	357564416	20	4555
2026-01-10 09:24:58.11	109.00	26.61	-30.3	-32.5	12.3	1.11e-04	0	42	0	359661568	20	4646
2026-01-10 09:24:59.12	108.81	26.74	-30.3	-32.6	12.4	2.22e-04	0	42	0	361758720	20	4681
2026-01-10 09:25:00.12	108.62	26.88	-30.5	-32.7	12.0	1.72e-04	0	42	0	363855872	21	4614
2026-01-10 09:25:01.11	108.42	27.01	-30.4	-32.3	12.2	3.59e-04	0	42	0	365953024	21	4479
2026-01-10 09:25:02.12	108.23	27.15	-30.7	-33.3	11.6	9.12e-04	0	42	0	367001600	21	4831
2026-01-10 09:25:03.12	108.03	27.28	-30.8	-33.4	11.4	7.67e-04	0	42	0	369098752	21	4896
2026-01-10 09:25:04.13	107.83	27.42	-30.9	-33.9	11.1	5.88e-04	0	42	0	371195904	21	5069
2026-01-10 09:25:05.13	107.63	27.56	-30.8	-33.6	11.3	1.08e-03	0	42	0	373293056	21	4967
2026-01-10 09:25:06.14	107.42	27.70	-30.8	-33.7	11.3	7.60e-04	0	42	0	375390208	21	4985
2026-01-10 09:25:07.14	107.22	27.83	-31.3	-34.5	10.3	3.01e-03	0	42	0	376438784	22	5247
2026-01-10 09:25:08.14	107.01	27.97	-31.3	-34.9	10.0	5.38e-03	0	42	0	378535936	22	5399
2026-01-10 09:25:09.15	106.80	28.11	-31.2	-34.0	10.4	7.77e-03	0	41	0	380633088	23	4961
2026-01-10 09:25:10.15	106.59	28.24	-31.1	-33.6	10.6	5.29e-03	0	42	0	382730240	23	4778
2026-01-10 09:25:11.15	106.38	28.38	-31.1	-33.6	10.7	4.09e-03	0	42	0	384827392	23	4781
2026-01-10 09:25:12.15	106.17	28.52	-31.2	-33.9	10.5	3.71e-03	0	42	0	385875968	23	4881
2026-01-10 09:25:13.16	105.95	28.66	-31.5	-34.9	9.7	8.81e-03	0	42	0	387973120	23	5316
2026-01-10 09:25:14.16	105.74	28.80	-31.6	-35.3	9.3	1.71e-02	0	42	0	390070272	23	5523
2026-01-10 09:25:15.16	105.52	28.94	-31.8	-36.0	8.9	1.90e-02	0	42	0	392167424	23	5870
2026-01-10 09:25:16.16	105.30	29.08	-31.7	-35.5	9.2	2.29e-02	0	42	0	394264576	23	5606
2026-01-10 09:25:17.17	105.07	29.22	-31.4	-34.4	10.0	7.77e-03	0	42	0	395313152	23	5117
2026-01-10 09:25:18.16	104.85	29.35	-31.4	-34.7	9.9	7.77e-03	0	42	0	397410304	23	5215
2026-01-10 09:25:19.16	104.62	29.49	-31.6	-35.2	9.4	1.06e-02	0	42	0	399507456	23	5475
2026-01-10 09:25:20.16	104.39	29.63	-31.6	-35.5	9.2	1.85e-02	0	42	0	401604608	23	5610
2026-01-10 09:25:21.16	104.16	29.77	-31.7	-35.6	9.1	2.62e-02	0	42	0	402653184	23	5675
2026-01-10 09:25:22.16	103.93	29.91	-31.5	-34.8	9.6	1.88e-02	0	42	0	404750336	23	5270
2026-01-10 09:25:23.17	103.69	30.05	-31.6	-35.3	9.5	1.98e-02	0	42	0	406847488	23	5478
2026-01-10 09:25:24.17	103.46	30.19	-31.4	-34.5	9.9	8.55e-03	0	42	0	408944640	23	5161
2026-01-10 09:25:25.17	103.22	30.33	-31.4	-34.3	10.2	4.97e-03	0	42	0	411041792	23	5064
2026-01-10 09:25:26.17	102.98	30.47	-31.1	-33.4	10.8	2.89e-03	0	42	0	412090368	23	4708
2026-01-10 09:25:27.17	102.74	30.61	-31.0	-33.0	11.1	1.94e-03	0	42	0	414187520	23	4555
2026-01-10 09:25:28.17	102.49	30.75	-30.8	-32.5	11.4	1.36e-03	0	42	0	416284672	23	4375
2026-01-10 09:25:29.18	102.24	30.90	-30.6	-32.2	12.1	5.87e-04	0	42	0	418381824	22	4330
2026-01-10 09:25:30.18	101.99	31.04	-30.4	-31.7	12.4	1.97e-04	0	42	0	420478976	22	4171
2026-01-10 09:25:31.19	101.74	31.18	-30.4	-31.9	12.4	2.33e-04	0	42	0	421527552	22	4243
2026-01-10 09:25:32.19	101.48	31.32	-30.8	-32.9	11.6	5.54e-04	0	42	0	423624704	22	4594
2026-01-10 09:25:33.19	101.23	31.46	-30.6	-32.3	12.0	5.29e-04	0	42	0	425721856	22	4401
2026-01-10 09:25:34.19	100.97	31.60	-30.9	-33.1	11.5	5.32e-04	0	42	0	427819008	22	4651
2026-01-10 09:25:35.20	100.70	31.74	-31.1	-33.9	11.0	1.19e-03	0	42	0	429916160	22	4951
2026-01-10 09:25:36.19	100.44	31.88	-31.1	-34.0	10.9	2.98e-03	0	42	0	430964736	22	4991
2026-01-10 09:25:37.19	100.18	32.02	-31.2	-34.1	10.7	3.40e-03	0	42	0	433061888	22	5060
2026-01-10 09:25:38.19	99.91	32.17	-31.1	-34.1	10.6	3.63e-03	0	42	0	435159040	22	5074
2026-01-10 09:25:39.19	99.64	32.31	-31.0	-33.7	11.0	2.77e-03	0	42	0	437256192	22	4896
2026-01-10 09:25:40.20	99.37	32.45	-31.1	-33.9	11.0	1.70e-03	0	42	0	439353344	22	4955
2026-01-10 09:25:41.20	99.09	32.59	-31.1	-33.8	11.0	2.72e-03	0	42	0	440401920	22	4930
2026-01-10 09:25:42.20	98.81	32.73	-31.2	-34.3	10.7	3.07e-03	0	42	0	442499072	22	5117
2026-01-10 09:25:43.20	98.54	32.87	-31.4	-34.9	10.1	4.65e-03	0	42	0	444596224	22	5410
2026-01-10 09:25:44.21	98.25	33.01	-31.4	-34.8	10.2	4.58e-03	0	42	0	446693376	22	5365
2026-01-10 09:25:45.20	97.97	33.15	-30.8	-32.8	11.7	1.79e-03	0	42	0	447741952	22	4553
2026-01-10 09:25:46.20	97.68	33.29	-30.5	-32.1	12.3	4.55e-04	0	42	0	449839104	22	4321
2026-01-10 09:25:47.21	97.39	33.43	-30.6	-32.3	12.0	4.16e-04	0	42	0	451936256	22	4386
2026-01-10 09:25:48.20	97.10	33.57	-30.4	-32.1	12.5	1.65e-04	0	42	0	454033408	21	4407
2026-01-10 09:25:49.21	96.80	33.71	-30.5	-32.5	12.2	2.33e-04	0	42	0	456130560	21	4546
2026-01-10 09:25:50.21	96.51	33.85	-30.5	-32.4	12.4	3.83e-04	0	42	0	457179136	21	4511
2026-01-10 09:25:51.21	96.21	33.99	-30.2	-31.5	12.9	4.11e-05	0	42	0	459276288	21	4204
2026-01-10 09:25:52.22	95.90	34.13	-30.0	-31.2	13.2	3.73e-05	0	42	0	461373440	21	4101
2026-01-10 09:25:53.22	95.60	34.27	-30.3	-32.0	12.6	3.35e-05	0	42	0	463470592	21	4360
2026-01-10 09:25:54.22	95.29	34.40	-30.3	-32.0	12.5	8.54e-05	0	42	0	465567744	21	4382
2026-01-10 09:25:55.22	94.98	34.54	-30.2	-31.7	12.8	6.40e-05	0	42	0	466616320	21	4273
2026-01-10 09:25:56.21	94.67	34.68	-30.1	-31.5	12.9	6.86e-05	0	42	0	468713472	21	4213
2026-01-10 09:25:57.21	94.35	34.81	-30.3	-32.0	12.5	1.33e-04	0	42	0	470810624	21	4388
2026-01-10 09:25:58.21	94.04	34.95	-30.7	-33.4	11.5	4.16e-04	0	42	0	472907776	21	4911
2026-01-10 09:25:59.21	93.72	35.09	-31.0	-33.9	10.8	1.83e-03	0	42	0	475004928	22	5021
2026-01-10 09:26:00.21	93.39	35.22	-31.0	-34.0	10.8	2.79e-03	0	42	0	476053504	22	5040
2026-01-10 09:26:01.21	93.07	35.36	-31.2	-34.5	10.3	4.22e-03	0	42	0	478150656	22	5285
2026-01-10 09:26:02.21	92.74	35.49	-31.3	-35.0	10.1	6.99e-03	0	42	0	480247808	22	5490
2026-01-10 09:26:03.21	92.41	35.63	-31.6	-35.7	9.0	1.89e-02	0	42	0	482344960	23	5776
2026-01-10 09:26:04.21	92.07	35.76	-31.7	-35.9	8.9	2.87e-02	0	42	0	483393536	23	5867
2026-01-10 09:26:05.21	91.74	35.89	-31.8	-36.5	8.4	2.92e-02	0	42	0	485490688	23	6129
2026-01-10 09:26:06.22	91.39	36.03	-31.6	-35.2	9.6	1.65e-02	0	42	0	487587840	23	5472
2026-01-10 09:26:07.22	91.05	36.16	-31.9	-36.5	8.6	3.89e-02	0	42	0	489684992	23	6095
2026-01-10 09:26:08.23	90.70	36.29	-32.0	-36.6	8.1	5.18e-02	0	42	0	491782144	24	6068
2026-01-10 09:26:09.23	90.35	36.42	-32.0	-36.4	8.3	5.11e-02	0	42	0	493879296	24	5992
2026-01-10 09:26:10.22	90.01	36.55	-31.8	-35.5	9.1	2.96e-02	0	42	0	494927872	24	5495
2026-01-10 09:26:11.22	89.65	36.68	-31.9	-35.8	8.8	2.28e-02	0	42	0	497025024	24	5624
2026-01-10 09:26:12.22	89.30	36.81	-31.9	-35.7	8.8	3.60e-02	0	42	0	499122176	24	5587
2026-01-10 09:26:13.23	88.93	36.93	-31.6	-34.7	9.6	2.57e-02	0	42	0	501219328	24	5148
2026-01-10 09:26:14.23	88.57	37.06	-31.5	-34.5	9.8	9.89e-03	0	42	0	502267904	24	5047
2026-01-10 09:26:15.24	88.20	37.19	-31.3	-33.7	10.3	6.46e-03	0	42	0	504365056	24	4748
2026-01-10 09:26:16.24	87.83	37.31	-31.1	-33.4	10.9	2.01e-03	0	42	0	506462208	23	4708
2026-01-10 09:26:17.23	87.47	37.44	-30.9	-32.9	11.3	1.42e-03	0	42	0	508559360	23	4513
2026-01-10 09:26:18.24	87.09	37.56	-31.0	-33.1	11.0	1.26e-03	0	42	0	510656512	23	4587
2026-01-10 09:26:19.24	86.71	37.68	-30.2	-31.8	12.6	3.26e-04	0	42	0	511705088	21	4314
2026-01-10 09:26:20.24	86.34	37.80	-30.0	-31.3	13.1	5.34e-05	0	42	0	513802240	21	4157
2026-01-10 09:26:21.24	85.95	37.92	-30.0	-31.2	13.0	5.79e-05	0	42	0	515899392	21	4138
2026-01-10 09:26:22.24	85.57	38.04	-30.4	-32.3	12.4	5.34e-05	0	42	0	517996544	21	4479
2026-01-10 09:26:23.24	85.18	38.16	-30.6	-32.9	11.9	1.84e-04	0	42	0	520093696	21	4717
2026-01-10 09:26:24.24	84.79	38.28	-30.7	-33.3	11.6	4.64e-04	0	42	0	521142272	21	4878
2026-01-10 09:26:25.25	84.39	38.40	-30.7	-33.4	11.5	7.65e-04	0	42	0	523239424	21	4903
2026-01-10 09:26:26.25	84.00	38.51	-30.4	-32.4	12.2	7.18e-04	0	42	0	525336576	21	4558
2026-01-10 09:26:27.26	83.59	38.62	-30.7	-33.5	11.6	4.51e-04	0	42	0	527433728	21	4940
2026-01-10 09:26:28.26	83.19	38.74	-30.5	-32.9	11.9	4.75e-04	0	42	0	528482304	21	4731
2026-01-10 09:26:29.26	82.79	38.85	-30.2	-32.0	12.5	7.17e-05	0	42	0	530579456	21	4404
2026-01-10 09:26:30.26	82.38	38.96	-29.9	-31.7	13.1	1.83e-05	0	42	0	532676608	20	4418
2026-01-10 09:26:31.25	81.98	39.06	-29.8	-31.4	13.2	2.51e-05	0	42	0	534773760	20	4331
2026-01-10 09:26:32.25	81.56	39.17	-29.7	-31.1	13.4	2.67e-05	0	42	0	536870912	20	4215
2026-01-10 09:26:33.25	81.15	39.28	-29.8	-31.2	13.4	1.29e-05	0	42	0	537919488	20	4248
2026-01-10 09:26:34.26	80.73	39.38	-29.9	-31.6	13.1	1.29e-05	0	42	0	540016640	20	4362
2026-01-10 09:26:35.26	80.30	39.49	-29.4	-30.3	14.0	1.22e-05	0	42	0	542113792	20	3956
2026-01-10 09:26:36.25	79.89	39.59	-29.3	-30.3	14.4	2.20e-06	0	42	0	544210944	19	4052
2026-01-10 09:26:37.25	79.46	39.69	-29.3	-30.4	14.2	0.00e+00	0	42	0	546308096	19	4077
2026-01-10 09:26:38.25	79.03	39.78	-29.7	-31.5	13.6	1.50e-06	0	42	0	547356672	19	4438
2026-01-10 09:26:39.26	78.60	39.88	-29.7	-31.6	13.5	1.83e-05	0	42	0	549453824	19	4469
2026-01-10 09:26:40.26	78.16	39.98	-29.5	-31.0	13.9	6.10e-06	0	42	0	551550976	19	4277
2026-01-10 09:26:41.25	77.73	40.07	-29.2	-30.2	14.4	7.00e-07	0	42	0	553648128	19	4038
2026-01-10 09:26:42.25	77.29	40.16	-29.2	-30.0	14.6	7.00e-07	0	42	0	555745280	19	3950
2026-01-10 09:26:43.25	76.85	40.25	-29.5	-30.8	14.2	7.00e-07	0	42	0	556793856	19	4184
2026-01-10 09:26:44.25	76.41	40.34	-29.5	-30.7	14.1	0.00e+00	0	42	0	558891008	19	4165
2026-01-10 09:26:45.25	75.96	40.43	-29.8	-31.6	13.6	2.20e-06	0	42	0	560988160	19	4437
2026-01-10 09:26:46.25	75.51	40.51	-29.9	-31.7	13.5	5.30e-06	0	42	0	563085312	19	4470
2026-01-10 09:26:47.25	75.06	40.60	-29.7	-30.9	13.7	3.05e-05	0	42	0	564133888	20	4134
2026-01-10 09:26:48.25	74.61	40.68	-29.7	-30.9	13.8	8.30e-06	0	42	0	566231040	20	4116
2026-01-10 09:26:49.26	74.15	40.76	-29.9	-31.4	13.4	1.06e-05	0	42	0	568328192	20	4273
2026-01-10 09:26:50.26	73.69	40.83	-30.3	-32.4	12.6	2.28e-05	0	42	0	570425344	20	4597
2026-01-10 09:26:51.26	73.23	40.91	-30.6	-33.0	11.9	2.04e-04	0	42	0	572522496	21	4743
2026-01-10 09:26:52.26	72.77	40.98	-30.1	-31.6	12.8	7.32e-05	0	42	0	573571072	21	4262
2026-01-10 09:26:53.27	72.30	41.06	-29.8	-31.1	13.5	1.60e-05	0	42	0	575668224	20	4199
2026-01-10 09:26:54.27	71.83	41.13	-29.9	-31.3	13.4	1.14e-05	0	42	0	577765376	20	4241
2026-01-10 09:26:55.27	71.37	41.19	-30.0	-31.6	13.2	1.14e-05	0	42	0	579862528	20	4349
2026-01-10 09:26:56.26	70.90	41.26	-29.6	-30.6	13.8	4.50e-06	0	42	0	581959680	20	4037
2026-01-10 09:26:57.26	70.43	41.32	-29.4	-30.2	14.1	8.30e-06	0	42	0	583008256	20	3938
2026-01-10 09:26:58.27	69.95	41.38	-29.8	-31.1	13.7	3.80e-06	0	42	0	585105408	20	4182
2026-01-10 09:26:59.27	69.48	41.44	-29.5	-30.2	14.1	3.80e-06	0	42	0	587202560	20	3934
2026-01-10 09:27:00.27	69.00	41.50	-29.2	-29.9	14.7	6.10e-06	0	42	0	589299712	19	3929
2026-01-10 09:27:01.28	68.51	41.56	-29.2	-30.0	14.7	7.00e-07	0	42	0	591396864	19	3938
2026-01-10 09:27:02.28	68.03	41.61	-29.5	-30.9	14.2	7.00e-07	0	42	0	592445440	19	4214
2026-01-10 09:27:03.28	67.55	41.66	-29.7	-31.4	13.9	6.80e-06	0	42	0	594542592	19	4364
2026-01-10 09:27:04.29	67.06	41.71	-29.9	-31.9	13.5	1.14e-05	0	42	0	596639744	19	4512
2026-01-10 09:27:05.29	66.58	41.75	-29.7	-31.3	13.9	1.22e-05	0	42	0	598736896	19	4321
2026-01-10 09:27:06.29	66.09	41.80	-29.7	-31.3	13.9	2.20e-06	0	42	0	600834048	19	4332
2026-01-10 09:27:07.29	65.61	41.84	-29.3	-30.1	14.6	7.00e-07	0	42	0	601882624	19	3968
2026-01-10 09:27:08.29	65.12	41.88	-29.3	-30.1	14.7	1.50e-06	0	42	0	603979776	19	3967
2026-01-10 09:27:09.29	64.63	41.92	-29.3	-30.1	14.7	0.00e+00	0	42	0	606076928	19	3968
2026-01-10 09:27:10.30	64.13	41.95	-29.7	-31.3	14.0	7.00e-07	0	42	0	608174080	19	4328
2026-01-10 09:27:11.29	63.64	41.98	-29.8	-31.4	13.8	5.30e-06	0	42	0	609222656	19	4329
2026-01-10 09:27:12.29	63.15	42.01	-29.6	-30.5	14.0	1.52e-05	0	42	0	611319808	20	3991
2026-01-10 09:27:13.29	62.66	42.04	-29.7	-30.9	13.8	5.30e-06	0	42	0	613416960	20	4117
2026-01-10 09:27:14.29	62.16	42.06	-30.1	-31.8	13.2	1.22e-05	0	42	0	615514112	20	4415
2026-01-10 09:27:15.29	61.67	42.09	-29.7	-31.0	13.5	2.28e-05	0	42	0	617611264	20	4202
2026-01-10 09:27:16.29	61.17	42.11	-29.4	-30.4	14.0	2.20e-06	0	42	0	618659840	20	4004
2026-01-10 09:27:17.28	60.68	42.13	-29.7	-31.6	13.6	3.00e-06	0	42	0	620756992	19	4481
2026-01-10 09:27:18.29	60.18	42.14	-30.1	-32.4	12.7	4.34e-05	0	42	0	622854144	20	4644
2026-01-10 09:27:19.29	59.68	42.15	-30.2	-32.6	12.5	1.11e-04	0	42	0	624951296	20	4740
2026-01-10 09:27:20.29	59.18	42.16	-29.8	-31.5	13.2	4.19e-05	0	42	0	627048448	20	4389
2026-01-10 09:27:21.29	58.69	42.17	-29.7	-31.3	13.3	1.75e-05	0	42	0	628097024	20	4328
2026-01-10 09:27:22.29	58.19	42.18	-30.0	-32.3	12.6	3.12e-05	0	42	0	630194176	20	4667
2026-01-10 09:27:23.29	57.69	42.18	-29.8	-31.7	12.9	3.28e-05	0	42	0	632291328	20	4467
2026-01-10 09:27:24.29	57.19	42.18	-29.4	-30.6	13.7	3.00e-06	0	42	0	634388480	20	4101
2026-01-10 09:27:25.29	56.69	42.18	-29.5	-30.8	13.6	5.30e-06	0	42	0	635437056	20	4168
2026-01-10 09:27:26.30	56.19	42.18	-30.2	-32.8	12.2	2.51e-05	0	42	0	637534208	20	4844
2026-01-10 09:27:27.30	55.69	42.17	-30.6	-33.5	11.4	5.83e-04	0	42	0	639631360	21	5061
2026-01-10 09:27:28.30	55.19	42.16	-30.8	-34.4	10.8	1.58e-03	0	42	0	641728512	21	5408
2026-01-10 09:27:29.30	54.70	42.15	-31.1	-34.9	10.0	4.38e-03	0	42	0	643825664	22	5559
2026-01-10 09:27:30.30	54.20	42.14	-31.3	-35.6	9.5	1.33e-02	0	42	0	644874240	22	5858
2026-01-10 09:27:31.30	53.70	42.12	-30.8	-33.7	10.9	7.35e-03	0	42	0	646971392	22	5001
2026-01-10 09:27:32.30	53.21	42.10	-30.7	-33.1	11.4	1.63e-03	0	42	0	649068544	22	4758
2026-01-10 09:27:33.30	52.71	42.08	-31.0	-33.9	10.9	1.18e-03	0	42	0	651165696	22	5069
2026-01-10 09:27:34.30	52.22	42.06	-31.7	-35.9	9.2	2.32e-02	0	42	0	653262848	23	5861
2026-01-10 09:27:35.31	51.72	42.03	-31.7	-36.1	8.8	3.29e-02	0	42	0	654311424	23	5930
2026-01-10 09:27:36.31	51.22	42.00	-31.4	-35.0	9.4	1.18e-02	0	42	0	656408576	23	5448
2026-01-10 09:27:37.31	50.73	41.97	-31.3	-34.7	9.8	1.23e-02	0	42	0	658505728	23	5322
2026-01-10 09:27:38.31	50.24	41.94	-31.6	-35.8	8.9	1.38e-02	0	42	0	660602880	23	5839
2026-01-10 09:27:39.31	49.75	41.90	-31.7	-36.1	9.0	2.50e-02	0	42	0	662700032	23	5971
2026-01-10 09:27:40.31	49.26	41.86	-31.8	-36.7	8.4	2.89e-02	0	42	0	663748608	23	6307
2026-01-10 09:27:41.31	48.77	41.82	-31.7	-36.3	8.6	6.63e-02	0	42	0	665845760	23	6091
2026-01-10 09:27:42.31	48.29	41.78	-31.9	-37.3	7.8	5.32e-02	0	42	0	667942912	23	6680
2026-01-10 09:27:43.31	47.80	41.74	-31.7	-36.2	8.8	2.62e-02	0	42	0	670040064	23	6071
2026-01-10 09:27:44.31	47.32	41.69	-31.4	-35.3	9.4	2.13e-02	0	42	0	671088640	23	5622
2026-01-10 09:27:45.32	46.83	41.64	-31.4	-35.5	9.2	2.07e-02	0	42	0	673185792	23	5716
2026-01-10 09:27:46.33	46.35	41.59	-31.4	-35.2	9.3	1.28e-02	0	42	0	675282944	23	5613
2026-01-10 09:27:47.33	45.87	41.54	-31.2	-34.7	9.7	9.63e-03	0	42	0	677380096	23	5385
2026-01-10 09:27:48.33	45.39	41.48	-31.4	-35.5	9.2	1.71e-02	0	42	0	679477248	23	5741
2026-01-10 09:27:49.34	44.91	41.42	-31.4	-35.3	9.3	1.61e-02	0	42	0	680525824	23	5641
2026-01-10 09:27:50.34	44.43	41.36	-31.2	-34.4	10.0	1.54e-02	0	42	0	682622976	23	5251
2026-01-10 09:27:51.34	43.96	41.30	-31.2	-34.6	9.8	1.06e-02	0	42	0	684720128	23	5328
2026-01-10 09:27:52.34	43.49	41.23	-31.2	-34.3	10.2	8.83e-03	0	42	0	686817280	23	5150
2026-01-10 09:27:53.34	43.02	41.17	-30.8	-33.2	11.4	3.58e-03	0	42	0	688914432	22	4778
2026-01-10 09:27:54.34	42.56	41.10	-30.8	-33.1	11.5	4.27e-04	0	42	0	689963008	22	4719
2026-01-10 09:27:55.34	42.09	41.03	-30.6	-32.4	12.1	7.57e-04	0	42	0	692060160	22	4441
2026-01-10 09:27:56.34	41.63	40.96	-30.4	-32.0	12.3	4.28e-04	0	42	0	694157312	22	4312
2026-01-10 09:27:57.33	41.17	40.88	-30.2	-31.8	12.9	8.69e-05	0	42	0	696254464	21	4322
2026-01-10 09:27:58.34	40.71	40.81	-30.4	-32.4	12.4	1.59e-04	0	42	0	698351616	21	4529
2026-01-10 09:27:59.34	40.26	40.73	-30.0	-31.2	13.2	3.66e-05	0	42	0	699400192	21	4133
2026-01-10 09:28:00.33	39.81	40.65	-30.1	-31.5	13.0	3.28e-05	0	42	0	701497344	21	4221
2026-01-10 09:28:01.34	39.35	40.57	-30.1	-31.6	13.0	4.95e-05	0	42	0	703594496	21	4250
2026-01-10 09:28:02.34	38.90	40.48	-30.2	-31.6	13.2	1.68e-04	0	42	0	705691648	21	4240
2026-01-10 09:28:03.34	38.45	40.40	-30.1	-31.5	13.1	4.95e-05	0	42	0	707788800	21	4207
2026-01-10 09:28:04.34	38.01	40.31	-30.6	-32.8	12.2	1.79e-04	0	42	0	708837376	21	4619
2026-01-10 09:28:05.34	37.57	40.22	-29.8	-31.1	13.8	7.60e-06	0	42	0	710934528	20	4184
2026-01-10 09:28:06.34	37.13	40.13	-29.7	-30.9	13.9	6.80e-06	0	42	0	713031680	20	4136
2026-01-10 09:28:07.34	36.69	40.04	-30.6	-32.9	12.3	6.94e-05	0	42	0	715128832	21	4686
2026-01-10 09:28:08.35	36.25	39.94	-30.8	-33.3	11.8	4.65e-04	0	42	0	716177408	21	4796
2026-01-10 09:28:09.35	35.82	39.85	-29.7	-30.9	13.8	6.17e-05	0	42	0	718274560	20	4096
2026-01-10 09:28:10.35	35.39	39.75	-28.9	-29.1	15.2	6.80e-06	0	42	0	720371712	19	3690
2026-01-10 09:28:11.34	34.97	39.65	-28.4	-28.4	16.0	0.00e+00	0	42	0	722468864	18	3604
2026-01-10 09:28:12.34	34.54	39.55	-28.2	-28.5	16.1	0.00e+00	0	42	0	724566016	17	3714
2026-01-10 09:28:13.34	34.12	39.45	-28.0	-28.1	16.4	0.00e+00	0	42	0	725614592	17	3612
2026-01-10 09:28:14.34	33.70	39.35	-28.3	-28.8	16.1	0.00e+00	0	42	0	727711744	17	3786
2026-01-10 09:28:15.33	33.29	39.25	-28.8	-30.0	15.3	0.00e+00	0	42	0	729808896	17	4104
2026-01-10 09:28:16.33	32.88	39.14	-29.5	-30.8	14.2	7.00e-07	0	42	0	731906048	19	4151
2026-01-10 09:28:17.34	32.46	39.03	-29.8	-31.5	13.8	7.00e-07	0	42	0	734003200	19	4364
2026-01-10 09:28:18.34	32.06	38.92	-30.0	-31.5	13.3	7.60e-06	0	42	0	735051776	20	4289
2026-01-10 09:28:19.33	31.65	38.81	-29.9	-31.2	13.7	6.10e-06	0	42	0	737148928	20	4201
2026-01-10 09:28:20.33	31.25	38.70	-29.3	-30.2	14.5	7.00e-07	0	42	0	739246080	19	4002
2026-01-10 09:28:21.34	30.85	38.59	-28.6	-29.0	15.5	0.00e+00	0	42	0	741343232	18	3754
2026-01-10 09:28:22.33	30.46	38.48	-28.1	-28.3	16.3	0.00e+00	0	42	0	743440384	17	3672
2026-01-10 09:28:23.33	30.06	38.36	-28.4	-29.0	15.9	0.00e+00	0	42	0	744488960	17	3862
2026-01-10 09:28:24.33	29.67	38.25	-29.3	-30.6	14.7	0.00e+00	0	42	0	746586112	18	4203
2026-01-10 09:28:25.33	29.28	38.13	-29.8	-31.5	13.7	3.00e-06	0	42	0	748683264	19	4373
2026-01-10 09:28:26.33	28.90	38.01	-29.1	-29.8	14.8	3.80e-06	0	42	0	750780416	19	3873
2026-01-10 09:28:27.32	28.52	37.89	-29.0	-30.0	15.1	0.00e+00	0	42	0	751828992	18	4022
2026-01-10 09:28:28.31	28.14	37.77	-28.7	-29.1	15.8	0.00e+00	0	42	0	753926144	18	3775
2026-01-10 09:28:29.32	27.76	37.65	-28.7	-29.1	15.7	0.00e+00	0	42	0	756023296	18	3783
2026-01-10 09:28:30.33	27.38	37.53	-28.8	-29.2	15.7	0.00e+00	0	42	0	758120448	18	3802
2026-01-10 09:28:31.33	27.01	37.41	-29.1	-30.1	15.1	0.00e+00	0	42	0	760217600	18	4026
2026-01-10 09:28:32.33	26.64	37.28	-29.5	-31.0	14.5	0.00e+00	0	42	0	761266176	18	4315
2026-01-10 09:28:33.33	26.28	37.16	-30.2	-32.2	13.1	1.06e-05	0	42	0	763363328	20	4494
2026-01-10 09:28:34.34	25.91	37.03	-30.5	-32.5	12.6	4.27e-05	0	42	0	765460480	21	4521
2026-01-10 09:28:35.33	25.55	36.91	-30.0	-30.9	13.6	1.23e-04	0	42	0	767557632	21	3998
2026-01-10 09:28:36.33	25.20	36.78	-29.4	-30.2	14.9	0.00e+00	0	42	0	769654784	19	3970
2026-01-10 09:28:37.33	24.84	36.65	-29.0	-29.3	15.3	7.00e-07	0	42	0	770703360	19	3734
2026-01-10 09:28:38.34	24.49	36.52	-29.9	-31.6	14.0	7.00e-07	0	42	0	772800512	19	4384
2026-01-10 09:28:39.33	24.14	36.39	-30.1	-31.8	13.4	5.30e-06	0	42	0	774897664	20	4377
2026-01-10 09:28:40.33	23.79	36.26	-30.2	-32.0	13.2	6.10e-06	0	42	0	776994816	20	4437
2026-01-10 09:28:41.33	23.45	36.13	-29.6	-30.2	14.4	4.50e-06	0	42	0	778043392	20	3896
2026-01-10 09:28:42.33	23.11	36.00	-29.6	-30.4	14.3	7.00e-07	0	42	0	780140544	20	3943
2026-01-10 09:28:43.33	22.77	35.87	-29.9	-31.1	13.8	4.50e-06	0	42	0	782237696	20	4149
2026-01-10 09:28:44.33	22.44	35.73	-30.2	-32.0	13.1	7.60e-06	0	42	0	784334848	20	4446
2026-01-10 09:28:45.33	22.10	35.60	-30.1	-31.9	13.2	3.12e-05	0	42	0	786432000	20	4397
2026-01-10 09:28:46.34	21.77	35.47	-30.6	-32.7	12.3	8.54e-05	0	42	0	787480576	21	4601
2026-01-10 09:28:47.34	21.45	35.33	-30.7	-33.1	12.0	8.31e-05	0	42	0	789577728	21	4759
2026-01-10 09:28:48.34	21.12	35.20	-30.9	-33.7	11.6	5.52e-04	0	42	0	791674880	21	4965
2026-01-10 09:28:49.35	20.80	35.06	-30.5	-32.6	12.4	2.09e-04	0	42	0	793772032	21	4552
2026-01-10 09:28:50.35	20.48	34.93	-30.5	-32.6	12.4	1.08e-04	0	42	0	795869184	21	4538
2026-01-10 09:28:51.36	20.16	34.79	-30.1	-31.3	13.3	1.34e-04	0	42	0	796917760	21	4113
2026-01-10 09:28:52.36	19.85	34.65	-30.1	-31.2	13.3	1.44e-05	0	42	0	799014912	21	4107
2026-01-10 09:28:53.37	19.53	34.51	-29.8	-30.4	13.8	3.28e-05	0	42	0	801112064	21	3857
2026-01-10 09:28:54.37	19.22	34.38	-29.2	-29.8	15.0	0.00e+00	0	42	0	803209216	19	3854
2026-01-10 09:28:55.37	18.92	34.24	-29.4	-30.2	14.6	0.00e+00	0	42	0	805306368	19	3985
2026-01-10 09:28:56.37	18.62	34.10	-29.9	-31.2	13.6	9.90e-06	0	42	0	806354944	20	4201
2026-01-10 09:28:57.36	18.32	33.96	-30.8	-33.3	11.9	1.36e-04	0	42	0	808452096	21	4824
2026-01-10 09:28:58.37	18.02	33.82	-31.2	-34.1	10.9	1.47e-03	0	42	0	810549248	22	5056
2026-01-10 09:28:59.38	17.72	33.68	-31.0	-33.6	11.2	1.77e-03	0	42	0	812646400	22	4865
2026-01-10 09:29:00.38	17.43	33.55	-30.4	-32.1	12.6	1.19e-04	0	42	0	814743552	21	4402
2026-01-10 09:29:01.38	17.14	33.41	-30.6	-32.7	12.3	4.04e-05	0	42	0	815792128	21	4586
2026-01-10 09:29:02.38	16.85	33.27	-31.2	-34.1	11.0	2.20e-04	0	42	0	817889280	22	5010
2026-01-10 09:29:03.38	16.56	33.13	-31.3	-34.4	10.8	1.76e-03	0	42	0	819986432	22	5150
2026-01-10 09:29:04.39	16.28	32.99	-31.3	-34.5	10.7	3.04e-03	0	42	0	822083584	22	5179
2026-01-10 09:29:05.39	16.00	32.85	-31.8	-35.9	9.2	1.08e-02	0	42	0	823132160	23	5734
2026-01-10 09:29:06.40	15.72	32.71	-32.1	-36.7	8.3	3.37e-02	0	42	0	825229312	24	6075
2026-01-10 09:29:07.40	15.44	32.57	-32.5	-38.1	6.7	1.74e-01	0	42	0	827326464	25	6822
2026-01-10 09:29:08.40	15.17	32.43	-32.5	-38.4	6.4	2.48e-01	0	42	0	829423616	25	7086
2026-01-10 09:29:09.41	14.90	32.28	-32.4	-37.6	7.1	1.69e-01	0	42	0	831520768	25	6505
2026-01-10 09:29:10.41	14.63	32.14	-31.9	-35.0	9.2	2.83e-02	0	42	0	833617920	25	5141
2026-01-10 09:29:11.41	14.36	32.00	-31.8	-35.2	9.5	1.60e-02	0	42	0	834666496	24	5330
2026-01-10 09:29:12.42	14.10	31.86	-31.9	-35.6	9.1	2.95e-02	0	42	0	836763648	24	5496
2026-01-10 09:29:13.42	13.84	31.72	-31.7	-35.0	9.5	1.96e-02	0	42	0	838860800	24	5215
2026-01-10 09:29:14.42	13.58	31.58	-32.2	-36.8	8.1	3.24e-02	0	42	0	840957952	24	6139
2026-01-10 09:29:15.42	13.32	31.44	-32.2	-36.8	8.1	6.00e-02	0	42	0	842006528	24	6131
2026-01-10 09:29:16.43	13.06	31.30	-31.8	-35.4	9.3	2.90e-02	0	42	0	844103680	24	5398
2026-01-10 09:29:17.42	12.81	31.16	-31.6	-34.3	10.1	7.67e-03	0	42	0	846200832	24	4926
2026-01-10 09:29:18.42	12.56	31.02	-31.5	-34.0	10.3	5.60e-03	0	42	0	848297984	24	4795
2026-01-10 09:29:19.43	12.31	30.88	-31.5	-34.1	10.3	4.76e-03	0	42	0	850395136	24	4835
2026-01-10 09:29:20.43	12.07	30.74	-31.6	-34.4	9.9	8.63e-03	0	42	0	851443712	24	4973
2026-01-10 09:29:21.43	11.82	30.60	-31.5	-34.1	10.2	5.23e-03	0	42	0	853540864	24	4844
2026-01-10 09:29:22.43	11.58	30.46	-31.7	-34.9	9.6	3.98e-03	0	42	0	855638016	24	5170
2026-01-10 09:29:23.44	11.34	30.32	-31.8	-35.3	9.3	1.82e-02	0	42	0	857735168	24	5345
2026-01-10 09:29:24.44	11.10	30.18	-31.8	-35.3	9.2	1.21e-02	0	42	0	859832320	24	5365
2026-01-10 09:29:25.44	10.87	30.04	-31.8	-35.2	9.3	2.28e-02	0	42	0	860880896	24	5304
2026-01-10 09:29:26.45	10.63	29.90	-31.6	-34.6	9.8	1.39e-02	0	42	0	862978048	24	5058
2026-01-10 09:29:27.45	10.40	29.76	-31.4	-33.8	10.3	6.36e-03	0	42	0	865075200	24	4731
2026-01-10 09:29:28.45	10.17	29.62	-30.6	-32.3	12.0	3.98e-04	0	42	0	867172352	22	4363
2026-01-10 09:29:29.45	9.95	29.48	-30.6	-32.1	12.2	1.82e-04	0	42	0	868220928	22	4284
2026-01-10 09:29:30.46	9.72	29.34	-30.6	-32.3	12.2	2.74e-04	0	42	0	870318080	22	4353
2026-01-10 09:29:31.45	9.50	29.20	-30.8	-32.7	11.9	3.17e-04	0	42	0	872415232	22	4503
2026-01-10 09:29:32.46	9.28	29.06	-30.9	-33.2	11.5	4.87e-04	0	42	0	874512384	22	4667
2026-01-10 09:29:33.46	9.06	28.93	-30.7	-32.4	12.0	5.68e-04	0	42	0	876609536	22	4418
2026-01-10 09:29:34.47	8.84	28.79	-30.7	-32.5	12.1	3.06e-04	0	42	0	878706688	22	4436
2026-01-10 09:29:35.48	8.62	28.65	-30.3	-31.3	12.7	2.14e-04	0	42	0	879755264	22	4041
2026-01-10 09:29:36.49	8.41	28.51	-30.4	-32.2	12.6	4.42e-05	0	42	0	881852416	21	4415
2026-01-10 09:29:37.49	8.19	28.37	-30.3	-31.9	12.7	7.17e-05	0	42	0	883949568	21	4310
2026-01-10 09:29:38.49	7.98	28.24	-30.3	-32.0	12.7	6.63e-05	0	42	0	886046720	21	4341
2026-01-10 09:29:39.49	7.78	28.10	-30.2	-31.5	13.0	6.71e-05	0	42	0	887095296	21	4208
2026-01-10 09:29:40.49	7.57	27.96	-30.5	-32.4	12.4	8.16e-05	0	42	0	889192448	21	4488
2026-01-10 09:29:41.49	7.37	27.83	-30.8	-33.2	11.9	3.39e-04	0	42	0	891289600	21	4763
2026-01-10 09:29:42.48	7.17	27.69	-30.5	-32.5	12.3	1.63e-04	0	42	0	893386752	21	4509
2026-01-10 09:29:43.49	6.96	27.55	-30.6	-32.7	12.2	1.21e-04	0	42	0	895483904	21	4594
2026-01-10 09:29:44.50	6.76	27.42	-30.5	-32.3	12.4	9.99e-05	0	42	0	896532480	21	4459
2026-01-10 09:29:45.50	6.56	27.28	-30.6	-32.7	12.2	1.52e-04	0	42	0	898629632	21	4578
2026-01-10 09:29:46.50	6.37	27.15	-30.4	-32.0	12.6	2.11e-04	0	42	0	900726784	21	4365
2026-01-10 09:29:47.50	6.17	27.01	-30.6	-32.7	12.1	1.95e-04	0	42	0	902823936	21	4599
2026-01-10 09:29:48.50	5.98	26.88	-30.6	-32.6	12.2	2.35e-04	0	42	0	904921088	21	4558
2026-01-10 09:29:49.50	5.79	26.75	-30.4	-32.3	12.4	1.65e-04	0	42	0	905969664	21	4449
2026-01-10 09:29:50.51	5.60	26.61	-30.2	-31.5	12.9	8.46e-05	0	42	0	908066816	21	4203
2026-01-10 09:29:51.52	5.41	26.48	-30.3	-31.7	13.0	4.27e-05	0	42	0	910163968	21	4257
2026-01-10 09:29:52.51	5.23	26.34	-30.0	-31.1	13.3	7.24e-05	0	42	0	912261120	21	4053
2026-01-10 09:29:53.51	5.04	26.21	-29.9	-30.7	13.4	9.10e-06	0	42	0	914358272	21	3935
2026-01-10 09:29:54.51	4.86	26.08	-29.9	-30.6	13.5	1.67e-05	0	42	0	915406848	21	3915
2026-01-10 09:29:55.51	4.68	25.95	-30.0	-31.4	13.3	6.10e-06	0	42	0	917504000	20	4254
2026-01-10 09:29:56.50	4.50	25.82	-29.9	-31.2	13.5	1.14e-05	0	42	0	919601152	20	4188
2026-01-10 09:29:57.50	4.32	25.69	-30.0	-31.4	13.4	1.44e-05	0	42	0	921698304	20	4244
2026-01-10 09:29:58.50	4.15	25.56	-30.2	-32.1	13.0	2.97e-05	0	42	0	922746880	20	4463
2026-01-10 09:29:59.50	3.97	25.42	-30.4	-32.7	12.5	5.95e-05	0	42	0	924844032	20	4660
2026-01-10 09:30:00.50	3.80	25.29	-30.6	-32.6	12.2	2.16e-04	0	42	0	926941184	21	4545
2026-01-10 09:30:01.50	3.62	25.16	-30.3	-31.8	12.7	1.39e-04	0	42	0	929038336	21	4281
2026-01-10 09:30:02.49	3.46	25.04	-30.4	-32.1	12.6	7.93e-05	0	42	0	931135488	21	4367
2026-01-10 09:30:03.49	3.29	24.91	-30.2	-31.6	12.9	8.85e-05	0	42	0	932184064	21	4233
2026-01-10 09:30:04.50	3.12	24.78	-29.9	-30.8	13.3	2.05e-05	0	42	0	934281216	21	3991
2026-01-10 09:30:05.49	2.95	24.65	-29.9	-31.1	13.5	1.29e-05	0	42	0	936378368	20	4149
2026-01-10 09:30:06.49	2.79	24.52	-29.7	-30.7	13.7	1.29e-05	0	42	0	938475520	20	4029
2026-01-10 09:30:07.49	2.62	24.39	-29.7	-30.6	13.8	3.80e-06	0	42	0	940572672	20	4013
2026-01-10 09:30:08.49	2.46	24.27	-29.8	-31.1	13.6	6.10e-06	0	42	0	941621248	20	4149
2026-01-10 09:30:09.48	2.30	24.14	-30.0	-31.5	13.3	5.30e-06	0	42	0	943718400	20	4264
2026-01-10 09:30:10.48	2.14	24.01	-30.2	-31.9	13.0	8.46e-05	0	42	0	945815552	20	4419
2026-01-10 09:30:11.49	1.98	23.89	-30.3	-32.4	12.7	8.16e-05	0	42	0	947912704	20	4585
2026-01-10 09:30:12.48	1.82	23.76	-30.6	-32.7	12.1	1.10e-04	0	42	0	948961280	21	4596
2026-01-10 09:30:13.49	1.67	23.64	-30.9	-33.6	11.4	5.05e-04	0	42	0	951058432	21	4914
2026-01-10 09:30:14.49	1.51	23.51	-30.8	-33.3	11.6	1.08e-03	0	42	0	953155584	21	4797
2026-01-10 09:30:15.49	1.36	23.39	-30.6	-32.8	12.0	3.51e-04	0	42	0	955252736	21	4616
2026-01-10 09:30:16.49	1.21	23.26	-30.6	-32.7	12.0	4.13e-04	0	42	0	957349888	21	4611
2026-01-10 09:30:17.49	1.06	23.14	-30.8	-33.3	11.6	2.78e-04	0	42	0	958398464	21	4811
2026-01-10 09:30:18.48	0.91	23.01	-30.9	-33.3	11.3	1.27e-03	0	42	0	960495616	22	4710
2026-01-10 09:30:19.48	0.76	22.89	-31.1	-33.8	10.9	9.66e-04	0	42	0	962592768	22	4924
2026-01-10 09:30:20.49	0.61	22.77	-31.1	-33.9	10.8	3.29e-03	0	42	0	964689920	22	4958
2026-01-10 09:30:21.49	0.46	22.64	-31.0	-33.3	11.3	2.02e-03	0	42	0	966787072	22	4732
2026-01-10 09:30:22.48	0.32	22.52	-31.0	-33.4	11.2	1.91e-03	0	42	0	967835648	22	4759
2026-01-10 09:30:23.49	0.17	22.40	-30.9	-33.0	11.5	9.18e-04	0	42	0	969932800	22	4624
2026-01-10 09:30:24.49	0.03	22.28	-30.7	-32.6	11.8	5.88e-04	0	42	0	972029952	22	4473
2026-01-10 09:30:25.48	359.89	22.16	-30.4	-31.7	12.3	1.74e-04	0	42	0	974127104	22	4186
2026-01-10 09:30:26.49	359.75	22.04	-30.2	-31.7	12.6	1.09e-04	0	42	0	975175680	21	4278
2026-01-10 09:30:27.48	359.61	21.92	-30.2	-31.5	12.9	1.15e-04	0	42	0	977272832	21	4201
2026-01-10 09:30:28.49	359.47	21.80	-29.8	-30.6	13.3	3.66e-05	0	42	0	979369984	21	3945
2026-01-10 09:30:29.49	359.34	21.68	-29.7	-30.8	13.6	1.06e-05	0	42	0	981467136	20	4071
2026-01-10 09:30:30.48	359.20	21.56	-29.7	-30.7	13.6	1.22e-05	0	42	0	983564288	20	4045
2026-01-10 09:30:31.49	359.06	21.44	-29.8	-31.0	13.4	3.80e-06	0	42	0	984612864	20	4128
2026-01-10 09:30:32.49	358.93	21.32	-29.9	-31.3	13.3	2.67e-05	0	42	0	986710016	20	4238
2026-01-10 09:30:33.49	358.80	21.20	-29.8	-31.0	13.5	9.10e-06	0	42	0	988807168	20	4133
2026-01-10 09:30:34.50	358.66	21.09	-29.6	-30.5	13.7	9.90e-06	0	42	0	990904320	20	4003
2026-01-10 09:30:35.50	358.53	20.97	-29.7	-30.7	13.6	6.80e-06	0	42	0	993001472	20	4061
2026-01-10 09:30:36.50	358.40	20.85	-29.8	-31.1	13.4	1.52e-05	0	42	0	994050048	20	4160
2026-01-10 09:30:37.50	358.28	20.74	-29.9	-31.2	13.4	1.60e-05	0	42	0	996147200	20	4187
2026-01-10 09:30:38.51	358.15	20.62	-30.1	-31.9	12.9	2.44e-05	0	42	0	998244352	20	4417
2026-01-10 09:30:39.51	358.02	20.50	-30.2	-32.3	12.5	5.87e-05	0	42	0	1000341504	20	4561
2026-01-10 09:30:40.52	357.89	20.39	-30.3	-32.6	12.3	1.44e-04	0	42	0	1002438656	20	4668
2026-01-10 09:30:41.51	357.77	20.27	-30.3	-32.4	12.5	1.14e-04	0	42	0	1003487232	20	4606
2026-01-10 09:30:42.52	357.64	20.16	-30.2	-32.2	12.7	9.46e-05	0	42	0	1005584384	20	4509
2026-01-10 09:30:43.51	357.52	20.05	-30.2	-32.0	12.8	6.02e-05	0	42	0	1007681536	20	4470
2026-01-10 09:30:44.51	357.40	19.93	-30.0	-31.5	13.1	2.97e-05	0	42	0	1009778688	20	4299
2026-01-10 09:30:45.51	357.28	19.82	-30.1	-31.8	12.9	2.82e-05	0	42	0	1010827264	20	4384
2026-01-10 09:30:46.52	357.16	19.70	-30.0	-31.7	12.9	1.98e-05	0	42	0	1012924416	20	4359
2026-01-10 09:30:47.51	357.04	19.59	-29.8	-31.1	13.4	2.51e-05	0	42	0	1015021568	20	4168
2026-01-10 09:30:48.51	356.92	19.48	-30.0	-31.6	13.0	2.28e-05	0	42	0	1017118720	20	4327
2026-01-10 09:30:49.52	356.80	19.37	-30.1	-31.8	12.9	7.24e-05	0	42	0	1019215872	20	4396
2026-01-10 09:30:50.52	356.69	19.26	-30.2	-32.2	12.6	7.55e-05	0	42	0	1020264448	20	4534
2026-01-10 09:30:51.52	356.57	19.15	-30.3	-32.5	12.4	1.23e-04	0	42	0	1022361600	20	4638
2026-01-10 09:30:52.52	356.46	19.03	-30.5	-32.6	12.1	2.91e-04	0	42	0	1024458752	21	4559
2026-01-10 09:30:53.52	356.34	18.92	-30.5	-32.6	12.0	2.46e-04	0	42	0	1026555904	21	4586
2026-01-10 09:30:54.52	356.23	18.81	-30.6	-32.8	11.8	6.15e-04	0	42	0	1028653056	21	4663
2026-01-10 09:30:55.51	356.12	18.71	-30.7	-33.1	11.7	3.72e-04	0	42	0	1029701632	21	4759
2026-01-10 09:30:56.51	356.01	18.60	-30.6	-32.9	11.8	5.45e-04	0	42	0	1031798784	21	4690
2026-01-10 09:30:57.50	355.90	18.49	-30.7	-33.1	11.6	6.23e-04	0	42	0	1033895936	21	4763
2026-01-10 09:30:58.50	355.79	18.38	-30.8	-33.5	11.3	7.45e-04	0	42	0	1035993088	21	4899
2026-01-10 09:30:59.50	355.68	18.27	-30.7	-33.2	11.5	9.99e-04	0	42	0	1037041664	21	4810
2026-01-10 09:31:00.50	355.57	18.16	-30.7	-33.2	11.6	6.62e-04	0	42	0	1039138816	21	4808
2026-01-10 09:31:01.50	355.46	18.06	-30.5	-32.7	11.8	5.45e-04	0	42	0	1041235968	21	4628
2026-01-10 09:31:02.50	355.35	17.95	-30.6	-32.9	11.7	5.36e-04	0	42	0	1043333120	21	4698
2026-01-10 09:31:03.51	355.25	17.84	-30.7	-33.1	11.5	8.25e-04	0	42	0	1045430272	21	4758
2026-01-10 09:31:04.51	355.14	17.74	-30.7	-33.2	11.4	1.06e-03	0	42	0	1046478848	21	4818
2026-01-10 09:31:05.51	355.04	17.63	-30.7	-33.1	11.6	6.80e-04	0	42	0	1048576000	21	4762
2026-01-10 09:31:06.50	354.94	17.53	-30.5	-32.7	11.8	6.67e-04	0	42	0	1050673152	21	4633
2026-01-10 09:31:07.51	354.83	17.42	-30.4	-32.3	12.2	3.67e-04	0	42	0	1052770304	21	4468
2026-01-10 09:31:08.51	354.73	17.32	-30.5	-32.5	12.0	3.09e-04	0	42	0	1054867456	21	4549
2026-01-10 09:31:09.52	354.63	17.21	-30.4	-32.5	12.0	3.04e-04	0	42	0	1055916032	21	4550
2026-01-10 09:31:10.52	354.53	17.11	-30.4	-32.4	12.0	3.91e-04	0	42	0	1058013184	21	4520
2026-01-10 09:31:11.51	354.43	17.00	-30.5	-32.7	11.8	2.91e-04	0	42	0	1060110336	21	4619
2026-01-10 09:31:12.51	354.33	16.90	-30.6	-32.9	11.6	6.49e-04	0	42	0	1062207488	21	4705
2026-01-10 09:31:13.51	354.23	16.80	-30.5	-32.6	11.8	4.94e-04	0	42	0	1064304640	21	4599
2026-01-10 09:31:14.52	354.13	16.69	-30.4	-32.3	12.1	2.98e-04	0	42	0	1065353216	21	4488
2026-01-10 09:31:15.52	354.03	16.59	-30.3	-32.0	12.3	2.26e-04	0	42	0	1067450368	21	4374
2026-01-10 09:31:16.52	353.94	16.49	-30.4	-32.4	12.0	1.83e-04	0	42	0	1069547520	21	4522
2026-01-10 09:31:17.52	353.84	16.39	-30.4	-32.4	11.9	3.55e-04	0	42	0	1071644672	21	4540
2026-01-10 09:31:18.52	353.75	16.28	-30.6	-32.9	11.6	6.03e-04	0	42	0	1073741824	21	4715
2026-01-10 09:31:19.53	353.65	16.18	-30.6	-32.9	11.7	4.90e-04	0	42	0	1074790400	21	4676
2026-01-10 09:31:20.54	353.56	16.08	-30.6	-33.0	11.6	5.78e-04	0	42	0	1076887552	21	4740
2026-01-10 09:31:21.53	353.46	15.98	-30.5	-32.6	11.8	9.52e-04	0	42	0	1078984704	21	4600
2026-01-10 09:31:22.53	353.37	15.88	-30.2	-31.9	12.4	3.01e-04	0	42	0	1081081856	21	4338
2026-01-10 09:31:23.53	353.28	15.78	-30.1	-31.4	12.6	1.08e-04	0	42	0	1083179008	21	4205
2026-01-10 09:31:24.53	353.19	15.68	-29.9	-31.0	12.9	5.41e-05	0	42	0	1084227584	21	4073
2026-01-10 09:31:25.53	353.10	15.58	-30.0	-31.2	12.8	4.57e-05	0	42	0	1086324736	21	4127
2026-01-10 09:31:26.53	353.01	15.48	-30.0	-31.2	12.8	4.73e-05	0	42	0	1088421888	21	4115
2026-01-10 09:31:27.53	352.92	15.39	-30.3	-31.9	12.3	1.23e-04	0	42	0	1090519040	21	4370
2026-01-10 09:31:28.53	352.83	15.29	-30.3	-32.0	12.3	1.37e-04	0	42	0	1091567616	21	4381
2026-01-10 09:31:29.53	352.74	15.19	-30.2	-31.6	12.5	1.36e-04	0	42	0	1093664768	21	4274
2026-01-10 09:31:30.53	352.65	15.09	-30.2	-31.8	12.3	1.14e-04	0	42	0	1095761920	21	4335
2026-01-10 09:31:31.54	352.57	15.00	-30.4	-32.3	12.0	2.10e-04	0	42	0	1097859072	21	4483
2026-01-10 09:31:32.54	352.48	14.90	-30.5	-32.7	11.7	4.61e-04	0	42	0	1099956224	21	4637
2026-01-10 09:31:33.54	352.39	14.80	-30.6	-33.0	11.5	7.35e-04	0	42	0	1101004800	21	4738
2026-01-10 09:31:34.54	352.31	14.71	-30.7	-33.4	11.2	1.18e-03	0	42	0	1103101952	21	4912
2026-01-10 09:31:35.53	352.22	14.61	-30.9	-33.9	10.9	1.95e-03	0	42	0	1105199104	21	5086
2026-01-10 09:31:36.53	352.14	14.52	-30.9	-34.1	10.7	2.86e-03	0	42	0	1107296256	21	5171
2026-01-10 09:31:37.53	352.06	14.42	-31.0	-34.2	10.5	3.60e-03	0	42	0	1109393408	21	5230
2026-01-10 09:31:38.53	351.97	14.33	-30.9	-34.0	10.6	3.58e-03	0	42	0	1110441984	21	5164
2026-01-10 09:31:39.53	351.89	14.23	-30.9	-34.2	10.6	2.81e-03	0	42	0	1112539136	21	5214
2026-01-10 09:31:40.53	351.81	14.14	-31.0	-33.7	10.6	4.47e-03	0	42	0	1114636288	22	4938
2026-01-10 09:31:41.53	351.73	14.04	-30.9	-33.5	10.6	3.73e-03	0	42	0	1116733440	22	4885
2026-01-10 09:31:42.54	351.65	13.95	-31.0	-33.8	10.5	4.28e-03	0	42	0	1117782016	22	4971
2026-01-10 09:31:43.54	351.57	13.85	-30.9	-33.3	10.8	2.59e-03	0	42	0	1119879168	22	4755
2026-01-10 09:31:44.54	351.49	13.76	-30.8	-33.2	11.0	1.59e-03	0	42	0	1121976320	22	4722
2026-01-10 09:31:45.55	351.41	13.67	-30.6	-32.6	11.5	1.23e-03	0	42	0	1124073472	22	4497
2026-01-10 09:31:46.54	351.33	13.58	-30.6	-32.5	11.5	9.78e-04	0	42	0	1126170624	22	4460
2026-01-10 09:31:47.54	351.25	13.48	-30.6	-32.5	11.5	8.89e-04	0	42	0	1127219200	22	4495
2026-01-10 09:31:48.54	351.17	13.39	-30.8	-33.0	11.1	1.28e-03	0	42	0	1129316352	22	4667
2026-01-10 09:31:49.54	351.10	13.30	-30.7	-32.8	11.2	1.84e-03	0	42	0	1131413504	22	4591
2026-01-10 09:31:50.54	351.02	13.21	-30.5	-32.2	11.7	1.00e-03	0	42	0	1133510656	22	4367
2026-01-10 09:31:51.54	350.94	13.12	-30.4	-32.3	12.0	3.20e-04	0	42	0	1135607808	21	4496
2026-01-10 09:31:52.55	350.87	13.03	-30.4	-32.3	11.9	3.81e-04	0	42	0	1136656384	21	4498
2026-01-10 09:31:53.55	350.79	12.94	-30.5	-32.6	11.7	4.75e-04	0	42	0	1138753536	21	4611
2026-01-10 09:31:54.55	350.72	12.85	-30.3	-32.2	12.0	3.41e-04	0	42	0	1140850688	21	4473
2026-01-10 09:31:55.55	350.64	12.76	-30.2	-31.8	12.2	2.21e-04	0	42	0	1142947840	21	4342
2026-01-10 09:31:56.56	350.57	12.67	-30.2	-31.9	12.2	2.04e-04	0	42	0	1145044992	21	4357
2026-01-10 09:31:57.56	350.49	12.58	-30.4	-32.4	11.9	2.99e-04	0	42	0	1146093568	21	4532
2026-01-10 09:31:58.57	350.42	12.49	-30.2	-32.0	12.1	2.52e-04	0	42	0	1148190720	21	4395
2026-01-10 09:31:59.57	350.35	12.40	-30.4	-32.4	11.7	3.58e-04	0	42	0	1150287872	21	4552
2026-01-10 09:32:00.57	350.28	12.31	-30.4	-32.6	11.7	6.46e-04	0	42	0	1152385024	21	4601
2026-01-10 09:32:01.57	350.21	12.22	-30.5	-32.9	11.5	8.43e-04	0	42	0	1154482176	21	4715
2026-01-10 09:32:02.57	350.13	12.13	-30.5	-32.9	11.5	9.24e-04	0	42	0	1155530752	21	4733
2026-01-10 09:32:03.58	350.06	12.04	-30.7	-33.5	11.1	1.35e-03	0	42	0	1157627904	21	4950
2026-01-10 09:32:04.59	349.99	11.96	-30.7	-33.5	11.0	2.26e-03	0	42	0	1159725056	21	4964
2026-01-10 09:32:05.59	349.92	11.87	-30.8	-33.5	11.0	2.03e-03	0	42	0	1161822208	21	4959
2026-01-10 09:32:06.58	349.85	11.78	-30.9	-34.1	10.6	3.10e-03	0	42	0	1162870784	21	5175
2026-01-10 09:32:07.58	349.79	11.70	-30.8	-33.8	10.8	2.67e-03	0	42	0	1164967936	21	5066
2026-01-10 09:32:08.59	349.72	11.61	-31.0	-33.9	10.4	3.17e-03	0	42	0	1167065088	22	5026
2026-01-10 09:32:09.59	349.65	11.52	-31.0	-34.0	10.3	5.02e-03	0	42	0	1169162240	22	5038
2026-01-10 09:32:10.59	349.58	11.44	-31.0	-33.9	10.3	5.45e-03	0	42	0	1171259392	22	5028
2026-01-10 09:32:11.60	349.51	11.35	-31.0	-33.9	10.4	4.83e-03	0	42	0	1172307968	22	5001
2026-01-10 09:32:12.60	349.45	11.27	-31.1	-34.2	10.2	5.92e-03	0	42	0	1174405120	22	5134
2026-01-10 09:32:13.60	349.38	11.18	-31.1	-34.2	10.2	5.08e-03	0	42	0	1176502272	22	5131
2026-01-10 09:32:14.59	349.32	11.10	-31.1	-34.3	10.0	9.32e-03	0	42	0	1178599424	22	5196
2026-01-10 09:32:15.59	349.25	11.01	-31.0	-33.9	10.3	6.13e-03	0	42	0	1180696576	22	5046
2026-01-10 09:32:16.59	349.18	10.93	-30.9	-33.8	10.3	4.25e-03	0	42	0	1181745152	22	4987
2026-01-10 09:32:17.59	349.12	10.84	-31.0	-34.0	10.3	4.99e-03	0	42	0	1183842304	22	5075
2026-01-10 09:32:18.59	349.06	10.76	-30.9	-33.7	10.4	4.60e-03	0	42	0	1185939456	22	4938
2026-01-10 09:32:19.59	348.99	10.68	-30.9	-33.7	10.4	4.94e-03	0	42	0	1188036608	22	4967
2026-01-10 09:32:20.60	348.93	10.59	-31.0	-33.8	10.3	5.13e-03	0	42	0	1190133760	22	5020
2026-01-10 09:32:21.60	348.86	10.51	-31.1	-34.2	10.0	8.95e-03	0	42	0	1191182336	22	5174
2026-01-10 09:32:22.61	348.80	10.43	-30.9	-33.8	10.4	4.69e-03	0	42	0	1193279488	22	4977
2026-01-10 09:32:23.61	348.74	10.34	-31.1	-34.3	10.0	4.49e-03	0	42	0	1195376640	22	5198
2026-01-10 09:32:24.60	348.68	10.26	-31.0	-33.9	10.2	6.04e-03	0	42	0	1197473792	22	5040
2026-01-10 09:32:25.60	348.62	10.18	-31.0	-33.9	10.2	4.77e-03	0	42	0	1198522368	22	5021
2026-01-10 09:32:26.60	348.55	10.10	-31.0	-33.9	10.3	6.23e-03	0	42	0	1200619520	22	5021
2026-01-10 09:32:27.60	348.49	10.02	-31.0	-33.8	10.4	5.54e-03	0	42	0	1202716672	22	4998
2026-01-10 09:32:28.60	348.43	9.93	-31.0	-33.9	10.3	7.18e-03	0	42	0	1204813824	22	5048
2026-01-10 09:32:29.61	348.37	9.85	-30.9	-33.8	10.3	5.01e-03	0	42	0	1206910976	22	4985
2026-01-10 09:32:30.61	348.31	9.77	-30.9	-33.7	10.4	5.26e-03	0	42	0	1207959552	22	4977
2026-01-10 09:32:31.62	348.25	9.69	-30.9	-33.7	10.3	4.76e-03	0	42	0	1210056704	22	4988
2026-01-10 09:32:32.62	348.19	9.61	-30.9	-33.9	10.2	6.07e-03	0	42	0	1212153856	22	5045
2026-01-10 09:32:33.62	348.13	9.53	-31.0	-34.0	10.0	5.90e-03	0	42	0	1214251008	22	5093
2026-01-10 09:32:34.62	348.08	9.45	-31.0	-34.0	10.0	8.05e-03	0	42	0	1216348160	22	5087
2026-01-10 09:32:35.62	348.02	9.37	-30.9	-33.8	10.1	6.96e-03	0	42	0	1217396736	22	5042
2026-01-10 09:32:36.61	347.96	9.29	-30.8	-33.6	10.3	4.78e-03	0	42	0	1219493888	22	4937
2026-01-10 09:32:37.61	347.90	9.21	-30.9	-33.7	10.2	4.66e-03	0	42	0	1221591040	22	4973
2026-01-10 09:32:38.61	347.85	9.13	-30.9	-33.8	10.1	7.51e-03	0	42	0	1223688192	22	5014
2026-01-10 09:32:39.61	347.79	9.05	-30.7	-33.1	10.6	5.62e-03	0	42	0	1224736768	22	4753
2026-01-10 09:32:40.61	347.73	8.98	-30.8	-33.5	10.2	5.06e-03	0	42	0	1226833920	22	4924
2026-01-10 09:32:41.61	347.68	8.90	-30.9	-33.6	10.2	5.84e-03	0	42	0	1228931072	22	4967
2026-01-10 09:32:42.62	347.62	8.82	-30.7	-33.3	10.4	4.19e-03	0	42	0	1231028224	22	4848
2026-01-10 09:32:43.62	347.57	8.74	-30.8	-33.6	10.2	5.03e-03	0	42	0	1233125376	22	4972
2026-01-10 09:32:44.63	347.51	8.66	-30.8	-33.5	10.2	6.56e-03	0	42	0	1235222528	22	4931
2026-01-10 09:32:45.63	347.45	8.58	-30.6	-32.9	10.6	3.96e-03	0	42	0	1236271104	22	4707
2026-01-10 09:32:46.63	347.40	8.51	-30.7	-33.3	10.4	4.47e-03	0	42	0	1238368256	22	4847
2026-01-10 09:32:47.64	347.35	8.43	-30.7	-33.2	10.4	5.10e-03	0	42	0	1240465408	22	4811
2026-01-10 09:32:48.64	347.29	8.35	-30.7	-33.3	10.3	4.12e-03	0	42	0	1242562560	22	4841
2026-01-10 09:32:49.64	347.24	8.28	-30.7	-33.2	10.4	4.30e-03	0	42	0	1243611136	22	4824
2026-01-10 09:32:50.64	347.18	8.20	-30.7	-33.3	10.2	5.52e-03	0	42	0	1245708288	22	4872
2026-01-10 09:32:51.63	347.13	8.12	-30.7	-33.3	10.3	5.22e-03	0	42	0	1247805440	22	4854
2026-01-10 09:32:52.63	347.08	8.05	-30.7	-33.2	10.4	4.83e-03	0	42	0	1249902592	22	4808
2026-01-10 09:32:53.63	347.03	7.97	-30.7	-33.5	10.1	4.99e-03	0	42	0	1251999744	22	4937
2026-01-10 09:32:54.63	346.98	7.90	-30.7	-33.5	10.1	7.59e-03	0	42	0	1253048320	22	4954
2026-01-10 09:32:55.63	346.92	7.82	-30.7	-33.4	10.2	5.44e-03	0	42	0	1255145472	22	4889
2026-01-10 09:32:56.63	346.87	7.74	-30.7	-33.2	10.3	6.53e-03	0	42	0	1257242624	22	4838
2026-01-10 09:32:57.64	346.82	7.67	-30.8	-33.6	10.0	7.30e-03	0	42	0	1259339776	22	4989
2026-01-10 09:32:58.64	346.77	7.59	-30.9	-34.1	9.6	1.16e-02	0	42	0	1261436928	22	5191
2026-01-10 09:32:59.65	346.72	7.52	-30.8	-33.7	9.9	9.43e-03	0	42	0	1262485504	22	5048
2026-01-10 09:33:00.65	346.67	7.44	-30.9	-34.2	9.5	1.13e-02	0	42	0	1264582656	22	5229
2026-01-10 09:33:01.66	346.62	7.37	-30.9	-34.1	9.6	1.63e-02	0	42	0	1266679808	22	5207
2026-01-10 09:33:02.65	346.57	7.30	-30.9	-34.2	9.5	1.19e-02	0	42	0	1268776960	22	5247
2026-01-10 09:33:03.64	346.52	7.22	-30.9	-34.3	9.4	1.28e-02	0	42	0	1269825536	22	5294
2026-01-10 09:33:04.65	346.47	7.15	-30.8	-33.9	9.6	1.77e-02	0	42	0	1271922688	22	5122
2026-01-10 09:33:05.65	346.42	7.07	-32.8	-45.0	3.8	4.23e-02	0	42	104	1274019840	25	14725
2026-01-10 09:33:06.65	346.37	7.00	-33.1	-45.1	3.8	1.49e+00	0	42	104	1274019840	26	14458
2026-01-10 09:33:07.65	346.32	6.93	-33.3	-45.9	3.8	1.49e+00	0	42	104	1274019840	26	15228
2026-01-10 09:33:08.65	346.27	6.86	-33.5	-45.7	3.8	1.49e+00	0	42	104	1274019840	27	14706

#Closed at: 2026-01-10 09:33:09
#Recorded file [1274 MB]: D:/data/31010_260110_122145.dat