passes_logs/2026/01/10/R2M6_AANII_01/R2M6_AANII_01__20260110_094205_NOAA_20_JPSS-1_rec.log

#Pass ID: 20260110_094205_NOAA 20 (JPSS-1)
#Satellite: NOAA 20 (JPSS-1)
#Configuration: NOAA 20
#almurnet v.1.7.20240730
#Start time: 2026-01-10 09:42:05

#Version: 2.2.20231116
#Station: R2M6_AANII_01
#Location: 30.233357 lon 59.946436 lat
#TLE: 1 43013U 17073A   26009.26828276  .00000112  00000+0  74203-4 0  9990
#TLE: 2 43013  98.7631 310.2683 0001700  47.4387 312.6933 14.19534764421920

#Time	Az	El	Level	Level2	SNR	BER	BlckErr	Temp	State	Recorded	gain1	gain2
2026-01-10 09:42:05.98	141.04	7.06	-29.9	-34.1	5.5	1.20e+00	0	39	0	0	21	5798
2026-01-10 09:42:06.98	141.01	7.14	-29.8	-33.7	5.5	1.20e+00	0	39	104	0	21	5616
2026-01-10 09:42:07.99	140.98	7.22	-29.8	-34.0	10.7	3.47e-03	0	39	0	0	20	5854
2026-01-10 09:42:09.00	140.95	7.29	-29.9	-34.4	10.4	3.31e-03	0	40	0	1048576	20	6050
2026-01-10 09:42:09.99	140.92	7.37	-29.8	-33.9	10.8	2.86e-03	0	40	0	3145728	20	5818
2026-01-10 09:42:11.00	140.89	7.45	-29.7	-33.8	10.9	1.90e-03	0	39	0	5242880	20	5743
2026-01-10 09:42:12.00	140.86	7.53	-29.7	-33.7	11.0	1.87e-03	0	40	0	7340032	20	5723
2026-01-10 09:42:13.00	140.83	7.60	-29.7	-33.6	11.1	1.90e-03	0	39	0	9437184	20	5669
2026-01-10 09:42:14.00	140.80	7.68	-29.6	-33.2	11.4	1.06e-03	0	40	0	10485760	20	5494
2026-01-10 09:42:15.00	140.77	7.76	-29.4	-32.8	11.7	6.16e-04	0	40	0	12582912	20	5311
2026-01-10 09:42:16.00	140.74	7.84	-29.3	-32.5	11.9	3.77e-04	0	40	0	14680064	20	5165
2026-01-10 09:42:17.00	140.71	7.92	-29.4	-32.6	11.9	3.74e-04	0	40	0	16777216	20	5195
2026-01-10 09:42:18.00	140.68	8.00	-29.4	-32.7	11.9	3.92e-04	0	40	0	17825792	20	5232
2026-01-10 09:42:19.00	140.65	8.08	-29.5	-32.8	11.9	4.55e-04	0	40	0	19922944	20	5271
2026-01-10 09:42:20.00	140.61	8.16	-29.6	-33.0	11.7	5.07e-04	0	40	0	22020096	20	5370
2026-01-10 09:42:21.00	140.58	8.24	-29.6	-33.1	11.7	5.43e-04	0	40	0	24117248	20	5386
2026-01-10 09:42:22.01	140.55	8.32	-29.5	-32.9	11.8	6.25e-04	0	40	0	26214400	20	5304
2026-01-10 09:42:23.01	140.52	8.40	-29.6	-33.1	11.7	5.20e-04	0	40	0	27262976	20	5394
2026-01-10 09:42:24.01	140.49	8.48	-29.7	-33.6	11.3	8.57e-04	0	40	0	29360128	20	5628
2026-01-10 09:42:25.01	140.45	8.56	-29.6	-33.1	11.7	7.54e-04	0	40	0	31457280	20	5398
2026-01-10 09:42:26.02	140.42	8.64	-29.6	-33.0	11.8	4.87e-04	0	40	0	33554432	20	5326
2026-01-10 09:42:27.02	140.39	8.72	-29.6	-32.9	11.9	4.82e-04	0	40	0	35651584	20	5277
2026-01-10 09:42:28.03	140.36	8.80	-29.7	-33.2	11.7	5.12e-04	0	40	0	36700160	20	5419
2026-01-10 09:42:29.02	140.32	8.89	-29.6	-32.9	12.0	4.24e-04	0	40	0	38797312	20	5260
2026-01-10 09:42:30.03	140.29	8.97	-29.5	-32.6	12.2	2.14e-04	0	40	0	40894464	20	5137
2026-01-10 09:42:31.03	140.26	9.05	-29.4	-32.4	12.4	1.69e-04	0	40	0	42991616	20	5043
2026-01-10 09:42:32.03	140.22	9.13	-29.4	-32.3	12.4	1.03e-04	0	40	0	45088768	20	5022
2026-01-10 09:42:33.03	140.19	9.22	-29.4	-32.8	12.5	9.91e-05	0	40	0	46137344	19	5296
2026-01-10 09:42:34.03	140.15	9.30	-29.5	-33.0	12.4	1.75e-04	0	40	0	48234496	19	5363
2026-01-10 09:42:35.03	140.12	9.38	-29.4	-32.7	12.7	1.40e-04	0	40	0	50331648	19	5238
2026-01-10 09:42:36.03	140.09	9.47	-29.5	-32.9	12.5	1.18e-04	0	40	0	52428800	19	5344
2026-01-10 09:42:37.03	140.05	9.55	-29.4	-32.7	12.7	1.08e-04	0	40	0	54525952	19	5269
2026-01-10 09:42:38.03	140.02	9.63	-29.5	-32.9	12.6	9.46e-05	0	40	0	55574528	19	5322
2026-01-10 09:42:39.03	139.98	9.72	-29.4	-32.7	12.7	1.07e-04	0	40	0	57671680	19	5264
2026-01-10 09:42:40.04	139.95	9.80	-29.5	-32.9	12.6	9.00e-05	0	40	0	59768832	19	5337
2026-01-10 09:42:41.04	139.91	9.89	-29.6	-33.1	12.4	1.14e-04	0	41	0	61865984	19	5432
2026-01-10 09:42:42.04	139.87	9.98	-29.5	-32.9	12.6	1.05e-04	0	40	0	62914560	19	5329
2026-01-10 09:42:43.04	139.84	10.06	-29.5	-32.9	12.5	1.23e-04	0	40	0	65011712	19	5344
2026-01-10 09:42:44.05	139.80	10.15	-29.6	-33.2	12.4	1.25e-04	0	40	0	67108864	19	5437
2026-01-10 09:42:45.04	139.76	10.23	-29.5	-32.9	12.6	9.91e-05	0	41	0	69206016	19	5350
2026-01-10 09:42:46.05	139.73	10.32	-29.4	-32.7	12.7	6.48e-05	0	40	0	71303168	19	5261
2026-01-10 09:42:47.05	139.69	10.41	-29.5	-32.8	12.7	7.62e-05	0	40	0	72351744	19	5296
2026-01-10 09:42:48.06	139.65	10.50	-29.4	-32.7	12.7	8.39e-05	0	40	0	74448896	19	5249
2026-01-10 09:42:49.06	139.62	10.58	-29.4	-32.7	12.8	5.34e-05	0	41	0	76546048	19	5229
2026-01-10 09:42:50.06	139.58	10.67	-29.4	-32.6	12.9	2.89e-05	0	40	0	78643200	19	5172
2026-01-10 09:42:51.06	139.54	10.76	-29.4	-32.5	13.0	4.42e-05	0	41	0	80740352	19	5164
2026-01-10 09:42:52.06	139.50	10.85	-29.5	-32.8	12.8	4.57e-05	0	41	0	81788928	19	5277
2026-01-10 09:42:53.06	139.46	10.94	-29.4	-32.5	13.1	3.89e-05	0	40	0	83886080	19	5120
2026-01-10 09:42:54.06	139.42	11.02	-29.4	-32.4	13.1	2.67e-05	0	41	0	85983232	19	5117
2026-01-10 09:42:55.07	139.39	11.11	-29.4	-32.5	13.0	3.20e-05	0	41	0	88080384	19	5151
2026-01-10 09:42:56.07	139.35	11.20	-29.4	-32.3	13.1	2.74e-05	0	41	0	90177536	19	5077
2026-01-10 09:42:57.07	139.31	11.29	-29.3	-32.2	13.2	2.21e-05	0	41	0	91226112	19	5013
2026-01-10 09:42:58.07	139.27	11.38	-29.5	-32.9	12.8	3.43e-05	0	41	0	93323264	19	5276
2026-01-10 09:42:59.07	139.23	11.47	-29.3	-32.2	13.3	3.58e-05	0	41	0	95420416	19	5019
2026-01-10 09:43:00.07	139.19	11.57	-29.3	-32.1	13.3	1.83e-05	0	41	0	97517568	19	4998
2026-01-10 09:43:01.07	139.15	11.66	-29.3	-32.1	13.3	1.83e-05	0	41	0	98566144	19	5003
2026-01-10 09:43:02.07	139.11	11.75	-29.3	-32.1	13.3	1.14e-05	0	41	0	100663296	19	4992
2026-01-10 09:43:03.07	139.06	11.84	-29.2	-32.0	13.4	1.37e-05	0	41	0	102760448	19	4959
2026-01-10 09:43:04.07	139.02	11.93	-29.2	-32.0	13.4	1.75e-05	0	41	0	104857600	19	4969
2026-01-10 09:43:05.06	138.98	12.02	-29.4	-32.4	13.1	1.67e-05	0	41	0	106954752	19	5121
2026-01-10 09:43:06.06	138.94	12.12	-29.3	-32.1	13.3	1.90e-05	0	41	0	108003328	19	4984
2026-01-10 09:43:07.06	138.90	12.21	-29.2	-32.0	13.4	1.37e-05	0	41	0	110100480	19	4959
2026-01-10 09:43:08.07	138.86	12.30	-29.3	-32.2	13.3	1.22e-05	0	41	0	112197632	19	5008
2026-01-10 09:43:09.07	138.81	12.40	-29.4	-32.5	13.1	1.90e-05	0	41	0	114294784	19	5117
2026-01-10 09:43:10.07	138.77	12.49	-29.4	-32.3	13.2	2.21e-05	0	41	0	116391936	19	5076
2026-01-10 09:43:11.07	138.73	12.59	-29.4	-32.5	13.2	9.90e-06	0	41	0	117440512	19	5129
2026-01-10 09:43:12.08	138.68	12.68	-29.4	-32.5	13.1	3.20e-05	0	41	0	119537664	19	5128
2026-01-10 09:43:13.08	138.64	12.78	-29.5	-32.6	13.1	2.05e-05	0	41	0	121634816	19	5175
2026-01-10 09:43:14.07	138.59	12.87	-29.6	-32.9	13.0	3.05e-05	0	41	0	123731968	19	5270
2026-01-10 09:43:15.07	138.55	12.97	-29.5	-32.6	13.1	3.73e-05	0	41	0	124780544	19	5164
2026-01-10 09:43:16.07	138.51	13.06	-29.4	-32.5	13.2	1.98e-05	0	41	0	126877696	19	5121
2026-01-10 09:43:17.07	138.46	13.16	-29.6	-32.9	13.0	2.89e-05	0	41	0	128974848	19	5265
2026-01-10 09:43:18.07	138.41	13.26	-29.5	-32.6	13.1	2.97e-05	0	41	0	131072000	19	5173
2026-01-10 09:43:19.07	138.37	13.35	-29.4	-32.5	13.2	2.59e-05	0	41	0	133169152	19	5110
2026-01-10 09:43:20.07	138.32	13.45	-29.5	-32.7	13.1	1.75e-05	0	41	0	134217728	19	5186
2026-01-10 09:43:21.07	138.28	13.55	-29.4	-32.5	13.2	2.74e-05	0	41	0	136314880	19	5099
2026-01-10 09:43:22.07	138.23	13.65	-29.6	-33.0	12.9	3.96e-05	0	41	0	138412032	19	5299
2026-01-10 09:43:23.08	138.18	13.75	-29.4	-32.4	13.3	3.12e-05	0	41	0	140509184	19	5072
2026-01-10 09:43:24.08	138.13	13.85	-29.4	-32.3	13.4	1.44e-05	0	41	0	142606336	19	5035
2026-01-10 09:43:25.07	138.09	13.95	-29.3	-32.0	13.6	1.44e-05	0	41	0	143654912	19	4936
2026-01-10 09:43:26.07	138.04	14.05	-29.3	-32.1	13.5	1.37e-05	0	41	0	145752064	19	4979
2026-01-10 09:43:27.07	137.99	14.15	-29.3	-32.1	13.5	1.06e-05	0	41	0	147849216	19	4952
2026-01-10 09:43:28.07	137.94	14.25	-29.3	-32.2	13.5	6.10e-06	0	41	0	149946368	19	5004
2026-01-10 09:43:29.07	137.89	14.35	-29.3	-32.3	13.4	1.06e-05	0	41	0	152043520	19	5050
2026-01-10 09:43:30.06	137.84	14.45	-29.2	-31.7	13.7	5.30e-06	0	41	0	153092096	19	4852
2026-01-10 09:43:31.06	137.79	14.55	-29.1	-31.5	13.9	8.30e-06	0	41	0	155189248	19	4777
2026-01-10 09:43:32.07	137.74	14.66	-29.2	-31.8	13.8	3.80e-06	0	41	0	157286400	19	4854
2026-01-10 09:43:33.07	137.69	14.76	-29.3	-32.1	13.5	9.90e-06	0	41	0	159383552	19	4992
2026-01-10 09:43:34.07	137.64	14.86	-29.2	-31.8	13.7	8.30e-06	0	41	0	160432128	19	4876
2026-01-10 09:43:35.08	137.59	14.97	-29.2	-31.9	13.7	1.06e-05	0	41	0	162529280	19	4890
2026-01-10 09:43:36.08	137.54	15.07	-29.2	-31.9	13.7	4.50e-06	0	41	0	164626432	19	4891
2026-01-10 09:43:37.09	137.49	15.18	-29.2	-31.9	13.7	3.00e-06	0	41	0	166723584	19	4910
2026-01-10 09:43:38.09	137.43	15.28	-29.2	-31.9	13.7	3.80e-06	0	41	0	168820736	19	4897
2026-01-10 09:43:39.09	137.38	15.39	-29.3	-31.9	13.7	6.80e-06	0	41	0	169869312	19	4892
2026-01-10 09:43:40.09	137.33	15.49	-29.3	-32.0	13.7	4.50e-06	0	41	0	171966464	19	4902
2026-01-10 09:43:41.09	137.27	15.60	-29.4	-32.2	13.6	6.80e-06	0	41	0	174063616	19	4986
2026-01-10 09:43:42.10	137.22	15.71	-29.5	-32.5	13.4	1.60e-05	0	41	0	176160768	19	5092
2026-01-10 09:43:43.10	137.16	15.81	-29.3	-32.0	13.7	8.30e-06	0	41	0	178257920	19	4920
2026-01-10 09:43:44.10	137.11	15.92	-29.2	-31.8	14.0	5.30e-06	0	41	0	179306496	19	4828
2026-01-10 09:43:45.10	137.05	16.03	-29.1	-31.5	14.1	3.00e-06	0	41	0	181403648	19	4741
2026-01-10 09:43:46.10	137.00	16.14	-29.3	-31.8	13.9	3.80e-06	0	41	0	183500800	19	4847
2026-01-10 09:43:47.11	136.94	16.25	-29.2	-31.8	13.9	1.50e-06	0	41	0	185597952	19	4821
2026-01-10 09:43:48.10	136.89	16.36	-29.3	-32.0	13.8	4.50e-06	0	41	0	187695104	19	4908
2026-01-10 09:43:49.10	136.83	16.47	-29.3	-31.9	13.9	3.00e-06	0	41	0	188743680	19	4883
2026-01-10 09:43:50.11	136.77	16.58	-29.3	-31.9	13.9	3.00e-06	0	41	0	190840832	19	4886
2026-01-10 09:43:51.11	136.71	16.69	-29.4	-32.1	13.7	3.00e-06	0	41	0	192937984	19	4958
2026-01-10 09:43:52.12	136.65	16.80	-29.3	-31.9	13.9	6.80e-06	0	41	0	195035136	19	4873
2026-01-10 09:43:53.12	136.60	16.91	-29.3	-32.0	13.8	6.10e-06	0	41	0	197132288	19	4916
2026-01-10 09:43:54.12	136.54	17.02	-29.4	-32.1	13.8	5.30e-06	0	41	0	198180864	19	4939
2026-01-10 09:43:55.13	136.48	17.14	-29.3	-31.9	14.0	3.00e-06	0	41	0	200278016	19	4850
2026-01-10 09:43:56.13	136.42	17.25	-29.4	-32.1	13.9	3.00e-06	0	41	0	202375168	19	4913
2026-01-10 09:43:57.12	136.36	17.36	-29.3	-32.0	13.9	1.50e-06	0	41	0	204472320	19	4869
2026-01-10 09:43:58.13	136.29	17.48	-29.4	-32.1	13.9	2.20e-06	0	41	0	205520896	19	4917
2026-01-10 09:43:59.13	136.23	17.59	-29.4	-32.1	13.9	2.20e-06	0	41	0	207618048	19	4907
2026-01-10 09:44:00.13	136.17	17.71	-29.4	-32.2	13.8	3.80e-06	0	41	0	209715200	19	4958
2026-01-10 09:44:01.12	136.11	17.82	-29.4	-32.0	14.0	2.20e-06	0	41	0	211812352	19	4873
2026-01-10 09:44:02.13	136.04	17.94	-29.3	-31.7	14.2	3.80e-06	0	41	0	213909504	19	4780
2026-01-10 09:44:03.13	135.98	18.06	-29.2	-31.5	14.3	2.20e-06	0	41	0	214958080	19	4719
2026-01-10 09:44:04.13	135.92	18.18	-29.2	-31.6	14.3	0.00e+00	0	41	0	217055232	19	4745
2026-01-10 09:44:05.13	135.85	18.29	-29.1	-31.4	14.4	7.00e-07	0	41	0	219152384	19	4663
2026-01-10 09:44:06.13	135.79	18.41	-29.2	-31.5	14.3	0.00e+00	0	41	0	221249536	19	4720
2026-01-10 09:44:07.13	135.72	18.53	-29.1	-31.4	14.4	7.00e-07	0	41	0	223346688	19	4669
2026-01-10 09:44:08.13	135.65	18.65	-29.1	-31.4	14.4	0.00e+00	0	41	0	224395264	19	4660
2026-01-10 09:44:09.13	135.59	18.77	-29.2	-31.5	14.4	4.50e-06	0	41	0	226492416	19	4696
2026-01-10 09:44:10.14	135.52	18.89	-29.2	-31.5	14.4	7.00e-07	0	41	0	228589568	19	4692
2026-01-10 09:44:11.14	135.45	19.01	-29.2	-31.6	14.3	0.00e+00	0	42	0	230686720	19	4724
2026-01-10 09:44:12.15	135.38	19.14	-29.2	-31.5	14.4	7.00e-07	0	42	0	232783872	19	4687
2026-01-10 09:44:13.14	135.31	19.26	-29.1	-31.4	14.5	7.00e-07	0	41	0	233832448	19	4660
2026-01-10 09:44:14.14	135.25	19.38	-29.3	-31.7	14.3	7.00e-07	0	42	0	235929600	19	4762
2026-01-10 09:44:15.15	135.17	19.50	-29.2	-31.4	14.5	1.50e-06	0	41	0	238026752	19	4657
2026-01-10 09:44:16.15	135.10	19.63	-29.2	-31.4	14.5	0.00e+00	0	41	0	240123904	19	4659
2026-01-10 09:44:17.15	135.03	19.75	-29.1	-31.3	14.6	0.00e+00	0	41	0	242221056	19	4608
2026-01-10 09:44:18.16	134.96	19.88	-29.3	-31.8	14.3	7.00e-07	0	41	0	243269632	19	4789
2026-01-10 09:44:19.16	134.89	20.00	-29.3	-31.7	14.4	7.00e-07	0	41	0	245366784	19	4741
2026-01-10 09:44:20.16	134.81	20.13	-29.3	-31.9	14.3	0.00e+00	0	42	0	247463936	19	4814
2026-01-10 09:44:21.16	134.74	20.26	-29.3	-31.6	14.4	3.80e-06	0	42	0	249561088	19	4735
2026-01-10 09:44:22.17	134.66	20.38	-29.3	-31.8	14.3	1.50e-06	0	41	0	250609664	19	4805
2026-01-10 09:44:23.17	134.59	20.51	-29.3	-31.9	14.3	2.20e-06	0	42	0	252706816	19	4815
2026-01-10 09:44:24.16	134.51	20.64	-29.3	-31.7	14.4	5.30e-06	0	42	0	254803968	19	4738
2026-01-10 09:44:25.17	134.44	20.77	-29.3	-31.6	14.5	0.00e+00	0	42	0	256901120	19	4726
2026-01-10 09:44:26.17	134.36	20.90	-29.2	-31.6	14.5	1.50e-06	0	41	0	258998272	19	4705
2026-01-10 09:44:27.17	134.28	21.03	-29.2	-31.4	14.6	3.00e-06	0	42	0	260046848	19	4639
2026-01-10 09:44:28.17	134.20	21.16	-29.2	-31.4	14.6	0.00e+00	0	41	0	262144000	19	4647
2026-01-10 09:44:29.17	134.12	21.29	-29.1	-31.3	14.7	7.00e-07	0	42	0	264241152	19	4615
2026-01-10 09:44:30.17	134.04	21.42	-29.3	-31.7	14.5	7.00e-07	0	42	0	266338304	19	4734
2026-01-10 09:44:31.17	133.96	21.56	-29.2	-31.5	14.6	7.00e-07	0	42	0	268435456	19	4685
2026-01-10 09:44:32.17	133.88	21.69	-29.4	-31.9	14.4	0.00e+00	0	42	0	269484032	19	4804
2026-01-10 09:44:33.18	133.80	21.83	-29.3	-31.6	14.5	0.00e+00	0	42	0	271581184	19	4709
2026-01-10 09:44:34.18	133.72	21.96	-29.3	-31.6	14.5	7.00e-07	0	42	0	273678336	19	4707
2026-01-10 09:44:35.18	133.63	22.10	-29.3	-31.6	14.5	2.20e-06	0	42	0	275775488	19	4722
2026-01-10 09:44:36.18	133.55	22.23	-29.3	-31.8	14.4	0.00e+00	0	42	0	277872640	19	4774
2026-01-10 09:44:37.18	133.46	22.37	-29.3	-31.6	14.5	0.00e+00	0	42	0	278921216	19	4718
2026-01-10 09:44:38.18	133.38	22.51	-29.3	-31.8	14.5	7.00e-07	0	42	0	281018368	19	4761
2026-01-10 09:44:39.19	133.29	22.65	-29.3	-31.8	14.5	2.20e-06	0	41	0	283115520	19	4768
2026-01-10 09:44:40.19	133.20	22.79	-29.5	-32.3	14.1	1.50e-06	0	42	0	285212672	19	4939
2026-01-10 09:44:41.20	133.11	22.93	-29.6	-32.5	14.1	3.80e-06	0	41	0	287309824	19	4999
2026-01-10 09:44:42.20	133.03	23.07	-29.6	-32.3	14.1	3.80e-06	0	42	0	288358400	19	4958
2026-01-10 09:44:43.20	132.94	23.21	-29.7	-32.7	13.9	3.00e-06	0	42	0	290455552	19	5104
2026-01-10 09:44:44.20	132.84	23.35	-29.8	-32.9	13.7	4.50e-06	0	42	0	292552704	19	5179
2026-01-10 09:44:45.20	132.75	23.49	-29.7	-32.7	13.9	3.00e-06	0	42	0	294649856	19	5074
2026-01-10 09:44:46.20	132.66	23.63	-29.6	-32.4	14.0	7.00e-07	0	42	0	295698432	19	4998
2026-01-10 09:44:47.20	132.57	23.78	-29.6	-32.5	14.0	3.00e-06	0	42	0	297795584	19	5025
2026-01-10 09:44:48.20	132.47	23.92	-29.7	-32.8	13.8	7.00e-07	0	42	0	299892736	19	5145
2026-01-10 09:44:49.20	132.38	24.07	-29.9	-33.3	13.5	5.30e-06	0	42	0	301989888	19	5328
2026-01-10 09:44:50.20	132.28	24.21	-29.9	-33.2	13.6	6.10e-06	0	42	0	304087040	19	5255
2026-01-10 09:44:51.20	132.19	24.36	-29.9	-33.2	13.6	1.29e-05	0	41	0	305135616	19	5291
2026-01-10 09:44:52.21	132.09	24.51	-29.9	-33.2	13.6	7.60e-06	0	41	0	307232768	19	5287
2026-01-10 09:44:53.21	131.99	24.66	-29.9	-33.1	13.7	1.52e-05	0	42	0	309329920	19	5233
2026-01-10 09:44:54.21	131.89	24.80	-30.0	-33.4	13.5	9.10e-06	0	42	0	311427072	19	5360
2026-01-10 09:44:55.21	131.79	24.95	-30.1	-33.2	13.3	1.14e-05	0	42	0	313524224	20	5181
2026-01-10 09:44:56.21	131.69	25.10	-30.2	-33.6	13.0	2.05e-05	0	42	0	314572800	20	5321
2026-01-10 09:44:57.21	131.58	25.25	-30.2	-33.7	13.0	4.11e-05	0	42	0	316669952	20	5349
2026-01-10 09:44:58.21	131.48	25.41	-30.2	-33.7	12.9	3.28e-05	0	41	0	318767104	20	5367
2026-01-10 09:44:59.21	131.37	25.56	-30.5	-34.3	12.5	7.93e-05	0	42	0	320864256	20	5634
2026-01-10 09:45:00.21	131.27	25.71	-30.3	-34.0	12.7	8.54e-05	0	41	0	322961408	20	5498
2026-01-10 09:45:01.21	131.16	25.87	-30.4	-34.1	12.7	9.46e-05	0	41	0	324009984	20	5520
2026-01-10 09:45:02.21	131.05	26.02	-30.5	-33.9	12.5	1.23e-04	0	42	0	326107136	21	5334
2026-01-10 09:45:03.21	130.94	26.18	-30.5	-33.8	12.5	1.23e-04	0	41	0	328204288	21	5307
2026-01-10 09:45:04.21	130.83	26.33	-30.6	-34.1	12.4	1.48e-04	0	42	0	330301440	21	5405
2026-01-10 09:45:05.21	130.72	26.49	-30.6	-34.1	12.3	1.69e-04	0	42	0	331350016	21	5433
2026-01-10 09:45:06.20	130.61	26.65	-30.6	-34.3	12.2	1.87e-04	0	42	0	333447168	21	5481
2026-01-10 09:45:07.20	130.50	26.80	-30.7	-34.4	12.1	1.65e-04	0	41	0	335544320	21	5547
2026-01-10 09:45:08.20	130.38	26.96	-30.6	-34.1	12.3	1.59e-04	0	42	0	337641472	21	5425
2026-01-10 09:45:09.21	130.27	27.13	-30.7	-34.3	12.2	1.91e-04	0	42	0	339738624	21	5492
2026-01-10 09:45:10.20	130.15	27.29	-30.6	-34.3	12.2	1.95e-04	0	42	0	340787200	21	5477
2026-01-10 09:45:11.21	130.03	27.45	-30.7	-34.4	12.2	2.01e-04	0	42	0	342884352	21	5517
2026-01-10 09:45:12.21	129.91	27.61	-30.7	-34.4	12.2	2.46e-04	0	42	0	344981504	21	5527
2026-01-10 09:45:13.22	129.79	27.78	-30.8	-34.7	12.0	3.10e-04	0	42	0	347078656	21	5632
2026-01-10 09:45:14.21	129.67	27.94	-30.9	-35.1	11.7	5.03e-04	0	42	0	349175808	21	5839
2026-01-10 09:45:15.22	129.55	28.11	-31.0	-35.3	11.6	6.40e-04	0	42	0	350224384	21	5917
2026-01-10 09:45:16.22	129.42	28.27	-31.0	-35.0	11.5	7.90e-04	0	42	0	352321536	22	5666
2026-01-10 09:45:17.22	129.29	28.44	-31.0	-34.9	11.5	9.84e-04	0	42	0	354418688	22	5633
2026-01-10 09:45:18.22	129.17	28.61	-31.0	-35.0	11.5	9.13e-04	0	42	0	356515840	22	5647
2026-01-10 09:45:19.23	129.04	28.78	-31.1	-35.1	11.4	7.82e-04	0	42	0	357564416	22	5720
2026-01-10 09:45:20.22	128.91	28.95	-31.1	-35.1	11.4	9.92e-04	0	42	0	359661568	22	5725
2026-01-10 09:45:21.22	128.78	29.12	-31.0	-34.9	11.6	7.96e-04	0	42	0	361758720	22	5601
2026-01-10 09:45:22.23	128.64	29.29	-31.0	-34.7	11.7	5.75e-04	0	42	0	363855872	22	5545
2026-01-10 09:45:23.24	128.51	29.46	-31.0	-34.9	11.6	5.65e-04	0	41	0	365953024	22	5606
2026-01-10 09:45:24.24	128.37	29.64	-31.0	-34.9	11.6	6.63e-04	0	42	0	368050176	22	5632
2026-01-10 09:45:25.24	128.23	29.81	-30.9	-34.6	11.8	4.83e-04	0	42	0	369098752	22	5489
2026-01-10 09:45:26.24	128.10	29.99	-31.0	-34.7	11.8	5.00e-04	0	42	0	371195904	22	5543
2026-01-10 09:45:27.24	127.95	30.16	-30.8	-34.2	12.1	3.56e-04	0	42	0	373293056	22	5319
2026-01-10 09:45:28.25	127.81	30.34	-30.7	-33.8	12.4	1.45e-04	0	41	0	375390208	22	5149
2026-01-10 09:45:29.25	127.67	30.52	-30.7	-34.0	12.2	1.41e-04	0	42	0	376438784	22	5239
2026-01-10 09:45:30.24	127.52	30.69	-30.7	-33.9	12.3	1.50e-04	0	42	0	378535936	22	5219
2026-01-10 09:45:31.25	127.38	30.87	-30.7	-34.0	12.3	1.95e-04	0	41	0	380633088	22	5245
2026-01-10 09:45:32.25	127.23	31.05	-30.8	-34.1	12.2	2.10e-04	0	42	0	382730240	22	5282
2026-01-10 09:45:33.26	127.08	31.24	-30.8	-34.1	12.2	2.87e-04	0	42	0	384827392	22	5297
2026-01-10 09:45:34.26	126.92	31.42	-30.7	-33.9	12.4	2.06e-04	0	42	0	385875968	22	5178
2026-01-10 09:45:35.26	126.77	31.60	-30.7	-33.8	12.5	1.61e-04	0	42	0	387973120	22	5138
2026-01-10 09:45:36.26	126.61	31.79	-30.8	-34.2	12.2	1.62e-04	0	42	0	390070272	22	5297
2026-01-10 09:45:37.27	126.46	31.97	-30.9	-34.5	11.9	3.23e-04	0	42	0	392167424	22	5436
2026-01-10 09:45:38.27	126.30	32.16	-30.9	-34.3	12.1	2.78e-04	0	42	0	394264576	22	5355
2026-01-10 09:45:39.27	126.14	32.34	-31.0	-34.6	11.9	6.13e-04	0	42	0	395313152	22	5479
2026-01-10 09:45:40.27	125.97	32.53	-30.9	-34.6	11.9	4.70e-04	0	42	0	397410304	22	5469
2026-01-10 09:45:41.28	125.81	32.72	-30.8	-34.2	12.1	2.21e-04	0	42	0	399507456	22	5320
2026-01-10 09:45:42.28	125.64	32.91	-30.9	-34.4	12.0	3.51e-04	0	42	0	401604608	22	5396
2026-01-10 09:45:43.28	125.47	33.10	-31.0	-34.6	11.9	3.30e-04	0	42	0	403701760	22	5484
2026-01-10 09:45:44.28	125.30	33.29	-31.1	-35.2	11.5	5.71e-04	0	42	0	404750336	22	5726
2026-01-10 09:45:45.28	125.13	33.48	-31.3	-35.6	11.2	1.48e-03	0	42	0	406847488	22	5921
2026-01-10 09:45:46.28	124.95	33.68	-31.1	-34.9	11.7	8.23e-04	0	42	0	408944640	22	5612
2026-01-10 09:45:47.29	124.77	33.87	-31.0	-34.6	11.9	5.42e-04	0	42	0	411041792	22	5474
2026-01-10 09:45:48.30	124.59	34.07	-30.9	-34.6	11.9	3.25e-04	0	42	0	413138944	22	5458
2026-01-10 09:45:49.29	124.41	34.26	-31.0	-34.8	11.8	3.60e-04	0	42	0	414187520	22	5537
2026-01-10 09:45:50.30	124.23	34.46	-31.2	-35.3	11.4	6.90e-04	0	42	0	416284672	22	5762
2026-01-10 09:45:51.29	124.04	34.65	-31.2	-35.4	11.4	8.88e-04	0	42	0	418381824	22	5835
2026-01-10 09:45:52.30	123.85	34.85	-31.2	-35.4	11.4	9.80e-04	0	42	0	420478976	22	5823
2026-01-10 09:45:53.30	123.66	35.05	-31.1	-35.0	11.7	5.52e-04	0	42	0	421527552	22	5633
2026-01-10 09:45:54.30	123.47	35.25	-31.0	-34.7	11.9	3.80e-04	0	42	0	423624704	22	5503
2026-01-10 09:45:55.30	123.28	35.45	-31.0	-34.8	11.8	4.13e-04	0	42	0	425721856	22	5558
2026-01-10 09:45:56.29	123.08	35.65	-31.3	-35.5	11.3	1.06e-03	0	42	0	427819008	22	5865
2026-01-10 09:45:57.30	122.88	35.86	-31.2	-35.4	11.4	9.24e-04	0	42	0	429916160	22	5815
2026-01-10 09:45:58.31	122.67	36.06	-31.5	-35.8	10.6	1.04e-03	0	42	0	430964736	23	5912
2026-01-10 09:45:59.31	122.47	36.27	-31.5	-35.8	10.8	2.27e-03	0	42	0	433061888	23	5886
2026-01-10 09:46:00.30	122.26	36.47	-31.5	-35.6	10.9	2.22e-03	0	42	0	435159040	23	5824
2026-01-10 09:46:01.31	122.05	36.68	-31.7	-36.4	10.3	3.97e-03	0	41	0	437256192	23	6201
2026-01-10 09:46:02.30	121.84	36.88	-31.6	-36.0	10.6	2.69e-03	0	42	0	439353344	23	5970
2026-01-10 09:46:03.31	121.62	37.09	-31.4	-35.5	11.0	2.45e-03	0	42	0	440401920	23	5760
2026-01-10 09:46:04.31	121.40	37.30	-31.5	-35.8	10.8	2.69e-03	0	42	0	442499072	23	5892
2026-01-10 09:46:05.31	121.18	37.51	-31.5	-35.8	10.8	2.55e-03	0	42	0	444596224	23	5878
2026-01-10 09:46:06.31	120.95	37.72	-31.4	-35.5	11.0	1.65e-03	0	42	0	446693376	23	5733
2026-01-10 09:46:07.31	120.73	37.93	-31.3	-35.1	11.3	1.22e-03	0	42	0	448790528	23	5550
2026-01-10 09:46:08.31	120.50	38.14	-31.3	-35.0	11.3	8.25e-04	0	42	0	449839104	23	5535
2026-01-10 09:46:09.31	120.26	38.36	-31.2	-34.9	11.5	8.46e-04	0	42	0	451936256	23	5473
2026-01-10 09:46:10.31	120.03	38.57	-31.3	-35.2	11.2	9.99e-04	0	42	0	454033408	23	5589
2026-01-10 09:46:11.31	119.79	38.78	-31.5	-35.6	10.9	1.51e-03	0	42	0	456130560	23	5814
2026-01-10 09:46:12.32	119.54	39.00	-31.5	-35.8	10.7	2.34e-03	0	42	0	457179136	23	5912
2026-01-10 09:46:13.31	119.30	39.21	-31.5	-35.7	10.8	2.83e-03	0	42	0	459276288	23	5846
2026-01-10 09:46:14.31	119.05	39.43	-31.5	-35.9	10.7	4.00e-03	0	42	0	461373440	23	5946
2026-01-10 09:46:15.30	118.80	39.65	-31.5	-35.9	10.8	3.18e-03	0	42	0	463470592	23	5916
2026-01-10 09:46:16.30	118.54	39.86	-31.5	-35.6	11.0	2.43e-03	0	42	0	465567744	23	5792
2026-01-10 09:46:17.31	118.28	40.08	-31.5	-35.8	10.8	2.67e-03	0	42	0	466616320	23	5888
2026-01-10 09:46:18.31	118.01	40.30	-31.5	-35.8	10.9	2.10e-03	0	42	0	468713472	23	5874
2026-01-10 09:46:19.31	117.75	40.52	-31.6	-36.0	10.6	3.14e-03	0	42	0	470810624	23	5988
2026-01-10 09:46:20.32	117.47	40.75	-31.7	-36.3	10.4	3.91e-03	0	42	0	472907776	23	6141
2026-01-10 09:46:21.32	117.20	40.97	-31.6	-36.2	10.5	4.27e-03	0	42	0	475004928	23	6090
2026-01-10 09:46:22.32	116.92	41.19	-31.4	-35.5	11.0	2.91e-03	0	42	0	476053504	23	5768
2026-01-10 09:46:23.32	116.64	41.41	-31.3	-35.0	11.4	1.24e-03	0	42	0	478150656	23	5530
2026-01-10 09:46:24.32	116.35	41.63	-31.2	-34.9	11.4	1.01e-03	0	42	0	480247808	23	5465
2026-01-10 09:46:25.32	116.06	41.86	-31.3	-34.9	11.4	8.25e-04	0	42	0	482344960	23	5488
2026-01-10 09:46:26.31	115.77	42.08	-31.1	-34.3	11.8	5.00e-04	0	42	0	483393536	23	5232
2026-01-10 09:46:27.31	115.47	42.30	-30.9	-33.9	12.2	2.26e-04	0	42	0	485490688	23	5070
2026-01-10 09:46:28.31	115.17	42.53	-30.8	-33.6	12.4	1.43e-04	0	42	0	487587840	23	4959
2026-01-10 09:46:29.31	114.86	42.75	-30.9	-33.7	12.2	1.76e-04	0	42	0	489684992	23	5014
2026-01-10 09:46:30.32	114.55	42.98	-30.8	-33.6	12.4	1.30e-04	0	42	0	491782144	23	4959
2026-01-10 09:46:31.32	114.23	43.21	-30.9	-34.0	12.1	2.28e-04	0	42	0	492830720	23	5103
2026-01-10 09:46:32.33	113.91	43.43	-30.8	-33.5	12.4	2.44e-04	0	42	0	494927872	23	4930
2026-01-10 09:46:33.33	113.58	43.66	-30.6	-33.4	12.9	7.24e-05	0	42	0	497025024	22	4995
2026-01-10 09:46:34.33	113.25	43.89	-30.6	-33.5	12.8	5.26e-05	0	42	0	499122176	22	4993
2026-01-10 09:46:35.34	112.92	44.12	-30.8	-34.1	12.4	9.53e-05	0	42	0	501219328	22	5240
2026-01-10 09:46:36.34	112.58	44.34	-31.0	-34.6	12.0	2.75e-04	0	42	0	502267904	22	5452
2026-01-10 09:46:37.34	112.23	44.57	-31.0	-34.5	12.1	3.49e-04	0	42	0	504365056	22	5409
2026-01-10 09:46:38.35	111.88	44.80	-30.9	-34.3	12.2	2.42e-04	0	42	0	506462208	22	5318
2026-01-10 09:46:39.35	111.52	45.03	-31.0	-34.5	12.2	1.41e-04	0	42	0	508559360	22	5417
2026-01-10 09:46:40.36	111.16	45.26	-31.2	-35.3	11.6	4.54e-04	0	42	0	510656512	22	5730
2026-01-10 09:46:41.36	110.80	45.49	-31.3	-35.4	11.5	5.07e-04	0	42	0	511705088	22	5809
2026-01-10 09:46:42.36	110.43	45.72	-31.2	-35.3	11.6	9.63e-04	0	42	0	513802240	22	5769
2026-01-10 09:46:43.36	110.05	45.94	-31.0	-34.7	12.0	3.42e-04	0	42	0	515899392	22	5488
2026-01-10 09:46:44.36	109.67	46.17	-30.9	-34.3	12.3	2.08e-04	0	42	0	517996544	22	5322
2026-01-10 09:46:45.36	109.28	46.40	-31.0	-34.6	12.1	1.92e-04	0	42	0	520093696	22	5438
2026-01-10 09:46:46.36	108.89	46.63	-30.9	-34.4	12.2	2.19e-04	0	42	0	521142272	22	5371
2026-01-10 09:46:47.36	108.49	46.85	-31.0	-34.5	12.2	1.83e-04	0	42	0	523239424	22	5387
2026-01-10 09:46:48.37	108.09	47.08	-31.0	-34.6	12.1	2.20e-04	0	42	0	525336576	22	5455
2026-01-10 09:46:49.37	107.68	47.31	-31.6	-36.0	10.8	7.85e-04	0	42	0	527433728	23	5967
2026-01-10 09:46:50.37	107.26	47.53	-31.3	-35.0	11.5	9.45e-04	0	42	0	528482304	23	5515
2026-01-10 09:46:51.37	106.84	47.76	-31.6	-35.8	10.9	1.65e-03	0	42	0	530579456	23	5887
2026-01-10 09:46:52.37	106.41	47.98	-31.4	-35.4	11.2	1.78e-03	0	42	0	532676608	23	5665
2026-01-10 09:46:53.37	105.98	48.21	-31.3	-35.1	11.4	1.17e-03	0	42	0	534773760	23	5565
2026-01-10 09:46:54.37	105.54	48.43	-31.4	-35.3	11.3	1.49e-03	0	42	0	536870912	23	5638
2026-01-10 09:46:55.38	105.08	48.66	-31.3	-34.9	11.6	9.68e-04	0	42	0	537919488	23	5464
2026-01-10 09:46:56.38	104.63	48.88	-31.2	-34.6	11.8	5.32e-04	0	42	0	540016640	23	5342
2026-01-10 09:46:57.38	104.17	49.10	-31.1	-34.2	12.0	4.08e-04	0	42	0	542113792	23	5198
2026-01-10 09:46:58.39	103.70	49.32	-31.0	-34.2	12.0	2.99e-04	0	42	0	544210944	23	5176
2026-01-10 09:46:59.39	103.22	49.54	-30.8	-33.6	12.5	2.94e-04	0	42	0	546308096	23	4944
2026-01-10 09:47:00.39	102.74	49.76	-30.6	-33.4	13.0	5.41e-05	0	42	0	547356672	22	4955
2026-01-10 09:47:01.39	102.26	49.98	-30.5	-33.0	13.3	1.75e-05	0	42	0	549453824	22	4823
2026-01-10 09:47:02.40	101.76	50.19	-30.3	-32.6	13.5	1.67e-05	0	42	0	551550976	22	4688
2026-01-10 09:47:03.40	101.25	50.41	-30.2	-32.8	13.7	1.06e-05	0	42	0	553648128	21	4859
2026-01-10 09:47:04.40	100.75	50.62	-29.9	-32.1	14.1	3.00e-06	0	42	0	555745280	21	4626
2026-01-10 09:47:05.41	100.22	50.83	-29.6	-31.7	14.7	0.00e+00	0	42	0	556793856	20	4584
2026-01-10 09:47:06.41	99.70	51.04	-29.5	-31.5	14.8	0.00e+00	0	42	0	558891008	20	4534
2026-01-10 09:47:07.40	99.17	51.25	-29.5	-31.5	14.8	0.00e+00	0	42	0	560988160	20	4520
2026-01-10 09:47:08.41	98.63	51.46	-29.1	-31.0	15.5	0.00e+00	0	42	0	563085312	19	4478
2026-01-10 09:47:09.41	98.09	51.66	-28.9	-30.4	15.8	0.00e+00	0	42	0	565182464	19	4292
2026-01-10 09:47:10.42	97.53	51.87	-28.8	-30.2	16.0	0.00e+00	0	42	0	566231040	19	4232
2026-01-10 09:47:11.42	96.96	52.07	-29.0	-30.6	15.7	0.00e+00	0	42	0	568328192	19	4335
2026-01-10 09:47:12.42	96.40	52.27	-29.1	-31.0	15.5	0.00e+00	0	42	0	570425344	19	4467
2026-01-10 09:47:13.43	95.81	52.47	-29.1	-30.9	15.5	0.00e+00	0	42	0	572522496	19	4435
2026-01-10 09:47:14.43	95.23	52.66	-29.1	-31.0	15.5	0.00e+00	0	42	0	573571072	19	4455
2026-01-10 09:47:15.43	94.64	52.85	-29.0	-30.7	15.7	0.00e+00	0	42	0	575668224	19	4385
2026-01-10 09:47:16.43	94.04	53.04	-29.1	-30.9	15.6	0.00e+00	0	42	0	577765376	19	4419
2026-01-10 09:47:17.43	93.43	53.23	-29.0	-30.6	15.8	0.00e+00	0	42	0	579862528	19	4336
2026-01-10 09:47:18.43	92.81	53.41	-29.2	-31.1	15.5	0.00e+00	0	42	0	581959680	19	4483
2026-01-10 09:47:19.44	92.19	53.60	-28.9	-30.5	15.8	0.00e+00	0	42	0	584056832	19	4327
2026-01-10 09:47:20.44	91.55	53.78	-29.2	-31.1	15.5	0.00e+00	0	42	0	585105408	19	4513
2026-01-10 09:47:21.44	90.92	53.95	-29.3	-31.4	15.2	0.00e+00	0	42	0	587202560	19	4586
2026-01-10 09:47:22.44	90.27	54.12	-29.4	-31.7	15.1	0.00e+00	0	42	0	589299712	19	4691
2026-01-10 09:47:23.44	89.61	54.29	-29.5	-32.0	14.8	0.00e+00	0	42	0	591396864	19	4794
2026-01-10 09:47:24.44	88.95	54.46	-29.5	-31.9	14.9	0.00e+00	0	42	0	592445440	19	4747
2026-01-10 09:47:25.45	88.28	54.63	-29.7	-32.5	14.6	0.00e+00	0	42	0	594542592	19	4958
2026-01-10 09:47:26.45	87.60	54.78	-29.9	-33.0	14.3	1.50e-06	0	42	0	596639744	19	5116
2026-01-10 09:47:27.45	86.91	54.94	-30.1	-33.1	13.8	2.20e-06	0	42	0	598736896	20	5055
2026-01-10 09:47:28.46	86.21	55.09	-30.2	-33.2	13.8	2.20e-06	0	42	0	600834048	20	5099
2026-01-10 09:47:29.45	85.52	55.24	-30.1	-33.0	13.9	9.10e-06	0	42	0	601882624	20	5044
2026-01-10 09:47:30.46	84.81	55.39	-30.0	-32.7	14.1	3.80e-06	0	42	0	603979776	20	4913
2026-01-10 09:47:31.47	84.09	55.53	-29.9	-32.4	14.4	7.00e-07	0	42	0	606076928	20	4818
2026-01-10 09:47:32.47	83.36	55.66	-29.8	-32.1	14.5	3.80e-06	0	42	0	608174080	20	4706
2026-01-10 09:47:33.47	82.64	55.80	-29.6	-31.6	14.8	0.00e+00	0	42	0	610271232	20	4560
2026-01-10 09:47:34.48	81.89	55.93	-29.7	-32.0	14.6	0.00e+00	0	42	0	611319808	20	4684
2026-01-10 09:47:35.48	81.15	56.05	-29.9	-32.4	14.3	1.50e-06	0	42	0	613416960	20	4810
2026-01-10 09:47:36.49	80.40	56.17	-30.0	-32.7	14.1	7.00e-07	0	42	0	615514112	20	4935
2026-01-10 09:47:37.49	79.64	56.28	-29.7	-32.1	14.5	2.20e-06	0	42	0	617611264	20	4701
2026-01-10 09:47:38.49	78.88	56.39	-29.6	-31.6	14.8	1.50e-06	0	42	0	619708416	20	4562
2026-01-10 09:47:39.50	78.10	56.50	-29.6	-31.7	14.8	7.00e-07	0	42	0	620756992	20	4580
2026-01-10 09:47:40.50	77.33	56.60	-29.4	-31.2	15.0	7.00e-07	0	42	0	622854144	20	4427
2026-01-10 09:47:41.50	76.55	56.69	-29.5	-31.4	14.8	0.00e+00	0	42	0	624951296	20	4491
2026-01-10 09:47:42.50	75.77	56.78	-29.8	-32.1	14.4	0.00e+00	0	42	0	627048448	20	4730
2026-01-10 09:47:43.51	74.97	56.87	-29.7	-32.0	14.5	7.00e-07	0	42	0	629145600	20	4682
2026-01-10 09:47:44.51	74.18	56.95	-29.6	-31.8	14.6	7.00e-07	0	42	0	630194176	20	4619
2026-01-10 09:47:45.51	73.38	57.02	-29.4	-31.2	15.0	1.50e-06	0	42	0	632291328	20	4434
2026-01-10 09:47:46.52	72.57	57.09	-29.4	-31.2	15.0	0.00e+00	0	42	0	634388480	20	4440
2026-01-10 09:47:47.51	71.78	57.16	-29.4	-31.6	15.2	0.00e+00	0	42	0	636485632	19	4638
2026-01-10 09:47:48.51	70.97	57.22	-29.3	-31.5	15.3	0.00e+00	0	42	0	637534208	19	4615
2026-01-10 09:47:49.52	70.15	57.27	-29.4	-31.6	15.1	7.00e-07	0	42	0	639631360	19	4657
2026-01-10 09:47:50.52	69.33	57.32	-29.2	-31.1	15.5	0.00e+00	0	42	0	641728512	19	4482
2026-01-10 09:47:51.52	68.51	57.36	-29.2	-31.2	15.4	0.00e+00	0	42	0	643825664	19	4529
2026-01-10 09:47:52.52	67.69	57.40	-29.3	-31.5	15.2	0.00e+00	0	42	0	645922816	19	4624
2026-01-10 09:47:53.53	66.86	57.43	-29.4	-31.6	15.1	0.00e+00	0	42	0	646971392	19	4656
2026-01-10 09:47:54.53	66.04	57.45	-28.9	-30.4	15.9	0.00e+00	0	42	0	649068544	19	4278
2026-01-10 09:47:55.53	65.21	57.47	-28.9	-30.3	15.9	0.00e+00	0	42	0	651165696	19	4269
2026-01-10 09:47:56.53	64.38	57.49	-28.9	-30.5	15.8	0.00e+00	0	42	0	653262848	19	4314
2026-01-10 09:47:57.54	63.55	57.49	-29.1	-30.8	15.6	0.00e+00	0	42	0	655360000	19	4413
2026-01-10 09:47:58.53	62.73	57.50	-29.2	-31.0	15.5	0.00e+00	0	42	0	656408576	19	4475
2026-01-10 09:47:59.54	61.89	57.49	-29.0	-30.6	15.7	0.00e+00	0	42	0	658505728	19	4343
2026-01-10 09:48:00.54	61.07	57.48	-28.9	-30.4	15.9	0.00e+00	0	42	0	660602880	19	4279
2026-01-10 09:48:01.55	60.23	57.47	-29.0	-30.6	15.8	0.00e+00	0	42	0	662700032	19	4355
2026-01-10 09:48:02.55	59.41	57.45	-29.2	-31.0	15.5	0.00e+00	0	42	0	664797184	19	4477
2026-01-10 09:48:03.55	58.58	57.42	-29.0	-30.8	15.7	0.00e+00	0	42	0	665845760	19	4390
2026-01-10 09:48:04.55	57.76	57.39	-29.0	-30.8	15.7	0.00e+00	0	42	0	667942912	19	4388
2026-01-10 09:48:05.56	56.93	57.36	-29.0	-30.6	15.8	0.00e+00	0	42	0	670040064	19	4344
2026-01-10 09:48:06.56	56.11	57.31	-28.6	-30.2	16.3	0.00e+00	0	42	0	672137216	18	4325
2026-01-10 09:48:07.56	55.30	57.26	-28.1	-29.6	16.9	0.00e+00	0	42	0	674234368	17	4261
2026-01-10 09:48:08.56	54.49	57.21	-27.9	-29.1	17.2	0.00e+00	0	42	0	675282944	17	4126
2026-01-10 09:48:09.57	53.67	57.15	-27.8	-28.9	17.3	0.00e+00	0	42	0	677380096	17	4082
2026-01-10 09:48:10.57	52.86	57.09	-27.9	-29.0	17.3	0.00e+00	0	42	0	679477248	17	4096
2026-01-10 09:48:11.57	52.06	57.02	-27.8	-29.4	17.3	0.00e+00	0	42	0	681574400	16	4324
2026-01-10 09:48:12.57	51.27	56.94	-27.9	-29.5	17.2	0.00e+00	0	42	0	682622976	16	4346
2026-01-10 09:48:13.57	50.48	56.86	-27.8	-29.3	17.4	0.00e+00	0	42	0	684720128	16	4276
2026-01-10 09:48:14.57	49.69	56.78	-27.7	-29.1	17.5	0.00e+00	0	42	0	686817280	16	4221
2026-01-10 09:48:15.57	48.91	56.68	-27.7	-29.2	17.4	0.00e+00	0	42	0	688914432	16	4257
2026-01-10 09:48:16.57	48.13	56.59	-27.9	-29.6	17.2	0.00e+00	0	42	0	691011584	16	4375
2026-01-10 09:48:17.57	47.36	56.49	-28.0	-29.8	17.0	0.00e+00	0	42	0	692060160	16	4439
2026-01-10 09:48:18.58	46.58	56.38	-28.1	-30.1	16.9	0.00e+00	0	42	0	694157312	16	4507
2026-01-10 09:48:19.58	45.83	56.27	-28.3	-30.5	16.7	0.00e+00	0	42	0	696254464	16	4636
2026-01-10 09:48:20.58	45.07	56.16	-28.7	-31.0	16.1	0.00e+00	0	42	0	698351616	17	4677
2026-01-10 09:48:21.58	44.33	56.04	-28.7	-31.0	16.0	0.00e+00	0	42	0	700448768	17	4690
2026-01-10 09:48:22.58	43.58	55.92	-28.9	-31.3	15.9	0.00e+00	0	42	0	701497344	17	4788
2026-01-10 09:48:23.58	42.85	55.79	-29.0	-31.1	15.9	0.00e+00	0	42	0	703594496	18	4604
2026-01-10 09:48:24.58	42.12	55.66	-29.0	-31.2	15.7	0.00e+00	0	42	0	705691648	18	4643
2026-01-10 09:48:25.58	41.40	55.52	-28.9	-30.9	15.9	0.00e+00	0	42	0	707788800	18	4544
2026-01-10 09:48:26.58	40.69	55.38	-28.9	-30.8	15.9	0.00e+00	0	42	0	709885952	18	4515
2026-01-10 09:48:27.59	39.98	55.23	-28.9	-30.9	15.9	0.00e+00	0	42	0	710934528	18	4517
2026-01-10 09:48:28.59	39.28	55.09	-29.0	-31.2	15.7	0.00e+00	0	42	0	713031680	18	4643
2026-01-10 09:48:29.59	38.59	54.93	-29.1	-31.4	15.7	0.00e+00	0	42	0	715128832	18	4687
2026-01-10 09:48:30.60	37.90	54.78	-28.9	-30.8	15.9	0.00e+00	0	42	0	717225984	18	4508
2026-01-10 09:48:31.60	37.22	54.62	-28.5	-29.9	16.5	0.00e+00	0	42	0	719323136	18	4246
2026-01-10 09:48:32.60	36.55	54.45	-28.7	-30.5	16.2	0.00e+00	0	42	0	720371712	18	4411
2026-01-10 09:48:33.60	35.89	54.29	-28.6	-30.3	16.3	0.00e+00	0	42	0	722468864	18	4350
2026-01-10 09:48:34.60	35.24	54.12	-28.7	-30.5	16.2	0.00e+00	0	42	0	724566016	18	4403
2026-01-10 09:48:35.61	34.59	53.94	-28.6	-30.6	16.4	0.00e+00	0	42	0	726663168	17	4547
2026-01-10 09:48:36.61	33.95	53.77	-28.8	-31.2	16.0	0.00e+00	0	42	0	727711744	17	4743
2026-01-10 09:48:37.60	33.33	53.59	-28.5	-30.4	16.5	0.00e+00	0	42	0	729808896	17	4484
2026-01-10 09:48:38.60	32.71	53.41	-28.3	-30.0	16.7	0.00e+00	0	42	0	731906048	17	4383
2026-01-10 09:48:39.61	32.09	53.23	-28.3	-30.0	16.7	0.00e+00	0	42	0	734003200	17	4370
2026-01-10 09:48:40.61	31.48	53.04	-28.3	-30.1	16.6	0.00e+00	0	42	0	736100352	17	4392
2026-01-10 09:48:41.61	30.88	52.85	-28.7	-30.9	16.1	0.00e+00	0	42	0	737148928	17	4646
2026-01-10 09:48:42.61	30.29	52.66	-29.2	-31.6	15.5	0.00e+00	0	42	0	739246080	18	4753
2026-01-10 09:48:43.61	29.71	52.46	-29.5	-32.0	14.9	0.00e+00	0	42	0	741343232	19	4789
2026-01-10 09:48:44.62	29.13	52.27	-29.9	-32.8	14.4	7.00e-07	0	42	0	743440384	19	5057
2026-01-10 09:48:45.62	28.56	52.07	-29.7	-32.5	14.6	2.20e-06	0	42	0	745537536	19	4953
2026-01-10 09:48:46.62	28.00	51.87	-29.6	-32.2	14.9	0.00e+00	0	42	0	746586112	19	4848
2026-01-10 09:48:47.62	27.45	51.66	-29.8	-32.5	14.6	0.00e+00	0	42	0	748683264	19	4961
2026-01-10 09:48:48.61	26.91	51.46	-30.4	-33.8	13.5	3.80e-06	0	42	0	750780416	20	5308
2026-01-10 09:48:49.62	26.37	51.25	-30.9	-34.7	12.6	7.93e-05	0	42	0	752877568	21	5590
2026-01-10 09:48:50.62	25.84	51.05	-30.8	-33.8	12.7	1.18e-04	0	42	0	754974720	22	5107
2026-01-10 09:48:51.62	25.32	50.84	-30.6	-33.2	13.2	3.20e-05	0	42	0	756023296	22	4895
2026-01-10 09:48:52.62	24.80	50.63	-30.5	-33.2	13.2	1.44e-05	0	42	0	758120448	22	4869
2026-01-10 09:48:53.63	24.29	50.41	-30.4	-32.9	13.4	1.37e-05	0	42	0	760217600	22	4756
2026-01-10 09:48:54.63	23.79	50.20	-30.8	-34.0	12.7	2.36e-05	0	42	0	762314752	22	5165
2026-01-10 09:48:55.64	23.29	49.98	-31.3	-35.5	11.6	1.98e-04	0	42	0	764411904	22	5818
2026-01-10 09:48:56.63	22.81	49.77	-31.4	-35.8	11.4	1.06e-03	0	42	0	765460480	22	5949
2026-01-10 09:48:57.64	22.33	49.55	-31.6	-35.9	11.0	1.64e-03	0	42	0	767557632	23	5884
2026-01-10 09:48:58.64	21.86	49.33	-31.4	-35.4	11.2	1.90e-03	0	42	0	769654784	23	5665
2026-01-10 09:48:59.64	21.39	49.11	-31.3	-35.0	11.5	9.47e-04	0	42	0	771751936	23	5511
2026-01-10 09:49:00.64	20.93	48.89	-31.2	-34.7	11.8	5.81e-04	0	42	0	772800512	23	5374
2026-01-10 09:49:01.65	20.47	48.66	-31.3	-35.0	11.5	6.23e-04	0	42	0	774897664	23	5511
2026-01-10 09:49:02.65	20.03	48.44	-31.4	-35.1	11.5	1.03e-03	0	42	0	776994816	23	5538
2026-01-10 09:49:03.65	19.59	48.22	-31.4	-35.1	11.4	8.51e-04	0	42	0	779091968	23	5538
2026-01-10 09:49:04.65	19.16	48.00	-31.5	-35.5	11.2	1.05e-03	0	42	0	781189120	23	5705
2026-01-10 09:49:05.66	18.73	47.77	-31.4	-35.3	11.3	1.25e-03	0	42	0	782237696	23	5622
2026-01-10 09:49:06.66	18.30	47.55	-31.3	-34.9	11.5	9.28e-04	0	42	0	784334848	23	5461
2026-01-10 09:49:07.66	17.89	47.32	-31.3	-34.9	11.6	6.16e-04	0	42	0	786432000	23	5458
2026-01-10 09:49:08.66	17.48	47.10	-31.5	-35.5	11.1	1.03e-03	0	42	0	788529152	23	5743
2026-01-10 09:49:09.66	17.08	46.87	-31.7	-36.1	10.7	2.55e-03	0	42	0	790626304	23	6004
2026-01-10 09:49:10.66	16.68	46.64	-31.6	-35.9	10.8	1.96e-03	0	42	0	791674880	23	5918
2026-01-10 09:49:11.65	16.30	46.42	-31.4	-35.4	11.3	2.01e-03	0	42	0	793772032	23	5679
2026-01-10 09:49:12.66	15.91	46.19	-31.2	-34.5	11.9	5.77e-04	0	42	0	795869184	23	5288
2026-01-10 09:49:13.67	15.52	45.96	-31.0	-34.1	12.1	2.78e-04	0	42	0	797966336	23	5146
2026-01-10 09:49:14.67	15.15	45.74	-30.9	-33.8	12.3	1.86e-04	0	42	0	800063488	23	5028
2026-01-10 09:49:15.67	14.78	45.51	-30.9	-33.8	12.3	1.69e-04	0	42	0	801112064	23	5039
2026-01-10 09:49:16.68	14.41	45.28	-31.0	-34.0	12.1	2.15e-04	0	42	0	803209216	23	5115
2026-01-10 09:49:17.68	14.05	45.05	-30.9	-33.7	12.3	2.11e-04	0	42	0	805306368	23	5004
2026-01-10 09:49:18.69	13.70	44.82	-30.9	-33.7	12.3	1.40e-04	0	42	0	807403520	23	4995
2026-01-10 09:49:19.70	13.35	44.59	-31.0	-34.1	12.1	2.03e-04	0	42	0	809500672	23	5146
2026-01-10 09:49:20.70	13.00	44.37	-31.0	-34.0	12.1	3.60e-04	0	42	0	810549248	23	5123
2026-01-10 09:49:21.70	12.66	44.14	-31.1	-34.2	12.0	2.92e-04	0	42	0	812646400	23	5194
2026-01-10 09:49:22.70	12.33	43.91	-30.9	-33.9	12.2	2.23e-04	0	42	0	814743552	23	5054
2026-01-10 09:49:23.69	12.01	43.69	-31.0	-34.1	12.1	2.58e-04	0	42	0	816840704	23	5126
2026-01-10 09:49:24.70	11.68	43.46	-30.9	-33.8	12.3	1.71e-04	0	42	0	817889280	23	5021
2026-01-10 09:49:25.70	11.36	43.24	-30.9	-33.9	12.2	1.98e-04	0	42	0	819986432	23	5084
2026-01-10 09:49:26.71	11.04	43.01	-30.9	-33.7	12.4	1.79e-04	0	42	0	822083584	23	4974
2026-01-10 09:49:27.71	10.73	42.79	-30.8	-34.0	12.5	1.14e-04	0	42	0	824180736	22	5198
2026-01-10 09:49:28.72	10.42	42.56	-30.8	-34.0	12.5	1.23e-04	0	42	0	826277888	22	5199
2026-01-10 09:49:29.72	10.12	42.34	-30.9	-34.4	12.2	9.99e-05	0	42	0	827326464	22	5360
2026-01-10 09:49:30.73	9.82	42.11	-30.9	-34.4	12.2	2.19e-04	0	42	0	829423616	22	5355
2026-01-10 09:49:31.73	9.53	41.89	-31.0	-34.5	12.1	2.64e-04	0	42	0	831520768	22	5422
2026-01-10 09:49:32.73	9.24	41.66	-30.9	-34.4	12.2	2.54e-04	0	42	0	833617920	22	5350
2026-01-10 09:49:33.73	8.95	41.44	-31.1	-34.8	11.9	2.92e-04	0	42	0	835715072	22	5541
2026-01-10 09:49:34.73	8.67	41.22	-31.0	-34.7	12.0	3.43e-04	0	42	0	836763648	22	5485
2026-01-10 09:49:35.73	8.39	41.00	-31.0	-34.6	12.0	3.29e-04	0	42	0	838860800	22	5469
2026-01-10 09:49:36.73	8.12	40.78	-31.0	-34.7	12.0	3.49e-04	0	42	0	840957952	22	5494
2026-01-10 09:49:37.73	7.85	40.56	-31.3	-35.4	11.5	7.09e-04	0	42	0	843055104	22	5808
2026-01-10 09:49:38.72	7.59	40.34	-31.4	-35.8	11.1	1.30e-03	0	42	0	845152256	22	6013
2026-01-10 09:49:39.73	7.32	40.12	-31.5	-35.6	11.0	1.74e-03	0	42	0	846200832	23	5772
2026-01-10 09:49:40.73	7.06	39.91	-31.6	-35.9	10.8	2.52e-03	0	42	0	848297984	23	5931
2026-01-10 09:49:41.74	6.80	39.69	-31.6	-36.0	10.7	2.70e-03	0	42	0	850395136	23	5958
2026-01-10 09:49:42.74	6.55	39.47	-31.7	-36.3	10.5	3.73e-03	0	42	0	852492288	23	6144
2026-01-10 09:49:43.74	6.30	39.26	-31.7	-36.3	10.4	3.72e-03	0	42	0	854589440	23	6115
2026-01-10 09:49:44.74	6.06	39.04	-31.6	-35.9	10.7	3.04e-03	0	42	0	855638016	23	5952
2026-01-10 09:49:45.75	5.81	38.83	-31.8	-36.7	10.2	4.57e-03	0	42	0	857735168	23	6314
2026-01-10 09:49:46.74	5.58	38.61	-31.6	-36.1	10.6	5.75e-03	0	42	0	859832320	23	6015
2026-01-10 09:49:47.74	5.34	38.40	-31.5	-35.8	10.8	2.68e-03	0	42	0	861929472	23	5900
2026-01-10 09:49:48.74	5.11	38.19	-31.4	-35.5	11.0	1.98e-03	0	42	0	862978048	23	5750
2026-01-10 09:49:49.74	4.88	37.98	-31.4	-35.5	11.0	1.72e-03	0	42	0	865075200	23	5743
2026-01-10 09:49:50.73	4.65	37.77	-31.2	-34.9	11.5	1.63e-03	0	42	0	867172352	23	5462
2026-01-10 09:49:51.74	4.43	37.56	-30.9	-33.8	12.2	3.11e-04	0	42	0	869269504	23	5035
2026-01-10 09:49:52.74	4.21	37.35	-30.8	-34.0	12.4	1.37e-04	0	42	0	871366656	22	5210
2026-01-10 09:49:53.74	3.99	37.14	-31.0	-34.5	12.1	2.04e-04	0	42	0	872415232	22	5412
2026-01-10 09:49:54.75	3.77	36.94	-31.1	-35.0	11.7	4.54e-04	0	42	0	874512384	22	5635
2026-01-10 09:49:55.75	3.56	36.73	-31.2	-35.3	11.5	6.30e-04	0	42	0	876609536	22	5760
2026-01-10 09:49:56.75	3.35	36.52	-31.2	-35.4	11.4	9.63e-04	0	42	0	878706688	22	5815
2026-01-10 09:49:57.75	3.14	36.32	-31.2	-35.3	11.5	9.09e-04	0	42	0	880803840	22	5754
2026-01-10 09:49:58.75	2.94	36.12	-31.1	-35.1	11.6	8.93e-04	0	42	0	881852416	22	5679
2026-01-10 09:49:59.74	2.74	35.92	-31.3	-35.5	11.4	7.35e-04	0	42	0	883949568	22	5855
2026-01-10 09:50:00.74	2.54	35.71	-31.2	-35.3	11.5	1.26e-03	0	42	0	886046720	22	5754
2026-01-10 09:50:01.75	2.34	35.51	-31.1	-35.0	11.7	5.65e-04	0	42	0	888143872	22	5620
2026-01-10 09:50:02.75	2.15	35.31	-31.2	-35.3	11.5	6.66e-04	0	42	0	890241024	22	5760
2026-01-10 09:50:03.75	1.95	35.11	-31.1	-35.0	11.6	5.96e-04	0	42	0	891289600	22	5648
2026-01-10 09:50:04.75	1.76	34.91	-31.2	-35.3	11.5	8.81e-04	0	42	0	893386752	22	5776
2026-01-10 09:50:05.75	1.58	34.72	-31.1	-35.1	11.6	6.25e-04	0	42	0	895483904	22	5659
2026-01-10 09:50:06.75	1.39	34.52	-30.9	-34.4	12.1	3.24e-04	0	42	0	897581056	22	5385
2026-01-10 09:50:07.76	1.21	34.32	-30.9	-34.4	12.2	2.36e-04	0	42	0	898629632	22	5375
2026-01-10 09:50:08.76	1.03	34.13	-31.1	-35.1	11.7	4.68e-04	0	42	0	900726784	22	5670
2026-01-10 09:50:09.76	0.85	33.94	-31.2	-35.3	11.5	7.62e-04	0	42	0	902823936	22	5770
2026-01-10 09:50:10.76	0.67	33.74	-31.3	-35.5	11.4	8.63e-04	0	42	0	904921088	22	5855
2026-01-10 09:50:11.76	0.50	33.55	-31.4	-36.0	11.1	1.43e-03	0	42	0	907018240	22	6085
2026-01-10 09:50:12.77	0.32	33.36	-31.6	-36.1	10.6	2.84e-03	0	42	0	908066816	23	6023
2026-01-10 09:50:13.77	0.15	33.17	-31.7	-36.6	10.2	4.18e-03	0	42	0	910163968	23	6278
2026-01-10 09:50:14.77	359.99	32.98	-31.6	-36.1	10.5	4.40e-03	0	42	0	912261120	23	6070
2026-01-10 09:50:15.77	359.82	32.79	-31.5	-35.9	10.7	3.17e-03	0	42	0	914358272	23	5949
2026-01-10 09:50:16.77	359.66	32.60	-31.5	-35.9	10.7	2.87e-03	0	42	0	916455424	23	5926
2026-01-10 09:50:17.78	359.49	32.42	-31.3	-35.1	11.3	2.27e-03	0	42	0	917504000	23	5570
2026-01-10 09:50:18.78	359.33	32.23	-31.0	-34.3	11.8	6.73e-04	0	42	0	919601152	23	5248
2026-01-10 09:50:19.78	359.17	32.05	-31.0	-34.1	11.9	4.46e-04	0	42	0	921698304	23	5174
2026-01-10 09:50:20.78	359.02	31.86	-31.0	-34.2	11.9	3.54e-04	0	42	0	923795456	23	5206
2026-01-10 09:50:21.79	358.86	31.68	-31.0	-34.2	11.9	4.55e-04	0	42	0	925892608	23	5186
2026-01-10 09:50:22.78	358.71	31.50	-31.1	-34.4	11.7	5.45e-04	0	42	0	926941184	23	5278
2026-01-10 09:50:23.79	358.56	31.31	-31.3	-35.0	11.3	7.92e-04	0	42	0	929038336	23	5552
2026-01-10 09:50:24.79	358.41	31.13	-31.4	-35.4	11.1	1.13e-03	0	42	0	931135488	23	5730
2026-01-10 09:50:25.79	358.26	30.95	-31.3	-35.2	11.2	1.94e-03	0	42	0	933232640	23	5607
2026-01-10 09:50:26.79	358.11	30.78	-31.2	-34.7	11.5	1.03e-03	0	42	0	935329792	23	5394
2026-01-10 09:50:27.79	357.97	30.60	-31.2	-34.8	11.5	7.99e-04	0	42	0	936378368	23	5433
2026-01-10 09:50:28.79	357.83	30.42	-31.2	-34.9	11.4	9.44e-04	0	42	0	938475520	23	5493
2026-01-10 09:50:29.79	357.69	30.25	-31.3	-35.2	11.2	1.84e-03	0	42	0	940572672	23	5639
2026-01-10 09:50:30.79	357.55	30.07	-31.5	-35.7	10.8	2.24e-03	0	42	0	942669824	23	5865
2026-01-10 09:50:31.79	357.41	29.90	-31.5	-35.6	10.9	2.94e-03	0	42	0	943718400	23	5830
2026-01-10 09:50:32.79	357.27	29.72	-31.5	-35.8	10.8	2.23e-03	0	42	0	945815552	23	5896
2026-01-10 09:50:33.79	357.14	29.55	-31.5	-35.6	10.9	2.20e-03	0	42	0	947912704	23	5802
2026-01-10 09:50:34.79	357.00	29.38	-31.5	-35.7	10.8	2.65e-03	0	42	0	950009856	23	5843
2026-01-10 09:50:35.79	356.87	29.21	-31.4	-35.5	11.0	2.19e-03	0	42	0	952107008	23	5747
2026-01-10 09:50:36.80	356.74	29.04	-31.2	-34.9	11.4	1.29e-03	0	42	0	953155584	23	5470
2026-01-10 09:50:37.80	356.61	28.87	-31.2	-34.8	11.6	7.64e-04	0	42	0	955252736	23	5418
2026-01-10 09:50:38.80	356.48	28.70	-31.3	-34.9	11.4	6.71e-04	0	42	0	957349888	23	5500
2026-01-10 09:50:39.79	356.36	28.54	-31.2	-34.6	11.7	6.00e-04	0	42	0	959447040	23	5361
2026-01-10 09:50:40.79	356.23	28.37	-31.2	-34.7	11.6	7.16e-04	0	42	0	961544192	23	5410
2026-01-10 09:50:41.79	356.11	28.20	-31.1	-34.3	11.8	7.47e-04	0	42	0	962592768	23	5241
2026-01-10 09:50:42.79	355.98	28.04	-30.9	-33.9	12.2	2.92e-04	0	42	0	964689920	23	5089
2026-01-10 09:50:43.79	355.86	27.88	-30.8	-33.6	12.4	2.04e-04	0	42	0	966787072	23	4949
2026-01-10 09:50:44.80	355.74	27.71	-30.8	-34.0	12.4	1.44e-04	0	42	0	968884224	22	5202
2026-01-10 09:50:45.80	355.62	27.55	-30.8	-33.9	12.5	1.19e-04	0	42	0	970981376	22	5170
2026-01-10 09:50:46.81	355.50	27.39	-30.7	-33.7	12.7	8.16e-05	0	42	0	972029952	22	5082
2026-01-10 09:50:47.81	355.39	27.23	-30.8	-33.9	12.5	9.38e-05	0	42	0	974127104	22	5176
2026-01-10 09:50:48.80	355.27	27.07	-30.7	-33.6	12.7	7.78e-05	0	42	0	976224256	22	5078
2026-01-10 09:50:49.80	355.16	26.91	-30.7	-33.8	12.5	1.04e-04	0	42	0	978321408	22	5137
2026-01-10 09:50:50.80	355.05	26.75	-30.7	-33.9	12.4	1.30e-04	0	42	0	979369984	22	5187
2026-01-10 09:50:51.80	354.93	26.59	-30.8	-34.2	12.3	1.59e-04	0	42	0	981467136	22	5279
2026-01-10 09:50:52.80	354.82	26.44	-30.9	-34.3	12.1	2.15e-04	0	42	0	983564288	22	5355
2026-01-10 09:50:53.81	354.71	26.28	-30.8	-34.1	12.3	2.04e-04	0	42	0	985661440	22	5241
2026-01-10 09:50:54.81	354.60	26.12	-30.7	-33.8	12.5	1.60e-04	0	42	0	987758592	22	5141
2026-01-10 09:50:55.82	354.50	25.97	-30.7	-33.7	12.5	9.68e-05	0	42	0	988807168	22	5124
2026-01-10 09:50:56.82	354.39	25.82	-30.7	-33.7	12.5	1.17e-04	0	42	0	990904320	22	5120
2026-01-10 09:50:57.82	354.28	25.66	-30.9	-34.3	12.1	1.56e-04	0	42	0	993001472	22	5332
2026-01-10 09:50:58.82	354.18	25.51	-30.7	-33.9	12.4	2.02e-04	0	42	0	995098624	22	5175
2026-01-10 09:50:59.83	354.08	25.36	-30.8	-34.0	12.4	1.29e-04	0	42	0	997195776	22	5222
2026-01-10 09:51:00.83	353.97	25.21	-30.8	-34.0	12.4	1.36e-04	0	42	0	998244352	22	5213
2026-01-10 09:51:01.84	353.87	25.06	-30.8	-34.2	12.3	1.29e-04	0	42	0	1000341504	22	5288
2026-01-10 09:51:02.84	353.77	24.91	-30.9	-34.4	12.1	2.62e-04	0	42	0	1002438656	22	5374
2026-01-10 09:51:03.85	353.67	24.76	-31.0	-34.7	12.0	4.09e-04	0	42	0	1004535808	22	5500
2026-01-10 09:51:04.85	353.57	24.61	-31.0	-34.6	12.0	3.00e-04	0	42	0	1006632960	22	5452
2026-01-10 09:51:05.86	353.48	24.46	-30.8	-34.1	12.3	3.56e-04	0	42	0	1007681536	22	5266
2026-01-10 09:51:06.86	353.38	24.32	-30.8	-34.2	12.4	1.52e-04	0	42	0	1009778688	22	5298
2026-01-10 09:51:07.86	353.28	24.17	-31.0	-34.6	12.1	2.24e-04	0	42	0	1011875840	22	5456
2026-01-10 09:51:08.87	353.19	24.03	-30.9	-34.2	12.3	1.85e-04	0	42	0	1013972992	22	5292
2026-01-10 09:51:09.88	353.10	23.88	-30.8	-34.1	12.4	1.55e-04	0	42	0	1016070144	22	5247
2026-01-10 09:51:10.88	353.00	23.74	-30.8	-34.0	12.4	1.54e-04	0	42	0	1017118720	22	5216
2026-01-10 09:51:11.88	352.91	23.60	-30.8	-33.9	12.5	1.63e-04	0	42	0	1019215872	22	5190
2026-01-10 09:51:12.89	352.82	23.45	-30.7	-33.7	12.6	9.61e-05	0	42	0	1021313024	22	5089
2026-01-10 09:51:13.89	352.73	23.31	-30.8	-33.9	12.5	1.04e-04	0	42	0	1023410176	22	5193
2026-01-10 09:51:14.89	352.64	23.17	-30.6	-33.5	12.7	8.23e-05	0	42	0	1025507328	22	5040
2026-01-10 09:51:15.88	352.55	23.03	-30.6	-33.5	12.8	6.33e-05	0	42	0	1026555904	22	5033
2026-01-10 09:51:16.88	352.46	22.89	-30.6	-33.6	12.6	7.55e-05	0	42	0	1028653056	22	5060
2026-01-10 09:51:17.89	352.38	22.75	-30.6	-33.6	12.7	9.00e-05	0	42	0	1030750208	22	5067
2026-01-10 09:51:18.89	352.29	22.62	-30.6	-33.7	12.5	8.85e-05	0	42	0	1032847360	22	5104
2026-01-10 09:51:19.90	352.21	22.48	-30.7	-33.8	12.5	1.23e-04	0	42	0	1033895936	22	5140
2026-01-10 09:51:20.90	352.12	22.34	-30.5	-33.3	12.8	7.01e-05	0	42	0	1035993088	22	4948
2026-01-10 09:51:21.90	352.04	22.21	-30.6	-33.6	12.5	9.07e-05	0	42	0	1038090240	22	5090
2026-01-10 09:51:22.90	351.95	22.07	-30.5	-33.3	12.7	1.20e-04	0	42	0	1040187392	22	4957
2026-01-10 09:51:23.90	351.87	21.94	-30.6	-33.5	12.6	1.05e-04	0	42	0	1042284544	22	5055
2026-01-10 09:51:24.90	351.79	21.80	-30.5	-33.4	12.6	7.32e-05	0	42	0	1043333120	22	5020
2026-01-10 09:51:25.90	351.71	21.67	-30.6	-33.5	12.5	9.46e-05	0	42	0	1045430272	22	5066
2026-01-10 09:51:26.90	351.63	21.54	-30.6	-33.7	12.5	1.40e-04	0	42	0	1047527424	22	5111
2026-01-10 09:51:27.90	351.55	21.41	-30.7	-33.8	12.5	1.15e-04	0	42	0	1049624576	22	5151
2026-01-10 09:51:28.91	351.47	21.27	-30.6	-33.6	12.7	1.09e-04	0	42	0	1051721728	22	5056
2026-01-10 09:51:29.91	351.39	21.14	-30.5	-33.2	12.9	4.95e-05	0	42	0	1052770304	22	4929
2026-01-10 09:51:30.92	351.32	21.01	-30.5	-33.4	12.7	6.25e-05	0	42	0	1054867456	22	5005
2026-01-10 09:51:31.92	351.24	20.88	-30.4	-33.0	13.0	6.79e-05	0	42	0	1056964608	22	4840
2026-01-10 09:51:32.92	351.16	20.76	-30.4	-32.9	13.0	3.50e-05	0	42	0	1059061760	22	4827
2026-01-10 09:51:33.92	351.09	20.63	-30.5	-33.4	12.5	9.23e-05	0	42	0	1061158912	22	5020
2026-01-10 09:51:34.92	351.02	20.50	-30.5	-33.2	12.7	9.53e-05	0	42	0	1062207488	22	4946
2026-01-10 09:51:35.92	350.94	20.37	-30.3	-32.8	13.0	5.49e-05	0	42	0	1064304640	22	4798
2026-01-10 09:51:36.93	350.87	20.25	-30.3	-33.1	13.1	3.73e-05	0	42	0	1066401792	21	5008
2026-01-10 09:51:37.93	350.79	20.12	-30.3	-33.2	13.1	3.05e-05	0	42	0	1068498944	21	5023
2026-01-10 09:51:38.93	350.72	19.99	-30.3	-33.2	13.1	3.12e-05	0	42	0	1069547520	21	5036
2026-01-10 09:51:39.93	350.65	19.87	-30.3	-33.3	13.1	3.58e-05	0	42	0	1071644672	21	5083
2026-01-10 09:51:40.93	350.58	19.75	-30.4	-33.6	13.0	3.81e-05	0	42	0	1073741824	21	5172
2026-01-10 09:51:41.93	350.51	19.62	-30.3	-33.2	13.2	3.50e-05	0	42	0	1075838976	21	5038
2026-01-10 09:51:42.93	350.44	19.50	-30.1	-32.8	13.4	1.60e-05	0	42	0	1077936128	21	4894
2026-01-10 09:51:43.93	350.37	19.38	-30.3	-33.2	13.1	2.59e-05	0	42	0	1078984704	21	5040
2026-01-10 09:51:44.93	350.30	19.26	-30.3	-33.0	13.3	1.75e-05	0	42	0	1081081856	21	4950
2026-01-10 09:51:45.94	350.24	19.13	-30.2	-32.9	13.4	1.83e-05	0	42	0	1083179008	21	4921
2026-01-10 09:51:46.94	350.17	19.01	-30.3	-33.2	13.3	1.37e-05	0	42	0	1085276160	21	5023
2026-01-10 09:51:47.94	350.10	18.89	-30.4	-33.5	13.1	2.89e-05	0	42	0	1087373312	21	5124
2026-01-10 09:51:48.95	350.04	18.77	-30.5	-33.7	12.9	3.20e-05	0	42	0	1088421888	21	5215
2026-01-10 09:51:49.95	349.97	18.65	-30.3	-33.1	13.2	2.21e-05	0	42	0	1090519040	21	4990
2026-01-10 09:51:50.95	349.90	18.54	-30.1	-32.6	13.6	9.10e-06	0	42	0	1092616192	21	4790
2026-01-10 09:51:51.95	349.84	18.42	-29.9	-32.1	13.9	5.30e-06	0	42	0	1094713344	21	4638
2026-01-10 09:51:52.95	349.78	18.30	-29.9	-32.2	13.8	6.10e-06	0	42	0	1096810496	21	4665
2026-01-10 09:51:53.96	349.71	18.18	-29.9	-32.2	13.8	6.80e-06	0	42	0	1097859072	21	4670
2026-01-10 09:51:54.96	349.65	18.07	-30.0	-32.4	13.5	1.22e-05	0	42	0	1099956224	21	4760
2026-01-10 09:51:55.96	349.59	17.95	-29.9	-32.2	13.6	9.10e-06	0	42	0	1102053376	21	4696
2026-01-10 09:51:56.96	349.53	17.83	-30.0	-32.5	13.5	9.90e-06	0	42	0	1104150528	21	4783
2026-01-10 09:51:57.97	349.46	17.72	-30.0	-32.6	13.4	1.60e-05	0	42	0	1106247680	21	4820
2026-01-10 09:51:58.97	349.40	17.60	-30.1	-32.8	13.2	1.37e-05	0	42	0	1107296256	21	4921
2026-01-10 09:51:59.97	349.34	17.49	-30.1	-32.9	13.1	3.12e-05	0	42	0	1109393408	21	4942
2026-01-10 09:52:00.97	349.28	17.38	-30.2	-33.0	13.1	1.90e-05	0	42	0	1111490560	21	4966
2026-01-10 09:52:01.97	349.22	17.26	-30.4	-33.5	13.0	2.44e-05	0	42	0	1113587712	21	5143
2026-01-10 09:52:02.97	349.16	17.15	-30.4	-33.4	13.0	3.81e-05	0	42	0	1114636288	21	5116
2026-01-10 09:52:03.97	349.11	17.04	-30.4	-33.7	12.7	6.10e-05	0	42	0	1116733440	21	5249
2026-01-10 09:52:04.96	349.05	16.93	-30.5	-33.9	12.8	7.24e-05	0	42	0	1118830592	21	5285
2026-01-10 09:52:05.96	348.99	16.82	-30.4	-33.7	12.7	4.80e-05	0	42	0	1120927744	21	5222
2026-01-10 09:52:06.95	348.93	16.71	-30.5	-33.9	12.5	9.91e-05	0	42	0	1123024896	21	5320
2026-01-10 09:52:07.95	348.88	16.60	-30.4	-33.7	12.6	9.07e-05	0	42	0	1124073472	21	5240
2026-01-10 09:52:08.95	348.82	16.49	-30.4	-33.6	12.6	1.11e-04	0	42	0	1126170624	21	5203
2026-01-10 09:52:09.95	348.76	16.38	-30.5	-33.9	12.5	1.16e-04	0	42	0	1128267776	21	5320
2026-01-10 09:52:10.95	348.71	16.27	-30.4	-33.7	12.5	1.30e-04	0	42	0	1130364928	21	5274
2026-01-10 09:52:11.96	348.65	16.16	-30.4	-33.7	12.5	1.13e-04	0	42	0	1132462080	21	5260
2026-01-10 09:52:12.96	348.60	16.06	-30.4	-33.7	12.5	1.17e-04	0	42	0	1133510656	21	5265
2026-01-10 09:52:13.96	348.55	15.95	-30.5	-34.0	12.2	1.28e-04	0	42	0	1135607808	21	5383
2026-01-10 09:52:14.96	348.49	15.84	-30.4	-33.6	12.4	1.91e-04	0	42	0	1137704960	21	5246
2026-01-10 09:52:15.96	348.44	15.74	-30.3	-33.3	12.6	7.70e-05	0	42	0	1139802112	21	5136
2026-01-10 09:52:16.96	348.39	15.63	-30.3	-33.5	12.5	1.22e-04	0	42	0	1140850688	21	5219
2026-01-10 09:52:17.96	348.33	15.52	-30.3	-33.4	12.6	9.99e-05	0	42	0	1142947840	21	5171
2026-01-10 09:52:18.96	348.28	15.42	-30.4	-33.6	12.4	9.68e-05	0	42	0	1145044992	21	5256
2026-01-10 09:52:19.95	348.23	15.32	-30.4	-33.7	12.4	1.65e-04	0	42	0	1147142144	21	5290
2026-01-10 09:52:20.96	348.18	15.21	-30.4	-33.6	12.4	9.76e-05	0	42	0	1149239296	21	5254
2026-01-10 09:52:21.96	348.13	15.11	-30.6	-34.3	12.0	2.07e-04	0	42	0	1150287872	21	5537
2026-01-10 09:52:22.96	348.08	15.00	-30.8	-34.8	11.8	5.20e-04	0	42	0	1152385024	21	5734
2026-01-10 09:52:23.96	348.03	14.90	-30.8	-34.8	11.8	5.14e-04	0	42	0	1154482176	21	5705
2026-01-10 09:52:24.96	347.98	14.80	-30.8	-34.7	11.8	6.98e-04	0	42	0	1156579328	21	5693
2026-01-10 09:52:25.96	347.93	14.70	-31.0	-34.9	11.6	9.01e-04	0	42	0	1158676480	22	5616
2026-01-10 09:52:26.96	347.88	14.59	-30.9	-34.5	11.9	4.98e-04	0	42	0	1159725056	22	5449
2026-01-10 09:52:27.97	347.83	14.49	-30.6	-33.7	12.3	3.13e-04	0	42	0	1161822208	22	5128
2026-01-10 09:52:28.97	347.78	14.39	-30.6	-33.6	12.5	1.37e-04	0	42	0	1163919360	22	5072
2026-01-10 09:52:29.98	347.73	14.29	-30.5	-33.4	12.6	8.85e-05	0	42	0	1166016512	22	4996
2026-01-10 09:52:30.98	347.68	14.19	-30.7	-34.0	12.3	1.46e-04	0	42	0	1168113664	22	5221
2026-01-10 09:52:31.98	347.64	14.09	-30.8	-34.2	12.0	2.04e-04	0	42	0	1169162240	22	5346
2026-01-10 09:52:32.98	347.59	13.99	-30.9	-34.6	11.8	4.38e-04	0	42	0	1171259392	22	5474
2026-01-10 09:52:33.98	347.54	13.89	-30.8	-34.2	12.0	3.00e-04	0	42	0	1173356544	22	5320
2026-01-10 09:52:34.98	347.50	13.79	-30.7	-33.8	12.2	2.82e-04	0	42	0	1175453696	22	5195
2026-01-10 09:52:35.98	347.45	13.69	-30.5	-33.5	12.5	8.92e-05	0	42	0	1177550848	22	5059
2026-01-10 09:52:36.98	347.41	13.60	-30.5	-33.5	12.4	1.42e-04	0	42	0	1178599424	22	5077
2026-01-10 09:52:37.97	347.36	13.50	-30.4	-33.3	12.4	1.12e-04	0	42	0	1180696576	22	5016
2026-01-10 09:52:38.98	347.32	13.40	-30.7	-34.0	12.3	1.15e-04	0	42	0	1182793728	22	5227
2026-01-10 09:52:39.98	347.27	13.30	-30.8	-34.2	12.0	2.75e-04	0	42	0	1184890880	22	5343
2026-01-10 09:52:40.98	347.23	13.21	-30.8	-34.1	12.0	3.04e-04	0	42	0	1185939456	22	5307
2026-01-10 09:52:41.99	347.18	13.11	-30.9	-34.4	11.8	3.38e-04	0	42	0	1188036608	22	5432
2026-01-10 09:52:42.99	347.14	13.02	-30.9	-34.5	11.8	4.58e-04	0	42	0	1190133760	22	5453
2026-01-10 09:52:43.99	347.09	12.92	-30.9	-34.7	11.5	5.42e-04	0	42	0	1192230912	22	5571
2026-01-10 09:52:44.99	347.05	12.83	-31.0	-34.9	11.4	9.12e-04	0	42	0	1194328064	22	5654
2026-01-10 09:52:45.99	347.01	12.73	-31.0	-35.1	11.2	1.17e-03	0	42	0	1195376640	22	5758
2026-01-10 09:52:46.99	346.97	12.64	-30.9	-34.8	11.3	1.28e-03	0	42	0	1197473792	22	5640
2026-01-10 09:52:47.99	346.92	12.54	-31.0	-35.0	11.3	1.23e-03	0	42	0	1199570944	22	5700
2026-01-10 09:52:48.99	346.88	12.45	-31.0	-35.0	11.2	1.60e-03	0	42	0	1201668096	22	5732
2026-01-10 09:52:50.00	346.84	12.35	-30.9	-34.9	11.2	1.49e-03	0	42	0	1203765248	22	5697
2026-01-10 09:52:51.00	346.80	12.26	-31.1	-35.4	10.8	1.36e-03	0	42	0	1204813824	22	5941
2026-01-10 09:52:52.00	346.76	12.17	-31.2	-35.6	10.7	2.55e-03	0	42	0	1206910976	22	6032
2026-01-10 09:52:53.00	346.72	12.08	-31.2	-35.8	10.5	3.09e-03	0	42	0	1209008128	22	6116
2026-01-10 09:52:54.00	346.68	11.99	-31.2	-35.8	10.5	4.71e-03	0	42	0	1211105280	22	6110
2026-01-10 09:52:55.00	346.64	11.89	-31.5	-36.3	9.7	6.80e-03	0	42	0	1213202432	23	6278
2026-01-10 09:52:56.00	346.60	11.80	-31.4	-36.0	10.1	9.24e-03	0	42	0	1214251008	23	6097
2026-01-10 09:52:57.01	346.56	11.71	-31.3	-35.5	10.3	5.69e-03	0	42	0	1216348160	23	5891
2026-01-10 09:52:58.00	346.52	11.62	-31.2	-35.3	10.6	4.25e-03	0	42	0	1218445312	23	5757
2026-01-10 09:52:59.01	346.48	11.53	-31.1	-35.0	10.7	3.84e-03	0	42	0	1220542464	23	5639
2026-01-10 09:53:00.01	346.44	11.44	-31.0	-34.6	10.9	1.73e-03	0	42	0	1221591040	23	5460
2026-01-10 09:53:01.01	346.40	11.35	-31.0	-34.8	10.7	3.02e-03	0	42	0	1223688192	23	5579
2026-01-10 09:53:02.02	346.36	11.26	-31.0	-34.7	10.7	2.95e-03	0	42	0	1225785344	23	5538
2026-01-10 09:53:03.02	346.32	11.17	-31.0	-34.7	10.8	2.44e-03	0	42	0	1227882496	23	5536
2026-01-10 09:53:04.02	346.29	11.08	-30.9	-34.4	11.0	2.35e-03	0	42	0	1229979648	23	5387
2026-01-10 09:53:05.03	346.25	10.99	-30.9	-34.4	10.9	1.63e-03	0	42	0	1231028224	23	5420
2026-01-10 09:53:06.03	346.21	10.91	-30.9	-34.6	10.8	2.00e-03	0	42	0	1233125376	23	5489
2026-01-10 09:53:07.03	346.17	10.82	-30.9	-34.7	10.7	2.63e-03	0	42	0	1235222528	23	5542
2026-01-10 09:53:08.03	346.14	10.73	-31.1	-35.2	10.3	4.81e-03	0	42	0	1237319680	23	5793
2026-01-10 09:53:09.03	346.10	10.64	-31.0	-34.9	10.5	5.51e-03	0	42	0	1239416832	23	5659
2026-01-10 09:53:10.04	346.06	10.56	-30.9	-34.5	10.7	2.95e-03	0	42	0	1240465408	23	5488
2026-01-10 09:53:11.04	346.03	10.47	-30.8	-34.4	10.8	2.57e-03	0	42	0	1242562560	23	5417
2026-01-10 09:53:12.04	345.99	10.38	-30.9	-34.7	10.6	2.85e-03	0	42	0	1244659712	23	5561
2026-01-10 09:53:13.04	345.96	10.30	-30.8	-34.4	10.8	2.42e-03	0	42	0	1246756864	23	5421
2026-01-10 09:53:14.04	345.92	10.21	-31.0	-34.9	10.5	3.32e-03	0	42	0	1248854016	23	5636
2026-01-10 09:53:15.03	345.89	10.13	-30.9	-34.7	10.5	3.44e-03	0	42	0	1249902592	23	5562
2026-01-10 09:53:16.04	345.85	10.04	-30.9	-34.6	10.5	3.49e-03	0	42	0	1251999744	23	5543
2026-01-10 09:53:17.04	345.82	9.96	-31.0	-35.0	10.3	4.40e-03	0	42	0	1254096896	23	5699
2026-01-10 09:53:18.04	345.78	9.87	-30.9	-34.7	10.4	4.38e-03	0	42	0	1256194048	23	5601
2026-01-10 09:53:19.05	345.75	9.79	-30.9	-34.8	10.4	4.54e-03	0	42	0	1258291200	23	5614
2026-01-10 09:53:20.04	345.71	9.70	-31.0	-35.1	10.2	6.03e-03	0	42	0	1259339776	23	5755
2026-01-10 09:53:21.05	345.68	9.62	-31.0	-35.0	10.3	5.51e-03	0	42	0	1261436928	23	5717
2026-01-10 09:53:22.04	345.65	9.54	-31.0	-35.0	10.2	6.37e-03	0	42	0	1263534080	23	5729
2026-01-10 09:53:23.05	345.61	9.45	-31.0	-35.3	10.0	6.53e-03	0	42	0	1265631232	23	5857
2026-01-10 09:53:24.05	345.58	9.37	-31.0	-35.2	10.0	7.41e-03	0	42	0	1266679808	23	5836
2026-01-10 09:53:25.05	345.55	9.29	-31.1	-35.5	9.8	9.03e-03	0	42	0	1268776960	23	5966
2026-01-10 09:53:26.05	345.51	9.20	-31.0	-35.1	10.1	7.66e-03	0	42	0	1270874112	23	5783
2026-01-10 09:53:27.05	345.48	9.12	-31.0	-35.0	10.2	6.97e-03	0	42	0	1272971264	23	5738
2026-01-10 09:53:28.06	345.45	9.04	-31.0	-35.2	10.0	6.30e-03	0	42	0	1275068416	23	5820
2026-01-10 09:53:29.06	345.42	8.96	-31.1	-35.4	9.9	7.75e-03	0	42	0	1276116992	23	5905
2026-01-10 09:53:30.06	345.38	8.88	-31.0	-35.1	10.1	7.37e-03	0	42	0	1278214144	23	5785
2026-01-10 09:53:31.06	345.35	8.79	-31.0	-35.2	10.0	6.41e-03	0	42	0	1280311296	23	5823
2026-01-10 09:53:32.07	345.32	8.71	-31.1	-35.3	9.9	8.30e-03	0	42	0	1282408448	23	5887
