passes_logs/2026/01/10/R2M6_AANII_01/R2M6_AANII_01__20260110_024928_SUOMI_NPP_rec.log

#Pass ID: 20260110_024928_SUOMI NPP
#Satellite: SUOMI NPP
#Configuration: NPP
#almurnet v.1.7.20240730
#Start time: 2026-01-10 02:49:29

#Version: 2.2.20231116
#Station: R2M6_AANII_01
#Location: 30.233357 lon 59.946436 lat
#TLE: 1 37849U 11061A   26008.83076692  .00000095  00000+0  66074-4 0  9997
#TLE: 2 37849  98.7806 310.9327 0002533  74.3004 285.8451 14.19523607735834

#Time	Az	El	Level	Level2	SNR	BER	BlckErr	Temp	State	Recorded	gain1	gain2
2026-01-10 02:49:29.67	8.81	7.07	-32.5	-40.1	4.0	1.46e+00	0	39	0	0	26	8583
2026-01-10 02:49:30.66	8.70	7.13	-32.4	-39.2	4.3	1.39e+00	0	39	104	0	25	7863
2026-01-10 02:49:31.67	8.59	7.18	-32.4	-39.6	5.0	5.58e-01	0	39	0	0	25	8258
2026-01-10 02:49:32.67	8.48	7.24	-32.3	-38.6	4.4	1.37e+00	0	39	104	0	25	7505
2026-01-10 02:49:33.68	8.37	7.30	-32.3	-38.8	5.4	5.26e-01	0	39	0	0	25	7617
2026-01-10 02:49:34.68	8.26	7.36	-32.5	-39.9	4.9	5.72e-01	0	39	0	2097152	25	8447
2026-01-10 02:49:35.67	8.15	7.41	-32.4	-39.5	5.0	7.07e-01	0	39	0	3145728	25	8144
2026-01-10 02:49:36.68	8.04	7.47	-32.6	-40.4	4.7	7.84e-01	0	39	0	5242880	25	8844
2026-01-10 02:49:37.68	7.92	7.53	-32.5	-39.9	4.8	8.07e-01	0	39	0	7340032	25	8451
2026-01-10 02:49:38.68	7.81	7.58	-32.4	-38.8	5.5	5.95e-01	0	40	0	9437184	25	7565
2026-01-10 02:49:39.69	7.69	7.64	-32.2	-37.7	6.2	3.26e-01	0	40	0	10485760	25	6805
2026-01-10 02:49:40.68	7.58	7.70	-32.3	-37.6	6.7	2.03e-01	0	39	0	12582912	25	6596
2026-01-10 02:49:41.68	7.47	7.75	-32.2	-37.1	6.8	1.82e-01	0	39	0	14680064	25	6344
2026-01-10 02:49:42.68	7.35	7.81	-32.3	-38.0	6.2	2.77e-01	0	40	0	16777216	25	6884
2026-01-10 02:49:43.67	7.24	7.87	-32.3	-37.8	6.3	2.86e-01	0	40	0	18874368	25	6767
2026-01-10 02:49:44.68	7.12	7.93	-32.1	-36.9	6.8	1.59e-01	0	40	0	19922944	25	6278
2026-01-10 02:49:45.68	7.00	7.98	-32.0	-36.5	7.2	1.64e-01	0	39	0	22020096	25	6021
2026-01-10 02:49:46.68	6.89	8.04	-32.1	-37.0	6.9	1.16e-01	0	40	0	24117248	25	6280
2026-01-10 02:49:47.69	6.77	8.10	-32.3	-38.0	6.1	1.79e-01	0	40	0	26214400	25	6891
2026-01-10 02:49:48.68	6.65	8.15	-32.2	-37.0	7.0	2.07e-01	0	40	0	28311552	25	6244
2026-01-10 02:49:49.69	6.53	8.21	-32.2	-37.3	6.7	1.89e-01	0	40	0	29360128	25	6456
2026-01-10 02:49:50.68	6.41	8.27	-32.1	-36.9	6.9	1.88e-01	0	40	0	31457280	25	6262
2026-01-10 02:49:51.69	6.29	8.33	-32.0	-36.2	7.4	1.24e-01	0	40	0	33554432	25	5837
2026-01-10 02:49:52.69	6.17	8.38	-31.7	-35.3	8.5	5.96e-02	0	40	0	35651584	24	5470
2026-01-10 02:49:53.69	6.05	8.44	-31.6	-34.8	9.0	2.58e-02	0	40	0	37748736	24	5210
2026-01-10 02:49:54.69	5.93	8.50	-31.3	-33.8	9.9	1.69e-02	0	40	0	38797312	24	4786
2026-01-10 02:49:55.69	5.81	8.55	-31.1	-33.6	10.4	8.56e-03	0	40	0	40894464	23	4795
2026-01-10 02:49:56.68	5.69	8.61	-30.9	-32.9	10.8	2.31e-03	0	40	0	42991616	23	4554
2026-01-10 02:49:57.69	5.57	8.67	-30.9	-32.9	10.8	2.92e-03	0	40	0	45088768	23	4548
2026-01-10 02:49:58.70	5.44	8.73	-31.0	-33.2	10.6	2.57e-03	0	40	0	46137344	23	4641
2026-01-10 02:49:59.70	5.32	8.78	-31.1	-33.5	10.3	6.98e-03	0	40	0	48234496	23	4765
2026-01-10 02:50:00.70	5.20	8.84	-30.9	-33.1	10.7	3.46e-03	0	40	0	50331648	23	4603
2026-01-10 02:50:01.70	5.07	8.90	-30.9	-33.1	10.6	3.30e-03	0	40	0	52428800	23	4612
2026-01-10 02:50:02.70	4.95	8.96	-31.0	-33.4	10.5	3.06e-03	0	40	0	54525952	23	4749
2026-01-10 02:50:03.70	4.82	9.01	-31.0	-33.4	10.5	4.02e-03	0	40	0	55574528	23	4731
2026-01-10 02:50:04.70	4.70	9.07	-31.0	-33.2	10.5	4.57e-03	0	40	0	57671680	23	4676
2026-01-10 02:50:05.70	4.57	9.13	-31.0	-33.4	10.4	4.24e-03	0	40	0	59768832	23	4739
2026-01-10 02:50:06.70	4.44	9.18	-31.2	-33.8	10.2	6.10e-03	0	40	0	61865984	23	4875
2026-01-10 02:50:07.70	4.32	9.24	-31.2	-33.9	10.1	5.84e-03	0	40	0	63963136	23	4929
2026-01-10 02:50:08.71	4.19	9.30	-31.3	-34.3	9.9	7.15e-03	0	40	0	65011712	23	5066
2026-01-10 02:50:09.71	4.06	9.36	-31.4	-34.4	9.9	8.82e-03	0	40	0	67108864	23	5092
2026-01-10 02:50:10.71	3.93	9.41	-31.3	-34.3	10.0	7.61e-03	0	40	0	69206016	23	5050
2026-01-10 02:50:11.72	3.80	9.47	-31.3	-34.0	10.3	5.12e-03	0	40	0	71303168	23	4925
2026-01-10 02:50:12.71	3.67	9.53	-31.2	-33.9	10.2	6.49e-03	0	40	0	73400320	23	4930
2026-01-10 02:50:13.71	3.54	9.59	-31.2	-33.8	10.2	1.14e-02	0	40	0	74448896	23	4881
2026-01-10 02:50:14.72	3.41	9.64	-31.3	-34.1	9.9	7.66e-03	0	40	0	76546048	23	5012
2026-01-10 02:50:15.72	3.28	9.70	-31.2	-34.1	10.0	1.02e-02	0	40	0	78643200	23	4987
2026-01-10 02:50:16.73	3.14	9.76	-30.8	-32.7	11.0	7.10e-03	0	40	0	80740352	23	4458
2026-01-10 02:50:17.73	3.01	9.81	-31.0	-33.3	10.6	3.40e-03	0	40	0	82837504	23	4683
2026-01-10 02:50:18.73	2.88	9.87	-30.9	-33.0	10.7	2.83e-03	0	41	0	83886080	23	4573
2026-01-10 02:50:19.73	2.74	9.93	-31.2	-33.8	10.1	2.77e-03	0	40	0	85983232	23	4901
2026-01-10 02:50:20.74	2.61	9.99	-31.0	-33.3	10.5	4.63e-03	0	40	0	88080384	23	4697
2026-01-10 02:50:21.74	2.47	10.04	-30.9	-32.9	10.9	3.12e-03	0	41	0	90177536	23	4529
2026-01-10 02:50:22.74	2.34	10.10	-30.7	-32.9	11.2	1.58e-03	0	41	0	91226112	22	4624
2026-01-10 02:50:23.75	2.20	10.16	-30.9	-33.4	10.8	1.31e-03	0	41	0	93323264	22	4799
2026-01-10 02:50:24.75	2.06	10.22	-30.8	-33.0	11.1	1.59e-03	0	41	0	95420416	22	4672
2026-01-10 02:50:25.75	1.93	10.27	-31.0	-33.8	10.6	3.29e-03	0	40	0	97517568	22	4966
2026-01-10 02:50:26.76	1.79	10.33	-31.2	-34.5	10.2	5.00e-03	0	41	0	99614720	22	5236
2026-01-10 02:50:27.77	1.65	10.39	-31.0	-33.9	10.5	4.73e-03	0	41	0	100663296	22	5000
2026-01-10 02:50:28.78	1.51	10.44	-30.9	-33.5	10.7	3.81e-03	0	40	0	102760448	22	4853
2026-01-10 02:50:29.78	1.37	10.50	-30.9	-33.5	10.8	2.68e-03	0	40	0	104857600	22	4854
2026-01-10 02:50:30.78	1.23	10.56	-30.9	-33.5	10.8	2.85e-03	0	40	0	106954752	22	4850
2026-01-10 02:50:31.79	1.09	10.62	-31.1	-34.2	10.3	4.38e-03	0	41	0	109051904	22	5107
2026-01-10 02:50:32.79	0.95	10.67	-31.1	-34.2	10.2	5.72e-03	0	41	0	110100480	22	5146
2026-01-10 02:50:33.79	0.81	10.73	-31.4	-35.0	9.8	6.32e-03	0	41	0	112197632	22	5439
2026-01-10 02:50:34.80	0.66	10.79	-31.2	-34.3	10.3	6.86e-03	0	41	0	114294784	22	5150
2026-01-10 02:50:35.80	0.52	10.84	-31.1	-33.9	10.6	4.49e-03	0	41	0	116391936	22	4978
2026-01-10 02:50:36.80	0.38	10.90	-30.8	-33.1	11.3	1.89e-03	0	41	0	118489088	22	4654
2026-01-10 02:50:37.80	0.23	10.96	-30.7	-32.7	11.5	7.43e-04	0	40	0	119537664	22	4533
2026-01-10 02:50:38.80	0.09	11.01	-30.7	-32.7	11.4	7.07e-04	0	41	0	121634816	22	4549
2026-01-10 02:50:39.80	359.95	11.07	-30.9	-33.2	11.1	7.89e-04	0	41	0	123731968	22	4726
2026-01-10 02:50:40.80	359.80	11.12	-30.8	-32.9	11.4	1.33e-03	0	41	0	125829120	22	4612
2026-01-10 02:50:41.80	359.66	11.18	-31.0	-33.4	11.2	1.52e-03	0	41	0	127926272	22	4781
2026-01-10 02:50:42.80	359.51	11.24	-31.0	-33.5	11.0	1.61e-03	0	41	0	128974848	22	4834
2026-01-10 02:50:43.80	359.36	11.29	-31.1	-33.9	10.7	2.07e-03	0	41	0	131072000	22	4973
2026-01-10 02:50:44.80	359.21	11.35	-31.3	-34.4	10.6	2.44e-03	0	41	0	133169152	22	5166
2026-01-10 02:50:45.80	359.07	11.40	-31.2	-34.4	10.4	3.74e-03	0	41	0	135266304	22	5159
2026-01-10 02:50:46.81	358.92	11.46	-31.3	-34.5	10.4	4.98e-03	0	41	0	136314880	22	5209
2026-01-10 02:50:47.81	358.77	11.52	-31.4	-34.4	10.1	7.18e-03	0	41	0	138412032	23	5064
2026-01-10 02:50:48.81	358.62	11.57	-31.2	-33.7	10.8	4.67e-03	0	41	0	140509184	23	4767
2026-01-10 02:50:49.81	358.47	11.63	-31.2	-33.5	10.8	3.13e-03	0	41	0	142606336	23	4711
2026-01-10 02:50:50.81	358.31	11.68	-31.3	-34.1	10.2	2.55e-03	0	41	0	144703488	23	4972
2026-01-10 02:50:51.81	358.16	11.74	-31.1	-33.5	10.7	3.18e-03	0	41	0	145752064	23	4730
2026-01-10 02:50:52.82	358.01	11.80	-31.1	-33.4	10.8	2.95e-03	0	41	0	147849216	23	4702
2026-01-10 02:50:53.82	357.86	11.85	-31.2	-33.8	10.4	2.44e-03	0	41	0	149946368	23	4843
2026-01-10 02:50:54.81	357.70	11.91	-31.3	-33.9	10.5	5.02e-03	0	41	0	152043520	23	4879
2026-01-10 02:50:55.81	357.55	11.96	-31.4	-34.3	10.2	5.11e-03	0	41	0	154140672	23	5028
2026-01-10 02:50:56.81	357.40	12.02	-31.6	-35.1	9.6	9.02e-03	0	41	0	155189248	23	5365
2026-01-10 02:50:57.80	357.24	12.07	-31.6	-34.7	10.0	9.16e-03	0	41	0	157286400	23	5176
2026-01-10 02:50:58.80	357.09	12.13	-31.2	-33.7	10.7	3.33e-03	0	41	0	159383552	23	4792
2026-01-10 02:50:59.81	356.93	12.18	-31.1	-33.4	10.8	2.59e-03	0	41	0	161480704	23	4666
2026-01-10 02:51:00.80	356.77	12.24	-31.2	-33.6	10.8	2.42e-03	0	41	0	163577856	23	4739
2026-01-10 02:51:01.81	356.61	12.29	-31.0	-33.1	11.0	2.25e-03	0	41	0	164626432	23	4591
2026-01-10 02:51:02.82	356.45	12.35	-31.3	-34.0	10.6	2.58e-03	0	41	0	166723584	23	4889
2026-01-10 02:51:03.81	356.30	12.40	-31.2	-33.8	10.6	3.55e-03	0	41	0	168820736	23	4815
2026-01-10 02:51:04.81	356.14	12.46	-31.2	-33.6	10.7	3.01e-03	0	41	0	170917888	23	4767
2026-01-10 02:51:05.81	355.98	12.51	-31.2	-33.7	10.6	3.48e-03	0	41	0	171966464	23	4811
2026-01-10 02:51:06.81	355.82	12.57	-31.2	-33.6	10.7	3.49e-03	0	41	0	174063616	23	4763
2026-01-10 02:51:07.81	355.66	12.62	-31.1	-33.3	10.9	2.26e-03	0	41	0	176160768	23	4657
2026-01-10 02:51:08.82	355.49	12.67	-31.0	-33.0	11.0	2.48e-03	0	41	0	178257920	23	4533
2026-01-10 02:51:09.83	355.33	12.73	-31.1	-33.5	10.7	2.46e-03	0	41	0	180355072	23	4721
2026-01-10 02:51:10.82	355.17	12.78	-31.1	-33.4	10.8	3.19e-03	0	41	0	181403648	23	4686
2026-01-10 02:51:11.82	355.00	12.84	-31.1	-33.3	10.8	2.76e-03	0	41	0	183500800	23	4653
2026-01-10 02:51:12.82	354.84	12.89	-31.0	-33.2	10.9	2.07e-03	0	41	0	185597952	23	4636
2026-01-10 02:51:13.82	354.67	12.94	-31.1	-33.4	10.8	2.20e-03	0	41	0	187695104	23	4685
2026-01-10 02:51:14.82	354.51	13.00	-31.1	-33.3	10.9	2.30e-03	0	41	0	189792256	23	4647
2026-01-10 02:51:15.82	354.34	13.05	-31.0	-33.1	11.0	2.43e-03	0	41	0	190840832	23	4595
2026-01-10 02:51:16.83	354.17	13.10	-31.1	-33.2	11.1	1.61e-03	0	41	0	192937984	23	4619
2026-01-10 02:51:17.83	354.01	13.16	-30.9	-32.7	11.4	1.42e-03	0	41	0	195035136	23	4438
2026-01-10 02:51:18.83	353.84	13.21	-30.7	-32.7	11.7	6.13e-04	0	41	0	197132288	22	4500
2026-01-10 02:51:19.83	353.67	13.26	-30.6	-32.5	11.8	4.08e-04	0	41	0	199229440	22	4449
2026-01-10 02:51:20.84	353.50	13.32	-30.6	-32.2	11.9	3.69e-04	0	41	0	200278016	22	4371
2026-01-10 02:51:21.85	353.33	13.37	-30.6	-32.3	11.9	3.17e-04	0	41	0	202375168	22	4402
2026-01-10 02:51:22.85	353.16	13.42	-30.9	-33.4	11.1	1.21e-03	0	41	0	204472320	22	4756
2026-01-10 02:51:23.85	352.99	13.47	-30.7	-32.7	11.7	1.02e-03	0	41	0	206569472	22	4509
2026-01-10 02:51:24.86	352.81	13.53	-30.8	-32.8	11.6	4.43e-04	0	41	0	208666624	22	4566
2026-01-10 02:51:25.86	352.64	13.58	-30.8	-32.8	11.5	8.26e-04	0	41	0	209715200	22	4561
2026-01-10 02:51:26.86	352.47	13.63	-30.6	-32.4	11.9	5.68e-04	0	41	0	211812352	22	4421
2026-01-10 02:51:27.86	352.29	13.68	-30.6	-32.4	11.9	9.87e-04	0	41	0	213909504	22	4423
2026-01-10 02:51:28.86	352.12	13.73	-30.6	-32.5	11.8	5.42e-04	0	41	0	216006656	22	4439
2026-01-10 02:51:29.86	351.95	13.79	-30.4	-31.8	12.2	2.58e-04	0	41	0	217055232	22	4234
2026-01-10 02:51:30.86	351.77	13.84	-30.3	-31.5	12.5	1.46e-04	0	41	0	219152384	22	4128
2026-01-10 02:51:31.87	351.59	13.89	-30.2	-31.7	12.7	1.14e-04	0	41	0	221249536	21	4281
2026-01-10 02:51:32.87	351.42	13.94	-30.5	-32.6	12.0	2.79e-04	0	41	0	223346688	21	4593
2026-01-10 02:51:33.87	351.24	13.99	-30.4	-32.3	12.3	2.38e-04	0	41	0	225443840	21	4471
2026-01-10 02:51:34.87	351.06	14.04	-30.7	-33.0	11.9	2.55e-04	0	41	0	226492416	21	4709
2026-01-10 02:51:35.88	350.88	14.09	-30.5	-32.4	12.4	2.09e-04	0	41	0	228589568	21	4494
2026-01-10 02:51:36.88	350.70	14.14	-30.3	-32.0	12.5	7.55e-05	0	41	0	230686720	21	4370
2026-01-10 02:51:37.88	350.52	14.19	-30.4	-32.1	12.6	6.17e-05	0	41	0	232783872	21	4371
2026-01-10 02:51:38.88	350.34	14.24	-30.0	-31.2	13.2	6.17e-05	0	41	0	234881024	21	4094
2026-01-10 02:51:39.88	350.16	14.29	-30.0	-31.2	13.1	3.12e-05	0	41	0	235929600	21	4098
2026-01-10 02:51:40.89	349.98	14.34	-29.9	-31.0	13.3	3.58e-05	0	41	0	238026752	21	4051
2026-01-10 02:51:41.89	349.79	14.39	-30.2	-31.6	12.9	2.89e-05	0	41	0	240123904	21	4223
2026-01-10 02:51:42.89	349.61	14.44	-30.4	-32.2	12.5	9.53e-05	0	41	0	242221056	21	4426
2026-01-10 02:51:43.90	349.43	14.49	-30.5	-32.4	12.3	1.20e-04	0	41	0	244318208	21	4507
2026-01-10 02:51:44.90	349.24	14.54	-30.5	-32.6	12.1	1.78e-04	0	41	0	245366784	21	4584
2026-01-10 02:51:45.90	349.06	14.59	-30.5	-32.5	12.2	2.97e-04	0	41	0	247463936	21	4538
2026-01-10 02:51:46.90	348.87	14.64	-30.5	-32.5	12.2	1.96e-04	0	41	0	249561088	21	4541
2026-01-10 02:51:47.89	348.69	14.68	-30.3	-32.0	12.5	1.27e-04	0	41	0	251658240	21	4369
2026-01-10 02:51:48.90	348.50	14.73	-30.5	-32.6	12.2	1.81e-04	0	41	0	253755392	21	4555
2026-01-10 02:51:49.90	348.31	14.78	-30.3	-32.0	12.5	1.17e-04	0	41	0	254803968	21	4387
2026-01-10 02:51:50.90	348.13	14.83	-30.2	-31.8	12.7	8.39e-05	0	41	0	256901120	21	4302
2026-01-10 02:51:51.91	347.94	14.87	-30.1	-31.5	12.9	6.94e-05	0	41	0	258998272	21	4203
2026-01-10 02:51:52.91	347.75	14.92	-30.3	-32.0	12.6	9.38e-05	0	41	0	261095424	21	4377
2026-01-10 02:51:53.92	347.56	14.97	-30.1	-31.5	12.9	7.40e-05	0	41	0	262144000	21	4199
2026-01-10 02:51:54.93	347.36	15.02	-30.0	-31.1	13.2	3.66e-05	0	41	0	264241152	21	4078
2026-01-10 02:51:55.92	347.17	15.06	-29.9	-30.7	13.5	1.29e-05	0	41	0	266338304	21	3948
2026-01-10 02:51:56.93	346.98	15.11	-29.8	-30.9	13.7	6.10e-06	0	41	0	268435456	20	4091
2026-01-10 02:51:57.93	346.79	15.15	-29.6	-30.5	13.9	1.50e-06	0	42	0	270532608	20	3975
2026-01-10 02:51:58.93	346.60	15.20	-29.5	-30.3	14.0	3.00e-06	0	41	0	271581184	20	3939
2026-01-10 02:51:59.93	346.40	15.24	-29.8	-31.0	13.7	5.30e-06	0	41	0	273678336	20	4121
2026-01-10 02:52:00.94	346.21	15.29	-30.0	-31.4	13.4	9.10e-06	0	41	0	275775488	20	4253
2026-01-10 02:52:01.93	346.02	15.33	-29.8	-31.1	13.6	9.10e-06	0	41	0	277872640	20	4147
2026-01-10 02:52:02.93	345.82	15.38	-29.9	-31.3	13.4	1.22e-05	0	41	0	279969792	20	4233
2026-01-10 02:52:03.93	345.62	15.42	-30.0	-31.6	13.2	2.59e-05	0	41	0	281018368	20	4324
2026-01-10 02:52:04.93	345.43	15.47	-29.9	-31.3	13.4	2.44e-05	0	41	0	283115520	20	4219
2026-01-10 02:52:05.94	345.23	15.51	-29.9	-31.3	13.4	2.44e-05	0	41	0	285212672	20	4229
2026-01-10 02:52:06.94	345.03	15.56	-29.9	-31.3	13.4	1.98e-05	0	41	0	287309824	20	4226
2026-01-10 02:52:07.95	344.83	15.60	-30.2	-32.2	12.8	2.97e-05	0	42	0	289406976	20	4501
2026-01-10 02:52:08.95	344.63	15.64	-30.2	-32.1	12.8	4.19e-05	0	41	0	290455552	20	4491
2026-01-10 02:52:09.95	344.44	15.69	-30.4	-32.7	12.4	1.09e-04	0	41	0	292552704	20	4693
2026-01-10 02:52:10.96	344.23	15.73	-30.6	-32.7	12.2	2.17e-04	0	41	0	294649856	21	4589
2026-01-10 02:52:11.96	344.03	15.77	-30.6	-32.8	12.0	2.33e-04	0	41	0	296747008	21	4637
2026-01-10 02:52:12.96	343.83	15.81	-30.4	-32.1	12.5	1.81e-04	0	41	0	298844160	21	4377
2026-01-10 02:52:13.96	343.63	15.85	-30.1	-31.4	13.0	4.95e-05	0	41	0	299892736	21	4151
2026-01-10 02:52:14.97	343.43	15.90	-29.9	-30.6	13.5	1.44e-05	0	41	0	301989888	21	3934
2026-01-10 02:52:15.97	343.22	15.94	-29.7	-30.8	13.8	6.80e-06	0	41	0	304087040	20	4057
2026-01-10 02:52:16.97	343.02	15.98	-29.8	-30.8	13.9	6.10e-06	0	41	0	306184192	20	4063
2026-01-10 02:52:17.97	342.82	16.02	-29.6	-30.4	14.2	3.00e-06	0	41	0	307232768	20	3945
2026-01-10 02:52:18.96	342.62	16.06	-29.7	-30.6	14.1	1.50e-06	0	41	0	309329920	20	3978
2026-01-10 02:52:19.96	342.41	16.10	-29.7	-30.7	14.0	7.00e-07	0	41	0	311427072	20	4024
2026-01-10 02:52:20.96	342.21	16.14	-30.0	-31.4	13.6	1.06e-05	0	42	0	313524224	20	4221
2026-01-10 02:52:21.96	342.00	16.18	-29.8	-30.9	13.8	6.80e-06	0	41	0	315621376	20	4086
2026-01-10 02:52:22.96	341.79	16.22	-29.7	-30.6	14.1	4.50e-06	0	41	0	316669952	20	3978
2026-01-10 02:52:23.96	341.59	16.26	-29.5	-30.0	14.5	7.00e-07	0	41	0	318767104	20	3813
2026-01-10 02:52:24.97	341.38	16.29	-29.6	-30.4	14.3	7.00e-07	0	42	0	320864256	20	3913
2026-01-10 02:52:25.97	341.17	16.33	-29.5	-29.9	14.5	0.00e+00	0	41	0	322961408	20	3803
2026-01-10 02:52:26.97	340.96	16.37	-29.7	-30.6	14.0	2.20e-06	0	41	0	325058560	20	3995
2026-01-10 02:52:27.98	340.75	16.41	-29.9	-31.0	13.9	3.80e-06	0	41	0	326107136	20	4093
2026-01-10 02:52:28.98	340.54	16.44	-30.2	-31.9	13.5	6.80e-06	0	41	0	328204288	20	4352
2026-01-10 02:52:29.98	340.33	16.48	-30.2	-31.8	13.4	1.37e-05	0	41	0	330301440	20	4356
2026-01-10 02:52:30.98	340.12	16.52	-30.4	-31.8	13.1	5.56e-05	0	41	0	332398592	21	4256
2026-01-10 02:52:31.98	339.91	16.55	-30.6	-32.5	12.7	4.57e-05	0	41	0	334495744	21	4476
2026-01-10 02:52:32.99	339.69	16.59	-30.6	-32.3	12.6	9.00e-05	0	41	0	335544320	21	4411
2026-01-10 02:52:33.98	339.48	16.62	-30.6	-32.5	12.8	6.48e-05	0	41	0	337641472	21	4471
2026-01-10 02:52:34.98	339.27	16.66	-30.4	-31.7	13.4	2.13e-05	0	42	0	339738624	21	4199
2026-01-10 02:52:35.98	339.06	16.69	-30.1	-30.9	13.8	7.60e-06	0	42	0	341835776	21	3967
2026-01-10 02:52:36.98	338.84	16.73	-29.8	-30.3	14.0	6.10e-06	0	41	0	343932928	21	3818
2026-01-10 02:52:37.98	338.63	16.76	-30.2	-31.4	13.4	4.50e-06	0	41	0	344981504	21	4118
2026-01-10 02:52:38.98	338.42	16.80	-30.2	-31.3	13.5	1.06e-05	0	42	0	347078656	21	4080
2026-01-10 02:52:39.98	338.20	16.83	-29.6	-30.3	14.5	3.80e-06	0	41	0	349175808	20	3894
2026-01-10 02:52:40.98	337.98	16.86	-29.6	-30.2	14.6	1.50e-06	0	42	0	351272960	20	3845
2026-01-10 02:52:41.98	337.77	16.89	-29.2	-29.7	15.2	7.00e-07	0	42	0	352321536	19	3825
2026-01-10 02:52:42.98	337.55	16.93	-29.0	-29.3	15.3	0.00e+00	0	42	0	354418688	19	3727
2026-01-10 02:52:43.99	337.33	16.96	-29.3	-30.1	14.9	0.00e+00	0	41	0	356515840	19	3921
2026-01-10 02:52:45.00	337.11	16.99	-29.2	-29.6	15.1	0.00e+00	0	41	0	358612992	19	3808
2026-01-10 02:52:46.00	336.89	17.02	-29.1	-29.6	15.1	0.00e+00	0	42	0	360710144	19	3789
2026-01-10 02:52:47.00	336.68	17.05	-29.3	-29.8	15.1	0.00e+00	0	41	0	361758720	19	3848
2026-01-10 02:52:48.00	336.46	17.08	-29.5	-30.4	14.8	0.00e+00	0	42	0	363855872	19	3997
2026-01-10 02:52:49.01	336.24	17.11	-29.4	-30.2	14.9	0.00e+00	0	42	0	365953024	19	3936
2026-01-10 02:52:50.01	336.02	17.14	-29.6	-30.6	14.7	0.00e+00	0	41	0	368050176	19	4042
2026-01-10 02:52:51.02	335.79	17.17	-29.4	-30.3	14.9	0.00e+00	0	41	0	370147328	19	3965
2026-01-10 02:52:52.02	335.57	17.20	-29.4	-30.2	14.9	0.00e+00	0	41	0	371195904	19	3946
2026-01-10 02:52:53.03	335.35	17.23	-29.3	-29.9	15.1	0.00e+00	0	41	0	373293056	19	3871
2026-01-10 02:52:54.03	335.13	17.25	-29.7	-30.9	14.5	0.00e+00	0	41	0	375390208	19	4148
2026-01-10 02:52:55.04	334.90	17.28	-29.7	-30.9	14.4	1.50e-06	0	41	0	377487360	19	4134
2026-01-10 02:52:56.03	334.68	17.31	-29.8	-31.2	14.2	7.00e-07	0	41	0	379584512	19	4234
2026-01-10 02:52:57.04	334.46	17.34	-29.9	-31.5	14.0	1.50e-06	0	41	0	380633088	19	4342
2026-01-10 02:52:58.04	334.24	17.36	-30.0	-31.2	13.8	3.00e-06	0	41	0	382730240	20	4162
2026-01-10 02:52:59.04	334.01	17.39	-30.2	-31.8	13.3	1.06e-05	0	41	0	384827392	20	4354
2026-01-10 02:53:00.04	333.79	17.41	-29.8	-31.0	13.7	7.60e-06	0	41	0	386924544	20	4109
2026-01-10 02:53:01.04	333.56	17.44	-29.8	-30.9	13.7	2.20e-06	0	42	0	389021696	20	4087
2026-01-10 02:53:02.04	333.34	17.46	-29.7	-30.6	14.0	2.20e-06	0	42	0	390070272	20	3988
2026-01-10 02:53:03.04	333.11	17.49	-29.9	-31.0	13.7	4.50e-06	0	42	0	392167424	20	4124
2026-01-10 02:53:04.05	332.89	17.51	-29.9	-31.1	13.6	6.80e-06	0	42	0	394264576	20	4136
2026-01-10 02:53:05.05	332.66	17.53	-30.0	-31.4	13.4	7.60e-06	0	42	0	396361728	20	4249
2026-01-10 02:53:06.06	332.43	17.55	-30.1	-31.8	13.2	1.83e-05	0	41	0	397410304	20	4377
2026-01-10 02:53:07.06	332.21	17.58	-30.3	-32.2	13.1	2.67e-05	0	41	0	399507456	20	4488
2026-01-10 02:53:08.06	331.98	17.60	-30.3	-31.7	13.0	2.05e-05	0	42	0	401604608	21	4235
2026-01-10 02:53:09.06	331.75	17.62	-30.2	-31.5	13.1	2.28e-05	0	41	0	403701760	21	4174
2026-01-10 02:53:10.07	331.52	17.64	-30.2	-31.4	13.2	2.13e-05	0	41	0	405798912	21	4131
2026-01-10 02:53:11.06	331.30	17.66	-30.0	-31.0	13.4	1.75e-05	0	41	0	406847488	21	4014
2026-01-10 02:53:12.06	331.07	17.68	-29.9	-31.2	13.6	1.75e-05	0	41	0	408944640	20	4158
2026-01-10 02:53:13.06	330.84	17.70	-29.9	-31.2	13.6	1.67e-05	0	42	0	411041792	20	4169
2026-01-10 02:53:14.06	330.61	17.72	-30.0	-31.4	13.5	8.30e-06	0	42	0	413138944	20	4214
2026-01-10 02:53:15.06	330.38	17.74	-29.9	-31.1	13.6	1.29e-05	0	41	0	415236096	20	4155
2026-01-10 02:53:16.06	330.15	17.76	-29.7	-30.5	14.0	1.50e-06	0	41	0	416284672	20	3974
2026-01-10 02:53:17.06	329.93	17.77	-29.7	-30.7	13.9	7.00e-07	0	42	0	418381824	20	4026
2026-01-10 02:53:18.06	329.70	17.79	-29.8	-30.9	13.7	6.10e-06	0	41	0	420478976	20	4102
2026-01-10 02:53:19.06	329.47	17.81	-29.8	-31.0	13.6	7.60e-06	0	42	0	422576128	20	4109
2026-01-10 02:53:20.06	329.24	17.82	-29.5	-30.2	14.1	2.20e-06	0	42	0	424673280	20	3894
2026-01-10 02:53:21.07	329.00	17.84	-29.4	-29.9	14.3	7.00e-07	0	42	0	425721856	20	3813
2026-01-10 02:53:22.07	328.77	17.86	-29.4	-29.8	14.4	1.50e-06	0	42	0	427819008	20	3791
2026-01-10 02:53:23.06	328.54	17.87	-29.4	-29.9	14.3	1.50e-06	0	41	0	429916160	20	3813
2026-01-10 02:53:24.07	328.31	17.88	-29.5	-30.1	14.2	0.00e+00	0	41	0	432013312	20	3878
2026-01-10 02:53:25.07	328.08	17.90	-29.8	-30.9	13.7	2.20e-06	0	41	0	433061888	20	4089
2026-01-10 02:53:26.07	327.85	17.91	-30.0	-31.6	13.2	1.14e-05	0	42	0	435159040	20	4310
2026-01-10 02:53:27.07	327.61	17.93	-30.2	-32.1	12.9	3.73e-05	0	41	0	437256192	20	4483
2026-01-10 02:53:28.07	327.38	17.94	-30.5	-32.6	12.2	1.12e-04	0	41	0	439353344	21	4572
2026-01-10 02:53:29.07	327.15	17.95	-30.6	-33.0	11.9	3.64e-04	0	42	0	441450496	21	4699
2026-01-10 02:53:30.07	326.92	17.96	-30.7	-33.2	11.7	4.97e-04	0	41	0	442499072	21	4778
2026-01-10 02:53:31.07	326.69	17.97	-30.7	-33.2	11.8	6.69e-04	0	42	0	444596224	21	4784
2026-01-10 02:53:32.08	326.45	17.98	-30.6	-32.9	11.9	5.00e-04	0	41	0	446693376	21	4673
2026-01-10 02:53:33.08	326.22	17.99	-30.5	-32.6	12.2	2.94e-04	0	41	0	448790528	21	4560
2026-01-10 02:53:34.09	325.98	18.00	-30.6	-32.8	11.9	3.44e-04	0	41	0	450887680	21	4650
2026-01-10 02:53:35.10	325.75	18.01	-30.4	-32.2	12.4	2.17e-04	0	41	0	451936256	21	4449
2026-01-10 02:53:36.09	325.51	18.02	-30.3	-31.9	12.6	7.24e-05	0	42	0	454033408	21	4327
2026-01-10 02:53:37.09	325.28	18.03	-30.3	-31.9	12.6	1.04e-04	0	41	0	456130560	21	4349
2026-01-10 02:53:38.09	325.05	18.04	-30.3	-31.9	12.5	1.21e-04	0	42	0	458227712	21	4355
2026-01-10 02:53:39.10	324.81	18.04	-30.4	-32.3	12.2	1.58e-04	0	41	0	460324864	21	4478
2026-01-10 02:53:40.10	324.58	18.05	-30.3	-31.9	12.5	1.07e-04	0	42	0	461373440	21	4334
2026-01-10 02:53:41.10	324.34	18.06	-30.2	-31.8	12.6	7.17e-05	0	41	0	463470592	21	4307
2026-01-10 02:53:42.10	324.11	18.06	-30.2	-31.6	12.8	4.88e-05	0	41	0	465567744	21	4243
2026-01-10 02:53:43.10	323.88	18.07	-29.9	-30.9	13.3	1.98e-05	0	42	0	467664896	21	4013
2026-01-10 02:53:44.10	323.64	18.07	-29.8	-30.5	13.4	1.29e-05	0	42	0	469762048	21	3920
2026-01-10 02:53:45.09	323.41	18.08	-29.7	-30.9	13.6	1.22e-05	0	41	0	470810624	20	4106
2026-01-10 02:53:46.09	323.17	18.08	-29.6	-30.4	13.9	5.30e-06	0	41	0	472907776	20	3978
2026-01-10 02:53:47.09	322.94	18.08	-29.5	-30.2	14.0	3.00e-06	0	42	0	475004928	20	3924
2026-01-10 02:53:48.10	322.70	18.09	-29.4	-30.1	14.1	3.80e-06	0	42	0	477102080	20	3888
2026-01-10 02:53:49.09	322.47	18.09	-29.4	-30.4	14.3	7.00e-07	0	42	0	478150656	19	4045
2026-01-10 02:53:50.09	322.24	18.09	-29.5	-30.8	14.0	7.00e-07	0	42	0	480247808	19	4172
2026-01-10 02:53:51.10	322.00	18.09	-29.8	-31.5	13.6	3.00e-06	0	42	0	482344960	19	4363
2026-01-10 02:53:52.10	321.77	18.09	-29.8	-31.5	13.5	5.30e-06	0	42	0	484442112	19	4378
2026-01-10 02:53:53.10	321.53	18.09	-30.0	-31.9	13.3	1.90e-05	0	42	0	486539264	19	4515
2026-01-10 02:53:54.10	321.30	18.09	-30.0	-31.7	13.1	1.60e-05	0	42	0	487587840	20	4343
2026-01-10 02:53:55.10	321.06	18.09	-30.1	-31.8	13.0	3.50e-05	0	42	0	489684992	20	4397
2026-01-10 02:53:56.10	320.83	18.09	-30.2	-32.0	12.8	5.41e-05	0	42	0	491782144	20	4473
2026-01-10 02:53:57.10	320.59	18.09	-30.0	-31.7	13.0	5.26e-05	0	42	0	493879296	20	4377
2026-01-10 02:53:58.09	320.36	18.09	-30.3	-32.5	12.6	4.80e-05	0	41	0	495976448	20	4602
2026-01-10 02:53:59.09	320.13	18.08	-30.2	-32.1	13.0	6.48e-05	0	42	0	497025024	20	4474
2026-01-10 02:54:00.09	319.89	18.08	-30.1	-31.7	13.2	2.28e-05	0	42	0	499122176	20	4365
2026-01-10 02:54:01.09	319.66	18.08	-30.4	-32.6	12.5	7.40e-05	0	42	0	501219328	20	4670
2026-01-10 02:54:02.09	319.42	18.07	-30.0	-31.6	13.1	3.89e-05	0	42	0	503316480	20	4326
2026-01-10 02:54:03.09	319.19	18.07	-29.9	-31.4	13.3	2.05e-05	0	42	0	504365056	20	4249
2026-01-10 02:54:04.09	318.95	18.06	-29.8	-31.1	13.5	8.30e-06	0	41	0	506462208	20	4166
2026-01-10 02:54:05.10	318.72	18.06	-30.0	-31.4	13.3	5.30e-06	0	42	0	508559360	20	4263
2026-01-10 02:54:06.10	318.48	18.05	-30.0	-31.7	13.1	2.89e-05	0	42	0	510656512	20	4340
2026-01-10 02:54:07.10	318.25	18.04	-30.3	-32.5	12.5	6.25e-05	0	42	0	512753664	20	4620
2026-01-10 02:54:08.10	318.01	18.04	-30.4	-32.8	12.4	1.01e-04	0	42	0	513802240	20	4716
2026-01-10 02:54:09.10	317.78	18.03	-30.8	-33.3	11.7	1.67e-04	0	41	0	515899392	21	4810
2026-01-10 02:54:10.10	317.55	18.02	-30.7	-33.1	11.9	3.97e-04	0	41	0	517996544	21	4735
2026-01-10 02:54:11.11	317.31	18.01	-30.6	-32.8	12.0	3.58e-04	0	42	0	520093696	21	4644
2026-01-10 02:54:12.12	317.08	18.00	-30.5	-32.6	12.1	3.16e-04	0	42	0	522190848	21	4581
2026-01-10 02:54:13.11	316.85	17.99	-30.3	-32.1	12.4	3.24e-04	0	42	0	523239424	21	4414
2026-01-10 02:54:14.12	316.61	17.98	-30.5	-32.4	12.2	1.84e-04	0	42	0	525336576	21	4514
2026-01-10 02:54:15.12	316.38	17.97	-30.6	-32.7	12.1	9.46e-05	0	41	0	527433728	21	4614
2026-01-10 02:54:16.11	316.15	17.96	-30.6	-32.8	12.0	2.09e-04	0	41	0	529530880	21	4620
2026-01-10 02:54:17.11	315.91	17.95	-30.1	-31.5	12.9	7.70e-05	0	42	0	531628032	21	4197
2026-01-10 02:54:18.11	315.68	17.94	-29.9	-31.0	13.2	1.90e-05	0	42	0	532676608	21	4047
2026-01-10 02:54:19.11	315.45	17.93	-29.6	-30.6	13.8	1.29e-05	0	42	0	534773760	20	4018
2026-01-10 02:54:20.11	315.22	17.91	-29.5	-30.3	13.9	5.30e-06	0	42	0	536870912	20	3941
2026-01-10 02:54:21.11	314.99	17.90	-29.6	-30.7	13.6	7.60e-06	0	42	0	538968064	20	4053
2026-01-10 02:54:22.11	314.75	17.89	-29.6	-30.6	13.7	5.30e-06	0	42	0	540016640	20	4023
2026-01-10 02:54:23.12	314.52	17.87	-29.7	-30.8	13.6	7.60e-06	0	41	0	542113792	20	4093
2026-01-10 02:54:24.12	314.29	17.86	-29.6	-30.6	13.7	9.90e-06	0	42	0	544210944	20	4030
2026-01-10 02:54:25.13	314.06	17.84	-29.7	-30.8	13.5	1.06e-05	0	42	0	546308096	20	4078
2026-01-10 02:54:26.13	313.82	17.82	-29.5	-30.3	14.0	6.10e-06	0	42	0	548405248	20	3932
2026-01-10 02:54:27.13	313.59	17.81	-29.5	-30.7	14.1	7.00e-07	0	42	0	549453824	19	4134
2026-01-10 02:54:28.14	313.36	17.79	-29.4	-30.6	14.1	2.20e-06	0	42	0	551550976	19	4092
2026-01-10 02:54:29.15	313.13	17.77	-29.6	-31.0	13.8	3.00e-06	0	42	0	553648128	19	4237
2026-01-10 02:54:30.14	312.90	17.76	-29.5	-30.7	14.1	2.20e-06	0	42	0	555745280	19	4122
2026-01-10 02:54:31.14	312.67	17.74	-29.4	-30.4	14.2	7.00e-07	0	42	0	557842432	19	4056
2026-01-10 02:54:32.14	312.44	17.72	-29.3	-30.2	14.4	1.50e-06	0	42	0	558891008	19	4003
2026-01-10 02:54:33.14	312.21	17.70	-29.2	-29.8	14.6	1.50e-06	0	42	0	560988160	19	3893
2026-01-10 02:54:34.14	311.99	17.68	-29.2	-29.8	14.6	0.00e+00	0	42	0	563085312	19	3870
2026-01-10 02:54:35.13	311.76	17.66	-29.4	-30.4	14.3	3.00e-06	0	42	0	565182464	19	4046
2026-01-10 02:54:36.14	311.53	17.64	-29.1	-29.6	14.7	2.20e-06	0	42	0	567279616	19	3831
2026-01-10 02:54:37.14	311.30	17.62	-29.0	-29.5	14.8	0.00e+00	0	42	0	568328192	19	3790
2026-01-10 02:54:38.14	311.07	17.60	-29.1	-29.6	14.7	7.00e-07	0	42	0	570425344	19	3821
2026-01-10 02:54:39.14	310.85	17.58	-29.0	-29.5	14.8	0.00e+00	0	42	0	572522496	19	3799
2026-01-10 02:54:40.14	310.62	17.55	-29.4	-30.4	14.3	1.50e-06	0	42	0	574619648	19	4033
2026-01-10 02:54:41.13	310.40	17.53	-29.7	-31.2	13.9	0.00e+00	0	41	0	576716800	19	4259
2026-01-10 02:54:42.14	310.17	17.51	-29.9	-31.2	13.6	1.06e-05	0	42	0	577765376	20	4164
2026-01-10 02:54:43.14	309.94	17.49	-29.7	-30.6	14.0	2.20e-06	0	42	0	579862528	20	3988
2026-01-10 02:54:44.15	309.72	17.46	-29.7	-30.7	13.9	6.80e-06	0	42	0	581959680	20	4016
2026-01-10 02:54:45.16	309.49	17.44	-29.8	-30.9	13.7	8.30e-06	0	42	0	584056832	20	4082
2026-01-10 02:54:46.16	309.26	17.41	-29.6	-30.5	14.0	4.50e-06	0	42	0	585105408	20	3967
2026-01-10 02:54:47.16	309.04	17.39	-29.7	-30.6	13.9	4.50e-06	0	42	0	587202560	20	4000
2026-01-10 02:54:48.16	308.82	17.36	-29.7	-30.8	13.7	3.80e-06	0	42	0	589299712	20	4065
2026-01-10 02:54:49.16	308.59	17.34	-29.8	-31.0	13.6	5.30e-06	0	42	0	591396864	20	4118
2026-01-10 02:54:50.17	308.37	17.31	-29.7	-30.8	13.7	6.10e-06	0	42	0	593494016	20	4058
2026-01-10 02:54:51.17	308.14	17.28	-29.8	-30.8	13.8	3.80e-06	0	41	0	594542592	20	4070
2026-01-10 02:54:52.17	307.92	17.25	-30.0	-31.4	13.4	8.30e-06	0	42	0	596639744	20	4236
2026-01-10 02:54:53.18	307.70	17.23	-29.8	-30.8	13.6	1.75e-05	0	41	0	598736896	20	4075
2026-01-10 02:54:54.18	307.48	17.20	-30.0	-31.6	13.3	6.10e-06	0	41	0	600834048	20	4287
2026-01-10 02:54:55.19	307.25	17.17	-30.1	-31.7	13.2	2.82e-05	0	42	0	602931200	20	4322
2026-01-10 02:54:56.19	307.03	17.14	-30.1	-31.6	13.4	9.10e-06	0	41	0	603979776	20	4292
2026-01-10 02:54:57.19	306.81	17.11	-29.9	-31.3	13.5	9.10e-06	0	42	0	606076928	20	4196
2026-01-10 02:54:58.19	306.59	17.08	-30.1	-31.7	13.4	1.22e-05	0	42	0	608174080	20	4331
2026-01-10 02:54:59.19	306.37	17.05	-30.0	-31.5	13.3	1.83e-05	0	42	0	610271232	20	4283
2026-01-10 02:55:00.19	306.15	17.02	-30.0	-31.5	13.3	2.28e-05	0	42	0	612368384	20	4293
2026-01-10 02:55:01.19	305.94	16.99	-30.1	-31.9	13.0	3.96e-05	0	42	0	613416960	20	4399
2026-01-10 02:55:02.19	305.72	16.96	-30.0	-31.5	13.2	3.50e-05	0	42	0	615514112	20	4270
2026-01-10 02:55:03.19	305.50	16.93	-29.8	-31.1	13.6	1.67e-05	0	42	0	617611264	20	4145
2026-01-10 02:55:04.19	305.28	16.89	-29.8	-31.0	13.6	3.00e-06	0	42	0	619708416	20	4124
2026-01-10 02:55:05.20	305.07	16.86	-29.9	-31.3	13.2	1.29e-05	0	42	0	621805568	20	4244
2026-01-10 02:55:06.19	304.85	16.83	-29.8	-30.9	13.4	2.89e-05	0	42	0	622854144	20	4118
2026-01-10 02:55:07.20	304.63	16.80	-29.9	-31.4	13.2	2.44e-05	0	42	0	624951296	20	4254
2026-01-10 02:55:08.19	304.42	16.76	-29.9	-31.3	13.3	2.67e-05	0	42	0	627048448	20	4234
2026-01-10 02:55:09.20	304.20	16.73	-30.1	-31.7	13.1	2.97e-05	0	42	0	629145600	20	4343
2026-01-10 02:55:10.20	303.99	16.69	-30.0	-31.6	13.1	1.90e-05	0	42	0	630194176	20	4324
2026-01-10 02:55:11.20	303.78	16.66	-29.8	-31.1	13.3	2.28e-05	0	42	0	632291328	20	4186
2026-01-10 02:55:12.20	303.56	16.62	-30.1	-31.8	12.9	4.42e-05	0	42	0	634388480	20	4397
2026-01-10 02:55:13.19	303.35	16.59	-30.1	-31.9	12.9	3.58e-05	0	42	0	636485632	20	4434
2026-01-10 02:55:14.19	303.14	16.55	-30.3	-32.4	12.6	5.49e-05	0	42	0	638582784	20	4607
2026-01-10 02:55:15.20	302.93	16.52	-30.4	-32.7	12.3	1.91e-04	0	42	0	639631360	20	4709
2026-01-10 02:55:16.20	302.72	16.48	-30.3	-32.6	12.3	1.45e-04	0	42	0	641728512	20	4664
2026-01-10 02:55:17.20	302.50	16.44	-30.4	-32.8	12.3	1.45e-04	0	42	0	643825664	20	4719
2026-01-10 02:55:18.20	302.29	16.41	-30.3	-32.6	12.4	1.21e-04	0	42	0	645922816	20	4647
2026-01-10 02:55:19.21	302.08	16.37	-30.3	-32.5	12.5	9.91e-05	0	42	0	648019968	20	4621
2026-01-10 02:55:20.21	301.87	16.33	-30.3	-32.5	12.4	1.09e-04	0	42	0	649068544	20	4631
2026-01-10 02:55:21.21	301.67	16.29	-30.5	-32.5	12.1	2.06e-04	0	42	0	651165696	21	4536
2026-01-10 02:55:22.22	301.46	16.25	-30.4	-32.3	12.3	1.38e-04	0	42	0	653262848	21	4462
2026-01-10 02:55:23.21	301.25	16.22	-30.3	-32.1	12.3	1.94e-04	0	42	0	655360000	21	4411
2026-01-10 02:55:24.22	301.04	16.18	-30.3	-32.0	12.4	1.56e-04	0	42	0	657457152	21	4371
2026-01-10 02:55:25.22	300.83	16.14	-30.2	-31.6	12.6	8.54e-05	0	42	0	658505728	21	4261
2026-01-10 02:55:26.22	300.63	16.10	-30.2	-31.6	12.7	6.33e-05	0	42	0	660602880	21	4231
2026-01-10 02:55:27.21	300.43	16.06	-30.4	-32.2	12.2	1.47e-04	0	42	0	662700032	21	4458
2026-01-10 02:55:28.21	300.22	16.02	-30.3	-32.0	12.4	2.97e-04	0	42	0	664797184	21	4381
2026-01-10 02:55:29.22	300.01	15.98	-30.4	-32.3	12.1	2.40e-04	0	42	0	665845760	21	4475
2026-01-10 02:55:30.22	299.81	15.94	-30.5	-32.5	12.1	2.29e-04	0	42	0	667942912	21	4535
2026-01-10 02:55:31.23	299.61	15.89	-30.6	-32.9	11.7	4.29e-04	0	42	0	670040064	21	4707
2026-01-10 02:55:32.23	299.40	15.85	-30.3	-32.0	12.3	2.38e-04	0	42	0	672137216	21	4387
2026-01-10 02:55:33.23	299.20	15.81	-30.0	-31.3	12.8	1.36e-04	0	42	0	674234368	21	4144
2026-01-10 02:55:34.23	299.00	15.77	-29.6	-30.6	13.5	2.44e-05	0	42	0	675282944	20	4050
2026-01-10 02:55:35.23	298.80	15.73	-29.5	-30.4	13.6	1.67e-05	0	42	0	677380096	20	3978
2026-01-10 02:55:36.22	298.60	15.69	-29.5	-30.3	13.8	3.80e-06	0	42	0	679477248	20	3945
2026-01-10 02:55:37.22	298.40	15.64	-29.5	-30.6	13.9	1.50e-06	0	41	0	681574400	19	4121
2026-01-10 02:55:38.23	298.20	15.60	-29.5	-30.3	14.0	3.00e-06	0	42	0	683671552	20	3930
2026-01-10 02:55:39.23	298.00	15.56	-30.0	-30.9	13.3	9.38e-05	0	42	0	684720128	21	4005
2026-01-10 02:55:40.23	297.80	15.51	-30.1	-31.2	13.1	2.51e-05	0	42	0	686817280	21	4078
2026-01-10 02:55:41.23	297.61	15.47	-30.4	-32.0	12.6	3.81e-05	0	42	0	688914432	21	4347
2026-01-10 02:55:42.23	297.41	15.42	-30.1	-31.2	13.1	5.56e-05	0	42	0	691011584	21	4117
2026-01-10 02:55:43.23	297.21	15.38	-30.5	-32.4	12.3	9.46e-05	0	42	0	693108736	21	4490
2026-01-10 02:55:44.24	297.02	15.33	-30.8	-33.3	11.8	2.55e-04	0	42	0	694157312	21	4797
2026-01-10 02:55:45.25	296.82	15.29	-30.9	-33.0	11.6	7.10e-04	0	42	0	696254464	22	4609
2026-01-10 02:55:46.24	296.63	15.24	-30.9	-33.2	11.5	5.02e-04	0	42	0	698351616	22	4661
2026-01-10 02:55:47.25	296.43	15.20	-30.8	-32.7	11.7	3.97e-04	0	42	0	700448768	22	4523
2026-01-10 02:55:48.25	296.24	15.15	-30.9	-32.9	11.8	1.18e-03	0	42	0	702545920	22	4567
2026-01-10 02:55:49.26	296.04	15.11	-30.5	-31.9	12.3	3.65e-04	0	42	0	703594496	22	4224
2026-01-10 02:55:50.26	295.85	15.06	-30.1	-31.4	12.8	6.33e-05	0	42	0	705691648	21	4196
2026-01-10 02:55:51.27	295.66	15.01	-30.1	-31.3	12.8	5.03e-05	0	42	0	707788800	21	4166
2026-01-10 02:55:52.27	295.47	14.97	-30.1	-31.4	12.8	6.02e-05	0	42	0	709885952	21	4191
2026-01-10 02:55:53.28	295.28	14.92	-30.0	-31.2	12.8	6.56e-05	0	42	0	711983104	21	4149
2026-01-10 02:55:54.28	295.09	14.87	-30.2	-31.8	12.4	5.64e-05	0	42	0	713031680	21	4328
2026-01-10 02:55:55.28	294.90	14.82	-30.3	-32.0	12.4	1.76e-04	0	42	0	715128832	21	4379
2026-01-10 02:55:56.29	294.71	14.78	-30.2	-31.9	12.4	1.33e-04	0	41	0	717225984	21	4344
2026-01-10 02:55:57.28	294.52	14.73	-30.4	-32.3	12.2	2.14e-04	0	42	0	719323136	21	4480
2026-01-10 02:55:58.28	294.33	14.68	-30.3	-32.0	12.4	1.88e-04	0	41	0	720371712	21	4368
2026-01-10 02:55:59.29	294.15	14.63	-30.2	-31.7	12.5	1.47e-04	0	42	0	722468864	21	4296
2026-01-10 02:56:00.29	293.96	14.58	-30.2	-31.6	12.5	1.26e-04	0	42	0	724566016	21	4274
2026-01-10 02:56:01.30	293.77	14.53	-30.1	-31.6	12.6	9.53e-05	0	42	0	726663168	21	4252
2026-01-10 02:56:02.30	293.59	14.49	-29.9	-30.9	13.0	9.00e-05	0	42	0	728760320	21	4054
2026-01-10 02:56:03.30	293.40	14.44	-29.9	-30.9	13.0	4.42e-05	0	42	0	729808896	21	4061
2026-01-10 02:56:04.30	293.22	14.39	-30.0	-31.1	12.9	2.74e-05	0	42	0	731906048	21	4111
2026-01-10 02:56:05.31	293.04	14.34	-30.0	-31.1	12.9	3.50e-05	0	42	0	734003200	21	4116
2026-01-10 02:56:06.31	292.85	14.29	-30.2	-31.7	12.6	7.17e-05	0	42	0	736100352	21	4281
2026-01-10 02:56:07.31	292.67	14.24	-30.0	-31.3	12.8	4.42e-05	0	42	0	738197504	21	4152
2026-01-10 02:56:08.31	292.49	14.19	-30.0	-31.2	12.9	6.86e-05	0	42	0	739246080	21	4127
2026-01-10 02:56:09.31	292.31	14.14	-29.8	-30.6	13.3	3.12e-05	0	42	0	741343232	21	3948
2026-01-10 02:56:10.32	292.13	14.09	-29.8	-31.2	13.2	1.14e-05	0	42	0	743440384	20	4236
2026-01-10 02:56:11.32	291.95	14.04	-29.7	-31.0	13.3	1.22e-05	0	42	0	745537536	20	4157
2026-01-10 02:56:12.33	291.77	13.98	-29.7	-30.9	13.3	1.52e-05	0	42	0	747634688	20	4123
2026-01-10 02:56:13.33	291.59	13.93	-29.8	-31.1	13.2	2.82e-05	0	42	0	748683264	20	4203
2026-01-10 02:56:14.34	291.41	13.88	-30.0	-31.7	12.8	3.12e-05	0	42	0	750780416	20	4395
2026-01-10 02:56:15.34	291.24	13.83	-30.1	-32.0	12.6	6.86e-05	0	42	0	752877568	20	4485
2026-01-10 02:56:16.34	291.06	13.78	-30.2	-32.2	12.5	8.46e-05	0	42	0	754974720	20	4555
2026-01-10 02:56:17.35	290.88	13.73	-30.3	-32.6	12.3	1.57e-04	0	42	0	757071872	20	4670
2026-01-10 02:56:18.34	290.71	13.68	-30.0	-31.8	12.7	1.63e-04	0	42	0	758120448	20	4414
2026-01-10 02:56:19.34	290.54	13.62	-30.0	-31.8	12.7	8.46e-05	0	42	0	760217600	20	4409
2026-01-10 02:56:20.34	290.36	13.57	-30.0	-31.7	12.7	1.14e-04	0	42	0	762314752	20	4408
2026-01-10 02:56:21.34	290.19	13.52	-29.9	-31.6	12.8	5.03e-05	0	42	0	764411904	20	4357
2026-01-10 02:56:22.34	290.02	13.47	-29.8	-31.3	12.9	5.49e-05	0	42	0	765460480	20	4262
2026-01-10 02:56:23.34	289.85	13.42	-29.9	-31.4	12.9	5.41e-05	0	42	0	767557632	20	4317
2026-01-10 02:56:24.33	289.68	13.36	-29.9	-31.5	12.8	9.46e-05	0	42	0	769654784	20	4325
2026-01-10 02:56:25.34	289.51	13.31	-30.0	-31.7	12.7	7.93e-05	0	41	0	771751936	20	4412
2026-01-10 02:56:26.34	289.34	13.26	-30.3	-32.6	12.1	1.46e-04	0	42	0	773849088	20	4706
2026-01-10 02:56:27.35	289.16	13.20	-30.4	-32.9	11.8	2.68e-04	0	42	0	774897664	20	4825
2026-01-10 02:56:28.35	289.00	13.15	-30.7	-33.4	11.2	5.16e-04	0	42	0	776994816	21	4923
2026-01-10 02:56:29.34	288.83	13.10	-30.8	-33.9	10.9	2.07e-03	0	42	0	779091968	21	5104
2026-01-10 02:56:30.34	288.66	13.05	-31.0	-34.2	10.1	5.40e-03	0	42	0	781189120	22	5171
2026-01-10 02:56:31.34	288.50	12.99	-31.3	-35.2	9.4	1.28e-02	0	42	0	783286272	22	5613
2026-01-10 02:56:32.34	288.33	12.94	-31.5	-35.9	8.9	1.53e-02	0	42	0	784334848	22	5967
2026-01-10 02:56:33.34	288.16	12.88	-31.5	-35.2	9.0	2.40e-02	0	42	0	786432000	23	5566
2026-01-10 02:56:34.34	288.00	12.83	-31.4	-35.2	9.0	2.68e-02	0	42	0	788529152	23	5520
2026-01-10 02:56:35.35	287.83	12.78	-31.3	-34.6	9.5	2.16e-02	0	42	0	790626304	23	5240
2026-01-10 02:56:36.34	287.67	12.72	-31.2	-34.3	9.7	1.22e-02	0	42	0	792723456	23	5134
2026-01-10 02:56:37.34	287.51	12.67	-31.3	-34.4	9.6	1.30e-02	0	42	0	793772032	23	5184
2026-01-10 02:56:38.34	287.34	12.61	-31.1	-33.8	10.1	7.30e-03	0	42	0	795869184	23	4913
2026-01-10 02:56:39.35	287.18	12.56	-31.0	-33.5	10.3	7.47e-03	0	42	0	797966336	23	4803
2026-01-10 02:56:40.35	287.02	12.50	-31.1	-33.8	10.0	9.45e-03	0	42	0	800063488	23	4926
2026-01-10 02:56:41.35	286.86	12.45	-31.1	-33.8	10.0	1.06e-02	0	42	0	801112064	23	4928
2026-01-10 02:56:42.35	286.70	12.40	-30.9	-33.3	10.4	5.37e-03	0	42	0	803209216	23	4722
2026-01-10 02:56:43.35	286.54	12.34	-30.7	-33.2	10.8	2.83e-03	0	42	0	805306368	22	4766
2026-01-10 02:56:44.35	286.38	12.29	-30.5	-32.5	11.4	1.28e-03	0	42	0	807403520	22	4503
2026-01-10 02:56:45.36	286.22	12.23	-30.4	-32.0	11.7	6.72e-04	0	42	0	809500672	22	4345
2026-01-10 02:56:46.36	286.06	12.18	-30.5	-32.2	11.6	7.16e-04	0	42	0	810549248	22	4383
2026-01-10 02:56:47.36	285.91	12.12	-30.3	-31.8	11.9	4.66e-04	0	42	0	812646400	22	4267
2026-01-10 02:56:48.37	285.75	12.06	-30.4	-32.0	11.7	5.57e-04	0	42	0	814743552	22	4339
2026-01-10 02:56:49.38	285.59	12.01	-30.5	-32.5	11.3	9.57e-04	0	42	0	816840704	22	4494
2026-01-10 02:56:50.38	285.44	11.95	-30.6	-32.8	11.1	1.25e-03	0	42	0	818937856	22	4625
2026-01-10 02:56:51.38	285.28	11.90	-30.8	-33.4	10.7	2.32e-03	0	42	0	819986432	22	4838
2026-01-10 02:56:52.39	285.13	11.84	-30.8	-33.5	10.7	2.69e-03	0	42	0	822083584	22	4872
2026-01-10 02:56:53.39	284.97	11.79	-31.1	-34.4	10.1	3.96e-03	0	42	0	824180736	22	5219
2026-01-10 02:56:54.39	284.82	11.73	-31.0	-33.9	10.5	4.28e-03	0	42	0	826277888	22	5007
2026-01-10 02:56:55.40	284.66	11.67	-31.0	-33.8	10.6	4.01e-03	0	42	0	828375040	22	4953
2026-01-10 02:56:56.40	284.51	11.62	-31.0	-33.8	10.5	3.19e-03	0	42	0	829423616	22	4959
2026-01-10 02:56:57.40	284.36	11.56	-30.8	-33.2	11.0	3.28e-03	0	42	0	831520768	22	4741
2026-01-10 02:56:58.40	284.21	11.51	-30.6	-32.6	11.4	1.05e-03	0	42	0	833617920	22	4509
2026-01-10 02:56:59.40	284.06	11.45	-30.5	-32.4	11.4	1.02e-03	0	42	0	835715072	22	4448
2026-01-10 02:57:00.41	283.91	11.39	-30.4	-32.1	11.6	5.13e-04	0	42	0	837812224	22	4347
2026-01-10 02:57:01.41	283.76	11.34	-30.2	-31.9	12.2	2.64e-04	0	42	0	838860800	21	4388
2026-01-10 02:57:02.41	283.61	11.28	-30.4	-32.4	11.8	3.32e-04	0	42	0	840957952	21	4568
2026-01-10 02:57:03.41	283.47	11.22	-30.3	-32.2	11.8	3.96e-04	0	41	0	843055104	21	4503
2026-01-10 02:57:04.41	283.32	11.17	-30.3	-32.2	11.8	3.29e-04	0	42	0	845152256	21	4505
2026-01-10 02:57:05.41	283.17	11.11	-30.4	-32.5	11.7	7.30e-04	0	42	0	846200832	21	4592
2026-01-10 02:57:06.41	283.03	11.06	-30.6	-33.0	11.3	1.23e-03	0	42	0	848297984	21	4761
2026-01-10 02:57:07.41	282.88	11.00	-30.4	-32.5	11.7	8.10e-04	0	42	0	850395136	21	4608
2026-01-10 02:57:08.41	282.74	10.94	-30.4	-32.5	11.7	5.18e-04	0	42	0	852492288	21	4608
2026-01-10 02:57:09.40	282.59	10.89	-30.5	-32.9	11.4	8.89e-04	0	42	0	854589440	21	4737
2026-01-10 02:57:10.40	282.45	10.83	-30.5	-33.0	11.3	1.05e-03	0	42	0	855638016	21	4769
2026-01-10 02:57:11.40	282.31	10.77	-30.6	-33.3	11.1	1.28e-03	0	42	0	857735168	21	4889
2026-01-10 02:57:12.41	282.16	10.72	-30.7	-33.0	11.0	4.02e-03	0	42	0	859832320	22	4680
2026-01-10 02:57:13.40	282.02	10.66	-30.8	-33.2	10.9	3.41e-03	0	42	0	861929472	22	4744
2026-01-10 02:57:14.40	281.88	10.60	-30.7	-32.9	11.1	1.97e-03	0	42	0	864026624	22	4647
2026-01-10 02:57:15.41	281.74	10.55	-30.9	-33.4	10.8	2.40e-03	0	42	0	865075200	22	4804
2026-01-10 02:57:16.42	281.60	10.49	-30.8	-33.3	11.0	2.45e-03	0	42	0	867172352	22	4765
2026-01-10 02:57:17.41	281.46	10.43	-30.7	-32.7	11.3	1.69e-03	0	42	0	869269504	22	4572
2026-01-10 02:57:18.42	281.32	10.37	-30.6	-32.6	11.4	1.09e-03	0	42	0	871366656	22	4500
2026-01-10 02:57:19.42	281.18	10.32	-30.9	-33.3	10.9	2.21e-03	0	42	0	872415232	22	4776
2026-01-10 02:57:20.42	281.04	10.26	-30.5	-32.2	11.6	1.36e-03	0	42	0	874512384	22	4378
2026-01-10 02:57:21.42	280.90	10.20	-30.4	-31.9	11.9	5.24e-04	0	41	0	876609536	22	4290
2026-01-10 02:57:22.42	280.77	10.15	-30.1	-31.5	12.4	1.31e-04	0	42	0	878706688	21	4252
2026-01-10 02:57:23.42	280.63	10.09	-29.9	-31.0	12.7	9.61e-05	0	42	0	880803840	21	4080
2026-01-10 02:57:24.43	280.49	10.03	-29.8	-31.2	12.9	4.11e-05	0	42	0	882900992	20	4227
2026-01-10 02:57:25.43	280.36	9.97	-29.7	-31.1	13.0	3.89e-05	0	42	0	883949568	20	4203
2026-01-10 02:57:26.44	280.22	9.92	-29.6	-30.7	13.2	1.52e-05	0	42	0	886046720	20	4097
2026-01-10 02:57:27.44	280.09	9.86	-29.5	-30.5	13.2	3.89e-05	0	42	0	888143872	20	4038
2026-01-10 02:57:28.44	279.95	9.80	-29.5	-30.4	13.3	1.29e-05	0	42	0	890241024	20	4017
2026-01-10 02:57:29.44	279.82	9.74	-29.4	-30.3	13.4	1.22e-05	0	42	0	891289600	20	3978
2026-01-10 02:57:30.44	279.69	9.69	-29.5	-30.6	13.2	2.82e-05	0	42	0	893386752	20	4066
2026-01-10 02:57:31.44	279.55	9.63	-29.7	-30.9	13.0	3.20e-05	0	42	0	895483904	20	4172
2026-01-10 02:57:32.45	279.42	9.57	-29.9	-31.6	12.6	5.41e-05	0	42	0	897581056	20	4370
2026-01-10 02:57:33.46	279.29	9.51	-30.0	-31.9	12.4	1.79e-04	0	42	0	899678208	20	4481
2026-01-10 02:57:34.45	279.16	9.46	-30.2	-32.3	12.0	1.54e-04	0	42	0	900726784	20	4625
2026-01-10 02:57:35.45	279.03	9.40	-29.8	-31.4	12.7	8.85e-05	0	42	0	902823936	20	4325
2026-01-10 02:57:36.46	278.90	9.34	-29.8	-31.2	12.8	5.64e-05	0	42	0	904921088	20	4252
2026-01-10 02:57:37.47	278.77	9.28	-29.9	-31.6	12.5	8.31e-05	0	42	0	907018240	20	4383
2026-01-10 02:57:38.46	278.64	9.23	-29.8	-31.2	12.8	8.31e-05	0	42	0	909115392	20	4248
2026-01-10 02:57:39.46	278.51	9.17	-29.7	-31.0	12.9	4.50e-05	0	42	0	910163968	20	4188
2026-01-10 02:57:40.47	278.38	9.11	-29.6	-30.8	13.0	4.95e-05	0	42	0	912261120	20	4132
2026-01-10 02:57:41.48	278.25	9.06	-29.6	-30.7	13.0	3.58e-05	0	42	0	914358272	20	4106
2026-01-10 02:57:42.48	278.13	9.00	-29.7	-31.1	12.8	4.27e-05	0	42	0	916455424	20	4224
2026-01-10 02:57:43.48	278.00	8.94	-29.8	-31.3	12.7	6.25e-05	0	42	0	918552576	20	4285
2026-01-10 02:57:44.48	277.88	8.88	-29.8	-31.2	12.7	7.09e-05	0	42	0	919601152	20	4257
2026-01-10 02:57:45.48	277.75	8.83	-29.7	-31.0	12.9	3.50e-05	0	42	0	921698304	20	4178
2026-01-10 02:57:46.48	277.63	8.77	-29.9	-31.6	12.5	6.56e-05	0	42	0	923795456	20	4379
2026-01-10 02:57:47.48	277.50	8.71	-29.9	-31.7	12.3	1.85e-04	0	42	0	925892608	20	4432
2026-01-10 02:57:48.49	277.38	8.65	-30.1	-32.2	12.0	2.11e-04	0	42	0	927989760	20	4596
2026-01-10 02:57:49.49	277.26	8.60	-30.4	-33.1	11.4	6.81e-04	0	42	0	929038336	20	4908
2026-01-10 02:57:50.49	277.13	8.54	-30.1	-32.2	12.0	3.65e-04	0	42	0	931135488	20	4588
2026-01-10 02:57:51.48	277.01	8.48	-29.9	-31.8	12.2	2.18e-04	0	42	0	933232640	20	4452
2026-01-10 02:57:52.48	276.89	8.42	-30.4	-33.0	11.4	1.11e-03	0	42	0	935329792	20	4900
2026-01-10 02:57:53.47	276.77	8.37	-30.2	-32.6	11.7	6.57e-04	0	42	0	936378368	20	4733
2026-01-10 02:57:54.47	276.65	8.31	-30.2	-32.7	11.6	4.61e-04	0	42	0	938475520	20	4786
2026-01-10 02:57:55.46	276.53	8.25	-30.1	-32.3	11.9	3.72e-04	0	42	0	940572672	20	4629
2026-01-10 02:57:56.46	276.41	8.20	-30.1	-32.3	11.9	3.73e-04	0	42	0	942669824	20	4636
2026-01-10 02:57:57.46	276.29	8.14	-30.1	-32.2	11.9	4.54e-04	0	42	0	944766976	20	4621
2026-01-10 02:57:58.46	276.17	8.08	-30.3	-32.9	11.4	7.90e-04	0	42	0	945815552	20	4868
2026-01-10 02:57:59.46	276.06	8.02	-30.3	-32.8	11.5	8.69e-04	0	42	0	947912704	20	4837
2026-01-10 02:58:00.45	275.94	7.97	-30.3	-32.8	11.5	6.56e-04	0	42	0	950009856	20	4837
2026-01-10 02:58:01.45	275.82	7.91	-30.4	-33.3	11.1	1.65e-03	0	42	0	952107008	20	4998
2026-01-10 02:58:02.45	275.71	7.85	-30.2	-32.7	11.5	1.26e-03	0	42	0	953155584	20	4789
2026-01-10 02:58:03.45	275.59	7.80	-30.4	-33.2	11.1	1.15e-03	0	42	0	955252736	20	4991
2026-01-10 02:58:04.45	275.47	7.74	-30.3	-32.8	11.4	9.60e-04	0	42	0	957349888	20	4824
2026-01-10 02:58:05.45	275.36	7.68	-30.2	-32.5	11.6	4.71e-04	0	42	0	959447040	20	4731
2026-01-10 02:58:06.45	275.24	7.62	-29.9	-31.9	12.1	3.75e-04	0	42	0	961544192	20	4489
2026-01-10 02:58:07.45	275.13	7.57	-29.9	-31.8	12.1	2.62e-04	0	42	0	962592768	20	4480
2026-01-10 02:58:08.45	275.01	7.51	-29.8	-31.5	12.3	3.93e-04	0	42	0	964689920	20	4391
2026-01-10 02:58:09.45	274.90	7.45	-29.7	-31.3	12.5	1.46e-04	0	42	0	966787072	20	4314
2026-01-10 02:58:10.46	274.79	7.40	-29.7	-31.2	12.5	7.70e-05	0	42	0	968884224	20	4280
2026-01-10 02:58:11.46	274.67	7.34	-29.7	-31.1	12.5	9.53e-05	0	42	0	970981376	20	4259
2026-01-10 02:58:12.46	274.56	7.28	-29.8	-31.6	12.2	1.11e-04	0	42	0	972029952	20	4421
2026-01-10 02:58:13.46	274.45	7.23	-29.8	-31.6	12.1	4.07e-04	0	42	0	974127104	20	4434
2026-01-10 02:58:14.47	274.34	7.17	-29.9	-31.8	12.0	3.03e-04	0	42	0	976224256	20	4475
2026-01-10 02:58:15.47	274.23	7.11	-30.0	-32.2	11.7	4.89e-04	0	42	0	978321408	20	4629
2026-01-10 02:58:16.48	274.12	7.05	-32.8	-45.1	3.8	5.32e-04	0	41	104	979369984	25	14836
2026-01-10 02:58:17.48	274.01	7.00	-33.1	-45.4	3.8	1.49e+00	0	42	104	979369984	26	14839
2026-01-10 02:58:18.48	273.90	6.94	-33.5	-46.2	3.8	1.49e+00	0	42	104	979369984	26	15551

#Closed at: 2026-01-10 02:58:19
#Recorded file [979 MB]: D:/data/31010_260110_054933.dat