passes_logs/2026/01/10/R2M6_AANII_01/R2M6_AANII_01__20260110_021945_NOAA_21_JPSS-2_rec.log

#Pass ID: 20260110_021945_NOAA 21 (JPSS-2)
#Satellite: NOAA 21 (JPSS-2)
#Configuration: NOAA 21
#almurnet v.1.7.20240730
#Start time: 2026-01-10 02:20:51

#Version: 2.2.20231116
#Station: R2M6_AANII_01
#Location: 30.233357 lon 59.946436 lat
#TLE: 1 54234U 22150A   26009.23291724  .00000115  00000+0  75298-4 0  9996
#TLE: 2 54234  98.7494 310.2026 0000856 324.9272  35.1848 14.19533567163994

#Time	Az	El	Level	Level2	SNR	BER	BlckErr	Temp	State	Recorded	gain1	gain2
2026-01-10 02:20:51.77	3.00	11.31	-33.4	-44.9	3.8	8.45e-01	0	42	0	0	26	13519
2026-01-10 02:20:52.77	2.87	11.38	-33.9	-45.7	3.8	1.49e+00	0	42	104	0	28	14075
2026-01-10 02:20:53.77	2.74	11.45	-34.0	-46.0	3.8	1.49e+00	0	42	104	0	28	14189
2026-01-10 02:20:54.77	2.62	11.52	-34.2	-46.3	3.8	1.49e+00	0	42	104	0	28	14469
2026-01-10 02:20:55.77	2.49	11.58	-34.2	-46.3	3.8	1.49e+00	0	42	104	0	28	14504
2026-01-10 02:20:56.77	2.36	11.65	-34.3	-46.5	3.8	1.49e+00	0	42	104	0	28	14641
2026-01-10 02:20:57.77	2.23	11.72	-34.3	-46.5	3.8	1.49e+00	0	42	104	0	28	14580
2026-01-10 02:20:58.76	2.10	11.79	-34.2	-46.3	3.8	1.49e+00	0	42	104	0	28	14425
2026-01-10 02:20:59.76	1.97	11.85	-34.2	-46.2	3.8	1.49e+00	0	42	104	0	28	14402
2026-01-10 02:21:00.76	1.84	11.92	-34.2	-46.2	3.8	1.49e+00	0	42	104	0	28	14370
2026-01-10 02:21:01.75	1.71	11.99	-34.2	-46.2	3.8	1.49e+00	0	42	104	0	28	14380
2026-01-10 02:21:02.75	1.58	12.06	-34.2	-46.2	3.8	1.49e+00	0	42	104	0	28	14332
2026-01-10 02:21:03.76	1.45	12.12	-34.2	-46.2	3.8	1.49e+00	0	42	104	0	28	14394
2026-01-10 02:21:04.75	1.31	12.19	-34.2	-46.3	3.8	1.49e+00	0	42	104	0	28	14422
2026-01-10 02:21:05.74	1.18	12.26	-34.2	-46.2	3.8	1.49e+00	0	42	104	0	28	14375
2026-01-10 02:21:06.74	1.05	12.33	-34.1	-46.1	3.8	1.49e+00	0	42	104	0	28	14340
2026-01-10 02:21:07.74	0.91	12.40	-34.2	-46.2	3.8	1.49e+00	0	42	104	0	28	14327
2026-01-10 02:21:08.74	0.78	12.46	-34.2	-46.2	3.8	1.49e+00	0	42	104	0	28	14340
2026-01-10 02:21:09.73	0.64	12.53	-34.1	-46.1	3.8	1.49e+00	0	42	104	0	28	14284
2026-01-10 02:21:10.73	0.50	12.60	-34.2	-46.3	3.8	1.49e+00	0	42	104	0	28	14421
2026-01-10 02:21:11.73	0.36	12.67	-34.1	-46.1	3.8	1.49e+00	0	42	104	0	28	14322
2026-01-10 02:21:12.72	0.23	12.73	-34.1	-46.1	3.8	1.49e+00	0	42	104	0	28	14270
2026-01-10 02:21:13.72	0.09	12.80	-34.1	-46.0	3.8	1.49e+00	0	42	104	0	28	14207
2026-01-10 02:21:14.71	359.95	12.87	-34.1	-46.1	3.8	1.49e+00	0	42	104	0	28	14280
2026-01-10 02:21:15.70	359.81	12.94	-34.1	-46.0	3.8	1.49e+00	0	42	104	0	28	14224
2026-01-10 02:21:16.70	359.67	13.01	-34.1	-46.0	3.8	1.49e+00	0	42	104	0	28	14181
2026-01-10 02:21:17.69	359.53	13.07	-34.0	-45.9	3.8	1.49e+00	0	42	104	0	28	14086
2026-01-10 02:21:18.69	359.39	13.14	-34.0	-45.8	3.8	1.49e+00	0	42	104	0	28	14073
2026-01-10 02:21:19.68	359.25	13.21	-33.9	-45.7	3.8	1.49e+00	0	42	104	0	28	13977
2026-01-10 02:21:20.67	359.10	13.28	-34.0	-45.8	3.8	1.49e+00	0	42	104	0	28	14013
2026-01-10 02:21:21.68	358.96	13.35	-33.9	-45.5	3.8	1.49e+00	0	42	104	0	28	13728
2026-01-10 02:21:22.66	358.81	13.41	-33.8	-45.4	3.8	1.49e+00	0	42	104	0	28	13689
2026-01-10 02:21:23.67	358.67	13.48	-33.6	-44.6	3.8	1.49e+00	0	42	104	0	28	12802
2026-01-10 02:21:24.66	358.52	13.55	-33.5	-44.6	3.8	1.49e+00	0	42	104	0	28	12987
2026-01-10 02:21:25.66	358.37	13.62	-33.4	-44.6	3.8	1.49e+00	0	42	104	0	28	13008
2026-01-10 02:21:26.66	358.23	13.69	-33.4	-44.5	3.8	1.49e+00	0	42	104	0	28	12902
2026-01-10 02:21:27.66	358.08	13.75	-33.4	-44.5	3.8	1.49e+00	0	42	104	0	28	12986
2026-01-10 02:21:28.66	357.93	13.82	-33.4	-44.6	3.8	1.49e+00	0	42	104	0	28	13035
2026-01-10 02:21:29.65	357.78	13.89	-33.4	-44.5	3.8	1.49e+00	0	42	104	0	28	12938
2026-01-10 02:21:30.65	357.63	13.96	-33.4	-44.4	3.8	1.49e+00	0	42	104	0	28	12830
2026-01-10 02:21:31.64	357.48	14.03	-33.5	-44.7	3.8	1.49e+00	0	42	104	0	28	13078
2026-01-10 02:21:32.64	357.33	14.09	-33.5	-44.6	3.8	1.49e+00	0	42	104	0	28	12917
2026-01-10 02:21:33.63	357.18	14.16	-33.4	-44.4	3.8	1.49e+00	0	42	104	0	28	12747
2026-01-10 02:21:34.63	357.02	14.23	-33.4	-44.0	3.8	1.49e+00	0	42	104	0	28	12255
2026-01-10 02:21:35.62	356.87	14.30	-33.4	-44.0	3.8	1.49e+00	0	42	104	0	28	12227
2026-01-10 02:21:36.63	356.71	14.37	-33.4	-43.9	3.8	1.49e+00	0	42	104	0	28	12157
2026-01-10 02:21:37.62	356.56	14.43	-33.4	-44.0	3.8	1.49e+00	0	42	104	0	28	12292
2026-01-10 02:21:38.63	356.40	14.50	-33.4	-44.4	3.8	1.49e+00	0	42	104	0	28	12770
2026-01-10 02:21:39.62	356.24	14.57	-33.4	-44.5	3.8	1.49e+00	0	42	104	0	28	12860
2026-01-10 02:21:40.62	356.09	14.64	-33.4	-44.2	3.8	1.49e+00	0	42	104	0	27	12512
2026-01-10 02:21:41.61	355.93	14.71	-33.3	-43.4	3.8	1.49e+00	0	42	104	0	27	11524
2026-01-10 02:21:42.61	355.77	14.77	-32.8	-40.0	4.0	1.48e+00	0	42	104	0	27	8263
2026-01-10 02:21:43.61	355.61	14.84	-32.0	-37.4	4.4	1.43e+00	0	42	104	0	25	6688
2026-01-10 02:21:44.60	355.45	14.91	-31.5	-35.3	8.2	9.13e-02	0	42	0	0	24	5561
2026-01-10 02:21:45.60	355.29	14.98	-31.2	-34.7	8.9	3.25e-02	0	42	0	3145728	23	5428
2026-01-10 02:21:46.60	355.13	15.04	-30.9	-33.8	9.6	1.42e-02	0	42	0	6291456	23	5056
2026-01-10 02:21:47.60	354.96	15.11	-30.7	-33.8	10.0	8.89e-03	0	42	0	9437184	22	5155
2026-01-10 02:21:48.60	354.80	15.18	-30.6	-33.4	10.3	7.24e-03	0	42	0	12582912	22	4974
2026-01-10 02:21:49.58	354.64	15.25	-30.6	-33.4	10.3	5.22e-03	0	42	0	15728640	22	4985
2026-01-10 02:21:50.57	354.47	15.31	-30.6	-33.5	10.2	5.66e-03	0	42	0	18874368	22	5009
2026-01-10 02:21:51.58	354.31	15.38	-30.6	-33.3	10.3	5.14e-03	0	42	0	22020096	22	4953
2026-01-10 02:21:52.58	354.14	15.45	-30.9	-34.2	9.8	6.96e-03	0	42	0	25165824	22	5283
2026-01-10 02:21:53.57	353.97	15.52	-30.7	-33.8	10.0	1.46e-02	0	42	0	28311552	22	5137
2026-01-10 02:21:54.57	353.80	15.58	-30.6	-33.4	10.3	1.07e-02	0	42	0	31457280	22	4977
2026-01-10 02:21:55.57	353.64	15.65	-30.3	-32.5	10.8	3.42e-03	0	42	0	34603008	22	4669
2026-01-10 02:21:56.56	353.47	15.72	-29.7	-31.9	11.9	6.84e-04	0	42	0	36700160	20	4659
2026-01-10 02:21:57.55	353.30	15.78	-29.3	-31.4	12.6	1.85e-04	0	42	0	39845888	19	4599
2026-01-10 02:21:58.54	353.13	15.85	-28.1	-29.6	14.3	7.00e-07	0	42	0	42991616	17	4271
2026-01-10 02:21:59.53	352.96	15.92	-28.2	-29.7	14.3	7.00e-07	0	42	0	46137344	17	4295
2026-01-10 02:22:00.52	352.79	15.98	-28.5	-30.0	13.8	1.83e-05	0	42	0	49283072	18	4275
2026-01-10 02:22:01.51	352.61	16.05	-28.7	-30.4	13.6	1.06e-05	0	42	0	52428800	18	4377
2026-01-10 02:22:02.50	352.44	16.12	-28.7	-30.3	13.7	6.80e-06	0	42	0	55574528	18	4360
2026-01-10 02:22:03.50	352.26	16.18	-28.5	-30.1	13.8	7.60e-06	0	42	0	58720256	18	4285
2026-01-10 02:22:04.49	352.09	16.25	-28.6	-30.3	13.6	1.14e-05	0	42	0	61865984	18	4355
2026-01-10 02:22:05.49	351.91	16.31	-28.6	-30.2	13.7	8.30e-06	0	42	0	65011712	18	4330
2026-01-10 02:22:06.47	351.74	16.38	-28.9	-31.3	13.4	4.50e-06	0	42	0	68157440	17	4782
2026-01-10 02:22:07.47	351.56	16.45	-28.4	-30.2	14.1	3.00e-06	0	42	0	71303168	17	4421
2026-01-10 02:22:08.47	351.38	16.51	-28.0	-29.3	14.6	0.00e+00	0	42	0	74448896	17	4174
2026-01-10 02:22:09.46	351.20	16.58	-27.6	-28.9	15.1	0.00e+00	0	42	0	77594624	16	4174
2026-01-10 02:22:10.45	351.02	16.64	-27.5	-28.6	15.3	0.00e+00	0	42	0	80740352	16	4094
2026-01-10 02:22:11.45	350.84	16.71	-27.4	-28.4	15.4	0.00e+00	0	42	0	83886080	16	4038
2026-01-10 02:22:12.45	350.66	16.77	-27.4	-28.4	15.4	0.00e+00	0	42	0	87031808	16	4036
2026-01-10 02:22:13.44	350.48	16.84	-27.6	-28.9	15.2	0.00e+00	0	42	0	90177536	16	4160
2026-01-10 02:22:14.44	350.29	16.90	-27.8	-29.3	14.9	0.00e+00	0	42	0	93323264	16	4267
2026-01-10 02:22:15.44	350.11	16.97	-27.4	-28.4	15.4	0.00e+00	0	42	0	96468992	16	4044
2026-01-10 02:22:16.42	349.92	17.03	-27.5	-28.5	15.5	0.00e+00	0	42	0	99614720	16	4054
2026-01-10 02:22:17.41	349.74	17.10	-27.8	-29.3	15.1	0.00e+00	0	42	0	102760448	16	4264
2026-01-10 02:22:18.40	349.55	17.16	-27.8	-29.3	15.1	0.00e+00	0	42	0	105906176	16	4269
2026-01-10 02:22:19.40	349.36	17.23	-27.9	-29.5	15.0	0.00e+00	0	42	0	109051904	16	4335
2026-01-10 02:22:20.39	349.18	17.29	-27.7	-29.1	15.3	0.00e+00	0	42	0	111149056	16	4203
2026-01-10 02:22:21.38	348.99	17.36	-27.8	-29.3	15.1	0.00e+00	0	42	0	114294784	16	4254
2026-01-10 02:22:22.38	348.80	17.42	-27.6	-28.8	15.3	0.00e+00	0	42	0	117440512	16	4134
2026-01-10 02:22:23.38	348.61	17.48	-27.5	-28.6	15.5	0.00e+00	0	42	0	120586240	16	4078
2026-01-10 02:22:24.37	348.42	17.55	-27.7	-29.1	15.3	0.00e+00	0	42	0	123731968	16	4197
2026-01-10 02:22:25.37	348.22	17.61	-28.0	-29.7	15.0	0.00e+00	0	42	0	126877696	16	4362
2026-01-10 02:22:26.36	348.03	17.67	-28.1	-29.9	14.9	0.00e+00	0	42	0	130023424	16	4436
2026-01-10 02:22:27.36	347.84	17.74	-28.2	-30.1	14.8	0.00e+00	0	42	0	133169152	16	4492
2026-01-10 02:22:28.36	347.64	17.80	-28.3	-30.4	14.6	0.00e+00	0	42	0	136314880	16	4573
2026-01-10 02:22:29.37	347.44	17.87	-28.1	-29.9	14.8	0.00e+00	0	42	0	139460608	16	4433
2026-01-10 02:22:30.36	347.25	17.93	-28.3	-30.3	14.6	0.00e+00	0	42	0	142606336	16	4537
2026-01-10 02:22:31.36	347.05	17.99	-27.9	-29.4	14.8	0.00e+00	0	42	0	145752064	16	4314
2026-01-10 02:22:32.36	346.85	18.05	-28.4	-30.6	14.4	7.00e-07	0	42	0	148897792	16	4644
2026-01-10 02:22:33.35	346.65	18.11	-28.4	-30.2	14.4	0.00e+00	0	42	0	152043520	17	4397
2026-01-10 02:22:34.34	346.45	18.18	-28.7	-30.2	14.2	6.80e-06	0	42	0	155189248	18	4314
2026-01-10 02:22:35.33	346.25	18.24	-28.8	-31.1	14.0	2.20e-06	0	42	0	158334976	17	4659
2026-01-10 02:22:36.32	346.05	18.30	-28.8	-30.5	14.2	2.20e-06	0	42	0	161480704	18	4368
2026-01-10 02:22:37.31	345.85	18.36	-28.5	-30.3	14.9	2.05e-05	0	42	0	164626432	17	4408
2026-01-10 02:22:38.31	345.65	18.42	-28.6	-30.0	14.3	2.20e-06	0	42	0	167772160	18	4247
2026-01-10 02:22:39.30	345.44	18.48	-28.5	-29.9	14.4	1.50e-06	0	42	0	170917888	18	4197
2026-01-10 02:22:40.29	345.24	18.54	-28.5	-30.4	14.5	0.00e+00	0	42	0	174063616	17	4458
2026-01-10 02:22:41.30	345.03	18.60	-28.4	-30.2	14.4	7.00e-07	0	42	0	177209344	17	4388
2026-01-10 02:22:42.30	344.82	18.66	-28.2	-29.5	15.0	0.00e+00	0	42	0	180355072	17	4196
2026-01-10 02:22:43.30	344.61	18.72	-28.1	-29.5	14.9	0.00e+00	0	42	0	183500800	17	4191
2026-01-10 02:22:44.30	344.40	18.78	-28.4	-30.0	14.6	0.00e+00	0	42	0	186646528	17	4361
2026-01-10 02:22:45.31	344.19	18.84	-28.2	-29.7	14.7	7.00e-07	0	42	0	189792256	17	4272
2026-01-10 02:22:46.30	343.98	18.90	-27.8	-28.7	15.2	0.00e+00	0	42	0	192937984	17	4004
2026-01-10 02:22:47.29	343.77	18.96	-27.7	-29.0	15.3	0.00e+00	0	42	0	196083712	16	4196
2026-01-10 02:22:48.28	343.56	19.02	-27.7	-29.1	15.3	0.00e+00	0	42	0	199229440	16	4207
2026-01-10 02:22:49.27	343.35	19.08	-28.2	-30.1	14.6	7.00e-07	0	42	0	202375168	16	4503
2026-01-10 02:22:50.26	343.14	19.13	-27.8	-29.3	15.1	0.00e+00	0	42	0	204472320	16	4271
2026-01-10 02:22:51.26	342.93	19.19	-28.1	-30.0	14.7	0.00e+00	0	42	0	207618048	16	4467
2026-01-10 02:22:52.25	342.71	19.25	-27.7	-29.1	15.2	7.00e-07	0	42	0	210763776	16	4218
2026-01-10 02:22:53.24	342.50	19.31	-27.7	-29.0	15.2	0.00e+00	0	42	0	213909504	16	4185
2026-01-10 02:22:54.24	342.28	19.36	-27.9	-29.5	15.0	0.00e+00	0	42	0	217055232	16	4334
2026-01-10 02:22:55.24	342.06	19.42	-27.8	-29.2	15.1	0.00e+00	0	42	0	220200960	16	4232
2026-01-10 02:22:56.23	341.84	19.48	-27.8	-29.3	15.0	0.00e+00	0	42	0	223346688	16	4262
2026-01-10 02:22:57.22	341.63	19.53	-28.7	-30.8	14.0	0.00e+00	0	42	0	226492416	17	4613
2026-01-10 02:22:58.21	341.41	19.59	-28.6	-30.7	13.9	4.50e-06	0	42	0	229638144	17	4556
2026-01-10 02:22:59.21	341.19	19.64	-28.1	-29.6	14.5	7.00e-07	0	42	0	232783872	17	4240
2026-01-10 02:23:00.21	340.96	19.70	-28.2	-29.6	14.7	0.00e+00	0	42	0	235929600	17	4229
2026-01-10 02:23:01.21	340.74	19.75	-28.0	-29.1	15.0	7.00e-07	0	42	0	239075328	17	4106
2026-01-10 02:23:02.22	340.51	19.81	-27.9	-29.4	15.2	0.00e+00	0	42	0	242221056	16	4295
2026-01-10 02:23:03.21	340.29	19.86	-28.0	-29.6	15.1	0.00e+00	0	42	0	245366784	16	4346
2026-01-10 02:23:04.20	340.07	19.91	-28.3	-30.3	14.6	0.00e+00	0	42	0	248512512	16	4555
2026-01-10 02:23:05.19	339.84	19.97	-27.7	-29.1	15.3	0.00e+00	0	42	0	251658240	16	4211
2026-01-10 02:23:06.18	339.62	20.02	-27.5	-28.5	15.6	0.00e+00	0	42	0	254803968	16	4044
2026-01-10 02:23:07.18	339.39	20.07	-27.5	-28.5	15.5	0.00e+00	0	42	0	257949696	16	4043
2026-01-10 02:23:08.17	339.17	20.13	-27.5	-28.6	15.5	0.00e+00	0	42	0	261095424	16	4083
2026-01-10 02:23:09.17	338.94	20.18	-27.4	-28.3	15.6	0.00e+00	0	42	0	264241152	16	4011
2026-01-10 02:23:10.16	338.71	20.23	-27.1	-28.3	15.7	0.00e+00	0	42	0	267386880	15	4100
2026-01-10 02:23:11.14	338.48	20.28	-27.5	-29.0	15.3	0.00e+00	0	42	0	270532608	15	4298
2026-01-10 02:23:12.14	338.25	20.33	-27.5	-29.2	15.2	0.00e+00	0	42	0	273678336	15	4357
2026-01-10 02:23:13.14	338.02	20.38	-27.1	-28.3	15.7	0.00e+00	0	42	0	276824064	15	4105
2026-01-10 02:23:14.13	337.79	20.43	-27.1	-28.1	15.8	0.00e+00	0	42	0	279969792	15	4072
2026-01-10 02:23:15.13	337.55	20.48	-27.1	-28.2	15.8	0.00e+00	0	42	0	283115520	15	4080
2026-01-10 02:23:16.13	337.32	20.53	-27.1	-28.2	15.8	0.00e+00	0	42	0	286261248	15	4083
2026-01-10 02:23:17.13	337.08	20.58	-27.1	-28.3	15.8	0.00e+00	0	42	0	289406976	15	4115
2026-01-10 02:23:18.13	336.84	20.63	-27.4	-28.8	15.6	0.00e+00	0	42	0	292552704	15	4237
2026-01-10 02:23:19.13	336.61	20.67	-27.7	-29.6	15.3	0.00e+00	0	42	0	295698432	15	4461
2026-01-10 02:23:20.12	336.37	20.72	-27.4	-28.9	15.6	0.00e+00	0	42	0	298844160	15	4262
2026-01-10 02:23:21.12	336.13	20.77	-27.2	-28.5	15.8	0.00e+00	0	42	0	300941312	15	4145
2026-01-10 02:23:22.12	335.89	20.82	-27.2	-28.3	15.8	0.00e+00	0	42	0	305135616	15	4112
2026-01-10 02:23:23.12	335.65	20.86	-27.3	-28.6	15.7	2.20e-06	0	42	0	308281344	15	4186
2026-01-10 02:23:24.12	335.41	20.91	-27.0	-27.9	16.0	0.00e+00	0	42	0	310378496	15	4000
2026-01-10 02:23:25.11	335.17	20.95	-27.1	-28.1	15.9	0.00e+00	0	42	0	313524224	15	4066
2026-01-10 02:23:26.11	334.93	21.00	-26.9	-27.8	16.0	0.00e+00	0	42	0	316669952	15	3978
2026-01-10 02:23:27.10	334.69	21.04	-26.9	-27.7	16.1	0.00e+00	0	42	0	319815680	15	3951
2026-01-10 02:23:28.10	334.45	21.09	-27.2	-28.4	15.8	0.00e+00	0	42	0	322961408	15	4133
2026-01-10 02:23:29.09	334.20	21.13	-27.2	-28.3	15.8	0.00e+00	0	42	0	326107136	15	4114
2026-01-10 02:23:30.08	333.96	21.17	-27.0	-28.0	16.0	0.00e+00	0	42	0	329252864	15	4016
2026-01-10 02:23:31.07	333.72	21.21	-26.8	-28.0	16.3	0.00e+00	0	42	0	332398592	14	4127
2026-01-10 02:23:32.07	333.47	21.26	-26.8	-28.1	16.3	0.00e+00	0	42	0	335544320	14	4157
2026-01-10 02:23:33.07	333.22	21.30	-26.9	-28.2	16.1	0.00e+00	0	42	0	338690048	14	4193
2026-01-10 02:23:34.07	332.98	21.34	-26.8	-28.0	16.2	0.00e+00	0	42	0	341835776	14	4136
2026-01-10 02:23:35.06	332.73	21.38	-26.8	-27.9	16.3	0.00e+00	0	42	0	344981504	14	4112
2026-01-10 02:23:36.05	332.48	21.42	-26.8	-28.0	16.3	0.00e+00	0	42	0	348127232	14	4129
2026-01-10 02:23:37.05	332.23	21.46	-26.8	-27.9	16.2	0.00e+00	0	42	0	351272960	14	4124
2026-01-10 02:23:38.04	331.99	21.50	-26.7	-27.9	16.2	0.00e+00	0	42	0	354418688	14	4100
2026-01-10 02:23:39.04	331.73	21.54	-26.9	-28.2	16.1	0.00e+00	0	42	0	357564416	14	4197
2026-01-10 02:23:40.03	331.49	21.57	-27.0	-28.4	16.0	0.00e+00	0	42	0	360710144	14	4245
2026-01-10 02:23:41.03	331.23	21.61	-27.1	-28.8	15.8	0.00e+00	0	42	0	363855872	14	4343
2026-01-10 02:23:42.02	330.98	21.65	-27.1	-28.6	15.9	0.00e+00	0	42	0	367001600	14	4295
2026-01-10 02:23:43.01	330.73	21.68	-27.2	-29.0	15.7	0.00e+00	0	42	0	370147328	14	4396
2026-01-10 02:23:44.00	330.48	21.72	-27.2	-28.9	15.7	0.00e+00	0	42	0	373293056	14	4383
2026-01-10 02:23:45.00	330.22	21.75	-27.0	-28.6	15.9	0.00e+00	0	42	0	376438784	14	4286
2026-01-10 02:23:45.99	329.97	21.79	-26.9	-28.1	16.1	0.00e+00	0	42	0	379584512	14	4172
2026-01-10 02:23:46.98	329.72	21.82	-27.0	-28.5	15.9	0.00e+00	0	42	0	382730240	14	4278
2026-01-10 02:23:47.98	329.46	21.86	-27.3	-29.1	15.7	0.00e+00	0	42	0	385875968	14	4448
2026-01-10 02:23:48.97	329.21	21.89	-27.2	-28.4	15.8	0.00e+00	0	42	0	387973120	15	4141
2026-01-10 02:23:49.96	328.95	21.92	-27.3	-28.7	15.7	0.00e+00	0	42	0	391118848	15	4210
2026-01-10 02:23:50.96	328.69	21.95	-27.4	-28.8	15.7	0.00e+00	0	42	0	394264576	15	4228
2026-01-10 02:23:51.96	328.44	21.98	-27.4	-28.8	15.6	0.00e+00	0	42	0	397410304	15	4233
2026-01-10 02:23:52.96	328.18	22.01	-27.7	-29.5	15.2	0.00e+00	0	42	0	400556032	15	4447
2026-01-10 02:23:53.96	327.92	22.05	-27.4	-28.8	15.5	0.00e+00	0	42	0	403701760	15	4232
2026-01-10 02:23:54.97	327.65	22.07	-27.0	-28.1	15.9	0.00e+00	0	42	0	406847488	15	4049
2026-01-10 02:23:55.97	327.39	22.10	-26.8	-27.5	16.2	0.00e+00	0	42	0	409993216	15	3900
2026-01-10 02:23:56.97	327.13	22.13	-27.0	-28.4	15.9	0.00e+00	0	42	0	413138944	14	4246
2026-01-10 02:23:57.97	326.87	22.16	-27.0	-28.4	15.9	0.00e+00	0	42	0	416284672	14	4250
2026-01-10 02:23:58.97	326.61	22.19	-26.9	-28.2	16.1	0.00e+00	0	42	0	419430400	14	4198
2026-01-10 02:23:59.97	326.35	22.21	-26.8	-28.0	16.3	0.00e+00	0	42	0	422576128	14	4124
2026-01-10 02:24:00.96	326.08	22.24	-26.8	-27.9	16.3	0.00e+00	0	42	0	425721856	14	4117
2026-01-10 02:24:01.96	325.82	22.26	-26.7	-27.7	16.3	0.00e+00	0	42	0	428867584	14	4065
2026-01-10 02:24:02.95	325.56	22.29	-27.2	-28.9	15.8	0.00e+00	0	42	0	432013312	14	4365
2026-01-10 02:24:03.95	325.30	22.31	-27.2	-28.9	15.8	0.00e+00	0	42	0	435159040	14	4367
2026-01-10 02:24:04.94	325.03	22.34	-27.2	-29.0	15.8	0.00e+00	0	42	0	438304768	14	4401
2026-01-10 02:24:05.94	324.77	22.36	-27.2	-28.9	15.8	0.00e+00	0	42	0	441450496	14	4381
2026-01-10 02:24:06.94	324.50	22.38	-27.2	-28.9	15.7	0.00e+00	0	42	0	444596224	14	4384
2026-01-10 02:24:07.94	324.24	22.40	-27.4	-29.3	15.7	0.00e+00	0	42	0	447741952	14	4478
2026-01-10 02:24:08.94	323.97	22.42	-27.2	-28.9	15.8	0.00e+00	0	42	0	450887680	14	4368
2026-01-10 02:24:09.93	323.71	22.44	-27.3	-29.2	15.7	0.00e+00	0	42	0	454033408	14	4458
2026-01-10 02:24:10.92	323.44	22.46	-27.3	-29.0	15.7	0.00e+00	0	42	0	457179136	14	4418
2026-01-10 02:24:11.93	323.17	22.48	-27.3	-29.1	15.6	0.00e+00	0	42	0	460324864	14	4440
2026-01-10 02:24:12.92	322.91	22.50	-27.2	-28.8	15.9	0.00e+00	0	42	0	463470592	14	4349
2026-01-10 02:24:13.91	322.64	22.52	-26.9	-28.2	16.2	0.00e+00	0	42	0	466616320	14	4188
2026-01-10 02:24:14.91	322.37	22.53	-26.9	-28.2	16.2	0.00e+00	0	42	0	469762048	14	4171
2026-01-10 02:24:15.91	322.10	22.55	-26.9	-28.2	16.2	0.00e+00	0	42	0	472907776	14	4193
2026-01-10 02:24:16.90	321.84	22.57	-27.2	-28.8	15.8	0.00e+00	0	42	0	476053504	14	4349
2026-01-10 02:24:17.90	321.57	22.58	-27.6	-29.4	15.2	0.00e+00	0	42	0	479199232	15	4405
2026-01-10 02:24:18.89	321.30	22.60	-27.1	-28.1	15.8	0.00e+00	0	42	0	482344960	15	4065
2026-01-10 02:24:19.88	321.03	22.61	-27.2	-28.4	15.7	0.00e+00	0	42	0	485490688	15	4131
2026-01-10 02:24:20.87	320.77	22.62	-27.1	-28.2	15.8	0.00e+00	0	42	0	488636416	15	4082
2026-01-10 02:24:21.87	320.50	22.63	-27.2	-28.5	15.6	0.00e+00	0	42	0	491782144	15	4163
2026-01-10 02:24:22.87	320.23	22.65	-27.2	-28.3	15.6	0.00e+00	0	42	0	494927872	15	4131
2026-01-10 02:24:23.87	319.96	22.66	-27.2	-28.4	15.7	0.00e+00	0	42	0	498073600	15	4138
2026-01-10 02:24:24.88	319.68	22.67	-26.9	-27.7	16.0	0.00e+00	0	42	0	501219328	15	3955
2026-01-10 02:24:25.87	319.41	22.68	-27.1	-28.2	15.7	0.00e+00	0	42	0	503316480	15	4093
2026-01-10 02:24:26.86	319.15	22.69	-26.9	-27.8	16.0	0.00e+00	0	42	0	506462208	15	3993
2026-01-10 02:24:27.86	318.88	22.69	-26.9	-27.7	16.0	0.00e+00	0	42	0	509607936	15	3952
2026-01-10 02:24:28.86	318.60	22.70	-27.1	-28.3	15.7	0.00e+00	0	42	0	512753664	15	4102
2026-01-10 02:24:29.85	318.33	22.71	-27.3	-28.6	15.6	0.00e+00	0	42	0	515899392	15	4176
2026-01-10 02:24:30.84	318.07	22.71	-27.2	-28.3	15.8	0.00e+00	0	42	0	519045120	15	4121
2026-01-10 02:24:31.85	317.79	22.72	-27.6	-29.4	15.2	0.00e+00	0	42	0	522190848	15	4400
2026-01-10 02:24:32.84	317.52	22.72	-27.3	-28.6	15.6	0.00e+00	0	42	0	525336576	15	4194
2026-01-10 02:24:33.83	317.25	22.73	-27.3	-28.7	15.5	0.00e+00	0	42	0	528482304	15	4221
2026-01-10 02:24:34.82	316.98	22.73	-26.9	-27.8	16.1	0.00e+00	0	42	0	531628032	15	3970
2026-01-10 02:24:35.81	316.71	22.73	-26.9	-27.7	16.0	0.00e+00	0	42	0	534773760	15	3961
2026-01-10 02:24:36.81	316.44	22.74	-27.1	-28.2	15.8	0.00e+00	0	42	0	537919488	15	4087
2026-01-10 02:24:37.80	316.17	22.74	-27.3	-28.7	15.6	0.00e+00	0	42	0	541065216	15	4202
2026-01-10 02:24:38.80	315.90	22.74	-27.5	-29.0	15.4	0.00e+00	0	42	0	544210944	15	4300
2026-01-10 02:24:39.79	315.63	22.74	-28.2	-30.1	14.7	0.00e+00	0	42	0	547356672	16	4487
2026-01-10 02:24:40.77	315.36	22.74	-28.6	-30.6	13.9	3.00e-06	0	42	0	550502400	17	4526
2026-01-10 02:24:41.77	315.09	22.74	-27.6	-28.7	15.6	0.00e+00	0	42	0	553648128	16	4102
2026-01-10 02:24:42.76	314.82	22.73	-27.5	-28.6	15.7	0.00e+00	0	42	0	556793856	16	4068
2026-01-10 02:24:43.76	314.55	22.73	-27.5	-28.5	15.7	0.00e+00	0	42	0	559939584	16	4040
2026-01-10 02:24:44.76	314.28	22.73	-27.5	-28.5	15.7	2.20e-06	0	42	0	563085312	16	4034
2026-01-10 02:24:45.76	314.01	22.72	-27.5	-28.5	15.6	0.00e+00	0	42	0	566231040	16	4053
2026-01-10 02:24:46.76	313.74	22.72	-27.7	-28.9	15.2	0.00e+00	0	42	0	569376768	16	4153
2026-01-10 02:24:47.75	313.47	22.71	-27.6	-28.8	15.5	0.00e+00	0	42	0	572522496	16	4137
2026-01-10 02:24:48.75	313.19	22.71	-28.1	-29.8	15.1	0.00e+00	0	42	0	575668224	16	4397
2026-01-10 02:24:49.75	312.92	22.70	-27.5	-28.5	15.7	7.00e-07	0	42	0	578813952	16	4041
2026-01-10 02:24:50.74	312.65	22.69	-27.5	-28.6	15.6	0.00e+00	0	42	0	581959680	16	4065
2026-01-10 02:24:51.73	312.39	22.69	-27.1	-28.2	15.9	0.00e+00	0	42	0	585105408	15	4081
2026-01-10 02:24:52.73	312.11	22.68	-27.2	-28.4	15.9	7.00e-07	0	42	0	588251136	15	4115
2026-01-10 02:24:53.73	311.84	22.67	-27.1	-28.1	15.9	0.00e+00	0	42	0	591396864	15	4059
2026-01-10 02:24:54.73	311.57	22.66	-27.1	-28.2	15.9	0.00e+00	0	42	0	593494016	15	4072
2026-01-10 02:24:55.73	311.30	22.65	-27.3	-28.5	15.7	0.00e+00	0	42	0	596639744	15	4170
2026-01-10 02:24:56.74	311.03	22.63	-27.1	-28.2	15.8	0.00e+00	0	42	0	599785472	15	4084
2026-01-10 02:24:57.74	310.76	22.62	-27.5	-29.1	15.4	0.00e+00	0	42	0	602931200	15	4326
2026-01-10 02:24:58.74	310.49	22.61	-27.5	-29.0	15.5	0.00e+00	0	42	0	606076928	15	4303
2026-01-10 02:24:59.73	310.22	22.59	-28.4	-30.7	14.6	0.00e+00	0	42	0	609222656	16	4658
2026-01-10 02:25:00.73	309.95	22.58	-29.0	-31.2	13.3	7.00e-07	0	42	0	612368384	18	4599
2026-01-10 02:25:01.72	309.68	22.56	-28.4	-29.5	14.5	1.50e-06	0	42	0	615514112	18	4120
2026-01-10 02:25:02.72	309.42	22.55	-27.8	-28.7	15.3	0.00e+00	0	42	0	618659840	17	3986
2026-01-10 02:25:03.72	309.15	22.53	-27.8	-29.3	15.3	0.00e+00	0	42	0	621805568	16	4240
2026-01-10 02:25:04.72	308.88	22.52	-27.5	-28.5	15.7	0.00e+00	0	42	0	624951296	16	4041
2026-01-10 02:25:05.72	308.61	22.50	-27.3	-28.2	15.8	0.00e+00	0	42	0	628097024	16	3958
2026-01-10 02:25:06.71	308.34	22.48	-27.5	-28.5	15.6	0.00e+00	0	42	0	631242752	16	4048
2026-01-10 02:25:07.71	308.08	22.46	-27.1	-28.2	15.9	0.00e+00	0	42	0	634388480	15	4070
2026-01-10 02:25:08.71	307.81	22.44	-27.4	-28.9	15.5	0.00e+00	0	42	0	637534208	15	4267
2026-01-10 02:25:09.70	307.55	22.42	-27.1	-28.1	16.0	0.00e+00	0	42	0	640679936	15	4055
2026-01-10 02:25:10.70	307.28	22.40	-26.9	-28.2	16.0	0.00e+00	0	42	0	643825664	14	4183
2026-01-10 02:25:11.69	307.01	22.38	-27.0	-28.4	16.1	0.00e+00	0	42	0	646971392	14	4237
2026-01-10 02:25:12.69	306.75	22.36	-27.0	-28.5	16.1	0.00e+00	0	42	0	650117120	14	4266
2026-01-10 02:25:13.69	306.48	22.33	-26.9	-28.1	16.3	0.00e+00	0	42	0	653262848	14	4165
2026-01-10 02:25:14.69	306.22	22.31	-27.2	-28.9	15.9	0.00e+00	0	42	0	656408576	14	4378
2026-01-10 02:25:15.69	305.95	22.29	-27.0	-28.5	16.0	0.00e+00	0	42	0	659554304	14	4262
2026-01-10 02:25:16.68	305.69	22.26	-27.0	-28.5	16.0	7.00e-07	0	42	0	662700032	14	4265
2026-01-10 02:25:17.67	305.43	22.24	-26.9	-28.3	16.1	0.00e+00	0	42	0	665845760	14	4216
2026-01-10 02:25:18.67	305.17	22.21	-26.9	-28.1	16.1	0.00e+00	0	42	0	668991488	14	4174
2026-01-10 02:25:19.66	304.91	22.18	-26.8	-28.0	16.2	0.00e+00	0	42	0	672137216	14	4133
2026-01-10 02:25:20.66	304.64	22.16	-26.7	-27.9	16.2	0.00e+00	0	42	0	675282944	14	4110
2026-01-10 02:25:21.66	304.38	22.13	-26.7	-27.7	16.2	0.00e+00	0	42	0	678428672	14	4072
2026-01-10 02:25:22.65	304.12	22.10	-26.7	-27.9	16.2	5.30e-06	0	42	0	681574400	14	4102
2026-01-10 02:25:23.65	303.86	22.07	-26.7	-27.9	16.2	0.00e+00	0	42	0	684720128	14	4103
2026-01-10 02:25:24.65	303.60	22.04	-26.8	-27.9	16.2	0.00e+00	0	42	0	687865856	14	4124
2026-01-10 02:25:25.65	303.34	22.01	-26.7	-27.8	16.2	1.50e-06	0	42	0	691011584	14	4081
2026-01-10 02:25:26.64	303.08	21.98	-26.7	-27.8	16.2	0.00e+00	0	42	0	694157312	14	4092
2026-01-10 02:25:27.64	302.83	21.95	-26.7	-27.9	16.1	0.00e+00	0	42	0	697303040	14	4112
2026-01-10 02:25:28.63	302.57	21.92	-26.7	-27.7	16.2	0.00e+00	0	42	0	700448768	14	4063
2026-01-10 02:25:29.63	302.31	21.88	-26.6	-27.6	16.2	0.00e+00	0	42	0	703594496	14	4051
2026-01-10 02:25:30.62	302.06	21.85	-27.2	-29.0	15.7	0.00e+00	0	42	0	705691648	14	4399
2026-01-10 02:25:31.62	301.80	21.82	-26.9	-28.3	15.9	1.50e-06	0	42	0	708837376	14	4216
2026-01-10 02:25:32.62	301.54	21.78	-27.1	-28.6	15.8	0.00e+00	0	42	0	711983104	14	4305
2026-01-10 02:25:33.62	301.29	21.75	-27.1	-28.6	15.9	0.00e+00	0	42	0	715128832	14	4297
2026-01-10 02:25:34.61	301.04	21.71	-26.9	-28.2	16.0	2.20e-06	0	42	0	718274560	14	4191
2026-01-10 02:25:35.60	300.78	21.68	-26.9	-28.3	16.0	0.00e+00	0	42	0	721420288	14	4218
2026-01-10 02:25:36.60	300.53	21.64	-26.9	-28.3	15.9	0.00e+00	0	42	0	724566016	14	4227
2026-01-10 02:25:37.60	300.28	21.60	-26.9	-28.2	16.0	0.00e+00	0	42	0	727711744	14	4207
2026-01-10 02:25:38.59	300.03	21.57	-26.9	-28.3	15.9	0.00e+00	0	42	0	730857472	14	4210
2026-01-10 02:25:39.58	299.78	21.53	-26.9	-28.3	15.9	0.00e+00	0	42	0	734003200	14	4234
2026-01-10 02:25:40.57	299.53	21.49	-26.9	-28.2	16.0	1.50e-06	0	42	0	737148928	14	4203
2026-01-10 02:25:41.56	299.28	21.45	-26.8	-28.1	16.1	0.00e+00	0	42	0	740294656	14	4153
2026-01-10 02:25:42.56	299.03	21.41	-26.9	-28.3	16.0	0.00e+00	0	42	0	743440384	14	4206
2026-01-10 02:25:43.55	298.78	21.37	-27.0	-28.4	15.9	1.50e-06	0	42	0	746586112	14	4253
2026-01-10 02:25:44.55	298.53	21.33	-27.0	-28.6	15.9	0.00e+00	0	42	0	749731840	14	4293
2026-01-10 02:25:45.54	298.29	21.29	-26.9	-28.2	16.0	0.00e+00	0	42	0	752877568	14	4201
2026-01-10 02:25:46.54	298.04	21.25	-26.9	-28.3	15.9	2.20e-06	0	42	0	756023296	14	4215
2026-01-10 02:25:47.53	297.79	21.21	-27.0	-28.4	15.9	0.00e+00	0	42	0	759169024	14	4254
2026-01-10 02:25:48.54	297.54	21.16	-27.0	-28.5	15.8	0.00e+00	0	42	0	762314752	14	4275
2026-01-10 02:25:49.53	297.30	21.12	-27.0	-28.6	15.7	2.20e-06	0	42	0	765460480	14	4311
2026-01-10 02:25:50.53	297.06	21.08	-27.1	-28.7	15.6	0.00e+00	0	42	0	768606208	14	4332
2026-01-10 02:25:51.51	296.82	21.03	-27.0	-28.5	15.7	0.00e+00	0	42	0	771751936	14	4292
2026-01-10 02:25:52.50	296.58	20.99	-26.9	-28.2	16.0	0.00e+00	0	42	0	774897664	14	4206
2026-01-10 02:25:53.50	296.33	20.95	-26.8	-28.1	15.9	0.00e+00	0	42	0	778043392	14	4176
2026-01-10 02:25:54.51	296.09	20.90	-27.0	-28.4	15.8	0.00e+00	0	42	0	781189120	14	4265
2026-01-10 02:25:55.50	295.85	20.85	-27.2	-28.9	15.5	2.20e-06	0	42	0	784334848	14	4388
2026-01-10 02:25:56.49	295.61	20.81	-27.1	-28.6	15.6	0.00e+00	0	42	0	787480576	14	4321
2026-01-10 02:25:57.49	295.37	20.76	-27.2	-28.9	15.5	0.00e+00	0	42	0	790626304	14	4395
2026-01-10 02:25:58.48	295.13	20.71	-27.1	-28.7	15.6	0.00e+00	0	42	0	792723456	14	4341
2026-01-10 02:25:59.48	294.90	20.67	-26.9	-28.4	15.7	0.00e+00	0	42	0	795869184	14	4242
2026-01-10 02:26:00.47	294.66	20.62	-26.9	-28.2	15.8	0.00e+00	0	42	0	799014912	14	4210
2026-01-10 02:26:01.47	294.42	20.57	-26.9	-28.3	15.8	0.00e+00	0	42	0	802160640	14	4235
2026-01-10 02:26:02.46	294.19	20.52	-26.9	-28.3	15.8	0.00e+00	0	42	0	805306368	14	4222
2026-01-10 02:26:03.47	293.95	20.47	-26.8	-28.1	15.9	0.00e+00	0	42	0	808452096	14	4168
2026-01-10 02:26:04.47	293.72	20.42	-26.7	-27.9	15.9	7.00e-07	0	42	0	811597824	14	4134
2026-01-10 02:26:05.46	293.48	20.37	-26.8	-28.1	15.9	0.00e+00	0	42	0	814743552	14	4165
2026-01-10 02:26:06.45	293.25	20.32	-27.1	-28.7	15.5	0.00e+00	0	42	0	817889280	14	4345
2026-01-10 02:26:07.45	293.02	20.27	-26.9	-28.3	15.7	0.00e+00	0	42	0	821035008	14	4240
2026-01-10 02:26:08.44	292.79	20.22	-27.0	-28.5	15.6	0.00e+00	0	42	0	824180736	14	4290
2026-01-10 02:26:09.43	292.56	20.17	-27.3	-29.1	15.4	0.00e+00	0	42	0	827326464	14	4456
2026-01-10 02:26:10.43	292.33	20.12	-27.2	-28.9	15.5	1.50e-06	0	42	0	830472192	14	4404
2026-01-10 02:26:11.42	292.11	20.06	-27.1	-28.6	15.7	0.00e+00	0	42	0	833617920	14	4311
2026-01-10 02:26:12.40	291.88	20.01	-26.8	-28.1	15.9	0.00e+00	0	42	0	836763648	14	4179
2026-01-10 02:26:13.40	291.65	19.96	-26.9	-28.2	15.9	0.00e+00	0	42	0	839909376	14	4213
2026-01-10 02:26:14.40	291.43	19.90	-27.2	-28.9	15.6	0.00e+00	0	42	0	843055104	14	4391
2026-01-10 02:26:15.39	291.20	19.85	-27.6	-29.4	15.0	0.00e+00	0	42	0	846200832	15	4436
2026-01-10 02:26:16.38	290.98	19.80	-27.3	-28.7	15.4	0.00e+00	0	42	0	849346560	15	4221
2026-01-10 02:26:17.38	290.76	19.74	-27.4	-28.9	15.3	0.00e+00	0	42	0	852492288	15	4286
2026-01-10 02:26:18.38	290.53	19.69	-27.5	-29.1	15.2	0.00e+00	0	42	0	855638016	15	4319
2026-01-10 02:26:19.37	290.31	19.63	-27.7	-29.6	14.9	0.00e+00	0	42	0	858783744	15	4469
2026-01-10 02:26:20.37	290.09	19.58	-27.4	-28.9	15.3	0.00e+00	0	42	0	861929472	15	4281
2026-01-10 02:26:21.37	289.87	19.52	-27.7	-29.6	15.1	0.00e+00	0	42	0	865075200	15	4468
2026-01-10 02:26:22.37	289.65	19.46	-27.3	-28.6	15.5	0.00e+00	0	42	0	868220928	15	4181
2026-01-10 02:26:23.37	289.43	19.41	-27.2	-28.3	15.6	0.00e+00	0	42	0	871366656	15	4120
2026-01-10 02:26:24.36	289.21	19.35	-27.1	-28.1	15.8	0.00e+00	0	42	0	874512384	15	4060
2026-01-10 02:26:25.36	288.99	19.29	-27.2	-28.4	15.6	0.00e+00	0	42	0	877658112	15	4127
2026-01-10 02:26:26.35	288.78	19.24	-27.2	-28.5	15.5	0.00e+00	0	42	0	879755264	15	4174
2026-01-10 02:26:27.34	288.56	19.18	-27.3	-28.7	15.4	0.00e+00	0	42	0	882900992	15	4223
2026-01-10 02:26:28.33	288.35	19.12	-27.6	-29.3	15.1	0.00e+00	0	42	0	886046720	15	4396
2026-01-10 02:26:29.32	288.14	19.06	-27.7	-29.5	15.0	7.00e-07	0	42	0	889192448	15	4458
2026-01-10 02:26:30.31	287.92	19.01	-27.9	-30.0	14.7	0.00e+00	0	42	0	892338176	15	4605
2026-01-10 02:26:31.31	287.71	18.95	-28.5	-30.3	14.3	2.20e-06	0	42	0	895483904	17	4442
2026-01-10 02:26:32.30	287.50	18.89	-28.0	-29.3	14.7	7.00e-07	0	42	0	898629632	17	4173
2026-01-10 02:26:33.30	287.29	18.83	-27.9	-29.1	14.8	7.00e-07	0	42	0	901775360	17	4115
2026-01-10 02:26:34.29	287.08	18.77	-28.0	-29.2	14.8	0.00e+00	0	42	0	904921088	17	4131
2026-01-10 02:26:35.29	286.87	18.71	-28.2	-29.7	14.5	0.00e+00	0	42	0	908066816	17	4267
2026-01-10 02:26:36.30	286.66	18.65	-28.1	-29.4	14.6	7.00e-07	0	42	0	911212544	17	4187
2026-01-10 02:26:37.30	286.45	18.59	-27.8	-28.9	14.9	0.00e+00	0	42	0	914358272	17	4056
2026-01-10 02:26:38.30	286.24	18.53	-27.9	-28.9	14.9	0.00e+00	0	42	0	917504000	17	4071
2026-01-10 02:26:39.29	286.04	18.47	-27.8	-28.9	14.9	0.00e+00	0	42	0	920649728	17	4051
2026-01-10 02:26:40.30	285.83	18.40	-27.6	-28.9	15.2	0.00e+00	0	42	0	923795456	16	4156
2026-01-10 02:26:41.30	285.63	18.34	-27.5	-28.5	15.3	0.00e+00	0	42	0	926941184	16	4074
2026-01-10 02:26:42.31	285.42	18.28	-27.3	-28.2	15.5	0.00e+00	0	42	0	930086912	16	3974
2026-01-10 02:26:43.31	285.22	18.22	-27.3	-28.2	15.4	0.00e+00	0	42	0	933232640	16	3993
2026-01-10 02:26:44.31	285.02	18.16	-27.0	-28.0	15.6	0.00e+00	0	42	0	936378368	15	4055
2026-01-10 02:26:45.32	284.81	18.09	-27.1	-28.2	15.6	0.00e+00	0	42	0	939524096	15	4097
2026-01-10 02:26:46.32	284.61	18.03	-27.2	-28.5	15.4	7.00e-07	0	42	0	942669824	15	4185
2026-01-10 02:26:47.31	284.41	17.97	-27.0	-28.1	15.6	0.00e+00	0	42	0	945815552	15	4074
2026-01-10 02:26:48.31	284.21	17.91	-27.4	-28.9	15.1	0.00e+00	0	42	0	948961280	15	4278
2026-01-10 02:26:49.31	284.02	17.84	-27.2	-28.5	15.3	7.00e-07	0	42	0	952107008	15	4170
2026-01-10 02:26:50.32	283.82	17.78	-27.3	-28.8	15.1	0.00e+00	0	42	0	955252736	15	4257
2026-01-10 02:26:51.32	283.62	17.72	-27.1	-28.2	15.4	0.00e+00	0	42	0	958398464	15	4101
2026-01-10 02:26:52.32	283.42	17.65	-27.1	-28.2	15.4	0.00e+00	0	42	0	961544192	15	4101
2026-01-10 02:26:53.33	283.23	17.59	-27.1	-28.3	15.3	0.00e+00	0	42	0	964689920	15	4138
2026-01-10 02:26:54.33	283.03	17.52	-27.1	-28.4	15.3	0.00e+00	0	42	0	967835648	15	4149
2026-01-10 02:26:55.33	282.84	17.46	-27.2	-28.4	15.3	0.00e+00	0	42	0	970981376	15	4159
2026-01-10 02:26:56.33	282.65	17.39	-27.2	-28.5	15.3	7.00e-07	0	42	0	974127104	15	4187
2026-01-10 02:26:57.33	282.46	17.33	-27.2	-28.6	15.2	0.00e+00	0	42	0	977272832	15	4211
2026-01-10 02:26:58.33	282.27	17.26	-27.3	-28.8	15.0	0.00e+00	0	42	0	980418560	15	4280
2026-01-10 02:26:59.33	282.08	17.20	-27.2	-28.6	15.2	0.00e+00	0	42	0	983564288	15	4206
2026-01-10 02:27:00.32	281.89	17.14	-27.2	-28.5	15.2	0.00e+00	0	42	0	986710016	15	4182
2026-01-10 02:27:01.33	281.70	17.07	-27.3	-28.7	15.1	0.00e+00	0	42	0	989855744	15	4236
2026-01-10 02:27:02.33	281.51	17.00	-27.4	-28.9	14.9	7.00e-07	0	42	0	993001472	15	4311
2026-01-10 02:27:03.33	281.32	16.94	-27.8	-29.8	14.4	0.00e+00	0	42	0	996147200	15	4561
2026-01-10 02:27:04.33	281.14	16.87	-27.7	-29.7	14.5	7.00e-07	0	42	0	999292928	15	4536
2026-01-10 02:27:05.33	280.95	16.81	-28.2	-30.3	14.1	1.50e-06	0	42	0	1002438656	16	4579
2026-01-10 02:27:06.33	280.77	16.74	-28.0	-29.9	14.3	1.50e-06	0	42	0	1005584384	16	4484
2026-01-10 02:27:07.34	280.58	16.67	-27.9	-29.7	14.4	0.00e+00	0	42	0	1008730112	16	4421
2026-01-10 02:27:08.34	280.40	16.61	-28.1	-30.1	14.2	0.00e+00	0	42	0	1011875840	16	4539
2026-01-10 02:27:09.34	280.22	16.54	-28.0	-29.9	14.3	0.00e+00	0	42	0	1015021568	16	4466
2026-01-10 02:27:10.35	280.04	16.48	-27.8	-29.5	14.5	7.00e-07	0	42	0	1018167296	16	4347
2026-01-10 02:27:11.35	279.86	16.41	-27.7	-29.2	14.7	7.00e-07	0	42	0	1021313024	16	4283
2026-01-10 02:27:12.35	279.68	16.34	-27.9	-29.7	14.4	1.50e-06	0	42	0	1024458752	16	4412
2026-01-10 02:27:13.36	279.50	16.28	-27.7	-29.1	14.7	0.00e+00	0	42	0	1027604480	16	4245
2026-01-10 02:27:14.36	279.32	16.21	-27.7	-29.1	14.7	0.00e+00	0	42	0	1030750208	16	4249
2026-01-10 02:27:15.35	279.15	16.14	-28.4	-30.9	13.7	0.00e+00	0	42	0	1033895936	16	4778
2026-01-10 02:27:16.36	278.97	16.07	-28.3	-29.9	14.0	6.10e-06	0	42	0	1035993088	17	4359
2026-01-10 02:27:17.35	278.79	16.01	-28.1	-29.6	14.2	7.00e-07	0	42	0	1039138816	17	4267
2026-01-10 02:27:18.35	278.62	15.94	-27.8	-29.4	14.7	7.00e-07	0	42	0	1042284544	16	4316
2026-01-10 02:27:19.35	278.45	15.87	-27.8	-29.2	14.7	0.00e+00	0	42	0	1045430272	16	4268
2026-01-10 02:27:20.35	278.27	15.81	-27.6	-28.8	14.9	0.00e+00	0	42	0	1048576000	16	4160
2026-01-10 02:27:21.34	278.10	15.74	-27.1	-28.3	15.4	0.00e+00	0	42	0	1051721728	15	4126
2026-01-10 02:27:22.35	277.93	15.67	-27.0	-28.0	15.6	0.00e+00	0	42	0	1054867456	15	4048
2026-01-10 02:27:23.34	277.76	15.60	-27.1	-28.2	15.5	0.00e+00	0	42	0	1058013184	15	4087
2026-01-10 02:27:24.35	277.59	15.54	-27.1	-28.4	15.3	0.00e+00	0	42	0	1061158912	15	4142
2026-01-10 02:27:25.35	277.42	15.47	-27.2	-28.6	15.2	0.00e+00	0	42	0	1064304640	15	4209
2026-01-10 02:27:26.35	277.25	15.40	-27.6	-29.4	14.8	0.00e+00	0	42	0	1067450368	15	4433
2026-01-10 02:27:27.35	277.08	15.33	-27.5	-29.1	14.9	0.00e+00	0	42	0	1070596096	15	4365
2026-01-10 02:27:28.36	276.92	15.26	-27.5	-29.2	14.8	0.00e+00	0	42	0	1073741824	15	4395
2026-01-10 02:27:29.36	276.75	15.20	-27.3	-28.7	15.0	0.00e+00	0	42	0	1076887552	15	4253
2026-01-10 02:27:30.36	276.58	15.13	-27.2	-28.6	15.1	0.00e+00	0	42	0	1080033280	15	4217
2026-01-10 02:27:31.36	276.42	15.06	-27.2	-28.4	15.2	7.00e-07	0	42	0	1083179008	15	4174
2026-01-10 02:27:32.36	276.26	14.99	-27.3	-28.7	15.0	0.00e+00	0	42	0	1086324736	15	4252
2026-01-10 02:27:33.35	276.09	14.93	-27.1	-28.3	15.2	0.00e+00	0	42	0	1089470464	15	4139
2026-01-10 02:27:34.35	275.93	14.86	-27.2	-28.6	15.0	0.00e+00	0	42	0	1092616192	15	4217
2026-01-10 02:27:35.35	275.77	14.79	-27.3	-28.7	15.0	0.00e+00	0	42	0	1095761920	15	4246
2026-01-10 02:27:36.35	275.61	14.72	-27.4	-28.9	14.9	0.00e+00	0	42	0	1098907648	15	4310
2026-01-10 02:27:37.35	275.45	14.65	-27.6	-29.6	14.5	0.00e+00	0	42	0	1102053376	15	4494
2026-01-10 02:27:38.35	275.29	14.58	-27.9	-30.1	14.1	2.20e-06	0	42	0	1105199104	15	4659
2026-01-10 02:27:39.35	275.13	14.52	-27.9	-30.1	14.1	7.00e-07	0	42	0	1108344832	15	4673
2026-01-10 02:27:40.35	274.97	14.45	-28.0	-30.0	14.1	3.00e-06	0	42	0	1111490560	16	4508
2026-01-10 02:27:41.35	274.82	14.38	-27.8	-29.5	14.3	7.00e-07	0	42	0	1114636288	16	4368
2026-01-10 02:27:42.36	274.66	14.31	-27.7	-29.2	14.5	7.00e-07	0	42	0	1117782016	16	4263
2026-01-10 02:27:43.36	274.50	14.24	-27.7	-29.1	14.6	0.00e+00	0	42	0	1120927744	16	4254
2026-01-10 02:27:44.36	274.35	14.17	-27.9	-29.5	14.3	2.20e-06	0	42	0	1124073472	16	4373
2026-01-10 02:27:45.37	274.19	14.10	-27.4	-28.5	14.9	0.00e+00	0	42	0	1127219200	16	4081
2026-01-10 02:27:46.37	274.04	14.04	-27.4	-28.4	15.0	0.00e+00	0	42	0	1130364928	16	4055
2026-01-10 02:27:47.37	273.89	13.97	-27.4	-28.4	15.0	0.00e+00	0	42	0	1133510656	16	4043
2026-01-10 02:27:48.38	273.73	13.90	-27.3	-28.3	15.0	0.00e+00	0	42	0	1136656384	16	4017
2026-01-10 02:27:49.38	273.58	13.83	-27.0	-28.2	15.2	0.00e+00	0	42	0	1139802112	15	4109
2026-01-10 02:27:50.38	273.43	13.76	-27.3	-28.9	14.8	0.00e+00	0	42	0	1142947840	15	4299
2026-01-10 02:27:51.38	273.28	13.69	-27.7	-29.6	14.4	7.00e-07	0	42	0	1146093568	15	4515
2026-01-10 02:27:52.39	273.13	13.62	-27.3	-28.9	14.8	0.00e+00	0	42	0	1149239296	15	4310
2026-01-10 02:27:53.39	272.98	13.55	-27.1	-28.4	15.0	0.00e+00	0	42	0	1152385024	15	4178
2026-01-10 02:27:54.40	272.83	13.49	-27.1	-28.4	15.0	0.00e+00	0	42	0	1155530752	15	4178
2026-01-10 02:27:55.40	272.69	13.42	-27.7	-29.6	14.4	0.00e+00	0	42	0	1158676480	15	4516
2026-01-10 02:27:56.40	272.54	13.35	-27.4	-29.0	14.7	0.00e+00	0	42	0	1161822208	15	4334
2026-01-10 02:27:57.40	272.40	13.28	-27.5	-29.2	14.6	0.00e+00	0	42	0	1164967936	15	4388
2026-01-10 02:27:58.40	272.25	13.21	-27.4	-29.0	14.6	0.00e+00	0	42	0	1168113664	15	4350
2026-01-10 02:27:59.40	272.11	13.14	-27.4	-28.9	14.7	0.00e+00	0	42	0	1171259392	15	4320
2026-01-10 02:28:00.40	271.96	13.07	-27.4	-29.0	14.7	0.00e+00	0	42	0	1174405120	15	4340
2026-01-10 02:28:01.41	271.82	13.01	-27.6	-29.6	14.3	0.00e+00	0	42	0	1177550848	15	4517
2026-01-10 02:28:02.41	271.68	12.94	-27.7	-29.7	14.2	0.00e+00	0	42	0	1180696576	15	4559
2026-01-10 02:28:03.42	271.53	12.87	-27.9	-30.3	13.9	3.80e-06	0	42	0	1183842304	15	4720
2026-01-10 02:28:04.42	271.39	12.80	-28.2	-30.4	13.8	4.50e-06	0	42	0	1186988032	16	4623
2026-01-10 02:28:05.43	271.25	12.73	-28.3	-30.2	13.5	1.75e-05	0	42	0	1190133760	17	4469
2026-01-10 02:28:06.43	271.11	12.66	-28.4	-30.3	13.5	1.14e-05	0	42	0	1193279488	17	4497
2026-01-10 02:28:07.43	270.97	12.59	-28.4	-30.3	13.5	1.67e-05	0	42	0	1196425216	17	4490
2026-01-10 02:28:08.44	270.83	12.52	-28.6	-30.7	13.3	2.44e-05	0	42	0	1199570944	17	4626
2026-01-10 02:28:09.44	270.69	12.46	-28.4	-30.3	13.5	1.29e-05	0	42	0	1202716672	17	4495
2026-01-10 02:28:10.44	270.56	12.39	-28.1	-29.7	13.8	4.50e-06	0	42	0	1205862400	17	4327
2026-01-10 02:28:11.44	270.42	12.32	-27.9	-29.1	14.2	1.50e-06	0	42	0	1209008128	17	4150
2026-01-10 02:28:12.44	270.29	12.25	-27.9	-29.1	14.2	2.20e-06	0	42	0	1212153856	17	4149
2026-01-10 02:28:13.43	270.15	12.18	-27.7	-29.2	14.4	3.80e-06	0	42	0	1215299584	16	4279
2026-01-10 02:28:14.43	270.02	12.12	-27.7	-29.1	14.5	7.00e-07	0	42	0	1218445312	16	4257
2026-01-10 02:28:15.43	269.88	12.05	-27.9	-29.7	14.2	0.00e+00	0	42	0	1221591040	16	4407
2026-01-10 02:28:16.43	269.75	11.98	-28.3	-30.6	13.6	6.10e-06	0	42	0	1224736768	16	4695
2026-01-10 02:28:17.43	269.62	11.91	-28.4	-30.4	13.5	1.90e-05	0	42	0	1227882496	17	4511
2026-01-10 02:28:18.42	269.49	11.84	-28.6	-30.8	13.2	3.20e-05	0	42	0	1231028224	17	4643
2026-01-10 02:28:19.42	269.36	11.78	-28.6	-30.8	13.2	1.75e-05	0	42	0	1234173952	17	4657
2026-01-10 02:28:20.42	269.23	11.71	-28.7	-31.1	13.0	3.66e-05	0	42	0	1237319680	17	4748
2026-01-10 02:28:21.43	269.09	11.64	-28.7	-31.1	13.0	3.81e-05	0	42	0	1240465408	17	4746
2026-01-10 02:28:22.43	268.96	11.57	-28.6	-31.0	13.0	3.28e-05	0	42	0	1242562560	17	4711
2026-01-10 02:28:23.43	268.84	11.50	-28.5	-30.7	13.1	3.81e-05	0	42	0	1245708288	17	4645
2026-01-10 02:28:24.44	268.71	11.44	-28.7	-31.2	12.8	4.65e-05	0	42	0	1248854016	17	4793
2026-01-10 02:28:25.44	268.58	11.37	-28.7	-31.2	12.9	7.40e-05	0	42	0	1251999744	17	4787
2026-01-10 02:28:26.45	268.45	11.30	-28.6	-31.0	12.9	3.73e-05	0	42	0	1255145472	17	4733
2026-01-10 02:28:27.45	268.32	11.23	-28.6	-30.9	13.0	4.42e-05	0	42	0	1258291200	17	4701
2026-01-10 02:28:28.46	268.20	11.16	-28.7	-31.1	12.8	4.80e-05	0	42	0	1261436928	17	4775
2026-01-10 02:28:29.46	268.07	11.10	-28.5	-30.7	13.1	4.73e-05	0	42	0	1264582656	17	4628
2026-01-10 02:28:30.46	267.95	11.03	-28.2	-30.0	13.5	2.28e-05	0	42	0	1267728384	17	4432
2026-01-10 02:28:31.47	267.82	10.96	-28.1	-29.7	13.6	9.10e-06	0	42	0	1270874112	17	4342
2026-01-10 02:28:32.47	267.70	10.89	-27.9	-29.3	13.9	2.20e-06	0	42	0	1274019840	17	4220
2026-01-10 02:28:33.47	267.57	10.83	-28.0	-29.5	13.8	9.10e-06	0	42	0	1277165568	17	4266
2026-01-10 02:28:34.47	267.45	10.76	-28.3	-30.2	13.4	1.06e-05	0	42	0	1280311296	17	4470
2026-01-10 02:28:35.48	267.33	10.69	-28.3	-30.1	13.4	2.51e-05	0	42	0	1283457024	17	4450
2026-01-10 02:28:36.48	267.21	10.62	-28.2	-29.9	13.5	9.10e-06	0	42	0	1286602752	17	4395
2026-01-10 02:28:37.49	267.09	10.56	-28.3	-30.1	13.4	1.67e-05	0	42	0	1289748480	17	4462
2026-01-10 02:28:38.49	266.97	10.49	-28.5	-30.6	13.1	3.89e-05	0	42	0	1292894208	17	4600
2026-01-10 02:28:39.49	266.85	10.42	-28.5	-30.7	13.0	3.73e-05	0	42	0	1296039936	17	4633
2026-01-10 02:28:40.49	266.73	10.36	-28.5	-30.8	12.9	5.11e-05	0	42	0	1299185664	17	4678
2026-01-10 02:28:41.49	266.61	10.29	-28.6	-31.0	12.8	6.56e-05	0	42	0	1302331392	17	4737
2026-01-10 02:28:42.49	266.49	10.22	-28.6	-31.0	12.8	6.10e-05	0	42	0	1305477120	17	4741
2026-01-10 02:28:43.49	266.37	10.16	-28.7	-31.2	12.6	7.55e-05	0	42	0	1308622848	17	4818
2026-01-10 02:28:44.49	266.26	10.09	-28.7	-31.2	12.7	7.32e-05	0	42	0	1311768576	17	4799
2026-01-10 02:28:45.47	266.14	10.02	-28.6	-31.0	12.8	7.93e-05	0	42	0	1314914304	17	4756
2026-01-10 02:28:46.46	266.03	9.96	-28.5	-30.7	13.0	3.81e-05	0	42	0	1318060032	17	4651
2026-01-10 02:28:47.46	265.91	9.89	-28.5	-30.7	13.0	3.66e-05	0	42	0	1321205760	17	4635
2026-01-10 02:28:48.47	265.80	9.83	-28.5	-30.6	13.0	4.34e-05	0	42	0	1324351488	17	4613
2026-01-10 02:28:49.47	265.68	9.76	-28.4	-30.6	13.0	5.34e-05	0	42	0	1327497216	17	4601
2026-01-10 02:28:50.47	265.57	9.69	-28.7	-31.1	12.7	5.34e-05	0	42	0	1330642944	17	4775
2026-01-10 02:28:51.48	265.46	9.63	-28.4	-30.4	13.2	4.50e-05	0	42	0	1333788672	17	4538
2026-01-10 02:28:52.48	265.34	9.56	-28.3	-30.2	13.2	2.05e-05	0	42	0	1336934400	17	4491
2026-01-10 02:28:53.48	265.23	9.49	-28.4	-30.5	13.1	3.66e-05	0	42	0	1340080128	17	4577
2026-01-10 02:28:54.48	265.12	9.43	-28.4	-30.6	13.0	5.34e-05	0	42	0	1343225856	17	4606
2026-01-10 02:28:55.48	265.01	9.36	-28.4	-30.4	13.1	2.82e-05	0	42	0	1346371584	17	4542
2026-01-10 02:28:56.49	264.90	9.30	-28.4	-30.4	13.1	2.67e-05	0	42	0	1349517312	17	4555
2026-01-10 02:28:57.48	264.79	9.23	-28.6	-31.0	12.8	3.73e-05	0	42	0	1352663040	17	4728
2026-01-10 02:28:58.49	264.68	9.16	-28.5	-30.7	12.9	4.04e-05	0	42	0	1355808768	17	4642
2026-01-10 02:28:59.48	264.57	9.10	-28.5	-30.8	12.9	4.80e-05	0	42	0	1358954496	17	4666
2026-01-10 02:29:00.48	264.46	9.03	-28.5	-30.8	12.8	4.88e-05	0	42	0	1362100224	17	4687
2026-01-10 02:29:01.48	264.35	8.97	-28.6	-31.0	12.8	7.55e-05	0	42	0	1365245952	17	4745
2026-01-10 02:29:02.48	264.24	8.90	-28.8	-31.4	12.5	8.77e-05	0	42	0	1368391680	17	4879
2026-01-10 02:29:03.48	264.14	8.84	-29.0	-31.4	12.2	2.65e-04	0	42	0	1371537408	18	4784
2026-01-10 02:29:04.48	264.03	8.77	-28.8	-31.0	12.5	1.52e-04	0	42	0	1374683136	18	4624
2026-01-10 02:29:05.49	263.92	8.71	-28.9	-31.2	12.2	1.22e-04	0	42	0	1377828864	18	4714
2026-01-10 02:29:06.50	263.82	8.64	-28.9	-31.4	12.1	2.20e-04	0	42	0	1380974592	18	4756
2026-01-10 02:29:07.50	263.71	8.58	-29.0	-31.7	11.9	4.36e-04	0	42	0	1384120320	18	4861
2026-01-10 02:29:08.49	263.61	8.51	-29.1	-31.8	11.9	2.88e-04	0	42	0	1387266048	18	4917
2026-01-10 02:29:09.50	263.50	8.45	-29.3	-32.4	11.4	1.06e-03	0	42	0	1390411776	18	5113
2026-01-10 02:29:10.50	263.40	8.38	-29.3	-32.4	11.5	7.54e-04	0	42	0	1393557504	18	5130
2026-01-10 02:29:11.50	263.30	8.32	-29.6	-32.6	11.0	1.55e-03	0	42	0	1396703232	19	5090
2026-01-10 02:29:12.50	263.19	8.25	-29.6	-32.8	10.8	2.22e-03	0	42	0	1399848960	19	5156
2026-01-10 02:29:13.50	263.09	8.19	-29.9	-33.4	10.4	2.77e-03	0	42	0	1402994688	19	5406
2026-01-10 02:29:14.50	262.99	8.12	-29.9	-32.9	10.3	5.57e-03	0	42	0	1406140416	20	5126
2026-01-10 02:29:15.51	262.89	8.06	-29.6	-32.3	10.7	2.85e-03	0	42	0	1409286144	20	4885
2026-01-10 02:29:16.51	262.79	7.99	-29.3	-31.4	11.3	1.32e-03	0	42	0	1412431872	20	4573
2026-01-10 02:29:17.52	262.69	7.93	-29.5	-32.6	11.0	1.47e-03	0	42	0	1415577600	19	5091
2026-01-10 02:29:18.51	262.59	7.87	-29.5	-32.3	11.1	1.80e-03	0	42	0	1418723328	19	4991
2026-01-10 02:29:19.52	262.49	7.80	-29.2	-31.6	11.6	8.77e-04	0	42	0	1421869056	19	4736
2026-01-10 02:29:20.52	262.39	7.74	-29.5	-32.4	11.1	1.62e-03	0	42	0	1425014784	19	5020
2026-01-10 02:29:21.53	262.29	7.67	-29.2	-31.6	11.6	5.14e-04	0	42	0	1428160512	19	4760
2026-01-10 02:29:22.54	262.19	7.61	-29.2	-31.7	11.5	7.61e-04	0	42	0	1431306240	19	4772
2026-01-10 02:29:23.54	262.09	7.54	-29.3	-31.9	11.3	1.09e-03	0	42	0	1434451968	19	4872
2026-01-10 02:29:24.55	261.99	7.48	-29.2	-31.8	11.4	1.78e-03	0	42	0	1437597696	19	4806
2026-01-10 02:29:25.55	261.90	7.42	-29.0	-31.1	11.8	7.78e-04	0	42	0	1440743424	19	4583
2026-01-10 02:29:26.55	261.80	7.35	-28.8	-31.1	12.2	1.79e-04	0	42	0	1443889152	18	4676
2026-01-10 02:29:27.56	261.70	7.29	-28.8	-31.1	12.1	2.62e-04	0	42	0	1447034880	18	4689
2026-01-10 02:29:28.57	261.61	7.22	-28.9	-31.3	12.0	3.88e-04	0	42	0	1450180608	18	4750
2026-01-10 02:29:29.57	261.51	7.16	-29.1	-31.9	11.6	5.60e-04	0	42	0	1453326336	18	4974
2026-01-10 02:29:30.57	261.42	7.10	-29.0	-31.6	11.7	5.61e-04	0	42	0	1456472064	18	4881
2026-01-10 02:29:31.58	261.32	7.03	-32.7	-44.3	3.8	2.73e-02	0	42	104	1458569216	25	13687
2026-01-10 02:29:32.58	261.23	6.97	-33.1	-45.0	3.8	1.49e+00	0	42	104	1458569216	26	14219

#Closed at: 2026-01-10 02:29:33
#Recorded file [1458 MB]: D:/data/31010_260110_052144.dat