passes_logs/2026/01/10/R2M6_AANII_01/R2M6_AANII_01__20260110_071533_FENGYUN_3E_rec.log

#Pass ID: 20260110_071533_FENGYUN 3E
#Satellite: FENGYUN 3E
#Configuration: FENGYUN 3E
#almurnet v.1.7.20240730
#Start time: 2026-01-10 07:15:32

#Version: 2.2.20231116
#Station: R2M6_AANII_01
#Location: 30.233357 lon 59.946436 lat
#TLE: 1 49008U 21062A   26009.29780149 -.00000002  00000+0  19895-4 0  9997
#TLE: 2 49008  98.7484  14.4929 0001744 148.2300 211.8982 14.19883977234036

#Time	Az	El	Level	Level2	SNR	BER	BlckErr	Temp	State	Recorded	gain1	gain2
2026-01-10 07:15:32.77	8.29	6.95	-32.5	-38.8	3.9	8.43e-01	0	39	0	0	26	7480
2026-01-10 07:15:33.76	8.17	7.00	-31.2	-34.6	4.7	8.05e-01	0	39	104	0	23	5340
2026-01-10 07:15:34.75	8.06	7.06	-31.5	-35.3	6.2	2.28e-01	0	40	0	0	23	5568
2026-01-10 07:15:35.76	7.94	7.11	-31.7	-36.2	5.6	2.53e-01	0	40	0	6291456	23	6004
2026-01-10 07:15:36.76	7.82	7.16	-30.9	-33.8	7.3	1.46e-01	0	40	0	13631488	22	5059
2026-01-10 07:15:37.77	7.70	7.22	-30.7	-33.5	7.3	1.28e-01	0	40	0	20971520	22	4954
2026-01-10 07:15:38.77	7.58	7.27	-30.5	-32.9	7.7	9.95e-02	0	40	0	28311552	22	4745
2026-01-10 07:15:39.77	7.46	7.32	-31.1	-34.5	6.9	1.62e-01	0	40	0	35651584	22	5351
2026-01-10 07:15:40.77	7.34	7.37	-30.6	-33.5	7.8	8.20e-02	0	40	0	42991616	21	5031
2026-01-10 07:15:41.78	7.22	7.43	-30.1	-32.2	8.7	1.12e-01	0	40	0	50331648	21	4572
2026-01-10 07:15:42.77	7.10	7.48	-29.8	-31.9	9.1	2.18e-02	0	40	0	57671680	20	4558
2026-01-10 07:15:43.78	6.98	7.53	-29.8	-32.1	9.7	1.80e-02	0	40	0	63963136	19	4679
2026-01-10 07:15:44.78	6.86	7.59	-29.5	-30.9	10.0	1.66e-02	0	40	0	71303168	20	4228
2026-01-10 07:15:45.78	6.73	7.64	-30.2	-32.8	8.9	2.64e-02	0	40	0	78643200	20	4838
2026-01-10 07:15:46.79	6.61	7.69	-30.2	-32.3	8.7	2.04e-02	0	40	0	85983232	21	4555
2026-01-10 07:15:47.79	6.49	7.75	-29.8	-31.6	9.5	1.62e-02	0	40	0	93323264	20	4452
2026-01-10 07:15:48.80	6.36	7.80	-29.1	-30.3	10.7	4.28e-03	0	40	0	100663296	19	4147
2026-01-10 07:15:49.80	6.24	7.85	-28.7	-29.8	11.4	1.41e-03	0	40	0	108003328	18	4086
2026-01-10 07:15:50.81	6.11	7.90	-28.1	-28.9	12.1	2.64e-04	0	40	0	115343360	17	3965
2026-01-10 07:15:51.82	5.99	7.96	-27.8	-28.6	12.5	8.58e-05	0	40	0	122683392	16	3983
2026-01-10 07:15:52.82	5.86	8.01	-27.0	-27.4	13.3	2.28e-05	0	40	0	130023424	15	3766
2026-01-10 07:15:53.82	5.74	8.06	-27.0	-27.5	13.2	2.40e-05	0	40	0	137363456	15	3804
2026-01-10 07:15:54.82	5.61	8.12	-26.8	-27.5	13.5	1.25e-05	0	40	0	143654912	14	3913
2026-01-10 07:15:55.82	5.48	8.17	-26.9	-27.8	13.4	1.94e-05	0	40	0	150994944	14	3969
2026-01-10 07:15:56.83	5.35	8.22	-26.9	-27.7	13.4	1.37e-05	0	40	0	158334976	14	3944
2026-01-10 07:15:57.83	5.23	8.27	-26.8	-27.6	13.4	1.14e-05	0	40	0	165675008	14	3918
2026-01-10 07:15:58.82	5.10	8.33	-27.2	-28.4	12.9	4.00e-05	0	40	0	173015040	14	4141
2026-01-10 07:15:59.83	4.97	8.38	-26.9	-27.7	13.3	1.60e-05	0	40	0	180355072	14	3957
2026-01-10 07:16:00.83	4.84	8.43	-26.6	-27.0	13.8	4.50e-06	0	41	0	187695104	14	3774
2026-01-10 07:16:01.83	4.71	8.48	-26.6	-27.1	13.7	1.25e-05	0	40	0	195035136	14	3812
2026-01-10 07:16:02.82	4.58	8.54	-27.2	-28.3	13.2	2.17e-05	0	41	0	202375168	14	4098
2026-01-10 07:16:03.83	4.45	8.59	-27.0	-28.0	13.3	1.37e-05	0	40	0	208666624	14	4020
2026-01-10 07:16:04.82	4.32	8.64	-26.9	-27.7	13.5	1.48e-05	0	40	0	216006656	14	3935
2026-01-10 07:16:05.82	4.19	8.69	-27.0	-27.9	13.3	1.48e-05	0	40	0	223346688	14	3996
2026-01-10 07:16:06.82	4.05	8.74	-27.0	-27.9	13.2	2.51e-05	0	41	0	230686720	14	4018
2026-01-10 07:16:07.82	3.92	8.80	-27.2	-28.3	13.0	3.20e-05	0	40	0	238026752	14	4113
2026-01-10 07:16:08.82	3.79	8.85	-26.9	-27.7	13.4	2.40e-05	0	41	0	245366784	14	3956
2026-01-10 07:16:09.83	3.65	8.90	-27.4	-28.9	12.7	4.46e-05	0	41	0	252706816	14	4270
2026-01-10 07:16:10.84	3.52	8.95	-27.2	-28.5	12.9	1.10e-04	0	41	0	260046848	14	4177
2026-01-10 07:16:11.84	3.38	9.01	-26.9	-27.8	13.3	2.63e-05	0	41	0	267386880	14	3990
2026-01-10 07:16:12.84	3.25	9.06	-26.9	-27.7	13.3	1.94e-05	0	41	0	273678336	14	3968
2026-01-10 07:16:13.84	3.11	9.11	-26.9	-27.6	13.4	1.37e-05	0	41	0	281018368	14	3937
2026-01-10 07:16:14.84	2.98	9.16	-26.9	-27.8	13.3	1.48e-05	0	41	0	288358400	14	3971
2026-01-10 07:16:15.84	2.84	9.21	-26.8	-27.6	13.4	2.74e-05	0	41	0	295698432	14	3917
2026-01-10 07:16:16.84	2.70	9.27	-27.0	-27.8	13.4	1.25e-05	0	41	0	303038464	14	3979
2026-01-10 07:16:17.84	2.57	9.32	-26.8	-27.6	13.6	2.05e-05	0	41	0	310378496	14	3909
2026-01-10 07:16:18.84	2.43	9.37	-26.6	-27.1	13.8	1.14e-05	0	41	0	317718528	14	3800
2026-01-10 07:16:19.85	2.29	9.42	-26.7	-27.3	13.7	5.70e-06	0	41	0	325058560	14	3838
2026-01-10 07:16:20.85	2.15	9.47	-26.7	-27.3	13.9	9.10e-06	0	41	0	331350016	14	3833
2026-01-10 07:16:21.84	2.01	9.52	-26.5	-26.9	14.0	2.20e-06	0	41	0	338690048	14	3744
2026-01-10 07:16:22.84	1.87	9.57	-26.3	-26.9	14.2	1.10e-06	0	41	0	346030080	13	3845
2026-01-10 07:16:23.84	1.73	9.63	-26.7	-27.6	13.8	6.80e-06	0	41	0	353370112	13	4037
2026-01-10 07:16:24.85	1.59	9.68	-26.5	-27.3	14.0	2.20e-06	0	41	0	360710144	13	3951
2026-01-10 07:16:25.86	1.44	9.73	-26.6	-27.6	13.8	5.70e-06	0	41	0	368050176	13	4030
2026-01-10 07:16:26.86	1.30	9.78	-26.9	-28.2	13.4	2.17e-05	0	41	0	375390208	13	4194
2026-01-10 07:16:27.86	1.16	9.83	-26.8	-27.9	13.6	8.00e-06	0	41	0	382730240	13	4112
2026-01-10 07:16:28.87	1.01	9.88	-27.3	-28.6	12.9	3.54e-05	0	41	0	390070272	14	4200
2026-01-10 07:16:29.86	0.87	9.93	-27.2	-28.4	13.0	8.46e-05	0	41	0	396361728	14	4137
2026-01-10 07:16:30.87	0.73	9.99	-27.1	-28.2	13.1	2.28e-05	0	41	0	404750336	14	4082
2026-01-10 07:16:31.87	0.58	10.04	-27.5	-29.2	12.5	1.14e-04	0	41	0	412090368	14	4366
2026-01-10 07:16:32.87	0.44	10.09	-27.2	-27.9	13.0	4.46e-05	0	41	0	418381824	15	3892
2026-01-10 07:16:33.88	0.29	10.14	-27.0	-27.4	13.3	1.71e-05	0	41	0	425721856	15	3767
2026-01-10 07:16:34.88	0.14	10.19	-26.7	-27.3	13.7	5.70e-06	0	41	0	433061888	14	3847
2026-01-10 07:16:35.88	360.00	10.24	-26.6	-27.1	13.8	5.70e-06	0	41	0	440401920	14	3807
2026-01-10 07:16:36.89	359.85	10.29	-26.7	-27.2	13.8	1.14e-05	0	41	0	447741952	14	3816
2026-01-10 07:16:37.89	359.70	10.34	-26.7	-27.2	13.8	3.40e-06	0	41	0	455081984	14	3820
2026-01-10 07:16:38.90	359.55	10.39	-26.8	-27.4	13.7	8.00e-06	0	41	0	462422016	14	3872
2026-01-10 07:16:39.89	359.40	10.44	-26.7	-27.2	13.7	5.70e-06	0	41	0	469762048	14	3826
2026-01-10 07:16:40.89	359.25	10.49	-26.8	-27.4	13.6	9.10e-06	0	41	0	476053504	14	3886
2026-01-10 07:16:41.89	359.10	10.54	-26.8	-27.4	13.6	6.80e-06	0	41	0	483393536	14	3875
2026-01-10 07:16:42.89	358.95	10.59	-26.8	-27.6	13.6	9.10e-06	0	41	0	490733568	14	3917
2026-01-10 07:16:43.90	358.80	10.64	-27.1	-28.3	13.2	2.51e-05	0	41	0	498073600	14	4088
2026-01-10 07:16:44.90	358.65	10.69	-27.1	-28.2	13.2	1.83e-05	0	41	0	505413632	14	4083
2026-01-10 07:16:45.90	358.49	10.74	-27.3	-28.6	13.1	5.03e-05	0	41	0	512753664	14	4169
2026-01-10 07:16:46.91	358.34	10.79	-27.1	-28.2	13.2	4.57e-05	0	41	0	520093696	14	4067
2026-01-10 07:16:47.90	358.19	10.84	-27.1	-28.1	13.3	2.74e-05	0	41	0	527433728	14	4044
2026-01-10 07:16:48.90	358.04	10.89	-26.9	-27.7	13.5	2.40e-05	0	41	0	534773760	14	3933
2026-01-10 07:16:49.90	357.88	10.94	-26.6	-26.9	14.0	5.70e-06	0	41	0	541065216	14	3748
2026-01-10 07:16:50.91	357.72	10.99	-26.8	-27.5	13.6	1.14e-05	0	41	0	548405248	14	3889
2026-01-10 07:16:51.91	357.57	11.04	-26.6	-27.0	13.9	1.10e-06	0	41	0	555745280	14	3783
2026-01-10 07:16:52.92	357.41	11.09	-26.7	-27.1	13.8	5.70e-06	0	41	0	563085312	14	3801
2026-01-10 07:16:53.93	357.25	11.14	-26.8	-27.5	13.6	6.80e-06	0	41	0	570425344	14	3899
2026-01-10 07:16:54.92	357.10	11.19	-26.7	-27.1	13.8	4.50e-06	0	41	0	577765376	14	3808
2026-01-10 07:16:55.93	356.94	11.23	-27.2	-28.3	13.1	1.37e-05	0	41	0	585105408	14	4112
2026-01-10 07:16:56.92	356.78	11.28	-27.0	-28.0	13.3	4.23e-05	0	41	0	592445440	14	4022
2026-01-10 07:16:57.92	356.63	11.33	-26.5	-26.8	14.0	5.70e-06	0	41	0	599785472	14	3728
2026-01-10 07:16:58.93	356.46	11.38	-26.9	-27.7	13.5	3.40e-06	0	42	0	607125504	14	3940
2026-01-10 07:16:59.93	356.31	11.43	-27.2	-28.2	13.3	1.94e-05	0	41	0	614465536	14	4076
2026-01-10 07:17:00.93	356.14	11.48	-27.1	-28.1	13.4	1.48e-05	0	42	0	621805568	14	4043
2026-01-10 07:17:01.93	355.98	11.52	-27.1	-28.0	13.5	5.70e-06	0	41	0	628097024	14	4024
2026-01-10 07:17:02.93	355.82	11.57	-27.1	-28.1	13.4	1.48e-05	0	42	0	635437056	14	4040
2026-01-10 07:17:03.94	355.66	11.62	-27.6	-29.2	12.7	4.92e-05	0	41	0	642777088	14	4341
2026-01-10 07:17:04.94	355.50	11.67	-27.1	-28.2	13.3	2.28e-05	0	41	0	650117120	14	4063
2026-01-10 07:17:05.95	355.33	11.72	-26.4	-26.6	14.2	6.80e-06	0	42	0	657457152	14	3680
2026-01-10 07:17:06.95	355.17	11.76	-26.7	-27.1	13.9	8.00e-06	0	42	0	664797184	14	3799
2026-01-10 07:17:07.94	355.01	11.81	-26.5	-26.7	14.1	1.10e-06	0	41	0	672137216	14	3701
2026-01-10 07:17:08.95	354.84	11.86	-26.4	-27.1	14.2	1.10e-06	0	41	0	679477248	13	3885
2026-01-10 07:17:09.95	354.68	11.90	-26.4	-27.2	14.1	3.40e-06	0	41	0	685768704	13	3911
2026-01-10 07:17:10.94	354.51	11.95	-27.2	-28.4	13.2	2.20e-06	0	41	0	693108736	14	4128
2026-01-10 07:17:11.94	354.35	12.00	-27.5	-29.1	12.9	4.23e-05	0	42	0	700448768	14	4299
2026-01-10 07:17:12.94	354.18	12.04	-27.3	-28.0	13.3	1.94e-05	0	42	0	707788800	15	3904
2026-01-10 07:17:13.94	354.01	12.09	-26.7	-27.1	14.0	3.40e-06	0	41	0	715128832	14	3796
2026-01-10 07:17:14.94	353.85	12.14	-26.7	-27.1	14.1	1.10e-06	0	41	0	722468864	14	3789
2026-01-10 07:17:15.95	353.68	12.18	-26.8	-27.4	14.0	3.40e-06	0	41	0	729808896	14	3847
2026-01-10 07:17:16.94	353.51	12.23	-27.0	-27.9	13.7	4.50e-06	0	41	0	737148928	14	3975
2026-01-10 07:17:17.94	353.34	12.27	-27.4	-28.7	13.3	1.02e-05	0	42	0	744488960	14	4198
2026-01-10 07:17:18.93	353.17	12.32	-27.0	-27.9	13.7	1.37e-05	0	42	0	750780416	14	3988
2026-01-10 07:17:19.94	353.00	12.36	-26.6	-27.0	14.2	0.00e+00	0	41	0	758120448	14	3752
2026-01-10 07:17:20.94	352.83	12.41	-26.2	-26.7	14.6	0.00e+00	0	42	0	765460480	13	3781
2026-01-10 07:17:21.94	352.66	12.45	-26.2	-26.6	14.7	0.00e+00	0	41	0	772800512	13	3758
2026-01-10 07:17:22.94	352.49	12.50	-26.1	-26.4	14.9	0.00e+00	0	42	0	780140544	13	3722
2026-01-10 07:17:23.94	352.31	12.54	-26.4	-27.1	14.5	0.00e+00	0	42	0	787480576	13	3877
2026-01-10 07:17:24.95	352.14	12.59	-26.2	-26.5	14.6	0.00e+00	0	42	0	794820608	13	3752
2026-01-10 07:17:25.95	351.96	12.63	-26.4	-27.0	14.5	0.00e+00	0	42	0	802160640	13	3851
2026-01-10 07:17:26.96	351.79	12.68	-26.1	-26.3	14.9	0.00e+00	0	42	0	809500672	13	3701
2026-01-10 07:17:27.95	351.62	12.72	-26.1	-26.3	15.0	0.00e+00	0	42	0	815792128	13	3688
2026-01-10 07:17:28.95	351.44	12.76	-26.1	-26.3	15.0	0.00e+00	0	42	0	823132160	13	3701
2026-01-10 07:17:29.95	351.27	12.81	-26.3	-26.8	14.6	1.10e-06	0	41	0	830472192	13	3810
2026-01-10 07:17:30.96	351.09	12.85	-26.3	-26.7	14.8	0.00e+00	0	42	0	837812224	13	3778
2026-01-10 07:17:31.96	350.91	12.89	-26.1	-26.4	14.9	0.00e+00	0	42	0	845152256	13	3708
2026-01-10 07:17:32.97	350.73	12.94	-26.4	-27.0	14.7	0.00e+00	0	42	0	852492288	13	3854
2026-01-10 07:17:33.97	350.55	12.98	-26.2	-26.6	14.9	0.00e+00	0	42	0	859832320	13	3747
2026-01-10 07:17:34.97	350.38	13.02	-26.3	-26.7	14.8	0.00e+00	0	42	0	867172352	13	3783
2026-01-10 07:17:35.97	350.20	13.07	-26.3	-26.7	14.8	0.00e+00	0	42	0	874512384	13	3794
2026-01-10 07:17:36.97	350.02	13.11	-27.0	-28.2	14.0	1.10e-06	0	42	0	881852416	13	4162
2026-01-10 07:17:37.97	349.84	13.15	-26.7	-27.6	14.3	2.20e-06	0	42	0	889192448	13	4001
2026-01-10 07:17:38.97	349.66	13.19	-26.9	-28.0	14.1	3.40e-06	0	42	0	895483904	13	4096
2026-01-10 07:17:39.97	349.48	13.23	-26.8	-27.4	14.2	2.20e-06	0	42	0	902823936	14	3840
2026-01-10 07:17:40.97	349.30	13.27	-26.7	-27.1	14.2	0.00e+00	0	42	0	910163968	14	3778
2026-01-10 07:17:41.97	349.11	13.31	-26.8	-27.3	14.1	0.00e+00	0	42	0	917504000	14	3831
2026-01-10 07:17:42.97	348.93	13.36	-27.0	-27.9	13.7	5.70e-06	0	42	0	924844032	14	3980
2026-01-10 07:17:43.97	348.75	13.40	-26.6	-26.9	14.3	1.10e-06	0	41	0	932184064	14	3733
2026-01-10 07:17:44.97	348.56	13.44	-26.7	-27.6	14.3	1.10e-06	0	42	0	939524096	13	4003
2026-01-10 07:17:45.96	348.38	13.48	-26.5	-27.1	14.6	0.00e+00	0	42	0	945815552	13	3878
2026-01-10 07:17:46.97	348.20	13.52	-26.1	-26.4	14.9	1.10e-06	0	42	0	954204160	13	3714
2026-01-10 07:17:47.97	348.01	13.56	-26.4	-26.9	14.8	0.00e+00	0	42	0	960495616	13	3841
2026-01-10 07:17:48.97	347.83	13.60	-26.2	-26.5	15.0	0.00e+00	0	42	0	967835648	13	3734
2026-01-10 07:17:49.97	347.64	13.64	-26.0	-26.0	15.2	0.00e+00	0	42	0	975175680	13	3621
2026-01-10 07:17:50.97	347.45	13.67	-25.7	-25.9	15.5	0.00e+00	0	42	0	982515712	12	3688
2026-01-10 07:17:51.98	347.26	13.71	-25.6	-25.8	15.6	0.00e+00	0	42	0	989855744	12	3669
2026-01-10 07:17:52.98	347.08	13.75	-25.6	-25.8	15.5	0.00e+00	0	42	0	997195776	12	3667
2026-01-10 07:17:53.98	346.89	13.79	-25.7	-25.9	15.4	0.00e+00	0	42	0	1004535808	12	3697
2026-01-10 07:17:54.98	346.70	13.83	-25.6	-25.8	15.4	0.00e+00	0	42	0	1011875840	12	3669
2026-01-10 07:17:55.99	346.51	13.87	-25.8	-26.2	15.2	0.00e+00	0	42	0	1019215872	12	3759
2026-01-10 07:17:56.99	346.32	13.90	-26.1	-26.8	14.9	0.00e+00	0	42	0	1025507328	12	3906
2026-01-10 07:17:58.00	346.13	13.94	-25.9	-26.4	15.2	0.00e+00	0	42	0	1032847360	12	3807
2026-01-10 07:17:59.00	345.94	13.98	-25.8	-26.2	15.2	0.00e+00	0	42	0	1040187392	12	3759
2026-01-10 07:18:00.00	345.75	14.02	-26.1	-26.8	14.9	0.00e+00	0	42	0	1047527424	12	3921
2026-01-10 07:18:01.00	345.56	14.05	-26.0	-26.7	15.0	0.00e+00	0	42	0	1054867456	12	3876
2026-01-10 07:18:02.01	345.36	14.09	-26.0	-26.7	14.9	1.10e-06	0	42	0	1062207488	12	3894
2026-01-10 07:18:03.00	345.17	14.12	-26.1	-26.9	14.8	1.10e-06	0	42	0	1069547520	12	3930
2026-01-10 07:18:04.00	344.98	14.16	-25.7	-26.0	15.2	0.00e+00	0	42	0	1076887552	12	3731
2026-01-10 07:18:05.00	344.78	14.20	-25.6	-25.7	15.4	0.00e+00	0	42	0	1083179008	12	3664
2026-01-10 07:18:06.01	344.59	14.23	-25.6	-25.8	15.3	0.00e+00	0	42	0	1090519040	12	3677
2026-01-10 07:18:07.01	344.39	14.27	-25.4	-25.4	15.5	0.00e+00	0	42	0	1097859072	12	3591
2026-01-10 07:18:08.02	344.20	14.30	-25.7	-25.9	15.2	0.00e+00	0	42	0	1105199104	12	3708
2026-01-10 07:18:09.02	344.00	14.34	-25.6	-25.8	15.3	0.00e+00	0	42	0	1112539136	12	3676
2026-01-10 07:18:10.02	343.81	14.37	-25.8	-26.2	15.0	1.10e-06	0	42	0	1119879168	12	3775
2026-01-10 07:18:11.02	343.61	14.40	-26.4	-27.6	14.3	0.00e+00	0	42	0	1127219200	12	4110
2026-01-10 07:18:12.03	343.41	14.44	-25.9	-26.4	15.0	0.00e+00	0	42	0	1134559232	12	3827
2026-01-10 07:18:13.03	343.22	14.47	-25.6	-25.8	15.4	0.00e+00	0	42	0	1141899264	12	3666
2026-01-10 07:18:14.03	343.02	14.50	-25.6	-25.7	15.5	0.00e+00	0	42	0	1149239296	12	3638
2026-01-10 07:18:15.03	342.82	14.54	-25.5	-25.5	15.5	0.00e+00	0	42	0	1156579328	12	3609
2026-01-10 07:18:16.03	342.62	14.57	-25.4	-25.4	15.6	0.00e+00	0	42	0	1163919360	12	3579
2026-01-10 07:18:17.04	342.42	14.60	-25.5	-25.5	15.5	0.00e+00	0	42	0	1170210816	12	3615
2026-01-10 07:18:18.04	342.22	14.63	-25.5	-25.6	15.5	0.00e+00	0	42	0	1177550848	12	3631
2026-01-10 07:18:19.05	342.02	14.66	-25.5	-25.5	15.5	0.00e+00	0	42	0	1184890880	12	3622
2026-01-10 07:18:20.05	341.82	14.70	-25.5	-26.0	15.5	0.00e+00	0	42	0	1192230912	11	3809
2026-01-10 07:18:21.06	341.62	14.73	-25.5	-26.0	15.5	0.00e+00	0	42	0	1199570944	11	3826
2026-01-10 07:18:22.06	341.42	14.76	-25.4	-25.8	15.7	0.00e+00	0	42	0	1206910976	11	3760
2026-01-10 07:18:23.06	341.22	14.79	-25.4	-25.9	15.6	0.00e+00	0	42	0	1214251008	11	3791
2026-01-10 07:18:24.07	341.01	14.82	-25.7	-26.4	15.4	0.00e+00	0	42	0	1221591040	11	3909
2026-01-10 07:18:25.07	340.81	14.85	-25.3	-25.6	15.8	0.00e+00	0	42	0	1228931072	11	3728
2026-01-10 07:18:26.07	340.61	14.88	-25.2	-25.5	15.8	0.00e+00	0	42	0	1236271104	11	3694
2026-01-10 07:18:27.07	340.40	14.90	-25.3	-25.7	15.8	0.00e+00	0	42	0	1243611136	11	3745
2026-01-10 07:18:28.07	340.20	14.93	-25.3	-25.6	15.7	0.00e+00	0	42	0	1249902592	11	3734
2026-01-10 07:18:29.07	340.00	14.96	-25.2	-25.4	15.8	0.00e+00	0	42	0	1257242624	11	3687
2026-01-10 07:18:30.08	339.79	14.99	-25.3	-25.6	15.7	0.00e+00	0	42	0	1264582656	11	3717
2026-01-10 07:18:31.08	339.59	15.02	-25.2	-25.3	15.9	0.00e+00	0	42	0	1271922688	11	3666
2026-01-10 07:18:32.08	339.38	15.04	-25.2	-25.4	15.8	0.00e+00	0	42	0	1279262720	11	3678
2026-01-10 07:18:33.08	339.18	15.07	-25.2	-25.3	15.8	0.00e+00	0	42	0	1286602752	11	3667
2026-01-10 07:18:34.09	338.97	15.10	-25.2	-25.4	15.8	0.00e+00	0	42	0	1293942784	11	3678
2026-01-10 07:18:35.09	338.76	15.12	-25.3	-25.5	15.9	0.00e+00	0	42	0	1301282816	11	3702
2026-01-10 07:18:36.09	338.56	15.15	-25.1	-25.2	16.0	0.00e+00	0	42	0	1308622848	11	3642
2026-01-10 07:18:37.10	338.35	15.17	-25.4	-25.9	15.6	0.00e+00	0	42	0	1314914304	11	3793
2026-01-10 07:18:38.10	338.14	15.20	-25.1	-25.1	16.0	0.00e+00	0	42	0	1322254336	11	3615
2026-01-10 07:18:39.10	337.93	15.22	-24.8	-25.0	16.3	0.00e+00	0	42	0	1329594368	10	3694
2026-01-10 07:18:40.10	337.72	15.25	-24.8	-25.1	16.3	0.00e+00	0	42	0	1336934400	10	3706
2026-01-10 07:18:41.11	337.51	15.27	-24.9	-25.3	16.2	0.00e+00	0	42	0	1344274432	10	3760
2026-01-10 07:18:42.11	337.30	15.30	-24.8	-25.1	16.3	0.00e+00	0	42	0	1351614464	10	3703
2026-01-10 07:18:43.11	337.10	15.32	-24.7	-24.8	16.4	0.00e+00	0	42	0	1358954496	10	3645
2026-01-10 07:18:44.11	336.89	15.34	-24.8	-25.1	16.3	0.00e+00	0	42	0	1366294528	10	3705
2026-01-10 07:18:45.11	336.68	15.37	-24.8	-25.1	16.2	0.00e+00	0	42	0	1373634560	10	3723
2026-01-10 07:18:46.12	336.47	15.39	-24.9	-25.3	16.2	0.00e+00	0	42	0	1380974592	10	3745
2026-01-10 07:18:47.12	336.26	15.41	-25.0	-25.5	16.0	0.00e+00	0	42	0	1388314624	10	3807
2026-01-10 07:18:48.12	336.04	15.43	-24.9	-25.2	16.2	0.00e+00	0	42	0	1395654656	10	3742
2026-01-10 07:18:49.13	335.83	15.45	-25.1	-25.7	15.9	0.00e+00	0	42	0	1401946112	10	3851
2026-01-10 07:18:50.12	335.62	15.47	-25.1	-25.7	15.9	0.00e+00	0	42	0	1409286144	10	3863
2026-01-10 07:18:51.13	335.41	15.49	-24.9	-25.3	16.1	0.00e+00	0	42	0	1416626176	10	3760
2026-01-10 07:18:52.13	335.20	15.51	-25.2	-26.0	15.8	0.00e+00	0	42	0	1423966208	10	3930
2026-01-10 07:18:53.13	334.99	15.53	-25.3	-26.1	15.7	0.00e+00	0	42	0	1431306240	10	3960
2026-01-10 07:18:54.13	334.77	15.55	-25.6	-26.3	15.4	0.00e+00	0	42	0	1438646272	11	3889
2026-01-10 07:18:55.14	334.56	15.57	-24.9	-24.7	16.2	0.00e+00	0	42	0	1445986304	11	3523
2026-01-10 07:18:56.15	334.34	15.59	-25.2	-25.8	15.9	0.00e+00	0	42	0	1453326336	10	3874
2026-01-10 07:18:57.14	334.13	15.61	-25.0	-25.4	16.1	0.00e+00	0	42	0	1459617792	10	3776
2026-01-10 07:18:58.14	333.92	15.63	-24.9	-25.3	16.2	0.00e+00	0	42	0	1466957824	10	3755
2026-01-10 07:18:59.15	333.70	15.64	-24.7	-24.8	16.4	0.00e+00	0	42	0	1474297856	10	3655
2026-01-10 07:19:00.16	333.49	15.66	-24.7	-24.8	16.5	0.00e+00	0	42	0	1481637888	10	3634
2026-01-10 07:19:01.16	333.27	15.68	-24.6	-24.7	16.5	0.00e+00	0	42	0	1488977920	10	3617
2026-01-10 07:19:02.15	333.06	15.69	-24.9	-25.2	16.2	0.00e+00	0	42	0	1496317952	10	3738
2026-01-10 07:19:03.15	332.85	15.71	-24.8	-24.9	16.4	0.00e+00	0	42	0	1503657984	10	3669
2026-01-10 07:19:04.15	332.63	15.72	-24.5	-24.4	16.6	0.00e+00	0	42	0	1510998016	10	3567
2026-01-10 07:19:05.15	332.42	15.74	-24.6	-24.6	16.5	0.00e+00	0	42	0	1518338048	10	3590
2026-01-10 07:19:06.15	332.20	15.75	-24.6	-24.5	16.5	0.00e+00	0	42	0	1524629504	10	3588
2026-01-10 07:19:07.16	331.98	15.77	-24.8	-25.0	16.3	0.00e+00	0	42	0	1531969536	10	3683
2026-01-10 07:19:08.16	331.77	15.78	-24.7	-24.9	16.4	0.00e+00	0	42	0	1539309568	10	3655
2026-01-10 07:19:09.16	331.55	15.79	-24.8	-25.0	16.3	0.00e+00	0	42	0	1546649600	10	3694
2026-01-10 07:19:10.16	331.34	15.81	-24.8	-25.0	16.4	0.00e+00	0	42	0	1553989632	10	3701
2026-01-10 07:19:11.17	331.12	15.82	-24.7	-24.8	16.5	0.00e+00	0	42	0	1561329664	10	3644
2026-01-10 07:19:12.17	330.90	15.83	-24.8	-25.0	16.4	0.00e+00	0	42	0	1568669696	10	3684
2026-01-10 07:19:13.17	330.68	15.84	-24.7	-24.9	16.4	0.00e+00	0	42	0	1576009728	10	3658
2026-01-10 07:19:14.17	330.47	15.85	-24.6	-24.6	16.5	0.00e+00	0	42	0	1583349760	10	3604
2026-01-10 07:19:15.18	330.25	15.87	-24.6	-24.5	16.5	0.00e+00	0	42	0	1590689792	10	3586
2026-01-10 07:19:16.18	330.03	15.88	-24.6	-24.6	16.4	0.00e+00	0	42	0	1598029824	10	3607
2026-01-10 07:19:17.18	329.81	15.89	-24.5	-24.3	16.6	0.00e+00	0	42	0	1605369856	10	3541
2026-01-10 07:19:18.19	329.59	15.90	-24.4	-24.6	16.7	0.00e+00	0	42	0	1611661312	9	3696
2026-01-10 07:19:19.19	329.38	15.91	-24.7	-25.3	16.3	0.00e+00	0	42	0	1619001344	9	3862
2026-01-10 07:19:20.19	329.16	15.91	-24.6	-25.1	16.5	0.00e+00	0	42	0	1626341376	9	3816
2026-01-10 07:19:21.19	328.94	15.92	-24.5	-24.9	16.6	0.00e+00	0	42	0	1633681408	9	3763
2026-01-10 07:19:22.20	328.72	15.93	-24.7	-25.3	16.3	0.00e+00	0	42	0	1641021440	9	3871
2026-01-10 07:19:23.20	328.50	15.94	-24.6	-25.1	16.4	0.00e+00	0	42	0	1648361472	9	3815
2026-01-10 07:19:24.20	328.29	15.94	-24.7	-25.3	16.3	0.00e+00	0	42	0	1655701504	9	3875
2026-01-10 07:19:25.20	328.07	15.95	-24.8	-25.5	16.2	0.00e+00	0	42	0	1663041536	9	3914
2026-01-10 07:19:26.21	327.85	15.96	-24.6	-25.2	16.4	0.00e+00	0	42	0	1669332992	9	3831
2026-01-10 07:19:27.21	327.63	15.96	-24.6	-25.1	16.4	0.00e+00	0	42	0	1676673024	9	3816
2026-01-10 07:19:28.21	327.41	15.97	-24.5	-24.8	16.6	0.00e+00	0	42	0	1684013056	9	3739
2026-01-10 07:19:29.21	327.19	15.97	-24.6	-25.1	16.4	0.00e+00	0	42	0	1691353088	9	3820
2026-01-10 07:19:30.22	326.97	15.98	-24.5	-25.0	16.5	0.00e+00	0	42	0	1698693120	9	3791
2026-01-10 07:19:31.22	326.75	15.98	-24.4	-24.7	16.6	0.00e+00	0	42	0	1706033152	9	3725
2026-01-10 07:19:32.23	326.53	15.99	-24.5	-24.9	16.5	0.00e+00	0	42	0	1713373184	9	3775
2026-01-10 07:19:33.24	326.31	15.99	-24.5	-24.9	16.5	0.00e+00	0	42	0	1720713216	9	3769
2026-01-10 07:19:34.23	326.09	15.99	-24.6	-25.0	16.5	0.00e+00	0	42	0	1728053248	9	3804
2026-01-10 07:19:35.23	325.87	16.00	-24.6	-25.1	16.4	0.00e+00	0	42	0	1735393280	9	3823
2026-01-10 07:19:36.23	325.65	16.00	-24.7	-25.2	16.3	0.00e+00	0	42	0	1742733312	9	3850
2026-01-10 07:19:37.23	325.44	16.00	-24.8	-25.5	16.2	0.00e+00	0	42	0	1750073344	9	3909
2026-01-10 07:19:38.23	325.22	16.00	-24.7	-25.3	16.3	0.00e+00	0	42	0	1756364800	9	3864
2026-01-10 07:19:39.23	325.00	16.00	-24.8	-25.5	16.2	0.00e+00	0	42	0	1763704832	9	3919
2026-01-10 07:19:40.23	324.78	16.00	-24.8	-25.5	16.2	0.00e+00	0	42	0	1771044864	9	3924
2026-01-10 07:19:41.23	324.56	16.00	-24.7	-25.3	16.3	0.00e+00	0	42	0	1778384896	9	3872
2026-01-10 07:19:42.23	324.34	16.00	-24.7	-25.4	16.3	0.00e+00	0	42	0	1785724928	9	3882
2026-01-10 07:19:43.23	324.12	16.00	-24.7	-25.3	16.3	0.00e+00	0	42	0	1793064960	9	3872
2026-01-10 07:19:44.24	323.90	16.00	-24.7	-25.4	16.2	0.00e+00	0	42	0	1800404992	9	3890
2026-01-10 07:19:45.25	323.68	16.00	-24.7	-25.4	16.3	0.00e+00	0	42	0	1807745024	9	3884
2026-01-10 07:19:46.24	323.46	15.99	-24.8	-25.5	16.2	0.00e+00	0	42	0	1814036480	9	3908
2026-01-10 07:19:47.25	323.24	15.99	-24.9	-25.7	16.1	0.00e+00	0	42	0	1821376512	9	3967
2026-01-10 07:19:48.25	323.02	15.99	-24.8	-25.5	16.2	0.00e+00	0	42	0	1828716544	9	3915
2026-01-10 07:19:49.26	322.80	15.99	-24.8	-25.5	16.2	0.00e+00	0	42	0	1836056576	9	3916
2026-01-10 07:19:50.26	322.58	15.98	-24.8	-25.6	16.1	0.00e+00	0	42	0	1843396608	9	3948
2026-01-10 07:19:51.27	322.36	15.98	-24.8	-25.5	16.2	0.00e+00	0	42	0	1850736640	9	3904
2026-01-10 07:19:52.27	322.14	15.97	-24.6	-25.2	16.3	0.00e+00	0	42	0	1858076672	9	3841
2026-01-10 07:19:53.27	321.92	15.97	-24.7	-25.3	16.2	0.00e+00	0	42	0	1865416704	9	3875
2026-01-10 07:19:54.27	321.70	15.96	-24.6	-25.1	16.4	0.00e+00	0	42	0	1872756736	9	3815
2026-01-10 07:19:55.27	321.49	15.96	-24.4	-24.8	16.6	0.00e+00	0	42	0	1880096768	9	3744
2026-01-10 07:19:56.28	321.26	15.95	-24.5	-24.8	16.5	0.00e+00	0	42	0	1887436800	9	3751
2026-01-10 07:19:57.28	321.05	15.94	-24.5	-24.8	16.5	0.00e+00	0	42	0	1894776832	9	3751
2026-01-10 07:19:58.28	320.83	15.93	-24.5	-24.8	16.5	0.00e+00	0	42	0	1901068288	9	3753
2026-01-10 07:19:59.29	320.61	15.93	-24.5	-24.9	16.5	0.00e+00	0	42	0	1908408320	9	3773
2026-01-10 07:20:00.30	320.39	15.92	-24.4	-24.8	16.6	0.00e+00	0	42	0	1915748352	9	3739
2026-01-10 07:20:01.30	320.17	15.91	-24.6	-25.2	16.4	0.00e+00	0	42	0	1923088384	9	3842
2026-01-10 07:20:02.30	319.95	15.90	-24.5	-25.0	16.5	0.00e+00	0	42	0	1930428416	9	3788
2026-01-10 07:20:03.31	319.73	15.89	-24.5	-24.9	16.6	0.00e+00	0	42	0	1937768448	9	3765
2026-01-10 07:20:04.31	319.51	15.88	-24.6	-25.2	16.4	0.00e+00	0	42	0	1945108480	9	3836
2026-01-10 07:20:05.32	319.30	15.87	-24.8	-25.5	16.3	0.00e+00	0	42	0	1952448512	9	3911
2026-01-10 07:20:06.31	319.08	15.86	-24.9	-25.8	16.2	0.00e+00	0	42	0	1959788544	9	3978
2026-01-10 07:20:07.31	318.86	15.85	-24.9	-25.7	16.3	0.00e+00	0	42	0	1966080000	9	3966
2026-01-10 07:20:08.32	318.64	15.84	-25.0	-25.5	16.1	0.00e+00	0	42	0	1974468608	10	3813
2026-01-10 07:20:09.32	318.43	15.83	-24.6	-24.7	16.6	0.00e+00	0	42	0	1981808640	10	3618
2026-01-10 07:20:10.32	318.21	15.81	-24.4	-24.2	16.8	0.00e+00	0	42	0	1988100096	10	3522
2026-01-10 07:20:11.33	317.99	15.80	-24.6	-24.5	16.6	0.00e+00	0	42	0	1995440128	10	3580
2026-01-10 07:20:12.33	317.78	15.79	-24.6	-24.5	16.7	0.00e+00	0	42	0	2002780160	10	3575
2026-01-10 07:20:13.33	317.56	15.78	-24.6	-24.6	16.7	0.00e+00	0	42	0	2010120192	10	3592
2026-01-10 07:20:14.33	317.34	15.76	-24.7	-24.7	16.6	0.00e+00	0	42	0	2017460224	10	3624
2026-01-10 07:20:15.33	317.13	15.75	-24.6	-24.6	16.6	0.00e+00	0	42	0	2024800256	10	3611
2026-01-10 07:20:16.33	316.91	15.73	-24.7	-24.9	16.5	0.00e+00	0	42	0	2032140288	10	3657
2026-01-10 07:20:17.33	316.70	15.72	-24.7	-24.9	16.5	0.00e+00	0	42	0	2039480320	10	3665
2026-01-10 07:20:18.34	316.48	15.70	-24.7	-24.8	16.4	0.00e+00	0	42	0	2045771776	10	3641
2026-01-10 07:20:19.34	316.27	15.69	-24.9	-25.1	16.2	0.00e+00	0	42	0	2053111808	10	3722
2026-01-10 07:20:20.34	316.05	15.67	-25.0	-25.4	16.1	0.00e+00	0	42	0	2060451840	10	3788
2026-01-10 07:20:21.34	315.84	15.65	-25.1	-25.7	16.0	0.00e+00	0	42	0	2067791872	10	3860
2026-01-10 07:20:22.35	315.62	15.64	-25.3	-26.1	15.8	0.00e+00	0	42	0	2075131904	10	3948
2026-01-10 07:20:23.35	315.41	15.62	-24.8	-25.1	16.3	0.00e+00	0	42	0	2082471936	10	3722
2026-01-10 07:20:24.36	315.19	15.60	-25.0	-25.4	16.1	0.00e+00	0	42	0	2089811968	10	3774
2026-01-10 07:20:25.35	314.98	15.58	-25.1	-25.6	16.0	0.00e+00	0	42	0	2097152000	10	3830
2026-01-10 07:20:26.35	314.77	15.56	-24.9	-25.2	16.1	0.00e+00	0	42	0	2104492032	10	3722
2026-01-10 07:20:27.36	314.55	15.54	-25.2	-25.8	15.8	0.00e+00	0	42	0	2110783488	10	3879
2026-01-10 07:20:28.36	314.34	15.52	-25.2	-25.8	15.8	0.00e+00	0	42	0	2118123520	10	3884
2026-01-10 07:20:29.35	314.13	15.51	-24.8	-25.1	16.4	0.00e+00	0	42	0	2125463552	10	3699
2026-01-10 07:20:30.36	313.92	15.48	-24.8	-25.1	16.3	0.00e+00	0	42	0	2132803584	10	3711
2026-01-10 07:20:31.36	313.70	15.46	-24.8	-25.1	16.3	0.00e+00	0	42	0	2140143616	10	3720
2026-01-10 07:20:32.36	313.49	15.44	-25.0	-25.5	16.0	0.00e+00	0	42	0	2147483648	10	3809
2026-01-10 07:20:33.36	313.28	15.42	-24.9	-25.2	16.2	0.00e+00	0	42	0	2154823680	10	3731
2026-01-10 07:20:34.37	313.07	15.40	-25.5	-25.5	15.5	0.00e+00	0	42	0	2162163712	12	3605
2026-01-10 07:20:35.38	312.86	15.38	-25.2	-25.3	15.9	0.00e+00	0	42	0	2169503744	11	3664
2026-01-10 07:20:36.38	312.65	15.36	-25.0	-25.0	16.0	0.00e+00	0	42	0	2176843776	11	3594
2026-01-10 07:20:37.39	312.43	15.33	-25.2	-25.8	16.0	0.00e+00	0	42	0	2184183808	10	3886
2026-01-10 07:20:38.39	312.23	15.31	-25.3	-25.6	15.7	0.00e+00	0	42	0	2191523840	11	3712
2026-01-10 07:20:39.38	312.02	15.29	-25.0	-25.0	16.2	0.00e+00	0	42	0	2197815296	11	3586
2026-01-10 07:20:40.39	311.81	15.26	-25.0	-24.9	16.2	0.00e+00	0	42	0	2205155328	11	3564
2026-01-10 07:20:41.40	311.60	15.24	-24.9	-24.8	16.2	0.00e+00	0	42	0	2212495360	11	3551
2026-01-10 07:20:42.40	311.39	15.21	-24.9	-25.3	16.2	0.00e+00	0	42	0	2219835392	10	3752
2026-01-10 07:20:43.40	311.18	15.19	-24.9	-25.3	16.2	0.00e+00	0	42	0	2227175424	10	3756
2026-01-10 07:20:44.40	310.97	15.16	-24.9	-25.2	16.3	0.00e+00	0	42	0	2234515456	10	3736
2026-01-10 07:20:45.40	310.77	15.14	-25.2	-25.8	15.9	0.00e+00	0	42	0	2241855488	10	3885
2026-01-10 07:20:46.40	310.56	15.11	-25.4	-26.2	15.6	0.00e+00	0	42	0	2249195520	10	3985
2026-01-10 07:20:47.40	310.35	15.08	-25.1	-25.7	15.8	0.00e+00	0	42	0	2255486976	10	3852
2026-01-10 07:20:48.40	310.15	15.06	-25.5	-26.0	15.5	0.00e+00	0	42	0	2262827008	11	3816
2026-01-10 07:20:49.40	309.94	15.03	-24.9	-24.8	16.1	0.00e+00	0	42	0	2270167040	11	3560
2026-01-10 07:20:50.41	309.73	15.00	-25.2	-25.4	15.9	0.00e+00	0	42	0	2277507072	11	3688
2026-01-10 07:20:51.41	309.53	14.98	-26.0	-27.2	14.9	0.00e+00	0	42	0	2284847104	11	4109
2026-01-10 07:20:52.41	309.33	14.95	-26.1	-26.3	14.8	1.10e-06	0	42	0	2292187136	13	3700
2026-01-10 07:20:53.42	309.12	14.92	-25.8	-26.2	15.1	0.00e+00	0	42	0	2299527168	12	3772
2026-01-10 07:20:54.41	308.92	14.89	-25.3	-25.5	15.8	0.00e+00	0	42	0	2306867200	11	3714
2026-01-10 07:20:55.42	308.71	14.86	-25.3	-25.5	15.8	0.00e+00	0	42	0	2314207232	11	3710
2026-01-10 07:20:56.42	308.51	14.83	-25.2	-25.3	15.9	0.00e+00	0	42	0	2321547264	11	3663
2026-01-10 07:20:57.43	308.30	14.80	-25.8	-26.2	15.1	0.00e+00	0	42	0	2328887296	12	3782
2026-01-10 07:20:58.44	308.10	14.77	-26.3	-27.3	14.7	0.00e+00	0	42	0	2336227328	12	4033
2026-01-10 07:20:59.44	307.90	14.74	-26.2	-26.6	14.6	2.20e-06	0	42	0	2342518784	13	3749
2026-01-10 07:21:00.44	307.70	14.71	-25.7	-26.1	15.1	1.10e-06	0	42	0	2349858816	12	3751
2026-01-10 07:21:01.44	307.50	14.68	-25.7	-26.0	15.3	0.00e+00	0	42	0	2357198848	12	3712
2026-01-10 07:21:02.45	307.29	14.65	-25.5	-25.5	15.6	0.00e+00	0	42	0	2364538880	12	3610
2026-01-10 07:21:03.45	307.09	14.62	-25.5	-25.6	15.5	0.00e+00	0	42	0	2371878912	12	3641
2026-01-10 07:21:04.45	306.90	14.59	-25.5	-26.1	15.5	0.00e+00	0	42	0	2379218944	11	3839
2026-01-10 07:21:05.44	306.70	14.55	-25.9	-26.8	15.2	0.00e+00	0	42	0	2386558976	11	4013
2026-01-10 07:21:06.44	306.50	14.52	-25.2	-25.5	15.9	0.00e+00	0	42	0	2393899008	11	3696
2026-01-10 07:21:07.44	306.30	14.49	-24.9	-24.7	16.2	0.00e+00	0	42	0	2400190464	11	3525
2026-01-10 07:21:08.45	306.10	14.45	-24.9	-25.3	16.2	0.00e+00	0	42	0	2407530496	10	3751
2026-01-10 07:21:09.45	305.90	14.42	-25.0	-25.5	16.1	0.00e+00	0	42	0	2414870528	10	3801
2026-01-10 07:21:10.46	305.71	14.39	-25.1	-25.6	16.0	0.00e+00	0	42	0	2422210560	10	3832
2026-01-10 07:21:11.45	305.51	14.35	-25.1	-25.6	16.0	0.00e+00	0	42	0	2429550592	10	3823
2026-01-10 07:21:12.45	305.31	14.32	-25.1	-25.8	16.0	0.00e+00	0	42	0	2436890624	10	3866
2026-01-10 07:21:13.45	305.12	14.28	-25.2	-25.9	15.8	0.00e+00	0	42	0	2444230656	10	3896
2026-01-10 07:21:14.46	304.92	14.25	-25.2	-25.8	15.8	0.00e+00	0	42	0	2451570688	10	3887
2026-01-10 07:21:15.45	304.73	14.21	-25.2	-26.0	15.7	0.00e+00	0	42	0	2458910720	10	3917
2026-01-10 07:21:16.46	304.53	14.18	-25.3	-26.2	15.5	0.00e+00	0	42	0	2465202176	10	3981
2026-01-10 07:21:17.46	304.34	14.14	-25.1	-25.7	15.8	0.00e+00	0	42	0	2472542208	10	3863
2026-01-10 07:21:18.46	304.15	14.11	-25.1	-25.8	15.8	0.00e+00	0	42	0	2479882240	10	3866
2026-01-10 07:21:19.46	303.95	14.07	-25.1	-25.8	15.8	0.00e+00	0	42	0	2487222272	10	3878
2026-01-10 07:21:20.46	303.76	14.04	-25.1	-25.6	15.8	0.00e+00	0	42	0	2494562304	10	3841
2026-01-10 07:21:21.47	303.57	14.00	-25.2	-25.8	15.7	0.00e+00	0	42	0	2501902336	10	3889
2026-01-10 07:21:22.47	303.38	13.96	-25.1	-25.8	15.7	0.00e+00	0	42	0	2509242368	10	3873
2026-01-10 07:21:23.47	303.19	13.92	-25.0	-25.4	16.0	0.00e+00	0	42	0	2516582400	10	3793
2026-01-10 07:21:24.48	302.99	13.89	-24.8	-25.1	16.1	0.00e+00	0	42	0	2523922432	10	3717
2026-01-10 07:21:25.48	302.80	13.85	-25.0	-25.5	15.9	0.00e+00	0	42	0	2531262464	10	3815
2026-01-10 07:21:26.49	302.61	13.81	-25.0	-25.5	15.9	0.00e+00	0	42	0	2538602496	10	3804
2026-01-10 07:21:27.49	302.42	13.77	-25.0	-25.5	15.9	0.00e+00	0	42	0	2545942528	10	3807
2026-01-10 07:21:28.50	302.23	13.73	-25.2	-25.9	15.7	0.00e+00	0	42	0	2552233984	10	3895
2026-01-10 07:21:29.50	302.05	13.69	-25.7	-26.6	15.1	0.00e+00	0	42	0	2559574016	11	3963
2026-01-10 07:21:30.50	301.86	13.65	-26.1	-27.3	14.7	0.00e+00	0	42	0	2566914048	11	4157
2026-01-10 07:21:31.50	301.67	13.62	-25.7	-26.0	15.0	0.00e+00	0	42	0	2574254080	12	3727
2026-01-10 07:21:32.51	301.48	13.58	-26.1	-27.0	14.5	1.10e-06	0	42	0	2581594112	12	3973
2026-01-10 07:21:33.50	301.30	13.54	-26.3	-26.9	14.3	2.20e-06	0	42	0	2588934144	13	3854
2026-01-10 07:21:34.50	301.11	13.50	-26.8	-27.9	13.7	2.20e-06	0	42	0	2596274176	13	4097
2026-01-10 07:21:35.50	300.93	13.46	-26.3	-26.8	14.3	5.70e-06	0	42	0	2603614208	13	3813
2026-01-10 07:21:36.50	300.74	13.42	-25.7	-26.0	15.0	0.00e+00	0	42	0	2609905664	12	3732
2026-01-10 07:21:37.51	300.56	13.37	-25.6	-25.8	15.1	1.10e-06	0	42	0	2617245696	12	3681
2026-01-10 07:21:38.51	300.37	13.33	-25.5	-25.5	15.2	1.10e-06	0	42	0	2624585728	12	3618
2026-01-10 07:21:39.51	300.19	13.29	-25.5	-26.2	15.2	0.00e+00	0	42	0	2631925760	11	3866
2026-01-10 07:21:40.51	300.01	13.25	-26.7	-27.8	13.7	6.80e-06	0	42	0	2639265792	13	4082
2026-01-10 07:21:41.52	299.83	13.21	-27.6	-28.7	12.7	5.26e-05	0	42	0	2646605824	15	4094
2026-01-10 07:21:42.52	299.64	13.17	-27.2	-28.3	13.2	8.00e-06	0	42	0	2653945856	14	4082
2026-01-10 07:21:43.53	299.46	13.13	-28.3	-29.4	11.7	1.28e-04	0	42	0	2661285888	17	4069
2026-01-10 07:21:44.53	299.28	13.08	-27.1	-27.5	13.4	4.34e-05	0	42	0	2668625920	15	3787
2026-01-10 07:21:45.52	299.10	13.04	-27.4	-28.3	13.0	4.80e-05	0	42	0	2675965952	15	4007
2026-01-10 07:21:46.52	298.92	13.00	-26.9	-27.2	13.6	2.86e-05	0	42	0	2683305984	15	3727
2026-01-10 07:21:47.53	298.74	12.96	-26.2	-26.6	14.4	1.10e-06	0	42	0	2690646016	13	3772
2026-01-10 07:21:48.53	298.57	12.91	-26.6	-27.5	13.9	1.10e-06	0	42	0	2696937472	13	4005
2026-01-10 07:21:49.53	298.39	12.87	-26.3	-26.8	14.4	3.40e-06	0	42	0	2704277504	13	3820
2026-01-10 07:21:50.53	298.21	12.83	-26.6	-27.5	14.0	3.40e-06	0	42	0	2711617536	13	3996
2026-01-10 07:21:51.52	298.04	12.78	-26.1	-26.3	14.6	1.10e-06	0	42	0	2718957568	13	3713
2026-01-10 07:21:52.53	297.86	12.74	-26.4	-27.1	14.2	2.20e-06	0	42	0	2726297600	13	3890
2026-01-10 07:21:53.54	297.68	12.69	-26.3	-26.8	14.4	2.20e-06	0	42	0	2733637632	13	3811
2026-01-10 07:21:54.54	297.51	12.65	-26.0	-26.7	14.7	0.00e+00	0	42	0	2740977664	12	3894
2026-01-10 07:21:55.55	297.33	12.61	-25.9	-26.4	14.8	1.10e-06	0	42	0	2748317696	12	3821
2026-01-10 07:21:56.55	297.16	12.56	-25.7	-26.1	14.9	0.00e+00	0	42	0	2755657728	12	3757
2026-01-10 07:21:57.55	296.98	12.52	-25.6	-25.9	15.1	0.00e+00	0	42	0	2761949184	12	3711
2026-01-10 07:21:58.56	296.81	12.47	-25.6	-25.7	15.2	0.00e+00	0	42	0	2769289216	12	3669
2026-01-10 07:21:59.56	296.64	12.43	-25.7	-25.9	15.0	0.00e+00	0	42	0	2776629248	12	3711
2026-01-10 07:22:00.56	296.46	12.38	-25.7	-26.0	14.9	0.00e+00	0	42	0	2783969280	12	3735
2026-01-10 07:22:01.56	296.29	12.34	-25.6	-25.8	15.0	0.00e+00	0	42	0	2791309312	12	3697
2026-01-10 07:22:02.56	296.12	12.29	-25.7	-25.9	15.0	0.00e+00	0	42	0	2798649344	12	3719
2026-01-10 07:22:03.57	295.95	12.24	-25.5	-25.5	15.2	0.00e+00	0	42	0	2805989376	12	3623
2026-01-10 07:22:04.57	295.78	12.20	-25.4	-25.4	15.2	0.00e+00	0	42	0	2813329408	12	3597
2026-01-10 07:22:05.57	295.61	12.15	-25.7	-26.0	14.9	0.00e+00	0	42	0	2820669440	12	3730
2026-01-10 07:22:06.58	295.44	12.11	-25.6	-25.7	15.1	0.00e+00	0	42	0	2828009472	12	3669
2026-01-10 07:22:07.59	295.27	12.06	-25.4	-25.9	15.2	0.00e+00	0	42	0	2835349504	11	3816
2026-01-10 07:22:08.58	295.11	12.01	-25.5	-26.2	15.1	0.00e+00	0	42	0	2841640960	11	3871
2026-01-10 07:22:09.59	294.94	11.97	-25.6	-26.3	15.0	1.10e-06	0	42	0	2848980992	11	3899
2026-01-10 07:22:10.59	294.77	11.92	-25.7	-26.4	14.9	0.00e+00	0	42	0	2856321024	11	3933
2026-01-10 07:22:11.59	294.60	11.87	-25.5	-26.2	15.1	0.00e+00	0	42	0	2863661056	11	3879
2026-01-10 07:22:12.59	294.44	11.83	-25.4	-25.9	15.2	0.00e+00	0	42	0	2871001088	11	3822
2026-01-10 07:22:13.60	294.27	11.78	-25.5	-26.0	15.2	0.00e+00	0	42	0	2878341120	11	3836
2026-01-10 07:22:14.60	294.11	11.73	-25.7	-26.6	14.8	0.00e+00	0	42	0	2885681152	11	3995
2026-01-10 07:22:15.60	293.94	11.68	-26.3	-27.3	14.2	8.00e-06	0	42	0	2893021184	12	4059
2026-01-10 07:22:16.60	293.78	11.64	-25.9	-26.4	14.7	2.20e-06	0	42	0	2900361216	12	3831
2026-01-10 07:22:17.60	293.62	11.59	-26.1	-27.0	14.4	0.00e+00	0	42	0	2906652672	12	3983
2026-01-10 07:22:18.60	293.46	11.54	-26.1	-26.9	14.4	2.20e-06	0	42	0	2913992704	12	3951
2026-01-10 07:22:19.60	293.30	11.49	-25.9	-26.6	14.5	1.10e-06	0	42	0	2921332736	12	3877
2026-01-10 07:22:20.60	293.13	11.44	-25.7	-26.1	14.8	1.10e-06	0	42	0	2928672768	12	3763
2026-01-10 07:22:21.61	292.97	11.40	-25.7	-26.0	14.8	0.00e+00	0	42	0	2936012800	12	3736
2026-01-10 07:22:22.61	292.81	11.35	-25.7	-26.0	14.8	1.10e-06	0	42	0	2943352832	12	3743
2026-01-10 07:22:23.61	292.65	11.30	-25.8	-26.4	14.6	1.10e-06	0	42	0	2950692864	12	3838
2026-01-10 07:22:24.61	292.49	11.25	-25.9	-26.5	14.5	2.20e-06	0	42	0	2958032896	12	3859
2026-01-10 07:22:25.61	292.33	11.20	-25.7	-26.1	14.7	0.00e+00	0	42	0	2964324352	12	3771
2026-01-10 07:22:26.61	292.18	11.15	-25.7	-26.2	14.7	1.10e-06	0	42	0	2971664384	12	3783
2026-01-10 07:22:27.61	292.02	11.10	-25.8	-26.3	14.6	1.10e-06	0	42	0	2979004416	12	3802
2026-01-10 07:22:28.61	291.86	11.05	-25.8	-26.2	14.6	0.00e+00	0	42	0	2986344448	12	3782
2026-01-10 07:22:29.61	291.71	11.01	-25.7	-26.1	14.6	2.20e-06	0	42	0	2993684480	12	3775
2026-01-10 07:22:30.61	291.55	10.96	-25.7	-26.0	14.7	0.00e+00	0	42	0	3001024512	12	3745
2026-01-10 07:22:31.61	291.40	10.91	-26.0	-26.7	14.3	3.40e-06	0	42	0	3008364544	12	3900
2026-01-10 07:22:32.61	291.24	10.86	-26.1	-26.9	14.3	0.00e+00	0	42	0	3015704576	12	3952
2026-01-10 07:22:33.62	291.09	10.81	-26.1	-26.9	14.2	0.00e+00	0	42	0	3023044608	12	3967
2026-01-10 07:22:34.62	290.93	10.76	-26.1	-26.9	14.2	0.00e+00	0	42	0	3030384640	12	3959
2026-01-10 07:22:35.62	290.78	10.71	-25.9	-26.6	14.3	0.00e+00	0	42	0	3037724672	12	3889
2026-01-10 07:22:36.63	290.62	10.66	-26.2	-27.2	14.0	0.00e+00	0	42	0	3045064704	12	4034
2026-01-10 07:22:37.64	290.47	10.61	-26.1	-27.0	14.1	2.20e-06	0	42	0	3051356160	12	3993
2026-01-10 07:22:38.64	290.32	10.56	-26.0	-26.7	14.2	0.00e+00	0	42	0	3058696192	12	3926
2026-01-10 07:22:39.63	290.17	10.51	-26.1	-26.9	14.1	1.10e-06	0	42	0	3066036224	12	3975
2026-01-10 07:22:40.64	290.02	10.46	-26.1	-27.1	14.1	3.40e-06	0	42	0	3073376256	12	4004
2026-01-10 07:22:41.65	289.87	10.41	-26.4	-27.8	13.6	1.10e-06	0	42	0	3080716288	12	4191
2026-01-10 07:22:42.65	289.72	10.35	-26.4	-27.6	13.8	4.50e-06	0	42	0	3088056320	12	4143
2026-01-10 07:22:43.64	289.57	10.30	-26.3	-27.5	13.8	8.00e-06	0	42	0	3095396352	12	4123
2026-01-10 07:22:44.65	289.42	10.25	-26.4	-27.1	13.8	4.50e-06	0	42	0	3102736384	13	3900
2026-01-10 07:22:45.64	289.27	10.20	-26.2	-26.7	14.0	8.00e-06	0	42	0	3110076416	13	3821
2026-01-10 07:22:46.64	289.13	10.15	-26.5	-27.3	13.6	3.40e-06	0	42	0	3116367872	13	3970
2026-01-10 07:22:47.65	288.98	10.10	-26.6	-27.6	13.4	4.50e-06	0	42	0	3123707904	13	4028
2026-01-10 07:22:48.65	288.83	10.05	-26.6	-27.6	13.4	1.71e-05	0	42	0	3131047936	13	4040
2026-01-10 07:22:49.66	288.68	10.00	-26.3	-27.0	13.8	3.40e-06	0	42	0	3138387968	13	3881
2026-01-10 07:22:50.66	288.54	9.95	-26.4	-27.1	13.7	2.20e-06	0	42	0	3145728000	13	3917
2026-01-10 07:22:51.66	288.39	9.90	-26.2	-26.8	13.9	6.80e-06	0	42	0	3153068032	13	3838
2026-01-10 07:22:52.66	288.25	9.85	-26.2	-26.8	13.9	2.20e-06	0	42	0	3160408064	13	3831
2026-01-10 07:22:53.66	288.11	9.79	-26.2	-26.8	13.9	5.70e-06	0	42	0	3167748096	13	3834
2026-01-10 07:22:54.67	287.96	9.74	-26.5	-27.4	13.5	1.14e-05	0	42	0	3175088128	13	3997
2026-01-10 07:22:55.67	287.82	9.69	-26.3	-26.9	13.8	6.80e-06	0	42	0	3182428160	13	3874
2026-01-10 07:22:56.67	287.68	9.64	-26.4	-27.1	13.7	6.80e-06	0	42	0	3189768192	13	3915
2026-01-10 07:22:57.68	287.53	9.59	-26.3	-27.0	13.8	1.10e-06	0	42	0	3196059648	13	3898
2026-01-10 07:22:58.68	287.39	9.54	-27.2	-28.4	12.7	1.60e-05	0	42	0	3203399680	14	4141
2026-01-10 07:22:59.68	287.25	9.48	-26.6	-27.2	13.4	1.14e-05	0	42	0	3210739712	14	3831
2026-01-10 07:23:00.68	287.11	9.43	-26.5	-26.8	13.6	1.60e-05	0	42	0	3218079744	14	3751
2026-01-10 07:23:01.68	286.97	9.38	-26.4	-26.7	13.7	9.10e-06	0	42	0	3225419776	14	3717
2026-01-10 07:23:02.68	286.83	9.33	-26.4	-27.1	13.7	9.10e-06	0	42	0	3232759808	13	3909
2026-01-10 07:23:03.68	286.69	9.28	-26.6	-27.6	13.4	1.48e-05	0	42	0	3240099840	13	4038
2026-01-10 07:23:04.69	286.55	9.22	-26.3	-27.0	13.7	8.00e-06	0	42	0	3247439872	13	3902
2026-01-10 07:23:05.70	286.42	9.17	-26.2	-26.8	13.8	3.40e-06	0	42	0	3254779904	13	3834
2026-01-10 07:23:06.70	286.28	9.12	-26.0	-26.4	14.0	3.40e-06	0	42	0	3261071360	13	3742
2026-01-10 07:23:07.70	286.14	9.07	-26.0	-26.3	14.0	1.10e-06	0	42	0	3268411392	13	3712
2026-01-10 07:23:08.71	286.00	9.02	-26.0	-26.3	14.0	2.20e-06	0	42	0	3275751424	13	3735
2026-01-10 07:23:09.71	285.87	8.96	-26.2	-26.6	13.8	5.70e-06	0	42	0	3283091456	13	3807
2026-01-10 07:23:10.72	285.73	8.91	-26.5	-27.5	13.2	2.51e-05	0	42	0	3290431488	13	4032
2026-01-10 07:23:11.72	285.60	8.86	-26.5	-27.5	13.2	2.05e-05	0	42	0	3297771520	13	4037
2026-01-10 07:23:12.72	285.46	8.81	-26.6	-27.8	13.1	3.54e-05	0	42	0	3305111552	13	4107
2026-01-10 07:23:13.72	285.33	8.75	-26.5	-27.6	13.2	2.51e-05	0	42	0	3312451584	13	4053
2026-01-10 07:23:14.72	285.20	8.70	-26.6	-27.8	13.0	5.03e-05	0	42	0	3319791616	13	4115
2026-01-10 07:23:15.73	285.06	8.65	-26.8	-28.2	12.8	5.26e-05	0	42	0	3327131648	13	4228
2026-01-10 07:23:16.73	284.93	8.60	-26.5	-27.5	13.2	3.43e-05	0	42	0	3334471680	13	4022
2026-01-10 07:23:17.73	284.80	8.54	-26.5	-27.4	13.3	1.60e-05	0	42	0	3341811712	13	3992
2026-01-10 07:23:18.73	284.67	8.49	-26.3	-27.0	13.5	8.00e-06	0	42	0	3348103168	13	3892
2026-01-10 07:23:19.72	284.54	8.44	-26.3	-27.0	13.5	8.00e-06	0	42	0	3355443200	13	3891
2026-01-10 07:23:20.73	284.41	8.39	-26.5	-27.6	13.2	2.63e-05	0	42	0	3362783232	13	4050
2026-01-10 07:23:21.73	284.28	8.33	-26.4	-27.1	13.4	1.02e-05	0	42	0	3370123264	13	3935
2026-01-10 07:23:22.74	284.15	8.28	-26.2	-26.9	13.5	1.48e-05	0	42	0	3377463296	13	3874
2026-01-10 07:23:23.75	284.02	8.23	-26.1	-26.6	13.7	6.80e-06	0	42	0	3384803328	13	3794
2026-01-10 07:23:24.75	283.89	8.17	-26.1	-26.7	13.7	3.40e-06	0	42	0	3392143360	13	3825
2026-01-10 07:23:25.75	283.76	8.12	-26.2	-26.9	13.6	1.94e-05	0	42	0	3399483392	13	3865
2026-01-10 07:23:26.76	283.63	8.07	-26.1	-26.6	13.7	6.80e-06	0	42	0	3405774848	13	3802
2026-01-10 07:23:27.76	283.50	8.02	-26.3	-27.0	13.4	1.48e-05	0	42	0	3413114880	13	3917
2026-01-10 07:23:28.77	283.38	7.96	-26.3	-27.1	13.4	9.10e-06	0	42	0	3421503488	13	3921
2026-01-10 07:23:29.76	283.25	7.91	-26.3	-27.1	13.4	1.14e-05	0	42	0	3427794944	13	3926
2026-01-10 07:23:30.76	283.13	7.86	-26.3	-27.0	13.5	1.37e-05	0	42	0	3435134976	13	3902
2026-01-10 07:23:31.77	283.00	7.80	-26.5	-27.4	13.2	3.77e-05	0	42	0	3442475008	13	4021
2026-01-10 07:23:32.76	282.88	7.75	-26.4	-27.2	13.3	1.14e-05	0	42	0	3449815040	13	3952
2026-01-10 07:23:33.77	282.75	7.70	-26.4	-27.2	13.3	2.17e-05	0	42	0	3457155072	13	3965
2026-01-10 07:23:34.78	282.63	7.64	-26.5	-27.5	13.1	3.54e-05	0	42	0	3464495104	13	4033
2026-01-10 07:23:35.78	282.50	7.59	-26.4	-27.2	13.3	2.17e-05	0	42	0	3471835136	13	3961
2026-01-10 07:23:36.78	282.38	7.54	-26.4	-27.3	13.2	2.05e-05	0	42	0	3479175168	13	3992
2026-01-10 07:23:37.78	282.26	7.49	-26.4	-27.3	13.2	1.83e-05	0	42	0	3486515200	13	3996
2026-01-10 07:23:38.78	282.13	7.43	-26.4	-27.3	13.3	2.51e-05	0	42	0	3492806656	13	3986
2026-01-10 07:23:39.78	282.01	7.38	-26.5	-27.4	13.2	2.40e-05	0	42	0	3500146688	13	4025
2026-01-10 07:23:40.78	281.89	7.33	-26.6	-27.8	12.9	5.83e-05	0	42	0	3507486720	13	4117
2026-01-10 07:23:41.79	281.77	7.27	-26.5	-27.5	13.1	5.03e-05	0	42	0	3514826752	13	4031
2026-01-10 07:23:42.79	281.65	7.22	-26.5	-27.5	13.1	2.40e-05	0	42	0	3522166784	13	4034
2026-01-10 07:23:43.80	281.53	7.17	-26.5	-27.6	13.0	4.11e-05	0	43	0	3529506816	13	4055
2026-01-10 07:23:44.79	281.41	7.11	-26.7	-28.0	12.8	3.89e-05	0	43	0	3536846848	13	4161
2026-01-10 07:23:45.79	281.29	7.06	-32.3	-41.3	3.8	8.46e-01	0	42	104	3539992576	24	10102
2026-01-10 07:23:46.80	281.17	7.01	-33.0	-42.9	3.8	8.47e-01	0	42	104	3539992576	25	11276
2026-01-10 07:23:47.81	281.05	6.95	-33.3	-43.0	3.8	8.46e-01	0	42	104	3539992576	26	10997
2026-01-10 07:23:48.81	280.94	6.90	-33.6	-43.5	3.8	8.45e-01	0	42	104	3539992576	26	11313

#Closed at: 2026-01-10 07:23:49
#Recorded file [3539 MB]: D:/data/31010_260110_101534.dat