passes_logs/2026/01/10/R2M6_AANII_01/R2M6_AANII_01__20260110_121425_NOAA_21_JPSS-2_rec.log

#Pass ID: 20260110_121425_NOAA 21 (JPSS-2)
#Satellite: NOAA 21 (JPSS-2)
#Configuration: NOAA 21
#almurnet v.1.7.20240730
#Start time: 2026-01-10 12:18:32

#Version: 2.2.20231116
#Station: R2M6_AANII_01
#Location: 30.233357 lon 59.946436 lat
#TLE: 1 54234U 22150A   26009.23291724  .00000115  00000+0  75298-4 0  9996
#TLE: 2 54234  98.7494 310.2026 0000856 324.9272  35.1848 14.19533567163994

#Time	Az	El	Level	Level2	SNR	BER	BlckErr	Temp	State	Recorded	gain1	gain2
2026-01-10 12:18:32.21	267.99	18.67	-33.6	-43.5	3.8	8.46e-01	0	42	0	0	26	11262
2026-01-10 12:18:33.20	268.23	18.68	-33.9	-45.2	3.8	1.49e+00	0	42	104	0	29	13149
2026-01-10 12:18:34.20	268.47	18.70	-34.0	-45.3	3.8	1.49e+00	0	42	104	0	29	13222
2026-01-10 12:18:35.19	268.70	18.71	-34.0	-45.3	3.8	1.49e+00	0	42	104	0	29	13255
2026-01-10 12:18:36.19	268.94	18.73	-34.0	-45.4	3.8	1.49e+00	0	42	104	0	29	13317
2026-01-10 12:18:37.19	269.18	18.74	-34.0	-45.4	3.8	1.49e+00	0	42	104	0	29	13334
2026-01-10 12:18:38.19	269.42	18.75	-34.0	-45.4	3.8	1.49e+00	0	42	104	0	29	13315
2026-01-10 12:18:39.19	269.66	18.76	-34.0	-45.4	3.8	1.49e+00	0	42	104	0	29	13291
2026-01-10 12:18:40.19	269.90	18.78	-34.0	-45.4	3.8	1.49e+00	0	42	104	0	29	13298
2026-01-10 12:18:41.20	270.14	18.79	-34.0	-45.4	3.8	1.49e+00	0	42	104	0	29	13294
2026-01-10 12:18:42.20	270.38	18.80	-34.0	-45.4	3.8	1.49e+00	0	42	104	0	29	13322
2026-01-10 12:18:43.20	270.62	18.81	-34.0	-45.3	3.8	1.49e+00	0	42	104	0	29	13250
2026-01-10 12:18:44.21	270.86	18.82	-34.0	-45.3	3.8	1.49e+00	0	42	104	0	29	13214
2026-01-10 12:18:45.21	271.10	18.83	-34.0	-45.3	3.8	1.49e+00	0	42	104	0	29	13263
2026-01-10 12:18:46.20	271.34	18.83	-34.0	-45.3	3.8	1.49e+00	0	42	104	0	29	13250
2026-01-10 12:18:47.21	271.58	18.84	-34.0	-45.3	3.8	1.49e+00	0	42	104	0	29	13280
2026-01-10 12:18:48.21	271.82	18.85	-34.0	-45.3	3.8	1.49e+00	0	42	104	0	29	13271
2026-01-10 12:18:49.21	272.06	18.86	-34.0	-45.3	3.8	1.49e+00	0	42	104	0	29	13225
2026-01-10 12:18:50.21	272.30	18.86	-33.8	-45.0	3.8	1.49e+00	0	42	104	0	29	13063
2026-01-10 12:18:51.21	272.54	18.87	-33.8	-45.1	3.8	1.49e+00	0	42	104	0	29	13086
2026-01-10 12:18:52.21	272.78	18.88	-33.7	-45.4	3.8	1.49e+00	0	42	104	0	28	13792
2026-01-10 12:18:53.21	273.03	18.88	-33.7	-45.3	3.8	1.49e+00	0	42	104	0	28	13770
2026-01-10 12:18:54.20	273.26	18.89	-33.8	-45.4	3.8	1.49e+00	0	42	104	0	28	13694
2026-01-10 12:18:55.20	273.50	18.89	-33.7	-45.3	3.8	1.49e+00	0	42	104	0	28	13695
2026-01-10 12:18:56.20	273.75	18.89	-33.7	-45.3	3.8	1.49e+00	0	42	104	0	28	13612
2026-01-10 12:18:57.20	273.99	18.90	-33.7	-45.2	3.8	1.49e+00	0	42	104	0	28	13591
2026-01-10 12:18:58.21	274.23	18.90	-33.7	-45.2	3.8	1.49e+00	0	42	104	0	28	13524
2026-01-10 12:18:59.21	274.47	18.90	-33.6	-45.1	3.8	1.49e+00	0	42	104	0	28	13441
2026-01-10 12:19:00.21	274.71	18.90	-33.5	-44.8	3.8	1.49e+00	0	42	104	0	28	13204
2026-01-10 12:19:01.22	274.96	18.91	-33.5	-44.7	3.8	1.49e+00	0	42	104	0	28	13076
2026-01-10 12:19:02.22	275.20	18.91	-33.3	-44.1	3.8	1.49e+00	0	42	104	0	28	12459
2026-01-10 12:19:03.22	275.44	18.91	-33.2	-44.4	3.9	1.49e+00	0	42	104	0	27	13129
2026-01-10 12:19:04.22	275.68	18.91	-33.1	-44.4	3.9	1.49e+00	0	42	104	0	27	13213
2026-01-10 12:19:05.23	275.92	18.91	-33.1	-44.3	3.9	1.49e+00	0	42	104	0	27	13047
2026-01-10 12:19:06.23	276.16	18.90	-33.0	-44.1	3.9	1.49e+00	0	42	104	0	27	12846
2026-01-10 12:19:07.23	276.40	18.90	-33.0	-44.0	3.9	1.49e+00	0	42	104	0	27	12851
2026-01-10 12:19:08.24	276.65	18.90	-33.0	-44.1	3.9	1.49e+00	0	42	104	0	27	12997
2026-01-10 12:19:09.24	276.89	18.90	-33.0	-44.3	3.9	1.49e+00	0	42	104	0	27	13120
2026-01-10 12:19:10.23	277.13	18.89	-33.1	-44.4	3.9	1.49e+00	0	42	104	0	27	13168
2026-01-10 12:19:11.24	277.37	18.89	-33.1	-44.4	3.8	1.49e+00	0	42	104	0	27	13280
2026-01-10 12:19:12.24	277.61	18.89	-33.1	-44.5	3.9	1.49e+00	0	42	104	0	27	13312
2026-01-10 12:19:13.24	277.85	18.88	-33.1	-44.4	3.9	1.49e+00	0	42	104	0	27	13166
2026-01-10 12:19:14.24	278.09	18.88	-33.1	-44.1	3.8	1.49e+00	0	42	104	0	27	12809
2026-01-10 12:19:15.25	278.34	18.87	-33.1	-43.7	3.8	1.49e+00	0	42	104	0	27	12211
2026-01-10 12:19:16.26	278.58	18.87	-33.0	-43.1	3.8	1.49e+00	0	42	104	0	27	11540
2026-01-10 12:19:17.26	278.82	18.86	-33.1	-42.8	3.8	1.49e+00	0	42	104	0	27	11056
2026-01-10 12:19:18.27	279.06	18.85	-33.0	-42.4	3.9	1.49e+00	0	42	104	0	27	10561
2026-01-10 12:19:19.28	279.30	18.84	-33.0	-41.6	4.1	1.47e+00	0	42	104	0	27	9751
2026-01-10 12:19:20.28	279.54	18.84	-32.9	-41.4	3.9	1.48e+00	0	42	104	0	27	9641
2026-01-10 12:19:21.29	279.79	18.83	-32.6	-39.6	4.8	9.10e-01	0	42	104	0	26	8071
2026-01-10 12:19:22.30	280.03	18.82	-32.0	-37.8	4.3	1.44e+00	0	42	104	0	25	7033
2026-01-10 12:19:23.30	280.27	18.81	-31.2	-35.2	8.3	1.13e-01	0	42	0	0	23	5675
2026-01-10 12:19:24.31	280.51	18.80	-30.3	-33.3	9.6	2.78e-02	0	42	0	3145728	22	5054
2026-01-10 12:19:25.32	280.75	18.79	-30.1	-33.0	10.1	1.47e-02	0	42	0	6291456	21	5051
2026-01-10 12:19:26.32	280.99	18.78	-30.0	-33.0	10.2	8.11e-03	0	42	0	9437184	21	5057
2026-01-10 12:19:27.33	281.23	18.76	-30.4	-34.1	9.5	1.76e-02	0	42	0	12582912	21	5520
2026-01-10 12:19:28.34	281.47	18.75	-30.2	-33.6	9.8	1.34e-02	0	42	0	15728640	21	5297
2026-01-10 12:19:29.35	281.71	18.74	-30.1	-33.1	10.1	1.60e-02	0	42	0	18874368	21	5108
2026-01-10 12:19:30.35	281.95	18.73	-30.3	-33.6	9.8	1.57e-02	0	42	0	22020096	21	5275
2026-01-10 12:19:31.36	282.19	18.71	-30.0	-32.8	10.2	2.56e-02	0	42	0	25165824	21	4967
2026-01-10 12:19:32.37	282.43	18.70	-29.8	-32.4	10.3	2.73e-02	0	42	0	28311552	21	4852
2026-01-10 12:19:33.37	282.67	18.69	-29.8	-32.4	10.3	2.92e-02	0	42	0	31457280	21	4850
2026-01-10 12:19:34.37	282.91	18.67	-30.0	-32.7	10.2	2.91e-02	0	42	0	34603008	21	4927
2026-01-10 12:19:35.37	283.15	18.65	-29.9	-32.6	10.2	3.14e-02	0	42	0	37748736	21	4934
2026-01-10 12:19:36.37	283.38	18.64	-29.3	-31.9	11.3	2.69e-02	0	42	0	40894464	19	4859
2026-01-10 12:19:37.37	283.62	18.62	-28.7	-30.8	12.3	2.37e-02	0	42	0	44040192	18	4585
2026-01-10 12:19:38.38	283.86	18.61	-28.2	-30.1	12.9	2.08e-02	0	42	0	47185920	17	4482
2026-01-10 12:19:39.38	284.09	18.59	-27.8	-28.9	14.4	7.00e-07	0	42	0	50331648	17	4084
2026-01-10 12:19:40.38	284.33	18.57	-27.6	-29.0	14.7	0.00e+00	0	42	0	53477376	16	4222
2026-01-10 12:19:41.38	284.57	18.55	-27.5	-28.6	14.9	7.00e-07	0	42	0	56623104	16	4116
2026-01-10 12:19:42.39	284.80	18.53	-27.4	-28.5	15.0	7.00e-07	0	42	0	59768832	16	4080
2026-01-10 12:19:43.39	285.04	18.52	-27.4	-28.5	15.0	0.00e+00	0	42	0	62914560	16	4077
2026-01-10 12:19:44.40	285.28	18.50	-27.5	-28.6	14.9	0.00e+00	0	42	0	66060288	16	4117
2026-01-10 12:19:45.41	285.51	18.48	-27.3	-28.3	15.0	0.00e+00	0	42	0	69206016	16	4033
2026-01-10 12:19:46.41	285.75	18.46	-27.0	-28.1	15.3	0.00e+00	0	42	0	72351744	15	4081
2026-01-10 12:19:47.42	285.98	18.43	-26.9	-27.9	15.4	0.00e+00	0	42	0	75497472	15	4026
2026-01-10 12:19:48.43	286.22	18.41	-26.9	-27.9	15.4	0.00e+00	0	42	0	78643200	15	4037
2026-01-10 12:19:49.43	286.45	18.39	-26.9	-28.0	15.3	0.00e+00	0	42	0	81788928	15	4059
2026-01-10 12:19:50.43	286.69	18.37	-26.9	-27.9	15.4	0.00e+00	0	42	0	84934656	15	4048
2026-01-10 12:19:51.44	286.92	18.35	-27.0	-28.1	15.3	0.00e+00	0	42	0	88080384	15	4090
2026-01-10 12:19:52.46	287.16	18.32	-26.8	-28.0	15.6	7.00e-07	0	42	0	91226112	14	4177
2026-01-10 12:19:53.46	287.39	18.30	-26.8	-28.1	15.5	0.00e+00	0	42	0	94371840	14	4192
2026-01-10 12:19:54.47	287.62	18.27	-26.8	-28.2	15.5	0.00e+00	0	42	0	97517568	14	4218
2026-01-10 12:19:55.47	287.85	18.25	-26.8	-28.1	15.6	0.00e+00	0	42	0	100663296	14	4185
2026-01-10 12:19:56.48	288.09	18.23	-26.8	-28.1	15.5	0.00e+00	0	42	0	103809024	14	4185
2026-01-10 12:19:57.48	288.32	18.20	-26.8	-28.1	15.5	0.00e+00	0	42	0	106954752	14	4197
2026-01-10 12:19:58.48	288.55	18.17	-26.8	-28.2	15.5	0.00e+00	0	42	0	110100480	14	4209
2026-01-10 12:19:59.48	288.78	18.15	-26.7	-27.9	15.6	0.00e+00	0	42	0	113246208	14	4143
2026-01-10 12:20:00.49	289.01	18.12	-26.7	-28.0	15.6	0.00e+00	0	42	0	116391936	14	4174
2026-01-10 12:20:01.50	289.24	18.09	-26.7	-28.0	15.6	0.00e+00	0	42	0	119537664	14	4173
2026-01-10 12:20:02.51	289.47	18.07	-26.9	-28.3	15.4	0.00e+00	0	42	0	122683392	14	4253
2026-01-10 12:20:03.51	289.70	18.04	-26.8	-28.1	15.5	0.00e+00	0	42	0	125829120	14	4185
2026-01-10 12:20:04.52	289.93	18.01	-26.7	-28.0	15.6	0.00e+00	0	42	0	128974848	14	4174
2026-01-10 12:20:05.52	290.15	17.98	-26.7	-28.0	15.6	0.00e+00	0	42	0	132120576	14	4170
2026-01-10 12:20:06.53	290.38	17.95	-26.8	-28.2	15.5	0.00e+00	0	42	0	135266304	14	4216
2026-01-10 12:20:07.54	290.61	17.92	-26.7	-28.0	15.6	7.00e-07	0	42	0	138412032	14	4164
2026-01-10 12:20:08.55	290.84	17.89	-26.8	-28.2	15.5	0.00e+00	0	42	0	141557760	14	4205
2026-01-10 12:20:09.56	291.07	17.86	-27.0	-28.6	15.3	0.00e+00	0	42	0	144703488	14	4316
2026-01-10 12:20:10.57	291.29	17.83	-27.2	-29.0	15.0	0.00e+00	0	42	0	147849216	14	4435
2026-01-10 12:20:11.58	291.52	17.80	-27.2	-29.1	15.0	0.00e+00	0	42	0	150994944	14	4463
2026-01-10 12:20:12.58	291.75	17.77	-27.1	-29.0	15.1	0.00e+00	0	42	0	154140672	14	4434
2026-01-10 12:20:13.59	291.97	17.74	-27.2	-29.1	15.0	0.00e+00	0	42	0	157286400	14	4478
2026-01-10 12:20:14.59	292.19	17.71	-27.2	-29.0	15.0	0.00e+00	0	42	0	160432128	14	4437
2026-01-10 12:20:15.60	292.42	17.67	-27.1	-28.8	15.1	0.00e+00	0	42	0	163577856	14	4391
2026-01-10 12:20:16.60	292.64	17.64	-27.0	-28.5	15.3	0.00e+00	0	42	0	166723584	14	4306
2026-01-10 12:20:17.61	292.86	17.61	-27.1	-28.9	15.1	0.00e+00	0	42	0	169869312	14	4409
2026-01-10 12:20:18.61	293.09	17.57	-27.1	-28.8	15.2	0.00e+00	0	42	0	173015040	14	4373
2026-01-10 12:20:19.62	293.31	17.54	-27.2	-29.1	14.9	0.00e+00	0	42	0	176160768	14	4473
2026-01-10 12:20:20.62	293.53	17.51	-27.2	-29.0	15.0	0.00e+00	0	42	0	179306496	14	4446
2026-01-10 12:20:21.63	293.75	17.47	-27.0	-28.6	15.2	0.00e+00	0	42	0	182452224	14	4321
2026-01-10 12:20:22.64	293.97	17.44	-27.1	-28.8	15.1	7.00e-07	0	42	0	185597952	14	4396
2026-01-10 12:20:23.65	294.19	17.40	-27.0	-28.5	15.3	0.00e+00	0	42	0	188743680	14	4298
2026-01-10 12:20:24.66	294.41	17.36	-26.8	-28.2	15.4	0.00e+00	0	42	0	191889408	14	4218
2026-01-10 12:20:25.66	294.63	17.33	-26.9	-28.3	15.3	0.00e+00	0	42	0	195035136	14	4258
2026-01-10 12:20:26.67	294.85	17.29	-26.8	-28.2	15.4	0.00e+00	0	42	0	198180864	14	4225
2026-01-10 12:20:27.67	295.07	17.25	-27.0	-28.6	15.2	0.00e+00	0	42	0	201326592	14	4338
2026-01-10 12:20:28.67	295.28	17.22	-27.0	-28.6	15.2	3.80e-06	0	42	0	204472320	14	4323
2026-01-10 12:20:29.68	295.50	17.18	-26.7	-28.0	15.6	0.00e+00	0	42	0	207618048	14	4153
2026-01-10 12:20:30.69	295.72	17.14	-26.7	-27.8	15.7	0.00e+00	0	42	0	210763776	14	4122
2026-01-10 12:20:31.70	295.93	17.10	-26.7	-28.0	15.5	0.00e+00	0	42	0	213909504	14	4170
2026-01-10 12:20:32.70	296.15	17.07	-26.7	-27.9	15.6	0.00e+00	0	42	0	217055232	14	4142
2026-01-10 12:20:33.71	296.36	17.03	-26.7	-27.9	15.6	0.00e+00	0	42	0	220200960	14	4127
2026-01-10 12:20:34.71	296.58	16.99	-26.8	-28.3	15.4	5.30e-06	0	42	0	223346688	14	4236
2026-01-10 12:20:35.72	296.79	16.95	-26.7	-28.0	15.5	0.00e+00	0	42	0	226492416	14	4175
2026-01-10 12:20:36.72	297.00	16.91	-26.7	-27.8	15.6	0.00e+00	0	42	0	229638144	14	4121
2026-01-10 12:20:37.73	297.22	16.87	-26.7	-27.9	15.6	4.50e-06	0	42	0	232783872	14	4125
2026-01-10 12:20:38.74	297.43	16.83	-26.7	-28.0	15.5	0.00e+00	0	42	0	235929600	14	4168
2026-01-10 12:20:39.75	297.64	16.79	-26.7	-28.0	15.6	0.00e+00	0	42	0	239075328	14	4157
2026-01-10 12:20:40.76	297.85	16.75	-26.7	-28.0	15.5	2.20e-06	0	42	0	242221056	14	4168
2026-01-10 12:20:41.77	298.06	16.70	-26.8	-28.1	15.5	0.00e+00	0	42	0	245366784	14	4190
2026-01-10 12:20:42.78	298.28	16.66	-26.8	-28.2	15.4	0.00e+00	0	42	0	248512512	14	4217
2026-01-10 12:20:43.79	298.49	16.62	-26.9	-28.5	15.3	2.20e-06	0	42	0	251658240	14	4295
2026-01-10 12:20:44.79	298.69	16.58	-26.9	-28.5	15.2	7.00e-07	0	42	0	254803968	14	4314
2026-01-10 12:20:45.80	298.90	16.54	-26.9	-28.4	15.3	0.00e+00	0	42	0	257949696	14	4293
2026-01-10 12:20:46.80	299.11	16.49	-27.0	-28.7	15.1	0.00e+00	0	42	0	261095424	14	4358
2026-01-10 12:20:47.81	299.31	16.45	-26.9	-28.3	15.3	0.00e+00	0	42	0	264241152	14	4260
2026-01-10 12:20:48.81	299.52	16.41	-26.8	-28.3	15.4	0.00e+00	0	42	0	267386880	14	4245
2026-01-10 12:20:49.82	299.73	16.36	-26.9	-28.3	15.3	8.30e-06	0	42	0	270532608	14	4264
2026-01-10 12:20:50.82	299.93	16.32	-27.0	-28.6	15.1	0.00e+00	0	42	0	273678336	14	4337
2026-01-10 12:20:51.82	300.13	16.28	-26.9	-28.4	15.3	0.00e+00	0	42	0	276824064	14	4271
2026-01-10 12:20:52.83	300.34	16.23	-26.9	-28.5	15.2	0.00e+00	0	42	0	279969792	14	4311
2026-01-10 12:20:53.83	300.54	16.19	-26.9	-28.5	15.2	0.00e+00	0	42	0	283115520	14	4295
2026-01-10 12:20:54.83	300.74	16.14	-27.0	-28.6	15.2	0.00e+00	0	42	0	286261248	14	4334
2026-01-10 12:20:55.84	300.94	16.10	-27.0	-28.6	15.1	1.50e-06	0	42	0	289406976	14	4348
2026-01-10 12:20:56.84	301.14	16.05	-27.1	-28.9	15.0	7.00e-07	0	42	0	292552704	14	4425
2026-01-10 12:20:57.85	301.35	16.01	-27.1	-28.9	14.9	0.00e+00	0	42	0	295698432	14	4418
2026-01-10 12:20:58.85	301.55	15.96	-27.4	-29.5	14.6	1.50e-06	0	42	0	298844160	14	4592
2026-01-10 12:20:59.85	301.74	15.92	-27.3	-29.3	14.8	0.00e+00	0	42	0	301989888	14	4534
2026-01-10 12:21:00.86	301.94	15.87	-27.2	-29.2	14.8	7.00e-07	0	42	0	305135616	14	4503
2026-01-10 12:21:01.86	302.14	15.82	-27.3	-29.3	14.7	7.00e-07	0	42	0	308281344	14	4544
2026-01-10 12:21:02.86	302.34	15.78	-27.5	-29.8	14.5	7.00e-07	0	42	0	311427072	14	4686
2026-01-10 12:21:03.87	302.54	15.73	-27.3	-28.8	14.7	7.00e-07	0	42	0	314572800	15	4295
2026-01-10 12:21:04.88	302.73	15.68	-27.2	-28.6	14.8	0.00e+00	0	42	0	317718528	15	4224
2026-01-10 12:21:05.88	302.93	15.63	-27.2	-28.6	14.9	0.00e+00	0	42	0	320864256	15	4232
2026-01-10 12:21:06.88	303.12	15.59	-27.2	-28.6	14.8	0.00e+00	0	42	0	324009984	15	4223
2026-01-10 12:21:07.89	303.32	15.54	-27.1	-28.4	14.9	0.00e+00	0	42	0	327155712	15	4181
2026-01-10 12:21:08.90	303.51	15.49	-27.2	-28.5	14.9	0.00e+00	0	42	0	330301440	15	4208
2026-01-10 12:21:09.91	303.71	15.44	-27.3	-28.9	14.7	0.00e+00	0	42	0	332398592	15	4304
2026-01-10 12:21:10.92	303.90	15.39	-27.4	-29.2	14.5	0.00e+00	0	42	0	336592896	15	4397
2026-01-10 12:21:11.92	304.09	15.34	-27.5	-29.3	14.4	0.00e+00	0	42	0	339738624	15	4430
2026-01-10 12:21:12.93	304.29	15.30	-27.5	-29.3	14.4	0.00e+00	0	42	0	342884352	15	4441
2026-01-10 12:21:13.93	304.48	15.25	-27.7	-29.7	14.2	1.50e-06	0	42	0	346030080	15	4550
2026-01-10 12:21:14.94	304.67	15.20	-27.6	-29.5	14.3	7.00e-07	0	42	0	349175808	15	4493
2026-01-10 12:21:15.94	304.86	15.15	-27.5	-29.3	14.4	7.00e-07	0	42	0	352321536	15	4449
2026-01-10 12:21:16.94	305.04	15.10	-27.5	-29.4	14.4	1.50e-06	0	42	0	355467264	15	4449
2026-01-10 12:21:17.95	305.23	15.05	-27.4	-29.1	14.5	0.00e+00	0	42	0	357564416	15	4380
2026-01-10 12:21:18.96	305.42	15.00	-27.3	-28.9	14.6	7.00e-07	0	42	0	360710144	15	4317
2026-01-10 12:21:19.97	305.61	14.95	-27.3	-28.8	14.7	0.00e+00	0	42	0	364904448	15	4285
2026-01-10 12:21:20.97	305.80	14.90	-27.5	-29.2	14.5	0.00e+00	0	42	0	368050176	15	4406
2026-01-10 12:21:21.98	305.98	14.85	-27.3	-28.9	14.6	0.00e+00	0	42	0	371195904	15	4310
2026-01-10 12:21:22.98	306.17	14.80	-27.3	-28.9	14.6	0.00e+00	0	42	0	374341632	15	4330
2026-01-10 12:21:23.99	306.35	14.74	-27.3	-28.9	14.6	7.00e-07	0	42	0	377487360	15	4314
2026-01-10 12:21:25.00	306.54	14.69	-27.4	-29.2	14.5	0.00e+00	0	42	0	379584512	15	4393
2026-01-10 12:21:26.00	306.72	14.64	-27.4	-29.2	14.5	0.00e+00	0	42	0	382730240	15	4392
2026-01-10 12:21:27.01	306.90	14.59	-27.5	-29.4	14.3	2.20e-06	0	42	0	386924544	15	4464
2026-01-10 12:21:28.02	307.09	14.54	-27.6	-29.6	14.2	1.50e-06	0	42	0	390070272	15	4514
2026-01-10 12:21:29.02	307.27	14.49	-27.8	-30.0	14.0	2.20e-06	0	42	0	393216000	15	4648
2026-01-10 12:21:30.02	307.45	14.44	-27.5	-29.4	14.3	2.20e-06	0	42	0	396361728	15	4455
2026-01-10 12:21:31.02	307.63	14.38	-27.4	-29.1	14.5	7.00e-07	0	42	0	399507456	15	4369
2026-01-10 12:21:32.03	307.81	14.33	-27.5	-29.4	14.4	7.00e-07	0	42	0	402653184	15	4456
2026-01-10 12:21:33.03	307.99	14.28	-27.4	-29.1	14.5	7.00e-07	0	42	0	404750336	15	4373
2026-01-10 12:21:34.04	308.17	14.23	-27.5	-29.4	14.4	0.00e+00	0	42	0	407896064	15	4460
2026-01-10 12:21:35.05	308.35	14.17	-27.7	-29.7	14.2	2.20e-06	0	42	0	411041792	15	4559
2026-01-10 12:21:36.06	308.52	14.12	-27.5	-29.4	14.3	7.00e-07	0	42	0	414187520	15	4477
2026-01-10 12:21:37.06	308.70	14.07	-27.5	-29.4	14.3	1.50e-06	0	42	0	418381824	15	4471
2026-01-10 12:21:38.07	308.88	14.02	-27.8	-30.1	13.9	1.50e-06	0	42	0	421527552	15	4676
2026-01-10 12:21:39.08	309.05	13.96	-27.7	-29.8	14.1	7.00e-07	0	42	0	424673280	15	4580
2026-01-10 12:21:40.08	309.23	13.91	-27.8	-30.0	14.0	2.20e-06	0	42	0	426770432	15	4637
2026-01-10 12:21:41.09	309.40	13.86	-28.2	-30.5	13.5	8.30e-06	0	42	0	429916160	16	4689
2026-01-10 12:21:42.10	309.58	13.80	-28.0	-30.0	13.9	3.00e-06	0	42	0	433061888	16	4511
2026-01-10 12:21:43.10	309.75	13.75	-28.1	-30.1	13.8	2.20e-06	0	42	0	436207616	16	4547
2026-01-10 12:21:44.11	309.92	13.69	-28.0	-30.1	13.8	6.10e-06	0	42	0	440401920	16	4545
2026-01-10 12:21:45.12	310.10	13.64	-28.0	-30.0	13.9	5.30e-06	0	42	0	443547648	16	4510
2026-01-10 12:21:46.12	310.27	13.59	-28.1	-30.3	13.7	7.00e-07	0	42	0	446693376	16	4614
2026-01-10 12:21:47.13	310.44	13.53	-28.1	-30.1	13.8	3.00e-06	0	42	0	449839104	16	4568
2026-01-10 12:21:48.14	310.61	13.48	-28.3	-30.8	13.4	9.90e-06	0	42	0	451936256	16	4759
2026-01-10 12:21:49.14	310.78	13.42	-28.0	-29.9	13.9	6.80e-06	0	42	0	455081984	16	4490
2026-01-10 12:21:50.14	310.95	13.37	-27.9	-29.7	14.0	1.50e-06	0	42	0	458227712	16	4444
2026-01-10 12:21:51.15	311.11	13.32	-27.7	-29.2	14.3	7.00e-07	0	42	0	461373440	16	4279
2026-01-10 12:21:52.15	311.28	13.26	-27.7	-29.1	14.4	7.00e-07	0	42	0	464519168	16	4262
2026-01-10 12:21:53.16	311.45	13.21	-27.6	-29.1	14.4	1.50e-06	0	42	0	468713472	16	4243
2026-01-10 12:21:54.17	311.62	13.15	-27.6	-29.1	14.4	7.00e-07	0	42	0	471859200	16	4248
2026-01-10 12:21:55.18	311.78	13.10	-27.8	-29.4	14.2	2.20e-06	0	42	0	473956352	16	4334
2026-01-10 12:21:56.18	311.95	13.04	-27.8	-29.5	14.1	1.50e-06	0	42	0	477102080	16	4376
2026-01-10 12:21:57.19	312.11	12.99	-27.6	-28.9	14.5	1.50e-06	0	42	0	480247808	16	4216
2026-01-10 12:21:58.19	312.28	12.93	-27.4	-28.6	14.6	0.00e+00	0	42	0	483393536	16	4135
2026-01-10 12:21:59.20	312.44	12.88	-27.5	-28.8	14.6	0.00e+00	0	42	0	486539264	16	4166
2026-01-10 12:22:00.21	312.60	12.82	-27.6	-29.0	14.4	0.00e+00	0	42	0	489684992	16	4235
2026-01-10 12:22:01.22	312.77	12.76	-27.6	-29.0	14.4	1.50e-06	0	42	0	493879296	16	4226
2026-01-10 12:22:02.22	312.93	12.71	-27.6	-29.1	14.3	3.00e-06	0	42	0	497025024	16	4264
2026-01-10 12:22:03.23	313.09	12.65	-27.7	-29.4	14.2	7.00e-07	0	42	0	499122176	16	4331
2026-01-10 12:22:04.23	313.25	12.60	-27.7	-29.3	14.2	7.00e-07	0	42	0	502267904	16	4323
2026-01-10 12:22:05.24	313.41	12.54	-27.7	-29.3	14.2	2.20e-06	0	42	0	505413632	16	4306
2026-01-10 12:22:06.24	313.57	12.49	-27.8	-29.5	14.1	1.50e-06	0	42	0	508559360	16	4370
2026-01-10 12:22:07.24	313.73	12.43	-27.8	-29.6	14.0	3.00e-06	0	42	0	511705088	16	4396
2026-01-10 12:22:08.25	313.89	12.37	-27.8	-29.5	14.1	7.00e-07	0	42	0	514850816	16	4369
2026-01-10 12:22:09.26	314.04	12.32	-27.9	-29.7	13.9	3.80e-06	0	42	0	519045120	16	4425
2026-01-10 12:22:10.27	314.20	12.26	-27.8	-29.4	14.1	7.00e-07	0	42	0	521142272	16	4353
2026-01-10 12:22:11.27	314.36	12.21	-27.8	-29.4	14.1	2.20e-06	0	42	0	524288000	16	4362
2026-01-10 12:22:12.28	314.51	12.15	-27.7	-29.2	14.2	3.00e-06	0	42	0	527433728	16	4304
2026-01-10 12:22:13.29	314.67	12.09	-27.6	-29.0	14.3	0.00e+00	0	42	0	530579456	16	4227
2026-01-10 12:22:14.29	314.82	12.04	-27.6	-29.0	14.3	7.00e-07	0	42	0	533725184	16	4247
2026-01-10 12:22:15.30	314.98	11.98	-27.5	-28.8	14.4	0.00e+00	0	42	0	536870912	16	4197
2026-01-10 12:22:16.31	315.13	11.92	-27.5	-28.9	14.4	0.00e+00	0	42	0	540016640	16	4214
2026-01-10 12:22:17.31	315.29	11.87	-27.5	-28.9	14.4	7.00e-07	0	42	0	544210944	16	4208
2026-01-10 12:22:18.32	315.44	11.81	-27.6	-28.9	14.4	0.00e+00	0	42	0	546308096	16	4215
2026-01-10 12:22:19.33	315.59	11.75	-27.7	-29.2	14.3	1.50e-06	0	42	0	549453824	16	4280
2026-01-10 12:22:20.33	315.74	11.70	-27.7	-29.2	14.2	1.50e-06	0	42	0	552599552	16	4302
2026-01-10 12:22:21.33	315.89	11.64	-27.7	-29.3	14.1	7.00e-07	0	42	0	555745280	16	4338
2026-01-10 12:22:22.34	316.04	11.58	-27.6	-29.1	14.3	0.00e+00	0	42	0	558891008	16	4272
2026-01-10 12:22:23.35	316.19	11.53	-27.7	-29.4	14.1	3.80e-06	0	42	0	562036736	16	4352
2026-01-10 12:22:24.36	316.34	11.47	-27.7	-29.3	14.1	2.20e-06	0	42	0	565182464	16	4315
2026-01-10 12:22:25.36	316.49	11.41	-27.7	-29.3	14.1	1.50e-06	0	42	0	568328192	16	4335
2026-01-10 12:22:26.37	316.64	11.36	-27.8	-29.4	14.1	1.50e-06	0	42	0	571473920	16	4359
2026-01-10 12:22:27.38	316.79	11.30	-27.8	-29.7	13.9	1.50e-06	0	42	0	574619648	16	4431
2026-01-10 12:22:28.39	316.93	11.24	-27.8	-29.5	14.0	1.50e-06	0	42	0	577765376	16	4386
2026-01-10 12:22:29.40	317.08	11.19	-27.8	-29.6	13.9	3.80e-06	0	42	0	580911104	16	4413
2026-01-10 12:22:30.41	317.23	11.13	-27.8	-29.6	13.9	3.00e-06	0	42	0	584056832	16	4431
2026-01-10 12:22:31.41	317.37	11.07	-27.8	-29.5	13.9	3.80e-06	0	42	0	588251136	16	4394
2026-01-10 12:22:32.42	317.52	11.01	-27.9	-29.7	13.9	4.50e-06	0	42	0	591396864	16	4454
2026-01-10 12:22:33.43	317.66	10.96	-27.9	-29.8	13.8	4.50e-06	0	42	0	593494016	16	4482
2026-01-10 12:22:34.43	317.81	10.90	-27.8	-29.6	13.8	3.00e-06	0	42	0	596639744	16	4430
2026-01-10 12:22:35.44	317.95	10.84	-27.9	-29.7	13.8	3.00e-06	0	42	0	599785472	16	4464
2026-01-10 12:22:36.44	318.09	10.79	-27.8	-29.6	13.9	6.80e-06	0	42	0	602931200	16	4420
2026-01-10 12:22:37.45	318.23	10.73	-27.9	-29.8	13.7	6.10e-06	0	42	0	606076928	16	4493
2026-01-10 12:22:38.46	318.38	10.67	-28.0	-30.0	13.6	9.90e-06	0	42	0	609222656	16	4549
2026-01-10 12:22:39.46	318.52	10.62	-27.8	-29.4	13.9	5.30e-06	0	42	0	613416960	16	4366
2026-01-10 12:22:40.47	318.66	10.56	-27.7	-29.3	14.0	3.00e-06	0	42	0	615514112	16	4329
2026-01-10 12:22:41.48	318.80	10.50	-27.8	-29.6	13.9	4.50e-06	0	42	0	618659840	16	4408
2026-01-10 12:22:42.48	318.94	10.44	-27.8	-29.6	13.8	3.80e-06	0	42	0	621805568	16	4427
2026-01-10 12:22:43.49	319.07	10.39	-27.7	-29.2	14.1	2.20e-06	0	42	0	624951296	16	4307
2026-01-10 12:22:44.49	319.21	10.33	-27.7	-29.3	14.0	3.00e-06	0	42	0	628097024	16	4342
2026-01-10 12:22:45.50	319.35	10.27	-27.8	-29.6	13.8	3.80e-06	0	42	0	631242752	16	4424
2026-01-10 12:22:46.50	319.49	10.21	-27.9	-29.6	13.8	4.50e-06	0	42	0	634388480	16	4427
2026-01-10 12:22:47.51	319.62	10.16	-27.9	-29.8	13.8	3.00e-06	0	42	0	637534208	16	4463
2026-01-10 12:22:48.52	319.76	10.10	-28.0	-29.9	13.7	6.80e-06	0	42	0	640679936	16	4503
2026-01-10 12:22:49.52	319.90	10.04	-28.1	-30.2	13.5	7.60e-06	0	42	0	643825664	16	4579
2026-01-10 12:22:50.53	320.03	9.99	-28.1	-30.3	13.4	1.60e-05	0	42	0	646971392	16	4633
2026-01-10 12:22:51.53	320.17	9.93	-28.1	-30.1	13.5	6.80e-06	0	42	0	650117120	16	4582
2026-01-10 12:22:52.53	320.30	9.87	-28.1	-30.2	13.5	1.14e-05	0	42	0	653262848	16	4612
2026-01-10 12:22:53.54	320.43	9.81	-28.1	-30.3	13.4	1.29e-05	0	42	0	656408576	16	4624
2026-01-10 12:22:54.55	320.57	9.76	-28.2	-30.6	13.2	2.05e-05	0	42	0	659554304	16	4734
2026-01-10 12:22:55.56	320.70	9.70	-28.2	-30.5	13.2	2.67e-05	0	42	0	662700032	16	4709
2026-01-10 12:22:56.56	320.83	9.64	-28.3	-30.9	13.0	2.51e-05	0	42	0	665845760	16	4816
2026-01-10 12:22:57.57	320.96	9.58	-28.4	-31.1	12.9	4.80e-05	0	42	0	668991488	16	4882
2026-01-10 12:22:58.57	321.09	9.53	-28.3	-30.7	13.1	2.97e-05	0	42	0	672137216	16	4755
2026-01-10 12:22:59.58	321.23	9.47	-28.2	-30.5	13.2	2.44e-05	0	42	0	675282944	16	4707
2026-01-10 12:23:00.59	321.36	9.41	-28.3	-30.8	13.1	2.67e-05	0	42	0	678428672	16	4786
2026-01-10 12:23:01.59	321.48	9.36	-28.4	-31.0	13.0	3.58e-05	0	42	0	681574400	16	4854
2026-01-10 12:23:02.61	321.62	9.30	-28.2	-30.6	13.2	2.82e-05	0	42	0	684720128	16	4747
2026-01-10 12:23:03.61	321.74	9.24	-28.6	-31.1	12.6	7.01e-05	0	42	0	687865856	17	4774
2026-01-10 12:23:04.62	321.87	9.18	-28.6	-31.1	12.5	1.23e-04	0	42	0	691011584	17	4788
2026-01-10 12:23:05.62	322.00	9.13	-28.6	-31.2	12.5	1.50e-04	0	42	0	694157312	17	4811
2026-01-10 12:23:06.62	322.13	9.07	-28.7	-31.2	12.5	1.50e-04	0	42	0	697303040	17	4820
2026-01-10 12:23:07.63	322.25	9.01	-28.9	-31.7	12.1	2.07e-04	0	42	0	700448768	17	5019
2026-01-10 12:23:08.64	322.38	8.95	-28.8	-31.6	12.2	2.52e-04	0	42	0	703594496	17	4960
2026-01-10 12:23:09.64	322.51	8.90	-28.9	-31.8	12.1	2.45e-04	0	42	0	706740224	17	5038
2026-01-10 12:23:10.65	322.63	8.84	-28.9	-32.0	12.0	3.19e-04	0	42	0	709885952	17	5097
2026-01-10 12:23:11.67	322.76	8.78	-28.9	-31.7	12.1	2.80e-04	0	42	0	713031680	17	5009
2026-01-10 12:23:12.67	322.88	8.73	-28.9	-31.7	12.1	2.38e-04	0	42	0	716177408	17	5010
2026-01-10 12:23:13.68	323.01	8.67	-28.8	-31.6	12.2	2.23e-04	0	42	0	719323136	17	4971
2026-01-10 12:23:14.69	323.13	8.61	-28.9	-31.9	12.0	2.92e-04	0	42	0	722468864	17	5084
2026-01-10 12:23:15.70	323.25	8.55	-28.9	-31.2	12.1	2.90e-04	0	42	0	725614592	18	4724
2026-01-10 12:23:16.70	323.38	8.50	-28.6	-30.6	12.5	1.43e-04	0	42	0	728760320	18	4533
2026-01-10 12:23:17.70	323.50	8.44	-28.6	-30.5	12.6	9.68e-05	0	42	0	731906048	18	4480
2026-01-10 12:23:18.71	323.62	8.38	-28.6	-30.6	12.5	1.08e-04	0	42	0	735051776	18	4526
2026-01-10 12:23:19.72	323.74	8.33	-28.6	-30.5	12.6	9.84e-05	0	42	0	738197504	18	4500
2026-01-10 12:23:20.72	323.86	8.27	-28.7	-30.7	12.5	1.20e-04	0	42	0	741343232	18	4549
2026-01-10 12:23:21.73	323.98	8.21	-28.6	-30.6	12.5	1.15e-04	0	42	0	744488960	18	4528
2026-01-10 12:23:22.74	324.10	8.15	-28.6	-30.5	12.6	9.23e-05	0	42	0	747634688	18	4482
2026-01-10 12:23:23.75	324.22	8.10	-28.8	-31.1	12.2	1.66e-04	0	42	0	750780416	18	4687
2026-01-10 12:23:24.75	324.34	8.04	-28.8	-31.0	12.3	2.32e-04	0	42	0	753926144	18	4637
2026-01-10 12:23:25.76	324.46	7.98	-28.6	-30.6	12.5	1.09e-04	0	42	0	757071872	18	4518
2026-01-10 12:23:26.76	324.58	7.93	-28.5	-30.3	12.7	9.15e-05	0	42	0	760217600	18	4425
2026-01-10 12:23:27.77	324.69	7.87	-28.6	-30.4	12.6	1.04e-04	0	42	0	763363328	18	4469
2026-01-10 12:23:28.78	324.81	7.81	-28.7	-30.9	12.3	1.35e-04	0	42	0	766509056	18	4612
2026-01-10 12:23:29.78	324.93	7.76	-28.7	-30.9	12.4	1.43e-04	0	42	0	769654784	18	4614
2026-01-10 12:23:30.79	325.04	7.70	-28.7	-30.8	12.3	2.06e-04	0	42	0	772800512	18	4595
2026-01-10 12:23:31.80	325.16	7.64	-28.8	-31.2	12.1	2.26e-04	0	42	0	775946240	18	4712
2026-01-10 12:23:32.80	325.28	7.59	-28.7	-30.9	12.2	2.40e-04	0	42	0	779091968	18	4622
2026-01-10 12:23:33.81	325.39	7.53	-28.9	-31.2	12.1	2.18e-04	0	42	0	782237696	18	4714
2026-01-10 12:23:34.82	325.51	7.47	-28.8	-31.0	12.2	2.37e-04	0	42	0	785383424	18	4647
2026-01-10 12:23:35.83	325.62	7.42	-28.8	-31.2	12.1	1.95e-04	0	42	0	788529152	18	4703
2026-01-10 12:23:36.83	325.73	7.36	-28.8	-31.0	12.3	2.45e-04	0	42	0	791674880	18	4641
2026-01-10 12:23:37.83	325.85	7.30	-28.7	-30.8	12.3	1.62e-04	0	42	0	794820608	18	4586
2026-01-10 12:23:38.84	325.96	7.25	-28.7	-30.8	12.3	2.42e-04	0	42	0	797966336	18	4595
2026-01-10 12:23:39.85	326.07	7.19	-28.7	-30.8	12.3	2.07e-04	0	42	0	801112064	18	4577
2026-01-10 12:23:40.85	326.18	7.13	-28.9	-31.3	12.0	3.48e-04	0	42	0	804257792	18	4749
2026-01-10 12:23:41.86	326.30	7.08	-28.9	-31.4	12.0	3.32e-04	0	42	0	807403520	18	4787
2026-01-10 12:23:42.87	326.41	7.02	-32.8	-44.3	3.8	1.49e+00	0	42	104	809500672	25	13492
2026-01-10 12:23:43.88	326.52	6.96	-33.2	-45.3	3.8	1.49e+00	0	42	104	809500672	26	14405
2026-01-10 12:23:44.88	326.63	6.91	-33.5	-45.8	3.8	1.49e+00	0	42	104	809500672	26	14877

#Closed at: 2026-01-10 12:23:45
#Recorded file [809 MB]: D:/data/31010_260110_151923.dat