passes_logs/2026/01/10/R2M6_AANII_01/R2M6_AANII_01__20260110_003907_NOAA_21_JPSS-2_rec.log

#Pass ID: 20260110_003907_NOAA 21 (JPSS-2)
#Satellite: NOAA 21 (JPSS-2)
#Configuration: NOAA 21
#almurnet v.1.7.20240730
#Start time: 2026-01-10 00:39:07

#Version: 2.2.20231116
#Station: R2M6_AANII_01
#Location: 30.233357 lon 59.946436 lat
#TLE: 1 54234U 22150A   26009.23291724  .00000115  00000+0  75298-4 0  9996
#TLE: 2 54234  98.7494 310.2026 0000856 324.9272  35.1848 14.19533567163994

#Time	Az	El	Level	Level2	SNR	BER	BlckErr	Temp	State	Recorded	gain1	gain2
2026-01-10 00:39:07.22	16.56	6.96	-30.4	-35.2	4.7	1.34e+00	0	42	0	0	20	6267
2026-01-10 00:39:08.21	16.55	7.04	-30.4	-35.3	4.7	1.39e+00	0	42	104	0	20	6314
2026-01-10 00:39:09.19	16.53	7.11	-30.7	-34.8	8.7	3.55e-02	0	42	0	0	21	5821
2026-01-10 00:39:10.19	16.52	7.19	-31.1	-35.9	7.7	1.01e-01	0	42	0	2097152	22	6245
2026-01-10 00:39:11.19	16.51	7.27	-31.1	-35.9	7.6	1.07e-01	0	42	0	5242880	22	6229
2026-01-10 00:39:12.19	16.49	7.34	-30.7	-34.9	8.7	4.38e-02	0	42	0	8388608	21	5826
2026-01-10 00:39:13.18	16.48	7.42	-30.8	-34.7	8.5	9.02e-02	0	42	0	11534336	22	5657
2026-01-10 00:39:14.17	16.47	7.50	-30.4	-33.9	9.5	3.02e-02	0	42	0	14680064	21	5377
2026-01-10 00:39:15.16	16.45	7.57	-30.5	-34.5	9.4	1.98e-02	0	42	0	17825792	20	5753
2026-01-10 00:39:16.17	16.44	7.65	-30.2	-33.7	10.0	9.15e-03	0	42	0	20971520	20	5413
2026-01-10 00:39:17.16	16.43	7.73	-30.4	-34.5	9.4	1.60e-02	0	42	0	24117248	20	5758
2026-01-10 00:39:18.14	16.41	7.81	-30.7	-34.8	8.9	2.52e-02	0	42	0	27262976	21	5759
2026-01-10 00:39:19.14	16.40	7.89	-30.5	-34.3	9.3	2.24e-02	0	42	0	30408704	21	5546
2026-01-10 00:39:20.13	16.38	7.97	-30.9	-35.6	8.3	5.19e-02	0	42	0	33554432	21	6163
2026-01-10 00:39:21.14	16.37	8.05	-31.1	-35.6	8.0	6.11e-02	0	42	0	36700160	22	6034
2026-01-10 00:39:22.13	16.36	8.13	-31.1	-35.6	8.0	6.85e-02	0	42	0	39845888	22	6057
2026-01-10 00:39:23.14	16.34	8.21	-31.1	-35.6	8.0	7.66e-02	0	42	0	42991616	22	6061
2026-01-10 00:39:24.13	16.33	8.29	-30.7	-34.9	8.9	2.34e-02	0	42	0	46137344	21	5814
2026-01-10 00:39:25.13	16.31	8.37	-30.9	-35.5	8.4	4.19e-02	0	42	0	49283072	21	6110
2026-01-10 00:39:26.13	16.30	8.45	-30.7	-34.8	8.9	2.93e-02	0	42	0	52428800	21	5763
2026-01-10 00:39:27.13	16.28	8.53	-30.4	-33.9	9.6	2.09e-02	0	42	0	55574528	21	5370
2026-01-10 00:39:28.13	16.27	8.61	-30.4	-34.2	9.7	1.09e-02	0	42	0	58720256	20	5608
2026-01-10 00:39:29.12	16.25	8.69	-30.4	-34.2	9.7	1.47e-02	0	42	0	61865984	20	5617
2026-01-10 00:39:30.12	16.24	8.77	-30.6	-34.4	9.3	2.22e-02	0	42	0	65011712	21	5584
2026-01-10 00:39:31.11	16.22	8.85	-30.2	-33.0	10.2	9.71e-03	0	42	0	68157440	21	5020
2026-01-10 00:39:32.10	16.21	8.94	-29.8	-33.2	10.9	6.65e-03	0	42	0	71303168	19	5266
2026-01-10 00:39:33.11	16.19	9.02	-30.4	-33.8	9.7	1.77e-02	0	42	0	74448896	21	5301
2026-01-10 00:39:34.10	16.18	9.10	-30.0	-33.4	10.9	2.31e-03	0	42	0	77594624	19	5356
2026-01-10 00:39:35.09	16.16	9.18	-29.8	-32.9	11.1	5.66e-03	0	42	0	80740352	19	5171
2026-01-10 00:39:36.09	16.15	9.27	-29.5	-32.2	11.7	5.48e-04	0	42	0	83886080	19	4890
2026-01-10 00:39:37.09	16.13	9.35	-29.2	-31.5	12.1	7.43e-04	0	42	0	87031808	19	4661
2026-01-10 00:39:38.08	16.11	9.43	-29.2	-31.8	12.3	5.05e-03	0	42	0	90177536	18	4860
2026-01-10 00:39:39.08	16.10	9.52	-29.5	-32.2	11.6	5.38e-03	0	42	0	93323264	19	4906
2026-01-10 00:39:40.07	16.08	9.60	-29.5	-32.3	11.7	7.22e-04	0	42	0	95420416	19	4938
2026-01-10 00:39:41.06	16.07	9.69	-29.7	-32.6	11.5	4.23e-03	0	42	0	98566144	19	5035
2026-01-10 00:39:42.05	16.05	9.77	-29.8	-32.8	11.3	5.66e-03	0	42	0	101711872	19	5118
2026-01-10 00:39:43.05	16.03	9.86	-28.7	-30.6	13.0	4.23e-04	0	42	0	104857600	18	4476
2026-01-10 00:39:44.04	16.02	9.94	-29.7	-32.6	11.4	5.62e-03	0	42	0	108003328	19	5053
2026-01-10 00:39:45.03	16.00	10.03	-28.8	-30.8	12.9	4.72e-03	0	42	0	111149056	18	4539
2026-01-10 00:39:46.04	15.98	10.11	-29.0	-30.8	12.6	2.87e-04	0	42	0	114294784	19	4437
2026-01-10 00:39:47.04	15.96	10.20	-28.5	-30.7	13.2	4.42e-03	0	42	0	117440512	17	4637
2026-01-10 00:39:48.03	15.95	10.29	-28.7	-31.2	12.9	4.14e-03	0	42	0	120586240	17	4777
2026-01-10 00:39:49.03	15.93	10.37	-28.4	-30.4	13.5	3.44e-04	0	42	0	123731968	17	4514
2026-01-10 00:39:50.02	15.91	10.46	-29.4	-32.3	12.0	4.45e-03	0	42	0	126877696	18	5050
2026-01-10 00:39:51.01	15.90	10.55	-28.9	-31.5	12.7	4.76e-03	0	42	0	130023424	17	4884
2026-01-10 00:39:52.01	15.88	10.63	-28.6	-30.8	13.2	4.01e-04	0	42	0	133169152	17	4663
2026-01-10 00:39:53.01	15.86	10.72	-28.6	-30.9	13.1	4.84e-03	0	42	0	136314880	17	4677
2026-01-10 00:39:54.00	15.84	10.81	-28.8	-31.3	12.9	4.53e-03	0	42	0	139460608	17	4794
2026-01-10 00:39:55.00	15.82	10.90	-28.4	-30.3	13.6	3.50e-04	0	42	0	142606336	17	4482
2026-01-10 00:39:55.99	15.81	10.99	-28.6	-30.3	13.2	4.30e-03	0	42	0	145752064	18	4383
2026-01-10 00:39:56.99	15.79	11.08	-28.8	-30.9	12.9	4.08e-03	0	42	0	148897792	18	4571
2026-01-10 00:39:57.99	15.77	11.17	-28.0	-29.4	14.2	3.05e-04	0	42	0	152043520	17	4221
2026-01-10 00:39:58.98	15.75	11.26	-27.8	-29.3	14.5	4.10e-03	0	42	0	155189248	16	4306
2026-01-10 00:39:59.97	15.73	11.35	-28.2	-30.0	13.8	4.55e-03	0	42	0	158334976	17	4394
2026-01-10 00:40:00.96	15.71	11.44	-27.9	-29.3	14.2	3.93e-04	0	42	0	161480704	17	4188
2026-01-10 00:40:01.96	15.69	11.53	-27.7	-29.8	14.3	4.50e-03	0	42	0	164626432	15	4553
2026-01-10 00:40:02.97	15.67	11.62	-28.3	-30.6	13.9	4.27e-03	0	42	0	167772160	16	4675
2026-01-10 00:40:03.96	15.66	11.71	-28.1	-30.2	14.2	4.43e-04	0	42	0	170917888	16	4541
2026-01-10 00:40:04.96	15.64	11.80	-28.3	-30.6	13.8	2.42e-03	0	42	0	174063616	16	4684
2026-01-10 00:40:05.95	15.62	11.90	-27.9	-30.1	14.3	4.17e-03	0	42	0	177209344	15	4661
2026-01-10 00:40:06.95	15.60	11.99	-27.8	-29.9	14.4	4.41e-04	0	42	0	180355072	15	4578
2026-01-10 00:40:07.95	15.58	12.08	-28.2	-30.3	14.0	4.14e-03	0	42	0	183500800	16	4602
2026-01-10 00:40:08.93	15.56	12.17	-28.1	-30.1	14.1	4.36e-03	0	42	0	186646528	16	4527
2026-01-10 00:40:09.92	15.54	12.27	-28.4	-30.4	13.7	3.80e-06	0	42	0	189792256	17	4498
2026-01-10 00:40:10.92	15.52	12.36	-28.0	-29.9	14.3	4.42e-03	0	42	0	191889408	16	4468
2026-01-10 00:40:11.91	15.50	12.46	-27.8	-29.9	14.5	4.39e-03	0	42	0	195035136	15	4576
2026-01-10 00:40:12.91	15.47	12.55	-27.8	-29.9	14.4	4.08e-04	0	42	0	198180864	15	4600
2026-01-10 00:40:13.90	15.45	12.65	-28.1	-30.0	14.2	4.50e-03	0	42	0	201326592	16	4490
2026-01-10 00:40:14.90	15.43	12.74	-27.8	-29.9	14.5	7.00e-07	0	42	0	204472320	15	4573
2026-01-10 00:40:15.89	15.41	12.84	-27.6	-29.3	14.8	4.57e-04	0	42	0	207618048	15	4413
2026-01-10 00:40:16.90	15.39	12.94	-27.7	-29.7	14.6	4.00e-03	0	42	0	210763776	15	4535
2026-01-10 00:40:17.90	15.37	13.03	-27.7	-29.7	14.6	4.37e-03	0	42	0	213909504	15	4514
2026-01-10 00:40:18.90	15.35	13.13	-27.4	-29.1	14.9	4.12e-04	0	42	0	217055232	15	4341
2026-01-10 00:40:19.90	15.32	13.23	-27.4	-29.6	14.9	0.00e+00	0	42	0	220200960	14	4597
2026-01-10 00:40:20.89	15.30	13.32	-27.4	-29.4	15.0	4.21e-03	0	42	0	223346688	14	4559
2026-01-10 00:40:21.90	15.28	13.42	-27.4	-29.6	14.9	4.89e-04	0	42	0	226492416	14	4592
2026-01-10 00:40:22.90	15.26	13.52	-27.4	-29.5	15.0	4.25e-03	0	42	0	229638144	14	4570
2026-01-10 00:40:23.90	15.23	13.62	-27.3	-29.3	15.0	3.94e-03	0	42	0	232783872	14	4528
2026-01-10 00:40:24.89	15.21	13.72	-27.3	-29.1	15.2	0.00e+00	0	42	0	235929600	14	4472
2026-01-10 00:40:25.89	15.19	13.82	-27.2	-29.0	15.3	0.00e+00	0	42	0	239075328	14	4437
2026-01-10 00:40:26.88	15.17	13.92	-27.4	-29.4	15.1	4.32e-03	0	42	0	242221056	14	4536
2026-01-10 00:40:27.88	15.14	14.02	-27.2	-28.6	15.3	3.65e-04	0	42	0	245366784	15	4213
2026-01-10 00:40:28.88	15.12	14.12	-27.0	-28.6	15.5	1.15e-03	0	42	0	248512512	14	4317
2026-01-10 00:40:29.86	15.10	14.22	-27.1	-28.8	15.4	0.00e+00	0	42	0	251658240	14	4378
2026-01-10 00:40:30.86	15.07	14.33	-27.2	-29.1	15.3	3.14e-04	0	42	0	254803968	14	4457
2026-01-10 00:40:31.85	15.05	14.43	-27.2	-28.9	15.3	4.33e-03	0	42	0	257949696	14	4406
2026-01-10 00:40:32.85	15.02	14.53	-27.3	-29.1	15.2	4.18e-03	0	42	0	261095424	14	4461
2026-01-10 00:40:33.85	15.00	14.63	-27.3	-29.3	15.1	0.00e+00	0	42	0	264241152	14	4526
2026-01-10 00:40:34.84	14.97	14.74	-27.3	-29.2	15.2	0.00e+00	0	42	0	267386880	14	4473
2026-01-10 00:40:35.84	14.95	14.84	-27.4	-29.5	15.0	4.44e-03	0	42	0	270532608	14	4578
2026-01-10 00:40:36.84	14.92	14.95	-27.5	-29.2	14.9	2.55e-04	0	42	0	273678336	15	4377
2026-01-10 00:40:37.83	14.90	15.05	-27.5	-29.6	14.9	4.48e-03	0	42	0	276824064	14	4607
2026-01-10 00:40:38.84	14.87	15.16	-27.5	-29.2	14.9	0.00e+00	0	42	0	279969792	15	4379
2026-01-10 00:40:39.83	14.85	15.26	-27.7	-29.6	14.7	0.00e+00	0	42	0	283115520	15	4485
2026-01-10 00:40:40.82	14.82	15.37	-27.5	-29.2	14.9	0.00e+00	0	42	0	286261248	15	4376
2026-01-10 00:40:41.82	14.80	15.48	-27.6	-29.5	14.8	3.92e-03	0	42	0	288358400	15	4458
2026-01-10 00:40:42.81	14.77	15.58	-27.7	-29.6	14.7	3.23e-04	0	42	0	291504128	15	4483
2026-01-10 00:40:43.81	14.74	15.69	-27.6	-29.5	14.8	0.00e+00	0	42	0	294649856	15	4450
2026-01-10 00:40:44.80	14.72	15.80	-27.6	-29.3	14.9	0.00e+00	0	42	0	297795584	15	4404
2026-01-10 00:40:45.80	14.69	15.91	-27.7	-29.7	14.8	2.54e-04	0	42	0	300941312	15	4512
2026-01-10 00:40:46.80	14.66	16.02	-27.7	-29.5	14.8	4.53e-03	0	42	0	304087040	15	4476
2026-01-10 00:40:47.80	14.63	16.13	-27.7	-29.6	14.8	4.30e-03	0	42	0	307232768	15	4480
2026-01-10 00:40:48.79	14.61	16.24	-27.9	-30.2	14.4	0.00e+00	0	42	0	310378496	15	4666
2026-01-10 00:40:49.78	14.58	16.35	-27.9	-30.2	14.4	0.00e+00	0	42	0	313524224	15	4658
2026-01-10 00:40:50.77	14.55	16.46	-27.7	-29.7	14.7	7.00e-07	0	42	0	316669952	15	4525
2026-01-10 00:40:51.77	14.52	16.57	-27.8	-29.8	14.7	2.92e-04	0	42	0	319815680	15	4531
2026-01-10 00:40:52.77	14.49	16.68	-27.8	-30.0	14.6	4.02e-03	0	42	0	322961408	15	4599
2026-01-10 00:40:53.77	14.47	16.79	-28.2	-30.3	14.3	7.00e-07	0	42	0	326107136	16	4556
2026-01-10 00:40:54.76	14.44	16.91	-28.1	-30.0	14.5	7.00e-07	0	42	0	329252864	16	4480
2026-01-10 00:40:55.76	14.41	17.02	-28.3	-30.5	14.2	4.44e-03	0	42	0	332398592	16	4618
2026-01-10 00:40:56.75	14.38	17.13	-28.1	-30.0	14.5	4.28e-03	0	42	0	335544320	16	4482
2026-01-10 00:40:57.75	14.35	17.25	-27.7	-29.6	14.8	2.56e-04	0	42	0	338690048	15	4477
2026-01-10 00:40:58.75	14.32	17.37	-27.6	-29.3	14.9	4.27e-03	0	42	0	341835776	15	4404
2026-01-10 00:40:59.74	14.29	17.48	-27.8	-29.8	14.7	0.00e+00	0	42	0	344981504	15	4555
2026-01-10 00:41:00.74	14.26	17.60	-27.6	-29.4	14.9	2.35e-04	0	42	0	348127232	15	4438
2026-01-10 00:41:01.73	14.23	17.71	-27.8	-29.8	14.7	4.03e-03	0	42	0	351272960	15	4543
2026-01-10 00:41:02.73	14.19	17.83	-27.7	-29.7	14.7	4.39e-03	0	42	0	354418688	15	4520
2026-01-10 00:41:03.72	14.16	17.95	-27.6	-29.5	14.9	2.69e-04	0	42	0	357564416	15	4450
2026-01-10 00:41:04.72	14.13	18.07	-27.5	-29.3	15.0	0.00e+00	0	42	0	360710144	15	4388
2026-01-10 00:41:05.72	14.10	18.19	-27.8	-29.8	14.7	4.23e-03	0	42	0	363855872	15	4543
2026-01-10 00:41:06.72	14.07	18.31	-27.6	-29.4	14.9	2.25e-04	0	42	0	367001600	15	4433
2026-01-10 00:41:07.72	14.03	18.43	-27.6	-29.3	15.0	4.27e-03	0	42	0	370147328	15	4399
2026-01-10 00:41:08.71	14.00	18.55	-27.6	-29.3	15.0	3.72e-03	0	42	0	373293056	15	4404
2026-01-10 00:41:09.70	13.97	18.67	-27.7	-29.6	14.8	0.00e+00	0	42	0	376438784	15	4478
2026-01-10 00:41:10.70	13.93	18.79	-27.7	-29.7	14.8	3.75e-03	0	42	0	379584512	15	4500
2026-01-10 00:41:11.70	13.90	18.91	-27.4	-28.9	15.2	4.18e-03	0	42	0	382730240	15	4276
2026-01-10 00:41:12.69	13.87	19.04	-27.5	-29.2	15.1	2.28e-04	0	42	0	385875968	15	4376
2026-01-10 00:41:13.69	13.83	19.16	-27.6	-29.4	15.0	4.33e-03	0	42	0	389021696	15	4418
2026-01-10 00:41:14.68	13.80	19.28	-27.7	-29.5	14.9	7.00e-07	0	42	0	392167424	15	4452
2026-01-10 00:41:15.67	13.76	19.41	-27.5	-29.1	15.2	0.00e+00	0	42	0	395313152	15	4346
2026-01-10 00:41:16.67	13.73	19.53	-27.8	-29.9	14.8	3.98e-03	0	42	0	397410304	15	4565
2026-01-10 00:41:17.67	13.69	19.66	-28.1	-30.0	14.6	3.64e-03	0	42	0	400556032	16	4465
2026-01-10 00:41:18.65	13.66	19.79	-27.6	-28.8	15.3	1.07e-04	0	42	0	403701760	16	4131
2026-01-10 00:41:19.65	13.62	19.91	-27.5	-29.1	15.3	0.00e+00	0	42	0	406847488	15	4337
2026-01-10 00:41:20.64	13.58	20.04	-27.4	-29.0	15.3	4.05e-03	0	42	0	409993216	15	4288
2026-01-10 00:41:21.63	13.55	20.17	-27.6	-29.4	15.2	1.43e-04	0	42	0	413138944	15	4406
2026-01-10 00:41:22.64	13.51	20.30	-27.5	-29.2	15.2	4.13e-03	0	42	0	416284672	15	4361
2026-01-10 00:41:23.64	13.47	20.43	-27.4	-29.3	15.4	4.09e-03	0	42	0	419430400	14	4515
2026-01-10 00:41:24.64	13.43	20.56	-27.3	-28.7	15.5	7.00e-07	0	42	0	422576128	15	4221
2026-01-10 00:41:25.64	13.39	20.69	-27.6	-29.4	15.2	3.99e-03	0	42	0	425721856	15	4398
2026-01-10 00:41:26.63	13.36	20.82	-27.4	-28.8	15.4	3.71e-03	0	42	0	428867584	15	4255
2026-01-10 00:41:27.63	13.32	20.96	-27.2	-28.5	15.6	8.23e-05	0	42	0	432013312	15	4177
2026-01-10 00:41:28.63	13.28	21.09	-27.4	-28.8	15.6	3.67e-03	0	42	0	435159040	15	4228
2026-01-10 00:41:29.62	13.24	21.23	-27.5	-29.0	15.4	4.01e-03	0	42	0	438304768	15	4315
2026-01-10 00:41:30.62	13.20	21.36	-27.5	-29.1	15.3	1.83e-05	0	42	0	441450496	15	4335
2026-01-10 00:41:31.61	13.16	21.50	-27.4	-29.4	15.4	4.16e-03	0	42	0	444596224	14	4515
2026-01-10 00:41:32.61	13.11	21.63	-27.4	-29.4	15.4	3.98e-03	0	42	0	447741952	14	4529
2026-01-10 00:41:33.60	13.07	21.77	-27.9	-29.6	14.9	1.78e-04	0	42	0	450887680	16	4345
2026-01-10 00:41:34.60	13.03	21.91	-27.4	-28.8	15.5	3.96e-03	0	42	0	454033408	15	4250
2026-01-10 00:41:35.60	12.99	22.05	-27.3	-29.0	15.7	3.55e-03	0	42	0	457179136	14	4410
2026-01-10 00:41:36.58	12.95	22.18	-27.2	-28.9	15.8	1.47e-04	0	42	0	460324864	14	4386
2026-01-10 00:41:37.58	12.90	22.32	-27.3	-28.7	15.6	3.64e-03	0	42	0	463470592	15	4213
2026-01-10 00:41:38.58	12.86	22.46	-27.7	-29.6	15.1	4.20e-03	0	42	0	466616320	15	4451
2026-01-10 00:41:39.56	12.82	22.60	-27.2	-28.5	15.7	0.00e+00	0	42	0	469762048	15	4150
2026-01-10 00:41:40.55	12.77	22.74	-27.4	-28.9	15.6	4.07e-03	0	42	0	472907776	15	4252
2026-01-10 00:41:41.55	12.73	22.89	-27.8	-29.7	15.3	3.95e-03	0	42	0	476053504	15	4481
2026-01-10 00:41:42.54	12.68	23.03	-28.8	-31.0	14.0	9.61e-05	0	42	0	479199232	17	4661
2026-01-10 00:41:43.54	12.64	23.18	-28.0	-29.6	15.0	4.00e-03	0	42	0	482344960	16	4353
2026-01-10 00:41:44.54	12.59	23.32	-27.4	-28.8	15.7	3.59e-03	0	42	0	484442112	15	4245
2026-01-10 00:41:45.53	12.54	23.47	-27.2	-28.4	15.9	1.50e-06	0	42	0	487587840	15	4132
2026-01-10 00:41:46.52	12.50	23.61	-26.7	-27.8	16.4	3.52e-03	0	42	0	490733568	14	4084
2026-01-10 00:41:47.51	12.45	23.76	-26.5	-27.8	16.7	4.08e-03	0	42	0	493879296	13	4182
2026-01-10 00:41:48.51	12.40	23.91	-26.3	-27.4	16.9	0.00e+00	0	42	0	497025024	13	4083
2026-01-10 00:41:49.50	12.35	24.06	-26.3	-28.0	16.9	0.00e+00	0	42	0	500170752	12	4349
2026-01-10 00:41:50.50	12.30	24.21	-26.5	-27.8	16.7	3.90e-03	0	42	0	503316480	13	4176
2026-01-10 00:41:51.49	12.26	24.36	-26.5	-27.9	16.9	0.00e+00	0	42	0	506462208	13	4201
2026-01-10 00:41:52.48	12.21	24.51	-26.7	-28.3	16.6	3.81e-03	0	42	0	509607936	13	4310
2026-01-10 00:41:53.47	12.15	24.66	-26.8	-28.5	16.4	3.18e-03	0	42	0	512753664	13	4377
2026-01-10 00:41:54.47	12.10	24.82	-26.7	-27.8	16.7	0.00e+00	0	42	0	515899392	14	4059
2026-01-10 00:41:55.46	12.05	24.97	-26.8	-28.4	16.7	3.08e-03	0	42	0	519045120	13	4347
2026-01-10 00:41:56.45	12.00	25.12	-27.0	-28.8	16.4	2.77e-03	0	42	0	522190848	13	4460
2026-01-10 00:41:57.46	11.95	25.28	-26.9	-28.2	16.4	0.00e+00	0	42	0	525336576	14	4166
2026-01-10 00:41:58.46	11.89	25.44	-26.9	-28.7	16.4	2.74e-03	0	42	0	528482304	13	4440
2026-01-10 00:41:59.45	11.84	25.60	-27.1	-28.6	16.4	0.00e+00	0	42	0	531628032	14	4287
2026-01-10 00:42:00.45	11.78	25.76	-27.0	-28.4	16.3	0.00e+00	0	42	0	534773760	14	4246
2026-01-10 00:42:01.43	11.73	25.91	-27.3	-29.0	15.9	2.62e-03	0	42	0	537919488	14	4404
2026-01-10 00:42:02.42	11.68	26.07	-27.3	-29.2	15.9	2.05e-03	0	42	0	541065216	14	4446
2026-01-10 00:42:03.42	11.62	26.24	-27.4	-29.4	15.7	0.00e+00	0	42	0	544210944	14	4508
2026-01-10 00:42:04.41	11.56	26.40	-27.5	-29.1	15.6	0.00e+00	0	42	0	547356672	15	4311
2026-01-10 00:42:05.40	11.50	26.56	-27.3	-28.5	15.8	1.89e-03	0	42	0	550502400	15	4163
2026-01-10 00:42:06.40	11.45	26.73	-27.5	-29.0	15.6	0.00e+00	0	42	0	553648128	15	4278
2026-01-10 00:42:07.40	11.39	26.89	-27.9	-29.5	15.2	2.27e-03	0	42	0	556793856	16	4294
2026-01-10 00:42:08.39	11.33	27.06	-27.5	-29.1	15.6	2.28e-03	0	42	0	559939584	15	4304
2026-01-10 00:42:09.39	11.27	27.23	-27.5	-29.0	15.9	0.00e+00	0	42	0	563085312	15	4273
2026-01-10 00:42:10.38	11.21	27.39	-27.7	-29.3	15.7	2.00e-03	0	42	0	566231040	15	4355
2026-01-10 00:42:11.37	11.15	27.56	-27.7	-29.3	15.7	1.75e-03	0	42	0	569376768	15	4364
2026-01-10 00:42:12.36	11.08	27.73	-27.7	-29.4	15.7	0.00e+00	0	42	0	571473920	15	4373
2026-01-10 00:42:13.36	11.02	27.91	-27.8	-29.6	15.5	0.00e+00	0	42	0	574619648	15	4445
2026-01-10 00:42:14.35	10.96	28.08	-27.9	-29.8	15.5	0.00e+00	0	42	0	577765376	15	4495
2026-01-10 00:42:15.35	10.89	28.25	-28.5	-30.2	14.7	0.00e+00	0	42	0	580911104	17	4388
2026-01-10 00:42:16.35	10.83	28.43	-28.1	-29.2	15.4	7.84e-04	0	42	0	584056832	17	4101
2026-01-10 00:42:17.34	10.76	28.60	-28.3	-29.9	14.8	9.09e-04	0	42	0	587202560	17	4296
2026-01-10 00:42:18.34	10.70	28.78	-28.2	-29.6	15.0	0.00e+00	0	42	0	590348288	17	4220
2026-01-10 00:42:19.33	10.63	28.96	-27.9	-29.3	15.4	0.00e+00	0	42	0	593494016	16	4250
2026-01-10 00:42:20.33	10.56	29.14	-27.9	-29.4	15.6	9.93e-04	0	42	0	596639744	16	4264
2026-01-10 00:42:21.33	10.49	29.32	-27.6	-28.7	15.8	0.00e+00	0	42	0	599785472	16	4100
2026-01-10 00:42:22.33	10.42	29.50	-27.9	-29.8	15.5	1.29e-03	0	42	0	602931200	15	4499
2026-01-10 00:42:23.32	10.35	29.68	-27.6	-29.2	15.9	0.00e+00	0	42	0	606076928	15	4326
2026-01-10 00:42:24.31	10.28	29.86	-27.5	-29.1	15.9	0.00e+00	0	42	0	609222656	15	4286
2026-01-10 00:42:25.30	10.21	30.05	-28.1	-29.7	15.4	1.63e-04	0	42	0	612368384	16	4352
2026-01-10 00:42:26.29	10.13	30.23	-27.6	-28.7	16.0	1.77e-04	0	42	0	615514112	16	4073
2026-01-10 00:42:27.29	10.06	30.42	-27.4	-28.3	16.1	0.00e+00	0	42	0	618659840	16	3983
2026-01-10 00:42:28.29	9.99	30.61	-27.7	-28.9	16.0	0.00e+00	0	42	0	621805568	16	4121
2026-01-10 00:42:29.28	9.91	30.80	-27.6	-28.7	16.0	0.00e+00	0	42	0	624951296	16	4065
2026-01-10 00:42:30.28	9.83	30.99	-27.7	-28.8	16.0	0.00e+00	0	42	0	628097024	16	4092
2026-01-10 00:42:31.27	9.75	31.18	-27.4	-28.3	16.2	1.41e-04	0	42	0	631242752	16	3973
2026-01-10 00:42:32.27	9.68	31.37	-27.6	-28.6	16.0	1.97e-04	0	42	0	634388480	16	4044
2026-01-10 00:42:33.27	9.60	31.57	-27.6	-28.7	16.0	0.00e+00	0	42	0	637534208	16	4071
2026-01-10 00:42:34.28	9.51	31.76	-27.5	-28.4	16.2	0.00e+00	0	42	0	640679936	16	3995
2026-01-10 00:42:35.28	9.43	31.96	-27.5	-29.0	16.0	4.81e-04	0	42	0	643825664	15	4258
2026-01-10 00:42:36.28	9.35	32.16	-27.4	-28.7	16.2	0.00e+00	0	42	0	646971392	15	4198
2026-01-10 00:42:37.28	9.26	32.36	-27.4	-28.8	16.0	6.15e-04	0	42	0	650117120	15	4219
2026-01-10 00:42:38.28	9.18	32.56	-27.5	-29.0	16.0	5.50e-04	0	42	0	653262848	15	4259
2026-01-10 00:42:39.28	9.09	32.76	-27.7	-29.4	15.8	0.00e+00	0	42	0	656408576	15	4375
2026-01-10 00:42:40.29	9.00	32.97	-27.7	-29.4	15.7	4.80e-04	0	42	0	659554304	15	4388
2026-01-10 00:42:41.29	8.91	33.17	-27.8	-29.7	15.6	2.42e-04	0	42	0	662700032	15	4464
2026-01-10 00:42:42.29	8.82	33.38	-27.8	-29.6	15.5	0.00e+00	0	42	0	665845760	15	4444
2026-01-10 00:42:43.29	8.73	33.59	-27.8	-29.7	15.4	2.08e-04	0	42	0	668991488	15	4487
2026-01-10 00:42:44.29	8.64	33.80	-27.9	-29.9	15.2	0.00e+00	0	42	0	672137216	15	4531
2026-01-10 00:42:45.29	8.55	34.01	-28.2	-30.0	15.0	7.00e-07	0	42	0	675282944	16	4440
2026-01-10 00:42:46.30	8.45	34.22	-28.2	-30.1	15.1	5.95e-04	0	42	0	678428672	16	4468
2026-01-10 00:42:47.31	8.35	34.44	-28.3	-30.3	14.9	5.48e-04	0	42	0	681574400	16	4529
2026-01-10 00:42:48.31	8.26	34.65	-28.3	-30.2	14.9	0.00e+00	0	42	0	683671552	16	4497
2026-01-10 00:42:49.31	8.16	34.87	-28.3	-30.3	14.9	6.64e-04	0	42	0	686817280	16	4537
2026-01-10 00:42:50.31	8.06	35.08	-28.3	-30.4	14.8	5.45e-04	0	42	0	689963008	16	4575
2026-01-10 00:42:51.31	7.95	35.30	-28.4	-30.6	14.6	1.50e-06	0	42	0	693108736	16	4639
2026-01-10 00:42:52.31	7.85	35.52	-28.6	-30.4	14.5	3.95e-04	0	42	0	696254464	17	4460
2026-01-10 00:42:53.31	7.75	35.75	-28.7	-30.1	14.6	2.95e-04	0	42	0	699400192	18	4251
2026-01-10 00:42:54.30	7.64	35.97	-28.8	-30.3	14.6	0.00e+00	0	42	0	702545920	18	4288
2026-01-10 00:42:55.31	7.53	36.19	-28.9	-30.6	14.4	7.00e-07	0	42	0	705691648	18	4375
2026-01-10 00:42:56.31	7.42	36.42	-28.9	-31.2	14.3	5.78e-04	0	42	0	708837376	17	4673
2026-01-10 00:42:57.31	7.31	36.65	-29.2	-31.3	13.9	3.80e-06	0	42	0	711983104	18	4583
2026-01-10 00:42:58.31	7.20	36.87	-29.3	-31.6	13.7	1.13e-03	0	42	0	715128832	18	4681
2026-01-10 00:42:59.32	7.09	37.11	-29.4	-31.8	13.5	1.07e-03	0	42	0	718274560	18	4755
2026-01-10 00:43:00.31	6.97	37.34	-29.4	-31.4	13.6	9.10e-06	0	42	0	721420288	19	4522
2026-01-10 00:43:01.31	6.85	37.57	-29.3	-31.6	13.7	1.28e-03	0	42	0	724566016	18	4685
2026-01-10 00:43:02.31	6.73	37.80	-29.3	-31.4	13.9	1.30e-03	0	42	0	727711744	18	4636
2026-01-10 00:43:03.31	6.61	38.04	-29.1	-31.1	14.0	3.80e-06	0	42	0	730857472	18	4538
2026-01-10 00:43:04.31	6.49	38.28	-29.2	-31.3	13.9	1.86e-03	0	42	0	734003200	18	4584
2026-01-10 00:43:05.32	6.37	38.52	-29.1	-31.2	13.9	1.75e-03	0	42	0	737148928	18	4573
2026-01-10 00:43:06.32	6.24	38.76	-28.8	-30.6	14.1	7.00e-07	0	42	0	740294656	18	4387
2026-01-10 00:43:07.32	6.11	39.00	-29.0	-30.9	14.0	9.87e-04	0	42	0	743440384	18	4481
2026-01-10 00:43:08.32	5.98	39.25	-29.1	-31.3	13.8	6.88e-04	0	42	0	746586112	18	4602
2026-01-10 00:43:09.32	5.85	39.49	-29.3	-31.2	13.7	1.83e-05	0	42	0	749731840	19	4445
2026-01-10 00:43:10.31	5.71	39.74	-29.3	-31.5	13.6	8.51e-04	0	42	0	752877568	18	4682
2026-01-10 00:43:11.32	5.58	39.99	-29.4	-31.8	13.4	9.10e-06	0	42	0	756023296	18	4783
2026-01-10 00:43:12.32	5.44	40.24	-29.3	-31.8	13.4	1.75e-05	0	42	0	759169024	18	4767
2026-01-10 00:43:13.31	5.30	40.49	-29.3	-31.7	13.5	1.76e-03	0	42	0	762314752	18	4721
2026-01-10 00:43:14.31	5.15	40.74	-29.4	-31.9	13.3	1.80e-03	0	42	0	765460480	18	4806
2026-01-10 00:43:15.30	5.01	40.99	-29.5	-32.0	13.3	2.59e-05	0	42	0	768606208	18	4848
2026-01-10 00:43:16.31	4.86	41.25	-29.4	-31.5	13.2	1.79e-03	0	42	0	771751936	19	4576
2026-01-10 00:43:17.30	4.71	41.51	-29.5	-31.7	13.1	2.63e-03	0	42	0	774897664	19	4647
2026-01-10 00:43:18.31	4.56	41.77	-29.7	-32.2	12.8	4.11e-05	0	42	0	778043392	19	4796
2026-01-10 00:43:19.31	4.40	42.03	-29.7	-32.1	12.9	3.36e-03	0	42	0	781189120	19	4766
2026-01-10 00:43:20.31	4.24	42.30	-29.7	-32.2	12.9	3.31e-03	0	42	0	784334848	19	4795
2026-01-10 00:43:21.31	4.08	42.56	-29.7	-32.0	13.0	5.95e-05	0	42	0	787480576	19	4728
2026-01-10 00:43:22.31	3.92	42.83	-29.4	-31.9	13.3	3.14e-03	0	42	0	790626304	18	4817
2026-01-10 00:43:23.31	3.75	43.09	-29.3	-31.6	13.5	2.67e-03	0	42	0	793772032	18	4703
2026-01-10 00:43:24.30	3.58	43.36	-29.2	-31.4	13.6	4.50e-06	0	42	0	796917760	18	4630
2026-01-10 00:43:25.30	3.41	43.63	-29.3	-31.6	13.5	2.99e-03	0	42	0	800063488	18	4705
2026-01-10 00:43:26.30	3.24	43.91	-29.3	-31.7	13.4	3.09e-03	0	42	0	803209216	18	4744
2026-01-10 00:43:27.31	3.06	44.18	-29.2	-31.5	13.5	1.29e-05	0	42	0	806354944	18	4688
2026-01-10 00:43:28.31	2.88	44.46	-29.3	-31.7	13.4	3.51e-03	0	42	0	809500672	18	4735
2026-01-10 00:43:29.31	2.69	44.74	-29.3	-31.7	13.4	3.39e-03	0	42	0	812646400	18	4729
2026-01-10 00:43:30.32	2.50	45.02	-29.3	-31.7	13.4	1.29e-05	0	42	0	815792128	18	4732
2026-01-10 00:43:31.32	2.31	45.30	-29.4	-31.8	13.4	3.49e-03	0	42	0	818937856	18	4776
2026-01-10 00:43:32.32	2.11	45.58	-29.3	-31.6	13.4	1.67e-05	0	42	0	822083584	18	4714
2026-01-10 00:43:33.32	1.92	45.87	-29.4	-31.3	13.4	9.10e-06	0	42	0	825229312	19	4511
2026-01-10 00:43:34.32	1.71	46.15	-29.3	-31.7	13.4	3.55e-03	0	42	0	828375040	18	4735
2026-01-10 00:43:35.33	1.51	46.44	-29.0	-31.0	13.8	3.34e-03	0	42	0	831520768	18	4531
2026-01-10 00:43:36.33	1.30	46.73	-29.1	-31.2	13.7	6.10e-06	0	42	0	834666496	18	4568
2026-01-10 00:43:37.33	1.08	47.02	-28.9	-30.7	14.0	4.50e-06	0	42	0	837812224	18	4421
2026-01-10 00:43:38.34	0.86	47.32	-28.7	-30.8	14.2	1.50e-06	0	42	0	840957952	17	4573
2026-01-10 00:43:39.34	0.64	47.61	-28.7	-30.8	14.2	4.50e-06	0	42	0	844103680	17	4577
2026-01-10 00:43:40.34	0.41	47.91	-28.7	-30.8	14.2	3.68e-03	0	42	0	847249408	17	4577
2026-01-10 00:43:41.35	0.18	48.21	-28.8	-31.0	14.1	3.47e-03	0	42	0	850395136	17	4642
2026-01-10 00:43:42.34	359.95	48.50	-28.8	-31.0	14.0	1.50e-06	0	42	0	853540864	17	4650
2026-01-10 00:43:43.34	359.71	48.80	-28.8	-31.0	14.1	2.20e-06	0	42	0	856686592	17	4634
2026-01-10 00:43:44.34	359.46	49.10	-28.9	-31.3	13.9	1.50e-06	0	42	0	859832320	17	4715
2026-01-10 00:43:45.33	359.21	49.40	-28.8	-31.0	14.1	2.20e-06	0	42	0	862978048	17	4641
2026-01-10 00:43:46.34	358.96	49.71	-28.8	-30.9	14.1	3.55e-03	0	42	0	865075200	17	4596
2026-01-10 00:43:47.34	358.70	50.01	-28.9	-31.1	14.1	4.50e-06	0	42	0	868220928	17	4671
2026-01-10 00:43:48.34	358.43	50.32	-28.9	-31.3	13.9	3.80e-06	0	42	0	871366656	17	4725
2026-01-10 00:43:49.34	358.16	50.63	-29.0	-31.1	13.8	3.00e-06	0	42	0	874512384	18	4546
2026-01-10 00:43:50.34	357.88	50.94	-29.0	-31.1	13.7	2.93e-03	0	42	0	877658112	18	4543
2026-01-10 00:43:51.33	357.60	51.25	-29.0	-30.9	13.9	8.30e-06	0	42	0	880803840	18	4488
2026-01-10 00:43:52.34	357.31	51.56	-28.9	-31.3	13.9	6.10e-06	0	42	0	883949568	17	4728
2026-01-10 00:43:53.34	357.01	51.88	-29.2	-31.5	13.6	3.00e-06	0	42	0	887095296	18	4676
2026-01-10 00:43:54.34	356.71	52.19	-29.0	-31.1	13.9	5.30e-06	0	42	0	890241024	18	4536
2026-01-10 00:43:55.35	356.40	52.51	-29.0	-31.0	14.0	2.20e-06	0	42	0	893386752	18	4513
2026-01-10 00:43:56.35	356.09	52.83	-28.8	-31.1	14.1	2.32e-03	0	42	0	896532480	17	4660
2026-01-10 00:43:57.36	355.76	53.15	-28.6	-30.6	14.4	0.00e+00	0	42	0	899678208	17	4502
2026-01-10 00:43:58.36	355.43	53.47	-28.2	-30.0	15.0	0.00e+00	0	42	0	902823936	16	4461
2026-01-10 00:43:59.36	355.10	53.79	-27.8	-29.7	15.3	0.00e+00	0	42	0	905969664	15	4484
2026-01-10 00:44:00.36	354.75	54.11	-27.8	-29.6	15.3	0.00e+00	0	42	0	909115392	15	4466
2026-01-10 00:44:01.36	354.40	54.44	-27.9	-29.8	15.2	1.62e-03	0	42	0	912261120	15	4522
2026-01-10 00:44:02.36	354.04	54.76	-27.7	-29.4	15.5	0.00e+00	0	42	0	915406848	15	4408
2026-01-10 00:44:03.37	353.67	55.09	-27.6	-29.3	15.5	0.00e+00	0	42	0	918552576	15	4363
2026-01-10 00:44:04.38	353.29	55.42	-27.7	-29.4	15.5	0.00e+00	0	42	0	921698304	15	4401
2026-01-10 00:44:05.38	352.90	55.74	-27.3	-29.0	15.9	0.00e+00	0	42	0	924844032	14	4404
2026-01-10 00:44:06.37	352.51	56.06	-27.0	-28.4	16.2	0.00e+00	0	42	0	927989760	14	4239
2026-01-10 00:44:07.38	352.10	56.40	-27.3	-29.0	15.9	0.00e+00	0	42	0	931135488	14	4404
2026-01-10 00:44:08.37	351.69	56.72	-27.5	-29.1	15.6	0.00e+00	0	42	0	934281216	15	4320
2026-01-10 00:44:09.37	351.27	57.05	-27.4	-28.8	15.8	0.00e+00	0	42	0	937426944	15	4228
2026-01-10 00:44:10.38	350.83	57.38	-27.4	-28.7	15.8	0.00e+00	0	42	0	940572672	15	4209
2026-01-10 00:44:11.38	350.38	57.71	-27.4	-29.3	15.8	0.00e+00	0	42	0	943718400	14	4480
2026-01-10 00:44:12.37	349.93	58.03	-27.4	-28.9	15.8	0.00e+00	0	42	0	946864128	15	4247
2026-01-10 00:44:13.37	349.46	58.36	-27.1	-28.7	16.2	0.00e+00	0	42	0	950009856	14	4308
2026-01-10 00:44:14.37	348.98	58.69	-27.0	-28.5	16.2	0.00e+00	0	42	0	953155584	14	4247
2026-01-10 00:44:15.37	348.49	59.02	-26.9	-28.2	16.4	0.00e+00	0	42	0	956301312	14	4180
2026-01-10 00:44:16.37	347.98	59.35	-26.7	-28.2	16.7	0.00e+00	0	42	0	959447040	13	4298
2026-01-10 00:44:17.38	347.46	59.68	-26.8	-28.5	16.5	0.00e+00	0	42	0	962592768	13	4369
2026-01-10 00:44:18.38	346.93	60.01	-27.1	-28.5	16.3	0.00e+00	0	42	0	965738496	14	4267
2026-01-10 00:44:19.38	346.38	60.34	-27.0	-28.4	16.3	0.00e+00	0	42	0	968884224	14	4238
2026-01-10 00:44:20.39	345.82	60.66	-26.9	-28.3	16.4	0.00e+00	0	42	0	972029952	14	4196
2026-01-10 00:44:21.39	345.24	60.99	-27.2	-28.7	16.3	0.00e+00	0	42	0	975175680	14	4300
2026-01-10 00:44:22.39	344.65	61.32	-27.2	-28.3	16.1	0.00e+00	0	42	0	978321408	15	4090
2026-01-10 00:44:23.40	344.04	61.64	-26.9	-28.2	16.5	0.00e+00	0	42	0	981467136	14	4182
2026-01-10 00:44:24.40	343.42	61.96	-26.9	-28.1	16.5	0.00e+00	0	42	0	984612864	14	4150
2026-01-10 00:44:25.40	342.78	62.28	-26.6	-28.1	16.8	0.00e+00	0	42	0	987758592	13	4250
2026-01-10 00:44:26.41	342.12	62.61	-26.6	-28.0	16.8	0.00e+00	0	42	0	990904320	13	4242
2026-01-10 00:44:27.41	341.45	62.92	-26.6	-27.9	16.8	0.00e+00	0	42	0	994050048	13	4210
2026-01-10 00:44:28.41	340.76	63.24	-26.6	-28.0	16.8	0.00e+00	0	42	0	997195776	13	4238
2026-01-10 00:44:29.41	340.05	63.55	-26.3	-27.4	17.1	0.00e+00	0	42	0	1000341504	13	4089
2026-01-10 00:44:30.41	339.32	63.86	-25.8	-26.3	17.6	0.00e+00	0	42	0	1003487232	13	3814
2026-01-10 00:44:31.42	338.57	64.18	-25.7	-27.1	17.9	0.00e+00	0	42	0	1006632960	11	4211
2026-01-10 00:44:32.42	337.80	64.48	-25.8	-27.2	17.8	0.00e+00	0	42	0	1009778688	11	4247
2026-01-10 00:44:33.41	337.01	64.78	-25.9	-27.5	17.6	0.00e+00	0	42	0	1012924416	11	4332
2026-01-10 00:44:34.42	336.20	65.08	-26.0	-27.3	17.4	0.00e+00	0	42	0	1016070144	12	4149
2026-01-10 00:44:35.42	335.36	65.38	-26.3	-27.8	17.1	0.00e+00	0	42	0	1019215872	12	4296
2026-01-10 00:44:36.43	334.50	65.67	-26.3	-27.4	17.1	0.00e+00	0	42	0	1022361600	13	4072
2026-01-10 00:44:37.42	333.63	65.96	-26.0	-26.8	17.5	0.00e+00	0	42	0	1025507328	13	3923
2026-01-10 00:44:38.43	332.72	66.24	-26.3	-27.8	17.2	0.00e+00	0	42	0	1028653056	12	4299
2026-01-10 00:44:39.44	331.78	66.53	-26.6	-28.1	16.8	0.00e+00	0	42	0	1031798784	13	4264
2026-01-10 00:44:40.43	330.84	66.80	-26.4	-27.5	17.0	0.00e+00	0	42	0	1034944512	13	4115
2026-01-10 00:44:41.44	329.86	67.07	-26.2	-27.7	17.2	0.00e+00	0	42	0	1038090240	12	4276
2026-01-10 00:44:42.45	328.84	67.34	-26.0	-27.2	17.4	0.00e+00	0	42	0	1041235968	12	4148
2026-01-10 00:44:43.45	327.82	67.59	-25.8	-26.8	17.6	0.00e+00	0	42	0	1044381696	12	4024
2026-01-10 00:44:44.46	326.75	67.85	-26.1	-27.3	17.3	0.00e+00	0	42	0	1047527424	12	4170
2026-01-10 00:44:45.46	325.68	68.09	-26.4	-28.1	16.9	0.00e+00	0	42	0	1050673152	12	4387
2026-01-10 00:44:46.46	324.57	68.33	-26.6	-28.1	16.7	0.00e+00	0	42	0	1053818880	13	4257
2026-01-10 00:44:47.46	323.44	68.56	-26.4	-27.6	16.9	0.00e+00	0	42	0	1056964608	13	4143
2026-01-10 00:44:48.47	322.27	68.79	-26.2	-27.2	17.1	0.00e+00	0	42	0	1060110336	13	4029
2026-01-10 00:44:49.47	321.08	69.01	-26.1	-26.8	17.3	0.00e+00	0	42	0	1063256064	13	3941
2026-01-10 00:44:50.48	319.86	69.22	-26.2	-27.2	17.1	0.00e+00	0	42	0	1066401792	13	4032
2026-01-10 00:44:51.48	318.62	69.42	-25.9	-26.5	17.5	0.00e+00	0	42	0	1069547520	13	3867
2026-01-10 00:44:52.47	317.37	69.61	-25.5	-26.1	18.0	0.00e+00	0	42	0	1072693248	12	3862
2026-01-10 00:44:53.48	316.07	69.79	-25.7	-26.5	17.8	0.00e+00	0	42	0	1075838976	12	3968
2026-01-10 00:44:54.48	314.76	69.96	-25.8	-26.8	17.6	0.00e+00	0	42	0	1078984704	12	4031
2026-01-10 00:44:55.48	313.42	70.13	-25.3	-25.7	18.2	0.00e+00	0	42	0	1082130432	12	3761
2026-01-10 00:44:56.48	312.06	70.28	-25.4	-26.3	18.2	0.00e+00	0	42	0	1085276160	11	4005
2026-01-10 00:44:57.48	310.68	70.42	-25.8	-27.2	17.7	0.00e+00	0	42	0	1088421888	11	4248
2026-01-10 00:44:58.49	309.27	70.56	-26.0	-27.1	17.5	0.00e+00	0	42	0	1091567616	12	4119
2026-01-10 00:44:59.49	307.84	70.68	-26.1	-27.5	17.2	0.00e+00	0	42	0	1093664768	12	4207
2026-01-10 00:45:00.49	306.40	70.79	-26.0	-27.3	17.3	0.00e+00	0	42	0	1096810496	12	4169
2026-01-10 00:45:01.49	304.95	70.89	-26.0	-27.2	17.4	0.00e+00	0	42	0	1099956224	12	4142
2026-01-10 00:45:02.50	303.46	70.97	-25.6	-26.4	17.8	0.00e+00	0	42	0	1103101952	12	3932
2026-01-10 00:45:03.50	301.97	71.05	-25.7	-26.6	17.7	0.00e+00	0	42	0	1106247680	12	3973
2026-01-10 00:45:04.51	300.46	71.11	-26.2	-27.7	17.1	0.00e+00	0	42	0	1109393408	12	4269
2026-01-10 00:45:05.51	298.95	71.16	-26.9	-28.7	16.4	0.00e+00	0	42	0	1112539136	13	4426
2026-01-10 00:45:06.51	297.44	71.20	-26.4	-27.1	16.8	0.00e+00	0	42	0	1115684864	14	3906
2026-01-10 00:45:07.51	295.92	71.22	-25.6	-26.3	17.7	0.00e+00	0	42	0	1118830592	12	3906
2026-01-10 00:45:08.51	294.39	71.24	-25.7	-27.1	17.7	0.00e+00	0	42	0	1121976320	11	4223
2026-01-10 00:45:09.52	292.86	71.24	-26.1	-27.5	17.2	0.00e+00	0	42	0	1125122048	12	4215
2026-01-10 00:45:10.52	291.33	71.22	-26.3	-28.0	16.8	0.00e+00	0	42	0	1128267776	12	4361
2026-01-10 00:45:11.53	289.80	71.20	-26.3	-27.5	16.8	0.00e+00	0	42	0	1131413504	13	4122
2026-01-10 00:45:12.53	288.28	71.16	-26.0	-26.9	17.1	0.00e+00	0	42	0	1134559232	13	3951
2026-01-10 00:45:13.53	286.77	71.11	-25.7	-26.5	17.6	0.00e+00	0	42	0	1137704960	12	3972
2026-01-10 00:45:14.54	285.26	71.05	-25.6	-26.8	17.8	0.00e+00	0	42	0	1140850688	11	4139
2026-01-10 00:45:15.53	283.79	70.97	-26.0	-27.2	17.4	0.00e+00	0	42	0	1143996416	12	4127
2026-01-10 00:45:16.54	282.30	70.89	-26.6	-28.0	16.6	0.00e+00	0	42	0	1147142144	13	4235
2026-01-10 00:45:17.54	280.84	70.79	-26.7	-27.8	16.5	0.00e+00	0	42	0	1150287872	14	4087
2026-01-10 00:45:18.54	279.40	70.68	-26.1	-26.9	17.2	0.00e+00	0	42	0	1153433600	13	3959
2026-01-10 00:45:19.54	277.98	70.56	-25.7	-26.6	17.5	0.00e+00	0	42	0	1156579328	12	3990
2026-01-10 00:45:20.55	276.56	70.42	-25.5	-26.6	17.9	0.00e+00	0	42	0	1159725056	11	4084
2026-01-10 00:45:21.55	275.18	70.28	-25.9	-27.0	17.4	0.00e+00	0	42	0	1162870784	12	4088
2026-01-10 00:45:22.55	273.82	70.13	-25.9	-27.1	17.4	0.00e+00	0	42	0	1166016512	12	4100
2026-01-10 00:45:23.56	272.47	69.96	-25.9	-27.0	17.4	0.00e+00	0	42	0	1169162240	12	4079
2026-01-10 00:45:24.56	271.16	69.79	-25.8	-26.8	17.5	0.00e+00	0	42	0	1172307968	12	4044
2026-01-10 00:45:25.56	269.87	69.61	-25.3	-26.3	18.1	0.00e+00	0	42	0	1175453696	11	4005
2026-01-10 00:45:26.56	268.60	69.41	-25.1	-26.2	18.4	0.00e+00	0	42	0	1178599424	10	4106
2026-01-10 00:45:27.56	267.37	69.21	-25.7	-27.1	17.7	0.00e+00	0	42	0	1181745152	11	4229
2026-01-10 00:45:28.57	266.14	69.00	-26.6	-28.0	16.6	0.00e+00	0	42	0	1184890880	13	4250
2026-01-10 00:45:29.57	264.96	68.79	-26.8	-28.6	16.2	0.00e+00	0	42	0	1188036608	13	4403
2026-01-10 00:45:30.57	263.80	68.56	-26.3	-27.5	16.8	0.00e+00	0	42	0	1191182336	13	4104
2026-01-10 00:45:31.57	262.66	68.33	-25.7	-26.5	17.6	0.00e+00	0	42	0	1194328064	12	3961
2026-01-10 00:45:32.58	261.55	68.09	-25.3	-26.3	18.0	0.00e+00	0	42	0	1197473792	11	4016
2026-01-10 00:45:33.58	260.47	67.84	-25.9	-27.5	17.5	0.00e+00	0	42	0	1200619520	11	4320
2026-01-10 00:45:34.58	259.41	67.59	-26.8	-28.5	16.4	0.00e+00	0	42	0	1203765248	13	4382
2026-01-10 00:45:35.58	258.39	67.33	-27.2	-28.9	15.8	0.00e+00	0	42	0	1206910976	14	4392
2026-01-10 00:45:36.59	257.37	67.06	-26.3	-27.0	16.5	9.10e-06	0	42	0	1210056704	14	3879
2026-01-10 00:45:37.59	256.40	66.79	-26.1	-27.5	16.8	0.00e+00	0	42	0	1213202432	12	4224
2026-01-10 00:45:38.59	255.45	66.52	-26.0	-27.2	17.2	0.00e+00	0	42	0	1216348160	12	4128
2026-01-10 00:45:39.58	254.53	66.24	-26.4	-27.7	16.7	0.00e+00	0	42	0	1219493888	13	4165
2026-01-10 00:45:40.58	253.62	65.96	-26.9	-28.3	16.0	0.00e+00	0	42	0	1222639616	14	4205
2026-01-10 00:45:41.58	252.74	65.67	-27.1	-28.6	16.0	0.00e+00	0	42	0	1225785344	14	4298
2026-01-10 00:45:42.59	251.88	65.38	-26.8	-28.0	16.3	2.20e-06	0	42	0	1228931072	14	4141
2026-01-10 00:45:43.58	251.05	65.08	-26.1	-26.9	17.1	0.00e+00	0	42	0	1232076800	13	3964
2026-01-10 00:45:44.58	250.24	64.78	-25.3	-26.2	18.0	0.00e+00	0	42	0	1235222528	11	3987
2026-01-10 00:45:45.59	249.44	64.48	-25.0	-25.6	18.4	0.00e+00	0	42	0	1238368256	11	3842
2026-01-10 00:45:46.59	248.67	64.17	-25.8	-27.3	17.4	0.00e+00	0	42	0	1241513984	11	4287
2026-01-10 00:45:47.59	247.92	63.86	-27.1	-28.6	16.0	0.00e+00	0	42	0	1244659712	14	4298
2026-01-10 00:45:48.59	247.19	63.55	-27.8	-29.9	14.9	7.00e-07	0	42	0	1247805440	15	4557
2026-01-10 00:45:49.59	246.48	63.24	-27.3	-28.6	15.4	0.00e+00	0	42	0	1250951168	15	4205
2026-01-10 00:45:50.59	245.79	62.92	-26.4	-27.2	16.5	0.00e+00	0	42	0	1254096896	14	3923
2026-01-10 00:45:51.59	245.11	62.60	-26.5	-27.4	16.5	0.00e+00	0	42	0	1257242624	14	3985
2026-01-10 00:45:52.58	244.46	62.28	-26.3	-27.5	16.7	0.00e+00	0	42	0	1260388352	13	4108
2026-01-10 00:45:53.59	243.82	61.96	-26.2	-27.6	16.8	0.00e+00	0	42	0	1263534080	12	4258
2026-01-10 00:45:54.60	243.19	61.63	-26.7	-28.2	16.3	0.00e+00	0	42	0	1266679808	13	4295
2026-01-10 00:45:55.59	242.59	61.31	-27.4	-29.3	15.5	0.00e+00	0	42	0	1269825536	14	4489
2026-01-10 00:45:56.59	242.00	60.99	-27.2	-28.9	15.6	0.00e+00	0	42	0	1272971264	14	4387
2026-01-10 00:45:57.59	241.42	60.66	-26.2	-27.3	16.8	0.00e+00	0	42	0	1276116992	13	4052
2026-01-10 00:45:58.60	240.86	60.33	-25.8	-26.9	17.3	0.00e+00	0	42	0	1279262720	12	4069
2026-01-10 00:45:59.60	240.31	60.00	-26.6	-28.1	16.5	0.00e+00	0	42	0	1282408448	13	4260
2026-01-10 00:46:00.60	239.78	59.67	-27.5	-29.1	15.3	0.00e+00	0	42	0	1285554176	15	4333
2026-01-10 00:46:01.60	239.26	59.34	-28.5	-30.5	14.1	0.00e+00	0	42	0	1288699904	17	4487
2026-01-10 00:46:02.60	238.75	59.01	-28.7	-30.9	13.9	7.60e-06	0	42	0	1291845632	17	4641
2026-01-10 00:46:03.60	238.26	58.69	-28.3	-29.9	14.5	1.50e-06	0	42	0	1294991360	17	4327
2026-01-10 00:46:04.60	237.78	58.36	-27.5	-28.5	15.4	0.00e+00	0	42	0	1298137088	16	4051
2026-01-10 00:46:05.61	237.30	58.02	-26.9	-27.9	15.7	0.00e+00	0	42	0	1300234240	15	3997
2026-01-10 00:46:06.61	236.84	57.69	-26.5	-27.3	16.5	0.00e+00	0	42	0	1303379968	14	3956
2026-01-10 00:46:07.62	236.39	57.36	-26.5	-27.8	16.6	0.00e+00	0	42	0	1306525696	13	4184
2026-01-10 00:46:08.62	235.96	57.03	-27.4	-29.4	15.4	0.00e+00	0	42	0	1310720000	14	4521
2026-01-10 00:46:09.62	235.53	56.70	-28.6	-30.7	14.0	0.00e+00	0	42	0	1313865728	17	4569
2026-01-10 00:46:10.63	235.11	56.37	-29.2	-31.7	13.2	1.06e-05	0	42	0	1317011456	18	4760
2026-01-10 00:46:11.62	234.71	56.04	-29.2	-31.4	13.3	1.67e-05	0	42	0	1320157184	18	4691
2026-01-10 00:46:12.63	234.31	55.71	-28.9	-30.8	13.7	5.30e-06	0	42	0	1322254336	18	4490
2026-01-10 00:46:13.63	233.92	55.39	-28.7	-30.4	13.9	3.00e-06	0	42	0	1325400064	18	4355
2026-01-10 00:46:14.63	233.54	55.06	-28.4	-30.1	14.4	0.00e+00	0	42	0	1328545792	17	4392
2026-01-10 00:46:15.63	233.18	54.74	-27.9	-28.9	15.0	0.00e+00	0	42	0	1331691520	17	4054
2026-01-10 00:46:16.63	232.81	54.41	-27.6	-28.9	15.4	0.00e+00	0	42	0	1334837248	16	4142
2026-01-10 00:46:17.64	232.46	54.08	-27.8	-29.3	15.1	0.00e+00	0	42	0	1337982976	16	4252
2026-01-10 00:46:18.64	232.11	53.76	-28.9	-31.3	13.7	0.00e+00	0	42	0	1341128704	17	4742
2026-01-10 00:46:19.64	231.78	53.44	-30.2	-33.1	11.5	1.65e-04	0	42	0	1344274432	20	5056
2026-01-10 00:46:20.64	231.45	53.12	-30.1	-33.0	11.5	1.10e-03	0	42	0	1347420160	20	5001
2026-01-10 00:46:21.64	231.12	52.80	-28.7	-30.7	12.8	9.23e-05	0	42	0	1350565888	19	4491
2026-01-10 00:46:22.65	230.80	52.48	-28.4	-29.5	14.3	3.00e-06	0	42	0	1353711616	18	4105
2026-01-10 00:46:23.65	230.50	52.16	-27.8	-28.7	15.1	0.00e+00	0	42	0	1356857344	17	3988
2026-01-10 00:46:24.65	230.19	51.84	-27.8	-29.2	15.1	0.00e+00	0	42	0	1360003072	16	4223
2026-01-10 00:46:25.65	229.90	51.53	-27.9	-29.6	14.8	1.50e-06	0	42	0	1363148800	16	4348
2026-01-10 00:46:26.65	229.61	51.22	-27.8	-29.9	14.7	0.00e+00	0	42	0	1366294528	15	4557
2026-01-10 00:46:27.65	229.33	50.90	-28.2	-30.2	14.6	0.00e+00	0	42	0	1369440256	16	4515
2026-01-10 00:46:28.65	229.05	50.59	-28.6	-30.7	13.9	7.00e-07	0	42	0	1372585984	17	4586
2026-01-10 00:46:29.66	228.77	50.28	-29.1	-31.3	13.2	1.37e-05	0	42	0	1375731712	18	4633
2026-01-10 00:46:30.66	228.51	49.97	-29.2	-31.6	13.0	2.82e-05	0	42	0	1378877440	18	4759
2026-01-10 00:46:31.65	228.25	49.67	-29.2	-31.7	13.0	3.12e-05	0	42	0	1382023168	18	4769
2026-01-10 00:46:32.65	227.99	49.36	-29.0	-31.0	13.2	2.28e-05	0	42	0	1385168896	18	4544
2026-01-10 00:46:33.65	227.74	49.06	-28.6	-30.1	13.5	9.90e-06	0	42	0	1388314624	18	4286
2026-01-10 00:46:34.66	227.49	48.75	-28.7	-30.4	13.6	6.80e-06	0	42	0	1391460352	18	4366
2026-01-10 00:46:35.66	227.25	48.45	-29.0	-30.7	13.3	3.35e-05	0	42	0	1394606080	19	4335
2026-01-10 00:46:36.66	227.02	48.15	-28.9	-30.8	13.6	5.30e-06	0	42	0	1397751808	18	4472
2026-01-10 00:46:37.66	226.79	47.85	-29.7	-32.5	12.2	9.00e-05	0	42	0	1400897536	19	4938
2026-01-10 00:46:38.66	226.56	47.56	-29.9	-32.4	11.8	5.11e-04	0	42	0	1404043264	20	4816
2026-01-10 00:46:39.66	226.34	47.26	-29.7	-31.8	12.2	2.95e-04	0	42	0	1407188992	20	4607
2026-01-10 00:46:40.67	226.11	46.97	-29.6	-32.2	12.4	1.35e-04	0	42	0	1410334720	19	4834
2026-01-10 00:46:41.67	225.90	46.68	-29.6	-32.0	12.5	9.68e-05	0	42	0	1413480448	19	4775
2026-01-10 00:46:42.67	225.69	46.39	-29.6	-32.1	12.5	1.37e-04	0	42	0	1416626176	19	4793
2026-01-10 00:46:43.66	225.49	46.10	-29.8	-32.6	12.2	1.14e-04	0	42	0	1419771904	19	4972
2026-01-10 00:46:44.66	225.28	45.81	-29.8	-32.6	12.1	2.08e-04	0	42	0	1422917632	19	4964
2026-01-10 00:46:45.66	225.08	45.53	-29.8	-32.6	11.8	5.54e-04	0	42	0	1426063360	19	5001
2026-01-10 00:46:46.66	224.89	45.24	-30.0	-33.1	11.6	5.80e-04	0	42	0	1429209088	19	5157
2026-01-10 00:46:47.66	224.70	44.96	-29.6	-32.2	12.2	3.03e-04	0	42	0	1432354816	19	4847
2026-01-10 00:46:48.67	224.51	44.68	-29.1	-30.9	13.1	4.80e-05	0	42	0	1435500544	19	4412
2026-01-10 00:46:49.67	224.32	44.40	-29.0	-30.6	13.3	1.52e-05	0	42	0	1438646272	19	4318
2026-01-10 00:46:50.67	224.14	44.12	-29.0	-30.6	13.3	1.67e-05	0	42	0	1441792000	19	4328
2026-01-10 00:46:51.68	223.96	43.85	-29.1	-30.8	13.1	1.98e-05	0	42	0	1444937728	19	4374
2026-01-10 00:46:52.68	223.78	43.57	-29.1	-30.9	13.0	3.66e-05	0	42	0	1448083456	19	4418
2026-01-10 00:46:53.69	223.61	43.30	-29.3	-31.2	12.9	3.66e-05	0	42	0	1451229184	19	4527
2026-01-10 00:46:54.68	223.44	43.03	-29.1	-31.0	13.1	2.76e-04	0	42	0	1454374912	19	4439
2026-01-10 00:46:55.69	223.27	42.76	-29.6	-32.1	12.5	3.97e-04	0	42	0	1457520640	19	4795
2026-01-10 00:46:56.69	223.11	42.49	-29.7	-32.4	12.3	1.50e-04	0	42	0	1460666368	19	4902
2026-01-10 00:46:57.69	222.95	42.22	-29.8	-32.2	11.9	1.78e-04	0	42	0	1463812096	20	4726
2026-01-10 00:46:58.70	222.79	41.96	-29.7	-32.3	12.4	1.26e-04	0	42	0	1466957824	19	4880
2026-01-10 00:46:59.70	222.63	41.70	-29.4	-31.5	12.9	3.50e-05	0	42	0	1470103552	19	4607
2026-01-10 00:47:00.69	222.48	41.44	-29.1	-30.9	13.2	4.63e-04	0	42	0	1473249280	19	4412
2026-01-10 00:47:01.69	222.33	41.18	-29.2	-31.1	13.0	2.59e-05	0	42	0	1476395008	19	4482
2026-01-10 00:47:02.69	222.18	40.92	-28.6	-30.1	13.9	1.29e-05	0	42	0	1479540736	18	4298
2026-01-10 00:47:03.69	222.03	40.66	-28.1	-29.4	14.6	0.00e+00	0	42	0	1482686464	17	4182
2026-01-10 00:47:04.70	221.89	40.41	-27.8	-29.2	15.0	0.00e+00	0	42	0	1485832192	16	4237
2026-01-10 00:47:05.70	221.74	40.15	-27.8	-29.3	15.0	0.00e+00	0	42	0	1488977920	16	4267
2026-01-10 00:47:06.69	221.61	39.91	-28.1	-29.9	14.7	0.00e+00	0	42	0	1492123648	16	4437
2026-01-10 00:47:07.69	221.47	39.66	-28.3	-30.4	14.4	0.00e+00	0	42	0	1495269376	16	4580
2026-01-10 00:47:08.68	221.34	39.41	-29.2	-31.4	13.3	3.80e-06	0	42	0	1498415104	18	4675
2026-01-10 00:47:09.68	221.20	39.16	-28.8	-30.7	13.6	9.10e-06	0	42	0	1501560832	18	4468
2026-01-10 00:47:10.69	221.07	38.92	-29.0	-31.2	13.3	1.98e-05	0	42	0	1503657984	18	4596
2026-01-10 00:47:11.70	220.94	38.67	-29.4	-32.0	12.8	3.35e-05	0	42	0	1506803712	18	4897
2026-01-10 00:47:12.69	220.82	38.43	-29.5	-31.9	12.6	7.93e-05	0	42	0	1509949440	19	4724
2026-01-10 00:47:13.69	220.69	38.19	-29.5	-31.9	12.6	1.30e-04	0	42	0	1513095168	19	4747
2026-01-10 00:47:14.70	220.57	37.95	-29.5	-31.9	12.6	1.88e-04	0	42	0	1516240896	19	4723
2026-01-10 00:47:15.70	220.44	37.71	-29.1	-30.7	13.3	2.89e-05	0	42	0	1519386624	19	4377
2026-01-10 00:47:16.71	220.32	37.48	-28.5	-30.0	14.0	7.60e-06	0	42	0	1522532352	18	4256
2026-01-10 00:47:17.71	220.21	37.24	-28.3	-29.8	14.4	2.20e-06	0	42	0	1525678080	17	4312
2026-01-10 00:47:18.71	220.09	37.01	-28.2	-29.6	14.6	7.00e-07	0	42	0	1528823808	17	4240
2026-01-10 00:47:19.71	219.98	36.78	-28.3	-30.0	14.3	0.00e+00	0	42	0	1531969536	17	4357
2026-01-10 00:47:20.71	219.86	36.55	-28.0	-29.1	14.8	0.00e+00	0	42	0	1535115264	17	4122
2026-01-10 00:47:21.71	219.75	36.32	-28.3	-29.8	14.4	5.44e-04	0	42	0	1538260992	17	4318
2026-01-10 00:47:22.71	219.64	36.09	-28.0	-29.3	14.7	1.14e-04	0	42	0	1541406720	17	4162
2026-01-10 00:47:23.71	219.53	35.87	-27.9	-29.1	14.8	0.00e+00	0	42	0	1544552448	17	4107
2026-01-10 00:47:24.71	219.43	35.65	-28.1	-29.4	14.7	7.00e-07	0	42	0	1547698176	17	4184
2026-01-10 00:47:25.71	219.32	35.42	-27.9	-29.1	14.9	9.53e-05	0	42	0	1550843904	17	4100
2026-01-10 00:47:26.71	219.22	35.20	-27.7	-29.1	15.1	0.00e+00	0	42	0	1553989632	16	4225
2026-01-10 00:47:27.71	219.12	34.98	-27.6	-28.9	15.2	2.22e-04	0	42	0	1557135360	16	4163
2026-01-10 00:47:28.71	219.02	34.77	-27.7	-29.0	15.1	0.00e+00	0	42	0	1560281088	16	4199
2026-01-10 00:47:29.72	218.91	34.55	-27.9	-29.5	14.8	7.00e-07	0	42	0	1563426816	16	4337
2026-01-10 00:47:30.72	218.82	34.33	-28.2	-30.3	14.4	1.27e-03	0	42	0	1566572544	16	4554
2026-01-10 00:47:31.72	218.72	34.12	-28.3	-30.5	14.2	1.28e-03	0	42	0	1569718272	16	4630
2026-01-10 00:47:32.73	218.62	33.90	-28.3	-30.4	14.4	7.00e-07	0	42	0	1572864000	16	4593
2026-01-10 00:47:33.73	218.53	33.69	-28.7	-30.8	13.8	8.71e-04	0	42	0	1576009728	17	4612
2026-01-10 00:47:34.73	218.44	33.48	-28.2	-30.2	14.4	1.16e-03	0	42	0	1579155456	16	4540
2026-01-10 00:47:35.73	218.34	33.27	-27.8	-29.3	14.9	0.00e+00	0	42	0	1582301184	16	4286
2026-01-10 00:47:36.74	218.25	33.06	-27.7	-29.1	15.1	6.09e-04	0	42	0	1585446912	16	4220
2026-01-10 00:47:37.74	218.16	32.86	-27.5	-29.1	15.2	4.39e-04	0	42	0	1588592640	15	4324
2026-01-10 00:47:38.75	218.08	32.65	-27.0	-27.9	15.8	0.00e+00	0	42	0	1591738368	15	4022
2026-01-10 00:47:39.75	217.99	32.45	-26.5	-27.5	16.4	0.00e+00	0	42	0	1594884096	14	4002
2026-01-10 00:47:40.75	217.90	32.25	-26.5	-28.0	16.3	5.88e-04	0	42	0	1598029824	13	4244
2026-01-10 00:47:41.75	217.82	32.05	-26.6	-28.2	16.2	0.00e+00	0	42	0	1601175552	13	4305
2026-01-10 00:47:42.75	217.73	31.85	-26.8	-28.5	16.0	4.39e-04	0	42	0	1604321280	13	4397
2026-01-10 00:47:43.75	217.65	31.65	-27.0	-28.9	15.8	5.64e-04	0	42	0	1607467008	13	4517
2026-01-10 00:47:44.75	217.57	31.45	-26.9	-28.2	15.8	0.00e+00	0	42	0	1610612736	14	4209
2026-01-10 00:47:45.75	217.49	31.26	-26.9	-28.3	15.9	6.17e-04	0	42	0	1613758464	14	4214
2026-01-10 00:47:46.75	217.41	31.06	-27.0	-28.5	15.7	5.99e-04	0	42	0	1616904192	14	4283
2026-01-10 00:47:47.75	217.33	30.87	-27.1	-28.7	15.7	0.00e+00	0	42	0	1620049920	14	4329
2026-01-10 00:47:48.76	217.25	30.68	-27.3	-29.1	15.4	6.00e-04	0	42	0	1623195648	14	4448
2026-01-10 00:47:49.76	217.18	30.49	-27.2	-29.0	15.5	4.90e-04	0	42	0	1626341376	14	4420
2026-01-10 00:47:50.76	217.10	30.30	-27.4	-29.3	15.3	0.00e+00	0	42	0	1629487104	14	4514
2026-01-10 00:47:51.76	217.02	30.11	-27.5	-29.6	15.1	5.34e-05	0	42	0	1632632832	14	4605
2026-01-10 00:47:52.76	216.95	29.92	-27.8	-29.9	14.7	0.00e+00	0	42	0	1635778560	15	4579
2026-01-10 00:47:53.76	216.88	29.73	-27.8	-29.9	14.7	0.00e+00	0	42	0	1638924288	15	4564
2026-01-10 00:47:54.76	216.81	29.55	-27.5	-29.3	15.0	2.20e-06	0	42	0	1642070016	15	4395
2026-01-10 00:47:55.76	216.73	29.37	-27.5	-29.2	15.0	0.00e+00	0	42	0	1645215744	15	4379
2026-01-10 00:47:56.76	216.66	29.18	-27.5	-29.2	15.1	0.00e+00	0	42	0	1648361472	15	4378
2026-01-10 00:47:57.76	216.59	29.00	-27.6	-29.3	15.0	2.37e-03	0	42	0	1651507200	15	4402
2026-01-10 00:47:58.76	216.52	28.82	-27.6	-29.3	15.0	3.43e-03	0	42	0	1654652928	15	4397
2026-01-10 00:47:59.77	216.46	28.64	-27.6	-29.4	14.9	0.00e+00	0	42	0	1657798656	15	4430
2026-01-10 00:48:00.76	216.39	28.46	-27.5	-29.1	15.0	0.00e+00	0	42	0	1660944384	15	4353
2026-01-10 00:48:01.76	216.32	28.29	-27.2	-28.9	15.4	3.69e-03	0	42	0	1664090112	14	4398
2026-01-10 00:48:02.77	216.26	28.11	-27.1	-28.7	15.5	0.00e+00	0	42	0	1667235840	14	4341
2026-01-10 00:48:03.76	216.19	27.94	-28.3	-30.4	14.3	3.85e-03	0	42	0	1670381568	16	4588
2026-01-10 00:48:04.77	216.13	27.76	-27.5	-29.2	15.0	4.23e-03	0	42	0	1673527296	15	4355
2026-01-10 00:48:05.77	216.06	27.59	-27.3	-28.8	15.2	0.00e+00	0	42	0	1676673024	15	4251
2026-01-10 00:48:06.78	216.00	27.41	-27.6	-29.5	14.8	0.00e+00	0	42	0	1679818752	15	4448
2026-01-10 00:48:07.78	215.94	27.24	-28.0	-29.8	14.5	0.00e+00	0	42	0	1682964480	16	4427
2026-01-10 00:48:08.78	215.88	27.07	-28.0	-29.7	14.6	0.00e+00	0	42	0	1686110208	16	4386
2026-01-10 00:48:09.79	215.81	26.90	-27.4	-28.8	15.2	4.18e-03	0	42	0	1689255936	15	4257
2026-01-10 00:48:10.79	215.75	26.74	-26.7	-27.9	16.0	0.00e+00	0	42	0	1692401664	14	4110
2026-01-10 00:48:11.79	215.70	26.57	-26.3	-26.9	16.4	0.00e+00	0	42	0	1695547392	14	3877
2026-01-10 00:48:12.79	215.64	26.40	-26.3	-27.5	16.4	0.00e+00	0	42	0	1698693120	13	4123
2026-01-10 00:48:13.79	215.58	26.24	-26.6	-28.1	16.1	4.16e-03	0	42	0	1701838848	13	4286
2026-01-10 00:48:14.79	215.52	26.08	-27.3	-29.1	15.3	0.00e+00	0	42	0	1704984576	14	4463
2026-01-10 00:48:15.79	215.46	25.91	-27.1	-28.7	15.5	0.00e+00	0	42	0	1708130304	14	4345
2026-01-10 00:48:16.79	215.41	25.75	-27.0	-28.6	15.6	0.00e+00	0	42	0	1710227456	14	4297
2026-01-10 00:48:17.79	215.35	25.59	-26.9	-28.2	15.9	0.00e+00	0	42	0	1713373184	14	4198
2026-01-10 00:48:18.80	215.30	25.43	-27.0	-28.6	15.6	7.00e-07	0	42	0	1716518912	14	4317
2026-01-10 00:48:19.80	215.24	25.27	-27.1	-28.7	15.5	3.50e-03	0	42	0	1719664640	14	4340
2026-01-10 00:48:20.79	215.19	25.11	-27.2	-29.0	15.3	0.00e+00	0	42	0	1722810368	14	4425
2026-01-10 00:48:21.79	215.13	24.96	-27.7	-29.5	14.8	0.00e+00	0	42	0	1725956096	15	4476
2026-01-10 00:48:22.78	215.08	24.80	-27.6	-29.4	14.8	0.00e+00	0	42	0	1729101824	15	4440
2026-01-10 00:48:23.79	215.03	24.64	-27.2	-29.0	15.4	0.00e+00	0	42	0	1732247552	14	4432
2026-01-10 00:48:24.78	214.98	24.49	-27.9	-30.1	14.5	2.24e-03	0	42	0	1735393280	15	4659
2026-01-10 00:48:25.78	214.93	24.34	-28.8	-31.2	13.4	2.21e-03	0	42	0	1738539008	17	4763
2026-01-10 00:48:26.78	214.88	24.19	-28.3	-30.0	14.1	1.22e-05	0	42	0	1741684736	17	4384
2026-01-10 00:48:27.77	214.83	24.03	-29.1	-31.3	13.0	6.86e-05	0	42	0	1744830464	18	4679
2026-01-10 00:48:28.78	214.78	23.88	-28.3	-30.1	14.0	3.00e-06	0	42	0	1747976192	17	4410
2026-01-10 00:48:29.78	214.73	23.73	-27.6	-28.9	15.0	4.42e-05	0	42	0	1751121920	16	4180
2026-01-10 00:48:30.78	214.68	23.58	-27.4	-29.0	15.0	2.25e-03	0	42	0	1754267648	15	4326
2026-01-10 00:48:31.78	214.63	23.43	-27.5	-29.3	14.8	0.00e+00	0	42	0	1757413376	15	4413
2026-01-10 00:48:32.78	214.58	23.29	-27.6	-29.3	14.9	7.00e-07	0	42	0	1760559104	15	4406
2026-01-10 00:48:33.78	214.54	23.14	-27.8	-30.0	14.5	0.00e+00	0	42	0	1763704832	15	4601
2026-01-10 00:48:34.79	214.49	22.99	-27.4	-29.0	15.0	7.00e-07	0	42	0	1766850560	15	4327
2026-01-10 00:48:35.80	214.44	22.85	-27.1	-28.3	15.4	0.00e+00	0	42	0	1769996288	15	4134
2026-01-10 00:48:36.80	214.40	22.70	-26.8	-28.2	15.8	0.00e+00	0	42	0	1773142016	14	4197
2026-01-10 00:48:37.81	214.35	22.56	-26.8	-28.1	15.8	0.00e+00	0	42	0	1776287744	14	4188
2026-01-10 00:48:38.81	214.30	22.41	-26.9	-28.4	15.7	0.00e+00	0	42	0	1779433472	14	4252
2026-01-10 00:48:39.81	214.26	22.27	-27.2	-28.9	15.3	0.00e+00	0	42	0	1782579200	14	4412
2026-01-10 00:48:40.82	214.22	22.13	-27.2	-29.1	15.2	1.88e-03	0	42	0	1785724928	14	4463
2026-01-10 00:48:41.81	214.17	21.99	-27.4	-29.5	15.0	0.00e+00	0	42	0	1788870656	14	4579
2026-01-10 00:48:42.81	214.13	21.85	-28.0	-29.9	14.4	0.00e+00	0	42	0	1792016384	16	4453
2026-01-10 00:48:43.82	214.09	21.71	-27.9	-29.7	14.5	0.00e+00	0	42	0	1795162112	16	4400
2026-01-10 00:48:44.82	214.04	21.57	-27.6	-29.0	14.9	0.00e+00	0	42	0	1798307840	16	4196
2026-01-10 00:48:45.83	214.00	21.43	-28.7	-30.9	13.5	1.14e-05	0	42	0	1801453568	17	4653
2026-01-10 00:48:46.83	213.96	21.29	-28.9	-31.1	13.1	3.20e-05	0	42	0	1804599296	18	4604
2026-01-10 00:48:47.83	213.92	21.16	-28.5	-30.1	13.8	1.14e-05	0	42	0	1807745024	18	4308
2026-01-10 00:48:48.83	213.88	21.02	-28.3	-30.0	13.9	3.80e-06	0	42	0	1810890752	17	4381
2026-01-10 00:48:49.84	213.84	20.89	-28.5	-30.6	13.6	1.50e-06	0	42	0	1814036480	17	4551
2026-01-10 00:48:50.83	213.80	20.75	-28.5	-30.6	13.6	7.00e-07	0	42	0	1817182208	17	4568
2026-01-10 00:48:51.83	213.76	20.62	-27.0	-28.0	15.5	0.00e+00	0	42	0	1820327936	15	4053
2026-01-10 00:48:52.84	213.72	20.49	-27.1	-28.9	15.3	0.00e+00	0	42	0	1823473664	14	4406
2026-01-10 00:48:53.84	213.68	20.35	-27.1	-28.8	15.4	0.00e+00	0	42	0	1826619392	14	4369
2026-01-10 00:48:54.84	213.64	20.22	-27.0	-28.5	15.5	0.00e+00	0	42	0	1829765120	14	4290
2026-01-10 00:48:55.85	213.60	20.09	-26.8	-28.1	15.7	0.00e+00	0	42	0	1832910848	14	4195
2026-01-10 00:48:56.85	213.56	19.96	-26.9	-28.5	15.5	0.00e+00	0	42	0	1836056576	14	4283
2026-01-10 00:48:57.85	213.52	19.83	-26.7	-28.4	15.9	0.00e+00	0	42	0	1839202304	13	4365
2026-01-10 00:48:58.85	213.49	19.70	-27.1	-28.9	15.3	0.00e+00	0	42	0	1842348032	14	4395
2026-01-10 00:48:59.85	213.45	19.58	-26.8	-28.1	15.7	0.00e+00	0	42	0	1845493760	14	4181
2026-01-10 00:49:00.86	213.41	19.45	-26.7	-27.8	15.8	0.00e+00	0	42	0	1848639488	14	4105
2026-01-10 00:49:01.86	213.38	19.32	-26.7	-28.3	15.8	0.00e+00	0	42	0	1851785216	13	4348
2026-01-10 00:49:02.86	213.34	19.19	-26.6	-28.2	15.9	0.00e+00	0	42	0	1854930944	13	4328
2026-01-10 00:49:03.86	213.31	19.07	-26.7	-28.5	15.7	0.00e+00	0	42	0	1858076672	13	4408
2026-01-10 00:49:04.86	213.27	18.94	-26.8	-28.6	15.6	0.00e+00	0	42	0	1861222400	13	4441
2026-01-10 00:49:05.85	213.24	18.82	-26.8	-28.7	15.6	0.00e+00	0	42	0	1864368128	13	4465
2026-01-10 00:49:06.85	213.20	18.70	-26.8	-28.6	15.6	0.00e+00	0	42	0	1867513856	13	4450
2026-01-10 00:49:07.85	213.17	18.57	-26.9	-28.9	15.4	0.00e+00	0	42	0	1870659584	13	4540
2026-01-10 00:49:08.86	213.13	18.45	-26.9	-28.9	15.5	0.00e+00	0	42	0	1873805312	13	4525
2026-01-10 00:49:09.86	213.10	18.33	-27.0	-28.7	15.3	0.00e+00	0	42	0	1876951040	14	4354
2026-01-10 00:49:10.87	213.06	18.21	-27.3	-29.2	15.0	7.00e-07	0	42	0	1880096768	14	4495
2026-01-10 00:49:11.87	213.03	18.09	-27.2	-29.0	15.1	0.00e+00	0	42	0	1883242496	14	4430
2026-01-10 00:49:12.87	213.00	17.97	-27.1	-28.8	15.3	0.00e+00	0	42	0	1886388224	14	4377
2026-01-10 00:49:13.88	212.97	17.84	-27.1	-28.8	15.2	0.00e+00	0	42	0	1889533952	14	4389
2026-01-10 00:49:14.89	212.93	17.72	-27.1	-28.7	15.3	0.00e+00	0	42	0	1892679680	14	4367
2026-01-10 00:49:15.89	212.90	17.61	-27.2	-29.1	15.1	0.00e+00	0	42	0	1895825408	14	4462
2026-01-10 00:49:16.89	212.87	17.49	-27.1	-28.9	15.2	0.00e+00	0	42	0	1898971136	14	4423
2026-01-10 00:49:17.89	212.84	17.37	-27.1	-28.9	15.2	0.00e+00	0	42	0	1902116864	14	4411
2026-01-10 00:49:18.90	212.81	17.25	-27.2	-29.0	15.1	0.00e+00	0	42	0	1905262592	14	4435
2026-01-10 00:49:19.89	212.78	17.14	-27.5	-29.7	14.7	7.00e-07	0	42	0	1908408320	14	4642
2026-01-10 00:49:20.89	212.74	17.02	-27.4	-29.5	14.8	7.00e-07	0	42	0	1911554048	14	4588
2026-01-10 00:49:21.89	212.71	16.91	-27.3	-29.3	14.9	0.00e+00	0	42	0	1913651200	14	4521
2026-01-10 00:49:22.89	212.68	16.79	-27.3	-29.4	14.9	7.00e-07	0	42	0	1916796928	14	4557
2026-01-10 00:49:23.89	212.65	16.68	-27.3	-29.2	14.9	0.00e+00	0	42	0	1919942656	14	4515
2026-01-10 00:49:24.89	212.62	16.57	-27.3	-29.4	14.8	0.00e+00	0	42	0	1923088384	14	4560
2026-01-10 00:49:25.90	212.59	16.45	-27.5	-29.3	14.6	0.00e+00	0	42	0	1926234112	15	4415
2026-01-10 00:49:26.90	212.56	16.34	-27.6	-29.6	14.5	0.00e+00	0	42	0	1929379840	15	4506
2026-01-10 00:49:27.91	212.54	16.23	-27.4	-29.1	14.7	0.00e+00	0	42	0	1932525568	15	4361
2026-01-10 00:49:28.91	212.51	16.11	-27.5	-29.3	14.6	0.00e+00	0	42	0	1935671296	15	4430
2026-01-10 00:49:29.91	212.48	16.00	-27.5	-29.3	14.6	0.00e+00	0	42	0	1938817024	15	4417
2026-01-10 00:49:30.91	212.45	15.89	-27.5	-29.2	14.7	0.00e+00	0	42	0	1941962752	15	4393
2026-01-10 00:49:31.92	212.42	15.78	-27.7	-29.6	14.4	7.00e-07	0	42	0	1945108480	15	4515
2026-01-10 00:49:32.92	212.39	15.67	-27.5	-29.4	14.5	0.00e+00	0	42	0	1948254208	15	4445
2026-01-10 00:49:33.93	212.37	15.56	-27.4	-29.1	14.7	0.00e+00	0	42	0	1951399936	15	4378
2026-01-10 00:49:34.92	212.34	15.46	-27.4	-29.6	14.7	0.00e+00	0	42	0	1954545664	14	4633
2026-01-10 00:49:35.92	212.31	15.35	-27.5	-29.2	14.6	1.50e-06	0	42	0	1957691392	15	4379
2026-01-10 00:49:36.92	212.28	15.24	-27.8	-29.9	14.3	0.00e+00	0	42	0	1960837120	15	4588
2026-01-10 00:49:37.93	212.26	15.13	-27.8	-29.5	14.3	2.20e-06	0	42	0	1963982848	16	4359
2026-01-10 00:49:38.92	212.23	15.03	-27.8	-29.4	14.4	7.00e-07	0	42	0	1967128576	16	4330
2026-01-10 00:49:39.92	212.20	14.92	-27.5	-29.3	14.5	7.00e-07	0	42	0	1970274304	15	4427
2026-01-10 00:49:40.92	212.18	14.81	-27.5	-29.3	14.6	0.00e+00	0	42	0	1973420032	15	4428
2026-01-10 00:49:41.92	212.15	14.71	-27.7	-29.6	14.4	0.00e+00	0	42	0	1976565760	15	4522
2026-01-10 00:49:42.93	212.13	14.60	-27.8	-29.9	14.2	0.00e+00	0	42	0	1979711488	15	4607
2026-01-10 00:49:43.92	212.10	14.50	-28.7	-31.0	13.0	1.37e-05	0	42	0	1982857216	17	4722
2026-01-10 00:49:44.93	212.08	14.39	-28.4	-30.0	13.5	2.97e-05	0	42	0	1986002944	18	4288
2026-01-10 00:49:45.93	212.05	14.29	-28.3	-30.1	13.7	5.30e-06	0	42	0	1989148672	17	4438
2026-01-10 00:49:46.93	212.03	14.19	-28.2	-30.5	13.7	2.20e-06	0	42	0	1992294400	16	4665
2026-01-10 00:49:47.92	212.00	14.09	-28.0	-30.0	14.0	1.50e-06	0	42	0	1995440128	16	4514
2026-01-10 00:49:48.92	211.98	13.98	-28.5	-31.0	13.4	9.10e-06	0	42	0	1998585856	16	4833
2026-01-10 00:49:49.92	211.95	13.88	-28.3	-30.6	13.6	6.80e-06	0	42	0	2001731584	16	4695
2026-01-10 00:49:50.93	211.93	13.78	-28.3	-30.6	13.7	3.00e-06	0	42	0	2004877312	16	4687
2026-01-10 00:49:51.92	211.90	13.68	-28.3	-30.6	13.6	3.00e-06	0	42	0	2008023040	16	4686
2026-01-10 00:49:52.93	211.88	13.58	-28.2	-30.4	13.7	4.50e-06	0	42	0	2011168768	16	4649
2026-01-10 00:49:53.93	211.86	13.48	-28.4	-30.9	13.4	1.52e-05	0	42	0	2014314496	16	4809
2026-01-10 00:49:54.92	211.83	13.38	-28.1	-30.2	13.8	5.30e-06	0	42	0	2017460224	16	4585
2026-01-10 00:49:55.92	211.81	13.28	-28.2	-30.3	13.8	2.20e-06	0	42	0	2020605952	16	4619
2026-01-10 00:49:56.91	211.79	13.18	-28.2	-30.0	13.6	3.96e-05	0	42	0	2023751680	17	4401
2026-01-10 00:49:57.92	211.76	13.08	-28.5	-30.6	13.3	1.67e-05	0	42	0	2026897408	17	4607
2026-01-10 00:49:58.92	211.74	12.98	-28.3	-30.1	13.6	2.28e-05	0	42	0	2030043136	17	4428
2026-01-10 00:49:59.92	211.72	12.89	-27.9	-29.2	14.1	7.00e-07	0	42	0	2033188864	17	4182
2026-01-10 00:50:00.92	211.70	12.79	-28.0	-29.8	14.0	3.80e-06	0	42	0	2036334592	16	4474
2026-01-10 00:50:01.92	211.67	12.69	-27.9	-29.8	14.0	3.00e-06	0	42	0	2039480320	16	4452
2026-01-10 00:50:02.92	211.65	12.60	-27.8	-29.5	14.2	1.50e-06	0	42	0	2042626048	16	4370
2026-01-10 00:50:03.93	211.63	12.50	-27.7	-29.8	14.1	1.50e-06	0	42	0	2045771776	15	4585
2026-01-10 00:50:04.93	211.61	12.40	-27.7	-29.8	14.1	1.50e-06	0	42	0	2048917504	15	4583
2026-01-10 00:50:05.94	211.59	12.31	-27.8	-30.1	14.0	5.30e-06	0	42	0	2052063232	15	4661
2026-01-10 00:50:06.93	211.56	12.21	-27.9	-30.4	13.7	3.80e-06	0	42	0	2055208960	15	4764
2026-01-10 00:50:07.93	211.54	12.12	-27.8	-30.1	14.0	1.50e-06	0	42	0	2058354688	15	4672
2026-01-10 00:50:08.94	211.52	12.02	-28.4	-30.4	13.2	1.06e-05	0	42	0	2061500416	17	4545
2026-01-10 00:50:09.94	211.50	11.93	-28.1	-29.8	13.6	9.10e-06	0	42	0	2064646144	17	4365
2026-01-10 00:50:10.95	211.48	11.83	-28.0	-29.4	13.9	2.20e-06	0	42	0	2067791872	17	4233
2026-01-10 00:50:11.95	211.46	11.74	-28.2	-29.9	13.6	6.80e-06	0	42	0	2070937600	17	4401
2026-01-10 00:50:12.95	211.44	11.65	-28.0	-29.5	13.9	5.30e-06	0	42	0	2074083328	17	4270
2026-01-10 00:50:13.95	211.42	11.55	-28.2	-30.0	13.5	3.00e-06	0	42	0	2077229056	17	4430
2026-01-10 00:50:14.95	211.40	11.46	-28.4	-30.4	13.3	1.60e-05	0	42	0	2080374784	17	4550
2026-01-10 00:50:15.95	211.38	11.37	-28.1	-29.7	13.7	4.50e-06	0	42	0	2083520512	17	4343
2026-01-10 00:50:16.96	211.36	11.28	-28.1	-29.7	13.7	7.60e-06	0	42	0	2086666240	17	4315
2026-01-10 00:50:17.96	211.34	11.19	-28.3	-30.1	13.5	1.60e-05	0	42	0	2089811968	17	4441
2026-01-10 00:50:18.96	211.32	11.10	-28.2	-30.0	13.5	1.06e-05	0	42	0	2092957696	17	4421
2026-01-10 00:50:19.97	211.30	11.00	-28.4	-30.5	13.2	1.67e-05	0	42	0	2095054848	17	4567
2026-01-10 00:50:20.97	211.28	10.91	-28.4	-30.5	13.2	3.73e-05	0	42	0	2098200576	17	4586
2026-01-10 00:50:21.98	211.26	10.82	-28.5	-30.6	13.1	3.05e-05	0	42	0	2102394880	17	4604
2026-01-10 00:50:22.98	211.24	10.73	-28.7	-31.1	12.8	3.05e-05	0	42	0	2105540608	17	4781
2026-01-10 00:50:23.98	211.22	10.64	-28.2	-30.1	13.4	2.36e-05	0	42	0	2108686336	17	4438
2026-01-10 00:50:24.98	211.20	10.56	-28.6	-31.1	12.8	4.80e-05	0	42	0	2111832064	17	4767
2026-01-10 00:50:25.99	211.18	10.47	-28.4	-30.5	13.1	4.19e-05	0	42	0	2114977792	17	4574
2026-01-10 00:50:26.99	211.16	10.38	-28.5	-30.7	13.0	2.67e-05	0	42	0	2118123520	17	4641
2026-01-10 00:50:27.99	211.15	10.29	-28.4	-30.5	13.1	1.83e-05	0	42	0	2120220672	17	4568
2026-01-10 00:50:29.00	211.13	10.20	-28.5	-30.7	13.1	5.95e-05	0	42	0	2123366400	17	4650
2026-01-10 00:50:30.00	211.11	10.11	-29.3	-32.2	11.8	7.17e-04	0	42	0	2126512128	18	5024
2026-01-10 00:50:31.01	211.09	10.03	-28.8	-30.8	12.6	1.68e-04	0	42	0	2129657856	18	4571
