passes_logs/2026/01/10/R2M6_AANII_01/R2M6_AANII_01__20260110_085236_NOAA_21_JPSS-2_rec.log

#Pass ID: 20260110_085236_NOAA 21 (JPSS-2)
#Satellite: NOAA 21 (JPSS-2)
#Configuration: NOAA 21
#almurnet v.1.7.20240730
#Start time: 2026-01-10 08:52:38

#Version: 2.2.20231116
#Station: R2M6_AANII_01
#Location: 30.233357 lon 59.946436 lat
#TLE: 1 54234U 22150A   26009.23291724  .00000115  00000+0  75298-4 0  9996
#TLE: 2 54234  98.7494 310.2026 0000856 324.9272  35.1848 14.19533567163994

#Time	Az	El	Level	Level2	SNR	BER	BlckErr	Temp	State	Recorded	gain1	gain2
2026-01-10 08:52:38.48	115.56	7.12	-30.1	-34.2	4.7	1.39e+00	0	39	0	0	21	5802
2026-01-10 08:52:39.48	115.49	7.19	-29.7	-33.7	4.8	1.38e+00	0	39	104	0	20	5669
2026-01-10 08:52:40.48	115.42	7.26	-29.9	-33.3	9.6	7.21e-03	0	39	0	0	20	5349
2026-01-10 08:52:41.48	115.35	7.33	-29.9	-33.4	9.5	1.48e-02	0	39	0	2097152	20	5376
2026-01-10 08:52:42.48	115.28	7.40	-29.8	-33.2	9.6	1.25e-02	0	39	0	5242880	20	5308
2026-01-10 08:52:43.49	115.20	7.47	-30.1	-34.1	9.0	2.29e-02	0	40	0	9437184	20	5700
2026-01-10 08:52:44.49	115.13	7.54	-30.1	-33.9	9.2	3.53e-02	0	40	0	12582912	20	5574
2026-01-10 08:52:45.49	115.06	7.61	-29.7	-32.7	10.0	1.12e-02	0	40	0	15728640	20	5107
2026-01-10 08:52:46.49	114.99	7.68	-29.3	-31.7	10.7	4.27e-03	0	40	0	18874368	20	4735
2026-01-10 08:52:47.49	114.91	7.75	-29.2	-31.8	11.1	1.74e-03	0	40	0	22020096	19	4865
2026-01-10 08:52:48.49	114.84	7.83	-28.8	-30.7	11.9	5.10e-04	0	40	0	24117248	19	4466
2026-01-10 08:52:49.49	114.76	7.90	-28.7	-30.9	12.1	3.17e-04	0	40	0	27262976	18	4647
2026-01-10 08:52:50.49	114.69	7.97	-28.4	-30.2	12.6	9.91e-05	0	39	0	30408704	18	4425
2026-01-10 08:52:51.49	114.61	8.04	-28.4	-30.2	12.6	1.28e-04	0	40	0	33554432	18	4416
2026-01-10 08:52:52.49	114.54	8.11	-28.4	-30.0	12.7	7.40e-05	0	40	0	36700160	18	4358
2026-01-10 08:52:53.49	114.46	8.19	-28.3	-29.8	12.9	6.33e-05	0	40	0	39845888	18	4306
2026-01-10 08:52:54.49	114.39	8.26	-28.2	-30.1	13.0	4.65e-05	0	40	0	42991616	17	4502
2026-01-10 08:52:55.49	114.31	8.33	-28.3	-30.2	13.0	3.58e-05	0	40	0	46137344	17	4520
2026-01-10 08:52:56.49	114.23	8.40	-28.3	-30.4	12.8	3.96e-05	0	40	0	49283072	17	4562
2026-01-10 08:52:57.49	114.15	8.48	-28.1	-29.9	13.1	3.89e-05	0	40	0	52428800	17	4406
2026-01-10 08:52:58.49	114.08	8.55	-28.1	-29.9	13.2	2.21e-05	0	40	0	55574528	17	4410
2026-01-10 08:52:59.50	114.00	8.62	-28.1	-29.8	13.3	2.44e-05	0	40	0	58720256	17	4383
2026-01-10 08:53:00.51	113.92	8.70	-28.2	-30.0	13.1	2.89e-05	0	40	0	61865984	17	4454
2026-01-10 08:53:01.51	113.84	8.77	-28.1	-29.8	13.2	2.13e-05	0	40	0	65011712	17	4387
2026-01-10 08:53:02.52	113.76	8.85	-27.9	-29.4	13.5	1.60e-05	0	40	0	68157440	17	4283
2026-01-10 08:53:03.52	113.68	8.92	-28.0	-29.7	13.3	1.83e-05	0	40	0	71303168	17	4365
2026-01-10 08:53:04.52	113.60	8.99	-28.0	-29.6	13.4	1.44e-05	0	40	0	74448896	17	4334
2026-01-10 08:53:05.52	113.52	9.07	-28.1	-29.8	13.3	1.83e-05	0	40	0	77594624	17	4371
2026-01-10 08:53:06.52	113.44	9.14	-27.9	-29.3	13.6	7.60e-06	0	40	0	80740352	17	4225
2026-01-10 08:53:07.52	113.36	9.22	-28.0	-29.5	13.5	1.14e-05	0	40	0	83886080	17	4291
2026-01-10 08:53:08.52	113.27	9.29	-27.9	-29.2	13.7	6.10e-06	0	40	0	87031808	17	4220
2026-01-10 08:53:09.53	113.19	9.37	-27.8	-29.1	13.7	2.20e-06	0	40	0	90177536	17	4193
2026-01-10 08:53:10.53	113.11	9.44	-27.9	-29.3	13.6	5.30e-06	0	40	0	93323264	17	4237
2026-01-10 08:53:11.54	113.02	9.52	-27.9	-29.3	13.6	1.06e-05	0	40	0	96468992	17	4252
2026-01-10 08:53:12.54	112.94	9.60	-28.1	-29.8	13.4	4.50e-06	0	40	0	99614720	17	4366
2026-01-10 08:53:13.55	112.85	9.67	-27.9	-29.3	13.6	8.30e-06	0	40	0	102760448	17	4239
2026-01-10 08:53:14.54	112.77	9.75	-27.8	-29.1	13.8	8.30e-06	0	40	0	105906176	17	4169
2026-01-10 08:53:15.55	112.68	9.82	-28.0	-29.5	13.6	6.80e-06	0	40	0	109051904	17	4290
2026-01-10 08:53:16.55	112.60	9.90	-28.1	-29.7	13.5	1.06e-05	0	40	0	112197632	17	4359
2026-01-10 08:53:17.56	112.51	9.98	-27.9	-29.4	13.7	1.14e-05	0	40	0	115343360	17	4266
2026-01-10 08:53:18.56	112.42	10.05	-27.8	-29.7	13.8	2.20e-06	0	40	0	118489088	16	4443
2026-01-10 08:53:19.57	112.34	10.13	-27.8	-29.5	13.9	1.50e-06	0	40	0	121634816	16	4395
2026-01-10 08:53:20.57	112.25	10.21	-27.7	-29.4	14.0	3.00e-06	0	41	0	124780544	16	4349
2026-01-10 08:53:21.57	112.16	10.28	-27.8	-29.5	13.9	2.20e-06	0	41	0	127926272	16	4381
2026-01-10 08:53:22.57	112.07	10.36	-27.8	-29.5	13.9	2.20e-06	0	41	0	131072000	16	4386
2026-01-10 08:53:23.57	111.98	10.44	-27.7	-29.3	14.0	7.00e-07	0	40	0	134217728	16	4320
2026-01-10 08:53:24.58	111.89	10.52	-27.8	-29.6	13.9	5.30e-06	0	41	0	137363456	16	4407
2026-01-10 08:53:25.58	111.80	10.59	-27.7	-29.4	14.0	3.80e-06	0	41	0	140509184	16	4357
2026-01-10 08:53:26.58	111.71	10.67	-27.7	-29.2	14.1	2.20e-06	0	41	0	143654912	16	4301
2026-01-10 08:53:27.58	111.62	10.75	-27.6	-29.2	14.1	7.00e-07	0	41	0	146800640	16	4287
2026-01-10 08:53:28.58	111.53	10.83	-27.7	-29.2	14.1	1.50e-06	0	40	0	149946368	16	4301
2026-01-10 08:53:29.58	111.44	10.91	-27.7	-29.2	14.1	0.00e+00	0	41	0	153092096	16	4299
2026-01-10 08:53:30.59	111.35	10.99	-27.8	-29.4	14.0	3.80e-06	0	41	0	156237824	16	4363
2026-01-10 08:53:31.59	111.25	11.07	-27.6	-29.1	14.2	1.50e-06	0	41	0	159383552	16	4258
2026-01-10 08:53:32.59	111.16	11.14	-27.7	-29.2	14.1	2.20e-06	0	41	0	162529280	16	4315
2026-01-10 08:53:33.59	111.07	11.22	-28.0	-30.0	13.7	5.30e-06	0	41	0	165675008	16	4546
2026-01-10 08:53:34.60	110.97	11.30	-27.6	-29.1	14.2	2.20e-06	0	41	0	168820736	16	4255
2026-01-10 08:53:35.60	110.88	11.38	-27.9	-29.8	13.8	3.00e-06	0	41	0	171966464	16	4465
2026-01-10 08:53:36.60	110.78	11.46	-27.9	-29.8	13.8	6.10e-06	0	41	0	175112192	16	4474
2026-01-10 08:53:37.61	110.68	11.54	-27.8	-29.5	13.9	1.29e-05	0	41	0	178257920	16	4383
2026-01-10 08:53:38.61	110.59	11.62	-28.3	-30.8	13.3	7.60e-06	0	41	0	181403648	16	4788
2026-01-10 08:53:39.62	110.49	11.70	-27.8	-29.0	14.0	3.00e-06	0	41	0	184549376	17	4124
2026-01-10 08:53:40.61	110.39	11.78	-27.6	-29.1	14.2	7.00e-07	0	41	0	187695104	16	4276
2026-01-10 08:53:41.61	110.29	11.86	-27.7	-29.2	14.2	1.50e-06	0	41	0	190840832	16	4301
2026-01-10 08:53:42.61	110.19	11.95	-27.6	-29.1	14.2	7.00e-07	0	41	0	193986560	16	4267
2026-01-10 08:53:43.61	110.10	12.03	-27.6	-29.0	14.3	1.50e-06	0	41	0	197132288	16	4246
2026-01-10 08:53:44.61	110.00	12.11	-27.5	-28.8	14.4	0.00e+00	0	41	0	200278016	16	4171
2026-01-10 08:53:45.61	109.89	12.19	-27.5	-28.9	14.4	1.50e-06	0	41	0	203423744	16	4215
2026-01-10 08:53:46.60	109.79	12.27	-27.5	-28.9	14.3	0.00e+00	0	41	0	206569472	16	4215
2026-01-10 08:53:47.60	109.69	12.35	-27.5	-28.8	14.5	7.00e-07	0	41	0	209715200	16	4175
2026-01-10 08:53:48.60	109.59	12.43	-27.6	-29.0	14.4	7.00e-07	0	41	0	212860928	16	4230
2026-01-10 08:53:49.60	109.49	12.52	-27.6	-29.0	14.3	1.50e-06	0	41	0	216006656	16	4232
2026-01-10 08:53:50.61	109.38	12.60	-27.5	-28.8	14.5	0.00e+00	0	41	0	219152384	16	4186
2026-01-10 08:53:51.61	109.28	12.68	-27.4	-28.6	14.6	0.00e+00	0	41	0	222298112	16	4115
2026-01-10 08:53:52.61	109.18	12.76	-27.0	-28.2	14.9	0.00e+00	0	41	0	225443840	15	4136
2026-01-10 08:53:53.61	109.07	12.85	-27.2	-28.5	14.7	0.00e+00	0	41	0	228589568	15	4217
2026-01-10 08:53:54.61	108.96	12.93	-27.2	-28.6	14.7	0.00e+00	0	41	0	230686720	15	4253
2026-01-10 08:53:55.61	108.86	13.01	-27.0	-28.2	15.0	0.00e+00	0	41	0	233832448	15	4135
2026-01-10 08:53:56.61	108.75	13.10	-26.9	-28.1	15.1	0.00e+00	0	41	0	236978176	15	4091
2026-01-10 08:53:57.62	108.64	13.18	-27.0	-28.2	14.9	0.00e+00	0	41	0	240123904	15	4136
2026-01-10 08:53:58.62	108.53	13.26	-27.0	-28.3	14.9	0.00e+00	0	41	0	243269632	15	4150
2026-01-10 08:53:59.63	108.42	13.35	-27.0	-28.2	14.9	7.00e-07	0	41	0	246415360	15	4136
2026-01-10 08:54:00.63	108.31	13.43	-27.0	-28.2	15.0	0.00e+00	0	41	0	249561088	15	4133
2026-01-10 08:54:01.63	108.20	13.52	-27.1	-28.4	14.9	0.00e+00	0	41	0	252706816	15	4188
2026-01-10 08:54:02.63	108.09	13.60	-27.2	-28.7	14.7	0.00e+00	0	41	0	255852544	15	4268
2026-01-10 08:54:03.63	107.98	13.69	-27.2	-28.6	14.8	0.00e+00	0	41	0	258998272	15	4236
2026-01-10 08:54:04.63	107.87	13.77	-27.0	-28.3	15.0	0.00e+00	0	41	0	262144000	15	4142
2026-01-10 08:54:05.63	107.76	13.86	-27.1	-28.3	14.9	0.00e+00	0	41	0	265289728	15	4151
2026-01-10 08:54:06.63	107.64	13.94	-27.0	-28.2	15.0	0.00e+00	0	41	0	268435456	15	4134
2026-01-10 08:54:07.64	107.53	14.03	-27.2	-28.6	14.8	0.00e+00	0	41	0	271581184	15	4235
2026-01-10 08:54:08.65	107.41	14.11	-27.2	-28.6	14.8	0.00e+00	0	41	0	274726912	15	4243
2026-01-10 08:54:09.65	107.30	14.20	-27.2	-28.6	14.8	0.00e+00	0	41	0	277872640	15	4241
2026-01-10 08:54:10.66	107.18	14.29	-27.0	-28.0	15.1	0.00e+00	0	41	0	281018368	15	4082
2026-01-10 08:54:11.66	107.06	14.37	-27.0	-28.1	15.1	0.00e+00	0	41	0	284164096	15	4091
2026-01-10 08:54:12.66	106.95	14.46	-26.9	-28.0	15.1	0.00e+00	0	41	0	287309824	15	4075
2026-01-10 08:54:13.67	106.83	14.55	-27.0	-28.3	15.0	0.00e+00	0	41	0	290455552	15	4138
2026-01-10 08:54:14.67	106.71	14.63	-26.9	-27.9	15.2	0.00e+00	0	41	0	293601280	15	4051
2026-01-10 08:54:15.67	106.59	14.72	-26.9	-27.9	15.2	0.00e+00	0	41	0	296747008	15	4053
2026-01-10 08:54:16.67	106.47	14.81	-27.0	-28.1	15.2	0.00e+00	0	41	0	299892736	15	4083
2026-01-10 08:54:17.68	106.35	14.89	-26.8	-28.2	15.3	0.00e+00	0	41	0	303038464	14	4231
2026-01-10 08:54:18.68	106.22	14.98	-26.7	-28.0	15.5	3.80e-06	0	41	0	306184192	14	4175
2026-01-10 08:54:19.68	106.10	15.07	-26.9	-28.4	15.2	0.00e+00	0	41	0	309329920	14	4296
2026-01-10 08:54:20.68	105.98	15.16	-27.0	-28.7	15.1	0.00e+00	0	41	0	312475648	14	4363
2026-01-10 08:54:21.69	105.85	15.25	-27.0	-28.7	15.0	0.00e+00	0	41	0	315621376	14	4380
2026-01-10 08:54:22.69	105.73	15.33	-27.0	-28.6	15.1	0.00e+00	0	41	0	318767104	14	4351
2026-01-10 08:54:23.69	105.60	15.42	-26.9	-28.5	15.2	7.00e-07	0	41	0	321912832	14	4309
2026-01-10 08:54:24.70	105.48	15.51	-26.9	-28.5	15.3	7.00e-07	0	41	0	325058560	14	4299
2026-01-10 08:54:25.70	105.35	15.60	-26.9	-28.3	15.3	0.00e+00	0	41	0	328204288	14	4262
2026-01-10 08:54:26.71	105.22	15.69	-26.8	-28.1	15.5	0.00e+00	0	41	0	331350016	14	4201
2026-01-10 08:54:27.71	105.09	15.78	-27.1	-28.8	15.0	0.00e+00	0	41	0	334495744	14	4392
2026-01-10 08:54:28.71	104.96	15.87	-27.0	-28.6	15.2	1.50e-06	0	41	0	337641472	14	4336
2026-01-10 08:54:29.70	104.83	15.96	-27.0	-28.7	15.2	7.00e-07	0	41	0	340787200	14	4357
2026-01-10 08:54:30.71	104.70	16.05	-27.3	-29.3	14.8	5.30e-06	0	41	0	343932928	14	4550
2026-01-10 08:54:31.71	104.57	16.14	-27.2	-28.6	14.9	7.00e-07	0	41	0	347078656	15	4241
2026-01-10 08:54:32.71	104.44	16.23	-27.2	-28.6	14.9	0.00e+00	0	41	0	350224384	15	4231
2026-01-10 08:54:33.72	104.30	16.32	-27.1	-28.5	15.0	3.00e-06	0	41	0	353370112	15	4189
2026-01-10 08:54:34.72	104.17	16.41	-27.1	-28.4	15.0	0.00e+00	0	41	0	356515840	15	4182
2026-01-10 08:54:35.72	104.03	16.50	-27.2	-28.6	14.9	7.00e-07	0	41	0	359661568	15	4217
2026-01-10 08:54:36.72	103.90	16.59	-27.1	-28.4	15.0	0.00e+00	0	41	0	362807296	15	4181
2026-01-10 08:54:37.73	103.76	16.68	-27.2	-28.6	14.9	0.00e+00	0	41	0	365953024	15	4231
2026-01-10 08:54:38.73	103.62	16.77	-27.0	-28.2	15.1	0.00e+00	0	41	0	369098752	15	4129
2026-01-10 08:54:39.73	103.48	16.86	-27.1	-28.2	15.2	0.00e+00	0	41	0	372244480	15	4131
2026-01-10 08:54:40.73	103.34	16.95	-27.1	-28.3	15.1	0.00e+00	0	41	0	375390208	15	4151
2026-01-10 08:54:41.73	103.20	17.04	-27.2	-28.5	15.0	0.00e+00	0	41	0	378535936	15	4198
2026-01-10 08:54:42.73	103.06	17.14	-27.2	-28.5	15.0	0.00e+00	0	41	0	381681664	15	4202
2026-01-10 08:54:43.73	102.92	17.23	-27.1	-28.3	15.1	0.00e+00	0	41	0	384827392	15	4144
2026-01-10 08:54:44.74	102.78	17.32	-27.1	-28.4	15.1	7.00e-07	0	41	0	387973120	15	4160
2026-01-10 08:54:45.74	102.63	17.41	-27.1	-28.4	15.1	0.00e+00	0	41	0	391118848	15	4174
2026-01-10 08:54:46.74	102.49	17.51	-27.0	-28.2	15.2	0.00e+00	0	41	0	394264576	15	4121
2026-01-10 08:54:47.75	102.34	17.60	-27.1	-28.3	15.2	0.00e+00	0	41	0	397410304	15	4136
2026-01-10 08:54:48.74	102.20	17.69	-26.9	-27.9	15.4	0.00e+00	0	42	0	400556032	15	4023
2026-01-10 08:54:49.74	102.05	17.78	-26.9	-27.9	15.4	0.00e+00	0	42	0	403701760	15	4030
2026-01-10 08:54:50.75	101.90	17.88	-26.9	-27.9	15.4	0.00e+00	0	41	0	406847488	15	4037
2026-01-10 08:54:51.75	101.75	17.97	-26.9	-28.0	15.3	7.00e-07	0	42	0	409993216	15	4056
2026-01-10 08:54:52.76	101.60	18.06	-26.9	-27.8	15.5	0.00e+00	0	42	0	413138944	15	4000
2026-01-10 08:54:53.76	101.45	18.16	-27.2	-28.7	15.0	0.00e+00	0	41	0	416284672	15	4246
2026-01-10 08:54:54.76	101.30	18.25	-27.1	-28.3	15.2	2.20e-06	0	41	0	419430400	15	4131
2026-01-10 08:54:55.76	101.15	18.34	-26.9	-28.0	15.3	0.00e+00	0	41	0	422576128	15	4064
2026-01-10 08:54:56.77	100.99	18.44	-27.0	-28.1	15.3	0.00e+00	0	41	0	425721856	15	4099
2026-01-10 08:54:57.77	100.84	18.53	-27.0	-28.0	15.3	0.00e+00	0	42	0	428867584	15	4070
2026-01-10 08:54:58.77	100.68	18.63	-26.8	-27.8	15.5	0.00e+00	0	41	0	432013312	15	4002
2026-01-10 08:54:59.77	100.52	18.72	-27.6	-29.5	14.5	0.00e+00	0	41	0	435159040	15	4493
2026-01-10 08:55:00.78	100.36	18.82	-27.1	-28.3	15.2	2.20e-06	0	41	0	438304768	15	4142
2026-01-10 08:55:01.78	100.21	18.91	-27.3	-28.8	15.0	0.00e+00	0	41	0	441450496	15	4276
2026-01-10 08:55:02.78	100.05	19.00	-26.8	-28.1	15.6	0.00e+00	0	41	0	444596224	14	4180
2026-01-10 08:55:03.78	99.89	19.10	-27.3	-29.3	15.0	0.00e+00	0	42	0	447741952	14	4530
2026-01-10 08:55:04.79	99.72	19.20	-27.3	-29.3	14.9	0.00e+00	0	42	0	450887680	14	4541
2026-01-10 08:55:05.79	99.56	19.29	-26.8	-28.2	15.6	0.00e+00	0	42	0	454033408	14	4213
2026-01-10 08:55:06.78	99.40	19.38	-26.8	-28.2	15.6	0.00e+00	0	42	0	457179136	14	4204
2026-01-10 08:55:07.78	99.23	19.48	-27.0	-28.7	15.3	0.00e+00	0	42	0	460324864	14	4344
2026-01-10 08:55:08.79	99.07	19.58	-26.9	-28.4	15.4	0.00e+00	0	42	0	463470592	14	4282
2026-01-10 08:55:09.79	98.90	19.67	-26.9	-28.5	15.4	0.00e+00	0	41	0	466616320	14	4295
2026-01-10 08:55:10.79	98.73	19.77	-26.8	-28.2	15.6	0.00e+00	0	42	0	469762048	14	4226
2026-01-10 08:55:11.79	98.56	19.86	-27.2	-28.9	15.2	0.00e+00	0	42	0	472907776	14	4428
2026-01-10 08:55:12.79	98.39	19.96	-26.9	-28.3	15.6	0.00e+00	0	41	0	476053504	14	4246
2026-01-10 08:55:13.79	98.22	20.05	-27.1	-28.3	15.2	0.00e+00	0	41	0	479199232	15	4150
2026-01-10 08:55:14.80	98.05	20.15	-26.8	-27.7	15.6	0.00e+00	0	42	0	482344960	15	3977
2026-01-10 08:55:15.80	97.87	20.25	-26.5	-27.5	16.0	0.00e+00	0	41	0	484442112	14	4039
2026-01-10 08:55:16.81	97.70	20.34	-26.5	-27.4	16.0	0.00e+00	0	42	0	487587840	14	4009
2026-01-10 08:55:17.81	97.52	20.44	-26.4	-27.3	16.1	0.00e+00	0	42	0	490733568	14	3981
2026-01-10 08:55:18.81	97.35	20.54	-26.4	-27.2	16.1	0.00e+00	0	42	0	493879296	14	3957
2026-01-10 08:55:19.82	97.17	20.63	-26.6	-27.7	15.9	0.00e+00	0	41	0	497025024	14	4075
2026-01-10 08:55:20.82	96.99	20.73	-26.5	-27.6	16.0	0.00e+00	0	42	0	500170752	14	4047
2026-01-10 08:55:21.82	96.81	20.83	-26.5	-27.4	16.1	0.00e+00	0	41	0	503316480	14	4001
2026-01-10 08:55:22.82	96.63	20.92	-26.7	-27.9	15.8	0.00e+00	0	41	0	506462208	14	4138
2026-01-10 08:55:23.82	96.44	21.02	-26.7	-27.8	15.8	0.00e+00	0	41	0	509607936	14	4112
2026-01-10 08:55:24.82	96.26	21.11	-26.4	-27.3	16.1	0.00e+00	0	42	0	512753664	14	3989
2026-01-10 08:55:25.82	96.08	21.21	-26.2	-27.4	16.4	0.00e+00	0	42	0	515899392	13	4098
2026-01-10 08:55:26.82	95.89	21.31	-26.2	-27.4	16.3	0.00e+00	0	42	0	519045120	13	4109
2026-01-10 08:55:27.82	95.70	21.41	-26.2	-27.4	16.4	0.00e+00	0	42	0	522190848	13	4097
2026-01-10 08:55:28.82	95.51	21.50	-26.3	-27.6	16.2	0.00e+00	0	42	0	525336576	13	4154
2026-01-10 08:55:29.83	95.32	21.60	-26.2	-27.2	16.4	0.00e+00	0	42	0	528482304	13	4063
2026-01-10 08:55:30.83	95.13	21.70	-26.2	-27.3	16.4	0.00e+00	0	42	0	531628032	13	4072
2026-01-10 08:55:31.84	94.94	21.79	-26.3	-27.6	16.3	0.00e+00	0	42	0	534773760	13	4157
2026-01-10 08:55:32.83	94.75	21.89	-26.4	-27.7	16.2	0.00e+00	0	42	0	537919488	13	4193
2026-01-10 08:55:33.84	94.55	21.99	-26.5	-27.9	16.1	0.00e+00	0	41	0	541065216	13	4233
2026-01-10 08:55:34.83	94.36	22.08	-26.6	-28.1	16.0	0.00e+00	0	42	0	544210944	13	4292
2026-01-10 08:55:35.84	94.16	22.18	-26.5	-27.9	16.1	0.00e+00	0	42	0	547356672	13	4236
2026-01-10 08:55:36.84	93.96	22.28	-26.4	-27.8	16.1	0.00e+00	0	41	0	550502400	13	4218
2026-01-10 08:55:37.84	93.76	22.38	-26.5	-27.9	16.1	0.00e+00	0	42	0	553648128	13	4239
2026-01-10 08:55:38.85	93.56	22.47	-26.4	-27.6	16.2	0.00e+00	0	42	0	556793856	13	4169
2026-01-10 08:55:39.84	93.36	22.57	-26.3	-27.4	16.4	0.00e+00	0	42	0	559939584	13	4105
2026-01-10 08:55:40.84	93.16	22.67	-26.5	-28.1	16.0	0.00e+00	0	42	0	563085312	13	4284
2026-01-10 08:55:41.85	92.95	22.76	-26.6	-28.2	15.9	0.00e+00	0	42	0	566231040	13	4312
2026-01-10 08:55:42.85	92.75	22.86	-26.5	-28.0	16.1	0.00e+00	0	42	0	569376768	13	4260
2026-01-10 08:55:43.86	92.54	22.96	-26.8	-28.7	15.6	0.00e+00	0	42	0	572522496	13	4475
2026-01-10 08:55:44.86	92.33	23.06	-26.9	-28.4	15.7	0.00e+00	0	42	0	575668224	14	4257
2026-01-10 08:55:45.87	92.12	23.15	-26.4	-27.2	16.2	0.00e+00	0	42	0	578813952	14	3962
2026-01-10 08:55:46.87	91.91	23.25	-26.0	-26.8	16.7	0.00e+00	0	42	0	581959680	13	3958
2026-01-10 08:55:47.87	91.70	23.35	-25.9	-26.7	16.8	0.00e+00	0	42	0	585105408	13	3923
2026-01-10 08:55:48.88	91.48	23.45	-26.0	-26.8	16.7	0.00e+00	0	41	0	588251136	13	3963
2026-01-10 08:55:49.88	91.27	23.54	-25.8	-26.5	16.9	0.00e+00	0	42	0	591396864	13	3875
2026-01-10 08:55:50.88	91.05	23.64	-25.9	-26.5	16.8	0.00e+00	0	41	0	594542592	13	3889
2026-01-10 08:55:51.89	90.83	23.74	-26.0	-26.9	16.7	0.00e+00	0	42	0	597688320	13	3986
2026-01-10 08:55:52.89	90.61	23.83	-26.5	-27.9	16.1	0.00e+00	0	42	0	600834048	13	4229
2026-01-10 08:55:53.89	90.39	23.93	-26.4	-27.7	16.2	0.00e+00	0	42	0	603979776	13	4199
2026-01-10 08:55:54.89	90.17	24.02	-26.8	-28.7	15.7	0.00e+00	0	42	0	607125504	13	4468
2026-01-10 08:55:55.90	89.95	24.12	-26.3	-27.5	16.3	0.00e+00	0	42	0	610271232	13	4143
2026-01-10 08:55:56.90	89.72	24.22	-27.2	-29.1	15.3	0.00e+00	0	42	0	613416960	14	4460
2026-01-10 08:55:57.90	89.50	24.31	-26.7	-27.8	16.0	0.00e+00	0	42	0	616562688	14	4098
2026-01-10 08:55:58.90	89.27	24.41	-26.3	-27.5	16.4	0.00e+00	0	42	0	619708416	13	4133
2026-01-10 08:55:59.90	89.04	24.50	-26.3	-27.5	16.4	0.00e+00	0	42	0	622854144	13	4129
2026-01-10 08:56:00.91	88.81	24.60	-26.2	-27.4	16.4	0.00e+00	0	42	0	625999872	13	4100
2026-01-10 08:56:01.91	88.58	24.69	-26.4	-27.7	16.2	0.00e+00	0	42	0	629145600	13	4194
2026-01-10 08:56:02.91	88.34	24.79	-26.8	-28.6	15.8	0.00e+00	0	42	0	632291328	13	4442
2026-01-10 08:56:03.92	88.11	24.88	-26.7	-28.3	15.9	0.00e+00	0	42	0	635437056	13	4356
2026-01-10 08:56:04.92	87.87	24.98	-26.6	-28.2	16.0	0.00e+00	0	42	0	638582784	13	4309
2026-01-10 08:56:05.93	87.63	25.07	-26.8	-28.5	15.8	0.00e+00	0	42	0	641728512	13	4404
2026-01-10 08:56:06.92	87.40	25.17	-26.6	-28.2	16.0	0.00e+00	0	42	0	644874240	13	4331
2026-01-10 08:56:07.92	87.16	25.26	-26.5	-28.0	16.1	0.00e+00	0	42	0	648019968	13	4275
2026-01-10 08:56:08.93	86.91	25.36	-26.5	-27.9	16.2	0.00e+00	0	42	0	651165696	13	4241
2026-01-10 08:56:09.93	86.67	25.45	-26.7	-28.4	15.9	0.00e+00	0	42	0	654311424	13	4366
2026-01-10 08:56:10.93	86.43	25.54	-26.8	-28.6	15.8	0.00e+00	0	42	0	657457152	13	4444
2026-01-10 08:56:11.94	86.18	25.64	-26.6	-28.1	16.1	0.00e+00	0	42	0	660602880	13	4286
2026-01-10 08:56:12.93	85.94	25.73	-26.6	-28.1	16.1	0.00e+00	0	42	0	663748608	13	4281
2026-01-10 08:56:13.93	85.69	25.82	-26.5	-28.0	16.1	0.00e+00	0	42	0	666894336	13	4252
2026-01-10 08:56:14.93	85.44	25.91	-26.4	-27.8	16.2	0.00e+00	0	42	0	670040064	13	4201
2026-01-10 08:56:15.93	85.19	26.00	-26.5	-27.8	16.2	0.00e+00	0	42	0	673185792	13	4217
2026-01-10 08:56:16.94	84.93	26.10	-26.5	-27.9	16.2	0.00e+00	0	42	0	676331520	13	4230
2026-01-10 08:56:17.94	84.68	26.19	-26.6	-28.2	16.1	0.00e+00	0	42	0	679477248	13	4314
2026-01-10 08:56:18.94	84.42	26.28	-26.8	-28.5	15.9	0.00e+00	0	42	0	682622976	13	4409
2026-01-10 08:56:19.95	84.16	26.37	-26.7	-28.3	16.0	0.00e+00	0	42	0	685768704	13	4344
2026-01-10 08:56:20.95	83.90	26.46	-26.7	-28.4	15.9	0.00e+00	0	42	0	688914432	13	4388
2026-01-10 08:56:21.95	83.64	26.55	-26.8	-28.6	15.8	0.00e+00	0	42	0	692060160	13	4437
2026-01-10 08:56:22.95	83.38	26.64	-27.0	-28.6	15.6	0.00e+00	0	42	0	695205888	14	4308
2026-01-10 08:56:23.95	83.12	26.73	-26.8	-28.1	15.8	0.00e+00	0	42	0	698351616	14	4173
2026-01-10 08:56:24.96	82.85	26.82	-27.0	-28.6	15.6	0.00e+00	0	42	0	701497344	14	4323
2026-01-10 08:56:25.96	82.58	26.91	-26.9	-28.4	15.7	0.00e+00	0	42	0	704643072	14	4268
2026-01-10 08:56:26.96	82.32	27.00	-26.9	-28.2	15.8	0.00e+00	0	42	0	707788800	14	4213
2026-01-10 08:56:27.97	82.05	27.08	-26.9	-28.3	15.7	0.00e+00	0	42	0	710934528	14	4237
2026-01-10 08:56:28.97	81.78	27.17	-26.8	-28.0	15.9	0.00e+00	0	42	0	713031680	14	4147
2026-01-10 08:56:29.97	81.50	27.26	-26.8	-28.0	15.9	0.00e+00	0	42	0	716177408	14	4150
2026-01-10 08:56:30.97	81.23	27.34	-26.8	-28.1	15.9	0.00e+00	0	42	0	719323136	14	4189
2026-01-10 08:56:31.98	80.95	27.43	-27.2	-29.0	15.4	0.00e+00	0	41	0	722468864	14	4426
2026-01-10 08:56:32.97	80.68	27.52	-26.9	-28.3	15.8	1.50e-06	0	42	0	725614592	14	4235
2026-01-10 08:56:33.98	80.40	27.60	-26.9	-28.2	15.8	0.00e+00	0	42	0	728760320	14	4209
2026-01-10 08:56:34.98	80.12	27.69	-26.8	-28.1	15.9	0.00e+00	0	42	0	732954624	14	4171
2026-01-10 08:56:35.99	79.83	27.77	-27.2	-28.9	15.5	3.00e-06	0	42	0	736100352	14	4399
2026-01-10 08:56:36.99	79.55	27.85	-26.9	-28.3	15.8	0.00e+00	0	42	0	738197504	14	4234
2026-01-10 08:56:37.99	79.27	27.94	-27.0	-28.6	15.6	0.00e+00	0	42	0	741343232	14	4310
2026-01-10 08:56:39.00	78.98	28.02	-26.9	-27.7	15.9	6.80e-06	0	42	0	744488960	15	3970
2026-01-10 08:56:40.01	78.69	28.10	-26.8	-28.0	16.0	0.00e+00	0	42	0	747634688	14	4139
2026-01-10 08:56:41.02	78.40	28.18	-26.8	-28.0	16.0	0.00e+00	0	42	0	750780416	14	4156
2026-01-10 08:56:42.02	78.11	28.26	-26.9	-28.2	15.9	4.50e-06	0	42	0	753926144	14	4195
2026-01-10 08:56:43.02	77.82	28.34	-27.0	-28.4	15.8	0.00e+00	0	42	0	757071872	14	4261
2026-01-10 08:56:44.02	77.53	28.42	-27.0	-28.5	15.7	0.00e+00	0	42	0	760217600	14	4277
2026-01-10 08:56:45.03	77.23	28.50	-26.8	-28.2	15.9	3.80e-06	0	42	0	763363328	14	4190
2026-01-10 08:56:46.03	76.93	28.58	-26.8	-28.0	16.0	0.00e+00	0	41	0	766509056	14	4148
2026-01-10 08:56:47.03	76.64	28.66	-26.8	-27.9	16.0	0.00e+00	0	42	0	769654784	14	4131
2026-01-10 08:56:48.03	76.34	28.74	-27.0	-28.5	15.7	6.80e-06	0	42	0	772800512	14	4291
2026-01-10 08:56:49.03	76.04	28.81	-26.8	-28.0	16.0	0.00e+00	0	42	0	775946240	14	4135
2026-01-10 08:56:50.04	75.73	28.89	-26.7	-27.9	16.0	0.00e+00	0	42	0	779091968	14	4128
2026-01-10 08:56:51.05	75.43	28.96	-26.8	-28.2	15.9	6.10e-06	0	42	0	782237696	14	4197
2026-01-10 08:56:52.04	75.13	29.04	-26.8	-28.1	15.9	0.00e+00	0	42	0	785383424	14	4162
2026-01-10 08:56:53.05	74.82	29.11	-26.8	-28.1	16.0	0.00e+00	0	42	0	788529152	14	4163
2026-01-10 08:56:54.05	74.51	29.18	-27.1	-28.7	15.6	6.10e-06	0	42	0	791674880	14	4345
2026-01-10 08:56:55.06	74.20	29.26	-26.8	-28.1	15.9	0.00e+00	0	42	0	794820608	14	4178
2026-01-10 08:56:56.06	73.89	29.33	-26.9	-28.3	15.8	0.00e+00	0	42	0	797966336	14	4238
2026-01-10 08:56:57.06	73.58	29.40	-27.2	-29.0	15.5	0.00e+00	0	42	0	801112064	14	4408
2026-01-10 08:56:58.07	73.26	29.47	-27.3	-29.1	15.4	0.00e+00	0	42	0	804257792	14	4449
2026-01-10 08:56:59.07	72.95	29.54	-27.4	-29.3	15.3	0.00e+00	0	42	0	807403520	14	4518
2026-01-10 08:57:00.07	72.63	29.61	-27.4	-29.3	15.3	8.30e-06	0	42	0	810549248	14	4516
2026-01-10 08:57:01.08	72.31	29.67	-27.6	-29.3	15.0	0.00e+00	0	42	0	813694976	15	4405
2026-01-10 08:57:02.08	72.00	29.74	-27.7	-29.6	14.8	0.00e+00	0	42	0	816840704	15	4469
2026-01-10 08:57:03.08	71.68	29.80	-27.5	-29.1	15.2	0.00e+00	0	42	0	819986432	15	4325
2026-01-10 08:57:04.08	71.36	29.87	-27.7	-29.6	14.8	0.00e+00	0	42	0	823132160	15	4483
2026-01-10 08:57:05.09	71.03	29.93	-27.6	-29.4	15.0	0.00e+00	0	42	0	826277888	15	4415
2026-01-10 08:57:06.09	70.71	30.00	-27.6	-29.4	14.9	7.00e-07	0	42	0	829423616	15	4431
2026-01-10 08:57:07.10	70.38	30.06	-27.9	-30.1	14.5	0.00e+00	0	42	0	832569344	15	4631
2026-01-10 08:57:08.10	70.06	30.12	-27.3	-28.8	15.3	0.00e+00	0	42	0	835715072	15	4243
2026-01-10 08:57:09.10	69.73	30.18	-27.2	-28.4	15.5	0.00e+00	0	42	0	838860800	15	4156
2026-01-10 08:57:10.10	69.40	30.24	-27.3	-28.6	15.4	0.00e+00	0	42	0	842006528	15	4211
2026-01-10 08:57:11.11	69.07	30.30	-27.4	-28.9	15.2	0.00e+00	0	42	0	845152256	15	4291
2026-01-10 08:57:12.12	68.74	30.36	-27.2	-28.5	15.5	0.00e+00	0	42	0	848297984	15	4176
2026-01-10 08:57:13.12	68.40	30.41	-27.3	-28.7	15.4	0.00e+00	0	42	0	851443712	15	4219
2026-01-10 08:57:14.13	68.07	30.47	-27.4	-29.0	15.2	0.00e+00	0	42	0	854589440	15	4300
2026-01-10 08:57:15.13	67.73	30.52	-27.2	-28.4	15.6	0.00e+00	0	42	0	857735168	15	4133
2026-01-10 08:57:16.12	67.40	30.58	-27.1	-28.2	15.7	0.00e+00	0	42	0	860880896	15	4077
2026-01-10 08:57:17.12	67.07	30.63	-27.1	-28.3	15.6	0.00e+00	0	42	0	864026624	15	4124
2026-01-10 08:57:18.13	66.73	30.68	-27.2	-28.6	15.4	0.00e+00	0	42	0	867172352	15	4189
2026-01-10 08:57:19.13	66.39	30.73	-27.2	-28.5	15.5	0.00e+00	0	42	0	870318080	15	4166
2026-01-10 08:57:20.13	66.05	30.78	-27.3	-28.8	15.3	0.00e+00	0	42	0	873463808	15	4247
2026-01-10 08:57:21.13	65.71	30.83	-27.4	-28.9	15.2	0.00e+00	0	42	0	876609536	15	4290
2026-01-10 08:57:22.13	65.37	30.88	-27.5	-29.2	15.1	0.00e+00	0	42	0	879755264	15	4363
2026-01-10 08:57:23.13	65.03	30.92	-27.5	-29.2	15.1	0.00e+00	0	42	0	882900992	15	4378
2026-01-10 08:57:24.12	64.69	30.97	-27.7	-29.5	14.9	0.00e+00	0	42	0	886046720	15	4470
2026-01-10 08:57:25.13	64.34	31.01	-27.9	-30.1	14.5	7.00e-07	0	42	0	889192448	15	4648
2026-01-10 08:57:26.14	63.99	31.05	-27.8	-29.9	14.7	0.00e+00	0	42	0	892338176	15	4581
2026-01-10 08:57:27.14	63.64	31.10	-27.7	-29.7	14.8	0.00e+00	0	42	0	895483904	15	4509
2026-01-10 08:57:28.13	63.30	31.14	-27.7	-29.7	14.8	0.00e+00	0	42	0	898629632	15	4515
2026-01-10 08:57:29.13	62.95	31.18	-27.8	-29.8	14.8	7.00e-07	0	42	0	901775360	15	4532
2026-01-10 08:57:30.13	62.61	31.21	-28.1	-30.0	14.5	7.00e-07	0	42	0	904921088	16	4462
2026-01-10 08:57:31.14	62.25	31.25	-28.1	-29.9	14.6	0.00e+00	0	42	0	908066816	16	4447
2026-01-10 08:57:32.14	61.90	31.29	-28.2	-30.2	14.5	7.00e-07	0	42	0	911212544	16	4521
2026-01-10 08:57:33.14	61.55	31.32	-27.8	-29.4	14.9	0.00e+00	0	42	0	914358272	16	4301
2026-01-10 08:57:34.14	61.20	31.36	-27.6	-28.9	15.2	0.00e+00	0	42	0	917504000	16	4172
2026-01-10 08:57:35.15	60.84	31.39	-27.5	-28.6	15.3	0.00e+00	0	42	0	920649728	16	4086
2026-01-10 08:57:36.15	60.49	31.42	-27.5	-28.7	15.3	0.00e+00	0	42	0	923795456	16	4103
2026-01-10 08:57:37.15	60.14	31.45	-27.6	-28.9	15.2	0.00e+00	0	42	0	926941184	16	4153
2026-01-10 08:57:38.15	59.78	31.48	-27.5	-28.6	15.3	0.00e+00	0	41	0	930086912	16	4086
2026-01-10 08:57:39.15	59.43	31.51	-27.7	-29.0	15.1	7.00e-07	0	42	0	933232640	16	4195
2026-01-10 08:57:40.14	59.08	31.53	-27.8	-29.2	15.0	0.00e+00	0	42	0	936378368	16	4235
2026-01-10 08:57:41.15	58.72	31.56	-27.9	-29.4	14.9	0.00e+00	0	42	0	939524096	16	4300
2026-01-10 08:57:42.15	58.36	31.58	-28.1	-30.1	14.5	0.00e+00	0	42	0	942669824	16	4504
2026-01-10 08:57:43.16	58.00	31.60	-28.0	-29.8	14.6	0.00e+00	0	42	0	945815552	16	4404
2026-01-10 08:57:44.16	57.64	31.63	-27.8	-29.2	15.0	0.00e+00	0	42	0	948961280	16	4262
2026-01-10 08:57:45.16	57.28	31.65	-27.7	-29.1	15.0	0.00e+00	0	42	0	952107008	16	4234
2026-01-10 08:57:46.16	56.93	31.67	-28.0	-29.8	14.7	0.00e+00	0	42	0	955252736	16	4417
2026-01-10 08:57:47.16	56.57	31.68	-27.7	-28.9	15.1	0.00e+00	0	42	0	958398464	16	4173
2026-01-10 08:57:48.17	56.20	31.70	-27.7	-29.0	15.1	0.00e+00	0	42	0	961544192	16	4194
2026-01-10 08:57:49.17	55.84	31.72	-27.8	-29.4	14.9	0.00e+00	0	42	0	964689920	16	4293
2026-01-10 08:57:50.17	55.48	31.73	-27.8	-29.2	15.0	7.00e-07	0	42	0	966787072	16	4258
2026-01-10 08:57:51.17	55.12	31.74	-27.8	-29.3	14.9	0.00e+00	0	42	0	969932800	16	4275
2026-01-10 08:57:52.18	54.76	31.75	-27.9	-29.6	14.8	0.00e+00	0	42	0	973078528	16	4365
2026-01-10 08:57:53.18	54.40	31.76	-27.9	-29.6	14.8	0.00e+00	0	42	0	977272832	16	4356
2026-01-10 08:57:54.18	54.04	31.77	-27.9	-29.5	14.8	0.00e+00	0	42	0	979369984	16	4326
2026-01-10 08:57:55.18	53.68	31.78	-27.9	-29.6	14.8	0.00e+00	0	42	0	983564288	16	4348
2026-01-10 08:57:56.19	53.31	31.79	-28.0	-29.6	14.8	7.00e-07	0	42	0	986710016	16	4370
2026-01-10 08:57:57.19	52.95	31.79	-27.9	-29.5	14.8	0.00e+00	0	42	0	989855744	16	4327
2026-01-10 08:57:58.19	52.59	31.79	-27.8	-29.3	15.0	0.00e+00	0	42	0	991952896	16	4280
2026-01-10 08:57:59.19	52.23	31.80	-28.0	-29.8	14.6	7.00e-07	0	42	0	995098624	16	4422
2026-01-10 08:58:00.18	51.87	31.80	-27.9	-29.6	14.8	7.00e-07	0	42	0	998244352	16	4360
2026-01-10 08:58:01.19	51.51	31.80	-27.8	-29.4	14.9	0.00e+00	0	42	0	1001390080	16	4300
2026-01-10 08:58:02.19	51.14	31.80	-27.8	-29.3	14.9	7.00e-07	0	42	0	1004535808	16	4288
2026-01-10 08:58:03.19	50.78	31.79	-27.8	-29.2	15.0	0.00e+00	0	42	0	1007681536	16	4260
2026-01-10 08:58:04.19	50.42	31.79	-27.8	-29.2	15.0	0.00e+00	0	42	0	1010827264	16	4252
2026-01-10 08:58:05.20	50.06	31.78	-27.7	-29.0	15.1	0.00e+00	0	42	0	1013972992	16	4192
2026-01-10 08:58:06.20	49.70	31.78	-27.7	-29.0	15.1	0.00e+00	0	42	0	1017118720	16	4190
2026-01-10 08:58:07.20	49.34	31.77	-27.9	-29.5	14.8	0.00e+00	0	42	0	1020264448	16	4336
2026-01-10 08:58:08.21	48.97	31.76	-27.7	-29.2	15.0	0.00e+00	0	42	0	1023410176	16	4237
2026-01-10 08:58:09.21	48.61	31.75	-27.8	-29.3	14.9	7.00e-07	0	42	0	1026555904	16	4280
2026-01-10 08:58:10.21	48.25	31.74	-27.8	-29.3	14.9	1.50e-06	0	42	0	1029701632	16	4271
2026-01-10 08:58:11.20	47.89	31.72	-27.6	-28.8	15.2	0.00e+00	0	42	0	1032847360	16	4141
2026-01-10 08:58:12.21	47.53	31.71	-27.5	-28.6	15.4	0.00e+00	0	42	0	1035993088	16	4079
2026-01-10 08:58:13.21	47.17	31.69	-27.5	-28.7	15.3	0.00e+00	0	42	0	1039138816	16	4109
2026-01-10 08:58:14.21	46.81	31.68	-27.8	-29.2	15.0	0.00e+00	0	42	0	1042284544	16	4252
2026-01-10 08:58:15.21	46.45	31.66	-28.1	-29.9	14.6	0.00e+00	0	42	0	1045430272	16	4453
2026-01-10 08:58:16.21	46.10	31.64	-27.6	-28.9	15.1	0.00e+00	0	42	0	1048576000	16	4180
2026-01-10 08:58:17.22	45.73	31.62	-27.0	-28.0	15.8	7.00e-07	0	42	0	1051721728	15	4028
2026-01-10 08:58:18.23	45.37	31.60	-27.0	-28.0	15.8	0.00e+00	0	42	0	1054867456	15	4037
2026-01-10 08:58:19.22	45.02	31.57	-27.0	-27.9	15.8	0.00e+00	0	42	0	1058013184	15	4009
2026-01-10 08:58:20.23	44.66	31.55	-27.1	-28.1	15.7	0.00e+00	0	42	0	1061158912	15	4073
2026-01-10 08:58:21.23	44.31	31.52	-27.1	-28.2	15.7	0.00e+00	0	42	0	1064304640	15	4078
2026-01-10 08:58:22.23	43.95	31.50	-27.3	-28.7	15.4	0.00e+00	0	42	0	1067450368	15	4237
2026-01-10 08:58:23.23	43.60	31.47	-27.2	-28.6	15.5	0.00e+00	0	42	0	1070596096	15	4194
2026-01-10 08:58:24.23	43.24	31.44	-27.2	-28.4	15.5	0.00e+00	0	42	0	1073741824	15	4149
2026-01-10 08:58:25.24	42.89	31.41	-27.2	-28.4	15.5	0.00e+00	0	42	0	1076887552	15	4138
2026-01-10 08:58:26.23	42.54	31.38	-27.0	-28.0	15.8	0.00e+00	0	42	0	1080033280	15	4054
2026-01-10 08:58:27.24	42.18	31.35	-27.1	-28.2	15.7	0.00e+00	0	42	0	1083179008	15	4099
2026-01-10 08:58:28.24	41.83	31.31	-27.1	-28.1	15.7	0.00e+00	0	42	0	1086324736	15	4072
2026-01-10 08:58:29.24	41.48	31.28	-27.2	-28.4	15.6	0.00e+00	0	42	0	1089470464	15	4135
2026-01-10 08:58:30.24	41.13	31.24	-27.2	-28.4	15.5	0.00e+00	0	42	0	1092616192	15	4157
2026-01-10 08:58:31.23	40.79	31.20	-27.1	-28.3	15.6	0.00e+00	0	42	0	1095761920	15	4118
2026-01-10 08:58:32.24	40.44	31.16	-27.3	-28.7	15.4	0.00e+00	0	42	0	1098907648	15	4207
2026-01-10 08:58:33.24	40.09	31.12	-27.5	-29.1	15.2	0.00e+00	0	42	0	1102053376	15	4326
2026-01-10 08:58:34.25	39.74	31.08	-27.6	-29.3	15.0	0.00e+00	0	42	0	1105199104	15	4404
2026-01-10 08:58:35.25	39.39	31.04	-27.5	-29.2	15.1	0.00e+00	0	42	0	1108344832	15	4358
2026-01-10 08:58:36.25	39.05	31.00	-27.5	-29.2	15.1	0.00e+00	0	42	0	1111490560	15	4352
2026-01-10 08:58:37.26	38.70	30.95	-27.3	-28.8	15.3	0.00e+00	0	42	0	1114636288	15	4260
2026-01-10 08:58:38.26	38.36	30.91	-27.3	-28.7	15.4	0.00e+00	0	42	0	1117782016	15	4211
2026-01-10 08:58:39.26	38.02	30.86	-27.5	-29.1	15.2	0.00e+00	0	42	0	1120927744	15	4334
2026-01-10 08:58:40.26	37.68	30.81	-27.6	-29.3	15.1	0.00e+00	0	42	0	1124073472	15	4377
2026-01-10 08:58:41.26	37.34	30.77	-27.1	-28.2	15.7	0.00e+00	0	42	0	1127219200	15	4075
2026-01-10 08:58:42.26	37.00	30.72	-26.9	-27.7	16.0	0.00e+00	0	42	0	1130364928	15	3953
2026-01-10 08:58:43.27	36.66	30.66	-27.0	-28.0	15.8	0.00e+00	0	42	0	1133510656	15	4047
2026-01-10 08:58:44.27	36.33	30.61	-27.2	-28.5	15.5	0.00e+00	0	42	0	1136656384	15	4159
2026-01-10 08:58:45.27	35.99	30.56	-27.5	-29.2	15.1	0.00e+00	0	42	0	1139802112	15	4358
2026-01-10 08:58:46.27	35.66	30.51	-27.2	-28.5	15.5	0.00e+00	0	42	0	1142947840	15	4173
2026-01-10 08:58:47.27	35.33	30.45	-27.1	-28.2	15.7	0.00e+00	0	42	0	1146093568	15	4097
2026-01-10 08:58:48.27	34.99	30.40	-27.0	-27.9	15.8	0.00e+00	0	42	0	1149239296	15	4023
2026-01-10 08:58:49.27	34.66	30.34	-27.0	-28.0	15.8	0.00e+00	0	42	0	1152385024	15	4044
2026-01-10 08:58:50.26	34.34	30.28	-26.9	-27.8	15.9	0.00e+00	0	42	0	1155530752	15	3996
2026-01-10 08:58:51.26	34.01	30.22	-26.9	-27.8	15.9	0.00e+00	0	42	0	1158676480	15	3990
2026-01-10 08:58:52.27	33.68	30.16	-27.3	-28.7	15.4	0.00e+00	0	42	0	1161822208	15	4239
2026-01-10 08:58:53.27	33.35	30.10	-27.5	-29.1	15.2	0.00e+00	0	42	0	1164967936	15	4327
2026-01-10 08:58:54.27	33.03	30.04	-27.5	-29.2	15.1	0.00e+00	0	42	0	1168113664	15	4353
2026-01-10 08:58:55.27	32.71	29.98	-27.4	-29.0	15.3	0.00e+00	0	42	0	1171259392	15	4317
2026-01-10 08:58:56.28	32.38	29.92	-27.5	-29.1	15.2	0.00e+00	0	42	0	1173356544	15	4337
2026-01-10 08:58:57.26	32.07	29.85	-27.7	-29.5	14.9	0.00e+00	0	42	0	1176502272	15	4457
2026-01-10 08:58:58.27	31.74	29.79	-27.8	-29.7	14.8	0.00e+00	0	42	0	1180696576	15	4526
2026-01-10 08:58:59.28	31.42	29.72	-27.8	-29.4	14.9	0.00e+00	0	42	0	1183842304	16	4289
2026-01-10 08:59:00.28	31.11	29.66	-28.0	-29.7	14.7	0.00e+00	0	42	0	1186988032	16	4385
2026-01-10 08:59:01.27	30.79	29.59	-28.1	-30.0	14.5	3.00e-06	0	42	0	1190133760	16	4489
2026-01-10 08:59:02.27	30.48	29.52	-28.5	-30.8	14.1	2.20e-06	0	42	0	1193279488	16	4734
2026-01-10 08:59:03.27	30.17	29.45	-28.8	-31.3	13.4	1.06e-05	0	42	0	1195376640	17	4765
2026-01-10 08:59:04.27	29.86	29.38	-29.0	-31.0	13.3	2.51e-05	0	42	0	1198522368	18	4569
2026-01-10 08:59:05.27	29.55	29.31	-29.0	-31.1	13.3	3.73e-05	0	42	0	1201668096	18	4600
2026-01-10 08:59:06.28	29.24	29.24	-29.2	-31.6	13.0	2.67e-05	0	42	0	1204813824	18	4736
2026-01-10 08:59:07.29	28.93	29.17	-28.4	-29.6	14.1	9.10e-06	0	42	0	1207959552	18	4154
2026-01-10 08:59:08.30	28.62	29.10	-28.5	-30.0	13.9	2.51e-05	0	42	0	1211105280	18	4257
2026-01-10 08:59:09.29	28.32	29.02	-28.3	-30.3	14.3	1.50e-06	0	42	0	1214251008	16	4577
2026-01-10 08:59:10.30	28.01	28.95	-28.4	-30.3	14.0	6.80e-06	0	42	0	1217396736	17	4449
2026-01-10 08:59:11.30	27.71	28.87	-28.5	-30.4	14.0	7.00e-07	0	42	0	1220542464	17	4496
2026-01-10 08:59:12.30	27.41	28.80	-28.8	-30.6	13.5	2.44e-05	0	42	0	1223688192	18	4418
2026-01-10 08:59:13.30	27.11	28.72	-28.7	-30.3	13.8	7.60e-06	0	42	0	1226833920	18	4340
2026-01-10 08:59:14.31	26.81	28.64	-29.1	-30.8	13.2	5.72e-05	0	42	0	1229979648	19	4393
2026-01-10 08:59:15.31	26.51	28.57	-28.8	-30.7	13.7	3.00e-06	0	42	0	1233125376	18	4447
2026-01-10 08:59:16.32	26.22	28.49	-29.4	-31.7	12.6	8.62e-05	0	42	0	1236271104	19	4679
2026-01-10 08:59:17.32	25.92	28.41	-28.8	-30.6	13.6	9.10e-06	0	42	0	1239416832	18	4442
2026-01-10 08:59:18.33	25.63	28.33	-28.8	-31.2	13.8	1.06e-05	0	42	0	1242562560	17	4724
2026-01-10 08:59:19.33	25.34	28.25	-28.3	-29.9	14.4	3.00e-06	0	42	0	1245708288	17	4331
2026-01-10 08:59:20.33	25.05	28.17	-28.9	-31.4	13.5	3.80e-06	0	42	0	1248854016	17	4802
2026-01-10 08:59:21.33	24.76	28.09	-29.3	-31.8	13.0	1.29e-05	0	42	0	1251999744	18	4806
2026-01-10 08:59:22.33	24.48	28.01	-29.0	-31.1	13.3	1.29e-05	0	42	0	1255145472	18	4602
2026-01-10 08:59:23.33	24.19	27.92	-28.4	-29.6	14.2	2.20e-06	0	42	0	1258291200	18	4156
2026-01-10 08:59:24.34	23.91	27.84	-27.8	-28.8	14.9	0.00e+00	0	42	0	1261436928	17	4043
2026-01-10 08:59:25.34	23.63	27.76	-27.3	-28.2	15.6	0.00e+00	0	42	0	1264582656	16	3974
2026-01-10 08:59:26.34	23.35	27.67	-26.9	-27.8	15.8	0.00e+00	0	42	0	1267728384	15	4000
2026-01-10 08:59:27.35	23.07	27.59	-26.9	-27.7	15.9	0.00e+00	0	42	0	1270874112	15	3967
2026-01-10 08:59:28.35	22.79	27.50	-26.8	-28.0	16.0	0.00e+00	0	42	0	1274019840	14	4139
2026-01-10 08:59:29.35	22.52	27.42	-26.9	-28.2	15.9	0.00e+00	0	42	0	1277165568	14	4206
2026-01-10 08:59:30.35	22.24	27.33	-26.7	-27.9	16.0	0.00e+00	0	42	0	1280311296	14	4124
2026-01-10 08:59:31.36	21.97	27.25	-26.5	-27.4	16.4	0.00e+00	0	42	0	1283457024	14	3988
2026-01-10 08:59:32.35	21.70	27.16	-26.4	-27.0	16.5	0.00e+00	0	42	0	1286602752	14	3898
2026-01-10 08:59:33.35	21.43	27.07	-26.2	-27.1	16.8	0.00e+00	0	42	0	1289748480	13	4014
2026-01-10 08:59:34.34	21.17	26.99	-25.7	-26.7	17.2	0.00e+00	0	42	0	1292894208	12	4021
2026-01-10 08:59:35.34	20.90	26.90	-25.7	-26.7	17.2	0.00e+00	0	42	0	1296039936	12	4019
2026-01-10 08:59:36.34	20.64	26.81	-25.9	-27.1	17.0	0.00e+00	0	42	0	1299185664	12	4122
2026-01-10 08:59:37.35	20.37	26.72	-26.1	-27.4	16.8	0.00e+00	0	42	0	1302331392	12	4212
2026-01-10 08:59:38.35	20.11	26.63	-26.3	-28.0	16.5	0.00e+00	0	42	0	1305477120	12	4360
2026-01-10 08:59:39.35	19.85	26.54	-26.5	-28.4	16.3	0.00e+00	0	42	0	1308622848	12	4488
2026-01-10 08:59:40.35	19.59	26.45	-26.6	-28.2	16.1	0.00e+00	0	42	0	1311768576	13	4320
2026-01-10 08:59:41.36	19.33	26.36	-26.6	-28.2	16.2	0.00e+00	0	42	0	1314914304	13	4313
2026-01-10 08:59:42.37	19.07	26.27	-26.6	-28.2	16.1	0.00e+00	0	42	0	1318060032	13	4308
2026-01-10 08:59:43.37	18.82	26.18	-26.5	-27.9	16.3	0.00e+00	0	42	0	1321205760	13	4226
2026-01-10 08:59:44.37	18.56	26.09	-26.3	-27.5	16.5	0.00e+00	0	42	0	1324351488	13	4114
2026-01-10 08:59:45.38	18.31	26.00	-26.4	-27.8	16.3	0.00e+00	0	42	0	1327497216	13	4199
2026-01-10 08:59:46.39	18.06	25.91	-26.7	-28.4	16.0	0.00e+00	0	42	0	1330642944	13	4374
2026-01-10 08:59:47.39	17.81	25.81	-26.5	-28.0	16.2	0.00e+00	0	42	0	1333788672	13	4264
2026-01-10 08:59:48.38	17.56	25.72	-26.6	-28.2	16.1	0.00e+00	0	42	0	1336934400	13	4299
2026-01-10 08:59:49.39	17.32	25.63	-26.7	-28.3	16.0	0.00e+00	0	42	0	1340080128	13	4341
2026-01-10 08:59:50.39	17.07	25.54	-26.7	-28.4	15.9	0.00e+00	0	42	0	1343225856	13	4375
2026-01-10 08:59:51.39	16.83	25.44	-26.8	-28.6	15.8	0.00e+00	0	42	0	1346371584	13	4436
2026-01-10 08:59:52.39	16.59	25.35	-26.8	-28.6	15.8	0.00e+00	0	42	0	1349517312	13	4435
2026-01-10 08:59:53.39	16.35	25.26	-26.8	-28.6	15.9	0.00e+00	0	42	0	1352663040	13	4425
2026-01-10 08:59:54.39	16.11	25.16	-26.7	-28.5	15.8	0.00e+00	0	42	0	1355808768	13	4419
2026-01-10 08:59:55.39	15.87	25.07	-26.7	-28.6	15.7	0.00e+00	0	42	0	1358954496	13	4461
2026-01-10 08:59:56.39	15.64	24.98	-26.8	-28.7	15.7	0.00e+00	0	42	0	1362100224	13	4487
2026-01-10 08:59:57.39	15.40	24.88	-26.9	-28.9	15.6	0.00e+00	0	42	0	1365245952	13	4544
2026-01-10 08:59:58.40	15.17	24.79	-26.7	-28.5	15.8	0.00e+00	0	42	0	1368391680	13	4401
2026-01-10 08:59:59.40	14.94	24.69	-26.7	-28.5	15.9	0.00e+00	0	42	0	1371537408	13	4389
2026-01-10 09:00:00.40	14.71	24.60	-26.8	-28.5	15.8	0.00e+00	0	42	0	1374683136	13	4402
2026-01-10 09:00:01.40	14.48	24.50	-26.7	-28.4	15.9	0.00e+00	0	42	0	1377828864	13	4381
2026-01-10 09:00:02.40	14.25	24.41	-26.7	-28.5	15.9	0.00e+00	0	42	0	1380974592	13	4395
2026-01-10 09:00:03.40	14.03	24.31	-26.8	-28.6	15.8	0.00e+00	0	42	0	1384120320	13	4417
2026-01-10 09:00:04.40	13.80	24.22	-26.7	-28.3	15.9	0.00e+00	0	42	0	1387266048	13	4352
2026-01-10 09:00:05.40	13.58	24.12	-26.8	-28.5	15.8	0.00e+00	0	42	0	1390411776	13	4409
2026-01-10 09:00:06.40	13.36	24.03	-27.0	-28.5	15.6	0.00e+00	0	42	0	1393557504	14	4302
2026-01-10 09:00:07.40	13.14	23.93	-26.8	-28.0	15.8	0.00e+00	0	42	0	1396703232	14	4166
2026-01-10 09:00:08.40	12.92	23.84	-27.0	-28.6	15.5	0.00e+00	0	42	0	1399848960	14	4309
2026-01-10 09:00:09.39	12.70	23.74	-27.1	-28.8	15.4	0.00e+00	0	42	0	1401946112	14	4379
2026-01-10 09:00:10.39	12.49	23.64	-26.8	-28.2	15.7	0.00e+00	0	42	0	1405091840	14	4203
2026-01-10 09:00:11.39	12.27	23.55	-26.7	-27.9	15.9	0.00e+00	0	42	0	1408237568	14	4128
2026-01-10 09:00:12.39	12.06	23.45	-26.7	-27.9	15.9	0.00e+00	0	42	0	1411383296	14	4134
2026-01-10 09:00:13.39	11.85	23.36	-26.7	-27.9	15.9	0.00e+00	0	42	0	1414529024	14	4119
2026-01-10 09:00:14.39	11.64	23.26	-26.5	-27.4	16.1	0.00e+00	0	42	0	1417674752	14	4001
2026-01-10 09:00:15.39	11.43	23.16	-27.0	-28.5	15.7	0.00e+00	0	42	0	1420820480	14	4277
2026-01-10 09:00:16.38	11.22	23.07	-26.9	-28.3	15.8	0.00e+00	0	42	0	1423966208	14	4232
2026-01-10 09:00:17.38	11.01	22.97	-27.1	-28.7	15.6	0.00e+00	0	42	0	1427111936	14	4323
2026-01-10 09:00:18.39	10.81	22.88	-26.9	-28.2	16.0	0.00e+00	0	42	0	1430257664	14	4195
2026-01-10 09:00:19.39	10.60	22.78	-27.0	-28.5	15.8	0.00e+00	0	42	0	1433403392	14	4272
2026-01-10 09:00:20.39	10.40	22.68	-27.2	-29.0	15.6	0.00e+00	0	42	0	1436549120	14	4410
2026-01-10 09:00:21.39	10.20	22.59	-26.9	-28.3	15.9	0.00e+00	0	42	0	1439694848	14	4218
2026-01-10 09:00:22.39	10.00	22.49	-26.9	-28.4	15.9	0.00e+00	0	42	0	1442840576	14	4245
2026-01-10 09:00:23.39	9.80	22.39	-26.9	-28.3	16.0	0.00e+00	0	42	0	1445986304	14	4216
2026-01-10 09:00:24.40	9.60	22.30	-26.9	-28.2	15.9	0.00e+00	0	42	0	1449132032	14	4202
2026-01-10 09:00:25.40	9.40	22.20	-26.9	-28.2	15.8	0.00e+00	0	42	0	1452277760	14	4207
2026-01-10 09:00:26.40	9.21	22.10	-27.1	-28.8	15.5	0.00e+00	0	42	0	1455423488	14	4366
2026-01-10 09:00:27.40	9.01	22.01	-26.8	-28.1	16.1	0.00e+00	0	42	0	1458569216	14	4178
2026-01-10 09:00:28.40	8.82	21.91	-26.9	-28.2	16.0	0.00e+00	0	42	0	1461714944	14	4199
2026-01-10 09:00:29.41	8.63	21.81	-27.0	-28.4	15.9	0.00e+00	0	42	0	1464860672	14	4244
2026-01-10 09:00:30.41	8.44	21.72	-27.0	-28.6	15.8	0.00e+00	0	42	0	1468006400	14	4286
2026-01-10 09:00:31.41	8.25	21.62	-27.0	-28.5	15.8	0.00e+00	0	42	0	1471152128	14	4277
2026-01-10 09:00:32.42	8.06	21.52	-27.4	-29.4	15.3	0.00e+00	0	42	0	1474297856	14	4546
2026-01-10 09:00:33.43	7.87	21.42	-27.2	-28.4	15.5	0.00e+00	0	42	0	1477443584	15	4138
2026-01-10 09:00:34.42	7.68	21.33	-27.3	-28.7	15.3	0.00e+00	0	42	0	1480589312	15	4234
2026-01-10 09:00:35.43	7.50	21.23	-27.4	-28.9	15.2	0.00e+00	0	42	0	1483735040	15	4290
2026-01-10 09:00:36.43	7.31	21.14	-27.4	-28.8	15.2	0.00e+00	0	42	0	1486880768	15	4272
2026-01-10 09:00:37.44	7.13	21.04	-27.4	-28.9	15.2	0.00e+00	0	42	0	1490026496	15	4276
2026-01-10 09:00:38.43	6.95	20.94	-27.2	-28.6	15.4	0.00e+00	0	42	0	1493172224	15	4205
2026-01-10 09:00:39.43	6.77	20.85	-27.3	-28.7	15.3	0.00e+00	0	42	0	1496317952	15	4240
2026-01-10 09:00:40.43	6.59	20.75	-27.2	-28.6	15.3	0.00e+00	0	42	0	1499463680	15	4208
2026-01-10 09:00:41.43	6.41	20.65	-27.4	-28.9	15.2	0.00e+00	0	42	0	1502609408	15	4284
2026-01-10 09:00:42.43	6.24	20.56	-27.2	-28.5	15.3	0.00e+00	0	42	0	1505755136	15	4196
2026-01-10 09:00:43.44	6.06	20.46	-27.2	-28.5	15.3	0.00e+00	0	42	0	1508900864	15	4192
2026-01-10 09:00:44.44	5.89	20.37	-26.9	-27.9	15.6	7.00e-07	0	42	0	1512046592	15	4035
2026-01-10 09:00:45.44	5.71	20.27	-26.8	-27.7	15.8	0.00e+00	0	42	0	1515192320	15	3962
2026-01-10 09:00:46.45	5.54	20.17	-26.7	-27.9	15.9	0.00e+00	0	42	0	1518338048	14	4130
2026-01-10 09:00:47.46	5.37	20.08	-26.7	-27.8	16.0	0.00e+00	0	42	0	1521483776	14	4104
2026-01-10 09:00:48.46	5.20	19.98	-26.5	-27.5	16.1	0.00e+00	0	42	0	1524629504	14	4013
2026-01-10 09:00:49.46	5.03	19.89	-26.5	-27.5	16.1	0.00e+00	0	42	0	1527775232	14	4025
2026-01-10 09:00:50.46	4.86	19.79	-26.6	-27.6	16.1	0.00e+00	0	42	0	1530920960	14	4057
2026-01-10 09:00:51.46	4.69	19.70	-26.6	-27.7	16.0	0.00e+00	0	42	0	1534066688	14	4075
2026-01-10 09:00:52.46	4.53	19.60	-26.7	-27.8	16.0	0.00e+00	0	42	0	1537212416	14	4087
2026-01-10 09:00:53.46	4.36	19.51	-26.7	-27.9	15.9	0.00e+00	0	42	0	1540358144	14	4139
2026-01-10 09:00:54.46	4.20	19.41	-27.1	-28.7	15.5	0.00e+00	0	42	0	1543503872	14	4344
2026-01-10 09:00:55.46	4.04	19.32	-26.9	-28.3	15.9	0.00e+00	0	42	0	1546649600	14	4224
2026-01-10 09:00:56.47	3.87	19.22	-26.8	-28.0	15.9	0.00e+00	0	42	0	1549795328	14	4152
2026-01-10 09:00:57.47	3.71	19.13	-26.6	-27.6	16.2	0.00e+00	0	42	0	1552941056	14	4038
2026-01-10 09:00:58.47	3.55	19.03	-26.5	-27.4	16.3	0.00e+00	0	42	0	1556086784	14	3993
2026-01-10 09:00:59.48	3.39	18.94	-26.6	-27.5	16.2	0.00e+00	0	42	0	1559232512	14	4025
2026-01-10 09:01:00.47	3.24	18.85	-26.6	-27.6	16.1	0.00e+00	0	42	0	1562378240	14	4045
2026-01-10 09:01:01.48	3.08	18.75	-26.6	-27.7	16.0	0.00e+00	0	42	0	1565523968	14	4083
2026-01-10 09:01:02.48	2.92	18.66	-26.9	-28.3	15.9	0.00e+00	0	42	0	1568669696	14	4223
2026-01-10 09:01:03.49	2.77	18.56	-26.9	-28.4	15.7	0.00e+00	0	42	0	1571815424	14	4257
2026-01-10 09:01:04.49	2.61	18.47	-27.1	-28.8	15.5	0.00e+00	0	42	0	1574961152	14	4356
2026-01-10 09:01:05.49	2.46	18.38	-27.0	-28.6	15.5	0.00e+00	0	42	0	1578106880	14	4324
2026-01-10 09:01:06.49	2.31	18.28	-27.1	-28.8	15.5	0.00e+00	0	42	0	1581252608	14	4364
2026-01-10 09:01:07.49	2.16	18.19	-27.2	-29.0	15.3	0.00e+00	0	42	0	1584398336	14	4415
2026-01-10 09:01:08.49	2.01	18.10	-27.0	-28.5	15.5	0.00e+00	0	42	0	1587544064	14	4288
2026-01-10 09:01:09.49	1.86	18.01	-27.3	-29.1	15.3	0.00e+00	0	42	0	1590689792	14	4449
2026-01-10 09:01:10.49	1.71	17.91	-27.2	-29.0	15.4	0.00e+00	0	42	0	1593835520	14	4430
2026-01-10 09:01:11.50	1.56	17.82	-27.1	-28.8	15.5	0.00e+00	0	42	0	1596981248	14	4358
2026-01-10 09:01:12.50	1.42	17.73	-27.1	-28.8	15.4	0.00e+00	0	42	0	1600126976	14	4371
2026-01-10 09:01:13.51	1.27	17.63	-27.1	-28.8	15.5	0.00e+00	0	42	0	1603272704	14	4369
2026-01-10 09:01:14.50	1.13	17.54	-27.0	-28.6	15.6	0.00e+00	0	42	0	1605369856	14	4305
2026-01-10 09:01:15.51	0.98	17.45	-27.5	-29.1	15.1	0.00e+00	0	42	0	1608515584	15	4337
2026-01-10 09:01:16.51	0.84	17.36	-27.4	-29.0	15.1	0.00e+00	0	42	0	1611661312	15	4321
2026-01-10 09:01:17.51	0.70	17.27	-27.2	-28.6	15.3	0.00e+00	0	42	0	1614807040	15	4196
2026-01-10 09:01:18.51	0.56	17.18	-27.4	-28.9	15.2	0.00e+00	0	42	0	1617952768	15	4269
2026-01-10 09:01:19.51	0.42	17.08	-27.6	-29.4	14.9	0.00e+00	0	42	0	1621098496	15	4418
2026-01-10 09:01:20.51	0.28	16.99	-27.6	-29.4	14.9	7.00e-07	0	42	0	1624244224	15	4424
2026-01-10 09:01:21.51	0.14	16.90	-27.2	-28.5	15.3	0.00e+00	0	42	0	1627389952	15	4172
2026-01-10 09:01:22.50	0.01	16.81	-27.2	-28.5	15.4	7.00e-07	0	42	0	1630535680	15	4181
2026-01-10 09:01:23.51	359.87	16.72	-27.2	-28.4	15.4	0.00e+00	0	42	0	1633681408	15	4150
2026-01-10 09:01:24.51	359.73	16.63	-27.4	-29.0	15.2	0.00e+00	0	42	0	1636827136	15	4302
2026-01-10 09:01:25.51	359.60	16.54	-27.2	-28.6	15.3	0.00e+00	0	42	0	1639972864	15	4197
2026-01-10 09:01:26.51	359.46	16.45	-27.1	-28.2	15.5	0.00e+00	0	42	0	1643118592	15	4116
2026-01-10 09:01:27.51	359.33	16.36	-27.3	-28.8	15.1	0.00e+00	0	42	0	1646264320	15	4272
2026-01-10 09:01:28.50	359.20	16.27	-27.1	-28.3	15.3	0.00e+00	0	42	0	1649410048	15	4135
2026-01-10 09:01:29.51	359.07	16.18	-27.0	-28.1	15.5	0.00e+00	0	42	0	1652555776	15	4079
2026-01-10 09:01:30.51	358.94	16.09	-27.0	-28.0	15.6	0.00e+00	0	42	0	1655701504	15	4048
2026-01-10 09:01:31.51	358.81	16.00	-26.9	-27.8	15.6	0.00e+00	0	42	0	1658847232	15	3991
2026-01-10 09:01:32.52	358.68	15.91	-26.8	-27.6	15.7	0.00e+00	0	42	0	1661992960	15	3944
2026-01-10 09:01:33.53	358.55	15.82	-27.1	-28.3	15.4	0.00e+00	0	42	0	1665138688	15	4117
2026-01-10 09:01:34.52	358.42	15.74	-27.1	-28.2	15.4	0.00e+00	0	42	0	1668284416	15	4110
2026-01-10 09:01:35.52	358.29	15.65	-27.2	-28.5	15.2	0.00e+00	0	42	0	1671430144	15	4177
2026-01-10 09:01:36.52	358.17	15.56	-27.3	-28.8	15.0	0.00e+00	0	42	0	1674575872	15	4260
2026-01-10 09:01:37.53	358.04	15.47	-27.5	-29.2	14.7	0.00e+00	0	42	0	1677721600	15	4396
2026-01-10 09:01:38.53	357.92	15.38	-27.5	-29.2	14.8	0.00e+00	0	42	0	1680867328	15	4385
2026-01-10 09:01:39.53	357.79	15.30	-27.5	-29.3	14.8	0.00e+00	0	42	0	1684013056	15	4417
2026-01-10 09:01:40.54	357.67	15.21	-27.5	-29.3	14.7	0.00e+00	0	42	0	1687158784	15	4424
2026-01-10 09:01:41.54	357.55	15.12	-27.6	-29.5	14.6	0.00e+00	0	42	0	1690304512	15	4481
2026-01-10 09:01:42.54	357.43	15.03	-27.6	-29.6	14.5	0.00e+00	0	42	0	1693450240	15	4490
2026-01-10 09:01:43.54	357.30	14.95	-27.5	-29.3	14.7	7.00e-07	0	42	0	1696595968	15	4407
2026-01-10 09:01:44.55	357.18	14.86	-27.5	-29.2	14.7	0.00e+00	0	42	0	1699741696	15	4388
2026-01-10 09:01:45.55	357.06	14.77	-27.6	-29.4	14.7	0.00e+00	0	42	0	1702887424	15	4434
2026-01-10 09:01:46.55	356.95	14.68	-27.6	-29.4	14.6	7.00e-07	0	42	0	1706033152	15	4433
2026-01-10 09:01:47.55	356.83	14.60	-27.6	-29.4	14.6	0.00e+00	0	42	0	1709178880	15	4455
2026-01-10 09:01:48.56	356.71	14.51	-27.6	-29.5	14.6	0.00e+00	0	42	0	1712324608	15	4460
2026-01-10 09:01:49.56	356.59	14.43	-27.5	-29.3	14.7	0.00e+00	0	42	0	1715470336	15	4404
2026-01-10 09:01:50.57	356.48	14.34	-27.6	-29.6	14.5	0.00e+00	0	42	0	1718616064	15	4500
2026-01-10 09:01:51.57	356.36	14.25	-27.6	-29.5	14.5	2.20e-06	0	42	0	1721761792	15	4483
2026-01-10 09:01:52.57	356.25	14.17	-27.7	-29.7	14.5	0.00e+00	0	42	0	1724907520	15	4523
2026-01-10 09:01:53.57	356.13	14.08	-28.1	-30.2	14.1	7.00e-07	0	42	0	1728053248	16	4547
2026-01-10 09:01:54.57	356.02	14.00	-28.0	-30.0	14.2	3.00e-06	0	42	0	1731198976	16	4488
2026-01-10 09:01:55.58	355.91	13.91	-28.0	-29.8	14.3	0.00e+00	0	42	0	1734344704	16	4437
2026-01-10 09:01:56.58	355.79	13.83	-27.9	-29.6	14.4	0.00e+00	0	42	0	1737490432	16	4393
2026-01-10 09:01:57.59	355.68	13.74	-28.1	-30.0	14.1	0.00e+00	0	42	0	1740636160	16	4506
2026-01-10 09:01:58.59	355.57	13.66	-28.1	-30.1	14.0	1.50e-06	0	42	0	1743781888	16	4540
2026-01-10 09:01:59.59	355.46	13.57	-28.0	-30.0	14.1	1.50e-06	0	42	0	1746927616	16	4515
2026-01-10 09:02:00.59	355.35	13.49	-28.1	-30.0	14.0	2.20e-06	0	42	0	1750073344	16	4521
2026-01-10 09:02:01.60	355.24	13.41	-28.1	-30.2	14.0	1.50e-06	0	42	0	1753219072	16	4567
2026-01-10 09:02:02.59	355.14	13.32	-28.1	-30.2	13.9	5.30e-06	0	42	0	1756364800	16	4574
2026-01-10 09:02:03.60	355.03	13.24	-28.1	-30.2	13.9	1.50e-06	0	42	0	1759510528	16	4575
2026-01-10 09:02:04.60	354.92	13.16	-28.2	-30.5	13.7	4.50e-06	0	42	0	1762656256	16	4665
2026-01-10 09:02:05.59	354.82	13.07	-28.1	-30.2	13.8	3.80e-06	0	42	0	1765801984	16	4586
2026-01-10 09:02:06.60	354.71	12.99	-28.2	-30.5	13.8	7.60e-06	0	42	0	1768947712	16	4648
2026-01-10 09:02:07.60	354.60	12.91	-28.2	-30.3	13.8	5.30e-06	0	42	0	1772093440	16	4589
2026-01-10 09:02:08.60	354.50	12.82	-28.0	-29.8	14.1	2.20e-06	0	42	0	1775239168	16	4462
2026-01-10 09:02:09.60	354.40	12.74	-28.0	-29.9	14.1	7.00e-07	0	42	0	1778384896	16	4470
2026-01-10 09:02:10.61	354.29	12.66	-28.0	-29.8	14.1	2.20e-06	0	42	0	1781530624	16	4454
2026-01-10 09:02:11.62	354.19	12.58	-27.9	-29.7	14.1	2.20e-06	0	42	0	1784676352	16	4411
2026-01-10 09:02:12.62	354.09	12.50	-28.0	-29.8	14.0	3.00e-06	0	42	0	1787822080	16	4460
2026-01-10 09:02:13.62	353.99	12.41	-27.9	-29.7	14.1	1.50e-06	0	42	0	1790967808	16	4432
2026-01-10 09:02:14.62	353.89	12.33	-27.9	-29.7	14.1	0.00e+00	0	42	0	1794113536	16	4426
2026-01-10 09:02:15.61	353.79	12.25	-27.9	-29.6	14.2	1.50e-06	0	42	0	1797259264	16	4397
2026-01-10 09:02:16.62	353.69	12.17	-28.0	-29.8	14.0	2.20e-06	0	42	0	1800404992	16	4460
2026-01-10 09:02:17.62	353.59	12.09	-28.0	-29.8	14.0	7.00e-07	0	42	0	1803550720	16	4468
2026-01-10 09:02:18.62	353.49	12.01	-28.0	-29.9	14.0	3.80e-06	0	42	0	1806696448	16	4491
2026-01-10 09:02:19.62	353.39	11.93	-28.1	-30.3	13.9	4.50e-06	0	42	0	1809842176	16	4588
2026-01-10 09:02:20.63	353.29	11.85	-28.2	-30.5	13.7	4.50e-06	0	42	0	1812987904	16	4657
2026-01-10 09:02:21.63	353.20	11.77	-28.3	-30.6	13.6	8.30e-06	0	42	0	1816133632	16	4702
2026-01-10 09:02:22.63	353.10	11.69	-28.3	-30.7	13.6	1.06e-05	0	42	0	1819279360	16	4736
2026-01-10 09:02:23.64	353.00	11.61	-28.4	-31.0	13.4	1.37e-05	0	42	0	1822425088	16	4819
2026-01-10 09:02:24.63	352.91	11.53	-28.4	-30.4	13.4	1.52e-05	0	42	0	1825570816	17	4537
2026-01-10 09:02:25.64	352.81	11.45	-28.5	-30.7	13.2	1.52e-05	0	42	0	1828716544	17	4629
2026-01-10 09:02:26.65	352.72	11.37	-28.7	-31.0	13.1	1.75e-05	0	42	0	1831862272	17	4729
2026-01-10 09:02:27.65	352.63	11.29	-28.6	-30.8	13.3	1.60e-05	0	42	0	1833959424	17	4634
2026-01-10 09:02:28.65	352.53	11.21	-28.6	-30.9	13.2	1.52e-05	0	42	0	1837105152	17	4682
2026-01-10 09:02:29.65	352.44	11.13	-28.6	-30.8	13.2	1.67e-05	0	42	0	1840250880	17	4653
2026-01-10 09:02:30.66	352.35	11.05	-28.6	-30.9	13.2	2.44e-05	0	42	0	1843396608	17	4678
2026-01-10 09:02:31.66	352.26	10.97	-28.4	-30.3	13.5	1.83e-05	0	42	0	1846542336	17	4490
2026-01-10 09:02:32.65	352.17	10.90	-28.5	-30.7	13.2	2.05e-05	0	42	0	1849688064	17	4630
2026-01-10 09:02:33.65	352.08	10.82	-28.5	-30.7	13.2	1.83e-05	0	42	0	1852833792	17	4605
2026-01-10 09:02:34.66	351.98	10.74	-28.3	-30.2	13.4	8.30e-06	0	42	0	1855979520	17	4480
2026-01-10 09:02:35.66	351.90	10.66	-28.3	-30.2	13.4	7.60e-06	0	42	0	1859125248	17	4488
2026-01-10 09:02:36.66	351.81	10.59	-28.4	-30.5	13.2	1.90e-05	0	42	0	1862270976	17	4568
2026-01-10 09:02:37.66	351.72	10.51	-28.7	-31.2	12.8	2.36e-05	0	42	0	1865416704	17	4785
2026-01-10 09:02:38.67	351.63	10.43	-28.6	-30.9	13.0	9.53e-05	0	42	0	1868562432	17	4695
2026-01-10 09:02:39.67	351.54	10.35	-28.8	-31.3	13.0	3.28e-05	0	42	0	1871708160	17	4801
2026-01-10 09:02:40.67	351.45	10.28	-28.8	-30.8	12.9	3.96e-05	0	42	0	1874853888	18	4542
2026-01-10 09:02:41.67	351.37	10.20	-29.0	-31.3	12.8	5.11e-05	0	42	0	1877999616	18	4684
2026-01-10 09:02:42.67	351.28	10.12	-28.8	-30.8	12.9	4.65e-05	0	42	0	1881145344	18	4540
2026-01-10 09:02:43.67	351.20	10.05	-29.0	-31.2	12.7	5.34e-05	0	42	0	1884291072	18	4661
2026-01-10 09:02:44.68	351.11	9.97	-28.9	-31.0	12.9	5.26e-05	0	42	0	1887436800	18	4600
2026-01-10 09:02:45.69	351.03	9.89	-28.9	-31.0	12.9	5.03e-05	0	42	0	1890582528	18	4603
2026-01-10 09:02:46.69	350.94	9.82	-29.2	-31.8	12.3	1.63e-04	0	42	0	1893728256	18	4852
2026-01-10 09:02:47.69	350.86	9.74	-29.0	-31.4	12.5	2.03e-04	0	42	0	1896873984	18	4738
2026-01-10 09:02:48.69	350.77	9.67	-29.0	-31.3	12.6	1.69e-04	0	42	0	1900019712	18	4700
2026-01-10 09:02:49.69	350.69	9.59	-28.6	-30.4	13.1	4.88e-05	0	42	0	1903165440	18	4422
2026-01-10 09:02:50.70	350.61	9.52	-28.6	-30.3	13.2	2.97e-05	0	42	0	1906311168	18	4387
2026-01-10 09:02:51.70	350.53	9.44	-28.4	-29.9	13.4	1.29e-05	0	42	0	1909456896	18	4283
2026-01-10 09:02:52.71	350.44	9.37	-28.5	-30.3	13.1	2.82e-05	0	42	0	1912602624	18	4393
2026-01-10 09:02:53.71	350.36	9.29	-28.5	-30.1	13.1	3.66e-05	0	42	0	1915748352	18	4352
2026-01-10 09:02:54.71	350.28	9.22	-28.7	-30.5	13.0	3.96e-05	0	42	0	1918894080	18	4469
2026-01-10 09:02:55.71	350.20	9.14	-28.7	-30.6	13.0	3.73e-05	0	42	0	1922039808	18	4489
2026-01-10 09:02:56.71	350.12	9.07	-28.8	-31.0	12.8	4.65e-05	0	42	0	1925185536	18	4592
2026-01-10 09:02:57.72	350.04	8.99	-28.8	-30.9	12.8	5.56e-05	0	42	0	1928331264	18	4562
2026-01-10 09:02:58.73	349.96	8.92	-28.8	-30.9	12.7	6.17e-05	0	42	0	1931476992	18	4590
2026-01-10 09:02:59.73	349.88	8.85	-28.7	-30.7	12.8	4.42e-05	0	42	0	1934622720	18	4521
2026-01-10 09:03:00.70	349.81	8.78	-28.6	-30.5	13.0	3.35e-05	0	42	0	1937768448	18	4443
2026-01-10 09:03:01.71	349.73	8.70	-28.8	-31.0	12.7	7.78e-05	0	42	0	1940914176	18	4614
2026-01-10 09:03:02.71	349.65	8.63	-28.8	-30.8	12.8	6.94e-05	0	42	0	1944059904	18	4541
2026-01-10 09:03:03.72	349.57	8.56	-29.0	-31.3	12.5	7.78e-05	0	42	0	1947205632	18	4719
2026-01-10 09:03:04.72	349.50	8.48	-28.9	-31.1	12.6	1.17e-04	0	42	0	1950351360	18	4641
2026-01-10 09:03:05.72	349.42	8.41	-28.5	-30.3	13.1	4.04e-05	0	42	0	1953497088	18	4395
2026-01-10 09:03:06.72	349.35	8.34	-28.4	-30.1	13.1	3.43e-05	0	42	0	1956642816	18	4329
2026-01-10 09:03:07.73	349.27	8.26	-28.7	-30.7	12.8	5.72e-05	0	42	0	1959788544	18	4528
2026-01-10 09:03:08.73	349.20	8.19	-28.7	-30.7	12.7	6.71e-05	0	42	0	1962934272	18	4541
2026-01-10 09:03:09.73	349.12	8.12	-28.7	-30.7	12.8	6.25e-05	0	42	0	1966080000	18	4510
2026-01-10 09:03:10.73	349.05	8.05	-28.6	-30.4	12.9	2.89e-05	0	42	0	1969225728	18	4425
2026-01-10 09:03:11.73	348.97	7.98	-28.7	-30.7	12.7	7.40e-05	0	42	0	1972371456	18	4540
2026-01-10 09:03:12.73	348.90	7.91	-28.8	-30.8	12.6	7.85e-05	0	42	0	1975517184	18	4577
2026-01-10 09:03:13.73	348.83	7.83	-28.8	-31.1	12.4	1.23e-04	0	42	0	1978662912	18	4644
2026-01-10 09:03:14.72	348.75	7.76	-29.0	-31.4	12.3	1.72e-04	0	42	0	1981808640	18	4749
2026-01-10 09:03:15.72	348.68	7.69	-28.8	-31.0	12.4	1.46e-04	0	42	0	1984954368	18	4623
2026-01-10 09:03:16.73	348.61	7.62	-28.8	-31.0	12.3	9.38e-05	0	42	0	1988100096	18	4635
2026-01-10 09:03:17.73	348.54	7.55	-28.8	-30.9	12.4	1.51e-04	0	42	0	1991245824	18	4602
2026-01-10 09:03:18.73	348.47	7.48	-28.8	-31.0	12.3	1.80e-04	0	42	0	1994391552	18	4642
2026-01-10 09:03:19.73	348.40	7.41	-28.9	-31.3	12.1	2.50e-04	0	42	0	1997537280	18	4740
2026-01-10 09:03:20.73	348.33	7.34	-28.7	-30.8	12.4	1.78e-04	0	42	0	2000683008	18	4576
2026-01-10 09:03:21.74	348.26	7.27	-28.7	-30.7	12.4	1.05e-04	0	42	0	2003828736	18	4564
2026-01-10 09:03:22.74	348.19	7.20	-28.9	-31.2	12.3	2.55e-04	0	42	0	2006974464	18	4704
2026-01-10 09:03:23.73	348.12	7.13	-29.0	-31.5	12.1	2.65e-04	0	42	0	2010120192	18	4787
2026-01-10 09:03:24.74	348.05	7.06	-32.7	-43.2	3.8	9.52e-01	0	42	104	2012217344	25	11985
2026-01-10 09:03:25.75	347.98	6.99	-33.1	-44.7	3.8	1.49e+00	0	42	104	2012217344	26	13611
2026-01-10 09:03:26.75	347.91	6.92	-33.4	-45.7	3.8	1.49e+00	0	42	104	2012217344	26	14810
2026-01-10 09:03:27.75	347.84	6.85	-33.6	-45.6	3.8	1.49e+00	0	42	104	2012217344	27	14263

#Closed at: 2026-01-10 09:03:28
#Recorded file [2012 MB]: D:/data/31010_260110_115240.dat