passes_logs/2026/01/10/R2M6_AANII_01/R2M6_AANII_01__20260110_020839_FENGYUN_3D_rec.log

#Pass ID: 20260110_020839_FENGYUN 3D
#Satellite: FENGYUN 3D
#Configuration: FENGYUN 3D
#almurnet v.1.7.20240730
#Start time: 2026-01-10 02:08:40

#Version: 2.2.20231116
#Station: R2M6_AANII_01
#Location: 30.233357 lon 59.946436 lat
#TLE: 1 43010U 17072A   26009.29492227  .00000158  00000+0  96483-4 0  9996
#TLE: 2 43010  98.9936 341.0229 0002153 117.3665 242.7729 14.19694440422446

#Time	Az	El	Level	Level2	SNR	BER	BlckErr	Temp	State	Recorded	gain1	gain2
2026-01-10 02:08:40.37	20.11	7.04	-28.3	-30.5	5.6	7.77e-01	0	39	0	0	17	4647
2026-01-10 02:08:41.36	20.13	7.12	-28.3	-30.7	5.6	7.81e-01	0	39	104	0	17	4700
2026-01-10 02:08:42.36	20.15	7.19	-28.1	-30.1	11.9	4.68e-04	0	40	0	0	17	4504
2026-01-10 02:08:43.36	20.17	7.27	-28.1	-29.9	12.0	6.86e-04	0	39	0	5242880	17	4452
2026-01-10 02:08:44.36	20.19	7.35	-27.9	-29.5	12.3	5.29e-04	0	40	0	10485760	17	4332
2026-01-10 02:08:45.36	20.21	7.42	-28.0	-29.7	12.2	2.66e-04	0	40	0	16777216	17	4381
2026-01-10 02:08:46.35	20.22	7.50	-27.7	-29.5	12.6	3.48e-04	0	39	0	22020096	16	4442
2026-01-10 02:08:47.35	20.24	7.58	-27.2	-28.8	13.2	1.18e-04	0	39	0	27262976	15	4345
2026-01-10 02:08:48.36	20.26	7.66	-27.0	-28.4	13.5	4.23e-05	0	40	0	33554432	15	4211
2026-01-10 02:08:49.36	20.28	7.74	-26.7	-28.2	13.9	4.50e-06	0	40	0	38797312	14	4268
2026-01-10 02:08:50.37	20.30	7.82	-26.5	-27.6	14.2	3.40e-06	0	40	0	45088768	14	4107
2026-01-10 02:08:51.36	20.32	7.89	-26.1	-27.4	14.6	1.10e-06	0	40	0	50331648	13	4151
2026-01-10 02:08:52.36	20.34	7.97	-26.0	-27.1	14.8	1.10e-06	0	40	0	55574528	13	4077
2026-01-10 02:08:53.36	20.36	8.05	-26.3	-27.7	14.4	4.50e-06	0	40	0	61865984	13	4238
2026-01-10 02:08:54.36	20.38	8.13	-26.5	-28.3	14.1	6.80e-06	0	40	0	67108864	13	4415
2026-01-10 02:08:55.36	20.40	8.21	-26.9	-29.1	13.6	3.40e-06	0	40	0	72351744	13	4656
2026-01-10 02:08:56.36	20.43	8.29	-26.1	-27.2	14.8	0.00e+00	0	40	0	78643200	13	4113
2026-01-10 02:08:57.37	20.45	8.37	-26.2	-27.4	14.6	1.10e-06	0	40	0	83886080	13	4172
2026-01-10 02:08:58.37	20.47	8.45	-27.4	-29.3	12.8	1.01e-04	0	40	0	90177536	15	4486
2026-01-10 02:08:59.38	20.49	8.53	-26.5	-27.7	14.3	2.20e-06	0	40	0	95420416	14	4125
2026-01-10 02:09:00.37	20.51	8.61	-26.3	-27.7	14.5	5.70e-06	0	40	0	100663296	13	4246
2026-01-10 02:09:01.38	20.53	8.70	-26.3	-27.7	14.6	0.00e+00	0	40	0	106954752	13	4228
2026-01-10 02:09:02.38	20.55	8.78	-26.2	-27.5	14.6	0.00e+00	0	40	0	112197632	13	4192
2026-01-10 02:09:03.38	20.57	8.86	-26.2	-27.6	14.7	0.00e+00	0	40	0	117440512	13	4207
2026-01-10 02:09:04.39	20.59	8.94	-26.1	-27.4	14.7	1.10e-06	0	40	0	123731968	13	4151
2026-01-10 02:09:05.39	20.61	9.03	-26.1	-27.2	14.8	2.20e-06	0	40	0	128974848	13	4101
2026-01-10 02:09:06.39	20.63	9.11	-26.0	-27.1	14.9	0.00e+00	0	40	0	135266304	13	4072
2026-01-10 02:09:07.40	20.66	9.19	-26.3	-28.1	14.5	0.00e+00	0	40	0	140509184	12	4470
2026-01-10 02:09:08.39	20.68	9.28	-26.4	-27.9	14.4	0.00e+00	0	40	0	145752064	13	4286
2026-01-10 02:09:09.40	20.70	9.36	-25.8	-27.1	15.2	0.00e+00	0	40	0	152043520	12	4174
2026-01-10 02:09:10.40	20.72	9.44	-26.0	-27.6	15.0	1.10e-06	0	40	0	157286400	12	4308
2026-01-10 02:09:11.41	20.74	9.53	-25.7	-27.0	15.3	0.00e+00	0	40	0	162529280	12	4155
2026-01-10 02:09:12.40	20.77	9.61	-25.7	-26.8	15.4	0.00e+00	0	40	0	168820736	12	4111
2026-01-10 02:09:13.41	20.79	9.70	-25.6	-26.6	15.5	0.00e+00	0	40	0	174063616	12	4041
2026-01-10 02:09:14.41	20.81	9.78	-25.7	-26.8	15.4	0.00e+00	0	40	0	179306496	12	4115
2026-01-10 02:09:15.42	20.83	9.87	-25.7	-27.0	15.3	0.00e+00	0	40	0	185597952	12	4157
2026-01-10 02:09:16.43	20.85	9.96	-25.8	-27.2	15.2	2.20e-06	0	40	0	190840832	12	4200
2026-01-10 02:09:17.43	20.88	10.04	-25.8	-27.1	15.2	0.00e+00	0	40	0	197132288	12	4178
2026-01-10 02:09:18.43	20.90	10.13	-26.4	-28.4	14.5	0.00e+00	0	40	0	202375168	12	4537
2026-01-10 02:09:19.43	20.92	10.21	-26.3	-28.2	14.6	1.10e-06	0	40	0	208666624	12	4483
2026-01-10 02:09:20.44	20.95	10.30	-25.8	-27.0	15.3	0.00e+00	0	41	0	213909504	12	4159
2026-01-10 02:09:21.44	20.97	10.39	-25.7	-26.8	15.4	0.00e+00	0	40	0	219152384	12	4114
2026-01-10 02:09:22.45	20.99	10.48	-25.9	-27.4	15.1	0.00e+00	0	40	0	225443840	12	4256
2026-01-10 02:09:23.46	21.01	10.57	-26.0	-27.7	15.0	0.00e+00	0	40	0	230686720	12	4330
2026-01-10 02:09:24.46	21.04	10.65	-26.0	-27.5	15.0	0.00e+00	0	41	0	235929600	12	4289
2026-01-10 02:09:25.47	21.06	10.74	-25.7	-26.9	15.3	0.00e+00	0	41	0	242221056	12	4136
2026-01-10 02:09:26.48	21.08	10.83	-25.6	-26.7	15.5	0.00e+00	0	40	0	247463936	12	4072
2026-01-10 02:09:27.48	21.11	10.92	-25.6	-26.7	15.5	0.00e+00	0	41	0	253755392	12	4071
2026-01-10 02:09:28.48	21.13	11.01	-25.7	-26.9	15.4	1.10e-06	0	41	0	258998272	12	4117
2026-01-10 02:09:29.47	21.16	11.10	-25.7	-26.9	15.4	0.00e+00	0	41	0	264241152	12	4114
2026-01-10 02:09:30.48	21.18	11.19	-25.6	-26.7	15.5	0.00e+00	0	41	0	270532608	12	4084
2026-01-10 02:09:31.47	21.20	11.28	-25.6	-26.6	15.6	0.00e+00	0	41	0	275775488	12	4054
2026-01-10 02:09:32.47	21.23	11.37	-25.7	-26.9	15.4	0.00e+00	0	41	0	282066944	12	4116
2026-01-10 02:09:33.47	21.25	11.46	-25.6	-26.7	15.5	0.00e+00	0	41	0	287309824	12	4075
2026-01-10 02:09:34.48	21.28	11.55	-25.6	-26.7	15.5	0.00e+00	0	41	0	292552704	12	4083
2026-01-10 02:09:35.47	21.30	11.64	-25.6	-26.6	15.6	0.00e+00	0	41	0	298844160	12	4044
2026-01-10 02:09:36.47	21.33	11.74	-25.6	-26.7	15.6	0.00e+00	0	40	0	304087040	12	4064
2026-01-10 02:09:37.47	21.35	11.83	-25.6	-26.6	15.6	0.00e+00	0	41	0	309329920	12	4044
2026-01-10 02:09:38.46	21.38	11.92	-25.5	-26.4	15.7	0.00e+00	0	41	0	314572800	12	3994
2026-01-10 02:09:39.47	21.40	12.01	-25.5	-26.4	15.8	0.00e+00	0	41	0	320864256	12	3987
2026-01-10 02:09:40.47	21.43	12.11	-25.4	-26.1	16.0	0.00e+00	0	41	0	326107136	12	3913
2026-01-10 02:09:41.47	21.45	12.20	-25.4	-26.2	16.0	0.00e+00	0	41	0	332398592	12	3936
2026-01-10 02:09:42.47	21.48	12.30	-25.4	-26.2	15.9	0.00e+00	0	41	0	337641472	12	3954
2026-01-10 02:09:43.47	21.50	12.39	-25.4	-26.2	15.9	0.00e+00	0	41	0	343932928	12	3950
2026-01-10 02:09:44.47	21.53	12.48	-25.5	-26.4	15.7	0.00e+00	0	41	0	349175808	12	4002
2026-01-10 02:09:45.48	21.55	12.58	-25.5	-26.4	15.8	0.00e+00	0	41	0	354418688	12	3994
2026-01-10 02:09:46.49	21.58	12.68	-25.6	-26.7	15.6	0.00e+00	0	41	0	360710144	12	4062
2026-01-10 02:09:47.49	21.61	12.77	-25.5	-26.5	15.7	0.00e+00	0	41	0	365953024	12	4016
2026-01-10 02:09:48.48	21.63	12.87	-25.5	-26.4	15.8	0.00e+00	0	41	0	371195904	12	4004
2026-01-10 02:09:49.48	21.66	12.97	-25.4	-26.3	15.9	0.00e+00	0	41	0	377487360	12	3964
2026-01-10 02:09:50.48	21.68	13.06	-25.4	-26.3	15.9	0.00e+00	0	41	0	382730240	12	3960
2026-01-10 02:09:51.49	21.71	13.16	-25.4	-26.3	15.9	0.00e+00	0	41	0	387973120	12	3960
2026-01-10 02:09:52.50	21.74	13.26	-25.4	-26.2	15.9	0.00e+00	0	41	0	394264576	12	3945
2026-01-10 02:09:53.49	21.77	13.36	-25.5	-26.3	15.8	0.00e+00	0	41	0	399507456	12	3979
2026-01-10 02:09:54.50	21.79	13.46	-25.6	-26.6	15.7	0.00e+00	0	41	0	405798912	12	4036
2026-01-10 02:09:55.50	21.82	13.56	-25.4	-26.2	15.9	0.00e+00	0	41	0	411041792	12	3937
2026-01-10 02:09:56.50	21.85	13.65	-25.3	-26.0	16.1	0.00e+00	0	41	0	416284672	12	3883
2026-01-10 02:09:57.50	21.88	13.75	-25.4	-26.2	15.9	0.00e+00	0	41	0	422576128	12	3946
2026-01-10 02:09:58.50	21.90	13.85	-25.3	-26.1	16.0	0.00e+00	0	41	0	427819008	12	3905
2026-01-10 02:09:59.51	21.93	13.96	-25.3	-26.4	16.2	0.00e+00	0	41	0	433061888	11	4095
2026-01-10 02:10:00.50	21.96	14.06	-25.2	-26.2	16.3	0.00e+00	0	41	0	439353344	11	4049
2026-01-10 02:10:01.50	21.99	14.16	-25.3	-26.4	16.2	0.00e+00	0	41	0	444596224	11	4083
2026-01-10 02:10:02.50	22.02	14.26	-25.3	-26.3	16.2	0.00e+00	0	41	0	449839104	11	4075
2026-01-10 02:10:03.50	22.04	14.36	-25.5	-26.8	16.0	0.00e+00	0	41	0	456130560	11	4205
2026-01-10 02:10:04.50	22.07	14.47	-25.3	-26.4	16.2	0.00e+00	0	41	0	461373440	11	4098
2026-01-10 02:10:05.50	22.10	14.57	-25.0	-25.9	16.5	0.00e+00	0	41	0	467664896	11	3955
2026-01-10 02:10:06.50	22.13	14.67	-25.2	-26.1	16.3	0.00e+00	0	41	0	472907776	11	4021
2026-01-10 02:10:07.51	22.16	14.78	-25.0	-25.8	16.5	0.00e+00	0	41	0	478150656	11	3934
2026-01-10 02:10:08.51	22.19	14.88	-25.1	-25.9	16.5	0.00e+00	0	41	0	484442112	11	3961
2026-01-10 02:10:09.51	22.22	14.99	-25.5	-26.8	16.0	0.00e+00	0	41	0	489684992	11	4191
2026-01-10 02:10:10.51	22.25	15.09	-25.2	-26.1	16.4	0.00e+00	0	41	0	494927872	11	4026
2026-01-10 02:10:11.51	22.28	15.20	-24.8	-25.8	16.9	0.00e+00	0	41	0	501219328	10	4033
2026-01-10 02:10:12.51	22.31	15.30	-24.8	-25.8	16.8	0.00e+00	0	41	0	506462208	10	4056
2026-01-10 02:10:13.52	22.34	15.41	-24.9	-26.0	16.7	0.00e+00	0	41	0	512753664	10	4108
2026-01-10 02:10:14.52	22.37	15.52	-24.9	-26.0	16.7	0.00e+00	0	41	0	517996544	10	4100
2026-01-10 02:10:15.52	22.40	15.63	-24.7	-25.7	16.9	0.00e+00	0	41	0	523239424	10	4031
2026-01-10 02:10:16.53	22.43	15.74	-24.7	-25.6	16.9	0.00e+00	0	41	0	529530880	10	3989
2026-01-10 02:10:17.53	22.46	15.85	-24.7	-25.7	16.9	0.00e+00	0	41	0	534773760	10	4012
2026-01-10 02:10:18.53	22.50	15.95	-24.5	-25.3	17.1	0.00e+00	0	41	0	541065216	10	3913
2026-01-10 02:10:19.53	22.53	16.06	-24.6	-25.3	17.1	0.00e+00	0	41	0	546308096	10	3931
2026-01-10 02:10:20.53	22.56	16.17	-24.4	-25.0	17.3	0.00e+00	0	41	0	551550976	10	3852
2026-01-10 02:10:21.53	22.59	16.29	-24.4	-24.9	17.3	0.00e+00	0	41	0	557842432	10	3822
2026-01-10 02:10:22.54	22.62	16.40	-24.5	-25.1	17.2	0.00e+00	0	41	0	563085312	10	3888
2026-01-10 02:10:23.54	22.66	16.51	-24.4	-25.5	17.2	0.00e+00	0	41	0	568328192	9	4084
2026-01-10 02:10:24.54	22.69	16.62	-24.7	-26.1	17.0	0.00e+00	0	41	0	574619648	9	4224
2026-01-10 02:10:25.54	22.72	16.73	-24.4	-25.6	17.2	0.00e+00	0	41	0	579862528	9	4094
2026-01-10 02:10:26.55	22.75	16.85	-24.5	-25.8	17.1	0.00e+00	0	41	0	585105408	9	4157
2026-01-10 02:10:27.55	22.79	16.96	-24.3	-25.3	17.4	0.00e+00	0	41	0	591396864	9	4042
2026-01-10 02:10:28.56	22.82	17.08	-24.1	-24.8	17.7	0.00e+00	0	41	0	596639744	9	3911
2026-01-10 02:10:29.56	22.85	17.19	-24.1	-24.9	17.6	0.00e+00	0	41	0	602931200	9	3936
2026-01-10 02:10:30.56	22.89	17.31	-24.2	-25.1	17.5	0.00e+00	0	41	0	608174080	9	3971
2026-01-10 02:10:31.56	22.92	17.42	-24.1	-24.9	17.6	0.00e+00	0	41	0	613416960	9	3929
2026-01-10 02:10:32.56	22.96	17.54	-24.2	-25.0	17.6	0.00e+00	0	41	0	619708416	9	3947
2026-01-10 02:10:33.57	22.99	17.66	-24.0	-24.6	17.8	0.00e+00	0	41	0	624951296	9	3859
2026-01-10 02:10:34.57	23.03	17.78	-23.8	-24.7	18.0	0.00e+00	0	41	0	631242752	8	3982
2026-01-10 02:10:35.57	23.06	17.89	-23.7	-24.4	18.1	0.00e+00	0	41	0	636485632	8	3918
2026-01-10 02:10:36.57	23.10	18.01	-23.7	-24.6	18.1	0.00e+00	0	41	0	641728512	8	3960
2026-01-10 02:10:37.58	23.13	18.13	-24.0	-25.1	17.8	0.00e+00	0	41	0	648019968	8	4077
2026-01-10 02:10:38.58	23.17	18.25	-24.1	-25.3	17.7	0.00e+00	0	41	0	653262848	8	4148
2026-01-10 02:10:39.59	23.21	18.37	-24.3	-25.7	17.5	0.00e+00	0	41	0	658505728	8	4257
2026-01-10 02:10:40.59	23.24	18.50	-24.4	-25.4	17.3	0.00e+00	0	41	0	664797184	9	4069
2026-01-10 02:10:41.59	23.28	18.62	-24.3	-25.3	17.4	0.00e+00	0	41	0	670040064	9	4026
2026-01-10 02:10:42.59	23.31	18.74	-24.3	-25.2	17.5	0.00e+00	0	41	0	676331520	9	4001
2026-01-10 02:10:43.59	23.35	18.86	-24.6	-26.0	17.1	0.00e+00	0	41	0	681574400	9	4210
2026-01-10 02:10:44.59	23.39	18.99	-24.2	-25.1	17.5	0.00e+00	0	41	0	686817280	9	3988
2026-01-10 02:10:45.60	23.43	19.11	-24.1	-24.9	17.6	0.00e+00	0	41	0	693108736	9	3928
2026-01-10 02:10:46.60	23.47	19.23	-24.0	-24.6	17.8	0.00e+00	0	41	0	698351616	9	3866
2026-01-10 02:10:47.61	23.50	19.36	-24.2	-25.0	17.6	0.00e+00	0	41	0	703594496	9	3958
2026-01-10 02:10:48.61	23.54	19.49	-24.3	-25.2	17.5	0.00e+00	0	41	0	709885952	9	4014
2026-01-10 02:10:49.61	23.58	19.61	-23.9	-24.5	17.9	0.00e+00	0	41	0	715128832	9	3831
2026-01-10 02:10:50.61	23.62	19.74	-23.8	-24.6	18.1	0.00e+00	0	41	0	721420288	8	3973
2026-01-10 02:10:51.61	23.66	19.87	-23.7	-24.4	18.2	0.00e+00	0	41	0	726663168	8	3923
2026-01-10 02:10:52.61	23.70	20.00	-23.6	-24.2	18.3	0.00e+00	0	41	0	731906048	8	3875
2026-01-10 02:10:53.61	23.74	20.13	-23.7	-24.5	18.2	0.00e+00	0	41	0	738197504	8	3927
2026-01-10 02:10:54.62	23.78	20.26	-23.8	-24.7	18.1	0.00e+00	0	41	0	743440384	8	3977
2026-01-10 02:10:55.62	23.82	20.39	-23.8	-24.6	18.1	0.00e+00	0	41	0	749731840	8	3975
2026-01-10 02:10:56.62	23.86	20.52	-23.7	-24.4	18.2	0.00e+00	0	41	0	754974720	8	3913
2026-01-10 02:10:57.62	23.90	20.65	-23.6	-24.2	18.3	0.00e+00	0	41	0	760217600	8	3871
2026-01-10 02:10:58.62	23.94	20.78	-23.7	-24.4	18.2	0.00e+00	0	41	0	766509056	8	3916
2026-01-10 02:10:59.62	23.98	20.92	-23.6	-24.3	18.2	0.00e+00	0	41	0	771751936	8	3901
2026-01-10 02:11:00.62	24.03	21.05	-23.6	-24.3	18.3	0.00e+00	0	41	0	776994816	8	3895
2026-01-10 02:11:01.63	24.07	21.19	-23.6	-24.3	18.3	0.00e+00	0	41	0	783286272	8	3905
2026-01-10 02:11:02.63	24.11	21.32	-23.5	-24.1	18.4	0.00e+00	0	41	0	788529152	8	3849
2026-01-10 02:11:03.63	24.16	21.46	-23.6	-24.3	18.3	0.00e+00	0	41	0	794820608	8	3904
2026-01-10 02:11:04.63	24.20	21.59	-23.6	-24.3	18.3	0.00e+00	0	41	0	800063488	8	3895
2026-01-10 02:11:05.63	24.24	21.73	-23.4	-23.8	18.6	0.00e+00	0	41	0	805306368	8	3780
2026-01-10 02:11:06.63	24.29	21.87	-23.5	-24.0	18.5	0.00e+00	0	41	0	811597824	8	3830
2026-01-10 02:11:07.63	24.33	22.01	-23.4	-23.9	18.6	0.00e+00	0	41	0	816840704	8	3799
2026-01-10 02:11:08.63	24.38	22.15	-23.2	-23.9	18.8	0.00e+00	0	41	0	822083584	7	3903
2026-01-10 02:11:09.63	24.42	22.29	-23.1	-23.7	18.9	0.00e+00	0	41	0	828375040	7	3858
2026-01-10 02:11:10.64	24.47	22.43	-23.3	-24.0	18.7	0.00e+00	0	41	0	833617920	7	3937
2026-01-10 02:11:11.63	24.51	22.57	-23.1	-23.7	18.9	0.00e+00	0	41	0	838860800	7	3848
2026-01-10 02:11:12.62	24.56	22.71	-23.2	-23.9	18.8	0.00e+00	0	41	0	845152256	7	3907
2026-01-10 02:11:13.62	24.61	22.86	-23.3	-24.1	18.7	0.00e+00	0	41	0	850395136	7	3953
2026-01-10 02:11:14.62	24.65	23.00	-23.1	-23.7	18.9	0.00e+00	0	41	0	856686592	7	3862
2026-01-10 02:11:15.63	24.70	23.15	-23.3	-24.2	18.7	0.00e+00	0	42	0	861929472	7	3976
2026-01-10 02:11:16.63	24.75	23.29	-22.8	-23.0	19.2	0.00e+00	0	41	0	867172352	7	3703
2026-01-10 02:11:17.63	24.80	23.44	-22.8	-23.2	19.2	0.00e+00	0	41	0	873463808	7	3733
2026-01-10 02:11:18.62	24.85	23.59	-22.9	-23.7	19.1	0.00e+00	0	42	0	878706688	6	3975
2026-01-10 02:11:19.63	24.90	23.74	-22.6	-23.1	19.4	0.00e+00	0	41	0	883949568	6	3833
2026-01-10 02:11:20.63	24.95	23.89	-22.8	-23.5	19.3	0.00e+00	0	41	0	890241024	6	3908
2026-01-10 02:11:21.64	25.00	24.04	-23.1	-23.6	19.0	0.00e+00	0	41	0	895483904	7	3841
2026-01-10 02:11:22.64	25.05	24.19	-23.0	-24.0	19.0	0.00e+00	0	41	0	900726784	6	4045
2026-01-10 02:11:23.64	25.10	24.34	-22.7	-23.4	19.3	0.00e+00	0	41	0	907018240	6	3901
2026-01-10 02:11:24.64	25.15	24.49	-22.8	-23.5	19.3	0.00e+00	0	42	0	912261120	6	3916
2026-01-10 02:11:25.64	25.20	24.65	-22.8	-23.5	19.3	0.00e+00	0	42	0	918552576	6	3916
2026-01-10 02:11:26.65	25.25	24.80	-23.0	-23.9	19.1	0.00e+00	0	41	0	923795456	6	4016
2026-01-10 02:11:27.65	25.31	24.96	-22.7	-23.4	19.4	0.00e+00	0	41	0	929038336	6	3889
2026-01-10 02:11:28.65	25.36	25.11	-22.7	-23.4	19.4	0.00e+00	0	42	0	935329792	6	3903
2026-01-10 02:11:29.65	25.41	25.27	-23.0	-23.9	19.0	0.00e+00	0	42	0	940572672	6	4016
2026-01-10 02:11:30.66	25.47	25.43	-22.7	-23.0	18.8	0.00e+00	0	41	0	945815552	7	3713
2026-01-10 02:11:31.67	25.52	25.59	-22.7	-23.3	19.5	0.00e+00	0	41	0	952107008	6	3858
2026-01-10 02:11:32.66	25.58	25.75	-22.6	-23.1	19.5	0.00e+00	0	42	0	957349888	6	3830
2026-01-10 02:11:33.67	25.63	25.91	-22.6	-23.1	19.5	0.00e+00	0	41	0	963641344	6	3816
2026-01-10 02:11:34.67	25.69	26.08	-22.9	-23.7	19.2	0.00e+00	0	41	0	968884224	6	3969
2026-01-10 02:11:35.68	25.75	26.24	-22.7	-23.4	19.4	0.00e+00	0	41	0	974127104	6	3889
2026-01-10 02:11:36.68	25.81	26.40	-22.7	-23.3	19.4	0.00e+00	0	41	0	980418560	6	3869
2026-01-10 02:11:37.68	25.86	26.57	-22.7	-23.4	19.4	0.00e+00	0	41	0	985661440	6	3900
2026-01-10 02:11:38.68	25.92	26.73	-22.7	-23.3	19.4	0.00e+00	0	41	0	991952896	6	3872
2026-01-10 02:11:39.69	25.98	26.90	-22.8	-23.4	19.3	0.00e+00	0	42	0	997195776	6	3898
2026-01-10 02:11:40.69	26.04	27.07	-22.8	-23.6	19.3	0.00e+00	0	41	0	1002438656	6	3930
2026-01-10 02:11:41.70	26.10	27.24	-23.0	-24.0	19.0	0.00e+00	0	42	0	1008730112	6	4042
2026-01-10 02:11:42.70	26.16	27.41	-23.0	-24.1	19.1	0.00e+00	0	42	0	1013972992	6	4057
2026-01-10 02:11:43.70	26.23	27.58	-22.9	-23.9	19.1	0.00e+00	0	42	0	1019215872	6	4003
2026-01-10 02:11:44.70	26.29	27.75	-22.8	-23.6	19.3	0.00e+00	0	41	0	1025507328	6	3947
2026-01-10 02:11:45.70	26.35	27.93	-22.8	-23.6	19.2	0.00e+00	0	42	0	1030750208	6	3946
2026-01-10 02:11:46.71	26.41	28.10	-23.1	-24.1	19.0	0.00e+00	0	42	0	1035993088	6	4061
2026-01-10 02:11:47.71	26.48	28.28	-23.0	-24.0	19.1	0.00e+00	0	42	0	1042284544	6	4026
2026-01-10 02:11:48.71	26.54	28.45	-22.7	-23.3	19.4	0.00e+00	0	41	0	1047527424	6	3873
2026-01-10 02:11:49.71	26.61	28.63	-22.5	-22.8	19.7	0.00e+00	0	42	0	1053818880	6	3759
2026-01-10 02:11:50.72	26.68	28.81	-22.4	-22.7	19.7	0.00e+00	0	42	0	1059061760	6	3736
2026-01-10 02:11:51.72	26.74	28.99	-22.4	-22.8	19.7	0.00e+00	0	42	0	1065353216	6	3744
2026-01-10 02:11:52.73	26.81	29.17	-22.4	-22.8	19.7	0.00e+00	0	41	0	1070596096	6	3743
2026-01-10 02:11:53.72	26.88	29.35	-22.5	-23.0	19.6	0.00e+00	0	42	0	1075838976	6	3793
2026-01-10 02:11:54.72	26.95	29.54	-22.5	-23.0	19.6	0.00e+00	0	42	0	1082130432	6	3794
2026-01-10 02:11:55.73	27.02	29.72	-22.6	-23.2	19.5	0.00e+00	0	41	0	1087373312	6	3832
2026-01-10 02:11:56.73	27.09	29.91	-22.6	-23.2	19.5	0.00e+00	0	41	0	1092616192	6	3836
2026-01-10 02:11:57.73	27.16	30.09	-22.6	-23.1	19.6	0.00e+00	0	42	0	1098907648	6	3824
2026-01-10 02:11:58.73	27.23	30.28	-22.6	-23.1	19.6	0.00e+00	0	42	0	1104150528	6	3812
2026-01-10 02:11:59.73	27.30	30.47	-22.7	-23.4	19.4	0.00e+00	0	42	0	1109393408	6	3896
2026-01-10 02:12:00.74	27.38	30.66	-23.1	-24.1	19.1	0.00e+00	0	42	0	1115684864	6	4057
2026-01-10 02:12:01.74	27.45	30.85	-23.0	-23.9	19.2	0.00e+00	0	42	0	1120927744	6	4002
2026-01-10 02:12:02.74	27.53	31.05	-23.0	-24.1	19.1	0.00e+00	0	41	0	1127219200	6	4052
2026-01-10 02:12:03.74	27.61	31.24	-23.0	-23.9	19.2	0.00e+00	0	41	0	1132462080	6	4005
2026-01-10 02:12:04.75	27.68	31.44	-22.9	-23.7	19.3	0.00e+00	0	42	0	1137704960	6	3967
2026-01-10 02:12:05.75	27.76	31.63	-22.9	-23.8	19.3	0.00e+00	0	41	0	1143996416	6	3992
2026-01-10 02:12:06.76	27.84	31.83	-23.2	-24.4	18.9	0.00e+00	0	42	0	1149239296	6	4140
2026-01-10 02:12:07.76	27.92	32.03	-23.0	-23.9	19.2	0.00e+00	0	42	0	1154482176	6	4018
2026-01-10 02:12:08.76	28.00	32.23	-22.7	-23.4	19.5	0.00e+00	0	42	0	1160773632	6	3894
2026-01-10 02:12:09.77	28.08	32.44	-22.6	-23.2	19.6	0.00e+00	0	41	0	1166016512	6	3842
2026-01-10 02:12:10.77	28.17	32.64	-22.7	-23.4	19.5	0.00e+00	0	42	0	1172307968	6	3881
2026-01-10 02:12:11.77	28.25	32.84	-22.6	-23.1	19.6	0.00e+00	0	42	0	1177550848	6	3831
2026-01-10 02:12:12.77	28.33	33.05	-22.5	-23.0	19.7	0.00e+00	0	42	0	1182793728	6	3791
2026-01-10 02:12:13.77	28.42	33.25	-22.7	-23.5	19.5	0.00e+00	0	42	0	1189085184	6	3905
2026-01-10 02:12:14.77	28.51	33.46	-22.7	-23.2	19.5	0.00e+00	0	42	0	1194328064	6	3857
2026-01-10 02:12:15.77	28.59	33.67	-22.5	-22.9	19.7	0.00e+00	0	42	0	1200619520	6	3777
2026-01-10 02:12:16.77	28.68	33.88	-22.4	-22.8	19.8	0.00e+00	0	42	0	1205862400	6	3752
2026-01-10 02:12:17.78	28.77	34.10	-22.5	-22.9	19.7	0.00e+00	0	42	0	1211105280	6	3774
2026-01-10 02:12:18.78	28.87	34.31	-22.4	-22.8	19.8	0.00e+00	0	42	0	1217396736	6	3744
2026-01-10 02:12:19.78	28.96	34.53	-22.4	-22.8	19.8	0.00e+00	0	42	0	1222639616	6	3762
2026-01-10 02:12:20.78	29.05	34.74	-22.5	-22.9	19.7	0.00e+00	0	42	0	1227882496	6	3779
2026-01-10 02:12:21.78	29.15	34.96	-22.7	-23.3	19.6	0.00e+00	0	42	0	1234173952	6	3862
2026-01-10 02:12:22.78	29.24	35.18	-22.6	-23.2	19.6	0.00e+00	0	42	0	1239416832	6	3849
2026-01-10 02:12:23.79	29.34	35.40	-22.5	-23.0	19.7	0.00e+00	0	42	0	1244659712	6	3799
2026-01-10 02:12:24.80	29.44	35.63	-22.6	-23.0	19.7	0.00e+00	0	42	0	1250951168	6	3807
2026-01-10 02:12:25.79	29.54	35.85	-22.3	-22.5	20.0	0.00e+00	0	42	0	1256194048	6	3684
2026-01-10 02:12:26.80	29.64	36.08	-22.2	-22.8	20.1	0.00e+00	0	42	0	1262485504	5	3851
2026-01-10 02:12:27.79	29.74	36.30	-22.2	-22.8	20.0	0.00e+00	0	42	0	1267728384	5	3865
2026-01-10 02:12:28.79	29.85	36.53	-22.4	-23.1	19.9	0.00e+00	0	42	0	1272971264	5	3936
2026-01-10 02:12:29.78	29.95	36.76	-22.5	-23.3	19.8	0.00e+00	0	42	0	1279262720	5	3987
2026-01-10 02:12:30.79	30.06	36.99	-22.4	-23.3	19.8	0.00e+00	0	42	0	1284505600	5	3970
2026-01-10 02:12:31.79	30.17	37.22	-22.4	-23.2	19.8	0.00e+00	0	42	0	1289748480	5	3961
2026-01-10 02:12:32.80	30.28	37.46	-22.5	-23.4	19.7	0.00e+00	0	42	0	1296039936	5	3997
2026-01-10 02:12:33.80	30.39	37.70	-22.4	-23.3	19.9	0.00e+00	0	42	0	1301282816	5	3962
2026-01-10 02:12:34.80	30.50	37.93	-22.8	-24.0	19.5	0.00e+00	0	42	0	1306525696	5	4148
2026-01-10 02:12:35.80	30.61	38.17	-22.6	-23.6	19.7	0.00e+00	0	42	0	1312817152	5	4042
2026-01-10 02:12:36.79	30.73	38.41	-22.2	-22.8	20.1	0.00e+00	0	42	0	1318060032	5	3859
2026-01-10 02:12:37.79	30.85	38.65	-22.1	-22.6	20.2	0.00e+00	0	42	0	1324351488	5	3801
2026-01-10 02:12:38.79	30.97	38.90	-22.1	-22.6	20.2	0.00e+00	0	42	0	1329594368	5	3808
2026-01-10 02:12:39.78	31.09	39.14	-22.1	-22.6	20.2	0.00e+00	0	42	0	1334837248	5	3814
2026-01-10 02:12:40.79	31.21	39.39	-22.3	-23.0	20.0	0.00e+00	0	42	0	1341128704	5	3898
2026-01-10 02:12:41.79	31.33	39.64	-22.4	-23.3	19.8	0.00e+00	0	42	0	1346371584	5	3979
2026-01-10 02:12:42.79	31.46	39.89	-22.7	-23.9	19.5	0.00e+00	0	42	0	1351614464	5	4123
2026-01-10 02:12:43.80	31.59	40.14	-22.5	-23.5	19.8	0.00e+00	0	42	0	1357905920	5	4018
2026-01-10 02:12:44.80	31.72	40.40	-22.3	-23.1	20.0	0.00e+00	0	42	0	1363148800	5	3916
2026-01-10 02:12:45.80	31.85	40.65	-22.2	-22.7	20.2	0.00e+00	0	42	0	1368391680	5	3839
2026-01-10 02:12:46.80	31.99	40.91	-22.3	-23.1	20.0	0.00e+00	0	42	0	1374683136	5	3917
2026-01-10 02:12:47.80	32.12	41.17	-22.1	-22.5	20.2	0.00e+00	0	42	0	1379926016	5	3795
2026-01-10 02:12:48.80	32.26	41.43	-22.1	-22.5	20.2	0.00e+00	0	42	0	1386217472	5	3793
2026-01-10 02:12:49.79	32.40	41.69	-22.3	-23.0	20.0	0.00e+00	0	42	0	1391460352	5	3891
2026-01-10 02:12:50.78	32.54	41.95	-22.5	-23.5	19.8	0.00e+00	0	42	0	1396703232	5	4014
2026-01-10 02:12:51.79	32.69	42.22	-22.6	-23.7	19.7	0.00e+00	0	42	0	1402994688	5	4075
2026-01-10 02:12:52.79	32.84	42.49	-22.7	-23.7	19.7	0.00e+00	0	42	0	1408237568	5	4080
2026-01-10 02:12:53.79	32.99	42.76	-22.6	-23.6	19.7	0.00e+00	0	42	0	1413480448	5	4039
2026-01-10 02:12:54.79	33.14	43.03	-22.8	-24.0	19.5	0.00e+00	0	41	0	1419771904	5	4142
2026-01-10 02:12:55.79	33.30	43.30	-22.7	-23.8	19.6	0.00e+00	0	41	0	1425014784	5	4096
2026-01-10 02:12:56.79	33.46	43.58	-22.8	-24.0	19.5	0.00e+00	0	42	0	1431306240	5	4148
2026-01-10 02:12:57.79	33.62	43.85	-22.9	-23.7	19.5	0.00e+00	0	42	0	1436549120	6	3961
2026-01-10 02:12:58.80	33.78	44.13	-23.0	-23.9	19.4	0.00e+00	0	42	0	1441792000	6	4002
2026-01-10 02:12:59.80	33.95	44.41	-22.9	-23.7	19.5	0.00e+00	0	42	0	1448083456	6	3947
2026-01-10 02:13:00.80	34.12	44.69	-22.9	-23.7	19.5	0.00e+00	0	42	0	1453326336	6	3952
2026-01-10 02:13:01.81	34.29	44.98	-23.1	-24.1	19.3	0.00e+00	0	42	0	1458569216	6	4051
2026-01-10 02:13:02.81	34.46	45.26	-23.5	-24.6	18.8	0.00e+00	0	42	0	1464860672	7	4059
2026-01-10 02:13:03.81	34.64	45.55	-23.5	-24.4	18.9	0.00e+00	0	42	0	1470103552	7	4028
2026-01-10 02:13:04.81	34.82	45.84	-23.1	-23.6	19.3	0.00e+00	0	42	0	1475346432	7	3818
2026-01-10 02:13:05.82	35.01	46.13	-22.7	-23.3	19.7	0.00e+00	0	42	0	1481637888	6	3859
2026-01-10 02:13:06.82	35.20	46.42	-22.6	-23.2	19.7	0.00e+00	0	42	0	1486880768	6	3837
2026-01-10 02:13:07.82	35.39	46.72	-22.5	-23.0	19.9	0.00e+00	0	42	0	1493172224	6	3792
2026-01-10 02:13:08.82	35.59	47.01	-22.6	-23.1	19.8	0.00e+00	0	41	0	1498415104	6	3809
2026-01-10 02:13:09.82	35.78	47.31	-22.5	-23.0	19.9	0.00e+00	0	42	0	1504706560	6	3785
2026-01-10 02:13:10.83	35.99	47.61	-22.6	-23.1	19.9	0.00e+00	0	42	0	1509949440	6	3804
2026-01-10 02:13:11.83	36.19	47.91	-22.6	-23.1	19.8	0.00e+00	0	42	0	1515192320	6	3820
2026-01-10 02:13:12.83	36.40	48.22	-22.7	-23.4	19.7	0.00e+00	0	42	0	1521483776	6	3887
2026-01-10 02:13:13.82	36.62	48.52	-22.6	-23.1	19.9	0.00e+00	0	42	0	1526726656	6	3819
2026-01-10 02:13:14.82	36.84	48.82	-22.6	-23.2	19.8	0.00e+00	0	42	0	1531969536	6	3832
2026-01-10 02:13:15.83	37.06	49.14	-22.5	-22.8	20.0	0.00e+00	0	42	0	1538260992	6	3755
2026-01-10 02:13:16.84	37.29	49.45	-22.7	-23.2	19.8	0.00e+00	0	42	0	1543503872	6	3839
2026-01-10 02:13:17.83	37.52	49.76	-22.6	-23.1	19.9	0.00e+00	0	42	0	1548746752	6	3806
2026-01-10 02:13:18.84	37.76	50.07	-22.7	-23.2	19.8	0.00e+00	0	42	0	1555038208	6	3845
2026-01-10 02:13:19.84	38.00	50.39	-22.9	-23.7	19.5	0.00e+00	0	42	0	1560281088	6	3965
2026-01-10 02:13:20.84	38.25	50.70	-23.3	-24.5	19.2	0.00e+00	0	42	0	1566572544	6	4153
2026-01-10 02:13:21.84	38.50	51.02	-23.3	-24.6	19.1	0.00e+00	0	42	0	1571815424	6	4167
2026-01-10 02:13:22.84	38.76	51.34	-23.2	-24.4	19.2	0.00e+00	0	42	0	1577058304	6	4122
2026-01-10 02:13:23.84	39.02	51.66	-23.3	-24.5	19.2	0.00e+00	0	42	0	1583349760	6	4156
2026-01-10 02:13:24.84	39.29	51.98	-23.1	-24.1	19.4	0.00e+00	0	42	0	1588592640	6	4048
2026-01-10 02:13:25.85	39.56	52.31	-23.3	-24.5	19.2	0.00e+00	0	42	0	1593835520	6	4154
2026-01-10 02:13:26.85	39.84	52.64	-23.6	-24.7	18.9	0.00e+00	0	42	0	1600126976	7	4096
2026-01-10 02:13:27.85	40.13	52.96	-23.5	-24.5	19.0	0.00e+00	0	42	0	1605369856	7	4034
2026-01-10 02:13:28.85	40.42	53.29	-23.5	-24.4	19.0	0.00e+00	0	42	0	1610612736	7	4008
2026-01-10 02:13:29.85	40.72	53.62	-24.5	-25.7	17.9	0.00e+00	0	42	0	1616904192	9	4101
2026-01-10 02:13:30.85	41.03	53.95	-23.9	-24.2	18.6	0.00e+00	0	42	0	1622147072	9	3752
2026-01-10 02:13:31.86	41.35	54.29	-23.6	-24.2	18.9	0.00e+00	0	42	0	1628438528	8	3853
2026-01-10 02:13:32.86	41.67	54.62	-23.6	-24.3	18.8	0.00e+00	0	42	0	1633681408	8	3877
2026-01-10 02:13:33.87	42.00	54.96	-24.3	-25.6	18.2	0.00e+00	0	41	0	1639972864	8	4209
2026-01-10 02:13:34.87	42.33	55.30	-24.3	-25.6	18.2	0.00e+00	0	42	0	1645215744	8	4212
2026-01-10 02:13:35.87	42.68	55.64	-23.7	-24.3	18.8	0.00e+00	0	42	0	1650458624	8	3885
2026-01-10 02:13:36.88	43.03	55.98	-23.6	-24.1	19.0	0.00e+00	0	42	0	1656750080	8	3823
2026-01-10 02:13:37.87	43.39	56.31	-23.8	-24.6	18.7	0.00e+00	0	42	0	1661992960	8	3941
2026-01-10 02:13:38.88	43.76	56.66	-23.8	-24.7	18.7	0.00e+00	0	42	0	1667235840	8	3965
2026-01-10 02:13:39.89	44.15	57.00	-24.0	-25.0	18.5	0.00e+00	0	42	0	1673527296	8	4051
2026-01-10 02:13:40.88	44.53	57.34	-23.5	-24.0	19.0	0.00e+00	0	42	0	1678770176	8	3797
2026-01-10 02:13:41.88	44.93	57.69	-23.2	-23.9	19.3	0.00e+00	0	42	0	1684013056	7	3894
2026-01-10 02:13:42.88	45.34	58.03	-23.2	-23.9	19.3	0.00e+00	0	42	0	1690304512	7	3892
2026-01-10 02:13:43.88	45.76	58.38	-23.3	-24.0	19.3	0.00e+00	0	42	0	1695547392	7	3916
2026-01-10 02:13:44.88	46.19	58.72	-23.5	-24.5	19.0	0.00e+00	0	42	0	1701838848	7	4031
2026-01-10 02:13:45.88	46.63	59.07	-23.3	-24.1	19.2	0.00e+00	0	42	0	1707081728	7	3941
2026-01-10 02:13:46.88	47.08	59.41	-22.7	-23.3	19.8	0.00e+00	0	42	0	1712324608	6	3859
2026-01-10 02:13:47.88	47.55	59.76	-22.6	-23.2	19.9	0.00e+00	0	42	0	1718616064	6	3826
2026-01-10 02:13:48.89	48.03	60.11	-22.7	-23.4	19.9	0.00e+00	0	42	0	1723858944	6	3872
2026-01-10 02:13:49.90	48.52	60.46	-22.5	-22.9	20.1	0.00e+00	0	41	0	1729101824	6	3758
2026-01-10 02:13:50.90	49.03	60.81	-22.6	-23.0	20.0	0.00e+00	0	42	0	1735393280	6	3799
2026-01-10 02:13:51.90	49.55	61.16	-22.5	-22.9	20.1	0.00e+00	0	42	0	1740636160	6	3776
2026-01-10 02:13:52.89	50.07	61.50	-22.5	-22.9	20.1	0.00e+00	0	42	0	1745879040	6	3770
2026-01-10 02:13:53.89	50.62	61.84	-22.7	-23.4	19.9	0.00e+00	0	42	0	1752170496	6	3875
2026-01-10 02:13:54.90	51.19	62.19	-22.7	-23.2	20.0	0.00e+00	0	42	0	1757413376	6	3853
2026-01-10 02:13:55.90	51.77	62.54	-22.2	-22.8	20.4	0.00e+00	0	42	0	1763704832	5	3862
2026-01-10 02:13:56.90	52.37	62.88	-22.2	-22.8	20.4	0.00e+00	0	42	0	1768947712	5	3854
2026-01-10 02:13:57.90	52.98	63.23	-22.4	-23.1	20.3	0.00e+00	0	42	0	1774190592	5	3930
2026-01-10 02:13:58.90	53.61	63.57	-22.5	-23.5	20.1	0.00e+00	0	42	0	1780482048	5	4014
2026-01-10 02:13:59.89	54.25	63.91	-22.2	-22.8	20.4	0.00e+00	0	42	0	1785724928	5	3850
2026-01-10 02:14:00.90	54.93	64.25	-22.2	-22.7	20.5	0.00e+00	0	42	0	1790967808	5	3818
2026-01-10 02:14:01.90	55.62	64.59	-22.1	-22.6	20.5	0.00e+00	0	42	0	1797259264	5	3807
2026-01-10 02:14:02.90	56.33	64.93	-22.0	-22.3	20.7	0.00e+00	0	42	0	1802502144	5	3727
2026-01-10 02:14:03.91	57.07	65.26	-22.1	-22.6	20.5	0.00e+00	0	42	0	1807745024	5	3814
2026-01-10 02:14:04.91	57.82	65.60	-22.0	-22.3	20.7	0.00e+00	0	42	0	1814036480	5	3738
2026-01-10 02:14:05.92	58.60	65.93	-21.9	-22.1	20.8	0.00e+00	0	42	0	1819279360	5	3693
2026-01-10 02:14:06.93	59.41	66.26	-22.4	-23.2	20.3	0.00e+00	0	42	0	1825570816	5	3947
2026-01-10 02:14:07.93	60.24	66.58	-22.2	-22.7	20.5	0.00e+00	0	42	0	1830813696	5	3837
2026-01-10 02:14:08.93	61.08	66.90	-21.8	-22.3	20.9	0.00e+00	0	42	0	1837105152	4	3841
2026-01-10 02:14:09.93	61.96	67.22	-22.3	-23.5	20.3	0.00e+00	0	42	0	1842348032	4	4141
2026-01-10 02:14:10.93	62.86	67.53	-22.3	-23.0	20.3	0.00e+00	0	42	0	1847590912	5	3889
2026-01-10 02:14:11.94	63.80	67.85	-21.7	-22.3	20.9	3.40e-06	0	42	0	1853882368	4	3838
2026-01-10 02:14:12.93	64.75	68.15	-21.9	-22.8	20.7	0.00e+00	0	42	0	1859125248	4	3949
2026-01-10 02:14:13.93	65.74	68.45	-22.3	-23.4	20.4	0.00e+00	0	42	0	1864368128	4	4107
2026-01-10 02:14:14.94	66.77	68.75	-22.3	-23.5	20.3	0.00e+00	0	42	0	1870659584	4	4140
2026-01-10 02:14:15.94	67.81	69.04	-21.9	-22.5	20.8	0.00e+00	0	42	0	1875902464	4	3898
2026-01-10 02:14:16.94	68.89	69.32	-21.8	-22.5	20.8	0.00e+00	0	42	0	1881145344	4	3884
2026-01-10 02:14:17.95	70.02	69.60	-21.7	-22.3	20.9	0.00e+00	0	42	0	1887436800	4	3843
2026-01-10 02:14:18.95	71.16	69.87	-21.6	-22.1	21.0	0.00e+00	0	42	0	1892679680	4	3799
2026-01-10 02:14:19.95	72.34	70.14	-22.0	-22.9	20.7	0.00e+00	0	42	0	1898971136	4	3982
2026-01-10 02:14:20.95	73.55	70.39	-21.6	-22.1	21.1	0.00e+00	0	42	0	1904214016	4	3802
2026-01-10 02:14:21.96	74.81	70.65	-21.5	-21.8	21.3	0.00e+00	0	42	0	1909456896	4	3722
2026-01-10 02:14:22.96	76.09	70.89	-21.8	-22.4	20.9	0.00e+00	0	42	0	1915748352	4	3867
2026-01-10 02:14:23.97	77.41	71.12	-21.3	-21.4	21.4	1.10e-06	0	42	0	1920991232	4	3651
2026-01-10 02:14:24.97	78.76	71.35	-21.3	-21.8	21.5	0.00e+00	0	42	0	1927282688	3	3841
2026-01-10 02:14:25.97	80.14	71.56	-21.8	-22.9	21.0	0.00e+00	0	42	0	1932525568	3	4103
2026-01-10 02:14:26.97	81.56	71.76	-21.7	-22.8	21.1	0.00e+00	0	42	0	1937768448	3	4067
2026-01-10 02:14:27.97	83.00	71.96	-21.5	-22.4	21.2	0.00e+00	0	42	0	1944059904	3	3976
2026-01-10 02:14:28.98	84.50	72.14	-22.1	-23.0	20.6	0.00e+00	0	42	0	1949302784	4	4020
2026-01-10 02:14:29.98	86.01	72.31	-21.6	-22.0	21.2	0.00e+00	0	42	0	1954545664	4	3769
2026-01-10 02:14:30.98	87.55	72.48	-21.2	-21.7	21.6	0.00e+00	0	42	0	1960837120	3	3812
2026-01-10 02:14:31.98	89.12	72.62	-21.4	-22.1	21.4	0.00e+00	0	42	0	1966080000	3	3905
2026-01-10 02:14:32.98	90.72	72.76	-21.5	-22.3	21.3	0.00e+00	0	42	0	1972371456	3	3943
2026-01-10 02:14:33.98	92.34	72.88	-21.4	-22.0	21.4	0.00e+00	0	42	0	1977614336	3	3890
2026-01-10 02:14:34.98	93.99	72.99	-21.8	-22.8	21.1	0.00e+00	0	42	0	1982857216	3	4076
2026-01-10 02:14:35.98	95.66	73.09	-21.3	-21.9	21.2	0.00e+00	0	42	0	1989148672	3	3867
2026-01-10 02:14:36.98	97.35	73.17	-21.1	-21.6	21.4	0.00e+00	0	42	0	1994391552	3	3812
2026-01-10 02:14:37.98	99.05	73.24	-21.4	-22.1	21.1	0.00e+00	0	42	0	1999634432	3	3932
2026-01-10 02:14:38.99	100.78	73.30	-21.5	-22.4	21.0	0.00e+00	0	42	0	2005925888	3	3988
2026-01-10 02:14:39.99	102.51	73.34	-21.6	-22.7	20.9	0.00e+00	0	42	0	2011168768	3	4059
2026-01-10 02:14:40.99	104.24	73.36	-21.5	-22.4	21.0	0.00e+00	0	42	0	2016411648	3	3981
2026-01-10 02:14:41.99	105.98	73.38	-21.3	-22.0	21.2	0.00e+00	0	42	0	2022703104	3	3903
2026-01-10 02:14:42.99	107.72	73.37	-21.6	-22.6	21.0	0.00e+00	0	42	0	2027945984	3	4038
2026-01-10 02:14:43.99	109.46	73.36	-21.4	-22.1	21.2	0.00e+00	0	42	0	2034237440	3	3920
2026-01-10 02:14:45.00	111.21	73.32	-20.9	-21.1	21.6	0.00e+00	0	42	0	2039480320	3	3695
2026-01-10 02:14:46.00	112.93	73.28	-20.9	-21.2	21.6	0.00e+00	0	42	0	2044723200	3	3716
2026-01-10 02:14:47.01	114.66	73.22	-21.7	-22.8	20.9	0.00e+00	0	42	0	2051014656	3	4077
2026-01-10 02:14:48.01	116.36	73.14	-21.6	-22.0	20.9	0.00e+00	0	42	0	2056257536	4	3796
2026-01-10 02:14:49.01	118.04	73.05	-21.8	-22.6	20.7	0.00e+00	0	42	0	2061500416	4	3916
2026-01-10 02:14:50.02	119.71	72.95	-22.2	-23.5	20.2	0.00e+00	0	42	0	2067791872	4	4141
2026-01-10 02:14:51.02	121.35	72.83	-22.3	-23.2	20.2	0.00e+00	0	42	0	2073034752	5	3957
2026-01-10 02:14:52.03	122.98	72.70	-22.4	-23.2	20.1	0.00e+00	0	42	0	2079326208	5	3953
2026-01-10 02:14:53.02	124.55	72.56	-22.4	-23.3	20.1	0.00e+00	0	42	0	2084569088	5	3990
2026-01-10 02:14:54.02	126.11	72.41	-22.7	-23.8	19.9	0.00e+00	0	42	0	2089811968	5	4112
2026-01-10 02:14:55.02	127.64	72.24	-22.3	-23.0	20.3	0.00e+00	0	42	0	2096103424	5	3915
2026-01-10 02:14:56.02	129.14	72.07	-22.8	-23.5	19.9	0.00e+00	0	42	0	2101346304	6	3921
2026-01-10 02:14:57.02	130.61	71.88	-22.6	-23.1	20.0	0.00e+00	0	42	0	2107637760	6	3827
2026-01-10 02:14:58.02	132.05	71.68	-22.3	-22.6	20.3	0.00e+00	0	42	0	2112880640	6	3705
2026-01-10 02:14:59.02	133.45	71.47	-21.9	-22.2	20.7	0.00e+00	0	42	0	2118123520	5	3716
2026-01-10 02:15:00.02	134.82	71.25	-22.0	-22.8	20.6	0.00e+00	0	42	0	2124414976	4	3986
2026-01-10 02:15:01.01	136.14	71.03	-22.5	-23.9	20.1	0.00e+00	0	42	0	2129657856	4	4253
2026-01-10 02:15:02.02	137.45	70.79	-22.3	-23.5	20.3	0.00e+00	0	42	0	2134900736	4	4154
2026-01-10 02:15:03.01	138.71	70.55	-22.4	-23.8	20.1	0.00e+00	0	42	0	2141192192	4	4219
2026-01-10 02:15:04.01	139.94	70.30	-22.8	-24.1	19.8	0.00e+00	0	42	0	2146435072	5	4177
2026-01-10 02:15:05.01	141.14	70.03	-22.5	-23.5	20.0	0.00e+00	0	42	0	2151677952	5	4033
2026-01-10 02:15:06.01	142.31	69.77	-22.7	-23.8	19.9	0.00e+00	0	42	0	2157969408	5	4102
2026-01-10 02:15:07.01	143.44	69.49	-22.7	-23.8	19.9	0.00e+00	0	42	0	2163212288	5	4105
2026-01-10 02:15:08.01	144.54	69.21	-22.6	-23.7	19.9	0.00e+00	0	42	0	2168455168	5	4074
2026-01-10 02:15:09.02	145.62	68.92	-23.4	-24.7	19.2	0.00e+00	0	42	0	2174746624	6	4218
2026-01-10 02:15:10.02	146.66	68.63	-23.0	-24.0	19.6	0.00e+00	0	42	0	2179989504	6	4033
2026-01-10 02:15:11.02	147.66	68.33	-22.4	-22.9	20.1	0.00e+00	0	42	0	2186280960	6	3773
2026-01-10 02:15:12.03	148.65	68.03	-22.1	-22.6	20.4	0.00e+00	0	42	0	2191523840	5	3825
2026-01-10 02:15:13.03	149.60	67.72	-22.0	-22.4	20.6	0.00e+00	0	42	0	2196766720	5	3775
2026-01-10 02:15:14.03	150.52	67.41	-22.1	-22.7	20.4	0.00e+00	0	42	0	2203058176	5	3840
2026-01-10 02:15:15.04	151.42	67.09	-22.3	-23.0	20.2	0.00e+00	0	42	0	2208301056	5	3920
2026-01-10 02:15:16.04	152.29	66.77	-22.3	-23.1	20.2	0.00e+00	0	42	0	2214592512	5	3933
2026-01-10 02:15:17.04	153.13	66.45	-22.3	-23.1	20.2	0.00e+00	0	42	0	2219835392	5	3950
2026-01-10 02:15:18.04	153.94	66.12	-22.3	-23.0	20.3	0.00e+00	0	42	0	2225078272	5	3909
2026-01-10 02:15:19.04	154.74	65.79	-22.0	-22.3	20.6	0.00e+00	0	42	0	2231369728	5	3753
2026-01-10 02:15:20.04	155.50	65.46	-22.2	-22.9	20.3	0.00e+00	0	42	0	2236612608	5	3894
2026-01-10 02:15:21.04	156.25	65.13	-22.3	-23.0	20.2	0.00e+00	0	42	0	2241855488	5	3910
2026-01-10 02:15:22.04	156.97	64.79	-22.0	-22.4	20.5	0.00e+00	0	42	0	2248146944	5	3764
2026-01-10 02:15:23.04	157.68	64.45	-22.0	-22.3	20.6	0.00e+00	0	42	0	2253389824	5	3753
2026-01-10 02:15:24.04	158.36	64.11	-22.4	-23.2	20.2	0.00e+00	0	42	0	2258632704	5	3957
2026-01-10 02:15:25.03	159.01	63.78	-22.3	-23.1	20.2	0.00e+00	0	42	0	2264924160	5	3942
2026-01-10 02:15:26.03	159.66	63.43	-22.7	-23.9	19.8	0.00e+00	0	42	0	2270167040	5	4132
2026-01-10 02:15:27.03	160.28	63.09	-22.5	-23.6	20.0	0.00e+00	0	42	0	2276458496	5	4048
2026-01-10 02:15:28.04	160.90	62.74	-22.4	-23.3	20.1	0.00e+00	0	42	0	2281701376	5	3989
2026-01-10 02:15:29.04	161.49	62.39	-22.3	-23.0	20.2	0.00e+00	0	42	0	2286944256	5	3917
2026-01-10 02:15:30.04	162.06	62.05	-22.3	-23.1	20.2	0.00e+00	0	42	0	2293235712	5	3927
2026-01-10 02:15:31.05	162.63	61.70	-22.3	-23.1	20.2	0.00e+00	0	42	0	2298478592	5	3941
2026-01-10 02:15:32.05	163.17	61.35	-22.5	-23.4	20.0	0.00e+00	0	42	0	2303721472	5	4017
2026-01-10 02:15:33.06	163.70	61.00	-22.7	-23.8	19.8	0.00e+00	0	42	0	2310012928	5	4101
2026-01-10 02:15:34.06	164.21	60.65	-22.8	-24.0	19.7	0.00e+00	0	42	0	2315255808	5	4149
2026-01-10 02:15:35.06	164.71	60.30	-23.1	-24.2	19.5	0.00e+00	0	42	0	2320498688	6	4071
2026-01-10 02:15:36.06	165.20	59.95	-23.2	-24.3	19.4	0.00e+00	0	42	0	2326790144	6	4122
2026-01-10 02:15:37.07	165.68	59.60	-23.4	-24.8	19.1	0.00e+00	0	42	0	2332033024	6	4241
2026-01-10 02:15:38.08	166.14	59.25	-23.3	-24.1	19.3	0.00e+00	0	42	0	2338324480	7	3948
2026-01-10 02:15:39.08	166.59	58.90	-23.7	-24.8	18.9	0.00e+00	0	42	0	2343567360	7	4128
2026-01-10 02:15:40.07	167.02	58.56	-24.0	-25.1	18.5	0.00e+00	0	42	0	2349858816	8	4089
2026-01-10 02:15:41.08	167.45	58.21	-24.1	-25.3	18.5	0.00e+00	0	42	0	2355101696	8	4126
2026-01-10 02:15:42.07	167.87	57.87	-23.9	-24.9	18.7	0.00e+00	0	42	0	2360344576	8	4023
2026-01-10 02:15:43.07	168.27	57.52	-24.3	-25.8	18.2	0.00e+00	0	42	0	2366636032	8	4250
2026-01-10 02:15:44.07	168.67	57.18	-24.3	-25.8	18.2	0.00e+00	0	42	0	2371878912	8	4262
2026-01-10 02:15:45.08	169.05	56.83	-24.6	-25.9	17.9	0.00e+00	0	42	0	2377121792	9	4177
2026-01-10 02:15:46.08	169.43	56.49	-24.7	-26.0	17.8	0.00e+00	0	42	0	2383413248	9	4181
2026-01-10 02:15:47.09	169.80	56.14	-24.5	-25.7	17.9	3.40e-06	0	42	0	2388656128	9	4132
2026-01-10 02:15:48.09	170.16	55.80	-25.2	-26.6	17.2	0.00e+00	0	42	0	2393899008	10	4246
2026-01-10 02:15:49.09	170.51	55.46	-24.6	-25.3	17.9	0.00e+00	0	42	0	2400190464	10	3910
2026-01-10 02:15:50.10	170.85	55.12	-24.2	-25.1	18.3	3.40e-06	0	42	0	2405433344	9	3966
2026-01-10 02:15:51.10	171.18	54.79	-24.3	-25.3	18.1	0.00e+00	0	42	0	2411724800	9	4024
2026-01-10 02:15:52.10	171.51	54.45	-24.7	-26.0	17.8	0.00e+00	0	42	0	2416967680	9	4200
2026-01-10 02:15:53.11	171.83	54.11	-24.4	-25.5	18.0	0.00e+00	0	42	0	2422210560	9	4076
2026-01-10 02:15:54.11	172.14	53.78	-24.4	-25.3	18.1	0.00e+00	0	42	0	2428502016	9	4033
2026-01-10 02:15:55.11	172.44	53.45	-24.6	-25.8	17.9	0.00e+00	0	42	0	2433744896	9	4145
2026-01-10 02:15:56.11	172.74	53.12	-23.9	-24.4	18.6	3.40e-06	0	42	0	2438987776	9	3798
2026-01-10 02:15:57.12	173.04	52.78	-24.0	-24.6	18.5	0.00e+00	0	42	0	2445279232	9	3850
2026-01-10 02:15:58.12	173.32	52.46	-23.8	-24.2	18.7	0.00e+00	0	42	0	2450522112	9	3763
2026-01-10 02:15:59.12	173.60	52.13	-23.8	-24.2	18.7	0.00e+00	0	42	0	2456813568	9	3770
2026-01-10 02:16:00.13	173.87	51.80	-23.6	-24.2	18.9	0.00e+00	0	42	0	2462056448	8	3873
2026-01-10 02:16:01.13	174.14	51.48	-23.5	-24.1	18.9	0.00e+00	0	42	0	2467299328	8	3831
2026-01-10 02:16:02.14	174.40	51.15	-23.9	-24.8	18.6	0.00e+00	0	42	0	2473590784	8	4021
2026-01-10 02:16:03.14	174.66	50.83	-23.7	-24.5	18.7	0.00e+00	0	42	0	2478833664	8	3933
2026-01-10 02:16:04.14	174.91	50.52	-23.7	-24.5	18.7	0.00e+00	0	42	0	2485125120	8	3955
2026-01-10 02:16:05.15	175.15	50.20	-23.6	-24.2	18.9	0.00e+00	0	42	0	2490368000	8	3880
2026-01-10 02:16:06.15	175.39	49.88	-23.2	-24.0	19.2	0.00e+00	0	42	0	2495610880	7	3921
2026-01-10 02:16:07.16	175.63	49.56	-23.1	-23.7	19.3	0.00e+00	0	42	0	2501902336	7	3853
2026-01-10 02:16:08.15	175.86	49.26	-23.2	-23.9	19.3	0.00e+00	0	42	0	2507145216	7	3893
2026-01-10 02:16:09.16	176.08	48.94	-23.5	-24.5	19.0	0.00e+00	0	42	0	2512388096	7	4063
2026-01-10 02:16:10.16	176.31	48.63	-23.6	-24.8	18.8	0.00e+00	0	42	0	2518679552	7	4134
2026-01-10 02:16:11.16	176.52	48.33	-23.7	-25.0	18.7	1.10e-06	0	42	0	2523922432	7	4174
2026-01-10 02:16:12.17	176.74	48.02	-24.2	-25.6	18.2	0.00e+00	0	42	0	2529165312	8	4212
2026-01-10 02:16:13.16	176.94	47.72	-23.4	-23.8	19.0	0.00e+00	0	42	0	2535456768	8	3785
2026-01-10 02:16:14.17	177.15	47.42	-23.2	-24.0	19.2	0.00e+00	0	42	0	2540699648	7	3927
2026-01-10 02:16:15.17	177.35	47.12	-23.2	-24.0	19.3	0.00e+00	0	42	0	2546991104	7	3924
2026-01-10 02:16:16.17	177.55	46.82	-23.3	-24.1	19.2	0.00e+00	0	42	0	2552233984	7	3957
2026-01-10 02:16:17.17	177.74	46.52	-23.8	-25.2	18.6	0.00e+00	0	42	0	2557476864	7	4215
2026-01-10 02:16:18.17	177.93	46.23	-23.3	-24.1	19.1	0.00e+00	0	42	0	2563768320	7	3950
2026-01-10 02:16:19.18	178.12	45.93	-23.3	-24.1	19.2	0.00e+00	0	42	0	2569011200	7	3946
2026-01-10 02:16:20.19	178.30	45.64	-23.1	-23.8	19.3	0.00e+00	0	42	0	2575302656	7	3875
2026-01-10 02:16:21.19	178.48	45.35	-23.0	-23.6	19.4	0.00e+00	0	42	0	2580545536	7	3827
2026-01-10 02:16:22.19	178.66	45.06	-23.3	-24.1	19.1	0.00e+00	0	42	0	2585788416	7	3945
2026-01-10 02:16:23.19	178.84	44.78	-23.2	-23.9	19.2	0.00e+00	0	42	0	2592079872	7	3914
2026-01-10 02:16:24.19	179.01	44.49	-23.5	-24.5	18.9	0.00e+00	0	42	0	2597322752	7	4065
2026-01-10 02:16:25.19	179.17	44.21	-23.2	-23.9	19.2	0.00e+00	0	42	0	2602565632	7	3913
2026-01-10 02:16:26.19	179.34	43.93	-22.9	-23.3	19.5	0.00e+00	0	42	0	2608857088	7	3777
2026-01-10 02:16:27.19	179.50	43.65	-22.6	-23.2	19.8	0.00e+00	0	42	0	2614099968	6	3857
2026-01-10 02:16:28.19	179.66	43.38	-22.7	-23.4	19.7	0.00e+00	0	42	0	2620391424	6	3891
2026-01-10 02:16:29.19	179.82	43.10	-22.5	-22.9	19.9	0.00e+00	0	42	0	2625634304	6	3781
2026-01-10 02:16:30.19	179.97	42.83	-22.4	-22.7	20.0	0.00e+00	0	42	0	2630877184	6	3728
2026-01-10 02:16:31.19	180.12	42.56	-22.4	-22.8	20.0	0.00e+00	0	42	0	2637168640	6	3752
2026-01-10 02:16:32.20	180.27	42.29	-22.4	-22.8	19.9	0.00e+00	0	42	0	2642411520	6	3752
2026-01-10 02:16:33.20	180.42	42.02	-22.5	-23.1	19.8	0.00e+00	0	42	0	2647654400	6	3821
2026-01-10 02:16:34.20	180.56	41.75	-22.5	-23.0	19.8	0.00e+00	0	42	0	2653945856	6	3815
2026-01-10 02:16:35.21	180.71	41.49	-22.6	-23.1	19.8	0.00e+00	0	42	0	2659188736	6	3829
2026-01-10 02:16:36.20	180.84	41.23	-22.5	-23.1	19.8	0.00e+00	0	42	0	2664431616	6	3830
2026-01-10 02:16:37.21	180.98	40.96	-22.6	-23.2	19.7	0.00e+00	0	42	0	2670723072	6	3846
2026-01-10 02:16:38.21	181.12	40.70	-22.3	-22.6	20.0	0.00e+00	0	42	0	2675965952	6	3724
2026-01-10 02:16:39.22	181.25	40.44	-22.3	-22.5	20.0	0.00e+00	0	42	0	2682257408	6	3690
2026-01-10 02:16:40.21	181.38	40.19	-22.0	-22.3	20.3	0.00e+00	0	42	0	2687500288	5	3759
2026-01-10 02:16:41.21	181.51	39.94	-22.0	-22.5	20.3	0.00e+00	0	42	0	2692743168	5	3797
2026-01-10 02:16:42.21	181.64	39.68	-22.1	-22.7	20.1	0.00e+00	0	42	0	2699034624	5	3840
2026-01-10 02:16:43.21	181.77	39.43	-22.0	-22.4	20.3	0.00e+00	0	42	0	2704277504	5	3778
2026-01-10 02:16:44.21	181.89	39.18	-22.2	-22.8	20.1	0.00e+00	0	42	0	2709520384	5	3859
2026-01-10 02:16:45.21	182.01	38.94	-22.3	-23.0	20.0	0.00e+00	0	42	0	2715811840	5	3923
2026-01-10 02:16:46.21	182.13	38.69	-22.5	-23.6	19.7	0.00e+00	0	42	0	2721054720	5	4050
2026-01-10 02:16:47.22	182.25	38.44	-22.7	-23.8	19.6	0.00e+00	0	42	0	2726297600	5	4113
2026-01-10 02:16:48.21	182.37	38.20	-22.6	-23.6	19.7	0.00e+00	0	42	0	2732589056	5	4061
2026-01-10 02:16:49.22	182.48	37.96	-22.8	-24.2	19.4	0.00e+00	0	42	0	2737831936	5	4201
2026-01-10 02:16:50.22	182.60	37.72	-22.4	-23.3	19.8	0.00e+00	0	42	0	2744123392	5	3980
2026-01-10 02:16:51.22	182.71	37.48	-22.3	-23.0	20.0	0.00e+00	0	42	0	2749366272	5	3906
2026-01-10 02:16:52.23	182.82	37.24	-22.2	-22.9	20.0	0.00e+00	0	42	0	2755657728	5	3886
2026-01-10 02:16:53.23	182.93	37.01	-22.3	-23.1	19.9	0.00e+00	0	42	0	2760900608	5	3951
2026-01-10 02:16:54.23	183.03	36.78	-22.4	-23.2	19.9	0.00e+00	0	42	0	2766143488	5	3955
2026-01-10 02:16:55.23	183.14	36.54	-22.4	-23.3	19.8	0.00e+00	0	42	0	2772434944	5	3995
2026-01-10 02:16:56.23	183.24	36.31	-23.6	-24.7	18.7	0.00e+00	0	42	0	2777677824	7	4105
2026-01-10 02:16:57.23	183.35	36.09	-22.9	-23.3	19.4	0.00e+00	0	42	0	2782920704	7	3769
2026-01-10 02:16:58.23	183.45	35.86	-23.2	-24.0	19.0	0.00e+00	0	42	0	2789212160	7	3934
2026-01-10 02:16:59.23	183.55	35.63	-23.9	-24.8	18.4	0.00e+00	0	42	0	2794455040	8	4026
2026-01-10 02:17:00.24	183.65	35.41	-23.9	-24.9	18.4	0.00e+00	0	42	0	2799697920	8	4048
2026-01-10 02:17:01.25	183.75	35.18	-22.7	-23.4	19.6	0.00e+00	0	42	0	2805989376	6	3901
2026-01-10 02:17:02.25	183.84	34.96	-23.1	-24.3	19.2	0.00e+00	0	42	0	2811232256	6	4112
2026-01-10 02:17:03.25	183.94	34.74	-22.8	-23.6	19.5	0.00e+00	0	42	0	2817523712	6	3936
2026-01-10 02:17:04.25	184.03	34.52	-22.5	-23.1	19.7	0.00e+00	0	42	0	2822766592	6	3822
2026-01-10 02:17:05.24	184.12	34.31	-22.6	-23.2	19.7	0.00e+00	0	42	0	2828009472	6	3860
2026-01-10 02:17:06.24	184.22	34.09	-22.8	-23.6	19.5	0.00e+00	0	42	0	2834300928	6	3941
2026-01-10 02:17:07.24	184.31	33.88	-23.0	-24.0	19.4	0.00e+00	0	42	0	2839543808	6	4041
2026-01-10 02:17:08.25	184.40	33.67	-22.9	-23.2	19.5	0.00e+00	0	42	0	2844786688	7	3760
2026-01-10 02:17:09.25	184.48	33.45	-22.9	-23.3	19.4	0.00e+00	0	42	0	2851078144	7	3782
2026-01-10 02:17:10.25	184.57	33.25	-23.4	-24.3	19.0	0.00e+00	0	42	0	2856321024	7	4017
2026-01-10 02:17:11.26	184.66	33.03	-23.3	-24.2	19.0	0.00e+00	0	42	0	2861563904	7	3974
2026-01-10 02:17:12.26	184.74	32.83	-23.9	-25.4	18.4	0.00e+00	0	42	0	2867855360	7	4289
2026-01-10 02:17:13.26	184.83	32.62	-23.7	-24.4	18.6	0.00e+00	0	42	0	2873098240	8	3929
2026-01-10 02:17:14.26	184.91	32.42	-23.6	-24.2	18.7	0.00e+00	0	42	0	2879389696	8	3882
2026-01-10 02:17:15.26	184.99	32.22	-23.4	-24.3	18.9	0.00e+00	0	42	0	2884632576	7	4002
2026-01-10 02:17:16.27	185.07	32.01	-23.7	-24.9	18.6	0.00e+00	0	42	0	2890924032	7	4155
2026-01-10 02:17:17.27	185.15	31.81	-23.1	-23.8	19.1	0.00e+00	0	42	0	2896166912	7	3898
2026-01-10 02:17:18.27	185.23	31.61	-23.6	-24.8	18.6	0.00e+00	0	42	0	2901409792	7	4120
2026-01-10 02:17:19.26	185.31	31.42	-23.4	-24.4	18.8	0.00e+00	0	42	0	2906652672	7	4033
2026-01-10 02:17:20.27	185.39	31.22	-23.9	-25.4	18.3	0.00e+00	0	42	0	2912944128	7	4279
2026-01-10 02:17:21.27	185.46	31.02	-24.4	-26.0	17.8	0.00e+00	0	42	0	2918187008	8	4324
2026-01-10 02:17:22.27	185.54	30.83	-24.9	-26.6	17.3	0.00e+00	0	42	0	2924478464	9	4351
2026-01-10 02:17:23.27	185.61	30.64	-25.5	-26.9	16.5	0.00e+00	0	42	0	2929721344	11	4219
2026-01-10 02:17:24.27	185.69	30.45	-25.4	-26.6	16.7	0.00e+00	0	42	0	2934964224	11	4129
2026-01-10 02:17:25.28	185.76	30.25	-24.3	-25.3	17.9	0.00e+00	0	42	0	2941255680	9	4022
2026-01-10 02:17:26.28	185.83	30.06	-24.6	-25.8	17.6	0.00e+00	0	42	0	2946498560	9	4154
2026-01-10 02:17:27.29	185.90	29.87	-24.3	-25.3	17.9	0.00e+00	0	42	0	2952790016	9	4030
2026-01-10 02:17:28.30	185.97	29.69	-24.6	-25.8	17.6	0.00e+00	0	42	0	2958032896	9	4167
2026-01-10 02:17:29.30	186.04	29.50	-24.7	-26.2	17.4	0.00e+00	0	42	0	2963275776	9	4263
2026-01-10 02:17:30.30	186.11	29.32	-24.8	-26.4	17.3	0.00e+00	0	42	0	2969567232	9	4313
2026-01-10 02:17:31.30	186.18	29.13	-24.2	-25.1	17.9	0.00e+00	0	42	0	2974810112	9	3985
2026-01-10 02:17:32.30	186.25	28.95	-23.6	-24.3	18.6	0.00e+00	0	42	0	2980052992	8	3900
2026-01-10 02:17:33.31	186.32	28.77	-22.9	-23.3	19.2	0.00e+00	0	42	0	2986344448	7	3787
2026-01-10 02:17:34.31	186.38	28.59	-22.9	-23.2	19.3	0.00e+00	0	42	0	2991587328	7	3765
2026-01-10 02:17:35.31	186.45	28.41	-22.8	-23.2	19.3	0.00e+00	0	42	0	2996830208	7	3752
2026-01-10 02:17:36.32	186.51	28.23	-22.9	-23.8	19.3	0.00e+00	0	42	0	3003121664	6	3999
2026-01-10 02:17:37.31	186.58	28.06	-22.8	-23.5	19.4	0.00e+00	0	42	0	3008364544	6	3935
2026-01-10 02:17:38.31	186.64	27.88	-22.9	-23.8	19.3	0.00e+00	0	42	0	3014656000	6	4003
2026-01-10 02:17:39.32	186.70	27.70	-22.9	-23.9	19.2	0.00e+00	0	42	0	3019898880	6	4031
2026-01-10 02:17:40.32	186.77	27.53	-22.9	-23.8	19.2	0.00e+00	0	42	0	3025141760	6	4001
2026-01-10 02:17:41.32	186.83	27.36	-22.8	-23.6	19.4	0.00e+00	0	42	0	3031433216	6	3960
2026-01-10 02:17:42.33	186.89	27.19	-23.1	-24.2	19.1	0.00e+00	0	42	0	3036676096	6	4103
2026-01-10 02:17:43.33	186.95	27.02	-23.0	-23.5	19.2	1.10e-06	0	42	0	3042967552	7	3815
2026-01-10 02:17:44.33	187.01	26.85	-24.0	-25.1	18.2	0.00e+00	0	42	0	3048210432	8	4095
2026-01-10 02:17:45.34	187.07	26.68	-23.5	-24.2	18.7	0.00e+00	0	42	0	3053453312	8	3864
2026-01-10 02:17:46.34	187.13	26.51	-23.1	-23.7	19.1	3.40e-06	0	42	0	3059744768	7	3878
2026-01-10 02:17:47.35	187.18	26.34	-23.1	-23.8	19.0	0.00e+00	0	42	0	3064987648	7	3895
2026-01-10 02:17:48.35	187.24	26.18	-23.1	-23.7	19.1	0.00e+00	0	42	0	3070230528	7	3868
2026-01-10 02:17:49.35	187.30	26.01	-23.0	-23.5	19.2	0.00e+00	0	42	0	3076521984	7	3821
2026-01-10 02:17:50.35	187.36	25.85	-22.9	-23.3	19.3	0.00e+00	0	42	0	3081764864	7	3775
2026-01-10 02:17:51.35	187.41	25.69	-23.0	-23.5	19.2	0.00e+00	0	42	0	3088056320	7	3818
2026-01-10 02:17:52.35	187.47	25.53	-23.0	-23.5	19.2	0.00e+00	0	42	0	3093299200	7	3815
2026-01-10 02:17:53.35	187.52	25.37	-23.0	-23.5	19.2	0.00e+00	0	42	0	3098542080	7	3816
2026-01-10 02:17:54.35	187.57	25.21	-22.9	-23.4	19.2	0.00e+00	0	42	0	3104833536	7	3789
2026-01-10 02:17:55.35	187.63	25.05	-23.1	-23.6	19.1	2.20e-06	0	42	0	3110076416	7	3853
2026-01-10 02:17:56.35	187.68	24.89	-23.1	-23.8	19.0	0.00e+00	0	42	0	3115319296	7	3875
2026-01-10 02:17:57.35	187.73	24.74	-23.1	-23.7	19.1	0.00e+00	0	42	0	3121610752	7	3861
2026-01-10 02:17:58.36	187.79	24.58	-23.1	-23.6	19.1	1.10e-06	0	42	0	3126853632	7	3846
2026-01-10 02:17:59.36	187.84	24.43	-23.1	-23.8	19.0	0.00e+00	0	42	0	3133145088	7	3889
2026-01-10 02:18:00.36	187.89	24.27	-23.2	-23.9	18.9	0.00e+00	0	42	0	3138387968	7	3908
2026-01-10 02:18:01.36	187.94	24.12	-23.2	-24.0	18.9	4.50e-06	0	42	0	3143630848	7	3933
2026-01-10 02:18:02.36	187.99	23.97	-23.1	-23.8	18.9	0.00e+00	0	42	0	3149922304	7	3894
2026-01-10 02:18:03.37	188.04	23.81	-23.2	-24.0	18.9	0.00e+00	0	42	0	3155165184	7	3932
2026-01-10 02:18:04.37	188.09	23.66	-23.2	-24.0	18.8	1.10e-06	0	42	0	3161456640	7	3949
2026-01-10 02:18:05.38	188.14	23.51	-23.4	-24.5	18.6	0.00e+00	0	42	0	3166699520	7	4059
2026-01-10 02:18:06.38	188.19	23.36	-23.6	-24.9	18.4	0.00e+00	0	42	0	3171942400	7	4156
2026-01-10 02:18:07.38	188.24	23.22	-23.7	-25.0	18.3	4.50e-06	0	42	0	3178233856	7	4197
2026-01-10 02:18:08.38	188.28	23.07	-23.5	-24.7	18.5	0.00e+00	0	42	0	3183476736	7	4113
2026-01-10 02:18:09.39	188.33	22.92	-23.4	-24.4	18.6	0.00e+00	0	42	0	3188719616	7	4039
2026-01-10 02:18:10.38	188.38	22.78	-23.4	-24.5	18.6	0.00e+00	0	42	0	3195011072	7	4058
2026-01-10 02:18:11.39	188.42	22.63	-23.6	-24.7	18.5	0.00e+00	0	42	0	3200253952	7	4121
2026-01-10 02:18:12.39	188.47	22.49	-23.5	-24.6	18.5	0.00e+00	0	42	0	3206545408	7	4079
2026-01-10 02:18:13.39	188.52	22.35	-23.5	-24.7	18.5	0.00e+00	0	42	0	3211788288	7	4111
2026-01-10 02:18:14.39	188.56	22.20	-23.5	-24.7	18.4	0.00e+00	0	42	0	3217031168	7	4119
2026-01-10 02:18:15.40	188.61	22.06	-23.6	-24.8	18.4	0.00e+00	0	42	0	3223322624	7	4138
2026-01-10 02:18:16.40	188.65	21.92	-23.6	-24.9	18.3	1.10e-06	0	42	0	3228565504	7	4174
2026-01-10 02:18:17.40	188.70	21.78	-23.7	-25.0	18.3	0.00e+00	0	42	0	3233808384	7	4194
2026-01-10 02:18:18.41	188.74	21.64	-23.7	-25.0	18.3	0.00e+00	0	42	0	3240099840	7	4200
2026-01-10 02:18:19.40	188.78	21.50	-23.7	-25.0	18.3	0.00e+00	0	42	0	3245342720	7	4194
2026-01-10 02:18:20.40	188.83	21.37	-23.7	-25.1	18.2	0.00e+00	0	42	0	3250585600	7	4205
2026-01-10 02:18:21.41	188.87	21.23	-23.7	-25.1	18.3	0.00e+00	0	42	0	3256877056	7	4213
2026-01-10 02:18:22.40	188.91	21.09	-23.9	-25.5	18.0	0.00e+00	0	42	0	3262119936	7	4326
2026-01-10 02:18:23.41	188.95	20.96	-24.0	-25.2	18.0	0.00e+00	0	42	0	3268411392	8	4120
2026-01-10 02:18:24.41	188.99	20.82	-23.8	-24.8	18.2	0.00e+00	0	42	0	3273654272	8	4024
2026-01-10 02:18:25.41	189.04	20.69	-23.9	-25.0	18.1	0.00e+00	0	42	0	3278897152	8	4061
2026-01-10 02:18:26.41	189.08	20.55	-23.9	-24.8	18.1	0.00e+00	0	42	0	3285188608	8	4033
2026-01-10 02:18:27.41	189.12	20.42	-23.9	-24.9	18.1	0.00e+00	0	42	0	3290431488	8	4039
2026-01-10 02:18:28.42	189.16	20.29	-23.9	-24.9	18.1	0.00e+00	0	42	0	3296722944	8	4036
2026-01-10 02:18:29.42	189.20	20.16	-23.8	-24.8	18.2	0.00e+00	0	42	0	3301965824	8	4015
2026-01-10 02:18:30.43	189.24	20.03	-23.8	-24.7	18.2	0.00e+00	0	42	0	3307208704	8	3988
2026-01-10 02:18:31.44	189.28	19.89	-23.8	-24.6	18.2	0.00e+00	0	42	0	3313500160	8	3977
2026-01-10 02:18:32.45	189.32	19.76	-23.8	-24.8	18.1	0.00e+00	0	42	0	3318743040	8	4024
2026-01-10 02:18:33.45	189.36	19.64	-24.0	-25.1	18.0	0.00e+00	0	42	0	3323985920	8	4089
2026-01-10 02:18:34.45	189.40	19.51	-24.0	-25.1	18.0	0.00e+00	0	42	0	3330277376	8	4081
2026-01-10 02:18:35.46	189.43	19.38	-24.0	-25.2	17.9	0.00e+00	0	42	0	3335520256	8	4107
2026-01-10 02:18:36.46	189.47	19.25	-24.2	-25.6	17.8	0.00e+00	0	42	0	3341811712	8	4221
2026-01-10 02:18:37.46	189.51	19.13	-24.2	-25.6	17.7	0.00e+00	0	42	0	3347054592	8	4231
2026-01-10 02:18:38.46	189.55	19.00	-24.2	-25.5	17.8	0.00e+00	0	42	0	3352297472	8	4200
2026-01-10 02:18:39.47	189.58	18.88	-24.3	-25.8	17.6	0.00e+00	0	42	0	3358588928	8	4280
2026-01-10 02:18:40.47	189.62	18.75	-24.5	-26.1	17.5	0.00e+00	0	42	0	3363831808	8	4363
2026-01-10 02:18:41.46	189.66	18.63	-24.8	-26.4	17.0	0.00e+00	0	42	0	3369074688	9	4318
2026-01-10 02:18:42.46	189.69	18.51	-24.7	-26.1	17.2	0.00e+00	0	42	0	3375366144	9	4245
2026-01-10 02:18:43.46	189.73	18.38	-24.7	-26.2	17.2	0.00e+00	0	42	0	3380609024	9	4248
2026-01-10 02:18:44.46	189.77	18.26	-24.6	-25.9	17.3	0.00e+00	0	42	0	3385851904	9	4187
2026-01-10 02:18:45.46	189.80	18.14	-24.9	-26.0	17.0	0.00e+00	0	42	0	3392143360	10	4107
2026-01-10 02:18:46.46	189.84	18.02	-24.8	-25.9	17.1	0.00e+00	0	42	0	3397386240	10	4070
2026-01-10 02:18:47.47	189.87	17.90	-25.1	-26.6	16.7	0.00e+00	0	42	0	3403677696	10	4241
2026-01-10 02:18:48.47	189.91	17.78	-25.5	-26.9	16.4	0.00e+00	0	42	0	3408920576	11	4206
2026-01-10 02:18:49.47	189.94	17.66	-25.8	-27.4	16.1	0.00e+00	0	42	0	3415212032	11	4359
2026-01-10 02:18:50.47	189.97	17.54	-25.8	-27.6	16.0	0.00e+00	0	42	0	3420454912	11	4405
2026-01-10 02:18:51.48	190.01	17.42	-25.9	-27.2	15.9	0.00e+00	0	42	0	3425697792	12	4185
2026-01-10 02:18:52.47	190.04	17.31	-25.8	-27.0	16.0	0.00e+00	0	42	0	3431989248	12	4126
2026-01-10 02:18:53.48	190.08	17.19	-25.4	-26.2	16.4	0.00e+00	0	42	0	3437232128	12	3933
2026-01-10 02:18:54.47	190.11	17.08	-25.4	-26.6	16.4	0.00e+00	0	42	0	3442475008	11	4147
2026-01-10 02:18:55.47	190.14	16.96	-25.5	-26.8	16.3	0.00e+00	0	42	0	3448766464	11	4206
2026-01-10 02:18:56.47	190.18	16.85	-26.0	-27.9	15.8	0.00e+00	0	42	0	3454009344	11	4500
2026-01-10 02:18:57.47	190.21	16.73	-26.3	-28.2	15.3	0.00e+00	0	42	0	3459252224	12	4471
2026-01-10 02:18:58.47	190.24	16.62	-26.3	-27.6	15.3	1.10e-06	0	42	0	3465543680	13	4188
2026-01-10 02:18:59.47	190.27	16.50	-26.5	-28.1	15.0	0.00e+00	0	42	0	3470786560	13	4317
2026-01-10 02:19:00.48	190.30	16.39	-26.3	-27.6	15.3	0.00e+00	0	42	0	3477078016	13	4208
2026-01-10 02:19:01.48	190.34	16.28	-26.2	-27.3	15.4	0.00e+00	0	42	0	3482320896	13	4120
2026-01-10 02:19:02.48	190.37	16.17	-26.5	-28.2	15.0	0.00e+00	0	42	0	3487563776	13	4363
2026-01-10 02:19:03.48	190.40	16.05	-27.0	-29.2	14.4	0.00e+00	0	42	0	3493855232	13	4655
2026-01-10 02:19:04.48	190.43	15.94	-27.0	-28.3	14.3	9.10e-06	0	42	0	3499098112	15	4180
2026-01-10 02:19:05.48	190.46	15.83	-26.5	-27.6	15.0	0.00e+00	0	42	0	3504340992	14	4082
2026-01-10 02:19:06.49	190.49	15.72	-26.6	-27.8	14.9	0.00e+00	0	42	0	3510632448	14	4139
2026-01-10 02:19:07.49	190.52	15.61	-25.5	-26.4	16.2	0.00e+00	0	42	0	3515875328	12	3992
2026-01-10 02:19:08.50	190.55	15.50	-25.6	-26.7	16.0	0.00e+00	0	42	0	3521118208	12	4059
2026-01-10 02:19:09.50	190.58	15.40	-26.0	-27.5	15.5	0.00e+00	0	42	0	3527409664	12	4291
2026-01-10 02:19:10.50	190.61	15.29	-25.9	-27.3	15.7	0.00e+00	0	42	0	3532652544	12	4236
2026-01-10 02:19:11.50	190.64	15.18	-26.0	-27.5	15.5	0.00e+00	0	42	0	3538944000	12	4281
2026-01-10 02:19:12.50	190.67	15.07	-26.4	-28.3	15.1	0.00e+00	0	42	0	3544186880	12	4503
2026-01-10 02:19:13.51	190.70	14.97	-25.9	-26.8	15.7	0.00e+00	0	42	0	3549429760	13	3984
2026-01-10 02:19:14.51	190.73	14.86	-25.8	-27.0	15.8	0.00e+00	0	42	0	3555721216	12	4149
2026-01-10 02:19:15.52	190.76	14.75	-25.9	-27.4	15.6	0.00e+00	0	42	0	3560964096	12	4242
2026-01-10 02:19:16.51	190.79	14.65	-26.6	-28.3	14.8	0.00e+00	0	42	0	3566206976	13	4396
2026-01-10 02:19:17.51	190.82	14.54	-26.6	-28.3	14.8	0.00e+00	0	42	0	3572498432	13	4393
2026-01-10 02:19:18.52	190.85	14.44	-26.6	-28.3	14.8	1.14e-05	0	42	0	3577741312	13	4384
2026-01-10 02:19:19.52	190.87	14.34	-26.3	-27.6	15.2	0.00e+00	0	42	0	3584032768	13	4191
2026-01-10 02:19:20.53	190.90	14.23	-25.9	-26.7	15.6	0.00e+00	0	42	0	3589275648	13	3978
2026-01-10 02:19:21.53	190.93	14.13	-25.4	-26.7	16.3	0.00e+00	0	42	0	3594518528	11	4173
2026-01-10 02:19:22.53	190.96	14.03	-25.5	-26.8	16.2	0.00e+00	0	42	0	3600809984	11	4207
2026-01-10 02:19:23.53	190.99	13.92	-25.5	-27.0	16.1	0.00e+00	0	42	0	3606052864	11	4241
2026-01-10 02:19:24.53	191.01	13.82	-25.8	-27.4	15.8	0.00e+00	0	42	0	3612344320	11	4376
2026-01-10 02:19:25.53	191.04	13.72	-25.9	-27.8	15.6	0.00e+00	0	42	0	3617587200	11	4487
2026-01-10 02:19:26.53	191.07	13.62	-26.2	-27.8	15.2	0.00e+00	0	42	0	3622830080	12	4377
2026-01-10 02:19:27.53	191.10	13.52	-25.9	-27.3	15.5	1.25e-05	0	42	0	3629121536	12	4229
2026-01-10 02:19:28.53	191.12	13.42	-25.6	-26.5	16.0	0.00e+00	0	42	0	3634364416	12	4030
2026-01-10 02:19:29.53	191.15	13.32	-25.5	-26.3	16.1	0.00e+00	0	42	0	3639607296	12	3982
2026-01-10 02:19:30.53	191.17	13.22	-25.6	-26.6	15.9	0.00e+00	0	42	0	3645898752	12	4051
2026-01-10 02:19:31.53	191.20	13.12	-25.4	-26.2	16.1	0.00e+00	0	42	0	3651141632	12	3952
2026-01-10 02:19:32.53	191.23	13.02	-25.4	-26.3	16.1	0.00e+00	0	42	0	3656384512	12	3967
2026-01-10 02:19:33.53	191.25	12.93	-25.4	-26.2	16.1	5.70e-06	0	42	0	3662675968	12	3946
2026-01-10 02:19:34.53	191.28	12.83	-25.5	-26.4	16.0	0.00e+00	0	42	0	3667918848	12	4001
2026-01-10 02:19:35.53	191.30	12.73	-25.5	-26.5	15.9	0.00e+00	0	42	0	3674210304	12	4009
2026-01-10 02:19:36.54	191.33	12.63	-25.6	-26.6	16.0	0.00e+00	0	42	0	3679453184	12	4034
2026-01-10 02:19:37.54	191.36	12.54	-25.6	-26.6	16.0	0.00e+00	0	42	0	3684696064	12	4034
2026-01-10 02:19:38.54	191.38	12.44	-25.8	-27.1	15.5	0.00e+00	0	42	0	3690987520	12	4185
2026-01-10 02:19:39.55	191.41	12.34	-25.7	-26.8	15.7	3.40e-06	0	42	0	3696230400	12	4112
2026-01-10 02:19:40.54	191.43	12.25	-25.7	-26.9	15.7	0.00e+00	0	42	0	3701473280	12	4123
2026-01-10 02:19:41.55	191.46	12.15	-26.2	-28.0	15.1	0.00e+00	0	42	0	3707764736	12	4433
2026-01-10 02:19:42.55	191.48	12.06	-26.4	-28.5	14.8	2.20e-06	0	42	0	3713007616	12	4580
2026-01-10 02:19:43.56	191.51	11.97	-26.1	-27.2	15.3	0.00e+00	0	42	0	3718250496	13	4092
2026-01-10 02:19:44.56	191.53	11.87	-26.2	-27.4	15.1	0.00e+00	0	42	0	3724541952	13	4150
2026-01-10 02:19:45.56	191.55	11.78	-25.8	-27.0	15.6	0.00e+00	0	42	0	3729784832	12	4161
2026-01-10 02:19:46.57	191.58	11.68	-25.7	-26.9	15.6	0.00e+00	0	42	0	3736076288	12	4142
2026-01-10 02:19:47.57	191.60	11.59	-26.0	-27.4	15.4	0.00e+00	0	42	0	3741319168	12	4269
2026-01-10 02:19:48.57	191.63	11.50	-25.9	-27.3	15.4	0.00e+00	0	42	0	3747610624	12	4232
2026-01-10 02:19:49.58	191.65	11.41	-25.9	-27.4	15.4	0.00e+00	0	42	0	3752853504	12	4267
2026-01-10 02:19:50.58	191.67	11.31	-25.9	-27.4	15.4	0.00e+00	0	42	0	3758096384	12	4261
2026-01-10 02:19:51.59	191.70	11.22	-26.5	-28.1	14.7	1.14e-05	0	42	0	3764387840	13	4343
2026-01-10 02:19:52.58	191.72	11.13	-26.4	-27.9	14.9	0.00e+00	0	42	0	3769630720	13	4279
2026-01-10 02:19:53.58	191.74	11.04	-26.3	-27.7	15.0	0.00e+00	0	42	0	3774873600	13	4223
2026-01-10 02:19:54.58	191.77	10.95	-26.2	-27.4	15.1	9.10e-06	0	42	0	3781165056	13	4167
2026-01-10 02:19:55.59	191.79	10.86	-26.2	-27.6	15.0	1.10e-06	0	42	0	3786407936	13	4198
2026-01-10 02:19:56.60	191.81	10.77	-26.0	-27.0	15.3	0.00e+00	0	42	0	3791650816	13	4057
2026-01-10 02:19:57.60	191.84	10.68	-26.1	-27.2	15.2	0.00e+00	0	42	0	3797942272	13	4104
2026-01-10 02:19:58.60	191.86	10.59	-26.1	-27.3	15.1	0.00e+00	0	42	0	3803185152	13	4140
2026-01-10 02:19:59.61	191.88	10.50	-26.0	-27.1	15.3	0.00e+00	0	42	0	3809476608	13	4065
2026-01-10 02:20:00.61	191.90	10.41	-26.1	-27.2	15.2	9.10e-06	0	42	0	3814719488	13	4107
2026-01-10 02:20:01.61	191.93	10.32	-26.3	-27.7	14.9	1.10e-06	0	42	0	3819962368	13	4241
2026-01-10 02:20:02.61	191.95	10.24	-26.0	-27.1	15.2	0.00e+00	0	42	0	3826253824	13	4087
2026-01-10 02:20:03.62	191.97	10.15	-26.1	-27.4	15.0	1.37e-05	0	42	0	3831496704	13	4154
2026-01-10 02:20:04.63	191.99	10.06	-26.1	-27.2	15.2	0.00e+00	0	42	0	3837788160	13	4110
2026-01-10 02:20:05.63	192.01	9.97	-26.2	-27.4	15.0	0.00e+00	0	42	0	3843031040	13	4169
2026-01-10 02:20:06.64	192.04	9.89	-26.3	-27.6	14.9	0.00e+00	0	42	0	3848273920	13	4219
2026-01-10 02:20:07.64	192.06	9.80	-26.3	-27.7	14.8	1.10e-06	0	42	0	3854565376	13	4244
2026-01-10 02:20:08.65	192.08	9.71	-26.2	-27.4	15.0	0.00e+00	0	42	0	3859808256	13	4165
2026-01-10 02:20:09.65	192.10	9.63	-26.5	-28.1	14.7	0.00e+00	0	42	0	3865051136	13	4359
