passes_logs/2026/01/10/R2M6_AANII_01/R2M6_AANII_01__20260110_010847_SUOMI_NPP_rec.log

#Pass ID: 20260110_010847_SUOMI NPP
#Satellite: SUOMI NPP
#Configuration: NPP
#almurnet v.1.7.20240730
#Start time: 2026-01-10 01:08:47

#Version: 2.2.20231116
#Station: R2M6_AANII_01
#Location: 30.233357 lon 59.946436 lat
#TLE: 1 37849U 11061A   26008.83076692  .00000095  00000+0  66074-4 0  9997
#TLE: 2 37849  98.7806 310.9327 0002533  74.3004 285.8451 14.19523607735834

#Time	Az	El	Level	Level2	SNR	BER	BlckErr	Temp	State	Recorded	gain1	gain2
2026-01-10 01:08:47.02	14.78	6.97	-31.4	-35.3	5.2	1.27e+00	0	39	0	0	23	5604
2026-01-10 01:08:48.02	14.74	7.04	-31.7	-36.4	4.9	1.32e+00	0	39	104	0	23	6195
2026-01-10 01:08:49.02	14.71	7.12	-31.6	-36.1	8.0	9.62e-02	0	39	0	0	23	6005
2026-01-10 01:08:50.03	14.67	7.20	-31.4	-35.1	8.8	5.55e-02	0	40	0	1048576	23	5505
2026-01-10 01:08:51.03	14.64	7.27	-31.5	-35.6	8.3	7.42e-02	0	40	0	3145728	23	5784
2026-01-10 01:08:52.03	14.60	7.35	-31.4	-35.6	8.8	3.73e-02	0	40	0	5242880	22	5819
2026-01-10 01:08:53.03	14.57	7.42	-31.5	-35.4	8.6	2.89e-02	0	39	0	7340032	23	5628
2026-01-10 01:08:54.03	14.53	7.50	-31.1	-34.2	9.8	1.29e-02	0	40	0	9437184	22	5192
2026-01-10 01:08:55.04	14.49	7.58	-31.6	-35.6	8.5	1.93e-02	0	40	0	10485760	23	5744
2026-01-10 01:08:56.04	14.46	7.65	-31.4	-35.0	9.0	3.24e-02	0	40	0	12582912	23	5417
2026-01-10 01:08:57.04	14.42	7.73	-31.8	-36.1	8.3	6.20e-02	0	40	0	14680064	23	5945
2026-01-10 01:08:58.04	14.38	7.81	-31.6	-35.7	8.6	4.92e-02	0	40	0	16777216	23	5747
2026-01-10 01:08:59.04	14.35	7.89	-31.9	-36.8	7.9	3.75e-02	0	40	0	17825792	23	6342
2026-01-10 01:09:00.05	14.31	7.96	-32.4	-38.8	6.1	1.85e-01	0	40	0	19922944	24	7532
2026-01-10 01:09:01.05	14.27	8.04	-31.9	-36.5	7.7	1.12e-01	0	40	0	22020096	24	6067
2026-01-10 01:09:02.05	14.23	8.12	-31.8	-36.4	8.1	7.58e-02	0	40	0	24117248	23	6060
2026-01-10 01:09:03.05	14.20	8.20	-32.1	-36.8	7.5	7.50e-02	0	40	0	26214400	24	6215
2026-01-10 01:09:04.06	14.16	8.28	-31.8	-36.4	8.1	7.44e-02	0	40	0	27262976	23	6103
2026-01-10 01:09:05.06	14.12	8.36	-31.6	-35.6	8.8	4.12e-02	0	40	0	29360128	23	5668
2026-01-10 01:09:06.06	14.08	8.44	-31.7	-35.7	8.6	3.15e-02	0	40	0	31457280	23	5742
2026-01-10 01:09:07.06	14.04	8.51	-31.7	-35.6	8.8	4.48e-02	0	40	0	33554432	23	5683
2026-01-10 01:09:08.06	14.00	8.59	-31.9	-36.5	8.0	3.96e-02	0	40	0	35651584	23	6175
2026-01-10 01:09:09.06	13.96	8.67	-31.8	-36.1	8.4	4.38e-02	0	40	0	36700160	23	5956
2026-01-10 01:09:10.07	13.92	8.75	-31.5	-35.2	9.0	3.87e-02	0	40	0	38797312	23	5486
2026-01-10 01:09:11.07	13.88	8.83	-32.0	-37.0	7.2	1.02e-01	0	40	0	40894464	24	6355
2026-01-10 01:09:12.08	13.84	8.92	-32.0	-36.6	7.7	7.13e-02	0	40	0	42991616	24	6090
2026-01-10 01:09:13.08	13.80	9.00	-31.6	-35.2	9.1	3.97e-02	0	40	0	45088768	23	5448
2026-01-10 01:09:14.08	13.76	9.08	-31.2	-34.3	10.3	5.86e-03	0	40	0	46137344	22	5154
2026-01-10 01:09:15.09	13.72	9.16	-30.8	-33.1	11.1	5.61e-03	0	40	0	48234496	22	4699
2026-01-10 01:09:16.08	13.68	9.24	-30.5	-32.7	11.7	4.02e-03	0	40	0	50331648	21	4632
2026-01-10 01:09:17.08	13.64	9.32	-31.0	-33.9	10.5	1.50e-03	0	41	0	52428800	22	4983
2026-01-10 01:09:18.08	13.60	9.40	-31.1	-34.1	10.3	7.31e-03	0	40	0	54525952	22	5097
2026-01-10 01:09:19.09	13.56	9.49	-31.0	-33.6	10.6	7.88e-03	0	40	0	55574528	22	4880
2026-01-10 01:09:20.09	13.51	9.57	-31.1	-33.9	10.5	5.60e-03	0	40	0	57671680	22	4985
2026-01-10 01:09:21.09	13.47	9.65	-31.1	-34.0	10.4	3.67e-03	0	40	0	59768832	22	5034
2026-01-10 01:09:22.10	13.43	9.74	-30.8	-33.2	11.1	5.27e-03	0	40	0	61865984	22	4723
2026-01-10 01:09:23.10	13.39	9.82	-30.9	-33.9	10.9	2.77e-03	0	41	0	62914560	21	5089
2026-01-10 01:09:24.10	13.34	9.90	-31.1	-33.9	10.5	5.26e-03	0	41	0	65011712	22	4979
2026-01-10 01:09:25.10	13.30	9.99	-31.0	-33.6	10.9	5.57e-03	0	41	0	67108864	22	4840
2026-01-10 01:09:26.11	13.26	10.07	-30.5	-32.0	12.0	1.49e-03	0	41	0	69206016	22	4296
2026-01-10 01:09:27.11	13.21	10.16	-30.1	-32.0	12.6	2.67e-03	0	41	0	71303168	20	4456
2026-01-10 01:09:28.11	13.17	10.24	-29.9	-31.5	12.9	3.81e-05	0	41	0	72351744	20	4303
2026-01-10 01:09:29.11	13.12	10.33	-29.8	-31.0	13.3	2.62e-04	0	41	0	74448896	20	4142
2026-01-10 01:09:30.11	13.08	10.41	-29.6	-31.1	13.6	2.77e-03	0	41	0	76546048	19	4279
2026-01-10 01:09:31.11	13.03	10.50	-29.8	-31.4	13.4	1.37e-05	0	41	0	78643200	19	4363
2026-01-10 01:09:32.11	12.99	10.58	-29.9	-31.5	13.0	4.04e-05	0	41	0	80740352	20	4302
2026-01-10 01:09:33.10	12.94	10.67	-29.9	-31.7	13.1	2.55e-03	0	41	0	81788928	19	4470
2026-01-10 01:09:34.10	12.90	10.75	-29.8	-31.7	13.2	2.34e-03	0	41	0	83886080	19	4441
2026-01-10 01:09:35.11	12.85	10.84	-29.7	-31.4	13.4	1.14e-05	0	41	0	85983232	19	4350
2026-01-10 01:09:36.11	12.80	10.93	-29.7	-31.3	13.4	2.43e-03	0	41	0	88080384	19	4338
2026-01-10 01:09:37.11	12.76	11.01	-29.6	-30.9	13.7	2.72e-03	0	41	0	90177536	19	4205
2026-01-10 01:09:38.11	12.71	11.10	-29.7	-30.8	13.4	2.67e-05	0	41	0	91226112	20	4099
2026-01-10 01:09:39.11	12.66	11.19	-30.0	-31.7	12.8	5.72e-05	0	41	0	93323264	20	4375
2026-01-10 01:09:40.12	12.61	11.28	-29.8	-31.4	13.6	2.56e-03	0	41	0	95420416	19	4330
2026-01-10 01:09:41.12	12.57	11.37	-29.8	-31.0	13.4	9.90e-06	0	41	0	97517568	20	4139
2026-01-10 01:09:42.12	12.52	11.46	-29.6	-31.0	13.7	6.10e-06	0	41	0	99614720	19	4232
2026-01-10 01:09:43.12	12.47	11.54	-29.6	-31.0	13.7	2.35e-03	0	41	0	100663296	19	4223
2026-01-10 01:09:44.12	12.42	11.63	-29.7	-31.3	13.5	1.96e-04	0	41	0	102760448	19	4322
2026-01-10 01:09:45.13	12.37	11.72	-29.8	-31.5	13.4	1.67e-05	0	41	0	104857600	19	4390
2026-01-10 01:09:46.12	12.32	11.81	-29.6	-31.0	13.7	9.10e-06	0	41	0	106954752	19	4226
2026-01-10 01:09:47.13	12.27	11.90	-29.6	-30.9	13.7	2.07e-04	0	41	0	108003328	19	4217
2026-01-10 01:09:48.12	12.22	11.99	-29.6	-31.1	13.6	9.10e-06	0	41	0	110100480	19	4284
2026-01-10 01:09:49.12	12.17	12.08	-29.6	-31.0	13.7	1.44e-05	0	41	0	112197632	19	4245
2026-01-10 01:09:50.12	12.12	12.18	-29.5	-30.8	13.8	2.01e-04	0	41	0	114294784	19	4184
2026-01-10 01:09:51.12	12.07	12.27	-29.6	-31.1	13.7	2.43e-03	0	41	0	116391936	19	4257
2026-01-10 01:09:52.12	12.02	12.36	-29.5	-30.8	13.9	5.30e-06	0	41	0	117440512	19	4169
2026-01-10 01:09:53.12	11.97	12.45	-29.5	-30.8	13.9	2.20e-06	0	41	0	119537664	19	4170
2026-01-10 01:09:54.12	11.91	12.54	-29.9	-31.8	13.3	2.41e-03	0	41	0	121634816	19	4479
2026-01-10 01:09:55.13	11.86	12.64	-29.4	-30.1	13.9	2.89e-05	0	41	0	123731968	20	3878
2026-01-10 01:09:56.13	11.81	12.73	-29.9	-31.1	13.3	1.14e-05	0	41	0	125829120	20	4177
2026-01-10 01:09:57.13	11.75	12.82	-30.2	-32.1	12.9	2.73e-03	0	41	0	126877696	20	4478
2026-01-10 01:09:58.13	11.70	12.92	-30.4	-32.0	12.3	2.73e-03	0	41	0	128974848	21	4350
2026-01-10 01:09:59.14	11.65	13.01	-30.3	-31.7	12.7	5.72e-05	0	41	0	131072000	21	4233
2026-01-10 01:10:00.14	11.59	13.11	-30.1	-31.6	13.3	1.52e-05	0	41	0	133169152	20	4286
2026-01-10 01:10:01.14	11.54	13.20	-30.3	-32.3	12.9	2.54e-03	0	41	0	135266304	20	4515
2026-01-10 01:10:02.14	11.48	13.30	-29.8	-30.9	13.8	2.21e-05	0	41	0	136314880	20	4096
2026-01-10 01:10:03.14	11.42	13.39	-30.4	-31.9	12.9	3.12e-05	0	41	0	138412032	21	4297
2026-01-10 01:10:04.14	11.37	13.49	-30.0	-31.5	13.5	9.01e-04	0	41	0	140509184	20	4270
2026-01-10 01:10:05.15	11.31	13.58	-29.7	-31.1	14.0	2.20e-06	0	41	0	142606336	19	4234
2026-01-10 01:10:06.15	11.25	13.68	-29.8	-31.3	14.1	8.30e-06	0	41	0	143654912	19	4284
2026-01-10 01:10:07.15	11.20	13.78	-30.0	-31.4	13.5	1.52e-05	0	41	0	145752064	20	4242
2026-01-10 01:10:08.15	11.14	13.87	-29.7	-30.7	14.0	1.65e-04	0	41	0	147849216	20	4034
2026-01-10 01:10:09.14	11.08	13.97	-29.6	-30.8	14.1	1.50e-06	0	41	0	149946368	19	4153
2026-01-10 01:10:10.15	11.02	14.07	-29.9	-31.7	13.5	3.00e-06	0	41	0	152043520	19	4420
2026-01-10 01:10:11.15	10.96	14.17	-29.4	-29.9	14.6	2.20e-06	0	41	0	153092096	20	3798
2026-01-10 01:10:12.15	10.91	14.27	-29.7	-31.1	14.0	2.20e-06	0	41	0	155189248	19	4212
2026-01-10 01:10:13.15	10.85	14.36	-29.5	-30.6	14.3	0.00e+00	0	41	0	157286400	19	4076
2026-01-10 01:10:14.16	10.79	14.47	-30.1	-31.6	13.4	3.80e-06	0	41	0	159383552	20	4269
2026-01-10 01:10:15.16	10.72	14.56	-29.9	-31.6	13.9	2.63e-03	0	41	0	161480704	19	4363
2026-01-10 01:10:16.17	10.66	14.67	-30.2	-31.8	13.3	1.67e-05	0	41	0	162529280	20	4330
2026-01-10 01:10:17.17	10.60	14.77	-30.0	-31.4	13.5	2.28e-05	0	41	0	164626432	20	4227
2026-01-10 01:10:18.18	10.54	14.87	-30.1	-31.6	13.5	2.49e-03	0	41	0	166723584	20	4285
2026-01-10 01:10:19.18	10.48	14.97	-30.3	-31.6	13.0	5.11e-05	0	41	0	168820736	21	4209
2026-01-10 01:10:20.19	10.41	15.07	-30.3	-31.4	13.4	2.74e-05	0	42	0	170917888	21	4118
2026-01-10 01:10:21.19	10.35	15.17	-29.8	-30.7	14.0	8.30e-06	0	41	0	171966464	20	4011
2026-01-10 01:10:22.19	10.29	15.28	-30.0	-31.7	13.8	3.80e-06	0	41	0	174063616	19	4417
2026-01-10 01:10:23.19	10.22	15.38	-30.0	-31.3	13.7	0.00e+00	0	41	0	176160768	20	4179
2026-01-10 01:10:24.18	10.16	15.48	-30.0	-31.2	13.7	3.80e-06	0	41	0	178257920	20	4163
2026-01-10 01:10:25.19	10.09	15.59	-29.7	-30.5	14.0	2.47e-03	0	41	0	180355072	20	3959
2026-01-10 01:10:26.19	10.03	15.69	-29.8	-30.7	14.0	7.00e-07	0	41	0	181403648	20	4035
2026-01-10 01:10:27.19	9.96	15.79	-30.0	-31.3	13.7	1.50e-06	0	41	0	183500800	20	4193
2026-01-10 01:10:28.18	9.90	15.90	-29.7	-30.6	14.1	2.67e-05	0	41	0	185597952	20	4014
2026-01-10 01:10:29.18	9.83	16.00	-30.0	-30.9	13.7	8.30e-06	0	41	0	187695104	21	3964
2026-01-10 01:10:30.19	9.76	16.11	-30.0	-31.1	13.8	7.60e-06	0	41	0	188743680	20	4131
2026-01-10 01:10:31.19	9.69	16.22	-29.8	-30.8	14.2	3.80e-06	0	41	0	190840832	20	4035
2026-01-10 01:10:32.19	9.62	16.32	-29.7	-30.9	14.3	0.00e+00	0	41	0	192937984	19	4163
2026-01-10 01:10:33.18	9.55	16.43	-29.8	-31.2	14.5	1.50e-06	0	41	0	195035136	19	4206
2026-01-10 01:10:34.19	9.48	16.54	-29.5	-30.0	14.6	0.00e+00	0	41	0	197132288	20	3808
2026-01-10 01:10:35.18	9.42	16.64	-29.6	-30.3	14.4	7.00e-07	0	41	0	198180864	20	3889
2026-01-10 01:10:36.18	9.34	16.75	-29.5	-30.4	14.7	0.00e+00	0	41	0	200278016	19	3994
2026-01-10 01:10:37.17	9.27	16.86	-29.6	-30.6	14.8	0.00e+00	0	41	0	202375168	19	4057
2026-01-10 01:10:38.17	9.20	16.97	-29.5	-30.4	14.7	0.00e+00	0	41	0	204472320	19	4005
2026-01-10 01:10:39.16	9.13	17.08	-29.6	-30.6	14.5	0.00e+00	0	41	0	205520896	19	4073
2026-01-10 01:10:40.17	9.06	17.19	-29.6	-30.6	14.6	0.00e+00	0	41	0	207618048	19	4071
2026-01-10 01:10:41.16	8.98	17.30	-29.6	-30.7	14.5	0.00e+00	0	41	0	209715200	19	4076
2026-01-10 01:10:42.17	8.91	17.41	-29.8	-31.1	14.4	2.20e-06	0	41	0	211812352	19	4207
2026-01-10 01:10:43.17	8.84	17.52	-30.3	-32.0	13.5	2.44e-03	0	42	0	213909504	20	4395
2026-01-10 01:10:44.16	8.76	17.63	-30.4	-31.7	13.3	9.10e-06	0	41	0	214958080	21	4193
2026-01-10 01:10:45.16	8.69	17.74	-29.9	-31.1	14.0	4.50e-06	0	41	0	217055232	20	4104
2026-01-10 01:10:46.16	8.61	17.86	-30.1	-31.4	13.8	4.50e-06	0	41	0	219152384	20	4199
2026-01-10 01:10:47.16	8.53	17.97	-29.9	-31.0	14.1	3.80e-06	0	41	0	221249536	20	4069
2026-01-10 01:10:48.16	8.45	18.08	-30.0	-31.7	14.0	1.50e-06	0	41	0	223346688	19	4371
2026-01-10 01:10:49.16	8.38	18.20	-30.0	-31.3	13.8	3.00e-06	0	42	0	224395264	20	4183
2026-01-10 01:10:50.16	8.30	18.31	-30.4	-32.2	13.4	1.44e-05	0	42	0	226492416	20	4469
2026-01-10 01:10:51.16	8.22	18.43	-30.1	-31.5	13.8	3.80e-06	0	41	0	228589568	20	4221
2026-01-10 01:10:52.16	8.14	18.54	-30.2	-31.7	13.7	7.60e-06	0	42	0	230686720	20	4274
2026-01-10 01:10:53.16	8.06	18.66	-30.2	-31.7	13.5	3.00e-06	0	42	0	232783872	20	4289
2026-01-10 01:10:54.17	7.98	18.77	-30.1	-31.5	14.1	1.50e-06	0	41	0	233832448	20	4215
2026-01-10 01:10:55.17	7.89	18.89	-29.7	-30.5	14.4	3.00e-06	0	41	0	235929600	20	3927
2026-01-10 01:10:56.17	7.81	19.01	-30.0	-31.3	13.9	2.20e-06	0	42	0	238026752	20	4177
2026-01-10 01:10:57.17	7.73	19.13	-29.5	-30.0	14.9	0.00e+00	0	42	0	240123904	20	3792
2026-01-10 01:10:58.16	7.64	19.24	-29.5	-30.3	15.1	0.00e+00	0	42	0	241172480	19	3948
2026-01-10 01:10:59.17	7.56	19.36	-29.6	-30.7	14.7	0.00e+00	0	42	0	243269632	19	4090
2026-01-10 01:11:00.17	7.47	19.48	-29.8	-31.1	14.5	7.00e-07	0	42	0	245366784	19	4187
2026-01-10 01:11:01.17	7.39	19.60	-29.5	-30.4	14.8	7.00e-07	0	42	0	247463936	19	3991
2026-01-10 01:11:02.16	7.30	19.72	-29.3	-29.9	15.0	1.50e-06	0	42	0	249561088	19	3870
2026-01-10 01:11:03.17	7.21	19.84	-29.2	-30.3	15.0	0.00e+00	0	41	0	250609664	18	4070
2026-01-10 01:11:04.17	7.13	19.97	-29.5	-30.5	14.7	0.00e+00	0	42	0	252706816	19	4040
2026-01-10 01:11:05.17	7.04	20.09	-29.4	-30.2	14.7	0.00e+00	0	41	0	254803968	19	3964
2026-01-10 01:11:06.18	6.95	20.21	-29.5	-31.0	14.7	0.00e+00	0	42	0	256901120	18	4292
2026-01-10 01:11:07.19	6.86	20.34	-29.6	-30.7	14.5	0.00e+00	0	42	0	258998272	19	4090
2026-01-10 01:11:08.18	6.76	20.46	-29.8	-30.7	14.5	0.00e+00	0	42	0	260046848	20	3984
2026-01-10 01:11:09.18	6.67	20.58	-29.9	-30.9	14.4	3.80e-06	0	42	0	262144000	20	4031
2026-01-10 01:11:10.19	6.58	20.71	-30.0	-31.4	13.9	2.20e-06	0	42	0	264241152	20	4188
2026-01-10 01:11:11.19	6.49	20.83	-30.0	-31.3	13.6	1.06e-05	0	42	0	266338304	20	4189
2026-01-10 01:11:12.19	6.39	20.96	-29.9	-31.2	13.8	8.30e-06	0	42	0	268435456	20	4170
2026-01-10 01:11:13.20	6.30	21.09	-30.0	-31.4	13.5	9.90e-06	0	42	0	269484032	20	4240
2026-01-10 01:11:14.20	6.20	21.21	-30.4	-32.0	13.0	2.44e-05	0	42	0	271581184	21	4324
2026-01-10 01:11:15.20	6.10	21.34	-30.4	-32.2	13.6	1.14e-05	0	42	0	273678336	20	4436
2026-01-10 01:11:16.20	6.01	21.47	-30.0	-30.8	13.9	5.30e-06	0	42	0	275775488	21	3952
2026-01-10 01:11:17.20	5.91	21.60	-30.4	-31.9	13.3	6.10e-06	0	42	0	277872640	21	4253
2026-01-10 01:11:18.21	5.81	21.73	-30.3	-32.0	13.5	1.37e-05	0	42	0	278921216	20	4392
2026-01-10 01:11:19.21	5.71	21.86	-30.1	-31.7	13.3	9.90e-06	0	42	0	281018368	20	4326
2026-01-10 01:11:20.21	5.61	21.99	-30.2	-31.3	13.6	2.13e-05	0	42	0	283115520	21	4072
2026-01-10 01:11:21.21	5.50	22.12	-30.0	-31.2	14.0	6.10e-06	0	42	0	285212672	20	4137
2026-01-10 01:11:22.22	5.40	22.25	-30.2	-31.6	13.8	2.20e-06	0	42	0	287309824	20	4249
2026-01-10 01:11:23.22	5.30	22.38	-30.4	-31.7	13.6	2.13e-05	0	42	0	288358400	21	4194
2026-01-10 01:11:24.23	5.19	22.52	-30.0	-30.8	14.0	3.00e-06	0	42	0	290455552	21	3930
2026-01-10 01:11:25.23	5.09	22.65	-30.1	-31.4	13.9	6.10e-06	0	42	0	292552704	20	4183
2026-01-10 01:11:26.24	4.98	22.78	-29.9	-30.9	14.2	7.00e-07	0	42	0	294649856	20	4034
2026-01-10 01:11:27.24	4.87	22.92	-30.0	-31.2	14.2	1.50e-06	0	42	0	295698432	20	4119
2026-01-10 01:11:28.24	4.76	23.05	-29.8	-30.7	14.3	7.00e-07	0	42	0	297795584	20	3997
2026-01-10 01:11:29.24	4.65	23.19	-29.9	-30.9	14.1	2.20e-06	0	42	0	299892736	20	4056
2026-01-10 01:11:30.24	4.54	23.33	-30.4	-31.6	13.6	9.90e-06	0	42	0	301989888	21	4135
2026-01-10 01:11:31.24	4.43	23.46	-30.2	-31.1	13.8	8.30e-06	0	42	0	304087040	21	4013
2026-01-10 01:11:32.24	4.32	23.60	-30.4	-31.8	13.6	3.00e-06	0	42	0	305135616	21	4208
2026-01-10 01:11:33.25	4.20	23.74	-30.6	-32.2	13.4	1.50e-06	0	42	0	307232768	21	4308
2026-01-10 01:11:34.25	4.09	23.88	-30.4	-31.6	13.7	1.50e-06	0	42	0	309329920	21	4147
2026-01-10 01:11:35.26	3.97	24.02	-30.7	-32.3	13.4	9.90e-06	0	42	0	311427072	21	4345
2026-01-10 01:11:36.25	3.86	24.16	-30.7	-31.9	13.5	5.11e-05	0	42	0	313524224	22	4103
2026-01-10 01:11:37.25	3.74	24.30	-30.9	-32.5	13.1	2.44e-05	0	42	0	314572800	22	4298
2026-01-10 01:11:38.25	3.62	24.44	-31.3	-33.4	12.6	5.79e-05	0	42	0	316669952	22	4584
2026-01-10 01:11:39.25	3.50	24.58	-30.2	-32.0	12.6	5.49e-05	0	42	0	318767104	22	4430
2026-01-10 01:11:40.26	3.38	24.72	-30.9	-32.9	13.0	6.79e-05	0	42	0	320864256	21	4556
2026-01-10 01:11:41.26	3.26	24.87	-31.1	-33.0	11.6	4.42e-05	0	42	0	322961408	22	4476
2026-01-10 01:11:42.25	3.14	25.01	-30.8	-32.6	12.1	4.27e-05	0	42	0	324009984	21	4427
2026-01-10 01:11:43.26	3.01	25.15	-30.7	-32.3	13.3	9.90e-06	0	42	0	326107136	21	4352
2026-01-10 01:11:44.26	2.88	25.30	-30.5	-31.8	12.4	5.41e-05	0	42	0	328204288	21	4201
2026-01-10 01:11:45.26	2.76	25.44	-30.3	-32.0	12.8	2.21e-05	0	42	0	330301440	20	4358
2026-01-10 01:11:46.26	2.63	25.59	-30.2	-31.8	13.8	5.30e-06	0	42	0	331350016	20	4304
2026-01-10 01:11:47.26	2.50	25.74	-30.4	-32.0	13.7	5.30e-06	0	42	0	333447168	20	4341
2026-01-10 01:11:48.27	2.37	25.88	-30.3	-32.0	13.5	6.80e-06	0	42	0	335544320	20	4363
2026-01-10 01:11:49.28	2.24	26.03	-30.3	-31.4	13.5	2.21e-05	0	42	0	337641472	21	4107
2026-01-10 01:11:50.28	2.10	26.18	-30.6	-32.3	13.1	1.14e-05	0	42	0	339738624	21	4358
2026-01-10 01:11:51.28	1.97	26.33	-30.7	-32.5	13.1	2.21e-05	0	42	0	340787200	21	4422
2026-01-10 01:11:52.28	1.83	26.48	-30.5	-32.1	13.3	4.19e-05	0	42	0	342884352	21	4298
2026-01-10 01:11:53.28	1.70	26.63	-30.5	-32.0	13.2	3.20e-05	0	42	0	344981504	21	4293
2026-01-10 01:11:54.28	1.56	26.78	-30.8	-32.7	12.9	2.28e-05	0	42	0	347078656	21	4515
2026-01-10 01:11:55.28	1.42	26.94	-30.6	-32.2	13.2	2.89e-05	0	42	0	349175808	21	4333
2026-01-10 01:11:56.29	1.28	27.09	-30.6	-32.2	13.4	1.22e-05	0	42	0	350224384	21	4328
2026-01-10 01:11:57.28	1.14	27.24	-30.7	-32.4	13.2	2.82e-05	0	42	0	352321536	21	4377
2026-01-10 01:11:58.29	0.99	27.40	-30.5	-31.8	13.7	9.90e-06	0	42	0	354418688	21	4194
2026-01-10 01:11:59.29	0.84	27.55	-30.6	-32.2	13.5	6.10e-06	0	42	0	356515840	21	4297
2026-01-10 01:12:00.28	0.70	27.70	-30.5	-31.9	13.6	4.42e-05	0	42	0	358612992	21	4222
2026-01-10 01:12:01.29	0.55	27.86	-30.3	-31.4	13.8	9.90e-06	0	42	0	359661568	21	4076
2026-01-10 01:12:02.29	0.40	28.02	-30.8	-32.5	13.3	2.50e-03	0	42	0	361758720	21	4420
2026-01-10 01:12:03.29	0.25	28.18	-30.6	-32.2	13.5	8.30e-06	0	42	0	363855872	21	4302
2026-01-10 01:12:04.29	0.10	28.33	-30.4	-31.7	13.7	6.10e-06	0	42	0	365953024	21	4153
2026-01-10 01:12:05.30	359.94	28.49	-30.8	-32.8	12.9	2.51e-03	0	42	0	368050176	21	4514
2026-01-10 01:12:06.29	359.79	28.65	-30.7	-32.3	13.2	1.29e-05	0	42	0	369098752	21	4358
2026-01-10 01:12:07.29	359.63	28.81	-30.5	-31.9	13.5	2.28e-05	0	42	0	371195904	21	4210
2026-01-10 01:12:08.29	359.47	28.97	-30.3	-32.0	13.7	3.35e-05	0	42	0	373293056	20	4354
2026-01-10 01:12:09.29	359.31	29.13	-30.4	-32.2	13.6	2.37e-03	0	42	0	375390208	20	4422
2026-01-10 01:12:10.29	359.15	29.30	-30.7	-32.5	13.0	2.36e-05	0	42	0	376438784	21	4428
2026-01-10 01:12:11.29	358.98	29.46	-30.7	-32.5	12.9	7.17e-05	0	42	0	378535936	21	4446
2026-01-10 01:12:12.29	358.82	29.62	-31.0	-33.3	12.5	2.48e-03	0	42	0	380633088	21	4710
2026-01-10 01:12:13.30	358.65	29.79	-31.0	-32.9	12.3	1.58e-04	0	42	0	382730240	22	4472
2026-01-10 01:12:14.30	358.48	29.95	-30.7	-32.6	12.9	4.73e-05	0	42	0	384827392	21	4464
2026-01-10 01:12:15.30	358.31	30.12	-30.6	-32.3	13.0	4.80e-05	0	42	0	385875968	21	4386
2026-01-10 01:12:16.30	358.14	30.28	-30.9	-32.7	12.4	3.11e-04	0	42	0	387973120	22	4411
2026-01-10 01:12:17.30	357.96	30.45	-31.2	-33.5	11.9	2.11e-04	0	42	0	390070272	22	4696
2026-01-10 01:12:18.30	357.79	30.62	-31.2	-33.7	11.8	4.78e-04	0	42	0	392167424	22	4768
2026-01-10 01:12:19.30	357.61	30.78	-31.0	-32.8	12.4	2.84e-04	0	42	0	394264576	22	4443
2026-01-10 01:12:20.30	357.43	30.95	-31.0	-33.1	12.1	3.21e-04	0	42	0	395313152	22	4554
2026-01-10 01:12:21.30	357.25	31.12	-31.4	-34.1	11.4	4.02e-04	0	42	0	397410304	22	4911
2026-01-10 01:12:22.30	357.06	31.29	-31.4	-34.1	11.6	6.88e-04	0	42	0	399507456	22	4881
2026-01-10 01:12:23.30	356.88	31.46	-31.3	-33.9	11.6	2.58e-03	0	42	0	401604608	22	4833
2026-01-10 01:12:24.30	356.69	31.63	-31.7	-34.4	11.0	2.20e-03	0	42	0	402653184	23	4919
2026-01-10 01:12:25.30	356.50	31.81	-31.7	-34.4	11.0	1.46e-03	0	42	0	404750336	23	4950
2026-01-10 01:12:26.30	356.31	31.98	-31.8	-34.8	10.7	3.88e-03	0	42	0	406847488	23	5080
2026-01-10 01:12:27.30	356.11	32.15	-31.9	-35.2	10.3	5.20e-03	0	42	0	408944640	23	5294
2026-01-10 01:12:28.29	355.92	32.32	-32.1	-35.3	9.9	7.71e-03	0	42	0	411041792	24	5216
2026-01-10 01:12:29.30	355.72	32.50	-32.2	-36.0	9.3	8.50e-03	0	42	0	412090368	24	5526
2026-01-10 01:12:30.31	355.51	32.68	-31.9	-34.7	10.3	7.70e-03	0	42	0	414187520	24	4965
2026-01-10 01:12:31.31	355.31	32.85	-31.7	-34.2	10.7	4.89e-03	0	42	0	416284672	24	4781
2026-01-10 01:12:32.31	355.11	33.03	-31.8	-34.8	10.6	6.76e-03	0	42	0	418381824	23	5128
2026-01-10 01:12:33.32	354.90	33.21	-31.6	-34.5	10.7	4.69e-03	0	42	0	420478976	23	4998
2026-01-10 01:12:34.32	354.69	33.38	-31.8	-34.9	10.4	2.82e-03	0	42	0	421527552	23	5175
2026-01-10 01:12:35.32	354.48	33.56	-31.8	-35.0	10.4	3.98e-03	0	42	0	423624704	23	5224
2026-01-10 01:12:36.33	354.26	33.74	-32.0	-35.2	9.7	1.05e-02	0	42	0	425721856	24	5227
2026-01-10 01:12:37.32	354.04	33.92	-32.0	-35.4	9.6	1.44e-02	0	42	0	427819008	24	5300
2026-01-10 01:12:38.33	353.82	34.10	-31.9	-35.3	10.2	6.25e-03	0	42	0	429916160	23	5342
2026-01-10 01:12:39.32	353.60	34.28	-31.8	-34.9	10.5	5.51e-03	0	42	0	430964736	23	5184
2026-01-10 01:12:40.33	353.38	34.46	-31.5	-34.0	11.1	3.26e-03	0	42	0	433061888	23	4819
2026-01-10 01:12:41.33	353.15	34.64	-31.6	-34.4	10.8	1.93e-03	0	42	0	435159040	23	4982
2026-01-10 01:12:42.33	352.92	34.83	-31.8	-35.0	10.4	2.50e-03	0	42	0	437256192	23	5216
2026-01-10 01:12:43.33	352.69	35.01	-31.7	-34.8	10.5	4.15e-03	0	42	0	439353344	23	5137
2026-01-10 01:12:44.33	352.45	35.19	-31.7	-34.7	10.5	5.67e-03	0	42	0	440401920	23	5089
2026-01-10 01:12:45.33	352.22	35.38	-31.8	-35.0	10.3	4.54e-03	0	42	0	442499072	23	5227
2026-01-10 01:12:46.33	351.98	35.56	-31.6	-34.5	10.7	3.11e-03	0	42	0	444596224	23	4990
2026-01-10 01:12:47.33	351.73	35.74	-31.7	-34.9	10.4	7.51e-03	0	42	0	446693376	23	5163
2026-01-10 01:12:48.33	351.49	35.93	-31.5	-34.1	10.9	4.88e-03	0	42	0	447741952	23	4854
2026-01-10 01:12:49.34	351.24	36.12	-31.2	-33.1	11.5	1.39e-03	0	42	0	449839104	23	4495
2026-01-10 01:12:50.34	350.99	36.30	-31.1	-33.5	11.7	2.41e-03	0	42	0	451936256	22	4726
2026-01-10 01:12:51.35	350.73	36.49	-31.3	-33.2	11.6	7.57e-04	0	42	0	454033408	23	4528
2026-01-10 01:12:52.35	350.47	36.68	-31.4	-33.5	11.7	2.06e-03	0	42	0	456130560	23	4575
2026-01-10 01:12:53.35	350.21	36.86	-31.3	-33.2	11.6	2.03e-03	0	42	0	457179136	23	4516
2026-01-10 01:12:54.35	349.95	37.05	-32.0	-35.0	10.3	1.04e-02	0	42	0	459276288	24	5068
2026-01-10 01:12:55.36	349.68	37.24	-32.4	-35.7	9.6	1.97e-02	0	42	0	461373440	25	5271
2026-01-10 01:12:56.37	349.41	37.43	-32.3	-35.5	9.6	1.29e-02	0	42	0	463470592	25	5170
2026-01-10 01:12:57.37	349.13	37.62	-32.9	-37.2	7.9	4.91e-02	0	42	0	465567744	26	5907
2026-01-10 01:12:58.36	348.86	37.81	-32.5	-35.4	9.5	3.56e-02	0	42	0	466616320	26	5015
2026-01-10 01:12:59.36	348.58	38.00	-33.2	-38.6	6.9	3.14e-02	0	42	0	468713472	26	6725
2026-01-10 01:13:00.37	348.29	38.19	-33.1	-37.8	7.7	1.18e-01	0	42	0	470810624	26	6229
2026-01-10 01:13:01.37	348.01	38.38	-33.2	-38.3	7.3	8.85e-02	0	42	0	472907776	26	6464
2026-01-10 01:13:02.37	347.72	38.57	-32.9	-36.9	8.5	1.34e-01	0	42	0	475004928	26	5714
2026-01-10 01:13:03.37	347.43	38.76	-32.5	-36.1	9.2	2.36e-02	0	42	0	476053504	25	5432
2026-01-10 01:13:04.38	347.13	38.95	-32.1	-34.6	10.5	5.27e-03	0	42	0	478150656	25	4783
2026-01-10 01:13:05.38	346.83	39.14	-31.9	-34.9	10.9	1.88e-03	0	42	0	480247808	23	5094
2026-01-10 01:13:06.38	346.52	39.33	-32.0	-34.7	10.8	1.93e-03	0	42	0	482344960	24	4927
2026-01-10 01:13:07.39	346.21	39.52	-32.3	-35.9	9.6	1.38e-02	0	42	0	484442112	24	5464
2026-01-10 01:13:08.39	345.90	39.72	-32.0	-35.0	10.3	1.03e-02	0	42	0	485490688	24	5062
2026-01-10 01:13:09.40	345.59	39.91	-31.6	-34.3	11.2	2.14e-03	0	42	0	487587840	23	4912
2026-01-10 01:13:10.40	345.27	40.10	-31.2	-33.1	12.0	4.98e-04	0	42	0	489684992	23	4498
2026-01-10 01:13:11.40	344.95	40.29	-31.8	-34.3	10.8	2.48e-03	0	42	0	491782144	24	4813
2026-01-10 01:13:12.40	344.62	40.48	-31.3	-33.6	12.2	2.39e-03	0	42	0	493879296	22	4719
2026-01-10 01:13:13.40	344.29	40.67	-31.0	-32.7	12.8	1.94e-04	0	42	0	494927872	22	4386
2026-01-10 01:13:14.40	343.96	40.86	-31.0	-32.8	12.6	2.50e-03	0	42	0	497025024	22	4443
2026-01-10 01:13:15.40	343.62	41.05	-30.8	-32.8	12.9	2.23e-03	0	42	0	499122176	21	4551
2026-01-10 01:13:16.41	343.27	41.25	-31.6	-33.4	11.7	6.45e-04	0	42	0	501219328	24	4430
2026-01-10 01:13:17.41	342.93	41.44	-32.0	-35.1	10.9	3.77e-03	0	42	0	502267904	23	5164
2026-01-10 01:13:18.41	342.58	41.63	-32.3	-35.7	10.2	7.31e-03	0	42	0	504365056	24	5300
2026-01-10 01:13:19.41	342.22	41.82	-32.3	-36.0	9.7	6.91e-03	0	42	0	506462208	24	5469
2026-01-10 01:13:20.42	341.86	42.01	-32.3	-36.0	9.7	1.84e-02	0	42	0	508559360	24	5514
2026-01-10 01:13:21.42	341.50	42.20	-31.9	-34.7	10.4	1.37e-02	0	42	0	510656512	24	4987
2026-01-10 01:13:22.42	341.13	42.39	-31.6	-33.9	11.0	6.50e-03	0	42	0	511705088	24	4685
2026-01-10 01:13:23.42	340.76	42.58	-31.5	-34.0	11.3	1.34e-03	0	42	0	513802240	23	4787
2026-01-10 01:13:24.42	340.38	42.76	-31.3	-33.5	11.6	2.99e-03	0	42	0	515899392	23	4627
2026-01-10 01:13:25.43	340.00	42.95	-31.4	-33.6	11.4	1.07e-03	0	42	0	517996544	23	4685
2026-01-10 01:13:26.43	339.61	43.14	-31.8	-35.0	10.7	3.48e-03	0	42	0	520093696	23	5182
2026-01-10 01:13:27.43	339.22	43.33	-32.2	-35.5	9.9	5.12e-03	0	42	0	521142272	24	5305
2026-01-10 01:13:28.43	338.83	43.51	-32.0	-34.6	10.3	3.97e-03	0	42	0	523239424	25	4840
2026-01-10 01:13:29.43	338.43	43.70	-32.5	-36.2	9.3	1.48e-02	0	42	0	525336576	25	5488
2026-01-10 01:13:30.44	338.02	43.89	-32.5	-36.1	9.1	2.48e-02	0	42	0	527433728	25	5477
2026-01-10 01:13:31.44	337.61	44.07	-32.2	-34.9	10.1	1.09e-02	0	42	0	529530880	25	4941
2026-01-10 01:13:32.45	337.20	44.26	-32.3	-35.7	10.0	7.39e-03	0	42	0	530579456	24	5354
2026-01-10 01:13:33.44	336.78	44.44	-32.5	-36.2	9.1	1.14e-02	0	42	0	532676608	25	5517
2026-01-10 01:13:34.44	336.36	44.62	-32.5	-36.4	8.9	2.38e-02	0	42	0	534773760	25	5635
2026-01-10 01:13:35.45	335.93	44.80	-32.4	-36.1	9.0	3.10e-02	0	42	0	536870912	25	5489
2026-01-10 01:13:36.46	335.49	44.98	-32.2	-36.1	9.4	2.50e-02	0	42	0	538968064	24	5604
2026-01-10 01:13:37.46	335.05	45.16	-32.2	-35.8	9.6	1.51e-02	0	42	0	540016640	24	5474
2026-01-10 01:13:38.46	334.61	45.34	-32.2	-35.8	9.7	1.52e-02	0	42	0	542113792	24	5476
2026-01-10 01:13:39.46	334.16	45.52	-32.1	-35.6	9.6	1.39e-02	0	42	0	544210944	24	5396
2026-01-10 01:13:40.46	333.71	45.69	-31.9	-34.9	9.9	1.15e-02	0	42	0	546308096	24	5097
2026-01-10 01:13:41.47	333.25	45.87	-31.7	-34.0	10.9	3.81e-03	0	42	0	547356672	24	4726
2026-01-10 01:13:42.47	332.79	46.04	-31.2	-32.9	11.9	1.07e-03	0	42	0	549453824	23	4401
2026-01-10 01:13:43.47	332.32	46.21	-31.1	-32.7	12.3	1.98e-04	0	42	0	551550976	23	4328
2026-01-10 01:13:44.48	331.84	46.38	-31.2	-32.9	12.1	6.47e-04	0	42	0	553648128	23	4379
2026-01-10 01:13:45.47	331.37	46.55	-31.4	-34.0	11.6	1.27e-03	0	42	0	555745280	22	4879
2026-01-10 01:13:46.48	330.88	46.72	-31.2	-33.6	11.8	3.84e-04	0	42	0	556793856	22	4748
2026-01-10 01:13:47.48	330.39	46.88	-31.9	-35.2	10.3	2.73e-03	0	42	0	558891008	23	5283
2026-01-10 01:13:48.48	329.90	47.05	-32.3	-36.1	9.2	1.64e-02	0	42	0	560988160	24	5621
2026-01-10 01:13:49.48	329.40	47.21	-32.0	-35.4	9.7	1.58e-02	0	42	0	563085312	24	5289
2026-01-10 01:13:50.48	328.89	47.37	-31.5	-33.9	11.0	8.41e-03	0	42	0	565182464	23	4773
2026-01-10 01:13:51.49	328.38	47.53	-30.9	-32.6	12.4	9.61e-05	0	42	0	566231040	22	4387
2026-01-10 01:13:52.49	327.86	47.68	-30.6	-31.9	12.9	7.62e-05	0	42	0	568328192	22	4173
2026-01-10 01:13:53.50	327.34	47.84	-31.0	-32.9	12.3	6.93e-04	0	42	0	570425344	22	4497
2026-01-10 01:13:54.49	326.82	47.99	-31.4	-33.8	11.5	4.20e-03	0	42	0	572522496	23	4699
2026-01-10 01:13:55.49	326.29	48.14	-31.7	-34.7	10.7	3.72e-03	0	42	0	574619648	23	5090
2026-01-10 01:13:56.50	325.75	48.29	-31.1	-32.7	12.0	3.28e-03	0	42	0	575668224	23	4347
2026-01-10 01:13:57.50	325.21	48.44	-30.5	-31.6	13.2	1.96e-03	0	42	0	577765376	22	4089
2026-01-10 01:13:58.50	324.66	48.58	-30.3	-31.5	13.6	7.60e-06	0	42	0	579862528	21	4151
2026-01-10 01:13:59.50	324.11	48.72	-30.2	-31.9	13.8	1.34e-03	0	42	0	581959680	20	4344
2026-01-10 01:14:00.51	323.55	48.86	-30.5	-32.0	13.2	7.63e-04	0	42	0	584056832	21	4319
2026-01-10 01:14:01.51	322.99	49.00	-31.2	-33.7	11.8	9.68e-05	0	42	0	585105408	22	4801
2026-01-10 01:14:02.51	322.42	49.13	-31.2	-34.0	11.4	2.12e-03	0	42	0	587202560	22	4951
2026-01-10 01:14:03.52	321.84	49.26	-31.1	-33.3	12.1	1.65e-03	0	42	0	589299712	22	4662
2026-01-10 01:14:04.52	321.27	49.39	-30.5	-31.6	13.0	4.04e-05	0	42	0	591396864	22	4104
2026-01-10 01:14:05.52	320.69	49.52	-30.7	-32.3	12.7	9.76e-04	0	42	0	592445440	22	4305
2026-01-10 01:14:06.52	320.10	49.64	-30.6	-31.9	12.9	2.60e-04	0	42	0	594542592	22	4174
2026-01-10 01:14:07.53	319.51	49.76	-30.3	-31.9	13.0	7.47e-05	0	42	0	596639744	21	4304
2026-01-10 01:14:08.53	318.91	49.87	-30.6	-32.6	12.9	3.50e-05	0	42	0	598736896	21	4518
2026-01-10 01:14:09.54	318.31	49.99	-31.3	-34.1	11.4	2.49e-04	0	42	0	600834048	22	4995
2026-01-10 01:14:10.54	317.70	50.10	-32.0	-36.1	9.5	2.86e-03	0	42	0	601882624	23	5771
2026-01-10 01:14:11.54	317.09	50.21	-32.4	-37.4	7.4	3.94e-02	0	42	0	603979776	25	6386
2026-01-10 01:14:12.54	316.48	50.31	-32.3	-36.7	8.1	7.36e-02	0	42	0	606076928	25	5977
2026-01-10 01:14:13.54	315.86	50.41	-31.9	-34.8	9.6	2.34e-02	0	42	0	608174080	25	5018
2026-01-10 01:14:14.55	315.24	50.51	-31.5	-34.2	10.7	6.90e-03	0	42	0	610271232	23	4962
2026-01-10 01:14:15.54	314.62	50.60	-31.8	-35.2	10.3	4.31e-03	0	42	0	611319808	23	5342
2026-01-10 01:14:16.54	313.99	50.69	-31.4	-33.9	11.0	4.53e-03	0	42	0	613416960	23	4798
2026-01-10 01:14:17.54	313.36	50.78	-31.1	-32.9	11.8	7.67e-04	0	42	0	615514112	23	4434
2026-01-10 01:14:18.54	312.72	50.86	-31.0	-33.1	12.1	2.84e-04	0	42	0	617611264	22	4600
2026-01-10 01:14:19.53	312.09	50.94	-31.2	-33.8	11.6	4.01e-04	0	42	0	619708416	22	4876
2026-01-10 01:14:20.53	311.44	51.02	-31.5	-34.7	10.3	1.45e-03	0	42	0	620756992	23	5171
2026-01-10 01:14:21.53	310.80	51.09	-31.8	-35.6	9.6	8.29e-03	0	42	0	622854144	23	5613
2026-01-10 01:14:22.53	310.15	51.16	-31.3	-33.9	10.7	6.81e-03	0	42	0	624951296	23	4862
2026-01-10 01:14:23.54	309.49	51.23	-30.6	-32.2	12.3	1.01e-03	0	42	0	627048448	22	4352
2026-01-10 01:14:24.54	308.83	51.29	-29.9	-30.9	13.6	4.36e-04	0	42	0	629145600	21	4033
2026-01-10 01:14:25.55	308.17	51.35	-30.0	-31.0	13.6	1.83e-05	0	42	0	630194176	21	4035
2026-01-10 01:14:26.55	307.51	51.40	-30.2	-32.1	13.2	3.71e-04	0	42	0	632291328	20	4473
2026-01-10 01:14:27.56	306.84	51.45	-29.7	-30.7	14.1	4.32e-04	0	42	0	634388480	20	4052
2026-01-10 01:14:28.55	306.18	51.49	-28.9	-29.3	15.2	0.00e+00	0	42	0	636485632	19	3733
2026-01-10 01:14:29.55	305.52	51.54	-29.5	-30.6	14.5	0.00e+00	0	42	0	637534208	19	4089
2026-01-10 01:14:30.55	304.85	51.57	-29.4	-30.4	14.8	4.09e-04	0	42	0	639631360	19	4025
2026-01-10 01:14:31.56	304.17	51.61	-28.9	-29.2	15.4	0.00e+00	0	42	0	641728512	19	3702
2026-01-10 01:14:32.56	303.50	51.64	-28.3	-28.6	16.2	0.00e+00	0	42	0	643825664	17	3750
2026-01-10 01:14:33.55	302.83	51.66	-28.0	-28.4	16.4	1.32e-03	0	42	0	645922816	16	3802
2026-01-10 01:14:34.55	302.16	51.68	-27.8	-28.0	16.7	0.00e+00	0	42	0	646971392	16	3699
2026-01-10 01:14:35.55	301.49	51.70	-27.9	-28.3	16.6	4.07e-04	0	42	0	649068544	16	3754
2026-01-10 01:14:36.55	300.81	51.71	-28.5	-29.2	15.7	3.06e-04	0	42	0	651165696	17	3921
2026-01-10 01:14:37.55	300.14	51.72	-28.9	-30.1	15.3	0.00e+00	0	42	0	653262848	17	4162
2026-01-10 01:14:38.54	299.47	51.73	-28.9	-29.6	15.3	4.88e-05	0	42	0	655360000	18	3913
2026-01-10 01:14:39.55	298.78	51.73	-28.6	-29.0	15.6	0.00e+00	0	42	0	656408576	18	3745
2026-01-10 01:14:40.55	298.11	51.72	-30.0	-31.4	13.6	0.00e+00	0	42	0	658505728	20	4242
2026-01-10 01:14:41.55	297.43	51.71	-29.9	-31.1	13.7	3.00e-06	0	42	0	660602880	20	4179
2026-01-10 01:14:42.55	296.76	51.70	-29.9	-31.4	13.5	3.80e-06	0	42	0	662700032	20	4273
2026-01-10 01:14:43.55	296.08	51.69	-29.7	-30.7	13.9	6.80e-06	0	42	0	663748608	20	4049
2026-01-10 01:14:44.55	295.41	51.67	-29.5	-30.3	14.2	4.50e-06	0	42	0	665845760	20	3943
2026-01-10 01:14:45.56	294.73	51.64	-29.7	-30.7	14.0	1.50e-06	0	42	0	667942912	20	4034
2026-01-10 01:14:46.56	294.06	51.61	-30.3	-32.3	13.2	1.37e-05	0	42	0	670040064	20	4507
2026-01-10 01:14:47.56	293.39	51.58	-29.8	-30.8	14.3	5.16e-04	0	42	0	672137216	20	4058
2026-01-10 01:14:48.56	292.72	51.54	-29.9	-31.7	13.9	4.20e-04	0	42	0	673185792	19	4396
2026-01-10 01:14:49.56	292.05	51.50	-30.2	-32.0	13.5	0.00e+00	0	42	0	675282944	20	4438
2026-01-10 01:14:50.56	291.38	51.46	-30.0	-31.4	13.6	7.01e-05	0	42	0	677380096	20	4247
2026-01-10 01:14:51.56	290.72	51.41	-29.3	-29.7	14.5	1.37e-04	0	42	0	679477248	20	3786
2026-01-10 01:14:52.56	290.06	51.35	-29.3	-30.3	14.6	7.00e-07	0	42	0	681574400	19	4028
2026-01-10 01:14:53.56	289.40	51.30	-29.3	-30.3	14.5	7.00e-07	0	42	0	682622976	19	4019
2026-01-10 01:14:54.57	288.74	51.24	-29.4	-31.1	14.3	2.74e-04	0	42	0	684720128	18	4357
2026-01-10 01:14:55.56	288.09	51.17	-29.7	-31.3	14.2	1.50e-06	0	42	0	686817280	19	4313
2026-01-10 01:14:56.56	287.44	51.10	-29.7	-31.1	14.1	1.06e-05	0	42	0	688914432	19	4256
2026-01-10 01:14:57.56	286.80	51.03	-29.6	-30.9	14.1	0.00e+00	0	42	0	691011584	19	4190
2026-01-10 01:14:58.56	286.15	50.96	-29.0	-29.3	15.2	0.00e+00	0	42	0	692060160	19	3745
2026-01-10 01:14:59.56	285.51	50.88	-29.6	-30.8	14.5	4.00e-04	0	42	0	694157312	19	4126
2026-01-10 01:15:00.56	284.87	50.79	-30.6	-32.4	12.8	2.67e-05	0	42	0	696254464	21	4468
2026-01-10 01:15:01.56	284.24	50.71	-31.4	-33.9	11.2	9.89e-04	0	42	0	698351616	23	4792
2026-01-10 01:15:02.57	283.60	50.62	-31.1	-33.0	11.6	1.96e-03	0	42	0	699400192	23	4488
2026-01-10 01:15:03.57	282.98	50.52	-30.8	-32.6	12.2	4.50e-04	0	42	0	701497344	22	4446
2026-01-10 01:15:04.56	282.36	50.43	-30.9	-33.2	11.8	3.74e-04	0	42	0	703594496	22	4675
2026-01-10 01:15:05.56	281.74	50.33	-30.8	-32.5	12.1	1.84e-03	0	42	0	705691648	22	4417
2026-01-10 01:15:06.57	281.12	50.22	-30.7	-33.0	12.3	2.11e-03	0	42	0	707788800	21	4660
2026-01-10 01:15:07.57	280.51	50.11	-30.4	-31.9	13.0	6.25e-05	0	42	0	708837376	21	4297
2026-01-10 01:15:08.57	279.91	50.00	-30.4	-32.0	13.2	2.38e-03	0	42	0	710934528	21	4313
2026-01-10 01:15:09.57	279.31	49.89	-30.6	-32.5	12.7	2.90e-03	0	42	0	713031680	21	4491
2026-01-10 01:15:10.57	278.71	49.77	-30.8	-33.2	12.3	7.24e-05	0	42	0	715128832	21	4714
2026-01-10 01:15:11.57	278.12	49.65	-30.5	-32.4	12.6	2.10e-03	0	42	0	717225984	21	4463
2026-01-10 01:15:12.57	277.53	49.53	-30.3	-32.4	12.9	1.85e-03	0	42	0	718274560	20	4545
2026-01-10 01:15:13.56	276.96	49.41	-30.6	-32.6	12.4	5.87e-05	0	42	0	720371712	21	4548
2026-01-10 01:15:14.56	276.38	49.28	-30.5	-32.5	12.5	1.44e-04	0	42	0	722468864	21	4512
2026-01-10 01:15:15.57	275.80	49.15	-30.5	-32.8	12.7	1.71e-03	0	42	0	724566016	20	4704
2026-01-10 01:15:16.57	275.23	49.02	-31.1	-33.6	11.4	2.62e-04	0	42	0	725614592	22	4829
2026-01-10 01:15:17.57	274.67	48.88	-31.4	-34.8	10.5	3.11e-03	0	42	0	727711744	22	5336
2026-01-10 01:15:18.57	274.11	48.74	-31.3	-33.8	10.9	5.08e-03	0	42	0	729808896	23	4812
2026-01-10 01:15:19.57	273.56	48.60	-30.3	-31.3	12.8	3.38e-04	0	42	0	731906048	22	4058
2026-01-10 01:15:20.56	273.02	48.46	-30.3	-32.2	13.0	5.37e-04	0	42	0	734003200	20	4494
2026-01-10 01:15:21.56	272.47	48.31	-30.6	-32.6	12.5	8.54e-05	0	42	0	735051776	21	4544
2026-01-10 01:15:22.56	271.94	48.17	-30.4	-32.0	12.9	2.36e-05	0	42	0	737148928	21	4327
2026-01-10 01:15:23.56	271.40	48.02	-30.4	-32.5	12.8	1.25e-03	0	42	0	739246080	20	4603
2026-01-10 01:15:24.56	270.88	47.86	-30.4	-32.2	12.7	6.63e-05	0	42	0	741343232	21	4402
2026-01-10 01:15:25.56	270.35	47.71	-30.5	-32.4	12.4	8.01e-05	0	42	0	743440384	21	4497
2026-01-10 01:15:26.57	269.83	47.55	-31.0	-33.5	11.5	2.59e-03	0	42	0	744488960	22	4791
2026-01-10 01:15:27.57	269.32	47.39	-31.1	-33.7	11.3	9.26e-04	0	42	0	746586112	22	4871
2026-01-10 01:15:28.57	268.81	47.23	-30.7	-32.6	12.0	3.59e-04	0	42	0	748683264	22	4467
2026-01-10 01:15:29.57	268.31	47.07	-30.5	-32.4	12.5	2.36e-03	0	42	0	750780416	21	4474
2026-01-10 01:15:30.58	267.81	46.91	-30.6	-32.7	12.3	1.63e-03	0	42	0	752877568	21	4600
2026-01-10 01:15:31.58	267.32	46.74	-30.7	-33.0	12.1	3.00e-04	0	42	0	753926144	21	4682
2026-01-10 01:15:32.59	266.83	46.57	-30.3	-31.8	12.9	4.51e-04	0	42	0	756023296	21	4292
2026-01-10 01:15:33.59	266.35	46.40	-30.0	-31.1	13.4	2.08e-04	0	42	0	758120448	21	4055
2026-01-10 01:15:34.59	265.88	46.23	-30.3	-31.8	12.9	3.58e-05	0	42	0	760217600	21	4293
2026-01-10 01:15:35.59	265.41	46.06	-30.6	-32.9	11.9	2.11e-04	0	42	0	762314752	21	4654
2026-01-10 01:15:36.60	264.94	45.89	-31.3	-34.3	10.8	8.57e-04	0	42	0	763363328	22	5118
2026-01-10 01:15:37.60	264.48	45.71	-31.1	-33.9	11.1	2.40e-03	0	42	0	765460480	22	4923
2026-01-10 01:15:38.60	264.02	45.54	-31.0	-33.3	11.4	9.06e-04	0	42	0	767557632	22	4725
2026-01-10 01:15:39.61	263.57	45.36	-30.3	-31.8	12.9	5.33e-04	0	42	0	769654784	21	4299
2026-01-10 01:15:40.61	263.12	45.18	-30.9	-33.5	11.7	9.84e-05	0	42	0	771751936	21	4894
2026-01-10 01:15:41.62	262.68	45.00	-31.3	-34.3	10.9	1.42e-03	0	42	0	772800512	22	5080
2026-01-10 01:15:42.61	262.25	44.82	-31.6	-34.8	10.2	4.58e-03	0	42	0	774897664	23	5196
2026-01-10 01:15:43.61	261.82	44.64	-31.0	-32.9	11.7	1.85e-03	0	42	0	776994816	23	4442
2026-01-10 01:15:44.60	261.40	44.46	-30.8	-32.5	12.2	1.97e-03	0	42	0	779091968	22	4410
2026-01-10 01:15:45.60	260.98	44.28	-30.3	-31.8	13.0	7.01e-05	0	42	0	780140544	21	4248
2026-01-10 01:15:46.60	260.57	44.09	-30.0	-31.0	13.5	1.98e-05	0	42	0	782237696	21	4014
2026-01-10 01:15:47.60	260.16	43.91	-29.6	-30.5	14.0	2.06e-03	0	42	0	784334848	20	3965
2026-01-10 01:15:48.61	259.75	43.72	-29.8	-31.4	13.8	2.20e-06	0	42	0	786432000	19	4318
2026-01-10 01:15:49.61	259.35	43.54	-29.6	-30.9	14.1	2.20e-06	0	42	0	788529152	19	4175
2026-01-10 01:15:50.61	258.95	43.35	-30.0	-31.4	13.3	2.27e-03	0	42	0	789577728	20	4264
2026-01-10 01:15:51.61	258.56	43.16	-30.1	-31.8	13.1	1.95e-03	0	42	0	791674880	20	4372
2026-01-10 01:15:52.61	258.17	42.97	-29.9	-31.3	13.4	3.58e-05	0	42	0	793772032	20	4232
2026-01-10 01:15:53.60	257.79	42.79	-29.7	-30.8	13.7	1.41e-03	0	42	0	795869184	20	4086
2026-01-10 01:15:54.60	257.41	42.60	-29.8	-30.9	13.6	1.39e-03	0	42	0	797966336	20	4111
2026-01-10 01:15:55.60	257.04	42.41	-30.0	-31.5	13.3	9.10e-06	0	42	0	799014912	20	4293
2026-01-10 01:15:56.59	256.68	42.22	-30.2	-32.2	12.8	3.96e-05	0	42	0	801112064	20	4530
2026-01-10 01:15:57.59	256.31	42.03	-30.7	-33.1	11.8	2.70e-03	0	42	0	803209216	21	4764
2026-01-10 01:15:58.59	255.95	41.84	-31.3	-34.5	10.6	2.87e-03	0	42	0	805306368	22	5197
2026-01-10 01:15:59.59	255.59	41.65	-31.3	-34.0	10.2	3.55e-03	0	42	0	806354944	23	4902
2026-01-10 01:16:00.60	255.24	41.46	-31.7	-35.3	9.6	1.67e-02	0	42	0	808452096	23	5459
2026-01-10 01:16:01.59	254.89	41.27	-31.6	-35.1	9.7	1.18e-02	0	42	0	810549248	23	5377
2026-01-10 01:16:02.60	254.55	41.08	-31.4	-34.4	10.4	6.96e-03	0	42	0	812646400	23	5053
2026-01-10 01:16:03.60	254.21	40.88	-31.4	-34.0	10.7	2.92e-03	0	42	0	814743552	23	4869
2026-01-10 01:16:04.61	253.87	40.69	-31.3	-33.8	10.8	4.49e-03	0	42	0	815792128	23	4806
2026-01-10 01:16:05.61	253.54	40.50	-31.0	-33.5	11.5	9.31e-04	0	42	0	817889280	22	4758
2026-01-10 01:16:06.61	253.21	40.31	-31.1	-33.6	11.3	1.48e-03	0	42	0	819986432	22	4825
2026-01-10 01:16:07.61	252.89	40.12	-31.0	-33.3	11.3	1.16e-03	0	42	0	822083584	22	4716
2026-01-10 01:16:08.60	252.57	39.93	-31.1	-33.8	11.1	2.85e-03	0	42	0	824180736	22	4908
2026-01-10 01:16:09.60	252.25	39.73	-31.5	-34.5	10.3	4.67e-03	0	42	0	825229312	23	5097
2026-01-10 01:16:10.60	251.94	39.54	-31.7	-35.2	9.8	9.07e-03	0	42	0	827326464	23	5397
2026-01-10 01:16:11.61	251.63	39.35	-31.5	-34.4	10.4	1.03e-02	0	42	0	829423616	23	5048
2026-01-10 01:16:12.60	251.33	39.16	-31.9	-35.2	9.6	1.51e-02	0	42	0	831520768	24	5265
2026-01-10 01:16:13.60	251.02	38.97	-31.8	-35.0	9.7	2.14e-02	0	42	0	833617920	24	5163
2026-01-10 01:16:14.60	250.73	38.78	-32.0	-35.5	9.3	2.08e-02	0	42	0	834666496	24	5419
2026-01-10 01:16:15.60	250.43	38.59	-32.3	-36.9	8.2	2.34e-02	0	42	0	836763648	24	6109
2026-01-10 01:16:16.60	250.14	38.40	-32.7	-38.0	7.0	1.23e-01	0	42	0	838860800	25	6640
2026-01-10 01:16:17.61	249.85	38.20	-32.9	-39.4	6.0	1.95e-01	0	42	0	840957952	25	7571
2026-01-10 01:16:18.60	249.57	38.01	-33.0	-39.5	5.7	3.63e-01	0	42	0	842006528	26	7636
2026-01-10 01:16:19.60	249.29	37.83	-33.0	-39.1	5.9	4.01e-01	0	42	0	844103680	26	7295
2026-01-10 01:16:20.60	249.01	37.64	-32.9	-39.3	6.1	3.10e-01	0	42	0	846200832	25	7513
2026-01-10 01:16:21.60	248.74	37.45	-32.9	-39.5	5.9	2.63e-01	0	42	0	848297984	25	7681
2026-01-10 01:16:22.61	248.46	37.26	-32.9	-39.4	6.0	3.08e-01	0	42	0	850395136	25	7598
2026-01-10 01:16:23.60	248.20	37.07	-33.1	-39.8	5.6	3.45e-01	0	42	0	851443712	26	7794
2026-01-10 01:16:24.60	247.93	36.88	-33.1	-39.7	5.7	4.58e-01	0	42	0	853540864	26	7701
2026-01-10 01:16:25.60	247.67	36.69	-32.9	-38.3	6.3	3.90e-01	0	42	0	855638016	26	6761
2026-01-10 01:16:26.60	247.41	36.50	-32.6	-37.6	7.3	1.27e-01	0	42	0	857735168	25	6363
2026-01-10 01:16:27.60	247.15	36.32	-32.7	-38.0	7.3	1.15e-01	0	42	0	859832320	25	6608
2026-01-10 01:16:28.60	246.90	36.13	-32.4	-36.5	8.1	7.62e-02	0	42	0	860880896	25	5790
2026-01-10 01:16:29.60	246.65	35.94	-32.4	-36.5	8.1	6.82e-02	0	42	0	862978048	25	5792
2026-01-10 01:16:30.60	246.40	35.76	-32.2	-36.3	8.6	2.52e-02	0	42	0	865075200	24	5784
2026-01-10 01:16:31.60	246.16	35.57	-32.5	-37.4	8.1	4.44e-02	0	42	0	867172352	24	6327
2026-01-10 01:16:32.60	245.92	35.39	-32.4	-36.6	8.2	1.11e-01	0	42	0	868220928	25	5809
2026-01-10 01:16:33.60	245.68	35.20	-32.6	-37.5	7.5	6.74e-02	0	42	0	870318080	25	6307
2026-01-10 01:16:34.60	245.44	35.02	-32.6	-37.3	7.7	9.89e-02	0	42	0	872415232	25	6174
2026-01-10 01:16:35.60	245.21	34.84	-32.8	-38.3	6.7	1.12e-01	0	42	0	874512384	25	6820
2026-01-10 01:16:36.61	244.98	34.65	-32.7	-37.8	7.2	1.11e-01	0	42	0	876609536	25	6467
2026-01-10 01:16:37.61	244.75	34.47	-32.9	-39.0	6.3	1.75e-01	0	42	0	877658112	25	7314
2026-01-10 01:16:38.60	244.52	34.29	-32.9	-38.1	6.6	3.37e-01	0	42	0	879755264	26	6569
2026-01-10 01:16:39.61	244.30	34.11	-32.9	-39.0	6.3	2.26e-01	0	42	0	881852416	25	7273
2026-01-10 01:16:40.61	244.08	33.93	-32.8	-38.7	6.6	1.88e-01	0	42	0	883949568	25	7029
2026-01-10 01:16:41.62	243.86	33.74	-32.8	-38.3	6.9	2.33e-01	0	42	0	886046720	25	6792
2026-01-10 01:16:42.62	243.64	33.57	-32.5	-37.1	7.7	1.18e-01	0	42	0	887095296	25	6077
2026-01-10 01:16:43.62	243.43	33.39	-32.0	-34.8	9.4	3.68e-02	0	42	0	889192448	25	5000
2026-01-10 01:16:44.61	243.22	33.21	-31.8	-35.3	9.8	1.22e-02	0	42	0	891289600	23	5358
2026-01-10 01:16:45.62	243.01	33.03	-31.5	-34.0	10.9	4.27e-03	0	42	0	893386752	23	4821
2026-01-10 01:16:46.62	242.80	32.85	-31.3	-33.4	11.2	2.53e-03	0	42	0	895483904	23	4620
2026-01-10 01:16:47.61	242.60	32.68	-30.8	-32.6	12.1	3.59e-04	0	42	0	896532480	22	4402
2026-01-10 01:16:48.62	242.39	32.50	-30.6	-32.3	12.6	1.42e-04	0	42	0	898629632	21	4415
2026-01-10 01:16:49.61	242.20	32.33	-30.0	-30.9	13.6	2.21e-05	0	42	0	900726784	21	3970
2026-01-10 01:16:50.61	242.00	32.15	-30.7	-32.8	12.3	1.02e-04	0	42	0	902823936	21	4581
2026-01-10 01:16:51.61	241.80	31.98	-31.0	-33.2	11.7	4.51e-04	0	42	0	903872512	22	4619
2026-01-10 01:16:52.61	241.61	31.81	-31.6	-34.6	10.4	3.89e-03	0	42	0	905969664	23	5086
2026-01-10 01:16:53.61	241.42	31.63	-32.3	-36.8	8.2	2.32e-02	0	42	0	908066816	24	6022
2026-01-10 01:16:54.62	241.23	31.46	-32.3	-36.9	8.1	4.78e-02	0	42	0	910163968	24	6094
2026-01-10 01:16:55.62	241.04	31.29	-31.8	-34.9	9.7	4.08e-02	0	42	0	912261120	24	5147
2026-01-10 01:16:56.62	240.86	31.12	-31.1	-33.0	11.3	5.29e-03	0	42	0	913309696	23	4492
2026-01-10 01:16:57.62	240.67	30.95	-30.7	-32.2	12.3	1.69e-04	0	42	0	915406848	22	4307
2026-01-10 01:16:58.62	240.49	30.78	-30.0	-30.8	13.6	3.20e-05	0	42	0	917504000	21	3968
2026-01-10 01:16:59.62	240.31	30.61	-29.9	-31.1	13.7	1.90e-05	0	42	0	919601152	20	4131
2026-01-10 01:17:00.63	240.13	30.44	-30.0	-31.4	13.6	3.00e-06	0	42	0	921698304	20	4214
2026-01-10 01:17:01.63	239.96	30.27	-30.2	-31.9	13.1	4.34e-05	0	42	0	922746880	20	4363
2026-01-10 01:17:02.64	239.78	30.10	-30.4	-32.4	12.8	2.89e-05	0	42	0	924844032	20	4558
2026-01-10 01:17:03.64	239.61	29.94	-30.9	-33.4	11.8	1.06e-04	0	42	0	926941184	21	4798
2026-01-10 01:17:04.64	239.44	29.77	-31.1	-33.6	11.3	5.89e-04	0	42	0	929038336	22	4789
2026-01-10 01:17:05.64	239.27	29.61	-31.5	-34.4	10.2	3.49e-03	0	42	0	931135488	23	5039
2026-01-10 01:17:06.64	239.10	29.44	-31.4	-33.9	10.8	5.05e-03	0	42	0	932184064	23	4809
2026-01-10 01:17:07.64	238.94	29.28	-31.4	-34.0	10.6	3.68e-03	0	42	0	934281216	23	4851
2026-01-10 01:17:08.64	238.77	29.12	-31.1	-33.2	11.1	1.83e-03	0	42	0	936378368	23	4563
2026-01-10 01:17:09.64	238.61	28.96	-30.8	-32.3	11.8	4.38e-04	0	42	0	938475520	23	4242
2026-01-10 01:17:10.64	238.45	28.79	-30.5	-31.6	12.6	2.31e-04	0	42	0	940572672	22	4130
2026-01-10 01:17:11.64	238.29	28.63	-30.4	-31.9	12.8	3.58e-05	0	42	0	941621248	21	4295
2026-01-10 01:17:12.63	238.14	28.47	-30.2	-31.5	13.0	7.78e-05	0	42	0	943718400	21	4169
2026-01-10 01:17:13.63	237.98	28.32	-30.1	-31.2	13.1	2.89e-05	0	42	0	945815552	21	4097
2026-01-10 01:17:14.63	237.83	28.16	-30.2	-31.4	13.0	4.34e-05	0	42	0	947912704	21	4153
2026-01-10 01:17:15.62	237.68	28.00	-30.3	-31.7	12.9	4.04e-05	0	42	0	948961280	21	4227
2026-01-10 01:17:16.62	237.53	27.84	-30.1	-31.1	13.2	3.28e-05	0	42	0	951058432	21	4068
2026-01-10 01:17:17.61	237.38	27.69	-30.0	-31.4	13.3	1.22e-05	0	42	0	953155584	20	4246
2026-01-10 01:17:18.61	237.23	27.53	-30.3	-32.3	12.8	5.41e-05	0	42	0	955252736	20	4508
2026-01-10 01:17:19.62	237.08	27.37	-30.3	-32.1	13.0	5.11e-05	0	42	0	957349888	20	4460
2026-01-10 01:17:20.61	236.94	27.22	-30.4	-32.1	12.5	6.86e-05	0	42	0	958398464	21	4377
2026-01-10 01:17:21.62	236.80	27.07	-30.1	-31.7	13.2	1.92e-03	0	42	0	960495616	20	4338
2026-01-10 01:17:22.61	236.66	26.91	-29.8	-30.8	13.8	1.14e-05	0	42	0	962592768	20	4060
2026-01-10 01:17:23.61	236.52	26.76	-29.6	-30.9	14.1	3.80e-06	0	42	0	964689920	19	4169
2026-01-10 01:17:24.61	236.38	26.61	-29.9	-31.5	13.7	6.10e-06	0	42	0	965738496	19	4341
2026-01-10 01:17:25.60	236.24	26.46	-30.2	-31.8	13.0	2.44e-05	0	42	0	967835648	20	4374
2026-01-10 01:17:26.59	236.10	26.31	-30.3	-32.4	12.8	3.66e-05	0	42	0	969932800	20	4565
2026-01-10 01:17:27.60	235.97	26.16	-30.8	-33.2	11.7	1.98e-04	0	42	0	972029952	21	4767
2026-01-10 01:17:28.60	235.83	26.01	-31.2	-33.8	11.1	9.03e-04	0	42	0	974127104	22	4889
2026-01-10 01:17:29.60	235.70	25.86	-31.4	-34.6	10.5	3.74e-03	0	42	0	975175680	22	5196
2026-01-10 01:17:30.60	235.57	25.71	-31.3	-34.3	10.6	4.01e-03	0	42	0	977272832	22	5104
2026-01-10 01:17:31.60	235.44	25.57	-31.5	-34.9	10.2	2.97e-03	0	42	0	979369984	22	5332
2026-01-10 01:17:32.61	235.31	25.42	-31.2	-34.0	10.8	3.11e-03	0	42	0	981467136	22	4983
2026-01-10 01:17:33.61	235.18	25.27	-30.9	-33.0	11.6	2.11e-03	0	42	0	983564288	22	4600
2026-01-10 01:17:34.61	235.05	25.13	-30.9	-33.0	11.6	6.90e-04	0	42	0	984612864	22	4599
2026-01-10 01:17:35.61	234.93	24.98	-30.9	-33.1	11.5	7.42e-04	0	42	0	986710016	22	4608
2026-01-10 01:17:36.60	234.81	24.84	-30.8	-32.7	11.7	7.00e-04	0	42	0	988807168	22	4489
2026-01-10 01:17:37.61	234.68	24.69	-30.7	-32.4	12.0	4.10e-04	0	42	0	990904320	22	4381
2026-01-10 01:17:38.60	234.56	24.55	-30.4	-32.0	12.5	1.99e-04	0	42	0	991952896	21	4343
2026-01-10 01:17:39.61	234.44	24.41	-30.2	-32.0	12.9	7.85e-05	0	42	0	994050048	20	4447
2026-01-10 01:17:40.61	234.32	24.27	-30.2	-32.0	12.9	5.11e-05	0	42	0	996147200	20	4431
2026-01-10 01:17:41.61	234.20	24.13	-30.2	-32.1	12.8	5.79e-05	0	42	0	998244352	20	4478
2026-01-10 01:17:42.61	234.08	23.98	-30.3	-32.4	12.6	1.13e-04	0	42	0	1000341504	20	4574
2026-01-10 01:17:43.61	233.97	23.85	-30.2	-32.1	12.8	6.02e-05	0	42	0	1001390080	20	4484
2026-01-10 01:17:44.62	233.85	23.70	-30.5	-32.9	12.3	6.94e-05	0	42	0	1003487232	20	4749
2026-01-10 01:17:45.62	233.73	23.57	-31.0	-33.6	11.1	1.47e-03	0	42	0	1005584384	22	4814
2026-01-10 01:17:46.62	233.62	23.43	-31.1	-33.8	10.9	1.96e-03	0	42	0	1007681536	22	4913
2026-01-10 01:17:47.63	233.51	23.29	-31.2	-34.1	10.6	3.11e-03	0	42	0	1009778688	22	5042
2026-01-10 01:17:48.63	233.40	23.15	-30.9	-33.0	11.4	2.36e-03	0	42	0	1010827264	22	4619
2026-01-10 01:17:49.63	233.29	23.02	-30.7	-32.6	11.7	6.40e-04	0	42	0	1012924416	22	4480
2026-01-10 01:17:50.64	233.18	22.88	-30.6	-32.8	11.5	5.42e-04	0	42	0	1015021568	22	4613
2026-01-10 01:17:51.64	233.07	22.74	-30.8	-32.9	11.5	2.00e-03	0	42	0	1017118720	22	4576
2026-01-10 01:17:52.63	232.96	22.61	-31.0	-33.9	11.0	1.65e-03	0	42	0	1019215872	21	5039
2026-01-10 01:17:53.63	232.85	22.48	-30.9	-33.5	11.1	3.10e-03	0	42	0	1020264448	21	4882
2026-01-10 01:17:54.64	232.75	22.34	-31.1	-33.7	10.9	9.90e-04	0	42	0	1022361600	22	4854
2026-01-10 01:17:55.64	232.64	22.21	-30.9	-33.7	10.8	1.73e-03	0	42	0	1024458752	21	4969
2026-01-10 01:17:56.63	232.54	22.08	-31.0	-33.9	10.7	2.00e-03	0	42	0	1026555904	21	5048
2026-01-10 01:17:57.64	232.44	21.95	-31.8	-35.9	8.8	7.63e-03	0	42	0	1028653056	23	5770
2026-01-10 01:17:58.64	232.33	21.82	-31.8	-35.9	8.6	2.10e-02	0	42	0	1029701632	23	5760
2026-01-10 01:17:59.65	232.23	21.69	-31.6	-35.1	9.0	1.07e-02	0	42	0	1031798784	23	5373
2026-01-10 01:18:00.64	232.13	21.56	-31.4	-34.8	10.0	5.90e-03	0	42	0	1033895936	22	5342
2026-01-10 01:18:01.65	232.03	21.43	-31.3	-34.3	10.0	5.77e-03	0	42	0	1035993088	22	5138
2026-01-10 01:18:02.66	231.93	21.30	-31.4	-34.9	9.6	5.04e-03	0	42	0	1038090240	22	5405
2026-01-10 01:18:03.66	231.84	21.17	-31.1	-33.9	10.7	3.35e-03	0	42	0	1039138816	22	4980
2026-01-10 01:18:04.66	231.74	21.04	-31.1	-33.7	10.6	2.87e-03	0	42	0	1041235968	22	4878
2026-01-10 01:18:05.66	231.64	20.91	-31.2	-34.1	10.6	2.19e-03	0	42	0	1043333120	22	5023
2026-01-10 01:18:06.66	231.55	20.79	-31.1	-33.9	10.7	4.54e-03	0	42	0	1045430272	22	4946
2026-01-10 01:18:07.66	231.45	20.66	-30.8	-33.4	11.4	1.47e-03	0	42	0	1046478848	21	4852
2026-01-10 01:18:08.66	231.36	20.54	-30.8	-33.3	11.4	9.92e-04	0	42	0	1048576000	21	4820
2026-01-10 01:18:09.66	231.27	20.41	-30.6	-32.7	11.9	7.11e-04	0	42	0	1050673152	21	4593
2026-01-10 01:18:10.66	231.17	20.29	-30.3	-32.4	12.4	2.39e-04	0	42	0	1052770304	20	4573
2026-01-10 01:18:11.67	231.08	20.16	-30.4	-32.8	12.2	1.15e-04	0	42	0	1054867456	20	4719
2026-01-10 01:18:12.66	230.99	20.04	-30.4	-32.1	12.2	2.72e-04	0	42	0	1055916032	21	4416
2026-01-10 01:18:13.67	230.90	19.92	-30.2	-32.2	12.5	2.64e-03	0	42	0	1058013184	20	4525
2026-01-10 01:18:14.67	230.81	19.80	-30.5	-32.6	12.0	1.01e-04	0	42	0	1060110336	21	4583
2026-01-10 01:18:15.67	230.72	19.67	-30.5	-32.6	12.0	3.87e-04	0	42	0	1062207488	21	4566
2026-01-10 01:18:16.68	230.64	19.55	-30.3	-32.4	12.4	2.58e-03	0	42	0	1064304640	20	4578
2026-01-10 01:18:17.69	230.55	19.43	-30.2	-32.0	12.7	9.23e-05	0	42	0	1065353216	20	4475
2026-01-10 01:18:18.69	230.46	19.31	-30.0	-31.7	12.9	5.64e-05	0	42	0	1067450368	20	4361
2026-01-10 01:18:19.70	230.38	19.19	-29.9	-31.8	13.2	3.96e-05	0	42	0	1069547520	19	4492
2026-01-10 01:18:20.70	230.29	19.07	-30.0	-31.7	12.9	2.37e-03	0	42	0	1071644672	20	4353
2026-01-10 01:18:21.70	230.21	18.95	-30.0	-31.6	12.9	6.33e-05	0	42	0	1073741824	20	4340
2026-01-10 01:18:22.70	230.12	18.83	-30.0	-32.0	13.1	3.35e-05	0	42	0	1074790400	19	4533
2026-01-10 01:18:23.71	230.04	18.72	-30.1	-31.9	12.7	2.16e-03	0	42	0	1076887552	20	4431
2026-01-10 01:18:24.71	229.96	18.60	-30.2	-32.1	12.6	6.10e-05	0	42	0	1078984704	20	4507
2026-01-10 01:18:25.71	229.88	18.48	-30.1	-32.0	12.6	1.09e-04	0	42	0	1081081856	20	4457
2026-01-10 01:18:26.72	229.79	18.37	-30.2	-32.2	12.4	5.18e-05	0	42	0	1083179008	20	4546
2026-01-10 01:18:27.72	229.71	18.25	-30.3	-32.6	12.2	1.59e-04	0	42	0	1084227584	20	4675
2026-01-10 01:18:28.72	229.63	18.14	-30.5	-32.6	11.9	2.55e-04	0	42	0	1086324736	21	4596
2026-01-10 01:18:29.72	229.55	18.02	-30.6	-32.8	11.8	3.71e-04	0	42	0	1088421888	21	4648
2026-01-10 01:18:30.73	229.48	17.91	-30.8	-33.4	11.3	7.86e-04	0	42	0	1090519040	21	4869
2026-01-10 01:18:31.73	229.40	17.79	-31.1	-33.9	10.6	3.97e-03	0	42	0	1092616192	22	4973
2026-01-10 01:18:32.73	229.32	17.68	-31.0	-34.0	10.9	1.47e-03	0	42	0	1093664768	21	5129
2026-01-10 01:18:33.74	229.24	17.56	-30.9	-33.3	11.0	2.61e-03	0	42	0	1095761920	22	4759
2026-01-10 01:18:34.74	229.17	17.45	-30.7	-33.2	11.5	3.72e-03	0	42	0	1097859072	21	4804
2026-01-10 01:18:35.74	229.09	17.34	-30.9	-33.5	10.9	2.22e-03	0	42	0	1099956224	22	4810
2026-01-10 01:18:36.75	229.02	17.23	-30.9	-33.2	11.1	1.01e-03	0	42	0	1101004800	22	4731
2026-01-10 01:18:37.75	228.94	17.12	-30.6	-32.9	11.7	4.89e-03	0	42	0	1103101952	21	4702
2026-01-10 01:18:38.75	228.87	17.01	-30.3	-32.5	12.3	2.60e-03	0	42	0	1105199104	20	4623
2026-01-10 01:18:39.75	228.79	16.90	-30.1	-32.0	12.6	9.30e-05	0	42	0	1107296256	20	4472
2026-01-10 01:18:40.75	228.72	16.79	-30.4	-32.9	12.1	2.72e-03	0	42	0	1109393408	20	4766
2026-01-10 01:18:41.75	228.65	16.68	-30.4	-32.9	12.0	2.50e-03	0	42	0	1110441984	20	4774
2026-01-10 01:18:42.76	228.58	16.57	-30.4	-32.4	11.8	7.61e-04	0	42	0	1112539136	21	4524
2026-01-10 01:18:43.76	228.51	16.46	-29.8	-31.2	13.1	1.43e-04	0	42	0	1114636288	20	4208
2026-01-10 01:18:44.75	228.44	16.35	-29.8	-31.6	13.3	2.54e-03	0	42	0	1116733440	19	4415
2026-01-10 01:18:45.76	228.37	16.25	-30.0	-31.7	12.8	2.35e-04	0	42	0	1118830592	20	4370
2026-01-10 01:18:46.76	228.30	16.14	-29.7	-31.4	13.2	1.37e-05	0	42	0	1119879168	19	4371
2026-01-10 01:18:47.76	228.23	16.03	-29.9	-31.4	13.1	2.58e-03	0	42	0	1121976320	20	4292
2026-01-10 01:18:48.76	228.16	15.93	-29.8	-31.2	13.0	3.81e-04	0	42	0	1124073472	20	4206
2026-01-10 01:18:49.76	228.09	15.82	-30.2	-32.2	12.3	5.34e-05	0	42	0	1126170624	20	4559
2026-01-10 01:18:50.76	228.02	15.72	-30.6	-33.0	11.5	2.99e-03	0	42	0	1128267776	21	4758
2026-01-10 01:18:51.77	227.96	15.61	-31.1	-34.1	10.4	3.51e-03	0	42	0	1129316352	22	5056
2026-01-10 01:18:52.78	227.89	15.50	-31.7	-35.6	9.0	4.72e-03	0	42	0	1131413504	23	5684
2026-01-10 01:18:53.78	227.82	15.40	-31.5	-35.1	9.3	3.29e-03	0	42	0	1133510656	23	5417
2026-01-10 01:18:54.79	227.76	15.30	-31.9	-36.2	7.9	6.49e-02	0	42	0	1135607808	24	5896
2026-01-10 01:18:55.79	227.69	15.19	-31.9	-36.1	8.2	9.80e-02	0	42	0	1137704960	24	5842
2026-01-10 01:18:56.80	227.63	15.09	-31.8	-35.9	8.1	7.89e-02	0	42	0	1138753536	24	5760
2026-01-10 01:18:57.80	227.56	14.99	-31.8	-35.8	8.3	4.83e-02	0	42	0	1140850688	24	5697
2026-01-10 01:18:58.80	227.50	14.89	-31.6	-35.2	9.0	3.59e-02	0	42	0	1142947840	23	5502
2026-01-10 01:18:59.80	227.44	14.78	-32.1	-37.0	7.3	5.84e-02	0	42	0	1145044992	24	6349
2026-01-10 01:19:00.81	227.37	14.68	-31.2	-33.8	10.1	1.97e-02	0	42	0	1146093568	23	4864
2026-01-10 01:19:01.81	227.31	14.58	-31.0	-33.6	10.7	6.43e-03	0	42	0	1148190720	22	4875
2026-01-10 01:19:02.81	227.25	14.48	-31.8	-36.1	8.3	1.05e-02	0	42	0	1150287872	23	5912
2026-01-10 01:19:03.81	227.19	14.38	-31.6	-35.6	8.7	4.16e-02	0	42	0	1152385024	23	5673
2026-01-10 01:19:04.82	227.13	14.28	-31.4	-35.1	9.5	1.87e-02	0	42	0	1154482176	22	5511
2026-01-10 01:19:05.82	227.07	14.18	-31.4	-35.2	9.4	1.63e-02	0	42	0	1155530752	22	5590
2026-01-10 01:19:06.82	227.01	14.08	-31.5	-35.3	9.0	1.71e-02	0	42	0	1157627904	23	5532
2026-01-10 01:19:07.83	226.95	13.98	-31.7	-35.8	8.6	4.45e-02	0	42	0	1159725056	23	5826
2026-01-10 01:19:08.82	226.89	13.88	-31.7	-36.0	8.5	6.61e-02	0	42	0	1161822208	23	5910
2026-01-10 01:19:09.82	226.83	13.79	-31.6	-35.5	8.7	3.47e-02	0	42	0	1163919360	23	5646
2026-01-10 01:19:10.83	226.77	13.69	-31.6	-35.7	8.5	2.00e-02	0	42	0	1164967936	23	5772
2026-01-10 01:19:11.83	226.71	13.59	-31.5	-35.2	9.1	2.90e-02	0	42	0	1167065088	23	5522
2026-01-10 01:19:12.83	226.65	13.49	-31.3	-34.6	9.5	1.39e-02	0	42	0	1169162240	23	5233
2026-01-10 01:19:13.83	226.60	13.40	-31.2	-33.9	9.8	1.23e-02	0	42	0	1171259392	23	4957
2026-01-10 01:19:14.84	226.54	13.30	-31.3	-34.9	9.5	1.78e-02	0	42	0	1173356544	22	5438
2026-01-10 01:19:15.84	226.48	13.21	-31.3	-34.4	9.4	3.01e-02	0	42	0	1174405120	23	5147
2026-01-10 01:19:16.84	226.43	13.11	-31.5	-35.0	9.6	2.65e-02	0	42	0	1176502272	23	5407
2026-01-10 01:19:17.85	226.37	13.01	-32.0	-36.6	7.4	6.88e-02	0	42	0	1178599424	24	6174
2026-01-10 01:19:18.86	226.31	12.92	-32.1	-37.5	6.8	2.57e-01	0	42	0	1180696576	24	6677
2026-01-10 01:19:19.86	226.26	12.82	-32.3	-38.6	6.0	2.66e-01	0	42	0	1182793728	24	7420
2026-01-10 01:19:20.86	226.20	12.73	-31.5	-35.5	8.7	1.20e-01	0	42	0	1183842304	23	5646
2026-01-10 01:19:21.85	226.15	12.64	-32.1	-37.6	6.6	1.96e-01	0	42	0	1185939456	24	6786
2026-01-10 01:19:22.86	226.10	12.54	-31.7	-35.9	8.4	7.53e-02	0	42	0	1188036608	23	5875
2026-01-10 01:19:23.86	226.04	12.45	-32.1	-37.3	6.8	7.43e-02	0	42	0	1190133760	24	6622
2026-01-10 01:19:24.86	225.99	12.36	-31.5	-35.0	8.6	3.33e-02	0	42	0	1191182336	24	5333
2026-01-10 01:19:25.87	225.94	12.26	-32.3	-38.5	6.1	1.57e-01	0	42	0	1193279488	24	7389
2026-01-10 01:19:26.86	225.88	12.17	-31.6	-35.2	8.4	1.99e-01	0	42	0	1195376640	24	5477
2026-01-10 01:19:27.86	225.83	12.08	-31.7	-35.5	8.1	3.44e-02	0	42	0	1197473792	24	5602
2026-01-10 01:19:28.86	225.78	11.99	-31.8	-36.6	7.9	5.14e-02	0	42	0	1199570944	23	6263
2026-01-10 01:19:29.86	225.73	11.90	-31.9	-36.7	7.2	1.08e-01	0	42	0	1200619520	24	6258
2026-01-10 01:19:30.86	225.68	11.81	-32.4	-39.4	5.2	1.62e-01	0	42	0	1202716672	24	8100
2026-01-10 01:19:31.86	225.63	11.72	-32.5	-40.0	4.9	7.23e-01	0	42	0	1204813824	25	8560
2026-01-10 01:19:32.86	225.58	11.63	-32.4	-39.1	5.2	6.83e-01	0	42	0	1206910976	25	7833
2026-01-10 01:19:33.87	225.52	11.54	-32.4	-39.1	5.4	6.20e-01	0	42	0	1209008128	25	7813
2026-01-10 01:19:34.87	225.47	11.45	-32.3	-39.3	5.5	4.31e-01	0	42	0	1210056704	24	7999
2026-01-10 01:19:35.86	225.43	11.36	-32.3	-39.3	5.3	5.52e-01	0	42	0	1212153856	24	8080
2026-01-10 01:19:36.86	225.38	11.27	-32.1	-37.7	6.6	2.64e-01	0	42	0	1214251008	24	6865
2026-01-10 01:19:37.86	225.33	11.18	-32.1	-38.1	5.8	2.99e-01	0	42	0	1216348160	24	7187
2026-01-10 01:19:38.87	225.28	11.09	-32.1	-37.9	6.3	3.44e-01	0	42	0	1218445312	24	7003
2026-01-10 01:19:39.87	225.23	11.01	-32.4	-40.4	4.9	4.16e-01	0	42	0	1219493888	24	8957
2026-01-10 01:19:40.87	225.18	10.92	-32.4	-40.1	4.7	4.90e-01	0	42	0	1221591040	24	8706
2026-01-10 01:19:41.87	225.13	10.83	-31.9	-36.8	6.9	4.16e-01	0	42	0	1223688192	24	6343
2026-01-10 01:19:42.87	225.09	10.74	-32.1	-38.1	6.1	2.42e-01	0	42	0	1225785344	24	7224
2026-01-10 01:19:43.86	225.04	10.66	-31.9	-37.1	6.6	2.20e-01	0	42	0	1226833920	24	6530
2026-01-10 01:19:44.86	224.99	10.57	-31.9	-37.2	7.1	1.89e-01	0	42	0	1228931072	23	6670
2026-01-10 01:19:45.86	224.95	10.48	-31.7	-36.1	7.8	6.45e-02	0	42	0	1231028224	24	5960
2026-01-10 01:19:46.86	224.90	10.40	-31.8	-36.3	7.1	9.34e-02	0	42	0	1233125376	24	6054
2026-01-10 01:19:47.86	224.86	10.31	-31.8	-36.4	7.4	1.16e-01	0	42	0	1235222528	24	6128
2026-01-10 01:19:48.86	224.81	10.23	-31.4	-35.3	8.8	5.17e-02	0	42	0	1236271104	23	5612
2026-01-10 01:19:49.86	224.76	10.14	-31.9	-37.2	6.7	1.35e-01	0	42	0	1238368256	24	6582
2026-01-10 01:19:50.86	224.72	10.06	-31.5	-35.8	8.0	1.42e-01	0	42	0	1240465408	23	5899
2026-01-10 01:19:51.87	224.67	9.97	-31.7	-36.5	7.6	9.09e-02	0	42	0	1242562560	23	6264
2026-01-10 01:19:52.87	224.63	9.89	-31.6	-36.2	7.9	6.69e-02	0	42	0	1244659712	23	6062
2026-01-10 01:19:53.88	224.58	9.80	-31.9	-37.6	6.7	1.65e-01	0	42	0	1245708288	23	6932
2026-01-10 01:19:54.87	224.54	9.72	-32.1	-38.1	6.0	1.48e-01	0	42	0	1247805440	24	7203
2026-01-10 01:19:55.88	224.50	9.64	-31.8	-37.2	7.1	1.41e-01	0	42	0	1249902592	23	6677
2026-01-10 01:19:56.89	224.45	9.55	-31.8	-37.0	7.3	8.16e-02	0	42	0	1251999744	23	6540
2026-01-10 01:19:57.89	224.41	9.47	-31.9	-37.9	6.4	1.41e-01	0	42	0	1254096896	23	7170
2026-01-10 01:19:58.90	224.37	9.38	-32.0	-37.9	6.1	2.74e-01	0	42	0	1255145472	24	7112
2026-01-10 01:19:59.90	224.32	9.30	-32.3	-40.2	4.9	4.76e-01	0	42	0	1257242624	24	8879
2026-01-10 01:20:00.91	224.28	9.22	-32.2	-38.8	5.6	6.32e-01	0	42	0	1259339776	24	7724
2026-01-10 01:20:01.90	224.24	9.14	-31.7	-36.3	7.3	3.57e-01	0	42	0	1261436928	24	6105
2026-01-10 01:20:02.91	224.20	9.06	-31.8	-37.2	7.0	1.65e-01	0	42	0	1263534080	23	6727
2026-01-10 01:20:03.92	224.15	8.97	-31.5	-35.7	7.9	4.63e-02	0	42	0	1264582656	23	5874
2026-01-10 01:20:04.92	224.11	8.89	-31.9	-37.2	6.6	1.93e-01	0	42	0	1266679808	24	6608
2026-01-10 01:20:05.92	224.07	8.81	-32.2	-39.2	5.4	4.87e-01	0	42	0	1268776960	24	8070
2026-01-10 01:20:06.93	224.03	8.73	-32.2	-39.6	5.0	6.51e-01	0	42	0	1270874112	24	8443
2026-01-10 01:20:07.93	223.99	8.65	-32.3	-40.5	4.6	5.03e-01	0	42	0	1272971264	24	9273
2026-01-10 01:20:08.93	223.95	8.57	-32.2	-39.2	5.2	7.41e-01	0	42	0	1274019840	24	8111
2026-01-10 01:20:09.93	223.91	8.49	-31.9	-37.8	5.9	6.32e-01	0	42	0	1276116992	24	7074
2026-01-10 01:20:10.93	223.87	8.41	-32.0	-38.5	5.7	4.16e-01	0	42	0	1278214144	24	7567
2026-01-10 01:20:11.93	223.83	8.33	-32.0	-38.2	5.7	5.06e-01	0	42	0	1280311296	24	7348
2026-01-10 01:20:12.93	223.79	8.25	-32.1	-39.3	5.2	3.80e-01	0	42	0	1281359872	24	8208
2026-01-10 01:20:13.93	223.75	8.17	-31.8	-37.5	6.5	3.26e-01	0	42	0	1283457024	23	6966
2026-01-10 01:20:14.93	223.71	8.09	-31.7	-36.8	7.1	1.59e-01	0	42	0	1285554176	23	6508
2026-01-10 01:20:15.93	223.67	8.01	-31.5	-36.2	7.5	1.05e-01	0	42	0	1287651328	23	6170
