passes_logs/2026/01/10/R2M6_AANII_01/R2M6_AANII_01__20260110_110141_SUOMI_NPP_rec.log

#Pass ID: 20260110_110141_SUOMI NPP
#Satellite: SUOMI NPP
#Configuration: NPP
#almurnet v.1.7.20240730
#Start time: 2026-01-10 11:01:43

#Version: 2.2.20231116
#Station: R2M6_AANII_01
#Location: 30.233357 lon 59.946436 lat
#TLE: 1 37849U 11061A   26008.83076692  .00000095  00000+0  66074-4 0  9997
#TLE: 2 37849  98.7806 310.9327 0002533  74.3004 285.8451 14.19523607735834

#Time	Az	El	Level	Level2	SNR	BER	BlckErr	Temp	State	Recorded	gain1	gain2
2026-01-10 11:01:43.76	180.24	7.14	-31.1	-35.8	5.0	1.29e+00	0	39	0	0	22	6164
2026-01-10 11:01:44.75	180.28	7.21	-31.3	-36.0	4.8	1.31e+00	0	39	104	0	23	6178
2026-01-10 11:01:45.76	180.32	7.29	-31.2	-35.4	7.6	1.48e-01	0	39	0	0	23	5864
2026-01-10 11:01:46.77	180.37	7.37	-31.0	-34.7	8.2	5.80e-02	0	39	0	1048576	23	5488
2026-01-10 11:01:47.78	180.41	7.44	-30.7	-34.0	9.2	3.52e-02	0	39	0	3145728	22	5220
2026-01-10 11:01:48.79	180.45	7.52	-30.5	-33.2	9.8	1.37e-02	0	39	0	5242880	22	4885
2026-01-10 11:01:49.79	180.49	7.60	-30.3	-32.5	10.4	8.68e-03	0	40	0	7340032	22	4626
2026-01-10 11:01:50.80	180.53	7.68	-30.2	-32.4	10.8	3.62e-03	0	40	0	9437184	21	4660
2026-01-10 11:01:51.81	180.58	7.75	-30.2	-32.5	10.8	2.18e-03	0	40	0	10485760	21	4682
2026-01-10 11:01:52.82	180.62	7.83	-30.1	-32.3	10.9	2.72e-03	0	40	0	12582912	21	4618
2026-01-10 11:01:53.82	180.66	7.91	-30.3	-32.9	10.5	3.67e-03	0	40	0	14680064	21	4841
2026-01-10 11:01:54.83	180.71	7.99	-30.2	-32.4	10.8	2.89e-03	0	40	0	16777216	21	4667
2026-01-10 11:01:55.84	180.75	8.07	-30.0	-31.9	11.2	1.39e-03	0	40	0	18874368	21	4486
2026-01-10 11:01:56.84	180.79	8.15	-30.0	-31.8	11.4	1.31e-03	0	40	0	19922944	21	4428
2026-01-10 11:01:57.85	180.84	8.22	-29.8	-31.3	11.7	7.67e-04	0	40	0	22020096	21	4269
2026-01-10 11:01:58.85	180.88	8.30	-29.8	-31.2	11.8	5.41e-04	0	40	0	24117248	21	4238
2026-01-10 11:01:59.86	180.93	8.38	-29.9	-31.9	11.7	5.02e-04	0	40	0	26214400	20	4555
2026-01-10 11:02:00.86	180.97	8.46	-29.7	-31.3	12.1	4.87e-04	0	40	0	28311552	20	4349
2026-01-10 11:02:01.87	181.01	8.54	-29.8	-31.7	11.9	3.23e-04	0	40	0	29360128	20	4478
2026-01-10 11:02:02.88	181.06	8.62	-29.7	-31.4	12.1	4.34e-04	0	40	0	31457280	20	4358
2026-01-10 11:02:03.88	181.10	8.70	-29.7	-31.5	12.0	3.48e-04	0	40	0	33554432	20	4401
2026-01-10 11:02:04.88	181.15	8.78	-29.7	-31.5	12.0	2.64e-04	0	40	0	35651584	20	4394
2026-01-10 11:02:05.89	181.20	8.86	-29.7	-31.4	12.1	2.76e-04	0	40	0	37748736	20	4357
2026-01-10 11:02:06.90	181.24	8.95	-29.8	-31.6	11.9	4.05e-04	0	40	0	38797312	20	4446
2026-01-10 11:02:07.91	181.29	9.03	-29.7	-31.4	12.1	2.62e-04	0	40	0	40894464	20	4353
2026-01-10 11:02:08.91	181.33	9.11	-29.7	-31.4	12.1	2.48e-04	0	40	0	42991616	20	4365
2026-01-10 11:02:09.92	181.38	9.19	-29.8	-31.6	12.0	3.17e-04	0	40	0	45088768	20	4427
2026-01-10 11:02:10.92	181.43	9.27	-29.7	-31.4	12.1	3.10e-04	0	40	0	47185920	20	4378
2026-01-10 11:02:11.93	181.48	9.36	-29.8	-31.7	12.0	2.55e-04	0	40	0	48234496	20	4451
2026-01-10 11:02:12.93	181.52	9.44	-29.7	-31.3	12.2	3.48e-04	0	40	0	50331648	20	4323
2026-01-10 11:02:13.93	181.57	9.52	-29.8	-31.5	12.1	2.30e-04	0	40	0	52428800	20	4398
2026-01-10 11:02:14.93	181.62	9.60	-29.7	-31.4	12.2	1.82e-04	0	40	0	54525952	20	4349
2026-01-10 11:02:15.94	181.67	9.69	-29.6	-31.1	12.4	1.59e-04	0	40	0	56623104	20	4265
2026-01-10 11:02:16.94	181.71	9.77	-29.8	-31.5	12.1	2.78e-04	0	40	0	57671680	20	4390
2026-01-10 11:02:17.95	181.76	9.86	-29.7	-31.2	12.3	2.08e-04	0	40	0	59768832	20	4283
2026-01-10 11:02:18.96	181.81	9.94	-29.6	-31.1	12.4	1.43e-04	0	40	0	61865984	20	4261
2026-01-10 11:02:19.96	181.86	10.02	-29.8	-31.7	12.0	1.88e-04	0	40	0	63963136	20	4450
2026-01-10 11:02:20.97	181.91	10.11	-29.7	-31.1	12.4	1.93e-04	0	40	0	66060288	20	4269
2026-01-10 11:02:21.98	181.96	10.19	-29.8	-31.5	12.1	1.76e-04	0	40	0	67108864	20	4402
2026-01-10 11:02:22.98	182.01	10.28	-29.6	-31.1	12.5	1.95e-04	0	40	0	69206016	20	4237
2026-01-10 11:02:23.99	182.06	10.37	-29.5	-30.7	12.7	1.04e-04	0	40	0	71303168	20	4120
2026-01-10 11:02:24.99	182.11	10.45	-29.5	-30.7	12.7	8.01e-05	0	40	0	73400320	20	4129
2026-01-10 11:02:26.00	182.16	10.54	-29.6	-31.0	12.5	8.39e-05	0	41	0	74448896	20	4229
2026-01-10 11:02:27.00	182.21	10.62	-29.6	-30.9	12.6	9.91e-05	0	40	0	76546048	20	4198
2026-01-10 11:02:28.01	182.26	10.71	-29.5	-30.7	12.7	5.95e-05	0	41	0	78643200	20	4123
2026-01-10 11:02:29.01	182.32	10.80	-29.5	-30.7	12.8	6.40e-05	0	40	0	80740352	20	4116
2026-01-10 11:02:30.02	182.37	10.89	-29.4	-30.4	12.9	5.79e-05	0	41	0	82837504	20	4029
2026-01-10 11:02:31.02	182.42	10.97	-29.5	-30.5	12.9	4.95e-05	0	41	0	84934656	20	4061
2026-01-10 11:02:32.02	182.47	11.06	-29.3	-30.1	13.2	3.58e-05	0	40	0	85983232	20	3937
2026-01-10 11:02:33.02	182.52	11.15	-29.6	-30.9	12.6	4.73e-05	0	40	0	88080384	20	4193
2026-01-10 11:02:34.02	182.58	11.24	-29.4	-30.5	12.9	7.09e-05	0	40	0	90177536	20	4050
2026-01-10 11:02:35.03	182.63	11.32	-29.5	-30.5	12.9	7.62e-05	0	41	0	92274688	20	4072
2026-01-10 11:02:36.03	182.68	11.41	-29.4	-30.5	12.9	4.50e-05	0	40	0	93323264	20	4047
2026-01-10 11:02:37.04	182.74	11.50	-29.5	-30.7	12.8	5.41e-05	0	41	0	95420416	20	4121
2026-01-10 11:02:38.04	182.79	11.59	-29.4	-30.4	13.0	3.35e-05	0	41	0	97517568	20	4040
2026-01-10 11:02:39.05	182.85	11.68	-29.5	-30.6	12.9	5.95e-05	0	40	0	99614720	20	4089
2026-01-10 11:02:40.06	182.90	11.77	-29.5	-30.6	12.8	6.02e-05	0	41	0	101711872	20	4091
2026-01-10 11:02:41.06	182.96	11.86	-29.6	-30.9	12.7	5.79e-05	0	41	0	102760448	20	4172
2026-01-10 11:02:42.06	183.01	11.95	-29.6	-30.9	12.7	7.32e-05	0	41	0	104857600	20	4177
2026-01-10 11:02:43.07	183.07	12.05	-29.6	-31.0	12.6	7.40e-05	0	41	0	106954752	20	4212
2026-01-10 11:02:44.07	183.13	12.14	-29.5	-30.5	13.0	5.18e-05	0	41	0	109051904	20	4056
2026-01-10 11:02:45.07	183.18	12.23	-29.5	-30.8	12.8	6.63e-05	0	41	0	111149056	20	4138
2026-01-10 11:02:46.08	183.24	12.32	-29.5	-30.6	12.8	5.34e-05	0	41	0	112197632	20	4097
2026-01-10 11:02:47.09	183.30	12.41	-29.5	-30.7	12.8	3.81e-05	0	41	0	114294784	20	4102
2026-01-10 11:02:48.10	183.35	12.51	-29.6	-30.9	12.8	5.41e-05	0	41	0	116391936	20	4166
2026-01-10 11:02:49.10	183.41	12.60	-29.5	-30.6	12.9	5.11e-05	0	41	0	118489088	20	4096
2026-01-10 11:02:50.11	183.47	12.70	-29.5	-30.7	12.8	3.12e-05	0	41	0	120586240	20	4120
2026-01-10 11:02:51.11	183.53	12.79	-29.5	-30.7	12.9	6.40e-05	0	41	0	121634816	20	4112
2026-01-10 11:02:52.12	183.59	12.88	-29.4	-30.2	13.2	4.04e-05	0	41	0	123731968	20	3969
2026-01-10 11:02:53.12	183.65	12.98	-29.5	-30.7	12.9	2.89e-05	0	41	0	125829120	20	4097
2026-01-10 11:02:54.13	183.71	13.07	-29.5	-30.7	12.9	5.18e-05	0	41	0	127926272	20	4104
2026-01-10 11:02:55.13	183.77	13.17	-29.6	-30.7	13.0	4.27e-05	0	41	0	130023424	20	4119
2026-01-10 11:02:56.14	183.83	13.26	-29.7	-31.0	12.7	5.49e-05	0	41	0	131072000	20	4219
2026-01-10 11:02:57.14	183.89	13.36	-29.8	-31.5	12.4	1.04e-04	0	41	0	133169152	20	4370
2026-01-10 11:02:58.15	183.95	13.46	-29.8	-31.4	12.5	1.35e-04	0	41	0	135266304	20	4312
2026-01-10 11:02:59.15	184.01	13.55	-29.9	-31.6	12.3	1.46e-04	0	41	0	137363456	20	4414
2026-01-10 11:03:00.14	184.07	13.65	-29.7	-31.1	12.7	1.27e-04	0	41	0	139460608	20	4231
2026-01-10 11:03:01.14	184.13	13.74	-29.5	-30.6	12.9	6.94e-05	0	41	0	140509184	20	4084
2026-01-10 11:03:02.14	184.20	13.84	-29.7	-31.2	12.6	8.69e-05	0	41	0	142606336	20	4254
2026-01-10 11:03:03.15	184.26	13.94	-29.6	-30.9	12.8	9.68e-05	0	41	0	144703488	20	4183
2026-01-10 11:03:04.15	184.32	14.04	-29.6	-30.9	12.8	5.03e-05	0	41	0	146800640	20	4168
2026-01-10 11:03:05.16	184.39	14.14	-29.9	-31.7	12.3	2.14e-04	0	41	0	147849216	20	4413
2026-01-10 11:03:06.17	184.45	14.24	-29.6	-30.9	12.7	1.63e-04	0	41	0	149946368	20	4171
2026-01-10 11:03:07.17	184.52	14.34	-29.6	-30.7	13.0	3.89e-05	0	41	0	152043520	20	4108
2026-01-10 11:03:08.17	184.58	14.44	-29.5	-30.4	13.1	3.81e-05	0	41	0	154140672	20	4017
2026-01-10 11:03:09.17	184.65	14.54	-29.4	-30.3	13.2	3.58e-05	0	41	0	156237824	20	3985
2026-01-10 11:03:10.17	184.71	14.64	-29.3	-30.6	13.5	7.60e-06	0	41	0	158334976	19	4142
2026-01-10 11:03:11.18	184.78	14.74	-29.5	-30.9	13.3	1.44e-05	0	41	0	159383552	19	4253
2026-01-10 11:03:12.19	184.85	14.84	-29.4	-30.7	13.4	2.36e-05	0	41	0	161480704	19	4183
2026-01-10 11:03:13.19	184.91	14.94	-29.5	-30.8	13.3	1.37e-05	0	41	0	163577856	19	4218
2026-01-10 11:03:14.20	184.98	15.04	-29.4	-30.8	13.3	1.75e-05	0	41	0	165675008	19	4219
2026-01-10 11:03:15.21	185.05	15.15	-29.4	-30.6	13.5	1.29e-05	0	41	0	166723584	19	4137
2026-01-10 11:03:16.22	185.12	15.25	-29.3	-30.3	13.7	9.90e-06	0	41	0	168820736	19	4065
2026-01-10 11:03:17.22	185.19	15.35	-29.4	-30.6	13.5	1.52e-05	0	41	0	170917888	19	4137
2026-01-10 11:03:18.22	185.26	15.46	-29.3	-30.4	13.6	8.30e-06	0	41	0	173015040	19	4096
2026-01-10 11:03:19.23	185.33	15.56	-29.3	-30.3	13.7	8.30e-06	0	41	0	175112192	19	4056
2026-01-10 11:03:20.23	185.40	15.67	-29.2	-30.2	13.7	3.00e-06	0	41	0	176160768	19	4024
2026-01-10 11:03:21.24	185.47	15.77	-29.0	-29.6	14.2	2.20e-06	0	41	0	178257920	19	3853
2026-01-10 11:03:22.24	185.54	15.88	-29.2	-30.1	13.8	4.50e-06	0	41	0	180355072	19	4002
2026-01-10 11:03:23.25	185.61	15.98	-29.2	-30.2	13.8	3.80e-06	0	41	0	182452224	19	4023
2026-01-10 11:03:24.26	185.68	16.09	-29.1	-29.9	13.9	6.80e-06	0	41	0	184549376	19	3947
2026-01-10 11:03:25.26	185.76	16.20	-29.2	-30.2	13.8	6.10e-06	0	41	0	186646528	19	4018
2026-01-10 11:03:26.27	185.83	16.31	-29.0	-29.7	14.1	3.80e-06	0	41	0	187695104	19	3880
2026-01-10 11:03:27.28	185.90	16.41	-28.9	-29.3	14.4	3.00e-06	0	41	0	189792256	19	3783
2026-01-10 11:03:28.28	185.98	16.52	-29.1	-29.8	14.0	7.00e-07	0	41	0	191889408	19	3915
2026-01-10 11:03:29.29	186.05	16.63	-29.1	-30.0	13.9	3.80e-06	0	41	0	193986560	19	3972
2026-01-10 11:03:30.29	186.13	16.74	-29.1	-29.9	14.0	1.50e-06	0	41	0	195035136	19	3942
2026-01-10 11:03:31.29	186.20	16.85	-29.2	-30.2	13.8	3.00e-06	0	41	0	197132288	19	4011
2026-01-10 11:03:32.30	186.28	16.96	-29.2	-30.1	13.8	3.00e-06	0	41	0	199229440	19	3994
2026-01-10 11:03:33.30	186.36	17.07	-29.2	-30.2	13.8	7.60e-06	0	41	0	201326592	19	4026
2026-01-10 11:03:34.31	186.43	17.18	-29.2	-30.0	13.9	3.00e-06	0	41	0	203423744	19	3969
2026-01-10 11:03:35.31	186.51	17.29	-29.1	-30.0	14.0	3.80e-06	0	41	0	204472320	19	3954
2026-01-10 11:03:36.32	186.59	17.40	-29.0	-29.7	14.2	4.50e-06	0	41	0	206569472	19	3872
2026-01-10 11:03:37.32	186.67	17.51	-29.1	-29.8	14.1	7.00e-07	0	41	0	208666624	19	3902
2026-01-10 11:03:38.33	186.75	17.63	-29.0	-29.5	14.3	0.00e+00	0	41	0	210763776	19	3827
2026-01-10 11:03:39.34	186.83	17.74	-28.8	-29.1	14.5	7.00e-07	0	41	0	212860928	19	3730
2026-01-10 11:03:40.34	186.91	17.85	-28.8	-29.1	14.5	1.50e-06	0	41	0	213909504	19	3717
2026-01-10 11:03:41.35	186.99	17.97	-28.7	-29.3	14.7	0.00e+00	0	41	0	216006656	18	3870
2026-01-10 11:03:42.35	187.07	18.08	-28.7	-29.3	14.7	0.00e+00	0	41	0	218103808	18	3870
2026-01-10 11:03:43.36	187.16	18.20	-28.6	-29.1	14.9	0.00e+00	0	41	0	220200960	18	3804
2026-01-10 11:03:44.35	187.24	18.31	-28.6	-29.1	14.9	0.00e+00	0	41	0	222298112	18	3815
2026-01-10 11:03:45.36	187.32	18.43	-28.7	-29.2	14.8	0.00e+00	0	41	0	223346688	18	3829
2026-01-10 11:03:46.37	187.41	18.55	-28.7	-29.2	14.8	0.00e+00	0	41	0	225443840	18	3841
2026-01-10 11:03:47.38	187.49	18.66	-28.9	-29.7	14.6	0.00e+00	0	41	0	227540992	18	3964
2026-01-10 11:03:48.38	187.58	18.78	-28.8	-29.6	14.6	7.00e-07	0	41	0	229638144	18	3931
2026-01-10 11:03:49.38	187.66	18.90	-28.5	-28.8	15.1	0.00e+00	0	41	0	231735296	18	3727
2026-01-10 11:03:50.39	187.75	19.02	-28.3	-28.3	15.4	0.00e+00	0	41	0	232783872	18	3599
2026-01-10 11:03:51.39	187.84	19.14	-28.2	-28.5	15.5	0.00e+00	0	42	0	234881024	17	3736
2026-01-10 11:03:52.39	187.93	19.26	-28.3	-28.7	15.4	7.00e-07	0	41	0	236978176	17	3788
2026-01-10 11:03:53.40	188.02	19.38	-28.2	-28.6	15.6	0.00e+00	0	41	0	239075328	17	3749
2026-01-10 11:03:54.41	188.11	19.50	-28.4	-29.1	15.2	0.00e+00	0	41	0	241172480	17	3883
2026-01-10 11:03:55.41	188.20	19.62	-28.3	-28.8	15.4	0.00e+00	0	41	0	242221056	17	3825
2026-01-10 11:03:56.42	188.29	19.74	-28.3	-28.8	15.4	0.00e+00	0	41	0	244318208	17	3807
2026-01-10 11:03:57.43	188.38	19.86	-28.4	-29.0	15.3	0.00e+00	0	41	0	246415360	17	3871
2026-01-10 11:03:58.43	188.47	19.98	-28.6	-29.5	15.0	0.00e+00	0	41	0	248512512	17	3988
2026-01-10 11:03:59.43	188.56	20.11	-28.7	-29.8	14.8	0.00e+00	0	41	0	250609664	17	4092
2026-01-10 11:04:00.44	188.66	20.23	-28.7	-29.9	14.7	0.00e+00	0	41	0	251658240	17	4116
2026-01-10 11:04:01.45	188.75	20.36	-28.8	-30.0	14.7	7.00e-07	0	42	0	253755392	17	4134
2026-01-10 11:04:02.46	188.85	20.48	-28.8	-30.1	14.6	0.00e+00	0	41	0	255852544	17	4186
2026-01-10 11:04:03.46	188.95	20.61	-28.9	-30.2	14.6	0.00e+00	0	41	0	257949696	17	4211
2026-01-10 11:04:04.47	189.04	20.73	-28.9	-30.4	14.5	0.00e+00	0	41	0	260046848	17	4275
2026-01-10 11:04:05.47	189.14	20.86	-29.0	-29.9	14.4	0.00e+00	0	41	0	261095424	18	4027
2026-01-10 11:04:06.47	189.24	20.99	-29.0	-30.1	14.4	7.00e-07	0	41	0	263192576	18	4074
2026-01-10 11:04:07.48	189.34	21.11	-28.9	-29.9	14.5	0.00e+00	0	41	0	265289728	18	4018
2026-01-10 11:04:08.49	189.44	21.24	-28.9	-29.8	14.5	1.50e-06	0	41	0	267386880	18	4009
2026-01-10 11:04:09.49	189.54	21.37	-28.7	-29.3	14.9	0.00e+00	0	42	0	269484032	18	3852
2026-01-10 11:04:10.50	189.64	21.50	-28.8	-29.5	14.8	0.00e+00	0	42	0	270532608	18	3904
2026-01-10 11:04:11.50	189.74	21.63	-28.8	-29.7	14.7	2.20e-06	0	41	0	272629760	18	3972
2026-01-10 11:04:12.51	189.84	21.76	-28.7	-29.4	14.8	0.00e+00	0	41	0	274726912	18	3887
2026-01-10 11:04:13.51	189.95	21.89	-28.6	-29.0	15.1	0.00e+00	0	41	0	276824064	18	3789
2026-01-10 11:04:14.52	190.05	22.02	-28.6	-29.0	15.0	3.00e-06	0	41	0	278921216	18	3791
2026-01-10 11:04:15.53	190.16	22.16	-28.6	-29.0	15.0	0.00e+00	0	41	0	279969792	18	3787
2026-01-10 11:04:16.54	190.27	22.29	-28.8	-29.5	14.8	0.00e+00	0	41	0	282066944	18	3900
2026-01-10 11:04:17.54	190.37	22.42	-28.8	-29.6	14.7	2.20e-06	0	41	0	284164096	18	3945
2026-01-10 11:04:18.55	190.48	22.56	-28.7	-29.2	15.0	0.00e+00	0	41	0	286261248	18	3838
2026-01-10 11:04:19.55	190.59	22.69	-28.5	-28.8	15.3	0.00e+00	0	41	0	288358400	18	3723
2026-01-10 11:04:20.56	190.70	22.83	-28.4	-28.5	15.4	1.50e-06	0	41	0	289406976	18	3658
2026-01-10 11:04:21.56	190.81	22.96	-28.5	-28.9	15.2	0.00e+00	0	41	0	291504128	18	3738
2026-01-10 11:04:22.57	190.93	23.10	-28.1	-28.3	15.8	0.00e+00	0	41	0	293601280	17	3697
2026-01-10 11:04:23.58	191.04	23.24	-28.1	-28.3	15.8	0.00e+00	0	42	0	295698432	17	3684
2026-01-10 11:04:24.59	191.15	23.38	-28.1	-28.4	15.8	0.00e+00	0	41	0	297795584	17	3700
2026-01-10 11:04:25.58	191.27	23.51	-28.0	-28.1	16.0	0.00e+00	0	41	0	298844160	17	3633
2026-01-10 11:04:26.59	191.38	23.65	-28.1	-28.2	15.9	0.00e+00	0	41	0	300941312	17	3656
2026-01-10 11:04:27.59	191.50	23.79	-27.9	-27.8	16.2	0.00e+00	0	41	0	303038464	17	3548
2026-01-10 11:04:28.60	191.62	23.93	-28.0	-28.1	16.0	0.00e+00	0	41	0	305135616	17	3625
2026-01-10 11:04:29.61	191.74	24.08	-28.1	-28.4	15.8	1.50e-06	0	41	0	306184192	17	3701
2026-01-10 11:04:30.61	191.86	24.22	-28.1	-28.3	15.8	0.00e+00	0	41	0	308281344	17	3693
2026-01-10 11:04:31.62	191.98	24.36	-28.2	-28.5	15.8	0.00e+00	0	41	0	310378496	17	3721
2026-01-10 11:04:32.62	192.10	24.50	-28.2	-28.5	15.7	3.00e-06	0	42	0	312475648	17	3730
2026-01-10 11:04:33.62	192.22	24.64	-27.9	-27.8	16.1	0.00e+00	0	41	0	314572800	17	3567
2026-01-10 11:04:34.63	192.35	24.79	-27.7	-27.9	16.4	0.00e+00	0	41	0	316669952	16	3660
2026-01-10 11:04:35.63	192.47	24.93	-28.0	-28.4	16.1	7.00e-07	0	41	0	317718528	16	3788
2026-01-10 11:04:36.63	192.60	25.08	-27.8	-27.9	16.4	0.00e+00	0	41	0	319815680	16	3675
2026-01-10 11:04:37.64	192.73	25.22	-27.6	-27.6	16.6	0.00e+00	0	41	0	321912832	16	3584
2026-01-10 11:04:38.65	192.86	25.37	-28.0	-28.5	16.1	3.80e-06	0	41	0	324009984	16	3807
2026-01-10 11:04:39.65	192.99	25.52	-27.8	-28.0	16.4	0.00e+00	0	42	0	325058560	16	3684
2026-01-10 11:04:40.66	193.12	25.67	-28.0	-28.6	16.0	0.00e+00	0	42	0	327155712	16	3827
2026-01-10 11:04:41.67	193.25	25.82	-28.1	-28.7	16.0	3.80e-06	0	42	0	329252864	16	3870
2026-01-10 11:04:42.68	193.38	25.97	-28.1	-28.8	15.9	0.00e+00	0	42	0	331350016	16	3903
2026-01-10 11:04:43.68	193.52	26.12	-28.2	-29.0	15.8	0.00e+00	0	41	0	333447168	16	3929
2026-01-10 11:04:44.69	193.66	26.27	-28.3	-29.2	15.7	0.00e+00	0	42	0	334495744	16	4008
2026-01-10 11:04:45.69	193.79	26.42	-28.7	-29.6	15.2	0.00e+00	0	41	0	336592896	17	4018
2026-01-10 11:04:46.69	193.93	26.57	-28.7	-29.7	15.1	0.00e+00	0	41	0	338690048	17	4038
2026-01-10 11:04:47.70	194.07	26.72	-29.0	-30.4	14.7	0.00e+00	0	42	0	340787200	17	4233
2026-01-10 11:04:48.71	194.21	26.88	-29.0	-29.9	14.7	7.00e-07	0	42	0	342884352	18	3985
2026-01-10 11:04:49.71	194.35	27.03	-29.1	-30.2	14.5	0.00e+00	0	42	0	343932928	18	4089
2026-01-10 11:04:50.71	194.50	27.19	-29.1	-30.3	14.5	0.00e+00	0	42	0	346030080	18	4112
2026-01-10 11:04:51.71	194.64	27.34	-28.9	-29.7	14.8	7.00e-07	0	42	0	348127232	18	3950
2026-01-10 11:04:52.72	194.79	27.50	-29.1	-30.3	14.5	0.00e+00	0	42	0	350224384	18	4103
2026-01-10 11:04:53.73	194.94	27.66	-28.9	-29.6	14.9	0.00e+00	0	42	0	352321536	18	3911
2026-01-10 11:04:54.74	195.09	27.82	-29.2	-30.4	14.5	0.00e+00	0	42	0	353370112	18	4126
2026-01-10 11:04:55.74	195.24	27.97	-29.0	-30.0	14.7	0.00e+00	0	42	0	355467264	18	4015
2026-01-10 11:04:56.75	195.39	28.13	-29.2	-30.5	14.4	3.00e-06	0	42	0	357564416	18	4149
2026-01-10 11:04:57.76	195.55	28.29	-29.2	-30.4	14.4	7.00e-07	0	42	0	359661568	18	4127
2026-01-10 11:04:58.77	195.70	28.46	-29.4	-30.8	14.2	7.00e-07	0	42	0	361758720	18	4248
2026-01-10 11:04:59.77	195.86	28.62	-29.4	-30.4	14.1	2.20e-06	0	42	0	362807296	19	4051
2026-01-10 11:05:00.76	196.01	28.78	-29.6	-30.9	13.9	3.80e-06	0	42	0	364904448	19	4200
2026-01-10 11:05:01.76	196.17	28.94	-29.8	-31.5	13.4	9.10e-06	0	42	0	367001600	19	4369
2026-01-10 11:05:02.77	196.34	29.10	-29.6	-31.0	13.8	5.30e-06	0	42	0	369098752	19	4215
2026-01-10 11:05:03.78	196.50	29.27	-29.7	-31.3	13.6	8.30e-06	0	42	0	371195904	19	4312
2026-01-10 11:05:04.78	196.66	29.43	-29.8	-31.1	13.3	2.89e-05	0	42	0	372244480	20	4161
2026-01-10 11:05:05.79	196.83	29.60	-29.9	-31.3	13.2	2.13e-05	0	42	0	374341632	20	4215
2026-01-10 11:05:06.80	197.00	29.76	-30.2	-32.2	12.7	6.25e-05	0	42	0	376438784	20	4505
2026-01-10 11:05:07.81	197.17	29.93	-30.5	-32.6	12.0	1.79e-04	0	42	0	378535936	21	4576
2026-01-10 11:05:08.81	197.34	30.10	-31.0	-34.0	11.1	6.96e-04	0	42	0	380633088	21	5076
2026-01-10 11:05:09.81	197.51	30.27	-30.9	-33.1	11.4	1.69e-03	0	42	0	381681664	22	4651
2026-01-10 11:05:10.82	197.69	30.44	-31.2	-34.1	10.6	2.66e-03	0	42	0	383778816	22	5021
2026-01-10 11:05:11.83	197.87	30.61	-31.3	-34.3	10.4	4.95e-03	0	42	0	385875968	22	5114
2026-01-10 11:05:12.83	198.05	30.78	-31.3	-34.3	10.5	3.03e-03	0	42	0	387973120	22	5095
2026-01-10 11:05:13.84	198.23	30.95	-31.1	-33.7	11.0	2.36e-03	0	42	0	390070272	22	4863
2026-01-10 11:05:14.84	198.41	31.12	-31.0	-33.4	11.1	1.43e-03	0	42	0	391118848	22	4749
2026-01-10 11:05:15.84	198.59	31.29	-31.0	-33.5	11.0	1.67e-03	0	42	0	393216000	22	4795
2026-01-10 11:05:16.84	198.78	31.47	-31.1	-33.9	10.7	2.04e-03	0	42	0	395313152	22	4940
2026-01-10 11:05:17.85	198.97	31.64	-31.4	-34.8	10.1	4.79e-03	0	42	0	397410304	22	5309
2026-01-10 11:05:18.86	199.16	31.82	-31.4	-34.4	10.2	8.44e-03	0	42	0	399507456	23	5046
2026-01-10 11:05:19.86	199.35	31.99	-31.2	-33.7	10.6	3.74e-03	0	42	0	400556032	23	4795
2026-01-10 11:05:20.87	199.54	32.17	-31.3	-34.1	10.3	5.47e-03	0	42	0	402653184	23	4934
2026-01-10 11:05:21.88	199.74	32.35	-31.2	-33.5	10.8	3.92e-03	0	42	0	404750336	23	4694
2026-01-10 11:05:22.88	199.94	32.52	-31.2	-33.7	10.6	3.50e-03	0	42	0	406847488	23	4777
2026-01-10 11:05:23.89	200.14	32.70	-31.0	-32.9	11.1	1.88e-03	0	42	0	408944640	23	4484
2026-01-10 11:05:24.89	200.34	32.88	-31.1	-33.3	10.9	1.25e-03	0	42	0	409993216	23	4615
2026-01-10 11:05:25.90	200.55	33.06	-30.6	-32.3	12.0	6.94e-04	0	42	0	412090368	22	4365
2026-01-10 11:05:26.90	200.76	33.24	-30.2	-31.7	12.7	1.04e-04	0	42	0	414187520	21	4252
2026-01-10 11:05:27.91	200.97	33.42	-29.8	-30.5	13.5	2.97e-05	0	42	0	416284672	21	3895
2026-01-10 11:05:28.91	201.18	33.60	-29.7	-30.6	13.7	8.30e-06	0	42	0	418381824	20	4023
2026-01-10 11:05:29.91	201.39	33.78	-30.3	-32.2	12.7	1.37e-05	0	42	0	419430400	20	4510
2026-01-10 11:05:30.92	201.61	33.97	-30.3	-32.4	12.6	3.50e-05	0	42	0	421527552	20	4563
2026-01-10 11:05:31.93	201.83	34.15	-30.5	-32.9	12.2	8.77e-05	0	42	0	423624704	20	4750
2026-01-10 11:05:32.93	202.05	34.33	-30.2	-32.0	12.9	6.56e-05	0	41	0	425721856	20	4442
2026-01-10 11:05:33.94	202.27	34.52	-30.4	-32.2	12.4	1.91e-04	0	42	0	427819008	21	4406
2026-01-10 11:05:34.94	202.50	34.71	-30.5	-32.4	12.3	1.33e-04	0	42	0	428867584	21	4491
2026-01-10 11:05:35.95	202.73	34.89	-30.7	-33.0	11.8	2.90e-04	0	42	0	430964736	21	4698
2026-01-10 11:05:36.95	202.96	35.08	-30.2	-31.7	12.7	1.07e-04	0	42	0	433061888	21	4243
2026-01-10 11:05:37.96	203.19	35.27	-30.0	-31.1	13.1	4.19e-05	0	41	0	435159040	21	4069
2026-01-10 11:05:38.96	203.43	35.45	-29.5	-30.0	14.1	5.30e-06	0	42	0	437256192	20	3842
2026-01-10 11:05:39.97	203.67	35.64	-29.9	-31.1	13.5	6.10e-06	0	42	0	438304768	20	4146
2026-01-10 11:05:40.98	203.91	35.83	-30.0	-31.4	13.3	1.14e-05	0	42	0	440401920	20	4255
2026-01-10 11:05:41.98	204.16	36.02	-30.2	-31.9	13.0	1.44e-05	0	42	0	442499072	20	4402
2026-01-10 11:05:42.99	204.40	36.21	-30.6	-32.6	12.2	1.56e-04	0	42	0	444596224	21	4527
2026-01-10 11:05:43.99	204.65	36.40	-30.6	-32.7	12.1	4.60e-04	0	42	0	446693376	21	4567
2026-01-10 11:05:44.99	204.91	36.59	-30.6	-32.8	12.0	4.44e-04	0	42	0	447741952	21	4594
2026-01-10 11:05:46.00	205.16	36.78	-31.1	-33.6	11.3	8.86e-04	0	42	0	449839104	22	4795
2026-01-10 11:05:47.00	205.42	36.98	-30.5	-31.9	12.3	5.01e-04	0	42	0	451936256	22	4220
2026-01-10 11:05:48.01	205.69	37.17	-30.2	-31.5	12.9	5.72e-05	0	42	0	454033408	21	4192
2026-01-10 11:05:49.01	205.95	37.36	-29.6	-30.4	13.9	1.90e-05	0	42	0	456130560	20	3940
2026-01-10 11:05:50.02	206.22	37.56	-29.6	-30.5	13.9	3.00e-06	0	42	0	457179136	20	3969
2026-01-10 11:05:51.02	206.49	37.75	-29.3	-29.8	14.4	1.50e-06	0	42	0	459276288	20	3771
2026-01-10 11:05:52.03	206.77	37.94	-29.3	-29.7	14.4	3.80e-06	0	42	0	461373440	20	3753
2026-01-10 11:05:53.03	207.04	38.14	-29.4	-30.2	14.6	0.00e+00	0	42	0	463470592	19	3980
2026-01-10 11:05:54.03	207.32	38.33	-28.8	-28.9	15.2	0.00e+00	0	42	0	465567744	19	3631
2026-01-10 11:05:55.03	207.61	38.53	-29.1	-29.7	14.8	0.00e+00	0	42	0	466616320	19	3824
2026-01-10 11:05:56.04	207.90	38.72	-29.1	-29.7	14.8	0.00e+00	0	42	0	468713472	19	3828
2026-01-10 11:05:57.05	208.19	38.92	-29.4	-30.7	14.5	0.00e+00	0	42	0	470810624	18	4213
2026-01-10 11:05:58.06	208.49	39.12	-29.1	-30.2	14.8	0.00e+00	0	42	0	472907776	18	4068
2026-01-10 11:05:59.07	208.79	39.32	-29.5	-31.0	14.2	0.00e+00	0	42	0	475004928	18	4314
2026-01-10 11:06:00.07	209.09	39.51	-29.7	-31.1	14.0	1.50e-06	0	42	0	476053504	19	4224
2026-01-10 11:06:01.08	209.39	39.71	-29.4	-30.4	14.3	3.80e-06	0	41	0	478150656	19	4025
2026-01-10 11:06:02.08	209.70	39.91	-29.0	-29.3	15.0	0.00e+00	0	42	0	480247808	19	3746
2026-01-10 11:06:03.09	210.02	40.10	-29.1	-30.0	14.9	0.00e+00	0	42	0	482344960	18	4011
2026-01-10 11:06:04.09	210.33	40.30	-29.0	-29.9	15.0	0.00e+00	0	42	0	483393536	18	3977
2026-01-10 11:06:05.10	210.65	40.50	-28.8	-29.4	15.3	0.00e+00	0	42	0	485490688	18	3833
2026-01-10 11:06:06.10	210.98	40.70	-29.3	-30.6	14.5	0.00e+00	0	42	0	487587840	18	4188
2026-01-10 11:06:07.11	211.31	40.90	-29.0	-29.9	15.0	0.00e+00	0	42	0	489684992	18	3968
2026-01-10 11:06:08.12	211.64	41.10	-29.5	-31.1	14.3	1.50e-06	0	42	0	491782144	18	4326
2026-01-10 11:06:09.12	211.98	41.29	-29.4	-30.4	14.4	3.80e-06	0	42	0	493879296	19	4019
2026-01-10 11:06:10.13	212.32	41.49	-29.6	-30.7	14.2	0.00e+00	0	42	0	494927872	19	4122
2026-01-10 11:06:11.13	212.66	41.69	-29.5	-30.1	14.3	2.20e-06	0	42	0	497025024	20	3850
2026-01-10 11:06:12.13	213.01	41.89	-30.0	-31.3	13.5	5.30e-06	0	41	0	499122176	20	4204
2026-01-10 11:06:13.13	213.36	42.08	-30.0	-31.4	13.3	2.05e-05	0	42	0	501219328	20	4246
2026-01-10 11:06:14.14	213.72	42.28	-29.9	-31.1	13.5	3.96e-05	0	42	0	502267904	20	4157
2026-01-10 11:06:15.14	214.08	42.48	-29.7	-30.7	13.7	6.10e-06	0	42	0	504365056	20	4024
2026-01-10 11:06:16.15	214.45	42.68	-29.5	-30.0	14.3	0.00e+00	0	42	0	506462208	20	3834
2026-01-10 11:06:17.15	214.82	42.87	-29.3	-30.1	14.6	7.00e-07	0	42	0	508559360	19	3938
2026-01-10 11:06:18.16	215.19	43.07	-29.5	-30.6	14.3	0.00e+00	0	42	0	510656512	19	4063
2026-01-10 11:06:19.17	215.58	43.27	-29.3	-30.0	14.7	1.50e-06	0	42	0	511705088	19	3902
2026-01-10 11:06:20.18	215.96	43.46	-29.9	-31.6	13.6	3.00e-06	0	42	0	513802240	19	4383
2026-01-10 11:06:21.18	216.35	43.66	-30.0	-31.5	13.4	2.51e-05	0	42	0	515899392	20	4276
2026-01-10 11:06:22.18	216.74	43.85	-30.6	-32.6	12.2	5.56e-05	0	42	0	517996544	21	4542
2026-01-10 11:06:23.19	217.14	44.05	-30.6	-32.7	12.1	2.41e-04	0	42	0	520093696	21	4584
2026-01-10 11:06:24.19	217.54	44.24	-30.6	-32.7	12.2	1.65e-04	0	42	0	521142272	21	4559
2026-01-10 11:06:25.20	217.95	44.44	-30.3	-31.9	12.8	7.24e-05	0	42	0	523239424	21	4287
2026-01-10 11:06:26.20	218.37	44.63	-30.1	-31.1	13.2	2.44e-05	0	42	0	525336576	21	4055
2026-01-10 11:06:27.21	218.79	44.82	-29.8	-30.4	13.6	1.29e-05	0	42	0	527433728	21	3862
2026-01-10 11:06:28.22	219.21	45.01	-30.0	-30.9	13.4	6.80e-06	0	42	0	529530880	21	4002
2026-01-10 11:06:29.22	219.64	45.20	-30.2	-31.6	13.0	1.06e-05	0	42	0	530579456	21	4206
2026-01-10 11:06:30.22	220.07	45.39	-30.6	-32.6	12.3	6.40e-05	0	42	0	532676608	21	4530
2026-01-10 11:06:31.23	220.51	45.58	-31.1	-33.7	11.2	8.77e-04	0	42	0	534773760	22	4833
2026-01-10 11:06:32.23	220.95	45.77	-31.2	-34.0	11.0	1.10e-03	0	42	0	536870912	22	4957
2026-01-10 11:06:33.24	221.40	45.96	-31.2	-33.8	11.1	1.91e-03	0	42	0	538968064	22	4876
2026-01-10 11:06:34.25	221.86	46.14	-30.8	-32.6	11.9	4.87e-04	0	42	0	540016640	22	4436
2026-01-10 11:06:35.25	222.32	46.33	-30.6	-32.1	12.3	1.55e-04	0	42	0	542113792	22	4286
2026-01-10 11:06:36.26	222.78	46.51	-30.5	-31.9	12.5	9.00e-05	0	42	0	544210944	22	4208
2026-01-10 11:06:37.27	223.26	46.70	-30.9	-33.1	11.7	3.36e-04	0	42	0	546308096	22	4624
2026-01-10 11:06:38.27	223.73	46.88	-30.7	-32.2	12.3	2.94e-04	0	42	0	548405248	22	4321
2026-01-10 11:06:39.28	224.21	47.06	-30.3	-31.3	12.9	1.70e-04	0	42	0	549453824	22	4019
2026-01-10 11:06:40.28	224.70	47.23	-30.0	-30.8	13.6	4.11e-05	0	42	0	551550976	21	3965
2026-01-10 11:06:41.29	225.19	47.41	-30.0	-30.9	13.5	1.44e-05	0	42	0	553648128	21	3994
2026-01-10 11:06:42.30	225.69	47.59	-30.5	-32.2	12.6	4.57e-05	0	42	0	555745280	21	4387
2026-01-10 11:06:43.30	226.19	47.76	-30.6	-32.7	12.4	6.40e-05	0	42	0	557842432	21	4549
2026-01-10 11:06:44.31	226.70	47.93	-30.5	-32.2	12.6	1.13e-04	0	42	0	558891008	21	4409
2026-01-10 11:06:45.32	227.22	48.10	-30.4	-32.1	12.7	1.01e-04	0	42	0	560988160	21	4352
2026-01-10 11:06:46.32	227.74	48.27	-29.9	-30.6	13.7	2.82e-05	0	42	0	563085312	21	3894
2026-01-10 11:06:47.32	228.26	48.44	-29.7	-30.5	14.1	2.20e-06	0	42	0	565182464	20	3950
2026-01-10 11:06:48.33	228.80	48.60	-29.7	-30.6	14.0	2.20e-06	0	42	0	567279616	20	3991
2026-01-10 11:06:49.34	229.34	48.77	-29.8	-30.9	13.8	4.50e-06	0	42	0	568328192	20	4058
2026-01-10 11:06:50.35	229.88	48.93	-30.0	-31.5	13.4	6.10e-06	0	42	0	570425344	20	4255
2026-01-10 11:06:51.35	230.43	49.09	-30.5	-32.7	12.6	7.70e-05	0	42	0	572522496	20	4647
2026-01-10 11:06:52.36	230.98	49.24	-30.7	-32.7	12.3	8.39e-05	0	42	0	574619648	21	4567
2026-01-10 11:06:53.37	231.55	49.40	-30.4	-31.9	12.7	2.37e-04	0	42	0	576716800	21	4287
2026-01-10 11:06:54.37	232.11	49.55	-30.4	-32.0	12.8	1.11e-04	0	42	0	577765376	21	4328
2026-01-10 11:06:55.37	232.67	49.70	-30.4	-32.0	12.7	1.25e-04	0	42	0	579862528	21	4313
2026-01-10 11:06:56.38	233.25	49.84	-30.3	-31.8	12.8	9.91e-05	0	42	0	581959680	21	4264
2026-01-10 11:06:57.38	233.83	49.99	-30.3	-31.8	12.8	7.01e-05	0	42	0	584056832	21	4270
2026-01-10 11:06:58.39	234.42	50.13	-30.7	-32.8	12.2	5.49e-05	0	42	0	586153984	21	4595
2026-01-10 11:06:59.40	235.02	50.27	-30.5	-32.2	12.6	1.31e-04	0	42	0	587202560	21	4387
2026-01-10 11:07:00.40	235.61	50.40	-30.4	-31.9	12.8	6.79e-05	0	42	0	589299712	21	4305
2026-01-10 11:07:01.41	236.22	50.54	-30.4	-31.8	12.9	3.20e-05	0	42	0	591396864	21	4263
2026-01-10 11:07:02.42	236.83	50.67	-30.5	-32.3	12.6	9.30e-05	0	42	0	593494016	21	4431
2026-01-10 11:07:03.43	237.44	50.79	-30.9	-33.3	11.9	2.18e-04	0	42	0	595591168	21	4770
2026-01-10 11:07:04.43	238.06	50.92	-30.9	-33.4	11.8	4.49e-04	0	42	0	596639744	21	4801
2026-01-10 11:07:05.44	238.69	51.04	-30.7	-32.4	12.2	3.81e-04	0	42	0	598736896	22	4375
2026-01-10 11:07:06.45	239.32	51.16	-31.0	-33.1	11.7	2.31e-04	0	42	0	600834048	22	4589
2026-01-10 11:07:07.45	239.95	51.27	-31.2	-33.7	11.3	7.02e-04	0	42	0	602931200	22	4811
2026-01-10 11:07:08.46	240.59	51.38	-31.1	-33.6	11.3	8.39e-04	0	42	0	605028352	22	4788
2026-01-10 11:07:09.47	241.23	51.49	-31.2	-33.8	11.2	7.41e-04	0	42	0	606076928	22	4850
2026-01-10 11:07:10.47	241.88	51.59	-31.0	-33.1	11.7	6.46e-04	0	42	0	608174080	22	4599
2026-01-10 11:07:11.48	242.53	51.69	-30.3	-31.7	13.0	1.46e-04	0	42	0	610271232	21	4219
2026-01-10 11:07:12.48	243.18	51.79	-29.4	-29.7	14.5	7.60e-06	0	42	0	612368384	20	3743
2026-01-10 11:07:13.48	243.84	51.88	-28.6	-28.8	15.7	0.00e+00	0	42	0	614465536	18	3676
2026-01-10 11:07:14.49	244.51	51.97	-28.8	-29.2	15.5	0.00e+00	0	42	0	615514112	18	3793
2026-01-10 11:07:15.50	245.18	52.06	-29.4	-30.7	14.6	0.00e+00	0	42	0	617611264	18	4192
2026-01-10 11:07:16.51	245.85	52.14	-29.2	-30.2	14.9	1.50e-06	0	42	0	619708416	18	4051
2026-01-10 11:07:17.51	246.52	52.22	-29.0	-29.8	15.2	0.00e+00	0	42	0	621805568	18	3921
2026-01-10 11:07:18.52	247.20	52.29	-29.3	-30.5	14.8	0.00e+00	0	42	0	623902720	18	4136
2026-01-10 11:07:19.52	247.88	52.36	-29.5	-30.6	14.4	2.20e-06	0	42	0	624951296	19	4077
2026-01-10 11:07:20.53	248.57	52.43	-29.1	-29.6	15.0	0.00e+00	0	42	0	627048448	19	3792
2026-01-10 11:07:21.54	249.26	52.49	-28.7	-29.0	15.6	0.00e+00	0	42	0	629145600	18	3738
2026-01-10 11:07:22.55	249.96	52.55	-28.8	-29.2	15.6	3.80e-06	0	42	0	631242752	18	3785
2026-01-10 11:07:23.55	250.65	52.60	-29.1	-30.0	15.1	0.00e+00	0	42	0	633339904	18	3976
2026-01-10 11:07:24.56	251.34	52.65	-29.0	-29.8	15.2	0.00e+00	0	42	0	634388480	18	3936
2026-01-10 11:07:25.57	252.04	52.69	-29.5	-30.5	14.5	3.00e-06	0	42	0	636485632	19	4052
2026-01-10 11:07:26.57	252.74	52.73	-29.8	-31.3	14.1	0.00e+00	0	42	0	638582784	19	4267
2026-01-10 11:07:27.58	253.45	52.77	-30.0	-31.4	13.6	9.10e-06	0	42	0	640679936	20	4204
2026-01-10 11:07:28.59	254.15	52.80	-29.9	-31.1	13.8	1.29e-05	0	42	0	642777088	20	4112
2026-01-10 11:07:29.59	254.85	52.83	-29.6	-30.2	14.3	7.00e-07	0	42	0	643825664	20	3872
2026-01-10 11:07:30.60	255.56	52.85	-29.4	-30.3	14.6	0.00e+00	0	42	0	645922816	19	3985
2026-01-10 11:07:31.60	256.26	52.87	-29.6	-30.8	14.3	7.00e-07	0	42	0	648019968	19	4123
2026-01-10 11:07:32.61	256.98	52.89	-30.2	-31.8	13.3	3.80e-06	0	42	0	650117120	20	4351
2026-01-10 11:07:33.61	257.68	52.90	-30.0	-31.3	13.5	1.98e-05	0	42	0	652214272	20	4179
2026-01-10 11:07:34.62	258.39	52.90	-29.9	-31.2	13.8	1.50e-06	0	42	0	653262848	20	4138
2026-01-10 11:07:35.62	259.10	52.91	-30.3	-31.5	13.2	3.12e-05	0	42	0	655360000	21	4155
2026-01-10 11:07:36.63	259.81	52.90	-30.6	-32.5	12.5	9.99e-05	0	42	0	657457152	21	4486
2026-01-10 11:07:37.64	260.52	52.89	-30.5	-32.1	12.8	3.96e-05	0	42	0	659554304	21	4343
2026-01-10 11:07:38.64	261.22	52.88	-30.4	-31.9	13.0	4.88e-05	0	42	0	661651456	21	4269
2026-01-10 11:07:39.65	261.93	52.87	-30.3	-31.8	13.0	4.80e-05	0	42	0	662700032	21	4236
2026-01-10 11:07:40.65	262.64	52.85	-29.9	-30.7	13.7	1.52e-05	0	42	0	664797184	21	3913
2026-01-10 11:07:41.66	263.35	52.82	-29.4	-29.7	14.6	3.00e-06	0	42	0	666894336	20	3735
2026-01-10 11:07:42.67	264.05	52.79	-29.7	-30.5	14.2	7.00e-07	0	42	0	668991488	20	3941
2026-01-10 11:07:43.67	264.75	52.76	-30.4	-32.3	13.0	8.30e-06	0	42	0	671088640	20	4515
2026-01-10 11:07:44.68	265.45	52.72	-30.4	-31.9	12.9	7.40e-05	0	42	0	672137216	21	4271
2026-01-10 11:07:45.68	266.15	52.68	-30.1	-31.0	13.4	2.13e-05	0	42	0	674234368	21	4000
2026-01-10 11:07:46.69	266.85	52.63	-30.1	-31.2	13.4	1.98e-05	0	42	0	676331520	21	4068
2026-01-10 11:07:47.70	267.55	52.58	-29.9	-30.6	13.7	1.75e-05	0	42	0	678428672	21	3900
2026-01-10 11:07:48.71	268.24	52.52	-29.0	-29.3	15.2	7.00e-07	0	42	0	680525824	19	3709
2026-01-10 11:07:49.71	268.93	52.47	-28.8	-29.1	15.6	7.00e-07	0	42	0	681574400	18	3749
2026-01-10 11:07:50.72	269.62	52.40	-28.8	-29.2	15.6	0.00e+00	0	42	0	683671552	18	3784
2026-01-10 11:07:51.72	270.30	52.34	-28.8	-29.3	15.5	0.00e+00	0	42	0	685768704	18	3806
2026-01-10 11:07:52.73	270.98	52.26	-29.0	-29.6	15.4	0.00e+00	0	42	0	687865856	18	3882
2026-01-10 11:07:53.74	271.66	52.19	-28.5	-28.5	16.0	0.00e+00	0	42	0	689963008	18	3612
2026-01-10 11:07:54.74	272.33	52.11	-28.1	-28.1	16.5	0.00e+00	0	42	0	691011584	17	3585
2026-01-10 11:07:55.74	272.99	52.03	-28.0	-27.8	16.7	0.00e+00	0	42	0	693108736	17	3524
2026-01-10 11:07:56.74	273.66	51.94	-28.1	-28.0	16.5	0.00e+00	0	42	0	695205888	17	3581
2026-01-10 11:07:57.74	274.31	51.85	-28.4	-28.8	16.0	0.00e+00	0	42	0	697303040	17	3774
2026-01-10 11:07:58.75	274.97	51.76	-28.8	-29.7	15.6	0.00e+00	0	42	0	698351616	17	4008
2026-01-10 11:07:59.76	275.63	51.66	-28.9	-30.0	15.4	0.00e+00	0	42	0	700448768	17	4082
2026-01-10 11:08:00.76	276.28	51.56	-28.7	-29.5	15.7	0.00e+00	0	42	0	702545920	17	3955
2026-01-10 11:08:01.77	276.92	51.45	-28.6	-29.2	15.9	0.00e+00	0	42	0	704643072	17	3879
2026-01-10 11:08:02.77	277.56	51.34	-29.3	-30.4	15.0	0.00e+00	0	42	0	706740224	18	4093
2026-01-10 11:08:03.78	278.20	51.23	-29.6	-30.8	14.3	0.00e+00	0	42	0	708837376	19	4117
2026-01-10 11:08:04.79	278.83	51.12	-29.8	-31.1	14.2	0.00e+00	0	42	0	709885952	19	4215
2026-01-10 11:08:05.79	279.45	51.00	-28.9	-29.1	15.4	0.00e+00	0	42	0	711983104	19	3658
2026-01-10 11:08:06.78	280.07	50.88	-29.1	-29.4	15.2	0.00e+00	0	42	0	714080256	19	3733
2026-01-10 11:08:07.79	280.68	50.75	-29.3	-30.1	14.8	0.00e+00	0	42	0	716177408	19	3912
2026-01-10 11:08:08.80	281.30	50.63	-29.5	-30.5	14.6	0.00e+00	0	42	0	717225984	19	4036
2026-01-10 11:08:09.80	281.90	50.50	-29.1	-29.5	15.2	0.00e+00	0	42	0	719323136	19	3761
2026-01-10 11:08:10.80	282.50	50.36	-29.1	-29.5	15.1	0.00e+00	0	42	0	721420288	19	3773
2026-01-10 11:08:11.81	283.10	50.23	-29.3	-30.1	14.8	0.00e+00	0	42	0	723517440	19	3923
2026-01-10 11:08:12.81	283.68	50.09	-29.9	-31.1	13.7	4.50e-06	0	42	0	725614592	20	4133
2026-01-10 11:08:13.82	284.27	49.95	-30.2	-31.9	13.2	1.14e-05	0	42	0	726663168	20	4378
2026-01-10 11:08:14.82	284.84	49.80	-29.7	-30.6	13.9	5.30e-06	0	42	0	728760320	20	3990
2026-01-10 11:08:15.83	285.42	49.66	-29.1	-29.5	15.1	0.00e+00	0	42	0	730857472	19	3768
2026-01-10 11:08:16.84	285.99	49.51	-29.0	-29.2	15.3	0.00e+00	0	42	0	732954624	19	3691
2026-01-10 11:08:17.85	286.56	49.35	-29.1	-29.3	15.2	0.00e+00	0	42	0	735051776	19	3715
2026-01-10 11:08:18.86	287.11	49.20	-29.9	-31.5	13.9	7.00e-07	0	42	0	736100352	19	4337
2026-01-10 11:08:19.87	287.67	49.04	-30.4	-31.9	12.9	2.74e-05	0	42	0	738197504	21	4282
2026-01-10 11:08:20.87	288.21	48.88	-30.6	-32.6	12.5	1.45e-04	0	42	0	740294656	21	4512
2026-01-10 11:08:21.88	288.75	48.72	-30.6	-32.4	12.6	6.79e-05	0	42	0	742391808	21	4449
2026-01-10 11:08:22.89	289.29	48.56	-30.9	-33.5	11.8	2.10e-04	0	42	0	744488960	21	4816
2026-01-10 11:08:23.90	289.82	48.39	-31.0	-33.1	11.7	5.82e-04	0	42	0	745537536	22	4573
2026-01-10 11:08:24.91	290.35	48.23	-30.8	-32.5	12.2	3.32e-04	0	42	0	747634688	22	4370
2026-01-10 11:08:25.92	290.87	48.06	-30.8	-32.5	12.3	1.20e-04	0	42	0	749731840	22	4374
2026-01-10 11:08:26.92	291.37	47.89	-31.1	-33.6	11.4	2.26e-04	0	42	0	751828992	22	4795
2026-01-10 11:08:27.93	291.88	47.71	-31.2	-33.9	11.2	1.23e-03	0	42	0	753926144	22	4909
2026-01-10 11:08:28.94	292.39	47.54	-31.7	-34.9	10.1	2.97e-03	0	42	0	754974720	23	5213
2026-01-10 11:08:29.95	292.88	47.36	-31.6	-34.4	10.4	6.52e-03	0	42	0	757071872	23	5020
2026-01-10 11:08:30.94	293.36	47.19	-31.9	-35.5	9.7	8.25e-03	0	42	0	759169024	23	5456
2026-01-10 11:08:31.95	293.85	47.01	-32.2	-36.4	8.6	2.93e-02	0	42	0	761266176	24	5803
2026-01-10 11:08:32.95	294.33	46.83	-31.9	-34.9	9.7	2.16e-02	0	42	0	763363328	24	5129
2026-01-10 11:08:33.96	294.80	46.65	-31.7	-34.3	10.2	5.41e-03	0	42	0	765460480	24	4865
2026-01-10 11:08:34.97	295.27	46.47	-32.1	-35.7	9.3	8.14e-03	0	42	0	766509056	24	5481
2026-01-10 11:08:35.98	295.74	46.28	-32.9	-39.0	6.5	6.54e-02	0	42	0	768606208	25	7232
2026-01-10 11:08:36.98	296.19	46.10	-33.4	-41.7	4.5	6.61e-01	0	42	0	770703360	26	9384
2026-01-10 11:08:37.98	296.64	45.92	-33.1	-39.3	5.7	6.55e-01	0	42	0	772800512	26	7424
2026-01-10 11:08:38.99	297.09	45.73	-33.0	-39.2	5.9	3.64e-01	0	42	0	773849088	26	7283
2026-01-10 11:08:40.00	297.53	45.54	-32.9	-38.6	6.4	2.95e-01	0	42	0	775946240	26	6920
2026-01-10 11:08:41.01	297.97	45.35	-33.0	-39.2	5.9	3.60e-01	0	42	0	778043392	26	7315
2026-01-10 11:08:42.01	298.40	45.16	-33.1	-39.4	5.8	3.42e-01	0	42	0	780140544	26	7445
2026-01-10 11:08:43.02	298.83	44.97	-33.4	-42.0	4.4	5.37e-01	0	42	0	782237696	26	9739
2026-01-10 11:08:44.03	299.25	44.78	-33.4	-41.7	4.6	1.15e+00	0	42	0	783286272	26	9422
2026-01-10 11:08:45.03	299.66	44.59	-33.4	-42.1	4.4	9.96e-01	0	42	0	785383424	26	9803
2026-01-10 11:08:46.04	300.08	44.40	-33.1	-39.9	5.4	7.77e-01	0	42	0	787480576	26	7840
2026-01-10 11:08:47.04	300.48	44.20	-33.0	-39.2	5.9	4.40e-01	0	42	0	789577728	26	7288
2026-01-10 11:08:48.05	300.88	44.01	-33.0	-39.1	5.9	3.37e-01	0	42	0	791674880	26	7265
2026-01-10 11:08:49.06	301.28	43.81	-33.2	-40.3	5.2	4.51e-01	0	42	0	792723456	26	8161
2026-01-10 11:08:50.07	301.67	43.62	-33.1	-39.4	5.7	4.37e-01	0	42	0	794820608	26	7465
2026-01-10 11:08:51.07	302.06	43.43	-32.9	-38.3	6.5	2.95e-01	0	42	0	796917760	26	6737
2026-01-10 11:08:52.07	302.44	43.23	-32.3	-35.6	8.4	1.25e-01	0	42	0	799014912	26	5273
2026-01-10 11:08:53.08	302.82	43.03	-31.7	-34.4	10.2	1.66e-02	0	42	0	801112064	24	4885
2026-01-10 11:08:54.09	303.19	42.84	-31.4	-33.6	11.3	1.77e-03	0	42	0	802160640	23	4673
2026-01-10 11:08:55.09	303.56	42.64	-30.9	-32.3	12.1	4.17e-04	0	42	0	804257792	23	4235
2026-01-10 11:08:56.10	303.93	42.44	-31.3	-33.4	11.4	3.33e-04	0	42	0	806354944	23	4587
2026-01-10 11:08:57.10	304.28	42.25	-31.4	-33.9	10.9	1.54e-03	0	42	0	808452096	23	4790
2026-01-10 11:08:58.10	304.64	42.05	-31.4	-33.8	10.9	2.10e-03	0	42	0	810549248	23	4748
2026-01-10 11:08:59.11	304.99	41.86	-30.4	-31.3	13.1	1.29e-04	0	42	0	811597824	22	3991
2026-01-10 11:09:00.12	305.34	41.66	-30.7	-32.7	12.5	2.74e-05	0	42	0	813694976	21	4525
2026-01-10 11:09:01.12	305.68	41.46	-31.4	-34.4	10.8	5.49e-04	0	42	0	815792128	22	5080
2026-01-10 11:09:02.12	306.02	41.26	-31.6	-34.3	10.6	1.83e-03	0	42	0	817889280	23	4946
2026-01-10 11:09:03.13	306.35	41.07	-32.2	-36.0	8.9	7.10e-03	0	42	0	819986432	24	5625
2026-01-10 11:09:04.14	306.69	40.87	-32.0	-35.3	9.5	1.72e-02	0	42	0	821035008	24	5292
2026-01-10 11:09:05.15	307.01	40.67	-31.6	-34.1	10.3	1.13e-02	0	42	0	823132160	24	4799
2026-01-10 11:09:06.15	307.33	40.47	-31.5	-33.7	10.7	4.21e-03	0	42	0	825229312	24	4642
2026-01-10 11:09:07.15	307.65	40.28	-31.9	-34.9	9.7	5.40e-03	0	42	0	827326464	24	5097
2026-01-10 11:09:08.16	307.97	40.08	-31.4	-33.5	10.8	2.54e-03	0	42	0	829423616	24	4576
2026-01-10 11:09:09.16	308.28	39.89	-31.7	-34.5	10.1	5.26e-03	0	42	0	830472192	24	4970
2026-01-10 11:09:10.17	308.59	39.69	-31.9	-34.9	9.5	6.94e-03	0	42	0	832569344	24	5116
2026-01-10 11:09:11.17	308.89	39.49	-31.2	-33.2	11.4	1.55e-03	0	42	0	834666496	23	4517
2026-01-10 11:09:12.18	309.19	39.30	-30.6	-32.0	12.6	1.89e-04	0	42	0	836763648	22	4212
2026-01-10 11:09:13.18	309.49	39.10	-30.8	-32.5	12.4	6.40e-05	0	42	0	838860800	22	4357
2026-01-10 11:09:14.19	309.78	38.91	-31.0	-33.1	11.9	2.75e-04	0	42	0	839909376	22	4579
2026-01-10 11:09:15.19	310.07	38.71	-31.7	-34.9	10.2	2.70e-03	0	42	0	842006528	23	5197
2026-01-10 11:09:16.20	310.36	38.52	-31.8	-35.4	9.8	8.53e-03	0	42	0	844103680	23	5411
2026-01-10 11:09:17.20	310.64	38.32	-30.8	-32.1	12.1	4.57e-03	0	42	0	846200832	23	4162
2026-01-10 11:09:18.20	310.92	38.13	-30.0	-30.8	13.7	2.82e-05	0	42	0	848297984	21	3939
2026-01-10 11:09:19.20	311.19	37.94	-30.1	-31.0	13.6	7.00e-07	0	42	0	849346560	21	3997
2026-01-10 11:09:20.21	311.47	37.74	-30.5	-32.1	12.8	1.83e-05	0	42	0	851443712	21	4352
2026-01-10 11:09:21.22	311.74	37.55	-31.2	-33.8	11.5	4.13e-04	0	42	0	853540864	22	4831
2026-01-10 11:09:22.23	312.01	37.36	-31.7	-34.9	10.2	1.98e-03	0	42	0	855638016	23	5195
2026-01-10 11:09:23.24	312.27	37.16	-32.2	-36.2	8.8	2.75e-02	0	42	0	857735168	24	5672
2026-01-10 11:09:24.24	312.53	36.97	-31.8	-34.8	9.7	1.86e-02	0	42	0	858783744	24	5085
2026-01-10 11:09:25.25	312.79	36.78	-31.2	-33.2	11.4	2.13e-03	0	42	0	860880896	23	4521
2026-01-10 11:09:26.26	313.05	36.59	-31.0	-32.7	11.7	3.67e-04	0	42	0	862978048	23	4363
2026-01-10 11:09:27.27	313.30	36.40	-30.7	-32.3	12.4	3.23e-04	0	42	0	865075200	22	4295
2026-01-10 11:09:28.27	313.55	36.21	-31.0	-32.9	12.0	2.17e-04	0	42	0	867172352	22	4494
2026-01-10 11:09:29.27	313.80	36.02	-31.6	-34.5	10.6	1.17e-03	0	42	0	868220928	23	5028
2026-01-10 11:09:30.28	314.04	35.83	-32.0	-35.4	9.5	6.00e-03	0	42	0	870318080	24	5329
2026-01-10 11:09:31.28	314.28	35.65	-32.4	-36.8	8.3	4.16e-02	0	42	0	872415232	24	6029
2026-01-10 11:09:32.28	314.52	35.46	-32.4	-36.4	8.2	6.35e-02	0	42	0	874512384	25	5715
2026-01-10 11:09:33.29	314.75	35.27	-31.6	-34.1	10.4	1.43e-02	0	42	0	876609536	24	4765
2026-01-10 11:09:34.29	314.98	35.09	-30.7	-32.2	12.5	6.06e-04	0	42	0	877658112	22	4277
2026-01-10 11:09:35.29	315.21	34.90	-30.1	-31.1	13.4	2.59e-05	0	42	0	879755264	21	4025
2026-01-10 11:09:36.30	315.44	34.72	-30.5	-32.0	12.8	1.06e-05	0	42	0	881852416	21	4304
2026-01-10 11:09:37.30	315.67	34.53	-31.0	-33.1	11.7	4.27e-05	0	42	0	883949568	22	4591
2026-01-10 11:09:38.31	315.89	34.35	-31.4	-33.9	11.0	2.42e-03	0	42	0	886046720	23	4766
2026-01-10 11:09:39.31	316.11	34.17	-31.9	-35.5	9.7	3.25e-03	0	42	0	887095296	23	5431
2026-01-10 11:09:40.31	316.33	33.98	-32.6	-37.2	7.8	3.57e-02	0	42	0	889192448	25	6125
2026-01-10 11:09:41.32	316.54	33.80	-32.6	-37.5	7.3	1.13e-01	0	42	0	891289600	25	6318
2026-01-10 11:09:42.33	316.76	33.62	-32.7	-38.1	7.0	1.88e-01	0	42	0	893386752	25	6679
2026-01-10 11:09:43.34	316.97	33.44	-32.1	-35.3	9.1	6.63e-02	0	42	0	894435328	25	5195
2026-01-10 11:09:44.34	317.18	33.26	-31.4	-33.2	11.0	4.52e-03	0	42	0	896532480	24	4449
2026-01-10 11:09:45.35	317.38	33.08	-30.9	-32.3	12.0	6.97e-04	0	42	0	898629632	23	4225
2026-01-10 11:09:46.35	317.59	32.90	-30.8	-32.6	12.1	2.84e-04	0	42	0	900726784	22	4419
2026-01-10 11:09:47.36	317.79	32.72	-30.8	-32.6	12.1	2.54e-04	0	42	0	902823936	22	4426
2026-01-10 11:09:48.37	317.99	32.55	-31.5	-34.6	10.6	1.73e-03	0	42	0	904921088	22	5173
2026-01-10 11:09:49.37	318.19	32.37	-31.9	-35.9	9.3	8.53e-03	0	42	0	905969664	23	5663
2026-01-10 11:09:50.38	318.38	32.19	-32.3	-36.7	8.2	2.27e-02	0	42	0	908066816	24	6023
2026-01-10 11:09:51.39	318.58	32.02	-32.6	-37.9	7.0	1.29e-01	0	42	0	910163968	25	6609
2026-01-10 11:09:52.39	318.77	31.84	-32.5	-37.2	7.4	1.37e-01	0	42	0	912261120	25	6232
2026-01-10 11:09:53.40	318.96	31.67	-32.6	-37.7	7.1	1.40e-01	0	42	0	913309696	25	6524
2026-01-10 11:09:54.40	319.15	31.50	-32.3	-36.5	8.0	6.71e-02	0	42	0	915406848	25	5793
2026-01-10 11:09:55.41	319.33	31.32	-32.3	-36.2	8.2	5.15e-02	0	42	0	917504000	25	5647
2026-01-10 11:09:56.41	319.52	31.15	-32.2	-35.7	8.7	3.95e-02	0	42	0	919601152	25	5430
2026-01-10 11:09:57.42	319.70	30.98	-32.1	-35.6	8.7	3.86e-02	0	42	0	921698304	25	5356
2026-01-10 11:09:58.43	319.88	30.81	-31.9	-34.8	9.4	1.75e-02	0	42	0	922746880	25	4998
2026-01-10 11:09:59.43	320.06	30.64	-32.1	-35.4	8.7	1.98e-02	0	42	0	924844032	25	5279
2026-01-10 11:10:00.43	320.23	30.47	-32.3	-36.4	8.1	4.62e-02	0	42	0	926941184	25	5757
2026-01-10 11:10:01.44	320.41	30.31	-32.6	-37.6	7.1	8.52e-02	0	42	0	929038336	25	6446
2026-01-10 11:10:02.45	320.58	30.14	-32.7	-38.3	6.6	2.02e-01	0	42	0	931135488	25	6848
2026-01-10 11:10:03.46	320.75	29.97	-32.7	-38.4	6.5	2.17e-01	0	42	0	932184064	25	6933
2026-01-10 11:10:04.46	320.92	29.80	-32.8	-38.9	6.2	2.64e-01	0	42	0	934281216	25	7274
2026-01-10 11:10:05.47	321.09	29.64	-32.8	-39.1	6.0	3.40e-01	0	42	0	936378368	25	7411
2026-01-10 11:10:06.48	321.26	29.47	-32.6	-37.7	7.0	2.28e-01	0	42	0	938475520	25	6475
2026-01-10 11:10:07.48	321.42	29.31	-32.2	-35.8	8.4	5.24e-02	0	42	0	940572672	25	5492
2026-01-10 11:10:08.49	321.58	29.15	-31.6	-34.3	9.9	1.53e-02	0	42	0	941621248	24	4894
2026-01-10 11:10:09.50	321.74	28.98	-31.5	-33.9	10.3	5.20e-03	0	42	0	943718400	24	4719
2026-01-10 11:10:10.51	321.91	28.82	-31.2	-33.3	11.1	2.90e-03	0	42	0	945815552	23	4597
2026-01-10 11:10:11.51	322.06	28.66	-31.1	-32.9	11.4	7.71e-04	0	42	0	947912704	23	4461
2026-01-10 11:10:12.51	322.22	28.50	-31.3	-33.7	11.0	1.12e-03	0	42	0	950009856	23	4713
2026-01-10 11:10:13.52	322.37	28.34	-31.3	-33.7	10.9	2.09e-03	0	42	0	951058432	23	4721
2026-01-10 11:10:14.53	322.53	28.18	-31.1	-33.1	11.3	1.94e-03	0	42	0	953155584	23	4517
2026-01-10 11:10:15.53	322.68	28.02	-31.1	-33.1	11.3	1.89e-03	0	42	0	955252736	23	4526
2026-01-10 11:10:16.54	322.83	27.87	-31.3	-33.5	11.0	1.58e-03	0	42	0	957349888	23	4668
2026-01-10 11:10:17.55	322.98	27.71	-31.4	-34.0	10.7	2.83e-03	0	42	0	959447040	23	4832
2026-01-10 11:10:18.55	323.13	27.55	-30.9	-32.3	11.8	8.67e-04	0	42	0	960495616	23	4262
2026-01-10 11:10:19.56	323.27	27.40	-30.6	-32.1	12.3	2.10e-04	0	42	0	962592768	22	4263
2026-01-10 11:10:20.56	323.42	27.24	-30.1	-31.2	13.1	6.02e-05	0	42	0	964689920	21	4080
2026-01-10 11:10:21.57	323.56	27.09	-30.0	-30.8	13.5	2.21e-05	0	42	0	966787072	21	3969
2026-01-10 11:10:22.57	323.70	26.94	-30.0	-30.9	13.4	2.44e-05	0	42	0	968884224	21	3991
2026-01-10 11:10:23.57	323.84	26.78	-30.0	-30.8	13.5	3.05e-05	0	42	0	969932800	21	3976
2026-01-10 11:10:24.58	323.98	26.63	-29.9	-30.7	13.6	5.30e-06	0	42	0	972029952	21	3923
2026-01-10 11:10:25.58	324.12	26.48	-29.9	-30.7	13.5	3.00e-06	0	42	0	974127104	21	3928
2026-01-10 11:10:26.59	324.26	26.33	-29.9	-30.6	13.6	1.14e-05	0	42	0	976224256	21	3906
2026-01-10 11:10:27.60	324.40	26.18	-29.6	-30.4	14.0	7.00e-07	0	42	0	978321408	20	3931
2026-01-10 11:10:28.60	324.53	26.03	-29.3	-30.0	14.6	0.00e+00	0	42	0	979369984	19	3906
2026-01-10 11:10:29.61	324.66	25.88	-29.3	-30.1	14.6	0.00e+00	0	42	0	981467136	19	3919
2026-01-10 11:10:30.62	324.80	25.73	-29.1	-29.6	14.9	7.00e-07	0	42	0	983564288	19	3800
2026-01-10 11:10:31.62	324.93	25.59	-29.4	-30.2	14.5	0.00e+00	0	42	0	985661440	19	3980
2026-01-10 11:10:32.63	325.06	25.44	-29.6	-30.8	14.1	2.20e-06	0	42	0	987758592	19	4131
2026-01-10 11:10:33.63	325.19	25.29	-29.6	-30.8	14.1	1.50e-06	0	42	0	988807168	19	4146
2026-01-10 11:10:34.64	325.31	25.15	-30.0	-31.4	13.4	6.10e-06	0	42	0	990904320	20	4222
2026-01-10 11:10:35.65	325.44	25.00	-30.0	-31.4	13.3	2.36e-05	0	42	0	993001472	20	4249
2026-01-10 11:10:36.66	325.57	24.86	-29.9	-31.2	13.5	6.80e-06	0	42	0	995098624	20	4170
2026-01-10 11:10:37.66	325.69	24.72	-30.2	-32.0	12.9	3.89e-05	0	42	0	997195776	20	4436
2026-01-10 11:10:38.67	325.81	24.57	-29.8	-30.9	13.6	1.90e-05	0	42	0	998244352	20	4093
2026-01-10 11:10:39.67	325.93	24.43	-29.8	-30.8	13.7	3.80e-06	0	42	0	1000341504	20	4055
2026-01-10 11:10:40.68	326.06	24.29	-29.6	-30.4	14.0	7.60e-06	0	42	0	1002438656	20	3929
2026-01-10 11:10:41.69	326.18	24.15	-29.4	-29.8	14.3	7.00e-07	0	42	0	1004535808	20	3778
2026-01-10 11:10:42.69	326.30	24.01	-29.6	-30.4	14.0	0.00e+00	0	42	0	1006632960	20	3934
2026-01-10 11:10:43.70	326.41	23.87	-29.5	-30.2	14.1	4.50e-06	0	42	0	1007681536	20	3886
2026-01-10 11:10:44.70	326.53	23.73	-29.6	-30.4	13.9	7.00e-07	0	42	0	1009778688	20	3955
2026-01-10 11:10:45.70	326.65	23.59	-29.7	-30.8	13.7	3.80e-06	0	42	0	1011875840	20	4043
2026-01-10 11:10:46.71	326.76	23.46	-29.9	-31.1	13.5	6.80e-06	0	42	0	1013972992	20	4156
2026-01-10 11:10:47.72	326.88	23.32	-30.0	-31.4	13.2	1.90e-05	0	42	0	1016070144	20	4249
2026-01-10 11:10:48.72	326.99	23.18	-30.2	-32.1	12.9	4.95e-05	0	42	0	1017118720	20	4453
2026-01-10 11:10:49.73	327.10	23.05	-30.5	-32.5	12.3	1.20e-04	0	42	0	1019215872	21	4498
2026-01-10 11:10:50.74	327.21	22.91	-30.7	-32.9	11.9	2.39e-04	0	42	0	1021313024	21	4654
2026-01-10 11:10:51.74	327.32	22.78	-30.7	-33.1	11.8	3.92e-04	0	42	0	1023410176	21	4715
2026-01-10 11:10:52.75	327.43	22.64	-30.8	-33.4	11.5	6.51e-04	0	42	0	1025507328	21	4854
2026-01-10 11:10:53.76	327.54	22.51	-30.6	-32.6	12.1	4.98e-04	0	42	0	1026555904	21	4550
2026-01-10 11:10:54.77	327.65	22.37	-30.7	-32.9	11.9	4.82e-04	0	42	0	1028653056	21	4664
2026-01-10 11:10:55.77	327.75	22.24	-30.5	-32.4	12.2	2.97e-04	0	42	0	1030750208	21	4497
2026-01-10 11:10:56.77	327.86	22.11	-30.7	-32.9	11.9	2.45e-04	0	42	0	1032847360	21	4664
2026-01-10 11:10:57.78	327.96	21.98	-30.5	-32.3	12.3	3.29e-04	0	42	0	1034944512	21	4437
2026-01-10 11:10:58.79	328.07	21.85	-30.1	-31.3	13.0	6.33e-05	0	42	0	1035993088	21	4114
2026-01-10 11:10:59.80	328.17	21.72	-30.1	-31.3	13.1	1.75e-05	0	42	0	1038090240	21	4107
2026-01-10 11:11:00.80	328.28	21.59	-30.1	-31.2	13.1	1.29e-05	0	42	0	1040187392	21	4090
2026-01-10 11:11:01.81	328.38	21.46	-30.2	-31.8	13.1	9.10e-06	0	42	0	1042284544	20	4362
2026-01-10 11:11:02.82	328.48	21.33	-30.0	-31.6	13.2	5.03e-05	0	42	0	1044381696	20	4290
2026-01-10 11:11:03.82	328.58	21.21	-29.7	-30.6	13.8	1.06e-05	0	42	0	1045430272	20	4000
2026-01-10 11:11:04.82	328.68	21.08	-29.9	-31.1	13.5	7.00e-07	0	42	0	1047527424	20	4155
2026-01-10 11:11:05.83	328.78	20.95	-30.0	-31.5	13.2	1.83e-05	0	42	0	1049624576	20	4264
2026-01-10 11:11:06.84	328.87	20.83	-30.1	-31.8	13.0	2.74e-05	0	42	0	1051721728	20	4376
2026-01-10 11:11:07.84	328.97	20.70	-30.2	-32.0	12.8	5.56e-05	0	42	0	1053818880	20	4437
2026-01-10 11:11:08.83	329.06	20.58	-30.5	-32.5	12.1	1.29e-04	0	42	0	1054867456	21	4536
2026-01-10 11:11:09.84	329.16	20.46	-30.4	-32.1	12.4	2.46e-04	0	42	0	1056964608	21	4395
2026-01-10 11:11:10.85	329.26	20.33	-30.7	-32.9	11.8	3.71e-04	0	42	0	1059061760	21	4681
2026-01-10 11:11:11.86	329.35	20.21	-30.7	-33.0	11.7	3.97e-04	0	42	0	1061158912	21	4686
2026-01-10 11:11:12.86	329.44	20.09	-30.9	-33.7	11.2	5.48e-04	0	42	0	1063256064	21	4962
2026-01-10 11:11:13.86	329.54	19.96	-30.9	-33.8	11.2	1.35e-03	0	42	0	1064304640	21	4991
2026-01-10 11:11:14.87	329.63	19.84	-30.7	-33.2	11.6	1.08e-03	0	42	0	1066401792	21	4780
2026-01-10 11:11:15.88	329.72	19.72	-30.9	-33.7	11.3	1.03e-03	0	42	0	1068498944	21	4969
2026-01-10 11:11:16.88	329.81	19.60	-30.7	-33.0	11.8	9.23e-04	0	42	0	1070596096	21	4714
2026-01-10 11:11:17.89	329.90	19.48	-30.5	-32.4	12.1	2.64e-04	0	42	0	1072693248	21	4511
2026-01-10 11:11:18.90	329.99	19.36	-30.5	-32.4	12.1	3.38e-04	0	42	0	1073741824	21	4511
2026-01-10 11:11:19.90	330.08	19.24	-30.2	-31.8	12.5	2.82e-04	0	42	0	1075838976	21	4289
2026-01-10 11:11:20.91	330.17	19.12	-30.3	-31.9	12.4	9.38e-05	0	42	0	1077936128	21	4339
2026-01-10 11:11:21.92	330.25	19.01	-30.0	-30.9	13.1	5.34e-05	0	42	0	1080033280	21	4029
2026-01-10 11:11:22.92	330.34	18.89	-29.6	-30.3	13.8	2.05e-05	0	42	0	1082130432	20	3944
2026-01-10 11:11:23.93	330.43	18.77	-29.4	-30.1	14.0	3.00e-06	0	42	0	1083179008	20	3872
2026-01-10 11:11:24.94	330.51	18.65	-29.5	-30.2	13.8	4.50e-06	0	42	0	1085276160	20	3918
2026-01-10 11:11:25.95	330.60	18.54	-29.5	-30.2	13.9	1.50e-06	0	42	0	1087373312	20	3893
2026-01-10 11:11:26.95	330.68	18.42	-29.6	-30.5	13.7	3.00e-06	0	42	0	1089470464	20	3982
2026-01-10 11:11:27.96	330.76	18.31	-29.6	-30.6	13.6	6.80e-06	0	42	0	1091567616	20	4008
2026-01-10 11:11:28.96	330.85	18.19	-29.6	-30.6	13.6	5.30e-06	0	42	0	1092616192	20	4035
2026-01-10 11:11:29.96	330.93	18.08	-29.6	-30.4	13.7	3.80e-06	0	42	0	1094713344	20	3980
2026-01-10 11:11:30.97	331.01	17.97	-29.7	-30.7	13.5	1.06e-05	0	42	0	1096810496	20	4052
2026-01-10 11:11:31.97	331.09	17.85	-29.8	-31.0	13.3	1.29e-05	0	42	0	1098907648	20	4136
2026-01-10 11:11:32.98	331.17	17.74	-29.8	-31.2	13.2	9.90e-06	0	42	0	1101004800	20	4193
2026-01-10 11:11:33.99	331.25	17.63	-29.9	-31.4	13.1	2.13e-05	0	42	0	1102053376	20	4269
2026-01-10 11:11:34.99	331.33	17.52	-30.2	-32.0	12.7	3.66e-05	0	42	0	1104150528	20	4445
2026-01-10 11:11:35.99	331.41	17.41	-30.3	-32.3	12.6	5.79e-05	0	42	0	1106247680	20	4532
2026-01-10 11:11:37.00	331.49	17.30	-30.4	-32.6	12.4	9.61e-05	0	42	0	1108344832	20	4640
2026-01-10 11:11:38.00	331.57	17.19	-30.2	-32.2	12.6	8.01e-05	0	42	0	1109393408	20	4504
2026-01-10 11:11:39.01	331.64	17.08	-30.1	-31.8	12.8	8.31e-05	0	42	0	1111490560	20	4385
2026-01-10 11:11:40.01	331.72	16.97	-30.1	-31.8	12.8	8.23e-05	0	42	0	1113587712	20	4379
2026-01-10 11:11:41.01	331.80	16.86	-30.2	-32.1	12.7	9.07e-05	0	42	0	1115684864	20	4482
2026-01-10 11:11:42.02	331.87	16.75	-30.1	-31.9	12.7	5.72e-05	0	42	0	1117782016	20	4433
2026-01-10 11:11:43.03	331.95	16.64	-30.0	-31.7	12.9	5.26e-05	0	42	0	1119879168	20	4352
2026-01-10 11:11:44.03	332.02	16.53	-30.1	-31.9	12.8	4.57e-05	0	42	0	1120927744	20	4411
2026-01-10 11:11:45.04	332.10	16.43	-29.8	-31.1	13.3	3.05e-05	0	42	0	1123024896	20	4171
2026-01-10 11:11:46.05	332.17	16.32	-29.8	-31.1	13.3	1.98e-05	0	42	0	1125122048	20	4164
2026-01-10 11:11:47.06	332.24	16.21	-29.9	-31.4	13.1	4.11e-05	0	42	0	1127219200	20	4272
2026-01-10 11:11:48.06	332.32	16.11	-29.8	-30.9	13.4	1.22e-05	0	42	0	1129316352	20	4115
2026-01-10 11:11:49.07	332.39	16.00	-29.9	-31.4	13.1	1.22e-05	0	42	0	1130364928	20	4273
2026-01-10 11:11:50.07	332.46	15.90	-30.0	-31.6	12.9	2.89e-05	0	42	0	1132462080	20	4316
2026-01-10 11:11:51.08	332.53	15.79	-29.7	-30.8	13.5	1.22e-05	0	42	0	1134559232	20	4073
2026-01-10 11:11:52.08	332.60	15.69	-29.5	-30.4	13.7	1.06e-05	0	42	0	1136656384	20	3954
2026-01-10 11:11:53.09	332.67	15.58	-29.4	-29.9	14.0	6.10e-06	0	42	0	1137704960	20	3835
2026-01-10 11:11:54.10	332.74	15.48	-29.4	-29.9	14.0	3.00e-06	0	42	0	1139802112	20	3825
2026-01-10 11:11:55.10	332.81	15.38	-29.6	-30.5	13.6	6.80e-06	0	42	0	1141899264	20	3997
2026-01-10 11:11:56.10	332.88	15.28	-29.5	-30.2	13.9	1.50e-06	0	42	0	1143996416	20	3897
2026-01-10 11:11:57.11	332.95	15.17	-29.5	-30.2	13.8	8.30e-06	0	42	0	1146093568	20	3911
2026-01-10 11:11:58.12	333.02	15.07	-29.4	-30.1	13.8	7.00e-07	0	42	0	1148190720	20	3872
2026-01-10 11:11:59.12	333.09	14.97	-29.4	-30.0	14.0	3.00e-06	0	42	0	1149239296	20	3841
2026-01-10 11:12:00.13	333.15	14.87	-29.5	-30.3	13.7	3.00e-06	0	42	0	1151336448	20	3938
2026-01-10 11:12:01.14	333.22	14.77	-29.5	-30.1	13.8	1.50e-06	0	42	0	1153433600	20	3891
2026-01-10 11:12:02.14	333.29	14.67	-29.5	-30.2	13.8	2.20e-06	0	42	0	1155530752	20	3900
2026-01-10 11:12:03.15	333.35	14.57	-29.6	-30.6	13.6	9.10e-06	0	42	0	1156579328	20	4018
2026-01-10 11:12:04.16	333.42	14.47	-29.6	-30.6	13.5	6.80e-06	0	42	0	1158676480	20	4039
2026-01-10 11:12:05.16	333.48	14.37	-29.8	-31.1	13.2	1.29e-05	0	42	0	1160773632	20	4184
2026-01-10 11:12:06.16	333.55	14.27	-29.7	-30.9	13.3	2.05e-05	0	42	0	1162870784	20	4110
2026-01-10 11:12:07.16	333.61	14.17	-29.9	-31.4	13.0	2.28e-05	0	42	0	1164967936	20	4256
2026-01-10 11:12:08.17	333.68	14.07	-30.0	-31.7	12.8	5.18e-05	0	42	0	1166016512	20	4362
2026-01-10 11:12:09.18	333.74	13.98	-30.1	-31.8	12.7	6.79e-05	0	42	0	1168113664	20	4412
2026-01-10 11:12:10.18	333.80	13.88	-30.2	-32.1	12.5	9.38e-05	0	42	0	1170210816	20	4510
2026-01-10 11:12:11.19	333.87	13.78	-30.3	-32.7	12.0	2.09e-04	0	42	0	1172307968	20	4722
2026-01-10 11:12:12.19	333.93	13.69	-30.5	-32.7	11.8	3.21e-04	0	42	0	1174405120	21	4612
2026-01-10 11:12:13.19	333.99	13.59	-30.8	-33.4	11.3	5.93e-04	0	42	0	1175453696	21	4879
2026-01-10 11:12:14.20	334.05	13.49	-30.6	-32.9	11.6	1.00e-03	0	42	0	1177550848	21	4698
2026-01-10 11:12:15.20	334.11	13.40	-30.8	-33.7	11.0	1.53e-03	0	42	0	1179648000	21	4997
2026-01-10 11:12:16.21	334.18	13.30	-30.9	-33.5	10.7	2.46e-03	0	42	0	1181745152	22	4841
2026-01-10 11:12:17.22	334.24	13.21	-31.0	-33.7	10.6	2.98e-03	0	42	0	1183842304	22	4917
2026-01-10 11:12:18.22	334.30	13.12	-31.1	-34.1	10.4	5.75e-03	0	42	0	1184890880	22	5058
2026-01-10 11:12:19.23	334.36	13.02	-31.1	-33.9	10.4	7.09e-03	0	42	0	1186988032	22	5006
2026-01-10 11:12:20.24	334.42	12.93	-31.1	-34.2	10.2	5.39e-03	0	42	0	1189085184	22	5110
2026-01-10 11:12:21.25	334.48	12.83	-31.2	-34.5	9.9	7.03e-03	0	42	0	1191182336	22	5274
2026-01-10 11:12:22.24	334.53	12.74	-31.2	-34.4	10.0	8.50e-03	0	42	0	1193279488	22	5203
2026-01-10 11:12:23.25	334.59	12.65	-31.2	-34.4	10.0	6.52e-03	0	42	0	1194328064	22	5226
2026-01-10 11:12:24.26	334.65	12.55	-31.3	-34.7	9.8	1.14e-02	0	42	0	1196425216	22	5327
2026-01-10 11:12:25.26	334.71	12.46	-31.1	-34.2	10.2	6.46e-03	0	42	0	1198522368	22	5118
2026-01-10 11:12:26.26	334.77	12.37	-31.0	-33.7	10.5	4.36e-03	0	42	0	1200619520	22	4922
2026-01-10 11:12:27.27	334.82	12.28	-30.8	-33.0	10.9	3.13e-03	0	42	0	1202716672	22	4669
2026-01-10 11:12:28.28	334.88	12.19	-30.8	-33.1	11.0	2.04e-03	0	42	0	1203765248	22	4704
2026-01-10 11:12:29.28	334.94	12.10	-30.8	-33.0	11.1	1.91e-03	0	42	0	1205862400	22	4671
2026-01-10 11:12:30.29	334.99	12.01	-30.6	-32.6	11.5	1.30e-03	0	42	0	1207959552	22	4489
2026-01-10 11:12:31.29	335.05	11.92	-30.6	-32.5	11.5	1.02e-03	0	42	0	1210056704	22	4469
2026-01-10 11:12:32.30	335.11	11.83	-30.5	-32.1	11.7	9.13e-04	0	42	0	1212153856	22	4353
2026-01-10 11:12:33.31	335.16	11.74	-30.3	-31.7	12.0	4.51e-04	0	42	0	1213202432	22	4198
2026-01-10 11:12:34.31	335.22	11.65	-30.3	-31.7	12.0	3.82e-04	0	42	0	1215299584	22	4214
2026-01-10 11:12:35.31	335.27	11.56	-30.3	-31.7	11.9	3.62e-04	0	42	0	1217396736	22	4223
2026-01-10 11:12:36.32	335.32	11.47	-30.3	-32.3	11.9	3.04e-04	0	42	0	1219493888	21	4486
2026-01-10 11:12:37.33	335.38	11.38	-30.2	-31.9	12.2	2.85e-04	0	42	0	1221591040	21	4363
2026-01-10 11:12:38.34	335.43	11.29	-30.2	-31.8	12.2	2.04e-04	0	42	0	1222639616	21	4328
2026-01-10 11:12:39.34	335.49	11.21	-30.3	-32.0	12.0	2.54e-04	0	42	0	1224736768	21	4412
2026-01-10 11:12:40.35	335.54	11.12	-30.2	-32.0	12.0	3.74e-04	0	42	0	1226833920	21	4388
2026-01-10 11:12:41.36	335.59	11.03	-30.0	-31.3	12.4	1.43e-04	0	42	0	1228931072	21	4174
2026-01-10 11:12:42.36	335.65	10.94	-29.8	-30.8	12.8	8.54e-05	0	42	0	1231028224	21	4029
2026-01-10 11:12:43.37	335.70	10.86	-29.7	-31.1	12.9	6.63e-05	0	42	0	1232076800	20	4197
2026-01-10 11:12:44.37	335.75	10.77	-29.9	-31.4	12.7	7.55e-05	0	42	0	1234173952	20	4308
2026-01-10 11:12:45.38	335.80	10.69	-29.8	-31.3	12.7	6.33e-05	0	42	0	1236271104	20	4264
2026-01-10 11:12:46.38	335.85	10.60	-29.8	-31.3	12.7	5.18e-05	0	42	0	1238368256	20	4269
2026-01-10 11:12:47.39	335.90	10.51	-30.0	-31.7	12.5	1.43e-04	0	42	0	1240465408	20	4395
2026-01-10 11:12:48.39	335.96	10.43	-29.7	-31.0	12.9	7.17e-05	0	42	0	1241513984	20	4169
2026-01-10 11:12:49.40	336.01	10.34	-29.6	-30.6	13.1	2.97e-05	0	42	0	1243611136	20	4058
2026-01-10 11:12:50.40	336.06	10.26	-29.5	-30.6	13.2	1.60e-05	0	42	0	1245708288	20	4051
2026-01-10 11:12:51.40	336.11	10.18	-29.5	-30.4	13.3	1.60e-05	0	42	0	1247805440	20	4006
2026-01-10 11:12:52.41	336.16	10.09	-29.5	-30.4	13.2	3.58e-05	0	42	0	1249902592	20	4003
2026-01-10 11:12:53.41	336.21	10.01	-29.6	-30.6	13.1	1.83e-05	0	42	0	1250951168	20	4080
2026-01-10 11:12:54.41	336.25	9.93	-29.5	-30.6	13.1	3.05e-05	0	42	0	1253048320	20	4047
2026-01-10 11:12:55.42	336.30	9.84	-29.5	-30.3	13.2	2.67e-05	0	42	0	1255145472	20	3991
2026-01-10 11:12:56.42	336.35	9.76	-29.5	-30.6	13.1	2.13e-05	0	42	0	1257242624	20	4052
2026-01-10 11:12:57.43	336.40	9.68	-29.6	-30.7	13.0	6.10e-05	0	42	0	1259339776	20	4107
2026-01-10 11:12:58.44	336.45	9.59	-29.6	-30.7	13.0	3.12e-05	0	42	0	1260388352	20	4097
2026-01-10 11:12:59.45	336.50	9.51	-29.6	-30.8	12.9	4.50e-05	0	42	0	1262485504	20	4134
2026-01-10 11:13:00.45	336.55	9.43	-29.7	-31.2	12.6	5.03e-05	0	42	0	1264582656	20	4244
2026-01-10 11:13:01.46	336.59	9.35	-29.7	-31.2	12.6	7.78e-05	0	42	0	1266679808	20	4260
2026-01-10 11:13:02.47	336.64	9.27	-29.8	-31.4	12.5	1.72e-04	0	42	0	1268776960	20	4312
2026-01-10 11:13:03.47	336.69	9.18	-29.8	-31.3	12.6	7.78e-05	0	42	0	1269825536	20	4280
2026-01-10 11:13:04.48	336.74	9.10	-29.7	-31.2	12.6	1.15e-04	0	42	0	1271922688	20	4275
2026-01-10 11:13:05.49	336.78	9.02	-29.9	-31.7	12.3	1.25e-04	0	42	0	1274019840	20	4409
2026-01-10 11:13:06.50	336.83	8.94	-30.1	-32.2	12.0	2.09e-04	0	42	0	1276116992	20	4566
2026-01-10 11:13:07.50	336.88	8.86	-30.1	-32.1	12.1	3.59e-04	0	42	0	1278214144	20	4556
2026-01-10 11:13:08.51	336.92	8.78	-30.2	-32.6	11.8	2.85e-04	0	42	0	1279262720	20	4710
2026-01-10 11:13:09.52	336.97	8.70	-30.2	-32.5	11.8	4.69e-04	0	42	0	1281359872	20	4684
2026-01-10 11:13:10.53	337.01	8.62	-30.3	-32.8	11.6	5.85e-04	0	42	0	1283457024	20	4781
2026-01-10 11:13:11.53	337.06	8.54	-30.2	-32.5	11.6	6.61e-04	0	42	0	1285554176	20	4692
