passes_logs/2026/01/10/R2M6_AANII_01/R2M6_AANII_01__20260110_002858_FENGYUN_3D_rec.log

#Pass ID: 20260110_002858_FENGYUN 3D
#Satellite: FENGYUN 3D
#Configuration: FENGYUN 3D
#almurnet v.1.7.20240730
#Start time: 2026-01-10 00:28:58

#Version: 2.2.20231116
#Station: R2M6_AANII_01
#Location: 30.233357 lon 59.946436 lat
#TLE: 1 43010U 17072A   26009.29492227  .00000158  00000+0  96483-4 0  9996
#TLE: 2 43010  98.9936 341.0229 0002153 117.3665 242.7729 14.19694440422446

#Time	Az	El	Level	Level2	SNR	BER	BlckErr	Temp	State	Recorded	gain1	gain2
2026-01-10 00:28:58.58	34.58	7.02	-27.9	-30.0	5.7	7.50e-01	0	39	0	0	16	4561
2026-01-10 00:28:59.57	34.69	7.08	-30.6	-35.1	5.0	7.93e-01	0	40	104	0	21	6016
2026-01-10 00:29:00.58	34.80	7.13	-30.1	-33.4	8.8	3.15e-02	0	39	0	0	21	5218
2026-01-10 00:29:01.58	34.92	7.19	-30.3	-33.9	8.4	2.39e-02	0	40	0	5242880	21	5459
2026-01-10 00:29:02.58	35.03	7.24	-29.9	-33.1	9.4	2.33e-02	0	40	0	10485760	20	5210
2026-01-10 00:29:03.57	35.15	7.30	-30.1	-33.8	8.8	4.14e-02	0	40	0	16777216	20	5509
2026-01-10 00:29:04.57	35.26	7.35	-30.7	-35.0	7.7	6.59e-02	0	40	0	22020096	21	5928
2026-01-10 00:29:05.56	35.37	7.41	-30.3	-33.8	8.5	3.72e-02	0	40	0	27262976	21	5410
2026-01-10 00:29:06.57	35.49	7.46	-30.4	-34.0	8.4	3.35e-02	0	40	0	33554432	21	5467
2026-01-10 00:29:07.56	35.60	7.52	-29.7	-32.6	9.7	1.02e-02	0	40	0	38797312	20	5015
2026-01-10 00:29:08.56	35.72	7.57	-29.6	-32.2	10.0	5.06e-03	0	40	0	44040192	20	4877
2026-01-10 00:29:09.56	35.84	7.63	-29.3	-31.9	10.6	2.53e-02	0	40	0	50331648	19	4868
2026-01-10 00:29:10.56	35.96	7.69	-29.9	-33.6	9.5	1.14e-02	0	40	0	55574528	19	5503
2026-01-10 00:29:11.56	36.07	7.74	-29.9	-33.1	9.3	1.83e-02	0	40	0	61865984	20	5218
2026-01-10 00:29:12.56	36.19	7.80	-30.1	-33.5	9.1	1.15e-02	0	40	0	67108864	20	5376
2026-01-10 00:29:13.57	36.31	7.85	-30.0	-33.3	9.3	1.57e-02	0	40	0	72351744	20	5287
2026-01-10 00:29:14.56	36.43	7.91	-29.6	-32.1	10.1	6.69e-03	0	40	0	78643200	20	4844
2026-01-10 00:29:15.56	36.55	7.96	-29.2	-31.7	10.8	1.56e-03	0	40	0	83886080	19	4768
2026-01-10 00:29:16.56	36.67	8.02	-29.2	-31.6	10.9	1.49e-03	0	40	0	89128960	19	4737
2026-01-10 00:29:17.56	36.79	8.08	-27.6	-29.2	13.3	3.23e-04	0	40	0	95420416	16	4306
2026-01-10 00:29:18.56	36.91	8.13	-27.6	-29.1	13.4	8.00e-06	0	40	0	100663296	16	4281
2026-01-10 00:29:19.56	37.03	8.19	-27.5	-29.3	13.4	2.24e-04	0	40	0	105906176	15	4462
2026-01-10 00:29:20.56	37.15	8.24	-27.2	-28.6	13.8	1.10e-06	0	40	0	112197632	15	4261
2026-01-10 00:29:21.56	37.27	8.30	-27.1	-28.5	13.9	1.41e-04	0	40	0	117440512	15	4218
2026-01-10 00:29:22.56	37.39	8.35	-26.7	-28.2	14.4	9.49e-05	0	40	0	123731968	14	4240
2026-01-10 00:29:23.56	37.52	8.41	-26.7	-28.1	14.4	1.10e-06	0	40	0	128974848	14	4227
2026-01-10 00:29:24.57	37.64	8.47	-26.9	-28.6	14.2	1.13e-04	0	40	0	134217728	14	4350
2026-01-10 00:29:25.56	37.76	8.52	-27.0	-28.8	14.0	0.00e+00	0	41	0	140509184	14	4418
2026-01-10 00:29:26.56	37.89	8.58	-26.8	-28.3	14.4	0.00e+00	0	40	0	145752064	14	4264
2026-01-10 00:29:27.56	38.01	8.63	-26.6	-27.8	14.6	1.10e-06	0	40	0	150994944	14	4125
2026-01-10 00:29:28.56	38.14	8.69	-26.9	-28.4	14.3	1.66e-04	0	40	0	157286400	14	4305
2026-01-10 00:29:29.56	38.26	8.75	-27.0	-28.6	14.2	0.00e+00	0	41	0	162529280	14	4359
2026-01-10 00:29:30.56	38.39	8.80	-27.3	-29.4	13.8	1.10e-06	0	41	0	167772160	14	4582
2026-01-10 00:29:31.56	38.52	8.86	-26.5	-27.5	14.8	1.79e-04	0	41	0	174063616	14	4067
2026-01-10 00:29:32.57	38.65	8.91	-26.5	-27.5	14.9	0.00e+00	0	40	0	179306496	14	4049
2026-01-10 00:29:33.57	38.77	8.97	-26.4	-27.4	14.9	3.43e-05	0	41	0	185597952	14	4022
2026-01-10 00:29:34.57	38.90	9.03	-26.4	-27.4	14.9	0.00e+00	0	41	0	190840832	14	4037
2026-01-10 00:29:35.57	39.03	9.08	-26.2	-27.4	15.2	0.00e+00	0	41	0	196083712	13	4142
2026-01-10 00:29:36.58	39.16	9.14	-26.2	-27.5	15.2	5.70e-06	0	41	0	202375168	13	4148
2026-01-10 00:29:37.58	39.29	9.19	-26.3	-27.6	15.1	1.48e-05	0	41	0	207618048	13	4196
2026-01-10 00:29:38.58	39.42	9.25	-26.1	-27.2	15.3	0.00e+00	0	41	0	212860928	13	4071
2026-01-10 00:29:39.58	39.55	9.31	-26.2	-27.3	15.3	3.77e-05	0	41	0	219152384	13	4104
2026-01-10 00:29:40.59	39.68	9.36	-26.2	-27.3	15.2	7.43e-05	0	41	0	224395264	13	4116
2026-01-10 00:29:41.59	39.81	9.42	-26.2	-27.4	15.2	0.00e+00	0	41	0	230686720	13	4140
2026-01-10 00:29:42.60	39.95	9.47	-26.2	-27.3	15.3	1.88e-04	0	41	0	235929600	13	4115
2026-01-10 00:29:43.61	40.08	9.53	-26.4	-27.9	14.9	1.67e-04	0	41	0	241172480	13	4268
2026-01-10 00:29:44.61	40.21	9.59	-26.1	-27.2	15.3	0.00e+00	0	41	0	247463936	13	4084
2026-01-10 00:29:45.60	40.34	9.64	-26.3	-27.7	15.1	1.25e-04	0	41	0	252706816	13	4209
2026-01-10 00:29:46.61	40.48	9.70	-26.1	-27.2	15.3	5.03e-05	0	41	0	258998272	13	4095
2026-01-10 00:29:47.61	40.61	9.75	-26.1	-27.3	15.3	0.00e+00	0	41	0	264241152	13	4098
2026-01-10 00:29:48.61	40.75	9.81	-26.2	-27.3	15.3	0.00e+00	0	41	0	269484032	13	4120
2026-01-10 00:29:49.61	40.88	9.87	-26.1	-27.3	15.3	0.00e+00	0	41	0	275775488	13	4109
2026-01-10 00:29:50.61	41.02	9.92	-26.2	-27.5	15.2	0.00e+00	0	41	0	281018368	13	4151
2026-01-10 00:29:51.62	41.16	9.98	-26.2	-27.3	15.3	2.20e-06	0	41	0	286261248	13	4115
2026-01-10 00:29:52.62	41.29	10.03	-26.2	-27.4	15.2	3.77e-05	0	41	0	292552704	13	4137
2026-01-10 00:29:53.62	41.43	10.09	-26.2	-27.4	15.2	0.00e+00	0	41	0	297795584	13	4147
2026-01-10 00:29:54.62	41.57	10.15	-26.1	-27.2	15.3	1.14e-04	0	41	0	303038464	13	4087
2026-01-10 00:29:55.62	41.71	10.20	-26.4	-27.8	15.1	1.17e-04	0	41	0	309329920	13	4252
2026-01-10 00:29:56.62	41.85	10.26	-26.2	-27.5	15.2	0.00e+00	0	41	0	314572800	13	4162
2026-01-10 00:29:57.63	41.99	10.31	-26.1	-27.3	15.4	1.06e-04	0	41	0	320864256	13	4099
2026-01-10 00:29:58.63	42.13	10.37	-26.1	-27.2	15.3	4.11e-05	0	41	0	326107136	13	4091
2026-01-10 00:29:59.63	42.27	10.43	-26.1	-27.2	15.4	0.00e+00	0	41	0	332398592	13	4068
2026-01-10 00:30:00.62	42.41	10.48	-26.2	-27.5	15.2	1.48e-05	0	41	0	337641472	13	4145
2026-01-10 00:30:01.63	42.55	10.54	-26.3	-27.5	15.2	2.63e-05	0	41	0	342884352	13	4167
2026-01-10 00:30:02.63	42.69	10.59	-26.2	-27.5	15.2	0.00e+00	0	41	0	349175808	13	4151
2026-01-10 00:30:03.64	42.84	10.65	-26.4	-27.8	15.1	3.43e-05	0	41	0	354418688	13	4237
2026-01-10 00:30:04.64	42.98	10.70	-26.4	-27.8	15.1	0.00e+00	0	41	0	359661568	13	4225
2026-01-10 00:30:05.64	43.12	10.76	-26.3	-27.6	15.1	0.00e+00	0	41	0	365953024	13	4180
2026-01-10 00:30:06.64	43.27	10.82	-26.2	-27.3	15.3	2.18e-04	0	41	0	371195904	13	4106
2026-01-10 00:30:07.64	43.41	10.87	-26.6	-28.3	14.8	1.46e-04	0	41	0	376438784	13	4374
2026-01-10 00:30:08.65	43.56	10.93	-26.4	-27.8	15.1	0.00e+00	0	41	0	382730240	13	4228
2026-01-10 00:30:09.65	43.70	10.98	-26.0	-26.8	15.6	1.10e-06	0	41	0	387973120	13	3987
2026-01-10 00:30:10.65	43.85	11.04	-25.3	-25.9	15.8	2.86e-05	0	41	0	394264576	12	3886
2026-01-10 00:30:11.65	44.00	11.09	-25.7	-26.8	15.9	0.00e+00	0	41	0	399507456	12	4077
2026-01-10 00:30:12.65	44.14	11.15	-25.9	-27.2	15.7	8.92e-05	0	41	0	404750336	12	4184
2026-01-10 00:30:13.65	44.29	11.20	-26.0	-27.3	15.6	1.51e-04	0	41	0	411041792	12	4210
2026-01-10 00:30:14.65	44.44	11.26	-26.0	-27.4	15.6	0.00e+00	0	41	0	416284672	12	4221
2026-01-10 00:30:15.65	44.59	11.31	-26.0	-27.4	15.6	1.03e-04	0	41	0	421527552	12	4248
2026-01-10 00:30:16.66	44.74	11.37	-26.0	-27.4	15.6	7.78e-05	0	41	0	427819008	12	4235
2026-01-10 00:30:17.66	44.89	11.43	-26.0	-27.5	15.5	0.00e+00	0	41	0	433061888	12	4267
2026-01-10 00:30:18.67	45.04	11.48	-26.1	-27.8	15.4	0.00e+00	0	41	0	438304768	12	4334
2026-01-10 00:30:19.67	45.19	11.54	-26.0	-27.5	15.6	3.67e-04	0	41	0	444596224	12	4266
2026-01-10 00:30:20.66	45.34	11.59	-26.3	-28.2	15.2	0.00e+00	0	41	0	449839104	12	4449
2026-01-10 00:30:21.67	45.50	11.65	-26.0	-27.4	15.6	2.64e-04	0	41	0	456130560	12	4240
2026-01-10 00:30:22.67	45.65	11.70	-25.9	-27.1	15.8	1.81e-04	0	41	0	461373440	12	4147
2026-01-10 00:30:23.68	45.80	11.76	-25.7	-26.8	16.0	0.00e+00	0	41	0	466616320	12	4072
2026-01-10 00:30:24.68	45.96	11.81	-25.6	-26.6	16.1	1.10e-06	0	41	0	472907776	12	4025
2026-01-10 00:30:25.68	46.11	11.87	-25.7	-26.8	16.0	0.00e+00	0	41	0	478150656	12	4080
2026-01-10 00:30:26.68	46.27	11.92	-25.7	-26.7	16.1	0.00e+00	0	41	0	484442112	12	4040
2026-01-10 00:30:27.69	46.42	11.98	-25.8	-27.0	15.9	0.00e+00	0	41	0	489684992	12	4118
2026-01-10 00:30:28.69	46.58	12.03	-25.7	-26.8	16.0	0.00e+00	0	41	0	494927872	12	4071
2026-01-10 00:30:29.69	46.74	12.08	-25.7	-26.7	16.1	0.00e+00	0	41	0	501219328	12	4055
2026-01-10 00:30:30.69	46.89	12.14	-25.7	-26.7	16.1	0.00e+00	0	41	0	506462208	12	4039
2026-01-10 00:30:31.69	47.05	12.19	-25.6	-26.6	16.1	1.02e-05	0	42	0	511705088	12	4017
2026-01-10 00:30:32.69	47.21	12.25	-25.8	-26.9	16.0	0.00e+00	0	41	0	517996544	12	4099
2026-01-10 00:30:33.69	47.37	12.30	-26.1	-27.7	15.5	1.62e-04	0	41	0	523239424	12	4306
2026-01-10 00:30:34.70	47.53	12.36	-26.1	-27.6	15.6	0.00e+00	0	42	0	529530880	12	4283
2026-01-10 00:30:35.70	47.69	12.41	-26.1	-27.7	15.6	0.00e+00	0	41	0	534773760	12	4300
2026-01-10 00:30:36.70	47.85	12.46	-25.9	-27.2	15.8	0.00e+00	0	42	0	540016640	12	4182
2026-01-10 00:30:37.70	48.01	12.52	-25.5	-26.2	16.4	0.00e+00	0	42	0	546308096	12	3932
2026-01-10 00:30:38.70	48.17	12.57	-25.5	-26.3	16.3	0.00e+00	0	41	0	551550976	12	3954
2026-01-10 00:30:39.70	48.34	12.62	-26.1	-27.7	15.5	0.00e+00	0	42	0	556793856	12	4319
2026-01-10 00:30:40.70	48.50	12.68	-26.4	-28.2	15.2	3.15e-04	0	41	0	563085312	12	4465
2026-01-10 00:30:41.71	48.66	12.73	-26.7	-28.4	14.9	0.00e+00	0	42	0	568328192	13	4392
2026-01-10 00:30:42.71	48.83	12.79	-26.6	-28.2	15.0	3.64e-04	0	42	0	573571072	13	4335
2026-01-10 00:30:43.71	48.99	12.84	-26.2	-27.2	15.5	0.00e+00	0	42	0	579862528	13	4085
2026-01-10 00:30:44.71	49.16	12.89	-25.9	-26.6	15.9	0.00e+00	0	41	0	585105408	13	3927
2026-01-10 00:30:45.72	49.33	12.95	-25.5	-26.4	16.2	3.73e-04	0	42	0	591396864	12	3974
2026-01-10 00:30:46.71	49.49	13.00	-25.5	-26.4	16.3	0.00e+00	0	42	0	596639744	12	3970
2026-01-10 00:30:47.72	49.66	13.05	-25.4	-26.2	16.4	0.00e+00	0	42	0	601882624	12	3916
2026-01-10 00:30:48.72	49.83	13.10	-25.7	-27.3	16.1	0.00e+00	0	42	0	608174080	11	4305
2026-01-10 00:30:49.72	50.00	13.16	-25.6	-27.0	16.3	2.09e-04	0	42	0	613416960	11	4226
2026-01-10 00:30:50.72	50.16	13.21	-25.7	-27.2	16.2	0.00e+00	0	42	0	618659840	11	4284
2026-01-10 00:30:51.72	50.33	13.26	-25.6	-27.0	16.3	0.00e+00	0	42	0	624951296	11	4232
2026-01-10 00:30:52.72	50.50	13.31	-25.4	-26.7	16.5	2.85e-04	0	42	0	630194176	11	4147
2026-01-10 00:30:53.72	50.67	13.37	-25.3	-26.3	16.7	0.00e+00	0	42	0	635437056	11	4044
2026-01-10 00:30:54.73	50.85	13.42	-25.3	-26.4	16.7	3.24e-04	0	42	0	641728512	11	4071
2026-01-10 00:30:55.73	51.02	13.47	-25.3	-26.4	16.7	0.00e+00	0	41	0	646971392	11	4075
2026-01-10 00:30:56.73	51.19	13.52	-25.3	-26.3	16.7	0.00e+00	0	42	0	653262848	11	4063
2026-01-10 00:30:57.73	51.36	13.57	-25.3	-26.4	16.6	0.00e+00	0	41	0	658505728	11	4076
2026-01-10 00:30:58.74	51.54	13.63	-25.3	-26.3	16.7	0.00e+00	0	42	0	664797184	11	4050
2026-01-10 00:30:59.74	51.71	13.68	-25.3	-26.2	16.8	0.00e+00	0	42	0	670040064	11	4038
2026-01-10 00:31:00.74	51.89	13.73	-25.3	-26.3	16.8	0.00e+00	0	42	0	675282944	11	4050
2026-01-10 00:31:01.74	52.06	13.78	-25.4	-26.6	16.6	0.00e+00	0	41	0	681574400	11	4120
2026-01-10 00:31:02.74	52.24	13.83	-25.3	-26.4	16.6	0.00e+00	0	42	0	686817280	11	4085
2026-01-10 00:31:03.74	52.42	13.88	-25.5	-26.8	16.5	3.72e-04	0	42	0	692060160	11	4170
2026-01-10 00:31:04.75	52.59	13.93	-25.4	-26.5	16.6	0.00e+00	0	42	0	698351616	11	4099
2026-01-10 00:31:05.75	52.77	13.99	-25.2	-26.1	16.8	0.00e+00	0	42	0	703594496	11	4010
2026-01-10 00:31:06.74	52.95	14.04	-25.2	-26.2	16.8	0.00e+00	0	42	0	709885952	11	4024
2026-01-10 00:31:07.75	53.13	14.09	-25.3	-26.4	16.7	0.00e+00	0	42	0	715128832	11	4078
2026-01-10 00:31:08.75	53.31	14.14	-25.4	-26.6	16.5	0.00e+00	0	42	0	720371712	11	4135
2026-01-10 00:31:09.76	53.49	14.19	-25.4	-26.6	16.5	0.00e+00	0	42	0	726663168	11	4128
2026-01-10 00:31:10.76	53.67	14.24	-25.5	-26.9	16.4	3.67e-04	0	42	0	731906048	11	4203
2026-01-10 00:31:11.75	53.85	14.29	-25.4	-26.5	16.6	0.00e+00	0	42	0	737148928	11	4091
2026-01-10 00:31:12.75	54.03	14.34	-25.2	-26.1	16.8	0.00e+00	0	42	0	743440384	11	4003
2026-01-10 00:31:13.75	54.21	14.39	-25.5	-26.7	16.5	0.00e+00	0	42	0	748683264	11	4148
2026-01-10 00:31:14.76	54.40	14.43	-25.3	-26.3	16.8	0.00e+00	0	42	0	753926144	11	4055
2026-01-10 00:31:15.76	54.58	14.48	-25.3	-26.3	16.7	0.00e+00	0	42	0	760217600	11	4056
2026-01-10 00:31:16.76	54.77	14.53	-25.6	-27.1	16.3	0.00e+00	0	42	0	765460480	11	4244
2026-01-10 00:31:17.76	54.95	14.58	-25.4	-26.6	16.6	0.00e+00	0	42	0	771751936	11	4134
2026-01-10 00:31:18.77	55.14	14.63	-25.2	-26.1	16.9	0.00e+00	0	42	0	776994816	11	3991
2026-01-10 00:31:19.77	55.32	14.68	-25.1	-25.9	17.0	0.00e+00	0	42	0	782237696	11	3940
2026-01-10 00:31:20.78	55.51	14.73	-25.1	-25.9	17.0	0.00e+00	0	42	0	788529152	11	3959
2026-01-10 00:31:21.78	55.70	14.78	-25.0	-26.2	17.1	0.00e+00	0	42	0	793772032	10	4139
2026-01-10 00:31:22.78	55.89	14.82	-25.1	-26.3	17.0	0.00e+00	0	42	0	800063488	10	4166
2026-01-10 00:31:23.79	56.08	14.87	-25.0	-26.1	17.1	0.00e+00	0	42	0	805306368	10	4111
2026-01-10 00:31:24.79	56.27	14.92	-25.0	-26.3	17.1	0.00e+00	0	42	0	810549248	10	4143
2026-01-10 00:31:25.80	56.46	14.97	-24.9	-26.0	17.2	0.00e+00	0	42	0	816840704	10	4077
2026-01-10 00:31:26.80	56.65	15.01	-24.9	-26.1	17.2	0.00e+00	0	42	0	822083584	10	4100
2026-01-10 00:31:27.80	56.84	15.06	-24.9	-26.0	17.2	0.00e+00	0	42	0	827326464	10	4076
2026-01-10 00:31:28.81	57.03	15.11	-25.0	-26.3	17.1	0.00e+00	0	42	0	833617920	10	4149
2026-01-10 00:31:29.81	57.22	15.15	-24.8	-25.8	17.3	0.00e+00	0	42	0	838860800	10	4033
2026-01-10 00:31:30.80	57.41	15.20	-24.7	-25.6	17.5	0.00e+00	0	42	0	845152256	10	3968
2026-01-10 00:31:31.80	57.61	15.25	-25.0	-26.2	17.1	0.00e+00	0	42	0	850395136	10	4117
2026-01-10 00:31:32.81	57.80	15.29	-24.9	-26.0	17.3	0.00e+00	0	42	0	855638016	10	4075
2026-01-10 00:31:33.82	58.00	15.34	-24.9	-26.0	17.2	0.00e+00	0	42	0	861929472	10	4091
2026-01-10 00:31:34.82	58.19	15.38	-25.1	-26.3	17.1	0.00e+00	0	42	0	867172352	10	4170
2026-01-10 00:31:35.83	58.39	15.43	-25.4	-27.0	16.7	0.00e+00	0	42	0	873463808	10	4341
2026-01-10 00:31:36.83	58.59	15.47	-25.0	-26.2	17.1	0.00e+00	0	42	0	878706688	10	4131
2026-01-10 00:31:37.83	58.78	15.52	-24.9	-26.0	17.2	0.00e+00	0	42	0	883949568	10	4090
2026-01-10 00:31:38.84	58.98	15.56	-24.8	-25.8	17.4	0.00e+00	0	42	0	890241024	10	4024
2026-01-10 00:31:39.84	59.18	15.61	-24.9	-25.9	17.3	0.00e+00	0	42	0	895483904	10	4056
2026-01-10 00:31:40.84	59.38	15.65	-25.0	-26.1	17.2	0.00e+00	0	42	0	900726784	10	4107
2026-01-10 00:31:41.84	59.58	15.70	-24.9	-25.9	17.3	0.00e+00	0	42	0	907018240	10	4064
2026-01-10 00:31:42.84	59.78	15.74	-24.9	-25.9	17.4	0.00e+00	0	42	0	912261120	10	4047
2026-01-10 00:31:43.85	59.98	15.78	-25.2	-26.6	17.0	0.00e+00	0	42	0	918552576	10	4228
2026-01-10 00:31:44.85	60.18	15.83	-25.1	-26.5	17.0	0.00e+00	0	42	0	923795456	10	4196
2026-01-10 00:31:45.85	60.38	15.87	-25.2	-26.5	17.0	0.00e+00	0	42	0	929038336	10	4209
2026-01-10 00:31:46.85	60.58	15.91	-25.2	-26.5	17.0	0.00e+00	0	42	0	935329792	10	4205
2026-01-10 00:31:47.85	60.78	15.95	-24.9	-25.9	17.3	0.00e+00	0	42	0	940572672	10	4054
2026-01-10 00:31:48.84	60.99	15.99	-24.9	-26.0	17.3	0.00e+00	0	42	0	945815552	10	4075
2026-01-10 00:31:49.84	61.19	16.04	-24.6	-25.3	17.7	0.00e+00	0	42	0	952107008	10	3909
2026-01-10 00:31:50.84	61.39	16.08	-24.6	-25.3	17.7	0.00e+00	0	42	0	957349888	10	3902
2026-01-10 00:31:51.84	61.60	16.12	-25.0	-26.2	17.2	0.00e+00	0	42	0	962592768	10	4122
2026-01-10 00:31:52.84	61.80	16.16	-25.0	-26.2	17.2	0.00e+00	0	42	0	968884224	10	4142
2026-01-10 00:31:53.84	62.01	16.20	-24.8	-25.8	17.4	0.00e+00	0	42	0	974127104	10	4037
2026-01-10 00:31:54.84	62.21	16.24	-25.8	-27.4	16.2	0.00e+00	0	42	0	980418560	11	4343
2026-01-10 00:31:55.84	62.42	16.28	-25.8	-26.9	16.2	0.00e+00	0	42	0	985661440	12	4087
2026-01-10 00:31:56.85	62.63	16.32	-25.0	-26.1	17.3	0.00e+00	0	42	0	990904320	10	4114
2026-01-10 00:31:57.85	62.84	16.36	-25.0	-26.2	17.2	0.00e+00	0	42	0	997195776	10	4113
2026-01-10 00:31:58.85	63.05	16.40	-25.8	-27.4	16.4	0.00e+00	0	42	0	1002438656	11	4326
2026-01-10 00:31:59.86	63.26	16.44	-26.0	-27.8	16.1	0.00e+00	0	42	0	1007681536	11	4450
2026-01-10 00:32:00.85	63.46	16.48	-25.6	-26.5	16.4	0.00e+00	0	42	0	1013972992	12	3996
2026-01-10 00:32:01.86	63.68	16.52	-25.3	-26.3	16.9	0.00e+00	0	42	0	1019215872	11	4029
2026-01-10 00:32:02.86	63.89	16.55	-25.2	-26.1	17.0	0.00e+00	0	42	0	1024458752	11	4008
2026-01-10 00:32:03.86	64.10	16.59	-24.8	-25.8	17.5	0.00e+00	0	42	0	1030750208	10	4016
2026-01-10 00:32:04.86	64.31	16.63	-25.1	-25.9	17.1	0.00e+00	0	42	0	1035993088	11	3941
2026-01-10 00:32:05.86	64.52	16.67	-24.5	-25.2	17.8	0.00e+00	0	42	0	1042284544	10	3875
2026-01-10 00:32:06.86	64.73	16.70	-25.3	-26.8	16.9	0.00e+00	0	42	0	1047527424	10	4286
2026-01-10 00:32:07.86	64.95	16.74	-24.9	-26.0	17.3	0.00e+00	0	42	0	1052770304	10	4087
2026-01-10 00:32:08.86	65.16	16.77	-24.6	-25.3	17.7	0.00e+00	0	42	0	1059061760	10	3901
2026-01-10 00:32:09.87	65.37	16.81	-24.6	-25.4	17.7	0.00e+00	0	42	0	1064304640	10	3920
2026-01-10 00:32:10.87	65.59	16.85	-24.7	-25.6	17.6	0.00e+00	0	42	0	1069547520	10	3982
2026-01-10 00:32:11.87	65.80	16.88	-24.7	-25.5	17.6	0.00e+00	0	42	0	1075838976	10	3952
2026-01-10 00:32:12.87	66.02	16.92	-24.5	-25.5	17.8	0.00e+00	0	42	0	1081081856	9	4070
2026-01-10 00:32:13.88	66.24	16.95	-24.7	-26.1	17.5	0.00e+00	0	42	0	1087373312	9	4221
2026-01-10 00:32:14.89	66.46	16.99	-24.8	-26.2	17.5	0.00e+00	0	42	0	1092616192	9	4243
2026-01-10 00:32:15.89	66.67	17.02	-24.7	-26.0	17.6	0.00e+00	0	42	0	1097859072	9	4197
2026-01-10 00:32:16.89	66.89	17.05	-24.8	-26.2	17.4	0.00e+00	0	42	0	1104150528	9	4248
2026-01-10 00:32:17.90	67.11	17.09	-24.5	-25.7	17.7	0.00e+00	0	42	0	1109393408	9	4124
2026-01-10 00:32:18.90	67.33	17.12	-24.8	-26.2	17.5	0.00e+00	0	42	0	1115684864	9	4234
2026-01-10 00:32:19.90	67.55	17.15	-24.5	-25.2	17.8	0.00e+00	0	42	0	1120927744	10	3871
2026-01-10 00:32:20.90	67.77	17.18	-24.5	-25.2	17.8	0.00e+00	0	42	0	1126170624	10	3876
2026-01-10 00:32:21.91	67.99	17.21	-24.7	-25.9	17.6	0.00e+00	0	42	0	1132462080	9	4165
2026-01-10 00:32:22.91	68.21	17.25	-24.5	-25.6	17.8	0.00e+00	0	42	0	1137704960	9	4083
2026-01-10 00:32:23.91	68.43	17.28	-24.5	-25.7	17.8	0.00e+00	0	42	0	1142947840	9	4109
2026-01-10 00:32:24.91	68.65	17.31	-24.7	-26.1	17.6	0.00e+00	0	42	0	1149239296	9	4205
2026-01-10 00:32:25.91	68.87	17.34	-24.8	-26.3	17.4	0.00e+00	0	42	0	1154482176	9	4262
2026-01-10 00:32:26.91	69.09	17.37	-24.6	-25.8	17.7	0.00e+00	0	42	0	1159725056	9	4138
2026-01-10 00:32:27.91	69.32	17.40	-24.4	-25.3	18.0	0.00e+00	0	42	0	1166016512	9	4028
2026-01-10 00:32:28.91	69.54	17.43	-24.5	-25.7	17.8	0.00e+00	0	42	0	1171259392	9	4118
2026-01-10 00:32:29.91	69.76	17.45	-24.5	-25.5	17.9	0.00e+00	0	42	0	1177550848	9	4069
2026-01-10 00:32:30.91	69.99	17.48	-24.6	-25.9	17.6	1.10e-06	0	42	0	1182793728	9	4162
2026-01-10 00:32:31.91	70.21	17.51	-24.6	-25.8	17.8	0.00e+00	0	42	0	1188036608	9	4127
2026-01-10 00:32:32.92	70.44	17.54	-24.5	-25.7	17.8	0.00e+00	0	42	0	1194328064	9	4105
2026-01-10 00:32:33.93	70.66	17.57	-24.9	-26.5	17.3	0.00e+00	0	42	0	1199570944	9	4326
2026-01-10 00:32:34.93	70.89	17.59	-24.5	-25.1	17.8	0.00e+00	0	42	0	1205862400	10	3851
2026-01-10 00:32:35.93	71.11	17.62	-24.7	-25.5	17.7	0.00e+00	0	42	0	1211105280	10	3938
2026-01-10 00:32:36.94	71.34	17.65	-24.7	-25.6	17.6	0.00e+00	0	42	0	1216348160	10	3975
2026-01-10 00:32:37.94	71.57	17.67	-24.6	-25.3	17.8	0.00e+00	0	42	0	1222639616	10	3902
2026-01-10 00:32:38.95	71.80	17.70	-24.8	-25.8	17.5	0.00e+00	0	42	0	1227882496	10	4025
2026-01-10 00:32:39.95	72.03	17.72	-24.7	-25.6	17.6	0.00e+00	0	42	0	1233125376	10	3964
2026-01-10 00:32:40.95	72.25	17.74	-24.7	-25.6	17.6	0.00e+00	0	42	0	1239416832	10	3983
2026-01-10 00:32:41.96	72.48	17.77	-25.2	-26.5	17.1	0.00e+00	0	42	0	1244659712	10	4210
2026-01-10 00:32:42.96	72.71	17.79	-25.0	-26.1	17.3	1.10e-06	0	42	0	1250951168	10	4110
2026-01-10 00:32:43.96	72.94	17.82	-24.6	-25.2	17.8	0.00e+00	0	42	0	1256194048	10	3878
2026-01-10 00:32:44.96	73.17	17.84	-24.4	-24.8	18.0	0.00e+00	0	42	0	1261436928	10	3796
2026-01-10 00:32:45.96	73.40	17.86	-24.3	-25.3	17.9	0.00e+00	0	42	0	1267728384	9	4023
2026-01-10 00:32:46.96	73.63	17.88	-24.3	-25.2	17.9	0.00e+00	0	42	0	1272971264	9	4009
2026-01-10 00:32:47.96	73.86	17.90	-24.3	-25.2	17.9	0.00e+00	0	42	0	1278214144	9	4011
2026-01-10 00:32:48.96	74.09	17.92	-24.2	-25.0	18.0	1.10e-06	0	42	0	1284505600	9	3961
2026-01-10 00:32:49.95	74.32	17.94	-24.1	-24.8	18.1	0.00e+00	0	42	0	1289748480	9	3904
2026-01-10 00:32:50.95	74.55	17.96	-24.5	-25.6	17.6	0.00e+00	0	42	0	1294991360	9	4110
2026-01-10 00:32:51.96	74.78	17.98	-24.3	-25.2	17.9	0.00e+00	0	42	0	1301282816	9	3998
2026-01-10 00:32:52.97	75.01	18.00	-24.3	-25.2	17.9	0.00e+00	0	42	0	1306525696	9	4001
2026-01-10 00:32:53.97	75.25	18.02	-24.2	-25.1	18.0	0.00e+00	0	42	0	1312817152	9	3970
2026-01-10 00:32:54.98	75.48	18.04	-24.4	-25.4	17.8	1.10e-06	0	42	0	1318060032	9	4042
2026-01-10 00:32:55.98	75.71	18.06	-24.2	-25.1	17.9	0.00e+00	0	42	0	1324351488	9	3973
2026-01-10 00:32:56.98	75.95	18.08	-24.2	-25.0	18.0	0.00e+00	0	42	0	1329594368	9	3957
2026-01-10 00:32:57.98	76.18	18.09	-24.3	-25.2	17.9	2.20e-06	0	42	0	1334837248	9	4005
2026-01-10 00:32:58.98	76.41	18.11	-24.3	-25.2	17.9	0.00e+00	0	42	0	1341128704	9	4004
2026-01-10 00:32:59.98	76.64	18.13	-24.1	-24.9	18.1	0.00e+00	0	42	0	1346371584	9	3934
2026-01-10 00:33:00.99	76.88	18.14	-24.0	-24.5	18.2	3.40e-06	0	42	0	1351614464	9	3849
2026-01-10 00:33:01.99	77.11	18.16	-24.5	-25.6	17.7	0.00e+00	0	42	0	1357905920	9	4113
2026-01-10 00:33:02.99	77.35	18.17	-24.1	-24.8	18.1	0.00e+00	0	42	0	1363148800	9	3919
2026-01-10 00:33:04.00	77.59	18.19	-24.1	-24.8	18.1	2.20e-06	0	42	0	1368391680	9	3911
2026-01-10 00:33:05.01	77.82	18.20	-24.1	-24.8	18.1	0.00e+00	0	42	0	1374683136	9	3901
2026-01-10 00:33:06.01	78.06	18.21	-24.0	-24.5	18.2	0.00e+00	0	42	0	1379926016	9	3843
2026-01-10 00:33:07.01	78.29	18.23	-24.2	-25.0	18.0	0.00e+00	0	42	0	1386217472	9	3961
2026-01-10 00:33:08.02	78.53	18.24	-24.2	-25.0	18.0	0.00e+00	0	42	0	1391460352	9	3956
2026-01-10 00:33:09.02	78.76	18.25	-24.0	-24.7	18.1	0.00e+00	0	42	0	1396703232	9	3886
2026-01-10 00:33:10.03	79.00	18.26	-24.1	-24.9	18.1	0.00e+00	0	42	0	1402994688	9	3922
2026-01-10 00:33:11.03	79.24	18.27	-24.5	-25.6	17.7	0.00e+00	0	42	0	1408237568	9	4095
2026-01-10 00:33:12.03	79.47	18.28	-24.2	-25.1	17.9	1.15e-04	0	42	0	1414529024	9	3981
2026-01-10 00:33:13.03	79.71	18.29	-24.3	-25.2	17.9	1.10e-06	0	42	0	1419771904	9	4019
2026-01-10 00:33:14.03	79.95	18.30	-24.2	-25.1	18.0	0.00e+00	0	42	0	1425014784	9	3974
2026-01-10 00:33:15.03	80.18	18.31	-24.2	-25.1	18.0	0.00e+00	0	42	0	1431306240	9	3972
2026-01-10 00:33:16.04	80.42	18.32	-24.0	-24.6	18.2	1.86e-04	0	42	0	1436549120	9	3855
2026-01-10 00:33:17.04	80.66	18.33	-24.2	-25.0	18.0	0.00e+00	0	42	0	1441792000	9	3958
2026-01-10 00:33:18.03	80.89	18.34	-23.9	-24.3	18.4	2.28e-04	0	42	0	1448083456	9	3799
2026-01-10 00:33:19.03	81.13	18.35	-24.1	-24.8	18.1	1.93e-04	0	42	0	1453326336	9	3911
2026-01-10 00:33:20.03	81.37	18.35	-24.4	-25.4	17.9	0.00e+00	0	42	0	1459617792	9	4051
2026-01-10 00:33:21.03	81.60	18.36	-24.2	-25.0	18.0	6.75e-05	0	42	0	1464860672	9	3955
2026-01-10 00:33:22.03	81.84	18.36	-24.3	-25.3	17.8	0.00e+00	0	42	0	1470103552	9	4029
2026-01-10 00:33:23.04	82.08	18.37	-24.7	-25.6	17.4	0.00e+00	0	42	0	1476395008	10	3989
2026-01-10 00:33:24.03	82.32	18.38	-24.5	-25.2	17.6	4.57e-05	0	42	0	1481637888	10	3901
2026-01-10 00:33:25.03	82.55	18.38	-24.3	-24.9	17.8	1.14e-05	0	42	0	1486880768	10	3814
2026-01-10 00:33:26.03	82.79	18.38	-24.8	-25.7	17.4	0.00e+00	0	42	0	1493172224	10	4026
2026-01-10 00:33:27.03	83.03	18.39	-25.3	-26.8	16.8	0.00e+00	0	42	0	1498415104	10	4302
2026-01-10 00:33:28.03	83.27	18.39	-24.9	-26.1	17.2	0.00e+00	0	42	0	1503657984	10	4113
2026-01-10 00:33:29.03	83.50	18.39	-25.3	-26.9	16.8	0.00e+00	0	42	0	1509949440	10	4321
2026-01-10 00:33:30.03	83.74	18.39	-25.0	-26.2	17.1	0.00e+00	0	42	0	1515192320	10	4143
2026-01-10 00:33:31.03	83.98	18.40	-24.7	-25.5	17.5	0.00e+00	0	42	0	1520435200	10	3981
2026-01-10 00:33:32.03	84.22	18.40	-24.7	-25.5	17.5	0.00e+00	0	42	0	1526726656	10	3980
2026-01-10 00:33:33.02	84.45	18.40	-24.8	-25.8	17.3	0.00e+00	0	42	0	1531969536	10	4049
2026-01-10 00:33:34.02	84.69	18.40	-24.6	-25.4	17.5	0.00e+00	0	42	0	1537212416	10	3957
2026-01-10 00:33:35.02	84.93	18.40	-24.7	-25.6	17.4	0.00e+00	0	42	0	1543503872	10	4001
2026-01-10 00:33:36.02	85.17	18.40	-24.5	-25.1	17.6	0.00e+00	0	42	0	1548746752	10	3884
2026-01-10 00:33:37.02	85.40	18.40	-24.4	-24.9	17.8	0.00e+00	0	42	0	1555038208	10	3817
2026-01-10 00:33:38.03	85.64	18.39	-24.2	-25.0	18.0	0.00e+00	0	42	0	1560281088	9	3955
2026-01-10 00:33:39.04	85.88	18.39	-24.3	-25.3	17.8	0.00e+00	0	42	0	1566572544	9	4023
2026-01-10 00:33:40.04	86.12	18.39	-24.3	-25.3	17.8	4.50e-06	0	42	0	1571815424	9	4026
2026-01-10 00:33:41.04	86.36	18.39	-24.4	-25.5	17.7	0.00e+00	0	42	0	1577058304	9	4082
2026-01-10 00:33:42.04	86.60	18.38	-24.1	-24.9	18.0	3.77e-05	0	42	0	1583349760	9	3940
2026-01-10 00:33:43.04	86.83	18.38	-24.1	-24.8	18.1	5.70e-06	0	42	0	1588592640	9	3903
2026-01-10 00:33:44.04	87.07	18.37	-23.9	-24.4	18.2	0.00e+00	0	42	0	1593835520	9	3825
2026-01-10 00:33:45.04	87.31	18.37	-24.1	-24.8	18.1	4.11e-05	0	42	0	1600126976	9	3898
2026-01-10 00:33:46.05	87.55	18.36	-24.0	-24.7	18.2	5.95e-05	0	42	0	1605369856	9	3882
2026-01-10 00:33:47.06	87.79	18.36	-24.0	-24.6	18.1	0.00e+00	0	42	0	1610612736	9	3864
2026-01-10 00:33:48.06	88.03	18.35	-24.1	-24.9	18.0	0.00e+00	0	42	0	1616904192	9	3943
2026-01-10 00:33:49.06	88.26	18.34	-24.4	-25.4	17.7	9.95e-05	0	42	0	1622147072	9	4048
2026-01-10 00:33:50.07	88.50	18.34	-24.3	-25.3	17.8	0.00e+00	0	42	0	1628438528	9	4018
2026-01-10 00:33:51.07	88.74	18.33	-24.4	-25.5	17.7	5.83e-05	0	42	0	1633681408	9	4072
2026-01-10 00:33:52.07	88.98	18.32	-24.4	-25.4	17.7	1.48e-05	0	42	0	1638924288	9	4067
2026-01-10 00:33:53.07	89.21	18.31	-24.1	-24.8	18.0	0.00e+00	0	42	0	1645215744	9	3922
2026-01-10 00:33:54.07	89.45	18.30	-24.5	-25.7	17.6	0.00e+00	0	42	0	1650458624	9	4138
2026-01-10 00:33:55.08	89.69	18.29	-24.5	-25.8	17.5	0.00e+00	0	42	0	1655701504	9	4154
2026-01-10 00:33:56.07	89.92	18.28	-24.3	-25.2	17.8	0.00e+00	0	42	0	1661992960	9	4012
2026-01-10 00:33:57.07	90.16	18.27	-24.2	-25.0	17.9	1.71e-05	0	42	0	1667235840	9	3968
2026-01-10 00:33:58.07	90.39	18.26	-24.5	-25.6	17.6	5.83e-05	0	42	0	1672478720	9	4104
2026-01-10 00:33:59.07	90.63	18.25	-24.7	-26.0	17.4	0.00e+00	0	42	0	1678770176	9	4209
2026-01-10 00:34:00.07	90.86	18.24	-24.5	-25.6	17.6	1.36e-04	0	42	0	1684013056	9	4115
2026-01-10 00:34:01.08	91.10	18.22	-24.4	-25.4	17.7	7.66e-05	0	42	0	1690304512	9	4058
2026-01-10 00:34:02.08	91.34	18.21	-24.3	-25.4	17.8	0.00e+00	0	42	0	1695547392	9	4046
2026-01-10 00:34:03.08	91.57	18.20	-24.5	-25.7	17.6	1.66e-04	0	42	0	1700790272	9	4125
2026-01-10 00:34:04.08	91.81	18.18	-24.6	-25.9	17.5	1.23e-04	0	42	0	1707081728	9	4190
2026-01-10 00:34:05.08	92.04	18.17	-24.5	-25.8	17.6	0.00e+00	0	42	0	1712324608	9	4156
2026-01-10 00:34:06.08	92.28	18.15	-24.7	-26.2	17.3	4.00e-05	0	42	0	1718616064	9	4278
2026-01-10 00:34:07.08	92.51	18.14	-24.6	-25.9	17.4	0.00e+00	0	42	0	1723858944	9	4195
2026-01-10 00:34:08.08	92.74	18.12	-24.6	-26.0	17.4	0.00e+00	0	42	0	1729101824	9	4211
2026-01-10 00:34:09.08	92.98	18.11	-24.5	-25.7	17.5	0.00e+00	0	42	0	1735393280	9	4147
2026-01-10 00:34:10.09	93.21	18.09	-24.7	-26.0	17.4	0.00e+00	0	42	0	1740636160	9	4218
2026-01-10 00:34:11.09	93.45	18.07	-24.4	-25.5	17.7	0.00e+00	0	42	0	1745879040	9	4073
2026-01-10 00:34:12.09	93.68	18.05	-24.2	-25.1	17.9	0.00e+00	0	42	0	1752170496	9	3981
2026-01-10 00:34:13.09	93.91	18.04	-24.2	-25.1	17.9	8.00e-06	0	42	0	1757413376	9	3979
2026-01-10 00:34:14.09	94.15	18.02	-24.1	-24.9	18.0	0.00e+00	0	42	0	1763704832	9	3927
2026-01-10 00:34:15.09	94.38	18.00	-24.2	-25.2	17.8	2.51e-05	0	42	0	1768947712	9	4002
2026-01-10 00:34:16.08	94.61	17.98	-24.4	-25.4	17.7	0.00e+00	0	42	0	1774190592	9	4059
2026-01-10 00:34:17.09	94.84	17.96	-24.3	-25.2	17.8	0.00e+00	0	42	0	1780482048	9	4019
2026-01-10 00:34:18.09	95.07	17.94	-24.5	-25.7	17.6	0.00e+00	0	42	0	1785724928	9	4130
2026-01-10 00:34:19.09	95.30	17.92	-24.6	-25.9	17.4	0.00e+00	0	42	0	1790967808	9	4177
2026-01-10 00:34:20.09	95.53	17.90	-24.8	-26.5	17.2	0.00e+00	0	42	0	1797259264	9	4333
2026-01-10 00:34:21.09	95.76	17.88	-24.6	-25.9	17.5	0.00e+00	0	42	0	1802502144	9	4169
2026-01-10 00:34:22.10	96.00	17.85	-24.7	-26.1	17.4	0.00e+00	0	42	0	1807745024	9	4228
2026-01-10 00:34:23.10	96.23	17.83	-24.7	-26.2	17.3	0.00e+00	0	42	0	1814036480	9	4259
2026-01-10 00:34:24.10	96.46	17.81	-24.6	-25.9	17.5	0.00e+00	0	42	0	1819279360	9	4197
2026-01-10 00:34:25.11	96.69	17.79	-25.0	-26.8	17.0	0.00e+00	0	42	0	1825570816	9	4424
2026-01-10 00:34:26.11	96.92	17.76	-24.7	-25.6	17.4	0.00e+00	0	42	0	1830813696	10	3993
2026-01-10 00:34:27.11	97.14	17.74	-24.6	-25.5	17.4	0.00e+00	0	42	0	1836056576	10	3982
2026-01-10 00:34:28.11	97.37	17.71	-24.6	-25.5	17.4	0.00e+00	0	42	0	1842348032	10	3968
2026-01-10 00:34:29.10	97.60	17.69	-24.5	-25.3	17.5	0.00e+00	0	42	0	1847590912	10	3918
2026-01-10 00:34:30.10	97.82	17.66	-24.9	-26.0	17.2	0.00e+00	0	42	0	1852833792	10	4101
2026-01-10 00:34:31.11	98.05	17.64	-25.2	-26.6	16.9	5.70e-06	0	42	0	1859125248	10	4245
2026-01-10 00:34:32.11	98.28	17.61	-25.0	-26.3	17.0	0.00e+00	0	42	0	1864368128	10	4184
2026-01-10 00:34:33.11	98.51	17.58	-25.1	-26.5	17.0	0.00e+00	0	42	0	1869611008	10	4214
2026-01-10 00:34:34.11	98.73	17.56	-24.9	-26.0	17.1	0.00e+00	0	42	0	1875902464	10	4096
2026-01-10 00:34:35.11	98.96	17.53	-25.0	-26.1	17.1	0.00e+00	0	42	0	1881145344	10	4131
2026-01-10 00:34:36.12	99.18	17.50	-25.7	-27.2	16.3	1.94e-05	0	42	0	1887436800	11	4293
2026-01-10 00:34:37.12	99.41	17.47	-25.6	-26.5	16.3	0.00e+00	0	42	0	1892679680	12	4018
2026-01-10 00:34:38.12	99.63	17.45	-25.2	-26.8	16.8	0.00e+00	0	42	0	1897922560	10	4300
2026-01-10 00:34:39.12	99.86	17.42	-24.7	-25.7	17.4	0.00e+00	0	42	0	1904214016	10	4025
2026-01-10 00:34:40.12	100.08	17.39	-24.8	-25.8	17.2	1.32e-04	0	42	0	1909456896	10	4055
2026-01-10 00:34:41.12	100.30	17.36	-24.5	-25.3	17.5	0.00e+00	0	42	0	1914699776	10	3916
2026-01-10 00:34:42.12	100.53	17.33	-24.5	-25.2	17.5	0.00e+00	0	42	0	1920991232	10	3907
2026-01-10 00:34:43.12	100.75	17.30	-24.5	-25.1	17.6	2.35e-04	0	42	0	1926234112	10	3876
2026-01-10 00:34:44.12	100.97	17.27	-24.5	-25.2	17.6	0.00e+00	0	42	0	1931476992	10	3903
2026-01-10 00:34:45.13	101.19	17.24	-24.6	-25.4	17.4	3.35e-04	0	42	0	1937768448	10	3959
2026-01-10 00:34:46.13	101.41	17.20	-24.5	-25.2	17.5	0.00e+00	0	42	0	1943011328	10	3911
2026-01-10 00:34:47.13	101.63	17.17	-24.5	-25.2	17.6	0.00e+00	0	42	0	1949302784	10	3891
2026-01-10 00:34:48.14	101.86	17.14	-24.6	-25.9	17.4	0.00e+00	0	42	0	1954545664	9	4188
2026-01-10 00:34:49.14	102.08	17.11	-24.3	-25.4	17.7	0.00e+00	0	42	0	1960837120	9	4052
2026-01-10 00:34:50.14	102.29	17.07	-24.3	-25.3	17.7	0.00e+00	0	42	0	1966080000	9	4030
2026-01-10 00:34:51.14	102.51	17.04	-24.6	-25.8	17.5	0.00e+00	0	42	0	1971322880	9	4166
2026-01-10 00:34:52.15	102.73	17.01	-24.4	-25.5	17.6	0.00e+00	0	42	0	1977614336	9	4092
2026-01-10 00:34:53.15	102.95	16.97	-24.5	-25.7	17.5	0.00e+00	0	42	0	1982857216	9	4145
2026-01-10 00:34:54.15	103.17	16.94	-24.5	-25.7	17.5	1.88e-04	0	42	0	1988100096	9	4136
2026-01-10 00:34:55.15	103.38	16.90	-24.5	-25.7	17.5	0.00e+00	0	42	0	1994391552	9	4146
2026-01-10 00:34:56.16	103.60	16.87	-25.0	-26.2	17.0	0.00e+00	0	42	0	1999634432	10	4150
2026-01-10 00:34:57.15	103.82	16.83	-25.1	-26.5	16.9	0.00e+00	0	42	0	2004877312	10	4221
2026-01-10 00:34:58.15	104.03	16.80	-24.9	-26.2	17.1	0.00e+00	0	42	0	2011168768	10	4142
2026-01-10 00:34:59.15	104.25	16.76	-25.0	-25.7	17.0	0.00e+00	0	42	0	2016411648	11	3932
2026-01-10 00:35:00.15	104.46	16.72	-25.3	-26.4	16.6	0.00e+00	0	42	0	2022703104	11	4084
2026-01-10 00:35:01.15	104.67	16.69	-25.2	-26.2	16.8	5.26e-05	0	42	0	2027945984	11	4046
2026-01-10 00:35:02.16	104.89	16.65	-25.2	-26.2	16.8	0.00e+00	0	42	0	2033188864	11	4050
2026-01-10 00:35:03.16	105.10	16.61	-24.8	-25.9	17.2	0.00e+00	0	42	0	2039480320	10	4065
2026-01-10 00:35:04.16	105.31	16.58	-25.1	-26.5	16.8	0.00e+00	0	42	0	2044723200	10	4234
2026-01-10 00:35:05.16	105.52	16.54	-25.3	-27.0	16.6	0.00e+00	0	42	0	2049966080	10	4374
2026-01-10 00:35:06.17	105.74	16.50	-25.2	-26.1	16.8	1.10e-06	0	42	0	2056257536	11	4025
2026-01-10 00:35:07.17	105.95	16.46	-25.5	-26.9	16.3	0.00e+00	0	42	0	2061500416	11	4232
2026-01-10 00:35:08.17	106.16	16.42	-25.5	-26.8	16.4	0.00e+00	0	42	0	2066743296	11	4205
2026-01-10 00:35:09.17	106.37	16.38	-25.3	-26.4	16.6	0.00e+00	0	42	0	2073034752	11	4087
2026-01-10 00:35:10.18	106.58	16.34	-26.1	-27.6	15.7	0.00e+00	0	42	0	2078277632	12	4317
2026-01-10 00:35:11.18	106.79	16.30	-25.3	-26.9	16.6	0.00e+00	0	42	0	2084569088	10	4353
2026-01-10 00:35:12.18	107.00	16.26	-25.4	-26.7	16.5	3.40e-06	0	42	0	2089811968	11	4163
2026-01-10 00:35:13.19	107.20	16.22	-25.2	-26.1	16.7	0.00e+00	0	42	0	2096103424	11	4027
2026-01-10 00:35:14.19	107.41	16.18	-25.0	-25.8	17.0	0.00e+00	0	42	0	2101346304	11	3943
2026-01-10 00:35:15.19	107.62	16.14	-24.9	-26.0	17.1	3.40e-06	0	42	0	2106589184	10	4107
2026-01-10 00:35:16.19	107.82	16.10	-24.8	-25.8	17.2	0.00e+00	0	42	0	2112880640	10	4062
2026-01-10 00:35:17.20	108.03	16.06	-24.9	-25.6	17.1	0.00e+00	0	42	0	2118123520	11	3900
2026-01-10 00:35:18.20	108.23	16.02	-24.7	-25.6	17.2	4.50e-06	0	42	0	2123366400	10	4004
2026-01-10 00:35:19.20	108.44	15.97	-25.0	-25.8	16.9	0.00e+00	0	42	0	2129657856	11	3943
2026-01-10 00:35:20.21	108.64	15.93	-25.0	-26.2	17.0	0.00e+00	0	42	0	2134900736	10	4152
2026-01-10 00:35:21.21	108.85	15.89	-24.8	-25.9	17.1	2.20e-06	0	42	0	2140143616	10	4067
2026-01-10 00:35:22.22	109.05	15.84	-26.9	-28.9	14.6	0.00e+00	0	42	0	2146435072	13	4556
2026-01-10 00:35:23.22	109.25	15.80	-25.1	-25.9	16.8	0.00e+00	0	42	0	2151677952	11	3975
2026-01-10 00:35:24.23	109.46	15.76	-24.7	-25.6	17.3	0.00e+00	0	42	0	2157969408	10	4005
2026-01-10 00:35:25.23	109.66	15.71	-24.8	-25.8	17.2	0.00e+00	0	42	0	2163212288	10	4044
2026-01-10 00:35:26.23	109.86	15.67	-24.7	-25.7	17.2	0.00e+00	0	42	0	2169503744	10	4027
2026-01-10 00:35:27.24	110.06	15.63	-24.9	-25.9	17.1	4.50e-06	0	42	0	2174746624	10	4081
2026-01-10 00:35:28.24	110.26	15.58	-24.7	-25.5	17.3	0.00e+00	0	42	0	2179989504	10	3979
2026-01-10 00:35:29.25	110.46	15.54	-24.9	-26.1	17.0	0.00e+00	0	42	0	2186280960	10	4127
2026-01-10 00:35:30.25	110.66	15.49	-24.7	-25.6	17.2	4.50e-06	0	42	0	2191523840	10	4000
2026-01-10 00:35:31.25	110.85	15.45	-25.0	-26.3	16.9	0.00e+00	0	42	0	2196766720	10	4181
2026-01-10 00:35:32.26	111.05	15.40	-25.4	-27.1	16.5	0.00e+00	0	42	0	2203058176	10	4391
2026-01-10 00:35:33.26	111.25	15.35	-25.2	-26.7	16.6	0.00e+00	0	42	0	2208301056	10	4286
2026-01-10 00:35:34.26	111.44	15.31	-25.2	-26.7	16.7	0.00e+00	0	42	0	2213543936	10	4294
2026-01-10 00:35:35.26	111.64	15.26	-25.2	-26.8	16.7	0.00e+00	0	42	0	2219835392	10	4301
2026-01-10 00:35:36.26	111.83	15.22	-25.1	-26.5	16.7	0.00e+00	0	42	0	2225078272	10	4240
2026-01-10 00:35:37.25	112.02	15.17	-25.2	-26.7	16.7	0.00e+00	0	42	0	2231369728	10	4295
2026-01-10 00:35:38.26	112.22	15.12	-25.1	-26.6	16.7	0.00e+00	0	42	0	2236612608	10	4251
2026-01-10 00:35:39.25	112.41	15.08	-25.2	-26.8	16.6	8.00e-06	0	42	0	2241855488	10	4298
2026-01-10 00:35:40.25	112.60	15.03	-25.1	-26.5	16.8	0.00e+00	0	42	0	2248146944	10	4223
2026-01-10 00:35:41.26	112.79	14.98	-25.1	-26.5	16.7	0.00e+00	0	42	0	2253389824	10	4238
2026-01-10 00:35:42.26	112.99	14.93	-25.1	-26.5	16.8	0.00e+00	0	42	0	2258632704	10	4221
2026-01-10 00:35:43.25	113.17	14.89	-25.3	-26.9	16.5	0.00e+00	0	42	0	2264924160	10	4339
2026-01-10 00:35:44.25	113.36	14.84	-25.1	-26.6	16.7	0.00e+00	0	42	0	2270167040	10	4251
2026-01-10 00:35:45.25	113.55	14.79	-25.1	-26.6	16.7	0.00e+00	0	42	0	2275409920	10	4251
2026-01-10 00:35:46.24	113.74	14.74	-25.2	-26.6	16.7	0.00e+00	0	42	0	2281701376	10	4264
2026-01-10 00:35:47.24	113.93	14.70	-25.1	-26.5	16.7	0.00e+00	0	42	0	2286944256	10	4231
2026-01-10 00:35:48.25	114.12	14.65	-25.1	-26.6	16.7	0.00e+00	0	42	0	2293235712	10	4254
2026-01-10 00:35:49.25	114.30	14.60	-25.8	-27.4	16.0	0.00e+00	0	42	0	2298478592	11	4359
2026-01-10 00:35:50.25	114.49	14.55	-25.5	-26.8	16.4	0.00e+00	0	42	0	2303721472	11	4191
2026-01-10 00:35:51.26	114.68	14.50	-26.0	-27.6	15.6	2.20e-06	0	42	0	2310012928	12	4290
2026-01-10 00:35:52.26	114.86	14.45	-26.9	-27.9	14.6	0.00e+00	0	42	0	2315255808	15	4062
2026-01-10 00:35:53.26	115.04	14.40	-26.0	-27.0	15.6	0.00e+00	0	42	0	2320498688	13	4034
2026-01-10 00:35:54.26	115.23	14.35	-25.8	-27.0	15.9	0.00e+00	0	42	0	2326790144	12	4137
2026-01-10 00:35:55.27	115.41	14.30	-25.5	-26.3	16.2	0.00e+00	0	42	0	2332033024	12	3960
2026-01-10 00:35:56.27	115.60	14.25	-25.6	-26.5	16.2	0.00e+00	0	42	0	2338324480	12	4014
2026-01-10 00:35:57.27	115.78	14.20	-25.6	-26.5	16.1	0.00e+00	0	42	0	2343567360	12	4018
2026-01-10 00:35:58.27	115.96	14.15	-25.5	-26.3	16.2	0.00e+00	0	42	0	2348810240	12	3973
2026-01-10 00:35:59.27	116.14	14.10	-25.5	-26.5	16.1	0.00e+00	0	42	0	2355101696	12	4005
2026-01-10 00:36:00.27	116.32	14.05	-25.6	-26.6	16.1	0.00e+00	0	42	0	2360344576	12	4035
2026-01-10 00:36:01.27	116.50	14.00	-25.7	-26.9	15.9	0.00e+00	0	42	0	2365587456	12	4133
2026-01-10 00:36:02.28	116.68	13.95	-25.9	-27.4	15.7	0.00e+00	0	42	0	2371878912	12	4241
2026-01-10 00:36:03.28	116.86	13.89	-25.9	-27.3	15.7	0.00e+00	0	42	0	2377121792	12	4227
2026-01-10 00:36:04.28	117.03	13.84	-25.9	-27.3	15.7	0.00e+00	0	42	0	2382364672	12	4222
2026-01-10 00:36:05.29	117.21	13.79	-26.2	-28.1	15.3	0.00e+00	0	42	0	2388656128	12	4437
2026-01-10 00:36:06.29	117.39	13.74	-25.9	-27.2	15.7	0.00e+00	0	42	0	2393899008	12	4201
2026-01-10 00:36:07.29	117.57	13.69	-25.7	-26.9	15.9	0.00e+00	0	42	0	2400190464	12	4120
2026-01-10 00:36:08.29	117.74	13.64	-25.7	-26.8	15.9	0.00e+00	0	42	0	2405433344	12	4098
2026-01-10 00:36:09.30	117.92	13.58	-25.4	-26.3	16.1	0.00e+00	0	42	0	2411724800	12	3965
2026-01-10 00:36:10.30	118.09	13.53	-25.5	-26.4	16.2	0.00e+00	0	42	0	2416967680	12	3983
2026-01-10 00:36:11.30	118.27	13.48	-25.5	-26.4	16.2	0.00e+00	0	42	0	2422210560	12	3977
2026-01-10 00:36:12.30	118.44	13.43	-25.5	-26.3	16.2	0.00e+00	0	42	0	2428502016	12	3967
2026-01-10 00:36:13.31	118.61	13.37	-25.7	-26.8	15.9	0.00e+00	0	42	0	2433744896	12	4090
2026-01-10 00:36:14.31	118.78	13.32	-25.7	-26.9	15.8	0.00e+00	0	42	0	2438987776	12	4119
2026-01-10 00:36:15.32	118.96	13.27	-25.7	-26.9	15.8	0.00e+00	0	42	0	2445279232	12	4132
2026-01-10 00:36:16.32	119.13	13.21	-25.6	-26.6	16.0	0.00e+00	0	42	0	2450522112	12	4034
2026-01-10 00:36:17.32	119.30	13.16	-25.6	-26.5	16.0	0.00e+00	0	42	0	2455764992	12	4033
2026-01-10 00:36:18.31	119.46	13.11	-25.5	-26.5	16.0	0.00e+00	0	42	0	2462056448	12	4018
2026-01-10 00:36:19.31	119.63	13.06	-25.9	-27.4	15.5	0.00e+00	0	42	0	2467299328	12	4252
2026-01-10 00:36:20.31	119.80	13.00	-26.3	-27.7	15.1	0.00e+00	0	42	0	2473590784	13	4225
2026-01-10 00:36:21.31	119.97	12.95	-26.7	-28.6	14.6	0.00e+00	0	42	0	2478833664	13	4482
2026-01-10 00:36:22.31	120.14	12.90	-25.8	-27.1	15.7	0.00e+00	0	42	0	2484076544	12	4177
2026-01-10 00:36:23.31	120.30	12.84	-26.3	-27.7	15.0	0.00e+00	0	42	0	2490368000	13	4215
2026-01-10 00:36:24.31	120.47	12.79	-25.9	-26.8	15.6	0.00e+00	0	42	0	2495610880	13	3979
2026-01-10 00:36:25.31	120.63	12.73	-25.6	-26.6	15.9	0.00e+00	0	42	0	2500853760	12	4054
2026-01-10 00:36:26.31	120.80	12.68	-25.9	-27.2	15.6	0.00e+00	0	42	0	2507145216	12	4191
2026-01-10 00:36:27.31	120.96	12.63	-25.9	-27.2	15.6	0.00e+00	0	42	0	2512388096	12	4208
2026-01-10 00:36:28.32	121.13	12.57	-25.8	-27.1	15.7	0.00e+00	0	42	0	2517630976	12	4177
2026-01-10 00:36:29.32	121.29	12.52	-26.2	-28.0	15.1	0.00e+00	0	42	0	2523922432	12	4421
2026-01-10 00:36:30.32	121.45	12.46	-25.9	-27.4	15.5	0.00e+00	0	42	0	2529165312	12	4247
2026-01-10 00:36:31.32	121.61	12.41	-26.0	-27.6	15.4	0.00e+00	0	42	0	2535456768	12	4312
2026-01-10 00:36:32.32	121.78	12.35	-26.1	-27.7	15.2	0.00e+00	0	42	0	2540699648	12	4342
2026-01-10 00:36:33.32	121.94	12.30	-26.5	-28.6	14.6	0.00e+00	0	42	0	2545942528	12	4591
2026-01-10 00:36:34.32	122.10	12.25	-26.6	-28.3	14.7	1.10e-06	0	42	0	2552233984	13	4381
2026-01-10 00:36:35.32	122.26	12.19	-26.2	-27.4	15.2	0.00e+00	0	42	0	2557476864	13	4150
2026-01-10 00:36:36.32	122.41	12.14	-26.0	-27.1	15.4	0.00e+00	0	42	0	2562719744	13	4064
2026-01-10 00:36:37.33	122.57	12.08	-26.2	-27.5	15.2	0.00e+00	0	42	0	2569011200	13	4179
2026-01-10 00:36:38.32	122.73	12.03	-26.0	-27.1	15.4	0.00e+00	0	42	0	2574254080	13	4065
2026-01-10 00:36:39.33	122.89	11.97	-25.9	-26.8	15.6	0.00e+00	0	42	0	2579496960	13	3997
2026-01-10 00:36:40.33	123.05	11.92	-26.2	-27.5	15.4	0.00e+00	0	42	0	2585788416	13	4165
2026-01-10 00:36:41.33	123.20	11.86	-26.1	-27.3	15.2	0.00e+00	0	42	0	2591031296	13	4122
2026-01-10 00:36:42.34	123.36	11.80	-26.0	-27.1	15.4	0.00e+00	0	42	0	2597322752	13	4059
2026-01-10 00:36:43.34	123.51	11.75	-26.2	-27.4	15.3	0.00e+00	0	42	0	2602565632	13	4133
2026-01-10 00:36:44.34	123.67	11.69	-26.0	-27.0	15.4	6.98e-05	0	42	0	2608857088	13	4032
2026-01-10 00:36:45.34	123.82	11.64	-25.8	-26.7	15.7	0.00e+00	0	42	0	2614099968	13	3956
2026-01-10 00:36:46.35	123.98	11.58	-25.9	-26.8	15.6	0.00e+00	0	42	0	2619342848	13	3983
2026-01-10 00:36:47.35	124.13	11.53	-26.0	-26.9	15.5	0.00e+00	0	42	0	2625634304	13	4016
2026-01-10 00:36:48.36	124.28	11.47	-26.0	-26.9	15.5	1.85e-04	0	42	0	2630877184	13	4020
2026-01-10 00:36:49.36	124.43	11.42	-26.0	-26.9	15.5	0.00e+00	0	42	0	2636120064	13	4016
2026-01-10 00:36:50.36	124.58	11.36	-26.2	-27.4	15.3	0.00e+00	0	42	0	2642411520	13	4139
2026-01-10 00:36:51.36	124.74	11.30	-25.9	-26.7	15.6	6.86e-05	0	42	0	2647654400	13	3965
2026-01-10 00:36:52.36	124.89	11.25	-25.9	-26.9	15.5	0.00e+00	0	42	0	2652897280	13	4014
2026-01-10 00:36:53.36	125.03	11.19	-26.0	-27.0	15.5	6.98e-05	0	42	0	2659188736	13	4042
2026-01-10 00:36:54.36	125.18	11.14	-25.9	-27.2	15.6	0.00e+00	0	42	0	2664431616	12	4211
2026-01-10 00:36:55.37	125.33	11.08	-26.5	-28.2	14.8	0.00e+00	0	42	0	2670723072	13	4356
2026-01-10 00:36:56.36	125.48	11.03	-26.8	-28.9	14.4	3.40e-06	0	42	0	2675965952	13	4559
2026-01-10 00:36:57.37	125.63	10.97	-26.6	-28.3	14.7	0.00e+00	0	42	0	2681208832	13	4400
2026-01-10 00:36:58.38	125.78	10.91	-26.4	-27.9	14.9	0.00e+00	0	42	0	2687500288	13	4271
2026-01-10 00:36:59.38	125.92	10.86	-26.3	-27.8	15.0	0.00e+00	0	42	0	2692743168	13	4247
2026-01-10 00:37:00.38	126.07	10.80	-26.5	-28.1	14.8	2.27e-04	0	42	0	2697986048	13	4331
2026-01-10 00:37:01.39	126.21	10.74	-27.3	-28.9	13.9	5.70e-06	0	42	0	2704277504	15	4337
2026-01-10 00:37:02.38	126.36	10.69	-26.3	-27.6	15.0	3.36e-04	0	42	0	2709520384	13	4202
2026-01-10 00:37:03.38	126.50	10.63	-26.3	-27.6	15.1	3.16e-04	0	42	0	2715811840	13	4190
2026-01-10 00:37:04.38	126.64	10.58	-26.3	-27.8	15.0	0.00e+00	0	42	0	2721054720	13	4242
2026-01-10 00:37:05.38	126.79	10.52	-26.5	-28.0	14.8	3.11e-04	0	42	0	2726297600	13	4316
2026-01-10 00:37:06.38	126.93	10.46	-26.5	-28.0	14.8	1.10e-06	0	42	0	2732589056	13	4309
2026-01-10 00:37:07.39	127.07	10.41	-26.5	-28.1	14.8	0.00e+00	0	42	0	2737831936	13	4328
2026-01-10 00:37:08.38	127.21	10.35	-26.9	-28.5	14.2	1.80e-04	0	42	0	2744123392	14	4334
2026-01-10 00:37:09.39	127.35	10.29	-27.1	-28.9	14.0	2.08e-04	0	42	0	2749366272	14	4453
2026-01-10 00:37:10.39	127.49	10.24	-26.9	-28.5	14.3	1.10e-06	0	42	0	2754609152	14	4334
2026-01-10 00:37:11.39	127.63	10.18	-26.5	-27.7	14.6	2.01e-04	0	42	0	2760900608	14	4129
2026-01-10 00:37:12.39	127.77	10.12	-26.6	-27.8	14.6	1.81e-04	0	42	0	2766143488	14	4152
2026-01-10 00:37:13.39	127.91	10.07	-26.8	-28.3	14.3	0.00e+00	0	42	0	2771386368	14	4293
2026-01-10 00:37:14.39	128.05	10.01	-26.5	-27.7	14.6	2.52e-04	0	42	0	2777677824	14	4140
2026-01-10 00:37:15.40	128.19	9.96	-26.6	-28.0	14.4	5.72e-05	0	42	0	2782920704	14	4207
2026-01-10 00:37:16.40	128.33	9.90	-26.6	-27.9	14.6	0.00e+00	0	42	0	2788163584	14	4193
2026-01-10 00:37:17.41	128.46	9.84	-26.5	-27.7	14.6	5.60e-05	0	42	0	2794455040	14	4132
2026-01-10 00:37:18.40	128.60	9.79	-26.5	-27.7	14.6	7.32e-05	0	42	0	2799697920	14	4120
2026-01-10 00:37:19.40	128.73	9.73	-26.5	-27.6	14.7	0.00e+00	0	42	0	2805989376	14	4110
2026-01-10 00:37:20.40	128.87	9.67	-26.7	-28.1	14.4	8.01e-05	0	42	0	2811232256	14	4224
2026-01-10 00:37:21.40	129.00	9.62	-26.6	-27.9	14.5	8.12e-05	0	42	0	2816475136	14	4192
2026-01-10 00:37:22.40	129.14	9.56	-26.6	-27.8	14.6	0.00e+00	0	42	0	2822766592	14	4135
2026-01-10 00:37:23.39	129.27	9.50	-26.6	-27.8	14.6	4.23e-05	0	42	0	2828009472	14	4159
2026-01-10 00:37:24.40	129.40	9.45	-26.5	-27.6	14.7	8.00e-06	0	42	0	2833252352	14	4093
2026-01-10 00:37:25.40	129.54	9.39	-26.5	-27.8	14.6	0.00e+00	0	42	0	2839543808	14	4146
2026-01-10 00:37:26.39	129.67	9.33	-26.6	-28.0	14.5	3.40e-06	0	42	0	2844786688	14	4191
2026-01-10 00:37:27.38	129.80	9.28	-26.8	-28.3	14.3	0.00e+00	0	42	0	2850029568	14	4297
2026-01-10 00:37:28.39	129.93	9.22	-26.7	-28.1	14.4	0.00e+00	0	42	0	2856321024	14	4246
2026-01-10 00:37:29.38	130.06	9.17	-27.1	-29.0	13.8	2.20e-06	0	42	0	2861563904	14	4496
2026-01-10 00:37:30.38	130.19	9.11	-26.9	-28.6	14.0	1.10e-06	0	42	0	2867855360	14	4395
2026-01-10 00:37:31.39	130.32	9.05	-26.9	-28.5	14.1	0.00e+00	0	42	0	2873098240	14	4365
2026-01-10 00:37:32.40	130.45	8.99	-26.9	-28.6	14.0	5.70e-06	0	42	0	2878341120	14	4388
2026-01-10 00:37:33.39	130.58	8.94	-26.9	-28.6	14.0	8.00e-06	0	42	0	2884632576	14	4378
2026-01-10 00:37:34.39	130.71	8.88	-27.0	-28.9	13.8	2.20e-06	0	42	0	2889875456	14	4477
2026-01-10 00:37:35.39	130.83	8.83	-27.0	-28.8	13.9	2.40e-05	0	42	0	2895118336	14	4431
2026-01-10 00:37:36.39	130.96	8.77	-26.9	-28.6	13.9	1.25e-05	0	42	0	2901409792	14	4371
2026-01-10 00:37:37.39	131.09	8.71	-27.0	-28.9	13.8	2.20e-06	0	42	0	2906652672	14	4465
2026-01-10 00:37:38.39	131.21	8.66	-27.0	-28.8	13.9	5.60e-05	0	42	0	2911895552	14	4425
2026-01-10 00:37:39.39	131.34	8.60	-27.1	-29.0	13.8	6.17e-05	0	42	0	2918187008	14	4493
2026-01-10 00:37:40.39	131.46	8.54	-27.1	-29.0	13.7	1.10e-06	0	42	0	2923429888	14	4494
2026-01-10 00:37:41.39	131.59	8.49	-26.9	-28.6	13.9	4.50e-06	0	42	0	2929721344	14	4379
2026-01-10 00:37:42.39	131.71	8.43	-27.0	-28.8	13.8	1.59e-04	0	42	0	2934964224	14	4441
2026-01-10 00:37:43.39	131.84	8.37	-26.9	-28.7	13.9	0.00e+00	0	42	0	2940207104	14	4421
2026-01-10 00:37:44.38	131.96	8.32	-27.0	-28.9	13.8	2.14e-04	0	42	0	2946498560	14	4466
2026-01-10 00:37:45.39	132.08	8.26	-26.9	-28.5	14.0	2.24e-04	0	42	0	2951741440	14	4363
2026-01-10 00:37:46.39	132.21	8.20	-27.1	-29.0	13.6	4.50e-06	0	42	0	2956984320	14	4513
2026-01-10 00:37:47.40	132.33	8.15	-27.2	-29.3	13.4	1.15e-04	0	42	0	2963275776	14	4606
2026-01-10 00:37:48.40	132.45	8.09	-27.3	-29.6	13.3	1.14e-05	0	42	0	2968518656	14	4701
2026-01-10 00:37:49.40	132.57	8.03	-27.2	-29.3	13.5	9.10e-06	0	42	0	2973761536	14	4612
2026-01-10 00:37:50.41	132.69	7.98	-27.3	-29.6	13.3	1.02e-05	0	42	0	2980052992	14	4688
2026-01-10 00:37:51.41	132.81	7.92	-27.3	-29.7	13.2	1.90e-04	0	42	0	2985295872	14	4709
2026-01-10 00:37:52.41	132.93	7.87	-27.4	-29.7	13.3	9.10e-06	0	42	0	2991587328	14	4708
2026-01-10 00:37:53.41	133.05	7.81	-27.2	-29.3	13.5	4.50e-06	0	42	0	2996830208	14	4587
2026-01-10 00:37:54.41	133.17	7.75	-27.3	-29.6	13.2	1.62e-04	0	42	0	3002073088	14	4691
2026-01-10 00:37:55.41	133.29	7.70	-27.0	-28.8	13.8	4.50e-06	0	42	0	3008364544	14	4443
2026-01-10 00:37:56.40	133.41	7.64	-26.7	-28.3	14.0	1.51e-04	0	42	0	3013607424	14	4283
2026-01-10 00:37:57.41	133.53	7.58	-26.7	-28.3	14.0	2.20e-06	0	42	0	3018850304	14	4300
2026-01-10 00:37:58.41	133.64	7.53	-26.8	-28.4	13.9	3.40e-06	0	42	0	3025141760	14	4319
2026-01-10 00:37:59.41	133.76	7.47	-26.8	-28.5	13.9	2.76e-04	0	42	0	3030384640	14	4369
2026-01-10 00:38:00.41	133.88	7.42	-27.0	-28.9	13.6	5.70e-06	0	42	0	3035627520	14	4476
2026-01-10 00:38:01.42	133.99	7.36	-26.9	-28.7	13.7	1.10e-06	0	42	0	3041918976	14	4413
2026-01-10 00:38:02.42	134.11	7.30	-27.0	-28.9	13.6	4.50e-06	0	42	0	3047161856	14	4483
2026-01-10 00:38:03.42	134.22	7.25	-26.9	-29.1	13.7	4.80e-04	0	42	0	3053453312	13	4655
2026-01-10 00:38:04.43	134.34	7.19	-27.1	-29.2	13.4	9.10e-06	0	42	0	3058696192	14	4584
2026-01-10 00:38:05.43	134.45	7.13	-27.2	-29.4	13.3	5.37e-04	0	42	0	3063939072	14	4639
2026-01-10 00:38:06.43	134.57	7.08	-33.0	-43.4	3.9	5.94e-04	0	42	0	3069181952	25	11881
2026-01-10 00:38:07.43	134.68	7.02	-33.1	-44.3	3.8	8.47e-01	0	42	104	3069181952	26	13011
2026-01-10 00:38:08.43	134.79	6.97	-33.3	-44.7	3.8	8.46e-01	0	42	104	3069181952	26	13350

#Closed at: 2026-01-10 00:38:08
#Recorded file [3069 MB]: D:/data/31010_260110_032900.dat