passes_logs/2026/01/10/R2M6_AANII_01/R2M6_AANII_01__20260110_120124_FENGYUN_3D_rec.log

#Pass ID: 20260110_120124_FENGYUN 3D
#Satellite: FENGYUN 3D
#Configuration: FENGYUN 3D
#almurnet v.1.7.20240730
#Start time: 2026-01-10 12:01:24

#Version: 2.2.20231116
#Station: R2M6_AANII_01
#Location: 30.233357 lon 59.946436 lat
#TLE: 1 43010U 17072A   26009.29492227  .00000158  00000+0  96483-4 0  9996
#TLE: 2 43010  98.9936 341.0229 0002153 117.3665 242.7729 14.19694440422446

#Time	Az	El	Level	Level2	SNR	BER	BlckErr	Temp	State	Recorded	gain1	gain2
2026-01-10 12:01:24.77	149.83	7.02	-28.2	-31.5	5.5	7.84e-01	0	39	0	0	16	5304
2026-01-10 12:01:25.77	149.81	7.09	-29.2	-33.4	5.2	7.97e-01	0	39	104	0	18	5863
2026-01-10 12:01:26.78	149.80	7.17	-28.9	-32.2	9.4	2.69e-02	0	39	0	0	18	5304
2026-01-10 12:01:27.79	149.79	7.25	-29.2	-33.1	8.9	2.84e-02	0	40	0	5242880	18	5647
2026-01-10 12:01:28.80	149.77	7.33	-28.8	-32.0	9.6	3.03e-02	0	40	0	11534336	18	5178
2026-01-10 12:01:29.80	149.76	7.41	-28.6	-31.4	10.1	1.06e-02	0	39	0	16777216	18	4957
2026-01-10 12:01:30.80	149.75	7.49	-28.1	-30.6	11.0	3.99e-03	0	40	0	22020096	17	4784
2026-01-10 12:01:31.81	149.73	7.57	-27.8	-29.7	11.5	1.25e-03	0	40	0	28311552	17	4497
2026-01-10 12:01:32.81	149.72	7.65	-27.5	-29.6	12.0	6.81e-04	0	40	0	33554432	16	4572
2026-01-10 12:01:33.81	149.71	7.73	-27.3	-29.1	12.3	3.22e-04	0	40	0	38797312	16	4414
2026-01-10 12:01:34.82	149.69	7.81	-27.0	-28.8	12.6	1.52e-04	0	40	0	45088768	15	4453
2026-01-10 12:01:35.83	149.68	7.89	-27.0	-28.9	12.6	1.13e-04	0	40	0	50331648	15	4457
2026-01-10 12:01:36.84	149.67	7.97	-26.8	-28.4	12.9	1.10e-04	0	40	0	56623104	15	4314
2026-01-10 12:01:37.85	149.65	8.05	-26.9	-28.6	12.8	9.38e-05	0	40	0	61865984	15	4364
2026-01-10 12:01:38.85	149.64	8.13	-26.8	-28.4	12.9	1.02e-04	0	40	0	67108864	15	4332
2026-01-10 12:01:39.86	149.62	8.21	-27.1	-29.1	12.4	1.27e-04	0	40	0	73400320	15	4541
2026-01-10 12:01:40.86	149.61	8.29	-27.0	-28.9	12.6	1.61e-04	0	40	0	78643200	15	4471
2026-01-10 12:01:41.87	149.59	8.37	-26.7	-28.7	13.1	1.04e-04	0	40	0	84934656	14	4492
2026-01-10 12:01:42.88	149.58	8.46	-26.4	-27.8	13.7	2.51e-05	0	40	0	90177536	14	4220
2026-01-10 12:01:43.88	149.57	8.54	-26.5	-27.9	13.6	1.14e-05	0	40	0	96468992	14	4251
2026-01-10 12:01:44.88	149.55	8.62	-26.5	-27.9	13.6	1.25e-05	0	40	0	101711872	14	4239
2026-01-10 12:01:45.88	149.54	8.70	-26.4	-27.8	13.7	1.71e-05	0	40	0	106954752	14	4207
2026-01-10 12:01:46.89	149.52	8.79	-26.5	-28.0	13.5	2.05e-05	0	40	0	113246208	14	4290
2026-01-10 12:01:47.89	149.51	8.87	-26.4	-27.7	13.8	9.10e-06	0	40	0	118489088	14	4175
2026-01-10 12:01:48.90	149.49	8.95	-26.3	-27.5	13.9	5.70e-06	0	40	0	123731968	14	4144
2026-01-10 12:01:49.90	149.48	9.04	-26.3	-28.1	13.9	5.70e-06	0	40	0	130023424	13	4393
2026-01-10 12:01:50.91	149.46	9.12	-26.3	-28.0	13.9	1.48e-05	0	40	0	135266304	13	4368
2026-01-10 12:01:51.91	149.45	9.21	-26.4	-28.3	13.7	1.02e-05	0	40	0	140509184	13	4463
2026-01-10 12:01:52.91	149.43	9.29	-26.3	-28.0	13.9	2.20e-06	0	40	0	146800640	13	4386
2026-01-10 12:01:53.91	149.42	9.38	-26.2	-27.8	14.1	4.50e-06	0	40	0	152043520	13	4305
2026-01-10 12:01:54.91	149.40	9.46	-26.1	-27.5	14.2	3.40e-06	0	40	0	158334976	13	4229
2026-01-10 12:01:55.92	149.38	9.55	-26.2	-27.6	14.2	0.00e+00	0	40	0	163577856	13	4252
2026-01-10 12:01:56.93	149.37	9.63	-26.0	-27.2	14.4	4.50e-06	0	40	0	169869312	13	4141
2026-01-10 12:01:57.94	149.35	9.72	-26.1	-27.5	14.3	3.40e-06	0	40	0	175112192	13	4218
2026-01-10 12:01:58.95	149.34	9.81	-26.0	-27.3	14.4	0.00e+00	0	40	0	180355072	13	4158
2026-01-10 12:01:59.94	149.32	9.89	-26.2	-27.7	14.2	2.20e-06	0	40	0	186646528	13	4263
2026-01-10 12:02:00.95	149.30	9.98	-26.0	-27.3	14.5	1.10e-06	0	41	0	191889408	13	4145
2026-01-10 12:02:01.96	149.29	10.07	-25.9	-27.0	14.6	0.00e+00	0	41	0	197132288	13	4073
2026-01-10 12:02:02.96	149.27	10.16	-26.1	-27.3	14.4	0.00e+00	0	40	0	203423744	13	4153
2026-01-10 12:02:03.97	149.26	10.24	-26.0	-27.1	14.5	0.00e+00	0	41	0	208666624	13	4103
2026-01-10 12:02:04.97	149.24	10.33	-26.0	-27.1	14.6	2.20e-06	0	41	0	213909504	13	4106
2026-01-10 12:02:05.98	149.22	10.42	-25.9	-26.9	14.7	1.10e-06	0	40	0	220200960	13	4043
2026-01-10 12:02:06.98	149.20	10.51	-26.3	-27.9	14.2	1.10e-06	0	41	0	225443840	13	4307
2026-01-10 12:02:07.99	149.19	10.60	-26.1	-27.4	14.4	2.20e-06	0	41	0	231735296	13	4182
2026-01-10 12:02:09.00	149.17	10.69	-25.9	-27.0	14.7	0.00e+00	0	41	0	236978176	13	4063
2026-01-10 12:02:10.00	149.15	10.78	-25.8	-26.7	14.9	0.00e+00	0	41	0	243269632	13	3997
2026-01-10 12:02:11.01	149.14	10.87	-25.9	-26.8	14.8	0.00e+00	0	41	0	248512512	13	4032
2026-01-10 12:02:12.02	149.12	10.96	-25.9	-26.9	14.7	0.00e+00	0	41	0	253755392	13	4056
2026-01-10 12:02:13.02	149.10	11.05	-25.9	-26.9	14.8	1.10e-06	0	41	0	260046848	13	4041
2026-01-10 12:02:14.03	149.08	11.14	-26.1	-27.3	14.5	1.10e-06	0	41	0	265289728	13	4165
2026-01-10 12:02:15.03	149.06	11.24	-25.9	-26.9	14.8	0.00e+00	0	41	0	271581184	13	4050
2026-01-10 12:02:16.04	149.05	11.33	-25.8	-26.7	14.9	0.00e+00	0	41	0	276824064	13	4004
2026-01-10 12:02:17.05	149.03	11.42	-25.9	-26.8	14.8	0.00e+00	0	41	0	282066944	13	4033
2026-01-10 12:02:18.05	149.01	11.51	-25.7	-27.0	15.0	0.00e+00	0	41	0	288358400	12	4184
2026-01-10 12:02:19.06	148.99	11.61	-25.8	-27.2	14.9	0.00e+00	0	41	0	293601280	12	4234
2026-01-10 12:02:20.06	148.97	11.70	-25.7	-27.0	15.1	0.00e+00	0	41	0	298844160	12	4174
2026-01-10 12:02:21.07	148.95	11.79	-25.8	-27.1	14.9	0.00e+00	0	41	0	305135616	12	4221
2026-01-10 12:02:22.08	148.93	11.89	-25.7	-27.0	15.0	0.00e+00	0	41	0	310378496	12	4184
2026-01-10 12:02:23.08	148.92	11.98	-25.7	-27.0	15.1	0.00e+00	0	41	0	316669952	12	4170
2026-01-10 12:02:24.09	148.90	12.08	-25.6	-26.8	15.2	0.00e+00	0	41	0	321912832	12	4120
2026-01-10 12:02:25.09	148.88	12.17	-25.6	-26.9	15.1	0.00e+00	0	41	0	328204288	12	4145
2026-01-10 12:02:26.09	148.86	12.27	-25.6	-26.8	15.2	0.00e+00	0	41	0	333447168	12	4127
2026-01-10 12:02:27.08	148.84	12.36	-25.7	-26.9	15.1	0.00e+00	0	41	0	338690048	12	4153
2026-01-10 12:02:28.08	148.82	12.46	-25.6	-26.7	15.3	0.00e+00	0	41	0	344981504	12	4097
2026-01-10 12:02:29.09	148.80	12.56	-25.6	-26.7	15.2	0.00e+00	0	41	0	350224384	12	4112
2026-01-10 12:02:30.09	148.78	12.65	-25.9	-27.3	14.9	0.00e+00	0	41	0	355467264	12	4272
2026-01-10 12:02:31.10	148.76	12.75	-25.8	-27.3	14.9	0.00e+00	0	41	0	361758720	12	4252
2026-01-10 12:02:32.11	148.74	12.85	-25.9	-27.4	14.9	1.10e-06	0	41	0	367001600	12	4280
2026-01-10 12:02:33.11	148.72	12.95	-25.8	-27.1	15.0	2.20e-06	0	41	0	372244480	12	4214
2026-01-10 12:02:34.12	148.70	13.05	-26.0	-27.6	14.8	0.00e+00	0	41	0	378535936	12	4358
2026-01-10 12:02:35.12	148.68	13.15	-26.0	-27.7	14.8	0.00e+00	0	41	0	383778816	12	4357
2026-01-10 12:02:36.13	148.65	13.25	-25.9	-27.4	14.9	0.00e+00	0	41	0	390070272	12	4285
2026-01-10 12:02:37.14	148.63	13.35	-25.8	-27.1	15.1	0.00e+00	0	41	0	395313152	12	4208
2026-01-10 12:02:38.15	148.61	13.45	-25.9	-27.4	14.9	0.00e+00	0	41	0	401604608	12	4275
2026-01-10 12:02:39.15	148.59	13.55	-26.0	-27.6	14.8	0.00e+00	0	41	0	406847488	12	4342
2026-01-10 12:02:40.16	148.57	13.65	-25.8	-27.1	15.1	0.00e+00	0	41	0	412090368	12	4221
2026-01-10 12:02:41.17	148.55	13.75	-25.5	-26.5	15.5	0.00e+00	0	41	0	418381824	12	4037
2026-01-10 12:02:42.17	148.53	13.85	-25.4	-26.3	15.5	0.00e+00	0	41	0	423624704	12	4008
2026-01-10 12:02:43.18	148.50	13.95	-25.3	-26.2	15.6	0.00e+00	0	41	0	429916160	12	3976
2026-01-10 12:02:44.19	148.48	14.06	-25.3	-26.6	15.7	0.00e+00	0	41	0	435159040	11	4178
2026-01-10 12:02:45.19	148.46	14.16	-25.3	-26.5	15.8	0.00e+00	0	41	0	440401920	11	4154
2026-01-10 12:02:46.20	148.44	14.27	-25.2	-26.3	15.9	0.00e+00	0	41	0	446693376	11	4093
2026-01-10 12:02:47.20	148.41	14.37	-25.1	-26.2	16.0	0.00e+00	0	41	0	451936256	11	4066
2026-01-10 12:02:48.20	148.39	14.47	-25.2	-26.3	15.9	0.00e+00	0	41	0	457179136	11	4103
2026-01-10 12:02:49.21	148.37	14.58	-25.2	-26.2	16.0	0.00e+00	0	41	0	463470592	11	4082
2026-01-10 12:02:50.21	148.34	14.68	-25.1	-26.1	16.1	0.00e+00	0	41	0	468713472	11	4046
2026-01-10 12:02:51.22	148.32	14.79	-25.1	-26.1	16.1	0.00e+00	0	41	0	475004928	11	4050
2026-01-10 12:02:52.23	148.30	14.90	-25.0	-25.9	16.2	0.00e+00	0	41	0	480247808	11	4000
2026-01-10 12:02:53.24	148.27	15.00	-25.0	-26.0	16.2	0.00e+00	0	41	0	486539264	11	4009
2026-01-10 12:02:54.25	148.25	15.11	-25.0	-25.9	16.2	0.00e+00	0	41	0	491782144	11	3995
2026-01-10 12:02:55.26	148.22	15.22	-24.9	-25.7	16.4	3.40e-06	0	41	0	497025024	11	3927
2026-01-10 12:02:56.26	148.20	15.33	-24.9	-25.6	16.4	0.00e+00	0	41	0	503316480	11	3899
2026-01-10 12:02:57.27	148.17	15.44	-24.9	-25.7	16.4	0.00e+00	0	41	0	508559360	11	3928
2026-01-10 12:02:58.27	148.15	15.55	-24.8	-25.5	16.5	0.00e+00	0	41	0	514850816	11	3884
2026-01-10 12:02:59.28	148.12	15.66	-24.8	-25.9	16.6	0.00e+00	0	41	0	520093696	10	4080
2026-01-10 12:03:00.28	148.10	15.77	-25.0	-26.4	16.3	0.00e+00	0	41	0	525336576	10	4217
2026-01-10 12:03:01.28	148.07	15.88	-24.9	-26.1	16.4	3.40e-06	0	41	0	531628032	10	4145
2026-01-10 12:03:02.29	148.05	15.99	-25.0	-26.4	16.3	0.00e+00	0	41	0	536870912	10	4231
2026-01-10 12:03:03.30	148.02	16.10	-25.3	-27.0	16.0	0.00e+00	0	41	0	542113792	10	4381
2026-01-10 12:03:04.30	147.99	16.21	-25.0	-26.4	16.3	8.00e-06	0	41	0	548405248	10	4223
2026-01-10 12:03:05.30	147.97	16.32	-24.8	-25.9	16.5	0.00e+00	0	41	0	553648128	10	4101
2026-01-10 12:03:06.30	147.94	16.44	-24.7	-25.7	16.7	0.00e+00	0	41	0	559939584	10	4050
2026-01-10 12:03:07.31	147.91	16.55	-24.7	-25.7	16.7	0.00e+00	0	41	0	565182464	10	4030
2026-01-10 12:03:08.32	147.89	16.67	-24.6	-25.5	16.8	0.00e+00	0	41	0	570425344	10	3994
2026-01-10 12:03:09.33	147.86	16.78	-24.6	-25.5	16.8	0.00e+00	0	41	0	576716800	10	3998
2026-01-10 12:03:10.33	147.83	16.90	-24.6	-25.5	16.8	0.00e+00	0	41	0	581959680	10	3979
2026-01-10 12:03:11.34	147.80	17.01	-24.6	-25.5	16.8	0.00e+00	0	42	0	588251136	10	3995
2026-01-10 12:03:12.35	147.78	17.13	-24.6	-25.5	16.8	0.00e+00	0	41	0	593494016	10	3981
2026-01-10 12:03:13.36	147.75	17.25	-24.6	-25.4	16.9	0.00e+00	0	41	0	598736896	10	3973
2026-01-10 12:03:14.37	147.72	17.37	-24.7	-25.6	16.8	0.00e+00	0	41	0	605028352	10	4018
2026-01-10 12:03:15.38	147.69	17.48	-24.5	-25.3	17.0	0.00e+00	0	42	0	610271232	10	3935
2026-01-10 12:03:16.38	147.66	17.60	-24.6	-25.6	16.8	0.00e+00	0	41	0	616562688	10	4003
2026-01-10 12:03:17.38	147.63	17.72	-24.7	-25.8	16.7	0.00e+00	0	41	0	621805568	10	4054
2026-01-10 12:03:18.39	147.60	17.84	-24.5	-25.3	17.0	0.00e+00	0	41	0	627048448	10	3940
2026-01-10 12:03:19.38	147.57	17.96	-24.5	-25.2	17.0	0.00e+00	0	41	0	633339904	10	3920
2026-01-10 12:03:20.39	147.54	18.08	-24.5	-25.2	17.1	0.00e+00	0	41	0	638582784	10	3910
2026-01-10 12:03:21.40	147.51	18.20	-24.4	-25.0	17.1	0.00e+00	0	41	0	644874240	10	3868
2026-01-10 12:03:22.40	147.48	18.33	-24.4	-25.1	17.1	0.00e+00	0	41	0	650117120	10	3889
2026-01-10 12:03:23.40	147.45	18.45	-24.4	-25.1	17.1	0.00e+00	0	41	0	655360000	10	3903
2026-01-10 12:03:24.41	147.42	18.57	-24.3	-24.9	17.2	0.00e+00	0	41	0	661651456	10	3850
2026-01-10 12:03:25.41	147.39	18.70	-24.4	-25.0	17.2	0.00e+00	0	41	0	666894336	10	3875
2026-01-10 12:03:26.42	147.36	18.82	-24.5	-25.2	17.1	0.00e+00	0	42	0	673185792	10	3923
2026-01-10 12:03:27.42	147.32	18.95	-24.3	-24.9	17.2	0.00e+00	0	42	0	678428672	10	3853
2026-01-10 12:03:28.43	147.29	19.07	-24.4	-25.2	17.1	0.00e+00	0	42	0	683671552	10	3910
2026-01-10 12:03:29.43	147.26	19.20	-24.5	-25.3	17.0	0.00e+00	0	41	0	689963008	10	3944
2026-01-10 12:03:30.44	147.23	19.33	-24.4	-25.0	17.2	0.00e+00	0	41	0	695205888	10	3873
2026-01-10 12:03:31.44	147.19	19.45	-24.2	-25.1	17.4	0.00e+00	0	41	0	700448768	9	4003
2026-01-10 12:03:32.45	147.16	19.58	-24.3	-25.4	17.2	0.00e+00	0	42	0	706740224	9	4085
2026-01-10 12:03:33.46	147.12	19.71	-24.3	-25.3	17.3	0.00e+00	0	42	0	711983104	9	4053
2026-01-10 12:03:34.46	147.09	19.84	-24.4	-25.5	17.3	0.00e+00	0	41	0	718274560	9	4087
2026-01-10 12:03:35.47	147.06	19.97	-24.4	-25.5	17.3	0.00e+00	0	41	0	723517440	9	4099
2026-01-10 12:03:36.48	147.02	20.10	-24.3	-25.3	17.3	0.00e+00	0	42	0	729808896	9	4053
2026-01-10 12:03:37.48	146.99	20.23	-24.3	-25.4	17.3	0.00e+00	0	42	0	735051776	9	4063
2026-01-10 12:03:38.49	146.95	20.37	-24.3	-25.3	17.4	0.00e+00	0	42	0	740294656	9	4040
2026-01-10 12:03:39.50	146.91	20.50	-24.4	-25.4	17.3	0.00e+00	0	41	0	746586112	9	4079
2026-01-10 12:03:40.51	146.88	20.64	-24.3	-25.4	17.3	0.00e+00	0	42	0	751828992	9	4074
2026-01-10 12:03:41.51	146.84	20.77	-24.2	-25.1	17.5	0.00e+00	0	42	0	757071872	9	3998
2026-01-10 12:03:42.52	146.81	20.91	-24.2	-25.0	17.5	0.00e+00	0	41	0	763363328	9	3974
2026-01-10 12:03:43.53	146.77	21.04	-24.2	-25.1	17.5	0.00e+00	0	42	0	768606208	9	4004
2026-01-10 12:03:44.54	146.73	21.18	-24.2	-25.2	17.4	0.00e+00	0	41	0	774897664	9	4015
2026-01-10 12:03:45.55	146.69	21.32	-24.1	-24.9	17.6	0.00e+00	0	41	0	780140544	9	3957
2026-01-10 12:03:46.55	146.65	21.46	-24.1	-24.8	17.7	0.00e+00	0	42	0	785383424	9	3922
2026-01-10 12:03:47.56	146.62	21.60	-24.1	-24.9	17.6	0.00e+00	0	42	0	791674880	9	3956
2026-01-10 12:03:48.56	146.58	21.73	-24.1	-24.9	17.6	0.00e+00	0	42	0	796917760	9	3950
2026-01-10 12:03:49.57	146.54	21.88	-23.8	-24.4	17.9	0.00e+00	0	42	0	803209216	9	3821
2026-01-10 12:03:50.58	146.50	22.02	-23.9	-24.4	17.9	0.00e+00	0	42	0	808452096	9	3840
2026-01-10 12:03:51.59	146.46	22.16	-24.0	-24.7	17.8	1.10e-06	0	41	0	814743552	9	3905
2026-01-10 12:03:52.59	146.42	22.30	-23.9	-24.4	17.9	0.00e+00	0	42	0	819986432	9	3840
2026-01-10 12:03:53.60	146.38	22.45	-23.8	-24.7	18.0	0.00e+00	0	42	0	825229312	8	4001
2026-01-10 12:03:54.61	146.33	22.59	-23.7	-24.5	18.2	0.00e+00	0	42	0	831520768	8	3951
2026-01-10 12:03:55.61	146.29	22.74	-23.5	-24.1	18.4	0.00e+00	0	42	0	836763648	8	3853
2026-01-10 12:03:56.62	146.25	22.88	-23.4	-23.8	18.5	0.00e+00	0	42	0	842006528	8	3801
2026-01-10 12:03:57.63	146.21	23.03	-23.4	-23.9	18.5	0.00e+00	0	42	0	848297984	8	3807
2026-01-10 12:03:58.63	146.16	23.18	-23.4	-23.9	18.5	0.00e+00	0	42	0	853540864	8	3819
2026-01-10 12:03:59.64	146.12	23.33	-23.2	-24.0	18.6	0.00e+00	0	42	0	859832320	7	3945
2026-01-10 12:04:00.64	146.08	23.48	-23.3	-24.1	18.6	1.10e-06	0	42	0	865075200	7	3959
2026-01-10 12:04:01.65	146.03	23.63	-23.4	-24.5	18.5	0.00e+00	0	42	0	870318080	7	4052
2026-01-10 12:04:02.65	145.99	23.78	-23.5	-24.6	18.4	0.00e+00	0	42	0	876609536	7	4078
2026-01-10 12:04:03.66	145.94	23.93	-23.3	-24.2	18.6	0.00e+00	0	42	0	881852416	7	3980
2026-01-10 12:04:04.66	145.90	24.08	-23.3	-24.1	18.7	0.00e+00	0	42	0	888143872	7	3959
2026-01-10 12:04:05.67	145.85	24.24	-23.3	-24.1	18.6	0.00e+00	0	42	0	893386752	7	3973
2026-01-10 12:04:06.67	145.80	24.39	-23.5	-24.5	18.4	2.20e-06	0	42	0	899678208	7	4066
2026-01-10 12:04:07.68	145.76	24.55	-23.4	-24.4	18.4	0.00e+00	0	42	0	904921088	7	4047
2026-01-10 12:04:08.69	145.71	24.70	-23.5	-24.6	18.4	0.00e+00	0	42	0	910163968	7	4080
2026-01-10 12:04:09.70	145.66	24.86	-23.5	-24.6	18.4	0.00e+00	0	42	0	916455424	7	4076
2026-01-10 12:04:10.70	145.61	25.02	-23.5	-24.7	18.3	0.00e+00	0	42	0	921698304	7	4115
2026-01-10 12:04:11.70	145.56	25.18	-23.5	-24.7	18.4	0.00e+00	0	42	0	926941184	7	4111
2026-01-10 12:04:12.71	145.51	25.34	-23.4	-24.3	18.6	0.00e+00	0	42	0	933232640	7	4020
2026-01-10 12:04:13.72	145.46	25.50	-23.5	-24.7	18.4	0.00e+00	0	42	0	938475520	7	4107
2026-01-10 12:04:14.72	145.41	25.66	-23.4	-24.3	18.6	0.00e+00	0	42	0	944766976	7	4014
2026-01-10 12:04:15.73	145.36	25.82	-23.2	-23.9	18.8	0.00e+00	0	42	0	950009856	7	3907
2026-01-10 12:04:16.73	145.31	25.99	-23.1	-23.8	18.9	0.00e+00	0	42	0	955252736	7	3879
2026-01-10 12:04:17.73	145.26	26.15	-23.1	-23.7	18.9	0.00e+00	0	42	0	961544192	7	3871
2026-01-10 12:04:18.74	145.20	26.32	-23.2	-24.0	18.8	0.00e+00	0	42	0	966787072	7	3938
2026-01-10 12:04:19.74	145.15	26.48	-23.2	-24.0	18.8	0.00e+00	0	42	0	973078528	7	3935
2026-01-10 12:04:20.74	145.10	26.65	-23.2	-23.9	18.8	0.00e+00	0	42	0	978321408	7	3926
2026-01-10 12:04:21.75	145.04	26.82	-23.3	-24.2	18.7	0.00e+00	0	42	0	983564288	7	3977
2026-01-10 12:04:22.76	144.98	26.99	-23.3	-24.1	18.7	0.00e+00	0	42	0	989855744	7	3972
2026-01-10 12:04:23.77	144.93	27.16	-23.2	-23.9	18.8	0.00e+00	0	42	0	995098624	7	3923
2026-01-10 12:04:24.77	144.87	27.33	-23.2	-24.0	18.8	0.00e+00	0	42	0	1001390080	7	3926
2026-01-10 12:04:25.78	144.81	27.51	-23.1	-23.8	18.9	0.00e+00	0	42	0	1006632960	7	3898
2026-01-10 12:04:26.79	144.76	27.68	-23.2	-24.0	18.8	0.00e+00	0	42	0	1011875840	7	3945
2026-01-10 12:04:27.79	144.70	27.86	-23.1	-23.6	19.0	0.00e+00	0	42	0	1018167296	7	3852
2026-01-10 12:04:28.79	144.64	28.03	-22.9	-23.3	19.2	0.00e+00	0	42	0	1023410176	7	3775
2026-01-10 12:04:29.79	144.58	28.21	-22.8	-23.0	19.3	0.00e+00	0	42	0	1028653056	7	3713
2026-01-10 12:04:30.80	144.52	28.39	-22.8	-23.6	19.3	0.00e+00	0	42	0	1034944512	6	3959
2026-01-10 12:04:31.81	144.45	28.57	-22.8	-23.7	19.2	0.00e+00	0	42	0	1040187392	6	3968
2026-01-10 12:04:32.82	144.39	28.75	-23.0	-23.9	19.1	0.00e+00	0	42	0	1046478848	6	4033
2026-01-10 12:04:33.82	144.33	28.93	-23.0	-24.1	19.0	0.00e+00	0	42	0	1051721728	6	4070
2026-01-10 12:04:34.83	144.27	29.11	-23.2	-24.5	18.8	0.00e+00	0	42	0	1058013184	6	4179
2026-01-10 12:04:35.83	144.20	29.30	-23.2	-24.5	18.8	0.00e+00	0	42	0	1063256064	6	4172
2026-01-10 12:04:36.84	144.14	29.48	-23.2	-24.4	18.9	0.00e+00	0	42	0	1068498944	6	4148
2026-01-10 12:04:37.85	144.07	29.67	-23.2	-24.5	18.8	0.00e+00	0	42	0	1074790400	6	4164
2026-01-10 12:04:38.86	144.00	29.86	-23.1	-24.3	18.9	0.00e+00	0	42	0	1080033280	6	4132
2026-01-10 12:04:39.86	143.93	30.05	-23.2	-24.4	18.9	0.00e+00	0	42	0	1085276160	6	4151
2026-01-10 12:04:40.87	143.87	30.24	-23.0	-24.1	19.1	0.00e+00	0	42	0	1091567616	6	4063
2026-01-10 12:04:41.88	143.80	30.43	-22.9	-23.9	19.2	0.00e+00	0	42	0	1096810496	6	4020
2026-01-10 12:04:42.88	143.73	30.62	-23.0	-24.1	19.1	0.00e+00	0	42	0	1103101952	6	4062
2026-01-10 12:04:43.89	143.65	30.82	-22.8	-23.7	19.3	0.00e+00	0	42	0	1108344832	6	3975
2026-01-10 12:04:44.89	143.58	31.01	-22.9	-23.8	19.3	0.00e+00	0	42	0	1113587712	6	4003
2026-01-10 12:04:45.90	143.51	31.21	-22.8	-23.6	19.3	0.00e+00	0	42	0	1119879168	6	3951
2026-01-10 12:04:46.91	143.43	31.41	-22.8	-23.6	19.4	0.00e+00	0	42	0	1125122048	6	3946
2026-01-10 12:04:47.91	143.36	31.60	-22.7	-23.4	19.4	0.00e+00	0	42	0	1131413504	6	3903
2026-01-10 12:04:48.92	143.28	31.80	-22.7	-23.4	19.4	0.00e+00	0	42	0	1136656384	6	3903
2026-01-10 12:04:49.93	143.21	32.01	-22.8	-23.6	19.3	0.00e+00	0	42	0	1142947840	6	3957
2026-01-10 12:04:50.93	143.13	32.21	-22.6	-23.2	19.6	0.00e+00	0	42	0	1148190720	6	3856
2026-01-10 12:04:51.93	143.05	32.41	-22.5	-23.0	19.7	0.00e+00	0	42	0	1153433600	6	3815
2026-01-10 12:04:52.94	142.97	32.62	-22.4	-22.9	19.7	0.00e+00	0	42	0	1159725056	6	3780
2026-01-10 12:04:53.94	142.89	32.82	-22.6	-23.2	19.5	0.00e+00	0	42	0	1164967936	6	3866
2026-01-10 12:04:54.95	142.81	33.03	-22.5	-23.1	19.6	0.00e+00	0	42	0	1170210816	6	3828
2026-01-10 12:04:55.96	142.72	33.24	-22.7	-23.4	19.5	0.00e+00	0	42	0	1176502272	6	3915
2026-01-10 12:04:56.96	142.64	33.45	-22.6	-23.2	19.6	0.00e+00	0	42	0	1181745152	6	3863
2026-01-10 12:04:57.97	142.56	33.67	-22.7	-23.5	19.4	0.00e+00	0	42	0	1186988032	6	3933
2026-01-10 12:04:58.98	142.47	33.88	-22.7	-23.5	19.4	0.00e+00	0	42	0	1193279488	6	3924
2026-01-10 12:04:59.99	142.38	34.10	-22.8	-23.6	19.4	0.00e+00	0	42	0	1198522368	6	3958
2026-01-10 12:05:00.98	142.29	34.31	-22.8	-23.6	19.4	0.00e+00	0	42	0	1204813824	6	3958
2026-01-10 12:05:01.98	142.20	34.53	-22.8	-23.7	19.4	0.00e+00	0	42	0	1210056704	6	3973
2026-01-10 12:05:02.99	142.11	34.75	-22.6	-23.2	19.6	0.00e+00	0	42	0	1216348160	6	3866
2026-01-10 12:05:04.00	142.02	34.97	-22.6	-23.1	19.6	0.00e+00	0	42	0	1221591040	6	3833
2026-01-10 12:05:05.00	141.92	35.19	-22.5	-23.0	19.7	0.00e+00	0	42	0	1226833920	6	3817
2026-01-10 12:05:06.01	141.83	35.41	-22.7	-23.3	19.6	0.00e+00	0	42	0	1233125376	6	3885
2026-01-10 12:05:07.01	141.73	35.64	-22.4	-22.8	19.8	0.00e+00	0	42	0	1238368256	6	3766
2026-01-10 12:05:08.01	141.63	35.86	-22.4	-22.9	19.8	0.00e+00	0	42	0	1243611136	6	3778
2026-01-10 12:05:09.02	141.53	36.09	-22.7	-23.5	19.5	0.00e+00	0	42	0	1249902592	6	3923
2026-01-10 12:05:10.03	141.43	36.32	-22.6	-23.1	19.7	0.00e+00	0	42	0	1255145472	6	3843
2026-01-10 12:05:11.04	141.33	36.56	-22.6	-23.1	19.7	0.00e+00	0	42	0	1261436928	6	3836
2026-01-10 12:05:12.04	141.23	36.79	-22.8	-23.5	19.5	0.00e+00	0	42	0	1266679808	6	3935
2026-01-10 12:05:13.05	141.12	37.02	-22.7	-23.5	19.5	0.00e+00	0	42	0	1271922688	6	3921
2026-01-10 12:05:14.05	141.01	37.26	-23.0	-24.0	19.2	0.00e+00	0	42	0	1278214144	6	4044
2026-01-10 12:05:15.06	140.91	37.50	-22.8	-23.6	19.4	0.00e+00	0	42	0	1283457024	6	3960
2026-01-10 12:05:16.07	140.79	37.74	-22.6	-23.2	19.6	0.00e+00	0	42	0	1289748480	6	3859
2026-01-10 12:05:17.07	140.68	37.98	-22.6	-23.1	19.7	0.00e+00	0	42	0	1294991360	6	3840
2026-01-10 12:05:18.08	140.57	38.22	-22.6	-23.2	19.6	0.00e+00	0	42	0	1301282816	6	3866
2026-01-10 12:05:19.08	140.45	38.46	-22.5	-23.0	19.7	0.00e+00	0	42	0	1306525696	6	3806
2026-01-10 12:05:20.09	140.34	38.71	-22.5	-22.9	19.8	0.00e+00	0	42	0	1311768576	6	3779
2026-01-10 12:05:21.09	140.22	38.95	-22.7	-23.3	19.6	0.00e+00	0	42	0	1318060032	6	3874
2026-01-10 12:05:22.09	140.10	39.20	-22.7	-23.5	19.5	0.00e+00	0	42	0	1323302912	6	3911
2026-01-10 12:05:23.10	139.97	39.45	-22.9	-23.9	19.3	0.00e+00	0	42	0	1328545792	6	4010
2026-01-10 12:05:24.10	139.85	39.70	-23.0	-24.0	19.3	0.00e+00	0	42	0	1334837248	6	4035
2026-01-10 12:05:25.10	139.72	39.96	-23.0	-24.1	19.2	0.00e+00	0	42	0	1340080128	6	4068
2026-01-10 12:05:26.11	139.59	40.21	-22.9	-23.7	19.4	0.00e+00	0	42	0	1346371584	6	3977
2026-01-10 12:05:27.12	139.46	40.47	-22.9	-23.7	19.4	2.20e-06	0	42	0	1351614464	6	3977
2026-01-10 12:05:28.13	139.33	40.73	-23.0	-24.1	19.2	0.00e+00	0	42	0	1356857344	6	4063
2026-01-10 12:05:29.13	139.19	40.99	-23.0	-23.9	19.3	0.00e+00	0	42	0	1363148800	6	4026
2026-01-10 12:05:30.14	139.06	41.25	-23.1	-24.2	19.2	0.00e+00	0	42	0	1368391680	6	4078
2026-01-10 12:05:31.15	138.92	41.52	-23.0	-24.0	19.3	0.00e+00	0	42	0	1374683136	6	4045
2026-01-10 12:05:32.16	138.77	41.79	-23.0	-23.9	19.3	0.00e+00	0	42	0	1379926016	6	4020
2026-01-10 12:05:33.16	138.63	42.05	-23.0	-24.0	19.3	1.10e-06	0	42	0	1385168896	6	4037
2026-01-10 12:05:34.17	138.48	42.32	-22.6	-23.2	19.7	0.00e+00	0	42	0	1391460352	6	3856
2026-01-10 12:05:35.17	138.33	42.59	-22.5	-22.9	19.8	0.00e+00	0	42	0	1396703232	6	3780
2026-01-10 12:05:36.18	138.18	42.87	-22.6	-23.1	19.7	0.00e+00	0	42	0	1402994688	6	3835
2026-01-10 12:05:37.18	138.03	43.14	-22.5	-22.9	19.9	0.00e+00	0	42	0	1408237568	6	3780
2026-01-10 12:05:38.18	137.87	43.41	-22.4	-22.8	19.9	0.00e+00	0	42	0	1413480448	6	3760
2026-01-10 12:05:39.19	137.71	43.69	-22.4	-22.8	19.9	0.00e+00	0	42	0	1419771904	6	3763
2026-01-10 12:05:40.20	137.54	43.97	-22.5	-23.0	19.8	0.00e+00	0	42	0	1425014784	6	3798
2026-01-10 12:05:41.21	137.38	44.26	-22.7	-23.4	19.6	0.00e+00	0	42	0	1431306240	6	3901
2026-01-10 12:05:42.21	137.21	44.54	-22.8	-23.5	19.6	0.00e+00	0	42	0	1436549120	6	3927
2026-01-10 12:05:43.22	137.03	44.82	-22.8	-23.7	19.5	0.00e+00	0	42	0	1441792000	6	3962
2026-01-10 12:05:44.22	136.86	45.11	-22.9	-23.7	19.5	0.00e+00	0	42	0	1448083456	6	3976
2026-01-10 12:05:45.23	136.68	45.40	-22.9	-23.7	19.5	0.00e+00	0	42	0	1453326336	6	3970
2026-01-10 12:05:46.24	136.50	45.69	-22.9	-23.7	19.5	0.00e+00	0	42	0	1459617792	6	3979
2026-01-10 12:05:47.24	136.31	45.98	-22.7	-23.3	19.7	0.00e+00	0	42	0	1464860672	6	3879
2026-01-10 12:05:48.25	136.12	46.28	-22.7	-23.3	19.7	0.00e+00	0	42	0	1470103552	6	3882
2026-01-10 12:05:49.25	135.93	46.57	-22.7	-23.5	19.6	0.00e+00	0	42	0	1476395008	6	3911
2026-01-10 12:05:50.26	135.73	46.87	-22.7	-23.4	19.7	0.00e+00	0	42	0	1481637888	6	3906
2026-01-10 12:05:51.26	135.53	47.17	-22.9	-23.7	19.5	0.00e+00	0	42	0	1486880768	6	3972
2026-01-10 12:05:52.27	135.33	47.47	-23.0	-24.1	19.3	0.00e+00	0	42	0	1493172224	6	4058
2026-01-10 12:05:53.28	135.12	47.77	-23.3	-24.6	19.1	0.00e+00	0	42	0	1498415104	6	4198
2026-01-10 12:05:54.28	134.91	48.07	-23.2	-24.4	19.2	0.00e+00	0	42	0	1504706560	6	4142
2026-01-10 12:05:55.29	134.69	48.38	-23.4	-24.8	19.0	0.00e+00	0	42	0	1509949440	6	4237
2026-01-10 12:05:56.30	134.47	48.69	-23.9	-25.4	18.5	0.00e+00	0	42	0	1516240896	7	4281
2026-01-10 12:05:57.31	134.24	49.00	-24.0	-25.1	18.4	0.00e+00	0	42	0	1521483776	8	4079
2026-01-10 12:05:58.32	134.01	49.31	-23.9	-24.8	18.5	0.00e+00	0	42	0	1526726656	8	4018
2026-01-10 12:05:59.33	133.77	49.63	-23.9	-24.8	18.6	0.00e+00	0	42	0	1533018112	8	4010
2026-01-10 12:06:00.34	133.53	49.94	-23.9	-24.9	18.6	0.00e+00	0	42	0	1538260992	8	4021
2026-01-10 12:06:01.34	133.29	50.26	-24.0	-25.0	18.5	0.00e+00	0	42	0	1544552448	8	4059
2026-01-10 12:06:02.35	133.04	50.57	-24.0	-25.0	18.5	0.00e+00	0	42	0	1549795328	8	4061
2026-01-10 12:06:03.36	132.78	50.90	-24.5	-26.1	17.9	0.00e+00	0	42	0	1555038208	8	4342
2026-01-10 12:06:04.36	132.52	51.21	-24.8	-26.3	17.5	0.00e+00	0	42	0	1561329664	9	4287
2026-01-10 12:06:05.37	132.25	51.54	-25.1	-26.4	17.3	0.00e+00	0	42	0	1566572544	10	4196
2026-01-10 12:06:06.38	131.98	51.86	-24.2	-25.0	18.2	0.00e+00	0	42	0	1572864000	9	3950
2026-01-10 12:06:07.38	131.70	52.19	-23.6	-24.2	18.9	0.00e+00	0	42	0	1578106880	8	3860
2026-01-10 12:06:08.38	131.41	52.51	-23.5	-24.1	19.0	0.00e+00	0	42	0	1583349760	8	3837
2026-01-10 12:06:09.39	131.12	52.84	-23.6	-24.3	18.9	0.00e+00	0	42	0	1589641216	8	3884
2026-01-10 12:06:10.39	130.82	53.17	-23.8	-24.7	18.7	0.00e+00	0	42	0	1594884096	8	3969
2026-01-10 12:06:11.40	130.52	53.50	-23.9	-24.8	18.6	0.00e+00	0	42	0	1601175552	8	4016
2026-01-10 12:06:12.41	130.20	53.83	-23.5	-23.9	19.1	0.00e+00	0	42	0	1606418432	8	3797
2026-01-10 12:06:13.42	129.88	54.17	-23.2	-23.9	19.3	0.00e+00	0	42	0	1611661312	7	3899
2026-01-10 12:06:14.42	129.56	54.50	-23.4	-24.3	19.1	0.00e+00	0	42	0	1617952768	7	4001
2026-01-10 12:06:15.42	129.22	54.83	-23.9	-25.3	18.5	0.00e+00	0	42	0	1623195648	7	4260
2026-01-10 12:06:16.43	128.88	55.17	-23.8	-25.2	18.6	0.00e+00	0	42	0	1629487104	7	4213
2026-01-10 12:06:17.44	128.52	55.51	-23.7	-24.9	18.7	0.00e+00	0	42	0	1634729984	7	4163
2026-01-10 12:06:18.44	128.16	55.85	-23.5	-24.6	18.9	0.00e+00	0	42	0	1639972864	7	4069
2026-01-10 12:06:19.45	127.79	56.19	-23.6	-24.8	18.8	0.00e+00	0	42	0	1646264320	7	4122
2026-01-10 12:06:20.46	127.41	56.53	-23.8	-25.1	18.7	0.00e+00	0	42	0	1651507200	7	4195
2026-01-10 12:06:21.46	127.03	56.87	-23.9	-25.4	18.5	0.00e+00	0	42	0	1656750080	7	4283
2026-01-10 12:06:22.47	126.63	57.22	-23.5	-24.6	18.9	0.00e+00	0	42	0	1663041536	7	4070
2026-01-10 12:06:23.48	126.22	57.56	-22.9	-23.3	19.6	0.00e+00	0	42	0	1668284416	7	3764
2026-01-10 12:06:24.49	125.80	57.90	-23.3	-24.1	19.2	0.00e+00	0	42	0	1674575872	7	3959
2026-01-10 12:06:25.50	125.36	58.25	-23.9	-25.3	18.6	0.00e+00	0	42	0	1679818752	7	4259
2026-01-10 12:06:26.50	124.92	58.59	-24.2	-25.5	18.3	1.10e-06	0	42	0	1686110208	8	4191
2026-01-10 12:06:27.51	124.47	58.94	-24.2	-25.6	18.3	0.00e+00	0	42	0	1691353088	8	4207
2026-01-10 12:06:28.51	124.01	59.28	-23.9	-24.8	18.6	0.00e+00	0	42	0	1696595968	8	4013
2026-01-10 12:06:29.53	123.52	59.63	-23.8	-24.7	18.7	1.10e-06	0	42	0	1702887424	8	3971
2026-01-10 12:06:30.53	123.03	59.98	-24.2	-25.4	18.3	0.00e+00	0	42	0	1708130304	8	4161
2026-01-10 12:06:31.53	122.53	60.32	-23.9	-24.9	18.6	0.00e+00	0	42	0	1714421760	8	4037
2026-01-10 12:06:32.53	122.02	60.66	-23.5	-23.9	19.1	0.00e+00	0	42	0	1719664640	8	3807
2026-01-10 12:06:33.54	121.48	61.01	-23.4	-23.8	19.2	0.00e+00	0	42	0	1724907520	8	3763
2026-01-10 12:06:34.55	120.93	61.36	-23.2	-23.9	19.3	0.00e+00	0	42	0	1731198976	7	3893
2026-01-10 12:06:35.55	120.38	61.70	-22.9	-23.3	19.7	0.00e+00	0	42	0	1736441856	7	3749
2026-01-10 12:06:36.56	119.79	62.04	-22.8	-23.0	19.7	0.00e+00	0	42	0	1741684736	7	3702
2026-01-10 12:06:37.56	119.20	62.38	-22.5	-23.0	20.0	0.00e+00	0	42	0	1747976192	6	3793
2026-01-10 12:06:38.57	118.59	62.72	-22.6	-23.2	19.9	0.00e+00	0	42	0	1753219072	6	3835
2026-01-10 12:06:39.57	117.96	63.06	-22.6	-23.3	19.9	0.00e+00	0	42	0	1759510528	6	3859
2026-01-10 12:06:40.58	117.31	63.40	-22.9	-23.7	19.6	0.00e+00	0	42	0	1764753408	6	3972
2026-01-10 12:06:41.59	116.64	63.74	-22.6	-23.2	19.9	0.00e+00	0	42	0	1771044864	6	3841
2026-01-10 12:06:42.59	115.96	64.07	-22.5	-22.9	20.1	0.00e+00	0	42	0	1776287744	6	3778
2026-01-10 12:06:43.60	115.25	64.41	-22.6	-23.2	19.9	0.00e+00	0	42	0	1781530624	6	3862
2026-01-10 12:06:44.61	114.52	64.74	-22.5	-23.0	20.0	0.00e+00	0	42	0	1787822080	6	3798
2026-01-10 12:06:45.61	113.77	65.07	-22.1	-22.6	20.4	0.00e+00	0	42	0	1793064960	5	3817
2026-01-10 12:06:46.62	113.00	65.40	-22.4	-23.3	20.1	0.00e+00	0	42	0	1799356416	5	3991
2026-01-10 12:06:47.62	112.21	65.72	-22.4	-23.2	20.1	0.00e+00	0	42	0	1804599296	5	3964
2026-01-10 12:06:48.63	111.39	66.04	-21.8	-22.0	20.7	0.00e+00	0	42	0	1809842176	5	3683
2026-01-10 12:06:49.63	110.55	66.36	-21.7	-22.3	20.8	0.00e+00	0	42	0	1816133632	4	3855
2026-01-10 12:06:50.63	109.69	66.67	-21.8	-22.6	20.7	0.00e+00	0	42	0	1821376512	4	3926
2026-01-10 12:06:51.64	108.79	66.98	-21.6	-22.2	20.9	0.00e+00	0	42	0	1826619392	4	3826
2026-01-10 12:06:52.63	107.88	67.28	-21.3	-21.5	21.2	0.00e+00	0	42	0	1832910848	4	3679
2026-01-10 12:06:53.64	106.93	67.58	-21.7	-22.3	20.8	0.00e+00	0	42	0	1838153728	4	3844
2026-01-10 12:06:54.65	105.95	67.88	-21.9	-22.7	20.6	0.00e+00	0	42	0	1844445184	4	3941
2026-01-10 12:06:55.65	104.95	68.17	-21.7	-22.3	20.8	0.00e+00	0	42	0	1849688064	4	3861
2026-01-10 12:06:56.66	103.92	68.46	-21.6	-22.1	20.9	0.00e+00	0	42	0	1854930944	4	3812
2026-01-10 12:06:57.67	102.85	68.74	-21.8	-22.4	20.7	0.00e+00	0	42	0	1861222400	4	3882
2026-01-10 12:06:58.67	101.76	69.01	-21.6	-22.0	20.9	0.00e+00	0	42	0	1866465280	4	3790
2026-01-10 12:06:59.68	100.63	69.28	-21.3	-21.5	21.2	0.00e+00	0	42	0	1872756736	4	3669
2026-01-10 12:07:00.69	99.47	69.54	-21.8	-22.5	20.7	0.00e+00	0	42	0	1877999616	4	3914
2026-01-10 12:07:01.70	98.28	69.79	-21.8	-22.4	20.8	0.00e+00	0	42	0	1883242496	4	3886
2026-01-10 12:07:02.70	97.07	70.04	-21.7	-22.4	20.8	0.00e+00	0	42	0	1889533952	4	3875
2026-01-10 12:07:03.71	95.81	70.28	-21.7	-22.3	20.8	0.00e+00	0	42	0	1894776832	4	3852
2026-01-10 12:07:04.71	94.53	70.50	-21.6	-22.1	20.9	0.00e+00	0	42	0	1900019712	4	3812
2026-01-10 12:07:05.72	93.21	70.72	-21.8	-22.4	20.8	0.00e+00	0	42	0	1906311168	4	3876
2026-01-10 12:07:06.73	91.86	70.93	-21.7	-22.2	20.8	0.00e+00	0	42	0	1911554048	4	3843
2026-01-10 12:07:07.74	90.48	71.14	-21.6	-22.0	20.9	0.00e+00	0	42	0	1917845504	4	3796
2026-01-10 12:07:08.74	89.08	71.33	-22.0	-22.9	20.5	0.00e+00	0	42	0	1923088384	4	3985
2026-01-10 12:07:09.75	87.63	71.51	-22.3	-23.5	20.2	0.00e+00	0	42	0	1929379840	4	4151
2026-01-10 12:07:10.75	86.17	71.67	-22.2	-23.3	20.3	0.00e+00	0	42	0	1934622720	4	4098
2026-01-10 12:07:11.76	84.67	71.83	-22.1	-23.1	20.4	0.00e+00	0	42	0	1939865600	4	4048
2026-01-10 12:07:12.77	83.14	71.98	-21.9	-22.8	20.6	0.00e+00	0	42	0	1946157056	4	3973
2026-01-10 12:07:13.77	81.60	72.11	-21.9	-22.6	20.8	0.00e+00	0	42	0	1951399936	4	3925
2026-01-10 12:07:14.77	80.04	72.23	-21.8	-22.4	20.9	0.00e+00	0	42	0	1957691392	4	3878
2026-01-10 12:07:15.78	78.44	72.34	-21.8	-22.5	20.9	0.00e+00	0	42	0	1962934272	4	3882
2026-01-10 12:07:16.79	76.82	72.44	-22.0	-22.9	20.7	0.00e+00	0	42	0	1968177152	4	3992
2026-01-10 12:07:17.79	75.20	72.52	-21.8	-22.4	21.0	0.00e+00	0	42	0	1974468608	4	3877
2026-01-10 12:07:18.81	73.54	72.59	-21.8	-22.4	21.0	0.00e+00	0	42	0	1979711488	4	3854
2026-01-10 12:07:19.82	71.87	72.64	-21.8	-22.5	20.9	0.00e+00	0	42	0	1984954368	4	3880
2026-01-10 12:07:20.82	70.22	72.68	-22.3	-23.4	20.5	0.00e+00	0	42	0	1991245824	4	4107
2026-01-10 12:07:21.83	68.54	72.71	-22.1	-23.1	20.6	0.00e+00	0	42	0	1996488704	4	4022
2026-01-10 12:07:22.83	66.87	72.72	-21.9	-22.5	20.9	0.00e+00	0	42	0	2002780160	4	3901
2026-01-10 12:07:23.84	65.18	72.72	-21.7	-22.2	21.1	0.00e+00	0	42	0	2008023040	4	3812
2026-01-10 12:07:24.85	63.50	72.70	-21.9	-22.6	20.9	0.00e+00	0	42	0	2014314496	4	3920
2026-01-10 12:07:25.85	61.84	72.67	-21.9	-22.6	20.9	0.00e+00	0	42	0	2019557376	4	3906
2026-01-10 12:07:26.86	60.17	72.63	-21.6	-21.9	21.2	0.00e+00	0	42	0	2024800256	4	3754
2026-01-10 12:07:27.86	58.53	72.57	-21.6	-22.1	21.1	0.00e+00	0	42	0	2031091712	4	3800
2026-01-10 12:07:28.87	56.88	72.50	-21.5	-21.9	21.2	0.00e+00	0	42	0	2036334592	4	3751
2026-01-10 12:07:29.88	55.25	72.41	-21.9	-22.7	20.8	0.00e+00	0	42	0	2042626048	4	3929
2026-01-10 12:07:30.88	53.65	72.32	-21.7	-22.2	21.1	0.00e+00	0	42	0	2047868928	4	3820
2026-01-10 12:07:31.90	52.04	72.20	-21.4	-21.7	21.3	0.00e+00	0	42	0	2053111808	4	3703
2026-01-10 12:07:32.90	50.48	72.08	-21.4	-21.6	21.3	0.00e+00	0	42	0	2059403264	4	3691
2026-01-10 12:07:33.91	48.94	71.94	-21.4	-21.6	21.3	0.00e+00	0	42	0	2064646144	4	3688
2026-01-10 12:07:34.92	47.41	71.79	-21.5	-21.8	21.3	0.00e+00	0	42	0	2069889024	4	3731
2026-01-10 12:07:35.93	45.92	71.63	-21.4	-21.7	21.3	0.00e+00	0	42	0	2076180480	4	3706
2026-01-10 12:07:36.93	44.47	71.46	-21.5	-21.7	21.3	0.00e+00	0	42	0	2081423360	4	3708
2026-01-10 12:07:37.93	43.05	71.28	-22.0	-22.8	20.8	0.00e+00	0	42	0	2087714816	4	3962
2026-01-10 12:07:38.94	41.64	71.09	-21.8	-22.4	21.0	0.00e+00	0	42	0	2092957696	4	3860
2026-01-10 12:07:39.94	40.28	70.89	-21.8	-22.3	21.0	0.00e+00	0	42	0	2099249152	4	3855
2026-01-10 12:07:40.94	38.95	70.68	-22.0	-22.8	20.8	0.00e+00	0	42	0	2104492032	4	3952
2026-01-10 12:07:41.95	37.63	70.45	-21.6	-22.0	21.2	0.00e+00	0	42	0	2109734912	4	3769
2026-01-10 12:07:42.95	36.37	70.23	-21.8	-22.3	21.0	0.00e+00	0	42	0	2116026368	4	3844
2026-01-10 12:07:43.96	35.12	69.99	-21.8	-22.4	21.0	0.00e+00	0	42	0	2121269248	4	3856
2026-01-10 12:07:44.97	33.90	69.74	-22.1	-23.0	20.7	0.00e+00	0	42	0	2126512128	4	4004
2026-01-10 12:07:45.98	32.72	69.48	-21.8	-22.5	20.9	0.00e+00	0	42	0	2132803584	4	3883
2026-01-10 12:07:46.98	31.58	69.22	-21.5	-21.8	21.3	0.00e+00	0	42	0	2138046464	4	3731
2026-01-10 12:07:47.98	30.47	68.96	-21.3	-21.4	21.5	0.00e+00	0	42	0	2144337920	4	3638
2026-01-10 12:07:48.99	29.38	68.68	-21.6	-22.1	21.1	0.00e+00	0	42	0	2149580800	4	3805
2026-01-10 12:07:50.00	28.32	68.40	-21.8	-22.4	21.0	0.00e+00	0	42	0	2154823680	4	3871
2026-01-10 12:07:51.01	27.29	68.11	-21.8	-22.3	21.0	0.00e+00	0	42	0	2161115136	4	3853
2026-01-10 12:07:52.02	26.29	67.82	-21.8	-22.5	21.0	0.00e+00	0	42	0	2166358016	4	3882
2026-01-10 12:07:53.02	25.32	67.52	-22.3	-23.5	20.5	0.00e+00	0	42	0	2172649472	4	4137
2026-01-10 12:07:54.02	24.39	67.22	-22.3	-23.5	20.4	0.00e+00	0	42	0	2177892352	4	4138
2026-01-10 12:07:55.02	23.48	66.92	-22.6	-23.6	20.2	0.00e+00	0	42	0	2184183808	5	4031
2026-01-10 12:07:56.03	22.59	66.61	-22.0	-22.3	20.8	0.00e+00	0	42	0	2189426688	5	3726
2026-01-10 12:07:57.04	21.72	66.29	-22.2	-22.7	20.6	0.00e+00	0	42	0	2194669568	5	3822
2026-01-10 12:07:58.04	20.89	65.98	-22.6	-23.5	20.2	0.00e+00	0	42	0	2200961024	5	4021
2026-01-10 12:07:59.05	20.08	65.65	-22.0	-22.4	20.7	1.10e-06	0	42	0	2206203904	5	3759
2026-01-10 12:08:00.05	19.29	65.33	-22.0	-22.3	20.8	0.00e+00	0	42	0	2211446784	5	3723
2026-01-10 12:08:01.06	18.53	65.00	-22.0	-22.4	20.7	0.00e+00	0	42	0	2217738240	5	3769
2026-01-10 12:08:02.07	17.78	64.67	-22.1	-22.5	20.7	0.00e+00	0	42	0	2222981120	5	3783
2026-01-10 12:08:03.07	17.06	64.34	-22.1	-22.6	20.6	0.00e+00	0	42	0	2229272576	5	3795
2026-01-10 12:08:04.08	16.36	64.01	-22.7	-23.8	20.0	0.00e+00	0	42	0	2234515456	5	4098
2026-01-10 12:08:05.09	15.67	63.67	-22.5	-23.5	20.2	0.00e+00	0	42	0	2239758336	5	4012
2026-01-10 12:08:06.10	15.01	63.33	-22.8	-24.1	19.9	0.00e+00	0	42	0	2246049792	5	4147
2026-01-10 12:08:07.11	14.36	63.00	-22.7	-23.8	20.0	0.00e+00	0	42	0	2251292672	5	4081
2026-01-10 12:08:08.11	13.74	62.66	-23.0	-23.9	19.8	0.00e+00	0	42	0	2257584128	6	3997
2026-01-10 12:08:09.11	13.14	62.32	-22.6	-23.1	20.2	0.00e+00	0	42	0	2262827008	6	3812
2026-01-10 12:08:10.11	12.55	61.98	-22.8	-23.4	20.0	0.00e+00	0	42	0	2268069888	6	3890
2026-01-10 12:08:11.12	11.97	61.64	-22.6	-23.0	20.2	0.00e+00	0	42	0	2274361344	6	3790
2026-01-10 12:08:12.13	11.41	61.29	-22.4	-22.6	20.4	0.00e+00	0	42	0	2279604224	6	3702
2026-01-10 12:08:13.13	10.87	60.95	-22.1	-22.6	20.6	0.00e+00	0	42	0	2285895680	5	3811
2026-01-10 12:08:14.14	10.34	60.60	-22.2	-22.7	20.6	0.00e+00	0	42	0	2291138560	5	3815
2026-01-10 12:08:15.15	9.83	60.26	-22.5	-23.4	20.3	0.00e+00	0	42	0	2296381440	5	3982
2026-01-10 12:08:16.16	9.32	59.91	-22.7	-23.8	20.0	0.00e+00	0	42	0	2302672896	5	4085
2026-01-10 12:08:17.17	8.84	59.57	-23.2	-24.4	19.5	0.00e+00	0	42	0	2307915776	6	4114
2026-01-10 12:08:18.18	8.36	59.22	-23.2	-24.4	19.5	0.00e+00	0	42	0	2314207232	6	4120
2026-01-10 12:08:19.18	7.90	58.88	-23.3	-24.6	19.4	0.00e+00	0	42	0	2319450112	6	4164
2026-01-10 12:08:20.18	7.45	58.54	-23.3	-24.6	19.4	0.00e+00	0	42	0	2324692992	6	4160
2026-01-10 12:08:21.19	7.01	58.19	-23.6	-24.7	19.1	0.00e+00	0	42	0	2330984448	7	4093
2026-01-10 12:08:22.20	6.59	57.85	-24.2	-25.4	18.5	0.00e+00	0	42	0	2336227328	8	4148
2026-01-10 12:08:23.21	6.17	57.50	-24.2	-25.5	18.4	0.00e+00	0	42	0	2342518784	8	4173
2026-01-10 12:08:24.21	5.76	57.16	-24.0	-25.0	18.7	0.00e+00	0	42	0	2347761664	8	4041
2026-01-10 12:08:25.22	5.37	56.82	-23.7	-24.3	19.1	0.00e+00	0	42	0	2354053120	8	3880
2026-01-10 12:08:26.23	4.98	56.48	-24.1	-25.1	18.7	0.00e+00	0	42	0	2359296000	8	4080
2026-01-10 12:08:27.24	4.60	56.14	-24.2	-25.4	18.5	0.00e+00	0	42	0	2364538880	8	4139
2026-01-10 12:08:28.24	4.24	55.80	-24.2	-25.4	18.5	0.00e+00	0	42	0	2370830336	8	4142
2026-01-10 12:08:29.25	3.88	55.46	-24.5	-26.0	18.2	0.00e+00	0	42	0	2376073216	8	4283
2026-01-10 12:08:30.26	3.53	55.12	-24.0	-25.0	18.7	0.00e+00	0	42	0	2381316096	8	4027
2026-01-10 12:08:31.26	3.19	54.79	-23.8	-24.6	18.9	0.00e+00	0	42	0	2387607552	8	3943
2026-01-10 12:08:32.27	2.85	54.45	-23.8	-24.5	18.9	0.00e+00	0	42	0	2392850432	8	3928
2026-01-10 12:08:33.28	2.53	54.12	-23.6	-24.2	19.1	0.00e+00	0	42	0	2399141888	8	3864
2026-01-10 12:08:34.29	2.21	53.78	-23.5	-23.9	19.2	0.00e+00	0	42	0	2404384768	8	3791
2026-01-10 12:08:35.30	1.90	53.45	-23.5	-23.9	19.3	0.00e+00	0	42	0	2409627648	8	3778
2026-01-10 12:08:36.30	1.59	53.13	-23.5	-24.0	19.2	0.00e+00	0	42	0	2415919104	8	3815
2026-01-10 12:08:37.31	1.30	52.80	-23.2	-23.9	19.5	0.00e+00	0	42	0	2421161984	7	3878
2026-01-10 12:08:38.31	1.01	52.47	-23.1	-23.6	19.6	0.00e+00	0	42	0	2427453440	7	3809
2026-01-10 12:08:39.32	0.72	52.14	-23.2	-23.8	19.5	0.00e+00	0	42	0	2432696320	7	3873
2026-01-10 12:08:40.32	0.45	51.82	-23.6	-24.7	19.0	0.00e+00	0	42	0	2438987776	7	4078
2026-01-10 12:08:41.33	0.17	51.50	-23.4	-24.3	19.2	0.00e+00	0	42	0	2444230656	7	3995
2026-01-10 12:08:42.33	359.91	51.18	-23.3	-24.0	19.3	0.00e+00	0	42	0	2449473536	7	3924
2026-01-10 12:08:43.34	359.65	50.86	-23.2	-23.8	19.5	0.00e+00	0	42	0	2455764992	7	3870
2026-01-10 12:08:44.35	359.39	50.54	-23.3	-24.0	19.4	0.00e+00	0	42	0	2461007872	7	3917
2026-01-10 12:08:45.36	359.14	50.22	-23.3	-24.1	19.3	0.00e+00	0	42	0	2466250752	7	3932
2026-01-10 12:08:46.36	358.90	49.91	-23.4	-24.3	19.2	0.00e+00	0	42	0	2472542208	7	3978
2026-01-10 12:08:47.37	358.66	49.60	-23.0	-23.4	19.6	0.00e+00	0	42	0	2477785088	7	3778
2026-01-10 12:08:48.37	358.43	49.29	-22.6	-23.1	20.0	0.00e+00	0	42	0	2483027968	6	3811
2026-01-10 12:08:49.37	358.20	48.98	-22.6	-23.0	20.1	0.00e+00	0	42	0	2489319424	6	3788
2026-01-10 12:08:50.37	357.98	48.67	-22.6	-23.2	20.0	0.00e+00	0	42	0	2494562304	6	3825
2026-01-10 12:08:51.37	357.76	48.37	-22.7	-23.3	20.0	0.00e+00	0	42	0	2500853760	6	3857
2026-01-10 12:08:52.38	357.54	48.06	-22.7	-23.3	19.9	0.00e+00	0	42	0	2506096640	6	3859
2026-01-10 12:08:53.39	357.33	47.76	-22.6	-23.1	20.0	0.00e+00	0	42	0	2512388096	6	3815
2026-01-10 12:08:54.40	357.12	47.46	-22.6	-23.2	20.0	0.00e+00	0	42	0	2517630976	6	3822
2026-01-10 12:08:55.40	356.92	47.16	-22.7	-23.3	19.9	0.00e+00	0	42	0	2522873856	6	3865
2026-01-10 12:08:56.41	356.72	46.86	-23.0	-24.0	19.6	0.00e+00	0	42	0	2529165312	6	4019
2026-01-10 12:08:57.42	356.53	46.56	-23.1	-24.2	19.6	0.00e+00	0	42	0	2534408192	6	4072
2026-01-10 12:08:58.43	356.33	46.27	-23.1	-24.1	19.6	0.00e+00	0	42	0	2540699648	6	4050
2026-01-10 12:08:59.44	356.14	45.97	-22.9	-23.8	19.7	0.00e+00	0	42	0	2545942528	6	3971
2026-01-10 12:09:00.44	355.96	45.68	-23.0	-23.9	19.7	0.00e+00	0	42	0	2551185408	6	3991
2026-01-10 12:09:01.45	355.78	45.39	-23.1	-24.0	19.6	0.00e+00	0	42	0	2557476864	6	4032
2026-01-10 12:09:02.46	355.60	45.10	-23.2	-24.3	19.5	0.00e+00	0	42	0	2562719744	6	4096
2026-01-10 12:09:03.46	355.43	44.82	-23.0	-24.0	19.6	0.00e+00	0	42	0	2567962624	6	4032
2026-01-10 12:09:04.47	355.25	44.54	-23.1	-24.1	19.6	0.00e+00	0	42	0	2574254080	6	4048
2026-01-10 12:09:05.48	355.09	44.25	-23.2	-24.4	19.4	0.00e+00	0	42	0	2579496960	6	4113
2026-01-10 12:09:06.49	354.92	43.97	-23.2	-24.2	19.5	0.00e+00	0	42	0	2585788416	6	4078
2026-01-10 12:09:07.50	354.76	43.69	-22.7	-23.3	19.9	0.00e+00	0	42	0	2591031296	6	3852
2026-01-10 12:09:08.50	354.60	43.42	-22.4	-22.7	20.2	0.00e+00	0	42	0	2597322752	6	3720
2026-01-10 12:09:09.51	354.44	43.14	-22.2	-22.8	20.4	0.00e+00	0	42	0	2602565632	5	3848
2026-01-10 12:09:10.52	354.29	42.87	-22.1	-22.6	20.5	0.00e+00	0	42	0	2607808512	5	3809
2026-01-10 12:09:11.53	354.13	42.59	-22.3	-22.9	20.4	0.00e+00	0	42	0	2614099968	5	3873
2026-01-10 12:09:12.54	353.99	42.32	-22.3	-23.0	20.3	0.00e+00	0	42	0	2619342848	5	3907
2026-01-10 12:09:13.55	353.84	42.05	-22.3	-23.0	20.3	0.00e+00	0	42	0	2625634304	5	3890
2026-01-10 12:09:14.55	353.70	41.79	-22.3	-23.0	20.3	0.00e+00	0	42	0	2630877184	5	3903
2026-01-10 12:09:15.56	353.55	41.52	-22.3	-23.1	20.3	0.00e+00	0	42	0	2636120064	5	3914
2026-01-10 12:09:16.57	353.41	41.26	-22.4	-23.1	20.3	0.00e+00	0	42	0	2642411520	5	3916
2026-01-10 12:09:17.58	353.28	41.00	-22.5	-23.4	20.1	0.00e+00	0	42	0	2647654400	5	3978
2026-01-10 12:09:18.58	353.14	40.74	-22.6	-23.5	20.1	0.00e+00	0	42	0	2653945856	5	4023
2026-01-10 12:09:19.59	353.01	40.48	-22.5	-23.4	20.1	0.00e+00	0	42	0	2659188736	5	3980
2026-01-10 12:09:20.59	352.88	40.23	-22.7	-23.9	19.9	0.00e+00	0	42	0	2664431616	5	4114
2026-01-10 12:09:21.60	352.75	39.97	-22.8	-23.9	19.8	0.00e+00	0	42	0	2670723072	5	4111
2026-01-10 12:09:22.61	352.63	39.72	-22.8	-24.0	19.8	0.00e+00	0	42	0	2675965952	5	4129
2026-01-10 12:09:23.61	352.50	39.47	-22.7	-23.8	19.9	0.00e+00	0	42	0	2682257408	5	4091
2026-01-10 12:09:24.62	352.38	39.22	-22.6	-23.5	20.1	0.00e+00	0	42	0	2687500288	5	4026
2026-01-10 12:09:25.62	352.26	38.97	-22.3	-23.1	20.3	0.00e+00	0	42	0	2692743168	5	3915
2026-01-10 12:09:26.62	352.14	38.73	-22.3	-23.0	20.3	0.00e+00	0	42	0	2699034624	5	3899
2026-01-10 12:09:27.62	352.03	38.48	-22.3	-23.0	20.3	0.00e+00	0	42	0	2704277504	5	3895
2026-01-10 12:09:28.63	351.91	38.24	-22.3	-23.0	20.3	0.00e+00	0	42	0	2710568960	5	3897
2026-01-10 12:09:29.63	351.80	38.00	-22.3	-22.9	20.3	0.00e+00	0	42	0	2715811840	5	3866
2026-01-10 12:09:30.64	351.69	37.76	-22.4	-23.2	20.2	0.00e+00	0	42	0	2721054720	5	3941
2026-01-10 12:09:31.65	351.58	37.52	-22.4	-23.1	20.2	0.00e+00	0	42	0	2727346176	5	3914
2026-01-10 12:09:32.66	351.47	37.28	-22.2	-22.8	20.4	0.00e+00	0	42	0	2732589056	5	3855
2026-01-10 12:09:33.66	351.37	37.05	-22.3	-22.9	20.3	0.00e+00	0	42	0	2737831936	5	3864
2026-01-10 12:09:34.67	351.26	36.82	-22.4	-23.1	20.2	0.00e+00	0	42	0	2744123392	5	3916
2026-01-10 12:09:35.67	351.16	36.58	-22.5	-23.4	20.1	0.00e+00	0	42	0	2749366272	5	4001
2026-01-10 12:09:36.68	351.06	36.35	-22.5	-23.5	20.0	0.00e+00	0	42	0	2755657728	5	4021
2026-01-10 12:09:37.69	350.95	36.12	-22.5	-23.4	20.1	0.00e+00	0	42	0	2760900608	5	3998
2026-01-10 12:09:38.69	350.86	35.90	-22.5	-23.5	20.0	0.00e+00	0	42	0	2767192064	5	4030
2026-01-10 12:09:39.70	350.76	35.67	-22.6	-23.7	19.9	0.00e+00	0	42	0	2772434944	5	4074
2026-01-10 12:09:40.70	350.66	35.45	-22.5	-23.4	20.0	0.00e+00	0	42	0	2777677824	5	4005
2026-01-10 12:09:41.71	350.57	35.22	-22.4	-23.1	20.2	0.00e+00	0	42	0	2783969280	5	3925
2026-01-10 12:09:42.72	350.47	35.00	-22.5	-23.3	20.1	0.00e+00	0	42	0	2789212160	5	3974
2026-01-10 12:09:43.72	350.38	34.78	-22.3	-23.0	20.2	0.00e+00	0	42	0	2795503616	5	3894
2026-01-10 12:09:44.73	350.29	34.56	-22.3	-23.0	20.2	0.00e+00	0	42	0	2800746496	5	3896
2026-01-10 12:09:45.73	350.20	34.35	-22.3	-23.0	20.2	0.00e+00	0	42	0	2805989376	5	3903
2026-01-10 12:09:46.74	350.11	34.13	-22.4	-23.1	20.2	0.00e+00	0	42	0	2812280832	5	3918
2026-01-10 12:09:47.73	350.03	33.92	-22.4	-23.2	20.2	0.00e+00	0	42	0	2817523712	5	3940
2026-01-10 12:09:48.74	349.94	33.71	-22.8	-23.9	19.8	0.00e+00	0	42	0	2822766592	5	4112
2026-01-10 12:09:49.75	349.86	33.50	-22.7	-23.8	19.8	0.00e+00	0	42	0	2829058048	5	4082
2026-01-10 12:09:50.75	349.77	33.29	-22.6	-23.5	20.0	0.00e+00	0	42	0	2834300928	5	4025
2026-01-10 12:09:51.76	349.69	33.08	-22.6	-23.6	19.9	0.00e+00	0	42	0	2840592384	5	4037
2026-01-10 12:09:52.76	349.61	32.87	-22.6	-23.7	19.9	0.00e+00	0	42	0	2845835264	5	4057
2026-01-10 12:09:53.77	349.53	32.66	-22.8	-23.9	19.8	0.00e+00	0	42	0	2851078144	5	4123
2026-01-10 12:09:54.78	349.45	32.46	-22.7	-23.9	19.8	0.00e+00	0	42	0	2857369600	5	4106
2026-01-10 12:09:55.79	349.37	32.26	-23.0	-24.4	19.5	0.00e+00	0	42	0	2862612480	5	4233
2026-01-10 12:09:56.79	349.30	32.05	-23.0	-24.0	19.5	0.00e+00	0	42	0	2868903936	6	4026
2026-01-10 12:09:57.80	349.22	31.85	-23.1	-24.2	19.4	0.00e+00	0	42	0	2874146816	6	4069
2026-01-10 12:09:58.81	349.14	31.65	-23.2	-24.3	19.3	0.00e+00	0	42	0	2879389696	6	4107
2026-01-10 12:09:59.82	349.07	31.45	-23.3	-24.5	19.2	0.00e+00	0	42	0	2885681152	6	4150
2026-01-10 12:10:00.82	349.00	31.26	-23.3	-24.5	19.2	0.00e+00	0	42	0	2890924032	6	4152
2026-01-10 12:10:01.82	348.92	31.06	-23.4	-24.9	19.1	0.00e+00	0	42	0	2897215488	6	4247
2026-01-10 12:10:02.83	348.85	30.87	-23.2	-24.4	19.3	0.00e+00	0	42	0	2902458368	6	4137
2026-01-10 12:10:03.83	348.78	30.68	-23.1	-24.3	19.3	0.00e+00	0	42	0	2907701248	6	4094
2026-01-10 12:10:04.84	348.71	30.49	-23.1	-24.2	19.4	0.00e+00	0	42	0	2913992704	6	4074
2026-01-10 12:10:05.85	348.64	30.29	-23.0	-24.0	19.4	0.00e+00	0	42	0	2919235584	6	4035
2026-01-10 12:10:06.85	348.58	30.11	-22.9	-23.8	19.5	0.00e+00	0	42	0	2925527040	6	3994
2026-01-10 12:10:07.85	348.51	29.92	-23.2	-24.3	19.3	0.00e+00	0	42	0	2930769920	6	4090
2026-01-10 12:10:08.86	348.44	29.73	-22.9	-23.8	19.5	0.00e+00	0	42	0	2936012800	6	3985
2026-01-10 12:10:09.87	348.38	29.54	-22.8	-23.5	19.6	0.00e+00	0	42	0	2942304256	6	3915
2026-01-10 12:10:10.87	348.31	29.36	-22.7	-23.4	19.7	0.00e+00	0	42	0	2947547136	6	3880
2026-01-10 12:10:11.88	348.25	29.18	-22.8	-23.6	19.6	0.00e+00	0	42	0	2953838592	6	3933
2026-01-10 12:10:12.89	348.19	28.99	-22.7	-23.2	19.8	0.00e+00	0	42	0	2959081472	6	3840
2026-01-10 12:10:13.89	348.12	28.81	-22.5	-22.9	19.9	0.00e+00	0	42	0	2964324352	6	3772
2026-01-10 12:10:14.90	348.06	28.63	-22.6	-23.2	19.8	0.00e+00	0	42	0	2970615808	6	3828
2026-01-10 12:10:15.91	348.00	28.45	-22.6	-23.0	19.9	0.00e+00	0	42	0	2975858688	6	3797
2026-01-10 12:10:16.91	347.94	28.28	-22.5	-23.0	19.9	0.00e+00	0	42	0	2981101568	6	3792
2026-01-10 12:10:17.93	347.88	28.10	-22.6	-23.0	19.9	0.00e+00	0	42	0	2987393024	6	3802
2026-01-10 12:10:18.93	347.82	27.92	-22.8	-23.4	19.6	0.00e+00	0	42	0	2992635904	6	3894
2026-01-10 12:10:19.94	347.76	27.75	-22.7	-23.2	19.7	0.00e+00	0	42	0	2998927360	6	3850
2026-01-10 12:10:20.94	347.71	27.58	-22.7	-23.3	19.7	0.00e+00	0	42	0	3004170240	6	3871
2026-01-10 12:10:21.95	347.65	27.40	-22.7	-23.4	19.6	0.00e+00	0	42	0	3010461696	6	3890
2026-01-10 12:10:22.96	347.59	27.23	-22.8	-23.5	19.6	0.00e+00	0	42	0	3015704576	6	3916
2026-01-10 12:10:23.96	347.54	27.06	-22.8	-23.6	19.5	0.00e+00	0	42	0	3020947456	6	3942
2026-01-10 12:10:24.97	347.48	26.89	-22.9	-23.7	19.5	0.00e+00	0	42	0	3027238912	6	3960
2026-01-10 12:10:25.98	347.43	26.72	-22.9	-23.8	19.4	0.00e+00	0	42	0	3032481792	6	3998
2026-01-10 12:10:26.99	347.37	26.55	-23.2	-24.4	19.1	0.00e+00	0	42	0	3038773248	6	4138
2026-01-10 12:10:27.99	347.32	26.39	-23.0	-24.0	19.4	0.00e+00	0	42	0	3044016128	6	4027
2026-01-10 12:10:29.00	347.27	26.22	-22.9	-23.8	19.5	0.00e+00	0	42	0	3049259008	6	3976
2026-01-10 12:10:30.00	347.22	26.06	-23.0	-24.1	19.3	0.00e+00	0	42	0	3055550464	6	4045
2026-01-10 12:10:31.01	347.17	25.90	-23.0	-23.9	19.4	0.00e+00	0	42	0	3060793344	6	4000
2026-01-10 12:10:32.02	347.11	25.73	-23.0	-24.0	19.3	0.00e+00	0	42	0	3066036224	6	4023
2026-01-10 12:10:33.02	347.06	25.57	-23.0	-23.9	19.4	0.00e+00	0	42	0	3072327680	6	4002
2026-01-10 12:10:34.03	347.01	25.41	-22.9	-23.8	19.4	0.00e+00	0	42	0	3077570560	6	3976
2026-01-10 12:10:35.03	346.97	25.25	-23.0	-23.9	19.4	0.00e+00	0	42	0	3083862016	6	3991
2026-01-10 12:10:36.04	346.92	25.09	-22.9	-23.8	19.4	0.00e+00	0	42	0	3089104896	6	3975
2026-01-10 12:10:37.05	346.87	24.94	-23.0	-24.0	19.3	0.00e+00	0	42	0	3095396352	6	4034
2026-01-10 12:10:38.06	346.82	24.78	-23.0	-24.0	19.3	0.00e+00	0	42	0	3100639232	6	4029
2026-01-10 12:10:39.06	346.77	24.62	-23.1	-24.1	19.2	0.00e+00	0	42	0	3105882112	6	4050
2026-01-10 12:10:40.07	346.73	24.47	-23.3	-24.5	19.0	0.00e+00	0	42	0	3112173568	6	4162
2026-01-10 12:10:41.08	346.68	24.31	-23.2	-24.4	19.1	0.00e+00	0	42	0	3117416448	6	4120
2026-01-10 12:10:42.08	346.64	24.16	-23.3	-24.5	19.0	0.00e+00	0	42	0	3123707904	6	4156
2026-01-10 12:10:43.09	346.59	24.01	-23.4	-24.8	18.9	0.00e+00	0	42	0	3128950784	6	4226
2026-01-10 12:10:44.09	346.55	23.86	-23.5	-24.5	18.7	0.00e+00	0	42	0	3134193664	7	4044
2026-01-10 12:10:45.09	346.50	23.71	-23.7	-24.8	18.6	0.00e+00	0	42	0	3140485120	7	4124
2026-01-10 12:10:46.09	346.46	23.56	-23.9	-25.4	18.3	0.00e+00	0	42	0	3145728000	7	4261
2026-01-10 12:10:47.10	346.42	23.41	-23.7	-25.0	18.5	0.00e+00	0	42	0	3150970880	7	4159
2026-01-10 12:10:48.11	346.37	23.26	-23.6	-24.8	18.6	0.00e+00	0	42	0	3157262336	7	4123
2026-01-10 12:10:49.12	346.33	23.11	-23.6	-24.8	18.6	0.00e+00	0	42	0	3162505216	7	4105
2026-01-10 12:10:50.11	346.29	22.97	-23.6	-24.7	18.6	0.00e+00	0	42	0	3168796672	7	4102
2026-01-10 12:10:51.12	346.25	22.82	-23.7	-25.0	18.5	0.00e+00	0	42	0	3174039552	7	4160
2026-01-10 12:10:52.13	346.21	22.68	-23.7	-25.0	18.4	0.00e+00	0	42	0	3180331008	7	4178
2026-01-10 12:10:53.13	346.17	22.54	-23.7	-25.0	18.4	0.00e+00	0	42	0	3185573888	7	4163
2026-01-10 12:10:54.14	346.13	22.39	-23.8	-25.2	18.3	0.00e+00	0	42	0	3190816768	7	4221
2026-01-10 12:10:55.14	346.09	22.25	-23.7	-25.0	18.4	0.00e+00	0	42	0	3197108224	7	4166
2026-01-10 12:10:56.15	346.05	22.11	-23.7	-24.9	18.5	0.00e+00	0	42	0	3202351104	7	4146
2026-01-10 12:10:57.15	346.01	21.97	-24.0	-25.5	18.2	0.00e+00	0	42	0	3207593984	7	4293
2026-01-10 12:10:58.16	345.97	21.83	-23.7	-24.9	18.5	0.00e+00	0	42	0	3213885440	7	4145
2026-01-10 12:10:59.17	345.93	21.69	-23.9	-25.4	18.2	0.00e+00	0	42	0	3219128320	7	4272
2026-01-10 12:11:00.17	345.89	21.55	-23.8	-25.1	18.4	0.00e+00	0	42	0	3225419776	7	4198
2026-01-10 12:11:01.18	345.85	21.41	-23.7	-24.9	18.4	0.00e+00	0	42	0	3230662656	7	4151
2026-01-10 12:11:02.18	345.82	21.28	-23.8	-25.1	18.4	0.00e+00	0	42	0	3235905536	7	4186
2026-01-10 12:11:03.19	345.78	21.14	-23.8	-25.1	18.3	0.00e+00	0	42	0	3242196992	7	4198
2026-01-10 12:11:04.19	345.74	21.00	-23.7	-24.9	18.5	0.00e+00	0	42	0	3247439872	7	4138
2026-01-10 12:11:05.20	345.71	20.87	-23.7	-24.9	18.4	0.00e+00	0	42	0	3253731328	7	4136
2026-01-10 12:11:06.20	345.67	20.73	-23.7	-25.0	18.4	0.00e+00	0	42	0	3258974208	7	4178
2026-01-10 12:11:07.21	345.64	20.60	-23.7	-25.0	18.4	0.00e+00	0	42	0	3264217088	7	4164
2026-01-10 12:11:08.22	345.60	20.47	-23.7	-25.0	18.4	0.00e+00	0	42	0	3270508544	7	4156
2026-01-10 12:11:09.23	345.57	20.33	-23.7	-25.0	18.4	0.00e+00	0	42	0	3275751424	7	4169
2026-01-10 12:11:10.23	345.53	20.20	-23.8	-25.2	18.3	0.00e+00	0	42	0	3282042880	7	4217
2026-01-10 12:11:11.24	345.50	20.07	-23.8	-25.0	18.3	0.00e+00	0	42	0	3287285760	7	4178
2026-01-10 12:11:12.25	345.46	19.94	-23.6	-24.8	18.5	0.00e+00	0	42	0	3292528640	7	4109
2026-01-10 12:11:13.25	345.43	19.81	-23.7	-25.0	18.3	0.00e+00	0	42	0	3298820096	7	4158
2026-01-10 12:11:14.26	345.40	19.68	-23.7	-24.9	18.4	0.00e+00	0	42	0	3304062976	7	4155
2026-01-10 12:11:15.27	345.36	19.56	-23.7	-25.0	18.4	0.00e+00	0	42	0	3310354432	7	4167
2026-01-10 12:11:16.28	345.33	19.43	-23.7	-24.9	18.4	0.00e+00	0	42	0	3315597312	7	4145
2026-01-10 12:11:17.28	345.30	19.30	-23.8	-25.1	18.3	0.00e+00	0	42	0	3320840192	7	4185
2026-01-10 12:11:18.29	345.27	19.18	-23.7	-24.9	18.4	0.00e+00	0	42	0	3327131648	7	4146
2026-01-10 12:11:19.30	345.24	19.05	-23.8	-25.1	18.2	0.00e+00	0	42	0	3332374528	7	4200
2026-01-10 12:11:20.31	345.20	18.92	-23.9	-25.3	18.2	0.00e+00	0	42	0	3338665984	7	4237
2026-01-10 12:11:21.31	345.17	18.80	-23.9	-25.4	18.1	0.00e+00	0	42	0	3343908864	7	4261
2026-01-10 12:11:22.32	345.14	18.68	-23.9	-25.4	18.1	0.00e+00	0	42	0	3350200320	7	4280
2026-01-10 12:11:23.33	345.11	18.55	-24.2	-25.6	17.7	0.00e+00	0	42	0	3355443200	8	4202
2026-01-10 12:11:24.34	345.08	18.43	-24.3	-25.8	17.7	0.00e+00	0	42	0	3360686080	8	4255
2026-01-10 12:11:25.35	345.05	18.31	-24.5	-25.6	17.5	0.00e+00	0	42	0	3366977536	9	4104
2026-01-10 12:11:26.35	345.02	18.19	-24.6	-25.8	17.4	0.00e+00	0	42	0	3372220416	9	4149
2026-01-10 12:11:27.35	344.99	18.07	-24.6	-25.8	17.4	0.00e+00	0	42	0	3377463296	9	4142
2026-01-10 12:11:28.35	344.96	17.95	-24.6	-25.8	17.4	0.00e+00	0	42	0	3383754752	9	4138
2026-01-10 12:11:29.36	344.94	17.83	-24.7	-26.1	17.2	0.00e+00	0	42	0	3388997632	9	4223
2026-01-10 12:11:30.37	344.91	17.71	-24.7	-26.1	17.2	0.00e+00	0	42	0	3394240512	9	4236
2026-01-10 12:11:31.36	344.88	17.59	-24.5	-25.6	17.5	0.00e+00	0	42	0	3400531968	9	4096
2026-01-10 12:11:32.37	344.85	17.47	-24.4	-25.5	17.5	0.00e+00	0	42	0	3405774848	9	4072
2026-01-10 12:11:33.37	344.82	17.36	-24.4	-25.5	17.5	0.00e+00	0	42	0	3412066304	9	4079
2026-01-10 12:11:34.38	344.80	17.24	-24.5	-25.7	17.4	0.00e+00	0	42	0	3417309184	9	4124
2026-01-10 12:11:35.38	344.77	17.12	-24.5	-25.8	17.4	0.00e+00	0	42	0	3423600640	9	4144
2026-01-10 12:11:36.39	344.74	17.01	-24.6	-26.0	17.3	0.00e+00	0	42	0	3428843520	9	4193
2026-01-10 12:11:37.39	344.71	16.89	-24.7	-26.0	17.2	0.00e+00	0	42	0	3434086400	9	4215
2026-01-10 12:11:38.40	344.69	16.78	-24.7	-26.1	17.2	0.00e+00	0	42	0	3440377856	9	4226
2026-01-10 12:11:39.41	344.66	16.66	-24.8	-26.3	17.0	0.00e+00	0	42	0	3445620736	9	4291
2026-01-10 12:11:40.42	344.63	16.55	-24.9	-26.4	17.0	0.00e+00	0	42	0	3450863616	9	4311
2026-01-10 12:11:41.43	344.61	16.44	-24.9	-26.4	17.0	0.00e+00	0	42	0	3457155072	9	4323
2026-01-10 12:11:42.43	344.58	16.32	-24.9	-26.5	16.9	0.00e+00	0	42	0	3462397952	9	4329
2026-01-10 12:11:43.44	344.56	16.21	-24.9	-26.6	16.9	0.00e+00	0	42	0	3468689408	9	4358
2026-01-10 12:11:44.45	344.53	16.10	-25.0	-26.7	16.8	0.00e+00	0	42	0	3473932288	9	4382
2026-01-10 12:11:45.45	344.51	15.99	-24.9	-26.5	16.9	0.00e+00	0	42	0	3479175168	9	4346
2026-01-10 12:11:46.46	344.48	15.88	-25.0	-26.2	16.8	0.00e+00	0	42	0	3485466624	10	4149
2026-01-10 12:11:47.46	344.46	15.77	-25.0	-26.2	16.8	0.00e+00	0	42	0	3490709504	10	4156
2026-01-10 12:11:48.47	344.43	15.66	-25.0	-26.3	16.8	0.00e+00	0	42	0	3497000960	10	4164
2026-01-10 12:11:49.47	344.41	15.55	-25.1	-26.4	16.7	0.00e+00	0	42	0	3502243840	10	4184
2026-01-10 12:11:50.48	344.38	15.44	-25.1	-26.5	16.6	0.00e+00	0	42	0	3508535296	10	4232
2026-01-10 12:11:51.49	344.36	15.33	-25.2	-26.6	16.6	0.00e+00	0	42	0	3513778176	10	4245
2026-01-10 12:11:52.50	344.34	15.23	-25.1	-26.6	16.6	0.00e+00	0	42	0	3519021056	10	4236
2026-01-10 12:11:53.50	344.31	15.12	-25.2	-26.7	16.6	0.00e+00	0	42	0	3525312512	10	4266
2026-01-10 12:11:54.51	344.29	15.01	-25.1	-26.5	16.7	0.00e+00	0	42	0	3530555392	10	4209
2026-01-10 12:11:55.51	344.27	14.91	-25.2	-26.6	16.6	0.00e+00	0	42	0	3535798272	10	4259
2026-01-10 12:11:56.52	344.24	14.80	-25.2	-26.6	16.6	0.00e+00	0	42	0	3542089728	10	4256
2026-01-10 12:11:57.53	344.22	14.70	-25.4	-27.1	16.4	0.00e+00	0	42	0	3547332608	10	4370
2026-01-10 12:11:58.54	344.20	14.59	-25.3	-26.8	16.5	0.00e+00	0	42	0	3553624064	10	4293
2026-01-10 12:11:59.55	344.18	14.49	-25.2	-26.6	16.6	0.00e+00	0	42	0	3558866944	10	4244
2026-01-10 12:12:00.55	344.16	14.38	-25.2	-26.7	16.5	0.00e+00	0	42	0	3564109824	10	4270
2026-01-10 12:12:01.56	344.13	14.28	-25.3	-26.8	16.5	0.00e+00	0	42	0	3570401280	10	4298
2026-01-10 12:12:02.56	344.11	14.18	-25.2	-26.6	16.6	0.00e+00	0	42	0	3575644160	10	4235
2026-01-10 12:12:03.57	344.09	14.07	-25.3	-26.8	16.4	0.00e+00	0	42	0	3581935616	10	4297
2026-01-10 12:12:04.57	344.07	13.97	-25.3	-26.9	16.4	0.00e+00	0	42	0	3587178496	10	4311
2026-01-10 12:12:05.58	344.05	13.87	-25.3	-26.9	16.4	0.00e+00	0	42	0	3593469952	10	4314
2026-01-10 12:12:06.59	344.03	13.77	-25.4	-27.1	16.3	0.00e+00	0	42	0	3598712832	10	4372
2026-01-10 12:12:07.60	344.01	13.67	-25.4	-27.2	16.2	0.00e+00	0	42	0	3603955712	10	4405
2026-01-10 12:12:08.61	343.98	13.56	-25.5	-26.8	16.1	0.00e+00	0	42	0	3610247168	11	4191
2026-01-10 12:12:09.61	343.96	13.47	-25.7	-27.2	15.9	0.00e+00	0	42	0	3615490048	11	4292
2026-01-10 12:12:10.62	343.94	13.37	-25.6	-27.0	16.0	0.00e+00	0	42	0	3620732928	11	4248
2026-01-10 12:12:11.63	343.92	13.27	-25.7	-27.3	15.9	0.00e+00	0	42	0	3627024384	11	4309
2026-01-10 12:12:12.63	343.90	13.17	-25.7	-27.3	15.9	0.00e+00	0	42	0	3632267264	11	4310
2026-01-10 12:12:13.64	343.88	13.07	-25.7	-27.3	15.9	0.00e+00	0	42	0	3638558720	11	4311
2026-01-10 12:12:14.64	343.86	12.97	-25.9	-27.7	15.6	0.00e+00	0	42	0	3643801600	11	4442
2026-01-10 12:12:15.65	343.84	12.87	-25.8	-27.5	15.7	0.00e+00	0	42	0	3649044480	11	4365
2026-01-10 12:12:16.65	343.83	12.78	-25.7	-27.2	15.9	0.00e+00	0	42	0	3655335936	11	4298
2026-01-10 12:12:17.66	343.81	12.68	-25.6	-27.0	16.0	0.00e+00	0	42	0	3660578816	11	4228
2026-01-10 12:12:18.67	343.79	12.58	-25.6	-27.1	15.9	0.00e+00	0	42	0	3666870272	11	4282
2026-01-10 12:12:19.68	343.77	12.49	-25.6	-27.0	16.0	0.00e+00	0	42	0	3672113152	11	4233
2026-01-10 12:12:20.68	343.75	12.39	-25.6	-27.0	16.0	0.00e+00	0	42	0	3678404608	11	4228
2026-01-10 12:12:21.68	343.73	12.30	-25.5	-26.7	16.1	0.00e+00	0	42	0	3683647488	11	4170
2026-01-10 12:12:22.68	343.71	12.20	-25.5	-26.8	16.1	0.00e+00	0	42	0	3688890368	11	4180
2026-01-10 12:12:23.69	343.69	12.11	-25.5	-26.7	16.1	0.00e+00	0	42	0	3695181824	11	4175
2026-01-10 12:12:24.70	343.68	12.01	-25.5	-26.8	16.0	0.00e+00	0	42	0	3700424704	11	4195
2026-01-10 12:12:25.70	343.66	11.92	-25.6	-27.1	15.9	0.00e+00	0	42	0	3705667584	11	4266
2026-01-10 12:12:26.70	343.64	11.82	-25.6	-27.2	15.8	0.00e+00	0	42	0	3711959040	11	4292
2026-01-10 12:12:27.71	343.62	11.73	-25.6	-27.1	15.8	0.00e+00	0	42	0	3717201920	11	4283
2026-01-10 12:12:28.72	343.60	11.64	-25.7	-27.2	15.8	0.00e+00	0	42	0	3722444800	11	4301
2026-01-10 12:12:29.72	343.59	11.55	-25.7	-27.4	15.7	0.00e+00	0	42	0	3728736256	11	4348
2026-01-10 12:12:30.73	343.57	11.45	-25.8	-27.4	15.6	0.00e+00	0	42	0	3733979136	11	4364
2026-01-10 12:12:31.73	343.55	11.36	-25.7	-27.2	15.7	0.00e+00	0	42	0	3740270592	11	4313
2026-01-10 12:12:32.74	343.53	11.27	-25.7	-27.3	15.7	0.00e+00	0	42	0	3745513472	11	4341
2026-01-10 12:12:33.74	343.52	11.18	-25.8	-27.4	15.6	0.00e+00	0	42	0	3751804928	11	4358
2026-01-10 12:12:34.75	343.50	11.09	-25.7	-27.2	15.7	0.00e+00	0	42	0	3757047808	11	4307
2026-01-10 12:12:35.75	343.48	11.00	-25.6	-27.2	15.8	0.00e+00	0	42	0	3762290688	11	4295
2026-01-10 12:12:36.76	343.47	10.91	-25.7	-27.4	15.7	0.00e+00	0	42	0	3768582144	11	4349
2026-01-10 12:12:37.77	343.45	10.82	-25.7	-27.3	15.7	0.00e+00	0	42	0	3773825024	11	4339
2026-01-10 12:12:38.78	343.43	10.73	-25.8	-27.6	15.5	0.00e+00	0	42	0	3780116480	11	4420
2026-01-10 12:12:39.78	343.42	10.64	-25.8	-27.6	15.5	0.00e+00	0	42	0	3785359360	11	4400
2026-01-10 12:12:40.79	343.40	10.55	-25.9	-27.7	15.5	0.00e+00	0	42	0	3790602240	11	4428
2026-01-10 12:12:41.80	343.39	10.46	-25.8	-27.6	15.5	0.00e+00	0	42	0	3796893696	11	4419
2026-01-10 12:12:42.80	343.37	10.37	-25.9	-27.4	15.2	0.00e+00	0	42	0	3802136576	12	4248
2026-01-10 12:12:43.81	343.36	10.28	-25.9	-27.3	15.3	0.00e+00	0	42	0	3807379456	12	4239
2026-01-10 12:12:44.82	343.34	10.20	-26.3	-28.2	14.8	1.10e-06	0	42	0	3813670912	12	4476
2026-01-10 12:12:45.83	343.32	10.11	-26.3	-28.2	14.8	2.20e-06	0	42	0	3818913792	12	4467
2026-01-10 12:12:46.83	343.31	10.02	-26.2	-28.0	14.9	0.00e+00	0	42	0	3825205248	12	4408
2026-01-10 12:12:47.84	343.29	9.93	-26.7	-28.7	14.2	1.10e-06	0	42	0	3830448128	13	4496
2026-01-10 12:12:48.85	343.28	9.85	-26.5	-28.2	14.4	2.20e-06	0	42	0	3836739584	13	4373
2026-01-10 12:12:49.86	343.26	9.76	-26.5	-28.1	14.5	2.20e-06	0	42	0	3841982464	13	4342
2026-01-10 12:12:50.86	343.25	9.68	-26.7	-28.6	14.2	0.00e+00	0	42	0	3847225344	13	4491
2026-01-10 12:12:51.87	343.23	9.59	-26.5	-28.2	14.4	0.00e+00	0	42	0	3853516800	13	4371
2026-01-10 12:12:52.88	343.22	9.50	-26.5	-28.1	14.5	1.10e-06	0	42	0	3858759680	13	4343
2026-01-10 12:12:53.89	343.20	9.42	-26.6	-28.3	14.3	0.00e+00	0	42	0	3865051136	13	4398
