passes_logs/2026/01/10/R2M6_AANII_01/R2M6_AANII_01__20260110_053452_FENGYUN_3E_rec.log

#Pass ID: 20260110_053452_FENGYUN 3E
#Satellite: FENGYUN 3E
#Configuration: FENGYUN 3E
#almurnet v.1.7.20240730
#Start time: 2026-01-10 05:34:53

#Version: 2.2.20231116
#Station: R2M6_AANII_01
#Location: 30.233357 lon 59.946436 lat
#TLE: 1 49008U 21062A   26009.29780149 -.00000002  00000+0  19895-4 0  9997
#TLE: 2 49008  98.7484  14.4929 0001744 148.2300 211.8982 14.19883977234036

#Time	Az	El	Level	Level2	SNR	BER	BlckErr	Temp	State	Recorded	gain1	gain2
2026-01-10 05:34:53.02	13.71	7.04	-29.2	-31.0	5.3	7.75e-01	0	40	0	0	19	4412
2026-01-10 05:34:54.02	13.66	7.11	-29.7	-32.5	5.1	7.84e-01	0	40	104	0	19	4932
2026-01-10 05:34:55.02	13.62	7.19	-29.5	-31.7	9.1	2.74e-02	0	40	0	0	19	4656
2026-01-10 05:34:56.02	13.57	7.26	-29.7	-32.4	8.7	3.43e-02	0	40	0	6291456	19	4871
2026-01-10 05:34:57.02	13.52	7.34	-29.5	-31.7	9.2	2.45e-02	0	40	0	13631488	19	4622
2026-01-10 05:34:58.02	13.48	7.41	-29.1	-30.7	9.9	1.09e-02	0	40	0	20971520	19	4300
2026-01-10 05:34:59.01	13.43	7.48	-29.1	-30.6	9.9	8.08e-03	0	40	0	28311552	19	4290
2026-01-10 05:35:00.02	13.38	7.56	-29.1	-30.7	9.9	9.44e-03	0	40	0	35651584	19	4298
2026-01-10 05:35:01.02	13.33	7.63	-29.1	-30.5	10.0	8.29e-03	0	40	0	42991616	19	4241
2026-01-10 05:35:02.01	13.28	7.71	-28.4	-29.4	11.1	2.38e-03	0	40	0	50331648	18	4020
2026-01-10 05:35:03.01	13.23	7.78	-28.0	-29.0	11.6	7.93e-04	0	40	0	57671680	17	3996
2026-01-10 05:35:04.01	13.18	7.86	-27.7	-28.6	12.1	3.22e-04	0	40	0	63963136	16	4007
2026-01-10 05:35:05.01	13.13	7.94	-27.4	-27.9	12.6	1.20e-04	0	40	0	71303168	16	3819
2026-01-10 05:35:06.02	13.08	8.01	-26.7	-27.4	13.3	3.31e-05	0	40	0	78643200	14	3891
2026-01-10 05:35:07.02	13.03	8.09	-26.7	-27.3	13.4	3.31e-05	0	40	0	85983232	14	3868
2026-01-10 05:35:08.02	12.98	8.17	-26.6	-27.1	13.5	1.02e-05	0	40	0	93323264	14	3802
2026-01-10 05:35:09.02	12.93	8.24	-26.5	-26.9	13.7	5.70e-06	0	40	0	100663296	14	3752
2026-01-10 05:35:10.02	12.88	8.32	-26.8	-27.5	13.4	2.40e-05	0	40	0	108003328	14	3903
2026-01-10 05:35:11.02	12.83	8.40	-26.9	-27.8	13.2	1.83e-05	0	40	0	115343360	14	3986
2026-01-10 05:35:12.02	12.78	8.47	-26.7	-27.2	13.6	1.02e-05	0	40	0	122683392	14	3828
2026-01-10 05:35:13.03	12.73	8.55	-27.4	-28.8	12.8	3.54e-05	0	40	0	130023424	14	4248
2026-01-10 05:35:14.02	12.67	8.63	-27.8	-29.3	12.2	8.12e-05	0	40	0	136314880	15	4267
2026-01-10 05:35:15.02	12.62	8.71	-27.7	-29.0	12.5	1.18e-04	0	40	0	143654912	15	4179
2026-01-10 05:35:16.02	12.57	8.79	-27.6	-28.8	12.6	7.89e-05	0	41	0	150994944	15	4137
2026-01-10 05:35:17.02	12.52	8.86	-27.8	-29.3	12.3	1.05e-04	0	40	0	158334976	15	4274
2026-01-10 05:35:18.02	12.46	8.94	-28.1	-29.5	12.2	2.64e-04	0	40	0	165675008	16	4208
2026-01-10 05:35:19.03	12.41	9.02	-27.9	-28.9	12.6	1.12e-04	0	40	0	173015040	16	4035
2026-01-10 05:35:20.04	12.35	9.10	-28.0	-29.2	12.3	2.22e-04	0	41	0	180355072	16	4110
2026-01-10 05:35:21.04	12.30	9.18	-27.7	-28.4	12.7	8.92e-05	0	41	0	187695104	16	3918
2026-01-10 05:35:22.05	12.24	9.26	-27.5	-28.0	13.0	4.57e-05	0	40	0	195035136	16	3815
2026-01-10 05:35:23.04	12.19	9.34	-27.8	-28.6	12.6	1.21e-04	0	41	0	202375168	16	3974
2026-01-10 05:35:24.05	12.13	9.42	-28.3	-29.8	12.1	2.88e-04	0	41	0	208666624	16	4285
2026-01-10 05:35:25.05	12.08	9.50	-28.3	-29.8	12.0	3.58e-04	0	41	0	216006656	16	4280
2026-01-10 05:35:26.06	12.02	9.58	-27.9	-29.0	12.6	1.42e-04	0	40	0	223346688	16	4071
2026-01-10 05:35:27.05	11.97	9.66	-27.1	-27.5	13.6	1.60e-05	0	41	0	230686720	15	3778
2026-01-10 05:35:28.05	11.91	9.75	-26.9	-27.6	13.8	5.70e-06	0	41	0	238026752	14	3908
2026-01-10 05:35:29.04	11.85	9.83	-26.4	-26.5	14.4	0.00e+00	0	41	0	245366784	14	3649
2026-01-10 05:35:30.05	11.80	9.91	-26.7	-27.1	14.2	2.20e-06	0	41	0	252706816	14	3793
2026-01-10 05:35:31.04	11.74	9.99	-27.1	-28.0	13.8	5.70e-06	0	41	0	260046848	14	4011
2026-01-10 05:35:32.05	11.68	10.07	-26.9	-27.6	13.8	2.20e-06	0	41	0	267386880	14	3903
2026-01-10 05:35:33.04	11.62	10.15	-26.8	-27.4	14.0	3.40e-06	0	41	0	273678336	14	3855
2026-01-10 05:35:34.04	11.56	10.24	-27.0	-27.7	13.9	0.00e+00	0	41	0	281018368	14	3932
2026-01-10 05:35:35.04	11.50	10.32	-26.7	-27.2	14.2	2.20e-06	0	41	0	288358400	14	3801
2026-01-10 05:35:36.04	11.44	10.40	-26.7	-27.2	14.2	3.40e-06	0	41	0	295698432	14	3802
2026-01-10 05:35:37.04	11.38	10.48	-26.6	-26.9	14.3	4.50e-06	0	41	0	303038464	14	3732
2026-01-10 05:35:38.04	11.32	10.57	-26.9	-27.6	14.0	2.20e-06	0	41	0	310378496	14	3891
2026-01-10 05:35:39.05	11.26	10.65	-26.7	-27.0	14.2	2.20e-06	0	41	0	317718528	14	3767
2026-01-10 05:35:40.05	11.20	10.74	-26.5	-26.8	14.3	2.20e-06	0	41	0	325058560	14	3722
2026-01-10 05:35:41.06	11.14	10.82	-26.7	-27.1	14.1	2.20e-06	0	41	0	332398592	14	3791
2026-01-10 05:35:42.06	11.08	10.91	-26.9	-27.6	13.8	3.40e-06	0	41	0	338690048	14	3913
2026-01-10 05:35:43.06	11.02	10.99	-26.5	-26.8	14.1	1.10e-06	0	41	0	346030080	14	3719
2026-01-10 05:35:44.06	10.95	11.08	-26.3	-26.8	14.4	1.10e-06	0	41	0	353370112	13	3813
2026-01-10 05:35:45.06	10.89	11.16	-26.3	-26.8	14.5	3.40e-06	0	41	0	360710144	13	3810
2026-01-10 05:35:46.06	10.83	11.25	-26.2	-26.5	14.6	0.00e+00	0	41	0	368050176	13	3743
2026-01-10 05:35:47.06	10.76	11.33	-26.1	-26.3	14.8	0.00e+00	0	41	0	375390208	13	3687
2026-01-10 05:35:48.07	10.70	11.42	-26.4	-27.0	14.6	0.00e+00	0	41	0	382730240	13	3851
2026-01-10 05:35:49.07	10.64	11.51	-26.2	-26.5	14.8	0.00e+00	0	41	0	390070272	13	3745
2026-01-10 05:35:50.08	10.57	11.59	-26.2	-26.5	14.7	0.00e+00	0	41	0	397410304	13	3726
2026-01-10 05:35:51.08	10.51	11.68	-26.1	-26.3	14.8	0.00e+00	0	41	0	404750336	13	3686
2026-01-10 05:35:52.08	10.44	11.77	-26.2	-26.5	14.7	1.10e-06	0	41	0	412090368	13	3749
2026-01-10 05:35:53.08	10.37	11.85	-26.4	-27.0	14.4	0.00e+00	0	41	0	418381824	13	3873
2026-01-10 05:35:54.08	10.31	11.94	-26.4	-27.1	14.3	0.00e+00	0	41	0	425721856	13	3877
2026-01-10 05:35:55.09	10.24	12.03	-26.5	-27.2	14.2	2.20e-06	0	41	0	433061888	13	3924
2026-01-10 05:35:56.09	10.17	12.12	-26.4	-26.9	14.4	1.10e-06	0	41	0	440401920	13	3845
2026-01-10 05:35:57.09	10.10	12.21	-25.9	-26.0	14.9	0.00e+00	0	41	0	447741952	13	3623
2026-01-10 05:35:58.10	10.04	12.30	-26.1	-26.4	14.7	2.20e-06	0	41	0	455081984	13	3724
2026-01-10 05:35:59.10	9.97	12.39	-26.3	-26.9	14.4	0.00e+00	0	41	0	462422016	13	3828
2026-01-10 05:36:00.09	9.90	12.47	-26.5	-27.2	14.4	0.00e+00	0	41	0	469762048	13	3900
2026-01-10 05:36:01.09	9.83	12.56	-26.3	-26.8	14.7	0.00e+00	0	41	0	477102080	13	3805
2026-01-10 05:36:02.10	9.76	12.66	-26.4	-27.0	14.4	0.00e+00	0	41	0	483393536	13	3862
2026-01-10 05:36:03.09	9.69	12.74	-26.3	-26.8	14.5	0.00e+00	0	41	0	490733568	13	3819
2026-01-10 05:36:04.10	9.62	12.84	-26.0	-26.2	14.8	0.00e+00	0	41	0	498073600	13	3672
2026-01-10 05:36:05.10	9.55	12.93	-25.9	-26.3	15.0	0.00e+00	0	41	0	505413632	12	3803
2026-01-10 05:36:06.09	9.48	13.02	-26.0	-26.7	14.8	0.00e+00	0	41	0	512753664	12	3891
2026-01-10 05:36:07.09	9.40	13.11	-25.8	-26.3	15.0	0.00e+00	0	41	0	520093696	12	3800
2026-01-10 05:36:08.10	9.33	13.20	-26.0	-26.6	14.9	0.00e+00	0	42	0	527433728	12	3859
2026-01-10 05:36:09.10	9.26	13.29	-25.9	-26.4	15.0	1.10e-06	0	41	0	534773760	12	3811
2026-01-10 05:36:10.10	9.18	13.39	-25.7	-26.0	15.2	0.00e+00	0	41	0	542113792	12	3728
2026-01-10 05:36:11.10	9.11	13.48	-25.7	-25.9	15.2	0.00e+00	0	41	0	548405248	12	3704
2026-01-10 05:36:12.10	9.03	13.57	-25.5	-25.6	15.4	0.00e+00	0	41	0	555745280	12	3643
2026-01-10 05:36:13.10	8.96	13.66	-25.6	-25.8	15.3	0.00e+00	0	41	0	563085312	12	3673
2026-01-10 05:36:14.10	8.88	13.76	-25.6	-26.3	15.4	0.00e+00	0	41	0	570425344	11	3889
2026-01-10 05:36:15.10	8.81	13.85	-25.7	-26.5	15.3	0.00e+00	0	42	0	577765376	11	3934
2026-01-10 05:36:16.10	8.73	13.95	-25.6	-26.3	15.4	0.00e+00	0	42	0	585105408	11	3887
2026-01-10 05:36:17.11	8.65	14.04	-25.7	-26.4	15.3	0.00e+00	0	42	0	592445440	11	3923
2026-01-10 05:36:18.11	8.57	14.14	-25.5	-26.0	15.6	0.00e+00	0	42	0	599785472	11	3815
2026-01-10 05:36:19.11	8.50	14.23	-25.5	-25.9	15.6	0.00e+00	0	42	0	606076928	11	3804
2026-01-10 05:36:20.12	8.42	14.33	-25.5	-26.0	15.5	0.00e+00	0	42	0	613416960	11	3830
2026-01-10 05:36:21.11	8.34	14.42	-25.6	-26.2	15.5	0.00e+00	0	41	0	620756992	11	3867
2026-01-10 05:36:22.10	8.26	14.52	-25.7	-26.4	15.4	0.00e+00	0	42	0	628097024	11	3913
2026-01-10 05:36:23.11	8.18	14.61	-25.6	-26.1	15.7	0.00e+00	0	42	0	635437056	11	3848
2026-01-10 05:36:24.12	8.10	14.71	-25.3	-25.7	15.9	0.00e+00	0	42	0	642777088	11	3734
2026-01-10 05:36:25.12	8.01	14.81	-25.7	-26.3	15.6	0.00e+00	0	42	0	650117120	11	3887
2026-01-10 05:36:26.12	7.93	14.91	-25.6	-26.1	15.7	0.00e+00	0	42	0	657457152	11	3834
2026-01-10 05:36:27.12	7.85	15.00	-25.8	-26.6	15.5	0.00e+00	0	42	0	664797184	11	3964
2026-01-10 05:36:28.13	7.77	15.10	-25.4	-25.7	15.9	0.00e+00	0	42	0	672137216	11	3746
2026-01-10 05:36:29.13	7.68	15.20	-25.2	-25.4	16.1	0.00e+00	0	42	0	679477248	11	3666
2026-01-10 05:36:30.12	7.60	15.30	-25.2	-25.3	16.2	0.00e+00	0	42	0	685768704	11	3652
2026-01-10 05:36:31.12	7.51	15.40	-25.4	-25.7	16.0	0.00e+00	0	42	0	693108736	11	3738
2026-01-10 05:36:32.12	7.43	15.50	-25.4	-25.8	16.1	0.00e+00	0	41	0	700448768	11	3764
2026-01-10 05:36:33.12	7.34	15.60	-25.3	-25.6	16.1	0.00e+00	0	42	0	707788800	11	3711
2026-01-10 05:36:34.12	7.26	15.70	-25.7	-26.4	15.6	0.00e+00	0	42	0	715128832	11	3909
2026-01-10 05:36:35.12	7.17	15.80	-25.3	-25.7	16.0	0.00e+00	0	42	0	722468864	11	3748
2026-01-10 05:36:36.13	7.08	15.90	-25.5	-25.9	16.0	0.00e+00	0	42	0	729808896	11	3789
2026-01-10 05:36:37.13	6.99	16.00	-25.6	-26.1	15.9	0.00e+00	0	42	0	737148928	11	3835
2026-01-10 05:36:38.14	6.90	16.10	-25.4	-25.8	16.1	0.00e+00	0	42	0	744488960	11	3752
2026-01-10 05:36:39.14	6.81	16.20	-25.4	-25.8	16.0	0.00e+00	0	42	0	751828992	11	3773
2026-01-10 05:36:40.14	6.72	16.31	-25.4	-25.7	16.1	0.00e+00	0	42	0	758120448	11	3737
2026-01-10 05:36:41.15	6.63	16.41	-25.3	-25.6	16.2	0.00e+00	0	42	0	765460480	11	3713
2026-01-10 05:36:42.15	6.54	16.51	-25.4	-25.7	16.3	0.00e+00	0	42	0	772800512	11	3733
2026-01-10 05:36:43.14	6.45	16.61	-25.4	-25.8	16.1	0.00e+00	0	42	0	780140544	11	3764
2026-01-10 05:36:44.15	6.35	16.72	-25.3	-25.6	16.2	0.00e+00	0	42	0	787480576	11	3712
2026-01-10 05:36:45.16	6.26	16.82	-25.1	-25.0	16.5	0.00e+00	0	42	0	794820608	11	3575
2026-01-10 05:36:46.16	6.16	16.93	-25.3	-25.6	16.3	0.00e+00	0	42	0	802160640	11	3709
2026-01-10 05:36:47.16	6.07	17.03	-25.4	-25.7	16.1	0.00e+00	0	42	0	809500672	11	3737
2026-01-10 05:36:48.16	5.97	17.14	-25.2	-25.2	16.4	0.00e+00	0	42	0	815792128	11	3630
2026-01-10 05:36:49.17	5.87	17.24	-25.2	-25.4	16.2	0.00e+00	0	42	0	823132160	11	3661
2026-01-10 05:36:50.17	5.78	17.35	-25.4	-25.7	16.0	0.00e+00	0	42	0	830472192	11	3746
2026-01-10 05:36:51.17	5.68	17.46	-25.3	-25.5	16.3	0.00e+00	0	42	0	837812224	11	3683
2026-01-10 05:36:52.18	5.58	17.56	-25.4	-25.8	16.2	0.00e+00	0	42	0	845152256	11	3763
2026-01-10 05:36:53.18	5.48	17.67	-25.6	-26.1	16.0	0.00e+00	0	42	0	852492288	11	3829
2026-01-10 05:36:54.18	5.38	17.78	-25.6	-26.2	16.0	0.00e+00	0	42	0	859832320	11	3848
2026-01-10 05:36:55.18	5.28	17.88	-25.2	-25.3	16.4	0.00e+00	0	42	0	867172352	11	3641
2026-01-10 05:36:56.18	5.18	17.99	-24.8	-24.9	16.9	0.00e+00	0	42	0	874512384	10	3660
2026-01-10 05:36:57.19	5.08	18.10	-24.8	-24.9	16.9	0.00e+00	0	42	0	881852416	10	3652
2026-01-10 05:36:58.19	4.97	18.21	-24.8	-25.0	16.9	0.00e+00	0	42	0	889192448	10	3664
2026-01-10 05:36:59.19	4.87	18.32	-24.7	-24.7	16.9	0.00e+00	0	42	0	896532480	10	3611
2026-01-10 05:37:00.19	4.76	18.43	-24.8	-24.9	16.9	0.00e+00	0	42	0	902823936	10	3652
2026-01-10 05:37:01.20	4.66	18.54	-24.7	-24.7	17.0	0.00e+00	0	42	0	910163968	10	3603
2026-01-10 05:37:02.21	4.55	18.65	-24.4	-24.2	17.3	0.00e+00	0	42	0	917504000	10	3494
2026-01-10 05:37:03.21	4.44	18.76	-24.3	-24.4	17.4	0.00e+00	0	42	0	924844032	9	3638
2026-01-10 05:37:04.21	4.34	18.87	-24.6	-24.9	17.1	0.00e+00	0	42	0	932184064	9	3757
2026-01-10 05:37:05.21	4.23	18.98	-24.3	-24.4	17.4	0.00e+00	0	42	0	939524096	9	3636
2026-01-10 05:37:06.22	4.12	19.10	-24.4	-25.1	17.2	0.00e+00	0	42	0	946864128	8	3911
2026-01-10 05:37:07.21	4.01	19.21	-24.0	-24.4	17.6	0.00e+00	0	42	0	954204160	8	3743
2026-01-10 05:37:08.22	3.89	19.32	-24.2	-24.8	17.4	0.00e+00	0	42	0	961544192	8	3829
2026-01-10 05:37:09.22	3.78	19.44	-24.2	-24.6	17.5	0.00e+00	0	42	0	967835648	8	3797
2026-01-10 05:37:10.22	3.67	19.55	-24.3	-25.0	17.3	0.00e+00	0	42	0	976224256	8	3888
2026-01-10 05:37:11.23	3.55	19.66	-24.1	-24.6	17.5	0.00e+00	0	42	0	983564288	8	3794
2026-01-10 05:37:12.23	3.44	19.78	-24.0	-24.3	17.6	0.00e+00	0	42	0	989855744	8	3735
2026-01-10 05:37:13.23	3.32	19.89	-24.1	-24.6	17.4	0.00e+00	0	42	0	997195776	8	3795
2026-01-10 05:37:14.23	3.21	20.01	-24.2	-24.8	17.3	0.00e+00	0	42	0	1004535808	8	3840
2026-01-10 05:37:15.22	3.09	20.12	-24.1	-24.4	17.5	0.00e+00	0	42	0	1011875840	8	3751
2026-01-10 05:37:16.23	2.97	20.24	-23.8	-23.9	17.8	0.00e+00	0	42	0	1019215872	8	3627
2026-01-10 05:37:17.23	2.85	20.36	-23.8	-24.0	17.7	0.00e+00	0	42	0	1026555904	8	3650
2026-01-10 05:37:18.24	2.73	20.47	-23.8	-23.9	17.8	0.00e+00	0	42	0	1033895936	8	3642
2026-01-10 05:37:19.23	2.61	20.59	-23.8	-23.9	17.8	0.00e+00	0	42	0	1041235968	8	3639
2026-01-10 05:37:20.23	2.49	20.71	-23.7	-23.7	17.9	0.00e+00	0	42	0	1047527424	8	3589
2026-01-10 05:37:21.23	2.37	20.82	-23.4	-23.1	18.1	0.00e+00	0	42	0	1054867456	8	3473
2026-01-10 05:37:22.24	2.24	20.94	-23.5	-23.8	18.0	0.00e+00	0	42	0	1062207488	7	3722
2026-01-10 05:37:23.24	2.12	21.06	-23.3	-23.4	18.2	0.00e+00	0	42	0	1069547520	7	3618
2026-01-10 05:37:24.24	1.99	21.18	-23.2	-23.1	18.4	0.00e+00	0	42	0	1076887552	7	3555
2026-01-10 05:37:25.25	1.86	21.30	-23.4	-23.6	18.1	0.00e+00	0	42	0	1084227584	7	3661
2026-01-10 05:37:26.25	1.74	21.42	-23.5	-23.8	18.0	0.00e+00	0	42	0	1091567616	7	3720
2026-01-10 05:37:27.24	1.61	21.54	-23.3	-23.4	18.2	0.00e+00	0	42	0	1098907648	7	3637
2026-01-10 05:37:28.24	1.48	21.66	-23.5	-23.7	18.1	0.00e+00	0	42	0	1106247680	7	3697
2026-01-10 05:37:29.24	1.35	21.78	-23.7	-24.1	17.9	0.00e+00	0	42	0	1112539136	7	3779
2026-01-10 05:37:30.24	1.21	21.91	-24.0	-24.8	17.5	0.00e+00	0	42	0	1119879168	7	3941
2026-01-10 05:37:31.24	1.08	22.03	-23.7	-24.3	17.8	0.00e+00	0	42	0	1127219200	7	3823
2026-01-10 05:37:32.24	0.95	22.15	-24.2	-24.8	17.3	0.00e+00	0	42	0	1134559232	8	3840
2026-01-10 05:37:33.24	0.81	22.27	-23.9	-24.1	17.7	0.00e+00	0	42	0	1141899264	8	3684
2026-01-10 05:37:34.24	0.68	22.40	-23.9	-24.1	17.7	0.00e+00	0	42	0	1149239296	8	3672
2026-01-10 05:37:35.24	0.54	22.52	-23.9	-24.2	17.6	0.00e+00	0	42	0	1156579328	8	3702
2026-01-10 05:37:36.25	0.40	22.65	-23.9	-24.1	17.7	0.00e+00	0	42	0	1163919360	8	3683
2026-01-10 05:37:37.25	0.26	22.77	-24.1	-24.6	17.4	0.00e+00	0	42	0	1170210816	8	3796
2026-01-10 05:37:38.25	0.12	22.90	-23.9	-24.0	17.7	0.00e+00	0	42	0	1177550848	8	3665
2026-01-10 05:37:39.25	359.97	23.02	-24.0	-24.3	17.6	0.00e+00	0	42	0	1184890880	8	3727
2026-01-10 05:37:40.25	359.83	23.15	-23.7	-23.6	18.0	0.00e+00	0	42	0	1192230912	8	3567
2026-01-10 05:37:41.25	359.69	23.27	-23.6	-23.5	18.0	0.00e+00	0	42	0	1199570944	8	3543
2026-01-10 05:37:42.25	359.54	23.40	-23.5	-23.2	18.1	0.00e+00	0	42	0	1206910976	8	3493
2026-01-10 05:37:43.25	359.39	23.53	-23.5	-23.8	18.1	0.00e+00	0	42	0	1214251008	7	3716
2026-01-10 05:37:44.24	359.25	23.65	-23.6	-23.9	18.1	0.00e+00	0	42	0	1221591040	7	3739
2026-01-10 05:37:45.24	359.10	23.78	-23.7	-24.2	17.9	0.00e+00	0	42	0	1228931072	7	3806
2026-01-10 05:37:46.24	358.95	23.91	-23.6	-23.9	18.1	0.00e+00	0	42	0	1235222528	7	3732
2026-01-10 05:37:47.24	358.80	24.04	-23.7	-24.1	17.9	0.00e+00	0	42	0	1242562560	7	3792
2026-01-10 05:37:48.24	358.64	24.17	-23.9	-24.0	17.7	0.00e+00	0	42	0	1249902592	8	3669
2026-01-10 05:37:49.25	358.49	24.30	-24.2	-24.8	17.3	0.00e+00	0	42	0	1257242624	8	3834
2026-01-10 05:37:50.24	358.33	24.43	-24.0	-24.2	17.6	0.00e+00	0	42	0	1264582656	8	3714
2026-01-10 05:37:51.24	358.18	24.56	-24.0	-24.2	17.6	0.00e+00	0	42	0	1271922688	8	3711
2026-01-10 05:37:52.25	358.01	24.69	-24.0	-24.2	17.7	0.00e+00	0	42	0	1279262720	8	3703
2026-01-10 05:37:53.25	357.86	24.82	-24.0	-24.4	17.7	0.00e+00	0	42	0	1286602752	8	3749
2026-01-10 05:37:54.25	357.69	24.95	-24.3	-24.9	17.4	0.00e+00	0	42	0	1293942784	8	3863
2026-01-10 05:37:55.25	357.53	25.08	-24.3	-25.0	17.4	0.00e+00	0	42	0	1300234240	8	3882
2026-01-10 05:37:56.25	357.37	25.22	-24.5	-25.3	17.2	0.00e+00	0	42	0	1307574272	8	3961
2026-01-10 05:37:57.25	357.20	25.35	-24.4	-25.1	17.3	0.00e+00	0	42	0	1314914304	8	3913
2026-01-10 05:37:58.25	357.04	25.48	-24.9	-25.8	16.7	0.00e+00	0	42	0	1322254336	9	3960
2026-01-10 05:37:59.26	356.87	25.62	-24.5	-24.9	17.1	0.00e+00	0	42	0	1329594368	9	3759
2026-01-10 05:38:00.27	356.69	25.75	-24.6	-25.1	17.0	0.00e+00	0	42	0	1336934400	9	3806
2026-01-10 05:38:01.27	356.52	25.89	-24.8	-25.4	16.9	0.00e+00	0	42	0	1344274432	9	3865
2026-01-10 05:38:02.27	356.35	26.02	-24.6	-25.1	17.1	0.00e+00	0	42	0	1351614464	9	3799
2026-01-10 05:38:03.27	356.18	26.16	-24.5	-24.9	17.2	0.00e+00	0	42	0	1357905920	9	3759
2026-01-10 05:38:04.27	356.00	26.29	-24.4	-24.7	17.3	0.00e+00	0	42	0	1366294528	9	3706
2026-01-10 05:38:05.27	355.82	26.43	-24.4	-24.7	17.3	0.00e+00	0	42	0	1372585984	9	3704
2026-01-10 05:38:06.27	355.64	26.57	-24.4	-24.5	17.4	0.00e+00	0	42	0	1379926016	9	3677
2026-01-10 05:38:07.27	355.46	26.70	-24.3	-24.4	17.4	0.00e+00	0	42	0	1387266048	9	3642
2026-01-10 05:38:08.28	355.28	26.84	-24.4	-24.6	17.3	0.00e+00	0	42	0	1394606080	9	3680
2026-01-10 05:38:09.28	355.10	26.98	-24.7	-25.2	17.0	0.00e+00	0	42	0	1401946112	9	3835
2026-01-10 05:38:10.28	354.91	27.12	-24.6	-25.0	17.1	0.00e+00	0	42	0	1409286144	9	3775
2026-01-10 05:38:11.29	354.72	27.26	-24.0	-23.7	17.8	0.00e+00	0	42	0	1416626176	9	3497
2026-01-10 05:38:12.29	354.53	27.40	-23.9	-24.0	17.9	0.00e+00	0	42	0	1423966208	8	3661
2026-01-10 05:38:13.29	354.34	27.53	-23.8	-23.8	18.0	0.00e+00	0	42	0	1431306240	8	3619
2026-01-10 05:38:14.29	354.15	27.67	-23.8	-23.9	18.0	0.00e+00	0	42	0	1438646272	8	3642
2026-01-10 05:38:15.30	353.96	27.82	-23.8	-23.8	18.1	0.00e+00	0	42	0	1444937728	8	3607
2026-01-10 05:38:16.30	353.76	27.96	-23.8	-23.9	18.1	0.00e+00	0	42	0	1452277760	8	3630
2026-01-10 05:38:17.30	353.56	28.10	-23.7	-23.6	18.2	0.00e+00	0	42	0	1459617792	8	3563
2026-01-10 05:38:18.31	353.36	28.24	-23.6	-23.5	18.3	0.00e+00	0	42	0	1466957824	8	3544
2026-01-10 05:38:19.30	353.16	28.38	-23.3	-23.4	18.5	0.00e+00	0	42	0	1474297856	7	3618
2026-01-10 05:38:20.31	352.96	28.52	-23.5	-23.8	18.2	0.00e+00	0	42	0	1481637888	7	3713
2026-01-10 05:38:21.32	352.75	28.66	-23.4	-23.5	18.5	0.00e+00	0	42	0	1488977920	7	3642
2026-01-10 05:38:22.32	352.55	28.81	-23.4	-23.6	18.4	0.00e+00	0	42	0	1496317952	7	3665
2026-01-10 05:38:23.32	352.34	28.95	-23.5	-23.8	18.3	0.00e+00	0	42	0	1503657984	7	3713
2026-01-10 05:38:24.32	352.13	29.09	-23.3	-23.2	18.6	0.00e+00	0	42	0	1509949440	7	3582
2026-01-10 05:38:25.32	351.92	29.23	-23.3	-23.4	18.5	0.00e+00	0	42	0	1517289472	7	3621
2026-01-10 05:38:26.32	351.70	29.38	-23.3	-23.4	18.5	0.00e+00	0	42	0	1524629504	7	3621
2026-01-10 05:38:27.33	351.48	29.52	-23.4	-23.5	18.5	0.00e+00	0	42	0	1531969536	7	3644
2026-01-10 05:38:28.34	351.26	29.67	-23.5	-23.8	18.4	0.00e+00	0	42	0	1539309568	7	3702
2026-01-10 05:38:29.33	351.05	29.81	-23.2	-23.2	18.6	0.00e+00	0	42	0	1546649600	7	3577
2026-01-10 05:38:30.34	350.82	29.95	-23.1	-22.8	18.8	0.00e+00	0	42	0	1553989632	7	3504
2026-01-10 05:38:31.34	350.60	30.10	-23.1	-23.0	18.8	0.00e+00	0	42	0	1561329664	7	3534
2026-01-10 05:38:32.34	350.37	30.24	-23.3	-23.2	18.7	0.00e+00	0	42	0	1568669696	7	3583
2026-01-10 05:38:33.34	350.15	30.39	-23.1	-22.8	18.9	0.00e+00	0	42	0	1576009728	7	3496
2026-01-10 05:38:34.34	349.92	30.53	-23.0	-22.8	18.9	0.00e+00	0	42	0	1583349760	7	3484
2026-01-10 05:38:35.35	349.68	30.68	-23.1	-23.4	18.8	0.00e+00	0	42	0	1589641216	6	3731
2026-01-10 05:38:36.35	349.45	30.83	-23.3	-23.7	18.6	0.00e+00	0	42	0	1596981248	6	3792
2026-01-10 05:38:37.36	349.21	30.97	-23.1	-23.3	18.8	0.00e+00	0	42	0	1604321280	6	3703
2026-01-10 05:38:38.36	348.97	31.12	-23.2	-23.5	18.7	0.00e+00	0	42	0	1611661312	6	3748
2026-01-10 05:38:39.35	348.73	31.26	-23.2	-23.7	18.6	0.00e+00	0	42	0	1619001344	6	3791
2026-01-10 05:38:40.36	348.49	31.41	-23.2	-23.7	18.6	0.00e+00	0	42	0	1626341376	6	3787
2026-01-10 05:38:41.36	348.24	31.56	-23.3	-23.9	18.5	0.00e+00	0	42	0	1633681408	6	3828
2026-01-10 05:38:42.36	347.99	31.70	-23.3	-23.9	18.5	0.00e+00	0	42	0	1641021440	6	3833
2026-01-10 05:38:43.37	347.74	31.85	-23.5	-24.2	18.3	0.00e+00	0	42	0	1648361472	6	3906
2026-01-10 05:38:44.37	347.49	32.00	-23.6	-24.0	18.2	0.00e+00	0	42	0	1654652928	7	3748
2026-01-10 05:38:45.37	347.23	32.15	-23.6	-23.8	18.2	0.00e+00	0	42	0	1661992960	7	3718
2026-01-10 05:38:46.37	346.98	32.29	-23.3	-23.3	18.5	0.00e+00	0	42	0	1669332992	7	3607
2026-01-10 05:38:47.38	346.72	32.44	-23.4	-23.5	18.4	0.00e+00	0	42	0	1676673024	7	3642
2026-01-10 05:38:48.38	346.45	32.59	-23.6	-23.9	18.2	0.00e+00	0	42	0	1684013056	7	3727
2026-01-10 05:38:49.38	346.19	32.73	-23.5	-23.8	18.3	0.00e+00	0	42	0	1691353088	7	3699
2026-01-10 05:38:50.38	345.92	32.88	-23.5	-23.7	18.4	0.00e+00	0	42	0	1698693120	7	3686
2026-01-10 05:38:51.39	345.65	33.03	-23.5	-23.8	18.2	0.00e+00	0	42	0	1706033152	7	3705
2026-01-10 05:38:52.39	345.38	33.18	-23.6	-23.8	18.3	0.00e+00	0	42	0	1713373184	7	3714
2026-01-10 05:38:53.39	345.11	33.32	-23.5	-23.7	18.4	0.00e+00	0	42	0	1720713216	7	3683
2026-01-10 05:38:54.39	344.83	33.47	-23.5	-23.8	18.3	0.00e+00	0	42	0	1728053248	7	3707
2026-01-10 05:38:55.39	344.55	33.62	-23.5	-23.8	18.3	0.00e+00	0	42	0	1735393280	7	3699
2026-01-10 05:38:56.39	344.27	33.77	-23.4	-23.4	18.5	0.00e+00	0	42	0	1741684736	7	3629
2026-01-10 05:38:57.39	343.99	33.91	-22.9	-22.6	18.9	0.00e+00	0	42	0	1749024768	7	3445
2026-01-10 05:38:58.40	343.70	34.06	-22.9	-22.4	19.0	0.00e+00	0	42	0	1756364800	7	3420
2026-01-10 05:38:59.40	343.41	34.21	-22.8	-22.8	19.0	0.00e+00	0	42	0	1763704832	6	3606
2026-01-10 05:39:00.40	343.12	34.35	-22.9	-22.9	19.0	0.00e+00	0	42	0	1771044864	6	3616
2026-01-10 05:39:01.41	342.82	34.50	-22.9	-22.9	18.9	0.00e+00	0	42	0	1778384896	6	3622
2026-01-10 05:39:02.40	342.52	34.64	-22.6	-22.3	19.3	0.00e+00	0	42	0	1785724928	6	3477
2026-01-10 05:39:03.40	342.22	34.79	-22.5	-22.2	19.3	0.00e+00	0	42	0	1793064960	6	3475
2026-01-10 05:39:04.40	341.92	34.94	-22.6	-22.3	19.2	0.00e+00	0	42	0	1799356416	6	3478
2026-01-10 05:39:05.40	341.62	35.08	-22.7	-22.5	19.1	0.00e+00	0	42	0	1806696448	6	3517
2026-01-10 05:39:06.40	341.31	35.23	-22.9	-23.1	18.9	0.00e+00	0	42	0	1814036480	6	3656
2026-01-10 05:39:07.40	341.00	35.37	-23.0	-23.2	18.8	0.00e+00	0	42	0	1821376512	6	3684
2026-01-10 05:39:08.40	340.68	35.52	-23.1	-23.3	18.7	0.00e+00	0	42	0	1828716544	6	3708
2026-01-10 05:39:09.40	340.37	35.66	-23.1	-23.5	18.7	0.00e+00	0	42	0	1836056576	6	3744
2026-01-10 05:39:10.40	340.05	35.80	-23.4	-24.1	18.4	0.00e+00	0	42	0	1843396608	6	3885
2026-01-10 05:39:11.41	339.72	35.95	-23.3	-23.9	18.5	0.00e+00	0	42	0	1850736640	6	3840
2026-01-10 05:39:12.41	339.40	36.09	-23.5	-24.2	18.3	0.00e+00	0	42	0	1858076672	6	3915
2026-01-10 05:39:13.42	339.07	36.24	-23.5	-23.7	18.3	0.00e+00	0	42	0	1864368128	7	3696
2026-01-10 05:39:14.42	338.73	36.38	-23.4	-23.5	18.4	0.00e+00	0	42	0	1871708160	7	3638
2026-01-10 05:39:15.42	338.40	36.52	-23.5	-23.7	18.3	0.00e+00	0	42	0	1879048192	7	3696
2026-01-10 05:39:16.43	338.06	36.66	-23.4	-23.4	18.4	0.00e+00	0	42	0	1886388224	7	3639
2026-01-10 05:39:17.43	337.72	36.80	-23.4	-23.4	18.4	0.00e+00	0	42	0	1893728256	7	3633
2026-01-10 05:39:18.43	337.38	36.94	-23.4	-23.5	18.4	0.00e+00	0	42	0	1901068288	7	3640
2026-01-10 05:39:19.43	337.03	37.08	-23.4	-23.5	18.4	0.00e+00	0	42	0	1908408320	7	3640
2026-01-10 05:39:20.43	336.68	37.22	-23.3	-23.4	18.4	0.00e+00	0	42	0	1915748352	7	3621
2026-01-10 05:39:21.44	336.33	37.36	-23.4	-23.5	18.4	0.00e+00	0	42	0	1923088384	7	3656
2026-01-10 05:39:22.43	335.98	37.50	-23.4	-23.4	18.4	0.00e+00	0	42	0	1930428416	7	3631
2026-01-10 05:39:23.44	335.62	37.63	-23.4	-23.5	18.3	0.00e+00	0	42	0	1937768448	7	3654
2026-01-10 05:39:24.44	335.25	37.77	-23.2	-23.1	18.5	0.00e+00	0	42	0	1944059904	7	3569
2026-01-10 05:39:25.45	334.89	37.91	-23.1	-22.9	18.7	0.00e+00	0	42	0	1951399936	7	3508
2026-01-10 05:39:26.45	334.52	38.04	-23.2	-23.0	18.6	0.00e+00	0	42	0	1958739968	7	3541
2026-01-10 05:39:27.45	334.15	38.17	-23.2	-23.1	18.6	0.00e+00	0	42	0	1966080000	7	3559
2026-01-10 05:39:28.45	333.78	38.31	-23.2	-23.2	18.5	0.00e+00	0	42	0	1973420032	7	3575
2026-01-10 05:39:29.45	333.40	38.44	-23.1	-22.9	18.6	0.00e+00	0	42	0	1980760064	7	3522
2026-01-10 05:39:30.45	333.02	38.57	-23.0	-22.7	18.8	0.00e+00	0	42	0	1988100096	7	3476
2026-01-10 05:39:31.46	332.64	38.70	-22.9	-22.5	18.8	0.00e+00	0	42	0	1995440128	7	3440
2026-01-10 05:39:32.46	332.25	38.83	-22.8	-22.7	19.0	0.00e+00	0	42	0	2002780160	6	3565
2026-01-10 05:39:33.47	331.86	38.96	-23.0	-23.1	18.8	0.00e+00	0	42	0	2009071616	6	3666
2026-01-10 05:39:34.46	331.47	39.09	-23.1	-23.4	18.7	0.00e+00	0	42	0	2016411648	6	3717
2026-01-10 05:39:35.47	331.07	39.21	-23.2	-23.7	18.5	0.00e+00	0	42	0	2023751680	6	3790
2026-01-10 05:39:36.47	330.67	39.34	-23.5	-23.8	18.2	0.00e+00	0	42	0	2031091712	7	3713
2026-01-10 05:39:37.47	330.27	39.46	-23.7	-24.2	18.0	0.00e+00	0	42	0	2038431744	7	3810
2026-01-10 05:39:38.47	329.87	39.58	-23.6	-24.0	18.1	0.00e+00	0	42	0	2045771776	7	3765
2026-01-10 05:39:39.47	329.46	39.71	-23.6	-24.0	18.1	0.00e+00	0	42	0	2053111808	7	3759
2026-01-10 05:39:40.48	329.05	39.83	-23.5	-23.6	18.3	0.00e+00	0	42	0	2060451840	7	3680
2026-01-10 05:39:41.48	328.63	39.95	-23.1	-22.9	18.6	0.00e+00	0	42	0	2067791872	7	3522
2026-01-10 05:39:42.48	328.22	40.06	-22.9	-22.9	18.9	0.00e+00	0	42	0	2075131904	6	3623
2026-01-10 05:39:43.48	327.80	40.18	-22.8	-22.8	19.0	0.00e+00	0	42	0	2082471936	6	3588
2026-01-10 05:39:44.48	327.37	40.29	-22.9	-22.9	18.8	0.00e+00	0	42	0	2089811968	6	3621
2026-01-10 05:39:45.48	326.95	40.41	-22.9	-22.9	18.9	0.00e+00	0	42	0	2096103424	6	3623
2026-01-10 05:39:46.48	326.52	40.52	-22.9	-22.9	18.9	0.00e+00	0	42	0	2103443456	6	3623
2026-01-10 05:39:47.48	326.09	40.63	-23.1	-23.4	18.7	0.00e+00	0	42	0	2110783488	6	3728
2026-01-10 05:39:48.48	325.66	40.74	-23.0	-23.2	18.7	0.00e+00	0	42	0	2118123520	6	3684
2026-01-10 05:39:49.48	325.22	40.85	-22.9	-23.0	18.8	0.00e+00	0	42	0	2125463552	6	3640
2026-01-10 05:39:50.48	324.78	40.95	-23.0	-23.3	18.7	0.00e+00	0	42	0	2132803584	6	3695
2026-01-10 05:39:51.48	324.33	41.06	-23.1	-23.4	18.6	0.00e+00	0	42	0	2140143616	6	3720
2026-01-10 05:39:52.48	323.89	41.16	-23.2	-23.6	18.5	0.00e+00	0	42	0	2147483648	6	3780
2026-01-10 05:39:53.49	323.44	41.26	-23.4	-24.0	18.3	0.00e+00	0	42	0	2153775104	6	3856
2026-01-10 05:39:54.49	322.98	41.36	-23.5	-24.2	18.2	0.00e+00	0	42	0	2161115136	6	3917
2026-01-10 05:39:55.50	322.53	41.46	-23.6	-24.4	18.1	0.00e+00	0	42	0	2168455168	6	3948
2026-01-10 05:39:56.49	322.07	41.55	-23.6	-24.0	18.1	0.00e+00	0	42	0	2175795200	7	3754
2026-01-10 05:39:57.50	321.61	41.65	-23.4	-23.5	18.4	0.00e+00	0	42	0	2183135232	7	3640
2026-01-10 05:39:58.50	321.15	41.74	-23.4	-23.6	18.3	0.00e+00	0	42	0	2190475264	7	3662
2026-01-10 05:39:59.50	320.68	41.83	-23.5	-23.8	18.2	0.00e+00	0	42	0	2197815296	7	3702
2026-01-10 05:40:00.51	320.21	41.92	-23.5	-23.6	18.3	0.00e+00	0	42	0	2205155328	7	3675
2026-01-10 05:40:01.50	319.74	42.00	-23.2	-23.2	18.5	0.00e+00	0	42	0	2212495360	7	3574
2026-01-10 05:40:02.50	319.27	42.09	-23.3	-23.4	18.4	0.00e+00	0	42	0	2218786816	7	3629
2026-01-10 05:40:03.51	318.79	42.17	-23.4	-23.4	18.4	0.00e+00	0	42	0	2226126848	7	3636
2026-01-10 05:40:04.50	318.32	42.25	-23.2	-23.0	18.6	0.00e+00	0	42	0	2233466880	7	3542
2026-01-10 05:40:05.50	317.84	42.33	-23.3	-23.3	18.4	0.00e+00	0	42	0	2240806912	7	3608
2026-01-10 05:40:06.50	317.35	42.40	-23.3	-23.3	18.5	0.00e+00	0	42	0	2248146944	7	3597
2026-01-10 05:40:07.51	316.86	42.48	-23.5	-23.7	18.3	0.00e+00	0	42	0	2255486976	7	3689
2026-01-10 05:40:08.51	316.38	42.55	-23.5	-23.7	18.3	0.00e+00	0	42	0	2262827008	7	3690
2026-01-10 05:40:09.51	315.89	42.62	-23.2	-23.2	18.5	0.00e+00	0	42	0	2270167040	7	3574
2026-01-10 05:40:10.51	315.40	42.68	-23.2	-23.2	18.5	0.00e+00	0	42	0	2277507072	7	3572
2026-01-10 05:40:11.52	314.90	42.75	-23.2	-23.1	18.5	0.00e+00	0	42	0	2283798528	7	3567
2026-01-10 05:40:12.52	314.40	42.81	-23.3	-23.2	18.4	0.00e+00	0	42	0	2291138560	7	3588
2026-01-10 05:40:13.52	313.91	42.87	-23.4	-23.5	18.3	0.00e+00	0	42	0	2298478592	7	3651
2026-01-10 05:40:14.52	313.41	42.93	-23.5	-23.7	18.3	0.00e+00	0	42	0	2305818624	7	3682
2026-01-10 05:40:15.53	312.90	42.98	-23.5	-23.7	18.2	0.00e+00	0	42	0	2313158656	7	3691
2026-01-10 05:40:16.52	312.40	43.04	-23.5	-23.7	18.2	0.00e+00	0	42	0	2320498688	7	3702
2026-01-10 05:40:17.52	311.90	43.09	-23.5	-23.7	18.2	0.00e+00	0	42	0	2327838720	7	3700
2026-01-10 05:40:18.53	311.39	43.14	-23.3	-23.4	18.4	0.00e+00	0	42	0	2335178752	7	3617
2026-01-10 05:40:19.53	310.88	43.18	-23.4	-23.6	18.3	0.00e+00	0	42	0	2342518784	7	3662
2026-01-10 05:40:20.53	310.37	43.22	-23.2	-23.1	18.6	0.00e+00	0	42	0	2349858816	7	3549
2026-01-10 05:40:21.52	309.87	43.26	-23.0	-22.6	18.9	0.00e+00	0	42	0	2356150272	7	3450
2026-01-10 05:40:22.53	309.35	43.30	-23.0	-22.6	18.8	0.00e+00	0	42	0	2363490304	7	3452
2026-01-10 05:40:23.53	308.84	43.34	-23.1	-22.9	18.7	0.00e+00	0	42	0	2370830336	7	3518
2026-01-10 05:40:24.54	308.32	43.37	-23.2	-23.1	18.6	0.00e+00	0	42	0	2378170368	7	3559
2026-01-10 05:40:25.54	307.81	43.40	-23.3	-23.3	18.5	0.00e+00	0	42	0	2385510400	7	3607
2026-01-10 05:40:26.54	307.29	43.43	-23.4	-23.5	18.3	0.00e+00	0	42	0	2392850432	7	3656
2026-01-10 05:40:27.54	306.77	43.46	-23.4	-23.6	18.3	0.00e+00	0	42	0	2400190464	7	3664
2026-01-10 05:40:28.54	306.26	43.48	-23.3	-23.3	18.5	0.00e+00	0	42	0	2407530496	7	3606
2026-01-10 05:40:29.53	305.74	43.50	-23.2	-23.1	18.6	0.00e+00	0	42	0	2414870528	7	3565
2026-01-10 05:40:30.53	305.23	43.52	-23.3	-23.3	18.5	0.00e+00	0	42	0	2422210560	7	3594
2026-01-10 05:40:31.53	304.71	43.53	-23.4	-23.5	18.4	0.00e+00	0	42	0	2428502016	7	3637
2026-01-10 05:40:32.53	304.19	43.54	-23.3	-23.4	18.5	0.00e+00	0	42	0	2435842048	7	3616
2026-01-10 05:40:33.54	303.66	43.55	-23.5	-23.8	18.2	0.00e+00	0	42	0	2443182080	7	3713
2026-01-10 05:40:34.54	303.14	43.56	-23.6	-23.9	18.2	0.00e+00	0	42	0	2450522112	7	3744
2026-01-10 05:40:35.55	302.62	43.56	-23.6	-23.9	18.2	0.00e+00	0	42	0	2457862144	7	3740
2026-01-10 05:40:36.55	302.10	43.57	-23.4	-23.4	18.4	0.00e+00	0	42	0	2465202176	7	3628
2026-01-10 05:40:37.55	301.58	43.56	-23.4	-23.5	18.4	0.00e+00	0	42	0	2472542208	7	3645
2026-01-10 05:40:38.54	301.06	43.56	-23.3	-23.2	18.5	0.00e+00	0	42	0	2479882240	7	3584
2026-01-10 05:40:39.54	300.54	43.55	-23.2	-23.0	18.6	0.00e+00	0	42	0	2487222272	7	3545
2026-01-10 05:40:40.54	300.02	43.55	-23.2	-23.2	18.5	0.00e+00	0	42	0	2493513728	7	3576
2026-01-10 05:40:41.54	299.50	43.53	-23.3	-23.3	18.5	0.00e+00	0	42	0	2500853760	7	3599
2026-01-10 05:40:42.54	298.98	43.52	-23.3	-23.4	18.4	0.00e+00	0	42	0	2508193792	7	3631
2026-01-10 05:40:43.54	298.46	43.50	-23.3	-23.4	18.4	0.00e+00	0	42	0	2515533824	7	3624
2026-01-10 05:40:44.54	297.94	43.48	-23.5	-23.7	18.2	0.00e+00	0	42	0	2522873856	7	3692
2026-01-10 05:40:45.53	297.43	43.46	-23.3	-23.2	18.4	0.00e+00	0	42	0	2530213888	7	3586
2026-01-10 05:40:46.54	296.91	43.44	-23.4	-23.6	18.3	0.00e+00	0	42	0	2537553920	7	3675
2026-01-10 05:40:47.54	296.39	43.41	-23.3	-23.4	18.3	0.00e+00	0	42	0	2544893952	7	3625
2026-01-10 05:40:48.55	295.87	43.38	-23.0	-22.7	18.8	0.00e+00	0	42	0	2551185408	7	3471
2026-01-10 05:40:49.55	295.36	43.35	-22.8	-22.8	18.9	0.00e+00	0	42	0	2558525440	6	3602
2026-01-10 05:40:50.55	294.85	43.31	-22.7	-22.6	19.0	0.00e+00	0	42	0	2565865472	6	3556
2026-01-10 05:40:51.55	294.33	43.27	-22.9	-23.0	18.8	0.00e+00	0	42	0	2573205504	6	3644
2026-01-10 05:40:52.56	293.82	43.23	-22.9	-23.1	18.8	0.00e+00	0	42	0	2580545536	6	3648
2026-01-10 05:40:53.56	293.31	43.19	-23.0	-23.2	18.7	0.00e+00	0	42	0	2587885568	6	3671
2026-01-10 05:40:54.56	292.80	43.14	-23.0	-23.2	18.7	0.00e+00	0	42	0	2595225600	6	3687
2026-01-10 05:40:55.56	292.29	43.10	-22.8	-22.8	18.9	0.00e+00	0	42	0	2602565632	6	3603
2026-01-10 05:40:56.56	291.79	43.05	-22.8	-22.9	18.9	0.00e+00	0	42	0	2609905664	6	3607
2026-01-10 05:40:57.56	291.29	42.99	-23.0	-23.1	18.7	0.00e+00	0	42	0	2616197120	6	3653
2026-01-10 05:40:58.57	290.78	42.94	-23.1	-23.5	18.6	0.00e+00	0	42	0	2623537152	6	3742
2026-01-10 05:40:59.56	290.28	42.88	-23.0	-23.3	18.7	0.00e+00	0	42	0	2630877184	6	3699
2026-01-10 05:41:00.57	289.78	42.82	-22.8	-22.8	18.9	0.00e+00	0	42	0	2638217216	6	3601
2026-01-10 05:41:01.57	289.29	42.76	-23.0	-23.1	18.7	0.00e+00	0	42	0	2645557248	6	3670
2026-01-10 05:41:02.57	288.79	42.70	-22.9	-23.0	18.8	0.00e+00	0	42	0	2652897280	6	3641
2026-01-10 05:41:03.58	288.29	42.63	-22.7	-22.5	19.0	0.00e+00	0	42	0	2660237312	6	3534
2026-01-10 05:41:04.57	287.81	42.56	-22.7	-22.6	19.0	0.00e+00	0	42	0	2667577344	6	3542
2026-01-10 05:41:05.58	287.32	42.49	-22.6	-22.3	19.1	0.00e+00	0	42	0	2674917376	6	3489
2026-01-10 05:41:06.58	286.83	42.41	-22.7	-22.5	19.1	0.00e+00	0	42	0	2682257408	6	3526
2026-01-10 05:41:07.59	286.34	42.34	-22.7	-22.5	19.1	0.00e+00	0	42	0	2689597440	6	3531
2026-01-10 05:41:08.59	285.86	42.26	-22.8	-22.8	18.8	0.00e+00	0	42	0	2695888896	6	3599
2026-01-10 05:41:09.59	285.38	42.18	-23.3	-23.8	18.4	0.00e+00	0	42	0	2703228928	6	3819
2026-01-10 05:41:10.59	284.90	42.10	-23.1	-23.5	18.5	0.00e+00	0	42	0	2710568960	6	3747
2026-01-10 05:41:11.59	284.43	42.02	-22.9	-22.9	18.8	0.00e+00	0	42	0	2717908992	6	3621
2026-01-10 05:41:12.59	283.96	41.93	-22.7	-22.5	19.0	0.00e+00	0	42	0	2725249024	6	3538
2026-01-10 05:41:13.59	283.49	41.84	-22.8	-22.8	18.8	0.00e+00	0	42	0	2732589056	6	3599
2026-01-10 05:41:14.59	283.02	41.75	-22.8	-22.7	18.9	0.00e+00	0	42	0	2739929088	6	3572
2026-01-10 05:41:15.59	282.56	41.66	-23.1	-23.3	18.6	0.00e+00	0	42	0	2747269120	6	3714
2026-01-10 05:41:16.59	282.10	41.57	-22.9	-23.0	18.8	0.00e+00	0	42	0	2754609152	6	3631
2026-01-10 05:41:17.59	281.64	41.47	-22.6	-22.5	19.0	0.00e+00	0	42	0	2760900608	6	3523
2026-01-10 05:41:18.59	281.18	41.37	-22.6	-22.4	19.0	0.00e+00	0	42	0	2768240640	6	3515
2026-01-10 05:41:19.59	280.73	41.28	-22.6	-22.4	19.1	0.00e+00	0	42	0	2775580672	6	3500
2026-01-10 05:41:20.59	280.28	41.17	-22.6	-22.4	19.0	0.00e+00	0	42	0	2782920704	6	3511
2026-01-10 05:41:21.59	279.83	41.07	-22.8	-22.7	18.9	0.00e+00	0	42	0	2790260736	6	3573
2026-01-10 05:41:22.59	279.39	40.97	-22.8	-22.8	18.8	0.00e+00	0	42	0	2797600768	6	3594
2026-01-10 05:41:23.60	278.94	40.86	-23.0	-23.1	18.7	0.00e+00	0	42	0	2804940800	6	3663
2026-01-10 05:41:24.60	278.50	40.75	-22.9	-23.1	18.7	0.00e+00	0	42	0	2812280832	6	3655
2026-01-10 05:41:25.60	278.07	40.65	-23.0	-23.2	18.6	0.00e+00	0	42	0	2819620864	6	3687
2026-01-10 05:41:26.61	277.63	40.53	-23.1	-23.4	18.5	0.00e+00	0	42	0	2825912320	6	3720
2026-01-10 05:41:27.61	277.20	40.42	-23.1	-23.5	18.4	0.00e+00	0	43	0	2833252352	6	3752
2026-01-10 05:41:28.62	276.77	40.31	-23.2	-23.6	18.4	0.00e+00	0	42	0	2840592384	6	3762
2026-01-10 05:41:29.61	276.35	40.19	-23.0	-23.1	18.6	0.00e+00	0	42	0	2847932416	6	3669
2026-01-10 05:41:30.62	275.92	40.08	-22.9	-22.9	18.7	0.00e+00	0	42	0	2855272448	6	3624
2026-01-10 05:41:31.62	275.51	39.96	-22.8	-22.9	18.8	0.00e+00	0	42	0	2862612480	6	3611
2026-01-10 05:41:32.63	275.09	39.84	-23.0	-23.2	18.6	0.00e+00	0	42	0	2869952512	6	3683
2026-01-10 05:41:33.64	274.67	39.72	-23.1	-23.3	18.6	0.00e+00	0	42	0	2877292544	6	3714
2026-01-10 05:41:34.64	274.26	39.59	-23.2	-23.7	18.3	0.00e+00	0	42	0	2884632576	6	3798
2026-01-10 05:41:35.65	273.85	39.47	-23.2	-23.6	18.3	0.00e+00	0	43	0	2891972608	6	3785
2026-01-10 05:41:36.65	273.45	39.35	-23.1	-23.5	18.5	0.00e+00	0	42	0	2899312640	6	3753
2026-01-10 05:41:37.66	273.05	39.22	-23.2	-23.5	18.4	0.00e+00	0	42	0	2905604096	6	3756
2026-01-10 05:41:38.65	272.65	39.10	-23.0	-23.2	18.6	0.00e+00	0	43	0	2912944128	6	3680
2026-01-10 05:41:39.66	272.26	38.97	-22.8	-22.9	18.8	0.00e+00	0	42	0	2920284160	6	3610
2026-01-10 05:41:40.66	271.87	38.84	-22.9	-23.1	18.7	0.00e+00	0	42	0	2927624192	6	3656
2026-01-10 05:41:41.66	271.48	38.71	-23.0	-23.2	18.6	0.00e+00	0	43	0	2934964224	6	3696
2026-01-10 05:41:42.66	271.10	38.58	-23.0	-23.2	18.6	0.00e+00	0	42	0	2942304256	6	3681
2026-01-10 05:41:43.67	270.71	38.45	-22.8	-22.7	18.8	0.00e+00	0	42	0	2949644288	6	3582
2026-01-10 05:41:44.67	270.33	38.31	-22.9	-22.9	18.7	0.00e+00	0	43	0	2956984320	6	3626
2026-01-10 05:41:45.67	269.96	38.18	-22.8	-22.7	18.9	0.00e+00	0	42	0	2964324352	6	3582
2026-01-10 05:41:46.67	269.59	38.05	-22.7	-22.6	18.9	0.00e+00	0	42	0	2970615808	6	3554
2026-01-10 05:41:47.67	269.22	37.91	-22.6	-22.3	19.0	0.00e+00	0	42	0	2977955840	6	3490
2026-01-10 05:41:48.68	268.85	37.77	-22.7	-22.6	18.9	0.00e+00	0	42	0	2986344448	6	3553
2026-01-10 05:41:49.68	268.49	37.64	-22.9	-23.0	18.7	0.00e+00	0	42	0	2992635904	6	3650
2026-01-10 05:41:50.68	268.13	37.50	-22.9	-23.1	18.7	0.00e+00	0	42	0	2999975936	6	3656
2026-01-10 05:41:51.68	267.77	37.36	-22.9	-23.1	18.6	0.00e+00	0	42	0	3007315968	6	3666
2026-01-10 05:41:52.68	267.42	37.22	-23.0	-23.2	18.6	0.00e+00	0	42	0	3014656000	6	3675
2026-01-10 05:41:53.69	267.06	37.08	-23.0	-23.1	18.6	0.00e+00	0	42	0	3021996032	6	3674
2026-01-10 05:41:54.69	266.72	36.94	-22.9	-22.9	18.7	0.00e+00	0	42	0	3029336064	6	3621
2026-01-10 05:41:55.69	266.37	36.80	-22.7	-22.5	18.9	0.00e+00	0	42	0	3036676096	6	3537
2026-01-10 05:41:56.69	266.03	36.66	-22.7	-22.5	18.9	0.00e+00	0	42	0	3044016128	6	3536
2026-01-10 05:41:57.70	265.69	36.52	-22.7	-22.5	18.9	0.00e+00	0	42	0	3051356160	6	3537
2026-01-10 05:41:58.69	265.36	36.38	-23.0	-23.1	18.3	0.00e+00	0	42	0	3057647616	6	3673
2026-01-10 05:41:59.69	265.03	36.24	-22.6	-22.4	19.0	0.00e+00	0	42	0	3064987648	6	3514
2026-01-10 05:42:00.70	264.69	36.09	-22.3	-22.3	19.3	0.00e+00	0	42	0	3072327680	5	3592
2026-01-10 05:42:01.70	264.37	35.95	-22.4	-22.4	19.2	0.00e+00	0	43	0	3079667712	5	3620
2026-01-10 05:42:02.71	264.04	35.80	-22.4	-22.4	19.2	0.00e+00	0	42	0	3087007744	5	3616
2026-01-10 05:42:03.71	263.72	35.66	-22.4	-22.5	19.1	0.00e+00	0	42	0	3094347776	5	3643
2026-01-10 05:42:04.71	263.40	35.51	-22.6	-22.8	19.0	0.00e+00	0	42	0	3101687808	5	3712
2026-01-10 05:42:05.72	263.08	35.37	-22.8	-23.3	18.8	0.00e+00	0	42	0	3109027840	5	3809
2026-01-10 05:42:06.72	262.77	35.22	-22.8	-23.4	18.7	0.00e+00	0	43	0	3115319296	5	3829
2026-01-10 05:42:07.72	262.46	35.08	-22.9	-23.5	18.6	0.00e+00	0	42	0	3122659328	5	3864
2026-01-10 05:42:08.73	262.15	34.93	-22.7	-23.1	18.6	0.00e+00	0	42	0	3131047936	5	3768
2026-01-10 05:42:09.72	261.85	34.79	-22.6	-22.9	19.0	0.00e+00	0	43	0	3137339392	5	3710
2026-01-10 05:42:10.72	261.55	34.64	-22.6	-22.9	18.9	0.00e+00	0	42	0	3144679424	5	3727
2026-01-10 05:42:11.73	261.25	34.49	-22.7	-23.0	18.9	0.00e+00	0	42	0	3152019456	5	3750
2026-01-10 05:42:12.73	260.95	34.34	-22.6	-22.9	19.0	0.00e+00	0	42	0	3159359488	5	3710
2026-01-10 05:42:13.74	260.65	34.20	-22.6	-22.9	18.9	0.00e+00	0	42	0	3166699520	5	3732
2026-01-10 05:42:14.73	260.37	34.05	-22.8	-23.3	18.7	0.00e+00	0	42	0	3174039552	5	3817
2026-01-10 05:42:15.73	260.08	33.90	-22.9	-23.4	18.7	0.00e+00	0	42	0	3181379584	5	3839
2026-01-10 05:42:16.73	259.79	33.76	-23.0	-23.6	18.5	0.00e+00	0	43	0	3188719616	5	3890
2026-01-10 05:42:17.73	259.51	33.61	-23.0	-23.6	18.5	0.00e+00	0	43	0	3196059648	5	3892
2026-01-10 05:42:18.73	259.23	33.46	-23.3	-23.7	18.3	3.40e-06	0	43	0	3202351104	6	3806
2026-01-10 05:42:19.74	258.95	33.31	-23.3	-23.9	18.2	0.00e+00	0	42	0	3209691136	6	3850
2026-01-10 05:42:20.74	258.67	33.16	-23.7	-24.3	17.8	0.00e+00	0	42	0	3217031168	7	3822
2026-01-10 05:42:21.75	258.40	33.01	-23.6	-23.9	18.0	2.20e-06	0	42	0	3224371200	7	3726
2026-01-10 05:42:22.74	258.13	32.87	-23.2	-23.1	18.4	0.00e+00	0	42	0	3231711232	7	3557
2026-01-10 05:42:23.75	257.86	32.72	-23.0	-22.7	18.6	0.00e+00	0	43	0	3239051264	7	3473
2026-01-10 05:42:24.75	257.60	32.57	-22.9	-22.9	18.7	0.00e+00	0	43	0	3246391296	6	3623
2026-01-10 05:42:25.75	257.33	32.42	-23.6	-24.0	17.9	0.00e+00	0	42	0	3253731328	7	3760
2026-01-10 05:42:26.75	257.07	32.28	-23.7	-24.1	17.9	0.00e+00	0	42	0	3260022784	7	3784
2026-01-10 05:42:27.75	256.81	32.13	-23.2	-23.2	18.4	0.00e+00	0	42	0	3267362816	7	3579
2026-01-10 05:42:28.76	256.56	31.98	-23.0	-22.7	18.6	0.00e+00	0	42	0	3274702848	7	3471
2026-01-10 05:42:29.75	256.31	31.83	-23.2	-23.2	18.3	0.00e+00	0	42	0	3282042880	7	3575
2026-01-10 05:42:30.76	256.05	31.68	-23.1	-23.0	18.5	0.00e+00	0	42	0	3289382912	7	3535
2026-01-10 05:42:31.76	255.80	31.54	-23.0	-22.7	18.6	0.00e+00	0	42	0	3296722944	7	3476
2026-01-10 05:42:32.76	255.56	31.39	-22.6	-22.5	19.0	0.00e+00	0	42	0	3304062976	6	3520
2026-01-10 05:42:33.76	255.31	31.24	-21.9	-21.8	19.3	0.00e+00	0	42	0	3311403008	5	3588
2026-01-10 05:42:34.77	255.07	31.10	-22.5	-22.8	19.0	0.00e+00	0	42	0	3318743040	5	3693
2026-01-10 05:42:35.78	254.83	30.95	-22.5	-22.8	19.0	0.00e+00	0	42	0	3326083072	5	3688
2026-01-10 05:42:36.77	254.59	30.80	-22.7	-23.1	18.9	1.10e-06	0	42	0	3332374528	5	3772
2026-01-10 05:42:37.78	254.35	30.66	-23.2	-23.5	18.4	0.00e+00	0	42	0	3340763136	6	3759
2026-01-10 05:42:38.78	254.12	30.51	-23.3	-23.7	18.4	0.00e+00	0	42	0	3347054592	6	3802
2026-01-10 05:42:39.78	253.89	30.36	-23.0	-23.1	18.5	0.00e+00	0	42	0	3354394624	6	3665
2026-01-10 05:42:40.78	253.66	30.22	-23.1	-23.4	18.4	0.00e+00	0	42	0	3361734656	6	3729
2026-01-10 05:42:41.79	253.43	30.07	-23.2	-23.7	18.3	0.00e+00	0	43	0	3369074688	6	3796
2026-01-10 05:42:42.79	253.20	29.93	-23.8	-24.4	17.7	0.00e+00	0	42	0	3376414720	7	3861
2026-01-10 05:42:43.80	252.98	29.78	-23.7	-24.1	17.9	0.00e+00	0	42	0	3383754752	7	3793
2026-01-10 05:42:44.79	252.76	29.64	-23.9	-24.6	17.6	0.00e+00	0	42	0	3391094784	7	3896
2026-01-10 05:42:45.80	252.54	29.49	-24.0	-24.8	17.5	2.20e-06	0	42	0	3398434816	7	3945
2026-01-10 05:42:46.79	252.32	29.35	-23.9	-24.1	17.7	0.00e+00	0	42	0	3405774848	8	3674
2026-01-10 05:42:47.80	252.11	29.20	-23.5	-23.2	18.1	0.00e+00	0	42	0	3412066304	8	3481
2026-01-10 05:42:48.80	251.89	29.06	-23.5	-23.3	18.1	1.10e-06	0	42	0	3419406336	8	3509
2026-01-10 05:42:49.80	251.68	28.92	-24.1	-24.5	17.5	0.00e+00	0	42	0	3426746368	8	3767
2026-01-10 05:42:50.81	251.47	28.77	-23.5	-23.8	18.0	0.00e+00	0	42	0	3434086400	7	3715
2026-01-10 05:42:51.81	251.26	28.63	-23.6	-23.9	17.9	3.40e-06	0	43	0	3441426432	7	3739
2026-01-10 05:42:52.81	251.06	28.49	-23.2	-23.2	18.3	0.00e+00	0	43	0	3448766464	7	3583
2026-01-10 05:42:53.81	250.86	28.34	-23.5	-23.7	18.0	0.00e+00	0	42	0	3456106496	7	3688
2026-01-10 05:42:54.81	250.65	28.20	-23.5	-23.7	18.0	0.00e+00	0	42	0	3463446528	7	3696
2026-01-10 05:42:55.81	250.45	28.06	-24.4	-24.6	17.0	0.00e+00	0	42	0	3469737984	9	3689
2026-01-10 05:42:56.82	250.25	27.92	-25.0	-25.9	16.4	0.00e+00	0	42	0	3477078016	9	3999
2026-01-10 05:42:57.82	250.06	27.78	-24.7	-25.3	16.7	4.50e-06	0	42	0	3484418048	9	3860
2026-01-10 05:42:58.82	249.86	27.64	-25.7	-26.0	15.6	0.00e+00	0	42	0	3491758080	12	3712
2026-01-10 05:42:59.82	249.67	27.50	-24.9	-25.6	16.5	0.00e+00	0	42	0	3499098112	9	3935
2026-01-10 05:43:00.82	249.48	27.36	-24.5	-24.8	17.0	3.40e-06	0	42	0	3506438144	9	3727
2026-01-10 05:43:01.82	249.29	27.22	-24.5	-24.9	17.0	0.00e+00	0	42	0	3513778176	9	3757
2026-01-10 05:43:02.82	249.10	27.08	-24.1	-24.1	17.4	0.00e+00	0	42	0	3521118208	9	3575
2026-01-10 05:43:03.82	248.91	26.94	-24.9	-25.6	16.5	4.50e-06	0	42	0	3528458240	9	3934
2026-01-10 05:43:04.82	248.73	26.80	-24.1	-24.0	17.4	0.00e+00	0	42	0	3534749696	9	3561
2026-01-10 05:43:05.81	248.55	26.67	-23.6	-23.4	18.0	0.00e+00	0	43	0	3542089728	8	3534
2026-01-10 05:43:06.82	248.36	26.53	-23.4	-23.1	18.1	2.20e-06	0	42	0	3549429760	8	3478
2026-01-10 05:43:07.83	248.18	26.39	-23.6	-23.9	17.9	0.00e+00	0	43	0	3556769792	7	3735
2026-01-10 05:43:08.84	248.00	26.25	-23.7	-24.1	17.8	0.00e+00	0	42	0	3564109824	7	3790
2026-01-10 05:43:09.84	247.82	26.11	-23.6	-23.9	17.8	1.10e-06	0	42	0	3571449856	7	3746
2026-01-10 05:43:10.84	247.65	25.98	-23.2	-23.2	18.1	0.00e+00	0	42	0	3578789888	7	3581
2026-01-10 05:43:11.84	247.48	25.84	-23.1	-22.8	18.3	0.00e+00	0	42	0	3586129920	7	3504
2026-01-10 05:43:12.84	247.30	25.71	-23.1	-23.0	18.3	1.10e-06	0	42	0	3593469952	7	3541
2026-01-10 05:43:13.84	247.13	25.57	-23.0	-22.7	18.4	0.00e+00	0	42	0	3600809984	7	3475
2026-01-10 05:43:14.84	246.96	25.44	-23.0	-22.7	18.4	0.00e+00	0	42	0	3608150016	7	3487
2026-01-10 05:43:15.84	246.80	25.30	-23.2	-23.2	18.2	2.20e-06	0	42	0	3615490048	7	3591
2026-01-10 05:43:16.85	246.63	25.17	-23.0	-22.6	18.4	0.00e+00	0	42	0	3621781504	7	3464
2026-01-10 05:43:17.85	246.46	25.04	-23.0	-22.7	18.4	0.00e+00	0	42	0	3629121536	7	3479
2026-01-10 05:43:18.85	246.30	24.90	-22.9	-22.6	18.5	1.10e-06	0	42	0	3636461568	7	3453
2026-01-10 05:43:19.84	246.14	24.77	-23.0	-22.7	18.4	0.00e+00	0	42	0	3643801600	7	3485
2026-01-10 05:43:20.84	245.98	24.64	-23.0	-22.7	18.4	0.00e+00	0	42	0	3651141632	7	3478
2026-01-10 05:43:21.84	245.82	24.51	-23.5	-23.7	17.9	0.00e+00	0	42	0	3658481664	7	3701
2026-01-10 05:43:22.85	245.66	24.38	-23.1	-23.0	18.3	0.00e+00	0	42	0	3665821696	7	3534
2026-01-10 05:43:23.84	245.50	24.25	-23.1	-22.9	18.3	0.00e+00	0	42	0	3673161728	7	3525
2026-01-10 05:43:24.83	245.35	24.12	-23.1	-23.0	18.3	2.20e-06	0	42	0	3679453184	7	3542
2026-01-10 05:43:25.83	245.19	23.99	-23.3	-23.2	18.1	0.00e+00	0	43	0	3686793216	7	3596
2026-01-10 05:43:26.83	245.04	23.86	-23.4	-23.6	17.9	0.00e+00	0	42	0	3694133248	7	3669
2026-01-10 05:43:27.83	244.89	23.73	-23.5	-23.9	17.8	0.00e+00	0	42	0	3701473280	7	3741
2026-01-10 05:43:28.83	244.74	23.60	-23.3	-23.4	18.0	0.00e+00	0	42	0	3708813312	7	3639
2026-01-10 05:43:29.84	244.59	23.47	-23.3	-23.3	18.1	0.00e+00	0	42	0	3716153344	7	3613
2026-01-10 05:43:30.84	244.44	23.34	-23.6	-23.9	17.7	1.10e-06	0	42	0	3723493376	7	3749
2026-01-10 05:43:31.84	244.29	23.22	-23.2	-23.2	18.1	0.00e+00	0	42	0	3730833408	7	3578
2026-01-10 05:43:32.84	244.15	23.09	-23.2	-23.1	18.2	0.00e+00	0	43	0	3738173440	7	3567
2026-01-10 05:43:33.84	244.00	22.96	-23.2	-23.0	18.2	0.00e+00	0	42	0	3744464896	7	3549
2026-01-10 05:43:34.84	243.86	22.84	-23.2	-23.1	18.1	0.00e+00	0	42	0	3751804928	7	3567
2026-01-10 05:43:35.84	243.72	22.71	-23.2	-23.0	18.2	0.00e+00	0	42	0	3759144960	7	3553
2026-01-10 05:43:36.83	243.58	22.59	-23.5	-23.8	17.8	0.00e+00	0	42	0	3766484992	7	3715
2026-01-10 05:43:37.84	243.44	22.46	-23.4	-23.7	17.9	0.00e+00	0	42	0	3773825024	7	3688
2026-01-10 05:43:38.83	243.30	22.34	-23.4	-23.6	17.9	0.00e+00	0	42	0	3781165056	7	3668
2026-01-10 05:43:39.83	243.16	22.21	-23.5	-23.7	17.8	0.00e+00	0	42	0	3788505088	7	3711
2026-01-10 05:43:40.83	243.03	22.09	-23.4	-23.6	17.8	0.00e+00	0	42	0	3795845120	7	3680
2026-01-10 05:43:41.83	242.89	21.97	-23.4	-23.5	17.9	0.00e+00	0	43	0	3802136576	7	3646
2026-01-10 05:43:42.83	242.76	21.85	-23.6	-24.0	17.6	0.00e+00	0	42	0	3809476608	7	3774
2026-01-10 05:43:43.83	242.62	21.72	-23.4	-23.6	17.8	0.00e+00	0	43	0	3816816640	7	3678
2026-01-10 05:43:44.83	242.49	21.60	-23.5	-23.7	17.8	0.00e+00	0	42	0	3824156672	7	3708
2026-01-10 05:43:45.83	242.36	21.48	-23.6	-23.9	17.7	0.00e+00	0	43	0	3831496704	7	3736
2026-01-10 05:43:46.84	242.23	21.36	-23.7	-24.3	17.5	0.00e+00	0	42	0	3838836736	7	3825
2026-01-10 05:43:47.84	242.10	21.24	-23.7	-24.1	17.5	0.00e+00	0	42	0	3846176768	7	3798
2026-01-10 05:43:48.84	241.97	21.12	-23.7	-24.2	17.6	0.00e+00	0	42	0	3853516800	7	3804
2026-01-10 05:43:49.84	241.85	21.00	-23.7	-24.3	17.5	0.00e+00	0	42	0	3860856832	7	3828
2026-01-10 05:43:50.85	241.72	20.88	-23.8	-24.3	17.5	0.00e+00	0	42	0	3867148288	7	3841
2026-01-10 05:43:51.85	241.59	20.76	-24.3	-25.0	16.9	0.00e+00	0	42	0	3874488320	8	3910
2026-01-10 05:43:52.85	241.47	20.64	-23.9	-24.1	17.3	0.00e+00	0	42	0	3881828352	8	3692
2026-01-10 05:43:53.86	241.35	20.52	-23.7	-23.7	17.5	0.00e+00	0	42	0	3889168384	8	3605
2026-01-10 05:43:54.86	241.22	20.40	-23.8	-24.0	17.4	0.00e+00	0	43	0	3896508416	8	3664
2026-01-10 05:43:55.85	241.10	20.29	-23.6	-23.6	17.6	0.00e+00	0	43	0	3903848448	8	3568
2026-01-10 05:43:56.85	240.98	20.17	-23.7	-23.7	17.5	0.00e+00	0	42	0	3911188480	8	3594
2026-01-10 05:43:57.86	240.86	20.05	-23.6	-23.5	17.7	0.00e+00	0	42	0	3918528512	8	3545
2026-01-10 05:43:58.87	240.75	19.93	-23.9	-24.1	17.3	0.00e+00	0	42	0	3925868544	8	3683
2026-01-10 05:43:59.87	240.63	19.82	-23.9	-24.1	17.3	0.00e+00	0	42	0	3933208576	8	3692
2026-01-10 05:44:00.87	240.51	19.70	-24.4	-25.2	16.8	0.00e+00	0	42	0	3939500032	8	3950
2026-01-10 05:44:01.88	240.39	19.59	-24.4	-24.7	16.7	0.00e+00	0	42	0	3947888640	9	3730
2026-01-10 05:44:02.88	240.28	19.47	-24.3	-24.5	16.8	0.00e+00	0	43	0	3954180096	9	3668
2026-01-10 05:44:03.88	240.17	19.36	-24.4	-24.6	16.9	0.00e+00	0	42	0	3961520128	9	3699
2026-01-10 05:44:04.88	240.05	19.25	-24.4	-24.6	16.8	0.00e+00	0	42	0	3968860160	9	3706
2026-01-10 05:44:05.89	239.94	19.13	-24.7	-25.3	16.4	0.00e+00	0	42	0	3976200192	9	3862
2026-01-10 05:44:06.89	239.83	19.02	-25.0	-25.9	16.1	0.00e+00	0	43	0	3983540224	9	4015
2026-01-10 05:44:07.89	239.72	18.91	-25.0	-25.9	16.1	0.00e+00	0	43	0	3990880256	9	4020
2026-01-10 05:44:08.90	239.61	18.79	-24.6	-25.1	16.5	0.00e+00	0	42	0	3998220288	9	3808
2026-01-10 05:44:09.89	239.50	18.68	-24.4	-24.8	16.7	0.00e+00	0	43	0	4005560320	9	3743
2026-01-10 05:44:10.90	239.39	18.57	-24.4	-24.7	16.7	0.00e+00	0	42	0	4011851776	9	3721
2026-01-10 05:44:11.89	239.29	18.46	-24.5	-24.9	16.6	0.00e+00	0	42	0	4019191808	9	3774
2026-01-10 05:44:12.90	239.18	18.35	-24.4	-24.7	16.7	0.00e+00	0	42	0	4026531840	9	3725
2026-01-10 05:44:13.90	239.07	18.24	-24.7	-25.4	16.3	0.00e+00	0	43	0	4033871872	9	3876
2026-01-10 05:44:14.91	238.97	18.13	-24.6	-25.2	16.4	0.00e+00	0	42	0	4041211904	9	3836
2026-01-10 05:44:15.91	238.86	18.02	-24.9	-25.8	16.1	0.00e+00	0	42	0	4048551936	9	3985
2026-01-10 05:44:16.91	238.76	17.91	-24.8	-24.9	16.3	0.00e+00	0	42	0	4055891968	10	3678
2026-01-10 05:44:17.91	238.66	17.80	-24.5	-24.4	16.6	0.00e+00	0	42	0	4063232000	10	3563
2026-01-10 05:44:18.92	238.55	17.69	-24.5	-25.0	16.5	0.00e+00	0	42	0	4070572032	9	3791
2026-01-10 05:44:19.92	238.45	17.59	-24.7	-24.8	16.3	0.00e+00	0	43	0	4076863488	10	3651
2026-01-10 05:44:20.93	238.35	17.48	-24.6	-25.0	16.5	0.00e+00	0	42	0	4085252096	9	3801
2026-01-10 05:44:21.93	238.25	17.37	-24.5	-24.9	16.5	0.00e+00	0	42	0	4092592128	9	3764
2026-01-10 05:44:22.93	238.15	17.26	-24.5	-24.8	16.5	0.00e+00	0	43	0	4098883584	9	3757
2026-01-10 05:44:23.93	238.06	17.16	-25.0	-25.9	15.9	0.00e+00	0	42	0	4106223616	9	4005
2026-01-10 05:44:24.94	237.96	17.05	-24.6	-25.1	16.4	0.00e+00	0	43	0	4113563648	9	3813
2026-01-10 05:44:25.94	237.86	16.95	-24.5	-24.8	16.5	0.00e+00	0	43	0	4120903680	9	3754
2026-01-10 05:44:26.94	237.76	16.84	-24.4	-24.8	16.6	0.00e+00	0	43	0	4128243712	9	3742
2026-01-10 05:44:27.95	237.67	16.73	-24.4	-24.6	16.6	0.00e+00	0	43	0	4135583744	9	3708
2026-01-10 05:44:28.94	237.57	16.63	-24.5	-24.9	16.5	0.00e+00	0	42	0	4142923776	9	3773
2026-01-10 05:44:29.95	237.48	16.53	-24.6	-25.0	16.4	0.00e+00	0	43	0	4150263808	9	3802
2026-01-10 05:44:30.95	237.39	16.42	-24.8	-25.5	16.2	0.00e+00	0	42	0	4157603840	9	3917
2026-01-10 05:44:31.95	237.29	16.32	-24.6	-25.1	16.4	0.00e+00	0	42	0	4163895296	9	3819
2026-01-10 05:44:32.96	237.20	16.22	-24.5	-25.0	16.4	0.00e+00	0	42	0	4171235328	9	3787
2026-01-10 05:44:33.96	237.11	16.11	-24.7	-25.3	16.2	0.00e+00	0	42	0	4178575360	9	3874
2026-01-10 05:44:34.96	237.02	16.01	-24.8	-25.6	16.1	0.00e+00	0	43	0	4185915392	9	3928
2026-01-10 05:44:35.96	236.93	15.91	-24.7	-25.5	16.2	0.00e+00	0	43	0	4193255424	9	3907
2026-01-10 05:44:36.96	236.84	15.81	-25.0	-25.9	15.9	0.00e+00	0	43	0	4200595456	9	4018
2026-01-10 05:44:37.96	236.75	15.71	-24.9	-25.7	16.0	0.00e+00	0	42	0	4207935488	9	3965
2026-01-10 05:44:38.95	236.66	15.61	-25.0	-25.9	15.9	0.00e+00	0	43	0	4215275520	9	4023
2026-01-10 05:44:39.95	236.58	15.51	-25.0	-26.0	15.9	0.00e+00	0	42	0	4221566976	9	4029
2026-01-10 05:44:40.95	236.49	15.41	-25.1	-25.7	15.7	0.00e+00	0	43	0	4228907008	10	3874
2026-01-10 05:44:41.95	236.40	15.31	-25.3	-26.2	15.5	0.00e+00	0	42	0	4236247040	10	3976
2026-01-10 05:44:42.96	236.32	15.21	-25.3	-26.1	15.5	0.00e+00	0	42	0	4243587072	10	3969
2026-01-10 05:44:43.96	236.23	15.11	-25.5	-26.6	15.3	0.00e+00	0	42	0	4250927104	10	4087
2026-01-10 05:44:44.96	236.15	15.01	-25.3	-26.2	15.5	0.00e+00	0	42	0	4258267136	10	3980
2026-01-10 05:44:45.96	236.06	14.91	-25.2	-25.8	15.7	0.00e+00	0	43	0	4265607168	10	3890
2026-01-10 05:44:46.96	235.98	14.81	-25.2	-26.0	15.6	0.00e+00	0	43	0	4272947200	10	3930
2026-01-10 05:44:47.96	235.90	14.71	-25.2	-25.9	15.6	0.00e+00	0	42	0	4280287232	10	3919
2026-01-10 05:44:48.96	235.81	14.62	-25.1	-25.8	15.7	0.00e+00	0	42	0	4286578688	10	3876
2026-01-10 05:44:49.97	235.73	14.52	-25.5	-26.6	15.3	0.00e+00	0	43	0	4293918720	10	4071
2026-01-10 05:44:50.98	235.65	14.42	-25.1	-25.7	15.8	0.00e+00	0	42	0	4302307328	10	3846
2026-01-10 05:44:51.98	235.57	14.32	-25.0	-25.5	15.8	0.00e+00	0	43	0	4308598784	10	3813
2026-01-10 05:44:52.98	235.49	14.23	-25.2	-26.0	15.6	0.00e+00	0	42	0	4315938816	10	3927
2026-01-10 05:44:53.98	235.41	14.13	-25.0	-25.4	15.9	0.00e+00	0	42	0	4323278848	10	3786
2026-01-10 05:44:54.99	235.33	14.04	-25.1	-25.6	15.8	0.00e+00	0	43	0	4330618880	10	3843
2026-01-10 05:44:55.98	235.25	13.94	-25.2	-25.9	15.6	0.00e+00	0	43	0	4337958912	10	3903
2026-01-10 05:44:56.99	235.17	13.85	-25.3	-26.2	15.4	0.00e+00	0	43	0	4345298944	10	3987
2026-01-10 05:44:58.00	235.09	13.75	-26.1	-26.8	14.4	0.00e+00	0	43	0	4352638976	12	3938
2026-01-10 05:44:59.00	235.02	13.66	-26.6	-28.0	13.8	6.80e-06	0	42	0	4359979008	12	4235
2026-01-10 05:45:00.00	234.94	13.56	-25.6	-25.8	15.0	1.10e-06	0	43	0	4366270464	12	3696
2026-01-10 05:45:01.00	234.86	13.47	-25.6	-25.8	15.0	0.00e+00	0	43	0	4373610496	12	3689
2026-01-10 05:45:01.99	234.79	13.38	-25.4	-25.9	15.3	0.00e+00	0	43	0	4380950528	11	3818
2026-01-10 05:45:02.99	234.71	13.28	-25.5	-26.1	15.2	1.10e-06	0	43	0	4388290560	11	3845
2026-01-10 05:45:03.99	234.64	13.19	-25.8	-26.4	14.7	0.00e+00	0	43	0	4395630592	12	3828
2026-01-10 05:45:04.99	234.57	13.10	-25.4	-26.0	15.2	0.00e+00	0	42	0	4402970624	11	3834
2026-01-10 05:45:06.00	234.49	13.01	-25.3	-25.8	15.3	0.00e+00	0	43	0	4410310656	11	3778
2026-01-10 05:45:07.00	234.42	12.91	-25.5	-26.2	15.1	0.00e+00	0	43	0	4417650688	11	3873
2026-01-10 05:45:08.01	234.34	12.82	-25.5	-26.2	15.1	0.00e+00	0	43	0	4424990720	11	3873
2026-01-10 05:45:09.01	234.27	12.73	-25.4	-25.9	15.2	0.00e+00	0	42	0	4431282176	11	3806
2026-01-10 05:45:10.02	234.20	12.64	-25.8	-26.9	14.7	0.00e+00	0	42	0	4438622208	11	4051
2026-01-10 05:45:11.02	234.13	12.55	-25.6	-26.4	14.9	0.00e+00	0	43	0	4445962240	11	3939
2026-01-10 05:45:12.03	234.06	12.46	-25.4	-25.9	15.2	0.00e+00	0	42	0	4453302272	11	3804
2026-01-10 05:45:13.03	233.99	12.37	-25.8	-26.7	14.7	0.00e+00	0	43	0	4460642304	11	4015
2026-01-10 05:45:14.04	233.92	12.28	-26.2	-27.2	14.1	2.20e-06	0	42	0	4467982336	12	4022
2026-01-10 05:45:15.03	233.85	12.19	-25.9	-26.6	14.4	1.10e-06	0	43	0	4475322368	12	3879
2026-01-10 05:45:16.03	233.78	12.10	-26.0	-26.8	14.3	1.10e-06	0	43	0	4482662400	12	3931
2026-01-10 05:45:17.04	233.71	12.01	-25.9	-26.4	14.5	1.10e-06	0	43	0	4490002432	12	3838
2026-01-10 05:45:18.05	233.64	11.92	-26.0	-26.8	14.3	0.00e+00	0	42	0	4497342464	12	3929
2026-01-10 05:45:19.05	233.57	11.83	-25.8	-26.4	14.6	0.00e+00	0	43	0	4504682496	12	3828
2026-01-10 05:45:20.05	233.51	11.74	-25.7	-26.1	14.7	0.00e+00	0	43	0	4512022528	12	3771
2026-01-10 05:45:21.05	233.44	11.66	-25.7	-26.1	14.7	0.00e+00	0	43	0	4518313984	12	3756
2026-01-10 05:45:22.06	233.37	11.57	-26.0	-26.8	14.3	5.70e-06	0	43	0	4525654016	12	3928
2026-01-10 05:45:23.06	233.31	11.48	-25.9	-26.5	14.4	1.10e-06	0	43	0	4532994048	12	3867
2026-01-10 05:45:24.06	233.24	11.39	-25.7	-26.2	14.6	0.00e+00	0	43	0	4540334080	12	3786
2026-01-10 05:45:25.06	233.17	11.31	-25.6	-25.9	14.8	0.00e+00	0	43	0	4547674112	12	3722
2026-01-10 05:45:26.06	233.11	11.22	-25.7	-26.1	14.7	0.00e+00	0	42	0	4555014144	12	3764
2026-01-10 05:45:27.06	233.04	11.14	-25.9	-26.4	14.5	0.00e+00	0	43	0	4562354176	12	3847
2026-01-10 05:45:28.07	232.98	11.05	-25.8	-26.3	14.5	1.10e-06	0	43	0	4569694208	12	3821
2026-01-10 05:45:29.08	232.92	10.96	-26.0	-26.7	14.4	0.00e+00	0	43	0	4577034240	12	3907
2026-01-10 05:45:30.08	232.85	10.88	-25.9	-26.4	14.5	2.20e-06	0	43	0	4584374272	12	3850
2026-01-10 05:45:31.08	232.79	10.79	-25.9	-26.4	14.4	1.10e-06	0	43	0	4591714304	12	3844
2026-01-10 05:45:32.08	232.73	10.71	-25.9	-26.6	14.4	0.00e+00	0	43	0	4598005760	12	3878
2026-01-10 05:45:33.08	232.66	10.62	-25.9	-26.6	14.3	0.00e+00	0	43	0	4605345792	12	3895
2026-01-10 05:45:34.09	232.60	10.54	-26.0	-26.9	14.2	2.20e-06	0	43	0	4612685824	12	3955
2026-01-10 05:45:35.09	232.54	10.45	-26.1	-26.9	14.2	2.20e-06	0	43	0	4620025856	12	3977
2026-01-10 05:45:36.09	232.48	10.37	-26.0	-26.7	14.3	1.10e-06	0	43	0	4627365888	12	3915
2026-01-10 05:45:37.10	232.42	10.29	-26.1	-26.9	14.1	0.00e+00	0	42	0	4634705920	12	3968
2026-01-10 05:45:38.10	232.36	10.20	-26.2	-27.2	14.0	0.00e+00	0	43	0	4642045952	12	4037
2026-01-10 05:45:39.11	232.30	10.12	-26.1	-26.9	14.1	5.70e-06	0	43	0	4649385984	12	3958
2026-01-10 05:45:40.11	232.24	10.04	-26.3	-27.3	13.9	1.02e-05	0	43	0	4656726016	12	4074
2026-01-10 05:45:41.12	232.18	9.95	-26.1	-26.9	14.1	1.10e-06	0	42	0	4663017472	12	3958
2026-01-10 05:45:42.12	232.12	9.87	-26.0	-26.7	14.2	2.20e-06	0	43	0	4670357504	12	3921
2026-01-10 05:45:43.12	232.06	9.79	-26.0	-26.8	14.2	1.10e-06	0	42	0	4678746112	12	3937
2026-01-10 05:45:44.13	232.00	9.71	-26.1	-27.0	14.1	2.20e-06	0	43	0	4685037568	12	3989
2026-01-10 05:45:45.13	231.94	9.62	-26.0	-26.7	14.2	2.20e-06	0	42	0	4692377600	12	3926
2026-01-10 05:45:46.13	231.89	9.54	-25.9	-26.6	14.3	0.00e+00	0	43	0	4699717632	12	3896
2026-01-10 05:45:47.13	231.83	9.46	-26.1	-27.0	14.0	1.10e-06	0	42	0	4707057664	12	3996
2026-01-10 05:45:48.13	231.77	9.38	-26.1	-27.0	14.0	1.10e-06	0	43	0	4714397696	12	3994
2026-01-10 05:45:49.13	231.72	9.30	-26.1	-26.9	14.1	2.20e-06	0	42	0	4721737728	12	3975
2026-01-10 05:45:50.13	231.66	9.22	-26.1	-27.0	14.0	4.50e-06	0	43	0	4729077760	12	3986
2026-01-10 05:45:51.13	231.60	9.14	-26.1	-27.1	14.0	0.00e+00	0	43	0	4736417792	12	4005
2026-01-10 05:45:52.13	231.55	9.06	-26.1	-26.9	14.1	2.20e-06	0	43	0	4742709248	12	3962
2026-01-10 05:45:53.13	231.49	8.98	-26.3	-27.3	13.8	3.40e-06	0	42	0	4750049280	12	4078
2026-01-10 05:45:54.14	231.44	8.90	-26.3	-27.5	13.7	3.40e-06	0	42	0	4757389312	12	4112
2026-01-10 05:45:55.14	231.38	8.82	-26.3	-27.3	13.8	3.40e-06	0	43	0	4764729344	12	4080
2026-01-10 05:45:56.14	231.33	8.74	-26.2	-27.2	13.9	6.80e-06	0	42	0	4772069376	12	4043
2026-01-10 05:45:57.15	231.27	8.66	-26.3	-27.4	13.7	1.02e-05	0	42	0	4779409408	12	4089
2026-01-10 05:45:58.15	231.22	8.58	-26.2	-27.3	13.8	3.40e-06	0	43	0	4786749440	12	4065
2026-01-10 05:45:59.15	231.17	8.51	-26.2	-27.2	13.8	4.50e-06	0	42	0	4794089472	12	4055
2026-01-10 05:46:00.15	231.11	8.43	-26.7	-27.8	13.2	1.14e-05	0	42	0	4801429504	13	4100
2026-01-10 05:46:01.15	231.06	8.35	-26.3	-27.0	13.6	2.28e-05	0	43	0	4807720960	13	3895
2026-01-10 05:46:02.15	231.01	8.27	-26.5	-27.5	13.4	2.28e-05	0	43	0	4815060992	13	4015
2026-01-10 05:46:03.16	230.96	8.19	-26.7	-27.9	13.1	1.02e-05	0	43	0	4822401024	13	4133
2026-01-10 05:46:04.16	230.90	8.12	-26.8	-28.0	13.0	3.20e-05	0	42	0	4829741056	13	4160
2026-01-10 05:46:05.15	230.85	8.04	-26.6	-27.6	13.3	2.63e-05	0	43	0	4837081088	13	4040
2026-01-10 05:46:06.16	230.80	7.96	-26.7	-27.9	13.1	4.11e-05	0	42	0	4844421120	13	4131
2026-01-10 05:46:07.16	230.75	7.89	-26.5	-27.5	13.3	1.71e-05	0	43	0	4851761152	13	4017
2026-01-10 05:46:08.17	230.70	7.81	-26.3	-27.0	13.6	1.37e-05	0	42	0	4859101184	13	3906
2026-01-10 05:46:09.17	230.65	7.73	-26.4	-27.2	13.5	1.60e-05	0	42	0	4866441216	13	3956
2026-01-10 05:46:10.17	230.60	7.66	-26.5	-27.4	13.4	1.25e-05	0	42	0	4872732672	13	4002
2026-01-10 05:46:11.18	230.55	7.58	-26.6	-27.6	13.3	2.97e-05	0	42	0	4881121280	13	4057
2026-01-10 05:46:12.18	230.50	7.50	-26.9	-28.4	12.8	4.00e-05	0	43	0	4888461312	13	4264
2026-01-10 05:46:13.18	230.45	7.43	-27.0	-28.2	12.6	8.92e-05	0	42	0	4894752768	14	4096
2026-01-10 05:46:14.18	230.40	7.35	-26.8	-27.6	12.9	6.17e-05	0	43	0	4902092800	14	3947
2026-01-10 05:46:15.17	230.35	7.28	-26.6	-27.3	13.1	6.06e-05	0	43	0	4909432832	14	3868
2026-01-10 05:46:16.18	230.30	7.20	-26.6	-27.2	13.1	2.40e-05	0	43	0	4916772864	14	3849
2026-01-10 05:46:17.18	230.25	7.13	-27.6	-29.4	11.9	5.14e-05	0	42	0	4924112896	14	4465
2026-01-10 05:46:18.18	230.20	7.06	-32.8	-42.4	3.8	8.46e-01	0	43	104	4925161472	25	10882
2026-01-10 05:46:19.18	230.16	6.98	-33.1	-43.1	3.8	8.46e-01	0	43	104	4925161472	25	11423
2026-01-10 05:46:20.18	230.11	6.91	-33.3	-43.1	3.8	8.46e-01	0	43	104	4925161472	26	11034
