passes_logs/2026/01/10/R2M6_AANII_01/R2M6_AANII_01__20260110_034908_FENGYUN_3D_rec.log

#Pass ID: 20260110_034908_FENGYUN 3D
#Satellite: FENGYUN 3D
#Configuration: FENGYUN 3D
#almurnet v.1.7.20240730
#Start time: 2026-01-10 03:49:09

#Version: 2.2.20231116
#Station: R2M6_AANII_01
#Location: 30.233357 lon 59.946436 lat
#TLE: 1 43010U 17072A   26009.29492227  .00000158  00000+0  96483-4 0  9996
#TLE: 2 43010  98.9936 341.0229 0002153 117.3665 242.7729 14.19694440422446

#Time	Az	El	Level	Level2	SNR	BER	BlckErr	Temp	State	Recorded	gain1	gain2
2026-01-10 03:49:09.82	12.62	7.09	-30.7	-34.5	5.0	8.04e-01	0	39	0	0	22	5593
2026-01-10 03:49:10.82	12.55	7.16	-31.2	-35.9	4.9	7.98e-01	0	39	104	0	22	6180
2026-01-10 03:49:11.82	12.48	7.23	-31.0	-35.3	7.6	6.69e-02	0	39	0	0	22	5896
2026-01-10 03:49:12.82	12.41	7.30	-31.1	-35.5	7.4	1.03e-01	0	39	0	5242880	22	5963
2026-01-10 03:49:13.83	12.34	7.37	-31.0	-35.0	7.9	9.87e-02	0	39	0	11534336	22	5712
2026-01-10 03:49:14.82	12.27	7.44	-31.4	-36.1	7.3	8.22e-02	0	40	0	16777216	22	6203
2026-01-10 03:49:15.82	12.21	7.51	-31.2	-35.2	7.4	1.05e-01	0	39	0	22020096	23	5713
2026-01-10 03:49:16.81	12.14	7.58	-31.0	-34.2	8.3	5.63e-02	0	40	0	27262976	23	5239
2026-01-10 03:49:17.82	12.07	7.65	-30.2	-32.9	9.9	1.71e-02	0	40	0	33554432	21	4922
2026-01-10 03:49:18.82	12.00	7.72	-30.1	-32.5	10.2	1.27e-02	0	40	0	38797312	21	4777
2026-01-10 03:49:19.82	11.92	7.79	-28.8	-30.9	12.3	1.42e-04	0	40	0	44040192	18	4545
2026-01-10 03:49:20.81	11.85	7.86	-28.4	-30.4	12.7	5.03e-05	0	40	0	50331648	17	4524
2026-01-10 03:49:21.82	11.78	7.94	-27.9	-29.8	13.4	1.14e-05	0	40	0	55574528	16	4446
2026-01-10 03:49:22.82	11.71	8.01	-28.3	-30.6	13.0	8.00e-06	0	40	0	61865984	16	4701
2026-01-10 03:49:23.83	11.64	8.08	-28.0	-29.8	13.4	1.02e-05	0	40	0	67108864	16	4464
2026-01-10 03:49:24.83	11.56	8.15	-27.8	-29.5	13.4	1.02e-05	0	40	0	73400320	16	4363
2026-01-10 03:49:25.83	11.49	8.23	-28.0	-29.4	13.2	3.43e-05	0	40	0	78643200	17	4248
2026-01-10 03:49:26.83	11.42	8.30	-28.7	-31.2	12.3	1.33e-04	0	40	0	83886080	17	4774
2026-01-10 03:49:27.83	11.34	8.37	-27.8	-29.0	13.7	6.89e-04	0	40	0	90177536	17	4126
2026-01-10 03:49:28.83	11.27	8.45	-28.8	-30.9	12.5	9.61e-05	0	40	0	95420416	18	4549
2026-01-10 03:49:29.83	11.19	8.52	-28.9	-30.9	12.5	2.06e-04	0	40	0	100663296	18	4543
2026-01-10 03:49:30.83	11.12	8.59	-29.1	-31.4	12.0	1.81e-04	0	40	0	106954752	18	4706
2026-01-10 03:49:31.83	11.04	8.67	-28.8	-30.8	12.4	1.43e-04	0	40	0	112197632	18	4526
2026-01-10 03:49:32.83	10.97	8.74	-28.5	-29.9	13.0	2.40e-05	0	40	0	117440512	18	4263
2026-01-10 03:49:33.84	10.89	8.81	-28.4	-30.2	12.9	1.25e-05	0	40	0	123731968	17	4457
2026-01-10 03:49:34.84	10.81	8.89	-28.2	-29.8	13.4	1.02e-05	0	40	0	128974848	17	4321
2026-01-10 03:49:35.84	10.74	8.96	-28.2	-29.8	13.2	9.10e-06	0	40	0	135266304	17	4327
2026-01-10 03:49:36.84	10.66	9.04	-29.0	-31.8	12.0	4.00e-05	0	40	0	140509184	17	4965
2026-01-10 03:49:37.84	10.58	9.11	-28.8	-30.7	12.4	1.56e-04	0	40	0	145752064	18	4505
2026-01-10 03:49:38.85	10.50	9.19	-28.6	-30.3	12.7	8.69e-05	0	40	0	152043520	18	4364
2026-01-10 03:49:39.84	10.43	9.26	-29.3	-31.5	11.6	7.11e-04	0	40	0	157286400	19	4638
2026-01-10 03:49:40.84	10.35	9.34	-29.2	-31.8	11.9	2.16e-04	0	40	0	162529280	18	4840
2026-01-10 03:49:41.85	10.27	9.41	-29.3	-31.4	11.9	5.71e-04	0	40	0	168820736	19	4576
2026-01-10 03:49:42.85	10.19	9.49	-29.2	-31.1	12.0	3.80e-04	0	40	0	174063616	19	4509
2026-01-10 03:49:43.85	10.11	9.56	-28.0	-29.2	13.7	9.04e-05	0	40	0	179306496	17	4166
2026-01-10 03:49:44.86	10.02	9.64	-28.3	-30.1	13.1	4.50e-06	0	40	0	185597952	17	4404
2026-01-10 03:49:45.85	9.94	9.71	-28.7	-30.9	12.6	4.00e-05	0	40	0	190840832	17	4680
2026-01-10 03:49:46.86	9.86	9.79	-29.1	-31.4	12.0	1.96e-04	0	40	0	197132288	18	4713
2026-01-10 03:49:47.86	9.78	9.87	-28.3	-29.6	13.3	3.31e-05	0	40	0	202375168	18	4152
2026-01-10 03:49:48.87	9.70	9.94	-29.2	-31.7	12.0	2.17e-05	0	41	0	207618048	18	4798
2026-01-10 03:49:49.87	9.61	10.02	-29.5	-32.1	11.3	1.59e-04	0	40	0	213909504	19	4852
2026-01-10 03:49:50.87	9.53	10.10	-29.3	-31.4	11.8	6.84e-04	0	41	0	219152384	19	4596
2026-01-10 03:49:51.88	9.44	10.18	-30.1	-33.1	10.3	2.87e-03	0	41	0	225443840	20	5090
2026-01-10 03:49:52.89	9.36	10.25	-29.6	-31.8	11.1	2.49e-03	0	40	0	230686720	20	4617
2026-01-10 03:49:53.89	9.27	10.33	-29.1	-31.1	11.9	3.78e-04	0	41	0	235929600	19	4498
2026-01-10 03:49:54.89	9.19	10.41	-28.5	-30.1	12.8	4.00e-05	0	41	0	242221056	18	4319
2026-01-10 03:49:55.89	9.10	10.49	-29.2	-31.3	11.8	4.98e-04	0	41	0	247463936	19	4576
2026-01-10 03:49:56.90	9.01	10.56	-29.1	-31.0	12.0	1.40e-03	0	41	0	252706816	19	4456
2026-01-10 03:49:57.90	8.93	10.64	-29.4	-32.0	11.9	2.66e-04	0	41	0	258998272	18	4898
2026-01-10 03:49:58.90	8.84	10.72	-29.6	-32.1	11.6	4.77e-04	0	41	0	264241152	19	4800
2026-01-10 03:49:59.90	8.75	10.80	-29.0	-30.6	12.4	1.67e-04	0	41	0	270532608	19	4349
2026-01-10 03:50:00.90	8.66	10.88	-28.6	-30.1	13.1	2.86e-05	0	41	0	275775488	18	4293
2026-01-10 03:50:01.90	8.58	10.96	-27.8	-29.3	14.2	2.20e-06	0	41	0	281018368	16	4287
2026-01-10 03:50:02.90	8.49	11.04	-27.7	-29.2	14.4	0.00e+00	0	41	0	287309824	16	4237
2026-01-10 03:50:03.90	8.40	11.12	-27.5	-28.5	14.7	1.10e-06	0	41	0	292552704	16	4063
2026-01-10 03:50:04.90	8.31	11.19	-27.0	-28.0	15.1	0.00e+00	0	41	0	297795584	15	4031
2026-01-10 03:50:05.90	8.21	11.27	-26.7	-27.9	15.3	0.00e+00	0	41	0	304087040	14	4124
2026-01-10 03:50:06.90	8.12	11.35	-26.8	-28.1	15.1	0.00e+00	0	41	0	309329920	14	4195
2026-01-10 03:50:07.90	8.03	11.43	-26.7	-27.8	15.3	0.00e+00	0	41	0	314572800	14	4111
2026-01-10 03:50:08.90	7.94	11.51	-26.9	-28.4	15.3	0.00e+00	0	41	0	320864256	14	4237
2026-01-10 03:50:09.90	7.85	11.59	-26.9	-28.2	15.4	0.00e+00	0	41	0	326107136	14	4202
2026-01-10 03:50:10.90	7.75	11.67	-26.9	-28.4	15.1	0.00e+00	0	41	0	332398592	14	4261
2026-01-10 03:50:11.90	7.66	11.75	-27.2	-28.8	15.2	0.00e+00	0	41	0	337641472	14	4358
2026-01-10 03:50:12.91	7.56	11.84	-26.7	-27.7	15.6	0.00e+00	0	41	0	342884352	14	4076
2026-01-10 03:50:13.91	7.47	11.92	-26.6	-27.5	15.8	0.00e+00	0	41	0	349175808	14	4019
2026-01-10 03:50:14.90	7.37	12.00	-26.4	-27.6	16.1	0.00e+00	0	41	0	354418688	13	4137
2026-01-10 03:50:15.90	7.28	12.08	-26.5	-28.0	15.6	0.00e+00	0	41	0	359661568	13	4248
2026-01-10 03:50:16.90	7.18	12.16	-26.6	-28.2	15.7	0.00e+00	0	41	0	365953024	13	4298
2026-01-10 03:50:17.90	7.08	12.24	-26.4	-27.6	16.1	0.00e+00	0	41	0	371195904	13	4149
2026-01-10 03:50:18.91	6.98	12.33	-27.2	-29.0	15.1	0.00e+00	0	41	0	376438784	14	4404
2026-01-10 03:50:19.91	6.89	12.41	-26.7	-27.8	15.9	0.00e+00	0	41	0	382730240	14	4090
2026-01-10 03:50:20.90	6.79	12.49	-26.5	-27.3	15.9	0.00e+00	0	41	0	387973120	14	3956
2026-01-10 03:50:21.91	6.69	12.57	-26.4	-27.1	15.9	0.00e+00	0	41	0	394264576	14	3925
2026-01-10 03:50:22.90	6.59	12.65	-26.7	-27.8	15.5	0.00e+00	0	41	0	399507456	14	4097
2026-01-10 03:50:23.90	6.49	12.74	-26.7	-27.8	15.8	0.00e+00	0	41	0	404750336	14	4074
2026-01-10 03:50:24.91	6.38	12.82	-26.6	-27.5	15.8	0.00e+00	0	41	0	411041792	14	4007
2026-01-10 03:50:25.91	6.28	12.90	-26.6	-27.6	15.8	0.00e+00	0	41	0	416284672	14	4048
2026-01-10 03:50:26.91	6.18	12.99	-26.5	-27.3	16.0	0.00e+00	0	41	0	421527552	14	3959
2026-01-10 03:50:27.92	6.08	13.07	-26.5	-27.3	16.0	0.00e+00	0	41	0	427819008	14	3970
2026-01-10 03:50:28.92	5.97	13.16	-26.6	-27.5	15.8	0.00e+00	0	41	0	433061888	14	4025
2026-01-10 03:50:29.92	5.87	13.24	-26.4	-27.2	15.9	0.00e+00	0	41	0	439353344	14	3933
2026-01-10 03:50:30.93	5.76	13.33	-26.4	-27.8	15.8	0.00e+00	0	41	0	444596224	13	4189
2026-01-10 03:50:31.93	5.66	13.41	-26.5	-27.8	15.8	0.00e+00	0	41	0	449839104	13	4199
2026-01-10 03:50:32.92	5.55	13.49	-26.5	-27.8	16.0	0.00e+00	0	41	0	456130560	13	4203
2026-01-10 03:50:33.93	5.44	13.58	-26.4	-27.6	16.0	0.00e+00	0	41	0	461373440	13	4154
2026-01-10 03:50:34.92	5.34	13.66	-27.2	-29.0	15.2	0.00e+00	0	41	0	467664896	14	4405
2026-01-10 03:50:35.93	5.23	13.75	-26.9	-28.2	15.6	0.00e+00	0	41	0	472907776	14	4181
2026-01-10 03:50:36.94	5.12	13.84	-27.1	-28.7	15.4	0.00e+00	0	41	0	478150656	14	4330
2026-01-10 03:50:37.95	5.01	13.92	-27.1	-28.6	15.4	0.00e+00	0	41	0	484442112	14	4291
2026-01-10 03:50:38.95	4.90	14.01	-27.6	-29.4	14.3	0.00e+00	0	41	0	489684992	15	4436
2026-01-10 03:50:39.95	4.79	14.09	-27.0	-27.9	15.6	0.00e+00	0	41	0	494927872	15	3993
2026-01-10 03:50:40.96	4.67	14.18	-26.9	-28.2	15.7	0.00e+00	0	41	0	501219328	14	4186
2026-01-10 03:50:41.95	4.56	14.27	-26.7	-27.9	15.7	0.00e+00	0	41	0	506462208	14	4102
2026-01-10 03:50:42.96	4.45	14.36	-26.2	-27.1	16.5	0.00e+00	0	41	0	511705088	13	4012
2026-01-10 03:50:43.96	4.34	14.44	-26.9	-28.2	15.9	0.00e+00	0	41	0	517996544	14	4188
2026-01-10 03:50:44.95	4.22	14.53	-27.1	-28.6	15.6	0.00e+00	0	41	0	523239424	14	4291
2026-01-10 03:50:45.95	4.11	14.62	-26.6	-27.5	16.3	0.00e+00	0	41	0	529530880	14	3986
2026-01-10 03:50:46.95	3.99	14.70	-26.9	-28.1	15.8	0.00e+00	0	41	0	534773760	14	4165
2026-01-10 03:50:47.96	3.87	14.79	-27.0	-28.5	15.6	0.00e+00	0	41	0	540016640	14	4261
2026-01-10 03:50:48.96	3.76	14.88	-26.8	-28.0	15.7	0.00e+00	0	41	0	546308096	14	4136
2026-01-10 03:50:49.97	3.64	14.97	-26.3	-27.5	16.3	0.00e+00	0	41	0	551550976	13	4102
2026-01-10 03:50:50.97	3.52	15.06	-26.2	-27.1	16.4	0.00e+00	0	41	0	556793856	13	4004
2026-01-10 03:50:51.97	3.40	15.14	-25.7	-26.5	17.0	0.00e+00	0	41	0	563085312	12	3980
2026-01-10 03:50:52.97	3.28	15.23	-25.6	-26.4	17.0	0.00e+00	0	41	0	568328192	12	3940
2026-01-10 03:50:53.98	3.16	15.32	-25.8	-26.9	16.6	0.00e+00	0	41	0	574619648	12	4076
2026-01-10 03:50:54.99	3.04	15.41	-26.3	-27.3	16.6	0.00e+00	0	41	0	579862528	13	4063
2026-01-10 03:50:55.99	2.91	15.50	-26.3	-27.5	16.5	0.00e+00	0	41	0	585105408	13	4094
2026-01-10 03:50:56.98	2.79	15.59	-25.9	-26.5	17.1	0.00e+00	0	41	0	591396864	13	3862
2026-01-10 03:50:57.98	2.67	15.68	-25.8	-26.9	17.2	0.00e+00	0	41	0	596639744	12	4050
2026-01-10 03:50:58.97	2.55	15.77	-25.9	-27.1	17.1	0.00e+00	0	41	0	602931200	12	4103
2026-01-10 03:50:59.98	2.42	15.86	-25.9	-26.9	17.0	0.00e+00	0	41	0	608174080	12	4070
2026-01-10 03:51:00.98	2.29	15.95	-26.0	-27.2	17.0	0.00e+00	0	41	0	613416960	12	4150
2026-01-10 03:51:01.99	2.17	16.04	-26.2	-27.5	16.9	0.00e+00	0	41	0	619708416	12	4218
2026-01-10 03:51:02.98	2.04	16.13	-26.2	-27.5	16.8	0.00e+00	0	41	0	624951296	12	4221
2026-01-10 03:51:03.99	1.91	16.22	-26.2	-27.7	16.7	0.00e+00	0	41	0	630194176	12	4262
2026-01-10 03:51:04.99	1.78	16.31	-26.1	-27.5	16.8	0.00e+00	0	41	0	636485632	12	4222
2026-01-10 03:51:06.00	1.65	16.40	-26.1	-27.4	16.7	0.00e+00	0	41	0	641728512	12	4200
2026-01-10 03:51:07.00	1.52	16.50	-26.3	-27.9	16.2	0.00e+00	0	41	0	646971392	12	4340
2026-01-10 03:51:08.00	1.39	16.59	-26.1	-27.4	16.5	0.00e+00	0	41	0	653262848	12	4212
2026-01-10 03:51:09.01	1.25	16.68	-25.8	-26.8	16.7	0.00e+00	0	41	0	658505728	12	4050
2026-01-10 03:51:10.01	1.12	16.77	-25.8	-26.7	16.9	0.00e+00	0	41	0	664797184	12	4019
2026-01-10 03:51:11.01	0.99	16.86	-25.7	-26.6	17.1	0.00e+00	0	41	0	670040064	12	3987
2026-01-10 03:51:12.02	0.85	16.96	-25.6	-26.4	17.2	0.00e+00	0	41	0	676331520	12	3943
2026-01-10 03:51:13.02	0.71	17.05	-26.0	-27.1	16.9	0.00e+00	0	41	0	681574400	12	4120
2026-01-10 03:51:14.01	0.58	17.14	-25.8	-26.7	17.1	0.00e+00	0	41	0	686817280	12	4025
2026-01-10 03:51:15.02	0.44	17.23	-25.5	-26.1	17.2	0.00e+00	0	41	0	693108736	12	3881
2026-01-10 03:51:16.01	0.30	17.33	-25.7	-26.5	17.2	0.00e+00	0	41	0	698351616	12	3971
2026-01-10 03:51:17.02	0.16	17.42	-25.5	-26.1	17.3	0.00e+00	0	41	0	703594496	12	3880
2026-01-10 03:51:18.02	0.02	17.51	-25.4	-25.9	17.4	0.00e+00	0	41	0	709885952	12	3825
2026-01-10 03:51:19.02	359.88	17.61	-25.5	-26.1	17.4	0.00e+00	0	41	0	715128832	12	3861
2026-01-10 03:51:20.02	359.74	17.70	-25.4	-26.5	17.7	0.00e+00	0	41	0	721420288	11	4067
2026-01-10 03:51:21.02	359.60	17.80	-25.1	-25.8	17.8	0.00e+00	0	41	0	726663168	11	3898
2026-01-10 03:51:22.03	359.45	17.89	-25.3	-26.2	17.8	0.00e+00	0	41	0	731906048	11	4005
2026-01-10 03:51:23.03	359.31	17.98	-25.3	-26.2	17.9	0.00e+00	0	42	0	738197504	11	3983
2026-01-10 03:51:24.03	359.16	18.08	-25.3	-26.3	17.8	0.00e+00	0	41	0	743440384	11	4011
2026-01-10 03:51:25.02	359.02	18.17	-25.4	-26.5	17.7	0.00e+00	0	41	0	748683264	11	4064
2026-01-10 03:51:26.02	358.87	18.27	-25.2	-26.1	17.7	0.00e+00	0	41	0	754974720	11	3978
2026-01-10 03:51:27.02	358.72	18.36	-25.4	-26.4	17.5	0.00e+00	0	42	0	760217600	11	4043
2026-01-10 03:51:28.02	358.57	18.46	-25.8	-27.3	17.3	0.00e+00	0	41	0	765460480	11	4269
2026-01-10 03:51:29.03	358.42	18.55	-25.6	-26.9	17.4	0.00e+00	0	41	0	771751936	11	4178
2026-01-10 03:51:30.03	358.27	18.65	-25.8	-27.2	17.2	0.00e+00	0	41	0	776994816	11	4256
2026-01-10 03:51:31.04	358.11	18.74	-25.9	-26.9	17.2	0.00e+00	0	41	0	783286272	12	4063
2026-01-10 03:51:32.04	357.96	18.84	-25.4	-26.3	17.8	0.00e+00	0	41	0	788529152	11	4025
2026-01-10 03:51:33.04	357.81	18.94	-25.4	-26.4	17.8	0.00e+00	0	41	0	793772032	11	4025
2026-01-10 03:51:34.04	357.65	19.03	-25.5	-26.6	17.5	0.00e+00	0	41	0	800063488	11	4091
2026-01-10 03:51:35.03	357.50	19.13	-25.0	-25.6	18.0	0.00e+00	0	42	0	805306368	11	3846
2026-01-10 03:51:36.03	357.34	19.22	-25.7	-27.1	17.4	0.00e+00	0	41	0	810549248	11	4218
2026-01-10 03:51:37.03	357.18	19.32	-24.8	-25.6	18.4	0.00e+00	0	42	0	816840704	10	3959
2026-01-10 03:51:38.03	357.02	19.42	-24.8	-25.8	18.1	0.00e+00	0	42	0	822083584	10	4007
2026-01-10 03:51:39.03	356.86	19.51	-25.2	-26.4	17.7	0.00e+00	0	41	0	827326464	10	4171
2026-01-10 03:51:40.03	356.70	19.61	-24.9	-25.9	18.0	1.60e-05	0	42	0	833617920	10	4030
2026-01-10 03:51:41.04	356.54	19.71	-24.9	-25.9	17.9	0.00e+00	0	42	0	838860800	10	4041
2026-01-10 03:51:42.03	356.38	19.80	-24.9	-25.9	17.9	0.00e+00	0	42	0	845152256	10	4046
2026-01-10 03:51:43.04	356.21	19.90	-25.0	-26.2	17.7	0.00e+00	0	41	0	850395136	10	4106
2026-01-10 03:51:44.03	356.04	20.00	-25.1	-26.4	17.7	0.00e+00	0	41	0	855638016	10	4153
2026-01-10 03:51:45.03	355.88	20.09	-25.0	-26.1	17.8	0.00e+00	0	41	0	861929472	10	4086
2026-01-10 03:51:46.03	355.71	20.19	-24.9	-25.9	17.9	0.00e+00	0	41	0	867172352	10	4042
2026-01-10 03:51:47.03	355.54	20.29	-25.1	-26.4	17.8	0.00e+00	0	41	0	872415232	10	4160
2026-01-10 03:51:48.02	355.37	20.39	-24.8	-25.6	18.2	0.00e+00	0	42	0	878706688	10	3962
2026-01-10 03:51:49.03	355.20	20.49	-24.6	-25.3	18.2	0.00e+00	0	42	0	883949568	10	3891
2026-01-10 03:51:50.04	355.03	20.58	-24.8	-25.6	18.0	0.00e+00	0	41	0	889192448	10	3964
2026-01-10 03:51:51.04	354.85	20.68	-24.6	-25.2	18.2	0.00e+00	0	41	0	895483904	10	3881
2026-01-10 03:51:52.05	354.68	20.78	-25.0	-26.0	17.8	0.00e+00	0	42	0	900726784	10	4067
2026-01-10 03:51:53.05	354.50	20.88	-24.5	-25.6	18.3	0.00e+00	0	41	0	907018240	9	4075
2026-01-10 03:51:54.05	354.33	20.98	-25.0	-26.1	18.2	0.00e+00	0	41	0	912261120	10	4076
2026-01-10 03:51:55.06	354.15	21.08	-25.0	-26.1	18.1	0.00e+00	0	42	0	917504000	10	4081
2026-01-10 03:51:56.07	353.97	21.18	-25.1	-26.3	18.0	0.00e+00	0	42	0	923795456	10	4124
2026-01-10 03:51:57.07	353.78	21.28	-25.3	-26.7	17.8	0.00e+00	0	41	0	929038336	10	4235
2026-01-10 03:51:58.07	353.60	21.38	-24.8	-25.7	18.2	0.00e+00	0	41	0	935329792	10	3995
2026-01-10 03:51:59.08	353.42	21.48	-25.1	-26.2	18.0	0.00e+00	0	42	0	940572672	10	4108
2026-01-10 03:52:00.08	353.24	21.57	-25.6	-26.8	17.5	0.00e+00	0	42	0	945815552	11	4154
2026-01-10 03:52:01.08	353.05	21.67	-25.4	-26.3	17.9	0.00e+00	0	41	0	952107008	11	4023
2026-01-10 03:52:02.08	352.86	21.77	-25.3	-26.2	17.9	0.00e+00	0	41	0	957349888	11	4001
2026-01-10 03:52:03.08	352.68	21.87	-25.1	-25.8	18.1	0.00e+00	0	42	0	962592768	11	3904
2026-01-10 03:52:04.09	352.49	21.97	-24.8	-25.7	18.4	0.00e+00	0	41	0	968884224	10	3975
2026-01-10 03:52:05.09	352.30	22.07	-24.9	-26.0	18.2	0.00e+00	0	41	0	974127104	10	4046
2026-01-10 03:52:06.09	352.11	22.17	-24.9	-25.9	18.1	0.00e+00	0	42	0	980418560	10	4037
2026-01-10 03:52:07.10	351.91	22.27	-24.6	-25.2	18.4	0.00e+00	0	42	0	985661440	10	3855
2026-01-10 03:52:08.10	351.72	22.37	-24.5	-25.0	18.5	0.00e+00	0	42	0	990904320	10	3825
2026-01-10 03:52:09.11	351.52	22.47	-24.9	-25.8	18.2	0.00e+00	0	41	0	997195776	10	4002
2026-01-10 03:52:10.11	351.32	22.57	-24.3	-25.2	18.8	0.00e+00	0	42	0	1002438656	9	3961
2026-01-10 03:52:11.11	351.13	22.67	-24.4	-25.4	18.8	0.00e+00	0	42	0	1007681536	9	4008
2026-01-10 03:52:12.11	350.93	22.77	-24.3	-25.2	18.9	0.00e+00	0	42	0	1013972992	9	3956
2026-01-10 03:52:13.12	350.73	22.87	-24.5	-25.6	18.7	0.00e+00	0	42	0	1019215872	9	4063
2026-01-10 03:52:14.12	350.53	22.97	-24.7	-26.0	18.6	0.00e+00	0	42	0	1024458752	9	4158
2026-01-10 03:52:15.12	350.32	23.07	-24.7	-25.9	18.6	0.00e+00	0	41	0	1030750208	9	4124
2026-01-10 03:52:16.13	350.12	23.17	-24.6	-25.7	18.6	0.00e+00	0	42	0	1035993088	9	4085
2026-01-10 03:52:17.13	349.91	23.27	-24.6	-25.6	18.6	0.00e+00	0	41	0	1042284544	9	4076
2026-01-10 03:52:18.13	349.70	23.37	-24.6	-25.7	18.5	0.00e+00	0	42	0	1047527424	9	4093
2026-01-10 03:52:19.13	349.50	23.47	-24.8	-25.7	18.5	0.00e+00	0	41	0	1053818880	10	3972
2026-01-10 03:52:20.14	349.29	23.57	-24.3	-24.7	19.0	0.00e+00	0	42	0	1059061760	10	3738
2026-01-10 03:52:21.14	349.07	23.67	-24.1	-24.7	19.2	0.00e+00	0	42	0	1064304640	9	3846
2026-01-10 03:52:22.15	348.86	23.77	-24.2	-24.8	19.2	0.00e+00	0	41	0	1070596096	9	3881
2026-01-10 03:52:23.15	348.65	23.87	-24.1	-24.7	19.2	0.00e+00	0	42	0	1075838976	9	3842
2026-01-10 03:52:24.15	348.43	23.96	-24.1	-24.6	19.2	0.00e+00	0	42	0	1081081856	9	3826
2026-01-10 03:52:25.15	348.22	24.06	-24.3	-25.1	19.0	0.00e+00	0	42	0	1087373312	9	3943
2026-01-10 03:52:26.15	348.00	24.16	-24.2	-24.9	19.0	0.00e+00	0	42	0	1092616192	9	3897
2026-01-10 03:52:27.14	347.78	24.26	-24.1	-24.7	19.0	0.00e+00	0	42	0	1097859072	9	3858
2026-01-10 03:52:28.15	347.56	24.36	-24.4	-25.3	18.8	0.00e+00	0	42	0	1104150528	9	3998
2026-01-10 03:52:29.15	347.34	24.46	-24.2	-24.9	18.9	0.00e+00	0	42	0	1109393408	9	3901
2026-01-10 03:52:30.15	347.11	24.56	-24.2	-25.0	18.9	0.00e+00	0	42	0	1115684864	9	3926
2026-01-10 03:52:31.16	346.89	24.66	-24.1	-24.7	18.9	0.00e+00	0	42	0	1120927744	9	3862
2026-01-10 03:52:32.16	346.66	24.76	-23.9	-24.3	19.1	0.00e+00	0	42	0	1126170624	9	3763
2026-01-10 03:52:33.15	346.44	24.85	-23.7	-24.3	19.3	0.00e+00	0	42	0	1132462080	8	3877
2026-01-10 03:52:34.15	346.21	24.95	-23.6	-24.1	19.4	0.00e+00	0	42	0	1137704960	8	3820
2026-01-10 03:52:35.16	345.97	25.05	-23.6	-24.2	19.4	0.00e+00	0	42	0	1142947840	8	3834
2026-01-10 03:52:36.16	345.74	25.15	-23.6	-24.1	19.5	0.00e+00	0	42	0	1149239296	8	3829
2026-01-10 03:52:37.17	345.51	25.25	-23.6	-24.0	19.7	0.00e+00	0	41	0	1154482176	8	3805
2026-01-10 03:52:38.17	345.27	25.35	-23.6	-24.1	19.6	0.00e+00	0	42	0	1160773632	8	3827
2026-01-10 03:52:39.17	345.04	25.44	-23.6	-24.1	19.7	0.00e+00	0	42	0	1166016512	8	3807
2026-01-10 03:52:40.17	344.80	25.54	-23.6	-24.2	19.5	0.00e+00	0	42	0	1171259392	8	3848
2026-01-10 03:52:41.17	344.56	25.64	-23.5	-23.9	19.6	0.00e+00	0	42	0	1177550848	8	3783
2026-01-10 03:52:42.18	344.32	25.74	-23.5	-23.9	19.7	0.00e+00	0	42	0	1182793728	8	3774
2026-01-10 03:52:43.18	344.07	25.83	-23.5	-23.9	19.5	0.00e+00	0	42	0	1189085184	8	3772
2026-01-10 03:52:44.19	343.83	25.93	-23.3	-23.6	19.7	0.00e+00	0	42	0	1194328064	8	3707
2026-01-10 03:52:45.18	343.58	26.02	-23.5	-23.8	19.6	0.00e+00	0	42	0	1199570944	8	3765
2026-01-10 03:52:46.17	343.34	26.12	-23.7	-24.3	19.4	0.00e+00	0	42	0	1205862400	8	3869
2026-01-10 03:52:47.17	343.09	26.22	-23.8	-24.6	19.3	0.00e+00	0	42	0	1211105280	8	3945
2026-01-10 03:52:48.17	342.84	26.31	-23.4	-23.8	19.6	0.00e+00	0	41	0	1216348160	8	3744
2026-01-10 03:52:49.18	342.59	26.41	-23.2	-23.8	19.7	0.00e+00	0	42	0	1222639616	7	3865
2026-01-10 03:52:50.18	342.34	26.50	-23.1	-23.5	19.9	0.00e+00	0	42	0	1227882496	7	3796
2026-01-10 03:52:51.18	342.08	26.60	-23.1	-23.6	19.9	0.00e+00	0	42	0	1233125376	7	3809
2026-01-10 03:52:52.19	341.82	26.69	-23.3	-24.0	19.6	0.00e+00	0	42	0	1239416832	7	3914
2026-01-10 03:52:53.19	341.57	26.79	-23.4	-24.3	19.5	0.00e+00	0	42	0	1244659712	7	3970
2026-01-10 03:52:54.19	341.31	26.88	-23.5	-24.5	19.4	0.00e+00	0	42	0	1250951168	7	4022
2026-01-10 03:52:55.19	341.05	26.97	-23.5	-24.3	19.4	0.00e+00	0	42	0	1256194048	7	3990
2026-01-10 03:52:56.19	340.78	27.07	-23.5	-24.5	19.3	0.00e+00	0	42	0	1261436928	7	4019
2026-01-10 03:52:57.19	340.52	27.16	-23.5	-24.5	19.3	0.00e+00	0	42	0	1267728384	7	4034
2026-01-10 03:52:58.18	340.26	27.25	-23.5	-24.4	19.4	0.00e+00	0	42	0	1272971264	7	4001
2026-01-10 03:52:59.18	339.99	27.34	-23.5	-24.5	19.3	0.00e+00	0	42	0	1278214144	7	4035
2026-01-10 03:53:00.17	339.73	27.43	-23.6	-24.7	19.2	0.00e+00	0	42	0	1284505600	7	4069
2026-01-10 03:53:01.17	339.46	27.52	-23.2	-23.9	19.6	0.00e+00	0	42	0	1289748480	7	3888
2026-01-10 03:53:02.17	339.18	27.61	-23.1	-23.6	19.8	0.00e+00	0	42	0	1294991360	7	3827
2026-01-10 03:53:03.17	338.91	27.70	-23.1	-23.7	19.7	0.00e+00	0	42	0	1301282816	7	3836
2026-01-10 03:53:04.17	338.64	27.79	-23.1	-23.7	19.6	0.00e+00	0	42	0	1306525696	7	3844
2026-01-10 03:53:05.17	338.36	27.88	-23.1	-23.6	19.6	0.00e+00	0	42	0	1312817152	7	3826
2026-01-10 03:53:06.18	338.08	27.97	-23.5	-24.5	19.3	0.00e+00	0	42	0	1318060032	7	4027
2026-01-10 03:53:07.17	337.80	28.06	-23.2	-23.8	19.5	0.00e+00	0	42	0	1323302912	7	3859
2026-01-10 03:53:08.18	337.52	28.15	-23.5	-24.5	19.2	0.00e+00	0	42	0	1329594368	7	4040
2026-01-10 03:53:09.18	337.24	28.24	-23.2	-23.9	19.6	0.00e+00	0	42	0	1334837248	7	3878
2026-01-10 03:53:10.18	336.95	28.33	-23.2	-23.9	19.5	0.00e+00	0	42	0	1340080128	7	3888
2026-01-10 03:53:11.18	336.67	28.41	-23.1	-23.6	19.6	0.00e+00	0	42	0	1346371584	7	3811
2026-01-10 03:53:12.19	336.38	28.50	-23.0	-23.5	19.7	0.00e+00	0	42	0	1351614464	7	3799
2026-01-10 03:53:13.18	336.09	28.58	-23.1	-23.5	19.7	0.00e+00	0	42	0	1356857344	7	3804
2026-01-10 03:53:14.19	335.80	28.67	-23.2	-23.8	19.5	0.00e+00	0	42	0	1363148800	7	3852
2026-01-10 03:53:15.19	335.51	28.75	-23.0	-23.4	19.7	0.00e+00	0	42	0	1368391680	7	3769
2026-01-10 03:53:16.20	335.21	28.84	-23.0	-23.3	19.8	0.00e+00	0	42	0	1374683136	7	3758
2026-01-10 03:53:17.20	334.92	28.92	-23.1	-23.6	19.7	0.00e+00	0	42	0	1379926016	7	3815
2026-01-10 03:53:18.19	334.62	29.00	-23.1	-23.7	19.6	0.00e+00	0	41	0	1385168896	7	3837
2026-01-10 03:53:19.20	334.32	29.09	-23.0	-23.5	19.7	0.00e+00	0	42	0	1391460352	7	3796
2026-01-10 03:53:20.20	334.02	29.17	-23.1	-23.6	19.6	0.00e+00	0	42	0	1396703232	7	3819
2026-01-10 03:53:21.21	333.72	29.25	-23.1	-23.6	19.6	0.00e+00	0	42	0	1401946112	7	3829
2026-01-10 03:53:22.21	333.42	29.33	-23.2	-23.9	19.5	0.00e+00	0	42	0	1408237568	7	3879
2026-01-10 03:53:23.21	333.11	29.41	-23.1	-23.7	19.6	0.00e+00	0	41	0	1413480448	7	3841
2026-01-10 03:53:24.21	332.81	29.49	-23.1	-23.6	19.6	0.00e+00	0	42	0	1419771904	7	3814
2026-01-10 03:53:25.22	332.50	29.57	-23.2	-23.8	19.6	0.00e+00	0	42	0	1425014784	7	3857
2026-01-10 03:53:26.22	332.19	29.64	-23.0	-23.4	19.7	0.00e+00	0	42	0	1431306240	7	3774
2026-01-10 03:53:27.23	331.87	29.72	-23.0	-23.5	19.7	0.00e+00	0	42	0	1436549120	7	3797
2026-01-10 03:53:28.23	331.56	29.80	-23.1	-23.7	19.6	0.00e+00	0	42	0	1441792000	7	3846
2026-01-10 03:53:29.23	331.25	29.87	-23.0	-23.4	19.7	0.00e+00	0	42	0	1448083456	7	3783
2026-01-10 03:53:30.23	330.93	29.95	-23.1	-23.7	19.6	0.00e+00	0	42	0	1453326336	7	3844
2026-01-10 03:53:31.22	330.62	30.02	-23.3	-24.0	19.4	0.00e+00	0	42	0	1458569216	7	3904
2026-01-10 03:53:32.23	330.30	30.09	-23.4	-24.3	19.3	0.00e+00	0	42	0	1464860672	7	3987
2026-01-10 03:53:33.23	329.98	30.16	-23.2	-23.8	19.5	0.00e+00	0	42	0	1470103552	7	3861
2026-01-10 03:53:34.24	329.66	30.23	-23.1	-23.5	19.6	0.00e+00	0	42	0	1475346432	7	3808
2026-01-10 03:53:35.23	329.34	30.30	-22.9	-23.3	19.8	0.00e+00	0	42	0	1481637888	7	3743
2026-01-10 03:53:36.23	329.02	30.37	-22.8	-23.0	19.9	0.00e+00	0	42	0	1486880768	7	3694
2026-01-10 03:53:37.23	328.69	30.44	-23.2	-23.7	19.6	0.00e+00	0	42	0	1493172224	7	3853
2026-01-10 03:53:38.23	328.37	30.51	-22.9	-23.2	19.9	0.00e+00	0	42	0	1498415104	7	3721
2026-01-10 03:53:39.24	328.04	30.58	-22.9	-23.2	19.8	0.00e+00	0	42	0	1503657984	7	3730
2026-01-10 03:53:40.24	327.71	30.64	-22.8	-23.1	19.9	0.00e+00	0	42	0	1509949440	7	3700
2026-01-10 03:53:41.23	327.38	30.71	-22.5	-23.0	20.2	0.00e+00	0	42	0	1515192320	6	3778
2026-01-10 03:53:42.24	327.05	30.77	-22.7	-23.2	20.0	0.00e+00	0	42	0	1520435200	6	3833
2026-01-10 03:53:43.24	326.71	30.83	-22.6	-23.1	20.1	0.00e+00	0	42	0	1526726656	6	3806
2026-01-10 03:53:44.24	326.38	30.90	-22.8	-23.5	19.9	0.00e+00	0	42	0	1531969536	6	3910
2026-01-10 03:53:45.24	326.04	30.96	-22.9	-23.7	19.8	0.00e+00	0	42	0	1537212416	6	3957
2026-01-10 03:53:46.23	325.71	31.02	-22.7	-23.4	20.0	0.00e+00	0	42	0	1543503872	6	3880
2026-01-10 03:53:47.24	325.37	31.08	-22.5	-22.9	20.2	0.00e+00	0	42	0	1548746752	6	3774
2026-01-10 03:53:48.24	325.03	31.13	-22.6	-23.0	20.2	0.00e+00	0	42	0	1555038208	6	3791
2026-01-10 03:53:49.25	324.69	31.19	-22.6	-23.1	20.2	0.00e+00	0	41	0	1560281088	6	3805
2026-01-10 03:53:50.26	324.34	31.25	-23.3	-24.5	19.5	0.00e+00	0	42	0	1565523968	6	4131
2026-01-10 03:53:51.26	324.00	31.30	-23.2	-24.3	19.7	0.00e+00	0	42	0	1571815424	6	4104
2026-01-10 03:53:52.26	323.66	31.36	-23.7	-25.0	19.0	0.00e+00	0	42	0	1577058304	7	4147
2026-01-10 03:53:53.26	323.31	31.41	-23.3	-24.1	19.6	0.00e+00	0	42	0	1582301184	7	3928
2026-01-10 03:53:54.26	322.96	31.46	-23.3	-24.0	19.6	0.00e+00	0	42	0	1588592640	7	3911
2026-01-10 03:53:55.26	322.62	31.51	-23.2	-23.8	19.7	0.00e+00	0	42	0	1593835520	7	3855
2026-01-10 03:53:56.26	322.27	31.56	-23.1	-23.7	19.7	0.00e+00	0	42	0	1599078400	7	3839
2026-01-10 03:53:57.27	321.92	31.61	-23.0	-23.4	19.8	0.00e+00	0	42	0	1605369856	7	3764
2026-01-10 03:53:58.27	321.57	31.66	-23.0	-23.4	19.8	0.00e+00	0	42	0	1610612736	7	3767
2026-01-10 03:53:59.28	321.21	31.70	-23.2	-23.8	19.5	0.00e+00	0	42	0	1616904192	7	3853
2026-01-10 03:54:00.28	320.86	31.75	-22.7	-23.2	20.1	0.00e+00	0	42	0	1622147072	6	3840
2026-01-10 03:54:01.29	320.50	31.79	-22.5	-22.8	20.3	0.00e+00	0	42	0	1628438528	6	3739
2026-01-10 03:54:02.28	320.15	31.84	-22.5	-22.9	20.3	0.00e+00	0	42	0	1633681408	6	3759
2026-01-10 03:54:03.29	319.79	31.88	-22.2	-22.7	20.5	0.00e+00	0	42	0	1638924288	5	3836
2026-01-10 03:54:04.29	319.43	31.92	-22.2	-22.8	20.5	0.00e+00	0	42	0	1645215744	5	3854
2026-01-10 03:54:05.30	319.07	31.96	-22.6	-23.6	20.1	0.00e+00	0	42	0	1650458624	5	4032
2026-01-10 03:54:06.30	318.72	32.00	-22.5	-23.4	20.1	0.00e+00	0	42	0	1655701504	5	3998
2026-01-10 03:54:07.31	318.35	32.03	-22.4	-23.2	20.3	0.00e+00	0	42	0	1661992960	5	3950
2026-01-10 03:54:08.30	318.00	32.07	-22.5	-23.4	20.1	0.00e+00	0	42	0	1667235840	5	3994
2026-01-10 03:54:09.31	317.63	32.10	-22.7	-23.8	20.0	0.00e+00	0	42	0	1672478720	5	4089
2026-01-10 03:54:10.31	317.27	32.13	-22.5	-23.3	20.2	0.00e+00	0	42	0	1678770176	5	3974
2026-01-10 03:54:11.31	316.91	32.17	-22.3	-22.9	20.4	0.00e+00	0	42	0	1684013056	5	3876
2026-01-10 03:54:12.31	316.55	32.20	-22.2	-22.7	20.5	0.00e+00	0	42	0	1690304512	5	3836
2026-01-10 03:54:13.31	316.18	32.23	-22.2	-22.8	20.4	0.00e+00	0	42	0	1695547392	5	3857
2026-01-10 03:54:14.31	315.82	32.25	-22.3	-23.0	20.4	0.00e+00	0	42	0	1700790272	5	3889
2026-01-10 03:54:15.31	315.46	32.28	-22.3	-23.0	20.4	0.00e+00	0	42	0	1707081728	5	3894
2026-01-10 03:54:16.31	315.09	32.31	-22.3	-23.1	20.4	0.00e+00	0	42	0	1712324608	5	3909
2026-01-10 03:54:17.31	314.72	32.33	-22.3	-22.9	20.4	0.00e+00	0	42	0	1717567488	5	3879
2026-01-10 03:54:18.31	314.36	32.35	-22.3	-23.0	20.4	0.00e+00	0	42	0	1723858944	5	3893
2026-01-10 03:54:19.31	313.99	32.37	-22.4	-23.2	20.3	0.00e+00	0	42	0	1729101824	5	3931
2026-01-10 03:54:20.32	313.62	32.39	-22.2	-22.8	20.5	0.00e+00	0	42	0	1734344704	5	3853
2026-01-10 03:54:21.32	313.25	32.41	-22.1	-22.5	20.6	0.00e+00	0	42	0	1740636160	5	3774
2026-01-10 03:54:22.32	312.88	32.43	-22.3	-22.9	20.4	0.00e+00	0	42	0	1745879040	5	3864
2026-01-10 03:54:23.32	312.52	32.45	-22.4	-23.1	20.3	0.00e+00	0	42	0	1752170496	5	3917
2026-01-10 03:54:24.33	312.14	32.46	-22.1	-22.6	20.6	0.00e+00	0	42	0	1757413376	5	3800
2026-01-10 03:54:25.33	311.77	32.47	-22.2	-22.8	20.5	0.00e+00	0	42	0	1763704832	5	3840
2026-01-10 03:54:26.34	311.40	32.49	-22.2	-22.8	20.5	0.00e+00	0	42	0	1768947712	5	3859
2026-01-10 03:54:27.34	311.03	32.50	-22.4	-23.2	20.2	0.00e+00	0	42	0	1774190592	5	3950
2026-01-10 03:54:28.35	310.66	32.51	-22.4	-23.2	20.2	0.00e+00	0	42	0	1780482048	5	3951
2026-01-10 03:54:29.35	310.29	32.51	-22.3	-22.9	20.4	0.00e+00	0	42	0	1785724928	5	3860
2026-01-10 03:54:30.35	309.92	32.52	-22.3	-22.9	20.4	0.00e+00	0	42	0	1790967808	5	3873
2026-01-10 03:54:31.35	309.55	32.52	-22.3	-22.9	20.4	0.00e+00	0	42	0	1797259264	5	3883
2026-01-10 03:54:32.35	309.17	32.53	-22.2	-22.7	20.5	0.00e+00	0	42	0	1802502144	5	3829
2026-01-10 03:54:33.34	308.81	32.53	-22.1	-22.6	20.5	0.00e+00	0	42	0	1807745024	5	3806
2026-01-10 03:54:34.34	308.44	32.53	-22.2	-22.9	20.4	0.00e+00	0	42	0	1814036480	5	3863
2026-01-10 03:54:35.35	308.06	32.53	-22.1	-22.5	20.6	0.00e+00	0	42	0	1819279360	5	3780
2026-01-10 03:54:36.35	307.69	32.53	-22.1	-22.6	20.5	0.00e+00	0	42	0	1825570816	5	3812
2026-01-10 03:54:37.35	307.32	32.53	-22.0	-22.3	20.7	0.00e+00	0	42	0	1830813696	5	3736
2026-01-10 03:54:38.35	306.95	32.52	-21.9	-22.2	20.7	0.00e+00	0	42	0	1836056576	5	3710
2026-01-10 03:54:39.35	306.58	32.52	-22.2	-22.7	20.5	0.00e+00	0	42	0	1842348032	5	3839
2026-01-10 03:54:40.35	306.21	32.51	-22.2	-22.7	20.4	0.00e+00	0	42	0	1847590912	5	3839
2026-01-10 03:54:41.36	305.84	32.50	-22.4	-23.2	20.2	0.00e+00	0	42	0	1852833792	5	3951
2026-01-10 03:54:42.36	305.47	32.49	-22.6	-23.5	20.1	0.00e+00	0	42	0	1859125248	5	4014
2026-01-10 03:54:43.37	305.09	32.48	-22.2	-22.8	20.4	0.00e+00	0	42	0	1864368128	5	3850
2026-01-10 03:54:44.37	304.72	32.47	-22.3	-22.9	20.4	0.00e+00	0	42	0	1870659584	5	3878
2026-01-10 03:54:45.37	304.35	32.45	-22.5	-23.4	20.1	0.00e+00	0	42	0	1875902464	5	4002
2026-01-10 03:54:46.37	303.98	32.44	-22.6	-23.5	20.0	0.00e+00	0	42	0	1881145344	5	4017
2026-01-10 03:54:47.38	303.61	32.42	-22.4	-23.1	20.2	0.00e+00	0	42	0	1887436800	5	3923
2026-01-10 03:54:48.38	303.24	32.40	-22.1	-22.6	20.5	0.00e+00	0	42	0	1892679680	5	3806
2026-01-10 03:54:49.39	302.87	32.39	-22.1	-22.6	20.5	0.00e+00	0	42	0	1898971136	5	3811
2026-01-10 03:54:50.39	302.50	32.37	-22.2	-22.7	20.5	0.00e+00	0	42	0	1904214016	5	3823
2026-01-10 03:54:51.40	302.13	32.34	-22.2	-22.8	20.4	0.00e+00	0	42	0	1909456896	5	3860
2026-01-10 03:54:52.40	301.77	32.32	-22.1	-22.6	20.5	0.00e+00	0	42	0	1915748352	5	3807
2026-01-10 03:54:53.41	301.40	32.30	-21.8	-21.9	20.8	0.00e+00	0	42	0	1920991232	5	3645
2026-01-10 03:54:54.41	301.03	32.27	-21.7	-22.2	20.9	0.00e+00	0	42	0	1926234112	4	3813
2026-01-10 03:54:55.42	300.66	32.24	-21.8	-22.5	20.8	0.00e+00	0	42	0	1932525568	4	3889
2026-01-10 03:54:56.42	300.30	32.21	-22.1	-23.1	20.5	0.00e+00	0	42	0	1937768448	4	4023
2026-01-10 03:54:57.42	299.94	32.18	-22.3	-23.5	20.3	0.00e+00	0	42	0	1944059904	4	4140
2026-01-10 03:54:58.42	299.57	32.15	-22.3	-23.5	20.3	0.00e+00	0	42	0	1949302784	4	4136
2026-01-10 03:54:59.42	299.21	32.12	-22.3	-23.5	20.3	0.00e+00	0	42	0	1954545664	4	4114
2026-01-10 03:55:00.42	298.85	32.09	-22.3	-23.4	20.3	0.00e+00	0	42	0	1960837120	4	4096
2026-01-10 03:55:01.42	298.49	32.05	-22.3	-23.5	20.2	0.00e+00	0	42	0	1966080000	4	4136
2026-01-10 03:55:02.42	298.13	32.02	-22.5	-23.4	20.1	0.00e+00	0	42	0	1971322880	5	4005
2026-01-10 03:55:03.42	297.77	31.98	-22.6	-23.5	20.0	0.00e+00	0	42	0	1977614336	5	4025
2026-01-10 03:55:04.41	297.42	31.94	-22.5	-23.5	20.1	0.00e+00	0	42	0	1982857216	5	4002
2026-01-10 03:55:05.42	297.06	31.90	-22.5	-23.4	20.1	0.00e+00	0	42	0	1988100096	5	3983
2026-01-10 03:55:06.41	296.70	31.86	-22.4	-23.3	20.2	0.00e+00	0	42	0	1994391552	5	3956
2026-01-10 03:55:07.41	296.35	31.82	-22.4	-23.2	20.2	0.00e+00	0	42	0	1999634432	5	3951
2026-01-10 03:55:08.41	295.99	31.78	-22.1	-22.6	20.5	0.00e+00	0	42	0	2004877312	5	3812
2026-01-10 03:55:09.41	295.64	31.73	-22.1	-22.5	20.6	0.00e+00	0	42	0	2011168768	5	3776
2026-01-10 03:55:10.41	295.29	31.69	-22.0	-22.4	20.6	0.00e+00	0	42	0	2016411648	5	3771
2026-01-10 03:55:11.41	294.93	31.64	-22.0	-22.4	20.6	0.00e+00	0	42	0	2022703104	5	3765
2026-01-10 03:55:12.42	294.58	31.59	-22.3	-22.9	20.3	0.00e+00	0	42	0	2027945984	5	3873
2026-01-10 03:55:13.41	294.23	31.54	-22.1	-22.7	20.5	0.00e+00	0	42	0	2033188864	5	3816
2026-01-10 03:55:14.42	293.88	31.49	-22.1	-22.6	20.5	0.00e+00	0	42	0	2039480320	5	3794
2026-01-10 03:55:15.42	293.53	31.44	-22.2	-22.7	20.4	0.00e+00	0	42	0	2044723200	5	3828
2026-01-10 03:55:16.42	293.19	31.39	-22.1	-22.6	20.5	0.00e+00	0	42	0	2049966080	5	3800
2026-01-10 03:55:17.42	292.84	31.34	-21.9	-22.2	20.6	0.00e+00	0	42	0	2056257536	5	3725
2026-01-10 03:55:18.42	292.50	31.28	-22.0	-22.3	20.6	0.00e+00	0	42	0	2061500416	5	3733
2026-01-10 03:55:19.41	292.16	31.23	-22.1	-22.6	20.4	0.00e+00	0	42	0	2066743296	5	3805
2026-01-10 03:55:20.42	291.81	31.17	-22.3	-22.9	20.2	0.00e+00	0	42	0	2073034752	5	3882
2026-01-10 03:55:21.42	291.47	31.11	-22.4	-23.2	20.1	0.00e+00	0	42	0	2078277632	5	3939
2026-01-10 03:55:22.42	291.13	31.05	-22.3	-23.0	20.2	0.00e+00	0	42	0	2084569088	5	3884
2026-01-10 03:55:23.43	290.79	30.99	-22.4	-23.1	20.2	0.00e+00	0	42	0	2089811968	5	3923
2026-01-10 03:55:24.43	290.46	30.93	-22.4	-23.2	20.1	0.00e+00	0	42	0	2096103424	5	3942
2026-01-10 03:55:25.44	290.12	30.87	-22.4	-23.3	20.1	0.00e+00	0	42	0	2101346304	5	3963
2026-01-10 03:55:26.44	289.78	30.81	-22.5	-23.3	20.1	0.00e+00	0	42	0	2106589184	5	3980
2026-01-10 03:55:27.45	289.45	30.74	-22.1	-22.6	20.5	0.00e+00	0	42	0	2112880640	5	3796
2026-01-10 03:55:28.45	289.12	30.68	-22.2	-22.7	20.4	0.00e+00	0	42	0	2118123520	5	3833
2026-01-10 03:55:29.46	288.78	30.61	-22.3	-23.0	20.2	0.00e+00	0	42	0	2123366400	5	3909
2026-01-10 03:55:30.46	288.45	30.55	-22.3	-22.9	20.2	0.00e+00	0	42	0	2129657856	5	3883
2026-01-10 03:55:31.46	288.13	30.48	-22.4	-23.3	20.1	0.00e+00	0	42	0	2134900736	5	3963
2026-01-10 03:55:32.47	287.80	30.41	-22.6	-23.5	20.0	0.00e+00	0	42	0	2140143616	5	4026
2026-01-10 03:55:33.47	287.47	30.34	-22.5	-23.4	20.0	0.00e+00	0	42	0	2146435072	5	3996
2026-01-10 03:55:34.47	287.15	30.27	-22.3	-22.9	20.2	0.00e+00	0	42	0	2151677952	5	3877
2026-01-10 03:55:35.47	286.83	30.20	-22.2	-22.8	20.3	0.00e+00	0	42	0	2157969408	5	3846
2026-01-10 03:55:36.47	286.51	30.13	-22.4	-23.1	20.1	0.00e+00	0	42	0	2163212288	5	3932
2026-01-10 03:55:37.47	286.19	30.06	-22.6	-23.5	20.0	0.00e+00	0	42	0	2169503744	5	4022
2026-01-10 03:55:38.47	285.87	29.99	-22.6	-23.6	19.9	0.00e+00	0	42	0	2174746624	5	4032
2026-01-10 03:55:39.46	285.56	29.91	-22.6	-23.5	19.9	0.00e+00	0	42	0	2179989504	5	4024
2026-01-10 03:55:40.47	285.24	29.84	-22.6	-23.6	19.9	0.00e+00	0	42	0	2185232384	5	4043
2026-01-10 03:55:41.46	284.93	29.76	-22.7	-23.8	19.8	0.00e+00	0	42	0	2191523840	5	4079
2026-01-10 03:55:42.47	284.61	29.68	-22.5	-23.5	20.0	0.00e+00	0	42	0	2196766720	5	4015
2026-01-10 03:55:43.47	284.30	29.61	-22.5	-23.4	20.0	0.00e+00	0	42	0	2203058176	5	3982
2026-01-10 03:55:44.47	283.99	29.53	-22.4	-23.2	20.1	0.00e+00	0	42	0	2208301056	5	3946
2026-01-10 03:55:45.47	283.69	29.45	-22.5	-23.3	20.0	0.00e+00	0	42	0	2213543936	5	3974
2026-01-10 03:55:46.47	283.38	29.37	-22.5	-23.3	20.1	0.00e+00	0	42	0	2219835392	5	3967
2026-01-10 03:55:47.47	283.08	29.29	-22.6	-23.6	19.9	0.00e+00	0	42	0	2225078272	5	4035
2026-01-10 03:55:48.47	282.77	29.21	-22.6	-23.6	19.9	0.00e+00	0	42	0	2231369728	5	4043
2026-01-10 03:55:49.47	282.47	29.13	-22.6	-23.6	19.9	0.00e+00	0	42	0	2236612608	5	4037
2026-01-10 03:55:50.47	282.17	29.05	-22.5	-23.5	20.0	0.00e+00	0	42	0	2241855488	5	4015
2026-01-10 03:55:51.46	281.88	28.97	-22.5	-23.5	20.0	0.00e+00	0	42	0	2247098368	5	4008
2026-01-10 03:55:52.46	281.58	28.88	-22.6	-23.7	19.9	0.00e+00	0	42	0	2253389824	5	4061
2026-01-10 03:55:53.47	281.28	28.80	-22.6	-23.5	20.0	0.00e+00	0	42	0	2258632704	5	4022
2026-01-10 03:55:54.47	280.99	28.72	-22.4	-23.2	20.1	0.00e+00	0	42	0	2264924160	5	3945
2026-01-10 03:55:55.47	280.70	28.63	-22.9	-24.1	19.6	0.00e+00	0	42	0	2270167040	5	4169
2026-01-10 03:55:56.47	280.40	28.55	-22.7	-23.2	19.9	0.00e+00	0	42	0	2276458496	6	3841
2026-01-10 03:55:57.48	280.11	28.46	-22.6	-23.2	19.9	0.00e+00	0	42	0	2281701376	6	3832
2026-01-10 03:55:58.48	279.83	28.37	-22.7	-23.4	19.8	0.00e+00	0	42	0	2286944256	6	3877
2026-01-10 03:55:59.48	279.54	28.29	-22.7	-23.2	19.9	0.00e+00	0	42	0	2293235712	6	3839
2026-01-10 03:56:00.48	279.25	28.20	-22.6	-23.1	20.0	0.00e+00	0	42	0	2298478592	6	3799
2026-01-10 03:56:01.48	278.97	28.11	-22.6	-23.1	20.0	0.00e+00	0	42	0	2303721472	6	3802
2026-01-10 03:56:02.49	278.69	28.02	-23.4	-24.7	19.2	0.00e+00	0	42	0	2310012928	6	4197
2026-01-10 03:56:03.49	278.41	27.93	-22.8	-23.4	19.8	0.00e+00	0	42	0	2315255808	6	3878
2026-01-10 03:56:04.50	278.13	27.84	-22.8	-23.5	19.8	0.00e+00	0	42	0	2320498688	6	3909
2026-01-10 03:56:05.50	277.85	27.75	-22.9	-23.7	19.7	0.00e+00	0	42	0	2326790144	6	3955
2026-01-10 03:56:06.50	277.58	27.66	-23.0	-24.0	19.5	0.00e+00	0	42	0	2332033024	6	4016
2026-01-10 03:56:07.50	277.30	27.57	-22.9	-23.8	19.6	0.00e+00	0	42	0	2338324480	6	3976
2026-01-10 03:56:08.50	277.03	27.48	-22.9	-23.8	19.6	0.00e+00	0	42	0	2343567360	6	3973
2026-01-10 03:56:09.49	276.76	27.39	-22.9	-23.6	19.7	0.00e+00	0	42	0	2348810240	6	3935
2026-01-10 03:56:10.49	276.50	27.30	-23.1	-24.0	19.4	0.00e+00	0	42	0	2355101696	6	4034
2026-01-10 03:56:11.49	276.23	27.20	-22.9	-23.7	19.6	0.00e+00	0	42	0	2360344576	6	3946
2026-01-10 03:56:12.49	275.96	27.11	-23.4	-24.4	19.1	0.00e+00	0	42	0	2365587456	7	3999
2026-01-10 03:56:13.49	275.70	27.02	-23.4	-24.3	19.1	0.00e+00	0	42	0	2371878912	7	3986
2026-01-10 03:56:14.50	275.43	26.92	-23.6	-24.7	18.9	0.00e+00	0	42	0	2377121792	7	4086
2026-01-10 03:56:15.51	275.17	26.83	-23.4	-24.4	19.0	0.00e+00	0	42	0	2382364672	7	3994
2026-01-10 03:56:16.51	274.91	26.73	-23.7	-24.9	18.8	0.00e+00	0	42	0	2388656128	7	4130
2026-01-10 03:56:17.50	274.66	26.64	-23.9	-24.8	18.6	0.00e+00	0	42	0	2393899008	8	3997
2026-01-10 03:56:18.51	274.40	26.54	-23.7	-24.5	18.8	0.00e+00	0	42	0	2400190464	8	3914
2026-01-10 03:56:19.51	274.14	26.45	-23.6	-24.2	18.9	0.00e+00	0	42	0	2405433344	8	3856
2026-01-10 03:56:20.52	273.89	26.35	-23.8	-24.5	18.8	0.00e+00	0	42	0	2410676224	8	3921
2026-01-10 03:56:21.52	273.63	26.26	-23.2	-23.9	19.3	0.00e+00	0	42	0	2416967680	7	3887
2026-01-10 03:56:22.52	273.38	26.16	-23.0	-23.5	19.5	0.00e+00	0	42	0	2422210560	7	3806
2026-01-10 03:56:23.52	273.14	26.06	-23.1	-23.6	19.4	0.00e+00	0	42	0	2427453440	7	3824
2026-01-10 03:56:24.52	272.89	25.97	-23.4	-24.3	19.0	0.00e+00	0	42	0	2433744896	7	3985
2026-01-10 03:56:25.52	272.64	25.87	-23.4	-24.2	19.1	0.00e+00	0	42	0	2438987776	7	3965
2026-01-10 03:56:26.52	272.40	25.77	-23.2	-24.0	19.2	0.00e+00	0	42	0	2445279232	7	3910
2026-01-10 03:56:27.52	272.16	25.68	-23.0	-23.5	19.4	0.00e+00	0	42	0	2450522112	7	3808
2026-01-10 03:56:28.52	271.91	25.58	-22.9	-23.2	19.5	0.00e+00	0	42	0	2455764992	7	3736
2026-01-10 03:56:29.52	271.68	25.48	-22.8	-23.1	19.6	0.00e+00	0	42	0	2462056448	7	3700
2026-01-10 03:56:30.52	271.44	25.38	-22.8	-23.0	19.7	0.00e+00	0	42	0	2467299328	7	3683
2026-01-10 03:56:31.52	271.20	25.29	-22.8	-23.6	19.6	0.00e+00	0	42	0	2473590784	6	3918
2026-01-10 03:56:32.53	270.96	25.19	-22.9	-23.6	19.6	0.00e+00	0	42	0	2478833664	6	3938
2026-01-10 03:56:33.53	270.73	25.09	-22.8	-23.6	19.6	0.00e+00	0	42	0	2484076544	6	3929
2026-01-10 03:56:34.53	270.50	24.99	-22.9	-23.6	19.6	0.00e+00	0	42	0	2490368000	6	3943
2026-01-10 03:56:35.53	270.27	24.89	-23.0	-23.9	19.4	0.00e+00	0	42	0	2495610880	6	4003
2026-01-10 03:56:36.54	270.03	24.79	-22.9	-23.7	19.5	0.00e+00	0	42	0	2500853760	6	3953
2026-01-10 03:56:37.53	269.81	24.70	-22.9	-23.8	19.5	0.00e+00	0	42	0	2507145216	6	3972
2026-01-10 03:56:38.54	269.58	24.60	-23.0	-24.0	19.4	0.00e+00	0	42	0	2512388096	6	4021
2026-01-10 03:56:39.54	269.36	24.50	-23.1	-24.2	19.3	0.00e+00	0	42	0	2517630976	6	4069
2026-01-10 03:56:40.54	269.13	24.40	-23.1	-24.2	19.3	0.00e+00	0	42	0	2523922432	6	4076
2026-01-10 03:56:41.54	268.91	24.30	-23.2	-24.4	19.1	0.00e+00	0	42	0	2529165312	6	4138
2026-01-10 03:56:42.54	268.69	24.20	-23.5	-24.9	18.9	0.00e+00	0	42	0	2535456768	6	4266
2026-01-10 03:56:43.55	268.47	24.10	-23.5	-24.5	18.8	0.00e+00	0	42	0	2540699648	7	4041
2026-01-10 03:56:44.55	268.25	24.00	-23.3	-24.2	19.1	0.00e+00	0	42	0	2545942528	7	3953
2026-01-10 03:56:45.55	268.03	23.90	-24.0	-25.5	18.4	0.00e+00	0	42	0	2552233984	7	4277
2026-01-10 03:56:46.55	267.82	23.80	-24.2	-25.4	18.2	0.00e+00	0	42	0	2557476864	8	4145
2026-01-10 03:56:47.55	267.60	23.70	-23.8	-24.6	18.6	0.00e+00	0	42	0	2562719744	8	3942
2026-01-10 03:56:48.55	267.39	23.60	-23.4	-23.9	18.9	0.00e+00	0	42	0	2569011200	8	3779
2026-01-10 03:56:49.55	267.18	23.50	-23.3	-23.5	19.1	0.00e+00	0	42	0	2574254080	8	3707
2026-01-10 03:56:50.55	266.97	23.40	-23.2	-23.8	19.2	0.00e+00	0	42	0	2579496960	7	3873
2026-01-10 03:56:51.55	266.76	23.30	-23.3	-24.1	19.1	0.00e+00	0	42	0	2585788416	7	3928
2026-01-10 03:56:52.55	266.55	23.20	-23.4	-24.4	18.9	0.00e+00	0	42	0	2591031296	7	4008
2026-01-10 03:56:53.55	266.35	23.10	-23.5	-24.5	18.8	1.10e-06	0	42	0	2597322752	7	4041
2026-01-10 03:56:54.55	266.14	23.00	-23.5	-24.6	18.8	0.00e+00	0	42	0	2602565632	7	4060
2026-01-10 03:56:55.56	265.94	22.90	-23.5	-24.5	18.8	0.00e+00	0	42	0	2607808512	7	4035
2026-01-10 03:56:56.56	265.74	22.80	-23.4	-24.2	19.0	3.40e-06	0	42	0	2614099968	7	3970
2026-01-10 03:56:57.56	265.54	22.70	-23.5	-24.5	18.8	0.00e+00	0	42	0	2619342848	7	4038
2026-01-10 03:56:58.56	265.34	22.60	-23.4	-24.3	18.9	0.00e+00	0	42	0	2624585728	7	3977
2026-01-10 03:56:59.56	265.14	22.50	-23.2	-23.9	19.1	0.00e+00	0	42	0	2630877184	7	3884
2026-01-10 03:57:00.55	264.95	22.40	-23.4	-24.2	18.9	0.00e+00	0	42	0	2636120064	7	3974
2026-01-10 03:57:01.55	264.75	22.30	-23.4	-24.3	18.9	0.00e+00	0	42	0	2641362944	7	3998
2026-01-10 03:57:02.56	264.55	22.20	-23.4	-24.4	18.8	0.00e+00	0	42	0	2647654400	7	4017
2026-01-10 03:57:03.56	264.36	22.10	-23.6	-24.8	18.7	0.00e+00	0	42	0	2652897280	7	4110
2026-01-10 03:57:04.56	264.17	22.00	-23.6	-24.6	18.7	0.00e+00	0	42	0	2659188736	7	4074
2026-01-10 03:57:05.57	263.98	21.90	-23.3	-24.1	19.0	6.80e-06	0	42	0	2664431616	7	3947
2026-01-10 03:57:06.57	263.79	21.80	-23.5	-24.5	18.8	0.00e+00	0	42	0	2669674496	7	4049
2026-01-10 03:57:07.57	263.60	21.70	-23.7	-24.5	18.6	0.00e+00	0	42	0	2675965952	8	3928
2026-01-10 03:57:08.57	263.41	21.60	-23.9	-24.9	18.4	1.10e-06	0	42	0	2681208832	8	4018
2026-01-10 03:57:09.57	263.23	21.50	-23.9	-24.9	18.4	0.00e+00	0	42	0	2687500288	8	4020
2026-01-10 03:57:10.58	263.04	21.40	-24.0	-25.0	18.3	0.00e+00	0	42	0	2692743168	8	4040
2026-01-10 03:57:11.57	262.86	21.30	-23.8	-24.7	18.5	9.10e-06	0	42	0	2697986048	8	3973
2026-01-10 03:57:12.57	262.68	21.21	-23.5	-24.0	18.8	0.00e+00	0	42	0	2704277504	8	3817
2026-01-10 03:57:13.58	262.50	21.11	-23.4	-23.8	18.9	0.00e+00	0	42	0	2709520384	8	3762
2026-01-10 03:57:14.58	262.32	21.01	-23.5	-24.0	18.8	1.10e-06	0	42	0	2714763264	8	3822
2026-01-10 03:57:15.57	262.14	20.91	-23.6	-24.2	18.7	0.00e+00	0	42	0	2721054720	8	3855
2026-01-10 03:57:16.57	261.96	20.81	-23.4	-23.9	18.9	0.00e+00	0	42	0	2726297600	8	3784
2026-01-10 03:57:17.58	261.79	20.71	-23.5	-23.9	18.9	6.80e-06	0	42	0	2732589056	8	3790
2026-01-10 03:57:18.58	261.61	20.61	-23.8	-24.6	18.5	0.00e+00	0	42	0	2737831936	8	3958
2026-01-10 03:57:19.58	261.44	20.51	-23.5	-24.1	18.8	0.00e+00	0	42	0	2743074816	8	3830
2026-01-10 03:57:20.57	261.27	20.42	-23.7	-24.5	18.5	3.40e-06	0	42	0	2748317696	8	3925
2026-01-10 03:57:21.57	261.09	20.32	-23.6	-24.2	18.7	0.00e+00	0	42	0	2754609152	8	3850
2026-01-10 03:57:22.57	260.92	20.22	-23.8	-24.7	18.5	0.00e+00	0	42	0	2759852032	8	3969
2026-01-10 03:57:23.58	260.75	20.12	-23.8	-24.7	18.5	5.70e-06	0	42	0	2766143488	8	3985
2026-01-10 03:57:24.58	260.58	20.02	-23.7	-24.4	18.6	0.00e+00	0	42	0	2771386368	8	3913
2026-01-10 03:57:25.59	260.42	19.92	-23.9	-24.9	18.3	0.00e+00	0	42	0	2776629248	8	4024
2026-01-10 03:57:26.59	260.25	19.83	-23.8	-24.7	18.5	4.50e-06	0	42	0	2782920704	8	3969
2026-01-10 03:57:27.59	260.08	19.73	-23.9	-24.8	18.4	0.00e+00	0	42	0	2788163584	8	3992
2026-01-10 03:57:28.59	259.92	19.63	-24.4	-25.9	17.8	0.00e+00	0	42	0	2794455040	8	4290
2026-01-10 03:57:29.59	259.76	19.53	-25.3	-26.8	16.8	4.50e-06	0	42	0	2799697920	10	4292
2026-01-10 03:57:30.59	259.60	19.44	-25.1	-26.4	17.0	0.00e+00	0	42	0	2804940800	10	4184
2026-01-10 03:57:31.59	259.43	19.34	-24.7	-25.5	17.6	0.00e+00	0	42	0	2811232256	10	3946
2026-01-10 03:57:32.59	259.28	19.24	-24.4	-25.0	17.8	0.00e+00	0	42	0	2816475136	10	3837
2026-01-10 03:57:33.59	259.12	19.15	-24.2	-25.0	18.0	0.00e+00	0	42	0	2821718016	9	3947
2026-01-10 03:57:34.59	258.96	19.05	-24.5	-25.7	17.7	0.00e+00	0	42	0	2828009472	9	4119
2026-01-10 03:57:35.59	258.80	18.95	-24.6	-25.4	17.6	3.40e-06	0	42	0	2833252352	10	3932
2026-01-10 03:57:36.59	258.65	18.86	-24.9	-26.0	17.2	0.00e+00	0	42	0	2838495232	10	4081
2026-01-10 03:57:37.60	258.49	18.76	-24.6	-25.3	17.6	0.00e+00	0	42	0	2844786688	10	3908
2026-01-10 03:57:38.60	258.34	18.66	-25.0	-26.2	17.1	2.20e-06	0	42	0	2850029568	10	4137
2026-01-10 03:57:39.60	258.18	18.57	-25.0	-26.3	17.0	0.00e+00	0	42	0	2856321024	10	4165
2026-01-10 03:57:40.60	258.03	18.47	-25.1	-26.5	16.9	0.00e+00	0	42	0	2861563904	10	4198
2026-01-10 03:57:41.60	257.88	18.38	-25.2	-26.5	16.9	0.00e+00	0	42	0	2866806784	10	4212
2026-01-10 03:57:42.60	257.73	18.28	-25.2	-26.2	16.7	0.00e+00	0	42	0	2873098240	11	4013
2026-01-10 03:57:43.61	257.58	18.19	-25.7	-27.2	16.3	0.00e+00	0	42	0	2878341120	11	4278
2026-01-10 03:57:44.61	257.43	18.09	-25.1	-25.9	17.0	0.00e+00	0	42	0	2883584000	11	3947
2026-01-10 03:57:45.61	257.29	18.00	-25.4	-26.5	16.6	0.00e+00	0	42	0	2889875456	11	4098
2026-01-10 03:57:46.61	257.14	17.90	-25.4	-26.5	16.6	0.00e+00	0	42	0	2895118336	11	4097
2026-01-10 03:57:47.61	256.99	17.81	-24.9	-25.5	17.2	3.40e-06	0	42	0	2900361216	11	3863
2026-01-10 03:57:48.61	256.85	17.71	-25.5	-26.8	16.5	0.00e+00	0	42	0	2906652672	11	4178
2026-01-10 03:57:49.61	256.71	17.62	-26.1	-27.7	15.5	0.00e+00	0	42	0	2911895552	12	4298
2026-01-10 03:57:50.61	256.56	17.52	-25.4	-26.2	16.5	0.00e+00	0	42	0	2918187008	12	3916
2026-01-10 03:57:51.61	256.42	17.43	-26.3	-28.2	15.4	0.00e+00	0	42	0	2923429888	12	4436
2026-01-10 03:57:52.61	256.28	17.34	-26.0	-26.9	15.8	0.00e+00	0	42	0	2928672768	13	4002
2026-01-10 03:57:53.62	256.14	17.24	-25.4	-26.0	16.5	0.00e+00	0	42	0	2934964224	12	3878
2026-01-10 03:57:54.62	256.00	17.15	-25.1	-25.8	17.0	0.00e+00	0	42	0	2940207104	11	3926
2026-01-10 03:57:55.62	255.86	17.06	-25.0	-25.6	17.1	0.00e+00	0	42	0	2946498560	11	3884
2026-01-10 03:57:56.63	255.72	16.96	-24.9	-25.5	17.1	0.00e+00	0	42	0	2951741440	11	3842
2026-01-10 03:57:57.64	255.59	16.87	-24.8	-25.3	17.2	0.00e+00	0	42	0	2956984320	11	3796
2026-01-10 03:57:58.64	255.45	16.78	-24.9	-25.5	17.1	0.00e+00	0	42	0	2963275776	11	3846
2026-01-10 03:57:59.64	255.32	16.68	-25.2	-26.1	16.8	0.00e+00	0	42	0	2968518656	11	3990
2026-01-10 03:58:00.64	255.18	16.59	-25.2	-26.1	16.8	0.00e+00	0	42	0	2973761536	11	4002
2026-01-10 03:58:01.65	255.05	16.50	-25.2	-26.2	16.8	0.00e+00	0	42	0	2980052992	11	4022
2026-01-10 03:58:02.65	254.92	16.41	-25.0	-25.8	16.9	0.00e+00	0	42	0	2985295872	11	3921
2026-01-10 03:58:03.65	254.79	16.32	-24.9	-25.5	17.1	0.00e+00	0	42	0	2991587328	11	3865
2026-01-10 03:58:04.65	254.65	16.22	-25.1	-25.8	16.9	0.00e+00	0	42	0	2996830208	11	3939
2026-01-10 03:58:05.65	254.52	16.13	-24.8	-25.7	17.3	0.00e+00	0	42	0	3002073088	10	4006
2026-01-10 03:58:06.65	254.40	16.04	-25.4	-26.6	16.6	0.00e+00	0	42	0	3008364544	11	4114
2026-01-10 03:58:07.66	254.27	15.95	-25.0	-25.7	17.0	0.00e+00	0	42	0	3013607424	11	3903
2026-01-10 03:58:08.66	254.14	15.86	-25.0	-25.7	17.0	0.00e+00	0	42	0	3018850304	11	3912
2026-01-10 03:58:09.65	254.01	15.77	-25.2	-26.0	16.8	0.00e+00	0	42	0	3025141760	11	3987
2026-01-10 03:58:10.65	253.89	15.68	-25.1	-25.9	16.8	0.00e+00	0	42	0	3030384640	11	3965
2026-01-10 03:58:11.65	253.76	15.59	-25.2	-26.1	16.8	0.00e+00	0	42	0	3035627520	11	4002
2026-01-10 03:58:12.66	253.64	15.50	-25.3	-26.3	16.7	0.00e+00	0	42	0	3041918976	11	4054
2026-01-10 03:58:13.65	253.52	15.41	-25.2	-26.1	16.7	0.00e+00	0	42	0	3047161856	11	4009
2026-01-10 03:58:14.65	253.39	15.32	-25.3	-26.3	16.6	0.00e+00	0	42	0	3053453312	11	4050
2026-01-10 03:58:15.65	253.27	15.23	-25.5	-26.8	16.4	0.00e+00	0	42	0	3058696192	11	4178
2026-01-10 03:58:16.65	253.15	15.14	-25.5	-26.7	16.4	0.00e+00	0	42	0	3063939072	11	4150
2026-01-10 03:58:17.65	253.03	15.05	-25.3	-26.3	16.6	0.00e+00	0	42	0	3070230528	11	4052
2026-01-10 03:58:18.65	252.91	14.96	-25.2	-26.1	16.7	0.00e+00	0	42	0	3075473408	11	4005
2026-01-10 03:58:19.65	252.79	14.88	-25.2	-26.1	16.7	0.00e+00	0	42	0	3080716288	11	4011
2026-01-10 03:58:20.65	252.67	14.79	-25.2	-26.1	16.7	0.00e+00	0	42	0	3087007744	11	4010
2026-01-10 03:58:21.65	252.55	14.70	-25.2	-26.2	16.6	0.00e+00	0	42	0	3092250624	11	4027
2026-01-10 03:58:22.65	252.44	14.61	-25.3	-26.4	16.5	0.00e+00	0	42	0	3098542080	11	4077
2026-01-10 03:58:23.66	252.32	14.52	-25.5	-26.9	16.2	0.00e+00	0	42	0	3103784960	11	4202
2026-01-10 03:58:24.66	252.20	14.44	-25.4	-26.6	16.4	0.00e+00	0	42	0	3109027840	11	4135
2026-01-10 03:58:25.66	252.09	14.35	-25.2	-26.2	16.6	0.00e+00	0	42	0	3115319296	11	4044
2026-01-10 03:58:26.67	251.97	14.26	-25.3	-26.4	16.5	0.00e+00	0	42	0	3120562176	11	4076
2026-01-10 03:58:27.67	251.86	14.17	-25.3	-26.3	16.5	0.00e+00	0	42	0	3126853632	11	4062
2026-01-10 03:58:28.68	251.75	14.09	-25.5	-26.8	16.3	0.00e+00	0	42	0	3132096512	11	4173
2026-01-10 03:58:29.68	251.64	14.00	-25.4	-26.6	16.4	0.00e+00	0	42	0	3137339392	11	4128
2026-01-10 03:58:30.68	251.52	13.91	-25.4	-26.5	16.4	0.00e+00	0	42	0	3143630848	11	4106
2026-01-10 03:58:31.68	251.41	13.83	-25.3	-26.4	16.5	0.00e+00	0	42	0	3148873728	11	4078
2026-01-10 03:58:32.69	251.30	13.74	-25.3	-26.5	16.4	0.00e+00	0	42	0	3154116608	11	4094
2026-01-10 03:58:33.69	251.19	13.66	-25.3	-26.4	16.5	0.00e+00	0	42	0	3160408064	11	4074
2026-01-10 03:58:34.69	251.08	13.57	-25.3	-26.5	16.4	0.00e+00	0	42	0	3165650944	11	4093
2026-01-10 03:58:35.69	250.98	13.48	-25.4	-26.6	16.3	0.00e+00	0	42	0	3171942400	11	4136
2026-01-10 03:58:36.68	250.87	13.40	-25.4	-26.6	16.3	0.00e+00	0	42	0	3177185280	11	4123
2026-01-10 03:58:37.68	250.76	13.32	-25.6	-27.0	16.1	0.00e+00	0	42	0	3182428160	11	4243
2026-01-10 03:58:38.69	250.65	13.23	-25.6	-27.0	16.1	0.00e+00	0	42	0	3188719616	11	4231
2026-01-10 03:58:39.69	250.55	13.14	-25.6	-27.2	16.0	0.00e+00	0	42	0	3193962496	11	4280
2026-01-10 03:58:40.69	250.44	13.06	-25.7	-27.2	16.0	0.00e+00	0	42	0	3199205376	11	4282
2026-01-10 03:58:41.69	250.34	12.98	-25.7	-27.3	15.9	0.00e+00	0	42	0	3205496832	11	4319
2026-01-10 03:58:42.69	250.24	12.89	-25.8	-27.6	15.8	0.00e+00	0	42	0	3210739712	11	4389
2026-01-10 03:58:43.69	250.13	12.81	-25.6	-27.1	16.0	0.00e+00	0	42	0	3215982592	11	4281
2026-01-10 03:58:44.70	250.03	12.72	-25.6	-27.0	16.0	0.00e+00	0	42	0	3222274048	11	4247
2026-01-10 03:58:45.71	249.93	12.64	-25.9	-27.3	15.6	0.00e+00	0	42	0	3227516928	12	4198
2026-01-10 03:58:46.71	249.82	12.56	-25.6	-26.7	15.9	0.00e+00	0	42	0	3233808384	12	4048
2026-01-10 03:58:47.71	249.72	12.47	-25.8	-27.0	15.7	0.00e+00	0	42	0	3239051264	12	4142
2026-01-10 03:58:48.71	249.62	12.39	-25.9	-27.2	15.6	0.00e+00	0	42	0	3244294144	12	4177
2026-01-10 03:58:49.72	249.52	12.31	-25.9	-27.1	15.6	0.00e+00	0	42	0	3250585600	12	4175
2026-01-10 03:58:50.72	249.42	12.23	-25.8	-27.0	15.7	0.00e+00	0	42	0	3255828480	12	4148
2026-01-10 03:58:51.72	249.32	12.14	-25.8	-27.0	15.7	0.00e+00	0	42	0	3262119936	12	4140
2026-01-10 03:58:52.72	249.23	12.06	-25.9	-27.3	15.5	0.00e+00	0	42	0	3267362816	12	4209
2026-01-10 03:58:53.73	249.13	11.98	-26.0	-27.4	15.4	0.00e+00	0	42	0	3272605696	12	4241
2026-01-10 03:58:54.73	249.03	11.90	-26.0	-27.5	15.4	0.00e+00	0	42	0	3278897152	12	4267
2026-01-10 03:58:55.73	248.94	11.82	-26.1	-27.7	15.3	0.00e+00	0	42	0	3284140032	12	4316
2026-01-10 03:58:56.72	248.84	11.74	-26.0	-27.6	15.4	0.00e+00	0	42	0	3289382912	12	4283
2026-01-10 03:58:57.72	248.75	11.65	-26.0	-27.4	15.4	0.00e+00	0	42	0	3295674368	12	4240
2026-01-10 03:58:58.72	248.65	11.57	-25.8	-27.0	15.6	0.00e+00	0	42	0	3300917248	12	4148
2026-01-10 03:58:59.72	248.56	11.49	-25.8	-27.0	15.7	0.00e+00	0	42	0	3307208704	12	4135
2026-01-10 03:59:00.72	248.46	11.41	-25.8	-27.1	15.6	0.00e+00	0	42	0	3312451584	12	4156
2026-01-10 03:59:01.72	248.37	11.33	-25.8	-26.9	15.7	0.00e+00	0	42	0	3317694464	12	4115
2026-01-10 03:59:02.72	248.28	11.25	-25.8	-27.0	15.7	0.00e+00	0	42	0	3323985920	12	4126
2026-01-10 03:59:03.72	248.18	11.17	-25.8	-27.1	15.6	0.00e+00	0	42	0	3329228800	12	4158
2026-01-10 03:59:04.73	248.09	11.09	-25.8	-27.1	15.6	0.00e+00	0	42	0	3334471680	12	4168
2026-01-10 03:59:05.72	248.00	11.01	-25.8	-27.1	15.6	0.00e+00	0	42	0	3340763136	12	4165
2026-01-10 03:59:06.72	247.91	10.93	-26.1	-27.7	15.2	0.00e+00	0	42	0	3346006016	12	4319
2026-01-10 03:59:07.72	247.82	10.85	-26.2	-27.9	15.1	0.00e+00	0	42	0	3351248896	12	4374
2026-01-10 03:59:08.72	247.73	10.78	-26.2	-27.9	15.1	1.10e-06	0	42	0	3357540352	12	4393
2026-01-10 03:59:09.72	247.64	10.70	-26.4	-28.4	14.8	0.00e+00	0	42	0	3362783232	12	4515
2026-01-10 03:59:10.73	247.55	10.62	-26.2	-27.9	15.1	4.50e-06	0	42	0	3369074688	12	4392
2026-01-10 03:59:11.74	247.46	10.54	-26.0	-27.6	15.3	0.00e+00	0	42	0	3374317568	12	4295
2026-01-10 03:59:12.73	247.38	10.46	-26.0	-27.4	15.3	0.00e+00	0	42	0	3379560448	12	4259
2026-01-10 03:59:13.73	247.29	10.38	-26.1	-27.6	15.2	4.50e-06	0	42	0	3385851904	12	4296
2026-01-10 03:59:14.73	247.20	10.30	-26.0	-27.5	15.3	0.00e+00	0	42	0	3391094784	12	4266
2026-01-10 03:59:15.74	247.12	10.23	-26.3	-28.2	14.9	0.00e+00	0	42	0	3396337664	12	4468
2026-01-10 03:59:16.73	247.03	10.15	-26.3	-27.7	14.9	4.50e-06	0	42	0	3402629120	13	4222
2026-01-10 03:59:17.73	246.95	10.07	-26.2	-27.5	15.0	0.00e+00	0	42	0	3407872000	13	4158
2026-01-10 03:59:18.74	246.86	9.99	-26.1	-27.3	15.1	0.00e+00	0	42	0	3413114880	13	4106
2026-01-10 03:59:19.74	246.78	9.92	-26.4	-27.8	14.8	2.20e-06	0	42	0	3419406336	13	4257
2026-01-10 03:59:20.74	246.69	9.84	-27.4	-29.1	13.5	5.70e-06	0	42	0	3424649216	15	4373
2026-01-10 03:59:21.74	246.61	9.76	-27.6	-29.2	13.3	3.08e-05	0	42	0	3430940672	16	4289
2026-01-10 03:59:22.74	246.53	9.69	-27.7	-29.4	13.2	9.10e-06	0	42	0	3436183552	16	4357
2026-01-10 03:59:23.74	246.44	9.61	-27.4	-28.7	13.6	5.70e-06	0	42	0	3441426432	16	4170
2026-01-10 03:59:24.75	246.36	9.53	-27.4	-28.7	13.6	5.70e-06	0	42	0	3447717888	16	4169
2026-01-10 03:59:25.76	246.28	9.46	-27.4	-28.5	13.7	1.14e-05	0	42	0	3452960768	16	4121
2026-01-10 03:59:26.76	246.20	9.38	-27.4	-29.2	13.4	5.70e-06	0	42	0	3458203648	15	4412
2026-01-10 03:59:27.76	246.12	9.31	-27.2	-28.8	13.7	8.00e-06	0	42	0	3464495104	15	4299
2026-01-10 03:59:28.76	246.04	9.23	-26.8	-27.8	14.2	0.00e+00	0	42	0	3469737984	15	4045
2026-01-10 03:59:29.76	245.96	9.16	-26.7	-28.1	14.3	0.00e+00	0	42	0	3474980864	14	4222
2026-01-10 03:59:30.76	245.88	9.08	-26.9	-28.6	14.0	1.10e-06	0	42	0	3481272320	14	4366
2026-01-10 03:59:31.76	245.80	9.01	-27.1	-28.9	13.8	4.50e-06	0	42	0	3486515200	14	4448
2026-01-10 03:59:32.76	245.72	8.93	-26.7	-28.1	14.3	1.10e-06	0	42	0	3492806656	14	4222
2026-01-10 03:59:33.76	245.64	8.86	-27.0	-28.8	13.9	1.10e-06	0	42	0	3498049536	14	4417
2026-01-10 03:59:34.76	245.56	8.78	-26.8	-28.4	14.1	6.80e-06	0	42	0	3504340992	14	4292
2026-01-10 03:59:35.77	245.49	8.71	-26.6	-27.9	14.4	0.00e+00	0	42	0	3509583872	14	4169
2026-01-10 03:59:36.77	245.41	8.63	-27.0	-28.7	13.9	2.20e-06	0	42	0	3514826752	14	4405
2026-01-10 03:59:37.77	245.33	8.56	-26.8	-28.4	14.1	0.00e+00	0	42	0	3521118208	14	4312
2026-01-10 03:59:38.77	245.26	8.49	-26.7	-28.0	14.3	1.10e-06	0	42	0	3526361088	14	4196
2026-01-10 03:59:39.77	245.18	8.41	-26.5	-27.7	14.5	0.00e+00	0	42	0	3531603968	14	4124
2026-01-10 03:59:40.77	245.10	8.34	-26.6	-27.9	14.4	1.10e-06	0	42	0	3537895424	14	4178
2026-01-10 03:59:41.77	245.03	8.27	-26.8	-28.4	14.0	1.10e-06	0	42	0	3543138304	14	4312
2026-01-10 03:59:42.77	244.96	8.19	-27.3	-29.4	13.5	2.20e-06	0	42	0	3548381184	14	4591
2026-01-10 03:59:43.77	244.88	8.12	-27.1	-29.0	13.6	1.25e-05	0	42	0	3554672640	14	4485
2026-01-10 03:59:44.77	244.81	8.05	-26.8	-28.3	14.1	0.00e+00	0	42	0	3559915520	14	4285
2026-01-10 03:59:45.77	244.73	7.97	-26.5	-27.6	14.5	0.00e+00	0	42	0	3566206976	14	4105
2026-01-10 03:59:46.77	244.66	7.90	-26.8	-28.4	14.0	0.00e+00	0	42	0	3571449856	14	4306
2026-01-10 03:59:47.76	244.59	7.83	-26.8	-28.3	14.0	1.10e-06	0	42	0	3576692736	14	4293
2026-01-10 03:59:48.76	244.52	7.76	-26.8	-28.3	14.0	0.00e+00	0	42	0	3581935616	14	4295
2026-01-10 03:59:49.76	244.44	7.69	-26.7	-28.1	14.2	0.00e+00	0	42	0	3588227072	14	4241
2026-01-10 03:59:50.76	244.37	7.61	-26.5	-27.8	14.3	0.00e+00	0	42	0	3593469952	14	4142
2026-01-10 03:59:51.76	244.30	7.54	-26.8	-28.3	14.0	1.10e-06	0	42	0	3598712832	14	4308
2026-01-10 03:59:52.76	244.23	7.47	-27.0	-28.8	13.7	3.40e-06	0	42	0	3605004288	14	4420
2026-01-10 03:59:53.77	244.16	7.40	-26.9	-28.6	13.8	3.40e-06	0	42	0	3610247168	14	4394
2026-01-10 03:59:54.77	244.09	7.33	-26.8	-28.5	13.9	3.40e-06	0	42	0	3616538624	14	4363
2026-01-10 03:59:55.78	244.02	7.26	-27.1	-29.1	13.5	1.02e-05	0	42	0	3621781504	14	4547
2026-01-10 03:59:56.78	243.95	7.19	-27.0	-28.9	13.6	9.10e-06	0	42	0	3628072960	14	4477
2026-01-10 03:59:57.78	243.88	7.12	-26.8	-28.3	14.0	1.10e-06	0	42	0	3633315840	14	4315
2026-01-10 03:59:58.78	243.81	7.05	-32.7	-42.7	3.8	8.46e-01	0	42	104	3636461568	25	11471
2026-01-10 03:59:59.78	243.74	6.97	-33.1	-44.3	3.8	8.46e-01	0	42	104	3636461568	26	13009
2026-01-10 04:00:00.78	243.67	6.90	-33.4	-44.8	3.8	8.45e-01	0	42	104	3636461568	26	13420
2026-01-10 04:00:01.78	243.61	6.83	-33.6	-44.7	3.8	8.45e-01	0	42	104	3636461568	27	12952

#Closed at: 2026-01-10 04:00:02
#Recorded file [3636 MB]: D:/data/31010_260110_064911.dat