passes_logs/2026/01/10/R2M6_AANII_01/R2M6_AANII_01__20260110_022822_AQUA_rec.log

#Pass ID: 20260110_022822_AQUA
#Satellite: AQUA
#Configuration: AQUA
#almurnet v.1.7.20240730
#Start time: 2026-01-10 02:29:40

#Version: 2.2.20231116
#Station: R2M6_AANII_01
#Location: 30.233357 lon 59.946436 lat
#TLE: 1 27424U 02022A   26009.00333547  .00001046  00000+0  21942-3 0  9998
#TLE: 2 27424  98.4075 335.3304 0002025  85.7625 349.1392 14.61808998260011

#Time	Az	El	Level	Level2	SNR	BER	BlckErr	Temp	State	Recorded	gain1	gain2
2026-01-10 02:29:40.12	11.26	14.25	-33.4	-45.7	3.8	1.49e+00	0	42	0	0	26	14766
2026-01-10 02:29:41.11	11.21	14.36	-34.5	-53.6	3.8	7.47e-01	0	42	104	0	30	32432
2026-01-10 02:29:42.11	11.16	14.47	-34.5	-53.7	3.8	7.49e-01	0	42	104	0	30	32503
2026-01-10 02:29:43.10	11.11	14.58	-34.6	-53.8	3.8	7.44e-01	0	42	104	0	30	32771
2026-01-10 02:29:44.10	11.06	14.70	-34.6	-53.8	3.8	7.44e-01	0	42	104	0	30	32767
2026-01-10 02:29:45.09	11.00	14.81	-34.6	-53.8	3.8	7.45e-01	0	42	104	0	30	32759
2026-01-10 02:29:46.09	10.95	14.92	-34.6	-53.9	3.8	7.45e-01	0	42	104	0	30	32865
2026-01-10 02:29:47.09	10.90	15.03	-34.6	-53.8	3.8	7.44e-01	0	42	104	0	30	32671
2026-01-10 02:29:48.09	10.84	15.15	-34.6	-53.7	3.8	7.46e-01	0	42	104	0	30	32564
2026-01-10 02:29:49.08	10.79	15.26	-34.6	-53.7	3.8	7.44e-01	0	42	104	0	30	32665
2026-01-10 02:29:50.08	10.73	15.38	-34.6	-53.8	3.8	7.50e-01	0	42	104	0	30	32829
2026-01-10 02:29:51.08	10.68	15.49	-34.7	-54.0	3.8	7.46e-01	0	42	104	0	30	33123
2026-01-10 02:29:52.08	10.62	15.61	-34.9	-54.4	3.8	7.43e-01	0	42	104	0	30	33855
2026-01-10 02:29:53.06	10.57	15.73	-34.9	-54.3	3.8	7.44e-01	0	42	104	0	30	33700
2026-01-10 02:29:54.05	10.51	15.84	-34.9	-54.3	3.8	7.48e-01	0	42	104	0	30	33854
2026-01-10 02:29:55.05	10.45	15.96	-34.9	-54.4	3.8	7.44e-01	0	42	104	0	30	33890
2026-01-10 02:29:56.04	10.40	16.08	-34.7	-54.1	3.8	7.42e-01	0	42	104	0	30	33350
2026-01-10 02:29:57.05	10.34	16.20	-34.7	-54.1	3.8	7.49e-01	0	42	104	0	30	33362
2026-01-10 02:29:58.04	10.28	16.32	-34.8	-54.1	3.8	7.47e-01	0	42	104	0	30	33405
2026-01-10 02:29:59.03	10.22	16.44	-34.6	-53.8	3.8	7.46e-01	0	42	104	0	30	32874
2026-01-10 02:30:00.02	10.16	16.56	-34.6	-53.7	3.8	7.44e-01	0	42	104	0	30	32625
2026-01-10 02:30:01.02	10.10	16.68	-34.5	-53.6	3.8	7.46e-01	0	42	104	0	30	32334
2026-01-10 02:30:02.02	10.04	16.80	-34.5	-53.6	3.8	7.43e-01	0	42	104	0	30	32341
2026-01-10 02:30:03.01	9.98	16.92	-34.5	-53.5	3.8	7.43e-01	0	42	104	0	30	32302
2026-01-10 02:30:04.01	9.92	17.05	-34.5	-53.5	3.8	7.49e-01	0	42	104	0	30	32309
2026-01-10 02:30:05.01	9.85	17.17	-34.5	-53.5	3.8	7.46e-01	0	42	104	0	30	32198
2026-01-10 02:30:06.01	9.79	17.30	-34.5	-53.5	3.8	7.46e-01	0	42	104	0	30	32155
2026-01-10 02:30:07.00	9.73	17.42	-34.4	-53.4	3.8	7.45e-01	0	42	104	0	30	32027
2026-01-10 02:30:08.00	9.66	17.55	-34.4	-53.4	3.8	7.44e-01	0	42	104	0	30	32007
2026-01-10 02:30:08.99	9.60	17.67	-34.4	-53.2	3.8	7.43e-01	0	42	104	0	30	31663
2026-01-10 02:30:09.98	9.53	17.80	-34.3	-53.2	3.8	7.47e-01	0	42	104	0	30	31606
2026-01-10 02:30:10.98	9.46	17.93	-34.3	-53.1	3.8	7.45e-01	0	42	104	0	30	31359
2026-01-10 02:30:11.97	9.40	18.06	-34.2	-52.9	3.8	7.44e-01	0	42	104	0	30	31146
2026-01-10 02:30:12.98	9.33	18.19	-34.1	-52.3	3.8	7.46e-01	0	42	104	0	30	29518
2026-01-10 02:30:13.98	9.26	18.32	-33.8	-51.6	3.8	7.47e-01	0	42	104	0	29	27848
2026-01-10 02:30:14.98	9.19	18.45	-33.8	-51.3	3.8	7.46e-01	0	42	104	0	29	27062
2026-01-10 02:30:15.97	9.12	18.58	-33.7	-50.7	3.8	7.46e-01	0	42	104	0	29	25626
2026-01-10 02:30:16.97	9.05	18.72	-33.6	-50.2	3.8	7.43e-01	0	42	104	0	29	24380
2026-01-10 02:30:17.97	8.98	18.85	-33.5	-49.7	3.8	7.43e-01	0	42	104	0	29	23237
2026-01-10 02:30:18.96	8.91	18.98	-33.4	-49.3	3.8	7.44e-01	0	42	104	0	29	22421
2026-01-10 02:30:19.96	8.84	19.12	-33.4	-49.2	3.8	7.46e-01	0	42	104	0	29	22139
2026-01-10 02:30:20.96	8.76	19.25	-33.5	-49.5	3.8	7.44e-01	0	42	104	0	29	22804
2026-01-10 02:30:21.95	8.69	19.39	-33.6	-50.1	3.8	7.44e-01	0	42	104	0	29	24116
2026-01-10 02:30:22.94	8.62	19.53	-33.8	-51.2	3.8	7.45e-01	0	42	104	0	29	26729
2026-01-10 02:30:23.94	8.54	19.66	-33.8	-51.8	3.8	7.48e-01	0	42	104	0	29	28396
2026-01-10 02:30:24.94	8.46	19.80	-33.9	-52.1	3.8	7.46e-01	0	42	104	0	29	29244
2026-01-10 02:30:25.94	8.39	19.94	-33.7	-50.6	3.8	7.48e-01	0	42	104	0	29	25323
2026-01-10 02:30:26.93	8.31	20.08	-33.5	-49.8	3.8	7.42e-01	0	42	104	0	29	23625
2026-01-10 02:30:27.92	8.23	20.22	-33.0	-48.0	3.8	7.45e-01	0	42	104	0	28	20240
2026-01-10 02:30:28.92	8.15	20.36	-32.7	-47.0	3.8	7.44e-01	0	42	104	0	27	18782
2026-01-10 02:30:29.93	8.07	20.51	-32.1	-45.5	3.8	7.47e-01	0	42	104	0	26	16794
2026-01-10 02:30:30.92	7.99	20.65	-31.7	-44.7	3.9	7.41e-01	0	42	104	0	25	16067
2026-01-10 02:30:31.91	7.91	20.80	-31.4	-35.6	5.2	7.03e-01	0	42	104	0	25	5803
2026-01-10 02:30:32.91	7.83	20.94	-31.5	-35.3	16.3	6.01e-01	0	42	0	0	25	5528
2026-01-10 02:30:33.91	7.74	21.09	-31.9	-36.4	15.5	6.02e-01	0	42	0	1572864	25	6075
2026-01-10 02:30:34.90	7.66	21.23	-32.0	-36.6	15.4	6.00e-01	0	42	0	3670016	25	6179
2026-01-10 02:30:35.90	7.58	21.38	-31.8	-36.1	15.7	6.00e-01	0	42	0	5242880	25	5912
2026-01-10 02:30:36.89	7.49	21.53	-32.0	-36.6	15.5	5.99e-01	0	42	0	7340032	25	6135
2026-01-10 02:30:37.90	7.40	21.68	-31.9	-36.5	15.5	6.03e-01	0	42	0	8912896	25	6092
2026-01-10 02:30:38.89	7.31	21.83	-32.1	-36.8	15.6	6.01e-01	0	42	0	11010048	25	6221
2026-01-10 02:30:39.89	7.23	21.98	-32.2	-37.5	15.1	6.00e-01	0	42	0	13107200	25	6574
2026-01-10 02:30:40.88	7.14	22.13	-32.2	-37.3	15.1	6.00e-01	0	42	0	14680064	25	6494
2026-01-10 02:30:41.87	7.05	22.29	-32.4	-38.0	14.5	6.04e-01	0	42	0	16777216	25	6857
2026-01-10 02:30:42.87	6.95	22.44	-32.1	-36.8	15.4	6.03e-01	0	42	0	18350080	25	6219
2026-01-10 02:30:43.86	6.86	22.60	-31.8	-35.9	16.0	6.00e-01	0	42	0	20447232	25	5792
2026-01-10 02:30:44.86	6.77	22.75	-31.5	-34.9	16.8	6.01e-01	0	42	0	22020096	25	5311
2026-01-10 02:30:45.85	6.67	22.91	-31.1	-34.2	17.7	6.01e-01	0	42	0	24117248	24	5140
2026-01-10 02:30:46.85	6.58	23.07	-30.8	-33.8	18.2	6.02e-01	0	42	0	25690112	23	5100
2026-01-10 02:30:47.86	6.48	23.23	-30.5	-33.0	18.7	6.01e-01	0	42	0	27787264	23	4814
2026-01-10 02:30:48.85	6.38	23.39	-30.4	-32.9	18.8	6.00e-01	0	42	0	29884416	23	4769
2026-01-10 02:30:49.83	6.29	23.55	-30.6	-33.3	18.5	6.04e-01	0	42	0	31457280	23	4907
2026-01-10 02:30:50.82	6.19	23.71	-30.9	-34.3	17.9	6.00e-01	0	42	0	33554432	23	5277
2026-01-10 02:30:51.82	6.08	23.87	-30.6	-33.4	18.4	5.99e-01	0	42	0	35127296	23	4966
2026-01-10 02:30:52.83	5.98	24.04	-30.3	-32.9	19.1	6.02e-01	0	42	0	37224448	22	4881
2026-01-10 02:30:53.82	5.88	24.20	-30.1	-32.4	19.3	6.02e-01	0	42	0	38797312	22	4714
2026-01-10 02:30:54.82	5.77	24.37	-29.9	-32.1	19.6	6.00e-01	0	42	0	40894464	22	4597
2026-01-10 02:30:55.82	5.67	24.53	-29.9	-32.5	19.6	6.03e-01	0	42	0	42991616	21	4855
2026-01-10 02:30:56.82	5.56	24.70	-29.9	-32.5	19.6	6.02e-01	0	42	0	44564480	21	4847
2026-01-10 02:30:57.82	5.45	24.87	-30.0	-32.7	19.4	6.02e-01	0	42	0	46661632	21	4937
2026-01-10 02:30:58.81	5.34	25.04	-29.9	-32.4	19.6	6.02e-01	0	42	0	48234496	21	4836
2026-01-10 02:30:59.81	5.23	25.21	-29.7	-31.9	19.9	5.99e-01	0	42	0	50331648	21	4665
2026-01-10 02:31:00.80	5.12	25.39	-29.6	-31.7	20.0	6.00e-01	0	42	0	51904512	21	4601
2026-01-10 02:31:01.79	5.00	25.56	-29.7	-32.0	19.8	6.01e-01	0	42	0	54001664	21	4704
2026-01-10 02:31:02.80	4.89	25.74	-29.8	-32.2	19.8	5.99e-01	0	42	0	55574528	21	4744
2026-01-10 02:31:03.81	4.77	25.91	-29.8	-32.2	19.7	5.99e-01	0	42	0	57671680	21	4767
2026-01-10 02:31:04.79	4.65	26.09	-29.7	-32.0	19.8	5.99e-01	0	42	0	59768832	21	4699
2026-01-10 02:31:05.79	4.53	26.27	-29.8	-32.2	19.8	6.01e-01	0	42	0	61341696	21	4735
2026-01-10 02:31:06.78	4.42	26.44	-29.7	-31.9	20.0	5.99e-01	0	42	0	63438848	21	4640
2026-01-10 02:31:07.77	4.29	26.62	-29.9	-32.4	19.7	6.00e-01	0	42	0	65011712	21	4814
2026-01-10 02:31:08.76	4.17	26.80	-29.9	-32.5	19.5	6.01e-01	0	42	0	67108864	21	4862
2026-01-10 02:31:09.76	4.05	26.99	-29.8	-32.3	19.7	6.00e-01	0	42	0	68681728	21	4788
2026-01-10 02:31:10.76	3.92	27.17	-29.6	-31.8	20.0	6.00e-01	0	42	0	70778880	21	4625
2026-01-10 02:31:11.76	3.79	27.36	-29.7	-32.0	19.8	6.02e-01	0	42	0	72351744	21	4691
2026-01-10 02:31:12.75	3.66	27.54	-30.0	-32.7	19.5	6.00e-01	0	42	0	74448896	21	4916
2026-01-10 02:31:13.75	3.53	27.73	-30.0	-32.6	19.7	6.02e-01	0	42	0	76546048	21	4868
2026-01-10 02:31:14.75	3.40	27.92	-29.8	-32.1	20.1	6.02e-01	0	42	0	78118912	21	4692
2026-01-10 02:31:15.74	3.26	28.11	-29.7	-31.8	20.2	6.00e-01	0	42	0	80216064	21	4608
2026-01-10 02:31:16.73	3.13	28.30	-29.6	-31.7	20.3	6.01e-01	0	42	0	81788928	21	4559
2026-01-10 02:31:17.72	2.99	28.49	-29.7	-31.9	20.1	6.02e-01	0	42	0	83886080	21	4625
2026-01-10 02:31:18.72	2.85	28.68	-29.7	-31.9	20.1	5.99e-01	0	42	0	85458944	21	4631
2026-01-10 02:31:19.73	2.70	28.88	-29.8	-32.0	20.0	6.02e-01	0	42	0	87556096	21	4677
2026-01-10 02:31:20.72	2.56	29.08	-29.8	-32.1	19.9	6.00e-01	0	42	0	89128960	21	4700
2026-01-10 02:31:21.72	2.42	29.28	-29.6	-31.7	20.2	6.02e-01	0	42	0	91226112	21	4577
2026-01-10 02:31:22.71	2.27	29.47	-29.4	-31.5	20.7	6.01e-01	0	42	0	93323264	20	4599
2026-01-10 02:31:23.71	2.12	29.67	-29.1	-31.0	21.0	6.00e-01	0	42	0	94896128	20	4462
2026-01-10 02:31:24.70	1.97	29.87	-29.2	-31.0	21.0	6.02e-01	0	42	0	96993280	20	4474
2026-01-10 02:31:25.69	1.82	30.08	-29.3	-31.5	20.6	6.00e-01	0	42	0	98566144	20	4619
2026-01-10 02:31:26.69	1.66	30.28	-29.5	-31.8	20.5	6.00e-01	0	42	0	100663296	20	4707
2026-01-10 02:31:27.68	1.50	30.48	-29.4	-31.7	20.6	6.01e-01	0	42	0	102236160	20	4663
2026-01-10 02:31:28.68	1.34	30.69	-29.4	-31.7	20.5	6.02e-01	0	42	0	104333312	20	4670
2026-01-10 02:31:29.68	1.18	30.90	-29.3	-31.3	20.7	6.02e-01	0	42	0	106430464	20	4554
2026-01-10 02:31:30.67	1.02	31.11	-29.7	-32.3	20.2	6.03e-01	0	42	0	108003328	20	4872
2026-01-10 02:31:31.67	0.85	31.32	-29.5	-31.8	20.4	6.00e-01	0	42	0	110100480	20	4708
2026-01-10 02:31:32.67	0.68	31.53	-29.4	-31.7	20.5	6.01e-01	0	42	0	111673344	20	4675
2026-01-10 02:31:33.66	0.51	31.74	-29.7	-32.3	20.3	6.01e-01	0	42	0	113770496	20	4866
2026-01-10 02:31:34.65	0.34	31.96	-29.6	-32.2	20.3	6.03e-01	0	42	0	115343360	20	4851
2026-01-10 02:31:35.65	0.16	32.17	-29.9	-33.0	19.8	6.02e-01	0	42	0	117440512	20	5109
2026-01-10 02:31:36.65	359.99	32.39	-30.0	-33.2	19.7	6.02e-01	0	42	0	119013376	20	5190
2026-01-10 02:31:37.64	359.81	32.61	-29.9	-32.8	20.1	6.02e-01	0	42	0	121110528	20	5031
2026-01-10 02:31:38.64	359.62	32.83	-29.8	-32.5	20.2	6.00e-01	0	42	0	123207680	20	4926
2026-01-10 02:31:39.62	359.44	33.05	-29.7	-32.3	20.3	6.00e-01	0	42	0	124780544	20	4868
2026-01-10 02:31:40.63	359.25	33.28	-29.7	-32.3	20.2	6.01e-01	0	42	0	126877696	20	4862
2026-01-10 02:31:41.61	359.06	33.50	-29.8	-32.7	20.0	6.00e-01	0	42	0	128450560	20	5006
2026-01-10 02:31:42.61	358.86	33.72	-30.3	-33.3	19.3	6.00e-01	0	42	0	130547712	21	5119
2026-01-10 02:31:43.61	358.67	33.95	-30.3	-33.4	19.5	6.00e-01	0	42	0	132120576	21	5116
2026-01-10 02:31:44.61	358.47	34.18	-30.2	-33.2	19.4	6.00e-01	0	42	0	134217728	21	5056
2026-01-10 02:31:45.60	358.27	34.41	-29.9	-32.4	19.9	6.00e-01	0	42	0	135790592	21	4783
2026-01-10 02:31:46.60	358.06	34.64	-29.7	-31.9	20.2	6.01e-01	0	42	0	137887744	21	4622
2026-01-10 02:31:47.61	357.85	34.88	-29.9	-32.3	20.0	6.00e-01	0	42	0	139984896	21	4767
2026-01-10 02:31:48.61	357.63	35.11	-30.1	-32.8	19.7	6.01e-01	0	42	0	141557760	21	4917
2026-01-10 02:31:49.60	357.42	35.35	-30.0	-32.6	19.8	6.01e-01	0	42	0	143654912	21	4870
2026-01-10 02:31:50.60	357.20	35.59	-30.0	-32.6	19.8	6.00e-01	0	42	0	145227776	21	4860
2026-01-10 02:31:51.59	356.98	35.82	-30.1	-32.9	19.7	6.01e-01	0	42	0	147324928	21	4948
2026-01-10 02:31:52.60	356.75	36.07	-30.2	-33.2	19.4	6.02e-01	0	42	0	149422080	21	5057
2026-01-10 02:31:53.60	356.52	36.31	-30.4	-33.5	19.2	6.03e-01	0	42	0	150994944	21	5182
2026-01-10 02:31:54.60	356.29	36.55	-30.5	-33.9	19.0	5.99e-01	0	42	0	153092096	21	5345
2026-01-10 02:31:55.60	356.05	36.80	-30.5	-34.0	19.0	6.02e-01	0	42	0	154664960	21	5358
2026-01-10 02:31:56.59	355.81	37.04	-30.6	-33.8	18.7	6.00e-01	0	42	0	156762112	22	5189
2026-01-10 02:31:57.59	355.57	37.29	-30.6	-33.7	18.8	6.01e-01	0	42	0	158334976	22	5147
2026-01-10 02:31:58.59	355.32	37.54	-30.6	-33.6	18.9	5.99e-01	0	42	0	160432128	22	5081
2026-01-10 02:31:59.59	355.07	37.79	-30.8	-34.3	18.5	6.01e-01	0	42	0	162529280	22	5361
2026-01-10 02:32:00.59	354.81	38.04	-31.2	-34.8	17.9	6.01e-01	0	42	0	164102144	23	5443
2026-01-10 02:32:01.59	354.55	38.30	-31.2	-34.9	17.7	6.00e-01	0	42	0	166199296	23	5518
2026-01-10 02:32:02.60	354.28	38.55	-30.8	-33.8	18.3	6.00e-01	0	42	0	167772160	23	5080
2026-01-10 02:32:03.59	354.02	38.81	-30.7	-33.5	18.6	6.01e-01	0	42	0	169869312	23	4958
2026-01-10 02:32:04.59	353.74	39.06	-31.1	-34.6	18.0	6.02e-01	0	42	0	171442176	23	5358
2026-01-10 02:32:05.59	353.47	39.32	-31.3	-35.1	17.6	6.03e-01	0	42	0	173539328	23	5588
2026-01-10 02:32:06.59	353.18	39.58	-31.0	-34.3	18.1	6.00e-01	0	42	0	175636480	23	5263
2026-01-10 02:32:07.59	352.90	39.84	-31.0	-34.2	18.2	6.02e-01	0	42	0	177209344	23	5237
2026-01-10 02:32:08.59	352.60	40.11	-31.0	-34.2	18.2	6.02e-01	0	42	0	179306496	23	5215
2026-01-10 02:32:09.59	352.31	40.37	-31.3	-35.2	17.6	6.03e-01	0	42	0	180879360	23	5617
2026-01-10 02:32:10.59	352.00	40.64	-31.3	-35.2	17.5	6.00e-01	0	42	0	182976512	23	5605
2026-01-10 02:32:11.59	351.70	40.90	-31.1	-34.6	17.8	6.00e-01	0	42	0	184549376	23	5372
2026-01-10 02:32:12.59	351.38	41.17	-31.1	-34.4	18.0	6.00e-01	0	42	0	186646528	23	5299
2026-01-10 02:32:13.59	351.07	41.44	-31.2	-34.9	17.8	5.99e-01	0	42	0	188743680	23	5489
2026-01-10 02:32:14.59	350.74	41.71	-31.0	-34.4	18.2	6.00e-01	0	42	0	190316544	23	5271
2026-01-10 02:32:15.60	350.41	41.98	-30.9	-34.0	18.4	5.99e-01	0	41	0	192413696	23	5116
2026-01-10 02:32:16.60	350.07	42.25	-31.0	-34.2	18.2	6.00e-01	0	42	0	193986560	23	5229
2026-01-10 02:32:17.60	349.73	42.52	-30.6	-33.1	19.0	5.99e-01	0	42	0	196083712	23	4793
2026-01-10 02:32:18.61	349.38	42.80	-30.7	-33.4	18.5	6.00e-01	0	42	0	198180864	23	4908
2026-01-10 02:32:19.61	349.03	43.07	-30.9	-33.9	18.7	6.01e-01	0	42	0	199753728	23	5074
2026-01-10 02:32:20.61	348.67	43.35	-30.6	-33.0	19.2	6.00e-01	0	42	0	201850880	23	4747
2026-01-10 02:32:21.61	348.31	43.63	-30.6	-32.9	19.3	6.05e-01	0	42	0	203423744	23	4707
2026-01-10 02:32:22.61	347.93	43.90	-30.9	-34.0	18.7	6.01e-01	0	42	0	205520896	23	5089
2026-01-10 02:32:23.61	347.55	44.18	-31.0	-34.1	18.8	6.01e-01	0	42	0	207093760	23	5112
2026-01-10 02:32:24.61	347.17	44.46	-30.8	-33.5	19.2	6.00e-01	0	42	0	209190912	23	4906
2026-01-10 02:32:25.62	346.77	44.74	-30.6	-33.0	19.3	6.02e-01	0	42	0	211288064	23	4727
2026-01-10 02:32:26.62	346.37	45.02	-30.6	-33.0	19.4	6.01e-01	0	42	0	212860928	23	4719
2026-01-10 02:32:27.62	345.97	45.30	-31.1	-34.1	18.9	6.00e-01	0	42	0	214958080	23	5085
2026-01-10 02:32:28.62	345.55	45.58	-30.9	-33.6	19.1	6.02e-01	0	42	0	216530944	23	4936
2026-01-10 02:32:29.63	345.12	45.86	-30.9	-33.7	19.2	6.00e-01	0	42	0	218628096	23	4948
2026-01-10 02:32:30.63	344.69	46.15	-31.2	-34.3	19.0	5.99e-01	0	42	0	220725248	23	5148
2026-01-10 02:32:31.63	344.26	46.43	-30.8	-33.4	19.1	5.98e-01	0	42	0	222298112	23	4875
2026-01-10 02:32:32.64	343.81	46.71	-31.0	-33.9	18.9	6.02e-01	0	42	0	224395264	23	5040
2026-01-10 02:32:33.64	343.35	46.99	-31.1	-34.1	18.9	6.01e-01	0	42	0	225968128	23	5096
2026-01-10 02:32:34.64	342.89	47.27	-30.9	-33.8	19.0	6.00e-01	0	42	0	228065280	23	4988
2026-01-10 02:32:35.64	342.42	47.56	-31.4	-34.7	18.8	6.01e-01	0	42	0	229638144	23	5317
2026-01-10 02:32:36.65	341.93	47.84	-31.1	-34.2	18.9	6.02e-01	0	42	0	231735296	23	5134
2026-01-10 02:32:37.65	341.44	48.12	-30.9	-33.7	19.2	6.00e-01	0	42	0	233832448	23	4943
2026-01-10 02:32:38.65	340.95	48.40	-31.2	-34.3	18.9	6.03e-01	0	42	0	235405312	23	5144
2026-01-10 02:32:39.66	340.43	48.68	-31.3	-34.6	18.7	6.01e-01	0	42	0	237502464	23	5275
2026-01-10 02:32:40.66	339.92	48.96	-31.2	-34.3	18.9	6.03e-01	0	42	0	239075328	23	5126
2026-01-10 02:32:41.67	339.38	49.25	-31.0	-33.9	19.1	6.00e-01	0	42	0	241172480	23	5009
2026-01-10 02:32:42.68	338.84	49.53	-30.9	-33.6	19.3	6.02e-01	0	42	0	243269632	23	4898
2026-01-10 02:32:43.68	338.29	49.80	-31.2	-34.5	18.7	6.01e-01	0	42	0	244842496	23	5229
2026-01-10 02:32:44.68	337.74	50.08	-31.0	-33.7	19.4	6.02e-01	0	42	0	246939648	23	4920
2026-01-10 02:32:45.68	337.17	50.35	-30.7	-33.1	19.7	6.00e-01	0	42	0	248512512	23	4721
2026-01-10 02:32:46.68	336.59	50.63	-30.9	-33.7	19.2	6.02e-01	0	42	0	250609664	23	4952
2026-01-10 02:32:47.68	336.00	50.90	-30.9	-33.7	19.2	5.99e-01	0	42	0	252706816	23	4929
2026-01-10 02:32:48.68	335.40	51.17	-30.6	-32.9	19.6	6.02e-01	0	42	0	254279680	23	4684
2026-01-10 02:32:49.68	334.79	51.44	-30.5	-32.6	19.6	6.03e-01	0	42	0	256376832	23	4591
2026-01-10 02:32:50.68	334.17	51.71	-30.5	-32.7	19.5	6.02e-01	0	42	0	257949696	23	4654
2026-01-10 02:32:51.68	333.54	51.97	-30.2	-32.6	19.9	6.01e-01	0	42	0	260046848	22	4697
2026-01-10 02:32:52.68	332.89	52.23	-30.3	-32.8	19.9	6.00e-01	0	42	0	261619712	22	4760
2026-01-10 02:32:53.68	332.24	52.49	-30.2	-32.5	19.9	6.01e-01	0	42	0	263716864	22	4685
2026-01-10 02:32:54.68	331.57	52.75	-30.1	-32.2	20.0	6.01e-01	0	42	0	265814016	22	4583
2026-01-10 02:32:55.68	330.89	53.01	-30.5	-33.2	19.5	6.00e-01	0	42	0	267386880	22	4915
2026-01-10 02:32:56.68	330.19	53.26	-30.4	-32.9	19.8	6.02e-01	0	42	0	269484032	22	4799
2026-01-10 02:32:57.68	329.49	53.51	-30.1	-32.1	20.2	6.01e-01	0	42	0	271056896	22	4552
2026-01-10 02:32:58.68	328.77	53.76	-30.2	-32.5	20.0	6.02e-01	0	42	0	273154048	22	4684
2026-01-10 02:32:59.68	328.04	54.00	-30.4	-33.0	19.6	6.01e-01	0	42	0	275251200	22	4843
2026-01-10 02:33:00.68	327.30	54.24	-30.2	-32.4	19.8	6.02e-01	0	42	0	276824064	22	4673
2026-01-10 02:33:01.69	326.54	54.48	-30.4	-33.0	19.6	6.01e-01	0	42	0	278921216	22	4852
2026-01-10 02:33:02.69	325.77	54.71	-30.6	-33.5	19.4	5.99e-01	0	42	0	280494080	22	5001
2026-01-10 02:33:03.69	324.99	54.93	-31.0	-34.5	18.7	6.00e-01	0	42	0	282591232	22	5384
2026-01-10 02:33:04.69	324.20	55.16	-30.8	-34.0	19.0	6.00e-01	0	42	0	284164096	22	5203
2026-01-10 02:33:05.70	323.39	55.38	-30.5	-33.2	19.3	6.01e-01	0	42	0	286261248	22	4913
2026-01-10 02:33:06.70	322.57	55.59	-30.8	-34.0	18.9	6.00e-01	0	42	0	288358400	22	5215
2026-01-10 02:33:07.69	321.75	55.80	-30.9	-34.4	18.7	6.00e-01	0	42	0	289931264	22	5376
2026-01-10 02:33:08.69	320.91	56.00	-30.8	-34.0	19.1	6.00e-01	0	42	0	292028416	22	5209
2026-01-10 02:33:09.69	320.05	56.20	-30.9	-33.7	18.9	6.02e-01	0	42	0	293601280	23	4982
2026-01-10 02:33:10.69	319.18	56.39	-30.8	-33.4	19.0	5.98e-01	0	42	0	295698432	23	4886
2026-01-10 02:33:11.69	318.30	56.58	-30.4	-32.9	19.6	6.00e-01	0	42	0	297271296	22	4815
2026-01-10 02:33:12.70	317.40	56.76	-30.5	-33.3	19.4	6.01e-01	0	42	0	299368448	22	4957
2026-01-10 02:33:13.70	316.50	56.94	-30.8	-34.1	18.9	6.02e-01	0	42	0	301465600	22	5235
2026-01-10 02:33:14.70	315.59	57.11	-30.5	-33.3	19.4	6.01e-01	0	42	0	303038464	22	4943
2026-01-10 02:33:15.70	314.66	57.27	-30.8	-34.0	18.9	6.01e-01	0	42	0	305135616	22	5212
2026-01-10 02:33:16.71	313.71	57.43	-30.8	-34.0	18.9	6.00e-01	0	42	0	306708480	22	5225
2026-01-10 02:33:17.71	312.76	57.57	-31.0	-34.6	18.5	6.03e-01	0	42	0	308805632	22	5455
2026-01-10 02:33:18.71	311.81	57.72	-30.8	-34.1	18.8	6.00e-01	0	42	0	310378496	22	5249
2026-01-10 02:33:19.71	310.84	57.85	-31.0	-34.6	18.4	6.02e-01	0	42	0	312475648	22	5481
2026-01-10 02:33:20.72	309.85	57.98	-30.8	-34.2	18.6	6.00e-01	0	42	0	314572800	22	5298
2026-01-10 02:33:21.71	308.87	58.10	-30.8	-34.2	18.6	6.00e-01	0	42	0	316145664	22	5309
2026-01-10 02:33:22.71	307.88	58.21	-30.9	-34.5	18.4	6.03e-01	0	42	0	318242816	22	5416
2026-01-10 02:33:23.71	306.88	58.31	-30.8	-34.2	18.7	5.99e-01	0	42	0	319815680	22	5316
2026-01-10 02:33:24.71	305.86	58.41	-31.0	-34.1	18.4	6.00e-01	0	42	0	321912832	23	5169
2026-01-10 02:33:25.71	304.85	58.49	-31.3	-35.0	17.8	6.00e-01	0	42	0	323485696	23	5510
2026-01-10 02:33:26.72	303.81	58.57	-31.7	-35.8	17.0	6.00e-01	0	42	0	325582848	24	5741
2026-01-10 02:33:27.72	302.78	58.64	-31.8	-36.2	16.6	6.01e-01	0	42	0	327680000	24	5917
2026-01-10 02:33:28.72	301.75	58.70	-31.7	-35.7	16.9	6.01e-01	0	42	0	329252864	24	5712
2026-01-10 02:33:29.72	300.71	58.76	-31.4	-34.9	17.5	6.01e-01	0	42	0	331350016	24	5355
2026-01-10 02:33:30.73	299.65	58.80	-30.9	-34.0	18.2	6.00e-01	0	42	0	333447168	23	5127
2026-01-10 02:33:31.73	298.60	58.84	-31.3	-35.0	18.0	6.00e-01	0	42	0	335020032	23	5519
2026-01-10 02:33:32.74	297.54	58.86	-31.5	-35.1	17.6	6.01e-01	0	42	0	337117184	24	5429
2026-01-10 02:33:33.74	296.49	58.88	-31.1	-34.0	18.3	6.02e-01	0	42	0	338690048	24	4983
2026-01-10 02:33:34.75	295.43	58.89	-31.2	-34.7	18.4	5.99e-01	0	42	0	340787200	23	5353
2026-01-10 02:33:35.75	294.38	58.89	-31.3	-34.8	18.2	6.00e-01	0	42	0	342360064	23	5420
2026-01-10 02:33:36.75	293.32	58.88	-31.2	-34.6	18.3	6.01e-01	0	42	0	344457216	23	5315
2026-01-10 02:33:37.75	292.27	58.86	-30.9	-33.8	18.7	6.00e-01	0	42	0	346554368	23	5032
2026-01-10 02:33:38.76	291.21	58.84	-30.5	-32.8	19.2	6.03e-01	0	42	0	348127232	23	4679
2026-01-10 02:33:39.76	290.16	58.80	-31.0	-33.9	18.7	6.00e-01	0	42	0	350224384	23	5083
2026-01-10 02:33:40.77	289.11	58.76	-31.1	-34.4	18.3	6.01e-01	0	42	0	351797248	23	5281
2026-01-10 02:33:41.77	288.07	58.70	-30.9	-33.9	18.6	6.03e-01	0	42	0	353894400	23	5101
2026-01-10 02:33:42.77	287.03	58.64	-31.4	-35.3	17.7	5.99e-01	0	42	0	355991552	23	5638
2026-01-10 02:33:43.77	286.00	58.57	-31.5	-35.2	17.4	6.00e-01	0	42	0	357564416	24	5478
2026-01-10 02:33:44.78	284.97	58.49	-31.0	-34.1	18.3	6.02e-01	0	42	0	359661568	23	5144
2026-01-10 02:33:45.78	283.95	58.40	-31.7	-35.6	17.4	5.99e-01	0	42	0	361234432	24	5663
2026-01-10 02:33:46.78	282.94	58.31	-31.7	-35.6	17.2	6.02e-01	0	42	0	363331584	24	5635
2026-01-10 02:33:47.78	281.93	58.20	-31.3	-34.3	18.2	6.01e-01	0	42	0	365428736	24	5106
2026-01-10 02:33:48.78	280.94	58.09	-31.0	-34.2	18.5	6.01e-01	0	42	0	367001600	23	5194
2026-01-10 02:33:49.79	279.94	57.97	-31.5	-35.0	17.4	6.01e-01	0	42	0	369098752	24	5413
2026-01-10 02:33:50.79	278.96	57.85	-31.1	-33.8	18.5	6.00e-01	0	42	0	370671616	24	4931
2026-01-10 02:33:51.79	277.99	57.71	-30.8	-33.8	18.7	5.98e-01	0	42	0	372768768	23	5060
2026-01-10 02:33:52.79	277.03	57.57	-30.9	-34.0	18.4	6.01e-01	0	42	0	374341632	23	5151
2026-01-10 02:33:53.80	276.08	57.42	-30.8	-33.7	18.5	6.01e-01	0	42	0	376438784	23	5022
2026-01-10 02:33:54.80	275.14	57.26	-31.0	-34.2	18.3	6.00e-01	0	42	0	378535936	23	5222
2026-01-10 02:33:55.79	274.22	57.10	-30.7	-33.3	18.8	6.00e-01	0	42	0	380108800	23	4880
2026-01-10 02:33:56.80	273.30	56.93	-30.6	-33.2	18.8	6.02e-01	0	42	0	382205952	23	4840
2026-01-10 02:33:57.80	272.39	56.76	-30.3	-32.9	19.2	6.01e-01	0	42	0	383778816	22	4852
2026-01-10 02:33:58.80	271.50	56.57	-29.9	-31.9	20.0	5.99e-01	0	42	0	385875968	22	4507
2026-01-10 02:33:59.81	270.61	56.38	-29.8	-32.1	20.2	6.01e-01	0	42	0	387448832	21	4694
2026-01-10 02:34:00.82	269.73	56.19	-30.1	-32.7	19.9	6.01e-01	0	42	0	389545984	21	4887
2026-01-10 02:34:01.82	268.88	55.99	-30.3	-33.3	19.3	6.00e-01	0	42	0	391643136	21	5121
2026-01-10 02:34:02.82	268.03	55.79	-29.7	-31.9	20.2	6.00e-01	0	42	0	393216000	21	4623
2026-01-10 02:34:03.82	267.20	55.58	-29.9	-32.3	20.1	6.01e-01	0	42	0	395313152	21	4736
2026-01-10 02:34:04.82	266.39	55.36	-30.2	-33.2	19.3	5.98e-01	0	42	0	397410304	21	5086
2026-01-10 02:34:05.83	265.57	55.14	-30.9	-34.0	18.5	6.02e-01	0	42	0	398983168	23	5141
2026-01-10 02:34:06.84	264.77	54.91	-30.6	-33.2	18.9	6.00e-01	0	42	0	401080320	23	4839
2026-01-10 02:34:07.84	263.99	54.69	-31.2	-34.8	17.9	6.01e-01	0	42	0	402653184	23	5460
2026-01-10 02:34:08.84	263.22	54.45	-31.2	-34.8	17.9	6.00e-01	0	42	0	404750336	23	5450
2026-01-10 02:34:09.85	262.46	54.21	-30.0	-32.0	19.7	6.02e-01	0	42	0	406323200	22	4535
2026-01-10 02:34:10.85	261.72	53.97	-30.0	-32.6	19.7	6.01e-01	0	42	0	408420352	21	4865
2026-01-10 02:34:11.85	260.99	53.73	-29.3	-31.4	20.7	6.00e-01	0	42	0	410517504	20	4566
2026-01-10 02:34:12.86	260.26	53.48	-29.5	-31.9	20.5	6.02e-01	0	42	0	412090368	20	4728
2026-01-10 02:34:13.86	259.56	53.23	-29.7	-32.3	20.3	6.00e-01	0	42	0	414187520	20	4865
2026-01-10 02:34:14.86	258.87	52.98	-29.5	-31.8	20.5	6.01e-01	0	42	0	415760384	20	4704
2026-01-10 02:34:15.86	258.19	52.72	-29.3	-31.4	20.7	6.01e-01	0	42	0	417857536	20	4577
2026-01-10 02:34:16.86	257.52	52.46	-29.1	-31.0	21.0	6.01e-01	0	42	0	419430400	20	4451
2026-01-10 02:34:17.86	256.86	52.20	-29.4	-31.7	20.5	6.00e-01	0	42	0	421527552	20	4690
2026-01-10 02:34:18.86	256.21	51.94	-29.3	-31.4	20.6	6.00e-01	0	42	0	423624704	20	4584
2026-01-10 02:34:19.86	255.58	51.67	-29.2	-31.2	20.7	6.01e-01	0	42	0	425197568	20	4513
2026-01-10 02:34:20.85	254.97	51.41	-29.0	-30.6	21.0	6.01e-01	0	42	0	427294720	20	4337
2026-01-10 02:34:21.86	254.35	51.13	-29.6	-32.1	20.3	6.02e-01	0	42	0	428867584	20	4813
2026-01-10 02:34:22.85	253.75	50.86	-29.9	-32.8	19.8	6.00e-01	0	42	0	430964736	20	5067
2026-01-10 02:34:23.85	253.16	50.59	-29.0	-30.6	21.0	6.02e-01	0	42	0	432537600	20	4348
2026-01-10 02:34:24.86	252.58	50.31	-29.7	-32.4	19.9	5.98e-01	0	42	0	434634752	20	4932
2026-01-10 02:34:25.86	252.01	50.04	-29.9	-32.4	19.8	6.00e-01	0	42	0	436731904	21	4793
2026-01-10 02:34:26.86	251.46	49.76	-30.1	-32.8	19.9	6.02e-01	0	42	0	438304768	21	4948
2026-01-10 02:34:27.86	250.91	49.48	-29.8	-32.1	20.1	5.97e-01	0	42	0	440401920	21	4693
2026-01-10 02:34:28.87	250.37	49.20	-30.4	-33.6	19.2	6.01e-01	0	42	0	441974784	21	5216
2026-01-10 02:34:29.86	249.84	48.92	-29.9	-32.4	20.0	6.01e-01	0	42	0	444071936	21	4799
2026-01-10 02:34:30.86	249.33	48.64	-30.3	-32.9	19.5	6.01e-01	0	42	0	445644800	22	4861
2026-01-10 02:34:31.85	248.82	48.37	-29.7	-31.9	20.1	6.00e-01	0	42	0	447741952	21	4626
2026-01-10 02:34:32.85	248.32	48.08	-29.8	-32.0	20.1	6.02e-01	0	42	0	449839104	21	4670
2026-01-10 02:34:33.85	247.83	47.80	-29.6	-31.5	20.5	6.01e-01	0	42	0	451411968	21	4497
2026-01-10 02:34:34.86	247.35	47.52	-30.8	-33.8	18.5	6.02e-01	0	42	0	453509120	23	5099
2026-01-10 02:34:35.86	246.88	47.24	-30.3	-33.1	19.1	5.98e-01	0	42	0	455081984	22	4922
2026-01-10 02:34:36.87	246.41	46.95	-29.7	-32.0	19.8	6.01e-01	0	42	0	457179136	21	4683
2026-01-10 02:34:37.87	245.95	46.67	-29.8	-32.2	19.8	6.00e-01	0	42	0	459276288	21	4746
2026-01-10 02:34:38.86	245.51	46.39	-29.9	-32.4	19.7	6.00e-01	0	42	0	460849152	21	4821
2026-01-10 02:34:39.87	245.07	46.10	-30.1	-33.0	19.5	6.01e-01	0	42	0	462946304	21	5015
2026-01-10 02:34:40.88	244.63	45.82	-30.2	-33.2	19.3	6.03e-01	0	42	0	464519168	21	5069
2026-01-10 02:34:41.88	244.21	45.54	-29.9	-32.5	19.6	6.01e-01	0	42	0	466616320	21	4855
2026-01-10 02:34:42.88	243.80	45.25	-29.9	-32.4	19.7	6.01e-01	0	42	0	468713472	21	4796
2026-01-10 02:34:43.88	243.39	44.97	-30.3	-33.5	19.0	6.00e-01	0	42	0	470286336	21	5204
2026-01-10 02:34:44.88	242.99	44.69	-30.1	-33.0	19.5	6.01e-01	0	42	0	472383488	21	5037
2026-01-10 02:34:45.88	242.59	44.41	-29.7	-31.9	19.9	6.00e-01	0	42	0	473956352	21	4666
2026-01-10 02:34:46.88	242.21	44.13	-29.7	-32.1	19.8	6.01e-01	0	42	0	476053504	21	4702
2026-01-10 02:34:47.88	241.83	43.85	-30.0	-32.8	19.4	6.01e-01	0	42	0	477626368	21	4959
2026-01-10 02:34:48.89	241.45	43.57	-29.9	-32.4	19.7	6.00e-01	0	42	0	479723520	21	4820
2026-01-10 02:34:49.89	241.09	43.30	-30.6	-33.8	18.4	6.01e-01	0	42	0	481820672	22	5204
2026-01-10 02:34:50.89	240.73	43.02	-30.6	-33.6	18.5	6.02e-01	0	42	0	483393536	22	5126
2026-01-10 02:34:51.89	240.37	42.75	-30.9	-34.5	18.4	6.01e-01	0	42	0	485490688	22	5452
2026-01-10 02:34:52.88	240.03	42.47	-31.6	-36.0	17.0	6.03e-01	0	42	0	487063552	23	6026
2026-01-10 02:34:53.89	239.68	42.20	-31.5	-35.2	17.0	6.02e-01	0	42	0	489160704	24	5537
2026-01-10 02:34:54.88	239.35	41.93	-31.0	-33.9	17.8	6.00e-01	0	42	0	490733568	24	5026
2026-01-10 02:34:55.89	239.02	41.65	-30.3	-33.0	19.4	6.01e-01	0	42	0	492830720	22	4888
2026-01-10 02:34:56.89	238.69	41.38	-30.9	-34.7	18.1	5.98e-01	0	42	0	494927872	22	5550
2026-01-10 02:34:57.89	238.38	41.11	-30.8	-33.7	18.6	6.01e-01	0	42	0	496500736	23	5044
2026-01-10 02:34:58.89	238.06	40.85	-29.8	-32.2	19.8	6.02e-01	0	42	0	498597888	21	4753
2026-01-10 02:34:59.90	237.75	40.58	-30.0	-32.8	19.5	6.00e-01	0	42	0	500170752	21	4946
2026-01-10 02:35:00.90	237.45	40.31	-30.6	-33.7	18.5	6.01e-01	0	42	0	502267904	22	5174
2026-01-10 02:35:01.90	237.15	40.04	-30.5	-33.0	18.6	6.00e-01	0	42	0	504365056	23	4818
2026-01-10 02:35:02.90	236.86	39.78	-30.3	-32.9	19.0	6.00e-01	0	42	0	505937920	22	4860
2026-01-10 02:35:03.90	236.57	39.52	-30.2	-32.8	19.2	6.03e-01	0	42	0	508035072	22	4831
2026-01-10 02:35:04.91	236.28	39.26	-30.7	-34.1	18.3	6.01e-01	0	42	0	509607936	22	5343
2026-01-10 02:35:05.91	236.00	39.00	-30.6	-33.8	18.4	6.01e-01	0	42	0	511705088	22	5225
2026-01-10 02:35:06.92	235.73	38.73	-30.4	-33.4	18.7	6.02e-01	0	42	0	513277952	22	5086
2026-01-10 02:35:07.91	235.46	38.48	-30.5	-33.7	18.6	6.00e-01	0	42	0	515375104	22	5165
2026-01-10 02:35:08.91	235.20	38.22	-30.7	-34.2	18.3	6.01e-01	0	42	0	517472256	22	5366
2026-01-10 02:35:09.91	234.93	37.97	-30.8	-34.4	18.1	6.03e-01	0	42	0	519045120	22	5455
2026-01-10 02:35:10.92	234.68	37.71	-30.7	-34.1	18.2	6.01e-01	0	42	0	521142272	22	5323
2026-01-10 02:35:11.92	234.42	37.46	-30.8	-34.4	18.0	6.03e-01	0	42	0	522715136	22	5442
2026-01-10 02:35:12.91	234.18	37.22	-30.8	-34.4	18.0	6.00e-01	0	42	0	524812288	22	5477
2026-01-10 02:35:13.92	233.93	36.96	-30.7	-34.1	18.3	5.99e-01	0	42	0	526909440	22	5320
2026-01-10 02:35:14.93	233.69	36.71	-30.5	-33.5	18.5	5.99e-01	0	42	0	528482304	22	5123
2026-01-10 02:35:15.93	233.45	36.47	-30.9	-34.7	17.8	5.99e-01	0	42	0	530579456	22	5585
2026-01-10 02:35:16.93	233.21	36.22	-31.3	-35.5	17.0	6.01e-01	0	42	0	532152320	23	5831
2026-01-10 02:35:17.93	232.98	35.98	-31.0	-34.5	17.6	6.02e-01	0	42	0	534249472	23	5411
2026-01-10 02:35:18.93	232.76	35.74	-30.9	-34.1	17.8	6.01e-01	0	42	0	535822336	23	5247
2026-01-10 02:35:19.94	232.53	35.50	-30.9	-34.2	17.7	6.02e-01	0	42	0	537919488	23	5294
2026-01-10 02:35:20.94	232.31	35.26	-31.5	-36.0	16.8	6.01e-01	0	42	0	540016640	23	6045
2026-01-10 02:35:21.94	232.10	35.02	-31.3	-35.5	17.2	6.04e-01	0	42	0	541589504	23	5828
2026-01-10 02:35:22.94	231.88	34.78	-31.0	-34.7	17.6	6.02e-01	0	42	0	543686656	23	5491
2026-01-10 02:35:23.94	231.67	34.55	-30.7	-33.7	18.0	6.01e-01	0	42	0	545259520	23	5096
2026-01-10 02:35:24.95	231.46	34.31	-30.3	-33.2	18.7	6.01e-01	0	42	0	547356672	22	5015
2026-01-10 02:35:25.95	231.26	34.08	-30.1	-32.5	19.2	6.00e-01	0	42	0	549453824	22	4745
2026-01-10 02:35:26.95	231.06	33.85	-29.9	-32.7	19.3	6.01e-01	0	42	0	551026688	21	4933
2026-01-10 02:35:27.95	230.86	33.62	-29.9	-32.5	19.4	6.02e-01	0	42	0	553123840	21	4879
2026-01-10 02:35:28.96	230.66	33.39	-29.8	-32.3	19.6	6.01e-01	0	42	0	554696704	21	4816
2026-01-10 02:35:29.95	230.47	33.17	-29.6	-31.7	19.9	5.99e-01	0	42	0	556793856	21	4623
2026-01-10 02:35:30.96	230.28	32.94	-29.4	-31.4	20.1	6.00e-01	0	42	0	558366720	21	4514
2026-01-10 02:35:31.96	230.10	32.72	-29.5	-31.5	20.0	6.01e-01	0	42	0	560463872	21	4558
2026-01-10 02:35:32.96	229.91	32.50	-29.4	-31.3	20.1	6.01e-01	0	42	0	562561024	21	4473
2026-01-10 02:35:33.97	229.73	32.27	-29.4	-31.8	20.1	6.00e-01	0	42	0	564133888	20	4762
2026-01-10 02:35:34.97	229.55	32.06	-29.2	-31.2	20.4	6.00e-01	0	42	0	566231040	20	4563
2026-01-10 02:35:35.97	229.37	31.84	-29.5	-32.1	19.9	6.01e-01	0	42	0	567803904	20	4847
2026-01-10 02:35:36.97	229.20	31.62	-29.3	-31.7	20.2	6.02e-01	0	42	0	569901056	20	4704
2026-01-10 02:35:37.97	229.03	31.41	-29.5	-32.2	19.9	6.03e-01	0	42	0	571998208	20	4871
2026-01-10 02:35:38.96	228.86	31.20	-29.5	-32.1	19.9	5.99e-01	0	42	0	573571072	20	4844
2026-01-10 02:35:39.97	228.69	30.98	-29.2	-31.3	20.3	6.01e-01	0	42	0	575668224	20	4579
2026-01-10 02:35:40.96	228.53	30.77	-29.2	-31.3	20.4	6.02e-01	0	42	0	577241088	20	4596
2026-01-10 02:35:41.96	228.36	30.56	-29.6	-32.5	19.7	6.02e-01	0	42	0	579338240	20	4985
2026-01-10 02:35:42.97	228.20	30.35	-29.4	-31.8	20.0	6.02e-01	0	42	0	580911104	20	4758
2026-01-10 02:35:43.97	228.04	30.15	-29.4	-31.8	20.0	5.99e-01	0	42	0	583008256	20	4743
2026-01-10 02:35:44.96	227.89	29.94	-29.1	-31.2	20.4	6.01e-01	0	42	0	584581120	20	4548
2026-01-10 02:35:45.97	227.73	29.74	-29.1	-31.2	20.4	6.01e-01	0	42	0	586678272	20	4563
2026-01-10 02:35:46.98	227.58	29.53	-29.1	-31.0	20.5	6.00e-01	0	42	0	588775424	20	4503
2026-01-10 02:35:47.98	227.43	29.33	-29.1	-31.0	20.5	6.03e-01	0	42	0	590348288	20	4501
2026-01-10 02:35:48.98	227.28	29.13	-29.3	-31.7	20.2	6.00e-01	0	42	0	592445440	20	4709
2026-01-10 02:35:49.97	227.14	28.94	-29.1	-31.1	20.4	6.03e-01	0	42	0	594542592	20	4544
2026-01-10 02:35:50.97	226.99	28.74	-29.4	-31.9	20.0	6.01e-01	0	42	0	596115456	20	4784
2026-01-10 02:35:51.97	226.85	28.54	-29.4	-31.8	19.9	6.03e-01	0	42	0	598212608	20	4754
2026-01-10 02:35:52.98	226.71	28.35	-29.4	-31.8	20.0	6.02e-01	0	42	0	599785472	20	4752
2026-01-10 02:35:53.98	226.57	28.15	-29.5	-32.2	19.8	6.01e-01	0	42	0	601882624	20	4880
2026-01-10 02:35:54.98	226.43	27.96	-29.3	-31.6	20.1	6.04e-01	0	42	0	603455488	20	4689
2026-01-10 02:35:55.98	226.30	27.77	-29.5	-32.2	19.8	5.99e-01	0	42	0	605552640	20	4889
2026-01-10 02:35:56.98	226.16	27.58	-29.4	-32.0	19.9	6.01e-01	0	42	0	607649792	20	4814
2026-01-10 02:35:57.98	226.03	27.39	-29.8	-33.0	19.3	5.99e-01	0	42	0	609222656	20	5203
2026-01-10 02:35:58.98	225.90	27.20	-29.5	-32.3	19.7	6.02e-01	0	42	0	611319808	20	4919
2026-01-10 02:35:59.99	225.77	27.02	-29.4	-31.9	20.0	6.00e-01	0	42	0	612892672	20	4801
2026-01-10 02:36:01.00	225.64	26.83	-29.3	-31.7	20.0	6.00e-01	0	42	0	614989824	20	4726
2026-01-10 02:36:01.99	225.52	26.65	-29.2	-31.4	20.1	6.01e-01	0	42	0	616562688	20	4648
2026-01-10 02:36:02.99	225.40	26.47	-29.2	-31.4	20.2	6.02e-01	0	42	0	618659840	20	4622
2026-01-10 02:36:04.00	225.27	26.28	-29.5	-32.2	19.7	5.98e-01	0	42	0	620756992	20	4902
2026-01-10 02:36:05.01	225.15	26.10	-29.6	-32.4	19.3	6.00e-01	0	42	0	622329856	20	4965
2026-01-10 02:36:06.01	225.03	25.92	-29.6	-32.5	19.5	6.02e-01	0	42	0	624427008	20	5017
2026-01-10 02:36:07.01	224.91	25.74	-29.6	-32.5	19.5	6.00e-01	0	42	0	625999872	20	5011
2026-01-10 02:36:08.02	224.79	25.57	-30.6	-34.5	18.0	5.99e-01	0	42	0	628097024	21	5688
2026-01-10 02:36:09.02	224.68	25.39	-30.2	-32.9	18.4	6.01e-01	0	42	0	630194176	22	4934
2026-01-10 02:36:10.03	224.56	25.21	-30.4	-34.2	18.2	6.00e-01	0	42	0	631767040	21	5550
2026-01-10 02:36:11.03	224.45	25.04	-30.7	-34.6	17.6	6.02e-01	0	42	0	633864192	22	5593
2026-01-10 02:36:12.03	224.34	24.87	-30.6	-34.2	17.9	6.01e-01	0	42	0	635437056	22	5426
2026-01-10 02:36:13.02	224.23	24.70	-30.3	-33.3	18.3	6.03e-01	0	42	0	637534208	22	5082
2026-01-10 02:36:14.02	224.12	24.53	-30.6	-34.1	17.9	6.03e-01	0	42	0	639631360	22	5394
2026-01-10 02:36:15.02	224.01	24.36	-29.9	-32.3	18.9	6.02e-01	0	42	0	641204224	22	4729
2026-01-10 02:36:16.02	223.91	24.19	-29.8	-32.4	19.3	6.01e-01	0	42	0	643301376	21	4863
2026-01-10 02:36:17.02	223.80	24.03	-29.9	-32.7	19.0	5.99e-01	0	42	0	644874240	21	4998
2026-01-10 02:36:18.02	223.70	23.86	-29.7	-32.3	19.2	6.00e-01	0	42	0	646971392	21	4853
2026-01-10 02:36:19.02	223.59	23.69	-29.7	-32.3	19.2	6.02e-01	0	42	0	648544256	21	4843
2026-01-10 02:36:20.03	223.49	23.53	-29.5	-31.7	19.6	6.00e-01	0	42	0	650641408	21	4624
2026-01-10 02:36:21.03	223.39	23.37	-29.5	-31.7	19.6	6.00e-01	0	42	0	652738560	21	4649
2026-01-10 02:36:22.03	223.29	23.20	-29.5	-31.7	19.7	6.01e-01	0	42	0	654311424	21	4624
2026-01-10 02:36:23.03	223.19	23.04	-29.9	-32.7	19.2	6.03e-01	0	42	0	656408576	21	4984
2026-01-10 02:36:24.04	223.10	22.88	-30.1	-33.3	18.7	6.04e-01	0	42	0	657981440	21	5221
2026-01-10 02:36:25.04	223.00	22.72	-29.8	-32.4	19.2	5.99e-01	0	42	0	660078592	21	4892
2026-01-10 02:36:26.04	222.90	22.57	-29.7	-32.2	19.3	5.99e-01	0	42	0	661651456	21	4810
2026-01-10 02:36:27.04	222.81	22.41	-29.8	-32.6	18.9	6.02e-01	0	42	0	663748608	21	4958
2026-01-10 02:36:28.04	222.72	22.25	-29.6	-32.1	19.3	5.99e-01	0	42	0	665845760	21	4768
2026-01-10 02:36:29.05	222.62	22.10	-29.6	-31.9	19.5	6.00e-01	0	42	0	667418624	21	4698
2026-01-10 02:36:30.05	222.53	21.94	-30.1	-33.2	18.7	6.02e-01	0	42	0	669515776	21	5186
2026-01-10 02:36:31.05	222.44	21.79	-29.8	-32.4	19.2	6.01e-01	0	42	0	671088640	21	4872
2026-01-10 02:36:32.06	222.35	21.64	-29.9	-32.7	19.0	6.02e-01	0	42	0	673185792	21	4985
2026-01-10 02:36:33.06	222.26	21.49	-29.8	-32.4	19.1	6.01e-01	0	42	0	674758656	21	4890
2026-01-10 02:36:34.06	222.18	21.34	-29.7	-32.2	19.3	6.02e-01	0	42	0	676855808	21	4809
2026-01-10 02:36:35.07	222.09	21.19	-29.6	-32.1	19.3	6.01e-01	0	42	0	678952960	21	4765
2026-01-10 02:36:36.07	222.00	21.04	-29.7	-32.3	19.2	5.98e-01	0	42	0	680525824	21	4867
2026-01-10 02:36:37.07	221.92	20.89	-30.0	-33.0	18.7	6.01e-01	0	42	0	682622976	21	5113
2026-01-10 02:36:38.07	221.84	20.74	-30.3	-33.9	18.1	6.00e-01	0	42	0	684720128	21	5468
2026-01-10 02:36:39.07	221.75	20.60	-29.8	-32.6	18.9	6.00e-01	0	42	0	686292992	21	4959
2026-01-10 02:36:40.08	221.67	20.45	-29.8	-32.7	18.9	6.02e-01	0	42	0	688390144	21	4978
2026-01-10 02:36:41.07	221.59	20.31	-29.7	-32.1	19.2	6.02e-01	0	41	0	689963008	21	4797
2026-01-10 02:36:42.07	221.51	20.17	-29.8	-32.5	19.3	5.99e-01	0	42	0	692060160	21	4907
2026-01-10 02:36:43.07	221.43	20.02	-29.7	-32.3	19.2	6.01e-01	0	42	0	693633024	21	4841
2026-01-10 02:36:44.07	221.35	19.88	-29.8	-32.5	19.0	6.02e-01	0	42	0	695730176	21	4937
2026-01-10 02:36:45.07	221.27	19.74	-29.6	-32.0	19.3	6.01e-01	0	42	0	697827328	21	4756
2026-01-10 02:36:46.08	221.19	19.60	-29.6	-32.0	19.3	6.04e-01	0	42	0	699400192	21	4755
2026-01-10 02:36:47.07	221.12	19.46	-29.7	-32.4	19.0	6.00e-01	0	42	0	701497344	21	4877
2026-01-10 02:36:48.07	221.04	19.32	-29.7	-32.3	19.0	6.00e-01	0	42	0	703070208	21	4857
2026-01-10 02:36:49.07	220.97	19.19	-29.6	-32.2	19.2	6.01e-01	0	42	0	705167360	21	4808
2026-01-10 02:36:50.08	220.89	19.05	-29.6	-32.1	19.2	6.03e-01	0	42	0	706740224	21	4786
2026-01-10 02:36:51.08	220.82	18.91	-29.5	-31.7	19.5	6.03e-01	0	42	0	708837376	21	4652
2026-01-10 02:36:52.09	220.75	18.78	-30.0	-33.1	18.5	6.00e-01	0	42	0	710934528	21	5131
2026-01-10 02:36:53.09	220.67	18.64	-29.9	-32.8	18.8	6.02e-01	0	42	0	712507392	21	5043
2026-01-10 02:36:54.09	220.60	18.51	-29.8	-32.7	18.8	6.01e-01	0	42	0	714604544	21	4997
2026-01-10 02:36:55.10	220.53	18.37	-29.7	-32.4	19.0	6.03e-01	0	42	0	716177408	21	4883
2026-01-10 02:36:56.09	220.46	18.24	-29.8	-32.5	19.0	6.01e-01	0	42	0	718274560	21	4930
2026-01-10 02:36:57.09	220.39	18.11	-29.6	-32.0	19.2	6.01e-01	0	42	0	720371712	21	4770
2026-01-10 02:36:58.09	220.32	17.98	-29.6	-32.0	19.2	6.01e-01	0	42	0	721944576	21	4768
2026-01-10 02:36:59.10	220.25	17.85	-29.5	-31.9	19.3	6.00e-01	0	42	0	724041728	21	4734
2026-01-10 02:37:00.10	220.19	17.72	-29.5	-31.9	19.4	6.00e-01	0	42	0	725614592	21	4708
2026-01-10 02:37:01.10	220.12	17.59	-29.4	-31.6	19.5	6.00e-01	0	42	0	727711744	21	4618
2026-01-10 02:37:02.10	220.05	17.46	-29.4	-31.5	19.5	6.01e-01	0	42	0	729284608	21	4600
2026-01-10 02:37:03.11	219.99	17.33	-29.5	-31.8	19.3	6.02e-01	0	42	0	731381760	21	4678
2026-01-10 02:37:04.11	219.92	17.21	-29.4	-31.5	19.5	6.02e-01	0	42	0	733478912	21	4597
2026-01-10 02:37:05.10	219.86	17.08	-29.5	-31.7	19.4	6.02e-01	0	42	0	735051776	21	4676
2026-01-10 02:37:06.11	219.80	16.96	-29.5	-31.9	19.3	6.00e-01	0	42	0	737148928	21	4719
2026-01-10 02:37:07.11	219.73	16.83	-29.7	-32.4	18.9	6.01e-01	0	42	0	738721792	21	4917
2026-01-10 02:37:08.11	219.67	16.71	-29.7	-32.3	19.0	6.01e-01	0	42	0	740818944	21	4856
2026-01-10 02:37:09.11	219.61	16.59	-29.6	-32.0	19.2	6.01e-01	0	42	0	742391808	21	4766
2026-01-10 02:37:10.11	219.55	16.46	-29.6	-32.2	19.1	6.01e-01	0	42	0	744488960	21	4820
2026-01-10 02:37:11.12	219.48	16.34	-29.8	-32.7	18.7	6.01e-01	0	42	0	746586112	21	5023
2026-01-10 02:37:12.11	219.42	16.22	-29.5	-31.9	19.2	6.00e-01	0	42	0	748158976	21	4743
2026-01-10 02:37:13.11	219.37	16.10	-29.5	-31.9	19.2	6.01e-01	0	42	0	750256128	21	4723
2026-01-10 02:37:14.11	219.31	15.98	-29.5	-31.8	19.3	6.00e-01	0	42	0	751828992	21	4682
2026-01-10 02:37:15.11	219.25	15.86	-29.6	-32.0	19.2	6.03e-01	0	42	0	753926144	21	4770
2026-01-10 02:37:16.11	219.19	15.74	-29.6	-32.1	19.0	6.01e-01	0	42	0	755499008	21	4819
2026-01-10 02:37:17.11	219.13	15.62	-29.8	-32.7	18.7	6.01e-01	0	42	0	757596160	21	5024
2026-01-10 02:37:18.12	219.07	15.50	-29.8	-32.7	18.6	6.00e-01	0	42	0	759693312	21	5000
2026-01-10 02:37:19.12	219.02	15.39	-30.0	-33.2	18.3	6.02e-01	0	42	0	761266176	21	5212
2026-01-10 02:37:20.12	218.96	15.27	-30.3	-33.5	17.6	6.02e-01	0	42	0	763363328	22	5235
2026-01-10 02:37:21.12	218.90	15.15	-29.9	-32.9	18.4	5.99e-01	0	42	0	765460480	21	5108
2026-01-10 02:37:22.12	218.85	15.04	-29.7	-32.5	18.8	6.02e-01	0	42	0	767033344	21	4939
2026-01-10 02:37:23.12	218.79	14.92	-29.8	-32.5	18.7	6.00e-01	0	42	0	769130496	21	4955
2026-01-10 02:37:24.12	218.74	14.81	-29.7	-32.4	18.8	6.02e-01	0	42	0	770703360	21	4910
2026-01-10 02:37:25.12	218.69	14.70	-29.8	-32.8	18.6	6.02e-01	0	42	0	772800512	21	5047
2026-01-10 02:37:26.12	218.63	14.58	-29.6	-32.2	18.9	6.02e-01	0	42	0	774373376	21	4830
2026-01-10 02:37:27.12	218.58	14.47	-29.5	-31.9	19.1	6.01e-01	0	42	0	776470528	21	4743
2026-01-10 02:37:28.12	218.53	14.36	-29.6	-32.3	18.8	6.00e-01	0	42	0	778567680	21	4879
2026-01-10 02:37:29.12	218.48	14.25	-29.8	-32.6	18.7	5.99e-01	0	42	0	780140544	21	4976
2026-01-10 02:37:30.12	218.42	14.14	-29.7	-32.4	18.8	6.02e-01	0	42	0	782237696	21	4902
2026-01-10 02:37:31.12	218.37	14.03	-29.8	-32.6	18.7	6.02e-01	0	42	0	783810560	21	5010
2026-01-10 02:37:32.11	218.32	13.92	-30.1	-33.5	18.0	6.00e-01	0	42	0	785907712	21	5334
2026-01-10 02:37:33.11	218.27	13.81	-29.8	-32.6	18.6	6.02e-01	0	42	0	787480576	21	5004
2026-01-10 02:37:34.12	218.22	13.70	-29.6	-32.1	18.9	5.99e-01	0	42	0	789577728	21	4825
2026-01-10 02:37:35.11	218.17	13.59	-29.5	-32.0	19.0	6.03e-01	0	42	0	791150592	21	4772
2026-01-10 02:37:36.11	218.12	13.49	-29.4	-31.7	19.2	6.00e-01	0	42	0	793247744	21	4675
2026-01-10 02:37:37.11	218.07	13.38	-29.6	-32.1	18.9	6.01e-01	0	42	0	795344896	21	4836
2026-01-10 02:37:38.11	218.03	13.27	-29.5	-31.8	19.1	6.01e-01	0	42	0	796917760	21	4731
2026-01-10 02:37:39.11	217.98	13.17	-29.4	-31.7	19.1	6.01e-01	0	42	0	799014912	21	4693
2026-01-10 02:37:40.11	217.93	13.06	-29.6	-32.1	18.9	6.01e-01	0	42	0	800587776	21	4818
2026-01-10 02:37:41.12	217.88	12.95	-29.5	-31.8	19.1	5.99e-01	0	42	0	802684928	21	4733
2026-01-10 02:37:42.11	217.84	12.85	-29.4	-32.3	19.1	6.00e-01	0	42	0	804257792	20	4991
2026-01-10 02:37:43.12	217.79	12.74	-29.4	-32.3	19.1	6.01e-01	0	42	0	806354944	20	4983
2026-01-10 02:37:44.11	217.74	12.64	-29.5	-32.6	18.9	6.02e-01	0	42	0	808452096	20	5101
2026-01-10 02:37:45.11	217.70	12.54	-29.7	-33.0	18.6	6.01e-01	0	42	0	810024960	20	5286
2026-01-10 02:37:46.11	217.65	12.44	-29.5	-32.6	18.8	5.99e-01	0	42	0	812122112	20	5105
2026-01-10 02:37:47.11	217.61	12.33	-29.6	-32.7	18.8	6.02e-01	0	42	0	813694976	20	5142
2026-01-10 02:37:48.12	217.56	12.23	-29.8	-33.3	18.4	6.01e-01	0	42	0	815792128	20	5378
2026-01-10 02:37:49.12	217.52	12.13	-29.8	-32.9	18.4	6.02e-01	0	42	0	817889280	21	5113
2026-01-10 02:37:50.12	217.48	12.03	-30.0	-33.3	17.9	6.02e-01	0	42	0	819462144	21	5283
2026-01-10 02:37:51.12	217.43	11.93	-29.9	-33.1	18.3	6.00e-01	0	42	0	821559296	21	5192
2026-01-10 02:37:52.12	217.39	11.83	-29.8	-32.7	18.5	6.00e-01	0	42	0	823132160	21	5054
2026-01-10 02:37:53.12	217.35	11.73	-30.2	-34.1	17.5	6.00e-01	0	42	0	825229312	21	5615
2026-01-10 02:37:54.12	217.30	11.63	-30.5	-34.0	16.9	6.02e-01	0	42	0	827326464	23	5382
2026-01-10 02:37:55.12	217.26	11.53	-30.1	-33.2	17.6	6.01e-01	0	42	0	828899328	22	5159
2026-01-10 02:37:56.13	217.22	11.43	-30.3	-33.7	17.5	6.02e-01	0	42	0	830996480	22	5366
2026-01-10 02:37:57.13	217.18	11.33	-30.3	-33.7	17.3	6.01e-01	0	42	0	832569344	22	5352
2026-01-10 02:37:58.13	217.14	11.24	-30.2	-33.6	17.3	6.02e-01	0	42	0	834666496	22	5328
2026-01-10 02:37:59.13	217.10	11.14	-30.0	-33.0	17.9	6.00e-01	0	42	0	836239360	22	5078
2026-01-10 02:38:00.13	217.05	11.04	-30.0	-32.9	17.8	6.03e-01	0	42	0	838336512	22	5048
2026-01-10 02:38:01.13	217.01	10.95	-30.1	-33.3	17.6	6.02e-01	0	42	0	840433664	22	5197
2026-01-10 02:38:02.12	216.97	10.85	-29.8	-33.0	18.1	6.01e-01	0	42	0	842006528	21	5172
2026-01-10 02:38:03.12	216.93	10.76	-29.8	-32.9	18.1	6.01e-01	0	42	0	844103680	21	5148
2026-01-10 02:38:04.12	216.90	10.66	-29.9	-33.1	18.0	6.00e-01	0	42	0	845676544	21	5226
2026-01-10 02:38:05.12	216.86	10.57	-29.8	-33.0	18.1	6.02e-01	0	42	0	847773696	21	5165
2026-01-10 02:38:06.13	216.82	10.47	-29.8	-32.8	18.3	6.04e-01	0	42	0	849346560	21	5118
2026-01-10 02:38:07.13	216.78	10.38	-29.8	-33.0	18.1	6.03e-01	0	42	0	851443712	21	5186
2026-01-10 02:38:08.13	216.74	10.28	-30.7	-34.6	16.6	6.03e-01	0	42	0	853540864	23	5680
2026-01-10 02:38:09.12	216.70	10.19	-30.5	-34.5	16.9	6.02e-01	0	42	0	855113728	22	5725
2026-01-10 02:38:10.13	216.66	10.10	-30.2	-33.6	17.5	6.02e-01	0	42	0	857210880	22	5338
2026-01-10 02:38:11.13	216.63	10.00	-30.2	-33.5	17.5	6.02e-01	0	42	0	858783744	22	5260
2026-01-10 02:38:12.13	216.59	9.91	-30.2	-33.6	17.3	6.02e-01	0	42	0	860880896	22	5311
2026-01-10 02:38:13.13	216.55	9.82	-29.9	-32.9	17.8	6.01e-01	0	42	0	862453760	22	5050
2026-01-10 02:38:14.13	216.52	9.73	-30.1	-33.3	17.6	5.99e-01	0	42	0	864550912	22	5198
2026-01-10 02:38:15.14	216.48	9.64	-30.6	-34.8	16.5	6.00e-01	0	42	0	866648064	22	5852
2026-01-10 02:38:16.14	216.44	9.55	-30.2	-33.5	17.4	6.01e-01	0	42	0	868220928	22	5300
2026-01-10 02:38:17.14	216.41	9.46	-30.1	-33.5	17.4	6.03e-01	0	42	0	870318080	22	5281
2026-01-10 02:38:18.15	216.37	9.37	-30.3	-33.9	17.0	6.03e-01	0	42	0	871890944	22	5477
2026-01-10 02:38:19.15	216.34	9.28	-30.3	-33.9	17.1	6.02e-01	0	42	0	873988096	22	5471
2026-01-10 02:38:20.16	216.30	9.19	-30.3	-34.0	17.0	6.00e-01	0	42	0	876085248	22	5514
2026-01-10 02:38:21.16	216.27	9.10	-30.4	-34.3	16.8	6.01e-01	0	42	0	877658112	22	5624
2026-01-10 02:38:22.17	216.23	9.01	-30.5	-34.5	16.8	6.00e-01	0	42	0	879755264	22	5715
2026-01-10 02:38:23.17	216.20	8.92	-30.7	-35.2	16.2	6.02e-01	0	42	0	881328128	22	6061
2026-01-10 02:38:24.17	216.16	8.83	-30.5	-34.6	16.5	6.01e-01	0	42	0	883425280	22	5783
2026-01-10 02:38:25.17	216.13	8.75	-30.2	-33.7	17.2	6.00e-01	0	42	0	884998144	22	5392
2026-01-10 02:38:26.17	216.10	8.66	-30.2	-33.6	17.2	5.98e-01	0	42	0	887095296	22	5366
2026-01-10 02:38:27.16	216.06	8.57	-30.2	-33.7	17.2	6.02e-01	0	42	0	889192448	22	5403
2026-01-10 02:38:28.17	216.03	8.49	-30.1	-33.4	17.3	6.02e-01	0	42	0	890765312	22	5252
2026-01-10 02:38:29.17	216.00	8.40	-30.0	-33.1	17.6	6.01e-01	0	42	0	892862464	22	5145
2026-01-10 02:38:30.17	215.96	8.31	-30.2	-33.8	17.1	5.99e-01	0	42	0	894435328	22	5412
2026-01-10 02:38:31.18	215.93	8.23	-30.4	-34.3	16.7	6.02e-01	0	42	0	896532480	22	5664
2026-01-10 02:38:32.17	215.90	8.14	-30.7	-35.3	16.1	6.00e-01	0	41	0	898629632	22	6124
2026-01-10 02:38:33.17	215.87	8.06	-30.6	-35.1	16.2	6.00e-01	0	42	0	900202496	22	6013
2026-01-10 02:38:34.17	215.84	7.97	-30.3	-33.9	17.0	6.02e-01	0	42	0	902299648	22	5487
2026-01-10 02:38:35.17	215.80	7.89	-30.2	-33.7	17.1	6.01e-01	0	42	0	903872512	22	5403
2026-01-10 02:38:36.18	215.77	7.80	-30.1	-33.5	17.1	6.02e-01	0	42	0	905969664	22	5321
2026-01-10 02:38:37.17	215.74	7.72	-30.1	-33.4	17.2	6.00e-01	0	42	0	907542528	22	5264
2026-01-10 02:38:38.17	215.71	7.64	-30.1	-33.3	17.3	6.00e-01	0	42	0	909639680	22	5220
2026-01-10 02:38:39.18	215.68	7.55	-29.9	-32.9	17.5	6.00e-01	0	42	0	911736832	22	5085
2026-01-10 02:38:40.18	215.65	7.47	-30.2	-33.8	16.9	6.00e-01	0	42	0	913309696	22	5442
2026-01-10 02:38:41.18	215.62	7.39	-30.1	-33.4	17.2	5.99e-01	0	42	0	915406848	22	5286
2026-01-10 02:38:42.18	215.59	7.31	-30.1	-33.4	17.2	6.03e-01	0	42	0	916979712	22	5280
2026-01-10 02:38:43.18	215.56	7.22	-30.2	-33.9	16.8	6.03e-01	0	42	0	919076864	22	5494
2026-01-10 02:38:44.18	215.53	7.14	-30.1	-33.4	17.2	6.01e-01	0	42	0	921174016	22	5287
2026-01-10 02:38:45.18	215.50	7.06	-33.2	-52.3	3.7	7.48e-01	0	42	104	921174016	27	32242
2026-01-10 02:38:46.18	215.47	6.98	-33.6	-53.2	3.8	7.43e-01	0	42	104	921174016	27	34406
2026-01-10 02:38:47.18	215.44	6.90	-33.7	-53.0	3.8	7.46e-01	0	42	104	921174016	28	33188

#Closed at: 2026-01-10 02:38:47
#Recorded file [921 MB]: D:/data/31010_260110_053032.dat