passes_logs/2026/01/10/R2M6_AANII_01/R2M6_AANII_01__20260110_112249_NOAA_20_JPSS-1_rec.log

#Pass ID: 20260110_112249_NOAA 20 (JPSS-1)
#Satellite: NOAA 20 (JPSS-1)
#Configuration: NOAA 20
#almurnet v.1.7.20240730
#Start time: 2026-01-10 11:22:50

#Version: 2.2.20231116
#Station: R2M6_AANII_01
#Location: 30.233357 lon 59.946436 lat
#TLE: 1 43013U 17073A   26009.26828276  .00000112  00000+0  74203-4 0  9990
#TLE: 2 43013  98.7631 310.2683 0001700  47.4387 312.6933 14.19534764421920

#Time	Az	El	Level	Level2	SNR	BER	BlckErr	Temp	State	Recorded	gain1	gain2
2026-01-10 11:22:50.79	194.09	7.10	-31.0	-36.9	5.0	1.24e+00	0	39	0	0	22	7142
2026-01-10 11:22:51.80	194.16	7.17	-31.2	-37.5	4.9	1.31e+00	0	40	104	0	23	7464
2026-01-10 11:22:52.81	194.22	7.24	-31.3	-37.9	6.9	1.24e-01	0	40	0	0	23	7693
2026-01-10 11:22:53.81	194.29	7.31	-31.2	-37.4	7.3	1.40e-01	0	40	0	1048576	23	7334
2026-01-10 11:22:54.81	194.35	7.38	-31.1	-36.8	7.8	9.80e-02	0	39	0	3145728	23	6957
2026-01-10 11:22:55.82	194.42	7.46	-31.0	-36.2	8.3	5.83e-02	0	40	0	5242880	23	6583
2026-01-10 11:22:56.82	194.49	7.53	-30.9	-35.7	8.8	4.07e-02	0	40	0	7340032	23	6280
2026-01-10 11:22:57.83	194.55	7.60	-30.8	-35.2	9.2	2.32e-02	0	40	0	9437184	23	6005
2026-01-10 11:22:58.83	194.62	7.68	-30.7	-35.3	9.6	1.47e-02	0	40	0	10485760	22	6104
2026-01-10 11:22:59.84	194.69	7.75	-30.8	-35.7	9.4	1.32e-02	0	40	0	12582912	22	6309
2026-01-10 11:23:00.84	194.76	7.82	-30.7	-35.3	9.7	1.26e-02	0	40	0	14680064	22	6086
2026-01-10 11:23:01.84	194.82	7.90	-30.6	-34.9	10.0	9.38e-03	0	40	0	16777216	22	5886
2026-01-10 11:23:02.85	194.89	7.97	-30.5	-34.5	10.3	6.16e-03	0	40	0	18874368	22	5729
2026-01-10 11:23:03.86	194.96	8.05	-30.4	-34.4	10.4	4.87e-03	0	40	0	19922944	22	5654
2026-01-10 11:23:04.87	195.03	8.12	-30.4	-34.3	10.4	4.08e-03	0	40	0	22020096	22	5630
2026-01-10 11:23:05.87	195.10	8.19	-30.5	-34.5	10.2	5.39e-03	0	40	0	24117248	22	5736
2026-01-10 11:23:06.87	195.17	8.27	-30.4	-34.2	10.4	5.51e-03	0	40	0	26214400	22	5595
2026-01-10 11:23:07.88	195.24	8.34	-30.4	-34.5	10.2	4.86e-03	0	40	0	28311552	22	5715
2026-01-10 11:23:08.88	195.31	8.42	-30.3	-34.2	10.3	6.22e-03	0	40	0	29360128	22	5614
2026-01-10 11:23:09.89	195.38	8.49	-30.3	-34.1	10.3	5.37e-03	0	40	0	31457280	22	5583
2026-01-10 11:23:10.90	195.45	8.57	-30.2	-34.3	10.4	4.86e-03	0	40	0	33554432	21	5803
2026-01-10 11:23:11.90	195.53	8.64	-30.1	-34.2	10.4	5.00e-03	0	40	0	35651584	21	5757
2026-01-10 11:23:12.91	195.60	8.72	-30.0	-34.0	10.5	4.90e-03	0	40	0	37748736	21	5684
2026-01-10 11:23:13.91	195.67	8.80	-30.1	-34.3	10.3	4.24e-03	0	40	0	38797312	21	5821
2026-01-10 11:23:14.91	195.74	8.87	-30.1	-34.1	10.5	4.76e-03	0	40	0	40894464	21	5728
2026-01-10 11:23:15.91	195.82	8.95	-30.0	-34.0	10.5	4.02e-03	0	40	0	42991616	21	5684
2026-01-10 11:23:16.91	195.89	9.02	-30.0	-33.9	10.6	4.09e-03	0	40	0	45088768	21	5655
2026-01-10 11:23:17.92	195.96	9.10	-30.1	-34.2	10.3	5.24e-03	0	40	0	46137344	21	5800
2026-01-10 11:23:18.93	196.04	9.18	-30.1	-34.2	10.6	5.09e-03	0	40	0	48234496	21	5741
2026-01-10 11:23:19.94	196.11	9.26	-30.2	-34.3	10.6	3.26e-03	0	40	0	50331648	21	5793
2026-01-10 11:23:20.94	196.19	9.33	-30.3	-34.8	10.2	5.14e-03	0	40	0	52428800	21	6025
2026-01-10 11:23:21.95	196.26	9.41	-30.4	-35.0	10.1	5.74e-03	0	40	0	54525952	21	6119
2026-01-10 11:23:22.95	196.34	9.49	-30.5	-35.1	10.3	6.18e-03	0	40	0	56623104	21	6083
2026-01-10 11:23:23.96	196.41	9.57	-30.6	-35.2	10.3	5.37e-03	0	41	0	57671680	21	6120
2026-01-10 11:23:24.96	196.49	9.64	-30.7	-35.5	10.1	6.12e-03	0	41	0	59768832	21	6295
2026-01-10 11:23:25.97	196.57	9.72	-30.6	-35.2	10.3	6.34e-03	0	41	0	61865984	21	6107
2026-01-10 11:23:26.98	196.65	9.80	-30.5	-34.8	10.7	4.09e-03	0	40	0	63963136	21	5889
2026-01-10 11:23:27.98	196.72	9.88	-30.4	-34.4	10.9	2.29e-03	0	40	0	65011712	21	5724
2026-01-10 11:23:28.99	196.80	9.96	-30.3	-34.4	10.9	2.07e-03	0	41	0	67108864	21	5716
2026-01-10 11:23:30.00	196.88	10.04	-30.3	-34.3	11.0	2.04e-03	0	40	0	69206016	21	5679
2026-01-10 11:23:31.00	196.96	10.12	-30.5	-34.9	10.5	2.86e-03	0	41	0	71303168	21	5983
2026-01-10 11:23:32.01	197.04	10.20	-30.3	-34.2	11.0	2.56e-03	0	41	0	73400320	21	5646
2026-01-10 11:23:33.02	197.12	10.28	-30.1	-33.6	11.5	1.23e-03	0	41	0	74448896	21	5384
2026-01-10 11:23:34.02	197.20	10.36	-30.0	-33.4	11.7	6.62e-04	0	41	0	76546048	21	5277
2026-01-10 11:23:35.03	197.28	10.44	-30.0	-33.3	11.7	5.13e-04	0	41	0	78643200	21	5238
2026-01-10 11:23:36.03	197.36	10.52	-30.0	-33.3	11.7	5.16e-04	0	41	0	80740352	21	5266
2026-01-10 11:23:37.04	197.44	10.60	-30.0	-33.4	11.7	5.32e-04	0	41	0	82837504	21	5286
2026-01-10 11:23:38.04	197.52	10.68	-30.1	-33.5	11.6	7.29e-04	0	41	0	83886080	21	5336
2026-01-10 11:23:39.05	197.61	10.76	-29.9	-33.1	11.8	5.24e-04	0	41	0	85983232	21	5189
2026-01-10 11:23:40.05	197.69	10.84	-29.8	-32.7	12.0	3.77e-04	0	41	0	88080384	21	5039
2026-01-10 11:23:41.05	197.77	10.92	-29.8	-33.2	12.0	3.29e-04	0	41	0	90177536	20	5325
2026-01-10 11:23:42.06	197.86	11.01	-29.7	-33.0	12.0	2.92e-04	0	41	0	92274688	20	5268
2026-01-10 11:23:43.07	197.94	11.09	-29.7	-33.1	11.9	3.32e-04	0	41	0	93323264	20	5315
2026-01-10 11:23:44.07	198.02	11.17	-29.9	-33.6	11.6	5.86e-04	0	41	0	95420416	20	5494
2026-01-10 11:23:45.07	198.11	11.25	-29.8	-33.2	11.8	4.90e-04	0	41	0	97517568	20	5352
2026-01-10 11:23:46.08	198.19	11.34	-29.8	-33.3	11.8	5.22e-04	0	41	0	99614720	20	5389
2026-01-10 11:23:47.08	198.28	11.42	-29.7	-32.9	12.0	4.18e-04	0	41	0	101711872	20	5248
2026-01-10 11:23:48.09	198.37	11.50	-29.6	-32.7	12.1	2.68e-04	0	41	0	102760448	20	5170
2026-01-10 11:23:49.10	198.45	11.59	-29.7	-33.1	11.9	3.72e-04	0	41	0	104857600	20	5322
2026-01-10 11:23:50.10	198.54	11.67	-29.7	-33.0	12.0	3.66e-04	0	41	0	106954752	20	5269
2026-01-10 11:23:51.11	198.63	11.75	-29.8	-33.2	11.9	4.26e-04	0	41	0	109051904	20	5336
2026-01-10 11:23:52.12	198.72	11.84	-30.0	-33.8	11.5	7.58e-04	0	41	0	111149056	20	5585
2026-01-10 11:23:53.13	198.81	11.92	-29.8	-33.3	12.0	5.77e-04	0	41	0	112197632	20	5364
2026-01-10 11:23:54.13	198.90	12.01	-29.9	-33.4	12.0	3.07e-04	0	41	0	114294784	20	5373
2026-01-10 11:23:55.14	198.99	12.09	-29.7	-32.9	12.5	1.51e-04	0	41	0	116391936	20	5163
2026-01-10 11:23:56.15	199.08	12.18	-29.7	-32.8	12.6	9.53e-05	0	41	0	118489088	20	5136
2026-01-10 11:23:57.15	199.17	12.26	-29.8	-33.1	12.4	1.24e-04	0	41	0	120586240	20	5231
2026-01-10 11:23:58.16	199.26	12.35	-29.7	-32.8	12.6	1.18e-04	0	41	0	121634816	20	5126
2026-01-10 11:23:59.17	199.35	12.43	-29.7	-32.7	12.7	7.78e-05	0	41	0	123731968	20	5071
2026-01-10 11:24:00.18	199.44	12.52	-29.7	-32.7	12.8	8.08e-05	0	41	0	125829120	20	5084
2026-01-10 11:24:01.19	199.54	12.61	-29.7	-32.7	12.7	7.24e-05	0	41	0	127926272	20	5093
2026-01-10 11:24:02.19	199.63	12.69	-29.7	-32.8	12.7	6.94e-05	0	41	0	130023424	20	5112
2026-01-10 11:24:03.20	199.72	12.78	-29.7	-32.8	12.7	1.06e-04	0	41	0	131072000	20	5108
2026-01-10 11:24:04.21	199.82	12.87	-29.7	-32.5	12.9	4.65e-05	0	41	0	133169152	20	5016
2026-01-10 11:24:05.21	199.91	12.95	-29.7	-32.6	12.9	4.73e-05	0	41	0	135266304	20	5038
2026-01-10 11:24:06.22	200.01	13.04	-29.7	-32.8	12.7	6.71e-05	0	41	0	137363456	20	5094
2026-01-10 11:24:07.23	200.11	13.13	-29.6	-32.4	13.0	4.11e-05	0	41	0	139460608	20	4972
2026-01-10 11:24:08.23	200.20	13.22	-29.6	-32.3	13.1	3.73e-05	0	41	0	140509184	20	4910
2026-01-10 11:24:09.24	200.30	13.31	-29.6	-32.3	13.2	3.35e-05	0	41	0	142606336	20	4900
2026-01-10 11:24:10.24	200.40	13.39	-29.7	-32.7	12.9	4.88e-05	0	41	0	144703488	20	5052
2026-01-10 11:24:11.25	200.49	13.48	-29.6	-32.4	13.1	3.43e-05	0	41	0	146800640	20	4934
2026-01-10 11:24:12.25	200.59	13.57	-29.7	-32.6	13.0	2.59e-05	0	41	0	148897792	20	5030
2026-01-10 11:24:13.26	200.69	13.66	-29.7	-32.6	13.0	5.03e-05	0	41	0	149946368	20	5027
2026-01-10 11:24:14.26	200.79	13.75	-29.7	-32.5	13.0	3.28e-05	0	41	0	152043520	20	5001
2026-01-10 11:24:15.26	200.89	13.84	-29.5	-32.2	13.3	2.44e-05	0	41	0	154140672	20	4864
2026-01-10 11:24:16.27	200.99	13.93	-29.6	-32.2	13.2	1.60e-05	0	41	0	156237824	20	4880
2026-01-10 11:24:17.28	201.10	14.02	-29.6	-32.2	13.2	2.67e-05	0	41	0	158334976	20	4892
2026-01-10 11:24:18.28	201.20	14.11	-29.5	-32.1	13.3	2.74e-05	0	41	0	159383552	20	4826
2026-01-10 11:24:19.29	201.30	14.20	-29.5	-32.0	13.4	7.60e-06	0	41	0	161480704	20	4803
2026-01-10 11:24:20.30	201.41	14.29	-29.5	-32.0	13.3	1.44e-05	0	41	0	163577856	20	4817
2026-01-10 11:24:21.30	201.51	14.38	-29.6	-32.2	13.2	1.98e-05	0	41	0	165675008	20	4873
2026-01-10 11:24:22.31	201.61	14.47	-29.5	-31.9	13.4	1.06e-05	0	41	0	167772160	20	4779
2026-01-10 11:24:23.32	201.72	14.57	-29.4	-31.8	13.5	1.06e-05	0	41	0	168820736	20	4718
2026-01-10 11:24:24.32	201.83	14.66	-29.4	-31.8	13.5	1.44e-05	0	42	0	170917888	20	4728
2026-01-10 11:24:25.33	201.93	14.75	-29.4	-31.7	13.6	8.30e-06	0	41	0	173015040	20	4686
2026-01-10 11:24:26.33	202.04	14.84	-29.4	-31.8	13.6	5.30e-06	0	41	0	175112192	20	4718
2026-01-10 11:24:27.33	202.15	14.93	-29.4	-31.7	13.5	1.22e-05	0	41	0	177209344	20	4710
2026-01-10 11:24:28.34	202.26	15.03	-29.4	-31.8	13.5	7.60e-06	0	42	0	178257920	20	4741
2026-01-10 11:24:29.34	202.36	15.12	-29.5	-31.9	13.5	1.67e-05	0	41	0	180355072	20	4764
2026-01-10 11:24:30.34	202.47	15.21	-29.3	-31.5	13.7	1.44e-05	0	41	0	182452224	20	4640
2026-01-10 11:24:31.34	202.58	15.31	-29.4	-31.7	13.6	3.80e-06	0	41	0	184549376	20	4701
2026-01-10 11:24:32.35	202.70	15.40	-29.5	-31.9	13.5	9.10e-06	0	41	0	186646528	20	4771
2026-01-10 11:24:33.36	202.81	15.50	-29.5	-31.9	13.5	2.21e-05	0	41	0	187695104	20	4760
2026-01-10 11:24:34.36	202.92	15.59	-29.5	-32.0	13.4	1.52e-05	0	41	0	189792256	20	4800
2026-01-10 11:24:35.37	203.03	15.68	-29.5	-31.8	13.6	7.60e-06	0	41	0	191889408	20	4741
2026-01-10 11:24:36.38	203.15	15.78	-29.5	-32.0	13.5	2.59e-05	0	41	0	193986560	20	4785
2026-01-10 11:24:37.38	203.26	15.87	-29.5	-31.9	13.6	8.30e-06	0	42	0	196083712	20	4759
2026-01-10 11:24:38.39	203.38	15.97	-29.6	-32.1	13.4	1.06e-05	0	41	0	197132288	20	4834
2026-01-10 11:24:39.40	203.50	16.07	-29.5	-31.8	13.6	1.22e-05	0	41	0	199229440	20	4715
2026-01-10 11:24:40.41	203.61	16.16	-29.5	-31.9	13.6	7.60e-06	0	41	0	201326592	20	4750
2026-01-10 11:24:41.41	203.73	16.26	-29.5	-31.9	13.6	7.60e-06	0	41	0	203423744	20	4753
2026-01-10 11:24:42.42	203.85	16.36	-29.6	-32.1	13.4	7.60e-06	0	42	0	205520896	20	4840
2026-01-10 11:24:43.43	203.97	16.45	-29.6	-32.1	13.4	1.67e-05	0	41	0	206569472	20	4838
2026-01-10 11:24:44.43	204.09	16.55	-29.5	-31.8	13.6	7.60e-06	0	41	0	208666624	20	4729
2026-01-10 11:24:45.43	204.21	16.65	-29.5	-32.0	13.5	9.90e-06	0	41	0	210763776	20	4793
2026-01-10 11:24:46.44	204.33	16.75	-29.5	-32.0	13.5	8.30e-06	0	41	0	212860928	20	4803
2026-01-10 11:24:47.45	204.45	16.84	-29.6	-32.1	13.5	6.80e-06	0	41	0	214958080	20	4841
2026-01-10 11:24:48.45	204.57	16.94	-29.6	-32.1	13.5	9.90e-06	0	41	0	216006656	20	4820
2026-01-10 11:24:49.46	204.70	17.04	-29.6	-32.3	13.4	1.14e-05	0	41	0	218103808	20	4886
2026-01-10 11:24:50.47	204.82	17.14	-29.7	-32.5	13.3	2.36e-05	0	41	0	220200960	20	4948
2026-01-10 11:24:51.47	204.95	17.24	-29.7	-32.4	13.4	1.44e-05	0	41	0	222298112	20	4908
2026-01-10 11:24:52.48	205.07	17.34	-29.9	-32.9	13.0	1.52e-05	0	41	0	224395264	20	5111
2026-01-10 11:24:53.49	205.20	17.44	-29.9	-33.0	12.9	4.80e-05	0	42	0	225443840	20	5161
2026-01-10 11:24:54.49	205.33	17.54	-29.9	-32.9	13.0	3.66e-05	0	41	0	227540992	20	5112
2026-01-10 11:24:55.49	205.46	17.64	-29.9	-33.1	12.9	5.95e-05	0	42	0	229638144	20	5197
2026-01-10 11:24:56.50	205.59	17.74	-30.0	-33.2	12.8	3.28e-05	0	41	0	231735296	20	5217
2026-01-10 11:24:57.51	205.72	17.84	-30.0	-33.2	12.8	5.87e-05	0	41	0	233832448	20	5219
2026-01-10 11:24:58.51	205.85	17.94	-29.9	-33.1	12.9	7.09e-05	0	42	0	234881024	20	5179
2026-01-10 11:24:59.51	205.98	18.04	-30.2	-33.8	12.4	8.08e-05	0	41	0	236978176	20	5458
2026-01-10 11:25:00.51	206.11	18.14	-30.2	-33.9	12.4	1.87e-04	0	42	0	239075328	20	5490
2026-01-10 11:25:01.52	206.24	18.25	-30.0	-33.4	12.7	9.46e-05	0	41	0	241172480	20	5299
2026-01-10 11:25:02.53	206.38	18.35	-29.9	-33.1	13.0	4.19e-05	0	41	0	243269632	20	5163
2026-01-10 11:25:03.54	206.51	18.45	-29.9	-32.9	13.1	4.57e-05	0	42	0	244318208	20	5118
2026-01-10 11:25:04.54	206.65	18.55	-29.9	-33.1	13.0	3.73e-05	0	41	0	246415360	20	5172
2026-01-10 11:25:05.54	206.79	18.66	-29.9	-33.1	12.9	2.89e-05	0	42	0	248512512	20	5184
2026-01-10 11:25:06.55	206.92	18.76	-30.0	-33.3	12.8	6.56e-05	0	42	0	250609664	20	5253
2026-01-10 11:25:07.56	207.06	18.86	-30.0	-33.3	12.8	5.79e-05	0	42	0	252706816	20	5267
2026-01-10 11:25:08.57	207.20	18.97	-30.1	-33.5	12.7	6.25e-05	0	42	0	253755392	20	5338
2026-01-10 11:25:09.57	207.34	19.07	-30.1	-33.5	12.7	9.91e-05	0	42	0	255852544	20	5347
2026-01-10 11:25:10.58	207.49	19.18	-30.1	-33.5	12.7	7.47e-05	0	42	0	257949696	20	5341
2026-01-10 11:25:11.59	207.63	19.28	-30.2	-33.9	12.5	1.07e-04	0	42	0	260046848	20	5482
2026-01-10 11:25:12.59	207.77	19.39	-30.2	-33.9	12.4	1.40e-04	0	42	0	261095424	20	5515
2026-01-10 11:25:13.60	207.92	19.49	-30.3	-34.0	12.3	1.61e-04	0	41	0	263192576	20	5560
2026-01-10 11:25:14.60	208.06	19.60	-30.3	-34.0	12.4	1.51e-04	0	42	0	265289728	20	5548
2026-01-10 11:25:15.60	208.21	19.70	-30.4	-34.4	12.1	1.90e-04	0	42	0	267386880	20	5729
2026-01-10 11:25:16.61	208.36	19.81	-30.4	-34.5	12.1	2.39e-04	0	42	0	269484032	20	5741
2026-01-10 11:25:17.62	208.50	19.91	-30.5	-34.5	12.0	2.80e-04	0	42	0	271581184	20	5755
2026-01-10 11:25:18.62	208.65	20.02	-30.4	-34.0	12.0	4.41e-04	0	41	0	272629760	21	5422
2026-01-10 11:25:19.63	208.80	20.13	-30.3	-33.6	12.3	2.32e-04	0	42	0	274726912	21	5254
2026-01-10 11:25:20.63	208.95	20.23	-30.3	-33.5	12.4	1.65e-04	0	42	0	276824064	21	5219
2026-01-10 11:25:21.64	209.11	20.34	-30.4	-33.7	12.2	1.84e-04	0	42	0	278921216	21	5311
2026-01-10 11:25:22.64	209.26	20.45	-30.4	-33.8	12.2	2.13e-04	0	42	0	279969792	21	5326
2026-01-10 11:25:23.64	209.41	20.56	-30.3	-33.6	12.3	1.86e-04	0	42	0	282066944	21	5263
2026-01-10 11:25:24.64	209.57	20.66	-30.4	-33.8	12.2	1.64e-04	0	42	0	284164096	21	5328
2026-01-10 11:25:25.64	209.72	20.77	-30.3	-33.5	12.4	2.27e-04	0	42	0	286261248	21	5233
2026-01-10 11:25:26.65	209.88	20.88	-30.1	-33.0	12.8	1.22e-04	0	42	0	288358400	21	5028
2026-01-10 11:25:27.65	210.04	20.99	-30.0	-32.6	13.0	4.65e-05	0	41	0	289406976	21	4883
2026-01-10 11:25:28.65	210.20	21.10	-30.0	-32.6	13.1	3.43e-05	0	42	0	291504128	21	4862
2026-01-10 11:25:29.66	210.36	21.21	-30.0	-32.8	13.0	4.19e-05	0	42	0	293601280	21	4946
2026-01-10 11:25:30.66	210.52	21.32	-30.0	-32.7	13.0	3.73e-05	0	42	0	295698432	21	4912
2026-01-10 11:25:31.66	210.69	21.42	-30.0	-32.6	13.1	2.51e-05	0	42	0	297795584	21	4862
2026-01-10 11:25:32.67	210.85	21.54	-30.0	-32.7	13.0	3.43e-05	0	41	0	298844160	21	4916
2026-01-10 11:25:33.67	211.02	21.65	-30.1	-33.0	12.8	6.63e-05	0	42	0	300941312	21	5005
2026-01-10 11:25:34.68	211.18	21.76	-30.1	-33.1	12.8	5.64e-05	0	42	0	303038464	21	5062
2026-01-10 11:25:35.69	211.35	21.87	-30.1	-32.9	12.8	9.00e-05	0	42	0	305135616	21	4988
2026-01-10 11:25:36.69	211.52	21.98	-29.9	-32.5	13.1	4.11e-05	0	42	0	307232768	21	4842
2026-01-10 11:25:37.70	211.69	22.09	-30.0	-32.7	13.0	4.19e-05	0	42	0	308281344	21	4909
2026-01-10 11:25:38.70	211.86	22.20	-29.9	-32.5	13.1	3.73e-05	0	42	0	310378496	21	4841
2026-01-10 11:25:39.71	212.03	22.31	-30.0	-32.5	13.1	2.44e-05	0	42	0	312475648	21	4847
2026-01-10 11:25:40.72	212.21	22.43	-30.0	-32.8	13.0	2.89e-05	0	42	0	314572800	21	4943
2026-01-10 11:25:41.73	212.38	22.54	-30.0	-32.8	13.0	4.95e-05	0	42	0	316669952	21	4924
2026-01-10 11:25:42.73	212.56	22.65	-30.1	-32.8	13.0	3.35e-05	0	42	0	317718528	21	4947
2026-01-10 11:25:43.74	212.74	22.76	-30.1	-32.9	12.9	6.10e-05	0	42	0	319815680	21	4961
2026-01-10 11:25:44.74	212.92	22.88	-30.1	-33.0	12.9	5.34e-05	0	42	0	321912832	21	5020
2026-01-10 11:25:45.74	213.09	22.99	-30.0	-32.7	13.1	4.19e-05	0	42	0	324009984	21	4909
2026-01-10 11:25:46.75	213.28	23.10	-29.9	-32.4	13.2	2.21e-05	0	42	0	326107136	21	4810
2026-01-10 11:25:47.75	213.46	23.21	-29.9	-32.3	13.4	1.14e-05	0	42	0	327155712	21	4760
2026-01-10 11:25:48.76	213.64	23.33	-29.8	-32.2	13.5	9.90e-06	0	42	0	329252864	21	4701
2026-01-10 11:25:49.77	213.83	23.44	-29.8	-32.5	13.6	9.90e-06	0	42	0	331350016	20	4910
2026-01-10 11:25:50.77	214.01	23.56	-29.7	-32.4	13.6	4.50e-06	0	42	0	333447168	20	4891
2026-01-10 11:25:51.78	214.20	23.67	-29.8	-32.5	13.5	7.60e-06	0	42	0	335544320	20	4938
2026-01-10 11:25:52.79	214.39	23.79	-30.1	-33.3	13.0	1.14e-05	0	42	0	336592896	20	5229
2026-01-10 11:25:53.79	214.58	23.90	-29.9	-33.0	13.3	2.74e-05	0	42	0	338690048	20	5097
2026-01-10 11:25:54.80	214.77	24.02	-29.8	-32.5	13.6	6.80e-06	0	42	0	340787200	20	4914
2026-01-10 11:25:55.80	214.97	24.13	-29.6	-32.0	13.9	5.30e-06	0	42	0	342884352	20	4740
2026-01-10 11:25:56.81	215.16	24.25	-29.5	-31.8	14.0	2.20e-06	0	42	0	344981504	20	4678
2026-01-10 11:25:57.82	215.36	24.36	-29.6	-32.0	13.9	7.00e-07	0	42	0	346030080	20	4765
2026-01-10 11:25:58.83	215.56	24.48	-29.5	-31.8	14.1	7.00e-07	0	42	0	348127232	20	4674
2026-01-10 11:25:59.83	215.76	24.59	-29.5	-31.8	14.0	1.50e-06	0	42	0	350224384	20	4684
2026-01-10 11:26:00.84	215.96	24.71	-29.6	-32.1	13.9	2.20e-06	0	42	0	352321536	20	4801
2026-01-10 11:26:01.84	216.16	24.82	-29.5	-31.7	14.1	5.30e-06	0	42	0	354418688	20	4650
2026-01-10 11:26:02.85	216.36	24.94	-29.4	-31.4	14.3	0.00e+00	0	42	0	355467264	20	4558
2026-01-10 11:26:03.85	216.56	25.06	-29.4	-31.5	14.2	0.00e+00	0	42	0	357564416	20	4595
2026-01-10 11:26:04.86	216.77	25.17	-29.3	-31.2	14.4	2.20e-06	0	42	0	359661568	20	4498
2026-01-10 11:26:05.86	216.98	25.29	-29.4	-31.9	14.4	1.50e-06	0	42	0	361758720	19	4810
2026-01-10 11:26:06.87	217.19	25.41	-29.3	-31.8	14.4	1.50e-06	0	42	0	363855872	19	4786
2026-01-10 11:26:07.87	217.40	25.52	-29.4	-32.0	14.3	0.00e+00	0	42	0	364904448	19	4833
2026-01-10 11:26:08.88	217.61	25.64	-29.4	-31.9	14.4	0.00e+00	0	42	0	367001600	19	4810
2026-01-10 11:26:09.88	217.82	25.76	-29.4	-31.9	14.4	1.50e-06	0	42	0	369098752	19	4814
2026-01-10 11:26:10.88	218.04	25.87	-29.5	-32.2	14.2	0.00e+00	0	42	0	371195904	19	4897
2026-01-10 11:26:11.89	218.25	25.99	-29.5	-32.1	14.3	7.00e-07	0	42	0	373293056	19	4880
2026-01-10 11:26:12.89	218.47	26.11	-29.5	-32.1	14.3	7.00e-07	0	42	0	374341632	19	4866
2026-01-10 11:26:13.90	218.69	26.23	-29.6	-32.5	14.0	3.00e-06	0	42	0	376438784	19	5028
2026-01-10 11:26:14.90	218.91	26.34	-29.5	-32.3	14.2	7.00e-07	0	42	0	378535936	19	4934
2026-01-10 11:26:15.91	219.14	26.46	-29.5	-32.2	14.2	0.00e+00	0	42	0	380633088	19	4905
2026-01-10 11:26:16.92	219.36	26.58	-29.5	-32.2	14.2	1.50e-06	0	42	0	382730240	19	4906
2026-01-10 11:26:17.93	219.59	26.70	-29.6	-32.4	14.1	1.50e-06	0	42	0	383778816	19	4986
2026-01-10 11:26:18.93	219.82	26.81	-29.8	-33.1	13.7	1.50e-06	0	42	0	385875968	19	5241
2026-01-10 11:26:19.94	220.05	26.93	-29.8	-33.1	13.7	6.80e-06	0	42	0	387973120	19	5222
2026-01-10 11:26:20.95	220.28	27.05	-29.9	-32.9	13.4	9.10e-06	0	42	0	390070272	20	5070
2026-01-10 11:26:21.95	220.51	27.17	-29.9	-32.7	13.5	9.90e-06	0	42	0	392167424	20	5002
2026-01-10 11:26:22.96	220.75	27.29	-29.9	-32.7	13.6	7.60e-06	0	42	0	393216000	20	5005
2026-01-10 11:26:23.97	220.99	27.40	-29.9	-32.9	13.5	1.29e-05	0	42	0	395313152	20	5045
2026-01-10 11:26:24.97	221.22	27.52	-30.1	-33.4	13.1	2.74e-05	0	42	0	397410304	20	5243
2026-01-10 11:26:25.98	221.46	27.64	-30.0	-33.0	13.4	2.44e-05	0	42	0	399507456	20	5082
2026-01-10 11:26:26.99	221.71	27.76	-29.9	-32.9	13.4	2.28e-05	0	42	0	401604608	20	5066
2026-01-10 11:26:27.99	221.95	27.87	-30.1	-33.3	13.2	1.60e-05	0	42	0	402653184	20	5211
2026-01-10 11:26:29.00	222.19	27.99	-30.1	-33.4	13.2	1.83e-05	0	42	0	404750336	20	5243
2026-01-10 11:26:30.01	222.44	28.11	-30.2	-33.5	13.0	2.97e-05	0	42	0	406847488	20	5292
2026-01-10 11:26:31.01	222.69	28.23	-30.1	-33.2	13.2	2.97e-05	0	42	0	408944640	20	5185
2026-01-10 11:26:32.02	222.94	28.34	-30.2	-33.7	13.0	2.67e-05	0	42	0	411041792	20	5345
2026-01-10 11:26:33.03	223.19	28.46	-30.0	-33.0	13.4	1.90e-05	0	42	0	412090368	20	5094
2026-01-10 11:26:34.03	223.45	28.58	-29.8	-32.5	13.7	1.29e-05	0	42	0	414187520	20	4923
2026-01-10 11:26:35.04	223.70	28.70	-29.7	-32.4	13.8	6.80e-06	0	42	0	416284672	20	4863
2026-01-10 11:26:36.05	223.96	28.81	-30.0	-33.1	13.3	3.80e-06	0	42	0	418381824	20	5126
2026-01-10 11:26:37.05	224.22	28.93	-30.1	-33.4	13.1	2.36e-05	0	42	0	420478976	20	5253
2026-01-10 11:26:38.06	224.48	29.05	-30.4	-34.0	12.7	5.56e-05	0	42	0	421527552	20	5506
2026-01-10 11:26:39.07	224.75	29.16	-30.4	-34.2	12.6	1.01e-04	0	42	0	423624704	20	5564
2026-01-10 11:26:40.07	225.01	29.28	-30.6	-34.1	12.3	1.22e-04	0	42	0	425721856	21	5437
2026-01-10 11:26:41.08	225.28	29.40	-30.7	-34.7	11.9	3.55e-04	0	42	0	427819008	21	5664
2026-01-10 11:26:42.08	225.55	29.51	-30.6	-34.3	12.1	2.56e-04	0	42	0	429916160	21	5516
2026-01-10 11:26:43.09	225.82	29.63	-30.6	-34.1	12.3	2.32e-04	0	42	0	430964736	21	5427
2026-01-10 11:26:44.10	226.09	29.74	-30.8	-34.9	11.8	3.47e-04	0	42	0	433061888	21	5758
2026-01-10 11:26:45.10	226.37	29.86	-31.0	-35.3	11.5	6.48e-04	0	42	0	435159040	21	5956
2026-01-10 11:26:46.11	226.64	29.97	-31.0	-34.9	11.5	1.01e-03	0	42	0	437256192	22	5640
2026-01-10 11:26:47.11	226.92	30.09	-31.0	-34.9	11.5	8.09e-04	0	42	0	439353344	22	5637
2026-01-10 11:26:48.12	227.20	30.20	-31.0	-34.9	11.5	8.58e-04	0	42	0	440401920	22	5650
2026-01-10 11:26:49.12	227.48	30.32	-30.9	-34.6	11.6	5.78e-04	0	42	0	442499072	22	5532
2026-01-10 11:26:50.13	227.77	30.43	-30.9	-34.6	11.7	4.52e-04	0	42	0	444596224	22	5505
2026-01-10 11:26:51.14	228.06	30.55	-31.0	-35.0	11.4	7.94e-04	0	42	0	446693376	22	5686
2026-01-10 11:26:52.14	228.34	30.66	-31.2	-35.4	11.1	1.17e-03	0	42	0	448790528	22	5892
2026-01-10 11:26:53.15	228.63	30.77	-31.4	-36.2	10.5	2.38e-03	0	42	0	449839104	22	6251
2026-01-10 11:26:54.15	228.92	30.88	-31.5	-36.3	10.1	5.10e-03	0	42	0	451936256	23	6205
2026-01-10 11:26:55.16	229.22	31.00	-31.7	-37.0	9.6	9.71e-03	0	42	0	454033408	23	6563
2026-01-10 11:26:56.17	229.52	31.11	-31.9	-37.7	9.0	1.61e-02	0	42	0	456130560	23	7002
2026-01-10 11:26:57.17	229.81	31.22	-32.0	-37.7	8.6	3.17e-02	0	42	0	458227712	24	6898
2026-01-10 11:26:58.18	230.12	31.33	-32.0	-37.5	8.8	3.16e-02	0	42	0	459276288	24	6763
2026-01-10 11:26:59.19	230.42	31.44	-32.1	-38.0	8.5	3.24e-02	0	42	0	461373440	24	7068
2026-01-10 11:27:00.19	230.72	31.55	-32.1	-38.0	8.5	4.56e-02	0	42	0	463470592	24	7071
2026-01-10 11:27:01.19	231.03	31.66	-32.1	-37.7	8.7	3.51e-02	0	42	0	465567744	24	6896
2026-01-10 11:27:02.20	231.34	31.77	-32.0	-37.6	8.8	3.36e-02	0	42	0	467664896	24	6809
2026-01-10 11:27:03.21	231.65	31.88	-32.0	-37.5	8.8	3.12e-02	0	42	0	468713472	24	6766
2026-01-10 11:27:04.21	231.96	31.99	-31.9	-36.9	9.3	1.98e-02	0	42	0	470810624	24	6423
2026-01-10 11:27:05.22	232.27	32.10	-32.0	-37.5	8.8	2.72e-02	0	42	0	472907776	24	6783
2026-01-10 11:27:06.22	232.59	32.20	-32.0	-37.5	8.9	3.10e-02	0	42	0	475004928	24	6748
2026-01-10 11:27:07.22	232.91	32.31	-32.2	-38.3	8.3	4.59e-02	0	42	0	477102080	24	7227
2026-01-10 11:27:08.23	233.23	32.41	-32.2	-38.1	8.4	5.13e-02	0	42	0	478150656	24	7148
2026-01-10 11:27:09.24	233.55	32.52	-32.3	-38.5	8.1	5.36e-02	0	42	0	480247808	24	7351
2026-01-10 11:27:10.25	233.88	32.62	-32.2	-38.4	8.2	5.75e-02	0	42	0	482344960	24	7298
2026-01-10 11:27:11.25	234.20	32.73	-32.2	-38.1	8.5	5.16e-02	0	42	0	484442112	24	7087
2026-01-10 11:27:12.26	234.53	32.83	-32.1	-37.8	8.6	3.86e-02	0	42	0	486539264	24	6945
2026-01-10 11:27:13.26	234.86	32.93	-32.1	-37.7	8.7	4.01e-02	0	42	0	487587840	24	6879
2026-01-10 11:27:14.26	235.19	33.04	-32.1	-37.7	8.7	3.43e-02	0	42	0	489684992	24	6874
2026-01-10 11:27:15.27	235.53	33.14	-32.1	-37.7	8.7	3.38e-02	0	42	0	491782144	24	6845
2026-01-10 11:27:16.27	235.87	33.24	-32.0	-37.5	8.9	2.85e-02	0	42	0	493879296	24	6734
2026-01-10 11:27:17.27	236.20	33.34	-32.1	-37.6	8.8	3.08e-02	0	42	0	494927872	24	6790
2026-01-10 11:27:18.28	236.55	33.44	-32.1	-37.7	8.8	2.83e-02	0	42	0	497025024	24	6851
2026-01-10 11:27:19.29	236.89	33.53	-32.1	-37.9	8.6	4.32e-02	0	42	0	499122176	24	6994
2026-01-10 11:27:20.29	237.23	33.63	-31.9	-37.0	9.2	2.16e-02	0	42	0	501219328	24	6459
2026-01-10 11:27:21.30	237.58	33.73	-31.7	-36.0	10.0	1.28e-02	0	42	0	503316480	24	5939
2026-01-10 11:27:22.31	237.93	33.82	-31.7	-36.0	10.0	7.37e-03	0	42	0	505413632	24	5917
2026-01-10 11:27:23.31	238.28	33.92	-31.6	-35.8	10.2	5.96e-03	0	42	0	506462208	24	5858
2026-01-10 11:27:24.32	238.64	34.01	-31.5	-35.6	10.4	4.54e-03	0	42	0	508559360	24	5717
2026-01-10 11:27:25.33	238.99	34.11	-31.5	-35.5	10.5	4.86e-03	0	42	0	510656512	24	5681
2026-01-10 11:27:26.33	239.35	34.20	-31.5	-35.2	10.6	3.73e-03	0	42	0	512753664	24	5572
2026-01-10 11:27:27.33	239.71	34.29	-31.3	-34.8	11.0	1.90e-03	0	42	0	513802240	24	5377
2026-01-10 11:27:28.33	240.07	34.38	-31.4	-35.0	10.8	2.49e-03	0	42	0	515899392	24	5457
2026-01-10 11:27:29.34	240.43	34.47	-31.2	-35.0	11.2	2.21e-03	0	42	0	517996544	23	5571
2026-01-10 11:27:30.34	240.79	34.55	-31.2	-35.0	11.2	1.45e-03	0	42	0	520093696	23	5547
2026-01-10 11:27:31.35	241.16	34.64	-31.2	-35.1	11.2	1.18e-03	0	42	0	522190848	23	5592
2026-01-10 11:27:32.36	241.53	34.73	-31.2	-34.9	11.3	1.36e-03	0	42	0	523239424	23	5500
2026-01-10 11:27:33.36	241.90	34.81	-31.1	-34.5	11.6	1.03e-03	0	42	0	525336576	23	5338
2026-01-10 11:27:34.36	242.27	34.90	-31.0	-34.4	11.6	6.54e-04	0	42	0	527433728	23	5287
2026-01-10 11:27:35.37	242.65	34.98	-31.0	-34.4	11.7	7.31e-04	0	42	0	529530880	23	5284
2026-01-10 11:27:36.37	243.02	35.06	-31.1	-34.5	11.6	5.74e-04	0	42	0	531628032	23	5330
2026-01-10 11:27:37.38	243.40	35.14	-31.1	-34.6	11.4	1.16e-03	0	42	0	532676608	23	5405
2026-01-10 11:27:38.38	243.78	35.22	-30.8	-34.1	12.2	4.36e-04	0	42	0	534773760	22	5264
2026-01-10 11:27:39.38	244.16	35.30	-30.5	-33.3	12.7	9.53e-05	0	42	0	536870912	22	4980
2026-01-10 11:27:40.38	244.54	35.37	-30.2	-33.0	13.3	4.04e-05	0	42	0	538968064	21	4959
2026-01-10 11:27:41.39	244.93	35.45	-30.2	-32.9	13.3	1.83e-05	0	42	0	541065216	21	4919
2026-01-10 11:27:42.39	245.31	35.52	-30.3	-33.2	13.2	1.83e-05	0	42	0	542113792	21	5039
2026-01-10 11:27:43.40	245.70	35.60	-30.3	-33.2	13.1	2.97e-05	0	42	0	544210944	21	5047
2026-01-10 11:27:44.41	246.10	35.67	-30.3	-33.3	13.0	2.97e-05	0	42	0	546308096	21	5079
2026-01-10 11:27:45.41	246.49	35.74	-30.4	-33.5	12.9	4.65e-05	0	42	0	548405248	21	5138
2026-01-10 11:27:46.42	246.88	35.81	-30.3	-33.2	13.2	2.74e-05	0	42	0	550502400	21	5015
2026-01-10 11:27:47.43	247.28	35.88	-30.4	-33.4	13.0	3.58e-05	0	42	0	551550976	21	5112
2026-01-10 11:27:48.43	247.67	35.94	-30.3	-33.3	13.1	4.65e-05	0	42	0	553648128	21	5062
2026-01-10 11:27:49.44	248.08	36.01	-30.4	-33.5	13.0	2.82e-05	0	42	0	555745280	21	5145
2026-01-10 11:27:50.44	248.47	36.07	-30.4	-33.6	12.8	5.34e-05	0	42	0	557842432	21	5197
2026-01-10 11:27:51.45	248.88	36.13	-30.4	-33.5	12.9	4.19e-05	0	42	0	559939584	21	5164
2026-01-10 11:27:52.46	249.28	36.19	-30.7	-34.3	12.4	8.16e-05	0	42	0	560988160	21	5473
2026-01-10 11:27:53.46	249.68	36.25	-30.6	-34.2	12.5	1.68e-04	0	42	0	563085312	21	5409
2026-01-10 11:27:54.47	250.09	36.31	-30.5	-33.7	12.8	6.63e-05	0	42	0	565182464	21	5208
2026-01-10 11:27:55.47	250.50	36.37	-30.4	-33.5	12.9	4.34e-05	0	42	0	567279616	21	5158
2026-01-10 11:27:56.48	250.91	36.42	-30.3	-33.3	13.1	2.89e-05	0	42	0	569376768	21	5075
2026-01-10 11:27:57.48	251.32	36.48	-30.2	-33.0	13.2	2.36e-05	0	42	0	570425344	21	4961
2026-01-10 11:27:58.49	251.73	36.53	-30.1	-32.6	13.6	1.37e-05	0	42	0	572522496	21	4797
2026-01-10 11:27:59.50	252.14	36.58	-30.1	-32.6	13.6	3.00e-06	0	42	0	574619648	21	4798
2026-01-10 11:28:00.50	252.56	36.63	-30.1	-32.6	13.6	1.22e-05	0	42	0	576716800	21	4805
2026-01-10 11:28:01.51	252.97	36.67	-30.2	-33.0	13.3	1.29e-05	0	42	0	578813952	21	4944
2026-01-10 11:28:02.51	253.39	36.72	-30.2	-33.1	13.3	1.37e-05	0	42	0	579862528	21	4982
2026-01-10 11:28:03.52	253.81	36.76	-30.4	-33.4	13.0	2.28e-05	0	42	0	581959680	21	5124
2026-01-10 11:28:04.52	254.22	36.81	-30.4	-33.5	13.0	5.72e-05	0	42	0	584056832	21	5141
2026-01-10 11:28:05.53	254.64	36.85	-30.5	-33.8	12.7	6.33e-05	0	42	0	586153984	21	5268
2026-01-10 11:28:06.53	255.06	36.88	-30.6	-34.2	12.5	7.62e-05	0	42	0	588251136	21	5409
2026-01-10 11:28:07.54	255.48	36.92	-30.9	-34.9	12.0	2.01e-04	0	42	0	589299712	21	5731
2026-01-10 11:28:08.55	255.91	36.96	-31.1	-35.0	11.6	3.91e-04	0	42	0	591396864	22	5657
2026-01-10 11:28:09.55	256.33	36.99	-31.5	-35.8	10.7	1.38e-03	0	42	0	593494016	23	5902
2026-01-10 11:28:10.56	256.76	37.02	-31.5	-35.7	10.8	3.07e-03	0	42	0	595591168	23	5875
2026-01-10 11:28:11.57	257.18	37.05	-31.5	-35.7	10.8	2.63e-03	0	42	0	597688320	23	5865
2026-01-10 11:28:12.57	257.61	37.08	-31.4	-35.5	10.8	2.61e-03	0	42	0	598736896	23	5770
2026-01-10 11:28:13.58	258.03	37.11	-31.2	-34.9	11.3	1.68e-03	0	42	0	600834048	23	5516
2026-01-10 11:28:14.58	258.46	37.14	-31.2	-34.9	11.4	9.60e-04	0	42	0	602931200	23	5483
2026-01-10 11:28:15.59	258.89	37.16	-31.1	-34.5	11.6	7.46e-04	0	42	0	605028352	23	5351
2026-01-10 11:28:16.59	259.31	37.18	-31.4	-35.5	11.0	1.02e-03	0	42	0	607125504	23	5757
2026-01-10 11:28:17.60	259.75	37.20	-31.8	-37.0	9.7	7.28e-03	0	42	0	608174080	23	6540
2026-01-10 11:28:18.60	260.17	37.22	-32.0	-37.3	9.1	2.00e-02	0	42	0	610271232	24	6598
2026-01-10 11:28:19.60	260.60	37.24	-32.1	-37.6	8.9	2.12e-02	0	42	0	612368384	24	6807
2026-01-10 11:28:20.61	261.03	37.25	-32.1	-37.5	9.0	2.58e-02	0	42	0	614465536	24	6704
2026-01-10 11:28:21.61	261.46	37.26	-31.9	-36.8	9.6	2.14e-02	0	42	0	616562688	24	6325
2026-01-10 11:28:22.62	261.89	37.28	-31.8	-36.4	9.9	1.17e-02	0	42	0	617611264	24	6112
2026-01-10 11:28:23.63	262.33	37.29	-31.7	-36.0	10.1	9.48e-03	0	42	0	619708416	24	5933
2026-01-10 11:28:24.64	262.76	37.29	-31.7	-36.1	10.1	7.41e-03	0	42	0	621805568	24	5952
2026-01-10 11:28:25.64	263.19	37.30	-31.7	-36.1	10.1	7.09e-03	0	42	0	623902720	24	5950
2026-01-10 11:28:26.64	263.62	37.30	-31.8	-36.4	9.8	9.13e-03	0	42	0	625999872	24	6118
2026-01-10 11:28:27.65	264.05	37.31	-31.6	-35.8	10.2	6.28e-03	0	42	0	627048448	24	5839
2026-01-10 11:28:28.66	264.48	37.31	-31.6	-35.6	10.5	5.40e-03	0	42	0	629145600	24	5716
2026-01-10 11:28:29.66	264.91	37.31	-31.6	-35.6	10.5	2.93e-03	0	42	0	631242752	24	5712
2026-01-10 11:28:30.67	265.35	37.30	-31.6	-35.6	10.4	4.23e-03	0	42	0	633339904	24	5724
2026-01-10 11:28:31.67	265.78	37.30	-31.5	-35.4	10.6	3.40e-03	0	42	0	635437056	24	5628
2026-01-10 11:28:32.68	266.21	37.29	-31.5	-35.4	10.7	3.70e-03	0	42	0	636485632	24	5609
2026-01-10 11:28:33.68	266.64	37.28	-31.0	-34.3	11.7	2.90e-03	0	42	0	638582784	23	5248
2026-01-10 11:28:34.69	267.07	37.27	-30.7	-33.9	12.3	1.78e-04	0	42	0	640679936	22	5181
2026-01-10 11:28:35.69	267.50	37.26	-30.9	-34.6	11.9	1.62e-04	0	42	0	642777088	22	5461
2026-01-10 11:28:36.69	267.93	37.25	-31.1	-35.2	11.5	5.54e-04	0	42	0	643825664	22	5717
2026-01-10 11:28:37.69	268.35	37.23	-31.3	-35.6	11.2	1.03e-03	0	42	0	645922816	22	5936
2026-01-10 11:28:38.70	268.79	37.21	-31.2	-35.2	11.4	1.37e-03	0	42	0	648019968	22	5744
2026-01-10 11:28:39.70	269.21	37.20	-30.8	-34.2	12.2	7.57e-04	0	42	0	650117120	22	5321
2026-01-10 11:28:40.71	269.64	37.17	-30.6	-33.5	12.7	1.01e-04	0	42	0	652214272	22	5036
2026-01-10 11:28:41.71	270.07	37.15	-30.6	-33.4	12.7	5.79e-05	0	42	0	653262848	22	4988
2026-01-10 11:28:42.71	270.49	37.13	-30.6	-33.6	12.6	9.00e-05	0	42	0	655360000	22	5075
2026-01-10 11:28:43.72	270.92	37.10	-30.5	-33.3	12.8	1.25e-04	0	42	0	657457152	22	4939
2026-01-10 11:28:44.72	271.34	37.08	-30.6	-33.6	12.6	6.33e-05	0	42	0	659554304	22	5061
2026-01-10 11:28:45.73	271.77	37.05	-31.1	-35.0	11.6	3.73e-04	0	42	0	661651456	22	5658
2026-01-10 11:28:46.74	272.20	37.01	-31.2	-35.3	11.3	1.11e-03	0	42	0	662700032	22	5798
2026-01-10 11:28:47.74	272.62	36.98	-31.1	-35.0	11.7	6.41e-04	0	42	0	664797184	22	5655
2026-01-10 11:28:48.75	273.04	36.95	-31.1	-35.0	11.6	7.36e-04	0	42	0	666894336	22	5622
2026-01-10 11:28:49.76	273.47	36.91	-31.3	-35.7	11.1	1.17e-03	0	42	0	668991488	22	5978
2026-01-10 11:28:50.76	273.88	36.87	-31.2	-35.4	11.2	1.79e-03	0	42	0	671088640	22	5837
2026-01-10 11:28:51.76	274.30	36.83	-31.0	-34.7	11.8	7.04e-04	0	42	0	672137216	22	5504
2026-01-10 11:28:52.76	274.72	36.79	-30.9	-34.5	11.9	4.71e-04	0	42	0	674234368	22	5452
2026-01-10 11:28:53.76	275.13	36.75	-31.1	-35.1	11.5	4.47e-04	0	42	0	676331520	22	5712
2026-01-10 11:28:54.76	275.55	36.71	-31.4	-36.0	10.9	1.87e-03	0	42	0	678428672	22	6119
2026-01-10 11:28:55.77	275.97	36.66	-31.6	-36.2	10.4	3.38e-03	0	42	0	680525824	23	6086
2026-01-10 11:28:56.78	276.38	36.61	-31.8	-36.8	9.9	8.49e-03	0	42	0	681574400	23	6419
2026-01-10 11:28:57.78	276.79	36.56	-31.9	-37.2	9.6	1.13e-02	0	42	0	683671552	23	6625
2026-01-10 11:28:58.79	277.21	36.51	-31.8	-36.9	9.9	1.16e-02	0	42	0	685768704	23	6490
2026-01-10 11:28:59.79	277.61	36.46	-31.4	-35.6	10.8	5.90e-03	0	42	0	687865856	23	5812
2026-01-10 11:29:00.80	278.02	36.41	-31.2	-34.8	11.4	1.33e-03	0	42	0	689963008	23	5465
2026-01-10 11:29:01.81	278.43	36.35	-31.1	-34.5	11.6	7.00e-04	0	42	0	691011584	23	5316
2026-01-10 11:29:02.80	278.83	36.30	-31.2	-34.9	11.4	7.54e-04	0	42	0	693108736	23	5501
2026-01-10 11:29:03.81	279.24	36.24	-31.3	-35.3	11.0	1.64e-03	0	42	0	695205888	23	5699
2026-01-10 11:29:04.81	279.64	36.18	-31.3	-35.0	11.2	1.41e-03	0	42	0	697303040	23	5567
2026-01-10 11:29:05.82	280.05	36.12	-31.1	-34.7	11.4	1.14e-03	0	42	0	699400192	23	5427
2026-01-10 11:29:06.82	280.44	36.06	-31.3	-35.1	11.2	1.05e-03	0	42	0	700448768	23	5611
2026-01-10 11:29:07.83	280.84	35.99	-31.3	-35.3	11.0	1.88e-03	0	42	0	702545920	23	5692
2026-01-10 11:29:08.82	281.24	35.93	-31.3	-35.4	11.0	1.96e-03	0	42	0	704643072	23	5711
2026-01-10 11:29:09.83	281.63	35.86	-31.2	-34.8	11.3	2.09e-03	0	42	0	706740224	23	5453
2026-01-10 11:29:10.83	282.03	35.79	-30.9	-33.8	12.0	3.63e-04	0	42	0	708837376	23	5069
2026-01-10 11:29:11.84	282.42	35.72	-30.5	-33.3	12.7	1.25e-04	0	42	0	709885952	22	4974
2026-01-10 11:29:12.84	282.81	35.65	-30.4	-33.1	13.0	4.27e-05	0	42	0	711983104	22	4873
2026-01-10 11:29:13.85	283.20	35.58	-30.6	-33.4	12.8	5.49e-05	0	42	0	714080256	22	5000
2026-01-10 11:29:14.85	283.58	35.51	-30.5	-33.2	12.9	6.40e-05	0	42	0	716177408	22	4911
2026-01-10 11:29:15.85	283.97	35.43	-30.4	-32.9	13.0	3.20e-05	0	42	0	718274560	22	4809
2026-01-10 11:29:16.86	284.35	35.36	-30.2	-32.9	13.4	3.28e-05	0	42	0	719323136	21	4932
2026-01-10 11:29:17.87	284.74	35.28	-30.2	-32.9	13.4	1.90e-05	0	42	0	721420288	21	4910
2026-01-10 11:29:18.88	285.12	35.20	-30.3	-33.1	13.2	2.36e-05	0	42	0	723517440	21	5006
2026-01-10 11:29:19.88	285.50	35.12	-30.1	-32.7	13.5	1.60e-05	0	42	0	725614592	21	4844
2026-01-10 11:29:20.88	285.87	35.04	-30.0	-32.4	13.6	9.90e-06	0	42	0	727711744	21	4741
2026-01-10 11:29:21.89	286.25	34.96	-29.9	-32.2	13.8	4.50e-06	0	42	0	728760320	21	4671
2026-01-10 11:29:22.90	286.62	34.88	-29.7	-32.2	14.1	3.00e-06	0	42	0	730857472	20	4774
2026-01-10 11:29:23.90	286.99	34.80	-29.5	-31.6	14.5	1.50e-06	0	42	0	732954624	20	4569
2026-01-10 11:29:24.91	287.36	34.71	-29.7	-32.2	14.2	2.20e-06	0	42	0	735051776	20	4764
2026-01-10 11:29:25.91	287.73	34.63	-29.9	-32.6	13.9	4.50e-06	0	42	0	737148928	20	4910
2026-01-10 11:29:26.92	288.09	34.54	-30.3	-33.7	13.1	6.80e-06	0	42	0	738197504	20	5330
2026-01-10 11:29:27.93	288.46	34.45	-30.3	-33.7	13.1	3.66e-05	0	42	0	740294656	20	5334
2026-01-10 11:29:28.93	288.82	34.36	-30.1	-33.2	13.4	2.13e-05	0	42	0	742391808	20	5140
2026-01-10 11:29:29.94	289.18	34.27	-30.0	-32.9	13.7	5.30e-06	0	42	0	744488960	20	5007
2026-01-10 11:29:30.94	289.54	34.18	-30.3	-33.6	13.2	1.60e-05	0	42	0	746586112	20	5274
2026-01-10 11:29:31.95	289.89	34.09	-30.2	-33.6	13.2	2.36e-05	0	42	0	747634688	20	5278
2026-01-10 11:29:32.95	290.25	34.00	-30.4	-34.1	12.9	3.89e-05	0	42	0	749731840	20	5486
2026-01-10 11:29:33.95	290.59	33.90	-30.4	-33.6	12.8	5.95e-05	0	42	0	751828992	21	5191
2026-01-10 11:29:34.95	290.94	33.81	-30.3	-33.2	13.1	3.58e-05	0	42	0	753926144	21	5017
2026-01-10 11:29:35.96	291.29	33.71	-30.2	-32.8	13.4	1.75e-05	0	42	0	754974720	21	4887
2026-01-10 11:29:36.96	291.64	33.62	-30.2	-32.9	13.3	8.30e-06	0	42	0	757071872	21	4936
2026-01-10 11:29:37.96	291.98	33.52	-30.3	-33.2	13.2	3.20e-05	0	42	0	759169024	21	5021
2026-01-10 11:29:38.97	292.32	33.42	-30.8	-34.6	12.2	1.11e-04	0	42	0	761266176	21	5594
2026-01-10 11:29:39.97	292.66	33.33	-31.0	-34.8	11.7	4.34e-04	0	42	0	763363328	22	5576
2026-01-10 11:29:40.98	293.00	33.23	-31.4	-36.1	10.8	2.23e-03	0	42	0	764411904	22	6200
2026-01-10 11:29:41.98	293.33	33.13	-31.1	-35.1	11.5	1.29e-03	0	42	0	766509056	22	5724
2026-01-10 11:29:42.98	293.66	33.03	-30.8	-34.1	12.2	4.77e-04	0	42	0	768606208	22	5255
2026-01-10 11:29:43.99	293.99	32.92	-30.7	-33.9	12.3	1.76e-04	0	42	0	770703360	22	5176
2026-01-10 11:29:44.99	294.32	32.82	-31.1	-35.0	11.6	3.91e-04	0	42	0	772800512	22	5633
2026-01-10 11:29:46.00	294.65	32.72	-31.5	-35.9	10.5	1.54e-03	0	42	0	773849088	23	5991
2026-01-10 11:29:47.00	294.97	32.62	-32.0	-37.6	9.2	8.68e-03	0	42	0	775946240	23	6921
2026-01-10 11:29:48.00	295.30	32.51	-31.8	-36.8	9.8	1.49e-02	0	42	0	778043392	23	6461
2026-01-10 11:29:49.01	295.62	32.41	-31.3	-35.1	11.1	4.04e-03	0	42	0	780140544	23	5602
2026-01-10 11:29:50.02	295.94	32.30	-30.8	-33.6	12.2	7.15e-04	0	42	0	782237696	23	4983
2026-01-10 11:29:51.02	296.25	32.20	-30.6	-33.6	12.6	9.99e-05	0	42	0	783286272	22	5077
2026-01-10 11:29:52.02	296.57	32.09	-30.8	-34.2	12.1	1.65e-04	0	42	0	785383424	22	5293
2026-01-10 11:29:53.03	296.88	31.98	-31.1	-35.2	11.5	5.62e-04	0	42	0	787480576	22	5731
2026-01-10 11:29:54.04	297.19	31.87	-31.3	-35.6	11.2	1.22e-03	0	42	0	789577728	22	5945
2026-01-10 11:29:55.04	297.50	31.77	-31.0	-34.8	11.7	9.26e-04	0	42	0	791674880	22	5568
2026-01-10 11:29:56.05	297.81	31.66	-30.6	-33.7	12.5	2.52e-04	0	42	0	792723456	22	5103
2026-01-10 11:29:57.06	298.12	31.55	-30.4	-32.9	13.0	6.56e-05	0	42	0	794820608	22	4815
2026-01-10 11:29:58.06	298.42	31.44	-30.5	-33.2	12.8	5.79e-05	0	42	0	796917760	22	4940
2026-01-10 11:29:59.07	298.72	31.33	-30.7	-33.7	12.5	7.47e-05	0	42	0	799014912	22	5117
2026-01-10 11:30:00.07	299.02	31.22	-31.2	-35.3	11.3	3.52e-04	0	42	0	801112064	22	5783
2026-01-10 11:30:01.08	299.31	31.11	-31.5	-36.3	10.7	2.37e-03	0	42	0	802160640	22	6279
2026-01-10 11:30:02.09	299.61	31.00	-31.5	-35.7	10.7	3.66e-03	0	42	0	804257792	23	5885
2026-01-10 11:30:03.09	299.90	30.88	-31.1	-34.6	11.5	2.21e-03	0	42	0	806354944	23	5361
2026-01-10 11:30:04.10	300.19	30.77	-30.9	-34.0	11.9	3.88e-04	0	42	0	808452096	23	5148
2026-01-10 11:30:05.10	300.48	30.66	-31.1	-34.4	11.6	4.53e-04	0	42	0	810549248	23	5306
2026-01-10 11:30:06.11	300.77	30.55	-31.4	-35.5	10.9	1.15e-03	0	42	0	811597824	23	5785
2026-01-10 11:30:07.12	301.06	30.43	-31.9	-37.2	9.5	6.07e-03	0	42	0	813694976	23	6634
2026-01-10 11:30:08.12	301.34	30.32	-31.9	-37.2	9.5	1.60e-02	0	42	0	815792128	23	6687
2026-01-10 11:30:09.12	301.62	30.21	-31.7	-36.5	10.0	9.62e-03	0	42	0	817889280	23	6275
2026-01-10 11:30:10.14	301.90	30.09	-31.3	-35.1	11.1	3.75e-03	0	42	0	819986432	23	5589
2026-01-10 11:30:11.13	302.17	29.98	-31.3	-35.2	11.0	1.04e-03	0	42	0	821035008	23	5662
2026-01-10 11:30:12.14	302.45	29.87	-31.4	-35.7	10.8	2.47e-03	0	42	0	823132160	23	5851
2026-01-10 11:30:13.13	302.72	29.75	-31.3	-35.4	10.9	2.66e-03	0	42	0	825229312	23	5724
2026-01-10 11:30:14.14	302.99	29.64	-31.8	-37.1	9.6	1.09e-02	0	42	0	827326464	23	6594
2026-01-10 11:30:15.15	303.26	29.52	-32.1	-37.5	9.0	1.65e-02	0	42	0	829423616	24	6723
2026-01-10 11:30:16.16	303.53	29.41	-32.0	-37.2	9.1	3.41e-02	0	42	0	830472192	24	6570
2026-01-10 11:30:17.16	303.79	29.29	-31.4	-35.2	10.6	1.12e-02	0	42	0	832569344	24	5558
2026-01-10 11:30:18.17	304.06	29.18	-31.1	-34.4	11.5	1.05e-03	0	42	0	834666496	23	5316
2026-01-10 11:30:19.18	304.32	29.06	-31.0	-34.4	11.6	6.00e-04	0	42	0	836763648	23	5281
2026-01-10 11:30:20.19	304.58	28.94	-31.4	-35.6	10.7	1.07e-03	0	42	0	838860800	23	5835
2026-01-10 11:30:21.19	304.84	28.83	-31.8	-37.1	9.5	7.57e-03	0	42	0	839909376	23	6637
2026-01-10 11:30:22.19	305.09	28.71	-32.4	-39.1	7.6	6.19e-02	0	42	0	842006528	24	7750
2026-01-10 11:30:23.20	305.35	28.60	-32.2	-38.0	8.5	7.55e-02	0	42	0	844103680	24	7016
2026-01-10 11:30:24.20	305.60	28.48	-31.5	-35.4	10.4	7.66e-03	0	42	0	846200832	24	5647
2026-01-10 11:30:25.21	305.85	28.36	-30.9	-33.9	11.9	8.54e-04	0	42	0	848297984	23	5114
2026-01-10 11:30:26.21	306.10	28.25	-30.4	-32.9	12.9	1.01e-04	0	42	0	849346560	22	4833
2026-01-10 11:30:27.21	306.35	28.13	-30.4	-32.9	13.0	3.20e-05	0	42	0	851443712	22	4805
2026-01-10 11:30:28.22	306.59	28.01	-30.6	-33.6	12.4	9.15e-05	0	42	0	853540864	22	5094
2026-01-10 11:30:29.22	306.84	27.90	-31.0	-35.0	11.6	3.89e-04	0	42	0	855638016	22	5659
2026-01-10 11:30:30.22	307.08	27.78	-31.2	-35.4	11.2	1.07e-03	0	42	0	856686592	22	5853
2026-01-10 11:30:31.23	307.32	27.66	-30.9	-34.6	11.8	6.93e-04	0	42	0	858783744	22	5473
2026-01-10 11:30:32.23	307.56	27.55	-30.5	-33.3	12.7	1.43e-04	0	42	0	860880896	22	4958
2026-01-10 11:30:33.23	307.79	27.43	-30.1	-32.8	13.3	3.12e-05	0	42	0	862978048	21	4884
2026-01-10 11:30:34.24	308.03	27.31	-30.3	-33.1	13.2	1.60e-05	0	42	0	865075200	21	4999
2026-01-10 11:30:35.25	308.26	27.20	-30.5	-33.9	12.6	7.24e-05	0	42	0	867172352	21	5312
2026-01-10 11:30:36.26	308.50	27.08	-30.8	-34.8	12.0	1.83e-04	0	42	0	868220928	21	5685
2026-01-10 11:30:37.26	308.73	26.96	-31.2	-35.5	11.1	7.56e-04	0	42	0	870318080	22	5918
2026-01-10 11:30:38.27	308.96	26.85	-31.3	-35.9	10.8	2.26e-03	0	42	0	872415232	22	6113
2026-01-10 11:30:39.27	309.18	26.73	-31.2	-35.3	11.2	1.90e-03	0	42	0	874512384	22	5811
2026-01-10 11:30:40.28	309.41	26.61	-30.8	-34.1	12.1	6.10e-04	0	42	0	875560960	22	5280
2026-01-10 11:30:41.28	309.63	26.50	-30.5	-33.2	12.8	8.62e-05	0	42	0	877658112	22	4922
2026-01-10 11:30:42.29	309.85	26.38	-30.5	-33.4	12.6	6.40e-05	0	42	0	879755264	22	4990
2026-01-10 11:30:43.30	310.08	26.26	-30.6	-33.6	12.5	1.16e-04	0	42	0	881852416	22	5084
2026-01-10 11:30:44.31	310.30	26.15	-30.6	-33.7	12.4	1.44e-04	0	42	0	883949568	22	5141
2026-01-10 11:30:45.31	310.51	26.03	-30.8	-34.2	12.0	1.59e-04	0	42	0	884998144	22	5349
2026-01-10 11:30:46.32	310.73	25.91	-31.0	-34.7	11.7	6.87e-04	0	42	0	887095296	22	5541
2026-01-10 11:30:47.33	310.94	25.80	-30.6	-33.6	12.4	3.20e-04	0	42	0	889192448	22	5086
2026-01-10 11:30:48.34	311.16	25.68	-30.0	-32.3	13.5	2.36e-05	0	42	0	891289600	21	4736
2026-01-10 11:30:49.34	311.37	25.56	-29.4	-31.4	14.5	3.80e-06	0	42	0	893386752	20	4524
2026-01-10 11:30:50.34	311.58	25.45	-29.0	-30.8	15.2	0.00e+00	0	42	0	895483904	19	4446
2026-01-10 11:30:51.35	311.79	25.33	-29.0	-30.8	15.2	0.00e+00	0	42	0	896532480	19	4446
2026-01-10 11:30:52.35	311.99	25.22	-29.0	-30.9	15.2	0.00e+00	0	42	0	898629632	19	4461
2026-01-10 11:30:53.35	312.19	25.10	-29.0	-30.9	15.2	0.00e+00	0	42	0	900726784	19	4468
2026-01-10 11:30:54.36	312.40	24.99	-29.2	-31.4	14.9	0.00e+00	0	42	0	902823936	19	4619
2026-01-10 11:30:55.36	312.60	24.87	-29.3	-31.5	14.8	7.00e-07	0	42	0	903872512	19	4676
2026-01-10 11:30:56.37	312.80	24.76	-29.2	-31.4	14.8	0.00e+00	0	42	0	905969664	19	4634
2026-01-10 11:30:57.38	313.00	24.64	-29.0	-30.8	15.2	0.00e+00	0	42	0	908066816	19	4436
2026-01-10 11:30:58.38	313.20	24.53	-28.8	-30.8	15.6	0.00e+00	0	42	0	910163968	18	4529
2026-01-10 11:30:59.39	313.40	24.41	-28.6	-30.2	15.8	0.00e+00	0	42	0	912261120	18	4369
2026-01-10 11:31:00.40	313.59	24.30	-28.5	-30.0	16.0	0.00e+00	0	42	0	913309696	18	4299
2026-01-10 11:31:01.41	313.79	24.18	-28.5	-30.0	15.9	0.00e+00	0	42	0	915406848	18	4313
2026-01-10 11:31:02.42	313.98	24.07	-28.6	-30.4	15.8	0.00e+00	0	42	0	917504000	18	4405
2026-01-10 11:31:03.42	314.17	23.95	-28.8	-30.9	15.5	0.00e+00	0	42	0	919601152	18	4563
2026-01-10 11:31:04.42	314.36	23.84	-29.0	-31.2	15.2	0.00e+00	0	42	0	921698304	18	4682
2026-01-10 11:31:05.43	314.55	23.73	-29.0	-31.2	15.2	0.00e+00	0	42	0	922746880	18	4681
2026-01-10 11:31:06.43	314.74	23.61	-28.8	-30.9	15.4	0.00e+00	0	42	0	924844032	18	4587
2026-01-10 11:31:07.43	314.92	23.50	-28.6	-30.4	15.7	0.00e+00	0	42	0	926941184	18	4408
2026-01-10 11:31:08.44	315.11	23.39	-28.5	-30.0	16.0	0.00e+00	0	42	0	929038336	18	4299
2026-01-10 11:31:09.45	315.29	23.27	-28.5	-30.1	15.9	0.00e+00	0	42	0	931135488	18	4328
2026-01-10 11:31:10.45	315.47	23.16	-28.3	-29.7	16.1	0.00e+00	0	42	0	932184064	18	4219
2026-01-10 11:31:11.46	315.65	23.05	-28.3	-30.1	16.2	0.00e+00	0	42	0	934281216	17	4427
2026-01-10 11:31:12.47	315.83	22.94	-28.3	-30.2	16.1	0.00e+00	0	42	0	936378368	17	4468
2026-01-10 11:31:13.47	316.01	22.83	-28.6	-30.8	15.7	0.00e+00	0	42	0	938475520	17	4661
2026-01-10 11:31:14.47	316.19	22.71	-28.8	-31.3	15.4	0.00e+00	0	42	0	940572672	17	4804
2026-01-10 11:31:15.48	316.36	22.60	-28.9	-31.5	15.3	0.00e+00	0	42	0	941621248	17	4903
2026-01-10 11:31:16.48	316.54	22.49	-29.0	-31.8	15.1	0.00e+00	0	42	0	943718400	17	4982
2026-01-10 11:31:17.49	316.71	22.38	-28.8	-31.4	15.3	0.00e+00	0	42	0	945815552	17	4864
2026-01-10 11:31:18.49	316.88	22.27	-28.8	-31.3	15.4	0.00e+00	0	42	0	947912704	17	4825
2026-01-10 11:31:19.49	317.05	22.16	-28.5	-30.7	15.8	0.00e+00	0	42	0	950009856	17	4635
2026-01-10 11:31:20.50	317.22	22.05	-28.5	-30.7	15.8	0.00e+00	0	42	0	951058432	17	4628
2026-01-10 11:31:21.50	317.39	21.94	-28.6	-30.8	15.7	0.00e+00	0	42	0	953155584	17	4655
2026-01-10 11:31:22.50	317.56	21.83	-28.4	-30.5	15.9	0.00e+00	0	42	0	955252736	17	4552
2026-01-10 11:31:23.51	317.72	21.72	-28.5	-30.8	15.7	0.00e+00	0	42	0	957349888	17	4648
2026-01-10 11:31:24.52	317.89	21.61	-28.8	-31.4	15.4	0.00e+00	0	42	0	959447040	17	4843
2026-01-10 11:31:25.52	318.05	21.50	-28.9	-31.7	15.1	7.00e-07	0	42	0	960495616	17	4971
2026-01-10 11:31:26.52	318.21	21.39	-29.2	-32.0	14.7	7.00e-07	0	42	0	962592768	18	4956
2026-01-10 11:31:27.53	318.38	21.28	-29.3	-32.2	14.6	0.00e+00	0	42	0	964689920	18	5005
2026-01-10 11:31:28.54	318.54	21.17	-29.3	-32.1	14.6	7.00e-07	0	42	0	966787072	18	4973
2026-01-10 11:31:29.54	318.70	21.07	-29.2	-31.9	14.7	7.00e-07	0	42	0	968884224	18	4928
2026-01-10 11:31:30.55	318.86	20.96	-29.1	-31.7	14.8	0.00e+00	0	42	0	969932800	18	4861
2026-01-10 11:31:31.56	319.01	20.85	-29.3	-32.1	14.6	0.00e+00	0	42	0	972029952	18	4982
2026-01-10 11:31:32.57	319.17	20.74	-29.3	-32.2	14.6	0.00e+00	0	42	0	974127104	18	5000
2026-01-10 11:31:33.57	319.32	20.63	-29.4	-32.3	14.5	0.00e+00	0	42	0	976224256	18	5064
2026-01-10 11:31:34.58	319.48	20.53	-29.4	-32.4	14.4	7.00e-07	0	42	0	978321408	18	5085
2026-01-10 11:31:35.58	319.63	20.42	-29.3	-32.1	14.6	0.00e+00	0	42	0	979369984	18	4972
2026-01-10 11:31:36.58	319.78	20.32	-29.3	-32.2	14.5	7.00e-07	0	42	0	981467136	18	5010
2026-01-10 11:31:37.59	319.93	20.21	-29.4	-32.3	14.4	0.00e+00	0	42	0	983564288	18	5066
2026-01-10 11:31:38.60	320.09	20.10	-29.5	-32.2	14.2	3.00e-06	0	42	0	985661440	19	4909
2026-01-10 11:31:39.61	320.24	20.00	-29.7	-32.8	13.9	2.20e-06	0	42	0	987758592	19	5111
2026-01-10 11:31:40.61	320.38	19.89	-29.7	-32.7	13.9	7.60e-06	0	42	0	988807168	19	5080
2026-01-10 11:31:41.62	320.53	19.79	-29.4	-31.9	14.3	2.20e-06	0	42	0	990904320	19	4823
2026-01-10 11:31:42.63	320.68	19.68	-29.2	-31.4	14.7	0.00e+00	0	42	0	993001472	19	4631
2026-01-10 11:31:43.63	320.82	19.58	-29.1	-31.2	14.8	0.00e+00	0	42	0	995098624	19	4591
2026-01-10 11:31:44.64	320.97	19.47	-29.1	-31.1	14.8	0.00e+00	0	42	0	997195776	19	4554
2026-01-10 11:31:45.64	321.11	19.37	-29.3	-31.7	14.5	0.00e+00	0	42	0	998244352	19	4741
2026-01-10 11:31:46.65	321.25	19.26	-29.3	-31.7	14.4	7.00e-07	0	42	0	1000341504	19	4753
2026-01-10 11:31:47.66	321.39	19.16	-29.3	-31.6	14.6	0.00e+00	0	42	0	1002438656	19	4697
2026-01-10 11:31:48.66	321.53	19.06	-29.3	-31.8	14.4	0.00e+00	0	42	0	1004535808	19	4779
2026-01-10 11:31:49.67	321.67	18.95	-29.4	-32.0	14.3	0.00e+00	0	42	0	1006632960	19	4826
2026-01-10 11:31:50.67	321.81	18.85	-29.4	-32.1	14.3	7.00e-07	0	42	0	1007681536	19	4860
2026-01-10 11:31:51.68	321.95	18.75	-29.5	-32.3	14.1	1.50e-06	0	42	0	1009778688	19	4952
2026-01-10 11:31:52.68	322.09	18.65	-29.4	-32.0	14.3	7.00e-07	0	42	0	1011875840	19	4844
2026-01-10 11:31:53.69	322.22	18.54	-29.3	-31.7	14.4	7.00e-07	0	42	0	1013972992	19	4752
2026-01-10 11:31:54.70	322.36	18.44	-29.3	-31.7	14.5	2.20e-06	0	42	0	1016070144	19	4740
2026-01-10 11:31:55.70	322.49	18.34	-29.3	-31.6	14.5	0.00e+00	0	42	0	1017118720	19	4703
2026-01-10 11:31:56.71	322.63	18.24	-29.3	-31.8	14.4	0.00e+00	0	42	0	1019215872	19	4764
2026-01-10 11:31:57.71	322.76	18.14	-29.4	-32.1	14.2	3.80e-06	0	42	0	1021313024	19	4876
2026-01-10 11:31:58.72	322.89	18.04	-29.5	-32.2	14.1	0.00e+00	0	42	0	1023410176	19	4914
2026-01-10 11:31:59.72	323.02	17.94	-29.8	-33.1	13.6	1.50e-06	0	42	0	1025507328	19	5241
2026-01-10 11:32:00.72	323.15	17.84	-29.9	-33.4	13.3	1.90e-05	0	42	0	1026555904	19	5381
2026-01-10 11:32:01.73	323.28	17.74	-30.1	-33.5	12.9	2.59e-05	0	42	0	1028653056	20	5293
2026-01-10 11:32:02.74	323.41	17.64	-30.3	-34.0	12.6	8.77e-05	0	42	0	1030750208	20	5499
2026-01-10 11:32:03.74	323.53	17.54	-30.2	-33.7	12.7	8.08e-05	0	42	0	1032847360	20	5405
2026-01-10 11:32:04.74	323.66	17.44	-30.3	-33.9	12.6	9.38e-05	0	42	0	1034944512	20	5491
2026-01-10 11:32:05.74	323.79	17.34	-30.1	-33.5	12.8	8.31e-05	0	42	0	1035993088	20	5317
2026-01-10 11:32:06.75	323.91	17.25	-30.0	-33.0	13.1	5.03e-05	0	42	0	1038090240	20	5133
2026-01-10 11:32:07.75	324.04	17.15	-30.0	-33.2	13.1	3.50e-05	0	42	0	1040187392	20	5175
2026-01-10 11:32:08.76	324.16	17.05	-29.8	-32.5	13.5	1.90e-05	0	42	0	1042284544	20	4919
2026-01-10 11:32:09.76	324.28	16.95	-29.7	-32.3	13.6	8.30e-06	0	42	0	1044381696	20	4876
2026-01-10 11:32:10.76	324.40	16.86	-29.8	-32.5	13.5	9.90e-06	0	42	0	1045430272	20	4942
2026-01-10 11:32:11.77	324.53	16.76	-29.8	-32.6	13.4	1.52e-05	0	42	0	1047527424	20	4959
2026-01-10 11:32:12.78	324.65	16.66	-29.9	-32.7	13.3	1.37e-05	0	42	0	1049624576	20	5020
2026-01-10 11:32:13.78	324.77	16.57	-30.0	-33.1	13.1	3.35e-05	0	42	0	1051721728	20	5142
2026-01-10 11:32:14.79	324.88	16.47	-30.1	-33.3	12.9	3.96e-05	0	42	0	1053818880	20	5241
2026-01-10 11:32:15.79	325.00	16.37	-30.2	-33.8	12.6	9.99e-05	0	42	0	1054867456	20	5438
2026-01-10 11:32:16.80	325.12	16.28	-30.2	-33.9	12.5	1.27e-04	0	42	0	1056964608	20	5480
2026-01-10 11:32:17.81	325.24	16.18	-30.4	-34.2	12.3	1.76e-04	0	42	0	1059061760	20	5604
2026-01-10 11:32:18.80	325.35	16.09	-30.4	-34.5	12.1	2.22e-04	0	42	0	1061158912	20	5753
2026-01-10 11:32:19.81	325.47	15.99	-30.3	-34.1	12.3	2.44e-04	0	42	0	1062207488	20	5552
2026-01-10 11:32:20.82	325.58	15.90	-30.2	-33.9	12.5	1.31e-04	0	42	0	1064304640	20	5477
2026-01-10 11:32:21.82	325.70	15.80	-30.2	-33.8	12.6	1.14e-04	0	42	0	1066401792	20	5431
2026-01-10 11:32:22.81	325.81	15.71	-30.2	-33.9	12.6	7.70e-05	0	42	0	1068498944	20	5462
2026-01-10 11:32:23.82	325.92	15.62	-30.1	-33.4	12.8	9.38e-05	0	42	0	1070596096	20	5291
2026-01-10 11:32:24.83	326.03	15.52	-30.1	-33.4	12.8	5.79e-05	0	42	0	1071644672	20	5278
2026-01-10 11:32:25.83	326.15	15.43	-30.0	-33.2	13.0	5.26e-05	0	42	0	1073741824	20	5195
2026-01-10 11:32:26.83	326.26	15.34	-29.9	-33.0	13.0	3.28e-05	0	42	0	1075838976	20	5146
2026-01-10 11:32:27.84	326.37	15.24	-30.0	-33.2	13.0	2.97e-05	0	42	0	1077936128	20	5207
2026-01-10 11:32:28.84	326.48	15.15	-30.1	-33.4	12.8	4.80e-05	0	42	0	1080033280	20	5285
2026-01-10 11:32:29.84	326.58	15.06	-30.1	-33.6	12.6	6.56e-05	0	42	0	1081081856	20	5370
2026-01-10 11:32:30.85	326.69	14.97	-30.2	-33.7	12.6	9.23e-05	0	42	0	1083179008	20	5417
2026-01-10 11:32:31.85	326.80	14.88	-30.3	-34.2	12.2	1.49e-04	0	42	0	1085276160	20	5599
2026-01-10 11:32:32.86	326.91	14.78	-30.2	-33.9	12.4	1.98e-04	0	42	0	1087373312	20	5500
2026-01-10 11:32:33.87	327.01	14.69	-30.2	-33.9	12.4	1.35e-04	0	42	0	1089470464	20	5502
2026-01-10 11:32:34.87	327.12	14.60	-30.2	-34.0	12.4	1.36e-04	0	42	0	1090519040	20	5523
2026-01-10 11:32:35.88	327.22	14.51	-30.3	-34.1	12.2	1.59e-04	0	42	0	1092616192	20	5594
2026-01-10 11:32:36.89	327.33	14.42	-30.2	-33.8	12.5	1.63e-04	0	42	0	1094713344	20	5439
2026-01-10 11:32:37.90	327.43	14.33	-30.2	-33.7	12.6	8.16e-05	0	42	0	1096810496	20	5400
2026-01-10 11:32:38.90	327.54	14.24	-30.0	-33.3	12.8	6.40e-05	0	42	0	1098907648	20	5244
2026-01-10 11:32:39.91	327.64	14.15	-30.0	-33.1	12.9	5.11e-05	0	42	0	1099956224	20	5172
2026-01-10 11:32:40.91	327.74	14.06	-29.9	-33.0	13.0	4.42e-05	0	42	0	1102053376	20	5134
2026-01-10 11:32:41.91	327.84	13.97	-29.8	-32.6	13.3	1.98e-05	0	42	0	1104150528	20	4972
2026-01-10 11:32:42.92	327.94	13.88	-29.7	-32.3	13.4	1.29e-05	0	42	0	1106247680	20	4886
2026-01-10 11:32:43.93	328.04	13.79	-29.6	-32.1	13.6	7.60e-06	0	42	0	1108344832	20	4788
2026-01-10 11:32:44.93	328.14	13.71	-29.6	-32.2	13.5	1.60e-05	0	42	0	1109393408	20	4839
2026-01-10 11:32:45.94	328.24	13.62	-29.6	-32.1	13.6	6.10e-06	0	42	0	1111490560	20	4799
2026-01-10 11:32:46.94	328.34	13.53	-29.6	-32.2	13.5	9.90e-06	0	42	0	1113587712	20	4857
2026-01-10 11:32:47.95	328.44	13.44	-29.7	-32.4	13.4	1.60e-05	0	42	0	1115684864	20	4913
2026-01-10 11:32:48.96	328.54	13.35	-29.7	-32.5	13.3	1.52e-05	0	42	0	1117782016	20	4938
2026-01-10 11:32:49.96	328.63	13.27	-30.0	-33.2	12.8	3.50e-05	0	42	0	1118830592	20	5203
2026-01-10 11:32:50.97	328.73	13.18	-29.9	-33.0	12.9	6.40e-05	0	42	0	1120927744	20	5144
2026-01-10 11:32:51.97	328.82	13.09	-30.1	-33.6	12.5	9.76e-05	0	42	0	1123024896	20	5396
2026-01-10 11:32:52.98	328.92	13.01	-30.3	-34.0	12.2	1.14e-04	0	42	0	1125122048	20	5561
2026-01-10 11:32:53.98	329.01	12.92	-30.3	-34.1	12.2	2.45e-04	0	42	0	1127219200	20	5574
2026-01-10 11:32:54.99	329.11	12.83	-30.4	-34.5	11.8	3.32e-04	0	42	0	1128267776	20	5772
2026-01-10 11:32:55.99	329.20	12.75	-30.3	-34.2	12.1	3.24e-04	0	42	0	1130364928	20	5639
2026-01-10 11:32:57.00	329.30	12.66	-30.3	-34.3	12.0	3.56e-04	0	42	0	1132462080	20	5668
2026-01-10 11:32:58.01	329.39	12.58	-30.4	-34.5	11.8	4.39e-04	0	42	0	1134559232	20	5774
2026-01-10 11:32:59.01	329.48	12.49	-30.4	-34.4	11.9	3.72e-04	0	42	0	1136656384	20	5728
2026-01-10 11:33:00.01	329.57	12.41	-30.5	-34.4	11.5	5.39e-04	0	42	0	1137704960	21	5623
2026-01-10 11:33:01.02	329.66	12.32	-30.7	-35.0	11.1	1.05e-03	0	42	0	1139802112	21	5879
2026-01-10 11:33:02.02	329.75	12.24	-30.5	-34.3	11.6	8.59e-04	0	42	0	1141899264	21	5570
2026-01-10 11:33:03.03	329.84	12.15	-30.1	-33.2	12.3	3.57e-04	0	42	0	1143996416	21	5141
2026-01-10 11:33:04.04	329.93	12.07	-30.0	-32.7	12.7	1.24e-04	0	42	0	1146093568	21	4956
2026-01-10 11:33:05.05	330.02	11.99	-29.8	-32.3	13.0	4.04e-05	0	42	0	1147142144	21	4781
2026-01-10 11:33:06.04	330.11	11.90	-29.8	-32.6	13.1	4.80e-05	0	42	0	1149239296	20	5016
2026-01-10 11:33:07.05	330.20	11.82	-29.8	-32.8	13.0	3.43e-05	0	42	0	1151336448	20	5074
2026-01-10 11:33:08.05	330.29	11.74	-29.9	-32.9	12.9	4.88e-05	0	42	0	1153433600	20	5129
2026-01-10 11:33:09.06	330.37	11.65	-29.7	-32.6	13.1	4.88e-05	0	42	0	1155530752	20	5009
2026-01-10 11:33:10.07	330.46	11.57	-29.9	-33.0	12.9	4.57e-05	0	42	0	1156579328	20	5147
2026-01-10 11:33:11.08	330.55	11.49	-29.9	-33.0	12.8	4.80e-05	0	42	0	1158676480	20	5152
2026-01-10 11:33:12.09	330.64	11.41	-30.0	-33.3	12.6	8.31e-05	0	42	0	1160773632	20	5265
2026-01-10 11:33:13.09	330.72	11.32	-30.0	-33.4	12.5	9.76e-05	0	42	0	1162870784	20	5330
2026-01-10 11:33:14.09	330.80	11.24	-30.1	-33.6	12.3	1.37e-04	0	42	0	1164967936	20	5421
2026-01-10 11:33:15.09	330.89	11.16	-30.0	-33.4	12.5	1.19e-04	0	42	0	1166016512	20	5338
2026-01-10 11:33:16.10	330.97	11.08	-30.1	-33.8	12.2	1.81e-04	0	42	0	1168113664	20	5488
2026-01-10 11:33:17.11	331.06	11.00	-30.0	-33.5	12.4	1.57e-04	0	42	0	1170210816	20	5356
2026-01-10 11:33:18.11	331.14	10.92	-30.0	-33.4	12.4	1.39e-04	0	42	0	1172307968	20	5339
2026-01-10 11:33:19.12	331.22	10.84	-30.0	-33.4	12.4	1.72e-04	0	42	0	1174405120	20	5330
2026-01-10 11:33:20.12	331.31	10.76	-30.0	-33.5	12.4	1.27e-04	0	42	0	1175453696	20	5375
2026-01-10 11:33:21.12	331.39	10.68	-30.0	-33.5	12.4	1.91e-04	0	42	0	1177550848	20	5384
2026-01-10 11:33:22.13	331.47	10.60	-30.1	-33.7	12.2	1.84e-04	0	42	0	1179648000	20	5461
2026-01-10 11:33:23.13	331.55	10.52	-30.1	-33.7	12.3	1.87e-04	0	42	0	1181745152	20	5439
2026-01-10 11:33:24.14	331.63	10.44	-30.0	-33.5	12.4	1.91e-04	0	42	0	1183842304	20	5360
2026-01-10 11:33:25.14	331.71	10.36	-30.1	-33.6	12.3	1.58e-04	0	42	0	1184890880	20	5419
2026-01-10 11:33:26.15	331.79	10.28	-30.1	-33.7	12.2	2.57e-04	0	42	0	1186988032	20	5466
2026-01-10 11:33:27.15	331.87	10.20	-30.1	-33.6	12.2	2.24e-04	0	42	0	1189085184	20	5433
2026-01-10 11:33:28.15	331.95	10.12	-30.1	-33.6	12.2	2.01e-04	0	42	0	1191182336	20	5431
2026-01-10 11:33:29.15	332.03	10.05	-30.1	-33.7	12.2	2.17e-04	0	42	0	1192230912	20	5435
2026-01-10 11:33:30.16	332.11	9.97	-30.1	-33.8	12.1	2.58e-04	0	42	0	1194328064	20	5505
2026-01-10 11:33:31.16	332.18	9.89	-30.2	-34.2	11.8	3.06e-04	0	42	0	1196425216	20	5668
2026-01-10 11:33:32.17	332.26	9.81	-30.2	-34.0	11.9	4.19e-04	0	42	0	1198522368	20	5606
2026-01-10 11:33:33.18	332.34	9.73	-30.0	-33.6	12.2	2.82e-04	0	42	0	1200619520	20	5421
2026-01-10 11:33:34.18	332.42	9.66	-30.1	-33.6	12.2	1.95e-04	0	42	0	1202716672	20	5435
2026-01-10 11:33:35.19	332.49	9.58	-30.1	-33.9	12.0	3.18e-04	0	42	0	1203765248	20	5550
2026-01-10 11:33:36.18	332.57	9.50	-30.2	-34.0	12.0	3.49e-04	0	42	0	1205862400	20	5575
2026-01-10 11:33:37.19	332.64	9.42	-30.2	-34.0	11.9	4.26e-04	0	42	0	1207959552	20	5619
2026-01-10 11:33:38.19	332.72	9.35	-30.3	-34.4	11.6	5.55e-04	0	42	0	1210056704	20	5776
2026-01-10 11:33:39.20	332.79	9.27	-30.4	-34.7	11.4	7.71e-04	0	42	0	1211105280	20	5899
2026-01-10 11:33:40.20	332.87	9.20	-30.4	-34.7	11.4	8.15e-04	0	42	0	1213202432	20	5908
2026-01-10 11:33:41.21	332.94	9.12	-30.4	-34.8	11.3	1.25e-03	0	42	0	1215299584	20	5947
2026-01-10 11:33:42.22	333.02	9.04	-30.3	-34.6	11.5	1.03e-03	0	42	0	1217396736	20	5857
2026-01-10 11:33:43.23	333.09	8.97	-30.3	-34.5	11.4	8.07e-04	0	42	0	1219493888	20	5842
2026-01-10 11:33:44.23	333.16	8.89	-30.4	-34.7	11.4	8.84e-04	0	42	0	1220542464	20	5895
2026-01-10 11:33:45.24	333.24	8.82	-30.4	-34.6	11.4	1.06e-03	0	42	0	1222639616	20	5891
2026-01-10 11:33:46.24	333.31	8.74	-30.3	-34.4	11.6	7.70e-04	0	42	0	1224736768	20	5787
2026-01-10 11:33:47.24	333.38	8.67	-30.3	-34.5	11.5	6.90e-04	0	42	0	1226833920	20	5811
2026-01-10 11:33:48.25	333.45	8.59	-30.3	-34.5	11.5	9.16e-04	0	42	0	1228931072	20	5829
2026-01-10 11:33:49.26	333.52	8.52	-30.3	-34.5	11.5	8.03e-04	0	42	0	1229979648	20	5834
2026-01-10 11:33:50.26	333.59	8.44	-30.3	-34.6	11.4	1.04e-03	0	42	0	1232076800	20	5886
2026-01-10 11:33:51.26	333.66	8.37	-30.4	-34.9	11.2	9.10e-04	0	42	0	1234173952	20	5997
2026-01-10 11:33:52.27	333.73	8.30	-30.4	-34.7	11.4	1.06e-03	0	42	0	1236271104	20	5920
2026-01-10 11:33:53.28	333.80	8.22	-30.4	-34.7	11.3	1.03e-03	0	42	0	1238368256	20	5919
2026-01-10 11:33:54.28	333.87	8.15	-30.4	-34.8	11.2	1.20e-03	0	42	0	1239416832	20	5993
2026-01-10 11:33:55.30	333.94	8.07	-30.4	-34.9	11.2	1.50e-03	0	42	0	1241513984	20	6024
2026-01-10 11:33:56.30	334.01	8.00	-30.5	-34.5	11.0	1.93e-03	0	42	0	1243611136	21	5741
2026-01-10 11:33:57.31	334.08	7.93	-30.6	-35.0	10.7	2.16e-03	0	42	0	1245708288	21	5964
2026-01-10 11:33:58.31	334.15	7.85	-30.7	-35.3	10.4	4.34e-03	0	42	0	1247805440	21	6118
2026-01-10 11:33:59.31	334.22	7.78	-30.6	-35.0	10.7	3.65e-03	0	42	0	1248854016	21	5977
2026-01-10 11:34:00.32	334.29	7.71	-30.7	-35.4	10.4	4.15e-03	0	42	0	1250951168	21	6162
2026-01-10 11:34:01.32	334.35	7.64	-30.7	-35.5	10.3	5.14e-03	0	42	0	1253048320	21	6234
2026-01-10 11:34:02.33	334.42	7.56	-30.7	-35.3	10.4	4.35e-03	0	42	0	1255145472	21	6121
2026-01-10 11:34:03.35	334.49	7.49	-30.7	-35.3	10.4	4.75e-03	0	42	0	1257242624	21	6146
2026-01-10 11:34:04.35	334.55	7.42	-30.8	-35.6	10.2	5.79e-03	0	42	0	1258291200	21	6298
2026-01-10 11:34:05.36	334.62	7.35	-30.8	-35.7	10.1	5.99e-03	0	42	0	1260388352	21	6360
2026-01-10 11:34:06.35	334.69	7.28	-30.9	-36.1	9.8	1.09e-02	0	42	0	1262485504	21	6528
2026-01-10 11:34:07.36	334.75	7.21	-30.7	-35.6	10.2	8.33e-03	0	42	0	1264582656	21	6287
2026-01-10 11:34:08.37	334.82	7.13	-30.7	-35.5	10.3	5.32e-03	0	42	0	1266679808	21	6224
2026-01-10 11:34:09.37	334.88	7.06	-32.1	-40.2	6.4	7.01e-03	0	42	0	1267728384	24	9124
2026-01-10 11:34:10.37	334.95	6.99	-33.0	-47.5	3.8	1.49e+00	0	42	104	1267728384	25	19188
2026-01-10 11:34:11.38	335.01	6.92	-33.2	-47.5	3.8	1.49e+00	0	42	104	1267728384	26	18704
2026-01-10 11:34:12.38	335.07	6.85	-33.4	-47.9	3.8	1.49e+00	0	42	104	1267728384	26	19132

#Closed at: 2026-01-10 11:34:13
#Recorded file [1267 MB]: D:/data/31010_260110_142252.dat