passes_logs/2026/01/10/R2M6_AANII_01/R2M6_AANII_01__20260110_134242_FENGYUN_3D_rec.log

#Pass ID: 20260110_134242_FENGYUN 3D
#Satellite: FENGYUN 3D
#Configuration: FENGYUN 3D
#almurnet v.1.7.20240730
#Start time: 2026-01-10 13:42:41

#Version: 2.2.20231116
#Station: R2M6_AANII_01
#Location: 30.233357 lon 59.946436 lat
#TLE: 1 43010U 17072A   26009.85873963 -.00000290  00000+0 -11536-3 0  9992
#TLE: 2 43010  98.9936 341.5952 0002172 116.8419 243.2979 14.19692971422525

#Time	Az	El	Level	Level2	SNR	BER	BlckErr	Temp	State	Recorded	gain1	gain2
2026-01-10 13:42:41.51	203.88	6.95	-29.5	-32.5	5.2	7.91e-01	0	39	0	0	20	5076
2026-01-10 13:42:42.52	203.96	7.02	-29.4	-32.5	5.3	7.85e-01	0	39	104	0	19	5179
2026-01-10 13:42:43.53	204.05	7.09	-29.5	-32.8	9.2	2.70e-02	0	40	0	0	19	5277
2026-01-10 13:42:44.53	204.13	7.16	-29.5	-33.0	9.1	2.83e-02	0	40	0	5242880	19	5337
2026-01-10 13:42:45.53	204.21	7.22	-29.4	-32.5	9.4	2.74e-02	0	40	0	11534336	19	5156
2026-01-10 13:42:46.54	204.29	7.29	-29.9	-34.0	8.4	5.27e-02	0	40	0	16777216	19	5801
2026-01-10 13:42:47.55	204.38	7.36	-29.7	-33.3	8.9	4.28e-02	0	40	0	22020096	19	5478
2026-01-10 13:42:48.55	204.46	7.43	-29.8	-33.7	8.7	4.17e-02	0	40	0	28311552	19	5624
2026-01-10 13:42:49.56	204.55	7.50	-29.8	-33.9	8.5	5.32e-02	0	40	0	33554432	19	5715
2026-01-10 13:42:50.57	204.63	7.57	-30.0	-34.2	8.3	4.37e-02	0	40	0	39845888	19	5886
2026-01-10 13:42:51.58	204.72	7.63	-29.8	-33.3	8.5	7.63e-02	0	40	0	45088768	20	5399
2026-01-10 13:42:52.59	204.80	7.70	-29.3	-31.7	9.7	1.81e-02	0	40	0	50331648	20	4760
2026-01-10 13:42:53.60	204.89	7.77	-28.9	-31.1	10.5	8.17e-03	0	40	0	56623104	19	4633
2026-01-10 13:42:54.60	204.97	7.84	-28.3	-30.1	11.5	1.39e-03	0	40	0	61865984	18	4415
2026-01-10 13:42:55.60	205.06	7.91	-27.8	-29.7	12.4	3.62e-04	0	40	0	67108864	16	4503
2026-01-10 13:42:56.61	205.15	7.98	-27.3	-28.7	13.0	1.27e-04	0	40	0	73400320	16	4202
2026-01-10 13:42:57.62	205.23	8.05	-26.8	-28.0	13.6	1.94e-05	0	40	0	78643200	15	4123
2026-01-10 13:42:58.63	205.32	8.12	-26.8	-28.4	13.6	1.02e-05	0	40	0	84934656	14	4331
2026-01-10 13:42:59.63	205.41	8.19	-26.6	-28.1	13.8	1.10e-06	0	40	0	90177536	14	4243
2026-01-10 13:43:00.62	205.50	8.26	-27.1	-29.2	13.2	1.60e-05	0	40	0	96468992	14	4582
2026-01-10 13:43:01.64	205.59	8.33	-27.1	-29.2	13.2	4.69e-05	0	40	0	101711872	14	4573
2026-01-10 13:43:02.64	205.68	8.40	-26.8	-28.5	13.6	2.05e-05	0	40	0	106954752	14	4374
2026-01-10 13:43:03.65	205.77	8.47	-26.7	-28.1	13.8	1.37e-05	0	40	0	113246208	14	4258
2026-01-10 13:43:04.65	205.86	8.54	-26.9	-28.6	13.6	1.14e-05	0	40	0	118489088	14	4381
2026-01-10 13:43:05.66	205.95	8.61	-26.8	-28.4	13.7	5.70e-06	0	40	0	123731968	14	4322
2026-01-10 13:43:06.67	206.04	8.68	-26.9	-28.8	13.5	2.17e-05	0	40	0	130023424	14	4441
2026-01-10 13:43:07.68	206.13	8.75	-26.7	-28.3	13.7	1.60e-05	0	40	0	135266304	14	4299
2026-01-10 13:43:08.68	206.22	8.82	-26.5	-27.8	14.1	6.80e-06	0	40	0	141557760	14	4155
2026-01-10 13:43:09.69	206.32	8.90	-26.2	-27.5	14.5	2.20e-06	0	40	0	146800640	13	4179
2026-01-10 13:43:10.70	206.41	8.97	-26.1	-27.3	14.6	2.20e-06	0	40	0	152043520	13	4129
2026-01-10 13:43:11.71	206.50	9.04	-26.3	-27.7	14.4	1.10e-06	0	40	0	158334976	13	4247
2026-01-10 13:43:12.71	206.60	9.11	-26.1	-27.3	14.7	5.70e-06	0	40	0	163577856	13	4124
2026-01-10 13:43:13.73	206.69	9.18	-26.1	-27.3	14.6	0.00e+00	0	40	0	169869312	13	4127
2026-01-10 13:43:14.73	206.79	9.25	-26.2	-27.4	14.6	0.00e+00	0	40	0	175112192	13	4171
2026-01-10 13:43:15.74	206.88	9.33	-26.1	-27.3	14.7	6.80e-06	0	40	0	181403648	13	4122
2026-01-10 13:43:16.75	206.98	9.40	-26.1	-27.2	14.8	0.00e+00	0	40	0	186646528	13	4108
2026-01-10 13:43:17.76	207.07	9.47	-25.9	-26.9	14.9	0.00e+00	0	40	0	191889408	13	4027
2026-01-10 13:43:18.76	207.17	9.54	-26.0	-27.1	14.8	2.20e-06	0	40	0	198180864	13	4079
2026-01-10 13:43:19.77	207.27	9.62	-26.0	-27.0	14.9	0.00e+00	0	41	0	203423744	13	4048
2026-01-10 13:43:20.77	207.36	9.69	-25.9	-26.8	15.0	0.00e+00	0	40	0	209715200	13	3994
2026-01-10 13:43:21.78	207.46	9.76	-26.1	-27.3	14.8	0.00e+00	0	41	0	214958080	13	4126
2026-01-10 13:43:22.79	207.56	9.84	-26.0	-27.1	14.8	0.00e+00	0	41	0	220200960	13	4076
2026-01-10 13:43:23.80	207.66	9.91	-26.1	-27.3	14.7	0.00e+00	0	41	0	226492416	13	4119
2026-01-10 13:43:24.80	207.76	9.98	-26.0	-27.2	14.9	0.00e+00	0	41	0	231735296	13	4095
2026-01-10 13:43:25.80	207.86	10.06	-26.0	-27.1	14.9	0.00e+00	0	41	0	236978176	13	4080
2026-01-10 13:43:26.81	207.96	10.13	-25.9	-26.8	15.1	0.00e+00	0	41	0	243269632	13	3990
2026-01-10 13:43:27.82	208.06	10.20	-25.9	-26.8	15.1	0.00e+00	0	40	0	248512512	13	4002
2026-01-10 13:43:28.83	208.16	10.28	-25.8	-26.6	15.2	0.00e+00	0	41	0	254803968	13	3953
2026-01-10 13:43:29.84	208.26	10.35	-26.0	-27.0	14.9	0.00e+00	0	41	0	260046848	13	4053
2026-01-10 13:43:30.85	208.36	10.43	-25.8	-26.7	15.2	0.00e+00	0	41	0	266338304	13	3977
2026-01-10 13:43:31.85	208.47	10.50	-25.8	-27.2	15.2	1.10e-06	0	41	0	271581184	12	4209
2026-01-10 13:43:32.86	208.57	10.58	-25.8	-27.0	15.3	0.00e+00	0	41	0	276824064	12	4152
2026-01-10 13:43:33.86	208.67	10.65	-25.8	-27.1	15.2	0.00e+00	0	41	0	283115520	12	4167
2026-01-10 13:43:34.87	208.78	10.73	-25.7	-26.8	15.4	0.00e+00	0	41	0	288358400	12	4103
2026-01-10 13:43:35.87	208.88	10.80	-25.7	-26.8	15.4	0.00e+00	0	41	0	294649856	12	4097
2026-01-10 13:43:36.88	208.99	10.88	-25.6	-26.6	15.5	0.00e+00	0	41	0	299892736	12	4057
2026-01-10 13:43:37.89	209.09	10.95	-25.6	-26.6	15.5	0.00e+00	0	41	0	305135616	12	4049
2026-01-10 13:43:38.89	209.20	11.03	-25.9	-27.3	15.1	0.00e+00	0	41	0	311427072	12	4219
2026-01-10 13:43:39.90	209.31	11.10	-26.0	-27.4	15.1	0.00e+00	0	41	0	316669952	12	4265
2026-01-10 13:43:40.91	209.41	11.18	-25.8	-27.0	15.3	0.00e+00	0	41	0	321912832	12	4158
2026-01-10 13:43:41.92	209.52	11.25	-25.8	-27.1	15.3	1.10e-06	0	41	0	328204288	12	4177
2026-01-10 13:43:42.92	209.63	11.33	-25.8	-27.0	15.3	1.10e-06	0	41	0	333447168	12	4158
2026-01-10 13:43:43.93	209.74	11.41	-25.7	-27.0	15.4	0.00e+00	0	41	0	339738624	12	4140
2026-01-10 13:43:44.94	209.85	11.48	-25.9	-27.2	15.2	1.10e-06	0	41	0	344981504	12	4218
2026-01-10 13:43:45.95	209.96	11.56	-25.7	-26.8	15.4	0.00e+00	0	41	0	351272960	12	4099
2026-01-10 13:43:46.95	210.07	11.64	-25.8	-27.0	15.3	1.10e-06	0	41	0	356515840	12	4162
2026-01-10 13:43:47.96	210.18	11.71	-25.8	-27.0	15.3	0.00e+00	0	41	0	361758720	12	4165
2026-01-10 13:43:48.97	210.29	11.79	-26.2	-28.0	14.8	0.00e+00	0	41	0	368050176	12	4423
2026-01-10 13:43:49.97	210.41	11.87	-26.0	-27.6	15.0	2.20e-06	0	41	0	373293056	12	4309
2026-01-10 13:43:50.98	210.52	11.94	-26.2	-28.0	14.8	0.00e+00	0	41	0	379584512	12	4439
2026-01-10 13:43:51.98	210.63	12.02	-26.6	-28.3	14.3	0.00e+00	0	41	0	384827392	13	4408
2026-01-10 13:43:52.98	210.75	12.10	-26.4	-27.9	14.5	0.00e+00	0	41	0	390070272	13	4290
2026-01-10 13:43:53.99	210.86	12.18	-26.5	-28.0	14.5	0.00e+00	0	41	0	396361728	13	4323
2026-01-10 13:43:54.99	210.98	12.25	-26.5	-28.3	14.4	1.10e-06	0	41	0	401604608	13	4390
2026-01-10 13:43:56.00	211.09	12.33	-26.3	-27.8	14.6	1.10e-06	0	41	0	406847488	13	4250
2026-01-10 13:43:57.00	211.21	12.41	-26.3	-27.7	14.7	0.00e+00	0	41	0	413138944	13	4234
2026-01-10 13:43:58.01	211.32	12.49	-26.4	-27.8	14.6	0.00e+00	0	41	0	418381824	13	4261
2026-01-10 13:43:59.02	211.44	12.57	-26.6	-28.3	14.4	0.00e+00	0	41	0	424673280	13	4392
2026-01-10 13:44:00.02	211.56	12.64	-27.0	-29.3	13.8	6.80e-06	0	41	0	429916160	13	4689
2026-01-10 13:44:01.03	211.68	12.72	-26.5	-28.2	14.4	4.50e-06	0	41	0	436207616	13	4353
2026-01-10 13:44:02.03	211.80	12.80	-26.1	-27.3	15.0	0.00e+00	0	41	0	441450496	13	4113
2026-01-10 13:44:03.04	211.92	12.88	-26.0	-27.1	15.1	0.00e+00	0	41	0	446693376	13	4057
2026-01-10 13:44:04.05	212.04	12.96	-26.1	-27.7	15.0	0.00e+00	0	41	0	452984832	12	4324
2026-01-10 13:44:05.05	212.16	13.04	-26.3	-28.2	14.7	0.00e+00	0	41	0	458227712	12	4482
2026-01-10 13:44:06.06	212.28	13.12	-25.9	-27.4	15.2	0.00e+00	0	41	0	463470592	12	4250
2026-01-10 13:44:07.07	212.41	13.20	-26.1	-27.8	15.0	0.00e+00	0	41	0	469762048	12	4369
2026-01-10 13:44:08.07	212.53	13.28	-25.8	-27.0	15.4	0.00e+00	0	41	0	475004928	12	4157
2026-01-10 13:44:09.08	212.65	13.36	-25.6	-26.7	15.6	0.00e+00	0	41	0	481296384	12	4061
2026-01-10 13:44:10.08	212.78	13.44	-25.5	-26.4	15.8	0.00e+00	0	41	0	486539264	12	3988
2026-01-10 13:44:11.09	212.90	13.52	-25.4	-26.1	15.9	0.00e+00	0	41	0	491782144	12	3921
2026-01-10 13:44:12.10	213.03	13.60	-25.5	-26.3	15.8	4.50e-06	0	41	0	498073600	12	3968
2026-01-10 13:44:13.11	213.15	13.68	-25.5	-26.4	15.8	0.00e+00	0	41	0	503316480	12	3996
2026-01-10 13:44:14.11	213.28	13.76	-25.8	-27.0	15.4	0.00e+00	0	41	0	509607936	12	4149
2026-01-10 13:44:15.12	213.41	13.84	-25.5	-26.4	15.8	6.80e-06	0	41	0	514850816	12	3990
2026-01-10 13:44:16.12	213.54	13.92	-25.3	-26.4	16.2	0.00e+00	0	41	0	521142272	11	4092
2026-01-10 13:44:17.13	213.67	14.00	-25.2	-26.3	16.2	0.00e+00	0	41	0	526385152	11	4064
2026-01-10 13:44:18.13	213.80	14.08	-25.2	-26.3	16.2	2.20e-06	0	41	0	531628032	11	4061
2026-01-10 13:44:19.14	213.93	14.16	-24.9	-25.6	16.6	0.00e+00	0	41	0	537919488	11	3892
2026-01-10 13:44:20.15	214.06	14.24	-25.0	-25.8	16.5	0.00e+00	0	41	0	543162368	11	3943
2026-01-10 13:44:21.15	214.19	14.32	-25.1	-26.1	16.4	0.00e+00	0	41	0	548405248	11	4004
2026-01-10 13:44:22.16	214.32	14.41	-25.2	-26.2	16.3	0.00e+00	0	41	0	554696704	11	4053
2026-01-10 13:44:23.17	214.46	14.49	-25.2	-26.2	16.3	0.00e+00	0	41	0	559939584	11	4048
2026-01-10 13:44:24.18	214.59	14.57	-25.0	-25.8	16.5	1.10e-06	0	41	0	566231040	11	3952
2026-01-10 13:44:25.18	214.72	14.65	-25.1	-26.0	16.4	0.00e+00	0	41	0	571473920	11	4005
2026-01-10 13:44:26.18	214.86	14.73	-25.2	-26.2	16.3	0.00e+00	0	41	0	576716800	11	4036
2026-01-10 13:44:27.19	215.00	14.82	-25.2	-26.3	16.3	1.10e-06	0	41	0	583008256	11	4066
2026-01-10 13:44:28.20	215.13	14.90	-25.1	-25.9	16.5	0.00e+00	0	41	0	588251136	11	3966
2026-01-10 13:44:29.21	215.27	14.98	-25.2	-26.3	16.3	0.00e+00	0	41	0	594542592	11	4058
2026-01-10 13:44:30.22	215.41	15.06	-25.0	-25.7	16.6	0.00e+00	0	41	0	599785472	11	3919
2026-01-10 13:44:31.23	215.55	15.15	-25.0	-25.7	16.6	0.00e+00	0	41	0	606076928	11	3915
2026-01-10 13:44:32.24	215.69	15.23	-25.2	-26.1	16.4	0.00e+00	0	41	0	611319808	11	4011
2026-01-10 13:44:33.25	215.83	15.31	-25.0	-25.8	16.6	0.00e+00	0	41	0	616562688	11	3934
2026-01-10 13:44:34.25	215.97	15.40	-25.2	-26.1	16.4	0.00e+00	0	41	0	622854144	11	4014
2026-01-10 13:44:35.25	216.11	15.48	-25.0	-25.8	16.6	0.00e+00	0	41	0	628097024	11	3944
2026-01-10 13:44:36.26	216.26	15.56	-24.9	-25.6	16.7	0.00e+00	0	41	0	633339904	11	3892
2026-01-10 13:44:37.27	216.40	15.65	-25.0	-25.7	16.6	0.00e+00	0	41	0	639631360	11	3924
2026-01-10 13:44:38.27	216.55	15.73	-25.1	-26.0	16.5	0.00e+00	0	41	0	644874240	11	3996
2026-01-10 13:44:39.28	216.69	15.81	-25.0	-25.8	16.6	0.00e+00	0	41	0	651165696	11	3933
2026-01-10 13:44:40.28	216.84	15.90	-24.9	-25.6	16.7	0.00e+00	0	41	0	656408576	11	3897
2026-01-10 13:44:41.29	216.98	15.98	-24.9	-25.6	16.7	0.00e+00	0	41	0	661651456	11	3892
2026-01-10 13:44:42.30	217.13	16.07	-24.6	-25.4	17.1	0.00e+00	0	42	0	667942912	10	3941
2026-01-10 13:44:43.31	217.28	16.15	-24.4	-25.0	17.3	0.00e+00	0	41	0	673185792	10	3853
2026-01-10 13:44:44.32	217.43	16.24	-24.6	-25.4	17.1	0.00e+00	0	41	0	679477248	10	3942
2026-01-10 13:44:45.33	217.58	16.32	-24.7	-25.5	17.0	0.00e+00	0	41	0	684720128	10	3966
2026-01-10 13:44:46.33	217.73	16.40	-24.4	-24.8	17.4	0.00e+00	0	41	0	691011584	10	3808
2026-01-10 13:44:47.33	217.88	16.49	-24.2	-25.0	17.5	0.00e+00	0	41	0	696254464	9	3962
2026-01-10 13:44:48.34	218.04	16.57	-24.2	-25.1	17.5	0.00e+00	0	41	0	701497344	9	3979
2026-01-10 13:44:49.34	218.19	16.66	-24.3	-25.2	17.5	0.00e+00	0	41	0	707788800	9	3993
2026-01-10 13:44:50.35	218.34	16.74	-24.3	-25.3	17.4	0.00e+00	0	41	0	713031680	9	4031
2026-01-10 13:44:51.35	218.50	16.83	-24.3	-25.1	17.5	0.00e+00	0	41	0	718274560	9	3987
2026-01-10 13:44:52.36	218.65	16.91	-24.3	-25.2	17.5	0.00e+00	0	42	0	724566016	9	3991
2026-01-10 13:44:53.37	218.81	17.00	-24.3	-25.1	17.5	0.00e+00	0	42	0	729808896	9	3989
2026-01-10 13:44:54.38	218.97	17.08	-24.3	-25.3	17.5	0.00e+00	0	41	0	736100352	9	4014
2026-01-10 13:44:55.38	219.13	17.17	-24.3	-25.3	17.4	0.00e+00	0	41	0	741343232	9	4033
2026-01-10 13:44:56.39	219.29	17.25	-24.4	-25.5	17.3	0.00e+00	0	41	0	746586112	9	4076
2026-01-10 13:44:57.40	219.45	17.34	-24.5	-25.7	17.2	0.00e+00	0	42	0	752877568	9	4140
2026-01-10 13:44:58.40	219.61	17.43	-24.6	-25.8	17.2	0.00e+00	0	41	0	758120448	9	4166
2026-01-10 13:44:59.41	219.77	17.51	-24.5	-25.6	17.3	0.00e+00	0	42	0	764411904	9	4108
2026-01-10 13:45:00.42	219.93	17.60	-24.6	-25.8	17.2	0.00e+00	0	41	0	769654784	9	4159
2026-01-10 13:45:01.43	220.10	17.68	-24.4	-25.5	17.4	0.00e+00	0	41	0	775946240	9	4074
2026-01-10 13:45:02.43	220.26	17.77	-24.4	-25.4	17.4	0.00e+00	0	42	0	781189120	9	4066
2026-01-10 13:45:03.44	220.43	17.86	-24.3	-25.2	17.5	0.00e+00	0	42	0	786432000	9	4014
2026-01-10 13:45:04.45	220.60	17.94	-24.2	-25.1	17.5	0.00e+00	0	41	0	792723456	9	3987
2026-01-10 13:45:05.45	220.76	18.03	-24.2	-25.0	17.6	3.40e-06	0	41	0	797966336	9	3961
2026-01-10 13:45:06.45	220.93	18.11	-24.2	-25.0	17.6	0.00e+00	0	41	0	803209216	9	3965
2026-01-10 13:45:07.46	221.10	18.20	-24.2	-25.0	17.6	0.00e+00	0	41	0	809500672	9	3956
2026-01-10 13:45:08.47	221.27	18.29	-24.0	-24.7	17.8	0.00e+00	0	41	0	814743552	9	3878
2026-01-10 13:45:09.47	221.44	18.37	-24.0	-24.7	17.8	0.00e+00	0	41	0	821035008	9	3879
2026-01-10 13:45:10.48	221.61	18.46	-24.0	-24.6	17.9	0.00e+00	0	41	0	826277888	9	3867
2026-01-10 13:45:11.48	221.79	18.55	-24.0	-24.6	17.9	8.00e-06	0	42	0	831520768	9	3846
2026-01-10 13:45:12.49	221.96	18.63	-24.1	-24.7	17.8	0.00e+00	0	42	0	837812224	9	3883
2026-01-10 13:45:13.50	222.14	18.72	-24.0	-24.6	17.9	0.00e+00	0	41	0	843055104	9	3865
2026-01-10 13:45:14.50	222.31	18.81	-24.0	-24.6	17.9	4.50e-06	0	42	0	849346560	9	3865
2026-01-10 13:45:15.51	222.49	18.89	-24.0	-24.5	17.9	0.00e+00	0	42	0	854589440	9	3844
2026-01-10 13:45:16.52	222.67	18.98	-23.9	-24.4	18.0	0.00e+00	0	42	0	860880896	9	3813
2026-01-10 13:45:17.52	222.85	19.07	-23.8	-24.2	18.1	5.70e-06	0	42	0	866123776	9	3769
2026-01-10 13:45:18.53	223.03	19.15	-23.9	-24.3	18.1	0.00e+00	0	42	0	871366656	9	3781
2026-01-10 13:45:19.53	223.21	19.24	-23.9	-24.3	18.1	0.00e+00	0	41	0	877658112	9	3785
2026-01-10 13:45:20.54	223.39	19.33	-23.9	-24.5	18.0	0.00e+00	0	42	0	882900992	9	3830
2026-01-10 13:45:21.54	223.57	19.41	-23.9	-24.4	18.0	0.00e+00	0	42	0	888143872	9	3805
2026-01-10 13:45:22.55	223.76	19.50	-23.9	-24.3	18.1	0.00e+00	0	42	0	894435328	9	3787
2026-01-10 13:45:23.55	223.94	19.59	-23.8	-24.6	18.2	5.70e-06	0	41	0	899678208	8	3954
2026-01-10 13:45:24.55	224.13	19.67	-23.8	-24.6	18.2	0.00e+00	0	42	0	904921088	8	3970
2026-01-10 13:45:25.55	224.31	19.76	-23.8	-24.8	18.1	0.00e+00	0	42	0	911212544	8	4001
2026-01-10 13:45:26.55	224.50	19.85	-23.9	-24.9	18.0	5.70e-06	0	42	0	916455424	8	4031
2026-01-10 13:45:27.56	224.69	19.93	-24.0	-25.1	17.9	0.00e+00	0	42	0	922746880	8	4087
2026-01-10 13:45:28.57	224.88	20.02	-23.9	-24.8	18.1	0.00e+00	0	42	0	927989760	8	4017
2026-01-10 13:45:29.57	225.07	20.11	-23.9	-24.9	18.0	0.00e+00	0	41	0	934281216	8	4045
2026-01-10 13:45:30.58	225.26	20.19	-23.9	-24.9	18.0	0.00e+00	0	42	0	939524096	8	4034
2026-01-10 13:45:31.58	225.45	20.28	-24.2	-25.5	17.7	0.00e+00	0	42	0	944766976	8	4195
2026-01-10 13:45:32.58	225.65	20.37	-24.4	-25.9	17.5	0.00e+00	0	41	0	951058432	8	4287
2026-01-10 13:45:33.59	225.84	20.45	-24.7	-26.0	17.2	0.00e+00	0	41	0	956301312	9	4210
2026-01-10 13:45:34.60	226.04	20.54	-24.5	-25.6	17.4	0.00e+00	0	41	0	961544192	9	4107
2026-01-10 13:45:35.59	226.24	20.63	-24.3	-25.1	17.6	0.00e+00	0	41	0	967835648	9	3990
2026-01-10 13:45:36.60	226.44	20.71	-24.7	-26.1	17.2	0.00e+00	0	42	0	973078528	9	4217
2026-01-10 13:45:37.60	226.63	20.80	-24.4	-25.5	17.5	0.00e+00	0	42	0	978321408	9	4074
2026-01-10 13:45:38.61	226.84	20.89	-24.1	-24.9	17.8	0.00e+00	0	42	0	984612864	9	3934
2026-01-10 13:45:39.61	227.04	20.97	-24.1	-24.8	17.9	0.00e+00	0	42	0	989855744	9	3895
2026-01-10 13:45:40.62	227.24	21.06	-24.1	-24.8	17.8	0.00e+00	0	42	0	996147200	9	3913
2026-01-10 13:45:41.63	227.45	21.15	-24.5	-25.6	17.5	0.00e+00	0	42	0	1001390080	9	4092
2026-01-10 13:45:42.63	227.65	21.23	-23.9	-24.3	18.1	0.00e+00	0	42	0	1007681536	9	3788
2026-01-10 13:45:43.64	227.86	21.32	-24.1	-25.2	17.9	0.00e+00	0	42	0	1012924416	8	4117
2026-01-10 13:45:44.64	228.06	21.40	-24.1	-25.4	17.9	0.00e+00	0	42	0	1018167296	8	4153
2026-01-10 13:45:45.65	228.27	21.49	-24.1	-25.3	17.9	0.00e+00	0	42	0	1024458752	8	4135
2026-01-10 13:45:46.65	228.48	21.58	-23.8	-24.7	18.2	0.00e+00	0	42	0	1029701632	8	3984
2026-01-10 13:45:47.66	228.69	21.66	-23.6	-24.3	18.4	0.00e+00	0	42	0	1034944512	8	3891
2026-01-10 13:45:48.67	228.91	21.75	-23.6	-24.3	18.4	0.00e+00	0	42	0	1041235968	8	3888
2026-01-10 13:45:49.68	229.12	21.84	-23.6	-24.3	18.4	0.00e+00	0	42	0	1046478848	8	3891
2026-01-10 13:45:50.68	229.33	21.92	-23.7	-24.5	18.3	0.00e+00	0	42	0	1052770304	8	3947
2026-01-10 13:45:51.69	229.55	22.01	-23.8	-24.7	18.2	0.00e+00	0	42	0	1058013184	8	3994
2026-01-10 13:45:52.70	229.77	22.09	-23.7	-24.4	18.4	0.00e+00	0	42	0	1063256064	8	3921
2026-01-10 13:45:53.70	229.99	22.18	-23.6	-24.2	18.5	0.00e+00	0	42	0	1069547520	8	3865
2026-01-10 13:45:54.71	230.21	22.26	-23.5	-24.0	18.6	0.00e+00	0	42	0	1074790400	8	3812
2026-01-10 13:45:55.72	230.43	22.35	-23.6	-24.2	18.5	0.00e+00	0	42	0	1081081856	8	3865
2026-01-10 13:45:56.72	230.65	22.43	-23.4	-23.9	18.7	0.00e+00	0	41	0	1086324736	8	3784
2026-01-10 13:45:57.73	230.87	22.52	-23.4	-23.9	18.7	0.00e+00	0	42	0	1092616192	8	3792
2026-01-10 13:45:58.74	231.09	22.60	-23.4	-23.8	18.7	0.00e+00	0	42	0	1097859072	8	3779
2026-01-10 13:45:59.75	231.32	22.69	-23.4	-23.9	18.6	0.00e+00	0	42	0	1103101952	8	3794
2026-01-10 13:46:00.75	231.55	22.77	-23.7	-24.5	18.4	0.00e+00	0	42	0	1109393408	8	3927
2026-01-10 13:46:01.76	231.77	22.86	-23.5	-24.1	18.5	0.00e+00	0	42	0	1114636288	8	3841
2026-01-10 13:46:02.77	232.00	22.94	-23.6	-24.2	18.5	0.00e+00	0	42	0	1120927744	8	3859
2026-01-10 13:46:03.78	232.23	23.02	-23.4	-23.8	18.7	0.00e+00	0	42	0	1126170624	8	3767
2026-01-10 13:46:04.78	232.46	23.11	-23.2	-23.9	18.9	0.00e+00	0	42	0	1131413504	7	3897
2026-01-10 13:46:05.79	232.70	23.19	-23.2	-23.9	18.9	0.00e+00	0	42	0	1137704960	7	3899
2026-01-10 13:46:06.80	232.93	23.27	-23.2	-23.9	18.9	0.00e+00	0	42	0	1142947840	7	3915
2026-01-10 13:46:07.80	233.16	23.36	-23.2	-23.9	18.9	0.00e+00	0	42	0	1148190720	7	3901
2026-01-10 13:46:08.81	233.40	23.44	-23.3	-24.2	18.8	0.00e+00	0	42	0	1154482176	7	3960
2026-01-10 13:46:09.82	233.64	23.52	-23.2	-23.8	18.9	0.00e+00	0	42	0	1159725056	7	3884
2026-01-10 13:46:10.82	233.88	23.60	-23.2	-23.9	18.9	0.00e+00	0	42	0	1166016512	7	3905
2026-01-10 13:46:11.82	234.11	23.68	-23.2	-24.0	18.9	0.00e+00	0	42	0	1171259392	7	3919
2026-01-10 13:46:12.83	234.36	23.77	-23.3	-24.0	18.9	0.00e+00	0	42	0	1177550848	7	3933
2026-01-10 13:46:13.83	234.60	23.85	-23.2	-24.0	18.9	0.00e+00	0	42	0	1182793728	7	3914
2026-01-10 13:46:14.84	234.84	23.93	-23.1	-23.7	19.0	0.00e+00	0	42	0	1188036608	7	3860
2026-01-10 13:46:15.84	235.08	24.01	-23.2	-23.8	19.0	0.00e+00	0	42	0	1194328064	7	3872
2026-01-10 13:46:16.85	235.33	24.09	-22.9	-23.2	19.3	2.20e-06	0	42	0	1199570944	7	3737
2026-01-10 13:46:17.86	235.58	24.17	-22.8	-23.1	19.4	0.00e+00	0	42	0	1204813824	7	3705
2026-01-10 13:46:18.87	235.83	24.25	-23.1	-24.1	19.1	0.00e+00	0	42	0	1211105280	6	4069
2026-01-10 13:46:19.87	236.08	24.33	-23.1	-24.3	19.0	0.00e+00	0	42	0	1216348160	6	4106
2026-01-10 13:46:20.88	236.33	24.41	-23.5	-25.0	18.6	0.00e+00	0	42	0	1222639616	6	4278
2026-01-10 13:46:21.89	236.58	24.49	-23.4	-24.4	18.7	0.00e+00	0	42	0	1227882496	7	4023
2026-01-10 13:46:22.89	236.83	24.57	-23.3	-24.1	18.9	0.00e+00	0	42	0	1233125376	7	3949
2026-01-10 13:46:23.89	237.08	24.64	-23.2	-24.0	18.9	0.00e+00	0	42	0	1239416832	7	3917
2026-01-10 13:46:24.90	237.34	24.72	-23.2	-23.9	18.9	0.00e+00	0	42	0	1244659712	7	3909
2026-01-10 13:46:25.90	237.60	24.80	-23.6	-24.8	18.5	3.40e-06	0	42	0	1250951168	7	4115
2026-01-10 13:46:26.91	237.86	24.88	-23.3	-24.2	18.8	0.00e+00	0	42	0	1256194048	7	3970
2026-01-10 13:46:27.91	238.11	24.95	-23.2	-24.0	18.9	0.00e+00	0	42	0	1261436928	7	3915
2026-01-10 13:46:28.92	238.37	25.03	-23.3	-24.1	18.8	3.40e-06	0	42	0	1267728384	7	3956
2026-01-10 13:46:29.93	238.64	25.11	-23.3	-24.1	18.9	0.00e+00	0	42	0	1272971264	7	3957
2026-01-10 13:46:30.94	238.90	25.18	-23.4	-24.3	18.7	0.00e+00	0	42	0	1279262720	7	4007
2026-01-10 13:46:31.94	239.16	25.26	-23.6	-24.7	18.6	0.00e+00	0	42	0	1284505600	7	4081
2026-01-10 13:46:32.95	239.43	25.33	-23.3	-24.2	18.8	0.00e+00	0	42	0	1289748480	7	3975
2026-01-10 13:46:33.95	239.70	25.41	-23.1	-23.6	19.1	0.00e+00	0	42	0	1296039936	7	3838
2026-01-10 13:46:34.96	239.96	25.48	-23.0	-23.5	19.2	5.70e-06	0	42	0	1301282816	7	3806
2026-01-10 13:46:35.97	240.23	25.55	-23.1	-23.8	19.1	0.00e+00	0	42	0	1307574272	7	3864
2026-01-10 13:46:36.98	240.51	25.63	-23.0	-23.4	19.2	0.00e+00	0	42	0	1312817152	7	3785
2026-01-10 13:46:37.99	240.78	25.70	-22.8	-23.0	19.4	0.00e+00	0	42	0	1318060032	7	3697
2026-01-10 13:46:38.99	241.05	25.77	-22.6	-23.0	19.7	0.00e+00	0	42	0	1324351488	6	3806
2026-01-10 13:46:40.00	241.33	25.84	-22.6	-23.2	19.6	0.00e+00	0	42	0	1329594368	6	3834
2026-01-10 13:46:41.01	241.60	25.92	-22.5	-22.8	19.8	0.00e+00	0	42	0	1335885824	6	3755
2026-01-10 13:46:42.02	241.88	25.99	-22.5	-22.9	19.8	0.00e+00	0	42	0	1341128704	6	3778
2026-01-10 13:46:43.02	242.15	26.06	-22.5	-23.0	19.7	0.00e+00	0	42	0	1347420160	6	3797
2026-01-10 13:46:44.03	242.43	26.13	-22.6	-23.1	19.6	0.00e+00	0	42	0	1352663040	6	3832
2026-01-10 13:46:45.04	242.72	26.20	-22.8	-23.5	19.5	0.00e+00	0	42	0	1357905920	6	3911
2026-01-10 13:46:46.04	243.00	26.26	-22.7	-23.3	19.5	0.00e+00	0	42	0	1364197376	6	3855
2026-01-10 13:46:47.05	243.28	26.33	-22.8	-23.5	19.4	0.00e+00	0	42	0	1369440256	6	3904
2026-01-10 13:46:48.05	243.56	26.40	-22.9	-23.8	19.3	0.00e+00	0	42	0	1374683136	6	3996
2026-01-10 13:46:49.06	243.85	26.47	-22.8	-23.6	19.4	0.00e+00	0	42	0	1380974592	6	3935
2026-01-10 13:46:50.06	244.13	26.53	-22.7	-23.4	19.5	0.00e+00	0	42	0	1386217472	6	3894
2026-01-10 13:46:51.07	244.42	26.60	-22.8	-23.6	19.4	0.00e+00	0	42	0	1392508928	6	3939
2026-01-10 13:46:52.07	244.71	26.66	-22.6	-23.1	19.6	0.00e+00	0	42	0	1397751808	6	3818
2026-01-10 13:46:53.08	245.00	26.73	-22.5	-23.0	19.7	0.00e+00	0	42	0	1402994688	6	3799
2026-01-10 13:46:54.09	245.29	26.79	-22.6	-23.2	19.6	0.00e+00	0	42	0	1409286144	6	3840
2026-01-10 13:46:55.09	245.58	26.85	-22.9	-23.7	19.3	0.00e+00	0	42	0	1414529024	6	3966
2026-01-10 13:46:56.10	245.87	26.92	-22.8	-23.4	19.5	0.00e+00	0	42	0	1420820480	6	3900
2026-01-10 13:46:57.11	246.17	26.98	-22.7	-23.4	19.5	0.00e+00	0	42	0	1426063360	6	3898
2026-01-10 13:46:58.11	246.46	27.04	-22.9	-23.7	19.4	0.00e+00	0	42	0	1431306240	6	3968
2026-01-10 13:46:59.12	246.76	27.10	-22.9	-23.8	19.3	0.00e+00	0	42	0	1437597696	6	3972
2026-01-10 13:47:00.13	247.05	27.16	-22.5	-22.9	19.8	0.00e+00	0	42	0	1442840576	6	3781
2026-01-10 13:47:01.14	247.35	27.22	-22.6	-23.0	19.7	0.00e+00	0	42	0	1449132032	6	3804
2026-01-10 13:47:02.14	247.65	27.28	-22.5	-22.9	19.8	0.00e+00	0	42	0	1454374912	6	3767
2026-01-10 13:47:03.14	247.95	27.33	-22.5	-23.0	19.7	0.00e+00	0	42	0	1459617792	6	3794
2026-01-10 13:47:04.15	248.25	27.39	-22.5	-23.0	19.7	0.00e+00	0	42	0	1465909248	6	3791
2026-01-10 13:47:05.15	248.55	27.45	-22.5	-22.9	19.7	0.00e+00	0	42	0	1471152128	6	3784
2026-01-10 13:47:06.15	248.86	27.50	-22.3	-22.5	20.0	0.00e+00	0	42	0	1476395008	6	3681
2026-01-10 13:47:07.15	249.16	27.56	-22.4	-22.7	19.9	0.00e+00	0	42	0	1482686464	6	3732
2026-01-10 13:47:08.16	249.46	27.61	-22.3	-22.5	20.0	0.00e+00	0	42	0	1487929344	6	3678
2026-01-10 13:47:09.17	249.77	27.67	-22.2	-22.9	20.0	0.00e+00	0	42	0	1494220800	5	3878
2026-01-10 13:47:10.18	250.08	27.72	-22.4	-23.1	19.9	0.00e+00	0	42	0	1499463680	5	3937
2026-01-10 13:47:11.19	250.39	27.77	-22.6	-23.7	19.6	0.00e+00	0	42	0	1505755136	5	4074
2026-01-10 13:47:12.19	250.70	27.82	-22.6	-23.6	19.7	0.00e+00	0	42	0	1510998016	5	4047
2026-01-10 13:47:13.20	251.01	27.87	-22.4	-23.1	19.9	0.00e+00	0	42	0	1516240896	5	3933
2026-01-10 13:47:14.21	251.32	27.92	-22.3	-22.9	20.0	0.00e+00	0	42	0	1522532352	5	3888
2026-01-10 13:47:15.21	251.63	27.97	-22.4	-23.1	20.0	0.00e+00	0	42	0	1527775232	5	3923
2026-01-10 13:47:16.22	251.95	28.02	-22.4	-23.1	19.9	0.00e+00	0	42	0	1534066688	5	3926
2026-01-10 13:47:17.22	252.26	28.06	-22.7	-23.8	19.6	0.00e+00	0	42	0	1539309568	5	4087
2026-01-10 13:47:18.22	252.57	28.11	-22.8	-24.0	19.4	0.00e+00	0	42	0	1544552448	5	4150
2026-01-10 13:47:19.22	252.89	28.16	-22.8	-24.1	19.4	0.00e+00	0	42	0	1550843904	5	4175
2026-01-10 13:47:20.23	253.21	28.20	-22.7	-23.8	19.6	0.00e+00	0	42	0	1556086784	5	4084
2026-01-10 13:47:21.23	253.52	28.24	-22.5	-23.5	19.7	0.00e+00	0	42	0	1561329664	5	4019
2026-01-10 13:47:22.24	253.84	28.29	-22.8	-24.1	19.4	0.00e+00	0	42	0	1567621120	5	4165
2026-01-10 13:47:23.25	254.16	28.33	-22.6	-23.6	19.6	0.00e+00	0	42	0	1572864000	5	4050
2026-01-10 13:47:24.25	254.48	28.37	-22.5	-23.4	19.8	0.00e+00	0	42	0	1579155456	5	4005
2026-01-10 13:47:25.25	254.80	28.41	-22.4	-23.3	19.9	1.10e-06	0	42	0	1584398336	5	3960
2026-01-10 13:47:26.26	255.12	28.45	-22.5	-23.4	19.8	0.00e+00	0	42	0	1589641216	5	4007
2026-01-10 13:47:27.27	255.44	28.49	-22.6	-23.6	19.7	0.00e+00	0	42	0	1595932672	5	4046
2026-01-10 13:47:28.27	255.77	28.52	-22.5	-23.3	19.8	0.00e+00	0	42	0	1601175552	5	3982
2026-01-10 13:47:29.28	256.09	28.56	-22.4	-23.2	19.9	0.00e+00	0	42	0	1607467008	5	3958
2026-01-10 13:47:30.29	256.42	28.60	-22.5	-23.5	19.7	0.00e+00	0	42	0	1612709888	5	4020
2026-01-10 13:47:31.29	256.74	28.63	-22.6	-23.7	19.6	1.10e-06	0	42	0	1617952768	5	4074
2026-01-10 13:47:32.29	257.06	28.66	-22.5	-23.4	19.8	0.00e+00	0	42	0	1624244224	5	3989
2026-01-10 13:47:33.29	257.39	28.70	-22.4	-23.2	19.9	0.00e+00	0	42	0	1629487104	5	3949
2026-01-10 13:47:34.30	257.72	28.73	-22.3	-22.9	20.0	1.10e-06	0	42	0	1634729984	5	3887
2026-01-10 13:47:35.31	258.05	28.76	-22.4	-23.2	19.9	0.00e+00	0	42	0	1641021440	5	3941
2026-01-10 13:47:36.32	258.38	28.79	-22.6	-23.7	19.7	0.00e+00	0	42	0	1646264320	5	4065
2026-01-10 13:47:37.33	258.71	28.82	-22.5	-23.4	19.8	0.00e+00	0	42	0	1652555776	5	4002
2026-01-10 13:47:38.34	259.04	28.84	-22.4	-23.3	19.9	0.00e+00	0	42	0	1657798656	5	3964
2026-01-10 13:47:39.34	259.37	28.87	-22.4	-23.2	19.9	0.00e+00	0	42	0	1664090112	5	3938
2026-01-10 13:47:40.35	259.70	28.90	-22.4	-23.1	19.9	0.00e+00	0	42	0	1669332992	5	3927
2026-01-10 13:47:41.35	260.03	28.92	-22.4	-23.2	19.9	0.00e+00	0	42	0	1674575872	5	3939
2026-01-10 13:47:42.35	260.36	28.95	-22.5	-23.4	19.8	0.00e+00	0	42	0	1680867328	5	4003
2026-01-10 13:47:43.36	260.69	28.97	-22.5	-23.4	19.8	0.00e+00	0	42	0	1686110208	5	3993
2026-01-10 13:47:44.37	261.02	28.99	-22.6	-23.6	19.7	0.00e+00	0	42	0	1692401664	5	4040
2026-01-10 13:47:45.37	261.35	29.01	-22.6	-23.7	19.6	0.00e+00	0	42	0	1697644544	5	4068
2026-01-10 13:47:46.38	261.69	29.03	-22.8	-24.2	19.4	0.00e+00	0	42	0	1702887424	5	4185
2026-01-10 13:47:47.38	262.02	29.05	-22.7	-23.7	19.6	0.00e+00	0	42	0	1709178880	5	4074
2026-01-10 13:47:48.39	262.36	29.07	-22.6	-23.6	19.7	0.00e+00	0	42	0	1714421760	5	4036
2026-01-10 13:47:49.40	262.69	29.08	-22.8	-24.0	19.5	0.00e+00	0	42	0	1720713216	5	4130
2026-01-10 13:47:50.41	263.03	29.10	-23.4	-24.9	18.8	0.00e+00	0	42	0	1725956096	6	4240
2026-01-10 13:47:51.42	263.37	29.11	-23.6	-24.7	18.7	0.00e+00	0	42	0	1731198976	7	4082
2026-01-10 13:47:52.43	263.70	29.13	-23.5	-24.6	18.7	0.00e+00	0	42	0	1737490432	7	4054
2026-01-10 13:47:53.43	264.04	29.14	-23.4	-24.3	18.9	0.00e+00	0	42	0	1742733312	7	3984
2026-01-10 13:47:54.44	264.37	29.15	-23.0	-23.5	19.3	0.00e+00	0	42	0	1749024768	7	3795
2026-01-10 13:47:55.44	264.71	29.16	-23.0	-23.5	19.3	3.40e-06	0	42	0	1754267648	7	3797
2026-01-10 13:47:56.45	265.04	29.17	-23.0	-23.5	19.3	0.00e+00	0	42	0	1759510528	7	3802
2026-01-10 13:47:57.45	265.38	29.18	-22.9	-23.3	19.4	0.00e+00	0	42	0	1765801984	7	3759
2026-01-10 13:47:58.46	265.72	29.19	-23.0	-23.5	19.3	0.00e+00	0	42	0	1771044864	7	3807
2026-01-10 13:47:59.47	266.06	29.19	-23.2	-23.8	19.1	0.00e+00	0	42	0	1777336320	7	3866
2026-01-10 13:48:00.47	266.39	29.20	-22.8	-23.0	19.5	0.00e+00	0	42	0	1782579200	7	3697
2026-01-10 13:48:01.48	266.73	29.20	-22.9	-23.7	19.4	0.00e+00	0	42	0	1787822080	6	3967
2026-01-10 13:48:02.49	267.07	29.21	-23.1	-24.1	19.2	0.00e+00	0	42	0	1794113536	6	4044
2026-01-10 13:48:03.49	267.40	29.21	-23.0	-24.0	19.3	0.00e+00	0	42	0	1799356416	6	4021
2026-01-10 13:48:04.50	267.74	29.21	-22.9	-23.8	19.3	0.00e+00	0	42	0	1805647872	6	3985
2026-01-10 13:48:05.50	268.07	29.21	-23.0	-23.9	19.4	0.00e+00	0	42	0	1810890752	6	3994
2026-01-10 13:48:06.51	268.41	29.21	-22.9	-23.8	19.3	0.00e+00	0	42	0	1816133632	6	3988
2026-01-10 13:48:07.52	268.75	29.20	-22.9	-23.8	19.4	0.00e+00	0	42	0	1822425088	6	3980
2026-01-10 13:48:08.53	269.09	29.20	-23.0	-23.9	19.3	0.00e+00	0	42	0	1827667968	6	4003
2026-01-10 13:48:09.53	269.42	29.20	-22.9	-23.7	19.4	0.00e+00	0	42	0	1833959424	6	3967
2026-01-10 13:48:10.54	269.76	29.19	-23.4	-24.9	18.8	0.00e+00	0	42	0	1839202304	6	4250
2026-01-10 13:48:11.55	270.10	29.18	-23.5	-24.6	18.7	0.00e+00	0	42	0	1844445184	7	4059
2026-01-10 13:48:12.55	270.44	29.18	-23.2	-23.9	19.0	0.00e+00	0	42	0	1850736640	7	3894
2026-01-10 13:48:13.56	270.77	29.17	-22.7	-23.4	19.6	0.00e+00	0	42	0	1855979520	6	3887
2026-01-10 13:48:14.57	271.11	29.16	-22.6	-23.2	19.7	0.00e+00	0	42	0	1862270976	6	3826
2026-01-10 13:48:15.58	271.45	29.15	-22.5	-22.9	19.8	0.00e+00	0	42	0	1867513856	6	3770
2026-01-10 13:48:16.58	271.78	29.14	-22.6	-23.1	19.7	0.00e+00	0	42	0	1872756736	6	3803
2026-01-10 13:48:17.59	272.12	29.12	-22.7	-23.4	19.6	0.00e+00	0	42	0	1879048192	6	3882
2026-01-10 13:48:18.59	272.45	29.11	-22.8	-23.5	19.5	0.00e+00	0	42	0	1884291072	6	3915
2026-01-10 13:48:19.60	272.79	29.09	-22.7	-23.3	19.6	0.00e+00	0	42	0	1890582528	6	3856
2026-01-10 13:48:20.60	273.12	29.08	-22.5	-23.0	19.7	0.00e+00	0	42	0	1895825408	6	3787
2026-01-10 13:48:21.61	273.45	29.06	-22.6	-23.1	19.7	0.00e+00	0	42	0	1901068288	6	3811
2026-01-10 13:48:22.62	273.79	29.04	-22.6	-23.1	19.7	0.00e+00	0	42	0	1907359744	6	3811
2026-01-10 13:48:23.63	274.12	29.02	-22.5	-22.9	19.8	0.00e+00	0	42	0	1912602624	6	3775
2026-01-10 13:48:24.64	274.46	29.00	-22.6	-23.1	19.7	0.00e+00	0	42	0	1918894080	6	3813
2026-01-10 13:48:25.64	274.79	28.98	-22.7	-23.2	19.6	0.00e+00	0	42	0	1924136960	6	3852
2026-01-10 13:48:26.65	275.12	28.96	-22.6	-23.1	19.7	0.00e+00	0	42	0	1929379840	6	3828
2026-01-10 13:48:27.65	275.45	28.94	-22.6	-23.2	19.7	0.00e+00	0	42	0	1935671296	6	3846
2026-01-10 13:48:28.66	275.78	28.91	-22.9	-23.8	19.4	0.00e+00	0	42	0	1940914176	6	3988
2026-01-10 13:48:29.67	276.12	28.89	-22.8	-23.5	19.5	0.00e+00	0	42	0	1947205632	6	3916
2026-01-10 13:48:30.67	276.44	28.86	-22.7	-23.3	19.6	0.00e+00	0	42	0	1952448512	6	3850
2026-01-10 13:48:31.68	276.78	28.84	-22.8	-23.6	19.5	0.00e+00	0	42	0	1957691392	6	3925
2026-01-10 13:48:32.68	277.10	28.81	-22.7	-23.4	19.5	0.00e+00	0	42	0	1963982848	6	3891
2026-01-10 13:48:33.68	277.43	28.78	-22.7	-23.3	19.6	0.00e+00	0	42	0	1969225728	6	3874
2026-01-10 13:48:34.69	277.76	28.75	-22.7	-23.3	19.6	0.00e+00	0	42	0	1975517184	6	3871
2026-01-10 13:48:35.70	278.09	28.72	-22.7	-23.4	19.6	0.00e+00	0	42	0	1980760064	6	3879
2026-01-10 13:48:36.70	278.41	28.69	-22.5	-22.9	19.8	0.00e+00	0	42	0	1986002944	6	3776
2026-01-10 13:48:37.71	278.74	28.65	-22.6	-23.1	19.7	0.00e+00	0	42	0	1992294400	6	3818
2026-01-10 13:48:38.72	279.06	28.62	-22.5	-23.0	19.7	0.00e+00	0	42	0	1997537280	6	3793
2026-01-10 13:48:39.73	279.39	28.58	-22.8	-23.5	19.5	0.00e+00	0	42	0	2003828736	6	3908
2026-01-10 13:48:40.73	279.71	28.55	-22.7	-23.4	19.5	0.00e+00	0	42	0	2009071616	6	3900
2026-01-10 13:48:41.74	280.04	28.51	-22.6	-23.2	19.6	0.00e+00	0	42	0	2014314496	6	3834
2026-01-10 13:48:42.74	280.36	28.47	-22.7	-23.3	19.6	0.00e+00	0	42	0	2020605952	6	3853
2026-01-10 13:48:43.75	280.68	28.44	-22.6	-23.1	19.7	0.00e+00	0	42	0	2025848832	6	3827
2026-01-10 13:48:44.75	281.00	28.40	-22.6	-23.1	19.7	0.00e+00	0	42	0	2031091712	6	3820
2026-01-10 13:48:45.75	281.32	28.36	-22.8	-23.5	19.5	0.00e+00	0	42	0	2037383168	6	3903
2026-01-10 13:48:46.76	281.64	28.32	-23.0	-24.1	19.2	0.00e+00	0	42	0	2042626048	6	4046
2026-01-10 13:48:47.77	281.96	28.27	-22.8	-23.6	19.4	0.00e+00	0	42	0	2048917504	6	3929
2026-01-10 13:48:48.78	282.28	28.23	-22.6	-23.1	19.7	0.00e+00	0	42	0	2054160384	6	3823
2026-01-10 13:48:49.78	282.59	28.19	-22.5	-22.8	19.8	0.00e+00	0	42	0	2060451840	6	3759
2026-01-10 13:48:50.79	282.91	28.14	-22.7	-23.2	19.7	0.00e+00	0	42	0	2065694720	6	3847
2026-01-10 13:48:51.80	283.22	28.10	-23.0	-23.9	19.3	0.00e+00	0	42	0	2070937600	6	4007
2026-01-10 13:48:52.81	283.54	28.05	-23.3	-24.6	19.0	0.00e+00	0	42	0	2077229056	6	4173
2026-01-10 13:48:53.82	283.85	28.00	-23.2	-23.9	19.1	0.00e+00	0	42	0	2082471936	7	3898
2026-01-10 13:48:54.83	284.17	27.96	-22.9	-23.3	19.3	0.00e+00	0	42	0	2088763392	7	3767
2026-01-10 13:48:55.84	284.48	27.91	-22.9	-23.3	19.4	0.00e+00	0	42	0	2094006272	7	3756
2026-01-10 13:48:56.84	284.79	27.86	-22.9	-23.1	19.4	0.00e+00	0	42	0	2099249152	7	3721
2026-01-10 13:48:57.85	285.10	27.81	-22.7	-23.3	19.6	0.00e+00	0	42	0	2105540608	6	3856
2026-01-10 13:48:58.86	285.41	27.76	-22.7	-23.4	19.6	0.00e+00	0	42	0	2110783488	6	3873
2026-01-10 13:48:59.87	285.72	27.70	-22.7	-23.2	19.6	0.00e+00	0	42	0	2117074944	6	3841
2026-01-10 13:49:00.88	286.02	27.65	-22.7	-23.4	19.5	0.00e+00	0	42	0	2122317824	6	3889
2026-01-10 13:49:01.89	286.33	27.60	-22.7	-23.4	19.5	0.00e+00	0	42	0	2127560704	6	3896
2026-01-10 13:49:02.89	286.63	27.54	-22.8	-23.6	19.4	0.00e+00	0	42	0	2133852160	6	3937
2026-01-10 13:49:03.90	286.94	27.49	-22.8	-23.6	19.5	0.00e+00	0	42	0	2139095040	6	3926
2026-01-10 13:49:04.91	287.24	27.43	-22.9	-23.7	19.4	0.00e+00	0	42	0	2145386496	6	3953
2026-01-10 13:49:05.91	287.54	27.38	-22.7	-23.4	19.6	0.00e+00	0	42	0	2150629376	6	3884
2026-01-10 13:49:06.91	287.84	27.32	-22.6	-23.1	19.7	0.00e+00	0	42	0	2155872256	6	3825
2026-01-10 13:49:07.92	288.14	27.26	-22.8	-23.5	19.5	0.00e+00	0	42	0	2162163712	6	3912
2026-01-10 13:49:08.92	288.44	27.20	-22.6	-23.1	19.7	0.00e+00	0	42	0	2167406592	6	3807
2026-01-10 13:49:09.93	288.73	27.14	-22.5	-22.9	19.8	0.00e+00	0	42	0	2173698048	6	3782
2026-01-10 13:49:10.94	289.03	27.08	-22.6	-23.1	19.7	0.00e+00	0	42	0	2178940928	6	3825
2026-01-10 13:49:11.94	289.33	27.02	-22.6	-23.2	19.6	0.00e+00	0	42	0	2184183808	6	3838
2026-01-10 13:49:12.95	289.62	26.96	-22.8	-23.5	19.5	0.00e+00	0	42	0	2190475264	6	3905
2026-01-10 13:49:13.95	289.91	26.90	-22.7	-23.4	19.5	0.00e+00	0	42	0	2195718144	6	3896
2026-01-10 13:49:14.95	290.20	26.84	-22.8	-23.6	19.5	0.00e+00	0	42	0	2200961024	6	3924
2026-01-10 13:49:15.97	290.49	26.77	-22.7	-23.4	19.5	0.00e+00	0	42	0	2207252480	6	3897
2026-01-10 13:49:16.97	290.78	26.71	-22.7	-23.4	19.5	0.00e+00	0	42	0	2212495360	6	3896
2026-01-10 13:49:17.98	291.07	26.65	-22.9	-23.8	19.3	0.00e+00	0	42	0	2218786816	6	3984
2026-01-10 13:49:18.99	291.36	26.58	-22.8	-23.5	19.5	0.00e+00	0	42	0	2224029696	6	3915
2026-01-10 13:49:20.00	291.65	26.52	-22.8	-23.5	19.5	0.00e+00	0	42	0	2230321152	6	3919
2026-01-10 13:49:21.00	291.93	26.45	-22.7	-23.2	19.6	0.00e+00	0	42	0	2235564032	6	3849
2026-01-10 13:49:22.01	292.21	26.38	-22.5	-23.0	19.8	0.00e+00	0	42	0	2240806912	6	3786
2026-01-10 13:49:23.02	292.50	26.32	-22.7	-23.2	19.6	0.00e+00	0	42	0	2247098368	6	3846
2026-01-10 13:49:24.03	292.78	26.25	-22.5	-23.0	19.7	0.00e+00	0	42	0	2252341248	6	3784
2026-01-10 13:49:25.03	293.06	26.18	-22.6	-23.2	19.6	0.00e+00	0	42	0	2258632704	6	3842
2026-01-10 13:49:26.03	293.33	26.11	-22.8	-23.6	19.4	0.00e+00	0	42	0	2263875584	6	3937
2026-01-10 13:49:27.04	293.61	26.04	-23.0	-24.0	19.2	0.00e+00	0	42	0	2269118464	6	4034
2026-01-10 13:49:28.05	293.89	25.97	-22.8	-23.6	19.4	0.00e+00	0	42	0	2275409920	6	3933
2026-01-10 13:49:29.05	294.16	25.90	-22.8	-23.5	19.5	0.00e+00	0	42	0	2280652800	6	3902
2026-01-10 13:49:30.05	294.44	25.83	-22.9	-23.7	19.4	0.00e+00	0	42	0	2285895680	6	3952
2026-01-10 13:49:31.06	294.71	25.76	-22.8	-23.6	19.4	0.00e+00	0	42	0	2292187136	6	3941
2026-01-10 13:49:32.07	294.98	25.69	-22.8	-23.5	19.5	0.00e+00	0	42	0	2297430016	6	3909
2026-01-10 13:49:33.07	295.25	25.62	-22.9	-23.7	19.4	0.00e+00	0	42	0	2303721472	6	3950
2026-01-10 13:49:34.07	295.52	25.54	-22.8	-23.6	19.4	0.00e+00	0	42	0	2308964352	6	3922
2026-01-10 13:49:35.08	295.79	25.47	-22.9	-23.6	19.4	0.00e+00	0	42	0	2315255808	6	3943
2026-01-10 13:49:36.09	296.05	25.40	-23.0	-24.0	19.3	0.00e+00	0	42	0	2320498688	6	4021
2026-01-10 13:49:37.09	296.32	25.32	-23.3	-24.5	18.9	0.00e+00	0	42	0	2325741568	6	4167
2026-01-10 13:49:38.09	296.58	25.25	-23.1	-24.2	19.1	0.00e+00	0	42	0	2332033024	6	4090
2026-01-10 13:49:39.10	296.85	25.17	-23.0	-24.0	19.2	0.00e+00	0	42	0	2337275904	6	4025
2026-01-10 13:49:40.11	297.11	25.10	-23.0	-24.0	19.3	0.00e+00	0	42	0	2342518784	6	4020
2026-01-10 13:49:41.11	297.37	25.02	-22.9	-23.8	19.3	0.00e+00	0	42	0	2348810240	6	3980
2026-01-10 13:49:42.12	297.63	24.95	-22.9	-23.8	19.3	0.00e+00	0	42	0	2354053120	6	3987
2026-01-10 13:49:43.13	297.89	24.87	-23.0	-24.0	19.2	0.00e+00	0	42	0	2360344576	6	4029
2026-01-10 13:49:44.13	298.14	24.79	-23.0	-23.9	19.3	0.00e+00	0	42	0	2365587456	6	4002
2026-01-10 13:49:45.14	298.40	24.71	-23.0	-24.0	19.2	0.00e+00	0	42	0	2370830336	6	4037
2026-01-10 13:49:46.15	298.65	24.64	-23.2	-24.3	19.1	0.00e+00	0	42	0	2377121792	6	4100
2026-01-10 13:49:47.16	298.91	24.56	-23.2	-24.3	19.1	0.00e+00	0	42	0	2382364672	6	4113
2026-01-10 13:49:48.16	299.16	24.48	-23.2	-24.4	19.0	0.00e+00	0	42	0	2388656128	6	4134
2026-01-10 13:49:49.17	299.41	24.40	-23.4	-24.7	18.8	0.00e+00	0	42	0	2393899008	6	4213
2026-01-10 13:49:50.18	299.66	24.32	-23.3	-24.6	18.9	0.00e+00	0	42	0	2400190464	6	4180
2026-01-10 13:49:51.18	299.91	24.24	-23.3	-24.7	18.8	0.00e+00	0	42	0	2405433344	6	4205
2026-01-10 13:49:52.18	300.15	24.16	-23.4	-24.7	18.8	0.00e+00	0	42	0	2410676224	6	4215
2026-01-10 13:49:53.19	300.40	24.08	-23.3	-24.6	18.9	0.00e+00	0	42	0	2416967680	6	4184
2026-01-10 13:49:54.20	300.64	24.00	-23.2	-24.5	19.0	0.00e+00	0	42	0	2422210560	6	4147
2026-01-10 13:49:55.20	300.89	23.92	-23.3	-24.5	19.0	0.00e+00	0	42	0	2427453440	6	4156
2026-01-10 13:49:56.19	301.12	23.85	-23.2	-24.3	19.0	0.00e+00	0	42	0	2433744896	6	4108
2026-01-10 13:49:57.20	301.37	23.76	-23.2	-24.4	19.0	0.00e+00	0	42	0	2438987776	6	4129
2026-01-10 13:49:58.21	301.61	23.68	-23.3	-24.5	18.9	0.00e+00	0	42	0	2444230656	6	4149
2026-01-10 13:49:59.21	301.84	23.60	-23.3	-24.7	18.8	0.00e+00	0	42	0	2450522112	6	4200
2026-01-10 13:50:00.22	302.08	23.52	-23.4	-24.8	18.8	0.00e+00	0	42	0	2455764992	6	4236
2026-01-10 13:50:01.23	302.32	23.44	-23.5	-24.9	18.7	0.00e+00	0	42	0	2462056448	6	4256
2026-01-10 13:50:02.24	302.55	23.35	-23.3	-24.6	18.9	0.00e+00	0	42	0	2467299328	6	4165
2026-01-10 13:50:03.24	302.79	23.27	-23.2	-24.4	19.0	0.00e+00	0	42	0	2473590784	6	4137
2026-01-10 13:50:04.24	303.02	23.19	-23.4	-24.8	18.8	0.00e+00	0	42	0	2478833664	6	4230
2026-01-10 13:50:05.25	303.25	23.11	-23.3	-24.6	18.9	0.00e+00	0	42	0	2484076544	6	4177
2026-01-10 13:50:06.26	303.48	23.02	-23.3	-24.6	18.9	0.00e+00	0	42	0	2490368000	6	4168
2026-01-10 13:50:07.26	303.71	22.94	-23.4	-24.8	18.8	0.00e+00	0	42	0	2495610880	6	4239
2026-01-10 13:50:08.27	303.93	22.86	-23.4	-24.8	18.7	0.00e+00	0	42	0	2501902336	6	4231
2026-01-10 13:50:09.27	304.16	22.78	-23.6	-24.7	18.6	1.10e-06	0	42	0	2507145216	7	4084
2026-01-10 13:50:10.28	304.39	22.69	-23.8	-25.1	18.3	0.00e+00	0	42	0	2512388096	7	4183
2026-01-10 13:50:11.28	304.61	22.61	-23.6	-24.7	18.6	0.00e+00	0	42	0	2518679552	7	4084
2026-01-10 13:50:12.29	304.83	22.52	-23.5	-24.5	18.6	0.00e+00	0	42	0	2523922432	7	4046
2026-01-10 13:50:13.30	305.05	22.44	-23.5	-24.4	18.7	0.00e+00	0	42	0	2529165312	7	4025
2026-01-10 13:50:14.30	305.27	22.35	-23.3	-24.2	18.8	0.00e+00	0	42	0	2535456768	7	3969
2026-01-10 13:50:15.29	305.49	22.27	-23.4	-24.3	18.7	0.00e+00	0	42	0	2540699648	7	3990
2026-01-10 13:50:16.30	305.71	22.19	-23.4	-24.4	18.7	0.00e+00	0	42	0	2546991104	7	4012
2026-01-10 13:50:17.31	305.93	22.10	-23.4	-24.3	18.8	0.00e+00	0	42	0	2552233984	7	3982
2026-01-10 13:50:18.31	306.14	22.02	-23.6	-24.7	18.6	0.00e+00	0	42	0	2557476864	7	4089
2026-01-10 13:50:19.32	306.36	21.93	-23.7	-24.9	18.4	0.00e+00	0	42	0	2563768320	7	4145
2026-01-10 13:50:20.33	306.57	21.85	-23.9	-25.4	18.2	0.00e+00	0	42	0	2569011200	7	4285
2026-01-10 13:50:21.34	306.78	21.76	-24.0	-25.2	18.0	0.00e+00	0	42	0	2575302656	8	4104
2026-01-10 13:50:22.35	307.00	21.68	-24.2	-25.5	17.9	0.00e+00	0	42	0	2580545536	8	4175
2026-01-10 13:50:23.36	307.21	21.59	-24.2	-25.4	17.9	0.00e+00	0	42	0	2585788416	8	4172
2026-01-10 13:50:24.37	307.42	21.50	-24.0	-25.1	18.1	0.00e+00	0	42	0	2592079872	8	4081
2026-01-10 13:50:25.36	307.62	21.42	-23.8	-24.7	18.3	0.00e+00	0	42	0	2597322752	8	3975
2026-01-10 13:50:26.37	307.83	21.33	-23.9	-24.8	18.3	0.00e+00	0	42	0	2603614208	8	4013
2026-01-10 13:50:27.38	308.03	21.25	-23.8	-24.6	18.3	1.10e-06	0	42	0	2608857088	8	3959
2026-01-10 13:50:28.38	308.24	21.16	-23.8	-24.6	18.4	0.00e+00	0	42	0	2614099968	8	3944
2026-01-10 13:50:29.37	308.44	21.08	-23.8	-24.6	18.4	0.00e+00	0	42	0	2620391424	8	3951
2026-01-10 13:50:30.38	308.64	20.99	-23.9	-24.8	18.2	0.00e+00	0	42	0	2625634304	8	4011
2026-01-10 13:50:31.39	308.84	20.91	-23.9	-24.9	18.2	0.00e+00	0	42	0	2631925760	8	4016
2026-01-10 13:50:32.39	309.04	20.82	-23.9	-24.8	18.2	0.00e+00	0	42	0	2637168640	8	4011
2026-01-10 13:50:33.39	309.24	20.73	-24.0	-25.2	18.0	0.00e+00	0	42	0	2642411520	8	4093
2026-01-10 13:50:34.40	309.44	20.65	-24.0	-25.0	18.1	0.00e+00	0	42	0	2648702976	8	4053
2026-01-10 13:50:35.41	309.64	20.56	-24.1	-25.2	18.0	0.00e+00	0	42	0	2653945856	8	4107
2026-01-10 13:50:36.42	309.83	20.47	-24.0	-25.1	18.1	0.00e+00	0	42	0	2660237312	8	4080
2026-01-10 13:50:37.42	310.03	20.39	-24.0	-25.1	18.1	0.00e+00	0	42	0	2665480192	8	4075
2026-01-10 13:50:38.42	310.22	20.30	-24.1	-25.3	18.0	0.00e+00	0	42	0	2670723072	8	4135
2026-01-10 13:50:39.43	310.41	20.22	-24.2	-25.4	17.9	0.00e+00	0	42	0	2677014528	8	4160
2026-01-10 13:50:40.44	310.60	20.13	-24.1	-25.3	18.0	1.10e-06	0	42	0	2682257408	8	4134
2026-01-10 13:50:41.45	310.79	20.04	-24.1	-25.4	17.9	0.00e+00	0	42	0	2687500288	8	4143
2026-01-10 13:50:42.45	310.98	19.96	-24.2	-25.6	17.8	0.00e+00	0	42	0	2693791744	8	4192
2026-01-10 13:50:43.45	311.17	19.87	-24.3	-25.7	17.8	0.00e+00	0	42	0	2699034624	8	4219
2026-01-10 13:50:44.46	311.36	19.79	-24.2	-25.5	17.8	0.00e+00	0	42	0	2705326080	8	4186
2026-01-10 13:50:45.47	311.55	19.70	-24.3	-25.7	17.7	0.00e+00	0	42	0	2710568960	8	4235
2026-01-10 13:50:46.47	311.73	19.61	-24.2	-25.5	17.8	0.00e+00	0	42	0	2716860416	8	4178
2026-01-10 13:50:47.48	311.91	19.53	-24.2	-25.5	17.8	0.00e+00	0	42	0	2722103296	8	4170
2026-01-10 13:50:48.49	312.10	19.44	-24.4	-25.9	17.7	0.00e+00	0	42	0	2727346176	8	4284
2026-01-10 13:50:49.49	312.28	19.35	-24.5	-25.6	17.5	0.00e+00	0	42	0	2733637632	9	4105
2026-01-10 13:50:50.50	312.46	19.27	-24.5	-25.6	17.5	0.00e+00	0	42	0	2738880512	9	4099
2026-01-10 13:50:51.50	312.64	19.18	-24.5	-25.6	17.5	0.00e+00	0	42	0	2744123392	9	4103
2026-01-10 13:50:52.51	312.82	19.10	-24.6	-25.8	17.4	0.00e+00	0	42	0	2750414848	9	4143
2026-01-10 13:50:53.52	313.00	19.01	-24.6	-25.9	17.3	0.00e+00	0	42	0	2755657728	9	4182
2026-01-10 13:50:54.53	313.18	18.92	-24.7	-26.1	17.2	0.00e+00	0	42	0	2761949184	9	4232
2026-01-10 13:50:55.53	313.35	18.84	-24.7	-26.0	17.3	0.00e+00	0	42	0	2767192064	9	4193
2026-01-10 13:50:56.54	313.53	18.75	-24.6	-25.8	17.3	0.00e+00	0	42	0	2772434944	9	4156
2026-01-10 13:50:57.55	313.70	18.66	-24.7	-26.1	17.2	0.00e+00	0	42	0	2778726400	9	4220
2026-01-10 13:50:58.56	313.88	18.58	-24.8	-26.3	17.1	0.00e+00	0	42	0	2783969280	9	4263
2026-01-10 13:50:59.56	314.05	18.49	-24.7	-26.1	17.2	0.00e+00	0	42	0	2790260736	9	4226
2026-01-10 13:51:00.56	314.22	18.41	-24.8	-26.2	17.2	0.00e+00	0	42	0	2795503616	9	4257
2026-01-10 13:51:01.57	314.39	18.32	-24.8	-26.2	17.2	0.00e+00	0	42	0	2801795072	9	4259
2026-01-10 13:51:02.57	314.56	18.24	-24.8	-26.2	17.2	0.00e+00	0	42	0	2807037952	9	4265
2026-01-10 13:51:03.57	314.73	18.15	-24.7	-26.0	17.3	0.00e+00	0	42	0	2812280832	9	4194
2026-01-10 13:51:04.58	314.90	18.07	-24.8	-26.2	17.2	0.00e+00	0	42	0	2818572288	9	4252
2026-01-10 13:51:05.59	315.06	17.98	-24.7	-26.2	17.2	0.00e+00	0	42	0	2823815168	9	4246
2026-01-10 13:51:06.59	315.23	17.89	-24.7	-26.1	17.2	0.00e+00	0	42	0	2829058048	9	4229
2026-01-10 13:51:07.60	315.39	17.81	-24.8	-26.2	17.2	0.00e+00	0	42	0	2835349504	9	4246
2026-01-10 13:51:08.61	315.56	17.72	-24.7	-26.1	17.2	0.00e+00	0	42	0	2840592384	9	4227
2026-01-10 13:51:09.61	315.72	17.64	-24.8	-26.3	17.1	0.00e+00	0	42	0	2845835264	9	4279
2026-01-10 13:51:10.62	315.88	17.55	-24.8	-26.3	17.1	0.00e+00	0	42	0	2852126720	9	4293
2026-01-10 13:51:11.63	316.05	17.47	-24.9	-26.4	17.0	0.00e+00	0	42	0	2857369600	9	4317
2026-01-10 13:51:12.63	316.21	17.38	-24.9	-26.5	17.0	0.00e+00	0	42	0	2863661056	9	4322
2026-01-10 13:51:13.64	316.37	17.30	-24.8	-26.3	17.1	0.00e+00	0	42	0	2868903936	9	4278
2026-01-10 13:51:14.65	316.53	17.21	-24.8	-26.2	17.1	0.00e+00	0	42	0	2875195392	9	4249
2026-01-10 13:51:15.66	316.68	17.13	-24.7	-26.1	17.2	0.00e+00	0	42	0	2880438272	9	4232
2026-01-10 13:51:16.66	316.84	17.04	-24.9	-26.6	16.9	0.00e+00	0	42	0	2885681152	9	4357
2026-01-10 13:51:17.67	317.00	16.96	-25.3	-26.8	16.6	0.00e+00	0	42	0	2891972608	10	4293
2026-01-10 13:51:18.67	317.15	16.88	-25.1	-26.5	16.7	0.00e+00	0	42	0	2897215488	10	4217
2026-01-10 13:51:19.68	317.31	16.79	-25.0	-26.3	16.9	0.00e+00	0	42	0	2903506944	10	4153
2026-01-10 13:51:20.68	317.46	16.71	-24.8	-25.9	17.1	0.00e+00	0	42	0	2908749824	10	4067
2026-01-10 13:51:21.69	317.61	16.62	-24.9	-26.0	17.0	0.00e+00	0	42	0	2913992704	10	4078
2026-01-10 13:51:22.70	317.77	16.54	-24.9	-26.0	17.0	0.00e+00	0	42	0	2920284160	10	4087
2026-01-10 13:51:23.71	317.92	16.45	-24.9	-26.1	16.9	0.00e+00	0	42	0	2925527040	10	4108
2026-01-10 13:51:24.71	318.07	16.37	-24.9	-26.0	17.0	0.00e+00	0	42	0	2930769920	10	4093
2026-01-10 13:51:25.71	318.22	16.29	-25.0	-26.2	16.9	0.00e+00	0	42	0	2937061376	10	4132
2026-01-10 13:51:26.72	318.37	16.20	-24.9	-26.1	16.9	0.00e+00	0	42	0	2942304256	10	4114
2026-01-10 13:51:27.73	318.51	16.12	-25.0	-26.2	16.9	0.00e+00	0	42	0	2948595712	10	4132
2026-01-10 13:51:28.74	318.66	16.04	-25.0	-26.1	16.9	0.00e+00	0	42	0	2953838592	10	4126
2026-01-10 13:51:29.74	318.81	15.95	-25.1	-26.4	16.7	0.00e+00	0	42	0	2960130048	10	4189
2026-01-10 13:51:30.75	318.95	15.87	-25.1	-26.4	16.7	0.00e+00	0	42	0	2965372928	10	4205
2026-01-10 13:51:31.76	319.10	15.79	-25.2	-26.7	16.5	1.10e-06	0	42	0	2970615808	10	4285
2026-01-10 13:51:32.77	319.24	15.70	-25.1	-26.6	16.7	0.00e+00	0	42	0	2976907264	10	4233
2026-01-10 13:51:33.77	319.39	15.62	-25.2	-26.6	16.6	0.00e+00	0	42	0	2982150144	10	4242
2026-01-10 13:51:34.78	319.53	15.54	-25.3	-26.8	16.5	0.00e+00	0	42	0	2988441600	10	4309
2026-01-10 13:51:35.79	319.67	15.46	-25.2	-26.8	16.5	0.00e+00	0	42	0	2993684480	10	4291
2026-01-10 13:51:36.80	319.81	15.37	-25.3	-27.0	16.4	0.00e+00	0	42	0	2998927360	10	4342
2026-01-10 13:51:37.81	319.95	15.29	-25.2	-26.8	16.5	0.00e+00	0	42	0	3005218816	10	4287
2026-01-10 13:51:38.81	320.09	15.21	-25.3	-26.8	16.5	0.00e+00	0	42	0	3010461696	10	4288
2026-01-10 13:51:39.81	320.23	15.13	-25.3	-26.9	16.4	0.00e+00	0	42	0	3016753152	10	4310
2026-01-10 13:51:40.83	320.37	15.04	-25.3	-26.9	16.4	0.00e+00	0	42	0	3021996032	10	4318
2026-01-10 13:51:41.84	320.51	14.96	-25.3	-26.9	16.4	0.00e+00	0	42	0	3027238912	10	4325
2026-01-10 13:51:42.84	320.64	14.88	-25.5	-27.3	16.2	0.00e+00	0	42	0	3033530368	10	4428
2026-01-10 13:51:43.84	320.78	14.80	-25.4	-26.6	16.3	0.00e+00	0	42	0	3038773248	11	4139
2026-01-10 13:51:44.85	320.92	14.72	-25.5	-26.8	16.2	0.00e+00	0	42	0	3045064704	11	4175
2026-01-10 13:51:45.85	321.05	14.64	-25.6	-27.1	16.1	0.00e+00	0	42	0	3050307584	11	4263
2026-01-10 13:51:46.85	321.18	14.56	-25.5	-26.9	16.2	0.00e+00	0	42	0	3055550464	11	4209
2026-01-10 13:51:47.85	321.31	14.48	-25.7	-27.3	15.9	0.00e+00	0	42	0	3061841920	11	4314
2026-01-10 13:51:48.86	321.45	14.39	-25.7	-27.2	16.0	0.00e+00	0	42	0	3067084800	11	4308
2026-01-10 13:51:49.86	321.58	14.31	-25.7	-27.3	15.9	0.00e+00	0	42	0	3072327680	11	4323
2026-01-10 13:51:50.86	321.71	14.23	-26.0	-27.9	15.6	0.00e+00	0	42	0	3078619136	11	4499
2026-01-10 13:51:51.86	321.84	14.15	-25.8	-26.9	15.7	0.00e+00	0	42	0	3083862016	12	4122
2026-01-10 13:51:52.87	321.97	14.07	-25.6	-26.6	15.9	0.00e+00	0	42	0	3090153472	12	4036
2026-01-10 13:51:53.87	322.10	13.99	-25.5	-26.4	16.0	0.00e+00	0	42	0	3095396352	12	3987
2026-01-10 13:51:54.88	322.23	13.91	-25.7	-26.7	15.9	0.00e+00	0	42	0	3100639232	12	4070
2026-01-10 13:51:55.89	322.35	13.83	-25.6	-26.5	16.0	0.00e+00	0	42	0	3106930688	12	4010
2026-01-10 13:51:56.90	322.48	13.75	-25.5	-26.4	16.0	0.00e+00	0	42	0	3112173568	12	3969
2026-01-10 13:51:57.90	322.61	13.67	-25.5	-26.4	16.0	0.00e+00	0	42	0	3118465024	12	3990
2026-01-10 13:51:58.91	322.73	13.59	-25.5	-26.2	16.1	0.00e+00	0	42	0	3123707904	12	3945
2026-01-10 13:51:59.91	322.86	13.51	-25.4	-26.2	16.2	0.00e+00	0	42	0	3128950784	12	3924
2026-01-10 13:52:00.92	322.98	13.44	-25.6	-26.7	15.9	0.00e+00	0	42	0	3135242240	12	4042
2026-01-10 13:52:01.93	323.11	13.36	-25.5	-26.3	16.1	0.00e+00	0	42	0	3140485120	12	3965
2026-01-10 13:52:02.93	323.23	13.28	-25.5	-26.2	16.1	0.00e+00	0	42	0	3146776576	12	3940
2026-01-10 13:52:03.94	323.35	13.20	-25.6	-26.5	16.0	0.00e+00	0	42	0	3152019456	12	3998
2026-01-10 13:52:04.94	323.47	13.12	-25.6	-26.6	15.9	0.00e+00	0	42	0	3157262336	12	4031
2026-01-10 13:52:05.95	323.59	13.04	-25.5	-26.4	16.0	0.00e+00	0	42	0	3163553792	12	3984
2026-01-10 13:52:06.96	323.71	12.96	-25.6	-26.5	15.9	0.00e+00	0	42	0	3168796672	12	4011
2026-01-10 13:52:07.97	323.84	12.88	-25.5	-26.4	16.0	0.00e+00	0	42	0	3175088128	12	3987
2026-01-10 13:52:08.98	323.96	12.81	-25.7	-26.8	15.8	0.00e+00	0	42	0	3180331008	12	4084
2026-01-10 13:52:09.98	324.07	12.73	-25.6	-26.6	15.9	0.00e+00	0	42	0	3185573888	12	4035
2026-01-10 13:52:10.99	324.19	12.65	-25.8	-27.1	15.6	0.00e+00	0	42	0	3191865344	12	4168
2026-01-10 13:52:11.99	324.31	12.57	-25.8	-27.0	15.6	0.00e+00	0	42	0	3197108224	12	4133
2026-01-10 13:52:13.00	324.43	12.49	-25.8	-27.0	15.6	1.10e-06	0	42	0	3203399680	12	4138
2026-01-10 13:52:14.01	324.54	12.42	-26.0	-27.5	15.3	0.00e+00	0	42	0	3208642560	12	4269
2026-01-10 13:52:15.02	324.66	12.34	-25.8	-27.0	15.6	0.00e+00	0	42	0	3214934016	12	4150
2026-01-10 13:52:16.03	324.77	12.26	-25.7	-26.8	15.7	0.00e+00	0	42	0	3220176896	12	4099
2026-01-10 13:52:17.03	324.89	12.19	-25.7	-26.7	15.8	0.00e+00	0	42	0	3225419776	12	4068
2026-01-10 13:52:18.04	325.00	12.11	-25.6	-26.7	15.8	0.00e+00	0	42	0	3231711232	12	4049
2026-01-10 13:52:19.04	325.12	12.03	-25.7	-26.8	15.8	0.00e+00	0	42	0	3236954112	12	4081
2026-01-10 13:52:20.05	325.23	11.96	-25.9	-27.1	15.5	0.00e+00	0	42	0	3242196992	12	4173
2026-01-10 13:52:21.06	325.34	11.88	-25.7	-26.8	15.8	0.00e+00	0	42	0	3248488448	12	4079
2026-01-10 13:52:22.06	325.45	11.80	-25.8	-27.1	15.6	0.00e+00	0	42	0	3253731328	12	4153
2026-01-10 13:52:23.07	325.57	11.73	-25.8	-27.0	15.6	0.00e+00	0	42	0	3260022784	12	4137
2026-01-10 13:52:24.07	325.68	11.65	-25.8	-27.1	15.6	0.00e+00	0	42	0	3265265664	12	4157
2026-01-10 13:52:25.08	325.79	11.57	-26.0	-27.4	15.4	0.00e+00	0	42	0	3270508544	12	4255
2026-01-10 13:52:26.08	325.89	11.50	-25.9	-27.1	15.5	0.00e+00	0	42	0	3276800000	12	4174
2026-01-10 13:52:27.09	326.00	11.42	-26.1	-27.8	15.1	0.00e+00	0	42	0	3282042880	12	4349
2026-01-10 13:52:28.09	326.11	11.35	-26.1	-27.7	15.2	0.00e+00	0	42	0	3288334336	12	4333
2026-01-10 13:52:29.10	326.22	11.27	-26.1	-27.8	15.2	0.00e+00	0	42	0	3293577216	12	4348
2026-01-10 13:52:30.11	326.33	11.20	-26.2	-27.9	15.1	1.10e-06	0	42	0	3298820096	12	4374
2026-01-10 13:52:31.11	326.43	11.12	-26.2	-27.9	15.1	0.00e+00	0	42	0	3305111552	12	4393
2026-01-10 13:52:32.12	326.54	11.05	-26.3	-28.1	14.9	0.00e+00	0	42	0	3310354432	12	4440
2026-01-10 13:52:33.13	326.65	10.97	-26.2	-28.0	15.0	0.00e+00	0	42	0	3316645888	12	4411
2026-01-10 13:52:34.14	326.75	10.90	-26.3	-28.2	14.9	0.00e+00	0	42	0	3321888768	12	4467
2026-01-10 13:52:35.14	326.86	10.82	-26.3	-28.3	14.8	0.00e+00	0	42	0	3327131648	12	4489
2026-01-10 13:52:36.15	326.96	10.75	-26.3	-28.1	14.9	0.00e+00	0	42	0	3333423104	12	4443
2026-01-10 13:52:37.15	327.07	10.68	-26.2	-28.0	15.0	1.10e-06	0	42	0	3338665984	12	4406
2026-01-10 13:52:38.16	327.17	10.60	-26.3	-28.1	14.9	0.00e+00	0	42	0	3343908864	12	4434
2026-01-10 13:52:39.17	327.27	10.53	-26.2	-27.9	15.0	0.00e+00	0	42	0	3350200320	12	4398
2026-01-10 13:52:40.17	327.37	10.45	-26.3	-28.2	14.9	0.00e+00	0	42	0	3355443200	12	4462
2026-01-10 13:52:41.18	327.48	10.38	-26.4	-28.4	14.7	0.00e+00	0	42	0	3361734656	12	4525
2026-01-10 13:52:42.19	327.58	10.31	-26.3	-28.2	14.8	0.00e+00	0	42	0	3366977536	12	4473
2026-01-10 13:52:43.20	327.68	10.23	-26.4	-28.5	14.6	1.10e-06	0	42	0	3373268992	12	4553
2026-01-10 13:52:44.20	327.78	10.16	-26.5	-28.2	14.5	0.00e+00	0	42	0	3378511872	13	4361
2026-01-10 13:52:45.21	327.88	10.09	-26.7	-28.7	14.3	1.10e-06	0	42	0	3383754752	13	4498
2026-01-10 13:52:46.22	327.98	10.01	-26.6	-28.3	14.5	1.10e-06	0	42	0	3390046208	13	4381
2026-01-10 13:52:47.23	328.08	9.94	-26.6	-28.4	14.4	1.10e-06	0	42	0	3395289088	13	4427
2026-01-10 13:52:48.23	328.18	9.87	-26.8	-28.8	14.2	3.40e-06	0	42	0	3401580544	13	4546
2026-01-10 13:52:49.24	328.28	9.80	-26.6	-28.5	14.3	1.10e-06	0	42	0	3406823424	13	4438
2026-01-10 13:52:50.24	328.37	9.73	-27.1	-29.1	13.7	8.00e-06	0	42	0	3412066304	14	4501
2026-01-10 13:52:51.25	328.47	9.65	-26.8	-28.4	14.1	8.00e-06	0	42	0	3418357760	14	4324
2026-01-10 13:52:52.26	328.57	9.58	-26.8	-28.3	14.1	2.20e-06	0	42	0	3423600640	14	4285
2026-01-10 13:52:53.27	328.66	9.51	-26.7	-28.1	14.2	0.00e+00	0	42	0	3429892096	14	4231
2026-01-10 13:52:54.28	328.76	9.44	-26.7	-28.0	14.3	0.00e+00	0	42	0	3435134976	14	4210
2026-01-10 13:52:55.29	328.86	9.37	-26.8	-28.3	14.1	3.40e-06	0	42	0	3440377856	14	4296
2026-01-10 13:52:56.29	328.95	9.29	-26.8	-28.2	14.1	3.40e-06	0	42	0	3446669312	14	4270
2026-01-10 13:52:57.30	329.05	9.22	-26.9	-28.7	13.9	3.40e-06	0	42	0	3451912192	14	4395
2026-01-10 13:52:58.30	329.14	9.15	-26.8	-28.3	14.1	5.70e-06	0	42	0	3458203648	14	4298
2026-01-10 13:52:59.31	329.23	9.08	-26.8	-28.3	14.1	1.10e-06	0	42	0	3463446528	14	4281
2026-01-10 13:53:00.32	329.33	9.01	-26.8	-28.4	14.0	3.40e-06	0	42	0	3469737984	14	4329
2026-01-10 13:53:01.32	329.42	8.94	-26.8	-28.3	14.1	4.50e-06	0	42	0	3474980864	14	4282
2026-01-10 13:53:02.33	329.51	8.87	-26.8	-28.3	14.1	3.40e-06	0	42	0	3480223744	14	4282
2026-01-10 13:53:03.33	329.60	8.80	-27.0	-28.8	13.8	6.80e-06	0	42	0	3486515200	14	4443
2026-01-10 13:53:04.34	329.69	8.73	-26.9	-28.5	13.9	1.14e-05	0	42	0	3491758080	14	4358
2026-01-10 13:53:05.34	329.79	8.66	-27.0	-28.7	13.8	1.37e-05	0	42	0	3497000960	14	4416
2026-01-10 13:53:06.34	329.88	8.59	-26.9	-28.6	13.9	8.00e-06	0	42	0	3503292416	14	4374
2026-01-10 13:53:07.35	329.97	8.52	-27.0	-28.9	13.6	9.10e-06	0	42	0	3508535296	14	4466
2026-01-10 13:53:08.36	330.06	8.45	-26.9	-28.7	13.8	3.40e-06	0	42	0	3513778176	14	4405
2026-01-10 13:53:09.36	330.15	8.38	-26.9	-28.6	13.8	1.14e-05	0	42	0	3520069632	14	4371
2026-01-10 13:53:10.36	330.23	8.31	-27.0	-28.9	13.6	1.37e-05	0	42	0	3525312512	14	4483
2026-01-10 13:53:11.37	330.32	8.24	-27.0	-28.9	13.6	1.71e-05	0	42	0	3531603968	14	4471
2026-01-10 13:53:12.38	330.41	8.17	-27.0	-28.8	13.7	1.25e-05	0	42	0	3536846848	14	4446
2026-01-10 13:53:13.38	330.50	8.10	-27.0	-28.8	13.7	1.48e-05	0	42	0	3543138304	14	4432
2026-01-10 13:53:14.38	330.59	8.03	-27.1	-29.0	13.6	1.14e-05	0	42	0	3548381184	14	4487
2026-01-10 13:53:15.39	330.67	7.97	-27.0	-28.9	13.6	1.25e-05	0	42	0	3553624064	14	4470
2026-01-10 13:53:16.39	330.76	7.90	-27.0	-28.9	13.6	1.83e-05	0	42	0	3559915520	14	4458
2026-01-10 13:53:17.40	330.85	7.83	-27.0	-28.7	13.7	1.25e-05	0	42	0	3565158400	14	4413
2026-01-10 13:53:18.41	330.93	7.76	-26.9	-28.6	13.7	2.05e-05	0	42	0	3570401280	14	4376
2026-01-10 13:53:19.41	331.02	7.69	-27.0	-28.8	13.7	1.14e-05	0	42	0	3576692736	14	4427
2026-01-10 13:53:20.42	331.10	7.62	-27.1	-29.0	13.5	1.71e-05	0	42	0	3581935616	14	4487
2026-01-10 13:53:21.42	331.19	7.56	-27.0	-28.7	13.6	9.10e-06	0	42	0	3588227072	14	4418
2026-01-10 13:53:22.43	331.27	7.49	-27.0	-28.8	13.6	9.10e-06	0	42	0	3593469952	14	4431
2026-01-10 13:53:23.44	331.36	7.42	-27.0	-28.8	13.6	2.74e-05	0	42	0	3598712832	14	4438
2026-01-10 13:53:24.45	331.44	7.35	-27.1	-29.1	13.4	1.37e-05	0	42	0	3605004288	14	4514
2026-01-10 13:53:25.45	331.52	7.29	-27.1	-29.1	13.4	2.40e-05	0	42	0	3610247168	14	4515
2026-01-10 13:53:26.45	331.61	7.22	-27.2	-29.3	13.3	1.83e-05	0	42	0	3616538624	14	4581
2026-01-10 13:53:27.46	331.69	7.15	-27.3	-29.7	13.0	9.26e-05	0	42	0	3621781504	14	4701
2026-01-10 13:53:28.47	331.77	7.08	-32.6	-43.7	3.8	2.03e-02	0	42	0	3627024384	25	12910
2026-01-10 13:53:29.47	331.85	7.02	-32.9	-44.3	3.8	8.45e-01	0	42	104	3627024384	25	13426
2026-01-10 13:53:30.48	331.93	6.95	-33.2	-44.4	3.8	8.46e-01	0	42	104	3627024384	26	13110

#Closed at: 2026-01-10 13:53:30
#Recorded file [3627 MB]: D:/data/31010_260110_164243.dat