passes_logs/2026/01/10/R2M6_AANII_01/R2M6_AANII_01__20260110_230946_SUOMI_NPP_rec.log

#Pass ID: 20260110_230946_SUOMI NPP
#Satellite: SUOMI NPP
#Configuration: NPP
#almurnet v.1.7.20240730
#Start time: 2026-01-10 23:09:46

#Version: 2.2.20231116
#Station: R2M6_AANII_01
#Location: 30.233357 lon 59.946436 lat
#TLE: 1 37849U 11061A   26009.81756760  .00000113  00000+0  74747-4 0  9994
#TLE: 2 37849  98.7806 311.9110 0002525  72.5604 287.5848 14.19524046735974

#Time	Az	El	Level	Level2	SNR	BER	BlckErr	Temp	State	Recorded	gain1	gain2
2026-01-10 23:09:46.15	26.56	7.00	-31.3	-35.9	5.1	1.24e+00	0	39	0	0	22	6061
2026-01-10 23:09:47.14	26.64	7.07	-32.1	-38.6	4.4	1.38e+00	0	39	104	0	24	7681
2026-01-10 23:09:48.15	26.71	7.14	-32.0	-38.2	5.8	4.37e-01	0	39	0	0	24	7337
2026-01-10 23:09:49.15	26.79	7.20	-32.0	-37.8	6.2	2.69e-01	0	40	0	1048576	24	7011
2026-01-10 23:09:50.16	26.86	7.27	-32.1	-38.3	5.9	3.67e-01	0	40	0	3145728	24	7374
2026-01-10 23:09:51.16	26.94	7.34	-31.9	-37.3	6.6	3.15e-01	0	40	0	5242880	24	6686
2026-01-10 23:09:52.17	27.01	7.41	-31.9	-37.4	6.9	1.78e-01	0	40	0	7340032	23	6806
2026-01-10 23:09:53.17	27.09	7.48	-31.6	-36.2	7.8	9.96e-02	0	40	0	9437184	23	6107
2026-01-10 23:09:54.18	27.17	7.55	-31.4	-35.3	8.5	5.58e-02	0	40	0	10485760	23	5623
2026-01-10 23:09:55.19	27.25	7.62	-31.3	-35.4	8.9	3.39e-02	0	40	0	12582912	22	5745
2026-01-10 23:09:56.19	27.32	7.69	-31.1	-34.5	9.5	1.43e-02	0	40	0	14680064	22	5339
2026-01-10 23:09:57.20	27.40	7.76	-30.9	-34.0	9.9	9.07e-03	0	40	0	16777216	22	5095
2026-01-10 23:09:58.21	27.48	7.83	-30.8	-33.8	10.5	6.19e-03	0	40	0	18874368	21	5124
2026-01-10 23:09:59.21	27.56	7.90	-30.8	-34.0	10.3	6.22e-03	0	40	0	19922944	21	5220
2026-01-10 23:10:00.22	27.64	7.97	-30.5	-33.6	10.8	3.07e-03	0	40	0	22020096	20	5107
2026-01-10 23:10:01.22	27.72	8.04	-30.4	-33.0	11.1	1.62e-03	0	40	0	24117248	20	4898
2026-01-10 23:10:02.23	27.80	8.11	-30.4	-33.1	11.4	9.23e-04	0	40	0	26214400	20	4911
2026-01-10 23:10:03.24	27.88	8.19	-30.3	-33.0	11.3	8.80e-04	0	40	0	28311552	20	4878
2026-01-10 23:10:04.24	27.96	8.26	-30.3	-32.7	11.5	6.42e-04	0	40	0	29360128	20	4759
2026-01-10 23:10:05.25	28.04	8.33	-30.0	-31.9	12.3	3.58e-04	0	40	0	31457280	20	4494
2026-01-10 23:10:06.25	28.12	8.40	-30.0	-31.8	12.3	1.88e-04	0	40	0	33554432	20	4448
2026-01-10 23:10:07.26	28.20	8.47	-30.1	-32.2	12.1	2.17e-04	0	40	0	35651584	20	4574
2026-01-10 23:10:08.26	28.28	8.54	-30.0	-31.8	12.3	1.90e-04	0	40	0	37748736	20	4452
2026-01-10 23:10:09.27	28.37	8.62	-30.1	-32.1	12.2	9.14e-04	0	40	0	38797312	20	4538
2026-01-10 23:10:10.27	28.45	8.69	-29.9	-31.6	12.5	2.01e-04	0	40	0	40894464	20	4361
2026-01-10 23:10:11.27	28.53	8.76	-29.8	-31.3	12.7	1.20e-04	0	40	0	42991616	20	4292
2026-01-10 23:10:12.28	28.62	8.83	-29.9	-32.1	12.6	9.53e-05	0	40	0	45088768	19	4603
2026-01-10 23:10:13.29	28.70	8.90	-29.8	-31.9	12.7	5.90e-04	0	40	0	46137344	19	4539
2026-01-10 23:10:14.29	28.78	8.98	-29.9	-32.0	12.7	7.93e-05	0	40	0	48234496	19	4587
2026-01-10 23:10:15.29	28.87	9.05	-29.9	-31.7	12.5	8.08e-05	0	40	0	50331648	20	4393
2026-01-10 23:10:16.30	28.95	9.12	-30.1	-32.0	12.2	7.63e-04	0	40	0	52428800	20	4523
2026-01-10 23:10:17.31	29.04	9.20	-30.0	-31.8	12.4	1.50e-04	0	40	0	54525952	20	4422
2026-01-10 23:10:18.31	29.13	9.27	-30.0	-31.9	12.3	1.54e-04	0	40	0	56623104	20	4484
2026-01-10 23:10:19.31	29.21	9.34	-30.1	-32.2	12.1	1.24e-03	0	40	0	57671680	20	4580
2026-01-10 23:10:20.32	29.30	9.42	-30.1	-32.1	12.3	1.91e-04	0	40	0	59768832	20	4556
2026-01-10 23:10:21.33	29.39	9.49	-30.1	-32.2	12.2	2.43e-04	0	40	0	61865984	20	4577
2026-01-10 23:10:22.34	29.48	9.57	-30.1	-32.1	12.2	1.84e-04	0	40	0	63963136	20	4532
2026-01-10 23:10:23.34	29.56	9.64	-30.2	-32.3	12.1	2.07e-04	0	41	0	65011712	20	4595
2026-01-10 23:10:24.34	29.65	9.71	-30.2	-32.4	12.1	1.16e-03	0	40	0	67108864	20	4622
2026-01-10 23:10:25.35	29.74	9.79	-29.9	-31.7	12.6	1.76e-04	0	40	0	69206016	20	4384
2026-01-10 23:10:26.35	29.83	9.86	-30.0	-31.8	12.5	1.08e-04	0	40	0	71303168	20	4437
2026-01-10 23:10:27.36	29.92	9.94	-30.0	-31.7	12.5	1.18e-03	0	40	0	73400320	20	4408
2026-01-10 23:10:28.37	30.01	10.01	-30.0	-32.1	12.7	1.01e-04	0	41	0	74448896	19	4617
2026-01-10 23:10:29.37	30.10	10.09	-29.9	-31.5	12.6	8.08e-05	0	41	0	76546048	20	4330
2026-01-10 23:10:30.38	30.19	10.17	-29.9	-31.6	12.7	1.24e-03	0	41	0	78643200	20	4355
2026-01-10 23:10:31.37	30.28	10.24	-29.8	-31.7	12.9	9.76e-04	0	41	0	80740352	19	4464
2026-01-10 23:10:32.38	30.38	10.32	-29.7	-31.4	13.2	3.96e-05	0	41	0	82837504	19	4363
2026-01-10 23:10:33.39	30.47	10.39	-29.7	-31.5	13.0	9.06e-04	0	41	0	83886080	19	4415
2026-01-10 23:10:34.40	30.56	10.47	-29.8	-31.7	13.1	8.44e-04	0	41	0	85983232	19	4472
2026-01-10 23:10:35.40	30.65	10.54	-29.8	-31.7	13.0	3.20e-05	0	41	0	88080384	19	4490
2026-01-10 23:10:36.41	30.75	10.62	-29.6	-31.1	13.3	7.62e-04	0	41	0	90177536	19	4281
2026-01-10 23:10:37.41	30.84	10.70	-29.5	-30.9	13.5	7.74e-04	0	41	0	92274688	19	4221
2026-01-10 23:10:38.42	30.94	10.78	-29.8	-31.7	13.0	1.52e-05	0	41	0	93323264	19	4491
2026-01-10 23:10:39.42	31.03	10.85	-29.7	-31.4	13.2	9.51e-04	0	41	0	95420416	19	4392
2026-01-10 23:10:40.42	31.13	10.93	-29.7	-31.4	13.2	1.04e-03	0	41	0	97517568	19	4364
2026-01-10 23:10:41.43	31.22	11.01	-29.8	-31.5	13.1	2.36e-05	0	41	0	99614720	19	4415
2026-01-10 23:10:42.43	31.32	11.08	-29.9	-31.8	12.9	5.01e-04	0	41	0	101711872	19	4512
2026-01-10 23:10:43.44	31.42	11.16	-29.8	-31.5	13.2	1.08e-03	0	41	0	102760448	19	4407
2026-01-10 23:10:44.45	31.52	11.24	-29.8	-31.7	13.1	2.21e-05	0	41	0	104857600	19	4471
2026-01-10 23:10:45.45	31.61	11.32	-29.9	-31.9	13.0	9.87e-04	0	41	0	106954752	19	4518
2026-01-10 23:10:46.46	31.71	11.40	-29.9	-31.8	13.0	9.38e-04	0	41	0	109051904	19	4497
2026-01-10 23:10:47.47	31.81	11.48	-29.9	-31.9	12.9	3.35e-05	0	41	0	111149056	19	4540
2026-01-10 23:10:48.48	31.91	11.55	-30.0	-31.6	12.8	9.12e-04	0	41	0	112197632	20	4344
2026-01-10 23:10:49.48	32.01	11.63	-29.9	-31.4	12.9	5.18e-05	0	41	0	114294784	20	4274
2026-01-10 23:10:50.49	32.11	11.71	-29.8	-31.2	13.1	4.73e-05	0	41	0	116391936	20	4212
2026-01-10 23:10:51.49	32.22	11.79	-30.0	-31.6	12.7	9.60e-04	0	41	0	118489088	20	4341
2026-01-10 23:10:52.50	32.32	11.87	-29.9	-31.3	13.0	5.18e-05	0	41	0	120586240	20	4253
2026-01-10 23:10:53.51	32.42	11.95	-29.9	-31.6	12.8	7.17e-05	0	41	0	121634816	20	4337
2026-01-10 23:10:54.51	32.52	12.03	-30.0	-31.8	12.7	7.35e-04	0	41	0	123731968	20	4400
2026-01-10 23:10:55.51	32.63	12.11	-29.9	-31.5	12.9	6.96e-04	0	41	0	125829120	20	4315
2026-01-10 23:10:56.52	32.73	12.19	-29.9	-31.5	12.9	6.17e-05	0	41	0	127926272	20	4319
2026-01-10 23:10:57.52	32.83	12.27	-29.8	-31.1	13.1	6.48e-04	0	41	0	130023424	20	4180
2026-01-10 23:10:58.52	32.94	12.35	-29.9	-31.8	13.1	6.88e-04	0	41	0	131072000	19	4494
2026-01-10 23:10:59.53	33.05	12.43	-29.9	-31.3	13.0	3.50e-05	0	41	0	133169152	20	4252
2026-01-10 23:11:00.53	33.15	12.51	-29.9	-31.8	13.0	2.28e-05	0	41	0	135266304	19	4508
2026-01-10 23:11:01.54	33.26	12.59	-29.7	-31.3	13.4	4.87e-04	0	41	0	137363456	19	4318
2026-01-10 23:11:02.54	33.36	12.67	-29.9	-31.8	13.2	1.22e-05	0	41	0	139460608	19	4504
2026-01-10 23:11:03.55	33.47	12.75	-29.8	-31.6	13.2	2.59e-05	0	41	0	140509184	19	4427
2026-01-10 23:11:04.56	33.58	12.84	-29.7	-31.4	13.3	2.05e-05	0	41	0	142606336	19	4361
2026-01-10 23:11:05.56	33.69	12.92	-29.7	-31.4	13.4	1.22e-05	0	41	0	144703488	19	4359
2026-01-10 23:11:06.57	33.80	13.00	-29.7	-31.3	13.4	9.90e-06	0	41	0	146800640	19	4320
2026-01-10 23:11:07.57	33.91	13.08	-29.8	-31.6	13.4	1.29e-05	0	41	0	148897792	19	4410
2026-01-10 23:11:08.57	34.02	13.16	-29.8	-31.5	13.4	2.44e-05	0	41	0	149946368	19	4399
2026-01-10 23:11:09.58	34.13	13.25	-29.9	-31.9	13.1	1.75e-05	0	41	0	152043520	19	4512
2026-01-10 23:11:10.58	34.24	13.33	-30.1	-31.8	12.7	4.11e-05	0	41	0	154140672	20	4415
2026-01-10 23:11:11.58	34.36	13.41	-30.1	-31.9	12.8	6.02e-05	0	41	0	156237824	20	4427
2026-01-10 23:11:12.58	34.47	13.49	-30.0	-31.7	12.8	3.43e-04	0	41	0	158334976	20	4364
2026-01-10 23:11:13.59	34.58	13.58	-30.1	-31.9	12.7	5.41e-05	0	41	0	159383552	20	4453
2026-01-10 23:11:14.59	34.70	13.66	-30.1	-31.9	12.7	8.54e-05	0	41	0	161480704	20	4441
2026-01-10 23:11:15.60	34.81	13.74	-30.2	-32.2	12.5	3.12e-04	0	41	0	163577856	20	4525
2026-01-10 23:11:16.60	34.93	13.83	-30.2	-32.1	12.6	1.07e-04	0	41	0	165675008	20	4500
2026-01-10 23:11:17.60	35.04	13.91	-30.2	-32.1	12.6	7.85e-05	0	41	0	167772160	20	4489
2026-01-10 23:11:18.61	35.16	14.00	-30.1	-32.0	12.7	1.21e-04	0	41	0	168820736	20	4454
2026-01-10 23:11:19.61	35.28	14.08	-30.2	-32.2	12.6	8.69e-05	0	41	0	170917888	20	4529
2026-01-10 23:11:20.62	35.39	14.17	-30.5	-32.9	12.1	1.59e-04	0	41	0	173015040	20	4767
2026-01-10 23:11:21.63	35.51	14.25	-30.4	-32.3	12.1	3.49e-04	0	41	0	175112192	21	4484
2026-01-10 23:11:22.63	35.63	14.33	-30.0	-31.2	12.8	1.43e-04	0	41	0	176160768	21	4121
2026-01-10 23:11:23.63	35.75	14.42	-30.0	-31.1	13.0	4.19e-05	0	41	0	178257920	21	4075
2026-01-10 23:11:24.63	35.87	14.50	-30.0	-31.0	13.1	5.11e-05	0	41	0	180355072	21	4049
2026-01-10 23:11:25.64	35.99	14.59	-29.9	-31.4	13.1	3.73e-05	0	41	0	182452224	20	4275
2026-01-10 23:11:26.65	36.12	14.68	-30.0	-31.5	13.0	4.19e-05	0	41	0	184549376	20	4307
2026-01-10 23:11:27.66	36.24	14.76	-30.2	-32.1	12.6	4.11e-05	0	41	0	186646528	20	4477
2026-01-10 23:11:28.67	36.36	14.85	-30.1	-31.8	12.9	6.02e-05	0	41	0	187695104	20	4384
2026-01-10 23:11:29.67	36.49	14.93	-30.2	-32.0	12.7	5.64e-05	0	41	0	189792256	20	4464
2026-01-10 23:11:30.67	36.61	15.02	-30.1	-31.9	12.8	8.39e-05	0	41	0	191889408	20	4420
2026-01-10 23:11:31.68	36.74	15.11	-30.2	-32.1	12.7	7.47e-05	0	41	0	193986560	20	4484
2026-01-10 23:11:32.68	36.86	15.19	-30.1	-31.9	12.7	4.88e-05	0	41	0	195035136	20	4435
2026-01-10 23:11:33.68	36.99	15.28	-30.1	-32.1	12.5	7.55e-05	0	41	0	197132288	20	4538
2026-01-10 23:11:34.69	37.12	15.37	-30.3	-32.4	12.5	1.20e-04	0	41	0	199229440	20	4573
2026-01-10 23:11:35.70	37.25	15.46	-30.2	-32.1	12.7	7.70e-05	0	41	0	201326592	20	4501
2026-01-10 23:11:36.71	37.38	15.54	-30.2	-32.2	12.6	1.01e-04	0	41	0	203423744	20	4508
2026-01-10 23:11:37.72	37.51	15.63	-30.2	-32.1	12.8	7.93e-05	0	41	0	204472320	20	4486
2026-01-10 23:11:38.72	37.64	15.72	-30.1	-31.9	12.9	5.11e-05	0	41	0	206569472	20	4407
2026-01-10 23:11:39.73	37.77	15.81	-30.1	-31.9	12.8	7.32e-05	0	41	0	208666624	20	4426
2026-01-10 23:11:40.74	37.90	15.90	-30.2	-32.1	12.7	4.50e-05	0	41	0	210763776	20	4467
2026-01-10 23:11:41.74	38.03	15.98	-30.2	-32.1	12.6	6.71e-05	0	41	0	212860928	20	4494
2026-01-10 23:11:42.75	38.17	16.07	-30.2	-32.0	12.8	8.39e-05	0	41	0	214958080	20	4439
2026-01-10 23:11:43.75	38.30	16.16	-30.1	-31.9	12.8	5.79e-05	0	41	0	216006656	20	4403
2026-01-10 23:11:44.76	38.44	16.25	-30.1	-31.9	12.9	5.49e-05	0	41	0	218103808	20	4415
2026-01-10 23:11:45.77	38.58	16.34	-30.2	-32.0	12.8	6.79e-05	0	41	0	220200960	20	4450
2026-01-10 23:11:46.77	38.71	16.43	-30.1	-31.9	12.8	6.25e-05	0	41	0	222298112	20	4422
2026-01-10 23:11:47.78	38.85	16.52	-30.2	-32.2	12.7	5.03e-05	0	41	0	223346688	20	4517
2026-01-10 23:11:48.78	38.99	16.61	-30.2	-32.0	12.9	7.01e-05	0	41	0	225443840	20	4442
2026-01-10 23:11:49.79	39.13	16.70	-30.2	-32.0	12.8	5.87e-05	0	41	0	227540992	20	4460
2026-01-10 23:11:50.80	39.27	16.79	-30.4	-32.6	12.5	7.78e-05	0	41	0	229638144	20	4647
2026-01-10 23:11:51.80	39.41	16.88	-30.2	-32.1	12.8	1.86e-04	0	41	0	231735296	20	4462
2026-01-10 23:11:52.81	39.55	16.97	-30.0	-31.4	13.2	4.11e-05	0	41	0	232783872	20	4263
2026-01-10 23:11:53.81	39.69	17.06	-29.7	-30.6	13.8	1.37e-05	0	41	0	234881024	20	4011
2026-01-10 23:11:54.81	39.83	17.15	-29.8	-30.8	13.7	9.10e-06	0	42	0	236978176	20	4075
2026-01-10 23:11:55.82	39.98	17.24	-29.7	-30.6	13.7	4.50e-06	0	41	0	239075328	20	4014
2026-01-10 23:11:56.82	40.12	17.33	-29.8	-30.9	13.6	9.10e-06	0	42	0	241172480	20	4095
2026-01-10 23:11:57.82	40.27	17.42	-29.6	-30.5	13.8	9.90e-06	0	41	0	242221056	20	3986
2026-01-10 23:11:58.83	40.41	17.51	-29.5	-30.3	14.0	6.80e-06	0	41	0	244318208	20	3911
2026-01-10 23:11:59.84	40.56	17.61	-29.5	-30.1	14.1	4.27e-05	0	41	0	246415360	20	3875
2026-01-10 23:12:00.84	40.71	17.70	-29.5	-30.3	14.1	9.10e-06	0	41	0	248512512	20	3909
2026-01-10 23:12:01.85	40.86	17.79	-29.5	-30.2	14.1	3.00e-06	0	41	0	250609664	20	3893
2026-01-10 23:12:02.85	41.01	17.88	-29.5	-30.1	14.1	2.20e-06	0	41	0	251658240	20	3873
2026-01-10 23:12:03.85	41.16	17.97	-29.7	-30.5	13.8	1.22e-05	0	41	0	253755392	20	3988
2026-01-10 23:12:04.86	41.31	18.07	-29.6	-30.3	14.0	7.00e-07	0	41	0	255852544	20	3924
2026-01-10 23:12:05.87	41.47	18.16	-29.5	-30.6	14.2	2.20e-06	0	42	0	257949696	19	4088
2026-01-10 23:12:06.88	41.62	18.25	-29.5	-30.6	14.2	1.14e-04	0	41	0	260046848	19	4071
2026-01-10 23:12:07.88	41.77	18.34	-29.5	-30.5	14.3	7.00e-07	0	41	0	261095424	19	4056
2026-01-10 23:12:08.88	41.93	18.44	-29.4	-30.3	14.4	3.07e-04	0	42	0	263192576	19	3999
2026-01-10 23:12:09.89	42.09	18.53	-29.6	-30.8	14.1	3.33e-04	0	41	0	265289728	19	4136
2026-01-10 23:12:10.89	42.24	18.62	-29.4	-30.4	14.3	0.00e+00	0	42	0	267386880	19	4023
2026-01-10 23:12:11.90	42.40	18.72	-29.5	-30.5	14.3	9.15e-05	0	41	0	269484032	19	4057
2026-01-10 23:12:12.91	42.56	18.81	-29.4	-30.2	14.4	4.34e-05	0	41	0	270532608	19	3973
2026-01-10 23:12:13.92	42.72	18.91	-29.4	-30.3	14.5	7.00e-07	0	41	0	272629760	19	4008
2026-01-10 23:12:14.92	42.88	19.00	-29.2	-29.8	14.7	3.35e-05	0	41	0	274726912	19	3856
2026-01-10 23:12:15.92	43.04	19.09	-29.4	-30.2	14.5	2.67e-05	0	41	0	276824064	19	3974
2026-01-10 23:12:16.92	43.21	19.19	-29.2	-29.9	14.7	0.00e+00	0	42	0	278921216	19	3892
2026-01-10 23:12:17.92	43.37	19.28	-29.1	-29.6	14.9	0.00e+00	0	42	0	279969792	19	3802
2026-01-10 23:12:18.92	43.53	19.37	-29.2	-29.7	14.8	0.00e+00	0	42	0	282066944	19	3845
2026-01-10 23:12:19.92	43.70	19.47	-29.4	-30.3	14.5	0.00e+00	0	42	0	284164096	19	3987
2026-01-10 23:12:20.92	43.86	19.56	-29.1	-29.6	14.9	0.00e+00	0	42	0	286261248	19	3797
2026-01-10 23:12:21.93	44.03	19.66	-29.0	-29.2	15.2	7.00e-07	0	42	0	288358400	19	3703
2026-01-10 23:12:22.93	44.20	19.75	-29.0	-29.2	15.2	0.00e+00	0	42	0	289406976	19	3706
2026-01-10 23:12:23.94	44.37	19.85	-28.9	-29.0	15.3	0.00e+00	0	42	0	291504128	19	3645
2026-01-10 23:12:24.94	44.54	19.94	-28.9	-29.5	15.3	0.00e+00	0	41	0	293601280	18	3873
2026-01-10 23:12:25.94	44.71	20.04	-28.8	-29.2	15.5	0.00e+00	0	42	0	295698432	18	3787
2026-01-10 23:12:26.94	44.89	20.13	-28.9	-29.6	15.2	0.00e+00	0	42	0	296747008	18	3901
2026-01-10 23:12:27.95	45.06	20.23	-28.8	-29.2	15.4	0.00e+00	0	42	0	298844160	18	3787
2026-01-10 23:12:28.95	45.24	20.32	-28.7	-29.0	15.6	0.00e+00	0	42	0	300941312	18	3733
2026-01-10 23:12:29.96	45.41	20.42	-28.9	-29.5	15.2	0.00e+00	0	42	0	303038464	18	3872
2026-01-10 23:12:30.97	45.59	20.52	-28.7	-29.1	15.6	0.00e+00	0	42	0	305135616	18	3756
2026-01-10 23:12:31.97	45.77	20.61	-28.7	-28.9	15.6	0.00e+00	0	41	0	306184192	18	3719
2026-01-10 23:12:32.98	45.95	20.71	-28.6	-28.9	15.7	0.00e+00	0	42	0	308281344	18	3705
2026-01-10 23:12:33.99	46.13	20.80	-28.7	-29.1	15.6	0.00e+00	0	42	0	310378496	18	3760
2026-01-10 23:12:35.00	46.31	20.90	-28.4	-28.4	15.9	0.00e+00	0	42	0	312475648	18	3579
2026-01-10 23:12:36.01	46.50	21.00	-28.7	-28.9	15.6	7.00e-07	0	42	0	314572800	18	3709
2026-01-10 23:12:37.01	46.68	21.09	-28.8	-29.4	15.4	0.00e+00	0	42	0	316669952	18	3830
2026-01-10 23:12:38.02	46.87	21.19	-28.8	-29.3	15.4	0.00e+00	0	42	0	317718528	18	3811
2026-01-10 23:12:39.02	47.05	21.29	-28.7	-29.1	15.6	9.15e-05	0	42	0	319815680	18	3752
2026-01-10 23:12:40.03	47.24	21.38	-28.8	-29.3	15.5	0.00e+00	0	42	0	321912832	18	3801
2026-01-10 23:12:41.03	47.43	21.48	-29.0	-29.7	15.2	0.00e+00	0	42	0	324009984	18	3913
2026-01-10 23:12:42.04	47.62	21.58	-28.9	-29.4	15.4	4.19e-05	0	42	0	325058560	18	3834
2026-01-10 23:12:43.05	47.81	21.67	-29.0	-29.7	15.2	0.00e+00	0	42	0	327155712	18	3916
2026-01-10 23:12:44.05	48.00	21.77	-29.1	-29.9	15.1	0.00e+00	0	42	0	329252864	18	3964
2026-01-10 23:12:45.07	48.20	21.87	-29.5	-30.5	14.4	7.00e-07	0	42	0	331350016	19	4042
2026-01-10 23:12:46.06	48.39	21.96	-29.2	-29.7	14.9	4.61e-04	0	41	0	333447168	19	3830
2026-01-10 23:12:47.07	48.58	22.06	-29.1	-29.6	15.0	0.00e+00	0	42	0	334495744	19	3795
2026-01-10 23:12:48.08	48.78	22.16	-29.1	-29.9	15.2	0.00e+00	0	42	0	336592896	18	3968
2026-01-10 23:12:49.08	48.98	22.26	-29.3	-30.4	14.8	0.00e+00	0	42	0	338690048	18	4109
2026-01-10 23:12:50.09	49.18	22.35	-29.5	-30.5	14.4	2.20e-06	0	42	0	340787200	19	4044
2026-01-10 23:12:51.09	49.38	22.45	-29.6	-30.8	14.3	7.00e-07	0	42	0	342884352	19	4136
2026-01-10 23:12:52.10	49.58	22.55	-29.7	-31.0	14.2	7.00e-07	0	42	0	343932928	19	4188
2026-01-10 23:12:53.10	49.78	22.64	-29.7	-31.0	14.2	0.00e+00	0	42	0	346030080	19	4170
2026-01-10 23:12:54.10	49.99	22.74	-29.7	-31.0	14.2	1.50e-06	0	42	0	348127232	19	4194
2026-01-10 23:12:55.11	50.19	22.84	-29.5	-30.6	14.5	0.00e+00	0	42	0	350224384	19	4058
2026-01-10 23:12:56.12	50.40	22.94	-29.4	-30.1	14.7	0.00e+00	0	42	0	352321536	19	3939
2026-01-10 23:12:57.13	50.61	23.03	-29.4	-30.3	14.6	7.00e-07	0	42	0	353370112	19	3976
2026-01-10 23:12:58.14	50.82	23.13	-29.5	-30.4	14.5	1.50e-06	0	42	0	355467264	19	4004
2026-01-10 23:12:59.15	51.03	23.23	-29.3	-30.0	14.8	0.00e+00	0	42	0	357564416	19	3898
2026-01-10 23:13:00.15	51.24	23.33	-28.9	-29.6	14.9	0.00e+00	0	42	0	359661568	19	3880
2026-01-10 23:13:01.16	51.46	23.42	-29.2	-29.7	15.0	0.00e+00	0	42	0	361758720	19	3809
2026-01-10 23:13:02.16	51.67	23.52	-29.4	-30.2	14.6	7.00e-07	0	42	0	362807296	19	3955
2026-01-10 23:13:03.17	51.89	23.62	-29.3	-29.9	14.7	0.00e+00	0	42	0	364904448	19	3882
2026-01-10 23:13:04.17	52.10	23.71	-29.3	-29.9	14.9	0.00e+00	0	42	0	367001600	19	3868
2026-01-10 23:13:05.18	52.32	23.81	-29.5	-30.5	14.3	0.00e+00	0	42	0	369098752	19	4041
2026-01-10 23:13:06.19	52.54	23.91	-29.4	-30.9	14.6	3.52e-04	0	42	0	371195904	18	4237
2026-01-10 23:13:07.19	52.76	24.00	-29.5	-30.5	14.5	7.00e-07	0	42	0	372244480	19	4033
2026-01-10 23:13:08.20	52.99	24.10	-29.3	-29.9	14.9	7.00e-07	0	42	0	374341632	19	3878
2026-01-10 23:13:09.20	53.21	24.20	-29.1	-30.0	15.1	7.00e-07	0	42	0	376438784	18	3988
2026-01-10 23:13:10.21	53.43	24.29	-28.9	-29.5	15.4	0.00e+00	0	42	0	378535936	18	3844
2026-01-10 23:13:11.22	53.66	24.39	-28.8	-29.4	15.5	0.00e+00	0	42	0	380633088	18	3814
2026-01-10 23:13:12.23	53.89	24.49	-29.0	-29.7	15.3	0.00e+00	0	42	0	381681664	18	3898
2026-01-10 23:13:13.23	54.12	24.58	-28.8	-29.3	15.6	0.00e+00	0	42	0	383778816	18	3796
2026-01-10 23:13:14.24	54.35	24.68	-28.8	-29.1	15.7	0.00e+00	0	42	0	385875968	18	3756
2026-01-10 23:13:15.24	54.58	24.78	-28.7	-28.9	15.8	7.00e-07	0	42	0	387973120	18	3694
2026-01-10 23:13:16.25	54.81	24.87	-28.9	-29.5	15.4	0.00e+00	0	42	0	390070272	18	3857
2026-01-10 23:13:17.26	55.05	24.97	-29.0	-29.8	15.3	1.44e-05	0	42	0	391118848	18	3928
2026-01-10 23:13:18.26	55.29	25.06	-29.2	-30.1	15.1	7.00e-07	0	42	0	393216000	18	4021
2026-01-10 23:13:19.26	55.52	25.16	-29.4	-30.7	14.8	0.00e+00	0	42	0	395313152	18	4183
2026-01-10 23:13:20.26	55.76	25.25	-29.7	-31.1	14.2	0.00e+00	0	42	0	397410304	19	4202
2026-01-10 23:13:21.27	56.00	25.35	-29.6	-30.8	14.4	2.20e-06	0	42	0	399507456	19	4125
2026-01-10 23:13:22.27	56.24	25.44	-29.6	-30.9	14.3	2.20e-06	0	42	0	400556032	19	4138
2026-01-10 23:13:23.28	56.49	25.54	-29.5	-30.5	14.6	7.00e-07	0	42	0	402653184	19	4023
2026-01-10 23:13:24.28	56.73	25.63	-29.4	-30.1	14.8	0.00e+00	0	42	0	404750336	19	3928
2026-01-10 23:13:25.29	56.98	25.73	-29.4	-30.2	14.8	7.00e-07	0	42	0	406847488	19	3952
2026-01-10 23:13:26.29	57.22	25.82	-29.2	-29.7	15.1	0.00e+00	0	42	0	408944640	19	3807
2026-01-10 23:13:27.30	57.47	25.91	-29.2	-29.7	14.8	0.00e+00	0	42	0	409993216	19	3821
2026-01-10 23:13:28.31	57.72	26.01	-29.3	-29.8	15.0	0.00e+00	0	42	0	412090368	19	3850
2026-01-10 23:13:29.31	57.97	26.10	-29.3	-30.0	14.9	0.00e+00	0	42	0	414187520	19	3901
2026-01-10 23:13:30.31	58.23	26.19	-29.3	-30.0	14.9	0.00e+00	0	42	0	416284672	19	3884
2026-01-10 23:13:31.32	58.48	26.29	-29.4	-30.1	14.8	0.00e+00	0	42	0	418381824	19	3920
2026-01-10 23:13:32.33	58.74	26.38	-29.2	-29.8	15.0	0.00e+00	0	42	0	419430400	19	3840
2026-01-10 23:13:33.34	59.00	26.47	-29.3	-29.8	15.0	7.00e-07	0	42	0	421527552	19	3846
2026-01-10 23:13:34.34	59.26	26.56	-29.5	-30.3	14.7	0.00e+00	0	42	0	423624704	19	3991
2026-01-10 23:13:35.34	59.52	26.66	-29.4	-30.3	14.7	2.82e-05	0	42	0	425721856	19	3976
2026-01-10 23:13:36.34	59.78	26.75	-29.3	-29.9	14.9	1.22e-04	0	42	0	427819008	19	3859
2026-01-10 23:13:37.35	60.04	26.84	-29.4	-30.2	14.8	1.50e-06	0	42	0	428867584	19	3947
2026-01-10 23:13:38.36	60.31	26.93	-29.4	-30.1	14.8	5.42e-04	0	42	0	430964736	19	3912
2026-01-10 23:13:39.37	60.57	27.02	-29.0	-29.8	15.4	7.00e-07	0	42	0	433061888	18	3928
2026-01-10 23:13:40.37	60.84	27.11	-29.2	-30.1	15.2	0.00e+00	0	42	0	435159040	18	4022
2026-01-10 23:13:41.38	61.11	27.20	-29.3	-30.5	14.9	1.24e-03	0	42	0	437256192	18	4113
2026-01-10 23:13:42.38	61.38	27.29	-29.4	-30.3	14.7	1.15e-03	0	42	0	438304768	19	3963
2026-01-10 23:13:43.39	61.66	27.38	-29.6	-30.6	14.6	0.00e+00	0	42	0	440401920	19	4056
2026-01-10 23:13:44.40	61.93	27.47	-29.7	-30.9	14.3	5.93e-04	0	42	0	442499072	19	4138
2026-01-10 23:13:45.40	62.21	27.55	-29.8	-31.1	14.3	5.05e-04	0	42	0	444596224	19	4196
2026-01-10 23:13:46.40	62.48	27.64	-29.8	-30.7	14.1	1.50e-06	0	42	0	446693376	20	4010
2026-01-10 23:13:47.41	62.76	27.73	-29.7	-30.5	14.2	3.36e-04	0	42	0	447741952	20	3948
2026-01-10 23:13:48.41	63.04	27.82	-29.6	-30.8	14.6	3.25e-04	0	42	0	449839104	19	4100
2026-01-10 23:13:49.42	63.32	27.90	-29.5	-30.5	14.6	0.00e+00	0	42	0	451936256	19	4019
2026-01-10 23:13:50.42	63.60	27.99	-29.5	-30.5	14.7	8.23e-05	0	42	0	454033408	19	4011
2026-01-10 23:13:51.42	63.89	28.07	-29.4	-30.2	14.8	1.65e-04	0	42	0	456130560	19	3948
2026-01-10 23:13:52.42	64.17	28.16	-29.5	-30.4	14.7	7.00e-07	0	42	0	457179136	19	3988
2026-01-10 23:13:53.43	64.46	28.24	-29.4	-30.1	14.8	0.00e+00	0	42	0	459276288	19	3920
2026-01-10 23:13:54.44	64.75	28.33	-29.5	-30.4	14.7	1.39e-04	0	42	0	461373440	19	4001
2026-01-10 23:13:55.44	65.04	28.41	-29.6	-30.6	14.6	7.00e-07	0	42	0	463470592	19	4058
2026-01-10 23:13:56.44	65.33	28.49	-29.5	-30.5	14.6	7.00e-07	0	42	0	464519168	19	4024
2026-01-10 23:13:57.45	65.62	28.57	-29.7	-30.9	14.4	0.00e+00	0	42	0	466616320	19	4145
2026-01-10 23:13:58.46	65.92	28.66	-29.7	-31.0	14.3	7.00e-07	0	42	0	468713472	19	4164
2026-01-10 23:13:59.46	66.22	28.74	-30.0	-31.3	13.8	2.20e-06	0	42	0	470810624	20	4179
2026-01-10 23:14:00.46	66.51	28.82	-30.1	-31.6	13.6	3.00e-06	0	42	0	472907776	20	4265
2026-01-10 23:14:01.47	66.81	28.90	-30.1	-31.6	13.5	9.10e-06	0	42	0	475004928	20	4278
2026-01-10 23:14:02.48	67.11	28.98	-30.1	-31.4	13.7	1.22e-05	0	42	0	476053504	20	4210
2026-01-10 23:14:03.48	67.42	29.06	-30.1	-31.4	13.7	6.10e-06	0	42	0	478150656	20	4215
2026-01-10 23:14:04.49	67.72	29.14	-29.9	-31.0	13.9	4.50e-06	0	42	0	480247808	20	4096
2026-01-10 23:14:05.49	68.02	29.21	-30.2	-31.8	13.4	6.10e-06	0	42	0	482344960	20	4340
2026-01-10 23:14:06.50	68.33	29.29	-30.3	-32.0	13.3	1.60e-05	0	42	0	484442112	20	4402
2026-01-10 23:14:07.51	68.64	29.37	-30.7	-32.6	12.6	5.41e-05	0	42	0	485490688	21	4508
2026-01-10 23:14:08.51	68.95	29.44	-30.7	-32.6	12.6	1.30e-04	0	42	0	487587840	21	4490
2026-01-10 23:14:09.52	69.26	29.52	-30.5	-32.2	12.8	1.01e-04	0	42	0	489684992	21	4367
2026-01-10 23:14:10.53	69.58	29.59	-30.4	-31.7	13.2	4.04e-05	0	42	0	491782144	21	4207
2026-01-10 23:14:11.54	69.89	29.67	-30.5	-32.0	13.0	5.34e-05	0	42	0	493879296	21	4294
2026-01-10 23:14:12.55	70.21	29.74	-30.5	-32.2	12.9	5.49e-05	0	42	0	494927872	21	4356
2026-01-10 23:14:13.54	70.52	29.81	-30.5	-32.1	12.9	3.66e-05	0	42	0	497025024	21	4334
2026-01-10 23:14:14.55	70.84	29.88	-30.8	-32.9	12.4	9.23e-05	0	42	0	499122176	21	4608
2026-01-10 23:14:15.56	71.16	29.95	-31.0	-33.2	11.9	2.09e-04	0	42	0	501219328	22	4591
2026-01-10 23:14:16.56	71.48	30.02	-31.1	-33.4	11.8	3.47e-04	0	42	0	503316480	22	4693
2026-01-10 23:14:17.56	71.80	30.09	-31.3	-33.8	11.5	6.98e-04	0	42	0	504365056	22	4811
2026-01-10 23:14:18.56	72.12	30.16	-31.5	-34.0	11.0	1.32e-03	0	42	0	506462208	23	4791
2026-01-10 23:14:19.56	72.45	30.22	-31.7	-34.7	10.5	2.46e-03	0	42	0	508559360	23	5085
2026-01-10 23:14:20.57	72.77	30.29	-31.9	-35.3	10.0	4.98e-03	0	42	0	510656512	23	5324
2026-01-10 23:14:21.58	73.10	30.36	-31.6	-34.5	10.6	5.68e-03	0	42	0	511705088	23	5002
2026-01-10 23:14:22.59	73.43	30.42	-31.2	-33.0	11.6	2.04e-03	0	42	0	513802240	23	4455
2026-01-10 23:14:23.59	73.76	30.48	-30.9	-32.8	12.2	2.46e-04	0	42	0	515899392	22	4481
2026-01-10 23:14:24.60	74.09	30.55	-31.1	-33.4	11.8	3.13e-04	0	42	0	517996544	22	4655
2026-01-10 23:14:25.60	74.42	30.61	-31.4	-34.1	11.3	5.84e-04	0	42	0	520093696	22	4931
2026-01-10 23:14:26.61	74.76	30.67	-31.3	-33.8	11.5	8.01e-04	0	42	0	522190848	22	4839
2026-01-10 23:14:27.62	75.10	30.73	-31.1	-33.3	11.7	5.55e-04	0	42	0	523239424	22	4634
2026-01-10 23:14:28.62	75.43	30.79	-31.2	-33.5	11.7	4.74e-04	0	42	0	525336576	22	4703
2026-01-10 23:14:29.63	75.77	30.85	-31.1	-33.3	11.8	4.81e-04	0	42	0	527433728	22	4657
2026-01-10 23:14:30.64	76.11	30.91	-31.2	-33.7	11.6	7.70e-04	0	42	0	529530880	22	4796
2026-01-10 23:14:31.64	76.45	30.96	-31.1	-33.4	11.8	9.30e-04	0	42	0	530579456	22	4691
2026-01-10 23:14:32.65	76.79	31.02	-30.9	-32.8	12.2	2.83e-04	0	42	0	532676608	22	4452
2026-01-10 23:14:33.66	77.14	31.07	-30.7	-32.1	12.6	1.08e-04	0	42	0	534773760	22	4252
2026-01-10 23:14:34.66	77.48	31.13	-30.9	-32.6	12.3	1.32e-04	0	42	0	536870912	22	4417
2026-01-10 23:14:35.66	77.82	31.18	-31.0	-33.2	11.9	2.75e-04	0	42	0	538968064	22	4593
2026-01-10 23:14:36.68	78.17	31.23	-31.4	-34.3	11.1	8.92e-04	0	42	0	540016640	22	5025
2026-01-10 23:14:37.68	78.52	31.28	-31.4	-33.8	11.1	2.18e-03	0	42	0	542113792	23	4736
2026-01-10 23:14:38.69	78.87	31.33	-31.2	-33.0	11.8	8.57e-04	0	42	0	544210944	23	4447
2026-01-10 23:14:39.69	79.21	31.38	-30.8	-32.3	12.5	1.69e-04	0	42	0	546308096	22	4305
2026-01-10 23:14:40.69	79.56	31.42	-30.6	-31.9	12.7	4.50e-05	0	42	0	548405248	22	4188
2026-01-10 23:14:41.69	79.91	31.47	-30.4	-31.3	13.1	4.04e-05	0	42	0	549453824	22	4002
2026-01-10 23:14:42.70	80.26	31.51	-30.5	-31.7	12.9	4.80e-05	0	42	0	551550976	22	4119
2026-01-10 23:14:43.71	80.62	31.56	-30.2	-31.4	13.4	4.88e-05	0	42	0	553648128	21	4121
2026-01-10 23:14:44.71	80.97	31.60	-30.0	-30.6	13.9	8.30e-06	0	42	0	555745280	21	3887
2026-01-10 23:14:45.72	81.33	31.64	-29.9	-30.6	14.0	5.30e-06	0	42	0	557842432	21	3870
2026-01-10 23:14:46.73	81.68	31.68	-30.1	-31.1	13.6	3.35e-05	0	42	0	558891008	21	4016
2026-01-10 23:14:47.73	82.04	31.72	-30.6	-32.4	12.7	4.73e-05	0	42	0	560988160	21	4437
2026-01-10 23:14:48.74	82.40	31.76	-30.8	-32.9	12.4	1.40e-04	0	42	0	563085312	21	4581
2026-01-10 23:14:49.74	82.75	31.80	-31.1	-33.3	11.8	2.67e-04	0	42	0	565182464	22	4654
2026-01-10 23:14:50.74	83.11	31.83	-31.0	-32.9	12.2	3.10e-04	0	42	0	567279616	22	4513
2026-01-10 23:14:51.75	83.47	31.87	-30.7	-32.2	12.6	1.85e-04	0	42	0	568328192	22	4281
2026-01-10 23:14:52.75	83.83	31.90	-30.5	-31.6	12.9	8.85e-05	0	42	0	570425344	22	4088
2026-01-10 23:14:53.76	84.19	31.93	-30.4	-31.3	13.1	2.89e-05	0	42	0	572522496	22	3996
2026-01-10 23:14:54.76	84.55	31.96	-30.3	-31.1	13.3	1.37e-05	0	42	0	574619648	22	3938
2026-01-10 23:14:55.77	84.92	31.99	-30.4	-31.3	13.3	1.83e-05	0	42	0	576716800	22	3984
2026-01-10 23:14:56.78	85.28	32.02	-30.7	-32.2	12.6	4.57e-05	0	42	0	577765376	22	4254
2026-01-10 23:14:57.78	85.64	32.05	-30.7	-32.2	12.6	9.38e-05	0	42	0	579862528	22	4275
2026-01-10 23:14:58.78	86.01	32.08	-30.9	-32.6	12.3	1.26e-04	0	42	0	581959680	22	4379
2026-01-10 23:14:59.79	86.37	32.10	-31.0	-33.0	12.1	3.12e-04	0	42	0	584056832	22	4517
2026-01-10 23:15:00.80	86.74	32.13	-31.2	-33.5	11.7	3.43e-04	0	42	0	586153984	22	4697
2026-01-10 23:15:01.80	87.10	32.15	-31.0	-33.1	12.0	4.30e-04	0	42	0	587202560	22	4552
2026-01-10 23:15:02.80	87.47	32.17	-31.2	-33.5	11.8	2.79e-04	0	42	0	589299712	22	4687
2026-01-10 23:15:03.81	87.84	32.19	-30.7	-32.3	12.6	2.13e-04	0	42	0	591396864	22	4281
2026-01-10 23:15:04.81	88.20	32.21	-30.4	-31.2	13.3	6.25e-05	0	42	0	593494016	22	3954
2026-01-10 23:15:05.82	88.57	32.22	-30.2	-31.3	13.5	1.14e-05	0	42	0	595591168	21	4068
2026-01-10 23:15:06.82	88.94	32.24	-30.5	-31.9	13.2	1.52e-05	0	42	0	596639744	21	4271
2026-01-10 23:15:07.83	89.31	32.26	-30.4	-31.8	13.2	2.97e-05	0	42	0	598736896	21	4230
2026-01-10 23:15:08.83	89.68	32.27	-30.5	-32.0	13.1	2.05e-05	0	42	0	600834048	21	4284
2026-01-10 23:15:09.84	90.05	32.28	-30.5	-32.0	13.1	2.13e-05	0	42	0	602931200	21	4278
2026-01-10 23:15:10.85	90.42	32.29	-30.3	-31.5	13.4	1.98e-05	0	42	0	605028352	21	4139
2026-01-10 23:15:11.85	90.79	32.30	-30.6	-32.5	12.7	2.44e-05	0	42	0	606076928	21	4438
2026-01-10 23:15:12.85	91.15	32.31	-30.5	-32.0	13.1	5.72e-05	0	42	0	608174080	21	4281
2026-01-10 23:15:13.86	91.53	32.32	-30.6	-32.3	12.8	5.11e-05	0	42	0	610271232	21	4388
2026-01-10 23:15:14.86	91.89	32.32	-30.6	-32.4	12.8	3.66e-05	0	42	0	612368384	21	4434
2026-01-10 23:15:15.87	92.27	32.33	-30.7	-32.7	12.5	5.79e-05	0	42	0	614465536	21	4517
2026-01-10 23:15:16.88	92.64	32.33	-30.6	-32.3	12.8	7.78e-05	0	42	0	615514112	21	4383
2026-01-10 23:15:17.88	93.01	32.33	-30.4	-31.9	13.1	3.89e-05	0	42	0	617611264	21	4272
2026-01-10 23:15:18.89	93.38	32.33	-30.4	-31.9	13.2	2.21e-05	0	42	0	619708416	21	4252
2026-01-10 23:15:19.89	93.75	32.33	-30.6	-32.4	12.9	4.65e-05	0	42	0	621805568	21	4410
2026-01-10 23:15:20.90	94.12	32.33	-30.6	-32.4	12.8	1.94e-04	0	42	0	623902720	21	4412
2026-01-10 23:15:21.90	94.49	32.33	-30.4	-31.9	13.2	4.50e-05	0	42	0	624951296	21	4272
2026-01-10 23:15:22.91	94.86	32.32	-30.0	-30.6	13.9	8.54e-05	0	42	0	627048448	21	3893
2026-01-10 23:15:23.92	95.23	32.32	-29.6	-30.1	14.5	7.00e-07	0	42	0	629145600	20	3841
2026-01-10 23:15:24.92	95.60	32.31	-29.4	-30.1	15.0	1.50e-06	0	42	0	631242752	19	3925
2026-01-10 23:15:25.93	95.97	32.30	-29.6	-30.7	14.6	1.31e-04	0	42	0	633339904	19	4079
2026-01-10 23:15:26.93	96.34	32.29	-30.0	-31.2	14.0	3.00e-06	0	42	0	634388480	20	4135
2026-01-10 23:15:27.94	96.71	32.28	-30.4	-32.2	13.3	9.90e-06	0	42	0	636485632	20	4447
2026-01-10 23:15:28.95	97.08	32.27	-30.4	-31.9	13.1	1.29e-05	0	42	0	638582784	21	4267
2026-01-10 23:15:29.95	97.45	32.25	-30.6	-32.3	13.0	3.50e-05	0	42	0	640679936	21	4371
2026-01-10 23:15:30.95	97.82	32.24	-30.5	-32.1	13.0	4.04e-05	0	42	0	642777088	21	4315
2026-01-10 23:15:31.95	98.18	32.22	-30.5	-32.0	13.0	3.20e-05	0	42	0	643825664	21	4277
2026-01-10 23:15:32.95	98.55	32.21	-30.8	-32.9	12.4	4.42e-05	0	42	0	645922816	21	4578
2026-01-10 23:15:33.96	98.92	32.19	-30.5	-32.0	12.9	4.73e-05	0	42	0	648019968	21	4293
2026-01-10 23:15:34.96	99.29	32.17	-30.2	-31.2	13.5	9.90e-06	0	42	0	650117120	21	4053
2026-01-10 23:15:35.97	99.65	32.15	-29.9	-30.4	14.0	1.50e-06	0	42	0	652214272	21	3811
2026-01-10 23:15:36.98	100.02	32.12	-29.9	-30.4	14.2	1.50e-06	0	42	0	653262848	21	3827
2026-01-10 23:15:37.99	100.39	32.10	-30.3	-31.5	13.5	6.10e-06	0	42	0	655360000	21	4135
2026-01-10 23:15:38.99	100.75	32.07	-30.5	-32.2	12.9	2.05e-05	0	42	0	657457152	21	4347
2026-01-10 23:15:40.00	101.12	32.05	-30.8	-33.0	12.4	1.35e-04	0	42	0	659554304	21	4615
2026-01-10 23:15:40.99	101.48	32.02	-30.8	-32.4	12.5	1.83e-04	0	42	0	660602880	22	4330
2026-01-10 23:15:42.00	101.84	31.99	-30.7	-32.2	12.5	8.46e-05	0	42	0	662700032	22	4269
2026-01-10 23:15:43.01	102.21	31.96	-30.6	-31.9	12.7	1.05e-04	0	42	0	664797184	22	4167
2026-01-10 23:15:44.01	102.57	31.93	-30.8	-32.4	12.5	1.38e-04	0	42	0	666894336	22	4340
2026-01-10 23:15:45.01	102.93	31.90	-30.8	-32.3	12.5	2.63e-04	0	42	0	668991488	22	4312
2026-01-10 23:15:46.01	103.29	31.86	-30.8	-32.4	12.4	1.33e-04	0	42	0	670040064	22	4327
2026-01-10 23:15:47.02	103.65	31.83	-30.6	-31.8	12.8	5.56e-05	0	42	0	672137216	22	4149
2026-01-10 23:15:48.03	104.01	31.79	-30.8	-32.3	12.5	4.65e-05	0	42	0	674234368	22	4301
2026-01-10 23:15:49.03	104.37	31.76	-30.5	-31.5	13.0	3.81e-05	0	42	0	676331520	22	4061
2026-01-10 23:15:50.03	104.72	31.72	-31.0	-32.9	12.1	1.87e-04	0	42	0	678428672	22	4514
2026-01-10 23:15:51.04	105.08	31.68	-31.4	-34.2	11.1	8.75e-04	0	42	0	679477248	22	4962
2026-01-10 23:15:52.04	105.43	31.64	-31.3	-33.8	11.4	1.37e-03	0	42	0	681574400	22	4839
2026-01-10 23:15:53.04	105.79	31.60	-31.0	-33.0	12.1	6.62e-04	0	42	0	683671552	22	4519
2026-01-10 23:15:54.05	106.14	31.55	-30.9	-32.6	12.2	2.06e-04	0	42	0	685768704	22	4403
2026-01-10 23:15:55.05	106.50	31.51	-31.1	-33.4	11.7	2.47e-04	0	42	0	687865856	22	4691
2026-01-10 23:15:56.06	106.85	31.46	-31.0	-33.0	12.0	2.56e-04	0	42	0	688914432	22	4536
2026-01-10 23:15:57.07	107.20	31.42	-30.9	-32.6	12.3	2.10e-04	0	42	0	691011584	22	4402
2026-01-10 23:15:58.07	107.55	31.37	-30.5	-31.4	13.0	7.78e-05	0	42	0	693108736	22	4033
2026-01-10 23:15:59.08	107.90	31.32	-30.2	-31.3	13.6	3.58e-05	0	42	0	695205888	21	4068
2026-01-10 23:16:00.09	108.25	31.27	-30.2	-31.2	13.6	2.20e-06	0	42	0	697303040	21	4039
2026-01-10 23:16:01.09	108.60	31.22	-30.5	-32.0	13.0	1.60e-05	0	42	0	698351616	21	4284
2026-01-10 23:16:02.09	108.94	31.17	-30.3	-31.6	13.3	1.29e-05	0	42	0	700448768	21	4170
2026-01-10 23:16:03.09	109.29	31.12	-30.2	-31.3	13.4	1.22e-05	0	42	0	702545920	21	4083
2026-01-10 23:16:04.09	109.63	31.07	-30.1	-31.0	13.6	3.00e-06	0	42	0	704643072	21	4008
2026-01-10 23:16:05.09	109.97	31.01	-30.0	-30.6	13.8	6.10e-06	0	42	0	706740224	21	3886
2026-01-10 23:16:06.09	110.31	30.96	-29.8	-30.7	14.2	6.10e-06	0	42	0	707788800	20	3994
2026-01-10 23:16:07.09	110.65	30.90	-29.9	-30.9	14.0	7.60e-06	0	42	0	709885952	20	4058
2026-01-10 23:16:08.09	110.99	30.84	-29.7	-30.5	14.2	1.50e-06	0	42	0	711983104	20	3934
2026-01-10 23:16:09.10	111.32	30.78	-30.0	-31.2	13.9	7.00e-07	0	42	0	714080256	20	4146
2026-01-10 23:16:10.11	111.66	30.72	-30.1	-31.5	13.6	6.10e-06	0	42	0	716177408	20	4245
2026-01-10 23:16:11.11	112.00	30.66	-30.2	-31.8	13.4	9.10e-06	0	42	0	717225984	20	4321
2026-01-10 23:16:12.12	112.33	30.60	-29.8	-30.6	14.2	9.90e-06	0	42	0	719323136	20	3970
2026-01-10 23:16:13.13	112.67	30.54	-29.6	-30.1	14.5	3.00e-06	0	42	0	721420288	20	3841
2026-01-10 23:16:14.14	113.00	30.48	-29.7	-30.6	14.2	6.80e-06	0	42	0	723517440	20	3976
2026-01-10 23:16:15.14	113.33	30.41	-30.0	-31.4	13.7	0.00e+00	0	42	0	725614592	20	4206
2026-01-10 23:16:16.15	113.66	30.35	-30.2	-31.8	13.4	6.80e-06	0	42	0	726663168	20	4332
2026-01-10 23:16:17.15	113.99	30.28	-30.3	-32.1	13.2	1.98e-05	0	42	0	728760320	20	4422
2026-01-10 23:16:18.15	114.31	30.21	-30.2	-31.8	13.3	1.98e-05	0	42	0	730857472	20	4330
2026-01-10 23:16:19.16	114.64	30.15	-29.8	-30.9	13.9	1.44e-05	0	42	0	732954624	20	4052
2026-01-10 23:16:20.16	114.96	30.08	-29.9	-31.0	14.0	3.80e-06	0	42	0	735051776	20	4089
2026-01-10 23:16:21.17	115.29	30.01	-29.9	-31.1	13.8	3.80e-06	0	42	0	736100352	20	4137
2026-01-10 23:16:22.17	115.61	29.94	-30.5	-32.3	12.7	1.83e-05	0	42	0	738197504	21	4416
2026-01-10 23:16:23.18	115.93	29.87	-30.5	-32.3	12.7	4.73e-05	0	42	0	740294656	21	4413
2026-01-10 23:16:24.19	116.25	29.80	-30.7	-32.8	12.4	1.49e-04	0	42	0	742391808	21	4565
2026-01-10 23:16:25.19	116.57	29.72	-30.6	-32.3	12.7	8.01e-05	0	42	0	743440384	21	4416
2026-01-10 23:16:26.20	116.88	29.65	-30.4	-31.9	12.9	8.54e-05	0	42	0	745537536	21	4282
2026-01-10 23:16:27.20	117.20	29.58	-30.4	-32.0	12.9	3.96e-05	0	42	0	747634688	21	4318
2026-01-10 23:16:28.21	117.51	29.50	-30.7	-32.6	12.5	1.07e-04	0	42	0	749731840	21	4514
2026-01-10 23:16:29.22	117.82	29.43	-30.5	-32.1	12.8	9.15e-05	0	42	0	751828992	21	4348
2026-01-10 23:16:30.22	118.13	29.35	-30.4	-31.9	13.0	4.57e-05	0	42	0	753926144	21	4281
2026-01-10 23:16:31.23	118.44	29.27	-30.6	-32.4	12.6	2.30e-04	0	42	0	754974720	21	4441
2026-01-10 23:16:32.24	118.75	29.20	-30.7	-32.8	12.3	3.66e-04	0	42	0	757071872	21	4575
2026-01-10 23:16:33.24	119.06	29.12	-30.5	-32.3	12.7	8.31e-05	0	42	0	759169024	21	4397
2026-01-10 23:16:34.24	119.36	29.04	-30.1	-31.2	13.6	8.31e-05	0	42	0	761266176	21	4069
2026-01-10 23:16:35.25	119.66	28.96	-30.0	-30.8	13.6	2.44e-05	0	42	0	763363328	21	3958
2026-01-10 23:16:36.25	119.96	28.88	-30.1	-31.2	13.4	8.30e-06	0	42	0	764411904	21	4067
2026-01-10 23:16:37.26	120.27	28.80	-30.3	-31.8	13.0	6.63e-05	0	42	0	766509056	21	4235
2026-01-10 23:16:38.26	120.56	28.72	-30.6	-32.5	12.5	1.07e-04	0	42	0	768606208	21	4464
2026-01-10 23:16:39.27	120.86	28.64	-30.9	-33.2	12.0	1.88e-04	0	42	0	770703360	21	4733
2026-01-10 23:16:40.27	121.16	28.56	-30.9	-33.3	12.0	4.11e-04	0	42	0	771751936	21	4743
2026-01-10 23:16:41.28	121.45	28.47	-30.5	-32.1	12.8	1.89e-04	0	42	0	773849088	21	4352
2026-01-10 23:16:42.29	121.74	28.39	-30.3	-31.7	13.1	5.34e-05	0	42	0	775946240	21	4223
2026-01-10 23:16:43.28	122.03	28.31	-30.4	-31.9	12.9	4.65e-05	0	42	0	778043392	21	4289
2026-01-10 23:16:44.29	122.32	28.22	-30.3	-31.8	13.0	2.74e-05	0	42	0	780140544	21	4243
2026-01-10 23:16:45.30	122.61	28.14	-30.3	-31.7	13.0	2.51e-05	0	42	0	782237696	21	4230
2026-01-10 23:16:46.30	122.90	28.05	-30.4	-31.9	12.9	3.58e-05	0	42	0	783286272	21	4268
2026-01-10 23:16:47.31	123.18	27.96	-30.1	-31.1	13.4	1.44e-05	0	42	0	785383424	21	4030
2026-01-10 23:16:48.32	123.47	27.88	-30.2	-31.5	13.2	1.98e-05	0	42	0	787480576	21	4153
2026-01-10 23:16:49.33	123.75	27.79	-30.6	-32.4	12.6	4.73e-05	0	42	0	789577728	21	4451
2026-01-10 23:16:50.33	124.03	27.70	-30.8	-33.0	12.1	2.70e-04	0	42	0	790626304	21	4666
2026-01-10 23:16:51.33	124.31	27.62	-31.1	-33.4	11.5	5.35e-04	0	42	0	792723456	22	4709
2026-01-10 23:16:52.34	124.59	27.53	-31.6	-34.7	10.2	2.42e-03	0	42	0	794820608	23	5110
2026-01-10 23:16:53.35	124.87	27.44	-31.6	-34.7	10.3	6.61e-03	0	42	0	796917760	23	5124
2026-01-10 23:16:54.35	125.14	27.35	-31.3	-33.5	11.1	2.39e-03	0	42	0	799014912	23	4668
2026-01-10 23:16:55.36	125.41	27.26	-31.0	-32.7	11.7	1.25e-03	0	42	0	800063488	23	4357
2026-01-10 23:16:56.36	125.68	27.17	-30.8	-32.5	12.2	4.39e-04	0	42	0	802160640	22	4372
2026-01-10 23:16:57.37	125.96	27.08	-30.7	-32.2	12.3	2.48e-04	0	42	0	804257792	22	4299
2026-01-10 23:16:58.38	126.23	26.99	-30.9	-33.0	11.9	2.97e-04	0	42	0	806354944	22	4559
2026-01-10 23:16:59.39	126.49	26.90	-31.6	-34.7	10.2	1.67e-03	0	42	0	808452096	23	5120
2026-01-10 23:17:00.40	126.76	26.81	-31.7	-35.1	9.9	7.76e-03	0	42	0	810549248	23	5303
2026-01-10 23:17:01.40	127.02	26.71	-31.7	-35.1	9.9	9.03e-03	0	42	0	811597824	23	5300
2026-01-10 23:17:02.41	127.29	26.62	-31.3	-33.6	11.0	7.03e-03	0	42	0	813694976	23	4691
2026-01-10 23:17:03.41	127.55	26.53	-30.8	-32.2	11.9	4.69e-04	0	42	0	815792128	23	4222
2026-01-10 23:17:04.42	127.81	26.44	-30.7	-32.4	12.2	2.88e-04	0	42	0	817889280	22	4366
2026-01-10 23:17:05.43	128.07	26.34	-30.6	-32.6	12.4	1.40e-04	0	42	0	818937856	21	4511
2026-01-10 23:17:06.44	128.33	26.25	-31.0	-33.6	11.7	2.62e-04	0	42	0	821035008	21	4872
2026-01-10 23:17:07.44	128.58	26.16	-31.2	-33.9	11.1	1.86e-03	0	42	0	823132160	22	4908
2026-01-10 23:17:08.45	128.84	26.06	-31.4	-34.6	10.6	2.03e-03	0	42	0	825229312	22	5192
2026-01-10 23:17:09.46	129.09	25.97	-31.2	-33.4	11.1	3.29e-03	0	42	0	827326464	23	4626
2026-01-10 23:17:10.47	129.34	25.87	-31.0	-32.6	11.6	6.11e-04	0	42	0	828375040	23	4362
2026-01-10 23:17:11.47	129.59	25.78	-30.9	-32.5	11.8	6.29e-04	0	42	0	830472192	23	4313
2026-01-10 23:17:12.48	129.84	25.68	-30.9	-32.6	11.7	6.03e-04	0	42	0	832569344	23	4332
2026-01-10 23:17:13.49	130.09	25.59	-31.6	-34.6	10.4	3.06e-03	0	42	0	834666496	23	5087
2026-01-10 23:17:14.49	130.33	25.49	-31.8	-35.6	9.5	1.15e-02	0	42	0	836763648	23	5521
2026-01-10 23:17:15.50	130.58	25.40	-31.8	-35.6	9.5	1.30e-02	0	42	0	838860800	23	5538
2026-01-10 23:17:16.50	130.82	25.30	-31.7	-35.1	9.8	1.24e-02	0	42	0	839909376	23	5300
2026-01-10 23:17:17.51	131.06	25.21	-31.3	-33.6	10.9	3.17e-03	0	42	0	842006528	23	4710
2026-01-10 23:17:18.51	131.30	25.11	-30.9	-32.3	11.8	6.98e-04	0	42	0	844103680	23	4258
2026-01-10 23:17:19.51	131.53	25.02	-30.8	-32.7	11.9	3.79e-04	0	42	0	846200832	22	4477
2026-01-10 23:17:20.52	131.77	24.92	-31.0	-33.2	11.6	3.62e-04	0	42	0	847249408	22	4648
2026-01-10 23:17:21.52	132.01	24.82	-31.1	-33.7	11.2	1.09e-03	0	42	0	849346560	22	4829
2026-01-10 23:17:22.52	132.24	24.73	-31.5	-34.8	10.5	1.94e-03	0	42	0	851443712	22	5272
2026-01-10 23:17:23.53	132.47	24.63	-31.4	-34.1	10.5	4.81e-03	0	42	0	853540864	23	4891
2026-01-10 23:17:24.54	132.70	24.53	-30.8	-32.1	11.9	8.19e-04	0	42	0	855638016	23	4195
2026-01-10 23:17:25.54	132.93	24.44	-30.2	-31.2	12.8	9.84e-05	0	42	0	856686592	22	4031
2026-01-10 23:17:26.55	133.16	24.34	-30.1	-31.0	13.3	2.36e-05	0	42	0	858783744	21	4022
2026-01-10 23:17:27.56	133.39	24.24	-30.3	-31.6	13.0	2.28e-05	0	42	0	860880896	21	4196
2026-01-10 23:17:28.56	133.61	24.15	-30.6	-32.7	12.2	9.53e-05	0	42	0	862978048	21	4565
2026-01-10 23:17:29.57	133.84	24.05	-30.8	-33.2	11.9	2.27e-04	0	42	0	865075200	21	4732
2026-01-10 23:17:30.57	134.06	23.95	-31.0	-33.3	11.4	1.09e-03	0	42	0	866123776	22	4709
2026-01-10 23:17:31.58	134.28	23.85	-30.8	-32.8	11.8	7.70e-04	0	42	0	868220928	22	4535
2026-01-10 23:17:32.59	134.50	23.76	-30.4	-31.5	12.6	2.73e-04	0	42	0	870318080	22	4121
2026-01-10 23:17:33.59	134.72	23.66	-30.2	-32.2	12.8	6.89e-04	0	42	0	872415232	20	4509
2026-01-10 23:17:34.60	134.94	23.56	-30.0	-31.5	13.2	4.27e-05	0	42	0	874512384	20	4291
2026-01-10 23:17:35.60	135.15	23.46	-30.1	-31.9	13.0	1.90e-05	0	42	0	875560960	20	4421
2026-01-10 23:17:36.60	135.37	23.37	-30.6	-32.8	12.1	2.33e-04	0	42	0	877658112	21	4630
2026-01-10 23:17:37.61	135.58	23.27	-31.1	-33.7	11.1	1.11e-03	0	42	0	879755264	22	4863
2026-01-10 23:17:38.62	135.80	23.17	-31.3	-34.3	10.6	4.34e-03	0	42	0	881852416	22	5106
2026-01-10 23:17:39.62	136.01	23.07	-31.4	-34.3	10.3	5.93e-03	0	42	0	883949568	23	5013
2026-01-10 23:17:40.62	136.21	22.98	-31.4	-34.3	10.2	7.49e-03	0	42	0	884998144	23	5039
2026-01-10 23:17:41.63	136.42	22.88	-31.1	-33.3	10.9	4.43e-03	0	42	0	887095296	23	4651
2026-01-10 23:17:42.63	136.63	22.78	-30.7	-32.5	11.9	9.80e-04	0	42	0	889192448	22	4445
2026-01-10 23:17:43.63	136.83	22.68	-30.3	-32.0	12.5	3.81e-04	0	42	0	891289600	21	4371
2026-01-10 23:17:44.64	137.04	22.58	-30.2	-31.5	12.9	3.81e-05	0	42	0	893386752	21	4204
2026-01-10 23:17:45.64	137.24	22.49	-30.0	-31.7	13.1	2.44e-05	0	42	0	894435328	20	4349
2026-01-10 23:17:46.65	137.45	22.39	-29.9	-31.2	13.4	2.97e-05	0	42	0	896532480	20	4198
2026-01-10 23:17:47.65	137.65	22.29	-29.6	-30.4	13.9	9.90e-06	0	42	0	898629632	20	3954
2026-01-10 23:17:48.66	137.85	22.19	-29.5	-30.6	14.1	1.46e-04	0	42	0	900726784	19	4088
2026-01-10 23:17:49.66	138.04	22.10	-29.0	-29.5	14.8	3.00e-06	0	42	0	902823936	19	3778
2026-01-10 23:17:50.67	138.24	22.00	-28.6	-28.8	15.6	0.00e+00	0	42	0	903872512	18	3693
2026-01-10 23:17:51.67	138.44	21.90	-28.6	-28.9	15.5	2.24e-04	0	42	0	905969664	18	3731
2026-01-10 23:17:52.68	138.63	21.80	-28.6	-29.3	15.5	6.80e-06	0	42	0	908066816	17	3912
2026-01-10 23:17:53.68	138.82	21.71	-29.2	-30.4	14.6	0.00e+00	0	42	0	910163968	18	4116
2026-01-10 23:17:54.68	139.02	21.61	-29.5	-30.7	14.0	9.80e-04	0	42	0	912261120	19	4135
2026-01-10 23:17:55.69	139.21	21.51	-29.9	-31.8	13.4	1.25e-03	0	42	0	913309696	19	4456
2026-01-10 23:17:56.69	139.40	21.41	-30.2	-32.1	12.7	3.43e-05	0	42	0	915406848	20	4495
2026-01-10 23:17:57.70	139.59	21.32	-30.4	-32.8	12.3	1.53e-03	0	42	0	917504000	20	4715
2026-01-10 23:17:58.71	139.78	21.22	-30.3	-32.5	12.4	1.55e-03	0	42	0	919601152	20	4647
2026-01-10 23:17:59.72	139.96	21.12	-30.2	-32.2	12.7	8.62e-05	0	42	0	921698304	20	4535
2026-01-10 23:18:00.72	140.15	21.02	-30.2	-32.1	12.8	1.17e-03	0	42	0	922746880	20	4494
2026-01-10 23:18:01.72	140.33	20.93	-29.9	-31.4	13.1	1.04e-03	0	42	0	924844032	20	4278
2026-01-10 23:18:02.73	140.52	20.83	-29.8	-31.0	13.4	9.10e-06	0	42	0	926941184	20	4142
2026-01-10 23:18:03.74	140.70	20.73	-29.7	-31.4	13.6	8.10e-04	0	42	0	929038336	19	4337
2026-01-10 23:18:04.75	140.88	20.63	-29.6	-30.9	13.8	8.01e-04	0	42	0	931135488	19	4215
2026-01-10 23:18:05.75	141.06	20.54	-29.8	-31.5	13.5	3.80e-06	0	42	0	932184064	19	4376
2026-01-10 23:18:06.76	141.24	20.44	-29.7	-31.3	13.6	3.80e-06	0	42	0	934281216	19	4315
2026-01-10 23:18:07.76	141.42	20.35	-29.6	-30.9	13.9	1.24e-03	0	42	0	936378368	19	4184
2026-01-10 23:18:08.76	141.59	20.25	-29.7	-31.2	13.7	6.10e-06	0	42	0	938475520	19	4276
2026-01-10 23:18:09.77	141.77	20.15	-29.5	-30.6	14.0	1.52e-03	0	42	0	940572672	19	4112
2026-01-10 23:18:10.78	141.94	20.06	-29.4	-30.6	14.1	2.20e-06	0	42	0	941621248	19	4091
2026-01-10 23:18:11.78	142.12	19.96	-29.5	-30.7	14.0	0.00e+00	0	42	0	943718400	19	4140
2026-01-10 23:18:12.79	142.29	19.86	-29.4	-30.5	14.1	1.79e-03	0	42	0	945815552	19	4083
2026-01-10 23:18:13.78	142.46	19.77	-29.4	-30.8	14.2	1.50e-06	0	42	0	947912704	18	4268
2026-01-10 23:18:14.79	142.63	19.67	-29.4	-31.0	14.1	1.50e-06	0	42	0	948961280	18	4307
2026-01-10 23:18:15.80	142.80	19.58	-29.4	-30.8	14.2	1.51e-03	0	42	0	951058432	18	4261
2026-01-10 23:18:16.81	142.97	19.48	-29.4	-30.9	14.2	7.00e-07	0	42	0	953155584	18	4281
2026-01-10 23:18:17.81	143.13	19.39	-29.4	-31.0	14.1	1.50e-06	0	42	0	955252736	18	4312
2026-01-10 23:18:18.82	143.30	19.29	-29.4	-30.4	14.1	1.52e-03	0	42	0	957349888	19	4058
2026-01-10 23:18:19.82	143.46	19.20	-29.6	-31.0	13.7	1.64e-03	0	42	0	958398464	19	4227
2026-01-10 23:18:20.82	143.63	19.10	-29.7	-31.3	13.5	1.29e-05	0	42	0	960495616	19	4334
2026-01-10 23:18:21.82	143.79	19.01	-29.6	-31.0	13.7	9.10e-06	0	42	0	962592768	19	4240
2026-01-10 23:18:22.83	143.95	18.91	-29.7	-31.4	13.4	1.75e-03	0	42	0	964689920	19	4361
2026-01-10 23:18:23.83	144.11	18.82	-29.6	-31.0	13.6	5.30e-06	0	42	0	966787072	19	4235
2026-01-10 23:18:24.84	144.27	18.72	-29.3	-30.8	14.1	2.20e-06	0	42	0	967835648	18	4270
2026-01-10 23:18:25.85	144.43	18.63	-29.3	-30.7	14.2	1.80e-03	0	42	0	969932800	18	4228
2026-01-10 23:18:26.85	144.59	18.54	-29.2	-30.6	14.2	1.50e-06	0	42	0	972029952	18	4204
2026-01-10 23:18:27.85	144.75	18.44	-29.3	-30.7	14.2	0.00e+00	0	42	0	974127104	18	4230
2026-01-10 23:18:28.86	144.91	18.35	-29.2	-30.6	14.2	7.00e-07	0	42	0	976224256	18	4205
2026-01-10 23:18:29.86	145.06	18.25	-29.0	-30.1	14.5	0.00e+00	0	42	0	977272832	18	4060
2026-01-10 23:18:30.87	145.22	18.16	-29.3	-30.9	14.0	3.00e-06	0	42	0	979369984	18	4305
2026-01-10 23:18:31.87	145.37	18.07	-29.3	-30.8	14.0	3.00e-06	0	42	0	981467136	18	4279
2026-01-10 23:18:32.87	145.52	17.97	-29.4	-31.0	13.8	3.00e-06	0	42	0	983564288	18	4356
2026-01-10 23:18:33.88	145.67	17.88	-29.6	-31.1	13.5	9.90e-06	0	42	0	985661440	19	4274
2026-01-10 23:18:34.89	145.83	17.79	-29.7	-31.3	13.3	1.22e-05	0	42	0	986710016	19	4350
2026-01-10 23:18:35.89	145.97	17.70	-29.6	-31.1	13.5	1.29e-05	0	42	0	988807168	19	4282
2026-01-10 23:18:36.90	146.12	17.60	-29.4	-30.5	13.8	5.30e-06	0	42	0	990904320	19	4087
2026-01-10 23:18:37.91	146.27	17.51	-29.2	-30.6	14.2	7.00e-07	0	42	0	993001472	18	4204
2026-01-10 23:18:38.92	146.42	17.42	-29.4	-30.9	13.9	3.80e-06	0	42	0	995098624	18	4317
2026-01-10 23:18:39.92	146.57	17.33	-29.4	-30.5	13.9	5.30e-06	0	42	0	996147200	19	4095
2026-01-10 23:18:40.93	146.71	17.23	-29.5	-30.8	13.7	4.50e-06	0	42	0	998244352	19	4196
2026-01-10 23:18:41.94	146.86	17.14	-29.7	-31.3	13.3	1.75e-05	0	42	0	1000341504	19	4356
2026-01-10 23:18:42.95	147.00	17.05	-29.7	-31.5	13.2	2.21e-05	0	42	0	1002438656	19	4393
2026-01-10 23:18:43.96	147.15	16.96	-30.0	-32.1	12.8	5.26e-05	0	42	0	1004535808	19	4607
2026-01-10 23:18:44.96	147.29	16.87	-30.0	-31.9	12.5	9.91e-05	0	42	0	1005584384	20	4454
2026-01-10 23:18:45.96	147.43	16.78	-30.1	-32.2	12.3	1.49e-04	0	42	0	1007681536	20	4548
2026-01-10 23:18:46.97	147.57	16.69	-30.3	-32.6	11.9	3.38e-04	0	42	0	1009778688	20	4718
2026-01-10 23:18:47.98	147.71	16.59	-30.3	-32.7	12.0	4.01e-04	0	42	0	1011875840	20	4750
2026-01-10 23:18:48.98	147.85	16.50	-30.5	-33.2	11.6	3.71e-04	0	42	0	1013972992	20	4939
2026-01-10 23:18:49.98	147.99	16.41	-30.5	-32.7	11.6	7.71e-04	0	42	0	1015021568	21	4642
2026-01-10 23:18:50.99	148.13	16.32	-29.7	-31.7	11.8	5.88e-04	0	42	0	1017118720	21	4533
2026-01-10 23:18:51.99	148.26	16.23	-29.7	-32.2	11.6	4.26e-04	0	42	0	1019215872	20	4777
2026-01-10 23:18:53.00	148.40	16.14	-30.2	-32.4	12.1	3.59e-04	0	42	0	1021313024	20	4635
2026-01-10 23:18:54.00	148.53	16.05	-30.2	-32.3	12.1	1.10e-03	0	42	0	1023410176	20	4615
2026-01-10 23:18:55.01	148.67	15.97	-30.2	-32.5	12.0	2.46e-04	0	42	0	1024458752	20	4662
2026-01-10 23:18:56.02	148.80	15.88	-30.0	-32.0	12.3	2.26e-04	0	42	0	1026555904	20	4504
2026-01-10 23:18:57.03	148.93	15.79	-29.9	-31.6	12.6	2.68e-03	0	42	0	1028653056	20	4382
2026-01-10 23:18:58.03	149.07	15.70	-30.0	-32.2	12.6	8.16e-05	0	42	0	1030750208	19	4657
2026-01-10 23:18:59.04	149.20	15.61	-29.8	-31.9	12.8	5.56e-05	0	42	0	1032847360	19	4544
2026-01-10 23:19:00.04	149.33	15.52	-30.0	-32.3	12.5	8.69e-05	0	42	0	1033895936	19	4691
2026-01-10 23:19:01.05	149.46	15.43	-30.1	-32.2	12.1	2.42e-03	0	42	0	1035993088	20	4577
2026-01-10 23:19:02.05	149.59	15.34	-30.3	-32.6	11.9	2.19e-04	0	42	0	1038090240	20	4734
2026-01-10 23:19:03.06	149.71	15.26	-30.2	-32.5	11.9	4.56e-04	0	42	0	1040187392	20	4698
2026-01-10 23:19:04.06	149.84	15.17	-30.4	-33.2	11.5	3.44e-03	0	42	0	1042284544	20	4937
2026-01-10 23:19:05.07	149.97	15.08	-30.3	-33.0	11.6	8.41e-04	0	42	0	1043333120	20	4873
2026-01-10 23:19:06.07	150.09	14.99	-30.4	-32.7	11.4	9.00e-04	0	42	0	1045430272	21	4680
2026-01-10 23:19:07.07	150.22	14.91	-30.3	-32.9	11.6	3.57e-03	0	42	0	1047527424	20	4849
2026-01-10 23:19:08.08	150.34	14.82	-30.5	-32.8	11.3	1.49e-03	0	42	0	1049624576	21	4727
2026-01-10 23:19:09.09	150.47	14.73	-30.4	-33.1	11.5	8.35e-04	0	42	0	1051721728	20	4912
2026-01-10 23:19:10.09	150.59	14.65	-30.2	-32.4	11.9	4.72e-04	0	42	0	1052770304	20	4663
2026-01-10 23:19:11.10	150.71	14.56	-30.1	-32.1	12.2	5.43e-04	0	42	0	1054867456	20	4556
2026-01-10 23:19:12.11	150.84	14.47	-29.9	-31.5	12.5	2.69e-03	0	42	0	1056964608	20	4353
2026-01-10 23:19:13.11	150.96	14.39	-29.9	-31.8	12.3	1.08e-04	0	42	0	1059061760	20	4437
2026-01-10 23:19:14.12	151.08	14.30	-29.9	-31.6	12.5	3.02e-04	0	42	0	1061158912	20	4382
2026-01-10 23:19:15.12	151.20	14.22	-30.0	-32.4	12.4	2.92e-03	0	42	0	1062207488	19	4735
2026-01-10 23:19:16.13	151.32	14.13	-30.2	-32.4	11.8	3.97e-04	0	42	0	1064304640	20	4685
2026-01-10 23:19:17.13	151.44	14.04	-30.1	-32.5	11.8	6.33e-04	0	42	0	1066401792	20	4707
2026-01-10 23:19:18.14	151.55	13.96	-30.4	-33.3	11.2	3.45e-03	0	42	0	1068498944	20	5031
2026-01-10 23:19:19.14	151.67	13.87	-30.1	-32.5	11.8	3.42e-03	0	42	0	1070596096	20	4727
2026-01-10 23:19:20.15	151.79	13.79	-30.0	-32.1	12.0	7.82e-04	0	42	0	1071644672	20	4587
2026-01-10 23:19:21.16	151.90	13.70	-30.0	-32.2	11.9	2.89e-03	0	42	0	1073741824	20	4638
2026-01-10 23:19:22.16	152.02	13.62	-30.0	-32.0	12.0	3.13e-03	0	42	0	1075838976	20	4569
2026-01-10 23:19:23.16	152.13	13.54	-30.0	-32.1	12.0	6.79e-04	0	42	0	1077936128	20	4605
2026-01-10 23:19:24.17	152.25	13.45	-30.0	-32.1	12.0	2.95e-03	0	42	0	1080033280	20	4610
2026-01-10 23:19:25.18	152.36	13.37	-30.0	-32.1	12.0	3.00e-03	0	42	0	1081081856	20	4582
2026-01-10 23:19:26.18	152.47	13.29	-29.9	-31.9	12.1	4.03e-04	0	42	0	1083179008	20	4522
2026-01-10 23:19:27.18	152.59	13.20	-30.0	-32.0	12.0	3.03e-03	0	42	0	1085276160	20	4571
2026-01-10 23:19:28.18	152.70	13.12	-29.8	-32.0	12.5	2.53e-03	0	42	0	1087373312	19	4629
2026-01-10 23:19:29.19	152.81	13.04	-30.0	-32.4	12.2	3.92e-04	0	42	0	1088421888	19	4781
2026-01-10 23:19:30.19	152.92	12.95	-29.9	-32.2	12.3	2.61e-03	0	42	0	1090519040	19	4714
2026-01-10 23:19:31.20	153.03	12.87	-29.9	-32.4	12.3	2.83e-03	0	42	0	1092616192	19	4760
2026-01-10 23:19:32.21	153.14	12.79	-29.9	-32.2	12.4	5.11e-04	0	42	0	1094713344	19	4691
2026-01-10 23:19:33.21	153.25	12.71	-29.9	-32.4	12.2	2.74e-03	0	42	0	1096810496	19	4760
2026-01-10 23:19:34.21	153.35	12.62	-29.9	-32.0	12.0	2.23e-04	0	42	0	1098907648	20	4566
2026-01-10 23:19:35.21	153.46	12.54	-30.1	-32.5	11.7	8.47e-04	0	42	0	1099956224	20	4748
2026-01-10 23:19:36.22	153.57	12.46	-30.3	-33.1	11.3	3.63e-03	0	42	0	1102053376	20	4951
2026-01-10 23:19:37.22	153.67	12.38	-30.5	-33.3	10.7	3.05e-03	0	42	0	1104150528	21	4962
2026-01-10 23:19:38.23	153.78	12.30	-30.5	-33.1	10.9	3.23e-03	0	42	0	1106247680	21	4897
2026-01-10 23:19:39.24	153.88	12.22	-30.5	-33.2	10.8	5.30e-03	0	42	0	1107296256	21	4915
2026-01-10 23:19:40.24	153.99	12.14	-30.6	-33.4	10.7	5.92e-03	0	42	0	1109393408	21	4991
2026-01-10 23:19:41.25	154.09	12.05	-30.5	-33.4	10.7	2.79e-03	0	42	0	1111490560	21	4976
2026-01-10 23:19:42.25	154.20	11.97	-30.4	-33.4	11.0	4.81e-03	0	42	0	1113587712	20	5072
2026-01-10 23:19:43.26	154.30	11.89	-30.2	-32.7	11.5	4.13e-03	0	42	0	1115684864	20	4793
2026-01-10 23:19:44.26	154.40	11.81	-30.0	-32.2	11.9	5.68e-04	0	42	0	1116733440	20	4606
2026-01-10 23:19:45.27	154.50	11.73	-30.0	-32.0	12.0	3.67e-04	0	42	0	1118830592	20	4553
2026-01-10 23:19:46.27	154.61	11.65	-30.0	-32.1	12.0	2.60e-03	0	42	0	1120927744	20	4598
2026-01-10 23:19:47.27	154.71	11.57	-30.0	-32.0	12.1	3.12e-04	0	42	0	1123024896	20	4555
2026-01-10 23:19:48.28	154.81	11.49	-30.0	-32.0	12.1	2.75e-04	0	42	0	1125122048	20	4542
2026-01-10 23:19:49.28	154.91	11.42	-30.0	-32.2	11.9	2.94e-03	0	42	0	1126170624	20	4611
2026-01-10 23:19:50.28	155.00	11.34	-29.9	-31.9	12.1	4.23e-04	0	42	0	1128267776	20	4528
2026-01-10 23:19:51.29	155.10	11.26	-30.0	-32.0	12.1	3.09e-04	0	42	0	1130364928	20	4532
2026-01-10 23:19:52.30	155.20	11.18	-29.9	-31.7	12.2	3.00e-04	0	42	0	1132462080	20	4449
2026-01-10 23:19:53.30	155.30	11.10	-30.1	-32.4	11.8	6.26e-04	0	42	0	1134559232	20	4684
2026-01-10 23:19:54.31	155.40	11.02	-30.0	-32.2	12.0	3.75e-04	0	42	0	1135607808	20	4607
2026-01-10 23:19:55.31	155.49	10.94	-30.0	-32.1	12.0	2.99e-04	0	42	0	1137704960	20	4579
2026-01-10 23:19:56.32	155.59	10.87	-30.0	-32.1	11.9	3.81e-04	0	42	0	1139802112	20	4600
2026-01-10 23:19:57.32	155.69	10.79	-30.0	-32.2	11.9	3.71e-04	0	42	0	1141899264	20	4619
2026-01-10 23:19:58.33	155.78	10.71	-30.0	-32.2	11.9	4.26e-04	0	42	0	1143996416	20	4624
2026-01-10 23:19:59.33	155.88	10.63	-30.0	-32.1	12.0	3.55e-04	0	42	0	1145044992	20	4586
2026-01-10 23:20:00.33	155.97	10.56	-29.9	-32.0	12.0	2.89e-03	0	42	0	1147142144	20	4545
2026-01-10 23:20:01.33	156.06	10.48	-29.9	-32.0	12.0	3.19e-04	0	42	0	1149239296	20	4562
2026-01-10 23:20:02.34	156.16	10.40	-29.9	-31.9	12.0	3.17e-04	0	42	0	1151336448	20	4545
2026-01-10 23:20:03.34	156.25	10.32	-29.9	-31.8	12.1	4.13e-04	0	42	0	1153433600	20	4487
2026-01-10 23:20:04.35	156.34	10.25	-29.9	-32.4	12.0	2.23e-04	0	42	0	1154482176	19	4786
2026-01-10 23:20:05.36	156.43	10.17	-29.9	-31.7	12.0	2.70e-04	0	42	0	1156579328	20	4457
2026-01-10 23:20:06.36	156.53	10.10	-29.8	-32.1	12.3	2.04e-04	0	42	0	1158676480	19	4677
2026-01-10 23:20:07.37	156.62	10.02	-29.8	-32.1	12.3	1.74e-04	0	42	0	1160773632	19	4678
2026-01-10 23:20:08.37	156.71	9.94	-29.8	-32.0	12.4	1.91e-04	0	42	0	1162870784	19	4653
2026-01-10 23:20:09.38	156.80	9.87	-29.8	-32.0	12.4	1.45e-04	0	42	0	1163919360	19	4633
2026-01-10 23:20:10.39	156.89	9.79	-29.8	-32.0	12.4	1.40e-04	0	42	0	1166016512	19	4636
2026-01-10 23:20:11.39	156.98	9.72	-29.7	-31.6	12.7	8.69e-05	0	42	0	1168113664	19	4490
2026-01-10 23:20:12.40	157.07	9.64	-29.7	-31.6	12.7	5.95e-05	0	42	0	1170210816	19	4475
2026-01-10 23:20:13.41	157.15	9.56	-29.6	-31.4	12.8	5.34e-05	0	42	0	1172307968	19	4434
2026-01-10 23:20:14.41	157.24	9.49	-29.7	-31.7	12.6	9.46e-05	0	42	0	1173356544	19	4528
2026-01-10 23:20:15.41	157.33	9.42	-29.7	-31.7	12.6	9.53e-05	0	42	0	1175453696	19	4513
2026-01-10 23:20:16.41	157.42	9.34	-29.8	-31.8	12.5	1.59e-04	0	42	0	1177550848	19	4570
2026-01-10 23:20:17.42	157.50	9.27	-29.8	-31.9	12.5	1.24e-04	0	42	0	1179648000	19	4593
2026-01-10 23:20:18.43	157.59	9.19	-29.0	-31.4	11.9	1.59e-04	0	42	0	1181745152	19	4764
2026-01-10 23:20:19.44	157.68	9.12	-30.0	-32.1	11.8	2.29e-04	0	42	0	1182793728	20	4586
2026-01-10 23:20:20.44	157.76	9.04	-30.0	-32.2	11.3	4.38e-04	0	42	0	1184890880	20	4646
2026-01-10 23:20:21.45	157.85	8.97	-29.9	-32.2	12.1	3.67e-04	0	42	0	1186988032	19	4715
2026-01-10 23:20:22.45	157.93	8.90	-29.9	-32.3	12.1	2.04e-04	0	42	0	1189085184	19	4759
2026-01-10 23:20:23.46	158.01	8.82	-29.9	-32.3	12.1	2.82e-04	0	42	0	1191182336	19	4751
2026-01-10 23:20:24.46	158.10	8.75	-30.0	-32.4	12.0	2.63e-03	0	42	0	1192230912	19	4798
2026-01-10 23:20:25.47	158.18	8.68	-30.0	-32.0	11.8	4.01e-04	0	42	0	1194328064	20	4579
2026-01-10 23:20:26.46	158.26	8.60	-30.1	-32.4	11.5	5.35e-04	0	42	0	1196425216	20	4714
2026-01-10 23:20:27.46	158.35	8.53	-30.1	-32.6	11.4	3.14e-03	0	42	0	1198522368	20	4794
2026-01-10 23:20:28.46	158.43	8.46	-30.1	-32.5	11.5	9.04e-04	0	42	0	1200619520	20	4756
2026-01-10 23:20:29.46	158.51	8.39	-30.2	-32.8	11.3	1.05e-03	0	42	0	1201668096	20	4857
2026-01-10 23:20:30.46	158.59	8.32	-30.2	-32.9	11.1	1.41e-03	0	42	0	1203765248	20	4892
2026-01-10 23:20:31.47	158.67	8.24	-30.2	-32.7	11.3	1.00e-03	0	42	0	1205862400	20	4817
2026-01-10 23:20:32.48	158.75	8.17	-30.0	-32.3	11.6	9.88e-04	0	42	0	1207959552	20	4669
2026-01-10 23:20:33.48	158.83	8.10	-30.2	-32.7	11.3	9.09e-04	0	42	0	1209008128	20	4812
2026-01-10 23:20:34.49	158.91	8.03	-30.3	-33.0	11.1	1.38e-03	0	42	0	1211105280	20	4928
2026-01-10 23:20:35.50	158.99	7.96	-30.3	-33.1	11.0	1.31e-03	0	42	0	1213202432	20	4971
2026-01-10 23:20:36.51	159.07	7.88	-30.3	-33.2	10.9	2.08e-03	0	42	0	1215299584	20	5015
2026-01-10 23:20:37.51	159.15	7.81	-30.4	-33.4	10.8	2.90e-03	0	42	0	1217396736	20	5107
2026-01-10 23:20:38.52	159.23	7.74	-30.4	-33.6	10.6	6.71e-03	0	42	0	1218445312	20	5214
2026-01-10 23:20:39.53	159.31	7.67	-30.1	-32.8	11.2	2.25e-03	0	42	0	1220542464	20	4870
2026-01-10 23:20:40.53	159.38	7.60	-30.1	-32.7	11.3	1.52e-03	0	42	0	1222639616	20	4837
2026-01-10 23:20:41.53	159.46	7.53	-30.2	-32.9	11.1	3.55e-03	0	42	0	1224736768	20	4946
2026-01-10 23:20:42.53	159.54	7.46	-30.3	-33.2	10.9	4.19e-03	0	42	0	1226833920	20	5065
2026-01-10 23:20:43.54	159.62	7.39	-30.3	-33.5	10.6	2.06e-03	0	42	0	1227882496	20	5169
2026-01-10 23:20:44.55	159.69	7.32	-30.3	-33.6	10.5	5.90e-03	0	42	0	1229979648	20	5213
2026-01-10 23:20:45.55	159.77	7.25	-30.4	-33.7	10.5	7.00e-03	0	42	0	1232076800	20	5266
2026-01-10 23:20:46.55	159.84	7.18	-30.5	-34.0	10.2	4.85e-03	0	42	0	1234173952	20	5396
2026-01-10 23:20:47.56	159.92	7.11	-30.5	-33.5	10.2	8.62e-03	0	42	0	1236271104	21	5105
2026-01-10 23:20:48.56	159.99	7.04	-32.5	-44.7	3.8	4.19e-01	0	42	104	1237319680	25	14611
2026-01-10 23:20:49.57	160.07	6.97	-32.7	-45.2	3.8	1.49e+00	0	42	104	1237319680	25	15337

#Closed at: 2026-01-10 23:20:50
#Recorded file [1237 MB]: D:/data/31010_260111_020948.dat