passes_logs/2026/01/10/R2M6_AANII_01/R2M6_AANII_01__20260110_074417_SUOMI_NPP_rec.log

#Pass ID: 20260110_074417_SUOMI NPP
#Satellite: SUOMI NPP
#Configuration: NPP
#almurnet v.1.7.20240730
#Start time: 2026-01-10 07:44:17

#Version: 2.2.20231116
#Station: R2M6_AANII_01
#Location: 30.233357 lon 59.946436 lat
#TLE: 1 37849U 11061A   26008.83076692  .00000095  00000+0  66074-4 0  9997
#TLE: 2 37849  98.7806 310.9327 0002533  74.3004 285.8451 14.19523607735834

#Time	Az	El	Level	Level2	SNR	BER	BlckErr	Temp	State	Recorded	gain1	gain2
2026-01-10 07:44:17.67	77.38	7.02	-31.8	-37.9	4.3	1.39e+00	0	39	0	0	25	7262
2026-01-10 07:44:18.67	77.26	7.07	-31.6	-36.9	4.6	1.30e+00	0	39	104	0	24	6653
2026-01-10 07:44:19.68	77.14	7.12	-31.5	-36.2	6.8	1.96e-01	0	39	0	0	24	6211
2026-01-10 07:44:20.68	77.02	7.17	-31.5	-36.3	6.8	1.48e-01	0	39	0	1048576	24	6245
2026-01-10 07:44:21.68	76.90	7.23	-31.5	-36.4	6.7	1.91e-01	0	39	0	3145728	24	6325
2026-01-10 07:44:22.69	76.77	7.28	-31.4	-35.7	7.1	1.97e-01	0	39	0	5242880	24	5959
2026-01-10 07:44:23.69	76.65	7.33	-31.6	-36.7	6.5	1.55e-01	0	39	0	7340032	24	6484
2026-01-10 07:44:24.69	76.53	7.38	-31.6	-36.6	6.5	1.98e-01	0	40	0	9437184	24	6458
2026-01-10 07:44:25.70	76.41	7.44	-31.6	-37.0	6.3	2.30e-01	0	39	0	10485760	24	6665
2026-01-10 07:44:26.70	76.28	7.49	-31.6	-36.8	6.4	3.44e-01	0	39	0	12582912	24	6563
2026-01-10 07:44:27.70	76.16	7.54	-31.4	-35.6	7.3	1.29e-01	0	40	0	14680064	24	5858
2026-01-10 07:44:28.70	76.03	7.59	-31.3	-35.3	7.5	1.05e-01	0	40	0	16777216	24	5684
2026-01-10 07:44:29.71	75.91	7.64	-31.4	-36.3	7.3	8.39e-02	0	40	0	17825792	23	6292
2026-01-10 07:44:30.71	75.78	7.70	-31.4	-36.2	7.4	2.57e-01	0	40	0	19922944	23	6228
2026-01-10 07:44:31.71	75.66	7.75	-30.9	-34.1	8.9	5.19e-02	0	39	0	22020096	23	5185
2026-01-10 07:44:32.71	75.53	7.80	-31.0	-34.3	8.8	2.08e-02	0	40	0	24117248	23	5260
2026-01-10 07:44:33.72	75.40	7.85	-31.1	-34.7	8.5	2.42e-02	0	40	0	26214400	23	5462
2026-01-10 07:44:34.71	75.28	7.90	-31.2	-35.3	8.2	4.05e-02	0	40	0	27262976	23	5731
2026-01-10 07:44:35.72	75.15	7.96	-31.2	-35.0	8.3	5.95e-02	0	40	0	29360128	23	5606
2026-01-10 07:44:36.72	75.02	8.01	-31.1	-34.7	8.6	4.92e-02	0	40	0	31457280	23	5436
2026-01-10 07:44:37.73	74.89	8.06	-31.0	-34.5	8.8	3.71e-02	0	40	0	33554432	23	5342
2026-01-10 07:44:38.73	74.76	8.11	-31.0	-34.4	8.8	2.69e-02	0	40	0	35651584	23	5300
2026-01-10 07:44:39.73	74.63	8.17	-31.0	-34.4	8.8	2.72e-02	0	40	0	36700160	23	5283
2026-01-10 07:44:40.74	74.50	8.22	-31.1	-34.7	8.6	3.08e-02	0	40	0	38797312	23	5438
2026-01-10 07:44:41.74	74.37	8.27	-31.0	-34.1	9.1	2.82e-02	0	40	0	40894464	23	5167
2026-01-10 07:44:42.74	74.24	8.32	-30.9	-33.9	9.2	2.45e-02	0	40	0	42991616	23	5086
2026-01-10 07:44:43.74	74.11	8.37	-30.9	-33.8	9.3	1.63e-02	0	40	0	45088768	23	5012
2026-01-10 07:44:44.75	73.98	8.42	-31.0	-34.3	8.9	2.17e-02	0	40	0	46137344	23	5233
2026-01-10 07:44:45.76	73.84	8.48	-30.9	-33.7	9.4	2.34e-02	0	40	0	48234496	23	4980
2026-01-10 07:44:46.76	73.71	8.53	-30.9	-33.9	9.2	1.59e-02	0	40	0	50331648	23	5093
2026-01-10 07:44:47.76	73.58	8.58	-31.0	-34.1	9.1	2.19e-02	0	40	0	52428800	23	5179
2026-01-10 07:44:48.76	73.45	8.63	-30.9	-33.8	9.3	1.75e-02	0	40	0	54525952	23	5037
2026-01-10 07:44:49.76	73.31	8.68	-30.9	-34.0	9.2	2.06e-02	0	40	0	55574528	23	5132
2026-01-10 07:44:50.77	73.18	8.74	-31.0	-34.2	9.0	2.02e-02	0	40	0	57671680	23	5201
2026-01-10 07:44:51.76	73.04	8.79	-31.0	-34.2	9.1	2.29e-02	0	40	0	59768832	23	5222
2026-01-10 07:44:52.76	72.91	8.84	-31.2	-35.0	8.5	2.88e-02	0	40	0	61865984	23	5571
2026-01-10 07:44:53.76	72.77	8.89	-31.1	-34.6	8.7	4.71e-02	0	41	0	62914560	23	5403
2026-01-10 07:44:54.76	72.63	8.94	-31.1	-34.5	8.9	2.95e-02	0	40	0	65011712	23	5345
2026-01-10 07:44:55.76	72.50	8.99	-31.0	-34.1	9.2	1.91e-02	0	40	0	67108864	23	5139
2026-01-10 07:44:56.76	72.36	9.04	-30.8	-33.8	9.8	1.47e-02	0	40	0	69206016	22	5108
2026-01-10 07:44:57.77	72.22	9.09	-30.9	-34.1	9.6	1.12e-02	0	40	0	71303168	22	5219
2026-01-10 07:44:58.77	72.08	9.14	-30.8	-34.0	9.7	1.34e-02	0	40	0	72351744	22	5198
2026-01-10 07:44:59.78	71.94	9.20	-30.7	-33.5	10.1	9.91e-03	0	40	0	74448896	22	4959
2026-01-10 07:45:00.78	71.80	9.25	-30.8	-33.9	9.9	8.61e-03	0	40	0	76546048	22	5137
2026-01-10 07:45:01.78	71.66	9.30	-30.9	-34.2	9.5	1.50e-02	0	40	0	78643200	22	5285
2026-01-10 07:45:02.79	71.52	9.35	-30.8	-33.8	9.9	1.10e-02	0	41	0	80740352	22	5095
2026-01-10 07:45:03.79	71.38	9.40	-30.7	-33.6	10.0	8.09e-03	0	40	0	81788928	22	5026
2026-01-10 07:45:04.80	71.24	9.45	-30.7	-33.5	10.1	7.23e-03	0	40	0	83886080	22	4983
2026-01-10 07:45:05.80	71.10	9.50	-30.6	-33.3	10.3	5.49e-03	0	40	0	85983232	22	4894
2026-01-10 07:45:06.80	70.95	9.55	-30.7	-33.4	10.2	5.59e-03	0	40	0	88080384	22	4931
2026-01-10 07:45:07.80	70.81	9.60	-30.7	-33.4	10.2	5.93e-03	0	40	0	90177536	22	4932
2026-01-10 07:45:08.81	70.66	9.65	-30.7	-33.6	10.0	6.46e-03	0	41	0	91226112	22	5018
2026-01-10 07:45:09.81	70.52	9.70	-30.8	-33.8	9.8	7.74e-03	0	40	0	93323264	22	5109
2026-01-10 07:45:10.81	70.38	9.75	-30.7	-33.5	10.1	8.46e-03	0	40	0	95420416	22	4962
2026-01-10 07:45:11.81	70.23	9.80	-30.4	-32.5	10.8	2.85e-03	0	40	0	97517568	22	4591
2026-01-10 07:45:12.81	70.09	9.85	-30.2	-32.4	11.3	1.62e-03	0	41	0	99614720	21	4627
2026-01-10 07:45:13.82	69.94	9.90	-30.2	-32.4	11.3	1.20e-03	0	41	0	100663296	21	4623
2026-01-10 07:45:14.82	69.79	9.95	-30.2	-32.4	11.2	1.24e-03	0	41	0	102760448	21	4638
2026-01-10 07:45:15.82	69.65	10.00	-30.3	-32.7	11.0	1.92e-03	0	41	0	104857600	21	4760
2026-01-10 07:45:16.83	69.50	10.05	-30.2	-32.3	11.3	1.76e-03	0	40	0	106954752	21	4611
2026-01-10 07:45:17.83	69.35	10.10	-30.2	-32.5	11.2	1.40e-03	0	41	0	109051904	21	4665
2026-01-10 07:45:18.83	69.20	10.15	-30.1	-32.0	11.6	9.55e-04	0	41	0	110100480	21	4495
2026-01-10 07:45:19.83	69.05	10.20	-30.1	-31.9	11.7	5.25e-04	0	41	0	112197632	21	4452
2026-01-10 07:45:20.83	68.90	10.25	-30.1	-32.0	11.6	5.12e-04	0	41	0	114294784	21	4484
2026-01-10 07:45:21.83	68.75	10.30	-29.9	-31.4	12.1	2.36e-04	0	41	0	116391936	21	4282
2026-01-10 07:45:22.84	68.60	10.35	-30.0	-31.8	11.7	5.73e-04	0	41	0	118489088	21	4401
2026-01-10 07:45:23.85	68.45	10.40	-29.7	-31.4	12.3	1.92e-04	0	41	0	119537664	20	4357
2026-01-10 07:45:24.85	68.30	10.45	-29.8	-31.6	12.3	1.31e-04	0	41	0	121634816	20	4423
2026-01-10 07:45:25.85	68.14	10.50	-29.7	-31.4	12.4	2.14e-04	0	41	0	123731968	20	4376
2026-01-10 07:45:26.85	67.99	10.55	-29.9	-31.8	12.1	9.38e-05	0	41	0	125829120	20	4505
2026-01-10 07:45:27.85	67.84	10.60	-29.8	-31.7	12.3	4.02e-04	0	41	0	126877696	20	4451
2026-01-10 07:45:28.85	67.68	10.65	-29.8	-31.6	12.3	3.42e-04	0	41	0	128974848	20	4420
2026-01-10 07:45:29.85	67.53	10.69	-29.9	-31.9	12.1	2.36e-04	0	41	0	131072000	20	4551
2026-01-10 07:45:30.85	67.37	10.74	-30.1	-32.5	11.6	7.59e-04	0	41	0	133169152	20	4758
2026-01-10 07:45:31.85	67.22	10.79	-30.1	-32.6	11.5	6.78e-04	0	41	0	135266304	20	4805
2026-01-10 07:45:32.86	67.06	10.84	-30.1	-32.6	11.7	6.69e-04	0	41	0	136314880	20	4803
2026-01-10 07:45:33.86	66.91	10.89	-29.9	-31.8	12.3	5.10e-04	0	41	0	138412032	20	4518
2026-01-10 07:45:34.86	66.75	10.94	-30.1	-32.0	11.7	2.38e-03	0	41	0	140509184	21	4462
2026-01-10 07:45:35.87	66.59	10.98	-30.3	-32.7	11.3	1.66e-03	0	41	0	142606336	21	4730
2026-01-10 07:45:36.87	66.43	11.03	-30.1	-31.8	11.8	1.37e-03	0	41	0	144703488	21	4406
2026-01-10 07:45:37.88	66.27	11.08	-30.1	-31.9	11.8	2.65e-04	0	41	0	145752064	21	4417
2026-01-10 07:45:38.87	66.12	11.13	-29.9	-31.4	12.2	2.54e-04	0	41	0	147849216	21	4279
2026-01-10 07:45:39.88	65.95	11.18	-30.1	-31.9	11.8	4.36e-04	0	41	0	149946368	21	4428
2026-01-10 07:45:40.88	65.79	11.22	-29.9	-31.3	12.2	3.86e-04	0	41	0	152043520	21	4235
2026-01-10 07:45:41.88	65.63	11.27	-29.9	-31.8	12.3	1.56e-04	0	41	0	154140672	20	4475
2026-01-10 07:45:42.88	65.47	11.32	-29.7	-31.3	12.6	3.78e-04	0	41	0	155189248	20	4303
2026-01-10 07:45:43.88	65.31	11.36	-29.7	-31.2	12.7	5.34e-05	0	41	0	157286400	20	4271
2026-01-10 07:45:44.88	65.15	11.41	-29.5	-30.7	13.1	6.10e-05	0	41	0	159383552	20	4121
2026-01-10 07:45:45.88	64.99	11.46	-29.5	-30.7	12.9	2.74e-05	0	41	0	161480704	20	4149
2026-01-10 07:45:46.88	64.82	11.50	-29.5	-30.7	12.9	4.95e-05	0	41	0	163577856	20	4136
2026-01-10 07:45:47.87	64.66	11.55	-29.4	-30.5	13.0	3.73e-05	0	41	0	164626432	20	4089
2026-01-10 07:45:48.87	64.50	11.60	-29.4	-30.5	13.0	2.67e-05	0	41	0	166723584	20	4090
2026-01-10 07:45:49.87	64.33	11.64	-29.6	-31.1	12.7	8.16e-05	0	41	0	168820736	20	4255
2026-01-10 07:45:50.87	64.17	11.69	-29.6	-31.1	12.8	8.39e-05	0	41	0	170917888	20	4254
2026-01-10 07:45:51.87	64.00	11.73	-29.8	-31.5	12.7	1.23e-04	0	41	0	171966464	20	4392
2026-01-10 07:45:52.87	63.84	11.78	-30.0	-32.1	12.4	8.39e-05	0	41	0	174063616	20	4601
2026-01-10 07:45:53.87	63.67	11.82	-29.6	-31.0	12.8	8.85e-05	0	41	0	176160768	20	4242
2026-01-10 07:45:54.87	63.50	11.87	-29.5	-30.7	13.0	6.63e-05	0	41	0	178257920	20	4135
2026-01-10 07:45:55.87	63.34	11.91	-29.5	-30.6	13.0	3.28e-05	0	41	0	180355072	20	4107
2026-01-10 07:45:56.87	63.17	11.96	-29.5	-30.7	12.9	2.89e-05	0	41	0	181403648	20	4143
2026-01-10 07:45:57.87	63.00	12.00	-29.4	-30.4	13.1	3.12e-05	0	41	0	183500800	20	4034
2026-01-10 07:45:58.87	62.83	12.05	-29.3	-30.6	13.5	1.75e-05	0	41	0	185597952	19	4178
2026-01-10 07:45:59.88	62.66	12.09	-29.0	-29.9	13.9	1.50e-06	0	41	0	187695104	19	3966
2026-01-10 07:46:00.88	62.49	12.14	-29.5	-31.1	13.2	3.80e-06	0	41	0	189792256	19	4323
2026-01-10 07:46:01.88	62.32	12.18	-29.0	-29.9	13.9	2.20e-06	0	41	0	190840832	19	3974
2026-01-10 07:46:02.89	62.14	12.23	-29.4	-30.9	13.3	1.67e-05	0	41	0	192937984	19	4254
2026-01-10 07:46:03.88	61.97	12.27	-29.4	-31.0	13.2	2.97e-05	0	41	0	195035136	19	4297
2026-01-10 07:46:04.89	61.80	12.31	-29.4	-30.9	13.3	1.52e-05	0	41	0	197132288	19	4260
2026-01-10 07:46:05.89	61.63	12.36	-29.4	-30.9	13.3	1.67e-05	0	41	0	198180864	19	4268
2026-01-10 07:46:06.89	61.45	12.40	-29.4	-30.9	13.3	2.51e-05	0	41	0	200278016	19	4258
2026-01-10 07:46:07.89	61.28	12.44	-29.7	-31.8	12.8	2.21e-05	0	41	0	202375168	19	4552
2026-01-10 07:46:08.90	61.10	12.49	-29.6	-31.4	13.0	3.81e-05	0	41	0	204472320	19	4405
2026-01-10 07:46:09.90	60.93	12.53	-29.8	-31.8	12.7	7.01e-05	0	41	0	206569472	19	4560
2026-01-10 07:46:10.90	60.75	12.57	-29.7	-31.6	12.8	6.63e-05	0	41	0	207618048	19	4502
2026-01-10 07:46:11.90	60.58	12.62	-29.7	-31.8	12.7	4.27e-05	0	41	0	209715200	19	4559
2026-01-10 07:46:12.90	60.40	12.66	-29.8	-32.1	12.7	1.16e-04	0	41	0	211812352	19	4650
2026-01-10 07:46:13.90	60.22	12.70	-30.0	-32.5	12.4	9.61e-05	0	41	0	213909504	19	4811
2026-01-10 07:46:14.90	60.04	12.74	-29.8	-31.4	12.6	5.56e-05	0	41	0	216006656	20	4348
2026-01-10 07:46:15.90	59.87	12.78	-29.9	-31.8	12.3	9.15e-05	0	41	0	217055232	20	4482
2026-01-10 07:46:16.90	59.69	12.82	-29.6	-30.8	13.0	4.34e-05	0	41	0	219152384	20	4165
2026-01-10 07:46:17.90	59.51	12.87	-29.6	-31.0	12.9	3.66e-05	0	41	0	221249536	20	4214
2026-01-10 07:46:18.90	59.33	12.91	-29.8	-31.4	12.7	5.41e-05	0	41	0	223346688	20	4331
2026-01-10 07:46:19.90	59.15	12.95	-29.7	-31.1	12.7	5.41e-05	0	41	0	225443840	20	4262
2026-01-10 07:46:20.90	58.97	12.99	-29.8	-31.6	12.4	7.93e-05	0	41	0	226492416	20	4408
2026-01-10 07:46:21.90	58.79	13.03	-30.0	-31.6	12.1	9.31e-04	0	41	0	228589568	21	4318
2026-01-10 07:46:22.90	58.61	13.07	-30.0	-31.6	12.1	2.11e-03	0	41	0	230686720	21	4319
2026-01-10 07:46:23.90	58.42	13.11	-30.0	-31.7	12.1	3.31e-04	0	41	0	232783872	21	4356
2026-01-10 07:46:24.91	58.24	13.15	-29.9	-31.3	12.3	1.81e-04	0	41	0	233832448	21	4238
2026-01-10 07:46:25.92	58.05	13.19	-29.7	-31.1	12.8	5.49e-05	0	41	0	235929600	20	4241
2026-01-10 07:46:26.92	57.87	13.23	-29.5	-30.8	13.0	2.74e-05	0	41	0	238026752	20	4146
2026-01-10 07:46:27.92	57.69	13.27	-29.9	-31.8	12.4	6.86e-05	0	41	0	240123904	20	4456
2026-01-10 07:46:28.92	57.50	13.31	-29.7	-31.1	12.9	9.15e-05	0	41	0	242221056	20	4240
2026-01-10 07:46:29.93	57.32	13.34	-29.5	-30.5	13.2	1.67e-05	0	41	0	243269632	20	4071
2026-01-10 07:46:30.93	57.13	13.38	-29.5	-30.6	13.1	2.21e-05	0	41	0	245366784	20	4101
2026-01-10 07:46:31.93	56.94	13.42	-29.6	-30.9	12.9	4.73e-05	0	41	0	247463936	20	4191
2026-01-10 07:46:32.93	56.76	13.46	-29.5	-30.5	13.2	4.88e-05	0	42	0	249561088	20	4071
2026-01-10 07:46:33.94	56.57	13.50	-29.5	-30.6	13.1	3.66e-05	0	41	0	251658240	20	4086
2026-01-10 07:46:34.94	56.38	13.53	-29.5	-30.8	13.1	3.81e-05	0	41	0	252706816	20	4147
2026-01-10 07:46:35.94	56.19	13.57	-29.7	-31.3	12.7	8.01e-05	0	41	0	254803968	20	4301
2026-01-10 07:46:36.94	56.00	13.61	-29.7	-31.2	12.7	1.67e-04	0	41	0	256901120	20	4282
2026-01-10 07:46:37.95	55.81	13.64	-29.5	-30.7	13.1	3.50e-05	0	41	0	258998272	20	4120
2026-01-10 07:46:38.95	55.62	13.68	-29.6	-30.8	13.0	1.37e-05	0	42	0	261095424	20	4148
2026-01-10 07:46:39.95	55.44	13.72	-29.6	-30.8	13.1	2.44e-05	0	42	0	262144000	20	4133
2026-01-10 07:46:40.96	55.24	13.75	-29.5	-30.6	13.1	2.28e-05	0	41	0	264241152	20	4096
2026-01-10 07:46:41.96	55.05	13.79	-29.6	-30.9	13.0	3.89e-05	0	41	0	266338304	20	4180
2026-01-10 07:46:42.97	54.86	13.82	-29.7	-31.2	12.9	7.47e-05	0	41	0	268435456	20	4254
2026-01-10 07:46:43.97	54.67	13.86	-29.9	-31.7	12.5	1.16e-04	0	41	0	270532608	20	4433
2026-01-10 07:46:44.96	54.48	13.89	-29.7	-31.2	12.7	2.07e-04	0	41	0	271581184	20	4256
2026-01-10 07:46:45.96	54.28	13.93	-30.4	-32.7	11.4	4.64e-04	0	41	0	273678336	21	4693
2026-01-10 07:46:46.95	54.09	13.96	-30.3	-32.3	11.8	8.90e-04	0	42	0	275775488	21	4524
2026-01-10 07:46:47.95	53.90	14.00	-30.0	-31.6	12.2	2.76e-04	0	41	0	277872640	21	4312
2026-01-10 07:46:48.95	53.71	14.03	-29.9	-31.2	12.5	2.39e-04	0	41	0	278921216	21	4187
2026-01-10 07:46:49.96	53.51	14.06	-29.9	-31.1	12.6	1.52e-04	0	41	0	281018368	21	4127
2026-01-10 07:46:50.96	53.32	14.10	-29.7	-31.1	12.9	8.62e-05	0	42	0	283115520	20	4239
2026-01-10 07:46:51.96	53.12	14.13	-29.6	-30.7	13.2	3.20e-05	0	42	0	285212672	20	4112
2026-01-10 07:46:52.96	52.92	14.16	-29.7	-31.0	12.9	5.56e-05	0	42	0	287309824	20	4192
2026-01-10 07:46:53.96	52.73	14.19	-28.8	-29.2	14.5	3.43e-05	0	41	0	288358400	19	3767
2026-01-10 07:46:54.96	52.53	14.23	-29.1	-29.8	14.1	1.75e-05	0	41	0	290455552	19	3904
2026-01-10 07:46:55.97	52.33	14.26	-28.9	-29.4	14.5	6.80e-06	0	42	0	292552704	19	3802
2026-01-10 07:46:56.98	52.13	14.29	-29.5	-30.9	13.4	5.30e-06	0	41	0	294649856	19	4229
2026-01-10 07:46:57.98	51.94	14.32	-29.9	-31.6	12.6	1.75e-05	0	42	0	296747008	20	4374
2026-01-10 07:46:58.98	51.74	14.35	-29.4	-30.7	13.6	6.17e-05	0	41	0	297795584	19	4174
2026-01-10 07:46:59.98	51.54	14.38	-29.3	-30.4	13.8	4.50e-06	0	42	0	299892736	19	4088
2026-01-10 07:47:00.99	51.34	14.41	-29.2	-30.1	14.0	2.20e-06	0	41	0	301989888	19	4014
2026-01-10 07:47:01.99	51.14	14.44	-29.2	-30.2	13.9	3.80e-06	0	41	0	304087040	19	4046
2026-01-10 07:47:02.99	50.94	14.47	-29.3	-30.4	13.8	7.00e-07	0	42	0	306184192	19	4077
2026-01-10 07:47:03.99	50.74	14.50	-29.4	-30.6	13.8	1.98e-05	0	42	0	307232768	19	4133
2026-01-10 07:47:05.00	50.54	14.53	-29.3	-30.4	13.8	3.80e-06	0	41	0	309329920	19	4083
2026-01-10 07:47:06.00	50.33	14.56	-29.3	-30.4	13.8	1.06e-05	0	41	0	311427072	19	4099
2026-01-10 07:47:07.00	50.13	14.59	-29.4	-30.7	13.8	4.50e-06	0	42	0	313524224	19	4165
2026-01-10 07:47:08.00	49.93	14.61	-29.5	-30.9	13.6	9.90e-06	0	42	0	315621376	19	4235
2026-01-10 07:47:09.00	49.73	14.64	-29.7	-31.4	13.3	1.52e-05	0	42	0	316669952	19	4408
2026-01-10 07:47:10.01	49.53	14.67	-29.8	-31.2	12.9	6.63e-05	0	42	0	318767104	20	4235
2026-01-10 07:47:11.01	49.32	14.70	-29.6	-30.8	13.3	8.39e-05	0	42	0	320864256	20	4135
2026-01-10 07:47:12.01	49.12	14.72	-29.7	-31.2	12.9	1.31e-04	0	41	0	322961408	20	4238
2026-01-10 07:47:13.02	48.91	14.75	-29.8	-31.2	12.9	1.06e-04	0	42	0	324009984	20	4263
2026-01-10 07:47:14.02	48.71	14.77	-29.7	-31.1	13.0	3.81e-05	0	41	0	326107136	20	4232
2026-01-10 07:47:15.02	48.50	14.80	-29.7	-31.1	13.0	3.66e-05	0	42	0	328204288	20	4229
2026-01-10 07:47:16.03	48.30	14.83	-29.7	-31.2	12.9	4.50e-05	0	42	0	330301440	20	4253
2026-01-10 07:47:17.03	48.09	14.85	-29.9	-31.6	12.7	6.10e-05	0	42	0	332398592	20	4367
2026-01-10 07:47:18.02	47.89	14.87	-29.6	-30.7	13.2	3.66e-05	0	42	0	334495744	20	4108
2026-01-10 07:47:19.02	47.68	14.90	-29.6	-30.8	13.2	2.67e-05	0	42	0	335544320	20	4139
2026-01-10 07:47:20.03	47.48	14.92	-29.6	-30.8	13.2	2.67e-05	0	41	0	337641472	20	4130
2026-01-10 07:47:21.03	47.27	14.95	-29.8	-31.4	12.8	4.34e-05	0	42	0	339738624	20	4307
2026-01-10 07:47:22.03	47.06	14.97	-29.6	-30.7	13.2	3.20e-05	0	42	0	341835776	20	4108
2026-01-10 07:47:23.03	46.86	14.99	-29.6	-30.7	13.3	1.83e-05	0	42	0	342884352	20	4102
2026-01-10 07:47:24.04	46.65	15.02	-29.4	-30.3	13.5	1.60e-05	0	42	0	344981504	20	3990
2026-01-10 07:47:25.04	46.44	15.04	-29.6	-30.9	13.2	1.29e-05	0	41	0	347078656	20	4155
2026-01-10 07:47:26.04	46.23	15.06	-29.6	-30.8	13.2	2.36e-05	0	42	0	349175808	20	4116
2026-01-10 07:47:27.05	46.02	15.08	-29.7	-30.9	13.0	2.28e-05	0	41	0	351272960	20	4181
2026-01-10 07:47:28.04	45.81	15.10	-29.6	-30.7	13.2	2.21e-05	0	42	0	352321536	20	4107
2026-01-10 07:47:29.05	45.60	15.12	-29.4	-30.3	13.4	2.13e-05	0	42	0	354418688	20	3994
2026-01-10 07:47:30.05	45.39	15.14	-29.5	-30.8	13.6	7.00e-07	0	42	0	356515840	19	4215
2026-01-10 07:47:31.05	45.18	15.16	-29.1	-30.0	14.1	2.20e-06	0	42	0	358612992	19	3970
2026-01-10 07:47:32.05	44.98	15.18	-29.0	-29.7	14.2	6.10e-06	0	42	0	360710144	19	3892
2026-01-10 07:47:33.06	44.76	15.20	-29.1	-29.9	14.2	1.50e-06	0	42	0	361758720	19	3934
2026-01-10 07:47:34.05	44.55	15.22	-29.2	-30.3	13.9	6.10e-06	0	42	0	363855872	19	4047
2026-01-10 07:47:35.05	44.34	15.24	-29.7	-31.4	13.4	9.10e-06	0	42	0	365953024	19	4402
2026-01-10 07:47:36.05	44.13	15.26	-29.3	-30.4	13.8	6.80e-06	0	42	0	368050176	19	4094
2026-01-10 07:47:37.05	43.92	15.27	-29.3	-30.6	13.8	2.20e-06	0	41	0	369098752	19	4139
2026-01-10 07:47:38.05	43.71	15.29	-29.6	-31.3	13.3	8.30e-06	0	42	0	371195904	19	4368
2026-01-10 07:47:39.05	43.50	15.31	-29.7	-31.7	13.0	2.82e-05	0	42	0	373293056	19	4500
2026-01-10 07:47:40.05	43.29	15.32	-29.7	-31.6	13.1	4.34e-05	0	42	0	375390208	19	4487
2026-01-10 07:47:41.05	43.08	15.34	-30.0	-32.1	12.4	3.89e-05	0	42	0	377487360	20	4552
2026-01-10 07:47:42.05	42.86	15.36	-30.0	-31.9	12.4	5.49e-05	0	42	0	378535936	20	4479
2026-01-10 07:47:43.05	42.65	15.37	-29.9	-31.8	12.5	1.33e-04	0	42	0	380633088	20	4462
2026-01-10 07:47:44.05	42.44	15.39	-29.9	-31.8	12.5	4.27e-05	0	41	0	382730240	20	4463
2026-01-10 07:47:45.06	42.22	15.40	-29.9	-31.8	12.5	1.76e-04	0	42	0	384827392	20	4476
2026-01-10 07:47:46.06	42.01	15.42	-29.8	-31.4	12.7	6.40e-05	0	42	0	386924544	20	4350
2026-01-10 07:47:47.06	41.80	15.43	-29.9	-31.7	12.5	8.16e-05	0	42	0	387973120	20	4431
2026-01-10 07:47:48.06	41.58	15.44	-29.9	-31.8	12.5	1.25e-04	0	42	0	390070272	20	4453
2026-01-10 07:47:49.06	41.37	15.46	-29.8	-31.4	12.8	9.30e-05	0	42	0	392167424	20	4331
2026-01-10 07:47:50.06	41.16	15.47	-29.9	-31.7	12.5	1.91e-04	0	41	0	394264576	20	4434
2026-01-10 07:47:51.06	40.94	15.48	-30.6	-33.2	11.3	2.42e-04	0	42	0	396361728	21	4846
2026-01-10 07:47:52.06	40.73	15.49	-30.3	-32.2	12.0	5.35e-04	0	42	0	397410304	21	4490
2026-01-10 07:47:53.06	40.51	15.50	-29.9	-31.3	12.6	1.01e-04	0	42	0	399507456	21	4199
2026-01-10 07:47:54.07	40.30	15.52	-29.7	-31.1	13.1	4.65e-05	0	41	0	401604608	20	4222
2026-01-10 07:47:55.06	40.09	15.53	-30.0	-32.0	12.5	6.10e-05	0	42	0	403701760	20	4529
2026-01-10 07:47:56.07	39.87	15.54	-29.7	-31.0	13.1	4.34e-05	0	42	0	405798912	20	4201
2026-01-10 07:47:57.07	39.65	15.55	-29.8	-31.3	12.9	2.44e-05	0	42	0	406847488	20	4283
2026-01-10 07:47:58.07	39.44	15.56	-29.5	-30.5	13.5	1.52e-05	0	42	0	408944640	20	4034
2026-01-10 07:47:59.07	39.22	15.56	-29.4	-30.3	13.5	2.05e-05	0	42	0	411041792	20	3996
2026-01-10 07:48:00.07	39.01	15.57	-29.6	-30.9	13.2	2.21e-05	0	42	0	413138944	20	4147
2026-01-10 07:48:01.08	38.79	15.58	-29.7	-31.0	13.1	1.83e-05	0	42	0	414187520	20	4184
2026-01-10 07:48:02.09	38.57	15.59	-29.7	-30.9	13.1	4.50e-05	0	42	0	416284672	20	4169
2026-01-10 07:48:03.09	38.36	15.60	-29.8	-31.1	13.2	4.65e-05	0	42	0	418381824	20	4215
2026-01-10 07:48:04.09	38.14	15.60	-29.4	-30.2	13.6	6.80e-06	0	42	0	420478976	20	3946
2026-01-10 07:48:05.10	37.92	15.61	-29.3	-30.4	13.9	6.10e-06	0	42	0	422576128	19	4095
2026-01-10 07:48:06.11	37.71	15.62	-29.6	-31.3	13.8	1.50e-06	0	42	0	423624704	19	4343
2026-01-10 07:48:07.11	37.49	15.62	-29.7	-31.6	13.3	9.10e-06	0	42	0	425721856	19	4438
2026-01-10 07:48:08.11	37.27	15.63	-29.3	-30.5	13.8	3.00e-06	0	42	0	427819008	19	4126
2026-01-10 07:48:09.11	37.06	15.63	-29.7	-31.4	13.3	9.90e-06	0	42	0	429916160	19	4394
2026-01-10 07:48:10.12	36.84	15.64	-29.8	-31.7	13.1	2.13e-05	0	42	0	432013312	19	4476
2026-01-10 07:48:11.12	36.62	15.64	-29.7	-31.0	13.1	3.50e-05	0	42	0	433061888	20	4190
2026-01-10 07:48:12.12	36.41	15.64	-29.9	-31.4	13.1	1.05e-04	0	42	0	435159040	20	4294
2026-01-10 07:48:13.12	36.19	15.65	-29.9	-31.5	12.8	3.20e-05	0	42	0	437256192	20	4322
2026-01-10 07:48:14.12	35.97	15.65	-30.2	-32.5	12.4	3.43e-05	0	42	0	439353344	20	4681
2026-01-10 07:48:15.12	35.76	15.65	-29.7	-30.9	13.3	4.80e-05	0	42	0	441450496	20	4154
2026-01-10 07:48:16.12	35.54	15.66	-29.8	-31.2	13.0	3.50e-05	0	42	0	442499072	20	4254
2026-01-10 07:48:17.12	35.32	15.66	-30.0	-31.9	12.7	1.23e-04	0	42	0	444596224	20	4444
2026-01-10 07:48:18.11	35.11	15.66	-29.5	-30.5	13.3	2.67e-05	0	42	0	446693376	20	4033
2026-01-10 07:48:19.11	34.89	15.66	-29.3	-30.4	13.9	5.30e-06	0	42	0	448790528	19	4081
2026-01-10 07:48:20.11	34.68	15.66	-29.0	-29.6	14.4	7.00e-07	0	42	0	449839104	19	3863
2026-01-10 07:48:21.12	34.46	15.66	-29.1	-29.9	14.2	7.00e-07	0	42	0	451936256	19	3935
2026-01-10 07:48:22.12	34.24	15.66	-29.0	-29.7	14.3	4.50e-06	0	42	0	454033408	19	3894
2026-01-10 07:48:23.12	34.02	15.66	-29.4	-30.5	13.7	3.80e-06	0	42	0	456130560	19	4124
2026-01-10 07:48:24.13	33.81	15.66	-29.3	-30.4	13.9	1.14e-05	0	42	0	458227712	19	4105
2026-01-10 07:48:25.14	33.59	15.66	-29.6	-31.2	13.4	1.06e-05	0	41	0	459276288	19	4331
2026-01-10 07:48:26.13	33.37	15.65	-29.7	-31.4	13.2	3.28e-05	0	42	0	461373440	19	4406
2026-01-10 07:48:27.13	33.16	15.65	-29.6	-31.4	13.2	2.67e-05	0	42	0	463470592	19	4386
2026-01-10 07:48:28.13	32.94	15.65	-29.8	-31.7	13.0	2.21e-05	0	42	0	465567744	19	4505
2026-01-10 07:48:29.13	32.72	15.64	-29.9	-31.5	12.7	4.34e-05	0	42	0	467664896	20	4345
2026-01-10 07:48:30.13	32.51	15.64	-30.1	-32.3	12.1	1.52e-04	0	42	0	468713472	20	4629
2026-01-10 07:48:31.13	32.29	15.64	-30.2	-32.5	12.1	2.54e-04	0	42	0	470810624	20	4686
2026-01-10 07:48:32.13	32.07	15.63	-30.2	-32.5	12.0	2.55e-04	0	42	0	472907776	20	4699
2026-01-10 07:48:33.13	31.86	15.63	-30.5	-32.9	11.4	5.62e-04	0	42	0	475004928	21	4762
2026-01-10 07:48:34.13	31.64	15.62	-30.5	-32.8	11.6	7.31e-04	0	42	0	477102080	21	4723
2026-01-10 07:48:35.13	31.43	15.62	-30.0	-31.6	12.3	5.41e-04	0	42	0	478150656	21	4309
2026-01-10 07:48:36.14	31.21	15.61	-30.1	-31.9	12.1	1.98e-04	0	42	0	480247808	21	4389
2026-01-10 07:48:37.14	30.99	15.60	-30.4	-32.6	11.7	4.40e-04	0	42	0	482344960	21	4621
2026-01-10 07:48:38.15	30.77	15.60	-29.7	-31.1	13.0	3.07e-04	0	42	0	484442112	20	4217
2026-01-10 07:48:39.15	30.56	15.59	-29.8	-31.3	12.9	6.90e-04	0	42	0	486539264	20	4278
2026-01-10 07:48:40.16	30.34	15.58	-30.4	-32.6	11.6	3.54e-04	0	42	0	487587840	21	4615
2026-01-10 07:48:41.16	30.13	15.57	-29.7	-31.0	12.9	1.09e-04	0	42	0	489684992	20	4208
2026-01-10 07:48:42.16	29.91	15.56	-29.7	-30.8	13.1	2.51e-05	0	42	0	491782144	20	4126
2026-01-10 07:48:43.16	29.70	15.55	-29.7	-31.0	13.1	2.05e-05	0	42	0	493879296	20	4177
2026-01-10 07:48:44.16	29.48	15.55	-29.6	-30.8	13.2	2.89e-05	0	42	0	494927872	20	4110
2026-01-10 07:48:45.16	29.27	15.54	-30.1	-32.1	12.6	7.24e-05	0	42	0	497025024	20	4529
2026-01-10 07:48:46.15	29.05	15.53	-30.0	-31.8	12.7	1.07e-04	0	42	0	499122176	20	4406
2026-01-10 07:48:47.16	28.84	15.51	-30.4	-32.9	12.0	1.26e-04	0	42	0	501219328	20	4802
2026-01-10 07:48:48.16	28.62	15.50	-29.9	-31.5	12.8	1.46e-04	0	42	0	503316480	20	4321
2026-01-10 07:48:49.15	28.41	15.49	-29.8	-31.2	13.1	5.41e-05	0	42	0	504365056	20	4241
2026-01-10 07:48:50.16	28.20	15.48	-29.6	-30.7	13.4	1.90e-05	0	42	0	506462208	20	4076
2026-01-10 07:48:51.16	27.98	15.47	-29.5	-30.5	13.5	1.14e-05	0	42	0	508559360	20	4036
2026-01-10 07:48:52.16	27.77	15.46	-29.4	-30.5	13.9	3.00e-06	0	42	0	510656512	19	4119
2026-01-10 07:48:53.16	27.55	15.44	-29.2	-30.1	14.1	5.30e-06	0	42	0	512753664	19	3984
2026-01-10 07:48:54.15	27.34	15.43	-29.6	-31.0	13.6	2.20e-06	0	42	0	513802240	19	4249
2026-01-10 07:48:55.15	27.13	15.41	-29.9	-31.5	12.9	6.80e-06	0	42	0	515899392	20	4299
2026-01-10 07:48:56.15	26.92	15.40	-29.6	-30.5	13.4	2.51e-05	0	42	0	517996544	20	4018
2026-01-10 07:48:57.15	26.70	15.39	-29.7	-30.8	13.4	3.35e-05	0	42	0	520093696	20	4114
2026-01-10 07:48:58.16	26.49	15.37	-29.2	-30.2	14.1	7.00e-07	0	42	0	521142272	19	4024
2026-01-10 07:48:59.15	26.28	15.36	-29.1	-29.7	14.3	0.00e+00	0	42	0	523239424	19	3889
2026-01-10 07:49:00.15	26.07	15.34	-29.4	-30.7	13.7	3.80e-06	0	42	0	525336576	19	4160
2026-01-10 07:49:01.16	25.85	15.32	-29.3	-30.4	13.9	3.80e-06	0	42	0	527433728	19	4089
2026-01-10 07:49:02.16	25.64	15.31	-29.5	-30.8	13.6	3.80e-06	0	42	0	529530880	19	4193
2026-01-10 07:49:03.16	25.43	15.29	-29.5	-31.0	13.5	8.30e-06	0	42	0	530579456	19	4256
2026-01-10 07:49:04.17	25.22	15.27	-29.5	-30.9	13.6	3.80e-06	0	42	0	532676608	19	4239
2026-01-10 07:49:05.16	25.01	15.26	-29.5	-30.9	13.5	9.10e-06	0	42	0	534773760	19	4227
2026-01-10 07:49:06.16	24.80	15.24	-29.5	-30.9	13.6	9.10e-06	0	42	0	536870912	19	4226
2026-01-10 07:49:07.16	24.59	15.22	-29.7	-31.4	13.3	1.90e-05	0	42	0	538968064	19	4372
2026-01-10 07:49:08.16	24.38	15.20	-29.6	-31.2	13.4	1.52e-05	0	42	0	540016640	19	4314
2026-01-10 07:49:09.17	24.17	15.18	-29.8	-31.6	13.1	2.74e-05	0	42	0	542113792	19	4453
2026-01-10 07:49:10.17	23.96	15.16	-29.7	-31.3	13.3	2.74e-05	0	42	0	544210944	19	4366
2026-01-10 07:49:11.18	23.75	15.14	-29.9	-31.9	12.9	4.34e-05	0	42	0	546308096	19	4565
2026-01-10 07:49:12.18	23.54	15.12	-29.6	-31.3	13.3	3.73e-05	0	42	0	548405248	19	4343
2026-01-10 07:49:13.18	23.33	15.10	-29.9	-31.4	13.0	2.59e-05	0	42	0	549453824	20	4286
2026-01-10 07:49:14.19	23.12	15.08	-29.5	-30.3	13.7	1.14e-05	0	42	0	551550976	20	3946
2026-01-10 07:49:15.18	22.91	15.06	-29.4	-30.5	13.9	3.80e-06	0	42	0	553648128	19	4091
2026-01-10 07:49:16.18	22.71	15.04	-29.3	-30.4	14.0	3.80e-06	0	42	0	555745280	19	4056
2026-01-10 07:49:17.19	22.50	15.01	-29.3	-30.4	14.1	2.20e-06	0	42	0	557842432	19	4047
2026-01-10 07:49:18.19	22.29	14.99	-29.3	-30.2	14.2	2.20e-06	0	42	0	558891008	19	4002
2026-01-10 07:49:19.18	22.09	14.97	-29.2	-30.1	14.2	7.00e-07	0	42	0	560988160	19	3973
2026-01-10 07:49:20.18	21.88	14.95	-29.3	-30.2	14.2	1.50e-06	0	42	0	563085312	19	3997
2026-01-10 07:49:21.17	21.67	14.92	-29.1	-29.7	14.4	0.00e+00	0	42	0	565182464	19	3864
2026-01-10 07:49:22.17	21.47	14.90	-29.1	-29.8	14.4	0.00e+00	0	42	0	567279616	19	3905
2026-01-10 07:49:23.18	21.26	14.87	-29.0	-29.5	14.6	7.00e-07	0	42	0	568328192	19	3809
2026-01-10 07:49:24.18	21.06	14.85	-29.2	-30.0	14.3	7.00e-07	0	42	0	570425344	19	3943
2026-01-10 07:49:25.18	20.85	14.82	-29.3	-30.2	14.2	3.00e-06	0	42	0	572522496	19	4003
2026-01-10 07:49:26.18	20.65	14.80	-29.5	-30.7	13.8	3.00e-06	0	42	0	574619648	19	4153
2026-01-10 07:49:27.19	20.44	14.77	-29.5	-30.9	13.7	3.80e-06	0	42	0	575668224	19	4206
2026-01-10 07:49:28.19	20.24	14.75	-29.5	-30.9	13.7	1.50e-06	0	42	0	577765376	19	4220
2026-01-10 07:49:29.18	20.04	14.72	-29.8	-31.6	13.3	7.60e-06	0	42	0	579862528	19	4442
2026-01-10 07:49:30.18	19.83	14.70	-29.7	-31.4	13.3	8.30e-06	0	42	0	581959680	19	4382
2026-01-10 07:49:31.18	19.63	14.67	-29.8	-31.7	13.1	2.44e-05	0	42	0	584056832	19	4469
2026-01-10 07:49:32.18	19.43	14.64	-29.8	-31.8	13.0	2.51e-05	0	42	0	585105408	19	4507
2026-01-10 07:49:33.18	19.23	14.61	-30.0	-31.7	12.7	7.24e-05	0	42	0	587202560	20	4405
2026-01-10 07:49:34.18	19.03	14.59	-29.9	-31.5	12.8	9.68e-05	0	42	0	589299712	20	4337
2026-01-10 07:49:35.18	18.83	14.56	-30.0	-31.9	12.5	8.46e-05	0	42	0	591396864	20	4474
2026-01-10 07:49:36.18	18.63	14.53	-30.2	-32.4	12.3	2.01e-04	0	42	0	593494016	20	4638
2026-01-10 07:49:37.18	18.42	14.50	-30.0	-31.9	12.6	1.60e-04	0	42	0	594542592	20	4473
2026-01-10 07:49:38.19	18.22	14.47	-29.9	-31.5	12.7	8.31e-05	0	42	0	596639744	20	4324
2026-01-10 07:49:39.19	18.02	14.44	-30.0	-31.8	12.6	5.79e-05	0	42	0	598736896	20	4432
2026-01-10 07:49:40.19	17.82	14.41	-29.9	-31.6	12.7	6.86e-05	0	42	0	600834048	20	4373
2026-01-10 07:49:41.19	17.63	14.38	-30.1	-32.1	12.4	1.24e-04	0	42	0	601882624	20	4511
2026-01-10 07:49:42.20	17.43	14.35	-29.9	-31.5	12.8	7.93e-05	0	42	0	603979776	20	4316
2026-01-10 07:49:43.20	17.23	14.32	-29.8	-31.2	13.0	4.80e-05	0	42	0	606076928	20	4225
2026-01-10 07:49:44.20	17.03	14.29	-29.8	-31.1	13.1	4.34e-05	0	42	0	608174080	20	4209
2026-01-10 07:49:45.21	16.83	14.26	-29.8	-31.2	13.0	5.18e-05	0	42	0	610271232	20	4241
2026-01-10 07:49:46.21	16.64	14.23	-29.8	-31.3	12.9	5.87e-05	0	42	0	611319808	20	4284
2026-01-10 07:49:47.21	16.44	14.19	-29.8	-31.4	12.8	5.11e-05	0	42	0	613416960	20	4291
2026-01-10 07:49:48.22	16.24	14.16	-29.9	-31.5	12.7	4.73e-05	0	42	0	615514112	20	4336
2026-01-10 07:49:49.22	16.05	14.13	-29.6	-30.8	13.2	2.36e-05	0	42	0	617611264	20	4126
2026-01-10 07:49:50.22	15.85	14.10	-29.7	-30.9	13.1	2.51e-05	0	42	0	619708416	20	4170
2026-01-10 07:49:51.23	15.66	14.06	-29.6	-30.6	13.3	2.51e-05	0	42	0	620756992	20	4064
2026-01-10 07:49:52.22	15.46	14.03	-29.5	-30.5	13.5	1.14e-05	0	42	0	622854144	20	4018
2026-01-10 07:49:53.23	15.27	14.00	-29.5	-30.3	13.6	5.30e-06	0	42	0	624951296	20	3968
2026-01-10 07:49:54.23	15.08	13.96	-29.5	-30.8	13.7	5.30e-06	0	42	0	627048448	19	4203
2026-01-10 07:49:55.23	14.88	13.93	-29.4	-30.7	13.8	3.80e-06	0	42	0	629145600	19	4152
2026-01-10 07:49:56.23	14.69	13.89	-29.4	-30.5	13.8	5.30e-06	0	42	0	630194176	19	4110
2026-01-10 07:49:57.24	14.50	13.86	-29.3	-30.2	14.0	7.00e-07	0	42	0	632291328	19	4024
2026-01-10 07:49:58.24	14.31	13.82	-29.5	-30.8	13.6	7.60e-06	0	42	0	634388480	19	4193
2026-01-10 07:49:59.24	14.12	13.79	-29.6	-31.3	13.3	1.52e-05	0	42	0	636485632	19	4348
2026-01-10 07:50:00.24	13.93	13.75	-29.8	-31.6	13.0	2.67e-05	0	42	0	638582784	19	4461
2026-01-10 07:50:01.24	13.74	13.72	-29.8	-31.7	13.0	5.87e-05	0	42	0	639631360	19	4474
2026-01-10 07:50:02.25	13.54	13.68	-29.6	-31.3	13.1	4.57e-05	0	42	0	641728512	19	4370
2026-01-10 07:50:03.25	13.36	13.64	-29.6	-31.3	13.2	2.44e-05	0	42	0	643825664	19	4371
2026-01-10 07:50:04.25	13.17	13.61	-29.8	-31.8	13.0	3.20e-05	0	42	0	645922816	19	4518
2026-01-10 07:50:05.25	12.98	13.57	-29.9	-31.6	12.8	5.41e-05	0	42	0	646971392	20	4375
2026-01-10 07:50:06.26	12.79	13.53	-30.0	-31.9	12.5	9.38e-05	0	42	0	649068544	20	4477
2026-01-10 07:50:07.26	12.60	13.50	-30.2	-32.4	12.3	2.19e-04	0	42	0	651165696	20	4622
2026-01-10 07:50:08.26	12.42	13.46	-30.3	-32.8	12.0	2.61e-04	0	42	0	653262848	20	4785
2026-01-10 07:50:09.26	12.23	13.42	-30.4	-32.9	11.9	4.22e-04	0	42	0	655360000	20	4808
2026-01-10 07:50:10.26	12.05	13.38	-30.3	-32.5	12.2	3.02e-04	0	42	0	656408576	20	4652
2026-01-10 07:50:11.27	11.86	13.34	-30.2	-32.3	12.5	1.22e-04	0	42	0	658505728	20	4565
2026-01-10 07:50:12.27	11.67	13.31	-30.2	-32.3	12.5	1.25e-04	0	41	0	660602880	20	4568
2026-01-10 07:50:13.27	11.49	13.27	-30.3	-32.6	12.3	2.02e-04	0	42	0	662700032	20	4676
2026-01-10 07:50:14.27	11.31	13.23	-30.2	-32.1	12.5	1.26e-04	0	42	0	664797184	20	4521
2026-01-10 07:50:15.27	11.12	13.19	-30.1	-32.0	12.5	1.04e-04	0	42	0	665845760	20	4498
2026-01-10 07:50:16.27	10.94	13.15	-30.2	-32.5	12.2	1.85e-04	0	42	0	667942912	20	4664
2026-01-10 07:50:17.28	10.76	13.11	-30.2	-32.5	12.3	1.37e-04	0	42	0	670040064	20	4642
2026-01-10 07:50:18.28	10.58	13.07	-30.4	-33.0	11.9	1.80e-04	0	42	0	672137216	20	4842
2026-01-10 07:50:19.29	10.39	13.03	-30.3	-32.7	12.1	2.23e-04	0	42	0	674234368	20	4743
2026-01-10 07:50:20.29	10.21	12.99	-30.4	-32.8	12.0	2.75e-04	0	42	0	675282944	20	4771
2026-01-10 07:50:21.29	10.03	12.95	-30.5	-32.7	11.8	4.32e-04	0	42	0	677380096	21	4610
2026-01-10 07:50:22.29	9.85	12.91	-30.7	-33.2	11.5	9.17e-04	0	42	0	679477248	21	4795
2026-01-10 07:50:23.29	9.67	12.87	-30.4	-32.2	12.1	3.64e-04	0	42	0	681574400	21	4468
2026-01-10 07:50:24.28	9.50	12.83	-30.2	-31.9	12.3	1.58e-04	0	42	0	683671552	21	4345
2026-01-10 07:50:25.28	9.32	12.79	-30.4	-32.2	12.2	1.71e-04	0	42	0	684720128	21	4437
2026-01-10 07:50:26.28	9.14	12.74	-30.2	-31.8	12.4	1.65e-04	0	42	0	686817280	21	4331
2026-01-10 07:50:27.29	8.96	12.70	-30.4	-32.4	12.0	3.28e-04	0	42	0	688914432	21	4532
2026-01-10 07:50:28.30	8.79	12.66	-30.3	-32.1	12.2	3.31e-04	0	42	0	691011584	21	4414
2026-01-10 07:50:29.30	8.61	12.62	-30.1	-31.7	12.4	2.02e-04	0	42	0	692060160	21	4305
2026-01-10 07:50:30.30	8.43	12.58	-30.1	-31.6	12.3	1.72e-04	0	42	0	694157312	21	4278
2026-01-10 07:50:31.30	8.26	12.53	-29.9	-31.1	12.7	8.54e-05	0	42	0	696254464	21	4124
2026-01-10 07:50:32.31	8.08	12.49	-30.0	-31.2	12.5	1.33e-04	0	42	0	698351616	21	4173
2026-01-10 07:50:33.30	7.91	12.45	-30.0	-31.4	12.5	1.23e-04	0	42	0	700448768	21	4203
2026-01-10 07:50:34.30	7.74	12.40	-30.1	-31.6	12.3	1.78e-04	0	42	0	701497344	21	4290
2026-01-10 07:50:35.30	7.57	12.36	-29.9	-31.1	12.6	1.16e-04	0	42	0	703594496	21	4128
2026-01-10 07:50:36.30	7.39	12.32	-29.9	-31.2	12.6	7.93e-05	0	42	0	705691648	21	4158
2026-01-10 07:50:37.30	7.22	12.27	-30.0	-31.3	12.4	1.24e-04	0	42	0	707788800	21	4205
2026-01-10 07:50:38.30	7.05	12.23	-30.2	-32.1	11.9	3.13e-04	0	42	0	709885952	21	4468
2026-01-10 07:50:39.31	6.88	12.19	-30.4	-32.5	11.8	4.75e-04	0	42	0	710934528	21	4576
2026-01-10 07:50:40.31	6.71	12.14	-30.2	-32.1	11.9	4.20e-04	0	42	0	713031680	21	4452
2026-01-10 07:50:41.31	6.54	12.10	-30.3	-32.5	11.6	5.12e-04	0	42	0	715128832	21	4600
2026-01-10 07:50:42.31	6.37	12.05	-30.2	-32.1	12.0	6.26e-04	0	42	0	717225984	21	4452
2026-01-10 07:50:43.32	6.20	12.01	-30.2	-32.0	12.0	3.82e-04	0	42	0	719323136	21	4425
2026-01-10 07:50:44.31	6.03	11.96	-30.1	-31.7	12.1	3.36e-04	0	42	0	720371712	21	4348
2026-01-10 07:50:45.32	5.86	11.92	-30.1	-31.9	12.0	2.81e-04	0	42	0	722468864	21	4389
2026-01-10 07:50:46.32	5.70	11.87	-30.0	-31.4	12.3	1.76e-04	0	42	0	724566016	21	4249
2026-01-10 07:50:47.32	5.53	11.83	-30.1	-31.7	12.2	2.43e-04	0	42	0	726663168	21	4331
2026-01-10 07:50:48.32	5.36	11.78	-30.0	-31.4	12.5	2.07e-04	0	42	0	728760320	21	4228
2026-01-10 07:50:49.32	5.20	11.74	-30.0	-31.3	12.3	1.62e-04	0	42	0	729808896	21	4215
2026-01-10 07:50:50.32	5.03	11.69	-30.2	-32.1	11.9	2.33e-04	0	42	0	731906048	21	4468
2026-01-10 07:50:51.32	4.87	11.65	-30.4	-32.7	11.4	6.42e-04	0	42	0	734003200	21	4694
2026-01-10 07:50:52.32	4.70	11.60	-30.7	-33.7	10.7	1.80e-03	0	42	0	736100352	21	5073
2026-01-10 07:50:53.32	4.54	11.55	-30.9	-34.3	10.2	4.36e-03	0	42	0	737148928	21	5314
2026-01-10 07:50:54.32	4.38	11.51	-31.3	-35.3	9.1	9.83e-03	0	42	0	739246080	22	5708
2026-01-10 07:50:55.32	4.22	11.46	-31.6	-36.0	8.2	3.93e-02	0	42	0	741343232	23	5957
2026-01-10 07:50:56.32	4.05	11.41	-31.6	-36.3	7.9	5.25e-02	0	42	0	743440384	23	6118
2026-01-10 07:50:57.32	3.89	11.37	-31.5	-35.6	8.5	5.74e-02	0	42	0	745537536	23	5797
2026-01-10 07:50:58.32	3.73	11.32	-31.5	-35.4	8.5	4.41e-02	0	42	0	746586112	23	5691
2026-01-10 07:50:59.33	3.57	11.27	-31.3	-34.9	9.0	4.58e-02	0	42	0	748683264	23	5448
2026-01-10 07:51:00.33	3.41	11.23	-31.3	-35.0	8.9	2.63e-02	0	42	0	750780416	23	5470
2026-01-10 07:51:01.33	3.25	11.18	-31.3	-34.7	9.1	2.39e-02	0	42	0	752877568	23	5321
2026-01-10 07:51:02.33	3.09	11.13	-31.3	-34.8	9.1	1.89e-02	0	42	0	754974720	23	5364
2026-01-10 07:51:03.33	2.93	11.08	-31.3	-34.6	9.3	1.92e-02	0	42	0	756023296	23	5280
2026-01-10 07:51:04.33	2.78	11.04	-31.4	-34.9	9.2	3.27e-02	0	42	0	758120448	23	5382
2026-01-10 07:51:05.33	2.62	10.99	-31.1	-34.0	9.7	1.48e-02	0	42	0	760217600	23	5043
2026-01-10 07:51:06.34	2.46	10.94	-31.1	-33.8	10.0	8.85e-03	0	42	0	762314752	23	4911
2026-01-10 07:51:07.35	2.30	10.89	-30.8	-33.0	10.6	5.57e-03	0	42	0	764411904	23	4608
2026-01-10 07:51:08.35	2.15	10.85	-30.6	-32.8	11.0	2.14e-03	0	42	0	765460480	22	4633
2026-01-10 07:51:09.35	1.99	10.80	-30.4	-32.2	11.4	8.78e-04	0	42	0	767557632	22	4407
2026-01-10 07:51:10.36	1.84	10.75	-30.5	-32.4	11.2	1.35e-03	0	42	0	769654784	22	4489
2026-01-10 07:51:11.35	1.68	10.70	-30.5	-32.6	11.2	1.06e-03	0	42	0	771751936	22	4541
2026-01-10 07:51:12.35	1.53	10.65	-30.7	-32.9	11.0	1.54e-03	0	42	0	772800512	22	4666
2026-01-10 07:51:13.35	1.38	10.60	-30.9	-33.5	10.6	3.45e-03	0	42	0	774897664	22	4883
2026-01-10 07:51:14.35	1.22	10.55	-30.7	-32.9	11.0	2.63e-03	0	42	0	776994816	22	4667
2026-01-10 07:51:15.35	1.07	10.51	-30.6	-32.8	11.0	1.60e-03	0	42	0	779091968	22	4612
2026-01-10 07:51:16.35	0.92	10.46	-30.7	-32.9	10.9	1.94e-03	0	42	0	781189120	22	4664
2026-01-10 07:51:17.35	0.77	10.41	-30.7	-32.9	10.9	2.18e-03	0	42	0	782237696	22	4671
2026-01-10 07:51:18.36	0.62	10.36	-30.6	-32.7	11.1	1.60e-03	0	42	0	784334848	22	4562
2026-01-10 07:51:19.36	0.47	10.31	-30.6	-32.5	11.3	1.35e-03	0	42	0	786432000	22	4509
2026-01-10 07:51:20.35	0.32	10.26	-30.6	-32.5	11.3	1.26e-03	0	42	0	788529152	22	4500
2026-01-10 07:51:21.35	0.17	10.21	-30.5	-32.3	11.5	9.97e-04	0	42	0	790626304	22	4428
2026-01-10 07:51:22.35	0.02	10.16	-30.5	-32.3	11.6	7.39e-04	0	42	0	791674880	22	4426
2026-01-10 07:51:23.35	359.88	10.11	-30.5	-32.3	11.6	6.90e-04	0	42	0	793772032	22	4419
2026-01-10 07:51:24.35	359.73	10.06	-30.6	-32.4	11.5	8.76e-04	0	42	0	795869184	22	4466
2026-01-10 07:51:25.36	359.58	10.01	-30.3	-31.8	11.9	4.51e-04	0	42	0	797966336	22	4253
2026-01-10 07:51:26.36	359.43	9.96	-30.4	-31.9	11.8	4.10e-04	0	42	0	799014912	22	4283
2026-01-10 07:51:27.36	359.29	9.91	-30.3	-31.8	11.8	4.52e-04	0	42	0	801112064	22	4283
2026-01-10 07:51:28.36	359.14	9.86	-30.4	-32.5	11.8	5.47e-04	0	42	0	803209216	21	4577
2026-01-10 07:51:29.36	359.00	9.81	-30.3	-32.2	12.0	3.46e-04	0	42	0	805306368	21	4478
2026-01-10 07:51:30.36	358.85	9.76	-30.4	-32.4	11.8	4.03e-04	0	42	0	807403520	21	4536
2026-01-10 07:51:31.36	358.71	9.71	-30.4	-32.5	11.7	4.10e-04	0	42	0	808452096	21	4584
2026-01-10 07:51:32.36	358.57	9.66	-30.6	-32.8	11.6	6.32e-04	0	42	0	810549248	21	4670
2026-01-10 07:51:33.36	358.42	9.61	-30.6	-33.0	11.6	6.32e-04	0	42	0	812646400	21	4726
2026-01-10 07:51:34.36	358.28	9.56	-30.8	-33.6	11.2	7.54e-04	0	42	0	814743552	21	4945
2026-01-10 07:51:35.36	358.14	9.51	-30.9	-33.7	11.2	1.07e-03	0	42	0	816840704	21	4985
2026-01-10 07:51:36.36	358.00	9.46	-30.9	-33.9	11.1	1.69e-03	0	42	0	817889280	21	5049
2026-01-10 07:51:37.36	357.86	9.41	-30.7	-33.3	11.2	1.83e-03	0	42	0	819986432	21	4865
2026-01-10 07:51:38.36	357.72	9.36	-30.8	-33.7	11.0	2.10e-03	0	42	0	822083584	21	5008
2026-01-10 07:51:39.37	357.58	9.31	-30.7	-33.2	11.3	1.34e-03	0	42	0	824180736	21	4817
2026-01-10 07:51:40.38	357.44	9.26	-30.6	-33.0	11.4	9.92e-04	0	42	0	826277888	21	4756
2026-01-10 07:51:41.38	357.30	9.21	-30.5	-32.8	11.5	1.01e-03	0	42	0	827326464	21	4685
2026-01-10 07:51:42.39	357.16	9.16	-30.5	-32.8	11.4	7.19e-04	0	42	0	829423616	21	4716
2026-01-10 07:51:43.39	357.02	9.11	-30.5	-32.8	11.4	7.80e-04	0	42	0	831520768	21	4698
2026-01-10 07:51:44.40	356.88	9.05	-30.3	-32.5	11.6	7.78e-04	0	42	0	833617920	21	4598
2026-01-10 07:51:45.40	356.75	9.00	-30.2	-32.0	11.9	5.45e-04	0	42	0	835715072	21	4431
2026-01-10 07:51:46.41	356.61	8.95	-30.5	-33.0	11.0	2.78e-03	0	42	0	836763648	21	4776
2026-01-10 07:51:47.41	356.47	8.90	-30.2	-32.0	11.8	5.43e-04	0	42	0	838860800	21	4425
2026-01-10 07:51:48.41	356.34	8.85	-30.0	-31.5	12.1	3.74e-04	0	42	0	840957952	21	4265
2026-01-10 07:51:49.41	356.20	8.80	-29.9	-31.3	12.3	1.54e-04	0	42	0	843055104	21	4213
2026-01-10 07:51:50.42	356.07	8.75	-29.7	-31.0	12.8	9.07e-05	0	42	0	844103680	20	4185
2026-01-10 07:51:51.42	355.93	8.69	-29.6	-30.8	12.9	3.89e-05	0	42	0	846200832	20	4129
2026-01-10 07:51:52.42	355.80	8.64	-30.0	-31.7	12.8	4.04e-05	0	42	0	848297984	20	4369
2026-01-10 07:51:53.42	355.67	8.59	-30.1	-31.8	12.8	5.72e-05	0	42	0	850395136	20	4409
2026-01-10 07:51:54.42	355.53	8.54	-30.0	-31.8	12.6	9.91e-05	0	42	0	852492288	20	4422
2026-01-10 07:51:55.42	355.40	8.49	-30.1	-32.0	12.5	1.61e-04	0	42	0	854589440	20	4488
2026-01-10 07:51:56.42	355.27	8.44	-30.0	-31.8	12.5	6.48e-05	0	42	0	855638016	20	4422
2026-01-10 07:51:57.42	355.14	8.39	-30.3	-32.4	12.5	1.43e-04	0	42	0	857735168	20	4591
2026-01-10 07:51:58.42	355.01	8.33	-30.2	-32.3	12.4	1.27e-04	0	42	0	859832320	20	4584
2026-01-10 07:51:59.41	354.88	8.28	-30.2	-32.2	12.4	1.76e-04	0	42	0	861929472	20	4562
2026-01-10 07:52:00.42	354.75	8.23	-30.3	-32.4	12.3	1.36e-04	0	42	0	862978048	20	4618
2026-01-10 07:52:01.42	354.62	8.18	-30.3	-32.3	12.4	2.31e-04	0	42	0	865075200	20	4579
2026-01-10 07:52:02.43	354.49	8.13	-30.1	-32.0	12.5	1.34e-04	0	42	0	867172352	20	4485
2026-01-10 07:52:03.42	354.36	8.08	-30.1	-31.8	12.7	7.40e-05	0	42	0	869269504	20	4406
2026-01-10 07:52:04.42	354.24	8.02	-30.0	-31.7	12.9	7.70e-05	0	42	0	871366656	20	4364
2026-01-10 07:52:05.41	354.11	7.97	-30.0	-31.7	12.7	9.23e-05	0	42	0	872415232	20	4392
2026-01-10 07:52:06.42	353.98	7.92	-29.9	-31.4	12.8	6.71e-05	0	42	0	874512384	20	4306
2026-01-10 07:52:07.41	353.86	7.87	-30.1	-31.9	12.5	7.85e-05	0	42	0	876609536	20	4464
2026-01-10 07:52:08.42	353.73	7.82	-30.2	-32.4	12.1	2.27e-04	0	42	0	878706688	20	4638
2026-01-10 07:52:09.42	353.61	7.77	-30.3	-32.6	12.0	2.37e-04	0	42	0	880803840	20	4686
2026-01-10 07:52:10.42	353.48	7.71	-30.4	-32.5	11.8	5.85e-04	0	42	0	881852416	21	4555
2026-01-10 07:52:11.42	353.36	7.66	-30.2	-31.7	12.2	3.62e-04	0	42	0	883949568	21	4325
2026-01-10 07:52:12.43	353.23	7.61	-30.2	-31.8	12.2	2.00e-04	0	42	0	886046720	21	4344
2026-01-10 07:52:13.42	353.11	7.56	-30.3	-32.2	11.9	3.15e-04	0	42	0	888143872	21	4473
2026-01-10 07:52:14.43	352.99	7.50	-30.2	-32.0	11.9	4.06e-04	0	42	0	890241024	21	4421
2026-01-10 07:52:15.43	352.86	7.45	-30.1	-31.8	11.9	5.39e-04	0	42	0	891289600	21	4385
2026-01-10 07:52:16.43	352.74	7.40	-30.2	-32.2	11.7	6.38e-04	0	42	0	893386752	21	4493
2026-01-10 07:52:17.43	352.62	7.35	-30.3	-32.4	11.4	7.03e-04	0	42	0	895483904	21	4602
2026-01-10 07:52:18.44	352.50	7.30	-30.5	-33.1	10.9	1.06e-03	0	42	0	897581056	21	4862
2026-01-10 07:52:19.44	352.38	7.24	-30.4	-32.6	11.2	1.16e-03	0	42	0	898629632	21	4679
2026-01-10 07:52:20.44	352.26	7.19	-30.3	-32.5	11.3	1.39e-03	0	42	0	900726784	21	4616
2026-01-10 07:52:21.45	352.13	7.14	-30.2	-32.0	11.7	8.28e-04	0	42	0	902823936	21	4433
2026-01-10 07:52:22.45	352.01	7.09	-30.3	-32.4	11.4	7.69e-04	0	42	0	904921088	21	4595
2026-01-10 07:52:23.46	351.89	7.03	-32.6	-41.2	4.9	8.79e-02	0	42	0	907018240	25	9672
2026-01-10 07:52:24.46	351.78	6.98	-33.2	-45.6	3.8	1.49e+00	0	42	104	907018240	26	15013

#Closed at: 2026-01-10 07:52:24
#Recorded file [907 MB]: D:/data/31010_260110_104419.dat