passes_logs/2026/01/10/R2M6_AANII_01/R2M6_AANII_01__20260110_152746_FENGYUN_3E_rec.log

#Pass ID: 20260110_152746_FENGYUN 3E
#Satellite: FENGYUN 3E
#Configuration: FENGYUN 3E
#almurnet v.1.7.20240730
#Start time: 2026-01-10 15:27:48

#Version: 2.2.20231116
#Station: R2M6_AANII_01
#Location: 30.233357 lon 59.946436 lat
#TLE: 1 49008U 21062A   26009.86154543 -.00000176  00000+0 -62220-4 0  9996
#TLE: 2 49008  98.7486  15.0498 0001782 147.3871 212.7416 14.19883371234110

#Time	Az	El	Level	Level2	SNR	BER	BlckErr	Temp	State	Recorded	gain1	gain2
2026-01-10 15:27:48.36	187.58	7.13	-27.4	-29.7	5.5	7.64e-01	0	40	0	0	14	4667
2026-01-10 15:27:49.36	187.63	7.21	-28.1	-30.3	5.4	7.68e-01	0	40	104	0	16	4629
2026-01-10 15:27:50.36	187.69	7.28	-28.3	-30.8	9.9	9.46e-03	0	40	0	0	16	4795
2026-01-10 15:27:51.37	187.74	7.36	-27.9	-29.8	10.6	5.76e-03	0	40	0	7340032	16	4472
2026-01-10 15:27:52.38	187.80	7.43	-27.5	-28.8	11.2	1.88e-03	0	40	0	14680064	16	4186
2026-01-10 15:27:53.39	187.85	7.51	-26.8	-28.2	12.0	5.01e-04	0	40	0	22020096	14	4215
2026-01-10 15:27:54.39	187.91	7.58	-26.5	-27.4	12.5	1.77e-04	0	40	0	28311552	14	4014
2026-01-10 15:27:55.39	187.96	7.66	-26.3	-27.4	12.7	9.38e-05	0	40	0	35651584	13	4127
2026-01-10 15:27:56.40	188.02	7.73	-25.9	-26.6	13.2	2.40e-05	0	40	0	42991616	13	3917
2026-01-10 15:27:57.41	188.07	7.81	-26.2	-27.3	12.9	8.12e-05	0	40	0	50331648	13	4075
2026-01-10 15:27:58.42	188.13	7.88	-25.9	-26.7	13.2	2.28e-05	0	40	0	57671680	13	3928
2026-01-10 15:27:59.43	188.19	7.96	-25.9	-26.6	13.2	3.54e-05	0	40	0	65011712	13	3913
2026-01-10 15:28:00.43	188.24	8.04	-25.9	-26.7	13.2	2.28e-05	0	40	0	72351744	13	3929
2026-01-10 15:28:01.44	188.30	8.11	-26.1	-27.0	13.0	2.05e-05	0	40	0	79691776	13	4021
2026-01-10 15:28:02.45	188.36	8.19	-25.9	-26.7	13.3	2.51e-05	0	40	0	87031808	13	3918
2026-01-10 15:28:03.45	188.42	8.27	-25.9	-27.2	13.2	1.83e-05	0	40	0	94371840	12	4155
2026-01-10 15:28:04.45	188.47	8.34	-25.7	-26.6	13.5	1.37e-05	0	40	0	101711872	12	4002
2026-01-10 15:28:05.46	188.53	8.42	-25.8	-26.8	13.4	1.37e-05	0	40	0	109051904	12	4066
2026-01-10 15:28:06.47	188.59	8.50	-25.6	-26.4	13.7	5.70e-06	0	40	0	116391936	12	3962
2026-01-10 15:28:07.47	188.65	8.58	-26.0	-27.3	13.2	1.14e-05	0	40	0	123731968	12	4181
2026-01-10 15:28:08.47	188.71	8.66	-25.6	-26.5	13.6	6.80e-06	0	40	0	130023424	12	3988
2026-01-10 15:28:09.48	188.77	8.73	-25.8	-27.0	13.4	1.60e-05	0	40	0	137363456	12	4100
2026-01-10 15:28:10.48	188.83	8.81	-25.7	-26.7	13.6	1.94e-05	0	40	0	144703488	12	4025
2026-01-10 15:28:11.48	188.89	8.89	-25.6	-26.4	13.7	5.70e-06	0	40	0	152043520	12	3959
2026-01-10 15:28:12.49	188.95	8.97	-25.4	-26.3	14.1	4.50e-06	0	40	0	159383552	11	4037
2026-01-10 15:28:13.48	189.01	9.05	-25.7	-27.2	13.7	2.20e-06	0	40	0	166723584	11	4261
2026-01-10 15:28:14.48	189.07	9.13	-25.6	-27.0	13.7	8.00e-06	0	40	0	174063616	11	4226
2026-01-10 15:28:15.48	189.13	9.21	-25.5	-26.8	13.9	6.80e-06	0	40	0	181403648	11	4156
2026-01-10 15:28:16.49	189.19	9.29	-25.7	-27.2	13.7	8.00e-06	0	40	0	188743680	11	4270
2026-01-10 15:28:17.50	189.26	9.37	-25.7	-27.2	13.7	3.40e-06	0	40	0	195035136	11	4255
2026-01-10 15:28:18.50	189.32	9.45	-25.7	-27.1	13.7	3.40e-06	0	40	0	202375168	11	4240
2026-01-10 15:28:19.51	189.38	9.53	-25.5	-26.7	13.9	2.20e-06	0	40	0	210763776	11	4136
2026-01-10 15:28:20.52	189.44	9.61	-25.3	-26.3	14.2	1.10e-06	0	40	0	217055232	11	4028
2026-01-10 15:28:21.52	189.51	9.69	-25.5	-26.7	14.0	2.20e-06	0	40	0	224395264	11	4135
2026-01-10 15:28:22.52	189.57	9.77	-25.6	-27.0	13.8	8.00e-06	0	41	0	231735296	11	4224
2026-01-10 15:28:23.53	189.63	9.85	-25.4	-26.4	14.1	4.50e-06	0	40	0	239075328	11	4064
2026-01-10 15:28:24.54	189.70	9.93	-25.7	-27.1	13.7	6.80e-06	0	41	0	246415360	11	4252
2026-01-10 15:28:25.55	189.76	10.02	-25.9	-27.5	13.5	8.00e-06	0	40	0	253755392	11	4355
2026-01-10 15:28:26.55	189.83	10.10	-25.7	-27.1	13.8	5.70e-06	0	41	0	261095424	11	4229
2026-01-10 15:28:27.56	189.89	10.18	-25.5	-26.6	14.0	2.20e-06	0	41	0	268435456	11	4123
2026-01-10 15:28:28.57	189.96	10.26	-25.5	-26.7	14.0	1.02e-05	0	40	0	275775488	11	4139
2026-01-10 15:28:29.57	190.03	10.35	-25.8	-27.4	13.6	3.40e-06	0	41	0	283115520	11	4322
2026-01-10 15:28:30.58	190.09	10.43	-25.4	-26.5	14.1	1.10e-06	0	41	0	290455552	11	4085
2026-01-10 15:28:31.59	190.16	10.51	-25.4	-26.5	14.1	5.70e-06	0	41	0	296747008	11	4091
2026-01-10 15:28:32.60	190.23	10.60	-25.3	-26.4	14.2	6.80e-06	0	41	0	304087040	11	4064
2026-01-10 15:28:33.60	190.29	10.68	-25.2	-26.0	14.5	0.00e+00	0	41	0	311427072	11	3946
2026-01-10 15:28:34.61	190.36	10.77	-25.3	-26.3	14.3	6.80e-06	0	41	0	318767104	11	4027
2026-01-10 15:28:35.61	190.43	10.85	-25.3	-26.2	14.3	1.10e-06	0	41	0	326107136	11	4028
2026-01-10 15:28:36.61	190.50	10.93	-25.3	-26.3	14.3	3.40e-06	0	41	0	333447168	11	4036
2026-01-10 15:28:37.62	190.57	11.02	-25.3	-26.3	14.2	2.20e-06	0	41	0	340787200	11	4045
2026-01-10 15:28:38.62	190.64	11.10	-25.3	-26.4	14.2	2.20e-06	0	41	0	348127232	11	4068
2026-01-10 15:28:39.63	190.71	11.19	-25.3	-26.3	14.3	2.20e-06	0	41	0	355467264	11	4056
2026-01-10 15:28:40.63	190.78	11.28	-25.3	-26.4	14.2	5.70e-06	0	41	0	362807296	11	4076
2026-01-10 15:28:41.63	190.85	11.36	-25.4	-26.5	14.2	0.00e+00	0	41	0	370147328	11	4088
2026-01-10 15:28:42.64	190.92	11.45	-25.3	-26.4	14.2	3.40e-06	0	41	0	377487360	11	4074
2026-01-10 15:28:43.65	190.99	11.53	-25.4	-26.5	14.2	4.50e-06	0	41	0	383778816	11	4087
2026-01-10 15:28:44.66	191.06	11.62	-25.1	-26.0	14.4	1.10e-06	0	41	0	392167424	11	3972
2026-01-10 15:28:45.66	191.13	11.71	-25.0	-25.6	14.6	1.10e-06	0	41	0	399507456	11	3883
2026-01-10 15:28:46.67	191.21	11.80	-25.0	-25.8	14.6	0.00e+00	0	41	0	405798912	11	3918
2026-01-10 15:28:47.68	191.28	11.88	-25.0	-25.7	14.6	2.20e-06	0	41	0	413138944	11	3895
2026-01-10 15:28:48.68	191.35	11.97	-25.0	-26.3	14.6	0.00e+00	0	41	0	420478976	10	4157
2026-01-10 15:28:49.69	191.43	12.06	-24.7	-25.5	15.0	0.00e+00	0	41	0	427819008	10	3970
2026-01-10 15:28:50.70	191.50	12.15	-24.9	-26.0	14.8	0.00e+00	0	41	0	435159040	10	4073
2026-01-10 15:28:51.69	191.57	12.24	-24.9	-26.1	14.7	0.00e+00	0	41	0	442499072	10	4114
2026-01-10 15:28:52.70	191.65	12.33	-25.0	-26.1	14.7	0.00e+00	0	41	0	449839104	10	4108
2026-01-10 15:28:53.71	191.73	12.42	-24.9	-26.1	14.7	0.00e+00	0	41	0	457179136	10	4104
2026-01-10 15:28:54.72	191.80	12.51	-24.7	-25.6	15.0	1.10e-06	0	41	0	464519168	10	3983
2026-01-10 15:28:55.72	191.88	12.60	-24.8	-25.8	14.9	0.00e+00	0	41	0	471859200	10	4041
2026-01-10 15:28:56.73	191.96	12.69	-24.9	-26.1	14.7	0.00e+00	0	41	0	479199232	10	4104
2026-01-10 15:28:57.74	192.03	12.78	-24.8	-25.7	14.9	0.00e+00	0	41	0	486539264	10	4020
2026-01-10 15:28:58.75	192.11	12.87	-24.9	-25.9	14.8	0.00e+00	0	41	0	492830720	10	4063
2026-01-10 15:28:59.75	192.19	12.96	-24.9	-26.0	14.8	0.00e+00	0	41	0	500170752	10	4086
2026-01-10 15:29:00.75	192.27	13.05	-24.8	-25.7	14.9	0.00e+00	0	41	0	507510784	10	4022
2026-01-10 15:29:01.76	192.35	13.14	-25.0	-26.3	14.6	0.00e+00	0	41	0	514850816	10	4153
2026-01-10 15:29:02.77	192.43	13.23	-24.9	-26.0	14.8	0.00e+00	0	41	0	522190848	10	4098
2026-01-10 15:29:03.78	192.51	13.33	-24.7	-25.5	15.0	0.00e+00	0	41	0	529530880	10	3969
2026-01-10 15:29:04.79	192.59	13.42	-24.7	-25.6	15.0	0.00e+00	0	41	0	536870912	10	3977
2026-01-10 15:29:05.79	192.67	13.51	-24.6	-25.8	15.1	0.00e+00	0	41	0	544210944	9	4147
2026-01-10 15:29:06.80	192.75	13.61	-24.6	-25.7	15.2	0.00e+00	0	41	0	551550976	9	4124
2026-01-10 15:29:07.80	192.83	13.70	-24.4	-25.3	15.4	0.00e+00	0	41	0	558891008	9	4023
2026-01-10 15:29:08.81	192.92	13.79	-24.3	-25.2	15.5	0.00e+00	0	41	0	566231040	9	3982
2026-01-10 15:29:09.81	193.00	13.89	-24.2	-24.9	15.6	0.00e+00	0	41	0	573571072	9	3918
2026-01-10 15:29:10.81	193.08	13.98	-24.3	-25.2	15.5	0.00e+00	0	41	0	580911104	9	3986
2026-01-10 15:29:11.82	193.17	14.08	-24.2	-25.0	15.7	0.00e+00	0	41	0	588251136	9	3928
2026-01-10 15:29:12.82	193.25	14.17	-24.4	-25.3	15.5	0.00e+00	0	41	0	594542592	9	4002
2026-01-10 15:29:13.83	193.33	14.27	-24.4	-25.3	15.4	0.00e+00	0	41	0	601882624	9	4019
2026-01-10 15:29:14.84	193.42	14.36	-24.2	-24.9	15.7	0.00e+00	0	41	0	609222656	9	3908
2026-01-10 15:29:15.85	193.51	14.46	-24.2	-24.9	15.7	0.00e+00	0	41	0	616562688	9	3909
2026-01-10 15:29:16.85	193.59	14.55	-24.2	-25.0	15.6	0.00e+00	0	41	0	623902720	9	3934
2026-01-10 15:29:17.86	193.68	14.65	-24.2	-25.0	15.6	0.00e+00	0	41	0	631242752	9	3941
2026-01-10 15:29:18.86	193.77	14.75	-24.3	-25.1	15.6	0.00e+00	0	41	0	638582784	9	3962
2026-01-10 15:29:19.86	193.86	14.84	-24.3	-25.2	15.6	0.00e+00	0	41	0	645922816	9	3973
2026-01-10 15:29:20.87	193.95	14.94	-24.4	-25.4	15.5	0.00e+00	0	41	0	653262848	9	4038
2026-01-10 15:29:21.87	194.03	15.04	-24.5	-25.5	15.4	0.00e+00	0	42	0	660602880	9	4061
2026-01-10 15:29:22.88	194.12	15.14	-24.4	-25.3	15.5	0.00e+00	0	42	0	667942912	9	4003
2026-01-10 15:29:23.89	194.22	15.24	-24.2	-24.9	15.7	0.00e+00	0	41	0	675282944	9	3920
2026-01-10 15:29:24.89	194.31	15.34	-24.2	-24.9	15.8	0.00e+00	0	41	0	681574400	9	3911
2026-01-10 15:29:25.90	194.40	15.44	-24.5	-25.6	15.4	0.00e+00	0	41	0	689963008	9	4098
2026-01-10 15:29:26.91	194.49	15.54	-24.4	-25.4	15.5	0.00e+00	0	42	0	697303040	9	4029
2026-01-10 15:29:27.91	194.58	15.64	-24.2	-25.0	15.7	0.00e+00	0	41	0	703594496	9	3925
2026-01-10 15:29:28.92	194.68	15.74	-24.1	-24.7	15.8	0.00e+00	0	41	0	710934528	9	3865
2026-01-10 15:29:29.92	194.77	15.84	-24.3	-25.2	15.6	0.00e+00	0	41	0	718274560	9	3977
2026-01-10 15:29:30.93	194.87	15.94	-24.2	-24.9	15.8	0.00e+00	0	42	0	725614592	9	3910
2026-01-10 15:29:31.93	194.96	16.04	-24.3	-25.2	15.6	0.00e+00	0	42	0	732954624	9	3992
2026-01-10 15:29:32.94	195.06	16.14	-24.2	-24.8	15.8	0.00e+00	0	41	0	740294656	9	3880
2026-01-10 15:29:33.95	195.15	16.24	-24.3	-25.2	15.7	0.00e+00	0	41	0	747634688	9	3974
2026-01-10 15:29:34.95	195.25	16.35	-24.0	-24.6	16.0	0.00e+00	0	41	0	754974720	9	3828
2026-01-10 15:29:35.96	195.35	16.45	-23.9	-24.2	16.1	0.00e+00	0	41	0	762314752	9	3744
2026-01-10 15:29:36.96	195.45	16.55	-24.0	-24.9	16.0	0.00e+00	0	42	0	769654784	8	4022
2026-01-10 15:29:37.97	195.55	16.66	-23.9	-24.7	16.2	0.00e+00	0	42	0	776994816	8	3952
2026-01-10 15:29:38.98	195.65	16.76	-24.0	-25.0	16.0	0.00e+00	0	42	0	783286272	8	4027
2026-01-10 15:29:39.98	195.75	16.86	-23.9	-24.7	16.2	0.00e+00	0	42	0	790626304	8	3962
2026-01-10 15:29:40.98	195.85	16.97	-23.8	-24.5	16.3	0.00e+00	0	41	0	797966336	8	3907
2026-01-10 15:29:41.99	195.95	17.07	-23.6	-24.0	16.5	0.00e+00	0	42	0	805306368	8	3792
2026-01-10 15:29:42.99	196.05	17.18	-23.6	-24.1	16.5	0.00e+00	0	42	0	812646400	8	3815
2026-01-10 15:29:44.00	196.16	17.28	-23.7	-24.3	16.4	0.00e+00	0	42	0	819986432	8	3855
2026-01-10 15:29:45.01	196.26	17.39	-23.5	-23.8	16.6	0.00e+00	0	42	0	827326464	8	3755
2026-01-10 15:29:46.01	196.36	17.50	-23.5	-23.9	16.5	2.20e-06	0	42	0	834666496	8	3778
2026-01-10 15:29:47.02	196.47	17.60	-23.7	-24.3	16.3	0.00e+00	0	42	0	842006528	8	3865
2026-01-10 15:29:48.03	196.58	17.71	-23.3	-24.0	16.7	0.00e+00	0	42	0	849346560	7	3900
2026-01-10 15:29:49.04	196.68	17.82	-23.4	-24.1	16.7	1.10e-06	0	42	0	856686592	7	3922
2026-01-10 15:29:50.05	196.79	17.93	-23.3	-24.0	16.8	0.00e+00	0	42	0	864026624	7	3896
2026-01-10 15:29:51.05	196.90	18.04	-23.2	-23.8	16.9	0.00e+00	0	42	0	870318080	7	3838
2026-01-10 15:29:52.05	197.01	18.14	-23.4	-24.2	16.7	0.00e+00	0	42	0	878706688	7	3936
2026-01-10 15:29:53.06	197.12	18.25	-23.2	-23.7	16.9	0.00e+00	0	42	0	886046720	7	3822
2026-01-10 15:29:54.06	197.23	18.36	-23.3	-23.8	16.8	0.00e+00	0	42	0	892338176	7	3849
2026-01-10 15:29:55.06	197.34	18.47	-23.2	-23.8	16.9	0.00e+00	0	42	0	899678208	7	3842
2026-01-10 15:29:56.06	197.45	18.58	-23.3	-24.0	16.8	0.00e+00	0	42	0	907018240	7	3879
2026-01-10 15:29:57.07	197.56	18.69	-23.2	-23.8	16.9	0.00e+00	0	42	0	914358272	7	3839
2026-01-10 15:29:58.07	197.68	18.80	-23.3	-24.0	16.8	0.00e+00	0	42	0	921698304	7	3877
2026-01-10 15:29:59.08	197.79	18.92	-23.2	-23.6	17.0	0.00e+00	0	42	0	929038336	7	3803
2026-01-10 15:30:00.08	197.91	19.03	-23.4	-24.0	16.8	0.00e+00	0	42	0	936378368	7	3895
2026-01-10 15:30:01.09	198.02	19.14	-23.3	-23.9	16.9	0.00e+00	0	42	0	943718400	7	3858
2026-01-10 15:30:02.10	198.14	19.25	-23.9	-25.1	16.3	0.00e+00	0	42	0	951058432	7	4149
2026-01-10 15:30:03.11	198.26	19.37	-23.6	-24.6	16.5	0.00e+00	0	42	0	958398464	7	4028
2026-01-10 15:30:04.11	198.38	19.48	-24.0	-25.0	16.1	0.00e+00	0	42	0	965738496	8	4018
2026-01-10 15:30:05.11	198.49	19.59	-24.0	-25.0	16.1	0.00e+00	0	42	0	973078528	8	4016
2026-01-10 15:30:06.12	198.62	19.71	-23.6	-24.1	16.5	0.00e+00	0	42	0	979369984	8	3818
2026-01-10 15:30:07.13	198.74	19.82	-23.5	-23.9	16.6	0.00e+00	0	42	0	986710016	8	3775
2026-01-10 15:30:08.14	198.86	19.94	-23.4	-24.1	16.7	0.00e+00	0	42	0	994050048	7	3915
2026-01-10 15:30:09.14	198.98	20.05	-23.5	-24.4	16.6	0.00e+00	0	42	0	1001390080	7	4000
2026-01-10 15:30:10.15	199.11	20.17	-23.3	-24.0	16.8	0.00e+00	0	42	0	1008730112	7	3908
2026-01-10 15:30:11.15	199.23	20.29	-23.2	-23.8	16.9	0.00e+00	0	42	0	1016070144	7	3862
2026-01-10 15:30:12.15	199.36	20.40	-23.3	-24.1	16.7	0.00e+00	0	42	0	1023410176	7	3936
2026-01-10 15:30:13.16	199.48	20.52	-23.3	-23.9	16.8	0.00e+00	0	42	0	1030750208	7	3890
2026-01-10 15:30:14.16	199.61	20.64	-23.2	-23.8	16.9	0.00e+00	0	42	0	1038090240	7	3857
2026-01-10 15:30:15.17	199.74	20.75	-23.4	-24.2	16.7	0.00e+00	0	42	0	1045430272	7	3940
2026-01-10 15:30:16.17	199.87	20.87	-23.2	-23.8	17.0	0.00e+00	0	42	0	1052770304	7	3858
2026-01-10 15:30:17.18	200.00	20.99	-23.4	-24.2	16.8	0.00e+00	0	42	0	1059061760	7	3933
2026-01-10 15:30:18.19	200.13	21.11	-23.1	-23.7	17.1	0.00e+00	0	42	0	1066401792	7	3819
2026-01-10 15:30:19.19	200.26	21.23	-23.0	-23.8	17.2	0.00e+00	0	42	0	1073741824	6	3957
2026-01-10 15:30:20.19	200.40	21.35	-23.1	-24.2	17.0	0.00e+00	0	42	0	1081081856	6	4043
2026-01-10 15:30:21.20	200.53	21.47	-23.4	-24.6	16.8	0.00e+00	0	42	0	1088421888	6	4160
2026-01-10 15:30:22.21	200.67	21.59	-23.1	-24.0	17.1	0.00e+00	0	42	0	1095761920	6	4001
2026-01-10 15:30:23.22	200.80	21.71	-23.3	-24.4	16.9	0.00e+00	0	42	0	1103101952	6	4114
2026-01-10 15:30:24.22	200.94	21.83	-23.4	-24.7	16.7	0.00e+00	0	42	0	1110441984	6	4184
2026-01-10 15:30:25.22	201.08	21.96	-23.3	-24.6	16.8	0.00e+00	0	42	0	1117782016	6	4149
2026-01-10 15:30:26.23	201.22	22.08	-23.3	-24.6	16.8	0.00e+00	0	42	0	1125122048	6	4148
2026-01-10 15:30:27.23	201.36	22.20	-23.2	-24.3	16.9	0.00e+00	0	42	0	1132462080	6	4093
2026-01-10 15:30:28.24	201.50	22.33	-23.3	-24.4	16.9	0.00e+00	0	42	0	1139802112	6	4110
2026-01-10 15:30:29.25	201.64	22.45	-23.5	-24.9	16.6	0.00e+00	0	42	0	1146093568	6	4254
2026-01-10 15:30:30.24	201.79	22.57	-23.5	-24.5	16.6	0.00e+00	0	42	0	1153433600	7	4012
2026-01-10 15:30:31.25	201.93	22.70	-23.2	-23.8	16.9	0.00e+00	0	42	0	1161822208	7	3862
2026-01-10 15:30:32.26	202.08	22.82	-23.1	-23.7	17.1	0.00e+00	0	42	0	1168113664	7	3818
2026-01-10 15:30:33.27	202.23	22.95	-23.1	-23.5	17.1	0.00e+00	0	42	0	1175453696	7	3782
2026-01-10 15:30:34.28	202.38	23.08	-23.0	-23.4	17.2	0.00e+00	0	42	0	1182793728	7	3764
2026-01-10 15:30:35.28	202.52	23.20	-23.1	-23.6	17.1	0.00e+00	0	42	0	1190133760	7	3810
2026-01-10 15:30:36.29	202.68	23.33	-23.1	-23.6	17.1	0.00e+00	0	42	0	1197473792	7	3806
2026-01-10 15:30:37.30	202.83	23.46	-23.1	-23.6	17.1	0.00e+00	0	42	0	1204813824	7	3798
2026-01-10 15:30:38.31	202.98	23.59	-23.0	-23.4	17.2	0.00e+00	0	42	0	1212153856	7	3753
2026-01-10 15:30:39.32	203.14	23.71	-23.0	-23.4	17.2	0.00e+00	0	42	0	1219493888	7	3764
2026-01-10 15:30:40.32	203.29	23.84	-22.9	-23.7	17.3	0.00e+00	0	42	0	1226833920	6	3934
2026-01-10 15:30:41.32	203.45	23.97	-23.0	-23.9	17.2	0.00e+00	0	42	0	1234173952	6	3972
2026-01-10 15:30:42.32	203.61	24.10	-23.2	-24.3	17.0	0.00e+00	0	42	0	1241513984	6	4066
2026-01-10 15:30:43.33	203.77	24.23	-23.0	-23.8	17.2	0.00e+00	0	42	0	1247805440	6	3962
2026-01-10 15:30:44.34	203.93	24.36	-22.9	-23.7	17.3	0.00e+00	0	42	0	1255145472	6	3923
2026-01-10 15:30:45.34	204.09	24.49	-23.0	-23.8	17.2	0.00e+00	0	42	0	1262485504	6	3955
2026-01-10 15:30:46.35	204.25	24.62	-22.9	-23.7	17.3	0.00e+00	0	42	0	1269825536	6	3946
2026-01-10 15:30:47.36	204.42	24.75	-23.0	-23.8	17.2	0.00e+00	0	42	0	1277165568	6	3963
2026-01-10 15:30:48.36	204.58	24.88	-23.1	-24.0	17.1	5.70e-06	0	42	0	1284505600	6	4022
2026-01-10 15:30:49.36	204.75	25.02	-22.8	-23.5	17.3	0.00e+00	0	42	0	1291845632	6	3902
2026-01-10 15:30:50.37	204.92	25.15	-22.8	-23.4	17.5	0.00e+00	0	42	0	1299185664	6	3860
2026-01-10 15:30:51.37	205.09	25.28	-22.9	-23.7	17.3	1.10e-06	0	42	0	1306525696	6	3934
2026-01-10 15:30:52.37	205.26	25.41	-23.0	-23.8	17.2	0.00e+00	0	42	0	1313865728	6	3978
2026-01-10 15:30:53.38	205.43	25.55	-22.8	-23.5	17.4	0.00e+00	0	42	0	1321205760	6	3902
2026-01-10 15:30:54.39	205.61	25.68	-22.6	-23.1	17.6	0.00e+00	0	42	0	1328545792	6	3819
2026-01-10 15:30:55.39	205.78	25.82	-22.7	-23.3	17.5	0.00e+00	0	42	0	1334837248	6	3852
2026-01-10 15:30:56.40	205.96	25.95	-22.7	-23.4	17.4	0.00e+00	0	42	0	1343225856	6	3868
2026-01-10 15:30:57.41	206.14	26.09	-22.6	-23.0	17.6	0.00e+00	0	42	0	1350565888	6	3795
2026-01-10 15:30:58.41	206.32	26.22	-22.6	-23.1	17.6	0.00e+00	0	42	0	1356857344	6	3817
2026-01-10 15:30:59.42	206.50	26.36	-22.7	-23.2	17.6	0.00e+00	0	42	0	1364197376	6	3824
2026-01-10 15:31:00.43	206.69	26.50	-22.6	-23.0	17.6	0.00e+00	0	42	0	1371537408	6	3794
2026-01-10 15:31:01.44	206.87	26.64	-22.4	-23.2	17.8	0.00e+00	0	42	0	1378877440	5	3935
2026-01-10 15:31:02.44	207.06	26.77	-22.4	-23.1	17.9	0.00e+00	0	42	0	1386217472	5	3911
2026-01-10 15:31:03.45	207.25	26.91	-22.4	-23.1	17.9	0.00e+00	0	42	0	1393557504	5	3910
2026-01-10 15:31:04.46	207.44	27.05	-22.3	-22.8	18.1	0.00e+00	0	42	0	1400897536	5	3834
2026-01-10 15:31:05.46	207.63	27.19	-22.5	-23.3	17.9	0.00e+00	0	42	0	1408237568	5	3940
2026-01-10 15:31:06.47	207.82	27.33	-22.5	-23.3	17.8	0.00e+00	0	42	0	1415577600	5	3954
2026-01-10 15:31:07.48	208.02	27.47	-22.1	-22.4	18.3	0.00e+00	0	42	0	1422917632	5	3721
2026-01-10 15:31:08.49	208.22	27.61	-22.1	-22.5	18.2	0.00e+00	0	42	0	1430257664	5	3760
2026-01-10 15:31:09.49	208.41	27.75	-22.1	-22.4	18.3	0.00e+00	0	42	0	1437597696	5	3733
2026-01-10 15:31:10.49	208.61	27.89	-22.2	-22.6	18.1	0.00e+00	0	42	0	1443889152	5	3789
2026-01-10 15:31:11.50	208.81	28.03	-22.3	-22.9	18.0	0.00e+00	0	42	0	1452277760	5	3855
2026-01-10 15:31:12.51	209.02	28.17	-22.3	-23.0	18.0	0.00e+00	0	42	0	1459617792	5	3866
2026-01-10 15:31:13.52	209.22	28.31	-22.2	-22.7	18.1	0.00e+00	0	42	0	1465909248	5	3802
2026-01-10 15:31:14.53	209.43	28.46	-22.3	-22.8	18.0	0.00e+00	0	42	0	1473249280	5	3836
2026-01-10 15:31:15.54	209.64	28.60	-22.3	-22.9	18.0	0.00e+00	0	42	0	1480589312	5	3854
2026-01-10 15:31:16.55	209.85	28.74	-22.4	-23.1	17.8	0.00e+00	0	42	0	1487929344	5	3918
2026-01-10 15:31:17.55	210.06	28.88	-22.4	-23.3	17.7	0.00e+00	0	42	0	1495269376	5	3954
2026-01-10 15:31:18.56	210.28	29.03	-22.5	-23.4	17.7	0.00e+00	0	42	0	1502609408	5	3983
2026-01-10 15:31:19.56	210.49	29.17	-22.3	-23.0	17.9	0.00e+00	0	42	0	1509949440	5	3899
2026-01-10 15:31:20.57	210.71	29.31	-23.2	-23.6	18.1	0.00e+00	0	42	0	1517289472	6	3780
2026-01-10 15:31:21.58	210.93	29.46	-23.2	-23.7	18.1	0.00e+00	0	42	0	1524629504	6	3810
2026-01-10 15:31:22.59	211.15	29.60	-23.3	-24.0	17.9	0.00e+00	0	42	0	1531969536	6	3873
2026-01-10 15:31:23.60	211.38	29.75	-23.2	-23.6	18.1	0.00e+00	0	42	0	1539309568	6	3783
2026-01-10 15:31:24.60	211.60	29.89	-23.3	-23.9	18.0	0.00e+00	0	42	0	1546649600	6	3846
2026-01-10 15:31:25.61	211.83	30.04	-23.3	-23.5	17.9	0.00e+00	0	42	0	1553989632	7	3649
2026-01-10 15:31:26.61	212.06	30.18	-23.1	-23.0	18.2	0.00e+00	0	42	0	1561329664	7	3543
2026-01-10 15:31:27.62	212.29	30.33	-23.1	-23.0	18.2	0.00e+00	0	42	0	1567621120	7	3541
2026-01-10 15:31:28.62	212.52	30.47	-23.1	-22.9	18.3	0.00e+00	0	42	0	1574961152	7	3522
2026-01-10 15:31:29.64	212.76	30.62	-23.1	-22.9	18.2	0.00e+00	0	42	0	1582301184	7	3529
2026-01-10 15:31:30.64	213.00	30.77	-23.0	-22.6	18.4	0.00e+00	0	42	0	1589641216	7	3468
2026-01-10 15:31:31.65	213.24	30.91	-23.0	-23.1	18.4	0.00e+00	0	42	0	1596981248	6	3678
2026-01-10 15:31:32.66	213.48	31.06	-22.9	-23.0	18.5	0.00e+00	0	42	0	1604321280	6	3637
2026-01-10 15:31:33.66	213.73	31.21	-23.1	-23.4	18.2	0.00e+00	0	42	0	1611661312	6	3745
2026-01-10 15:31:34.67	213.97	31.35	-23.2	-23.6	18.2	0.00e+00	0	42	0	1619001344	6	3785
2026-01-10 15:31:35.68	214.22	31.50	-23.2	-23.6	18.2	0.00e+00	0	42	0	1626341376	6	3769
2026-01-10 15:31:36.68	214.47	31.65	-23.0	-23.2	18.4	0.00e+00	0	42	0	1633681408	6	3680
2026-01-10 15:31:37.68	214.73	31.80	-23.0	-23.1	18.4	0.00e+00	0	42	0	1641021440	6	3676
2026-01-10 15:31:38.69	214.98	31.94	-22.8	-22.8	18.6	0.00e+00	0	42	0	1648361472	6	3608
2026-01-10 15:31:39.70	215.24	32.09	-22.7	-22.6	18.7	0.00e+00	0	42	0	1654652928	6	3561
2026-01-10 15:31:40.70	215.50	32.24	-22.8	-22.7	18.6	0.00e+00	0	42	0	1663041536	6	3575
2026-01-10 15:31:41.71	215.76	32.39	-22.9	-23.0	18.5	0.00e+00	0	42	0	1670381568	6	3635
2026-01-10 15:31:42.71	216.03	32.53	-22.6	-22.4	18.8	0.00e+00	0	42	0	1676673024	6	3503
2026-01-10 15:31:43.72	216.29	32.68	-22.6	-22.5	18.8	0.00e+00	0	42	0	1684013056	6	3530
2026-01-10 15:31:44.73	216.56	32.83	-22.7	-22.6	18.7	0.00e+00	0	42	0	1691353088	6	3561
2026-01-10 15:31:45.73	216.84	32.98	-22.6	-22.5	18.8	0.00e+00	0	42	0	1698693120	6	3530
2026-01-10 15:31:46.74	217.11	33.13	-22.9	-23.1	18.5	0.00e+00	0	42	0	1706033152	6	3661
2026-01-10 15:31:47.74	217.39	33.28	-22.8	-22.9	18.5	0.00e+00	0	42	0	1713373184	6	3623
2026-01-10 15:31:48.75	217.67	33.42	-22.8	-22.8	18.6	0.00e+00	0	42	0	1720713216	6	3613
2026-01-10 15:31:49.76	217.95	33.57	-22.8	-22.7	18.6	0.00e+00	0	42	0	1728053248	6	3581
2026-01-10 15:31:50.77	218.23	33.72	-22.7	-22.7	18.7	0.00e+00	0	42	0	1735393280	6	3573
2026-01-10 15:31:51.78	218.52	33.87	-23.1	-23.4	18.3	0.00e+00	0	42	0	1742733312	6	3731
2026-01-10 15:31:52.78	218.81	34.02	-23.0	-23.3	18.3	0.00e+00	0	42	0	1750073344	6	3701
2026-01-10 15:31:53.79	219.10	34.17	-22.9	-23.0	18.5	0.00e+00	0	42	0	1757413376	6	3637
2026-01-10 15:31:54.79	219.40	34.31	-23.0	-23.3	18.4	0.00e+00	0	42	0	1763704832	6	3700
2026-01-10 15:31:55.79	219.69	34.46	-23.0	-23.2	18.4	0.00e+00	0	42	0	1771044864	6	3679
2026-01-10 15:31:56.80	219.99	34.61	-22.8	-22.8	18.6	0.00e+00	0	42	0	1778384896	6	3591
2026-01-10 15:31:57.81	220.30	34.75	-23.0	-23.2	18.4	0.00e+00	0	42	0	1785724928	6	3681
2026-01-10 15:31:58.81	220.60	34.90	-22.9	-22.9	18.6	0.00e+00	0	42	0	1793064960	6	3628
2026-01-10 15:31:59.82	220.91	35.05	-22.8	-22.8	18.6	0.00e+00	0	42	0	1800404992	6	3600
2026-01-10 15:32:00.82	221.22	35.19	-22.8	-22.9	18.6	0.00e+00	0	42	0	1807745024	6	3620
2026-01-10 15:32:01.82	221.53	35.34	-22.8	-22.8	18.6	0.00e+00	0	42	0	1815085056	6	3609
2026-01-10 15:32:02.83	221.85	35.49	-23.0	-23.2	18.4	0.00e+00	0	42	0	1822425088	6	3697
2026-01-10 15:32:03.83	222.17	35.63	-22.9	-23.0	18.5	0.00e+00	0	42	0	1829765120	6	3652
2026-01-10 15:32:04.83	222.49	35.78	-22.8	-22.8	18.6	0.00e+00	0	42	0	1837105152	6	3613
2026-01-10 15:32:05.84	222.81	35.92	-22.9	-23.0	18.5	0.00e+00	0	42	0	1843396608	6	3645
2026-01-10 15:32:06.85	223.14	36.07	-22.6	-22.5	18.8	0.00e+00	0	42	0	1850736640	6	3531
2026-01-10 15:32:07.85	223.47	36.21	-22.6	-22.4	18.8	0.00e+00	0	42	0	1859125248	6	3505
2026-01-10 15:32:08.86	223.80	36.36	-22.6	-22.4	18.8	0.00e+00	0	42	0	1865416704	6	3513
2026-01-10 15:32:09.86	224.14	36.50	-22.7	-22.7	18.7	0.00e+00	0	42	0	1872756736	6	3571
2026-01-10 15:32:10.86	224.48	36.64	-22.5	-22.3	18.9	0.00e+00	0	42	0	1880096768	6	3482
2026-01-10 15:32:11.87	224.82	36.78	-22.5	-22.2	18.9	0.00e+00	0	42	0	1887436800	6	3478
2026-01-10 15:32:12.87	225.16	36.92	-22.6	-22.4	18.8	0.00e+00	0	42	0	1894776832	6	3519
2026-01-10 15:32:13.87	225.51	37.07	-22.4	-22.0	19.0	0.00e+00	0	42	0	1902116864	6	3422
2026-01-10 15:32:14.88	225.86	37.21	-22.6	-22.4	18.8	0.00e+00	0	42	0	1909456896	6	3519
2026-01-10 15:32:15.88	226.21	37.35	-22.6	-22.5	18.8	0.00e+00	0	42	0	1916796928	6	3530
2026-01-10 15:32:16.89	226.57	37.49	-22.8	-22.7	18.7	0.00e+00	0	42	0	1924136960	6	3585
2026-01-10 15:32:17.90	226.93	37.63	-22.8	-22.7	18.6	0.00e+00	0	42	0	1930428416	6	3582
2026-01-10 15:32:18.89	227.29	37.76	-22.9	-23.0	18.5	0.00e+00	0	42	0	1937768448	6	3650
2026-01-10 15:32:19.90	227.66	37.90	-23.2	-23.6	18.2	0.00e+00	0	42	0	1946157056	6	3771
2026-01-10 15:32:20.91	228.03	38.04	-23.2	-23.5	18.3	0.00e+00	0	42	0	1952448512	6	3767
2026-01-10 15:32:21.92	228.40	38.18	-23.2	-23.7	18.2	0.00e+00	0	42	0	1959788544	6	3803
2026-01-10 15:32:22.93	228.78	38.31	-23.1	-23.5	18.3	0.00e+00	0	42	0	1967128576	6	3756
2026-01-10 15:32:23.93	229.15	38.44	-23.0	-23.2	18.4	0.00e+00	0	42	0	1974468608	6	3689
2026-01-10 15:32:24.94	229.54	38.58	-23.2	-23.6	18.2	0.00e+00	0	42	0	1981808640	6	3778
2026-01-10 15:32:25.94	229.92	38.71	-22.9	-23.1	18.5	0.00e+00	0	42	0	1989148672	6	3666
2026-01-10 15:32:26.95	230.31	38.84	-23.0	-23.2	18.4	0.00e+00	0	42	0	1996488704	6	3691
2026-01-10 15:32:27.95	230.70	38.97	-23.3	-23.9	18.0	0.00e+00	0	42	0	2003828736	6	3853
2026-01-10 15:32:28.96	231.09	39.10	-23.4	-24.0	18.0	0.00e+00	0	42	0	2011168768	6	3878
2026-01-10 15:32:29.96	231.49	39.23	-22.9	-22.9	18.6	0.00e+00	0	42	0	2018508800	6	3624
2026-01-10 15:32:30.96	231.88	39.36	-22.8	-22.8	18.7	0.00e+00	0	42	0	2025848832	6	3605
2026-01-10 15:32:31.97	232.29	39.49	-22.9	-23.0	18.6	0.00e+00	0	42	0	2032140288	6	3641
2026-01-10 15:32:32.97	232.69	39.61	-23.1	-23.4	18.4	0.00e+00	0	42	0	2039480320	6	3736
2026-01-10 15:32:33.98	233.10	39.74	-23.2	-23.7	18.2	0.00e+00	0	42	0	2046820352	6	3805
2026-01-10 15:32:34.99	233.52	39.86	-23.1	-23.5	18.3	0.00e+00	0	42	0	2054160384	6	3751
2026-01-10 15:32:35.99	233.93	39.98	-23.3	-23.9	18.1	0.00e+00	0	42	0	2061500416	6	3837
2026-01-10 15:32:37.00	234.35	40.10	-23.1	-23.5	18.3	0.00e+00	0	42	0	2068840448	6	3749
2026-01-10 15:32:38.00	234.77	40.22	-23.0	-23.3	18.4	0.00e+00	0	42	0	2076180480	6	3700
2026-01-10 15:32:38.99	235.19	40.34	-23.2	-23.6	18.3	0.00e+00	0	42	0	2083520512	6	3772
2026-01-10 15:32:40.00	235.61	40.46	-23.0	-23.2	18.4	0.00e+00	0	42	0	2090860544	6	3683
2026-01-10 15:32:41.00	236.04	40.57	-23.5	-24.2	18.0	0.00e+00	0	42	0	2098200576	6	3912
2026-01-10 15:32:42.00	236.47	40.69	-23.3	-23.8	18.2	0.00e+00	0	42	0	2105540608	6	3814
2026-01-10 15:32:43.01	236.91	40.80	-23.2	-23.6	18.2	0.00e+00	0	42	0	2112880640	6	3779
2026-01-10 15:32:44.02	237.35	40.91	-23.4	-24.0	18.0	0.00e+00	0	42	0	2119172096	6	3866
2026-01-10 15:32:45.03	237.80	41.02	-23.1	-23.5	18.3	0.00e+00	0	42	0	2126512128	6	3766
2026-01-10 15:32:46.03	238.24	41.13	-23.0	-23.2	18.4	0.00e+00	0	42	0	2133852160	6	3688
2026-01-10 15:32:47.04	238.69	41.24	-22.9	-23.1	18.6	0.00e+00	0	42	0	2141192192	6	3657
2026-01-10 15:32:48.05	239.14	41.34	-23.1	-23.4	18.4	0.00e+00	0	42	0	2148532224	6	3729
2026-01-10 15:32:49.06	239.60	41.45	-23.1	-23.3	18.4	0.00e+00	0	42	0	2155872256	6	3713
2026-01-10 15:32:50.06	240.05	41.55	-23.1	-23.5	18.3	0.00e+00	0	42	0	2163212288	6	3745
2026-01-10 15:32:51.06	240.51	41.65	-23.2	-23.7	18.2	0.00e+00	0	42	0	2170552320	6	3793
2026-01-10 15:32:52.06	240.97	41.74	-23.5	-24.3	17.9	0.00e+00	0	42	0	2177892352	6	3938
2026-01-10 15:32:53.07	241.44	41.84	-23.4	-24.0	18.1	0.00e+00	0	42	0	2185232384	6	3873
2026-01-10 15:32:54.08	241.91	41.93	-23.6	-24.0	17.9	0.00e+00	0	42	0	2192572416	7	3752
2026-01-10 15:32:55.09	242.38	42.03	-23.2	-23.0	18.3	0.00e+00	0	42	0	2199912448	7	3543
2026-01-10 15:32:56.09	242.85	42.12	-23.1	-22.9	18.3	0.00e+00	0	42	0	2206203904	7	3520
2026-01-10 15:32:57.11	243.34	42.21	-23.2	-23.2	18.2	0.00e+00	0	42	0	2214592512	7	3582
2026-01-10 15:32:58.11	243.81	42.29	-23.2	-23.1	18.3	0.00e+00	0	42	0	2221932544	7	3553
2026-01-10 15:32:59.12	244.29	42.38	-23.2	-23.2	18.2	0.00e+00	0	42	0	2228224000	7	3584
2026-01-10 15:33:00.12	244.78	42.46	-23.1	-23.0	18.4	0.00e+00	0	42	0	2235564032	7	3541
2026-01-10 15:33:01.13	245.26	42.54	-23.4	-23.4	18.1	0.00e+00	0	42	0	2242904064	7	3637
2026-01-10 15:33:02.13	245.75	42.62	-23.1	-22.9	18.4	0.00e+00	0	42	0	2250244096	7	3524
2026-01-10 15:33:03.14	246.24	42.70	-23.0	-22.7	18.5	0.00e+00	0	42	0	2257584128	7	3480
2026-01-10 15:33:04.14	246.73	42.77	-22.8	-22.8	18.7	0.00e+00	0	42	0	2264924160	6	3604
2026-01-10 15:33:05.15	247.23	42.84	-22.8	-22.8	18.6	0.00e+00	0	42	0	2272264192	6	3602
2026-01-10 15:33:06.16	247.73	42.91	-22.7	-22.7	18.7	0.00e+00	0	42	0	2279604224	6	3568
2026-01-10 15:33:07.16	248.22	42.98	-22.7	-22.7	18.8	0.00e+00	0	42	0	2286944256	6	3566
2026-01-10 15:33:08.17	248.73	43.05	-22.8	-22.8	18.7	0.00e+00	0	42	0	2294284288	6	3608
2026-01-10 15:33:09.17	249.23	43.11	-22.8	-22.8	18.7	0.00e+00	0	42	0	2301624320	6	3606
2026-01-10 15:33:10.17	249.73	43.17	-23.0	-23.3	18.4	0.00e+00	0	42	0	2307915776	6	3702
2026-01-10 15:33:11.17	250.24	43.23	-23.2	-23.6	18.3	0.00e+00	0	42	0	2315255808	6	3785
2026-01-10 15:33:12.17	250.74	43.28	-23.4	-24.0	18.1	0.00e+00	0	42	0	2322595840	6	3863
2026-01-10 15:33:13.18	251.25	43.34	-23.4	-24.0	18.0	0.00e+00	0	42	0	2329935872	6	3876
2026-01-10 15:33:14.19	251.77	43.39	-23.5	-23.8	17.9	0.00e+00	0	42	0	2337275904	7	3725
2026-01-10 15:33:15.19	252.28	43.44	-23.6	-23.9	17.9	0.00e+00	0	42	0	2344615936	7	3737
2026-01-10 15:33:16.20	252.80	43.48	-23.4	-23.5	18.1	0.00e+00	0	42	0	2351955968	7	3657
2026-01-10 15:33:17.20	253.31	43.53	-23.3	-23.5	18.1	2.20e-06	0	42	0	2359296000	7	3644
2026-01-10 15:33:18.21	253.83	43.57	-23.3	-23.4	18.1	0.00e+00	0	42	0	2366636032	7	3627
2026-01-10 15:33:19.22	254.35	43.61	-23.3	-23.3	18.2	0.00e+00	0	42	0	2373976064	7	3606
2026-01-10 15:33:20.22	254.87	43.64	-23.4	-23.6	18.0	1.10e-06	0	42	0	2381316096	7	3668
2026-01-10 15:33:21.23	255.39	43.68	-23.3	-23.4	18.1	0.00e+00	0	42	0	2388656128	7	3626
2026-01-10 15:33:22.24	255.92	43.71	-23.2	-23.2	18.3	0.00e+00	0	42	0	2394947584	7	3582
2026-01-10 15:33:23.24	256.44	43.74	-23.2	-23.2	18.3	2.20e-06	0	42	0	2402287616	7	3578
2026-01-10 15:33:24.25	256.97	43.76	-23.5	-23.7	18.0	0.00e+00	0	42	0	2409627648	7	3688
2026-01-10 15:33:25.25	257.49	43.79	-23.6	-23.9	17.9	0.00e+00	0	42	0	2416967680	7	3735
2026-01-10 15:33:26.26	258.02	43.81	-23.7	-24.1	17.7	0.00e+00	0	42	0	2424307712	7	3795
2026-01-10 15:33:27.27	258.55	43.83	-23.5	-23.7	18.0	0.00e+00	0	42	0	2431647744	7	3694
2026-01-10 15:33:28.28	259.08	43.84	-23.3	-23.4	18.2	0.00e+00	0	42	0	2438987776	7	3618
2026-01-10 15:33:29.28	259.60	43.85	-23.2	-23.2	18.3	2.20e-06	0	42	0	2446327808	7	3584
2026-01-10 15:33:30.29	260.13	43.86	-23.3	-23.3	18.2	0.00e+00	0	42	0	2453667840	7	3616
2026-01-10 15:33:31.30	260.66	43.87	-23.2	-23.2	18.2	0.00e+00	0	42	0	2461007872	7	3585
2026-01-10 15:33:32.31	261.19	43.88	-23.3	-23.3	18.1	1.10e-06	0	42	0	2468347904	7	3618
2026-01-10 15:33:33.31	261.72	43.88	-23.4	-23.5	18.1	0.00e+00	0	42	0	2475687936	7	3655
2026-01-10 15:33:34.32	262.25	43.88	-23.4	-23.5	18.1	0.00e+00	0	42	0	2483027968	7	3647
2026-01-10 15:33:35.33	262.78	43.87	-23.6	-24.1	17.8	1.10e-06	0	42	0	2490368000	7	3774
2026-01-10 15:33:36.34	263.31	43.87	-23.8	-24.3	17.7	0.00e+00	0	42	0	2496659456	7	3836
2026-01-10 15:33:37.34	263.84	43.86	-23.7	-24.2	17.8	0.00e+00	0	42	0	2503999488	7	3808
2026-01-10 15:33:38.34	264.36	43.85	-23.7	-24.1	17.7	0.00e+00	0	42	0	2511339520	7	3792
2026-01-10 15:33:39.35	264.89	43.84	-23.5	-23.9	17.9	0.00e+00	0	42	0	2518679552	7	3733
2026-01-10 15:33:40.36	265.42	43.82	-23.6	-24.1	17.8	0.00e+00	0	42	0	2526019584	7	3776
2026-01-10 15:33:41.36	265.94	43.80	-23.6	-24.0	17.8	0.00e+00	0	42	0	2533359616	7	3769
2026-01-10 15:33:42.37	266.47	43.78	-23.5	-23.8	18.0	0.00e+00	0	42	0	2540699648	7	3713
2026-01-10 15:33:43.38	267.00	43.75	-23.5	-23.8	18.0	0.00e+00	0	42	0	2548039680	7	3711
2026-01-10 15:33:44.38	267.52	43.73	-23.3	-23.4	18.2	0.00e+00	0	42	0	2555379712	7	3634
2026-01-10 15:33:45.39	268.04	43.70	-23.2	-23.2	18.3	0.00e+00	0	42	0	2562719744	7	3586
2026-01-10 15:33:46.40	268.57	43.67	-23.5	-23.7	18.0	0.00e+00	0	42	0	2570059776	7	3690
2026-01-10 15:33:47.41	269.09	43.63	-23.3	-23.3	18.2	0.00e+00	0	42	0	2577399808	7	3611
2026-01-10 15:33:48.42	269.61	43.59	-23.2	-23.2	18.2	0.00e+00	0	42	0	2584739840	7	3588
2026-01-10 15:33:49.41	270.12	43.56	-23.4	-23.5	18.1	0.00e+00	0	42	0	2592079872	7	3646
2026-01-10 15:33:50.42	270.64	43.51	-23.5	-23.9	17.9	0.00e+00	0	42	0	2599419904	7	3733
2026-01-10 15:33:51.43	271.16	43.47	-23.5	-23.8	18.0	0.00e+00	0	42	0	2605711360	7	3728
2026-01-10 15:33:52.44	271.68	43.42	-23.5	-23.9	17.9	0.00e+00	0	42	0	2613051392	7	3733
2026-01-10 15:33:53.45	272.19	43.37	-23.5	-23.8	17.9	0.00e+00	0	42	0	2620391424	7	3729
2026-01-10 15:33:54.46	272.71	43.32	-23.5	-23.7	18.0	0.00e+00	0	42	0	2627731456	7	3696
2026-01-10 15:33:55.46	273.21	43.26	-23.5	-23.8	18.0	0.00e+00	0	42	0	2635071488	7	3713
2026-01-10 15:33:56.47	273.72	43.21	-23.3	-23.4	18.2	0.00e+00	0	42	0	2642411520	7	3632
2026-01-10 15:33:57.47	274.23	43.15	-23.3	-23.3	18.2	0.00e+00	0	42	0	2649751552	7	3617
2026-01-10 15:33:58.48	274.73	43.09	-23.3	-23.4	18.2	0.00e+00	0	42	0	2657091584	7	3619
2026-01-10 15:33:59.49	275.24	43.02	-23.4	-23.7	18.1	0.00e+00	0	42	0	2664431616	7	3690
2026-01-10 15:34:00.49	275.73	42.96	-23.5	-23.7	18.0	0.00e+00	0	42	0	2671771648	7	3696
2026-01-10 15:34:01.49	276.23	42.89	-23.4	-23.6	18.1	0.00e+00	0	42	0	2679111680	7	3663
2026-01-10 15:34:02.50	276.73	42.82	-23.4	-23.6	18.1	0.00e+00	0	42	0	2686451712	7	3674
2026-01-10 15:34:03.50	277.22	42.75	-23.5	-23.7	18.1	0.00e+00	0	42	0	2693791744	7	3686
2026-01-10 15:34:04.50	277.71	42.67	-23.6	-24.0	17.9	0.00e+00	0	42	0	2701131776	7	3760
2026-01-10 15:34:05.51	278.20	42.60	-23.7	-24.2	17.7	0.00e+00	0	42	0	2708471808	7	3814
2026-01-10 15:34:06.51	278.68	42.52	-23.8	-24.4	17.6	0.00e+00	0	42	0	2714763264	7	3864
2026-01-10 15:34:07.51	279.16	42.44	-23.7	-24.2	17.8	0.00e+00	0	42	0	2722103296	7	3799
2026-01-10 15:34:08.51	279.64	42.35	-23.9	-24.6	17.6	0.00e+00	0	42	0	2729443328	7	3905
2026-01-10 15:34:09.52	280.12	42.27	-23.7	-24.1	17.8	0.00e+00	0	42	0	2736783360	7	3786
2026-01-10 15:34:10.52	280.60	42.18	-23.7	-24.2	17.8	0.00e+00	0	42	0	2744123392	7	3794
2026-01-10 15:34:11.52	281.07	42.09	-23.7	-24.1	17.8	0.00e+00	0	42	0	2751463424	7	3780
2026-01-10 15:34:12.53	281.54	42.00	-23.3	-23.2	18.2	0.00e+00	0	42	0	2758803456	7	3589
2026-01-10 15:34:13.53	282.01	41.91	-23.2	-23.1	18.3	0.00e+00	0	42	0	2766143488	7	3557
2026-01-10 15:34:14.54	282.48	41.81	-23.3	-23.4	18.2	0.00e+00	0	42	0	2772434944	7	3626
2026-01-10 15:34:15.55	282.94	41.72	-23.6	-23.9	17.9	0.00e+00	0	42	0	2779774976	7	3746
2026-01-10 15:34:16.56	283.41	41.62	-23.6	-23.9	17.9	0.00e+00	0	42	0	2788163584	7	3738
2026-01-10 15:34:17.57	283.87	41.52	-23.5	-23.7	18.0	0.00e+00	0	42	0	2794455040	7	3693
2026-01-10 15:34:18.58	284.32	41.41	-23.2	-23.2	18.3	0.00e+00	0	42	0	2801795072	7	3575
2026-01-10 15:34:19.59	284.78	41.31	-22.8	-22.8	18.7	0.00e+00	0	42	0	2809135104	6	3598
2026-01-10 15:34:20.59	285.22	41.21	-22.6	-22.4	18.9	0.00e+00	0	42	0	2816475136	6	3502
2026-01-10 15:34:21.59	285.67	41.10	-22.6	-22.4	18.9	0.00e+00	0	42	0	2823815168	6	3511
2026-01-10 15:34:22.60	286.11	40.99	-22.7	-22.6	18.8	0.00e+00	0	42	0	2831155200	6	3548
2026-01-10 15:34:23.60	286.55	40.88	-22.9	-22.9	18.7	0.00e+00	0	42	0	2838495232	6	3628
2026-01-10 15:34:24.60	286.99	40.77	-22.9	-22.9	18.6	0.00e+00	0	42	0	2845835264	6	3625
2026-01-10 15:34:25.61	287.42	40.66	-22.8	-22.7	18.7	0.00e+00	0	42	0	2853175296	6	3578
2026-01-10 15:34:26.62	287.86	40.54	-22.9	-22.9	18.7	0.00e+00	0	42	0	2860515328	6	3625
2026-01-10 15:34:27.62	288.28	40.43	-22.9	-23.1	18.6	0.00e+00	0	42	0	2867855360	6	3657
2026-01-10 15:34:28.63	288.71	40.31	-23.1	-23.5	18.4	0.00e+00	0	42	0	2875195392	6	3747
2026-01-10 15:34:29.63	289.13	40.19	-23.2	-23.6	18.3	0.00e+00	0	42	0	2881486848	6	3779
2026-01-10 15:34:30.63	289.55	40.07	-23.3	-23.8	18.2	0.00e+00	0	42	0	2888826880	6	3811
2026-01-10 15:34:31.64	289.97	39.95	-23.3	-23.8	18.2	0.00e+00	0	42	0	2896166912	6	3830
2026-01-10 15:34:32.65	290.38	39.83	-23.3	-23.9	18.2	0.00e+00	0	42	0	2903506944	6	3839
2026-01-10 15:34:33.66	290.79	39.71	-23.2	-23.5	18.3	0.00e+00	0	42	0	2910846976	6	3760
2026-01-10 15:34:34.66	291.20	39.58	-23.1	-23.4	18.4	0.00e+00	0	42	0	2918187008	6	3740
2026-01-10 15:34:35.67	291.60	39.46	-23.3	-23.9	18.1	0.00e+00	0	42	0	2925527040	6	3855
2026-01-10 15:34:36.68	292.01	39.33	-23.3	-23.8	18.2	0.00e+00	0	42	0	2932867072	6	3821
2026-01-10 15:34:37.68	292.40	39.20	-23.1	-23.5	18.4	0.00e+00	0	42	0	2940207104	6	3749
2026-01-10 15:34:38.69	292.80	39.07	-23.1	-23.5	18.4	0.00e+00	0	42	0	2947547136	6	3749
2026-01-10 15:34:39.69	293.19	38.94	-23.0	-23.3	18.5	0.00e+00	0	42	0	2954887168	6	3710
2026-01-10 15:34:40.70	293.58	38.81	-22.9	-23.0	18.6	0.00e+00	0	42	0	2961178624	6	3639
2026-01-10 15:34:41.70	293.96	38.68	-22.9	-23.0	18.6	0.00e+00	0	42	0	2969567232	6	3636
2026-01-10 15:34:42.70	294.34	38.55	-22.8	-22.7	18.8	0.00e+00	0	42	0	2976907264	6	3572
2026-01-10 15:34:43.71	294.72	38.42	-22.7	-22.5	18.9	0.00e+00	0	42	0	2983198720	6	3531
2026-01-10 15:34:44.71	295.10	38.28	-22.7	-22.6	18.9	0.00e+00	0	42	0	2990538752	6	3549
2026-01-10 15:34:45.72	295.47	38.15	-22.8	-22.8	18.7	0.00e+00	0	42	0	2997878784	6	3600
2026-01-10 15:34:46.72	295.84	38.01	-23.0	-23.1	18.5	0.00e+00	0	42	0	3005218816	6	3661
2026-01-10 15:34:47.73	296.21	37.87	-22.9	-23.1	18.6	0.00e+00	0	42	0	3012558848	6	3654
2026-01-10 15:34:48.73	296.57	37.74	-22.9	-23.1	18.6	0.00e+00	0	42	0	3019898880	6	3663
2026-01-10 15:34:49.74	296.93	37.60	-22.9	-23.0	18.6	0.00e+00	0	42	0	3027238912	6	3645
2026-01-10 15:34:50.75	297.29	37.46	-22.9	-23.0	18.6	0.00e+00	0	42	0	3034578944	6	3646
2026-01-10 15:34:51.76	297.65	37.32	-22.9	-22.9	18.6	0.00e+00	0	42	0	3041918976	6	3622
2026-01-10 15:34:52.75	297.99	37.18	-23.0	-23.2	18.5	0.00e+00	0	42	0	3049259008	6	3691
2026-01-10 15:34:53.76	298.34	37.04	-22.9	-23.1	18.6	0.00e+00	0	42	0	3056599040	6	3657
2026-01-10 15:34:54.77	298.69	36.90	-22.9	-22.9	18.7	0.00e+00	0	42	0	3063939072	6	3618
2026-01-10 15:34:55.77	299.03	36.76	-22.7	-22.6	18.8	0.00e+00	0	42	0	3070230528	6	3549
2026-01-10 15:34:56.78	299.37	36.62	-22.9	-22.9	18.2	0.00e+00	0	42	0	3077570560	6	3627
2026-01-10 15:34:57.78	299.71	36.48	-22.6	-22.5	18.9	0.00e+00	0	42	0	3084910592	6	3521
2026-01-10 15:34:58.79	300.05	36.33	-22.8	-22.7	18.7	0.00e+00	0	42	0	3092250624	6	3580
2026-01-10 15:34:59.79	300.37	36.19	-22.8	-22.8	18.7	0.00e+00	0	42	0	3099590656	6	3589
2026-01-10 15:35:00.80	300.70	36.04	-22.9	-23.1	18.5	0.00e+00	0	42	0	3106930688	6	3653
2026-01-10 15:35:01.81	301.03	35.90	-22.9	-22.9	18.6	0.00e+00	0	42	0	3114270720	6	3622
2026-01-10 15:35:02.81	301.35	35.76	-22.9	-22.9	18.7	0.00e+00	0	42	0	3121610752	6	3617
2026-01-10 15:35:03.82	301.67	35.61	-22.9	-23.0	18.6	0.00e+00	0	42	0	3128950784	6	3635
2026-01-10 15:35:04.82	301.99	35.47	-23.0	-23.2	18.5	0.00e+00	0	42	0	3136290816	6	3676
2026-01-10 15:35:05.83	302.31	35.32	-22.9	-22.9	18.6	0.00e+00	0	42	0	3143630848	6	3627
2026-01-10 15:35:06.83	302.62	35.18	-22.8	-22.7	18.7	0.00e+00	0	42	0	3150970880	6	3582
2026-01-10 15:35:07.83	302.92	35.03	-22.8	-22.8	18.7	0.00e+00	0	42	0	3157262336	6	3588
2026-01-10 15:35:08.83	303.23	34.89	-22.9	-22.9	18.6	0.00e+00	0	42	0	3164602368	6	3621
2026-01-10 15:35:09.85	303.54	34.74	-22.7	-22.6	18.8	0.00e+00	0	42	0	3171942400	6	3560
2026-01-10 15:35:10.85	303.83	34.59	-22.8	-22.8	18.7	0.00e+00	0	42	0	3179282432	6	3586
2026-01-10 15:35:11.86	304.13	34.44	-22.7	-22.7	18.8	0.00e+00	0	42	0	3186622464	6	3566
2026-01-10 15:35:12.86	304.43	34.30	-22.9	-22.9	18.6	0.00e+00	0	42	0	3193962496	6	3622
2026-01-10 15:35:13.86	304.72	34.15	-22.9	-22.9	18.6	0.00e+00	0	42	0	3201302528	6	3629
2026-01-10 15:35:14.87	305.01	34.00	-23.1	-23.3	18.4	0.00e+00	0	42	0	3208642560	6	3718
2026-01-10 15:35:15.87	305.30	33.86	-23.2	-23.6	18.3	0.00e+00	0	42	0	3215982592	6	3776
2026-01-10 15:35:16.88	305.58	33.71	-23.3	-23.9	18.1	0.00e+00	0	42	0	3223322624	6	3842
2026-01-10 15:35:17.89	305.87	33.56	-23.3	-23.9	18.1	0.00e+00	0	42	0	3230662656	6	3857
2026-01-10 15:35:18.90	306.15	33.41	-23.5	-24.3	17.9	0.00e+00	0	42	0	3236954112	6	3937
2026-01-10 15:35:19.90	306.43	33.27	-23.4	-24.1	18.0	0.00e+00	0	42	0	3245342720	6	3882
2026-01-10 15:35:20.91	306.70	33.12	-23.3	-23.8	18.2	0.00e+00	0	42	0	3252682752	6	3831
2026-01-10 15:35:21.92	306.98	32.97	-23.3	-23.8	18.2	0.00e+00	0	42	0	3258974208	6	3818
2026-01-10 15:35:22.92	307.25	32.83	-23.3	-24.0	18.1	0.00e+00	0	42	0	3266314240	6	3859
2026-01-10 15:35:23.93	307.51	32.68	-23.1	-23.4	18.4	0.00e+00	0	42	0	3273654272	6	3719
2026-01-10 15:35:24.94	307.78	32.53	-22.9	-23.0	18.6	0.00e+00	0	42	0	3280994304	6	3641
2026-01-10 15:35:25.95	308.05	32.38	-22.9	-22.9	18.7	0.00e+00	0	42	0	3288334336	6	3620
2026-01-10 15:35:26.95	308.31	32.24	-23.0	-23.2	18.5	0.00e+00	0	42	0	3295674368	6	3687
2026-01-10 15:35:27.95	308.56	32.09	-22.8	-22.8	18.7	0.00e+00	0	42	0	3303014400	6	3593
2026-01-10 15:35:28.96	308.82	31.94	-23.0	-23.1	18.3	0.00e+00	0	42	0	3310354432	6	3664
2026-01-10 15:35:29.96	309.07	31.80	-23.0	-23.2	18.5	0.00e+00	0	42	0	3317694464	6	3694
2026-01-10 15:35:30.97	309.33	31.65	-23.4	-24.1	18.1	0.00e+00	0	42	0	3325034496	6	3888
2026-01-10 15:35:31.98	309.58	31.50	-23.3	-23.8	18.1	0.00e+00	0	42	0	3332374528	6	3831
2026-01-10 15:35:32.99	309.82	31.36	-23.2	-23.7	18.3	0.00e+00	0	42	0	3339714560	6	3796
2026-01-10 15:35:33.99	310.07	31.21	-23.3	-23.7	18.2	0.00e+00	0	42	0	3346006016	6	3810
2026-01-10 15:35:34.99	310.31	31.07	-23.4	-24.0	18.1	0.00e+00	0	42	0	3353346048	6	3861
2026-01-10 15:35:36.00	310.55	30.92	-23.2	-23.6	18.2	0.00e+00	0	42	0	3361734656	6	3784
2026-01-10 15:35:37.00	310.79	30.77	-23.3	-23.9	18.1	0.00e+00	0	42	0	3368026112	6	3845
2026-01-10 15:35:38.01	311.03	30.63	-23.2	-23.6	18.3	0.00e+00	0	42	0	3375366144	6	3772
2026-01-10 15:35:39.01	311.26	30.48	-23.1	-23.5	18.3	0.00e+00	0	42	0	3382706176	6	3744
2026-01-10 15:35:40.02	311.49	30.34	-23.2	-23.7	18.2	0.00e+00	0	42	0	3390046208	6	3792
2026-01-10 15:35:41.02	311.72	30.20	-23.3	-23.7	18.2	0.00e+00	0	42	0	3397386240	6	3803
2026-01-10 15:35:42.03	311.95	30.05	-23.4	-24.0	18.0	0.00e+00	0	42	0	3404726272	6	3872
2026-01-10 15:35:43.03	312.18	29.91	-23.6	-24.0	17.8	0.00e+00	0	42	0	3412066304	7	3761
2026-01-10 15:35:44.03	312.40	29.76	-23.5	-23.7	17.9	0.00e+00	0	42	0	3419406336	7	3701
2026-01-10 15:35:45.04	312.63	29.62	-23.5	-23.7	17.9	0.00e+00	0	42	0	3425697792	7	3703
2026-01-10 15:35:46.05	312.85	29.48	-23.5	-23.7	17.9	0.00e+00	0	42	0	3434086400	7	3686
2026-01-10 15:35:47.06	313.07	29.33	-23.6	-23.9	17.9	0.00e+00	0	42	0	3441426432	7	3731
2026-01-10 15:35:48.07	313.28	29.19	-23.4	-23.6	18.0	0.00e+00	0	42	0	3447717888	7	3679
2026-01-10 15:35:49.08	313.50	29.05	-23.4	-23.5	18.1	0.00e+00	0	42	0	3455057920	7	3646
2026-01-10 15:35:50.09	313.71	28.90	-23.5	-23.8	17.9	0.00e+00	0	42	0	3462397952	7	3730
2026-01-10 15:35:51.10	313.93	28.76	-23.3	-23.3	18.1	0.00e+00	0	42	0	3469737984	7	3612
2026-01-10 15:35:52.10	314.13	28.62	-23.1	-23.0	18.3	0.00e+00	0	42	0	3477078016	7	3542
2026-01-10 15:35:53.10	314.34	28.48	-23.1	-22.9	18.3	0.00e+00	0	42	0	3484418048	7	3523
2026-01-10 15:35:54.11	314.55	28.34	-23.2	-23.1	18.2	0.00e+00	0	42	0	3491758080	7	3569
2026-01-10 15:35:55.11	314.75	28.20	-23.3	-23.3	18.2	0.00e+00	0	42	0	3499098112	7	3602
2026-01-10 15:35:56.12	314.95	28.06	-23.4	-23.6	18.0	0.00e+00	0	42	0	3506438144	7	3667
2026-01-10 15:35:57.13	315.16	27.92	-23.4	-23.5	18.0	0.00e+00	0	42	0	3513778176	7	3645
2026-01-10 15:35:58.13	315.35	27.78	-23.5	-23.7	18.0	0.00e+00	0	42	0	3521118208	7	3699
2026-01-10 15:35:59.13	315.55	27.64	-23.4	-23.6	18.0	0.00e+00	0	42	0	3528458240	7	3678
2026-01-10 15:36:00.13	315.74	27.50	-23.5	-23.7	17.9	0.00e+00	0	42	0	3534749696	7	3693
2026-01-10 15:36:01.14	315.94	27.36	-23.4	-23.5	18.0	0.00e+00	0	42	0	3542089728	7	3657
2026-01-10 15:36:02.14	316.13	27.23	-23.4	-23.5	18.0	0.00e+00	0	42	0	3549429760	7	3661
2026-01-10 15:36:03.15	316.32	27.09	-23.5	-23.8	17.9	0.00e+00	0	42	0	3556769792	7	3728
2026-01-10 15:36:04.16	316.51	26.95	-23.3	-23.3	18.1	0.00e+00	0	42	0	3564109824	7	3614
2026-01-10 15:36:05.16	316.70	26.81	-23.0	-22.8	18.4	0.00e+00	0	42	0	3571449856	7	3495
2026-01-10 15:36:06.16	316.88	26.68	-23.2	-23.1	18.2	0.00e+00	0	42	0	3578789888	7	3564
2026-01-10 15:36:07.16	317.07	26.54	-23.0	-22.7	18.4	0.00e+00	0	42	0	3586129920	7	3491
2026-01-10 15:36:08.17	317.25	26.40	-23.1	-22.9	18.3	0.00e+00	0	42	0	3593469952	7	3517
2026-01-10 15:36:09.17	317.43	26.27	-23.3	-23.4	18.0	0.00e+00	0	42	0	3600809984	7	3632
2026-01-10 15:36:10.18	317.61	26.13	-23.1	-22.9	18.3	0.00e+00	0	42	0	3608150016	7	3514
2026-01-10 15:36:11.19	317.79	26.00	-23.2	-23.1	18.2	0.00e+00	0	42	0	3615490048	7	3557
2026-01-10 15:36:12.20	317.97	25.86	-23.3	-23.3	18.1	0.00e+00	0	42	0	3622830080	7	3610
2026-01-10 15:36:13.20	318.14	25.73	-23.2	-23.1	18.1	0.00e+00	0	42	0	3630170112	7	3564
2026-01-10 15:36:14.20	318.32	25.60	-23.4	-23.5	18.0	0.00e+00	0	42	0	3636461568	7	3655
2026-01-10 15:36:15.21	318.49	25.47	-23.4	-23.5	17.9	0.00e+00	0	42	0	3643801600	7	3660
2026-01-10 15:36:16.21	318.66	25.33	-23.5	-23.7	17.9	0.00e+00	0	42	0	3651141632	7	3689
2026-01-10 15:36:17.22	318.83	25.20	-23.6	-23.9	17.7	0.00e+00	0	42	0	3658481664	7	3748
2026-01-10 15:36:18.22	319.00	25.07	-23.5	-23.7	17.8	0.00e+00	0	42	0	3665821696	7	3688
2026-01-10 15:36:19.23	319.16	24.94	-23.5	-23.8	17.8	0.00e+00	0	42	0	3673161728	7	3727
2026-01-10 15:36:20.24	319.33	24.81	-23.7	-24.2	17.6	0.00e+00	0	42	0	3680501760	7	3810
2026-01-10 15:36:21.25	319.50	24.67	-23.6	-24.1	17.6	0.00e+00	0	42	0	3687841792	7	3782
2026-01-10 15:36:22.26	319.66	24.54	-23.6	-24.0	17.7	0.00e+00	0	42	0	3695181824	7	3760
2026-01-10 15:36:23.26	319.82	24.41	-23.4	-23.6	17.8	0.00e+00	0	42	0	3702521856	7	3683
2026-01-10 15:36:24.27	319.98	24.29	-23.4	-23.6	17.9	0.00e+00	0	42	0	3709861888	7	3679
2026-01-10 15:36:25.28	320.14	24.16	-23.5	-23.8	17.8	0.00e+00	0	42	0	3717201920	7	3711
2026-01-10 15:36:26.29	320.30	24.03	-23.6	-23.9	17.7	0.00e+00	0	42	0	3723493376	7	3749
2026-01-10 15:36:27.29	320.46	23.90	-23.7	-24.2	17.6	0.00e+00	0	42	0	3730833408	7	3802
2026-01-10 15:36:28.29	320.61	23.77	-23.4	-23.5	17.9	0.00e+00	0	42	0	3738173440	7	3645
2026-01-10 15:36:29.30	320.77	23.64	-23.3	-23.3	18.0	0.00e+00	0	42	0	3745513472	7	3606
2026-01-10 15:36:30.30	320.92	23.52	-23.3	-23.3	17.9	0.00e+00	0	42	0	3752853504	7	3615
2026-01-10 15:36:31.31	321.07	23.39	-23.4	-23.6	17.9	0.00e+00	0	42	0	3760193536	7	3664
2026-01-10 15:36:32.32	321.22	23.26	-23.4	-23.5	17.9	0.00e+00	0	42	0	3767533568	7	3653
2026-01-10 15:36:33.33	321.37	23.14	-23.6	-23.9	17.7	0.00e+00	0	42	0	3774873600	7	3735
2026-01-10 15:36:34.33	321.52	23.01	-23.5	-23.8	17.7	0.00e+00	0	42	0	3782213632	7	3715
2026-01-10 15:36:35.34	321.67	22.89	-23.6	-24.0	17.6	0.00e+00	0	42	0	3789553664	7	3760
2026-01-10 15:36:36.33	321.81	22.77	-23.5	-23.9	17.7	0.00e+00	0	42	0	3796893696	7	3734
2026-01-10 15:36:37.34	321.96	22.64	-23.6	-23.9	17.7	0.00e+00	0	42	0	3804233728	7	3744
2026-01-10 15:36:38.35	322.10	22.52	-23.6	-24.0	17.6	0.00e+00	0	42	0	3811573760	7	3757
2026-01-10 15:36:39.36	322.24	22.39	-23.6	-24.0	17.6	0.00e+00	0	42	0	3818913792	7	3761
2026-01-10 15:36:40.37	322.39	22.27	-23.6	-23.9	17.6	0.00e+00	0	42	0	3826253824	7	3752
2026-01-10 15:36:41.38	322.53	22.15	-23.5	-23.8	17.7	0.00e+00	0	42	0	3832545280	7	3730
2026-01-10 15:36:42.38	322.67	22.03	-23.7	-24.2	17.5	0.00e+00	0	42	0	3839885312	7	3808
2026-01-10 15:36:43.38	322.80	21.91	-23.7	-24.3	17.5	0.00e+00	0	42	0	3847225344	7	3827
2026-01-10 15:36:44.39	322.94	21.79	-23.6	-23.9	17.7	0.00e+00	0	42	0	3854565376	7	3743
2026-01-10 15:36:45.39	323.08	21.67	-23.4	-23.6	17.8	0.00e+00	0	42	0	3861905408	7	3681
2026-01-10 15:36:46.40	323.21	21.54	-23.5	-23.7	17.8	0.00e+00	0	42	0	3869245440	7	3693
2026-01-10 15:36:47.41	323.35	21.42	-23.6	-24.0	17.6	0.00e+00	0	42	0	3876585472	7	3761
2026-01-10 15:36:48.41	323.48	21.31	-23.5	-23.9	17.7	0.00e+00	0	42	0	3883925504	7	3734
2026-01-10 15:36:49.41	323.61	21.19	-23.7	-24.2	17.5	0.00e+00	0	42	0	3891265536	7	3811
2026-01-10 15:36:50.42	323.74	21.07	-23.8	-24.3	17.4	0.00e+00	0	42	0	3898605568	7	3839
2026-01-10 15:36:51.43	323.87	20.95	-23.8	-24.4	17.3	0.00e+00	0	42	0	3905945600	7	3870
2026-01-10 15:36:52.44	324.00	20.83	-24.0	-24.8	17.1	0.00e+00	0	42	0	3912237056	7	3948
2026-01-10 15:36:53.44	324.13	20.72	-24.0	-24.8	17.1	0.00e+00	0	42	0	3919577088	7	3952
2026-01-10 15:36:54.43	324.26	20.60	-24.0	-24.7	17.1	0.00e+00	0	42	0	3926917120	7	3941
2026-01-10 15:36:55.44	324.39	20.48	-24.0	-24.9	17.0	0.00e+00	0	42	0	3934257152	7	3989
2026-01-10 15:36:56.44	324.51	20.37	-24.0	-24.9	17.1	0.00e+00	0	42	0	3941597184	7	3979
2026-01-10 15:36:57.44	324.63	20.25	-24.1	-25.0	17.0	0.00e+00	0	42	0	3948937216	7	4004
2026-01-10 15:36:58.44	324.76	20.14	-24.3	-24.9	16.8	0.00e+00	0	42	0	3956277248	8	3883
2026-01-10 15:36:59.44	324.88	20.02	-24.3	-25.0	16.8	0.00e+00	0	42	0	3963617280	8	3887
2026-01-10 15:37:00.44	325.00	19.91	-24.2	-24.7	16.9	0.00e+00	0	42	0	3970957312	8	3819
2026-01-10 15:37:01.44	325.12	19.80	-24.2	-24.8	16.9	0.00e+00	0	42	0	3977248768	8	3860
2026-01-10 15:37:02.45	325.24	19.68	-24.2	-24.7	16.9	0.00e+00	0	42	0	3985637376	8	3833
2026-01-10 15:37:03.46	325.36	19.57	-24.2	-24.7	16.9	0.00e+00	0	42	0	3992977408	8	3834
2026-01-10 15:37:04.46	325.48	19.46	-24.2	-24.9	16.8	0.00e+00	0	42	0	3999268864	8	3863
2026-01-10 15:37:05.47	325.60	19.35	-24.2	-24.8	16.9	0.00e+00	0	42	0	4006608896	8	3839
2026-01-10 15:37:06.48	325.72	19.23	-24.2	-24.7	16.9	0.00e+00	0	42	0	4013948928	8	3834
2026-01-10 15:37:07.48	325.83	19.12	-24.3	-25.0	16.8	0.00e+00	0	42	0	4021288960	8	3888
2026-01-10 15:37:08.49	325.95	19.01	-24.4	-25.1	16.7	0.00e+00	0	42	0	4028628992	8	3916
2026-01-10 15:37:09.50	326.06	18.90	-24.3	-24.9	16.8	0.00e+00	0	42	0	4035969024	8	3878
2026-01-10 15:37:10.51	326.18	18.79	-24.2	-24.8	16.8	0.00e+00	0	42	0	4043309056	8	3839
2026-01-10 15:37:11.51	326.29	18.68	-24.4	-25.2	16.7	0.00e+00	0	42	0	4050649088	8	3939
2026-01-10 15:37:12.52	326.40	18.57	-24.3	-25.0	16.7	0.00e+00	0	42	0	4057989120	8	3897
2026-01-10 15:37:13.52	326.51	18.46	-24.5	-25.4	16.5	0.00e+00	0	42	0	4065329152	8	4003
2026-01-10 15:37:14.53	326.62	18.35	-24.5	-25.0	16.5	0.00e+00	0	42	0	4072669184	9	3792
2026-01-10 15:37:15.54	326.74	18.24	-24.5	-24.8	16.6	0.00e+00	0	42	0	4078960640	9	3750
2026-01-10 15:37:16.55	326.84	18.13	-24.4	-24.6	16.7	0.00e+00	0	42	0	4087349248	9	3713
2026-01-10 15:37:17.55	326.95	18.03	-24.6	-25.1	16.4	0.00e+00	0	42	0	4094689280	9	3830
2026-01-10 15:37:18.56	327.06	17.92	-24.6	-25.1	16.4	0.00e+00	0	42	0	4100980736	9	3829
2026-01-10 15:37:19.57	327.17	17.81	-24.6	-25.1	16.4	0.00e+00	0	42	0	4108320768	9	3824
2026-01-10 15:37:20.58	327.27	17.70	-24.6	-25.2	16.3	0.00e+00	0	42	0	4115660800	9	3847
2026-01-10 15:37:21.59	327.38	17.60	-24.6	-25.1	16.4	0.00e+00	0	42	0	4123000832	9	3814
2026-01-10 15:37:22.59	327.49	17.49	-24.7	-25.3	16.2	0.00e+00	0	42	0	4130340864	9	3869
2026-01-10 15:37:23.60	327.59	17.39	-24.8	-25.5	16.2	0.00e+00	0	42	0	4137680896	9	3910
2026-01-10 15:37:24.61	327.69	17.28	-24.7	-25.3	16.3	0.00e+00	0	42	0	4145020928	9	3860
2026-01-10 15:37:25.61	327.80	17.18	-24.7	-25.3	16.3	0.00e+00	0	42	0	4152360960	9	3866
2026-01-10 15:37:26.62	327.90	17.07	-24.7	-25.4	16.2	0.00e+00	0	42	0	4159700992	9	3898
2026-01-10 15:37:27.63	328.00	16.97	-24.7	-25.4	16.2	0.00e+00	0	42	0	4167041024	9	3900
2026-01-10 15:37:28.63	328.10	16.86	-24.7	-25.3	16.3	0.00e+00	0	42	0	4174381056	9	3868
2026-01-10 15:37:29.64	328.20	16.76	-24.8	-25.5	16.1	0.00e+00	0	42	0	4181721088	9	3917
2026-01-10 15:37:30.64	328.30	16.66	-24.8	-25.6	16.1	0.00e+00	0	42	0	4188012544	9	3935
2026-01-10 15:37:31.65	328.40	16.55	-24.8	-25.5	16.2	0.00e+00	0	42	0	4196401152	9	3912
2026-01-10 15:37:32.66	328.50	16.45	-24.7	-25.4	16.2	0.00e+00	0	42	0	4203741184	9	3897
2026-01-10 15:37:33.66	328.59	16.35	-24.9	-25.7	16.0	0.00e+00	0	42	0	4210032640	9	3969
2026-01-10 15:37:34.67	328.69	16.25	-24.8	-25.6	16.1	0.00e+00	0	42	0	4217372672	9	3943
2026-01-10 15:37:35.68	328.79	16.15	-24.7	-25.4	16.2	0.00e+00	0	42	0	4224712704	9	3881
2026-01-10 15:37:36.69	328.88	16.05	-24.8	-25.6	16.0	0.00e+00	0	42	0	4232052736	9	3945
2026-01-10 15:37:37.70	328.98	15.95	-24.7	-25.4	16.2	0.00e+00	0	42	0	4239392768	9	3884
2026-01-10 15:37:38.70	329.07	15.85	-24.7	-25.4	16.2	0.00e+00	0	42	0	4246732800	9	3883
2026-01-10 15:37:39.71	329.17	15.75	-24.8	-25.6	16.0	0.00e+00	0	42	0	4254072832	9	3945
2026-01-10 15:37:40.72	329.26	15.65	-24.8	-25.5	16.1	0.00e+00	0	42	0	4261412864	9	3921
2026-01-10 15:37:41.72	329.35	15.55	-24.9	-25.7	16.0	0.00e+00	0	42	0	4268752896	9	3959
2026-01-10 15:37:42.73	329.45	15.45	-25.0	-25.9	15.9	0.00e+00	0	42	0	4276092928	9	4022
2026-01-10 15:37:43.74	329.54	15.35	-25.1	-25.8	15.7	0.00e+00	0	42	0	4283432960	10	3877
2026-01-10 15:37:44.74	329.63	15.25	-25.3	-26.2	15.5	0.00e+00	0	42	0	4290772992	10	3973
2026-01-10 15:37:45.75	329.72	15.15	-25.3	-26.2	15.4	0.00e+00	0	42	0	4297064448	10	3980
2026-01-10 15:37:46.76	329.81	15.06	-25.3	-26.1	15.5	0.00e+00	0	42	0	4305453056	10	3955
2026-01-10 15:37:47.77	329.90	14.96	-25.3	-26.2	15.5	0.00e+00	0	42	0	4312793088	10	3974
2026-01-10 15:37:48.77	329.99	14.86	-25.4	-26.3	15.3	0.00e+00	0	42	0	4319084544	10	4016
2026-01-10 15:37:49.78	330.08	14.77	-25.5	-26.6	15.2	0.00e+00	0	42	0	4326424576	10	4098
2026-01-10 15:37:50.78	330.16	14.67	-25.6	-26.4	15.1	0.00e+00	0	42	0	4333764608	11	3932
2026-01-10 15:37:51.79	330.25	14.57	-25.6	-26.4	15.1	0.00e+00	0	42	0	4341104640	11	3923
2026-01-10 15:37:52.80	330.34	14.48	-25.7	-26.5	15.0	0.00e+00	0	42	0	4348444672	11	3952
2026-01-10 15:37:53.80	330.42	14.38	-25.8	-26.7	14.9	0.00e+00	0	42	0	4355784704	11	3989
2026-01-10 15:37:54.81	330.51	14.29	-25.9	-27.0	14.7	1.10e-06	0	42	0	4363124736	11	4077
2026-01-10 15:37:55.81	330.59	14.19	-25.7	-26.5	15.0	0.00e+00	0	42	0	4370464768	11	3941
2026-01-10 15:37:56.82	330.68	14.10	-25.7	-26.5	15.0	0.00e+00	0	42	0	4377804800	11	3941
2026-01-10 15:37:57.83	330.76	14.01	-25.7	-26.6	14.9	0.00e+00	0	42	0	4385144832	11	3972
2026-01-10 15:37:58.83	330.84	13.91	-25.7	-26.5	14.9	0.00e+00	0	42	0	4392484864	11	3955
2026-01-10 15:37:59.84	330.93	13.82	-25.6	-26.4	15.0	0.00e+00	0	42	0	4398776320	11	3919
2026-01-10 15:38:00.83	331.01	13.73	-25.7	-26.5	14.9	0.00e+00	0	42	0	4406116352	11	3963
2026-01-10 15:38:01.84	331.09	13.63	-25.7	-26.6	14.9	0.00e+00	0	42	0	4413456384	11	3974
2026-01-10 15:38:02.85	331.17	13.54	-25.7	-26.5	14.9	0.00e+00	0	42	0	4420796416	11	3965
2026-01-10 15:38:03.84	331.25	13.45	-25.9	-26.9	14.7	0.00e+00	0	42	0	4428136448	11	4064
2026-01-10 15:38:04.85	331.33	13.36	-25.7	-26.5	14.9	0.00e+00	0	42	0	4435476480	11	3962
2026-01-10 15:38:05.85	331.41	13.27	-25.8	-26.8	14.8	0.00e+00	0	42	0	4442816512	11	4022
2026-01-10 15:38:06.86	331.49	13.18	-25.7	-26.6	14.8	0.00e+00	0	42	0	4450156544	11	3979
2026-01-10 15:38:07.86	331.57	13.09	-25.8	-26.8	14.7	0.00e+00	0	42	0	4457496576	11	4035
2026-01-10 15:38:08.87	331.65	12.99	-25.7	-26.4	14.9	0.00e+00	0	42	0	4464836608	11	3944
2026-01-10 15:38:09.86	331.73	12.91	-25.7	-26.5	14.9	0.00e+00	0	42	0	4472176640	11	3969
2026-01-10 15:38:10.87	331.81	12.82	-25.7	-26.5	14.9	0.00e+00	0	42	0	4479516672	11	3961
2026-01-10 15:38:11.88	331.88	12.73	-25.7	-26.6	14.8	0.00e+00	0	42	0	4485808128	11	3981
2026-01-10 15:38:12.87	331.96	12.64	-25.7	-26.4	14.9	1.10e-06	0	42	0	4493148160	11	3940
2026-01-10 15:38:13.88	332.04	12.55	-25.7	-26.5	14.8	0.00e+00	0	42	0	4500488192	11	3965
2026-01-10 15:38:14.89	332.11	12.46	-25.9	-26.9	14.6	1.10e-06	0	42	0	4507828224	11	4064
2026-01-10 15:38:15.89	332.19	12.37	-25.9	-27.0	14.6	0.00e+00	0	42	0	4515168256	11	4090
2026-01-10 15:38:16.90	332.26	12.28	-25.7	-26.6	14.8	0.00e+00	0	42	0	4522508288	11	3990
2026-01-10 15:38:17.91	332.34	12.19	-25.7	-26.6	14.8	0.00e+00	0	42	0	4529848320	11	3975
2026-01-10 15:38:18.91	332.41	12.11	-25.9	-26.9	14.6	0.00e+00	0	42	0	4537188352	11	4061
2026-01-10 15:38:19.92	332.49	12.02	-25.9	-26.9	14.6	0.00e+00	0	42	0	4544528384	11	4062
2026-01-10 15:38:20.93	332.56	11.93	-25.8	-26.8	14.6	0.00e+00	0	42	0	4551868416	11	4030
2026-01-10 15:38:21.93	332.63	11.84	-25.8	-26.8	14.6	1.10e-06	0	42	0	4559208448	11	4033
2026-01-10 15:38:22.94	332.71	11.76	-25.9	-27.0	14.5	0.00e+00	0	42	0	4565499904	11	4079
2026-01-10 15:38:23.95	332.78	11.67	-25.9	-27.1	14.5	0.00e+00	0	42	0	4572839936	11	4111
2026-01-10 15:38:24.95	332.85	11.58	-26.1	-27.3	14.3	0.00e+00	0	42	0	4581228544	11	4180
2026-01-10 15:38:25.95	332.92	11.50	-26.0	-27.2	14.4	1.10e-06	0	42	0	4587520000	11	4134
2026-01-10 15:38:26.96	332.99	11.41	-26.1	-27.0	14.1	0.00e+00	0	42	0	4594860032	12	3979
2026-01-10 15:38:27.96	333.06	11.33	-26.1	-27.0	14.1	3.40e-06	0	42	0	4602200064	12	3993
2026-01-10 15:38:28.97	333.14	11.24	-26.2	-27.2	14.0	2.20e-06	0	42	0	4609540096	12	4033
2026-01-10 15:38:29.98	333.21	11.16	-26.0	-26.7	14.3	0.00e+00	0	42	0	4616880128	12	3918
2026-01-10 15:38:30.99	333.28	11.07	-26.1	-27.0	14.2	2.20e-06	0	42	0	4624220160	12	3982
2026-01-10 15:38:31.99	333.34	10.99	-26.1	-26.9	14.2	1.10e-06	0	42	0	4631560192	12	3967
2026-01-10 15:38:32.99	333.41	10.91	-26.2	-27.2	14.0	5.70e-06	0	42	0	4638900224	12	4033
2026-01-10 15:38:34.00	333.48	10.82	-26.2	-27.2	14.0	1.10e-06	0	42	0	4646240256	12	4044
2026-01-10 15:38:35.01	333.55	10.74	-26.4	-27.6	13.8	4.50e-06	0	42	0	4653580288	12	4137
2026-01-10 15:38:36.01	333.62	10.66	-26.3	-27.5	13.8	5.70e-06	0	42	0	4660920320	12	4125
2026-01-10 15:38:37.02	333.68	10.57	-26.7	-27.8	13.3	1.02e-05	0	42	0	4668260352	13	4104
2026-01-10 15:38:38.03	333.75	10.49	-26.5	-27.3	13.6	1.48e-05	0	42	0	4674551808	13	3976
2026-01-10 15:38:39.04	333.82	10.41	-26.3	-27.0	13.8	1.14e-05	0	42	0	4681891840	13	3885
2026-01-10 15:38:40.05	333.89	10.32	-26.3	-27.0	13.8	4.50e-06	0	42	0	4689231872	13	3885
2026-01-10 15:38:41.05	333.95	10.24	-26.3	-27.0	13.8	9.10e-06	0	42	0	4696571904	13	3891
2026-01-10 15:38:42.06	334.02	10.16	-26.5	-27.5	13.5	1.37e-05	0	42	0	4703911936	13	4020
2026-01-10 15:38:43.06	334.08	10.08	-26.5	-27.4	13.5	6.80e-06	0	42	0	4711251968	13	3993
2026-01-10 15:38:44.07	334.15	10.00	-26.2	-26.7	13.9	4.50e-06	0	42	0	4718592000	13	3826
2026-01-10 15:38:45.08	334.21	9.92	-26.4	-27.2	13.6	9.10e-06	0	42	0	4725932032	13	3953
2026-01-10 15:38:46.08	334.28	9.84	-26.1	-26.4	14.1	1.10e-06	0	42	0	4733272064	13	3756
2026-01-10 15:38:47.09	334.34	9.75	-26.3	-26.9	13.8	2.20e-06	0	42	0	4740612096	13	3867
2026-01-10 15:38:48.09	334.40	9.67	-26.3	-26.9	13.8	4.50e-06	0	42	0	4747952128	13	3863
2026-01-10 15:38:49.09	334.47	9.59	-26.3	-26.9	13.8	3.40e-06	0	42	0	4754243584	13	3866
2026-01-10 15:38:50.10	334.53	9.51	-26.3	-26.9	13.7	5.70e-06	0	42	0	4761583616	13	3869
2026-01-10 15:38:51.10	334.59	9.44	-26.2	-26.7	13.9	2.20e-06	0	42	0	4769972224	13	3810
2026-01-10 15:38:52.11	334.66	9.36	-26.3	-26.9	13.8	6.80e-06	0	42	0	4776263680	13	3859
2026-01-10 15:38:53.11	334.72	9.28	-26.3	-26.9	13.7	1.14e-05	0	42	0	4783603712	13	3870
2026-01-10 15:38:54.12	334.78	9.20	-26.3	-27.0	13.7	5.70e-06	0	42	0	4790943744	13	3902
2026-01-10 15:38:55.13	334.84	9.12	-26.4	-27.2	13.6	1.94e-05	0	42	0	4798283776	13	3939
2026-01-10 15:38:56.14	334.90	9.04	-26.4	-27.2	13.6	1.71e-05	0	42	0	4805623808	13	3932
2026-01-10 15:38:57.15	334.96	8.96	-26.5	-27.5	13.4	1.37e-05	0	42	0	4812963840	13	4011
2026-01-10 15:38:58.16	335.02	8.88	-26.3	-27.0	13.6	1.37e-05	0	42	0	4820303872	13	3906
2026-01-10 15:38:59.16	335.08	8.80	-26.5	-27.5	13.3	3.43e-05	0	42	0	4827643904	13	4024
2026-01-10 15:39:00.17	335.14	8.73	-26.6	-27.6	13.3	2.97e-05	0	42	0	4834983936	13	4045
2026-01-10 15:39:01.18	335.20	8.65	-26.4	-27.2	13.5	1.37e-05	0	42	0	4842323968	13	3935
2026-01-10 15:39:02.19	335.26	8.57	-26.3	-27.1	13.6	8.00e-06	0	42	0	4849664000	13	3909
2026-01-10 15:39:03.19	335.32	8.49	-26.4	-27.1	13.6	1.02e-05	0	42	0	4857004032	13	3925
2026-01-10 15:39:04.19	335.38	8.42	-26.4	-27.2	13.5	1.02e-05	0	42	0	4863295488	13	3946
2026-01-10 15:39:05.20	335.44	8.34	-26.4	-27.1	13.5	1.37e-05	0	42	0	4870635520	13	3936
2026-01-10 15:39:06.21	335.50	8.26	-26.4	-27.3	13.4	4.57e-05	0	42	0	4879024128	13	3975
2026-01-10 15:39:07.21	335.56	8.19	-26.5	-27.4	13.3	1.17e-04	0	42	0	4885315584	13	4014
2026-01-10 15:39:08.22	335.61	8.11	-26.5	-27.4	13.3	1.38e-04	0	42	0	4892655616	13	3996
2026-01-10 15:39:09.23	335.67	8.04	-26.5	-27.4	13.3	2.41e-04	0	42	0	4899995648	13	3993
2026-01-10 15:39:10.24	335.73	7.96	-26.6	-27.7	13.1	4.12e-04	0	42	0	4907335680	13	4077
2026-01-10 15:39:11.24	335.79	7.89	-26.5	-27.5	13.2	4.70e-04	0	42	0	4914675712	13	4021
2026-01-10 15:39:12.25	335.84	7.81	-26.5	-27.5	13.2	6.24e-04	0	42	0	4922015744	13	4033
2026-01-10 15:39:13.25	335.90	7.74	-26.6	-27.7	13.1	7.95e-04	0	42	0	4929355776	13	4088
2026-01-10 15:39:14.26	335.96	7.66	-26.7	-27.9	12.9	8.81e-04	0	42	0	4936695808	13	4152
2026-01-10 15:39:15.26	336.01	7.59	-26.8	-28.1	12.8	9.18e-04	0	42	0	4944035840	13	4200
2026-01-10 15:39:16.27	336.07	7.51	-26.8	-28.2	12.8	8.79e-04	0	42	0	4951375872	13	4215
