passes_logs/2026/01/10/R2M6_AANII_01/R2M6_AANII_01__20260110_224021_NOAA_21_JPSS-2_rec.log

#Pass ID: 20260110_224021_NOAA 21 (JPSS-2)
#Satellite: NOAA 21 (JPSS-2)
#Configuration: NOAA 21
#almurnet v.1.7.20240730
#Start time: 2026-01-10 22:40:22

#Version: 2.2.20231116
#Station: R2M6_AANII_01
#Location: 30.233357 lon 59.946436 lat
#TLE: 1 54234U 22150A   26009.79679979  .00000100  00000+0  68070-4 0  9993
#TLE: 2 54234  98.7494 310.7596 0000833 322.2782  37.8335 14.19533646164071

#Time	Az	El	Level	Level2	SNR	BER	BlckErr	Temp	State	Recorded	gain1	gain2
2026-01-10 22:40:22.99	30.72	7.11	-31.1	-37.2	4.3	1.42e+00	0	39	0	0	22	7262
2026-01-10 22:40:23.99	30.82	7.17	-31.3	-37.9	4.3	1.43e+00	0	40	104	0	22	7690
2026-01-10 22:40:25.00	30.92	7.24	-31.4	-37.6	6.2	2.56e-01	0	40	0	0	22	7331
2026-01-10 22:40:26.01	31.02	7.30	-31.5	-37.5	6.0	3.26e-01	0	39	0	3145728	23	7174
2026-01-10 22:40:27.01	31.12	7.36	-31.4	-37.6	6.2	2.82e-01	0	40	0	6291456	22	7319
2026-01-10 22:40:28.02	31.22	7.42	-31.5	-37.4	6.1	3.15e-01	0	40	0	9437184	23	7074
2026-01-10 22:40:29.03	31.32	7.48	-31.7	-38.4	5.5	4.33e-01	0	40	0	12582912	23	7776
2026-01-10 22:40:30.04	31.42	7.55	-31.5	-37.4	6.1	3.62e-01	0	40	0	15728640	23	7077
2026-01-10 22:40:31.05	31.52	7.61	-31.2	-36.6	6.9	2.05e-01	0	40	0	18874368	22	6708
2026-01-10 22:40:32.06	31.62	7.67	-31.0	-35.6	7.7	1.00e-01	0	40	0	22020096	22	6113
2026-01-10 22:40:33.06	31.72	7.74	-30.6	-34.8	8.6	5.07e-02	0	40	0	25165824	21	5818
2026-01-10 22:40:34.07	31.83	7.80	-30.2	-33.9	9.5	1.82e-02	0	40	0	28311552	20	5553
2026-01-10 22:40:35.07	31.93	7.86	-29.9	-33.2	10.1	7.28e-03	0	40	0	31457280	20	5254
2026-01-10 22:40:36.08	32.03	7.92	-29.8	-33.2	10.6	5.88e-03	0	40	0	34603008	19	5319
2026-01-10 22:40:37.09	32.14	7.99	-29.6	-32.7	10.9	3.34e-03	0	40	0	37748736	19	5158
2026-01-10 22:40:38.09	32.24	8.05	-29.5	-32.3	11.2	1.39e-03	0	40	0	40894464	19	4984
2026-01-10 22:40:39.10	32.34	8.11	-29.3	-32.3	11.5	1.60e-03	0	40	0	44040192	18	5103
2026-01-10 22:40:40.10	32.45	8.18	-29.4	-32.5	11.4	7.99e-04	0	40	0	47185920	18	5176
2026-01-10 22:40:41.10	32.55	8.24	-29.7	-32.8	10.9	2.11e-03	0	40	0	50331648	19	5175
2026-01-10 22:40:42.11	32.66	8.30	-29.3	-32.0	11.4	1.73e-03	0	40	0	53477376	19	4858
2026-01-10 22:40:43.12	32.77	8.37	-29.1	-31.9	11.8	9.69e-04	0	40	0	56623104	18	4944
2026-01-10 22:40:44.13	32.87	8.43	-29.0	-31.5	12.1	2.79e-04	0	40	0	59768832	18	4800
2026-01-10 22:40:45.13	32.98	8.49	-28.9	-31.2	12.3	1.82e-04	0	40	0	62914560	18	4721
2026-01-10 22:40:46.14	33.09	8.56	-28.8	-30.9	12.5	1.38e-04	0	40	0	66060288	18	4621
2026-01-10 22:40:47.14	33.19	8.62	-28.7	-31.3	12.6	9.46e-05	0	40	0	69206016	17	4851
2026-01-10 22:40:48.14	33.30	8.68	-28.7	-31.2	12.6	1.01e-04	0	40	0	71303168	17	4800
2026-01-10 22:40:49.14	33.41	8.75	-28.6	-31.1	12.7	9.53e-05	0	40	0	74448896	17	4781
2026-01-10 22:40:50.15	33.52	8.81	-28.8	-31.5	12.5	1.30e-04	0	40	0	78643200	17	4904
2026-01-10 22:40:51.16	33.63	8.87	-28.6	-30.9	12.8	7.17e-05	0	40	0	81788928	17	4709
2026-01-10 22:40:52.17	33.74	8.94	-28.6	-30.9	12.9	6.25e-05	0	40	0	84934656	17	4704
2026-01-10 22:40:53.17	33.85	9.00	-28.5	-30.8	12.9	3.81e-05	0	41	0	88080384	17	4674
2026-01-10 22:40:54.18	33.96	9.07	-28.6	-30.9	12.9	5.87e-05	0	41	0	91226112	17	4710
2026-01-10 22:40:55.18	34.07	9.13	-28.5	-30.7	13.0	4.19e-05	0	41	0	94371840	17	4635
2026-01-10 22:40:56.18	34.19	9.20	-28.6	-31.0	12.7	5.26e-05	0	40	0	96468992	17	4743
2026-01-10 22:40:57.18	34.30	9.26	-28.4	-30.5	13.1	3.35e-05	0	41	0	99614720	17	4595
2026-01-10 22:40:58.19	34.41	9.32	-28.5	-30.8	13.0	4.73e-05	0	41	0	102760448	17	4670
2026-01-10 22:40:59.20	34.53	9.39	-28.5	-30.6	13.1	5.18e-05	0	41	0	106954752	17	4612
2026-01-10 22:41:00.21	34.64	9.45	-28.4	-30.6	13.1	4.11e-05	0	41	0	110100480	17	4605
2026-01-10 22:41:01.22	34.76	9.52	-28.3	-30.1	13.3	1.29e-05	0	41	0	113246208	17	4459
2026-01-10 22:41:02.22	34.87	9.58	-28.3	-30.8	13.3	2.05e-05	0	41	0	116391936	16	4778
2026-01-10 22:41:03.23	34.99	9.65	-28.3	-30.6	13.4	1.44e-05	0	41	0	118489088	16	4732
2026-01-10 22:41:04.23	35.10	9.71	-28.3	-30.8	13.3	1.52e-05	0	41	0	121634816	16	4786
2026-01-10 22:41:05.24	35.22	9.78	-28.3	-30.7	13.3	1.29e-05	0	41	0	124780544	16	4752
2026-01-10 22:41:06.25	35.34	9.84	-28.3	-30.8	13.3	1.90e-05	0	41	0	128974848	16	4796
2026-01-10 22:41:07.26	35.45	9.91	-28.4	-30.9	13.2	2.51e-05	0	41	0	132120576	16	4838
2026-01-10 22:41:08.26	35.57	9.97	-28.3	-30.7	13.3	2.21e-05	0	41	0	135266304	16	4769
2026-01-10 22:41:09.26	35.69	10.04	-28.4	-30.9	13.2	1.75e-05	0	41	0	138412032	16	4838
2026-01-10 22:41:10.27	35.81	10.10	-28.4	-31.0	13.1	2.28e-05	0	41	0	141557760	16	4850
2026-01-10 22:41:11.27	35.93	10.17	-28.3	-30.8	13.3	1.52e-05	0	41	0	143654912	16	4789
2026-01-10 22:41:12.28	36.05	10.24	-28.4	-31.0	13.2	3.43e-05	0	41	0	146800640	16	4841
2026-01-10 22:41:13.28	36.17	10.30	-28.1	-30.4	13.5	1.37e-05	0	41	0	149946368	16	4689
2026-01-10 22:41:14.29	36.29	10.37	-28.1	-30.3	13.6	1.06e-05	0	41	0	153092096	16	4617
2026-01-10 22:41:15.29	36.41	10.43	-28.1	-30.3	13.6	3.80e-06	0	41	0	156237824	16	4630
2026-01-10 22:41:16.30	36.53	10.50	-28.1	-30.3	13.6	6.80e-06	0	41	0	160432128	16	4608
2026-01-10 22:41:17.31	36.66	10.56	-28.0	-30.1	13.7	9.90e-06	0	41	0	163577856	16	4556
2026-01-10 22:41:18.32	36.78	10.63	-28.1	-30.2	13.6	7.60e-06	0	41	0	166723584	16	4600
2026-01-10 22:41:19.33	36.90	10.70	-28.1	-30.3	13.6	6.80e-06	0	41	0	168820736	16	4626
2026-01-10 22:41:20.33	37.03	10.76	-28.1	-30.2	13.7	6.10e-06	0	41	0	171966464	16	4588
2026-01-10 22:41:21.34	37.15	10.83	-28.2	-30.5	13.6	6.10e-06	0	41	0	175112192	16	4673
2026-01-10 22:41:22.35	37.28	10.90	-28.0	-30.1	13.7	1.22e-05	0	41	0	179306496	16	4550
2026-01-10 22:41:23.35	37.41	10.96	-28.0	-30.0	13.8	2.13e-05	0	41	0	182452224	16	4526
2026-01-10 22:41:24.36	37.53	11.03	-27.9	-29.8	14.0	5.30e-06	0	41	0	185597952	16	4459
2026-01-10 22:41:25.36	37.66	11.09	-27.8	-29.5	14.2	7.00e-07	0	41	0	188743680	16	4373
2026-01-10 22:41:26.37	37.79	11.16	-27.8	-29.5	14.1	3.80e-06	0	41	0	190840832	16	4377
2026-01-10 22:41:27.37	37.91	11.23	-27.6	-29.1	14.3	2.20e-06	0	41	0	193986560	16	4274
2026-01-10 22:41:28.38	38.04	11.29	-27.8	-29.4	14.2	7.00e-07	0	41	0	197132288	16	4360
2026-01-10 22:41:29.39	38.17	11.36	-27.7	-29.4	14.2	7.00e-07	0	41	0	200278016	16	4345
2026-01-10 22:41:30.40	38.30	11.43	-27.6	-28.9	14.5	3.80e-06	0	41	0	204472320	16	4207
2026-01-10 22:41:31.41	38.43	11.49	-27.6	-28.9	14.5	7.00e-07	0	41	0	207618048	16	4203
2026-01-10 22:41:32.42	38.57	11.56	-27.6	-28.9	14.5	7.00e-07	0	41	0	210763776	16	4209
2026-01-10 22:41:33.43	38.70	11.63	-27.6	-29.1	14.4	3.80e-06	0	41	0	213909504	16	4251
2026-01-10 22:41:34.43	38.83	11.69	-27.7	-29.3	14.3	2.20e-06	0	41	0	216006656	16	4310
2026-01-10 22:41:35.43	38.96	11.76	-27.7	-29.3	14.0	2.20e-06	0	41	0	219152384	16	4332
2026-01-10 22:41:36.44	39.10	11.83	-27.8	-29.5	13.9	2.20e-06	0	41	0	222298112	16	4377
2026-01-10 22:41:37.45	39.23	11.89	-27.8	-29.5	14.2	1.50e-06	0	41	0	226492416	16	4375
2026-01-10 22:41:38.45	39.36	11.96	-27.7	-29.3	14.3	7.00e-07	0	41	0	229638144	16	4312
2026-01-10 22:41:39.46	39.50	12.03	-27.7	-29.4	14.2	7.00e-07	0	41	0	232783872	16	4341
2026-01-10 22:41:40.46	39.63	12.10	-27.7	-29.3	14.3	1.50e-06	0	41	0	235929600	16	4319
2026-01-10 22:41:41.47	39.77	12.16	-27.8	-29.4	14.2	2.74e-05	0	41	0	238026752	16	4349
2026-01-10 22:41:42.48	39.91	12.23	-27.6	-28.9	14.5	5.18e-05	0	41	0	241172480	16	4209
2026-01-10 22:41:43.48	40.05	12.30	-27.5	-28.9	14.6	0.00e+00	0	41	0	244318208	16	4194
2026-01-10 22:41:44.49	40.18	12.36	-27.3	-28.9	14.6	7.00e-07	0	41	0	247463936	15	4322
2026-01-10 22:41:45.50	40.32	12.43	-27.4	-29.2	14.5	1.50e-06	0	41	0	251658240	15	4397
2026-01-10 22:41:46.51	40.46	12.50	-27.5	-29.4	14.4	7.00e-07	0	41	0	254803968	15	4467
2026-01-10 22:41:47.51	40.60	12.57	-27.6	-29.5	14.3	4.29e-04	0	41	0	257949696	15	4504
2026-01-10 22:41:48.52	40.74	12.63	-27.6	-29.6	14.3	4.16e-04	0	41	0	261095424	15	4520
2026-01-10 22:41:49.53	40.89	12.70	-27.8	-29.9	14.1	1.50e-06	0	41	0	263192576	15	4625
2026-01-10 22:41:50.53	41.03	12.77	-27.7	-29.8	14.1	3.80e-06	0	41	0	266338304	15	4585
2026-01-10 22:41:51.53	41.17	12.84	-27.7	-29.7	14.2	1.82e-04	0	41	0	269484032	15	4560
2026-01-10 22:41:52.53	41.31	12.90	-27.7	-29.8	14.2	7.00e-07	0	41	0	272629760	15	4569
2026-01-10 22:41:53.54	41.45	12.97	-27.6	-29.6	14.3	2.82e-05	0	41	0	275775488	15	4527
2026-01-10 22:41:54.54	41.60	13.04	-27.6	-29.5	14.4	3.80e-06	0	41	0	278921216	15	4499
2026-01-10 22:41:55.55	41.74	13.11	-27.5	-29.4	14.4	7.00e-07	0	41	0	283115520	15	4473
2026-01-10 22:41:56.56	41.89	13.17	-27.5	-29.3	14.5	0.00e+00	0	41	0	285212672	15	4423
2026-01-10 22:41:57.57	42.04	13.24	-27.5	-29.3	14.4	7.00e-07	0	41	0	288358400	15	4426
2026-01-10 22:41:58.57	42.18	13.31	-27.6	-29.5	14.4	0.00e+00	0	41	0	291504128	15	4490
2026-01-10 22:41:59.58	42.33	13.38	-27.6	-29.5	14.4	7.00e-07	0	41	0	294649856	15	4494
2026-01-10 22:42:00.58	42.48	13.44	-27.6	-29.4	14.5	0.00e+00	0	41	0	297795584	15	4471
2026-01-10 22:42:01.59	42.63	13.51	-27.6	-29.5	14.4	0.00e+00	0	42	0	300941312	15	4498
2026-01-10 22:42:02.59	42.78	13.58	-27.7	-29.7	14.3	7.00e-07	0	41	0	304087040	15	4547
2026-01-10 22:42:03.59	42.93	13.65	-27.4	-29.2	14.6	2.20e-04	0	41	0	307232768	15	4388
2026-01-10 22:42:04.60	43.08	13.72	-27.3	-28.7	14.8	0.00e+00	0	41	0	310378496	15	4268
2026-01-10 22:42:05.61	43.23	13.78	-27.3	-28.8	14.8	7.00e-07	0	41	0	313524224	15	4290
2026-01-10 22:42:06.61	43.38	13.85	-27.3	-28.9	14.8	0.00e+00	0	42	0	316669952	15	4322
2026-01-10 22:42:07.62	43.53	13.92	-27.3	-28.9	14.7	0.00e+00	0	41	0	319815680	15	4320
2026-01-10 22:42:08.62	43.69	13.99	-27.2	-29.1	14.9	9.03e-04	0	41	0	322961408	14	4488
2026-01-10 22:42:09.62	43.84	14.05	-27.3	-29.2	14.8	1.32e-03	0	41	0	326107136	14	4517
2026-01-10 22:42:10.63	44.00	14.12	-27.3	-29.2	14.9	0.00e+00	0	41	0	329252864	14	4510
2026-01-10 22:42:11.63	44.15	14.19	-27.3	-29.4	14.8	0.00e+00	0	41	0	332398592	14	4568
2026-01-10 22:42:12.64	44.31	14.26	-27.2	-29.2	14.9	0.00e+00	0	42	0	335544320	14	4498
2026-01-10 22:42:13.65	44.47	14.33	-27.3	-29.3	14.9	0.00e+00	0	41	0	338690048	14	4533
2026-01-10 22:42:14.65	44.62	14.39	-27.4	-29.6	14.7	0.00e+00	0	41	0	341835776	14	4617
2026-01-10 22:42:15.66	44.78	14.46	-27.3	-29.3	14.9	0.00e+00	0	41	0	344981504	14	4525
2026-01-10 22:42:16.66	44.94	14.53	-27.2	-29.0	15.0	7.00e-07	0	42	0	348127232	14	4433
2026-01-10 22:42:17.67	45.10	14.60	-27.0	-28.7	15.2	0.00e+00	0	41	0	351272960	14	4366
2026-01-10 22:42:18.67	45.26	14.66	-27.2	-29.1	15.0	0.00e+00	0	41	0	354418688	14	4464
2026-01-10 22:42:19.68	45.42	14.73	-27.2	-29.0	15.1	0.00e+00	0	41	0	357564416	14	4444
2026-01-10 22:42:20.68	45.58	14.80	-27.2	-29.0	15.1	0.00e+00	0	42	0	360710144	14	4447
2026-01-10 22:42:21.68	45.74	14.87	-27.2	-29.2	15.0	0.00e+00	0	42	0	363855872	14	4489
2026-01-10 22:42:22.69	45.91	14.93	-27.3	-29.2	14.9	0.00e+00	0	41	0	367001600	14	4517
2026-01-10 22:42:23.70	46.07	15.00	-27.3	-29.4	14.9	0.00e+00	0	42	0	370147328	14	4565
2026-01-10 22:42:24.70	46.24	15.07	-27.3	-29.2	14.9	7.00e-07	0	42	0	373293056	14	4510
2026-01-10 22:42:25.71	46.40	15.14	-27.2	-29.1	15.0	0.00e+00	0	42	0	376438784	14	4490
2026-01-10 22:42:26.71	46.57	15.20	-27.2	-29.0	15.1	0.00e+00	0	42	0	379584512	14	4448
2026-01-10 22:42:27.71	46.73	15.27	-27.2	-29.1	15.1	0.00e+00	0	42	0	382730240	14	4473
2026-01-10 22:42:28.72	46.90	15.34	-27.2	-29.0	15.1	0.00e+00	0	42	0	385875968	14	4437
2026-01-10 22:42:29.72	47.07	15.41	-27.1	-28.7	15.2	0.00e+00	0	42	0	389021696	14	4366
2026-01-10 22:42:30.73	47.24	15.47	-27.0	-28.7	15.3	7.00e-07	0	42	0	392167424	14	4354
2026-01-10 22:42:31.74	47.41	15.54	-27.1	-28.9	15.1	0.00e+00	0	41	0	395313152	14	4424
2026-01-10 22:42:32.74	47.58	15.61	-27.1	-28.9	15.2	0.00e+00	0	42	0	398458880	14	4410
2026-01-10 22:42:33.75	47.75	15.68	-27.1	-28.7	15.3	0.00e+00	0	42	0	401604608	14	4363
2026-01-10 22:42:34.76	47.93	15.74	-27.1	-28.9	15.2	0.00e+00	0	41	0	404750336	14	4409
2026-01-10 22:42:35.76	48.10	15.81	-27.1	-28.8	15.2	0.00e+00	0	41	0	407896064	14	4386
2026-01-10 22:42:36.76	48.27	15.88	-27.2	-29.0	15.1	0.00e+00	0	42	0	411041792	14	4449
2026-01-10 22:42:37.76	48.44	15.94	-27.1	-28.8	15.2	7.00e-07	0	42	0	414187520	14	4395
2026-01-10 22:42:38.77	48.62	16.01	-27.2	-29.0	15.1	0.00e+00	0	42	0	417333248	14	4436
2026-01-10 22:42:39.78	48.80	16.08	-27.1	-28.7	15.3	0.00e+00	0	42	0	420478976	14	4352
2026-01-10 22:42:40.78	48.97	16.14	-27.0	-28.7	15.3	0.00e+00	0	42	0	423624704	14	4352
2026-01-10 22:42:41.79	49.15	16.21	-27.1	-28.8	15.2	0.00e+00	0	42	0	426770432	14	4382
2026-01-10 22:42:42.79	49.33	16.28	-27.2	-29.1	15.2	0.00e+00	0	42	0	429916160	14	4451
2026-01-10 22:42:43.80	49.51	16.34	-27.2	-29.0	15.3	0.00e+00	0	42	0	433061888	14	4420
2026-01-10 22:42:44.80	49.69	16.41	-27.2	-29.1	15.1	7.00e-07	0	42	0	436207616	14	4473
2026-01-10 22:42:45.81	49.87	16.48	-27.2	-29.1	15.1	0.00e+00	0	42	0	439353344	14	4456
2026-01-10 22:42:46.82	50.05	16.54	-27.3	-29.3	15.0	0.00e+00	0	42	0	442499072	14	4530
2026-01-10 22:42:47.82	50.23	16.61	-27.3	-29.2	15.1	1.50e-06	0	42	0	445644800	14	4488
2026-01-10 22:42:48.83	50.42	16.68	-27.3	-29.3	15.0	0.00e+00	0	42	0	448790528	14	4515
2026-01-10 22:42:49.84	50.60	16.74	-27.4	-29.5	14.9	0.00e+00	0	42	0	451936256	14	4573
2026-01-10 22:42:50.84	50.78	16.81	-27.3	-29.4	15.0	0.00e+00	0	42	0	455081984	14	4538
2026-01-10 22:42:51.85	50.97	16.87	-27.2	-29.1	15.1	0.00e+00	0	42	0	458227712	14	4469
2026-01-10 22:42:52.85	51.15	16.94	-27.2	-29.1	14.9	0.00e+00	0	42	0	461373440	14	4469
2026-01-10 22:42:53.85	51.34	17.01	-27.2	-29.0	15.2	0.00e+00	0	42	0	464519168	14	4445
2026-01-10 22:42:54.86	51.53	17.07	-27.2	-29.0	15.2	0.00e+00	0	42	0	467664896	14	4421
2026-01-10 22:42:55.87	51.72	17.14	-27.2	-28.9	15.3	6.10e-06	0	42	0	470810624	14	4415
2026-01-10 22:42:56.87	51.91	17.20	-27.1	-28.8	15.3	0.00e+00	0	42	0	473956352	14	4386
2026-01-10 22:42:57.87	52.10	17.27	-27.1	-28.8	15.3	7.00e-07	0	41	0	477102080	14	4386
2026-01-10 22:42:58.88	52.29	17.33	-27.2	-29.0	15.2	0.00e+00	0	42	0	480247808	14	4449
2026-01-10 22:42:59.89	52.48	17.40	-27.4	-29.5	14.9	0.00e+00	0	42	0	483393536	14	4593
2026-01-10 22:43:00.89	52.67	17.46	-27.3	-28.7	15.2	0.00e+00	0	42	0	486539264	15	4241
2026-01-10 22:43:01.90	52.87	17.53	-27.1	-28.7	15.4	8.35e-04	0	42	0	489684992	14	4346
2026-01-10 22:43:02.90	53.06	17.59	-27.3	-29.2	15.2	7.35e-04	0	42	0	492830720	14	4496
2026-01-10 22:43:03.90	53.25	17.65	-27.3	-29.2	15.1	0.00e+00	0	42	0	495976448	14	4500
2026-01-10 22:43:04.90	53.45	17.72	-27.3	-29.1	15.2	0.00e+00	0	42	0	499122176	14	4468
2026-01-10 22:43:05.91	53.64	17.78	-27.3	-29.2	15.1	1.24e-03	0	42	0	502267904	14	4492
2026-01-10 22:43:06.92	53.84	17.85	-27.2	-29.0	15.3	0.00e+00	0	42	0	505413632	14	4437
2026-01-10 22:43:07.92	54.04	17.91	-27.3	-29.2	15.2	1.96e-03	0	42	0	508559360	14	4481
2026-01-10 22:43:08.93	54.24	17.97	-27.3	-29.2	15.2	0.00e+00	0	42	0	511705088	14	4487
2026-01-10 22:43:09.94	54.44	18.04	-27.5	-29.6	14.9	0.00e+00	0	42	0	514850816	14	4613
2026-01-10 22:43:10.95	54.64	18.10	-27.3	-28.9	15.0	7.68e-04	0	42	0	517996544	15	4286
2026-01-10 22:43:11.95	54.84	18.16	-27.3	-29.3	15.1	4.84e-04	0	42	0	521142272	14	4513
2026-01-10 22:43:12.96	55.05	18.23	-27.5	-29.6	14.9	0.00e+00	0	42	0	524288000	14	4624
2026-01-10 22:43:13.97	55.25	18.29	-27.3	-29.3	15.1	1.02e-04	0	42	0	527433728	14	4533
2026-01-10 22:43:14.97	55.45	18.35	-27.2	-29.0	15.2	8.30e-06	0	42	0	530579456	14	4435
2026-01-10 22:43:15.98	55.66	18.41	-27.2	-29.0	15.3	0.00e+00	0	42	0	533725184	14	4441
2026-01-10 22:43:16.99	55.86	18.48	-27.3	-29.3	15.0	1.90e-05	0	42	0	536870912	14	4526
2026-01-10 22:43:17.99	56.07	18.54	-27.2	-29.1	15.2	0.00e+00	0	42	0	540016640	14	4465
2026-01-10 22:43:19.00	56.28	18.60	-27.2	-29.1	15.2	0.00e+00	0	42	0	543162368	14	4445
2026-01-10 22:43:20.00	56.48	18.66	-27.1	-28.9	15.4	0.00e+00	0	42	0	546308096	14	4392
2026-01-10 22:43:21.01	56.69	18.72	-27.1	-28.9	15.4	0.00e+00	0	42	0	549453824	14	4400
2026-01-10 22:43:22.02	56.90	18.78	-27.2	-28.9	15.3	0.00e+00	0	42	0	552599552	14	4412
2026-01-10 22:43:23.02	57.11	18.85	-27.2	-29.1	15.2	3.74e-04	0	42	0	555745280	14	4451
2026-01-10 22:43:24.03	57.33	18.91	-27.3	-29.2	15.2	4.76e-04	0	42	0	558891008	14	4504
2026-01-10 22:43:25.03	57.54	18.97	-27.3	-29.3	15.1	0.00e+00	0	42	0	562036736	14	4523
2026-01-10 22:43:26.04	57.75	19.03	-27.3	-29.2	15.1	0.00e+00	0	42	0	565182464	14	4497
2026-01-10 22:43:27.05	57.97	19.09	-27.2	-29.0	15.3	0.00e+00	0	42	0	568328192	14	4425
2026-01-10 22:43:28.04	58.18	19.15	-27.2	-29.0	15.4	0.00e+00	0	42	0	571473920	14	4428
2026-01-10 22:43:29.05	58.39	19.21	-27.3	-29.2	15.2	6.35e-04	0	42	0	574619648	14	4479
2026-01-10 22:43:30.07	58.61	19.27	-27.1	-28.8	15.3	0.00e+00	0	42	0	577765376	14	4382
2026-01-10 22:43:31.07	58.83	19.32	-27.1	-28.7	15.5	0.00e+00	0	42	0	580911104	14	4338
2026-01-10 22:43:32.08	59.05	19.38	-27.1	-28.9	15.4	0.00e+00	0	42	0	584056832	14	4391
2026-01-10 22:43:33.09	59.27	19.44	-27.2	-29.1	15.3	0.00e+00	0	42	0	587202560	14	4457
2026-01-10 22:43:34.10	59.49	19.50	-27.2	-28.9	15.4	0.00e+00	0	42	0	590348288	14	4392
2026-01-10 22:43:35.11	59.71	19.56	-27.1	-28.8	15.4	0.00e+00	0	42	0	593494016	14	4380
2026-01-10 22:43:36.12	59.93	19.62	-27.2	-29.1	15.3	0.00e+00	0	42	0	596639744	14	4449
2026-01-10 22:43:37.12	60.15	19.67	-27.1	-28.8	15.4	0.00e+00	0	42	0	599785472	14	4386
2026-01-10 22:43:38.13	60.38	19.73	-27.2	-29.0	15.3	0.00e+00	0	42	0	602931200	14	4424
2026-01-10 22:43:39.14	60.60	19.79	-27.2	-29.0	15.3	0.00e+00	0	42	0	606076928	14	4415
2026-01-10 22:43:40.14	60.82	19.84	-27.1	-28.7	15.4	0.00e+00	0	42	0	609222656	14	4355
2026-01-10 22:43:41.15	61.05	19.90	-27.1	-28.8	15.5	0.00e+00	0	42	0	612368384	14	4370
2026-01-10 22:43:42.15	61.28	19.95	-27.0	-28.5	15.6	0.00e+00	0	42	0	615514112	14	4290
2026-01-10 22:43:43.15	61.50	20.01	-26.9	-28.4	15.7	0.00e+00	0	42	0	618659840	14	4251
2026-01-10 22:43:44.16	61.73	20.07	-26.9	-28.4	15.6	0.00e+00	0	42	0	621805568	14	4253
2026-01-10 22:43:45.16	61.96	20.12	-26.9	-28.3	15.7	0.00e+00	0	42	0	624951296	14	4227
2026-01-10 22:43:46.17	62.19	20.17	-27.0	-28.5	15.7	0.00e+00	0	42	0	628097024	14	4293
2026-01-10 22:43:47.18	62.42	20.23	-26.9	-28.4	15.6	0.00e+00	0	42	0	631242752	14	4271
2026-01-10 22:43:48.19	62.65	20.28	-26.9	-28.8	15.7	0.00e+00	0	42	0	634388480	13	4487
2026-01-10 22:43:49.19	62.88	20.34	-26.9	-28.8	15.6	0.00e+00	0	42	0	637534208	13	4494
2026-01-10 22:43:50.20	63.11	20.39	-27.1	-28.7	15.5	0.00e+00	0	42	0	640679936	14	4339
2026-01-10 22:43:51.21	63.35	20.44	-27.1	-28.8	15.5	0.00e+00	0	42	0	643825664	14	4375
2026-01-10 22:43:52.21	63.58	20.49	-26.9	-28.2	15.8	0.00e+00	0	42	0	646971392	14	4218
2026-01-10 22:43:53.21	63.81	20.55	-26.7	-28.4	15.9	0.00e+00	0	42	0	650117120	13	4376
2026-01-10 22:43:54.22	64.05	20.60	-26.7	-28.3	15.9	0.00e+00	0	42	0	653262848	13	4338
2026-01-10 22:43:55.23	64.29	20.65	-26.8	-28.5	15.9	0.00e+00	0	42	0	656408576	13	4398
2026-01-10 22:43:56.23	64.52	20.70	-26.8	-28.5	15.9	0.00e+00	0	42	0	659554304	13	4405
2026-01-10 22:43:57.24	64.76	20.75	-26.8	-28.6	15.8	0.00e+00	0	42	0	662700032	13	4426
2026-01-10 22:43:58.24	65.00	20.80	-26.8	-28.6	15.8	0.00e+00	0	42	0	665845760	13	4443
2026-01-10 22:43:59.25	65.24	20.85	-26.8	-28.5	15.9	0.00e+00	0	42	0	668991488	13	4400
2026-01-10 22:44:00.25	65.48	20.90	-26.7	-28.4	15.9	0.00e+00	0	42	0	672137216	13	4368
2026-01-10 22:44:01.26	65.72	20.95	-26.8	-28.5	15.9	0.00e+00	0	42	0	675282944	13	4395
2026-01-10 22:44:02.26	65.96	21.00	-26.6	-28.2	16.0	0.00e+00	0	42	0	678428672	13	4323
2026-01-10 22:44:03.27	66.21	21.05	-26.6	-28.2	16.0	0.00e+00	0	42	0	681574400	13	4317
2026-01-10 22:44:04.27	66.45	21.09	-26.7	-28.4	16.0	0.00e+00	0	42	0	684720128	13	4371
2026-01-10 22:44:05.28	66.69	21.14	-26.8	-28.6	15.9	0.00e+00	0	42	0	687865856	13	4430
2026-01-10 22:44:06.29	66.94	21.19	-26.8	-28.7	15.8	0.00e+00	0	42	0	691011584	13	4453
2026-01-10 22:44:07.30	67.19	21.23	-26.9	-28.9	15.7	0.00e+00	0	42	0	694157312	13	4522
2026-01-10 22:44:08.31	67.43	21.28	-26.8	-28.6	15.9	0.00e+00	0	42	0	697303040	13	4444
2026-01-10 22:44:09.31	67.68	21.33	-26.8	-28.5	15.9	0.00e+00	0	42	0	700448768	13	4402
2026-01-10 22:44:10.32	67.93	21.37	-26.8	-28.6	15.8	0.00e+00	0	42	0	703594496	13	4432
2026-01-10 22:44:11.32	68.17	21.42	-26.8	-28.7	15.8	0.00e+00	0	42	0	706740224	13	4439
2026-01-10 22:44:12.33	68.42	21.46	-26.5	-27.9	16.2	0.00e+00	0	42	0	709885952	13	4237
2026-01-10 22:44:13.33	68.67	21.50	-26.5	-27.8	16.3	0.00e+00	0	42	0	713031680	13	4208
2026-01-10 22:44:14.34	68.92	21.55	-26.5	-27.9	16.2	0.00e+00	0	42	0	716177408	13	4224
2026-01-10 22:44:15.35	69.18	21.59	-26.7	-28.3	16.0	0.00e+00	0	42	0	719323136	13	4335
2026-01-10 22:44:16.35	69.43	21.63	-26.8	-28.6	15.9	0.00e+00	0	42	0	722468864	13	4421
2026-01-10 22:44:17.36	69.68	21.67	-26.8	-28.6	15.9	2.04e-04	0	42	0	725614592	13	4439
2026-01-10 22:44:18.36	69.93	21.72	-26.8	-28.6	15.9	0.00e+00	0	42	0	728760320	13	4419
2026-01-10 22:44:19.37	70.19	21.76	-26.7	-28.4	16.0	0.00e+00	0	42	0	731906048	13	4367
2026-01-10 22:44:20.37	70.44	21.80	-26.6	-28.2	16.0	0.00e+00	0	42	0	735051776	13	4315
2026-01-10 22:44:21.38	70.70	21.84	-26.7	-28.3	16.0	0.00e+00	0	42	0	738197504	13	4343
2026-01-10 22:44:22.39	70.95	21.88	-26.7	-28.2	16.1	4.83e-04	0	42	0	741343232	13	4322
2026-01-10 22:44:23.40	71.21	21.91	-26.6	-28.2	16.0	4.57e-04	0	42	0	744488960	13	4317
2026-01-10 22:44:24.40	71.47	21.95	-26.6	-28.1	16.1	0.00e+00	0	42	0	747634688	13	4286
2026-01-10 22:44:25.41	71.72	21.99	-26.6	-28.2	16.1	0.00e+00	0	42	0	750780416	13	4315
2026-01-10 22:44:26.41	71.98	22.03	-26.7	-28.4	16.0	0.00e+00	0	42	0	753926144	13	4372
2026-01-10 22:44:27.42	72.24	22.06	-26.6	-28.1	16.2	0.00e+00	0	42	0	757071872	13	4286
2026-01-10 22:44:28.42	72.50	22.10	-26.6	-28.2	16.1	2.84e-04	0	42	0	760217600	13	4301
2026-01-10 22:44:29.42	72.76	22.14	-26.6	-28.1	16.2	4.03e-04	0	42	0	763363328	13	4288
2026-01-10 22:44:30.42	73.02	22.17	-26.6	-28.2	16.1	0.00e+00	0	42	0	766509056	13	4307
2026-01-10 22:44:31.42	73.28	22.20	-26.7	-28.3	16.1	2.33e-04	0	42	0	769654784	13	4329
2026-01-10 22:44:32.43	73.54	22.24	-26.7	-28.4	16.0	1.23e-04	0	42	0	772800512	13	4374
2026-01-10 22:44:33.44	73.80	22.27	-26.8	-28.5	15.9	0.00e+00	0	42	0	775946240	13	4402
2026-01-10 22:44:34.45	74.07	22.31	-26.8	-28.5	15.9	1.60e-05	0	42	0	779091968	13	4391
2026-01-10 22:44:35.45	74.33	22.34	-26.7	-28.4	16.0	6.17e-05	0	42	0	782237696	13	4381
2026-01-10 22:44:36.46	74.59	22.37	-26.6	-28.1	16.2	0.00e+00	0	42	0	785383424	13	4276
2026-01-10 22:44:37.47	74.86	22.40	-26.6	-28.2	16.1	4.50e-05	0	42	0	788529152	13	4304
2026-01-10 22:44:38.47	75.12	22.43	-26.6	-28.2	16.1	1.02e-04	0	42	0	791674880	13	4302
2026-01-10 22:44:39.48	75.39	22.46	-26.6	-28.2	16.1	0.00e+00	0	42	0	794820608	13	4311
2026-01-10 22:44:40.48	75.65	22.49	-26.7	-28.3	16.0	1.01e-04	0	42	0	797966336	13	4339
2026-01-10 22:44:41.49	75.92	22.52	-26.8	-28.5	15.9	1.75e-04	0	42	0	801112064	13	4406
2026-01-10 22:44:42.49	76.19	22.55	-26.8	-28.5	15.9	0.00e+00	0	42	0	804257792	13	4408
2026-01-10 22:44:43.50	76.46	22.57	-26.7	-28.3	16.0	2.39e-04	0	42	0	807403520	13	4349
2026-01-10 22:44:44.50	76.72	22.60	-26.6	-28.2	16.1	3.69e-04	0	42	0	810549248	13	4321
2026-01-10 22:44:45.51	76.99	22.63	-26.5	-27.9	16.3	0.00e+00	0	42	0	813694976	13	4241
2026-01-10 22:44:46.52	77.26	22.65	-26.4	-27.7	16.4	9.10e-06	0	42	0	816840704	13	4189
2026-01-10 22:44:47.52	77.53	22.68	-26.4	-27.7	16.4	0.00e+00	0	42	0	819986432	13	4181
2026-01-10 22:44:48.53	77.80	22.70	-26.5	-27.8	16.3	0.00e+00	0	42	0	823132160	13	4206
2026-01-10 22:44:49.53	78.07	22.73	-26.5	-27.9	16.3	3.12e-04	0	42	0	826277888	13	4239
2026-01-10 22:44:50.54	78.34	22.75	-26.5	-28.0	16.2	0.00e+00	0	42	0	829423616	13	4255
2026-01-10 22:44:51.55	78.61	22.77	-26.5	-27.9	16.3	0.00e+00	0	42	0	832569344	13	4238
2026-01-10 22:44:52.55	78.88	22.80	-26.5	-28.0	16.2	7.00e-07	0	42	0	835715072	13	4263
2026-01-10 22:44:53.56	79.16	22.82	-26.7	-28.3	16.1	0.00e+00	0	42	0	838860800	13	4338
2026-01-10 22:44:54.56	79.43	22.84	-26.6	-28.1	16.1	0.00e+00	0	42	0	842006528	13	4288
2026-01-10 22:44:55.57	79.70	22.86	-26.8	-28.5	16.0	7.00e-07	0	42	0	845152256	13	4392
2026-01-10 22:44:56.57	79.97	22.88	-26.8	-28.5	16.0	0.00e+00	0	42	0	848297984	13	4404
2026-01-10 22:44:57.58	80.25	22.90	-26.7	-28.3	16.0	0.00e+00	0	42	0	851443712	13	4331
2026-01-10 22:44:58.59	80.52	22.91	-26.7	-28.3	16.1	0.00e+00	0	42	0	854589440	13	4331
2026-01-10 22:44:59.60	80.80	22.93	-26.6	-28.1	16.2	0.00e+00	0	42	0	857735168	13	4289
2026-01-10 22:45:00.60	81.07	22.95	-26.6	-28.1	16.2	0.00e+00	0	42	0	860880896	13	4291
2026-01-10 22:45:01.61	81.34	22.96	-26.7	-28.3	16.1	0.00e+00	0	42	0	864026624	13	4345
2026-01-10 22:45:02.61	81.62	22.98	-26.7	-28.3	16.0	0.00e+00	0	42	0	867172352	13	4341
2026-01-10 22:45:03.62	81.89	22.99	-26.7	-28.4	15.9	0.00e+00	0	42	0	870318080	13	4379
2026-01-10 22:45:04.62	82.17	23.01	-26.7	-28.4	16.0	0.00e+00	0	42	0	873463808	13	4372
2026-01-10 22:45:05.62	82.44	23.02	-26.6	-28.2	16.1	0.00e+00	0	42	0	876609536	13	4322
2026-01-10 22:45:06.63	82.72	23.04	-26.6	-28.2	16.1	0.00e+00	0	42	0	879755264	13	4310
2026-01-10 22:45:07.64	83.00	23.05	-26.6	-28.2	16.1	1.50e-06	0	42	0	882900992	13	4316
2026-01-10 22:45:08.64	83.27	23.06	-26.7	-28.3	16.0	0.00e+00	0	42	0	886046720	13	4354
2026-01-10 22:45:09.64	83.54	23.07	-26.7	-28.5	16.0	0.00e+00	0	42	0	889192448	13	4396
2026-01-10 22:45:10.64	83.82	23.08	-26.7	-28.4	16.0	0.00e+00	0	42	0	892338176	13	4371
2026-01-10 22:45:11.65	84.10	23.09	-26.6	-28.1	16.1	0.00e+00	0	42	0	895483904	13	4293
2026-01-10 22:45:12.65	84.37	23.10	-26.4	-27.8	16.3	0.00e+00	0	42	0	898629632	13	4195
2026-01-10 22:45:13.66	84.65	23.11	-26.4	-27.6	16.4	0.00e+00	0	42	0	901775360	13	4152
2026-01-10 22:45:14.66	84.93	23.11	-26.4	-27.6	16.5	0.00e+00	0	42	0	904921088	13	4143
2026-01-10 22:45:15.67	85.20	23.12	-26.4	-27.7	16.4	0.00e+00	0	42	0	908066816	13	4188
2026-01-10 22:45:16.67	85.48	23.13	-26.6	-28.1	16.2	0.00e+00	0	42	0	911212544	13	4294
2026-01-10 22:45:17.68	85.76	23.13	-26.7	-28.4	16.0	0.00e+00	0	42	0	914358272	13	4367
2026-01-10 22:45:18.69	86.04	23.14	-26.6	-28.2	16.1	0.00e+00	0	42	0	917504000	13	4317
2026-01-10 22:45:19.70	86.32	23.14	-26.6	-28.2	16.1	0.00e+00	0	42	0	920649728	13	4316
2026-01-10 22:45:20.70	86.59	23.14	-26.7	-28.4	16.0	0.00e+00	0	42	0	923795456	13	4359
2026-01-10 22:45:21.70	86.87	23.15	-26.6	-28.1	16.1	0.00e+00	0	42	0	926941184	13	4287
2026-01-10 22:45:22.71	87.15	23.15	-26.6	-28.1	16.2	0.00e+00	0	42	0	930086912	13	4277
2026-01-10 22:45:23.72	87.43	23.15	-26.6	-28.2	16.1	0.00e+00	0	42	0	933232640	13	4311
2026-01-10 22:45:24.72	87.70	23.15	-26.7	-28.4	16.0	0.00e+00	0	42	0	936378368	13	4367
2026-01-10 22:45:25.73	87.98	23.15	-26.7	-28.5	16.0	0.00e+00	0	42	0	939524096	13	4389
2026-01-10 22:45:26.73	88.26	23.15	-26.7	-28.5	16.0	0.00e+00	0	42	0	942669824	13	4386
2026-01-10 22:45:27.74	88.54	23.15	-26.6	-28.2	16.1	0.00e+00	0	42	0	945815552	13	4319
2026-01-10 22:45:28.74	88.81	23.15	-26.5	-27.9	16.3	0.00e+00	0	42	0	948961280	13	4243
2026-01-10 22:45:29.75	89.09	23.14	-26.5	-27.9	16.3	0.00e+00	0	42	0	952107008	13	4236
2026-01-10 22:45:30.75	89.37	23.14	-26.5	-27.9	16.3	0.00e+00	0	42	0	955252736	13	4231
2026-01-10 22:45:31.76	89.65	23.14	-26.6	-28.1	16.2	0.00e+00	0	42	0	958398464	13	4285
2026-01-10 22:45:32.77	89.93	23.13	-26.5	-27.9	16.3	7.00e-07	0	42	0	961544192	13	4219
2026-01-10 22:45:33.77	90.20	23.13	-26.4	-27.6	16.4	0.00e+00	0	42	0	964689920	13	4164
2026-01-10 22:45:34.78	90.48	23.12	-26.3	-27.4	16.5	0.00e+00	0	42	0	967835648	13	4092
2026-01-10 22:45:35.79	90.76	23.11	-26.3	-27.4	16.6	0.00e+00	0	42	0	970981376	13	4095
2026-01-10 22:45:36.80	91.04	23.11	-26.2	-27.2	16.6	0.00e+00	0	42	0	974127104	13	4045
2026-01-10 22:45:37.81	91.32	23.10	-26.2	-27.3	16.3	0.00e+00	0	42	0	977272832	13	4085
2026-01-10 22:45:38.82	91.60	23.09	-26.2	-27.3	16.6	0.00e+00	0	42	0	980418560	13	4084
2026-01-10 22:45:39.83	91.87	23.08	-26.2	-27.3	16.2	0.00e+00	0	42	0	983564288	13	4087
2026-01-10 22:45:40.83	92.15	23.07	-26.4	-27.6	16.4	0.00e+00	0	42	0	986710016	13	4154
2026-01-10 22:45:41.84	92.43	23.06	-26.3	-27.5	16.5	0.00e+00	0	42	0	989855744	13	4131
2026-01-10 22:45:42.85	92.70	23.05	-26.3	-27.5	16.5	4.80e-05	0	42	0	993001472	13	4128
2026-01-10 22:45:43.86	92.98	23.03	-26.4	-27.6	16.4	4.11e-05	0	42	0	996147200	13	4167
2026-01-10 22:45:44.87	93.26	23.02	-26.5	-27.8	16.3	0.00e+00	0	42	0	999292928	13	4217
2026-01-10 22:45:45.87	93.53	23.01	-26.3	-27.5	16.5	0.00e+00	0	42	0	1002438656	13	4127
2026-01-10 22:45:46.88	93.81	22.99	-26.2	-27.3	16.6	0.00e+00	0	42	0	1005584384	13	4072
2026-01-10 22:45:47.89	94.09	22.98	-26.3	-27.5	16.5	0.00e+00	0	42	0	1008730112	13	4114
2026-01-10 22:45:48.89	94.36	22.96	-26.3	-27.5	16.5	0.00e+00	0	42	0	1011875840	13	4115
2026-01-10 22:45:49.89	94.63	22.95	-26.3	-27.5	16.5	0.00e+00	0	42	0	1015021568	13	4122
2026-01-10 22:45:50.89	94.91	22.93	-26.2	-27.2	16.6	0.00e+00	0	42	0	1018167296	13	4054
2026-01-10 22:45:51.90	95.18	22.91	-26.2	-27.2	16.6	0.00e+00	0	42	0	1021313024	13	4055
2026-01-10 22:45:52.91	95.46	22.89	-26.4	-27.6	16.4	0.00e+00	0	42	0	1024458752	13	4138
2026-01-10 22:45:53.92	95.73	22.87	-26.3	-27.4	16.6	0.00e+00	0	42	0	1027604480	13	4086
2026-01-10 22:45:54.93	96.00	22.85	-26.2	-27.3	16.6	0.00e+00	0	42	0	1030750208	13	4067
2026-01-10 22:45:55.94	96.28	22.83	-26.3	-27.5	16.5	0.00e+00	0	42	0	1033895936	13	4113
2026-01-10 22:45:56.94	96.55	22.81	-26.3	-27.5	16.5	0.00e+00	0	42	0	1037041664	13	4126
2026-01-10 22:45:57.95	96.82	22.79	-26.5	-28.0	16.2	0.00e+00	0	42	0	1040187392	13	4257
2026-01-10 22:45:58.96	97.10	22.77	-26.5	-28.0	16.3	0.00e+00	0	42	0	1043333120	13	4248
2026-01-10 22:45:59.96	97.37	22.75	-26.6	-28.1	16.1	0.00e+00	0	42	0	1046478848	13	4298
2026-01-10 22:46:00.97	97.64	22.72	-26.4	-27.7	16.4	2.13e-05	0	42	0	1049624576	13	4174
2026-01-10 22:46:01.98	97.91	22.70	-26.3	-27.5	16.5	0.00e+00	0	42	0	1052770304	13	4115
2026-01-10 22:46:02.98	98.18	22.67	-26.4	-27.7	16.4	0.00e+00	0	42	0	1055916032	13	4174
2026-01-10 22:46:03.99	98.45	22.65	-26.4	-27.7	16.4	0.00e+00	0	42	0	1059061760	13	4183
2026-01-10 22:46:04.99	98.72	22.62	-26.5	-28.0	16.2	0.00e+00	0	42	0	1062207488	13	4261
2026-01-10 22:46:06.00	98.99	22.60	-26.5	-28.0	16.2	0.00e+00	0	42	0	1065353216	13	4263
2026-01-10 22:46:07.01	99.26	22.57	-26.6	-28.2	16.1	0.00e+00	0	42	0	1068498944	13	4319
2026-01-10 22:46:08.02	99.53	22.54	-26.4	-27.7	16.3	0.00e+00	0	42	0	1071644672	13	4175
2026-01-10 22:46:09.02	99.79	22.51	-26.3	-27.5	16.5	0.00e+00	0	42	0	1074790400	13	4138
2026-01-10 22:46:10.03	100.06	22.48	-26.4	-27.7	16.4	4.04e-05	0	42	0	1077936128	13	4170
2026-01-10 22:46:11.04	100.33	22.45	-26.4	-27.7	16.3	0.00e+00	0	42	0	1081081856	13	4183
2026-01-10 22:46:12.05	100.59	22.42	-26.5	-28.0	16.2	0.00e+00	0	42	0	1084227584	13	4269
2026-01-10 22:46:13.06	100.86	22.39	-26.4	-27.8	16.3	0.00e+00	0	42	0	1087373312	13	4212
2026-01-10 22:46:14.07	101.13	22.36	-26.5	-27.9	16.3	0.00e+00	0	42	0	1090519040	13	4234
2026-01-10 22:46:15.07	101.39	22.33	-26.3	-27.4	16.5	0.00e+00	0	42	0	1093664768	13	4113
2026-01-10 22:46:16.07	101.65	22.30	-26.3	-27.4	16.5	0.00e+00	0	42	0	1096810496	13	4095
2026-01-10 22:46:17.08	101.92	22.26	-26.4	-27.6	16.4	0.00e+00	0	42	0	1099956224	13	4158
2026-01-10 22:46:18.09	102.18	22.23	-26.3	-27.5	16.4	0.00e+00	0	42	0	1103101952	13	4123
2026-01-10 22:46:19.09	102.44	22.20	-26.3	-27.5	16.4	0.00e+00	0	42	0	1106247680	13	4130
2026-01-10 22:46:20.10	102.71	22.16	-26.5	-27.9	16.2	0.00e+00	0	42	0	1109393408	13	4237
2026-01-10 22:46:21.10	102.97	22.13	-26.5	-28.0	16.2	0.00e+00	0	42	0	1112539136	13	4252
2026-01-10 22:46:22.10	103.22	22.09	-26.6	-28.1	16.1	0.00e+00	0	42	0	1115684864	13	4284
2026-01-10 22:46:23.11	103.49	22.05	-26.5	-27.9	16.2	0.00e+00	0	42	0	1118830592	13	4226
2026-01-10 22:46:24.12	103.75	22.02	-26.5	-27.9	16.2	0.00e+00	0	42	0	1121976320	13	4247
2026-01-10 22:46:25.13	104.01	21.98	-26.4	-27.8	16.2	0.00e+00	0	42	0	1125122048	13	4215
2026-01-10 22:46:26.13	104.26	21.94	-26.6	-28.1	16.0	0.00e+00	0	42	0	1128267776	13	4303
2026-01-10 22:46:27.14	104.52	21.90	-26.5	-28.0	16.2	0.00e+00	0	42	0	1131413504	13	4253
2026-01-10 22:46:28.15	104.78	21.86	-26.5	-27.8	16.3	0.00e+00	0	42	0	1134559232	13	4214
2026-01-10 22:46:29.14	105.03	21.82	-26.4	-28.3	16.3	0.00e+00	0	42	0	1137704960	12	4456
2026-01-10 22:46:30.14	105.29	21.78	-26.3	-28.1	16.4	0.00e+00	0	42	0	1140850688	12	4393
2026-01-10 22:46:31.15	105.54	21.74	-26.5	-27.9	16.2	0.00e+00	0	42	0	1143996416	13	4242
2026-01-10 22:46:32.16	105.80	21.70	-26.6	-28.2	16.0	0.00e+00	0	42	0	1147142144	13	4315
2026-01-10 22:46:33.16	106.05	21.66	-26.6	-28.2	16.0	0.00e+00	0	42	0	1150287872	13	4327
2026-01-10 22:46:34.16	106.30	21.62	-26.6	-28.2	16.0	0.00e+00	0	42	0	1153433600	13	4313
2026-01-10 22:46:35.16	106.55	21.58	-26.7	-28.4	15.9	0.00e+00	0	42	0	1156579328	13	4372
2026-01-10 22:46:36.17	106.81	21.53	-26.6	-28.2	16.0	0.00e+00	0	42	0	1159725056	13	4318
2026-01-10 22:46:37.18	107.06	21.49	-26.5	-28.0	16.1	0.00e+00	0	42	0	1162870784	13	4258
2026-01-10 22:46:38.18	107.31	21.45	-26.6	-28.1	16.1	0.00e+00	0	42	0	1166016512	13	4291
2026-01-10 22:46:39.19	107.56	21.40	-26.6	-28.1	16.1	0.00e+00	0	42	0	1169162240	13	4280
2026-01-10 22:46:40.19	107.81	21.36	-26.7	-28.3	15.9	0.00e+00	0	42	0	1172307968	13	4356
2026-01-10 22:46:41.20	108.05	21.31	-26.7	-28.4	15.9	0.00e+00	0	42	0	1175453696	13	4375
2026-01-10 22:46:42.20	108.30	21.27	-26.7	-28.3	15.9	0.00e+00	0	42	0	1178599424	13	4354
2026-01-10 22:46:43.21	108.55	21.22	-26.6	-28.3	16.0	0.00e+00	0	42	0	1181745152	13	4337
2026-01-10 22:46:44.22	108.80	21.17	-26.7	-28.3	16.0	0.00e+00	0	42	0	1184890880	13	4348
2026-01-10 22:46:45.23	109.04	21.12	-26.5	-28.0	16.1	0.00e+00	0	42	0	1188036608	13	4265
2026-01-10 22:46:46.23	109.29	21.08	-26.6	-28.1	16.1	0.00e+00	0	42	0	1191182336	13	4289
2026-01-10 22:46:47.23	109.53	21.03	-26.6	-28.3	16.0	0.00e+00	0	42	0	1194328064	13	4337
2026-01-10 22:46:48.24	109.77	20.98	-26.6	-28.2	16.0	0.00e+00	0	42	0	1197473792	13	4331
2026-01-10 22:46:49.25	110.02	20.93	-26.6	-28.2	16.0	0.00e+00	0	42	0	1200619520	13	4318
2026-01-10 22:46:50.26	110.26	20.88	-26.6	-28.2	16.0	0.00e+00	0	42	0	1203765248	13	4334
2026-01-10 22:46:51.26	110.50	20.83	-26.7	-28.3	15.9	0.00e+00	0	42	0	1206910976	13	4355
2026-01-10 22:46:52.27	110.74	20.78	-26.6	-28.3	15.9	0.00e+00	0	42	0	1210056704	13	4344
2026-01-10 22:46:53.27	110.98	20.73	-26.8	-28.6	15.8	0.00e+00	0	42	0	1213202432	13	4435
2026-01-10 22:46:54.28	111.22	20.68	-26.8	-28.5	15.8	0.00e+00	0	42	0	1216348160	13	4420
2026-01-10 22:46:55.28	111.45	20.63	-26.7	-28.5	15.8	0.00e+00	0	42	0	1219493888	13	4402
2026-01-10 22:46:56.29	111.69	20.58	-26.7	-28.4	15.9	0.00e+00	0	42	0	1222639616	13	4378
2026-01-10 22:46:57.30	111.93	20.53	-26.8	-28.5	15.5	4.50e-06	0	42	0	1225785344	13	4415
2026-01-10 22:46:58.30	112.16	20.47	-26.6	-28.2	15.6	1.40e-04	0	42	0	1228931072	13	4333
2026-01-10 22:46:59.31	112.40	20.42	-26.5	-28.0	16.1	0.00e+00	0	42	0	1232076800	13	4256
2026-01-10 22:47:00.31	112.63	20.37	-26.6	-28.1	16.0	6.80e-06	0	42	0	1235222528	13	4291
2026-01-10 22:47:01.32	112.87	20.31	-26.6	-28.2	16.0	0.00e+00	0	42	0	1238368256	13	4313
2026-01-10 22:47:02.33	113.10	20.26	-26.5	-28.0	16.1	0.00e+00	0	42	0	1241513984	13	4259
2026-01-10 22:47:03.33	113.33	20.20	-26.5	-28.0	16.1	1.81e-04	0	42	0	1244659712	13	4280
2026-01-10 22:47:04.34	113.56	20.15	-26.7	-28.3	15.9	0.00e+00	0	42	0	1247805440	13	4367
2026-01-10 22:47:05.35	113.79	20.09	-26.7	-28.3	15.8	0.00e+00	0	42	0	1250951168	13	4369
2026-01-10 22:47:06.35	114.02	20.04	-26.7	-28.4	15.8	4.50e-06	0	42	0	1254096896	13	4387
2026-01-10 22:47:07.35	114.25	19.98	-26.7	-28.4	15.8	0.00e+00	0	42	0	1257242624	13	4384
2026-01-10 22:47:08.35	114.47	19.93	-26.7	-28.5	15.8	0.00e+00	0	42	0	1260388352	13	4405
2026-01-10 22:47:09.36	114.70	19.87	-26.7	-28.4	15.8	3.20e-04	0	42	0	1263534080	13	4386
2026-01-10 22:47:10.36	114.93	19.82	-26.8	-28.6	15.7	0.00e+00	0	42	0	1266679808	13	4452
2026-01-10 22:47:11.37	115.15	19.76	-26.8	-28.5	15.7	0.00e+00	0	42	0	1269825536	13	4417
2026-01-10 22:47:12.37	115.38	19.70	-26.8	-28.7	15.7	3.80e-06	0	42	0	1272971264	13	4452
2026-01-10 22:47:13.38	115.60	19.64	-26.8	-28.7	15.6	8.08e-05	0	42	0	1276116992	13	4475
2026-01-10 22:47:14.39	115.82	19.59	-26.9	-28.4	15.5	0.00e+00	0	42	0	1279262720	14	4271
2026-01-10 22:47:15.39	116.05	19.53	-26.9	-28.3	15.6	0.00e+00	0	42	0	1282408448	14	4252
2026-01-10 22:47:16.39	116.27	19.47	-26.8	-28.1	15.7	0.00e+00	0	42	0	1285554176	14	4196
2026-01-10 22:47:17.40	116.49	19.41	-26.9	-28.3	15.6	0.00e+00	0	42	0	1288699904	14	4236
2026-01-10 22:47:18.41	116.71	19.35	-27.0	-28.6	15.4	0.00e+00	0	42	0	1291845632	14	4335
2026-01-10 22:47:19.41	116.92	19.29	-27.0	-28.6	15.4	0.00e+00	0	42	0	1294991360	14	4344
2026-01-10 22:47:20.41	117.14	19.24	-27.0	-28.6	15.4	0.00e+00	0	42	0	1298137088	14	4328
2026-01-10 22:47:21.42	117.36	19.18	-27.0	-28.5	15.4	0.00e+00	0	42	0	1301282816	14	4314
2026-01-10 22:47:22.42	117.57	19.12	-27.0	-28.6	15.4	2.20e-06	0	42	0	1304428544	14	4328
2026-01-10 22:47:23.43	117.79	19.06	-26.9	-28.4	15.5	0.00e+00	0	42	0	1307574272	14	4286
2026-01-10 22:47:24.43	118.00	18.99	-27.0	-28.5	15.5	6.10e-06	0	42	0	1310720000	14	4300
2026-01-10 22:47:25.44	118.22	18.93	-27.0	-28.5	15.5	2.05e-05	0	42	0	1313865728	14	4294
2026-01-10 22:47:26.44	118.43	18.87	-26.9	-28.3	15.5	0.00e+00	0	42	0	1317011456	14	4257
2026-01-10 22:47:27.44	118.64	18.81	-26.9	-28.3	15.5	0.00e+00	0	42	0	1320157184	14	4253
2026-01-10 22:47:28.45	118.85	18.75	-26.8	-28.1	15.7	0.00e+00	0	42	0	1323302912	14	4197
2026-01-10 22:47:29.45	119.06	18.69	-26.7	-27.9	15.8	0.00e+00	0	42	0	1326448640	14	4140
2026-01-10 22:47:30.46	119.27	18.63	-26.7	-27.9	15.8	0.00e+00	0	42	0	1329594368	14	4121
2026-01-10 22:47:31.47	119.48	18.57	-26.7	-28.0	15.8	2.36e-05	0	42	0	1332740096	14	4167
2026-01-10 22:47:32.48	119.69	18.50	-26.8	-28.1	15.7	0.00e+00	0	42	0	1335885824	14	4195
2026-01-10 22:47:33.49	119.90	18.44	-26.8	-28.2	15.6	0.00e+00	0	42	0	1339031552	14	4214
2026-01-10 22:47:34.49	120.10	18.38	-26.9	-28.4	15.5	1.06e-05	0	42	0	1342177280	14	4276
2026-01-10 22:47:35.50	120.31	18.31	-26.8	-28.2	15.6	0.00e+00	0	42	0	1345323008	14	4224
2026-01-10 22:47:36.50	120.51	18.25	-27.0	-28.6	15.3	0.00e+00	0	42	0	1348468736	14	4331
2026-01-10 22:47:37.50	120.72	18.19	-27.0	-28.6	15.4	0.00e+00	0	42	0	1351614464	14	4323
2026-01-10 22:47:38.51	120.92	18.13	-26.9	-28.4	15.5	0.00e+00	0	42	0	1354760192	14	4261
2026-01-10 22:47:39.51	121.12	18.06	-26.8	-28.2	15.6	0.00e+00	0	42	0	1357905920	14	4221
2026-01-10 22:47:40.52	121.32	18.00	-26.9	-28.3	15.5	0.00e+00	0	42	0	1361051648	14	4249
2026-01-10 22:47:41.53	121.53	17.93	-27.0	-28.5	15.4	0.00e+00	0	42	0	1364197376	14	4307
2026-01-10 22:47:42.52	121.72	17.87	-26.9	-28.4	15.5	0.00e+00	0	42	0	1367343104	14	4266
2026-01-10 22:47:43.53	121.92	17.81	-26.7	-27.9	15.8	0.00e+00	0	42	0	1369440256	14	4136
2026-01-10 22:47:44.54	122.12	17.74	-26.6	-27.8	15.8	0.00e+00	0	42	0	1372585984	14	4101
2026-01-10 22:47:45.54	122.32	17.68	-26.6	-27.7	15.9	0.00e+00	0	42	0	1375731712	14	4074
2026-01-10 22:47:46.55	122.51	17.61	-26.8	-28.1	15.7	0.00e+00	0	42	0	1379926016	14	4181
2026-01-10 22:47:47.55	122.71	17.55	-26.9	-28.4	15.4	0.00e+00	0	42	0	1383071744	14	4269
2026-01-10 22:47:48.56	122.90	17.48	-26.9	-28.3	15.5	0.00e+00	0	42	0	1386217472	14	4251
2026-01-10 22:47:49.57	123.10	17.42	-26.9	-28.4	15.4	0.00e+00	0	42	0	1389363200	14	4292
2026-01-10 22:47:50.57	123.29	17.35	-26.9	-28.4	15.4	0.00e+00	0	42	0	1392508928	14	4288
2026-01-10 22:47:51.58	123.48	17.29	-27.0	-28.7	15.3	7.00e-07	0	42	0	1394606080	14	4361
2026-01-10 22:47:52.58	123.67	17.22	-27.0	-28.6	15.3	0.00e+00	0	42	0	1397751808	14	4339
2026-01-10 22:47:53.59	123.87	17.15	-26.9	-28.5	15.4	0.00e+00	0	42	0	1400897536	14	4297
2026-01-10 22:47:54.59	124.05	17.09	-27.1	-28.8	15.2	0.00e+00	0	42	0	1404043264	14	4391
2026-01-10 22:47:55.59	124.24	17.02	-26.8	-28.2	15.5	0.00e+00	0	42	0	1407188992	14	4230
2026-01-10 22:47:56.60	124.43	16.96	-26.8	-28.2	15.5	0.00e+00	0	42	0	1411383296	14	4218
2026-01-10 22:47:57.60	124.62	16.89	-26.8	-28.2	15.6	0.00e+00	0	42	0	1414529024	14	4215
2026-01-10 22:47:58.61	124.81	16.82	-27.0	-28.5	15.3	0.00e+00	0	42	0	1416626176	14	4318
2026-01-10 22:47:59.62	124.99	16.76	-26.9	-28.5	15.4	0.00e+00	0	42	0	1419771904	14	4300
2026-01-10 22:48:00.62	125.18	16.69	-27.0	-28.6	15.3	0.00e+00	0	42	0	1422917632	14	4328
2026-01-10 22:48:01.63	125.36	16.62	-27.0	-28.6	15.3	0.00e+00	0	42	0	1426063360	14	4347
2026-01-10 22:48:02.64	125.55	16.56	-26.9	-28.5	15.3	7.00e-07	0	42	0	1429209088	14	4315
2026-01-10 22:48:03.64	125.73	16.49	-27.0	-28.6	15.2	0.00e+00	0	42	0	1432354816	14	4348
2026-01-10 22:48:04.65	125.91	16.42	-27.0	-28.5	15.3	0.00e+00	0	42	0	1436549120	14	4323
2026-01-10 22:48:05.66	126.09	16.36	-26.9	-28.5	15.3	0.00e+00	0	42	0	1438646272	14	4318
2026-01-10 22:48:06.66	126.27	16.29	-27.0	-28.6	15.3	0.00e+00	0	42	0	1441792000	14	4337
2026-01-10 22:48:07.67	126.45	16.22	-27.0	-28.7	15.2	0.00e+00	0	42	0	1444937728	14	4375
2026-01-10 22:48:08.68	126.63	16.15	-27.0	-28.7	15.2	0.00e+00	0	42	0	1448083456	14	4353
2026-01-10 22:48:09.68	126.81	16.09	-27.0	-28.6	15.3	0.00e+00	0	42	0	1451229184	14	4326
2026-01-10 22:48:10.69	126.99	16.02	-26.9	-28.5	15.3	0.00e+00	0	42	0	1454374912	14	4301
2026-01-10 22:48:11.70	127.16	15.95	-27.0	-28.6	15.3	0.00e+00	0	42	0	1458569216	14	4334
2026-01-10 22:48:12.70	127.34	15.89	-27.0	-28.7	15.1	0.00e+00	0	42	0	1461714944	14	4381
2026-01-10 22:48:13.71	127.52	15.82	-27.0	-28.7	15.2	0.00e+00	0	42	0	1463812096	14	4363
2026-01-10 22:48:14.71	127.69	15.75	-27.0	-28.7	15.1	4.50e-06	0	42	0	1466957824	14	4380
2026-01-10 22:48:15.72	127.86	15.68	-27.3	-29.3	14.8	0.00e+00	0	42	0	1470103552	14	4568
2026-01-10 22:48:16.72	128.03	15.61	-27.4	-29.5	14.6	0.00e+00	0	42	0	1473249280	14	4618
2026-01-10 22:48:17.72	128.21	15.55	-27.5	-29.8	14.5	3.00e-06	0	42	0	1476395008	14	4716
2026-01-10 22:48:18.73	128.38	15.48	-27.7	-29.8	14.2	7.00e-07	0	42	0	1479540736	15	4569
2026-01-10 22:48:19.73	128.55	15.41	-27.7	-29.7	14.3	0.00e+00	0	42	0	1482686464	15	4553
2026-01-10 22:48:20.73	128.72	15.34	-27.9	-30.4	13.9	2.20e-06	0	42	0	1485832192	15	4751
2026-01-10 22:48:21.74	128.88	15.28	-27.8	-30.1	14.0	3.00e-06	0	42	0	1488977920	15	4680
2026-01-10 22:48:22.75	129.05	15.21	-27.7	-29.7	14.3	1.50e-06	0	42	0	1492123648	15	4558
2026-01-10 22:48:23.75	129.22	15.14	-27.5	-29.3	14.5	7.00e-07	0	42	0	1495269376	15	4440
2026-01-10 22:48:24.76	129.39	15.07	-27.5	-29.2	14.5	7.00e-07	0	42	0	1498415104	15	4411
2026-01-10 22:48:25.76	129.55	15.00	-27.5	-29.2	14.5	0.00e+00	0	42	0	1501560832	15	4412
2026-01-10 22:48:26.77	129.72	14.93	-27.6	-29.5	14.4	0.00e+00	0	42	0	1504706560	15	4484
2026-01-10 22:48:27.77	129.88	14.87	-27.7	-29.8	14.1	1.50e-06	0	42	0	1507852288	15	4598
2026-01-10 22:48:28.77	130.05	14.80	-27.6	-29.6	14.3	0.00e+00	0	42	0	1510998016	15	4527
2026-01-10 22:48:29.77	130.21	14.73	-27.5	-29.4	14.4	7.00e-07	0	42	0	1514143744	15	4465
2026-01-10 22:48:30.78	130.37	14.66	-27.5	-29.4	14.4	7.00e-07	0	42	0	1517289472	15	4475
2026-01-10 22:48:31.78	130.53	14.59	-27.5	-29.5	14.3	7.00e-07	0	42	0	1520435200	15	4488
2026-01-10 22:48:32.79	130.69	14.53	-27.6	-29.7	14.2	1.50e-06	0	42	0	1523580928	15	4541
2026-01-10 22:48:33.79	130.85	14.46	-27.7	-29.9	14.1	1.06e-03	0	42	0	1526726656	15	4605
2026-01-10 22:48:34.79	131.01	14.39	-27.7	-29.9	14.0	1.50e-06	0	42	0	1529872384	15	4628
2026-01-10 22:48:35.80	131.17	14.32	-27.8	-30.1	13.9	0.00e+00	0	42	0	1533018112	15	4685
2026-01-10 22:48:36.81	131.33	14.25	-27.7	-29.8	14.0	1.50e-06	0	42	0	1536163840	15	4608
2026-01-10 22:48:37.81	131.49	14.18	-27.6	-29.6	14.2	7.00e-07	0	42	0	1539309568	15	4541
2026-01-10 22:48:38.82	131.64	14.12	-27.6	-29.5	14.2	6.26e-04	0	42	0	1542455296	15	4517
2026-01-10 22:48:39.82	131.80	14.05	-27.5	-29.4	14.3	4.40e-04	0	42	0	1545601024	15	4472
2026-01-10 22:48:40.83	131.95	13.98	-27.6	-29.6	14.2	3.80e-06	0	42	0	1548746752	15	4532
2026-01-10 22:48:41.83	132.11	13.91	-27.5	-29.4	14.3	1.50e-06	0	42	0	1551892480	15	4487
2026-01-10 22:48:42.83	132.26	13.84	-27.6	-29.6	14.1	4.68e-04	0	42	0	1555038208	15	4542
2026-01-10 22:48:43.84	132.41	13.77	-27.6	-29.6	14.2	3.00e-06	0	42	0	1558183936	15	4537
2026-01-10 22:48:44.84	132.57	13.71	-27.7	-29.9	14.0	6.49e-04	0	42	0	1561329664	15	4626
2026-01-10 22:48:45.84	132.72	13.64	-27.7	-29.9	13.9	6.10e-04	0	42	0	1564475392	15	4637
2026-01-10 22:48:46.84	132.87	13.57	-27.9	-30.4	13.7	3.00e-06	0	42	0	1567621120	15	4767
2026-01-10 22:48:47.85	133.02	13.50	-27.9	-30.3	13.7	4.94e-04	0	42	0	1570766848	15	4744
2026-01-10 22:48:48.85	133.17	13.43	-28.2	-30.4	13.5	2.62e-04	0	42	0	1573912576	16	4656
2026-01-10 22:48:49.86	133.32	13.36	-28.1	-30.3	13.6	1.06e-05	0	42	0	1577058304	16	4626
2026-01-10 22:48:50.86	133.46	13.30	-28.4	-31.0	13.2	1.66e-04	0	42	0	1580204032	16	4835
2026-01-10 22:48:51.87	133.61	13.23	-28.4	-31.1	13.1	2.07e-04	0	42	0	1583349760	16	4889
2026-01-10 22:48:52.88	133.76	13.16	-28.4	-31.0	13.1	1.83e-05	0	42	0	1586495488	16	4865
2026-01-10 22:48:53.88	133.91	13.09	-28.6	-31.0	12.8	4.54e-04	0	42	0	1589641216	17	4754
2026-01-10 22:48:54.88	134.05	13.02	-29.0	-32.1	12.1	7.93e-04	0	42	0	1592786944	17	5135
2026-01-10 22:48:55.89	134.20	12.95	-28.9	-31.3	12.3	1.75e-04	0	42	0	1595932672	18	4754
2026-01-10 22:48:56.90	134.34	12.89	-28.8	-31.1	12.4	1.06e-03	0	42	0	1599078400	18	4697
2026-01-10 22:48:57.90	134.49	12.82	-28.8	-31.7	12.4	1.51e-04	0	42	0	1602224128	17	4982
2026-01-10 22:48:58.90	134.63	12.75	-28.5	-30.9	12.9	4.19e-05	0	42	0	1605369856	17	4708
2026-01-10 22:48:59.91	134.77	12.68	-28.4	-30.5	13.1	8.70e-04	0	42	0	1608515584	17	4598
2026-01-10 22:49:00.92	134.91	12.61	-28.5	-30.9	12.9	6.60e-04	0	42	0	1611661312	17	4718
2026-01-10 22:49:01.92	135.05	12.55	-28.4	-30.5	13.1	3.28e-05	0	42	0	1614807040	17	4601
2026-01-10 22:49:02.93	135.20	12.48	-28.2	-30.0	13.4	1.44e-05	0	42	0	1617952768	17	4429
2026-01-10 22:49:03.93	135.34	12.41	-28.1	-30.2	13.5	9.90e-06	0	42	0	1621098496	16	4621
2026-01-10 22:49:04.94	135.48	12.34	-28.3	-30.8	13.2	6.10e-06	0	42	0	1624244224	16	4796
2026-01-10 22:49:05.94	135.61	12.27	-28.2	-30.5	13.4	2.53e-04	0	42	0	1627389952	16	4718
2026-01-10 22:49:06.95	135.75	12.21	-28.2	-30.6	13.3	1.14e-05	0	42	0	1630535680	16	4731
2026-01-10 22:49:07.96	135.89	12.14	-28.2	-30.7	13.2	2.36e-05	0	42	0	1633681408	16	4783
2026-01-10 22:49:08.96	136.03	12.07	-28.3	-30.9	13.1	2.13e-05	0	42	0	1636827136	16	4833
2026-01-10 22:49:09.96	136.16	12.00	-28.5	-31.3	12.9	4.65e-05	0	42	0	1639972864	16	4970
2026-01-10 22:49:10.97	136.30	11.94	-28.4	-31.0	13.0	3.89e-05	0	42	0	1643118592	16	4889
2026-01-10 22:49:11.98	136.43	11.87	-28.2	-30.7	13.2	3.28e-05	0	42	0	1646264320	16	4784
2026-01-10 22:49:12.98	136.57	11.80	-28.2	-30.6	13.2	2.21e-05	0	42	0	1649410048	16	4776
2026-01-10 22:49:13.99	136.70	11.73	-28.2	-30.8	13.0	3.43e-05	0	42	0	1652555776	16	4861
2026-01-10 22:49:14.98	136.83	11.67	-28.1	-30.6	13.2	1.67e-05	0	42	0	1655701504	16	4764
2026-01-10 22:49:15.99	136.97	11.60	-28.3	-31.0	12.9	4.73e-05	0	42	0	1658847232	16	4914
2026-01-10 22:49:16.99	137.10	11.53	-28.2	-30.6	13.1	3.50e-05	0	42	0	1661992960	16	4785
2026-01-10 22:49:18.00	137.23	11.46	-28.1	-30.4	13.3	1.90e-05	0	42	0	1665138688	16	4705
2026-01-10 22:49:19.00	137.36	11.40	-28.1	-30.3	13.4	1.14e-05	0	42	0	1668284416	16	4654
2026-01-10 22:49:20.01	137.49	11.33	-28.1	-30.4	13.3	2.44e-05	0	42	0	1671430144	16	4679
2026-01-10 22:49:21.01	137.62	11.26	-28.1	-30.2	13.5	1.22e-05	0	42	0	1674575872	16	4618
2026-01-10 22:49:22.02	137.75	11.19	-28.1	-30.3	13.4	1.14e-05	0	42	0	1677721600	16	4641
2026-01-10 22:49:23.03	137.88	11.13	-28.0	-30.2	13.5	1.14e-05	0	42	0	1680867328	16	4602
2026-01-10 22:49:24.04	138.01	11.06	-28.0	-30.1	13.4	1.29e-05	0	42	0	1684013056	16	4597
2026-01-10 22:49:25.04	138.14	10.99	-28.1	-30.4	13.2	2.21e-05	0	42	0	1687158784	16	4696
2026-01-10 22:49:26.05	138.26	10.93	-28.0	-30.3	13.3	2.13e-05	0	42	0	1690304512	16	4648
2026-01-10 22:49:27.06	138.39	10.86	-28.1	-30.5	13.2	2.44e-05	0	42	0	1693450240	16	4733
2026-01-10 22:49:28.07	138.52	10.79	-28.1	-30.5	13.2	2.13e-05	0	42	0	1696595968	16	4718
2026-01-10 22:49:29.07	138.64	10.73	-28.2	-30.6	13.1	2.28e-05	0	42	0	1699741696	16	4737
2026-01-10 22:49:30.07	138.77	10.66	-28.2	-30.7	13.1	2.97e-05	0	42	0	1702887424	16	4792
2026-01-10 22:49:31.07	138.89	10.59	-28.2	-30.6	13.1	2.89e-05	0	42	0	1706033152	16	4740
2026-01-10 22:49:32.08	139.02	10.53	-28.1	-30.4	13.3	2.59e-05	0	42	0	1709178880	16	4673
2026-01-10 22:49:33.08	139.14	10.46	-28.1	-30.5	13.2	2.21e-05	0	42	0	1712324608	16	4700
2026-01-10 22:49:34.08	139.26	10.39	-28.3	-30.8	13.0	3.28e-05	0	42	0	1715470336	16	4815
2026-01-10 22:49:35.09	139.38	10.33	-28.3	-30.8	13.0	3.96e-05	0	42	0	1718616064	16	4824
2026-01-10 22:49:36.10	139.50	10.26	-28.5	-30.8	12.7	8.77e-05	0	42	0	1721761792	17	4714
2026-01-10 22:49:37.10	139.63	10.19	-28.4	-30.5	12.8	7.32e-05	0	42	0	1724907520	17	4621
2026-01-10 22:49:38.11	139.75	10.13	-28.3	-30.4	12.9	3.89e-05	0	42	0	1728053248	17	4600
2026-01-10 22:49:39.11	139.87	10.06	-28.3	-30.5	12.8	4.57e-05	0	42	0	1731198976	17	4622
2026-01-10 22:49:40.11	139.98	10.00	-28.3	-30.4	12.9	4.57e-05	0	42	0	1734344704	17	4602
2026-01-10 22:49:41.11	140.10	9.93	-28.3	-30.5	12.8	6.25e-05	0	42	0	1737490432	17	4628
2026-01-10 22:49:42.12	140.22	9.87	-28.4	-30.8	12.6	8.16e-05	0	42	0	1740636160	17	4708
2026-01-10 22:49:43.12	140.34	9.80	-28.3	-30.9	12.8	5.95e-05	0	42	0	1743781888	16	4860
2026-01-10 22:49:44.13	140.46	9.73	-28.4	-31.2	12.6	7.85e-05	0	42	0	1746927616	16	4977
2026-01-10 22:49:45.13	140.57	9.67	-28.2	-30.7	12.9	6.17e-05	0	42	0	1750073344	16	4806
2026-01-10 22:49:46.14	140.69	9.60	-28.2	-30.6	13.0	2.51e-05	0	42	0	1753219072	16	4761
2026-01-10 22:49:47.15	140.81	9.54	-28.2	-30.6	13.0	4.11e-05	0	42	0	1756364800	16	4752
2026-01-10 22:49:48.16	140.92	9.47	-28.2	-30.6	12.9	4.50e-05	0	42	0	1759510528	16	4770
2026-01-10 22:49:49.16	141.04	9.41	-28.2	-30.7	12.9	4.19e-05	0	42	0	1762656256	16	4786
2026-01-10 22:49:50.17	141.15	9.34	-28.4	-31.1	12.6	8.85e-05	0	42	0	1765801984	16	4924
2026-01-10 22:49:51.18	141.27	9.27	-28.2	-30.7	12.8	7.09e-05	0	42	0	1768947712	16	4799
2026-01-10 22:49:52.18	141.38	9.21	-28.2	-30.7	12.8	6.02e-05	0	42	0	1772093440	16	4791
2026-01-10 22:49:53.19	141.49	9.14	-27.4	-29.9	12.7	6.79e-05	0	42	0	1775239168	16	4805
2026-01-10 22:49:54.19	141.60	9.08	-28.2	-31.2	11.9	7.85e-05	0	42	0	1778384896	15	5095
2026-01-10 22:49:55.19	141.72	9.01	-28.3	-31.0	12.6	1.07e-04	0	42	0	1781530624	16	4906
2026-01-10 22:49:56.19	141.83	8.95	-28.4	-31.3	12.2	1.78e-04	0	42	0	1784676352	16	5016
2026-01-10 22:49:57.19	141.94	8.89	-28.5	-31.4	12.3	1.60e-04	0	42	0	1787822080	16	5038
2026-01-10 22:49:58.20	142.05	8.82	-28.5	-31.1	12.1	2.51e-04	0	42	0	1790967808	17	4822
2026-01-10 22:49:59.21	142.16	8.76	-28.5	-31.0	12.2	7.92e-04	0	42	0	1794113536	17	4803
2026-01-10 22:50:00.22	142.27	8.69	-28.5	-31.1	12.1	2.50e-04	0	42	0	1797259264	17	4827
2026-01-10 22:50:01.22	142.38	8.63	-28.5	-31.1	12.0	3.41e-04	0	42	0	1800404992	17	4841
2026-01-10 22:50:02.22	142.49	8.56	-28.5	-31.2	11.9	3.52e-04	0	42	0	1803550720	17	4887
2026-01-10 22:50:03.23	142.59	8.50	-28.7	-31.6	11.7	6.63e-04	0	42	0	1806696448	17	5027
2026-01-10 22:50:04.24	142.70	8.43	-28.8	-31.8	11.5	9.02e-04	0	42	0	1809842176	17	5125
2026-01-10 22:50:05.24	142.81	8.37	-28.6	-31.4	11.8	6.06e-04	0	42	0	1812987904	17	4978
2026-01-10 22:50:06.25	142.92	8.31	-28.5	-31.2	11.9	4.05e-04	0	42	0	1816133632	17	4893
2026-01-10 22:50:07.26	143.02	8.24	-28.6	-31.3	11.8	4.15e-04	0	42	0	1819279360	17	4914
2026-01-10 22:50:08.26	143.13	8.18	-28.6	-31.4	11.7	2.25e-03	0	42	0	1822425088	17	4976
2026-01-10 22:50:09.27	143.24	8.11	-28.6	-31.3	11.8	2.24e-03	0	42	0	1825570816	17	4922
2026-01-10 22:50:10.27	143.34	8.05	-28.6	-31.4	11.8	5.25e-04	0	42	0	1828716544	17	4957
2026-01-10 22:50:11.27	143.44	7.99	-28.6	-31.4	11.7	3.28e-03	0	42	0	1831862272	17	4955
2026-01-10 22:50:12.28	143.55	7.92	-28.6	-31.4	11.7	3.07e-03	0	42	0	1835008000	17	4958
2026-01-10 22:50:13.28	143.65	7.86	-28.6	-31.5	11.7	6.07e-04	0	42	0	1838153728	17	4989
2026-01-10 22:50:14.28	143.76	7.80	-28.7	-31.5	11.6	4.39e-03	0	42	0	1841299456	17	5011
2026-01-10 22:50:15.28	143.86	7.73	-28.6	-31.4	11.7	4.15e-03	0	42	0	1844445184	17	4968
2026-01-10 22:50:16.29	143.96	7.67	-28.7	-31.7	11.5	8.19e-04	0	42	0	1847590912	17	5066
2026-01-10 22:50:17.29	144.06	7.61	-28.6	-31.5	11.6	4.21e-03	0	42	0	1850736640	17	4992
2026-01-10 22:50:18.30	144.16	7.54	-28.6	-31.5	11.7	4.64e-03	0	42	0	1853882368	17	4992
2026-01-10 22:50:19.31	144.27	7.48	-28.7	-31.6	11.6	6.31e-04	0	42	0	1857028096	17	5023
2026-01-10 22:50:20.32	144.37	7.42	-28.7	-31.7	11.5	4.80e-03	0	42	0	1860173824	17	5081
2026-01-10 22:50:21.32	144.47	7.35	-28.7	-31.7	11.5	4.68e-03	0	42	0	1863319552	17	5072
2026-01-10 22:50:22.33	144.57	7.29	-28.8	-31.9	11.4	9.94e-04	0	42	0	1866465280	17	5135
2026-01-10 22:50:23.34	144.67	7.23	-28.8	-31.8	11.4	9.06e-04	0	42	0	1869611008	17	5112
2026-01-10 22:50:24.34	144.77	7.17	-28.9	-32.1	11.3	4.77e-03	0	42	0	1872756736	17	5217
2026-01-10 22:50:25.35	144.87	7.10	-28.9	-32.1	11.2	1.11e-03	0	42	0	1875902464	17	5224
2026-01-10 22:50:26.35	144.96	7.04	-32.1	-42.2	4.1	6.41e-03	0	42	0	1879048192	24	11533

#Closed at: 2026-01-10 22:50:27
#Recorded file [1879 MB]: D:/data/31010_260111_014024.dat