passes_logs/2026/01/12/R4.6S_Anadyr/R4.6S_Anadyr__20260112_174134_NOAA_20_JPSS-1_rec.log

#Pass ID: 20260112_174134_NOAA 20 (JPSS-1)
#Satellite: NOAA 20 (JPSS-1)
#Configuration: NOAA 20
#almurnet v.1.7.20251203
#Start time: 2026-01-12 17:41:37

#Version: 2.2.20231116
#Station: R4.6S_Anadyr
#Location: 177.4865 lon 64.73178 lat
#TLE: 1 43013U 17073A   26011.59429536  .00000082  00000+0  59704-4 0  9990
#TLE: 2 43013  98.7632 312.5697 0001637  44.2118 315.9188 14.19535307422256

#Time	Az	El	Level	Level2	SNR	BER	BlckErr	Temp	State	Recorded	gain1	gain2
2026-01-12 17:41:37.60	33.67	0.18	-48.5	-62.3	3.3	1.54e+00	0	28	0	0	60	46845
2026-01-12 17:41:38.61	33.61	0.24	-48.4	-63.6	3.6	1.51e+00	0	29	104	0	60	54424
2026-01-12 17:41:39.62	33.55	0.29	-48.4	-63.6	3.6	1.51e+00	0	29	104	0	60	54413
2026-01-12 17:41:40.63	33.48	0.34	-48.4	-63.6	3.6	1.51e+00	0	29	104	0	60	54698
2026-01-12 17:41:41.64	33.42	0.39	-48.4	-63.6	3.6	1.51e+00	0	29	104	0	60	54554
2026-01-12 17:41:42.65	33.35	0.45	-48.4	-63.5	3.5	1.51e+00	0	29	104	0	60	54356
2026-01-12 17:41:43.66	33.29	0.50	-48.3	-63.5	3.6	1.51e+00	0	29	104	0	60	53774
2026-01-12 17:41:44.67	33.22	0.55	-48.2	-63.4	3.6	1.51e+00	0	29	104	0	60	53373
2026-01-12 17:41:45.68	33.16	0.61	-48.1	-63.3	3.6	1.51e+00	0	29	104	0	60	52713
2026-01-12 17:41:46.69	33.09	0.66	-48.0	-63.3	3.6	1.51e+00	0	29	104	0	60	52725
2026-01-12 17:41:47.70	33.03	0.71	-47.9	-63.1	3.6	1.51e+00	0	29	104	0	60	51714
2026-01-12 17:41:48.71	32.96	0.77	-47.7	-62.9	3.6	1.51e+00	0	29	104	0	60	50627
2026-01-12 17:41:49.72	32.90	0.82	-47.5	-62.8	3.6	1.51e+00	0	29	104	0	60	49816
2026-01-12 17:41:50.72	32.83	0.87	-47.2	-62.3	3.6	1.51e+00	0	29	104	0	60	47226
2026-01-12 17:41:51.73	32.76	0.93	-46.7	-61.9	3.6	1.51e+00	0	29	104	0	60	44877
2026-01-12 17:41:52.74	32.70	0.98	-46.7	-61.9	3.6	1.51e+00	0	29	104	0	60	44763
2026-01-12 17:41:53.75	32.63	1.04	-46.7	-61.8	3.6	1.51e+00	0	29	104	0	60	44541
2026-01-12 17:41:54.76	32.56	1.09	-46.7	-61.8	3.6	1.51e+00	0	29	104	0	60	44490
2026-01-12 17:41:55.77	32.49	1.14	-46.7	-61.8	3.6	1.51e+00	0	29	104	0	60	44534
2026-01-12 17:41:56.78	32.43	1.20	-46.7	-61.8	3.6	1.51e+00	0	29	104	0	60	44553
2026-01-12 17:41:57.79	32.36	1.25	-46.7	-61.8	3.6	1.51e+00	0	29	104	0	60	44494
2026-01-12 17:41:58.80	32.29	1.31	-46.7	-61.8	3.6	1.51e+00	0	29	104	0	60	44636
2026-01-12 17:41:59.81	32.22	1.36	-46.7	-61.8	3.6	1.51e+00	0	29	104	0	60	44544
2026-01-12 17:42:00.82	32.15	1.41	-46.7	-61.8	3.6	1.51e+00	0	29	104	0	60	44409
2026-01-12 17:42:01.83	32.08	1.47	-46.7	-61.8	3.6	1.51e+00	0	29	104	0	60	44712
2026-01-12 17:42:02.84	32.01	1.52	-46.7	-61.9	3.6	1.51e+00	0	29	104	0	60	44734
2026-01-12 17:42:03.85	31.94	1.58	-46.7	-61.8	3.6	1.51e+00	0	29	104	0	60	44562
2026-01-12 17:42:04.86	31.87	1.63	-46.7	-61.9	3.6	1.51e+00	0	29	104	0	60	44813
2026-01-12 17:42:05.87	31.80	1.69	-46.7	-61.9	3.6	1.51e+00	0	29	104	0	60	44795
2026-01-12 17:42:06.87	31.73	1.74	-46.7	-61.9	3.6	1.51e+00	0	29	104	0	60	44765
2026-01-12 17:42:07.88	31.66	1.80	-46.7	-61.8	3.6	1.51e+00	0	29	104	0	60	44584
2026-01-12 17:42:08.89	31.59	1.85	-46.7	-61.8	3.6	1.51e+00	0	29	104	0	60	44337
2026-01-12 17:42:09.90	31.52	1.90	-46.7	-61.8	3.6	1.51e+00	0	29	104	0	60	44448
2026-01-12 17:42:10.91	31.45	1.96	-46.7	-61.7	3.6	1.51e+00	0	29	104	0	60	43869
2026-01-12 17:42:11.92	31.37	2.01	-46.7	-61.6	3.6	1.51e+00	0	29	104	0	60	43628
2026-01-12 17:42:12.93	31.30	2.07	-46.7	-61.6	3.6	1.51e+00	0	29	104	0	60	43311
2026-01-12 17:42:13.94	31.23	2.12	-46.7	-61.6	3.6	1.51e+00	0	29	104	0	60	43657
2026-01-12 17:42:14.95	31.16	2.18	-46.7	-61.8	3.6	1.51e+00	0	29	104	0	60	44415
2026-01-12 17:42:15.96	31.08	2.23	-46.7	-61.8	3.6	1.51e+00	0	29	104	0	60	44421
2026-01-12 17:42:16.97	31.01	2.29	-46.7	-61.8	3.6	1.51e+00	0	29	104	0	60	44611
2026-01-12 17:42:17.98	30.94	2.35	-46.7	-61.9	3.6	1.51e+00	0	29	104	0	60	44736
2026-01-12 17:42:18.99	30.86	2.40	-46.7	-61.8	3.6	1.51e+00	0	29	104	0	60	44299
2026-01-12 17:42:20.00	30.79	2.46	-46.7	-61.9	3.6	1.51e+00	0	29	104	0	60	44748
2026-01-12 17:42:21.01	30.71	2.51	-46.7	-61.8	3.6	1.51e+00	0	29	104	0	60	44664
2026-01-12 17:42:22.02	30.64	2.57	-46.7	-61.7	3.6	1.51e+00	0	29	104	0	60	43868
2026-01-12 17:42:23.03	30.56	2.62	-46.6	-61.3	3.6	1.51e+00	0	30	104	0	60	41786
2026-01-12 17:42:24.04	30.49	2.68	-46.6	-61.0	3.6	1.51e+00	0	30	104	0	60	40390
2026-01-12 17:42:25.05	30.41	2.73	-46.6	-61.0	3.6	1.51e+00	0	29	104	0	60	40557
2026-01-12 17:42:26.06	30.34	2.79	-46.6	-61.4	3.6	1.51e+00	0	29	104	0	60	42444
2026-01-12 17:42:27.07	30.26	2.85	-46.6	-61.2	3.6	1.51e+00	0	29	104	0	60	41717
2026-01-12 17:42:28.08	30.18	2.90	-46.5	-59.2	3.9	1.51e+00	0	30	104	0	60	33033
2026-01-12 17:42:29.09	30.11	2.96	-46.2	-54.5	5.4	6.47e-01	63	30	0	1048576	60	19244
2026-01-12 17:42:30.10	30.03	3.01	-45.8	-52.3	7.5	2.18e-01	81	30	0	2097152	60	14978
2026-01-12 17:42:31.11	29.95	3.07	-45.5	-51.2	8.9	4.47e-02	63	30	0	4194304	60	13197
2026-01-12 17:42:32.12	29.87	3.13	-45.1	-50.0	10.4	5.70e-03	90	30	0	6291456	60	11406
2026-01-12 17:42:33.13	29.79	3.18	-46.0	-53.1	7.0	2.07e-02	2	29	0	8388608	60	16369
2026-01-12 17:42:34.14	29.72	3.24	-42.5	-44.9	16.0	2.04e-02	0	29	0	10485760	58	7113
2026-01-12 17:42:35.15	29.64	3.29	-46.6	-61.6	3.6	8.04e-01	0	30	104	11534336	60	43591
2026-01-12 17:42:36.16	29.56	3.35	-46.5	-56.5	4.0	1.50e+00	26	30	104	11534336	60	24295
2026-01-12 17:42:37.16	29.48	3.41	-43.6	-46.9	13.6	3.84e-02	0	30	0	11534336	58	8937
2026-01-12 17:42:38.18	29.40	3.46	-43.2	-45.9	14.9	3.12e-05	0	30	0	13631488	60	7160
2026-01-12 17:42:39.19	29.32	3.52	-43.1	-45.7	15.3	0.00e+00	92	29	0	15728640	60	7000
2026-01-12 17:42:40.20	29.24	3.58	-42.8	-45.3	15.7	7.00e-07	16	30	0	16777216	60	6660
2026-01-12 17:42:41.20	29.16	3.63	-42.1	-44.2	16.7	7.00e-07	92	30	0	18874368	58	6601
2026-01-12 17:42:42.21	29.08	3.69	-41.7	-43.7	17.4	0.00e+00	16	30	0	20971520	56	6929
2026-01-12 17:42:43.22	28.99	3.75	-41.6	-43.5	17.5	0.00e+00	2	30	0	23068672	56	6842
2026-01-12 17:42:44.23	28.91	3.80	-41.5	-43.4	17.8	0.00e+00	64	30	0	25165824	56	6713
2026-01-12 17:42:45.24	28.83	3.86	-41.2	-43.0	18.1	0.00e+00	65	30	0	26214400	56	6433
2026-01-12 17:42:46.25	28.75	3.92	-41.3	-43.1	18.1	0.00e+00	18	30	0	28311552	56	6524
2026-01-12 17:42:47.26	28.66	3.98	-41.3	-43.1	18.0	0.00e+00	17	30	0	30408704	56	6502
2026-01-12 17:42:48.27	28.58	4.03	-41.4	-43.1	18.1	0.00e+00	91	30	0	32505856	56	6534
2026-01-12 17:42:49.28	28.50	4.09	-41.3	-43.1	18.1	0.00e+00	66	30	0	34603008	56	6466
2026-01-12 17:42:50.29	28.41	4.15	-41.3	-43.0	18.2	0.00e+00	2	30	0	36700160	56	6457
2026-01-12 17:42:51.30	28.33	4.20	-41.4	-43.2	18.0	0.00e+00	0	30	0	37748736	56	6543
2026-01-12 17:42:52.31	28.25	4.26	-41.5	-43.3	17.9	0.00e+00	64	30	0	39845888	56	6621
2026-01-12 17:42:53.32	28.16	4.32	-41.5	-43.3	17.9	0.00e+00	0	30	0	41943040	56	6680
2026-01-12 17:42:54.33	28.08	4.38	-41.6	-43.4	17.9	0.00e+00	0	30	0	44040192	56	6720
2026-01-12 17:42:55.34	27.99	4.43	-41.5	-43.3	17.9	0.00e+00	90	30	0	46137344	56	6657
2026-01-12 17:42:56.34	27.90	4.49	-41.3	-43.1	18.2	0.00e+00	0	30	0	47185920	56	6481
2026-01-12 17:42:57.35	27.82	4.55	-41.4	-43.1	18.2	0.00e+00	92	30	0	49283072	56	6525
2026-01-12 17:42:58.36	27.73	4.61	-41.2	-42.9	18.4	0.00e+00	0	30	0	51380224	56	6387
2026-01-12 17:42:59.37	27.64	4.67	-41.2	-42.9	18.4	0.00e+00	0	30	0	53477376	56	6362
2026-01-12 17:43:00.38	27.56	4.72	-41.1	-42.8	18.5	0.00e+00	0	30	0	55574528	56	6306
2026-01-12 17:43:01.39	27.47	4.78	-41.2	-42.9	18.3	0.00e+00	0	30	0	56623104	56	6360
2026-01-12 17:43:02.40	27.38	4.84	-41.3	-43.0	18.3	0.00e+00	92	30	0	58720256	56	6460
2026-01-12 17:43:03.41	27.29	4.90	-41.1	-42.7	18.5	0.00e+00	0	30	0	60817408	56	6242
2026-01-12 17:43:04.42	27.20	4.96	-41.1	-42.7	18.6	0.00e+00	92	30	0	62914560	56	6208
2026-01-12 17:43:05.42	27.12	5.01	-41.0	-42.7	18.7	0.00e+00	19	30	0	65011712	56	6192
2026-01-12 17:43:06.43	27.03	5.07	-41.1	-42.8	18.6	0.00e+00	0	30	0	66060288	56	6263
2026-01-12 17:43:07.44	26.94	5.13	-41.1	-42.8	18.5	0.00e+00	0	30	0	68157440	56	6296
2026-01-12 17:43:08.45	26.85	5.19	-41.0	-42.7	18.6	0.00e+00	64	30	0	70254592	56	6192
2026-01-12 17:43:09.46	26.75	5.25	-41.0	-42.6	18.7	0.00e+00	0	30	0	72351744	56	6145
2026-01-12 17:43:10.46	26.66	5.30	-40.9	-42.5	18.9	0.00e+00	0	30	0	74448896	56	6073
2026-01-12 17:43:11.47	26.57	5.36	-41.0	-42.6	18.8	0.00e+00	90	30	0	75497472	56	6140
2026-01-12 17:43:12.48	26.48	5.42	-40.7	-42.2	19.2	0.00e+00	0	30	0	77594624	56	5868
2026-01-12 17:43:13.49	26.39	5.48	-40.8	-42.4	19.0	0.00e+00	92	30	0	79691776	54	6703
2026-01-12 17:43:14.50	26.30	5.54	-40.7	-42.3	19.1	0.00e+00	0	30	0	81788928	54	6623
2026-01-12 17:43:15.51	26.20	5.60	-40.6	-42.1	19.1	0.00e+00	0	30	0	83886080	54	6539
2026-01-12 17:43:16.52	26.11	5.66	-40.6	-42.1	19.2	0.00e+00	0	30	0	84934656	54	6530
2026-01-12 17:43:17.53	26.02	5.72	-40.6	-42.1	19.3	0.00e+00	0	30	0	87031808	54	6478
2026-01-12 17:43:18.54	25.92	5.77	-40.6	-42.2	19.2	0.00e+00	91	30	0	89128960	54	6554
2026-01-12 17:43:19.55	25.83	5.83	-40.7	-42.3	19.0	0.00e+00	2	30	0	91226112	54	6647
2026-01-12 17:43:20.55	25.73	5.89	-40.8	-42.3	19.0	0.00e+00	92	30	0	93323264	54	6663
2026-01-12 17:43:21.56	25.64	5.95	-40.6	-42.1	19.3	0.00e+00	0	30	0	94371840	54	6517
2026-01-12 17:43:22.57	25.54	6.01	-40.4	-41.9	19.5	0.00e+00	2	30	0	96468992	54	6336
2026-01-12 17:43:23.58	25.45	6.07	-40.5	-42.0	19.4	0.00e+00	0	30	0	98566144	54	6392
2026-01-12 17:43:24.59	25.35	6.13	-40.5	-42.0	19.4	0.00e+00	0	30	0	100663296	54	6398
2026-01-12 17:43:25.60	25.25	6.19	-40.4	-41.8	19.5	0.00e+00	86	30	0	102760448	54	6306
2026-01-12 17:43:26.61	25.16	6.25	-40.5	-42.0	19.5	0.00e+00	13	30	0	103809024	54	6410
2026-01-12 17:43:27.62	25.06	6.31	-40.5	-42.0	19.5	0.00e+00	90	30	0	105906176	54	6412
2026-01-12 17:43:28.63	24.96	6.37	-40.5	-42.0	19.4	0.00e+00	18	30	0	108003328	54	6398
2026-01-12 17:43:29.64	24.86	6.43	-40.5	-41.9	19.5	0.00e+00	16	30	0	110100480	54	6375
2026-01-12 17:43:30.65	24.76	6.49	-40.5	-42.0	19.5	0.00e+00	0	30	0	112197632	54	6408
2026-01-12 17:43:31.66	24.66	6.55	-40.5	-42.0	19.5	0.00e+00	0	30	0	113246208	54	6437
2026-01-12 17:43:32.67	24.56	6.61	-40.6	-42.1	19.3	0.00e+00	14	30	0	115343360	54	6504
2026-01-12 17:43:33.68	24.46	6.67	-40.6	-42.1	19.4	0.00e+00	63	30	0	117440512	54	6487
2026-01-12 17:43:34.69	24.36	6.73	-40.5	-42.0	19.5	0.00e+00	91	30	0	119537664	54	6412
2026-01-12 17:43:35.70	24.26	6.79	-40.6	-42.1	19.4	0.00e+00	62	30	0	121634816	54	6474
2026-01-12 17:43:36.71	24.16	6.85	-40.5	-42.0	19.4	0.00e+00	92	30	0	122683392	54	6451
2026-01-12 17:43:37.72	24.06	6.91	-40.5	-42.0	19.5	0.00e+00	5	30	0	124780544	54	6401
2026-01-12 17:43:38.73	23.95	6.97	-40.6	-42.0	19.5	0.00e+00	2	30	0	126877696	54	6452
2026-01-12 17:43:39.74	23.85	7.03	-40.6	-42.0	19.5	0.00e+00	5	30	0	128974848	54	6449
2026-01-12 17:43:40.75	23.75	7.09	-40.6	-42.0	19.5	0.00e+00	4	30	0	131072000	54	6461
2026-01-12 17:43:41.76	23.64	7.15	-40.6	-42.0	19.5	0.00e+00	92	30	0	133169152	54	6463
2026-01-12 17:43:42.77	23.54	7.21	-40.6	-42.1	19.4	0.00e+00	7	30	0	134217728	54	6509
2026-01-12 17:43:43.78	23.43	7.27	-40.7	-42.2	19.2	0.00e+00	92	30	0	136314880	54	6591
2026-01-12 17:43:44.79	23.33	7.33	-40.7	-42.2	19.3	0.00e+00	19	30	0	138412032	54	6565
2026-01-12 17:43:45.80	23.22	7.39	-40.7	-42.2	19.4	0.00e+00	5	30	0	140509184	54	6603
2026-01-12 17:43:46.81	23.12	7.45	-40.7	-42.2	19.4	0.00e+00	0	30	0	142606336	54	6540
2026-01-12 17:43:47.82	23.01	7.51	-40.8	-42.3	19.3	0.00e+00	17	30	0	143654912	54	6634
2026-01-12 17:43:48.82	22.90	7.57	-40.6	-42.1	19.5	0.00e+00	92	30	0	145752064	54	6494
2026-01-12 17:43:49.83	22.80	7.63	-40.8	-42.3	19.3	0.00e+00	72	30	0	147849216	54	6669
2026-01-12 17:43:50.84	22.69	7.69	-40.7	-42.2	19.3	0.00e+00	92	30	0	149946368	54	6601
2026-01-12 17:43:51.85	22.58	7.75	-40.6	-42.1	19.5	0.00e+00	75	30	0	152043520	54	6503
2026-01-12 17:43:52.86	22.47	7.81	-40.7	-42.1	19.5	0.00e+00	61	30	0	153092096	54	6516
2026-01-12 17:43:53.87	22.36	7.87	-40.7	-42.2	19.4	0.00e+00	0	30	0	155189248	54	6548
2026-01-12 17:43:54.88	22.25	7.93	-40.7	-42.2	19.4	0.00e+00	72	30	0	157286400	54	6549
2026-01-12 17:43:55.89	22.14	8.00	-40.7	-42.2	19.4	0.00e+00	0	30	0	159383552	54	6573
2026-01-12 17:43:56.90	22.03	8.06	-40.6	-42.0	19.6	0.00e+00	76	30	0	161480704	54	6451
2026-01-12 17:43:57.91	21.92	8.12	-40.6	-42.0	19.6	0.00e+00	92	30	0	162529280	54	6431
2026-01-12 17:43:58.92	21.81	8.18	-40.4	-41.8	19.6	0.00e+00	5	30	0	164626432	54	6295
2026-01-12 17:43:59.93	21.70	8.24	-40.4	-41.9	19.6	0.00e+00	68	30	0	166723584	54	6318
2026-01-12 17:44:00.94	21.58	8.30	-40.5	-41.9	19.7	0.00e+00	6	30	0	168820736	54	6334
2026-01-12 17:44:01.94	21.47	8.36	-40.4	-41.8	19.8	0.00e+00	4	30	0	170917888	54	6280
2026-01-12 17:44:02.95	21.36	8.42	-40.4	-41.8	19.8	0.00e+00	6	30	0	171966464	54	6271
2026-01-12 17:44:03.96	21.24	8.48	-40.4	-41.9	19.8	0.00e+00	3	30	0	174063616	54	6327
2026-01-12 17:44:04.97	21.13	8.54	-40.4	-41.8	19.8	0.00e+00	91	30	0	176160768	54	6261
2026-01-12 17:44:05.98	21.01	8.61	-40.5	-41.9	19.7	0.00e+00	2	30	0	178257920	54	6372
2026-01-12 17:44:06.99	20.90	8.67	-40.4	-41.8	19.8	0.00e+00	92	30	0	180355072	54	6264
2026-01-12 17:44:08.00	20.78	8.73	-40.3	-41.7	20.0	0.00e+00	3	30	0	181403648	54	6218
2026-01-12 17:44:09.01	20.67	8.79	-40.4	-41.7	19.8	0.00e+00	2	30	0	183500800	54	6245
2026-01-12 17:44:10.02	20.55	8.85	-40.3	-41.7	19.9	0.00e+00	62	30	0	185597952	54	6213
2026-01-12 17:44:11.03	20.43	8.91	-40.4	-41.8	19.9	0.00e+00	63	30	0	187695104	54	6249
2026-01-12 17:44:12.04	20.31	8.98	-40.4	-41.8	19.8	0.00e+00	37	30	0	189792256	54	6265
2026-01-12 17:44:13.05	20.19	9.04	-40.5	-41.9	19.7	0.00e+00	62	30	0	190840832	54	6364
2026-01-12 17:44:14.06	20.08	9.10	-40.3	-41.7	20.0	0.00e+00	92	30	0	192937984	54	6197
2026-01-12 17:44:15.07	19.96	9.16	-40.4	-41.7	19.9	0.00e+00	62	30	0	195035136	54	6241
2026-01-12 17:44:16.07	19.84	9.22	-40.2	-41.5	20.2	0.00e+00	2	30	0	197132288	54	6061
2026-01-12 17:44:17.08	19.72	9.28	-40.2	-41.6	20.1	0.00e+00	60	30	0	199229440	54	6135
2026-01-12 17:44:18.09	19.59	9.34	-40.3	-41.7	19.8	0.00e+00	0	30	0	201326592	54	6224
2026-01-12 17:44:19.10	19.47	9.41	-40.2	-41.6	20.1	0.00e+00	17	30	0	202375168	54	6119
2026-01-12 17:44:20.11	19.35	9.47	-40.0	-41.3	20.3	0.00e+00	0	30	0	204472320	54	5942
2026-01-12 17:44:21.12	19.23	9.53	-40.1	-41.4	20.3	0.00e+00	91	30	0	206569472	54	5982
2026-01-12 17:44:22.13	19.10	9.59	-40.0	-41.3	20.4	0.00e+00	0	30	0	208666624	54	5947
2026-01-12 17:44:23.14	18.98	9.65	-39.9	-41.2	20.5	0.00e+00	58	30	0	210763776	54	5831
2026-01-12 17:44:24.15	18.86	9.72	-40.0	-41.3	20.4	0.00e+00	0	30	0	211812352	54	5936
2026-01-12 17:44:25.16	18.73	9.78	-40.0	-41.3	20.2	0.00e+00	0	30	0	213909504	54	5938
2026-01-12 17:44:26.17	18.61	9.84	-39.6	-40.9	20.5	0.00e+00	0	30	0	216006656	52	6364
2026-01-12 17:44:27.18	18.48	9.90	-39.5	-40.8	20.2	0.00e+00	5	30	0	218103808	52	6249
2026-01-12 17:44:28.19	18.35	9.96	-39.6	-40.8	20.9	0.00e+00	91	30	0	220200960	52	6309
2026-01-12 17:44:29.20	18.23	10.03	-39.4	-40.6	21.0	0.00e+00	0	30	0	221249536	52	6167
2026-01-12 17:44:30.21	18.10	10.09	-39.3	-40.5	21.1	0.00e+00	92	30	0	223346688	52	6048
2026-01-12 17:44:31.22	17.97	10.15	-39.4	-40.7	21.0	0.00e+00	63	30	0	225443840	52	6179
2026-01-12 17:44:32.23	17.84	10.21	-39.4	-40.6	21.1	0.00e+00	62	30	0	227540992	52	6117
2026-01-12 17:44:33.24	17.71	10.27	-39.3	-40.5	21.2	0.00e+00	20	30	0	229638144	52	6049
2026-01-12 17:44:34.25	17.58	10.34	-39.3	-40.5	21.1	0.00e+00	62	30	0	230686720	52	6102
2026-01-12 17:44:35.25	17.45	10.40	-39.5	-40.7	21.0	0.00e+00	92	30	0	232783872	52	6219
2026-01-12 17:44:36.26	17.32	10.46	-39.4	-40.5	21.2	0.00e+00	62	30	0	234881024	52	6097
2026-01-12 17:44:37.27	17.19	10.52	-39.5	-40.7	20.9	0.00e+00	92	30	0	236978176	52	6227
2026-01-12 17:44:38.28	17.06	10.58	-39.3	-40.5	21.2	0.00e+00	60	30	0	239075328	52	6068
2026-01-12 17:44:39.29	16.92	10.65	-39.5	-40.7	20.9	0.00e+00	11	30	0	240123904	52	6231
2026-01-12 17:44:40.30	16.79	10.71	-39.3	-40.5	21.2	0.00e+00	0	30	0	242221056	52	6057
2026-01-12 17:44:41.31	16.66	10.77	-39.4	-40.5	21.2	0.00e+00	63	30	0	244318208	52	6091
2026-01-12 17:44:42.32	16.52	10.83	-39.5	-40.7	21.0	0.00e+00	5	30	0	246415360	52	6181
2026-01-12 17:44:43.33	16.39	10.89	-39.4	-40.6	21.1	0.00e+00	0	30	0	248512512	52	6113
2026-01-12 17:44:44.34	16.25	10.96	-39.4	-40.6	21.2	0.00e+00	92	30	0	249561088	52	6135
2026-01-12 17:44:45.35	16.11	11.02	-39.4	-40.6	21.1	0.00e+00	2	30	0	251658240	52	6131
2026-01-12 17:44:46.35	15.98	11.08	-39.2	-40.4	21.3	0.00e+00	90	30	0	253755392	52	5984
2026-01-12 17:44:47.36	15.84	11.14	-39.2	-40.3	21.4	0.00e+00	21	30	0	255852544	52	5935
2026-01-12 17:44:48.38	15.70	11.20	-39.2	-40.4	21.3	0.00e+00	21	30	0	257949696	52	5995
2026-01-12 17:44:49.39	15.56	11.27	-39.3	-40.5	21.2	0.00e+00	0	30	0	258998272	52	6065
2026-01-12 17:44:50.40	15.42	11.33	-39.3	-40.5	21.3	0.00e+00	0	30	0	261095424	52	6041
2026-01-12 17:44:51.40	15.28	11.39	-39.2	-40.4	21.4	0.00e+00	92	30	0	263192576	52	5981
2026-01-12 17:44:52.41	15.14	11.45	-39.2	-40.3	21.4	0.00e+00	15	30	0	265289728	52	5963
2026-01-12 17:44:53.42	15.00	11.51	-39.1	-40.3	21.4	0.00e+00	92	30	0	267386880	52	5927
2026-01-12 17:44:54.43	14.86	11.58	-39.2	-40.3	21.4	0.00e+00	67	30	0	269484032	52	5952
2026-01-12 17:44:55.44	14.72	11.64	-39.2	-40.4	21.3	0.00e+00	66	30	0	270532608	52	5986
2026-01-12 17:44:56.45	14.58	11.70	-39.4	-40.5	21.3	0.00e+00	15	30	0	272629760	52	6093
2026-01-12 17:44:57.45	14.43	11.76	-39.2	-40.4	21.3	0.00e+00	67	30	0	274726912	52	5998
2026-01-12 17:44:58.47	14.29	11.82	-39.1	-40.3	21.4	0.00e+00	13	30	0	276824064	52	5912
2026-01-12 17:44:59.48	14.14	11.89	-39.0	-40.1	21.6	0.00e+00	0	30	0	278921216	52	5790
2026-01-12 17:45:00.48	14.00	11.95	-39.1	-40.2	21.5	0.00e+00	92	30	0	279969792	52	5878
2026-01-12 17:45:01.49	13.85	12.01	-39.1	-40.3	21.4	0.00e+00	0	30	0	282066944	52	5907
2026-01-12 17:45:02.50	13.71	12.07	-39.3	-40.4	21.3	0.00e+00	12	30	0	284164096	52	6025
2026-01-12 17:45:03.52	13.56	12.13	-39.4	-40.5	21.2	0.00e+00	2	30	0	286261248	52	6100
2026-01-12 17:45:04.52	13.41	12.19	-39.2	-40.4	21.4	0.00e+00	0	30	0	288358400	52	6014
2026-01-12 17:45:05.53	13.26	12.26	-39.3	-40.5	21.3	0.00e+00	0	30	0	289406976	52	6051
2026-01-12 17:45:06.54	13.11	12.32	-39.3	-40.4	21.3	0.00e+00	0	30	0	291504128	52	6005
2026-01-12 17:45:07.55	12.96	12.38	-39.2	-40.4	21.4	0.00e+00	92	30	0	293601280	52	5972
2026-01-12 17:45:08.56	12.81	12.44	-39.2	-40.3	21.5	0.00e+00	0	30	0	295698432	52	5920
2026-01-12 17:45:09.57	12.66	12.50	-39.3	-40.4	21.3	0.00e+00	92	30	0	297795584	52	6022
2026-01-12 17:45:10.58	12.51	12.56	-39.2	-40.4	21.4	0.00e+00	20	30	0	298844160	52	5987
2026-01-12 17:45:11.59	12.36	12.63	-39.2	-40.4	21.4	0.00e+00	0	30	0	300941312	52	5979
2026-01-12 17:45:12.60	12.20	12.69	-39.2	-40.4	21.3	0.00e+00	0	30	0	303038464	52	5992
2026-01-12 17:45:13.61	12.05	12.75	-39.1	-40.3	21.5	0.00e+00	19	30	0	305135616	52	5911
2026-01-12 17:45:14.62	11.89	12.81	-39.3	-40.5	21.2	0.00e+00	92	30	0	307232768	52	6079
2026-01-12 17:45:15.63	11.74	12.87	-39.4	-40.6	21.2	0.00e+00	0	30	0	308281344	52	6123
2026-01-12 17:45:16.64	11.58	12.93	-39.5	-40.7	21.1	0.00e+00	92	30	0	310378496	52	6205
2026-01-12 17:45:17.65	11.43	12.99	-39.5	-40.7	21.2	0.00e+00	20	30	0	312475648	52	6192
2026-01-12 17:45:18.66	11.27	13.05	-39.3	-40.5	21.2	0.00e+00	62	30	0	314572800	52	6069
2026-01-12 17:45:19.67	11.11	13.12	-39.5	-40.7	21.2	0.00e+00	69	30	0	316669952	52	6174
2026-01-12 17:45:20.68	10.95	13.18	-39.7	-40.9	20.9	0.00e+00	67	30	0	317718528	52	6377
2026-01-12 17:45:21.69	10.79	13.24	-39.6	-40.9	21.0	0.00e+00	16	30	0	319815680	52	6336
2026-01-12 17:45:22.70	10.63	13.30	-39.8	-41.1	20.7	0.00e+00	0	30	0	321912832	52	6500
2026-01-12 17:45:23.71	10.47	13.36	-39.6	-40.9	21.0	0.00e+00	90	30	0	324009984	52	6320
2026-01-12 17:45:24.71	10.31	13.42	-39.7	-40.9	20.8	0.00e+00	6	30	0	326107136	52	6387
2026-01-12 17:45:25.72	10.15	13.48	-39.7	-41.0	20.8	0.00e+00	35	30	0	327155712	52	6429
2026-01-12 17:45:26.73	9.99	13.54	-39.8	-41.0	20.8	0.00e+00	7	30	0	329252864	52	6451
2026-01-12 17:45:27.74	9.83	13.60	-39.8	-41.0	20.8	0.00e+00	5	30	0	331350016	52	6418
2026-01-12 17:45:28.75	9.66	13.66	-39.9	-41.1	20.8	0.00e+00	0	30	0	333447168	52	6522
2026-01-12 17:45:29.76	9.50	13.72	-39.8	-41.0	20.7	0.00e+00	6	30	0	335544320	52	6444
2026-01-12 17:45:30.77	9.33	13.78	-39.7	-40.9	20.9	0.00e+00	92	30	0	337641472	52	6359
2026-01-12 17:45:31.78	9.17	13.84	-39.7	-41.0	20.9	0.00e+00	4	30	0	338690048	52	6397
2026-01-12 17:45:32.78	9.00	13.90	-39.7	-40.9	20.9	0.00e+00	90	30	0	340787200	52	6362
2026-01-12 17:45:33.80	8.83	13.96	-39.6	-40.9	21.0	0.00e+00	20	30	0	342884352	52	6319
2026-01-12 17:45:34.80	8.67	14.02	-39.6	-40.8	21.1	0.00e+00	5	30	0	344981504	52	6280
2026-01-12 17:45:35.81	8.50	14.08	-39.5	-40.7	21.2	0.00e+00	2	30	0	346030080	52	6202
2026-01-12 17:45:36.82	8.33	14.14	-39.5	-40.7	21.1	0.00e+00	69	30	0	348127232	52	6211
2026-01-12 17:45:37.83	8.16	14.20	-39.5	-40.7	21.1	0.00e+00	90	30	0	350224384	52	6184
2026-01-12 17:45:38.84	7.99	14.26	-39.5	-40.7	21.1	0.00e+00	20	30	0	352321536	52	6223
2026-01-12 17:45:39.85	7.82	14.32	-39.5	-40.7	21.1	0.00e+00	92	30	0	354418688	52	6235
2026-01-12 17:45:40.86	7.65	14.38	-39.4	-40.5	21.3	0.00e+00	19	30	0	355467264	52	6094
2026-01-12 17:45:41.87	7.47	14.44	-39.3	-40.5	21.5	0.00e+00	67	30	0	357564416	52	6040
2026-01-12 17:45:42.88	7.30	14.50	-39.2	-40.4	21.4	0.00e+00	66	30	0	359661568	52	5976
2026-01-12 17:45:43.89	7.12	14.56	-39.1	-40.3	21.6	0.00e+00	66	30	0	361758720	52	5900
2026-01-12 17:45:44.90	6.95	14.61	-39.1	-40.2	21.5	0.00e+00	2	30	0	363855872	52	5883
2026-01-12 17:45:45.91	6.77	14.67	-39.0	-40.1	21.8	0.00e+00	6	30	0	365953024	52	5820
2026-01-12 17:45:46.92	6.60	14.73	-39.0	-40.1	21.7	0.00e+00	92	30	0	367001600	52	5775
2026-01-12 17:45:47.93	6.42	14.79	-38.8	-39.8	22.0	0.00e+00	1	30	0	369098752	52	5629
2026-01-12 17:45:48.94	6.24	14.85	-38.6	-39.7	22.0	0.00e+00	92	30	0	371195904	50	6222
2026-01-12 17:45:49.94	6.07	14.90	-38.6	-39.7	22.1	0.00e+00	4	30	0	373293056	50	6178
2026-01-12 17:45:50.95	5.89	14.96	-38.4	-39.4	22.3	0.00e+00	4	30	0	375390208	50	6010
2026-01-12 17:45:51.96	5.71	15.02	-38.4	-39.4	22.4	0.00e+00	0	30	0	376438784	50	5995
2026-01-12 17:45:52.97	5.53	15.08	-38.4	-39.4	22.3	0.00e+00	0	30	0	378535936	50	6018
2026-01-12 17:45:53.98	5.35	15.14	-38.4	-39.4	22.4	0.00e+00	91	30	0	380633088	50	6008
2026-01-12 17:45:54.99	5.16	15.19	-38.4	-39.5	22.3	0.00e+00	0	30	0	382730240	50	6041
2026-01-12 17:45:56.00	4.98	15.25	-38.2	-39.2	22.5	0.00e+00	87	30	0	384827392	50	5873
2026-01-12 17:45:57.01	4.80	15.31	-38.2	-39.1	22.6	0.00e+00	21	30	0	385875968	50	5826
2026-01-12 17:45:58.02	4.61	15.36	-38.2	-39.2	22.6	0.00e+00	18	30	0	387973120	50	5880
2026-01-12 17:45:59.03	4.43	15.42	-38.0	-39.0	22.7	0.00e+00	68	30	0	390070272	50	5748
2026-01-12 17:46:00.04	4.24	15.48	-38.0	-39.0	22.8	0.00e+00	60	30	0	392167424	50	5726
2026-01-12 17:46:01.04	4.06	15.53	-37.9	-38.9	22.8	0.00e+00	92	30	0	394264576	50	5656
2026-01-12 17:46:02.05	3.87	15.59	-37.9	-38.9	22.8	0.00e+00	21	30	0	395313152	50	5692
2026-01-12 17:46:03.06	3.68	15.64	-37.9	-38.9	22.8	0.00e+00	92	30	0	397410304	50	5631
2026-01-12 17:46:04.07	3.50	15.70	-37.5	-38.5	23.2	0.00e+00	61	30	0	399507456	48	6048
2026-01-12 17:46:05.08	3.31	15.76	-37.6	-38.5	23.2	0.00e+00	60	30	0	401604608	48	6081
2026-01-12 17:46:06.09	3.12	15.81	-37.5	-38.4	23.3	0.00e+00	0	30	0	403701760	48	5998
2026-01-12 17:46:07.10	2.93	15.87	-37.3	-38.3	23.4	0.00e+00	65	30	0	404750336	48	5904
2026-01-12 17:46:08.11	2.73	15.92	-37.3	-38.2	23.5	0.00e+00	67	30	0	406847488	48	5842
2026-01-12 17:46:09.12	2.54	15.98	-37.4	-38.3	23.5	0.00e+00	0	30	0	408944640	48	5924
2026-01-12 17:46:10.13	2.35	16.03	-37.2	-38.2	23.5	0.00e+00	91	29	0	411041792	48	5839
2026-01-12 17:46:11.14	2.16	16.08	-37.3	-38.3	23.4	0.00e+00	2	29	0	413138944	48	5912
2026-01-12 17:46:12.15	1.96	16.14	-37.4	-38.4	23.5	0.00e+00	91	30	0	414187520	48	5969
2026-01-12 17:46:13.16	1.77	16.19	-36.9	-37.8	23.8	0.00e+00	0	30	0	416284672	48	5619
2026-01-12 17:46:14.17	1.57	16.25	-36.9	-37.8	23.8	0.00e+00	0	30	0	418381824	48	5617
2026-01-12 17:46:15.18	1.38	16.30	-36.8	-37.6	23.9	0.00e+00	0	30	0	420478976	46	6163
2026-01-12 17:46:16.18	1.18	16.35	-36.8	-37.7	24.0	0.00e+00	0	30	0	422576128	46	6190
2026-01-12 17:46:17.19	0.98	16.41	-36.9	-37.8	23.8	0.00e+00	92	30	0	423624704	46	6265
2026-01-12 17:46:18.20	0.79	16.46	-36.7	-37.6	24.0	0.00e+00	0	29	0	425721856	46	6141
2026-01-12 17:46:19.21	0.59	16.51	-36.9	-37.8	23.9	0.00e+00	92	30	0	427819008	46	6293
2026-01-12 17:46:20.22	0.39	16.56	-36.7	-37.5	24.0	0.00e+00	22	30	0	429916160	46	6087
2026-01-12 17:46:21.23	0.19	16.62	-36.7	-37.5	24.1	0.00e+00	16	29	0	432013312	46	6102
2026-01-12 17:46:22.24	359.98	16.67	-36.8	-37.7	24.0	0.00e+00	16	30	0	434110464	46	6195
2026-01-12 17:46:23.25	359.78	16.72	-36.7	-37.5	24.1	0.00e+00	15	29	0	435159040	46	6084
2026-01-12 17:46:24.26	359.58	16.77	-36.7	-37.6	24.1	0.00e+00	90	29	0	437256192	46	6107
2026-01-12 17:46:25.27	359.38	16.82	-36.7	-37.5	24.0	0.00e+00	2	29	0	439353344	46	6094
2026-01-12 17:46:26.28	359.17	16.87	-36.7	-37.5	24.1	0.00e+00	90	30	0	441450496	46	6093
2026-01-12 17:46:27.29	358.97	16.92	-36.7	-37.6	24.0	0.00e+00	0	30	0	443547648	46	6133
2026-01-12 17:46:28.30	358.76	16.97	-36.8	-37.6	24.0	0.00e+00	92	30	0	444596224	46	6161
2026-01-12 17:46:29.30	358.56	17.02	-36.9	-37.8	23.9	0.00e+00	62	29	0	446693376	46	6257
2026-01-12 17:46:30.31	358.35	17.07	-37.0	-37.9	23.6	0.00e+00	0	30	0	448790528	46	6349
2026-01-12 17:46:31.32	358.14	17.12	-36.8	-37.7	24.0	0.00e+00	0	29	0	450887680	46	6186
2026-01-12 17:46:32.33	357.94	17.17	-37.0	-37.8	23.8	0.00e+00	0	30	0	452984832	46	6301
2026-01-12 17:46:33.34	357.73	17.22	-37.0	-37.9	23.7	0.00e+00	92	29	0	454033408	46	6379
2026-01-12 17:46:34.35	357.52	17.27	-37.0	-37.9	23.7	0.00e+00	0	30	0	456130560	46	6377
2026-01-12 17:46:35.36	357.31	17.32	-37.2	-38.1	23.6	0.00e+00	88	29	0	458227712	46	6481
2026-01-12 17:46:36.37	357.10	17.36	-37.1	-38.0	23.7	0.00e+00	0	30	0	460324864	46	6419
2026-01-12 17:46:37.38	356.89	17.41	-37.1	-38.0	23.6	0.00e+00	22	29	0	462422016	46	6455
2026-01-12 17:46:38.39	356.67	17.46	-37.1	-38.0	23.7	0.00e+00	0	29	0	463470592	46	6410
2026-01-12 17:46:39.40	356.46	17.50	-37.2	-38.1	23.6	0.00e+00	0	30	0	465567744	46	6504
2026-01-12 17:46:40.41	356.25	17.55	-37.3	-38.2	23.6	0.00e+00	91	30	0	467664896	46	6543
2026-01-12 17:46:41.42	356.03	17.60	-37.3	-38.2	23.5	0.00e+00	21	30	0	469762048	46	6592
2026-01-12 17:46:42.43	355.82	17.64	-37.3	-38.2	23.5	0.00e+00	91	30	0	471859200	46	6597
2026-01-12 17:46:43.44	355.60	17.69	-37.3	-38.2	23.2	0.00e+00	0	30	0	472907776	46	6563
2026-01-12 17:46:44.45	355.39	17.73	-37.1	-38.0	23.7	0.00e+00	59	29	0	475004928	46	6412
2026-01-12 17:46:45.46	355.17	17.78	-37.1	-38.0	23.7	0.00e+00	17	30	0	477102080	46	6408
2026-01-12 17:46:46.47	354.95	17.82	-36.9	-37.8	23.9	0.00e+00	64	29	0	479199232	46	6284
2026-01-12 17:46:47.48	354.73	17.87	-36.8	-37.7	24.0	0.00e+00	91	29	0	481296384	46	6224
2026-01-12 17:46:48.49	354.52	17.91	-36.8	-37.7	23.9	0.00e+00	0	29	0	482344960	46	6244
2026-01-12 17:46:49.50	354.30	17.96	-36.8	-37.7	23.9	0.00e+00	92	29	0	484442112	46	6214
2026-01-12 17:46:50.51	354.08	18.00	-36.7	-37.5	24.1	0.00e+00	0	30	0	486539264	46	6101
2026-01-12 17:46:51.52	353.86	18.04	-36.5	-37.4	24.3	0.00e+00	0	30	0	488636416	46	5968
2026-01-12 17:46:52.53	353.63	18.08	-36.3	-37.2	24.4	0.00e+00	0	29	0	490733568	46	5843
2026-01-12 17:46:53.54	353.41	18.13	-36.5	-37.3	24.3	0.00e+00	0	29	0	491782144	46	5932
2026-01-12 17:46:54.55	353.19	18.17	-36.3	-37.1	24.4	0.00e+00	1	29	0	493879296	46	5799
2026-01-12 17:46:55.56	352.97	18.21	-36.6	-37.4	23.3	0.00e+00	0	29	0	495976448	46	6007
2026-01-12 17:46:56.57	352.74	18.25	-36.4	-37.3	24.4	0.00e+00	92	29	0	498073600	46	5911
2026-01-12 17:46:57.58	352.52	18.29	-36.6	-37.5	24.1	0.00e+00	0	29	0	500170752	46	6050
2026-01-12 17:46:58.59	352.29	18.33	-36.5	-37.4	24.3	0.00e+00	81	29	0	502267904	46	6004
2026-01-12 17:46:59.60	352.07	18.37	-36.3	-37.2	24.4	0.00e+00	0	29	0	503316480	46	5848
2026-01-12 17:47:00.61	351.84	18.41	-36.5	-37.4	24.3	0.00e+00	0	29	0	505413632	46	5999
2026-01-12 17:47:01.62	351.61	18.45	-36.4	-37.2	24.3	0.00e+00	0	29	0	507510784	46	5891
2026-01-12 17:47:02.62	351.39	18.49	-36.6	-37.5	24.2	0.00e+00	13	29	0	509607936	46	6041
2026-01-12 17:47:03.63	351.16	18.53	-36.7	-37.6	24.1	0.00e+00	95	29	0	511705088	46	6127
2026-01-12 17:47:04.64	350.93	18.56	-36.7	-37.5	24.1	0.00e+00	22	29	0	512753664	46	6095
2026-01-12 17:47:05.65	350.70	18.60	-36.7	-37.6	24.0	0.00e+00	92	29	0	514850816	46	6122
2026-01-12 17:47:06.66	350.47	18.64	-36.5	-37.4	24.2	0.00e+00	0	29	0	516947968	46	5997
2026-01-12 17:47:07.67	350.24	18.67	-36.4	-37.2	24.3	0.00e+00	0	29	0	519045120	46	5885
2026-01-12 17:47:08.68	350.01	18.71	-36.3	-37.1	24.5	0.00e+00	0	29	0	521142272	46	5781
2026-01-12 17:47:09.69	349.78	18.75	-36.2	-37.0	24.6	0.00e+00	66	29	0	522190848	46	5708
2026-01-12 17:47:10.70	349.55	18.78	-36.1	-37.0	24.6	0.00e+00	24	29	0	524288000	46	5697
2026-01-12 17:47:11.71	349.32	18.82	-36.2	-37.0	24.6	0.00e+00	0	29	0	526385152	46	5746
2026-01-12 17:47:12.72	349.08	18.85	-36.3	-37.2	24.5	0.00e+00	92	29	0	528482304	46	5835
2026-01-12 17:47:13.73	348.85	18.88	-36.3	-37.2	24.5	0.00e+00	0	29	0	530579456	46	5850
2026-01-12 17:47:14.74	348.62	18.92	-36.3	-37.2	24.5	0.00e+00	4	29	0	531628032	46	5833
2026-01-12 17:47:15.75	348.38	18.95	-36.4	-37.2	24.4	0.00e+00	1	29	0	533725184	46	5895
2026-01-12 17:47:16.76	348.15	18.98	-36.4	-37.2	24.4	0.00e+00	5	29	0	535822336	46	5892
2026-01-12 17:47:17.76	347.91	19.02	-36.5	-37.3	24.3	0.00e+00	0	29	0	537919488	46	5935
2026-01-12 17:47:18.78	347.67	19.05	-36.6	-37.5	24.2	0.00e+00	5	29	0	540016640	46	6043
2026-01-12 17:47:19.78	347.44	19.08	-36.6	-37.5	24.1	0.00e+00	92	29	0	541065216	46	6037
2026-01-12 17:47:20.79	347.20	19.11	-36.8	-37.6	24.0	0.00e+00	20	29	0	543162368	46	6171
2026-01-12 17:47:21.80	346.97	19.14	-36.7	-37.6	24.1	0.00e+00	90	29	0	545259520	46	6130
2026-01-12 17:47:22.81	346.73	19.17	-36.6	-37.5	24.2	0.00e+00	3	29	0	547356672	46	6041
2026-01-12 17:47:23.82	346.49	19.20	-36.7	-37.6	24.2	0.00e+00	18	29	0	549453824	46	6112
2026-01-12 17:47:24.83	346.25	19.23	-36.8	-37.7	24.0	0.00e+00	0	29	0	550502400	46	6183
2026-01-12 17:47:25.84	346.01	19.25	-36.7	-37.5	24.2	0.00e+00	70	29	0	552599552	46	6079
2026-01-12 17:47:26.85	345.77	19.28	-36.7	-37.6	24.0	0.00e+00	92	29	0	554696704	46	6140
2026-01-12 17:47:27.86	345.53	19.31	-36.9	-37.8	23.9	0.00e+00	14	29	0	556793856	46	6299
2026-01-12 17:47:28.87	345.29	19.34	-36.9	-37.8	23.9	0.00e+00	92	29	0	558891008	46	6280
2026-01-12 17:47:29.88	345.05	19.36	-37.0	-37.9	23.7	0.00e+00	4	29	0	559939584	46	6322
2026-01-12 17:47:30.89	344.81	19.39	-37.1	-37.9	23.8	0.00e+00	63	29	0	562036736	46	6382
2026-01-12 17:47:31.90	344.57	19.41	-36.9	-37.8	24.0	0.00e+00	67	29	0	564133888	46	6273
2026-01-12 17:47:32.90	344.33	19.44	-37.0	-37.9	23.8	0.00e+00	6	29	0	566231040	46	6347
2026-01-12 17:47:33.91	344.08	19.46	-37.2	-38.1	23.7	0.00e+00	81	29	0	568328192	46	6481
2026-01-12 17:47:34.92	343.84	19.49	-37.4	-38.3	23.6	0.00e+00	3	29	0	570425344	46	6670
2026-01-12 17:47:35.93	343.60	19.51	-37.5	-38.4	23.4	0.00e+00	92	29	0	571473920	46	6707
2026-01-12 17:47:36.94	343.35	19.53	-37.6	-38.6	23.2	0.00e+00	0	29	0	573571072	46	6854
2026-01-12 17:47:37.95	343.11	19.55	-37.5	-38.5	23.4	0.00e+00	1	29	0	575668224	46	6785
2026-01-12 17:47:38.96	342.86	19.58	-37.6	-38.5	23.4	0.00e+00	0	29	0	577765376	46	6841
2026-01-12 17:47:39.97	342.62	19.60	-37.5	-38.4	23.4	0.00e+00	20	29	0	579862528	46	6753
2026-01-12 17:47:40.98	342.37	19.62	-37.6	-38.5	23.3	0.00e+00	26	29	0	580911104	46	6816
2026-01-12 17:47:41.99	342.13	19.64	-37.5	-38.4	23.4	0.00e+00	17	29	0	583008256	46	6754
2026-01-12 17:47:43.00	341.88	19.66	-37.6	-38.6	23.3	0.00e+00	92	29	0	585105408	46	6868
2026-01-12 17:47:44.01	341.64	19.68	-37.6	-38.6	23.3	0.00e+00	15	29	0	587202560	46	6858
2026-01-12 17:47:45.01	341.39	19.69	-37.7	-38.6	23.2	0.00e+00	92	29	0	589299712	48	6165
2026-01-12 17:47:46.02	341.14	19.71	-37.9	-38.8	23.1	0.00e+00	61	29	0	590348288	48	6316
2026-01-12 17:47:47.03	340.90	19.73	-37.8	-38.8	23.0	0.00e+00	62	29	0	592445440	48	6264
2026-01-12 17:47:48.04	340.65	19.75	-37.8	-38.8	23.1	0.00e+00	11	29	0	594542592	48	6280
2026-01-12 17:47:49.05	340.40	19.76	-37.9	-38.8	23.0	0.00e+00	59	29	0	596639744	48	6301
2026-01-12 17:47:50.06	340.15	19.78	-37.9	-38.8	23.0	0.00e+00	80	29	0	598736896	48	6304
2026-01-12 17:47:51.07	339.91	19.79	-37.9	-38.9	22.6	0.00e+00	1	29	0	599785472	48	6355
2026-01-12 17:47:52.08	339.66	19.81	-38.1	-39.0	22.8	0.00e+00	92	29	0	601882624	48	6451
2026-01-12 17:47:53.09	339.41	19.82	-38.2	-39.2	22.6	0.00e+00	0	29	0	603979776	48	6612
2026-01-12 17:47:54.10	339.16	19.83	-38.4	-39.4	22.5	0.00e+00	61	29	0	606076928	48	6768
2026-01-12 17:47:55.11	338.91	19.85	-38.5	-39.5	22.3	0.00e+00	60	29	0	608174080	48	6835
2026-01-12 17:47:56.11	338.66	19.86	-38.5	-39.5	22.4	0.00e+00	0	29	0	609222656	48	6820
2026-01-12 17:47:57.12	338.41	19.87	-38.3	-39.4	22.5	0.00e+00	92	29	0	611319808	48	6702
2026-01-12 17:47:58.13	338.17	19.88	-38.1	-39.1	22.8	0.00e+00	0	29	0	613416960	48	6468
2026-01-12 17:47:59.14	337.92	19.89	-37.8	-38.7	23.1	0.00e+00	90	29	0	615514112	48	6228
2026-01-12 17:48:00.15	337.67	19.90	-37.7	-38.6	23.2	0.00e+00	0	29	0	617611264	48	6167
2026-01-12 17:48:01.16	337.41	19.91	-37.7	-38.6	23.2	0.00e+00	89	29	0	618659840	48	6156
2026-01-12 17:48:02.17	337.16	19.92	-37.8	-38.8	23.0	0.00e+00	21	29	0	620756992	48	6272
2026-01-12 17:48:03.18	336.91	19.93	-38.0	-39.0	22.9	0.00e+00	0	29	0	622854144	48	6399
2026-01-12 17:48:04.19	336.66	19.94	-38.1	-39.0	22.8	0.00e+00	0	29	0	624951296	48	6463
2026-01-12 17:48:05.20	336.41	19.94	-38.2	-39.2	22.6	0.00e+00	21	29	0	627048448	48	6609
2026-01-12 17:48:06.21	336.16	19.95	-38.1	-39.1	22.8	0.00e+00	92	29	0	628097024	48	6469
2026-01-12 17:48:07.22	335.91	19.96	-38.1	-39.0	22.8	0.00e+00	66	29	0	630194176	48	6455
2026-01-12 17:48:08.23	335.66	19.96	-38.1	-39.0	22.8	0.00e+00	92	29	0	632291328	48	6453
2026-01-12 17:48:09.24	335.41	19.97	-38.1	-39.0	22.9	0.00e+00	61	29	0	634388480	48	6451
2026-01-12 17:48:10.24	335.16	19.97	-38.1	-39.0	22.9	0.00e+00	61	29	0	636485632	48	6461
2026-01-12 17:48:11.25	334.91	19.98	-38.0	-39.0	22.8	0.00e+00	0	29	0	637534208	48	6404
2026-01-12 17:48:12.26	334.66	19.98	-38.1	-39.0	22.8	0.00e+00	19	29	0	639631360	48	6459
2026-01-12 17:48:13.27	334.41	19.98	-38.2	-39.2	22.6	0.00e+00	92	29	0	641728512	48	6600
2026-01-12 17:48:14.28	334.15	19.98	-38.3	-39.3	22.5	0.00e+00	0	29	0	643825664	48	6660
2026-01-12 17:48:15.29	333.90	19.98	-38.4	-39.4	22.6	0.00e+00	91	29	0	645922816	48	6700
2026-01-12 17:48:16.30	333.65	19.99	-38.5	-39.6	22.5	0.00e+00	2	29	0	646971392	48	6858
2026-01-12 17:48:17.31	333.40	19.99	-38.1	-39.1	22.9	0.00e+00	2	29	0	649068544	48	6471
2026-01-12 17:48:18.32	333.15	19.99	-38.2	-39.2	22.7	0.00e+00	0	29	0	651165696	48	6563
2026-01-12 17:48:19.33	332.90	19.98	-37.9	-38.9	23.0	0.00e+00	0	29	0	653262848	48	6351
2026-01-12 17:48:20.34	332.64	19.98	-38.0	-39.0	22.9	0.00e+00	84	29	0	655360000	48	6439
2026-01-12 17:48:21.34	332.40	19.98	-38.0	-39.0	22.8	0.00e+00	0	29	0	656408576	48	6404
2026-01-12 17:48:22.35	332.14	19.98	-38.1	-39.0	22.9	0.00e+00	92	29	0	658505728	48	6459
2026-01-12 17:48:23.36	331.89	19.98	-38.1	-39.1	22.8	0.00e+00	2	29	0	660602880	48	6495
2026-01-12 17:48:24.37	331.64	19.97	-37.9	-38.8	23.0	0.00e+00	54	29	0	662700032	48	6290
2026-01-12 17:48:25.38	331.39	19.97	-37.7	-38.7	23.1	0.00e+00	0	29	0	664797184	48	6184
2026-01-12 17:48:26.39	331.14	19.96	-37.6	-38.5	23.4	0.00e+00	0	29	0	666894336	48	6055
2026-01-12 17:48:27.39	330.89	19.96	-37.5	-38.4	23.4	0.00e+00	0	29	0	667942912	48	6027
2026-01-12 17:48:28.40	330.64	19.95	-37.3	-38.1	23.6	0.00e+00	22	29	0	670040064	48	5826
2026-01-12 17:48:29.41	330.39	19.94	-37.2	-38.1	23.7	0.00e+00	92	29	0	672137216	48	5789
2026-01-12 17:48:30.42	330.14	19.94	-37.2	-38.0	23.8	0.00e+00	16	29	0	674234368	48	5751
2026-01-12 17:48:31.43	329.89	19.93	-37.3	-38.2	23.6	0.00e+00	92	29	0	676331520	48	5859
2026-01-12 17:48:32.44	329.64	19.92	-37.3	-38.2	23.6	0.00e+00	22	29	0	677380096	48	5844
2026-01-12 17:48:33.45	329.39	19.91	-37.4	-38.3	23.6	0.00e+00	22	29	0	679477248	48	5907
2026-01-12 17:48:34.46	329.14	19.90	-37.4	-38.3	23.6	0.00e+00	0	29	0	681574400	48	5900
2026-01-12 17:48:35.46	328.89	19.89	-37.3	-38.2	23.6	0.00e+00	0	29	0	683671552	48	5861
2026-01-12 17:48:36.47	328.64	19.88	-37.3	-38.2	23.6	0.00e+00	92	29	0	685768704	48	5886
2026-01-12 17:48:37.48	328.39	19.87	-37.3	-38.2	23.7	0.00e+00	0	29	0	686817280	48	5834
2026-01-12 17:48:38.49	328.14	19.86	-36.9	-37.8	23.9	0.00e+00	91	29	0	688914432	48	5582
2026-01-12 17:48:39.50	327.89	19.85	-37.0	-37.8	24.0	0.00e+00	2	29	0	691011584	48	5622
2026-01-12 17:48:40.51	327.64	19.83	-36.9	-37.7	24.1	0.00e+00	77	29	0	693108736	48	5552
2026-01-12 17:48:41.52	327.39	19.82	-36.7	-37.5	24.2	0.00e+00	0	29	0	695205888	46	6090
2026-01-12 17:48:42.53	327.14	19.81	-36.6	-37.4	24.2	0.00e+00	0	29	0	696254464	46	6009
2026-01-12 17:48:43.54	326.89	19.79	-36.7	-37.5	24.2	0.00e+00	0	29	0	698351616	46	6081
2026-01-12 17:48:44.55	326.65	19.78	-36.6	-37.4	24.3	0.00e+00	0	29	0	700448768	46	5990
2026-01-12 17:48:45.56	326.40	19.76	-36.8	-37.7	24.1	0.00e+00	92	29	0	702545920	46	6205
2026-01-12 17:48:46.57	326.15	19.74	-36.5	-37.3	24.4	0.00e+00	0	29	0	704643072	46	5956
2026-01-12 17:48:47.58	325.90	19.73	-36.6	-37.4	24.3	0.00e+00	20	29	0	705691648	46	5999
2026-01-12 17:48:48.59	325.65	19.71	-36.6	-37.4	24.3	0.00e+00	0	29	0	707788800	46	6017
2026-01-12 17:48:49.60	325.41	19.69	-36.6	-37.4	24.4	0.00e+00	0	29	0	709885952	46	5997
2026-01-12 17:48:50.60	325.16	19.67	-36.4	-37.2	24.5	0.00e+00	0	29	0	711983104	46	5896
2026-01-12 17:48:51.61	324.92	19.65	-36.4	-37.2	24.6	0.00e+00	0	29	0	714080256	46	5868
2026-01-12 17:48:52.62	324.67	19.63	-36.5	-37.3	24.4	0.00e+00	91	29	0	715128832	46	5934
2026-01-12 17:48:53.63	324.43	19.61	-36.4	-37.3	24.3	0.00e+00	20	29	0	717225984	46	5915
2026-01-12 17:48:54.64	324.18	19.59	-36.4	-37.2	24.5	0.00e+00	91	29	0	719323136	46	5856
2026-01-12 17:48:55.65	323.93	19.57	-36.2	-37.1	24.6	0.00e+00	19	29	0	721420288	46	5766
2026-01-12 17:48:56.66	323.69	19.55	-36.0	-36.8	24.8	0.00e+00	60	29	0	723517440	46	5623
2026-01-12 17:48:57.67	323.45	19.53	-35.9	-36.7	24.9	0.00e+00	0	29	0	724566016	46	5547
2026-01-12 17:48:58.68	323.20	19.51	-36.0	-36.8	24.9	0.00e+00	3	29	0	726663168	46	5610
2026-01-12 17:48:59.69	322.96	19.48	-35.9	-36.7	24.9	0.00e+00	91	29	0	728760320	46	5535
2026-01-12 17:49:00.70	322.71	19.46	-36.0	-36.7	24.9	0.00e+00	62	29	0	730857472	46	5565
2026-01-12 17:49:01.71	322.47	19.43	-36.0	-36.8	24.8	0.00e+00	90	29	0	732954624	46	5584
2026-01-12 17:49:02.72	322.23	19.41	-36.2	-37.0	24.6	0.00e+00	2	29	0	735051776	46	5712
2026-01-12 17:49:03.73	321.99	19.38	-36.3	-37.1	24.5	0.00e+00	23	29	0	736100352	46	5797
2026-01-12 17:49:04.74	321.75	19.36	-36.4	-37.2	24.4	0.00e+00	2	29	0	738197504	46	5878
2026-01-12 17:49:05.75	321.50	19.33	-36.4	-37.2	24.5	0.00e+00	5	29	0	740294656	46	5887
2026-01-12 17:49:06.76	321.26	19.31	-36.5	-37.4	24.3	0.00e+00	0	29	0	742391808	46	5984
2026-01-12 17:49:07.77	321.02	19.28	-36.3	-37.2	24.6	0.00e+00	0	29	0	744488960	46	5834
2026-01-12 17:49:08.78	320.78	19.25	-36.4	-37.3	24.3	0.00e+00	92	29	0	745537536	46	5914
2026-01-12 17:49:09.79	320.54	19.22	-36.3	-37.1	24.6	0.00e+00	20	29	0	747634688	46	5808
2026-01-12 17:49:10.80	320.30	19.19	-36.4	-37.2	24.5	0.00e+00	92	29	0	749731840	46	5891
2026-01-12 17:49:11.80	320.07	19.16	-36.5	-37.3	24.4	0.00e+00	2	29	0	751828992	46	5960
2026-01-12 17:49:12.81	319.83	19.13	-36.5	-37.4	24.3	0.00e+00	1	29	0	752877568	46	5967
2026-01-12 17:49:13.82	319.59	19.10	-36.7	-37.5	24.3	0.00e+00	6	29	0	754974720	46	6072
2026-01-12 17:49:14.83	319.36	19.07	-36.8	-37.7	24.1	0.00e+00	66	29	0	757071872	46	6175
2026-01-12 17:49:15.84	319.12	19.04	-36.9	-37.7	24.1	0.00e+00	92	29	0	759169024	46	6217
2026-01-12 17:49:16.85	318.88	19.01	-37.0	-37.9	24.0	0.00e+00	67	29	0	761266176	46	6333
2026-01-12 17:49:17.86	318.65	18.98	-37.0	-37.9	23.9	0.00e+00	90	29	0	763363328	46	6322
2026-01-12 17:49:18.87	318.41	18.95	-37.1	-37.9	23.9	0.00e+00	67	29	0	764411904	46	6378
2026-01-12 17:49:19.88	318.18	18.91	-37.2	-38.0	23.8	0.00e+00	0	29	0	766509056	46	6450
2026-01-12 17:49:20.89	317.94	18.88	-37.2	-38.1	23.8	0.00e+00	0	29	0	768606208	46	6516
2026-01-12 17:49:21.90	317.71	18.85	-37.2	-38.1	23.7	0.00e+00	0	29	0	770703360	46	6500
2026-01-12 17:49:22.91	317.48	18.81	-37.4	-38.3	23.6	0.00e+00	8	29	0	772800512	46	6670
2026-01-12 17:49:23.92	317.24	18.78	-37.5	-38.4	23.5	0.00e+00	7	29	0	773849088	46	6716
2026-01-12 17:49:24.92	317.01	18.74	-37.5	-38.4	23.4	0.00e+00	92	29	0	775946240	46	6757
2026-01-12 17:49:25.93	316.78	18.71	-37.5	-38.4	23.5	0.00e+00	2	29	0	778043392	46	6763
2026-01-12 17:49:26.94	316.55	18.67	-37.5	-38.4	23.5	0.00e+00	8	29	0	780140544	46	6764
2026-01-12 17:49:27.95	316.32	18.63	-37.6	-38.5	23.4	0.00e+00	0	29	0	782237696	46	6818
2026-01-12 17:49:28.96	316.09	18.60	-37.8	-38.8	23.2	0.00e+00	6	29	0	783286272	48	6252
2026-01-12 17:49:29.97	315.86	18.56	-38.0	-39.0	22.9	0.00e+00	0	29	0	785383424	48	6400
2026-01-12 17:49:30.98	315.63	18.52	-38.1	-39.1	22.9	0.00e+00	20	29	0	787480576	48	6475
2026-01-12 17:49:31.99	315.40	18.48	-38.0	-38.9	22.9	0.00e+00	92	29	0	789577728	48	6386
2026-01-12 17:49:33.00	315.18	18.44	-38.0	-39.0	22.9	0.00e+00	19	29	0	791674880	48	6411
2026-01-12 17:49:34.01	314.95	18.40	-38.0	-38.9	23.1	0.00e+00	90	29	0	792723456	48	6388
2026-01-12 17:49:35.02	314.72	18.36	-37.7	-38.7	23.3	0.00e+00	62	29	0	794820608	48	6197
2026-01-12 17:49:36.03	314.50	18.32	-37.7	-38.6	23.3	0.00e+00	64	29	0	796917760	48	6164
2026-01-12 17:49:37.03	314.27	18.28	-37.7	-38.6	23.3	0.00e+00	81	29	0	799014912	48	6145
2026-01-12 17:49:38.04	314.05	18.24	-37.6	-38.5	23.1	0.00e+00	19	29	0	801112064	48	6079
2026-01-12 17:49:39.06	313.82	18.20	-37.6	-38.5	23.4	0.00e+00	90	29	0	802160640	48	6072
2026-01-12 17:49:40.07	313.60	18.16	-37.7	-38.6	23.3	0.00e+00	64	29	0	804257792	48	6156
2026-01-12 17:49:41.07	313.38	18.12	-37.8	-38.7	23.2	0.00e+00	93	29	0	806354944	48	6224
2026-01-12 17:49:42.08	313.16	18.08	-37.8	-38.7	23.1	0.00e+00	63	29	0	808452096	48	6235
2026-01-12 17:49:43.09	312.94	18.03	-37.8	-38.7	23.2	0.00e+00	62	29	0	810549248	48	6231
2026-01-12 17:49:44.10	312.71	17.99	-37.8	-38.7	23.2	0.00e+00	62	29	0	811597824	48	6195
2026-01-12 17:49:45.11	312.49	17.95	-37.7	-38.6	23.3	0.00e+00	0	29	0	813694976	48	6137
2026-01-12 17:49:46.12	312.27	17.91	-37.8	-38.7	23.2	0.00e+00	90	29	0	815792128	48	6207
2026-01-12 17:49:47.13	312.06	17.86	-37.6	-38.5	23.3	0.00e+00	0	29	0	817889280	48	6090
2026-01-12 17:49:48.14	311.84	17.82	-37.8	-38.7	23.1	0.00e+00	92	29	0	819986432	48	6242
2026-01-12 17:49:49.15	311.62	17.77	-38.0	-38.9	22.9	0.00e+00	2	29	0	821035008	48	6377
2026-01-12 17:49:50.16	311.40	17.73	-37.8	-38.7	22.9	0.00e+00	49	29	0	823132160	48	6211
2026-01-12 17:49:51.17	311.19	17.68	-37.9	-38.9	23.1	0.00e+00	15	29	0	825229312	48	6336
2026-01-12 17:49:52.18	310.97	17.64	-37.7	-38.7	23.3	0.00e+00	14	29	0	827326464	48	6193
2026-01-12 17:49:53.19	310.76	17.59	-37.8	-38.7	23.2	0.00e+00	0	29	0	829423616	48	6230
2026-01-12 17:49:54.20	310.54	17.54	-37.6	-38.5	23.3	0.00e+00	14	29	0	831520768	48	6091
2026-01-12 17:49:55.21	310.33	17.50	-37.6	-38.5	23.3	0.00e+00	92	29	0	832569344	48	6098
2026-01-12 17:49:56.22	310.11	17.45	-37.6	-38.6	23.4	0.00e+00	13	29	0	834666496	48	6115
2026-01-12 17:49:57.23	309.90	17.40	-37.8	-38.7	23.2	0.00e+00	92	29	0	836763648	48	6214
2026-01-12 17:49:58.24	309.69	17.35	-37.8	-38.7	23.1	0.00e+00	20	29	0	838860800	48	6238
2026-01-12 17:49:59.25	309.48	17.31	-37.9	-38.8	23.1	0.00e+00	62	29	0	840957952	48	6317
2026-01-12 17:50:00.26	309.27	17.26	-38.0	-38.9	23.0	0.00e+00	71	29	0	842006528	48	6382
2026-01-12 17:50:01.27	309.06	17.21	-37.9	-38.8	23.1	0.00e+00	63	29	0	844103680	48	6304
2026-01-12 17:50:02.28	308.85	17.16	-37.9	-38.9	23.0	0.00e+00	92	29	0	846200832	48	6330
2026-01-12 17:50:03.29	308.64	17.11	-37.9	-38.9	23.0	0.00e+00	0	29	0	848297984	48	6337
2026-01-12 17:50:04.30	308.43	17.06	-38.1	-39.0	22.8	0.00e+00	92	29	0	850395136	48	6451
2026-01-12 17:50:05.30	308.23	17.01	-38.2	-39.2	22.8	0.00e+00	2	29	0	851443712	48	6587
2026-01-12 17:50:06.31	308.02	16.96	-38.2	-39.2	22.8	0.00e+00	62	29	0	853540864	48	6560
2026-01-12 17:50:07.32	307.82	16.91	-38.2	-39.2	22.8	0.00e+00	2	29	0	855638016	48	6586
2026-01-12 17:50:08.33	307.61	16.86	-38.2	-39.2	22.7	0.00e+00	0	29	0	857735168	48	6593
2026-01-12 17:50:09.34	307.41	16.81	-38.3	-39.3	22.6	0.00e+00	85	29	0	859832320	48	6669
2026-01-12 17:50:10.35	307.20	16.76	-38.4	-39.4	22.6	0.00e+00	0	29	0	860880896	48	6730
2026-01-12 17:50:11.36	307.00	16.71	-38.5	-39.5	22.4	0.00e+00	92	29	0	862978048	48	6786
2026-01-12 17:50:12.37	306.80	16.66	-38.5	-39.6	22.4	0.00e+00	0	29	0	865075200	48	6865
2026-01-12 17:50:13.38	306.60	16.61	-38.5	-39.5	22.5	0.00e+00	75	29	0	867172352	48	6822
2026-01-12 17:50:14.39	306.40	16.55	-38.3	-39.3	22.6	0.00e+00	0	29	0	869269504	48	6675
2026-01-12 17:50:15.40	306.20	16.50	-38.6	-39.6	22.4	0.00e+00	18	29	0	870318080	48	6893
2026-01-12 17:50:16.40	306.00	16.45	-38.2	-39.2	22.7	0.00e+00	0	29	0	872415232	48	6540
2026-01-12 17:50:17.41	305.80	16.40	-38.2	-39.2	22.8	0.00e+00	64	29	0	874512384	48	6571
2026-01-12 17:50:18.42	305.60	16.34	-38.2	-39.1	22.8	0.00e+00	92	29	0	876609536	48	6539
2026-01-12 17:50:19.43	305.41	16.29	-38.1	-39.1	22.8	0.00e+00	0	29	0	878706688	48	6520
2026-01-12 17:50:20.44	305.21	16.24	-38.1	-39.1	22.8	0.00e+00	92	29	0	879755264	48	6489
2026-01-12 17:50:21.45	305.01	16.18	-38.1	-39.1	22.8	0.00e+00	68	29	0	881852416	48	6488
2026-01-12 17:50:22.46	304.82	16.13	-38.2	-39.1	22.8	0.00e+00	14	29	0	883949568	48	6530
2026-01-12 17:50:23.47	304.62	16.07	-38.2	-39.2	22.7	0.00e+00	0	29	0	886046720	48	6545
2026-01-12 17:50:24.48	304.43	16.02	-38.3	-39.3	22.7	0.00e+00	68	28	0	888143872	48	6659
2026-01-12 17:50:25.49	304.24	15.96	-38.4	-39.4	22.6	0.00e+00	92	29	0	889192448	48	6739
2026-01-12 17:50:26.50	304.05	15.91	-38.5	-39.5	22.4	0.00e+00	0	29	0	891289600	48	6843
2026-01-12 17:50:27.51	303.85	15.85	-38.4	-39.5	22.5	0.00e+00	92	29	0	893386752	48	6770
2026-01-12 17:50:28.52	303.66	15.80	-38.4	-39.5	22.5	0.00e+00	0	29	0	895483904	48	6772
2026-01-12 17:50:29.53	303.47	15.74	-38.6	-39.6	22.3	0.00e+00	0	29	0	897581056	48	6918
2026-01-12 17:50:30.54	303.28	15.69	-38.4	-39.4	22.4	0.00e+00	0	29	0	898629632	48	6726
2026-01-12 17:50:31.54	303.10	15.63	-38.5	-39.6	22.4	0.00e+00	2	28	0	900726784	48	6859
2026-01-12 17:50:32.55	302.91	15.58	-38.6	-39.6	22.4	0.00e+00	92	29	0	902823936	48	6872
2026-01-12 17:50:33.56	302.72	15.52	-38.3	-39.3	22.6	0.00e+00	2	29	0	904921088	48	6631
2026-01-12 17:50:34.57	302.54	15.46	-38.4	-39.3	22.7	0.00e+00	92	28	0	907018240	48	6692
2026-01-12 17:50:35.58	302.35	15.41	-38.3	-39.3	22.7	0.00e+00	0	29	0	909115392	48	6636
2026-01-12 17:50:36.59	302.16	15.35	-38.2	-39.2	22.7	0.00e+00	17	28	0	910163968	48	6557
2026-01-12 17:50:37.60	301.98	15.29	-38.2	-39.2	22.7	0.00e+00	18	28	0	912261120	48	6572
2026-01-12 17:50:38.61	301.80	15.24	-38.3	-39.3	22.6	0.00e+00	0	29	0	914358272	48	6674
2026-01-12 17:50:39.62	301.61	15.18	-38.4	-39.4	22.5	0.00e+00	14	28	0	916455424	48	6739
2026-01-12 17:50:40.63	301.43	15.12	-38.6	-39.6	22.3	0.00e+00	18	29	0	918552576	48	6923
2026-01-12 17:50:41.64	301.25	15.07	-38.7	-39.7	22.3	0.00e+00	92	29	0	919601152	48	6971
2026-01-12 17:50:42.65	301.07	15.01	-38.8	-39.9	22.1	0.00e+00	0	28	0	921698304	50	6318
2026-01-12 17:50:43.65	300.89	14.95	-38.9	-40.0	22.0	0.00e+00	88	28	0	923795456	50	6434
2026-01-12 17:50:44.66	300.71	14.89	-39.0	-40.1	21.8	0.00e+00	16	28	0	925892608	50	6487
2026-01-12 17:50:45.67	300.53	14.83	-39.0	-40.1	21.9	0.00e+00	63	29	0	927989760	50	6493
2026-01-12 17:50:46.68	300.35	14.78	-39.0	-40.1	22.0	0.00e+00	0	28	0	929038336	50	6472
2026-01-12 17:50:47.69	300.18	14.72	-38.9	-39.9	22.1	0.00e+00	65	28	0	931135488	50	6376
2026-01-12 17:50:48.70	300.00	14.66	-39.0	-40.0	22.0	0.00e+00	92	28	0	933232640	50	6447
2026-01-12 17:50:49.71	299.82	14.60	-39.0	-40.0	21.9	0.00e+00	67	29	0	935329792	50	6455
2026-01-12 17:50:50.72	299.65	14.54	-39.1	-40.2	21.8	0.00e+00	92	29	0	937426944	50	6582
2026-01-12 17:50:51.73	299.47	14.48	-39.2	-40.3	21.7	0.00e+00	0	28	0	938475520	50	6646
2026-01-12 17:50:52.74	299.30	14.42	-39.2	-40.3	21.7	0.00e+00	6	28	0	940572672	50	6648
2026-01-12 17:50:53.74	299.13	14.36	-39.1	-40.2	21.8	0.00e+00	0	28	0	942669824	50	6556
2026-01-12 17:50:54.75	298.96	14.31	-39.2	-40.3	21.7	0.00e+00	0	28	0	944766976	50	6630
2026-01-12 17:50:55.76	298.78	14.25	-39.2	-40.3	21.7	0.00e+00	0	28	0	946864128	50	6665
2026-01-12 17:50:56.77	298.61	14.19	-39.0	-40.1	21.9	0.00e+00	5	28	0	947912704	50	6480
2026-01-12 17:50:57.78	298.44	14.13	-38.9	-40.0	21.9	0.00e+00	92	28	0	950009856	50	6436
2026-01-12 17:50:58.79	298.27	14.07	-39.0	-40.1	21.9	0.00e+00	15	28	0	952107008	50	6466
2026-01-12 17:50:59.80	298.10	14.01	-38.9	-40.0	21.9	0.00e+00	16	28	0	954204160	50	6424
2026-01-12 17:51:00.81	297.94	13.95	-38.9	-40.0	21.9	0.00e+00	15	28	0	956301312	50	6435
2026-01-12 17:51:01.81	297.77	13.89	-39.0	-40.1	21.9	0.00e+00	17	28	0	957349888	50	6489
2026-01-12 17:51:02.82	297.60	13.83	-39.1	-40.2	21.8	0.00e+00	0	28	0	959447040	50	6591
2026-01-12 17:51:03.83	297.44	13.77	-39.0	-40.1	21.8	0.00e+00	72	29	0	961544192	50	6514
2026-01-12 17:51:04.84	297.27	13.71	-39.0	-40.1	21.9	0.00e+00	92	28	0	963641344	50	6495
2026-01-12 17:51:05.85	297.11	13.65	-39.2	-40.3	21.7	0.00e+00	0	29	0	965738496	50	6622
2026-01-12 17:51:06.86	296.94	13.59	-39.1	-40.1	21.8	0.00e+00	92	29	0	966787072	50	6528
2026-01-12 17:51:07.86	296.78	13.53	-39.1	-40.2	21.8	0.00e+00	14	28	0	968884224	50	6591
2026-01-12 17:51:08.87	296.62	13.47	-39.0	-40.1	21.9	0.00e+00	71	29	0	970981376	50	6499
2026-01-12 17:51:09.88	296.46	13.40	-38.8	-39.9	22.1	0.00e+00	0	28	0	973078528	50	6318
2026-01-12 17:51:10.89	296.29	13.34	-38.7	-39.7	22.2	0.00e+00	71	29	0	975175680	50	6211
2026-01-12 17:51:11.89	296.14	13.28	-38.7	-39.7	22.2	0.00e+00	91	28	0	976224256	50	6208
2026-01-12 17:51:12.90	295.98	13.22	-38.6	-39.6	22.3	0.00e+00	69	29	0	978321408	50	6172
2026-01-12 17:51:13.91	295.82	13.16	-38.5	-39.5	22.4	0.00e+00	92	28	0	980418560	50	6057
2026-01-12 17:51:14.92	295.66	13.10	-38.5	-39.5	22.4	0.00e+00	0	29	0	982515712	50	6095
2026-01-12 17:51:15.93	295.50	13.04	-38.4	-39.4	22.5	0.00e+00	2	29	0	984612864	50	6004
2026-01-12 17:51:16.94	295.34	12.98	-38.4	-39.4	22.5	0.00e+00	7	28	0	985661440	50	6009
2026-01-12 17:51:17.95	295.18	12.92	-38.5	-39.5	22.5	0.00e+00	2	28	0	987758592	50	6044
2026-01-12 17:51:18.96	295.03	12.86	-38.4	-39.4	22.5	0.00e+00	0	28	0	989855744	50	5992
2026-01-12 17:51:19.97	294.87	12.79	-38.4	-39.4	22.4	0.00e+00	6	28	0	991952896	50	6016
2026-01-12 17:51:20.98	294.72	12.73	-38.4	-39.4	22.4	0.00e+00	90	28	0	994050048	50	6017
2026-01-12 17:51:21.99	294.56	12.67	-38.3	-39.3	22.5	0.00e+00	8	28	0	996147200	50	5964
2026-01-12 17:51:22.99	294.41	12.61	-38.4	-39.4	22.4	0.00e+00	38	28	0	997195776	50	6018
2026-01-12 17:51:24.00	294.26	12.55	-38.4	-39.4	22.4	0.00e+00	6	28	0	999292928	50	6018
2026-01-12 17:51:25.01	294.11	12.49	-38.3	-39.3	22.5	0.00e+00	10	29	0	1001390080	50	5961
2026-01-12 17:51:26.02	293.96	12.43	-38.4	-39.4	22.4	0.00e+00	13	28	0	1003487232	50	5987
2026-01-12 17:51:27.03	293.80	12.36	-38.3	-39.4	22.5	0.00e+00	70	28	0	1005584384	50	5965
2026-01-12 17:51:28.04	293.65	12.30	-38.1	-39.1	22.7	0.00e+00	92	28	0	1006632960	50	5823
2026-01-12 17:51:29.05	293.50	12.24	-38.0	-38.9	22.9	0.00e+00	17	28	0	1008730112	50	5682
2026-01-12 17:51:30.06	293.36	12.18	-38.0	-38.9	22.9	0.00e+00	90	28	0	1010827264	50	5676
2026-01-12 17:51:31.07	293.21	12.12	-37.8	-38.8	23.1	0.00e+00	65	28	0	1012924416	50	5599
2026-01-12 17:51:32.08	293.06	12.05	-37.7	-38.7	23.1	0.00e+00	0	28	0	1015021568	48	6189
2026-01-12 17:51:33.09	292.91	11.99	-37.6	-38.6	23.2	0.00e+00	0	28	0	1016070144	48	6131
2026-01-12 17:51:34.10	292.77	11.93	-37.7	-38.6	23.1	0.00e+00	65	28	0	1018167296	48	6144
2026-01-12 17:51:35.11	292.62	11.87	-37.7	-38.6	23.1	0.00e+00	83	28	0	1020264448	48	6137
2026-01-12 17:51:36.12	292.47	11.81	-37.7	-38.7	23.1	0.00e+00	0	28	0	1022361600	48	6200
2026-01-12 17:51:37.13	292.33	11.74	-37.7	-38.7	23.1	0.00e+00	90	28	0	1024458752	48	6207
2026-01-12 17:51:38.14	292.19	11.68	-37.7	-38.7	23.0	0.00e+00	0	28	0	1025507328	48	6200
2026-01-12 17:51:39.15	292.04	11.62	-37.7	-38.6	23.1	0.00e+00	2	28	0	1027604480	48	6147
2026-01-12 17:51:40.16	291.90	11.56	-37.8	-38.8	22.8	0.00e+00	0	28	0	1029701632	48	6289
2026-01-12 17:51:41.17	291.76	11.50	-37.6	-38.5	23.1	0.00e+00	16	28	0	1031798784	48	6099
2026-01-12 17:51:42.18	291.62	11.43	-37.6	-38.5	23.2	0.00e+00	0	28	0	1033895936	48	6071
2026-01-12 17:51:43.19	291.48	11.37	-37.6	-38.5	23.2	0.00e+00	2	28	0	1034944512	48	6097
2026-01-12 17:51:44.20	291.33	11.31	-37.5	-38.5	23.2	0.00e+00	92	28	0	1037041664	48	6043
2026-01-12 17:51:45.21	291.20	11.25	-37.4	-38.3	23.4	0.00e+00	15	28	0	1039138816	48	5916
2026-01-12 17:51:46.22	291.06	11.19	-37.3	-38.2	23.2	0.00e+00	66	28	0	1041235968	48	5838
2026-01-12 17:51:47.23	290.92	11.12	-37.2	-38.1	22.9	0.00e+00	5	28	0	1043333120	48	5782
2026-01-12 17:51:48.24	290.78	11.06	-37.4	-38.3	23.2	0.00e+00	14	28	0	1044381696	48	5915
2026-01-12 17:51:49.25	290.64	11.00	-37.1	-38.0	23.6	0.00e+00	0	28	0	1046478848	48	5748
2026-01-12 17:51:50.26	290.51	10.94	-37.2	-38.1	23.5	0.00e+00	10	28	0	1048576000	48	5799
2026-01-12 17:51:51.26	290.37	10.88	-37.2	-38.1	23.5	0.00e+00	91	28	0	1050673152	48	5815
2026-01-12 17:51:52.27	290.24	10.81	-37.3	-38.2	23.4	0.00e+00	72	28	0	1052770304	48	5854
2026-01-12 17:51:53.28	290.10	10.75	-37.4	-38.3	23.3	0.00e+00	91	28	0	1053818880	48	5925
2026-01-12 17:51:54.30	289.96	10.69	-37.4	-38.4	23.3	0.00e+00	2	28	0	1055916032	48	5977
2026-01-12 17:51:55.30	289.83	10.63	-37.5	-38.5	23.2	0.00e+00	0	28	0	1058013184	48	6054
2026-01-12 17:51:56.31	289.70	10.56	-37.5	-38.4	23.3	0.00e+00	0	28	0	1060110336	48	5986
2026-01-12 17:51:57.32	289.57	10.50	-37.6	-38.5	23.2	0.00e+00	0	28	0	1062207488	48	6101
2026-01-12 17:51:58.33	289.43	10.44	-37.5	-38.5	23.2	0.00e+00	91	28	0	1064304640	48	6040
2026-01-12 17:51:59.34	289.30	10.38	-37.5	-38.4	23.2	0.00e+00	0	28	0	1065353216	48	6000
2026-01-12 17:52:00.35	289.17	10.32	-37.6	-38.6	23.0	0.00e+00	92	28	0	1067450368	48	6145
2026-01-12 17:52:01.36	289.04	10.25	-37.5	-38.4	23.3	0.00e+00	0	28	0	1069547520	48	6000
2026-01-12 17:52:02.37	288.91	10.19	-37.6	-38.5	23.2	0.00e+00	0	28	0	1071644672	48	6082
2026-01-12 17:52:03.38	288.78	10.13	-37.6	-38.5	23.2	0.00e+00	0	28	0	1073741824	48	6090
2026-01-12 17:52:04.39	288.65	10.07	-37.6	-38.6	23.1	0.00e+00	16	28	0	1074790400	48	6117
2026-01-12 17:52:05.39	288.53	10.01	-37.7	-38.7	22.9	0.00e+00	2	28	0	1076887552	48	6199
2026-01-12 17:52:06.40	288.40	9.94	-37.8	-38.7	22.9	0.00e+00	0	28	0	1078984704	48	6239
2026-01-12 17:52:07.41	288.27	9.88	-37.8	-38.8	22.8	0.00e+00	92	28	0	1081081856	48	6309
2026-01-12 17:52:08.42	288.15	9.82	-38.0	-39.0	22.6	0.00e+00	15	28	0	1083179008	48	6450
2026-01-12 17:52:09.43	288.02	9.76	-38.1	-39.2	22.4	0.00e+00	92	28	0	1084227584	48	6552
2026-01-12 17:52:10.44	287.89	9.70	-38.1	-39.1	22.6	0.00e+00	2	28	0	1086324736	48	6468
2026-01-12 17:52:11.45	287.77	9.63	-38.3	-39.3	22.5	0.00e+00	0	28	0	1088421888	48	6643
2026-01-12 17:52:12.46	287.64	9.57	-38.0	-39.0	22.7	0.00e+00	14	28	0	1090519040	48	6437
2026-01-12 17:52:13.47	287.52	9.51	-38.0	-39.0	22.7	0.00e+00	0	28	0	1092616192	48	6416
2026-01-12 17:52:14.48	287.40	9.45	-37.8	-38.8	22.8	0.00e+00	92	28	0	1093664768	48	6290
2026-01-12 17:52:15.49	287.27	9.39	-37.9	-38.9	22.8	0.00e+00	0	28	0	1095761920	48	6319
2026-01-12 17:52:16.50	287.15	9.32	-37.7	-38.7	22.9	0.00e+00	92	28	0	1097859072	48	6198
2026-01-12 17:52:17.51	287.03	9.26	-37.8	-38.8	22.9	0.00e+00	0	28	0	1099956224	48	6283
2026-01-12 17:52:18.52	286.91	9.20	-37.9	-38.9	22.8	0.00e+00	0	28	0	1102053376	48	6354
2026-01-12 17:52:19.53	286.79	9.14	-37.8	-38.8	22.9	0.00e+00	0	28	0	1103101952	48	6246
2026-01-12 17:52:20.54	286.67	9.08	-37.6	-38.6	23.0	0.00e+00	0	28	0	1105199104	48	6127
2026-01-12 17:52:21.55	286.55	9.02	-37.8	-38.7	22.9	0.00e+00	81	28	0	1107296256	48	6239
2026-01-12 17:52:22.56	286.43	8.95	-37.8	-38.8	22.7	0.00e+00	0	28	0	1109393408	48	6275
2026-01-12 17:52:23.56	286.31	8.89	-37.9	-38.9	22.6	0.00e+00	92	28	0	1111490560	48	6327
2026-01-12 17:52:24.57	286.20	8.83	-38.0	-39.0	22.6	0.00e+00	7	28	0	1112539136	48	6412
2026-01-12 17:52:25.58	286.08	8.77	-38.1	-39.1	22.5	0.00e+00	41	28	0	1114636288	48	6521
2026-01-12 17:52:26.59	285.96	8.71	-38.1	-39.1	22.4	0.00e+00	0	28	0	1116733440	48	6536
2026-01-12 17:52:27.60	285.84	8.65	-38.3	-39.4	22.3	0.00e+00	0	28	0	1118830592	48	6693
2026-01-12 17:52:28.61	285.73	8.58	-38.3	-39.4	22.3	0.00e+00	0	28	0	1120927744	48	6700
2026-01-12 17:52:29.62	285.61	8.52	-38.5	-39.5	22.1	0.00e+00	67	28	0	1121976320	48	6830
2026-01-12 17:52:30.63	285.50	8.46	-38.5	-39.5	22.1	0.00e+00	92	28	0	1124073472	48	6819
2026-01-12 17:52:31.64	285.38	8.40	-38.6	-39.7	21.9	0.00e+00	68	28	0	1126170624	48	6967
2026-01-12 17:52:32.65	285.27	8.34	-38.6	-39.6	21.9	0.00e+00	90	28	0	1128267776	48	6925
2026-01-12 17:52:33.66	285.16	8.28	-38.5	-39.6	22.0	0.00e+00	71	28	0	1130364928	48	6886
2026-01-12 17:52:34.67	285.04	8.22	-38.6	-39.7	21.9	0.00e+00	0	28	0	1132462080	48	6957
2026-01-12 17:52:35.68	284.93	8.16	-38.6	-39.7	21.9	0.00e+00	0	28	0	1133510656	48	6949
2026-01-12 17:52:36.69	284.82	8.09	-38.6	-39.7	21.8	0.00e+00	67	28	0	1135607808	48	6982
2026-01-12 17:52:37.70	284.71	8.03	-38.7	-39.8	21.8	0.00e+00	89	28	0	1137704960	50	6306
2026-01-12 17:52:38.70	284.60	7.97	-38.8	-39.9	21.7	0.00e+00	0	28	0	1139802112	50	6356
2026-01-12 17:52:39.71	284.49	7.91	-38.8	-39.9	21.6	0.00e+00	91	28	0	1141899264	50	6371
2026-01-12 17:52:40.72	284.38	7.85	-38.9	-40.0	21.6	0.00e+00	0	28	0	1142947840	50	6425
2026-01-12 17:52:41.73	284.27	7.79	-38.9	-40.1	21.6	0.00e+00	5	28	0	1145044992	50	6465
2026-01-12 17:52:42.74	284.16	7.73	-39.0	-40.1	21.5	0.00e+00	1	28	0	1147142144	50	6522
2026-01-12 17:52:43.75	284.05	7.67	-39.3	-40.4	21.3	0.00e+00	0	28	0	1149239296	50	6741
2026-01-12 17:52:44.76	283.94	7.61	-39.2	-40.4	21.2	0.00e+00	71	28	0	1150287872	50	6698
2026-01-12 17:52:45.77	283.83	7.55	-39.2	-40.3	21.3	0.00e+00	5	28	0	1152385024	50	6690
2026-01-12 17:52:46.78	283.72	7.49	-39.2	-40.4	21.2	0.00e+00	91	28	0	1154482176	50	6739
2026-01-12 17:52:47.79	283.62	7.43	-39.3	-40.5	21.0	0.00e+00	12	28	0	1156579328	50	6801
2026-01-12 17:52:48.80	283.51	7.36	-39.4	-40.6	21.0	0.00e+00	40	28	0	1158676480	50	6925
2026-01-12 17:52:49.81	283.40	7.30	-39.6	-40.8	20.9	0.00e+00	5	28	0	1160773632	50	7071
2026-01-12 17:52:50.82	283.30	7.24	-39.4	-40.6	21.1	0.00e+00	79	28	0	1161822208	50	6850
2026-01-12 17:52:51.83	283.19	7.18	-39.5	-40.7	20.8	0.00e+00	0	28	0	1163919360	50	6998
2026-01-12 17:52:52.84	283.09	7.12	-39.4	-40.6	21.0	0.00e+00	79	28	0	1166016512	50	6883
2026-01-12 17:52:53.85	282.99	7.06	-39.6	-40.8	20.8	0.00e+00	90	28	0	1168113664	50	7047
2026-01-12 17:52:54.85	282.88	7.00	-39.6	-40.8	20.7	0.00e+00	6	28	0	1170210816	50	7085
2026-01-12 17:52:55.86	282.78	6.94	-39.6	-40.8	20.7	0.00e+00	90	28	0	1171259392	50	7070
2026-01-12 17:52:56.87	282.68	6.88	-39.7	-40.9	20.7	0.00e+00	0	28	0	1173356544	50	7137
2026-01-12 17:52:57.88	282.57	6.82	-39.7	-40.9	20.7	0.00e+00	0	28	0	1175453696	50	7138
2026-01-12 17:52:58.89	282.47	6.76	-39.8	-41.0	20.5	0.00e+00	0	28	0	1177550848	50	7252
2026-01-12 17:52:59.90	282.37	6.70	-39.7	-40.9	20.6	0.00e+00	76	28	0	1179648000	52	6374
2026-01-12 17:53:00.91	282.27	6.64	-39.9	-41.2	20.5	0.00e+00	91	28	0	1180696576	52	6548
2026-01-12 17:53:01.92	282.17	6.58	-39.9	-41.2	20.4	0.00e+00	0	28	0	1182793728	52	6564
2026-01-12 17:53:02.93	282.07	6.52	-40.1	-41.4	20.2	0.00e+00	92	28	0	1184890880	52	6721
2026-01-12 17:53:03.94	281.97	6.46	-40.0	-41.3	20.2	0.00e+00	0	28	0	1186988032	52	6685
2026-01-12 17:53:04.95	281.87	6.40	-40.0	-41.3	20.2	0.00e+00	20	28	0	1189085184	52	6661
2026-01-12 17:53:05.96	281.77	6.34	-39.9	-41.2	20.3	0.00e+00	0	28	0	1190133760	52	6570
2026-01-12 17:53:06.97	281.67	6.28	-40.0	-41.4	20.2	0.00e+00	12	28	0	1192230912	52	6714
2026-01-12 17:53:07.98	281.57	6.22	-40.0	-41.3	20.3	0.00e+00	70	28	0	1194328064	52	6633
2026-01-12 17:53:08.99	281.47	6.16	-40.0	-41.3	20.2	0.00e+00	11	28	0	1196425216	52	6632
2026-01-12 17:53:10.00	281.38	6.11	-40.1	-41.4	20.1	0.00e+00	91	28	0	1198522368	52	6734
2026-01-12 17:53:11.01	281.28	6.05	-39.9	-41.2	20.2	0.00e+00	11	28	0	1199570944	52	6609
2026-01-12 17:53:12.01	281.18	5.99	-39.9	-41.2	20.3	0.00e+00	12	28	0	1201668096	52	6590
