passes_logs/2026/01/12/R4.6S_Anadyr/R4.6S_Anadyr__20260112_151119_NOAA_21_JPSS-2_rec.log

#Pass ID: 20260112_151119_NOAA 21 (JPSS-2)
#Satellite: NOAA 21 (JPSS-2)
#Configuration: NOAA-21
#almurnet v.1.7.20251203
#Start time: 2026-01-12 15:11:21

#Version: 2.2.20231116
#Station: R4.6S_Anadyr
#Location: 177.4865 lon 64.73178 lat
#TLE: 1 54234U 22150A   26011.55893233  .00000075  00000+0  56634-4 0  9995
#TLE: 2 54234  98.7494 312.5004 0000755 313.1908  46.9205 14.19534095164321

#Time	Az	El	Level	Level2	SNR	BER	BlckErr	Temp	State	Recorded	gain1	gain2
2026-01-12 15:11:21.47	21.57	0.15	-48.4	-63.3	3.5	1.51e+00	0	27	0	0	60	52639
2026-01-12 15:11:22.47	21.56	0.20	-49.2	-62.1	3.5	1.52e+00	0	28	104	0	60	44447
2026-01-12 15:11:23.48	21.55	0.27	-48.8	-61.7	3.5	1.52e+00	0	28	104	0	60	42769
2026-01-12 15:11:24.49	21.54	0.33	-48.7	-61.6	3.5	1.52e+00	0	29	104	0	60	42338
2026-01-12 15:11:25.50	21.53	0.39	-48.7	-61.5	3.5	1.51e+00	0	29	104	0	60	41721
2026-01-12 15:11:26.51	21.52	0.45	-48.6	-61.5	3.5	1.52e+00	0	29	104	0	60	41811
2026-01-12 15:11:27.52	21.51	0.51	-48.9	-61.7	3.5	1.52e+00	0	29	104	0	60	42752
2026-01-12 15:11:28.53	21.50	0.57	-48.7	-61.5	3.5	1.52e+00	0	29	104	0	60	41814
2026-01-12 15:11:29.54	21.50	0.63	-48.6	-61.4	3.5	1.52e+00	0	29	104	0	60	41414
2026-01-12 15:11:30.55	21.49	0.69	-48.5	-61.4	3.5	1.51e+00	0	29	104	0	60	41199
2026-01-12 15:11:31.56	21.48	0.75	-48.7	-61.6	3.5	1.52e+00	0	29	104	0	60	41959
2026-01-12 15:11:32.57	21.47	0.82	-48.3	-61.2	3.5	1.52e+00	0	29	104	0	60	40192
2026-01-12 15:11:33.58	21.46	0.88	-48.3	-61.2	3.5	1.52e+00	0	29	104	0	60	40209
2026-01-12 15:11:34.59	21.45	0.94	-47.6	-60.8	3.5	1.51e+00	0	29	104	0	60	38368
2026-01-12 15:11:35.60	21.44	1.00	-47.8	-60.6	3.5	1.52e+00	0	29	104	0	60	37757
2026-01-12 15:11:36.61	21.43	1.06	-47.5	-60.3	3.5	1.52e+00	0	29	104	0	60	36293
2026-01-12 15:11:37.62	21.42	1.13	-47.1	-59.9	3.5	1.52e+00	0	29	104	0	60	34586
2026-01-12 15:11:38.63	21.41	1.19	-47.1	-59.9	3.5	1.52e+00	0	29	104	0	60	34758
2026-01-12 15:11:39.64	21.40	1.25	-47.2	-60.0	3.5	1.52e+00	0	29	104	0	60	35101
2026-01-12 15:11:40.65	21.39	1.31	-47.1	-59.8	3.5	1.51e+00	0	29	104	0	60	34315
2026-01-12 15:11:41.66	21.38	1.38	-47.2	-59.8	3.5	1.52e+00	0	29	104	0	60	34491
2026-01-12 15:11:42.67	21.37	1.44	-47.2	-59.8	3.5	1.52e+00	0	29	104	0	60	34457
2026-01-12 15:11:43.68	21.36	1.50	-47.2	-59.6	3.5	1.52e+00	0	29	104	0	60	33629
2026-01-12 15:11:44.69	21.35	1.56	-47.1	-59.4	3.5	1.52e+00	0	29	104	0	60	32701
2026-01-12 15:11:45.70	21.34	1.63	-47.3	-59.7	3.5	1.52e+00	0	29	104	0	60	34074
2026-01-12 15:11:46.71	21.33	1.69	-47.1	-59.5	3.5	1.52e+00	0	29	104	0	60	33320
2026-01-12 15:11:47.72	21.32	1.76	-47.0	-59.6	3.5	1.51e+00	0	29	104	0	60	33357
2026-01-12 15:11:48.73	21.31	1.82	-47.1	-59.6	3.5	1.52e+00	0	29	104	0	60	33664
2026-01-12 15:11:49.74	21.30	1.88	-47.1	-59.8	3.5	1.52e+00	0	29	104	0	60	34274
2026-01-12 15:11:50.75	21.29	1.95	-47.1	-59.8	3.5	1.52e+00	0	29	104	0	60	34463
2026-01-12 15:11:51.76	21.28	2.01	-47.1	-59.8	3.5	1.52e+00	0	29	104	0	60	34369
2026-01-12 15:11:52.77	21.27	2.08	-47.0	-59.8	3.5	1.52e+00	0	29	104	0	60	34139
2026-01-12 15:11:53.78	21.26	2.14	-47.0	-59.7	3.5	1.52e+00	0	29	104	0	60	34098
2026-01-12 15:11:54.79	21.25	2.20	-47.0	-59.6	3.5	1.52e+00	0	29	104	0	60	33682
2026-01-12 15:11:55.80	21.24	2.27	-47.0	-59.4	3.5	1.51e+00	0	29	104	0	60	32833
2026-01-12 15:11:56.81	21.23	2.33	-47.0	-59.3	3.5	1.52e+00	0	29	104	0	60	32350
2026-01-12 15:11:57.82	21.22	2.40	-46.9	-59.1	3.5	1.52e+00	0	29	104	0	60	31711
2026-01-12 15:11:58.83	21.21	2.46	-46.9	-58.7	3.5	1.51e+00	0	29	104	0	60	30105
2026-01-12 15:11:59.83	21.19	2.53	-46.8	-57.9	3.6	1.51e+00	0	29	104	0	60	27472
2026-01-12 15:12:00.84	21.18	2.59	-46.8	-57.8	3.6	1.51e+00	0	29	104	0	60	27402
2026-01-12 15:12:01.85	21.17	2.66	-46.9	-57.9	3.5	1.50e+00	0	29	104	0	60	27688
2026-01-12 15:12:02.86	21.16	2.73	-46.8	-57.7	3.5	1.51e+00	0	29	104	0	60	27025
2026-01-12 15:12:03.87	21.15	2.79	-46.9	-58.0	3.6	1.51e+00	0	29	104	0	60	27752
2026-01-12 15:12:04.88	21.14	2.86	-46.9	-58.0	3.7	1.51e+00	0	29	104	0	60	27755
2026-01-12 15:12:05.89	21.13	2.92	-46.7	-56.9	3.6	1.51e+00	0	29	104	0	60	24580
2026-01-12 15:12:06.90	21.12	2.99	-46.3	-53.7	5.3	6.67e-01	122	29	0	0	60	16992
2026-01-12 15:12:07.91	21.10	3.06	-45.7	-51.8	7.5	1.22e-01	122	29	104	0	60	13613
2026-01-12 15:12:08.92	21.09	3.12	-45.0	-49.1	9.8	2.52e-02	122	29	0	2097152	60	10014
2026-01-12 15:12:09.93	21.08	3.19	-44.0	-47.3	12.1	1.82e-03	123	29	0	5242880	60	8091
2026-01-12 15:12:10.94	21.07	3.26	-43.3	-46.0	13.0	5.87e-05	123	29	0	8388608	60	7007
2026-01-12 15:12:11.95	21.06	3.32	-43.0	-45.6	13.5	4.50e-06	122	29	0	11534336	58	7476
2026-01-12 15:12:12.96	21.05	3.39	-41.8	-43.9	15.4	0.00e+00	123	29	0	14680064	56	6907
2026-01-12 15:12:13.97	21.03	3.46	-41.2	-43.0	16.1	0.00e+00	123	29	0	17825792	56	6255
2026-01-12 15:12:14.98	21.02	3.53	-40.8	-42.6	16.5	0.00e+00	120	29	0	20971520	56	5950
2026-01-12 15:12:15.99	21.01	3.60	-41.1	-42.9	16.3	0.00e+00	123	29	0	24117248	56	6184
2026-01-12 15:12:17.00	21.00	3.66	-41.5	-43.4	15.8	0.00e+00	121	29	0	27262976	56	6537
2026-01-12 15:12:18.01	20.99	3.73	-41.9	-43.9	15.2	0.00e+00	122	29	0	30408704	56	6955
2026-01-12 15:12:19.02	20.97	3.80	-42.5	-44.8	14.1	0.00e+00	123	29	0	33554432	56	7680
2026-01-12 15:12:20.03	20.96	3.87	-47.1	-59.8	3.5	1.52e+00	0	29	104	35651584	60	34339
2026-01-12 15:12:21.04	20.95	3.94	-38.2	-39.8	18.6	6.26e-01	122	29	104	35651584	48	6866
2026-01-12 15:12:22.05	20.94	4.01	-46.8	-58.3	3.6	1.53e+00	0	29	104	35651584	60	28922
2026-01-12 15:12:23.06	20.92	4.07	-43.0	-45.5	14.7	0.00e+00	123	29	0	35651584	56	8290
2026-01-12 15:12:24.06	20.91	4.14	-46.7	-57.3	3.6	3.55e-01	0	29	104	38797312	60	25729
2026-01-12 15:12:25.07	20.90	4.21	-40.4	-42.1	17.1	7.00e-07	122	29	0	38797312	54	6303
2026-01-12 15:12:26.08	20.88	4.28	-40.5	-42.1	17.2	0.00e+00	120	29	0	41943040	54	6319
2026-01-12 15:12:27.09	20.87	4.35	-38.8	-40.2	18.9	0.00e+00	122	29	0	45088768	52	5665
2026-01-12 15:12:28.10	20.86	4.42	-38.9	-40.3	19.1	0.00e+00	123	29	0	48234496	50	6433
2026-01-12 15:12:29.11	20.85	4.49	-38.3	-39.5	19.5	0.00e+00	122	29	0	51380224	50	5889
2026-01-12 15:12:30.12	20.83	4.56	-38.6	-39.9	19.2	0.00e+00	122	29	0	54525952	50	6190
2026-01-12 15:12:31.13	20.82	4.63	-38.8	-40.1	19.1	0.00e+00	122	29	0	57671680	50	6311
2026-01-12 15:12:32.14	20.81	4.70	-38.7	-40.0	18.6	0.00e+00	123	29	0	60817408	50	6255
2026-01-12 15:12:33.15	20.79	4.77	-38.4	-39.7	19.3	0.00e+00	122	29	0	63963136	50	6021
2026-01-12 15:12:34.16	20.78	4.84	-38.4	-39.7	19.8	0.00e+00	122	29	0	67108864	50	6007
2026-01-12 15:12:35.17	20.76	4.92	-38.3	-39.6	19.6	0.00e+00	123	29	0	70254592	50	5927
2026-01-12 15:12:36.18	20.75	4.99	-38.3	-39.6	19.9	0.00e+00	120	29	0	73400320	50	5955
2026-01-12 15:12:37.19	20.74	5.06	-38.6	-39.9	19.5	0.00e+00	122	29	0	76546048	50	6137
2026-01-12 15:12:38.20	20.72	5.13	-37.9	-39.1	19.9	0.00e+00	120	29	0	79691776	50	5639
2026-01-12 15:12:39.21	20.71	5.20	-38.0	-39.2	20.2	0.00e+00	123	29	0	82837504	48	6365
2026-01-12 15:12:40.21	20.70	5.27	-38.2	-39.4	19.6	0.00e+00	123	29	0	85983232	48	6545
2026-01-12 15:12:41.22	20.68	5.35	-38.2	-39.5	19.8	0.00e+00	123	29	0	89128960	48	6582
2026-01-12 15:12:42.23	20.67	5.42	-38.1	-39.3	19.8	0.00e+00	120	29	0	92274688	48	6443
2026-01-12 15:12:43.24	20.65	5.49	-37.9	-39.1	20.3	0.00e+00	122	29	0	95420416	48	6300
2026-01-12 15:12:44.25	20.64	5.56	-38.0	-39.2	20.1	0.00e+00	123	29	0	98566144	48	6365
2026-01-12 15:12:45.26	20.62	5.64	-37.2	-38.3	20.8	0.00e+00	122	29	0	101711872	48	5745
2026-01-12 15:12:46.27	20.61	5.71	-37.6	-38.7	20.3	0.00e+00	123	29	0	104857600	48	6050
2026-01-12 15:12:47.28	20.59	5.78	-38.0	-39.2	20.0	0.00e+00	122	29	0	108003328	48	6393
2026-01-12 15:12:48.29	20.58	5.86	-37.7	-38.9	20.2	0.00e+00	122	29	0	111149056	48	6152
2026-01-12 15:12:49.30	20.56	5.93	-37.5	-38.6	20.7	0.00e+00	123	29	0	114294784	48	5990
2026-01-12 15:12:50.31	20.55	6.01	-37.4	-38.5	20.8	0.00e+00	123	29	0	117440512	48	5902
2026-01-12 15:12:51.31	20.53	6.08	-37.2	-38.3	20.8	0.00e+00	123	29	0	120586240	48	5782
2026-01-12 15:12:52.32	20.52	6.15	-36.9	-38.0	21.1	0.00e+00	123	29	0	123731968	48	5568
2026-01-12 15:12:53.33	20.50	6.23	-36.8	-37.9	21.3	0.00e+00	122	29	0	126877696	46	6170
2026-01-12 15:12:54.34	20.49	6.30	-37.0	-38.1	21.1	0.00e+00	123	29	0	130023424	46	6315
2026-01-12 15:12:55.35	20.47	6.38	-37.3	-38.4	20.9	0.00e+00	122	29	0	133169152	46	6521
2026-01-12 15:12:56.36	20.46	6.46	-37.3	-38.4	20.9	0.00e+00	123	29	0	136314880	46	6560
2026-01-12 15:12:57.37	20.44	6.53	-37.0	-38.1	21.1	0.00e+00	122	29	0	139460608	46	6348
2026-01-12 15:12:58.38	20.42	6.61	-37.1	-38.2	21.1	0.00e+00	122	29	0	142606336	46	6379
2026-01-12 15:12:59.39	20.41	6.68	-36.9	-38.0	21.4	0.00e+00	122	29	0	145752064	46	6217
2026-01-12 15:13:00.40	20.39	6.76	-36.6	-37.7	21.5	0.00e+00	123	29	0	148897792	46	6032
2026-01-12 15:13:01.41	20.38	6.84	-36.4	-37.4	21.7	0.00e+00	123	29	0	152043520	46	5855
2026-01-12 15:13:02.42	20.36	6.91	-36.5	-37.6	21.6	0.00e+00	121	29	0	155189248	46	5970
2026-01-12 15:13:03.43	20.34	6.99	-36.4	-37.5	21.6	0.00e+00	123	29	0	158334976	46	5875
2026-01-12 15:13:04.44	20.33	7.07	-36.5	-37.5	21.6	0.00e+00	122	29	0	161480704	46	5901
2026-01-12 15:13:05.45	20.31	7.14	-36.2	-37.2	21.9	0.00e+00	122	29	0	164626432	46	5717
2026-01-12 15:13:06.46	20.29	7.22	-36.4	-37.4	21.7	0.00e+00	123	29	0	167772160	46	5822
2026-01-12 15:13:07.47	20.28	7.30	-36.3	-37.3	21.8	0.00e+00	120	29	0	170917888	46	5765
2026-01-12 15:13:08.48	20.26	7.38	-36.3	-37.3	21.9	0.00e+00	123	29	0	174063616	46	5771
2026-01-12 15:13:09.49	20.24	7.46	-36.3	-37.4	21.9	0.00e+00	120	29	0	178257920	46	5810
2026-01-12 15:13:10.49	20.23	7.53	-36.3	-37.3	21.9	0.00e+00	123	29	0	180355072	46	5767
2026-01-12 15:13:11.50	20.21	7.61	-36.4	-37.4	21.8	0.00e+00	122	29	0	183500800	46	5849
2026-01-12 15:13:12.51	20.19	7.69	-36.3	-37.4	21.9	0.00e+00	121	29	0	186646528	46	5792
2026-01-12 15:13:13.52	20.17	7.77	-36.2	-37.3	21.9	0.00e+00	123	29	0	189792256	46	5762
2026-01-12 15:13:14.53	20.16	7.85	-36.2	-37.2	21.9	0.00e+00	123	29	0	193986560	46	5704
2026-01-12 15:13:15.54	20.14	7.93	-36.3	-37.3	21.9	0.00e+00	120	29	0	197132288	46	5785
2026-01-12 15:13:16.55	20.12	8.01	-36.3	-37.3	21.9	0.00e+00	123	29	0	200278016	46	5755
2026-01-12 15:13:17.56	20.10	8.09	-36.2	-37.2	21.9	0.00e+00	121	29	0	202375168	46	5721
2026-01-12 15:13:18.56	20.08	8.17	-36.1	-37.1	22.0	0.00e+00	123	29	0	205520896	46	5645
2026-01-12 15:13:19.57	20.07	8.25	-36.1	-37.1	22.0	0.00e+00	122	29	0	208666624	46	5637
2026-01-12 15:13:20.58	20.05	8.33	-36.2	-37.3	22.0	0.00e+00	123	29	0	212860928	46	5733
2026-01-12 15:13:21.59	20.03	8.41	-36.2	-37.3	21.9	0.00e+00	120	29	0	216006656	46	5755
2026-01-12 15:13:22.60	20.01	8.50	-35.9	-36.9	22.2	0.00e+00	122	29	0	219152384	46	5502
2026-01-12 15:13:23.61	19.99	8.58	-36.0	-37.0	22.2	0.00e+00	123	29	0	222298112	46	5561
2026-01-12 15:13:24.62	19.97	8.66	-36.0	-37.1	22.2	0.00e+00	122	29	0	225443840	46	5602
2026-01-12 15:13:25.63	19.95	8.74	-36.0	-37.0	22.2	0.00e+00	123	29	0	228589568	46	5547
2026-01-12 15:13:26.64	19.93	8.82	-36.0	-37.0	22.3	0.00e+00	120	29	0	231735296	46	5545
2026-01-12 15:13:27.65	19.92	8.91	-36.1	-37.1	22.2	0.00e+00	123	29	0	234881024	46	5629
2026-01-12 15:13:28.66	19.90	8.99	-36.2	-37.2	22.0	0.00e+00	123	29	0	238026752	46	5706
2026-01-12 15:13:29.67	19.88	9.07	-35.8	-36.8	22.4	0.00e+00	122	29	0	241172480	46	5427
2026-01-12 15:13:30.68	19.86	9.16	-35.6	-36.6	22.6	0.00e+00	123	29	0	244318208	44	5965
2026-01-12 15:13:31.69	19.84	9.24	-35.8	-36.8	22.5	0.00e+00	120	29	0	247463936	44	6092
2026-01-12 15:13:32.70	19.82	9.33	-35.6	-36.6	22.6	0.00e+00	123	29	0	250609664	44	5971
2026-01-12 15:13:33.71	19.80	9.41	-35.7	-36.7	22.5	0.00e+00	123	29	0	253755392	44	5996
2026-01-12 15:13:34.72	19.78	9.50	-35.5	-36.5	22.6	0.00e+00	120	29	0	256901120	44	5891
2026-01-12 15:13:35.73	19.76	9.58	-35.5	-36.5	22.6	0.00e+00	122	29	0	260046848	44	5920
2026-01-12 15:13:36.74	19.74	9.67	-35.5	-36.5	22.6	0.00e+00	123	29	0	263192576	44	5920
2026-01-12 15:13:37.75	19.71	9.75	-35.5	-36.5	22.6	0.00e+00	122	29	0	266338304	44	5864
2026-01-12 15:13:38.76	19.69	9.84	-35.4	-36.4	22.6	0.00e+00	120	29	0	269484032	44	5848
2026-01-12 15:13:39.76	19.67	9.92	-35.4	-36.4	22.7	0.00e+00	123	29	0	272629760	44	5831
2026-01-12 15:13:40.77	19.65	10.01	-35.4	-36.4	22.8	0.00e+00	123	29	0	275775488	44	5799
2026-01-12 15:13:41.79	19.63	10.10	-35.3	-36.3	22.8	0.00e+00	122	29	0	278921216	44	5739
2026-01-12 15:13:42.80	19.61	10.19	-35.2	-36.2	22.9	0.00e+00	120	29	0	282066944	44	5696
2026-01-12 15:13:43.81	19.59	10.27	-35.3	-36.3	22.9	0.00e+00	122	29	0	285212672	44	5738
2026-01-12 15:13:44.82	19.57	10.36	-35.3	-36.3	22.9	0.00e+00	123	29	0	288358400	44	5739
2026-01-12 15:13:45.83	19.54	10.45	-35.1	-36.1	23.0	0.00e+00	120	29	0	291504128	44	5609
2026-01-12 15:13:46.84	19.52	10.54	-35.2	-36.1	22.9	0.00e+00	122	29	0	294649856	44	5652
2026-01-12 15:13:47.85	19.50	10.63	-35.2	-36.2	23.0	0.00e+00	120	29	0	297795584	44	5663
2026-01-12 15:13:48.86	19.48	10.71	-35.3	-36.2	23.0	0.00e+00	123	29	0	300941312	44	5717
2026-01-12 15:13:49.87	19.45	10.80	-35.2	-36.2	23.0	0.00e+00	123	29	0	304087040	44	5705
2026-01-12 15:13:50.88	19.43	10.89	-35.1	-36.0	23.2	0.00e+00	123	29	0	307232768	44	5592
2026-01-12 15:13:51.89	19.41	10.98	-35.0	-36.0	23.1	0.00e+00	120	29	0	310378496	44	5569
2026-01-12 15:13:52.90	19.39	11.07	-35.1	-36.1	23.1	0.00e+00	122	29	0	313524224	44	5626
2026-01-12 15:13:53.91	19.36	11.17	-35.0	-36.0	23.2	0.00e+00	122	29	0	316669952	44	5579
2026-01-12 15:13:54.92	19.34	11.26	-34.9	-35.8	23.3	0.00e+00	122	29	0	319815680	44	5453
2026-01-12 15:13:55.93	19.32	11.35	-34.9	-35.9	23.3	0.00e+00	120	29	0	322961408	44	5474
2026-01-12 15:13:56.94	19.29	11.44	-34.9	-35.8	23.4	0.00e+00	122	29	0	326107136	44	5447
2026-01-12 15:13:57.95	19.27	11.53	-34.9	-35.8	23.4	0.00e+00	123	29	0	329252864	44	5463
2026-01-12 15:13:58.96	19.24	11.62	-35.0	-35.9	23.2	0.00e+00	120	29	0	332398592	44	5515
2026-01-12 15:13:59.97	19.22	11.72	-35.0	-36.0	23.1	0.00e+00	122	29	0	335544320	44	5555
2026-01-12 15:14:00.97	19.20	11.81	-34.8	-35.7	23.4	0.00e+00	123	29	0	338690048	44	5394
2026-01-12 15:14:01.97	19.17	11.90	-34.9	-35.9	23.4	0.00e+00	120	29	0	341835776	44	5473
2026-01-12 15:14:02.98	19.15	11.99	-35.0	-36.0	23.3	0.00e+00	123	29	0	344981504	44	5550
2026-01-12 15:14:03.99	19.12	12.09	-34.9	-35.8	23.4	0.00e+00	122	29	0	348127232	44	5447
2026-01-12 15:14:05.00	19.10	12.18	-34.7	-35.7	23.5	0.00e+00	122	29	0	351272960	42	6022
2026-01-12 15:14:06.01	19.07	12.28	-34.7	-35.7	23.5	0.00e+00	122	29	0	354418688	42	6021
2026-01-12 15:14:07.01	19.05	12.37	-34.7	-35.6	23.5	0.00e+00	122	29	0	357564416	42	5954
2026-01-12 15:14:08.02	19.02	12.47	-34.7	-35.7	23.5	0.00e+00	120	29	0	360710144	42	6004
2026-01-12 15:14:09.04	18.99	12.56	-34.6	-35.5	23.6	0.00e+00	123	29	0	363855872	42	5903
2026-01-12 15:14:10.04	18.97	12.66	-34.6	-35.5	23.6	0.00e+00	120	29	0	367001600	42	5922
2026-01-12 15:14:11.05	18.94	12.76	-34.7	-35.6	23.6	0.00e+00	123	29	0	370147328	42	5987
2026-01-12 15:14:12.07	18.91	12.85	-34.6	-35.5	23.7	0.00e+00	120	29	0	373293056	42	5924
2026-01-12 15:14:13.07	18.89	12.95	-34.7	-35.7	23.6	0.00e+00	121	29	0	376438784	42	6003
2026-01-12 15:14:14.08	18.86	13.05	-34.6	-35.5	23.6	0.00e+00	123	29	0	379584512	42	5888
2026-01-12 15:14:15.09	18.83	13.15	-34.7	-35.7	23.6	0.00e+00	123	29	0	382730240	42	6011
2026-01-12 15:14:16.11	18.81	13.25	-34.7	-35.6	23.6	0.00e+00	122	29	0	385875968	42	5947
2026-01-12 15:14:17.12	18.78	13.35	-34.5	-35.4	23.7	0.00e+00	120	29	0	389021696	42	5830
2026-01-12 15:14:18.13	18.75	13.45	-34.6	-35.6	23.6	0.00e+00	122	29	0	392167424	42	5932
2026-01-12 15:14:19.14	18.72	13.55	-34.5	-35.4	23.7	0.00e+00	122	29	0	395313152	42	5856
2026-01-12 15:14:20.15	18.69	13.65	-34.6	-35.5	23.7	0.00e+00	123	29	0	398458880	42	5926
2026-01-12 15:14:21.16	18.67	13.75	-34.7	-35.6	23.5	0.00e+00	123	29	0	401604608	42	5988
2026-01-12 15:14:22.17	18.64	13.85	-34.8	-35.7	23.5	0.00e+00	123	29	0	404750336	42	6039
2026-01-12 15:14:23.18	18.61	13.95	-34.6	-35.5	23.6	0.00e+00	123	29	0	407896064	42	5920
2026-01-12 15:14:24.19	18.58	14.05	-34.5	-35.4	23.8	0.00e+00	123	29	0	411041792	42	5826
2026-01-12 15:14:25.20	18.55	14.15	-34.6	-35.5	23.7	0.00e+00	123	29	0	414187520	42	5892
2026-01-12 15:14:26.21	18.52	14.25	-34.5	-35.5	23.7	0.00e+00	120	29	0	417333248	42	5875
2026-01-12 15:14:27.22	18.49	14.36	-34.6	-35.6	23.6	0.00e+00	123	29	0	420478976	42	5948
2026-01-12 15:14:28.23	18.46	14.46	-34.5	-35.4	23.7	0.00e+00	122	29	0	423624704	42	5823
2026-01-12 15:14:29.24	18.43	14.57	-34.5	-35.4	23.7	0.00e+00	123	29	0	426770432	42	5823
2026-01-12 15:14:30.25	18.40	14.67	-34.5	-35.4	23.7	0.00e+00	123	29	0	429916160	42	5853
2026-01-12 15:14:31.26	18.37	14.77	-34.5	-35.4	23.7	0.00e+00	123	29	0	433061888	42	5842
2026-01-12 15:14:32.27	18.34	14.88	-34.6	-35.5	23.6	0.00e+00	120	29	0	436207616	42	5909
2026-01-12 15:14:33.28	18.31	14.99	-34.6	-35.5	23.6	0.00e+00	122	29	0	439353344	42	5917
2026-01-12 15:14:34.29	18.27	15.09	-34.5	-35.4	23.8	0.00e+00	123	29	0	442499072	42	5830
2026-01-12 15:14:35.30	18.24	15.20	-34.5	-35.4	23.8	0.00e+00	123	29	0	445644800	42	5824
2026-01-12 15:14:36.31	18.21	15.31	-34.5	-35.4	23.7	0.00e+00	122	29	0	448790528	42	5824
2026-01-12 15:14:37.32	18.18	15.41	-34.4	-35.4	23.7	0.00e+00	123	29	0	451936256	42	5804
2026-01-12 15:14:38.32	18.15	15.52	-34.5	-35.4	23.7	0.00e+00	123	29	0	455081984	42	5832
2026-01-12 15:14:39.33	18.11	15.63	-34.4	-35.4	23.8	0.00e+00	123	29	0	458227712	42	5795
2026-01-12 15:14:40.34	18.08	15.74	-34.5	-35.4	23.7	0.00e+00	122	29	0	461373440	42	5851
2026-01-12 15:14:41.35	18.05	15.85	-34.4	-35.4	23.8	0.00e+00	123	29	0	464519168	42	5798
2026-01-12 15:14:42.36	18.01	15.96	-34.6	-35.6	23.7	0.00e+00	123	29	0	467664896	42	5928
2026-01-12 15:14:43.37	17.98	16.07	-34.7	-35.6	23.6	0.00e+00	122	29	0	470810624	42	5965
2026-01-12 15:14:44.38	17.94	16.18	-34.4	-35.4	23.8	0.00e+00	119	29	0	473956352	42	5793
2026-01-12 15:14:45.39	17.91	16.29	-34.4	-35.4	23.8	0.00e+00	123	29	0	477102080	42	5800
2026-01-12 15:14:46.40	17.88	16.40	-34.4	-35.3	23.8	0.00e+00	123	29	0	480247808	42	5784
2026-01-12 15:14:47.41	17.84	16.51	-34.4	-35.3	23.8	0.00e+00	123	29	0	483393536	42	5780
2026-01-12 15:14:48.42	17.81	16.63	-34.5	-35.5	23.7	0.00e+00	122	29	0	486539264	42	5860
2026-01-12 15:14:49.43	17.77	16.74	-34.4	-35.3	23.8	0.00e+00	123	29	0	489684992	42	5774
2026-01-12 15:14:50.44	17.73	16.85	-34.4	-35.3	23.8	0.00e+00	123	29	0	492830720	42	5758
2026-01-12 15:14:51.45	17.70	16.97	-34.5	-35.4	23.8	0.00e+00	122	29	0	495976448	42	5849
2026-01-12 15:14:52.46	17.66	17.08	-34.4	-35.4	23.9	0.00e+00	120	29	0	499122176	42	5798
2026-01-12 15:14:53.47	17.62	17.20	-34.5	-35.4	23.9	0.00e+00	122	29	0	502267904	42	5813
2026-01-12 15:14:54.48	17.59	17.32	-34.5	-35.4	23.9	0.00e+00	123	29	0	505413632	42	5815
2026-01-12 15:14:55.49	17.55	17.43	-34.4	-35.4	23.8	0.00e+00	122	29	0	508559360	42	5795
2026-01-12 15:14:56.50	17.51	17.55	-34.6	-35.5	23.8	0.00e+00	123	29	0	511705088	42	5907
2026-01-12 15:14:57.51	17.47	17.67	-34.3	-35.3	23.9	0.00e+00	123	29	0	514850816	42	5732
2026-01-12 15:14:58.51	17.43	17.78	-34.4	-35.3	23.9	0.00e+00	120	29	0	517996544	42	5748
2026-01-12 15:14:59.52	17.40	17.90	-34.5	-35.4	23.8	0.00e+00	123	29	0	521142272	42	5818
2026-01-12 15:15:00.53	17.36	18.02	-34.4	-35.3	23.9	0.00e+00	119	29	0	524288000	42	5785
2026-01-12 15:15:01.54	17.32	18.14	-34.5	-35.4	23.9	0.00e+00	122	29	0	527433728	42	5807
2026-01-12 15:15:02.55	17.28	18.26	-34.4	-35.3	23.9	0.00e+00	123	29	0	530579456	42	5789
2026-01-12 15:15:03.56	17.24	18.38	-34.4	-35.3	23.9	0.00e+00	120	29	0	533725184	42	5781
2026-01-12 15:15:04.57	17.20	18.50	-34.4	-35.3	23.9	0.00e+00	120	29	0	536870912	42	5767
2026-01-12 15:15:05.58	17.16	18.63	-34.6	-35.5	23.8	0.00e+00	122	29	0	541065216	42	5906
2026-01-12 15:15:06.59	17.11	18.75	-34.4	-35.3	23.9	0.00e+00	122	29	0	543162368	42	5740
2026-01-12 15:15:07.60	17.07	18.87	-34.5	-35.4	23.8	0.00e+00	123	29	0	546308096	42	5836
2026-01-12 15:15:08.61	17.03	19.00	-34.3	-35.2	23.9	0.00e+00	123	29	0	549453824	42	5677
2026-01-12 15:15:09.62	16.99	19.12	-34.4	-35.3	23.8	0.00e+00	121	29	0	552599552	42	5789
2026-01-12 15:15:10.63	16.95	19.25	-34.4	-35.3	23.9	0.00e+00	122	29	0	556793856	42	5751
2026-01-12 15:15:11.64	16.90	19.37	-34.5	-35.4	23.8	0.00e+00	123	29	0	559939584	42	5851
2026-01-12 15:15:12.65	16.86	19.50	-34.4	-35.3	23.9	0.00e+00	123	29	0	563085312	42	5735
2026-01-12 15:15:13.66	16.81	19.63	-34.2	-35.2	23.9	0.00e+00	123	29	0	566231040	42	5668
2026-01-12 15:15:14.67	16.77	19.75	-34.1	-35.0	24.0	0.00e+00	123	29	0	568328192	42	5583
2026-01-12 15:15:15.68	16.73	19.88	-34.3	-35.2	23.9	0.00e+00	122	29	0	572522496	42	5686
2026-01-12 15:15:16.69	16.68	20.01	-34.1	-35.0	24.1	0.00e+00	122	29	0	575668224	42	5545
2026-01-12 15:15:17.69	16.64	20.14	-34.1	-35.1	24.0	0.00e+00	123	29	0	578813952	42	5603
2026-01-12 15:15:18.70	16.59	20.27	-34.1	-35.0	24.1	0.00e+00	123	29	0	581959680	42	5544
2026-01-12 15:15:19.71	16.54	20.40	-34.0	-35.0	24.0	0.00e+00	121	29	0	585105408	42	5534
2026-01-12 15:15:20.72	16.50	20.53	-34.0	-34.9	24.1	0.00e+00	123	29	0	588251136	42	5521
2026-01-12 15:15:21.73	16.45	20.67	-34.0	-34.9	24.1	0.00e+00	120	29	0	591396864	42	5497
2026-01-12 15:15:22.74	16.40	20.80	-33.8	-34.7	24.2	0.00e+00	123	29	0	594542592	42	5402
2026-01-12 15:15:23.75	16.35	20.93	-33.8	-34.7	24.2	0.00e+00	123	29	0	597688320	42	5383
2026-01-12 15:15:24.75	16.30	21.06	-33.9	-34.8	24.1	0.00e+00	122	29	0	600834048	42	5419
2026-01-12 15:15:25.76	16.26	21.20	-33.8	-34.7	24.1	0.00e+00	123	29	0	603979776	42	5393
2026-01-12 15:15:26.77	16.21	21.34	-33.7	-34.6	24.3	0.00e+00	120	29	0	607125504	40	5988
2026-01-12 15:15:27.78	16.16	21.47	-33.8	-34.7	24.2	0.00e+00	123	29	0	610271232	40	6055
2026-01-12 15:15:28.79	16.11	21.61	-33.5	-34.4	24.4	0.00e+00	122	29	0	613416960	40	5829
2026-01-12 15:15:29.79	16.05	21.75	-33.6	-34.6	24.4	0.00e+00	123	29	0	616562688	40	5933
2026-01-12 15:15:30.80	16.00	21.88	-33.4	-34.3	24.5	0.00e+00	122	29	0	619708416	40	5770
2026-01-12 15:15:31.81	15.95	22.02	-33.4	-34.3	24.5	0.00e+00	120	29	0	622854144	40	5759
2026-01-12 15:15:32.82	15.90	22.16	-33.4	-34.3	24.6	0.00e+00	122	29	0	625999872	40	5745
2026-01-12 15:15:33.83	15.85	22.30	-33.5	-34.4	24.5	0.00e+00	122	29	0	629145600	40	5813
2026-01-12 15:15:34.84	15.79	22.45	-33.1	-34.0	24.8	0.00e+00	122	29	0	632291328	40	5573
2026-01-12 15:15:35.85	15.74	22.59	-33.1	-34.0	24.9	0.00e+00	122	29	0	635437056	40	5537
2026-01-12 15:15:36.86	15.68	22.73	-33.0	-33.9	25.0	0.00e+00	120	29	0	638582784	40	5501
2026-01-12 15:15:37.87	15.63	22.88	-33.1	-34.0	24.9	0.00e+00	123	29	0	641728512	40	5538
2026-01-12 15:15:38.88	15.57	23.02	-32.8	-33.7	25.1	0.00e+00	120	29	0	644874240	40	5364
2026-01-12 15:15:39.89	15.52	23.17	-32.9	-33.8	25.1	0.00e+00	123	29	0	648019968	40	5447
2026-01-12 15:15:40.90	15.46	23.31	-32.8	-33.7	25.2	0.00e+00	123	29	0	651165696	40	5350
2026-01-12 15:15:41.91	15.40	23.46	-32.8	-33.7	25.2	0.00e+00	122	29	0	654311424	40	5356
2026-01-12 15:15:42.91	15.34	23.61	-32.7	-33.6	25.4	0.00e+00	123	29	0	657457152	38	5929
2026-01-12 15:15:43.92	15.29	23.75	-32.7	-33.5	25.3	0.00e+00	122	29	0	660602880	38	5922
2026-01-12 15:15:44.93	15.23	23.90	-32.8	-33.6	25.2	0.00e+00	123	29	0	663748608	38	5972
2026-01-12 15:15:45.94	15.17	24.05	-32.7	-33.6	25.3	0.00e+00	123	29	0	666894336	38	5949
2026-01-12 15:15:46.95	15.11	24.21	-32.7	-33.5	25.3	0.00e+00	122	29	0	670040064	38	5926
2026-01-12 15:15:47.96	15.05	24.36	-32.7	-33.6	25.2	0.00e+00	122	29	0	673185792	38	5957
2026-01-12 15:15:48.97	14.98	24.51	-32.9	-33.8	25.1	0.00e+00	122	29	0	676331520	38	6093
2026-01-12 15:15:49.98	14.92	24.66	-32.8	-33.7	25.2	0.00e+00	123	29	0	679477248	38	6027
2026-01-12 15:15:50.99	14.86	24.82	-32.9	-33.8	25.2	0.00e+00	123	29	0	682622976	38	6075
2026-01-12 15:15:52.00	14.80	24.97	-33.0	-33.8	25.1	0.00e+00	123	29	0	685768704	38	6125
2026-01-12 15:15:53.01	14.73	25.13	-33.1	-34.0	25.1	0.00e+00	123	29	0	688914432	38	6229
2026-01-12 15:15:54.02	14.67	25.29	-33.1	-34.0	25.0	0.00e+00	123	29	0	692060160	38	6263
2026-01-12 15:15:55.03	14.60	25.45	-33.2	-34.1	24.9	0.00e+00	122	29	0	695205888	38	6291
2026-01-12 15:15:56.04	14.53	25.60	-33.3	-34.2	24.8	0.00e+00	122	29	0	698351616	38	6367
2026-01-12 15:15:57.05	14.47	25.76	-33.3	-34.2	24.9	0.00e+00	122	29	0	701497344	38	6376
2026-01-12 15:15:58.06	14.40	25.92	-33.4	-34.3	24.8	0.00e+00	122	29	0	704643072	38	6468
2026-01-12 15:15:59.07	14.33	26.09	-33.6	-34.4	24.8	0.00e+00	122	29	0	707788800	38	6559
2026-01-12 15:16:00.07	14.26	26.25	-33.7	-34.6	24.6	0.00e+00	123	29	0	710934528	38	6700
2026-01-12 15:16:01.08	14.19	26.41	-33.6	-34.5	24.7	0.00e+00	121	29	0	714080256	38	6626
2026-01-12 15:16:02.09	14.12	26.58	-33.8	-34.6	24.6	0.00e+00	122	29	0	717225984	40	5992
2026-01-12 15:16:03.10	14.05	26.74	-33.9	-34.8	24.5	0.00e+00	122	29	0	720371712	40	6069
2026-01-12 15:16:04.11	13.98	26.91	-33.9	-34.8	24.6	0.00e+00	122	29	0	723517440	40	6082
2026-01-12 15:16:05.12	13.91	27.08	-33.8	-34.7	24.5	0.00e+00	122	29	0	726663168	40	6020
2026-01-12 15:16:06.13	13.83	27.24	-34.0	-34.9	24.5	0.00e+00	123	29	0	729808896	40	6148
2026-01-12 15:16:07.14	13.76	27.41	-33.7	-34.6	24.5	0.00e+00	123	29	0	732954624	40	5974
2026-01-12 15:16:08.15	13.68	27.58	-33.9	-34.7	24.5	0.00e+00	122	29	0	736100352	40	6061
2026-01-12 15:16:09.16	13.60	27.76	-34.0	-34.9	24.3	0.00e+00	123	29	0	739246080	40	6163
2026-01-12 15:16:10.17	13.53	27.93	-34.1	-35.0	24.3	0.00e+00	123	29	0	742391808	40	6252
2026-01-12 15:16:11.18	13.45	28.10	-34.0	-34.9	24.3	0.00e+00	122	29	0	745537536	40	6177
2026-01-12 15:16:12.19	13.37	28.28	-34.1	-35.0	24.3	0.00e+00	122	29	0	748683264	40	6213
2026-01-12 15:16:13.20	13.29	28.45	-34.2	-35.1	24.0	0.00e+00	123	29	0	751828992	40	6294
2026-01-12 15:16:14.21	13.21	28.63	-34.3	-35.2	24.0	0.00e+00	123	29	0	754974720	40	6394
2026-01-12 15:16:15.21	13.13	28.80	-34.2	-35.1	24.0	0.00e+00	122	29	0	758120448	40	6319
2026-01-12 15:16:16.22	13.05	28.98	-34.4	-35.3	24.0	0.00e+00	122	29	0	761266176	40	6475
2026-01-12 15:16:17.23	12.96	29.16	-34.4	-35.3	24.0	0.00e+00	122	29	0	764411904	40	6453
2026-01-12 15:16:18.24	12.88	29.34	-34.2	-35.1	24.1	0.00e+00	123	29	0	767557632	40	6306
2026-01-12 15:16:19.25	12.79	29.52	-34.2	-35.1	23.9	0.00e+00	122	29	0	770703360	40	6316
2026-01-12 15:16:20.26	12.70	29.71	-34.2	-35.1	24.0	0.00e+00	122	29	0	773849088	40	6320
2026-01-12 15:16:21.26	12.62	29.89	-34.2	-35.1	24.0	0.00e+00	122	29	0	776994816	40	6312
2026-01-12 15:16:22.27	12.53	30.08	-34.1	-35.1	24.0	0.00e+00	123	29	0	780140544	40	6283
2026-01-12 15:16:23.28	12.44	30.26	-34.1	-35.1	24.1	0.00e+00	123	29	0	783286272	40	6281
2026-01-12 15:16:24.29	12.35	30.45	-33.7	-34.7	24.3	0.00e+00	123	29	0	786432000	40	6001
2026-01-12 15:16:25.30	12.26	30.64	-33.8	-34.7	24.4	0.00e+00	122	29	0	789577728	40	6017
2026-01-12 15:16:26.31	12.16	30.83	-33.8	-34.7	24.4	0.00e+00	123	29	0	792723456	40	6008
2026-01-12 15:16:27.32	12.07	31.02	-33.8	-34.7	24.3	0.00e+00	123	29	0	795869184	40	6056
2026-01-12 15:16:28.33	11.97	31.21	-33.9	-34.8	24.3	0.00e+00	122	29	0	799014912	40	6079
2026-01-12 15:16:29.34	11.88	31.40	-33.7	-34.6	24.4	0.00e+00	123	29	0	802160640	40	5982
2026-01-12 15:16:30.35	11.78	31.60	-33.9	-34.8	24.2	0.00e+00	122	29	0	805306368	40	6071
2026-01-12 15:16:31.36	11.68	31.79	-33.9	-34.8	24.2	0.00e+00	122	29	0	808452096	40	6127
2026-01-12 15:16:32.37	11.58	31.99	-33.8	-34.7	24.3	0.00e+00	122	29	0	811597824	40	6052
2026-01-12 15:16:33.37	11.48	32.19	-34.0	-34.9	24.1	0.00e+00	122	29	0	814743552	40	6148
2026-01-12 15:16:34.38	11.37	32.39	-34.2	-35.1	23.9	0.00e+00	122	29	0	817889280	40	6330
2026-01-12 15:16:35.39	11.27	32.59	-34.2	-35.1	23.8	0.00e+00	122	29	0	821035008	40	6330
2026-01-12 15:16:36.40	11.16	32.79	-34.3	-35.2	23.8	0.00e+00	122	29	0	824180736	40	6406
2026-01-12 15:16:37.41	11.06	32.99	-34.5	-35.4	23.7	0.00e+00	123	29	0	827326464	40	6573
2026-01-12 15:16:38.42	10.95	33.20	-34.3	-35.2	24.0	0.00e+00	122	29	0	830472192	40	6392
2026-01-12 15:16:39.43	10.84	33.40	-34.5	-35.4	23.9	0.00e+00	122	29	0	833617920	40	6528
2026-01-12 15:16:40.44	10.73	33.61	-34.4	-35.3	24.0	0.00e+00	122	29	0	836763648	40	6492
2026-01-12 15:16:41.45	10.62	33.82	-34.5	-35.4	24.0	0.00e+00	120	29	0	839909376	40	6513
2026-01-12 15:16:42.46	10.50	34.03	-34.6	-35.5	23.8	0.00e+00	123	29	0	843055104	40	6595
2026-01-12 15:16:43.46	10.39	34.24	-34.6	-35.6	23.6	0.00e+00	122	29	0	846200832	40	6663
2026-01-12 15:16:44.47	10.27	34.45	-34.6	-35.5	23.8	0.00e+00	122	29	0	849346560	40	6618
2026-01-12 15:16:45.49	10.15	34.66	-34.7	-35.6	23.6	0.00e+00	123	29	0	852492288	40	6674
2026-01-12 15:16:46.50	10.03	34.88	-34.7	-35.6	23.6	0.00e+00	122	29	0	855638016	40	6717
2026-01-12 15:16:47.50	9.91	35.09	-34.8	-35.8	23.7	0.00e+00	120	29	0	858783744	42	6069
2026-01-12 15:16:48.52	9.78	35.31	-35.0	-35.9	23.5	0.00e+00	123	29	0	861929472	42	6170
2026-01-12 15:16:49.52	9.66	35.53	-35.2	-36.2	23.4	0.00e+00	123	29	0	865075200	42	6364
2026-01-12 15:16:50.53	9.53	35.75	-35.5	-36.5	23.0	0.00e+00	122	29	0	868220928	42	6589
2026-01-12 15:16:51.54	9.40	35.97	-35.8	-36.8	22.7	0.00e+00	120	29	0	871366656	42	6820
2026-01-12 15:16:52.55	9.27	36.19	-35.7	-36.7	22.8	0.00e+00	122	29	0	874512384	44	6045
2026-01-12 15:16:53.56	9.14	36.41	-35.9	-36.9	22.6	0.00e+00	123	29	0	877658112	44	6158
2026-01-12 15:16:54.57	9.00	36.64	-35.9	-36.9	22.7	0.00e+00	123	29	0	880803840	44	6187
2026-01-12 15:16:55.58	8.87	36.87	-36.1	-37.1	22.5	0.00e+00	123	29	0	883949568	44	6315
2026-01-12 15:16:56.59	8.73	37.10	-36.1	-37.1	22.6	0.00e+00	123	29	0	887095296	44	6335
2026-01-12 15:16:57.60	8.59	37.32	-36.3	-37.4	22.4	0.00e+00	123	29	0	890241024	44	6531
2026-01-12 15:16:58.61	8.44	37.56	-36.0	-37.1	22.5	0.00e+00	123	29	0	893386752	44	6292
2026-01-12 15:16:59.62	8.30	37.79	-36.2	-37.2	22.5	0.00e+00	122	29	0	896532480	44	6399
2026-01-12 15:17:00.63	8.15	38.02	-36.0	-37.0	22.6	0.00e+00	123	29	0	899678208	44	6240
2026-01-12 15:17:01.64	8.00	38.26	-36.0	-37.0	22.7	0.00e+00	120	29	0	902823936	44	6246
2026-01-12 15:17:02.65	7.85	38.49	-35.9	-36.9	22.7	0.00e+00	123	29	0	905969664	44	6169
2026-01-12 15:17:03.66	7.70	38.73	-36.1	-37.1	22.5	0.00e+00	122	29	0	909115392	44	6304
2026-01-12 15:17:04.66	7.54	38.97	-36.2	-37.2	22.3	0.00e+00	122	29	0	912261120	44	6419
2026-01-12 15:17:05.67	7.39	39.21	-36.1	-37.1	22.5	0.00e+00	123	29	0	915406848	44	6302
2026-01-12 15:17:06.68	7.22	39.45	-36.2	-37.2	22.4	0.00e+00	123	29	0	918552576	44	6403
2026-01-12 15:17:07.69	7.06	39.70	-36.2	-37.2	22.2	0.00e+00	122	29	0	921698304	44	6423
2026-01-12 15:17:08.69	6.90	39.94	-36.5	-37.5	22.2	0.00e+00	123	29	0	924844032	44	6642
2026-01-12 15:17:09.70	6.73	40.19	-36.1	-37.1	22.6	0.00e+00	122	29	0	927989760	44	6312
2026-01-12 15:17:10.71	6.56	40.43	-36.1	-37.1	22.7	0.00e+00	122	29	0	931135488	44	6320
2026-01-12 15:17:11.72	6.38	40.68	-35.7	-36.7	23.0	0.00e+00	122	29	0	934281216	44	6037
2026-01-12 15:17:12.73	6.21	40.93	-35.6	-36.6	23.2	0.00e+00	123	29	0	937426944	44	5941
2026-01-12 15:17:13.74	6.03	41.19	-35.3	-36.3	23.4	0.00e+00	123	29	0	940572672	44	5744
2026-01-12 15:17:14.74	5.85	41.44	-35.4	-36.4	23.4	0.00e+00	121	29	0	943718400	44	5795
2026-01-12 15:17:15.75	5.66	41.69	-35.5	-36.4	23.3	0.00e+00	123	29	0	946864128	44	5847
2026-01-12 15:17:16.76	5.48	41.95	-35.7	-36.6	23.1	0.00e+00	122	29	0	950009856	44	5969
2026-01-12 15:17:17.77	5.28	42.21	-35.7	-36.7	22.8	0.00e+00	123	29	0	953155584	44	6030
2026-01-12 15:17:18.78	5.09	42.47	-35.9	-36.9	22.5	0.00e+00	123	29	0	956301312	44	6200
2026-01-12 15:17:19.78	4.89	42.73	-36.1	-37.1	22.1	0.00e+00	123	29	0	959447040	44	6296
2026-01-12 15:17:20.79	4.69	42.99	-36.4	-37.4	22.1	0.00e+00	122	29	0	962592768	44	6536
2026-01-12 15:17:21.80	4.49	43.25	-36.4	-37.5	21.9	0.00e+00	122	29	0	965738496	44	6616
2026-01-12 15:17:22.81	4.28	43.52	-36.7	-37.8	22.2	0.00e+00	123	29	0	968884224	44	6806
2026-01-12 15:17:23.81	4.07	43.78	-36.9	-37.9	22.1	0.00e+00	123	29	0	972029952	46	6194
2026-01-12 15:17:24.82	3.86	44.05	-37.0	-38.0	22.2	0.00e+00	123	29	0	975175680	46	6252
2026-01-12 15:17:25.83	3.64	44.32	-37.3	-38.4	21.7	0.00e+00	123	29	0	979369984	46	6536
2026-01-12 15:17:26.84	3.42	44.59	-37.4	-38.4	21.7	0.00e+00	122	29	0	981467136	46	6566
2026-01-12 15:17:27.85	3.19	44.86	-37.2	-38.3	21.8	0.00e+00	123	29	0	984612864	46	6462
2026-01-12 15:17:28.86	2.96	45.14	-37.4	-38.4	21.6	0.00e+00	123	29	0	987758592	46	6566
2026-01-12 15:17:29.87	2.73	45.41	-37.3	-38.4	21.5	0.00e+00	122	29	0	990904320	46	6512
2026-01-12 15:17:30.88	2.49	45.69	-37.1	-38.1	21.6	0.00e+00	122	29	0	995098624	46	6329
2026-01-12 15:17:31.89	2.25	45.96	-37.1	-38.1	21.8	0.00e+00	123	29	0	998244352	46	6344
2026-01-12 15:17:32.90	2.00	46.24	-36.8	-37.9	22.1	0.00e+00	122	29	0	1001390080	46	6144
2026-01-12 15:17:33.91	1.75	46.52	-36.9	-37.9	22.2	0.00e+00	123	29	0	1003487232	46	6199
2026-01-12 15:17:34.91	1.49	46.80	-36.5	-37.5	22.4	0.00e+00	123	29	0	1006632960	46	5912
2026-01-12 15:17:35.93	1.23	47.09	-36.5	-37.5	22.3	0.00e+00	123	28	0	1009778688	46	5921
2026-01-12 15:17:36.94	0.96	47.37	-36.7	-37.7	22.4	0.00e+00	120	29	0	1013972992	46	6028
2026-01-12 15:17:37.94	0.70	47.65	-36.2	-37.2	22.7	0.00e+00	121	29	0	1017118720	46	5697
2026-01-12 15:17:38.95	0.42	47.94	-36.0	-37.0	22.8	0.00e+00	123	29	0	1020264448	46	5548
2026-01-12 15:17:39.96	0.14	48.23	-35.8	-36.8	23.1	0.00e+00	122	28	0	1023410176	46	5413
2026-01-12 15:17:40.97	359.85	48.52	-35.6	-36.5	23.1	0.00e+00	123	29	0	1026555904	44	5920
2026-01-12 15:17:41.98	359.56	48.81	-35.6	-36.5	23.1	0.00e+00	123	29	0	1029701632	44	5912
2026-01-12 15:17:42.99	359.26	49.10	-35.4	-36.4	23.3	0.00e+00	123	29	0	1032847360	44	5799
2026-01-12 15:17:44.00	358.96	49.39	-35.5	-36.5	23.2	0.00e+00	120	29	0	1035993088	44	5900
2026-01-12 15:17:45.01	358.65	49.68	-35.7	-36.7	22.9	0.00e+00	122	29	0	1039138816	44	6031
2026-01-12 15:17:46.01	358.34	49.97	-35.8	-36.8	22.7	0.00e+00	123	29	0	1042284544	44	6083
2026-01-12 15:17:47.02	358.02	50.27	-35.8	-36.7	22.8	0.00e+00	122	29	0	1045430272	44	6062
2026-01-12 15:17:48.03	357.69	50.57	-35.8	-36.7	22.8	0.00e+00	123	29	0	1048576000	44	6053
2026-01-12 15:17:49.04	357.36	50.86	-35.6	-36.6	22.9	0.00e+00	123	29	0	1051721728	44	5973
2026-01-12 15:17:50.05	357.02	51.16	-35.8	-36.8	23.1	0.00e+00	123	29	0	1054867456	44	6068
2026-01-12 15:17:51.06	356.67	51.46	-35.6	-36.6	23.1	0.00e+00	120	29	0	1058013184	44	5969
2026-01-12 15:17:52.07	356.31	51.76	-35.7	-36.7	22.8	0.00e+00	123	29	0	1061158912	44	6014
2026-01-12 15:17:53.08	355.95	52.06	-35.8	-36.8	22.6	0.00e+00	122	29	0	1064304640	44	6109
2026-01-12 15:17:54.08	355.58	52.35	-35.9	-37.0	22.4	0.00e+00	122	29	0	1067450368	44	6242
2026-01-12 15:17:55.09	355.21	52.66	-35.8	-36.8	22.8	0.00e+00	120	29	0	1070596096	44	6125
2026-01-12 15:17:56.10	354.82	52.96	-35.8	-36.8	23.0	0.00e+00	123	29	0	1073741824	44	6128
2026-01-12 15:17:57.11	354.43	53.26	-35.6	-36.6	23.1	0.00e+00	122	29	0	1076887552	44	5963
2026-01-12 15:17:58.12	354.03	53.56	-35.2	-36.1	23.5	0.00e+00	123	29	0	1080033280	44	5635
2026-01-12 15:17:59.13	353.61	53.86	-35.2	-36.1	23.2	0.00e+00	123	29	0	1083179008	44	5652
2026-01-12 15:18:00.14	353.20	54.17	-35.3	-36.3	23.2	0.00e+00	122	29	0	1086324736	44	5750
2026-01-12 15:18:01.15	352.77	54.47	-35.2	-36.2	23.4	0.00e+00	120	29	0	1089470464	44	5668
2026-01-12 15:18:02.16	352.33	54.77	-34.9	-35.9	23.5	0.00e+00	122	29	0	1092616192	44	5506
2026-01-12 15:18:03.17	351.88	55.08	-34.8	-35.7	23.7	0.00e+00	123	29	0	1095761920	44	5384
2026-01-12 15:18:04.18	351.43	55.38	-34.6	-35.5	24.0	0.00e+00	120	29	0	1098907648	42	5891
2026-01-12 15:18:05.19	350.96	55.68	-34.1	-34.9	24.5	0.00e+00	123	29	0	1102053376	42	5529
2026-01-12 15:18:06.19	350.49	55.98	-33.8	-34.7	24.4	0.00e+00	122	29	0	1105199104	40	6036
2026-01-12 15:18:07.20	350.00	56.29	-34.2	-35.1	24.1	0.00e+00	123	28	0	1108344832	40	6322
2026-01-12 15:18:08.21	349.50	56.59	-34.3	-35.3	24.1	0.00e+00	120	28	0	1111490560	40	6430
2026-01-12 15:18:09.22	348.99	56.89	-34.1	-35.0	24.2	0.00e+00	123	29	0	1114636288	40	6238
2026-01-12 15:18:10.23	348.47	57.19	-33.8	-34.7	24.1	0.00e+00	120	29	0	1117782016	40	6026
2026-01-12 15:18:11.24	347.94	57.49	-33.2	-34.0	24.4	0.00e+00	123	29	0	1120927744	40	5588
2026-01-12 15:18:12.25	347.39	57.79	-33.2	-34.1	24.4	0.00e+00	123	29	0	1124073472	40	5607
2026-01-12 15:18:13.25	346.84	58.09	-33.4	-34.3	24.5	0.00e+00	123	29	0	1127219200	40	5753
2026-01-12 15:18:14.26	346.27	58.39	-33.3	-34.2	24.6	0.00e+00	123	29	0	1130364928	40	5689
2026-01-12 15:18:15.27	345.69	58.68	-33.2	-34.1	24.1	0.00e+00	123	29	0	1133510656	40	5642
2026-01-12 15:18:16.28	345.10	58.98	-33.8	-34.7	24.0	0.00e+00	120	28	0	1136656384	40	6045
2026-01-12 15:18:17.29	344.49	59.27	-33.6	-34.5	24.6	0.00e+00	123	28	0	1139802112	40	5878
2026-01-12 15:18:18.30	343.86	59.56	-33.4	-34.3	24.2	0.00e+00	123	29	0	1142947840	40	5769
2026-01-12 15:18:19.31	343.23	59.85	-33.0	-33.9	24.5	0.00e+00	122	29	0	1146093568	40	5517
2026-01-12 15:18:20.32	342.58	60.14	-33.0	-33.9	24.9	0.00e+00	122	29	0	1149239296	40	5485
2026-01-12 15:18:21.33	341.91	60.43	-33.0	-33.9	25.0	0.00e+00	122	29	0	1152385024	40	5506
2026-01-12 15:18:22.34	341.23	60.71	-33.1	-33.9	25.1	0.00e+00	123	29	0	1155530752	40	5518
2026-01-12 15:18:23.35	340.53	60.99	-32.9	-33.7	25.2	0.00e+00	123	29	0	1158676480	40	5399
2026-01-12 15:18:24.36	339.82	61.27	-33.0	-33.9	25.1	0.00e+00	123	29	0	1161822208	40	5500
2026-01-12 15:18:25.37	339.09	61.55	-33.3	-34.2	24.9	0.00e+00	123	29	0	1164967936	40	5711
2026-01-12 15:18:26.38	338.34	61.82	-33.0	-33.9	25.0	0.00e+00	120	29	0	1168113664	40	5503
2026-01-12 15:18:27.39	337.58	62.09	-32.8	-33.7	25.2	0.00e+00	123	29	0	1171259392	40	5356
2026-01-12 15:18:28.40	336.80	62.35	-32.5	-33.4	25.5	0.00e+00	122	29	0	1174405120	38	5803
2026-01-12 15:18:29.41	336.01	62.62	-32.7	-33.5	25.2	0.00e+00	123	29	0	1177550848	38	5900
2026-01-12 15:18:30.42	335.19	62.88	-33.3	-34.2	25.0	0.00e+00	123	29	0	1180696576	38	6352
2026-01-12 15:18:31.43	334.36	63.13	-33.7	-34.6	24.8	0.00e+00	122	29	0	1183842304	38	6705
2026-01-12 15:18:32.44	333.51	63.38	-32.7	-33.5	25.2	0.00e+00	122	29	0	1186988032	38	5920
2026-01-12 15:18:33.45	332.64	63.63	-32.4	-33.3	25.1	0.00e+00	123	29	0	1190133760	38	5730
2026-01-12 15:18:34.46	331.76	63.87	-32.6	-33.5	25.1	0.00e+00	123	28	0	1193279488	38	5859
2026-01-12 15:18:35.47	330.85	64.11	-32.7	-33.6	25.3	0.00e+00	123	29	0	1196425216	38	5973
2026-01-12 15:18:36.48	329.93	64.34	-32.8	-33.6	25.2	0.00e+00	123	29	0	1199570944	38	5963
2026-01-12 15:18:37.49	328.99	64.56	-33.0	-33.9	24.9	0.00e+00	123	29	0	1202716672	38	6171
2026-01-12 15:18:38.50	328.03	64.78	-33.2	-34.1	24.8	0.00e+00	122	28	0	1205862400	38	6303
2026-01-12 15:18:39.51	327.05	65.00	-33.0	-33.9	25.1	0.00e+00	123	29	0	1209008128	38	6178
2026-01-12 15:18:40.52	326.05	65.21	-32.5	-33.3	25.4	0.00e+00	122	29	0	1212153856	38	5772
2026-01-12 15:18:41.53	325.03	65.41	-32.4	-33.3	25.4	0.00e+00	123	29	0	1215299584	38	5752
2026-01-12 15:18:42.53	324.01	65.60	-32.9	-33.8	24.9	0.00e+00	122	28	0	1218445312	38	6075
2026-01-12 15:18:43.54	322.96	65.79	-33.2	-34.1	24.7	0.00e+00	122	28	0	1221591040	38	6320
2026-01-12 15:18:44.55	321.89	65.97	-33.2	-34.1	24.7	0.00e+00	123	29	0	1224736768	38	6331
2026-01-12 15:18:45.56	320.80	66.14	-33.2	-34.1	24.8	0.00e+00	120	29	0	1227882496	38	6307
2026-01-12 15:18:46.57	319.69	66.31	-33.2	-34.1	24.7	0.00e+00	122	29	0	1231028224	38	6335
2026-01-12 15:18:47.58	318.57	66.47	-33.4	-34.3	24.7	0.00e+00	122	28	0	1234173952	38	6480
2026-01-12 15:18:48.59	317.43	66.62	-33.2	-34.1	24.9	0.00e+00	122	29	0	1237319680	38	6290
2026-01-12 15:18:49.60	316.27	66.76	-33.0	-33.8	25.1	0.00e+00	120	29	0	1240465408	38	6128
2026-01-12 15:18:50.61	315.10	66.90	-32.8	-33.7	25.2	0.00e+00	123	29	0	1243611136	38	6026
2026-01-12 15:18:51.62	313.92	67.02	-32.6	-33.5	25.2	0.00e+00	120	28	0	1246756864	38	5895
2026-01-12 15:18:52.63	312.72	67.14	-32.5	-33.4	25.2	0.00e+00	123	28	0	1249902592	38	5792
2026-01-12 15:18:53.64	311.51	67.24	-32.1	-32.9	25.8	0.00e+00	123	28	0	1253048320	38	5510
2026-01-12 15:18:54.65	310.29	67.34	-32.1	-33.0	25.7	0.00e+00	123	28	0	1256194048	38	5540
2026-01-12 15:18:55.66	309.05	67.43	-32.6	-33.5	25.5	0.00e+00	121	29	0	1259339776	38	5862
2026-01-12 15:18:56.67	307.81	67.51	-32.5	-33.3	25.6	0.00e+00	120	29	0	1262485504	38	5782
2026-01-12 15:18:57.68	306.56	67.57	-32.3	-33.1	25.7	0.00e+00	123	28	0	1265631232	38	5659
2026-01-12 15:18:58.69	305.30	67.63	-32.1	-33.0	25.8	0.00e+00	121	28	0	1268776960	38	5536
2026-01-12 15:18:59.69	304.04	67.68	-32.2	-33.1	25.5	0.00e+00	123	28	0	1271922688	38	5616
2026-01-12 15:19:00.70	302.77	67.72	-32.3	-33.1	25.6	0.00e+00	123	28	0	1275068416	38	5644
2026-01-12 15:19:01.71	301.49	67.75	-32.4	-33.2	25.6	0.00e+00	123	28	0	1278214144	38	5709
2026-01-12 15:19:02.72	300.21	67.77	-32.7	-33.6	25.2	0.00e+00	121	28	0	1281359872	38	5945
2026-01-12 15:19:03.73	298.93	67.77	-33.0	-33.9	25.0	0.00e+00	122	28	0	1284505600	38	6138
2026-01-12 15:19:04.74	297.65	67.77	-32.8	-33.7	25.1	0.00e+00	123	28	0	1287651328	38	6039
2026-01-12 15:19:05.75	296.37	67.76	-32.7	-33.6	25.2	0.00e+00	122	28	0	1290797056	38	5954
2026-01-12 15:19:06.76	295.09	67.74	-32.9	-33.8	25.1	0.00e+00	122	28	0	1293942784	38	6067
2026-01-12 15:19:07.76	293.82	67.70	-33.3	-34.2	24.9	0.00e+00	123	28	0	1297088512	38	6368
2026-01-12 15:19:08.77	292.55	67.66	-33.1	-34.0	25.0	0.00e+00	123	28	0	1300234240	38	6236
2026-01-12 15:19:09.78	291.29	67.61	-33.1	-34.0	25.1	0.00e+00	123	29	0	1303379968	38	6237
2026-01-12 15:19:10.80	290.02	67.54	-32.9	-33.8	25.2	0.00e+00	122	28	0	1306525696	38	6070
2026-01-12 15:19:11.81	288.77	67.47	-32.5	-33.3	25.3	0.00e+00	122	29	0	1309671424	38	5782
2026-01-12 15:19:12.82	287.53	67.39	-32.4	-33.3	25.2	0.00e+00	122	29	0	1312817152	38	5738
2026-01-12 15:19:13.82	286.31	67.29	-32.5	-33.4	25.0	0.00e+00	122	29	0	1315962880	38	5808
2026-01-12 15:19:14.84	285.08	67.19	-32.9	-33.8	24.9	0.00e+00	120	29	0	1319108608	38	6122
2026-01-12 15:19:15.85	283.88	67.08	-32.8	-33.7	25.1	0.00e+00	123	28	0	1322254336	38	6038
2026-01-12 15:19:16.86	282.68	66.96	-33.0	-33.9	25.1	0.00e+00	120	29	0	1325400064	38	6167
2026-01-12 15:19:17.87	281.50	66.83	-33.2	-34.0	24.9	0.00e+00	120	29	0	1328545792	38	6258
2026-01-12 15:19:18.87	280.35	66.69	-33.8	-34.7	24.5	0.00e+00	122	28	0	1331691520	38	6745
2026-01-12 15:19:19.88	279.20	66.55	-33.7	-34.6	24.5	0.00e+00	120	28	0	1334837248	40	5974
2026-01-12 15:19:20.89	278.07	66.39	-32.8	-33.7	25.2	0.00e+00	122	28	0	1337982976	40	5384
2026-01-12 15:19:21.90	276.96	66.23	-32.8	-33.6	25.4	0.00e+00	123	28	0	1341128704	38	5984
2026-01-12 15:19:22.91	275.86	66.06	-32.7	-33.5	25.4	0.00e+00	122	28	0	1344274432	38	5900
2026-01-12 15:19:23.92	274.78	65.88	-32.6	-33.5	25.4	0.00e+00	123	28	0	1347420160	38	5885
2026-01-12 15:19:24.93	273.71	65.70	-32.7	-33.5	25.4	0.00e+00	123	28	0	1350565888	38	5920
2026-01-12 15:19:25.93	272.68	65.51	-32.3	-33.1	25.6	0.00e+00	123	28	0	1353711616	38	5645
2026-01-12 15:19:26.94	271.65	65.31	-32.4	-33.2	25.0	0.00e+00	122	28	0	1356857344	38	5716
2026-01-12 15:19:27.95	270.64	65.10	-33.0	-33.9	24.3	0.00e+00	122	28	0	1360003072	38	6199
2026-01-12 15:19:28.97	269.64	64.89	-33.6	-34.5	24.3	0.00e+00	120	28	0	1363148800	38	6611
2026-01-12 15:19:29.98	268.67	64.67	-33.6	-34.6	24.4	0.00e+00	122	28	0	1366294528	38	6668
2026-01-12 15:19:30.99	267.72	64.45	-33.4	-34.3	24.7	0.00e+00	123	28	0	1369440256	38	6470
2026-01-12 15:19:31.99	266.80	64.22	-33.7	-34.6	24.6	0.00e+00	123	28	0	1372585984	38	6665
2026-01-12 15:19:33.01	265.87	63.99	-33.9	-34.9	24.5	0.00e+00	122	28	0	1375731712	40	6137
2026-01-12 15:19:34.02	264.98	63.75	-34.0	-34.9	24.5	0.00e+00	123	28	0	1378877440	40	6163
2026-01-12 15:19:35.02	264.11	63.51	-33.8	-34.7	24.5	0.00e+00	122	28	0	1382023168	40	6059
2026-01-12 15:19:36.03	263.25	63.26	-33.2	-34.1	24.8	0.00e+00	122	28	0	1386217472	40	5641
2026-01-12 15:19:37.04	262.41	63.00	-33.3	-34.2	25.1	0.00e+00	123	28	0	1389363200	40	5660
2026-01-12 15:19:38.05	261.58	62.75	-32.5	-33.4	25.4	0.00e+00	123	29	0	1391460352	38	5824
2026-01-12 15:19:39.06	260.78	62.48	-32.8	-33.7	25.2	0.00e+00	123	28	0	1394606080	38	6035
2026-01-12 15:19:40.07	259.99	62.22	-33.5	-34.4	24.7	0.00e+00	122	28	0	1397751808	38	6548
2026-01-12 15:19:41.07	259.22	61.95	-34.1	-35.1	24.2	0.00e+00	123	28	0	1400897536	40	6295
2026-01-12 15:19:42.08	258.47	61.68	-33.8	-34.7	24.7	0.00e+00	122	28	0	1405091840	40	6046
2026-01-12 15:19:43.09	257.73	61.41	-33.6	-34.5	24.7	0.00e+00	120	28	0	1408237568	40	5870
2026-01-12 15:19:44.11	257.00	61.13	-32.9	-33.7	25.3	0.00e+00	123	28	0	1411383296	40	5389
2026-01-12 15:19:45.12	256.29	60.85	-33.3	-34.2	25.0	0.00e+00	123	28	0	1414529024	38	6404
2026-01-12 15:19:46.12	255.61	60.57	-34.3	-35.2	24.2	0.00e+00	122	28	0	1416626176	40	6401
2026-01-12 15:19:47.14	254.93	60.28	-34.0	-34.9	24.2	0.00e+00	123	28	0	1420820480	40	6196
2026-01-12 15:19:48.15	254.27	59.99	-33.4	-34.3	24.4	0.00e+00	120	28	0	1423966208	40	5763
2026-01-12 15:19:49.15	253.63	59.70	-32.8	-33.7	24.5	0.00e+00	123	28	0	1427111936	40	5392
2026-01-12 15:19:50.17	252.99	59.41	-32.7	-33.6	24.4	0.00e+00	123	28	0	1430257664	38	5928
2026-01-12 15:19:51.18	252.37	59.12	-32.5	-33.4	24.6	0.00e+00	123	28	0	1433403392	38	5826
2026-01-12 15:19:52.18	251.78	58.82	-32.9	-33.8	25.1	0.00e+00	123	28	0	1436549120	38	6069
2026-01-12 15:19:53.19	251.19	58.53	-33.2	-34.1	25.0	0.00e+00	121	28	0	1439694848	38	6307
2026-01-12 15:19:54.20	250.61	58.23	-34.2	-35.2	23.7	0.00e+00	123	28	0	1442840576	40	6375
2026-01-12 15:19:55.21	250.05	57.93	-35.0	-36.1	22.8	0.00e+00	123	28	0	1445986304	42	6298
2026-01-12 15:19:56.22	249.50	57.63	-34.9	-35.9	23.1	0.00e+00	122	28	0	1449132032	42	6168
2026-01-12 15:19:57.22	248.96	57.33	-34.4	-35.4	23.9	0.00e+00	123	28	0	1452277760	42	5805
2026-01-12 15:19:58.23	248.43	57.03	-33.8	-34.7	24.6	0.00e+00	122	28	0	1455423488	42	5357
2026-01-12 15:19:59.24	247.92	56.73	-33.7	-34.6	24.5	0.00e+00	123	28	0	1458569216	40	5965
2026-01-12 15:20:00.25	247.41	56.43	-33.7	-34.5	24.9	0.00e+00	122	28	0	1461714944	40	5899
2026-01-12 15:20:01.26	246.92	56.12	-33.7	-34.6	24.7	0.00e+00	123	28	0	1464860672	40	5935
2026-01-12 15:20:02.27	246.44	55.82	-34.4	-35.3	24.1	0.00e+00	123	28	0	1468006400	40	6486
2026-01-12 15:20:03.28	245.96	55.52	-34.7	-35.6	23.8	0.00e+00	120	28	0	1471152128	42	5977
2026-01-12 15:20:04.29	245.50	55.21	-34.5	-35.4	23.2	0.00e+00	123	28	0	1474297856	42	5827
2026-01-12 15:20:05.30	245.05	54.91	-34.3	-35.3	23.2	0.00e+00	122	28	0	1477443584	42	5741
2026-01-12 15:20:06.31	244.60	54.60	-33.2	-34.1	24.3	0.00e+00	122	28	0	1480589312	40	5610
2026-01-12 15:20:07.32	244.17	54.30	-33.8	-34.7	24.1	0.00e+00	122	28	0	1483735040	40	5997
2026-01-12 15:20:08.33	243.75	53.99	-34.6	-35.5	23.4	0.00e+00	120	28	0	1486880768	40	6589
2026-01-12 15:20:09.34	243.33	53.69	-35.9	-37.0	22.7	0.00e+00	122	28	0	1490026496	44	6207
2026-01-12 15:20:10.34	242.93	53.39	-35.6	-36.6	23.0	0.00e+00	120	28	0	1493172224	44	5954
2026-01-12 15:20:11.35	242.53	53.09	-35.7	-36.7	22.7	0.00e+00	123	28	0	1496317952	44	6046
2026-01-12 15:20:12.36	242.14	52.78	-36.0	-37.1	22.5	0.00e+00	122	28	0	1499463680	44	6280
2026-01-12 15:20:13.37	241.76	52.48	-36.0	-37.0	22.6	0.00e+00	122	28	0	1502609408	44	6227
2026-01-12 15:20:14.38	241.38	52.18	-35.6	-36.6	22.9	0.00e+00	120	28	0	1505755136	44	5948
2026-01-12 15:20:15.39	241.02	51.88	-35.3	-36.2	23.4	0.00e+00	122	28	0	1508900864	44	5719
2026-01-12 15:20:16.40	240.66	51.58	-34.6	-35.4	24.1	0.00e+00	125	28	0	1512046592	42	5848
2026-01-12 15:20:17.41	240.30	51.28	-34.8	-35.7	23.6	0.00e+00	123	28	0	1515192320	42	6017
2026-01-12 15:20:18.42	239.96	50.98	-34.8	-35.7	23.4	0.00e+00	122	28	0	1518338048	42	6010
2026-01-12 15:20:19.43	239.62	50.68	-35.4	-36.3	23.1	0.00e+00	122	28	0	1521483776	42	6497
2026-01-12 15:20:20.44	239.29	50.39	-36.2	-37.2	22.6	0.00e+00	122	28	0	1524629504	44	6364
2026-01-12 15:20:21.45	238.96	50.09	-35.6	-36.5	23.0	0.00e+00	122	28	0	1527775232	44	5926
2026-01-12 15:20:22.46	238.65	49.79	-34.8	-35.7	22.9	0.00e+00	120	28	0	1530920960	42	6037
2026-01-12 15:20:23.47	238.33	49.50	-35.0	-36.0	22.8	0.00e+00	123	29	0	1534066688	42	6253
2026-01-12 15:20:24.48	238.03	49.21	-35.3	-36.3	22.7	0.00e+00	123	28	0	1537212416	42	6439
2026-01-12 15:20:25.48	237.73	48.92	-35.2	-36.2	22.5	0.00e+00	123	28	0	1540358144	42	6406
2026-01-12 15:20:26.49	237.43	48.62	-35.3	-36.3	22.4	0.00e+00	120	28	0	1543503872	42	6460
2026-01-12 15:20:27.50	237.14	48.33	-35.7	-36.7	22.7	0.00e+00	123	28	0	1546649600	42	6747
2026-01-12 15:20:28.51	236.86	48.05	-35.9	-36.9	22.9	0.00e+00	121	28	0	1549795328	44	6150
2026-01-12 15:20:29.52	236.58	47.76	-36.3	-37.3	22.4	0.00e+00	122	28	0	1552941056	44	6487
2026-01-12 15:20:30.53	236.31	47.47	-37.1	-38.2	21.6	0.00e+00	122	28	0	1556086784	46	6422
2026-01-12 15:20:31.54	236.04	47.18	-37.7	-38.9	21.2	0.00e+00	123	28	0	1559232512	46	6913
2026-01-12 15:20:32.55	235.77	46.90	-37.7	-38.9	21.1	0.00e+00	123	28	0	1562378240	48	6176
2026-01-12 15:20:33.56	235.52	46.62	-37.4	-38.6	21.5	0.00e+00	120	28	0	1565523968	48	5957
2026-01-12 15:20:34.57	235.26	46.34	-36.9	-38.0	22.1	0.00e+00	123	28	0	1568669696	48	5573
2026-01-12 15:20:35.58	235.01	46.06	-35.5	-36.5	23.2	0.00e+00	121	28	0	1571815424	44	5900
2026-01-12 15:20:36.59	234.77	45.78	-35.0	-35.9	23.7	0.00e+00	123	28	0	1574961152	44	5509
2026-01-12 15:20:37.60	234.53	45.50	-35.1	-36.1	23.4	0.00e+00	122	28	0	1578106880	44	5619
2026-01-12 15:20:38.61	234.29	45.22	-35.5	-36.5	23.2	0.00e+00	123	28	0	1581252608	44	5894
2026-01-12 15:20:39.62	234.06	44.95	-35.7	-36.7	22.9	0.00e+00	125	28	0	1584398336	44	6027
2026-01-12 15:20:40.63	233.83	44.67	-35.7	-36.8	22.9	0.00e+00	120	28	0	1587544064	44	6072
2026-01-12 15:20:41.64	233.60	44.40	-35.3	-36.3	23.3	0.00e+00	122	28	0	1590689792	44	5740
2026-01-12 15:20:42.65	233.38	44.13	-35.4	-36.4	23.2	0.00e+00	122	28	0	1593835520	44	5843
2026-01-12 15:20:43.66	233.16	43.86	-36.0	-37.1	22.7	0.00e+00	120	28	0	1596981248	44	6306
2026-01-12 15:20:44.67	232.95	43.59	-36.6	-37.7	22.1	0.00e+00	122	28	0	1600126976	44	6798
2026-01-12 15:20:45.68	232.74	43.32	-37.3	-38.5	21.6	0.00e+00	122	28	0	1603272704	46	6635
2026-01-12 15:20:46.68	232.54	43.06	-37.4	-38.6	21.3	0.00e+00	123	28	0	1606418432	46	6692
2026-01-12 15:20:47.69	232.33	42.80	-37.1	-38.2	21.6	0.00e+00	122	28	0	1609564160	46	6409
2026-01-12 15:20:48.70	232.14	42.54	-36.7	-37.8	21.9	0.00e+00	123	28	0	1612709888	46	6083
2026-01-12 15:20:49.71	231.94	42.27	-35.9	-36.9	22.7	0.00e+00	123	28	0	1615855616	46	5519
2026-01-12 15:20:50.72	231.75	42.01	-35.5	-36.5	23.2	0.00e+00	122	28	0	1619001344	44	5880
2026-01-12 15:20:51.73	231.56	41.76	-35.2	-36.2	23.4	0.00e+00	122	28	0	1622147072	44	5673
2026-01-12 15:20:52.74	231.37	41.50	-35.3	-36.3	23.3	0.00e+00	122	28	0	1625292800	44	5748
2026-01-12 15:20:53.75	231.18	41.24	-35.5	-36.5	22.9	0.00e+00	123	28	0	1628438528	44	5915
2026-01-12 15:20:54.76	231.00	40.99	-35.8	-36.9	22.4	0.00e+00	123	28	0	1631584256	44	6147
2026-01-12 15:20:55.77	230.83	40.74	-36.0	-37.1	22.2	0.00e+00	123	28	0	1634729984	44	6327
2026-01-12 15:20:56.78	230.65	40.49	-36.1	-37.1	22.4	0.00e+00	123	28	0	1637875712	44	6325
2026-01-12 15:20:57.78	230.48	40.24	-35.7	-36.7	22.6	0.00e+00	123	28	0	1641021440	44	6004
2026-01-12 15:20:58.79	230.31	39.99	-35.7	-36.8	22.7	0.00e+00	122	28	0	1644167168	44	6067
2026-01-12 15:20:59.80	230.14	39.75	-36.0	-37.0	22.4	0.00e+00	122	28	0	1647312896	44	6265
2026-01-12 15:21:00.81	229.98	39.50	-36.4	-37.4	22.2	0.00e+00	122	28	0	1650458624	44	6562
2026-01-12 15:21:01.82	229.82	39.26	-36.6	-37.7	22.1	0.00e+00	122	28	0	1653604352	44	6798
2026-01-12 15:21:02.83	229.66	39.01	-36.6	-37.7	22.2	0.00e+00	122	28	0	1656750080	44	6743
2026-01-12 15:21:03.84	229.50	38.77	-36.1	-37.1	22.5	0.00e+00	123	28	0	1659895808	44	6332
2026-01-12 15:21:04.85	229.34	38.53	-36.0	-37.0	22.6	0.00e+00	123	28	0	1663041536	44	6259
2026-01-12 15:21:05.86	229.19	38.30	-36.3	-37.3	22.4	0.00e+00	122	28	0	1666187264	44	6495
2026-01-12 15:21:06.87	229.04	38.06	-35.9	-36.9	22.9	0.00e+00	123	28	0	1669332992	44	6173
2026-01-12 15:21:07.87	228.89	37.83	-35.8	-36.8	22.9	0.00e+00	122	28	0	1672478720	44	6134
2026-01-12 15:21:08.88	228.75	37.59	-36.0	-37.0	22.8	0.00e+00	123	28	0	1675624448	44	6268
2026-01-12 15:21:09.89	228.60	37.36	-36.0	-37.0	22.8	0.00e+00	122	28	0	1678770176	44	6235
2026-01-12 15:21:10.90	228.46	37.13	-36.2	-37.3	22.6	0.00e+00	122	28	0	1681915904	44	6424
2026-01-12 15:21:11.91	228.32	36.90	-36.3	-37.4	22.5	0.00e+00	123	28	0	1685061632	44	6531
2026-01-12 15:21:12.92	228.18	36.67	-36.2	-37.3	22.6	0.00e+00	123	28	0	1688207360	44	6424
2026-01-12 15:21:13.93	228.05	36.44	-35.9	-37.0	22.7	0.00e+00	123	28	0	1691353088	44	6240
2026-01-12 15:21:14.94	227.91	36.22	-35.7	-36.8	22.6	0.00e+00	123	28	0	1694498816	44	6078
2026-01-12 15:21:15.94	227.78	36.00	-35.8	-36.9	22.3	0.00e+00	123	28	0	1697644544	44	6172
2026-01-12 15:21:16.95	227.65	35.77	-35.6	-36.7	22.5	0.00e+00	122	28	0	1700790272	44	5997
2026-01-12 15:21:17.96	227.52	35.55	-35.6	-36.6	22.6	0.00e+00	123	28	0	1703936000	44	5975
2026-01-12 15:21:18.97	227.39	35.33	-35.7	-36.7	22.6	0.00e+00	122	28	0	1707081728	44	6053
2026-01-12 15:21:19.98	227.27	35.11	-35.3	-36.3	23.1	0.00e+00	123	28	0	1710227456	44	5749
2026-01-12 15:21:20.99	227.15	34.90	-35.1	-36.1	23.4	0.00e+00	123	28	0	1713373184	44	5645
2026-01-12 15:21:21.99	227.03	34.68	-35.1	-36.1	23.5	0.00e+00	123	28	0	1716518912	44	5620
2026-01-12 15:21:23.00	226.91	34.47	-35.1	-36.0	23.6	0.00e+00	122	28	0	1719664640	44	5587
2026-01-12 15:21:24.01	226.79	34.26	-34.8	-35.8	23.8	0.00e+00	123	28	0	1722810368	44	5443
2026-01-12 15:21:25.02	226.67	34.04	-34.9	-35.9	23.6	0.00e+00	122	28	0	1725956096	44	5489
2026-01-12 15:21:26.03	226.55	33.83	-34.9	-35.8	23.7	0.00e+00	123	28	0	1729101824	44	5458
2026-01-12 15:21:27.04	226.44	33.62	-35.0	-36.0	23.5	0.00e+00	122	28	0	1732247552	44	5583
2026-01-12 15:21:28.05	226.33	33.42	-35.3	-36.3	23.3	0.00e+00	123	28	0	1735393280	44	5732
2026-01-12 15:21:29.06	226.22	33.21	-35.4	-36.5	23.1	0.00e+00	123	28	0	1738539008	44	5889
2026-01-12 15:21:30.06	226.11	33.01	-35.5	-36.6	23.0	0.00e+00	122	28	0	1741684736	44	5950
2026-01-12 15:21:31.07	226.00	32.80	-35.5	-36.5	23.1	0.00e+00	123	28	0	1744830464	44	5884
2026-01-12 15:21:32.08	225.89	32.60	-35.3	-36.3	23.2	0.00e+00	123	28	0	1747976192	44	5787
2026-01-12 15:21:33.09	225.79	32.40	-35.2	-36.2	23.4	0.00e+00	123	28	0	1751121920	44	5669
2026-01-12 15:21:34.10	225.68	32.20	-35.0	-36.0	23.4	0.00e+00	123	28	0	1754267648	44	5584
2026-01-12 15:21:35.11	225.58	32.00	-34.8	-35.8	23.4	0.00e+00	120	28	0	1757413376	44	5423
2026-01-12 15:21:36.12	225.48	31.80	-34.5	-35.4	23.6	0.00e+00	123	28	0	1760559104	42	5849
2026-01-12 15:21:37.13	225.38	31.60	-34.4	-35.4	23.5	0.00e+00	122	28	0	1763704832	42	5827
2026-01-12 15:21:38.14	225.28	31.41	-34.4	-35.4	23.6	0.00e+00	122	28	0	1766850560	42	5826
2026-01-12 15:21:39.15	225.18	31.21	-34.4	-35.3	23.7	0.00e+00	122	28	0	1769996288	42	5779
2026-01-12 15:21:40.16	225.09	31.02	-34.2	-35.1	23.9	0.00e+00	122	28	0	1773142016	42	5630
2026-01-12 15:21:41.17	224.99	30.83	-34.3	-35.2	23.9	0.00e+00	123	28	0	1776287744	42	5701
2026-01-12 15:21:42.18	224.90	30.64	-34.0	-34.9	24.2	0.00e+00	123	28	0	1779433472	42	5522
2026-01-12 15:21:43.19	224.80	30.45	-34.0	-34.9	24.3	0.00e+00	120	28	0	1782579200	42	5515
2026-01-12 15:21:44.20	224.71	30.26	-33.8	-34.7	24.5	0.00e+00	123	28	0	1785724928	42	5379
2026-01-12 15:21:45.20	224.62	30.07	-33.6	-34.5	24.7	0.00e+00	123	28	0	1788870656	40	5884
2026-01-12 15:21:46.21	224.53	29.88	-33.7	-34.5	24.7	0.00e+00	123	28	0	1792016384	40	5926
2026-01-12 15:21:47.22	224.44	29.70	-33.5	-34.4	24.7	0.00e+00	123	28	0	1795162112	40	5825
2026-01-12 15:21:48.23	224.36	29.52	-33.5	-34.3	24.8	0.00e+00	123	28	0	1799356416	40	5774
2026-01-12 15:21:49.24	224.27	29.33	-33.6	-34.5	24.7	0.00e+00	123	28	0	1801453568	40	5879
2026-01-12 15:21:50.25	224.18	29.15	-33.5	-34.4	24.8	0.00e+00	123	28	0	1804599296	40	5815
2026-01-12 15:21:51.26	224.10	28.97	-33.6	-34.5	24.6	0.00e+00	123	28	0	1807745024	40	5873
2026-01-12 15:21:52.27	224.02	28.79	-33.5	-34.4	24.7	0.00e+00	123	28	0	1810890752	40	5842
2026-01-12 15:21:53.28	223.93	28.61	-33.8	-34.7	24.5	0.00e+00	120	28	0	1815085056	40	6029
2026-01-12 15:21:54.28	223.85	28.44	-33.8	-34.7	24.5	0.00e+00	122	28	0	1818230784	40	6025
2026-01-12 15:21:55.29	223.77	28.26	-34.0	-34.9	24.4	0.00e+00	122	28	0	1821376512	40	6169
2026-01-12 15:21:56.30	223.69	28.08	-34.1	-35.0	24.3	0.00e+00	122	28	0	1824522240	40	6253
2026-01-12 15:21:57.31	223.61	27.91	-34.2	-35.1	24.2	0.00e+00	123	28	0	1826619392	40	6310
2026-01-12 15:21:58.32	223.53	27.74	-34.2	-35.2	24.2	0.00e+00	123	28	0	1829765120	40	6371
2026-01-12 15:21:59.33	223.46	27.56	-34.4	-35.3	24.0	0.00e+00	122	28	0	1833959424	40	6475
2026-01-12 15:22:00.34	223.38	27.39	-34.4	-35.4	24.0	0.00e+00	123	28	0	1837105152	40	6516
2026-01-12 15:22:01.35	223.30	27.22	-34.3	-35.2	24.1	0.00e+00	123	28	0	1840250880	40	6376
2026-01-12 15:22:02.36	223.23	27.05	-34.1	-35.1	24.1	0.00e+00	122	28	0	1843396608	40	6294
2026-01-12 15:22:03.37	223.16	26.88	-34.2	-35.1	24.1	0.00e+00	122	28	0	1846542336	40	6313
2026-01-12 15:22:04.38	223.08	26.72	-34.1	-35.0	24.2	0.00e+00	120	28	0	1848639488	40	6257
2026-01-12 15:22:05.38	223.01	26.55	-33.9	-34.8	24.3	0.00e+00	123	28	0	1852833792	40	6073
2026-01-12 15:22:06.39	222.94	26.39	-33.7	-34.6	24.4	0.00e+00	123	28	0	1855979520	40	5943
2026-01-12 15:22:07.40	222.87	26.22	-33.7	-34.6	24.4	0.00e+00	122	28	0	1859125248	40	5983
2026-01-12 15:22:08.41	222.80	26.06	-33.5	-34.4	24.5	0.00e+00	122	28	0	1862270976	40	5843
2026-01-12 15:22:09.42	222.73	25.89	-33.6	-34.5	24.4	0.00e+00	123	28	0	1865416704	40	5922
2026-01-12 15:22:10.43	222.66	25.73	-33.5	-34.4	24.4	0.00e+00	122	28	0	1868562432	40	5848
2026-01-12 15:22:11.44	222.59	25.57	-33.3	-34.1	24.7	0.00e+00	123	28	0	1871708160	40	5656
2026-01-12 15:22:12.45	222.53	25.41	-33.2	-34.1	24.7	0.00e+00	123	28	0	1874853888	40	5607
2026-01-12 15:22:13.46	222.46	25.25	-33.3	-34.2	24.7	0.00e+00	122	28	0	1877999616	40	5665
2026-01-12 15:22:14.47	222.39	25.10	-33.1	-34.0	24.9	0.00e+00	120	28	0	1881145344	40	5543
2026-01-12 15:22:15.47	222.33	24.94	-33.2	-34.1	24.9	0.00e+00	122	28	0	1884291072	40	5609
2026-01-12 15:22:16.48	222.27	24.78	-33.1	-34.0	24.9	0.00e+00	123	28	0	1887436800	40	5574
2026-01-12 15:22:17.49	222.20	24.63	-33.2	-34.1	24.8	0.00e+00	122	28	0	1890582528	40	5642
2026-01-12 15:22:18.50	222.14	24.47	-33.3	-34.2	24.8	0.00e+00	123	28	0	1893728256	40	5720
2026-01-12 15:22:19.51	222.08	24.32	-33.4	-34.3	24.7	0.00e+00	123	28	0	1896873984	40	5731
2026-01-12 15:22:20.52	222.01	24.17	-33.5	-34.4	24.7	0.00e+00	122	28	0	1900019712	40	5823
2026-01-12 15:22:21.53	221.95	24.01	-33.5	-34.4	22.4	0.00e+00	120	28	0	1903165440	40	5832
2026-01-12 15:22:22.54	221.89	23.86	-33.6	-34.5	22.3	3.12e-04	123	28	0	1906311168	40	5915
2026-01-12 15:22:23.55	221.83	23.71	-33.5	-34.4	23.5	0.00e+00	123	28	0	1909456896	40	5840
2026-01-12 15:22:24.56	221.77	23.56	-33.6	-34.5	23.6	0.00e+00	123	28	0	1912602624	40	5916
2026-01-12 15:22:25.56	221.72	23.42	-33.7	-34.6	23.8	0.00e+00	122	28	0	1915748352	40	5975
2026-01-12 15:22:26.57	221.66	23.27	-33.6	-34.5	23.1	7.00e-07	123	28	0	1918894080	40	5876
2026-01-12 15:22:27.58	221.60	23.12	-33.6	-34.5	24.6	0.00e+00	120	28	0	1922039808	40	5864
2026-01-12 15:22:28.59	221.54	22.98	-33.6	-34.5	24.5	0.00e+00	123	28	0	1925185536	40	5897
2026-01-12 15:22:29.60	221.49	22.83	-33.6	-34.5	24.6	0.00e+00	121	28	0	1928331264	40	5899
2026-01-12 15:22:30.61	221.43	22.69	-33.8	-34.7	24.4	0.00e+00	123	28	0	1931476992	40	6015
2026-01-12 15:22:31.62	221.37	22.54	-33.7	-34.6	24.5	0.00e+00	123	28	0	1934622720	40	5976
2026-01-12 15:22:32.63	221.32	22.40	-33.7	-34.6	24.5	0.00e+00	122	28	0	1937768448	40	5957
2026-01-12 15:22:33.63	221.27	22.26	-33.6	-34.5	24.6	0.00e+00	123	28	0	1940914176	40	5911
2026-01-12 15:22:34.65	221.21	22.11	-33.7	-34.6	24.5	0.00e+00	122	28	0	1944059904	40	5987
2026-01-12 15:22:35.66	221.16	21.97	-33.7	-34.6	24.5	0.00e+00	120	28	0	1947205632	40	5968
2026-01-12 15:22:36.66	221.11	21.84	-33.6	-34.5	24.6	0.00e+00	123	28	0	1950351360	40	5882
2026-01-12 15:22:37.68	221.05	21.69	-33.6	-34.5	24.6	0.00e+00	122	28	0	1953497088	40	5923
2026-01-12 15:22:38.68	221.00	21.56	-33.7	-34.6	24.6	0.00e+00	123	28	0	1956642816	40	5938
2026-01-12 15:22:39.69	220.95	21.42	-33.7	-34.5	24.6	0.00e+00	123	28	0	1959788544	40	5923
2026-01-12 15:22:40.70	220.90	21.28	-33.8	-34.7	24.4	0.00e+00	120	28	0	1962934272	40	6046
2026-01-12 15:22:41.71	220.85	21.15	-33.7	-34.6	24.5	0.00e+00	122	28	0	1966080000	40	5961
2026-01-12 15:22:42.72	220.80	21.01	-33.6	-34.5	24.5	0.00e+00	123	28	0	1969225728	40	5912
