passes_logs/2026/01/12/R4.6S_Anadyr/R4.6S_Anadyr__20260112_200029_FENGYUN_3D_rec.log

#Pass ID: 20260112_200029_FENGYUN 3D
#Satellite: FENGYUN 3D
#Configuration: FENGYUN 3D
#almurnet v.1.7.20251203
#Start time: 2026-01-12 20:00:33

#Version: 2.2.20231116
#Station: R4.6S_Anadyr
#Location: 177.4865 lon 64.73178 lat
#TLE: 1 43010U 17072A   26011.62066612  .00000104  00000+0  70810-4 0  9998
#TLE: 2 43010  98.9935 343.3846 0002223 114.2890 245.8518 14.19694405422776

#Time	Az	El	Level	Level2	SNR	BER	BlckErr	Temp	State	Recorded	gain1	gain2
2026-01-12 20:00:33.17	36.38	0.18	-48.4	-59.1	3.3	8.39e-01	0	25	0	0	60	32523
2026-01-12 20:00:34.18	36.31	0.23	-48.4	-60.6	3.6	8.46e-01	0	25	104	0	60	38740
2026-01-12 20:00:35.19	36.24	0.29	-48.4	-60.5	3.6	8.45e-01	0	25	104	0	60	38325
2026-01-12 20:00:36.20	36.18	0.34	-48.4	-60.5	3.6	8.45e-01	0	25	104	0	60	38302
2026-01-12 20:00:37.21	36.11	0.39	-48.4	-60.5	3.5	8.45e-01	0	26	104	0	60	38160
2026-01-12 20:00:38.22	36.04	0.44	-48.2	-60.4	3.6	8.45e-01	0	26	104	0	60	38033
2026-01-12 20:00:39.23	35.98	0.50	-48.2	-60.3	3.6	8.44e-01	0	26	104	0	60	37546
2026-01-12 20:00:40.24	35.91	0.55	-48.2	-60.3	3.6	8.44e-01	0	26	104	0	60	37285
2026-01-12 20:00:41.24	35.84	0.60	-48.0	-60.1	3.6	8.45e-01	0	26	104	0	60	36652
2026-01-12 20:00:42.25	35.77	0.65	-48.0	-60.1	3.6	8.46e-01	0	26	104	0	60	36564
2026-01-12 20:00:43.26	35.71	0.71	-47.8	-59.9	3.6	8.47e-01	0	26	104	0	60	35580
2026-01-12 20:00:44.28	35.64	0.76	-47.6	-59.7	3.6	8.45e-01	0	26	104	0	60	34977
2026-01-12 20:00:45.28	35.57	0.81	-47.4	-59.5	3.6	8.46e-01	0	26	104	0	60	33994
2026-01-12 20:00:46.29	35.50	0.87	-46.8	-58.8	3.6	8.46e-01	0	26	104	0	60	31637
2026-01-12 20:00:47.30	35.43	0.92	-46.7	-58.8	3.6	8.44e-01	0	26	104	0	60	31381
2026-01-12 20:00:48.31	35.36	0.97	-46.7	-58.8	3.6	8.46e-01	0	26	104	0	60	31389
2026-01-12 20:00:49.32	35.29	1.02	-46.7	-58.7	3.6	8.44e-01	0	26	104	0	60	31257
2026-01-12 20:00:50.33	35.22	1.08	-46.7	-58.7	3.6	8.45e-01	0	26	104	0	60	31176
2026-01-12 20:00:51.34	35.15	1.13	-46.7	-58.7	3.6	8.45e-01	0	26	104	0	60	31000
2026-01-12 20:00:52.36	35.08	1.18	-46.7	-58.7	3.6	8.45e-01	0	26	104	0	60	30957
2026-01-12 20:00:53.37	35.01	1.24	-46.7	-58.7	3.6	8.46e-01	0	26	104	0	60	31243
2026-01-12 20:00:54.37	34.94	1.29	-46.7	-58.7	3.6	8.46e-01	0	26	104	0	60	30948
2026-01-12 20:00:55.38	34.87	1.34	-46.7	-58.7	3.6	8.45e-01	0	26	104	0	60	30992
2026-01-12 20:00:56.39	34.79	1.40	-46.7	-58.6	3.6	8.46e-01	0	26	104	0	60	30929
2026-01-12 20:00:57.40	34.72	1.45	-46.7	-58.6	3.6	8.45e-01	0	26	104	0	60	30718
2026-01-12 20:00:58.41	34.65	1.50	-46.7	-58.7	3.6	8.45e-01	0	26	104	0	60	30963
2026-01-12 20:00:59.42	34.58	1.56	-46.7	-58.7	3.6	8.45e-01	0	26	104	0	60	30991
2026-01-12 20:01:00.43	34.50	1.61	-46.7	-58.7	3.6	8.45e-01	0	26	104	0	60	31119
2026-01-12 20:01:01.44	34.43	1.67	-46.7	-58.7	3.6	8.45e-01	0	26	104	0	60	31232
2026-01-12 20:01:02.44	34.36	1.72	-46.7	-58.7	3.6	8.45e-01	0	26	104	0	60	31127
2026-01-12 20:01:03.45	34.29	1.77	-46.7	-58.7	3.6	8.45e-01	0	26	104	0	60	31133
2026-01-12 20:01:04.46	34.21	1.83	-46.7	-58.7	3.6	8.45e-01	0	26	104	0	60	31031
2026-01-12 20:01:05.47	34.14	1.88	-46.6	-58.5	3.6	8.46e-01	0	26	104	0	60	30572
2026-01-12 20:01:06.48	34.06	1.93	-46.6	-58.4	3.6	8.45e-01	0	26	104	0	60	30020
2026-01-12 20:01:07.49	33.99	1.99	-46.6	-58.2	3.6	8.45e-01	0	26	104	0	60	29272
2026-01-12 20:01:08.50	33.91	2.04	-46.6	-58.0	3.6	8.45e-01	0	26	104	0	60	28665
2026-01-12 20:01:09.51	33.84	2.10	-46.6	-57.9	3.6	8.46e-01	0	26	104	0	60	28348
2026-01-12 20:01:10.52	33.76	2.15	-46.6	-58.1	3.6	8.46e-01	0	26	104	0	60	29041
2026-01-12 20:01:11.53	33.69	2.21	-46.6	-58.5	3.6	8.46e-01	0	26	104	0	60	30273
2026-01-12 20:01:12.54	33.61	2.26	-46.6	-58.7	3.6	8.45e-01	0	26	104	0	60	31111
2026-01-12 20:01:13.55	33.53	2.31	-46.6	-58.7	3.6	8.46e-01	0	26	104	0	60	30955
2026-01-12 20:01:14.56	33.46	2.37	-46.6	-58.6	3.6	8.45e-01	0	26	104	0	60	30615
2026-01-12 20:01:15.57	33.38	2.42	-46.6	-58.6	3.6	8.45e-01	0	26	104	0	60	30608
2026-01-12 20:01:16.58	33.30	2.48	-46.6	-58.7	3.6	8.45e-01	0	26	104	0	60	31049
2026-01-12 20:01:17.59	33.22	2.53	-46.6	-58.5	3.6	8.47e-01	0	26	104	0	60	30517
2026-01-12 20:01:18.60	33.15	2.59	-46.5	-57.8	3.6	8.45e-01	0	26	104	0	60	28129
2026-01-12 20:01:19.61	33.07	2.64	-46.5	-56.9	3.6	8.45e-01	0	26	104	0	60	25218
2026-01-12 20:01:20.62	32.99	2.70	-46.4	-56.7	3.7	8.44e-01	0	26	104	0	60	24661
2026-01-12 20:01:21.63	32.91	2.75	-46.5	-57.3	3.6	8.44e-01	0	26	104	0	60	26478
2026-01-12 20:01:22.63	32.83	2.81	-46.6	-58.1	3.6	8.45e-01	0	26	104	0	60	29039
2026-01-12 20:01:23.64	32.75	2.86	-46.3	-55.7	3.7	8.43e-01	0	26	104	0	60	22143
2026-01-12 20:01:24.65	32.67	2.92	-45.5	-50.8	6.5	6.00e-01	0	26	0	0	60	12548
2026-01-12 20:01:25.66	32.59	2.97	-44.2	-47.6	9.4	5.08e-02	0	26	0	6291456	60	8660
2026-01-12 20:01:26.67	32.51	3.03	-43.2	-45.7	12.0	2.68e-03	0	26	0	11534336	60	6994
2026-01-12 20:01:27.68	32.43	3.08	-41.9	-44.0	13.8	9.38e-05	0	26	0	17825792	58	6394
2026-01-12 20:01:28.69	32.35	3.14	-41.4	-43.2	14.5	0.00e+00	0	26	0	23068672	54	7360
2026-01-12 20:01:29.70	32.27	3.19	-38.7	-39.9	18.1	6.80e-06	0	26	0	29360128	50	6342
2026-01-12 20:01:30.71	32.19	3.25	-44.1	-47.7	3.4	1.34e-04	0	26	0	34603008	52	13870
2026-01-12 20:01:31.72	32.11	3.30	-45.6	-51.4	4.8	8.44e-01	0	26	104	34603008	60	13430
2026-01-12 20:01:32.73	32.02	3.36	-37.5	-38.5	19.3	2.20e-06	0	26	0	34603008	50	5388
2026-01-12 20:01:33.74	31.94	3.41	-38.7	-39.9	18.0	0.00e+00	0	26	0	40894464	52	5683
2026-01-12 20:01:34.75	31.86	3.47	-37.8	-38.8	19.0	0.00e+00	0	26	0	46137344	50	5613
2026-01-12 20:01:35.76	31.77	3.53	-37.1	-38.1	19.8	0.00e+00	0	26	0	51380224	48	5786
2026-01-12 20:01:36.77	31.69	3.58	-36.2	-37.1	20.7	0.00e+00	0	26	0	57671680	46	5803
2026-01-12 20:01:37.78	31.61	3.64	-36.0	-36.8	21.0	0.00e+00	0	26	0	62914560	46	5629
2026-01-12 20:01:38.79	31.52	3.69	-36.0	-36.8	21.0	0.00e+00	0	26	0	69206016	46	5612
2026-01-12 20:01:39.80	31.44	3.75	-36.0	-36.8	21.1	0.00e+00	0	26	0	74448896	46	5624
2026-01-12 20:01:40.81	31.35	3.80	-35.8	-36.6	21.2	0.00e+00	0	26	0	79691776	44	6138
2026-01-12 20:01:41.81	31.27	3.86	-35.7	-36.6	21.2	0.00e+00	0	26	0	85983232	44	6122
2026-01-12 20:01:42.83	31.18	3.92	-35.8	-36.7	21.2	0.00e+00	0	26	0	91226112	44	6188
2026-01-12 20:01:43.84	31.09	3.97	-35.7	-36.6	21.3	0.00e+00	0	26	0	97517568	44	6112
2026-01-12 20:01:44.85	31.01	4.03	-35.7	-36.6	21.4	0.00e+00	0	26	0	102760448	44	6120
2026-01-12 20:01:45.86	30.92	4.09	-35.8	-36.6	21.2	0.00e+00	0	26	0	108003328	44	6169
2026-01-12 20:01:46.87	30.83	4.14	-35.8	-36.7	21.2	0.00e+00	0	26	0	114294784	44	6229
2026-01-12 20:01:47.88	30.75	4.20	-35.7	-36.5	21.4	0.00e+00	0	26	0	119537664	44	6080
2026-01-12 20:01:48.89	30.66	4.25	-35.7	-36.6	21.4	0.00e+00	0	26	0	125829120	44	6116
2026-01-12 20:01:49.90	30.57	4.31	-35.6	-36.4	21.5	0.00e+00	0	26	0	131072000	44	6016
2026-01-12 20:01:50.91	30.48	4.37	-35.6	-36.5	21.5	0.00e+00	0	26	0	137363456	44	6053
2026-01-12 20:01:51.92	30.39	4.42	-35.6	-36.4	21.5	0.00e+00	0	26	0	142606336	44	6021
2026-01-12 20:01:52.93	30.30	4.48	-35.8	-36.6	21.3	0.00e+00	0	26	0	147849216	44	6166
2026-01-12 20:01:53.94	30.21	4.54	-35.6	-36.5	21.5	0.00e+00	0	26	0	154140672	44	6050
2026-01-12 20:01:54.95	30.12	4.59	-35.7	-36.5	21.5	0.00e+00	0	26	0	159383552	44	6091
2026-01-12 20:01:55.96	30.03	4.65	-35.6	-36.5	21.6	0.00e+00	0	26	0	165675008	44	6046
2026-01-12 20:01:56.97	29.94	4.71	-35.6	-36.4	21.5	0.00e+00	0	26	0	170917888	44	6010
2026-01-12 20:01:57.98	29.85	4.76	-35.6	-36.4	21.6	0.00e+00	0	26	0	176160768	44	6014
2026-01-12 20:01:58.98	29.76	4.82	-35.7	-36.5	21.5	0.00e+00	0	26	0	182452224	44	6068
2026-01-12 20:01:59.99	29.67	4.88	-35.6	-36.5	21.6	0.00e+00	0	26	0	187695104	44	6056
2026-01-12 20:02:01.01	29.58	4.93	-35.4	-36.2	21.9	0.00e+00	0	26	0	193986560	44	5875
2026-01-12 20:02:02.02	29.48	4.99	-35.3	-36.1	21.9	0.00e+00	0	26	0	199229440	44	5816
2026-01-12 20:02:03.03	29.39	5.05	-35.6	-36.4	21.7	0.00e+00	0	26	0	204472320	44	6005
2026-01-12 20:02:04.03	29.30	5.11	-35.2	-36.0	22.0	0.00e+00	0	26	0	210763776	44	5751
2026-01-12 20:02:05.04	29.21	5.16	-35.3	-36.1	22.0	0.00e+00	0	26	0	216006656	44	5798
2026-01-12 20:02:06.05	29.11	5.22	-35.3	-36.1	22.1	0.00e+00	0	26	0	222298112	44	5782
2026-01-12 20:02:07.06	29.02	5.28	-35.1	-35.9	22.2	0.00e+00	0	26	0	227540992	44	5647
2026-01-12 20:02:08.07	28.92	5.33	-35.2	-36.0	22.1	0.00e+00	0	26	0	233832448	44	5711
2026-01-12 20:02:09.08	28.83	5.39	-35.1	-35.9	22.1	0.00e+00	0	26	0	239075328	44	5656
2026-01-12 20:02:10.09	28.73	5.45	-35.1	-35.9	22.3	0.00e+00	0	26	0	245366784	44	5648
2026-01-12 20:02:11.10	28.64	5.51	-34.9	-35.7	22.3	0.00e+00	0	26	0	250609664	44	5546
2026-01-12 20:02:12.11	28.54	5.56	-35.0	-35.8	22.3	0.00e+00	0	26	0	255852544	44	5600
2026-01-12 20:02:13.11	28.44	5.62	-35.1	-35.9	22.2	0.00e+00	0	26	0	262144000	44	5632
2026-01-12 20:02:14.12	28.35	5.68	-35.1	-35.9	22.3	0.00e+00	0	26	0	267386880	44	5637
2026-01-12 20:02:15.13	28.25	5.74	-35.0	-35.8	22.3	0.00e+00	0	27	0	272629760	44	5587
2026-01-12 20:02:16.14	28.15	5.79	-34.9	-35.7	22.5	0.00e+00	0	26	0	278921216	44	5513
2026-01-12 20:02:17.15	28.05	5.85	-34.9	-35.7	22.5	0.00e+00	0	26	0	284164096	44	5505
2026-01-12 20:02:18.16	27.95	5.91	-34.9	-35.7	22.5	0.00e+00	0	26	0	290455552	44	5532
2026-01-12 20:02:19.17	27.85	5.97	-34.8	-35.5	22.7	0.00e+00	0	26	0	295698432	42	6097
2026-01-12 20:02:20.18	27.75	6.03	-34.8	-35.6	22.7	0.00e+00	0	26	0	300941312	42	6123
2026-01-12 20:02:21.19	27.65	6.08	-34.8	-35.5	22.7	0.00e+00	0	27	0	307232768	42	6083
2026-01-12 20:02:22.19	27.55	6.14	-34.9	-35.6	22.6	0.00e+00	0	27	0	312475648	42	6161
2026-01-12 20:02:23.20	27.45	6.20	-34.6	-35.4	22.8	0.00e+00	0	27	0	318767104	42	6001
2026-01-12 20:02:24.21	27.35	6.26	-34.8	-35.6	22.6	0.00e+00	0	26	0	324009984	42	6149
2026-01-12 20:02:25.22	27.25	6.32	-34.8	-35.6	22.8	0.00e+00	0	27	0	330301440	42	6111
2026-01-12 20:02:26.23	27.15	6.37	-34.9	-35.6	22.6	0.00e+00	0	27	0	335544320	42	6166
2026-01-12 20:02:27.24	27.05	6.43	-34.9	-35.6	22.6	0.00e+00	0	27	0	341835776	42	6163
2026-01-12 20:02:28.25	26.94	6.49	-35.0	-35.8	22.5	0.00e+00	0	27	0	347078656	42	6253
2026-01-12 20:02:29.26	26.84	6.55	-34.9	-35.7	22.6	0.00e+00	0	27	0	352321536	42	6203
2026-01-12 20:02:30.27	26.74	6.61	-34.9	-35.7	22.7	0.00e+00	0	27	0	358612992	42	6192
2026-01-12 20:02:31.28	26.63	6.67	-34.9	-35.7	22.6	0.00e+00	0	27	0	363855872	42	6193
2026-01-12 20:02:32.29	26.53	6.72	-34.9	-35.7	22.6	0.00e+00	0	26	0	370147328	42	6183
2026-01-12 20:02:33.30	26.42	6.78	-35.0	-35.7	22.5	0.00e+00	0	27	0	375390208	42	6235
2026-01-12 20:02:34.31	26.32	6.84	-35.0	-35.8	22.5	0.00e+00	0	27	0	380633088	42	6280
2026-01-12 20:02:35.32	26.21	6.90	-34.9	-35.7	22.7	0.00e+00	0	27	0	386924544	42	6189
2026-01-12 20:02:36.33	26.10	6.96	-35.0	-35.8	22.5	0.00e+00	0	27	0	392167424	42	6269
2026-01-12 20:02:37.34	26.00	7.02	-34.9	-35.7	22.7	0.00e+00	0	27	0	398458880	42	6183
2026-01-12 20:02:38.35	25.89	7.07	-34.8	-35.6	22.7	0.00e+00	0	27	0	403701760	42	6155
2026-01-12 20:02:39.35	25.78	7.13	-34.7	-35.5	22.9	0.00e+00	0	27	0	408944640	42	6074
2026-01-12 20:02:40.36	25.67	7.19	-34.7	-35.5	22.8	0.00e+00	0	27	0	415236096	42	6072
2026-01-12 20:02:41.37	25.57	7.25	-34.6	-35.3	22.9	0.00e+00	0	27	0	420478976	42	5944
2026-01-12 20:02:42.38	25.46	7.31	-34.5	-35.3	23.1	0.00e+00	0	27	0	426770432	42	5927
2026-01-12 20:02:43.39	25.35	7.37	-34.6	-35.3	23.0	0.00e+00	0	27	0	432013312	42	5933
2026-01-12 20:02:44.40	25.24	7.43	-34.4	-35.2	23.1	0.00e+00	0	27	0	438304768	42	5837
2026-01-12 20:02:45.41	25.13	7.49	-34.3	-35.1	23.2	0.00e+00	0	27	0	443547648	42	5773
2026-01-12 20:02:46.42	25.02	7.55	-34.5	-35.2	23.2	0.00e+00	0	27	0	448790528	42	5875
2026-01-12 20:02:47.43	24.90	7.60	-34.1	-34.8	23.4	0.00e+00	0	27	0	455081984	42	5630
2026-01-12 20:02:48.44	24.79	7.66	-34.1	-34.9	23.4	0.00e+00	0	27	0	460324864	42	5655
2026-01-12 20:02:49.45	24.68	7.72	-34.2	-35.0	23.4	0.00e+00	0	27	0	466616320	42	5699
2026-01-12 20:02:50.46	24.57	7.78	-34.3	-35.0	23.3	0.00e+00	0	27	0	471859200	42	5726
2026-01-12 20:02:51.47	24.45	7.84	-34.0	-34.8	23.6	0.00e+00	0	27	0	477102080	42	5593
2026-01-12 20:02:52.48	24.34	7.90	-34.0	-34.7	23.6	0.00e+00	0	27	0	483393536	42	5537
2026-01-12 20:02:53.49	24.23	7.96	-34.0	-34.7	23.7	0.00e+00	0	27	0	488636416	42	5516
2026-01-12 20:02:54.50	24.11	8.02	-34.0	-34.7	23.6	0.00e+00	0	27	0	494927872	42	5527
2026-01-12 20:02:55.51	24.00	8.08	-33.9	-34.6	23.7	0.00e+00	0	27	0	500170752	42	5476
2026-01-12 20:02:56.52	23.88	8.14	-34.1	-34.8	23.6	0.00e+00	0	27	0	505413632	42	5607
2026-01-12 20:02:57.53	23.76	8.20	-34.0	-34.8	23.5	0.00e+00	0	27	0	511705088	42	5582
2026-01-12 20:02:58.54	23.65	8.26	-33.7	-34.4	24.0	0.00e+00	0	27	0	516947968	40	5971
2026-01-12 20:02:59.55	23.53	8.31	-33.5	-34.2	24.0	0.00e+00	0	27	0	523239424	40	5888
2026-01-12 20:03:00.56	23.41	8.37	-33.6	-34.3	24.1	0.00e+00	0	27	0	528482304	40	5936
2026-01-12 20:03:01.57	23.29	8.43	-33.6	-34.3	24.1	0.00e+00	0	27	0	534773760	40	5938
2026-01-12 20:03:02.58	23.18	8.49	-33.7	-34.4	24.0	0.00e+00	0	27	0	540016640	40	6009
2026-01-12 20:03:03.58	23.06	8.55	-33.7	-34.4	23.9	0.00e+00	0	27	0	546308096	40	6023
2026-01-12 20:03:04.59	22.94	8.61	-33.9	-34.6	23.8	0.00e+00	0	27	0	551550976	40	6161
2026-01-12 20:03:05.61	22.82	8.67	-33.8	-34.6	23.8	0.00e+00	0	27	0	556793856	40	6110
2026-01-12 20:03:06.61	22.70	8.73	-34.0	-34.7	23.6	0.00e+00	0	27	0	563085312	40	6224
2026-01-12 20:03:07.62	22.58	8.79	-33.8	-34.6	23.8	0.00e+00	0	27	0	568328192	40	6112
2026-01-12 20:03:08.64	22.45	8.85	-33.9	-34.6	23.7	0.00e+00	0	27	0	574619648	40	6162
2026-01-12 20:03:09.64	22.33	8.91	-33.9	-34.6	23.8	0.00e+00	0	27	0	579862528	40	6145
2026-01-12 20:03:10.65	22.21	8.97	-33.9	-34.6	23.8	0.00e+00	0	27	0	585105408	40	6151
2026-01-12 20:03:11.67	22.09	9.03	-33.9	-34.7	23.8	0.00e+00	0	27	0	591396864	40	6195
2026-01-12 20:03:12.67	21.96	9.09	-33.7	-34.5	23.9	0.00e+00	0	27	0	596639744	40	6044
2026-01-12 20:03:13.69	21.84	9.15	-33.8	-34.5	23.9	0.00e+00	0	27	0	602931200	40	6066
2026-01-12 20:03:14.70	21.71	9.21	-33.9	-34.6	23.8	0.00e+00	0	27	0	608174080	40	6163
2026-01-12 20:03:15.71	21.59	9.27	-33.8	-34.5	23.9	0.00e+00	0	27	0	613416960	40	6071
2026-01-12 20:03:16.72	21.46	9.33	-33.8	-34.5	23.8	0.00e+00	0	27	0	619708416	40	6100
2026-01-12 20:03:17.72	21.34	9.39	-33.7	-34.4	24.0	0.00e+00	0	27	0	624951296	40	6017
2026-01-12 20:03:18.73	21.21	9.44	-33.6	-34.3	24.1	0.00e+00	0	27	0	631242752	40	5935
2026-01-12 20:03:19.74	21.08	9.50	-33.5	-34.3	24.1	0.00e+00	0	27	0	636485632	40	5916
2026-01-12 20:03:20.75	20.95	9.56	-33.5	-34.2	24.1	0.00e+00	0	27	0	642777088	40	5865
2026-01-12 20:03:21.76	20.83	9.62	-33.6	-34.3	24.1	0.00e+00	0	27	0	648019968	40	5936
2026-01-12 20:03:22.77	20.70	9.68	-33.6	-34.3	24.1	0.00e+00	0	27	0	653262848	40	5924
2026-01-12 20:03:23.78	20.57	9.74	-33.3	-34.1	24.2	0.00e+00	0	27	0	659554304	40	5764
2026-01-12 20:03:24.79	20.44	9.80	-33.5	-34.2	24.2	0.00e+00	0	27	0	664797184	40	5831
2026-01-12 20:03:25.80	20.31	9.86	-33.3	-34.0	24.3	0.00e+00	0	27	0	671088640	40	5758
2026-01-12 20:03:26.80	20.18	9.92	-33.4	-34.1	24.3	0.00e+00	0	27	0	676331520	40	5770
2026-01-12 20:03:27.81	20.04	9.98	-33.4	-34.1	24.3	0.00e+00	0	27	0	681574400	40	5783
2026-01-12 20:03:28.82	19.91	10.04	-33.5	-34.1	24.2	0.00e+00	0	27	0	687865856	40	5828
2026-01-12 20:03:29.83	19.78	10.10	-33.3	-34.0	24.4	0.00e+00	0	27	0	693108736	40	5704
2026-01-12 20:03:30.84	19.65	10.16	-33.3	-34.0	24.4	0.00e+00	0	27	0	699400192	40	5720
2026-01-12 20:03:31.85	19.51	10.22	-33.2	-33.9	24.4	0.00e+00	0	27	0	704643072	40	5674
2026-01-12 20:03:32.86	19.38	10.28	-33.2	-33.9	24.4	0.00e+00	0	27	0	709885952	40	5692
2026-01-12 20:03:33.87	19.24	10.34	-33.1	-33.8	24.6	0.00e+00	0	27	0	716177408	40	5584
2026-01-12 20:03:34.88	19.11	10.40	-33.2	-33.9	24.5	0.00e+00	0	27	0	721420288	40	5633
2026-01-12 20:03:35.89	18.97	10.46	-33.1	-33.8	24.5	0.00e+00	0	27	0	727711744	40	5608
2026-01-12 20:03:36.90	18.83	10.52	-33.1	-33.8	24.6	0.00e+00	0	27	0	732954624	40	5617
2026-01-12 20:03:37.91	18.70	10.58	-33.0	-33.7	24.7	0.00e+00	0	27	0	739246080	40	5550
2026-01-12 20:03:38.92	18.56	10.64	-33.0	-33.6	24.7	0.00e+00	0	27	0	744488960	40	5497
2026-01-12 20:03:39.93	18.42	10.70	-32.9	-33.6	24.8	0.00e+00	0	27	0	749731840	40	5457
2026-01-12 20:03:40.94	18.28	10.76	-32.9	-33.6	24.7	0.00e+00	0	27	0	756023296	40	5462
2026-01-12 20:03:41.95	18.14	10.82	-32.9	-33.6	24.7	0.00e+00	0	27	0	761266176	40	5462
2026-01-12 20:03:42.96	18.00	10.87	-33.1	-33.8	24.7	0.00e+00	0	27	0	767557632	40	5570
2026-01-12 20:03:43.97	17.86	10.93	-33.2	-33.9	24.5	0.00e+00	0	27	0	772800512	40	5635
2026-01-12 20:03:44.98	17.72	10.99	-33.1	-33.8	24.6	0.00e+00	0	27	0	778043392	40	5619
2026-01-12 20:03:45.99	17.58	11.05	-33.3	-34.0	24.4	0.00e+00	0	27	0	784334848	40	5740
2026-01-12 20:03:47.00	17.43	11.11	-33.3	-34.0	24.4	0.00e+00	0	27	0	789577728	40	5711
2026-01-12 20:03:48.01	17.29	11.17	-33.3	-34.0	24.5	0.00e+00	0	27	0	795869184	40	5711
2026-01-12 20:03:49.02	17.15	11.23	-33.3	-34.0	24.4	0.00e+00	0	27	0	801112064	40	5754
2026-01-12 20:03:50.03	17.00	11.29	-33.3	-34.0	24.4	0.00e+00	0	27	0	806354944	40	5746
2026-01-12 20:03:51.04	16.86	11.35	-33.0	-33.7	24.6	0.00e+00	0	27	0	812646400	40	5544
2026-01-12 20:03:52.05	16.71	11.41	-32.9	-33.6	24.8	0.00e+00	0	27	0	817889280	40	5487
2026-01-12 20:03:53.06	16.57	11.47	-33.0	-33.7	24.8	0.00e+00	0	27	0	824180736	40	5524
2026-01-12 20:03:54.07	16.42	11.53	-32.9	-33.6	24.8	0.00e+00	0	27	0	829423616	40	5467
2026-01-12 20:03:55.07	16.27	11.58	-32.9	-33.6	24.8	0.00e+00	0	28	0	835715072	40	5488
2026-01-12 20:03:56.09	16.12	11.64	-33.0	-33.8	24.7	0.00e+00	0	27	0	840957952	40	5579
2026-01-12 20:03:57.09	15.98	11.70	-33.0	-33.7	24.7	0.00e+00	0	27	0	847249408	40	5536
2026-01-12 20:03:58.10	15.83	11.76	-33.2	-33.9	24.6	0.00e+00	0	27	0	852492288	40	5673
2026-01-12 20:03:59.11	15.68	11.82	-33.1	-33.9	24.6	0.00e+00	0	27	0	857735168	40	5641
2026-01-12 20:04:00.12	15.53	11.88	-32.9	-33.6	24.8	0.00e+00	0	28	0	864026624	40	5480
2026-01-12 20:04:01.13	15.38	11.94	-32.9	-33.6	24.8	0.00e+00	0	28	0	869269504	40	5492
2026-01-12 20:04:02.14	15.22	12.00	-33.0	-33.6	24.8	0.00e+00	0	28	0	875560960	40	5501
2026-01-12 20:04:03.15	15.07	12.06	-32.9	-33.6	24.8	0.00e+00	0	28	0	880803840	40	5462
2026-01-12 20:04:04.15	14.92	12.11	-32.8	-33.5	24.9	0.00e+00	0	28	0	886046720	40	5398
2026-01-12 20:04:05.16	14.77	12.17	-32.8	-33.5	24.9	0.00e+00	0	28	0	892338176	40	5422
2026-01-12 20:04:06.17	14.61	12.23	-32.9	-33.6	24.8	0.00e+00	0	27	0	897581056	40	5472
2026-01-12 20:04:07.17	14.46	12.29	-33.0	-33.7	24.8	0.00e+00	0	28	0	902823936	40	5533
2026-01-12 20:04:08.18	14.30	12.35	-33.1	-33.8	24.7	0.00e+00	0	28	0	909115392	40	5567
2026-01-12 20:04:09.19	14.15	12.40	-32.7	-33.4	25.1	0.00e+00	0	28	0	914358272	38	5981
2026-01-12 20:04:10.20	13.99	12.46	-32.7	-33.4	25.1	0.00e+00	0	28	0	920649728	38	6014
2026-01-12 20:04:11.20	13.83	12.52	-32.7	-33.4	25.0	0.00e+00	0	28	0	925892608	38	5970
2026-01-12 20:04:12.21	13.68	12.58	-32.9	-33.6	24.9	0.00e+00	0	28	0	932184064	38	6129
2026-01-12 20:04:13.22	13.52	12.64	-32.7	-33.3	25.1	0.00e+00	0	28	0	937426944	38	5959
2026-01-12 20:04:14.23	13.36	12.69	-32.6	-33.3	25.2	0.00e+00	0	28	0	942669824	38	5932
2026-01-12 20:04:15.24	13.20	12.75	-32.5	-33.2	25.2	0.00e+00	0	28	0	948961280	38	5859
2026-01-12 20:04:16.25	13.04	12.81	-32.4	-33.1	25.3	0.00e+00	0	28	0	954204160	38	5824
2026-01-12 20:04:17.26	12.88	12.87	-32.4	-33.1	25.3	0.00e+00	0	28	0	960495616	38	5782
2026-01-12 20:04:18.27	12.72	12.92	-32.5	-33.2	25.2	0.00e+00	0	28	0	965738496	38	5858
2026-01-12 20:04:19.28	12.55	12.98	-32.4	-33.1	25.3	0.00e+00	0	28	0	970981376	38	5801
2026-01-12 20:04:20.28	12.39	13.04	-32.4	-33.0	25.4	0.00e+00	0	28	0	977272832	38	5739
2026-01-12 20:04:21.30	12.23	13.10	-32.4	-33.1	25.4	0.00e+00	0	28	0	982515712	38	5791
2026-01-12 20:04:22.30	12.06	13.15	-32.3	-33.0	25.5	0.00e+00	0	28	0	988807168	38	5742
2026-01-12 20:04:23.31	11.90	13.21	-32.3	-33.0	25.5	0.00e+00	0	28	0	994050048	38	5719
2026-01-12 20:04:24.32	11.73	13.27	-32.3	-33.0	25.4	0.00e+00	0	28	0	999292928	38	5751
2026-01-12 20:04:25.33	11.57	13.32	-32.3	-33.0	25.4	0.00e+00	0	28	0	1005584384	38	5721
2026-01-12 20:04:26.34	11.40	13.38	-32.4	-33.1	25.4	0.00e+00	0	28	0	1010827264	38	5816
2026-01-12 20:04:27.35	11.23	13.44	-32.5	-33.2	25.3	0.00e+00	0	28	0	1017118720	38	5836
2026-01-12 20:04:28.36	11.06	13.49	-32.7	-33.4	25.1	0.00e+00	0	28	0	1022361600	38	5970
2026-01-12 20:04:29.36	10.90	13.55	-32.5	-33.3	25.3	0.00e+00	0	28	0	1028653056	38	5900
2026-01-12 20:04:30.37	10.73	13.61	-32.6	-33.3	25.2	0.00e+00	0	28	0	1033895936	38	5939
2026-01-12 20:04:31.38	10.56	13.66	-32.7	-33.4	25.1	0.00e+00	0	28	0	1039138816	38	6025
2026-01-12 20:04:32.38	10.39	13.72	-32.6	-33.3	25.2	0.00e+00	0	28	0	1045430272	38	5938
2026-01-12 20:04:33.39	10.22	13.77	-32.6	-33.3	25.2	0.00e+00	0	28	0	1050673152	38	5903
2026-01-12 20:04:34.40	10.04	13.83	-32.3	-33.0	25.5	0.00e+00	0	28	0	1056964608	38	5725
2026-01-12 20:04:35.41	9.87	13.88	-32.3	-33.0	25.4	0.00e+00	0	28	0	1062207488	38	5758
2026-01-12 20:04:36.42	9.70	13.94	-32.5	-33.2	25.3	0.00e+00	0	28	0	1067450368	38	5858
2026-01-12 20:04:37.43	9.52	13.99	-32.1	-32.8	25.6	0.00e+00	0	28	0	1073741824	38	5594
2026-01-12 20:04:38.44	9.35	14.05	-32.2	-32.8	25.6	0.00e+00	0	28	0	1078984704	38	5605
2026-01-12 20:04:39.45	9.17	14.11	-32.0	-32.7	25.7	0.00e+00	0	28	0	1085276160	38	5530
2026-01-12 20:04:40.46	9.00	14.16	-31.8	-32.4	26.0	0.00e+00	0	28	0	1090519040	38	5346
2026-01-12 20:04:41.47	8.82	14.21	-31.8	-32.4	25.9	0.00e+00	0	28	0	1095761920	36	6002
2026-01-12 20:04:42.48	8.64	14.27	-31.8	-32.5	26.0	0.00e+00	0	28	0	1102053376	36	6055
2026-01-12 20:04:43.48	8.47	14.32	-31.9	-32.5	25.8	0.00e+00	0	28	0	1107296256	36	6084
2026-01-12 20:04:44.49	8.29	14.38	-31.9	-32.5	25.9	0.00e+00	0	28	0	1113587712	36	6093
2026-01-12 20:04:45.50	8.11	14.43	-31.9	-32.6	25.9	0.00e+00	0	28	0	1118830592	36	6130
2026-01-12 20:04:46.51	7.93	14.49	-31.9	-32.6	25.9	0.00e+00	0	28	0	1125122048	36	6151
2026-01-12 20:04:47.52	7.75	14.54	-32.0	-32.6	25.8	0.00e+00	0	28	0	1130364928	36	6159
2026-01-12 20:04:48.53	7.57	14.59	-31.9	-32.5	25.8	0.00e+00	0	28	0	1135607808	36	6091
2026-01-12 20:04:49.54	7.38	14.65	-31.9	-32.6	25.9	0.00e+00	0	28	0	1141899264	36	6119
2026-01-12 20:04:50.55	7.20	14.70	-32.0	-32.6	25.8	0.00e+00	0	28	0	1147142144	36	6162
2026-01-12 20:04:51.56	7.02	14.75	-32.1	-32.8	25.7	0.00e+00	0	28	0	1153433600	36	6283
2026-01-12 20:04:52.56	6.84	14.81	-31.9	-32.6	25.8	0.00e+00	0	28	0	1158676480	36	6144
2026-01-12 20:04:53.57	6.65	14.86	-31.8	-32.4	26.0	0.00e+00	0	28	0	1163919360	36	6013
2026-01-12 20:04:54.58	6.46	14.91	-31.8	-32.5	26.0	0.00e+00	0	28	0	1170210816	36	6050
2026-01-12 20:04:55.59	6.28	14.96	-31.7	-32.4	26.0	0.00e+00	0	28	0	1175453696	36	5984
2026-01-12 20:04:56.60	6.09	15.02	-31.7	-32.3	26.0	0.00e+00	0	28	0	1181745152	36	5948
2026-01-12 20:04:57.61	5.90	15.07	-31.8	-32.4	26.0	0.00e+00	0	28	0	1186988032	36	5998
2026-01-12 20:04:58.62	5.72	15.12	-31.8	-32.4	26.0	0.00e+00	0	28	0	1192230912	36	6016
2026-01-12 20:04:59.63	5.53	15.17	-31.8	-32.4	26.0	0.00e+00	0	28	0	1198522368	36	6013
2026-01-12 20:05:00.64	5.34	15.22	-31.8	-32.5	25.9	0.00e+00	0	28	0	1203765248	36	6050
2026-01-12 20:05:01.65	5.15	15.27	-32.0	-32.6	25.8	0.00e+00	0	28	0	1210056704	36	6171
2026-01-12 20:05:02.66	4.96	15.32	-32.1	-32.8	25.7	0.00e+00	0	28	0	1215299584	36	6269
2026-01-12 20:05:03.67	4.77	15.37	-32.1	-32.8	25.5	0.00e+00	0	28	0	1221591040	36	6283
2026-01-12 20:05:04.68	4.57	15.42	-31.9	-32.5	25.9	0.00e+00	0	28	0	1226833920	36	6082
2026-01-12 20:05:05.69	4.38	15.48	-32.0	-32.6	25.8	0.00e+00	0	28	0	1233125376	36	6144
2026-01-12 20:05:06.70	4.19	15.53	-31.8	-32.5	25.9	0.00e+00	0	28	0	1238368256	36	6064
2026-01-12 20:05:07.70	4.00	15.57	-31.7	-32.3	26.1	0.00e+00	0	28	0	1243611136	36	5952
2026-01-12 20:05:08.71	3.80	15.62	-31.6	-32.3	26.2	0.00e+00	0	28	0	1249902592	36	5923
2026-01-12 20:05:09.72	3.61	15.67	-31.6	-32.3	26.1	0.00e+00	0	28	0	1255145472	36	5907
2026-01-12 20:05:10.73	3.41	15.72	-31.6	-32.3	26.1	0.00e+00	0	28	0	1260388352	36	5929
2026-01-12 20:05:11.74	3.21	15.77	-31.6	-32.3	26.1	0.00e+00	0	28	0	1266679808	36	5934
2026-01-12 20:05:12.75	3.01	15.82	-31.6	-32.3	26.2	0.00e+00	0	28	0	1271922688	36	5914
2026-01-12 20:05:13.76	2.82	15.87	-31.6	-32.2	26.2	0.00e+00	0	28	0	1278214144	36	5896
2026-01-12 20:05:14.77	2.62	15.92	-31.6	-32.2	26.2	0.00e+00	0	28	0	1283457024	36	5867
2026-01-12 20:05:15.78	2.42	15.96	-31.7	-32.4	26.1	0.00e+00	0	28	0	1288699904	36	6007
2026-01-12 20:05:16.79	2.22	16.01	-31.5	-32.2	26.3	0.00e+00	0	28	0	1294991360	36	5834
2026-01-12 20:05:17.80	2.02	16.06	-31.5	-32.1	26.3	0.00e+00	0	28	0	1300234240	36	5812
2026-01-12 20:05:18.81	1.82	16.11	-31.5	-32.1	26.3	0.00e+00	0	28	0	1306525696	36	5817
2026-01-12 20:05:19.82	1.62	16.15	-31.4	-32.1	26.3	0.00e+00	0	28	0	1311768576	36	5785
2026-01-12 20:05:20.83	1.41	16.20	-31.5	-32.2	26.2	0.00e+00	0	28	0	1318060032	36	5836
2026-01-12 20:05:21.84	1.21	16.25	-31.4	-32.0	26.4	0.00e+00	0	28	0	1323302912	36	5734
2026-01-12 20:05:22.85	1.01	16.29	-31.4	-32.1	26.3	0.00e+00	0	28	0	1329594368	36	5768
2026-01-12 20:05:23.85	0.80	16.34	-31.5	-32.1	26.3	0.00e+00	0	28	0	1334837248	36	5807
2026-01-12 20:05:24.86	0.60	16.38	-31.5	-32.2	26.3	0.00e+00	0	28	0	1340080128	36	5858
2026-01-12 20:05:25.87	0.39	16.43	-31.6	-32.2	26.3	0.00e+00	0	28	0	1346371584	36	5879
2026-01-12 20:05:26.88	0.19	16.47	-31.4	-32.1	26.4	0.00e+00	0	28	0	1351614464	36	5787
2026-01-12 20:05:27.89	359.98	16.52	-31.5	-32.2	26.3	0.00e+00	0	28	0	1357905920	36	5833
2026-01-12 20:05:28.90	359.77	16.56	-31.5	-32.2	26.3	0.00e+00	0	28	0	1363148800	36	5830
2026-01-12 20:05:29.91	359.56	16.61	-31.6	-32.2	26.2	0.00e+00	0	28	0	1368391680	36	5880
2026-01-12 20:05:30.92	359.36	16.65	-31.6	-32.2	26.3	0.00e+00	0	28	0	1374683136	36	5877
2026-01-12 20:05:31.93	359.15	16.69	-31.7	-32.4	26.2	0.00e+00	0	28	0	1379926016	36	5966
2026-01-12 20:05:32.94	358.94	16.73	-31.6	-32.3	26.2	0.00e+00	0	28	0	1386217472	36	5912
2026-01-12 20:05:33.95	358.73	16.78	-31.3	-32.0	26.5	0.00e+00	0	28	0	1391460352	36	5696
2026-01-12 20:05:34.96	358.51	16.82	-31.4	-32.1	26.4	0.00e+00	0	28	0	1396703232	36	5790
2026-01-12 20:05:35.97	358.30	16.86	-31.4	-32.1	26.4	0.00e+00	0	28	0	1402994688	36	5770
2026-01-12 20:05:36.98	358.09	16.90	-31.1	-31.8	26.6	0.00e+00	0	28	0	1408237568	36	5580
2026-01-12 20:05:37.99	357.88	16.94	-31.2	-31.8	26.6	0.00e+00	0	28	0	1414529024	36	5620
2026-01-12 20:05:38.99	357.67	16.99	-31.0	-31.6	26.8	0.00e+00	0	28	0	1419771904	36	5495
2026-01-12 20:05:40.00	357.45	17.03	-31.0	-31.6	26.7	0.00e+00	0	28	0	1426063360	36	5464
2026-01-12 20:05:41.01	357.24	17.07	-30.9	-31.6	26.8	0.00e+00	0	28	0	1431306240	36	5453
2026-01-12 20:05:42.02	357.02	17.11	-30.9	-31.6	26.8	0.00e+00	0	28	0	1436549120	36	5453
2026-01-12 20:05:43.03	356.81	17.15	-30.9	-31.6	26.8	0.00e+00	0	28	0	1442840576	36	5440
2026-01-12 20:05:44.04	356.59	17.19	-31.1	-31.7	26.7	0.00e+00	0	28	0	1448083456	36	5531
2026-01-12 20:05:45.05	356.37	17.22	-31.0	-31.6	26.7	0.00e+00	0	28	0	1454374912	36	5493
2026-01-12 20:05:46.06	356.15	17.26	-31.1	-31.7	26.6	0.00e+00	0	28	0	1459617792	36	5551
2026-01-12 20:05:47.07	355.94	17.30	-31.2	-31.9	26.6	0.00e+00	0	28	0	1464860672	36	5646
2026-01-12 20:05:48.08	355.72	17.34	-31.0	-31.7	26.6	0.00e+00	0	28	0	1471152128	36	5543
2026-01-12 20:05:49.09	355.50	17.38	-31.0	-31.7	26.8	0.00e+00	0	28	0	1476395008	36	5520
2026-01-12 20:05:50.10	355.28	17.41	-30.9	-31.5	26.7	0.00e+00	0	28	0	1482686464	36	5409
2026-01-12 20:05:51.11	355.06	17.45	-30.9	-31.6	26.7	0.00e+00	0	28	0	1487929344	36	5455
2026-01-12 20:05:52.11	354.84	17.49	-30.6	-31.2	27.0	0.00e+00	0	28	0	1493172224	34	5896
2026-01-12 20:05:53.12	354.62	17.52	-30.6	-31.3	27.1	0.00e+00	0	28	0	1499463680	34	5907
2026-01-12 20:05:54.13	354.40	17.56	-30.7	-31.3	27.0	0.00e+00	0	28	0	1504706560	34	5959
2026-01-12 20:05:55.14	354.17	17.59	-30.7	-31.3	27.0	0.00e+00	0	28	0	1510998016	34	5955
2026-01-12 20:05:56.15	353.95	17.63	-30.9	-31.5	26.9	0.00e+00	0	28	0	1516240896	34	6088
2026-01-12 20:05:57.16	353.73	17.66	-30.9	-31.5	26.8	0.00e+00	0	28	0	1522532352	34	6087
2026-01-12 20:05:58.17	353.50	17.70	-31.0	-31.7	26.7	0.00e+00	0	28	0	1527775232	34	6211
2026-01-12 20:05:59.18	353.28	17.73	-30.9	-31.5	26.8	0.00e+00	0	28	0	1533018112	34	6079
2026-01-12 20:06:00.19	353.05	17.76	-31.0	-31.6	26.8	0.00e+00	0	28	0	1539309568	34	6155
2026-01-12 20:06:01.20	352.83	17.79	-31.0	-31.7	26.6	0.00e+00	0	28	0	1544552448	34	6188
2026-01-12 20:06:02.21	352.60	17.83	-31.1	-31.7	26.6	0.00e+00	0	28	0	1550843904	34	6231
2026-01-12 20:06:03.21	352.38	17.86	-31.1	-31.8	26.7	0.00e+00	0	28	0	1556086784	34	6258
2026-01-12 20:06:04.22	352.15	17.89	-31.0	-31.6	26.8	0.00e+00	0	29	0	1561329664	34	6111
2026-01-12 20:06:05.23	351.92	17.92	-31.1	-31.7	26.8	0.00e+00	0	28	0	1567621120	34	6214
2026-01-12 20:06:06.24	351.69	17.95	-30.9	-31.5	26.9	0.00e+00	0	29	0	1572864000	34	6084
2026-01-12 20:06:07.25	351.47	17.98	-30.9	-31.5	26.8	0.00e+00	0	28	0	1579155456	34	6100
2026-01-12 20:06:08.26	351.24	18.01	-30.9	-31.5	26.9	0.00e+00	0	29	0	1584398336	34	6079
2026-01-12 20:06:09.27	351.01	18.04	-30.9	-31.5	26.8	0.00e+00	0	28	0	1589641216	34	6073
2026-01-12 20:06:10.28	350.78	18.07	-30.8	-31.4	26.9	0.00e+00	0	28	0	1595932672	34	6020
2026-01-12 20:06:11.29	350.55	18.10	-31.0	-31.6	26.8	0.00e+00	0	28	0	1601175552	34	6157
2026-01-12 20:06:12.31	350.31	18.13	-30.9	-31.6	26.7	0.00e+00	0	28	0	1607467008	34	6119
2026-01-12 20:06:13.31	350.08	18.15	-30.9	-31.6	26.8	0.00e+00	0	29	0	1612709888	34	6121
2026-01-12 20:06:14.32	349.85	18.18	-31.0	-31.6	26.8	0.00e+00	0	28	0	1619001344	34	6169
2026-01-12 20:06:15.33	349.62	18.21	-31.0	-31.6	26.8	0.00e+00	0	29	0	1624244224	34	6142
2026-01-12 20:06:16.34	349.39	18.23	-30.8	-31.5	26.8	0.00e+00	0	29	0	1630535680	34	6081
2026-01-12 20:06:17.35	349.16	18.26	-30.9	-31.6	26.7	0.00e+00	0	29	0	1635778560	34	6121
2026-01-12 20:06:18.36	348.92	18.28	-30.9	-31.5	26.7	0.00e+00	0	29	0	1641021440	34	6099
2026-01-12 20:06:19.37	348.69	18.31	-30.9	-31.6	26.7	0.00e+00	0	29	0	1647312896	34	6123
2026-01-12 20:06:20.38	348.46	18.33	-30.9	-31.5	26.9	0.00e+00	0	29	0	1652555776	34	6071
2026-01-12 20:06:21.38	348.22	18.36	-30.8	-31.4	27.0	0.00e+00	0	29	0	1658847232	34	6016
2026-01-12 20:06:22.39	347.99	18.38	-30.8	-31.4	26.9	0.00e+00	0	29	0	1664090112	34	5974
2026-01-12 20:06:23.40	347.75	18.40	-30.8	-31.5	26.9	0.00e+00	0	28	0	1669332992	34	6058
2026-01-12 20:06:24.41	347.52	18.42	-30.6	-31.3	27.0	0.00e+00	0	29	0	1675624448	34	5917
2026-01-12 20:06:25.42	347.28	18.45	-30.5	-31.1	27.2	0.00e+00	0	29	0	1680867328	34	5796
2026-01-12 20:06:26.43	347.05	18.47	-30.4	-31.0	27.2	0.00e+00	0	29	0	1686110208	34	5740
2026-01-12 20:06:27.44	346.81	18.49	-30.4	-31.1	27.2	0.00e+00	0	29	0	1692401664	34	5769
2026-01-12 20:06:28.45	346.57	18.51	-30.4	-31.1	27.2	0.00e+00	0	29	0	1697644544	34	5767
2026-01-12 20:06:29.46	346.34	18.53	-30.6	-31.2	27.0	0.00e+00	0	29	0	1703936000	34	5875
2026-01-12 20:06:30.47	346.10	18.55	-30.6	-31.2	27.1	0.00e+00	0	29	0	1709178880	34	5863
2026-01-12 20:06:31.48	345.86	18.57	-30.5	-31.1	27.1	0.00e+00	0	29	0	1715470336	34	5816
2026-01-12 20:06:32.49	345.62	18.59	-30.6	-31.2	27.0	0.00e+00	0	29	0	1720713216	34	5885
2026-01-12 20:06:33.50	345.38	18.60	-30.6	-31.3	27.1	0.00e+00	0	29	0	1727004672	34	5913
2026-01-12 20:06:34.51	345.15	18.62	-30.6	-31.2	27.1	0.00e+00	0	29	0	1732247552	34	5882
2026-01-12 20:06:35.52	344.91	18.64	-30.7	-31.3	27.0	0.00e+00	0	28	0	1737490432	34	5962
2026-01-12 20:06:36.53	344.67	18.65	-30.6	-31.2	27.1	0.00e+00	0	29	0	1743781888	34	5881
2026-01-12 20:06:37.54	344.43	18.67	-30.6	-31.2	27.1	0.00e+00	0	29	0	1749024768	34	5848
2026-01-12 20:06:38.54	344.19	18.69	-30.5	-31.2	27.2	0.00e+00	0	29	0	1755316224	34	5831
2026-01-12 20:06:39.55	343.95	18.70	-30.6	-31.2	27.2	0.00e+00	0	29	0	1760559104	34	5873
2026-01-12 20:06:40.57	343.71	18.72	-30.6	-31.2	27.1	0.00e+00	0	29	0	1765801984	34	5869
2026-01-12 20:06:41.57	343.47	18.73	-30.5	-31.1	27.2	0.00e+00	0	29	0	1772093440	34	5814
2026-01-12 20:06:42.58	343.23	18.74	-30.5	-31.2	27.2	0.00e+00	0	29	0	1777336320	34	5845
2026-01-12 20:06:43.59	342.99	18.76	-30.5	-31.2	27.1	0.00e+00	0	29	0	1783627776	34	5875
2026-01-12 20:06:44.60	342.75	18.77	-30.5	-31.1	27.2	0.00e+00	0	29	0	1788870656	34	5811
2026-01-12 20:06:45.61	342.51	18.78	-30.6	-31.2	27.1	0.00e+00	0	29	0	1794113536	34	5896
2026-01-12 20:06:46.62	342.27	18.79	-30.7	-31.3	27.0	0.00e+00	0	29	0	1800404992	34	5946
2026-01-12 20:06:47.63	342.03	18.80	-30.6	-31.2	27.1	0.00e+00	0	29	0	1805647872	34	5847
2026-01-12 20:06:48.64	341.78	18.81	-30.7	-31.3	27.0	0.00e+00	0	29	0	1811939328	34	5939
2026-01-12 20:06:49.65	341.54	18.82	-30.7	-31.3	27.0	0.00e+00	0	29	0	1817182208	34	5919
2026-01-12 20:06:50.66	341.30	18.83	-30.6	-31.3	27.0	0.00e+00	0	29	0	1823473664	34	5897
2026-01-12 20:06:51.67	341.06	18.84	-30.6	-31.2	27.1	0.00e+00	0	29	0	1828716544	34	5860
2026-01-12 20:06:52.68	340.82	18.85	-30.6	-31.2	27.1	0.00e+00	0	29	0	1833959424	34	5895
2026-01-12 20:06:53.68	340.58	18.85	-30.5	-31.2	27.2	0.00e+00	0	29	0	1840250880	34	5834
2026-01-12 20:06:54.69	340.33	18.86	-30.5	-31.2	27.2	0.00e+00	0	29	0	1845493760	34	5836
2026-01-12 20:06:55.70	340.09	18.87	-30.6	-31.2	27.2	0.00e+00	0	29	0	1851785216	34	5852
2026-01-12 20:06:56.71	339.85	18.87	-30.6	-31.2	27.0	0.00e+00	0	29	0	1857028096	34	5890
2026-01-12 20:06:57.72	339.60	18.88	-30.6	-31.3	27.0	0.00e+00	0	29	0	1862270976	34	5912
2026-01-12 20:06:58.73	339.36	18.88	-30.5	-31.1	27.2	0.00e+00	0	29	0	1868562432	34	5817
2026-01-12 20:06:59.74	339.12	18.89	-30.4	-31.1	27.2	0.00e+00	0	29	0	1873805312	34	5780
2026-01-12 20:07:00.75	338.88	18.89	-30.5	-31.1	27.2	0.00e+00	0	29	0	1880096768	34	5795
2026-01-12 20:07:01.76	338.63	18.90	-30.3	-30.9	27.3	0.00e+00	0	29	0	1885339648	34	5692
2026-01-12 20:07:02.77	338.39	18.90	-30.3	-30.9	27.3	0.00e+00	0	29	0	1890582528	34	5677
2026-01-12 20:07:03.78	338.15	18.90	-30.3	-30.9	27.3	0.00e+00	0	29	0	1896873984	34	5669
2026-01-12 20:07:04.78	337.91	18.90	-30.5	-31.1	27.3	0.00e+00	0	29	0	1902116864	34	5779
2026-01-12 20:07:05.79	337.66	18.90	-30.4	-31.0	27.2	0.00e+00	0	29	0	1908408320	34	5744
2026-01-12 20:07:06.80	337.42	18.90	-30.5	-31.2	27.1	0.00e+00	0	29	0	1913651200	34	5867
2026-01-12 20:07:07.81	337.18	18.90	-30.4	-31.0	27.2	0.00e+00	0	29	0	1919942656	34	5757
2026-01-12 20:07:08.82	336.93	18.90	-30.5	-31.2	27.1	0.00e+00	0	29	0	1925185536	34	5838
2026-01-12 20:07:09.83	336.69	18.90	-30.4	-31.0	27.3	0.00e+00	0	29	0	1930428416	34	5744
2026-01-12 20:07:10.84	336.45	18.90	-30.5	-31.1	27.2	0.00e+00	0	29	0	1936719872	34	5820
2026-01-12 20:07:11.85	336.20	18.90	-30.6	-31.3	27.1	0.00e+00	0	29	0	1941962752	34	5910
2026-01-12 20:07:12.86	335.96	18.90	-30.6	-31.2	27.1	0.00e+00	0	29	0	1948254208	34	5887
2026-01-12 20:07:13.87	335.72	18.89	-30.7	-31.4	26.9	0.00e+00	0	29	0	1953497088	34	5965
2026-01-12 20:07:14.88	335.47	18.89	-30.7	-31.4	26.9	0.00e+00	0	29	0	1958739968	34	6006
2026-01-12 20:07:15.89	335.23	18.89	-30.8	-31.4	26.9	0.00e+00	0	29	0	1965031424	34	6008
2026-01-12 20:07:16.90	334.99	18.88	-30.9	-31.6	26.8	0.00e+00	0	29	0	1970274304	34	6121
2026-01-12 20:07:17.91	334.74	18.88	-30.6	-31.3	27.1	0.00e+00	0	29	0	1976565760	34	5899
2026-01-12 20:07:18.91	334.50	18.87	-30.8	-31.4	26.9	0.00e+00	0	29	0	1981808640	34	5976
2026-01-12 20:07:19.92	334.26	18.86	-30.8	-31.5	27.0	0.00e+00	0	29	0	1987051520	34	6047
2026-01-12 20:07:20.93	334.02	18.86	-30.5	-31.1	27.1	0.00e+00	0	29	0	1993342976	34	5826
2026-01-12 20:07:21.94	333.78	18.85	-30.5	-31.2	27.1	0.00e+00	0	29	0	1998585856	34	5843
2026-01-12 20:07:22.95	333.53	18.84	-30.4	-31.1	27.0	0.00e+00	0	29	0	2004877312	34	5783
2026-01-12 20:07:23.96	333.29	18.83	-30.4	-31.0	27.0	0.00e+00	0	29	0	2010120192	34	5736
2026-01-12 20:07:24.97	333.05	18.82	-30.4	-31.0	27.2	0.00e+00	0	29	0	2016411648	34	5753
2026-01-12 20:07:25.98	332.81	18.81	-30.4	-31.1	27.2	0.00e+00	0	29	0	2021654528	34	5762
2026-01-12 20:07:26.99	332.56	18.80	-30.7	-31.2	27.1	0.00e+00	0	29	0	2027945984	34	5896
2026-01-12 20:07:28.00	332.32	18.79	-30.5	-31.2	27.2	0.00e+00	0	29	0	2033188864	34	5881
2026-01-12 20:07:29.01	332.08	18.78	-30.6	-31.3	27.2	0.00e+00	0	29	0	2038431744	34	5907
2026-01-12 20:07:30.02	331.84	18.77	-30.5	-31.2	27.2	0.00e+00	0	29	0	2044723200	34	5844
2026-01-12 20:07:31.03	331.60	18.76	-30.5	-31.1	27.3	0.00e+00	0	29	0	2049966080	34	5798
2026-01-12 20:07:32.04	331.36	18.75	-30.4	-31.1	27.2	0.00e+00	0	29	0	2056257536	34	5804
2026-01-12 20:07:33.05	331.12	18.73	-30.4	-31.0	27.3	0.00e+00	0	29	0	2061500416	34	5732
2026-01-12 20:07:34.06	330.88	18.72	-30.4	-31.0	27.3	0.00e+00	0	29	0	2066743296	34	5757
2026-01-12 20:07:35.07	330.64	18.71	-30.5	-31.1	27.3	0.00e+00	0	29	0	2073034752	34	5795
2026-01-12 20:07:36.08	330.40	18.69	-30.5	-31.1	27.3	0.00e+00	0	29	0	2078277632	34	5765
2026-01-12 20:07:37.08	330.16	18.68	-30.5	-31.2	27.2	0.00e+00	0	29	0	2084569088	34	5844
2026-01-12 20:07:38.09	329.92	18.66	-30.7	-31.4	27.0	0.00e+00	0	29	0	2089811968	34	5990
2026-01-12 20:07:39.11	329.68	18.64	-30.7	-31.3	27.1	0.00e+00	0	29	0	2095054848	34	5944
2026-01-12 20:07:40.11	329.44	18.63	-30.8	-31.5	26.9	0.00e+00	0	29	0	2101346304	34	6076
2026-01-12 20:07:41.12	329.20	18.61	-30.8	-31.4	26.9	0.00e+00	0	29	0	2106589184	34	6007
2026-01-12 20:07:42.13	328.96	18.59	-30.8	-31.4	27.0	0.00e+00	0	29	0	2112880640	34	6029
2026-01-12 20:07:43.14	328.73	18.57	-30.7	-31.3	27.0	0.00e+00	0	29	0	2118123520	34	5942
2026-01-12 20:07:44.15	328.49	18.55	-30.6	-31.3	27.1	0.00e+00	0	29	0	2124414976	34	5909
2026-01-12 20:07:45.16	328.25	18.54	-30.7	-31.2	27.1	0.00e+00	0	29	0	2129657856	34	5885
2026-01-12 20:07:46.17	328.01	18.52	-30.8	-31.4	27.1	0.00e+00	0	29	0	2134900736	34	5994
2026-01-12 20:07:47.18	327.78	18.50	-30.8	-31.4	26.9	0.00e+00	0	29	0	2141192192	34	5992
2026-01-12 20:07:48.19	327.54	18.47	-30.8	-31.4	27.0	0.00e+00	0	29	0	2146435072	34	6002
2026-01-12 20:07:49.19	327.30	18.45	-30.9	-31.6	26.9	0.00e+00	0	29	0	2152726528	34	6131
2026-01-12 20:07:50.20	327.07	18.43	-30.9	-31.6	26.9	0.00e+00	0	29	0	2157969408	34	6132
2026-01-12 20:07:51.21	326.83	18.41	-31.1	-31.7	26.8	0.00e+00	0	29	0	2163212288	34	6228
2026-01-12 20:07:52.22	326.60	18.39	-30.9	-31.6	26.9	0.00e+00	0	29	0	2169503744	34	6120
2026-01-12 20:07:53.23	326.36	18.36	-30.9	-31.6	26.9	0.00e+00	0	29	0	2174746624	34	6108
2026-01-12 20:07:54.24	326.13	18.34	-30.9	-31.5	27.0	0.00e+00	0	29	0	2181038080	34	6101
2026-01-12 20:07:55.25	325.89	18.32	-30.9	-31.6	26.9	0.00e+00	0	29	0	2186280960	34	6129
2026-01-12 20:07:56.26	325.66	18.29	-30.9	-31.6	26.9	0.00e+00	0	29	0	2191523840	34	6139
2026-01-12 20:07:57.27	325.43	18.27	-31.2	-31.8	26.7	0.00e+00	0	29	0	2197815296	34	6281
2026-01-12 20:07:58.28	325.19	18.24	-31.0	-31.6	26.8	0.00e+00	0	29	0	2203058176	34	6156
2026-01-12 20:07:59.29	324.96	18.22	-31.1	-31.7	26.7	0.00e+00	0	29	0	2209349632	34	6199
2026-01-12 20:08:00.30	324.73	18.19	-31.0	-31.7	26.8	0.00e+00	0	29	0	2214592512	34	6185
2026-01-12 20:08:01.31	324.50	18.16	-31.0	-31.7	26.8	0.00e+00	0	29	0	2220883968	34	6202
2026-01-12 20:08:02.32	324.26	18.13	-31.0	-31.6	26.8	0.00e+00	0	29	0	2226126848	34	6159
2026-01-12 20:08:03.32	324.04	18.11	-31.0	-31.7	26.8	0.00e+00	0	29	0	2231369728	34	6190
2026-01-12 20:08:04.33	323.81	18.08	-31.1	-31.7	26.7	0.00e+00	0	29	0	2237661184	34	6228
2026-01-12 20:08:05.34	323.57	18.05	-31.1	-31.8	26.8	0.00e+00	0	29	0	2242904064	34	6261
2026-01-12 20:08:06.35	323.35	18.02	-31.0	-31.7	26.8	0.00e+00	0	29	0	2249195520	34	6209
2026-01-12 20:08:07.36	323.12	17.99	-30.9	-31.5	26.9	0.00e+00	0	29	0	2254438400	34	6068
2026-01-12 20:08:08.37	322.89	17.96	-30.9	-31.5	26.9	0.00e+00	0	29	0	2259681280	34	6055
2026-01-12 20:08:09.38	322.66	17.93	-30.8	-31.4	27.0	0.00e+00	0	29	0	2265972736	34	5974
2026-01-12 20:08:10.39	322.43	17.90	-30.8	-31.4	27.0	0.00e+00	0	29	0	2271215616	34	5998
2026-01-12 20:08:11.40	322.20	17.87	-30.8	-31.5	27.0	0.00e+00	0	29	0	2277507072	34	6049
2026-01-12 20:08:12.40	321.98	17.84	-30.8	-31.5	26.9	0.00e+00	0	29	0	2282749952	34	6064
2026-01-12 20:08:13.41	321.75	17.80	-30.8	-31.4	26.9	0.00e+00	0	29	0	2287992832	34	5984
2026-01-12 20:08:14.42	321.53	17.77	-30.9	-31.5	26.8	0.00e+00	0	29	0	2294284288	34	6069
2026-01-12 20:08:15.43	321.30	17.74	-30.8	-31.6	26.9	0.00e+00	0	29	0	2299527168	34	6105
2026-01-12 20:08:16.44	321.08	17.71	-30.7	-31.2	27.1	0.00e+00	0	29	0	2305818624	34	5883
2026-01-12 20:08:17.45	320.85	17.67	-30.9	-31.4	26.9	0.00e+00	0	29	0	2311061504	34	6015
2026-01-12 20:08:18.46	320.63	17.64	-31.0	-31.6	26.8	0.00e+00	0	29	0	2317352960	34	6131
2026-01-12 20:08:19.46	320.41	17.60	-31.1	-31.7	26.7	0.00e+00	0	29	0	2322595840	34	6214
2026-01-12 20:08:20.48	320.18	17.57	-31.3	-31.9	26.5	0.00e+00	0	29	0	2327838720	34	6366
2026-01-12 20:08:21.48	319.96	17.53	-31.1	-31.8	26.8	0.00e+00	0	29	0	2334130176	34	6268
2026-01-12 20:08:22.49	319.74	17.50	-31.1	-31.6	26.8	0.00e+00	0	29	0	2339373056	34	6163
2026-01-12 20:08:23.50	319.52	17.46	-31.1	-31.7	26.8	0.00e+00	0	29	0	2345664512	34	6217
2026-01-12 20:08:24.51	319.30	17.42	-31.2	-31.8	26.7	0.00e+00	0	29	0	2350907392	34	6297
2026-01-12 20:08:25.52	319.08	17.39	-31.1	-31.8	26.7	0.00e+00	0	29	0	2356150272	34	6288
2026-01-12 20:08:26.53	318.86	17.35	-31.2	-31.8	26.7	0.00e+00	0	29	0	2362441728	34	6314
2026-01-12 20:08:27.54	318.64	17.31	-30.9	-31.6	26.8	0.00e+00	0	29	0	2367684608	34	6110
2026-01-12 20:08:28.55	318.42	17.27	-30.8	-31.5	26.9	0.00e+00	0	29	0	2373976064	34	6084
2026-01-12 20:08:29.56	318.20	17.24	-30.8	-31.4	27.1	0.00e+00	0	29	0	2379218944	34	5999
2026-01-12 20:08:30.57	317.98	17.20	-30.8	-31.5	27.0	0.00e+00	0	29	0	2384461824	34	6063
2026-01-12 20:08:31.58	317.76	17.16	-31.0	-31.6	26.9	0.00e+00	0	29	0	2390753280	34	6172
2026-01-12 20:08:32.59	317.55	17.12	-31.0	-31.6	26.7	0.00e+00	0	29	0	2395996160	34	6158
2026-01-12 20:08:33.60	317.33	17.08	-31.1	-31.8	26.7	0.00e+00	0	29	0	2402287616	34	6277
2026-01-12 20:08:34.61	317.12	17.04	-31.1	-31.7	26.7	0.00e+00	0	29	0	2407530496	34	6201
2026-01-12 20:08:35.62	316.90	17.00	-31.1	-31.8	26.7	0.00e+00	0	29	0	2413821952	34	6265
2026-01-12 20:08:36.62	316.69	16.96	-31.2	-31.8	26.7	0.00e+00	0	29	0	2419064832	34	6292
2026-01-12 20:08:37.64	316.47	16.92	-31.3	-31.9	26.7	0.00e+00	0	29	0	2425356288	34	6350
2026-01-12 20:08:38.65	316.26	16.87	-31.2	-32.0	26.6	0.00e+00	0	29	0	2430599168	34	6391
2026-01-12 20:08:39.66	316.05	16.83	-31.3	-32.0	26.6	0.00e+00	0	29	0	2435842048	34	6424
2026-01-12 20:08:40.67	315.84	16.79	-31.2	-31.9	26.7	0.00e+00	0	29	0	2442133504	34	6356
2026-01-12 20:08:41.68	315.63	16.75	-31.2	-31.8	26.6	0.00e+00	0	29	0	2447376384	34	6303
2026-01-12 20:08:42.68	315.42	16.70	-31.3	-32.0	26.5	0.00e+00	0	29	0	2453667840	34	6452
2026-01-12 20:08:43.69	315.21	16.66	-31.4	-32.1	26.5	0.00e+00	0	29	0	2458910720	34	6527
2026-01-12 20:08:44.70	315.00	16.62	-31.6	-32.3	26.3	0.00e+00	0	29	0	2464153600	34	6670
2026-01-12 20:08:45.71	314.79	16.57	-31.7	-32.3	26.3	0.00e+00	0	29	0	2470445056	34	6622
2026-01-12 20:08:46.72	314.58	16.53	-31.6	-32.3	26.3	0.00e+00	0	29	0	2475687936	34	6629
2026-01-12 20:08:47.73	314.37	16.49	-31.5	-32.2	26.5	0.00e+00	0	29	0	2480930816	34	6551
2026-01-12 20:08:48.74	314.17	16.44	-31.4	-32.2	26.6	0.00e+00	0	29	0	2487222272	34	6548
2026-01-12 20:08:49.75	313.96	16.40	-31.5	-32.1	26.5	0.00e+00	0	29	0	2492465152	34	6538
2026-01-12 20:08:50.76	313.76	16.35	-31.5	-32.2	26.4	0.00e+00	0	29	0	2498756608	34	6590
2026-01-12 20:08:51.77	313.55	16.30	-31.5	-32.1	26.4	0.00e+00	0	29	0	2503999488	34	6516
2026-01-12 20:08:52.78	313.35	16.26	-31.5	-32.2	26.4	0.00e+00	0	29	0	2510290944	34	6615
2026-01-12 20:08:53.79	313.14	16.21	-31.5	-32.1	26.4	0.00e+00	0	29	0	2515533824	34	6531
2026-01-12 20:08:54.80	312.94	16.17	-31.4	-32.2	26.4	0.00e+00	0	29	0	2521825280	34	6551
2026-01-12 20:08:55.80	312.74	16.12	-31.4	-32.0	26.4	0.00e+00	0	29	0	2527068160	34	6453
2026-01-12 20:08:56.82	312.54	16.07	-31.5	-32.2	26.4	0.00e+00	0	29	0	2532311040	34	6555
2026-01-12 20:08:57.83	312.33	16.02	-31.6	-32.2	26.4	0.00e+00	0	29	0	2538602496	34	6598
2026-01-12 20:08:58.84	312.13	15.98	-31.6	-32.1	26.3	0.00e+00	0	29	0	2543845376	34	6524
2026-01-12 20:08:59.84	311.94	15.93	-31.5	-32.2	26.4	0.00e+00	0	29	0	2550136832	34	6542
2026-01-12 20:09:00.85	311.74	15.88	-31.6	-32.2	26.3	0.00e+00	0	29	0	2555379712	34	6551
2026-01-12 20:09:01.86	311.54	15.83	-31.6	-32.2	26.4	0.00e+00	0	29	0	2560622592	34	6589
2026-01-12 20:09:02.87	311.34	15.78	-31.7	-32.4	26.2	0.00e+00	0	29	0	2566914048	34	6757
2026-01-12 20:09:03.88	311.14	15.74	-31.8	-32.5	26.2	0.00e+00	0	29	0	2572156928	34	6778
2026-01-12 20:09:04.89	310.95	15.69	-31.8	-32.6	26.1	0.00e+00	0	29	0	2578448384	36	6108
2026-01-12 20:09:05.90	310.75	15.64	-31.9	-32.6	26.0	0.00e+00	0	29	0	2583691264	36	6132
2026-01-12 20:09:06.91	310.55	15.59	-31.8	-32.5	26.1	0.00e+00	0	29	0	2588934144	36	6077
2026-01-12 20:09:07.92	310.36	15.54	-31.8	-32.4	26.1	0.00e+00	0	29	0	2595225600	36	5981
2026-01-12 20:09:08.92	310.17	15.49	-31.7	-32.3	26.3	0.00e+00	0	29	0	2600468480	36	5916
2026-01-12 20:09:09.93	309.97	15.44	-31.9	-32.5	26.1	0.00e+00	0	29	0	2606759936	36	6084
2026-01-12 20:09:10.94	309.78	15.39	-31.7	-32.4	26.2	0.00e+00	0	29	0	2612002816	36	5998
2026-01-12 20:09:11.95	309.59	15.34	-31.8	-32.5	26.2	0.00e+00	0	29	0	2618294272	36	6087
2026-01-12 20:09:12.96	309.40	15.29	-32.0	-32.6	26.0	0.00e+00	0	29	0	2623537152	36	6115
2026-01-12 20:09:13.97	309.21	15.23	-32.0	-32.7	26.0	0.00e+00	0	30	0	2628780032	36	6193
2026-01-12 20:09:14.98	309.02	15.18	-32.0	-32.8	26.0	0.00e+00	0	29	0	2635071488	36	6265
2026-01-12 20:09:15.99	308.83	15.13	-32.0	-32.7	26.0	0.00e+00	0	29	0	2640314368	36	6202
2026-01-12 20:09:17.00	308.64	15.08	-31.9	-32.6	26.1	0.00e+00	0	29	0	2646605824	36	6132
2026-01-12 20:09:18.01	308.45	15.03	-31.9	-32.5	25.9	0.00e+00	0	29	0	2651848704	36	6094
2026-01-12 20:09:19.02	308.26	14.98	-31.9	-32.5	26.1	0.00e+00	0	29	0	2657091584	36	6061
2026-01-12 20:09:20.03	308.08	14.92	-32.0	-32.6	26.0	0.00e+00	0	29	0	2663383040	36	6167
2026-01-12 20:09:21.04	307.89	14.87	-32.0	-32.8	25.9	0.00e+00	0	29	0	2668625920	36	6260
2026-01-12 20:09:22.05	307.71	14.82	-32.0	-32.7	25.9	0.00e+00	0	29	0	2674917376	36	6224
2026-01-12 20:09:23.06	307.52	14.77	-32.0	-32.6	26.0	0.00e+00	0	29	0	2680160256	36	6148
2026-01-12 20:09:24.07	307.34	14.71	-32.1	-32.7	25.9	0.00e+00	0	30	0	2685403136	36	6243
2026-01-12 20:09:25.08	307.15	14.66	-32.1	-32.8	25.8	0.00e+00	0	30	0	2691694592	36	6249
2026-01-12 20:09:26.09	306.97	14.61	-32.2	-32.9	25.8	0.00e+00	0	30	0	2696937472	36	6388
2026-01-12 20:09:27.10	306.79	14.55	-32.3	-33.0	25.7	0.00e+00	0	30	0	2703228928	36	6393
2026-01-12 20:09:28.10	306.61	14.50	-32.3	-33.1	25.7	0.00e+00	0	30	0	2708471808	36	6475
2026-01-12 20:09:29.11	306.43	14.44	-32.4	-33.0	25.7	0.00e+00	0	30	0	2714763264	36	6419
2026-01-12 20:09:30.12	306.25	14.39	-32.4	-33.1	25.6	0.00e+00	0	30	0	2720006144	36	6539
2026-01-12 20:09:31.13	306.07	14.34	-32.4	-33.1	25.5	0.00e+00	0	30	0	2725249024	36	6531
2026-01-12 20:09:32.14	305.89	14.28	-32.4	-33.0	25.7	0.00e+00	0	30	0	2731540480	36	6412
2026-01-12 20:09:33.15	305.71	14.23	-32.2	-32.9	25.8	0.00e+00	0	30	0	2736783360	36	6334
2026-01-12 20:09:34.16	305.53	14.17	-32.2	-32.8	25.8	0.00e+00	0	30	0	2743074816	36	6309
2026-01-12 20:09:35.17	305.36	14.12	-32.3	-32.9	25.7	0.00e+00	0	30	0	2748317696	36	6348
2026-01-12 20:09:36.18	305.18	14.06	-32.4	-33.1	25.5	0.00e+00	0	30	0	2753560576	36	6530
2026-01-12 20:09:37.19	305.00	14.01	-32.2	-32.9	25.8	0.00e+00	0	30	0	2759852032	36	6367
2026-01-12 20:09:38.20	304.83	13.95	-32.1	-32.7	25.9	0.00e+00	0	30	0	2765094912	36	6189
2026-01-12 20:09:39.21	304.66	13.90	-32.0	-32.6	25.9	0.00e+00	0	30	0	2771386368	36	6141
2026-01-12 20:09:40.22	304.48	13.84	-32.0	-32.7	25.9	0.00e+00	0	30	0	2776629248	36	6198
2026-01-12 20:09:41.23	304.31	13.78	-32.0	-32.6	25.9	0.00e+00	0	30	0	2781872128	36	6161
2026-01-12 20:09:42.24	304.14	13.73	-32.1	-32.8	25.9	0.00e+00	0	30	0	2788163584	36	6281
2026-01-12 20:09:43.24	303.97	13.67	-32.2	-32.8	25.8	0.00e+00	0	30	0	2793406464	36	6254
2026-01-12 20:09:44.25	303.80	13.62	-32.3	-33.1	25.6	0.00e+00	0	30	0	2799697920	36	6500
2026-01-12 20:09:45.26	303.63	13.56	-32.5	-33.2	25.4	0.00e+00	0	30	0	2804940800	36	6567
2026-01-12 20:09:46.27	303.46	13.50	-32.4	-33.2	25.5	0.00e+00	0	30	0	2811232256	36	6556
2026-01-12 20:09:47.28	303.29	13.45	-32.4	-33.0	25.6	0.00e+00	0	30	0	2816475136	36	6426
2026-01-12 20:09:48.29	303.12	13.39	-32.2	-32.8	25.7	0.00e+00	0	30	0	2822766592	36	6310
2026-01-12 20:09:49.30	302.95	13.33	-32.2	-32.8	25.7	0.00e+00	0	30	0	2828009472	36	6290
2026-01-12 20:09:50.31	302.79	13.28	-32.3	-32.9	25.5	0.00e+00	0	30	0	2833252352	36	6320
2026-01-12 20:09:51.32	302.62	13.22	-32.3	-33.0	25.5	0.00e+00	0	30	0	2839543808	36	6450
2026-01-12 20:09:52.32	302.45	13.16	-32.4	-33.1	25.6	0.00e+00	0	30	0	2844786688	36	6538
2026-01-12 20:09:53.34	302.29	13.11	-32.5	-33.1	25.2	0.00e+00	0	30	0	2851078144	36	6506
2026-01-12 20:09:54.35	302.12	13.05	-32.6	-33.2	24.8	0.00e+00	0	30	0	2856321024	36	6554
2026-01-12 20:09:55.35	301.96	12.99	-32.5	-33.2	25.0	0.00e+00	0	30	0	2861563904	36	6540
2026-01-12 20:09:56.36	301.80	12.93	-32.6	-33.2	25.1	0.00e+00	0	30	0	2867855360	36	6592
2026-01-12 20:09:57.37	301.64	12.88	-32.5	-33.1	25.3	0.00e+00	0	30	0	2873098240	38	5800
2026-01-12 20:09:58.38	301.47	12.82	-32.5	-33.2	25.3	0.00e+00	0	30	0	2878341120	38	5881
2026-01-12 20:09:59.39	301.31	12.76	-32.6	-33.3	25.2	0.00e+00	0	30	0	2884632576	38	5957
2026-01-12 20:10:00.40	301.15	12.70	-32.8	-33.4	25.2	0.00e+00	0	30	0	2889875456	38	5981
2026-01-12 20:10:01.41	300.99	12.65	-32.9	-33.5	25.0	0.00e+00	0	30	0	2896166912	38	6080
2026-01-12 20:10:02.42	300.83	12.59	-32.9	-33.7	24.9	0.00e+00	0	30	0	2901409792	38	6204
2026-01-12 20:10:03.43	300.68	12.53	-32.9	-33.5	25.0	0.00e+00	0	30	0	2907701248	38	6055
2026-01-12 20:10:04.44	300.52	12.47	-32.9	-33.5	24.9	0.00e+00	0	30	0	2912944128	38	6065
2026-01-12 20:10:05.45	300.36	12.41	-32.9	-33.7	24.9	0.00e+00	0	30	0	2919235584	38	6181
2026-01-12 20:10:06.46	300.20	12.35	-32.9	-33.6	25.0	0.00e+00	0	30	0	2924478464	38	6152
2026-01-12 20:10:07.46	300.05	12.30	-32.9	-33.5	25.0	0.00e+00	0	30	0	2929721344	38	6075
2026-01-12 20:10:08.47	299.89	12.24	-33.1	-33.8	24.9	0.00e+00	0	30	0	2936012800	38	6307
2026-01-12 20:10:09.48	299.74	12.18	-33.0	-33.8	24.9	0.00e+00	0	30	0	2941255680	38	6249
2026-01-12 20:10:10.49	299.58	12.12	-33.2	-33.9	24.7	0.00e+00	0	30	0	2947547136	38	6373
2026-01-12 20:10:11.50	299.43	12.06	-33.1	-33.7	24.8	0.00e+00	0	30	0	2952790016	38	6212
2026-01-12 20:10:12.51	299.28	12.00	-33.2	-33.8	24.8	0.00e+00	0	30	0	2958032896	38	6293
2026-01-12 20:10:13.52	299.13	11.95	-33.2	-33.8	24.8	0.00e+00	0	30	0	2964324352	38	6270
2026-01-12 20:10:14.53	298.97	11.89	-33.0	-33.7	25.0	0.00e+00	0	30	0	2969567232	38	6175
2026-01-12 20:10:15.54	298.82	11.83	-33.1	-33.7	24.8	0.00e+00	0	30	0	2975858688	38	6209
2026-01-12 20:10:16.55	298.67	11.77	-33.1	-33.7	24.8	0.00e+00	0	30	0	2981101568	38	6208
2026-01-12 20:10:17.56	298.52	11.71	-33.1	-33.8	24.8	0.00e+00	0	30	0	2986344448	38	6311
2026-01-12 20:10:18.57	298.37	11.65	-33.0	-33.7	24.9	0.00e+00	0	30	0	2992635904	38	6209
2026-01-12 20:10:19.58	298.22	11.59	-33.1	-33.7	24.8	0.00e+00	0	30	0	2997878784	38	6242
2026-01-12 20:10:20.59	298.08	11.53	-33.1	-33.8	24.7	0.00e+00	0	30	0	3004170240	38	6254
2026-01-12 20:10:21.60	297.93	11.47	-33.2	-33.8	24.7	0.00e+00	0	30	0	3009413120	38	6274
2026-01-12 20:10:22.60	297.78	11.41	-33.2	-33.9	24.7	0.00e+00	0	30	0	3015704576	38	6332
2026-01-12 20:10:23.61	297.64	11.36	-33.3	-34.1	24.6	0.00e+00	0	30	0	3020947456	38	6472
2026-01-12 20:10:24.62	297.49	11.30	-33.4	-34.1	24.5	0.00e+00	0	30	0	3026190336	38	6511
2026-01-12 20:10:25.63	297.35	11.24	-33.2	-33.9	24.7	0.00e+00	0	30	0	3032481792	38	6324
2026-01-12 20:10:26.64	297.20	11.18	-33.3	-34.0	24.6	0.00e+00	0	30	0	3037724672	38	6427
2026-01-12 20:10:27.65	297.06	11.12	-33.4	-34.0	24.6	0.00e+00	0	30	0	3044016128	38	6439
2026-01-12 20:10:28.66	296.92	11.06	-33.4	-34.2	24.4	0.00e+00	0	30	0	3049259008	38	6604
2026-01-12 20:10:29.67	296.77	11.00	-33.5	-34.3	24.4	0.00e+00	0	30	0	3054501888	38	6644
2026-01-12 20:10:30.68	296.63	10.94	-33.6	-34.3	24.2	0.00e+00	0	30	0	3060793344	40	5907
2026-01-12 20:10:31.69	296.49	10.88	-33.6	-34.4	24.3	0.00e+00	0	30	0	3066036224	40	5969
2026-01-12 20:10:32.70	296.35	10.82	-33.3	-34.0	24.6	0.00e+00	0	30	0	3072327680	40	5726
2026-01-12 20:10:33.70	296.21	10.76	-33.3	-34.0	24.6	0.00e+00	0	30	0	3077570560	40	5755
2026-01-12 20:10:34.72	296.07	10.70	-33.3	-33.9	24.6	0.00e+00	0	30	0	3082813440	40	5654
2026-01-12 20:10:35.72	295.93	10.64	-33.4	-34.0	24.6	0.00e+00	0	30	0	3089104896	40	5745
2026-01-12 20:10:36.73	295.79	10.58	-33.3	-34.0	24.6	0.00e+00	0	30	0	3094347776	40	5752
2026-01-12 20:10:37.74	295.65	10.52	-33.2	-33.8	24.6	0.00e+00	0	30	0	3100639232	40	5613
2026-01-12 20:10:38.75	295.52	10.46	-33.2	-33.8	24.7	0.00e+00	0	30	0	3105882112	40	5617
2026-01-12 20:10:39.76	295.38	10.40	-33.3	-34.1	24.5	0.00e+00	0	30	0	3112173568	40	5777
2026-01-12 20:10:40.77	295.24	10.34	-33.3	-34.1	24.5	0.00e+00	0	30	0	3117416448	40	5765
2026-01-12 20:10:41.78	295.11	10.28	-33.4	-34.1	24.5	0.00e+00	0	30	0	3122659328	40	5807
2026-01-12 20:10:42.78	294.97	10.23	-33.3	-34.1	24.5	0.00e+00	0	30	0	3128950784	40	5801
2026-01-12 20:10:43.79	294.84	10.17	-33.3	-34.0	24.6	0.00e+00	0	30	0	3134193664	40	5757
2026-01-12 20:10:44.80	294.70	10.11	-33.3	-33.9	24.6	0.00e+00	0	30	0	3140485120	40	5661
2026-01-12 20:10:45.81	294.57	10.05	-33.3	-33.9	24.5	0.00e+00	0	30	0	3145728000	40	5690
2026-01-12 20:10:46.82	294.44	9.99	-33.4	-34.1	24.4	0.00e+00	0	30	0	3150970880	40	5806
2026-01-12 20:10:47.83	294.31	9.93	-33.6	-34.2	24.3	0.00e+00	0	30	0	3157262336	40	5876
2026-01-12 20:10:48.84	294.17	9.87	-33.6	-34.2	24.3	0.00e+00	0	30	0	3162505216	40	5864
2026-01-12 20:10:49.84	294.04	9.81	-33.6	-34.3	24.2	0.00e+00	0	30	0	3168796672	40	5954
2026-01-12 20:10:50.85	293.91	9.75	-33.8	-34.6	24.1	0.00e+00	0	30	0	3174039552	40	6125
2026-01-12 20:10:51.86	293.78	9.69	-33.7	-34.5	24.2	0.00e+00	0	30	0	3179282432	40	6092
2026-01-12 20:10:52.87	293.65	9.63	-33.8	-34.5	24.0	0.00e+00	0	30	0	3185573888	40	6043
2026-01-12 20:10:53.88	293.52	9.57	-33.8	-34.6	24.1	0.00e+00	0	30	0	3190816768	40	6123
2026-01-12 20:10:54.89	293.40	9.51	-33.8	-34.5	24.1	0.00e+00	0	30	0	3197108224	40	6092
2026-01-12 20:10:55.90	293.27	9.45	-33.9	-34.5	24.0	0.00e+00	0	30	0	3202351104	40	6069
2026-01-12 20:10:56.91	293.14	9.39	-34.0	-34.8	23.9	0.00e+00	0	30	0	3208642560	40	6263
2026-01-12 20:10:57.92	293.01	9.33	-34.2	-35.0	23.7	0.00e+00	0	30	0	3213885440	40	6404
2026-01-12 20:10:58.93	292.89	9.27	-34.2	-34.8	23.7	0.00e+00	0	30	0	3219128320	40	6305
2026-01-12 20:10:59.94	292.76	9.21	-34.1	-34.8	23.8	0.00e+00	0	30	0	3225419776	40	6264
2026-01-12 20:11:00.95	292.64	9.15	-34.1	-34.9	23.7	0.00e+00	0	30	0	3230662656	40	6342
2026-01-12 20:11:01.96	292.51	9.09	-34.0	-34.8	23.8	0.00e+00	0	30	0	3236954112	40	6300
2026-01-12 20:11:02.97	292.39	9.03	-34.0	-34.8	23.9	0.00e+00	0	30	0	3242196992	40	6247
2026-01-12 20:11:03.98	292.26	8.97	-34.0	-34.8	23.8	0.00e+00	0	30	0	3247439872	40	6290
2026-01-12 20:11:04.98	292.14	8.91	-34.0	-34.7	23.8	0.00e+00	0	30	0	3253731328	40	6234
2026-01-12 20:11:05.99	292.02	8.85	-34.1	-34.8	23.8	0.00e+00	0	30	0	3258974208	40	6255
2026-01-12 20:11:07.00	291.90	8.79	-34.1	-34.7	23.8	0.00e+00	0	30	0	3265265664	40	6234
2026-01-12 20:11:08.01	291.77	8.73	-34.0	-34.8	23.8	0.00e+00	0	30	0	3270508544	40	6316
2026-01-12 20:11:09.02	291.65	8.67	-34.2	-34.9	23.6	0.00e+00	0	30	0	3275751424	40	6347
2026-01-12 20:11:10.03	291.53	8.61	-34.1	-34.8	23.7	0.00e+00	0	30	0	3282042880	40	6263
2026-01-12 20:11:11.04	291.41	8.55	-34.0	-34.7	23.8	0.00e+00	0	30	0	3287285760	40	6237
2026-01-12 20:11:12.05	291.29	8.50	-33.9	-34.6	23.9	0.00e+00	0	30	0	3293577216	40	6116
2026-01-12 20:11:13.06	291.17	8.44	-33.9	-34.6	23.8	0.00e+00	0	30	0	3298820096	40	6131
2026-01-12 20:11:14.06	291.05	8.38	-34.0	-34.7	23.7	0.00e+00	0	30	0	3305111552	40	6178
2026-01-12 20:11:15.08	290.94	8.32	-33.9	-34.6	23.9	0.00e+00	0	30	0	3310354432	40	6133
2026-01-12 20:11:16.09	290.82	8.26	-34.0	-34.7	23.8	0.00e+00	0	30	0	3316645888	40	6175
2026-01-12 20:11:17.10	290.70	8.20	-34.0	-34.7	23.7	0.00e+00	0	30	0	3321888768	40	6203
2026-01-12 20:11:18.11	290.58	8.14	-34.2	-34.8	23.7	0.00e+00	0	30	0	3327131648	40	6317
2026-01-12 20:11:19.12	290.47	8.08	-34.2	-35.0	23.7	0.00e+00	0	30	0	3333423104	40	6394
2026-01-12 20:11:20.12	290.35	8.02	-34.3	-35.0	23.5	0.00e+00	0	30	0	3338665984	40	6399
2026-01-12 20:11:21.14	290.24	7.96	-34.3	-35.0	23.5	0.00e+00	0	30	0	3344957440	40	6464
2026-01-12 20:11:22.15	290.12	7.90	-34.3	-35.1	23.5	0.00e+00	0	30	0	3350200320	40	6539
2026-01-12 20:11:23.16	290.01	7.84	-34.2	-35.1	23.6	0.00e+00	0	30	0	3355443200	40	6465
2026-01-12 20:11:24.17	289.89	7.78	-34.2	-34.9	23.6	0.00e+00	0	30	0	3361734656	40	6376
2026-01-12 20:11:25.18	289.78	7.72	-34.2	-34.8	23.6	0.00e+00	0	30	0	3366977536	40	6315
2026-01-12 20:11:26.19	289.67	7.66	-34.3	-35.0	23.5	0.00e+00	0	30	0	3373268992	40	6426
2026-01-12 20:11:27.20	289.55	7.60	-34.3	-35.0	23.5	0.00e+00	0	30	0	3378511872	40	6428
2026-01-12 20:11:28.21	289.44	7.55	-34.3	-35.0	23.5	0.00e+00	0	30	0	3383754752	40	6392
2026-01-12 20:11:29.22	289.33	7.49	-34.4	-35.2	23.4	0.00e+00	0	30	0	3390046208	40	6576
2026-01-12 20:11:30.23	289.22	7.43	-34.3	-35.2	23.4	0.00e+00	0	30	0	3395289088	40	6545
2026-01-12 20:11:31.24	289.11	7.37	-34.5	-35.3	23.3	0.00e+00	0	30	0	3401580544	40	6654
2026-01-12 20:11:32.25	289.00	7.31	-34.6	-35.4	23.2	0.00e+00	0	30	0	3406823424	40	6736
2026-01-12 20:11:33.26	288.89	7.25	-34.6	-35.3	23.2	0.00e+00	0	30	0	3413114880	40	6620
2026-01-12 20:11:34.27	288.78	7.19	-34.6	-35.3	23.1	0.00e+00	0	30	0	3418357760	40	6686
2026-01-12 20:11:35.28	288.67	7.13	-34.7	-35.4	23.1	0.00e+00	0	30	0	3423600640	40	6735
2026-01-12 20:11:36.29	288.56	7.07	-34.7	-35.5	23.1	0.00e+00	0	30	0	3429892096	40	6795
2026-01-12 20:11:37.30	288.45	7.02	-34.7	-35.5	23.1	0.00e+00	0	30	0	3435134976	40	6782
2026-01-12 20:11:38.31	288.35	6.96	-34.8	-35.6	22.9	0.00e+00	0	30	0	3441426432	42	6141
2026-01-12 20:11:39.32	288.24	6.90	-34.7	-35.4	23.1	0.00e+00	0	30	0	3446669312	42	5988
2026-01-12 20:11:40.33	288.13	6.84	-34.6	-35.4	23.2	0.00e+00	0	30	0	3451912192	42	5996
2026-01-12 20:11:41.34	288.03	6.78	-34.7	-35.4	23.0	0.00e+00	0	30	0	3458203648	42	6010
2026-01-12 20:11:42.35	287.92	6.72	-34.9	-35.7	22.8	0.00e+00	0	30	0	3463446528	42	6212
2026-01-12 20:11:43.36	287.82	6.66	-34.8	-35.6	22.8	0.00e+00	0	30	0	3469737984	42	6165
2026-01-12 20:11:44.37	287.71	6.61	-35.1	-35.8	22.6	0.00e+00	0	30	0	3474980864	42	6279
2026-01-12 20:11:45.38	287.61	6.55	-34.9	-35.7	22.8	0.00e+00	0	30	0	3480223744	42	6211
2026-01-12 20:11:46.38	287.50	6.49	-35.0	-35.7	22.7	0.00e+00	0	30	0	3486515200	42	6212
2026-01-12 20:11:47.39	287.40	6.43	-35.0	-35.8	22.7	0.00e+00	0	30	0	3491758080	42	6304
2026-01-12 20:11:48.40	287.30	6.37	-35.3	-36.1	22.4	0.00e+00	0	30	0	3498049536	42	6538
2026-01-12 20:11:49.41	287.19	6.31	-34.9	-35.7	22.8	0.00e+00	0	30	0	3503292416	42	6240
2026-01-12 20:11:50.42	287.09	6.26	-34.8	-35.6	22.8	0.00e+00	0	30	0	3509583872	42	6142
2026-01-12 20:11:51.43	286.99	6.20	-34.8	-35.7	22.9	0.00e+00	0	30	0	3514826752	42	6176
2026-01-12 20:11:52.44	286.89	6.14	-34.9	-35.7	22.8	0.00e+00	0	30	0	3521118208	42	6199
2026-01-12 20:11:53.45	286.79	6.08	-34.8	-35.5	22.9	0.00e+00	0	30	0	3526361088	42	6042
2026-01-12 20:11:54.46	286.69	6.02	-34.9	-35.5	22.8	0.00e+00	0	30	0	3531603968	42	6102
2026-01-12 20:11:55.47	286.59	5.96	-34.8	-35.5	22.8	0.00e+00	0	30	0	3537895424	42	6099
2026-01-12 20:11:56.48	286.49	5.91	-34.9	-35.6	22.8	0.00e+00	0	30	0	3543138304	42	6146
2026-01-12 20:11:57.48	286.39	5.85	-35.1	-35.8	22.6	0.00e+00	0	30	0	3549429760	42	6257
2026-01-12 20:11:58.49	286.29	5.79	-34.9	-35.7	22.8	0.00e+00	0	30	0	3554672640	42	6240
2026-01-12 20:11:59.50	286.19	5.73	-35.0	-35.7	22.6	0.00e+00	0	30	0	3559915520	42	6210
2026-01-12 20:12:00.51	286.09	5.68	-35.1	-35.9	22.5	0.00e+00	0	30	0	3566206976	42	6364
2026-01-12 20:12:01.52	286.00	5.62	-35.1	-35.9	22.5	0.00e+00	0	30	0	3571449856	42	6325
2026-01-12 20:12:02.53	285.90	5.56	-35.1	-35.8	22.5	0.00e+00	0	30	0	3576692736	42	6283
2026-01-12 20:12:03.54	285.80	5.50	-35.2	-35.9	22.4	0.00e+00	0	30	0	3582984192	42	6335
2026-01-12 20:12:04.55	285.70	5.45	-35.3	-36.0	22.3	0.00e+00	0	30	0	3588227072	42	6458
2026-01-12 20:12:05.56	285.61	5.39	-35.2	-35.9	22.4	0.00e+00	0	30	0	3594518528	42	6354
2026-01-12 20:12:06.57	285.51	5.33	-35.1	-36.0	22.4	0.00e+00	0	30	0	3599761408	42	6391
2026-01-12 20:12:07.58	285.42	5.27	-35.1	-35.9	22.5	0.00e+00	0	30	0	3606052864	42	6387
