passes_logs/2026/01/12/R4.6S_Anadyr/R4.6S_Anadyr__20260112_203843_SUOMI_NPP_rec.log

#Pass ID: 20260112_203843_SUOMI NPP
#Satellite: SUOMI NPP
#Configuration: NPP
#almurnet v.1.7.20251203
#Start time: 2026-01-12 20:38:45

#Version: 2.2.20231116
#Station: R4.6S_Anadyr
#Location: 177.4865 lon 64.73178 lat
#TLE: 1 37849U 11061A   26011.57971124  .00000103  00000+0  69927-4 0  9996
#TLE: 2 37849  98.7807 313.6578 0002518  69.5076 290.6370 14.19524515736228

#Time	Az	El	Level	Level2	SNR	BER	BlckErr	Temp	State	Recorded	gain1	gain2
2026-01-12 20:38:45.64	72.57	0.11	-48.3	-60.0	3.5	8.46e-01	0	24	0	0	60	36186
2026-01-12 20:38:46.65	72.49	0.17	-48.6	-63.8	3.6	1.51e+00	0	25	104	0	60	56117
2026-01-12 20:38:47.66	72.42	0.22	-48.5	-63.7	3.6	1.51e+00	0	25	104	0	60	55507
2026-01-12 20:38:48.67	72.35	0.27	-48.5	-63.7	3.6	1.51e+00	0	25	104	0	60	55116
2026-01-12 20:38:49.68	72.28	0.32	-48.5	-63.6	3.6	1.51e+00	0	25	104	0	60	54910
2026-01-12 20:38:50.69	72.20	0.37	-48.4	-63.7	3.6	1.51e+00	0	25	104	0	60	55624
2026-01-12 20:38:51.69	72.13	0.42	-48.4	-63.7	3.6	1.51e+00	0	25	104	0	60	55167
2026-01-12 20:38:52.70	72.06	0.47	-48.5	-63.7	3.6	1.51e+00	0	26	104	0	60	55342
2026-01-12 20:38:53.71	71.98	0.52	-48.6	-63.7	3.6	1.51e+00	0	26	104	0	60	55269
2026-01-12 20:38:54.73	71.91	0.57	-48.4	-63.7	3.6	1.51e+00	0	26	104	0	60	55302
2026-01-12 20:38:55.74	71.83	0.62	-48.4	-63.7	3.6	1.51e+00	0	26	104	0	60	55397
2026-01-12 20:38:56.75	71.76	0.67	-48.3	-63.6	3.6	1.51e+00	0	26	104	0	60	54809
2026-01-12 20:38:57.76	71.69	0.72	-48.4	-63.6	3.6	1.51e+00	0	26	104	0	60	54441
2026-01-12 20:38:58.76	71.61	0.77	-48.0	-63.4	3.6	1.51e+00	0	26	104	0	60	53670
2026-01-12 20:38:59.77	71.54	0.83	-46.5	-63.3	3.6	1.51e+00	0	26	104	0	60	52629
2026-01-12 20:39:00.78	71.46	0.88	-47.9	-63.0	3.6	1.51e+00	0	26	104	0	60	51308
2026-01-12 20:39:01.79	71.38	0.93	-47.5	-62.7	3.6	1.51e+00	0	26	104	0	60	49591
2026-01-12 20:39:02.80	71.31	0.98	-46.7	-61.9	3.6	1.51e+00	0	26	104	0	60	45173
2026-01-12 20:39:03.81	71.23	1.03	-46.7	-61.9	3.6	1.51e+00	0	26	104	0	60	45110
2026-01-12 20:39:04.82	71.15	1.08	-46.6	-61.9	3.6	1.51e+00	0	26	104	0	60	45030
2026-01-12 20:39:05.83	71.08	1.13	-46.6	-61.9	3.6	1.51e+00	0	26	104	0	60	44964
2026-01-12 20:39:06.84	71.00	1.18	-46.6	-61.9	3.6	1.51e+00	0	26	104	0	60	44912
2026-01-12 20:39:07.85	70.92	1.24	-46.6	-62.0	3.6	1.51e+00	0	26	104	0	60	45263
2026-01-12 20:39:08.86	70.84	1.29	-46.6	-61.9	3.6	1.51e+00	0	26	104	0	60	44839
2026-01-12 20:39:09.87	70.77	1.34	-46.6	-61.9	3.6	1.51e+00	0	26	104	0	60	44949
2026-01-12 20:39:10.88	70.69	1.39	-46.6	-61.9	3.6	1.51e+00	0	26	104	0	60	45207
2026-01-12 20:39:11.89	70.61	1.44	-46.6	-61.9	3.6	1.51e+00	0	26	104	0	60	44856
2026-01-12 20:39:12.90	70.53	1.49	-46.6	-61.9	3.6	1.51e+00	0	26	104	0	60	44915
2026-01-12 20:39:13.91	70.45	1.54	-46.6	-61.9	3.6	1.51e+00	0	26	104	0	60	44751
2026-01-12 20:39:14.92	70.37	1.60	-46.6	-61.9	3.6	1.51e+00	0	26	104	0	60	44890
2026-01-12 20:39:15.93	70.29	1.65	-46.6	-61.9	3.6	1.51e+00	0	26	104	0	60	44776
2026-01-12 20:39:16.94	70.21	1.70	-46.6	-61.9	3.6	1.51e+00	0	26	104	0	60	45068
2026-01-12 20:39:17.95	70.13	1.75	-46.6	-61.9	3.6	1.51e+00	0	26	104	0	60	44827
2026-01-12 20:39:18.96	70.05	1.80	-46.6	-61.8	3.6	1.51e+00	0	26	104	0	60	44453
2026-01-12 20:39:19.97	69.97	1.86	-46.6	-61.8	3.6	1.51e+00	0	26	104	0	60	44299
2026-01-12 20:39:20.98	69.89	1.91	-46.6	-61.7	3.6	1.51e+00	0	26	104	0	60	43992
2026-01-12 20:39:21.99	69.81	1.96	-46.6	-61.8	3.6	1.51e+00	0	26	104	0	60	44396
2026-01-12 20:39:23.00	69.72	2.01	-46.6	-61.6	3.6	1.51e+00	0	26	104	0	60	43456
2026-01-12 20:39:24.01	69.64	2.06	-46.6	-61.5	3.6	1.51e+00	0	26	104	0	60	42754
2026-01-12 20:39:25.02	69.56	2.12	-46.6	-61.4	3.6	1.51e+00	0	26	104	0	60	42466
2026-01-12 20:39:26.03	69.48	2.17	-46.6	-61.4	3.6	1.51e+00	0	26	104	0	60	42332
2026-01-12 20:39:27.04	69.39	2.22	-46.6	-61.7	3.6	1.51e+00	0	26	104	0	60	43743
2026-01-12 20:39:28.05	69.31	2.27	-46.6	-61.8	3.6	1.51e+00	0	26	104	0	60	44396
2026-01-12 20:39:29.06	69.23	2.32	-46.6	-61.9	3.6	1.51e+00	0	26	104	0	60	44741
2026-01-12 20:39:30.07	69.14	2.38	-46.6	-61.7	3.6	1.51e+00	0	26	104	0	60	44190
2026-01-12 20:39:31.08	69.06	2.43	-46.6	-61.7	3.6	1.51e+00	0	26	104	0	60	44176
2026-01-12 20:39:32.09	68.97	2.48	-46.6	-61.8	3.6	1.51e+00	0	26	104	0	60	44643
2026-01-12 20:39:33.10	68.89	2.53	-46.6	-61.8	3.6	1.51e+00	0	26	104	0	60	44363
2026-01-12 20:39:34.11	68.80	2.59	-46.6	-61.5	3.6	1.51e+00	0	26	104	0	60	42889
2026-01-12 20:39:35.12	68.72	2.64	-46.5	-60.9	3.6	1.51e+00	0	26	104	0	60	40304
2026-01-12 20:39:36.13	68.63	2.69	-46.5	-60.5	3.6	1.51e+00	0	26	104	0	60	38204
2026-01-12 20:39:37.15	68.54	2.74	-46.5	-61.1	3.6	1.51e+00	0	26	104	0	60	40982
2026-01-12 20:39:38.15	68.46	2.80	-46.5	-61.5	3.6	1.51e+00	0	26	104	0	60	43093
2026-01-12 20:39:39.16	68.37	2.85	-46.4	-59.3	3.7	1.51e+00	0	26	104	0	60	33447
2026-01-12 20:39:40.17	68.28	2.90	-46.1	-55.4	5.5	1.28e+00	92	26	104	0	60	21373
2026-01-12 20:39:41.18	68.20	2.95	-45.5	-51.6	8.4	9.29e-02	0	26	0	1048576	60	13726
2026-01-12 20:39:42.19	68.11	3.01	-44.9	-49.8	11.0	8.82e-03	91	26	0	3145728	60	11150
2026-01-12 20:39:43.20	68.02	3.06	-44.4	-48.6	12.1	1.43e-03	0	26	0	5242880	60	9700
2026-01-12 20:39:44.21	67.93	3.11	-44.7	-49.1	11.9	4.13e-03	90	26	0	6291456	60	10303
2026-01-12 20:39:45.22	67.84	3.17	-43.2	-46.0	15.4	8.30e-06	92	26	0	8388608	60	7252
2026-01-12 20:39:46.23	67.75	3.22	-46.6	-61.5	3.6	1.06e+00	0	26	104	9437184	60	42814
2026-01-12 20:39:47.24	67.66	3.27	-46.2	-54.7	7.2	1.49e+00	58	26	104	9437184	60	19675
2026-01-12 20:39:48.25	67.57	3.33	-43.0	-45.7	15.1	0.00e+00	0	26	0	10485760	58	7836
2026-01-12 20:39:49.26	67.48	3.38	-42.1	-44.4	16.4	0.00e+00	92	26	0	11534336	58	6715
2026-01-12 20:39:50.27	67.39	3.43	-41.9	-44.0	16.6	7.00e-07	0	26	0	13631488	56	7240
2026-01-12 20:39:51.28	67.30	3.48	-41.8	-43.9	17.1	0.00e+00	90	26	0	15728640	56	7154
2026-01-12 20:39:52.28	67.21	3.54	-42.0	-44.1	16.9	0.00e+00	92	26	0	17825792	56	7298
2026-01-12 20:39:53.29	67.12	3.59	-41.6	-43.6	17.4	0.00e+00	0	26	0	19922944	56	6890
2026-01-12 20:39:54.30	67.03	3.64	-41.7	-43.6	17.4	0.00e+00	92	26	0	20971520	56	6912
2026-01-12 20:39:55.31	66.94	3.70	-41.2	-43.0	17.9	0.00e+00	0	26	0	23068672	56	6443
2026-01-12 20:39:56.32	66.84	3.75	-41.2	-43.0	18.0	0.00e+00	92	26	0	25165824	56	6454
2026-01-12 20:39:57.33	66.75	3.80	-41.0	-42.6	18.4	0.00e+00	0	26	0	27262976	56	6167
2026-01-12 20:39:58.34	66.66	3.86	-41.1	-42.9	18.0	0.00e+00	92	26	0	29360128	56	6332
2026-01-12 20:39:59.35	66.56	3.91	-41.2	-42.9	18.0	0.00e+00	35	26	0	30408704	56	6381
2026-01-12 20:40:00.36	66.47	3.96	-41.0	-42.7	18.3	0.00e+00	0	26	0	32505856	56	6199
2026-01-12 20:40:01.36	66.38	4.02	-41.0	-42.6	18.4	0.00e+00	92	26	0	34603008	56	6155
2026-01-12 20:40:02.37	66.28	4.07	-41.3	-43.0	18.0	0.00e+00	0	26	0	36700160	56	6447
2026-01-12 20:40:03.38	66.19	4.12	-41.0	-42.6	18.4	0.00e+00	48	26	0	38797312	56	6163
2026-01-12 20:40:04.39	66.09	4.18	-40.9	-42.6	18.4	0.00e+00	0	26	0	40894464	56	6122
2026-01-12 20:40:05.40	66.00	4.23	-41.1	-42.9	18.2	0.00e+00	92	26	0	41943040	56	6324
2026-01-12 20:40:06.41	65.90	4.28	-41.4	-43.2	17.8	0.00e+00	0	26	0	44040192	56	6608
2026-01-12 20:40:07.41	65.80	4.34	-41.4	-43.2	17.9	0.00e+00	0	26	0	46137344	56	6563
2026-01-12 20:40:08.42	65.71	4.39	-41.4	-43.2	17.8	0.00e+00	92	26	0	48234496	56	6611
2026-01-12 20:40:09.43	65.61	4.44	-41.7	-43.6	17.6	0.00e+00	0	26	0	50331648	56	6918
2026-01-12 20:40:10.44	65.51	4.50	-41.4	-43.3	17.9	0.00e+00	79	26	0	51380224	56	6656
2026-01-12 20:40:11.45	65.41	4.55	-41.4	-43.2	17.9	0.00e+00	0	26	0	53477376	56	6573
2026-01-12 20:40:12.46	65.32	4.61	-41.4	-43.3	17.9	0.00e+00	92	26	0	55574528	56	6660
2026-01-12 20:40:13.47	65.22	4.66	-41.6	-43.6	17.6	0.00e+00	0	26	0	57671680	56	6869
2026-01-12 20:40:14.48	65.12	4.71	-41.5	-43.4	17.7	0.00e+00	92	26	0	59768832	56	6712
2026-01-12 20:40:15.49	65.02	4.77	-41.5	-43.5	17.6	0.00e+00	92	26	0	60817408	56	6781
2026-01-12 20:40:16.50	64.92	4.82	-41.9	-43.9	17.1	0.00e+00	0	26	0	62914560	56	7117
2026-01-12 20:40:17.51	64.82	4.87	-41.6	-43.5	17.6	0.00e+00	29	26	0	65011712	56	6837
2026-01-12 20:40:18.52	64.72	4.93	-41.7	-43.7	17.3	0.00e+00	0	26	0	67108864	56	6958
2026-01-12 20:40:19.52	64.62	4.98	-41.6	-43.5	17.6	0.00e+00	92	26	0	69206016	56	6838
2026-01-12 20:40:20.53	64.52	5.04	-41.6	-43.5	17.7	0.00e+00	0	26	0	70254592	56	6812
2026-01-12 20:40:21.54	64.41	5.09	-41.5	-43.3	17.9	0.00e+00	92	26	0	72351744	56	6688
2026-01-12 20:40:22.55	64.31	5.14	-41.4	-43.2	18.0	0.00e+00	31	26	0	74448896	56	6581
2026-01-12 20:40:23.56	64.21	5.20	-41.5	-43.4	17.9	0.00e+00	0	26	0	76546048	56	6755
2026-01-12 20:40:24.57	64.11	5.25	-41.5	-43.4	17.9	0.00e+00	57	26	0	78643200	56	6707
2026-01-12 20:40:25.58	64.00	5.31	-41.3	-43.2	18.1	0.00e+00	0	26	0	79691776	56	6553
2026-01-12 20:40:26.59	63.90	5.36	-41.2	-43.0	18.2	0.00e+00	86	26	0	81788928	56	6449
2026-01-12 20:40:27.60	63.80	5.41	-41.2	-43.0	18.3	0.00e+00	0	26	0	83886080	56	6393
2026-01-12 20:40:28.61	63.69	5.47	-41.1	-42.9	18.3	0.00e+00	90	26	0	85983232	56	6333
2026-01-12 20:40:29.62	63.59	5.52	-41.1	-42.8	18.5	0.00e+00	35	26	0	88080384	56	6281
2026-01-12 20:40:30.63	63.48	5.58	-41.2	-42.9	18.4	7.00e-07	0	26	0	89128960	56	6339
2026-01-12 20:40:31.64	63.38	5.63	-41.2	-43.0	18.4	0.00e+00	92	27	0	91226112	56	6434
2026-01-12 20:40:32.64	63.27	5.69	-41.0	-42.7	18.6	0.00e+00	0	26	0	93323264	56	6222
2026-01-12 20:40:33.65	63.16	5.74	-40.8	-42.5	18.8	0.00e+00	92	26	0	95420416	56	6046
2026-01-12 20:40:34.66	63.06	5.79	-41.2	-42.9	18.3	0.00e+00	0	26	0	97517568	56	6382
2026-01-12 20:40:35.67	62.95	5.85	-41.0	-42.7	18.6	0.00e+00	92	26	0	98566144	56	6186
2026-01-12 20:40:36.68	62.84	5.90	-41.1	-42.8	18.4	0.00e+00	0	26	0	100663296	56	6275
2026-01-12 20:40:37.69	62.73	5.96	-41.2	-42.9	18.4	0.00e+00	49	27	0	102760448	56	6379
2026-01-12 20:40:38.70	62.62	6.01	-40.8	-42.4	18.9	0.00e+00	90	26	0	104857600	56	6031
2026-01-12 20:40:39.71	62.52	6.07	-40.7	-42.3	18.9	0.00e+00	0	26	0	106954752	54	6687
2026-01-12 20:40:40.72	62.41	6.12	-40.6	-42.2	19.0	0.00e+00	78	27	0	109051904	54	6552
2026-01-12 20:40:41.73	62.30	6.17	-40.7	-42.2	18.9	0.00e+00	0	27	0	110100480	54	6607
2026-01-12 20:40:42.74	62.19	6.23	-40.9	-42.6	18.5	0.00e+00	92	26	0	112197632	54	6895
2026-01-12 20:40:43.75	62.08	6.28	-41.0	-42.8	18.6	2.20e-06	8	27	0	114294784	54	7031
2026-01-12 20:40:44.76	61.96	6.34	-41.1	-42.9	18.4	0.00e+00	40	27	0	116391936	54	7094
2026-01-12 20:40:45.77	61.85	6.39	-41.2	-43.1	18.4	0.00e+00	92	27	0	118489088	54	7265
2026-01-12 20:40:46.78	61.74	6.45	-40.8	-42.5	18.8	0.00e+00	0	27	0	119537664	54	6798
2026-01-12 20:40:47.78	61.63	6.50	-41.0	-42.8	18.5	0.00e+00	32	27	0	121634816	54	7040
2026-01-12 20:40:48.79	61.52	6.55	-40.9	-42.6	18.6	0.00e+00	0	27	0	123731968	54	6888
2026-01-12 20:40:49.80	61.40	6.61	-40.8	-42.4	18.8	0.00e+00	92	27	0	125829120	54	6756
2026-01-12 20:40:50.81	61.29	6.66	-40.8	-42.4	18.8	0.00e+00	0	27	0	127926272	54	6753
2026-01-12 20:40:51.82	61.18	6.72	-40.8	-42.4	18.8	0.00e+00	81	27	0	128974848	54	6767
2026-01-12 20:40:52.83	61.06	6.77	-41.0	-42.7	18.6	0.00e+00	92	27	0	131072000	54	6979
2026-01-12 20:40:53.84	60.95	6.83	-40.9	-42.6	18.8	0.00e+00	0	27	0	133169152	54	6851
2026-01-12 20:40:54.85	60.83	6.88	-40.9	-42.6	18.8	0.00e+00	36	27	0	135266304	54	6874
2026-01-12 20:40:55.86	60.71	6.94	-40.9	-42.5	18.8	0.00e+00	0	27	0	137363456	54	6835
2026-01-12 20:40:56.87	60.60	6.99	-40.6	-42.2	19.1	0.00e+00	92	27	0	138412032	54	6553
2026-01-12 20:40:57.88	60.48	7.05	-40.5	-42.0	19.3	0.00e+00	0	27	0	140509184	54	6423
2026-01-12 20:40:58.89	60.36	7.10	-40.4	-41.9	19.4	0.00e+00	80	27	0	142606336	54	6345
2026-01-12 20:40:59.90	60.25	7.15	-40.2	-41.7	19.5	0.00e+00	35	27	0	144703488	54	6224
2026-01-12 20:41:00.91	60.13	7.21	-40.1	-41.5	19.5	0.00e+00	0	27	0	146800640	54	6075
2026-01-12 20:41:01.92	60.01	7.26	-40.0	-41.4	19.9	0.00e+00	37	27	0	147849216	54	6026
2026-01-12 20:41:02.92	59.89	7.32	-40.0	-41.4	19.9	0.00e+00	0	27	0	149946368	54	6024
2026-01-12 20:41:03.93	59.77	7.37	-39.9	-41.2	20.0	0.00e+00	92	27	0	152043520	54	5896
2026-01-12 20:41:04.94	59.65	7.43	-39.9	-41.3	19.9	0.00e+00	0	27	0	154140672	54	5946
2026-01-12 20:41:05.95	59.53	7.48	-39.9	-41.2	20.1	0.00e+00	92	27	0	156237824	54	5881
2026-01-12 20:41:06.96	59.41	7.54	-40.0	-41.4	20.0	0.00e+00	36	27	0	157286400	54	5978
2026-01-12 20:41:07.97	59.29	7.59	-40.0	-41.4	19.8	0.00e+00	0	27	0	159383552	54	6023
2026-01-12 20:41:08.98	59.17	7.65	-40.0	-41.4	20.0	0.00e+00	90	27	0	161480704	54	6005
2026-01-12 20:41:09.99	59.05	7.70	-40.0	-41.4	19.8	0.00e+00	0	27	0	163577856	54	6016
2026-01-12 20:41:11.00	58.92	7.75	-39.9	-41.3	20.0	0.00e+00	45	27	0	165675008	54	5939
2026-01-12 20:41:12.00	58.80	7.81	-39.9	-41.2	20.0	0.00e+00	0	27	0	166723584	54	5866
2026-01-12 20:41:13.02	58.68	7.86	-39.8	-41.1	20.2	0.00e+00	63	27	0	168820736	52	6491
2026-01-12 20:41:14.02	58.55	7.92	-39.7	-41.0	20.3	0.00e+00	1	27	0	170917888	52	6446
2026-01-12 20:41:15.03	58.43	7.97	-39.8	-41.1	20.2	0.00e+00	0	27	0	173015040	52	6496
2026-01-12 20:41:16.04	58.30	8.03	-39.9	-41.2	20.1	0.00e+00	83	27	0	175112192	52	6580
2026-01-12 20:41:17.05	58.18	8.08	-40.1	-41.6	19.4	0.00e+00	0	27	0	176160768	52	6862
2026-01-12 20:41:18.06	58.05	8.13	-40.0	-41.3	20.0	0.00e+00	2	27	0	178257920	52	6681
2026-01-12 20:41:19.07	57.92	8.19	-40.1	-41.5	20.0	0.00e+00	0	27	0	180355072	52	6771
2026-01-12 20:41:20.08	57.80	8.24	-40.1	-41.5	19.9	0.00e+00	57	27	0	182452224	52	6783
2026-01-12 20:41:21.09	57.67	8.30	-40.2	-41.6	19.8	0.00e+00	0	27	0	184549376	52	6881
2026-01-12 20:41:22.10	57.54	8.35	-40.0	-41.4	20.1	0.00e+00	9	27	0	185597952	52	6707
2026-01-12 20:41:23.11	57.41	8.41	-39.9	-41.2	20.1	0.00e+00	91	27	0	187695104	52	6605
2026-01-12 20:41:24.12	57.28	8.46	-40.1	-41.5	20.0	0.00e+00	0	27	0	189792256	52	6813
2026-01-12 20:41:25.13	57.15	8.52	-40.3	-41.7	19.9	0.00e+00	90	27	0	191889408	52	6941
2026-01-12 20:41:26.14	57.02	8.57	-40.4	-41.8	19.7	0.00e+00	0	27	0	193986560	52	7087
2026-01-12 20:41:27.14	56.90	8.62	-40.2	-41.6	19.9	0.00e+00	90	27	0	195035136	52	6862
2026-01-12 20:41:28.15	56.76	8.68	-40.1	-41.5	20.0	0.00e+00	0	27	0	197132288	52	6819
2026-01-12 20:41:29.16	56.63	8.73	-40.2	-41.5	20.0	0.00e+00	0	27	0	199229440	52	6840
2026-01-12 20:41:30.17	56.50	8.79	-40.2	-41.5	19.9	0.00e+00	92	27	0	201326592	52	6840
2026-01-12 20:41:31.18	56.37	8.84	-40.1	-41.4	19.9	0.00e+00	33	27	0	203423744	52	6746
2026-01-12 20:41:32.19	56.24	8.89	-40.0	-41.4	20.1	0.00e+00	80	27	0	204472320	52	6711
2026-01-12 20:41:33.20	56.10	8.95	-40.1	-41.4	20.2	0.00e+00	0	27	0	206569472	52	6758
2026-01-12 20:41:34.21	55.97	9.00	-40.1	-41.4	20.0	0.00e+00	92	27	0	208666624	52	6746
2026-01-12 20:41:35.22	55.83	9.06	-40.2	-41.6	19.9	0.00e+00	0	27	0	210763776	52	6910
2026-01-12 20:41:36.23	55.70	9.11	-40.1	-41.5	20.0	0.00e+00	91	27	0	212860928	52	6798
2026-01-12 20:41:37.24	55.56	9.16	-39.8	-41.2	20.3	0.00e+00	20	27	0	214958080	52	6540
2026-01-12 20:41:38.25	55.43	9.22	-40.0	-41.3	20.1	0.00e+00	0	27	0	216006656	52	6692
2026-01-12 20:41:39.25	55.29	9.27	-39.8	-41.1	20.3	0.00e+00	71	27	0	218103808	52	6534
2026-01-12 20:41:40.26	55.15	9.33	-39.9	-41.2	20.3	0.00e+00	0	27	0	220200960	52	6570
2026-01-12 20:41:41.27	55.02	9.38	-39.8	-41.0	20.3	0.00e+00	78	27	0	222298112	52	6458
2026-01-12 20:41:42.28	54.88	9.43	-39.8	-41.1	20.4	0.00e+00	0	27	0	224395264	52	6519
2026-01-12 20:41:43.29	54.74	9.49	-39.9	-41.2	20.3	0.00e+00	90	27	0	225443840	52	6573
2026-01-12 20:41:44.30	54.60	9.54	-40.1	-41.4	20.1	0.00e+00	37	27	0	227540992	52	6736
2026-01-12 20:41:45.31	54.46	9.59	-39.9	-41.2	20.3	0.00e+00	0	27	0	229638144	52	6572
2026-01-12 20:41:46.32	54.32	9.65	-39.9	-41.2	20.4	0.00e+00	70	27	0	231735296	52	6580
2026-01-12 20:41:47.33	54.18	9.70	-39.7	-40.9	20.6	0.00e+00	0	27	0	233832448	52	6374
2026-01-12 20:41:48.34	54.04	9.75	-39.7	-40.9	20.5	0.00e+00	90	27	0	234881024	52	6385
2026-01-12 20:41:49.35	53.90	9.81	-39.8	-41.1	20.3	0.00e+00	0	27	0	236978176	52	6486
2026-01-12 20:41:50.35	53.76	9.86	-40.1	-41.4	20.1	0.00e+00	90	27	0	239075328	52	6732
2026-01-12 20:41:51.36	53.61	9.91	-40.1	-41.4	20.2	0.00e+00	8	27	0	241172480	52	6743
2026-01-12 20:41:52.37	53.47	9.97	-40.2	-41.6	19.9	0.00e+00	0	27	0	243269632	52	6922
2026-01-12 20:41:53.38	53.33	10.02	-40.2	-41.6	19.9	0.00e+00	92	27	0	244318208	52	6889
2026-01-12 20:41:54.39	53.18	10.07	-40.3	-41.7	19.9	0.00e+00	0	27	0	246415360	52	6952
2026-01-12 20:41:55.40	53.04	10.13	-40.5	-42.0	19.7	0.00e+00	36	27	0	248512512	52	7191
2026-01-12 20:41:56.41	52.89	10.18	-40.7	-42.2	19.4	0.00e+00	0	27	0	250609664	52	7367
2026-01-12 20:41:57.42	52.75	10.23	-40.6	-42.2	19.5	0.00e+00	88	27	0	252706816	54	6554
2026-01-12 20:41:58.43	52.60	10.28	-40.5	-42.0	19.6	0.00e+00	0	27	0	253755392	54	6427
2026-01-12 20:41:59.44	52.45	10.34	-40.5	-42.0	19.6	0.00e+00	0	27	0	255852544	54	6407
2026-01-12 20:42:00.45	52.30	10.39	-40.3	-41.7	19.9	0.00e+00	92	27	0	257949696	54	6228
2026-01-12 20:42:01.46	52.16	10.44	-40.0	-41.4	20.0	0.00e+00	0	27	0	260046848	54	6004
2026-01-12 20:42:02.46	52.01	10.49	-39.9	-41.2	20.1	0.00e+00	31	27	0	262144000	54	5892
2026-01-12 20:42:03.47	51.86	10.55	-39.8	-41.2	20.4	0.00e+00	0	27	0	263192576	54	5833
2026-01-12 20:42:04.48	51.71	10.60	-39.8	-41.1	20.5	0.00e+00	55	27	0	265289728	52	6500
2026-01-12 20:42:05.49	51.56	10.65	-39.8	-41.1	20.6	0.00e+00	0	27	0	267386880	52	6533
2026-01-12 20:42:06.50	51.41	10.70	-39.6	-40.9	20.7	0.00e+00	30	27	0	269484032	52	6368
2026-01-12 20:42:07.51	51.26	10.76	-39.5	-40.7	20.8	0.00e+00	91	27	0	271581184	52	6243
2026-01-12 20:42:08.52	51.10	10.81	-39.6	-40.9	20.7	0.00e+00	0	27	0	272629760	52	6364
2026-01-12 20:42:09.53	50.95	10.86	-39.3	-40.6	20.9	0.00e+00	26	27	0	274726912	52	6133
2026-01-12 20:42:10.54	50.80	10.91	-39.1	-40.3	21.2	0.00e+00	0	27	0	276824064	52	5904
2026-01-12 20:42:11.55	50.65	10.96	-39.1	-40.4	21.1	0.00e+00	46	27	0	278921216	52	5980
2026-01-12 20:42:12.56	50.49	11.02	-39.0	-40.2	21.3	0.00e+00	0	27	0	281018368	52	5856
2026-01-12 20:42:13.57	50.34	11.07	-38.9	-40.1	21.4	0.00e+00	71	27	0	283115520	52	5785
2026-01-12 20:42:14.57	50.18	11.12	-38.8	-39.9	21.5	0.00e+00	91	27	0	284164096	52	5680
2026-01-12 20:42:15.58	50.03	11.17	-38.9	-40.0	21.4	0.00e+00	0	27	0	286261248	50	6454
2026-01-12 20:42:16.59	49.87	11.22	-38.5	-39.7	21.8	0.00e+00	91	27	0	288358400	50	6182
2026-01-12 20:42:17.60	49.71	11.27	-38.6	-39.7	21.7	0.00e+00	0	27	0	290455552	50	6238
2026-01-12 20:42:18.61	49.56	11.32	-38.3	-39.4	21.9	0.00e+00	82	27	0	292552704	50	5965
2026-01-12 20:42:19.62	49.40	11.37	-38.3	-39.4	21.9	0.00e+00	0	27	0	293601280	50	5989
2026-01-12 20:42:20.63	49.24	11.43	-38.5	-39.5	21.9	0.00e+00	92	27	0	295698432	50	6086
2026-01-12 20:42:21.64	49.08	11.48	-38.3	-39.3	21.9	0.00e+00	0	27	0	297795584	50	5951
2026-01-12 20:42:22.65	48.92	11.53	-38.3	-39.3	22.0	0.00e+00	0	27	0	299892736	50	5964
2026-01-12 20:42:23.66	48.76	11.58	-38.1	-39.2	22.1	0.00e+00	66	27	0	301989888	50	5829
2026-01-12 20:42:24.67	48.60	11.63	-38.1	-39.1	22.2	0.00e+00	0	27	0	303038464	50	5791
2026-01-12 20:42:25.68	48.44	11.68	-38.0	-39.0	22.2	0.00e+00	92	27	0	305135616	50	5742
2026-01-12 20:42:26.69	48.28	11.73	-38.0	-39.0	22.3	0.00e+00	0	27	0	307232768	50	5760
2026-01-12 20:42:27.70	48.11	11.78	-38.0	-39.1	22.2	0.00e+00	91	27	0	309329920	50	5770
2026-01-12 20:42:28.71	47.95	11.83	-38.1	-39.1	22.1	0.00e+00	0	27	0	311427072	50	5818
2026-01-12 20:42:29.71	47.79	11.88	-38.2	-39.3	22.0	0.00e+00	0	27	0	312475648	50	5923
2026-01-12 20:42:30.72	47.62	11.93	-38.2	-39.3	22.0	0.00e+00	89	27	0	314572800	50	5939
2026-01-12 20:42:31.73	47.46	11.98	-38.3	-39.4	22.0	0.00e+00	0	27	0	316669952	50	5978
2026-01-12 20:42:32.74	47.29	12.03	-38.2	-39.3	22.1	0.00e+00	79	27	0	318767104	50	5916
2026-01-12 20:42:33.75	47.13	12.08	-38.1	-39.2	22.0	0.00e+00	0	28	0	320864256	50	5870
2026-01-12 20:42:34.76	46.96	12.12	-37.9	-38.9	22.3	0.00e+00	79	28	0	321912832	50	5672
2026-01-12 20:42:35.77	46.79	12.17	-37.7	-38.8	22.4	0.00e+00	0	27	0	324009984	50	5571
2026-01-12 20:42:36.78	46.63	12.22	-37.7	-38.7	22.5	0.00e+00	0	28	0	326107136	48	6222
2026-01-12 20:42:37.79	46.46	12.27	-37.7	-38.7	22.5	0.00e+00	31	28	0	328204288	48	6232
2026-01-12 20:42:38.80	46.29	12.32	-37.7	-38.7	22.5	0.00e+00	0	28	0	330301440	48	6180
2026-01-12 20:42:39.81	46.12	12.37	-37.8	-38.8	22.5	0.00e+00	36	28	0	331350016	48	6247
2026-01-12 20:42:40.82	45.95	12.42	-37.7	-38.6	22.6	0.00e+00	0	28	0	333447168	48	6171
2026-01-12 20:42:41.83	45.78	12.46	-37.7	-38.7	22.5	0.00e+00	92	28	0	335544320	48	6213
2026-01-12 20:42:42.84	45.61	12.51	-37.5	-38.5	22.7	0.00e+00	0	28	0	337641472	48	6078
2026-01-12 20:42:43.84	45.44	12.56	-37.7	-38.7	22.7	0.00e+00	18	28	0	339738624	48	6221
2026-01-12 20:42:44.85	45.27	12.61	-37.7	-38.7	22.5	0.00e+00	0	28	0	340787200	48	6232
2026-01-12 20:42:45.86	45.09	12.66	-38.0	-39.0	22.3	0.00e+00	0	28	0	342884352	48	6417
2026-01-12 20:42:46.87	44.92	12.70	-38.1	-39.2	22.2	0.00e+00	59	28	0	344981504	48	6549
2026-01-12 20:42:47.88	44.75	12.75	-38.2	-39.3	22.1	0.00e+00	0	28	0	347078656	48	6637
2026-01-12 20:42:48.89	44.57	12.80	-38.1	-39.2	22.1	0.00e+00	92	28	0	349175808	48	6585
2026-01-12 20:42:49.90	44.40	12.84	-38.1	-39.2	22.2	0.00e+00	0	28	0	350224384	48	6547
2026-01-12 20:42:50.90	44.22	12.89	-38.0	-39.0	22.4	0.00e+00	92	28	0	352321536	48	6444
2026-01-12 20:42:51.91	44.05	12.94	-37.7	-38.7	22.6	0.00e+00	0	28	0	354418688	48	6220
2026-01-12 20:42:52.92	43.87	12.98	-37.7	-38.7	22.7	0.00e+00	0	28	0	356515840	48	6216
2026-01-12 20:42:53.93	43.69	13.03	-37.2	-38.2	23.0	0.00e+00	38	28	0	358612992	48	5858
2026-01-12 20:42:54.94	43.52	13.07	-37.0	-37.9	23.2	0.00e+00	0	28	0	359661568	48	5675
2026-01-12 20:42:55.95	43.34	13.12	-36.8	-37.8	23.3	0.00e+00	72	28	0	361758720	48	5572
2026-01-12 20:42:56.96	43.16	13.17	-36.8	-37.7	23.3	0.00e+00	0	28	0	363855872	48	5543
2026-01-12 20:42:57.97	42.98	13.21	-36.9	-37.8	23.3	0.00e+00	51	28	0	365953024	48	5604
2026-01-12 20:42:58.98	42.80	13.26	-36.7	-37.6	23.4	0.00e+00	0	28	0	368050176	46	6162
2026-01-12 20:42:59.99	42.62	13.30	-36.9	-37.8	23.2	0.00e+00	0	28	0	370147328	46	6315
2026-01-12 20:43:01.00	42.44	13.35	-36.8	-37.8	23.3	0.00e+00	92	28	0	371195904	46	6251
2026-01-12 20:43:02.01	42.26	13.39	-37.1	-38.0	23.1	0.00e+00	0	28	0	373293056	46	6449
2026-01-12 20:43:03.02	42.07	13.43	-37.2	-38.1	23.0	0.00e+00	35	28	0	375390208	46	6521
2026-01-12 20:43:04.03	41.89	13.48	-37.2	-38.2	23.0	0.00e+00	0	28	0	377487360	46	6574
2026-01-12 20:43:05.04	41.71	13.52	-37.6	-38.6	22.7	0.00e+00	9	28	0	379584512	46	6899
2026-01-12 20:43:06.05	41.52	13.57	-37.7	-38.7	22.7	0.00e+00	0	28	0	380633088	46	6986
2026-01-12 20:43:07.06	41.34	13.61	-37.9	-39.0	22.4	0.00e+00	0	28	0	382730240	48	6391
2026-01-12 20:43:08.07	41.15	13.65	-38.1	-39.1	22.2	0.00e+00	93	28	0	384827392	48	6527
2026-01-12 20:43:09.08	40.97	13.70	-37.9	-39.0	21.9	0.00e+00	0	28	0	386924544	48	6396
2026-01-12 20:43:10.09	40.78	13.74	-38.0	-39.0	22.4	0.00e+00	4	28	0	389021696	48	6439
2026-01-12 20:43:11.10	40.60	13.78	-37.7	-38.7	22.5	0.00e+00	0	28	0	390070272	48	6226
2026-01-12 20:43:12.11	40.41	13.82	-37.8	-38.8	22.5	0.00e+00	90	28	0	392167424	48	6272
2026-01-12 20:43:13.12	40.22	13.87	-37.8	-38.8	22.6	0.00e+00	0	28	0	394264576	48	6255
2026-01-12 20:43:14.13	40.03	13.91	-37.9	-39.0	22.4	0.00e+00	34	28	0	396361728	48	6411
2026-01-12 20:43:15.14	39.84	13.95	-38.2	-39.2	22.4	0.00e+00	77	28	0	398458880	48	6595
2026-01-12 20:43:16.14	39.66	13.99	-38.1	-39.2	22.3	0.00e+00	0	28	0	399507456	48	6583
2026-01-12 20:43:17.16	39.46	14.03	-38.2	-39.3	22.1	0.00e+00	91	28	0	401604608	48	6619
2026-01-12 20:43:18.16	39.28	14.07	-38.2	-39.3	22.1	0.00e+00	0	28	0	403701760	48	6672
2026-01-12 20:43:19.17	39.09	14.11	-38.2	-39.3	22.1	0.00e+00	0	28	0	405798912	48	6687
2026-01-12 20:43:20.18	38.89	14.15	-38.2	-39.3	22.1	0.00e+00	0	28	0	407896064	48	6629
2026-01-12 20:43:21.19	38.70	14.19	-38.3	-39.4	22.1	0.00e+00	0	28	0	408944640	48	6699
2026-01-12 20:43:22.20	38.51	14.23	-37.9	-39.0	22.5	0.00e+00	57	28	0	411041792	48	6415
2026-01-12 20:43:23.21	38.32	14.27	-37.7	-38.7	22.6	0.00e+00	0	28	0	413138944	48	6185
2026-01-12 20:43:24.22	38.12	14.31	-37.5	-38.4	22.8	0.00e+00	90	28	0	415236096	48	6017
2026-01-12 20:43:25.23	37.93	14.35	-37.1	-38.1	23.1	0.00e+00	0	28	0	417333248	48	5778
2026-01-12 20:43:26.24	37.73	14.39	-37.2	-38.2	23.1	0.00e+00	30	28	0	418381824	48	5849
2026-01-12 20:43:27.25	37.54	14.43	-37.4	-38.3	23.0	0.00e+00	0	28	0	420478976	48	5942
2026-01-12 20:43:28.26	37.34	14.47	-37.4	-38.3	23.0	0.00e+00	0	28	0	422576128	48	5956
2026-01-12 20:43:29.27	37.15	14.51	-37.4	-38.3	22.9	0.00e+00	45	28	0	424673280	48	5952
2026-01-12 20:43:30.28	36.95	14.54	-37.6	-38.6	22.8	0.00e+00	0	28	0	426770432	48	6137
2026-01-12 20:43:31.29	36.75	14.58	-37.3	-38.3	22.9	0.00e+00	90	28	0	427819008	48	5935
2026-01-12 20:43:32.30	36.56	14.62	-37.1	-38.1	23.2	0.00e+00	0	28	0	429916160	48	5768
2026-01-12 20:43:33.30	36.36	14.66	-37.1	-38.0	23.2	0.00e+00	91	28	0	432013312	48	5753
2026-01-12 20:43:34.31	36.16	14.69	-37.1	-38.1	23.1	0.00e+00	0	28	0	434110464	48	5784
2026-01-12 20:43:35.32	35.96	14.73	-37.4	-38.3	22.9	0.00e+00	0	28	0	436207616	48	5943
2026-01-12 20:43:36.33	35.76	14.76	-37.5	-38.5	22.8	0.00e+00	36	28	0	437256192	48	6052
2026-01-12 20:43:37.34	35.56	14.80	-37.4	-38.3	22.9	0.00e+00	0	28	0	439353344	48	5943
2026-01-12 20:43:38.35	35.36	14.84	-37.2	-38.2	23.0	0.00e+00	36	28	0	441450496	48	5860
2026-01-12 20:43:39.36	35.16	14.87	-37.4	-38.3	22.9	0.00e+00	0	28	0	443547648	48	5960
2026-01-12 20:43:40.37	34.96	14.91	-37.3	-38.3	22.9	0.00e+00	68	28	0	445644800	48	5918
2026-01-12 20:43:41.38	34.76	14.94	-37.4	-38.4	22.9	0.00e+00	0	28	0	447741952	48	5975
2026-01-12 20:43:42.39	34.56	14.97	-37.9	-39.0	22.4	0.00e+00	0	28	0	448790528	48	6412
2026-01-12 20:43:43.40	34.35	15.01	-37.5	-38.5	22.9	0.00e+00	0	28	0	450887680	48	6066
2026-01-12 20:43:44.41	34.15	15.04	-37.0	-37.9	23.3	0.00e+00	0	28	0	452984832	48	5682
2026-01-12 20:43:45.41	33.95	15.07	-36.8	-37.7	23.4	0.00e+00	83	28	0	455081984	48	5556
2026-01-12 20:43:46.42	33.74	15.11	-37.0	-37.9	23.4	0.00e+00	0	28	0	457179136	48	5634
2026-01-12 20:43:47.43	33.54	15.14	-36.8	-37.7	23.5	0.00e+00	90	28	0	458227712	46	6187
2026-01-12 20:43:48.44	33.33	15.17	-36.9	-37.7	23.3	0.00e+00	0	28	0	460324864	46	6245
2026-01-12 20:43:49.45	33.13	15.20	-36.8	-37.6	22.7	0.00e+00	0	28	0	462422016	46	6172
2026-01-12 20:43:50.46	32.92	15.24	-36.8	-37.6	23.3	0.00e+00	0	28	0	464519168	46	6172
2026-01-12 20:43:51.47	32.72	15.27	-36.7	-37.6	23.4	0.00e+00	0	28	0	466616320	46	6168
2026-01-12 20:43:52.48	32.51	15.30	-36.8	-37.7	23.4	0.00e+00	32	28	0	467664896	46	6215
2026-01-12 20:43:53.49	32.30	15.33	-36.9	-37.8	23.3	0.00e+00	0	28	0	469762048	46	6314
2026-01-12 20:43:54.50	32.09	15.36	-37.1	-38.0	23.1	0.00e+00	67	28	0	471859200	46	6455
2026-01-12 20:43:55.51	31.88	15.39	-37.5	-38.5	22.8	0.00e+00	0	28	0	473956352	46	6797
2026-01-12 20:43:56.52	31.68	15.42	-37.4	-38.4	23.0	0.00e+00	0	28	0	476053504	46	6711
2026-01-12 20:43:57.52	31.47	15.45	-37.0	-37.9	23.2	0.00e+00	0	28	0	477102080	46	6377
2026-01-12 20:43:58.53	31.26	15.48	-37.1	-38.0	23.2	0.00e+00	0	28	0	479199232	46	6423
2026-01-12 20:43:59.54	31.05	15.51	-37.0	-37.9	23.3	0.00e+00	24	28	0	481296384	46	6327
2026-01-12 20:44:00.55	30.84	15.53	-36.9	-37.9	23.3	0.00e+00	0	28	0	483393536	46	6322
2026-01-12 20:44:01.56	30.63	15.56	-37.2	-38.2	23.1	0.00e+00	92	28	0	485490688	46	6543
2026-01-12 20:44:02.57	30.42	15.59	-37.6	-38.6	22.7	0.00e+00	0	28	0	486539264	46	6871
2026-01-12 20:44:03.58	30.21	15.62	-37.6	-38.6	22.7	0.00e+00	0	28	0	488636416	48	6149
2026-01-12 20:44:04.59	29.99	15.64	-37.7	-38.7	22.6	0.00e+00	0	28	0	490733568	48	6187
2026-01-12 20:44:05.60	29.78	15.67	-37.6	-38.6	22.6	0.00e+00	0	28	0	492830720	48	6121
2026-01-12 20:44:06.61	29.57	15.70	-37.7	-38.7	22.6	0.00e+00	1	28	0	494927872	48	6237
2026-01-12 20:44:07.62	29.36	15.72	-37.9	-38.9	22.5	0.00e+00	0	28	0	495976448	48	6365
2026-01-12 20:44:08.63	29.14	15.75	-37.8	-38.9	22.6	0.00e+00	91	28	0	498073600	48	6320
2026-01-12 20:44:09.64	28.93	15.77	-37.7	-38.7	22.8	0.00e+00	0	28	0	500170752	48	6208
2026-01-12 20:44:10.65	28.72	15.80	-37.7	-38.8	22.7	0.00e+00	36	28	0	502267904	48	6247
2026-01-12 20:44:11.66	28.50	15.82	-37.6	-38.6	22.8	0.00e+00	0	28	0	504365056	48	6105
2026-01-12 20:44:12.66	28.29	15.84	-37.7	-38.6	22.7	0.00e+00	0	28	0	505413632	48	6172
2026-01-12 20:44:13.67	28.07	15.87	-37.8	-38.7	22.5	0.00e+00	0	28	0	507510784	48	6240
2026-01-12 20:44:14.68	27.86	15.89	-37.7	-38.7	22.6	0.00e+00	0	28	0	509607936	48	6210
2026-01-12 20:44:15.69	27.64	15.91	-37.7	-38.7	22.6	0.00e+00	92	28	0	511705088	48	6174
2026-01-12 20:44:16.70	27.43	15.93	-37.7	-38.7	22.7	0.00e+00	0	28	0	513802240	48	6192
2026-01-12 20:44:17.71	27.21	15.96	-37.6	-38.6	22.7	0.00e+00	92	28	0	515899392	48	6136
2026-01-12 20:44:18.72	26.99	15.98	-37.5	-38.5	22.8	0.00e+00	0	28	0	516947968	48	6083
2026-01-12 20:44:19.73	26.78	16.00	-37.5	-38.4	22.9	0.00e+00	0	28	0	519045120	48	6029
2026-01-12 20:44:20.73	26.56	16.02	-37.6	-38.5	22.7	0.00e+00	0	28	0	521142272	48	6090
2026-01-12 20:44:21.74	26.34	16.04	-37.6	-38.6	22.8	0.00e+00	0	28	0	523239424	48	6143
2026-01-12 20:44:22.75	26.13	16.06	-37.5	-38.5	22.8	0.00e+00	33	28	0	524288000	48	6040
2026-01-12 20:44:23.76	25.91	16.08	-37.1	-38.0	23.1	0.00e+00	0	28	0	526385152	48	5759
2026-01-12 20:44:24.77	25.69	16.10	-37.1	-38.0	23.2	0.00e+00	92	28	0	528482304	48	5735
2026-01-12 20:44:25.78	25.47	16.12	-37.0	-37.9	23.2	0.00e+00	0	28	0	530579456	48	5675
2026-01-12 20:44:26.79	25.25	16.13	-37.1	-38.0	23.2	0.00e+00	0	28	0	532676608	48	5712
2026-01-12 20:44:27.80	25.03	16.15	-37.1	-38.1	23.1	0.00e+00	0	28	0	533725184	48	5765
2026-01-12 20:44:28.81	24.81	16.17	-37.3	-38.2	22.9	0.00e+00	0	28	0	535822336	48	5866
2026-01-12 20:44:29.82	24.59	16.19	-37.4	-38.3	22.8	0.00e+00	75	28	0	537919488	48	5963
2026-01-12 20:44:30.83	24.37	16.20	-37.4	-38.4	22.8	0.00e+00	0	28	0	540016640	48	5989
2026-01-12 20:44:31.84	24.15	16.22	-37.7	-38.7	22.6	0.00e+00	91	28	0	542113792	48	6201
2026-01-12 20:44:32.85	23.93	16.23	-37.6	-38.6	22.7	0.00e+00	0	28	0	544210944	48	6161
2026-01-12 20:44:33.86	23.71	16.25	-37.7	-38.7	22.7	0.00e+00	0	28	0	545259520	48	6230
2026-01-12 20:44:34.87	23.49	16.27	-37.9	-38.9	22.5	0.00e+00	0	28	0	547356672	48	6340
2026-01-12 20:44:35.88	23.27	16.28	-37.9	-39.0	22.4	0.00e+00	0	28	0	549453824	48	6400
2026-01-12 20:44:36.89	23.05	16.29	-38.0	-39.0	22.3	0.00e+00	34	28	0	551550976	48	6460
2026-01-12 20:44:37.90	22.83	16.31	-38.1	-39.2	22.1	0.00e+00	0	28	0	553648128	48	6586
2026-01-12 20:44:38.91	22.60	16.32	-38.2	-39.3	22.1	0.00e+00	92	28	0	554696704	48	6617
2026-01-12 20:44:39.92	22.38	16.33	-38.2	-39.2	22.2	0.00e+00	0	28	0	556793856	48	6599
2026-01-12 20:44:40.93	22.16	16.35	-38.2	-39.3	22.1	0.00e+00	0	28	0	558891008	48	6671
2026-01-12 20:44:41.94	21.94	16.36	-38.3	-39.4	22.1	0.00e+00	0	28	0	560988160	48	6704
2026-01-12 20:44:42.94	21.72	16.37	-38.2	-39.3	22.1	0.00e+00	0	28	0	563085312	48	6659
2026-01-12 20:44:43.95	21.49	16.38	-38.2	-39.3	22.3	0.00e+00	37	28	0	564133888	48	6629
2026-01-12 20:44:44.96	21.27	16.39	-38.0	-39.0	22.4	0.00e+00	0	28	0	566231040	48	6445
2026-01-12 20:44:45.97	21.05	16.40	-38.0	-39.0	22.5	0.00e+00	36	28	0	568328192	48	6426
2026-01-12 20:44:46.98	20.82	16.41	-37.8	-38.8	22.6	0.00e+00	0	28	0	570425344	48	6315
2026-01-12 20:44:47.99	20.60	16.42	-37.8	-38.9	22.6	0.00e+00	59	29	0	572522496	48	6333
2026-01-12 20:44:49.00	20.38	16.43	-37.6	-38.6	22.6	0.00e+00	0	28	0	573571072	48	6105
2026-01-12 20:44:50.01	20.15	16.44	-37.7	-38.8	22.6	0.00e+00	0	28	0	575668224	48	6248
2026-01-12 20:44:51.01	19.93	16.44	-37.8	-38.8	22.6	0.00e+00	4	29	0	577765376	48	6262
2026-01-12 20:44:52.02	19.71	16.45	-38.0	-39.0	22.4	0.00e+00	0	29	0	579862528	48	6414
2026-01-12 20:44:53.03	19.49	16.46	-37.9	-38.9	22.4	0.00e+00	42	29	0	581959680	48	6386
2026-01-12 20:44:54.04	19.26	16.46	-37.7	-38.7	22.6	0.00e+00	0	28	0	583008256	48	6219
2026-01-12 20:44:55.05	19.04	16.47	-37.3	-38.3	23.0	0.00e+00	90	29	0	585105408	48	5929
2026-01-12 20:44:56.06	18.81	16.48	-37.1	-38.1	23.1	0.00e+00	0	29	0	587202560	48	5784
2026-01-12 20:44:57.07	18.59	16.48	-37.4	-38.4	22.9	0.00e+00	0	29	0	589299712	48	5974
2026-01-12 20:44:58.08	18.36	16.49	-37.1	-38.1	23.0	0.00e+00	0	29	0	591396864	48	5788
2026-01-12 20:44:59.09	18.14	16.49	-37.4	-38.4	22.8	0.00e+00	0	28	0	592445440	48	6012
2026-01-12 20:45:00.09	17.92	16.49	-37.6	-38.6	22.8	0.00e+00	79	28	0	594542592	48	6127
2026-01-12 20:45:01.11	17.69	16.50	-37.7	-38.7	22.5	0.00e+00	0	28	0	596639744	48	6241
2026-01-12 20:45:02.12	17.47	16.50	-37.8	-38.8	22.5	0.00e+00	92	29	0	598736896	48	6268
2026-01-12 20:45:03.12	17.24	16.50	-37.8	-38.8	22.5	0.00e+00	0	29	0	600834048	48	6313
2026-01-12 20:45:04.13	17.02	16.51	-37.9	-39.0	22.4	0.00e+00	27	29	0	601882624	48	6392
2026-01-12 20:45:05.14	16.79	16.51	-37.9	-38.9	22.5	0.00e+00	0	29	0	603979776	48	6352
2026-01-12 20:45:06.15	16.57	16.51	-37.8	-38.9	22.5	0.00e+00	0	29	0	606076928	48	6325
2026-01-12 20:45:07.16	16.35	16.51	-37.8	-38.8	22.6	0.00e+00	33	29	0	608174080	48	6300
2026-01-12 20:45:08.17	16.12	16.51	-37.5	-38.5	22.8	0.00e+00	0	29	0	610271232	48	6051
2026-01-12 20:45:09.18	15.90	16.51	-37.4	-38.4	22.8	0.00e+00	92	29	0	612368384	48	5996
2026-01-12 20:45:10.19	15.67	16.51	-37.2	-38.2	23.1	0.00e+00	0	29	0	613416960	48	5831
2026-01-12 20:45:11.20	15.45	16.51	-37.0	-37.9	23.2	0.00e+00	46	29	0	615514112	48	5673
2026-01-12 20:45:12.21	15.22	16.51	-37.0	-37.9	23.2	0.00e+00	0	28	0	617611264	48	5695
2026-01-12 20:45:13.22	15.00	16.50	-36.9	-37.8	23.2	0.00e+00	0	29	0	619708416	48	5607
2026-01-12 20:45:14.23	14.77	16.50	-37.1	-38.1	23.0	0.00e+00	39	29	0	621805568	48	5762
2026-01-12 20:45:15.24	14.55	16.50	-37.5	-38.4	22.8	0.00e+00	0	29	0	622854144	48	6025
2026-01-12 20:45:16.25	14.32	16.50	-37.7	-38.8	22.6	0.00e+00	92	29	0	624951296	48	6246
2026-01-12 20:45:17.26	14.10	16.49	-37.7	-38.7	22.5	0.00e+00	0	29	0	627048448	48	6236
2026-01-12 20:45:18.27	13.87	16.49	-37.9	-38.9	22.4	0.00e+00	0	29	0	629145600	48	6384
2026-01-12 20:45:19.28	13.65	16.48	-38.0	-39.1	22.4	0.00e+00	0	29	0	631242752	48	6483
2026-01-12 20:45:20.28	13.43	16.48	-38.1	-39.2	22.1	0.00e+00	0	29	0	632291328	48	6549
2026-01-12 20:45:21.29	13.20	16.47	-38.4	-39.4	22.0	0.00e+00	0	29	0	634388480	48	6767
2026-01-12 20:45:22.30	12.98	16.47	-38.3	-39.4	21.9	0.00e+00	0	29	0	636485632	48	6755
2026-01-12 20:45:23.31	12.76	16.46	-38.5	-39.6	21.9	0.00e+00	40	29	0	638582784	48	6891
2026-01-12 20:45:24.32	12.53	16.45	-38.4	-39.6	21.8	0.00e+00	0	29	0	640679936	48	6865
2026-01-12 20:45:25.33	12.31	16.45	-38.5	-39.7	21.8	0.00e+00	70	29	0	641728512	48	6956
2026-01-12 20:45:26.34	12.08	16.44	-38.4	-39.6	21.8	0.00e+00	0	29	0	643825664	48	6854
2026-01-12 20:45:27.35	11.86	16.43	-37.9	-39.0	22.3	0.00e+00	0	29	0	645922816	48	6428
2026-01-12 20:45:28.36	11.64	16.42	-37.9	-39.0	22.4	0.00e+00	0	29	0	648019968	48	6443
2026-01-12 20:45:29.37	11.41	16.41	-37.9	-39.0	22.3	0.00e+00	0	29	0	650117120	48	6396
2026-01-12 20:45:30.38	11.19	16.40	-37.8	-38.8	22.6	0.00e+00	39	29	0	651165696	48	6275
2026-01-12 20:45:31.39	10.97	16.39	-37.6	-38.6	22.7	0.00e+00	0	29	0	653262848	48	6165
2026-01-12 20:45:32.40	10.75	16.38	-37.5	-38.5	22.8	0.00e+00	92	29	0	655360000	48	6086
2026-01-12 20:45:33.41	10.52	16.37	-37.3	-38.3	23.0	0.00e+00	0	29	0	657457152	48	5935
2026-01-12 20:45:34.42	10.30	16.36	-37.4	-38.4	22.9	0.00e+00	0	29	0	659554304	48	5987
2026-01-12 20:45:35.43	10.08	16.35	-37.5	-38.5	22.8	0.00e+00	0	29	0	660602880	48	6091
2026-01-12 20:45:36.44	9.86	16.34	-37.6	-38.6	22.7	0.00e+00	0	29	0	662700032	48	6143
2026-01-12 20:45:37.46	9.63	16.32	-37.8	-38.9	22.5	0.00e+00	81	29	0	664797184	48	6327
2026-01-12 20:45:38.46	9.41	16.31	-38.1	-39.1	22.3	0.00e+00	0	29	0	666894336	48	6533
2026-01-12 20:45:39.47	9.19	16.30	-37.9	-38.9	22.5	0.00e+00	90	29	0	668991488	48	6379
2026-01-12 20:45:40.49	8.97	16.28	-37.6	-38.6	22.7	0.00e+00	0	29	0	670040064	48	6120
2026-01-12 20:45:41.50	8.75	16.27	-37.2	-38.2	23.0	0.00e+00	0	29	0	672137216	48	5866
2026-01-12 20:45:42.50	8.53	16.26	-36.9	-37.8	23.4	0.00e+00	0	29	0	674234368	48	5591
2026-01-12 20:45:43.51	8.31	16.24	-36.7	-37.5	23.5	0.00e+00	0	29	0	676331520	46	6095
2026-01-12 20:45:44.52	8.09	16.23	-36.5	-37.4	23.6	0.00e+00	32	29	0	678428672	46	6011
2026-01-12 20:45:45.53	7.87	16.21	-36.6	-37.5	23.5	0.00e+00	0	29	0	680525824	46	6079
2026-01-12 20:45:46.54	7.65	16.19	-36.7	-37.6	23.5	0.00e+00	74	29	0	681574400	46	6158
2026-01-12 20:45:47.55	7.43	16.18	-36.9	-37.8	23.3	0.00e+00	0	29	0	683671552	46	6271
2026-01-12 20:45:48.56	7.21	16.16	-37.0	-37.9	23.2	0.00e+00	0	29	0	685768704	46	6384
2026-01-12 20:45:49.57	6.99	16.14	-36.8	-37.8	23.3	0.00e+00	0	29	0	687865856	46	6273
2026-01-12 20:45:50.58	6.77	16.12	-37.1	-38.1	23.2	0.00e+00	0	29	0	689963008	46	6474
2026-01-12 20:45:51.59	6.55	16.10	-37.1	-38.0	23.2	0.00e+00	34	29	0	691011584	46	6454
2026-01-12 20:45:52.60	6.33	16.09	-37.0	-37.9	23.2	0.00e+00	0	29	0	693108736	46	6380
2026-01-12 20:45:53.60	6.11	16.07	-37.2	-38.1	23.1	0.00e+00	92	29	0	695205888	46	6515
2026-01-12 20:45:54.61	5.90	16.05	-37.1	-38.1	23.1	0.00e+00	0	29	0	697303040	46	6504
2026-01-12 20:45:55.62	5.68	16.03	-37.2	-38.2	23.0	0.00e+00	65	29	0	699400192	46	6564
2026-01-12 20:45:56.63	5.46	16.01	-37.2	-38.2	23.1	0.00e+00	0	29	0	700448768	46	6543
2026-01-12 20:45:57.64	5.24	15.99	-37.4	-38.4	22.8	0.00e+00	0	29	0	702545920	46	6723
2026-01-12 20:45:58.64	5.03	15.97	-37.3	-38.3	22.9	0.00e+00	0	29	0	704643072	46	6623
2026-01-12 20:45:59.65	4.81	15.94	-37.5	-38.5	22.8	0.00e+00	0	29	0	706740224	46	6783
2026-01-12 20:46:00.67	4.60	15.92	-37.5	-38.6	22.8	0.00e+00	92	29	0	708837376	46	6856
2026-01-12 20:46:01.67	4.38	15.90	-37.5	-38.5	22.7	0.00e+00	0	29	0	709885952	46	6842
2026-01-12 20:46:02.68	4.17	15.88	-37.5	-38.5	22.8	0.00e+00	92	29	0	711983104	46	6836
2026-01-12 20:46:03.69	3.95	15.85	-37.3	-38.4	22.9	0.00e+00	0	29	0	714080256	46	6717
2026-01-12 20:46:04.70	3.74	15.83	-37.2	-38.2	23.0	0.00e+00	0	29	0	716177408	46	6613
2026-01-12 20:46:05.71	3.52	15.81	-36.9	-37.9	23.3	0.00e+00	1	29	0	718274560	46	6363
2026-01-12 20:46:06.72	3.31	15.78	-36.8	-37.7	23.4	0.00e+00	0	29	0	719323136	46	6242
2026-01-12 20:46:07.73	3.09	15.76	-36.9	-37.8	23.4	0.00e+00	32	29	0	721420288	46	6292
2026-01-12 20:46:08.74	2.88	15.73	-36.8	-37.7	23.5	0.00e+00	0	29	0	723517440	46	6220
2026-01-12 20:46:09.75	2.67	15.71	-36.7	-37.6	23.5	0.00e+00	59	29	0	725614592	46	6166
2026-01-12 20:46:10.76	2.46	15.68	-36.7	-37.6	23.3	0.00e+00	0	29	0	727711744	46	6151
2026-01-12 20:46:11.77	2.24	15.65	-36.7	-37.6	23.4	0.00e+00	0	29	0	728760320	46	6141
2026-01-12 20:46:12.78	2.03	15.63	-36.8	-37.7	23.4	0.00e+00	0	29	0	730857472	46	6219
2026-01-12 20:46:13.78	1.82	15.60	-36.9	-37.8	23.4	0.00e+00	0	29	0	732954624	46	6285
2026-01-12 20:46:14.79	1.61	15.57	-37.0	-37.9	23.2	0.00e+00	40	29	0	735051776	46	6385
2026-01-12 20:46:15.80	1.40	15.55	-37.1	-38.0	23.2	0.00e+00	0	29	0	737148928	46	6436
2026-01-12 20:46:16.81	1.19	15.52	-37.4	-38.4	22.9	0.00e+00	92	29	0	738197504	46	6697
2026-01-12 20:46:17.82	0.98	15.49	-37.6	-38.6	22.7	0.00e+00	0	29	0	740294656	46	6872
2026-01-12 20:46:18.83	0.77	15.46	-37.6	-38.6	22.7	0.00e+00	0	29	0	742391808	46	6867
2026-01-12 20:46:19.84	0.56	15.43	-37.6	-38.6	22.7	0.00e+00	0	29	0	744488960	46	6903
2026-01-12 20:46:20.85	0.35	15.40	-37.6	-38.5	22.1	0.00e+00	0	29	0	746586112	46	6831
2026-01-12 20:46:21.86	0.15	15.37	-37.7	-38.7	22.6	0.00e+00	36	29	0	748683264	48	6206
2026-01-12 20:46:22.87	359.94	15.34	-37.9	-38.9	22.3	0.00e+00	0	29	0	749731840	48	6371
2026-01-12 20:46:23.88	359.73	15.31	-38.1	-39.1	22.3	0.00e+00	91	29	0	751828992	48	6538
2026-01-12 20:46:24.89	359.52	15.28	-38.1	-39.2	22.2	0.00e+00	0	29	0	753926144	48	6574
2026-01-12 20:46:25.89	359.32	15.25	-38.3	-39.3	22.1	0.00e+00	0	29	0	756023296	48	6680
2026-01-12 20:46:26.90	359.11	15.22	-38.3	-39.4	22.1	0.00e+00	0	29	0	757071872	48	6731
2026-01-12 20:46:27.91	358.91	15.19	-38.4	-39.5	21.9	0.00e+00	0	29	0	759169024	48	6806
2026-01-12 20:46:28.92	358.70	15.15	-38.0	-39.0	22.3	0.00e+00	37	29	0	761266176	48	6442
2026-01-12 20:46:29.93	358.50	15.12	-38.0	-39.1	22.4	0.00e+00	0	29	0	763363328	48	6494
2026-01-12 20:46:30.94	358.29	15.09	-37.9	-38.9	22.4	0.00e+00	92	29	0	765460480	48	6374
2026-01-12 20:46:31.95	358.09	15.06	-37.7	-38.7	22.5	0.00e+00	0	29	0	766509056	48	6229
2026-01-12 20:46:32.96	357.89	15.02	-37.7	-38.7	22.5	0.00e+00	21	29	0	768606208	48	6229
2026-01-12 20:46:33.97	357.68	14.99	-37.8	-38.8	22.5	0.00e+00	0	29	0	770703360	48	6302
2026-01-12 20:46:34.98	357.48	14.95	-37.5	-38.5	22.8	0.00e+00	0	29	0	772800512	48	6064
2026-01-12 20:46:35.99	357.28	14.92	-37.4	-38.4	23.0	0.00e+00	0	29	0	774897664	48	6007
2026-01-12 20:46:37.00	357.08	14.88	-37.5	-38.5	22.9	0.00e+00	0	29	0	776994816	48	6081
2026-01-12 20:46:38.01	356.88	14.85	-37.5	-38.4	22.8	0.00e+00	91	29	0	778043392	48	6031
2026-01-12 20:46:39.02	356.68	14.81	-37.6	-38.5	22.8	0.00e+00	0	29	0	780140544	48	6098
2026-01-12 20:46:40.03	356.48	14.78	-37.4	-38.4	22.9	0.00e+00	91	29	0	782237696	48	6000
2026-01-12 20:46:41.03	356.28	14.74	-37.4	-38.3	22.9	0.00e+00	0	29	0	784334848	48	5956
2026-01-12 20:46:42.04	356.08	14.71	-37.1	-38.1	23.0	0.00e+00	0	29	0	786432000	48	5778
2026-01-12 20:46:43.05	355.88	14.67	-37.4	-38.4	22.9	0.00e+00	0	29	0	787480576	48	5972
2026-01-12 20:46:44.06	355.68	14.63	-36.6	-37.5	23.5	0.00e+00	0	29	0	789577728	46	6096
2026-01-12 20:46:45.07	355.49	14.60	-36.6	-37.5	23.5	0.00e+00	92	29	0	791674880	46	6090
2026-01-12 20:46:46.08	355.29	14.56	-36.5	-37.4	23.6	0.00e+00	0	29	0	793772032	46	6024
2026-01-12 20:46:47.09	355.09	14.52	-36.7	-37.6	23.5	0.00e+00	92	29	0	795869184	46	6134
2026-01-12 20:46:48.10	354.90	14.48	-36.9	-37.8	23.2	0.00e+00	0	29	0	796917760	46	6273
2026-01-12 20:46:49.11	354.70	14.45	-36.9	-37.8	23.1	0.00e+00	0	29	0	799014912	46	6310
2026-01-12 20:46:50.12	354.51	14.41	-36.8	-37.7	23.3	0.00e+00	0	29	0	801112064	46	6223
2026-01-12 20:46:51.13	354.31	14.37	-37.0	-37.9	23.1	0.00e+00	29	29	0	803209216	46	6353
2026-01-12 20:46:52.14	354.12	14.33	-37.1	-38.1	23.0	0.00e+00	31	29	0	805306368	46	6476
2026-01-12 20:46:53.15	353.92	14.29	-37.6	-38.6	22.8	0.00e+00	0	29	0	806354944	46	6911
2026-01-12 20:46:54.16	353.73	14.25	-37.8	-38.8	22.6	0.00e+00	90	29	0	808452096	46	7030
2026-01-12 20:46:55.16	353.54	14.21	-38.0	-39.1	22.3	0.00e+00	0	29	0	810549248	48	6469
2026-01-12 20:46:56.17	353.35	14.17	-38.2	-39.3	22.1	0.00e+00	0	29	0	812646400	48	6671
2026-01-12 20:46:57.18	353.16	14.13	-38.6	-39.8	21.7	0.00e+00	26	29	0	814743552	48	7019
2026-01-12 20:46:58.19	352.97	14.09	-38.6	-39.8	21.7	0.00e+00	0	29	0	815792128	50	6283
2026-01-12 20:46:59.20	352.78	14.05	-38.8	-40.0	21.5	0.00e+00	26	29	0	817889280	50	6455
2026-01-12 20:47:00.21	352.59	14.01	-38.7	-39.9	21.7	0.00e+00	0	29	0	819986432	50	6332
2026-01-12 20:47:01.22	352.40	13.97	-38.6	-39.7	21.8	0.00e+00	84	29	0	822083584	50	6209
2026-01-12 20:47:02.23	352.21	13.93	-38.7	-39.8	21.6	0.00e+00	0	29	0	824180736	50	6278
2026-01-12 20:47:03.24	352.02	13.88	-38.5	-39.6	21.7	0.00e+00	92	29	0	825229312	50	6116
2026-01-12 20:47:04.25	351.83	13.84	-38.5	-39.6	21.9	0.00e+00	0	29	0	827326464	50	6134
2026-01-12 20:47:05.26	351.65	13.80	-38.4	-39.4	21.9	0.00e+00	0	29	0	829423616	50	6028
2026-01-12 20:47:06.26	351.46	13.76	-38.7	-39.8	21.4	0.00e+00	32	29	0	831520768	50	6316
2026-01-12 20:47:07.27	351.28	13.72	-38.7	-39.8	21.6	0.00e+00	0	29	0	833617920	50	6268
2026-01-12 20:47:08.28	351.09	13.67	-38.6	-39.7	21.8	0.00e+00	91	29	0	834666496	50	6226
2026-01-12 20:47:09.29	350.90	13.63	-38.6	-39.7	21.8	0.00e+00	0	29	0	836763648	50	6220
2026-01-12 20:47:10.30	350.72	13.59	-38.6	-39.7	21.7	0.00e+00	92	29	0	838860800	50	6233
2026-01-12 20:47:11.31	350.54	13.54	-38.4	-39.4	22.0	0.00e+00	0	29	0	840957952	50	6029
2026-01-12 20:47:12.32	350.35	13.50	-38.3	-39.4	21.9	0.00e+00	0	29	0	843055104	50	6023
2026-01-12 20:47:13.33	350.17	13.45	-38.3	-39.4	22.0	0.00e+00	0	29	0	845152256	50	5987
2026-01-12 20:47:14.35	349.99	13.41	-38.1	-39.1	22.1	0.00e+00	0	29	0	846200832	50	5794
2026-01-12 20:47:15.36	349.81	13.37	-38.3	-39.3	22.0	0.00e+00	35	29	0	848297984	50	5953
2026-01-12 20:47:16.36	349.63	13.32	-38.4	-39.4	22.0	0.00e+00	0	29	0	850395136	50	6032
2026-01-12 20:47:17.38	349.44	13.28	-38.3	-39.4	22.0	0.00e+00	92	29	0	852492288	50	5986
2026-01-12 20:47:18.39	349.26	13.23	-38.0	-39.1	22.3	0.00e+00	0	29	0	854589440	50	5786
2026-01-12 20:47:19.39	349.09	13.19	-37.8	-38.8	22.6	0.00e+00	0	29	0	855638016	50	5603
2026-01-12 20:47:20.40	348.91	13.14	-37.6	-38.6	22.7	0.00e+00	0	29	0	857735168	48	6162
2026-01-12 20:47:21.41	348.73	13.10	-37.4	-38.4	22.8	0.00e+00	0	29	0	859832320	48	6000
2026-01-12 20:47:22.42	348.55	13.05	-37.4	-38.4	22.8	0.00e+00	37	29	0	861929472	48	5972
2026-01-12 20:47:23.43	348.37	13.00	-37.4	-38.3	22.8	0.00e+00	0	29	0	864026624	48	5948
2026-01-12 20:47:24.44	348.20	12.96	-37.7	-38.7	22.5	0.00e+00	79	29	0	865075200	48	6233
2026-01-12 20:47:25.45	348.02	12.91	-37.6	-38.6	22.6	0.00e+00	0	29	0	867172352	48	6124
2026-01-12 20:47:26.46	347.85	12.86	-37.8	-38.8	22.4	0.00e+00	0	29	0	869269504	48	6313
2026-01-12 20:47:27.47	347.67	12.82	-38.2	-39.2	22.3	0.00e+00	0	29	0	871366656	48	6598
2026-01-12 20:47:28.48	347.50	12.77	-38.2	-39.3	22.1	0.00e+00	0	29	0	873463808	48	6636
2026-01-12 20:47:29.49	347.32	12.72	-38.4	-39.4	21.9	0.00e+00	45	29	0	874512384	48	6745
2026-01-12 20:47:30.49	347.15	12.68	-38.2	-39.3	22.1	0.00e+00	0	29	0	876609536	48	6628
2026-01-12 20:47:31.50	346.98	12.63	-38.4	-39.4	21.8	0.00e+00	36	29	0	878706688	48	6763
2026-01-12 20:47:32.51	346.81	12.58	-38.4	-39.4	21.9	0.00e+00	0	29	0	880803840	48	6755
2026-01-12 20:47:33.52	346.64	12.53	-38.5	-39.6	21.8	0.00e+00	23	29	0	882900992	48	6852
2026-01-12 20:47:34.53	346.46	12.49	-38.2	-39.3	22.0	0.00e+00	0	29	0	883949568	48	6633
2026-01-12 20:47:35.54	346.29	12.44	-38.4	-39.5	21.8	0.00e+00	0	29	0	886046720	48	6831
2026-01-12 20:47:36.55	346.12	12.39	-38.5	-39.5	21.8	0.00e+00	0	29	0	888143872	48	6847
2026-01-12 20:47:37.56	345.96	12.34	-38.5	-39.6	21.7	0.00e+00	0	29	0	890241024	48	6866
2026-01-12 20:47:38.57	345.79	12.29	-39.0	-40.2	21.2	0.00e+00	37	29	0	892338176	50	6600
2026-01-12 20:47:39.58	345.62	12.25	-39.6	-40.8	20.7	0.00e+00	0	30	0	893386752	50	7072
2026-01-12 20:47:40.59	345.45	12.20	-40.2	-41.7	20.0	0.00e+00	87	29	0	895483904	52	6941
2026-01-12 20:47:41.60	345.28	12.15	-40.9	-42.5	19.1	0.00e+00	0	29	0	897581056	52	7650
2026-01-12 20:47:42.60	345.12	12.10	-41.4	-43.2	18.5	0.00e+00	0	29	0	899678208	54	7422
2026-01-12 20:47:43.61	344.95	12.05	-41.3	-43.1	18.4	0.00e+00	36	29	0	901775360	54	7295
2026-01-12 20:47:44.62	344.79	12.00	-41.9	-43.9	17.9	0.00e+00	0	29	0	902823936	56	7116
2026-01-12 20:47:45.63	344.62	11.95	-41.6	-43.5	18.4	0.00e+00	75	29	0	904921088	56	6792
2026-01-12 20:47:46.65	344.46	11.90	-41.4	-43.2	18.7	0.00e+00	0	30	0	907018240	56	6592
2026-01-12 20:47:47.65	344.30	11.85	-40.8	-42.5	19.2	0.00e+00	71	30	0	909115392	56	6044
2026-01-12 20:47:48.66	344.13	11.80	-40.8	-42.4	19.5	0.00e+00	0	29	0	911212544	56	5981
2026-01-12 20:47:49.67	343.97	11.75	-40.5	-42.1	19.4	0.00e+00	0	30	0	913309696	54	6486
2026-01-12 20:47:50.68	343.81	11.70	-40.3	-41.7	19.9	0.00e+00	0	30	0	914358272	54	6229
2026-01-12 20:47:51.69	343.65	11.65	-40.5	-42.0	19.6	0.00e+00	0	30	0	916455424	54	6432
2026-01-12 20:47:52.70	343.49	11.60	-40.3	-41.8	19.9	0.00e+00	31	29	0	918552576	54	6283
2026-01-12 20:47:53.71	343.33	11.55	-39.9	-41.3	20.3	0.00e+00	0	29	0	920649728	54	5935
2026-01-12 20:47:54.72	343.17	11.50	-39.9	-41.2	20.3	0.00e+00	92	30	0	922746880	54	5867
2026-01-12 20:47:55.73	343.01	11.45	-39.6	-40.8	20.7	0.00e+00	0	29	0	923795456	52	6309
2026-01-12 20:47:56.74	342.85	11.40	-39.5	-40.8	20.9	0.00e+00	0	30	0	925892608	52	6268
2026-01-12 20:47:57.75	342.69	11.35	-39.0	-40.2	21.3	0.00e+00	0	30	0	927989760	52	5890
2026-01-12 20:47:58.75	342.53	11.30	-39.1	-40.3	21.3	0.00e+00	0	29	0	930086912	52	5915
2026-01-12 20:47:59.76	342.38	11.25	-39.0	-40.2	21.2	0.00e+00	49	29	0	932184064	52	5869
2026-01-12 20:48:00.77	342.22	11.20	-39.1	-40.3	21.2	0.00e+00	0	29	0	933232640	52	5929
2026-01-12 20:48:01.78	342.07	11.14	-39.1	-40.3	21.2	0.00e+00	85	29	0	935329792	52	5917
2026-01-12 20:48:02.79	341.91	11.09	-39.3	-40.5	21.1	0.00e+00	0	30	0	937426944	52	6080
2026-01-12 20:48:03.80	341.76	11.04	-39.4	-40.6	20.9	0.00e+00	0	29	0	939524096	52	6167
2026-01-12 20:48:04.81	341.60	10.99	-39.5	-40.8	20.8	0.00e+00	0	30	0	941621248	52	6265
2026-01-12 20:48:05.82	341.45	10.94	-39.2	-40.4	21.1	0.00e+00	0	30	0	942669824	52	6010
2026-01-12 20:48:06.83	341.30	10.89	-39.1	-40.3	21.2	0.00e+00	4	29	0	944766976	52	5947
2026-01-12 20:48:07.84	341.14	10.83	-39.1	-40.4	21.3	0.00e+00	0	30	0	946864128	52	5972
2026-01-12 20:48:08.85	340.99	10.78	-38.9	-40.1	21.2	0.00e+00	74	30	0	948961280	52	5811
2026-01-12 20:48:09.86	340.84	10.73	-38.9	-40.1	21.4	0.00e+00	0	30	0	951058432	52	5777
2026-01-12 20:48:10.87	340.69	10.68	-38.8	-40.1	21.3	0.00e+00	40	30	0	952107008	52	5768
2026-01-12 20:48:11.88	340.54	10.63	-38.8	-40.0	21.4	0.00e+00	0	29	0	954204160	50	6445
2026-01-12 20:48:12.88	340.39	10.57	-38.7	-39.9	21.4	0.00e+00	0	30	0	956301312	50	6364
2026-01-12 20:48:13.89	340.24	10.52	-38.9	-40.1	21.3	0.00e+00	0	29	0	958398464	50	6489
2026-01-12 20:48:14.91	340.09	10.47	-39.0	-40.2	21.2	0.00e+00	0	30	0	960495616	50	6556
2026-01-12 20:48:15.91	339.94	10.42	-39.1	-40.4	21.2	0.00e+00	74	30	0	961544192	50	6715
2026-01-12 20:48:16.92	339.80	10.36	-39.0	-40.2	21.2	0.00e+00	0	30	0	963641344	50	6609
2026-01-12 20:48:17.93	339.65	10.31	-39.2	-40.5	21.1	0.00e+00	68	30	0	965738496	50	6824
2026-01-12 20:48:18.94	339.50	10.26	-39.1	-40.4	21.0	0.00e+00	0	30	0	967835648	50	6705
2026-01-12 20:48:19.95	339.36	10.21	-39.4	-40.8	20.6	0.00e+00	0	30	0	969932800	50	7020
2026-01-12 20:48:20.96	339.21	10.15	-39.5	-40.8	20.6	0.00e+00	0	30	0	970981376	50	7074
2026-01-12 20:48:21.97	339.07	10.10	-39.7	-41.0	20.5	0.00e+00	0	30	0	973078528	50	7216
2026-01-12 20:48:22.98	338.92	10.05	-39.6	-40.9	20.6	0.00e+00	31	30	0	975175680	50	7107
2026-01-12 20:48:23.99	338.78	9.99	-39.5	-40.9	20.5	0.00e+00	0	30	0	977272832	50	7089
2026-01-12 20:48:25.00	338.64	9.94	-39.6	-41.0	20.7	0.00e+00	92	30	0	979369984	50	7197
2026-01-12 20:48:26.01	338.49	9.89	-39.5	-40.8	20.7	0.00e+00	0	30	0	981467136	50	7063
2026-01-12 20:48:27.02	338.35	9.83	-39.3	-40.6	20.8	0.00e+00	0	30	0	982515712	50	6863
2026-01-12 20:48:28.03	338.21	9.78	-39.2	-40.5	20.8	0.00e+00	0	30	0	984612864	50	6785
2026-01-12 20:48:29.03	338.07	9.73	-39.1	-40.3	21.1	0.00e+00	0	30	0	986710016	50	6667
2026-01-12 20:48:30.05	337.93	9.67	-39.0	-40.2	21.1	0.00e+00	49	30	0	988807168	50	6611
2026-01-12 20:48:31.06	337.79	9.62	-39.0	-40.2	21.2	0.00e+00	0	30	0	990904320	50	6551
2026-01-12 20:48:32.07	337.65	9.57	-38.8	-40.0	21.3	0.00e+00	24	30	0	991952896	50	6411
2026-01-12 20:48:33.07	337.51	9.51	-38.9	-40.1	21.2	0.00e+00	0	30	0	994050048	50	6500
2026-01-12 20:48:34.08	337.37	9.46	-39.0	-40.2	21.1	0.00e+00	0	30	0	996147200	50	6565
2026-01-12 20:48:35.09	337.23	9.41	-38.3	-39.5	21.8	0.00e+00	0	30	0	998244352	50	6045
2026-01-12 20:48:36.10	337.10	9.35	-38.5	-39.6	21.7	0.00e+00	0	30	0	999292928	50	6150
2026-01-12 20:48:37.11	336.96	9.30	-38.1	-39.2	22.2	0.00e+00	33	30	0	1001390080	50	5836
2026-01-12 20:48:38.12	336.82	9.25	-38.0	-39.1	22.1	0.00e+00	0	30	0	1003487232	50	5769
2026-01-12 20:48:39.13	336.69	9.19	-37.9	-38.9	22.3	0.00e+00	90	30	0	1005584384	50	5692
2026-01-12 20:48:40.14	336.55	9.14	-37.5	-38.5	22.6	0.00e+00	0	30	0	1007681536	48	6085
2026-01-12 20:48:41.15	336.42	9.08	-37.6	-38.7	22.4	0.00e+00	57	30	0	1009778688	48	6189
2026-01-12 20:48:42.16	336.28	9.03	-37.7	-38.7	22.3	0.00e+00	0	30	0	1010827264	48	6235
2026-01-12 20:48:43.17	336.15	8.98	-37.9	-38.9	22.2	0.00e+00	4	30	0	1012924416	48	6380
2026-01-12 20:48:44.18	336.02	8.92	-37.9	-38.9	22.3	0.00e+00	11	30	0	1015021568	48	6376
2026-01-12 20:48:45.18	335.88	8.87	-38.1	-39.2	22.0	0.00e+00	0	30	0	1017118720	48	6555
2026-01-12 20:48:46.19	335.75	8.82	-38.1	-39.2	22.0	0.00e+00	45	30	0	1019215872	48	6585
2026-01-12 20:48:47.20	335.62	8.76	-38.1	-39.2	22.0	0.00e+00	0	30	0	1020264448	48	6591
2026-01-12 20:48:48.22	335.49	8.71	-38.0	-39.1	22.1	0.00e+00	36	30	0	1022361600	48	6487
2026-01-12 20:48:49.22	335.36	8.65	-38.1	-39.2	22.0	0.00e+00	0	30	0	1024458752	48	6576
2026-01-12 20:48:50.23	335.23	8.60	-37.9	-39.0	22.1	0.00e+00	0	30	0	1026555904	48	6435
2026-01-12 20:48:51.25	335.10	8.54	-37.9	-38.9	22.1	0.00e+00	28	30	0	1028653056	48	6368
2026-01-12 20:48:52.25	334.97	8.49	-37.8	-38.9	22.3	0.00e+00	0	30	0	1029701632	48	6341
2026-01-12 20:48:53.26	334.84	8.44	-37.7	-38.7	22.3	0.00e+00	92	30	0	1031798784	48	6197
2026-01-12 20:48:54.27	334.71	8.38	-37.8	-38.8	22.3	0.00e+00	33	30	0	1033895936	48	6306
2026-01-12 20:48:55.28	334.58	8.33	-37.9	-39.0	22.2	0.00e+00	87	30	0	1035993088	48	6392
2026-01-12 20:48:56.29	334.46	8.27	-37.9	-38.9	22.1	0.00e+00	0	30	0	1038090240	48	6380
2026-01-12 20:48:57.30	334.33	8.22	-38.0	-39.1	22.0	0.00e+00	0	30	0	1039138816	48	6467
2026-01-12 20:48:58.31	334.20	8.16	-38.3	-39.4	21.7	0.00e+00	32	30	0	1041235968	48	6712
2026-01-12 20:48:59.32	334.08	8.11	-38.3	-39.4	21.7	0.00e+00	0	30	0	1043333120	48	6732
2026-01-12 20:49:00.33	333.95	8.06	-38.2	-39.3	21.8	0.00e+00	59	30	0	1045430272	48	6679
2026-01-12 20:49:01.33	333.83	8.00	-38.5	-39.6	21.6	0.00e+00	0	30	0	1047527424	48	6904
2026-01-12 20:49:02.34	333.70	7.95	-38.3	-39.4	21.7	0.00e+00	92	30	0	1048576000	48	6759
2026-01-12 20:49:03.35	333.58	7.89	-38.4	-39.5	21.7	0.00e+00	0	30	0	1050673152	48	6834
2026-01-12 20:49:04.36	333.46	7.84	-38.5	-39.7	21.6	0.00e+00	0	30	0	1052770304	48	6943
2026-01-12 20:49:05.37	333.33	7.78	-38.5	-39.6	21.5	0.00e+00	0	30	0	1054867456	48	6907
2026-01-12 20:49:06.39	333.21	7.73	-38.6	-39.8	21.4	0.00e+00	0	30	0	1056964608	48	7031
2026-01-12 20:49:07.39	333.09	7.68	-38.7	-39.8	21.4	0.00e+00	31	30	0	1058013184	48	7086
2026-01-12 20:49:08.41	332.97	7.62	-38.8	-40.0	21.3	0.00e+00	0	30	0	1060110336	50	6411
2026-01-12 20:49:09.41	332.85	7.57	-38.7	-39.8	21.4	0.00e+00	58	30	0	1062207488	50	6276
2026-01-12 20:49:10.42	332.72	7.51	-38.9	-40.0	21.3	2.20e-06	0	30	0	1064304640	50	6443
2026-01-12 20:49:11.43	332.60	7.46	-38.9	-40.1	21.1	0.00e+00	0	30	0	1066401792	50	6499
2026-01-12 20:49:12.43	332.49	7.40	-38.8	-39.9	21.3	0.00e+00	0	30	0	1067450368	50	6361
2026-01-12 20:49:13.44	332.37	7.35	-38.8	-39.9	21.3	0.00e+00	0	30	0	1069547520	50	6382
2026-01-12 20:49:14.45	332.25	7.30	-38.8	-40.0	21.3	0.00e+00	0	30	0	1071644672	50	6392
2026-01-12 20:49:15.46	332.13	7.24	-38.8	-39.9	21.2	0.00e+00	0	30	0	1073741824	50	6376
2026-01-12 20:49:16.47	332.01	7.19	-38.7	-39.9	21.4	0.00e+00	84	30	0	1075838976	50	6336
2026-01-12 20:49:17.48	331.89	7.13	-38.7	-39.8	21.2	0.00e+00	0	30	0	1077936128	50	6270
2026-01-12 20:49:18.49	331.78	7.08	-38.5	-39.6	21.5	0.00e+00	0	30	0	1078984704	50	6144
2026-01-12 20:49:19.49	331.66	7.02	-38.1	-39.2	21.9	0.00e+00	0	30	0	1081081856	50	5829
2026-01-12 20:49:20.50	331.54	6.97	-38.0	-39.1	21.9	0.00e+00	0	30	0	1083179008	50	5796
2026-01-12 20:49:21.51	331.43	6.91	-38.0	-39.0	22.0	0.00e+00	23	30	0	1085276160	50	5728
2026-01-12 20:49:22.52	331.31	6.86	-38.1	-39.1	21.7	0.00e+00	0	30	0	1087373312	50	5816
2026-01-12 20:49:23.53	331.20	6.81	-38.1	-39.1	21.9	0.00e+00	59	30	0	1088421888	50	5826
2026-01-12 20:49:24.54	331.08	6.75	-38.2	-39.3	21.5	0.00e+00	0	30	0	1090519040	50	5907
2026-01-12 20:49:25.55	330.97	6.70	-38.3	-39.4	21.7	0.00e+00	92	30	0	1092616192	50	6004
2026-01-12 20:49:26.56	330.86	6.64	-38.6	-39.8	21.3	0.00e+00	0	30	0	1094713344	50	6268
2026-01-12 20:49:27.57	330.74	6.59	-38.5	-39.6	21.4	0.00e+00	0	30	0	1096810496	50	6134
2026-01-12 20:49:28.58	330.63	6.53	-39.0	-40.2	21.2	0.00e+00	0	30	0	1097859072	50	6545
2026-01-12 20:49:29.58	330.52	6.48	-39.0	-40.2	20.9	0.00e+00	0	30	0	1099956224	50	6609
2026-01-12 20:49:30.59	330.41	6.42	-39.0	-40.2	21.1	0.00e+00	90	30	0	1102053376	50	6547
2026-01-12 20:49:31.60	330.30	6.37	-39.3	-40.5	20.6	0.00e+00	0	30	0	1104150528	50	6839
2026-01-12 20:49:32.61	330.19	6.32	-39.4	-40.6	20.6	0.00e+00	90	30	0	1106247680	50	6925
2026-01-12 20:49:33.61	330.08	6.26	-39.4	-40.6	20.7	0.00e+00	0	30	0	1107296256	50	6891
2026-01-12 20:49:34.63	329.97	6.21	-39.3	-40.6	20.7	0.00e+00	0	30	0	1109393408	50	6866
2026-01-12 20:49:35.63	329.86	6.15	-39.4	-40.6	20.6	0.00e+00	0	30	0	1111490560	50	6927
2026-01-12 20:49:36.64	329.75	6.10	-39.4	-40.6	20.6	0.00e+00	0	30	0	1113587712	50	6895
2026-01-12 20:49:37.66	329.64	6.04	-39.5	-40.8	20.5	0.00e+00	78	30	0	1115684864	50	7043
2026-01-12 20:49:38.66	329.53	5.99	-39.4	-40.6	20.6	0.00e+00	0	30	0	1116733440	50	6925
2026-01-12 20:49:39.67	329.42	5.94	-39.2	-40.4	20.8	0.00e+00	92	30	0	1118830592	50	6722
2026-01-12 20:49:40.68	329.31	5.88	-39.0	-40.2	21.0	0.00e+00	0	30	0	1120927744	50	6591
2026-01-12 20:49:41.69	329.21	5.83	-38.8	-40.0	21.2	0.00e+00	0	30	0	1123024896	50	6392
2026-01-12 20:49:42.70	329.10	5.77	-38.5	-39.7	21.4	0.00e+00	0	30	0	1125122048	50	6181
2026-01-12 20:49:43.71	328.99	5.72	-38.8	-40.0	21.2	0.00e+00	0	30	0	1126170624	50	6429
2026-01-12 20:49:44.72	328.89	5.67	-38.5	-39.6	21.4	0.00e+00	27	30	0	1128267776	50	6170
2026-01-12 20:49:45.73	328.78	5.61	-38.5	-39.6	21.4	0.00e+00	0	30	0	1130364928	50	6167
2026-01-12 20:49:46.74	328.68	5.56	-38.4	-39.5	21.6	0.00e+00	62	30	0	1132462080	50	6051
2026-01-12 20:49:47.75	328.57	5.50	-38.4	-39.5	21.5	0.00e+00	0	30	0	1134559232	50	6080
2026-01-12 20:49:48.75	328.47	5.45	-38.6	-39.7	21.3	0.00e+00	0	30	0	1135607808	50	6229
2026-01-12 20:49:49.76	328.37	5.40	-38.5	-39.6	21.4	0.00e+00	0	30	0	1137704960	50	6157
2026-01-12 20:49:50.77	328.26	5.34	-38.8	-40.0	21.1	0.00e+00	0	30	0	1139802112	50	6401
2026-01-12 20:49:51.78	328.16	5.29	-38.8	-40.0	21.1	0.00e+00	27	30	0	1141899264	50	6419
2026-01-12 20:49:52.79	328.06	5.23	-39.0	-40.2	20.9	0.00e+00	0	30	0	1143996416	50	6599
2026-01-12 20:49:53.80	327.95	5.18	-39.3	-40.6	20.5	0.00e+00	92	30	0	1145044992	50	6874
2026-01-12 20:49:54.81	327.85	5.12	-39.4	-40.7	20.3	0.00e+00	0	30	0	1147142144	50	6957
2026-01-12 20:49:55.82	327.75	5.07	-39.6	-40.9	20.1	0.00e+00	0	30	0	1149239296	50	7169
2026-01-12 20:49:56.83	327.65	5.02	-39.9	-41.3	20.1	0.00e+00	0	30	0	1151336448	52	6625
2026-01-12 20:49:57.84	327.55	4.96	-39.9	-41.3	19.9	0.00e+00	0	30	0	1153433600	52	6623
2026-01-12 20:49:58.85	327.45	4.91	-40.0	-41.4	19.8	0.00e+00	0	30	0	1154482176	52	6734
2026-01-12 20:49:59.85	327.35	4.86	-40.2	-41.6	19.5	0.00e+00	0	30	0	1156579328	52	6912
2026-01-12 20:50:00.86	327.25	4.80	-40.3	-41.8	19.4	0.00e+00	92	30	0	1158676480	52	7017
2026-01-12 20:50:01.87	327.15	4.75	-40.4	-41.9	19.3	0.00e+00	0	30	0	1160773632	52	7109
2026-01-12 20:50:02.88	327.05	4.69	-40.4	-41.9	19.3	0.00e+00	92	30	0	1162870784	52	7154
2026-01-12 20:50:03.89	326.95	4.64	-40.2	-41.6	19.5	0.00e+00	0	30	0	1163919360	52	6923
2026-01-12 20:50:04.90	326.85	4.59	-40.2	-41.6	19.6	0.00e+00	0	30	0	1166016512	52	6917
2026-01-12 20:50:05.91	326.76	4.53	-40.1	-41.5	19.6	0.00e+00	8	30	0	1168113664	52	6832
2026-01-12 20:50:06.92	326.66	4.48	-40.3	-41.7	19.4	0.00e+00	0	30	0	1170210816	52	6983
2026-01-12 20:50:07.93	326.56	4.43	-40.1	-41.5	19.6	0.00e+00	26	30	0	1172307968	52	6835
2026-01-12 20:50:08.94	326.47	4.37	-40.0	-41.4	19.7	0.00e+00	0	30	0	1174405120	52	6716
2026-01-12 20:50:09.94	326.37	4.32	-40.1	-41.5	19.6	0.00e+00	90	30	0	1175453696	52	6810
2026-01-12 20:50:10.95	326.27	4.27	-39.9	-41.3	19.7	0.00e+00	0	30	0	1177550848	52	6669
2026-01-12 20:50:11.96	326.18	4.21	-40.3	-41.8	19.5	0.00e+00	0	30	0	1179648000	52	7031
2026-01-12 20:50:12.97	326.08	4.16	-40.1	-41.5	19.5	0.00e+00	0	30	0	1181745152	52	6836
2026-01-12 20:50:13.98	325.99	4.11	-40.5	-42.1	19.0	0.00e+00	0	30	0	1183842304	52	7270
2026-01-12 20:50:14.99	325.89	4.05	-40.8	-42.5	18.8	0.00e+00	61	30	0	1184890880	54	6790
2026-01-12 20:50:16.00	325.80	4.00	-40.7	-42.2	19.0	0.00e+00	0	30	0	1186988032	54	6606
2026-01-12 20:50:17.01	325.71	3.95	-40.8	-42.4	18.6	0.00e+00	9	30	0	1189085184	54	6747
2026-01-12 20:50:18.02	325.61	3.89	-41.1	-42.8	18.3	0.00e+00	0	30	0	1191182336	54	7046
2026-01-12 20:50:19.03	325.52	3.84	-41.3	-43.1	18.1	0.00e+00	0	30	0	1193279488	54	7259
2026-01-12 20:50:20.04	325.43	3.79	-41.2	-43.0	18.1	0.00e+00	0	30	0	1194328064	54	7172
2026-01-12 20:50:21.05	325.33	3.73	-41.3	-43.0	18.1	0.00e+00	0	30	0	1196425216	54	7230
2026-01-12 20:50:22.06	325.24	3.68	-41.3	-43.0	17.9	0.00e+00	0	30	0	1198522368	54	7243
2026-01-12 20:50:23.07	325.15	3.63	-41.3	-43.1	17.8	0.00e+00	0	30	0	1200619520	54	7332
2026-01-12 20:50:24.08	325.06	3.57	-41.6	-43.5	17.6	0.00e+00	17	30	0	1202716672	54	7620
2026-01-12 20:50:25.09	324.97	3.52	-41.2	-43.0	18.0	0.00e+00	0	30	0	1203765248	54	7224
