passes_logs/2026/01/12/R4.6S_Anadyr/R4.6S_Anadyr__20260112_032921_AQUA_rec.log

#Pass ID: 20260112_032921_AQUA
#Satellite: AQUA
#Configuration: AQUA
#almurnet v.1.7.20251203
#Start time: 2026-01-12 03:29:23

#Version: 2.2.20231116
#Station: R4.6S_Anadyr
#Location: 177.4865 lon 64.73178 lat
#TLE: 1 27424U 02022A   26011.60158398  .00001056  00000+0  22133-3 0  9990
#TLE: 2 27424  98.4078 337.9720 0002034  82.3051 337.8743 14.61815760260390

#Time	Az	El	Level	Level2	SNR	BER	BlckErr	Temp	State	Recorded	gain1	gain2
2026-01-12 03:29:23.31	198.11	0.10	-48.4	-60.0	3.5	8.46e-01	0	26	0	0	60	36336
2026-01-12 03:29:24.31	198.17	0.16	-48.5	-66.7	3.5	3.04e+01	0	27	104	0	60	82812
2026-01-12 03:29:25.32	198.23	0.22	-48.5	-66.6	3.5	3.04e+01	0	27	104	0	60	81982
2026-01-12 03:29:26.33	198.29	0.27	-48.7	-66.6	3.5	3.04e+01	0	27	104	0	60	82348
2026-01-12 03:29:27.34	198.35	0.33	-48.7	-66.6	3.5	3.04e+01	0	27	104	0	60	81853
2026-01-12 03:29:28.35	198.41	0.39	-48.5	-66.6	3.5	3.04e+01	0	27	104	0	60	82497
2026-01-12 03:29:29.36	198.47	0.45	-48.4	-66.6	3.5	3.04e+01	0	27	104	0	60	82732
2026-01-12 03:29:30.37	198.53	0.51	-48.8	-66.7	3.5	3.04e+01	0	27	104	0	60	82838
2026-01-12 03:29:31.38	198.59	0.56	-48.8	-66.7	3.5	3.04e+01	0	28	104	0	60	83234
2026-01-12 03:29:32.40	198.65	0.62	-48.8	-66.7	3.5	3.04e+01	0	28	104	0	60	82865
2026-01-12 03:29:33.41	198.71	0.68	-48.8	-66.7	3.5	3.04e+01	0	28	104	0	60	83154
2026-01-12 03:29:34.42	198.77	0.74	-48.6	-66.6	3.5	3.04e+01	0	28	104	0	60	82500
2026-01-12 03:29:35.43	198.83	0.80	-48.4	-66.4	3.5	3.04e+01	0	27	104	0	60	80038
2026-01-12 03:29:36.44	198.89	0.86	-48.4	-66.4	3.5	3.04e+01	0	28	104	0	60	79949
2026-01-12 03:29:37.45	198.95	0.92	-48.4	-66.3	3.5	3.04e+01	0	28	104	0	60	79126
2026-01-12 03:29:38.46	199.02	0.97	-48.2	-66.1	3.5	3.04e+01	0	28	104	0	60	77376
2026-01-12 03:29:39.47	199.08	1.03	-47.9	-65.8	3.5	3.04e+01	0	28	104	0	60	74942
2026-01-12 03:29:40.48	199.14	1.09	-47.6	-65.1	3.5	3.04e+01	0	28	104	0	60	69568
2026-01-12 03:29:41.49	199.20	1.15	-47.6	-65.0	3.5	3.04e+01	0	28	104	0	60	68564
2026-01-12 03:29:42.50	199.27	1.21	-47.6	-65.2	3.5	3.04e+01	0	28	104	0	60	70084
2026-01-12 03:29:43.52	199.33	1.27	-47.6	-65.4	3.5	3.04e+01	0	28	104	0	60	71279
2026-01-12 03:29:44.53	199.39	1.33	-47.6	-65.3	3.5	3.04e+01	0	28	104	0	60	70730
2026-01-12 03:29:45.53	199.46	1.39	-47.6	-65.2	3.5	3.04e+01	0	28	104	0	60	69947
2026-01-12 03:29:46.55	199.52	1.45	-47.6	-65.1	3.5	3.04e+01	0	28	104	0	60	68988
2026-01-12 03:29:47.56	199.59	1.51	-47.6	-64.7	3.5	3.04e+01	0	28	104	0	60	66215
2026-01-12 03:29:48.57	199.65	1.57	-47.6	-65.0	3.5	3.04e+01	0	28	104	0	60	68218
2026-01-12 03:29:49.58	199.72	1.63	-47.6	-65.0	3.5	3.04e+01	0	28	104	0	60	68681
2026-01-12 03:29:50.59	199.78	1.69	-47.6	-65.0	3.5	3.04e+01	0	28	104	0	60	68831
2026-01-12 03:29:51.60	199.85	1.75	-47.6	-65.4	3.5	3.04e+01	0	28	104	0	60	71484
2026-01-12 03:29:52.60	199.91	1.81	-47.6	-65.5	3.5	3.04e+01	0	28	104	0	60	72469
2026-01-12 03:29:53.61	199.98	1.87	-47.6	-65.5	3.5	3.04e+01	0	28	104	0	60	72184
2026-01-12 03:29:54.62	200.04	1.93	-47.6	-65.5	3.5	3.04e+01	0	28	104	0	60	72504
2026-01-12 03:29:55.63	200.11	1.99	-47.6	-65.4	3.5	3.04e+01	0	28	104	0	60	72062
2026-01-12 03:29:56.65	200.18	2.05	-47.6	-65.4	3.5	3.04e+01	0	28	104	0	60	72039
2026-01-12 03:29:57.65	200.25	2.11	-47.6	-65.3	3.5	3.04e+01	0	28	104	0	60	71017
2026-01-12 03:29:58.67	200.31	2.17	-47.6	-65.2	3.5	3.04e+01	0	28	104	0	60	70065
2026-01-12 03:29:59.67	200.38	2.23	-47.5	-65.2	3.5	3.04e+01	0	28	104	0	60	69826
2026-01-12 03:30:00.68	200.45	2.30	-47.5	-65.2	3.5	3.04e+01	0	28	104	0	60	70208
2026-01-12 03:30:01.69	200.52	2.36	-47.5	-65.4	3.5	3.04e+01	0	28	104	0	60	71558
2026-01-12 03:30:02.70	200.59	2.42	-47.6	-65.4	3.5	3.04e+01	0	28	104	0	60	71374
2026-01-12 03:30:03.72	200.66	2.48	-47.5	-65.2	3.5	3.04e+01	0	28	104	0	60	70035
2026-01-12 03:30:04.73	200.72	2.54	-47.5	-65.2	3.5	3.04e+01	0	28	104	0	60	69990
2026-01-12 03:30:05.74	200.79	2.60	-47.5	-65.2	3.5	3.04e+01	0	28	104	0	60	70370
2026-01-12 03:30:06.74	200.86	2.67	-47.5	-65.4	3.5	3.04e+01	0	28	104	0	60	71589
2026-01-12 03:30:07.76	200.93	2.73	-47.5	-64.5	3.5	3.04e+01	0	28	104	0	60	64296
2026-01-12 03:30:08.77	201.01	2.79	-47.5	-62.7	3.6	3.04e+01	0	28	104	0	60	52317
2026-01-12 03:30:09.78	201.08	2.85	-47.3	-60.3	3.8	3.04e+01	0	28	104	0	60	39902
2026-01-12 03:30:10.79	201.15	2.92	-47.3	-59.5	3.8	3.04e+01	0	28	104	0	60	36201
2026-01-12 03:30:11.80	201.22	2.98	-47.4	-61.7	4.3	3.04e+01	0	28	104	0	60	46837
2026-01-12 03:30:12.81	201.29	3.04	-47.5	-64.3	3.5	3.04e+01	0	28	104	0	60	62793
2026-01-12 03:30:13.82	201.36	3.10	-47.1	-57.6	8.0	3.04e+01	92	28	104	0	60	29186
2026-01-12 03:30:14.83	201.43	3.17	-45.6	-50.6	14.2	3.04e+01	92	28	0	524288	60	13091
2026-01-12 03:30:15.84	201.51	3.23	-43.6	-46.8	18.1	3.04e+01	88	28	0	2621440	60	8385
2026-01-12 03:30:16.85	201.58	3.29	-41.7	-43.9	20.9	3.04e+01	90	28	0	4194304	58	6784
2026-01-12 03:30:17.86	201.65	3.36	-40.8	-42.8	22.2	3.04e+01	92	28	0	6291456	56	6664
2026-01-12 03:30:18.87	201.73	3.42	-39.8	-41.6	23.3	3.04e+01	93	28	0	8388608	54	6509
2026-01-12 03:30:19.88	201.80	3.48	-39.2	-40.9	23.8	3.04e+01	92	28	0	9961472	54	6057
2026-01-12 03:30:20.89	201.88	3.55	-39.8	-41.6	23.2	3.04e+01	92	28	0	12058624	54	6527
2026-01-12 03:30:21.90	201.95	3.61	-38.6	-40.2	24.3	3.04e+01	92	28	0	13631488	52	6232
2026-01-12 03:30:22.91	202.03	3.68	-44.6	-48.7	13.0	3.04e+01	92	28	0	15728640	56	13195
2026-01-12 03:30:23.92	202.10	3.74	-38.3	-40.1	22.7	3.04e+01	91	28	104	15728640	54	5514
2026-01-12 03:30:24.93	202.18	3.80	-41.4	-43.5	20.7	3.04e+01	91	28	0	16777216	56	7269
2026-01-12 03:30:25.94	202.25	3.87	-39.4	-41.1	21.9	3.04e+01	92	28	0	18874368	50	7747
2026-01-12 03:30:26.95	202.33	3.93	-40.8	-42.7	23.0	3.04e+01	92	28	0	20971520	58	5902
2026-01-12 03:30:27.96	202.41	4.00	-39.2	-40.8	24.1	3.04e+01	92	28	0	22544384	54	5989
2026-01-12 03:30:28.97	202.48	4.06	-39.2	-40.9	24.1	3.04e+01	91	28	0	24641536	54	6008
2026-01-12 03:30:29.98	202.56	4.13	-39.2	-40.8	24.1	3.04e+01	92	28	0	26738688	54	5962
2026-01-12 03:30:30.99	202.64	4.19	-39.2	-40.9	24.2	3.04e+01	91	28	0	28311552	54	6032
2026-01-12 03:30:32.00	202.72	4.26	-39.4	-41.1	23.9	3.04e+01	91	28	0	30408704	54	6176
2026-01-12 03:30:33.01	202.80	4.32	-38.4	-39.9	25.1	3.04e+01	92	28	0	31981568	52	6050
2026-01-12 03:30:34.02	202.87	4.39	-38.4	-39.9	25.1	3.04e+01	91	28	0	34078720	52	6035
2026-01-12 03:30:35.04	202.95	4.45	-38.2	-39.7	25.4	3.04e+01	90	28	0	36175872	52	5876
2026-01-12 03:30:36.04	203.03	4.52	-37.8	-39.2	25.8	3.04e+01	91	28	0	37748736	50	6259
2026-01-12 03:30:37.05	203.11	4.59	-37.7	-39.2	25.7	3.04e+01	92	28	0	39845888	50	6241
2026-01-12 03:30:38.06	203.19	4.65	-37.6	-39.1	25.9	3.04e+01	92	28	0	41418752	50	6162
2026-01-12 03:30:39.07	203.27	4.72	-37.9	-39.4	25.7	3.04e+01	92	28	0	43515904	50	6388
2026-01-12 03:30:40.07	203.35	4.78	-37.6	-39.0	25.9	3.04e+01	92	28	0	45613056	50	6131
2026-01-12 03:30:41.08	203.44	4.85	-37.3	-38.8	26.2	3.04e+01	92	28	0	47185920	50	5933
2026-01-12 03:30:42.09	203.52	4.92	-37.4	-38.8	26.2	3.04e+01	92	28	0	49283072	50	5953
2026-01-12 03:30:43.10	203.60	4.98	-37.4	-38.8	26.3	3.04e+01	90	28	0	50855936	50	5941
2026-01-12 03:30:44.11	203.68	5.05	-37.4	-38.8	26.2	3.04e+01	92	28	0	52953088	50	5935
2026-01-12 03:30:45.11	203.77	5.12	-37.5	-38.9	26.1	3.04e+01	92	28	0	55050240	50	6025
2026-01-12 03:30:46.12	203.85	5.18	-37.4	-38.8	26.2	3.04e+01	90	28	0	56623104	50	5969
2026-01-12 03:30:47.13	203.93	5.25	-37.4	-38.8	26.3	3.04e+01	90	28	0	58720256	50	5943
2026-01-12 03:30:48.14	204.02	5.32	-37.4	-38.9	26.2	3.04e+01	92	28	0	60293120	50	6002
2026-01-12 03:30:49.15	204.10	5.39	-37.5	-38.9	26.2	3.04e+01	90	28	0	62390272	50	6024
2026-01-12 03:30:50.16	204.19	5.45	-37.4	-38.8	26.3	3.04e+01	91	28	0	64487424	50	5946
2026-01-12 03:30:51.17	204.27	5.52	-37.2	-38.6	26.5	3.04e+01	92	28	0	66060288	50	5852
2026-01-12 03:30:52.18	204.36	5.59	-37.3	-38.7	26.4	3.04e+01	92	28	0	68157440	50	5924
2026-01-12 03:30:53.19	204.45	5.66	-37.4	-38.8	26.4	3.04e+01	89	28	0	69730304	50	5944
2026-01-12 03:30:54.20	204.53	5.73	-37.2	-38.6	26.4	3.04e+01	88	28	0	71827456	50	5841
2026-01-12 03:30:55.21	204.62	5.79	-37.2	-38.5	26.6	3.04e+01	88	28	0	73924608	50	5784
2026-01-12 03:30:56.22	204.71	5.86	-37.3	-38.7	26.4	3.04e+01	91	28	0	75497472	50	5892
2026-01-12 03:30:57.23	204.80	5.93	-37.1	-38.5	26.6	3.04e+01	90	28	0	77594624	50	5747
2026-01-12 03:30:58.24	204.88	6.00	-37.2	-38.5	26.5	3.04e+01	92	28	0	79691776	50	5782
2026-01-12 03:30:59.25	204.97	6.07	-37.2	-38.5	26.6	3.04e+01	92	28	0	81264640	50	5791
2026-01-12 03:31:00.26	205.06	6.14	-37.2	-38.6	26.5	3.04e+01	90	28	0	83361792	50	5815
2026-01-12 03:31:01.27	205.15	6.21	-37.2	-38.6	26.6	3.04e+01	92	28	0	84934656	50	5842
2026-01-12 03:31:02.28	205.24	6.28	-37.0	-38.4	26.8	3.04e+01	91	28	0	87031808	50	5680
2026-01-12 03:31:03.29	205.33	6.35	-37.1	-38.5	26.6	3.04e+01	92	28	0	89128960	50	5779
2026-01-12 03:31:04.30	205.42	6.42	-37.2	-38.6	26.6	3.04e+01	90	28	0	90701824	50	5841
2026-01-12 03:31:05.31	205.52	6.49	-37.3	-38.7	26.6	3.04e+01	92	28	0	92798976	50	5874
2026-01-12 03:31:06.32	205.61	6.56	-37.2	-38.6	26.7	3.04e+01	92	28	0	94371840	50	5836
2026-01-12 03:31:07.33	205.70	6.63	-37.1	-38.5	26.7	3.04e+01	92	28	0	96468992	50	5752
2026-01-12 03:31:08.34	205.79	6.70	-37.0	-38.4	26.8	3.04e+01	92	28	0	98566144	50	5666
2026-01-12 03:31:09.35	205.89	6.77	-37.1	-38.5	26.7	3.04e+01	89	28	0	100139008	50	5747
2026-01-12 03:31:10.36	205.98	6.84	-37.1	-38.4	26.8	3.04e+01	92	28	0	102236160	50	5715
2026-01-12 03:31:11.36	206.08	6.91	-37.2	-38.6	26.6	3.04e+01	92	28	0	103809024	50	5809
2026-01-12 03:31:12.38	206.17	6.98	-37.0	-38.3	26.8	3.04e+01	92	28	0	105906176	50	5658
2026-01-12 03:31:13.39	206.27	7.05	-36.7	-38.0	27.1	3.04e+01	92	28	0	108003328	48	6132
2026-01-12 03:31:14.39	206.36	7.12	-36.7	-38.1	27.0	3.04e+01	92	28	0	109576192	48	6155
2026-01-12 03:31:15.40	206.46	7.20	-36.8	-38.1	27.1	3.04e+01	92	28	0	111673344	48	6178
2026-01-12 03:31:16.41	206.55	7.27	-36.8	-38.2	27.0	3.04e+01	92	28	0	113246208	48	6216
2026-01-12 03:31:17.42	206.65	7.34	-36.9	-38.3	26.9	3.04e+01	92	28	0	115343360	48	6297
2026-01-12 03:31:18.44	206.75	7.41	-36.8	-38.1	27.1	3.04e+01	92	28	0	117440512	48	6182
2026-01-12 03:31:19.44	206.85	7.48	-36.8	-38.1	27.1	3.04e+01	92	28	0	119013376	48	6184
2026-01-12 03:31:20.45	206.95	7.56	-36.8	-38.1	27.0	3.04e+01	92	28	0	121110528	48	6176
2026-01-12 03:31:21.46	207.05	7.63	-36.8	-38.1	27.1	3.04e+01	92	28	0	123207680	48	6171
2026-01-12 03:31:22.47	207.15	7.70	-36.7	-38.0	27.2	3.04e+01	92	28	0	124780544	48	6111
2026-01-12 03:31:23.48	207.25	7.77	-36.7	-38.1	27.1	3.04e+01	92	28	0	126877696	48	6137
2026-01-12 03:31:24.50	207.35	7.85	-36.6	-37.9	27.3	3.04e+01	92	28	0	128450560	48	6025
2026-01-12 03:31:25.51	207.45	7.92	-36.5	-37.8	27.4	3.04e+01	90	28	0	130547712	48	5964
2026-01-12 03:31:26.52	207.55	7.99	-36.5	-37.8	27.5	3.04e+01	92	28	0	132644864	48	5942
2026-01-12 03:31:27.53	207.66	8.07	-36.5	-37.8	27.4	3.04e+01	92	28	0	134217728	48	5984
2026-01-12 03:31:28.54	207.76	8.14	-36.4	-37.8	27.5	3.04e+01	92	28	0	136314880	48	5933
2026-01-12 03:31:29.55	207.86	8.22	-36.4	-37.7	27.5	3.04e+01	92	28	0	137887744	48	5898
2026-01-12 03:31:30.56	207.97	8.29	-36.5	-37.8	27.4	3.04e+01	92	28	0	139984896	48	5942
2026-01-12 03:31:31.57	208.07	8.36	-36.5	-37.8	27.5	3.04e+01	91	28	0	142082048	48	5944
2026-01-12 03:31:32.58	208.18	8.44	-36.6	-37.9	27.4	3.04e+01	92	28	0	143654912	48	6018
2026-01-12 03:31:33.59	208.28	8.51	-36.4	-37.7	27.5	3.04e+01	92	28	0	145752064	48	5886
2026-01-12 03:31:34.60	208.39	8.59	-36.4	-37.7	27.6	3.04e+01	92	28	0	147849216	48	5867
2026-01-12 03:31:35.61	208.50	8.66	-36.5	-37.8	27.6	3.04e+01	88	28	0	149422080	48	5983
2026-01-12 03:31:36.62	208.60	8.74	-36.6	-37.9	27.4	3.04e+01	92	28	0	151519232	48	6008
2026-01-12 03:31:37.63	208.71	8.81	-36.3	-37.6	27.6	3.04e+01	92	28	0	153092096	48	5853
2026-01-12 03:31:38.64	208.82	8.89	-36.3	-37.6	27.7	3.04e+01	92	28	0	155189248	48	5842
2026-01-12 03:31:39.65	208.93	8.96	-36.2	-37.5	27.7	3.04e+01	92	28	0	157286400	48	5776
2026-01-12 03:31:40.66	209.04	9.04	-36.2	-37.5	27.8	3.04e+01	91	28	0	158859264	48	5756
2026-01-12 03:31:41.67	209.15	9.12	-36.2	-37.5	27.8	3.04e+01	91	28	0	160956416	48	5766
2026-01-12 03:31:42.68	209.26	9.19	-36.2	-37.5	27.8	3.04e+01	92	28	0	163053568	48	5740
2026-01-12 03:31:43.69	209.37	9.27	-36.2	-37.5	27.8	3.04e+01	92	28	0	164626432	48	5736
2026-01-12 03:31:44.70	209.49	9.34	-36.3	-37.6	27.7	3.04e+01	91	28	0	166723584	48	5797
2026-01-12 03:31:45.71	209.60	9.42	-36.2	-37.5	27.8	3.04e+01	92	28	0	168296448	48	5749
2026-01-12 03:31:46.72	209.71	9.50	-36.3	-37.6	27.7	3.04e+01	91	28	0	170393600	48	5839
2026-01-12 03:31:47.73	209.83	9.57	-36.3	-37.6	27.8	3.04e+01	92	28	0	172490752	48	5804
2026-01-12 03:31:48.73	209.94	9.65	-36.0	-37.3	28.0	3.04e+01	92	28	0	174063616	48	5630
2026-01-12 03:31:49.74	210.06	9.73	-36.1	-37.4	27.9	3.04e+01	92	28	0	176160768	48	5695
2026-01-12 03:31:50.75	210.17	9.81	-36.0	-37.3	28.0	3.04e+01	92	28	0	177733632	48	5639
2026-01-12 03:31:51.76	210.29	9.88	-36.1	-37.4	27.9	3.04e+01	92	28	0	179830784	48	5665
2026-01-12 03:31:52.77	210.41	9.96	-36.0	-37.3	28.0	3.04e+01	90	28	0	181927936	48	5623
2026-01-12 03:31:53.78	210.53	10.04	-36.0	-37.3	28.0	3.04e+01	92	28	0	183500800	48	5626
2026-01-12 03:31:54.79	210.64	10.12	-36.0	-37.3	28.1	3.04e+01	89	28	0	185597952	48	5613
2026-01-12 03:31:55.80	210.76	10.20	-36.2	-37.5	27.8	3.04e+01	92	28	0	187170816	48	5760
2026-01-12 03:31:56.81	210.88	10.27	-36.0	-37.3	28.0	3.04e+01	92	28	0	189267968	48	5608
2026-01-12 03:31:57.82	211.01	10.35	-35.9	-37.2	28.1	3.04e+01	92	28	0	191365120	46	6224
2026-01-12 03:31:58.83	211.13	10.43	-35.9	-37.2	28.1	3.04e+01	92	28	0	192937984	46	6245
2026-01-12 03:31:59.84	211.25	10.51	-35.9	-37.2	28.2	3.04e+01	91	28	0	195035136	46	6211
2026-01-12 03:32:00.85	211.37	10.59	-35.8	-37.1	28.2	3.04e+01	92	28	0	196608000	46	6168
2026-01-12 03:32:01.86	211.50	10.67	-35.8	-37.1	28.3	3.04e+01	92	28	0	198705152	46	6160
2026-01-12 03:32:02.88	211.62	10.75	-35.8	-37.1	28.2	3.04e+01	90	28	0	200802304	46	6165
2026-01-12 03:32:03.89	211.75	10.83	-35.9	-37.2	28.2	3.04e+01	92	28	0	202375168	46	6207
2026-01-12 03:32:04.90	211.87	10.91	-35.6	-36.9	28.4	3.04e+01	90	28	0	204472320	46	6013
2026-01-12 03:32:05.90	212.00	10.99	-35.8	-37.0	28.2	3.04e+01	90	28	0	206045184	46	6124
2026-01-12 03:32:06.91	212.12	11.07	-35.6	-36.9	28.5	3.04e+01	92	28	0	208142336	46	6011
2026-01-12 03:32:07.92	212.25	11.15	-35.7	-36.9	28.3	3.04e+01	92	28	0	210239488	46	6058
2026-01-12 03:32:08.93	212.38	11.23	-35.7	-37.0	28.4	3.04e+01	92	28	0	211812352	46	6094
2026-01-12 03:32:09.94	212.51	11.31	-35.7	-37.0	28.4	3.04e+01	90	28	0	213909504	46	6104
2026-01-12 03:32:10.95	212.64	11.39	-35.7	-37.0	28.3	3.04e+01	92	28	0	216006656	46	6101
2026-01-12 03:32:11.96	212.77	11.47	-35.7	-37.0	28.3	3.04e+01	92	28	0	217579520	46	6087
2026-01-12 03:32:12.97	212.90	11.55	-35.7	-37.0	28.3	3.04e+01	92	28	0	219676672	46	6095
2026-01-12 03:32:13.98	213.03	11.64	-35.6	-36.9	28.5	3.04e+01	88	28	0	221249536	46	5995
2026-01-12 03:32:14.99	213.17	11.72	-35.6	-36.8	28.5	3.04e+01	92	28	0	223346688	46	5980
2026-01-12 03:32:16.00	213.30	11.80	-35.5	-36.8	28.5	3.04e+01	92	28	0	225443840	46	5959
2026-01-12 03:32:17.01	213.44	11.88	-35.6	-36.8	28.5	3.04e+01	90	28	0	227016704	46	5979
2026-01-12 03:32:18.02	213.57	11.96	-35.4	-36.7	28.6	3.04e+01	92	28	0	229113856	46	5900
2026-01-12 03:32:19.03	213.71	12.05	-35.4	-36.7	28.6	3.04e+01	92	28	0	231211008	46	5861
2026-01-12 03:32:20.04	213.84	12.13	-35.4	-36.7	28.6	3.04e+01	90	28	0	232783872	46	5888
2026-01-12 03:32:21.05	213.98	12.21	-35.5	-36.7	28.5	3.04e+01	92	28	0	234881024	46	5924
2026-01-12 03:32:22.06	214.12	12.29	-35.5	-36.8	28.5	3.04e+01	92	28	0	236453888	46	5953
2026-01-12 03:32:23.07	214.26	12.38	-35.5	-36.7	28.6	3.04e+01	92	28	0	238551040	46	5917
2026-01-12 03:32:24.08	214.40	12.46	-35.5	-36.7	28.6	3.04e+01	92	28	0	240648192	46	5890
2026-01-12 03:32:25.09	214.54	12.54	-35.5	-36.8	28.6	3.04e+01	92	28	0	242221056	46	5946
2026-01-12 03:32:26.10	214.68	12.63	-35.5	-36.8	28.5	3.04e+01	92	28	0	244318208	46	5930
2026-01-12 03:32:27.11	214.83	12.71	-35.5	-36.8	28.5	3.04e+01	92	28	0	245891072	46	5958
2026-01-12 03:32:28.12	214.97	12.79	-35.5	-36.8	28.6	3.04e+01	92	28	0	247988224	46	5948
2026-01-12 03:32:29.13	215.11	12.88	-35.3	-36.6	28.7	3.04e+01	90	28	0	250085376	46	5855
2026-01-12 03:32:30.14	215.26	12.96	-35.4	-36.7	28.7	3.04e+01	90	28	0	251658240	46	5869
2026-01-12 03:32:31.15	215.41	13.05	-35.2	-36.5	28.8	3.04e+01	92	28	0	253755392	46	5781
2026-01-12 03:32:32.17	215.55	13.13	-35.3	-36.6	28.7	3.04e+01	91	28	0	255328256	46	5805
2026-01-12 03:32:33.18	215.70	13.22	-35.4	-36.7	28.7	3.04e+01	88	28	0	257425408	46	5892
2026-01-12 03:32:34.19	215.85	13.30	-35.4	-36.7	28.7	3.04e+01	92	28	0	259522560	46	5906
2026-01-12 03:32:35.20	216.00	13.39	-35.4	-36.7	28.7	3.04e+01	92	28	0	261095424	46	5895
2026-01-12 03:32:36.21	216.15	13.47	-35.4	-36.6	28.7	3.04e+01	85	28	0	263192576	46	5830
2026-01-12 03:32:37.22	216.30	13.56	-35.3	-36.6	28.7	3.04e+01	89	28	0	264765440	46	5792
2026-01-12 03:32:38.23	216.45	13.64	-35.3	-36.5	28.8	3.04e+01	91	28	0	266862592	46	5751
2026-01-12 03:32:39.24	216.61	13.73	-35.4	-36.6	28.7	3.04e+01	92	28	0	268959744	46	5839
2026-01-12 03:32:40.25	216.76	13.81	-35.3	-36.5	28.8	3.04e+01	92	28	0	270532608	46	5780
2026-01-12 03:32:41.25	216.92	13.90	-35.3	-36.6	28.7	3.04e+01	92	28	0	272629760	46	5797
2026-01-12 03:32:42.26	217.07	13.99	-35.3	-36.6	28.8	3.04e+01	92	28	0	274202624	46	5799
2026-01-12 03:32:43.27	217.23	14.07	-35.2	-36.4	28.9	3.04e+01	91	28	0	276299776	46	5700
2026-01-12 03:32:44.28	217.39	14.16	-35.2	-36.4	28.9	3.04e+01	92	28	0	278396928	46	5714
2026-01-12 03:32:45.30	217.55	14.25	-35.1	-36.4	29.0	3.04e+01	91	28	0	279969792	46	5670
2026-01-12 03:32:46.30	217.71	14.33	-35.2	-36.4	28.9	3.04e+01	91	28	0	282066944	46	5714
2026-01-12 03:32:47.31	217.87	14.42	-35.1	-36.3	29.0	3.04e+01	91	28	0	284164096	46	5637
2026-01-12 03:32:48.32	218.03	14.51	-35.2	-36.4	28.9	3.04e+01	92	28	0	285736960	46	5714
2026-01-12 03:32:49.33	218.19	14.59	-35.1	-36.3	29.0	3.04e+01	91	28	0	287834112	46	5653
2026-01-12 03:32:50.35	218.36	14.68	-35.2	-36.5	28.9	3.04e+01	92	28	0	289406976	46	5750
2026-01-12 03:32:51.35	218.52	14.77	-35.1	-36.4	29.0	3.04e+01	92	28	0	291504128	46	5670
2026-01-12 03:32:52.36	218.69	14.86	-35.3	-36.5	28.9	3.04e+01	91	28	0	293601280	46	5750
2026-01-12 03:32:53.37	218.85	14.94	-35.1	-36.4	29.0	3.04e+01	92	28	0	295174144	46	5677
2026-01-12 03:32:54.39	219.02	15.03	-35.1	-36.3	29.0	3.04e+01	92	29	0	297271296	46	5651
2026-01-12 03:32:55.40	219.19	15.12	-35.1	-36.4	29.0	3.04e+01	89	28	0	299368448	46	5670
2026-01-12 03:32:56.41	219.36	15.21	-35.0	-36.3	29.0	3.04e+01	92	29	0	300941312	46	5614
2026-01-12 03:32:57.42	219.53	15.30	-35.2	-36.4	29.0	3.04e+01	92	28	0	303038464	46	5695
2026-01-12 03:32:58.43	219.70	15.38	-35.1	-36.4	29.0	3.04e+01	90	28	0	304611328	46	5678
2026-01-12 03:32:59.44	219.88	15.47	-35.1	-36.3	29.1	3.04e+01	92	28	0	306708480	46	5600
2026-01-12 03:33:00.45	220.05	15.56	-35.0	-36.2	29.1	3.04e+01	91	28	0	308805632	46	5583
2026-01-12 03:33:01.46	220.23	15.65	-35.1	-36.3	29.0	3.04e+01	92	28	0	310378496	46	5648
2026-01-12 03:33:02.47	220.40	15.74	-35.0	-36.3	29.1	3.04e+01	92	28	0	312475648	46	5600
2026-01-12 03:33:03.48	220.58	15.83	-35.0	-36.2	29.1	3.04e+01	91	28	0	314048512	44	6229
2026-01-12 03:33:04.49	220.76	15.92	-34.9	-36.1	29.2	3.04e+01	90	28	0	316145664	44	6186
2026-01-12 03:33:05.50	220.94	16.01	-34.9	-36.1	29.2	3.04e+01	92	28	0	318242816	44	6170
2026-01-12 03:33:06.51	221.12	16.10	-34.9	-36.1	29.3	3.04e+01	92	28	0	319815680	44	6161
2026-01-12 03:33:07.52	221.30	16.19	-34.7	-35.9	29.3	3.04e+01	92	28	0	321912832	44	6062
2026-01-12 03:33:08.53	221.48	16.28	-34.7	-35.9	29.4	3.04e+01	91	28	0	324009984	44	6048
2026-01-12 03:33:09.54	221.67	16.36	-34.9	-36.1	29.2	3.04e+01	92	29	0	325582848	44	6146
2026-01-12 03:33:10.55	221.85	16.45	-34.8	-36.0	29.3	3.04e+01	92	29	0	327680000	44	6099
2026-01-12 03:33:11.56	222.04	16.54	-34.9	-36.1	29.2	3.04e+01	92	28	0	329252864	44	6162
2026-01-12 03:33:12.57	222.23	16.63	-34.9	-36.1	29.2	3.04e+01	90	29	0	331350016	44	6181
2026-01-12 03:33:13.58	222.41	16.72	-34.9	-36.1	29.1	3.04e+01	91	29	0	333447168	44	6203
2026-01-12 03:33:14.59	222.60	16.81	-34.8	-36.1	29.2	3.04e+01	90	28	0	335020032	44	6135
2026-01-12 03:33:15.60	222.80	16.90	-34.8	-36.0	29.3	3.04e+01	91	28	0	337117184	44	6096
2026-01-12 03:33:16.61	222.99	16.99	-34.8	-36.0	29.3	3.04e+01	91	28	0	338690048	44	6131
2026-01-12 03:33:17.62	223.18	17.08	-34.8	-36.0	29.3	3.04e+01	91	29	0	340787200	44	6119
2026-01-12 03:33:18.63	223.38	17.18	-34.9	-36.1	29.3	3.04e+01	90	29	0	342884352	44	6157
2026-01-12 03:33:19.64	223.57	17.27	-34.7	-35.9	29.4	3.04e+01	91	29	0	344457216	44	6027
2026-01-12 03:33:20.65	223.77	17.36	-34.8	-36.0	29.3	3.04e+01	91	28	0	346554368	44	6085
2026-01-12 03:33:21.66	223.97	17.45	-34.9	-36.1	29.2	3.04e+01	91	29	0	348127232	44	6174
2026-01-12 03:33:22.67	224.17	17.54	-34.8	-36.1	29.2	3.04e+01	90	28	0	350224384	44	6141
2026-01-12 03:33:23.68	224.37	17.63	-34.9	-36.2	29.1	3.04e+01	91	28	0	352321536	44	6223
2026-01-12 03:33:24.69	224.57	17.72	-34.8	-36.0	29.2	3.04e+01	92	28	0	353894400	44	6134
2026-01-12 03:33:25.70	224.77	17.81	-35.0	-36.3	29.1	3.04e+01	92	29	0	355991552	44	6284
2026-01-12 03:33:26.71	224.98	17.90	-34.8	-36.0	29.3	3.04e+01	90	29	0	357564416	44	6097
2026-01-12 03:33:27.72	225.18	17.99	-34.8	-36.1	29.2	3.04e+01	90	28	0	359661568	44	6146
2026-01-12 03:33:28.73	225.39	18.08	-34.8	-36.0	29.3	3.04e+01	90	28	0	361758720	44	6095
2026-01-12 03:33:29.74	225.60	18.17	-34.9	-36.1	29.3	3.04e+01	92	28	0	363331584	44	6163
2026-01-12 03:33:30.75	225.81	18.26	-34.9	-36.1	29.2	3.04e+01	90	28	0	365428736	44	6163
2026-01-12 03:33:31.76	226.02	18.35	-34.9	-36.1	29.3	3.04e+01	92	29	0	367525888	44	6153
2026-01-12 03:33:32.77	226.23	18.45	-34.8	-36.0	29.3	3.04e+01	92	28	0	369098752	44	6130
2026-01-12 03:33:33.78	226.44	18.54	-35.0	-36.2	29.1	3.04e+01	89	28	0	371195904	44	6242
2026-01-12 03:33:34.79	226.66	18.63	-34.9	-36.2	29.1	3.04e+01	90	29	0	372768768	44	6206
2026-01-12 03:33:35.80	226.88	18.72	-35.1	-36.3	29.1	3.04e+01	92	28	0	374865920	44	6304
2026-01-12 03:33:36.81	227.09	18.81	-34.8	-36.1	29.3	3.04e+01	90	29	0	376963072	44	6145
2026-01-12 03:33:37.81	227.31	18.90	-34.8	-36.0	29.3	3.04e+01	88	28	0	378535936	44	6113
2026-01-12 03:33:38.82	227.53	18.99	-34.9	-36.1	29.3	3.04e+01	91	28	0	380633088	44	6170
2026-01-12 03:33:39.83	227.75	19.08	-34.8	-36.0	29.3	3.04e+01	92	28	0	382205952	44	6116
2026-01-12 03:33:40.84	227.97	19.17	-34.8	-36.0	29.4	3.04e+01	92	28	0	384303104	44	6084
2026-01-12 03:33:41.85	228.20	19.26	-34.8	-36.0	29.3	3.04e+01	91	28	0	386400256	44	6113
2026-01-12 03:33:42.86	228.42	19.35	-34.9	-36.1	29.2	3.04e+01	92	29	0	387973120	44	6161
2026-01-12 03:33:43.87	228.65	19.44	-34.9	-36.1	29.3	3.04e+01	91	29	0	390070272	44	6142
2026-01-12 03:33:44.88	228.88	19.53	-34.9	-36.1	29.3	3.04e+01	90	29	0	392167424	44	6140
2026-01-12 03:33:45.89	229.11	19.62	-34.8	-36.0	29.3	3.04e+01	91	28	0	393740288	44	6073
2026-01-12 03:33:46.90	229.34	19.71	-34.9	-36.1	29.3	3.04e+01	92	29	0	395837440	44	6202
2026-01-12 03:33:47.91	229.57	19.80	-35.1	-36.3	29.2	3.04e+01	90	28	0	397410304	44	6301
2026-01-12 03:33:48.92	229.81	19.89	-35.2	-36.4	29.0	3.04e+01	92	28	0	399507456	44	6422
2026-01-12 03:33:49.93	230.04	19.98	-35.0	-36.1	29.2	3.04e+01	90	29	0	401604608	44	6204
2026-01-12 03:33:50.94	230.28	20.07	-34.8	-36.0	29.4	3.04e+01	91	29	0	403177472	44	6114
2026-01-12 03:33:51.95	230.52	20.16	-34.9	-36.1	29.3	3.04e+01	91	28	0	405274624	44	6164
2026-01-12 03:33:52.96	230.76	20.25	-35.0	-36.2	29.1	3.04e+01	86	28	0	406847488	44	6241
2026-01-12 03:33:53.97	231.00	20.34	-35.1	-36.3	29.1	3.04e+01	91	28	0	408944640	44	6291
2026-01-12 03:33:54.97	231.24	20.43	-34.9	-36.1	29.2	3.04e+01	92	29	0	411041792	44	6195
2026-01-12 03:33:55.99	231.48	20.52	-34.9	-36.1	29.3	3.04e+01	90	29	0	412614656	44	6181
2026-01-12 03:33:56.99	231.73	20.61	-35.0	-36.2	29.3	3.04e+01	92	28	0	414711808	44	6238
2026-01-12 03:33:58.00	231.97	20.70	-35.0	-36.2	29.1	3.04e+01	90	29	0	416284672	44	6274
2026-01-12 03:33:59.01	232.22	20.79	-35.0	-36.2	29.2	3.04e+01	92	28	0	418381824	44	6253
2026-01-12 03:34:00.02	232.47	20.88	-35.0	-36.3	29.1	3.04e+01	92	29	0	420478976	44	6281
2026-01-12 03:34:01.03	232.72	20.97	-35.0	-36.2	29.2	3.04e+01	92	29	0	422051840	44	6225
2026-01-12 03:34:02.04	232.98	21.05	-35.1	-36.3	29.1	3.04e+01	90	28	0	424148992	44	6316
2026-01-12 03:34:03.05	233.23	21.14	-35.0	-36.2	29.2	3.04e+01	92	28	0	425721856	44	6257
2026-01-12 03:34:04.06	233.49	21.23	-35.1	-36.3	29.2	3.04e+01	90	29	0	427819008	44	6302
2026-01-12 03:34:05.07	233.74	21.32	-35.1	-36.3	29.1	3.04e+01	92	28	0	429916160	44	6309
2026-01-12 03:34:06.08	234.00	21.41	-35.1	-36.3	29.0	3.04e+01	92	29	0	431489024	44	6330
2026-01-12 03:34:07.09	234.26	21.49	-35.1	-36.3	29.2	3.04e+01	92	29	0	433586176	44	6306
2026-01-12 03:34:08.11	234.53	21.58	-35.1	-36.3	29.2	3.04e+01	92	28	0	435683328	44	6286
2026-01-12 03:34:09.12	234.79	21.67	-35.0	-36.2	29.2	3.04e+01	92	28	0	437256192	44	6219
2026-01-12 03:34:10.12	235.05	21.75	-35.0	-36.2	29.1	3.04e+01	90	29	0	439353344	44	6256
2026-01-12 03:34:11.13	235.32	21.84	-35.0	-36.3	29.2	3.04e+01	92	29	0	440926208	44	6283
2026-01-12 03:34:12.15	235.59	21.93	-35.1	-36.4	29.0	3.04e+01	90	29	0	443023360	44	6361
2026-01-12 03:34:13.16	235.86	22.01	-35.0	-36.3	29.1	3.04e+01	92	28	0	445120512	44	6293
2026-01-12 03:34:14.17	236.13	22.10	-35.0	-36.2	29.2	3.04e+01	92	28	0	446693376	44	6218
2026-01-12 03:34:15.18	236.40	22.18	-35.1	-36.3	29.1	3.04e+01	92	28	0	448790528	44	6343
2026-01-12 03:34:16.19	236.68	22.27	-35.1	-36.3	29.1	3.04e+01	89	29	0	450363392	44	6310
2026-01-12 03:34:17.20	236.95	22.35	-35.1	-36.3	29.2	3.04e+01	92	28	0	452460544	44	6303
2026-01-12 03:34:18.21	237.23	22.43	-35.2	-36.5	28.9	3.04e+01	89	29	0	454557696	44	6428
2026-01-12 03:34:19.22	237.51	22.52	-35.2	-36.4	29.0	3.04e+01	92	28	0	456130560	44	6409
2026-01-12 03:34:20.23	237.79	22.60	-35.1	-36.3	29.1	3.04e+01	92	28	0	458227712	44	6349
2026-01-12 03:34:21.24	238.07	22.68	-35.1	-36.3	29.1	3.04e+01	92	29	0	460324864	44	6290
2026-01-12 03:34:22.25	238.35	22.77	-35.2	-36.4	29.0	3.04e+01	90	28	0	461897728	44	6414
2026-01-12 03:34:23.26	238.64	22.85	-35.3	-36.5	29.0	3.04e+01	92	29	0	463994880	44	6469
2026-01-12 03:34:24.27	238.93	22.93	-35.2	-36.4	29.0	3.04e+01	89	28	0	465567744	44	6404
2026-01-12 03:34:25.28	239.21	23.01	-35.3	-36.5	28.9	3.04e+01	92	29	0	467664896	44	6491
2026-01-12 03:34:26.29	239.50	23.09	-35.4	-36.6	28.8	3.04e+01	91	28	0	469762048	44	6530
2026-01-12 03:34:27.30	239.79	23.17	-35.3	-36.6	28.9	3.04e+01	92	29	0	471334912	44	6515
2026-01-12 03:34:28.31	240.09	23.25	-35.3	-36.5	28.9	3.04e+01	92	29	0	473432064	44	6460
2026-01-12 03:34:29.32	240.38	23.33	-35.1	-36.4	29.0	3.04e+01	92	29	0	475004928	44	6373
2026-01-12 03:34:30.33	240.68	23.41	-35.3	-36.6	28.9	3.04e+01	92	29	0	477102080	44	6510
2026-01-12 03:34:31.34	240.97	23.49	-35.1	-36.4	29.0	3.04e+01	87	29	0	479199232	44	6366
2026-01-12 03:34:32.35	241.27	23.57	-35.2	-36.4	29.0	3.04e+01	92	29	0	480772096	44	6415
2026-01-12 03:34:33.36	241.57	23.64	-35.3	-36.5	29.0	3.04e+01	91	29	0	482869248	44	6467
2026-01-12 03:34:34.37	241.87	23.72	-35.2	-36.5	29.0	3.04e+01	92	29	0	484442112	44	6426
2026-01-12 03:34:35.38	242.18	23.80	-35.1	-36.3	29.1	3.04e+01	92	29	0	486539264	44	6284
2026-01-12 03:34:36.39	242.48	23.87	-35.2	-36.4	29.1	3.04e+01	92	29	0	488636416	44	6360
2026-01-12 03:34:37.40	242.79	23.95	-35.2	-36.4	29.0	3.04e+01	92	29	0	490209280	44	6406
2026-01-12 03:34:38.41	243.09	24.02	-35.4	-36.6	28.9	3.04e+01	90	29	0	492306432	44	6523
2026-01-12 03:34:39.42	243.40	24.10	-35.2	-36.4	29.0	3.04e+01	92	29	0	493879296	44	6381
2026-01-12 03:34:40.43	243.71	24.17	-35.1	-36.4	29.1	3.04e+01	92	29	0	495976448	44	6358
2026-01-12 03:34:41.44	244.02	24.24	-35.2	-36.4	29.0	3.04e+01	91	29	0	498073600	44	6408
2026-01-12 03:34:42.44	244.33	24.31	-35.3	-36.6	28.9	3.04e+01	90	29	0	499646464	44	6501
2026-01-12 03:34:43.45	244.65	24.38	-35.2	-36.5	29.0	3.04e+01	91	28	0	501743616	44	6432
2026-01-12 03:34:44.46	244.97	24.46	-35.2	-36.4	29.1	3.04e+01	92	29	0	503840768	44	6388
2026-01-12 03:34:45.47	245.28	24.53	-35.3	-36.6	28.8	3.04e+01	91	28	0	505413632	44	6517
2026-01-12 03:34:46.48	245.60	24.59	-35.2	-36.4	29.0	3.04e+01	90	29	0	507510784	44	6390
2026-01-12 03:34:47.49	245.92	24.66	-35.4	-36.6	28.9	3.04e+01	92	29	0	509083648	44	6554
2026-01-12 03:34:48.50	246.25	24.73	-35.4	-36.6	28.8	3.04e+01	92	29	0	511180800	44	6520
2026-01-12 03:34:49.51	246.57	24.80	-35.2	-36.4	29.0	3.04e+01	92	29	0	513277952	44	6389
2026-01-12 03:34:50.52	246.89	24.87	-35.2	-36.4	29.0	3.04e+01	90	28	0	514850816	44	6388
2026-01-12 03:34:51.53	247.22	24.93	-35.4	-36.6	28.9	3.04e+01	92	28	0	516947968	44	6550
2026-01-12 03:34:52.54	247.55	25.00	-35.2	-36.4	29.0	3.04e+01	92	29	0	518520832	44	6412
2026-01-12 03:34:53.55	247.88	25.06	-35.3	-36.6	28.9	3.04e+01	88	28	0	520617984	44	6523
2026-01-12 03:34:54.56	248.21	25.12	-35.4	-36.6	28.9	3.04e+01	92	29	0	522715136	44	6521
2026-01-12 03:34:55.57	248.54	25.19	-35.3	-36.5	29.0	3.04e+01	92	28	0	524288000	44	6443
2026-01-12 03:34:56.58	248.87	25.25	-35.3	-36.5	29.0	3.04e+01	92	28	0	526385152	44	6467
2026-01-12 03:34:57.59	249.21	25.31	-35.4	-36.6	28.9	3.04e+01	90	29	0	528482304	44	6538
2026-01-12 03:34:58.60	249.54	25.37	-35.2	-36.4	29.0	3.04e+01	92	29	0	530055168	44	6403
2026-01-12 03:34:59.61	249.88	25.43	-35.4	-36.6	28.9	3.04e+01	90	28	0	532152320	44	6569
2026-01-12 03:35:00.62	250.22	25.49	-35.4	-36.6	28.9	3.04e+01	92	28	0	533725184	44	6569
2026-01-12 03:35:01.63	250.56	25.54	-35.4	-36.6	29.0	3.04e+01	90	29	0	535822336	44	6518
2026-01-12 03:35:02.64	250.90	25.60	-35.3	-36.6	28.9	3.04e+01	92	28	0	537919488	44	6519
2026-01-12 03:35:03.65	251.24	25.66	-35.3	-36.5	29.0	3.04e+01	91	28	0	539492352	44	6469
2026-01-12 03:35:04.66	251.58	25.71	-35.1	-36.3	29.1	3.04e+01	92	29	0	541589504	44	6302
2026-01-12 03:35:05.67	251.93	25.77	-35.3	-36.5	29.0	3.04e+01	92	28	0	543686656	44	6478
2026-01-12 03:35:06.68	252.27	25.82	-35.3	-36.5	28.9	3.04e+01	89	28	0	545259520	44	6495
2026-01-12 03:35:07.69	252.62	25.87	-35.3	-36.5	29.0	3.04e+01	92	29	0	547356672	44	6477
2026-01-12 03:35:08.70	252.97	25.92	-35.2	-36.4	29.1	3.04e+01	90	28	0	548929536	44	6385
2026-01-12 03:35:09.71	253.32	25.97	-35.5	-36.7	28.8	3.04e+01	91	28	0	551026688	44	6634
2026-01-12 03:35:10.72	253.67	26.02	-35.4	-36.6	28.9	3.04e+01	90	28	0	552599552	44	6525
2026-01-12 03:35:11.72	254.02	26.07	-35.3	-36.6	29.0	3.04e+01	92	29	0	554696704	44	6506
2026-01-12 03:35:12.73	254.37	26.12	-35.4	-36.6	28.8	3.04e+01	87	29	0	556793856	44	6543
2026-01-12 03:35:13.74	254.72	26.16	-35.4	-36.7	28.8	3.04e+01	92	29	0	558366720	44	6595
2026-01-12 03:35:14.75	255.08	26.21	-35.5	-36.7	28.9	3.04e+01	91	28	0	560463872	44	6603
2026-01-12 03:35:15.75	255.43	26.25	-35.2	-36.4	29.1	3.04e+01	92	29	0	562036736	44	6393
2026-01-12 03:35:16.76	255.78	26.29	-35.0	-36.2	29.1	3.04e+01	90	28	0	564133888	44	6274
2026-01-12 03:35:17.77	256.14	26.34	-35.1	-36.3	29.2	3.04e+01	91	29	0	566231040	44	6301
2026-01-12 03:35:18.78	256.50	26.38	-35.1	-36.3	29.1	3.04e+01	90	28	0	567803904	44	6315
2026-01-12 03:35:19.79	256.86	26.42	-35.2	-36.4	29.0	3.04e+01	91	29	0	569901056	44	6396
2026-01-12 03:35:20.79	257.22	26.45	-35.0	-36.2	29.2	3.04e+01	89	28	0	571998208	44	6257
2026-01-12 03:35:21.80	257.58	26.49	-35.1	-36.4	29.2	3.04e+01	91	29	0	573571072	44	6354
2026-01-12 03:35:22.81	257.94	26.53	-35.0	-36.3	29.1	3.04e+01	90	28	0	575668224	44	6286
2026-01-12 03:35:23.82	258.30	26.56	-35.1	-36.3	29.2	3.04e+01	92	29	0	577241088	44	6293
2026-01-12 03:35:24.83	258.66	26.60	-35.1	-36.3	29.1	3.04e+01	91	29	0	579338240	44	6302
2026-01-12 03:35:25.84	259.03	26.63	-34.9	-36.1	29.3	3.04e+01	91	29	0	581435392	44	6193
2026-01-12 03:35:26.85	259.39	26.66	-34.9	-36.1	29.2	3.04e+01	90	29	0	583008256	44	6200
2026-01-12 03:35:27.86	259.76	26.69	-35.0	-36.2	29.2	3.04e+01	91	29	0	585105408	44	6263
2026-01-12 03:35:28.87	260.13	26.72	-35.1	-36.3	29.1	3.04e+01	90	29	0	586678272	44	6342
2026-01-12 03:35:29.88	260.49	26.75	-34.9	-36.1	29.2	3.04e+01	92	29	0	588775424	44	6195
2026-01-12 03:35:30.89	260.86	26.78	-34.9	-36.1	29.3	3.04e+01	92	29	0	590872576	44	6190
2026-01-12 03:35:31.90	261.23	26.81	-34.8	-36.0	29.4	3.04e+01	86	29	0	592445440	44	6116
2026-01-12 03:35:32.91	261.60	26.83	-35.0	-36.2	29.3	3.04e+01	92	29	0	594542592	44	6244
2026-01-12 03:35:33.92	261.97	26.85	-35.0	-36.2	29.2	3.04e+01	92	29	0	596115456	44	6238
2026-01-12 03:35:34.93	262.34	26.88	-34.9	-36.1	29.3	3.04e+01	92	29	0	598212608	44	6201
2026-01-12 03:35:35.93	262.70	26.90	-35.1	-36.3	29.0	3.04e+01	92	29	0	600309760	44	6347
2026-01-12 03:35:36.94	263.08	26.92	-35.0	-36.2	29.2	3.04e+01	90	29	0	601882624	44	6228
2026-01-12 03:35:37.95	263.45	26.94	-34.9	-36.1	29.4	3.04e+01	92	29	0	603979776	44	6155
2026-01-12 03:35:38.96	263.82	26.95	-34.8	-36.0	29.4	3.04e+01	92	29	0	605552640	44	6077
2026-01-12 03:35:39.97	264.19	26.97	-35.0	-36.2	29.3	3.04e+01	92	29	0	607649792	44	6235
2026-01-12 03:35:40.98	264.56	26.99	-34.8	-36.0	29.4	3.04e+01	92	29	0	609746944	44	6085
2026-01-12 03:35:41.99	264.94	27.00	-34.8	-36.0	29.4	3.04e+01	92	29	0	611319808	44	6088
2026-01-12 03:35:43.00	265.31	27.01	-34.8	-36.0	29.3	3.04e+01	90	29	0	613416960	44	6113
2026-01-12 03:35:43.79	265.60	27.02	-34.7	-35.9	29.4	3.04e+01	92	29	0	614989824	44	6054
2026-01-12 03:35:44.95	266.03	27.03	-34.8	-36.0	29.4	3.04e+01	92	28	0	617611264	44	6089
2026-01-12 03:35:45.81	266.35	27.04	-34.8	-36.0	29.4	3.04e+01	92	29	0	619184128	44	6101
2026-01-12 03:35:46.97	266.78	27.05	-34.8	-36.0	29.4	3.04e+01	91	29	0	621281280	44	6099
2026-01-12 03:35:47.83	267.10	27.06	-34.9	-36.1	29.3	3.04e+01	92	29	0	622854144	44	6173
2026-01-12 03:35:48.99	267.53	27.06	-34.8	-36.0	29.4	3.04e+01	92	29	0	624951296	44	6073
2026-01-12 03:35:49.85	267.85	27.07	-34.8	-36.0	29.5	3.04e+01	92	29	0	626524160	44	6083
2026-01-12 03:35:51.01	268.28	27.07	-35.0	-36.2	29.2	3.04e+01	91	29	0	628621312	44	6240
2026-01-12 03:35:51.87	268.60	27.07	-34.8	-36.0	29.5	3.04e+01	92	29	0	630194176	44	6065
2026-01-12 03:35:53.03	269.03	27.07	-34.6	-35.8	29.5	3.04e+01	90	29	0	632815616	44	5972
2026-01-12 03:35:53.89	269.35	27.07	-34.7	-35.9	29.5	3.04e+01	92	29	0	634388480	44	6042
2026-01-12 03:35:55.05	269.78	27.07	-34.6	-35.7	29.6	3.04e+01	91	29	0	636485632	44	5925
2026-01-12 03:35:55.91	270.10	27.07	-34.6	-35.8	29.5	3.04e+01	91	29	0	638058496	44	5991
2026-01-12 03:35:57.07	270.53	27.06	-34.7	-35.9	29.4	3.04e+01	92	29	0	640155648	44	6063
2026-01-12 03:35:57.94	270.85	27.06	-34.6	-35.8	29.6	3.04e+01	89	29	0	641728512	44	5963
2026-01-12 03:35:59.09	271.28	27.05	-34.5	-35.7	29.6	3.04e+01	92	29	0	643825664	44	5899
2026-01-12 03:35:59.96	271.60	27.04	-34.5	-35.7	29.6	3.04e+01	91	28	0	645398528	44	5910
2026-01-12 03:36:01.11	272.02	27.03	-34.6	-35.8	29.6	3.04e+01	92	28	0	648019968	44	5986
2026-01-12 03:36:01.98	272.35	27.02	-34.7	-35.9	29.5	3.04e+01	90	29	0	649592832	44	5996
2026-01-12 03:36:03.13	272.77	27.01	-34.6	-35.8	29.5	3.04e+01	90	28	0	651689984	44	5972
2026-01-12 03:36:04.00	273.09	26.99	-34.5	-35.7	29.7	3.04e+01	91	28	0	653262848	44	5862
2026-01-12 03:36:05.15	273.52	26.98	-34.5	-35.7	29.6	3.04e+01	92	28	0	655360000	44	5872
2026-01-12 03:36:06.02	273.84	26.96	-34.5	-35.7	29.6	3.04e+01	92	28	0	656932864	44	5896
2026-01-12 03:36:07.17	274.26	26.95	-34.5	-35.7	29.5	3.04e+01	92	29	0	659030016	44	5911
2026-01-12 03:36:08.04	274.58	26.93	-34.7	-35.9	29.4	3.04e+01	92	29	0	660602880	44	6059
2026-01-12 03:36:09.20	275.01	26.91	-34.9	-36.1	29.3	3.04e+01	92	28	0	662700032	44	6154
2026-01-12 03:36:10.06	275.32	26.89	-34.5	-35.6	29.6	3.04e+01	86	29	0	664797184	44	5858
2026-01-12 03:36:11.22	275.75	26.86	-34.5	-35.7	29.6	3.04e+01	90	28	0	666894336	44	5921
2026-01-12 03:36:12.08	276.06	26.84	-34.7	-35.9	29.5	3.04e+01	89	28	0	668467200	44	6025
2026-01-12 03:36:13.23	276.48	26.82	-34.4	-35.5	29.7	3.04e+01	92	28	0	670564352	44	5777
2026-01-12 03:36:14.10	276.80	26.79	-34.4	-35.6	29.7	3.04e+01	91	28	0	672137216	44	5820
2026-01-12 03:36:15.25	277.22	26.76	-34.5	-35.7	29.5	3.04e+01	92	28	0	674234368	44	5901
2026-01-12 03:36:16.12	277.53	26.74	-34.5	-35.7	29.7	3.04e+01	91	28	0	675807232	44	5880
2026-01-12 03:36:17.27	277.95	26.71	-34.7	-35.9	29.5	3.04e+01	92	28	0	677904384	44	6006
2026-01-12 03:36:18.14	278.27	26.68	-34.6	-35.8	29.5	3.04e+01	92	28	0	679477248	44	5981
2026-01-12 03:36:19.29	278.68	26.65	-34.4	-35.5	29.7	3.04e+01	92	28	0	681574400	44	5781
2026-01-12 03:36:20.15	278.99	26.62	-34.5	-35.7	29.8	3.04e+01	92	28	0	683147264	44	5868
2026-01-12 03:36:21.31	279.41	26.58	-34.4	-35.6	29.7	3.04e+01	90	29	0	685768704	44	5797
2026-01-12 03:36:22.17	279.72	26.55	-34.5	-35.7	29.7	3.04e+01	90	29	0	687341568	44	5870
2026-01-12 03:36:23.33	280.13	26.51	-34.5	-35.7	29.6	3.04e+01	92	29	0	689438720	44	5891
2026-01-12 03:36:24.19	280.44	26.48	-34.4	-35.6	29.7	3.04e+01	92	29	0	691011584	44	5812
2026-01-12 03:36:25.34	280.85	26.43	-34.4	-35.6	29.7	3.04e+01	91	29	0	693108736	44	5797
2026-01-12 03:36:26.21	281.16	26.40	-34.4	-35.5	29.7	3.04e+01	92	29	0	694681600	44	5790
2026-01-12 03:36:27.36	281.57	26.35	-34.3	-35.5	29.7	3.04e+01	91	29	0	696778752	44	5759
2026-01-12 03:36:28.23	281.87	26.32	-34.4	-35.5	29.8	3.04e+01	92	29	0	698351616	44	5788
2026-01-12 03:36:29.38	282.28	26.27	-34.5	-35.7	29.6	3.04e+01	92	29	0	700973056	44	5890
2026-01-12 03:36:30.25	282.59	26.23	-34.4	-35.6	29.7	3.04e+01	92	29	0	702545920	44	5810
2026-01-12 03:36:31.40	282.99	26.18	-34.3	-35.5	29.8	3.04e+01	92	29	0	704643072	44	5729
2026-01-12 03:36:32.27	283.29	26.14	-34.3	-35.4	29.8	3.04e+01	86	29	0	706215936	44	5723
2026-01-12 03:36:33.42	283.69	26.09	-34.3	-35.5	29.8	3.04e+01	92	29	0	708313088	44	5742
2026-01-12 03:36:34.29	284.00	26.05	-34.4	-35.6	29.6	3.04e+01	91	29	0	709885952	44	5853
2026-01-12 03:36:35.44	284.39	25.99	-34.5	-35.7	29.6	3.04e+01	92	28	0	711983104	44	5890
2026-01-12 03:36:36.30	284.69	25.95	-34.5	-35.7	29.5	3.04e+01	91	29	0	713555968	44	5877
2026-01-12 03:36:37.46	285.09	25.89	-34.4	-35.6	29.5	3.04e+01	92	29	0	716177408	44	5841
2026-01-12 03:36:38.32	285.39	25.85	-34.3	-35.4	29.8	3.04e+01	92	29	0	717750272	44	5709
2026-01-12 03:36:39.47	285.78	25.79	-34.4	-35.6	29.7	3.04e+01	92	29	0	719847424	44	5805
2026-01-12 03:36:40.34	286.08	25.75	-34.4	-35.6	29.6	3.04e+01	92	29	0	721420288	44	5840
2026-01-12 03:36:41.49	286.47	25.68	-34.5	-35.7	29.6	3.04e+01	92	29	0	723517440	44	5914
2026-01-12 03:36:42.36	286.76	25.64	-34.5	-35.7	29.7	3.04e+01	89	29	0	725090304	44	5868
2026-01-12 03:36:43.52	287.15	25.57	-34.6	-35.8	29.5	3.04e+01	92	29	0	727187456	44	5974
2026-01-12 03:36:44.38	287.44	25.52	-34.5	-35.7	29.6	3.04e+01	92	29	0	728760320	44	5886
2026-01-12 03:36:45.53	287.82	25.46	-34.3	-35.5	29.7	3.04e+01	88	29	0	730857472	44	5776
2026-01-12 03:36:46.40	288.12	25.41	-34.4	-35.6	29.7	3.04e+01	92	28	0	732430336	44	5814
2026-01-12 03:36:47.56	288.50	25.34	-34.1	-35.3	29.9	3.04e+01	92	29	0	735051776	44	5633
2026-01-12 03:36:48.42	288.78	25.29	-34.3	-35.4	29.9	3.04e+01	92	29	0	736624640	44	5723
2026-01-12 03:36:49.58	289.17	25.22	-34.3	-35.5	29.8	3.04e+01	91	29	0	738721792	44	5761
2026-01-12 03:36:50.44	289.45	25.16	-34.5	-35.7	29.6	3.04e+01	92	28	0	740294656	44	5885
2026-01-12 03:36:51.60	289.83	25.09	-34.5	-35.7	29.6	3.04e+01	91	29	0	742391808	44	5895
2026-01-12 03:36:52.46	290.11	25.04	-34.3	-35.4	29.8	3.04e+01	92	29	0	743964672	44	5719
2026-01-12 03:36:53.62	290.48	24.96	-34.3	-35.4	29.8	3.04e+01	92	29	0	746061824	44	5715
2026-01-12 03:36:54.48	290.76	24.91	-34.3	-35.5	29.8	3.04e+01	91	29	0	747634688	44	5737
2026-01-12 03:36:55.64	291.13	24.83	-34.3	-35.5	29.8	3.04e+01	92	28	0	749731840	44	5735
2026-01-12 03:36:56.50	291.41	24.78	-34.2	-35.3	29.9	3.04e+01	91	29	0	751304704	44	5653
2026-01-12 03:36:57.65	291.78	24.70	-34.3	-35.5	29.8	3.04e+01	90	29	0	753926144	44	5750
2026-01-12 03:36:58.52	292.05	24.64	-34.3	-35.5	29.7	3.04e+01	92	29	0	755499008	44	5791
2026-01-12 03:36:59.67	292.42	24.56	-34.5	-35.7	29.6	3.04e+01	56	28	0	757596160	44	5870
2026-01-12 03:37:00.54	292.69	24.50	-34.2	-35.4	29.8	3.04e+01	57	29	0	759169024	44	5692
2026-01-12 03:37:01.69	293.05	24.42	-34.2	-35.4	29.9	3.04e+01	59	29	0	761266176	44	5687
2026-01-12 03:37:02.56	293.32	24.36	-34.3	-35.5	29.8	3.04e+01	45	29	0	762839040	44	5747
2026-01-12 03:37:03.71	293.68	24.28	-34.2	-35.4	29.8	3.04e+01	58	29	0	764936192	44	5714
2026-01-12 03:37:04.58	293.94	24.22	-34.2	-35.3	29.9	3.04e+01	61	29	0	766509056	44	5648
2026-01-12 03:37:05.73	294.30	24.14	-34.3	-35.5	29.7	3.04e+01	60	28	0	769130496	44	5775
2026-01-12 03:37:06.60	294.56	24.07	-34.2	-35.4	29.8	3.04e+01	59	29	0	770703360	44	5673
2026-01-12 03:37:07.75	294.91	23.99	-34.4	-35.6	29.7	3.04e+01	44	29	0	772800512	44	5827
2026-01-12 03:37:08.61	295.17	23.93	-34.4	-35.6	29.8	3.04e+01	60	29	0	774373376	44	5830
2026-01-12 03:37:09.76	295.52	23.84	-34.4	-35.6	29.7	3.04e+01	59	29	0	776470528	44	5808
2026-01-12 03:37:10.63	295.78	23.78	-34.3	-35.5	29.7	3.04e+01	38	29	0	778043392	44	5748
2026-01-12 03:37:11.79	296.13	23.69	-34.3	-35.5	29.7	3.04e+01	62	29	0	780140544	44	5730
2026-01-12 03:37:12.65	296.38	23.62	-34.3	-35.5	29.7	3.04e+01	58	28	0	781713408	44	5745
2026-01-12 03:37:13.81	296.72	23.53	-34.4	-35.6	29.6	3.04e+01	59	29	0	784334848	44	5798
2026-01-12 03:37:14.67	296.98	23.47	-34.1	-35.3	29.9	3.04e+01	58	29	0	785907712	44	5611
2026-01-12 03:37:15.83	297.32	23.38	-34.3	-35.4	29.8	3.04e+01	53	29	0	788004864	44	5725
2026-01-12 03:37:16.69	297.57	23.31	-34.3	-35.5	29.7	3.04e+01	60	28	0	789577728	44	5768
2026-01-12 03:37:17.84	297.90	23.22	-34.3	-35.5	29.7	3.04e+01	59	28	0	791674880	44	5779
2026-01-12 03:37:18.71	298.15	23.15	-34.3	-35.5	29.7	3.04e+01	52	29	0	793247744	44	5740
2026-01-12 03:37:19.86	298.48	23.06	-34.2	-35.4	29.8	3.04e+01	62	28	0	795344896	44	5698
2026-01-12 03:37:20.72	298.72	22.99	-34.3	-35.5	29.7	3.04e+01	57	28	0	796917760	44	5771
2026-01-12 03:37:21.88	299.05	22.90	-34.1	-35.3	29.9	3.04e+01	60	28	0	799014912	44	5629
2026-01-12 03:37:22.74	299.29	22.83	-34.2	-35.4	29.8	3.04e+01	61	28	0	800587776	44	5693
2026-01-12 03:37:23.90	299.62	22.74	-34.2	-35.4	29.8	3.04e+01	45	29	0	802684928	44	5686
2026-01-12 03:37:24.76	299.86	22.67	-34.2	-35.4	29.7	3.04e+01	58	28	0	804782080	44	5717
2026-01-12 03:37:25.92	300.18	22.57	-34.1	-35.3	29.9	3.04e+01	59	28	0	806879232	44	5639
2026-01-12 03:37:26.78	300.42	22.50	-34.1	-35.3	29.9	3.04e+01	44	28	0	808452096	44	5615
2026-01-12 03:37:27.94	300.73	22.41	-34.1	-35.3	29.9	3.04e+01	59	29	0	810549248	44	5608
2026-01-12 03:37:28.80	300.97	22.34	-34.1	-35.3	30.0	3.04e+01	60	29	0	812122112	44	5602
2026-01-12 03:37:29.95	301.28	22.24	-34.2	-35.4	29.8	3.04e+01	60	29	0	814219264	44	5698
2026-01-12 03:37:30.82	301.52	22.17	-34.3	-35.5	29.7	3.04e+01	61	29	0	815792128	44	5752
2026-01-12 03:37:31.98	301.83	22.07	-34.2	-35.4	29.8	3.04e+01	46	29	0	817889280	44	5724
2026-01-12 03:37:32.84	302.06	22.00	-34.2	-35.4	29.7	3.04e+01	56	28	0	819462144	44	5691
2026-01-12 03:37:33.99	302.36	21.90	-34.1	-35.3	29.8	3.04e+01	56	29	0	822083584	44	5655
2026-01-12 03:37:34.86	302.59	21.83	-34.1	-35.3	29.8	3.04e+01	56	29	0	823656448	44	5650
2026-01-12 03:37:36.01	302.89	21.73	-34.1	-35.3	29.8	3.04e+01	60	28	0	825753600	44	5606
2026-01-12 03:37:36.88	303.12	21.66	-34.0	-35.2	29.9	3.04e+01	54	28	0	827326464	44	5564
2026-01-12 03:37:38.03	303.42	21.56	-34.0	-35.2	30.0	3.04e+01	62	28	0	829423616	44	5547
2026-01-12 03:37:38.90	303.64	21.48	-34.1	-35.4	29.8	3.04e+01	59	29	0	830996480	44	5668
2026-01-12 03:37:40.05	303.93	21.38	-34.1	-35.3	29.8	3.04e+01	45	28	0	833093632	44	5625
2026-01-12 03:37:40.91	304.15	21.31	-34.2	-35.4	29.8	3.04e+01	60	29	0	834666496	44	5704
2026-01-12 03:37:42.07	304.45	21.21	-34.0	-35.2	29.9	3.04e+01	59	29	0	837287936	44	5564
2026-01-12 03:37:42.93	304.66	21.14	-34.1	-35.3	30.0	3.04e+01	58	29	0	838860800	44	5601
2026-01-12 03:37:44.09	304.95	21.04	-34.0	-35.2	29.9	3.04e+01	58	29	0	840957952	44	5583
2026-01-12 03:37:44.95	305.17	20.96	-34.0	-35.2	29.9	3.04e+01	46	29	0	842530816	44	5545
2026-01-12 03:37:46.11	305.45	20.86	-34.0	-35.2	29.9	3.04e+01	53	28	0	844627968	44	5535
2026-01-12 03:37:46.97	305.67	20.78	-34.0	-35.2	30.0	3.04e+01	61	28	0	846200832	42	6215
2026-01-12 03:37:48.12	305.95	20.68	-33.9	-35.1	29.9	3.04e+01	48	28	0	848297984	42	6195
2026-01-12 03:37:48.99	306.16	20.61	-33.9	-35.1	30.1	3.04e+01	59	28	0	849870848	42	6158
2026-01-12 03:37:50.14	306.44	20.51	-33.9	-35.1	30.1	3.04e+01	58	28	0	851968000	42	6185
2026-01-12 03:37:51.01	306.64	20.43	-34.0	-35.2	30.1	3.04e+01	59	28	0	854065152	42	6207
2026-01-12 03:37:52.16	306.92	20.33	-34.1	-35.3	29.9	3.04e+01	59	28	0	856162304	42	6287
2026-01-12 03:37:53.03	307.13	20.25	-34.2	-35.4	29.9	3.04e+01	54	28	0	857735168	42	6360
2026-01-12 03:37:54.18	307.40	20.15	-34.1	-35.3	29.8	3.04e+01	57	29	0	859832320	42	6287
2026-01-12 03:37:55.05	307.60	20.07	-34.0	-35.1	29.9	3.04e+01	56	29	0	861405184	42	6200
2026-01-12 03:37:56.20	307.87	19.97	-33.9	-35.1	30.1	3.04e+01	59	28	0	863502336	42	6145
2026-01-12 03:37:57.07	308.07	19.90	-34.0	-35.2	29.9	3.04e+01	61	28	0	865075200	42	6219
2026-01-12 03:37:58.22	308.33	19.79	-33.9	-35.1	30.0	3.04e+01	47	28	0	867172352	42	6153
2026-01-12 03:37:59.09	308.53	19.72	-33.8	-35.0	30.0	3.04e+01	61	29	0	868745216	42	6117
2026-01-12 03:38:00.24	308.80	19.61	-33.9	-35.1	30.1	3.04e+01	60	29	0	870842368	42	6148
2026-01-12 03:38:01.11	308.99	19.54	-34.0	-35.2	30.0	3.04e+01	47	28	0	872939520	42	6218
2026-01-12 03:38:02.26	309.25	19.43	-34.0	-35.2	29.9	3.04e+01	59	29	0	875036672	42	6265
2026-01-12 03:38:03.12	309.44	19.36	-34.1	-35.3	29.9	3.04e+01	60	29	0	876609536	42	6308
2026-01-12 03:38:04.28	309.70	19.25	-34.1	-35.3	29.8	3.04e+01	58	28	0	878706688	42	6314
2026-01-12 03:38:05.14	309.89	19.18	-34.1	-35.3	29.7	3.04e+01	56	28	0	880279552	42	6325
2026-01-12 03:38:06.30	310.14	19.07	-34.3	-35.5	29.6	3.04e+01	45	28	0	882376704	42	6434
2026-01-12 03:38:07.16	310.33	19.00	-34.3	-35.5	29.5	3.04e+01	58	28	0	883949568	42	6462
2026-01-12 03:38:08.32	310.58	18.89	-34.2	-35.5	29.7	3.04e+01	62	28	0	886046720	42	6424
2026-01-12 03:38:09.18	310.77	18.82	-34.1	-35.3	29.9	3.04e+01	56	28	0	887619584	42	6339
2026-01-12 03:38:10.34	311.02	18.71	-34.4	-35.6	29.7	3.04e+01	59	28	0	890241024	42	6570
2026-01-12 03:38:11.20	311.20	18.64	-33.9	-35.1	30.0	3.04e+01	61	28	0	891813888	42	6161
2026-01-12 03:38:12.36	311.44	18.53	-33.9	-35.1	30.0	3.04e+01	58	28	0	893911040	42	6193
2026-01-12 03:38:13.22	311.62	18.46	-33.9	-35.1	30.0	3.04e+01	58	29	0	895483904	42	6180
2026-01-12 03:38:14.38	311.87	18.35	-34.0	-35.2	29.9	3.04e+01	50	29	0	897581056	42	6229
2026-01-12 03:38:15.24	312.04	18.28	-33.8	-35.0	30.1	3.04e+01	60	28	0	899153920	42	6089
2026-01-12 03:38:16.40	312.28	18.17	-33.9	-35.1	30.0	3.04e+01	57	28	0	901251072	42	6138
2026-01-12 03:38:17.26	312.46	18.10	-33.9	-35.0	30.0	3.04e+01	44	28	0	902823936	42	6128
2026-01-12 03:38:18.42	312.70	17.99	-33.9	-35.1	30.0	3.04e+01	62	29	0	905445376	42	6146
2026-01-12 03:38:19.28	312.87	17.92	-33.9	-35.1	29.9	3.04e+01	59	28	0	907018240	42	6200
2026-01-12 03:38:20.44	313.10	17.81	-33.8	-35.0	30.0	3.04e+01	61	29	0	909115392	42	6096
2026-01-12 03:38:21.30	313.28	17.73	-33.9	-35.0	30.0	3.04e+01	57	29	0	910688256	42	6115
2026-01-12 03:38:22.45	313.50	17.63	-33.8	-35.0	30.0	3.04e+01	49	28	0	912785408	42	6092
2026-01-12 03:38:23.32	313.68	17.55	-33.8	-35.0	30.1	3.04e+01	58	28	0	914358272	42	6102
2026-01-12 03:38:24.47	313.90	17.45	-33.9	-35.1	29.9	3.04e+01	58	28	0	916455424	42	6190
2026-01-12 03:38:25.34	314.07	17.38	-34.0	-35.2	29.9	3.04e+01	55	28	0	918028288	42	6267
2026-01-12 03:38:26.49	314.29	17.27	-33.9	-35.1	29.9	3.04e+01	64	28	0	920125440	42	6197
2026-01-12 03:38:27.36	314.46	17.20	-33.9	-35.1	30.0	3.04e+01	62	29	0	922222592	42	6192
2026-01-12 03:38:28.51	314.68	17.09	-33.9	-35.1	30.0	3.04e+01	60	28	0	924319744	42	6136
2026-01-12 03:38:29.37	314.85	17.02	-33.8	-34.9	30.1	3.04e+01	58	28	0	925892608	42	6063
2026-01-12 03:38:30.52	315.06	16.92	-33.8	-35.0	30.1	3.04e+01	51	28	0	927989760	42	6077
2026-01-12 03:38:31.39	315.23	16.84	-33.7	-34.9	30.2	3.04e+01	59	28	0	929562624	42	6033
2026-01-12 03:38:32.54	315.44	16.74	-33.9	-35.1	30.0	3.04e+01	60	28	0	931659776	42	6140
2026-01-12 03:38:33.41	315.60	16.66	-34.0	-35.2	29.9	3.04e+01	45	29	0	933232640	42	6235
2026-01-12 03:38:34.56	315.82	16.56	-34.0	-35.1	30.0	3.04e+01	60	29	0	935329792	42	6201
2026-01-12 03:38:35.43	315.98	16.48	-33.8	-35.0	30.0	3.04e+01	60	29	0	936902656	42	6122
2026-01-12 03:38:36.58	316.19	16.38	-33.9	-35.0	30.0	3.04e+01	61	29	0	938999808	42	6119
2026-01-12 03:38:37.45	316.34	16.30	-33.9	-35.0	30.0	3.04e+01	58	29	0	940572672	42	6121
2026-01-12 03:38:38.60	316.55	16.20	-33.9	-35.1	30.0	3.04e+01	47	29	0	943194112	42	6171
2026-01-12 03:38:39.47	316.71	16.13	-34.0	-35.2	29.9	3.04e+01	61	29	0	944766976	42	6206
2026-01-12 03:38:40.62	316.91	16.02	-34.1	-35.3	29.8	3.04e+01	59	29	0	946864128	42	6320
2026-01-12 03:38:41.49	317.06	15.95	-34.1	-35.3	29.8	3.04e+01	47	29	0	948436992	42	6301
2026-01-12 03:38:42.64	317.27	15.85	-34.0	-35.2	29.8	3.04e+01	58	28	0	950534144	42	6256
2026-01-12 03:38:43.51	317.42	15.77	-34.2	-35.3	29.6	3.04e+01	44	29	0	952107008	42	6350
2026-01-12 03:38:44.66	317.62	15.67	-34.0	-35.2	29.8	3.04e+01	58	29	0	954204160	42	6217
2026-01-12 03:38:45.52	317.77	15.60	-34.1	-35.3	29.7	3.04e+01	60	29	0	955777024	42	6312
2026-01-12 03:38:46.68	317.97	15.50	-34.0	-35.2	29.8	3.04e+01	46	28	0	958398464	42	6232
2026-01-12 03:38:47.54	318.11	15.42	-34.1	-35.3	29.8	3.04e+01	61	29	0	959971328	42	6304
2026-01-12 03:38:48.70	318.31	15.32	-33.9	-35.1	30.0	3.04e+01	55	29	0	962068480	42	6165
2026-01-12 03:38:49.56	318.45	15.25	-33.9	-35.1	30.0	3.04e+01	59	29	0	963641344	42	6136
2026-01-12 03:38:50.72	318.65	15.15	-34.1	-35.3	29.8	3.04e+01	58	29	0	965738496	42	6289
2026-01-12 03:38:51.58	318.79	15.07	-33.9	-35.1	29.9	3.04e+01	46	28	0	967311360	42	6152
2026-01-12 03:38:52.73	318.98	14.97	-34.1	-35.3	29.7	3.04e+01	59	29	0	969408512	42	6294
2026-01-12 03:38:53.60	319.12	14.90	-34.0	-35.2	29.8	3.04e+01	58	29	0	970981376	42	6244
2026-01-12 03:38:54.75	319.31	14.80	-34.1	-35.3	29.8	3.04e+01	49	29	0	973078528	42	6296
2026-01-12 03:38:55.61	319.45	14.72	-34.0	-35.2	29.8	3.04e+01	60	29	0	975175680	42	6256
2026-01-12 03:38:56.77	319.64	14.62	-34.1	-35.3	29.7	3.04e+01	62	29	0	977272832	42	6319
2026-01-12 03:38:57.63	319.78	14.55	-34.1	-35.3	29.8	3.04e+01	57	28	0	978845696	42	6326
2026-01-12 03:38:58.79	319.96	14.45	-34.1	-35.3	29.7	3.04e+01	57	28	0	980942848	42	6305
2026-01-12 03:38:59.65	320.10	14.38	-34.1	-35.3	29.6	3.04e+01	55	28	0	982515712	42	6342
2026-01-12 03:39:00.81	320.28	14.28	-34.2	-35.4	29.5	3.04e+01	59	28	0	984612864	42	6421
2026-01-12 03:39:01.67	320.42	14.21	-34.1	-35.3	29.6	3.04e+01	61	28	0	986185728	42	6343
2026-01-12 03:39:02.83	320.60	14.11	-34.2	-35.4	29.6	3.04e+01	56	28	0	988282880	42	6351
2026-01-12 03:39:03.69	320.73	14.03	-34.2	-35.3	29.7	3.04e+01	61	28	0	989855744	42	6343
2026-01-12 03:39:04.84	320.91	13.94	-34.1	-35.3	29.8	3.04e+01	61	28	0	991952896	42	6304
2026-01-12 03:39:05.71	321.04	13.86	-34.2	-35.4	29.7	3.04e+01	59	29	0	994050048	42	6353
2026-01-12 03:39:06.86	321.21	13.77	-34.3	-35.5	29.7	3.04e+01	62	28	0	996147200	42	6435
2026-01-12 03:39:07.73	321.35	13.69	-34.3	-35.5	29.6	3.04e+01	44	28	0	997720064	42	6488
2026-01-12 03:39:08.88	321.52	13.60	-34.6	-35.8	29.4	3.04e+01	54	28	0	999817216	42	6667
2026-01-12 03:39:09.75	321.65	13.52	-34.5	-35.7	29.2	3.04e+01	60	28	0	1001390080	42	6638
2026-01-12 03:39:10.90	321.82	13.43	-34.6	-35.8	29.3	3.04e+01	59	28	0	1003487232	42	6671
2026-01-12 03:39:11.77	321.95	13.36	-34.5	-35.7	29.4	3.04e+01	53	28	0	1005060096	42	6623
2026-01-12 03:39:12.92	322.12	13.26	-34.3	-35.5	29.5	3.04e+01	44	28	0	1007157248	42	6476
2026-01-12 03:39:13.78	322.24	13.19	-34.5	-35.7	29.4	3.04e+01	57	28	0	1008730112	42	6621
2026-01-12 03:39:14.94	322.41	13.09	-34.4	-35.6	29.4	3.04e+01	59	28	0	1011351552	42	6547
2026-01-12 03:39:15.80	322.53	13.02	-34.4	-35.6	29.5	3.04e+01	58	28	0	1012924416	42	6547
2026-01-12 03:39:16.95	322.70	12.93	-34.4	-35.6	29.4	3.04e+01	55	28	0	1015021568	42	6562
2026-01-12 03:39:17.82	322.82	12.85	-34.4	-35.6	29.4	3.04e+01	61	28	0	1016594432	42	6544
2026-01-12 03:39:18.97	322.98	12.76	-34.4	-35.6	29.4	3.04e+01	58	28	0	1018691584	42	6543
2026-01-12 03:39:19.84	323.11	12.69	-34.3	-35.5	29.4	3.04e+01	61	28	0	1020264448	42	6489
2026-01-12 03:39:20.99	323.27	12.59	-34.2	-35.4	29.6	3.04e+01	49	28	0	1022361600	42	6371
2026-01-12 03:39:21.86	323.39	12.52	-34.4	-35.6	29.5	3.04e+01	59	29	0	1023934464	42	6502
2026-01-12 03:39:23.01	323.55	12.43	-34.4	-35.6	29.5	3.04e+01	60	28	0	1026555904	42	6513
2026-01-12 03:39:23.88	323.67	12.36	-34.4	-35.6	29.3	3.04e+01	53	29	0	1028128768	42	6499
2026-01-12 03:39:25.03	323.83	12.26	-34.4	-35.6	29.4	3.04e+01	60	29	0	1030225920	42	6530
2026-01-12 03:39:25.90	323.94	12.19	-34.4	-35.6	29.4	3.04e+01	59	28	0	1031798784	42	6528
2026-01-12 03:39:27.05	324.10	12.10	-34.4	-35.6	29.4	3.04e+01	62	28	0	1033895936	42	6516
2026-01-12 03:39:27.92	324.22	12.03	-34.6	-35.8	29.3	3.04e+01	57	28	0	1035468800	42	6662
2026-01-12 03:39:29.07	324.37	11.94	-34.7	-35.9	29.2	3.04e+01	55	28	0	1037565952	42	6760
2026-01-12 03:39:29.93	324.48	11.87	-34.5	-35.7	29.2	3.04e+01	58	28	0	1039138816	42	6642
2026-01-12 03:39:31.08	324.64	11.77	-34.6	-35.9	29.2	3.04e+01	59	28	0	1041235968	42	6742
2026-01-12 03:39:31.95	324.75	11.70	-34.7	-35.9	29.1	3.04e+01	46	28	0	1042808832	42	6774
2026-01-12 03:39:33.10	324.90	11.61	-34.8	-36.0	29.0	3.04e+01	61	28	0	1045430272	42	6855
2026-01-12 03:39:33.96	325.01	11.54	-34.8	-36.0	29.0	3.04e+01	60	28	0	1047003136	42	6839
2026-01-12 03:39:35.12	325.16	11.45	-34.7	-35.9	29.1	3.04e+01	58	29	0	1049100288	42	6755
2026-01-12 03:39:35.98	325.27	11.38	-34.8	-36.0	28.9	3.04e+01	59	28	0	1050673152	42	6868
2026-01-12 03:39:37.14	325.42	11.29	-34.7	-35.9	29.0	3.04e+01	54	28	0	1052770304	42	6786
2026-01-12 03:39:38.00	325.53	11.22	-34.6	-35.8	29.1	3.04e+01	63	29	0	1054343168	42	6713
2026-01-12 03:39:39.16	325.68	11.13	-34.6	-35.8	29.1	3.04e+01	62	28	0	1056440320	42	6700
2026-01-12 03:39:40.02	325.78	11.06	-34.7	-35.9	29.1	3.04e+01	52	28	0	1058013184	42	6757
2026-01-12 03:39:41.18	325.93	10.97	-34.6	-35.8	29.2	3.04e+01	60	28	0	1060110336	42	6698
2026-01-12 03:39:42.05	326.04	10.90	-34.7	-35.9	29.1	3.04e+01	64	28	0	1062207488	42	6788
2026-01-12 03:39:43.20	326.18	10.81	-34.8	-36.0	28.9	3.04e+01	60	28	0	1064304640	42	6859
2026-01-12 03:39:44.06	326.28	10.75	-34.8	-36.0	28.9	3.04e+01	61	28	0	1065877504	42	6880
2026-01-12 03:39:45.22	326.43	10.66	-34.7	-35.9	29.0	3.04e+01	45	28	0	1067974656	42	6746
2026-01-12 03:39:46.08	326.53	10.59	-34.8	-36.0	28.9	3.04e+01	61	29	0	1069547520	42	6882
2026-01-12 03:39:47.23	326.67	10.50	-34.8	-36.0	29.0	3.04e+01	50	28	0	1071644672	42	6831
2026-01-12 03:39:48.10	326.77	10.43	-34.9	-36.1	28.9	3.04e+01	46	28	0	1073217536	44	6161
2026-01-12 03:39:49.26	326.91	10.34	-34.9	-36.1	28.8	3.04e+01	60	29	0	1075314688	44	6187
2026-01-12 03:39:50.12	327.01	10.28	-34.9	-36.1	28.8	3.04e+01	58	28	0	1076887552	44	6200
2026-01-12 03:39:51.27	327.15	10.19	-35.0	-36.3	28.7	3.04e+01	59	28	0	1079508992	44	6289
2026-01-12 03:39:52.13	327.25	10.12	-34.9	-36.2	28.7	3.04e+01	59	28	0	1081081856	44	6236
2026-01-12 03:39:53.29	327.39	10.03	-35.0	-36.3	28.7	3.04e+01	44	28	0	1083179008	44	6280
2026-01-12 03:39:54.15	327.49	9.97	-35.0	-36.3	28.6	3.04e+01	55	28	0	1084751872	44	6288
2026-01-12 03:39:55.30	327.62	9.88	-35.1	-36.3	28.6	3.04e+01	60	28	0	1086849024	44	6349
2026-01-12 03:39:56.17	327.72	9.81	-35.1	-36.3	28.6	3.04e+01	60	28	0	1088421888	44	6326
2026-01-12 03:39:57.32	327.85	9.73	-35.0	-36.3	28.6	3.04e+01	61	29	0	1090519040	44	6297
2026-01-12 03:39:58.19	327.95	9.66	-35.2	-36.4	28.5	3.04e+01	58	28	0	1092091904	44	6415
2026-01-12 03:39:59.34	328.08	9.57	-35.0	-36.2	28.7	3.04e+01	61	29	0	1094189056	44	6267
2026-01-12 03:40:00.21	328.18	9.51	-35.1	-36.3	28.6	3.04e+01	59	28	0	1096286208	44	6319
2026-01-12 03:40:01.36	328.31	9.42	-35.2	-36.4	28.5	3.04e+01	44	28	0	1098383360	44	6392
2026-01-12 03:40:02.22	328.40	9.36	-35.3	-36.5	28.3	3.04e+01	59	28	0	1099956224	44	6494
2026-01-12 03:40:03.38	328.53	9.27	-35.8	-46.0	3.4	3.04e+01	0	29	104	1101529088	44	19335
2026-01-12 03:40:04.24	328.62	9.21	-35.7	-45.8	3.6	3.04e+01	0	28	104	1101529088	44	18773
2026-01-12 03:40:05.40	328.75	9.12	-35.8	-46.0	3.4	3.04e+01	0	28	104	1101529088	44	19297
2026-01-12 03:40:06.26	328.84	9.06	-35.8	-46.0	3.5	3.04e+01	0	29	104	1101529088	44	19192
2026-01-12 03:40:07.41	328.97	8.97	-35.8	-45.9	3.6	3.04e+01	0	29	104	1101529088	46	17090
2026-01-12 03:40:08.28	329.06	8.91	-38.4	-48.8	3.6	3.04e+01	0	28	104	1101529088	56	13329
2026-01-12 03:40:09.43	329.19	8.82	-46.8	-61.9	3.5	3.04e+01	0	29	104	1101529088	60	48022
2026-01-12 03:40:10.30	329.28	8.76	-43.2	-54.8	3.6	3.04e+01	0	29	104	1101529088	60	21055
2026-01-12 03:40:11.45	329.40	8.67	-39.7	-50.3	3.6	3.04e+01	0	28	104	1101529088	56	15847
2026-01-12 03:40:12.32	329.49	8.61	-37.0	-47.3	3.6	3.04e+01	0	29	104	1101529088	48	17730
2026-01-12 03:40:13.47	329.61	8.52	-36.6	-46.8	3.6	3.04e+01	0	29	104	1101529088	48	16787
2026-01-12 03:40:14.33	329.70	8.46	-36.7	-47.0	3.4	3.04e+01	0	29	104	1101529088	48	17132
2026-01-12 03:40:15.48	329.82	8.38	-36.0	-46.2	3.3	3.04e+01	0	29	104	1101529088	48	15666
2026-01-12 03:40:16.35	329.91	8.31	-36.2	-46.4	3.4	3.04e+01	0	29	104	1101529088	46	17953
2026-01-12 03:40:17.50	330.03	8.23	-37.0	-47.3	3.9	3.04e+01	0	29	104	1101529088	50	15771
2026-01-12 03:40:18.37	330.12	8.17	-46.4	-60.5	3.6	3.04e+01	0	29	104	1101529088	60	40835
2026-01-12 03:40:19.52	330.24	8.08	-40.3	-51.0	4.1	3.04e+01	0	29	104	1101529088	60	13658
2026-01-12 03:40:20.39	330.32	8.02	-41.3	-52.3	4.0	3.04e+01	0	28	104	1101529088	58	17828
2026-01-12 03:40:21.54	330.44	7.94	-39.0	-49.5	3.5	3.04e+01	0	28	104	1101529088	54	16303
2026-01-12 03:40:22.40	330.53	7.88	-39.1	-49.8	3.5	3.04e+01	0	28	104	1101529088	52	18791
2026-01-12 03:40:23.56	330.64	7.79	-39.1	-49.8	3.5	3.04e+01	0	29	104	1101529088	52	18893
2026-01-12 03:40:24.42	330.73	7.73	-40.3	-51.1	3.5	3.04e+01	0	29	104	1101529088	52	21782
2026-01-12 03:40:25.58	330.84	7.65	-42.6	-53.9	3.5	3.04e+01	0	28	104	1101529088	60	19067
2026-01-12 03:40:26.44	330.93	7.59	-36.3	-46.7	3.2	3.04e+01	0	28	104	1101529088	50	14753
2026-01-12 03:40:27.60	331.04	7.51	-46.0	-59.9	3.6	3.04e+01	0	28	104	1101529088	60	37955
2026-01-12 03:40:28.46	331.12	7.45	-39.3	-49.9	3.5	3.04e+01	0	28	104	1101529088	58	13466
2026-01-12 03:40:29.61	331.23	7.36	-38.5	-49.0	3.5	3.04e+01	0	29	104	1101529088	54	15292
2026-01-12 03:40:30.48	331.32	7.30	-37.3	-47.6	3.5	3.04e+01	0	28	104	1101529088	50	16445
2026-01-12 03:40:31.63	331.43	7.22	-37.0	-47.4	3.5	3.04e+01	0	29	104	1101529088	48	17957
2026-01-12 03:40:32.50	331.51	7.16	-36.6	-46.9	3.5	3.04e+01	0	29	104	1101529088	48	16977
2026-01-12 03:40:33.65	331.62	7.08	-36.3	-46.6	3.5	3.04e+01	0	29	104	1101529088	48	16467
2026-01-12 03:40:34.51	331.70	7.02	-36.6	-46.9	3.5	3.04e+01	0	28	104	1101529088	48	17057
2026-01-12 03:40:35.67	331.81	6.94	-40.2	-51.0	3.5	3.04e+01	0	28	104	1101529088	50	24177
2026-01-12 03:40:36.53	331.89	6.88	-46.1	-59.8	3.5	3.04e+01	0	29	104	1101529088	60	37745
2026-01-12 03:40:37.69	332.00	6.80	-36.6	-46.8	3.5	3.04e+01	0	28	104	1101529088	48	16827
2026-01-12 03:40:38.55	332.08	6.74	-39.6	-50.1	3.5	3.04e+01	0	29	104	1101529088	56	15580
2026-01-12 03:40:39.71	332.18	6.66	-37.0	-47.3	3.5	3.04e+01	0	28	104	1101529088	50	15796
2026-01-12 03:40:40.57	332.26	6.60	-36.5	-46.8	3.5	3.04e+01	0	29	104	1101529088	48	16772
2026-01-12 03:40:41.72	332.36	6.52	-36.6	-46.9	3.5	3.04e+01	0	29	104	1101529088	48	16901
2026-01-12 03:40:42.58	332.44	6.46	-36.7	-46.9	3.5	3.04e+01	0	29	104	1101529088	48	16912
2026-01-12 03:40:43.74	332.55	6.38	-38.6	-48.8	3.5	3.04e+01	0	29	104	1101529088	48	21265
2026-01-12 03:40:44.60	332.62	6.32	-36.8	-47.1	3.5	3.04e+01	0	28	104	1101529088	48	17294
2026-01-12 03:40:45.75	332.73	6.25	-46.9	-64.4	3.5	3.04e+01	0	29	104	1101529088	60	64228
2026-01-12 03:40:46.62	332.80	6.19	-39.8	-50.4	3.5	3.04e+01	0	29	104	1101529088	56	15987
2026-01-12 03:40:47.77	332.91	6.11	-40.9	-51.6	3.5	3.04e+01	0	29	104	1101529088	58	16433
2026-01-12 03:40:48.64	332.98	6.05	-40.8	-51.6	3.6	3.04e+01	0	29	104	1101529088	56	18351
2026-01-12 03:40:49.79	333.08	5.97	-39.7	-50.2	3.5	3.04e+01	0	29	104	1101529088	54	17612
2026-01-12 03:40:50.66	333.16	5.91	-39.7	-50.2	3.5	3.04e+01	0	29	104	1101529088	54	17638
