passes_logs/2026/01/12/R4.6S_Anadyr/R4.6S_Anadyr__20260112_205850_NOAA_20_JPSS-1_rec.log

#Pass ID: 20260112_205850_NOAA 20 (JPSS-1)
#Satellite: NOAA 20 (JPSS-1)
#Configuration: NOAA 20
#almurnet v.1.7.20251203
#Start time: 2026-01-12 20:58:53

#Version: 2.2.20231116
#Station: R4.6S_Anadyr
#Location: 177.4865 lon 64.73178 lat
#TLE: 1 43013U 17073A   26011.59429536  .00000082  00000+0  59704-4 0  9990
#TLE: 2 43013  98.7632 312.5697 0001637  44.2118 315.9188 14.19535307422256

#Time	Az	El	Level	Level2	SNR	BER	BlckErr	Temp	State	Recorded	gain1	gain2
2026-01-12 20:58:53.99	80.62	0.18	-48.4	-62.3	3.3	1.54e+00	0	27	0	0	60	46877
2026-01-12 20:58:55.00	80.55	0.23	-48.4	-63.7	3.6	1.51e+00	0	27	104	0	60	55028
2026-01-12 20:58:56.01	80.48	0.29	-48.5	-63.7	3.6	1.51e+00	0	27	104	0	60	55299
2026-01-12 20:58:57.02	80.41	0.34	-48.2	-63.7	3.6	1.51e+00	0	27	104	0	60	55187
2026-01-12 20:58:58.03	80.35	0.39	-48.3	-63.6	3.6	1.51e+00	0	27	104	0	60	54853
2026-01-12 20:58:59.04	80.28	0.44	-48.4	-63.6	3.6	1.51e+00	0	27	104	0	60	54978
2026-01-12 20:59:00.05	80.21	0.49	-48.2	-63.6	3.6	1.51e+00	0	27	104	0	60	54848
2026-01-12 20:59:01.06	80.14	0.55	-48.4	-63.6	3.6	1.51e+00	0	27	104	0	60	54571
2026-01-12 20:59:02.07	80.07	0.60	-48.1	-63.6	3.6	1.51e+00	0	27	104	0	60	54610
2026-01-12 20:59:03.08	80.00	0.65	-45.1	-63.5	3.6	1.51e+00	0	27	104	0	60	53890
2026-01-12 20:59:04.09	79.93	0.70	-47.6	-63.3	3.6	1.51e+00	0	27	104	0	60	52794
2026-01-12 20:59:05.10	79.86	0.75	-47.9	-63.2	3.6	1.51e+00	0	27	104	0	60	52125
2026-01-12 20:59:06.11	79.79	0.81	-45.7	-63.0	3.6	1.51e+00	0	27	104	0	60	51079
2026-01-12 20:59:07.12	79.71	0.86	-46.9	-62.5	3.6	1.51e+00	0	27	104	0	60	48328
2026-01-12 20:59:08.13	79.64	0.91	-46.2	-61.9	3.6	1.51e+00	0	27	104	0	60	45188
2026-01-12 20:59:09.14	79.57	0.96	-46.2	-62.0	3.6	1.51e+00	0	27	104	0	60	45290
2026-01-12 20:59:10.14	79.50	1.02	-46.1	-61.9	3.6	1.51e+00	0	27	104	0	60	44862
2026-01-12 20:59:11.15	79.43	1.07	-46.1	-61.9	3.6	1.51e+00	0	27	104	0	60	44925
2026-01-12 20:59:12.16	79.36	1.12	-46.1	-61.9	3.6	1.51e+00	0	27	104	0	60	44805
2026-01-12 20:59:13.17	79.28	1.18	-46.1	-61.9	3.6	1.51e+00	0	27	104	0	60	44983
2026-01-12 20:59:14.18	79.21	1.23	-46.1	-61.9	3.6	1.51e+00	0	28	104	0	60	44994
2026-01-12 20:59:15.19	79.14	1.28	-46.1	-61.9	3.6	1.51e+00	0	27	104	0	60	44916
2026-01-12 20:59:16.20	79.06	1.33	-46.1	-61.9	3.6	1.51e+00	0	27	104	0	60	44963
2026-01-12 20:59:17.21	78.99	1.39	-46.1	-61.9	3.6	1.51e+00	0	27	104	0	60	44801
2026-01-12 20:59:18.22	78.91	1.44	-46.1	-61.9	3.6	1.51e+00	0	27	104	0	60	44955
2026-01-12 20:59:19.23	78.84	1.49	-46.1	-61.9	3.6	1.51e+00	0	27	104	0	60	44881
2026-01-12 20:59:20.24	78.77	1.55	-46.1	-61.8	3.6	1.51e+00	0	27	104	0	60	44682
2026-01-12 20:59:21.25	78.69	1.60	-46.1	-61.9	3.6	1.51e+00	0	27	104	0	60	44780
2026-01-12 20:59:22.26	78.61	1.65	-46.1	-61.9	3.6	1.51e+00	0	27	104	0	60	44954
2026-01-12 20:59:23.27	78.54	1.71	-46.1	-61.9	3.6	1.51e+00	0	27	104	0	60	45021
2026-01-12 20:59:24.28	78.46	1.76	-46.1	-61.9	3.6	1.51e+00	0	27	104	0	60	44768
2026-01-12 20:59:25.29	78.39	1.81	-46.1	-61.8	3.6	1.51e+00	0	27	104	0	60	44558
2026-01-12 20:59:26.30	78.31	1.87	-46.1	-61.9	3.6	1.51e+00	0	27	104	0	60	44892
2026-01-12 20:59:27.31	78.23	1.92	-46.1	-61.8	3.6	1.51e+00	0	28	104	0	60	44542
2026-01-12 20:59:28.32	78.16	1.97	-46.1	-61.7	3.6	1.51e+00	0	28	104	0	60	43868
2026-01-12 20:59:29.33	78.08	2.03	-46.1	-61.6	3.6	1.51e+00	0	28	104	0	60	43566
2026-01-12 20:59:30.34	78.00	2.08	-46.1	-61.5	3.6	1.51e+00	0	28	104	0	60	42940
2026-01-12 20:59:31.35	77.92	2.13	-46.1	-61.6	3.6	1.51e+00	0	28	104	0	60	43375
2026-01-12 20:59:32.36	77.85	2.19	-46.1	-61.7	3.6	1.51e+00	0	28	104	0	60	43991
2026-01-12 20:59:33.37	77.77	2.24	-46.1	-61.9	3.6	1.51e+00	0	28	104	0	60	44784
2026-01-12 20:59:34.38	77.69	2.30	-46.1	-61.9	3.6	1.51e+00	0	28	104	0	60	45130
2026-01-12 20:59:35.39	77.61	2.35	-46.1	-61.8	3.6	1.51e+00	0	28	104	0	60	44600
2026-01-12 20:59:36.40	77.53	2.40	-46.1	-61.8	3.6	1.51e+00	0	28	104	0	60	44632
2026-01-12 20:59:37.41	77.45	2.46	-46.1	-61.9	3.6	1.51e+00	0	28	104	0	60	44743
2026-01-12 20:59:38.42	77.37	2.51	-46.1	-61.8	3.6	1.51e+00	0	28	104	0	60	44693
2026-01-12 20:59:39.43	77.29	2.57	-46.1	-61.6	3.6	1.51e+00	0	28	104	0	60	43642
2026-01-12 20:59:40.44	77.21	2.62	-46.1	-61.1	3.6	1.51e+00	0	28	104	0	60	41178
2026-01-12 20:59:41.45	77.13	2.68	-46.1	-60.8	3.6	1.51e+00	0	28	104	0	60	39567
2026-01-12 20:59:42.46	77.05	2.73	-46.1	-61.0	3.6	1.51e+00	0	28	104	0	60	40708
2026-01-12 20:59:43.46	76.97	2.78	-46.1	-61.6	3.6	1.51e+00	0	28	104	0	60	43273
2026-01-12 20:59:44.48	76.88	2.84	-46.1	-60.6	3.6	1.51e+00	0	28	104	0	60	38893
2026-01-12 20:59:45.49	76.80	2.89	-45.8	-56.7	4.9	1.03e+00	92	28	104	0	60	24589
2026-01-12 20:59:46.50	76.72	2.95	-45.4	-52.8	7.4	2.74e-01	92	28	0	1048576	60	15809
2026-01-12 20:59:47.51	76.64	3.00	-44.7	-50.2	10.3	3.01e-02	39	28	0	3145728	60	11680
2026-01-12 20:59:48.52	76.55	3.06	-44.2	-48.8	11.7	3.50e-03	92	28	0	5242880	60	9999
2026-01-12 20:59:49.53	76.47	3.11	-44.4	-48.8	11.9	1.58e-04	0	28	0	7340032	60	10003
2026-01-12 20:59:50.54	76.39	3.17	-45.7	-53.3	5.3	1.26e-02	92	28	0	8388608	60	16800
2026-01-12 20:59:51.54	76.30	3.22	-44.7	-50.0	5.7	1.49e+00	0	28	104	9437184	60	11465
2026-01-12 20:59:52.56	76.22	3.28	-42.8	-45.7	15.8	2.33e-03	91	28	104	9437184	60	6971
2026-01-12 20:59:53.57	76.13	3.33	-44.9	-51.4	5.7	0.00e+00	90	28	0	10485760	60	13370
2026-01-12 20:59:54.57	76.05	3.38	-45.0	-52.6	5.4	1.51e+00	0	28	104	10485760	60	15462
2026-01-12 20:59:55.58	75.96	3.44	-42.3	-44.6	16.1	0.00e+00	92	28	104	10485760	58	6927
2026-01-12 20:59:56.59	75.88	3.49	-41.9	-44.1	16.9	0.00e+00	35	28	0	11534336	58	6515
2026-01-12 20:59:57.60	75.79	3.55	-41.9	-44.1	17.0	0.00e+00	92	28	0	13631488	56	7302
2026-01-12 20:59:58.61	75.71	3.60	-41.6	-43.7	17.4	0.00e+00	92	28	0	15728640	56	6990
2026-01-12 20:59:59.62	75.62	3.66	-41.5	-43.6	17.4	0.00e+00	92	28	0	17825792	56	6865
2026-01-12 21:00:00.63	75.53	3.72	-41.6	-43.7	17.5	0.00e+00	90	28	0	18874368	56	6931
2026-01-12 21:00:01.64	75.45	3.77	-41.8	-43.9	17.1	0.00e+00	58	28	0	20971520	56	7145
2026-01-12 21:00:02.65	75.36	3.83	-42.0	-44.1	17.0	0.00e+00	92	28	0	23068672	56	7296
2026-01-12 21:00:03.66	75.27	3.88	-41.5	-43.3	17.8	0.00e+00	6	28	0	25165824	56	6692
2026-01-12 21:00:04.67	75.18	3.94	-41.6	-43.5	17.7	0.00e+00	91	28	0	27262976	56	6837
2026-01-12 21:00:05.68	75.09	3.99	-41.6	-43.5	17.7	0.00e+00	13	28	0	29360128	56	6807
2026-01-12 21:00:06.69	75.00	4.05	-41.5	-43.4	17.7	0.00e+00	92	28	0	30408704	56	6745
2026-01-12 21:00:07.70	74.91	4.10	-41.5	-43.4	17.9	0.00e+00	92	28	0	32505856	56	6736
2026-01-12 21:00:08.70	74.82	4.16	-41.5	-43.3	17.9	0.00e+00	90	28	0	34603008	56	6645
2026-01-12 21:00:09.71	74.73	4.21	-41.3	-43.1	18.2	0.00e+00	91	28	0	36700160	56	6483
2026-01-12 21:00:10.72	74.64	4.27	-41.4	-43.2	18.1	0.00e+00	49	28	0	38797312	56	6561
2026-01-12 21:00:11.73	74.55	4.33	-41.1	-42.7	18.5	0.00e+00	92	28	0	39845888	56	6244
2026-01-12 21:00:12.74	74.46	4.38	-41.1	-42.8	18.4	0.00e+00	0	28	0	41943040	56	6263
2026-01-12 21:00:13.75	74.37	4.44	-41.3	-43.1	18.2	0.00e+00	91	28	0	44040192	56	6492
2026-01-12 21:00:14.76	74.28	4.49	-41.4	-43.2	18.1	0.00e+00	91	28	0	46137344	56	6579
2026-01-12 21:00:15.77	74.19	4.55	-41.5	-43.3	18.0	0.00e+00	92	28	0	48234496	56	6621
2026-01-12 21:00:16.78	74.09	4.60	-41.3	-43.0	18.2	0.00e+00	92	28	0	49283072	56	6462
2026-01-12 21:00:17.79	74.00	4.66	-41.2	-42.9	18.2	0.00e+00	39	28	0	51380224	56	6374
2026-01-12 21:00:18.80	73.91	4.72	-41.3	-43.1	18.1	0.00e+00	92	28	0	53477376	56	6501
2026-01-12 21:00:19.81	73.81	4.77	-41.2	-42.9	18.4	0.00e+00	8	28	0	55574528	56	6390
2026-01-12 21:00:20.82	73.72	4.83	-41.2	-43.0	18.3	0.00e+00	91	28	0	57671680	56	6433
2026-01-12 21:00:21.83	73.62	4.89	-41.4	-43.2	18.2	0.00e+00	41	28	0	58720256	56	6560
2026-01-12 21:00:22.84	73.53	4.94	-41.4	-43.2	18.2	0.00e+00	92	28	0	60817408	56	6542
2026-01-12 21:00:23.85	73.43	5.00	-41.2	-42.9	18.3	0.00e+00	91	28	0	62914560	56	6386
2026-01-12 21:00:24.86	73.34	5.05	-41.4	-43.2	18.1	0.00e+00	53	28	0	65011712	56	6593
2026-01-12 21:00:25.87	73.24	5.11	-41.5	-43.2	18.1	0.00e+00	92	28	0	67108864	56	6601
2026-01-12 21:00:26.88	73.15	5.17	-41.3	-43.0	18.3	0.00e+00	0	28	0	68157440	56	6433
2026-01-12 21:00:27.89	73.05	5.22	-41.3	-43.0	18.4	0.00e+00	92	28	0	70254592	56	6429
2026-01-12 21:00:28.90	72.95	5.28	-41.4	-43.2	18.2	0.00e+00	2	28	0	72351744	56	6550
2026-01-12 21:00:29.91	72.85	5.34	-41.3	-43.1	18.2	0.00e+00	92	28	0	74448896	56	6521
2026-01-12 21:00:30.92	72.76	5.39	-41.3	-43.1	18.3	0.00e+00	92	28	0	76546048	56	6477
2026-01-12 21:00:31.93	72.66	5.45	-41.3	-43.1	18.3	0.00e+00	91	28	0	77594624	56	6485
2026-01-12 21:00:32.94	72.56	5.51	-41.2	-42.9	18.5	0.00e+00	92	28	0	79691776	56	6345
2026-01-12 21:00:33.94	72.46	5.56	-41.2	-43.0	18.5	0.00e+00	44	28	0	81788928	56	6401
2026-01-12 21:00:34.96	72.36	5.62	-41.3	-43.1	18.3	0.00e+00	90	28	0	83886080	56	6473
2026-01-12 21:00:35.97	72.26	5.68	-41.3	-43.1	18.5	0.00e+00	54	28	0	85983232	56	6468
2026-01-12 21:00:36.97	72.16	5.73	-41.2	-43.0	18.5	0.00e+00	92	28	0	87031808	56	6421
2026-01-12 21:00:37.98	72.06	5.79	-41.3	-43.0	18.5	0.00e+00	92	28	0	89128960	56	6435
2026-01-12 21:00:38.99	71.96	5.85	-41.4	-43.1	18.4	0.00e+00	90	28	0	91226112	56	6506
2026-01-12 21:00:40.00	71.86	5.90	-41.3	-43.1	18.4	0.00e+00	92	28	0	93323264	56	6488
2026-01-12 21:00:41.01	71.76	5.96	-41.2	-43.0	18.5	0.00e+00	34	28	0	95420416	56	6430
2026-01-12 21:00:42.02	71.65	6.02	-41.2	-43.0	18.4	0.00e+00	92	28	0	97517568	56	6449
2026-01-12 21:00:43.03	71.55	6.08	-41.2	-43.0	18.4	0.00e+00	0	28	0	98566144	56	6458
2026-01-12 21:00:44.04	71.45	6.13	-41.2	-43.0	18.5	0.00e+00	92	28	0	100663296	56	6435
2026-01-12 21:00:45.05	71.34	6.19	-41.2	-42.9	18.7	0.00e+00	91	28	0	102760448	56	6320
2026-01-12 21:00:46.06	71.24	6.25	-41.2	-42.9	18.6	0.00e+00	92	28	0	104857600	56	6318
2026-01-12 21:00:47.07	71.14	6.30	-41.2	-42.9	18.6	0.00e+00	90	28	0	106954752	56	6339
2026-01-12 21:00:48.08	71.03	6.36	-41.1	-42.7	18.8	0.00e+00	92	28	0	108003328	56	6244
2026-01-12 21:00:49.08	70.93	6.42	-41.1	-42.7	18.8	0.00e+00	92	28	0	110100480	56	6204
2026-01-12 21:00:50.09	70.82	6.48	-41.1	-42.7	18.8	0.00e+00	4	28	0	112197632	56	6200
2026-01-12 21:00:51.10	70.71	6.53	-41.2	-42.8	18.7	0.00e+00	92	28	0	114294784	56	6279
2026-01-12 21:00:52.11	70.61	6.59	-41.2	-42.9	18.6	0.00e+00	44	28	0	116391936	56	6336
2026-01-12 21:00:53.12	70.50	6.65	-41.1	-42.8	18.7	0.00e+00	92	28	0	117440512	56	6253
2026-01-12 21:00:54.13	70.39	6.71	-41.1	-42.8	18.8	0.00e+00	92	28	0	119537664	56	6309
2026-01-12 21:00:55.14	70.29	6.76	-41.0	-42.6	18.9	0.00e+00	91	28	0	121634816	56	6162
2026-01-12 21:00:56.15	70.18	6.82	-41.2	-42.8	18.8	0.00e+00	91	28	0	123731968	56	6291
2026-01-12 21:00:57.16	70.07	6.88	-41.0	-42.6	18.9	0.00e+00	44	28	0	125829120	56	6164
2026-01-12 21:00:58.17	69.96	6.94	-41.1	-42.7	18.8	0.00e+00	91	28	0	126877696	56	6186
2026-01-12 21:00:59.18	69.85	6.99	-40.9	-42.5	19.1	0.00e+00	6	28	0	128974848	56	6044
2026-01-12 21:01:00.19	69.74	7.05	-40.9	-42.4	19.2	0.00e+00	92	28	0	131072000	56	5982
2026-01-12 21:01:01.20	69.63	7.11	-40.8	-42.3	19.2	0.00e+00	92	28	0	133169152	56	5958
2026-01-12 21:01:02.21	69.52	7.17	-40.8	-42.4	19.2	0.00e+00	92	28	0	135266304	56	5979
2026-01-12 21:01:03.21	69.41	7.22	-40.9	-42.4	19.2	0.00e+00	90	28	0	136314880	56	5999
2026-01-12 21:01:04.23	69.29	7.28	-40.8	-42.3	19.3	0.00e+00	42	28	0	138412032	56	5961
2026-01-12 21:01:05.24	69.18	7.34	-40.6	-42.1	19.4	0.00e+00	92	28	0	140509184	54	6520
2026-01-12 21:01:06.24	69.07	7.40	-40.5	-42.0	19.6	0.00e+00	0	28	0	142606336	54	6397
2026-01-12 21:01:07.25	68.96	7.46	-40.3	-41.7	19.8	0.00e+00	92	28	0	144703488	54	6185
2026-01-12 21:01:08.26	68.84	7.51	-40.3	-41.7	19.7	0.00e+00	82	28	0	145752064	54	6240
2026-01-12 21:01:09.27	68.73	7.57	-40.2	-41.6	20.0	0.00e+00	92	28	0	147849216	54	6136
2026-01-12 21:01:10.28	68.61	7.63	-40.2	-41.6	19.9	0.00e+00	92	28	0	149946368	54	6159
2026-01-12 21:01:11.29	68.50	7.69	-40.2	-41.5	20.0	0.00e+00	0	28	0	152043520	54	6079
2026-01-12 21:01:12.30	68.38	7.74	-40.2	-41.5	20.1	0.00e+00	92	28	0	154140672	54	6086
2026-01-12 21:01:13.31	68.27	7.80	-40.1	-41.4	20.1	0.00e+00	2	28	0	155189248	54	6025
2026-01-12 21:01:14.32	68.15	7.86	-40.1	-41.5	20.1	0.00e+00	91	28	0	157286400	54	6037
2026-01-12 21:01:15.33	68.03	7.92	-40.0	-41.4	20.1	0.00e+00	0	28	0	159383552	54	5987
2026-01-12 21:01:16.34	67.92	7.98	-40.1	-41.5	19.9	0.00e+00	91	28	0	161480704	54	6088
2026-01-12 21:01:17.35	67.80	8.03	-40.0	-41.3	20.2	0.00e+00	92	28	0	163577856	54	5932
2026-01-12 21:01:18.36	67.68	8.09	-40.1	-41.5	20.1	0.00e+00	92	28	0	165675008	54	6042
2026-01-12 21:01:19.37	67.56	8.15	-40.0	-41.4	20.2	0.00e+00	92	28	0	166723584	54	5995
2026-01-12 21:01:20.38	67.44	8.21	-40.1	-41.5	19.8	0.00e+00	51	28	0	168820736	54	6068
2026-01-12 21:01:21.39	67.32	8.27	-40.1	-41.4	20.1	0.00e+00	92	28	0	170917888	54	6022
2026-01-12 21:01:22.40	67.20	8.33	-40.2	-41.5	19.9	0.00e+00	0	28	0	173015040	54	6071
2026-01-12 21:01:23.41	67.08	8.38	-40.2	-41.5	20.1	0.00e+00	92	28	0	175112192	54	6091
2026-01-12 21:01:24.42	66.96	8.44	-40.0	-41.4	20.2	0.00e+00	92	28	0	176160768	54	5968
2026-01-12 21:01:25.43	66.84	8.50	-39.9	-41.2	20.4	0.00e+00	92	28	0	178257920	54	5872
2026-01-12 21:01:26.44	66.71	8.56	-39.9	-41.3	20.3	0.00e+00	92	28	0	180355072	54	5907
2026-01-12 21:01:27.45	66.59	8.62	-39.8	-41.1	20.5	0.00e+00	10	28	0	182452224	52	6477
2026-01-12 21:01:28.46	66.47	8.67	-39.9	-41.2	20.4	0.00e+00	91	28	0	183500800	52	6602
2026-01-12 21:01:29.47	66.34	8.73	-39.9	-41.1	20.6	0.00e+00	12	28	0	185597952	52	6538
2026-01-12 21:01:30.47	66.22	8.79	-39.8	-41.1	20.5	0.00e+00	92	28	0	187695104	52	6488
2026-01-12 21:01:31.48	66.10	8.85	-39.6	-40.8	20.8	0.00e+00	0	28	0	189792256	52	6281
2026-01-12 21:01:32.49	65.97	8.91	-39.7	-40.9	20.7	0.00e+00	92	28	0	191889408	52	6371
2026-01-12 21:01:33.50	65.85	8.96	-39.6	-40.9	20.7	0.00e+00	92	28	0	193986560	52	6343
2026-01-12 21:01:34.51	65.72	9.02	-39.6	-40.8	20.8	0.00e+00	43	28	0	195035136	52	6275
2026-01-12 21:01:35.51	65.59	9.08	-39.7	-41.0	20.7	0.00e+00	92	28	0	197132288	52	6392
2026-01-12 21:01:36.52	65.47	9.14	-39.8	-41.1	20.6	0.00e+00	0	28	0	199229440	52	6484
2026-01-12 21:01:37.53	65.34	9.20	-39.9	-41.2	20.5	0.00e+00	92	28	0	201326592	52	6564
2026-01-12 21:01:38.55	65.21	9.26	-39.9	-41.2	20.5	0.00e+00	0	28	0	203423744	52	6587
2026-01-12 21:01:39.55	65.08	9.31	-39.9	-41.2	20.5	0.00e+00	92	28	0	204472320	52	6546
2026-01-12 21:01:40.56	64.95	9.37	-39.9	-41.2	20.5	0.00e+00	92	28	0	206569472	52	6615
2026-01-12 21:01:41.57	64.82	9.43	-40.0	-41.3	20.3	0.00e+00	42	28	0	208666624	52	6672
2026-01-12 21:01:42.58	64.69	9.49	-40.1	-41.4	20.3	0.00e+00	92	28	0	210763776	52	6749
2026-01-12 21:01:43.59	64.56	9.55	-40.1	-41.5	20.2	0.00e+00	35	28	0	212860928	52	6827
2026-01-12 21:01:44.60	64.43	9.60	-40.0	-41.3	20.3	0.00e+00	92	28	0	213909504	52	6676
2026-01-12 21:01:45.61	64.29	9.66	-40.0	-41.3	20.5	0.00e+00	0	28	0	216006656	52	6659
2026-01-12 21:01:46.62	64.16	9.72	-40.0	-41.3	20.5	0.00e+00	90	28	0	218103808	52	6636
2026-01-12 21:01:47.63	64.03	9.78	-39.8	-41.1	20.7	0.00e+00	89	28	0	220200960	52	6479
2026-01-12 21:01:48.64	63.89	9.84	-39.8	-41.1	20.6	0.00e+00	84	28	0	222298112	52	6513
2026-01-12 21:01:49.65	63.76	9.90	-39.8	-41.1	20.6	0.00e+00	91	28	0	223346688	52	6514
2026-01-12 21:01:50.66	63.63	9.95	-39.7	-40.9	20.8	0.00e+00	37	28	0	225443840	52	6373
2026-01-12 21:01:51.67	63.49	10.01	-39.7	-41.0	20.7	0.00e+00	90	28	0	227540992	52	6407
2026-01-12 21:01:52.68	63.35	10.07	-39.7	-40.9	20.7	0.00e+00	6	28	0	229638144	52	6361
2026-01-12 21:01:53.69	63.22	10.13	-39.8	-41.0	20.7	0.00e+00	90	28	0	231735296	52	6436
2026-01-12 21:01:54.70	63.08	10.19	-39.7	-41.0	20.7	0.00e+00	0	28	0	232783872	52	6391
2026-01-12 21:01:55.71	62.94	10.24	-39.6	-40.9	20.9	0.00e+00	0	28	0	234881024	52	6331
2026-01-12 21:01:56.72	62.80	10.30	-39.6	-40.8	20.9	0.00e+00	91	28	0	236978176	52	6312
2026-01-12 21:01:57.73	62.67	10.36	-39.6	-40.8	21.0	0.00e+00	51	28	0	239075328	52	6274
2026-01-12 21:01:58.74	62.53	10.42	-39.6	-40.8	21.0	0.00e+00	92	28	0	241172480	52	6249
2026-01-12 21:01:59.75	62.39	10.48	-39.6	-40.8	20.9	0.00e+00	45	28	0	242221056	52	6259
2026-01-12 21:02:00.76	62.25	10.53	-39.5	-40.7	21.0	0.00e+00	92	28	0	244318208	52	6180
2026-01-12 21:02:01.77	62.10	10.59	-39.6	-40.8	21.0	0.00e+00	46	28	0	246415360	52	6262
2026-01-12 21:02:02.78	61.96	10.65	-39.5	-40.7	20.9	0.00e+00	92	28	0	248512512	52	6216
2026-01-12 21:02:03.79	61.82	10.71	-39.4	-40.7	21.1	0.00e+00	92	28	0	250609664	52	6183
2026-01-12 21:02:04.80	61.68	10.76	-39.5	-40.7	21.1	0.00e+00	46	28	0	251658240	52	6207
2026-01-12 21:02:05.80	61.54	10.82	-39.4	-40.7	21.1	0.00e+00	92	28	0	253755392	52	6182
2026-01-12 21:02:06.81	61.39	10.88	-39.5	-40.7	21.1	0.00e+00	32	28	0	255852544	52	6212
2026-01-12 21:02:07.82	61.25	10.94	-39.4	-40.6	21.2	0.00e+00	92	28	0	257949696	52	6169
2026-01-12 21:02:08.83	61.10	10.99	-39.5	-40.7	21.1	0.00e+00	0	28	0	260046848	52	6222
2026-01-12 21:02:09.84	60.96	11.05	-39.6	-40.8	21.0	0.00e+00	92	28	0	262144000	52	6296
2026-01-12 21:02:10.85	60.81	11.11	-39.7	-40.9	21.0	0.00e+00	92	28	0	263192576	52	6347
2026-01-12 21:02:11.86	60.66	11.17	-39.7	-40.9	20.9	0.00e+00	2	28	0	265289728	52	6384
2026-01-12 21:02:12.87	60.52	11.22	-39.8	-41.0	20.9	0.00e+00	92	28	0	267386880	52	6419
2026-01-12 21:02:13.88	60.37	11.28	-39.9	-41.2	20.7	0.00e+00	0	28	0	269484032	52	6553
2026-01-12 21:02:14.89	60.22	11.34	-39.7	-40.9	21.0	0.00e+00	92	28	0	271581184	52	6338
2026-01-12 21:02:15.90	60.07	11.40	-39.8	-41.0	20.8	0.00e+00	2	28	0	272629760	52	6464
2026-01-12 21:02:16.91	59.92	11.45	-39.6	-40.8	21.1	0.00e+00	92	28	0	274726912	52	6246
2026-01-12 21:02:17.92	59.77	11.51	-39.5	-40.8	21.1	0.00e+00	83	28	0	276824064	52	6248
2026-01-12 21:02:18.93	59.62	11.57	-39.5	-40.7	21.2	0.00e+00	4	28	0	278921216	52	6188
2026-01-12 21:02:19.94	59.47	11.62	-39.5	-40.7	21.2	0.00e+00	92	28	0	281018368	52	6198
2026-01-12 21:02:20.95	59.32	11.68	-39.5	-40.7	21.2	0.00e+00	0	28	0	282066944	52	6188
2026-01-12 21:02:21.95	59.16	11.74	-39.4	-40.7	21.2	0.00e+00	92	28	0	284164096	52	6178
2026-01-12 21:02:22.96	59.01	11.79	-39.5	-40.7	21.1	0.00e+00	50	28	0	286261248	52	6228
2026-01-12 21:02:23.97	58.86	11.85	-39.6	-40.8	21.1	0.00e+00	92	28	0	288358400	52	6315
2026-01-12 21:02:24.98	58.70	11.91	-39.6	-40.8	21.0	0.00e+00	0	28	0	290455552	52	6265
2026-01-12 21:02:25.99	58.55	11.96	-39.7	-40.9	21.0	0.00e+00	50	28	0	291504128	52	6333
2026-01-12 21:02:27.00	58.39	12.02	-39.8	-41.0	20.8	0.00e+00	90	28	0	293601280	52	6419
2026-01-12 21:02:28.01	58.23	12.08	-39.8	-41.1	20.7	0.00e+00	32	28	0	295698432	52	6476
2026-01-12 21:02:29.02	58.08	12.13	-39.8	-41.0	20.9	0.00e+00	92	28	0	297795584	52	6448
2026-01-12 21:02:30.03	57.92	12.19	-39.7	-40.9	20.9	0.00e+00	0	28	0	299892736	52	6384
2026-01-12 21:02:31.04	57.76	12.24	-39.8	-41.0	20.9	0.00e+00	92	28	0	300941312	52	6432
2026-01-12 21:02:32.05	57.60	12.30	-39.6	-40.8	21.1	0.00e+00	2	28	0	303038464	52	6304
2026-01-12 21:02:33.06	57.44	12.36	-39.5	-40.7	21.2	0.00e+00	92	28	0	305135616	52	6200
2026-01-12 21:02:34.07	57.28	12.41	-39.5	-40.6	21.3	0.00e+00	91	28	0	307232768	52	6152
2026-01-12 21:02:35.08	57.12	12.47	-39.4	-40.5	21.4	0.00e+00	0	28	0	309329920	52	6101
2026-01-12 21:02:36.09	56.96	12.52	-39.4	-40.5	21.4	0.00e+00	92	28	0	310378496	52	6084
2026-01-12 21:02:37.10	56.80	12.58	-39.3	-40.4	21.5	0.00e+00	0	28	0	312475648	52	6018
2026-01-12 21:02:38.10	56.64	12.63	-39.1	-40.3	21.6	0.00e+00	92	28	0	314572800	52	5904
2026-01-12 21:02:39.11	56.48	12.69	-39.2	-40.3	21.6	0.00e+00	0	28	0	316669952	52	5908
2026-01-12 21:02:40.12	56.31	12.74	-39.1	-40.2	21.6	0.00e+00	92	28	0	318767104	52	5891
2026-01-12 21:02:41.13	56.15	12.80	-39.1	-40.2	21.7	0.00e+00	52	28	0	319815680	52	5847
2026-01-12 21:02:42.14	55.98	12.85	-39.0	-40.1	21.8	0.00e+00	0	28	0	321912832	52	5762
2026-01-12 21:02:43.15	55.82	12.91	-38.8	-39.9	21.9	0.00e+00	92	28	0	324009984	52	5659
2026-01-12 21:02:44.16	55.65	12.96	-38.7	-39.7	22.1	0.00e+00	52	28	0	326107136	50	6223
2026-01-12 21:02:45.17	55.48	13.02	-38.6	-39.7	22.1	0.00e+00	92	28	0	328204288	50	6187
2026-01-12 21:02:46.18	55.32	13.07	-38.7	-39.8	22.0	0.00e+00	29	28	0	330301440	50	6253
2026-01-12 21:02:47.19	55.15	13.13	-38.6	-39.7	22.2	0.00e+00	92	28	0	331350016	50	6179
2026-01-12 21:02:48.20	54.98	13.18	-38.6	-39.6	22.2	0.00e+00	18	28	0	333447168	50	6167
2026-01-12 21:02:49.21	54.81	13.24	-38.6	-39.6	22.3	0.00e+00	36	28	0	335544320	50	6133
2026-01-12 21:02:50.22	54.64	13.29	-38.5	-39.5	22.3	0.00e+00	91	28	0	337641472	50	6064
2026-01-12 21:02:51.23	54.47	13.34	-38.3	-39.3	22.6	0.00e+00	0	28	0	339738624	50	5927
2026-01-12 21:02:52.24	54.30	13.40	-38.2	-39.2	22.6	0.00e+00	92	28	0	340787200	50	5874
2026-01-12 21:02:53.25	54.13	13.45	-38.2	-39.2	22.6	0.00e+00	0	28	0	342884352	50	5879
2026-01-12 21:02:54.25	53.96	13.51	-38.3	-39.3	22.5	0.00e+00	91	28	0	344981504	50	5955
2026-01-12 21:02:55.26	53.78	13.56	-38.3	-39.3	22.6	0.00e+00	0	28	0	347078656	50	5958
2026-01-12 21:02:56.27	53.61	13.61	-38.4	-39.4	22.5	0.00e+00	92	28	0	349175808	50	6027
2026-01-12 21:02:57.28	53.43	13.66	-38.2	-39.2	22.7	0.00e+00	92	28	0	350224384	50	5842
2026-01-12 21:02:58.29	53.26	13.72	-38.0	-39.0	22.9	0.00e+00	0	28	0	352321536	50	5701
2026-01-12 21:02:59.30	53.08	13.77	-38.1	-39.0	22.8	0.00e+00	91	28	0	354418688	50	5761
2026-01-12 21:03:00.31	52.91	13.82	-38.1	-39.1	22.7	0.00e+00	0	28	0	356515840	50	5784
2026-01-12 21:03:01.32	52.73	13.88	-38.0	-39.0	22.7	0.00e+00	91	28	0	358612992	50	5756
2026-01-12 21:03:02.33	52.55	13.93	-38.0	-39.0	22.8	0.00e+00	50	28	0	359661568	50	5727
2026-01-12 21:03:03.34	52.37	13.98	-38.1	-39.1	22.8	0.00e+00	92	28	0	361758720	50	5806
2026-01-12 21:03:04.34	52.20	14.03	-38.1	-39.1	22.8	0.00e+00	0	28	0	363855872	50	5795
2026-01-12 21:03:05.35	52.02	14.08	-37.8	-38.8	23.1	0.00e+00	0	28	0	365953024	50	5576
2026-01-12 21:03:06.36	51.84	14.13	-37.6	-38.5	23.2	0.00e+00	92	28	0	368050176	48	6101
2026-01-12 21:03:07.37	51.66	14.19	-37.5	-38.5	23.3	0.00e+00	0	28	0	369098752	48	6058
2026-01-12 21:03:08.38	51.48	14.24	-37.6	-38.5	23.2	0.00e+00	92	28	0	371195904	48	6066
2026-01-12 21:03:09.39	51.29	14.29	-37.5	-38.4	23.4	0.00e+00	50	28	0	373293056	48	5978
2026-01-12 21:03:10.40	51.11	14.34	-37.2	-38.1	23.6	0.00e+00	92	28	0	375390208	48	5823
2026-01-12 21:03:11.41	50.93	14.39	-37.3	-38.2	23.5	0.00e+00	43	28	0	377487360	48	5888
2026-01-12 21:03:12.42	50.74	14.44	-37.3	-38.2	23.6	0.00e+00	21	28	0	378535936	48	5868
2026-01-12 21:03:13.43	50.56	14.49	-37.4	-38.3	23.4	0.00e+00	90	27	0	380633088	48	5960
2026-01-12 21:03:14.44	50.37	14.54	-37.4	-38.4	23.4	0.00e+00	0	28	0	382730240	48	5975
2026-01-12 21:03:15.45	50.19	14.59	-37.2	-38.1	23.6	0.00e+00	92	28	0	384827392	48	5777
2026-01-12 21:03:16.46	50.00	14.64	-37.1	-38.0	23.6	0.00e+00	0	28	0	386924544	48	5707
2026-01-12 21:03:17.47	49.81	14.69	-37.2	-38.1	23.7	0.00e+00	92	28	0	387973120	48	5789
2026-01-12 21:03:18.48	49.63	14.74	-37.2	-38.1	23.4	0.00e+00	7	28	0	390070272	48	5791
2026-01-12 21:03:19.49	49.44	14.79	-37.3	-38.2	23.5	0.00e+00	90	28	0	392167424	48	5832
2026-01-12 21:03:20.50	49.25	14.84	-37.3	-38.2	23.5	0.00e+00	85	28	0	394264576	48	5872
2026-01-12 21:03:21.51	49.06	14.89	-37.1	-38.0	23.7	0.00e+00	5	28	0	396361728	48	5727
2026-01-12 21:03:22.52	48.87	14.94	-37.1	-38.0	23.7	0.00e+00	92	27	0	398458880	48	5732
2026-01-12 21:03:23.53	48.68	14.98	-37.1	-38.0	23.6	0.00e+00	0	28	0	399507456	48	5740
2026-01-12 21:03:24.54	48.49	15.03	-37.3	-38.2	23.5	0.00e+00	92	28	0	401604608	48	5891
2026-01-12 21:03:25.55	48.29	15.08	-37.3	-38.3	23.5	0.00e+00	50	28	0	403701760	48	5901
2026-01-12 21:03:26.56	48.10	15.13	-37.4	-38.3	23.4	0.00e+00	92	28	0	405798912	48	5936
2026-01-12 21:03:27.56	47.91	15.17	-37.4	-38.3	23.5	0.00e+00	0	28	0	407896064	48	5922
2026-01-12 21:03:28.57	47.72	15.22	-37.6	-38.5	23.3	0.00e+00	50	28	0	408944640	48	6071
2026-01-12 21:03:29.58	47.52	15.27	-37.6	-38.5	23.2	0.00e+00	92	28	0	411041792	48	6063
2026-01-12 21:03:30.59	47.33	15.31	-37.6	-38.5	23.2	0.00e+00	50	28	0	413138944	48	6099
2026-01-12 21:03:31.60	47.13	15.36	-37.7	-38.6	23.2	0.00e+00	92	28	0	415236096	48	6169
2026-01-12 21:03:32.61	46.93	15.41	-37.7	-38.7	23.1	0.00e+00	7	28	0	417333248	48	6179
2026-01-12 21:03:33.62	46.74	15.45	-37.7	-38.6	23.2	0.00e+00	92	28	0	418381824	48	6155
2026-01-12 21:03:34.63	46.54	15.50	-37.6	-38.5	23.2	0.00e+00	39	28	0	420478976	48	6088
2026-01-12 21:03:35.64	46.34	15.54	-37.4	-38.4	23.4	0.00e+00	7	28	0	422576128	48	5973
2026-01-12 21:03:36.65	46.14	15.59	-37.4	-38.3	23.5	0.00e+00	92	28	0	424673280	48	5955
2026-01-12 21:03:37.66	45.94	15.63	-37.4	-38.4	23.4	0.00e+00	0	28	0	426770432	48	5966
2026-01-12 21:03:38.67	45.74	15.68	-37.4	-38.3	23.5	0.00e+00	92	28	0	427819008	48	5922
2026-01-12 21:03:39.68	45.54	15.72	-37.4	-38.4	23.5	0.00e+00	0	28	0	429916160	48	5976
2026-01-12 21:03:40.69	45.34	15.77	-37.4	-38.3	23.4	0.00e+00	92	28	0	432013312	48	5950
2026-01-12 21:03:41.69	45.14	15.81	-37.5	-38.4	23.3	0.00e+00	4	28	0	434110464	48	6033
2026-01-12 21:03:42.71	44.94	15.85	-37.5	-38.4	23.4	0.00e+00	92	28	0	436207616	48	6027
2026-01-12 21:03:43.71	44.74	15.90	-37.5	-38.4	23.3	0.00e+00	90	28	0	437256192	48	6025
2026-01-12 21:03:44.73	44.53	15.94	-37.2	-38.1	23.6	0.00e+00	53	28	0	439353344	48	5807
2026-01-12 21:03:45.73	44.33	15.98	-37.3	-38.2	23.6	0.00e+00	90	28	0	441450496	48	5878
2026-01-12 21:03:46.74	44.12	16.02	-37.2	-38.1	23.6	0.00e+00	49	28	0	443547648	48	5788
2026-01-12 21:03:47.75	43.92	16.07	-37.2	-38.1	23.6	0.00e+00	92	28	0	445644800	48	5791
2026-01-12 21:03:48.76	43.71	16.11	-37.3	-38.2	23.8	0.00e+00	31	28	0	446693376	48	5882
2026-01-12 21:03:49.77	43.51	16.15	-37.1	-38.0	23.7	0.00e+00	92	28	0	448790528	48	5731
2026-01-12 21:03:50.78	43.30	16.19	-37.2	-38.1	23.8	0.00e+00	0	28	0	450887680	48	5813
2026-01-12 21:03:51.79	43.09	16.23	-37.1	-38.0	23.6	0.00e+00	32	28	0	452984832	48	5731
2026-01-12 21:03:52.80	42.88	16.27	-37.4	-38.3	23.6	0.00e+00	92	28	0	455081984	48	5924
2026-01-12 21:03:53.81	42.67	16.31	-37.5	-38.4	23.4	0.00e+00	28	28	0	456130560	48	6032
2026-01-12 21:03:54.82	42.46	16.35	-37.5	-38.5	23.4	0.00e+00	92	28	0	458227712	48	6042
2026-01-12 21:03:55.83	42.26	16.39	-37.6	-38.6	23.2	0.00e+00	2	28	0	460324864	48	6135
2026-01-12 21:03:56.84	42.04	16.43	-37.6	-38.6	23.3	0.00e+00	92	28	0	462422016	48	6126
2026-01-12 21:03:57.85	41.83	16.47	-37.4	-38.3	22.8	0.00e+00	28	28	0	464519168	48	5921
2026-01-12 21:03:58.86	41.62	16.51	-37.2	-38.1	23.5	0.00e+00	0	28	0	466616320	48	5784
2026-01-12 21:03:59.87	41.41	16.54	-37.0	-37.9	23.9	0.00e+00	92	28	0	467664896	48	5656
2026-01-12 21:04:00.88	41.20	16.58	-37.1	-38.0	23.7	0.00e+00	0	28	0	469762048	48	5748
2026-01-12 21:04:01.89	40.98	16.62	-37.0	-37.9	23.9	0.00e+00	92	28	0	471859200	48	5649
2026-01-12 21:04:02.90	40.77	16.66	-36.7	-37.6	24.2	0.00e+00	0	28	0	473956352	46	6118
2026-01-12 21:04:03.91	40.56	16.69	-36.8	-37.6	24.1	0.00e+00	92	28	0	476053504	46	6172
2026-01-12 21:04:04.92	40.34	16.73	-36.7	-37.5	24.1	0.00e+00	39	28	0	477102080	46	6084
2026-01-12 21:04:05.93	40.13	16.76	-36.7	-37.6	24.1	0.00e+00	53	28	0	479199232	46	6140
2026-01-12 21:04:06.94	39.91	16.80	-36.9	-37.7	24.0	0.00e+00	2	28	0	481296384	46	6228
2026-01-12 21:04:07.95	39.69	16.84	-36.8	-37.7	24.1	0.00e+00	0	28	0	483393536	46	6186
2026-01-12 21:04:08.96	39.48	16.87	-36.7	-37.5	24.2	0.00e+00	92	28	0	485490688	46	6083
2026-01-12 21:04:09.97	39.26	16.91	-36.8	-37.7	24.0	0.00e+00	31	27	0	486539264	46	6195
2026-01-12 21:04:10.98	39.04	16.94	-36.9	-37.8	24.1	0.00e+00	4	28	0	488636416	46	6246
2026-01-12 21:04:11.99	38.82	16.97	-37.1	-38.0	23.8	0.00e+00	52	27	0	490733568	46	6412
2026-01-12 21:04:13.00	38.61	17.01	-37.0	-37.9	23.8	0.00e+00	30	27	0	492830720	46	6368
2026-01-12 21:04:14.01	38.39	17.04	-37.1	-38.0	23.8	0.00e+00	14	28	0	494927872	46	6424
2026-01-12 21:04:15.02	38.17	17.07	-37.1	-37.9	23.8	0.00e+00	2	28	0	495976448	46	6383
2026-01-12 21:04:16.03	37.95	17.10	-37.0	-37.8	23.9	0.00e+00	92	28	0	498073600	46	6316
2026-01-12 21:04:17.03	37.73	17.14	-37.0	-37.8	23.9	0.00e+00	0	27	0	500170752	46	6316
2026-01-12 21:04:18.04	37.51	17.17	-37.0	-37.8	24.0	0.00e+00	91	27	0	502267904	46	6303
2026-01-12 21:04:19.05	37.28	17.20	-37.1	-37.9	23.8	0.00e+00	0	27	0	504365056	46	6383
2026-01-12 21:04:20.06	37.06	17.23	-37.0	-37.9	23.9	0.00e+00	2	28	0	505413632	46	6348
2026-01-12 21:04:21.07	36.84	17.26	-37.0	-37.9	23.9	0.00e+00	2	28	0	507510784	46	6347
2026-01-12 21:04:22.08	36.62	17.29	-36.8	-37.7	23.8	0.00e+00	0	28	0	509607936	46	6180
2026-01-12 21:04:23.09	36.39	17.32	-36.8	-37.6	24.1	0.00e+00	92	28	0	511705088	46	6147
2026-01-12 21:04:24.10	36.17	17.35	-36.9	-37.8	24.0	0.00e+00	0	28	0	513802240	46	6286
2026-01-12 21:04:25.11	35.95	17.38	-37.0	-37.9	23.8	0.00e+00	92	28	0	514850816	46	6370
2026-01-12 21:04:26.12	35.72	17.40	-37.1	-38.0	23.8	0.00e+00	2	28	0	516947968	46	6418
2026-01-12 21:04:27.13	35.50	17.43	-37.0	-37.8	24.0	0.00e+00	0	28	0	519045120	46	6299
2026-01-12 21:04:28.14	35.27	17.46	-37.1	-37.9	23.8	0.00e+00	0	27	0	521142272	46	6376
2026-01-12 21:04:29.14	35.05	17.49	-37.2	-38.1	23.7	0.00e+00	0	28	0	523239424	46	6472
2026-01-12 21:04:30.15	34.82	17.51	-37.2	-38.1	23.7	0.00e+00	90	28	0	524288000	46	6526
2026-01-12 21:04:31.17	34.59	17.54	-37.4	-38.3	23.5	0.00e+00	52	28	0	526385152	46	6675
2026-01-12 21:04:32.18	34.36	17.56	-37.5	-38.4	23.4	0.00e+00	90	28	0	528482304	46	6737
2026-01-12 21:04:33.19	34.14	17.59	-37.6	-38.6	23.3	0.00e+00	29	28	0	530579456	46	6855
2026-01-12 21:04:34.20	33.91	17.61	-37.8	-38.8	23.0	0.00e+00	44	28	0	532676608	48	6272
2026-01-12 21:04:35.21	33.68	17.64	-37.8	-38.8	23.1	0.00e+00	0	28	0	533725184	48	6253
2026-01-12 21:04:36.21	33.45	17.66	-37.8	-38.7	23.2	0.00e+00	30	28	0	535822336	48	6225
2026-01-12 21:04:37.22	33.22	17.68	-37.8	-38.8	23.1	0.00e+00	89	28	0	537919488	48	6249
2026-01-12 21:04:38.23	33.00	17.71	-37.8	-38.8	23.2	0.00e+00	0	28	0	540016640	48	6282
2026-01-12 21:04:39.24	32.77	17.73	-37.8	-38.8	23.1	0.00e+00	92	28	0	542113792	48	6266
2026-01-12 21:04:40.25	32.54	17.75	-37.6	-38.6	23.3	0.00e+00	28	28	0	543162368	48	6112
2026-01-12 21:04:41.26	32.31	17.77	-37.6	-38.5	23.5	0.00e+00	25	28	0	545259520	48	6048
2026-01-12 21:04:42.27	32.07	17.79	-37.4	-38.3	23.5	0.00e+00	0	28	0	547356672	48	5946
2026-01-12 21:04:43.28	31.84	17.82	-37.4	-38.3	23.5	0.00e+00	0	27	0	549453824	48	5936
2026-01-12 21:04:44.29	31.61	17.84	-37.5	-38.4	23.4	0.00e+00	0	27	0	551550976	48	6017
2026-01-12 21:04:45.30	31.38	17.86	-37.6	-38.5	23.1	0.00e+00	0	28	0	552599552	48	6092
2026-01-12 21:04:46.31	31.15	17.87	-37.8	-38.7	23.1	0.00e+00	92	27	0	554696704	48	6241
2026-01-12 21:04:47.32	30.92	17.89	-37.7	-38.7	23.2	0.00e+00	0	27	0	556793856	48	6191
2026-01-12 21:04:48.33	30.68	17.91	-37.7	-38.6	23.1	0.00e+00	90	27	0	558891008	48	6173
2026-01-12 21:04:49.34	30.45	17.93	-37.7	-38.7	23.2	0.00e+00	0	28	0	560988160	48	6196
2026-01-12 21:04:50.35	30.22	17.95	-37.9	-38.9	23.0	0.00e+00	2	27	0	563085312	48	6347
2026-01-12 21:04:51.36	29.99	17.96	-38.1	-39.1	22.9	0.00e+00	0	27	0	564133888	48	6479
2026-01-12 21:04:52.36	29.75	17.98	-38.1	-39.1	22.8	0.00e+00	31	27	0	566231040	48	6504
2026-01-12 21:04:53.37	29.52	18.00	-38.2	-39.2	22.7	0.00e+00	92	28	0	568328192	48	6562
2026-01-12 21:04:54.38	29.29	18.01	-38.1	-39.0	22.9	0.00e+00	50	28	0	570425344	48	6455
2026-01-12 21:04:55.39	29.05	18.03	-38.1	-39.0	22.8	0.00e+00	90	28	0	572522496	48	6460
2026-01-12 21:04:56.40	28.82	18.04	-38.1	-39.1	22.6	0.00e+00	29	28	0	573571072	48	6478
2026-01-12 21:04:57.41	28.58	18.05	-38.2	-39.2	22.7	0.00e+00	53	28	0	575668224	48	6553
2026-01-12 21:04:58.42	28.35	18.07	-38.2	-39.2	22.7	0.00e+00	0	28	0	577765376	48	6589
2026-01-12 21:04:59.43	28.11	18.08	-38.3	-39.3	22.7	0.00e+00	6	28	0	579862528	48	6629
2026-01-12 21:05:00.44	27.88	18.09	-38.3	-39.3	22.5	0.00e+00	50	28	0	581959680	48	6690
2026-01-12 21:05:01.45	27.64	18.11	-38.4	-39.5	22.5	0.00e+00	6	28	0	583008256	48	6780
2026-01-12 21:05:02.46	27.41	18.12	-38.3	-39.3	22.5	0.00e+00	90	28	0	585105408	48	6681
2026-01-12 21:05:03.47	27.17	18.13	-38.5	-39.5	22.5	0.00e+00	0	28	0	587202560	48	6803
2026-01-12 21:05:04.48	26.93	18.14	-38.5	-39.5	22.5	0.00e+00	33	28	0	589299712	48	6820
2026-01-12 21:05:05.49	26.70	18.15	-38.5	-39.5	22.5	0.00e+00	5	28	0	591396864	48	6845
2026-01-12 21:05:06.50	26.46	18.16	-38.3	-39.3	22.6	0.00e+00	5	28	0	592445440	48	6656
2026-01-12 21:05:07.50	26.23	18.17	-38.2	-39.2	22.6	0.00e+00	0	27	0	594542592	48	6585
2026-01-12 21:05:08.51	25.99	18.17	-38.1	-39.0	22.8	0.00e+00	51	28	0	596639744	48	6453
2026-01-12 21:05:09.52	25.75	18.18	-38.0	-39.0	22.8	0.00e+00	90	28	0	598736896	48	6440
2026-01-12 21:05:10.53	25.52	18.19	-38.0	-39.0	22.8	0.00e+00	50	28	0	600834048	48	6451
2026-01-12 21:05:11.54	25.28	18.20	-38.0	-39.0	22.8	0.00e+00	92	28	0	601882624	48	6416
2026-01-12 21:05:12.55	25.04	18.20	-38.1	-39.0	22.8	0.00e+00	0	28	0	603979776	48	6446
2026-01-12 21:05:13.56	24.81	18.21	-38.1	-39.1	22.8	0.00e+00	6	27	0	606076928	48	6499
2026-01-12 21:05:14.57	24.57	18.22	-38.2	-39.1	22.8	0.00e+00	52	28	0	608174080	48	6518
2026-01-12 21:05:15.58	24.33	18.22	-38.0	-39.0	22.9	0.00e+00	48	27	0	610271232	48	6429
2026-01-12 21:05:16.59	24.09	18.22	-38.1	-39.1	22.8	0.00e+00	90	28	0	611319808	48	6479
2026-01-12 21:05:17.60	23.86	18.23	-38.0	-38.9	23.0	0.00e+00	50	28	0	613416960	48	6377
2026-01-12 21:05:18.61	23.62	18.23	-38.0	-38.9	22.8	0.00e+00	91	27	0	615514112	48	6376
2026-01-12 21:05:19.62	23.38	18.23	-38.1	-39.0	22.9	0.00e+00	36	28	0	617611264	48	6452
2026-01-12 21:05:20.63	23.14	18.24	-38.2	-39.2	22.7	0.00e+00	92	28	0	619708416	48	6596
2026-01-12 21:05:21.64	22.91	18.24	-38.3	-39.3	22.6	0.00e+00	9	28	0	620756992	48	6644
2026-01-12 21:05:22.64	22.67	18.24	-38.3	-39.3	22.7	0.00e+00	6	27	0	622854144	48	6623
2026-01-12 21:05:23.66	22.43	18.24	-38.1	-39.0	22.8	0.00e+00	0	27	0	624951296	48	6460
2026-01-12 21:05:24.66	22.19	18.24	-37.9	-38.9	23.0	0.00e+00	7	27	0	627048448	48	6338
2026-01-12 21:05:25.67	21.96	18.24	-37.7	-38.7	23.1	0.00e+00	92	27	0	629145600	48	6196
2026-01-12 21:05:26.68	21.72	18.24	-37.8	-38.7	23.1	0.00e+00	7	28	0	631242752	48	6237
2026-01-12 21:05:27.69	21.48	18.24	-37.7	-38.6	23.1	0.00e+00	57	28	0	632291328	48	6171
2026-01-12 21:05:28.70	21.24	18.24	-37.8	-38.7	22.5	0.00e+00	6	28	0	634388480	48	6243
2026-01-12 21:05:29.71	21.01	18.24	-37.8	-38.7	23.1	0.00e+00	50	28	0	636485632	48	6217
2026-01-12 21:05:30.72	20.77	18.23	-37.8	-38.8	23.1	0.00e+00	0	27	0	638582784	48	6259
2026-01-12 21:05:31.73	20.53	18.23	-37.8	-38.7	23.2	0.00e+00	49	27	0	640679936	48	6223
2026-01-12 21:05:32.74	20.29	18.23	-37.5	-38.5	23.3	0.00e+00	91	27	0	641728512	48	6043
2026-01-12 21:05:33.75	20.06	18.22	-37.5	-38.4	23.4	0.00e+00	0	28	0	643825664	48	6027
2026-01-12 21:05:34.75	19.82	18.22	-37.4	-38.3	23.4	0.00e+00	92	28	0	645922816	48	5951
2026-01-12 21:05:35.76	19.58	18.21	-37.5	-38.4	23.5	0.00e+00	50	27	0	648019968	48	5978
2026-01-12 21:05:36.77	19.35	18.21	-37.4	-38.3	23.5	0.00e+00	31	27	0	650117120	48	5951
2026-01-12 21:05:37.78	19.11	18.20	-37.5	-38.4	23.4	0.00e+00	31	27	0	651165696	48	5988
2026-01-12 21:05:38.79	18.87	18.19	-37.6	-38.5	23.4	0.00e+00	52	28	0	653262848	48	6085
2026-01-12 21:05:39.80	18.64	18.19	-37.4	-38.3	23.4	0.00e+00	39	28	0	655360000	48	5951
2026-01-12 21:05:40.81	18.40	18.18	-37.4	-38.3	23.5	0.00e+00	0	28	0	657457152	48	5915
2026-01-12 21:05:41.82	18.16	18.17	-37.2	-38.1	23.7	0.00e+00	92	27	0	659554304	48	5813
2026-01-12 21:05:42.83	17.93	18.16	-37.1	-38.0	23.8	0.00e+00	0	27	0	660602880	48	5711
2026-01-12 21:05:43.84	17.69	18.15	-37.1	-38.0	23.8	0.00e+00	92	28	0	662700032	48	5701
2026-01-12 21:05:44.85	17.45	18.14	-37.0	-37.9	23.9	0.00e+00	29	27	0	664797184	48	5660
2026-01-12 21:05:45.86	17.22	18.13	-37.2	-38.0	23.7	0.00e+00	0	27	0	666894336	48	5754
2026-01-12 21:05:46.87	16.98	18.12	-37.1	-38.0	23.8	0.00e+00	0	27	0	668991488	48	5728
2026-01-12 21:05:47.88	16.75	18.11	-37.1	-38.0	23.8	0.00e+00	0	28	0	670040064	48	5706
2026-01-12 21:05:48.89	16.51	18.10	-37.1	-38.0	23.7	0.00e+00	90	28	0	672137216	48	5732
2026-01-12 21:05:49.90	16.28	18.09	-37.1	-38.0	23.8	0.00e+00	0	27	0	674234368	48	5700
2026-01-12 21:05:50.91	16.04	18.07	-37.0	-37.9	23.8	0.00e+00	92	27	0	676331520	48	5650
2026-01-12 21:05:51.91	15.81	18.06	-36.7	-37.6	24.0	0.00e+00	0	27	0	678428672	48	5479
2026-01-12 21:05:52.92	15.57	18.05	-36.8	-37.7	24.0	0.00e+00	0	28	0	679477248	46	6197
2026-01-12 21:05:53.93	15.34	18.03	-36.8	-37.7	24.0	0.00e+00	0	28	0	681574400	46	6193
2026-01-12 21:05:54.94	15.10	18.02	-36.9	-37.7	24.0	0.00e+00	0	27	0	683671552	46	6244
2026-01-12 21:05:55.95	14.87	18.00	-37.0	-37.8	24.0	0.00e+00	92	27	0	685768704	46	6311
2026-01-12 21:05:56.96	14.64	17.99	-36.9	-37.7	24.0	0.00e+00	30	27	0	687865856	46	6240
2026-01-12 21:05:57.97	14.40	17.97	-36.7	-37.6	24.1	0.00e+00	91	27	0	688914432	46	6122
2026-01-12 21:05:58.98	14.17	17.95	-36.6	-37.4	24.3	0.00e+00	51	28	0	691011584	46	6002
2026-01-12 21:05:59.99	13.94	17.94	-36.6	-37.4	24.2	0.00e+00	30	28	0	693108736	46	6011
2026-01-12 21:06:01.00	13.70	17.92	-36.4	-37.2	24.4	0.00e+00	50	28	0	695205888	46	5852
2026-01-12 21:06:02.01	13.47	17.90	-36.3	-37.1	24.4	0.00e+00	31	28	0	697303040	46	5805
2026-01-12 21:06:03.02	13.24	17.88	-36.3	-37.2	24.4	0.00e+00	27	27	0	699400192	46	5844
2026-01-12 21:06:04.03	13.01	17.86	-36.4	-37.2	24.4	0.00e+00	0	27	0	700448768	46	5889
2026-01-12 21:06:05.03	12.78	17.85	-36.5	-37.4	24.3	0.00e+00	91	27	0	702545920	46	5979
2026-01-12 21:06:06.05	12.54	17.82	-36.7	-37.5	24.2	0.00e+00	30	27	0	704643072	46	6095
2026-01-12 21:06:07.05	12.32	17.80	-36.7	-37.6	24.2	0.00e+00	91	28	0	706740224	46	6133
2026-01-12 21:06:08.06	12.09	17.78	-36.9	-37.7	24.0	0.00e+00	0	28	0	708837376	46	6243
2026-01-12 21:06:09.07	11.86	17.76	-36.9	-37.8	23.9	0.00e+00	0	27	0	709885952	46	6293
2026-01-12 21:06:10.08	11.63	17.74	-36.9	-37.8	24.0	0.00e+00	2	27	0	711983104	46	6274
2026-01-12 21:06:11.09	11.40	17.72	-36.8	-37.7	24.1	0.00e+00	0	27	0	714080256	46	6217
2026-01-12 21:06:12.10	11.17	17.70	-36.9	-37.8	23.9	0.00e+00	92	27	0	716177408	46	6295
2026-01-12 21:06:13.11	10.94	17.67	-36.8	-37.7	24.0	0.00e+00	50	27	0	718274560	46	6243
2026-01-12 21:06:14.12	10.71	17.65	-36.8	-37.7	24.0	0.00e+00	92	27	0	719323136	46	6214
2026-01-12 21:06:15.13	10.48	17.63	-36.9	-37.8	23.9	0.00e+00	50	27	0	721420288	46	6285
2026-01-12 21:06:16.14	10.25	17.60	-37.0	-37.8	23.8	0.00e+00	51	27	0	723517440	46	6313
2026-01-12 21:06:17.15	10.03	17.58	-37.0	-37.9	23.8	0.00e+00	36	27	0	725614592	46	6360
2026-01-12 21:06:18.16	9.80	17.55	-37.0	-37.9	23.8	0.00e+00	2	27	0	727711744	46	6379
2026-01-12 21:06:19.16	9.57	17.53	-37.0	-37.9	23.8	0.00e+00	92	27	0	728760320	46	6378
2026-01-12 21:06:20.17	9.35	17.50	-37.1	-38.0	23.8	0.00e+00	34	27	0	730857472	46	6399
2026-01-12 21:06:21.18	9.12	17.47	-37.2	-38.0	23.8	0.00e+00	92	27	0	732954624	46	6464
2026-01-12 21:06:22.19	8.90	17.45	-37.3	-38.2	23.6	0.00e+00	36	27	0	735051776	46	6598
2026-01-12 21:06:23.20	8.67	17.42	-37.5	-38.4	23.4	0.00e+00	45	27	0	737148928	46	6747
2026-01-12 21:06:24.21	8.45	17.39	-37.6	-38.5	23.3	0.00e+00	35	27	0	738197504	46	6823
2026-01-12 21:06:25.22	8.22	17.36	-37.5	-38.4	23.3	0.00e+00	0	27	0	740294656	46	6752
2026-01-12 21:06:26.23	8.00	17.33	-37.6	-38.5	23.2	0.00e+00	44	27	0	742391808	46	6840
2026-01-12 21:06:27.24	7.77	17.30	-37.6	-38.6	23.2	0.00e+00	0	27	0	744488960	46	6911
2026-01-12 21:06:28.25	7.55	17.27	-37.6	-38.6	23.3	0.00e+00	90	27	0	746586112	46	6849
2026-01-12 21:06:29.26	7.33	17.24	-37.6	-38.5	23.3	0.00e+00	31	28	0	747634688	46	6842
2026-01-12 21:06:30.27	7.11	17.21	-37.5	-38.4	23.4	0.00e+00	91	28	0	749731840	46	6747
2026-01-12 21:06:31.28	6.89	17.18	-37.5	-38.4	23.3	0.00e+00	0	27	0	751828992	46	6761
2026-01-12 21:06:32.29	6.66	17.15	-37.7	-38.6	23.3	0.00e+00	0	27	0	753926144	46	6900
2026-01-12 21:06:33.30	6.44	17.12	-37.7	-38.7	23.1	0.00e+00	0	27	0	756023296	46	6951
2026-01-12 21:06:34.31	6.22	17.09	-37.9	-38.8	23.0	0.00e+00	2	28	0	757071872	48	6308
2026-01-12 21:06:35.32	6.00	17.06	-37.8	-38.8	23.1	0.00e+00	92	27	0	759169024	48	6274
2026-01-12 21:06:36.32	5.79	17.02	-37.9	-38.9	23.0	0.00e+00	0	27	0	761266176	48	6326
2026-01-12 21:06:37.33	5.57	16.99	-37.8	-38.7	23.1	0.00e+00	92	27	0	763363328	48	6239
2026-01-12 21:06:38.35	5.35	16.96	-37.7	-38.7	23.1	0.00e+00	48	27	0	765460480	48	6197
2026-01-12 21:06:39.35	5.13	16.92	-37.6	-38.6	23.2	0.00e+00	0	27	0	766509056	48	6134
2026-01-12 21:06:40.36	4.92	16.89	-37.7	-38.6	23.2	0.00e+00	35	28	0	768606208	48	6132
2026-01-12 21:06:41.37	4.70	16.85	-37.5	-38.4	23.4	0.00e+00	49	27	0	770703360	48	6011
2026-01-12 21:06:42.38	4.48	16.82	-37.5	-38.5	23.3	0.00e+00	48	27	0	772800512	48	6041
2026-01-12 21:06:43.39	4.27	16.78	-37.5	-38.4	23.4	0.00e+00	0	27	0	774897664	48	6011
2026-01-12 21:06:44.40	4.05	16.75	-37.4	-38.3	23.4	0.00e+00	92	28	0	775946240	48	5948
2026-01-12 21:06:45.41	3.84	16.71	-37.5	-38.4	23.4	0.00e+00	32	27	0	778043392	48	6001
2026-01-12 21:06:46.42	3.62	16.68	-37.4	-38.4	23.4	0.00e+00	5	28	0	780140544	48	5970
2026-01-12 21:06:47.43	3.41	16.64	-37.5	-38.4	23.4	0.00e+00	34	27	0	782237696	48	6007
2026-01-12 21:06:48.44	3.20	16.60	-37.3	-38.3	23.2	0.00e+00	31	28	0	784334848	48	5900
2026-01-12 21:06:49.44	2.99	16.56	-37.4	-38.3	23.5	0.00e+00	76	27	0	785383424	48	5951
2026-01-12 21:06:50.45	2.77	16.53	-37.5	-38.5	23.3	0.00e+00	0	27	0	787480576	48	6042
2026-01-12 21:06:51.46	2.56	16.49	-37.4	-38.3	23.5	0.00e+00	90	28	0	789577728	48	5954
2026-01-12 21:06:52.47	2.35	16.45	-37.5	-38.4	23.4	0.00e+00	0	28	0	791674880	48	5988
2026-01-12 21:06:53.48	2.14	16.41	-37.7	-38.6	23.2	0.00e+00	38	28	0	793772032	48	6169
2026-01-12 21:06:54.49	1.93	16.37	-37.7	-38.6	23.1	0.00e+00	0	27	0	795869184	48	6171
2026-01-12 21:06:55.50	1.72	16.33	-37.7	-38.7	23.1	0.00e+00	6	28	0	796917760	48	6233
2026-01-12 21:06:56.51	1.51	16.29	-37.8	-38.7	23.0	0.00e+00	6	28	0	799014912	48	6244
2026-01-12 21:06:57.52	1.30	16.25	-37.7	-38.7	23.1	0.00e+00	0	27	0	801112064	48	6199
2026-01-12 21:06:58.53	1.10	16.21	-37.6	-38.5	23.3	0.00e+00	92	27	0	803209216	48	6102
2026-01-12 21:06:59.53	0.89	16.17	-37.4	-38.3	23.4	0.00e+00	49	27	0	805306368	48	5936
2026-01-12 21:07:00.54	0.69	16.13	-37.3	-38.2	23.5	0.00e+00	92	28	0	806354944	48	5877
2026-01-12 21:07:01.55	0.48	16.09	-37.5	-38.4	23.3	0.00e+00	0	28	0	808452096	48	6018
2026-01-12 21:07:02.56	0.27	16.05	-37.4	-38.3	23.4	0.00e+00	38	27	0	810549248	48	5937
2026-01-12 21:07:03.57	0.07	16.00	-37.5	-38.4	23.3	0.00e+00	39	27	0	812646400	48	6020
2026-01-12 21:07:04.58	359.87	15.96	-37.6	-38.5	23.0	0.00e+00	36	28	0	814743552	48	6084
2026-01-12 21:07:05.59	359.66	15.92	-37.7	-38.7	23.1	0.00e+00	43	28	0	815792128	48	6175
2026-01-12 21:07:06.60	359.46	15.88	-37.8	-38.8	23.1	0.00e+00	38	28	0	817889280	48	6267
2026-01-12 21:07:07.61	359.26	15.83	-37.9	-38.9	22.9	0.00e+00	92	28	0	819986432	48	6343
2026-01-12 21:07:08.62	359.06	15.79	-38.1	-39.2	22.8	0.00e+00	7	27	0	822083584	48	6543
2026-01-12 21:07:09.62	358.86	15.75	-38.0	-39.0	23.0	0.00e+00	6	27	0	824180736	48	6415
2026-01-12 21:07:10.63	358.66	15.70	-37.9	-38.9	23.0	0.00e+00	4	27	0	825229312	48	6345
2026-01-12 21:07:11.64	358.46	15.66	-38.0	-39.0	22.9	0.00e+00	39	27	0	827326464	48	6394
2026-01-12 21:07:12.65	358.26	15.61	-38.0	-39.0	22.8	0.00e+00	59	27	0	829423616	48	6441
2026-01-12 21:07:13.66	358.06	15.57	-37.9	-38.9	22.9	0.00e+00	0	27	0	831520768	48	6371
2026-01-12 21:07:14.67	357.86	15.52	-38.0	-39.0	22.8	0.00e+00	90	27	0	833617920	48	6415
2026-01-12 21:07:15.68	357.66	15.48	-38.1	-39.1	22.7	0.00e+00	7	27	0	834666496	48	6512
2026-01-12 21:07:16.69	357.46	15.43	-38.3	-39.3	22.6	0.00e+00	44	27	0	836763648	48	6654
2026-01-12 21:07:17.70	357.27	15.39	-38.3	-39.4	22.5	0.00e+00	0	27	0	838860800	48	6696
2026-01-12 21:07:18.71	357.07	15.34	-38.2	-39.2	22.6	0.00e+00	6	27	0	840957952	48	6596
2026-01-12 21:07:19.72	356.88	15.29	-38.2	-39.2	22.6	0.00e+00	0	27	0	843055104	48	6611
2026-01-12 21:07:20.72	356.69	15.25	-38.2	-39.2	22.6	0.00e+00	0	27	0	844103680	48	6610
2026-01-12 21:07:21.73	356.49	15.20	-38.3	-39.3	22.5	0.00e+00	92	27	0	846200832	48	6672
2026-01-12 21:07:22.74	356.30	15.15	-38.2	-39.2	22.7	0.00e+00	44	27	0	848297984	48	6566
2026-01-12 21:07:23.75	356.11	15.11	-38.2	-39.2	22.6	0.00e+00	92	27	0	850395136	48	6584
2026-01-12 21:07:24.76	355.91	15.06	-38.3	-39.3	22.5	0.00e+00	42	27	0	852492288	48	6669
2026-01-12 21:07:25.77	355.72	15.01	-38.2	-39.2	22.7	0.00e+00	45	27	0	853540864	48	6599
2026-01-12 21:07:26.78	355.53	14.96	-38.3	-39.3	22.6	0.00e+00	44	27	0	855638016	48	6653
2026-01-12 21:07:27.79	355.34	14.92	-38.2	-39.2	22.5	0.00e+00	38	27	0	857735168	48	6599
2026-01-12 21:07:28.80	355.15	14.87	-38.3	-39.4	22.5	0.00e+00	50	27	0	859832320	48	6727
2026-01-12 21:07:29.81	354.96	14.82	-38.3	-39.4	22.4	0.00e+00	48	27	0	861929472	48	6727
2026-01-12 21:07:30.82	354.77	14.77	-38.3	-39.4	22.5	0.00e+00	91	27	0	864026624	48	6704
2026-01-12 21:07:31.83	354.59	14.72	-38.5	-39.6	22.3	0.00e+00	32	27	0	865075200	48	6861
2026-01-12 21:07:32.84	354.40	14.67	-38.5	-39.6	22.2	0.00e+00	92	27	0	867172352	48	6864
2026-01-12 21:07:33.84	354.22	14.62	-38.6	-39.6	22.2	0.00e+00	0	27	0	869269504	48	6909
2026-01-12 21:07:34.85	354.03	14.57	-38.7	-39.8	22.1	0.00e+00	34	27	0	871366656	48	7034
2026-01-12 21:07:35.86	353.84	14.52	-38.9	-40.0	21.9	0.00e+00	0	27	0	873463808	50	6406
2026-01-12 21:07:36.87	353.66	14.47	-39.0	-40.0	21.9	0.00e+00	0	27	0	874512384	50	6454
2026-01-12 21:07:37.88	353.48	14.42	-38.9	-40.0	22.0	0.00e+00	92	27	0	876609536	50	6392
2026-01-12 21:07:38.89	353.29	14.37	-38.9	-40.0	21.9	0.00e+00	0	27	0	878706688	50	6419
2026-01-12 21:07:39.90	353.11	14.32	-38.9	-40.0	21.8	0.00e+00	91	27	0	880803840	50	6449
2026-01-12 21:07:40.91	352.93	14.27	-38.7	-39.8	22.0	0.00e+00	0	27	0	882900992	50	6309
2026-01-12 21:07:41.92	352.75	14.22	-38.7	-39.7	22.2	0.00e+00	49	27	0	883949568	50	6244
2026-01-12 21:07:42.93	352.57	14.17	-38.6	-39.6	22.2	0.00e+00	0	27	0	886046720	50	6157
2026-01-12 21:07:43.94	352.39	14.12	-38.6	-39.7	22.2	0.00e+00	0	27	0	888143872	50	6191
2026-01-12 21:07:44.95	352.21	14.06	-38.5	-39.6	22.3	0.00e+00	90	27	0	890241024	50	6112
2026-01-12 21:07:45.96	352.03	14.01	-38.8	-39.8	21.9	0.00e+00	0	27	0	892338176	50	6283
2026-01-12 21:07:46.96	351.85	13.96	-38.9	-40.0	21.8	0.00e+00	90	27	0	893386752	50	6431
2026-01-12 21:07:47.98	351.67	13.91	-39.2	-40.3	21.5	0.00e+00	47	27	0	895483904	50	6647
2026-01-12 21:07:48.99	351.50	13.86	-39.3	-40.5	21.5	0.00e+00	44	27	0	897581056	50	6772
2026-01-12 21:07:49.99	351.32	13.80	-39.4	-40.5	21.3	0.00e+00	44	27	0	899678208	50	6841
2026-01-12 21:07:51.00	351.15	13.75	-39.4	-40.5	21.3	0.00e+00	44	27	0	901775360	50	6845
2026-01-12 21:07:52.01	350.97	13.70	-39.5	-40.6	21.3	0.00e+00	35	27	0	902823936	50	6924
2026-01-12 21:07:53.02	350.80	13.65	-39.5	-40.6	21.3	0.00e+00	38	27	0	904921088	50	6924
2026-01-12 21:07:54.03	350.62	13.59	-39.4	-40.6	21.3	0.00e+00	91	27	0	907018240	50	6881
2026-01-12 21:07:55.04	350.45	13.54	-39.3	-40.5	21.3	0.00e+00	2	27	0	909115392	50	6828
2026-01-12 21:07:56.05	350.28	13.49	-39.4	-40.6	21.2	0.00e+00	22	27	0	911212544	50	6916
2026-01-12 21:07:57.06	350.11	13.43	-39.4	-40.7	21.2	0.00e+00	0	27	0	912261120	50	6935
2026-01-12 21:07:58.07	349.93	13.38	-39.5	-40.6	21.2	0.00e+00	0	27	0	914358272	50	6924
2026-01-12 21:07:59.08	349.76	13.33	-39.5	-40.7	21.2	0.00e+00	0	27	0	916455424	50	6947
2026-01-12 21:08:00.08	349.60	13.27	-39.5	-40.7	21.2	0.00e+00	0	27	0	918552576	50	6955
2026-01-12 21:08:01.09	349.43	13.22	-39.5	-40.7	21.2	0.00e+00	92	27	0	920649728	50	6987
2026-01-12 21:08:02.10	349.26	13.16	-39.5	-40.7	21.2	0.00e+00	0	27	0	921698304	50	6974
2026-01-12 21:08:03.11	349.09	13.11	-39.5	-40.8	21.1	0.00e+00	0	27	0	923795456	50	7022
2026-01-12 21:08:04.12	348.92	13.05	-39.5	-40.7	21.1	0.00e+00	47	27	0	925892608	50	6989
2026-01-12 21:08:05.13	348.76	13.00	-39.5	-40.7	21.2	0.00e+00	0	27	0	927989760	50	6983
2026-01-12 21:08:06.14	348.59	12.95	-39.4	-40.6	21.3	0.00e+00	20	27	0	930086912	50	6918
2026-01-12 21:08:07.15	348.42	12.89	-39.5	-40.7	21.2	0.00e+00	48	27	0	931135488	50	6943
2026-01-12 21:08:08.16	348.26	12.84	-39.4	-40.5	21.4	0.00e+00	92	27	0	933232640	50	6823
2026-01-12 21:08:09.17	348.10	12.78	-39.4	-40.6	21.3	0.00e+00	48	27	0	935329792	50	6888
2026-01-12 21:08:10.18	347.93	12.73	-39.5	-40.7	21.2	0.00e+00	92	27	0	937426944	50	6931
2026-01-12 21:08:11.19	347.77	12.67	-39.4	-40.6	21.3	0.00e+00	0	27	0	939524096	50	6876
2026-01-12 21:08:12.20	347.61	12.62	-39.6	-40.8	21.2	0.00e+00	47	27	0	940572672	50	7043
2026-01-12 21:08:13.20	347.45	12.56	-39.6	-40.8	21.1	0.00e+00	34	27	0	942669824	50	7063
2026-01-12 21:08:14.21	347.29	12.51	-39.6	-40.8	21.0	0.00e+00	0	27	0	944766976	50	7048
2026-01-12 21:08:15.22	347.12	12.45	-39.6	-40.8	21.1	0.00e+00	91	27	0	946864128	50	7015
2026-01-12 21:08:16.23	346.96	12.39	-39.5	-40.7	21.3	0.00e+00	32	27	0	948961280	50	6977
2026-01-12 21:08:17.24	346.81	12.34	-39.3	-40.5	21.3	0.00e+00	92	27	0	950009856	50	6772
2026-01-12 21:08:18.25	346.65	12.28	-39.2	-40.3	21.5	0.00e+00	0	27	0	952107008	50	6656
2026-01-12 21:08:19.25	346.49	12.23	-39.1	-40.3	21.6	0.00e+00	39	27	0	954204160	50	6635
2026-01-12 21:08:20.27	346.33	12.17	-39.1	-40.2	21.6	0.00e+00	2	27	0	956301312	50	6604
2026-01-12 21:08:21.27	346.18	12.11	-39.0	-40.1	21.7	0.00e+00	0	27	0	958398464	50	6506
2026-01-12 21:08:22.28	346.02	12.06	-39.0	-40.1	21.6	0.00e+00	0	27	0	960495616	50	6511
2026-01-12 21:08:23.29	345.86	12.00	-38.9	-40.0	21.7	0.00e+00	0	27	0	961544192	50	6460
2026-01-12 21:08:24.30	345.71	11.95	-38.9	-40.1	21.8	0.00e+00	90	27	0	963641344	50	6465
2026-01-12 21:08:25.31	345.55	11.89	-38.8	-39.9	21.9	0.00e+00	0	27	0	965738496	50	6318
2026-01-12 21:08:26.32	345.40	11.83	-38.7	-39.8	22.0	0.00e+00	92	27	0	967835648	50	6293
2026-01-12 21:08:27.33	345.25	11.78	-38.6	-39.7	22.1	0.00e+00	0	27	0	969932800	50	6198
2026-01-12 21:08:28.34	345.10	11.72	-38.8	-39.9	21.9	0.00e+00	0	27	0	970981376	50	6318
2026-01-12 21:08:29.35	344.94	11.66	-38.5	-39.6	22.2	0.00e+00	39	27	0	973078528	50	6131
2026-01-12 21:08:30.36	344.79	11.61	-38.6	-39.7	22.1	0.00e+00	46	27	0	975175680	50	6184
2026-01-12 21:08:31.36	344.64	11.55	-38.6	-39.7	22.0	0.00e+00	80	27	0	977272832	50	6221
2026-01-12 21:08:32.37	344.49	11.49	-38.7	-39.9	22.0	0.00e+00	34	27	0	979369984	50	6322
2026-01-12 21:08:33.38	344.34	11.44	-38.6	-39.7	22.1	0.00e+00	92	27	0	980418560	50	6215
2026-01-12 21:08:34.39	344.19	11.38	-38.6	-39.7	22.1	0.00e+00	0	27	0	982515712	50	6183
2026-01-12 21:08:35.40	344.05	11.32	-38.6	-39.7	22.1	0.00e+00	0	27	0	984612864	50	6215
2026-01-12 21:08:36.41	343.90	11.26	-38.8	-39.9	22.0	0.00e+00	36	27	0	986710016	50	6366
2026-01-12 21:08:37.42	343.75	11.21	-38.6	-39.7	22.0	0.00e+00	34	27	0	988807168	50	6215
2026-01-12 21:08:38.43	343.60	11.15	-38.8	-39.9	21.9	0.00e+00	86	27	0	989855744	50	6383
2026-01-12 21:08:39.44	343.46	11.09	-38.6	-39.7	22.0	0.00e+00	5	27	0	991952896	50	6235
2026-01-12 21:08:40.45	343.31	11.04	-38.7	-39.8	21.9	0.00e+00	92	27	0	994050048	50	6308
2026-01-12 21:08:41.46	343.17	10.98	-38.6	-39.6	22.3	0.00e+00	39	27	0	996147200	50	6151
2026-01-12 21:08:42.47	343.02	10.92	-38.5	-39.6	22.2	0.00e+00	0	27	0	998244352	50	6124
2026-01-12 21:08:43.48	342.88	10.86	-38.2	-39.2	22.5	0.00e+00	5	27	0	999292928	50	5886
2026-01-12 21:08:44.48	342.74	10.81	-38.2	-39.3	22.4	0.00e+00	6	27	0	1001390080	50	5911
2026-01-12 21:08:45.49	342.59	10.75	-38.2	-39.3	22.6	0.00e+00	5	27	0	1003487232	50	5908
2026-01-12 21:08:46.51	342.45	10.69	-38.2	-39.2	22.4	0.00e+00	0	27	0	1005584384	50	5891
2026-01-12 21:08:47.51	342.31	10.63	-38.1	-39.1	22.6	0.00e+00	92	27	0	1007681536	50	5787
2026-01-12 21:08:48.53	342.17	10.58	-38.2	-39.3	22.4	0.00e+00	0	27	0	1008730112	50	5929
2026-01-12 21:08:49.53	342.03	10.52	-38.0	-39.1	22.5	0.00e+00	92	27	0	1010827264	50	5780
2026-01-12 21:08:50.54	341.89	10.46	-38.2	-39.3	22.5	0.00e+00	40	27	0	1012924416	50	5904
2026-01-12 21:08:51.55	341.75	10.40	-38.1	-39.2	22.5	0.00e+00	0	27	0	1015021568	50	5847
2026-01-12 21:08:52.56	341.61	10.35	-38.1	-39.1	22.7	0.00e+00	45	27	0	1017118720	50	5821
2026-01-12 21:08:53.57	341.47	10.29	-38.0	-39.0	22.6	0.00e+00	40	27	0	1018167296	50	5730
2026-01-12 21:08:54.58	341.34	10.23	-37.8	-38.9	22.6	0.00e+00	92	27	0	1020264448	50	5641
2026-01-12 21:08:55.59	341.20	10.17	-38.0	-39.0	22.8	0.00e+00	41	27	0	1022361600	50	5750
2026-01-12 21:08:56.60	341.06	10.11	-38.0	-39.0	22.7	0.00e+00	92	27	0	1024458752	50	5724
2026-01-12 21:08:57.60	340.93	10.06	-37.6	-38.6	22.7	0.00e+00	4	27	0	1026555904	48	6118
2026-01-12 21:08:58.62	340.79	10.00	-37.4	-38.4	22.9	0.00e+00	44	27	0	1028653056	48	6014
2026-01-12 21:08:59.62	340.66	9.94	-37.4	-38.5	23.0	0.00e+00	5	27	0	1029701632	48	6039
2026-01-12 21:09:00.63	340.52	9.88	-37.6	-38.6	22.9	0.00e+00	6	27	0	1031798784	48	6128
2026-01-12 21:09:01.64	340.39	9.82	-37.6	-38.6	22.9	0.00e+00	36	27	0	1033895936	48	6156
2026-01-12 21:09:02.65	340.26	9.77	-37.7	-38.7	22.6	0.00e+00	42	28	0	1035993088	48	6227
2026-01-12 21:09:03.66	340.12	9.71	-37.8	-38.9	22.6	0.00e+00	90	27	0	1038090240	48	6351
2026-01-12 21:09:04.67	339.99	9.65	-38.0	-39.1	22.2	0.00e+00	0	27	0	1039138816	48	6512
2026-01-12 21:09:05.68	339.86	9.59	-37.7	-38.8	22.7	0.00e+00	62	27	0	1041235968	48	6279
2026-01-12 21:09:06.69	339.73	9.53	-37.8	-38.9	22.7	0.00e+00	0	27	0	1043333120	48	6341
2026-01-12 21:09:07.70	339.60	9.48	-37.8	-38.9	22.6	0.00e+00	0	27	0	1045430272	48	6360
2026-01-12 21:09:08.71	339.47	9.42	-37.8	-38.8	22.7	0.00e+00	0	27	0	1047527424	48	6295
2026-01-12 21:09:09.72	339.34	9.36	-37.9	-39.0	22.6	0.00e+00	0	27	0	1048576000	48	6401
2026-01-12 21:09:10.73	339.21	9.30	-37.9	-38.9	22.6	0.00e+00	92	27	0	1050673152	48	6371
2026-01-12 21:09:11.74	339.08	9.24	-37.9	-38.9	22.6	0.00e+00	0	27	0	1052770304	48	6387
2026-01-12 21:09:12.75	338.96	9.19	-38.0	-39.0	22.5	0.00e+00	92	27	0	1054867456	48	6464
2026-01-12 21:09:13.76	338.83	9.13	-38.1	-39.2	22.4	0.00e+00	41	27	0	1056964608	48	6600
2026-01-12 21:09:14.77	338.70	9.07	-38.1	-39.2	22.4	0.00e+00	41	27	0	1058013184	48	6586
2026-01-12 21:09:15.78	338.57	9.01	-38.2	-39.3	22.3	0.00e+00	40	27	0	1060110336	48	6628
2026-01-12 21:09:16.79	338.45	8.95	-38.2	-39.3	22.4	0.00e+00	43	27	0	1062207488	48	6627
2026-01-12 21:09:17.80	338.32	8.90	-38.2	-39.3	22.2	0.00e+00	92	27	0	1064304640	48	6669
2026-01-12 21:09:18.81	338.20	8.84	-38.3	-39.4	22.2	0.00e+00	2	27	0	1066401792	48	6735
2026-01-12 21:09:19.82	338.07	8.78	-38.3	-39.4	22.1	0.00e+00	90	27	0	1067450368	48	6767
2026-01-12 21:09:20.83	337.95	8.72	-38.4	-39.5	22.1	0.00e+00	0	27	0	1069547520	48	6842
2026-01-12 21:09:21.84	337.83	8.66	-38.4	-39.5	22.0	0.00e+00	42	27	0	1071644672	48	6795
2026-01-12 21:09:22.85	337.71	8.60	-38.1	-39.2	22.3	0.00e+00	42	27	0	1073741824	48	6566
2026-01-12 21:09:23.86	337.58	8.55	-38.2	-39.3	22.3	0.00e+00	0	27	0	1075838976	48	6663
2026-01-12 21:09:24.87	337.46	8.49	-38.2	-39.3	22.2	0.00e+00	14	27	0	1076887552	48	6669
2026-01-12 21:09:25.88	337.34	8.43	-38.3	-39.4	22.2	0.00e+00	0	27	0	1078984704	48	6693
2026-01-12 21:09:26.88	337.22	8.37	-38.2	-39.3	22.2	0.00e+00	92	27	0	1081081856	48	6679
2026-01-12 21:09:27.89	337.10	8.31	-38.4	-39.5	22.1	0.00e+00	0	27	0	1083179008	48	6815
2026-01-12 21:09:28.90	336.98	8.26	-38.1	-39.2	22.2	0.00e+00	41	27	0	1085276160	48	6596
2026-01-12 21:09:29.91	336.86	8.20	-38.2	-39.3	22.2	0.00e+00	39	27	0	1086324736	48	6664
2026-01-12 21:09:30.92	336.74	8.14	-38.2	-39.3	22.2	0.00e+00	5	27	0	1088421888	48	6683
2026-01-12 21:09:31.93	336.62	8.08	-38.3	-39.4	22.1	0.00e+00	0	27	0	1090519040	48	6704
2026-01-12 21:09:32.94	336.51	8.02	-38.4	-39.5	22.0	0.00e+00	0	27	0	1092616192	48	6831
2026-01-12 21:09:33.95	336.39	7.97	-38.4	-39.6	22.0	0.00e+00	92	27	0	1094713344	48	6852
2026-01-12 21:09:34.96	336.27	7.91	-38.5	-39.6	21.9	0.00e+00	44	27	0	1096810496	48	6890
2026-01-12 21:09:35.97	336.16	7.85	-38.6	-39.8	21.7	0.00e+00	92	27	0	1097859072	48	7014
2026-01-12 21:09:36.98	336.04	7.79	-38.7	-39.9	21.7	0.00e+00	44	27	0	1099956224	48	7090
2026-01-12 21:09:37.99	335.93	7.74	-38.7	-39.9	21.7	0.00e+00	43	27	0	1102053376	48	7092
2026-01-12 21:09:38.99	335.81	7.68	-38.8	-40.0	21.5	0.00e+00	4	27	0	1104150528	50	6438
2026-01-12 21:09:40.00	335.70	7.62	-39.0	-40.2	21.4	0.00e+00	39	27	0	1105199104	50	6545
2026-01-12 21:09:41.01	335.58	7.56	-39.0	-40.1	21.4	0.00e+00	91	27	0	1107296256	50	6524
2026-01-12 21:09:42.02	335.47	7.50	-39.1	-40.3	21.3	0.00e+00	0	27	0	1109393408	50	6670
2026-01-12 21:09:43.03	335.36	7.45	-39.1	-40.3	21.2	0.00e+00	91	27	0	1111490560	50	6663
2026-01-12 21:09:44.04	335.24	7.39	-39.2	-40.4	21.2	0.00e+00	43	27	0	1113587712	50	6742
2026-01-12 21:09:45.04	335.13	7.33	-39.1	-40.3	21.2	0.00e+00	92	27	0	1114636288	50	6672
2026-01-12 21:09:46.05	335.02	7.27	-39.1	-40.3	21.2	0.00e+00	2	27	0	1116733440	50	6658
2026-01-12 21:09:47.06	334.91	7.22	-39.2	-40.4	21.1	0.00e+00	0	27	0	1118830592	50	6715
2026-01-12 21:09:48.07	334.80	7.16	-39.3	-40.5	20.9	0.00e+00	0	27	0	1120927744	50	6811
2026-01-12 21:09:49.08	334.69	7.10	-39.4	-40.7	20.8	0.00e+00	0	27	0	1123024896	50	6967
2026-01-12 21:09:50.09	334.58	7.04	-39.4	-40.7	20.7	0.00e+00	91	27	0	1125122048	50	6945
2026-01-12 21:09:51.10	334.47	6.99	-39.4	-40.6	20.8	0.00e+00	0	27	0	1126170624	50	6905
2026-01-12 21:09:52.11	334.36	6.93	-39.5	-40.8	20.6	0.00e+00	92	27	0	1128267776	50	7058
2026-01-12 21:09:53.12	334.25	6.87	-39.6	-40.9	20.6	0.00e+00	0	27	0	1130364928	50	7108
2026-01-12 21:09:54.13	334.14	6.81	-39.5	-40.8	20.6	0.00e+00	2	27	0	1132462080	50	7051
2026-01-12 21:09:55.14	334.04	6.76	-39.6	-41.0	20.4	0.00e+00	0	27	0	1134559232	50	7177
2026-01-12 21:09:56.15	333.93	6.70	-39.9	-41.2	20.3	0.00e+00	0	27	0	1135607808	52	6590
2026-01-12 21:09:57.16	333.82	6.64	-39.7	-41.0	20.4	0.00e+00	92	27	0	1137704960	52	6421
2026-01-12 21:09:58.17	333.72	6.58	-39.7	-41.0	20.4	0.00e+00	36	27	0	1139802112	52	6448
2026-01-12 21:09:59.18	333.61	6.53	-39.7	-41.0	20.4	0.00e+00	92	27	0	1141899264	52	6427
2026-01-12 21:10:00.19	333.50	6.47	-39.7	-41.0	20.4	0.00e+00	45	27	0	1143996416	52	6461
2026-01-12 21:10:01.20	333.40	6.41	-39.7	-41.0	20.4	0.00e+00	43	27	0	1145044992	52	6401
2026-01-12 21:10:02.21	333.29	6.36	-39.7	-41.0	20.4	0.00e+00	0	27	0	1147142144	52	6424
2026-01-12 21:10:03.22	333.19	6.30	-39.8	-41.2	20.2	0.00e+00	0	27	0	1149239296	52	6553
2026-01-12 21:10:04.23	333.09	6.24	-39.7	-41.0	20.4	0.00e+00	90	27	0	1151336448	52	6453
2026-01-12 21:10:05.24	332.98	6.18	-39.9	-41.3	20.2	0.00e+00	37	27	0	1153433600	52	6629
2026-01-12 21:10:06.25	332.88	6.13	-39.9	-41.3	20.1	0.00e+00	92	27	0	1154482176	52	6620
2026-01-12 21:10:07.26	332.78	6.07	-40.1	-41.5	20.0	0.00e+00	2	27	0	1156579328	52	6831
2026-01-12 21:10:08.27	332.68	6.01	-40.1	-41.5	19.9	0.00e+00	10	27	0	1158676480	52	6843
2026-01-12 21:10:09.27	332.57	5.96	-40.1	-41.6	19.9	0.00e+00	2	27	0	1160773632	52	6852
2026-01-12 21:10:10.28	332.47	5.90	-40.1	-41.5	19.8	0.00e+00	0	27	0	1162870784	52	6840
2026-01-12 21:10:11.29	332.37	5.84	-40.2	-41.6	19.8	7.00e-07	0	27	0	1163919360	52	6903
2026-01-12 21:10:12.30	332.27	5.79	-40.3	-41.7	19.7	0.00e+00	2	27	0	1166016512	52	6972
2026-01-12 21:10:13.31	332.17	5.73	-40.2	-41.6	19.8	0.00e+00	92	27	0	1168113664	52	6921
2026-01-12 21:10:14.32	332.07	5.67	-40.2	-41.7	19.6	0.00e+00	0	27	0	1170210816	52	6956
2026-01-12 21:10:15.33	331.97	5.62	-40.3	-41.8	19.5	0.00e+00	91	27	0	1172307968	52	7023
2026-01-12 21:10:16.34	331.87	5.56	-40.3	-41.8	19.6	0.00e+00	42	27	0	1173356544	52	7036
2026-01-12 21:10:17.35	331.78	5.50	-40.3	-41.8	19.6	0.00e+00	37	27	0	1175453696	52	7019
2026-01-12 21:10:18.36	331.68	5.45	-40.3	-41.8	19.6	0.00e+00	2	27	0	1177550848	52	7008
2026-01-12 21:10:19.37	331.58	5.39	-40.3	-41.7	19.7	0.00e+00	0	27	0	1179648000	52	6976
2026-01-12 21:10:20.38	331.48	5.33	-40.3	-41.8	19.6	0.00e+00	92	27	0	1181745152	52	7060
2026-01-12 21:10:21.39	331.39	5.28	-40.2	-41.7	19.7	0.00e+00	39	27	0	1182793728	52	6949
2026-01-12 21:10:22.40	331.29	5.22	-40.5	-42.0	19.5	0.00e+00	92	27	0	1184890880	52	7171
2026-01-12 21:10:23.41	331.19	5.16	-40.4	-41.9	19.5	0.00e+00	38	27	0	1186988032	52	7140
2026-01-12 21:10:24.42	331.10	5.11	-40.6	-42.1	19.2	0.00e+00	5	27	0	1189085184	52	7296
2026-01-12 21:10:25.43	331.00	5.05	-40.6	-42.2	19.1	0.00e+00	45	27	0	1191182336	52	7353
2026-01-12 21:10:26.44	330.91	4.99	-40.7	-42.3	18.9	0.00e+00	6	27	0	1193279488	54	6653
2026-01-12 21:10:27.44	330.81	4.94	-40.8	-42.3	19.0	0.00e+00	35	27	0	1194328064	54	6675
2026-01-12 21:10:28.45	330.72	4.88	-40.6	-42.2	19.1	0.00e+00	6	27	0	1196425216	54	6558
2026-01-12 21:10:29.46	330.62	4.83	-40.9	-42.5	18.8	0.00e+00	90	27	0	1198522368	54	6819
2026-01-12 21:10:30.47	330.53	4.77	-40.9	-42.5	18.7	0.00e+00	7	27	0	1200619520	54	6846
